passes_logs/2026/01/05/R4.6S_Anadyr_2ch/R4.6S_Anadyr_2ch__20260105_181233_NOAA_20_JPSS-1_rec.log

#Pass ID: 20260105_181233_NOAA 20 (JPSS-1)
#Satellite: NOAA 20 (JPSS-1)
#Configuration: NOAA 20
#almurnet v.1.7.20251203
#Start time: 2026-01-05 18:12:34

#Version: 2.2.20231116
#Station: R4.6S_Anadyr_2ch
#Location: 177.4865 lon 64.73178 lat
#TLE: 1 43013U 17073A   25350.93759711  .00000080  00000+0  58734-4 0  9994
#TLE: 2 43013  98.7603 287.1885 0002156  81.1496 278.9924 14.19526878418610

#Time	Az	El	Level	Level2	SNR	BER	BlckErr	Temp	State	Recorded	gain1	gain2
2026-01-05 18:12:34.85	38.31	0.09	-51.1	-66.0	3.5	1.51e+00	0	29	0	0	60	97642
2026-01-05 18:12:35.86	38.24	0.14	-51.2	-66.4	3.6	1.51e+00	0	30	104	0	60	102301
2026-01-05 18:12:36.87	38.17	0.19	-51.2	-66.4	3.6	1.51e+00	0	30	104	0	60	102179
2026-01-05 18:12:37.88	38.10	0.24	-51.2	-66.4	3.6	1.51e+00	0	30	104	0	60	102443
2026-01-05 18:12:38.90	38.03	0.29	-51.2	-66.5	3.6	1.51e+00	0	30	104	0	60	102979
2026-01-05 18:12:39.91	37.96	0.34	-51.2	-66.5	3.6	1.51e+00	0	30	104	0	60	102829
2026-01-05 18:12:40.92	37.89	0.40	-51.2	-66.5	3.6	1.51e+00	0	30	104	0	60	102934
2026-01-05 18:12:41.93	37.82	0.45	-51.2	-66.5	3.6	1.51e+00	0	30	104	0	60	102628
2026-01-05 18:12:42.94	37.75	0.50	-51.2	-66.5	3.6	1.51e+00	0	30	104	0	60	102598
2026-01-05 18:12:43.95	37.68	0.55	-51.1	-66.4	3.6	1.51e+00	0	30	104	0	60	101869
2026-01-05 18:12:44.96	37.61	0.60	-51.1	-66.3	3.6	1.51e+00	0	30	104	0	60	101117
2026-01-05 18:12:45.97	37.53	0.65	-51.1	-66.3	3.6	1.51e+00	0	30	104	0	60	101026
2026-01-05 18:12:46.99	37.46	0.70	-51.0	-66.2	3.6	1.51e+00	0	30	104	0	60	99716
2026-01-05 18:12:48.00	37.39	0.76	-50.9	-66.1	3.6	1.51e+00	0	30	104	0	60	98700
2026-01-05 18:12:49.01	37.31	0.81	-50.7	-65.9	3.6	1.51e+00	0	30	104	0	60	96611
2026-01-05 18:12:50.02	37.24	0.86	-50.4	-65.7	3.6	1.51e+00	0	30	104	0	60	93748
2026-01-05 18:12:51.03	37.17	0.91	-50.0	-65.2	3.5	1.51e+00	0	30	104	0	60	88617
2026-01-05 18:12:52.04	37.09	0.96	-49.7	-64.9	3.6	1.51e+00	0	30	104	0	60	86105
2026-01-05 18:12:53.05	37.02	1.01	-49.7	-64.9	3.6	1.51e+00	0	30	104	0	60	85892
2026-01-05 18:12:54.06	36.95	1.07	-49.7	-64.9	3.6	1.51e+00	0	30	104	0	60	86148
2026-01-05 18:12:55.07	36.87	1.12	-49.7	-65.0	3.6	1.51e+00	0	30	104	0	60	86326
2026-01-05 18:12:56.09	36.80	1.17	-49.7	-64.9	3.6	1.51e+00	0	30	104	0	60	86023
2026-01-05 18:12:57.10	36.72	1.22	-49.7	-65.0	3.6	1.51e+00	0	30	104	0	60	86252
2026-01-05 18:12:58.11	36.65	1.28	-49.7	-65.0	3.6	1.51e+00	0	30	104	0	60	86519
2026-01-05 18:12:59.12	36.57	1.33	-49.7	-64.9	3.6	1.51e+00	0	30	104	0	60	85882
2026-01-05 18:13:00.13	36.49	1.38	-49.7	-65.0	3.6	1.51e+00	0	30	104	0	60	86545
2026-01-05 18:13:01.14	36.42	1.43	-49.7	-65.0	3.6	1.51e+00	0	30	104	0	60	86288
2026-01-05 18:13:02.15	36.34	1.48	-49.7	-64.9	3.6	1.51e+00	0	30	104	0	60	86047
2026-01-05 18:13:03.16	36.26	1.54	-49.7	-65.0	3.6	1.51e+00	0	30	104	0	60	86258
2026-01-05 18:13:04.17	36.19	1.59	-49.7	-64.9	3.6	1.51e+00	0	30	104	0	60	85425
2026-01-05 18:13:05.18	36.11	1.64	-49.7	-64.8	3.5	1.51e+00	0	30	104	0	60	84988
2026-01-05 18:13:06.19	36.03	1.69	-49.7	-64.9	3.6	1.51e+00	0	30	104	0	60	85610
2026-01-05 18:13:07.20	35.96	1.75	-49.7	-64.9	3.6	1.51e+00	0	30	104	0	60	85856
2026-01-05 18:13:08.21	35.88	1.80	-49.7	-64.9	3.6	1.51e+00	0	30	104	0	60	85777
2026-01-05 18:13:09.22	35.80	1.85	-49.7	-65.0	3.6	1.51e+00	0	30	104	0	60	86263
2026-01-05 18:13:10.24	35.72	1.90	-49.7	-64.9	3.6	1.51e+00	0	30	104	0	60	85697
2026-01-05 18:13:11.25	35.64	1.96	-49.7	-64.9	3.6	1.51e+00	0	30	104	0	60	85428
2026-01-05 18:13:12.26	35.56	2.01	-49.7	-64.9	3.6	1.51e+00	0	30	104	0	60	85466
2026-01-05 18:13:13.27	35.48	2.06	-49.7	-64.8	3.6	1.51e+00	0	30	104	0	60	84468
2026-01-05 18:13:14.28	35.40	2.11	-49.7	-64.7	3.6	1.51e+00	0	30	104	0	60	83976
2026-01-05 18:13:15.29	35.32	2.17	-49.7	-64.7	3.6	1.51e+00	0	30	104	0	60	83974
2026-01-05 18:13:16.30	35.24	2.22	-49.7	-64.7	3.6	1.51e+00	0	30	104	0	60	83298
2026-01-05 18:13:17.31	35.16	2.27	-49.7	-64.7	3.6	1.51e+00	0	30	104	0	60	84052
2026-01-05 18:13:18.32	35.08	2.33	-49.7	-64.9	3.6	1.51e+00	0	30	104	0	60	85274
2026-01-05 18:13:19.33	35.00	2.38	-49.7	-65.0	3.6	1.51e+00	0	30	104	0	60	86240
2026-01-05 18:13:20.34	34.92	2.43	-49.7	-64.9	3.6	1.51e+00	0	30	104	0	60	85396
2026-01-05 18:13:21.36	34.83	2.49	-49.7	-64.8	3.6	1.51e+00	0	30	104	0	60	84744
2026-01-05 18:13:22.37	34.75	2.54	-49.7	-64.8	3.6	1.51e+00	0	30	104	0	60	84994
2026-01-05 18:13:23.38	34.67	2.59	-49.7	-64.9	3.6	1.51e+00	0	31	104	0	60	85904
2026-01-05 18:13:24.39	34.58	2.65	-49.7	-64.8	3.6	1.51e+00	0	30	104	0	60	85198
2026-01-05 18:13:25.40	34.50	2.70	-49.7	-64.4	3.5	1.51e+00	0	31	104	0	60	80845
2026-01-05 18:13:26.41	34.42	2.75	-49.7	-63.9	3.6	1.51e+00	0	31	104	0	60	76270
2026-01-05 18:13:27.42	34.33	2.81	-49.7	-63.9	3.5	1.51e+00	0	31	104	0	60	76415
2026-01-05 18:13:28.43	34.25	2.86	-49.7	-64.3	3.6	1.51e+00	0	30	104	0	60	80016
2026-01-05 18:13:29.45	34.16	2.91	-49.7	-64.6	3.5	1.51e+00	0	31	104	0	60	83147
2026-01-05 18:13:30.46	34.08	2.97	-49.6	-63.3	3.6	1.51e+00	0	31	104	0	60	71083
2026-01-05 18:13:31.47	33.99	3.02	-49.4	-59.2	4.4	1.45e+00	32	31	0	0	60	44654
2026-01-05 18:13:32.48	33.91	3.07	-49.1	-56.5	6.5	3.38e-01	92	31	102	1048576	60	32537
2026-01-05 18:13:33.49	33.82	3.13	-49.0	-55.9	4.8	1.43e-01	0	31	102	1048576	60	30311
2026-01-05 18:13:34.50	33.74	3.18	-49.9	-65.1	3.6	1.51e+00	0	31	104	1048576	60	87891
2026-01-05 18:13:35.51	33.65	3.23	-49.3	-58.2	5.1	1.49e+00	0	31	104	1048576	60	39809
2026-01-05 18:13:36.52	33.56	3.29	-45.3	-47.5	17.2	7.67e-02	33	31	0	1048576	60	11573
2026-01-05 18:13:37.53	33.48	3.34	-49.2	-58.1	3.9	0.00e+00	92	31	0	1048576	60	39292
2026-01-05 18:13:38.55	33.39	3.40	-49.0	-56.5	5.3	1.51e+00	0	31	104	1048576	60	32555
2026-01-05 18:13:39.56	33.30	3.45	-44.8	-46.8	17.3	0.00e+00	90	31	0	1048576	60	10640
2026-01-05 18:13:40.57	33.21	3.50	-44.6	-46.6	17.7	0.00e+00	54	31	0	1048576	60	10409
2026-01-05 18:13:41.58	33.12	3.56	-44.9	-46.9	17.1	0.00e+00	6	31	0	1048576	60	10777
2026-01-05 18:13:42.59	33.03	3.61	-44.7	-46.6	17.7	0.00e+00	4	31	0	1048576	60	10477
2026-01-05 18:13:43.60	32.95	3.67	-44.3	-46.0	18.2	0.00e+00	60	31	0	1048576	60	9751
2026-01-05 18:13:44.61	32.86	3.72	-44.3	-46.0	18.2	0.00e+00	74	31	0	1048576	60	9782
2026-01-05 18:13:45.62	32.77	3.77	-44.6	-46.4	17.8	0.00e+00	0	31	0	1048576	60	10223
2026-01-05 18:13:46.63	32.68	3.83	-44.5	-46.4	18.2	0.00e+00	91	31	0	1048576	60	10192
2026-01-05 18:13:47.64	32.58	3.88	-44.3	-46.1	18.1	0.00e+00	0	31	0	1048576	60	9817
2026-01-05 18:13:48.66	32.49	3.94	-44.2	-45.9	18.5	0.00e+00	83	31	0	1048576	60	9635
2026-01-05 18:13:49.67	32.40	3.99	-44.3	-46.1	18.3	0.00e+00	0	31	0	1048576	60	9786
2026-01-05 18:13:50.68	32.31	4.05	-44.6	-46.4	17.9	0.00e+00	0	31	0	1048576	60	10211
2026-01-05 18:13:51.69	32.22	4.10	-44.4	-46.1	18.3	0.00e+00	0	31	0	1048576	60	9871
2026-01-05 18:13:52.70	32.13	4.16	-44.3	-46.0	18.4	0.00e+00	0	31	0	1048576	60	9780
2026-01-05 18:13:53.71	32.03	4.21	-44.3	-46.0	18.4	0.00e+00	92	31	0	1048576	60	9724
2026-01-05 18:13:54.72	31.94	4.26	-44.4	-46.2	18.2	0.00e+00	47	31	0	1048576	60	9931
2026-01-05 18:13:55.74	31.85	4.32	-44.3	-46.0	18.5	0.00e+00	91	31	0	1048576	60	9703
2026-01-05 18:13:56.75	31.75	4.37	-44.2	-45.9	18.5	0.00e+00	53	31	0	1048576	60	9652
2026-01-05 18:13:57.76	31.66	4.43	-44.6	-46.4	18.2	0.00e+00	46	31	101	1048576	60	10158
2026-01-05 18:13:58.77	31.56	4.48	-44.3	-46.1	18.4	0.00e+00	1	31	101	1048576	60	9786
2026-01-05 18:13:59.78	31.47	4.54	-44.3	-46.1	18.3	0.00e+00	2	31	101	1048576	60	9795
2026-01-05 18:14:00.79	31.37	4.59	-44.4	-46.2	18.1	0.00e+00	90	31	101	1048576	60	9929
2026-01-05 18:14:01.80	31.28	4.65	-44.5	-46.3	18.1	0.00e+00	47	31	101	1048576	60	10098
2026-01-05 18:14:02.81	31.18	4.70	-44.4	-46.1	18.4	0.00e+00	92	31	101	1048576	60	9875
2026-01-05 18:14:03.82	31.09	4.76	-44.4	-46.2	18.3	0.00e+00	0	31	101	1048576	60	9914
2026-01-05 18:14:04.84	30.99	4.81	-44.5	-46.2	18.3	0.00e+00	54	31	101	1048576	60	9985
2026-01-05 18:14:05.85	30.89	4.87	-44.5	-46.3	18.3	0.00e+00	0	31	101	1048576	60	10054
2026-01-05 18:14:06.86	30.79	4.92	-44.4	-46.1	18.4	0.00e+00	0	31	101	1048576	60	9844
2026-01-05 18:14:07.87	30.70	4.98	-44.5	-46.3	18.4	0.00e+00	0	31	101	1048576	60	10034
2026-01-05 18:14:08.88	30.60	5.03	-44.5	-46.2	18.3	0.00e+00	0	31	101	1048576	60	9976
2026-01-05 18:14:09.89	30.50	5.09	-44.4	-46.1	18.4	0.00e+00	90	31	101	1048576	60	9848
2026-01-05 18:14:10.90	30.40	5.14	-44.5	-46.3	18.2	0.00e+00	3	31	101	1048576	60	10041
2026-01-05 18:14:11.91	30.30	5.20	-44.3	-46.1	18.5	0.00e+00	90	31	101	1048576	60	9786
2026-01-05 18:14:12.92	30.20	5.25	-44.3	-46.0	18.6	0.00e+00	47	31	101	1048576	60	9751
2026-01-05 18:14:13.94	30.10	5.31	-44.4	-46.1	18.5	0.00e+00	46	31	101	1048576	60	9846
2026-01-05 18:14:14.95	30.00	5.36	-44.2	-45.9	18.6	0.00e+00	0	31	101	1048576	60	9638
2026-01-05 18:14:15.96	29.90	5.42	-44.2	-45.9	18.7	0.00e+00	48	31	101	1048576	60	9652
2026-01-05 18:14:16.97	29.80	5.47	-44.3	-45.9	18.7	0.00e+00	92	31	101	1048576	60	9663
2026-01-05 18:14:17.98	29.69	5.53	-44.3	-46.0	18.6	0.00e+00	2	31	101	1048576	60	9767
2026-01-05 18:14:18.99	29.59	5.58	-44.4	-46.1	18.6	0.00e+00	92	31	101	1048576	60	9791
2026-01-05 18:14:20.00	29.49	5.64	-44.3	-46.0	18.7	0.00e+00	2	31	101	1048576	60	9712
2026-01-05 18:14:21.01	29.39	5.69	-44.3	-46.0	18.6	0.00e+00	46	31	101	1048576	60	9696
2026-01-05 18:14:22.02	29.28	5.75	-44.3	-46.0	18.6	0.00e+00	0	31	101	1048576	60	9721
2026-01-05 18:14:23.04	29.18	5.81	-44.2	-45.9	18.8	0.00e+00	0	31	101	1048576	60	9584
2026-01-05 18:14:24.04	29.08	5.86	-44.2	-45.8	18.9	0.00e+00	92	31	101	1048576	60	9491
2026-01-05 18:14:25.06	28.97	5.92	-44.1	-45.8	18.8	0.00e+00	0	31	101	1048576	60	9480
2026-01-05 18:14:26.07	28.86	5.97	-44.1	-45.7	19.0	0.00e+00	92	31	101	1048576	60	9437
2026-01-05 18:14:27.08	28.76	6.03	-44.1	-45.7	19.1	0.00e+00	0	31	101	1048576	60	9450
2026-01-05 18:14:28.09	28.65	6.08	-44.0	-45.6	19.1	0.00e+00	0	31	101	1048576	60	9257
2026-01-05 18:14:29.10	28.55	6.14	-44.1	-45.8	18.9	0.00e+00	36	31	101	1048576	60	9475
2026-01-05 18:14:30.11	28.44	6.19	-44.2	-45.8	18.9	0.00e+00	36	31	101	1048576	60	9489
2026-01-05 18:14:31.12	28.33	6.25	-44.1	-45.6	19.0	0.00e+00	89	31	101	1048576	60	9342
2026-01-05 18:14:32.13	28.23	6.31	-44.2	-45.8	18.9	0.00e+00	36	31	101	1048576	60	9486
2026-01-05 18:14:33.15	28.12	6.36	-44.1	-45.8	19.0	0.00e+00	92	31	101	1048576	60	9472
2026-01-05 18:14:34.16	28.01	6.42	-44.1	-45.7	19.0	0.00e+00	0	31	101	1048576	60	9405
2026-01-05 18:14:35.17	27.90	6.47	-44.0	-45.5	19.2	0.00e+00	0	31	101	1048576	60	9237
2026-01-05 18:14:36.18	27.79	6.53	-44.0	-45.5	19.2	0.00e+00	0	31	101	1048576	60	9216
2026-01-05 18:14:37.19	27.68	6.58	-44.0	-45.6	19.1	0.00e+00	51	31	101	1048576	60	9313
2026-01-05 18:14:38.20	27.57	6.64	-44.1	-45.7	19.2	0.00e+00	72	31	101	1048576	60	9378
2026-01-05 18:14:39.21	27.46	6.70	-43.9	-45.4	19.4	0.00e+00	52	31	101	1048576	60	9096
2026-01-05 18:14:40.22	27.35	6.75	-44.0	-45.6	19.2	0.00e+00	92	31	101	1048576	60	9257
2026-01-05 18:14:41.23	27.24	6.81	-43.8	-45.4	19.4	0.00e+00	0	31	101	1048576	60	9054
2026-01-05 18:14:42.24	27.13	6.86	-43.9	-45.5	19.3	0.00e+00	0	31	101	1048576	60	9135
2026-01-05 18:14:43.25	27.01	6.92	-43.9	-45.4	19.4	0.00e+00	0	31	101	1048576	60	9058
2026-01-05 18:14:44.26	26.90	6.98	-43.8	-45.3	19.6	0.00e+00	0	31	101	1048576	60	8948
2026-01-05 18:14:45.28	26.79	7.03	-43.9	-45.4	19.6	0.00e+00	0	31	101	1048576	60	9048
2026-01-05 18:14:46.29	26.67	7.09	-43.8	-45.3	19.5	0.00e+00	34	31	101	1048576	60	9025
2026-01-05 18:14:47.30	26.56	7.14	-43.7	-45.2	19.6	0.00e+00	92	31	101	1048576	60	8875
2026-01-05 18:14:48.31	26.44	7.20	-43.8	-45.3	19.5	0.00e+00	35	31	101	1048576	60	9002
2026-01-05 18:14:49.32	26.33	7.26	-43.6	-45.0	19.7	0.00e+00	92	31	101	1048576	60	8709
2026-01-05 18:14:50.33	26.21	7.31	-43.4	-44.8	20.0	0.00e+00	0	31	101	1048576	60	8479
2026-01-05 18:14:51.34	26.10	7.37	-43.3	-44.6	19.9	0.00e+00	0	31	101	1048576	60	8318
2026-01-05 18:14:52.35	25.98	7.42	-43.3	-44.6	19.7	0.00e+00	47	31	101	1048576	60	8297
2026-01-05 18:14:53.36	25.86	7.48	-43.3	-44.7	19.7	0.00e+00	46	31	101	1048576	60	8363
2026-01-05 18:14:54.37	25.75	7.54	-43.2	-44.5	20.3	0.00e+00	92	31	101	1048576	60	8219
2026-01-05 18:14:55.39	25.63	7.59	-43.1	-44.4	20.3	0.00e+00	6	31	101	1048576	60	8129
2026-01-05 18:14:56.40	25.51	7.65	-43.1	-44.4	20.4	0.00e+00	91	31	101	1048576	60	8137
2026-01-05 18:14:57.41	25.39	7.70	-43.1	-44.5	20.3	0.00e+00	6	31	101	1048576	60	8161
2026-01-05 18:14:58.42	25.27	7.76	-43.2	-44.5	20.3	0.00e+00	0	31	101	1048576	60	8232
2026-01-05 18:14:59.43	25.15	7.82	-43.2	-44.6	20.2	0.00e+00	5	31	101	1048576	60	8265
2026-01-05 18:15:00.44	25.03	7.87	-43.2	-44.6	20.3	0.00e+00	9	31	101	1048576	60	8238
2026-01-05 18:15:01.45	24.91	7.93	-43.2	-44.5	20.3	0.00e+00	0	31	101	1048576	60	8210
2026-01-05 18:15:02.46	24.79	7.98	-43.2	-44.5	20.3	0.00e+00	7	31	101	1048576	60	8231
2026-01-05 18:15:03.47	24.67	8.04	-43.3	-44.7	20.2	0.00e+00	92	31	101	1048576	60	8378
2026-01-05 18:15:04.49	24.55	8.10	-43.1	-44.4	20.5	0.00e+00	35	31	101	1048576	60	8127
2026-01-05 18:15:05.50	24.42	8.15	-42.9	-44.2	20.6	0.00e+00	61	31	101	1048576	60	7902
2026-01-05 18:15:06.51	24.30	8.21	-42.9	-44.2	20.7	0.00e+00	0	31	101	1048576	60	7917
2026-01-05 18:15:07.52	24.18	8.27	-42.9	-44.3	20.6	0.00e+00	57	31	101	1048576	60	7954
2026-01-05 18:15:08.53	24.05	8.32	-43.2	-44.6	20.4	0.00e+00	0	31	101	1048576	60	8278
2026-01-05 18:15:09.54	23.93	8.38	-43.1	-44.4	20.5	0.00e+00	28	31	101	1048576	60	8129
2026-01-05 18:15:10.55	23.80	8.43	-43.0	-44.3	20.3	0.00e+00	90	31	101	1048576	60	8039
2026-01-05 18:15:11.56	23.68	8.49	-43.2	-44.5	20.5	0.00e+00	29	31	101	1048576	60	8199
2026-01-05 18:15:12.57	23.55	8.55	-43.3	-44.6	20.4	0.00e+00	91	31	101	1048576	60	8292
2026-01-05 18:15:13.59	23.42	8.60	-43.1	-44.4	20.5	0.00e+00	7	31	101	1048576	60	8123
2026-01-05 18:15:14.60	23.30	8.66	-43.6	-45.1	19.8	0.00e+00	6	31	101	1048576	60	8760
2026-01-05 18:15:15.61	23.17	8.71	-43.3	-44.7	20.1	0.00e+00	50	31	101	1048576	60	8401
2026-01-05 18:15:16.62	23.04	8.77	-43.2	-44.6	20.5	0.00e+00	6	31	101	1048576	60	8260
2026-01-05 18:15:17.63	22.91	8.83	-43.0	-44.3	20.7	0.00e+00	91	31	101	1048576	60	7957
2026-01-05 18:15:18.64	22.78	8.88	-42.9	-44.2	20.8	0.00e+00	0	31	101	1048576	60	7869
2026-01-05 18:15:19.65	22.66	8.94	-42.8	-44.1	20.8	0.00e+00	92	31	101	1048576	60	7822
2026-01-05 18:15:20.66	22.53	8.99	-42.8	-44.1	20.8	0.00e+00	0	31	101	1048576	60	7842
2026-01-05 18:15:21.67	22.39	9.05	-42.8	-44.1	20.8	0.00e+00	0	31	101	1048576	60	7815
2026-01-05 18:15:22.69	22.26	9.11	-42.9	-44.2	20.8	0.00e+00	37	31	101	1048576	60	7899
2026-01-05 18:15:23.70	22.13	9.16	-42.8	-44.0	20.9	0.00e+00	36	31	101	1048576	60	7759
2026-01-05 18:15:24.71	22.00	9.22	-42.8	-44.1	20.9	0.00e+00	51	31	101	1048576	60	7794
2026-01-05 18:15:25.72	21.87	9.27	-42.9	-44.1	20.8	0.00e+00	36	31	101	1048576	60	7843
2026-01-05 18:15:26.73	21.73	9.33	-42.8	-44.0	20.9	0.00e+00	92	31	101	1048576	60	7736
2026-01-05 18:15:27.74	21.60	9.38	-42.7	-44.0	21.0	0.00e+00	44	31	101	1048576	60	7688
2026-01-05 18:15:28.75	21.47	9.44	-42.7	-43.9	21.0	0.00e+00	92	31	101	1048576	60	7646
2026-01-05 18:15:29.76	21.33	9.50	-42.7	-43.9	21.0	0.00e+00	43	31	101	1048576	60	7636
2026-01-05 18:15:30.77	21.20	9.55	-42.8	-44.0	20.8	0.00e+00	0	31	101	1048576	60	7728
2026-01-05 18:15:31.78	21.06	9.61	-42.6	-43.8	21.2	0.00e+00	79	31	101	1048576	60	7533
2026-01-05 18:15:32.80	20.92	9.66	-42.5	-43.7	21.2	0.00e+00	2	31	101	1048576	60	7483
2026-01-05 18:15:33.81	20.79	9.72	-42.7	-43.9	21.1	0.00e+00	92	31	101	1048576	60	7672
2026-01-05 18:15:34.82	20.65	9.77	-42.5	-43.6	21.3	0.00e+00	0	31	101	1048576	60	7414
2026-01-05 18:15:35.83	20.51	9.83	-42.5	-43.7	21.1	0.00e+00	91	31	101	1048576	60	7491
2026-01-05 18:15:36.84	20.37	9.89	-42.6	-43.8	21.2	0.00e+00	0	31	101	1048576	60	7518
2026-01-05 18:15:37.85	20.23	9.94	-42.5	-43.7	21.2	0.00e+00	0	31	101	1048576	60	7464
2026-01-05 18:15:38.86	20.09	10.00	-42.5	-43.7	21.2	0.00e+00	0	31	101	1048576	60	7488
2026-01-05 18:15:39.87	19.95	10.05	-42.7	-43.9	21.1	0.00e+00	31	31	101	1048576	60	7637
2026-01-05 18:15:40.88	19.81	10.11	-42.5	-43.7	21.3	0.00e+00	92	31	101	1048576	60	7430
2026-01-05 18:15:41.89	19.67	10.16	-42.5	-43.7	21.3	0.00e+00	0	31	101	1048576	60	7460
2026-01-05 18:15:42.90	19.53	10.22	-42.6	-43.8	21.2	0.00e+00	92	31	101	1048576	60	7523
2026-01-05 18:15:43.92	19.39	10.27	-42.6	-43.8	21.2	0.00e+00	0	31	101	1048576	60	7527
2026-01-05 18:15:44.93	19.24	10.33	-42.6	-43.8	21.2	0.00e+00	35	31	101	1048576	60	7572
2026-01-05 18:15:45.94	19.10	10.38	-42.6	-43.8	21.1	0.00e+00	44	31	101	1048576	60	7574
2026-01-05 18:15:46.95	18.96	10.44	-42.7	-43.9	21.1	0.00e+00	0	31	101	1048576	60	7650
2026-01-05 18:15:47.96	18.81	10.49	-42.7	-43.9	21.0	0.00e+00	92	31	101	1048576	60	7669
2026-01-05 18:15:48.97	18.67	10.55	-42.6	-43.8	21.2	0.00e+00	49	31	101	1048576	60	7582
2026-01-05 18:15:49.98	18.52	10.60	-42.7	-43.9	21.0	0.00e+00	92	31	101	1048576	60	7650
2026-01-05 18:15:51.00	18.37	10.66	-42.8	-44.1	21.0	0.00e+00	2	31	101	1048576	60	7806
2026-01-05 18:15:52.01	18.23	10.71	-42.7	-43.9	21.1	0.00e+00	17	31	101	1048576	60	7667
2026-01-05 18:15:53.02	18.08	10.77	-42.7	-44.0	21.1	0.00e+00	0	31	101	1048576	60	7713
2026-01-05 18:15:54.03	17.93	10.82	-42.7	-43.9	21.1	0.00e+00	0	31	101	1048576	60	7681
2026-01-05 18:15:55.04	17.79	10.88	-42.7	-43.9	21.2	0.00e+00	18	31	101	1048576	60	7612
2026-01-05 18:15:56.05	17.64	10.93	-42.6	-43.8	21.2	0.00e+00	0	31	101	1048576	60	7577
2026-01-05 18:15:57.06	17.49	10.99	-42.7	-43.9	21.1	0.00e+00	91	31	101	1048576	60	7635
2026-01-05 18:15:58.07	17.34	11.04	-42.5	-43.7	21.4	0.00e+00	39	31	101	1048576	60	7448
2026-01-05 18:15:59.08	17.19	11.09	-42.4	-43.6	21.4	0.00e+00	90	31	101	1048576	60	7348
2026-01-05 18:16:00.10	17.03	11.15	-42.4	-43.6	21.3	0.00e+00	39	31	101	1048576	60	7393
2026-01-05 18:16:01.11	16.88	11.20	-42.4	-43.5	21.5	0.00e+00	0	31	101	1048576	60	7319
2026-01-05 18:16:02.12	16.73	11.26	-42.5	-43.7	21.3	0.00e+00	0	31	101	1048576	60	7436
2026-01-05 18:16:03.13	16.58	11.31	-42.6	-43.8	21.3	0.00e+00	0	31	101	1048576	60	7583
2026-01-05 18:16:04.14	16.42	11.36	-42.6	-43.8	21.3	0.00e+00	90	31	101	1048576	60	7520
2026-01-05 18:16:05.15	16.27	11.42	-42.7	-43.9	21.1	0.00e+00	45	31	101	1048576	60	7639
2026-01-05 18:16:06.16	16.12	11.47	-42.7	-43.9	21.1	0.00e+00	92	31	101	1048576	60	7665
2026-01-05 18:16:07.17	15.96	11.53	-42.7	-43.9	21.2	0.00e+00	0	31	101	1048576	60	7625
2026-01-05 18:16:08.18	15.80	11.58	-42.6	-43.7	21.3	0.00e+00	49	31	101	1048576	60	7505
2026-01-05 18:16:09.20	15.65	11.63	-42.8	-44.0	21.1	0.00e+00	2	31	101	1048576	60	7735
2026-01-05 18:16:10.21	15.49	11.69	-42.6	-43.8	21.2	0.00e+00	2	31	101	1048576	60	7533
2026-01-05 18:16:11.22	15.33	11.74	-42.6	-43.7	21.3	0.00e+00	92	31	101	1048576	60	7508
2026-01-05 18:16:12.23	15.17	11.79	-42.6	-43.8	21.3	0.00e+00	0	31	101	1048576	60	7524
2026-01-05 18:16:13.24	15.02	11.85	-42.4	-43.5	21.5	0.00e+00	92	31	101	1048576	60	7335
2026-01-05 18:16:14.25	14.86	11.90	-42.4	-43.6	21.6	0.00e+00	2	31	101	1048576	60	7368
2026-01-05 18:16:15.26	14.70	11.95	-42.3	-43.5	21.5	0.00e+00	0	31	101	1048576	60	7277
2026-01-05 18:16:16.27	14.54	12.00	-42.1	-43.3	21.7	0.00e+00	38	31	101	1048576	60	7098
2026-01-05 18:16:17.28	14.38	12.06	-42.2	-43.3	21.5	0.00e+00	36	31	101	1048576	60	7149
2026-01-05 18:16:18.30	14.21	12.11	-42.1	-43.2	21.9	0.00e+00	37	31	101	1048576	60	7079
2026-01-05 18:16:19.31	14.05	12.16	-42.0	-43.1	21.9	0.00e+00	0	31	101	1048576	60	6980
2026-01-05 18:16:20.32	13.89	12.21	-42.0	-43.1	21.9	0.00e+00	92	31	101	1048576	60	6961
2026-01-05 18:16:21.33	13.72	12.27	-41.9	-43.0	22.0	0.00e+00	39	31	101	1048576	60	6908
2026-01-05 18:16:22.34	13.56	12.32	-41.9	-42.9	22.1	0.00e+00	92	31	101	1048576	60	6848
2026-01-05 18:16:23.35	13.40	12.37	-41.8	-42.9	22.2	0.00e+00	36	31	101	1048576	60	6771
2026-01-05 18:16:24.36	13.23	12.42	-41.6	-42.7	22.4	0.00e+00	38	31	101	1048576	60	6633
2026-01-05 18:16:25.37	13.06	12.47	-41.7	-42.8	22.3	0.00e+00	37	31	101	1048576	60	6723
2026-01-05 18:16:26.39	12.90	12.52	-41.5	-42.5	22.6	0.00e+00	7	31	101	1048576	60	6493
2026-01-05 18:16:27.40	12.73	12.58	-41.3	-42.3	22.7	0.00e+00	92	31	101	1048576	60	6384
2026-01-05 18:16:28.41	12.56	12.63	-41.3	-42.3	22.8	0.00e+00	45	31	101	1048576	60	6335
2026-01-05 18:16:29.42	12.39	12.68	-41.3	-42.3	22.7	0.00e+00	91	31	101	1048576	60	6361
2026-01-05 18:16:30.43	12.23	12.73	-41.3	-42.3	22.7	0.00e+00	0	31	101	1048576	60	6342
2026-01-05 18:16:31.44	12.06	12.78	-41.3	-42.3	22.7	0.00e+00	7	31	101	1048576	60	6343
2026-01-05 18:16:32.45	11.89	12.83	-41.1	-42.1	22.8	0.00e+00	0	31	101	1048576	60	6212
2026-01-05 18:16:33.46	11.72	12.88	-41.1	-42.1	22.9	0.00e+00	6	31	101	1048576	60	6215
2026-01-05 18:16:34.47	11.55	12.93	-41.1	-42.1	22.8	0.00e+00	90	31	101	1048576	60	6201
2026-01-05 18:16:35.49	11.37	12.98	-41.1	-42.0	22.9	0.00e+00	30	31	101	1048576	60	6172
2026-01-05 18:16:36.50	11.20	13.03	-41.1	-42.1	22.9	0.00e+00	91	31	101	1048576	60	6220
2026-01-05 18:16:37.51	11.03	13.08	-41.1	-42.1	22.8	0.00e+00	0	31	101	1048576	60	6242
2026-01-05 18:16:38.52	10.85	13.13	-41.1	-42.1	22.9	0.00e+00	55	31	101	1048576	60	6219
2026-01-05 18:16:39.53	10.68	13.18	-41.2	-42.2	22.8	0.00e+00	55	31	101	1048576	60	6277
2026-01-05 18:16:40.54	10.50	13.23	-41.1	-42.1	22.9	0.00e+00	54	31	101	1048576	60	6206
2026-01-05 18:16:41.55	10.33	13.28	-40.9	-41.9	23.1	0.00e+00	92	31	101	1048576	60	6091
2026-01-05 18:16:42.56	10.15	13.33	-41.0	-42.0	23.0	0.00e+00	31	31	101	1048576	60	6151
2026-01-05 18:16:43.57	9.98	13.38	-41.0	-42.0	23.0	0.00e+00	92	31	101	1048576	60	6126
2026-01-05 18:16:44.58	9.80	13.43	-40.9	-41.8	23.2	0.00e+00	50	31	101	1048576	60	6017
2026-01-05 18:16:45.59	9.62	13.48	-40.8	-41.8	23.2	0.00e+00	39	31	101	1048576	60	5971
2026-01-05 18:16:46.61	9.44	13.53	-40.8	-41.8	23.3	0.00e+00	49	31	101	1048576	60	5976
2026-01-05 18:16:47.62	9.26	13.57	-40.5	-41.5	23.5	0.00e+00	0	31	101	1048576	60	5768
2026-01-05 18:16:48.63	9.09	13.62	-40.5	-41.5	23.4	0.00e+00	2	31	101	1048576	60	5789
2026-01-05 18:16:49.64	8.91	13.67	-40.5	-41.4	23.5	0.00e+00	0	31	101	1048576	60	5745
2026-01-05 18:16:50.65	8.72	13.72	-40.4	-41.3	23.6	0.00e+00	92	31	101	1048576	60	5663
2026-01-05 18:16:51.66	8.54	13.76	-40.3	-41.2	23.3	0.00e+00	7	31	101	1048576	60	5592
2026-01-05 18:16:52.67	8.36	13.81	-40.5	-41.4	23.7	0.00e+00	75	31	101	1048576	60	5711
2026-01-05 18:16:53.69	8.18	13.86	-40.3	-41.2	23.7	0.00e+00	38	31	101	1048576	60	5625
2026-01-05 18:16:54.70	7.99	13.91	-40.4	-41.3	23.7	0.00e+00	39	31	101	1048576	60	5664
2026-01-05 18:16:55.71	7.81	13.95	-40.3	-41.2	23.7	0.00e+00	0	31	101	1048576	60	5616
2026-01-05 18:16:56.72	7.63	14.00	-40.0	-40.9	23.9	0.00e+00	42	31	101	1048576	58	6089
2026-01-05 18:16:57.73	7.44	14.05	-40.0	-40.8	23.9	0.00e+00	92	31	101	1048576	58	6031
2026-01-05 18:16:58.74	7.26	14.09	-40.1	-41.0	23.8	0.00e+00	44	31	101	1048576	58	6120
2026-01-05 18:16:59.75	7.07	14.14	-40.0	-40.9	24.0	0.00e+00	92	31	101	1048576	58	6087
2026-01-05 18:17:00.76	6.89	14.18	-40.2	-41.1	23.8	0.00e+00	44	31	101	1048576	58	6209
2026-01-05 18:17:01.77	6.70	14.23	-40.1	-41.0	23.8	0.00e+00	0	31	101	1048576	58	6155
2026-01-05 18:17:02.78	6.51	14.27	-40.1	-41.0	23.8	0.00e+00	43	31	101	1048576	58	6168
2026-01-05 18:17:03.79	6.32	14.32	-40.2	-41.1	23.8	0.00e+00	0	31	101	1048576	58	6179
2026-01-05 18:17:04.80	6.13	14.36	-40.3	-41.2	23.6	0.00e+00	35	31	101	1048576	58	6264
2026-01-05 18:17:05.81	5.94	14.41	-40.3	-41.2	23.7	0.00e+00	50	31	101	1048576	58	6290
2026-01-05 18:17:06.83	5.75	14.45	-40.4	-41.3	23.6	0.00e+00	90	31	101	1048576	58	6373
2026-01-05 18:17:07.84	5.56	14.50	-40.5	-41.4	23.4	0.00e+00	0	31	101	1048576	58	6456
2026-01-05 18:17:08.85	5.37	14.54	-40.6	-41.5	23.4	0.00e+00	57	31	101	1048576	58	6539
2026-01-05 18:17:09.86	5.18	14.58	-40.8	-41.7	23.3	0.00e+00	0	31	101	1048576	58	6683
2026-01-05 18:17:10.87	4.99	14.63	-40.8	-41.7	23.3	0.00e+00	39	31	101	1048576	58	6684
2026-01-05 18:17:11.88	4.80	14.67	-40.7	-41.7	23.3	0.00e+00	0	31	101	1048576	58	6639
2026-01-05 18:17:12.89	4.60	14.71	-40.6	-41.5	23.4	0.00e+00	0	31	101	1048576	58	6538
2026-01-05 18:17:13.90	4.41	14.76	-40.6	-41.5	23.4	0.00e+00	91	31	101	1048576	58	6505
2026-01-05 18:17:14.91	4.21	14.80	-40.6	-41.5	23.5	0.00e+00	3	31	101	1048576	58	6501
2026-01-05 18:17:15.92	4.02	14.84	-40.5	-41.4	23.5	0.00e+00	83	31	101	1048576	58	6459
2026-01-05 18:17:16.93	3.82	14.88	-40.6	-41.5	23.5	0.00e+00	38	31	101	1048576	58	6504
2026-01-05 18:17:17.95	3.63	14.92	-40.7	-41.6	23.3	0.00e+00	40	31	101	1048576	58	6607
2026-01-05 18:17:18.96	3.43	14.96	-40.5	-41.4	23.5	0.00e+00	0	31	101	1048576	58	6430
2026-01-05 18:17:19.97	3.23	15.01	-40.5	-41.4	23.4	0.00e+00	0	31	101	1048576	58	6430
2026-01-05 18:17:20.98	3.03	15.05	-40.5	-41.4	23.5	0.00e+00	92	31	101	1048576	58	6411
2026-01-05 18:17:21.99	2.84	15.09	-40.6	-41.6	23.4	0.00e+00	49	31	101	1048576	58	6566
2026-01-05 18:17:23.00	2.64	15.13	-40.5	-41.5	23.5	0.00e+00	82	31	101	1048576	58	6478
2026-01-05 18:17:24.01	2.44	15.17	-40.6	-41.5	23.4	0.00e+00	43	31	101	1048576	58	6519
2026-01-05 18:17:25.02	2.24	15.21	-40.3	-41.2	23.7	0.00e+00	0	31	101	1048576	58	6316
2026-01-05 18:17:26.03	2.04	15.25	-40.3	-41.2	23.8	0.00e+00	0	31	101	1048576	58	6247
2026-01-05 18:17:27.05	1.83	15.28	-40.5	-41.4	23.6	0.00e+00	0	31	101	1048576	58	6428
2026-01-05 18:17:28.06	1.63	15.32	-40.2	-41.1	23.8	0.00e+00	89	31	101	1048576	58	6234
2026-01-05 18:17:29.07	1.43	15.36	-40.0	-40.9	23.9	0.00e+00	0	31	101	1048576	58	6047
2026-01-05 18:17:30.08	1.23	15.40	-40.1	-41.0	23.9	0.00e+00	92	31	101	1048576	58	6104
2026-01-05 18:17:31.09	1.02	15.44	-40.1	-41.0	23.9	0.00e+00	0	31	101	1048576	58	6148
2026-01-05 18:17:32.10	0.82	15.47	-40.2	-41.1	23.8	0.00e+00	39	31	101	1048576	58	6189
2026-01-05 18:17:33.11	0.62	15.51	-40.2	-41.1	23.8	0.00e+00	0	31	101	1048576	58	6182
2026-01-05 18:17:34.12	0.41	15.55	-39.9	-40.8	23.4	0.00e+00	40	31	101	1048576	58	5990
2026-01-05 18:17:35.13	0.21	15.59	-40.0	-40.8	24.0	0.00e+00	40	31	101	1048576	58	6025
2026-01-05 18:17:36.14	0.00	15.62	-39.9	-40.7	24.1	0.00e+00	39	31	101	1048576	58	5955
2026-01-05 18:17:37.15	359.80	15.66	-40.0	-40.9	24.0	0.00e+00	92	31	101	1048576	58	6055
2026-01-05 18:17:38.17	359.59	15.69	-40.2	-41.1	24.0	0.00e+00	0	31	101	1048576	58	6188
2026-01-05 18:17:39.18	359.38	15.73	-40.1	-41.0	23.9	0.00e+00	0	31	101	1048576	58	6113
2026-01-05 18:17:40.19	359.17	15.76	-40.0	-40.9	24.0	0.00e+00	0	31	101	1048576	58	6061
2026-01-05 18:17:41.20	358.96	15.80	-40.0	-40.9	24.0	0.00e+00	2	31	101	1048576	58	6083
2026-01-05 18:17:42.21	358.76	15.83	-40.0	-40.9	24.1	0.00e+00	55	31	101	1048576	58	6060
2026-01-05 18:17:43.22	358.55	15.87	-39.9	-40.8	24.1	0.00e+00	0	31	101	1048576	58	5994
2026-01-05 18:17:44.23	358.34	15.90	-40.0	-40.9	24.1	0.00e+00	92	31	101	1048576	58	6056
2026-01-05 18:17:45.24	358.13	15.93	-40.0	-40.9	24.1	0.00e+00	2	31	101	1048576	58	6042
2026-01-05 18:17:46.25	357.92	15.97	-40.1	-41.0	23.8	0.00e+00	0	31	101	1048576	58	6145
2026-01-05 18:17:47.26	357.71	16.00	-40.3	-41.2	23.7	0.00e+00	0	31	101	1048576	58	6269
2026-01-05 18:17:48.27	357.49	16.03	-40.0	-40.9	24.0	0.00e+00	40	31	101	1048576	58	6067
2026-01-05 18:17:49.29	357.28	16.06	-40.0	-40.8	24.1	0.00e+00	0	31	101	1048576	58	6033
2026-01-05 18:17:50.30	357.07	16.09	-39.9	-40.7	24.1	0.00e+00	0	31	101	1048576	58	5948
2026-01-05 18:17:51.31	356.85	16.12	-39.9	-40.8	24.0	0.00e+00	91	31	101	1048576	58	6012
2026-01-05 18:17:52.32	356.64	16.16	-39.9	-40.8	24.0	0.00e+00	43	31	101	1048576	58	6000
2026-01-05 18:17:53.33	356.43	16.19	-40.2	-41.1	23.9	0.00e+00	92	31	101	1048576	58	6188
2026-01-05 18:17:54.34	356.21	16.22	-40.2	-41.1	23.8	0.00e+00	0	31	101	1048576	58	6243
2026-01-05 18:17:55.35	356.00	16.25	-40.3	-41.3	23.7	0.00e+00	2	31	101	1048576	58	6334
2026-01-05 18:17:56.36	355.78	16.27	-40.3	-41.2	23.7	0.00e+00	39	31	101	1048576	58	6312
2026-01-05 18:17:57.37	355.57	16.30	-40.0	-40.9	24.0	0.00e+00	43	31	101	1048576	58	6067
2026-01-05 18:17:58.39	355.35	16.33	-40.1	-41.0	23.9	0.00e+00	90	31	101	1048576	58	6105
2026-01-05 18:17:59.40	355.13	16.36	-40.0	-40.9	23.9	0.00e+00	43	31	101	1048576	58	6068
2026-01-05 18:18:00.41	354.92	16.39	-40.0	-40.9	23.9	0.00e+00	92	31	101	1048576	58	6092
2026-01-05 18:18:01.42	354.70	16.42	-40.1	-41.0	23.9	0.00e+00	6	31	101	1048576	58	6106
2026-01-05 18:18:02.43	354.48	16.44	-40.1	-40.9	24.0	0.00e+00	0	31	101	1048576	58	6093
2026-01-05 18:18:03.44	354.27	16.47	-40.0	-40.9	24.0	0.00e+00	5	31	101	1048576	58	6075
2026-01-05 18:18:04.45	354.05	16.49	-40.0	-40.9	24.1	0.00e+00	7	31	101	1048576	58	6060
2026-01-05 18:18:05.46	353.83	16.52	-40.1	-41.0	24.0	0.00e+00	0	31	101	1048576	58	6121
2026-01-05 18:18:06.47	353.61	16.55	-39.9	-40.7	24.1	0.00e+00	0	31	101	1048576	58	5940
2026-01-05 18:18:07.49	353.39	16.57	-39.8	-40.6	24.2	0.00e+00	92	31	101	1048576	58	5876
2026-01-05 18:18:08.50	353.17	16.60	-39.9	-40.7	24.1	0.00e+00	0	31	101	1048576	58	5944
2026-01-05 18:18:09.51	352.95	16.62	-40.0	-40.8	24.1	0.00e+00	92	31	101	1048576	58	6017
2026-01-05 18:18:10.52	352.73	16.64	-40.2	-41.1	23.7	0.00e+00	33	31	101	1048576	58	6178
2026-01-05 18:18:11.53	352.51	16.67	-40.3	-41.2	23.8	0.00e+00	51	31	101	1048576	58	6250
2026-01-05 18:18:12.54	352.29	16.69	-40.4	-41.3	23.7	0.00e+00	29	31	101	1048576	58	6349
2026-01-05 18:18:13.55	352.06	16.71	-40.3	-41.2	23.8	0.00e+00	47	31	101	1048576	58	6284
2026-01-05 18:18:14.56	351.84	16.73	-40.4	-41.3	23.7	0.00e+00	92	31	101	1048576	58	6358
2026-01-05 18:18:15.57	351.62	16.76	-40.5	-41.4	23.6	0.00e+00	49	31	101	1048576	58	6405
2026-01-05 18:18:16.59	351.40	16.78	-40.5	-41.5	23.5	0.00e+00	92	31	101	1048576	58	6477
2026-01-05 18:18:17.60	351.17	16.80	-40.7	-41.6	23.4	0.00e+00	6	31	101	1048576	58	6612
2026-01-05 18:18:18.61	350.95	16.82	-40.8	-41.7	23.3	0.00e+00	6	31	101	1048576	58	6663
2026-01-05 18:18:19.62	350.73	16.84	-41.0	-42.0	23.1	0.00e+00	4	31	101	1048576	58	6883
2026-01-05 18:18:20.63	350.50	16.86	-40.9	-41.9	23.2	0.00e+00	6	31	101	1048576	58	6784
2026-01-05 18:18:21.64	350.28	16.88	-41.0	-41.9	23.2	0.00e+00	91	31	101	1048576	58	6825
2026-01-05 18:18:22.65	350.06	16.90	-40.8	-41.8	23.2	0.00e+00	6	31	101	1048576	58	6693
2026-01-05 18:18:23.66	349.83	16.91	-40.6	-41.5	23.5	0.00e+00	92	31	101	1048576	58	6532
2026-01-05 18:18:24.67	349.61	16.93	-40.6	-41.6	23.4	0.00e+00	0	31	101	1048576	58	6553
2026-01-05 18:18:25.69	349.38	16.95	-40.4	-41.3	23.6	0.00e+00	34	31	101	1048576	58	6384
2026-01-05 18:18:26.70	349.15	16.97	-40.7	-41.6	23.3	0.00e+00	0	31	101	1048576	58	6602
2026-01-05 18:18:27.71	348.93	16.98	-40.9	-41.9	23.1	0.00e+00	0	31	101	1048576	58	6799
2026-01-05 18:18:28.72	348.70	17.00	-41.0	-41.9	23.1	0.00e+00	92	31	101	1048576	58	6831
2026-01-05 18:18:29.73	348.48	17.01	-40.8	-41.7	23.3	0.00e+00	42	31	101	1048576	58	6674
2026-01-05 18:18:30.74	348.25	17.03	-40.8	-41.7	23.3	0.00e+00	92	31	101	1048576	58	6646
2026-01-05 18:18:31.75	348.02	17.04	-40.6	-41.6	23.4	0.00e+00	42	31	101	1048576	58	6541
2026-01-05 18:18:32.76	347.80	17.06	-40.7	-41.6	23.4	0.00e+00	90	31	101	1048576	58	6577
2026-01-05 18:18:33.77	347.57	17.07	-40.9	-41.8	23.2	0.00e+00	0	31	101	1048576	58	6740
2026-01-05 18:18:34.78	347.34	17.08	-41.0	-42.0	23.2	0.00e+00	48	31	101	1048576	58	6887
2026-01-05 18:18:35.80	347.11	17.10	-40.8	-41.8	23.2	0.00e+00	57	31	101	1048576	58	6712
2026-01-05 18:18:36.81	346.89	17.11	-40.9	-41.9	23.1	0.00e+00	0	31	101	1048576	58	6814
2026-01-05 18:18:37.82	346.66	17.12	-41.0	-41.9	23.1	0.00e+00	92	31	101	1048576	58	6826
2026-01-05 18:18:38.83	346.43	17.13	-41.0	-41.9	23.1	0.00e+00	0	31	101	1048576	58	6838
2026-01-05 18:18:39.84	346.20	17.14	-41.1	-42.1	23.0	0.00e+00	92	31	101	1048576	58	6969
2026-01-05 18:18:40.85	345.97	17.15	-41.0	-41.9	23.2	0.00e+00	0	31	101	1048576	60	6084
2026-01-05 18:18:41.86	345.74	17.16	-41.0	-41.9	23.2	0.00e+00	0	31	101	1048576	60	6078
2026-01-05 18:18:42.87	345.52	17.17	-40.9	-41.9	23.1	0.00e+00	0	31	101	1048576	60	6056
2026-01-05 18:18:43.89	345.29	17.18	-41.0	-42.0	23.1	0.00e+00	34	31	101	1048576	60	6120
2026-01-05 18:18:44.90	345.06	17.19	-41.0	-42.0	23.1	0.00e+00	92	31	101	1048576	60	6120
2026-01-05 18:18:45.91	344.83	17.20	-41.1	-42.1	23.0	0.00e+00	39	31	101	1048576	60	6227
2026-01-05 18:18:46.92	344.60	17.21	-41.0	-42.0	23.1	0.00e+00	90	31	101	1048576	60	6135
2026-01-05 18:18:47.93	344.37	17.22	-41.0	-42.0	23.1	0.00e+00	41	31	101	1048576	60	6147
2026-01-05 18:18:48.94	344.14	17.22	-41.0	-42.0	23.1	0.00e+00	43	31	101	1048576	60	6131
2026-01-05 18:18:49.95	343.91	17.23	-40.9	-41.9	23.2	0.00e+00	47	31	101	1048576	60	6068
2026-01-05 18:18:50.96	343.68	17.23	-40.9	-41.9	23.3	0.00e+00	4	31	101	1048576	60	6048
2026-01-05 18:18:51.97	343.45	17.24	-41.0	-42.0	23.1	0.00e+00	92	31	101	1048576	60	6147
2026-01-05 18:18:52.99	343.22	17.24	-40.9	-41.8	23.3	0.00e+00	42	31	101	1048576	60	6002
2026-01-05 18:18:54.00	342.99	17.25	-40.8	-41.7	23.4	0.00e+00	92	31	101	1048576	60	5925
2026-01-05 18:18:55.01	342.76	17.25	-40.8	-41.8	23.3	0.00e+00	0	31	101	1048576	60	5978
2026-01-05 18:18:56.02	342.53	17.26	-40.9	-41.8	23.1	0.00e+00	47	31	101	1048576	60	6007
2026-01-05 18:18:57.03	342.30	17.26	-40.9	-41.8	23.3	0.00e+00	2	31	101	1048576	60	6016
2026-01-05 18:18:58.04	342.07	17.26	-41.0	-42.0	23.1	0.00e+00	0	31	101	1048576	60	6109
2026-01-05 18:18:59.05	341.84	17.26	-40.9	-41.8	23.3	0.00e+00	0	31	101	1048576	60	6003
2026-01-05 18:19:00.06	341.61	17.27	-41.0	-42.0	23.2	0.00e+00	0	31	101	1048576	60	6113
2026-01-05 18:19:01.07	341.38	17.27	-40.8	-41.7	23.3	0.00e+00	91	31	101	1048576	60	5951
2026-01-05 18:19:02.08	341.15	17.27	-40.9	-41.9	23.1	0.00e+00	41	31	101	1048576	60	6048
2026-01-05 18:19:03.10	340.92	17.27	-41.0	-42.0	23.1	0.00e+00	90	31	101	1048576	60	6104
2026-01-05 18:19:04.11	340.69	17.27	-41.1	-42.1	23.0	0.00e+00	0	31	101	1048576	60	6191
2026-01-05 18:19:05.12	340.46	17.27	-41.1	-42.1	22.9	0.00e+00	42	31	101	1048576	60	6227
2026-01-05 18:19:06.13	340.23	17.27	-41.2	-42.2	22.9	0.00e+00	0	31	101	1048576	60	6251
2026-01-05 18:19:07.14	340.00	17.26	-41.3	-42.3	22.0	0.00e+00	0	31	101	1048576	60	6375
2026-01-05 18:19:08.15	339.77	17.26	-41.0	-42.0	23.1	0.00e+00	91	31	101	1048576	60	6119
2026-01-05 18:19:09.16	339.54	17.26	-41.0	-42.0	23.0	0.00e+00	41	31	101	1048576	60	6156
2026-01-05 18:19:10.17	339.31	17.26	-40.9	-41.8	23.2	0.00e+00	92	31	101	1048576	60	6018
2026-01-05 18:19:11.19	339.07	17.25	-40.7	-41.6	23.4	0.00e+00	2	31	101	1048576	60	5866
2026-01-05 18:19:12.19	338.85	17.25	-40.7	-41.6	23.3	0.00e+00	0	31	101	1048576	60	5873
2026-01-05 18:19:13.21	338.62	17.24	-40.7	-41.6	23.4	0.00e+00	0	31	101	1048576	60	5879
2026-01-05 18:19:14.22	338.39	17.24	-40.6	-41.5	23.5	0.00e+00	0	31	101	1048576	60	5827
2026-01-05 18:19:15.23	338.16	17.23	-40.7	-41.6	23.4	0.00e+00	87	31	101	1048576	60	5868
2026-01-05 18:19:16.24	337.93	17.23	-40.8	-41.7	23.4	0.00e+00	2	31	101	1048576	60	5939
2026-01-05 18:19:17.25	337.70	17.22	-40.9	-41.8	23.2	0.00e+00	92	31	101	1048576	60	6028
2026-01-05 18:19:18.26	337.47	17.21	-40.8	-41.8	23.3	0.00e+00	0	31	101	1048576	60	6016
2026-01-05 18:19:19.27	337.24	17.21	-41.0	-42.0	23.1	0.00e+00	37	31	101	1048576	60	6124
2026-01-05 18:19:20.28	337.01	17.20	-40.9	-41.8	23.2	0.00e+00	36	31	101	1048576	60	6033
2026-01-05 18:19:21.30	336.78	17.19	-40.9	-41.9	23.1	0.00e+00	32	31	101	1048576	60	6072
2026-01-05 18:19:22.31	336.55	17.18	-41.0	-41.9	23.1	0.00e+00	32	31	101	1048576	60	6086
2026-01-05 18:19:23.32	336.32	17.17	-41.0	-42.0	23.2	0.00e+00	0	31	101	1048576	60	6107
2026-01-05 18:19:24.33	336.09	17.16	-40.7	-41.7	23.3	0.00e+00	92	31	101	1048576	60	5921
2026-01-05 18:19:25.34	335.86	17.15	-40.8	-41.8	23.4	0.00e+00	42	31	101	1048576	60	5981
2026-01-05 18:19:26.35	335.64	17.14	-40.5	-41.4	23.5	0.00e+00	92	31	101	1048576	60	5756
2026-01-05 18:19:27.36	335.41	17.13	-40.4	-41.3	23.7	0.00e+00	42	31	101	1048576	60	5666
2026-01-05 18:19:28.37	335.18	17.12	-40.5	-41.4	23.6	0.00e+00	43	31	101	1048576	60	5747
2026-01-05 18:19:29.38	334.95	17.11	-40.3	-41.2	23.4	0.00e+00	67	31	101	1048576	60	5624
2026-01-05 18:19:30.39	334.72	17.09	-40.5	-41.4	23.6	0.00e+00	6	31	101	1048576	60	5712
2026-01-05 18:19:31.41	334.49	17.08	-40.5	-41.4	23.5	0.00e+00	92	31	101	1048576	60	5743
2026-01-05 18:19:32.42	334.27	17.07	-40.5	-41.4	23.6	0.00e+00	6	31	101	1048576	60	5732
2026-01-05 18:19:33.43	334.04	17.05	-40.4	-41.4	23.7	0.00e+00	92	31	101	1048576	60	5702
2026-01-05 18:19:34.44	333.81	17.04	-40.4	-41.3	23.6	0.00e+00	0	31	101	1048576	60	5694
2026-01-05 18:19:35.45	333.59	17.02	-40.4	-41.4	23.6	0.00e+00	0	31	101	1048576	60	5697
2026-01-05 18:19:36.46	333.36	17.01	-40.4	-41.3	23.7	0.00e+00	5	31	101	1048576	60	5673
2026-01-05 18:19:37.47	333.13	16.99	-40.3	-41.2	23.8	0.00e+00	6	31	101	1048576	60	5629
2026-01-05 18:19:38.49	332.91	16.98	-40.3	-41.2	23.8	0.00e+00	90	31	101	1048576	60	5585
2026-01-05 18:19:39.50	332.68	16.96	-40.3	-41.2	23.6	0.00e+00	0	31	101	1048576	60	5623
2026-01-05 18:19:40.51	332.46	16.94	-40.0	-40.9	24.0	0.00e+00	90	31	101	1048576	58	6068
2026-01-05 18:19:41.52	332.23	16.93	-39.9	-40.8	24.0	0.00e+00	48	31	101	1048576	58	5983
2026-01-05 18:19:42.53	332.01	16.91	-40.0	-40.8	24.1	0.00e+00	38	31	101	1048576	58	6029
2026-01-05 18:19:43.54	331.78	16.89	-40.0	-40.9	24.0	0.00e+00	38	31	101	1048576	58	6073
2026-01-05 18:19:44.55	331.56	16.87	-40.0	-40.9	24.1	0.00e+00	38	31	101	1048576	58	6034
2026-01-05 18:19:45.56	331.33	16.85	-39.9	-40.8	24.1	0.00e+00	92	31	101	1048576	58	5975
2026-01-05 18:19:46.57	331.11	16.83	-39.8	-40.7	24.2	0.00e+00	57	31	101	1048576	58	5898
2026-01-05 18:19:47.58	330.89	16.81	-39.9	-40.8	24.0	0.00e+00	92	31	101	1048576	58	5986
2026-01-05 18:19:48.59	330.66	16.79	-39.9	-40.7	24.2	0.00e+00	6	31	101	1048576	58	5960
2026-01-05 18:19:49.61	330.44	16.77	-40.0	-40.9	24.0	0.00e+00	62	31	101	1048576	58	6060
2026-01-05 18:19:50.62	330.22	16.75	-39.9	-40.8	24.1	0.00e+00	0	31	101	1048576	58	5998
2026-01-05 18:19:51.63	329.99	16.73	-40.0	-40.9	24.0	0.00e+00	0	31	101	1048576	58	6076
2026-01-05 18:19:52.64	329.77	16.71	-40.0	-40.9	23.9	0.00e+00	2	31	101	1048576	58	6076
2026-01-05 18:19:53.65	329.55	16.68	-40.0	-40.9	24.0	0.00e+00	6	31	101	1048576	58	6077
2026-01-05 18:19:54.66	329.33	16.66	-40.1	-41.0	23.9	0.00e+00	92	31	101	1048576	58	6153
2026-01-05 18:19:55.67	329.11	16.64	-40.2	-41.1	23.9	0.00e+00	38	31	101	1048576	58	6240
2026-01-05 18:19:56.68	328.89	16.61	-40.1	-41.0	23.9	0.00e+00	90	31	101	1048576	58	6169
2026-01-05 18:19:57.69	328.67	16.59	-40.1	-41.0	23.8	0.00e+00	0	31	101	1048576	58	6167
2026-01-05 18:19:58.71	328.45	16.56	-40.1	-41.0	23.9	0.00e+00	38	31	101	1048576	58	6114
2026-01-05 18:19:59.72	328.23	16.54	-40.3	-41.2	23.8	0.00e+00	0	31	101	1048576	58	6292
2026-01-05 18:20:00.73	328.01	16.51	-40.2	-41.1	23.9	0.00e+00	42	31	101	1048576	58	6233
2026-01-05 18:20:01.74	327.79	16.49	-40.3	-41.2	23.8	0.00e+00	91	31	101	1048576	58	6255
2026-01-05 18:20:02.75	327.57	16.46	-40.3	-41.2	23.7	0.00e+00	42	31	101	1048576	58	6294
2026-01-05 18:20:03.76	327.35	16.44	-40.4	-41.3	23.6	0.00e+00	90	31	101	1048576	58	6354
2026-01-05 18:20:04.77	327.14	16.41	-40.4	-41.3	23.6	0.00e+00	42	31	101	1048576	58	6338
2026-01-05 18:20:05.78	326.92	16.38	-40.6	-41.6	23.5	0.00e+00	0	31	101	1048576	58	6550
2026-01-05 18:20:06.79	326.70	16.35	-40.6	-41.5	23.5	0.00e+00	0	31	101	1048576	58	6507
2026-01-05 18:20:07.80	326.49	16.32	-40.6	-41.6	23.5	0.00e+00	43	31	101	1048576	58	6551
2026-01-05 18:20:08.81	326.27	16.30	-40.6	-41.5	23.4	0.00e+00	92	31	101	1048576	58	6520
2026-01-05 18:20:09.82	326.05	16.27	-40.7	-41.7	23.3	0.00e+00	0	31	101	1048576	58	6636
2026-01-05 18:20:10.84	325.84	16.24	-41.0	-41.9	23.1	0.00e+00	92	31	101	1048576	58	6843
2026-01-05 18:20:11.85	325.62	16.21	-40.9	-41.9	23.1	0.00e+00	0	31	101	1048576	58	6807
2026-01-05 18:20:12.86	325.41	16.18	-41.0	-42.0	23.1	0.00e+00	0	31	101	1048576	58	6896
2026-01-05 18:20:13.87	325.19	16.15	-40.9	-41.9	23.2	0.00e+00	39	31	101	1048576	58	6781
2026-01-05 18:20:14.88	324.98	16.12	-41.0	-42.0	23.0	0.00e+00	38	31	101	1048576	58	6899
2026-01-05 18:20:15.89	324.77	16.09	-41.0	-42.0	23.1	0.00e+00	40	31	101	1048576	58	6858
2026-01-05 18:20:16.90	324.56	16.05	-41.0	-42.0	23.0	0.00e+00	0	31	101	1048576	58	6889
2026-01-05 18:20:17.91	324.34	16.02	-41.0	-42.0	23.0	0.00e+00	90	31	101	1048576	58	6875
2026-01-05 18:20:18.92	324.13	15.99	-41.0	-41.9	23.2	0.00e+00	0	31	101	1048576	58	6843
2026-01-05 18:20:19.93	323.92	15.96	-41.0	-42.0	23.1	0.00e+00	92	31	101	1048576	58	6855
2026-01-05 18:20:20.95	323.71	15.92	-41.0	-41.9	23.1	0.00e+00	42	31	101	1048576	58	6835
2026-01-05 18:20:21.96	323.50	15.89	-40.9	-41.9	23.2	0.00e+00	43	31	101	1048576	58	6795
2026-01-05 18:20:22.97	323.29	15.86	-41.0	-42.0	23.0	0.00e+00	0	31	101	1048576	58	6875
2026-01-05 18:20:23.98	323.08	15.82	-40.9	-41.8	23.3	0.00e+00	0	31	101	1048576	58	6750
2026-01-05 18:20:24.99	322.87	15.79	-40.8	-41.8	23.3	0.00e+00	92	31	101	1048576	58	6701
2026-01-05 18:20:26.00	322.66	15.75	-40.8	-41.7	23.3	0.00e+00	43	31	101	1048576	58	6662
2026-01-05 18:20:27.01	322.46	15.72	-40.6	-41.5	23.5	0.00e+00	62	31	101	1048576	58	6496
2026-01-05 18:20:28.02	322.25	15.68	-40.6	-41.5	23.5	0.00e+00	0	31	101	1048576	58	6483
2026-01-05 18:20:29.03	322.04	15.65	-40.4	-41.3	23.4	0.00e+00	0	31	101	1048576	58	6362
2026-01-05 18:20:30.04	321.84	15.61	-40.4	-41.2	23.7	0.00e+00	0	31	101	1048576	58	6312
2026-01-05 18:20:31.05	321.63	15.58	-40.4	-41.3	23.6	0.00e+00	0	31	101	1048576	58	6347
2026-01-05 18:20:32.07	321.42	15.54	-40.5	-41.4	23.5	0.00e+00	92	31	101	1048576	58	6416
2026-01-05 18:20:33.08	321.22	15.50	-40.5	-41.4	23.5	0.00e+00	38	31	101	1048576	58	6463
2026-01-05 18:20:34.09	321.01	15.46	-40.6	-41.6	23.3	0.00e+00	92	31	101	1048576	58	6544
2026-01-05 18:20:35.10	320.81	15.43	-40.6	-41.5	23.4	0.00e+00	0	31	101	1048576	58	6528
2026-01-05 18:20:36.11	320.61	15.39	-40.7	-41.6	23.4	0.00e+00	43	31	101	1048576	58	6576
2026-01-05 18:20:37.12	320.41	15.35	-40.5	-41.5	23.5	0.00e+00	34	31	101	1048576	58	6468
2026-01-05 18:20:38.13	320.20	15.31	-40.6	-41.5	23.5	0.00e+00	48	31	101	1048576	58	6530
2026-01-05 18:20:39.15	320.00	15.27	-40.7	-41.6	23.4	0.00e+00	34	31	101	1048576	58	6576
2026-01-05 18:20:40.16	319.80	15.23	-40.7	-41.6	23.4	0.00e+00	47	31	101	1048576	58	6608
2026-01-05 18:20:41.17	319.60	15.20	-40.6	-41.5	23.5	0.00e+00	91	31	101	1048576	58	6499
2026-01-05 18:20:42.18	319.40	15.16	-40.7	-41.6	23.0	0.00e+00	2	31	101	1048576	58	6593
2026-01-05 18:20:43.19	319.20	15.12	-40.6	-41.5	23.4	0.00e+00	0	31	101	1048576	58	6493
2026-01-05 18:20:44.20	319.00	15.08	-40.5	-41.5	23.4	0.00e+00	43	31	101	1048576	58	6469
2026-01-05 18:20:45.21	318.80	15.03	-40.7	-41.6	23.2	0.00e+00	42	31	101	1048576	58	6572
2026-01-05 18:20:46.22	318.60	14.99	-40.6	-41.5	23.5	0.00e+00	0	31	101	1048576	58	6501
2026-01-05 18:20:47.24	318.40	14.95	-40.5	-41.4	23.6	0.00e+00	0	31	101	1048576	58	6455
2026-01-05 18:20:48.25	318.21	14.91	-40.7	-41.6	23.3	0.00e+00	90	31	101	1048576	58	6571
2026-01-05 18:20:49.26	318.01	14.87	-40.6	-41.6	23.4	0.00e+00	0	31	101	1048576	58	6549
2026-01-05 18:20:50.27	317.82	14.83	-40.8	-41.7	23.4	0.00e+00	2	31	101	1048576	58	6664
2026-01-05 18:20:51.28	317.62	14.79	-40.8	-41.7	23.2	0.00e+00	0	31	101	1048576	58	6678
2026-01-05 18:20:52.29	317.43	14.74	-40.9	-41.8	23.1	0.00e+00	37	31	101	1048576	58	6754
2026-01-05 18:20:53.30	317.23	14.70	-41.0	-41.9	23.1	0.00e+00	0	31	101	1048576	58	6847
2026-01-05 18:20:54.31	317.04	14.66	-40.9	-41.8	23.1	0.00e+00	0	31	101	1048576	58	6754
2026-01-05 18:20:55.32	316.85	14.61	-40.9	-41.9	23.1	0.00e+00	92	31	101	1048576	58	6795
2026-01-05 18:20:56.33	316.66	14.57	-40.9	-41.8	23.2	0.00e+00	39	31	101	1048576	58	6748
2026-01-05 18:20:57.34	316.46	14.53	-40.8	-41.8	23.2	0.00e+00	92	31	101	1048576	58	6704
2026-01-05 18:20:58.36	316.27	14.48	-40.6	-41.5	23.4	0.00e+00	0	31	101	1048576	58	6512
2026-01-05 18:20:59.37	316.08	14.44	-40.7	-41.6	23.4	0.00e+00	0	31	101	1048576	58	6613
2026-01-05 18:21:00.38	315.89	14.40	-40.5	-41.4	23.5	0.00e+00	47	31	101	1048576	58	6446
2026-01-05 18:21:01.39	315.70	14.35	-40.7	-41.6	23.4	0.00e+00	5	31	101	1048576	58	6574
2026-01-05 18:21:02.40	315.51	14.31	-40.8	-41.7	23.2	0.00e+00	27	31	101	1048576	58	6645
2026-01-05 18:21:03.41	315.32	14.26	-41.0	-42.0	23.0	0.00e+00	6	31	101	1048576	58	6892
2026-01-05 18:21:04.42	315.14	14.22	-41.3	-42.3	22.8	0.00e+00	92	31	101	1048576	60	6371
2026-01-05 18:21:05.44	314.95	14.17	-41.4	-42.4	22.8	0.00e+00	7	31	101	1048576	60	6421
2026-01-05 18:21:06.45	314.76	14.12	-41.4	-42.5	22.6	0.00e+00	0	31	101	1048576	60	6474
2026-01-05 18:21:07.46	314.58	14.08	-41.4	-42.4	22.7	0.00e+00	5	31	101	1048576	60	6463
2026-01-05 18:21:08.47	314.39	14.03	-41.4	-42.4	22.7	0.00e+00	0	31	101	1048576	60	6427
2026-01-05 18:21:09.48	314.21	13.99	-41.3	-42.3	22.7	0.00e+00	40	31	101	1048576	60	6357
2026-01-05 18:21:10.49	314.02	13.94	-41.4	-42.4	22.7	0.00e+00	0	31	101	1048576	60	6408
2026-01-05 18:21:11.50	313.84	13.89	-41.5	-42.5	22.6	0.00e+00	90	31	101	1048576	60	6529
2026-01-05 18:21:12.51	313.65	13.85	-41.5	-42.6	22.6	0.00e+00	30	31	101	1048576	60	6566
2026-01-05 18:21:13.52	313.47	13.80	-41.5	-42.5	22.5	0.00e+00	92	31	101	1048576	60	6537
2026-01-05 18:21:14.53	313.29	13.75	-41.7	-42.8	22.3	0.00e+00	48	31	101	1048576	60	6716
2026-01-05 18:21:15.55	313.11	13.70	-41.7	-42.7	22.5	0.00e+00	52	31	101	1048576	60	6662
2026-01-05 18:21:16.56	312.93	13.65	-41.8	-42.8	22.4	0.00e+00	73	31	101	1048576	60	6755
2026-01-05 18:21:17.57	312.75	13.61	-41.8	-42.8	22.3	0.00e+00	49	31	101	1048576	60	6757
2026-01-05 18:21:18.58	312.57	13.56	-41.8	-42.9	22.2	0.00e+00	92	31	101	1048576	60	6818
2026-01-05 18:21:19.59	312.39	13.51	-41.9	-43.0	22.2	0.00e+00	6	31	101	1048576	60	6874
2026-01-05 18:21:20.60	312.21	13.46	-42.1	-43.2	22.0	0.00e+00	92	31	101	1048576	60	7017
2026-01-05 18:21:21.61	312.03	13.41	-42.2	-43.3	21.9	0.00e+00	8	31	101	1048576	60	7156
2026-01-05 18:21:22.62	311.86	13.36	-42.3	-43.5	21.7	0.00e+00	6	31	101	1048576	60	7265
2026-01-05 18:21:23.63	311.68	13.32	-42.4	-43.6	21.6	0.00e+00	0	31	101	1048576	60	7370
2026-01-05 18:21:24.64	311.50	13.27	-42.5	-43.6	21.6	0.00e+00	7	31	101	1048576	60	7412
2026-01-05 18:21:25.66	311.33	13.22	-42.4	-43.5	21.7	0.00e+00	90	31	101	1048576	60	7306
2026-01-05 18:21:26.67	311.15	13.17	-42.5	-43.7	21.5	0.00e+00	0	31	101	1048576	60	7483
2026-01-05 18:21:27.68	310.98	13.12	-42.5	-43.6	21.5	0.00e+00	92	31	101	1048576	60	7383
2026-01-05 18:21:28.69	310.81	13.07	-42.5	-43.6	21.6	0.00e+00	0	31	101	1048576	60	7404
2026-01-05 18:21:29.70	310.63	13.02	-42.5	-43.7	21.6	0.00e+00	38	31	101	1048576	60	7442
2026-01-05 18:21:30.71	310.46	12.97	-42.3	-43.4	21.8	0.00e+00	37	31	101	1048576	60	7208
2026-01-05 18:21:31.72	310.29	12.92	-42.2	-43.4	21.7	0.00e+00	38	31	101	1048576	60	7177
2026-01-05 18:21:32.73	310.12	12.87	-42.2	-43.3	21.8	0.00e+00	36	31	101	1048576	60	7108
2026-01-05 18:21:33.75	309.94	12.82	-42.2	-43.3	21.8	0.00e+00	37	31	101	1048576	60	7154
2026-01-05 18:21:34.76	309.78	12.76	-42.3	-43.4	21.7	0.00e+00	92	31	101	1048576	60	7215
2026-01-05 18:21:35.77	309.61	12.71	-42.5	-43.7	21.5	0.00e+00	2	31	101	1048576	60	7455
2026-01-05 18:21:36.78	309.44	12.66	-42.6	-43.8	21.4	0.00e+00	90	31	101	1048576	60	7572
2026-01-05 18:21:37.79	309.27	12.61	-42.8	-44.1	21.1	0.00e+00	50	31	101	1048576	60	7782
2026-01-05 18:21:38.80	309.10	12.56	-43.0	-44.3	21.0	0.00e+00	0	31	101	1048576	60	7958
2026-01-05 18:21:39.81	308.93	12.51	-43.2	-44.5	20.7	0.00e+00	57	31	101	1048576	60	8202
2026-01-05 18:21:40.82	308.77	12.46	-43.0	-44.2	21.0	0.00e+00	0	31	101	1048576	60	7914
2026-01-05 18:21:41.84	308.60	12.41	-43.1	-44.3	20.9	0.00e+00	92	31	101	1048576	60	8005
2026-01-05 18:21:42.85	308.44	12.35	-43.0	-44.2	21.0	0.00e+00	0	31	101	1048576	60	7936
2026-01-05 18:21:43.86	308.27	12.30	-43.0	-44.3	20.9	0.00e+00	90	31	101	1048576	60	7955
2026-01-05 18:21:44.87	308.11	12.25	-42.8	-44.0	21.2	0.00e+00	0	31	101	1048576	60	7736
2026-01-05 18:21:45.88	307.94	12.20	-43.0	-44.3	21.0	0.00e+00	36	31	101	1048576	60	7969
2026-01-05 18:21:46.89	307.78	12.15	-42.8	-44.1	20.9	0.00e+00	0	31	101	1048576	60	7783
2026-01-05 18:21:47.90	307.62	12.09	-42.9	-44.2	21.0	0.00e+00	36	31	101	1048576	60	7880
2026-01-05 18:21:48.91	307.46	12.04	-42.9	-44.2	21.0	0.00e+00	90	31	101	1048576	60	7873
2026-01-05 18:21:49.92	307.30	11.99	-43.0	-44.3	20.9	0.00e+00	38	31	101	1048576	60	8001
2026-01-05 18:21:50.94	307.13	11.93	-43.0	-44.2	21.0	0.00e+00	92	31	101	1048576	60	7908
2026-01-05 18:21:51.95	306.97	11.88	-43.0	-44.2	20.9	0.00e+00	30	31	101	1048576	60	7951
2026-01-05 18:21:52.96	306.81	11.83	-43.0	-44.3	20.9	0.00e+00	36	31	101	1048576	60	7966
2026-01-05 18:21:53.97	306.66	11.78	-43.0	-44.3	20.9	0.00e+00	47	31	101	1048576	60	7993
2026-01-05 18:21:54.98	306.50	11.72	-43.0	-44.3	20.9	0.00e+00	0	31	101	1048576	60	7995
2026-01-05 18:21:55.99	306.34	11.67	-43.0	-44.2	20.9	0.00e+00	16	31	101	1048576	60	7917
2026-01-05 18:21:57.00	306.18	11.62	-43.0	-44.3	21.0	0.00e+00	0	31	101	1048576	60	7970
2026-01-05 18:21:58.01	306.03	11.56	-43.0	-44.3	20.9	0.00e+00	92	31	101	1048576	60	7996
2026-01-05 18:21:59.02	305.87	11.51	-42.9	-44.1	21.1	0.00e+00	0	31	101	1048576	60	7808
2026-01-05 18:22:00.03	305.72	11.46	-43.0	-44.2	21.0	0.00e+00	0	31	101	1048576	60	7938
2026-01-05 18:22:01.04	305.56	11.40	-42.9	-44.2	21.0	0.00e+00	2	31	101	1048576	60	7876
2026-01-05 18:22:02.05	305.41	11.35	-43.0	-44.2	20.9	0.00e+00	0	31	101	1048576	60	7902
2026-01-05 18:22:03.06	305.25	11.29	-43.0	-44.3	20.8	0.00e+00	0	31	101	1048576	60	8001
2026-01-05 18:22:04.07	305.10	11.24	-43.0	-44.2	20.9	0.00e+00	0	31	101	1048576	60	7938
2026-01-05 18:22:05.09	304.95	11.19	-43.0	-44.2	20.9	0.00e+00	90	31	101	1048576	60	7948
2026-01-05 18:22:06.10	304.80	11.13	-43.0	-44.3	20.9	0.00e+00	0	31	101	1048576	60	7955
2026-01-05 18:22:07.11	304.64	11.08	-42.9	-44.1	21.1	0.00e+00	92	31	101	1048576	60	7806
2026-01-05 18:22:08.12	304.49	11.02	-42.7	-43.9	21.2	0.00e+00	50	31	101	1048576	60	7683
2026-01-05 18:22:09.13	304.34	10.97	-42.7	-43.9	21.2	0.00e+00	51	31	101	1048576	60	7660
2026-01-05 18:22:10.14	304.19	10.91	-42.8	-44.0	21.2	0.00e+00	0	31	101	1048576	60	7709
2026-01-05 18:22:11.15	304.04	10.86	-42.5	-43.7	21.4	0.00e+00	0	31	101	1048576	60	7458
2026-01-05 18:22:12.16	303.90	10.80	-42.6	-43.7	21.4	0.00e+00	92	31	101	1048576	60	7493
2026-01-05 18:22:13.17	303.75	10.75	-42.5	-43.6	21.5	0.00e+00	48	31	101	1048576	60	7400
2026-01-05 18:22:14.19	303.60	10.70	-42.3	-43.5	21.6	0.00e+00	92	31	101	1048576	60	7289
2026-01-05 18:22:15.20	303.45	10.64	-42.4	-43.5	21.6	0.00e+00	45	31	101	1048576	60	7308
2026-01-05 18:22:16.21	303.31	10.59	-42.3	-43.4	21.7	0.00e+00	44	31	101	1048576	60	7245
2026-01-05 18:22:17.22	303.16	10.53	-42.2	-43.4	21.8	0.00e+00	0	31	101	1048576	60	7175
2026-01-05 18:22:18.23	303.02	10.48	-42.1	-43.3	21.8	0.00e+00	0	31	101	1048576	60	7094
2026-01-05 18:22:19.24	302.87	10.42	-42.1	-43.3	21.8	0.00e+00	45	31	101	1048576	60	7094
2026-01-05 18:22:20.25	302.73	10.37	-42.1	-43.2	21.8	0.00e+00	0	31	101	1048576	60	7063
2026-01-05 18:22:21.26	302.58	10.31	-42.1	-43.2	21.8	0.00e+00	90	31	101	1048576	60	7052
2026-01-05 18:22:22.27	302.44	10.26	-42.1	-43.2	21.8	0.00e+00	36	31	101	1048576	60	7088
2026-01-05 18:22:23.28	302.30	10.20	-42.3	-43.5	21.6	0.00e+00	55	31	101	1048576	60	7290
2026-01-05 18:22:24.29	302.16	10.15	-42.5	-43.7	21.3	0.00e+00	35	31	101	1048576	60	7460
2026-01-05 18:22:25.31	302.02	10.09	-42.2	-43.4	21.6	0.00e+00	0	31	101	1048576	60	7199
2026-01-05 18:22:26.32	301.87	10.03	-42.3	-43.4	21.7	0.00e+00	92	31	101	1048576	60	7214
2026-01-05 18:22:27.33	301.73	9.98	-42.0	-43.1	22.0	0.00e+00	0	31	101	1048576	60	6943
2026-01-05 18:22:28.34	301.59	9.92	-41.9	-43.0	22.0	0.00e+00	92	31	101	1048576	60	6887
2026-01-05 18:22:29.35	301.46	9.87	-41.8	-42.9	22.1	0.00e+00	47	31	101	1048576	60	6835
2026-01-05 18:22:30.36	301.32	9.81	-41.7	-42.7	22.2	0.00e+00	92	31	101	1048576	60	6686
2026-01-05 18:22:31.37	301.18	9.76	-41.8	-42.8	22.1	0.00e+00	5	31	101	1048576	60	6769
2026-01-05 18:22:32.39	301.04	9.70	-41.6	-42.7	22.3	0.00e+00	45	31	101	1048576	60	6646
2026-01-05 18:22:33.40	300.90	9.64	-41.4	-42.5	22.5	0.00e+00	0	31	101	1048576	60	6489
2026-01-05 18:22:34.41	300.77	9.59	-41.4	-42.4	22.5	0.00e+00	5	31	101	1048576	60	6436
2026-01-05 18:22:35.42	300.63	9.53	-41.5	-42.5	22.4	0.00e+00	90	31	101	1048576	60	6499
2026-01-05 18:22:36.43	300.50	9.48	-41.4	-42.5	22.5	0.00e+00	7	31	101	1048576	60	6477
2026-01-05 18:22:37.44	300.36	9.42	-41.4	-42.4	22.5	0.00e+00	90	31	101	1048576	60	6453
2026-01-05 18:22:38.45	300.23	9.37	-41.4	-42.4	22.5	0.00e+00	7	31	101	1048576	60	6447
2026-01-05 18:22:39.46	300.09	9.31	-41.5	-42.5	22.4	0.00e+00	0	31	101	1048576	60	6504
2026-01-05 18:22:40.48	299.96	9.25	-41.4	-42.4	22.5	0.00e+00	0	31	101	1048576	60	6416
2026-01-05 18:22:41.49	299.83	9.20	-41.3	-42.3	22.5	0.00e+00	0	31	101	1048576	60	6385
2026-01-05 18:22:42.50	299.69	9.14	-41.4	-42.5	22.4	0.00e+00	91	31	101	1048576	60	6471
2026-01-05 18:22:43.51	299.56	9.09	-41.2	-42.2	22.7	0.00e+00	27	31	101	1048576	60	6302
2026-01-05 18:22:44.52	299.43	9.03	-41.1	-42.1	22.8	0.00e+00	92	31	101	1048576	60	6220
2026-01-05 18:22:45.53	299.30	8.98	-41.2	-42.2	22.7	0.00e+00	51	31	101	1048576	60	6264
2026-01-05 18:22:46.54	299.17	8.92	-41.0	-42.0	22.8	0.00e+00	52	31	101	1048576	60	6135
2026-01-05 18:22:47.55	299.04	8.86	-40.8	-41.8	22.9	0.00e+00	34	31	101	1048576	60	6010
2026-01-05 18:22:48.56	298.91	8.81	-40.9	-41.9	22.4	0.00e+00	36	31	101	1048576	60	6075
2026-01-05 18:22:49.57	298.78	8.75	-40.9	-41.8	23.0	0.00e+00	12	31	101	1048576	60	6030
2026-01-05 18:22:50.59	298.65	8.69	-40.9	-41.9	22.9	0.00e+00	50	31	101	1048576	60	6039
2026-01-05 18:22:51.60	298.53	8.64	-40.9	-41.9	22.9	0.00e+00	92	31	101	1048576	60	6084
2026-01-05 18:22:52.61	298.40	8.58	-40.9	-41.9	22.9	0.00e+00	53	31	101	1048576	60	6076
2026-01-05 18:22:53.62	298.27	8.53	-41.1	-42.1	22.8	0.00e+00	56	31	101	1048576	60	6183
2026-01-05 18:22:54.63	298.15	8.47	-41.0	-41.9	22.9	0.00e+00	7	31	101	1048576	60	6099
2026-01-05 18:22:55.64	298.02	8.41	-41.1	-42.1	22.7	0.00e+00	0	31	101	1048576	60	6194
2026-01-05 18:22:56.65	297.90	8.36	-41.2	-42.2	22.5	0.00e+00	2	31	101	1048576	60	6307
2026-01-05 18:22:57.66	297.77	8.30	-41.1	-42.1	22.7	0.00e+00	0	31	101	1048576	60	6220
2026-01-05 18:22:58.67	297.65	8.25	-41.2	-42.2	22.6	0.00e+00	92	31	101	1048576	60	6288
2026-01-05 18:22:59.69	297.52	8.19	-41.2	-42.2	22.6	0.00e+00	0	31	101	1048576	60	6291
2026-01-05 18:23:00.70	297.40	8.13	-41.3	-42.3	22.6	0.00e+00	92	31	101	1048576	60	6337
2026-01-05 18:23:01.71	297.28	8.08	-41.2	-42.2	22.6	0.00e+00	0	31	101	1048576	60	6267
2026-01-05 18:23:02.72	297.15	8.02	-41.1	-42.2	22.7	0.00e+00	35	31	101	1048576	60	6251
2026-01-05 18:23:03.73	297.03	7.97	-41.1	-42.1	22.7	0.00e+00	11	31	101	1048576	60	6240
2026-01-05 18:23:04.74	296.91	7.91	-41.1	-42.1	22.7	0.00e+00	45	31	101	1048576	60	6182
2026-01-05 18:23:05.75	296.79	7.85	-41.2	-42.2	22.6	0.00e+00	92	31	101	1048576	60	6298
2026-01-05 18:23:06.76	296.67	7.80	-41.1	-42.2	22.6	0.00e+00	53	31	101	1048576	60	6252
2026-01-05 18:23:07.77	296.55	7.74	-41.1	-42.2	22.6	0.00e+00	91	31	101	1048576	60	6256
2026-01-05 18:23:08.79	296.43	7.68	-41.2	-42.3	22.4	0.00e+00	0	31	101	1048576	60	6329
2026-01-05 18:23:09.80	296.31	7.63	-41.5	-42.5	22.3	0.00e+00	0	31	101	1048576	60	6524
2026-01-05 18:23:10.81	296.19	7.57	-41.6	-42.7	22.2	0.00e+00	0	31	101	1048576	60	6628
2026-01-05 18:23:11.82	296.08	7.52	-41.6	-42.6	22.2	0.00e+00	0	31	101	1048576	60	6614
2026-01-05 18:23:12.83	295.96	7.46	-41.6	-42.7	22.2	0.00e+00	90	31	101	1048576	60	6661
2026-01-05 18:23:13.84	295.84	7.40	-41.7	-42.8	22.1	0.00e+00	2	31	101	1048576	60	6697
2026-01-05 18:23:14.85	295.72	7.35	-41.8	-42.9	22.0	0.00e+00	92	31	101	1048576	60	6800
2026-01-05 18:23:15.86	295.61	7.29	-41.7	-42.8	22.0	0.00e+00	0	31	101	1048576	60	6719
2026-01-05 18:23:16.87	295.49	7.24	-41.7	-42.8	22.0	0.00e+00	34	31	101	1048576	60	6703
2026-01-05 18:23:17.89	295.38	7.18	-41.6	-42.7	22.1	0.00e+00	35	31	101	1048576	60	6667
2026-01-05 18:23:18.90	295.26	7.12	-41.6	-42.7	22.1	0.00e+00	0	31	101	1048576	60	6626
2026-01-05 18:23:19.91	295.15	7.07	-41.5	-42.6	22.1	0.00e+00	2	31	101	1048576	60	6566
2026-01-05 18:23:20.92	295.03	7.01	-41.4	-42.4	22.3	0.00e+00	32	31	101	1048576	60	6461
2026-01-05 18:23:21.93	294.92	6.96	-41.3	-42.4	22.4	0.00e+00	92	31	101	1048576	60	6415
2026-01-05 18:23:22.94	294.81	6.90	-41.4	-42.5	22.3	0.00e+00	0	31	101	1048576	60	6467
2026-01-05 18:23:23.95	294.69	6.84	-41.3	-42.3	22.3	0.00e+00	92	31	101	1048576	60	6385
2026-01-05 18:23:24.96	294.58	6.79	-41.5	-42.6	22.2	0.00e+00	34	31	101	1048576	60	6556
2026-01-05 18:23:25.97	294.47	6.73	-41.4	-42.5	22.3	0.00e+00	47	31	101	1048576	60	6479
2026-01-05 18:23:26.99	294.36	6.68	-41.5	-42.5	22.2	0.00e+00	0	31	101	1048576	60	6527
2026-01-05 18:23:28.00	294.25	6.62	-41.5	-42.6	22.1	0.00e+00	48	31	101	1048576	60	6570
2026-01-05 18:23:29.01	294.14	6.57	-41.6	-42.7	22.0	0.00e+00	90	31	101	1048576	60	6645
2026-01-05 18:23:30.02	294.03	6.51	-41.7	-42.9	21.9	0.00e+00	0	31	101	1048576	60	6774
2026-01-05 18:23:31.03	293.92	6.45	-41.8	-42.9	21.8	0.00e+00	92	31	101	1048576	60	6842
2026-01-05 18:23:32.04	293.81	6.40	-42.0	-43.1	21.6	0.00e+00	0	31	101	1048576	60	6988
2026-01-05 18:23:33.05	293.70	6.34	-42.1	-43.3	21.5	0.00e+00	0	31	101	1048576	60	7091
2026-01-05 18:23:34.06	293.59	6.29	-42.1	-43.3	21.4	0.00e+00	0	31	101	1048576	60	7127
2026-01-05 18:23:35.07	293.49	6.23	-42.2	-43.3	21.3	0.00e+00	33	31	101	1048576	60	7150
2026-01-05 18:23:36.08	293.38	6.18	-42.2	-43.3	21.4	0.00e+00	92	31	101	1048576	60	7164
2026-01-05 18:23:37.10	293.27	6.12	-42.3	-43.5	21.3	0.00e+00	0	31	101	1048576	60	7328
2026-01-05 18:23:38.11	293.16	6.06	-42.3	-43.5	21.2	0.00e+00	92	31	101	1048576	60	7311
2026-01-05 18:23:39.12	293.06	6.01	-42.3	-43.5	21.2	0.00e+00	2	31	101	1048576	60	7256
2026-01-05 18:23:40.13	292.95	5.95	-42.4	-43.6	21.1	0.00e+00	53	31	101	1048576	60	7372
2026-01-05 18:23:41.14	292.85	5.90	-42.4	-43.6	21.0	0.00e+00	53	31	101	1048576	60	7410
2026-01-05 18:23:42.15	292.74	5.84	-42.5	-43.7	21.1	0.00e+00	53	31	101	1048576	60	7464
2026-01-05 18:23:43.16	292.64	5.79	-42.5	-43.7	21.0	0.00e+00	0	31	101	1048576	60	7446
2026-01-05 18:23:44.17	292.53	5.73	-42.5	-43.8	20.9	0.00e+00	0	31	101	1048576	60	7515
2026-01-05 18:23:45.18	292.43	5.67	-42.3	-43.5	21.1	0.00e+00	90	31	101	1048576	60	7311
2026-01-05 18:23:46.20	292.33	5.62	-42.5	-43.7	21.0	0.00e+00	0	31	101	1048576	60	7485
2026-01-05 18:23:47.21	292.22	5.56	-42.5	-43.7	21.0	0.00e+00	0	31	101	1048576	60	7503
2026-01-05 18:23:48.22	292.12	5.51	-42.6	-43.8	20.8	0.00e+00	0	31	101	1048576	60	7570
2026-01-05 18:23:49.23	292.02	5.45	-42.7	-44.0	20.7	0.00e+00	0	31	101	1048576	60	7748
2026-01-05 18:23:50.24	291.92	5.40	-42.8	-44.1	20.6	0.00e+00	0	31	101	1048576	60	7792
2026-01-05 18:23:51.25	291.82	5.34	-42.8	-44.2	20.4	0.00e+00	0	31	101	1048576	60	7873
2026-01-05 18:23:52.26	291.72	5.29	-42.9	-44.2	20.4	0.00e+00	92	31	101	1048576	60	7897
2026-01-05 18:23:53.27	291.61	5.23	-42.8	-44.1	20.5	0.00e+00	0	31	101	1048576	60	7847
2026-01-05 18:23:54.29	291.51	5.18	-43.0	-44.3	20.3	0.00e+00	36	31	101	1048576	60	8031
2026-01-05 18:23:55.30	291.41	5.12	-43.1	-44.5	20.2	0.00e+00	0	31	101	1048576	60	8142
2026-01-05 18:23:56.31	291.31	5.07	-43.2	-44.6	20.0	0.00e+00	33	31	101	1048576	60	8267
2026-01-05 18:23:57.32	291.22	5.01	-43.3	-44.7	19.9	0.00e+00	0	31	101	1048576	60	8386
2026-01-05 18:23:58.33	291.12	4.96	-43.4	-44.8	19.9	0.00e+00	49	31	101	1048576	60	8461
2026-01-05 18:23:59.34	291.02	4.90	-43.3	-44.8	19.8	0.00e+00	92	31	101	1048576	60	8448
2026-01-05 18:24:00.35	290.92	4.85	-43.4	-44.9	19.7	0.00e+00	51	31	101	1048576	60	8535
2026-01-05 18:24:01.36	290.82	4.79	-43.4	-44.8	19.8	0.00e+00	91	31	101	1048576	60	8494
2026-01-05 18:24:02.37	290.73	4.74	-43.4	-44.8	19.8	0.00e+00	0	31	101	1048576	60	8509
2026-01-05 18:24:03.38	290.63	4.68	-43.3	-44.7	19.9	0.00e+00	5	31	101	1048576	60	8369
2026-01-05 18:24:04.39	290.53	4.63	-43.2	-44.6	19.9	0.00e+00	6	31	101	1048576	60	8291
2026-01-05 18:24:05.40	290.44	4.57	-43.2	-44.6	19.9	0.00e+00	54	31	101	1048576	60	8317
2026-01-05 18:24:06.42	290.34	4.52	-43.3	-44.8	19.7	0.00e+00	74	31	101	1048576	60	8441
2026-01-05 18:24:07.43	290.25	4.46	-43.5	-45.0	19.6	0.00e+00	6	31	101	1048576	60	8664
2026-01-05 18:24:08.44	290.15	4.41	-43.4	-44.8	19.7	0.00e+00	90	31	101	1048576	60	8500
2026-01-05 18:24:09.45	290.06	4.35	-43.5	-45.1	19.5	0.00e+00	5	31	101	1048576	60	8722
2026-01-05 18:24:10.46	289.96	4.30	-43.6	-45.1	19.4	0.00e+00	0	31	101	1048576	60	8807
2026-01-05 18:24:11.47	289.87	4.24	-43.6	-45.2	19.3	0.00e+00	27	31	101	1048576	60	8824
2026-01-05 18:24:12.48	289.78	4.19	-43.7	-45.2	19.3	0.00e+00	0	31	101	1048576	60	8896
