passes_logs/2025/01/19/SPB_Silybum_02/SPB_Silybum_02__20250119_103049_SUOMI_NPP_rec.log

#Pass ID: 20250119_103049_SUOMI NPP
#Satellite: SUOMI NPP
#Configuration: NPP
#Start time: 2025-01-19 10:30:49

#Version: 2.0.20230423
#Station: SPB_Silybum_02
#Location: 30.233357 lon 59.946436 lat
#TLE: 1 37849U 11061A   25018.79654560  .00000210  00000+0  12058-3 0  9999
#TLE: 2 37849  98.7450 319.7371 0001526  35.0024 325.1252 14.19540179685454

#Time	Az	El	Level	Level2	SNR	BER	Gain	Gain2
2025-01-19 10:30:51.15	166.25	4.10	
2025-01-19 10:30:51.35	166.25	4.11	
2025-01-19 10:30:51.55	166.25	4.13	
2025-01-19 10:30:51.76	166.26	4.14	
2025-01-19 10:30:51.96	166.26	4.16	
2025-01-19 10:30:52.16	166.26	4.17	
2025-01-19 10:30:52.36	166.27	4.18	
2025-01-19 10:30:52.57	166.27	4.20	
2025-01-19 10:30:52.77	166.27	4.21	
2025-01-19 10:30:52.97	166.27	4.23	
2025-01-19 10:30:53.18	166.28	4.24	
2025-01-19 10:30:53.38	166.28	4.26	
2025-01-19 10:30:53.58	166.28	4.27	
2025-01-19 10:30:53.79	166.29	4.28	
2025-01-19 10:30:53.99	166.29	4.30	
2025-01-19 10:30:54.19	166.29	4.31	
2025-01-19 10:30:54.40	166.30	4.33	
2025-01-19 10:30:54.60	166.30	4.34	
2025-01-19 10:30:54.80	166.30	4.35	
2025-01-19 10:30:55.00	166.30	4.37	
2025-01-19 10:30:55.21	166.31	4.38	
2025-01-19 10:30:55.41	166.31	4.40	
2025-01-19 10:30:55.61	166.31	4.41	
2025-01-19 10:30:55.82	166.32	4.43	
2025-01-19 10:30:56.02	166.32	4.44	
2025-01-19 10:30:56.22	166.32	4.45	
2025-01-19 10:30:56.43	166.32	4.47	
2025-01-19 10:30:56.63	166.33	4.48	
2025-01-19 10:30:56.83	166.33	4.50	
2025-01-19 10:30:57.04	166.33	4.51	
2025-01-19 10:30:57.24	166.34	4.52	
2025-01-19 10:30:57.44	166.34	4.54	
2025-01-19 10:30:57.64	166.34	4.55	
2025-01-19 10:30:57.85	166.34	4.57	
2025-01-19 10:30:58.05	166.35	4.58	
2025-01-19 10:30:58.25	166.35	4.60	
2025-01-19 10:30:58.46	166.35	4.61	
2025-01-19 10:30:58.66	166.36	4.62	
2025-01-19 10:30:58.86	166.36	4.64	
2025-01-19 10:30:59.07	166.36	4.65	
2025-01-19 10:30:59.27	166.37	4.67	
2025-01-19 10:30:59.47	166.37	4.68	
2025-01-19 10:30:59.68	166.37	4.70	
2025-01-19 10:30:59.88	166.37	4.71	
2025-01-19 10:31:00.08	166.38	4.73	
2025-01-19 10:31:00.28	166.38	4.74	
2025-01-19 10:31:00.49	166.38	4.75	
2025-01-19 10:31:00.69	166.39	4.77	
2025-01-19 10:31:00.89	166.39	4.78	
2025-01-19 10:31:01.10	166.39	4.80	
2025-01-19 10:31:01.30	166.40	4.81	
2025-01-19 10:31:01.50	166.40	4.83	
2025-01-19 10:31:01.71	166.40	4.84	
2025-01-19 10:31:01.91	166.40	4.85	
2025-01-19 10:31:02.11	166.41	4.87	
2025-01-19 10:31:02.32	166.41	4.88	
2025-01-19 10:31:02.52	166.41	4.90	
2025-01-19 10:31:02.72	166.42	4.91	
2025-01-19 10:31:02.92	166.42	4.93	
2025-01-19 10:31:03.13	166.42	4.94	
2025-01-19 10:31:03.33	166.43	4.96	
2025-01-19 10:31:03.53	166.43	4.97	
2025-01-19 10:31:03.74	166.43	4.99	
2025-01-19 10:31:03.94	166.43	5.00	
2025-01-19 10:31:04.14	166.44	5.01	
2025-01-19 10:31:04.35	166.44	5.03	
2025-01-19 10:31:04.55	166.44	5.04	
2025-01-19 10:31:04.75	166.45	5.06	
2025-01-19 10:31:04.96	166.45	5.07	
2025-01-19 10:31:05.16	166.45	5.09	
2025-01-19 10:31:05.36	166.46	5.10	
2025-01-19 10:31:05.56	166.46	5.12	
2025-01-19 10:31:05.77	166.46	5.13	
2025-01-19 10:31:05.97	166.46	5.14	
2025-01-19 10:31:06.17	166.47	5.16	
2025-01-19 10:31:06.38	166.47	5.17	
2025-01-19 10:31:06.58	166.47	5.19	
2025-01-19 10:31:06.78	166.48	5.20	
2025-01-19 10:31:06.99	166.48	5.22	
2025-01-19 10:31:07.19	166.48	5.23	
2025-01-19 10:31:07.39	166.49	5.25	
2025-01-19 10:31:07.60	166.49	5.26	
2025-01-19 10:31:07.80	166.49	5.28	
2025-01-19 10:31:08.00	166.50	5.29	
2025-01-19 10:31:08.20	166.50	5.31	
2025-01-19 10:31:08.41	166.50	5.32	
2025-01-19 10:31:08.61	166.50	5.34	
2025-01-19 10:31:08.81	166.51	5.35	
2025-01-19 10:31:09.02	166.51	5.37	
2025-01-19 10:31:09.22	166.51	5.38	
2025-01-19 10:31:09.42	166.52	5.39	
2025-01-19 10:31:09.63	166.52	5.41	
2025-01-19 10:31:09.83	166.52	5.42	
2025-01-19 10:31:10.03	166.53	5.44	
2025-01-19 10:31:10.24	166.53	5.45	
2025-01-19 10:31:10.44	166.53	5.47	
2025-01-19 10:31:10.64	166.54	5.48	
2025-01-19 10:31:10.84	166.54	5.50	
2025-01-19 10:31:11.05	166.54	5.51	
2025-01-19 10:31:11.25	166.55	5.53	
2025-01-19 10:31:11.45	166.55	5.54	
2025-01-19 10:31:11.66	166.55	5.56	
2025-01-19 10:31:11.86	166.55	5.57	
2025-01-19 10:31:12.06	166.56	5.59	
2025-01-19 10:31:12.27	166.56	5.60	
2025-01-19 10:31:12.47	166.56	5.62	
2025-01-19 10:31:12.67	166.57	5.63	
2025-01-19 10:31:12.88	166.57	5.65	
2025-01-19 10:31:13.08	166.57	5.66	
2025-01-19 10:31:13.28	166.58	5.68	
2025-01-19 10:31:13.48	166.58	5.69	
2025-01-19 10:31:13.69	166.58	5.71	
2025-01-19 10:31:13.89	166.59	5.72	
2025-01-19 10:31:14.09	166.59	5.73	
2025-01-19 10:31:14.30	166.59	5.75	
2025-01-19 10:31:14.50	166.60	5.77	
2025-01-19 10:31:14.70	166.60	5.78	
2025-01-19 10:31:14.91	166.60	5.80	
2025-01-19 10:31:15.11	166.60	5.81	
2025-01-19 10:31:15.31	166.61	5.82	
2025-01-19 10:31:15.52	166.61	5.84	
2025-01-19 10:31:15.72	166.61	5.85	
2025-01-19 10:31:15.92	166.62	5.87	
2025-01-19 10:31:16.12	166.62	5.88	
2025-01-19 10:31:16.33	166.62	5.90	
2025-01-19 10:31:16.53	166.63	5.91	
2025-01-19 10:31:16.73	166.63	5.93	
2025-01-19 10:31:16.94	166.63	5.95	
2025-01-19 10:31:17.14	166.64	5.96	
2025-01-19 10:31:17.34	166.64	5.97	
2025-01-19 10:31:17.55	166.64	5.99	
2025-01-19 10:31:17.75	166.65	6.01	
2025-01-19 10:31:17.95	166.65	6.02	
2025-01-19 10:31:18.16	166.65	6.04	
2025-01-19 10:31:18.36	166.66	6.05	
2025-01-19 10:31:18.56	166.66	6.07	
2025-01-19 10:31:18.76	166.66	6.08	
2025-01-19 10:31:18.97	166.67	6.10	
2025-01-19 10:31:19.17	166.67	6.11	
2025-01-19 10:31:19.37	166.67	6.13	
2025-01-19 10:31:19.58	166.68	6.14	
2025-01-19 10:31:19.78	166.68	6.16	
2025-01-19 10:31:19.98	166.68	6.17	
2025-01-19 10:31:20.19	166.68	6.19	
2025-01-19 10:31:20.39	166.69	6.20	
2025-01-19 10:31:20.59	166.69	6.22	
2025-01-19 10:31:20.80	166.69	6.23	
2025-01-19 10:31:21.00	166.70	6.25	
2025-01-19 10:31:21.20	166.70	6.26	
2025-01-19 10:31:21.40	166.70	6.28	
2025-01-19 10:31:21.61	166.71	6.29	
2025-01-19 10:31:21.81	166.71	6.31	
2025-01-19 10:31:22.01	166.71	6.32	
2025-01-19 10:31:22.22	166.72	6.34	
2025-01-19 10:31:22.42	166.72	6.35	
2025-01-19 10:31:22.62	166.72	6.37	
2025-01-19 10:31:22.83	166.73	6.39	
2025-01-19 10:31:23.03	166.73	6.40	
2025-01-19 10:31:23.23	166.73	6.42	
2025-01-19 10:31:23.44	166.74	6.43	
2025-01-19 10:31:23.64	166.74	6.45	
2025-01-19 10:31:23.84	166.74	6.46	
2025-01-19 10:31:24.04	166.75	6.48	
2025-01-19 10:31:24.25	166.75	6.49	
2025-01-19 10:31:24.45	166.75	6.51	
2025-01-19 10:31:24.65	166.76	6.52	
2025-01-19 10:31:24.86	166.76	6.54	
2025-01-19 10:31:25.06	166.76	6.55	
2025-01-19 10:31:25.26	166.77	6.57	
2025-01-19 10:31:25.47	166.77	6.58	
2025-01-19 10:31:25.67	166.77	6.60	
2025-01-19 10:31:25.87	166.78	6.62	
2025-01-19 10:31:26.08	166.78	6.63	
2025-01-19 10:31:26.28	166.78	6.65	
2025-01-19 10:31:26.48	166.79	6.66	
2025-01-19 10:31:26.68	166.79	6.68	
2025-01-19 10:31:26.89	166.79	6.69	
2025-01-19 10:31:27.09	166.80	6.71	
2025-01-19 10:31:27.29	166.80	6.72	
2025-01-19 10:31:27.50	166.80	6.74	
2025-01-19 10:31:27.70	166.81	6.75	
2025-01-19 10:31:27.90	166.81	6.77	
2025-01-19 10:31:28.11	166.81	6.79	
2025-01-19 10:31:28.31	166.82	6.80	
2025-01-19 10:31:28.51	166.82	6.82	
2025-01-19 10:31:28.72	166.82	6.83	
2025-01-19 10:31:28.92	166.83	6.85	
2025-01-19 10:31:29.12	166.83	6.86	
2025-01-19 10:31:29.32	166.83	6.88	
2025-01-19 10:31:29.53	166.84	6.89	
2025-01-19 10:31:29.73	166.84	6.91	
2025-01-19 10:31:29.93	166.84	6.93	
2025-01-19 10:31:30.14	166.85	6.94	
2025-01-19 10:31:30.34	166.85	6.96	
2025-01-19 10:31:30.54	166.85	6.97	
2025-01-19 10:31:30.75	166.86	6.99	
2025-01-19 10:31:30.95	166.86	7.00	
2025-01-19 10:31:31.15	166.86	7.02	
2025-01-19 10:31:31.36	166.87	7.04	
2025-01-19 10:31:31.56	166.87	7.05	
2025-01-19 10:31:31.76	166.87	7.07	
2025-01-19 10:31:31.96	166.88	7.08	
2025-01-19 10:31:32.17	166.88	7.10	
2025-01-19 10:31:32.37	166.88	7.11	
2025-01-19 10:31:32.57	166.89	7.13	
2025-01-19 10:31:32.78	166.89	7.15	
2025-01-19 10:31:32.98	166.89	7.16	
2025-01-19 10:31:33.18	166.90	7.18	
2025-01-19 10:31:33.39	166.90	7.19	
2025-01-19 10:31:33.59	166.90	7.21	
2025-01-19 10:31:33.79	166.91	7.22	
2025-01-19 10:31:34.00	166.91	7.24	
2025-01-19 10:31:34.20	166.91	7.26	
2025-01-19 10:31:34.40	166.92	7.27	
2025-01-19 10:31:34.60	166.92	7.29	
2025-01-19 10:31:34.81	166.92	7.30	
2025-01-19 10:31:35.01	166.93	7.32	
2025-01-19 10:31:35.21	166.93	7.33	
2025-01-19 10:31:35.42	166.94	7.35	
2025-01-19 10:31:35.62	166.94	7.37	
2025-01-19 10:31:35.82	166.94	7.38	
2025-01-19 10:31:36.03	166.95	7.40	
2025-01-19 10:31:36.23	166.95	7.41	
2025-01-19 10:31:36.43	166.95	7.43	
2025-01-19 10:31:36.64	166.96	7.45	
2025-01-19 10:31:36.84	166.96	7.46	
2025-01-19 10:31:37.04	166.96	7.48	
2025-01-19 10:31:37.24	166.97	7.49	
2025-01-19 10:31:37.45	166.97	7.51	
2025-01-19 10:31:37.65	166.97	7.53	
2025-01-19 10:31:37.85	166.98	7.54	
2025-01-19 10:31:38.06	166.98	7.56	
2025-01-19 10:31:38.26	166.98	7.57	
2025-01-19 10:31:38.46	166.99	7.59	
2025-01-19 10:31:38.67	166.99	7.61	
2025-01-19 10:31:38.87	166.99	7.62	
2025-01-19 10:31:39.07	167.00	7.64	
2025-01-19 10:31:39.28	167.00	7.66	
2025-01-19 10:31:39.48	167.00	7.67	
2025-01-19 10:31:39.68	167.01	7.69	
2025-01-19 10:31:39.88	167.01	7.70	
2025-01-19 10:31:40.09	167.02	7.72	
2025-01-19 10:31:40.29	167.02	7.74	
2025-01-19 10:31:40.49	167.02	7.75	
2025-01-19 10:31:40.70	167.03	7.77	
2025-01-19 10:31:40.90	167.03	7.78	
2025-01-19 10:31:41.10	167.03	7.80	
2025-01-19 10:31:41.31	167.04	7.82	
2025-01-19 10:31:41.51	167.04	7.83	
2025-01-19 10:31:41.71	167.04	7.85	
2025-01-19 10:31:41.92	167.05	7.86	
2025-01-19 10:31:42.12	167.05	7.88	
2025-01-19 10:31:42.32	167.05	7.90	
2025-01-19 10:31:42.52	167.06	7.91	
2025-01-19 10:31:42.73	167.06	7.93	
2025-01-19 10:31:42.93	167.06	7.95	
2025-01-19 10:31:43.13	167.07	7.96	
2025-01-19 10:31:43.34	167.07	7.98	
2025-01-19 10:31:43.54	167.08	7.99	
2025-01-19 10:31:43.74	167.08	8.01	
2025-01-19 10:31:43.95	167.08	8.03	
2025-01-19 10:31:44.15	167.09	8.04	
2025-01-19 10:31:44.35	167.09	8.06	
2025-01-19 10:31:44.56	167.09	8.08	
2025-01-19 10:31:44.76	167.10	8.09	
2025-01-19 10:31:44.96	167.10	8.11	
2025-01-19 10:31:45.16	167.10	8.12	
2025-01-19 10:31:45.37	167.11	8.14	
2025-01-19 10:31:45.57	167.11	8.16	
2025-01-19 10:31:45.77	167.12	8.17	
2025-01-19 10:31:45.98	167.12	8.19	
2025-01-19 10:31:46.18	167.12	8.21	
2025-01-19 10:31:46.38	167.13	8.22	
2025-01-19 10:31:46.59	167.13	8.24	
2025-01-19 10:31:46.79	167.13	8.26	
2025-01-19 10:31:46.99	167.14	8.27	
2025-01-19 10:31:47.20	167.14	8.29	
2025-01-19 10:31:47.40	167.14	8.31	
2025-01-19 10:31:47.60	167.15	8.32	
2025-01-19 10:31:47.80	167.15	8.34	
2025-01-19 10:31:48.01	167.16	8.36	
2025-01-19 10:31:48.21	167.16	8.37	
2025-01-19 10:31:48.41	167.16	8.39	
2025-01-19 10:31:48.62	167.17	8.41	
2025-01-19 10:31:48.82	167.17	8.42	
2025-01-19 10:31:49.02	167.17	8.44	
2025-01-19 10:31:49.23	167.18	8.45	
2025-01-19 10:31:49.43	167.18	8.47	
2025-01-19 10:31:49.63	167.18	8.49	
2025-01-19 10:31:49.84	167.19	8.50	
2025-01-19 10:31:50.04	167.19	8.52	
2025-01-19 10:31:50.24	167.20	8.54	
2025-01-19 10:31:50.44	167.20	8.55	
2025-01-19 10:31:50.65	167.20	8.57	
2025-01-19 10:31:50.85	167.21	8.59	
2025-01-19 10:31:51.05	167.21	8.60	
2025-01-19 10:31:51.26	167.21	8.62	
2025-01-19 10:31:51.46	167.22	8.64	
2025-01-19 10:31:51.66	167.22	8.65	
2025-01-19 10:31:51.87	167.23	8.67	
2025-01-19 10:31:52.07	167.23	8.69	
2025-01-19 10:31:52.27	167.23	8.70	
2025-01-19 10:31:52.48	167.24	8.72	
2025-01-19 10:31:52.68	167.24	8.74	
2025-01-19 10:31:52.88	167.24	8.75	
2025-01-19 10:31:53.09	167.25	8.77	
2025-01-19 10:31:53.29	167.25	8.79	
2025-01-19 10:31:53.49	167.26	8.81	
2025-01-19 10:31:53.69	167.26	8.82	
2025-01-19 10:31:53.90	167.26	8.84	
2025-01-19 10:31:54.10	167.27	8.86	
2025-01-19 10:31:54.30	167.27	8.87	
2025-01-19 10:31:54.51	167.27	8.89	
2025-01-19 10:31:54.71	167.28	8.91	
2025-01-19 10:31:54.91	167.28	8.92	
2025-01-19 10:31:55.12	167.29	8.94	
2025-01-19 10:31:55.32	167.29	8.96	
2025-01-19 10:31:55.52	167.29	8.97	
2025-01-19 10:31:55.73	167.30	8.99	
2025-01-19 10:31:55.93	167.30	9.01	
2025-01-19 10:31:56.13	167.30	9.02	
2025-01-19 10:31:56.33	167.31	9.04	
2025-01-19 10:31:56.54	167.31	9.06	
2025-01-19 10:31:56.74	167.32	9.08	
2025-01-19 10:31:56.94	167.32	9.09	
2025-01-19 10:31:57.15	167.32	9.11	
2025-01-19 10:31:57.35	167.33	9.13	
2025-01-19 10:31:57.55	167.33	9.14	
2025-01-19 10:31:57.76	167.33	9.16	
2025-01-19 10:31:57.96	167.34	9.18	
2025-01-19 10:31:58.16	167.34	9.20	
2025-01-19 10:31:58.37	167.35	9.21	
2025-01-19 10:31:58.57	167.35	9.23	
2025-01-19 10:31:58.77	167.35	9.25	
2025-01-19 10:31:58.97	167.36	9.26	
2025-01-19 10:31:59.18	167.36	9.28	
2025-01-19 10:31:59.38	167.37	9.30	
2025-01-19 10:31:59.58	167.37	9.31	
2025-01-19 10:31:59.79	167.37	9.33	
2025-01-19 10:31:59.99	167.38	9.35	
2025-01-19 10:32:00.19	167.38	9.37	
2025-01-19 10:32:00.40	167.38	9.38	
2025-01-19 10:32:00.60	167.39	9.40	
2025-01-19 10:32:00.80	167.39	9.42	
2025-01-19 10:32:01.01	167.40	9.44	
2025-01-19 10:32:01.21	167.40	9.45	
2025-01-19 10:32:01.41	167.40	9.47	
2025-01-19 10:32:01.61	167.41	9.49	
2025-01-19 10:32:01.82	167.41	9.50	
2025-01-19 10:32:02.02	167.42	9.52	
2025-01-19 10:32:02.22	167.42	9.54	
2025-01-19 10:32:02.43	167.42	9.56	
2025-01-19 10:32:02.63	167.43	9.57	
2025-01-19 10:32:02.83	167.43	9.59	
2025-01-19 10:32:03.04	167.44	9.61	
2025-01-19 10:32:03.24	167.44	9.63	
2025-01-19 10:32:03.44	167.44	9.64	
2025-01-19 10:32:03.65	167.45	9.66	
2025-01-19 10:32:03.85	167.45	9.68	
2025-01-19 10:32:04.05	167.46	9.70	
2025-01-19 10:32:04.25	167.46	9.71	
2025-01-19 10:32:04.46	167.46	9.73	
2025-01-19 10:32:04.66	167.47	9.75	
2025-01-19 10:32:04.86	167.47	9.77	
2025-01-19 10:32:05.07	167.48	9.78	
2025-01-19 10:32:05.27	167.48	9.80	
2025-01-19 10:32:05.47	167.48	9.82	
2025-01-19 10:32:05.68	167.49	9.84	
2025-01-19 10:32:05.88	167.49	9.85	
2025-01-19 10:32:06.08	167.49	9.87	
2025-01-19 10:32:06.29	167.50	9.89	
2025-01-19 10:32:06.49	167.50	9.91	
2025-01-19 10:32:06.69	167.51	9.92	
2025-01-19 10:32:06.89	167.51	9.94	
2025-01-19 10:32:07.10	167.52	9.96	
2025-01-19 10:32:07.30	167.52	9.98	
2025-01-19 10:32:07.50	167.52	9.99	
2025-01-19 10:32:07.71	167.53	10.01	
2025-01-19 10:32:07.91	167.53	10.03	
2025-01-19 10:32:08.11	167.54	10.05	
2025-01-19 10:32:08.32	167.54	10.06	
2025-01-19 10:32:08.52	167.54	10.08	
2025-01-19 10:32:08.72	167.55	10.10	
2025-01-19 10:32:08.93	167.55	10.12	
2025-01-19 10:32:09.13	167.56	10.14	
2025-01-19 10:32:09.33	167.56	10.15	
2025-01-19 10:32:09.53	167.56	10.17	
2025-01-19 10:32:09.74	167.57	10.19	
2025-01-19 10:32:09.94	167.57	10.21	
2025-01-19 10:32:10.14	167.58	10.22	
2025-01-19 10:32:10.35	167.58	10.24	
2025-01-19 10:32:10.55	167.58	10.26	
2025-01-19 10:32:10.75	167.59	10.28	
2025-01-19 10:32:10.96	167.59	10.30	
2025-01-19 10:32:11.16	167.60	10.31	
2025-01-19 10:32:11.36	167.60	10.33	
2025-01-19 10:32:11.57	167.60	10.35	
2025-01-19 10:32:11.77	167.61	10.37	
2025-01-19 10:32:11.97	167.61	10.38	
2025-01-19 10:32:12.17	167.62	10.40	
2025-01-19 10:32:12.38	167.62	10.42	
2025-01-19 10:32:12.58	167.62	10.44	
2025-01-19 10:32:12.78	167.63	10.46	
2025-01-19 10:32:12.99	167.63	10.47	
2025-01-19 10:32:13.19	167.64	10.49	
2025-01-19 10:32:13.39	167.64	10.51	
2025-01-19 10:32:13.60	167.65	10.53	
2025-01-19 10:32:13.80	167.65	10.55	
2025-01-19 10:32:14.00	167.65	10.56	
2025-01-19 10:32:14.21	167.66	10.58	
2025-01-19 10:32:14.41	167.66	10.60	
2025-01-19 10:32:14.61	167.67	10.62	
2025-01-19 10:32:14.81	167.67	10.64	
2025-01-19 10:32:15.02	167.67	10.66	
2025-01-19 10:32:15.22	167.68	10.67	
2025-01-19 10:32:15.42	167.68	10.69	
2025-01-19 10:32:15.63	167.69	10.71	
2025-01-19 10:32:15.83	167.69	10.73	
2025-01-19 10:32:16.03	167.70	10.75	
2025-01-19 10:32:16.24	167.70	10.76	
2025-01-19 10:32:16.44	167.70	10.78	
2025-01-19 10:32:16.64	167.71	10.80	
2025-01-19 10:32:16.85	167.71	10.82	
2025-01-19 10:32:17.05	167.72	10.84	
2025-01-19 10:32:17.25	167.72	10.86	
2025-01-19 10:32:17.45	167.72	10.87	
2025-01-19 10:32:17.66	167.73	10.89	
2025-01-19 10:32:17.86	167.73	10.91	
2025-01-19 10:32:18.06	167.74	10.93	
2025-01-19 10:32:18.27	167.74	10.95	
2025-01-19 10:32:18.47	167.75	10.96	
2025-01-19 10:32:18.67	167.75	10.98	
2025-01-19 10:32:18.88	167.75	11.00	
2025-01-19 10:32:19.08	167.76	11.02	
2025-01-19 10:32:19.28	167.76	11.04	
2025-01-19 10:32:19.49	167.77	11.06	
2025-01-19 10:32:19.69	167.77	11.08	
2025-01-19 10:32:19.89	167.78	11.09	
2025-01-19 10:32:20.09	167.78	11.11	
2025-01-19 10:32:20.30	167.78	11.13	
2025-01-19 10:32:20.50	167.79	11.15	
2025-01-19 10:32:20.70	167.79	11.17	
2025-01-19 10:32:20.91	167.80	11.19	
2025-01-19 10:32:21.11	167.80	11.20	
2025-01-19 10:32:21.31	167.81	11.22	
2025-01-19 10:32:21.52	167.81	11.24	
2025-01-19 10:32:21.72	167.81	11.26	
2025-01-19 10:32:21.92	167.82	11.28	
2025-01-19 10:32:22.13	167.82	11.30	
2025-01-19 10:32:22.33	167.83	11.32	
2025-01-19 10:32:22.53	167.83	11.33	
2025-01-19 10:32:22.73	167.84	11.35	
2025-01-19 10:32:22.94	167.84	11.37	
2025-01-19 10:32:23.14	167.85	11.39	
2025-01-19 10:32:23.34	167.85	11.41	
2025-01-19 10:32:23.55	167.85	11.43	
2025-01-19 10:32:23.75	167.86	11.45	
2025-01-19 10:32:23.95	167.86	11.47	
2025-01-19 10:32:24.16	167.87	11.48	
2025-01-19 10:32:24.36	167.87	11.50	
2025-01-19 10:32:24.56	167.88	11.52	
2025-01-19 10:32:24.77	167.88	11.54	
2025-01-19 10:32:24.97	167.88	11.56	
2025-01-19 10:32:25.17	167.89	11.58	
2025-01-19 10:32:25.37	167.89	11.60	
2025-01-19 10:32:25.58	167.90	11.62	
2025-01-19 10:32:25.78	167.90	11.63	
2025-01-19 10:32:25.98	167.91	11.65	
2025-01-19 10:32:26.19	167.91	11.67	
2025-01-19 10:32:26.39	167.92	11.69	
2025-01-19 10:32:26.59	167.92	11.71	
2025-01-19 10:32:26.80	167.92	11.73	
2025-01-19 10:32:27.00	167.93	11.75	
2025-01-19 10:32:27.20	167.93	11.77	
2025-01-19 10:32:27.41	167.94	11.79	
2025-01-19 10:32:27.61	167.94	11.80	
2025-01-19 10:32:27.81	167.95	11.82	
2025-01-19 10:32:28.01	167.95	11.84	
2025-01-19 10:32:28.22	167.96	11.86	
2025-01-19 10:32:28.42	167.96	11.88	
2025-01-19 10:32:28.62	167.96	11.90	
2025-01-19 10:32:28.83	167.97	11.92	
2025-01-19 10:32:29.03	167.97	11.94	
2025-01-19 10:32:29.23	167.98	11.96	
2025-01-19 10:32:29.44	167.98	11.98	
2025-01-19 10:32:29.64	167.99	12.00	
2025-01-19 10:32:29.84	167.99	12.01	
2025-01-19 10:32:30.05	168.00	12.03	
2025-01-19 10:32:30.25	168.00	12.05	
2025-01-19 10:32:30.45	168.01	12.07	
2025-01-19 10:32:30.65	168.01	12.09	
2025-01-19 10:32:30.86	168.01	12.11	
2025-01-19 10:32:31.06	168.02	12.13	
2025-01-19 10:32:31.26	168.02	12.15	
2025-01-19 10:32:31.47	168.03	12.17	
2025-01-19 10:32:31.67	168.03	12.19	
2025-01-19 10:32:31.87	168.04	12.21	
2025-01-19 10:32:32.08	168.04	12.23	
2025-01-19 10:32:32.28	168.05	12.25	
2025-01-19 10:32:32.48	168.05	12.26	
2025-01-19 10:32:32.69	168.06	12.28	
2025-01-19 10:32:32.89	168.06	12.30	
2025-01-19 10:32:33.09	168.06	12.32	
2025-01-19 10:32:33.29	168.07	12.34	
2025-01-19 10:32:33.50	168.07	12.36	
2025-01-19 10:32:33.70	168.08	12.38	
2025-01-19 10:32:33.90	168.08	12.40	
2025-01-19 10:32:34.11	168.09	12.42	
2025-01-19 10:32:34.31	168.09	12.44	
2025-01-19 10:32:34.51	168.10	12.46	
2025-01-19 10:32:34.72	168.10	12.48	
2025-01-19 10:32:34.92	168.11	12.50	
2025-01-19 10:32:35.12	168.11	12.52	
2025-01-19 10:32:35.33	168.12	12.54	
2025-01-19 10:32:35.53	168.12	12.56	
2025-01-19 10:32:35.73	168.12	12.58	
2025-01-19 10:32:35.93	168.13	12.59	
2025-01-19 10:32:36.14	168.13	12.62	
2025-01-19 10:32:36.34	168.14	12.63	
2025-01-19 10:32:36.54	168.14	12.65	
2025-01-19 10:32:36.75	168.15	12.67	
2025-01-19 10:32:36.95	168.15	12.69	
2025-01-19 10:32:37.15	168.16	12.71	
2025-01-19 10:32:37.36	168.16	12.73	
2025-01-19 10:32:37.56	168.17	12.75	
2025-01-19 10:32:37.76	168.17	12.77	
2025-01-19 10:32:37.97	168.18	12.79	
2025-01-19 10:32:38.17	168.18	12.81	
2025-01-19 10:32:38.37	168.19	12.83	
2025-01-19 10:32:38.57	168.19	12.85	
2025-01-19 10:32:38.78	168.20	12.87	
2025-01-19 10:32:38.98	168.20	12.89	
2025-01-19 10:32:39.18	168.20	12.91	
2025-01-19 10:32:39.39	168.21	12.93	
2025-01-19 10:32:39.59	168.21	12.95	
2025-01-19 10:32:39.79	168.22	12.97	
2025-01-19 10:32:40.00	168.22	12.99	
2025-01-19 10:32:40.20	168.23	13.01	
2025-01-19 10:32:40.40	168.23	13.03	
2025-01-19 10:32:40.61	168.24	13.05	
2025-01-19 10:32:40.81	168.24	13.07	
2025-01-19 10:32:41.01	168.25	13.09	
2025-01-19 10:32:41.21	168.25	13.11	
2025-01-19 10:32:41.42	168.26	13.13	
2025-01-19 10:32:41.62	168.26	13.15	
2025-01-19 10:32:41.82	168.27	13.17	
2025-01-19 10:32:42.03	168.27	13.19	
2025-01-19 10:32:42.23	168.28	13.21	
2025-01-19 10:32:42.43	168.28	13.23	
2025-01-19 10:32:42.64	168.29	13.25	
2025-01-19 10:32:42.84	168.29	13.27	
2025-01-19 10:32:43.04	168.30	13.29	
2025-01-19 10:32:43.25	168.30	13.31	
2025-01-19 10:32:43.45	168.31	13.33	
2025-01-19 10:32:43.65	168.31	13.35	
2025-01-19 10:32:43.85	168.32	13.37	
2025-01-19 10:32:44.06	168.32	13.39	
2025-01-19 10:32:44.26	168.33	13.41	
2025-01-19 10:32:44.46	168.33	13.43	
2025-01-19 10:32:44.67	168.34	13.45	
2025-01-19 10:32:44.87	168.34	13.47	
2025-01-19 10:32:45.07	168.35	13.49	
2025-01-19 10:32:45.28	168.35	13.51	
2025-01-19 10:32:45.48	168.36	13.53	
2025-01-19 10:32:45.68	168.36	13.55	
2025-01-19 10:32:45.89	168.37	13.58	
2025-01-19 10:32:46.09	168.37	13.60	
2025-01-19 10:32:46.29	168.37	13.62	
2025-01-19 10:32:46.49	168.38	13.64	
2025-01-19 10:32:46.70	168.38	13.66	
2025-01-19 10:32:46.90	168.39	13.68	
2025-01-19 10:32:47.10	168.39	13.70	
2025-01-19 10:32:47.31	168.40	13.72	
2025-01-19 10:32:47.51	168.40	13.74	
2025-01-19 10:32:47.71	168.41	13.76	
2025-01-19 10:32:47.92	168.41	13.78	
2025-01-19 10:32:48.12	168.42	13.80	
2025-01-19 10:32:48.32	168.42	13.82	
2025-01-19 10:32:48.53	168.43	13.84	
2025-01-19 10:32:48.73	168.43	13.86	
2025-01-19 10:32:48.93	168.44	13.88	
2025-01-19 10:32:49.13	168.44	13.90	
2025-01-19 10:32:49.34	168.45	13.92	
2025-01-19 10:32:49.54	168.46	13.94	
2025-01-19 10:32:49.74	168.46	13.97	
2025-01-19 10:32:49.95	168.47	13.99	
2025-01-19 10:32:50.15	168.47	14.01	
2025-01-19 10:32:50.35	168.48	14.03	
2025-01-19 10:32:50.56	168.48	14.05	
2025-01-19 10:32:50.76	168.49	14.07	
2025-01-19 10:32:50.96	168.49	14.09	
2025-01-19 10:32:51.17	168.50	14.11	
2025-01-19 10:32:51.37	168.50	14.13	
2025-01-19 10:32:51.57	168.51	14.15	
2025-01-19 10:32:51.77	168.51	14.17	
2025-01-19 10:32:51.98	168.52	14.20	
2025-01-19 10:32:52.18	168.52	14.22	
2025-01-19 10:32:52.38	168.53	14.24	
2025-01-19 10:32:52.59	168.53	14.26	
2025-01-19 10:32:52.79	168.54	14.28	
2025-01-19 10:32:52.99	168.54	14.30	
2025-01-19 10:32:53.20	168.55	14.32	
2025-01-19 10:32:53.40	168.55	14.34	
2025-01-19 10:32:53.60	168.56	14.36	
2025-01-19 10:32:53.81	168.56	14.38	
2025-01-19 10:32:54.01	168.57	14.41	
2025-01-19 10:32:54.21	168.57	14.43	
2025-01-19 10:32:54.41	168.58	14.45	
2025-01-19 10:32:54.62	168.58	14.47	
2025-01-19 10:32:54.82	168.59	14.49	
2025-01-19 10:32:55.02	168.59	14.51	
2025-01-19 10:32:55.23	168.60	14.53	
2025-01-19 10:32:55.43	168.60	14.55	
2025-01-19 10:32:55.63	168.61	14.57	
2025-01-19 10:32:55.84	168.62	14.60	
2025-01-19 10:32:56.04	168.62	14.62	
2025-01-19 10:32:56.24	168.63	14.64	
2025-01-19 10:32:56.45	168.63	14.66	
2025-01-19 10:32:56.65	168.64	14.68	
2025-01-19 10:32:56.85	168.64	14.70	
2025-01-19 10:32:57.05	168.65	14.72	
2025-01-19 10:32:57.26	168.65	14.75	
2025-01-19 10:32:57.46	168.66	14.77	
2025-01-19 10:32:57.66	168.66	14.79	
2025-01-19 10:32:57.87	168.67	14.81	
2025-01-19 10:32:58.07	168.67	14.83	
2025-01-19 10:32:58.27	168.68	14.85	
2025-01-19 10:32:58.48	168.68	14.87	
2025-01-19 10:32:58.68	168.69	14.90	
2025-01-19 10:32:58.88	168.69	14.92	
2025-01-19 10:32:59.09	168.70	14.94	
2025-01-19 10:32:59.29	168.71	14.96	
2025-01-19 10:32:59.49	168.71	14.98	
2025-01-19 10:32:59.69	168.72	15.00	
2025-01-19 10:32:59.90	168.72	15.02	
2025-01-19 10:33:00.10	168.73	15.05	
2025-01-19 10:33:00.30	168.73	15.07	
2025-01-19 10:33:00.51	168.74	15.09	
2025-01-19 10:33:00.71	168.74	15.11	
2025-01-19 10:33:00.91	168.75	15.13	
2025-01-19 10:33:01.12	168.75	15.16	
2025-01-19 10:33:01.32	168.76	15.18	
2025-01-19 10:33:01.52	168.76	15.20	
2025-01-19 10:33:01.73	168.77	15.22	
2025-01-19 10:33:01.93	168.78	15.24	
2025-01-19 10:33:02.13	168.78	15.26	
2025-01-19 10:33:02.33	168.79	15.29	
2025-01-19 10:33:02.54	168.79	15.31	
2025-01-19 10:33:02.74	168.80	15.33	
2025-01-19 10:33:02.94	168.80	15.35	
2025-01-19 10:33:03.15	168.81	15.37	
2025-01-19 10:33:03.35	168.81	15.40	
2025-01-19 10:33:03.55	168.82	15.42	
2025-01-19 10:33:03.76	168.83	15.44	
2025-01-19 10:33:03.96	168.83	15.46	
2025-01-19 10:33:04.16	168.84	15.48	
2025-01-19 10:33:04.37	168.84	15.51	
2025-01-19 10:33:04.57	168.85	15.53	
2025-01-19 10:33:04.77	168.85	15.55	
2025-01-19 10:33:04.97	168.86	15.57	
2025-01-19 10:33:05.18	168.86	15.59	
2025-01-19 10:33:05.38	168.87	15.62	
2025-01-19 10:33:05.58	168.88	15.64	
2025-01-19 10:33:05.79	168.88	15.66	
2025-01-19 10:33:05.99	168.89	15.68	
2025-01-19 10:33:06.19	168.89	15.70	
2025-01-19 10:33:06.40	168.90	15.73	
2025-01-19 10:33:06.60	168.90	15.75	
2025-01-19 10:33:06.80	168.91	15.77	
2025-01-19 10:33:07.01	168.91	15.79	
2025-01-19 10:33:07.21	168.92	15.82	
2025-01-19 10:33:07.41	168.93	15.84	
2025-01-19 10:33:07.61	168.93	15.86	
2025-01-19 10:33:07.82	168.94	15.88	
2025-01-19 10:33:08.02	168.94	15.91	
2025-01-19 10:33:08.22	168.95	15.93	
2025-01-19 10:33:08.43	168.95	15.95	
2025-01-19 10:33:08.63	168.96	15.97	
2025-01-19 10:33:08.83	168.97	16.00	
2025-01-19 10:33:09.04	168.97	16.02	
2025-01-19 10:33:09.24	168.98	16.04	
2025-01-19 10:33:09.44	168.98	16.06	
2025-01-19 10:33:09.65	168.99	16.09	
2025-01-19 10:33:09.85	168.99	16.11	
2025-01-19 10:33:10.05	169.00	16.13	
2025-01-19 10:33:10.25	169.01	16.15	
2025-01-19 10:33:10.46	169.01	16.18	
2025-01-19 10:33:10.66	169.02	16.20	
2025-01-19 10:33:10.86	169.02	16.22	
2025-01-19 10:33:11.07	169.03	16.25	
2025-01-19 10:33:11.27	169.03	16.27	
2025-01-19 10:33:11.47	169.04	16.29	
2025-01-19 10:33:11.68	169.05	16.31	
2025-01-19 10:33:11.88	169.05	16.34	
2025-01-19 10:33:12.08	169.06	16.36	
2025-01-19 10:33:12.29	169.06	16.38	
2025-01-19 10:33:12.49	169.07	16.40	
2025-01-19 10:33:12.69	169.08	16.43	
2025-01-19 10:33:12.89	169.08	16.45	
2025-01-19 10:33:13.10	169.09	16.47	
2025-01-19 10:33:13.30	169.09	16.50	
2025-01-19 10:33:13.50	169.10	16.52	
2025-01-19 10:33:13.71	169.10	16.54	
2025-01-19 10:33:13.91	169.11	16.57	
2025-01-19 10:33:14.11	169.12	16.59	
2025-01-19 10:33:14.32	169.12	16.61	
2025-01-19 10:33:14.52	169.13	16.63	
2025-01-19 10:33:14.72	169.13	16.66	
2025-01-19 10:33:14.93	169.14	16.68	
2025-01-19 10:33:15.13	169.15	16.70	
2025-01-19 10:33:15.33	169.15	16.73	
2025-01-19 10:33:15.53	169.16	16.75	
2025-01-19 10:33:15.74	169.16	16.77	
2025-01-19 10:33:15.94	169.17	16.80	
2025-01-19 10:33:16.14	169.18	16.82	
2025-01-19 10:33:16.35	169.18	16.84	
2025-01-19 10:33:16.55	169.19	16.87	
2025-01-19 10:33:16.75	169.19	16.89	
2025-01-19 10:33:16.96	169.20	16.91	
2025-01-19 10:33:17.16	169.21	16.94	
2025-01-19 10:33:17.36	169.21	16.96	
2025-01-19 10:33:17.57	169.22	16.98	
2025-01-19 10:33:17.77	169.22	17.01	
2025-01-19 10:33:17.97	169.23	17.03	
2025-01-19 10:33:18.17	169.24	17.05	
2025-01-19 10:33:18.38	169.24	17.08	
2025-01-19 10:33:18.58	169.25	17.10	
2025-01-19 10:33:18.78	169.25	17.12	
2025-01-19 10:33:18.99	169.26	17.15	
2025-01-19 10:33:19.19	169.27	17.17	
2025-01-19 10:33:19.39	169.27	17.20	
2025-01-19 10:33:19.60	169.28	17.22	
2025-01-19 10:33:19.80	169.29	17.24	
2025-01-19 10:33:20.00	169.29	17.27	
2025-01-19 10:33:20.21	169.30	17.29	
2025-01-19 10:33:20.41	169.30	17.31	
2025-01-19 10:33:20.61	169.31	17.34	
2025-01-19 10:33:20.81	169.32	17.36	
2025-01-19 10:33:21.02	169.32	17.39	
2025-01-19 10:33:21.22	169.33	17.41	
2025-01-19 10:33:21.42	169.33	17.43	
2025-01-19 10:33:21.63	169.34	17.46	
2025-01-19 10:33:21.83	169.35	17.48	
2025-01-19 10:33:22.03	169.35	17.50	
2025-01-19 10:33:22.24	169.36	17.53	
2025-01-19 10:33:22.44	169.37	17.55	
2025-01-19 10:33:22.64	169.37	17.58	
2025-01-19 10:33:22.85	169.38	17.60	
2025-01-19 10:33:23.05	169.38	17.63	
2025-01-19 10:33:23.25	169.39	17.65	
2025-01-19 10:33:23.45	169.40	17.67	
2025-01-19 10:33:23.66	169.40	17.70	
2025-01-19 10:33:23.86	169.41	17.72	
2025-01-19 10:33:24.06	169.42	17.74	
2025-01-19 10:33:24.27	169.42	17.77	
2025-01-19 10:33:24.47	169.43	17.79	
2025-01-19 10:33:24.67	169.44	17.82	
2025-01-19 10:33:24.88	169.44	17.84	
2025-01-19 10:33:25.08	169.45	17.87	
2025-01-19 10:33:25.28	169.45	17.89	
2025-01-19 10:33:25.49	169.46	17.92	
2025-01-19 10:33:25.69	169.47	17.94	
2025-01-19 10:33:25.89	169.47	17.96	
2025-01-19 10:33:26.10	169.48	17.99	
2025-01-19 10:33:26.30	169.49	18.01	
2025-01-19 10:33:26.50	169.49	18.04	
2025-01-19 10:33:26.70	169.50	18.06	
2025-01-19 10:33:26.91	169.51	18.09	
2025-01-19 10:33:27.11	169.51	18.11	
2025-01-19 10:33:27.31	169.52	18.13	
2025-01-19 10:33:27.52	169.53	18.16	
2025-01-19 10:33:27.72	169.53	18.18	
2025-01-19 10:33:27.92	169.54	18.21	
2025-01-19 10:33:28.13	169.55	18.23	
2025-01-19 10:33:28.33	169.55	18.26	
2025-01-19 10:33:28.53	169.56	18.28	
2025-01-19 10:33:28.74	169.56	18.31	
2025-01-19 10:33:28.94	169.57	18.33	
2025-01-19 10:33:29.14	169.58	18.36	
2025-01-19 10:33:29.34	169.58	18.38	
2025-01-19 10:33:29.55	169.59	18.41	
2025-01-19 10:33:29.75	169.60	18.43	
2025-01-19 10:33:29.95	169.60	18.46	
2025-01-19 10:33:30.16	169.61	18.48	
2025-01-19 10:33:30.36	169.62	18.51	
2025-01-19 10:33:30.56	169.62	18.53	
2025-01-19 10:33:30.77	169.63	18.56	
2025-01-19 10:33:30.97	169.64	18.58	
2025-01-19 10:33:31.17	169.64	18.61	
2025-01-19 10:33:31.37	169.65	18.63	
2025-01-19 10:33:31.58	169.66	18.66	
2025-01-19 10:33:31.78	169.66	18.68	
2025-01-19 10:33:31.98	169.67	18.71	
2025-01-19 10:33:32.19	169.68	18.73	
2025-01-19 10:33:32.39	169.68	18.76	
2025-01-19 10:33:32.59	169.69	18.78	
2025-01-19 10:33:32.80	169.70	18.81	
2025-01-19 10:33:33.00	169.70	18.83	
2025-01-19 10:33:33.20	169.71	18.86	
2025-01-19 10:33:33.41	169.72	18.88	
2025-01-19 10:33:33.61	169.72	18.91	
2025-01-19 10:33:33.81	169.73	18.93	
2025-01-19 10:33:34.02	169.74	18.96	
2025-01-19 10:33:34.22	169.74	18.98	
2025-01-19 10:33:34.42	169.75	19.01	
2025-01-19 10:33:34.62	169.76	19.03	
2025-01-19 10:33:34.83	169.77	19.06	
2025-01-19 10:33:35.03	169.77	19.09	
2025-01-19 10:33:35.23	169.78	19.11	
2025-01-19 10:33:35.44	169.79	19.14	
2025-01-19 10:33:35.64	169.79	19.16	
2025-01-19 10:33:35.84	169.80	19.19	
2025-01-19 10:33:36.05	169.81	19.21	
2025-01-19 10:33:36.25	169.81	19.24	
2025-01-19 10:33:36.45	169.82	19.27	
2025-01-19 10:33:36.66	169.83	19.29	
2025-01-19 10:33:36.86	169.83	19.32	
2025-01-19 10:33:37.06	169.84	19.34	
2025-01-19 10:33:37.26	169.85	19.37	
2025-01-19 10:33:37.47	169.86	19.39	
2025-01-19 10:33:37.67	169.86	19.42	
2025-01-19 10:33:37.87	169.87	19.45	
2025-01-19 10:33:38.08	169.88	19.47	
2025-01-19 10:33:38.28	169.88	19.50	
2025-01-19 10:33:38.48	169.89	19.52	
2025-01-19 10:33:38.69	169.90	19.55	
2025-01-19 10:33:38.89	169.90	19.58	
2025-01-19 10:33:39.09	169.91	19.60	
2025-01-19 10:33:39.30	169.92	19.63	
2025-01-19 10:33:39.50	169.93	19.65	
2025-01-19 10:33:39.70	169.93	19.68	
2025-01-19 10:33:39.90	169.94	19.71	
2025-01-19 10:33:40.11	169.95	19.73	
2025-01-19 10:33:40.31	169.95	19.76	
2025-01-19 10:33:40.51	169.96	19.78	
2025-01-19 10:33:40.72	169.97	19.81	
2025-01-19 10:33:40.92	169.98	19.84	
2025-01-19 10:33:41.12	169.98	19.86	
2025-01-19 10:33:41.33	169.99	19.89	
2025-01-19 10:33:41.53	170.00	19.92	
2025-01-19 10:33:41.73	170.00	19.94	
2025-01-19 10:33:41.94	170.01	19.97	
2025-01-19 10:33:42.14	170.02	20.00	
2025-01-19 10:33:42.34	170.03	20.02	
2025-01-19 10:33:42.54	170.03	20.05	
2025-01-19 10:33:42.75	170.04	20.07	
2025-01-19 10:33:42.95	170.05	20.10	
2025-01-19 10:33:43.15	170.05	20.13	
2025-01-19 10:33:43.36	170.06	20.15	
2025-01-19 10:33:43.56	170.07	20.18	
2025-01-19 10:33:43.76	170.08	20.21	
2025-01-19 10:33:43.97	170.08	20.23	
2025-01-19 10:33:44.17	170.09	20.26	
2025-01-19 10:33:44.37	170.10	20.29	
2025-01-19 10:33:44.58	170.11	20.32	
2025-01-19 10:33:44.78	170.11	20.34	
2025-01-19 10:33:44.98	170.12	20.37	
2025-01-19 10:33:45.18	170.13	20.39	
2025-01-19 10:33:45.39	170.14	20.42	
2025-01-19 10:33:45.59	170.14	20.45	
2025-01-19 10:33:45.79	170.15	20.48	
2025-01-19 10:33:46.00	170.16	20.50	
2025-01-19 10:33:46.20	170.17	20.53	
2025-01-19 10:33:46.40	170.17	20.56	
2025-01-19 10:33:46.61	170.18	20.58	
2025-01-19 10:33:46.81	170.19	20.61	
2025-01-19 10:33:47.01	170.20	20.64	
2025-01-19 10:33:47.22	170.20	20.67	
2025-01-19 10:33:47.42	170.21	20.69	
2025-01-19 10:33:47.62	170.22	20.72	
2025-01-19 10:33:47.82	170.23	20.75	
2025-01-19 10:33:48.03	170.23	20.77	
2025-01-19 10:33:48.23	170.24	20.80	
2025-01-19 10:33:48.43	170.25	20.83	
2025-01-19 10:33:48.64	170.26	20.86	
2025-01-19 10:33:48.84	170.26	20.88	
2025-01-19 10:33:49.04	170.27	20.91	
2025-01-19 10:33:49.25	170.28	20.94	
2025-01-19 10:33:49.45	170.29	20.97	
2025-01-19 10:33:49.65	170.29	20.99	
2025-01-19 10:33:49.86	170.30	21.02	
2025-01-19 10:33:50.06	170.31	21.05	
2025-01-19 10:33:50.26	170.32	21.08	
2025-01-19 10:33:50.46	170.32	21.10	
2025-01-19 10:33:50.67	170.33	21.13	
2025-01-19 10:33:50.87	170.34	21.16	
2025-01-19 10:33:51.07	170.35	21.19	
2025-01-19 10:33:51.28	170.36	21.21	
2025-01-19 10:33:51.48	170.36	21.24	
2025-01-19 10:33:51.68	170.37	21.27	
2025-01-19 10:33:51.89	170.38	21.30	
2025-01-19 10:33:52.09	170.39	21.33	
2025-01-19 10:33:52.29	170.39	21.35	
2025-01-19 10:33:52.50	170.40	21.38	
2025-01-19 10:33:52.70	170.41	21.41	
2025-01-19 10:33:52.90	170.42	21.44	
2025-01-19 10:33:53.10	170.43	21.46	
2025-01-19 10:33:53.31	170.43	21.49	
2025-01-19 10:33:53.51	170.44	21.52	
2025-01-19 10:33:53.71	170.45	21.55	
2025-01-19 10:33:53.92	170.46	21.58	
2025-01-19 10:33:54.12	170.47	21.61	
2025-01-19 10:33:54.32	170.47	21.63	
2025-01-19 10:33:54.53	170.48	21.66	
2025-01-19 10:33:54.73	170.49	21.69	
2025-01-19 10:33:54.93	170.50	21.72	
2025-01-19 10:33:55.14	170.51	21.75	
2025-01-19 10:33:55.34	170.51	21.78	
2025-01-19 10:33:55.54	170.52	21.80	
2025-01-19 10:33:55.74	170.53	21.83	
2025-01-19 10:33:55.95	170.54	21.86	
2025-01-19 10:33:56.15	170.55	21.89	
2025-01-19 10:33:56.35	170.55	21.92	
2025-01-19 10:33:56.56	170.56	21.95	
2025-01-19 10:33:56.76	170.57	21.97	
2025-01-19 10:33:56.96	170.58	22.00	
2025-01-19 10:33:57.17	170.59	22.03	
2025-01-19 10:33:57.37	170.59	22.06	
2025-01-19 10:33:57.57	170.60	22.09	
2025-01-19 10:33:57.78	170.61	22.12	
2025-01-19 10:33:57.98	170.62	22.15	
2025-01-19 10:33:58.18	170.63	22.17	
2025-01-19 10:33:58.38	170.64	22.20	
2025-01-19 10:33:58.59	170.64	22.23	
2025-01-19 10:33:58.79	170.65	22.26	
2025-01-19 10:33:58.99	170.66	22.29	
2025-01-19 10:33:59.20	170.67	22.32	
2025-01-19 10:33:59.40	170.68	22.35	
2025-01-19 10:33:59.60	170.69	22.38	
2025-01-19 10:33:59.81	170.69	22.41	
2025-01-19 10:34:00.01	170.70	22.44	
2025-01-19 10:34:00.21	170.71	22.46	
2025-01-19 10:34:00.42	170.72	22.49	
2025-01-19 10:34:00.62	170.73	22.52	
2025-01-19 10:34:00.82	170.74	22.55	
2025-01-19 10:34:01.02	170.74	22.58	
2025-01-19 10:34:01.23	170.75	22.61	
2025-01-19 10:34:01.43	170.76	22.64	
2025-01-19 10:34:01.63	170.77	22.67	
2025-01-19 10:34:01.84	170.78	22.70	
2025-01-19 10:34:02.04	170.79	22.73	
2025-01-19 10:34:02.24	170.79	22.76	
2025-01-19 10:34:02.45	170.80	22.79	
2025-01-19 10:34:02.65	170.81	22.82	
2025-01-19 10:34:02.85	170.82	22.85	
2025-01-19 10:34:03.06	170.83	22.88	
2025-01-19 10:34:03.26	170.84	22.91	
2025-01-19 10:34:03.46	170.85	22.93	
2025-01-19 10:34:03.66	170.85	22.96	
2025-01-19 10:34:03.87	170.86	22.99	
2025-01-19 10:34:04.07	170.87	23.02	
2025-01-19 10:34:04.27	170.88	23.05	
2025-01-19 10:34:04.48	170.89	23.08	
2025-01-19 10:34:04.68	170.90	23.11	
2025-01-19 10:34:04.88	170.91	23.14	
2025-01-19 10:34:05.09	170.92	23.17	
2025-01-19 10:34:05.29	170.92	23.20	
2025-01-19 10:34:05.49	170.93	23.23	
2025-01-19 10:34:05.70	170.94	23.26	
2025-01-19 10:34:05.90	170.95	23.29	
2025-01-19 10:34:06.10	170.96	23.32	
2025-01-19 10:34:06.30	170.97	23.35	
2025-01-19 10:34:06.51	170.98	23.38	
2025-01-19 10:34:06.71	170.99	23.41	
2025-01-19 10:34:06.91	170.99	23.44	
2025-01-19 10:34:07.12	171.00	23.47	
2025-01-19 10:34:07.32	171.01	23.50	
2025-01-19 10:34:07.52	171.02	23.53	
2025-01-19 10:34:07.73	171.03	23.57	
2025-01-19 10:34:07.93	171.04	23.60	
2025-01-19 10:34:08.13	171.05	23.63	
2025-01-19 10:34:08.34	171.06	23.66	
2025-01-19 10:34:08.54	171.07	23.69	
2025-01-19 10:34:08.74	171.08	23.72	
2025-01-19 10:34:08.94	171.08	23.75	
2025-01-19 10:34:09.15	171.09	23.78	
2025-01-19 10:34:09.35	171.10	23.81	
2025-01-19 10:34:09.55	171.11	23.84	
2025-01-19 10:34:09.76	171.12	23.87	
2025-01-19 10:34:09.96	171.13	23.90	
2025-01-19 10:34:10.16	171.14	23.93	
2025-01-19 10:34:10.37	171.15	23.96	
2025-01-19 10:34:10.57	171.16	23.99	
2025-01-19 10:34:10.77	171.17	24.02	
2025-01-19 10:34:10.98	171.18	24.06	
2025-01-19 10:34:11.18	171.18	24.09	
2025-01-19 10:34:11.38	171.19	24.12	
2025-01-19 10:34:11.58	171.20	24.15	
2025-01-19 10:34:11.79	171.21	24.18	
2025-01-19 10:34:11.99	171.22	24.21	
2025-01-19 10:34:12.19	171.23	24.24	
2025-01-19 10:34:12.40	171.24	24.27	
2025-01-19 10:34:12.60	171.25	24.30	
2025-01-19 10:34:12.80	171.26	24.34	
2025-01-19 10:34:13.01	171.27	24.37	
2025-01-19 10:34:13.21	171.28	24.40	
2025-01-19 10:34:13.41	171.29	24.43	
2025-01-19 10:34:13.62	171.30	24.46	
2025-01-19 10:34:13.82	171.31	24.49	
2025-01-19 10:34:14.02	171.31	24.52	
2025-01-19 10:34:14.22	171.32	24.55	
2025-01-19 10:34:14.43	171.33	24.59	
2025-01-19 10:34:14.63	171.34	24.62	
2025-01-19 10:34:14.83	171.35	24.65	
2025-01-19 10:34:15.04	171.36	24.68	
2025-01-19 10:34:15.24	171.37	24.71	
2025-01-19 10:34:15.44	171.38	24.74	
2025-01-19 10:34:15.65	171.39	24.78	
2025-01-19 10:34:15.85	171.40	24.81	
2025-01-19 10:34:16.05	171.41	24.84	
2025-01-19 10:34:16.26	171.42	24.87	
2025-01-19 10:34:16.46	171.43	24.90	
2025-01-19 10:34:16.66	171.44	24.94	
2025-01-19 10:34:16.86	171.45	24.97	
2025-01-19 10:34:17.07	171.46	25.00	
2025-01-19 10:34:17.27	171.47	25.03	
2025-01-19 10:34:17.47	171.48	25.06	
2025-01-19 10:34:17.68	171.49	25.10	
2025-01-19 10:34:17.88	171.50	25.13	
2025-01-19 10:34:18.08	171.51	25.16	
2025-01-19 10:34:18.29	171.52	25.19	
2025-01-19 10:34:18.49	171.53	25.23	
2025-01-19 10:34:18.69	171.54	25.26	
2025-01-19 10:34:18.90	171.55	25.29	
2025-01-19 10:34:19.10	171.56	25.32	
2025-01-19 10:34:19.30	171.57	25.36	
2025-01-19 10:34:19.50	171.58	25.39	
2025-01-19 10:34:19.71	171.59	25.42	
2025-01-19 10:34:19.91	171.60	25.45	
2025-01-19 10:34:20.11	171.61	25.48	
2025-01-19 10:34:20.32	171.62	25.52	
2025-01-19 10:34:20.52	171.63	25.55	
2025-01-19 10:34:20.72	171.64	25.58	
2025-01-19 10:34:20.93	171.65	25.62	
2025-01-19 10:34:21.13	171.66	25.65	
2025-01-19 10:34:21.33	171.67	25.68	
2025-01-19 10:34:21.54	171.68	25.72	
2025-01-19 10:34:21.74	171.69	25.75	
2025-01-19 10:34:21.94	171.70	25.78	
2025-01-19 10:34:22.14	171.71	25.81	
2025-01-19 10:34:22.35	171.72	25.85	
2025-01-19 10:34:22.55	171.73	25.88	
2025-01-19 10:34:22.75	171.74	25.91	
2025-01-19 10:34:22.96	171.75	25.95	
2025-01-19 10:34:23.16	171.76	25.98	
2025-01-19 10:34:23.36	171.77	26.01	
2025-01-19 10:34:23.57	171.78	26.05	
2025-01-19 10:34:23.77	171.79	26.08	
2025-01-19 10:34:23.97	171.80	26.11	
2025-01-19 10:34:24.18	171.81	26.15	
2025-01-19 10:34:24.38	171.82	26.18	
2025-01-19 10:34:24.58	171.83	26.21	
2025-01-19 10:34:24.78	171.84	26.25	
2025-01-19 10:34:24.99	171.85	26.28	
2025-01-19 10:34:25.19	171.86	26.31	
2025-01-19 10:34:25.39	171.87	26.35	
2025-01-19 10:34:25.60	171.88	26.38	
2025-01-19 10:34:25.80	171.89	26.42	
2025-01-19 10:34:26.00	171.90	26.45	
2025-01-19 10:34:26.21	171.92	26.48	
2025-01-19 10:34:26.41	171.93	26.52	
2025-01-19 10:34:26.61	171.94	26.55	
2025-01-19 10:34:26.82	171.95	26.59	
2025-01-19 10:34:27.02	171.96	26.62	
2025-01-19 10:34:27.22	171.97	26.65	
2025-01-19 10:34:27.42	171.98	26.69	
2025-01-19 10:34:27.63	171.99	26.72	
2025-01-19 10:34:27.83	172.00	26.75	
2025-01-19 10:34:28.03	172.01	26.79	
2025-01-19 10:34:28.24	172.02	26.82	
2025-01-19 10:34:28.44	172.03	26.86	
2025-01-19 10:34:28.64	172.04	26.89	
2025-01-19 10:34:28.85	172.05	26.93	
2025-01-19 10:34:29.05	172.07	26.96	
2025-01-19 10:34:29.25	172.08	26.99	
2025-01-19 10:34:29.46	172.09	27.03	
2025-01-19 10:34:29.66	172.10	27.06	
2025-01-19 10:34:29.86	172.11	27.10	
2025-01-19 10:34:30.06	172.12	27.13	
2025-01-19 10:34:30.27	172.13	27.17	
2025-01-19 10:34:30.47	172.14	27.20	
2025-01-19 10:34:30.67	172.15	27.24	
2025-01-19 10:34:30.88	172.16	27.27	
2025-01-19 10:34:31.08	172.18	27.31	
2025-01-19 10:34:31.28	172.19	27.34	
2025-01-19 10:34:31.49	172.20	27.38	
2025-01-19 10:34:31.69	172.21	27.41	
2025-01-19 10:34:31.89	172.22	27.45	
2025-01-19 10:34:32.10	172.23	27.48	
2025-01-19 10:34:32.30	172.24	27.52	
2025-01-19 10:34:32.50	172.25	27.55	
2025-01-19 10:34:32.70	172.26	27.59	
2025-01-19 10:34:32.91	172.28	27.62	
2025-01-19 10:34:33.11	172.29	27.66	
2025-01-19 10:34:33.31	172.30	27.69	
2025-01-19 10:34:33.52	172.31	27.73	
2025-01-19 10:34:33.72	172.32	27.76	
2025-01-19 10:34:33.92	172.33	27.80	
2025-01-19 10:34:34.13	172.34	27.84	
2025-01-19 10:34:34.33	172.36	27.87	
2025-01-19 10:34:34.53	172.37	27.91	
2025-01-19 10:34:34.74	172.38	27.94	
2025-01-19 10:34:34.94	172.39	27.98	
2025-01-19 10:34:35.14	172.40	28.01	
2025-01-19 10:34:35.34	172.41	28.05	
2025-01-19 10:34:35.55	172.43	28.09	
2025-01-19 10:34:35.75	172.44	28.12	
2025-01-19 10:34:35.95	172.45	28.16	
2025-01-19 10:34:36.16	172.46	28.19	
2025-01-19 10:34:36.36	172.47	28.23	
2025-01-19 10:34:36.56	172.48	28.26	
2025-01-19 10:34:36.77	172.50	28.30	
2025-01-19 10:34:36.97	172.51	28.34	
2025-01-19 10:34:37.17	172.52	28.37	
2025-01-19 10:34:37.38	172.53	28.41	
2025-01-19 10:34:37.58	172.54	28.45	
2025-01-19 10:34:37.78	172.55	28.48	
2025-01-19 10:34:37.98	172.57	28.52	
2025-01-19 10:34:38.19	172.58	28.56	
2025-01-19 10:34:38.39	172.59	28.59	
2025-01-19 10:34:38.59	172.60	28.63	
2025-01-19 10:34:38.80	172.61	28.66	
2025-01-19 10:34:39.00	172.63	28.70	
2025-01-19 10:34:39.20	172.64	28.74	
2025-01-19 10:34:39.41	172.65	28.77	
2025-01-19 10:34:39.61	172.66	28.81	
2025-01-19 10:34:39.81	172.68	28.85	
2025-01-19 10:34:40.02	172.69	28.89	
2025-01-19 10:34:40.22	172.70	28.92	
2025-01-19 10:34:40.42	172.71	28.96	
2025-01-19 10:34:40.62	172.72	28.99	
2025-01-19 10:34:40.83	172.74	29.03	
2025-01-19 10:34:41.03	172.75	29.07	
2025-01-19 10:34:41.23	172.76	29.11	
2025-01-19 10:34:41.44	172.77	29.14	
2025-01-19 10:34:41.64	172.79	29.18	
2025-01-19 10:34:41.84	172.80	29.22	
2025-01-19 10:34:42.05	172.81	29.26	
2025-01-19 10:34:42.25	172.82	29.29	
2025-01-19 10:34:42.45	172.84	29.33	
2025-01-19 10:34:42.66	172.85	29.37	
2025-01-19 10:34:42.86	172.86	29.41	
2025-01-19 10:34:43.06	172.87	29.44	
2025-01-19 10:34:43.26	172.89	29.48	
2025-01-19 10:34:43.47	172.90	29.52	
2025-01-19 10:34:43.67	172.91	29.56	
2025-01-19 10:34:43.87	172.92	29.59	
2025-01-19 10:34:44.08	172.94	29.63	
2025-01-19 10:34:44.28	172.95	29.67	
2025-01-19 10:34:44.48	172.96	29.71	
2025-01-19 10:34:44.69	172.98	29.75	
2025-01-19 10:34:44.89	172.99	29.78	
2025-01-19 10:34:45.09	173.00	29.82	
2025-01-19 10:34:45.30	173.01	29.86	
2025-01-19 10:34:45.50	173.03	29.90	
2025-01-19 10:34:45.70	173.04	29.94	
2025-01-19 10:34:45.90	173.05	29.97	
2025-01-19 10:34:46.11	173.07	30.01	
2025-01-19 10:34:46.31	173.08	30.05	
2025-01-19 10:34:46.51	173.09	30.09	
2025-01-19 10:34:46.72	173.10	30.13	
2025-01-19 10:34:46.92	173.12	30.17	
2025-01-19 10:34:47.12	173.13	30.20	
2025-01-19 10:34:47.33	173.14	30.24	
2025-01-19 10:34:47.53	173.16	30.28	
2025-01-19 10:34:47.73	173.17	30.32	
2025-01-19 10:34:47.94	173.18	30.36	
2025-01-19 10:34:48.14	173.20	30.40	
2025-01-19 10:34:48.34	173.21	30.44	
2025-01-19 10:34:48.54	173.22	30.47	
2025-01-19 10:34:48.75	173.24	30.51	
2025-01-19 10:34:48.95	173.25	30.55	
2025-01-19 10:34:49.15	173.26	30.59	
2025-01-19 10:34:49.36	173.28	30.63	
2025-01-19 10:34:49.56	173.29	30.67	
2025-01-19 10:34:49.76	173.30	30.71	
2025-01-19 10:34:49.97	173.32	30.75	
2025-01-19 10:34:50.17	173.33	30.79	
2025-01-19 10:34:50.37	173.35	30.83	
2025-01-19 10:34:50.58	173.36	30.87	
2025-01-19 10:34:50.78	173.37	30.91	
2025-01-19 10:34:50.98	173.39	30.95	
2025-01-19 10:34:51.18	173.40	30.98	
2025-01-19 10:34:51.39	173.41	31.03	
2025-01-19 10:34:51.59	173.43	31.06	
2025-01-19 10:34:51.79	173.44	31.10	
2025-01-19 10:34:52.00	173.46	31.15	
2025-01-19 10:34:52.20	173.47	31.18	
2025-01-19 10:34:52.40	173.48	31.22	
2025-01-19 10:34:52.61	173.50	31.26	
2025-01-19 10:34:52.81	173.51	31.30	
2025-01-19 10:34:53.01	173.53	31.34	
2025-01-19 10:34:53.22	173.54	31.39	
2025-01-19 10:34:53.42	173.55	31.42	
2025-01-19 10:34:53.62	173.57	31.46	
2025-01-19 10:34:53.82	173.58	31.50	
2025-01-19 10:34:54.03	173.60	31.55	
2025-01-19 10:34:54.23	173.61	31.59	
2025-01-19 10:34:54.43	173.62	31.63	
2025-01-19 10:34:54.64	173.64	31.67	
2025-01-19 10:34:54.84	173.65	31.71	
2025-01-19 10:34:55.04	173.67	31.75	
2025-01-19 10:34:55.25	173.68	31.79	
2025-01-19 10:34:55.45	173.70	31.83	
2025-01-19 10:34:55.65	173.71	31.87	
2025-01-19 10:34:55.86	173.73	31.91	
2025-01-19 10:34:56.06	173.74	31.95	
2025-01-19 10:34:56.26	173.76	31.99	
2025-01-19 10:34:56.46	173.77	32.03	
2025-01-19 10:34:56.67	173.78	32.07	
2025-01-19 10:34:56.87	173.80	32.11	
2025-01-19 10:34:57.07	173.81	32.16	
2025-01-19 10:34:57.28	173.83	32.20	
2025-01-19 10:34:57.48	173.84	32.24	
2025-01-19 10:34:57.68	173.86	32.28	
2025-01-19 10:34:57.89	173.87	32.32	
2025-01-19 10:34:58.09	173.89	32.36	
2025-01-19 10:34:58.29	173.90	32.40	
2025-01-19 10:34:58.50	173.92	32.45	
2025-01-19 10:34:58.70	173.93	32.49	
2025-01-19 10:34:58.90	173.95	32.53	
2025-01-19 10:34:59.11	173.96	32.57	
2025-01-19 10:34:59.31	173.98	32.61	
2025-01-19 10:34:59.51	173.99	32.65	
2025-01-19 10:34:59.71	174.01	32.69	
2025-01-19 10:34:59.92	174.02	32.74	
2025-01-19 10:35:00.12	174.04	32.78	
2025-01-19 10:35:00.32	174.05	32.82	
2025-01-19 10:35:00.53	174.07	32.86	
2025-01-19 10:35:00.73	174.09	32.91	
2025-01-19 10:35:00.93	174.10	32.95	
2025-01-19 10:35:01.14	174.12	32.99	
2025-01-19 10:35:01.34	174.13	33.03	
2025-01-19 10:35:01.54	174.15	33.07	
2025-01-19 10:35:01.75	174.16	33.12	
2025-01-19 10:35:01.95	174.18	33.16	
2025-01-19 10:35:02.15	174.19	33.20	
2025-01-19 10:35:02.35	174.21	33.24	
2025-01-19 10:35:02.56	174.23	33.29	
2025-01-19 10:35:02.76	174.24	33.33	
2025-01-19 10:35:02.96	174.26	33.37	
2025-01-19 10:35:03.17	174.27	33.42	
2025-01-19 10:35:03.37	174.29	33.46	
2025-01-19 10:35:03.57	174.31	33.50	
2025-01-19 10:35:03.78	174.32	33.55	
2025-01-19 10:35:03.98	174.34	33.59	
2025-01-19 10:35:04.18	174.35	33.63	
2025-01-19 10:35:04.39	174.37	33.67	
2025-01-19 10:35:04.59	174.39	33.72	
2025-01-19 10:35:04.79	174.40	33.76	
2025-01-19 10:35:04.99	174.42	33.80	
2025-01-19 10:35:05.20	174.43	33.85	
2025-01-19 10:35:05.40	174.45	33.89	
2025-01-19 10:35:05.60	174.47	33.93	
2025-01-19 10:35:05.81	174.48	33.98	
2025-01-19 10:35:06.01	174.50	34.02	
2025-01-19 10:35:06.21	174.52	34.06	
2025-01-19 10:35:06.42	174.53	34.11	
2025-01-19 10:35:06.62	174.55	34.15	
2025-01-19 10:35:06.82	174.57	34.20	
2025-01-19 10:35:07.03	174.58	34.24	
2025-01-19 10:35:07.23	174.60	34.28	
2025-01-19 10:35:07.43	174.62	34.33	
2025-01-19 10:35:07.63	174.63	34.37	
2025-01-19 10:35:07.84	174.65	34.42	
2025-01-19 10:35:08.04	174.67	34.46	
2025-01-19 10:35:08.24	174.68	34.50	
2025-01-19 10:35:08.45	174.70	34.55	
2025-01-19 10:35:08.65	174.72	34.59	
2025-01-19 10:35:08.85	174.73	34.64	
2025-01-19 10:35:09.06	174.75	34.68	
2025-01-19 10:35:09.26	174.77	34.73	
2025-01-19 10:35:09.46	174.79	34.77	
2025-01-19 10:35:09.67	174.80	34.82	
2025-01-19 10:35:09.87	174.82	34.86	
2025-01-19 10:35:10.07	174.84	34.91	
2025-01-19 10:35:10.27	174.85	34.95	
2025-01-19 10:35:10.48	174.87	35.00	
2025-01-19 10:35:10.68	174.89	35.04	
2025-01-19 10:35:10.88	174.91	35.09	
2025-01-19 10:35:11.09	174.93	35.13	
2025-01-19 10:35:11.29	174.94	35.18	
2025-01-19 10:35:11.49	174.96	35.22	
2025-01-19 10:35:11.70	174.98	35.27	
2025-01-19 10:35:11.90	175.00	35.31	
2025-01-19 10:35:12.10	175.01	35.36	
2025-01-19 10:35:12.31	175.03	35.40	
2025-01-19 10:35:12.51	175.05	35.45	
2025-01-19 10:35:12.71	175.07	35.49	
2025-01-19 10:35:12.91	175.08	35.54	
2025-01-19 10:35:13.12	175.10	35.59	
2025-01-19 10:35:13.32	175.12	35.63	
2025-01-19 10:35:13.52	175.14	35.68	
2025-01-19 10:35:13.73	175.16	35.72	
2025-01-19 10:35:13.93	175.18	35.77	
2025-01-19 10:35:14.13	175.19	35.82	
2025-01-19 10:35:14.34	175.21	35.86	
2025-01-19 10:35:14.54	175.23	35.91	
2025-01-19 10:35:14.74	175.25	35.95	
2025-01-19 10:35:14.95	175.27	36.00	
2025-01-19 10:35:15.15	175.29	36.05	
2025-01-19 10:35:15.35	175.30	36.09	
2025-01-19 10:35:15.55	175.32	36.14	
2025-01-19 10:35:15.76	175.34	36.19	
2025-01-19 10:35:15.96	175.36	36.23	
2025-01-19 10:35:16.16	175.38	36.28	
2025-01-19 10:35:16.37	175.40	36.33	
2025-01-19 10:35:16.57	175.42	36.37	
2025-01-19 10:35:16.77	175.44	36.42	
2025-01-19 10:35:16.98	175.46	36.47	
2025-01-19 10:35:17.18	175.47	36.51	
2025-01-19 10:35:17.38	175.49	36.56	
2025-01-19 10:35:17.59	175.51	36.61	
2025-01-19 10:35:17.79	175.53	36.66	
2025-01-19 10:35:17.99	175.55	36.70	
2025-01-19 10:35:18.19	175.57	36.75	
2025-01-19 10:35:18.40	175.59	36.80	
2025-01-19 10:35:18.60	175.61	36.85	
2025-01-19 10:35:18.80	175.63	36.89	
2025-01-19 10:35:19.01	175.65	36.94	
2025-01-19 10:35:19.21	175.67	36.99	
2025-01-19 10:35:19.41	175.69	37.04	
2025-01-19 10:35:19.62	175.71	37.08	
2025-01-19 10:35:19.82	175.73	37.13	
2025-01-19 10:35:20.02	175.75	37.18	
2025-01-19 10:35:20.23	175.77	37.23	
2025-01-19 10:35:20.43	175.79	37.28	
2025-01-19 10:35:20.63	175.81	37.32	
2025-01-19 10:35:20.83	175.83	37.37	
2025-01-19 10:35:21.04	175.85	37.42	
2025-01-19 10:35:21.24	175.87	37.47	
2025-01-19 10:35:21.44	175.89	37.52	
2025-01-19 10:35:21.65	175.91	37.57	
2025-01-19 10:35:21.85	175.93	37.61	
2025-01-19 10:35:22.05	175.95	37.66	
2025-01-19 10:35:22.26	175.97	37.71	
2025-01-19 10:35:22.46	175.99	37.76	
2025-01-19 10:35:22.66	176.01	37.81	
2025-01-19 10:35:22.87	176.03	37.86	
2025-01-19 10:35:23.07	176.05	37.91	
2025-01-19 10:35:23.27	176.07	37.96	
2025-01-19 10:35:23.47	176.09	38.00	
2025-01-19 10:35:23.68	176.11	38.05	
2025-01-19 10:35:23.88	176.13	38.10	
2025-01-19 10:35:24.08	176.15	38.15	
2025-01-19 10:35:24.29	176.18	38.20	
2025-01-19 10:35:24.49	176.20	38.25	
2025-01-19 10:35:24.69	176.22	38.30	
2025-01-19 10:35:24.90	176.24	38.35	
2025-01-19 10:35:25.10	176.26	38.40	
2025-01-19 10:35:25.30	176.28	38.45	
2025-01-19 10:35:25.51	176.30	38.50	
2025-01-19 10:35:25.71	176.32	38.55	
2025-01-19 10:35:25.91	176.35	38.60	
2025-01-19 10:35:26.11	176.37	38.65	
2025-01-19 10:35:26.32	176.39	38.70	
2025-01-19 10:35:26.52	176.41	38.75	
2025-01-19 10:35:26.72	176.43	38.80	
2025-01-19 10:35:26.93	176.45	38.85	
2025-01-19 10:35:27.13	176.48	38.90	
2025-01-19 10:35:27.33	176.50	38.95	
2025-01-19 10:35:27.54	176.52	39.00	
2025-01-19 10:35:27.74	176.54	39.05	
2025-01-19 10:35:27.94	176.56	39.10	
2025-01-19 10:35:28.15	176.59	39.15	
2025-01-19 10:35:28.35	176.61	39.20	
2025-01-19 10:35:28.55	176.63	39.25	
2025-01-19 10:35:28.75	176.65	39.30	
2025-01-19 10:35:28.96	176.68	39.36	
2025-01-19 10:35:29.16	176.70	39.41	
2025-01-19 10:35:29.36	176.72	39.46	
2025-01-19 10:35:29.57	176.74	39.51	
2025-01-19 10:35:29.77	176.77	39.56	
2025-01-19 10:35:29.97	176.79	39.61	
2025-01-19 10:35:30.18	176.81	39.66	
2025-01-19 10:35:30.38	176.84	39.72	
2025-01-19 10:35:30.58	176.86	39.77	
2025-01-19 10:35:30.79	176.88	39.82	
2025-01-19 10:35:30.99	176.91	39.87	
2025-01-19 10:35:31.19	176.93	39.92	
2025-01-19 10:35:31.39	176.95	39.97	
2025-01-19 10:35:31.60	176.98	40.03	
2025-01-19 10:35:31.80	177.00	40.08	
2025-01-19 10:35:32.00	177.02	40.13	
2025-01-19 10:35:32.21	177.05	40.18	
2025-01-19 10:35:32.41	177.07	40.23	
2025-01-19 10:35:32.61	177.09	40.28	
2025-01-19 10:35:32.82	177.12	40.34	
2025-01-19 10:35:33.02	177.14	40.39	
2025-01-19 10:35:33.22	177.16	40.44	
2025-01-19 10:35:33.43	177.19	40.50	
2025-01-19 10:35:33.63	177.21	40.55	
2025-01-19 10:35:33.83	177.24	40.60	
2025-01-19 10:35:34.03	177.26	40.65	
2025-01-19 10:35:34.24	177.29	40.71	
2025-01-19 10:35:34.44	177.31	40.76	
2025-01-19 10:35:34.64	177.33	40.81	
2025-01-19 10:35:34.85	177.36	40.87	
2025-01-19 10:35:35.05	177.38	40.92	
2025-01-19 10:35:35.25	177.41	40.97	
2025-01-19 10:35:35.46	177.43	41.03	
2025-01-19 10:35:35.66	177.46	41.08	
2025-01-19 10:35:35.86	177.48	41.13	
2025-01-19 10:35:36.07	177.51	41.19	
2025-01-19 10:35:36.27	177.53	41.24	
2025-01-19 10:35:36.47	177.56	41.29	
2025-01-19 10:35:36.67	177.58	41.34	
2025-01-19 10:35:36.88	177.61	41.40	
2025-01-19 10:35:37.08	177.64	41.45	
2025-01-19 10:35:37.28	177.66	41.51	
2025-01-19 10:35:37.49	177.69	41.56	
2025-01-19 10:35:37.69	177.71	41.61	
2025-01-19 10:35:37.89	177.74	41.67	
2025-01-19 10:35:38.10	177.77	41.72	
2025-01-19 10:35:38.30	177.79	41.78	
2025-01-19 10:35:38.50	177.82	41.83	
2025-01-19 10:35:38.71	177.84	41.89	
2025-01-19 10:35:38.91	177.87	41.94	
2025-01-19 10:35:39.11	177.90	41.99	
2025-01-19 10:35:39.31	177.92	42.05	
2025-01-19 10:35:39.52	177.95	42.10	
2025-01-19 10:35:39.72	177.98	42.16	
2025-01-19 10:35:39.92	178.00	42.21	
2025-01-19 10:35:40.13	178.03	42.27	
2025-01-19 10:35:40.33	178.06	42.32	
2025-01-19 10:35:40.53	178.08	42.38	
2025-01-19 10:35:40.74	178.11	42.44	
2025-01-19 10:35:40.94	178.14	42.49	
2025-01-19 10:35:41.14	178.16	42.54	
2025-01-19 10:35:41.35	178.19	42.60	
2025-01-19 10:35:41.55	178.22	42.66	
2025-01-19 10:35:41.75	178.25	42.71	
2025-01-19 10:35:41.95	178.27	42.77	
2025-01-19 10:35:42.16	178.30	42.82	
2025-01-19 10:35:42.36	178.33	42.88	
2025-01-19 10:35:42.56	178.36	42.93	
2025-01-19 10:35:42.77	178.39	42.99	
2025-01-19 10:35:42.97	178.41	43.05	
2025-01-19 10:35:43.17	178.44	43.10	
2025-01-19 10:35:43.38	178.47	43.16	
2025-01-19 10:35:43.58	178.50	43.21	
2025-01-19 10:35:43.78	178.53	43.27	
2025-01-19 10:35:43.99	178.56	43.33	
2025-01-19 10:35:44.19	178.58	43.38	
2025-01-19 10:35:44.39	178.61	43.44	
2025-01-19 10:35:44.59	178.64	43.49	
2025-01-19 10:35:44.80	178.67	43.55	
2025-01-19 10:35:45.00	178.70	43.61	
2025-01-19 10:35:45.20	178.73	43.67	
2025-01-19 10:35:45.41	178.76	43.72	
2025-01-19 10:35:45.61	178.79	43.78	
2025-01-19 10:35:45.81	178.82	43.84	
2025-01-19 10:35:46.02	178.85	43.90	
2025-01-19 10:35:46.22	178.88	43.95	
2025-01-19 10:35:46.42	178.90	44.01	
2025-01-19 10:35:46.63	178.94	44.07	
2025-01-19 10:35:46.83	178.97	44.12	
2025-01-19 10:35:47.03	179.00	44.18	
2025-01-19 10:35:47.23	179.02	44.24	
2025-01-19 10:35:47.44	179.06	44.30	
2025-01-19 10:35:47.64	179.09	44.35	
2025-01-19 10:35:47.84	179.12	44.41	
2025-01-19 10:35:48.05	179.15	44.47	
2025-01-19 10:35:48.25	179.18	44.53	
2025-01-19 10:35:48.45	179.21	44.58	
2025-01-19 10:35:48.66	179.24	44.65	
2025-01-19 10:35:48.86	179.27	44.70	
2025-01-19 10:35:49.06	179.30	44.76	
2025-01-19 10:35:49.27	179.33	44.82	
2025-01-19 10:35:49.47	179.36	44.88	
2025-01-19 10:35:49.67	179.40	44.94	
2025-01-19 10:35:49.87	179.43	44.99	
2025-01-19 10:35:50.08	179.46	45.05	
2025-01-19 10:35:50.28	179.49	45.11	
2025-01-19 10:35:50.48	179.52	45.17	
2025-01-19 10:35:50.69	179.56	45.23	
2025-01-19 10:35:50.89	179.59	45.29	
2025-01-19 10:35:51.09	179.62	45.35	
2025-01-19 10:35:51.30	179.65	45.41	
2025-01-19 10:35:51.50	179.68	45.47	
2025-01-19 10:35:51.70	179.72	45.52	
2025-01-19 10:35:51.91	179.75	45.59	
2025-01-19 10:35:52.11	179.78	45.64	
2025-01-19 10:35:52.31	179.82	45.70	
2025-01-19 10:35:52.51	179.85	45.76	
2025-01-19 10:35:52.72	179.88	45.82	
2025-01-19 10:35:52.92	179.92	45.88	
2025-01-19 10:35:53.12	179.95	45.94	
2025-01-19 10:35:53.33	179.98	46.00	
2025-01-19 10:35:53.53	180.02	46.06	
2025-01-19 10:35:53.73	180.05	46.12	
2025-01-19 10:35:53.94	180.09	46.18	
2025-01-19 10:35:54.14	180.12	46.24	
2025-01-19 10:35:54.34	180.15	46.30	
2025-01-19 10:35:54.55	180.19	46.36	
2025-01-19 10:35:54.75	180.22	46.42	
2025-01-19 10:35:54.95	180.26	46.48	
2025-01-19 10:35:55.15	180.29	46.54	
2025-01-19 10:35:55.36	180.33	46.61	
2025-01-19 10:35:55.56	180.36	46.67	
2025-01-19 10:35:55.76	180.40	46.73	
2025-01-19 10:35:55.97	180.43	46.79	
2025-01-19 10:35:56.17	180.47	46.85	
2025-01-19 10:35:56.37	180.50	46.91	
2025-01-19 10:35:56.58	180.54	46.97	
2025-01-19 10:35:56.78	180.57	47.03	
2025-01-19 10:35:56.98	180.61	47.09	
2025-01-19 10:35:57.19	180.65	47.16	
2025-01-19 10:35:57.39	180.68	47.22	
2025-01-19 10:35:57.59	180.72	47.28	
2025-01-19 10:35:57.79	180.75	47.34	
2025-01-19 10:35:58.00	180.79	47.40	
2025-01-19 10:35:58.20	180.83	47.46	
2025-01-19 10:35:58.40	180.87	47.52	
2025-01-19 10:35:58.61	180.90	47.59	
2025-01-19 10:35:58.81	180.94	47.65	
2025-01-19 10:35:59.01	180.98	47.71	
2025-01-19 10:35:59.22	181.02	47.77	
2025-01-19 10:35:59.42	181.05	47.83	
2025-01-19 10:35:59.62	181.09	47.90	
2025-01-19 10:35:59.83	181.13	47.96	
2025-01-19 10:36:00.03	181.17	48.02	
2025-01-19 10:36:00.23	181.21	48.08	
2025-01-19 10:36:00.43	181.24	48.15	
2025-01-19 10:36:00.64	181.28	48.21	
2025-01-19 10:36:00.84	181.32	48.27	
2025-01-19 10:36:01.04	181.36	48.33	
2025-01-19 10:36:01.25	181.40	48.40	
2025-01-19 10:36:01.45	181.44	48.46	
2025-01-19 10:36:01.65	181.48	48.52	
2025-01-19 10:36:01.86	181.52	48.59	
2025-01-19 10:36:02.06	181.56	48.65	
2025-01-19 10:36:02.26	181.60	48.71	
2025-01-19 10:36:02.47	181.64	48.78	
2025-01-19 10:36:02.67	181.68	48.84	
2025-01-19 10:36:02.87	181.72	48.90	
2025-01-19 10:36:03.07	181.76	48.97	
2025-01-19 10:36:03.28	181.80	49.03	
2025-01-19 10:36:03.48	181.84	49.09	
2025-01-19 10:36:03.68	181.88	49.16	
2025-01-19 10:36:03.89	181.92	49.22	
2025-01-19 10:36:04.09	181.96	49.29	
2025-01-19 10:36:04.29	182.00	49.35	
2025-01-19 10:36:04.50	182.05	49.42	
2025-01-19 10:36:04.70	182.09	49.48	
2025-01-19 10:36:04.90	182.13	49.54	
2025-01-19 10:36:05.11	182.17	49.61	
2025-01-19 10:36:05.31	182.22	49.67	
2025-01-19 10:36:05.51	182.26	49.74	
2025-01-19 10:36:05.71	182.30	49.80	
2025-01-19 10:36:05.92	182.34	49.87	
2025-01-19 10:36:06.12	182.39	49.93	
2025-01-19 10:36:06.32	182.43	49.99	
2025-01-19 10:36:06.53	182.47	50.06	
2025-01-19 10:36:06.73	182.52	50.13	
2025-01-19 10:36:06.93	182.56	50.19	
2025-01-19 10:36:07.14	182.61	50.26	
2025-01-19 10:36:07.34	182.65	50.32	
2025-01-19 10:36:07.54	182.69	50.38	
2025-01-19 10:36:07.75	182.74	50.45	
2025-01-19 10:36:07.95	182.78	50.52	
2025-01-19 10:36:08.15	182.83	50.58	
2025-01-19 10:36:08.35	182.87	50.65	
2025-01-19 10:36:08.56	182.92	50.71	
2025-01-19 10:36:08.76	182.96	50.78	
2025-01-19 10:36:08.96	183.01	50.84	
2025-01-19 10:36:09.17	183.06	50.91	
2025-01-19 10:36:09.37	183.10	50.98	
2025-01-19 10:36:09.57	183.15	51.04	
2025-01-19 10:36:09.78	183.19	51.11	
2025-01-19 10:36:09.98	183.24	51.17	
2025-01-19 10:36:10.18	183.29	51.24	
2025-01-19 10:36:10.39	183.34	51.31	
2025-01-19 10:36:10.59	183.38	51.37	
2025-01-19 10:36:10.79	183.43	51.44	
2025-01-19 10:36:10.99	183.48	51.50	
2025-01-19 10:36:11.20	183.53	51.57	
2025-01-19 10:36:11.40	183.57	51.64	
2025-01-19 10:36:11.60	183.62	51.71	
2025-01-19 10:36:11.81	183.67	51.77	
2025-01-19 10:36:12.01	183.72	51.84	
2025-01-19 10:36:12.21	183.77	51.91	
2025-01-19 10:36:12.42	183.82	51.98	
2025-01-19 10:36:12.62	183.87	52.04	
2025-01-19 10:36:12.82	183.92	52.11	
2025-01-19 10:36:13.03	183.97	52.18	
2025-01-19 10:36:13.23	184.02	52.24	
2025-01-19 10:36:13.43	184.07	52.31	
2025-01-19 10:36:13.63	184.12	52.38	
2025-01-19 10:36:13.84	184.17	52.45	
2025-01-19 10:36:14.04	184.22	52.51	
2025-01-19 10:36:14.24	184.27	52.58	
2025-01-19 10:36:14.45	184.32	52.65	
2025-01-19 10:36:14.65	184.37	52.72	
2025-01-19 10:36:14.85	184.42	52.78	
2025-01-19 10:36:15.06	184.48	52.85	
2025-01-19 10:36:15.26	184.53	52.92	
2025-01-19 10:36:15.46	184.58	52.99	
2025-01-19 10:36:15.67	184.64	53.06	
2025-01-19 10:36:15.87	184.69	53.12	
2025-01-19 10:36:16.07	184.74	53.19	
2025-01-19 10:36:16.27	184.79	53.26	
2025-01-19 10:36:16.48	184.85	53.33	
2025-01-19 10:36:16.68	184.90	53.40	
2025-01-19 10:36:16.88	184.96	53.47	
2025-01-19 10:36:17.09	185.01	53.54	
2025-01-19 10:36:17.29	185.07	53.60	
2025-01-19 10:36:17.49	185.12	53.67	
2025-01-19 10:36:17.70	185.18	53.74	
2025-01-19 10:36:17.90	185.23	53.81	
2025-01-19 10:36:18.10	185.29	53.88	
2025-01-19 10:36:18.31	185.35	53.95	
2025-01-19 10:36:18.51	185.40	54.02	
2025-01-19 10:36:18.71	185.46	54.09	
2025-01-19 10:36:18.91	185.52	54.15	
2025-01-19 10:36:19.12	185.57	54.23	
2025-01-19 10:36:19.32	185.63	54.29	
2025-01-19 10:36:19.52	185.69	54.36	
2025-01-19 10:36:19.73	185.75	54.43	
2025-01-19 10:36:19.93	185.81	54.50	
2025-01-19 10:36:20.13	185.86	54.57	
