passes_logs/2025/01/19/SPB_Silybum_02/SPB_Silybum_02__20250119_183615_TERRA_rec.log

#Pass ID: 20250119_183615_TERRA
#Satellite: TERRA
#Configuration: TERRA
#Start time: 2025-01-19 18:36:16

#Version: 2.0.20230423
#Station: SPB_Silybum_02
#Location: 30.233357 lon 59.946436 lat
#TLE: 1 25994U 99068A   25018.76132064  .00000971  00000+0  20987-3 0  9991
#TLE: 2 25994  98.0209  81.6719 0003338  64.8500  46.9329 14.60403262334620

#Time	Az	El	Level	Level2	SNR	BER	Gain	Gain2
2025-01-19 18:36:18.84	164.05	4.22	
2025-01-19 18:36:19.04	164.05	4.24	
2025-01-19 18:36:19.24	164.05	4.25	
2025-01-19 18:36:19.44	164.05	4.27	
2025-01-19 18:36:19.65	164.06	4.28	
2025-01-19 18:36:19.85	164.06	4.30	
2025-01-19 18:36:20.05	164.06	4.31	
2025-01-19 18:36:20.26	164.06	4.33	
2025-01-19 18:36:20.46	164.06	4.34	
2025-01-19 18:36:20.66	164.07	4.36	
2025-01-19 18:36:20.87	164.07	4.37	
2025-01-19 18:36:21.07	164.07	4.39	
2025-01-19 18:36:21.27	164.07	4.40	
2025-01-19 18:36:21.47	164.07	4.42	
2025-01-19 18:36:21.68	164.07	4.43	
2025-01-19 18:36:21.88	164.08	4.45	
2025-01-19 18:36:22.08	164.08	4.46	
2025-01-19 18:36:22.29	164.08	4.48	
2025-01-19 18:36:22.49	164.08	4.49	
2025-01-19 18:36:22.69	164.08	4.50	
2025-01-19 18:36:22.89	164.09	4.52	
2025-01-19 18:36:23.10	164.09	4.53	
2025-01-19 18:36:23.30	164.09	4.55	
2025-01-19 18:36:23.50	164.09	4.56	
2025-01-19 18:36:23.71	164.09	4.58	
2025-01-19 18:36:23.91	164.10	4.59	
2025-01-19 18:36:24.11	164.10	4.61	
2025-01-19 18:36:24.32	164.10	4.62	
2025-01-19 18:36:24.52	164.10	4.64	
2025-01-19 18:36:24.72	164.10	4.65	
2025-01-19 18:36:24.92	164.10	4.67	
2025-01-19 18:36:25.13	164.11	4.68	
2025-01-19 18:36:25.33	164.11	4.70	
2025-01-19 18:36:25.53	164.11	4.71	
2025-01-19 18:36:25.74	164.11	4.73	
2025-01-19 18:36:25.94	164.11	4.74	
2025-01-19 18:36:26.14	164.12	4.76	
2025-01-19 18:36:26.35	164.12	4.78	
2025-01-19 18:36:26.55	164.12	4.79	
2025-01-19 18:36:26.75	164.12	4.81	
2025-01-19 18:36:26.95	164.12	4.82	
2025-01-19 18:36:27.16	164.13	4.84	
2025-01-19 18:36:27.36	164.13	4.85	
2025-01-19 18:36:27.56	164.13	4.87	
2025-01-19 18:36:27.77	164.13	4.88	
2025-01-19 18:36:27.97	164.13	4.90	
2025-01-19 18:36:28.17	164.13	4.91	
2025-01-19 18:36:28.37	164.14	4.93	
2025-01-19 18:36:28.58	164.14	4.94	
2025-01-19 18:36:28.78	164.14	4.96	
2025-01-19 18:36:28.98	164.14	4.97	
2025-01-19 18:36:29.19	164.14	4.99	
2025-01-19 18:36:29.39	164.15	5.00	
2025-01-19 18:36:29.59	164.15	5.02	
2025-01-19 18:36:29.80	164.15	5.03	
2025-01-19 18:36:30.00	164.15	5.05	
2025-01-19 18:36:30.20	164.15	5.06	
2025-01-19 18:36:30.40	164.16	5.08	
2025-01-19 18:36:30.61	164.16	5.09	
2025-01-19 18:36:30.81	164.16	5.11	
2025-01-19 18:36:31.01	164.16	5.12	
2025-01-19 18:36:31.22	164.16	5.14	
2025-01-19 18:36:31.42	164.17	5.16	
2025-01-19 18:36:31.62	164.17	5.17	
2025-01-19 18:36:31.82	164.17	5.19	
2025-01-19 18:36:32.03	164.17	5.20	
2025-01-19 18:36:32.23	164.17	5.22	
2025-01-19 18:36:32.43	164.17	5.23	
2025-01-19 18:36:32.64	164.18	5.25	
2025-01-19 18:36:32.84	164.18	5.26	
2025-01-19 18:36:33.04	164.18	5.28	
2025-01-19 18:36:33.25	164.18	5.29	
2025-01-19 18:36:33.45	164.18	5.31	
2025-01-19 18:36:33.65	164.19	5.32	
2025-01-19 18:36:33.85	164.19	5.34	
2025-01-19 18:36:34.06	164.19	5.36	
2025-01-19 18:36:34.26	164.19	5.37	
2025-01-19 18:36:34.46	164.19	5.39	
2025-01-19 18:36:34.67	164.20	5.40	
2025-01-19 18:36:34.87	164.20	5.42	
2025-01-19 18:36:35.07	164.20	5.43	
2025-01-19 18:36:35.28	164.20	5.45	
2025-01-19 18:36:35.48	164.20	5.46	
2025-01-19 18:36:35.68	164.21	5.48	
2025-01-19 18:36:35.88	164.21	5.49	
2025-01-19 18:36:36.09	164.21	5.51	
2025-01-19 18:36:36.29	164.21	5.53	
2025-01-19 18:36:36.49	164.21	5.54	
2025-01-19 18:36:36.70	164.22	5.56	
2025-01-19 18:36:36.90	164.22	5.57	
2025-01-19 18:36:37.10	164.22	5.59	
2025-01-19 18:36:37.30	164.22	5.60	
2025-01-19 18:36:37.51	164.22	5.62	
2025-01-19 18:36:37.71	164.23	5.64	
2025-01-19 18:36:37.91	164.23	5.65	
2025-01-19 18:36:38.12	164.23	5.67	
2025-01-19 18:36:38.32	164.23	5.68	
2025-01-19 18:36:38.52	164.23	5.70	
2025-01-19 18:36:38.73	164.23	5.71	
2025-01-19 18:36:38.93	164.24	5.73	
2025-01-19 18:36:39.13	164.24	5.75	
2025-01-19 18:36:39.33	164.24	5.76	
2025-01-19 18:36:39.54	164.24	5.78	
2025-01-19 18:36:39.74	164.24	5.79	
2025-01-19 18:36:39.94	164.25	5.81	
2025-01-19 18:36:40.15	164.25	5.82	
2025-01-19 18:36:40.35	164.25	5.84	
2025-01-19 18:36:40.55	164.25	5.86	
2025-01-19 18:36:40.75	164.25	5.87	
2025-01-19 18:36:40.96	164.26	5.89	
2025-01-19 18:36:41.16	164.26	5.90	
2025-01-19 18:36:41.36	164.26	5.92	
2025-01-19 18:36:41.57	164.26	5.94	
2025-01-19 18:36:41.77	164.26	5.95	
2025-01-19 18:36:41.97	164.27	5.97	
2025-01-19 18:36:42.18	164.27	5.98	
2025-01-19 18:36:42.38	164.27	6.00	
2025-01-19 18:36:42.58	164.27	6.01	
2025-01-19 18:36:42.78	164.27	6.03	
2025-01-19 18:36:42.99	164.28	6.05	
2025-01-19 18:36:43.19	164.28	6.06	
2025-01-19 18:36:43.39	164.28	6.08	
2025-01-19 18:36:43.60	164.28	6.09	
2025-01-19 18:36:43.80	164.28	6.11	
2025-01-19 18:36:44.00	164.29	6.13	
2025-01-19 18:36:44.20	164.29	6.14	
2025-01-19 18:36:44.41	164.29	6.16	
2025-01-19 18:36:44.61	164.29	6.17	
2025-01-19 18:36:44.81	164.29	6.19	
2025-01-19 18:36:45.02	164.30	6.21	
2025-01-19 18:36:45.22	164.30	6.22	
2025-01-19 18:36:45.42	164.30	6.24	
2025-01-19 18:36:45.63	164.30	6.25	
2025-01-19 18:36:45.83	164.30	6.27	
2025-01-19 18:36:46.03	164.31	6.29	
2025-01-19 18:36:46.23	164.31	6.30	
2025-01-19 18:36:46.44	164.31	6.32	
2025-01-19 18:36:46.64	164.31	6.33	
2025-01-19 18:36:46.84	164.31	6.35	
2025-01-19 18:36:47.05	164.32	6.37	
2025-01-19 18:36:47.25	164.32	6.38	
2025-01-19 18:36:47.45	164.32	6.40	
2025-01-19 18:36:47.65	164.32	6.42	
2025-01-19 18:36:47.86	164.33	6.43	
2025-01-19 18:36:48.06	164.33	6.45	
2025-01-19 18:36:48.26	164.33	6.46	
2025-01-19 18:36:48.47	164.33	6.48	
2025-01-19 18:36:48.67	164.33	6.50	
2025-01-19 18:36:48.87	164.34	6.51	
2025-01-19 18:36:49.08	164.34	6.53	
2025-01-19 18:36:49.28	164.34	6.55	
2025-01-19 18:36:49.48	164.34	6.56	
2025-01-19 18:36:49.68	164.34	6.58	
2025-01-19 18:36:49.89	164.35	6.59	
2025-01-19 18:36:50.09	164.35	6.61	
2025-01-19 18:36:50.29	164.35	6.63	
2025-01-19 18:36:50.50	164.35	6.64	
2025-01-19 18:36:50.70	164.35	6.66	
2025-01-19 18:36:50.90	164.36	6.68	
2025-01-19 18:36:51.11	164.36	6.69	
2025-01-19 18:36:51.31	164.36	6.71	
2025-01-19 18:36:51.51	164.36	6.73	
2025-01-19 18:36:51.71	164.36	6.74	
2025-01-19 18:36:51.92	164.37	6.76	
2025-01-19 18:36:52.12	164.37	6.77	
2025-01-19 18:36:52.32	164.37	6.79	
2025-01-19 18:36:52.53	164.37	6.81	
2025-01-19 18:36:52.73	164.37	6.82	
2025-01-19 18:36:52.93	164.38	6.84	
2025-01-19 18:36:53.13	164.38	6.86	
2025-01-19 18:36:53.34	164.38	6.87	
2025-01-19 18:36:53.54	164.38	6.89	
2025-01-19 18:36:53.74	164.39	6.91	
2025-01-19 18:36:53.95	164.39	6.92	
2025-01-19 18:36:54.15	164.39	6.94	
2025-01-19 18:36:54.35	164.39	6.96	
2025-01-19 18:36:54.56	164.39	6.97	
2025-01-19 18:36:54.76	164.40	6.99	
2025-01-19 18:36:54.96	164.40	7.01	
2025-01-19 18:36:55.16	164.40	7.02	
2025-01-19 18:36:55.37	164.40	7.04	
2025-01-19 18:36:55.57	164.40	7.06	
2025-01-19 18:36:55.77	164.41	7.07	
2025-01-19 18:36:55.98	164.41	7.09	
2025-01-19 18:36:56.18	164.41	7.11	
2025-01-19 18:36:56.38	164.41	7.12	
2025-01-19 18:36:56.58	164.41	7.14	
2025-01-19 18:36:56.79	164.42	7.16	
2025-01-19 18:36:56.99	164.42	7.17	
2025-01-19 18:36:57.19	164.42	7.19	
2025-01-19 18:36:57.40	164.42	7.21	
2025-01-19 18:36:57.60	164.43	7.22	
2025-01-19 18:36:57.80	164.43	7.24	
2025-01-19 18:36:58.01	164.43	7.26	
2025-01-19 18:36:58.21	164.43	7.27	
2025-01-19 18:36:58.41	164.43	7.29	
2025-01-19 18:36:58.61	164.44	7.31	
2025-01-19 18:36:58.82	164.44	7.32	
2025-01-19 18:36:59.02	164.44	7.34	
2025-01-19 18:36:59.22	164.44	7.36	
2025-01-19 18:36:59.43	164.44	7.37	
2025-01-19 18:36:59.63	164.45	7.39	
2025-01-19 18:36:59.83	164.45	7.41	
2025-01-19 18:37:00.04	164.45	7.42	
2025-01-19 18:37:00.24	164.45	7.44	
2025-01-19 18:37:00.44	164.46	7.46	
2025-01-19 18:37:00.64	164.46	7.47	
2025-01-19 18:37:00.85	164.46	7.49	
2025-01-19 18:37:01.05	164.46	7.51	
2025-01-19 18:37:01.25	164.46	7.53	
2025-01-19 18:37:01.46	164.47	7.54	
2025-01-19 18:37:01.66	164.47	7.56	
2025-01-19 18:37:01.86	164.47	7.58	
2025-01-19 18:37:02.06	164.47	7.59	
2025-01-19 18:37:02.27	164.48	7.61	
2025-01-19 18:37:02.47	164.48	7.63	
2025-01-19 18:37:02.67	164.48	7.65	
2025-01-19 18:37:02.88	164.48	7.66	
2025-01-19 18:37:03.08	164.48	7.68	
2025-01-19 18:37:03.28	164.49	7.70	
2025-01-19 18:37:03.49	164.49	7.71	
2025-01-19 18:37:03.69	164.49	7.73	
2025-01-19 18:37:03.89	164.49	7.75	
2025-01-19 18:37:04.09	164.49	7.76	
2025-01-19 18:37:04.30	164.50	7.78	
2025-01-19 18:37:04.50	164.50	7.80	
2025-01-19 18:37:04.70	164.50	7.82	
2025-01-19 18:37:04.91	164.50	7.83	
2025-01-19 18:37:05.11	164.51	7.85	
2025-01-19 18:37:05.31	164.51	7.87	
2025-01-19 18:37:05.51	164.51	7.89	
2025-01-19 18:37:05.72	164.51	7.90	
2025-01-19 18:37:05.92	164.51	7.92	
2025-01-19 18:37:06.12	164.52	7.94	
2025-01-19 18:37:06.33	164.52	7.96	
2025-01-19 18:37:06.53	164.52	7.97	
2025-01-19 18:37:06.73	164.52	7.99	
2025-01-19 18:37:06.94	164.53	8.01	
2025-01-19 18:37:07.14	164.53	8.02	
2025-01-19 18:37:07.34	164.53	8.04	
2025-01-19 18:37:07.54	164.53	8.06	
2025-01-19 18:37:07.75	164.53	8.08	
2025-01-19 18:37:07.95	164.54	8.09	
2025-01-19 18:37:08.15	164.54	8.11	
2025-01-19 18:37:08.36	164.54	8.13	
2025-01-19 18:37:08.56	164.54	8.15	
2025-01-19 18:37:08.76	164.55	8.16	
2025-01-19 18:37:08.96	164.55	8.18	
2025-01-19 18:37:09.17	164.55	8.20	
2025-01-19 18:37:09.37	164.55	8.22	
2025-01-19 18:37:09.57	164.55	8.23	
2025-01-19 18:37:09.78	164.56	8.25	
2025-01-19 18:37:09.98	164.56	8.27	
2025-01-19 18:37:10.18	164.56	8.29	
2025-01-19 18:37:10.39	164.56	8.30	
2025-01-19 18:37:10.59	164.57	8.32	
2025-01-19 18:37:10.79	164.57	8.34	
2025-01-19 18:37:10.99	164.57	8.36	
2025-01-19 18:37:11.20	164.57	8.37	
2025-01-19 18:37:11.40	164.58	8.39	
2025-01-19 18:37:11.60	164.58	8.41	
2025-01-19 18:37:11.81	164.58	8.43	
2025-01-19 18:37:12.01	164.58	8.44	
2025-01-19 18:37:12.21	164.58	8.46	
2025-01-19 18:37:12.41	164.59	8.48	
2025-01-19 18:37:12.62	164.59	8.50	
2025-01-19 18:37:12.82	164.59	8.52	
2025-01-19 18:37:13.02	164.59	8.53	
2025-01-19 18:37:13.23	164.60	8.55	
2025-01-19 18:37:13.43	164.60	8.57	
2025-01-19 18:37:13.63	164.60	8.59	
2025-01-19 18:37:13.84	164.60	8.60	
2025-01-19 18:37:14.04	164.60	8.62	
2025-01-19 18:37:14.24	164.61	8.64	
2025-01-19 18:37:14.44	164.61	8.66	
2025-01-19 18:37:14.65	164.61	8.68	
2025-01-19 18:37:14.85	164.61	8.69	
2025-01-19 18:37:15.05	164.62	8.71	
2025-01-19 18:37:15.26	164.62	8.73	
2025-01-19 18:37:15.46	164.62	8.75	
2025-01-19 18:37:15.66	164.62	8.76	
2025-01-19 18:37:15.87	164.63	8.78	
2025-01-19 18:37:16.07	164.63	8.80	
2025-01-19 18:37:16.27	164.63	8.82	
2025-01-19 18:37:16.47	164.63	8.84	
2025-01-19 18:37:16.68	164.64	8.86	
2025-01-19 18:37:16.88	164.64	8.87	
2025-01-19 18:37:17.08	164.64	8.89	
2025-01-19 18:37:17.29	164.64	8.91	
2025-01-19 18:37:17.49	164.64	8.93	
2025-01-19 18:37:17.69	164.65	8.95	
2025-01-19 18:37:17.89	164.65	8.96	
2025-01-19 18:37:18.10	164.65	8.98	
2025-01-19 18:37:18.30	164.65	9.00	
2025-01-19 18:37:18.50	164.66	9.02	
2025-01-19 18:37:18.71	164.66	9.04	
2025-01-19 18:37:18.91	164.66	9.05	
2025-01-19 18:37:19.11	164.66	9.07	
2025-01-19 18:37:19.32	164.67	9.09	
2025-01-19 18:37:19.52	164.67	9.11	
2025-01-19 18:37:19.74	164.67	9.13	
2025-01-19 18:37:19.94	164.67	9.15	
2025-01-19 18:37:20.14	164.68	9.16	
2025-01-19 18:37:20.35	164.68	9.18	
2025-01-19 18:37:20.55	164.68	9.20	
2025-01-19 18:37:20.75	164.68	9.22	
2025-01-19 18:37:20.95	164.68	9.24	
2025-01-19 18:37:21.16	164.69	9.26	
2025-01-19 18:37:21.36	164.69	9.27	
2025-01-19 18:37:21.56	164.69	9.29	
2025-01-19 18:37:21.77	164.69	9.31	
2025-01-19 18:37:21.97	164.70	9.33	
2025-01-19 18:37:22.17	164.70	9.35	
2025-01-19 18:37:22.38	164.70	9.37	
2025-01-19 18:37:22.58	164.70	9.39	
2025-01-19 18:37:22.78	164.71	9.40	
2025-01-19 18:37:22.98	164.71	9.42	
2025-01-19 18:37:23.19	164.71	9.44	
2025-01-19 18:37:23.39	164.71	9.46	
2025-01-19 18:37:23.59	164.72	9.48	
2025-01-19 18:37:23.80	164.72	9.50	
2025-01-19 18:37:24.00	164.72	9.51	
2025-01-19 18:37:24.20	164.72	9.53	
2025-01-19 18:37:24.40	164.73	9.55	
2025-01-19 18:37:24.61	164.73	9.57	
2025-01-19 18:37:24.81	164.73	9.59	
2025-01-19 18:37:25.01	164.73	9.61	
2025-01-19 18:37:25.22	164.74	9.63	
2025-01-19 18:37:25.42	164.74	9.64	
2025-01-19 18:37:25.62	164.74	9.66	
2025-01-19 18:37:25.83	164.74	9.68	
2025-01-19 18:37:26.03	164.74	9.70	
2025-01-19 18:37:26.23	164.75	9.72	
2025-01-19 18:37:26.43	164.75	9.74	
2025-01-19 18:37:26.64	164.75	9.76	
2025-01-19 18:37:26.84	164.75	9.78	
2025-01-19 18:37:27.04	164.76	9.79	
2025-01-19 18:37:27.25	164.76	9.81	
2025-01-19 18:37:27.45	164.76	9.83	
2025-01-19 18:37:27.65	164.76	9.85	
2025-01-19 18:37:27.86	164.77	9.87	
2025-01-19 18:37:28.06	164.77	9.89	
2025-01-19 18:37:28.26	164.77	9.91	
2025-01-19 18:37:28.46	164.77	9.93	
2025-01-19 18:37:28.67	164.78	9.95	
2025-01-19 18:37:28.87	164.78	9.96	
2025-01-19 18:37:29.07	164.78	9.98	
2025-01-19 18:37:29.28	164.78	10.00	
2025-01-19 18:37:29.48	164.79	10.02	
2025-01-19 18:37:29.68	164.79	10.04	
2025-01-19 18:37:29.88	164.79	10.06	
2025-01-19 18:37:30.09	164.79	10.08	
2025-01-19 18:37:30.29	164.80	10.10	
2025-01-19 18:37:30.49	164.80	10.12	
2025-01-19 18:37:30.70	164.80	10.14	
2025-01-19 18:37:30.90	164.80	10.15	
2025-01-19 18:37:31.10	164.81	10.17	
2025-01-19 18:37:31.31	164.81	10.19	
2025-01-19 18:37:31.51	164.81	10.21	
2025-01-19 18:37:31.71	164.81	10.23	
2025-01-19 18:37:31.91	164.82	10.25	
2025-01-19 18:37:32.12	164.82	10.27	
2025-01-19 18:37:32.32	164.82	10.29	
2025-01-19 18:37:32.52	164.82	10.31	
2025-01-19 18:37:32.73	164.83	10.33	
2025-01-19 18:37:32.93	164.83	10.35	
2025-01-19 18:37:33.13	164.83	10.36	
2025-01-19 18:37:33.33	164.83	10.38	
2025-01-19 18:37:33.54	164.84	10.40	
2025-01-19 18:37:33.74	164.84	10.42	
2025-01-19 18:37:33.94	164.84	10.44	
2025-01-19 18:37:34.15	164.84	10.46	
2025-01-19 18:37:34.35	164.85	10.48	
2025-01-19 18:37:34.55	164.85	10.50	
2025-01-19 18:37:34.76	164.85	10.52	
2025-01-19 18:37:34.96	164.85	10.54	
2025-01-19 18:37:35.16	164.86	10.56	
2025-01-19 18:37:35.36	164.86	10.58	
2025-01-19 18:37:35.57	164.86	10.60	
2025-01-19 18:37:35.77	164.87	10.62	
2025-01-19 18:37:35.97	164.87	10.64	
2025-01-19 18:37:36.18	164.87	10.66	
2025-01-19 18:37:36.38	164.87	10.68	
2025-01-19 18:37:36.58	164.88	10.69	
2025-01-19 18:37:36.78	164.88	10.71	
2025-01-19 18:37:36.99	164.88	10.73	
2025-01-19 18:37:37.19	164.88	10.75	
2025-01-19 18:37:37.39	164.89	10.77	
2025-01-19 18:37:37.60	164.89	10.79	
2025-01-19 18:37:37.80	164.89	10.81	
2025-01-19 18:37:38.00	164.89	10.83	
2025-01-19 18:37:38.21	164.90	10.85	
2025-01-19 18:37:38.41	164.90	10.87	
2025-01-19 18:37:38.61	164.90	10.89	
2025-01-19 18:37:38.81	164.90	10.91	
2025-01-19 18:37:39.02	164.91	10.93	
2025-01-19 18:37:39.22	164.91	10.95	
2025-01-19 18:37:39.42	164.91	10.97	
2025-01-19 18:37:39.63	164.91	10.99	
2025-01-19 18:37:39.83	164.92	11.01	
2025-01-19 18:37:40.03	164.92	11.03	
2025-01-19 18:37:40.24	164.92	11.05	
2025-01-19 18:37:40.44	164.92	11.07	
2025-01-19 18:37:40.64	164.93	11.09	
2025-01-19 18:37:40.84	164.93	11.11	
2025-01-19 18:37:41.05	164.93	11.13	
2025-01-19 18:37:41.25	164.94	11.15	
2025-01-19 18:37:41.45	164.94	11.17	
2025-01-19 18:37:41.66	164.94	11.19	
2025-01-19 18:37:41.86	164.94	11.21	
2025-01-19 18:37:42.06	164.95	11.23	
2025-01-19 18:37:42.26	164.95	11.25	
2025-01-19 18:37:42.47	164.95	11.27	
2025-01-19 18:37:42.67	164.95	11.29	
2025-01-19 18:37:42.87	164.96	11.31	
2025-01-19 18:37:43.08	164.96	11.33	
2025-01-19 18:37:43.28	164.96	11.35	
2025-01-19 18:37:43.48	164.96	11.37	
2025-01-19 18:37:43.69	164.97	11.39	
2025-01-19 18:37:43.89	164.97	11.41	
2025-01-19 18:37:44.09	164.97	11.43	
2025-01-19 18:37:44.29	164.98	11.45	
2025-01-19 18:37:44.50	164.98	11.47	
2025-01-19 18:37:44.70	164.98	11.49	
2025-01-19 18:37:44.90	164.98	11.51	
2025-01-19 18:37:45.11	164.99	11.53	
2025-01-19 18:37:45.31	164.99	11.55	
2025-01-19 18:37:45.51	164.99	11.57	
2025-01-19 18:37:45.71	164.99	11.59	
2025-01-19 18:37:45.92	165.00	11.61	
2025-01-19 18:37:46.12	165.00	11.63	
2025-01-19 18:37:46.32	165.00	11.65	
2025-01-19 18:37:46.53	165.01	11.68	
2025-01-19 18:37:46.73	165.01	11.70	
2025-01-19 18:37:46.93	165.01	11.72	
2025-01-19 18:37:47.14	165.01	11.74	
2025-01-19 18:37:47.34	165.02	11.76	
2025-01-19 18:37:47.54	165.02	11.78	
2025-01-19 18:37:47.74	165.02	11.80	
2025-01-19 18:37:47.95	165.02	11.82	
2025-01-19 18:37:48.15	165.03	11.84	
2025-01-19 18:37:48.35	165.03	11.86	
2025-01-19 18:37:48.56	165.03	11.88	
2025-01-19 18:37:48.76	165.04	11.90	
2025-01-19 18:37:48.96	165.04	11.92	
2025-01-19 18:37:49.16	165.04	11.94	
2025-01-19 18:37:49.37	165.04	11.96	
2025-01-19 18:37:49.57	165.05	11.98	
2025-01-19 18:37:49.77	165.05	12.00	
2025-01-19 18:37:49.98	165.05	12.03	
2025-01-19 18:37:50.18	165.05	12.05	
2025-01-19 18:37:50.38	165.06	12.07	
2025-01-19 18:37:50.59	165.06	12.09	
2025-01-19 18:37:50.79	165.06	12.11	
2025-01-19 18:37:50.99	165.07	12.13	
2025-01-19 18:37:51.19	165.07	12.15	
2025-01-19 18:37:51.40	165.07	12.17	
2025-01-19 18:37:51.60	165.07	12.19	
2025-01-19 18:37:51.80	165.08	12.21	
2025-01-19 18:37:52.01	165.08	12.23	
2025-01-19 18:37:52.21	165.08	12.25	
2025-01-19 18:37:52.41	165.09	12.28	
2025-01-19 18:37:52.61	165.09	12.30	
2025-01-19 18:37:52.82	165.09	12.32	
2025-01-19 18:37:53.02	165.09	12.34	
2025-01-19 18:37:53.22	165.10	12.36	
2025-01-19 18:37:53.43	165.10	12.38	
2025-01-19 18:37:53.63	165.10	12.40	
2025-01-19 18:37:53.83	165.11	12.42	
2025-01-19 18:37:54.04	165.11	12.44	
2025-01-19 18:37:54.24	165.11	12.47	
2025-01-19 18:37:54.44	165.11	12.49	
2025-01-19 18:37:54.64	165.12	12.51	
2025-01-19 18:37:54.85	165.12	12.53	
2025-01-19 18:37:55.05	165.12	12.55	
2025-01-19 18:37:55.25	165.13	12.57	
2025-01-19 18:37:55.46	165.13	12.59	
2025-01-19 18:37:55.66	165.13	12.61	
2025-01-19 18:37:55.86	165.13	12.64	
2025-01-19 18:37:56.07	165.14	12.66	
2025-01-19 18:37:56.27	165.14	12.68	
2025-01-19 18:37:56.47	165.14	12.70	
2025-01-19 18:37:56.67	165.15	12.72	
2025-01-19 18:37:56.88	165.15	12.74	
2025-01-19 18:37:57.08	165.15	12.76	
2025-01-19 18:37:57.28	165.15	12.79	
2025-01-19 18:37:57.49	165.16	12.81	
2025-01-19 18:37:57.69	165.16	12.83	
2025-01-19 18:37:57.89	165.16	12.85	
2025-01-19 18:37:58.09	165.17	12.87	
2025-01-19 18:37:58.30	165.17	12.89	
2025-01-19 18:37:58.50	165.17	12.92	
2025-01-19 18:37:58.70	165.17	12.94	
2025-01-19 18:37:58.91	165.18	12.96	
2025-01-19 18:37:59.11	165.18	12.98	
2025-01-19 18:37:59.31	165.18	13.00	
2025-01-19 18:37:59.52	165.19	13.02	
2025-01-19 18:37:59.72	165.19	13.05	
2025-01-19 18:37:59.92	165.19	13.07	
2025-01-19 18:38:00.12	165.20	13.09	
2025-01-19 18:38:00.33	165.20	13.11	
2025-01-19 18:38:00.53	165.20	13.13	
2025-01-19 18:38:00.73	165.20	13.15	
2025-01-19 18:38:00.94	165.21	13.18	
2025-01-19 18:38:01.14	165.21	13.20	
2025-01-19 18:38:01.34	165.21	13.22	
2025-01-19 18:38:01.54	165.22	13.24	
2025-01-19 18:38:01.75	165.22	13.26	
2025-01-19 18:38:01.95	165.22	13.29	
2025-01-19 18:38:02.15	165.23	13.31	
2025-01-19 18:38:02.36	165.23	13.33	
2025-01-19 18:38:02.56	165.23	13.35	
2025-01-19 18:38:02.76	165.23	13.37	
2025-01-19 18:38:02.97	165.24	13.40	
2025-01-19 18:38:03.17	165.24	13.42	
2025-01-19 18:38:03.37	165.24	13.44	
2025-01-19 18:38:03.57	165.25	13.46	
2025-01-19 18:38:03.78	165.25	13.49	
2025-01-19 18:38:03.98	165.25	13.51	
2025-01-19 18:38:04.18	165.26	13.53	
2025-01-19 18:38:04.39	165.26	13.55	
2025-01-19 18:38:04.59	165.26	13.57	
2025-01-19 18:38:04.79	165.26	13.60	
2025-01-19 18:38:04.99	165.27	13.62	
2025-01-19 18:38:05.20	165.27	13.64	
2025-01-19 18:38:05.40	165.27	13.66	
2025-01-19 18:38:05.60	165.28	13.69	
2025-01-19 18:38:05.81	165.28	13.71	
2025-01-19 18:38:06.01	165.28	13.73	
2025-01-19 18:38:06.21	165.29	13.75	
2025-01-19 18:38:06.42	165.29	13.78	
2025-01-19 18:38:06.62	165.29	13.80	
2025-01-19 18:38:06.82	165.29	13.82	
2025-01-19 18:38:07.02	165.30	13.84	
2025-01-19 18:38:07.23	165.30	13.87	
2025-01-19 18:38:07.43	165.30	13.89	
2025-01-19 18:38:07.63	165.31	13.91	
2025-01-19 18:38:07.84	165.31	13.93	
2025-01-19 18:38:08.04	165.31	13.96	
2025-01-19 18:38:08.24	165.32	13.98	
2025-01-19 18:38:08.45	165.32	14.00	
2025-01-19 18:38:08.65	165.32	14.02	
2025-01-19 18:38:08.85	165.33	14.05	
2025-01-19 18:38:09.05	165.33	14.07	
2025-01-19 18:38:09.26	165.33	14.09	
2025-01-19 18:38:09.46	165.34	14.12	
2025-01-19 18:38:09.66	165.34	14.14	
2025-01-19 18:38:09.87	165.34	14.16	
2025-01-19 18:38:10.07	165.34	14.18	
2025-01-19 18:38:10.27	165.35	14.21	
2025-01-19 18:38:10.47	165.35	14.23	
2025-01-19 18:38:10.68	165.35	14.25	
2025-01-19 18:38:10.88	165.36	14.28	
2025-01-19 18:38:11.08	165.36	14.30	
2025-01-19 18:38:11.29	165.36	14.32	
2025-01-19 18:38:11.49	165.37	14.35	
2025-01-19 18:38:11.69	165.37	14.37	
2025-01-19 18:38:11.90	165.37	14.39	
2025-01-19 18:38:12.10	165.38	14.41	
2025-01-19 18:38:12.30	165.38	14.44	
2025-01-19 18:38:12.50	165.38	14.46	
2025-01-19 18:38:12.71	165.39	14.48	
2025-01-19 18:38:12.91	165.39	14.51	
2025-01-19 18:38:13.11	165.39	14.53	
2025-01-19 18:38:13.32	165.40	14.55	
2025-01-19 18:38:13.52	165.40	14.58	
2025-01-19 18:38:13.72	165.40	14.60	
2025-01-19 18:38:13.92	165.40	14.62	
2025-01-19 18:38:14.13	165.41	14.65	
2025-01-19 18:38:14.33	165.41	14.67	
2025-01-19 18:38:14.53	165.41	14.69	
2025-01-19 18:38:14.74	165.42	14.72	
2025-01-19 18:38:14.94	165.42	14.74	
2025-01-19 18:38:15.14	165.42	14.76	
2025-01-19 18:38:15.35	165.43	14.79	
2025-01-19 18:38:15.55	165.43	14.81	
2025-01-19 18:38:15.75	165.43	14.83	
2025-01-19 18:38:15.95	165.44	14.86	
2025-01-19 18:38:16.16	165.44	14.88	
2025-01-19 18:38:16.36	165.44	14.91	
2025-01-19 18:38:16.56	165.45	14.93	
2025-01-19 18:38:16.77	165.45	14.95	
2025-01-19 18:38:16.97	165.45	14.98	
2025-01-19 18:38:17.17	165.46	15.00	
2025-01-19 18:38:17.38	165.46	15.03	
2025-01-19 18:38:17.58	165.46	15.05	
2025-01-19 18:38:17.78	165.47	15.07	
2025-01-19 18:38:17.98	165.47	15.10	
2025-01-19 18:38:18.19	165.47	15.12	
2025-01-19 18:38:18.39	165.48	15.14	
2025-01-19 18:38:18.59	165.48	15.17	
2025-01-19 18:38:18.80	165.48	15.19	
2025-01-19 18:38:19.00	165.49	15.22	
2025-01-19 18:38:19.20	165.49	15.24	
2025-01-19 18:38:19.40	165.49	15.26	
2025-01-19 18:38:19.61	165.50	15.29	
2025-01-19 18:38:19.81	165.50	15.31	
2025-01-19 18:38:20.01	165.50	15.34	
2025-01-19 18:38:20.22	165.51	15.36	
2025-01-19 18:38:20.42	165.51	15.38	
2025-01-19 18:38:20.62	165.51	15.41	
2025-01-19 18:38:20.83	165.52	15.43	
2025-01-19 18:38:21.03	165.52	15.46	
2025-01-19 18:38:21.23	165.52	15.48	
2025-01-19 18:38:21.43	165.53	15.51	
2025-01-19 18:38:21.64	165.53	15.53	
2025-01-19 18:38:21.84	165.53	15.55	
2025-01-19 18:38:22.04	165.54	15.58	
2025-01-19 18:38:22.25	165.54	15.60	
2025-01-19 18:38:22.45	165.54	15.63	
2025-01-19 18:38:22.65	165.55	15.65	
2025-01-19 18:38:22.85	165.55	15.68	
2025-01-19 18:38:23.06	165.55	15.70	
2025-01-19 18:38:23.26	165.56	15.73	
2025-01-19 18:38:23.46	165.56	15.75	
2025-01-19 18:38:23.67	165.57	15.78	
2025-01-19 18:38:23.87	165.57	15.80	
2025-01-19 18:38:24.07	165.57	15.82	
2025-01-19 18:38:24.28	165.58	15.85	
2025-01-19 18:38:24.48	165.58	15.87	
2025-01-19 18:38:24.68	165.58	15.90	
2025-01-19 18:38:24.88	165.59	15.92	
2025-01-19 18:38:25.09	165.59	15.95	
2025-01-19 18:38:25.29	165.59	15.97	
2025-01-19 18:38:25.49	165.60	16.00	
2025-01-19 18:38:25.70	165.60	16.02	
2025-01-19 18:38:25.90	165.60	16.05	
2025-01-19 18:38:26.10	165.61	16.07	
2025-01-19 18:38:26.30	165.61	16.10	
2025-01-19 18:38:26.51	165.61	16.12	
2025-01-19 18:38:26.71	165.62	16.15	
2025-01-19 18:38:26.91	165.62	16.17	
2025-01-19 18:38:27.12	165.62	16.20	
2025-01-19 18:38:27.32	165.63	16.22	
2025-01-19 18:38:27.52	165.63	16.25	
2025-01-19 18:38:27.73	165.63	16.27	
2025-01-19 18:38:27.93	165.64	16.30	
2025-01-19 18:38:28.13	165.64	16.32	
2025-01-19 18:38:28.33	165.65	16.35	
2025-01-19 18:38:28.54	165.65	16.37	
2025-01-19 18:38:28.74	165.65	16.40	
2025-01-19 18:38:28.94	165.66	16.42	
2025-01-19 18:38:29.15	165.66	16.45	
2025-01-19 18:38:29.35	165.66	16.48	
2025-01-19 18:38:29.55	165.67	16.50	
2025-01-19 18:38:29.75	165.67	16.53	
2025-01-19 18:38:29.96	165.67	16.55	
2025-01-19 18:38:30.16	165.68	16.58	
2025-01-19 18:38:30.36	165.68	16.60	
2025-01-19 18:38:30.57	165.68	16.63	
2025-01-19 18:38:30.77	165.69	16.65	
2025-01-19 18:38:30.97	165.69	16.68	
2025-01-19 18:38:31.18	165.70	16.71	
2025-01-19 18:38:31.38	165.70	16.73	
2025-01-19 18:38:31.58	165.70	16.76	
2025-01-19 18:38:31.78	165.71	16.78	
2025-01-19 18:38:31.99	165.71	16.81	
2025-01-19 18:38:32.19	165.71	16.83	
2025-01-19 18:38:32.39	165.72	16.86	
2025-01-19 18:38:32.60	165.72	16.89	
2025-01-19 18:38:32.80	165.73	16.91	
2025-01-19 18:38:33.00	165.73	16.94	
2025-01-19 18:38:33.21	165.73	16.96	
2025-01-19 18:38:33.41	165.74	16.99	
2025-01-19 18:38:33.61	165.74	17.02	
2025-01-19 18:38:33.81	165.74	17.04	
2025-01-19 18:38:34.02	165.75	17.07	
2025-01-19 18:38:34.22	165.75	17.09	
2025-01-19 18:38:34.42	165.75	17.12	
2025-01-19 18:38:34.63	165.76	17.15	
2025-01-19 18:38:34.83	165.76	17.17	
2025-01-19 18:38:35.03	165.77	17.20	
2025-01-19 18:38:35.23	165.77	17.22	
2025-01-19 18:38:35.44	165.77	17.25	
2025-01-19 18:38:35.64	165.78	17.28	
2025-01-19 18:38:35.84	165.78	17.30	
2025-01-19 18:38:36.05	165.78	17.33	
2025-01-19 18:38:36.25	165.79	17.36	
2025-01-19 18:38:36.45	165.79	17.38	
2025-01-19 18:38:36.66	165.80	17.41	
2025-01-19 18:38:36.86	165.80	17.44	
2025-01-19 18:38:37.06	165.80	17.46	
2025-01-19 18:38:37.26	165.81	17.49	
2025-01-19 18:38:37.47	165.81	17.52	
2025-01-19 18:38:37.67	165.81	17.54	
2025-01-19 18:38:37.87	165.82	17.57	
2025-01-19 18:38:38.08	165.82	17.60	
2025-01-19 18:38:38.28	165.83	17.62	
2025-01-19 18:38:38.48	165.83	17.65	
2025-01-19 18:38:38.68	165.83	17.68	
2025-01-19 18:38:38.89	165.84	17.70	
2025-01-19 18:38:39.09	165.84	17.73	
2025-01-19 18:38:39.29	165.85	17.76	
2025-01-19 18:38:39.50	165.85	17.78	
2025-01-19 18:38:39.70	165.85	17.81	
2025-01-19 18:38:39.90	165.86	17.84	
2025-01-19 18:38:40.11	165.86	17.87	
2025-01-19 18:38:40.31	165.87	17.89	
2025-01-19 18:38:40.51	165.87	17.92	
2025-01-19 18:38:40.71	165.87	17.95	
2025-01-19 18:38:40.92	165.88	17.97	
2025-01-19 18:38:41.12	165.88	18.00	
2025-01-19 18:38:41.32	165.88	18.03	
2025-01-19 18:38:41.53	165.89	18.06	
2025-01-19 18:38:41.73	165.89	18.08	
2025-01-19 18:38:41.93	165.90	18.11	
2025-01-19 18:38:42.14	165.90	18.14	
2025-01-19 18:38:42.34	165.90	18.17	
2025-01-19 18:38:42.54	165.91	18.19	
2025-01-19 18:38:42.74	165.91	18.22	
2025-01-19 18:38:42.95	165.92	18.25	
2025-01-19 18:38:43.15	165.92	18.27	
2025-01-19 18:38:43.35	165.92	18.30	
2025-01-19 18:38:43.56	165.93	18.33	
2025-01-19 18:38:43.76	165.93	18.36	
2025-01-19 18:38:43.96	165.94	18.39	
2025-01-19 18:38:44.16	165.94	18.41	
2025-01-19 18:38:44.37	165.94	18.44	
2025-01-19 18:38:44.57	165.95	18.47	
2025-01-19 18:38:44.77	165.95	18.50	
2025-01-19 18:38:44.98	165.96	18.52	
2025-01-19 18:38:45.18	165.96	18.55	
2025-01-19 18:38:45.38	165.96	18.58	
2025-01-19 18:38:45.59	165.97	18.61	
2025-01-19 18:38:45.79	165.97	18.64	
2025-01-19 18:38:45.99	165.98	18.66	
2025-01-19 18:38:46.19	165.98	18.69	
2025-01-19 18:38:46.40	165.98	18.72	
2025-01-19 18:38:46.60	165.99	18.75	
2025-01-19 18:38:46.80	165.99	18.78	
2025-01-19 18:38:47.01	166.00	18.81	
2025-01-19 18:38:47.21	166.00	18.83	
2025-01-19 18:38:47.41	166.01	18.86	
2025-01-19 18:38:47.61	166.01	18.89	
2025-01-19 18:38:47.82	166.01	18.92	
2025-01-19 18:38:48.02	166.02	18.95	
2025-01-19 18:38:48.22	166.02	18.97	
2025-01-19 18:38:48.43	166.03	19.00	
2025-01-19 18:38:48.63	166.03	19.03	
2025-01-19 18:38:48.83	166.03	19.06	
2025-01-19 18:38:49.04	166.04	19.09	
2025-01-19 18:38:49.24	166.04	19.12	
2025-01-19 18:38:49.44	166.05	19.15	
2025-01-19 18:38:49.64	166.05	19.17	
2025-01-19 18:38:49.85	166.06	19.20	
2025-01-19 18:38:50.05	166.06	19.23	
2025-01-19 18:38:50.25	166.06	19.26	
2025-01-19 18:38:50.46	166.07	19.29	
2025-01-19 18:38:50.66	166.07	19.32	
2025-01-19 18:38:50.86	166.08	19.35	
2025-01-19 18:38:51.07	166.08	19.38	
2025-01-19 18:38:51.27	166.08	19.41	
2025-01-19 18:38:51.47	166.09	19.43	
2025-01-19 18:38:51.67	166.09	19.46	
2025-01-19 18:38:51.88	166.10	19.49	
2025-01-19 18:38:52.08	166.10	19.52	
2025-01-19 18:38:52.28	166.11	19.55	
2025-01-19 18:38:52.49	166.11	19.58	
2025-01-19 18:38:52.69	166.11	19.61	
2025-01-19 18:38:52.89	166.12	19.64	
2025-01-19 18:38:53.09	166.12	19.67	
2025-01-19 18:38:53.30	166.13	19.70	
2025-01-19 18:38:53.50	166.13	19.73	
2025-01-19 18:38:53.70	166.14	19.75	
2025-01-19 18:38:53.91	166.14	19.78	
2025-01-19 18:38:54.11	166.14	19.81	
2025-01-19 18:38:54.31	166.15	19.84	
2025-01-19 18:38:54.52	166.15	19.87	
2025-01-19 18:38:54.72	166.16	19.90	
2025-01-19 18:38:54.92	166.16	19.93	
2025-01-19 18:38:55.12	166.17	19.96	
2025-01-19 18:38:55.33	166.17	19.99	
2025-01-19 18:38:55.53	166.18	20.02	
2025-01-19 18:38:55.73	166.18	20.05	
2025-01-19 18:38:55.94	166.18	20.08	
2025-01-19 18:38:56.14	166.19	20.11	
2025-01-19 18:38:56.34	166.19	20.14	
2025-01-19 18:38:56.54	166.20	20.17	
2025-01-19 18:38:56.75	166.20	20.20	
2025-01-19 18:38:56.95	166.21	20.23	
2025-01-19 18:38:57.15	166.21	20.26	
2025-01-19 18:38:57.36	166.22	20.29	
2025-01-19 18:38:57.56	166.22	20.32	
2025-01-19 18:38:57.76	166.22	20.35	
2025-01-19 18:38:57.97	166.23	20.38	
2025-01-19 18:38:58.17	166.23	20.41	
2025-01-19 18:38:58.37	166.24	20.44	
2025-01-19 18:38:58.57	166.24	20.47	
2025-01-19 18:38:58.78	166.25	20.50	
2025-01-19 18:38:58.98	166.25	20.53	
2025-01-19 18:38:59.18	166.26	20.56	
2025-01-19 18:38:59.39	166.26	20.59	
2025-01-19 18:38:59.59	166.27	20.62	
2025-01-19 18:38:59.79	166.27	20.65	
2025-01-19 18:38:59.99	166.27	20.68	
2025-01-19 18:39:00.20	166.28	20.72	
2025-01-19 18:39:00.40	166.28	20.75	
2025-01-19 18:39:00.60	166.29	20.78	
2025-01-19 18:39:00.81	166.29	20.81	
2025-01-19 18:39:01.01	166.30	20.84	
2025-01-19 18:39:01.21	166.30	20.87	
2025-01-19 18:39:01.42	166.31	20.90	
2025-01-19 18:39:01.62	166.31	20.93	
2025-01-19 18:39:01.82	166.32	20.96	
2025-01-19 18:39:02.02	166.32	20.99	
2025-01-19 18:39:02.23	166.33	21.02	
2025-01-19 18:39:02.43	166.33	21.06	
2025-01-19 18:39:02.63	166.33	21.09	
2025-01-19 18:39:02.84	166.34	21.12	
2025-01-19 18:39:03.04	166.34	21.15	
2025-01-19 18:39:03.24	166.35	21.18	
2025-01-19 18:39:03.45	166.35	21.21	
2025-01-19 18:39:03.65	166.36	21.24	
2025-01-19 18:39:03.85	166.36	21.27	
2025-01-19 18:39:04.05	166.37	21.31	
2025-01-19 18:39:04.26	166.37	21.34	
2025-01-19 18:39:04.46	166.38	21.37	
2025-01-19 18:39:04.66	166.38	21.40	
2025-01-19 18:39:04.87	166.39	21.43	
2025-01-19 18:39:05.07	166.39	21.46	
2025-01-19 18:39:05.27	166.40	21.50	
2025-01-19 18:39:05.47	166.40	21.53	
2025-01-19 18:39:05.68	166.41	21.56	
2025-01-19 18:39:05.88	166.41	21.59	
2025-01-19 18:39:06.08	166.42	21.62	
2025-01-19 18:39:06.29	166.42	21.66	
2025-01-19 18:39:06.49	166.42	21.69	
2025-01-19 18:39:06.69	166.43	21.72	
2025-01-19 18:39:06.90	166.43	21.75	
2025-01-19 18:39:07.10	166.44	21.78	
2025-01-19 18:39:07.30	166.44	21.81	
2025-01-19 18:39:07.50	166.45	21.85	
2025-01-19 18:39:07.71	166.45	21.88	
2025-01-19 18:39:07.91	166.46	21.91	
2025-01-19 18:39:08.11	166.46	21.94	
2025-01-19 18:39:08.32	166.47	21.98	
2025-01-19 18:39:08.52	166.47	22.01	
2025-01-19 18:39:08.72	166.48	22.04	
2025-01-19 18:39:08.92	166.48	22.07	
2025-01-19 18:39:09.13	166.49	22.11	
2025-01-19 18:39:09.33	166.49	22.14	
2025-01-19 18:39:09.53	166.50	22.17	
2025-01-19 18:39:09.74	166.50	22.20	
2025-01-19 18:39:09.94	166.51	22.24	
2025-01-19 18:39:10.14	166.51	22.27	
2025-01-19 18:39:10.35	166.52	22.30	
2025-01-19 18:39:10.55	166.52	22.34	
2025-01-19 18:39:10.75	166.53	22.37	
2025-01-19 18:39:10.95	166.53	22.40	
2025-01-19 18:39:11.16	166.54	22.43	
2025-01-19 18:39:11.36	166.54	22.47	
2025-01-19 18:39:11.56	166.55	22.50	
2025-01-19 18:39:11.77	166.55	22.53	
2025-01-19 18:39:11.97	166.56	22.57	
2025-01-19 18:39:12.17	166.56	22.60	
2025-01-19 18:39:12.37	166.57	22.63	
2025-01-19 18:39:12.58	166.57	22.67	
2025-01-19 18:39:12.78	166.58	22.70	
2025-01-19 18:39:12.98	166.58	22.73	
2025-01-19 18:39:13.19	166.59	22.77	
2025-01-19 18:39:13.39	166.60	22.80	
2025-01-19 18:39:13.59	166.60	22.83	
2025-01-19 18:39:13.80	166.61	22.87	
2025-01-19 18:39:14.00	166.61	22.90	
2025-01-19 18:39:14.20	166.62	22.93	
2025-01-19 18:39:14.40	166.62	22.97	
2025-01-19 18:39:14.61	166.63	23.00	
2025-01-19 18:39:14.81	166.63	23.04	
2025-01-19 18:39:15.01	166.64	23.07	
2025-01-19 18:39:15.22	166.64	23.10	
2025-01-19 18:39:15.42	166.65	23.14	
2025-01-19 18:39:15.62	166.65	23.17	
2025-01-19 18:39:15.83	166.66	23.21	
2025-01-19 18:39:16.03	166.66	23.24	
2025-01-19 18:39:16.23	166.67	23.27	
2025-01-19 18:39:16.43	166.67	23.31	
2025-01-19 18:39:16.64	166.68	23.34	
2025-01-19 18:39:16.84	166.68	23.38	
2025-01-19 18:39:17.04	166.69	23.41	
2025-01-19 18:39:17.25	166.70	23.45	
2025-01-19 18:39:17.45	166.70	23.48	
2025-01-19 18:39:17.65	166.71	23.51	
2025-01-19 18:39:17.85	166.71	23.55	
2025-01-19 18:39:18.06	166.72	23.58	
2025-01-19 18:39:18.26	166.72	23.62	
2025-01-19 18:39:18.46	166.73	23.65	
2025-01-19 18:39:18.67	166.73	23.69	
2025-01-19 18:39:18.87	166.74	23.72	
2025-01-19 18:39:19.07	166.74	23.76	
2025-01-19 18:39:19.28	166.75	23.79	
2025-01-19 18:39:19.48	166.76	23.83	
2025-01-19 18:39:19.68	166.76	23.86	
2025-01-19 18:39:19.88	166.77	23.90	
2025-01-19 18:39:20.09	166.77	23.93	
2025-01-19 18:39:20.29	166.78	23.97	
2025-01-19 18:39:20.49	166.78	24.00	
2025-01-19 18:39:20.70	166.79	24.04	
2025-01-19 18:39:20.90	166.79	24.07	
2025-01-19 18:39:21.10	166.80	24.11	
2025-01-19 18:39:21.30	166.81	24.14	
2025-01-19 18:39:21.51	166.81	24.18	
2025-01-19 18:39:21.71	166.82	24.21	
2025-01-19 18:39:21.91	166.82	24.25	
2025-01-19 18:39:22.12	166.83	24.29	
2025-01-19 18:39:22.32	166.83	24.32	
2025-01-19 18:39:22.52	166.84	24.36	
2025-01-19 18:39:22.73	166.84	24.39	
2025-01-19 18:39:22.93	166.85	24.43	
2025-01-19 18:39:23.13	166.86	24.46	
2025-01-19 18:39:23.33	166.86	24.50	
2025-01-19 18:39:23.54	166.87	24.54	
2025-01-19 18:39:23.74	166.87	24.57	
2025-01-19 18:39:23.94	166.88	24.61	
2025-01-19 18:39:24.15	166.88	24.65	
2025-01-19 18:39:24.35	166.89	24.68	
2025-01-19 18:39:24.55	166.90	24.72	
2025-01-19 18:39:24.75	166.90	24.75	
2025-01-19 18:39:24.96	166.91	24.79	
2025-01-19 18:39:25.16	166.91	24.83	
2025-01-19 18:39:25.36	166.92	24.86	
2025-01-19 18:39:25.57	166.93	24.90	
2025-01-19 18:39:25.77	166.93	24.94	
2025-01-19 18:39:25.97	166.94	24.97	
2025-01-19 18:39:26.18	166.94	25.01	
2025-01-19 18:39:26.38	166.95	25.05	
2025-01-19 18:39:26.58	166.95	25.08	
2025-01-19 18:39:26.78	166.96	25.12	
2025-01-19 18:39:26.99	166.97	25.16	
2025-01-19 18:39:27.19	166.97	25.19	
2025-01-19 18:39:27.39	166.98	25.23	
2025-01-19 18:39:27.60	166.98	25.27	
2025-01-19 18:39:27.80	166.99	25.31	
2025-01-19 18:39:28.00	167.00	25.34	
2025-01-19 18:39:28.21	167.00	25.38	
2025-01-19 18:39:28.41	167.01	25.42	
2025-01-19 18:39:28.61	167.01	25.45	
2025-01-19 18:39:28.81	167.02	25.49	
2025-01-19 18:39:29.02	167.03	25.53	
2025-01-19 18:39:29.22	167.03	25.57	
2025-01-19 18:39:29.42	167.04	25.60	
2025-01-19 18:39:29.63	167.05	25.64	
2025-01-19 18:39:29.83	167.05	25.68	
2025-01-19 18:39:30.03	167.06	25.72	
2025-01-19 18:39:30.23	167.06	25.76	
2025-01-19 18:39:30.44	167.07	25.79	
2025-01-19 18:39:30.64	167.08	25.83	
2025-01-19 18:39:30.84	167.08	25.87	
2025-01-19 18:39:31.05	167.09	25.91	
2025-01-19 18:39:31.25	167.09	25.95	
2025-01-19 18:39:31.45	167.10	25.98	
2025-01-19 18:39:31.66	167.11	26.02	
2025-01-19 18:39:31.86	167.11	26.06	
2025-01-19 18:39:32.06	167.12	26.10	
2025-01-19 18:39:32.26	167.13	26.14	
2025-01-19 18:39:32.47	167.13	26.18	
2025-01-19 18:39:32.67	167.14	26.21	
2025-01-19 18:39:32.87	167.14	26.25	
2025-01-19 18:39:33.08	167.15	26.29	
2025-01-19 18:39:33.28	167.16	26.33	
2025-01-19 18:39:33.48	167.16	26.37	
2025-01-19 18:39:33.68	167.17	26.41	
2025-01-19 18:39:33.89	167.18	26.45	
2025-01-19 18:39:34.09	167.18	26.49	
2025-01-19 18:39:34.29	167.19	26.52	
2025-01-19 18:39:34.50	167.20	26.56	
2025-01-19 18:39:34.70	167.20	26.60	
2025-01-19 18:39:34.90	167.21	26.64	
2025-01-19 18:39:35.11	167.22	26.68	
2025-01-19 18:39:35.31	167.22	26.72	
2025-01-19 18:39:35.51	167.23	26.76	
2025-01-19 18:39:35.71	167.23	26.80	
2025-01-19 18:39:35.92	167.24	26.84	
2025-01-19 18:39:36.12	167.25	26.88	
2025-01-19 18:39:36.32	167.25	26.92	
2025-01-19 18:39:36.53	167.26	26.96	
2025-01-19 18:39:36.73	167.27	27.00	
2025-01-19 18:39:36.93	167.27	27.04	
2025-01-19 18:39:37.13	167.28	27.08	
2025-01-19 18:39:37.34	167.29	27.12	
2025-01-19 18:39:37.54	167.29	27.16	
2025-01-19 18:39:37.74	167.30	27.20	
2025-01-19 18:39:37.95	167.31	27.24	
2025-01-19 18:39:38.15	167.31	27.28	
2025-01-19 18:39:38.35	167.32	27.32	
2025-01-19 18:39:38.56	167.33	27.36	
2025-01-19 18:39:38.76	167.33	27.40	
2025-01-19 18:39:38.96	167.34	27.44	
2025-01-19 18:39:39.16	167.35	27.48	
2025-01-19 18:39:39.37	167.35	27.52	
2025-01-19 18:39:39.57	167.36	27.56	
2025-01-19 18:39:39.77	167.37	27.60	
2025-01-19 18:39:39.98	167.38	27.64	
2025-01-19 18:39:40.18	167.38	27.68	
2025-01-19 18:39:40.38	167.39	27.72	
2025-01-19 18:39:40.59	167.40	27.77	
2025-01-19 18:39:40.79	167.40	27.81	
2025-01-19 18:39:40.99	167.41	27.85	
2025-01-19 18:39:41.19	167.42	27.89	
2025-01-19 18:39:41.40	167.42	27.93	
2025-01-19 18:39:41.60	167.43	27.97	
2025-01-19 18:39:41.80	167.44	28.01	
2025-01-19 18:39:42.01	167.44	28.05	
2025-01-19 18:39:42.21	167.45	28.10	
2025-01-19 18:39:42.41	167.46	28.14	
2025-01-19 18:39:42.61	167.47	28.18	
2025-01-19 18:39:42.82	167.47	28.22	
2025-01-19 18:39:43.02	167.48	28.26	
2025-01-19 18:39:43.22	167.49	28.30	
2025-01-19 18:39:43.43	167.49	28.35	
2025-01-19 18:39:43.63	167.50	28.39	
2025-01-19 18:39:43.83	167.51	28.43	
2025-01-19 18:39:44.04	167.52	28.47	
2025-01-19 18:39:44.24	167.52	28.51	
2025-01-19 18:39:44.44	167.53	28.56	
2025-01-19 18:39:44.64	167.54	28.60	
2025-01-19 18:39:44.85	167.54	28.64	
2025-01-19 18:39:45.05	167.55	28.68	
2025-01-19 18:39:45.25	167.56	28.72	
2025-01-19 18:39:45.46	167.57	28.77	
2025-01-19 18:39:45.66	167.57	28.81	
2025-01-19 18:39:45.86	167.58	28.85	
2025-01-19 18:39:46.06	167.59	28.90	
2025-01-19 18:39:46.27	167.60	28.94	
2025-01-19 18:39:46.47	167.60	28.98	
2025-01-19 18:39:46.67	167.61	29.02	
2025-01-19 18:39:46.88	167.62	29.07	
2025-01-19 18:39:47.08	167.63	29.11	
2025-01-19 18:39:47.28	167.63	29.15	
2025-01-19 18:39:47.49	167.64	29.20	
2025-01-19 18:39:47.69	167.65	29.24	
2025-01-19 18:39:47.89	167.66	29.28	
2025-01-19 18:39:48.09	167.66	29.33	
2025-01-19 18:39:48.30	167.67	29.37	
2025-01-19 18:39:48.50	167.68	29.41	
2025-01-19 18:39:48.70	167.69	29.46	
2025-01-19 18:39:48.91	167.69	29.50	
2025-01-19 18:39:49.11	167.70	29.55	
2025-01-19 18:39:49.31	167.71	29.59	
2025-01-19 18:39:49.51	167.72	29.63	
2025-01-19 18:39:49.72	167.72	29.68	
2025-01-19 18:39:49.92	167.73	29.72	
2025-01-19 18:39:50.12	167.74	29.77	
2025-01-19 18:39:50.33	167.75	29.81	
2025-01-19 18:39:50.53	167.76	29.86	
2025-01-19 18:39:50.73	167.76	29.90	
2025-01-19 18:39:50.94	167.77	29.94	
2025-01-19 18:39:51.14	167.78	29.99	
2025-01-19 18:39:51.34	167.79	30.03	
2025-01-19 18:39:51.54	167.79	30.08	
2025-01-19 18:39:51.75	167.80	30.12	
2025-01-19 18:39:51.95	167.81	30.17	
2025-01-19 18:39:52.15	167.82	30.21	
2025-01-19 18:39:52.36	167.83	30.26	
2025-01-19 18:39:52.56	167.83	30.30	
2025-01-19 18:39:52.76	167.84	30.35	
2025-01-19 18:39:52.97	167.85	30.39	
2025-01-19 18:39:53.17	167.86	30.44	
2025-01-19 18:39:53.37	167.87	30.48	
2025-01-19 18:39:53.57	167.87	30.53	
2025-01-19 18:39:53.78	167.88	30.58	
2025-01-19 18:39:53.98	167.89	30.62	
2025-01-19 18:39:54.18	167.90	30.67	
2025-01-19 18:39:54.39	167.91	30.71	
2025-01-19 18:39:54.59	167.92	30.76	
2025-01-19 18:39:54.79	167.92	30.80	
2025-01-19 18:39:54.99	167.93	30.85	
2025-01-19 18:39:55.20	167.94	30.90	
2025-01-19 18:39:55.40	167.95	30.94	
2025-01-19 18:39:55.60	167.96	30.99	
2025-01-19 18:39:55.81	167.97	31.04	
2025-01-19 18:39:56.01	167.97	31.08	
2025-01-19 18:39:56.21	167.98	31.13	
2025-01-19 18:39:56.42	167.99	31.17	
2025-01-19 18:39:56.62	168.00	31.22	
2025-01-19 18:39:56.82	168.01	31.27	
2025-01-19 18:39:57.02	168.02	31.31	
2025-01-19 18:39:57.23	168.02	31.36	
2025-01-19 18:39:57.43	168.03	31.41	
2025-01-19 18:39:57.63	168.04	31.45	
2025-01-19 18:39:57.84	168.05	31.50	
2025-01-19 18:39:58.04	168.06	31.55	
2025-01-19 18:39:58.24	168.07	31.60	
2025-01-19 18:39:58.44	168.08	31.64	
2025-01-19 18:39:58.65	168.08	31.69	
2025-01-19 18:39:58.85	168.09	31.74	
2025-01-19 18:39:59.05	168.10	31.79	
2025-01-19 18:39:59.26	168.11	31.83	
2025-01-19 18:39:59.46	168.12	31.88	
2025-01-19 18:39:59.66	168.13	31.93	
2025-01-19 18:39:59.87	168.14	31.98	
2025-01-19 18:40:00.07	168.15	32.03	
2025-01-19 18:40:00.27	168.16	32.07	
2025-01-19 18:40:00.47	168.16	32.12	
2025-01-19 18:40:00.68	168.17	32.17	
2025-01-19 18:40:00.88	168.18	32.22	
2025-01-19 18:40:01.08	168.19	32.27	
2025-01-19 18:40:01.29	168.20	32.32	
2025-01-19 18:40:01.49	168.21	32.36	
2025-01-19 18:40:01.69	168.22	32.41	
2025-01-19 18:40:01.90	168.23	32.46	
2025-01-19 18:40:02.10	168.24	32.51	
2025-01-19 18:40:02.30	168.25	32.56	
2025-01-19 18:40:02.50	168.25	32.61	
2025-01-19 18:40:02.71	168.26	32.66	
2025-01-19 18:40:02.91	168.27	32.71	
2025-01-19 18:40:03.11	168.28	32.75	
2025-01-19 18:40:03.32	168.29	32.81	
2025-01-19 18:40:03.52	168.30	32.85	
2025-01-19 18:40:03.72	168.31	32.90	
2025-01-19 18:40:03.92	168.32	32.95	
2025-01-19 18:40:04.13	168.33	33.00	
2025-01-19 18:40:04.33	168.34	33.05	
2025-01-19 18:40:04.53	168.35	33.10	
2025-01-19 18:40:04.74	168.36	33.15	
2025-01-19 18:40:04.94	168.37	33.20	
2025-01-19 18:40:05.14	168.38	33.25	
2025-01-19 18:40:05.35	168.39	33.30	
2025-01-19 18:40:05.55	168.39	33.35	
2025-01-19 18:40:05.75	168.40	33.40	
2025-01-19 18:40:05.95	168.41	33.45	
2025-01-19 18:40:06.16	168.42	33.50	
2025-01-19 18:40:06.36	168.43	33.55	
2025-01-19 18:40:06.56	168.44	33.60	
2025-01-19 18:40:06.77	168.45	33.66	
2025-01-19 18:40:06.97	168.46	33.71	
2025-01-19 18:40:07.17	168.47	33.76	
2025-01-19 18:40:07.37	168.48	33.81	
2025-01-19 18:40:07.58	168.49	33.86	
2025-01-19 18:40:07.78	168.50	33.91	
2025-01-19 18:40:07.98	168.51	33.96	
2025-01-19 18:40:08.19	168.52	34.02	
2025-01-19 18:40:08.39	168.53	34.07	
2025-01-19 18:40:08.59	168.54	34.12	
2025-01-19 18:40:08.80	168.55	34.17	
2025-01-19 18:40:09.00	168.56	34.22	
2025-01-19 18:40:09.20	168.57	34.27	
2025-01-19 18:40:09.40	168.58	34.32	
2025-01-19 18:40:09.61	168.59	34.38	
2025-01-19 18:40:09.81	168.60	34.43	
2025-01-19 18:40:10.01	168.61	34.48	
2025-01-19 18:40:10.22	168.62	34.53	
2025-01-19 18:40:10.42	168.63	34.59	
2025-01-19 18:40:10.62	168.64	34.64	
2025-01-19 18:40:10.82	168.65	34.69	
2025-01-19 18:40:11.03	168.66	34.74	
2025-01-19 18:40:11.23	168.67	34.80	
2025-01-19 18:40:11.43	168.68	34.85	
2025-01-19 18:40:11.64	168.70	34.90	
2025-01-19 18:40:11.84	168.71	34.96	
2025-01-19 18:40:12.04	168.72	35.01	
2025-01-19 18:40:12.25	168.73	35.06	
2025-01-19 18:40:12.45	168.74	35.12	
2025-01-19 18:40:12.65	168.75	35.17	
2025-01-19 18:40:12.85	168.76	35.22	
2025-01-19 18:40:13.06	168.77	35.28	
2025-01-19 18:40:13.26	168.78	35.33	
2025-01-19 18:40:13.46	168.79	35.38	
2025-01-19 18:40:13.67	168.80	35.44	
2025-01-19 18:40:13.87	168.81	35.49	
2025-01-19 18:40:14.07	168.82	35.55	
2025-01-19 18:40:14.28	168.83	35.60	
2025-01-19 18:40:14.48	168.85	35.66	
2025-01-19 18:40:14.68	168.86	35.71	
2025-01-19 18:40:14.88	168.87	35.76	
2025-01-19 18:40:15.09	168.88	35.82	
2025-01-19 18:40:15.29	168.89	35.87	
2025-01-19 18:40:15.49	168.90	35.93	
2025-01-19 18:40:15.70	168.91	35.98	
2025-01-19 18:40:15.90	168.92	36.04	
2025-01-19 18:40:16.10	168.93	36.09	
2025-01-19 18:40:16.30	168.94	36.15	
2025-01-19 18:40:16.51	168.96	36.20	
2025-01-19 18:40:16.71	168.97	36.26	
2025-01-19 18:40:16.91	168.98	36.31	
2025-01-19 18:40:17.12	168.99	36.37	
2025-01-19 18:40:17.32	169.00	36.43	
2025-01-19 18:40:17.52	169.01	36.48	
2025-01-19 18:40:17.73	169.03	36.54	
2025-01-19 18:40:17.93	169.04	36.59	
2025-01-19 18:40:18.13	169.05	36.65	
2025-01-19 18:40:18.33	169.06	36.70	
2025-01-19 18:40:18.54	169.07	36.76	
2025-01-19 18:40:18.74	169.08	36.82	
2025-01-19 18:40:18.94	169.09	36.87	
2025-01-19 18:40:19.15	169.11	36.93	
2025-01-19 18:40:19.35	169.12	36.99	
2025-01-19 18:40:19.55	169.13	37.04	
2025-01-19 18:40:19.75	169.14	37.10	
2025-01-19 18:40:19.96	169.15	37.16	
2025-01-19 18:40:20.16	169.17	37.22	
2025-01-19 18:40:20.36	169.18	37.27	
2025-01-19 18:40:20.57	169.19	37.33	
2025-01-19 18:40:20.77	169.20	37.39	
2025-01-19 18:40:20.97	169.21	37.45	
2025-01-19 18:40:21.18	169.23	37.50	
2025-01-19 18:40:21.38	169.24	37.56	
2025-01-19 18:40:21.58	169.25	37.62	
2025-01-19 18:40:21.78	169.26	37.68	
2025-01-19 18:40:21.99	169.28	37.74	
2025-01-19 18:40:22.19	169.29	37.79	
2025-01-19 18:40:22.39	169.30	37.85	
2025-01-19 18:40:22.60	169.31	37.91	
2025-01-19 18:40:22.80	169.33	37.97	
2025-01-19 18:40:23.00	169.34	38.03	
2025-01-19 18:40:23.20	169.35	38.08	
2025-01-19 18:40:23.41	169.36	38.15	
2025-01-19 18:40:23.61	169.38	38.20	
2025-01-19 18:40:23.81	169.39	38.26	
2025-01-19 18:40:24.02	169.40	38.32	
2025-01-19 18:40:24.22	169.41	38.38	
2025-01-19 18:40:24.42	169.43	38.44	
2025-01-19 18:40:24.63	169.44	38.50	
2025-01-19 18:40:24.83	169.45	38.56	
2025-01-19 18:40:25.03	169.47	38.62	
2025-01-19 18:40:25.23	169.48	38.68	
2025-01-19 18:40:25.44	169.49	38.74	
2025-01-19 18:40:25.64	169.51	38.80	
2025-01-19 18:40:25.84	169.52	38.86	
2025-01-19 18:40:26.05	169.53	38.92	
2025-01-19 18:40:26.25	169.55	38.98	
2025-01-19 18:40:26.45	169.56	39.04	
2025-01-19 18:40:26.66	169.57	39.10	
2025-01-19 18:40:26.86	169.59	39.16	
2025-01-19 18:40:27.06	169.60	39.22	
2025-01-19 18:40:27.26	169.61	39.28	
2025-01-19 18:40:27.47	169.63	39.34	
2025-01-19 18:40:27.67	169.64	39.40	
2025-01-19 18:40:27.87	169.65	39.47	
2025-01-19 18:40:28.08	169.67	39.53	
2025-01-19 18:40:28.28	169.68	39.59	
2025-01-19 18:40:28.48	169.69	39.65	
2025-01-19 18:40:28.68	169.71	39.71	
2025-01-19 18:40:28.89	169.72	39.77	
2025-01-19 18:40:29.09	169.74	39.84	
2025-01-19 18:40:29.29	169.75	39.90	
2025-01-19 18:40:29.50	169.76	39.96	
2025-01-19 18:40:29.70	169.78	40.02	
2025-01-19 18:40:29.90	169.79	40.08	
2025-01-19 18:40:30.11	169.81	40.15	
2025-01-19 18:40:30.31	169.82	40.21	
2025-01-19 18:40:30.51	169.84	40.27	
2025-01-19 18:40:30.71	169.85	40.33	
2025-01-19 18:40:30.92	169.86	40.40	
2025-01-19 18:40:31.12	169.88	40.46	
2025-01-19 18:40:31.32	169.89	40.52	
2025-01-19 18:40:31.53	169.91	40.59	
2025-01-19 18:40:31.73	169.92	40.65	
2025-01-19 18:40:31.93	169.94	40.71	
2025-01-19 18:40:32.13	169.95	40.78	
2025-01-19 18:40:32.34	169.97	40.84	
2025-01-19 18:40:32.54	169.98	40.91	
2025-01-19 18:40:32.74	170.00	40.97	
2025-01-19 18:40:32.95	170.01	41.03	
2025-01-19 18:40:33.15	170.03	41.10	
2025-01-19 18:40:33.35	170.04	41.16	
2025-01-19 18:40:33.56	170.06	41.23	
2025-01-19 18:40:33.76	170.07	41.29	
2025-01-19 18:40:33.96	170.09	41.36	
2025-01-19 18:40:34.16	170.10	41.42	
2025-01-19 18:40:34.37	170.12	41.49	
2025-01-19 18:40:34.57	170.13	41.55	
2025-01-19 18:40:34.77	170.15	41.61	
2025-01-19 18:40:34.98	170.17	41.68	
2025-01-19 18:40:35.18	170.18	41.75	
2025-01-19 18:40:35.38	170.20	41.81	
2025-01-19 18:40:35.58	170.21	41.88	
2025-01-19 18:40:35.79	170.23	41.94	
2025-01-19 18:40:35.99	170.24	42.01	
2025-01-19 18:40:36.19	170.26	42.07	
2025-01-19 18:40:36.40	170.28	42.14	
2025-01-19 18:40:36.60	170.29	42.21	
2025-01-19 18:40:36.80	170.31	42.27	
2025-01-19 18:40:37.01	170.33	42.34	
2025-01-19 18:40:37.21	170.34	42.41	
2025-01-19 18:40:37.41	170.36	42.47	
2025-01-19 18:40:37.61	170.37	42.54	
2025-01-19 18:40:37.82	170.39	42.61	
2025-01-19 18:40:38.02	170.41	42.67	
2025-01-19 18:40:38.22	170.42	42.74	
2025-01-19 18:40:38.43	170.44	42.81	
2025-01-19 18:40:38.63	170.46	42.88	
2025-01-19 18:40:38.83	170.47	42.94	
2025-01-19 18:40:39.04	170.49	43.01	
2025-01-19 18:40:39.24	170.51	43.08	
2025-01-19 18:40:39.44	170.52	43.15	
2025-01-19 18:40:39.64	170.54	43.22	
2025-01-19 18:40:39.85	170.56	43.29	
2025-01-19 18:40:40.05	170.58	43.35	
2025-01-19 18:40:40.25	170.59	43.42	
2025-01-19 18:40:40.46	170.61	43.49	
2025-01-19 18:40:40.66	170.63	43.56	
2025-01-19 18:40:40.86	170.65	43.63	
2025-01-19 18:40:41.06	170.66	43.70	
2025-01-19 18:40:41.27	170.68	43.77	
2025-01-19 18:40:41.47	170.70	43.83	
2025-01-19 18:40:41.67	170.72	43.90	
2025-01-19 18:40:41.88	170.74	43.98	
2025-01-19 18:40:42.08	170.75	44.04	
2025-01-19 18:40:42.28	170.77	44.11	
2025-01-19 18:40:42.49	170.79	44.18	
2025-01-19 18:40:42.69	170.81	44.25	
2025-01-19 18:40:42.89	170.83	44.32	
2025-01-19 18:40:43.09	170.84	44.39	
2025-01-19 18:40:43.30	170.86	44.47	
2025-01-19 18:40:43.50	170.88	44.53	
2025-01-19 18:40:43.70	170.90	44.60	
2025-01-19 18:40:43.91	170.92	44.68	
2025-01-19 18:40:44.11	170.94	44.75	
2025-01-19 18:40:44.31	170.96	44.82	
2025-01-19 18:40:44.51	170.97	44.89	
2025-01-19 18:40:44.72	170.99	44.96	
2025-01-19 18:40:44.92	171.01	45.03	
2025-01-19 18:40:45.12	171.03	45.10	
2025-01-19 18:40:45.33	171.05	45.18	
2025-01-19 18:40:45.53	171.07	45.25	
2025-01-19 18:40:45.73	171.09	45.32	
2025-01-19 18:40:45.94	171.11	45.39	
2025-01-19 18:40:46.14	171.13	45.46	
2025-01-19 18:40:46.34	171.15	45.54	
2025-01-19 18:40:46.54	171.17	45.61	
2025-01-19 18:40:46.75	171.19	45.68	
2025-01-19 18:40:46.95	171.21	45.75	
2025-01-19 18:40:47.15	171.23	45.83	
2025-01-19 18:40:47.36	171.25	45.90	
2025-01-19 18:40:47.56	171.27	45.97	
2025-01-19 18:40:47.76	171.29	46.05	
2025-01-19 18:40:47.96	171.31	46.12	
2025-01-19 18:40:48.17	171.33	46.19	
2025-01-19 18:40:48.37	171.35	46.27	
2025-01-19 18:40:48.57	171.37	46.34	
2025-01-19 18:40:48.78	171.39	46.42	
2025-01-19 18:40:48.98	171.41	46.49	
2025-01-19 18:40:49.18	171.43	46.56	
2025-01-19 18:40:49.39	171.46	46.64	
2025-01-19 18:40:49.59	171.48	46.71	
2025-01-19 18:40:49.79	171.50	46.79	
2025-01-19 18:40:49.99	171.52	46.86	
2025-01-19 18:40:50.20	171.54	46.94	
2025-01-19 18:40:50.40	171.56	47.01	
2025-01-19 18:40:50.60	171.58	47.08	
2025-01-19 18:40:50.81	171.61	47.16	
2025-01-19 18:40:51.01	171.63	47.24	
2025-01-19 18:40:51.21	171.65	47.31	
2025-01-19 18:40:51.42	171.67	47.39	
2025-01-19 18:40:51.62	171.70	47.46	
2025-01-19 18:40:51.82	171.72	47.54	
2025-01-19 18:40:52.02	171.74	47.61	
2025-01-19 18:40:52.23	171.76	47.69	
2025-01-19 18:40:52.43	171.79	47.77	
2025-01-19 18:40:52.63	171.81	47.84	
2025-01-19 18:40:52.84	171.83	47.92	
2025-01-19 18:40:53.04	171.85	48.00	
2025-01-19 18:40:53.24	171.88	48.08	
2025-01-19 18:40:53.44	171.90	48.15	
2025-01-19 18:40:53.65	171.92	48.23	
2025-01-19 18:40:53.85	171.95	48.31	
2025-01-19 18:40:54.05	171.97	48.38	
2025-01-19 18:40:54.26	171.99	48.46	
2025-01-19 18:40:54.46	172.02	48.54	
2025-01-19 18:40:54.66	172.04	48.62	
2025-01-19 18:40:54.87	172.07	48.70	
2025-01-19 18:40:55.07	172.09	48.78	
2025-01-19 18:40:55.27	172.11	48.85	
2025-01-19 18:40:55.47	172.14	48.93	
2025-01-19 18:40:55.68	172.16	49.01	
2025-01-19 18:40:55.88	172.19	49.09	
2025-01-19 18:40:56.08	172.21	49.17	
2025-01-19 18:40:56.29	172.24	49.25	
2025-01-19 18:40:56.49	172.26	49.33	
2025-01-19 18:40:56.69	172.29	49.41	
2025-01-19 18:40:56.89	172.31	49.48	
2025-01-19 18:40:57.10	172.34	49.57	
2025-01-19 18:40:57.30	172.36	49.64	
2025-01-19 18:40:57.50	172.39	49.72	
2025-01-19 18:40:57.71	172.42	49.81	
2025-01-19 18:40:57.91	172.44	49.89	
2025-01-19 18:40:58.11	172.47	49.96	
2025-01-19 18:40:58.32	172.49	50.05	
2025-01-19 18:40:58.52	172.52	50.13	
2025-01-19 18:40:58.72	172.55	50.21	
2025-01-19 18:40:58.92	172.57	50.29	
2025-01-19 18:40:59.13	172.60	50.37	
2025-01-19 18:40:59.33	172.63	50.45	
2025-01-19 18:40:59.53	172.65	50.53	
2025-01-19 18:40:59.74	172.68	50.61	
2025-01-19 18:40:59.94	172.71	50.69	
2025-01-19 18:41:00.14	172.73	50.78	
2025-01-19 18:41:00.34	172.76	50.86	
2025-01-19 18:41:00.55	172.79	50.94	
2025-01-19 18:41:00.75	172.82	51.02	
2025-01-19 18:41:00.95	172.85	51.10	
2025-01-19 18:41:01.16	172.88	51.19	
2025-01-19 18:41:01.36	172.90	51.27	
2025-01-19 18:41:01.56	172.93	51.35	
2025-01-19 18:41:01.77	172.96	51.44	
2025-01-19 18:41:01.97	172.99	51.52	
2025-01-19 18:41:02.17	173.02	51.60	
2025-01-19 18:41:02.37	173.05	51.68	
2025-01-19 18:41:02.58	173.08	51.77	
2025-01-19 18:41:02.78	173.11	51.85	
2025-01-19 18:41:02.98	173.14	51.93	
2025-01-19 18:41:03.19	173.17	52.02	
2025-01-19 18:41:03.39	173.20	52.10	
2025-01-19 18:41:03.59	173.23	52.19	
2025-01-19 18:41:03.80	173.26	52.27	
2025-01-19 18:41:04.00	173.29	52.36	
2025-01-19 18:41:04.20	173.32	52.44	
2025-01-19 18:41:04.40	173.35	52.52	
2025-01-19 18:41:04.61	173.38	52.61	
2025-01-19 18:41:04.81	173.41	52.70	
2025-01-19 18:41:05.01	173.44	52.78	
2025-01-19 18:41:05.22	173.47	52.87	
2025-01-19 18:41:05.42	173.50	52.95	
2025-01-19 18:41:05.62	173.54	53.04	
2025-01-19 18:41:05.82	173.57	53.12	
2025-01-19 18:41:06.03	173.60	53.21	
2025-01-19 18:41:06.23	173.63	53.30	
2025-01-19 18:41:06.43	173.67	53.38	
2025-01-19 18:41:06.64	173.70	53.47	
2025-01-19 18:41:06.84	173.73	53.56	
2025-01-19 18:41:07.04	173.76	53.64	
2025-01-19 18:41:07.25	173.80	53.73	
2025-01-19 18:41:07.45	173.83	53.82	
2025-01-19 18:41:07.65	173.87	53.90	
2025-01-19 18:41:07.85	173.90	53.99	
2025-01-19 18:41:08.06	173.93	54.08	
2025-01-19 18:41:08.26	173.97	54.16	
2025-01-19 18:41:08.46	174.00	54.25	
2025-01-19 18:41:08.67	174.04	54.34	
2025-01-19 18:41:08.87	174.07	54.43	
2025-01-19 18:41:09.07	174.11	54.52	
2025-01-19 18:41:09.27	174.14	54.60	
2025-01-19 18:41:09.48	174.18	54.69	
2025-01-19 18:41:09.68	174.22	54.78	
2025-01-19 18:41:09.88	174.25	54.87	
2025-01-19 18:41:10.09	174.29	54.96	
2025-01-19 18:41:10.29	174.32	55.05	
2025-01-19 18:41:10.49	174.36	55.14	
2025-01-19 18:41:10.70	174.40	55.23	
2025-01-19 18:41:10.90	174.44	55.32	
2025-01-19 18:41:11.10	174.47	55.40	
2025-01-19 18:41:11.30	174.51	55.49	
2025-01-19 18:41:11.51	174.55	55.59	
2025-01-19 18:41:11.71	174.59	55.67	
2025-01-19 18:41:11.91	174.62	55.76	
2025-01-19 18:41:12.12	174.66	55.86	
2025-01-19 18:41:12.32	174.70	55.95	
2025-01-19 18:41:12.52	174.74	56.03	
2025-01-19 18:41:12.73	174.78	56.13	
2025-01-19 18:41:12.93	174.82	56.22	
2025-01-19 18:41:13.13	174.86	56.31	
2025-01-19 18:41:13.33	174.90	56.40	
2025-01-19 18:41:13.54	174.94	56.49	
2025-01-19 18:41:13.74	174.98	56.58	
2025-01-19 18:41:13.94	175.02	56.67	
2025-01-19 18:41:14.15	175.07	56.77	
2025-01-19 18:41:14.35	175.11	56.86	
2025-01-19 18:41:14.55	175.15	56.95	
2025-01-19 18:41:14.75	175.19	57.04	
2025-01-19 18:41:14.96	175.23	57.13	
2025-01-19 18:41:15.16	175.28	57.23	
2025-01-19 18:41:15.36	175.32	57.32	
2025-01-19 18:41:15.57	175.36	57.41	
2025-01-19 18:41:15.77	175.41	57.50	
2025-01-19 18:41:15.97	175.45	57.60	
2025-01-19 18:41:16.18	175.49	57.69	
2025-01-19 18:41:16.38	175.54	57.78	
2025-01-19 18:41:16.58	175.58	57.88	
2025-01-19 18:41:16.78	175.63	57.97	
2025-01-19 18:41:16.99	175.67	58.06	
2025-01-19 18:41:17.19	175.72	58.16	
2025-01-19 18:41:17.39	175.76	58.25	
2025-01-19 18:41:17.60	175.81	58.35	
2025-01-19 18:41:17.80	175.86	58.44	
2025-01-19 18:41:18.00	175.90	58.53	
2025-01-19 18:41:18.20	175.95	58.63	
2025-01-19 18:41:18.41	176.00	58.72	
2025-01-19 18:41:18.61	176.05	58.82	
2025-01-19 18:41:18.81	176.09	58.91	
2025-01-19 18:41:19.02	176.15	59.01	
2025-01-19 18:41:19.22	176.19	59.10	
2025-01-19 18:41:19.42	176.24	59.20	
2025-01-19 18:41:19.63	176.29	59.29	
2025-01-19 18:41:19.83	176.34	59.39	
2025-01-19 18:41:20.03	176.39	59.48	
2025-01-19 18:41:20.23	176.44	59.58	
2025-01-19 18:41:20.44	176.50	59.68	
2025-01-19 18:41:20.64	176.55	59.77	
2025-01-19 18:41:20.84	176.60	59.87	
2025-01-19 18:41:21.05	176.65	59.97	
2025-01-19 18:41:21.25	176.70	60.06	
2025-01-19 18:41:21.45	176.76	60.16	
2025-01-19 18:41:21.65	176.81	60.25	
2025-01-19 18:41:21.86	176.86	60.35	
2025-01-19 18:41:22.06	176.92	60.45	
2025-01-19 18:41:22.26	176.97	60.54	
2025-01-19 18:41:22.47	177.03	60.64	
2025-01-19 18:41:22.67	177.08	60.74	
2025-01-19 18:41:22.87	177.14	60.84	
2025-01-19 18:41:23.08	177.20	60.94	
2025-01-19 18:41:23.28	177.25	61.03	
2025-01-19 18:41:23.48	177.31	61.13	
2025-01-19 18:41:23.68	177.37	61.23	
2025-01-19 18:41:23.89	177.43	61.33	
2025-01-19 18:41:24.09	177.49	61.42	
2025-01-19 18:41:24.29	177.54	61.52	
2025-01-19 18:41:24.50	177.61	61.62	
2025-01-19 18:41:24.70	177.66	61.72	
2025-01-19 18:41:24.90	177.72	61.82	
2025-01-19 18:41:25.11	177.79	61.92	
2025-01-19 18:41:25.31	177.85	62.02	
2025-01-19 18:41:25.51	177.91	62.12	
2025-01-19 18:41:25.71	177.97	62.21	
2025-01-19 18:41:25.92	178.04	62.32	
2025-01-19 18:41:26.12	178.10	62.41	
2025-01-19 18:41:26.32	178.16	62.51	
2025-01-19 18:41:26.53	178.23	62.62	
2025-01-19 18:41:26.73	178.29	62.71	
2025-01-19 18:41:26.93	178.36	62.81	
2025-01-19 18:41:27.13	178.42	62.91	
2025-01-19 18:41:27.34	178.49	63.02	
2025-01-19 18:41:27.54	178.56	63.11	
2025-01-19 18:41:27.74	178.62	63.21	
2025-01-19 18:41:27.95	178.70	63.32	
2025-01-19 18:41:28.15	178.76	63.42	
2025-01-19 18:41:28.35	178.83	63.52	
2025-01-19 18:41:28.56	178.90	63.62	
2025-01-19 18:41:28.76	178.97	63.72	
2025-01-19 18:41:28.96	179.04	63.82	
2025-01-19 18:41:29.16	179.12	63.92	
2025-01-19 18:41:29.37	179.19	64.02	
2025-01-19 18:41:29.57	179.26	64.12	
2025-01-19 18:41:29.77	179.34	64.22	
2025-01-19 18:41:29.98	179.41	64.33	
2025-01-19 18:41:30.18	179.49	64.43	
2025-01-19 18:41:30.38	179.56	64.53	
2025-01-19 18:41:30.58	179.64	64.63	
2025-01-19 18:41:30.79	179.72	64.74	
2025-01-19 18:41:30.99	179.79	64.84	
2025-01-19 18:41:31.19	179.87	64.94	
2025-01-19 18:41:31.40	179.95	65.04	
2025-01-19 18:41:31.60	180.03	65.14	
2025-01-19 18:41:31.80	180.11	65.25	
2025-01-19 18:41:32.01	180.20	65.35	
2025-01-19 18:41:32.21	180.28	65.45	
2025-01-19 18:41:32.41	180.36	65.55	
2025-01-19 18:41:32.61	180.44	65.66	
2025-01-19 18:41:32.82	180.53	65.76	
2025-01-19 18:41:33.02	180.61	65.86	
2025-01-19 18:41:33.22	180.70	65.97	
2025-01-19 18:41:33.43	180.79	66.07	
2025-01-19 18:41:33.63	180.88	66.17	
2025-01-19 18:41:33.83	180.96	66.28	
2025-01-19 18:41:34.03	181.05	66.38	
2025-01-19 18:41:34.24	181.15	66.49	
2025-01-19 18:41:34.44	181.24	66.59	
2025-01-19 18:41:34.64	181.33	66.69	
2025-01-19 18:41:34.85	181.42	66.80	
2025-01-19 18:41:35.05	181.52	66.90	
2025-01-19 18:41:35.25	181.61	67.00	
2025-01-19 18:41:35.46	181.71	67.11	
2025-01-19 18:41:35.66	181.80	67.21	
2025-01-19 18:41:35.86	181.90	67.32	
2025-01-19 18:41:36.06	182.00	67.42	
2025-01-19 18:41:36.27	182.10	67.53	
2025-01-19 18:41:36.47	182.20	67.63	
2025-01-19 18:41:36.67	182.30	67.73	
2025-01-19 18:41:36.88	182.41	67.84	
2025-01-19 18:41:37.08	182.51	67.94	
2025-01-19 18:41:37.28	182.61	68.05	
2025-01-19 18:41:37.49	182.72	68.16	
2025-01-19 18:41:37.69	182.83	68.26	
2025-01-19 18:41:37.89	182.94	68.36	
2025-01-19 18:41:38.09	183.04	68.47	
2025-01-19 18:41:38.30	183.16	68.57	
2025-01-19 18:41:38.50	183.27	68.68	
2025-01-19 18:41:38.70	183.38	68.78	
2025-01-19 18:41:38.91	183.50	68.89	
2025-01-19 18:41:39.11	183.61	68.99	
2025-01-19 18:41:39.31	183.73	69.10	
2025-01-19 18:41:39.51	183.84	69.20	
2025-01-19 18:41:39.72	183.97	69.31	
2025-01-19 18:41:39.92	184.08	69.41	
2025-01-19 18:41:40.12	184.20	69.52	
2025-01-19 18:41:40.33	184.33	69.63	
2025-01-19 18:41:40.53	184.45	69.73	
2025-01-19 18:41:40.73	184.58	69.84	
2025-01-19 18:41:40.94	184.71	69.94	
2025-01-19 18:41:41.14	184.84	70.05	
2025-01-19 18:41:41.34	184.97	70.15	
2025-01-19 18:41:41.54	185.10	70.26	
2025-01-19 18:41:41.75	185.23	70.37	
2025-01-19 18:41:41.95	185.37	70.47	
2025-01-19 18:41:42.15	185.50	70.57	
2025-01-19 18:41:42.36	185.64	70.68	
2025-01-19 18:41:42.56	185.78	70.79	
2025-01-19 18:41:42.76	185.92	70.89	
2025-01-19 18:41:42.96	186.06	71.00	
2025-01-19 18:41:43.17	186.21	71.11	
2025-01-19 18:41:43.37	186.35	71.21	
2025-01-19 18:41:43.57	186.50	71.31	
2025-01-19 18:41:43.78	186.66	71.42	
2025-01-19 18:41:43.98	186.80	71.53	
2025-01-19 18:41:44.18	186.96	71.63	
2025-01-19 18:41:44.39	187.12	71.74	
2025-01-19 18:41:44.59	187.27	71.85	
2025-01-19 18:41:44.79	187.43	71.95	
2025-01-19 18:41:44.99	187.59	72.05	
2025-01-19 18:41:45.20	187.76	72.16	
2025-01-19 18:41:45.40	187.92	72.27	
2025-01-19 18:41:45.60	188.08	72.37	
2025-01-19 18:41:45.81	188.26	72.48	
2025-01-19 18:41:46.01	188.43	72.58	
2025-01-19 18:41:46.21	188.60	72.69	
2025-01-19 18:41:46.41	188.77	72.79	
2025-01-19 18:41:46.62	188.96	72.90	
2025-01-19 18:41:46.82	189.14	73.00	
2025-01-19 18:41:47.02	189.32	73.11	
2025-01-19 18:41:47.23	189.51	73.22	
2025-01-19 18:41:47.43	189.69	73.32	
