passes_logs/2025/01/19/SPB_Silybum_02/SPB_Silybum_02__20250119_121309_SUOMI_NPP_rec.log

#Pass ID: 20250119_121309_SUOMI NPP
#Satellite: SUOMI NPP
#Configuration: NPP
#Start time: 2025-01-19 12:13:10

#Version: 2.0.20230423
#Station: SPB_Silybum_02
#Location: 30.233357 lon 59.946436 lat
#TLE: 1 37849U 11061A   25018.79654560  .00000210  00000+0  12058-3 0  9999
#TLE: 2 37849  98.7450 319.7371 0001526  35.0024 325.1252 14.19540179685454

#Time	Az	El	Level	Level2	SNR	BER	Gain	Gain2
2025-01-19 12:13:12.16	219.46	4.15	
2025-01-19 12:13:12.36	219.47	4.16	
2025-01-19 12:13:12.57	219.49	4.17	
2025-01-19 12:13:12.77	219.51	4.18	
2025-01-19 12:13:12.97	219.53	4.19	
2025-01-19 12:13:13.18	219.55	4.20	
2025-01-19 12:13:13.38	219.57	4.22	
2025-01-19 12:13:13.58	219.59	4.23	
2025-01-19 12:13:13.79	219.61	4.24	
2025-01-19 12:13:13.99	219.63	4.25	
2025-01-19 12:13:14.19	219.64	4.26	
2025-01-19 12:13:14.40	219.66	4.27	
2025-01-19 12:13:14.60	219.68	4.28	
2025-01-19 12:13:14.80	219.70	4.29	
2025-01-19 12:13:15.01	219.72	4.30	
2025-01-19 12:13:15.21	219.74	4.32	
2025-01-19 12:13:15.41	219.76	4.33	
2025-01-19 12:13:15.61	219.78	4.34	
2025-01-19 12:13:15.82	219.80	4.35	
2025-01-19 12:13:16.02	219.81	4.36	
2025-01-19 12:13:16.22	219.83	4.37	
2025-01-19 12:13:16.43	219.85	4.38	
2025-01-19 12:13:16.63	219.87	4.39	
2025-01-19 12:13:16.83	219.89	4.40	
2025-01-19 12:13:17.04	219.91	4.42	
2025-01-19 12:13:17.24	219.93	4.43	
2025-01-19 12:13:17.44	219.95	4.44	
2025-01-19 12:13:17.65	219.97	4.45	
2025-01-19 12:13:17.85	219.99	4.46	
2025-01-19 12:13:18.05	220.00	4.47	
2025-01-19 12:13:18.26	220.02	4.48	
2025-01-19 12:13:18.46	220.04	4.49	
2025-01-19 12:13:18.66	220.06	4.50	
2025-01-19 12:13:18.86	220.08	4.51	
2025-01-19 12:13:19.07	220.10	4.53	
2025-01-19 12:13:19.27	220.12	4.54	
2025-01-19 12:13:19.47	220.14	4.55	
2025-01-19 12:13:19.68	220.16	4.56	
2025-01-19 12:13:19.88	220.18	4.57	
2025-01-19 12:13:20.08	220.20	4.58	
2025-01-19 12:13:20.29	220.22	4.59	
2025-01-19 12:13:20.49	220.24	4.60	
2025-01-19 12:13:20.69	220.25	4.61	
2025-01-19 12:13:20.90	220.27	4.63	
2025-01-19 12:13:21.10	220.29	4.64	
2025-01-19 12:13:21.30	220.31	4.65	
2025-01-19 12:13:21.51	220.33	4.66	
2025-01-19 12:13:21.71	220.35	4.67	
2025-01-19 12:13:21.91	220.37	4.68	
2025-01-19 12:13:22.11	220.39	4.69	
2025-01-19 12:13:22.32	220.41	4.70	
2025-01-19 12:13:22.52	220.43	4.72	
2025-01-19 12:13:22.72	220.45	4.73	
2025-01-19 12:13:22.93	220.47	4.74	
2025-01-19 12:13:23.13	220.49	4.75	
2025-01-19 12:13:23.33	220.51	4.76	
2025-01-19 12:13:23.54	220.53	4.77	
2025-01-19 12:13:23.74	220.55	4.78	
2025-01-19 12:13:23.94	220.57	4.79	
2025-01-19 12:13:24.15	220.59	4.80	
2025-01-19 12:13:24.35	220.60	4.82	
2025-01-19 12:13:24.55	220.62	4.83	
2025-01-19 12:13:24.76	220.64	4.84	
2025-01-19 12:13:24.96	220.66	4.85	
2025-01-19 12:13:25.16	220.68	4.86	
2025-01-19 12:13:25.37	220.70	4.87	
2025-01-19 12:13:25.57	220.72	4.88	
2025-01-19 12:13:25.77	220.74	4.89	
2025-01-19 12:13:25.97	220.76	4.90	
2025-01-19 12:13:26.18	220.78	4.92	
2025-01-19 12:13:26.38	220.80	4.93	
2025-01-19 12:13:26.58	220.82	4.94	
2025-01-19 12:13:26.79	220.84	4.95	
2025-01-19 12:13:26.99	220.86	4.96	
2025-01-19 12:13:27.19	220.88	4.97	
2025-01-19 12:13:27.40	220.90	4.98	
2025-01-19 12:13:27.60	220.92	4.99	
2025-01-19 12:13:27.80	220.94	5.01	
2025-01-19 12:13:28.01	220.96	5.02	
2025-01-19 12:13:28.21	220.98	5.03	
2025-01-19 12:13:28.41	221.00	5.04	
2025-01-19 12:13:28.62	221.02	5.05	
2025-01-19 12:13:28.82	221.04	5.06	
2025-01-19 12:13:29.02	221.06	5.07	
2025-01-19 12:13:29.22	221.08	5.08	
2025-01-19 12:13:29.43	221.10	5.10	
2025-01-19 12:13:29.63	221.12	5.11	
2025-01-19 12:13:29.83	221.14	5.12	
2025-01-19 12:13:30.04	221.16	5.13	
2025-01-19 12:13:30.24	221.18	5.14	
2025-01-19 12:13:30.44	221.20	5.15	
2025-01-19 12:13:30.65	221.22	5.16	
2025-01-19 12:13:30.85	221.24	5.17	
2025-01-19 12:13:31.05	221.26	5.18	
2025-01-19 12:13:31.26	221.28	5.20	
2025-01-19 12:13:31.46	221.30	5.21	
2025-01-19 12:13:31.66	221.32	5.22	
2025-01-19 12:13:31.87	221.34	5.23	
2025-01-19 12:13:32.07	221.36	5.24	
2025-01-19 12:13:32.27	221.38	5.25	
2025-01-19 12:13:32.47	221.40	5.26	
2025-01-19 12:13:32.68	221.42	5.27	
2025-01-19 12:13:32.88	221.44	5.29	
2025-01-19 12:13:33.08	221.46	5.30	
2025-01-19 12:13:33.29	221.48	5.31	
2025-01-19 12:13:33.49	221.50	5.32	
2025-01-19 12:13:33.69	221.52	5.33	
2025-01-19 12:13:33.90	221.54	5.34	
2025-01-19 12:13:34.10	221.56	5.35	
2025-01-19 12:13:34.30	221.58	5.36	
2025-01-19 12:13:34.51	221.60	5.38	
2025-01-19 12:13:34.71	221.62	5.39	
2025-01-19 12:13:34.91	221.64	5.40	
2025-01-19 12:13:35.12	221.66	5.41	
2025-01-19 12:13:35.32	221.68	5.42	
2025-01-19 12:13:35.52	221.70	5.43	
2025-01-19 12:13:35.72	221.72	5.44	
2025-01-19 12:13:35.93	221.74	5.45	
2025-01-19 12:13:36.13	221.76	5.47	
2025-01-19 12:13:36.33	221.78	5.48	
2025-01-19 12:13:36.54	221.81	5.49	
2025-01-19 12:13:36.74	221.83	5.50	
2025-01-19 12:13:36.94	221.85	5.51	
2025-01-19 12:13:37.15	221.87	5.52	
2025-01-19 12:13:37.35	221.89	5.53	
2025-01-19 12:13:37.55	221.91	5.54	
2025-01-19 12:13:37.76	221.93	5.56	
2025-01-19 12:13:37.96	221.95	5.57	
2025-01-19 12:13:38.16	221.97	5.58	
2025-01-19 12:13:38.37	221.99	5.59	
2025-01-19 12:13:38.57	222.01	5.60	
2025-01-19 12:13:38.77	222.03	5.61	
2025-01-19 12:13:38.97	222.05	5.62	
2025-01-19 12:13:39.18	222.07	5.64	
2025-01-19 12:13:39.38	222.09	5.65	
2025-01-19 12:13:39.58	222.11	5.66	
2025-01-19 12:13:39.79	222.14	5.67	
2025-01-19 12:13:39.99	222.16	5.68	
2025-01-19 12:13:40.19	222.18	5.69	
2025-01-19 12:13:40.40	222.20	5.70	
2025-01-19 12:13:40.60	222.22	5.71	
2025-01-19 12:13:40.80	222.24	5.73	
2025-01-19 12:13:41.01	222.26	5.74	
2025-01-19 12:13:41.21	222.28	5.75	
2025-01-19 12:13:41.41	222.30	5.76	
2025-01-19 12:13:41.62	222.32	5.77	
2025-01-19 12:13:41.82	222.34	5.78	
2025-01-19 12:13:42.02	222.36	5.79	
2025-01-19 12:13:42.23	222.38	5.81	
2025-01-19 12:13:42.43	222.41	5.82	
2025-01-19 12:13:42.63	222.43	5.83	
2025-01-19 12:13:42.83	222.45	5.84	
2025-01-19 12:13:43.04	222.47	5.85	
2025-01-19 12:13:43.24	222.49	5.86	
2025-01-19 12:13:43.44	222.51	5.87	
2025-01-19 12:13:43.65	222.53	5.88	
2025-01-19 12:13:43.85	222.55	5.90	
2025-01-19 12:13:44.05	222.57	5.91	
2025-01-19 12:13:44.26	222.59	5.92	
2025-01-19 12:13:44.46	222.62	5.93	
2025-01-19 12:13:44.66	222.64	5.94	
2025-01-19 12:13:44.87	222.66	5.95	
2025-01-19 12:13:45.07	222.68	5.96	
2025-01-19 12:13:45.27	222.70	5.97	
2025-01-19 12:13:45.48	222.72	5.99	
2025-01-19 12:13:45.68	222.74	6.00	
2025-01-19 12:13:45.88	222.76	6.01	
2025-01-19 12:13:46.08	222.78	6.02	
2025-01-19 12:13:46.29	222.81	6.03	
2025-01-19 12:13:46.49	222.83	6.04	
2025-01-19 12:13:46.69	222.85	6.05	
2025-01-19 12:13:46.90	222.87	6.07	
2025-01-19 12:13:47.10	222.89	6.08	
2025-01-19 12:13:47.30	222.91	6.09	
2025-01-19 12:13:47.51	222.93	6.10	
2025-01-19 12:13:47.71	222.95	6.11	
2025-01-19 12:13:47.91	222.98	6.12	
2025-01-19 12:13:48.12	223.00	6.13	
2025-01-19 12:13:48.32	223.02	6.15	
2025-01-19 12:13:48.52	223.04	6.16	
2025-01-19 12:13:48.73	223.06	6.17	
2025-01-19 12:13:48.93	223.08	6.18	
2025-01-19 12:13:49.13	223.10	6.19	
2025-01-19 12:13:49.33	223.12	6.20	
2025-01-19 12:13:49.54	223.15	6.21	
2025-01-19 12:13:49.74	223.17	6.22	
2025-01-19 12:13:49.94	223.19	6.24	
2025-01-19 12:13:50.15	223.21	6.25	
2025-01-19 12:13:50.35	223.23	6.26	
2025-01-19 12:13:50.55	223.25	6.27	
2025-01-19 12:13:50.76	223.28	6.28	
2025-01-19 12:13:50.96	223.30	6.29	
2025-01-19 12:13:51.16	223.32	6.30	
2025-01-19 12:13:51.37	223.34	6.32	
2025-01-19 12:13:51.57	223.36	6.33	
2025-01-19 12:13:51.77	223.38	6.34	
2025-01-19 12:13:51.98	223.41	6.35	
2025-01-19 12:13:52.18	223.43	6.36	
2025-01-19 12:13:52.38	223.45	6.37	
2025-01-19 12:13:52.58	223.47	6.38	
2025-01-19 12:13:52.79	223.49	6.40	
2025-01-19 12:13:52.99	223.51	6.41	
2025-01-19 12:13:53.19	223.54	6.42	
2025-01-19 12:13:53.40	223.56	6.43	
2025-01-19 12:13:53.60	223.58	6.44	
2025-01-19 12:13:53.80	223.60	6.45	
2025-01-19 12:13:54.01	223.62	6.46	
2025-01-19 12:13:54.21	223.64	6.48	
2025-01-19 12:13:54.41	223.67	6.49	
2025-01-19 12:13:54.62	223.69	6.50	
2025-01-19 12:13:54.82	223.71	6.51	
2025-01-19 12:13:55.02	223.73	6.52	
2025-01-19 12:13:55.23	223.75	6.53	
2025-01-19 12:13:55.43	223.78	6.54	
2025-01-19 12:13:55.63	223.80	6.56	
2025-01-19 12:13:55.83	223.82	6.57	
2025-01-19 12:13:56.04	223.84	6.58	
2025-01-19 12:13:56.24	223.86	6.59	
2025-01-19 12:13:56.44	223.89	6.60	
2025-01-19 12:13:56.65	223.91	6.61	
2025-01-19 12:13:56.85	223.93	6.62	
2025-01-19 12:13:57.05	223.95	6.64	
2025-01-19 12:13:57.26	223.97	6.65	
2025-01-19 12:13:57.46	224.00	6.66	
2025-01-19 12:13:57.66	224.02	6.67	
2025-01-19 12:13:57.87	224.04	6.68	
2025-01-19 12:13:58.07	224.06	6.69	
2025-01-19 12:13:58.27	224.08	6.70	
2025-01-19 12:13:58.48	224.11	6.72	
2025-01-19 12:13:58.68	224.13	6.73	
2025-01-19 12:13:58.88	224.15	6.74	
2025-01-19 12:13:59.09	224.17	6.75	
2025-01-19 12:13:59.29	224.20	6.76	
2025-01-19 12:13:59.49	224.22	6.77	
2025-01-19 12:13:59.69	224.24	6.78	
2025-01-19 12:13:59.90	224.26	6.80	
2025-01-19 12:14:00.10	224.28	6.81	
2025-01-19 12:14:00.30	224.31	6.82	
2025-01-19 12:14:00.51	224.33	6.83	
2025-01-19 12:14:00.71	224.35	6.84	
2025-01-19 12:14:00.91	224.37	6.85	
2025-01-19 12:14:01.12	224.40	6.87	
2025-01-19 12:14:01.32	224.42	6.88	
2025-01-19 12:14:01.52	224.44	6.89	
2025-01-19 12:14:01.73	224.46	6.90	
2025-01-19 12:14:01.93	224.49	6.91	
2025-01-19 12:14:02.13	224.51	6.92	
2025-01-19 12:14:02.34	224.53	6.93	
2025-01-19 12:14:02.54	224.55	6.95	
2025-01-19 12:14:02.74	224.58	6.96	
2025-01-19 12:14:02.94	224.60	6.97	
2025-01-19 12:14:03.15	224.62	6.98	
2025-01-19 12:14:03.35	224.64	6.99	
2025-01-19 12:14:03.55	224.67	7.00	
2025-01-19 12:14:03.76	224.69	7.01	
2025-01-19 12:14:03.96	224.71	7.03	
2025-01-19 12:14:04.16	224.73	7.04	
2025-01-19 12:14:04.37	224.76	7.05	
2025-01-19 12:14:04.57	224.78	7.06	
2025-01-19 12:14:04.77	224.80	7.07	
2025-01-19 12:14:04.98	224.83	7.08	
2025-01-19 12:14:05.18	224.85	7.10	
2025-01-19 12:14:05.38	224.87	7.11	
2025-01-19 12:14:05.59	224.89	7.12	
2025-01-19 12:14:05.79	224.92	7.13	
2025-01-19 12:14:05.99	224.94	7.14	
2025-01-19 12:14:06.19	224.96	7.15	
2025-01-19 12:14:06.40	224.99	7.16	
2025-01-19 12:14:06.60	225.01	7.18	
2025-01-19 12:14:06.80	225.03	7.19	
2025-01-19 12:14:07.01	225.05	7.20	
2025-01-19 12:14:07.21	225.08	7.21	
2025-01-19 12:14:07.41	225.10	7.22	
2025-01-19 12:14:07.62	225.12	7.23	
2025-01-19 12:14:07.82	225.15	7.24	
2025-01-19 12:14:08.02	225.17	7.26	
2025-01-19 12:14:08.23	225.19	7.27	
2025-01-19 12:14:08.43	225.21	7.28	
2025-01-19 12:14:08.63	225.24	7.29	
2025-01-19 12:14:08.84	225.26	7.30	
2025-01-19 12:14:09.04	225.28	7.31	
2025-01-19 12:14:09.24	225.31	7.33	
2025-01-19 12:14:09.44	225.33	7.34	
2025-01-19 12:14:09.65	225.35	7.35	
2025-01-19 12:14:09.85	225.38	7.36	
2025-01-19 12:14:10.05	225.40	7.37	
2025-01-19 12:14:10.26	225.42	7.38	
2025-01-19 12:14:10.46	225.45	7.39	
2025-01-19 12:14:10.66	225.47	7.41	
2025-01-19 12:14:10.87	225.49	7.42	
2025-01-19 12:14:11.07	225.52	7.43	
2025-01-19 12:14:11.27	225.54	7.44	
2025-01-19 12:14:11.48	225.56	7.45	
2025-01-19 12:14:11.68	225.58	7.46	
2025-01-19 12:14:11.88	225.61	7.48	
2025-01-19 12:14:12.09	225.63	7.49	
2025-01-19 12:14:12.29	225.66	7.50	
2025-01-19 12:14:12.49	225.68	7.51	
2025-01-19 12:14:12.69	225.70	7.52	
2025-01-19 12:14:12.90	225.73	7.53	
2025-01-19 12:14:13.10	225.75	7.54	
2025-01-19 12:14:13.30	225.77	7.56	
2025-01-19 12:14:13.51	225.80	7.57	
2025-01-19 12:14:13.71	225.82	7.58	
2025-01-19 12:14:13.91	225.84	7.59	
2025-01-19 12:14:14.12	225.87	7.60	
2025-01-19 12:14:14.32	225.89	7.61	
2025-01-19 12:14:14.52	225.91	7.63	
2025-01-19 12:14:14.73	225.94	7.64	
2025-01-19 12:14:14.93	225.96	7.65	
2025-01-19 12:14:15.13	225.98	7.66	
2025-01-19 12:14:15.34	226.01	7.67	
2025-01-19 12:14:15.54	226.03	7.68	
2025-01-19 12:14:15.74	226.05	7.69	
2025-01-19 12:14:15.94	226.08	7.71	
2025-01-19 12:14:16.15	226.10	7.72	
2025-01-19 12:14:16.35	226.13	7.73	
2025-01-19 12:14:16.55	226.15	7.74	
2025-01-19 12:14:16.76	226.17	7.75	
2025-01-19 12:14:16.96	226.20	7.76	
2025-01-19 12:14:17.16	226.22	7.78	
2025-01-19 12:14:17.37	226.24	7.79	
2025-01-19 12:14:17.57	226.27	7.80	
2025-01-19 12:14:17.77	226.29	7.81	
2025-01-19 12:14:17.98	226.32	7.82	
2025-01-19 12:14:18.18	226.34	7.83	
2025-01-19 12:14:18.38	226.36	7.85	
2025-01-19 12:14:18.59	226.39	7.86	
2025-01-19 12:14:18.79	226.41	7.87	
2025-01-19 12:14:18.99	226.44	7.88	
2025-01-19 12:14:19.20	226.46	7.89	
2025-01-19 12:14:19.40	226.48	7.90	
2025-01-19 12:14:19.60	226.51	7.91	
2025-01-19 12:14:19.80	226.53	7.93	
2025-01-19 12:14:20.01	226.56	7.94	
2025-01-19 12:14:20.21	226.58	7.95	
2025-01-19 12:14:20.41	226.60	7.96	
2025-01-19 12:14:20.62	226.63	7.97	
2025-01-19 12:14:20.82	226.65	7.98	
2025-01-19 12:14:21.02	226.68	8.00	
2025-01-19 12:14:21.23	226.70	8.01	
2025-01-19 12:14:21.43	226.72	8.02	
2025-01-19 12:14:21.63	226.75	8.03	
2025-01-19 12:14:21.84	226.77	8.04	
2025-01-19 12:14:22.04	226.80	8.05	
2025-01-19 12:14:22.24	226.82	8.07	
2025-01-19 12:14:22.45	226.85	8.08	
2025-01-19 12:14:22.65	226.87	8.09	
2025-01-19 12:14:22.85	226.89	8.10	
2025-01-19 12:14:23.05	226.92	8.11	
2025-01-19 12:14:23.26	226.94	8.12	
2025-01-19 12:14:23.46	226.97	8.14	
2025-01-19 12:14:23.66	226.99	8.15	
2025-01-19 12:14:23.87	227.02	8.16	
2025-01-19 12:14:24.07	227.04	8.17	
2025-01-19 12:14:24.27	227.06	8.18	
2025-01-19 12:14:24.48	227.09	8.19	
2025-01-19 12:14:24.68	227.11	8.21	
2025-01-19 12:14:24.88	227.14	8.22	
2025-01-19 12:14:25.09	227.16	8.23	
2025-01-19 12:14:25.29	227.19	8.24	
2025-01-19 12:14:25.49	227.21	8.25	
2025-01-19 12:14:25.70	227.24	8.26	
2025-01-19 12:14:25.90	227.26	8.27	
2025-01-19 12:14:26.10	227.29	8.29	
2025-01-19 12:14:26.30	227.31	8.30	
2025-01-19 12:14:26.51	227.33	8.31	
2025-01-19 12:14:26.71	227.36	8.32	
2025-01-19 12:14:26.91	227.38	8.33	
2025-01-19 12:14:27.12	227.41	8.34	
2025-01-19 12:14:27.32	227.43	8.36	
2025-01-19 12:14:27.52	227.46	8.37	
2025-01-19 12:14:27.73	227.48	8.38	
2025-01-19 12:14:27.93	227.51	8.39	
2025-01-19 12:14:28.13	227.53	8.40	
2025-01-19 12:14:28.34	227.56	8.41	
2025-01-19 12:14:28.54	227.58	8.43	
2025-01-19 12:14:28.74	227.61	8.44	
2025-01-19 12:14:28.95	227.63	8.45	
2025-01-19 12:14:29.15	227.66	8.46	
2025-01-19 12:14:29.35	227.68	8.47	
2025-01-19 12:14:29.55	227.71	8.48	
2025-01-19 12:14:29.76	227.73	8.50	
2025-01-19 12:14:29.96	227.76	8.51	
2025-01-19 12:14:30.16	227.78	8.52	
2025-01-19 12:14:30.37	227.81	8.53	
2025-01-19 12:14:30.57	227.83	8.54	
2025-01-19 12:14:30.77	227.86	8.55	
2025-01-19 12:14:30.98	227.88	8.57	
2025-01-19 12:14:31.18	227.91	8.58	
2025-01-19 12:14:31.38	227.93	8.59	
2025-01-19 12:14:31.59	227.96	8.60	
2025-01-19 12:14:31.79	227.98	8.61	
2025-01-19 12:14:31.99	228.01	8.62	
2025-01-19 12:14:32.20	228.03	8.64	
2025-01-19 12:14:32.40	228.06	8.65	
2025-01-19 12:14:32.60	228.08	8.66	
2025-01-19 12:14:32.80	228.11	8.67	
2025-01-19 12:14:33.01	228.13	8.68	
2025-01-19 12:14:33.21	228.16	8.69	
2025-01-19 12:14:33.41	228.18	8.71	
2025-01-19 12:14:33.62	228.21	8.72	
2025-01-19 12:14:33.82	228.23	8.73	
2025-01-19 12:14:34.02	228.26	8.74	
2025-01-19 12:14:34.23	228.29	8.75	
2025-01-19 12:14:34.43	228.31	8.76	
2025-01-19 12:14:34.63	228.34	8.78	
2025-01-19 12:14:34.84	228.36	8.79	
2025-01-19 12:14:35.04	228.39	8.80	
2025-01-19 12:14:35.24	228.41	8.81	
2025-01-19 12:14:35.45	228.44	8.82	
2025-01-19 12:14:35.65	228.46	8.83	
2025-01-19 12:14:35.85	228.49	8.85	
2025-01-19 12:14:36.06	228.51	8.86	
2025-01-19 12:14:36.26	228.54	8.87	
2025-01-19 12:14:36.46	228.57	8.88	
2025-01-19 12:14:36.66	228.59	8.89	
2025-01-19 12:14:36.87	228.62	8.90	
2025-01-19 12:14:37.07	228.64	8.92	
2025-01-19 12:14:37.27	228.67	8.93	
2025-01-19 12:14:37.48	228.69	8.94	
2025-01-19 12:14:37.68	228.72	8.95	
2025-01-19 12:14:37.88	228.74	8.96	
2025-01-19 12:14:38.09	228.77	8.97	
2025-01-19 12:14:38.29	228.80	8.99	
2025-01-19 12:14:38.49	228.82	9.00	
2025-01-19 12:14:38.70	228.85	9.01	
2025-01-19 12:14:38.90	228.87	9.02	
2025-01-19 12:14:39.10	228.90	9.03	
2025-01-19 12:14:39.31	228.93	9.04	
2025-01-19 12:14:39.51	228.95	9.06	
2025-01-19 12:14:39.71	228.98	9.07	
2025-01-19 12:14:39.91	229.00	9.08	
2025-01-19 12:14:40.12	229.03	9.09	
2025-01-19 12:14:40.32	229.06	9.10	
2025-01-19 12:14:40.52	229.08	9.11	
2025-01-19 12:14:40.73	229.11	9.13	
2025-01-19 12:14:40.93	229.13	9.14	
2025-01-19 12:14:41.13	229.16	9.15	
2025-01-19 12:14:41.34	229.19	9.16	
2025-01-19 12:14:41.54	229.21	9.17	
2025-01-19 12:14:41.74	229.24	9.18	
2025-01-19 12:14:41.95	229.26	9.20	
2025-01-19 12:14:42.15	229.29	9.21	
2025-01-19 12:14:42.35	229.32	9.22	
2025-01-19 12:14:42.56	229.34	9.23	
2025-01-19 12:14:42.76	229.37	9.24	
2025-01-19 12:14:42.96	229.39	9.25	
2025-01-19 12:14:43.16	229.42	9.26	
2025-01-19 12:14:43.37	229.45	9.28	
2025-01-19 12:14:43.57	229.47	9.29	
2025-01-19 12:14:43.77	229.50	9.30	
2025-01-19 12:14:43.98	229.53	9.31	
2025-01-19 12:14:44.18	229.55	9.32	
2025-01-19 12:14:44.38	229.58	9.34	
2025-01-19 12:14:44.59	229.61	9.35	
2025-01-19 12:14:44.79	229.63	9.36	
2025-01-19 12:14:44.99	229.66	9.37	
2025-01-19 12:14:45.20	229.69	9.38	
2025-01-19 12:14:45.40	229.71	9.39	
2025-01-19 12:14:45.60	229.74	9.41	
2025-01-19 12:14:45.81	229.76	9.42	
2025-01-19 12:14:46.01	229.79	9.43	
2025-01-19 12:14:46.21	229.82	9.44	
2025-01-19 12:14:46.41	229.84	9.45	
2025-01-19 12:14:46.62	229.87	9.46	
2025-01-19 12:14:46.82	229.90	9.48	
2025-01-19 12:14:47.02	229.92	9.49	
2025-01-19 12:14:47.23	229.95	9.50	
2025-01-19 12:14:47.43	229.98	9.51	
2025-01-19 12:14:47.63	230.00	9.52	
2025-01-19 12:14:47.84	230.03	9.53	
2025-01-19 12:14:48.04	230.06	9.55	
2025-01-19 12:14:48.24	230.08	9.56	
2025-01-19 12:14:48.45	230.11	9.57	
2025-01-19 12:14:48.65	230.14	9.58	
2025-01-19 12:14:48.85	230.16	9.59	
2025-01-19 12:14:49.06	230.19	9.60	
2025-01-19 12:14:49.26	230.22	9.62	
2025-01-19 12:14:49.46	230.24	9.63	
2025-01-19 12:14:49.66	230.27	9.64	
2025-01-19 12:14:49.87	230.30	9.65	
2025-01-19 12:14:50.07	230.33	9.66	
2025-01-19 12:14:50.27	230.35	9.67	
2025-01-19 12:14:50.48	230.38	9.69	
2025-01-19 12:14:50.68	230.41	9.70	
2025-01-19 12:14:50.88	230.43	9.71	
2025-01-19 12:14:51.09	230.46	9.72	
2025-01-19 12:14:51.29	230.49	9.73	
2025-01-19 12:14:51.49	230.51	9.74	
2025-01-19 12:14:51.70	230.54	9.76	
2025-01-19 12:14:51.90	230.57	9.77	
2025-01-19 12:14:52.10	230.60	9.78	
2025-01-19 12:14:52.31	230.62	9.79	
2025-01-19 12:14:52.51	230.65	9.80	
2025-01-19 12:14:52.71	230.68	9.81	
2025-01-19 12:14:52.91	230.70	9.83	
2025-01-19 12:14:53.12	230.73	9.84	
2025-01-19 12:14:53.32	230.76	9.85	
2025-01-19 12:14:53.52	230.79	9.86	
2025-01-19 12:14:53.73	230.81	9.87	
2025-01-19 12:14:53.93	230.84	9.88	
2025-01-19 12:14:54.13	230.87	9.90	
2025-01-19 12:14:54.34	230.90	9.91	
2025-01-19 12:14:54.54	230.92	9.92	
2025-01-19 12:14:54.74	230.95	9.93	
2025-01-19 12:14:54.95	230.98	9.94	
2025-01-19 12:14:55.15	231.01	9.95	
2025-01-19 12:14:55.35	231.03	9.97	
2025-01-19 12:14:55.56	231.06	9.98	
2025-01-19 12:14:55.76	231.09	9.99	
2025-01-19 12:14:55.96	231.12	10.00	
2025-01-19 12:14:56.17	231.14	10.01	
2025-01-19 12:14:56.37	231.17	10.02	
2025-01-19 12:14:56.57	231.20	10.04	
2025-01-19 12:14:56.77	231.23	10.05	
2025-01-19 12:14:56.98	231.25	10.06	
2025-01-19 12:14:57.18	231.28	10.07	
2025-01-19 12:14:57.38	231.31	10.08	
2025-01-19 12:14:57.59	231.34	10.09	
2025-01-19 12:14:57.79	231.36	10.11	
2025-01-19 12:14:57.99	231.39	10.12	
2025-01-19 12:14:58.20	231.42	10.13	
2025-01-19 12:14:58.40	231.45	10.14	
2025-01-19 12:14:58.60	231.48	10.15	
2025-01-19 12:14:58.81	231.50	10.16	
2025-01-19 12:14:59.01	231.53	10.18	
2025-01-19 12:14:59.21	231.56	10.19	
2025-01-19 12:14:59.42	231.59	10.20	
2025-01-19 12:14:59.62	231.62	10.21	
2025-01-19 12:14:59.82	231.64	10.22	
2025-01-19 12:15:00.02	231.67	10.23	
2025-01-19 12:15:00.24	231.70	10.25	
2025-01-19 12:15:00.45	231.73	10.26	
2025-01-19 12:15:00.67	231.76	10.27	
2025-01-19 12:15:00.87	231.79	10.28	
2025-01-19 12:15:01.07	231.82	10.29	
2025-01-19 12:15:01.27	231.84	10.31	
2025-01-19 12:15:01.48	231.87	10.32	
2025-01-19 12:15:01.68	231.90	10.33	
2025-01-19 12:15:01.88	231.93	10.34	
2025-01-19 12:15:02.09	231.96	10.35	
2025-01-19 12:15:02.29	231.98	10.36	
2025-01-19 12:15:02.49	232.01	10.38	
2025-01-19 12:15:02.70	232.04	10.39	
2025-01-19 12:15:02.90	232.07	10.40	
2025-01-19 12:15:03.10	232.10	10.41	
2025-01-19 12:15:03.31	232.13	10.42	
2025-01-19 12:15:03.51	232.15	10.43	
2025-01-19 12:15:03.71	232.18	10.45	
2025-01-19 12:15:03.92	232.21	10.46	
2025-01-19 12:15:04.12	232.24	10.47	
2025-01-19 12:15:04.32	232.27	10.48	
2025-01-19 12:15:04.52	232.30	10.49	
2025-01-19 12:15:04.73	232.33	10.50	
2025-01-19 12:15:04.93	232.35	10.52	
2025-01-19 12:15:05.13	232.38	10.53	
2025-01-19 12:15:05.34	232.41	10.54	
2025-01-19 12:15:05.54	232.44	10.55	
2025-01-19 12:15:05.74	232.47	10.56	
2025-01-19 12:15:05.95	232.50	10.57	
2025-01-19 12:15:06.15	232.53	10.59	
2025-01-19 12:15:06.35	232.55	10.60	
2025-01-19 12:15:06.56	232.58	10.61	
2025-01-19 12:15:06.76	232.61	10.62	
2025-01-19 12:15:06.96	232.64	10.63	
2025-01-19 12:15:07.17	232.67	10.64	
2025-01-19 12:15:07.37	232.70	10.66	
2025-01-19 12:15:07.57	232.73	10.67	
2025-01-19 12:15:07.77	232.75	10.68	
2025-01-19 12:15:07.98	232.78	10.69	
2025-01-19 12:15:08.18	232.81	10.70	
2025-01-19 12:15:08.38	232.84	10.71	
2025-01-19 12:15:08.59	232.87	10.73	
2025-01-19 12:15:08.79	232.90	10.74	
2025-01-19 12:15:08.99	232.93	10.75	
2025-01-19 12:15:09.20	232.96	10.76	
2025-01-19 12:15:09.40	232.99	10.77	
2025-01-19 12:15:09.60	233.02	10.78	
2025-01-19 12:15:09.81	233.05	10.80	
2025-01-19 12:15:10.01	233.07	10.81	
2025-01-19 12:15:10.21	233.10	10.82	
2025-01-19 12:15:10.42	233.13	10.83	
2025-01-19 12:15:10.62	233.16	10.84	
2025-01-19 12:15:10.82	233.19	10.85	
2025-01-19 12:15:11.02	233.22	10.86	
2025-01-19 12:15:11.23	233.25	10.88	
2025-01-19 12:15:11.43	233.28	10.89	
2025-01-19 12:15:11.63	233.31	10.90	
2025-01-19 12:15:11.84	233.34	10.91	
2025-01-19 12:15:12.04	233.37	10.92	
2025-01-19 12:15:12.24	233.39	10.93	
2025-01-19 12:15:12.45	233.42	10.95	
2025-01-19 12:15:12.65	233.45	10.96	
2025-01-19 12:15:12.85	233.48	10.97	
2025-01-19 12:15:13.06	233.51	10.98	
2025-01-19 12:15:13.26	233.54	10.99	
2025-01-19 12:15:13.46	233.57	11.00	
2025-01-19 12:15:13.67	233.60	11.02	
2025-01-19 12:15:13.87	233.63	11.03	
2025-01-19 12:15:14.07	233.66	11.04	
2025-01-19 12:15:14.27	233.69	11.05	
2025-01-19 12:15:14.48	233.72	11.06	
2025-01-19 12:15:14.68	233.75	11.07	
2025-01-19 12:15:14.88	233.78	11.09	
2025-01-19 12:15:15.09	233.81	11.10	
2025-01-19 12:15:15.29	233.84	11.11	
2025-01-19 12:15:15.49	233.87	11.12	
2025-01-19 12:15:15.70	233.90	11.13	
2025-01-19 12:15:15.90	233.93	11.14	
2025-01-19 12:15:16.10	233.96	11.15	
2025-01-19 12:15:16.31	233.99	11.17	
2025-01-19 12:15:16.51	234.02	11.18	
2025-01-19 12:15:16.71	234.04	11.19	
2025-01-19 12:15:16.92	234.08	11.20	
2025-01-19 12:15:17.12	234.11	11.21	
2025-01-19 12:15:17.32	234.13	11.22	
2025-01-19 12:15:17.53	234.17	11.24	
2025-01-19 12:15:17.73	234.19	11.25	
2025-01-19 12:15:17.93	234.22	11.26	
2025-01-19 12:15:18.13	234.25	11.27	
2025-01-19 12:15:18.34	234.28	11.28	
2025-01-19 12:15:18.54	234.31	11.29	
2025-01-19 12:15:18.74	234.34	11.31	
2025-01-19 12:15:18.95	234.37	11.32	
2025-01-19 12:15:19.15	234.40	11.33	
2025-01-19 12:15:19.35	234.43	11.34	
2025-01-19 12:15:19.56	234.47	11.35	
2025-01-19 12:15:19.76	234.50	11.36	
2025-01-19 12:15:19.96	234.52	11.38	
2025-01-19 12:15:20.17	234.56	11.39	
2025-01-19 12:15:20.37	234.59	11.40	
2025-01-19 12:15:20.57	234.62	11.41	
2025-01-19 12:15:20.78	234.65	11.42	
2025-01-19 12:15:20.98	234.68	11.43	
2025-01-19 12:15:21.18	234.71	11.44	
2025-01-19 12:15:21.38	234.74	11.46	
2025-01-19 12:15:21.59	234.77	11.47	
2025-01-19 12:15:21.79	234.80	11.48	
2025-01-19 12:15:21.99	234.83	11.49	
2025-01-19 12:15:22.20	234.86	11.50	
2025-01-19 12:15:22.40	234.89	11.51	
2025-01-19 12:15:22.60	234.92	11.53	
2025-01-19 12:15:22.81	234.95	11.54	
2025-01-19 12:15:23.01	234.98	11.55	
2025-01-19 12:15:23.21	235.01	11.56	
2025-01-19 12:15:23.42	235.04	11.57	
2025-01-19 12:15:23.62	235.07	11.58	
2025-01-19 12:15:23.82	235.10	11.59	
2025-01-19 12:15:24.03	235.13	11.61	
2025-01-19 12:15:24.23	235.16	11.62	
2025-01-19 12:15:24.43	235.19	11.63	
2025-01-19 12:15:24.63	235.22	11.64	
2025-01-19 12:15:24.84	235.26	11.65	
2025-01-19 12:15:25.04	235.29	11.66	
2025-01-19 12:15:25.24	235.32	11.68	
2025-01-19 12:15:25.45	235.35	11.69	
2025-01-19 12:15:25.65	235.38	11.70	
2025-01-19 12:15:25.85	235.41	11.71	
2025-01-19 12:15:26.06	235.44	11.72	
2025-01-19 12:15:26.26	235.47	11.73	
2025-01-19 12:15:26.46	235.50	11.74	
2025-01-19 12:15:26.67	235.53	11.76	
2025-01-19 12:15:26.87	235.56	11.77	
2025-01-19 12:15:27.07	235.60	11.78	
2025-01-19 12:15:27.28	235.63	11.79	
2025-01-19 12:15:27.48	235.66	11.80	
2025-01-19 12:15:27.68	235.69	11.81	
2025-01-19 12:15:27.88	235.72	11.82	
2025-01-19 12:15:28.09	235.75	11.84	
2025-01-19 12:15:28.29	235.78	11.85	
2025-01-19 12:15:28.49	235.81	11.86	
2025-01-19 12:15:28.70	235.84	11.87	
2025-01-19 12:15:28.90	235.88	11.88	
2025-01-19 12:15:29.10	235.91	11.89	
2025-01-19 12:15:29.31	235.94	11.91	
2025-01-19 12:15:29.51	235.97	11.92	
2025-01-19 12:15:29.71	236.00	11.93	
2025-01-19 12:15:29.92	236.03	11.94	
2025-01-19 12:15:30.12	236.06	11.95	
2025-01-19 12:15:30.32	236.09	11.96	
2025-01-19 12:15:30.53	236.13	11.97	
2025-01-19 12:15:30.73	236.16	11.99	
2025-01-19 12:15:30.93	236.19	12.00	
2025-01-19 12:15:31.14	236.22	12.01	
2025-01-19 12:15:31.34	236.25	12.02	
2025-01-19 12:15:31.54	236.28	12.03	
2025-01-19 12:15:31.74	236.31	12.04	
2025-01-19 12:15:31.95	236.35	12.05	
2025-01-19 12:15:32.15	236.38	12.07	
2025-01-19 12:15:32.35	236.41	12.08	
2025-01-19 12:15:32.56	236.44	12.09	
2025-01-19 12:15:32.76	236.47	12.10	
2025-01-19 12:15:32.96	236.50	12.11	
2025-01-19 12:15:33.17	236.54	12.12	
2025-01-19 12:15:33.37	236.57	12.13	
2025-01-19 12:15:33.57	236.60	12.15	
2025-01-19 12:15:33.78	236.63	12.16	
2025-01-19 12:15:33.98	236.66	12.17	
2025-01-19 12:15:34.18	236.69	12.18	
2025-01-19 12:15:34.39	236.73	12.19	
2025-01-19 12:15:34.59	236.76	12.20	
2025-01-19 12:15:34.79	236.79	12.21	
2025-01-19 12:15:34.99	236.82	12.23	
2025-01-19 12:15:35.20	236.85	12.24	
2025-01-19 12:15:35.40	236.89	12.25	
2025-01-19 12:15:35.60	236.92	12.26	
2025-01-19 12:15:35.81	236.95	12.27	
2025-01-19 12:15:36.01	236.98	12.28	
2025-01-19 12:15:36.21	237.01	12.29	
2025-01-19 12:15:36.42	237.05	12.31	
2025-01-19 12:15:36.62	237.08	12.32	
2025-01-19 12:15:36.82	237.11	12.33	
2025-01-19 12:15:37.03	237.14	12.34	
2025-01-19 12:15:37.23	237.17	12.35	
2025-01-19 12:15:37.43	237.21	12.36	
2025-01-19 12:15:37.64	237.24	12.37	
2025-01-19 12:15:37.84	237.27	12.39	
2025-01-19 12:15:38.04	237.30	12.40	
2025-01-19 12:15:38.24	237.34	12.41	
2025-01-19 12:15:38.45	237.37	12.42	
2025-01-19 12:15:38.65	237.40	12.43	
2025-01-19 12:15:38.85	237.43	12.44	
2025-01-19 12:15:39.06	237.47	12.45	
2025-01-19 12:15:39.26	237.50	12.46	
2025-01-19 12:15:39.46	237.53	12.48	
2025-01-19 12:15:39.67	237.56	12.49	
2025-01-19 12:15:39.87	237.60	12.50	
2025-01-19 12:15:40.07	237.63	12.51	
2025-01-19 12:15:40.28	237.66	12.52	
2025-01-19 12:15:40.48	237.69	12.53	
2025-01-19 12:15:40.68	237.73	12.54	
2025-01-19 12:15:40.89	237.76	12.56	
2025-01-19 12:15:41.09	237.79	12.57	
2025-01-19 12:15:41.29	237.82	12.58	
2025-01-19 12:15:41.49	237.86	12.59	
2025-01-19 12:15:41.70	237.89	12.60	
2025-01-19 12:15:41.90	237.92	12.61	
2025-01-19 12:15:42.10	237.95	12.62	
2025-01-19 12:15:42.31	237.99	12.63	
2025-01-19 12:15:42.51	238.02	12.65	
2025-01-19 12:15:42.71	238.05	12.66	
2025-01-19 12:15:42.92	238.09	12.67	
2025-01-19 12:15:43.12	238.12	12.68	
2025-01-19 12:15:43.32	238.15	12.69	
2025-01-19 12:15:43.53	238.18	12.70	
2025-01-19 12:15:43.73	238.22	12.71	
2025-01-19 12:15:43.93	238.25	12.73	
2025-01-19 12:15:44.14	238.28	12.74	
2025-01-19 12:15:44.34	238.32	12.75	
2025-01-19 12:15:44.54	238.35	12.76	
2025-01-19 12:15:44.74	238.38	12.77	
2025-01-19 12:15:44.95	238.42	12.78	
2025-01-19 12:15:45.15	238.45	12.79	
2025-01-19 12:15:45.35	238.48	12.80	
2025-01-19 12:15:45.56	238.52	12.82	
2025-01-19 12:15:45.76	238.55	12.83	
2025-01-19 12:15:45.96	238.58	12.84	
2025-01-19 12:15:46.17	238.61	12.85	
2025-01-19 12:15:46.37	238.65	12.86	
2025-01-19 12:15:46.57	238.68	12.87	
2025-01-19 12:15:46.78	238.71	12.88	
2025-01-19 12:15:46.98	238.75	12.89	
2025-01-19 12:15:47.18	238.78	12.91	
2025-01-19 12:15:47.39	238.81	12.92	
2025-01-19 12:15:47.59	238.85	12.93	
2025-01-19 12:15:47.79	238.88	12.94	
2025-01-19 12:15:47.99	238.91	12.95	
2025-01-19 12:15:48.20	238.95	12.96	
2025-01-19 12:15:48.40	238.98	12.97	
2025-01-19 12:15:48.60	239.01	12.98	
2025-01-19 12:15:48.81	239.05	12.99	
2025-01-19 12:15:49.01	239.08	13.01	
2025-01-19 12:15:49.21	239.12	13.02	
2025-01-19 12:15:49.42	239.15	13.03	
2025-01-19 12:15:49.62	239.18	13.04	
2025-01-19 12:15:49.82	239.22	13.05	
2025-01-19 12:15:50.03	239.25	13.06	
2025-01-19 12:15:50.23	239.28	13.07	
2025-01-19 12:15:50.43	239.32	13.08	
2025-01-19 12:15:50.64	239.35	13.10	
2025-01-19 12:15:50.84	239.39	13.11	
2025-01-19 12:15:51.04	239.42	13.12	
2025-01-19 12:15:51.25	239.45	13.13	
2025-01-19 12:15:51.45	239.49	13.14	
2025-01-19 12:15:51.65	239.52	13.15	
2025-01-19 12:15:51.85	239.55	13.16	
2025-01-19 12:15:52.06	239.59	13.17	
2025-01-19 12:15:52.26	239.62	13.18	
2025-01-19 12:15:52.46	239.66	13.20	
2025-01-19 12:15:52.67	239.69	13.21	
2025-01-19 12:15:52.87	239.72	13.22	
2025-01-19 12:15:53.07	239.76	13.23	
2025-01-19 12:15:53.28	239.79	13.24	
2025-01-19 12:15:53.48	239.83	13.25	
2025-01-19 12:15:53.68	239.86	13.26	
2025-01-19 12:15:53.89	239.90	13.27	
2025-01-19 12:15:54.09	239.93	13.28	
2025-01-19 12:15:54.29	239.96	13.30	
2025-01-19 12:15:54.50	240.00	13.31	
2025-01-19 12:15:54.70	240.03	13.32	
2025-01-19 12:15:54.90	240.07	13.33	
2025-01-19 12:15:55.10	240.10	13.34	
2025-01-19 12:15:55.31	240.14	13.35	
2025-01-19 12:15:55.51	240.17	13.36	
2025-01-19 12:15:55.71	240.20	13.37	
2025-01-19 12:15:55.92	240.24	13.38	
2025-01-19 12:15:56.12	240.27	13.40	
2025-01-19 12:15:56.32	240.31	13.41	
2025-01-19 12:15:56.53	240.34	13.42	
2025-01-19 12:15:56.73	240.38	13.43	
2025-01-19 12:15:56.93	240.41	13.44	
2025-01-19 12:15:57.14	240.45	13.45	
2025-01-19 12:15:57.34	240.48	13.46	
2025-01-19 12:15:57.54	240.51	13.47	
2025-01-19 12:15:57.75	240.55	13.48	
2025-01-19 12:15:57.95	240.58	13.49	
2025-01-19 12:15:58.15	240.62	13.51	
2025-01-19 12:15:58.35	240.65	13.52	
2025-01-19 12:15:58.56	240.69	13.53	
2025-01-19 12:15:58.76	240.72	13.54	
2025-01-19 12:15:58.96	240.76	13.55	
2025-01-19 12:15:59.17	240.79	13.56	
2025-01-19 12:15:59.37	240.83	13.57	
2025-01-19 12:15:59.57	240.86	13.58	
2025-01-19 12:15:59.78	240.90	13.59	
2025-01-19 12:15:59.98	240.93	13.60	
2025-01-19 12:16:00.18	240.97	13.62	
2025-01-19 12:16:00.39	241.00	13.63	
2025-01-19 12:16:00.59	241.04	13.64	
2025-01-19 12:16:00.79	241.07	13.65	
2025-01-19 12:16:01.00	241.11	13.66	
2025-01-19 12:16:01.20	241.14	13.67	
2025-01-19 12:16:01.40	241.18	13.68	
2025-01-19 12:16:01.60	241.21	13.69	
2025-01-19 12:16:01.81	241.25	13.70	
2025-01-19 12:16:02.01	241.28	13.71	
2025-01-19 12:16:02.21	241.32	13.72	
2025-01-19 12:16:02.42	241.35	13.74	
2025-01-19 12:16:02.62	241.39	13.75	
2025-01-19 12:16:02.82	241.42	13.76	
2025-01-19 12:16:03.03	241.46	13.77	
2025-01-19 12:16:03.23	241.49	13.78	
2025-01-19 12:16:03.43	241.53	13.79	
2025-01-19 12:16:03.64	241.57	13.80	
2025-01-19 12:16:03.84	241.60	13.81	
2025-01-19 12:16:04.04	241.64	13.82	
2025-01-19 12:16:04.25	241.67	13.83	
2025-01-19 12:16:04.45	241.71	13.84	
2025-01-19 12:16:04.65	241.74	13.85	
2025-01-19 12:16:04.85	241.78	13.87	
2025-01-19 12:16:05.06	241.81	13.88	
2025-01-19 12:16:05.26	241.85	13.89	
2025-01-19 12:16:05.46	241.88	13.90	
2025-01-19 12:16:05.67	241.92	13.91	
2025-01-19 12:16:05.87	241.96	13.92	
2025-01-19 12:16:06.07	241.99	13.93	
2025-01-19 12:16:06.28	242.03	13.94	
2025-01-19 12:16:06.48	242.06	13.95	
2025-01-19 12:16:06.68	242.10	13.96	
2025-01-19 12:16:06.89	242.14	13.97	
2025-01-19 12:16:07.09	242.17	13.98	
2025-01-19 12:16:07.29	242.21	14.00	
2025-01-19 12:16:07.50	242.24	14.01	
2025-01-19 12:16:07.70	242.28	14.02	
2025-01-19 12:16:07.90	242.31	14.03	
2025-01-19 12:16:08.11	242.35	14.04	
2025-01-19 12:16:08.31	242.39	14.05	
2025-01-19 12:16:08.51	242.42	14.06	
2025-01-19 12:16:08.71	242.46	14.07	
2025-01-19 12:16:08.92	242.49	14.08	
2025-01-19 12:16:09.12	242.53	14.09	
2025-01-19 12:16:09.32	242.57	14.10	
2025-01-19 12:16:09.53	242.60	14.11	
2025-01-19 12:16:09.73	242.64	14.12	
2025-01-19 12:16:09.93	242.67	14.13	
2025-01-19 12:16:10.14	242.71	14.15	
2025-01-19 12:16:10.34	242.75	14.16	
2025-01-19 12:16:10.54	242.78	14.17	
2025-01-19 12:16:10.75	242.82	14.18	
2025-01-19 12:16:10.95	242.86	14.19	
2025-01-19 12:16:11.15	242.89	14.20	
2025-01-19 12:16:11.35	242.93	14.21	
2025-01-19 12:16:11.56	242.96	14.22	
2025-01-19 12:16:11.76	243.00	14.23	
2025-01-19 12:16:11.96	243.04	14.24	
2025-01-19 12:16:12.17	243.07	14.25	
2025-01-19 12:16:12.37	243.11	14.26	
2025-01-19 12:16:12.57	243.15	14.27	
2025-01-19 12:16:12.78	243.18	14.28	
2025-01-19 12:16:12.98	243.22	14.29	
2025-01-19 12:16:13.18	243.26	14.31	
2025-01-19 12:16:13.39	243.29	14.32	
2025-01-19 12:16:13.59	243.33	14.33	
2025-01-19 12:16:13.79	243.37	14.34	
2025-01-19 12:16:14.00	243.40	14.35	
2025-01-19 12:16:14.20	243.44	14.36	
2025-01-19 12:16:14.40	243.48	14.37	
2025-01-19 12:16:14.61	243.51	14.38	
2025-01-19 12:16:14.81	243.55	14.39	
2025-01-19 12:16:15.01	243.59	14.40	
2025-01-19 12:16:15.21	243.62	14.41	
2025-01-19 12:16:15.42	243.66	14.42	
2025-01-19 12:16:15.62	243.70	14.43	
2025-01-19 12:16:15.82	243.73	14.44	
2025-01-19 12:16:16.03	243.77	14.45	
2025-01-19 12:16:16.23	243.81	14.46	
2025-01-19 12:16:16.43	243.84	14.47	
2025-01-19 12:16:16.64	243.88	14.48	
2025-01-19 12:16:16.84	243.92	14.50	
2025-01-19 12:16:17.04	243.96	14.51	
2025-01-19 12:16:17.25	243.99	14.52	
2025-01-19 12:16:17.45	244.03	14.53	
2025-01-19 12:16:17.65	244.07	14.54	
2025-01-19 12:16:17.86	244.11	14.55	
2025-01-19 12:16:18.06	244.14	14.56	
2025-01-19 12:16:18.26	244.18	14.57	
2025-01-19 12:16:18.46	244.21	14.58	
2025-01-19 12:16:18.67	244.25	14.59	
2025-01-19 12:16:18.87	244.29	14.60	
2025-01-19 12:16:19.07	244.33	14.61	
2025-01-19 12:16:19.28	244.37	14.62	
2025-01-19 12:16:19.48	244.40	14.63	
2025-01-19 12:16:19.68	244.44	14.64	
2025-01-19 12:16:19.89	244.48	14.65	
2025-01-19 12:16:20.09	244.51	14.66	
2025-01-19 12:16:20.29	244.55	14.67	
2025-01-19 12:16:20.50	244.59	14.68	
2025-01-19 12:16:20.70	244.63	14.69	
2025-01-19 12:16:20.90	244.66	14.70	
2025-01-19 12:16:21.11	244.70	14.71	
2025-01-19 12:16:21.31	244.74	14.72	
2025-01-19 12:16:21.51	244.78	14.73	
2025-01-19 12:16:21.71	244.81	14.74	
2025-01-19 12:16:21.92	244.85	14.76	
2025-01-19 12:16:22.12	244.89	14.77	
2025-01-19 12:16:22.32	244.93	14.78	
2025-01-19 12:16:22.53	244.97	14.79	
2025-01-19 12:16:22.73	245.00	14.80	
2025-01-19 12:16:22.93	245.04	14.81	
2025-01-19 12:16:23.14	245.08	14.82	
2025-01-19 12:16:23.34	245.12	14.83	
2025-01-19 12:16:23.54	245.15	14.84	
2025-01-19 12:16:23.75	245.19	14.85	
2025-01-19 12:16:23.95	245.23	14.86	
2025-01-19 12:16:24.15	245.27	14.87	
2025-01-19 12:16:24.36	245.31	14.88	
2025-01-19 12:16:24.56	245.34	14.89	
2025-01-19 12:16:24.76	245.38	14.90	
2025-01-19 12:16:24.96	245.42	14.91	
2025-01-19 12:16:25.17	245.46	14.92	
2025-01-19 12:16:25.37	245.50	14.93	
2025-01-19 12:16:25.57	245.53	14.94	
2025-01-19 12:16:25.78	245.57	14.95	
2025-01-19 12:16:25.98	245.61	14.96	
2025-01-19 12:16:26.18	245.65	14.97	
2025-01-19 12:16:26.39	245.69	14.98	
2025-01-19 12:16:26.59	245.73	14.99	
2025-01-19 12:16:26.79	245.76	15.00	
2025-01-19 12:16:27.00	245.80	15.01	
2025-01-19 12:16:27.20	245.84	15.02	
2025-01-19 12:16:27.40	245.88	15.03	
2025-01-19 12:16:27.61	245.92	15.04	
2025-01-19 12:16:27.81	245.96	15.05	
2025-01-19 12:16:28.01	245.99	15.06	
2025-01-19 12:16:28.22	246.03	15.07	
2025-01-19 12:16:28.42	246.07	15.08	
2025-01-19 12:16:28.62	246.11	15.09	
2025-01-19 12:16:28.82	246.15	15.10	
2025-01-19 12:16:29.03	246.19	15.11	
2025-01-19 12:16:29.23	246.22	15.12	
2025-01-19 12:16:29.43	246.26	15.13	
2025-01-19 12:16:29.64	246.30	15.14	
2025-01-19 12:16:29.84	246.34	15.15	
2025-01-19 12:16:30.04	246.38	15.16	
2025-01-19 12:16:30.25	246.42	15.17	
2025-01-19 12:16:30.45	246.46	15.18	
2025-01-19 12:16:30.65	246.49	15.19	
2025-01-19 12:16:30.86	246.53	15.20	
2025-01-19 12:16:31.06	246.57	15.21	
2025-01-19 12:16:31.26	246.61	15.22	
2025-01-19 12:16:31.47	246.65	15.23	
2025-01-19 12:16:31.67	246.69	15.24	
2025-01-19 12:16:31.87	246.73	15.25	
2025-01-19 12:16:32.07	246.77	15.26	
2025-01-19 12:16:32.28	246.81	15.27	
2025-01-19 12:16:32.48	246.84	15.28	
2025-01-19 12:16:32.68	246.88	15.29	
2025-01-19 12:16:32.89	246.92	15.30	
2025-01-19 12:16:33.09	246.96	15.31	
2025-01-19 12:16:33.29	247.00	15.32	
2025-01-19 12:16:33.50	247.04	15.33	
2025-01-19 12:16:33.70	247.08	15.34	
2025-01-19 12:16:33.90	247.12	15.35	
2025-01-19 12:16:34.11	247.16	15.36	
2025-01-19 12:16:34.31	247.20	15.37	
2025-01-19 12:16:34.51	247.24	15.38	
2025-01-19 12:16:34.72	247.28	15.39	
2025-01-19 12:16:34.92	247.31	15.40	
2025-01-19 12:16:35.12	247.35	15.41	
2025-01-19 12:16:35.32	247.39	15.42	
2025-01-19 12:16:35.53	247.43	15.43	
2025-01-19 12:16:35.73	247.47	15.44	
2025-01-19 12:16:35.93	247.51	15.45	
2025-01-19 12:16:36.14	247.55	15.46	
2025-01-19 12:16:36.34	247.59	15.47	
2025-01-19 12:16:36.54	247.63	15.48	
2025-01-19 12:16:36.75	247.67	15.49	
2025-01-19 12:16:36.95	247.71	15.50	
2025-01-19 12:16:37.15	247.75	15.51	
2025-01-19 12:16:37.36	247.79	15.52	
2025-01-19 12:16:37.56	247.83	15.53	
2025-01-19 12:16:37.76	247.87	15.54	
2025-01-19 12:16:37.97	247.91	15.55	
2025-01-19 12:16:38.17	247.95	15.56	
2025-01-19 12:16:38.37	247.99	15.57	
2025-01-19 12:16:38.57	248.02	15.58	
2025-01-19 12:16:38.78	248.07	15.59	
2025-01-19 12:16:38.98	248.10	15.59	
2025-01-19 12:16:39.18	248.14	15.60	
2025-01-19 12:16:39.39	248.18	15.61	
2025-01-19 12:16:39.59	248.22	15.62	
2025-01-19 12:16:39.79	248.26	15.63	
2025-01-19 12:16:40.00	248.30	15.64	
2025-01-19 12:16:40.20	248.34	15.65	
2025-01-19 12:16:40.40	248.38	15.66	
2025-01-19 12:16:40.61	248.42	15.67	
2025-01-19 12:16:40.81	248.46	15.68	
2025-01-19 12:16:41.01	248.50	15.69	
2025-01-19 12:16:41.22	248.54	15.70	
2025-01-19 12:16:41.42	248.58	15.71	
2025-01-19 12:16:41.62	248.62	15.72	
2025-01-19 12:16:41.82	248.66	15.73	
2025-01-19 12:16:42.03	248.70	15.74	
2025-01-19 12:16:42.23	248.74	15.75	
2025-01-19 12:16:42.43	248.78	15.76	
2025-01-19 12:16:42.64	248.83	15.77	
2025-01-19 12:16:42.84	248.86	15.78	
2025-01-19 12:16:43.04	248.90	15.79	
2025-01-19 12:16:43.25	248.95	15.79	
2025-01-19 12:16:43.45	248.99	15.80	
2025-01-19 12:16:43.65	249.03	15.81	
2025-01-19 12:16:43.86	249.07	15.82	
2025-01-19 12:16:44.06	249.11	15.83	
2025-01-19 12:16:44.26	249.15	15.84	
2025-01-19 12:16:44.47	249.19	15.85	
2025-01-19 12:16:44.67	249.23	15.86	
2025-01-19 12:16:44.87	249.27	15.87	
2025-01-19 12:16:45.07	249.31	15.88	
2025-01-19 12:16:45.28	249.35	15.89	
2025-01-19 12:16:45.48	249.39	15.90	
2025-01-19 12:16:45.68	249.43	15.91	
2025-01-19 12:16:45.89	249.47	15.92	
2025-01-19 12:16:46.09	249.51	15.93	
2025-01-19 12:16:46.29	249.55	15.94	
2025-01-19 12:16:46.50	249.59	15.94	
2025-01-19 12:16:46.70	249.63	15.95	
2025-01-19 12:16:46.90	249.67	15.96	
2025-01-19 12:16:47.11	249.72	15.97	
2025-01-19 12:16:47.31	249.76	15.98	
2025-01-19 12:16:47.51	249.80	15.99	
2025-01-19 12:16:47.72	249.84	16.00	
2025-01-19 12:16:47.92	249.88	16.01	
2025-01-19 12:16:48.12	249.92	16.02	
2025-01-19 12:16:48.33	249.96	16.03	
2025-01-19 12:16:48.53	250.00	16.04	
2025-01-19 12:16:48.73	250.04	16.05	
2025-01-19 12:16:48.93	250.08	16.06	
2025-01-19 12:16:49.14	250.12	16.06	
2025-01-19 12:16:49.34	250.16	16.07	
2025-01-19 12:16:49.54	250.21	16.08	
2025-01-19 12:16:49.75	250.25	16.09	
2025-01-19 12:16:49.95	250.29	16.10	
2025-01-19 12:16:50.15	250.33	16.11	
2025-01-19 12:16:50.36	250.37	16.12	
2025-01-19 12:16:50.56	250.41	16.13	
2025-01-19 12:16:50.76	250.45	16.14	
2025-01-19 12:16:50.97	250.49	16.15	
2025-01-19 12:16:51.17	250.54	16.16	
2025-01-19 12:16:51.37	250.58	16.16	
2025-01-19 12:16:51.58	250.62	16.17	
2025-01-19 12:16:51.78	250.66	16.18	
2025-01-19 12:16:51.98	250.70	16.19	
2025-01-19 12:16:52.18	250.74	16.20	
2025-01-19 12:16:52.39	250.78	16.21	
2025-01-19 12:16:52.59	250.82	16.22	
2025-01-19 12:16:52.79	250.87	16.23	
2025-01-19 12:16:53.00	250.91	16.24	
2025-01-19 12:16:53.20	250.95	16.25	
2025-01-19 12:16:53.40	250.99	16.25	
2025-01-19 12:16:53.61	251.03	16.26	
2025-01-19 12:16:53.81	251.07	16.27	
2025-01-19 12:16:54.01	251.11	16.28	
2025-01-19 12:16:54.22	251.16	16.29	
2025-01-19 12:16:54.42	251.20	16.30	
2025-01-19 12:16:54.62	251.24	16.31	
2025-01-19 12:16:54.83	251.28	16.32	
2025-01-19 12:16:55.03	251.32	16.33	
2025-01-19 12:16:55.23	251.36	16.33	
2025-01-19 12:16:55.43	251.41	16.34	
2025-01-19 12:16:55.64	251.45	16.35	
2025-01-19 12:16:55.84	251.49	16.36	
2025-01-19 12:16:56.04	251.53	16.37	
2025-01-19 12:16:56.25	251.57	16.38	
2025-01-19 12:16:56.45	251.62	16.39	
2025-01-19 12:16:56.65	251.66	16.40	
2025-01-19 12:16:56.86	251.70	16.40	
2025-01-19 12:16:57.06	251.74	16.41	
2025-01-19 12:16:57.26	251.78	16.42	
2025-01-19 12:16:57.47	251.83	16.43	
2025-01-19 12:16:57.67	251.87	16.44	
2025-01-19 12:16:57.87	251.91	16.45	
2025-01-19 12:16:58.08	251.95	16.46	
2025-01-19 12:16:58.28	251.99	16.47	
2025-01-19 12:16:58.48	252.04	16.47	
2025-01-19 12:16:58.68	252.08	16.48	
2025-01-19 12:16:58.89	252.12	16.49	
2025-01-19 12:16:59.09	252.16	16.50	
2025-01-19 12:16:59.29	252.20	16.51	
2025-01-19 12:16:59.50	252.25	16.52	
2025-01-19 12:16:59.70	252.29	16.53	
2025-01-19 12:16:59.90	252.33	16.53	
2025-01-19 12:17:00.11	252.37	16.54	
2025-01-19 12:17:00.31	252.42	16.55	
2025-01-19 12:17:00.51	252.46	16.56	
2025-01-19 12:17:00.72	252.50	16.57	
2025-01-19 12:17:00.92	252.54	16.58	
2025-01-19 12:17:01.12	252.58	16.58	
2025-01-19 12:17:01.33	252.63	16.59	
2025-01-19 12:17:01.53	252.67	16.60	
2025-01-19 12:17:01.73	252.71	16.61	
2025-01-19 12:17:01.93	252.75	16.62	
2025-01-19 12:17:02.14	252.80	16.63	
2025-01-19 12:17:02.34	252.84	16.64	
2025-01-19 12:17:02.54	252.88	16.64	
2025-01-19 12:17:02.75	252.93	16.65	
2025-01-19 12:17:02.95	252.97	16.66	
2025-01-19 12:17:03.15	253.01	16.67	
2025-01-19 12:17:03.36	253.05	16.68	
2025-01-19 12:17:03.56	253.10	16.69	
2025-01-19 12:17:03.76	253.14	16.69	
2025-01-19 12:17:03.97	253.18	16.70	
2025-01-19 12:17:04.17	253.22	16.71	
2025-01-19 12:17:04.37	253.27	16.72	
2025-01-19 12:17:04.58	253.31	16.73	
2025-01-19 12:17:04.78	253.35	16.74	
2025-01-19 12:17:04.98	253.39	16.74	
2025-01-19 12:17:05.18	253.44	16.75	
2025-01-19 12:17:05.39	253.48	16.76	
2025-01-19 12:17:05.59	253.52	16.77	
2025-01-19 12:17:05.79	253.56	16.78	
2025-01-19 12:17:06.00	253.61	16.79	
2025-01-19 12:17:06.20	253.65	16.79	
2025-01-19 12:17:06.40	253.69	16.80	
2025-01-19 12:17:06.61	253.74	16.81	
2025-01-19 12:17:06.81	253.78	16.82	
2025-01-19 12:17:07.01	253.82	16.83	
2025-01-19 12:17:07.22	253.87	16.83	
2025-01-19 12:17:07.42	253.91	16.84	
2025-01-19 12:17:07.62	253.95	16.85	
2025-01-19 12:17:07.83	254.00	16.86	
2025-01-19 12:17:08.03	254.04	16.87	
2025-01-19 12:17:08.23	254.08	16.87	
2025-01-19 12:17:08.44	254.13	16.88	
2025-01-19 12:17:08.64	254.17	16.89	
2025-01-19 12:17:08.84	254.21	16.90	
2025-01-19 12:17:09.04	254.25	16.91	
2025-01-19 12:17:09.25	254.30	16.91	
2025-01-19 12:17:09.45	254.34	16.92	
2025-01-19 12:17:09.65	254.38	16.93	
2025-01-19 12:17:09.86	254.43	16.94	
2025-01-19 12:17:10.06	254.47	16.95	
2025-01-19 12:17:10.26	254.51	16.95	
2025-01-19 12:17:10.47	254.56	16.96	
2025-01-19 12:17:10.67	254.60	16.97	
2025-01-19 12:17:10.87	254.65	16.98	
2025-01-19 12:17:11.08	254.69	16.99	
2025-01-19 12:17:11.28	254.73	16.99	
2025-01-19 12:17:11.48	254.78	17.00	
2025-01-19 12:17:11.69	254.82	17.01	
2025-01-19 12:17:11.89	254.86	17.02	
2025-01-19 12:17:12.09	254.91	17.03	
2025-01-19 12:17:12.29	254.95	17.03	
2025-01-19 12:17:12.50	255.00	17.04	
2025-01-19 12:17:12.70	255.04	17.05	
2025-01-19 12:17:12.90	255.08	17.06	
2025-01-19 12:17:13.11	255.13	17.06	
2025-01-19 12:17:13.31	255.17	17.07	
2025-01-19 12:17:13.51	255.21	17.08	
2025-01-19 12:17:13.72	255.26	17.09	
2025-01-19 12:17:13.92	255.30	17.09	
2025-01-19 12:17:14.12	255.34	17.10	
2025-01-19 12:17:14.33	255.39	17.11	
2025-01-19 12:17:14.53	255.43	17.12	
2025-01-19 12:17:14.73	255.48	17.13	
2025-01-19 12:17:14.94	255.52	17.13	
2025-01-19 12:17:15.14	255.56	17.14	
2025-01-19 12:17:15.34	255.61	17.15	
2025-01-19 12:17:15.54	255.65	17.16	
2025-01-19 12:17:15.75	255.70	17.16	
2025-01-19 12:17:15.95	255.74	17.17	
2025-01-19 12:17:16.15	255.78	17.18	
2025-01-19 12:17:16.36	255.83	17.19	
2025-01-19 12:17:16.56	255.87	17.19	
2025-01-19 12:17:16.76	255.92	17.20	
2025-01-19 12:17:16.97	255.96	17.21	
2025-01-19 12:17:17.17	256.00	17.22	
2025-01-19 12:17:17.37	256.05	17.22	
2025-01-19 12:17:17.58	256.09	17.23	
2025-01-19 12:17:17.78	256.14	17.24	
2025-01-19 12:17:17.98	256.18	17.25	
2025-01-19 12:17:18.19	256.23	17.25	
2025-01-19 12:17:18.39	256.27	17.26	
2025-01-19 12:17:18.59	256.31	17.27	
2025-01-19 12:17:18.79	256.36	17.28	
2025-01-19 12:17:19.00	256.40	17.28	
2025-01-19 12:17:19.20	256.45	17.29	
2025-01-19 12:17:19.40	256.49	17.30	
2025-01-19 12:17:19.61	256.54	17.30	
2025-01-19 12:17:19.81	256.58	17.31	
2025-01-19 12:17:20.01	256.62	17.32	
2025-01-19 12:17:20.22	256.67	17.33	
2025-01-19 12:17:20.42	256.71	17.33	
2025-01-19 12:17:20.62	256.76	17.34	
2025-01-19 12:17:20.83	256.80	17.35	
2025-01-19 12:17:21.03	256.85	17.36	
2025-01-19 12:17:21.23	256.89	17.36	
2025-01-19 12:17:21.44	256.94	17.37	
2025-01-19 12:17:21.64	256.98	17.38	
2025-01-19 12:17:21.84	257.03	17.38	
2025-01-19 12:17:22.05	257.07	17.39	
2025-01-19 12:17:22.25	257.12	17.40	
2025-01-19 12:17:22.45	257.16	17.41	
2025-01-19 12:17:22.65	257.20	17.41	
2025-01-19 12:17:22.86	257.25	17.42	
2025-01-19 12:17:23.06	257.29	17.43	
2025-01-19 12:17:23.26	257.34	17.43	
2025-01-19 12:17:23.47	257.38	17.44	
2025-01-19 12:17:23.67	257.43	17.45	
2025-01-19 12:17:23.87	257.47	17.45	
2025-01-19 12:17:24.08	257.52	17.46	
2025-01-19 12:17:24.28	257.56	17.47	
2025-01-19 12:17:24.48	257.61	17.48	
2025-01-19 12:17:24.69	257.65	17.48	
2025-01-19 12:17:24.89	257.70	17.49	
2025-01-19 12:17:25.09	257.74	17.50	
2025-01-19 12:17:25.30	257.79	17.50	
2025-01-19 12:17:25.50	257.83	17.51	
2025-01-19 12:17:25.70	257.88	17.52	
2025-01-19 12:17:25.90	257.92	17.52	
2025-01-19 12:17:26.11	257.97	17.53	
2025-01-19 12:17:26.31	258.01	17.54	
2025-01-19 12:17:26.51	258.06	17.54	
2025-01-19 12:17:26.72	258.10	17.55	
2025-01-19 12:17:26.92	258.15	17.56	
2025-01-19 12:17:27.12	258.19	17.56	
2025-01-19 12:17:27.33	258.24	17.57	
2025-01-19 12:17:27.53	258.28	17.58	
2025-01-19 12:17:27.73	258.33	17.58	
2025-01-19 12:17:27.94	258.37	17.59	
2025-01-19 12:17:28.14	258.42	17.60	
2025-01-19 12:17:28.34	258.46	17.60	
2025-01-19 12:17:28.55	258.51	17.61	
2025-01-19 12:17:28.75	258.55	17.62	
2025-01-19 12:17:28.95	258.60	17.62	
2025-01-19 12:17:29.15	258.64	17.63	
2025-01-19 12:17:29.36	258.69	17.64	
2025-01-19 12:17:29.56	258.74	17.64	
2025-01-19 12:17:29.76	258.78	17.65	
2025-01-19 12:17:29.97	258.83	17.66	
2025-01-19 12:17:30.17	258.87	17.66	
2025-01-19 12:17:30.37	258.92	17.67	
2025-01-19 12:17:30.58	258.96	17.68	
2025-01-19 12:17:30.78	259.01	17.68	
2025-01-19 12:17:30.98	259.05	17.69	
2025-01-19 12:17:31.19	259.10	17.70	
2025-01-19 12:17:31.39	259.15	17.70	
2025-01-19 12:17:31.59	259.19	17.71	
2025-01-19 12:17:31.80	259.24	17.72	
2025-01-19 12:17:32.00	259.28	17.72	
2025-01-19 12:17:32.20	259.33	17.73	
2025-01-19 12:17:32.40	259.37	17.73	
2025-01-19 12:17:32.61	259.42	17.74	
2025-01-19 12:17:32.81	259.46	17.75	
2025-01-19 12:17:33.01	259.51	17.75	
2025-01-19 12:17:33.22	259.56	17.76	
2025-01-19 12:17:33.42	259.60	17.77	
2025-01-19 12:17:33.62	259.65	17.77	
2025-01-19 12:17:33.83	259.69	17.78	
2025-01-19 12:17:34.03	259.74	17.78	
2025-01-19 12:17:34.23	259.78	17.79	
2025-01-19 12:17:34.44	259.83	17.80	
2025-01-19 12:17:34.64	259.88	17.80	
2025-01-19 12:17:34.84	259.92	17.81	
2025-01-19 12:17:35.05	259.97	17.82	
2025-01-19 12:17:35.25	260.01	17.82	
2025-01-19 12:17:35.45	260.06	17.83	
2025-01-19 12:17:35.65	260.10	17.83	
2025-01-19 12:17:35.86	260.15	17.84	
2025-01-19 12:17:36.06	260.20	17.85	
2025-01-19 12:17:36.26	260.24	17.85	
2025-01-19 12:17:36.47	260.29	17.86	
2025-01-19 12:17:36.67	260.34	17.86	
2025-01-19 12:17:36.87	260.38	17.87	
2025-01-19 12:17:37.08	260.43	17.88	
2025-01-19 12:17:37.28	260.47	17.88	
2025-01-19 12:17:37.48	260.52	17.89	
2025-01-19 12:17:37.69	260.57	17.89	
2025-01-19 12:17:37.89	260.61	17.90	
2025-01-19 12:17:38.09	260.66	17.91	
2025-01-19 12:17:38.30	260.71	17.91	
2025-01-19 12:17:38.50	260.75	17.92	
2025-01-19 12:17:38.70	260.80	17.92	
2025-01-19 12:17:38.90	260.84	17.93	
2025-01-19 12:17:39.11	260.89	17.94	
2025-01-19 12:17:39.31	260.94	17.94	
2025-01-19 12:17:39.51	260.98	17.95	
2025-01-19 12:17:39.72	261.03	17.95	
2025-01-19 12:17:39.92	261.07	17.96	
2025-01-19 12:17:40.12	261.12	17.96	
2025-01-19 12:17:40.33	261.17	17.97	
2025-01-19 12:17:40.53	261.21	17.98	
2025-01-19 12:17:40.73	261.26	17.98	
2025-01-19 12:17:40.94	261.31	17.99	
2025-01-19 12:17:41.14	261.35	17.99	
2025-01-19 12:17:41.34	261.40	18.00	
2025-01-19 12:17:41.55	261.45	18.00	
2025-01-19 12:17:41.75	261.49	18.01	
2025-01-19 12:17:41.95	261.54	18.01	
2025-01-19 12:17:42.16	261.59	18.02	
2025-01-19 12:17:42.36	261.63	18.03	
2025-01-19 12:17:42.56	261.68	18.03	
2025-01-19 12:17:42.76	261.72	18.04	
2025-01-19 12:17:42.97	261.77	18.04	
2025-01-19 12:17:43.17	261.82	18.05	
2025-01-19 12:17:43.37	261.86	18.05	
2025-01-19 12:17:43.58	261.91	18.06	
2025-01-19 12:17:43.78	261.96	18.06	
2025-01-19 12:17:43.98	262.00	18.07	
2025-01-19 12:17:44.19	262.05	18.07	
2025-01-19 12:17:44.39	262.10	18.08	
2025-01-19 12:17:44.59	262.14	18.09	
2025-01-19 12:17:44.80	262.19	18.09	
2025-01-19 12:17:45.00	262.24	18.10	
2025-01-19 12:17:45.20	262.28	18.10	
2025-01-19 12:17:45.41	262.33	18.11	
2025-01-19 12:17:45.61	262.38	18.11	
2025-01-19 12:17:45.81	262.42	18.12	
2025-01-19 12:17:46.01	262.47	18.12	
2025-01-19 12:17:46.22	262.52	18.13	
2025-01-19 12:17:46.42	262.56	18.13	
2025-01-19 12:17:46.62	262.61	18.14	
2025-01-19 12:17:46.83	262.66	18.14	
2025-01-19 12:17:47.03	262.70	18.15	
2025-01-19 12:17:47.23	262.75	18.15	
2025-01-19 12:17:47.44	262.80	18.16	
2025-01-19 12:17:47.64	262.85	18.16	
2025-01-19 12:17:47.84	262.89	18.17	
2025-01-19 12:17:48.05	262.94	18.17	
2025-01-19 12:17:48.25	262.99	18.18	
2025-01-19 12:17:48.45	263.03	18.18	
2025-01-19 12:17:48.66	263.08	18.19	
2025-01-19 12:17:48.86	263.13	18.19	
2025-01-19 12:17:49.06	263.17	18.20	
2025-01-19 12:17:49.26	263.22	18.20	
2025-01-19 12:17:49.47	263.27	18.21	
2025-01-19 12:17:49.67	263.31	18.21	
2025-01-19 12:17:49.87	263.36	18.22	
2025-01-19 12:17:50.08	263.41	18.22	
2025-01-19 12:17:50.28	263.46	18.23	
2025-01-19 12:17:50.48	263.50	18.23	
2025-01-19 12:17:50.69	263.55	18.24	
2025-01-19 12:17:50.89	263.60	18.24	
2025-01-19 12:17:51.09	263.64	18.25	
2025-01-19 12:17:51.30	263.69	18.25	
2025-01-19 12:17:51.50	263.74	18.26	
2025-01-19 12:17:51.70	263.79	18.26	
2025-01-19 12:17:51.91	263.83	18.27	
2025-01-19 12:17:52.12	263.88	18.27	
2025-01-19 12:17:52.32	263.93	18.28	
2025-01-19 12:17:52.52	263.98	18.28	
2025-01-19 12:17:52.73	264.03	18.29	
2025-01-19 12:17:52.93	264.07	18.29	
2025-01-19 12:17:53.13	264.12	18.29	
2025-01-19 12:17:53.33	264.17	18.30	
2025-01-19 12:17:53.54	264.21	18.30	
2025-01-19 12:17:53.74	264.26	18.31	
2025-01-19 12:17:53.94	264.31	18.31	
2025-01-19 12:17:54.15	264.36	18.32	
2025-01-19 12:17:54.35	264.40	18.32	
2025-01-19 12:17:54.55	264.45	18.33	
2025-01-19 12:17:54.76	264.50	18.33	
2025-01-19 12:17:54.96	264.55	18.34	
2025-01-19 12:17:55.16	264.59	18.34	
2025-01-19 12:17:55.37	264.64	18.34	
2025-01-19 12:17:55.57	264.69	18.35	
2025-01-19 12:17:55.77	264.73	18.35	
2025-01-19 12:17:55.98	264.78	18.36	
2025-01-19 12:17:56.18	264.83	18.36	
2025-01-19 12:17:56.38	264.88	18.37	
2025-01-19 12:17:56.58	264.92	18.37	
2025-01-19 12:17:56.79	264.97	18.37	
2025-01-19 12:17:56.99	265.02	18.38	
2025-01-19 12:17:57.19	265.07	18.38	
2025-01-19 12:17:57.40	265.12	18.39	
2025-01-19 12:17:57.60	265.16	18.39	
2025-01-19 12:17:57.80	265.21	18.40	
2025-01-19 12:17:58.01	265.26	18.40	
2025-01-19 12:17:58.21	265.31	18.40	
2025-01-19 12:17:58.41	265.35	18.41	
2025-01-19 12:17:58.62	265.40	18.41	
2025-01-19 12:17:58.82	265.45	18.42	
2025-01-19 12:17:59.02	265.50	18.42	
2025-01-19 12:17:59.23	265.54	18.42	
2025-01-19 12:17:59.43	265.59	18.43	
2025-01-19 12:17:59.63	265.64	18.43	
2025-01-19 12:17:59.83	265.69	18.44	
2025-01-19 12:18:00.04	265.74	18.44	
2025-01-19 12:18:00.24	265.78	18.44	
2025-01-19 12:18:00.44	265.83	18.45	
2025-01-19 12:18:00.65	265.88	18.45	
2025-01-19 12:18:00.85	265.93	18.46	
2025-01-19 12:18:01.05	265.97	18.46	
2025-01-19 12:18:01.26	266.02	18.46	
2025-01-19 12:18:01.46	266.07	18.47	
2025-01-19 12:18:01.66	266.12	18.47	
2025-01-19 12:18:01.87	266.17	18.48	
2025-01-19 12:18:02.07	266.21	18.48	
2025-01-19 12:18:02.27	266.26	18.48	
2025-01-19 12:18:02.48	266.31	18.49	
2025-01-19 12:18:02.68	266.36	18.49	
2025-01-19 12:18:02.88	266.40	18.49	
2025-01-19 12:18:03.08	266.45	18.50	
2025-01-19 12:18:03.29	266.50	18.50	
2025-01-19 12:18:03.49	266.55	18.51	
2025-01-19 12:18:03.69	266.59	18.51	
2025-01-19 12:18:03.90	266.64	18.51	
2025-01-19 12:18:04.10	266.69	18.52	
2025-01-19 12:18:04.30	266.74	18.52	
2025-01-19 12:18:04.51	266.79	18.52	
2025-01-19 12:18:04.71	266.84	18.53	
2025-01-19 12:18:04.91	266.88	18.53	
2025-01-19 12:18:05.12	266.93	18.53	
2025-01-19 12:18:05.32	266.98	18.54	
2025-01-19 12:18:05.52	267.03	18.54	
2025-01-19 12:18:05.73	267.08	18.55	
2025-01-19 12:18:05.93	267.12	18.55	
2025-01-19 12:18:06.13	267.17	18.55	
2025-01-19 12:18:06.34	267.22	18.56	
2025-01-19 12:18:06.54	267.27	18.56	
2025-01-19 12:18:06.74	267.32	18.56	
2025-01-19 12:18:06.94	267.36	18.57	
2025-01-19 12:18:07.15	267.41	18.57	
2025-01-19 12:18:07.35	267.46	18.57	
2025-01-19 12:18:07.55	267.51	18.58	
2025-01-19 12:18:07.76	267.56	18.58	
2025-01-19 12:18:07.96	267.60	18.58	
2025-01-19 12:18:08.16	267.65	18.58	
2025-01-19 12:18:08.37	267.70	18.59	
2025-01-19 12:18:08.57	267.75	18.59	
2025-01-19 12:18:08.77	267.80	18.59	
2025-01-19 12:18:08.98	267.85	18.60	
2025-01-19 12:18:09.18	267.89	18.60	
2025-01-19 12:18:09.38	267.94	18.60	
2025-01-19 12:18:09.59	267.99	18.61	
2025-01-19 12:18:09.79	268.04	18.61	
2025-01-19 12:18:09.99	268.09	18.61	
2025-01-19 12:18:10.19	268.13	18.62	
2025-01-19 12:18:10.40	268.18	18.62	
2025-01-19 12:18:10.60	268.23	18.62	
2025-01-19 12:18:10.80	268.28	18.63	
2025-01-19 12:18:11.01	268.33	18.63	
2025-01-19 12:18:11.21	268.38	18.63	
2025-01-19 12:18:11.41	268.42	18.63	
2025-01-19 12:18:11.62	268.47	18.64	
2025-01-19 12:18:11.82	268.52	18.64	
2025-01-19 12:18:12.02	268.57	18.64	
2025-01-19 12:18:12.23	268.62	18.65	
2025-01-19 12:18:12.43	268.67	18.65	
2025-01-19 12:18:12.63	268.71	18.65	
2025-01-19 12:18:12.84	268.76	18.65	
2025-01-19 12:18:13.04	268.81	18.66	
2025-01-19 12:18:13.24	268.86	18.66	
2025-01-19 12:18:13.44	268.91	18.66	
2025-01-19 12:18:13.65	268.96	18.66	
2025-01-19 12:18:13.85	269.01	18.67	
2025-01-19 12:18:14.05	269.05	18.67	
2025-01-19 12:18:14.26	269.10	18.67	
2025-01-19 12:18:14.46	269.15	18.68	
2025-01-19 12:18:14.66	269.20	18.68	
2025-01-19 12:18:14.87	269.25	18.68	
2025-01-19 12:18:15.07	269.30	18.68	
2025-01-19 12:18:15.27	269.34	18.69	
2025-01-19 12:18:15.48	269.39	18.69	
2025-01-19 12:18:15.68	269.44	18.69	
2025-01-19 12:18:15.88	269.49	18.69	
2025-01-19 12:18:16.09	269.54	18.70	
2025-01-19 12:18:16.29	269.59	18.70	
2025-01-19 12:18:16.49	269.64	18.70	
2025-01-19 12:18:16.69	269.68	18.70	
2025-01-19 12:18:16.90	269.73	18.71	
2025-01-19 12:18:17.10	269.78	18.71	
2025-01-19 12:18:17.30	269.83	18.71	
2025-01-19 12:18:17.51	269.88	18.71	
2025-01-19 12:18:17.71	269.93	18.71	
2025-01-19 12:18:17.91	269.97	18.72	
2025-01-19 12:18:18.12	270.02	18.72	
2025-01-19 12:18:18.32	270.07	18.72	
2025-01-19 12:18:18.52	270.12	18.72	
2025-01-19 12:18:18.73	270.17	18.73	
2025-01-19 12:18:18.93	270.22	18.73	
2025-01-19 12:18:19.13	270.27	18.73	
2025-01-19 12:18:19.34	270.32	18.73	
2025-01-19 12:18:19.54	270.36	18.73	
2025-01-19 12:18:19.74	270.41	18.74	
2025-01-19 12:18:19.94	270.46	18.74	
2025-01-19 12:18:20.15	270.51	18.74	
2025-01-19 12:18:20.35	270.56	18.74	
2025-01-19 12:18:20.55	270.61	18.75	
2025-01-19 12:18:20.76	270.66	18.75	
2025-01-19 12:18:20.96	270.70	18.75	
2025-01-19 12:18:21.16	270.75	18.75	
2025-01-19 12:18:21.37	270.80	18.75	
2025-01-19 12:18:21.57	270.85	18.76	
2025-01-19 12:18:21.77	270.90	18.76	
2025-01-19 12:18:21.98	270.95	18.76	
2025-01-19 12:18:22.18	271.00	18.76	
2025-01-19 12:18:22.38	271.05	18.76	
2025-01-19 12:18:22.59	271.10	18.76	
2025-01-19 12:18:22.79	271.14	18.77	
2025-01-19 12:18:22.99	271.19	18.77	
2025-01-19 12:18:23.19	271.24	18.77	
2025-01-19 12:18:23.40	271.29	18.77	
2025-01-19 12:18:23.60	271.34	18.77	
2025-01-19 12:18:23.80	271.39	18.77	
2025-01-19 12:18:24.01	271.44	18.78	
2025-01-19 12:18:24.21	271.48	18.78	
2025-01-19 12:18:24.41	271.53	18.78	
2025-01-19 12:18:24.62	271.58	18.78	
2025-01-19 12:18:24.82	271.63	18.78	
2025-01-19 12:18:25.02	271.68	18.78	
2025-01-19 12:18:25.23	271.73	18.79	
2025-01-19 12:18:25.43	271.78	18.79	
2025-01-19 12:18:25.63	271.83	18.79	
2025-01-19 12:18:25.84	271.88	18.79	
2025-01-19 12:18:26.04	271.92	18.79	
2025-01-19 12:18:26.24	271.97	18.79	
2025-01-19 12:18:26.45	272.02	18.80	
2025-01-19 12:18:26.65	272.07	18.80	
2025-01-19 12:18:26.85	272.12	18.80	
2025-01-19 12:18:27.05	272.17	18.80	
2025-01-19 12:18:27.26	272.22	18.80	
2025-01-19 12:18:27.46	272.26	18.80	
2025-01-19 12:18:27.66	272.31	18.80	
2025-01-19 12:18:27.87	272.36	18.81	
2025-01-19 12:18:28.07	272.41	18.81	
2025-01-19 12:18:28.27	272.46	18.81	
2025-01-19 12:18:28.48	272.51	18.81	
2025-01-19 12:18:28.68	272.56	18.81	
2025-01-19 12:18:28.88	272.61	18.81	
2025-01-19 12:18:29.09	272.66	18.81	
2025-01-19 12:18:29.29	272.70	18.81	
2025-01-19 12:18:29.49	272.75	18.81	
2025-01-19 12:18:29.70	272.80	18.82	
2025-01-19 12:18:29.90	272.85	18.82	
2025-01-19 12:18:30.10	272.90	18.82	
2025-01-19 12:18:30.30	272.95	18.82	
2025-01-19 12:18:30.51	273.00	18.82	
2025-01-19 12:18:30.71	273.05	18.82	
2025-01-19 12:18:30.91	273.09	18.82	
2025-01-19 12:18:31.12	273.15	18.82	
2025-01-19 12:18:31.32	273.19	18.82	
2025-01-19 12:18:31.52	273.24	18.83	
2025-01-19 12:18:31.73	273.29	18.83	
2025-01-19 12:18:31.93	273.34	18.83	
2025-01-19 12:18:32.13	273.39	18.83	
2025-01-19 12:18:32.34	273.44	18.83	
2025-01-19 12:18:32.54	273.49	18.83	
2025-01-19 12:18:32.74	273.53	18.83	
2025-01-19 12:18:32.95	273.59	18.83	
2025-01-19 12:18:33.15	273.63	18.83	
2025-01-19 12:18:33.35	273.68	18.83	
2025-01-19 12:18:33.55	273.73	18.83	
2025-01-19 12:18:33.76	273.78	18.83	
2025-01-19 12:18:33.96	273.83	18.83	
2025-01-19 12:18:34.16	273.88	18.84	
2025-01-19 12:18:34.37	273.93	18.84	
2025-01-19 12:18:34.57	273.98	18.84	
2025-01-19 12:18:34.77	274.02	18.84	
2025-01-19 12:18:34.98	274.07	18.84	
2025-01-19 12:18:35.18	274.12	18.84	
2025-01-19 12:18:35.38	274.17	18.84	
2025-01-19 12:18:35.59	274.22	18.84	
2025-01-19 12:18:35.79	274.27	18.84	
2025-01-19 12:18:35.99	274.32	18.84	
2025-01-19 12:18:36.20	274.37	18.84	
2025-01-19 12:18:36.40	274.42	18.84	
2025-01-19 12:18:36.60	274.46	18.84	
2025-01-19 12:18:36.80	274.51	18.84	
2025-01-19 12:18:37.01	274.56	18.84	
2025-01-19 12:18:37.21	274.61	18.84	
2025-01-19 12:18:37.41	274.66	18.84	
2025-01-19 12:18:37.62	274.71	18.84	
2025-01-19 12:18:37.82	274.76	18.84	
2025-01-19 12:18:38.02	274.81	18.84	
2025-01-19 12:18:38.23	274.86	18.85	
2025-01-19 12:18:38.43	274.91	18.85	
2025-01-19 12:18:38.63	274.95	18.85	
2025-01-19 12:18:38.84	275.00	18.85	
2025-01-19 12:18:39.04	275.05	18.85	
2025-01-19 12:18:39.24	275.10	18.85	
2025-01-19 12:18:39.45	275.15	18.85	
2025-01-19 12:18:39.65	275.20	18.85	
2025-01-19 12:18:39.85	275.25	18.85	
2025-01-19 12:18:40.05	275.30	18.85	
2025-01-19 12:18:40.26	275.35	18.85	
2025-01-19 12:18:40.46	275.39	18.85	
2025-01-19 12:18:40.66	275.44	18.85	
2025-01-19 12:18:40.87	275.49	18.85	
2025-01-19 12:18:41.07	275.54	18.85	
2025-01-19 12:18:41.27	275.59	18.85	
2025-01-19 12:18:41.48	275.64	18.85	
2025-01-19 12:18:41.68	275.69	18.85	
2025-01-19 12:18:41.88	275.74	18.85	
