passes_logs/2025/01/19/SPB_Silybum_02/SPB_Silybum_02__20250119_025613_AQUA_rec.log

#Pass ID: 20250119_025613_AQUA
#Satellite: AQUA
#Configuration: AQUA
#Start time: 2025-01-19 02:56:13

#Version: 2.0.20230423
#Station: SPB_Silybum_02
#Location: 30.233357 lon 59.946436 lat
#TLE: 1 27424U 02022A   25018.15645899  .00002321  00000+0  48623-3 0  9991
#TLE: 2 27424  98.3597 334.8489 0001860 108.2535 309.6560 14.60697098208087

#Time	Az	El	Level	Level2	SNR	BER	Gain	Gain2
2025-01-19 02:56:15.92	10.68	4.13	
2025-01-19 02:56:16.12	10.66	4.14	
2025-01-19 02:56:16.33	10.65	4.16	
2025-01-19 02:56:16.53	10.63	4.17	
2025-01-19 02:56:16.73	10.62	4.18	
2025-01-19 02:56:16.94	10.60	4.19	
2025-01-19 02:56:17.14	10.58	4.21	
2025-01-19 02:56:17.34	10.57	4.22	
2025-01-19 02:56:17.54	10.55	4.23	
2025-01-19 02:56:17.75	10.54	4.25	
2025-01-19 02:56:17.95	10.52	4.26	
2025-01-19 02:56:18.15	10.50	4.27	
2025-01-19 02:56:18.36	10.49	4.28	
2025-01-19 02:56:18.56	10.47	4.30	
2025-01-19 02:56:18.76	10.46	4.31	
2025-01-19 02:56:18.97	10.44	4.32	
2025-01-19 02:56:19.17	10.42	4.34	
2025-01-19 02:56:19.37	10.41	4.35	
2025-01-19 02:56:19.58	10.39	4.36	
2025-01-19 02:56:19.78	10.38	4.37	
2025-01-19 02:56:19.98	10.36	4.39	
2025-01-19 02:56:20.19	10.34	4.40	
2025-01-19 02:56:20.39	10.33	4.41	
2025-01-19 02:56:20.59	10.31	4.43	
2025-01-19 02:56:20.80	10.30	4.44	
2025-01-19 02:56:21.00	10.28	4.45	
2025-01-19 02:56:21.20	10.26	4.47	
2025-01-19 02:56:21.41	10.25	4.48	
2025-01-19 02:56:21.61	10.23	4.49	
2025-01-19 02:56:21.81	10.21	4.50	
2025-01-19 02:56:22.02	10.20	4.52	
2025-01-19 02:56:22.22	10.18	4.53	
2025-01-19 02:56:22.42	10.17	4.54	
2025-01-19 02:56:22.63	10.15	4.56	
2025-01-19 02:56:22.83	10.13	4.57	
2025-01-19 02:56:23.03	10.12	4.58	
2025-01-19 02:56:23.23	10.10	4.60	
2025-01-19 02:56:23.44	10.08	4.61	
2025-01-19 02:56:23.64	10.07	4.62	
2025-01-19 02:56:23.84	10.05	4.63	
2025-01-19 02:56:24.05	10.03	4.65	
2025-01-19 02:56:24.25	10.02	4.66	
2025-01-19 02:56:24.45	10.00	4.67	
2025-01-19 02:56:24.66	9.98	4.69	
2025-01-19 02:56:24.86	9.97	4.70	
2025-01-19 02:56:25.06	9.95	4.71	
2025-01-19 02:56:25.27	9.94	4.73	
2025-01-19 02:56:25.47	9.92	4.74	
2025-01-19 02:56:25.67	9.90	4.75	
2025-01-19 02:56:25.88	9.89	4.77	
2025-01-19 02:56:26.08	9.87	4.78	
2025-01-19 02:56:26.28	9.85	4.79	
2025-01-19 02:56:26.49	9.84	4.81	
2025-01-19 02:56:26.69	9.82	4.82	
2025-01-19 02:56:26.89	9.80	4.83	
2025-01-19 02:56:27.10	9.79	4.84	
2025-01-19 02:56:27.30	9.77	4.86	
2025-01-19 02:56:27.50	9.75	4.87	
2025-01-19 02:56:27.71	9.74	4.88	
2025-01-19 02:56:27.91	9.72	4.90	
2025-01-19 02:56:28.11	9.70	4.91	
2025-01-19 02:56:28.32	9.69	4.92	
2025-01-19 02:56:28.52	9.67	4.94	
2025-01-19 02:56:28.72	9.65	4.95	
2025-01-19 02:56:28.92	9.64	4.96	
2025-01-19 02:56:29.13	9.62	4.98	
2025-01-19 02:56:29.33	9.60	4.99	
2025-01-19 02:56:29.53	9.58	5.00	
2025-01-19 02:56:29.74	9.57	5.02	
2025-01-19 02:56:29.94	9.55	5.03	
2025-01-19 02:56:30.14	9.53	5.04	
2025-01-19 02:56:30.35	9.52	5.06	
2025-01-19 02:56:30.55	9.50	5.07	
2025-01-19 02:56:30.75	9.48	5.08	
2025-01-19 02:56:30.96	9.47	5.09	
2025-01-19 02:56:31.16	9.45	5.11	
2025-01-19 02:56:31.36	9.43	5.12	
2025-01-19 02:56:31.57	9.41	5.13	
2025-01-19 02:56:31.77	9.40	5.15	
2025-01-19 02:56:31.97	9.38	5.16	
2025-01-19 02:56:32.18	9.36	5.17	
2025-01-19 02:56:32.38	9.35	5.19	
2025-01-19 02:56:32.58	9.33	5.20	
2025-01-19 02:56:32.79	9.31	5.21	
2025-01-19 02:56:32.99	9.29	5.23	
2025-01-19 02:56:33.19	9.28	5.24	
2025-01-19 02:56:33.40	9.26	5.25	
2025-01-19 02:56:33.60	9.24	5.27	
2025-01-19 02:56:33.80	9.23	5.28	
2025-01-19 02:56:34.01	9.21	5.29	
2025-01-19 02:56:34.21	9.19	5.31	
2025-01-19 02:56:34.41	9.17	5.32	
2025-01-19 02:56:34.61	9.16	5.33	
2025-01-19 02:56:34.82	9.14	5.35	
2025-01-19 02:56:35.02	9.12	5.36	
2025-01-19 02:56:35.22	9.10	5.37	
2025-01-19 02:56:35.43	9.09	5.39	
2025-01-19 02:56:35.63	9.07	5.40	
2025-01-19 02:56:35.83	9.05	5.41	
2025-01-19 02:56:36.04	9.03	5.43	
2025-01-19 02:56:36.24	9.02	5.44	
2025-01-19 02:56:36.44	9.00	5.45	
2025-01-19 02:56:36.65	8.98	5.47	
2025-01-19 02:56:36.85	8.96	5.48	
2025-01-19 02:56:37.05	8.95	5.49	
2025-01-19 02:56:37.26	8.93	5.51	
2025-01-19 02:56:37.46	8.91	5.52	
2025-01-19 02:56:37.66	8.89	5.53	
2025-01-19 02:56:37.87	8.88	5.55	
2025-01-19 02:56:38.07	8.86	5.56	
2025-01-19 02:56:38.27	8.84	5.57	
2025-01-19 02:56:38.48	8.82	5.59	
2025-01-19 02:56:38.68	8.81	5.60	
2025-01-19 02:56:38.88	8.79	5.61	
2025-01-19 02:56:39.09	8.77	5.63	
2025-01-19 02:56:39.29	8.75	5.64	
2025-01-19 02:56:39.49	8.73	5.65	
2025-01-19 02:56:39.70	8.72	5.67	
2025-01-19 02:56:39.90	8.70	5.68	
2025-01-19 02:56:40.10	8.68	5.69	
2025-01-19 02:56:40.30	8.66	5.71	
2025-01-19 02:56:40.51	8.65	5.72	
2025-01-19 02:56:40.71	8.63	5.74	
2025-01-19 02:56:40.91	8.61	5.75	
2025-01-19 02:56:41.12	8.59	5.76	
2025-01-19 02:56:41.32	8.57	5.78	
2025-01-19 02:56:41.52	8.56	5.79	
2025-01-19 02:56:41.73	8.54	5.80	
2025-01-19 02:56:41.93	8.52	5.82	
2025-01-19 02:56:42.13	8.50	5.83	
2025-01-19 02:56:42.34	8.48	5.84	
2025-01-19 02:56:42.54	8.47	5.86	
2025-01-19 02:56:42.74	8.45	5.87	
2025-01-19 02:56:42.95	8.43	5.88	
2025-01-19 02:56:43.15	8.41	5.90	
2025-01-19 02:56:43.35	8.39	5.91	
2025-01-19 02:56:43.56	8.38	5.92	
2025-01-19 02:56:43.76	8.36	5.94	
2025-01-19 02:56:43.96	8.34	5.95	
2025-01-19 02:56:44.17	8.32	5.97	
2025-01-19 02:56:44.37	8.30	5.98	
2025-01-19 02:56:44.57	8.28	5.99	
2025-01-19 02:56:44.78	8.27	6.01	
2025-01-19 02:56:44.98	8.25	6.02	
2025-01-19 02:56:45.18	8.23	6.03	
2025-01-19 02:56:45.38	8.21	6.05	
2025-01-19 02:56:45.59	8.19	6.06	
2025-01-19 02:56:45.79	8.17	6.07	
2025-01-19 02:56:45.99	8.16	6.09	
2025-01-19 02:56:46.20	8.14	6.10	
2025-01-19 02:56:46.40	8.12	6.11	
2025-01-19 02:56:46.60	8.10	6.13	
2025-01-19 02:56:46.81	8.08	6.14	
2025-01-19 02:56:47.01	8.06	6.16	
2025-01-19 02:56:47.21	8.05	6.17	
2025-01-19 02:56:47.42	8.03	6.18	
2025-01-19 02:56:47.62	8.01	6.20	
2025-01-19 02:56:47.82	7.99	6.21	
2025-01-19 02:56:48.03	7.97	6.22	
2025-01-19 02:56:48.23	7.95	6.24	
2025-01-19 02:56:48.43	7.93	6.25	
2025-01-19 02:56:48.64	7.91	6.26	
2025-01-19 02:56:48.84	7.90	6.28	
2025-01-19 02:56:49.04	7.88	6.29	
2025-01-19 02:56:49.25	7.86	6.31	
2025-01-19 02:56:49.45	7.84	6.32	
2025-01-19 02:56:49.65	7.82	6.33	
2025-01-19 02:56:49.86	7.80	6.35	
2025-01-19 02:56:50.06	7.78	6.36	
2025-01-19 02:56:50.26	7.77	6.37	
2025-01-19 02:56:50.47	7.75	6.39	
2025-01-19 02:56:50.67	7.73	6.40	
2025-01-19 02:56:50.87	7.71	6.42	
2025-01-19 02:56:51.07	7.69	6.43	
2025-01-19 02:56:51.28	7.67	6.44	
2025-01-19 02:56:51.48	7.65	6.46	
2025-01-19 02:56:51.68	7.63	6.47	
2025-01-19 02:56:51.89	7.61	6.48	
2025-01-19 02:56:52.09	7.60	6.50	
2025-01-19 02:56:52.29	7.58	6.51	
2025-01-19 02:56:52.50	7.56	6.53	
2025-01-19 02:56:52.70	7.54	6.54	
2025-01-19 02:56:52.90	7.52	6.55	
2025-01-19 02:56:53.11	7.50	6.57	
2025-01-19 02:56:53.31	7.48	6.58	
2025-01-19 02:56:53.51	7.46	6.59	
2025-01-19 02:56:53.72	7.44	6.61	
2025-01-19 02:56:53.92	7.42	6.62	
2025-01-19 02:56:54.12	7.40	6.64	
2025-01-19 02:56:54.33	7.38	6.65	
2025-01-19 02:56:54.53	7.37	6.66	
2025-01-19 02:56:54.73	7.35	6.68	
2025-01-19 02:56:54.94	7.33	6.69	
2025-01-19 02:56:55.14	7.31	6.71	
2025-01-19 02:56:55.34	7.29	6.72	
2025-01-19 02:56:55.55	7.27	6.73	
2025-01-19 02:56:55.75	7.25	6.75	
2025-01-19 02:56:55.95	7.23	6.76	
2025-01-19 02:56:56.16	7.21	6.77	
2025-01-19 02:56:56.36	7.19	6.79	
2025-01-19 02:56:56.56	7.17	6.80	
2025-01-19 02:56:56.76	7.15	6.82	
2025-01-19 02:56:56.97	7.13	6.83	
2025-01-19 02:56:57.17	7.11	6.84	
2025-01-19 02:56:57.37	7.10	6.86	
2025-01-19 02:56:57.58	7.07	6.87	
2025-01-19 02:56:57.78	7.06	6.89	
2025-01-19 02:56:57.98	7.04	6.90	
2025-01-19 02:56:58.19	7.02	6.91	
2025-01-19 02:56:58.39	7.00	6.93	
2025-01-19 02:56:58.59	6.98	6.94	
2025-01-19 02:56:58.80	6.96	6.96	
2025-01-19 02:56:59.00	6.94	6.97	
2025-01-19 02:56:59.20	6.92	6.98	
2025-01-19 02:56:59.41	6.90	7.00	
2025-01-19 02:56:59.61	6.88	7.01	
2025-01-19 02:56:59.81	6.86	7.02	
2025-01-19 02:57:00.02	6.84	7.04	
2025-01-19 02:57:00.22	6.82	7.05	
2025-01-19 02:57:00.42	6.80	7.07	
2025-01-19 02:57:00.63	6.78	7.08	
2025-01-19 02:57:00.83	6.76	7.09	
2025-01-19 02:57:01.03	6.74	7.11	
2025-01-19 02:57:01.24	6.72	7.12	
2025-01-19 02:57:01.44	6.70	7.14	
2025-01-19 02:57:01.64	6.68	7.15	
2025-01-19 02:57:01.85	6.66	7.17	
2025-01-19 02:57:02.05	6.64	7.18	
2025-01-19 02:57:02.25	6.62	7.19	
2025-01-19 02:57:02.45	6.60	7.21	
2025-01-19 02:57:02.66	6.58	7.22	
2025-01-19 02:57:02.86	6.56	7.23	
2025-01-19 02:57:03.06	6.54	7.25	
2025-01-19 02:57:03.27	6.52	7.26	
2025-01-19 02:57:03.47	6.50	7.28	
2025-01-19 02:57:03.67	6.48	7.29	
2025-01-19 02:57:03.88	6.46	7.31	
2025-01-19 02:57:04.08	6.44	7.32	
2025-01-19 02:57:04.28	6.42	7.33	
2025-01-19 02:57:04.49	6.40	7.35	
2025-01-19 02:57:04.69	6.38	7.36	
2025-01-19 02:57:04.89	6.36	7.38	
2025-01-19 02:57:05.10	6.34	7.39	
2025-01-19 02:57:05.30	6.32	7.40	
2025-01-19 02:57:05.50	6.30	7.42	
2025-01-19 02:57:05.72	6.27	7.43	
2025-01-19 02:57:05.92	6.25	7.45	
2025-01-19 02:57:06.12	6.23	7.46	
2025-01-19 02:57:06.33	6.21	7.48	
2025-01-19 02:57:06.53	6.19	7.49	
2025-01-19 02:57:06.73	6.17	7.50	
2025-01-19 02:57:06.94	6.15	7.52	
2025-01-19 02:57:07.14	6.13	7.53	
2025-01-19 02:57:07.34	6.11	7.55	
2025-01-19 02:57:07.55	6.09	7.56	
2025-01-19 02:57:07.75	6.07	7.57	
2025-01-19 02:57:07.95	6.05	7.59	
2025-01-19 02:57:08.16	6.03	7.60	
2025-01-19 02:57:08.36	6.01	7.62	
2025-01-19 02:57:08.56	5.99	7.63	
2025-01-19 02:57:08.77	5.97	7.65	
2025-01-19 02:57:08.97	5.95	7.66	
2025-01-19 02:57:09.17	5.92	7.67	
2025-01-19 02:57:09.38	5.90	7.69	
2025-01-19 02:57:09.58	5.88	7.70	
2025-01-19 02:57:09.78	5.86	7.72	
2025-01-19 02:57:09.99	5.84	7.73	
2025-01-19 02:57:10.19	5.82	7.74	
2025-01-19 02:57:10.39	5.80	7.76	
2025-01-19 02:57:10.59	5.78	7.77	
2025-01-19 02:57:10.80	5.76	7.79	
2025-01-19 02:57:11.00	5.74	7.80	
2025-01-19 02:57:11.20	5.72	7.82	
2025-01-19 02:57:11.41	5.69	7.83	
2025-01-19 02:57:11.61	5.67	7.84	
2025-01-19 02:57:11.81	5.65	7.86	
2025-01-19 02:57:12.02	5.63	7.87	
2025-01-19 02:57:12.22	5.61	7.89	
2025-01-19 02:57:12.42	5.59	7.90	
2025-01-19 02:57:12.63	5.57	7.92	
2025-01-19 02:57:12.83	5.55	7.93	
2025-01-19 02:57:13.03	5.53	7.94	
2025-01-19 02:57:13.24	5.50	7.96	
2025-01-19 02:57:13.44	5.48	7.97	
2025-01-19 02:57:13.64	5.46	7.99	
2025-01-19 02:57:13.85	5.44	8.00	
2025-01-19 02:57:14.05	5.42	8.02	
2025-01-19 02:57:14.25	5.40	8.03	
2025-01-19 02:57:14.46	5.38	8.05	
2025-01-19 02:57:14.66	5.35	8.06	
2025-01-19 02:57:14.86	5.33	8.07	
2025-01-19 02:57:15.07	5.31	8.09	
2025-01-19 02:57:15.27	5.29	8.10	
2025-01-19 02:57:15.47	5.27	8.12	
2025-01-19 02:57:15.67	5.25	8.13	
2025-01-19 02:57:15.88	5.23	8.15	
2025-01-19 02:57:16.08	5.20	8.16	
2025-01-19 02:57:16.28	5.18	8.17	
2025-01-19 02:57:16.49	5.16	8.19	
2025-01-19 02:57:16.69	5.14	8.20	
2025-01-19 02:57:16.89	5.12	8.22	
2025-01-19 02:57:17.10	5.10	8.23	
2025-01-19 02:57:17.30	5.07	8.25	
2025-01-19 02:57:17.50	5.05	8.26	
2025-01-19 02:57:17.71	5.03	8.28	
2025-01-19 02:57:17.91	5.01	8.29	
2025-01-19 02:57:18.11	4.99	8.30	
2025-01-19 02:57:18.32	4.96	8.32	
2025-01-19 02:57:18.52	4.94	8.33	
2025-01-19 02:57:18.72	4.92	8.35	
2025-01-19 02:57:18.93	4.90	8.36	
2025-01-19 02:57:19.13	4.88	8.38	
2025-01-19 02:57:19.33	4.86	8.39	
2025-01-19 02:57:19.54	4.83	8.41	
2025-01-19 02:57:19.74	4.81	8.42	
2025-01-19 02:57:19.94	4.79	8.43	
2025-01-19 02:57:20.15	4.77	8.45	
2025-01-19 02:57:20.35	4.74	8.46	
2025-01-19 02:57:20.55	4.72	8.48	
2025-01-19 02:57:20.76	4.70	8.49	
2025-01-19 02:57:20.96	4.68	8.51	
2025-01-19 02:57:21.16	4.66	8.52	
2025-01-19 02:57:21.36	4.63	8.54	
2025-01-19 02:57:21.57	4.61	8.55	
2025-01-19 02:57:21.77	4.59	8.57	
2025-01-19 02:57:21.97	4.57	8.58	
2025-01-19 02:57:22.18	4.54	8.59	
2025-01-19 02:57:22.38	4.52	8.61	
2025-01-19 02:57:22.58	4.50	8.62	
2025-01-19 02:57:22.79	4.48	8.64	
2025-01-19 02:57:22.99	4.46	8.65	
2025-01-19 02:57:23.19	4.43	8.67	
2025-01-19 02:57:23.40	4.41	8.68	
2025-01-19 02:57:23.60	4.39	8.70	
2025-01-19 02:57:23.80	4.37	8.71	
2025-01-19 02:57:24.01	4.34	8.73	
2025-01-19 02:57:24.21	4.32	8.74	
2025-01-19 02:57:24.41	4.30	8.75	
2025-01-19 02:57:24.62	4.27	8.77	
2025-01-19 02:57:24.82	4.25	8.78	
2025-01-19 02:57:25.02	4.23	8.80	
2025-01-19 02:57:25.23	4.21	8.81	
2025-01-19 02:57:25.43	4.18	8.83	
2025-01-19 02:57:25.63	4.16	8.84	
2025-01-19 02:57:25.84	4.14	8.86	
2025-01-19 02:57:26.04	4.12	8.87	
2025-01-19 02:57:26.24	4.09	8.89	
2025-01-19 02:57:26.45	4.07	8.90	
2025-01-19 02:57:26.65	4.05	8.92	
2025-01-19 02:57:26.85	4.03	8.93	
2025-01-19 02:57:27.05	4.00	8.95	
2025-01-19 02:57:27.26	3.98	8.96	
2025-01-19 02:57:27.46	3.96	8.97	
2025-01-19 02:57:27.66	3.93	8.99	
2025-01-19 02:57:27.87	3.91	9.00	
2025-01-19 02:57:28.07	3.89	9.02	
2025-01-19 02:57:28.27	3.86	9.03	
2025-01-19 02:57:28.48	3.84	9.05	
2025-01-19 02:57:28.68	3.82	9.06	
2025-01-19 02:57:28.88	3.79	9.08	
2025-01-19 02:57:29.09	3.77	9.09	
2025-01-19 02:57:29.29	3.75	9.11	
2025-01-19 02:57:29.49	3.73	9.12	
2025-01-19 02:57:29.70	3.70	9.14	
2025-01-19 02:57:29.90	3.68	9.15	
2025-01-19 02:57:30.10	3.66	9.17	
2025-01-19 02:57:30.31	3.63	9.18	
2025-01-19 02:57:30.51	3.61	9.20	
2025-01-19 02:57:30.71	3.59	9.21	
2025-01-19 02:57:30.92	3.56	9.23	
2025-01-19 02:57:31.12	3.54	9.24	
2025-01-19 02:57:31.32	3.51	9.25	
2025-01-19 02:57:31.53	3.49	9.27	
2025-01-19 02:57:31.73	3.47	9.28	
2025-01-19 02:57:31.93	3.44	9.30	
2025-01-19 02:57:32.14	3.42	9.31	
2025-01-19 02:57:32.34	3.40	9.33	
2025-01-19 02:57:32.54	3.37	9.34	
2025-01-19 02:57:32.74	3.35	9.36	
2025-01-19 02:57:32.95	3.33	9.37	
2025-01-19 02:57:33.15	3.30	9.39	
2025-01-19 02:57:33.35	3.28	9.40	
2025-01-19 02:57:33.56	3.25	9.42	
2025-01-19 02:57:33.76	3.23	9.43	
2025-01-19 02:57:33.96	3.21	9.45	
2025-01-19 02:57:34.17	3.18	9.46	
2025-01-19 02:57:34.37	3.16	9.48	
2025-01-19 02:57:34.57	3.14	9.49	
2025-01-19 02:57:34.78	3.11	9.51	
2025-01-19 02:57:34.98	3.09	9.52	
2025-01-19 02:57:35.18	3.06	9.54	
2025-01-19 02:57:35.39	3.04	9.55	
2025-01-19 02:57:35.59	3.02	9.57	
2025-01-19 02:57:35.79	2.99	9.58	
2025-01-19 02:57:36.00	2.97	9.60	
2025-01-19 02:57:36.20	2.94	9.61	
2025-01-19 02:57:36.40	2.92	9.63	
2025-01-19 02:57:36.61	2.89	9.64	
2025-01-19 02:57:36.81	2.87	9.66	
2025-01-19 02:57:37.01	2.85	9.67	
2025-01-19 02:57:37.22	2.82	9.69	
2025-01-19 02:57:37.42	2.80	9.70	
2025-01-19 02:57:37.62	2.77	9.72	
2025-01-19 02:57:37.83	2.75	9.73	
2025-01-19 02:57:38.03	2.72	9.75	
2025-01-19 02:57:38.23	2.70	9.76	
2025-01-19 02:57:38.43	2.68	9.78	
2025-01-19 02:57:38.64	2.65	9.79	
2025-01-19 02:57:38.84	2.63	9.81	
2025-01-19 02:57:39.04	2.60	9.82	
2025-01-19 02:57:39.25	2.58	9.84	
2025-01-19 02:57:39.45	2.55	9.85	
2025-01-19 02:57:39.65	2.53	9.87	
2025-01-19 02:57:39.86	2.50	9.88	
2025-01-19 02:57:40.06	2.48	9.90	
2025-01-19 02:57:40.26	2.46	9.91	
2025-01-19 02:57:40.47	2.43	9.93	
2025-01-19 02:57:40.67	2.41	9.94	
2025-01-19 02:57:40.87	2.38	9.96	
2025-01-19 02:57:41.08	2.36	9.97	
2025-01-19 02:57:41.28	2.33	9.99	
2025-01-19 02:57:41.48	2.31	10.00	
2025-01-19 02:57:41.69	2.28	10.02	
2025-01-19 02:57:41.89	2.26	10.03	
2025-01-19 02:57:42.09	2.23	10.05	
2025-01-19 02:57:42.30	2.21	10.06	
2025-01-19 02:57:42.50	2.18	10.08	
2025-01-19 02:57:42.70	2.16	10.09	
2025-01-19 02:57:42.91	2.13	10.11	
2025-01-19 02:57:43.11	2.11	10.12	
2025-01-19 02:57:43.31	2.08	10.14	
2025-01-19 02:57:43.52	2.06	10.15	
2025-01-19 02:57:43.72	2.03	10.17	
2025-01-19 02:57:43.92	2.01	10.18	
2025-01-19 02:57:44.12	1.98	10.20	
2025-01-19 02:57:44.33	1.96	10.21	
2025-01-19 02:57:44.53	1.93	10.23	
2025-01-19 02:57:44.73	1.91	10.24	
2025-01-19 02:57:44.94	1.88	10.26	
2025-01-19 02:57:45.14	1.85	10.27	
2025-01-19 02:57:45.34	1.83	10.29	
2025-01-19 02:57:45.55	1.80	10.30	
2025-01-19 02:57:45.75	1.78	10.32	
2025-01-19 02:57:45.95	1.75	10.33	
2025-01-19 02:57:46.16	1.73	10.35	
2025-01-19 02:57:46.36	1.70	10.36	
2025-01-19 02:57:46.56	1.68	10.38	
2025-01-19 02:57:46.77	1.65	10.40	
2025-01-19 02:57:46.97	1.62	10.41	
2025-01-19 02:57:47.17	1.60	10.43	
2025-01-19 02:57:47.38	1.57	10.44	
2025-01-19 02:57:47.58	1.55	10.46	
2025-01-19 02:57:47.78	1.52	10.47	
2025-01-19 02:57:47.99	1.50	10.49	
2025-01-19 02:57:48.19	1.47	10.50	
2025-01-19 02:57:48.39	1.44	10.52	
2025-01-19 02:57:48.60	1.42	10.53	
2025-01-19 02:57:48.80	1.39	10.55	
2025-01-19 02:57:49.00	1.37	10.56	
2025-01-19 02:57:49.21	1.34	10.58	
2025-01-19 02:57:49.41	1.31	10.59	
2025-01-19 02:57:49.61	1.29	10.61	
2025-01-19 02:57:49.81	1.26	10.62	
2025-01-19 02:57:50.02	1.24	10.64	
2025-01-19 02:57:50.22	1.21	10.65	
2025-01-19 02:57:50.42	1.18	10.67	
2025-01-19 02:57:50.63	1.16	10.69	
2025-01-19 02:57:50.83	1.13	10.70	
2025-01-19 02:57:51.03	1.11	10.72	
2025-01-19 02:57:51.24	1.08	10.73	
2025-01-19 02:57:51.44	1.05	10.75	
2025-01-19 02:57:51.64	1.03	10.76	
2025-01-19 02:57:51.85	1.00	10.78	
2025-01-19 02:57:52.05	0.97	10.79	
2025-01-19 02:57:52.25	0.95	10.81	
2025-01-19 02:57:52.46	0.92	10.82	
2025-01-19 02:57:52.66	0.89	10.84	
2025-01-19 02:57:52.86	0.87	10.85	
2025-01-19 02:57:53.07	0.84	10.87	
2025-01-19 02:57:53.27	0.82	10.88	
2025-01-19 02:57:53.47	0.79	10.90	
2025-01-19 02:57:53.68	0.76	10.92	
2025-01-19 02:57:53.88	0.74	10.93	
2025-01-19 02:57:54.08	0.71	10.95	
2025-01-19 02:57:54.29	0.68	10.96	
2025-01-19 02:57:54.49	0.65	10.98	
2025-01-19 02:57:54.69	0.63	10.99	
2025-01-19 02:57:54.89	0.60	11.01	
2025-01-19 02:57:55.10	0.57	11.02	
2025-01-19 02:57:55.30	0.55	11.04	
2025-01-19 02:57:55.50	0.52	11.05	
2025-01-19 02:57:55.71	0.49	11.07	
2025-01-19 02:57:55.91	0.47	11.08	
2025-01-19 02:57:56.11	0.44	11.10	
2025-01-19 02:57:56.32	0.41	11.12	
2025-01-19 02:57:56.52	0.39	11.13	
2025-01-19 02:57:56.72	0.36	11.15	
2025-01-19 02:57:56.93	0.33	11.16	
2025-01-19 02:57:57.13	0.30	11.18	
2025-01-19 02:57:57.33	0.28	11.19	
2025-01-19 02:57:57.54	0.25	11.21	
2025-01-19 02:57:57.74	0.22	11.22	
2025-01-19 02:57:57.94	0.20	11.24	
2025-01-19 02:57:58.15	0.17	11.25	
2025-01-19 02:57:58.35	0.14	11.27	
2025-01-19 02:57:58.55	0.11	11.29	
2025-01-19 02:57:58.76	0.09	11.30	
2025-01-19 02:57:58.96	0.06	11.32	
2025-01-19 02:57:59.16	0.03	11.33	
2025-01-19 02:57:59.37	0.00	11.35	
2025-01-19 02:57:59.57	359.98	11.36	
2025-01-19 02:57:59.77	359.95	11.38	
2025-01-19 02:57:59.98	359.92	11.39	
2025-01-19 02:58:00.18	359.89	11.41	
2025-01-19 02:58:00.38	359.87	11.42	
2025-01-19 02:58:00.58	359.84	11.44	
2025-01-19 02:58:00.79	359.81	11.46	
2025-01-19 02:58:00.99	359.78	11.47	
2025-01-19 02:58:01.19	359.76	11.49	
2025-01-19 02:58:01.40	359.73	11.50	
2025-01-19 02:58:01.60	359.70	11.52	
2025-01-19 02:58:01.80	359.67	11.53	
2025-01-19 02:58:02.01	359.64	11.55	
2025-01-19 02:58:02.21	359.62	11.56	
2025-01-19 02:58:02.41	359.59	11.58	
2025-01-19 02:58:02.62	359.56	11.60	
2025-01-19 02:58:02.82	359.53	11.61	
2025-01-19 02:58:03.02	359.50	11.63	
2025-01-19 02:58:03.23	359.47	11.64	
2025-01-19 02:58:03.43	359.45	11.66	
2025-01-19 02:58:03.63	359.42	11.67	
2025-01-19 02:58:03.84	359.39	11.69	
2025-01-19 02:58:04.04	359.36	11.71	
2025-01-19 02:58:04.24	359.33	11.72	
2025-01-19 02:58:04.45	359.30	11.74	
2025-01-19 02:58:04.65	359.28	11.75	
2025-01-19 02:58:04.85	359.25	11.77	
2025-01-19 02:58:05.06	359.22	11.78	
2025-01-19 02:58:05.26	359.19	11.80	
2025-01-19 02:58:05.46	359.16	11.81	
2025-01-19 02:58:05.67	359.13	11.83	
2025-01-19 02:58:05.87	359.11	11.85	
2025-01-19 02:58:06.07	359.08	11.86	
2025-01-19 02:58:06.27	359.05	11.88	
2025-01-19 02:58:06.48	359.02	11.89	
2025-01-19 02:58:06.68	358.99	11.91	
2025-01-19 02:58:06.88	358.96	11.92	
2025-01-19 02:58:07.09	358.93	11.94	
2025-01-19 02:58:07.29	358.91	11.96	
2025-01-19 02:58:07.49	358.88	11.97	
2025-01-19 02:58:07.70	358.85	11.99	
2025-01-19 02:58:07.90	358.82	12.00	
2025-01-19 02:58:08.10	358.79	12.02	
2025-01-19 02:58:08.31	358.76	12.03	
2025-01-19 02:58:08.51	358.73	12.05	
2025-01-19 02:58:08.71	358.70	12.07	
2025-01-19 02:58:08.92	358.67	12.08	
2025-01-19 02:58:09.12	358.64	12.10	
2025-01-19 02:58:09.32	358.62	12.11	
2025-01-19 02:58:09.53	358.59	12.13	
2025-01-19 02:58:09.73	358.56	12.14	
2025-01-19 02:58:09.93	358.53	12.16	
2025-01-19 02:58:10.14	358.50	12.18	
2025-01-19 02:58:10.34	358.47	12.19	
2025-01-19 02:58:10.54	358.44	12.21	
2025-01-19 02:58:10.75	358.41	12.22	
2025-01-19 02:58:10.95	358.38	12.24	
2025-01-19 02:58:11.15	358.35	12.25	
2025-01-19 02:58:11.36	358.32	12.27	
2025-01-19 02:58:11.56	358.29	12.29	
2025-01-19 02:58:11.76	358.26	12.30	
2025-01-19 02:58:11.96	358.23	12.32	
2025-01-19 02:58:12.17	358.20	12.33	
2025-01-19 02:58:12.37	358.17	12.35	
2025-01-19 02:58:12.57	358.15	12.36	
2025-01-19 02:58:12.78	358.11	12.38	
2025-01-19 02:58:12.98	358.09	12.40	
2025-01-19 02:58:13.18	358.06	12.41	
2025-01-19 02:58:13.39	358.03	12.43	
2025-01-19 02:58:13.59	358.00	12.44	
2025-01-19 02:58:13.79	357.97	12.46	
2025-01-19 02:58:14.00	357.94	12.48	
2025-01-19 02:58:14.20	357.91	12.49	
2025-01-19 02:58:14.40	357.88	12.51	
2025-01-19 02:58:14.61	357.85	12.52	
2025-01-19 02:58:14.81	357.82	12.54	
2025-01-19 02:58:15.01	357.79	12.55	
2025-01-19 02:58:15.22	357.76	12.57	
2025-01-19 02:58:15.42	357.73	12.59	
2025-01-19 02:58:15.62	357.70	12.60	
2025-01-19 02:58:15.83	357.66	12.62	
2025-01-19 02:58:16.03	357.63	12.63	
2025-01-19 02:58:16.23	357.60	12.65	
2025-01-19 02:58:16.44	357.57	12.67	
2025-01-19 02:58:16.64	357.54	12.68	
2025-01-19 02:58:16.84	357.51	12.70	
2025-01-19 02:58:17.05	357.48	12.71	
2025-01-19 02:58:17.25	357.45	12.73	
2025-01-19 02:58:17.45	357.42	12.74	
2025-01-19 02:58:17.65	357.39	12.76	
2025-01-19 02:58:17.86	357.36	12.78	
2025-01-19 02:58:18.06	357.33	12.79	
2025-01-19 02:58:18.26	357.30	12.81	
2025-01-19 02:58:18.47	357.27	12.82	
2025-01-19 02:58:18.67	357.24	12.84	
2025-01-19 02:58:18.87	357.21	12.86	
2025-01-19 02:58:19.08	357.18	12.87	
2025-01-19 02:58:19.28	357.15	12.89	
2025-01-19 02:58:19.48	357.11	12.90	
2025-01-19 02:58:19.69	357.08	12.92	
2025-01-19 02:58:19.89	357.05	12.94	
2025-01-19 02:58:20.09	357.02	12.95	
2025-01-19 02:58:20.30	356.99	12.97	
2025-01-19 02:58:20.50	356.96	12.98	
2025-01-19 02:58:20.70	356.93	13.00	
2025-01-19 02:58:20.91	356.90	13.02	
2025-01-19 02:58:21.11	356.87	13.03	
2025-01-19 02:58:21.31	356.84	13.05	
2025-01-19 02:58:21.52	356.80	13.06	
2025-01-19 02:58:21.72	356.77	13.08	
2025-01-19 02:58:21.92	356.74	13.09	
2025-01-19 02:58:22.13	356.71	13.11	
2025-01-19 02:58:22.33	356.68	13.13	
2025-01-19 02:58:22.53	356.65	13.14	
2025-01-19 02:58:22.74	356.61	13.16	
2025-01-19 02:58:22.94	356.58	13.18	
2025-01-19 02:58:23.14	356.55	13.19	
2025-01-19 02:58:23.34	356.52	13.21	
2025-01-19 02:58:23.55	356.49	13.22	
2025-01-19 02:58:23.75	356.46	13.24	
2025-01-19 02:58:23.95	356.43	13.25	
2025-01-19 02:58:24.16	356.39	13.27	
2025-01-19 02:58:24.36	356.36	13.29	
2025-01-19 02:58:24.56	356.33	13.30	
2025-01-19 02:58:24.77	356.30	13.32	
2025-01-19 02:58:24.97	356.27	13.33	
2025-01-19 02:58:25.17	356.23	13.35	
2025-01-19 02:58:25.38	356.20	13.37	
2025-01-19 02:58:25.58	356.17	13.38	
2025-01-19 02:58:25.78	356.14	13.40	
2025-01-19 02:58:25.99	356.11	13.42	
2025-01-19 02:58:26.19	356.07	13.43	
2025-01-19 02:58:26.39	356.04	13.45	
2025-01-19 02:58:26.60	356.01	13.46	
2025-01-19 02:58:26.80	355.98	13.48	
2025-01-19 02:58:27.00	355.95	13.50	
2025-01-19 02:58:27.21	355.91	13.51	
2025-01-19 02:58:27.41	355.88	13.53	
2025-01-19 02:58:27.61	355.85	13.54	
2025-01-19 02:58:27.82	355.81	13.56	
2025-01-19 02:58:28.02	355.78	13.58	
2025-01-19 02:58:28.22	355.75	13.59	
2025-01-19 02:58:28.43	355.72	13.61	
2025-01-19 02:58:28.63	355.68	13.62	
2025-01-19 02:58:28.83	355.65	13.64	
2025-01-19 02:58:29.03	355.62	13.66	
2025-01-19 02:58:29.24	355.59	13.67	
2025-01-19 02:58:29.44	355.55	13.69	
2025-01-19 02:58:29.64	355.52	13.70	
2025-01-19 02:58:29.85	355.49	13.72	
2025-01-19 02:58:30.05	355.46	13.74	
2025-01-19 02:58:30.25	355.42	13.75	
2025-01-19 02:58:30.46	355.39	13.77	
2025-01-19 02:58:30.66	355.36	13.78	
2025-01-19 02:58:30.86	355.32	13.80	
2025-01-19 02:58:31.07	355.29	13.82	
2025-01-19 02:58:31.27	355.26	13.83	
2025-01-19 02:58:31.47	355.23	13.85	
2025-01-19 02:58:31.68	355.19	13.87	
2025-01-19 02:58:31.88	355.16	13.88	
2025-01-19 02:58:32.08	355.13	13.90	
2025-01-19 02:58:32.29	355.09	13.91	
2025-01-19 02:58:32.49	355.06	13.93	
2025-01-19 02:58:32.69	355.03	13.95	
2025-01-19 02:58:32.90	354.99	13.96	
2025-01-19 02:58:33.10	354.96	13.98	
2025-01-19 02:58:33.30	354.93	13.99	
2025-01-19 02:58:33.51	354.89	14.01	
2025-01-19 02:58:33.71	354.86	14.03	
2025-01-19 02:58:33.91	354.82	14.04	
2025-01-19 02:58:34.11	354.79	14.06	
2025-01-19 02:58:34.32	354.76	14.08	
2025-01-19 02:58:34.52	354.72	14.09	
2025-01-19 02:58:34.72	354.69	14.11	
2025-01-19 02:58:34.93	354.66	14.12	
2025-01-19 02:58:35.13	354.62	14.14	
2025-01-19 02:58:35.33	354.59	14.16	
2025-01-19 02:58:35.54	354.55	14.17	
2025-01-19 02:58:35.74	354.52	14.19	
2025-01-19 02:58:35.94	354.49	14.20	
2025-01-19 02:58:36.15	354.45	14.22	
2025-01-19 02:58:36.35	354.42	14.24	
2025-01-19 02:58:36.55	354.38	14.25	
2025-01-19 02:58:36.76	354.35	14.27	
2025-01-19 02:58:36.96	354.32	14.29	
2025-01-19 02:58:37.16	354.28	14.30	
2025-01-19 02:58:37.37	354.25	14.32	
2025-01-19 02:58:37.57	354.21	14.33	
2025-01-19 02:58:37.77	354.18	14.35	
2025-01-19 02:58:37.98	354.14	14.37	
2025-01-19 02:58:38.18	354.11	14.38	
2025-01-19 02:58:38.38	354.07	14.40	
2025-01-19 02:58:38.59	354.04	14.41	
2025-01-19 02:58:38.79	354.01	14.43	
2025-01-19 02:58:38.99	353.97	14.45	
2025-01-19 02:58:39.20	353.94	14.46	
2025-01-19 02:58:39.40	353.90	14.48	
2025-01-19 02:58:39.60	353.87	14.50	
2025-01-19 02:58:39.80	353.83	14.51	
2025-01-19 02:58:40.01	353.80	14.53	
2025-01-19 02:58:40.21	353.76	14.54	
2025-01-19 02:58:40.41	353.73	14.56	
2025-01-19 02:58:40.62	353.69	14.58	
2025-01-19 02:58:40.82	353.66	14.59	
2025-01-19 02:58:41.02	353.62	14.61	
2025-01-19 02:58:41.23	353.59	14.63	
2025-01-19 02:58:41.43	353.55	14.64	
2025-01-19 02:58:41.63	353.52	14.66	
2025-01-19 02:58:41.84	353.48	14.67	
2025-01-19 02:58:42.04	353.45	14.69	
2025-01-19 02:58:42.24	353.41	14.71	
2025-01-19 02:58:42.45	353.38	14.72	
2025-01-19 02:58:42.65	353.34	14.74	
2025-01-19 02:58:42.85	353.31	14.75	
2025-01-19 02:58:43.06	353.27	14.77	
2025-01-19 02:58:43.26	353.23	14.79	
2025-01-19 02:58:43.46	353.20	14.80	
2025-01-19 02:58:43.67	353.16	14.82	
2025-01-19 02:58:43.87	353.13	14.84	
2025-01-19 02:58:44.07	353.09	14.85	
2025-01-19 02:58:44.28	353.06	14.87	
2025-01-19 02:58:44.48	353.02	14.88	
2025-01-19 02:58:44.68	352.98	14.90	
2025-01-19 02:58:44.89	352.95	14.92	
2025-01-19 02:58:45.09	352.91	14.93	
2025-01-19 02:58:45.29	352.88	14.95	
2025-01-19 02:58:45.49	352.84	14.97	
2025-01-19 02:58:45.70	352.80	14.98	
2025-01-19 02:58:45.90	352.77	15.00	
2025-01-19 02:58:46.10	352.73	15.01	
2025-01-19 02:58:46.31	352.70	15.03	
2025-01-19 02:58:46.51	352.66	15.05	
2025-01-19 02:58:46.71	352.62	15.06	
2025-01-19 02:58:46.92	352.59	15.08	
2025-01-19 02:58:47.12	352.55	15.10	
2025-01-19 02:58:47.32	352.52	15.11	
2025-01-19 02:58:47.53	352.48	15.13	
2025-01-19 02:58:47.73	352.44	15.14	
2025-01-19 02:58:47.93	352.41	15.16	
2025-01-19 02:58:48.14	352.37	15.18	
2025-01-19 02:58:48.34	352.33	15.19	
2025-01-19 02:58:48.54	352.30	15.21	
2025-01-19 02:58:48.75	352.26	15.23	
2025-01-19 02:58:48.95	352.22	15.24	
2025-01-19 02:58:49.15	352.19	15.26	
2025-01-19 02:58:49.36	352.15	15.28	
2025-01-19 02:58:49.56	352.11	15.29	
2025-01-19 02:58:49.76	352.08	15.31	
2025-01-19 02:58:49.97	352.04	15.32	
2025-01-19 02:58:50.17	352.00	15.34	
2025-01-19 02:58:50.37	351.97	15.36	
2025-01-19 02:58:50.58	351.93	15.37	
2025-01-19 02:58:50.78	351.89	15.39	
2025-01-19 02:58:50.98	351.85	15.40	
2025-01-19 02:58:51.18	351.82	15.42	
2025-01-19 02:58:51.39	351.78	15.44	
2025-01-19 02:58:51.59	351.74	15.45	
2025-01-19 02:58:51.79	351.71	15.47	
2025-01-19 02:58:52.00	351.67	15.49	
2025-01-19 02:58:52.20	351.63	15.50	
2025-01-19 02:58:52.40	351.59	15.52	
2025-01-19 02:58:52.61	351.55	15.54	
2025-01-19 02:58:52.81	351.52	15.55	
2025-01-19 02:58:53.01	351.48	15.57	
2025-01-19 02:58:53.22	351.44	15.58	
2025-01-19 02:58:53.42	351.40	15.60	
2025-01-19 02:58:53.62	351.37	15.62	
2025-01-19 02:58:53.83	351.33	15.63	
2025-01-19 02:58:54.03	351.29	15.65	
2025-01-19 02:58:54.23	351.25	15.66	
2025-01-19 02:58:54.44	351.21	15.68	
2025-01-19 02:58:54.64	351.18	15.70	
2025-01-19 02:58:54.84	351.14	15.71	
2025-01-19 02:58:55.05	351.10	15.73	
2025-01-19 02:58:55.25	351.06	15.75	
2025-01-19 02:58:55.45	351.03	15.76	
2025-01-19 02:58:55.66	350.99	15.78	
2025-01-19 02:58:55.86	350.95	15.80	
2025-01-19 02:58:56.06	350.91	15.81	
2025-01-19 02:58:56.26	350.87	15.83	
2025-01-19 02:58:56.47	350.83	15.84	
2025-01-19 02:58:56.67	350.80	15.86	
2025-01-19 02:58:56.87	350.76	15.88	
2025-01-19 02:58:57.08	350.72	15.89	
2025-01-19 02:58:57.28	350.68	15.91	
2025-01-19 02:58:57.48	350.64	15.92	
2025-01-19 02:58:57.69	350.60	15.94	
2025-01-19 02:58:57.89	350.56	15.96	
2025-01-19 02:58:58.09	350.53	15.97	
2025-01-19 02:58:58.30	350.49	15.99	
2025-01-19 02:58:58.50	350.45	16.01	
2025-01-19 02:58:58.70	350.41	16.02	
2025-01-19 02:58:58.91	350.37	16.04	
2025-01-19 02:58:59.11	350.33	16.06	
2025-01-19 02:58:59.31	350.29	16.07	
2025-01-19 02:58:59.52	350.25	16.09	
2025-01-19 02:58:59.72	350.21	16.10	
2025-01-19 02:58:59.92	350.18	16.12	
2025-01-19 02:59:00.13	350.14	16.14	
2025-01-19 02:59:00.34	350.10	16.15	
2025-01-19 02:59:00.55	350.05	16.17	
2025-01-19 02:59:00.75	350.02	16.19	
2025-01-19 02:59:00.95	349.98	16.20	
2025-01-19 02:59:01.16	349.94	16.22	
2025-01-19 02:59:01.37	349.90	16.24	
2025-01-19 02:59:01.57	349.86	16.25	
2025-01-19 02:59:01.78	349.82	16.27	
2025-01-19 02:59:01.98	349.78	16.28	
2025-01-19 02:59:02.18	349.74	16.30	
2025-01-19 02:59:02.38	349.70	16.32	
2025-01-19 02:59:02.59	349.66	16.33	
2025-01-19 02:59:02.79	349.62	16.35	
2025-01-19 02:59:02.99	349.58	16.37	
2025-01-19 02:59:03.20	349.54	16.38	
2025-01-19 02:59:03.40	349.50	16.40	
2025-01-19 02:59:03.60	349.46	16.41	
2025-01-19 02:59:03.81	349.42	16.43	
2025-01-19 02:59:04.01	349.38	16.45	
2025-01-19 02:59:04.21	349.34	16.46	
2025-01-19 02:59:04.42	349.30	16.48	
2025-01-19 02:59:04.62	349.26	16.50	
2025-01-19 02:59:04.82	349.22	16.51	
2025-01-19 02:59:05.03	349.18	16.53	
2025-01-19 02:59:05.23	349.14	16.54	
2025-01-19 02:59:05.43	349.10	16.56	
2025-01-19 02:59:05.64	349.06	16.58	
2025-01-19 02:59:05.84	349.02	16.59	
2025-01-19 02:59:06.04	348.98	16.61	
2025-01-19 02:59:06.25	348.93	16.63	
2025-01-19 02:59:06.45	348.89	16.64	
2025-01-19 02:59:06.65	348.85	16.66	
2025-01-19 02:59:06.86	348.81	16.67	
2025-01-19 02:59:07.06	348.77	16.69	
2025-01-19 02:59:07.26	348.73	16.71	
2025-01-19 02:59:07.47	348.69	16.72	
2025-01-19 02:59:07.67	348.65	16.74	
2025-01-19 02:59:07.87	348.61	16.75	
2025-01-19 02:59:08.07	348.57	16.77	
2025-01-19 02:59:08.28	348.53	16.79	
2025-01-19 02:59:08.48	348.49	16.80	
2025-01-19 02:59:08.68	348.45	16.82	
2025-01-19 02:59:08.89	348.40	16.84	
2025-01-19 02:59:09.09	348.36	16.85	
2025-01-19 02:59:09.29	348.32	16.87	
2025-01-19 02:59:09.50	348.28	16.88	
2025-01-19 02:59:09.70	348.24	16.90	
2025-01-19 02:59:09.90	348.20	16.92	
2025-01-19 02:59:10.11	348.16	16.93	
2025-01-19 02:59:10.31	348.11	16.95	
2025-01-19 02:59:10.51	348.07	16.96	
2025-01-19 02:59:10.72	348.03	16.98	
2025-01-19 02:59:10.92	347.99	17.00	
2025-01-19 02:59:11.12	347.95	17.01	
2025-01-19 02:59:11.33	347.91	17.03	
2025-01-19 02:59:11.53	347.86	17.05	
2025-01-19 02:59:11.73	347.82	17.06	
2025-01-19 02:59:11.94	347.78	17.08	
2025-01-19 02:59:12.14	347.74	17.09	
2025-01-19 02:59:12.34	347.70	17.11	
2025-01-19 02:59:12.55	347.65	17.13	
2025-01-19 02:59:12.75	347.61	17.14	
2025-01-19 02:59:12.95	347.57	17.16	
2025-01-19 02:59:13.16	347.53	17.17	
2025-01-19 02:59:13.36	347.49	17.19	
2025-01-19 02:59:13.56	347.44	17.21	
2025-01-19 02:59:13.76	347.40	17.22	
2025-01-19 02:59:13.97	347.36	17.24	
2025-01-19 02:59:14.17	347.32	17.25	
2025-01-19 02:59:14.37	347.28	17.27	
2025-01-19 02:59:14.58	347.23	17.29	
2025-01-19 02:59:14.78	347.19	17.30	
2025-01-19 02:59:14.98	347.15	17.32	
2025-01-19 02:59:15.19	347.10	17.34	
2025-01-19 02:59:15.39	347.06	17.35	
2025-01-19 02:59:15.59	347.02	17.37	
2025-01-19 02:59:15.80	346.98	17.38	
2025-01-19 02:59:16.00	346.93	17.40	
2025-01-19 02:59:16.20	346.89	17.42	
2025-01-19 02:59:16.41	346.85	17.43	
2025-01-19 02:59:16.61	346.80	17.45	
2025-01-19 02:59:16.81	346.76	17.46	
2025-01-19 02:59:17.02	346.72	17.48	
2025-01-19 02:59:17.22	346.67	17.50	
2025-01-19 02:59:17.42	346.63	17.51	
2025-01-19 02:59:17.63	346.59	17.53	
2025-01-19 02:59:17.83	346.54	17.54	
2025-01-19 02:59:18.03	346.50	17.56	
2025-01-19 02:59:18.24	346.46	17.58	
2025-01-19 02:59:18.44	346.41	17.59	
2025-01-19 02:59:18.64	346.37	17.61	
2025-01-19 02:59:18.85	346.33	17.62	
2025-01-19 02:59:19.05	346.28	17.64	
2025-01-19 02:59:19.25	346.24	17.66	
2025-01-19 02:59:19.45	346.20	17.67	
2025-01-19 02:59:19.66	346.15	17.69	
2025-01-19 02:59:19.86	346.11	17.70	
2025-01-19 02:59:20.06	346.07	17.72	
2025-01-19 02:59:20.27	346.02	17.74	
2025-01-19 02:59:20.47	345.98	17.75	
2025-01-19 02:59:20.67	345.93	17.77	
2025-01-19 02:59:20.88	345.89	17.78	
2025-01-19 02:59:21.08	345.85	17.80	
2025-01-19 02:59:21.28	345.80	17.81	
2025-01-19 02:59:21.49	345.76	17.83	
2025-01-19 02:59:21.69	345.71	17.85	
2025-01-19 02:59:21.89	345.67	17.86	
2025-01-19 02:59:22.10	345.62	17.88	
2025-01-19 02:59:22.30	345.58	17.89	
2025-01-19 02:59:22.50	345.54	17.91	
2025-01-19 02:59:22.71	345.49	17.93	
2025-01-19 02:59:22.91	345.45	17.94	
2025-01-19 02:59:23.11	345.40	17.96	
2025-01-19 02:59:23.32	345.36	17.97	
2025-01-19 02:59:23.52	345.31	17.99	
2025-01-19 02:59:23.72	345.27	18.01	
2025-01-19 02:59:23.93	345.22	18.02	
2025-01-19 02:59:24.13	345.18	18.04	
2025-01-19 02:59:24.33	345.13	18.05	
2025-01-19 02:59:24.54	345.09	18.07	
2025-01-19 02:59:24.74	345.04	18.08	
2025-01-19 02:59:24.94	345.00	18.10	
2025-01-19 02:59:25.14	344.95	18.12	
2025-01-19 02:59:25.35	344.91	18.13	
2025-01-19 02:59:25.55	344.86	18.15	
2025-01-19 02:59:25.75	344.82	18.16	
2025-01-19 02:59:25.96	344.77	18.18	
2025-01-19 02:59:26.16	344.73	18.20	
2025-01-19 02:59:26.36	344.68	18.21	
2025-01-19 02:59:26.57	344.64	18.23	
2025-01-19 02:59:26.77	344.59	18.24	
2025-01-19 02:59:26.97	344.55	18.26	
2025-01-19 02:59:27.18	344.50	18.27	
2025-01-19 02:59:27.38	344.45	18.29	
2025-01-19 02:59:27.58	344.41	18.31	
2025-01-19 02:59:27.79	344.36	18.32	
2025-01-19 02:59:27.99	344.32	18.34	
2025-01-19 02:59:28.19	344.27	18.35	
2025-01-19 02:59:28.40	344.22	18.37	
2025-01-19 02:59:28.60	344.18	18.38	
2025-01-19 02:59:28.80	344.13	18.40	
2025-01-19 02:59:29.01	344.09	18.42	
2025-01-19 02:59:29.21	344.04	18.43	
2025-01-19 02:59:29.41	343.99	18.45	
2025-01-19 02:59:29.62	343.95	18.46	
2025-01-19 02:59:29.82	343.90	18.48	
2025-01-19 02:59:30.02	343.86	18.49	
2025-01-19 02:59:30.22	343.81	18.51	
2025-01-19 02:59:30.43	343.76	18.53	
2025-01-19 02:59:30.63	343.72	18.54	
2025-01-19 02:59:30.83	343.67	18.56	
2025-01-19 02:59:31.04	343.62	18.57	
2025-01-19 02:59:31.24	343.58	18.59	
2025-01-19 02:59:31.44	343.53	18.60	
2025-01-19 02:59:31.65	343.48	18.62	
2025-01-19 02:59:31.85	343.44	18.63	
2025-01-19 02:59:32.05	343.39	18.65	
2025-01-19 02:59:32.26	343.34	18.67	
2025-01-19 02:59:32.46	343.30	18.68	
2025-01-19 02:59:32.66	343.25	18.70	
2025-01-19 02:59:32.87	343.20	18.71	
2025-01-19 02:59:33.07	343.15	18.73	
2025-01-19 02:59:33.27	343.11	18.74	
2025-01-19 02:59:33.48	343.06	18.76	
2025-01-19 02:59:33.68	343.01	18.77	
2025-01-19 02:59:33.88	342.97	18.79	
2025-01-19 02:59:34.09	342.92	18.81	
2025-01-19 02:59:34.29	342.87	18.82	
2025-01-19 02:59:34.49	342.82	18.84	
2025-01-19 02:59:34.70	342.77	18.85	
2025-01-19 02:59:34.90	342.73	18.87	
2025-01-19 02:59:35.10	342.68	18.88	
2025-01-19 02:59:35.31	342.63	18.90	
2025-01-19 02:59:35.51	342.58	18.91	
2025-01-19 02:59:35.71	342.54	18.93	
2025-01-19 02:59:35.91	342.49	18.94	
2025-01-19 02:59:36.12	342.44	18.96	
2025-01-19 02:59:36.32	342.39	18.97	
2025-01-19 02:59:36.52	342.35	18.99	
2025-01-19 02:59:36.73	342.30	19.01	
2025-01-19 02:59:36.93	342.25	19.02	
2025-01-19 02:59:37.13	342.20	19.04	
2025-01-19 02:59:37.34	342.15	19.05	
2025-01-19 02:59:37.54	342.11	19.07	
2025-01-19 02:59:37.74	342.06	19.08	
2025-01-19 02:59:37.95	342.01	19.10	
2025-01-19 02:59:38.15	341.96	19.11	
2025-01-19 02:59:38.35	341.91	19.13	
2025-01-19 02:59:38.56	341.86	19.14	
2025-01-19 02:59:38.76	341.81	19.16	
2025-01-19 02:59:38.96	341.77	19.17	
2025-01-19 02:59:39.17	341.72	19.19	
2025-01-19 02:59:39.37	341.67	19.20	
2025-01-19 02:59:39.57	341.62	19.22	
2025-01-19 02:59:39.78	341.57	19.23	
2025-01-19 02:59:39.98	341.52	19.25	
2025-01-19 02:59:40.18	341.47	19.26	
2025-01-19 02:59:40.39	341.42	19.28	
2025-01-19 02:59:40.59	341.38	19.30	
2025-01-19 02:59:40.79	341.33	19.31	
2025-01-19 02:59:41.00	341.28	19.33	
2025-01-19 02:59:41.20	341.23	19.34	
2025-01-19 02:59:41.40	341.18	19.36	
2025-01-19 02:59:41.60	341.13	19.37	
2025-01-19 02:59:41.81	341.08	19.39	
2025-01-19 02:59:42.01	341.03	19.40	
2025-01-19 02:59:42.21	340.98	19.42	
2025-01-19 02:59:42.42	340.93	19.43	
2025-01-19 02:59:42.62	340.88	19.45	
2025-01-19 02:59:42.82	340.83	19.46	
2025-01-19 02:59:43.03	340.78	19.48	
2025-01-19 02:59:43.23	340.73	19.49	
2025-01-19 02:59:43.43	340.68	19.51	
2025-01-19 02:59:43.64	340.63	19.52	
2025-01-19 02:59:43.84	340.58	19.54	
2025-01-19 02:59:44.04	340.54	19.55	
2025-01-19 02:59:44.25	340.48	19.57	
2025-01-19 02:59:44.45	340.43	19.58	
2025-01-19 02:59:44.65	340.39	19.60	
2025-01-19 02:59:44.86	340.33	19.61	
2025-01-19 02:59:45.06	340.28	19.63	
2025-01-19 02:59:45.26	340.23	19.64	
2025-01-19 02:59:45.47	340.18	19.66	
2025-01-19 02:59:45.67	340.13	19.67	
2025-01-19 02:59:45.87	340.08	19.68	
2025-01-19 02:59:46.08	340.03	19.70	
2025-01-19 02:59:46.28	339.98	19.71	
2025-01-19 02:59:46.48	339.93	19.73	
2025-01-19 02:59:46.69	339.88	19.74	
2025-01-19 02:59:46.89	339.83	19.76	
2025-01-19 02:59:47.09	339.78	19.77	
2025-01-19 02:59:47.29	339.73	19.79	
2025-01-19 02:59:47.50	339.68	19.80	
2025-01-19 02:59:47.70	339.63	19.82	
2025-01-19 02:59:47.90	339.58	19.83	
2025-01-19 02:59:48.11	339.53	19.85	
2025-01-19 02:59:48.31	339.47	19.86	
2025-01-19 02:59:48.51	339.42	19.88	
2025-01-19 02:59:48.72	339.37	19.89	
2025-01-19 02:59:48.92	339.32	19.91	
2025-01-19 02:59:49.12	339.27	19.92	
2025-01-19 02:59:49.33	339.22	19.94	
2025-01-19 02:59:49.53	339.17	19.95	
2025-01-19 02:59:49.73	339.12	19.96	
2025-01-19 02:59:49.94	339.06	19.98	
2025-01-19 02:59:50.14	339.01	19.99	
2025-01-19 02:59:50.34	338.96	20.01	
2025-01-19 02:59:50.55	338.91	20.02	
2025-01-19 02:59:50.75	338.86	20.04	
2025-01-19 02:59:50.95	338.81	20.05	
2025-01-19 02:59:51.16	338.75	20.07	
2025-01-19 02:59:51.36	338.70	20.08	
2025-01-19 02:59:51.56	338.65	20.10	
2025-01-19 02:59:51.77	338.60	20.11	
2025-01-19 02:59:51.97	338.55	20.12	
2025-01-19 02:59:52.17	338.50	20.14	
2025-01-19 02:59:52.38	338.44	20.15	
2025-01-19 02:59:52.58	338.39	20.17	
2025-01-19 02:59:52.78	338.34	20.18	
2025-01-19 02:59:52.98	338.29	20.20	
2025-01-19 02:59:53.19	338.23	20.21	
2025-01-19 02:59:53.39	338.18	20.23	
2025-01-19 02:59:53.59	338.13	20.24	
2025-01-19 02:59:53.80	338.08	20.25	
2025-01-19 02:59:54.00	338.03	20.27	
2025-01-19 02:59:54.20	337.97	20.28	
2025-01-19 02:59:54.41	337.92	20.30	
2025-01-19 02:59:54.61	337.87	20.31	
2025-01-19 02:59:54.81	337.82	20.32	
2025-01-19 02:59:55.02	337.76	20.34	
2025-01-19 02:59:55.22	337.71	20.35	
2025-01-19 02:59:55.42	337.66	20.37	
2025-01-19 02:59:55.63	337.60	20.38	
2025-01-19 02:59:55.83	337.55	20.40	
2025-01-19 02:59:56.03	337.50	20.41	
2025-01-19 02:59:56.24	337.44	20.42	
2025-01-19 02:59:56.44	337.39	20.44	
2025-01-19 02:59:56.64	337.34	20.45	
2025-01-19 02:59:56.85	337.28	20.47	
2025-01-19 02:59:57.05	337.23	20.48	
2025-01-19 02:59:57.25	337.18	20.49	
2025-01-19 02:59:57.46	337.12	20.51	
2025-01-19 02:59:57.66	337.07	20.52	
2025-01-19 02:59:57.86	337.02	20.54	
2025-01-19 02:59:58.07	336.96	20.55	
2025-01-19 02:59:58.27	336.91	20.56	
2025-01-19 02:59:58.47	336.86	20.58	
2025-01-19 02:59:58.67	336.81	20.59	
2025-01-19 02:59:58.88	336.75	20.61	
2025-01-19 02:59:59.08	336.70	20.62	
2025-01-19 02:59:59.28	336.64	20.63	
2025-01-19 02:59:59.49	336.59	20.65	
2025-01-19 02:59:59.69	336.54	20.66	
2025-01-19 02:59:59.89	336.48	20.68	
2025-01-19 03:00:00.10	336.43	20.69	
2025-01-19 03:00:00.30	336.37	20.70	
2025-01-19 03:00:00.50	336.32	20.72	
2025-01-19 03:00:00.71	336.26	20.73	
2025-01-19 03:00:00.91	336.21	20.74	
2025-01-19 03:00:01.11	336.16	20.76	
2025-01-19 03:00:01.32	336.10	20.77	
2025-01-19 03:00:01.52	336.05	20.79	
2025-01-19 03:00:01.72	335.99	20.80	
2025-01-19 03:00:01.93	335.94	20.81	
2025-01-19 03:00:02.13	335.88	20.83	
2025-01-19 03:00:02.33	335.83	20.84	
2025-01-19 03:00:02.54	335.77	20.85	
2025-01-19 03:00:02.74	335.72	20.87	
2025-01-19 03:00:02.94	335.67	20.88	
2025-01-19 03:00:03.15	335.61	20.89	
2025-01-19 03:00:03.35	335.56	20.91	
2025-01-19 03:00:03.55	335.50	20.92	
2025-01-19 03:00:03.76	335.45	20.94	
2025-01-19 03:00:03.96	335.39	20.95	
2025-01-19 03:00:04.16	335.34	20.96	
2025-01-19 03:00:04.36	335.28	20.98	
2025-01-19 03:00:04.57	335.23	20.99	
2025-01-19 03:00:04.77	335.17	21.00	
2025-01-19 03:00:04.97	335.12	21.02	
2025-01-19 03:00:05.18	335.06	21.03	
2025-01-19 03:00:05.38	335.01	21.04	
2025-01-19 03:00:05.58	334.95	21.06	
2025-01-19 03:00:05.79	334.89	21.07	
2025-01-19 03:00:05.99	334.84	21.08	
2025-01-19 03:00:06.19	334.78	21.10	
2025-01-19 03:00:06.40	334.73	21.11	
2025-01-19 03:00:06.60	334.67	21.12	
2025-01-19 03:00:06.80	334.62	21.13	
2025-01-19 03:00:07.01	334.56	21.15	
2025-01-19 03:00:07.21	334.51	21.16	
2025-01-19 03:00:07.41	334.45	21.17	
2025-01-19 03:00:07.62	334.39	21.19	
2025-01-19 03:00:07.82	334.34	21.20	
2025-01-19 03:00:08.02	334.28	21.21	
2025-01-19 03:00:08.23	334.22	21.23	
2025-01-19 03:00:08.43	334.17	21.24	
2025-01-19 03:00:08.63	334.11	21.25	
2025-01-19 03:00:08.84	334.06	21.27	
2025-01-19 03:00:09.04	334.00	21.28	
2025-01-19 03:00:09.24	333.95	21.29	
2025-01-19 03:00:09.45	333.89	21.30	
2025-01-19 03:00:09.65	333.83	21.32	
2025-01-19 03:00:09.85	333.78	21.33	
2025-01-19 03:00:10.05	333.72	21.34	
2025-01-19 03:00:10.26	333.66	21.36	
2025-01-19 03:00:10.46	333.61	21.37	
2025-01-19 03:00:10.66	333.55	21.38	
2025-01-19 03:00:10.87	333.49	21.39	
2025-01-19 03:00:11.07	333.44	21.41	
2025-01-19 03:00:11.27	333.38	21.42	
2025-01-19 03:00:11.48	333.32	21.43	
2025-01-19 03:00:11.68	333.27	21.45	
2025-01-19 03:00:11.88	333.21	21.46	
2025-01-19 03:00:12.09	333.15	21.47	
2025-01-19 03:00:12.29	333.09	21.48	
2025-01-19 03:00:12.49	333.04	21.50	
2025-01-19 03:00:12.70	332.98	21.51	
2025-01-19 03:00:12.90	332.92	21.52	
2025-01-19 03:00:13.10	332.87	21.53	
2025-01-19 03:00:13.31	332.81	21.55	
2025-01-19 03:00:13.51	332.75	21.56	
2025-01-19 03:00:13.71	332.69	21.57	
2025-01-19 03:00:13.92	332.63	21.58	
2025-01-19 03:00:14.12	332.58	21.60	
2025-01-19 03:00:14.32	332.52	21.61	
2025-01-19 03:00:14.53	332.46	21.62	
2025-01-19 03:00:14.73	332.41	21.63	
2025-01-19 03:00:14.93	332.35	21.64	
2025-01-19 03:00:15.13	332.29	21.66	
2025-01-19 03:00:15.34	332.23	21.67	
2025-01-19 03:00:15.54	332.18	21.68	
2025-01-19 03:00:15.74	332.12	21.69	
2025-01-19 03:00:15.95	332.06	21.71	
2025-01-19 03:00:16.15	332.00	21.72	
2025-01-19 03:00:16.35	331.94	21.73	
2025-01-19 03:00:16.56	331.88	21.74	
2025-01-19 03:00:16.76	331.83	21.75	
2025-01-19 03:00:16.96	331.77	21.77	
2025-01-19 03:00:17.17	331.71	21.78	
2025-01-19 03:00:17.37	331.65	21.79	
2025-01-19 03:00:17.57	331.59	21.80	
2025-01-19 03:00:17.78	331.53	21.82	
2025-01-19 03:00:17.98	331.48	21.83	
2025-01-19 03:00:18.18	331.42	21.84	
2025-01-19 03:00:18.39	331.36	21.85	
2025-01-19 03:00:18.59	331.30	21.86	
2025-01-19 03:00:18.79	331.24	21.87	
2025-01-19 03:00:19.00	331.18	21.89	
2025-01-19 03:00:19.20	331.13	21.90	
2025-01-19 03:00:19.40	331.07	21.91	
2025-01-19 03:00:19.61	331.01	21.92	
2025-01-19 03:00:19.81	330.95	21.93	
2025-01-19 03:00:20.01	330.89	21.95	
2025-01-19 03:00:20.22	330.83	21.96	
2025-01-19 03:00:20.42	330.77	21.97	
2025-01-19 03:00:20.62	330.71	21.98	
2025-01-19 03:00:20.82	330.66	21.99	
2025-01-19 03:00:21.03	330.59	22.00	
2025-01-19 03:00:21.23	330.54	22.02	
2025-01-19 03:00:21.43	330.48	22.03	
2025-01-19 03:00:21.64	330.42	22.04	
2025-01-19 03:00:21.84	330.36	22.05	
2025-01-19 03:00:22.04	330.30	22.06	
2025-01-19 03:00:22.25	330.24	22.07	
2025-01-19 03:00:22.45	330.18	22.08	
2025-01-19 03:00:22.65	330.12	22.10	
2025-01-19 03:00:22.86	330.06	22.11	
2025-01-19 03:00:23.06	330.00	22.12	
2025-01-19 03:00:23.26	329.94	22.13	
2025-01-19 03:00:23.47	329.88	22.14	
2025-01-19 03:00:23.67	329.82	22.15	
2025-01-19 03:00:23.87	329.76	22.16	
2025-01-19 03:00:24.08	329.70	22.17	
2025-01-19 03:00:24.28	329.64	22.19	
2025-01-19 03:00:24.48	329.58	22.20	
2025-01-19 03:00:24.69	329.52	22.21	
2025-01-19 03:00:24.89	329.46	22.22	
2025-01-19 03:00:25.09	329.40	22.23	
2025-01-19 03:00:25.30	329.34	22.24	
2025-01-19 03:00:25.50	329.28	22.25	
2025-01-19 03:00:25.70	329.22	22.26	
2025-01-19 03:00:25.91	329.16	22.27	
2025-01-19 03:00:26.11	329.10	22.28	
2025-01-19 03:00:26.31	329.04	22.30	
2025-01-19 03:00:26.51	328.98	22.31	
2025-01-19 03:00:26.72	328.92	22.32	
2025-01-19 03:00:26.92	328.86	22.33	
2025-01-19 03:00:27.12	328.80	22.34	
2025-01-19 03:00:27.33	328.74	22.35	
2025-01-19 03:00:27.53	328.68	22.36	
2025-01-19 03:00:27.73	328.62	22.37	
2025-01-19 03:00:27.94	328.56	22.38	
2025-01-19 03:00:28.14	328.50	22.39	
2025-01-19 03:00:28.34	328.44	22.40	
2025-01-19 03:00:28.55	328.37	22.41	
2025-01-19 03:00:28.75	328.31	22.42	
2025-01-19 03:00:28.95	328.25	22.43	
2025-01-19 03:00:29.16	328.19	22.45	
2025-01-19 03:00:29.36	328.13	22.46	
2025-01-19 03:00:29.56	328.07	22.47	
2025-01-19 03:00:29.77	328.01	22.48	
2025-01-19 03:00:29.97	327.95	22.49	
2025-01-19 03:00:30.17	327.89	22.50	
2025-01-19 03:00:30.38	327.82	22.51	
2025-01-19 03:00:30.58	327.76	22.52	
2025-01-19 03:00:30.78	327.70	22.53	
2025-01-19 03:00:30.99	327.64	22.54	
2025-01-19 03:00:31.19	327.58	22.55	
2025-01-19 03:00:31.39	327.52	22.56	
2025-01-19 03:00:31.60	327.46	22.57	
2025-01-19 03:00:31.80	327.40	22.58	
2025-01-19 03:00:32.00	327.34	22.59	
2025-01-19 03:00:32.20	327.27	22.60	
2025-01-19 03:00:32.41	327.21	22.61	
2025-01-19 03:00:32.61	327.15	22.62	
2025-01-19 03:00:32.81	327.09	22.63	
2025-01-19 03:00:33.02	327.03	22.64	
2025-01-19 03:00:33.22	326.97	22.65	
2025-01-19 03:00:33.42	326.90	22.66	
2025-01-19 03:00:33.63	326.84	22.67	
2025-01-19 03:00:33.83	326.78	22.68	
2025-01-19 03:00:34.03	326.72	22.69	
2025-01-19 03:00:34.24	326.65	22.70	
2025-01-19 03:00:34.44	326.59	22.71	
2025-01-19 03:00:34.64	326.53	22.72	
2025-01-19 03:00:34.85	326.47	22.73	
2025-01-19 03:00:35.05	326.41	22.74	
2025-01-19 03:00:35.25	326.35	22.75	
2025-01-19 03:00:35.46	326.28	22.76	
2025-01-19 03:00:35.66	326.22	22.77	
2025-01-19 03:00:35.86	326.16	22.78	
2025-01-19 03:00:36.07	326.09	22.79	
2025-01-19 03:00:36.27	326.03	22.79	
2025-01-19 03:00:36.47	325.97	22.80	
2025-01-19 03:00:36.68	325.91	22.81	
2025-01-19 03:00:36.88	325.85	22.82	
2025-01-19 03:00:37.08	325.78	22.83	
2025-01-19 03:00:37.28	325.72	22.84	
2025-01-19 03:00:37.49	325.66	22.85	
2025-01-19 03:00:37.69	325.60	22.86	
2025-01-19 03:00:37.89	325.53	22.87	
2025-01-19 03:00:38.10	325.47	22.88	
2025-01-19 03:00:38.30	325.41	22.89	
2025-01-19 03:00:38.50	325.35	22.90	
2025-01-19 03:00:38.71	325.28	22.91	
2025-01-19 03:00:38.91	325.22	22.91	
2025-01-19 03:00:39.11	325.16	22.92	
2025-01-19 03:00:39.32	325.09	22.93	
2025-01-19 03:00:39.52	325.03	22.94	
2025-01-19 03:00:39.72	324.97	22.95	
2025-01-19 03:00:39.93	324.90	22.96	
2025-01-19 03:00:40.13	324.84	22.97	
2025-01-19 03:00:40.33	324.78	22.98	
2025-01-19 03:00:40.54	324.71	22.99	
2025-01-19 03:00:40.74	324.65	22.99	
2025-01-19 03:00:40.94	324.59	23.00	
2025-01-19 03:00:41.15	324.52	23.01	
2025-01-19 03:00:41.35	324.46	23.02	
2025-01-19 03:00:41.55	324.40	23.03	
2025-01-19 03:00:41.76	324.33	23.04	
2025-01-19 03:00:41.96	324.27	23.05	
2025-01-19 03:00:42.16	324.21	23.05	
2025-01-19 03:00:42.37	324.14	23.06	
2025-01-19 03:00:42.57	324.08	23.07	
2025-01-19 03:00:42.77	324.02	23.08	
2025-01-19 03:00:42.98	323.95	23.09	
2025-01-19 03:00:43.18	323.89	23.10	
2025-01-19 03:00:43.38	323.82	23.11	
2025-01-19 03:00:43.58	323.76	23.11	
2025-01-19 03:00:43.79	323.70	23.12	
2025-01-19 03:00:43.99	323.63	23.13	
2025-01-19 03:00:44.19	323.57	23.14	
2025-01-19 03:00:44.40	323.50	23.15	
2025-01-19 03:00:44.60	323.44	23.15	
2025-01-19 03:00:44.80	323.38	23.16	
2025-01-19 03:00:45.01	323.31	23.17	
2025-01-19 03:00:45.21	323.25	23.18	
2025-01-19 03:00:45.41	323.19	23.19	
2025-01-19 03:00:45.62	323.12	23.19	
2025-01-19 03:00:45.82	323.06	23.20	
2025-01-19 03:00:46.02	322.99	23.21	
2025-01-19 03:00:46.23	322.93	23.22	
2025-01-19 03:00:46.43	322.86	23.23	
2025-01-19 03:00:46.63	322.80	23.23	
2025-01-19 03:00:46.84	322.73	23.24	
2025-01-19 03:00:47.04	322.67	23.25	
2025-01-19 03:00:47.24	322.61	23.26	
2025-01-19 03:00:47.45	322.54	23.26	
2025-01-19 03:00:47.65	322.48	23.27	
2025-01-19 03:00:47.85	322.41	23.28	
2025-01-19 03:00:48.06	322.35	23.29	
2025-01-19 03:00:48.26	322.28	23.29	
2025-01-19 03:00:48.46	322.22	23.30	
2025-01-19 03:00:48.67	322.15	23.31	
2025-01-19 03:00:48.87	322.09	23.32	
2025-01-19 03:00:49.07	322.03	23.32	
2025-01-19 03:00:49.27	321.96	23.33	
2025-01-19 03:00:49.48	321.90	23.34	
2025-01-19 03:00:49.68	321.83	23.35	
2025-01-19 03:00:49.88	321.77	23.35	
2025-01-19 03:00:50.09	321.70	23.36	
2025-01-19 03:00:50.29	321.64	23.37	
2025-01-19 03:00:50.49	321.57	23.37	
2025-01-19 03:00:50.70	321.51	23.38	
2025-01-19 03:00:50.90	321.44	23.39	
2025-01-19 03:00:51.10	321.38	23.40	
2025-01-19 03:00:51.31	321.31	23.40	
2025-01-19 03:00:51.51	321.25	23.41	
2025-01-19 03:00:51.71	321.18	23.42	
2025-01-19 03:00:51.92	321.12	23.42	
2025-01-19 03:00:52.12	321.05	23.43	
2025-01-19 03:00:52.32	320.99	23.44	
2025-01-19 03:00:52.53	320.92	23.44	
2025-01-19 03:00:52.73	320.86	23.45	
2025-01-19 03:00:52.93	320.79	23.46	
2025-01-19 03:00:53.14	320.72	23.46	
2025-01-19 03:00:53.34	320.66	23.47	
2025-01-19 03:00:53.54	320.59	23.48	
2025-01-19 03:00:53.75	320.53	23.48	
2025-01-19 03:00:53.95	320.46	23.49	
2025-01-19 03:00:54.15	320.40	23.50	
2025-01-19 03:00:54.35	320.33	23.50	
2025-01-19 03:00:54.56	320.27	23.51	
2025-01-19 03:00:54.76	320.20	23.51	
2025-01-19 03:00:54.96	320.14	23.52	
2025-01-19 03:00:55.17	320.07	23.53	
2025-01-19 03:00:55.37	320.00	23.53	
2025-01-19 03:00:55.57	319.94	23.54	
2025-01-19 03:00:55.78	319.87	23.55	
2025-01-19 03:00:55.98	319.81	23.55	
2025-01-19 03:00:56.18	319.74	23.56	
2025-01-19 03:00:56.39	319.68	23.56	
2025-01-19 03:00:56.59	319.61	23.57	
2025-01-19 03:00:56.79	319.55	23.58	
2025-01-19 03:00:57.00	319.48	23.58	
2025-01-19 03:00:57.20	319.41	23.59	
2025-01-19 03:00:57.40	319.35	23.59	
2025-01-19 03:00:57.61	319.28	23.60	
2025-01-19 03:00:57.81	319.21	23.61	
2025-01-19 03:00:58.01	319.15	23.61	
2025-01-19 03:00:58.22	319.08	23.62	
2025-01-19 03:00:58.42	319.02	23.62	
2025-01-19 03:00:58.62	318.95	23.63	
2025-01-19 03:00:58.83	318.88	23.63	
2025-01-19 03:00:59.03	318.82	23.64	
2025-01-19 03:00:59.23	318.75	23.64	
2025-01-19 03:00:59.44	318.68	23.65	
2025-01-19 03:00:59.64	318.62	23.66	
2025-01-19 03:00:59.84	318.55	23.66	
2025-01-19 03:01:00.04	318.49	23.67	
2025-01-19 03:01:00.25	318.42	23.67	
2025-01-19 03:01:00.45	318.36	23.68	
2025-01-19 03:01:00.65	318.29	23.68	
2025-01-19 03:01:00.86	318.22	23.69	
2025-01-19 03:01:01.06	318.16	23.69	
2025-01-19 03:01:01.26	318.09	23.70	
2025-01-19 03:01:01.47	318.02	23.70	
2025-01-19 03:01:01.67	317.96	23.71	
2025-01-19 03:01:01.87	317.89	23.71	
2025-01-19 03:01:02.08	317.82	23.72	
2025-01-19 03:01:02.28	317.76	23.72	
2025-01-19 03:01:02.48	317.69	23.73	
2025-01-19 03:01:02.69	317.62	23.73	
2025-01-19 03:01:02.89	317.56	23.74	
2025-01-19 03:01:03.09	317.49	23.74	
2025-01-19 03:01:03.30	317.42	23.75	
2025-01-19 03:01:03.50	317.36	23.75	
2025-01-19 03:01:03.70	317.29	23.76	
2025-01-19 03:01:03.91	317.22	23.76	
2025-01-19 03:01:04.11	317.16	23.76	
2025-01-19 03:01:04.31	317.09	23.77	
2025-01-19 03:01:04.52	317.02	23.77	
2025-01-19 03:01:04.72	316.96	23.78	
2025-01-19 03:01:04.92	316.89	23.78	
2025-01-19 03:01:05.13	316.82	23.79	
2025-01-19 03:01:05.33	316.76	23.79	
2025-01-19 03:01:05.53	316.69	23.80	
2025-01-19 03:01:05.73	316.63	23.80	
2025-01-19 03:01:05.94	316.56	23.80	
2025-01-19 03:01:06.14	316.49	23.81	
2025-01-19 03:01:06.34	316.43	23.81	
2025-01-19 03:01:06.55	316.36	23.82	
2025-01-19 03:01:06.75	316.29	23.82	
2025-01-19 03:01:06.95	316.22	23.82	
2025-01-19 03:01:07.16	316.16	23.83	
2025-01-19 03:01:07.36	316.09	23.83	
2025-01-19 03:01:07.56	316.02	23.84	
2025-01-19 03:01:07.77	315.95	23.84	
2025-01-19 03:01:07.97	315.89	23.84	
2025-01-19 03:01:08.17	315.82	23.85	
2025-01-19 03:01:08.38	315.75	23.85	
2025-01-19 03:01:08.58	315.69	23.85	
2025-01-19 03:01:08.78	315.62	23.86	
2025-01-19 03:01:08.99	315.55	23.86	
2025-01-19 03:01:09.19	315.49	23.87	
2025-01-19 03:01:09.39	315.42	23.87	
2025-01-19 03:01:09.60	315.35	23.87	
2025-01-19 03:01:09.80	315.28	23.88	
2025-01-19 03:01:10.00	315.22	23.88	
2025-01-19 03:01:10.21	315.15	23.88	
2025-01-19 03:01:10.41	315.08	23.89	
2025-01-19 03:01:10.61	315.02	23.89	
2025-01-19 03:01:10.82	314.95	23.89	
2025-01-19 03:01:11.02	314.88	23.90	
2025-01-19 03:01:11.22	314.81	23.90	
2025-01-19 03:01:11.42	314.75	23.90	
2025-01-19 03:01:11.63	314.68	23.90	
2025-01-19 03:01:11.83	314.61	23.91	
2025-01-19 03:01:12.03	314.55	23.91	
2025-01-19 03:01:12.24	314.48	23.91	
2025-01-19 03:01:12.44	314.41	23.92	
2025-01-19 03:01:12.64	314.34	23.92	
2025-01-19 03:01:12.85	314.27	23.92	
2025-01-19 03:01:13.05	314.21	23.93	
2025-01-19 03:01:13.25	314.14	23.93	
2025-01-19 03:01:13.46	314.07	23.93	
2025-01-19 03:01:13.66	314.00	23.93	
2025-01-19 03:01:13.87	313.93	23.94	
2025-01-19 03:01:14.08	313.87	23.94	
2025-01-19 03:01:14.28	313.80	23.94	
2025-01-19 03:01:14.48	313.73	23.94	
2025-01-19 03:01:14.69	313.66	23.95	
2025-01-19 03:01:14.89	313.60	23.95	
2025-01-19 03:01:15.09	313.53	23.95	
2025-01-19 03:01:15.30	313.46	23.95	
2025-01-19 03:01:15.50	313.39	23.96	
2025-01-19 03:01:15.70	313.33	23.96	
2025-01-19 03:01:15.91	313.26	23.96	
2025-01-19 03:01:16.11	313.19	23.96	
2025-01-19 03:01:16.31	313.12	23.96	
2025-01-19 03:01:16.52	313.05	23.97	
2025-01-19 03:01:16.72	312.99	23.97	
2025-01-19 03:01:16.92	312.92	23.97	
2025-01-19 03:01:17.13	312.85	23.97	
2025-01-19 03:01:17.33	312.78	23.97	
2025-01-19 03:01:17.53	312.72	23.98	
2025-01-19 03:01:17.74	312.65	23.98	
2025-01-19 03:01:17.94	312.58	23.98	
2025-01-19 03:01:18.14	312.51	23.98	
2025-01-19 03:01:18.35	312.44	23.98	
2025-01-19 03:01:18.55	312.38	23.98	
2025-01-19 03:01:18.75	312.31	23.99	
2025-01-19 03:01:18.96	312.24	23.99	
2025-01-19 03:01:19.16	312.18	23.99	
2025-01-19 03:01:19.36	312.11	23.99	
2025-01-19 03:01:19.57	312.04	23.99	
2025-01-19 03:01:19.77	311.97	23.99	
2025-01-19 03:01:19.97	311.91	23.99	
2025-01-19 03:01:20.17	311.84	24.00	
2025-01-19 03:01:20.38	311.77	24.00	
2025-01-19 03:01:20.58	311.70	24.00	
2025-01-19 03:01:20.78	311.64	24.00	
2025-01-19 03:01:20.99	311.57	24.00	
2025-01-19 03:01:21.19	311.50	24.00	
2025-01-19 03:01:21.39	311.43	24.00	
2025-01-19 03:01:21.60	311.36	24.00	
2025-01-19 03:01:21.80	311.29	24.01	
2025-01-19 03:01:22.00	311.23	24.01	
2025-01-19 03:01:22.21	311.16	24.01	
2025-01-19 03:01:22.41	311.09	24.01	
2025-01-19 03:01:22.61	311.02	24.01	
2025-01-19 03:01:22.82	310.95	24.01	
2025-01-19 03:01:23.02	310.89	24.01	
2025-01-19 03:01:23.22	310.82	24.01	
2025-01-19 03:01:23.43	310.75	24.01	
2025-01-19 03:01:23.63	310.68	24.01	
2025-01-19 03:01:23.83	310.62	24.01	
2025-01-19 03:01:24.04	310.55	24.01	
2025-01-19 03:01:24.24	310.48	24.01	
2025-01-19 03:01:24.44	310.41	24.01	
2025-01-19 03:01:24.65	310.34	24.01	
2025-01-19 03:01:24.85	310.28	24.02	
2025-01-19 03:01:25.05	310.21	24.02	
2025-01-19 03:01:25.25	310.14	24.02	
2025-01-19 03:01:25.46	310.07	24.02	
2025-01-19 03:01:25.66	310.01	24.02	
2025-01-19 03:01:25.86	309.94	24.02	
2025-01-19 03:01:26.07	309.87	24.02	
2025-01-19 03:01:26.27	309.80	24.02	
2025-01-19 03:01:26.47	309.74	24.02	
2025-01-19 03:01:26.68	309.67	24.02	
2025-01-19 03:01:26.88	309.60	24.02	
2025-01-19 03:01:27.08	309.53	24.02	
2025-01-19 03:01:27.29	309.46	24.02	
2025-01-19 03:01:27.49	309.40	24.02	
2025-01-19 03:01:27.69	309.33	24.02	
2025-01-19 03:01:27.90	309.26	24.02	
2025-01-19 03:01:28.10	309.19	24.02	
2025-01-19 03:01:28.30	309.12	24.01	
2025-01-19 03:01:28.51	309.05	24.01	
2025-01-19 03:01:28.71	308.99	24.01	
2025-01-19 03:01:28.91	308.92	24.01	
2025-01-19 03:01:29.12	308.85	24.01	
2025-01-19 03:01:29.32	308.78	24.01	
2025-01-19 03:01:29.52	308.72	24.01	
2025-01-19 03:01:29.73	308.65	24.01	
2025-01-19 03:01:29.93	308.58	24.01	
2025-01-19 03:01:30.13	308.51	24.01	
2025-01-19 03:01:30.34	308.44	24.01	
2025-01-19 03:01:30.54	308.38	24.01	
2025-01-19 03:01:30.74	308.31	24.01	
2025-01-19 03:01:30.94	308.24	24.01	
2025-01-19 03:01:31.15	308.17	24.01	
2025-01-19 03:01:31.35	308.11	24.00	
2025-01-19 03:01:31.55	308.04	24.00	
2025-01-19 03:01:31.76	307.97	24.00	
2025-01-19 03:01:31.96	307.90	24.00	
2025-01-19 03:01:32.16	307.84	24.00	
2025-01-19 03:01:32.37	307.77	24.00	
2025-01-19 03:01:32.57	307.70	24.00	
2025-01-19 03:01:32.77	307.63	24.00	
2025-01-19 03:01:32.98	307.56	24.00	
2025-01-19 03:01:33.18	307.50	23.99	
2025-01-19 03:01:33.38	307.43	23.99	
2025-01-19 03:01:33.59	307.36	23.99	
2025-01-19 03:01:33.79	307.29	23.99	
2025-01-19 03:01:33.99	307.23	23.99	
2025-01-19 03:01:34.20	307.16	23.99	
2025-01-19 03:01:34.40	307.09	23.98	
2025-01-19 03:01:34.60	307.02	23.98	
2025-01-19 03:01:34.81	306.95	23.98	
2025-01-19 03:01:35.01	306.89	23.98	
2025-01-19 03:01:35.21	306.82	23.98	
2025-01-19 03:01:35.42	306.75	23.98	
2025-01-19 03:01:35.62	306.68	23.97	
2025-01-19 03:01:35.82	306.62	23.97	
2025-01-19 03:01:36.03	306.55	23.97	
2025-01-19 03:01:36.23	306.48	23.97	
2025-01-19 03:01:36.43	306.41	23.97	
2025-01-19 03:01:36.63	306.35	23.96	
2025-01-19 03:01:36.84	306.28	23.96	
2025-01-19 03:01:37.04	306.21	23.96	
2025-01-19 03:01:37.24	306.14	23.96	
2025-01-19 03:01:37.45	306.07	23.96	
2025-01-19 03:01:37.65	306.01	23.95	
2025-01-19 03:01:37.85	305.94	23.95	
2025-01-19 03:01:38.06	305.87	23.95	
2025-01-19 03:01:38.26	305.80	23.95	
2025-01-19 03:01:38.46	305.74	23.94	
2025-01-19 03:01:38.67	305.67	23.94	
2025-01-19 03:01:38.87	305.60	23.94	
2025-01-19 03:01:39.07	305.54	23.94	
2025-01-19 03:01:39.28	305.47	23.93	
2025-01-19 03:01:39.48	305.40	23.93	
2025-01-19 03:01:39.68	305.33	23.93	
2025-01-19 03:01:39.89	305.26	23.93	
2025-01-19 03:01:40.09	305.20	23.92	
2025-01-19 03:01:40.29	305.13	23.92	
2025-01-19 03:01:40.50	305.06	23.92	
2025-01-19 03:01:40.70	304.99	23.91	
2025-01-19 03:01:40.90	304.93	23.91	
2025-01-19 03:01:41.11	304.86	23.91	
2025-01-19 03:01:41.31	304.79	23.91	
2025-01-19 03:01:41.51	304.73	23.90	
2025-01-19 03:01:41.72	304.66	23.90	
2025-01-19 03:01:41.92	304.59	23.90	
2025-01-19 03:01:42.12	304.52	23.89	
2025-01-19 03:01:42.32	304.46	23.89	
2025-01-19 03:01:42.53	304.39	23.89	
2025-01-19 03:01:42.73	304.32	23.88	
2025-01-19 03:01:42.93	304.26	23.88	
2025-01-19 03:01:43.14	304.19	23.88	
2025-01-19 03:01:43.34	304.12	23.87	
2025-01-19 03:01:43.54	304.05	23.87	
2025-01-19 03:01:43.75	303.98	23.87	
2025-01-19 03:01:43.95	303.92	23.86	
2025-01-19 03:01:44.15	303.85	23.86	
2025-01-19 03:01:44.36	303.78	23.86	
2025-01-19 03:01:44.56	303.72	23.85	
2025-01-19 03:01:44.76	303.65	23.85	
2025-01-19 03:01:44.97	303.58	23.84	
2025-01-19 03:01:45.17	303.51	23.84	
2025-01-19 03:01:45.37	303.45	23.84	
2025-01-19 03:01:45.58	303.38	23.83	
2025-01-19 03:01:45.78	303.31	23.83	
2025-01-19 03:01:45.98	303.25	23.83	
2025-01-19 03:01:46.19	303.18	23.82	
2025-01-19 03:01:46.39	303.11	23.82	
2025-01-19 03:01:46.59	303.05	23.81	
2025-01-19 03:01:46.80	302.98	23.81	
2025-01-19 03:01:47.00	302.91	23.80	
2025-01-19 03:01:47.20	302.85	23.80	
2025-01-19 03:01:47.41	302.78	23.80	
2025-01-19 03:01:47.61	302.71	23.79	
2025-01-19 03:01:47.81	302.64	23.79	
2025-01-19 03:01:48.01	302.58	23.78	
2025-01-19 03:01:48.22	302.51	23.78	
2025-01-19 03:01:48.42	302.44	23.77	
2025-01-19 03:01:48.62	302.38	23.77	
2025-01-19 03:01:48.83	302.31	23.77	
2025-01-19 03:01:49.03	302.24	23.76	
2025-01-19 03:01:49.23	302.18	23.76	
2025-01-19 03:01:49.44	302.11	23.75	
2025-01-19 03:01:49.64	302.04	23.75	
2025-01-19 03:01:49.84	301.98	23.74	
2025-01-19 03:01:50.05	301.91	23.74	
2025-01-19 03:01:50.25	301.84	23.73	
2025-01-19 03:01:50.45	301.78	23.73	
2025-01-19 03:01:50.66	301.71	23.72	
