passes_logs/2025/01/19/SPB_Silybum_02/SPB_Silybum_02__20250119_072219_TERRA_rec.log

#Pass ID: 20250119_072219_TERRA
#Satellite: TERRA
#Configuration: TERRA
#Start time: 2025-01-19 07:23:30

#Version: 2.0.20230423
#Station: SPB_Silybum_02
#Location: 30.233357 lon 59.946436 lat
#TLE: 1 25994U 99068A   25018.76132064  .00000971  00000+0  20987-3 0  9991
#TLE: 2 25994  98.0209  81.6719 0003338  64.8500  46.9329 14.60403262334620

#Time	Az	El	Level	Level2	SNR	BER	Gain	Gain2
2025-01-19 07:23:32.10	27.83	9.30	
2025-01-19 07:23:32.30	27.84	9.32	
2025-01-19 07:23:32.51	27.86	9.34	
2025-01-19 07:23:32.71	27.88	9.35	
2025-01-19 07:23:32.91	27.90	9.37	
2025-01-19 07:23:33.11	27.92	9.39	
2025-01-19 07:23:33.32	27.93	9.40	
2025-01-19 07:23:33.52	27.95	9.42	
2025-01-19 07:23:33.72	27.97	9.44	
2025-01-19 07:23:33.93	27.99	9.45	
2025-01-19 07:23:34.13	28.00	9.47	
2025-01-19 07:23:34.33	28.02	9.49	
2025-01-19 07:23:34.54	28.04	9.50	
2025-01-19 07:23:34.74	28.06	9.52	
2025-01-19 07:23:34.94	28.08	9.53	
2025-01-19 07:23:35.15	28.09	9.55	
2025-01-19 07:23:35.35	28.11	9.57	
2025-01-19 07:23:35.55	28.13	9.58	
2025-01-19 07:23:35.75	28.15	9.60	
2025-01-19 07:23:35.96	28.17	9.62	
2025-01-19 07:23:36.16	28.18	9.63	
2025-01-19 07:23:36.36	28.20	9.65	
2025-01-19 07:23:36.57	28.22	9.67	
2025-01-19 07:23:36.77	28.24	9.68	
2025-01-19 07:23:36.97	28.26	9.70	
2025-01-19 07:23:37.18	28.27	9.72	
2025-01-19 07:23:37.38	28.29	9.73	
2025-01-19 07:23:37.58	28.31	9.75	
2025-01-19 07:23:37.79	28.33	9.77	
2025-01-19 07:23:37.99	28.35	9.78	
2025-01-19 07:23:38.19	28.36	9.80	
2025-01-19 07:23:38.39	28.38	9.82	
2025-01-19 07:23:38.60	28.40	9.83	
2025-01-19 07:23:38.80	28.42	9.85	
2025-01-19 07:23:39.00	28.44	9.87	
2025-01-19 07:23:39.21	28.46	9.88	
2025-01-19 07:23:39.41	28.47	9.90	
2025-01-19 07:23:39.61	28.49	9.92	
2025-01-19 07:23:39.82	28.51	9.94	
2025-01-19 07:23:40.02	28.53	9.95	
2025-01-19 07:23:40.22	28.55	9.97	
2025-01-19 07:23:40.43	28.57	9.99	
2025-01-19 07:23:40.63	28.58	10.00	
2025-01-19 07:23:40.83	28.60	10.02	
2025-01-19 07:23:41.03	28.62	10.04	
2025-01-19 07:23:41.24	28.64	10.05	
2025-01-19 07:23:41.44	28.66	10.07	
2025-01-19 07:23:41.64	28.68	10.09	
2025-01-19 07:23:41.85	28.70	10.10	
2025-01-19 07:23:42.05	28.71	10.12	
2025-01-19 07:23:42.25	28.73	10.14	
2025-01-19 07:23:42.46	28.75	10.15	
2025-01-19 07:23:42.66	28.77	10.17	
2025-01-19 07:23:42.86	28.79	10.19	
2025-01-19 07:23:43.06	28.81	10.20	
2025-01-19 07:23:43.27	28.83	10.22	
2025-01-19 07:23:43.47	28.85	10.24	
2025-01-19 07:23:43.67	28.86	10.26	
2025-01-19 07:23:43.88	28.88	10.27	
2025-01-19 07:23:44.08	28.90	10.29	
2025-01-19 07:23:44.28	28.92	10.31	
2025-01-19 07:23:44.49	28.94	10.32	
2025-01-19 07:23:44.69	28.96	10.34	
2025-01-19 07:23:44.89	28.98	10.36	
2025-01-19 07:23:45.10	29.00	10.38	
2025-01-19 07:23:45.30	29.02	10.39	
2025-01-19 07:23:45.50	29.03	10.41	
2025-01-19 07:23:45.71	29.05	10.43	
2025-01-19 07:23:45.92	29.07	10.44	
2025-01-19 07:23:46.12	29.09	10.46	
2025-01-19 07:23:46.32	29.11	10.48	
2025-01-19 07:23:46.52	29.13	10.49	
2025-01-19 07:23:46.73	29.15	10.51	
2025-01-19 07:23:46.93	29.17	10.53	
2025-01-19 07:23:47.13	29.19	10.55	
2025-01-19 07:23:47.34	29.21	10.56	
2025-01-19 07:23:47.54	29.23	10.58	
2025-01-19 07:23:47.74	29.25	10.60	
2025-01-19 07:23:47.95	29.27	10.62	
2025-01-19 07:23:48.15	29.28	10.63	
2025-01-19 07:23:48.35	29.30	10.65	
2025-01-19 07:23:48.56	29.32	10.67	
2025-01-19 07:23:48.76	29.34	10.68	
2025-01-19 07:23:48.96	29.36	10.70	
2025-01-19 07:23:49.16	29.38	10.72	
2025-01-19 07:23:49.37	29.40	10.74	
2025-01-19 07:23:49.57	29.42	10.75	
2025-01-19 07:23:49.77	29.44	10.77	
2025-01-19 07:23:49.98	29.46	10.79	
2025-01-19 07:23:50.18	29.48	10.81	
2025-01-19 07:23:50.38	29.50	10.82	
2025-01-19 07:23:50.59	29.52	10.84	
2025-01-19 07:23:50.79	29.54	10.86	
2025-01-19 07:23:50.99	29.56	10.87	
2025-01-19 07:23:51.20	29.58	10.89	
2025-01-19 07:23:51.40	29.60	10.91	
2025-01-19 07:23:51.60	29.62	10.93	
2025-01-19 07:23:51.80	29.64	10.94	
2025-01-19 07:23:52.01	29.66	10.96	
2025-01-19 07:23:52.21	29.68	10.98	
2025-01-19 07:23:52.41	29.69	11.00	
2025-01-19 07:23:52.62	29.72	11.01	
2025-01-19 07:23:52.82	29.73	11.03	
2025-01-19 07:23:53.02	29.75	11.05	
2025-01-19 07:23:53.23	29.77	11.07	
2025-01-19 07:23:53.43	29.79	11.08	
2025-01-19 07:23:53.63	29.81	11.10	
2025-01-19 07:23:53.84	29.83	11.12	
2025-01-19 07:23:54.04	29.85	11.14	
2025-01-19 07:23:54.24	29.87	11.15	
2025-01-19 07:23:54.44	29.89	11.17	
2025-01-19 07:23:54.65	29.91	11.19	
2025-01-19 07:23:54.85	29.93	11.21	
2025-01-19 07:23:55.05	29.95	11.22	
2025-01-19 07:23:55.26	29.98	11.24	
2025-01-19 07:23:55.46	30.00	11.26	
2025-01-19 07:23:55.66	30.01	11.28	
2025-01-19 07:23:55.87	30.04	11.29	
2025-01-19 07:23:56.07	30.06	11.31	
2025-01-19 07:23:56.27	30.08	11.33	
2025-01-19 07:23:56.48	30.10	11.35	
2025-01-19 07:23:56.68	30.12	11.37	
2025-01-19 07:23:56.88	30.14	11.38	
2025-01-19 07:23:57.08	30.16	11.40	
2025-01-19 07:23:57.29	30.18	11.42	
2025-01-19 07:23:57.49	30.20	11.44	
2025-01-19 07:23:57.69	30.22	11.45	
2025-01-19 07:23:57.90	30.24	11.47	
2025-01-19 07:23:58.10	30.26	11.49	
2025-01-19 07:23:58.30	30.28	11.51	
2025-01-19 07:23:58.51	30.30	11.53	
2025-01-19 07:23:58.71	30.32	11.54	
2025-01-19 07:23:58.91	30.34	11.56	
2025-01-19 07:23:59.12	30.36	11.58	
2025-01-19 07:23:59.32	30.38	11.60	
2025-01-19 07:23:59.52	30.40	11.61	
2025-01-19 07:23:59.72	30.42	11.63	
2025-01-19 07:23:59.93	30.45	11.65	
2025-01-19 07:24:00.13	30.47	11.67	
2025-01-19 07:24:00.33	30.49	11.69	
2025-01-19 07:24:00.54	30.51	11.70	
2025-01-19 07:24:00.74	30.53	11.72	
2025-01-19 07:24:00.94	30.55	11.74	
2025-01-19 07:24:01.15	30.57	11.76	
2025-01-19 07:24:01.35	30.59	11.78	
2025-01-19 07:24:01.55	30.61	11.79	
2025-01-19 07:24:01.76	30.63	11.81	
2025-01-19 07:24:01.96	30.65	11.83	
2025-01-19 07:24:02.16	30.67	11.85	
2025-01-19 07:24:02.36	30.70	11.86	
2025-01-19 07:24:02.57	30.72	11.88	
2025-01-19 07:24:02.77	30.74	11.90	
2025-01-19 07:24:02.97	30.76	11.92	
2025-01-19 07:24:03.18	30.78	11.94	
2025-01-19 07:24:03.38	30.80	11.96	
2025-01-19 07:24:03.58	30.82	11.97	
2025-01-19 07:24:03.79	30.84	11.99	
2025-01-19 07:24:03.99	30.87	12.01	
2025-01-19 07:24:04.19	30.89	12.03	
2025-01-19 07:24:04.40	30.91	12.05	
2025-01-19 07:24:04.60	30.93	12.06	
2025-01-19 07:24:04.80	30.95	12.08	
2025-01-19 07:24:05.00	30.97	12.10	
2025-01-19 07:24:05.21	30.99	12.12	
2025-01-19 07:24:05.41	31.01	12.14	
2025-01-19 07:24:05.61	31.04	12.15	
2025-01-19 07:24:05.82	31.06	12.17	
2025-01-19 07:24:06.02	31.08	12.19	
2025-01-19 07:24:06.22	31.10	12.21	
2025-01-19 07:24:06.43	31.12	12.23	
2025-01-19 07:24:06.63	31.14	12.25	
2025-01-19 07:24:06.83	31.17	12.26	
2025-01-19 07:24:07.04	31.19	12.28	
2025-01-19 07:24:07.24	31.21	12.30	
2025-01-19 07:24:07.44	31.23	12.32	
2025-01-19 07:24:07.64	31.25	12.34	
2025-01-19 07:24:07.85	31.27	12.36	
2025-01-19 07:24:08.05	31.30	12.37	
2025-01-19 07:24:08.25	31.32	12.39	
2025-01-19 07:24:08.46	31.34	12.41	
2025-01-19 07:24:08.66	31.36	12.43	
2025-01-19 07:24:08.86	31.38	12.45	
2025-01-19 07:24:09.07	31.41	12.47	
2025-01-19 07:24:09.27	31.43	12.48	
2025-01-19 07:24:09.47	31.45	12.50	
2025-01-19 07:24:09.68	31.47	12.52	
2025-01-19 07:24:09.88	31.49	12.54	
2025-01-19 07:24:10.08	31.52	12.56	
2025-01-19 07:24:10.28	31.54	12.58	
2025-01-19 07:24:10.49	31.56	12.59	
2025-01-19 07:24:10.69	31.58	12.61	
2025-01-19 07:24:10.89	31.60	12.63	
2025-01-19 07:24:11.10	31.63	12.65	
2025-01-19 07:24:11.30	31.65	12.67	
2025-01-19 07:24:11.50	31.67	12.69	
2025-01-19 07:24:11.71	31.69	12.71	
2025-01-19 07:24:11.91	31.72	12.72	
2025-01-19 07:24:12.11	31.74	12.74	
2025-01-19 07:24:12.32	31.76	12.76	
2025-01-19 07:24:12.52	31.78	12.78	
2025-01-19 07:24:12.72	31.80	12.80	
2025-01-19 07:24:12.92	31.83	12.82	
2025-01-19 07:24:13.13	31.85	12.84	
2025-01-19 07:24:13.33	31.87	12.85	
2025-01-19 07:24:13.53	31.89	12.87	
2025-01-19 07:24:13.74	31.92	12.89	
2025-01-19 07:24:13.94	31.94	12.91	
2025-01-19 07:24:14.14	31.96	12.93	
2025-01-19 07:24:14.35	31.99	12.95	
2025-01-19 07:24:14.55	32.01	12.97	
2025-01-19 07:24:14.75	32.03	12.98	
2025-01-19 07:24:14.96	32.05	13.00	
2025-01-19 07:24:15.16	32.08	13.02	
2025-01-19 07:24:15.36	32.10	13.04	
2025-01-19 07:24:15.56	32.12	13.06	
2025-01-19 07:24:15.77	32.15	13.08	
2025-01-19 07:24:15.97	32.17	13.10	
2025-01-19 07:24:16.17	32.19	13.12	
2025-01-19 07:24:16.38	32.21	13.14	
2025-01-19 07:24:16.58	32.24	13.15	
2025-01-19 07:24:16.78	32.26	13.17	
2025-01-19 07:24:16.99	32.28	13.19	
2025-01-19 07:24:17.19	32.31	13.21	
2025-01-19 07:24:17.39	32.33	13.23	
2025-01-19 07:24:17.60	32.35	13.25	
2025-01-19 07:24:17.80	32.38	13.27	
2025-01-19 07:24:18.00	32.40	13.29	
2025-01-19 07:24:18.20	32.42	13.30	
2025-01-19 07:24:18.41	32.45	13.32	
2025-01-19 07:24:18.61	32.47	13.34	
2025-01-19 07:24:18.81	32.49	13.36	
2025-01-19 07:24:19.02	32.52	13.38	
2025-01-19 07:24:19.22	32.54	13.40	
2025-01-19 07:24:19.42	32.56	13.42	
2025-01-19 07:24:19.63	32.59	13.44	
2025-01-19 07:24:19.83	32.61	13.46	
2025-01-19 07:24:20.03	32.63	13.48	
2025-01-19 07:24:20.24	32.66	13.50	
2025-01-19 07:24:20.44	32.68	13.51	
2025-01-19 07:24:20.64	32.70	13.53	
2025-01-19 07:24:20.84	32.73	13.55	
2025-01-19 07:24:21.05	32.75	13.57	
2025-01-19 07:24:21.25	32.77	13.59	
2025-01-19 07:24:21.45	32.80	13.61	
2025-01-19 07:24:21.66	32.82	13.63	
2025-01-19 07:24:21.86	32.85	13.65	
2025-01-19 07:24:22.06	32.87	13.67	
2025-01-19 07:24:22.27	32.89	13.69	
2025-01-19 07:24:22.47	32.92	13.71	
2025-01-19 07:24:22.67	32.94	13.72	
2025-01-19 07:24:22.88	32.97	13.74	
2025-01-19 07:24:23.08	32.99	13.76	
2025-01-19 07:24:23.28	33.01	13.78	
2025-01-19 07:24:23.48	33.04	13.80	
2025-01-19 07:24:23.69	33.06	13.82	
2025-01-19 07:24:23.89	33.09	13.84	
2025-01-19 07:24:24.09	33.11	13.86	
2025-01-19 07:24:24.30	33.13	13.88	
2025-01-19 07:24:24.50	33.16	13.90	
2025-01-19 07:24:24.70	33.18	13.92	
2025-01-19 07:24:24.91	33.21	13.94	
2025-01-19 07:24:25.11	33.23	13.96	
2025-01-19 07:24:25.31	33.26	13.98	
2025-01-19 07:24:25.52	33.28	14.00	
2025-01-19 07:24:25.72	33.31	14.01	
2025-01-19 07:24:25.92	33.33	14.03	
2025-01-19 07:24:26.12	33.35	14.05	
2025-01-19 07:24:26.33	33.38	14.07	
2025-01-19 07:24:26.53	33.40	14.09	
2025-01-19 07:24:26.73	33.43	14.11	
2025-01-19 07:24:26.94	33.45	14.13	
2025-01-19 07:24:27.14	33.48	14.15	
2025-01-19 07:24:27.34	33.50	14.17	
2025-01-19 07:24:27.55	33.53	14.19	
2025-01-19 07:24:27.75	33.55	14.21	
2025-01-19 07:24:27.95	33.58	14.23	
2025-01-19 07:24:28.16	33.60	14.25	
2025-01-19 07:24:28.36	33.63	14.27	
2025-01-19 07:24:28.56	33.65	14.29	
2025-01-19 07:24:28.77	33.68	14.31	
2025-01-19 07:24:28.97	33.70	14.33	
2025-01-19 07:24:29.17	33.73	14.35	
2025-01-19 07:24:29.37	33.75	14.37	
2025-01-19 07:24:29.58	33.78	14.39	
2025-01-19 07:24:29.78	33.80	14.40	
2025-01-19 07:24:29.98	33.83	14.42	
2025-01-19 07:24:30.19	33.85	14.44	
2025-01-19 07:24:30.39	33.88	14.46	
2025-01-19 07:24:30.59	33.90	14.48	
2025-01-19 07:24:30.80	33.93	14.50	
2025-01-19 07:24:31.00	33.95	14.52	
2025-01-19 07:24:31.20	33.98	14.54	
2025-01-19 07:24:31.40	34.00	14.56	
2025-01-19 07:24:31.61	34.03	14.58	
2025-01-19 07:24:31.81	34.05	14.60	
2025-01-19 07:24:32.01	34.08	14.62	
2025-01-19 07:24:32.22	34.10	14.64	
2025-01-19 07:24:32.42	34.13	14.66	
2025-01-19 07:24:32.62	34.16	14.68	
2025-01-19 07:24:32.83	34.18	14.70	
2025-01-19 07:24:33.03	34.21	14.72	
2025-01-19 07:24:33.23	34.23	14.74	
2025-01-19 07:24:33.44	34.26	14.76	
2025-01-19 07:24:33.64	34.28	14.78	
2025-01-19 07:24:33.84	34.31	14.80	
2025-01-19 07:24:34.05	34.34	14.82	
2025-01-19 07:24:34.25	34.36	14.84	
2025-01-19 07:24:34.45	34.39	14.86	
2025-01-19 07:24:34.65	34.41	14.88	
2025-01-19 07:24:34.86	34.44	14.90	
2025-01-19 07:24:35.06	34.47	14.92	
2025-01-19 07:24:35.26	34.49	14.94	
2025-01-19 07:24:35.47	34.52	14.96	
2025-01-19 07:24:35.67	34.54	14.98	
2025-01-19 07:24:35.87	34.57	15.00	
2025-01-19 07:24:36.08	34.60	15.02	
2025-01-19 07:24:36.28	34.62	15.04	
2025-01-19 07:24:36.48	34.65	15.06	
2025-01-19 07:24:36.69	34.68	15.08	
2025-01-19 07:24:36.89	34.70	15.10	
2025-01-19 07:24:37.09	34.73	15.12	
2025-01-19 07:24:37.29	34.75	15.14	
2025-01-19 07:24:37.50	34.78	15.16	
2025-01-19 07:24:37.70	34.81	15.18	
2025-01-19 07:24:37.90	34.83	15.20	
2025-01-19 07:24:38.11	34.86	15.22	
2025-01-19 07:24:38.31	34.89	15.24	
2025-01-19 07:24:38.51	34.91	15.26	
2025-01-19 07:24:38.72	34.94	15.28	
2025-01-19 07:24:38.92	34.97	15.30	
2025-01-19 07:24:39.12	34.99	15.32	
2025-01-19 07:24:39.33	35.02	15.34	
2025-01-19 07:24:39.53	35.05	15.36	
2025-01-19 07:24:39.73	35.07	15.38	
2025-01-19 07:24:39.93	35.10	15.40	
2025-01-19 07:24:40.14	35.13	15.42	
2025-01-19 07:24:40.34	35.15	15.44	
2025-01-19 07:24:40.54	35.18	15.46	
2025-01-19 07:24:40.75	35.21	15.49	
2025-01-19 07:24:40.95	35.24	15.51	
2025-01-19 07:24:41.15	35.26	15.53	
2025-01-19 07:24:41.36	35.29	15.55	
2025-01-19 07:24:41.56	35.32	15.57	
2025-01-19 07:24:41.76	35.34	15.59	
2025-01-19 07:24:41.97	35.37	15.61	
2025-01-19 07:24:42.17	35.40	15.63	
2025-01-19 07:24:42.37	35.43	15.65	
2025-01-19 07:24:42.57	35.45	15.67	
2025-01-19 07:24:42.78	35.48	15.69	
2025-01-19 07:24:42.98	35.51	15.71	
2025-01-19 07:24:43.18	35.54	15.73	
2025-01-19 07:24:43.39	35.56	15.75	
2025-01-19 07:24:43.59	35.59	15.77	
2025-01-19 07:24:43.79	35.62	15.79	
2025-01-19 07:24:44.00	35.65	15.81	
2025-01-19 07:24:44.20	35.67	15.83	
2025-01-19 07:24:44.40	35.70	15.85	
2025-01-19 07:24:44.61	35.73	15.88	
2025-01-19 07:24:44.81	35.76	15.90	
2025-01-19 07:24:45.01	35.79	15.92	
2025-01-19 07:24:45.21	35.81	15.94	
2025-01-19 07:24:45.42	35.84	15.96	
2025-01-19 07:24:45.62	35.87	15.98	
2025-01-19 07:24:45.82	35.90	16.00	
2025-01-19 07:24:46.03	35.93	16.02	
2025-01-19 07:24:46.23	35.95	16.04	
2025-01-19 07:24:46.43	35.98	16.06	
2025-01-19 07:24:46.64	36.01	16.08	
2025-01-19 07:24:46.84	36.04	16.10	
2025-01-19 07:24:47.04	36.07	16.12	
2025-01-19 07:24:47.25	36.09	16.14	
2025-01-19 07:24:47.45	36.12	16.17	
2025-01-19 07:24:47.65	36.15	16.19	
2025-01-19 07:24:47.85	36.18	16.21	
2025-01-19 07:24:48.06	36.21	16.23	
2025-01-19 07:24:48.26	36.24	16.25	
2025-01-19 07:24:48.46	36.26	16.27	
2025-01-19 07:24:48.67	36.29	16.29	
2025-01-19 07:24:48.87	36.32	16.31	
2025-01-19 07:24:49.07	36.35	16.33	
2025-01-19 07:24:49.28	36.38	16.35	
2025-01-19 07:24:49.48	36.41	16.37	
2025-01-19 07:24:49.68	36.44	16.39	
2025-01-19 07:24:49.89	36.47	16.42	
2025-01-19 07:24:50.09	36.49	16.44	
2025-01-19 07:24:50.29	36.52	16.46	
2025-01-19 07:24:50.49	36.55	16.48	
2025-01-19 07:24:50.70	36.58	16.50	
2025-01-19 07:24:50.90	36.61	16.52	
2025-01-19 07:24:51.10	36.64	16.54	
2025-01-19 07:24:51.31	36.67	16.56	
2025-01-19 07:24:51.51	36.70	16.58	
2025-01-19 07:24:51.71	36.73	16.60	
2025-01-19 07:24:51.92	36.76	16.63	
2025-01-19 07:24:52.12	36.79	16.65	
2025-01-19 07:24:52.32	36.81	16.67	
2025-01-19 07:24:52.53	36.84	16.69	
2025-01-19 07:24:52.73	36.87	16.71	
2025-01-19 07:24:52.93	36.90	16.73	
2025-01-19 07:24:53.13	36.93	16.75	
2025-01-19 07:24:53.34	36.96	16.77	
2025-01-19 07:24:53.54	36.99	16.80	
2025-01-19 07:24:53.74	37.02	16.82	
2025-01-19 07:24:53.95	37.05	16.84	
2025-01-19 07:24:54.15	37.08	16.86	
2025-01-19 07:24:54.35	37.11	16.88	
2025-01-19 07:24:54.56	37.14	16.90	
2025-01-19 07:24:54.76	37.17	16.92	
2025-01-19 07:24:54.96	37.20	16.94	
2025-01-19 07:24:55.17	37.23	16.97	
2025-01-19 07:24:55.37	37.26	16.99	
2025-01-19 07:24:55.57	37.29	17.01	
2025-01-19 07:24:55.77	37.32	17.03	
2025-01-19 07:24:55.98	37.35	17.05	
2025-01-19 07:24:56.18	37.38	17.07	
2025-01-19 07:24:56.38	37.41	17.09	
2025-01-19 07:24:56.59	37.44	17.12	
2025-01-19 07:24:56.79	37.47	17.14	
2025-01-19 07:24:56.99	37.50	17.16	
2025-01-19 07:24:57.20	37.53	17.18	
2025-01-19 07:24:57.40	37.56	17.20	
2025-01-19 07:24:57.60	37.59	17.22	
2025-01-19 07:24:57.81	37.62	17.24	
2025-01-19 07:24:58.01	37.65	17.27	
2025-01-19 07:24:58.21	37.68	17.29	
2025-01-19 07:24:58.41	37.71	17.31	
2025-01-19 07:24:58.62	37.75	17.33	
2025-01-19 07:24:58.82	37.78	17.35	
2025-01-19 07:24:59.02	37.81	17.37	
2025-01-19 07:24:59.23	37.84	17.39	
2025-01-19 07:24:59.43	37.87	17.42	
2025-01-19 07:24:59.63	37.90	17.44	
2025-01-19 07:24:59.84	37.93	17.46	
2025-01-19 07:25:00.04	37.96	17.48	
2025-01-19 07:25:00.24	37.99	17.50	
2025-01-19 07:25:00.45	38.02	17.52	
2025-01-19 07:25:00.65	38.05	17.55	
2025-01-19 07:25:00.85	38.09	17.57	
2025-01-19 07:25:01.05	38.12	17.59	
2025-01-19 07:25:01.26	38.15	17.61	
2025-01-19 07:25:01.46	38.18	17.63	
2025-01-19 07:25:01.66	38.21	17.65	
2025-01-19 07:25:01.87	38.24	17.68	
2025-01-19 07:25:02.07	38.27	17.70	
2025-01-19 07:25:02.27	38.30	17.72	
2025-01-19 07:25:02.48	38.34	17.74	
2025-01-19 07:25:02.68	38.37	17.76	
2025-01-19 07:25:02.88	38.40	17.78	
2025-01-19 07:25:03.09	38.43	17.81	
2025-01-19 07:25:03.29	38.46	17.83	
2025-01-19 07:25:03.49	38.50	17.85	
2025-01-19 07:25:03.69	38.53	17.87	
2025-01-19 07:25:03.90	38.56	17.89	
2025-01-19 07:25:04.10	38.59	17.92	
2025-01-19 07:25:04.30	38.62	17.94	
2025-01-19 07:25:04.51	38.66	17.96	
2025-01-19 07:25:04.71	38.69	17.98	
2025-01-19 07:25:04.91	38.72	18.00	
2025-01-19 07:25:05.12	38.75	18.03	
2025-01-19 07:25:05.32	38.78	18.05	
2025-01-19 07:25:05.52	38.82	18.07	
2025-01-19 07:25:05.73	38.85	18.09	
2025-01-19 07:25:05.93	38.88	18.11	
2025-01-19 07:25:06.13	38.91	18.14	
2025-01-19 07:25:06.33	38.94	18.16	
2025-01-19 07:25:06.54	38.98	18.18	
2025-01-19 07:25:06.74	39.01	18.20	
2025-01-19 07:25:06.94	39.04	18.22	
2025-01-19 07:25:07.15	39.08	18.25	
2025-01-19 07:25:07.35	39.11	18.27	
2025-01-19 07:25:07.55	39.14	18.29	
2025-01-19 07:25:07.76	39.17	18.31	
2025-01-19 07:25:07.96	39.21	18.34	
2025-01-19 07:25:08.16	39.24	18.36	
2025-01-19 07:25:08.37	39.27	18.38	
2025-01-19 07:25:08.57	39.31	18.40	
2025-01-19 07:25:08.77	39.34	18.42	
2025-01-19 07:25:08.97	39.37	18.45	
2025-01-19 07:25:09.18	39.41	18.47	
2025-01-19 07:25:09.38	39.44	18.49	
2025-01-19 07:25:09.58	39.47	18.51	
2025-01-19 07:25:09.79	39.50	18.54	
2025-01-19 07:25:09.99	39.54	18.56	
2025-01-19 07:25:10.19	39.57	18.58	
2025-01-19 07:25:10.40	39.61	18.60	
2025-01-19 07:25:10.60	39.64	18.62	
2025-01-19 07:25:10.80	39.67	18.65	
2025-01-19 07:25:11.01	39.71	18.67	
2025-01-19 07:25:11.21	39.74	18.69	
2025-01-19 07:25:11.41	39.77	18.71	
2025-01-19 07:25:11.61	39.81	18.74	
2025-01-19 07:25:11.82	39.84	18.76	
2025-01-19 07:25:12.02	39.87	18.78	
2025-01-19 07:25:12.22	39.91	18.80	
2025-01-19 07:25:12.43	39.94	18.83	
2025-01-19 07:25:12.63	39.98	18.85	
2025-01-19 07:25:12.83	40.01	18.87	
2025-01-19 07:25:13.04	40.04	18.89	
2025-01-19 07:25:13.24	40.08	18.92	
2025-01-19 07:25:13.44	40.11	18.94	
2025-01-19 07:25:13.65	40.15	18.96	
2025-01-19 07:25:13.85	40.18	18.98	
2025-01-19 07:25:14.05	40.22	19.01	
2025-01-19 07:25:14.25	40.25	19.03	
2025-01-19 07:25:14.46	40.28	19.05	
2025-01-19 07:25:14.66	40.32	19.07	
2025-01-19 07:25:14.86	40.35	19.10	
2025-01-19 07:25:15.07	40.39	19.12	
2025-01-19 07:25:15.27	40.42	19.14	
2025-01-19 07:25:15.47	40.46	19.16	
2025-01-19 07:25:15.68	40.49	19.19	
2025-01-19 07:25:15.88	40.53	19.21	
2025-01-19 07:25:16.08	40.56	19.23	
2025-01-19 07:25:16.29	40.60	19.26	
2025-01-19 07:25:16.49	40.63	19.28	
2025-01-19 07:25:16.69	40.67	19.30	
2025-01-19 07:25:16.89	40.70	19.32	
2025-01-19 07:25:17.10	40.74	19.35	
2025-01-19 07:25:17.30	40.77	19.37	
2025-01-19 07:25:17.50	40.81	19.39	
2025-01-19 07:25:17.71	40.84	19.41	
2025-01-19 07:25:17.91	40.88	19.44	
2025-01-19 07:25:18.11	40.91	19.46	
2025-01-19 07:25:18.32	40.95	19.48	
2025-01-19 07:25:18.52	40.98	19.51	
2025-01-19 07:25:18.72	41.02	19.53	
2025-01-19 07:25:18.93	41.06	19.55	
2025-01-19 07:25:19.13	41.09	19.57	
2025-01-19 07:25:19.33	41.13	19.60	
2025-01-19 07:25:19.53	41.16	19.62	
2025-01-19 07:25:19.74	41.20	19.64	
2025-01-19 07:25:19.94	41.23	19.67	
2025-01-19 07:25:20.14	41.27	19.69	
2025-01-19 07:25:20.35	41.31	19.71	
2025-01-19 07:25:20.55	41.34	19.73	
2025-01-19 07:25:20.75	41.38	19.76	
2025-01-19 07:25:20.96	41.42	19.78	
2025-01-19 07:25:21.16	41.45	19.80	
2025-01-19 07:25:21.36	41.49	19.83	
2025-01-19 07:25:21.57	41.53	19.85	
2025-01-19 07:25:21.77	41.56	19.87	
2025-01-19 07:25:21.97	41.60	19.90	
2025-01-19 07:25:22.17	41.63	19.92	
2025-01-19 07:25:22.38	41.67	19.94	
2025-01-19 07:25:22.58	41.71	19.96	
2025-01-19 07:25:22.78	41.74	19.99	
2025-01-19 07:25:22.99	41.78	20.01	
2025-01-19 07:25:23.19	41.82	20.03	
2025-01-19 07:25:23.39	41.85	20.06	
2025-01-19 07:25:23.60	41.89	20.08	
2025-01-19 07:25:23.80	41.93	20.10	
2025-01-19 07:25:24.00	41.96	20.13	
2025-01-19 07:25:24.21	42.00	20.15	
2025-01-19 07:25:24.41	42.04	20.17	
2025-01-19 07:25:24.61	42.08	20.20	
2025-01-19 07:25:24.81	42.11	20.22	
2025-01-19 07:25:25.02	42.15	20.24	
2025-01-19 07:25:25.22	42.19	20.27	
2025-01-19 07:25:25.42	42.23	20.29	
2025-01-19 07:25:25.63	42.26	20.31	
2025-01-19 07:25:25.83	42.30	20.34	
2025-01-19 07:25:26.03	42.34	20.36	
2025-01-19 07:25:26.24	42.38	20.38	
2025-01-19 07:25:26.44	42.41	20.41	
2025-01-19 07:25:26.64	42.45	20.43	
2025-01-19 07:25:26.85	42.49	20.45	
2025-01-19 07:25:27.05	42.53	20.48	
2025-01-19 07:25:27.25	42.57	20.50	
2025-01-19 07:25:27.45	42.60	20.52	
2025-01-19 07:25:27.66	42.64	20.55	
2025-01-19 07:25:27.86	42.68	20.57	
2025-01-19 07:25:28.06	42.72	20.59	
2025-01-19 07:25:28.27	42.76	20.62	
2025-01-19 07:25:28.47	42.79	20.64	
2025-01-19 07:25:28.67	42.83	20.66	
2025-01-19 07:25:28.88	42.87	20.69	
2025-01-19 07:25:29.08	42.91	20.71	
2025-01-19 07:25:29.28	42.95	20.73	
2025-01-19 07:25:29.49	42.99	20.76	
2025-01-19 07:25:29.69	43.03	20.78	
2025-01-19 07:25:29.89	43.06	20.80	
2025-01-19 07:25:30.09	43.10	20.83	
2025-01-19 07:25:30.30	43.14	20.85	
2025-01-19 07:25:30.50	43.18	20.88	
2025-01-19 07:25:30.70	43.22	20.90	
2025-01-19 07:25:30.91	43.26	20.92	
2025-01-19 07:25:31.11	43.30	20.95	
2025-01-19 07:25:31.31	43.34	20.97	
2025-01-19 07:25:31.52	43.38	20.99	
2025-01-19 07:25:31.72	43.42	21.02	
2025-01-19 07:25:31.92	43.46	21.04	
2025-01-19 07:25:32.13	43.50	21.06	
2025-01-19 07:25:32.33	43.54	21.09	
2025-01-19 07:25:32.53	43.57	21.11	
2025-01-19 07:25:32.73	43.61	21.13	
2025-01-19 07:25:32.94	43.65	21.16	
2025-01-19 07:25:33.14	43.69	21.18	
2025-01-19 07:25:33.34	43.73	21.21	
2025-01-19 07:25:33.55	43.77	21.23	
2025-01-19 07:25:33.75	43.81	21.25	
2025-01-19 07:25:33.95	43.85	21.28	
2025-01-19 07:25:34.16	43.89	21.30	
2025-01-19 07:25:34.36	43.93	21.33	
2025-01-19 07:25:34.56	43.97	21.35	
2025-01-19 07:25:34.77	44.01	21.37	
2025-01-19 07:25:34.97	44.05	21.40	
2025-01-19 07:25:35.17	44.09	21.42	
2025-01-19 07:25:35.37	44.13	21.44	
2025-01-19 07:25:35.58	44.18	21.47	
2025-01-19 07:25:35.78	44.22	21.49	
2025-01-19 07:25:35.98	44.26	21.52	
2025-01-19 07:25:36.19	44.30	21.54	
2025-01-19 07:25:36.39	44.34	21.56	
2025-01-19 07:25:36.59	44.38	21.59	
2025-01-19 07:25:36.80	44.42	21.61	
2025-01-19 07:25:37.00	44.46	21.64	
2025-01-19 07:25:37.20	44.50	21.66	
2025-01-19 07:25:37.41	44.54	21.68	
2025-01-19 07:25:37.61	44.58	21.71	
2025-01-19 07:25:37.81	44.62	21.73	
2025-01-19 07:25:38.01	44.67	21.75	
2025-01-19 07:25:38.22	44.71	21.78	
2025-01-19 07:25:38.42	44.75	21.80	
2025-01-19 07:25:38.62	44.79	21.83	
2025-01-19 07:25:38.83	44.83	21.85	
2025-01-19 07:25:39.03	44.87	21.87	
2025-01-19 07:25:39.23	44.92	21.90	
2025-01-19 07:25:39.44	44.96	21.92	
2025-01-19 07:25:39.64	45.00	21.95	
2025-01-19 07:25:39.84	45.04	21.97	
2025-01-19 07:25:40.05	45.08	22.00	
2025-01-19 07:25:40.25	45.13	22.02	
2025-01-19 07:25:40.45	45.17	22.04	
2025-01-19 07:25:40.65	45.21	22.07	
2025-01-19 07:25:40.86	45.25	22.09	
2025-01-19 07:25:41.06	45.29	22.12	
2025-01-19 07:25:41.26	45.34	22.14	
2025-01-19 07:25:41.47	45.38	22.16	
2025-01-19 07:25:41.67	45.42	22.19	
2025-01-19 07:25:41.87	45.46	22.21	
2025-01-19 07:25:42.08	45.51	22.24	
2025-01-19 07:25:42.28	45.55	22.26	
2025-01-19 07:25:42.48	45.59	22.28	
2025-01-19 07:25:42.69	45.64	22.31	
2025-01-19 07:25:42.89	45.68	22.33	
2025-01-19 07:25:43.09	45.72	22.36	
2025-01-19 07:25:43.29	45.76	22.38	
2025-01-19 07:25:43.50	45.81	22.41	
2025-01-19 07:25:43.70	45.85	22.43	
2025-01-19 07:25:43.90	45.89	22.45	
2025-01-19 07:25:44.11	45.94	22.48	
2025-01-19 07:25:44.31	45.98	22.50	
2025-01-19 07:25:44.51	46.02	22.53	
2025-01-19 07:25:44.72	46.07	22.55	
2025-01-19 07:25:44.92	46.11	22.58	
2025-01-19 07:25:45.12	46.15	22.60	
2025-01-19 07:25:45.33	46.20	22.63	
2025-01-19 07:25:45.53	46.24	22.65	
2025-01-19 07:25:45.73	46.28	22.67	
2025-01-19 07:25:45.93	46.33	22.70	
2025-01-19 07:25:46.14	46.37	22.72	
2025-01-19 07:25:46.34	46.42	22.75	
2025-01-19 07:25:46.54	46.46	22.77	
2025-01-19 07:25:46.75	46.51	22.80	
2025-01-19 07:25:46.95	46.55	22.82	
2025-01-19 07:25:47.15	46.59	22.84	
2025-01-19 07:25:47.36	46.64	22.87	
2025-01-19 07:25:47.56	46.68	22.89	
2025-01-19 07:25:47.76	46.73	22.92	
2025-01-19 07:25:47.97	46.77	22.94	
2025-01-19 07:25:48.17	46.82	22.97	
2025-01-19 07:25:48.37	46.86	22.99	
2025-01-19 07:25:48.57	46.91	23.01	
2025-01-19 07:25:48.78	46.95	23.04	
2025-01-19 07:25:48.98	47.00	23.06	
2025-01-19 07:25:49.18	47.04	23.09	
2025-01-19 07:25:49.39	47.09	23.11	
2025-01-19 07:25:49.59	47.13	23.14	
2025-01-19 07:25:49.79	47.18	23.16	
2025-01-19 07:25:50.00	47.22	23.19	
2025-01-19 07:25:50.20	47.27	23.21	
2025-01-19 07:25:50.40	47.31	23.24	
2025-01-19 07:25:50.61	47.36	23.26	
2025-01-19 07:25:50.81	47.41	23.28	
2025-01-19 07:25:51.01	47.45	23.31	
2025-01-19 07:25:51.21	47.50	23.33	
2025-01-19 07:25:51.42	47.54	23.36	
2025-01-19 07:25:51.62	47.59	23.38	
2025-01-19 07:25:51.82	47.63	23.41	
2025-01-19 07:25:52.03	47.68	23.43	
2025-01-19 07:25:52.23	47.73	23.46	
2025-01-19 07:25:52.43	47.77	23.48	
2025-01-19 07:25:52.64	47.82	23.51	
2025-01-19 07:25:52.84	47.87	23.53	
2025-01-19 07:25:53.04	47.91	23.56	
2025-01-19 07:25:53.25	47.96	23.58	
2025-01-19 07:25:53.45	48.01	23.60	
2025-01-19 07:25:53.65	48.05	23.63	
2025-01-19 07:25:53.85	48.10	23.65	
2025-01-19 07:25:54.06	48.15	23.68	
2025-01-19 07:25:54.26	48.19	23.70	
2025-01-19 07:25:54.46	48.24	23.73	
2025-01-19 07:25:54.67	48.29	23.75	
2025-01-19 07:25:54.87	48.33	23.78	
2025-01-19 07:25:55.07	48.38	23.80	
2025-01-19 07:25:55.28	48.43	23.83	
2025-01-19 07:25:55.48	48.48	23.85	
2025-01-19 07:25:55.68	48.52	23.88	
2025-01-19 07:25:55.89	48.57	23.90	
2025-01-19 07:25:56.09	48.62	23.93	
2025-01-19 07:25:56.29	48.67	23.95	
2025-01-19 07:25:56.49	48.71	23.97	
2025-01-19 07:25:56.70	48.76	24.00	
2025-01-19 07:25:56.90	48.81	24.02	
2025-01-19 07:25:57.10	48.86	24.05	
2025-01-19 07:25:57.31	48.91	24.07	
2025-01-19 07:25:57.51	48.95	24.10	
2025-01-19 07:25:57.71	49.00	24.12	
2025-01-19 07:25:57.92	49.05	24.15	
2025-01-19 07:25:58.12	49.10	24.17	
2025-01-19 07:25:58.32	49.15	24.20	
2025-01-19 07:25:58.53	49.20	24.22	
2025-01-19 07:25:58.73	49.24	24.25	
2025-01-19 07:25:58.93	49.29	24.27	
2025-01-19 07:25:59.14	49.34	24.30	
2025-01-19 07:25:59.34	49.39	24.32	
2025-01-19 07:25:59.54	49.44	24.35	
2025-01-19 07:25:59.74	49.49	24.37	
2025-01-19 07:25:59.95	49.54	24.40	
2025-01-19 07:26:00.15	49.59	24.42	
2025-01-19 07:26:00.35	49.64	24.45	
2025-01-19 07:26:00.56	49.69	24.47	
2025-01-19 07:26:00.76	49.73	24.50	
2025-01-19 07:26:00.96	49.78	24.52	
2025-01-19 07:26:01.17	49.83	24.55	
2025-01-19 07:26:01.37	49.88	24.57	
2025-01-19 07:26:01.57	49.93	24.60	
2025-01-19 07:26:01.77	49.98	24.62	
2025-01-19 07:26:01.98	50.03	24.65	
2025-01-19 07:26:02.18	50.08	24.67	
2025-01-19 07:26:02.38	50.13	24.69	
2025-01-19 07:26:02.59	50.18	24.72	
2025-01-19 07:26:02.79	50.23	24.74	
2025-01-19 07:26:02.99	50.28	24.77	
2025-01-19 07:26:03.20	50.33	24.79	
2025-01-19 07:26:03.40	50.38	24.82	
2025-01-19 07:26:03.60	50.43	24.84	
2025-01-19 07:26:03.81	50.49	24.87	
2025-01-19 07:26:04.01	50.54	24.89	
2025-01-19 07:26:04.21	50.59	24.92	
2025-01-19 07:26:04.42	50.64	24.94	
2025-01-19 07:26:04.62	50.69	24.97	
2025-01-19 07:26:04.82	50.74	24.99	
2025-01-19 07:26:05.02	50.79	25.02	
2025-01-19 07:26:05.23	50.84	25.04	
2025-01-19 07:26:05.43	50.89	25.07	
2025-01-19 07:26:05.63	50.94	25.09	
2025-01-19 07:26:05.84	51.00	25.12	
2025-01-19 07:26:06.04	51.05	25.14	
2025-01-19 07:26:06.24	51.10	25.17	
2025-01-19 07:26:06.45	51.15	25.19	
2025-01-19 07:26:06.65	51.20	25.22	
2025-01-19 07:26:06.85	51.25	25.24	
2025-01-19 07:26:07.05	51.31	25.27	
2025-01-19 07:26:07.26	51.36	25.29	
2025-01-19 07:26:07.46	51.41	25.32	
2025-01-19 07:26:07.66	51.46	25.34	
2025-01-19 07:26:07.87	51.52	25.37	
2025-01-19 07:26:08.07	51.57	25.39	
2025-01-19 07:26:08.27	51.62	25.42	
2025-01-19 07:26:08.48	51.67	25.44	
2025-01-19 07:26:08.68	51.73	25.47	
2025-01-19 07:26:08.88	51.78	25.49	
2025-01-19 07:26:09.09	51.83	25.52	
2025-01-19 07:26:09.29	51.88	25.54	
2025-01-19 07:26:09.49	51.94	25.57	
2025-01-19 07:26:09.70	51.99	25.59	
2025-01-19 07:26:09.90	52.04	25.62	
2025-01-19 07:26:10.10	52.10	25.64	
2025-01-19 07:26:10.30	52.15	25.67	
2025-01-19 07:26:10.51	52.20	25.69	
2025-01-19 07:26:10.71	52.26	25.72	
2025-01-19 07:26:10.91	52.31	25.74	
2025-01-19 07:26:11.12	52.36	25.77	
2025-01-19 07:26:11.32	52.42	25.79	
2025-01-19 07:26:11.52	52.47	25.82	
2025-01-19 07:26:11.73	52.53	25.84	
2025-01-19 07:26:11.93	52.58	25.87	
2025-01-19 07:26:12.13	52.63	25.89	
2025-01-19 07:26:12.34	52.69	25.92	
2025-01-19 07:26:12.54	52.74	25.94	
2025-01-19 07:26:12.74	52.80	25.97	
2025-01-19 07:26:12.94	52.85	25.99	
2025-01-19 07:26:13.15	52.91	26.02	
2025-01-19 07:26:13.35	52.96	26.04	
2025-01-19 07:26:13.55	53.01	26.07	
2025-01-19 07:26:13.76	53.07	26.09	
2025-01-19 07:26:13.96	53.12	26.12	
2025-01-19 07:26:14.16	53.18	26.14	
2025-01-19 07:26:14.37	53.24	26.17	
2025-01-19 07:26:14.57	53.29	26.19	
2025-01-19 07:26:14.77	53.34	26.22	
2025-01-19 07:26:14.98	53.40	26.24	
2025-01-19 07:26:15.18	53.46	26.27	
2025-01-19 07:26:15.38	53.51	26.29	
2025-01-19 07:26:15.58	53.57	26.32	
2025-01-19 07:26:15.79	53.62	26.34	
2025-01-19 07:26:15.99	53.68	26.37	
2025-01-19 07:26:16.19	53.73	26.39	
2025-01-19 07:26:16.40	53.79	26.42	
2025-01-19 07:26:16.60	53.85	26.44	
2025-01-19 07:26:16.80	53.90	26.47	
2025-01-19 07:26:17.01	53.96	26.49	
2025-01-19 07:26:17.21	54.01	26.52	
2025-01-19 07:26:17.41	54.07	26.54	
2025-01-19 07:26:17.62	54.13	26.57	
2025-01-19 07:26:17.82	54.18	26.59	
2025-01-19 07:26:18.02	54.24	26.62	
2025-01-19 07:26:18.22	54.30	26.64	
2025-01-19 07:26:18.43	54.36	26.67	
2025-01-19 07:26:18.63	54.41	26.69	
2025-01-19 07:26:18.83	54.47	26.71	
2025-01-19 07:26:19.04	54.53	26.74	
2025-01-19 07:26:19.24	54.58	26.77	
2025-01-19 07:26:19.44	54.64	26.79	
2025-01-19 07:26:19.65	54.70	26.82	
2025-01-19 07:26:19.85	54.76	26.84	
2025-01-19 07:26:20.05	54.81	26.86	
2025-01-19 07:26:20.26	54.87	26.89	
2025-01-19 07:26:20.46	54.93	26.91	
2025-01-19 07:26:20.66	54.99	26.94	
2025-01-19 07:26:20.86	55.04	26.96	
2025-01-19 07:26:21.07	55.10	26.99	
2025-01-19 07:26:21.27	55.16	27.01	
2025-01-19 07:26:21.47	55.22	27.04	
2025-01-19 07:26:21.68	55.28	27.06	
2025-01-19 07:26:21.88	55.33	27.09	
2025-01-19 07:26:22.08	55.39	27.11	
2025-01-19 07:26:22.29	55.45	27.14	
2025-01-19 07:26:22.49	55.51	27.16	
2025-01-19 07:26:22.69	55.57	27.19	
2025-01-19 07:26:22.90	55.63	27.21	
2025-01-19 07:26:23.10	55.69	27.24	
2025-01-19 07:26:23.30	55.75	27.26	
2025-01-19 07:26:23.50	55.80	27.29	
2025-01-19 07:26:23.71	55.87	27.31	
2025-01-19 07:26:23.91	55.92	27.34	
2025-01-19 07:26:24.11	55.98	27.36	
2025-01-19 07:26:24.32	56.04	27.39	
2025-01-19 07:26:24.52	56.10	27.41	
2025-01-19 07:26:24.72	56.16	27.43	
2025-01-19 07:26:24.93	56.22	27.46	
2025-01-19 07:26:25.13	56.28	27.48	
2025-01-19 07:26:25.33	56.34	27.51	
2025-01-19 07:26:25.54	56.40	27.53	
2025-01-19 07:26:25.74	56.46	27.56	
2025-01-19 07:26:25.94	56.52	27.58	
2025-01-19 07:26:26.14	56.58	27.61	
2025-01-19 07:26:26.35	56.64	27.63	
2025-01-19 07:26:26.55	56.70	27.66	
2025-01-19 07:26:26.75	56.76	27.68	
2025-01-19 07:26:26.96	56.83	27.71	
2025-01-19 07:26:27.16	56.89	27.73	
2025-01-19 07:26:27.36	56.95	27.76	
2025-01-19 07:26:27.57	57.01	27.78	
2025-01-19 07:26:27.77	57.07	27.81	
2025-01-19 07:26:27.97	57.13	27.83	
2025-01-19 07:26:28.18	57.19	27.85	
2025-01-19 07:26:28.38	57.25	27.88	
2025-01-19 07:26:28.58	57.32	27.90	
2025-01-19 07:26:28.78	57.38	27.93	
2025-01-19 07:26:28.99	57.44	27.95	
2025-01-19 07:26:29.19	57.50	27.98	
2025-01-19 07:26:29.39	57.56	28.00	
2025-01-19 07:26:29.60	57.63	28.03	
2025-01-19 07:26:29.80	57.69	28.05	
2025-01-19 07:26:30.00	57.75	28.07	
2025-01-19 07:26:30.21	57.81	28.10	
2025-01-19 07:26:30.41	57.87	28.12	
2025-01-19 07:26:30.61	57.94	28.15	
2025-01-19 07:26:30.82	58.00	28.17	
2025-01-19 07:26:31.02	58.06	28.20	
2025-01-19 07:26:31.22	58.12	28.22	
2025-01-19 07:26:31.42	58.19	28.25	
2025-01-19 07:26:31.63	58.25	28.27	
2025-01-19 07:26:31.83	58.31	28.29	
2025-01-19 07:26:32.03	58.38	28.32	
2025-01-19 07:26:32.24	58.44	28.34	
2025-01-19 07:26:32.44	58.50	28.37	
2025-01-19 07:26:32.64	58.57	28.39	
2025-01-19 07:26:32.85	58.63	28.42	
2025-01-19 07:26:33.05	58.69	28.44	
2025-01-19 07:26:33.25	58.76	28.46	
2025-01-19 07:26:33.46	58.82	28.49	
2025-01-19 07:26:33.66	58.89	28.51	
2025-01-19 07:26:33.86	58.95	28.54	
2025-01-19 07:26:34.06	59.01	28.56	
2025-01-19 07:26:34.27	59.08	28.59	
2025-01-19 07:26:34.47	59.14	28.61	
2025-01-19 07:26:34.67	59.21	28.63	
2025-01-19 07:26:34.88	59.27	28.66	
2025-01-19 07:26:35.08	59.34	28.68	
2025-01-19 07:26:35.28	59.40	28.71	
2025-01-19 07:26:35.49	59.47	28.73	
2025-01-19 07:26:35.69	59.53	28.75	
2025-01-19 07:26:35.89	59.60	28.78	
2025-01-19 07:26:36.10	59.66	28.80	
2025-01-19 07:26:36.30	59.73	28.83	
2025-01-19 07:26:36.50	59.79	28.85	
2025-01-19 07:26:36.70	59.86	28.87	
2025-01-19 07:26:36.91	59.92	28.90	
2025-01-19 07:26:37.11	59.99	28.92	
2025-01-19 07:26:37.31	60.05	28.95	
2025-01-19 07:26:37.52	60.12	28.97	
2025-01-19 07:26:37.72	60.19	28.99	
2025-01-19 07:26:37.92	60.25	29.02	
2025-01-19 07:26:38.13	60.32	29.04	
2025-01-19 07:26:38.33	60.39	29.07	
2025-01-19 07:26:38.53	60.45	29.09	
2025-01-19 07:26:38.74	60.52	29.11	
2025-01-19 07:26:38.94	60.58	29.14	
2025-01-19 07:26:39.14	60.65	29.16	
2025-01-19 07:26:39.34	60.72	29.19	
2025-01-19 07:26:39.55	60.79	29.21	
2025-01-19 07:26:39.75	60.85	29.23	
2025-01-19 07:26:39.95	60.92	29.26	
2025-01-19 07:26:40.16	60.99	29.28	
2025-01-19 07:26:40.36	61.05	29.30	
2025-01-19 07:26:40.56	61.12	29.33	
2025-01-19 07:26:40.77	61.19	29.35	
2025-01-19 07:26:40.97	61.26	29.38	
2025-01-19 07:26:41.17	61.32	29.40	
2025-01-19 07:26:41.38	61.39	29.42	
2025-01-19 07:26:41.58	61.46	29.45	
2025-01-19 07:26:41.78	61.53	29.47	
2025-01-19 07:26:41.98	61.59	29.49	
2025-01-19 07:26:42.19	61.66	29.52	
2025-01-19 07:26:42.39	61.73	29.54	
2025-01-19 07:26:42.59	61.80	29.56	
2025-01-19 07:26:42.80	61.87	29.59	
2025-01-19 07:26:43.00	61.94	29.61	
2025-01-19 07:26:43.20	62.00	29.63	
2025-01-19 07:26:43.41	62.08	29.66	
2025-01-19 07:26:43.61	62.14	29.68	
2025-01-19 07:26:43.81	62.21	29.70	
2025-01-19 07:26:44.02	62.28	29.73	
2025-01-19 07:26:44.22	62.35	29.75	
2025-01-19 07:26:44.42	62.42	29.77	
2025-01-19 07:26:44.62	62.49	29.80	
2025-01-19 07:26:44.83	62.56	29.82	
2025-01-19 07:26:45.03	62.63	29.84	
2025-01-19 07:26:45.23	62.70	29.87	
2025-01-19 07:26:45.44	62.77	29.89	
2025-01-19 07:26:45.64	62.84	29.91	
2025-01-19 07:26:45.84	62.91	29.94	
2025-01-19 07:26:46.05	62.98	29.96	
2025-01-19 07:26:46.25	63.05	29.98	
2025-01-19 07:26:46.45	63.12	30.00	
2025-01-19 07:26:46.66	63.19	30.03	
2025-01-19 07:26:46.86	63.26	30.05	
2025-01-19 07:26:47.06	63.33	30.07	
2025-01-19 07:26:47.26	63.40	30.10	
2025-01-19 07:26:47.47	63.47	30.12	
2025-01-19 07:26:47.67	63.54	30.14	
2025-01-19 07:26:47.87	63.61	30.16	
2025-01-19 07:26:48.08	63.69	30.19	
2025-01-19 07:26:48.28	63.76	30.21	
2025-01-19 07:26:48.48	63.83	30.23	
2025-01-19 07:26:48.69	63.90	30.26	
2025-01-19 07:26:48.89	63.97	30.28	
2025-01-19 07:26:49.09	64.04	30.30	
2025-01-19 07:26:49.30	64.12	30.32	
2025-01-19 07:26:49.50	64.19	30.35	
2025-01-19 07:26:49.70	64.26	30.37	
2025-01-19 07:26:49.90	64.33	30.39	
2025-01-19 07:26:50.11	64.40	30.41	
2025-01-19 07:26:50.31	64.47	30.44	
2025-01-19 07:26:50.51	64.55	30.46	
2025-01-19 07:26:50.72	64.62	30.48	
2025-01-19 07:26:50.92	64.69	30.50	
2025-01-19 07:26:51.12	64.76	30.53	
2025-01-19 07:26:51.33	64.84	30.55	
2025-01-19 07:26:51.53	64.91	30.57	
2025-01-19 07:26:51.73	64.98	30.59	
2025-01-19 07:26:51.94	65.06	30.62	
2025-01-19 07:26:52.14	65.13	30.64	
2025-01-19 07:26:52.34	65.20	30.66	
2025-01-19 07:26:52.54	65.28	30.68	
2025-01-19 07:26:52.75	65.35	30.70	
2025-01-19 07:26:52.95	65.42	30.73	
2025-01-19 07:26:53.15	65.50	30.75	
2025-01-19 07:26:53.36	65.57	30.77	
2025-01-19 07:26:53.56	65.65	30.79	
2025-01-19 07:26:53.76	65.72	30.81	
2025-01-19 07:26:53.97	65.79	30.84	
2025-01-19 07:26:54.17	65.87	30.86	
2025-01-19 07:26:54.37	65.94	30.88	
2025-01-19 07:26:54.58	66.02	30.90	
2025-01-19 07:26:54.78	66.09	30.92	
2025-01-19 07:26:54.98	66.17	30.95	
2025-01-19 07:26:55.18	66.24	30.97	
2025-01-19 07:26:55.39	66.32	30.99	
2025-01-19 07:26:55.59	66.39	31.01	
2025-01-19 07:26:55.79	66.46	31.03	
2025-01-19 07:26:56.00	66.54	31.05	
2025-01-19 07:26:56.20	66.62	31.08	
2025-01-19 07:26:56.40	66.69	31.10	
2025-01-19 07:26:56.61	66.77	31.12	
2025-01-19 07:26:56.81	66.84	31.14	
2025-01-19 07:26:57.01	66.92	31.16	
2025-01-19 07:26:57.22	67.00	31.18	
2025-01-19 07:26:57.42	67.07	31.20	
2025-01-19 07:26:57.62	67.14	31.23	
2025-01-19 07:26:57.82	67.22	31.25	
2025-01-19 07:26:58.03	67.30	31.27	
2025-01-19 07:26:58.23	67.37	31.29	
2025-01-19 07:26:58.43	67.45	31.31	
2025-01-19 07:26:58.64	67.53	31.33	
2025-01-19 07:26:58.84	67.60	31.35	
2025-01-19 07:26:59.04	67.68	31.37	
2025-01-19 07:26:59.25	67.76	31.40	
2025-01-19 07:26:59.45	67.83	31.42	
2025-01-19 07:26:59.65	67.91	31.44	
2025-01-19 07:26:59.86	67.99	31.46	
2025-01-19 07:27:00.06	68.07	31.48	
2025-01-19 07:27:00.26	68.14	31.50	
2025-01-19 07:27:00.46	68.22	31.52	
2025-01-19 07:27:00.67	68.30	31.54	
2025-01-19 07:27:00.87	68.37	31.56	
2025-01-19 07:27:01.07	68.45	31.58	
2025-01-19 07:27:01.28	68.53	31.60	
2025-01-19 07:27:01.48	68.61	31.62	
2025-01-19 07:27:01.68	68.69	31.64	
2025-01-19 07:27:01.89	68.77	31.67	
2025-01-19 07:27:02.09	68.84	31.69	
2025-01-19 07:27:02.29	68.92	31.71	
2025-01-19 07:27:02.50	69.00	31.73	
2025-01-19 07:27:02.70	69.08	31.75	
2025-01-19 07:27:02.90	69.16	31.77	
2025-01-19 07:27:03.10	69.23	31.79	
2025-01-19 07:27:03.31	69.31	31.81	
2025-01-19 07:27:03.51	69.39	31.83	
2025-01-19 07:27:03.71	69.47	31.85	
2025-01-19 07:27:03.92	69.55	31.87	
2025-01-19 07:27:04.12	69.63	31.89	
2025-01-19 07:27:04.32	69.71	31.91	
2025-01-19 07:27:04.53	69.79	31.93	
2025-01-19 07:27:04.73	69.87	31.95	
2025-01-19 07:27:04.93	69.95	31.97	
2025-01-19 07:27:05.14	70.03	31.99	
2025-01-19 07:27:05.34	70.11	32.01	
2025-01-19 07:27:05.54	70.19	32.03	
2025-01-19 07:27:05.74	70.27	32.05	
2025-01-19 07:27:05.95	70.35	32.07	
2025-01-19 07:27:06.15	70.43	32.09	
2025-01-19 07:27:06.35	70.51	32.10	
2025-01-19 07:27:06.56	70.59	32.12	
2025-01-19 07:27:06.76	70.67	32.14	
2025-01-19 07:27:06.96	70.75	32.16	
2025-01-19 07:27:07.17	70.83	32.18	
2025-01-19 07:27:07.37	70.91	32.20	
2025-01-19 07:27:07.57	70.99	32.22	
2025-01-19 07:27:07.78	71.07	32.24	
2025-01-19 07:27:07.98	71.15	32.26	
2025-01-19 07:27:08.18	71.23	32.28	
2025-01-19 07:27:08.38	71.31	32.30	
2025-01-19 07:27:08.59	71.40	32.32	
2025-01-19 07:27:08.79	71.48	32.34	
2025-01-19 07:27:08.99	71.56	32.35	
2025-01-19 07:27:09.20	71.64	32.37	
2025-01-19 07:27:09.40	71.72	32.39	
2025-01-19 07:27:09.60	71.80	32.41	
2025-01-19 07:27:09.81	71.89	32.43	
2025-01-19 07:27:10.01	71.97	32.45	
2025-01-19 07:27:10.21	72.05	32.47	
2025-01-19 07:27:10.42	72.14	32.49	
2025-01-19 07:27:10.62	72.22	32.50	
2025-01-19 07:27:10.82	72.30	32.52	
2025-01-19 07:27:11.02	72.38	32.54	
2025-01-19 07:27:11.23	72.47	32.56	
2025-01-19 07:27:11.43	72.55	32.58	
2025-01-19 07:27:11.63	72.63	32.60	
2025-01-19 07:27:11.84	72.71	32.61	
2025-01-19 07:27:12.04	72.80	32.63	
2025-01-19 07:27:12.24	72.88	32.65	
2025-01-19 07:27:12.45	72.96	32.67	
2025-01-19 07:27:12.65	73.05	32.69	
2025-01-19 07:27:12.85	73.13	32.70	
2025-01-19 07:27:13.06	73.21	32.72	
2025-01-19 07:27:13.26	73.30	32.74	
2025-01-19 07:27:13.46	73.38	32.76	
2025-01-19 07:27:13.66	73.46	32.78	
2025-01-19 07:27:13.87	73.55	32.79	
2025-01-19 07:27:14.07	73.63	32.81	
2025-01-19 07:27:14.27	73.71	32.83	
2025-01-19 07:27:14.48	73.80	32.85	
2025-01-19 07:27:14.68	73.88	32.86	
2025-01-19 07:27:14.88	73.97	32.88	
2025-01-19 07:27:15.09	74.05	32.90	
2025-01-19 07:27:15.29	74.14	32.92	
2025-01-19 07:27:15.49	74.22	32.93	
2025-01-19 07:27:15.70	74.31	32.95	
2025-01-19 07:27:15.90	74.39	32.97	
2025-01-19 07:27:16.10	74.48	32.98	
2025-01-19 07:27:16.30	74.56	33.00	
2025-01-19 07:27:16.51	74.65	33.02	
2025-01-19 07:27:16.71	74.73	33.04	
2025-01-19 07:27:16.91	74.81	33.05	
2025-01-19 07:27:17.12	74.90	33.07	
2025-01-19 07:27:17.32	74.99	33.09	
2025-01-19 07:27:17.52	75.07	33.10	
2025-01-19 07:27:17.73	75.16	33.12	
2025-01-19 07:27:17.93	75.24	33.14	
2025-01-19 07:27:18.13	75.33	33.15	
2025-01-19 07:27:18.34	75.42	33.17	
2025-01-19 07:27:18.54	75.50	33.18	
2025-01-19 07:27:18.74	75.59	33.20	
2025-01-19 07:27:18.94	75.67	33.22	
2025-01-19 07:27:19.15	75.76	33.23	
2025-01-19 07:27:19.35	75.85	33.25	
2025-01-19 07:27:19.55	75.93	33.27	
2025-01-19 07:27:19.76	76.02	33.28	
2025-01-19 07:27:19.96	76.11	33.30	
2025-01-19 07:27:20.16	76.19	33.31	
2025-01-19 07:27:20.37	76.28	33.33	
2025-01-19 07:27:20.57	76.37	33.35	
2025-01-19 07:27:20.77	76.45	33.36	
2025-01-19 07:27:20.98	76.54	33.38	
2025-01-19 07:27:21.18	76.63	33.39	
2025-01-19 07:27:21.38	76.71	33.41	
2025-01-19 07:27:21.58	76.80	33.42	
2025-01-19 07:27:21.79	76.89	33.44	
2025-01-19 07:27:21.99	76.98	33.45	
2025-01-19 07:27:22.19	77.06	33.47	
2025-01-19 07:27:22.40	77.15	33.48	
2025-01-19 07:27:22.60	77.24	33.50	
2025-01-19 07:27:22.80	77.32	33.51	
2025-01-19 07:27:23.01	77.42	33.53	
2025-01-19 07:27:23.21	77.50	33.54	
2025-01-19 07:27:23.41	77.59	33.56	
2025-01-19 07:27:23.62	77.68	33.57	
2025-01-19 07:27:23.82	77.77	33.59	
2025-01-19 07:27:24.02	77.85	33.60	
2025-01-19 07:27:24.22	77.94	33.62	
2025-01-19 07:27:24.43	78.03	33.63	
2025-01-19 07:27:24.63	78.12	33.65	
2025-01-19 07:27:24.83	78.21	33.66	
2025-01-19 07:27:25.04	78.30	33.68	
2025-01-19 07:27:25.24	78.39	33.69	
2025-01-19 07:27:25.44	78.47	33.70	
2025-01-19 07:27:25.65	78.56	33.72	
2025-01-19 07:27:25.85	78.65	33.73	
2025-01-19 07:27:26.05	78.74	33.75	
2025-01-19 07:27:26.26	78.83	33.76	
2025-01-19 07:27:26.46	78.92	33.77	
2025-01-19 07:27:26.66	79.01	33.79	
2025-01-19 07:27:26.86	79.10	33.80	
2025-01-19 07:27:27.07	79.19	33.82	
2025-01-19 07:27:27.27	79.28	33.83	
2025-01-19 07:27:27.47	79.36	33.84	
2025-01-19 07:27:27.68	79.46	33.86	
2025-01-19 07:27:27.88	79.55	33.87	
2025-01-19 07:27:28.08	79.63	33.88	
2025-01-19 07:27:28.29	79.73	33.90	
2025-01-19 07:27:28.49	79.82	33.91	
2025-01-19 07:27:28.69	79.90	33.92	
2025-01-19 07:27:28.90	80.00	33.94	
2025-01-19 07:27:29.10	80.09	33.95	
2025-01-19 07:27:29.30	80.17	33.96	
2025-01-19 07:27:29.50	80.26	33.97	
2025-01-19 07:27:29.71	80.36	33.99	
2025-01-19 07:27:29.91	80.45	34.00	
2025-01-19 07:27:30.11	80.54	34.01	
2025-01-19 07:27:30.32	80.63	34.03	
2025-01-19 07:27:30.52	80.72	34.04	
2025-01-19 07:27:30.72	80.81	34.05	
2025-01-19 07:27:30.93	80.90	34.06	
2025-01-19 07:27:31.13	80.99	34.08	
2025-01-19 07:27:31.33	81.08	34.09	
2025-01-19 07:27:31.54	81.18	34.10	
2025-01-19 07:27:31.74	81.26	34.11	
2025-01-19 07:27:31.94	81.35	34.12	
2025-01-19 07:27:32.15	81.45	34.14	
2025-01-19 07:27:32.35	81.54	34.15	
2025-01-19 07:27:32.55	81.63	34.16	
2025-01-19 07:27:32.75	81.72	34.17	
2025-01-19 07:27:32.96	81.81	34.18	
2025-01-19 07:27:33.16	81.90	34.19	
2025-01-19 07:27:33.36	81.99	34.21	
2025-01-19 07:27:33.57	82.09	34.22	
2025-01-19 07:27:33.77	82.18	34.23	
2025-01-19 07:27:33.97	82.27	34.24	
2025-01-19 07:27:34.18	82.36	34.25	
2025-01-19 07:27:34.38	82.46	34.26	
2025-01-19 07:27:34.58	82.55	34.27	
2025-01-19 07:27:34.79	82.64	34.28	
2025-01-19 07:27:34.99	82.73	34.29	
2025-01-19 07:27:35.19	82.82	34.31	
2025-01-19 07:27:35.39	82.91	34.32	
2025-01-19 07:27:35.60	83.01	34.33	
2025-01-19 07:27:35.80	83.10	34.34	
2025-01-19 07:27:36.00	83.19	34.35	
2025-01-19 07:27:36.21	83.29	34.36	
2025-01-19 07:27:36.41	83.38	34.37	
2025-01-19 07:27:36.61	83.47	34.38	
2025-01-19 07:27:36.82	83.56	34.39	
2025-01-19 07:27:37.02	83.66	34.40	
2025-01-19 07:27:37.22	83.75	34.41	
2025-01-19 07:27:37.43	83.84	34.42	
2025-01-19 07:27:37.63	83.94	34.43	
2025-01-19 07:27:37.83	84.03	34.44	
2025-01-19 07:27:38.03	84.12	34.45	
2025-01-19 07:27:38.24	84.21	34.46	
2025-01-19 07:27:38.44	84.31	34.47	
2025-01-19 07:27:38.64	84.40	34.48	
2025-01-19 07:27:38.85	84.49	34.49	
2025-01-19 07:27:39.05	84.59	34.50	
2025-01-19 07:27:39.25	84.68	34.51	
2025-01-19 07:27:39.46	84.78	34.51	
2025-01-19 07:27:39.66	84.87	34.52	
2025-01-19 07:27:39.86	84.96	34.53	
2025-01-19 07:27:40.07	85.06	34.54	
2025-01-19 07:27:40.27	85.15	34.55	
2025-01-19 07:27:40.47	85.24	34.56	
2025-01-19 07:27:40.67	85.33	34.57	
2025-01-19 07:27:40.88	85.43	34.58	
2025-01-19 07:27:41.08	85.52	34.58	
2025-01-19 07:27:41.28	85.61	34.59	
2025-01-19 07:27:41.49	85.71	34.60	
2025-01-19 07:27:41.69	85.80	34.61	
2025-01-19 07:27:41.89	85.90	34.62	
2025-01-19 07:27:42.10	85.99	34.63	
2025-01-19 07:27:42.30	86.09	34.63	
2025-01-19 07:27:42.50	86.18	34.64	
2025-01-19 07:27:42.70	86.27	34.65	
2025-01-19 07:27:42.91	86.37	34.66	
2025-01-19 07:27:43.11	86.46	34.67	
2025-01-19 07:27:43.31	86.56	34.67	
2025-01-19 07:27:43.52	86.65	34.68	
2025-01-19 07:27:43.72	86.75	34.69	
2025-01-19 07:27:43.92	86.84	34.70	
2025-01-19 07:27:44.13	86.94	34.70	
2025-01-19 07:27:44.33	87.03	34.71	
2025-01-19 07:27:44.53	87.12	34.72	
2025-01-19 07:27:44.74	87.22	34.72	
2025-01-19 07:27:44.94	87.32	34.73	
2025-01-19 07:27:45.14	87.41	34.74	
2025-01-19 07:27:45.35	87.51	34.75	
2025-01-19 07:27:45.55	87.60	34.75	
2025-01-19 07:27:45.75	87.69	34.76	
2025-01-19 07:27:45.95	87.79	34.77	
2025-01-19 07:27:46.16	87.89	34.77	
2025-01-19 07:27:46.36	87.98	34.78	
2025-01-19 07:27:46.56	88.07	34.78	
2025-01-19 07:27:46.77	88.17	34.79	
2025-01-19 07:27:46.97	88.26	34.80	
2025-01-19 07:27:47.17	88.36	34.80	
2025-01-19 07:27:47.38	88.46	34.81	
2025-01-19 07:27:47.58	88.55	34.81	
2025-01-19 07:27:47.78	88.64	34.82	
2025-01-19 07:27:47.99	88.74	34.83	
2025-01-19 07:27:48.19	88.84	34.83	
2025-01-19 07:27:48.39	88.93	34.84	
2025-01-19 07:27:48.59	89.02	34.84	
2025-01-19 07:27:48.80	89.12	34.85	
2025-01-19 07:27:49.00	89.22	34.85	
2025-01-19 07:27:49.20	89.31	34.86	
2025-01-19 07:27:49.41	89.41	34.86	
2025-01-19 07:27:49.61	89.50	34.87	
2025-01-19 07:27:49.81	89.60	34.87	
2025-01-19 07:27:50.02	89.70	34.88	
2025-01-19 07:27:50.22	89.79	34.88	
2025-01-19 07:27:50.42	89.89	34.89	
2025-01-19 07:27:50.63	89.98	34.89	
2025-01-19 07:27:50.83	90.08	34.90	
2025-01-19 07:27:51.03	90.17	34.90	
2025-01-19 07:27:51.23	90.27	34.91	
2025-01-19 07:27:51.44	90.37	34.91	
2025-01-19 07:27:51.64	90.46	34.91	
2025-01-19 07:27:51.84	90.56	34.92	
2025-01-19 07:27:52.05	90.65	34.92	
2025-01-19 07:27:52.25	90.75	34.93	
2025-01-19 07:27:52.45	90.84	34.93	
2025-01-19 07:27:52.66	90.94	34.93	
2025-01-19 07:27:52.86	91.04	34.94	
2025-01-19 07:27:53.06	91.13	34.94	
2025-01-19 07:27:53.27	91.23	34.95	
2025-01-19 07:27:53.47	91.33	34.95	
2025-01-19 07:27:53.67	91.42	34.95	
2025-01-19 07:27:53.87	91.51	34.96	
2025-01-19 07:27:54.08	91.61	34.96	
2025-01-19 07:27:54.28	91.71	34.96	
2025-01-19 07:27:54.48	91.80	34.96	
2025-01-19 07:27:54.69	91.90	34.97	
2025-01-19 07:27:54.89	92.00	34.97	
2025-01-19 07:27:55.09	92.09	34.97	
2025-01-19 07:27:55.30	92.19	34.98	
2025-01-19 07:27:55.50	92.29	34.98	
2025-01-19 07:27:55.70	92.38	34.98	
2025-01-19 07:27:55.91	92.48	34.98	
2025-01-19 07:27:56.11	92.58	34.99	
2025-01-19 07:27:56.31	92.67	34.99	
2025-01-19 07:27:56.51	92.77	34.99	
2025-01-19 07:27:56.72	92.87	34.99	
2025-01-19 07:27:56.92	92.96	34.99	
2025-01-19 07:27:57.12	93.05	35.00	
2025-01-19 07:27:57.33	93.15	35.00	
2025-01-19 07:27:57.53	93.25	35.00	
2025-01-19 07:27:57.73	93.34	35.00	
2025-01-19 07:27:57.94	93.44	35.00	
2025-01-19 07:27:58.14	93.54	35.00	
2025-01-19 07:27:58.34	93.63	35.00	
2025-01-19 07:27:58.55	93.73	35.01	
2025-01-19 07:27:58.75	93.83	35.01	
2025-01-19 07:27:58.95	93.92	35.01	
2025-01-19 07:27:59.15	94.02	35.01	
2025-01-19 07:27:59.36	94.12	35.01	
2025-01-19 07:27:59.56	94.21	35.01	
2025-01-19 07:27:59.76	94.31	35.01	
2025-01-19 07:27:59.97	94.41	35.01	
2025-01-19 07:28:00.17	94.50	35.01	
2025-01-19 07:28:00.37	94.60	35.01	
2025-01-19 07:28:00.58	94.70	35.01	
2025-01-19 07:28:00.78	94.79	35.01	
2025-01-19 07:28:00.98	94.89	35.01	
2025-01-19 07:28:01.19	94.99	35.01	
2025-01-19 07:28:01.39	95.08	35.01	
2025-01-19 07:28:01.59	95.18	35.01	
2025-01-19 07:28:01.79	95.27	35.01	
2025-01-19 07:28:02.00	95.37	35.01	
2025-01-19 07:28:02.20	95.47	35.01	
2025-01-19 07:28:02.40	95.56	35.01	
2025-01-19 07:28:02.61	95.66	35.01	
2025-01-19 07:28:02.81	95.76	35.01	
2025-01-19 07:28:03.01	95.85	35.01	
2025-01-19 07:28:03.22	95.95	35.01	
2025-01-19 07:28:03.42	96.05	35.01	
2025-01-19 07:28:03.62	96.14	35.01	
2025-01-19 07:28:03.83	96.24	35.01	
2025-01-19 07:28:04.03	96.34	35.01	
2025-01-19 07:28:04.23	96.43	35.01	
2025-01-19 07:28:04.43	96.53	35.00	
2025-01-19 07:28:04.64	96.63	35.00	
2025-01-19 07:28:04.84	96.72	35.00	
2025-01-19 07:28:05.04	96.82	35.00	
2025-01-19 07:28:05.25	96.92	35.00	
2025-01-19 07:28:05.45	97.01	35.00	
2025-01-19 07:28:05.65	97.11	34.99	
2025-01-19 07:28:05.86	97.21	34.99	
2025-01-19 07:28:06.06	97.30	34.99	
2025-01-19 07:28:06.26	97.39	34.99	
2025-01-19 07:28:06.47	97.49	34.99	
2025-01-19 07:28:06.67	97.59	34.98	
2025-01-19 07:28:06.87	97.68	34.98	
2025-01-19 07:28:07.07	97.78	34.98	
2025-01-19 07:28:07.28	97.88	34.98	
2025-01-19 07:28:07.48	97.97	34.97	
2025-01-19 07:28:07.68	98.07	34.97	
2025-01-19 07:28:07.89	98.17	34.97	
2025-01-19 07:28:08.09	98.26	34.97	
2025-01-19 07:28:08.29	98.36	34.96	
2025-01-19 07:28:08.50	98.46	34.96	
2025-01-19 07:28:08.70	98.55	34.96	
2025-01-19 07:28:08.90	98.65	34.95	
2025-01-19 07:28:09.11	98.75	34.95	
2025-01-19 07:28:09.31	98.84	34.95	
2025-01-19 07:28:09.51	98.93	34.94	
2025-01-19 07:28:09.71	99.03	34.94	
2025-01-19 07:28:09.92	99.13	34.94	
2025-01-19 07:28:10.12	99.22	34.93	
2025-01-19 07:28:10.32	99.32	34.93	
2025-01-19 07:28:10.53	99.42	34.92	
2025-01-19 07:28:10.73	99.51	34.92	
2025-01-19 07:28:10.93	99.61	34.92	
2025-01-19 07:28:11.14	99.71	34.91	
2025-01-19 07:28:11.34	99.80	34.91	
2025-01-19 07:28:11.54	99.89	34.90	
2025-01-19 07:28:11.75	99.99	34.90	
2025-01-19 07:28:11.95	100.09	34.89	
2025-01-19 07:28:12.15	100.18	34.89	
2025-01-19 07:28:12.35	100.28	34.89	
2025-01-19 07:28:12.56	100.37	34.88	
2025-01-19 07:28:12.76	100.47	34.88	
2025-01-19 07:28:12.96	100.56	34.87	
2025-01-19 07:28:13.17	100.66	34.87	
2025-01-19 07:28:13.37	100.76	34.86	
2025-01-19 07:28:13.57	100.85	34.86	
2025-01-19 07:28:13.78	100.95	34.85	
2025-01-19 07:28:13.98	101.04	34.84	
2025-01-19 07:28:14.18	101.14	34.84	
2025-01-19 07:28:14.39	101.24	34.83	
2025-01-19 07:28:14.59	101.33	34.83	
2025-01-19 07:28:14.79	101.42	34.82	
2025-01-19 07:28:14.99	101.52	34.82	
2025-01-19 07:28:15.20	101.62	34.81	
2025-01-19 07:28:15.40	101.71	34.80	
2025-01-19 07:28:15.60	101.80	34.80	
2025-01-19 07:28:15.81	101.90	34.79	
2025-01-19 07:28:16.01	102.00	34.79	
2025-01-19 07:28:16.21	102.09	34.78	
2025-01-19 07:28:16.42	102.19	34.77	
2025-01-19 07:28:16.62	102.28	34.77	
2025-01-19 07:28:16.82	102.38	34.76	
2025-01-19 07:28:17.03	102.47	34.75	
2025-01-19 07:28:17.23	102.57	34.75	
2025-01-19 07:28:17.43	102.66	34.74	
2025-01-19 07:28:17.63	102.75	34.73	
2025-01-19 07:28:17.84	102.85	34.73	
2025-01-19 07:28:18.04	102.95	34.72	
2025-01-19 07:28:18.24	103.04	34.71	
2025-01-19 07:28:18.45	103.14	34.71	
2025-01-19 07:28:18.65	103.23	34.70	
2025-01-19 07:28:18.85	103.32	34.69	
2025-01-19 07:28:19.06	103.42	34.68	
2025-01-19 07:28:19.26	103.51	34.68	
2025-01-19 07:28:19.46	103.61	34.67	
2025-01-19 07:28:19.67	103.70	34.66	
2025-01-19 07:28:19.87	103.80	34.65	
2025-01-19 07:28:20.07	103.89	34.64	
2025-01-19 07:28:20.27	103.98	34.64	
2025-01-19 07:28:20.48	104.08	34.63	
2025-01-19 07:28:20.68	104.17	34.62	
2025-01-19 07:28:20.88	104.27	34.61	
2025-01-19 07:28:21.09	104.36	34.60	
2025-01-19 07:28:21.29	104.46	34.60	
2025-01-19 07:28:21.49	104.55	34.59	
2025-01-19 07:28:21.70	104.65	34.58	
2025-01-19 07:28:21.90	104.74	34.57	
2025-01-19 07:28:22.10	104.83	34.56	
2025-01-19 07:28:22.31	104.93	34.55	
2025-01-19 07:28:22.51	105.02	34.54	
2025-01-19 07:28:22.71	105.11	34.54	
2025-01-19 07:28:22.91	105.21	34.53	
2025-01-19 07:28:23.12	105.30	34.52	
2025-01-19 07:28:23.32	105.39	34.51	
2025-01-19 07:28:23.52	105.49	34.50	
2025-01-19 07:28:23.73	105.58	34.49	
2025-01-19 07:28:23.93	105.68	34.48	
2025-01-19 07:28:24.13	105.77	34.47	
2025-01-19 07:28:24.34	105.86	34.46	
2025-01-19 07:28:24.54	105.96	34.45	
2025-01-19 07:28:24.74	106.05	34.44	
2025-01-19 07:28:24.95	106.14	34.43	
2025-01-19 07:28:25.15	106.24	34.42	
2025-01-19 07:28:25.35	106.33	34.41	
2025-01-19 07:28:25.55	106.42	34.40	
2025-01-19 07:28:25.76	106.51	34.39	
2025-01-19 07:28:25.96	106.61	34.38	
2025-01-19 07:28:26.16	106.70	34.37	
2025-01-19 07:28:26.37	106.79	34.36	
2025-01-19 07:28:26.57	106.88	34.35	
2025-01-19 07:28:26.77	106.98	34.34	
2025-01-19 07:28:26.98	107.07	34.33	
2025-01-19 07:28:27.18	107.16	34.32	
2025-01-19 07:28:27.38	107.25	34.31	
2025-01-19 07:28:27.59	107.35	34.30	
2025-01-19 07:28:27.79	107.44	34.29	
2025-01-19 07:28:27.99	107.53	34.28	
2025-01-19 07:28:28.19	107.62	34.26	
2025-01-19 07:28:28.40	107.72	34.25	
2025-01-19 07:28:28.60	107.81	34.24	
2025-01-19 07:28:28.80	107.90	34.23	
2025-01-19 07:28:29.01	107.99	34.22	
2025-01-19 07:28:29.21	108.08	34.21	
2025-01-19 07:28:29.41	108.17	34.20	
2025-01-19 07:28:29.62	108.27	34.19	
2025-01-19 07:28:29.82	108.36	34.17	
2025-01-19 07:28:30.02	108.45	34.16	
2025-01-19 07:28:30.23	108.54	34.15	
2025-01-19 07:28:30.43	108.63	34.14	
2025-01-19 07:28:30.63	108.72	34.13	
2025-01-19 07:28:30.83	108.81	34.11	
2025-01-19 07:28:31.04	108.91	34.10	
2025-01-19 07:28:31.24	109.00	34.09	
2025-01-19 07:28:31.44	109.09	34.08	
2025-01-19 07:28:31.65	109.18	34.07	
2025-01-19 07:28:31.85	109.27	34.05	
2025-01-19 07:28:32.05	109.36	34.04	
2025-01-19 07:28:32.26	109.46	34.03	
2025-01-19 07:28:32.46	109.54	34.02	
2025-01-19 07:28:32.66	109.63	34.00	
2025-01-19 07:28:32.87	109.73	33.99	
2025-01-19 07:28:33.07	109.82	33.98	
2025-01-19 07:28:33.27	109.91	33.97	
2025-01-19 07:28:33.47	109.99	33.95	
2025-01-19 07:28:33.68	110.09	33.94	
2025-01-19 07:28:33.88	110.18	33.93	
2025-01-19 07:28:34.08	110.27	33.91	
2025-01-19 07:28:34.29	110.36	33.90	
2025-01-19 07:28:34.49	110.45	33.89	
2025-01-19 07:28:34.69	110.54	33.87	
2025-01-19 07:28:34.90	110.63	33.86	
2025-01-19 07:28:35.10	110.72	33.85	
2025-01-19 07:28:35.30	110.81	33.83	
2025-01-19 07:28:35.51	110.90	33.82	
2025-01-19 07:28:35.71	110.99	33.81	
2025-01-19 07:28:35.91	111.08	33.79	
2025-01-19 07:28:36.11	111.16	33.78	
2025-01-19 07:28:36.32	111.26	33.76	
2025-01-19 07:28:36.52	111.34	33.75	
2025-01-19 07:28:36.72	111.43	33.74	
2025-01-19 07:28:36.93	111.52	33.72	
2025-01-19 07:28:37.13	111.61	33.71	
2025-01-19 07:28:37.33	111.70	33.69	
2025-01-19 07:28:37.54	111.79	33.68	
2025-01-19 07:28:37.74	111.88	33.66	
2025-01-19 07:28:37.94	111.97	33.65	
2025-01-19 07:28:38.15	112.06	33.64	
2025-01-19 07:28:38.35	112.15	33.62	
2025-01-19 07:28:38.55	112.23	33.61	
2025-01-19 07:28:38.75	112.32	33.59	
2025-01-19 07:28:38.96	112.41	33.58	
2025-01-19 07:28:39.16	112.50	33.56	
2025-01-19 07:28:39.36	112.58	33.55	
2025-01-19 07:28:39.57	112.68	33.53	
2025-01-19 07:28:39.77	112.76	33.52	
2025-01-19 07:28:39.97	112.85	33.50	
2025-01-19 07:28:40.18	112.94	33.49	
2025-01-19 07:28:40.38	113.03	33.47	
2025-01-19 07:28:40.58	113.11	33.46	
2025-01-19 07:28:40.79	113.20	33.44	
2025-01-19 07:28:40.99	113.29	33.43	
2025-01-19 07:28:41.19	113.38	33.41	
2025-01-19 07:28:41.39	113.46	33.39	
2025-01-19 07:28:41.60	113.55	33.38	
2025-01-19 07:28:41.80	113.64	33.36	
2025-01-19 07:28:42.00	113.72	33.35	
2025-01-19 07:28:42.21	113.81	33.33	
2025-01-19 07:28:42.41	113.90	33.32	
2025-01-19 07:28:42.61	113.98	33.30	
2025-01-19 07:28:42.82	114.07	33.28	
2025-01-19 07:28:43.02	114.16	33.27	
2025-01-19 07:28:43.22	114.25	33.25	
2025-01-19 07:28:43.43	114.33	33.24	
2025-01-19 07:28:43.63	114.42	33.22	
2025-01-19 07:28:43.83	114.50	33.20	
2025-01-19 07:28:44.03	114.59	33.19	
2025-01-19 07:28:44.24	114.68	33.17	
2025-01-19 07:28:44.44	114.76	33.15	
2025-01-19 07:28:44.64	114.85	33.14	
2025-01-19 07:28:44.85	114.94	33.12	
2025-01-19 07:28:45.05	115.02	33.10	
2025-01-19 07:28:45.25	115.11	33.09	
2025-01-19 07:28:45.46	115.19	33.07	
2025-01-19 07:28:45.66	115.28	33.05	
2025-01-19 07:28:45.86	115.36	33.04	
2025-01-19 07:28:46.07	115.45	33.02	
2025-01-19 07:28:46.27	115.54	33.00	
2025-01-19 07:28:46.47	115.62	32.99	
2025-01-19 07:28:46.67	115.70	32.97	
2025-01-19 07:28:46.88	115.79	32.95	
2025-01-19 07:28:47.08	115.87	32.93	
2025-01-19 07:28:47.28	115.96	32.92	
2025-01-19 07:28:47.49	116.05	32.90	
2025-01-19 07:28:47.69	116.13	32.88	
2025-01-19 07:28:47.89	116.21	32.86	
2025-01-19 07:28:48.10	116.30	32.85	
2025-01-19 07:28:48.30	116.38	32.83	
2025-01-19 07:28:48.50	116.47	32.81	
2025-01-19 07:28:48.71	116.55	32.79	
2025-01-19 07:28:48.91	116.64	32.78	
2025-01-19 07:28:49.11	116.72	32.76	
2025-01-19 07:28:49.31	116.80	32.74	
2025-01-19 07:28:49.52	116.89	32.72	
2025-01-19 07:28:49.72	116.97	32.71	
2025-01-19 07:28:49.92	117.05	32.69	
2025-01-19 07:28:50.13	117.14	32.67	
2025-01-19 07:28:50.33	117.22	32.65	
2025-01-19 07:28:50.53	117.30	32.63	
2025-01-19 07:28:50.74	117.39	32.61	
2025-01-19 07:28:50.94	117.47	32.60	
2025-01-19 07:28:51.14	117.55	32.58	
2025-01-19 07:28:51.35	117.64	32.56	
2025-01-19 07:28:51.55	117.72	32.54	
2025-01-19 07:28:51.75	117.80	32.52	
2025-01-19 07:28:51.95	117.88	32.50	
2025-01-19 07:28:52.16	117.97	32.49	
2025-01-19 07:28:52.36	118.05	32.47	
2025-01-19 07:28:52.56	118.13	32.45	
2025-01-19 07:28:52.77	118.22	32.43	
2025-01-19 07:28:52.97	118.30	32.41	
2025-01-19 07:28:53.17	118.38	32.39	
2025-01-19 07:28:53.38	118.46	32.37	
2025-01-19 07:28:53.58	118.54	32.35	
2025-01-19 07:28:53.78	118.62	32.34	
2025-01-19 07:28:53.99	118.71	32.32	
2025-01-19 07:28:54.19	118.79	32.30	
2025-01-19 07:28:54.39	118.87	32.28	
2025-01-19 07:28:54.59	118.95	32.26	
2025-01-19 07:28:54.80	119.03	32.24	
2025-01-19 07:28:55.00	119.11	32.22	
2025-01-19 07:28:55.20	119.19	32.20	
2025-01-19 07:28:55.41	119.28	32.18	
2025-01-19 07:28:55.61	119.36	32.16	
2025-01-19 07:28:55.81	119.44	32.14	
2025-01-19 07:28:56.02	119.52	32.12	
2025-01-19 07:28:56.22	119.60	32.10	
2025-01-19 07:28:56.42	119.68	32.08	
2025-01-19 07:28:56.63	119.76	32.06	
2025-01-19 07:28:56.83	119.84	32.04	
2025-01-19 07:28:57.03	119.92	32.02	
2025-01-19 07:28:57.23	120.00	32.01	
2025-01-19 07:28:57.44	120.08	31.98	
2025-01-19 07:28:57.64	120.16	31.97	
2025-01-19 07:28:57.84	120.24	31.95	
2025-01-19 07:28:58.05	120.32	31.93	
2025-01-19 07:28:58.25	120.40	31.91	
2025-01-19 07:28:58.45	120.48	31.89	
2025-01-19 07:28:58.66	120.56	31.86	
2025-01-19 07:28:58.86	120.64	31.84	
2025-01-19 07:28:59.06	120.72	31.83	
2025-01-19 07:28:59.27	120.80	31.80	
2025-01-19 07:28:59.47	120.88	31.78	
2025-01-19 07:28:59.67	120.95	31.76	
2025-01-19 07:28:59.87	121.03	31.74	
2025-01-19 07:29:00.08	121.11	31.72	
2025-01-19 07:29:00.28	121.19	31.70	
2025-01-19 07:29:00.48	121.27	31.68	
2025-01-19 07:29:00.69	121.35	31.66	
2025-01-19 07:29:00.89	121.43	31.64	
2025-01-19 07:29:01.09	121.50	31.62	
2025-01-19 07:29:01.30	121.58	31.60	
2025-01-19 07:29:01.50	121.66	31.58	
2025-01-19 07:29:01.70	121.74	31.56	
2025-01-19 07:29:01.91	121.82	31.54	
2025-01-19 07:29:02.11	121.89	31.52	
2025-01-19 07:29:02.31	121.97	31.50	
2025-01-19 07:29:02.52	122.05	31.47	
2025-01-19 07:29:02.72	122.13	31.45	
2025-01-19 07:29:02.92	122.20	31.43	
2025-01-19 07:29:03.12	122.28	31.41	
2025-01-19 07:29:03.33	122.36	31.39	
2025-01-19 07:29:03.53	122.44	31.37	
2025-01-19 07:29:03.73	122.51	31.35	
2025-01-19 07:29:03.94	122.59	31.33	
2025-01-19 07:29:04.14	122.67	31.31	
2025-01-19 07:29:04.34	122.74	31.29	
2025-01-19 07:29:04.55	122.82	31.26	
2025-01-19 07:29:04.75	122.90	31.24	
2025-01-19 07:29:04.95	122.97	31.22	
2025-01-19 07:29:05.16	123.05	31.20	
2025-01-19 07:29:05.36	123.12	31.18	
2025-01-19 07:29:05.56	123.20	31.16	
2025-01-19 07:29:05.76	123.27	31.14	
2025-01-19 07:29:05.97	123.35	31.11	
2025-01-19 07:29:06.17	123.43	31.09	
2025-01-19 07:29:06.37	123.50	31.07	
2025-01-19 07:29:06.58	123.58	31.05	
2025-01-19 07:29:06.78	123.65	31.03	
