passes_logs/2025/01/19/SPB_Silybum_02/SPB_Silybum_02__20250119_123257_AQUA_rec.log

#Pass ID: 20250119_123257_AQUA
#Satellite: AQUA
#Configuration: AQUA
#Start time: 2025-01-19 12:32:58

#Version: 2.0.20230423
#Station: SPB_Silybum_02
#Location: 30.233357 lon 59.946436 lat
#TLE: 1 27424U 02022A   25018.83604057  .00002232  00000+0  46784-3 0  9994
#TLE: 2 27424  98.3597 335.5348 0001881 107.7354 281.6526 14.60700248208189

#Time	Az	El	Level	Level2	SNR	BER	Gain	Gain2
2025-01-19 12:33:00.41	197.40	4.20	
2025-01-19 12:33:00.61	197.41	4.21	
2025-01-19 12:33:00.81	197.43	4.22	
2025-01-19 12:33:01.02	197.44	4.24	
2025-01-19 12:33:01.22	197.45	4.25	
2025-01-19 12:33:01.42	197.47	4.26	
2025-01-19 12:33:01.63	197.48	4.28	
2025-01-19 12:33:01.83	197.50	4.29	
2025-01-19 12:33:02.03	197.51	4.30	
2025-01-19 12:33:02.24	197.53	4.32	
2025-01-19 12:33:02.44	197.54	4.33	
2025-01-19 12:33:02.64	197.55	4.34	
2025-01-19 12:33:02.84	197.57	4.36	
2025-01-19 12:33:03.05	197.58	4.37	
2025-01-19 12:33:03.25	197.60	4.38	
2025-01-19 12:33:03.45	197.61	4.40	
2025-01-19 12:33:03.66	197.63	4.41	
2025-01-19 12:33:03.86	197.64	4.42	
2025-01-19 12:33:04.06	197.65	4.44	
2025-01-19 12:33:04.27	197.67	4.45	
2025-01-19 12:33:04.47	197.68	4.46	
2025-01-19 12:33:04.67	197.70	4.48	
2025-01-19 12:33:04.88	197.71	4.49	
2025-01-19 12:33:05.08	197.73	4.51	
2025-01-19 12:33:05.28	197.74	4.52	
2025-01-19 12:33:05.49	197.76	4.53	
2025-01-19 12:33:05.69	197.77	4.55	
2025-01-19 12:33:05.89	197.78	4.56	
2025-01-19 12:33:06.10	197.80	4.57	
2025-01-19 12:33:06.30	197.81	4.59	
2025-01-19 12:33:06.50	197.83	4.60	
2025-01-19 12:33:06.70	197.84	4.61	
2025-01-19 12:33:06.91	197.86	4.63	
2025-01-19 12:33:07.11	197.87	4.64	
2025-01-19 12:33:07.31	197.89	4.65	
2025-01-19 12:33:07.52	197.90	4.67	
2025-01-19 12:33:07.72	197.92	4.68	
2025-01-19 12:33:07.92	197.93	4.70	
2025-01-19 12:33:08.13	197.95	4.71	
2025-01-19 12:33:08.33	197.96	4.72	
2025-01-19 12:33:08.53	197.97	4.74	
2025-01-19 12:33:08.74	197.99	4.75	
2025-01-19 12:33:08.94	198.00	4.76	
2025-01-19 12:33:09.14	198.02	4.78	
2025-01-19 12:33:09.35	198.03	4.79	
2025-01-19 12:33:09.55	198.05	4.81	
2025-01-19 12:33:09.75	198.06	4.82	
2025-01-19 12:33:09.95	198.08	4.83	
2025-01-19 12:33:10.16	198.09	4.85	
2025-01-19 12:33:10.36	198.11	4.86	
2025-01-19 12:33:10.56	198.12	4.87	
2025-01-19 12:33:10.77	198.14	4.89	
2025-01-19 12:33:10.97	198.15	4.90	
2025-01-19 12:33:11.17	198.17	4.91	
2025-01-19 12:33:11.38	198.18	4.93	
2025-01-19 12:33:11.58	198.20	4.94	
2025-01-19 12:33:11.78	198.21	4.96	
2025-01-19 12:33:11.99	198.23	4.97	
2025-01-19 12:33:12.19	198.24	4.98	
2025-01-19 12:33:12.39	198.26	5.00	
2025-01-19 12:33:12.60	198.27	5.01	
2025-01-19 12:33:12.80	198.29	5.03	
2025-01-19 12:33:13.00	198.30	5.04	
2025-01-19 12:33:13.20	198.32	5.05	
2025-01-19 12:33:13.41	198.33	5.07	
2025-01-19 12:33:13.61	198.35	5.08	
2025-01-19 12:33:13.81	198.36	5.09	
2025-01-19 12:33:14.02	198.38	5.11	
2025-01-19 12:33:14.22	198.39	5.12	
2025-01-19 12:33:14.42	198.41	5.14	
2025-01-19 12:33:14.63	198.42	5.15	
2025-01-19 12:33:14.83	198.44	5.16	
2025-01-19 12:33:15.03	198.45	5.18	
2025-01-19 12:33:15.24	198.47	5.19	
2025-01-19 12:33:15.44	198.48	5.21	
2025-01-19 12:33:15.64	198.50	5.22	
2025-01-19 12:33:15.85	198.51	5.23	
2025-01-19 12:33:16.05	198.53	5.25	
2025-01-19 12:33:16.25	198.54	5.26	
2025-01-19 12:33:16.45	198.56	5.27	
2025-01-19 12:33:16.66	198.57	5.29	
2025-01-19 12:33:16.86	198.59	5.30	
2025-01-19 12:33:17.06	198.60	5.32	
2025-01-19 12:33:17.27	198.62	5.33	
2025-01-19 12:33:17.47	198.64	5.34	
2025-01-19 12:33:17.67	198.65	5.36	
2025-01-19 12:33:17.88	198.67	5.37	
2025-01-19 12:33:18.08	198.68	5.39	
2025-01-19 12:33:18.28	198.70	5.40	
2025-01-19 12:33:18.49	198.71	5.41	
2025-01-19 12:33:18.69	198.73	5.43	
2025-01-19 12:33:18.89	198.74	5.44	
2025-01-19 12:33:19.10	198.76	5.46	
2025-01-19 12:33:19.30	198.77	5.47	
2025-01-19 12:33:19.50	198.79	5.48	
2025-01-19 12:33:19.70	198.81	5.50	
2025-01-19 12:33:19.91	198.82	5.51	
2025-01-19 12:33:20.11	198.84	5.53	
2025-01-19 12:33:20.31	198.85	5.54	
2025-01-19 12:33:20.52	198.87	5.55	
2025-01-19 12:33:20.72	198.88	5.57	
2025-01-19 12:33:20.92	198.90	5.58	
2025-01-19 12:33:21.13	198.91	5.60	
2025-01-19 12:33:21.35	198.93	5.61	
2025-01-19 12:33:21.55	198.95	5.63	
2025-01-19 12:33:21.75	198.96	5.64	
2025-01-19 12:33:21.96	198.98	5.65	
2025-01-19 12:33:22.16	198.99	5.67	
2025-01-19 12:33:22.36	199.01	5.68	
2025-01-19 12:33:22.56	199.03	5.70	
2025-01-19 12:33:22.77	199.04	5.71	
2025-01-19 12:33:22.97	199.06	5.72	
2025-01-19 12:33:23.17	199.07	5.74	
2025-01-19 12:33:23.38	199.09	5.75	
2025-01-19 12:33:23.58	199.10	5.77	
2025-01-19 12:33:23.78	199.12	5.78	
2025-01-19 12:33:23.99	199.14	5.80	
2025-01-19 12:33:24.19	199.15	5.81	
2025-01-19 12:33:24.39	199.17	5.82	
2025-01-19 12:33:24.60	199.18	5.84	
2025-01-19 12:33:24.80	199.20	5.85	
2025-01-19 12:33:25.00	199.22	5.87	
2025-01-19 12:33:25.21	199.23	5.88	
2025-01-19 12:33:25.41	199.25	5.89	
2025-01-19 12:33:25.61	199.26	5.91	
2025-01-19 12:33:25.81	199.28	5.92	
2025-01-19 12:33:26.02	199.30	5.94	
2025-01-19 12:33:26.22	199.31	5.95	
2025-01-19 12:33:26.42	199.33	5.97	
2025-01-19 12:33:26.63	199.34	5.98	
2025-01-19 12:33:26.83	199.36	5.99	
2025-01-19 12:33:27.03	199.38	6.01	
2025-01-19 12:33:27.24	199.39	6.02	
2025-01-19 12:33:27.44	199.41	6.04	
2025-01-19 12:33:27.64	199.42	6.05	
2025-01-19 12:33:27.85	199.44	6.07	
2025-01-19 12:33:28.05	199.46	6.08	
2025-01-19 12:33:28.25	199.47	6.09	
2025-01-19 12:33:28.46	199.49	6.11	
2025-01-19 12:33:28.66	199.51	6.12	
2025-01-19 12:33:28.86	199.52	6.14	
2025-01-19 12:33:29.06	199.54	6.15	
2025-01-19 12:33:29.27	199.55	6.17	
2025-01-19 12:33:29.47	199.57	6.18	
2025-01-19 12:33:29.67	199.59	6.19	
2025-01-19 12:33:29.88	199.60	6.21	
2025-01-19 12:33:30.08	199.62	6.22	
2025-01-19 12:33:30.28	199.64	6.24	
2025-01-19 12:33:30.49	199.65	6.25	
2025-01-19 12:33:30.69	199.67	6.27	
2025-01-19 12:33:30.89	199.68	6.28	
2025-01-19 12:33:31.10	199.70	6.30	
2025-01-19 12:33:31.30	199.72	6.31	
2025-01-19 12:33:31.50	199.73	6.32	
2025-01-19 12:33:31.71	199.75	6.34	
2025-01-19 12:33:31.91	199.77	6.35	
2025-01-19 12:33:32.11	199.78	6.37	
2025-01-19 12:33:32.31	199.80	6.38	
2025-01-19 12:33:32.52	199.82	6.40	
2025-01-19 12:33:32.72	199.83	6.41	
2025-01-19 12:33:32.92	199.85	6.43	
2025-01-19 12:33:33.13	199.87	6.44	
2025-01-19 12:33:33.33	199.88	6.45	
2025-01-19 12:33:33.53	199.90	6.47	
2025-01-19 12:33:33.74	199.92	6.48	
2025-01-19 12:33:33.94	199.93	6.50	
2025-01-19 12:33:34.14	199.95	6.51	
2025-01-19 12:33:34.35	199.97	6.53	
2025-01-19 12:33:34.55	199.98	6.54	
2025-01-19 12:33:34.75	200.00	6.56	
2025-01-19 12:33:34.96	200.02	6.57	
2025-01-19 12:33:35.16	200.03	6.59	
2025-01-19 12:33:35.36	200.05	6.60	
2025-01-19 12:33:35.56	200.07	6.61	
2025-01-19 12:33:35.77	200.08	6.63	
2025-01-19 12:33:35.97	200.10	6.64	
2025-01-19 12:33:36.17	200.12	6.66	
2025-01-19 12:33:36.38	200.13	6.67	
2025-01-19 12:33:36.58	200.15	6.69	
2025-01-19 12:33:36.78	200.17	6.70	
2025-01-19 12:33:36.99	200.19	6.72	
2025-01-19 12:33:37.19	200.20	6.73	
2025-01-19 12:33:37.39	200.22	6.75	
2025-01-19 12:33:37.60	200.24	6.76	
2025-01-19 12:33:37.80	200.25	6.78	
2025-01-19 12:33:38.00	200.27	6.79	
2025-01-19 12:33:38.21	200.29	6.80	
2025-01-19 12:33:38.41	200.30	6.82	
2025-01-19 12:33:38.61	200.32	6.83	
2025-01-19 12:33:38.81	200.34	6.85	
2025-01-19 12:33:39.02	200.36	6.86	
2025-01-19 12:33:39.22	200.37	6.88	
2025-01-19 12:33:39.42	200.39	6.89	
2025-01-19 12:33:39.63	200.41	6.91	
2025-01-19 12:33:39.83	200.42	6.92	
2025-01-19 12:33:40.03	200.44	6.94	
2025-01-19 12:33:40.24	200.46	6.95	
2025-01-19 12:33:40.44	200.48	6.97	
2025-01-19 12:33:40.64	200.49	6.98	
2025-01-19 12:33:40.85	200.51	7.00	
2025-01-19 12:33:41.05	200.53	7.01	
2025-01-19 12:33:41.25	200.54	7.02	
2025-01-19 12:33:41.46	200.56	7.04	
2025-01-19 12:33:41.66	200.58	7.05	
2025-01-19 12:33:41.86	200.60	7.07	
2025-01-19 12:33:42.07	200.61	7.08	
2025-01-19 12:33:42.27	200.63	7.10	
2025-01-19 12:33:42.47	200.65	7.11	
2025-01-19 12:33:42.67	200.67	7.13	
2025-01-19 12:33:42.88	200.68	7.14	
2025-01-19 12:33:43.08	200.70	7.16	
2025-01-19 12:33:43.28	200.72	7.17	
2025-01-19 12:33:43.49	200.74	7.19	
2025-01-19 12:33:43.69	200.75	7.20	
2025-01-19 12:33:43.89	200.77	7.22	
2025-01-19 12:33:44.10	200.79	7.23	
2025-01-19 12:33:44.30	200.81	7.25	
2025-01-19 12:33:44.50	200.82	7.26	
2025-01-19 12:33:44.71	200.84	7.28	
2025-01-19 12:33:44.91	200.86	7.29	
2025-01-19 12:33:45.11	200.88	7.31	
2025-01-19 12:33:45.32	200.89	7.32	
2025-01-19 12:33:45.52	200.91	7.34	
2025-01-19 12:33:45.72	200.93	7.35	
2025-01-19 12:33:45.92	200.95	7.37	
2025-01-19 12:33:46.13	200.97	7.38	
2025-01-19 12:33:46.33	200.98	7.40	
2025-01-19 12:33:46.53	201.00	7.41	
2025-01-19 12:33:46.74	201.02	7.43	
2025-01-19 12:33:46.94	201.04	7.44	
2025-01-19 12:33:47.14	201.05	7.46	
2025-01-19 12:33:47.35	201.07	7.47	
2025-01-19 12:33:47.55	201.09	7.49	
2025-01-19 12:33:47.75	201.11	7.50	
2025-01-19 12:33:47.96	201.13	7.52	
2025-01-19 12:33:48.16	201.14	7.53	
2025-01-19 12:33:48.36	201.16	7.55	
2025-01-19 12:33:48.57	201.18	7.56	
2025-01-19 12:33:48.77	201.20	7.58	
2025-01-19 12:33:48.97	201.22	7.59	
2025-01-19 12:33:49.17	201.23	7.61	
2025-01-19 12:33:49.38	201.25	7.62	
2025-01-19 12:33:49.58	201.27	7.64	
2025-01-19 12:33:49.78	201.29	7.65	
2025-01-19 12:33:49.99	201.31	7.67	
2025-01-19 12:33:50.19	201.32	7.68	
2025-01-19 12:33:50.39	201.34	7.70	
2025-01-19 12:33:50.60	201.36	7.71	
2025-01-19 12:33:50.80	201.38	7.73	
2025-01-19 12:33:51.00	201.40	7.74	
2025-01-19 12:33:51.21	201.42	7.76	
2025-01-19 12:33:51.41	201.43	7.77	
2025-01-19 12:33:51.61	201.45	7.79	
2025-01-19 12:33:51.82	201.47	7.80	
2025-01-19 12:33:52.02	201.49	7.82	
2025-01-19 12:33:52.22	201.51	7.83	
2025-01-19 12:33:52.42	201.52	7.85	
2025-01-19 12:33:52.63	201.54	7.86	
2025-01-19 12:33:52.83	201.56	7.88	
2025-01-19 12:33:53.03	201.58	7.89	
2025-01-19 12:33:53.24	201.60	7.91	
2025-01-19 12:33:53.44	201.62	7.93	
2025-01-19 12:33:53.64	201.64	7.94	
2025-01-19 12:33:53.85	201.65	7.96	
2025-01-19 12:33:54.05	201.67	7.97	
2025-01-19 12:33:54.25	201.69	7.99	
2025-01-19 12:33:54.46	201.71	8.00	
2025-01-19 12:33:54.66	201.73	8.02	
2025-01-19 12:33:54.86	201.75	8.03	
2025-01-19 12:33:55.07	201.77	8.05	
2025-01-19 12:33:55.27	201.78	8.06	
2025-01-19 12:33:55.47	201.80	8.08	
2025-01-19 12:33:55.67	201.82	8.09	
2025-01-19 12:33:55.88	201.84	8.11	
2025-01-19 12:33:56.08	201.86	8.12	
2025-01-19 12:33:56.28	201.88	8.14	
2025-01-19 12:33:56.49	201.90	8.16	
2025-01-19 12:33:56.69	201.91	8.17	
2025-01-19 12:33:56.89	201.93	8.19	
2025-01-19 12:33:57.10	201.95	8.20	
2025-01-19 12:33:57.30	201.97	8.22	
2025-01-19 12:33:57.50	201.99	8.23	
2025-01-19 12:33:57.71	202.01	8.25	
2025-01-19 12:33:57.91	202.03	8.26	
2025-01-19 12:33:58.11	202.05	8.28	
2025-01-19 12:33:58.32	202.07	8.29	
2025-01-19 12:33:58.52	202.08	8.31	
2025-01-19 12:33:58.72	202.10	8.32	
2025-01-19 12:33:58.93	202.12	8.34	
2025-01-19 12:33:59.13	202.14	8.36	
2025-01-19 12:33:59.33	202.16	8.37	
2025-01-19 12:33:59.53	202.18	8.39	
2025-01-19 12:33:59.74	202.20	8.40	
2025-01-19 12:33:59.94	202.22	8.42	
2025-01-19 12:34:00.14	202.24	8.43	
2025-01-19 12:34:00.35	202.26	8.45	
2025-01-19 12:34:00.55	202.28	8.46	
2025-01-19 12:34:00.75	202.29	8.48	
2025-01-19 12:34:00.96	202.31	8.50	
2025-01-19 12:34:01.16	202.33	8.51	
2025-01-19 12:34:01.36	202.35	8.53	
2025-01-19 12:34:01.57	202.37	8.54	
2025-01-19 12:34:01.77	202.39	8.56	
2025-01-19 12:34:01.97	202.41	8.57	
2025-01-19 12:34:02.18	202.43	8.59	
2025-01-19 12:34:02.38	202.45	8.60	
2025-01-19 12:34:02.58	202.47	8.62	
2025-01-19 12:34:02.78	202.49	8.63	
2025-01-19 12:34:02.99	202.51	8.65	
2025-01-19 12:34:03.19	202.53	8.67	
2025-01-19 12:34:03.39	202.55	8.68	
2025-01-19 12:34:03.60	202.57	8.70	
2025-01-19 12:34:03.80	202.59	8.71	
2025-01-19 12:34:04.00	202.60	8.73	
2025-01-19 12:34:04.21	202.62	8.74	
2025-01-19 12:34:04.41	202.64	8.76	
2025-01-19 12:34:04.61	202.66	8.78	
2025-01-19 12:34:04.82	202.68	8.79	
2025-01-19 12:34:05.02	202.70	8.81	
2025-01-19 12:34:05.22	202.72	8.82	
2025-01-19 12:34:05.43	202.74	8.84	
2025-01-19 12:34:05.63	202.76	8.85	
2025-01-19 12:34:05.83	202.78	8.87	
2025-01-19 12:34:06.03	202.80	8.89	
2025-01-19 12:34:06.24	202.82	8.90	
2025-01-19 12:34:06.44	202.84	8.92	
2025-01-19 12:34:06.64	202.86	8.93	
2025-01-19 12:34:06.85	202.88	8.95	
2025-01-19 12:34:07.05	202.90	8.96	
2025-01-19 12:34:07.25	202.92	8.98	
2025-01-19 12:34:07.46	202.94	9.00	
2025-01-19 12:34:07.66	202.96	9.01	
2025-01-19 12:34:07.86	202.98	9.03	
2025-01-19 12:34:08.07	203.00	9.04	
2025-01-19 12:34:08.27	203.02	9.06	
2025-01-19 12:34:08.47	203.04	9.07	
2025-01-19 12:34:08.68	203.06	9.09	
2025-01-19 12:34:08.88	203.08	9.11	
2025-01-19 12:34:09.08	203.10	9.12	
2025-01-19 12:34:09.28	203.12	9.14	
2025-01-19 12:34:09.49	203.14	9.15	
2025-01-19 12:34:09.69	203.16	9.17	
2025-01-19 12:34:09.89	203.18	9.19	
2025-01-19 12:34:10.10	203.20	9.20	
2025-01-19 12:34:10.30	203.22	9.22	
2025-01-19 12:34:10.50	203.24	9.23	
2025-01-19 12:34:10.71	203.26	9.25	
2025-01-19 12:34:10.91	203.28	9.27	
2025-01-19 12:34:11.11	203.30	9.28	
2025-01-19 12:34:11.32	203.32	9.30	
2025-01-19 12:34:11.52	203.34	9.31	
2025-01-19 12:34:11.72	203.36	9.33	
2025-01-19 12:34:11.93	203.38	9.35	
2025-01-19 12:34:12.13	203.40	9.36	
2025-01-19 12:34:12.33	203.42	9.38	
2025-01-19 12:34:12.53	203.44	9.39	
2025-01-19 12:34:12.74	203.47	9.41	
2025-01-19 12:34:12.94	203.49	9.43	
2025-01-19 12:34:13.14	203.51	9.44	
2025-01-19 12:34:13.35	203.53	9.46	
2025-01-19 12:34:13.55	203.55	9.47	
2025-01-19 12:34:13.75	203.57	9.49	
2025-01-19 12:34:13.96	203.59	9.51	
2025-01-19 12:34:14.16	203.61	9.52	
2025-01-19 12:34:14.36	203.63	9.54	
2025-01-19 12:34:14.57	203.65	9.55	
2025-01-19 12:34:14.77	203.67	9.57	
2025-01-19 12:34:14.97	203.69	9.59	
2025-01-19 12:34:15.18	203.71	9.60	
2025-01-19 12:34:15.38	203.73	9.62	
2025-01-19 12:34:15.58	203.76	9.63	
2025-01-19 12:34:15.78	203.78	9.65	
2025-01-19 12:34:15.99	203.80	9.67	
2025-01-19 12:34:16.19	203.82	9.68	
2025-01-19 12:34:16.39	203.84	9.70	
2025-01-19 12:34:16.60	203.86	9.72	
2025-01-19 12:34:16.80	203.88	9.73	
2025-01-19 12:34:17.00	203.90	9.75	
2025-01-19 12:34:17.21	203.92	9.76	
2025-01-19 12:34:17.41	203.94	9.78	
2025-01-19 12:34:17.61	203.96	9.80	
2025-01-19 12:34:17.82	203.99	9.81	
2025-01-19 12:34:18.02	204.01	9.83	
2025-01-19 12:34:18.22	204.03	9.84	
2025-01-19 12:34:18.43	204.05	9.86	
2025-01-19 12:34:18.63	204.07	9.88	
2025-01-19 12:34:18.83	204.09	9.89	
2025-01-19 12:34:19.04	204.11	9.91	
2025-01-19 12:34:19.24	204.13	9.93	
2025-01-19 12:34:19.44	204.16	9.94	
2025-01-19 12:34:19.64	204.18	9.96	
2025-01-19 12:34:19.85	204.20	9.98	
2025-01-19 12:34:20.05	204.22	9.99	
2025-01-19 12:34:20.25	204.24	10.01	
2025-01-19 12:34:20.46	204.26	10.02	
2025-01-19 12:34:20.66	204.28	10.04	
2025-01-19 12:34:20.86	204.31	10.06	
2025-01-19 12:34:21.07	204.33	10.07	
2025-01-19 12:34:21.27	204.35	10.09	
2025-01-19 12:34:21.47	204.37	10.11	
2025-01-19 12:34:21.68	204.39	10.12	
2025-01-19 12:34:21.88	204.41	10.14	
2025-01-19 12:34:22.08	204.43	10.16	
2025-01-19 12:34:22.29	204.46	10.17	
2025-01-19 12:34:22.49	204.48	10.19	
2025-01-19 12:34:22.69	204.50	10.20	
2025-01-19 12:34:22.89	204.52	10.22	
2025-01-19 12:34:23.10	204.54	10.24	
2025-01-19 12:34:23.30	204.57	10.25	
2025-01-19 12:34:23.50	204.59	10.27	
2025-01-19 12:34:23.71	204.61	10.29	
2025-01-19 12:34:23.91	204.63	10.30	
2025-01-19 12:34:24.11	204.65	10.32	
2025-01-19 12:34:24.32	204.67	10.34	
2025-01-19 12:34:24.52	204.70	10.35	
2025-01-19 12:34:24.72	204.72	10.37	
2025-01-19 12:34:24.93	204.74	10.39	
2025-01-19 12:34:25.13	204.76	10.40	
2025-01-19 12:34:25.33	204.78	10.42	
2025-01-19 12:34:25.54	204.81	10.44	
2025-01-19 12:34:25.74	204.83	10.45	
2025-01-19 12:34:25.94	204.85	10.47	
2025-01-19 12:34:26.14	204.87	10.49	
2025-01-19 12:34:26.35	204.90	10.50	
2025-01-19 12:34:26.55	204.92	10.52	
2025-01-19 12:34:26.75	204.94	10.53	
2025-01-19 12:34:26.96	204.96	10.55	
2025-01-19 12:34:27.16	204.98	10.57	
2025-01-19 12:34:27.36	205.01	10.58	
2025-01-19 12:34:27.57	205.03	10.60	
2025-01-19 12:34:27.77	205.05	10.62	
2025-01-19 12:34:27.97	205.07	10.63	
2025-01-19 12:34:28.18	205.10	10.65	
2025-01-19 12:34:28.38	205.12	10.67	
2025-01-19 12:34:28.58	205.14	10.68	
2025-01-19 12:34:28.79	205.16	10.70	
2025-01-19 12:34:28.99	205.19	10.72	
2025-01-19 12:34:29.19	205.21	10.74	
2025-01-19 12:34:29.39	205.23	10.75	
2025-01-19 12:34:29.60	205.25	10.77	
2025-01-19 12:34:29.80	205.28	10.79	
2025-01-19 12:34:30.00	205.30	10.80	
2025-01-19 12:34:30.21	205.32	10.82	
2025-01-19 12:34:30.41	205.34	10.84	
2025-01-19 12:34:30.61	205.37	10.85	
2025-01-19 12:34:30.82	205.39	10.87	
2025-01-19 12:34:31.02	205.41	10.89	
2025-01-19 12:34:31.22	205.43	10.90	
2025-01-19 12:34:31.43	205.46	10.92	
2025-01-19 12:34:31.63	205.48	10.94	
2025-01-19 12:34:31.83	205.50	10.95	
2025-01-19 12:34:32.04	205.53	10.97	
2025-01-19 12:34:32.24	205.55	10.99	
2025-01-19 12:34:32.44	205.57	11.00	
2025-01-19 12:34:32.64	205.59	11.02	
2025-01-19 12:34:32.85	205.62	11.04	
2025-01-19 12:34:33.05	205.64	11.05	
2025-01-19 12:34:33.25	205.66	11.07	
2025-01-19 12:34:33.46	205.69	11.09	
2025-01-19 12:34:33.66	205.71	11.11	
2025-01-19 12:34:33.86	205.73	11.12	
2025-01-19 12:34:34.07	205.76	11.14	
2025-01-19 12:34:34.27	205.78	11.16	
2025-01-19 12:34:34.47	205.80	11.17	
2025-01-19 12:34:34.68	205.83	11.19	
2025-01-19 12:34:34.88	205.85	11.21	
2025-01-19 12:34:35.08	205.87	11.22	
2025-01-19 12:34:35.29	205.90	11.24	
2025-01-19 12:34:35.49	205.92	11.26	
2025-01-19 12:34:35.69	205.94	11.27	
2025-01-19 12:34:35.90	205.97	11.29	
2025-01-19 12:34:36.10	205.99	11.31	
2025-01-19 12:34:36.30	206.01	11.33	
2025-01-19 12:34:36.50	206.04	11.34	
2025-01-19 12:34:36.71	206.06	11.36	
2025-01-19 12:34:36.91	206.08	11.38	
2025-01-19 12:34:37.11	206.11	11.39	
2025-01-19 12:34:37.32	206.13	11.41	
2025-01-19 12:34:37.52	206.16	11.43	
2025-01-19 12:34:37.72	206.18	11.45	
2025-01-19 12:34:37.93	206.20	11.46	
2025-01-19 12:34:38.13	206.23	11.48	
2025-01-19 12:34:38.33	206.25	11.50	
2025-01-19 12:34:38.54	206.27	11.51	
2025-01-19 12:34:38.74	206.30	11.53	
2025-01-19 12:34:38.94	206.32	11.55	
2025-01-19 12:34:39.15	206.35	11.57	
2025-01-19 12:34:39.35	206.37	11.58	
2025-01-19 12:34:39.55	206.39	11.60	
2025-01-19 12:34:39.75	206.42	11.62	
2025-01-19 12:34:39.96	206.44	11.63	
2025-01-19 12:34:40.16	206.47	11.65	
2025-01-19 12:34:40.36	206.49	11.67	
2025-01-19 12:34:40.57	206.51	11.69	
2025-01-19 12:34:40.77	206.54	11.70	
2025-01-19 12:34:40.97	206.56	11.72	
2025-01-19 12:34:41.18	206.59	11.74	
2025-01-19 12:34:41.38	206.61	11.76	
2025-01-19 12:34:41.58	206.63	11.77	
2025-01-19 12:34:41.79	206.66	11.79	
2025-01-19 12:34:41.99	206.68	11.81	
2025-01-19 12:34:42.19	206.71	11.82	
2025-01-19 12:34:42.40	206.73	11.84	
2025-01-19 12:34:42.60	206.76	11.86	
2025-01-19 12:34:42.80	206.78	11.88	
2025-01-19 12:34:43.00	206.80	11.89	
2025-01-19 12:34:43.21	206.83	11.91	
2025-01-19 12:34:43.41	206.85	11.93	
2025-01-19 12:34:43.61	206.88	11.95	
2025-01-19 12:34:43.82	206.90	11.96	
2025-01-19 12:34:44.02	206.93	11.98	
2025-01-19 12:34:44.22	206.95	12.00	
2025-01-19 12:34:44.43	206.98	12.02	
2025-01-19 12:34:44.63	207.00	12.03	
2025-01-19 12:34:44.83	207.03	12.05	
2025-01-19 12:34:45.04	207.05	12.07	
2025-01-19 12:34:45.24	207.08	12.08	
2025-01-19 12:34:45.44	207.10	12.10	
2025-01-19 12:34:45.65	207.13	12.12	
2025-01-19 12:34:45.85	207.15	12.14	
2025-01-19 12:34:46.05	207.18	12.15	
2025-01-19 12:34:46.25	207.20	12.17	
2025-01-19 12:34:46.46	207.23	12.19	
2025-01-19 12:34:46.66	207.25	12.21	
2025-01-19 12:34:46.86	207.28	12.22	
2025-01-19 12:34:47.07	207.30	12.24	
2025-01-19 12:34:47.27	207.33	12.26	
2025-01-19 12:34:47.47	207.35	12.28	
2025-01-19 12:34:47.68	207.38	12.30	
2025-01-19 12:34:47.88	207.40	12.31	
2025-01-19 12:34:48.08	207.43	12.33	
2025-01-19 12:34:48.29	207.45	12.35	
2025-01-19 12:34:48.49	207.48	12.37	
2025-01-19 12:34:48.69	207.50	12.38	
2025-01-19 12:34:48.90	207.53	12.40	
2025-01-19 12:34:49.10	207.55	12.42	
2025-01-19 12:34:49.30	207.58	12.44	
2025-01-19 12:34:49.50	207.60	12.45	
2025-01-19 12:34:49.71	207.63	12.47	
2025-01-19 12:34:49.91	207.65	12.49	
2025-01-19 12:34:50.11	207.68	12.51	
2025-01-19 12:34:50.32	207.71	12.52	
2025-01-19 12:34:50.52	207.73	12.54	
2025-01-19 12:34:50.72	207.76	12.56	
2025-01-19 12:34:50.93	207.78	12.58	
2025-01-19 12:34:51.13	207.81	12.59	
2025-01-19 12:34:51.33	207.83	12.61	
2025-01-19 12:34:51.54	207.86	12.63	
2025-01-19 12:34:51.74	207.89	12.65	
2025-01-19 12:34:51.94	207.91	12.67	
2025-01-19 12:34:52.15	207.94	12.68	
2025-01-19 12:34:52.35	207.96	12.70	
2025-01-19 12:34:52.55	207.99	12.72	
2025-01-19 12:34:52.75	208.01	12.74	
2025-01-19 12:34:52.96	208.04	12.75	
2025-01-19 12:34:53.16	208.07	12.77	
2025-01-19 12:34:53.36	208.09	12.79	
2025-01-19 12:34:53.57	208.12	12.81	
2025-01-19 12:34:53.77	208.15	12.83	
2025-01-19 12:34:53.97	208.17	12.84	
2025-01-19 12:34:54.18	208.20	12.86	
2025-01-19 12:34:54.38	208.22	12.88	
2025-01-19 12:34:54.58	208.25	12.90	
2025-01-19 12:34:54.79	208.28	12.92	
2025-01-19 12:34:54.99	208.30	12.93	
2025-01-19 12:34:55.19	208.33	12.95	
2025-01-19 12:34:55.40	208.36	12.97	
2025-01-19 12:34:55.60	208.38	12.99	
2025-01-19 12:34:55.80	208.41	13.00	
2025-01-19 12:34:56.01	208.44	13.02	
2025-01-19 12:34:56.21	208.46	13.04	
2025-01-19 12:34:56.41	208.49	13.06	
2025-01-19 12:34:56.61	208.51	13.08	
2025-01-19 12:34:56.82	208.54	13.09	
2025-01-19 12:34:57.02	208.57	13.11	
2025-01-19 12:34:57.22	208.59	13.13	
2025-01-19 12:34:57.43	208.62	13.15	
2025-01-19 12:34:57.63	208.65	13.17	
2025-01-19 12:34:57.83	208.67	13.18	
2025-01-19 12:34:58.04	208.70	13.20	
2025-01-19 12:34:58.24	208.73	13.22	
2025-01-19 12:34:58.44	208.75	13.24	
2025-01-19 12:34:58.65	208.78	13.26	
2025-01-19 12:34:58.85	208.81	13.27	
2025-01-19 12:34:59.05	208.84	13.29	
2025-01-19 12:34:59.26	208.86	13.31	
2025-01-19 12:34:59.46	208.89	13.33	
2025-01-19 12:34:59.66	208.92	13.35	
2025-01-19 12:34:59.86	208.94	13.36	
2025-01-19 12:35:00.07	208.97	13.38	
2025-01-19 12:35:00.27	209.00	13.40	
2025-01-19 12:35:00.47	209.03	13.42	
2025-01-19 12:35:00.68	209.05	13.44	
2025-01-19 12:35:00.88	209.08	13.46	
2025-01-19 12:35:01.08	209.11	13.47	
2025-01-19 12:35:01.29	209.14	13.49	
2025-01-19 12:35:01.49	209.16	13.51	
2025-01-19 12:35:01.69	209.19	13.53	
2025-01-19 12:35:01.90	209.22	13.55	
2025-01-19 12:35:02.10	209.24	13.57	
2025-01-19 12:35:02.30	209.27	13.58	
2025-01-19 12:35:02.51	209.30	13.60	
2025-01-19 12:35:02.71	209.33	13.62	
2025-01-19 12:35:02.91	209.35	13.64	
2025-01-19 12:35:03.11	209.38	13.66	
2025-01-19 12:35:03.32	209.41	13.67	
2025-01-19 12:35:03.52	209.44	13.69	
2025-01-19 12:35:03.72	209.47	13.71	
2025-01-19 12:35:03.93	209.49	13.73	
2025-01-19 12:35:04.13	209.52	13.75	
2025-01-19 12:35:04.33	209.55	13.77	
2025-01-19 12:35:04.54	209.58	13.78	
2025-01-19 12:35:04.74	209.61	13.80	
2025-01-19 12:35:04.94	209.63	13.82	
2025-01-19 12:35:05.15	209.66	13.84	
2025-01-19 12:35:05.35	209.69	13.86	
2025-01-19 12:35:05.55	209.72	13.88	
2025-01-19 12:35:05.76	209.75	13.90	
2025-01-19 12:35:05.96	209.77	13.91	
2025-01-19 12:35:06.16	209.80	13.93	
2025-01-19 12:35:06.36	209.83	13.95	
2025-01-19 12:35:06.57	209.86	13.97	
2025-01-19 12:35:06.77	209.89	13.99	
2025-01-19 12:35:06.97	209.91	14.00	
2025-01-19 12:35:07.18	209.94	14.02	
2025-01-19 12:35:07.38	209.97	14.04	
2025-01-19 12:35:07.58	210.00	14.06	
2025-01-19 12:35:07.79	210.03	14.08	
2025-01-19 12:35:07.99	210.06	14.10	
2025-01-19 12:35:08.19	210.09	14.12	
2025-01-19 12:35:08.40	210.12	14.14	
2025-01-19 12:35:08.60	210.14	14.15	
2025-01-19 12:35:08.80	210.17	14.17	
2025-01-19 12:35:09.01	210.20	14.19	
2025-01-19 12:35:09.21	210.23	14.21	
2025-01-19 12:35:09.41	210.26	14.23	
2025-01-19 12:35:09.61	210.29	14.25	
2025-01-19 12:35:09.82	210.32	14.26	
2025-01-19 12:35:10.02	210.35	14.28	
2025-01-19 12:35:10.22	210.37	14.30	
2025-01-19 12:35:10.43	210.40	14.32	
2025-01-19 12:35:10.63	210.43	14.34	
2025-01-19 12:35:10.83	210.46	14.36	
2025-01-19 12:35:11.04	210.49	14.38	
2025-01-19 12:35:11.24	210.52	14.39	
2025-01-19 12:35:11.44	210.55	14.41	
2025-01-19 12:35:11.65	210.58	14.43	
2025-01-19 12:35:11.85	210.61	14.45	
2025-01-19 12:35:12.05	210.64	14.47	
2025-01-19 12:35:12.26	210.67	14.49	
2025-01-19 12:35:12.46	210.70	14.51	
2025-01-19 12:35:12.66	210.72	14.53	
2025-01-19 12:35:12.87	210.75	14.54	
2025-01-19 12:35:13.07	210.78	14.56	
2025-01-19 12:35:13.27	210.81	14.58	
2025-01-19 12:35:13.47	210.84	14.60	
2025-01-19 12:35:13.68	210.87	14.62	
2025-01-19 12:35:13.88	210.90	14.64	
2025-01-19 12:35:14.08	210.93	14.66	
2025-01-19 12:35:14.29	210.96	14.68	
2025-01-19 12:35:14.49	210.99	14.69	
2025-01-19 12:35:14.69	211.02	14.71	
2025-01-19 12:35:14.90	211.05	14.73	
2025-01-19 12:35:15.10	211.08	14.75	
2025-01-19 12:35:15.30	211.11	14.77	
2025-01-19 12:35:15.51	211.14	14.79	
2025-01-19 12:35:15.71	211.17	14.81	
2025-01-19 12:35:15.91	211.20	14.83	
2025-01-19 12:35:16.12	211.23	14.85	
2025-01-19 12:35:16.32	211.26	14.86	
2025-01-19 12:35:16.52	211.29	14.88	
2025-01-19 12:35:16.72	211.32	14.90	
2025-01-19 12:35:16.93	211.35	14.92	
2025-01-19 12:35:17.13	211.38	14.94	
2025-01-19 12:35:17.33	211.41	14.96	
2025-01-19 12:35:17.54	211.44	14.98	
2025-01-19 12:35:17.74	211.47	15.00	
2025-01-19 12:35:17.94	211.50	15.01	
2025-01-19 12:35:18.15	211.53	15.03	
2025-01-19 12:35:18.35	211.56	15.05	
2025-01-19 12:35:18.55	211.59	15.07	
2025-01-19 12:35:18.76	211.63	15.09	
2025-01-19 12:35:18.96	211.66	15.11	
2025-01-19 12:35:19.16	211.69	15.13	
2025-01-19 12:35:19.37	211.72	15.15	
2025-01-19 12:35:19.57	211.75	15.17	
2025-01-19 12:35:19.77	211.78	15.19	
2025-01-19 12:35:19.97	211.81	15.20	
2025-01-19 12:35:20.18	211.84	15.22	
2025-01-19 12:35:20.38	211.87	15.24	
2025-01-19 12:35:20.58	211.90	15.26	
2025-01-19 12:35:20.79	211.93	15.28	
2025-01-19 12:35:20.99	211.96	15.30	
2025-01-19 12:35:21.19	211.99	15.32	
2025-01-19 12:35:21.40	212.03	15.34	
2025-01-19 12:35:21.60	212.06	15.36	
2025-01-19 12:35:21.80	212.09	15.38	
2025-01-19 12:35:22.01	212.12	15.40	
2025-01-19 12:35:22.21	212.15	15.42	
2025-01-19 12:35:22.41	212.18	15.43	
2025-01-19 12:35:22.62	212.21	15.45	
2025-01-19 12:35:22.82	212.25	15.47	
2025-01-19 12:35:23.02	212.28	15.49	
2025-01-19 12:35:23.22	212.31	15.51	
2025-01-19 12:35:23.43	212.34	15.53	
2025-01-19 12:35:23.63	212.37	15.55	
2025-01-19 12:35:23.83	212.40	15.57	
2025-01-19 12:35:24.04	212.43	15.59	
2025-01-19 12:35:24.24	212.47	15.61	
2025-01-19 12:35:24.44	212.50	15.63	
2025-01-19 12:35:24.65	212.53	15.65	
2025-01-19 12:35:24.85	212.56	15.66	
2025-01-19 12:35:25.05	212.59	15.68	
2025-01-19 12:35:25.26	212.63	15.70	
2025-01-19 12:35:25.46	212.66	15.72	
2025-01-19 12:35:25.66	212.69	15.74	
2025-01-19 12:35:25.87	212.72	15.76	
2025-01-19 12:35:26.07	212.75	15.78	
2025-01-19 12:35:26.27	212.79	15.80	
2025-01-19 12:35:26.47	212.82	15.82	
2025-01-19 12:35:26.68	212.85	15.84	
2025-01-19 12:35:26.88	212.88	15.86	
2025-01-19 12:35:27.08	212.91	15.88	
2025-01-19 12:35:27.29	212.95	15.90	
2025-01-19 12:35:27.49	212.98	15.92	
2025-01-19 12:35:27.69	213.01	15.93	
2025-01-19 12:35:27.90	213.04	15.96	
2025-01-19 12:35:28.10	213.08	15.97	
2025-01-19 12:35:28.30	213.11	15.99	
2025-01-19 12:35:28.51	213.14	16.01	
2025-01-19 12:35:28.71	213.17	16.03	
2025-01-19 12:35:28.91	213.21	16.05	
2025-01-19 12:35:29.12	213.24	16.07	
2025-01-19 12:35:29.32	213.27	16.09	
2025-01-19 12:35:29.52	213.30	16.11	
2025-01-19 12:35:29.72	213.34	16.13	
2025-01-19 12:35:29.93	213.37	16.15	
2025-01-19 12:35:30.13	213.40	16.17	
2025-01-19 12:35:30.33	213.44	16.19	
2025-01-19 12:35:30.54	213.47	16.21	
2025-01-19 12:35:30.74	213.50	16.23	
2025-01-19 12:35:30.94	213.54	16.25	
2025-01-19 12:35:31.15	213.57	16.27	
2025-01-19 12:35:31.35	213.60	16.29	
2025-01-19 12:35:31.55	213.64	16.30	
2025-01-19 12:35:31.76	213.67	16.33	
2025-01-19 12:35:31.96	213.70	16.34	
2025-01-19 12:35:32.16	213.74	16.36	
2025-01-19 12:35:32.37	213.77	16.38	
2025-01-19 12:35:32.57	213.80	16.40	
2025-01-19 12:35:32.77	213.84	16.42	
2025-01-19 12:35:32.97	213.87	16.44	
2025-01-19 12:35:33.18	213.90	16.46	
2025-01-19 12:35:33.38	213.94	16.48	
2025-01-19 12:35:33.58	213.97	16.50	
2025-01-19 12:35:33.79	214.00	16.52	
2025-01-19 12:35:33.99	214.04	16.54	
2025-01-19 12:35:34.19	214.07	16.56	
2025-01-19 12:35:34.40	214.11	16.58	
2025-01-19 12:35:34.60	214.14	16.60	
2025-01-19 12:35:34.80	214.17	16.62	
2025-01-19 12:35:35.01	214.21	16.64	
2025-01-19 12:35:35.21	214.24	16.66	
2025-01-19 12:35:35.41	214.28	16.68	
2025-01-19 12:35:35.62	214.31	16.70	
2025-01-19 12:35:35.82	214.34	16.72	
2025-01-19 12:35:36.02	214.38	16.74	
2025-01-19 12:35:36.23	214.41	16.76	
2025-01-19 12:35:36.43	214.45	16.78	
2025-01-19 12:35:36.63	214.48	16.80	
2025-01-19 12:35:36.83	214.52	16.82	
2025-01-19 12:35:37.04	214.55	16.84	
2025-01-19 12:35:37.24	214.59	16.86	
2025-01-19 12:35:37.44	214.62	16.88	
2025-01-19 12:35:37.65	214.66	16.90	
2025-01-19 12:35:37.85	214.69	16.92	
2025-01-19 12:35:38.05	214.72	16.93	
2025-01-19 12:35:38.26	214.76	16.96	
2025-01-19 12:35:38.46	214.79	16.97	
2025-01-19 12:35:38.66	214.83	16.99	
2025-01-19 12:35:38.87	214.86	17.01	
2025-01-19 12:35:39.07	214.90	17.03	
2025-01-19 12:35:39.27	214.93	17.05	
2025-01-19 12:35:39.48	214.97	17.07	
2025-01-19 12:35:39.68	215.00	17.09	
2025-01-19 12:35:39.88	215.04	17.11	
2025-01-19 12:35:40.08	215.07	17.13	
2025-01-19 12:35:40.29	215.11	17.15	
2025-01-19 12:35:40.49	215.14	17.17	
2025-01-19 12:35:40.69	215.18	17.19	
2025-01-19 12:35:40.90	215.22	17.21	
2025-01-19 12:35:41.10	215.25	17.23	
2025-01-19 12:35:41.30	215.29	17.25	
2025-01-19 12:35:41.51	215.32	17.27	
2025-01-19 12:35:41.71	215.36	17.29	
2025-01-19 12:35:41.91	215.39	17.31	
2025-01-19 12:35:42.12	215.43	17.33	
2025-01-19 12:35:42.32	215.46	17.35	
2025-01-19 12:35:42.52	215.50	17.37	
2025-01-19 12:35:42.73	215.54	17.39	
2025-01-19 12:35:42.93	215.57	17.41	
2025-01-19 12:35:43.13	215.61	17.43	
2025-01-19 12:35:43.33	215.64	17.45	
2025-01-19 12:35:43.54	215.68	17.47	
2025-01-19 12:35:43.74	215.72	17.49	
2025-01-19 12:35:43.94	215.75	17.51	
2025-01-19 12:35:44.15	215.79	17.53	
2025-01-19 12:35:44.35	215.82	17.55	
2025-01-19 12:35:44.55	215.86	17.57	
2025-01-19 12:35:44.76	215.90	17.59	
2025-01-19 12:35:44.96	215.93	17.61	
2025-01-19 12:35:45.16	215.97	17.63	
2025-01-19 12:35:45.37	216.01	17.65	
2025-01-19 12:35:45.57	216.04	17.67	
2025-01-19 12:35:45.77	216.08	17.69	
2025-01-19 12:35:45.98	216.12	17.71	
2025-01-19 12:35:46.18	216.15	17.73	
2025-01-19 12:35:46.38	216.19	17.75	
2025-01-19 12:35:46.58	216.23	17.77	
2025-01-19 12:35:46.79	216.26	17.79	
2025-01-19 12:35:46.99	216.30	17.81	
2025-01-19 12:35:47.19	216.34	17.83	
2025-01-19 12:35:47.40	216.37	17.85	
2025-01-19 12:35:47.60	216.41	17.87	
2025-01-19 12:35:47.80	216.45	17.89	
2025-01-19 12:35:48.01	216.49	17.92	
2025-01-19 12:35:48.21	216.52	17.94	
2025-01-19 12:35:48.41	216.56	17.96	
2025-01-19 12:35:48.62	216.60	17.98	
2025-01-19 12:35:48.82	216.63	18.00	
2025-01-19 12:35:49.02	216.67	18.02	
2025-01-19 12:35:49.23	216.71	18.04	
2025-01-19 12:35:49.43	216.75	18.06	
2025-01-19 12:35:49.63	216.78	18.08	
2025-01-19 12:35:49.84	216.82	18.10	
2025-01-19 12:35:50.04	216.86	18.12	
2025-01-19 12:35:50.24	216.90	18.14	
2025-01-19 12:35:50.44	216.93	18.16	
2025-01-19 12:35:50.65	216.97	18.18	
2025-01-19 12:35:50.85	217.01	18.20	
2025-01-19 12:35:51.05	217.05	18.22	
2025-01-19 12:35:51.26	217.09	18.24	
2025-01-19 12:35:51.46	217.12	18.26	
2025-01-19 12:35:51.66	217.16	18.28	
2025-01-19 12:35:51.87	217.20	18.30	
2025-01-19 12:35:52.07	217.24	18.32	
2025-01-19 12:35:52.27	217.28	18.34	
2025-01-19 12:35:52.48	217.32	18.36	
2025-01-19 12:35:52.68	217.35	18.38	
2025-01-19 12:35:52.88	217.39	18.40	
2025-01-19 12:35:53.09	217.43	18.42	
2025-01-19 12:35:53.29	217.47	18.44	
2025-01-19 12:35:53.49	217.51	18.46	
2025-01-19 12:35:53.69	217.54	18.48	
2025-01-19 12:35:53.90	217.58	18.50	
2025-01-19 12:35:54.10	217.62	18.52	
2025-01-19 12:35:54.30	217.66	18.54	
2025-01-19 12:35:54.51	217.70	18.56	
2025-01-19 12:35:54.71	217.74	18.58	
2025-01-19 12:35:54.91	217.78	18.61	
2025-01-19 12:35:55.12	217.82	18.63	
2025-01-19 12:35:55.32	217.86	18.65	
2025-01-19 12:35:55.52	217.89	18.67	
2025-01-19 12:35:55.73	217.93	18.69	
2025-01-19 12:35:55.93	217.97	18.71	
2025-01-19 12:35:56.13	218.01	18.73	
2025-01-19 12:35:56.34	218.05	18.75	
2025-01-19 12:35:56.54	218.09	18.77	
2025-01-19 12:35:56.74	218.13	18.79	
2025-01-19 12:35:56.94	218.17	18.81	
2025-01-19 12:35:57.15	218.21	18.83	
2025-01-19 12:35:57.35	218.25	18.85	
2025-01-19 12:35:57.55	218.29	18.87	
2025-01-19 12:35:57.76	218.33	18.89	
2025-01-19 12:35:57.96	218.37	18.91	
2025-01-19 12:35:58.16	218.41	18.93	
2025-01-19 12:35:58.37	218.45	18.95	
2025-01-19 12:35:58.57	218.49	18.97	
2025-01-19 12:35:58.77	218.53	18.99	
2025-01-19 12:35:58.98	218.57	19.02	
2025-01-19 12:35:59.18	218.61	19.04	
2025-01-19 12:35:59.38	218.65	19.06	
2025-01-19 12:35:59.59	218.69	19.08	
2025-01-19 12:35:59.79	218.73	19.10	
2025-01-19 12:35:59.99	218.77	19.12	
2025-01-19 12:36:00.19	218.81	19.14	
2025-01-19 12:36:00.40	218.85	19.16	
2025-01-19 12:36:00.60	218.89	19.18	
2025-01-19 12:36:00.80	218.93	19.20	
2025-01-19 12:36:01.01	218.97	19.22	
2025-01-19 12:36:01.21	219.01	19.24	
2025-01-19 12:36:01.41	219.05	19.26	
2025-01-19 12:36:01.62	219.09	19.28	
2025-01-19 12:36:01.82	219.13	19.30	
2025-01-19 12:36:02.02	219.17	19.32	
2025-01-19 12:36:02.23	219.22	19.34	
2025-01-19 12:36:02.43	219.26	19.36	
2025-01-19 12:36:02.63	219.30	19.38	
2025-01-19 12:36:02.84	219.34	19.41	
2025-01-19 12:36:03.04	219.38	19.43	
2025-01-19 12:36:03.24	219.42	19.45	
2025-01-19 12:36:03.44	219.46	19.47	
2025-01-19 12:36:03.65	219.50	19.49	
2025-01-19 12:36:03.85	219.54	19.51	
2025-01-19 12:36:04.05	219.58	19.53	
2025-01-19 12:36:04.26	219.63	19.55	
2025-01-19 12:36:04.46	219.67	19.57	
2025-01-19 12:36:04.66	219.71	19.59	
2025-01-19 12:36:04.87	219.75	19.61	
2025-01-19 12:36:05.07	219.79	19.63	
2025-01-19 12:36:05.27	219.83	19.65	
2025-01-19 12:36:05.48	219.88	19.67	
2025-01-19 12:36:05.68	219.92	19.70	
2025-01-19 12:36:05.88	219.96	19.72	
2025-01-19 12:36:06.09	220.00	19.74	
2025-01-19 12:36:06.29	220.05	19.76	
2025-01-19 12:36:06.49	220.09	19.78	
2025-01-19 12:36:06.69	220.13	19.80	
2025-01-19 12:36:06.90	220.17	19.82	
2025-01-19 12:36:07.10	220.21	19.84	
2025-01-19 12:36:07.30	220.25	19.86	
2025-01-19 12:36:07.51	220.30	19.88	
2025-01-19 12:36:07.71	220.34	19.90	
2025-01-19 12:36:07.91	220.38	19.92	
2025-01-19 12:36:08.12	220.43	19.94	
2025-01-19 12:36:08.32	220.47	19.96	
2025-01-19 12:36:08.52	220.51	19.98	
2025-01-19 12:36:08.73	220.55	20.01	
2025-01-19 12:36:08.93	220.60	20.03	
2025-01-19 12:36:09.13	220.64	20.05	
2025-01-19 12:36:09.34	220.68	20.07	
2025-01-19 12:36:09.54	220.73	20.09	
2025-01-19 12:36:09.74	220.77	20.11	
2025-01-19 12:36:09.95	220.81	20.13	
2025-01-19 12:36:10.15	220.86	20.15	
2025-01-19 12:36:10.35	220.90	20.17	
2025-01-19 12:36:10.55	220.94	20.19	
2025-01-19 12:36:10.76	220.99	20.21	
2025-01-19 12:36:10.96	221.03	20.23	
2025-01-19 12:36:11.16	221.07	20.25	
2025-01-19 12:36:11.37	221.12	20.28	
2025-01-19 12:36:11.57	221.16	20.30	
2025-01-19 12:36:11.77	221.20	20.32	
2025-01-19 12:36:11.98	221.25	20.34	
2025-01-19 12:36:12.18	221.29	20.36	
2025-01-19 12:36:12.38	221.33	20.38	
2025-01-19 12:36:12.59	221.38	20.40	
2025-01-19 12:36:12.79	221.42	20.42	
2025-01-19 12:36:12.99	221.46	20.44	
2025-01-19 12:36:13.20	221.51	20.46	
2025-01-19 12:36:13.40	221.55	20.48	
2025-01-19 12:36:13.60	221.60	20.50	
2025-01-19 12:36:13.80	221.64	20.53	
2025-01-19 12:36:14.01	221.69	20.55	
2025-01-19 12:36:14.21	221.73	20.57	
2025-01-19 12:36:14.41	221.77	20.59	
2025-01-19 12:36:14.62	221.82	20.61	
2025-01-19 12:36:14.82	221.86	20.63	
2025-01-19 12:36:15.02	221.91	20.65	
2025-01-19 12:36:15.23	221.95	20.67	
2025-01-19 12:36:15.43	222.00	20.69	
2025-01-19 12:36:15.63	222.04	20.71	
2025-01-19 12:36:15.84	222.09	20.73	
2025-01-19 12:36:16.04	222.13	20.76	
2025-01-19 12:36:16.24	222.18	20.78	
2025-01-19 12:36:16.45	222.22	20.80	
2025-01-19 12:36:16.65	222.27	20.82	
2025-01-19 12:36:16.85	222.31	20.84	
2025-01-19 12:36:17.05	222.36	20.86	
2025-01-19 12:36:17.26	222.40	20.88	
2025-01-19 12:36:17.46	222.45	20.90	
2025-01-19 12:36:17.66	222.49	20.92	
2025-01-19 12:36:17.87	222.54	20.94	
2025-01-19 12:36:18.07	222.59	20.96	
2025-01-19 12:36:18.27	222.63	20.98	
2025-01-19 12:36:18.48	222.68	21.01	
2025-01-19 12:36:18.68	222.72	21.03	
2025-01-19 12:36:18.88	222.77	21.05	
2025-01-19 12:36:19.09	222.82	21.07	
2025-01-19 12:36:19.29	222.86	21.09	
2025-01-19 12:36:19.49	222.91	21.11	
2025-01-19 12:36:19.70	222.95	21.13	
2025-01-19 12:36:19.90	223.00	21.15	
2025-01-19 12:36:20.10	223.04	21.17	
2025-01-19 12:36:20.30	223.09	21.19	
2025-01-19 12:36:20.51	223.14	21.21	
2025-01-19 12:36:20.71	223.18	21.24	
2025-01-19 12:36:20.91	223.23	21.26	
2025-01-19 12:36:21.12	223.28	21.28	
2025-01-19 12:36:21.32	223.32	21.30	
2025-01-19 12:36:21.52	223.37	21.32	
2025-01-19 12:36:21.73	223.42	21.34	
2025-01-19 12:36:21.93	223.46	21.36	
2025-01-19 12:36:22.13	223.51	21.38	
2025-01-19 12:36:22.34	223.56	21.40	
2025-01-19 12:36:22.54	223.60	21.42	
2025-01-19 12:36:22.74	223.65	21.44	
2025-01-19 12:36:22.95	223.70	21.47	
2025-01-19 12:36:23.15	223.75	21.49	
2025-01-19 12:36:23.35	223.79	21.51	
2025-01-19 12:36:23.55	223.84	21.53	
2025-01-19 12:36:23.76	223.89	21.55	
2025-01-19 12:36:23.96	223.94	21.57	
2025-01-19 12:36:24.16	223.98	21.59	
2025-01-19 12:36:24.37	224.03	21.61	
2025-01-19 12:36:24.57	224.08	21.63	
2025-01-19 12:36:24.77	224.12	21.65	
2025-01-19 12:36:24.98	224.17	21.67	
2025-01-19 12:36:25.18	224.22	21.69	
2025-01-19 12:36:25.38	224.27	21.72	
2025-01-19 12:36:25.59	224.32	21.74	
2025-01-19 12:36:25.79	224.37	21.76	
2025-01-19 12:36:25.99	224.41	21.78	
2025-01-19 12:36:26.20	224.46	21.80	
2025-01-19 12:36:26.40	224.51	21.82	
2025-01-19 12:36:26.60	224.56	21.84	
2025-01-19 12:36:26.81	224.61	21.86	
2025-01-19 12:36:27.01	224.66	21.88	
2025-01-19 12:36:27.21	224.70	21.90	
2025-01-19 12:36:27.41	224.75	21.92	
2025-01-19 12:36:27.62	224.80	21.95	
2025-01-19 12:36:27.82	224.85	21.97	
2025-01-19 12:36:28.02	224.90	21.99	
2025-01-19 12:36:28.23	224.95	22.01	
2025-01-19 12:36:28.43	225.00	22.03	
2025-01-19 12:36:28.63	225.04	22.05	
2025-01-19 12:36:28.84	225.09	22.07	
2025-01-19 12:36:29.04	225.14	22.09	
2025-01-19 12:36:29.24	225.19	22.11	
2025-01-19 12:36:29.45	225.24	22.13	
2025-01-19 12:36:29.65	225.29	22.15	
2025-01-19 12:36:29.85	225.34	22.17	
2025-01-19 12:36:30.06	225.39	22.20	
2025-01-19 12:36:30.26	225.44	22.22	
2025-01-19 12:36:30.46	225.49	22.24	
2025-01-19 12:36:30.66	225.54	22.26	
2025-01-19 12:36:30.87	225.59	22.28	
2025-01-19 12:36:31.07	225.64	22.30	
2025-01-19 12:36:31.27	225.69	22.32	
2025-01-19 12:36:31.48	225.74	22.34	
2025-01-19 12:36:31.68	225.79	22.36	
2025-01-19 12:36:31.88	225.84	22.38	
2025-01-19 12:36:32.09	225.89	22.40	
2025-01-19 12:36:32.29	225.94	22.42	
2025-01-19 12:36:32.49	225.99	22.45	
2025-01-19 12:36:32.70	226.04	22.47	
2025-01-19 12:36:32.90	226.09	22.49	
2025-01-19 12:36:33.10	226.14	22.51	
2025-01-19 12:36:33.31	226.19	22.53	
2025-01-19 12:36:33.51	226.24	22.55	
2025-01-19 12:36:33.71	226.29	22.57	
2025-01-19 12:36:33.91	226.34	22.59	
2025-01-19 12:36:34.12	226.39	22.61	
2025-01-19 12:36:34.32	226.44	22.63	
2025-01-19 12:36:34.52	226.49	22.65	
2025-01-19 12:36:34.73	226.55	22.67	
2025-01-19 12:36:34.93	226.60	22.70	
2025-01-19 12:36:35.13	226.65	22.72	
2025-01-19 12:36:35.34	226.70	22.74	
2025-01-19 12:36:35.54	226.75	22.76	
2025-01-19 12:36:35.74	226.80	22.78	
2025-01-19 12:36:35.95	226.85	22.80	
2025-01-19 12:36:36.15	226.90	22.82	
2025-01-19 12:36:36.35	226.96	22.84	
2025-01-19 12:36:36.56	227.01	22.86	
2025-01-19 12:36:36.76	227.06	22.88	
2025-01-19 12:36:36.96	227.11	22.90	
2025-01-19 12:36:37.16	227.16	22.92	
2025-01-19 12:36:37.37	227.22	22.94	
2025-01-19 12:36:37.57	227.27	22.96	
2025-01-19 12:36:37.77	227.32	22.99	
2025-01-19 12:36:37.98	227.37	23.01	
2025-01-19 12:36:38.18	227.42	23.03	
2025-01-19 12:36:38.38	227.48	23.05	
2025-01-19 12:36:38.59	227.53	23.07	
2025-01-19 12:36:38.79	227.58	23.09	
2025-01-19 12:36:38.99	227.63	23.11	
2025-01-19 12:36:39.20	227.69	23.13	
2025-01-19 12:36:39.40	227.74	23.15	
2025-01-19 12:36:39.60	227.79	23.17	
2025-01-19 12:36:39.81	227.85	23.19	
2025-01-19 12:36:40.01	227.90	23.21	
2025-01-19 12:36:40.21	227.95	23.23	
2025-01-19 12:36:40.41	228.00	23.25	
2025-01-19 12:36:40.62	228.06	23.28	
2025-01-19 12:36:40.82	228.11	23.30	
2025-01-19 12:36:41.02	228.16	23.32	
2025-01-19 12:36:41.23	228.22	23.34	
2025-01-19 12:36:41.43	228.27	23.36	
2025-01-19 12:36:41.63	228.32	23.38	
2025-01-19 12:36:41.84	228.38	23.40	
2025-01-19 12:36:42.04	228.43	23.42	
2025-01-19 12:36:42.24	228.48	23.44	
2025-01-19 12:36:42.45	228.54	23.46	
2025-01-19 12:36:42.65	228.59	23.48	
2025-01-19 12:36:42.85	228.64	23.50	
2025-01-19 12:36:43.06	228.70	23.52	
2025-01-19 12:36:43.26	228.75	23.54	
2025-01-19 12:36:43.46	228.81	23.56	
2025-01-19 12:36:43.66	228.86	23.58	
2025-01-19 12:36:43.87	228.92	23.60	
2025-01-19 12:36:44.07	228.97	23.62	
2025-01-19 12:36:44.27	229.02	23.64	
2025-01-19 12:36:44.48	229.08	23.67	
2025-01-19 12:36:44.68	229.13	23.69	
2025-01-19 12:36:44.88	229.19	23.71	
2025-01-19 12:36:45.09	229.24	23.73	
2025-01-19 12:36:45.29	229.30	23.75	
2025-01-19 12:36:45.49	229.35	23.77	
2025-01-19 12:36:45.70	229.41	23.79	
2025-01-19 12:36:45.90	229.46	23.81	
2025-01-19 12:36:46.10	229.52	23.83	
2025-01-19 12:36:46.31	229.57	23.85	
2025-01-19 12:36:46.51	229.63	23.87	
2025-01-19 12:36:46.71	229.68	23.89	
2025-01-19 12:36:46.92	229.74	23.91	
2025-01-19 12:36:47.12	229.79	23.93	
2025-01-19 12:36:47.32	229.85	23.95	
2025-01-19 12:36:47.52	229.90	23.97	
2025-01-19 12:36:47.73	229.96	23.99	
2025-01-19 12:36:47.93	230.01	24.01	
2025-01-19 12:36:48.13	230.07	24.03	
2025-01-19 12:36:48.34	230.13	24.05	
2025-01-19 12:36:48.54	230.18	24.07	
2025-01-19 12:36:48.74	230.24	24.09	
2025-01-19 12:36:48.95	230.30	24.11	
2025-01-19 12:36:49.15	230.35	24.13	
2025-01-19 12:36:49.35	230.41	24.15	
2025-01-19 12:36:49.56	230.46	24.18	
2025-01-19 12:36:49.76	230.52	24.20	
2025-01-19 12:36:49.96	230.58	24.22	
2025-01-19 12:36:50.17	230.63	24.24	
2025-01-19 12:36:50.37	230.69	24.26	
2025-01-19 12:36:50.57	230.74	24.28	
2025-01-19 12:36:50.77	230.80	24.30	
2025-01-19 12:36:50.98	230.86	24.32	
2025-01-19 12:36:51.18	230.92	24.34	
2025-01-19 12:36:51.38	230.97	24.36	
2025-01-19 12:36:51.59	231.03	24.38	
2025-01-19 12:36:51.79	231.09	24.40	
2025-01-19 12:36:51.99	231.14	24.42	
2025-01-19 12:36:52.20	231.20	24.44	
2025-01-19 12:36:52.40	231.26	24.46	
2025-01-19 12:36:52.60	231.32	24.48	
2025-01-19 12:36:52.81	231.37	24.50	
2025-01-19 12:36:53.01	231.43	24.52	
2025-01-19 12:36:53.21	231.49	24.54	
2025-01-19 12:36:53.42	231.55	24.56	
2025-01-19 12:36:53.62	231.60	24.58	
2025-01-19 12:36:53.82	231.66	24.60	
2025-01-19 12:36:54.02	231.72	24.62	
2025-01-19 12:36:54.23	231.78	24.64	
2025-01-19 12:36:54.43	231.84	24.66	
2025-01-19 12:36:54.63	231.89	24.68	
2025-01-19 12:36:54.84	231.95	24.70	
2025-01-19 12:36:55.04	232.01	24.72	
2025-01-19 12:36:55.24	232.07	24.74	
2025-01-19 12:36:55.45	232.13	24.76	
2025-01-19 12:36:55.65	232.19	24.78	
2025-01-19 12:36:55.85	232.24	24.80	
2025-01-19 12:36:56.06	232.30	24.82	
2025-01-19 12:36:56.26	232.36	24.84	
2025-01-19 12:36:56.46	232.42	24.86	
2025-01-19 12:36:56.67	232.48	24.88	
2025-01-19 12:36:56.87	232.54	24.90	
2025-01-19 12:36:57.07	232.60	24.92	
2025-01-19 12:36:57.27	232.66	24.94	
2025-01-19 12:36:57.48	232.72	24.96	
2025-01-19 12:36:57.68	232.78	24.98	
2025-01-19 12:36:57.88	232.83	25.00	
2025-01-19 12:36:58.09	232.89	25.02	
2025-01-19 12:36:58.29	232.95	25.03	
2025-01-19 12:36:58.49	233.01	25.05	
2025-01-19 12:36:58.70	233.07	25.07	
2025-01-19 12:36:58.90	233.13	25.09	
2025-01-19 12:36:59.10	233.19	25.11	
2025-01-19 12:36:59.31	233.25	25.13	
2025-01-19 12:36:59.51	233.31	25.15	
2025-01-19 12:36:59.71	233.37	25.17	
2025-01-19 12:36:59.92	233.43	25.19	
2025-01-19 12:37:00.12	233.49	25.21	
2025-01-19 12:37:00.32	233.55	25.23	
2025-01-19 12:37:00.52	233.61	25.25	
2025-01-19 12:37:00.73	233.67	25.27	
2025-01-19 12:37:00.93	233.73	25.29	
2025-01-19 12:37:01.13	233.79	25.31	
2025-01-19 12:37:01.34	233.86	25.33	
2025-01-19 12:37:01.54	233.92	25.35	
2025-01-19 12:37:01.74	233.98	25.37	
2025-01-19 12:37:01.95	234.04	25.39	
2025-01-19 12:37:02.15	234.10	25.41	
2025-01-19 12:37:02.35	234.16	25.43	
2025-01-19 12:37:02.56	234.22	25.45	
2025-01-19 12:37:02.76	234.28	25.46	
2025-01-19 12:37:02.96	234.34	25.48	
2025-01-19 12:37:03.17	234.41	25.50	
2025-01-19 12:37:03.37	234.47	25.52	
2025-01-19 12:37:03.57	234.53	25.54	
2025-01-19 12:37:03.78	234.59	25.56	
2025-01-19 12:37:03.98	234.65	25.58	
2025-01-19 12:37:04.18	234.71	25.60	
2025-01-19 12:37:04.38	234.77	25.62	
2025-01-19 12:37:04.59	234.84	25.64	
2025-01-19 12:37:04.79	234.90	25.66	
2025-01-19 12:37:04.99	234.96	25.68	
2025-01-19 12:37:05.20	235.02	25.70	
2025-01-19 12:37:05.40	235.08	25.71	
2025-01-19 12:37:05.60	235.15	25.73	
2025-01-19 12:37:05.81	235.21	25.75	
2025-01-19 12:37:06.01	235.27	25.77	
2025-01-19 12:37:06.21	235.33	25.79	
2025-01-19 12:37:06.42	235.40	25.81	
2025-01-19 12:37:06.62	235.46	25.83	
2025-01-19 12:37:06.82	235.52	25.85	
2025-01-19 12:37:07.03	235.59	25.87	
2025-01-19 12:37:07.23	235.65	25.89	
2025-01-19 12:37:07.43	235.71	25.90	
2025-01-19 12:37:07.63	235.77	25.92	
2025-01-19 12:37:07.84	235.84	25.94	
2025-01-19 12:37:08.04	235.90	25.96	
2025-01-19 12:37:08.24	235.96	25.98	
2025-01-19 12:37:08.45	236.03	26.00	
2025-01-19 12:37:08.65	236.09	26.02	
2025-01-19 12:37:08.85	236.15	26.04	
2025-01-19 12:37:09.06	236.22	26.05	
2025-01-19 12:37:09.26	236.28	26.07	
2025-01-19 12:37:09.46	236.34	26.09	
2025-01-19 12:37:09.67	236.41	26.11	
2025-01-19 12:37:09.87	236.47	26.13	
2025-01-19 12:37:10.07	236.53	26.15	
2025-01-19 12:37:10.28	236.60	26.17	
2025-01-19 12:37:10.48	236.66	26.18	
2025-01-19 12:37:10.68	236.73	26.20	
2025-01-19 12:37:10.88	236.79	26.22	
2025-01-19 12:37:11.09	236.86	26.24	
2025-01-19 12:37:11.29	236.92	26.26	
2025-01-19 12:37:11.49	236.98	26.28	
2025-01-19 12:37:11.70	237.05	26.30	
2025-01-19 12:37:11.90	237.11	26.31	
2025-01-19 12:37:12.10	237.18	26.33	
2025-01-19 12:37:12.31	237.24	26.35	
2025-01-19 12:37:12.51	237.31	26.37	
2025-01-19 12:37:12.71	237.37	26.39	
2025-01-19 12:37:12.92	237.44	26.41	
2025-01-19 12:37:13.12	237.50	26.42	
2025-01-19 12:37:13.32	237.57	26.44	
2025-01-19 12:37:13.53	237.64	26.46	
2025-01-19 12:37:13.73	237.70	26.48	
2025-01-19 12:37:13.93	237.76	26.50	
2025-01-19 12:37:14.13	237.83	26.51	
2025-01-19 12:37:14.34	237.90	26.53	
2025-01-19 12:37:14.54	237.96	26.55	
2025-01-19 12:37:14.74	238.03	26.57	
2025-01-19 12:37:14.95	238.09	26.59	
2025-01-19 12:37:15.15	238.16	26.61	
2025-01-19 12:37:15.35	238.22	26.62	
2025-01-19 12:37:15.56	238.29	26.64	
2025-01-19 12:37:15.76	238.36	26.66	
2025-01-19 12:37:15.96	238.42	26.68	
2025-01-19 12:37:16.17	238.49	26.70	
2025-01-19 12:37:16.37	238.56	26.71	
2025-01-19 12:37:16.57	238.62	26.73	
2025-01-19 12:37:16.78	238.69	26.75	
2025-01-19 12:37:16.98	238.75	26.77	
2025-01-19 12:37:17.18	238.82	26.78	
2025-01-19 12:37:17.38	238.89	26.80	
2025-01-19 12:37:17.59	238.95	26.82	
2025-01-19 12:37:17.79	239.02	26.84	
2025-01-19 12:37:17.99	239.09	26.85	
2025-01-19 12:37:18.20	239.16	26.87	
2025-01-19 12:37:18.40	239.22	26.89	
2025-01-19 12:37:18.60	239.29	26.91	
2025-01-19 12:37:18.81	239.36	26.93	
2025-01-19 12:37:19.01	239.42	26.94	
2025-01-19 12:37:19.21	239.49	26.96	
2025-01-19 12:37:19.42	239.56	26.98	
2025-01-19 12:37:19.62	239.63	27.00	
2025-01-19 12:37:19.82	239.69	27.01	
2025-01-19 12:37:20.03	239.76	27.03	
2025-01-19 12:37:20.23	239.83	27.05	
2025-01-19 12:37:20.43	239.90	27.06	
2025-01-19 12:37:20.63	239.96	27.08	
2025-01-19 12:37:20.84	240.03	27.10	
2025-01-19 12:37:21.04	240.10	27.12	
2025-01-19 12:37:21.24	240.17	27.13	
2025-01-19 12:37:21.45	240.24	27.15	
2025-01-19 12:37:21.65	240.30	27.17	
2025-01-19 12:37:21.85	240.37	27.18	
2025-01-19 12:37:22.06	240.44	27.20	
2025-01-19 12:37:22.26	240.51	27.22	
2025-01-19 12:37:22.46	240.58	27.24	
2025-01-19 12:37:22.67	240.65	27.25	
2025-01-19 12:37:22.87	240.72	27.27	
2025-01-19 12:37:23.07	240.78	27.29	
2025-01-19 12:37:23.28	240.85	27.30	
2025-01-19 12:37:23.48	240.92	27.32	
2025-01-19 12:37:23.68	240.99	27.34	
2025-01-19 12:37:23.89	241.06	27.35	
2025-01-19 12:37:24.09	241.13	27.37	
2025-01-19 12:37:24.29	241.20	27.39	
2025-01-19 12:37:24.49	241.27	27.40	
2025-01-19 12:37:24.70	241.34	27.42	
2025-01-19 12:37:24.90	241.41	27.44	
2025-01-19 12:37:25.10	241.47	27.45	
2025-01-19 12:37:25.31	241.55	27.47	
2025-01-19 12:37:25.51	241.62	27.49	
2025-01-19 12:37:25.71	241.68	27.50	
2025-01-19 12:37:25.92	241.76	27.52	
2025-01-19 12:37:26.12	241.82	27.54	
2025-01-19 12:37:26.32	241.89	27.55	
2025-01-19 12:37:26.53	241.97	27.57	
2025-01-19 12:37:26.73	242.04	27.59	
2025-01-19 12:37:26.93	242.10	27.60	
2025-01-19 12:37:27.14	242.18	27.62	
2025-01-19 12:37:27.34	242.25	27.63	
2025-01-19 12:37:27.54	242.32	27.65	
2025-01-19 12:37:27.74	242.38	27.67	
2025-01-19 12:37:27.95	242.46	27.68	
2025-01-19 12:37:28.15	242.53	27.70	
2025-01-19 12:37:28.35	242.60	27.71	
2025-01-19 12:37:28.56	242.67	27.73	
2025-01-19 12:37:28.76	242.74	27.75	
2025-01-19 12:37:28.96	242.81	27.76	
2025-01-19 12:37:29.17	242.88	27.78	
2025-01-19 12:37:29.37	242.95	27.79	
2025-01-19 12:37:29.57	243.02	27.81	
2025-01-19 12:37:29.78	243.10	27.83	
2025-01-19 12:37:29.98	243.17	27.84	
2025-01-19 12:37:30.18	243.24	27.86	
2025-01-19 12:37:30.39	243.31	27.87	
2025-01-19 12:37:30.59	243.38	27.89	
2025-01-19 12:37:30.79	243.45	27.90	
2025-01-19 12:37:30.99	243.52	27.92	
2025-01-19 12:37:31.20	243.60	27.94	
2025-01-19 12:37:31.40	243.67	27.95	
2025-01-19 12:37:31.60	243.74	27.97	
2025-01-19 12:37:31.81	243.81	27.98	
2025-01-19 12:37:32.01	243.88	28.00	
2025-01-19 12:37:32.21	243.95	28.01	
2025-01-19 12:37:32.42	244.03	28.03	
2025-01-19 12:37:32.62	244.10	28.04	
2025-01-19 12:37:32.82	244.17	28.06	
2025-01-19 12:37:33.03	244.24	28.07	
2025-01-19 12:37:33.23	244.32	28.09	
2025-01-19 12:37:33.43	244.39	28.10	
2025-01-19 12:37:33.64	244.46	28.12	
2025-01-19 12:37:33.84	244.53	28.13	
2025-01-19 12:37:34.04	244.60	28.15	
2025-01-19 12:37:34.24	244.68	28.16	
2025-01-19 12:37:34.45	244.75	28.18	
2025-01-19 12:37:34.65	244.82	28.19	
2025-01-19 12:37:34.85	244.89	28.21	
2025-01-19 12:37:35.06	244.97	28.22	
2025-01-19 12:37:35.26	245.04	28.24	
2025-01-19 12:37:35.46	245.11	28.25	
2025-01-19 12:37:35.67	245.19	28.27	
2025-01-19 12:37:35.87	245.26	28.28	
2025-01-19 12:37:36.07	245.33	28.30	
2025-01-19 12:37:36.28	245.41	28.31	
2025-01-19 12:37:36.48	245.48	28.33	
2025-01-19 12:37:36.68	245.55	28.34	
2025-01-19 12:37:36.89	245.63	28.36	
2025-01-19 12:37:37.09	245.70	28.37	
2025-01-19 12:37:37.29	245.78	28.38	
2025-01-19 12:37:37.49	245.85	28.40	
2025-01-19 12:37:37.70	245.92	28.41	
2025-01-19 12:37:37.90	246.00	28.43	
2025-01-19 12:37:38.10	246.07	28.44	
2025-01-19 12:37:38.31	246.15	28.45	
2025-01-19 12:37:38.51	246.22	28.47	
2025-01-19 12:37:38.71	246.29	28.48	
2025-01-19 12:37:38.92	246.37	28.50	
2025-01-19 12:37:39.12	246.44	28.51	
2025-01-19 12:37:39.32	246.52	28.52	
2025-01-19 12:37:39.53	246.59	28.54	
2025-01-19 12:37:39.73	246.67	28.55	
2025-01-19 12:37:39.93	246.74	28.57	
2025-01-19 12:37:40.14	246.82	28.58	
2025-01-19 12:37:40.34	246.89	28.59	
2025-01-19 12:37:40.54	246.96	28.61	
2025-01-19 12:37:40.75	247.04	28.62	
2025-01-19 12:37:40.95	247.12	28.64	
2025-01-19 12:37:41.15	247.19	28.65	
2025-01-19 12:37:41.35	247.26	28.66	
2025-01-19 12:37:41.56	247.34	28.68	
2025-01-19 12:37:41.76	247.41	28.69	
2025-01-19 12:37:41.96	247.49	28.70	
2025-01-19 12:37:42.17	247.57	28.72	
2025-01-19 12:37:42.37	247.64	28.73	
2025-01-19 12:37:42.57	247.72	28.74	
2025-01-19 12:37:42.78	247.79	28.76	
2025-01-19 12:37:42.98	247.87	28.77	
2025-01-19 12:37:43.18	247.94	28.78	
2025-01-19 12:37:43.39	248.02	28.79	
2025-01-19 12:37:43.59	248.09	28.81	
2025-01-19 12:37:43.79	248.17	28.82	
2025-01-19 12:37:44.00	248.25	28.83	
2025-01-19 12:37:44.20	248.32	28.85	
2025-01-19 12:37:44.40	248.40	28.86	
2025-01-19 12:37:44.60	248.47	28.87	
2025-01-19 12:37:44.81	248.55	28.88	
2025-01-19 12:37:45.01	248.63	28.90	
2025-01-19 12:37:45.21	248.70	28.91	
2025-01-19 12:37:45.42	248.78	28.92	
2025-01-19 12:37:45.62	248.85	28.94	
2025-01-19 12:37:45.82	248.93	28.95	
2025-01-19 12:37:46.03	249.01	28.96	
2025-01-19 12:37:46.23	249.08	28.97	
2025-01-19 12:37:46.43	249.16	28.98	
2025-01-19 12:37:46.64	249.24	29.00	
2025-01-19 12:37:46.84	249.31	29.01	
2025-01-19 12:37:47.04	249.39	29.02	
2025-01-19 12:37:47.25	249.47	29.03	
2025-01-19 12:37:47.45	249.55	29.05	
2025-01-19 12:37:47.65	249.62	29.06	
2025-01-19 12:37:47.85	249.70	29.07	
2025-01-19 12:37:48.06	249.78	29.08	
2025-01-19 12:37:48.26	249.85	29.09	
2025-01-19 12:37:48.46	249.93	29.11	
2025-01-19 12:37:48.67	250.01	29.12	
2025-01-19 12:37:48.87	250.08	29.13	
2025-01-19 12:37:49.07	250.16	29.14	
2025-01-19 12:37:49.28	250.24	29.15	
2025-01-19 12:37:49.48	250.32	29.16	
2025-01-19 12:37:49.68	250.39	29.18	
2025-01-19 12:37:49.89	250.47	29.19	
2025-01-19 12:37:50.09	250.55	29.20	
2025-01-19 12:37:50.29	250.63	29.21	
2025-01-19 12:37:50.50	250.71	29.22	
2025-01-19 12:37:50.70	250.78	29.23	
2025-01-19 12:37:50.90	250.86	29.24	
2025-01-19 12:37:51.10	250.94	29.26	
2025-01-19 12:37:51.31	251.02	29.27	
2025-01-19 12:37:51.51	251.09	29.28	
2025-01-19 12:37:51.71	251.17	29.29	
2025-01-19 12:37:51.92	251.25	29.30	
2025-01-19 12:37:52.12	251.33	29.31	
2025-01-19 12:37:52.32	251.41	29.32	
2025-01-19 12:37:52.53	251.49	29.33	
2025-01-19 12:37:52.73	251.56	29.34	
2025-01-19 12:37:52.93	251.64	29.35	
2025-01-19 12:37:53.14	251.72	29.37	
2025-01-19 12:37:53.34	251.80	29.38	
2025-01-19 12:37:53.54	251.88	29.39	
2025-01-19 12:37:53.75	251.96	29.40	
2025-01-19 12:37:53.95	252.03	29.41	
2025-01-19 12:37:54.15	252.11	29.42	
2025-01-19 12:37:54.35	252.19	29.43	
2025-01-19 12:37:54.56	252.27	29.44	
2025-01-19 12:37:54.76	252.35	29.45	
2025-01-19 12:37:54.96	252.43	29.46	
2025-01-19 12:37:55.17	252.51	29.47	
2025-01-19 12:37:55.37	252.59	29.48	
2025-01-19 12:37:55.57	252.66	29.49	
2025-01-19 12:37:55.78	252.75	29.50	
2025-01-19 12:37:55.98	252.82	29.51	
2025-01-19 12:37:56.18	252.90	29.52	
2025-01-19 12:37:56.39	252.98	29.53	
2025-01-19 12:37:56.59	253.06	29.54	
2025-01-19 12:37:56.79	253.14	29.55	
2025-01-19 12:37:57.00	253.22	29.56	
2025-01-19 12:37:57.20	253.30	29.57	
2025-01-19 12:37:57.40	253.38	29.58	
2025-01-19 12:37:57.61	253.46	29.59	
2025-01-19 12:37:57.81	253.54	29.60	
2025-01-19 12:37:58.01	253.62	29.61	
2025-01-19 12:37:58.21	253.70	29.62	
2025-01-19 12:37:58.42	253.78	29.63	
2025-01-19 12:37:58.62	253.86	29.63	
2025-01-19 12:37:58.82	253.93	29.64	
2025-01-19 12:37:59.03	254.02	29.65	
2025-01-19 12:37:59.23	254.10	29.66	
2025-01-19 12:37:59.43	254.17	29.67	
2025-01-19 12:37:59.64	254.26	29.68	
2025-01-19 12:37:59.84	254.34	29.69	
2025-01-19 12:38:00.04	254.42	29.70	
2025-01-19 12:38:00.25	254.50	29.71	
2025-01-19 12:38:00.45	254.58	29.72	
2025-01-19 12:38:00.65	254.66	29.72	
2025-01-19 12:38:00.86	254.74	29.73	
2025-01-19 12:38:01.06	254.82	29.74	
2025-01-19 12:38:01.26	254.90	29.75	
2025-01-19 12:38:01.46	254.98	29.76	
2025-01-19 12:38:01.67	255.06	29.77	
2025-01-19 12:38:01.87	255.14	29.78	
2025-01-19 12:38:02.07	255.22	29.78	
2025-01-19 12:38:02.28	255.30	29.79	
2025-01-19 12:38:02.48	255.38	29.80	
2025-01-19 12:38:02.68	255.46	29.81	
2025-01-19 12:38:02.89	255.54	29.82	
2025-01-19 12:38:03.09	255.62	29.82	
2025-01-19 12:38:03.29	255.70	29.83	
2025-01-19 12:38:03.50	255.79	29.84	
2025-01-19 12:38:03.70	255.87	29.85	
2025-01-19 12:38:03.90	255.95	29.86	
2025-01-19 12:38:04.11	256.03	29.86	
2025-01-19 12:38:04.31	256.11	29.87	
2025-01-19 12:38:04.51	256.19	29.88	
2025-01-19 12:38:04.71	256.27	29.89	
2025-01-19 12:38:04.92	256.35	29.89	
2025-01-19 12:38:05.12	256.43	29.90	
2025-01-19 12:38:05.32	256.51	29.91	
2025-01-19 12:38:05.53	256.60	29.92	
2025-01-19 12:38:05.73	256.68	29.92	
2025-01-19 12:38:05.93	256.76	29.93	
2025-01-19 12:38:06.14	256.84	29.94	
2025-01-19 12:38:06.34	256.92	29.94	
2025-01-19 12:38:06.54	257.00	29.95	
2025-01-19 12:38:06.75	257.08	29.96	
2025-01-19 12:38:06.95	257.16	29.97	
2025-01-19 12:38:07.15	257.24	29.97	
2025-01-19 12:38:07.36	257.33	29.98	
2025-01-19 12:38:07.56	257.41	29.99	
2025-01-19 12:38:07.76	257.49	29.99	
2025-01-19 12:38:07.96	257.57	30.00	
2025-01-19 12:38:08.17	257.65	30.01	
2025-01-19 12:38:08.37	257.73	30.01	
2025-01-19 12:38:08.57	257.81	30.02	
2025-01-19 12:38:08.78	257.90	30.03	
2025-01-19 12:38:08.98	257.98	30.03	
2025-01-19 12:38:09.18	258.06	30.04	
2025-01-19 12:38:09.39	258.15	30.04	
2025-01-19 12:38:09.59	258.23	30.05	
2025-01-19 12:38:09.79	258.31	30.06	
2025-01-19 12:38:10.00	258.39	30.06	
2025-01-19 12:38:10.20	258.47	30.07	
2025-01-19 12:38:10.40	258.55	30.07	
2025-01-19 12:38:10.61	258.64	30.08	
2025-01-19 12:38:10.81	258.72	30.09	
2025-01-19 12:38:11.01	258.80	30.09	
2025-01-19 12:38:11.21	258.88	30.10	
2025-01-19 12:38:11.42	258.96	30.10	
2025-01-19 12:38:11.62	259.05	30.11	
2025-01-19 12:38:11.82	259.13	30.11	
2025-01-19 12:38:12.03	259.21	30.12	
2025-01-19 12:38:12.23	259.29	30.13	
2025-01-19 12:38:12.43	259.37	30.13	
2025-01-19 12:38:12.64	259.46	30.14	
2025-01-19 12:38:12.84	259.54	30.14	
2025-01-19 12:38:13.04	259.62	30.15	
2025-01-19 12:38:13.25	259.71	30.15	
2025-01-19 12:38:13.45	259.79	30.16	
2025-01-19 12:38:13.65	259.87	30.16	
2025-01-19 12:38:13.86	259.95	30.17	
2025-01-19 12:38:14.06	260.03	30.17	
2025-01-19 12:38:14.26	260.12	30.18	
2025-01-19 12:38:14.46	260.20	30.18	
2025-01-19 12:38:14.67	260.28	30.18	
2025-01-19 12:38:14.87	260.36	30.19	
2025-01-19 12:38:15.07	260.45	30.19	
2025-01-19 12:38:15.28	260.53	30.20	
2025-01-19 12:38:15.48	260.61	30.20	
2025-01-19 12:38:15.68	260.69	30.21	
2025-01-19 12:38:15.89	260.78	30.21	
2025-01-19 12:38:16.09	260.86	30.22	
2025-01-19 12:38:16.29	260.94	30.22	
2025-01-19 12:38:16.50	261.03	30.22	
2025-01-19 12:38:16.70	261.11	30.23	
2025-01-19 12:38:16.90	261.19	30.23	
2025-01-19 12:38:17.11	261.28	30.24	
2025-01-19 12:38:17.31	261.36	30.24	
2025-01-19 12:38:17.51	261.44	30.24	
2025-01-19 12:38:17.72	261.52	30.25	
2025-01-19 12:38:17.92	261.61	30.25	
2025-01-19 12:38:18.12	261.69	30.25	
2025-01-19 12:38:18.32	261.77	30.26	
2025-01-19 12:38:18.53	261.86	30.26	
2025-01-19 12:38:18.73	261.94	30.26	
2025-01-19 12:38:18.93	262.02	30.27	
2025-01-19 12:38:19.14	262.10	30.27	
2025-01-19 12:38:19.34	262.19	30.27	
2025-01-19 12:38:19.54	262.27	30.28	
2025-01-19 12:38:19.75	262.35	30.28	
2025-01-19 12:38:19.95	262.44	30.28	
2025-01-19 12:38:20.15	262.52	30.29	
2025-01-19 12:38:20.36	262.60	30.29	
2025-01-19 12:38:20.56	262.69	30.29	
2025-01-19 12:38:20.76	262.77	30.29	
2025-01-19 12:38:20.97	262.85	30.30	
2025-01-19 12:38:21.17	262.94	30.30	
2025-01-19 12:38:21.37	263.02	30.30	
2025-01-19 12:38:21.57	263.10	30.30	
2025-01-19 12:38:21.78	263.18	30.31	
2025-01-19 12:38:21.98	263.27	30.31	
2025-01-19 12:38:22.18	263.35	30.31	
2025-01-19 12:38:22.39	263.43	30.31	
2025-01-19 12:38:22.59	263.52	30.32	
2025-01-19 12:38:22.79	263.60	30.32	
2025-01-19 12:38:23.00	263.68	30.32	
2025-01-19 12:38:23.20	263.77	30.32	
2025-01-19 12:38:23.40	263.85	30.32	
2025-01-19 12:38:23.61	263.93	30.33	
2025-01-19 12:38:23.81	264.02	30.33	
2025-01-19 12:38:24.01	264.10	30.33	
2025-01-19 12:38:24.22	264.19	30.33	
2025-01-19 12:38:24.42	264.27	30.33	
2025-01-19 12:38:24.62	264.35	30.33	
2025-01-19 12:38:24.82	264.43	30.34	
2025-01-19 12:38:25.03	264.52	30.34	
2025-01-19 12:38:25.23	264.60	30.34	
2025-01-19 12:38:25.43	264.68	30.34	
2025-01-19 12:38:25.64	264.77	30.34	
2025-01-19 12:38:25.84	264.85	30.34	
2025-01-19 12:38:26.04	264.93	30.34	
2025-01-19 12:38:26.25	265.02	30.34	
2025-01-19 12:38:26.45	265.10	30.35	
2025-01-19 12:38:26.65	265.18	30.35	
2025-01-19 12:38:26.86	265.27	30.35	
2025-01-19 12:38:27.06	265.35	30.35	
2025-01-19 12:38:27.26	265.43	30.35	
2025-01-19 12:38:27.47	265.52	30.35	
2025-01-19 12:38:27.67	265.60	30.35	
2025-01-19 12:38:27.87	265.68	30.35	
2025-01-19 12:38:28.07	265.77	30.35	
2025-01-19 12:38:28.28	265.85	30.35	
2025-01-19 12:38:28.48	265.93	30.35	
2025-01-19 12:38:28.68	266.02	30.35	
2025-01-19 12:38:28.89	266.10	30.35	
2025-01-19 12:38:29.09	266.18	30.35	
2025-01-19 12:38:29.29	266.27	30.35	
2025-01-19 12:38:29.50	266.35	30.35	
