passes_logs/2025/01/19/SPB_Silybum_02/SPB_Silybum_02__20250119_035848_SUOMI_NPP_rec.log

#Pass ID: 20250119_035848_SUOMI NPP
#Satellite: SUOMI NPP
#Configuration: NPP
#Start time: 2025-01-19 03:58:48

#Version: 2.0.20230423
#Station: SPB_Silybum_02
#Location: 30.233357 lon 59.946436 lat
#TLE: 1 37849U 11061A   25018.16218063  .00000203  00000+0  11733-3 0  9995
#TLE: 2 37849  98.7450 319.1107 0001555  36.1075 324.0206 14.19539838685362

#Time	Az	El	Level	Level2	SNR	BER	Gain	Gain2
2025-01-19 03:58:50.46	16.09	4.07	
2025-01-19 03:58:50.67	16.07	4.08	
2025-01-19 03:58:50.87	16.05	4.09	
2025-01-19 03:58:51.07	16.02	4.10	
2025-01-19 03:58:51.28	16.00	4.10	
2025-01-19 03:58:51.48	15.97	4.11	
2025-01-19 03:58:51.68	15.95	4.12	
2025-01-19 03:58:51.89	15.93	4.13	
2025-01-19 03:58:52.09	15.90	4.14	
2025-01-19 03:58:52.29	15.88	4.15	
2025-01-19 03:58:52.50	15.85	4.15	
2025-01-19 03:58:52.70	15.83	4.16	
2025-01-19 03:58:52.90	15.81	4.17	
2025-01-19 03:58:53.10	15.78	4.18	
2025-01-19 03:58:53.31	15.76	4.19	
2025-01-19 03:58:53.51	15.73	4.20	
2025-01-19 03:58:53.71	15.71	4.20	
2025-01-19 03:58:53.92	15.68	4.21	
2025-01-19 03:58:54.12	15.66	4.22	
2025-01-19 03:58:54.32	15.64	4.23	
2025-01-19 03:58:54.53	15.61	4.24	
2025-01-19 03:58:54.73	15.59	4.24	
2025-01-19 03:58:54.93	15.56	4.25	
2025-01-19 03:58:55.14	15.54	4.26	
2025-01-19 03:58:55.34	15.52	4.27	
2025-01-19 03:58:55.54	15.49	4.28	
2025-01-19 03:58:55.75	15.47	4.29	
2025-01-19 03:58:55.95	15.44	4.29	
2025-01-19 03:58:56.15	15.42	4.30	
2025-01-19 03:58:56.36	15.39	4.31	
2025-01-19 03:58:56.56	15.37	4.32	
2025-01-19 03:58:56.76	15.35	4.33	
2025-01-19 03:58:56.97	15.32	4.34	
2025-01-19 03:58:57.17	15.30	4.34	
2025-01-19 03:58:57.37	15.27	4.35	
2025-01-19 03:58:57.58	15.25	4.36	
2025-01-19 03:58:57.78	15.22	4.37	
2025-01-19 03:58:57.98	15.20	4.38	
2025-01-19 03:58:58.19	15.17	4.38	
2025-01-19 03:58:58.39	15.15	4.39	
2025-01-19 03:58:58.59	15.13	4.40	
2025-01-19 03:58:58.79	15.10	4.41	
2025-01-19 03:58:59.00	15.08	4.42	
2025-01-19 03:58:59.20	15.05	4.42	
2025-01-19 03:58:59.40	15.03	4.43	
2025-01-19 03:58:59.61	15.00	4.44	
2025-01-19 03:58:59.81	14.98	4.45	
2025-01-19 03:59:00.01	14.95	4.46	
2025-01-19 03:59:00.22	14.93	4.47	
2025-01-19 03:59:00.42	14.90	4.47	
2025-01-19 03:59:00.62	14.88	4.48	
2025-01-19 03:59:00.83	14.85	4.49	
2025-01-19 03:59:01.03	14.83	4.50	
2025-01-19 03:59:01.23	14.81	4.51	
2025-01-19 03:59:01.44	14.78	4.51	
2025-01-19 03:59:01.64	14.76	4.52	
2025-01-19 03:59:01.84	14.73	4.53	
2025-01-19 03:59:02.05	14.71	4.54	
2025-01-19 03:59:02.25	14.68	4.55	
2025-01-19 03:59:02.45	14.66	4.56	
2025-01-19 03:59:02.66	14.63	4.56	
2025-01-19 03:59:02.86	14.61	4.57	
2025-01-19 03:59:03.06	14.58	4.58	
2025-01-19 03:59:03.27	14.56	4.59	
2025-01-19 03:59:03.47	14.53	4.60	
2025-01-19 03:59:03.67	14.51	4.60	
2025-01-19 03:59:03.88	14.48	4.61	
2025-01-19 03:59:04.08	14.46	4.62	
2025-01-19 03:59:04.28	14.43	4.63	
2025-01-19 03:59:04.48	14.41	4.64	
2025-01-19 03:59:04.69	14.38	4.64	
2025-01-19 03:59:04.89	14.36	4.65	
2025-01-19 03:59:05.09	14.34	4.66	
2025-01-19 03:59:05.30	14.31	4.67	
2025-01-19 03:59:05.50	14.28	4.68	
2025-01-19 03:59:05.70	14.26	4.68	
2025-01-19 03:59:05.91	14.23	4.69	
2025-01-19 03:59:06.11	14.21	4.70	
2025-01-19 03:59:06.31	14.19	4.71	
2025-01-19 03:59:06.52	14.16	4.72	
2025-01-19 03:59:06.72	14.13	4.73	
2025-01-19 03:59:06.92	14.11	4.73	
2025-01-19 03:59:07.13	14.08	4.74	
2025-01-19 03:59:07.33	14.06	4.75	
2025-01-19 03:59:07.53	14.03	4.76	
2025-01-19 03:59:07.74	14.01	4.77	
2025-01-19 03:59:07.94	13.98	4.77	
2025-01-19 03:59:08.14	13.96	4.78	
2025-01-19 03:59:08.35	13.93	4.79	
2025-01-19 03:59:08.55	13.91	4.80	
2025-01-19 03:59:08.75	13.88	4.81	
2025-01-19 03:59:08.96	13.86	4.81	
2025-01-19 03:59:09.16	13.83	4.82	
2025-01-19 03:59:09.36	13.81	4.83	
2025-01-19 03:59:09.57	13.78	4.84	
2025-01-19 03:59:09.77	13.76	4.85	
2025-01-19 03:59:09.97	13.73	4.85	
2025-01-19 03:59:10.17	13.71	4.86	
2025-01-19 03:59:10.38	13.68	4.87	
2025-01-19 03:59:10.58	13.66	4.88	
2025-01-19 03:59:10.78	13.63	4.89	
2025-01-19 03:59:10.99	13.61	4.89	
2025-01-19 03:59:11.19	13.58	4.90	
2025-01-19 03:59:11.39	13.56	4.91	
2025-01-19 03:59:11.60	13.53	4.92	
2025-01-19 03:59:11.80	13.50	4.93	
2025-01-19 03:59:12.00	13.48	4.93	
2025-01-19 03:59:12.21	13.45	4.94	
2025-01-19 03:59:12.41	13.43	4.95	
2025-01-19 03:59:12.61	13.40	4.96	
2025-01-19 03:59:12.82	13.38	4.97	
2025-01-19 03:59:13.02	13.35	4.97	
2025-01-19 03:59:13.22	13.33	4.98	
2025-01-19 03:59:13.43	13.30	4.99	
2025-01-19 03:59:13.63	13.27	5.00	
2025-01-19 03:59:13.83	13.25	5.01	
2025-01-19 03:59:14.04	13.22	5.01	
2025-01-19 03:59:14.24	13.20	5.02	
2025-01-19 03:59:14.44	13.17	5.03	
2025-01-19 03:59:14.65	13.15	5.04	
2025-01-19 03:59:14.85	13.12	5.05	
2025-01-19 03:59:15.05	13.10	5.05	
2025-01-19 03:59:15.26	13.07	5.06	
2025-01-19 03:59:15.46	13.04	5.07	
2025-01-19 03:59:15.66	13.02	5.08	
2025-01-19 03:59:15.86	12.99	5.09	
2025-01-19 03:59:16.07	12.97	5.09	
2025-01-19 03:59:16.27	12.94	5.10	
2025-01-19 03:59:16.47	12.92	5.11	
2025-01-19 03:59:16.68	12.89	5.12	
2025-01-19 03:59:16.88	12.86	5.13	
2025-01-19 03:59:17.08	12.84	5.13	
2025-01-19 03:59:17.29	12.81	5.14	
2025-01-19 03:59:17.49	12.79	5.15	
2025-01-19 03:59:17.69	12.76	5.16	
2025-01-19 03:59:17.90	12.73	5.17	
2025-01-19 03:59:18.10	12.71	5.17	
2025-01-19 03:59:18.30	12.68	5.18	
2025-01-19 03:59:18.51	12.66	5.19	
2025-01-19 03:59:18.71	12.63	5.20	
2025-01-19 03:59:18.91	12.61	5.20	
2025-01-19 03:59:19.12	12.58	5.21	
2025-01-19 03:59:19.32	12.55	5.22	
2025-01-19 03:59:19.52	12.53	5.23	
2025-01-19 03:59:19.73	12.50	5.24	
2025-01-19 03:59:19.93	12.48	5.24	
2025-01-19 03:59:20.13	12.45	5.25	
2025-01-19 03:59:20.34	12.42	5.26	
2025-01-19 03:59:20.54	12.40	5.27	
2025-01-19 03:59:20.74	12.37	5.28	
2025-01-19 03:59:20.95	12.35	5.28	
2025-01-19 03:59:21.15	12.32	5.29	
2025-01-19 03:59:21.35	12.29	5.30	
2025-01-19 03:59:21.55	12.27	5.31	
2025-01-19 03:59:21.76	12.24	5.32	
2025-01-19 03:59:21.96	12.22	5.32	
2025-01-19 03:59:22.16	12.19	5.33	
2025-01-19 03:59:22.37	12.16	5.34	
2025-01-19 03:59:22.57	12.14	5.35	
2025-01-19 03:59:22.77	12.11	5.35	
2025-01-19 03:59:22.98	12.08	5.36	
2025-01-19 03:59:23.18	12.06	5.37	
2025-01-19 03:59:23.38	12.03	5.38	
2025-01-19 03:59:23.59	12.01	5.39	
2025-01-19 03:59:23.79	11.98	5.39	
2025-01-19 03:59:23.99	11.95	5.40	
2025-01-19 03:59:24.20	11.93	5.41	
2025-01-19 03:59:24.40	11.90	5.42	
2025-01-19 03:59:24.60	11.87	5.42	
2025-01-19 03:59:24.81	11.85	5.43	
2025-01-19 03:59:25.01	11.82	5.44	
2025-01-19 03:59:25.21	11.80	5.45	
2025-01-19 03:59:25.42	11.77	5.46	
2025-01-19 03:59:25.62	11.74	5.46	
2025-01-19 03:59:25.82	11.72	5.47	
2025-01-19 03:59:26.03	11.69	5.48	
2025-01-19 03:59:26.23	11.66	5.49	
2025-01-19 03:59:26.43	11.64	5.49	
2025-01-19 03:59:26.64	11.61	5.50	
2025-01-19 03:59:26.84	11.58	5.51	
2025-01-19 03:59:27.04	11.56	5.52	
2025-01-19 03:59:27.24	11.53	5.53	
2025-01-19 03:59:27.45	11.50	5.53	
2025-01-19 03:59:27.65	11.48	5.54	
2025-01-19 03:59:27.85	11.45	5.55	
2025-01-19 03:59:28.06	11.42	5.56	
2025-01-19 03:59:28.26	11.40	5.56	
2025-01-19 03:59:28.46	11.37	5.57	
2025-01-19 03:59:28.67	11.34	5.58	
2025-01-19 03:59:28.87	11.32	5.59	
2025-01-19 03:59:29.07	11.29	5.60	
2025-01-19 03:59:29.28	11.26	5.60	
2025-01-19 03:59:29.48	11.24	5.61	
2025-01-19 03:59:29.68	11.21	5.62	
2025-01-19 03:59:29.89	11.18	5.63	
2025-01-19 03:59:30.09	11.16	5.63	
2025-01-19 03:59:30.29	11.13	5.64	
2025-01-19 03:59:30.50	11.10	5.65	
2025-01-19 03:59:30.70	11.08	5.66	
2025-01-19 03:59:30.90	11.05	5.67	
2025-01-19 03:59:31.11	11.02	5.67	
2025-01-19 03:59:31.31	11.00	5.68	
2025-01-19 03:59:31.51	10.97	5.69	
2025-01-19 03:59:31.72	10.94	5.70	
2025-01-19 03:59:31.92	10.92	5.70	
2025-01-19 03:59:32.12	10.89	5.71	
2025-01-19 03:59:32.32	10.86	5.72	
2025-01-19 03:59:32.53	10.84	5.73	
2025-01-19 03:59:32.73	10.81	5.73	
2025-01-19 03:59:32.93	10.78	5.74	
2025-01-19 03:59:33.14	10.76	5.75	
2025-01-19 03:59:33.34	10.73	5.76	
2025-01-19 03:59:33.54	10.70	5.76	
2025-01-19 03:59:33.75	10.68	5.77	
2025-01-19 03:59:33.95	10.65	5.78	
2025-01-19 03:59:34.15	10.62	5.79	
2025-01-19 03:59:34.36	10.59	5.80	
2025-01-19 03:59:34.56	10.57	5.80	
2025-01-19 03:59:34.76	10.54	5.81	
2025-01-19 03:59:34.97	10.51	5.82	
2025-01-19 03:59:35.17	10.49	5.83	
2025-01-19 03:59:35.37	10.46	5.83	
2025-01-19 03:59:35.58	10.43	5.84	
2025-01-19 03:59:35.78	10.41	5.85	
2025-01-19 03:59:35.98	10.38	5.86	
2025-01-19 03:59:36.19	10.35	5.86	
2025-01-19 03:59:36.39	10.32	5.87	
2025-01-19 03:59:36.59	10.30	5.88	
2025-01-19 03:59:36.80	10.27	5.89	
2025-01-19 03:59:37.00	10.24	5.89	
2025-01-19 03:59:37.20	10.22	5.90	
2025-01-19 03:59:37.41	10.19	5.91	
2025-01-19 03:59:37.61	10.16	5.92	
2025-01-19 03:59:37.81	10.13	5.92	
2025-01-19 03:59:38.01	10.11	5.93	
2025-01-19 03:59:38.22	10.08	5.94	
2025-01-19 03:59:38.42	10.05	5.95	
2025-01-19 03:59:38.62	10.02	5.96	
2025-01-19 03:59:38.83	10.00	5.96	
2025-01-19 03:59:39.03	9.97	5.97	
2025-01-19 03:59:39.23	9.94	5.98	
2025-01-19 03:59:39.44	9.91	5.99	
2025-01-19 03:59:39.64	9.89	5.99	
2025-01-19 03:59:39.84	9.86	6.00	
2025-01-19 03:59:40.05	9.83	6.01	
2025-01-19 03:59:40.25	9.81	6.02	
2025-01-19 03:59:40.45	9.78	6.02	
2025-01-19 03:59:40.66	9.75	6.03	
2025-01-19 03:59:40.86	9.72	6.04	
2025-01-19 03:59:41.06	9.70	6.05	
2025-01-19 03:59:41.27	9.67	6.05	
2025-01-19 03:59:41.47	9.64	6.06	
2025-01-19 03:59:41.67	9.61	6.07	
2025-01-19 03:59:41.88	9.58	6.08	
2025-01-19 03:59:42.08	9.56	6.08	
2025-01-19 03:59:42.28	9.53	6.09	
2025-01-19 03:59:42.49	9.50	6.10	
2025-01-19 03:59:42.69	9.47	6.11	
2025-01-19 03:59:42.89	9.45	6.11	
2025-01-19 03:59:43.10	9.42	6.12	
2025-01-19 03:59:43.30	9.39	6.13	
2025-01-19 03:59:43.50	9.36	6.14	
2025-01-19 03:59:43.70	9.34	6.14	
2025-01-19 03:59:43.91	9.31	6.15	
2025-01-19 03:59:44.11	9.28	6.16	
2025-01-19 03:59:44.31	9.25	6.17	
2025-01-19 03:59:44.52	9.23	6.17	
2025-01-19 03:59:44.72	9.20	6.18	
2025-01-19 03:59:44.92	9.17	6.19	
2025-01-19 03:59:45.13	9.14	6.20	
2025-01-19 03:59:45.33	9.11	6.20	
2025-01-19 03:59:45.53	9.09	6.21	
2025-01-19 03:59:45.74	9.06	6.22	
2025-01-19 03:59:45.94	9.03	6.22	
2025-01-19 03:59:46.14	9.00	6.23	
2025-01-19 03:59:46.35	8.98	6.24	
2025-01-19 03:59:46.55	8.95	6.25	
2025-01-19 03:59:46.75	8.92	6.25	
2025-01-19 03:59:46.96	8.89	6.26	
2025-01-19 03:59:47.16	8.86	6.27	
2025-01-19 03:59:47.36	8.84	6.28	
2025-01-19 03:59:47.57	8.81	6.28	
2025-01-19 03:59:47.77	8.78	6.29	
2025-01-19 03:59:47.97	8.75	6.30	
2025-01-19 03:59:48.18	8.72	6.31	
2025-01-19 03:59:48.38	8.70	6.31	
2025-01-19 03:59:48.58	8.67	6.32	
2025-01-19 03:59:48.79	8.64	6.33	
2025-01-19 03:59:48.99	8.61	6.34	
2025-01-19 03:59:49.19	8.58	6.34	
2025-01-19 03:59:49.39	8.56	6.35	
2025-01-19 03:59:49.60	8.53	6.36	
2025-01-19 03:59:49.80	8.50	6.36	
2025-01-19 03:59:50.00	8.47	6.37	
2025-01-19 03:59:50.21	8.44	6.38	
2025-01-19 03:59:50.41	8.42	6.39	
2025-01-19 03:59:50.61	8.39	6.39	
2025-01-19 03:59:50.82	8.36	6.40	
2025-01-19 03:59:51.02	8.33	6.41	
2025-01-19 03:59:51.22	8.30	6.42	
2025-01-19 03:59:51.43	8.27	6.42	
2025-01-19 03:59:51.63	8.25	6.43	
2025-01-19 03:59:51.83	8.22	6.44	
2025-01-19 03:59:52.04	8.19	6.45	
2025-01-19 03:59:52.24	8.16	6.45	
2025-01-19 03:59:52.44	8.13	6.46	
2025-01-19 03:59:52.65	8.10	6.47	
2025-01-19 03:59:52.85	8.08	6.47	
2025-01-19 03:59:53.05	8.05	6.48	
2025-01-19 03:59:53.26	8.02	6.49	
2025-01-19 03:59:53.46	7.99	6.50	
2025-01-19 03:59:53.66	7.96	6.50	
2025-01-19 03:59:53.87	7.93	6.51	
2025-01-19 03:59:54.07	7.91	6.52	
2025-01-19 03:59:54.27	7.88	6.53	
2025-01-19 03:59:54.48	7.85	6.53	
2025-01-19 03:59:54.68	7.82	6.54	
2025-01-19 03:59:54.88	7.79	6.55	
2025-01-19 03:59:55.08	7.76	6.55	
2025-01-19 03:59:55.29	7.74	6.56	
2025-01-19 03:59:55.49	7.71	6.57	
2025-01-19 03:59:55.69	7.68	6.58	
2025-01-19 03:59:55.90	7.65	6.58	
2025-01-19 03:59:56.10	7.62	6.59	
2025-01-19 03:59:56.30	7.59	6.60	
2025-01-19 03:59:56.51	7.56	6.60	
2025-01-19 03:59:56.71	7.54	6.61	
2025-01-19 03:59:56.91	7.51	6.62	
2025-01-19 03:59:57.12	7.48	6.63	
2025-01-19 03:59:57.32	7.45	6.63	
2025-01-19 03:59:57.52	7.42	6.64	
2025-01-19 03:59:57.73	7.39	6.65	
2025-01-19 03:59:57.93	7.36	6.65	
2025-01-19 03:59:58.13	7.34	6.66	
2025-01-19 03:59:58.34	7.31	6.67	
2025-01-19 03:59:58.54	7.28	6.68	
2025-01-19 03:59:58.74	7.25	6.68	
2025-01-19 03:59:58.95	7.22	6.69	
2025-01-19 03:59:59.15	7.19	6.70	
2025-01-19 03:59:59.35	7.16	6.70	
2025-01-19 03:59:59.56	7.13	6.71	
2025-01-19 03:59:59.76	7.10	6.72	
2025-01-19 03:59:59.96	7.08	6.73	
2025-01-19 04:00:00.17	7.05	6.73	
2025-01-19 04:00:00.37	7.02	6.74	
2025-01-19 04:00:00.57	6.99	6.75	
2025-01-19 04:00:00.77	6.96	6.75	
2025-01-19 04:00:00.98	6.93	6.76	
2025-01-19 04:00:01.18	6.90	6.77	
2025-01-19 04:00:01.38	6.87	6.78	
2025-01-19 04:00:01.59	6.84	6.78	
2025-01-19 04:00:01.79	6.82	6.79	
2025-01-19 04:00:01.99	6.79	6.80	
2025-01-19 04:00:02.20	6.76	6.80	
2025-01-19 04:00:02.40	6.73	6.81	
2025-01-19 04:00:02.60	6.70	6.82	
2025-01-19 04:00:02.81	6.67	6.83	
2025-01-19 04:00:03.01	6.64	6.83	
2025-01-19 04:00:03.21	6.61	6.84	
2025-01-19 04:00:03.42	6.58	6.85	
2025-01-19 04:00:03.62	6.55	6.85	
2025-01-19 04:00:03.82	6.53	6.86	
2025-01-19 04:00:04.03	6.50	6.87	
2025-01-19 04:00:04.23	6.47	6.87	
2025-01-19 04:00:04.43	6.44	6.88	
2025-01-19 04:00:04.64	6.41	6.89	
2025-01-19 04:00:04.84	6.38	6.90	
2025-01-19 04:00:05.04	6.35	6.90	
2025-01-19 04:00:05.25	6.32	6.91	
2025-01-19 04:00:05.45	6.29	6.92	
2025-01-19 04:00:05.65	6.26	6.92	
2025-01-19 04:00:05.86	6.23	6.93	
2025-01-19 04:00:06.06	6.20	6.94	
2025-01-19 04:00:06.26	6.18	6.94	
2025-01-19 04:00:06.46	6.15	6.95	
2025-01-19 04:00:06.67	6.12	6.96	
2025-01-19 04:00:06.87	6.09	6.96	
2025-01-19 04:00:07.07	6.06	6.97	
2025-01-19 04:00:07.28	6.03	6.98	
2025-01-19 04:00:07.48	6.00	6.99	
2025-01-19 04:00:07.68	5.97	6.99	
2025-01-19 04:00:07.89	5.94	7.00	
2025-01-19 04:00:08.09	5.91	7.01	
2025-01-19 04:00:08.29	5.88	7.01	
2025-01-19 04:00:08.50	5.85	7.02	
2025-01-19 04:00:08.70	5.82	7.03	
2025-01-19 04:00:08.90	5.79	7.03	
2025-01-19 04:00:09.11	5.76	7.04	
2025-01-19 04:00:09.31	5.73	7.05	
2025-01-19 04:00:09.51	5.71	7.05	
2025-01-19 04:00:09.72	5.67	7.06	
2025-01-19 04:00:09.92	5.65	7.07	
2025-01-19 04:00:10.12	5.62	7.07	
2025-01-19 04:00:10.33	5.59	7.08	
2025-01-19 04:00:10.53	5.56	7.09	
2025-01-19 04:00:10.73	5.53	7.10	
2025-01-19 04:00:10.94	5.50	7.10	
2025-01-19 04:00:11.14	5.47	7.11	
2025-01-19 04:00:11.34	5.44	7.12	
2025-01-19 04:00:11.54	5.41	7.12	
2025-01-19 04:00:11.75	5.38	7.13	
2025-01-19 04:00:11.95	5.35	7.14	
2025-01-19 04:00:12.15	5.32	7.14	
2025-01-19 04:00:12.36	5.29	7.15	
2025-01-19 04:00:12.56	5.26	7.16	
2025-01-19 04:00:12.76	5.23	7.16	
2025-01-19 04:00:12.97	5.20	7.17	
2025-01-19 04:00:13.17	5.17	7.18	
2025-01-19 04:00:13.37	5.14	7.18	
2025-01-19 04:00:13.58	5.11	7.19	
2025-01-19 04:00:13.78	5.08	7.20	
2025-01-19 04:00:13.98	5.05	7.20	
2025-01-19 04:00:14.19	5.02	7.21	
2025-01-19 04:00:14.39	4.99	7.22	
2025-01-19 04:00:14.59	4.96	7.22	
2025-01-19 04:00:14.80	4.93	7.23	
2025-01-19 04:00:15.00	4.90	7.24	
2025-01-19 04:00:15.20	4.87	7.24	
2025-01-19 04:00:15.41	4.84	7.25	
2025-01-19 04:00:15.61	4.81	7.26	
2025-01-19 04:00:15.81	4.78	7.26	
2025-01-19 04:00:16.02	4.75	7.27	
2025-01-19 04:00:16.22	4.72	7.28	
2025-01-19 04:00:16.42	4.69	7.28	
2025-01-19 04:00:16.63	4.66	7.29	
2025-01-19 04:00:16.83	4.63	7.30	
2025-01-19 04:00:17.03	4.60	7.30	
2025-01-19 04:00:17.23	4.57	7.31	
2025-01-19 04:00:17.44	4.54	7.32	
2025-01-19 04:00:17.64	4.51	7.32	
2025-01-19 04:00:17.84	4.48	7.33	
2025-01-19 04:00:18.05	4.45	7.34	
2025-01-19 04:00:18.25	4.42	7.34	
2025-01-19 04:00:18.45	4.39	7.35	
2025-01-19 04:00:18.66	4.36	7.36	
2025-01-19 04:00:18.86	4.33	7.36	
2025-01-19 04:00:19.06	4.30	7.37	
2025-01-19 04:00:19.27	4.27	7.38	
2025-01-19 04:00:19.47	4.24	7.38	
2025-01-19 04:00:19.67	4.21	7.39	
2025-01-19 04:00:19.88	4.18	7.40	
2025-01-19 04:00:20.08	4.15	7.40	
2025-01-19 04:00:20.28	4.12	7.41	
2025-01-19 04:00:20.49	4.09	7.42	
2025-01-19 04:00:20.69	4.06	7.42	
2025-01-19 04:00:20.89	4.03	7.43	
2025-01-19 04:00:21.10	4.00	7.44	
2025-01-19 04:00:21.30	3.97	7.44	
2025-01-19 04:00:21.50	3.94	7.45	
2025-01-19 04:00:21.71	3.91	7.46	
2025-01-19 04:00:21.91	3.88	7.46	
2025-01-19 04:00:22.11	3.85	7.47	
2025-01-19 04:00:22.32	3.82	7.48	
2025-01-19 04:00:22.52	3.79	7.48	
2025-01-19 04:00:22.72	3.76	7.49	
2025-01-19 04:00:22.92	3.73	7.49	
2025-01-19 04:00:23.13	3.70	7.50	
2025-01-19 04:00:23.33	3.67	7.51	
2025-01-19 04:00:23.53	3.64	7.51	
2025-01-19 04:00:23.74	3.60	7.52	
2025-01-19 04:00:23.94	3.57	7.53	
2025-01-19 04:00:24.14	3.54	7.53	
2025-01-19 04:00:24.35	3.51	7.54	
2025-01-19 04:00:24.55	3.48	7.55	
2025-01-19 04:00:24.75	3.45	7.55	
2025-01-19 04:00:24.96	3.42	7.56	
2025-01-19 04:00:25.16	3.39	7.57	
2025-01-19 04:00:25.36	3.36	7.57	
2025-01-19 04:00:25.57	3.33	7.58	
2025-01-19 04:00:25.77	3.30	7.59	
2025-01-19 04:00:25.97	3.27	7.59	
2025-01-19 04:00:26.18	3.24	7.60	
2025-01-19 04:00:26.38	3.21	7.60	
2025-01-19 04:00:26.58	3.18	7.61	
2025-01-19 04:00:26.79	3.15	7.62	
2025-01-19 04:00:26.99	3.11	7.62	
2025-01-19 04:00:27.19	3.08	7.63	
2025-01-19 04:00:27.40	3.05	7.64	
2025-01-19 04:00:27.60	3.02	7.64	
2025-01-19 04:00:27.80	2.99	7.65	
2025-01-19 04:00:28.01	2.96	7.66	
2025-01-19 04:00:28.21	2.93	7.66	
2025-01-19 04:00:28.41	2.90	7.67	
2025-01-19 04:00:28.61	2.87	7.67	
2025-01-19 04:00:28.82	2.84	7.68	
2025-01-19 04:00:29.02	2.81	7.69	
2025-01-19 04:00:29.22	2.78	7.69	
2025-01-19 04:00:29.43	2.75	7.70	
2025-01-19 04:00:29.63	2.71	7.71	
2025-01-19 04:00:29.83	2.68	7.71	
2025-01-19 04:00:30.04	2.65	7.72	
2025-01-19 04:00:30.24	2.62	7.72	
2025-01-19 04:00:30.44	2.59	7.73	
2025-01-19 04:00:30.65	2.56	7.74	
2025-01-19 04:00:30.85	2.53	7.74	
2025-01-19 04:00:31.05	2.50	7.75	
2025-01-19 04:00:31.26	2.47	7.76	
2025-01-19 04:00:31.46	2.44	7.76	
2025-01-19 04:00:31.66	2.41	7.77	
2025-01-19 04:00:31.87	2.37	7.77	
2025-01-19 04:00:32.07	2.34	7.78	
2025-01-19 04:00:32.27	2.31	7.79	
2025-01-19 04:00:32.48	2.28	7.79	
2025-01-19 04:00:32.68	2.25	7.80	
2025-01-19 04:00:32.88	2.22	7.81	
2025-01-19 04:00:33.09	2.19	7.81	
2025-01-19 04:00:33.29	2.16	7.82	
2025-01-19 04:00:33.49	2.13	7.82	
2025-01-19 04:00:33.70	2.09	7.83	
2025-01-19 04:00:33.90	2.06	7.84	
2025-01-19 04:00:34.10	2.03	7.84	
2025-01-19 04:00:34.30	2.00	7.85	
2025-01-19 04:00:34.51	1.97	7.86	
2025-01-19 04:00:34.71	1.94	7.86	
2025-01-19 04:00:34.91	1.91	7.87	
2025-01-19 04:00:35.12	1.88	7.87	
2025-01-19 04:00:35.32	1.84	7.88	
2025-01-19 04:00:35.52	1.81	7.89	
2025-01-19 04:00:35.73	1.78	7.89	
2025-01-19 04:00:35.93	1.75	7.90	
2025-01-19 04:00:36.13	1.72	7.90	
2025-01-19 04:00:36.34	1.69	7.91	
2025-01-19 04:00:36.54	1.66	7.92	
2025-01-19 04:00:36.74	1.63	7.92	
2025-01-19 04:00:36.95	1.59	7.93	
2025-01-19 04:00:37.15	1.56	7.93	
2025-01-19 04:00:37.35	1.53	7.94	
2025-01-19 04:00:37.56	1.50	7.95	
2025-01-19 04:00:37.76	1.47	7.95	
2025-01-19 04:00:37.96	1.44	7.96	
2025-01-19 04:00:38.17	1.40	7.96	
2025-01-19 04:00:38.37	1.37	7.97	
2025-01-19 04:00:38.57	1.34	7.98	
2025-01-19 04:00:38.78	1.31	7.98	
2025-01-19 04:00:38.98	1.28	7.99	
2025-01-19 04:00:39.18	1.25	7.99	
2025-01-19 04:00:39.39	1.22	8.00	
2025-01-19 04:00:39.59	1.18	8.01	
2025-01-19 04:00:39.79	1.15	8.01	
2025-01-19 04:00:39.99	1.12	8.02	
2025-01-19 04:00:40.20	1.09	8.02	
2025-01-19 04:00:40.40	1.06	8.03	
2025-01-19 04:00:40.60	1.03	8.04	
2025-01-19 04:00:40.81	1.00	8.04	
2025-01-19 04:00:41.01	0.96	8.05	
2025-01-19 04:00:41.21	0.93	8.05	
2025-01-19 04:00:41.42	0.90	8.06	
2025-01-19 04:00:41.62	0.87	8.07	
2025-01-19 04:00:41.82	0.84	8.07	
2025-01-19 04:00:42.03	0.81	8.08	
2025-01-19 04:00:42.23	0.77	8.08	
2025-01-19 04:00:42.43	0.74	8.09	
2025-01-19 04:00:42.64	0.71	8.10	
2025-01-19 04:00:42.84	0.68	8.10	
2025-01-19 04:00:43.04	0.65	8.11	
2025-01-19 04:00:43.25	0.61	8.11	
2025-01-19 04:00:43.45	0.58	8.12	
2025-01-19 04:00:43.65	0.55	8.12	
2025-01-19 04:00:43.86	0.52	8.13	
2025-01-19 04:00:44.06	0.49	8.14	
2025-01-19 04:00:44.26	0.46	8.14	
2025-01-19 04:00:44.47	0.42	8.15	
2025-01-19 04:00:44.67	0.39	8.15	
2025-01-19 04:00:44.87	0.36	8.16	
2025-01-19 04:00:45.08	0.33	8.16	
2025-01-19 04:00:45.28	0.30	8.17	
2025-01-19 04:00:45.48	0.26	8.18	
2025-01-19 04:00:45.68	0.23	8.18	
2025-01-19 04:00:45.89	0.20	8.19	
2025-01-19 04:00:46.09	0.17	8.19	
2025-01-19 04:00:46.29	0.14	8.20	
2025-01-19 04:00:46.50	0.10	8.21	
2025-01-19 04:00:46.70	0.07	8.21	
2025-01-19 04:00:46.90	0.04	8.22	
2025-01-19 04:00:47.11	0.01	8.22	
2025-01-19 04:00:47.31	359.98	8.23	
2025-01-19 04:00:47.51	359.95	8.23	
2025-01-19 04:00:47.72	359.91	8.24	
2025-01-19 04:00:47.92	359.88	8.24	
2025-01-19 04:00:48.12	359.85	8.25	
2025-01-19 04:00:48.33	359.82	8.26	
2025-01-19 04:00:48.53	359.78	8.26	
2025-01-19 04:00:48.73	359.75	8.27	
2025-01-19 04:00:48.94	359.72	8.27	
2025-01-19 04:00:49.14	359.69	8.28	
2025-01-19 04:00:49.34	359.66	8.28	
2025-01-19 04:00:49.55	359.62	8.29	
2025-01-19 04:00:49.75	359.59	8.30	
2025-01-19 04:00:49.95	359.56	8.30	
2025-01-19 04:00:50.16	359.53	8.31	
2025-01-19 04:00:50.36	359.49	8.31	
2025-01-19 04:00:50.56	359.46	8.32	
2025-01-19 04:00:50.77	359.43	8.32	
2025-01-19 04:00:50.97	359.40	8.33	
2025-01-19 04:00:51.17	359.37	8.33	
2025-01-19 04:00:51.37	359.33	8.34	
2025-01-19 04:00:51.58	359.30	8.35	
2025-01-19 04:00:51.78	359.27	8.35	
2025-01-19 04:00:51.98	359.24	8.36	
2025-01-19 04:00:52.19	359.20	8.36	
2025-01-19 04:00:52.39	359.17	8.37	
2025-01-19 04:00:52.59	359.14	8.37	
2025-01-19 04:00:52.80	359.11	8.38	
2025-01-19 04:00:53.00	359.07	8.38	
2025-01-19 04:00:53.20	359.04	8.39	
2025-01-19 04:00:53.41	359.01	8.40	
2025-01-19 04:00:53.61	358.98	8.40	
2025-01-19 04:00:53.81	358.95	8.41	
2025-01-19 04:00:54.02	358.91	8.41	
2025-01-19 04:00:54.22	358.88	8.42	
2025-01-19 04:00:54.42	358.85	8.42	
2025-01-19 04:00:54.63	358.81	8.43	
2025-01-19 04:00:54.83	358.78	8.43	
2025-01-19 04:00:55.03	358.75	8.44	
2025-01-19 04:00:55.24	358.72	8.44	
2025-01-19 04:00:55.44	358.69	8.45	
2025-01-19 04:00:55.64	358.65	8.46	
2025-01-19 04:00:55.85	358.62	8.46	
2025-01-19 04:00:56.05	358.59	8.47	
2025-01-19 04:00:56.25	358.56	8.47	
2025-01-19 04:00:56.45	358.52	8.48	
2025-01-19 04:00:56.66	358.49	8.48	
2025-01-19 04:00:56.86	358.46	8.49	
2025-01-19 04:00:57.06	358.43	8.49	
2025-01-19 04:00:57.27	358.39	8.50	
2025-01-19 04:00:57.47	358.36	8.50	
2025-01-19 04:00:57.67	358.33	8.51	
2025-01-19 04:00:57.88	358.29	8.51	
2025-01-19 04:00:58.08	358.26	8.52	
2025-01-19 04:00:58.28	358.23	8.52	
2025-01-19 04:00:58.49	358.20	8.53	
2025-01-19 04:00:58.69	358.16	8.54	
2025-01-19 04:00:58.89	358.13	8.54	
2025-01-19 04:00:59.10	358.10	8.55	
2025-01-19 04:00:59.30	358.06	8.55	
2025-01-19 04:00:59.50	358.03	8.56	
2025-01-19 04:00:59.71	358.00	8.56	
2025-01-19 04:00:59.91	357.97	8.57	
2025-01-19 04:01:00.11	357.93	8.57	
2025-01-19 04:01:00.32	357.90	8.58	
2025-01-19 04:01:00.52	357.87	8.58	
2025-01-19 04:01:00.72	357.84	8.59	
2025-01-19 04:01:00.93	357.80	8.59	
2025-01-19 04:01:01.13	357.77	8.60	
2025-01-19 04:01:01.33	357.74	8.60	
2025-01-19 04:01:01.54	357.70	8.61	
2025-01-19 04:01:01.74	357.67	8.61	
2025-01-19 04:01:01.94	357.64	8.62	
2025-01-19 04:01:02.14	357.61	8.62	
2025-01-19 04:01:02.35	357.57	8.63	
2025-01-19 04:01:02.55	357.54	8.63	
2025-01-19 04:01:02.75	357.51	8.64	
2025-01-19 04:01:02.96	357.47	8.64	
2025-01-19 04:01:03.16	357.44	8.65	
2025-01-19 04:01:03.36	357.41	8.65	
2025-01-19 04:01:03.57	357.37	8.66	
2025-01-19 04:01:03.77	357.34	8.66	
2025-01-19 04:01:03.97	357.31	8.67	
2025-01-19 04:01:04.18	357.27	8.68	
2025-01-19 04:01:04.38	357.24	8.68	
2025-01-19 04:01:04.58	357.21	8.69	
2025-01-19 04:01:04.79	357.18	8.69	
2025-01-19 04:01:04.99	357.14	8.70	
2025-01-19 04:01:05.19	357.11	8.70	
2025-01-19 04:01:05.40	357.08	8.71	
2025-01-19 04:01:05.60	357.04	8.71	
2025-01-19 04:01:05.80	357.01	8.72	
2025-01-19 04:01:06.01	356.98	8.72	
2025-01-19 04:01:06.21	356.94	8.73	
2025-01-19 04:01:06.41	356.91	8.73	
2025-01-19 04:01:06.62	356.88	8.74	
2025-01-19 04:01:06.82	356.84	8.74	
2025-01-19 04:01:07.02	356.81	8.75	
2025-01-19 04:01:07.23	356.78	8.75	
2025-01-19 04:01:07.43	356.74	8.76	
2025-01-19 04:01:07.63	356.71	8.76	
2025-01-19 04:01:07.83	356.68	8.76	
2025-01-19 04:01:08.04	356.64	8.77	
2025-01-19 04:01:08.24	356.61	8.77	
2025-01-19 04:01:08.44	356.58	8.78	
2025-01-19 04:01:08.65	356.54	8.78	
2025-01-19 04:01:08.85	356.51	8.79	
2025-01-19 04:01:09.05	356.48	8.79	
2025-01-19 04:01:09.26	356.44	8.80	
2025-01-19 04:01:09.46	356.41	8.80	
2025-01-19 04:01:09.66	356.38	8.81	
2025-01-19 04:01:09.87	356.34	8.81	
2025-01-19 04:01:10.07	356.31	8.82	
2025-01-19 04:01:10.27	356.28	8.82	
2025-01-19 04:01:10.48	356.24	8.83	
2025-01-19 04:01:10.68	356.21	8.83	
2025-01-19 04:01:10.88	356.18	8.84	
2025-01-19 04:01:11.09	356.14	8.84	
2025-01-19 04:01:11.29	356.11	8.85	
2025-01-19 04:01:11.49	356.08	8.85	
2025-01-19 04:01:11.70	356.04	8.86	
2025-01-19 04:01:11.90	356.01	8.86	
2025-01-19 04:01:12.10	355.98	8.87	
2025-01-19 04:01:12.31	355.94	8.87	
2025-01-19 04:01:12.51	355.91	8.88	
2025-01-19 04:01:12.71	355.88	8.88	
2025-01-19 04:01:12.92	355.84	8.89	
2025-01-19 04:01:13.12	355.81	8.89	
2025-01-19 04:01:13.32	355.78	8.89	
2025-01-19 04:01:13.52	355.74	8.90	
2025-01-19 04:01:13.73	355.71	8.90	
2025-01-19 04:01:13.93	355.68	8.91	
2025-01-19 04:01:14.13	355.64	8.91	
2025-01-19 04:01:14.34	355.61	8.92	
2025-01-19 04:01:14.54	355.57	8.92	
2025-01-19 04:01:14.74	355.54	8.93	
2025-01-19 04:01:14.95	355.51	8.93	
2025-01-19 04:01:15.15	355.47	8.94	
2025-01-19 04:01:15.35	355.44	8.94	
2025-01-19 04:01:15.56	355.41	8.95	
2025-01-19 04:01:15.76	355.37	8.95	
2025-01-19 04:01:15.96	355.34	8.95	
2025-01-19 04:01:16.17	355.30	8.96	
2025-01-19 04:01:16.37	355.27	8.96	
2025-01-19 04:01:16.57	355.24	8.97	
2025-01-19 04:01:16.78	355.20	8.97	
2025-01-19 04:01:16.98	355.17	8.98	
2025-01-19 04:01:17.18	355.14	8.98	
2025-01-19 04:01:17.39	355.10	8.99	
2025-01-19 04:01:17.59	355.07	8.99	
2025-01-19 04:01:17.79	355.03	9.00	
2025-01-19 04:01:18.00	355.00	9.00	
2025-01-19 04:01:18.20	354.97	9.00	
2025-01-19 04:01:18.40	354.93	9.01	
2025-01-19 04:01:18.61	354.90	9.01	
2025-01-19 04:01:18.81	354.86	9.02	
2025-01-19 04:01:19.01	354.83	9.02	
2025-01-19 04:01:19.21	354.80	9.03	
2025-01-19 04:01:19.42	354.76	9.03	
2025-01-19 04:01:19.62	354.73	9.04	
2025-01-19 04:01:19.82	354.70	9.04	
2025-01-19 04:01:20.03	354.66	9.04	
2025-01-19 04:01:20.23	354.63	9.05	
2025-01-19 04:01:20.43	354.59	9.05	
2025-01-19 04:01:20.64	354.56	9.06	
2025-01-19 04:01:20.84	354.53	9.06	
2025-01-19 04:01:21.04	354.49	9.07	
2025-01-19 04:01:21.25	354.46	9.07	
2025-01-19 04:01:21.45	354.42	9.08	
2025-01-19 04:01:21.65	354.39	9.08	
2025-01-19 04:01:21.86	354.36	9.08	
2025-01-19 04:01:22.06	354.32	9.09	
2025-01-19 04:01:22.26	354.29	9.09	
2025-01-19 04:01:22.47	354.25	9.10	
2025-01-19 04:01:22.67	354.22	9.10	
2025-01-19 04:01:22.87	354.19	9.11	
2025-01-19 04:01:23.08	354.15	9.11	
2025-01-19 04:01:23.28	354.12	9.11	
2025-01-19 04:01:23.48	354.08	9.12	
2025-01-19 04:01:23.69	354.05	9.12	
2025-01-19 04:01:23.89	354.02	9.13	
2025-01-19 04:01:24.09	353.98	9.13	
2025-01-19 04:01:24.30	353.95	9.14	
2025-01-19 04:01:24.50	353.91	9.14	
2025-01-19 04:01:24.70	353.88	9.14	
2025-01-19 04:01:24.90	353.85	9.15	
2025-01-19 04:01:25.11	353.81	9.15	
2025-01-19 04:01:25.31	353.78	9.16	
2025-01-19 04:01:25.51	353.74	9.16	
2025-01-19 04:01:25.72	353.71	9.16	
2025-01-19 04:01:25.92	353.67	9.17	
2025-01-19 04:01:26.12	353.64	9.17	
2025-01-19 04:01:26.33	353.60	9.18	
2025-01-19 04:01:26.53	353.57	9.18	
2025-01-19 04:01:26.73	353.54	9.19	
2025-01-19 04:01:26.94	353.50	9.19	
2025-01-19 04:01:27.14	353.47	9.19	
2025-01-19 04:01:27.34	353.43	9.20	
2025-01-19 04:01:27.55	353.40	9.20	
2025-01-19 04:01:27.75	353.37	9.21	
2025-01-19 04:01:27.95	353.33	9.21	
2025-01-19 04:01:28.16	353.30	9.21	
2025-01-19 04:01:28.36	353.26	9.22	
2025-01-19 04:01:28.56	353.23	9.22	
2025-01-19 04:01:28.77	353.19	9.23	
2025-01-19 04:01:28.97	353.16	9.23	
2025-01-19 04:01:29.17	353.13	9.23	
2025-01-19 04:01:29.38	353.09	9.24	
2025-01-19 04:01:29.58	353.06	9.24	
2025-01-19 04:01:29.78	353.02	9.25	
2025-01-19 04:01:29.99	352.99	9.25	
2025-01-19 04:01:30.19	352.95	9.25	
2025-01-19 04:01:30.39	352.92	9.26	
2025-01-19 04:01:30.59	352.88	9.26	
2025-01-19 04:01:30.80	352.85	9.27	
2025-01-19 04:01:31.00	352.82	9.27	
2025-01-19 04:01:31.20	352.78	9.27	
2025-01-19 04:01:31.41	352.75	9.28	
2025-01-19 04:01:31.61	352.71	9.28	
2025-01-19 04:01:31.81	352.68	9.29	
2025-01-19 04:01:32.02	352.64	9.29	
2025-01-19 04:01:32.22	352.61	9.29	
2025-01-19 04:01:32.42	352.57	9.30	
2025-01-19 04:01:32.63	352.54	9.30	
2025-01-19 04:01:32.83	352.50	9.30	
2025-01-19 04:01:33.03	352.47	9.31	
2025-01-19 04:01:33.24	352.44	9.31	
2025-01-19 04:01:33.44	352.40	9.32	
2025-01-19 04:01:33.64	352.37	9.32	
2025-01-19 04:01:33.85	352.33	9.32	
2025-01-19 04:01:34.05	352.30	9.33	
2025-01-19 04:01:34.25	352.26	9.33	
2025-01-19 04:01:34.46	352.23	9.34	
2025-01-19 04:01:34.66	352.19	9.34	
2025-01-19 04:01:34.86	352.16	9.34	
2025-01-19 04:01:35.07	352.12	9.35	
2025-01-19 04:01:35.27	352.09	9.35	
2025-01-19 04:01:35.47	352.06	9.35	
2025-01-19 04:01:35.67	352.02	9.36	
2025-01-19 04:01:35.88	351.99	9.36	
2025-01-19 04:01:36.08	351.95	9.36	
2025-01-19 04:01:36.28	351.92	9.37	
2025-01-19 04:01:36.49	351.88	9.37	
2025-01-19 04:01:36.69	351.85	9.38	
2025-01-19 04:01:36.89	351.81	9.38	
2025-01-19 04:01:37.10	351.78	9.38	
2025-01-19 04:01:37.30	351.74	9.39	
2025-01-19 04:01:37.50	351.71	9.39	
2025-01-19 04:01:37.71	351.67	9.39	
2025-01-19 04:01:37.91	351.64	9.40	
2025-01-19 04:01:38.11	351.60	9.40	
2025-01-19 04:01:38.32	351.57	9.41	
2025-01-19 04:01:38.52	351.53	9.41	
2025-01-19 04:01:38.72	351.50	9.41	
2025-01-19 04:01:38.93	351.46	9.42	
2025-01-19 04:01:39.13	351.43	9.42	
2025-01-19 04:01:39.33	351.40	9.42	
2025-01-19 04:01:39.54	351.36	9.43	
2025-01-19 04:01:39.74	351.32	9.43	
2025-01-19 04:01:39.94	351.29	9.43	
2025-01-19 04:01:40.15	351.25	9.44	
2025-01-19 04:01:40.35	351.22	9.44	
2025-01-19 04:01:40.55	351.19	9.44	
2025-01-19 04:01:40.76	351.15	9.45	
2025-01-19 04:01:40.96	351.12	9.45	
2025-01-19 04:01:41.16	351.08	9.45	
2025-01-19 04:01:41.36	351.05	9.46	
2025-01-19 04:01:41.57	351.01	9.46	
2025-01-19 04:01:41.77	350.98	9.46	
2025-01-19 04:01:41.97	350.94	9.47	
2025-01-19 04:01:42.18	350.91	9.47	
2025-01-19 04:01:42.38	350.87	9.47	
2025-01-19 04:01:42.58	350.84	9.48	
2025-01-19 04:01:42.79	350.80	9.48	
2025-01-19 04:01:42.99	350.77	9.48	
2025-01-19 04:01:43.19	350.73	9.49	
2025-01-19 04:01:43.40	350.70	9.49	
2025-01-19 04:01:43.60	350.66	9.49	
2025-01-19 04:01:43.80	350.63	9.50	
2025-01-19 04:01:44.01	350.59	9.50	
2025-01-19 04:01:44.21	350.56	9.50	
2025-01-19 04:01:44.41	350.52	9.51	
2025-01-19 04:01:44.62	350.49	9.51	
2025-01-19 04:01:44.82	350.45	9.51	
2025-01-19 04:01:45.02	350.42	9.52	
2025-01-19 04:01:45.23	350.38	9.52	
2025-01-19 04:01:45.43	350.35	9.52	
2025-01-19 04:01:45.63	350.31	9.53	
2025-01-19 04:01:45.84	350.28	9.53	
2025-01-19 04:01:46.04	350.24	9.53	
2025-01-19 04:01:46.24	350.21	9.54	
2025-01-19 04:01:46.45	350.17	9.54	
2025-01-19 04:01:46.65	350.14	9.54	
2025-01-19 04:01:46.85	350.10	9.55	
2025-01-19 04:01:47.05	350.07	9.55	
2025-01-19 04:01:47.26	350.03	9.55	
2025-01-19 04:01:47.46	349.99	9.56	
2025-01-19 04:01:47.66	349.96	9.56	
2025-01-19 04:01:47.87	349.92	9.56	
2025-01-19 04:01:48.07	349.89	9.57	
2025-01-19 04:01:48.27	349.85	9.57	
2025-01-19 04:01:48.48	349.82	9.57	
2025-01-19 04:01:48.68	349.78	9.57	
2025-01-19 04:01:48.88	349.75	9.58	
2025-01-19 04:01:49.09	349.71	9.58	
2025-01-19 04:01:49.29	349.68	9.58	
2025-01-19 04:01:49.49	349.64	9.59	
2025-01-19 04:01:49.70	349.61	9.59	
2025-01-19 04:01:49.90	349.57	9.59	
2025-01-19 04:01:50.10	349.54	9.60	
2025-01-19 04:01:50.31	349.50	9.60	
2025-01-19 04:01:50.51	349.47	9.60	
2025-01-19 04:01:50.71	349.43	9.61	
2025-01-19 04:01:50.92	349.40	9.61	
2025-01-19 04:01:51.12	349.36	9.61	
2025-01-19 04:01:51.32	349.33	9.61	
2025-01-19 04:01:51.53	349.29	9.62	
2025-01-19 04:01:51.73	349.25	9.62	
2025-01-19 04:01:51.93	349.22	9.62	
2025-01-19 04:01:52.14	349.18	9.63	
2025-01-19 04:01:52.34	349.15	9.63	
2025-01-19 04:01:52.54	349.11	9.63	
2025-01-19 04:01:52.74	349.08	9.63	
2025-01-19 04:01:52.95	349.04	9.64	
2025-01-19 04:01:53.15	349.01	9.64	
2025-01-19 04:01:53.35	348.97	9.64	
2025-01-19 04:01:53.56	348.94	9.65	
2025-01-19 04:01:53.76	348.90	9.65	
2025-01-19 04:01:53.96	348.87	9.65	
2025-01-19 04:01:54.17	348.83	9.65	
2025-01-19 04:01:54.37	348.80	9.66	
2025-01-19 04:01:54.57	348.76	9.66	
2025-01-19 04:01:54.78	348.72	9.66	
2025-01-19 04:01:54.98	348.69	9.67	
2025-01-19 04:01:55.18	348.65	9.67	
2025-01-19 04:01:55.39	348.62	9.67	
2025-01-19 04:01:55.59	348.58	9.67	
2025-01-19 04:01:55.79	348.55	9.68	
2025-01-19 04:01:56.00	348.51	9.68	
2025-01-19 04:01:56.20	348.48	9.68	
2025-01-19 04:01:56.40	348.44	9.68	
2025-01-19 04:01:56.61	348.40	9.69	
2025-01-19 04:01:56.81	348.37	9.69	
2025-01-19 04:01:57.01	348.33	9.69	
2025-01-19 04:01:57.22	348.30	9.70	
2025-01-19 04:01:57.42	348.26	9.70	
2025-01-19 04:01:57.62	348.23	9.70	
2025-01-19 04:01:57.83	348.19	9.70	
2025-01-19 04:01:58.03	348.16	9.71	
2025-01-19 04:01:58.23	348.12	9.71	
2025-01-19 04:01:58.43	348.09	9.71	
2025-01-19 04:01:58.64	348.05	9.71	
2025-01-19 04:01:58.84	348.01	9.72	
2025-01-19 04:01:59.04	347.98	9.72	
2025-01-19 04:01:59.25	347.94	9.72	
2025-01-19 04:01:59.45	347.91	9.72	
2025-01-19 04:01:59.65	347.87	9.73	
2025-01-19 04:01:59.86	347.84	9.73	
2025-01-19 04:02:00.06	347.80	9.73	
2025-01-19 04:02:00.26	347.77	9.73	
2025-01-19 04:02:00.47	347.73	9.74	
2025-01-19 04:02:00.67	347.69	9.74	
2025-01-19 04:02:00.87	347.66	9.74	
2025-01-19 04:02:01.08	347.62	9.74	
2025-01-19 04:02:01.28	347.59	9.75	
2025-01-19 04:02:01.48	347.55	9.75	
2025-01-19 04:02:01.69	347.52	9.75	
2025-01-19 04:02:01.89	347.48	9.75	
2025-01-19 04:02:02.09	347.45	9.76	
2025-01-19 04:02:02.30	347.41	9.76	
2025-01-19 04:02:02.50	347.37	9.76	
2025-01-19 04:02:02.70	347.34	9.76	
2025-01-19 04:02:02.91	347.30	9.77	
2025-01-19 04:02:03.11	347.27	9.77	
2025-01-19 04:02:03.31	347.23	9.77	
2025-01-19 04:02:03.51	347.20	9.77	
2025-01-19 04:02:03.72	347.16	9.78	
2025-01-19 04:02:03.92	347.12	9.78	
2025-01-19 04:02:04.12	347.09	9.78	
2025-01-19 04:02:04.33	347.05	9.78	
2025-01-19 04:02:04.53	347.02	9.78	
2025-01-19 04:02:04.73	346.98	9.79	
2025-01-19 04:02:04.94	346.94	9.79	
2025-01-19 04:02:05.14	346.91	9.79	
2025-01-19 04:02:05.34	346.87	9.79	
2025-01-19 04:02:05.55	346.84	9.80	
2025-01-19 04:02:05.75	346.80	9.80	
2025-01-19 04:02:05.95	346.77	9.80	
2025-01-19 04:02:06.16	346.73	9.80	
2025-01-19 04:02:06.36	346.69	9.80	
2025-01-19 04:02:06.56	346.66	9.81	
2025-01-19 04:02:06.77	346.62	9.81	
2025-01-19 04:02:06.97	346.59	9.81	
2025-01-19 04:02:07.17	346.55	9.81	
2025-01-19 04:02:07.38	346.52	9.82	
2025-01-19 04:02:07.58	346.48	9.82	
2025-01-19 04:02:07.78	346.44	9.82	
2025-01-19 04:02:07.99	346.41	9.82	
2025-01-19 04:02:08.19	346.37	9.82	
2025-01-19 04:02:08.39	346.34	9.83	
2025-01-19 04:02:08.60	346.30	9.83	
2025-01-19 04:02:08.80	346.26	9.83	
2025-01-19 04:02:09.00	346.23	9.83	
2025-01-19 04:02:09.21	346.19	9.83	
2025-01-19 04:02:09.41	346.16	9.84	
2025-01-19 04:02:09.61	346.12	9.84	
2025-01-19 04:02:09.81	346.09	9.84	
2025-01-19 04:02:10.02	346.05	9.84	
2025-01-19 04:02:10.22	346.01	9.84	
2025-01-19 04:02:10.42	345.98	9.85	
2025-01-19 04:02:10.63	345.94	9.85	
2025-01-19 04:02:10.83	345.91	9.85	
2025-01-19 04:02:11.03	345.87	9.85	
2025-01-19 04:02:11.24	345.83	9.85	
2025-01-19 04:02:11.44	345.80	9.86	
2025-01-19 04:02:11.64	345.76	9.86	
2025-01-19 04:02:11.85	345.73	9.86	
2025-01-19 04:02:12.05	345.69	9.86	
2025-01-19 04:02:12.25	345.66	9.86	
2025-01-19 04:02:12.46	345.62	9.87	
2025-01-19 04:02:12.66	345.58	9.87	
2025-01-19 04:02:12.86	345.55	9.87	
2025-01-19 04:02:13.07	345.51	9.87	
2025-01-19 04:02:13.27	345.48	9.87	
2025-01-19 04:02:13.47	345.44	9.87	
2025-01-19 04:02:13.68	345.40	9.88	
2025-01-19 04:02:13.88	345.37	9.88	
2025-01-19 04:02:14.08	345.33	9.88	
2025-01-19 04:02:14.29	345.29	9.88	
2025-01-19 04:02:14.49	345.26	9.88	
2025-01-19 04:02:14.69	345.22	9.89	
2025-01-19 04:02:14.89	345.19	9.89	
2025-01-19 04:02:15.10	345.15	9.89	
2025-01-19 04:02:15.30	345.12	9.89	
2025-01-19 04:02:15.50	345.08	9.89	
2025-01-19 04:02:15.71	345.04	9.89	
2025-01-19 04:02:15.91	345.01	9.90	
2025-01-19 04:02:16.11	344.97	9.90	
2025-01-19 04:02:16.32	344.94	9.90	
2025-01-19 04:02:16.52	344.90	9.90	
2025-01-19 04:02:16.72	344.86	9.90	
2025-01-19 04:02:16.93	344.83	9.90	
2025-01-19 04:02:17.13	344.79	9.91	
2025-01-19 04:02:17.33	344.76	9.91	
2025-01-19 04:02:17.54	344.72	9.91	
2025-01-19 04:02:17.74	344.68	9.91	
2025-01-19 04:02:17.94	344.65	9.91	
2025-01-19 04:02:18.15	344.61	9.91	
2025-01-19 04:02:18.35	344.58	9.92	
2025-01-19 04:02:18.55	344.54	9.92	
2025-01-19 04:02:18.76	344.50	9.92	
2025-01-19 04:02:18.96	344.47	9.92	
2025-01-19 04:02:19.16	344.43	9.92	
2025-01-19 04:02:19.37	344.39	9.92	
2025-01-19 04:02:19.57	344.36	9.92	
2025-01-19 04:02:19.77	344.32	9.93	
2025-01-19 04:02:19.98	344.29	9.93	
2025-01-19 04:02:20.18	344.25	9.93	
2025-01-19 04:02:20.38	344.22	9.93	
2025-01-19 04:02:20.58	344.18	9.93	
2025-01-19 04:02:20.79	344.14	9.93	
2025-01-19 04:02:20.99	344.11	9.93	
2025-01-19 04:02:21.19	344.07	9.94	
2025-01-19 04:02:21.40	344.03	9.94	
2025-01-19 04:02:21.60	344.00	9.94	
2025-01-19 04:02:21.80	343.96	9.94	
2025-01-19 04:02:22.01	343.93	9.94	
2025-01-19 04:02:22.21	343.89	9.94	
2025-01-19 04:02:22.41	343.85	9.94	
2025-01-19 04:02:22.62	343.82	9.95	
2025-01-19 04:02:22.82	343.78	9.95	
2025-01-19 04:02:23.02	343.75	9.95	
2025-01-19 04:02:23.23	343.71	9.95	
2025-01-19 04:02:23.43	343.67	9.95	
2025-01-19 04:02:23.63	343.64	9.95	
2025-01-19 04:02:23.84	343.60	9.95	
2025-01-19 04:02:24.04	343.56	9.95	
2025-01-19 04:02:24.24	343.53	9.96	
2025-01-19 04:02:24.45	343.49	9.96	
2025-01-19 04:02:24.65	343.46	9.96	
2025-01-19 04:02:24.85	343.42	9.96	
2025-01-19 04:02:25.06	343.38	9.96	
2025-01-19 04:02:25.26	343.35	9.96	
2025-01-19 04:02:25.46	343.31	9.96	
2025-01-19 04:02:25.67	343.27	9.96	
2025-01-19 04:02:25.87	343.24	9.97	
2025-01-19 04:02:26.07	343.20	9.97	
2025-01-19 04:02:26.27	343.17	9.97	
2025-01-19 04:02:26.48	343.13	9.97	
2025-01-19 04:02:26.68	343.09	9.97	
2025-01-19 04:02:26.88	343.06	9.97	
2025-01-19 04:02:27.09	343.02	9.97	
2025-01-19 04:02:27.29	342.99	9.97	
2025-01-19 04:02:27.49	342.95	9.97	
2025-01-19 04:02:27.70	342.91	9.98	
2025-01-19 04:02:27.90	342.88	9.98	
2025-01-19 04:02:28.10	342.84	9.98	
2025-01-19 04:02:28.31	342.80	9.98	
2025-01-19 04:02:28.51	342.77	9.98	
2025-01-19 04:02:28.71	342.73	9.98	
2025-01-19 04:02:28.92	342.70	9.98	
2025-01-19 04:02:29.12	342.66	9.98	
2025-01-19 04:02:29.32	342.62	9.98	
2025-01-19 04:02:29.53	342.59	9.98	
2025-01-19 04:02:29.73	342.55	9.99	
2025-01-19 04:02:29.93	342.52	9.99	
2025-01-19 04:02:30.14	342.48	9.99	
2025-01-19 04:02:30.34	342.44	9.99	
2025-01-19 04:02:30.54	342.41	9.99	
2025-01-19 04:02:30.75	342.37	9.99	
2025-01-19 04:02:30.95	342.33	9.99	
2025-01-19 04:02:31.15	342.30	9.99	
2025-01-19 04:02:31.35	342.26	9.99	
2025-01-19 04:02:31.56	342.22	9.99	
2025-01-19 04:02:31.76	342.19	9.99	
2025-01-19 04:02:31.96	342.15	10.00	
2025-01-19 04:02:32.17	342.12	10.00	
2025-01-19 04:02:32.37	342.08	10.00	
2025-01-19 04:02:32.57	342.04	10.00	
2025-01-19 04:02:32.78	342.01	10.00	
2025-01-19 04:02:32.98	341.97	10.00	
2025-01-19 04:02:33.18	341.94	10.00	
2025-01-19 04:02:33.39	341.90	10.00	
2025-01-19 04:02:33.59	341.86	10.00	
2025-01-19 04:02:33.79	341.83	10.00	
2025-01-19 04:02:34.00	341.79	10.00	
2025-01-19 04:02:34.20	341.75	10.00	
2025-01-19 04:02:34.40	341.72	10.00	
2025-01-19 04:02:34.61	341.68	10.01	
2025-01-19 04:02:34.81	341.64	10.01	
2025-01-19 04:02:35.01	341.61	10.01	
2025-01-19 04:02:35.22	341.57	10.01	
2025-01-19 04:02:35.42	341.54	10.01	
2025-01-19 04:02:35.62	341.50	10.01	
2025-01-19 04:02:35.83	341.46	10.01	
2025-01-19 04:02:36.03	341.43	10.01	
2025-01-19 04:02:36.23	341.39	10.01	
2025-01-19 04:02:36.44	341.35	10.01	
2025-01-19 04:02:36.64	341.32	10.01	
2025-01-19 04:02:36.84	341.28	10.01	
2025-01-19 04:02:37.05	341.24	10.01	
2025-01-19 04:02:37.25	341.21	10.01	
2025-01-19 04:02:37.45	341.17	10.01	
2025-01-19 04:02:37.65	341.14	10.01	
2025-01-19 04:02:37.86	341.10	10.02	
2025-01-19 04:02:38.06	341.06	10.02	
2025-01-19 04:02:38.26	341.03	10.02	
2025-01-19 04:02:38.47	340.99	10.02	
2025-01-19 04:02:38.67	340.96	10.02	
2025-01-19 04:02:38.87	340.92	10.02	
2025-01-19 04:02:39.08	340.88	10.02	
2025-01-19 04:02:39.28	340.85	10.02	
2025-01-19 04:02:39.48	340.81	10.02	
2025-01-19 04:02:39.69	340.77	10.02	
2025-01-19 04:02:39.89	340.74	10.02	
2025-01-19 04:02:40.09	340.70	10.02	
2025-01-19 04:02:40.30	340.66	10.02	
2025-01-19 04:02:40.50	340.63	10.02	
2025-01-19 04:02:40.70	340.59	10.02	
2025-01-19 04:02:40.91	340.55	10.02	
2025-01-19 04:02:41.11	340.52	10.02	
2025-01-19 04:02:41.31	340.48	10.02	
2025-01-19 04:02:41.52	340.45	10.02	
2025-01-19 04:02:41.72	340.41	10.02	
2025-01-19 04:02:41.92	340.37	10.02	
2025-01-19 04:02:42.13	340.34	10.02	
2025-01-19 04:02:42.33	340.30	10.02	
2025-01-19 04:02:42.53	340.27	10.02	
2025-01-19 04:02:42.74	340.23	10.02	
2025-01-19 04:02:42.94	340.19	10.02	
2025-01-19 04:02:43.14	340.16	10.02	
2025-01-19 04:02:43.34	340.12	10.02	
2025-01-19 04:02:43.55	340.08	10.03	
2025-01-19 04:02:43.75	340.05	10.03	
2025-01-19 04:02:43.95	340.01	10.03	
2025-01-19 04:02:44.16	339.97	10.03	
2025-01-19 04:02:44.36	339.94	10.03	
2025-01-19 04:02:44.56	339.90	10.03	
2025-01-19 04:02:44.77	339.86	10.03	
2025-01-19 04:02:44.97	339.83	10.03	
2025-01-19 04:02:45.17	339.79	10.03	
2025-01-19 04:02:45.38	339.76	10.03	
2025-01-19 04:02:45.58	339.72	10.03	
2025-01-19 04:02:45.78	339.68	10.03	
2025-01-19 04:02:45.99	339.65	10.03	
2025-01-19 04:02:46.19	339.61	10.03	
2025-01-19 04:02:46.39	339.58	10.03	
2025-01-19 04:02:46.60	339.54	10.03	
2025-01-19 04:02:46.80	339.50	10.03	
2025-01-19 04:02:47.00	339.47	10.03	
2025-01-19 04:02:47.21	339.43	10.03	
2025-01-19 04:02:47.41	339.39	10.03	
2025-01-19 04:02:47.61	339.36	10.03	
2025-01-19 04:02:47.82	339.32	10.03	
2025-01-19 04:02:48.02	339.28	10.03	
2025-01-19 04:02:48.22	339.25	10.03	
2025-01-19 04:02:48.43	339.21	10.03	
2025-01-19 04:02:48.63	339.17	10.03	
2025-01-19 04:02:48.83	339.14	10.03	
2025-01-19 04:02:49.03	339.10	10.03	
2025-01-19 04:02:49.24	339.07	10.03	
2025-01-19 04:02:49.44	339.03	10.03	
2025-01-19 04:02:49.64	338.99	10.03	
2025-01-19 04:02:49.85	338.96	10.03	
2025-01-19 04:02:50.05	338.92	10.03	
2025-01-19 04:02:50.25	338.88	10.03	
2025-01-19 04:02:50.46	338.85	10.03	
2025-01-19 04:02:50.66	338.81	10.03	
2025-01-19 04:02:50.86	338.78	10.03	
2025-01-19 04:02:51.07	338.74	10.03	
2025-01-19 04:02:51.27	338.70	10.02	
2025-01-19 04:02:51.47	338.67	10.02	
2025-01-19 04:02:51.68	338.63	10.02	
2025-01-19 04:02:51.88	338.59	10.02	
2025-01-19 04:02:52.08	338.56	10.02	
2025-01-19 04:02:52.29	338.52	10.02	
2025-01-19 04:02:52.49	338.48	10.02	
2025-01-19 04:02:52.69	338.45	10.02	
2025-01-19 04:02:52.90	338.41	10.02	
2025-01-19 04:02:53.10	338.38	10.02	
2025-01-19 04:02:53.30	338.34	10.02	
2025-01-19 04:02:53.51	338.30	10.02	
2025-01-19 04:02:53.71	338.27	10.02	
2025-01-19 04:02:53.91	338.23	10.02	
2025-01-19 04:02:54.11	338.19	10.02	
2025-01-19 04:02:54.32	338.16	10.02	
2025-01-19 04:02:54.52	338.12	10.02	
2025-01-19 04:02:54.72	338.09	10.02	
2025-01-19 04:02:54.93	338.05	10.02	
2025-01-19 04:02:55.13	338.01	10.02	
2025-01-19 04:02:55.33	337.98	10.02	
2025-01-19 04:02:55.54	337.94	10.02	
2025-01-19 04:02:55.74	337.90	10.02	
2025-01-19 04:02:55.94	337.87	10.02	
2025-01-19 04:02:56.15	337.83	10.02	
2025-01-19 04:02:56.35	337.79	10.02	
2025-01-19 04:02:56.55	337.76	10.02	
2025-01-19 04:02:56.76	337.72	10.02	
2025-01-19 04:02:56.96	337.69	10.01	
2025-01-19 04:02:57.16	337.65	10.01	
2025-01-19 04:02:57.37	337.61	10.01	
2025-01-19 04:02:57.57	337.58	10.01	
2025-01-19 04:02:57.77	337.54	10.01	
2025-01-19 04:02:57.98	337.50	10.01	
2025-01-19 04:02:58.18	337.47	10.01	
2025-01-19 04:02:58.38	337.43	10.01	
2025-01-19 04:02:58.59	337.39	10.01	
2025-01-19 04:02:58.79	337.36	10.01	
2025-01-19 04:02:58.99	337.32	10.01	
2025-01-19 04:02:59.20	337.29	10.01	
2025-01-19 04:02:59.40	337.25	10.01	
2025-01-19 04:02:59.60	337.21	10.01	
2025-01-19 04:02:59.80	337.18	10.01	
2025-01-19 04:03:00.01	337.14	10.01	
2025-01-19 04:03:00.21	337.10	10.00	
2025-01-19 04:03:00.41	337.07	10.00	
2025-01-19 04:03:00.62	337.03	10.00	
2025-01-19 04:03:00.82	337.00	10.00	
2025-01-19 04:03:01.02	336.96	10.00	
2025-01-19 04:03:01.23	336.92	10.00	
2025-01-19 04:03:01.43	336.89	10.00	
2025-01-19 04:03:01.63	336.85	10.00	
2025-01-19 04:03:01.84	336.81	10.00	
2025-01-19 04:03:02.04	336.78	10.00	
2025-01-19 04:03:02.24	336.74	10.00	
2025-01-19 04:03:02.45	336.70	10.00	
2025-01-19 04:03:02.65	336.67	10.00	
2025-01-19 04:03:02.85	336.63	9.99	
2025-01-19 04:03:03.06	336.60	9.99	
2025-01-19 04:03:03.26	336.56	9.99	
2025-01-19 04:03:03.46	336.52	9.99	
2025-01-19 04:03:03.67	336.49	9.99	
2025-01-19 04:03:03.87	336.45	9.99	
2025-01-19 04:03:04.07	336.42	9.99	
2025-01-19 04:03:04.28	336.38	9.99	
2025-01-19 04:03:04.48	336.34	9.99	
2025-01-19 04:03:04.68	336.31	9.99	
2025-01-19 04:03:04.89	336.27	9.99	
2025-01-19 04:03:05.09	336.23	9.98	
2025-01-19 04:03:05.29	336.20	9.98	
2025-01-19 04:03:05.49	336.16	9.98	
2025-01-19 04:03:05.70	336.13	9.98	
2025-01-19 04:03:05.90	336.09	9.98	
2025-01-19 04:03:06.10	336.05	9.98	
2025-01-19 04:03:06.31	336.02	9.98	
2025-01-19 04:03:06.51	335.98	9.98	
2025-01-19 04:03:06.71	335.95	9.98	
2025-01-19 04:03:06.92	335.91	9.98	
2025-01-19 04:03:07.12	335.87	9.97	
2025-01-19 04:03:07.32	335.84	9.97	
2025-01-19 04:03:07.53	335.80	9.97	
2025-01-19 04:03:07.73	335.76	9.97	
2025-01-19 04:03:07.93	335.73	9.97	
2025-01-19 04:03:08.14	335.69	9.97	
2025-01-19 04:03:08.34	335.65	9.97	
2025-01-19 04:03:08.54	335.62	9.97	
2025-01-19 04:03:08.75	335.58	9.97	
2025-01-19 04:03:08.95	335.55	9.96	
2025-01-19 04:03:09.15	335.51	9.96	
2025-01-19 04:03:09.36	335.47	9.96	
2025-01-19 04:03:09.56	335.44	9.96	
2025-01-19 04:03:09.76	335.40	9.96	
2025-01-19 04:03:09.97	335.36	9.96	
2025-01-19 04:03:10.17	335.33	9.96	
2025-01-19 04:03:10.37	335.29	9.96	
2025-01-19 04:03:10.58	335.26	9.95	
2025-01-19 04:03:10.78	335.22	9.95	
2025-01-19 04:03:10.98	335.18	9.95	
2025-01-19 04:03:11.18	335.15	9.95	
2025-01-19 04:03:11.39	335.11	9.95	
2025-01-19 04:03:11.59	335.08	9.95	
2025-01-19 04:03:11.79	335.04	9.95	
2025-01-19 04:03:12.00	335.00	9.95	
2025-01-19 04:03:12.20	334.97	9.94	
2025-01-19 04:03:12.40	334.93	9.94	
2025-01-19 04:03:12.61	334.89	9.94	
2025-01-19 04:03:12.81	334.86	9.94	
2025-01-19 04:03:13.01	334.82	9.94	
2025-01-19 04:03:13.22	334.79	9.94	
2025-01-19 04:03:13.42	334.75	9.94	
2025-01-19 04:03:13.62	334.72	9.93	
2025-01-19 04:03:13.83	334.68	9.93	
2025-01-19 04:03:14.03	334.64	9.93	
2025-01-19 04:03:14.23	334.61	9.93	
2025-01-19 04:03:14.44	334.57	9.93	
2025-01-19 04:03:14.64	334.53	9.93	
2025-01-19 04:03:14.84	334.50	9.93	
2025-01-19 04:03:15.05	334.46	9.92	
2025-01-19 04:03:15.25	334.43	9.92	
2025-01-19 04:03:15.45	334.39	9.92	
2025-01-19 04:03:15.66	334.35	9.92	
2025-01-19 04:03:15.86	334.32	9.92	
2025-01-19 04:03:16.06	334.28	9.92	
2025-01-19 04:03:16.27	334.24	9.92	
2025-01-19 04:03:16.47	334.21	9.91	
2025-01-19 04:03:16.67	334.17	9.91	
2025-01-19 04:03:16.87	334.14	9.91	
2025-01-19 04:03:17.08	334.10	9.91	
2025-01-19 04:03:17.28	334.07	9.91	
2025-01-19 04:03:17.48	334.03	9.91	
2025-01-19 04:03:17.69	333.99	9.90	
2025-01-19 04:03:17.89	333.96	9.90	
2025-01-19 04:03:18.09	333.92	9.90	
2025-01-19 04:03:18.30	333.88	9.90	
2025-01-19 04:03:18.50	333.85	9.90	
2025-01-19 04:03:18.70	333.81	9.90	
2025-01-19 04:03:18.91	333.78	9.89	
2025-01-19 04:03:19.11	333.74	9.89	
2025-01-19 04:03:19.31	333.71	9.89	
2025-01-19 04:03:19.52	333.67	9.89	
2025-01-19 04:03:19.72	333.63	9.89	
2025-01-19 04:03:19.92	333.60	9.89	
2025-01-19 04:03:20.13	333.56	9.88	
2025-01-19 04:03:20.33	333.53	9.88	
2025-01-19 04:03:20.53	333.49	9.88	
2025-01-19 04:03:20.74	333.45	9.88	
2025-01-19 04:03:20.94	333.42	9.88	
2025-01-19 04:03:21.14	333.38	9.87	
2025-01-19 04:03:21.35	333.34	9.87	
2025-01-19 04:03:21.55	333.31	9.87	
2025-01-19 04:03:21.75	333.27	9.87	
2025-01-19 04:03:21.95	333.24	9.87	
2025-01-19 04:03:22.16	333.20	9.87	
2025-01-19 04:03:22.36	333.17	9.86	
2025-01-19 04:03:22.56	333.13	9.86	
2025-01-19 04:03:22.77	333.09	9.86	
2025-01-19 04:03:22.97	333.06	9.86	
2025-01-19 04:03:23.17	333.02	9.86	
2025-01-19 04:03:23.38	332.99	9.85	
2025-01-19 04:03:23.58	332.95	9.85	
2025-01-19 04:03:23.78	332.91	9.85	
2025-01-19 04:03:23.99	332.88	9.85	
2025-01-19 04:03:24.19	332.84	9.85	
2025-01-19 04:03:24.39	332.81	9.84	
2025-01-19 04:03:24.60	332.77	9.84	
2025-01-19 04:03:24.80	332.73	9.84	
2025-01-19 04:03:25.00	332.70	9.84	
2025-01-19 04:03:25.21	332.66	9.84	
2025-01-19 04:03:25.41	332.63	9.83	
2025-01-19 04:03:25.61	332.59	9.83	
2025-01-19 04:03:25.82	332.55	9.83	
2025-01-19 04:03:26.02	332.52	9.83	
2025-01-19 04:03:26.22	332.48	9.83	
2025-01-19 04:03:26.43	332.45	9.82	
2025-01-19 04:03:26.63	332.41	9.82	
2025-01-19 04:03:26.83	332.38	9.82	
2025-01-19 04:03:27.04	332.34	9.82	
2025-01-19 04:03:27.24	332.30	9.82	
2025-01-19 04:03:27.44	332.27	9.81	
2025-01-19 04:03:27.65	332.23	9.81	
2025-01-19 04:03:27.85	332.20	9.81	
2025-01-19 04:03:28.05	332.16	9.81	
2025-01-19 04:03:28.25	332.13	9.80	
2025-01-19 04:03:28.46	332.09	9.80	
2025-01-19 04:03:28.66	332.05	9.80	
2025-01-19 04:03:28.86	332.02	9.80	
2025-01-19 04:03:29.07	331.98	9.80	
2025-01-19 04:03:29.27	331.95	9.79	
2025-01-19 04:03:29.47	331.91	9.79	
2025-01-19 04:03:29.68	331.87	9.79	
2025-01-19 04:03:29.88	331.84	9.79	
2025-01-19 04:03:30.08	331.80	9.78	
2025-01-19 04:03:30.29	331.77	9.78	
2025-01-19 04:03:30.49	331.73	9.78	
2025-01-19 04:03:30.69	331.70	9.78	
2025-01-19 04:03:30.90	331.66	9.77	
2025-01-19 04:03:31.10	331.62	9.77	
2025-01-19 04:03:31.30	331.59	9.77	
2025-01-19 04:03:31.51	331.55	9.77	
2025-01-19 04:03:31.71	331.52	9.77	
2025-01-19 04:03:31.91	331.48	9.76	
2025-01-19 04:03:32.12	331.45	9.76	
2025-01-19 04:03:32.32	331.41	9.76	
2025-01-19 04:03:32.52	331.38	9.76	
2025-01-19 04:03:32.73	331.34	9.75	
2025-01-19 04:03:32.93	331.30	9.75	
2025-01-19 04:03:33.13	331.27	9.75	
2025-01-19 04:03:33.34	331.23	9.75	
2025-01-19 04:03:33.54	331.20	9.74	
2025-01-19 04:03:33.74	331.16	9.74	
2025-01-19 04:03:33.94	331.13	9.74	
2025-01-19 04:03:34.15	331.09	9.74	
2025-01-19 04:03:34.35	331.05	9.73	
2025-01-19 04:03:34.55	331.02	9.73	
2025-01-19 04:03:34.76	330.98	9.73	
2025-01-19 04:03:34.96	330.95	9.73	
2025-01-19 04:03:35.16	330.91	9.72	
2025-01-19 04:03:35.37	330.88	9.72	
2025-01-19 04:03:35.57	330.84	9.72	
2025-01-19 04:03:35.77	330.81	9.72	
2025-01-19 04:03:35.98	330.77	9.71	
2025-01-19 04:03:36.18	330.73	9.71	
2025-01-19 04:03:36.38	330.70	9.71	
2025-01-19 04:03:36.59	330.66	9.71	
2025-01-19 04:03:36.79	330.63	9.70	
2025-01-19 04:03:36.99	330.59	9.70	
2025-01-19 04:03:37.20	330.56	9.70	
2025-01-19 04:03:37.40	330.52	9.69	
2025-01-19 04:03:37.60	330.49	9.69	
2025-01-19 04:03:37.81	330.45	9.69	
2025-01-19 04:03:38.01	330.41	9.69	
2025-01-19 04:03:38.21	330.38	9.68	
2025-01-19 04:03:38.42	330.34	9.68	
2025-01-19 04:03:38.62	330.31	9.68	
2025-01-19 04:03:38.82	330.27	9.68	
2025-01-19 04:03:39.02	330.24	9.67	
2025-01-19 04:03:39.23	330.20	9.67	
2025-01-19 04:03:39.43	330.17	9.67	
2025-01-19 04:03:39.63	330.13	9.67	
2025-01-19 04:03:39.84	330.09	9.66	
2025-01-19 04:03:40.04	330.06	9.66	
2025-01-19 04:03:40.24	330.02	9.66	
2025-01-19 04:03:40.45	329.99	9.65	
2025-01-19 04:03:40.65	329.95	9.65	
2025-01-19 04:03:40.85	329.92	9.65	
2025-01-19 04:03:41.06	329.88	9.65	
2025-01-19 04:03:41.26	329.85	9.64	
2025-01-19 04:03:41.46	329.81	9.64	
2025-01-19 04:03:41.67	329.78	9.64	
2025-01-19 04:03:41.87	329.74	9.63	
2025-01-19 04:03:42.07	329.71	9.63	
2025-01-19 04:03:42.28	329.67	9.63	
2025-01-19 04:03:42.48	329.63	9.63	
2025-01-19 04:03:42.68	329.60	9.62	
2025-01-19 04:03:42.89	329.56	9.62	
2025-01-19 04:03:43.09	329.53	9.62	
2025-01-19 04:03:43.29	329.49	9.61	
2025-01-19 04:03:43.50	329.46	9.61	
2025-01-19 04:03:43.70	329.42	9.61	
2025-01-19 04:03:43.90	329.39	9.60	
2025-01-19 04:03:44.11	329.35	9.60	
2025-01-19 04:03:44.31	329.32	9.60	
2025-01-19 04:03:44.51	329.28	9.60	
2025-01-19 04:03:44.71	329.25	9.59	
2025-01-19 04:03:44.92	329.21	9.59	
2025-01-19 04:03:45.12	329.18	9.59	
2025-01-19 04:03:45.32	329.14	9.58	
2025-01-19 04:03:45.53	329.11	9.58	
2025-01-19 04:03:45.73	329.07	9.58	
2025-01-19 04:03:45.93	329.04	9.57	
2025-01-19 04:03:46.14	329.00	9.57	
2025-01-19 04:03:46.34	328.96	9.57	
2025-01-19 04:03:46.54	328.93	9.57	
2025-01-19 04:03:46.75	328.89	9.56	
2025-01-19 04:03:46.95	328.86	9.56	
2025-01-19 04:03:47.15	328.82	9.56	
2025-01-19 04:03:47.36	328.79	9.55	
2025-01-19 04:03:47.56	328.75	9.55	
2025-01-19 04:03:47.76	328.72	9.55	
2025-01-19 04:03:47.97	328.68	9.54	
2025-01-19 04:03:48.17	328.65	9.54	
2025-01-19 04:03:48.37	328.61	9.54	
2025-01-19 04:03:48.58	328.58	9.53	
2025-01-19 04:03:48.78	328.54	9.53	
2025-01-19 04:03:48.98	328.51	9.53	
2025-01-19 04:03:49.19	328.47	9.52	
2025-01-19 04:03:49.39	328.44	9.52	
2025-01-19 04:03:49.59	328.40	9.52	
2025-01-19 04:03:49.80	328.37	9.51	
2025-01-19 04:03:50.00	328.33	9.51	
2025-01-19 04:03:50.20	328.30	9.51	
2025-01-19 04:03:50.40	328.26	9.50	
2025-01-19 04:03:50.61	328.23	9.50	
2025-01-19 04:03:50.81	328.19	9.50	
2025-01-19 04:03:51.01	328.16	9.49	
2025-01-19 04:03:51.22	328.12	9.49	
2025-01-19 04:03:51.42	328.09	9.49	
2025-01-19 04:03:51.62	328.05	9.48	
2025-01-19 04:03:51.83	328.02	9.48	
2025-01-19 04:03:52.03	327.98	9.48	
2025-01-19 04:03:52.23	327.95	9.47	
2025-01-19 04:03:52.44	327.91	9.47	
2025-01-19 04:03:52.64	327.88	9.47	
2025-01-19 04:03:52.84	327.84	9.46	
2025-01-19 04:03:53.05	327.81	9.46	
2025-01-19 04:03:53.25	327.77	9.46	
2025-01-19 04:03:53.45	327.74	9.45	
2025-01-19 04:03:53.66	327.70	9.45	
2025-01-19 04:03:53.86	327.67	9.45	
2025-01-19 04:03:54.06	327.63	9.44	
2025-01-19 04:03:54.27	327.60	9.44	
2025-01-19 04:03:54.47	327.56	9.44	
2025-01-19 04:03:54.67	327.53	9.43	
2025-01-19 04:03:54.88	327.49	9.43	
2025-01-19 04:03:55.08	327.46	9.43	
2025-01-19 04:03:55.28	327.42	9.42	
2025-01-19 04:03:55.49	327.39	9.42	
2025-01-19 04:03:55.69	327.35	9.41	
2025-01-19 04:03:55.89	327.32	9.41	
2025-01-19 04:03:56.09	327.28	9.41	
2025-01-19 04:03:56.30	327.25	9.40	
2025-01-19 04:03:56.50	327.21	9.40	
2025-01-19 04:03:56.70	327.18	9.40	
2025-01-19 04:03:56.91	327.14	9.39	
2025-01-19 04:03:57.11	327.11	9.39	
2025-01-19 04:03:57.31	327.08	9.39	
2025-01-19 04:03:57.52	327.04	9.38	
2025-01-19 04:03:57.72	327.01	9.38	
2025-01-19 04:03:57.92	326.97	9.38	
2025-01-19 04:03:58.13	326.94	9.37	
2025-01-19 04:03:58.33	326.90	9.37	
2025-01-19 04:03:58.53	326.87	9.36	
2025-01-19 04:03:58.74	326.83	9.36	
2025-01-19 04:03:58.94	326.80	9.36	
2025-01-19 04:03:59.14	326.76	9.35	
2025-01-19 04:03:59.35	326.73	9.35	
2025-01-19 04:03:59.55	326.69	9.35	
2025-01-19 04:03:59.75	326.66	9.34	
2025-01-19 04:03:59.96	326.62	9.34	
2025-01-19 04:04:00.16	326.59	9.33	
2025-01-19 04:04:00.36	326.55	9.33	
2025-01-19 04:04:00.57	326.52	9.33	
2025-01-19 04:04:00.77	326.48	9.32	
2025-01-19 04:04:00.97	326.45	9.32	
2025-01-19 04:04:01.18	326.41	9.32	
2025-01-19 04:04:01.38	326.38	9.31	
2025-01-19 04:04:01.58	326.35	9.31	
2025-01-19 04:04:01.78	326.31	9.30	
2025-01-19 04:04:01.99	326.28	9.30	
2025-01-19 04:04:02.19	326.24	9.30	
2025-01-19 04:04:02.39	326.21	9.29	
2025-01-19 04:04:02.60	326.17	9.29	
2025-01-19 04:04:02.80	326.14	9.28	
2025-01-19 04:04:03.00	326.11	9.28	
2025-01-19 04:04:03.21	326.07	9.28	
2025-01-19 04:04:03.41	326.04	9.27	
2025-01-19 04:04:03.61	326.00	9.27	
2025-01-19 04:04:03.82	325.97	9.27	
2025-01-19 04:04:04.02	325.93	9.26	
2025-01-19 04:04:04.22	325.90	9.26	
2025-01-19 04:04:04.43	325.86	9.25	
2025-01-19 04:04:04.63	325.83	9.25	
2025-01-19 04:04:04.83	325.79	9.25	
2025-01-19 04:04:05.04	325.76	9.24	
2025-01-19 04:04:05.24	325.73	9.24	
2025-01-19 04:04:05.44	325.69	9.23	
2025-01-19 04:04:05.65	325.66	9.23	
2025-01-19 04:04:05.85	325.62	9.23	
2025-01-19 04:04:06.05	325.59	9.22	
2025-01-19 04:04:06.26	325.55	9.22	
2025-01-19 04:04:06.46	325.52	9.21	
2025-01-19 04:04:06.66	325.49	9.21	
2025-01-19 04:04:06.87	325.45	9.21	
2025-01-19 04:04:07.07	325.42	9.20	
2025-01-19 04:04:07.27	325.38	9.20	
2025-01-19 04:04:07.47	325.35	9.19	
2025-01-19 04:04:07.68	325.31	9.19	
2025-01-19 04:04:07.88	325.28	9.18	
2025-01-19 04:04:08.08	325.25	9.18	
2025-01-19 04:04:08.29	325.21	9.18	
2025-01-19 04:04:08.49	325.18	9.17	
2025-01-19 04:04:08.69	325.14	9.17	
2025-01-19 04:04:08.90	325.11	9.16	
2025-01-19 04:04:09.10	325.07	9.16	
2025-01-19 04:04:09.30	325.04	9.16	
2025-01-19 04:04:09.51	325.00	9.15	
2025-01-19 04:04:09.71	324.97	9.15	
2025-01-19 04:04:09.91	324.94	9.14	
2025-01-19 04:04:10.12	324.90	9.14	
2025-01-19 04:04:10.32	324.87	9.13	
2025-01-19 04:04:10.52	324.83	9.13	
2025-01-19 04:04:10.73	324.80	9.13	
2025-01-19 04:04:10.93	324.77	9.12	
2025-01-19 04:04:11.13	324.73	9.12	
2025-01-19 04:04:11.34	324.70	9.11	
2025-01-19 04:04:11.54	324.66	9.11	
2025-01-19 04:04:11.74	324.63	9.10	
2025-01-19 04:04:11.95	324.59	9.10	
2025-01-19 04:04:12.15	324.56	9.10	
2025-01-19 04:04:12.35	324.53	9.09	
2025-01-19 04:04:12.55	324.49	9.09	
2025-01-19 04:04:12.76	324.46	9.08	
2025-01-19 04:04:12.96	324.43	9.08	
2025-01-19 04:04:13.16	324.39	9.07	
2025-01-19 04:04:13.37	324.36	9.07	
2025-01-19 04:04:13.57	324.32	9.07	
2025-01-19 04:04:13.77	324.29	9.06	
2025-01-19 04:04:13.98	324.25	9.06	
2025-01-19 04:04:14.18	324.22	9.05	
2025-01-19 04:04:14.38	324.19	9.05	
2025-01-19 04:04:14.59	324.15	9.04	
2025-01-19 04:04:14.79	324.12	9.04	
2025-01-19 04:04:14.99	324.09	9.04	
2025-01-19 04:04:15.20	324.05	9.03	
2025-01-19 04:04:15.40	324.02	9.03	
2025-01-19 04:04:15.60	323.98	9.02	
2025-01-19 04:04:15.81	323.95	9.02	
2025-01-19 04:04:16.01	323.92	9.01	
2025-01-19 04:04:16.21	323.88	9.01	
2025-01-19 04:04:16.42	323.85	9.00	
2025-01-19 04:04:16.62	323.81	9.00	
2025-01-19 04:04:16.82	323.78	8.99	
2025-01-19 04:04:17.03	323.75	8.99	
2025-01-19 04:04:17.23	323.71	8.99	
2025-01-19 04:04:17.43	323.68	8.98	
2025-01-19 04:04:17.64	323.64	8.98	
2025-01-19 04:04:17.84	323.61	8.97	
2025-01-19 04:04:18.04	323.58	8.97	
2025-01-19 04:04:18.24	323.54	8.96	
2025-01-19 04:04:18.45	323.51	8.96	
2025-01-19 04:04:18.65	323.48	8.95	
2025-01-19 04:04:18.85	323.44	8.95	
2025-01-19 04:04:19.06	323.41	8.94	
2025-01-19 04:04:19.26	323.37	8.94	
2025-01-19 04:04:19.46	323.34	8.94	
2025-01-19 04:04:19.67	323.31	8.93	
2025-01-19 04:04:19.87	323.27	8.93	
2025-01-19 04:04:20.07	323.24	8.92	
2025-01-19 04:04:20.28	323.21	8.92	
2025-01-19 04:04:20.48	323.17	8.91	
2025-01-19 04:04:20.68	323.14	8.91	
2025-01-19 04:04:20.89	323.10	8.90	
2025-01-19 04:04:21.09	323.07	8.90	
2025-01-19 04:04:21.29	323.04	8.89	
2025-01-19 04:04:21.50	323.00	8.89	
2025-01-19 04:04:21.70	322.97	8.88	
2025-01-19 04:04:21.90	322.94	8.88	
2025-01-19 04:04:22.11	322.90	8.87	
2025-01-19 04:04:22.31	322.87	8.87	
2025-01-19 04:04:22.51	322.84	8.87	
2025-01-19 04:04:22.72	322.80	8.86	
2025-01-19 04:04:22.92	322.77	8.86	
2025-01-19 04:04:23.12	322.74	8.85	
2025-01-19 04:04:23.33	322.70	8.85	
2025-01-19 04:04:23.53	322.67	8.84	
2025-01-19 04:04:23.73	322.64	8.84	
2025-01-19 04:04:23.93	322.60	8.83	
2025-01-19 04:04:24.14	322.57	8.83	
2025-01-19 04:04:24.34	322.54	8.82	
2025-01-19 04:04:24.54	322.50	8.82	
2025-01-19 04:04:24.75	322.47	8.81	
2025-01-19 04:04:24.95	322.44	8.81	
2025-01-19 04:04:25.15	322.40	8.80	
2025-01-19 04:04:25.36	322.37	8.80	
2025-01-19 04:04:25.56	322.33	8.79	
2025-01-19 04:04:25.76	322.30	8.79	
2025-01-19 04:04:25.97	322.27	8.78	
2025-01-19 04:04:26.17	322.23	8.78	
2025-01-19 04:04:26.37	322.20	8.77	
2025-01-19 04:04:26.58	322.17	8.77	
2025-01-19 04:04:26.78	322.13	8.76	
2025-01-19 04:04:26.98	322.10	8.76	
2025-01-19 04:04:27.19	322.07	8.75	
2025-01-19 04:04:27.39	322.03	8.75	
2025-01-19 04:04:27.59	322.00	8.74	
2025-01-19 04:04:27.80	321.97	8.74	
2025-01-19 04:04:28.00	321.93	8.73	
2025-01-19 04:04:28.20	321.90	8.73	
2025-01-19 04:04:28.41	321.87	8.72	
2025-01-19 04:04:28.61	321.84	8.72	
2025-01-19 04:04:28.81	321.80	8.71	
2025-01-19 04:04:29.02	321.77	8.71	
2025-01-19 04:04:29.22	321.74	8.70	
2025-01-19 04:04:29.42	321.70	8.70	
2025-01-19 04:04:29.62	321.67	8.69	
2025-01-19 04:04:29.83	321.64	8.69	
2025-01-19 04:04:30.03	321.60	8.68	
2025-01-19 04:04:30.23	321.57	8.68	
2025-01-19 04:04:30.44	321.54	8.67	
2025-01-19 04:04:30.64	321.50	8.67	
2025-01-19 04:04:30.84	321.47	8.66	
