passes_logs/2025/01/19/SPB_Silybum_02/SPB_Silybum_02__20250119_043412_AQUA_rec.log

#Pass ID: 20250119_043412_AQUA
#Satellite: AQUA
#Configuration: AQUA
#Start time: 2025-01-19 04:34:12

#Version: 2.0.20230423
#Station: SPB_Silybum_02
#Location: 30.233357 lon 59.946436 lat
#TLE: 1 27424U 02022A   25018.15645899  .00002321  00000+0  48623-3 0  9991
#TLE: 2 27424  98.3597 334.8489 0001860 108.2535 309.6560 14.60697098208087

#Time	Az	El	Level	Level2	SNR	BER	Gain	Gain2
2025-01-19 04:34:14.78	5.95	4.11	
2025-01-19 04:34:14.99	5.92	4.12	
2025-01-19 04:34:15.19	5.90	4.13	
2025-01-19 04:34:15.39	5.87	4.13	
2025-01-19 04:34:15.60	5.84	4.14	
2025-01-19 04:34:15.80	5.81	4.15	
2025-01-19 04:34:16.00	5.79	4.16	
2025-01-19 04:34:16.21	5.76	4.17	
2025-01-19 04:34:16.41	5.73	4.17	
2025-01-19 04:34:16.61	5.70	4.18	
2025-01-19 04:34:16.82	5.67	4.19	
2025-01-19 04:34:17.02	5.64	4.20	
2025-01-19 04:34:17.22	5.62	4.20	
2025-01-19 04:34:17.43	5.59	4.21	
2025-01-19 04:34:17.63	5.56	4.22	
2025-01-19 04:34:17.83	5.53	4.23	
2025-01-19 04:34:18.04	5.50	4.24	
2025-01-19 04:34:18.24	5.48	4.24	
2025-01-19 04:34:18.44	5.45	4.25	
2025-01-19 04:34:18.65	5.42	4.26	
2025-01-19 04:34:18.85	5.39	4.27	
2025-01-19 04:34:19.05	5.36	4.28	
2025-01-19 04:34:19.25	5.34	4.28	
2025-01-19 04:34:19.46	5.31	4.29	
2025-01-19 04:34:19.66	5.28	4.30	
2025-01-19 04:34:19.86	5.25	4.31	
2025-01-19 04:34:20.07	5.22	4.32	
2025-01-19 04:34:20.27	5.19	4.32	
2025-01-19 04:34:20.47	5.17	4.33	
2025-01-19 04:34:20.68	5.14	4.34	
2025-01-19 04:34:20.88	5.11	4.35	
2025-01-19 04:34:21.08	5.08	4.36	
2025-01-19 04:34:21.29	5.05	4.36	
2025-01-19 04:34:21.49	5.02	4.37	
2025-01-19 04:34:21.69	5.00	4.38	
2025-01-19 04:34:21.90	4.97	4.39	
2025-01-19 04:34:22.10	4.94	4.40	
2025-01-19 04:34:22.30	4.91	4.40	
2025-01-19 04:34:22.51	4.88	4.41	
2025-01-19 04:34:22.71	4.85	4.42	
2025-01-19 04:34:22.91	4.82	4.43	
2025-01-19 04:34:23.12	4.80	4.44	
2025-01-19 04:34:23.32	4.77	4.44	
2025-01-19 04:34:23.52	4.74	4.45	
2025-01-19 04:34:23.73	4.71	4.46	
2025-01-19 04:34:23.93	4.68	4.47	
2025-01-19 04:34:24.13	4.65	4.47	
2025-01-19 04:34:24.34	4.62	4.48	
2025-01-19 04:34:24.54	4.60	4.49	
2025-01-19 04:34:24.74	4.57	4.50	
2025-01-19 04:34:24.94	4.54	4.51	
2025-01-19 04:34:25.15	4.51	4.51	
2025-01-19 04:34:25.35	4.48	4.52	
2025-01-19 04:34:25.55	4.45	4.53	
2025-01-19 04:34:25.76	4.42	4.54	
2025-01-19 04:34:25.96	4.39	4.55	
2025-01-19 04:34:26.16	4.37	4.55	
2025-01-19 04:34:26.37	4.34	4.56	
2025-01-19 04:34:26.57	4.31	4.57	
2025-01-19 04:34:26.77	4.28	4.58	
2025-01-19 04:34:26.98	4.25	4.58	
2025-01-19 04:34:27.18	4.22	4.59	
2025-01-19 04:34:27.38	4.19	4.60	
2025-01-19 04:34:27.59	4.16	4.61	
2025-01-19 04:34:27.79	4.13	4.62	
2025-01-19 04:34:27.99	4.11	4.62	
2025-01-19 04:34:28.20	4.08	4.63	
2025-01-19 04:34:28.40	4.05	4.64	
2025-01-19 04:34:28.60	4.02	4.65	
2025-01-19 04:34:28.81	3.99	4.65	
2025-01-19 04:34:29.01	3.96	4.66	
2025-01-19 04:34:29.21	3.93	4.67	
2025-01-19 04:34:29.42	3.90	4.68	
2025-01-19 04:34:29.62	3.87	4.69	
2025-01-19 04:34:29.82	3.84	4.69	
2025-01-19 04:34:30.02	3.82	4.70	
2025-01-19 04:34:30.23	3.79	4.71	
2025-01-19 04:34:30.43	3.76	4.72	
2025-01-19 04:34:30.63	3.73	4.72	
2025-01-19 04:34:30.84	3.70	4.73	
2025-01-19 04:34:31.04	3.67	4.74	
2025-01-19 04:34:31.24	3.64	4.75	
2025-01-19 04:34:31.45	3.61	4.76	
2025-01-19 04:34:31.65	3.58	4.76	
2025-01-19 04:34:31.85	3.55	4.77	
2025-01-19 04:34:32.06	3.52	4.78	
2025-01-19 04:34:32.26	3.49	4.79	
2025-01-19 04:34:32.46	3.46	4.79	
2025-01-19 04:34:32.67	3.43	4.80	
2025-01-19 04:34:32.87	3.40	4.81	
2025-01-19 04:34:33.07	3.38	4.82	
2025-01-19 04:34:33.28	3.35	4.82	
2025-01-19 04:34:33.48	3.32	4.83	
2025-01-19 04:34:33.68	3.29	4.84	
2025-01-19 04:34:33.89	3.26	4.85	
2025-01-19 04:34:34.09	3.23	4.86	
2025-01-19 04:34:34.29	3.20	4.86	
2025-01-19 04:34:34.50	3.17	4.87	
2025-01-19 04:34:34.70	3.14	4.88	
2025-01-19 04:34:34.90	3.11	4.89	
2025-01-19 04:34:35.11	3.08	4.89	
2025-01-19 04:34:35.31	3.05	4.90	
2025-01-19 04:34:35.51	3.02	4.91	
2025-01-19 04:34:35.72	2.99	4.92	
2025-01-19 04:34:35.92	2.96	4.92	
2025-01-19 04:34:36.12	2.93	4.93	
2025-01-19 04:34:36.32	2.90	4.94	
2025-01-19 04:34:36.53	2.87	4.95	
2025-01-19 04:34:36.73	2.84	4.95	
2025-01-19 04:34:36.93	2.81	4.96	
2025-01-19 04:34:37.14	2.78	4.97	
2025-01-19 04:34:37.34	2.75	4.98	
2025-01-19 04:34:37.54	2.72	4.98	
2025-01-19 04:34:37.75	2.69	4.99	
2025-01-19 04:34:37.95	2.66	5.00	
2025-01-19 04:34:38.15	2.64	5.01	
2025-01-19 04:34:38.36	2.60	5.02	
2025-01-19 04:34:38.56	2.57	5.02	
2025-01-19 04:34:38.76	2.55	5.03	
2025-01-19 04:34:38.97	2.51	5.04	
2025-01-19 04:34:39.17	2.49	5.05	
2025-01-19 04:34:39.37	2.46	5.05	
2025-01-19 04:34:39.58	2.42	5.06	
2025-01-19 04:34:39.78	2.40	5.07	
2025-01-19 04:34:39.98	2.37	5.08	
2025-01-19 04:34:40.19	2.33	5.08	
2025-01-19 04:34:40.39	2.31	5.09	
2025-01-19 04:34:40.59	2.28	5.10	
2025-01-19 04:34:40.80	2.24	5.11	
2025-01-19 04:34:41.00	2.21	5.11	
2025-01-19 04:34:41.20	2.19	5.12	
2025-01-19 04:34:41.40	2.16	5.13	
2025-01-19 04:34:41.61	2.12	5.14	
2025-01-19 04:34:41.81	2.09	5.14	
2025-01-19 04:34:42.01	2.07	5.15	
2025-01-19 04:34:42.22	2.03	5.16	
2025-01-19 04:34:42.42	2.00	5.17	
2025-01-19 04:34:42.62	1.97	5.17	
2025-01-19 04:34:42.83	1.94	5.18	
2025-01-19 04:34:43.03	1.91	5.19	
2025-01-19 04:34:43.23	1.88	5.20	
2025-01-19 04:34:43.44	1.85	5.20	
2025-01-19 04:34:43.64	1.82	5.21	
2025-01-19 04:34:43.84	1.79	5.22	
2025-01-19 04:34:44.05	1.76	5.23	
2025-01-19 04:34:44.25	1.73	5.23	
2025-01-19 04:34:44.45	1.70	5.24	
2025-01-19 04:34:44.66	1.67	5.25	
2025-01-19 04:34:44.86	1.64	5.26	
2025-01-19 04:34:45.06	1.61	5.26	
2025-01-19 04:34:45.27	1.58	5.27	
2025-01-19 04:34:45.47	1.55	5.28	
2025-01-19 04:34:45.67	1.52	5.29	
2025-01-19 04:34:45.88	1.49	5.29	
2025-01-19 04:34:46.08	1.46	5.30	
2025-01-19 04:34:46.28	1.43	5.31	
2025-01-19 04:34:46.49	1.40	5.32	
2025-01-19 04:34:46.69	1.37	5.32	
2025-01-19 04:34:46.89	1.34	5.33	
2025-01-19 04:34:47.09	1.31	5.34	
2025-01-19 04:34:47.30	1.27	5.34	
2025-01-19 04:34:47.50	1.24	5.35	
2025-01-19 04:34:47.70	1.21	5.36	
2025-01-19 04:34:47.91	1.18	5.37	
2025-01-19 04:34:48.11	1.15	5.37	
2025-01-19 04:34:48.31	1.12	5.38	
2025-01-19 04:34:48.52	1.09	5.39	
2025-01-19 04:34:48.72	1.06	5.40	
2025-01-19 04:34:48.92	1.03	5.40	
2025-01-19 04:34:49.13	1.00	5.41	
2025-01-19 04:34:49.33	0.97	5.42	
2025-01-19 04:34:49.53	0.94	5.43	
2025-01-19 04:34:49.74	0.90	5.43	
2025-01-19 04:34:49.94	0.87	5.44	
2025-01-19 04:34:50.14	0.84	5.45	
2025-01-19 04:34:50.35	0.81	5.45	
2025-01-19 04:34:50.55	0.78	5.46	
2025-01-19 04:34:50.75	0.75	5.47	
2025-01-19 04:34:50.96	0.72	5.48	
2025-01-19 04:34:51.16	0.69	5.48	
2025-01-19 04:34:51.36	0.66	5.49	
2025-01-19 04:34:51.57	0.63	5.50	
2025-01-19 04:34:51.77	0.60	5.51	
2025-01-19 04:34:51.97	0.57	5.51	
2025-01-19 04:34:52.18	0.53	5.52	
2025-01-19 04:34:52.38	0.50	5.53	
2025-01-19 04:34:52.58	0.47	5.53	
2025-01-19 04:34:52.78	0.44	5.54	
2025-01-19 04:34:52.99	0.41	5.55	
2025-01-19 04:34:53.19	0.38	5.56	
2025-01-19 04:34:53.39	0.35	5.56	
2025-01-19 04:34:53.60	0.32	5.57	
2025-01-19 04:34:53.80	0.29	5.58	
2025-01-19 04:34:54.00	0.25	5.59	
2025-01-19 04:34:54.21	0.22	5.59	
2025-01-19 04:34:54.41	0.19	5.60	
2025-01-19 04:34:54.61	0.16	5.61	
2025-01-19 04:34:54.82	0.13	5.61	
2025-01-19 04:34:55.02	0.10	5.62	
2025-01-19 04:34:55.22	0.07	5.63	
2025-01-19 04:34:55.43	0.03	5.64	
2025-01-19 04:34:55.63	0.00	5.64	
2025-01-19 04:34:55.83	359.97	5.65	
2025-01-19 04:34:56.04	359.94	5.66	
2025-01-19 04:34:56.24	359.91	5.66	
2025-01-19 04:34:56.44	359.88	5.67	
2025-01-19 04:34:56.65	359.85	5.68	
2025-01-19 04:34:56.85	359.82	5.69	
2025-01-19 04:34:57.05	359.78	5.69	
2025-01-19 04:34:57.26	359.75	5.70	
2025-01-19 04:34:57.46	359.72	5.71	
2025-01-19 04:34:57.66	359.69	5.71	
2025-01-19 04:34:57.87	359.66	5.72	
2025-01-19 04:34:58.07	359.63	5.73	
2025-01-19 04:34:58.27	359.60	5.74	
2025-01-19 04:34:58.47	359.56	5.74	
2025-01-19 04:34:58.68	359.53	5.75	
2025-01-19 04:34:58.88	359.50	5.76	
2025-01-19 04:34:59.08	359.47	5.76	
2025-01-19 04:34:59.29	359.44	5.77	
2025-01-19 04:34:59.49	359.41	5.78	
2025-01-19 04:34:59.69	359.37	5.79	
2025-01-19 04:34:59.90	359.34	5.79	
2025-01-19 04:35:00.10	359.31	5.80	
2025-01-19 04:35:00.30	359.28	5.81	
2025-01-19 04:35:00.51	359.25	5.81	
2025-01-19 04:35:00.71	359.22	5.82	
2025-01-19 04:35:00.91	359.18	5.83	
2025-01-19 04:35:01.12	359.15	5.83	
2025-01-19 04:35:01.32	359.12	5.84	
2025-01-19 04:35:01.52	359.09	5.85	
2025-01-19 04:35:01.73	359.06	5.86	
2025-01-19 04:35:01.93	359.02	5.86	
2025-01-19 04:35:02.13	358.99	5.87	
2025-01-19 04:35:02.34	358.96	5.88	
2025-01-19 04:35:02.54	358.93	5.88	
2025-01-19 04:35:02.74	358.90	5.89	
2025-01-19 04:35:02.95	358.86	5.90	
2025-01-19 04:35:03.15	358.83	5.90	
2025-01-19 04:35:03.35	358.80	5.91	
2025-01-19 04:35:03.56	358.77	5.92	
2025-01-19 04:35:03.76	358.74	5.93	
2025-01-19 04:35:03.96	358.71	5.93	
2025-01-19 04:35:04.16	358.67	5.94	
2025-01-19 04:35:04.37	358.64	5.95	
2025-01-19 04:35:04.57	358.61	5.95	
2025-01-19 04:35:04.77	358.58	5.96	
2025-01-19 04:35:04.98	358.54	5.97	
2025-01-19 04:35:05.18	358.51	5.97	
2025-01-19 04:35:05.38	358.48	5.98	
2025-01-19 04:35:05.59	358.45	5.99	
2025-01-19 04:35:05.79	358.42	5.99	
2025-01-19 04:35:05.99	358.38	6.00	
2025-01-19 04:35:06.20	358.35	6.01	
2025-01-19 04:35:06.40	358.32	6.02	
2025-01-19 04:35:06.60	358.29	6.02	
2025-01-19 04:35:06.81	358.25	6.03	
2025-01-19 04:35:07.01	358.22	6.04	
2025-01-19 04:35:07.21	358.19	6.04	
2025-01-19 04:35:07.42	358.16	6.05	
2025-01-19 04:35:07.62	358.13	6.06	
2025-01-19 04:35:07.82	358.09	6.06	
2025-01-19 04:35:08.03	358.06	6.07	
2025-01-19 04:35:08.23	358.03	6.08	
2025-01-19 04:35:08.43	358.00	6.08	
2025-01-19 04:35:08.64	357.96	6.09	
2025-01-19 04:35:08.84	357.93	6.10	
2025-01-19 04:35:09.04	357.90	6.10	
2025-01-19 04:35:09.25	357.87	6.11	
2025-01-19 04:35:09.45	357.83	6.12	
2025-01-19 04:35:09.65	357.80	6.12	
2025-01-19 04:35:09.85	357.77	6.13	
2025-01-19 04:35:10.06	357.74	6.14	
2025-01-19 04:35:10.26	357.70	6.14	
2025-01-19 04:35:10.46	357.67	6.15	
2025-01-19 04:35:10.67	357.64	6.16	
2025-01-19 04:35:10.87	357.61	6.16	
2025-01-19 04:35:11.07	357.57	6.17	
2025-01-19 04:35:11.28	357.54	6.18	
2025-01-19 04:35:11.48	357.51	6.19	
2025-01-19 04:35:11.68	357.48	6.19	
2025-01-19 04:35:11.89	357.44	6.20	
2025-01-19 04:35:12.09	357.41	6.21	
2025-01-19 04:35:12.29	357.38	6.21	
2025-01-19 04:35:12.50	357.34	6.22	
2025-01-19 04:35:12.70	357.31	6.23	
2025-01-19 04:35:12.90	357.28	6.23	
2025-01-19 04:35:13.11	357.25	6.24	
2025-01-19 04:35:13.31	357.21	6.25	
2025-01-19 04:35:13.51	357.18	6.25	
2025-01-19 04:35:13.72	357.15	6.26	
2025-01-19 04:35:13.92	357.12	6.27	
2025-01-19 04:35:14.12	357.08	6.27	
2025-01-19 04:35:14.33	357.05	6.28	
2025-01-19 04:35:14.53	357.02	6.29	
2025-01-19 04:35:14.73	356.98	6.29	
2025-01-19 04:35:14.94	356.95	6.30	
2025-01-19 04:35:15.14	356.92	6.31	
2025-01-19 04:35:15.34	356.89	6.31	
2025-01-19 04:35:15.54	356.85	6.32	
2025-01-19 04:35:15.75	356.82	6.33	
2025-01-19 04:35:15.95	356.79	6.33	
2025-01-19 04:35:16.15	356.75	6.34	
2025-01-19 04:35:16.36	356.72	6.34	
2025-01-19 04:35:16.56	356.69	6.35	
2025-01-19 04:35:16.76	356.65	6.36	
2025-01-19 04:35:16.97	356.62	6.36	
2025-01-19 04:35:17.17	356.59	6.37	
2025-01-19 04:35:17.37	356.56	6.38	
2025-01-19 04:35:17.58	356.52	6.38	
2025-01-19 04:35:17.78	356.49	6.39	
2025-01-19 04:35:17.98	356.46	6.40	
2025-01-19 04:35:18.19	356.42	6.40	
2025-01-19 04:35:18.39	356.39	6.41	
2025-01-19 04:35:18.59	356.36	6.42	
2025-01-19 04:35:18.80	356.32	6.42	
2025-01-19 04:35:19.00	356.29	6.43	
2025-01-19 04:35:19.20	356.26	6.44	
2025-01-19 04:35:19.41	356.22	6.44	
2025-01-19 04:35:19.61	356.19	6.45	
2025-01-19 04:35:19.81	356.16	6.46	
2025-01-19 04:35:20.02	356.12	6.46	
2025-01-19 04:35:20.22	356.09	6.47	
2025-01-19 04:35:20.42	356.06	6.47	
2025-01-19 04:35:20.62	356.02	6.48	
2025-01-19 04:35:20.83	355.99	6.49	
2025-01-19 04:35:21.03	355.96	6.49	
2025-01-19 04:35:21.23	355.92	6.50	
2025-01-19 04:35:21.44	355.89	6.51	
2025-01-19 04:35:21.64	355.86	6.51	
2025-01-19 04:35:21.84	355.82	6.52	
2025-01-19 04:35:22.05	355.79	6.53	
2025-01-19 04:35:22.25	355.75	6.53	
2025-01-19 04:35:22.45	355.72	6.54	
2025-01-19 04:35:22.66	355.69	6.55	
2025-01-19 04:35:22.86	355.65	6.55	
2025-01-19 04:35:23.06	355.62	6.56	
2025-01-19 04:35:23.27	355.59	6.56	
2025-01-19 04:35:23.47	355.55	6.57	
2025-01-19 04:35:23.67	355.52	6.58	
2025-01-19 04:35:23.88	355.49	6.58	
2025-01-19 04:35:24.08	355.45	6.59	
2025-01-19 04:35:24.28	355.42	6.60	
2025-01-19 04:35:24.49	355.38	6.60	
2025-01-19 04:35:24.69	355.35	6.61	
2025-01-19 04:35:24.89	355.32	6.61	
2025-01-19 04:35:25.10	355.28	6.62	
2025-01-19 04:35:25.30	355.25	6.63	
2025-01-19 04:35:25.50	355.22	6.63	
2025-01-19 04:35:25.71	355.18	6.64	
2025-01-19 04:35:25.91	355.15	6.65	
2025-01-19 04:35:26.11	355.12	6.65	
2025-01-19 04:35:26.31	355.08	6.66	
2025-01-19 04:35:26.52	355.05	6.66	
2025-01-19 04:35:26.72	355.01	6.67	
2025-01-19 04:35:26.92	354.98	6.68	
2025-01-19 04:35:27.13	354.94	6.68	
2025-01-19 04:35:27.33	354.91	6.69	
2025-01-19 04:35:27.53	354.88	6.70	
2025-01-19 04:35:27.74	354.84	6.70	
2025-01-19 04:35:27.94	354.81	6.71	
2025-01-19 04:35:28.14	354.78	6.71	
2025-01-19 04:35:28.35	354.74	6.72	
2025-01-19 04:35:28.55	354.71	6.73	
2025-01-19 04:35:28.75	354.67	6.73	
2025-01-19 04:35:28.96	354.64	6.74	
2025-01-19 04:35:29.16	354.61	6.75	
2025-01-19 04:35:29.36	354.57	6.75	
2025-01-19 04:35:29.57	354.54	6.76	
2025-01-19 04:35:29.77	354.50	6.76	
2025-01-19 04:35:29.97	354.47	6.77	
2025-01-19 04:35:30.18	354.43	6.78	
2025-01-19 04:35:30.38	354.40	6.78	
2025-01-19 04:35:30.58	354.37	6.79	
2025-01-19 04:35:30.79	354.33	6.79	
2025-01-19 04:35:30.99	354.30	6.80	
2025-01-19 04:35:31.19	354.26	6.81	
2025-01-19 04:35:31.40	354.23	6.81	
2025-01-19 04:35:31.60	354.20	6.82	
2025-01-19 04:35:31.80	354.16	6.82	
2025-01-19 04:35:32.00	354.13	6.83	
2025-01-19 04:35:32.21	354.09	6.84	
2025-01-19 04:35:32.41	354.06	6.84	
2025-01-19 04:35:32.61	354.02	6.85	
2025-01-19 04:35:32.82	353.99	6.85	
2025-01-19 04:35:33.02	353.96	6.86	
2025-01-19 04:35:33.22	353.92	6.87	
2025-01-19 04:35:33.43	353.89	6.87	
2025-01-19 04:35:33.63	353.85	6.88	
2025-01-19 04:35:33.83	353.82	6.88	
2025-01-19 04:35:34.04	353.78	6.89	
2025-01-19 04:35:34.24	353.75	6.90	
2025-01-19 04:35:34.44	353.71	6.90	
2025-01-19 04:35:34.65	353.68	6.91	
2025-01-19 04:35:34.85	353.65	6.91	
2025-01-19 04:35:35.05	353.61	6.92	
2025-01-19 04:35:35.26	353.58	6.93	
2025-01-19 04:35:35.46	353.54	6.93	
2025-01-19 04:35:35.66	353.51	6.94	
2025-01-19 04:35:35.87	353.47	6.94	
2025-01-19 04:35:36.07	353.44	6.95	
2025-01-19 04:35:36.27	353.40	6.96	
2025-01-19 04:35:36.48	353.37	6.96	
2025-01-19 04:35:36.68	353.33	6.97	
2025-01-19 04:35:36.88	353.30	6.97	
2025-01-19 04:35:37.09	353.26	6.98	
2025-01-19 04:35:37.29	353.23	6.98	
2025-01-19 04:35:37.49	353.20	6.99	
2025-01-19 04:35:37.69	353.16	7.00	
2025-01-19 04:35:37.90	353.13	7.00	
2025-01-19 04:35:38.10	353.09	7.01	
2025-01-19 04:35:38.30	353.06	7.01	
2025-01-19 04:35:38.51	353.02	7.02	
2025-01-19 04:35:38.71	352.99	7.03	
2025-01-19 04:35:38.91	352.95	7.03	
2025-01-19 04:35:39.12	352.92	7.04	
2025-01-19 04:35:39.32	352.88	7.04	
2025-01-19 04:35:39.52	352.85	7.05	
2025-01-19 04:35:39.73	352.81	7.05	
2025-01-19 04:35:39.93	352.78	7.06	
2025-01-19 04:35:40.13	352.74	7.07	
2025-01-19 04:35:40.34	352.71	7.07	
2025-01-19 04:35:40.54	352.67	7.08	
2025-01-19 04:35:40.74	352.64	7.08	
2025-01-19 04:35:40.95	352.60	7.09	
2025-01-19 04:35:41.15	352.57	7.09	
2025-01-19 04:35:41.35	352.53	7.10	
2025-01-19 04:35:41.56	352.50	7.11	
2025-01-19 04:35:41.76	352.46	7.11	
2025-01-19 04:35:41.96	352.43	7.12	
2025-01-19 04:35:42.17	352.39	7.12	
2025-01-19 04:35:42.37	352.36	7.13	
2025-01-19 04:35:42.57	352.32	7.13	
2025-01-19 04:35:42.78	352.29	7.14	
2025-01-19 04:35:42.98	352.25	7.14	
2025-01-19 04:35:43.18	352.22	7.15	
2025-01-19 04:35:43.38	352.18	7.16	
2025-01-19 04:35:43.59	352.15	7.16	
2025-01-19 04:35:43.79	352.11	7.17	
2025-01-19 04:35:43.99	352.08	7.17	
2025-01-19 04:35:44.20	352.04	7.18	
2025-01-19 04:35:44.40	352.01	7.18	
2025-01-19 04:35:44.60	351.97	7.19	
2025-01-19 04:35:44.81	351.93	7.20	
2025-01-19 04:35:45.01	351.90	7.20	
2025-01-19 04:35:45.21	351.87	7.21	
2025-01-19 04:35:45.42	351.83	7.21	
2025-01-19 04:35:45.62	351.79	7.22	
2025-01-19 04:35:45.82	351.76	7.22	
2025-01-19 04:35:46.03	351.72	7.23	
2025-01-19 04:35:46.23	351.69	7.23	
2025-01-19 04:35:46.43	351.65	7.24	
2025-01-19 04:35:46.64	351.62	7.24	
2025-01-19 04:35:46.84	351.58	7.25	
2025-01-19 04:35:47.04	351.55	7.26	
2025-01-19 04:35:47.25	351.51	7.26	
2025-01-19 04:35:47.45	351.48	7.27	
2025-01-19 04:35:47.65	351.44	7.27	
2025-01-19 04:35:47.86	351.40	7.28	
2025-01-19 04:35:48.06	351.37	7.28	
2025-01-19 04:35:48.26	351.33	7.29	
2025-01-19 04:35:48.47	351.30	7.29	
2025-01-19 04:35:48.67	351.26	7.30	
2025-01-19 04:35:48.87	351.23	7.30	
2025-01-19 04:35:49.07	351.19	7.31	
2025-01-19 04:35:49.28	351.16	7.31	
2025-01-19 04:35:49.48	351.12	7.32	
2025-01-19 04:35:49.68	351.09	7.33	
2025-01-19 04:35:49.89	351.05	7.33	
2025-01-19 04:35:50.09	351.01	7.34	
2025-01-19 04:35:50.29	350.98	7.34	
2025-01-19 04:35:50.50	350.94	7.35	
2025-01-19 04:35:50.70	350.91	7.35	
2025-01-19 04:35:50.90	350.87	7.36	
2025-01-19 04:35:51.11	350.83	7.36	
2025-01-19 04:35:51.31	350.80	7.37	
2025-01-19 04:35:51.51	350.76	7.37	
2025-01-19 04:35:51.72	350.73	7.38	
2025-01-19 04:35:51.92	350.69	7.38	
2025-01-19 04:35:52.12	350.66	7.39	
2025-01-19 04:35:52.33	350.62	7.39	
2025-01-19 04:35:52.53	350.58	7.40	
2025-01-19 04:35:52.73	350.55	7.40	
2025-01-19 04:35:52.94	350.51	7.41	
2025-01-19 04:35:53.14	350.48	7.41	
2025-01-19 04:35:53.34	350.44	7.42	
2025-01-19 04:35:53.55	350.40	7.43	
2025-01-19 04:35:53.75	350.37	7.43	
2025-01-19 04:35:53.95	350.33	7.44	
2025-01-19 04:35:54.16	350.30	7.44	
2025-01-19 04:35:54.36	350.26	7.45	
2025-01-19 04:35:54.56	350.23	7.45	
2025-01-19 04:35:54.76	350.19	7.46	
2025-01-19 04:35:54.97	350.15	7.46	
2025-01-19 04:35:55.17	350.12	7.47	
2025-01-19 04:35:55.37	350.08	7.47	
2025-01-19 04:35:55.58	350.05	7.48	
2025-01-19 04:35:55.78	350.01	7.48	
2025-01-19 04:35:55.98	349.97	7.49	
2025-01-19 04:35:56.19	349.94	7.49	
2025-01-19 04:35:56.39	349.90	7.50	
2025-01-19 04:35:56.59	349.87	7.50	
2025-01-19 04:35:56.80	349.83	7.51	
2025-01-19 04:35:57.00	349.79	7.51	
2025-01-19 04:35:57.20	349.76	7.52	
2025-01-19 04:35:57.41	349.72	7.52	
2025-01-19 04:35:57.61	349.68	7.53	
2025-01-19 04:35:57.81	349.65	7.53	
2025-01-19 04:35:58.02	349.61	7.54	
2025-01-19 04:35:58.22	349.58	7.54	
2025-01-19 04:35:58.42	349.54	7.55	
2025-01-19 04:35:58.63	349.50	7.55	
2025-01-19 04:35:58.83	349.47	7.56	
2025-01-19 04:35:59.03	349.43	7.56	
2025-01-19 04:35:59.24	349.39	7.57	
2025-01-19 04:35:59.44	349.36	7.57	
2025-01-19 04:35:59.64	349.32	7.58	
2025-01-19 04:35:59.85	349.29	7.58	
2025-01-19 04:36:00.05	349.25	7.59	
2025-01-19 04:36:00.25	349.21	7.59	
2025-01-19 04:36:00.45	349.18	7.60	
2025-01-19 04:36:00.66	349.14	7.60	
2025-01-19 04:36:00.86	349.10	7.61	
2025-01-19 04:36:01.06	349.07	7.61	
2025-01-19 04:36:01.27	349.03	7.62	
2025-01-19 04:36:01.47	349.00	7.62	
2025-01-19 04:36:01.67	348.96	7.62	
2025-01-19 04:36:01.88	348.92	7.63	
2025-01-19 04:36:02.08	348.89	7.63	
2025-01-19 04:36:02.28	348.85	7.64	
2025-01-19 04:36:02.49	348.81	7.64	
2025-01-19 04:36:02.69	348.78	7.65	
2025-01-19 04:36:02.89	348.74	7.65	
2025-01-19 04:36:03.10	348.70	7.66	
2025-01-19 04:36:03.30	348.67	7.66	
2025-01-19 04:36:03.50	348.63	7.67	
2025-01-19 04:36:03.71	348.59	7.67	
2025-01-19 04:36:03.91	348.56	7.68	
2025-01-19 04:36:04.11	348.52	7.68	
2025-01-19 04:36:04.32	348.48	7.69	
2025-01-19 04:36:04.52	348.45	7.69	
2025-01-19 04:36:04.72	348.41	7.70	
2025-01-19 04:36:04.93	348.37	7.70	
2025-01-19 04:36:05.13	348.34	7.71	
2025-01-19 04:36:05.33	348.30	7.71	
2025-01-19 04:36:05.53	348.27	7.71	
2025-01-19 04:36:05.74	348.23	7.72	
2025-01-19 04:36:05.94	348.19	7.72	
2025-01-19 04:36:06.14	348.15	7.73	
2025-01-19 04:36:06.35	348.12	7.73	
2025-01-19 04:36:06.55	348.08	7.74	
2025-01-19 04:36:06.75	348.04	7.74	
2025-01-19 04:36:06.96	348.01	7.75	
2025-01-19 04:36:07.16	347.97	7.75	
2025-01-19 04:36:07.36	347.93	7.76	
2025-01-19 04:36:07.57	347.90	7.76	
2025-01-19 04:36:07.77	347.86	7.77	
2025-01-19 04:36:07.97	347.82	7.77	
2025-01-19 04:36:08.18	347.79	7.77	
2025-01-19 04:36:08.38	347.75	7.78	
2025-01-19 04:36:08.58	347.71	7.78	
2025-01-19 04:36:08.79	347.67	7.79	
2025-01-19 04:36:08.99	347.64	7.79	
2025-01-19 04:36:09.19	347.60	7.80	
2025-01-19 04:36:09.40	347.56	7.80	
2025-01-19 04:36:09.60	347.53	7.81	
2025-01-19 04:36:09.80	347.49	7.81	
2025-01-19 04:36:10.01	347.45	7.81	
2025-01-19 04:36:10.21	347.42	7.82	
2025-01-19 04:36:10.41	347.38	7.82	
2025-01-19 04:36:10.62	347.34	7.83	
2025-01-19 04:36:10.82	347.31	7.83	
2025-01-19 04:36:11.02	347.27	7.84	
2025-01-19 04:36:11.22	347.23	7.84	
2025-01-19 04:36:11.43	347.19	7.85	
2025-01-19 04:36:11.63	347.16	7.85	
2025-01-19 04:36:11.83	347.12	7.85	
2025-01-19 04:36:12.04	347.08	7.86	
2025-01-19 04:36:12.24	347.05	7.86	
2025-01-19 04:36:12.44	347.01	7.87	
2025-01-19 04:36:12.65	346.97	7.87	
2025-01-19 04:36:12.85	346.94	7.88	
2025-01-19 04:36:13.05	346.90	7.88	
2025-01-19 04:36:13.26	346.86	7.88	
2025-01-19 04:36:13.46	346.82	7.89	
2025-01-19 04:36:13.66	346.79	7.89	
2025-01-19 04:36:13.87	346.75	7.90	
2025-01-19 04:36:14.07	346.71	7.90	
2025-01-19 04:36:14.27	346.68	7.91	
2025-01-19 04:36:14.48	346.64	7.91	
2025-01-19 04:36:14.68	346.60	7.91	
2025-01-19 04:36:14.88	346.56	7.92	
2025-01-19 04:36:15.09	346.53	7.92	
2025-01-19 04:36:15.29	346.49	7.93	
2025-01-19 04:36:15.49	346.45	7.93	
2025-01-19 04:36:15.70	346.41	7.93	
2025-01-19 04:36:15.90	346.38	7.94	
2025-01-19 04:36:16.10	346.34	7.94	
2025-01-19 04:36:16.31	346.30	7.95	
2025-01-19 04:36:16.51	346.26	7.95	
2025-01-19 04:36:16.71	346.23	7.95	
2025-01-19 04:36:16.91	346.19	7.96	
2025-01-19 04:36:17.12	346.15	7.96	
2025-01-19 04:36:17.32	346.12	7.97	
2025-01-19 04:36:17.52	346.08	7.97	
2025-01-19 04:36:17.73	346.04	7.98	
2025-01-19 04:36:17.93	346.00	7.98	
2025-01-19 04:36:18.13	345.97	7.98	
2025-01-19 04:36:18.34	345.93	7.99	
2025-01-19 04:36:18.54	345.89	7.99	
2025-01-19 04:36:18.74	345.85	8.00	
2025-01-19 04:36:18.95	345.82	8.00	
2025-01-19 04:36:19.15	345.78	8.00	
2025-01-19 04:36:19.35	345.74	8.01	
2025-01-19 04:36:19.56	345.70	8.01	
2025-01-19 04:36:19.76	345.67	8.02	
2025-01-19 04:36:19.96	345.63	8.02	
2025-01-19 04:36:20.17	345.59	8.02	
2025-01-19 04:36:20.37	345.55	8.03	
2025-01-19 04:36:20.57	345.52	8.03	
2025-01-19 04:36:20.78	345.48	8.03	
2025-01-19 04:36:20.98	345.44	8.04	
2025-01-19 04:36:21.18	345.40	8.04	
2025-01-19 04:36:21.39	345.36	8.05	
2025-01-19 04:36:21.59	345.33	8.05	
2025-01-19 04:36:21.79	345.29	8.05	
2025-01-19 04:36:22.00	345.25	8.06	
2025-01-19 04:36:22.20	345.21	8.06	
2025-01-19 04:36:22.40	345.18	8.07	
2025-01-19 04:36:22.60	345.14	8.07	
2025-01-19 04:36:22.81	345.10	8.07	
2025-01-19 04:36:23.01	345.06	8.08	
2025-01-19 04:36:23.21	345.03	8.08	
2025-01-19 04:36:23.42	344.99	8.08	
2025-01-19 04:36:23.62	344.95	8.09	
2025-01-19 04:36:23.82	344.91	8.09	
2025-01-19 04:36:24.03	344.87	8.10	
2025-01-19 04:36:24.23	344.84	8.10	
2025-01-19 04:36:24.43	344.80	8.10	
2025-01-19 04:36:24.64	344.76	8.11	
2025-01-19 04:36:24.84	344.72	8.11	
2025-01-19 04:36:25.04	344.69	8.11	
2025-01-19 04:36:25.25	344.65	8.12	
2025-01-19 04:36:25.45	344.61	8.12	
2025-01-19 04:36:25.65	344.57	8.13	
2025-01-19 04:36:25.86	344.53	8.13	
2025-01-19 04:36:26.06	344.50	8.13	
2025-01-19 04:36:26.26	344.46	8.14	
2025-01-19 04:36:26.47	344.42	8.14	
2025-01-19 04:36:26.67	344.38	8.14	
2025-01-19 04:36:26.87	344.35	8.15	
2025-01-19 04:36:27.08	344.31	8.15	
2025-01-19 04:36:27.28	344.27	8.15	
2025-01-19 04:36:27.48	344.23	8.16	
2025-01-19 04:36:27.69	344.19	8.16	
2025-01-19 04:36:27.89	344.16	8.16	
2025-01-19 04:36:28.09	344.12	8.17	
2025-01-19 04:36:28.29	344.08	8.17	
2025-01-19 04:36:28.50	344.04	8.18	
2025-01-19 04:36:28.70	344.00	8.18	
2025-01-19 04:36:28.90	343.97	8.18	
2025-01-19 04:36:29.11	343.93	8.19	
2025-01-19 04:36:29.31	343.89	8.19	
2025-01-19 04:36:29.51	343.85	8.19	
2025-01-19 04:36:29.72	343.81	8.20	
2025-01-19 04:36:29.92	343.78	8.20	
2025-01-19 04:36:30.12	343.74	8.20	
2025-01-19 04:36:30.33	343.70	8.21	
2025-01-19 04:36:30.53	343.66	8.21	
2025-01-19 04:36:30.73	343.62	8.21	
2025-01-19 04:36:30.94	343.58	8.22	
2025-01-19 04:36:31.14	343.55	8.22	
2025-01-19 04:36:31.34	343.51	8.22	
2025-01-19 04:36:31.55	343.47	8.23	
2025-01-19 04:36:31.75	343.43	8.23	
2025-01-19 04:36:31.95	343.39	8.23	
2025-01-19 04:36:32.16	343.36	8.24	
2025-01-19 04:36:32.36	343.32	8.24	
2025-01-19 04:36:32.56	343.28	8.24	
2025-01-19 04:36:32.77	343.24	8.25	
2025-01-19 04:36:32.97	343.20	8.25	
2025-01-19 04:36:33.17	343.17	8.25	
2025-01-19 04:36:33.38	343.13	8.26	
2025-01-19 04:36:33.58	343.09	8.26	
2025-01-19 04:36:33.78	343.05	8.26	
2025-01-19 04:36:33.98	343.01	8.27	
2025-01-19 04:36:34.19	342.97	8.27	
2025-01-19 04:36:34.39	342.94	8.27	
2025-01-19 04:36:34.59	342.90	8.28	
2025-01-19 04:36:34.80	342.86	8.28	
2025-01-19 04:36:35.00	342.82	8.28	
2025-01-19 04:36:35.20	342.78	8.28	
2025-01-19 04:36:35.41	342.74	8.29	
2025-01-19 04:36:35.61	342.71	8.29	
2025-01-19 04:36:35.81	342.67	8.29	
2025-01-19 04:36:36.02	342.63	8.30	
2025-01-19 04:36:36.22	342.59	8.30	
2025-01-19 04:36:36.42	342.55	8.30	
2025-01-19 04:36:36.63	342.51	8.31	
2025-01-19 04:36:36.83	342.48	8.31	
2025-01-19 04:36:37.03	342.44	8.31	
2025-01-19 04:36:37.24	342.40	8.32	
2025-01-19 04:36:37.44	342.36	8.32	
2025-01-19 04:36:37.64	342.32	8.32	
2025-01-19 04:36:37.85	342.28	8.32	
2025-01-19 04:36:38.05	342.25	8.33	
2025-01-19 04:36:38.25	342.21	8.33	
2025-01-19 04:36:38.46	342.17	8.33	
2025-01-19 04:36:38.66	342.13	8.34	
2025-01-19 04:36:38.86	342.09	8.34	
2025-01-19 04:36:39.07	342.05	8.34	
2025-01-19 04:36:39.27	342.01	8.35	
2025-01-19 04:36:39.47	341.98	8.35	
2025-01-19 04:36:39.67	341.94	8.35	
2025-01-19 04:36:39.88	341.90	8.35	
2025-01-19 04:36:40.08	341.86	8.36	
2025-01-19 04:36:40.28	341.82	8.36	
2025-01-19 04:36:40.49	341.78	8.36	
2025-01-19 04:36:40.69	341.75	8.37	
2025-01-19 04:36:40.89	341.71	8.37	
2025-01-19 04:36:41.10	341.67	8.37	
2025-01-19 04:36:41.30	341.63	8.37	
2025-01-19 04:36:41.50	341.59	8.38	
2025-01-19 04:36:41.71	341.55	8.38	
2025-01-19 04:36:41.91	341.51	8.38	
2025-01-19 04:36:42.11	341.48	8.39	
2025-01-19 04:36:42.32	341.44	8.39	
2025-01-19 04:36:42.52	341.40	8.39	
2025-01-19 04:36:42.72	341.36	8.39	
2025-01-19 04:36:42.93	341.32	8.40	
2025-01-19 04:36:43.13	341.28	8.40	
2025-01-19 04:36:43.33	341.24	8.40	
2025-01-19 04:36:43.54	341.20	8.40	
2025-01-19 04:36:43.74	341.17	8.41	
2025-01-19 04:36:43.94	341.13	8.41	
2025-01-19 04:36:44.15	341.09	8.41	
2025-01-19 04:36:44.35	341.05	8.41	
2025-01-19 04:36:44.55	341.01	8.42	
2025-01-19 04:36:44.75	340.97	8.42	
2025-01-19 04:36:44.96	340.93	8.42	
2025-01-19 04:36:45.16	340.90	8.43	
2025-01-19 04:36:45.36	340.86	8.43	
2025-01-19 04:36:45.57	340.82	8.43	
2025-01-19 04:36:45.77	340.78	8.43	
2025-01-19 04:36:45.97	340.74	8.44	
2025-01-19 04:36:46.18	340.70	8.44	
2025-01-19 04:36:46.38	340.66	8.44	
2025-01-19 04:36:46.58	340.62	8.44	
2025-01-19 04:36:46.79	340.58	8.45	
2025-01-19 04:36:46.99	340.55	8.45	
2025-01-19 04:36:47.19	340.51	8.45	
2025-01-19 04:36:47.40	340.47	8.45	
2025-01-19 04:36:47.60	340.43	8.46	
2025-01-19 04:36:47.80	340.39	8.46	
2025-01-19 04:36:48.01	340.35	8.46	
2025-01-19 04:36:48.21	340.31	8.46	
2025-01-19 04:36:48.41	340.27	8.47	
2025-01-19 04:36:48.62	340.23	8.47	
2025-01-19 04:36:48.82	340.20	8.47	
2025-01-19 04:36:49.02	340.16	8.47	
2025-01-19 04:36:49.23	340.12	8.47	
2025-01-19 04:36:49.43	340.08	8.48	
2025-01-19 04:36:49.63	340.04	8.48	
2025-01-19 04:36:49.84	340.00	8.48	
2025-01-19 04:36:50.04	339.96	8.48	
2025-01-19 04:36:50.24	339.92	8.49	
2025-01-19 04:36:50.44	339.89	8.49	
2025-01-19 04:36:50.65	339.85	8.49	
2025-01-19 04:36:50.85	339.81	8.49	
2025-01-19 04:36:51.05	339.77	8.50	
2025-01-19 04:36:51.26	339.73	8.50	
2025-01-19 04:36:51.46	339.69	8.50	
2025-01-19 04:36:51.66	339.65	8.50	
2025-01-19 04:36:51.87	339.61	8.50	
2025-01-19 04:36:52.07	339.57	8.51	
2025-01-19 04:36:52.27	339.54	8.51	
2025-01-19 04:36:52.48	339.50	8.51	
2025-01-19 04:36:52.68	339.46	8.51	
2025-01-19 04:36:52.88	339.42	8.52	
2025-01-19 04:36:53.09	339.38	8.52	
2025-01-19 04:36:53.29	339.34	8.52	
2025-01-19 04:36:53.49	339.30	8.52	
2025-01-19 04:36:53.70	339.26	8.52	
2025-01-19 04:36:53.90	339.22	8.53	
2025-01-19 04:36:54.10	339.18	8.53	
2025-01-19 04:36:54.31	339.14	8.53	
2025-01-19 04:36:54.51	339.11	8.53	
2025-01-19 04:36:54.71	339.07	8.53	
2025-01-19 04:36:54.92	339.03	8.54	
2025-01-19 04:36:55.12	338.99	8.54	
2025-01-19 04:36:55.32	338.95	8.54	
2025-01-19 04:36:55.53	338.91	8.54	
2025-01-19 04:36:55.73	338.87	8.54	
2025-01-19 04:36:55.93	338.83	8.55	
2025-01-19 04:36:56.13	338.79	8.55	
2025-01-19 04:36:56.34	338.75	8.55	
2025-01-19 04:36:56.54	338.72	8.55	
2025-01-19 04:36:56.74	338.68	8.55	
2025-01-19 04:36:56.95	338.64	8.56	
2025-01-19 04:36:57.15	338.60	8.56	
2025-01-19 04:36:57.35	338.56	8.56	
2025-01-19 04:36:57.56	338.52	8.56	
2025-01-19 04:36:57.76	338.48	8.56	
2025-01-19 04:36:57.96	338.44	8.57	
2025-01-19 04:36:58.17	338.40	8.57	
2025-01-19 04:36:58.37	338.36	8.57	
2025-01-19 04:36:58.57	338.32	8.57	
2025-01-19 04:36:58.78	338.28	8.57	
2025-01-19 04:36:58.98	338.25	8.57	
2025-01-19 04:36:59.18	338.21	8.58	
2025-01-19 04:36:59.39	338.17	8.58	
2025-01-19 04:36:59.59	338.13	8.58	
2025-01-19 04:36:59.79	338.09	8.58	
2025-01-19 04:37:00.00	338.05	8.58	
2025-01-19 04:37:00.20	338.01	8.59	
2025-01-19 04:37:00.40	337.97	8.59	
2025-01-19 04:37:00.61	337.93	8.59	
2025-01-19 04:37:00.81	337.89	8.59	
2025-01-19 04:37:01.01	337.85	8.59	
2025-01-19 04:37:01.22	337.81	8.59	
2025-01-19 04:37:01.42	337.77	8.60	
2025-01-19 04:37:01.62	337.74	8.60	
2025-01-19 04:37:01.82	337.70	8.60	
2025-01-19 04:37:02.03	337.66	8.60	
2025-01-19 04:37:02.23	337.62	8.60	
2025-01-19 04:37:02.43	337.58	8.60	
2025-01-19 04:37:02.64	337.54	8.61	
2025-01-19 04:37:02.84	337.50	8.61	
2025-01-19 04:37:03.04	337.46	8.61	
2025-01-19 04:37:03.25	337.42	8.61	
2025-01-19 04:37:03.45	337.38	8.61	
2025-01-19 04:37:03.65	337.34	8.61	
2025-01-19 04:37:03.86	337.30	8.61	
2025-01-19 04:37:04.06	337.26	8.62	
2025-01-19 04:37:04.26	337.23	8.62	
2025-01-19 04:37:04.47	337.19	8.62	
2025-01-19 04:37:04.67	337.15	8.62	
2025-01-19 04:37:04.87	337.11	8.62	
2025-01-19 04:37:05.08	337.07	8.62	
2025-01-19 04:37:05.28	337.03	8.63	
2025-01-19 04:37:05.48	336.99	8.63	
2025-01-19 04:37:05.69	336.95	8.63	
2025-01-19 04:37:05.89	336.91	8.63	
2025-01-19 04:37:06.09	336.87	8.63	
2025-01-19 04:37:06.30	336.83	8.63	
2025-01-19 04:37:06.50	336.79	8.63	
2025-01-19 04:37:06.70	336.75	8.63	
2025-01-19 04:37:06.91	336.71	8.64	
2025-01-19 04:37:07.11	336.67	8.64	
2025-01-19 04:37:07.31	336.64	8.64	
2025-01-19 04:37:07.51	336.60	8.64	
2025-01-19 04:37:07.72	336.56	8.64	
2025-01-19 04:37:07.92	336.52	8.64	
2025-01-19 04:37:08.12	336.48	8.64	
2025-01-19 04:37:08.33	336.44	8.65	
2025-01-19 04:37:08.53	336.40	8.65	
2025-01-19 04:37:08.73	336.36	8.65	
2025-01-19 04:37:08.94	336.32	8.65	
2025-01-19 04:37:09.14	336.28	8.65	
2025-01-19 04:37:09.34	336.24	8.65	
2025-01-19 04:37:09.55	336.20	8.65	
2025-01-19 04:37:09.75	336.16	8.65	
2025-01-19 04:37:09.95	336.12	8.66	
2025-01-19 04:37:10.16	336.08	8.66	
2025-01-19 04:37:10.36	336.04	8.66	
2025-01-19 04:37:10.56	336.01	8.66	
2025-01-19 04:37:10.77	335.97	8.66	
2025-01-19 04:37:10.97	335.93	8.66	
2025-01-19 04:37:11.17	335.89	8.66	
2025-01-19 04:37:11.38	335.85	8.66	
2025-01-19 04:37:11.58	335.81	8.66	
2025-01-19 04:37:11.78	335.77	8.66	
2025-01-19 04:37:11.99	335.73	8.67	
2025-01-19 04:37:12.19	335.69	8.67	
2025-01-19 04:37:12.39	335.65	8.67	
2025-01-19 04:37:12.60	335.61	8.67	
2025-01-19 04:37:12.80	335.57	8.67	
2025-01-19 04:37:13.00	335.53	8.67	
2025-01-19 04:37:13.20	335.49	8.67	
2025-01-19 04:37:13.41	335.45	8.67	
2025-01-19 04:37:13.61	335.41	8.67	
2025-01-19 04:37:13.81	335.38	8.67	
2025-01-19 04:37:14.02	335.33	8.68	
2025-01-19 04:37:14.22	335.30	8.68	
2025-01-19 04:37:14.42	335.26	8.68	
2025-01-19 04:37:14.63	335.22	8.68	
2025-01-19 04:37:14.83	335.18	8.68	
2025-01-19 04:37:15.03	335.14	8.68	
2025-01-19 04:37:15.24	335.10	8.68	
2025-01-19 04:37:15.44	335.06	8.68	
2025-01-19 04:37:15.64	335.02	8.68	
2025-01-19 04:37:15.85	334.98	8.68	
2025-01-19 04:37:16.05	334.94	8.68	
2025-01-19 04:37:16.25	334.90	8.69	
2025-01-19 04:37:16.46	334.86	8.69	
2025-01-19 04:37:16.66	334.82	8.69	
2025-01-19 04:37:16.86	334.78	8.69	
2025-01-19 04:37:17.07	334.74	8.69	
2025-01-19 04:37:17.27	334.70	8.69	
2025-01-19 04:37:17.47	334.66	8.69	
2025-01-19 04:37:17.68	334.62	8.69	
2025-01-19 04:37:17.88	334.58	8.69	
2025-01-19 04:37:18.08	334.55	8.69	
2025-01-19 04:37:18.29	334.50	8.69	
2025-01-19 04:37:18.49	334.47	8.69	
2025-01-19 04:37:18.69	334.43	8.69	
2025-01-19 04:37:18.89	334.39	8.69	
2025-01-19 04:37:19.10	334.35	8.70	
2025-01-19 04:37:19.30	334.31	8.70	
2025-01-19 04:37:19.50	334.27	8.70	
2025-01-19 04:37:19.71	334.23	8.70	
2025-01-19 04:37:19.91	334.19	8.70	
2025-01-19 04:37:20.11	334.15	8.70	
2025-01-19 04:37:20.32	334.11	8.70	
2025-01-19 04:37:20.52	334.07	8.70	
2025-01-19 04:37:20.72	334.03	8.70	
2025-01-19 04:37:20.93	333.99	8.70	
2025-01-19 04:37:21.13	333.95	8.70	
2025-01-19 04:37:21.33	333.91	8.70	
2025-01-19 04:37:21.54	333.87	8.70	
2025-01-19 04:37:21.74	333.83	8.70	
2025-01-19 04:37:21.94	333.79	8.70	
2025-01-19 04:37:22.15	333.75	8.70	
2025-01-19 04:37:22.35	333.71	8.70	
2025-01-19 04:37:22.55	333.68	8.70	
2025-01-19 04:37:22.76	333.63	8.70	
2025-01-19 04:37:22.96	333.60	8.70	
2025-01-19 04:37:23.16	333.56	8.70	
2025-01-19 04:37:23.37	333.52	8.71	
2025-01-19 04:37:23.57	333.48	8.71	
2025-01-19 04:37:23.77	333.44	8.71	
2025-01-19 04:37:23.97	333.40	8.71	
2025-01-19 04:37:24.18	333.36	8.71	
2025-01-19 04:37:24.38	333.32	8.71	
2025-01-19 04:37:24.58	333.28	8.71	
2025-01-19 04:37:24.79	333.24	8.71	
2025-01-19 04:37:24.99	333.20	8.71	
2025-01-19 04:37:25.19	333.16	8.71	
2025-01-19 04:37:25.40	333.12	8.71	
2025-01-19 04:37:25.60	333.08	8.71	
2025-01-19 04:37:25.80	333.04	8.71	
2025-01-19 04:37:26.01	333.00	8.71	
2025-01-19 04:37:26.21	332.96	8.71	
2025-01-19 04:37:26.41	332.92	8.71	
2025-01-19 04:37:26.62	332.88	8.71	
2025-01-19 04:37:26.82	332.84	8.71	
2025-01-19 04:37:27.02	332.80	8.71	
2025-01-19 04:37:27.23	332.76	8.71	
2025-01-19 04:37:27.43	332.72	8.71	
2025-01-19 04:37:27.63	332.69	8.71	
2025-01-19 04:37:27.84	332.65	8.71	
2025-01-19 04:37:28.04	332.61	8.71	
2025-01-19 04:37:28.24	332.57	8.71	
2025-01-19 04:37:28.45	332.53	8.71	
2025-01-19 04:37:28.65	332.49	8.71	
2025-01-19 04:37:28.85	332.45	8.71	
2025-01-19 04:37:29.06	332.41	8.71	
2025-01-19 04:37:29.26	332.37	8.71	
2025-01-19 04:37:29.46	332.33	8.71	
2025-01-19 04:37:29.66	332.29	8.71	
2025-01-19 04:37:29.87	332.25	8.71	
2025-01-19 04:37:30.07	332.21	8.71	
2025-01-19 04:37:30.27	332.17	8.71	
2025-01-19 04:37:30.48	332.13	8.71	
2025-01-19 04:37:30.68	332.09	8.71	
2025-01-19 04:37:30.88	332.05	8.71	
2025-01-19 04:37:31.09	332.01	8.71	
2025-01-19 04:37:31.29	331.97	8.71	
2025-01-19 04:37:31.49	331.93	8.71	
2025-01-19 04:37:31.70	331.89	8.71	
2025-01-19 04:37:31.90	331.85	8.71	
2025-01-19 04:37:32.10	331.82	8.71	
2025-01-19 04:37:32.31	331.77	8.71	
2025-01-19 04:37:32.51	331.74	8.71	
2025-01-19 04:37:32.71	331.70	8.71	
2025-01-19 04:37:32.92	331.66	8.71	
2025-01-19 04:37:33.12	331.62	8.71	
2025-01-19 04:37:33.32	331.58	8.71	
2025-01-19 04:37:33.53	331.54	8.71	
2025-01-19 04:37:33.73	331.50	8.71	
2025-01-19 04:37:33.93	331.46	8.71	
2025-01-19 04:37:34.14	331.42	8.71	
2025-01-19 04:37:34.34	331.38	8.71	
2025-01-19 04:37:34.54	331.34	8.71	
2025-01-19 04:37:34.75	331.30	8.71	
2025-01-19 04:37:34.95	331.26	8.71	
2025-01-19 04:37:35.15	331.22	8.71	
2025-01-19 04:37:35.35	331.18	8.71	
2025-01-19 04:37:35.56	331.14	8.71	
2025-01-19 04:37:35.76	331.10	8.70	
2025-01-19 04:37:35.96	331.06	8.70	
2025-01-19 04:37:36.17	331.02	8.70	
2025-01-19 04:37:36.37	330.98	8.70	
2025-01-19 04:37:36.57	330.94	8.70	
2025-01-19 04:37:36.78	330.90	8.70	
2025-01-19 04:37:36.98	330.86	8.70	
2025-01-19 04:37:37.18	330.83	8.70	
2025-01-19 04:37:37.39	330.79	8.70	
2025-01-19 04:37:37.59	330.75	8.70	
2025-01-19 04:37:37.79	330.71	8.70	
2025-01-19 04:37:38.00	330.67	8.70	
2025-01-19 04:37:38.20	330.63	8.70	
2025-01-19 04:37:38.40	330.59	8.70	
2025-01-19 04:37:38.61	330.55	8.70	
2025-01-19 04:37:38.81	330.51	8.70	
2025-01-19 04:37:39.01	330.47	8.70	
2025-01-19 04:37:39.22	330.43	8.70	
2025-01-19 04:37:39.42	330.39	8.70	
2025-01-19 04:37:39.62	330.35	8.70	
2025-01-19 04:37:39.83	330.31	8.69	
2025-01-19 04:37:40.03	330.27	8.69	
2025-01-19 04:37:40.23	330.23	8.69	
2025-01-19 04:37:40.44	330.19	8.69	
2025-01-19 04:37:40.64	330.15	8.69	
2025-01-19 04:37:40.84	330.11	8.69	
2025-01-19 04:37:41.04	330.07	8.69	
2025-01-19 04:37:41.25	330.03	8.69	
2025-01-19 04:37:41.45	329.99	8.69	
2025-01-19 04:37:41.65	329.96	8.69	
2025-01-19 04:37:41.86	329.92	8.69	
2025-01-19 04:37:42.06	329.88	8.69	
2025-01-19 04:37:42.26	329.84	8.69	
2025-01-19 04:37:42.47	329.80	8.69	
2025-01-19 04:37:42.67	329.76	8.68	
2025-01-19 04:37:42.87	329.72	8.68	
2025-01-19 04:37:43.08	329.68	8.68	
2025-01-19 04:37:43.28	329.64	8.68	
2025-01-19 04:37:43.48	329.60	8.68	
2025-01-19 04:37:43.69	329.56	8.68	
2025-01-19 04:37:43.89	329.52	8.68	
2025-01-19 04:37:44.09	329.48	8.68	
2025-01-19 04:37:44.30	329.44	8.68	
2025-01-19 04:37:44.50	329.40	8.68	
2025-01-19 04:37:44.70	329.36	8.68	
2025-01-19 04:37:44.91	329.32	8.68	
2025-01-19 04:37:45.11	329.28	8.67	
2025-01-19 04:37:45.31	329.24	8.67	
2025-01-19 04:37:45.52	329.20	8.67	
2025-01-19 04:37:45.72	329.16	8.67	
2025-01-19 04:37:45.92	329.13	8.67	
2025-01-19 04:37:46.13	329.09	8.67	
2025-01-19 04:37:46.33	329.05	8.67	
2025-01-19 04:37:46.53	329.01	8.67	
2025-01-19 04:37:46.73	328.97	8.67	
2025-01-19 04:37:46.94	328.93	8.67	
2025-01-19 04:37:47.14	328.89	8.66	
2025-01-19 04:37:47.34	328.85	8.66	
2025-01-19 04:37:47.55	328.81	8.66	
2025-01-19 04:37:47.75	328.77	8.66	
2025-01-19 04:37:47.95	328.73	8.66	
2025-01-19 04:37:48.16	328.69	8.66	
2025-01-19 04:37:48.36	328.65	8.66	
2025-01-19 04:37:48.56	328.61	8.66	
2025-01-19 04:37:48.77	328.57	8.66	
2025-01-19 04:37:48.97	328.53	8.65	
2025-01-19 04:37:49.17	328.50	8.65	
2025-01-19 04:37:49.38	328.45	8.65	
2025-01-19 04:37:49.58	328.42	8.65	
2025-01-19 04:37:49.78	328.38	8.65	
2025-01-19 04:37:49.99	328.34	8.65	
2025-01-19 04:37:50.19	328.30	8.65	
2025-01-19 04:37:50.39	328.26	8.65	
2025-01-19 04:37:50.60	328.22	8.64	
2025-01-19 04:37:50.80	328.18	8.64	
2025-01-19 04:37:51.00	328.14	8.64	
2025-01-19 04:37:51.21	328.10	8.64	
2025-01-19 04:37:51.41	328.06	8.64	
2025-01-19 04:37:51.61	328.02	8.64	
2025-01-19 04:37:51.82	327.98	8.64	
2025-01-19 04:37:52.02	327.94	8.64	
2025-01-19 04:37:52.22	327.90	8.63	
2025-01-19 04:37:52.42	327.87	8.63	
2025-01-19 04:37:52.63	327.82	8.63	
2025-01-19 04:37:52.83	327.79	8.63	
2025-01-19 04:37:53.03	327.75	8.63	
2025-01-19 04:37:53.24	327.71	8.63	
2025-01-19 04:37:53.44	327.67	8.63	
2025-01-19 04:37:53.64	327.63	8.62	
2025-01-19 04:37:53.85	327.59	8.62	
2025-01-19 04:37:54.05	327.55	8.62	
2025-01-19 04:37:54.25	327.51	8.62	
2025-01-19 04:37:54.46	327.47	8.62	
2025-01-19 04:37:54.66	327.43	8.62	
2025-01-19 04:37:54.86	327.39	8.62	
2025-01-19 04:37:55.07	327.35	8.61	
2025-01-19 04:37:55.27	327.31	8.61	
2025-01-19 04:37:55.47	327.27	8.61	
2025-01-19 04:37:55.68	327.23	8.61	
2025-01-19 04:37:55.88	327.20	8.61	
2025-01-19 04:37:56.08	327.16	8.61	
2025-01-19 04:37:56.29	327.12	8.60	
2025-01-19 04:37:56.49	327.08	8.60	
2025-01-19 04:37:56.69	327.04	8.60	
2025-01-19 04:37:56.90	327.00	8.60	
2025-01-19 04:37:57.10	326.96	8.60	
2025-01-19 04:37:57.30	326.92	8.60	
2025-01-19 04:37:57.51	326.88	8.59	
2025-01-19 04:37:57.71	326.84	8.59	
2025-01-19 04:37:57.91	326.80	8.59	
2025-01-19 04:37:58.11	326.76	8.59	
2025-01-19 04:37:58.32	326.72	8.59	
2025-01-19 04:37:58.52	326.69	8.59	
2025-01-19 04:37:58.72	326.65	8.58	
2025-01-19 04:37:58.93	326.61	8.58	
2025-01-19 04:37:59.13	326.57	8.58	
2025-01-19 04:37:59.33	326.53	8.58	
2025-01-19 04:37:59.54	326.49	8.58	
2025-01-19 04:37:59.74	326.45	8.58	
2025-01-19 04:37:59.94	326.41	8.57	
2025-01-19 04:38:00.15	326.37	8.57	
2025-01-19 04:38:00.35	326.33	8.57	
2025-01-19 04:38:00.55	326.29	8.57	
2025-01-19 04:38:00.76	326.25	8.57	
2025-01-19 04:38:00.96	326.21	8.56	
2025-01-19 04:38:01.16	326.18	8.56	
2025-01-19 04:38:01.37	326.14	8.56	
2025-01-19 04:38:01.57	326.10	8.56	
2025-01-19 04:38:01.77	326.06	8.56	
2025-01-19 04:38:01.98	326.02	8.55	
2025-01-19 04:38:02.18	325.98	8.55	
2025-01-19 04:38:02.38	325.94	8.55	
2025-01-19 04:38:02.59	325.90	8.55	
2025-01-19 04:38:02.79	325.86	8.55	
2025-01-19 04:38:02.99	325.82	8.55	
2025-01-19 04:38:03.19	325.79	8.54	
2025-01-19 04:38:03.40	325.74	8.54	
2025-01-19 04:38:03.60	325.71	8.54	
2025-01-19 04:38:03.80	325.67	8.54	
2025-01-19 04:38:04.01	325.63	8.54	
2025-01-19 04:38:04.21	325.59	8.53	
2025-01-19 04:38:04.41	325.55	8.53	
2025-01-19 04:38:04.62	325.51	8.53	
2025-01-19 04:38:04.82	325.47	8.53	
2025-01-19 04:38:05.02	325.43	8.52	
2025-01-19 04:38:05.23	325.39	8.52	
2025-01-19 04:38:05.43	325.35	8.52	
2025-01-19 04:38:05.63	325.32	8.52	
2025-01-19 04:38:05.84	325.28	8.52	
2025-01-19 04:38:06.04	325.24	8.51	
2025-01-19 04:38:06.24	325.20	8.51	
2025-01-19 04:38:06.45	325.16	8.51	
2025-01-19 04:38:06.65	325.12	8.51	
2025-01-19 04:38:06.85	325.08	8.51	
2025-01-19 04:38:07.06	325.04	8.50	
2025-01-19 04:38:07.26	325.00	8.50	
2025-01-19 04:38:07.46	324.96	8.50	
2025-01-19 04:38:07.67	324.92	8.50	
2025-01-19 04:38:07.87	324.89	8.49	
2025-01-19 04:38:08.07	324.85	8.49	
2025-01-19 04:38:08.28	324.81	8.49	
2025-01-19 04:38:08.48	324.77	8.49	
2025-01-19 04:38:08.68	324.73	8.48	
2025-01-19 04:38:08.88	324.69	8.48	
2025-01-19 04:38:09.09	324.65	8.48	
2025-01-19 04:38:09.29	324.61	8.48	
2025-01-19 04:38:09.49	324.58	8.48	
2025-01-19 04:38:09.70	324.54	8.47	
2025-01-19 04:38:09.90	324.50	8.47	
2025-01-19 04:38:10.10	324.46	8.47	
2025-01-19 04:38:10.31	324.42	8.47	
2025-01-19 04:38:10.51	324.38	8.46	
2025-01-19 04:38:10.71	324.34	8.46	
2025-01-19 04:38:10.92	324.30	8.46	
2025-01-19 04:38:11.12	324.26	8.46	
2025-01-19 04:38:11.32	324.23	8.45	
2025-01-19 04:38:11.53	324.19	8.45	
2025-01-19 04:38:11.73	324.15	8.45	
2025-01-19 04:38:11.93	324.11	8.45	
2025-01-19 04:38:12.14	324.07	8.44	
2025-01-19 04:38:12.34	324.03	8.44	
2025-01-19 04:38:12.54	323.99	8.44	
2025-01-19 04:38:12.75	323.95	8.44	
2025-01-19 04:38:12.95	323.91	8.43	
2025-01-19 04:38:13.15	323.88	8.43	
2025-01-19 04:38:13.36	323.84	8.43	
2025-01-19 04:38:13.56	323.80	8.43	
2025-01-19 04:38:13.76	323.76	8.42	
2025-01-19 04:38:13.97	323.72	8.42	
2025-01-19 04:38:14.17	323.68	8.42	
2025-01-19 04:38:14.37	323.64	8.42	
2025-01-19 04:38:14.57	323.61	8.41	
2025-01-19 04:38:14.78	323.57	8.41	
2025-01-19 04:38:14.98	323.53	8.41	
2025-01-19 04:38:15.18	323.49	8.40	
2025-01-19 04:38:15.39	323.45	8.40	
2025-01-19 04:38:15.59	323.41	8.40	
2025-01-19 04:38:15.79	323.37	8.40	
2025-01-19 04:38:16.00	323.33	8.39	
2025-01-19 04:38:16.20	323.29	8.39	
2025-01-19 04:38:16.40	323.26	8.39	
2025-01-19 04:38:16.61	323.22	8.39	
2025-01-19 04:38:16.81	323.18	8.38	
2025-01-19 04:38:17.01	323.14	8.38	
2025-01-19 04:38:17.22	323.10	8.38	
2025-01-19 04:38:17.42	323.06	8.37	
2025-01-19 04:38:17.62	323.02	8.37	
2025-01-19 04:38:17.83	322.99	8.37	
2025-01-19 04:38:18.03	322.95	8.37	
2025-01-19 04:38:18.23	322.91	8.36	
2025-01-19 04:38:18.44	322.87	8.36	
2025-01-19 04:38:18.64	322.83	8.36	
2025-01-19 04:38:18.84	322.79	8.35	
2025-01-19 04:38:19.05	322.75	8.35	
2025-01-19 04:38:19.25	322.72	8.35	
2025-01-19 04:38:19.45	322.68	8.35	
2025-01-19 04:38:19.66	322.64	8.34	
2025-01-19 04:38:19.86	322.60	8.34	
2025-01-19 04:38:20.06	322.56	8.34	
2025-01-19 04:38:20.26	322.52	8.33	
2025-01-19 04:38:20.47	322.48	8.33	
2025-01-19 04:38:20.67	322.45	8.33	
2025-01-19 04:38:20.87	322.41	8.33	
2025-01-19 04:38:21.08	322.37	8.32	
2025-01-19 04:38:21.28	322.33	8.32	
2025-01-19 04:38:21.48	322.29	8.32	
2025-01-19 04:38:21.69	322.25	8.31	
2025-01-19 04:38:21.89	322.22	8.31	
2025-01-19 04:38:22.09	322.18	8.31	
2025-01-19 04:38:22.30	322.14	8.30	
2025-01-19 04:38:22.50	322.10	8.30	
2025-01-19 04:38:22.70	322.06	8.30	
2025-01-19 04:38:22.91	322.02	8.29	
2025-01-19 04:38:23.11	321.98	8.29	
2025-01-19 04:38:23.31	321.95	8.29	
2025-01-19 04:38:23.52	321.91	8.29	
2025-01-19 04:38:23.72	321.87	8.28	
2025-01-19 04:38:23.92	321.83	8.28	
2025-01-19 04:38:24.13	321.79	8.28	
2025-01-19 04:38:24.33	321.75	8.27	
2025-01-19 04:38:24.53	321.72	8.27	
2025-01-19 04:38:24.74	321.68	8.27	
2025-01-19 04:38:24.94	321.64	8.26	
2025-01-19 04:38:25.14	321.60	8.26	
2025-01-19 04:38:25.35	321.56	8.26	
2025-01-19 04:38:25.55	321.52	8.25	
2025-01-19 04:38:25.75	321.49	8.25	
2025-01-19 04:38:25.95	321.45	8.25	
2025-01-19 04:38:26.16	321.41	8.24	
2025-01-19 04:38:26.36	321.37	8.24	
2025-01-19 04:38:26.56	321.33	8.24	
2025-01-19 04:38:26.77	321.29	8.23	
2025-01-19 04:38:26.97	321.26	8.23	
2025-01-19 04:38:27.17	321.22	8.23	
2025-01-19 04:38:27.38	321.18	8.22	
2025-01-19 04:38:27.58	321.14	8.22	
2025-01-19 04:38:27.78	321.11	8.22	
2025-01-19 04:38:27.99	321.07	8.21	
2025-01-19 04:38:28.19	321.03	8.21	
2025-01-19 04:38:28.39	320.99	8.21	
2025-01-19 04:38:28.60	320.95	8.20	
2025-01-19 04:38:28.80	320.91	8.20	
2025-01-19 04:38:29.00	320.88	8.20	
2025-01-19 04:38:29.21	320.84	8.19	
2025-01-19 04:38:29.41	320.80	8.19	
2025-01-19 04:38:29.61	320.76	8.19	
2025-01-19 04:38:29.82	320.72	8.18	
2025-01-19 04:38:30.02	320.69	8.18	
2025-01-19 04:38:30.22	320.65	8.18	
2025-01-19 04:38:30.43	320.61	8.17	
2025-01-19 04:38:30.63	320.57	8.17	
2025-01-19 04:38:30.83	320.53	8.17	
2025-01-19 04:38:31.04	320.49	8.16	
2025-01-19 04:38:31.24	320.46	8.16	
2025-01-19 04:38:31.44	320.42	8.16	
2025-01-19 04:38:31.64	320.38	8.15	
2025-01-19 04:38:31.85	320.34	8.15	
2025-01-19 04:38:32.05	320.31	8.14	
2025-01-19 04:38:32.25	320.27	8.14	
2025-01-19 04:38:32.46	320.23	8.14	
2025-01-19 04:38:32.66	320.19	8.13	
2025-01-19 04:38:32.86	320.15	8.13	
2025-01-19 04:38:33.07	320.11	8.13	
2025-01-19 04:38:33.27	320.08	8.12	
2025-01-19 04:38:33.47	320.04	8.12	
2025-01-19 04:38:33.68	320.00	8.12	
2025-01-19 04:38:33.88	319.96	8.11	
2025-01-19 04:38:34.08	319.93	8.11	
2025-01-19 04:38:34.29	319.89	8.10	
2025-01-19 04:38:34.49	319.85	8.10	
2025-01-19 04:38:34.69	319.81	8.10	
2025-01-19 04:38:34.90	319.77	8.09	
2025-01-19 04:38:35.10	319.74	8.09	
2025-01-19 04:38:35.30	319.70	8.09	
2025-01-19 04:38:35.51	319.66	8.08	
2025-01-19 04:38:35.71	319.62	8.08	
2025-01-19 04:38:35.91	319.59	8.07	
2025-01-19 04:38:36.12	319.55	8.07	
2025-01-19 04:38:36.32	319.51	8.07	
2025-01-19 04:38:36.52	319.47	8.06	
2025-01-19 04:38:36.73	319.43	8.06	
2025-01-19 04:38:36.93	319.40	8.06	
2025-01-19 04:38:37.13	319.36	8.05	
2025-01-19 04:38:37.33	319.32	8.05	
2025-01-19 04:38:37.54	319.28	8.04	
2025-01-19 04:38:37.74	319.25	8.04	
2025-01-19 04:38:37.94	319.21	8.04	
2025-01-19 04:38:38.15	319.17	8.03	
2025-01-19 04:38:38.35	319.13	8.03	
2025-01-19 04:38:38.55	319.10	8.02	
2025-01-19 04:38:38.76	319.06	8.02	
2025-01-19 04:38:38.96	319.02	8.02	
2025-01-19 04:38:39.16	318.98	8.01	
2025-01-19 04:38:39.37	318.94	8.01	
2025-01-19 04:38:39.57	318.91	8.00	
2025-01-19 04:38:39.77	318.87	8.00	
2025-01-19 04:38:39.98	318.83	8.00	
2025-01-19 04:38:40.18	318.79	7.99	
2025-01-19 04:38:40.38	318.76	7.99	
2025-01-19 04:38:40.59	318.72	7.98	
2025-01-19 04:38:40.79	318.68	7.98	
2025-01-19 04:38:40.99	318.65	7.98	
2025-01-19 04:38:41.20	318.61	7.97	
2025-01-19 04:38:41.40	318.57	7.97	
2025-01-19 04:38:41.60	318.53	7.96	
2025-01-19 04:38:41.81	318.49	7.96	
2025-01-19 04:38:42.01	318.46	7.96	
2025-01-19 04:38:42.21	318.42	7.95	
2025-01-19 04:38:42.41	318.38	7.95	
2025-01-19 04:38:42.62	318.35	7.94	
2025-01-19 04:38:42.82	318.31	7.94	
2025-01-19 04:38:43.02	318.27	7.94	
2025-01-19 04:38:43.23	318.23	7.93	
2025-01-19 04:38:43.43	318.20	7.93	
2025-01-19 04:38:43.63	318.16	7.92	
2025-01-19 04:38:43.84	318.12	7.92	
2025-01-19 04:38:44.04	318.08	7.91	
2025-01-19 04:38:44.24	318.05	7.91	
2025-01-19 04:38:44.45	318.01	7.91	
2025-01-19 04:38:44.65	317.97	7.90	
2025-01-19 04:38:44.85	317.94	7.90	
2025-01-19 04:38:45.06	317.90	7.89	
2025-01-19 04:38:45.26	317.86	7.89	
2025-01-19 04:38:45.46	317.82	7.88	
2025-01-19 04:38:45.67	317.79	7.88	
2025-01-19 04:38:45.87	317.75	7.88	
2025-01-19 04:38:46.07	317.71	7.87	
2025-01-19 04:38:46.28	317.67	7.87	
2025-01-19 04:38:46.48	317.64	7.86	
2025-01-19 04:38:46.68	317.60	7.86	
2025-01-19 04:38:46.89	317.56	7.85	
2025-01-19 04:38:47.09	317.53	7.85	
2025-01-19 04:38:47.29	317.49	7.85	
2025-01-19 04:38:47.50	317.45	7.84	
2025-01-19 04:38:47.70	317.41	7.84	
2025-01-19 04:38:47.90	317.38	7.83	
2025-01-19 04:38:48.10	317.34	7.83	
2025-01-19 04:38:48.31	317.30	7.82	
2025-01-19 04:38:48.51	317.27	7.82	
2025-01-19 04:38:48.71	317.23	7.82	
2025-01-19 04:38:48.92	317.19	7.81	
2025-01-19 04:38:49.12	317.15	7.81	
2025-01-19 04:38:49.32	317.12	7.80	
2025-01-19 04:38:49.53	317.08	7.80	
2025-01-19 04:38:49.73	317.04	7.79	
2025-01-19 04:38:49.93	317.01	7.79	
2025-01-19 04:38:50.14	316.97	7.78	
2025-01-19 04:38:50.34	316.93	7.78	
2025-01-19 04:38:50.54	316.90	7.78	
2025-01-19 04:38:50.75	316.86	7.77	
2025-01-19 04:38:50.95	316.82	7.77	
2025-01-19 04:38:51.15	316.79	7.76	
2025-01-19 04:38:51.36	316.75	7.76	
2025-01-19 04:38:51.56	316.71	7.75	
2025-01-19 04:38:51.76	316.68	7.75	
2025-01-19 04:38:51.97	316.64	7.74	
2025-01-19 04:38:52.17	316.60	7.74	
2025-01-19 04:38:52.37	316.56	7.73	
2025-01-19 04:38:52.58	316.53	7.73	
2025-01-19 04:38:52.78	316.49	7.72	
2025-01-19 04:38:52.98	316.45	7.72	
2025-01-19 04:38:53.19	316.42	7.72	
2025-01-19 04:38:53.39	316.38	7.71	
2025-01-19 04:38:53.59	316.34	7.71	
2025-01-19 04:38:53.79	316.31	7.70	
2025-01-19 04:38:54.00	316.27	7.70	
2025-01-19 04:38:54.20	316.23	7.69	
2025-01-19 04:38:54.40	316.20	7.69	
2025-01-19 04:38:54.61	316.16	7.68	
2025-01-19 04:38:54.81	316.12	7.68	
2025-01-19 04:38:55.01	316.09	7.67	
2025-01-19 04:38:55.22	316.05	7.67	
2025-01-19 04:38:55.42	316.01	7.66	
2025-01-19 04:38:55.62	315.98	7.66	
2025-01-19 04:38:55.83	315.94	7.65	
2025-01-19 04:38:56.03	315.90	7.65	
2025-01-19 04:38:56.23	315.87	7.64	
2025-01-19 04:38:56.44	315.83	7.64	
2025-01-19 04:38:56.64	315.79	7.64	
2025-01-19 04:38:56.84	315.76	7.63	
2025-01-19 04:38:57.05	315.72	7.63	
2025-01-19 04:38:57.25	315.68	7.62	
2025-01-19 04:38:57.45	315.65	7.62	
2025-01-19 04:38:57.66	315.61	7.61	
2025-01-19 04:38:57.86	315.57	7.61	
2025-01-19 04:38:58.06	315.54	7.60	
2025-01-19 04:38:58.27	315.50	7.60	
2025-01-19 04:38:58.47	315.47	7.59	
2025-01-19 04:38:58.67	315.43	7.59	
2025-01-19 04:38:58.88	315.39	7.58	
2025-01-19 04:38:59.08	315.36	7.58	
2025-01-19 04:38:59.28	315.32	7.57	
2025-01-19 04:38:59.48	315.28	7.57	
2025-01-19 04:38:59.69	315.25	7.56	
2025-01-19 04:38:59.89	315.21	7.56	
2025-01-19 04:39:00.09	315.18	7.55	
2025-01-19 04:39:00.30	315.14	7.55	
2025-01-19 04:39:00.50	315.10	7.54	
2025-01-19 04:39:00.70	315.07	7.54	
2025-01-19 04:39:00.91	315.03	7.53	
2025-01-19 04:39:01.11	314.99	7.53	
2025-01-19 04:39:01.31	314.96	7.52	
2025-01-19 04:39:01.52	314.92	7.52	
2025-01-19 04:39:01.72	314.88	7.51	
2025-01-19 04:39:01.92	314.85	7.51	
2025-01-19 04:39:02.13	314.81	7.50	
2025-01-19 04:39:02.33	314.78	7.50	
2025-01-19 04:39:02.53	314.74	7.49	
2025-01-19 04:39:02.74	314.70	7.49	
2025-01-19 04:39:02.94	314.67	7.48	
2025-01-19 04:39:03.14	314.63	7.48	
2025-01-19 04:39:03.35	314.59	7.47	
2025-01-19 04:39:03.55	314.56	7.47	
2025-01-19 04:39:03.75	314.52	7.46	
2025-01-19 04:39:03.96	314.49	7.46	
2025-01-19 04:39:04.16	314.45	7.45	
2025-01-19 04:39:04.36	314.42	7.45	
2025-01-19 04:39:04.57	314.38	7.44	
2025-01-19 04:39:04.77	314.34	7.44	
2025-01-19 04:39:04.97	314.31	7.43	
2025-01-19 04:39:05.17	314.27	7.43	
2025-01-19 04:39:05.38	314.23	7.42	
2025-01-19 04:39:05.58	314.20	7.42	
2025-01-19 04:39:05.78	314.16	7.41	
2025-01-19 04:39:05.99	314.13	7.41	
2025-01-19 04:39:06.19	314.09	7.40	
2025-01-19 04:39:06.39	314.06	7.39	
2025-01-19 04:39:06.60	314.02	7.39	
2025-01-19 04:39:06.80	313.98	7.38	
2025-01-19 04:39:07.00	313.95	7.38	
2025-01-19 04:39:07.21	313.91	7.37	
2025-01-19 04:39:07.41	313.88	7.37	
2025-01-19 04:39:07.61	313.84	7.36	
2025-01-19 04:39:07.82	313.80	7.36	
2025-01-19 04:39:08.02	313.77	7.35	
2025-01-19 04:39:08.22	313.73	7.35	
2025-01-19 04:39:08.43	313.70	7.34	
2025-01-19 04:39:08.63	313.66	7.34	
2025-01-19 04:39:08.83	313.63	7.33	
2025-01-19 04:39:09.04	313.59	7.33	
2025-01-19 04:39:09.24	313.55	7.32	
2025-01-19 04:39:09.44	313.52	7.32	
2025-01-19 04:39:09.65	313.48	7.31	
2025-01-19 04:39:09.85	313.45	7.30	
2025-01-19 04:39:10.05	313.41	7.30	
2025-01-19 04:39:10.26	313.38	7.29	
2025-01-19 04:39:10.46	313.34	7.29	
2025-01-19 04:39:10.66	313.31	7.28	
2025-01-19 04:39:10.86	313.27	7.28	
2025-01-19 04:39:11.07	313.23	7.27	
2025-01-19 04:39:11.27	313.20	7.27	
2025-01-19 04:39:11.47	313.16	7.26	
2025-01-19 04:39:11.68	313.13	7.26	
2025-01-19 04:39:11.88	313.09	7.25	
2025-01-19 04:39:12.08	313.06	7.25	
2025-01-19 04:39:12.29	313.02	7.24	
2025-01-19 04:39:12.49	312.99	7.23	
2025-01-19 04:39:12.69	312.95	7.23	
2025-01-19 04:39:12.90	312.91	7.22	
2025-01-19 04:39:13.10	312.88	7.22	
2025-01-19 04:39:13.30	312.84	7.21	
2025-01-19 04:39:13.51	312.81	7.21	
2025-01-19 04:39:13.71	312.77	7.20	
2025-01-19 04:39:13.91	312.74	7.20	
2025-01-19 04:39:14.12	312.70	7.19	
2025-01-19 04:39:14.32	312.67	7.18	
2025-01-19 04:39:14.52	312.63	7.18	
2025-01-19 04:39:14.73	312.60	7.17	
2025-01-19 04:39:14.93	312.56	7.17	
2025-01-19 04:39:15.13	312.53	7.16	
2025-01-19 04:39:15.34	312.49	7.16	
2025-01-19 04:39:15.54	312.45	7.15	
2025-01-19 04:39:15.74	312.42	7.15	
2025-01-19 04:39:15.95	312.38	7.14	
2025-01-19 04:39:16.15	312.35	7.13	
2025-01-19 04:39:16.35	312.31	7.13	
2025-01-19 04:39:16.55	312.28	7.12	
2025-01-19 04:39:16.76	312.24	7.12	
2025-01-19 04:39:16.96	312.21	7.11	
2025-01-19 04:39:17.16	312.17	7.11	
2025-01-19 04:39:17.37	312.14	7.10	
2025-01-19 04:39:17.57	312.10	7.09	
2025-01-19 04:39:17.77	312.07	7.09	
2025-01-19 04:39:17.98	312.03	7.08	
2025-01-19 04:39:18.18	312.00	7.08	
2025-01-19 04:39:18.38	311.96	7.07	
2025-01-19 04:39:18.59	311.93	7.07	
2025-01-19 04:39:18.79	311.89	7.06	
2025-01-19 04:39:18.99	311.86	7.05	
2025-01-19 04:39:19.20	311.82	7.05	
2025-01-19 04:39:19.40	311.79	7.04	
2025-01-19 04:39:19.60	311.75	7.04	
2025-01-19 04:39:19.81	311.72	7.03	
2025-01-19 04:39:20.01	311.68	7.03	
2025-01-19 04:39:20.21	311.65	7.02	
2025-01-19 04:39:20.42	311.61	7.01	
2025-01-19 04:39:20.62	311.58	7.01	
2025-01-19 04:39:20.82	311.54	7.00	
2025-01-19 04:39:21.03	311.51	7.00	
2025-01-19 04:39:21.23	311.47	6.99	
2025-01-19 04:39:21.43	311.44	6.98	
2025-01-19 04:39:21.64	311.40	6.98	
2025-01-19 04:39:21.84	311.37	6.97	
2025-01-19 04:39:22.04	311.34	6.97	
2025-01-19 04:39:22.24	311.30	6.96	
2025-01-19 04:39:22.45	311.27	6.96	
2025-01-19 04:39:22.65	311.23	6.95	
2025-01-19 04:39:22.85	311.20	6.94	
2025-01-19 04:39:23.06	311.16	6.94	
2025-01-19 04:39:23.26	311.13	6.93	
2025-01-19 04:39:23.46	311.09	6.93	
2025-01-19 04:39:23.67	311.06	6.92	
2025-01-19 04:39:23.87	311.02	6.91	
2025-01-19 04:39:24.07	310.99	6.91	
2025-01-19 04:39:24.28	310.95	6.90	
2025-01-19 04:39:24.48	310.92	6.90	
2025-01-19 04:39:24.68	310.89	6.89	
2025-01-19 04:39:24.89	310.85	6.88	
2025-01-19 04:39:25.09	310.82	6.88	
2025-01-19 04:39:25.29	310.78	6.87	
2025-01-19 04:39:25.50	310.75	6.87	
2025-01-19 04:39:25.70	310.71	6.86	
2025-01-19 04:39:25.90	310.68	6.85	
2025-01-19 04:39:26.11	310.64	6.85	
2025-01-19 04:39:26.31	310.61	6.84	
2025-01-19 04:39:26.51	310.57	6.84	
2025-01-19 04:39:26.72	310.54	6.83	
2025-01-19 04:39:26.92	310.51	6.82	
2025-01-19 04:39:27.12	310.47	6.82	
2025-01-19 04:39:27.32	310.44	6.81	
2025-01-19 04:39:27.53	310.40	6.81	
2025-01-19 04:39:27.73	310.37	6.80	
2025-01-19 04:39:27.93	310.33	6.79	
2025-01-19 04:39:28.14	310.30	6.79	
2025-01-19 04:39:28.34	310.27	6.78	
2025-01-19 04:39:28.54	310.23	6.78	
2025-01-19 04:39:28.75	310.20	6.77	
2025-01-19 04:39:28.95	310.16	6.76	
2025-01-19 04:39:29.15	310.13	6.76	
2025-01-19 04:39:29.36	310.09	6.75	
2025-01-19 04:39:29.56	310.06	6.75	
2025-01-19 04:39:29.76	310.03	6.74	
2025-01-19 04:39:29.97	309.99	6.73	
2025-01-19 04:39:30.17	309.96	6.73	
2025-01-19 04:39:30.37	309.92	6.72	
2025-01-19 04:39:30.58	309.89	6.71	
2025-01-19 04:39:30.78	309.85	6.71	
2025-01-19 04:39:30.98	309.82	6.70	
2025-01-19 04:39:31.19	309.79	6.70	
2025-01-19 04:39:31.39	309.75	6.69	
2025-01-19 04:39:31.59	309.72	6.68	
2025-01-19 04:39:31.80	309.68	6.68	
2025-01-19 04:39:32.00	309.65	6.67	
2025-01-19 04:39:32.20	309.62	6.66	
2025-01-19 04:39:32.41	309.58	6.66	
2025-01-19 04:39:32.61	309.55	6.65	
2025-01-19 04:39:32.81	309.52	6.65	
2025-01-19 04:39:33.01	309.48	6.64	
2025-01-19 04:39:33.22	309.45	6.63	
2025-01-19 04:39:33.42	309.41	6.63	
2025-01-19 04:39:33.62	309.38	6.62	
2025-01-19 04:39:33.83	309.35	6.61	
2025-01-19 04:39:34.03	309.31	6.61	
2025-01-19 04:39:34.23	309.28	6.60	
2025-01-19 04:39:34.44	309.24	6.60	
2025-01-19 04:39:34.64	309.21	6.59	
2025-01-19 04:39:34.84	309.18	6.58	
2025-01-19 04:39:35.05	309.14	6.58	
2025-01-19 04:39:35.25	309.11	6.57	
2025-01-19 04:39:35.45	309.08	6.56	
2025-01-19 04:39:35.66	309.04	6.56	
2025-01-19 04:39:35.86	309.01	6.55	
2025-01-19 04:39:36.06	308.97	6.54	
2025-01-19 04:39:36.27	308.94	6.54	
2025-01-19 04:39:36.47	308.91	6.53	
2025-01-19 04:39:36.67	308.87	6.53	
2025-01-19 04:39:36.88	308.84	6.52	
2025-01-19 04:39:37.08	308.81	6.51	
2025-01-19 04:39:37.28	308.77	6.51	
2025-01-19 04:39:37.49	308.74	6.50	
2025-01-19 04:39:37.69	308.71	6.49	
2025-01-19 04:39:37.89	308.67	6.49	
2025-01-19 04:39:38.10	308.64	6.48	
2025-01-19 04:39:38.30	308.60	6.47	
2025-01-19 04:39:38.50	308.57	6.47	
2025-01-19 04:39:38.70	308.54	6.46	
2025-01-19 04:39:38.91	308.50	6.45	
2025-01-19 04:39:39.11	308.47	6.45	
2025-01-19 04:39:39.31	308.44	6.44	
2025-01-19 04:39:39.52	308.40	6.44	
2025-01-19 04:39:39.72	308.37	6.43	
2025-01-19 04:39:39.92	308.34	6.42	
2025-01-19 04:39:40.13	308.30	6.42	
2025-01-19 04:39:40.33	308.27	6.41	
2025-01-19 04:39:40.53	308.24	6.40	
2025-01-19 04:39:40.74	308.20	6.40	
2025-01-19 04:39:40.94	308.17	6.39	
2025-01-19 04:39:41.14	308.14	6.38	
2025-01-19 04:39:41.35	308.10	6.38	
2025-01-19 04:39:41.55	308.07	6.37	
2025-01-19 04:39:41.75	308.04	6.36	
2025-01-19 04:39:41.96	308.00	6.36	
2025-01-19 04:39:42.16	307.97	6.35	
2025-01-19 04:39:42.36	307.94	6.34	
2025-01-19 04:39:42.57	307.90	6.34	
2025-01-19 04:39:42.77	307.87	6.33	
2025-01-19 04:39:42.97	307.84	6.32	
2025-01-19 04:39:43.18	307.81	6.32	
2025-01-19 04:39:43.38	307.77	6.31	
2025-01-19 04:39:43.58	307.74	6.30	
2025-01-19 04:39:43.79	307.71	6.30	
2025-01-19 04:39:43.99	307.67	6.29	
2025-01-19 04:39:44.19	307.64	6.28	
2025-01-19 04:39:44.39	307.61	6.28	
2025-01-19 04:39:44.60	307.57	6.27	
2025-01-19 04:39:44.80	307.54	6.26	
2025-01-19 04:39:45.00	307.51	6.26	
2025-01-19 04:39:45.21	307.48	6.25	
2025-01-19 04:39:45.41	307.44	6.24	
2025-01-19 04:39:45.61	307.41	6.24	
2025-01-19 04:39:45.82	307.38	6.23	
2025-01-19 04:39:46.02	307.34	6.22	
2025-01-19 04:39:46.22	307.31	6.22	
2025-01-19 04:39:46.43	307.28	6.21	
2025-01-19 04:39:46.63	307.25	6.20	
2025-01-19 04:39:46.83	307.21	6.20	
2025-01-19 04:39:47.04	307.18	6.19	
2025-01-19 04:39:47.24	307.15	6.18	
2025-01-19 04:39:47.44	307.12	6.18	
2025-01-19 04:39:47.65	307.08	6.17	
2025-01-19 04:39:47.85	307.05	6.16	
2025-01-19 04:39:48.05	307.02	6.16	
2025-01-19 04:39:48.26	306.98	6.15	
2025-01-19 04:39:48.46	306.95	6.14	
2025-01-19 04:39:48.66	306.92	6.14	
2025-01-19 04:39:48.87	306.89	6.13	
2025-01-19 04:39:49.07	306.85	6.12	
2025-01-19 04:39:49.27	306.82	6.12	
2025-01-19 04:39:49.47	306.79	6.11	
2025-01-19 04:39:49.68	306.76	6.10	
2025-01-19 04:39:49.88	306.72	6.10	
2025-01-19 04:39:50.08	306.69	6.09	
2025-01-19 04:39:50.29	306.66	6.08	
2025-01-19 04:39:50.49	306.63	6.08	
2025-01-19 04:39:50.69	306.59	6.07	
2025-01-19 04:39:50.90	306.56	6.06	
2025-01-19 04:39:51.10	306.53	6.06	
2025-01-19 04:39:51.30	306.50	6.05	
2025-01-19 04:39:51.51	306.46	6.04	
2025-01-19 04:39:51.71	306.43	6.03	
2025-01-19 04:39:51.91	306.40	6.03	
2025-01-19 04:39:52.12	306.37	6.02	
2025-01-19 04:39:52.32	306.33	6.01	
2025-01-19 04:39:52.52	306.30	6.01	
2025-01-19 04:39:52.73	306.27	6.00	
2025-01-19 04:39:52.93	306.24	5.99	
2025-01-19 04:39:53.13	306.20	5.99	
2025-01-19 04:39:53.34	306.17	5.98	
