passes_logs/2025/01/19/SPB_Silybum_02/SPB_Silybum_02__20250119_165948_TERRA_rec.log

#Pass ID: 20250119_165948_TERRA
#Satellite: TERRA
#Configuration: TERRA
#Start time: 2025-01-19 16:59:48

#Version: 2.0.20230423
#Station: SPB_Silybum_02
#Location: 30.233357 lon 59.946436 lat
#TLE: 1 25994U 99068A   25018.76132064  .00000971  00000+0  20987-3 0  9991
#TLE: 2 25994  98.0209  81.6719 0003338  64.8500  46.9329 14.60403262334620

#Time	Az	El	Level	Level2	SNR	BER	Gain	Gain2
2025-01-19 16:59:50.95	114.30	4.14	
2025-01-19 16:59:51.15	114.28	4.15	
2025-01-19 16:59:51.36	114.27	4.16	
2025-01-19 16:59:51.56	114.25	4.17	
2025-01-19 16:59:51.76	114.23	4.19	
2025-01-19 16:59:51.97	114.22	4.20	
2025-01-19 16:59:52.17	114.20	4.21	
2025-01-19 16:59:52.37	114.19	4.23	
2025-01-19 16:59:52.57	114.17	4.24	
2025-01-19 16:59:52.78	114.16	4.25	
2025-01-19 16:59:52.98	114.14	4.27	
2025-01-19 16:59:53.18	114.13	4.28	
2025-01-19 16:59:53.39	114.11	4.29	
2025-01-19 16:59:53.59	114.09	4.31	
2025-01-19 16:59:53.79	114.08	4.32	
2025-01-19 16:59:54.00	114.06	4.33	
2025-01-19 16:59:54.20	114.05	4.34	
2025-01-19 16:59:54.40	114.03	4.36	
2025-01-19 16:59:54.60	114.02	4.37	
2025-01-19 16:59:54.81	114.00	4.38	
2025-01-19 16:59:55.01	113.98	4.40	
2025-01-19 16:59:55.21	113.97	4.41	
2025-01-19 16:59:55.42	113.95	4.42	
2025-01-19 16:59:55.62	113.94	4.44	
2025-01-19 16:59:55.82	113.92	4.45	
2025-01-19 16:59:56.02	113.91	4.46	
2025-01-19 16:59:56.23	113.89	4.48	
2025-01-19 16:59:56.43	113.87	4.49	
2025-01-19 16:59:56.63	113.86	4.50	
2025-01-19 16:59:56.84	113.84	4.52	
2025-01-19 16:59:57.04	113.83	4.53	
2025-01-19 16:59:57.24	113.81	4.54	
2025-01-19 16:59:57.45	113.79	4.56	
2025-01-19 16:59:57.65	113.78	4.57	
2025-01-19 16:59:57.85	113.76	4.58	
2025-01-19 16:59:58.05	113.75	4.60	
2025-01-19 16:59:58.26	113.73	4.61	
2025-01-19 16:59:58.46	113.71	4.62	
2025-01-19 16:59:58.66	113.70	4.63	
2025-01-19 16:59:58.87	113.68	4.65	
2025-01-19 16:59:59.07	113.67	4.66	
2025-01-19 16:59:59.27	113.65	4.67	
2025-01-19 16:59:59.47	113.63	4.69	
2025-01-19 16:59:59.68	113.62	4.70	
2025-01-19 16:59:59.88	113.60	4.71	
2025-01-19 17:00:00.08	113.59	4.73	
2025-01-19 17:00:00.29	113.57	4.74	
2025-01-19 17:00:00.49	113.55	4.75	
2025-01-19 17:00:00.69	113.54	4.77	
2025-01-19 17:00:00.90	113.52	4.78	
2025-01-19 17:00:01.10	113.50	4.79	
2025-01-19 17:00:01.30	113.49	4.81	
2025-01-19 17:00:01.50	113.47	4.82	
2025-01-19 17:00:01.71	113.46	4.83	
2025-01-19 17:00:01.91	113.44	4.85	
2025-01-19 17:00:02.11	113.42	4.86	
2025-01-19 17:00:02.32	113.41	4.87	
2025-01-19 17:00:02.52	113.39	4.89	
2025-01-19 17:00:02.72	113.37	4.90	
2025-01-19 17:00:02.93	113.36	4.92	
2025-01-19 17:00:03.13	113.34	4.93	
2025-01-19 17:00:03.33	113.33	4.94	
2025-01-19 17:00:03.53	113.31	4.95	
2025-01-19 17:00:03.74	113.29	4.97	
2025-01-19 17:00:03.94	113.28	4.98	
2025-01-19 17:00:04.14	113.26	4.99	
2025-01-19 17:00:04.35	113.24	5.01	
2025-01-19 17:00:04.55	113.23	5.02	
2025-01-19 17:00:04.75	113.21	5.04	
2025-01-19 17:00:04.95	113.19	5.05	
2025-01-19 17:00:05.16	113.18	5.06	
2025-01-19 17:00:05.36	113.16	5.08	
2025-01-19 17:00:05.56	113.14	5.09	
2025-01-19 17:00:05.77	113.13	5.10	
2025-01-19 17:00:05.97	113.11	5.12	
2025-01-19 17:00:06.17	113.09	5.13	
2025-01-19 17:00:06.38	113.08	5.14	
2025-01-19 17:00:06.58	113.06	5.16	
2025-01-19 17:00:06.78	113.04	5.17	
2025-01-19 17:00:06.98	113.03	5.18	
2025-01-19 17:00:07.19	113.01	5.20	
2025-01-19 17:00:07.39	112.99	5.21	
2025-01-19 17:00:07.59	112.98	5.22	
2025-01-19 17:00:07.80	112.96	5.24	
2025-01-19 17:00:08.00	112.94	5.25	
2025-01-19 17:00:08.20	112.93	5.26	
2025-01-19 17:00:08.40	112.91	5.28	
2025-01-19 17:00:08.61	112.89	5.29	
2025-01-19 17:00:08.81	112.88	5.30	
2025-01-19 17:00:09.01	112.86	5.32	
2025-01-19 17:00:09.22	112.84	5.33	
2025-01-19 17:00:09.42	112.82	5.35	
2025-01-19 17:00:09.62	112.81	5.36	
2025-01-19 17:00:09.83	112.79	5.37	
2025-01-19 17:00:10.03	112.77	5.39	
2025-01-19 17:00:10.23	112.76	5.40	
2025-01-19 17:00:10.43	112.74	5.41	
2025-01-19 17:00:10.64	112.72	5.43	
2025-01-19 17:00:10.84	112.71	5.44	
2025-01-19 17:00:11.04	112.69	5.45	
2025-01-19 17:00:11.25	112.67	5.47	
2025-01-19 17:00:11.45	112.65	5.48	
2025-01-19 17:00:11.65	112.64	5.49	
2025-01-19 17:00:11.85	112.62	5.51	
2025-01-19 17:00:12.06	112.60	5.52	
2025-01-19 17:00:12.26	112.59	5.54	
2025-01-19 17:00:12.46	112.57	5.55	
2025-01-19 17:00:12.67	112.55	5.56	
2025-01-19 17:00:12.87	112.53	5.58	
2025-01-19 17:00:13.07	112.52	5.59	
2025-01-19 17:00:13.28	112.50	5.60	
2025-01-19 17:00:13.48	112.48	5.62	
2025-01-19 17:00:13.68	112.46	5.63	
2025-01-19 17:00:13.88	112.45	5.64	
2025-01-19 17:00:14.09	112.43	5.66	
2025-01-19 17:00:14.29	112.41	5.67	
2025-01-19 17:00:14.49	112.40	5.69	
2025-01-19 17:00:14.70	112.38	5.70	
2025-01-19 17:00:14.90	112.36	5.71	
2025-01-19 17:00:15.10	112.34	5.73	
2025-01-19 17:00:15.31	112.33	5.74	
2025-01-19 17:00:15.51	112.31	5.75	
2025-01-19 17:00:15.71	112.29	5.77	
2025-01-19 17:00:15.91	112.27	5.78	
2025-01-19 17:00:16.12	112.26	5.80	
2025-01-19 17:00:16.32	112.24	5.81	
2025-01-19 17:00:16.52	112.22	5.82	
2025-01-19 17:00:16.73	112.20	5.84	
2025-01-19 17:00:16.93	112.19	5.85	
2025-01-19 17:00:17.13	112.17	5.86	
2025-01-19 17:00:17.33	112.15	5.88	
2025-01-19 17:00:17.54	112.13	5.89	
2025-01-19 17:00:17.74	112.11	5.91	
2025-01-19 17:00:17.94	112.10	5.92	
2025-01-19 17:00:18.15	112.08	5.93	
2025-01-19 17:00:18.35	112.06	5.95	
2025-01-19 17:00:18.55	112.04	5.96	
2025-01-19 17:00:18.76	112.03	5.97	
2025-01-19 17:00:18.96	112.01	5.99	
2025-01-19 17:00:19.16	111.99	6.00	
2025-01-19 17:00:19.36	111.97	6.02	
2025-01-19 17:00:19.57	111.95	6.03	
2025-01-19 17:00:19.77	111.94	6.04	
2025-01-19 17:00:19.97	111.92	6.06	
2025-01-19 17:00:20.18	111.90	6.07	
2025-01-19 17:00:20.38	111.88	6.09	
2025-01-19 17:00:20.58	111.87	6.10	
2025-01-19 17:00:20.78	111.85	6.11	
2025-01-19 17:00:20.99	111.83	6.13	
2025-01-19 17:00:21.19	111.81	6.14	
2025-01-19 17:00:21.39	111.79	6.15	
2025-01-19 17:00:21.60	111.78	6.17	
2025-01-19 17:00:21.80	111.76	6.18	
2025-01-19 17:00:22.00	111.74	6.20	
2025-01-19 17:00:22.21	111.72	6.21	
2025-01-19 17:00:22.41	111.70	6.22	
2025-01-19 17:00:22.61	111.68	6.24	
2025-01-19 17:00:22.81	111.67	6.25	
2025-01-19 17:00:23.02	111.65	6.27	
2025-01-19 17:00:23.22	111.63	6.28	
2025-01-19 17:00:23.42	111.61	6.29	
2025-01-19 17:00:23.63	111.59	6.31	
2025-01-19 17:00:23.83	111.58	6.32	
2025-01-19 17:00:24.03	111.56	6.33	
2025-01-19 17:00:24.23	111.54	6.35	
2025-01-19 17:00:24.44	111.52	6.36	
2025-01-19 17:00:24.64	111.50	6.38	
2025-01-19 17:00:24.84	111.48	6.39	
2025-01-19 17:00:25.05	111.47	6.41	
2025-01-19 17:00:25.25	111.45	6.42	
2025-01-19 17:00:25.45	111.43	6.43	
2025-01-19 17:00:25.66	111.41	6.45	
2025-01-19 17:00:25.86	111.39	6.46	
2025-01-19 17:00:26.06	111.37	6.47	
2025-01-19 17:00:26.26	111.36	6.49	
2025-01-19 17:00:26.47	111.34	6.50	
2025-01-19 17:00:26.67	111.32	6.52	
2025-01-19 17:00:26.87	111.30	6.53	
2025-01-19 17:00:27.08	111.28	6.55	
2025-01-19 17:00:27.28	111.26	6.56	
2025-01-19 17:00:27.48	111.24	6.57	
2025-01-19 17:00:27.69	111.22	6.59	
2025-01-19 17:00:27.89	111.21	6.60	
2025-01-19 17:00:28.09	111.19	6.62	
2025-01-19 17:00:28.29	111.17	6.63	
2025-01-19 17:00:28.50	111.15	6.64	
2025-01-19 17:00:28.70	111.13	6.66	
2025-01-19 17:00:28.90	111.11	6.67	
2025-01-19 17:00:29.11	111.09	6.69	
2025-01-19 17:00:29.31	111.08	6.70	
2025-01-19 17:00:29.51	111.06	6.71	
2025-01-19 17:00:29.71	111.04	6.73	
2025-01-19 17:00:29.92	111.02	6.74	
2025-01-19 17:00:30.12	111.00	6.76	
2025-01-19 17:00:30.32	110.98	6.77	
2025-01-19 17:00:30.53	110.96	6.78	
2025-01-19 17:00:30.73	110.94	6.80	
2025-01-19 17:00:30.93	110.92	6.81	
2025-01-19 17:00:31.14	110.90	6.83	
2025-01-19 17:00:31.34	110.89	6.84	
2025-01-19 17:00:31.54	110.87	6.86	
2025-01-19 17:00:31.74	110.85	6.87	
2025-01-19 17:00:31.95	110.83	6.88	
2025-01-19 17:00:32.15	110.81	6.90	
2025-01-19 17:00:32.35	110.79	6.91	
2025-01-19 17:00:32.56	110.77	6.93	
2025-01-19 17:00:32.76	110.75	6.94	
2025-01-19 17:00:32.96	110.73	6.95	
2025-01-19 17:00:33.16	110.71	6.97	
2025-01-19 17:00:33.37	110.70	6.98	
2025-01-19 17:00:33.57	110.68	7.00	
2025-01-19 17:00:33.77	110.66	7.01	
2025-01-19 17:00:33.98	110.64	7.03	
2025-01-19 17:00:34.18	110.62	7.04	
2025-01-19 17:00:34.38	110.60	7.05	
2025-01-19 17:00:34.59	110.58	7.07	
2025-01-19 17:00:34.79	110.56	7.08	
2025-01-19 17:00:34.99	110.54	7.10	
2025-01-19 17:00:35.19	110.52	7.11	
2025-01-19 17:00:35.40	110.50	7.13	
2025-01-19 17:00:35.60	110.48	7.14	
2025-01-19 17:00:35.80	110.46	7.15	
2025-01-19 17:00:36.01	110.44	7.17	
2025-01-19 17:00:36.21	110.42	7.18	
2025-01-19 17:00:36.41	110.41	7.20	
2025-01-19 17:00:36.61	110.39	7.21	
2025-01-19 17:00:36.82	110.37	7.23	
2025-01-19 17:00:37.02	110.35	7.24	
2025-01-19 17:00:37.22	110.33	7.25	
2025-01-19 17:00:37.43	110.31	7.27	
2025-01-19 17:00:37.63	110.29	7.28	
2025-01-19 17:00:37.83	110.27	7.30	
2025-01-19 17:00:38.04	110.25	7.31	
2025-01-19 17:00:38.24	110.23	7.33	
2025-01-19 17:00:38.44	110.21	7.34	
2025-01-19 17:00:38.64	110.19	7.35	
2025-01-19 17:00:38.85	110.17	7.37	
2025-01-19 17:00:39.05	110.15	7.38	
2025-01-19 17:00:39.25	110.13	7.40	
2025-01-19 17:00:39.46	110.11	7.41	
2025-01-19 17:00:39.66	110.09	7.43	
2025-01-19 17:00:39.86	110.07	7.44	
2025-01-19 17:00:40.07	110.05	7.46	
2025-01-19 17:00:40.27	110.03	7.47	
2025-01-19 17:00:40.47	110.01	7.48	
2025-01-19 17:00:40.67	109.99	7.50	
2025-01-19 17:00:40.88	109.97	7.51	
2025-01-19 17:00:41.08	109.95	7.53	
2025-01-19 17:00:41.28	109.93	7.54	
2025-01-19 17:00:41.49	109.91	7.56	
2025-01-19 17:00:41.69	109.89	7.57	
2025-01-19 17:00:41.89	109.87	7.59	
2025-01-19 17:00:42.09	109.85	7.60	
2025-01-19 17:00:42.30	109.83	7.61	
2025-01-19 17:00:42.50	109.81	7.63	
2025-01-19 17:00:42.70	109.79	7.64	
2025-01-19 17:00:42.91	109.77	7.66	
2025-01-19 17:00:43.11	109.75	7.67	
2025-01-19 17:00:43.31	109.73	7.69	
2025-01-19 17:00:43.52	109.71	7.70	
2025-01-19 17:00:43.72	109.69	7.72	
2025-01-19 17:00:43.92	109.67	7.73	
2025-01-19 17:00:44.12	109.65	7.74	
2025-01-19 17:00:44.33	109.63	7.76	
2025-01-19 17:00:44.53	109.61	7.77	
2025-01-19 17:00:44.73	109.59	7.79	
2025-01-19 17:00:44.94	109.57	7.80	
2025-01-19 17:00:45.14	109.54	7.82	
2025-01-19 17:00:45.34	109.52	7.83	
2025-01-19 17:00:45.54	109.50	7.85	
2025-01-19 17:00:45.75	109.48	7.86	
2025-01-19 17:00:45.95	109.46	7.88	
2025-01-19 17:00:46.15	109.44	7.89	
2025-01-19 17:00:46.36	109.42	7.91	
2025-01-19 17:00:46.56	109.40	7.92	
2025-01-19 17:00:46.76	109.38	7.93	
2025-01-19 17:00:46.97	109.36	7.95	
2025-01-19 17:00:47.17	109.34	7.96	
2025-01-19 17:00:47.37	109.32	7.98	
2025-01-19 17:00:47.57	109.30	7.99	
2025-01-19 17:00:47.78	109.28	8.01	
2025-01-19 17:00:47.98	109.26	8.02	
2025-01-19 17:00:48.18	109.24	8.04	
2025-01-19 17:00:48.39	109.21	8.05	
2025-01-19 17:00:48.59	109.19	8.07	
2025-01-19 17:00:48.79	109.17	8.08	
2025-01-19 17:00:48.99	109.15	8.10	
2025-01-19 17:00:49.20	109.13	8.11	
2025-01-19 17:00:49.40	109.11	8.12	
2025-01-19 17:00:49.60	109.09	8.14	
2025-01-19 17:00:49.81	109.07	8.15	
2025-01-19 17:00:50.01	109.05	8.17	
2025-01-19 17:00:50.21	109.03	8.18	
2025-01-19 17:00:50.42	109.00	8.20	
2025-01-19 17:00:50.62	108.98	8.21	
2025-01-19 17:00:50.82	108.96	8.23	
2025-01-19 17:00:51.02	108.94	8.24	
2025-01-19 17:00:51.23	108.92	8.26	
2025-01-19 17:00:51.43	108.90	8.27	
2025-01-19 17:00:51.63	108.88	8.29	
2025-01-19 17:00:51.84	108.86	8.30	
2025-01-19 17:00:52.04	108.84	8.32	
2025-01-19 17:00:52.24	108.81	8.33	
2025-01-19 17:00:52.45	108.79	8.35	
2025-01-19 17:00:52.65	108.77	8.36	
2025-01-19 17:00:52.85	108.75	8.38	
2025-01-19 17:00:53.05	108.73	8.39	
2025-01-19 17:00:53.26	108.71	8.41	
2025-01-19 17:00:53.46	108.69	8.42	
2025-01-19 17:00:53.66	108.66	8.43	
2025-01-19 17:00:53.87	108.64	8.45	
2025-01-19 17:00:54.07	108.62	8.46	
2025-01-19 17:00:54.27	108.60	8.48	
2025-01-19 17:00:54.47	108.58	8.49	
2025-01-19 17:00:54.68	108.56	8.51	
2025-01-19 17:00:54.88	108.54	8.52	
2025-01-19 17:00:55.08	108.51	8.54	
2025-01-19 17:00:55.29	108.49	8.55	
2025-01-19 17:00:55.49	108.47	8.57	
2025-01-19 17:00:55.69	108.45	8.58	
2025-01-19 17:00:55.90	108.43	8.60	
2025-01-19 17:00:56.10	108.41	8.61	
2025-01-19 17:00:56.30	108.38	8.63	
2025-01-19 17:00:56.50	108.36	8.64	
2025-01-19 17:00:56.71	108.34	8.66	
2025-01-19 17:00:56.91	108.32	8.67	
2025-01-19 17:00:57.11	108.30	8.69	
2025-01-19 17:00:57.32	108.27	8.70	
2025-01-19 17:00:57.52	108.25	8.72	
2025-01-19 17:00:57.72	108.23	8.73	
2025-01-19 17:00:57.92	108.21	8.75	
2025-01-19 17:00:58.13	108.19	8.76	
2025-01-19 17:00:58.33	108.16	8.78	
2025-01-19 17:00:58.53	108.14	8.79	
2025-01-19 17:00:58.74	108.12	8.81	
2025-01-19 17:00:58.94	108.10	8.82	
2025-01-19 17:00:59.14	108.08	8.84	
2025-01-19 17:00:59.35	108.05	8.85	
2025-01-19 17:00:59.55	108.03	8.87	
2025-01-19 17:00:59.75	108.01	8.88	
2025-01-19 17:00:59.95	107.99	8.90	
2025-01-19 17:01:00.16	107.97	8.91	
2025-01-19 17:01:00.36	107.94	8.93	
2025-01-19 17:01:00.56	107.92	8.94	
2025-01-19 17:01:00.77	107.90	8.96	
2025-01-19 17:01:00.97	107.88	8.97	
2025-01-19 17:01:01.17	107.85	8.99	
2025-01-19 17:01:01.38	107.83	9.00	
2025-01-19 17:01:01.58	107.81	9.02	
2025-01-19 17:01:01.78	107.79	9.03	
2025-01-19 17:01:01.98	107.76	9.05	
2025-01-19 17:01:02.19	107.74	9.06	
2025-01-19 17:01:02.39	107.72	9.08	
2025-01-19 17:01:02.59	107.70	9.09	
2025-01-19 17:01:02.80	107.67	9.11	
2025-01-19 17:01:03.00	107.65	9.12	
2025-01-19 17:01:03.20	107.63	9.14	
2025-01-19 17:01:03.40	107.61	9.15	
2025-01-19 17:01:03.61	107.58	9.17	
2025-01-19 17:01:03.81	107.56	9.18	
2025-01-19 17:01:04.01	107.54	9.20	
2025-01-19 17:01:04.22	107.51	9.21	
2025-01-19 17:01:04.42	107.49	9.23	
2025-01-19 17:01:04.62	107.47	9.24	
2025-01-19 17:01:04.82	107.45	9.26	
2025-01-19 17:01:05.03	107.42	9.27	
2025-01-19 17:01:05.23	107.40	9.29	
2025-01-19 17:01:05.43	107.38	9.30	
2025-01-19 17:01:05.64	107.36	9.32	
2025-01-19 17:01:05.84	107.33	9.33	
2025-01-19 17:01:06.04	107.31	9.35	
2025-01-19 17:01:06.25	107.29	9.37	
2025-01-19 17:01:06.45	107.26	9.38	
2025-01-19 17:01:06.65	107.24	9.40	
2025-01-19 17:01:06.85	107.22	9.41	
2025-01-19 17:01:07.06	107.19	9.43	
2025-01-19 17:01:07.26	107.17	9.44	
2025-01-19 17:01:07.46	107.15	9.46	
2025-01-19 17:01:07.67	107.12	9.47	
2025-01-19 17:01:07.87	107.10	9.49	
2025-01-19 17:01:08.07	107.08	9.50	
2025-01-19 17:01:08.28	107.05	9.52	
2025-01-19 17:01:08.48	107.03	9.53	
2025-01-19 17:01:08.68	107.01	9.55	
2025-01-19 17:01:08.88	106.99	9.56	
2025-01-19 17:01:09.09	106.96	9.58	
2025-01-19 17:01:09.29	106.94	9.59	
2025-01-19 17:01:09.49	106.91	9.61	
2025-01-19 17:01:09.70	106.89	9.62	
2025-01-19 17:01:09.90	106.87	9.64	
2025-01-19 17:01:10.10	106.84	9.65	
2025-01-19 17:01:10.30	106.82	9.67	
2025-01-19 17:01:10.51	106.80	9.69	
2025-01-19 17:01:10.71	106.77	9.70	
2025-01-19 17:01:10.91	106.75	9.72	
2025-01-19 17:01:11.12	106.73	9.73	
2025-01-19 17:01:11.32	106.70	9.75	
2025-01-19 17:01:11.52	106.68	9.76	
2025-01-19 17:01:11.73	106.65	9.78	
2025-01-19 17:01:11.93	106.63	9.79	
2025-01-19 17:01:12.13	106.61	9.81	
2025-01-19 17:01:12.33	106.58	9.82	
2025-01-19 17:01:12.54	106.56	9.84	
2025-01-19 17:01:12.74	106.54	9.85	
2025-01-19 17:01:12.94	106.51	9.87	
2025-01-19 17:01:13.15	106.49	9.89	
2025-01-19 17:01:13.35	106.46	9.90	
2025-01-19 17:01:13.55	106.44	9.92	
2025-01-19 17:01:13.76	106.42	9.93	
2025-01-19 17:01:13.96	106.39	9.95	
2025-01-19 17:01:14.16	106.37	9.96	
2025-01-19 17:01:14.36	106.34	9.98	
2025-01-19 17:01:14.57	106.32	9.99	
2025-01-19 17:01:14.77	106.30	10.01	
2025-01-19 17:01:14.97	106.27	10.02	
2025-01-19 17:01:15.18	106.25	10.04	
2025-01-19 17:01:15.38	106.22	10.06	
2025-01-19 17:01:15.58	106.20	10.07	
2025-01-19 17:01:15.78	106.17	10.09	
2025-01-19 17:01:15.99	106.15	10.10	
2025-01-19 17:01:16.19	106.13	10.12	
2025-01-19 17:01:16.39	106.10	10.13	
2025-01-19 17:01:16.60	106.08	10.15	
2025-01-19 17:01:16.80	106.05	10.16	
2025-01-19 17:01:17.00	106.03	10.18	
2025-01-19 17:01:17.21	106.00	10.19	
2025-01-19 17:01:17.41	105.98	10.21	
2025-01-19 17:01:17.61	105.95	10.23	
2025-01-19 17:01:17.81	105.93	10.24	
2025-01-19 17:01:18.02	105.90	10.26	
2025-01-19 17:01:18.22	105.88	10.27	
2025-01-19 17:01:18.42	105.86	10.29	
2025-01-19 17:01:18.63	105.83	10.30	
2025-01-19 17:01:18.83	105.81	10.32	
2025-01-19 17:01:19.03	105.78	10.33	
2025-01-19 17:01:19.23	105.76	10.35	
2025-01-19 17:01:19.44	105.73	10.37	
2025-01-19 17:01:19.64	105.71	10.38	
2025-01-19 17:01:19.84	105.68	10.40	
2025-01-19 17:01:20.05	105.66	10.41	
2025-01-19 17:01:20.25	105.63	10.43	
2025-01-19 17:01:20.45	105.61	10.44	
2025-01-19 17:01:20.66	105.58	10.46	
2025-01-19 17:01:20.86	105.56	10.48	
2025-01-19 17:01:21.06	105.53	10.49	
2025-01-19 17:01:21.26	105.51	10.51	
2025-01-19 17:01:21.47	105.48	10.52	
2025-01-19 17:01:21.67	105.46	10.54	
2025-01-19 17:01:21.87	105.43	10.55	
2025-01-19 17:01:22.08	105.41	10.57	
2025-01-19 17:01:22.28	105.38	10.58	
2025-01-19 17:01:22.48	105.36	10.60	
2025-01-19 17:01:22.68	105.33	10.62	
2025-01-19 17:01:22.89	105.31	10.63	
2025-01-19 17:01:23.09	105.28	10.65	
2025-01-19 17:01:23.29	105.26	10.66	
2025-01-19 17:01:23.50	105.23	10.68	
2025-01-19 17:01:23.70	105.20	10.69	
2025-01-19 17:01:23.90	105.18	10.71	
2025-01-19 17:01:24.11	105.15	10.73	
2025-01-19 17:01:24.31	105.13	10.74	
2025-01-19 17:01:24.51	105.10	10.76	
2025-01-19 17:01:24.71	105.08	10.77	
2025-01-19 17:01:24.92	105.05	10.79	
2025-01-19 17:01:25.12	105.03	10.80	
2025-01-19 17:01:25.32	105.00	10.82	
2025-01-19 17:01:25.53	104.97	10.84	
2025-01-19 17:01:25.73	104.95	10.85	
2025-01-19 17:01:25.93	104.92	10.87	
2025-01-19 17:01:26.14	104.90	10.88	
2025-01-19 17:01:26.34	104.87	10.90	
2025-01-19 17:01:26.54	104.85	10.91	
2025-01-19 17:01:26.74	104.82	10.93	
2025-01-19 17:01:26.95	104.79	10.95	
2025-01-19 17:01:27.15	104.77	10.96	
2025-01-19 17:01:27.35	104.74	10.98	
2025-01-19 17:01:27.56	104.71	10.99	
2025-01-19 17:01:27.76	104.69	11.01	
2025-01-19 17:01:27.96	104.66	11.03	
2025-01-19 17:01:28.16	104.64	11.04	
2025-01-19 17:01:28.37	104.61	11.06	
2025-01-19 17:01:28.57	104.59	11.07	
2025-01-19 17:01:28.77	104.56	11.09	
2025-01-19 17:01:28.98	104.53	11.11	
2025-01-19 17:01:29.18	104.51	11.12	
2025-01-19 17:01:29.38	104.48	11.14	
2025-01-19 17:01:29.59	104.45	11.15	
2025-01-19 17:01:29.79	104.43	11.17	
2025-01-19 17:01:29.99	104.40	11.18	
2025-01-19 17:01:30.19	104.38	11.20	
2025-01-19 17:01:30.40	104.35	11.22	
2025-01-19 17:01:30.60	104.32	11.23	
2025-01-19 17:01:30.80	104.30	11.25	
2025-01-19 17:01:31.01	104.27	11.26	
2025-01-19 17:01:31.21	104.24	11.28	
2025-01-19 17:01:31.41	104.22	11.30	
2025-01-19 17:01:31.61	104.19	11.31	
2025-01-19 17:01:31.82	104.16	11.33	
2025-01-19 17:01:32.02	104.14	11.34	
2025-01-19 17:01:32.22	104.11	11.36	
2025-01-19 17:01:32.43	104.08	11.38	
2025-01-19 17:01:32.63	104.06	11.39	
2025-01-19 17:01:32.83	104.03	11.41	
2025-01-19 17:01:33.04	104.00	11.42	
2025-01-19 17:01:33.24	103.97	11.44	
2025-01-19 17:01:33.44	103.95	11.46	
2025-01-19 17:01:33.64	103.92	11.47	
2025-01-19 17:01:33.85	103.89	11.49	
2025-01-19 17:01:34.05	103.87	11.50	
2025-01-19 17:01:34.25	103.84	11.52	
2025-01-19 17:01:34.46	103.81	11.54	
2025-01-19 17:01:34.66	103.79	11.55	
2025-01-19 17:01:34.86	103.76	11.57	
2025-01-19 17:01:35.06	103.73	11.58	
2025-01-19 17:01:35.27	103.70	11.60	
2025-01-19 17:01:35.47	103.68	11.62	
2025-01-19 17:01:35.67	103.65	11.63	
2025-01-19 17:01:35.88	103.62	11.65	
2025-01-19 17:01:36.08	103.59	11.66	
2025-01-19 17:01:36.28	103.57	11.68	
2025-01-19 17:01:36.49	103.54	11.70	
2025-01-19 17:01:36.69	103.51	11.71	
2025-01-19 17:01:36.89	103.49	11.73	
2025-01-19 17:01:37.09	103.46	11.74	
2025-01-19 17:01:37.30	103.43	11.76	
2025-01-19 17:01:37.50	103.40	11.78	
2025-01-19 17:01:37.70	103.38	11.79	
2025-01-19 17:01:37.91	103.35	11.81	
2025-01-19 17:01:38.11	103.32	11.83	
2025-01-19 17:01:38.31	103.29	11.84	
2025-01-19 17:01:38.52	103.26	11.86	
2025-01-19 17:01:38.72	103.24	11.87	
2025-01-19 17:01:38.92	103.21	11.89	
2025-01-19 17:01:39.12	103.18	11.91	
2025-01-19 17:01:39.33	103.15	11.92	
2025-01-19 17:01:39.53	103.13	11.94	
2025-01-19 17:01:39.73	103.10	11.95	
2025-01-19 17:01:39.94	103.07	11.97	
2025-01-19 17:01:40.14	103.04	11.99	
2025-01-19 17:01:40.34	103.01	12.00	
2025-01-19 17:01:40.54	102.99	12.02	
2025-01-19 17:01:40.75	102.96	12.04	
2025-01-19 17:01:40.95	102.93	12.05	
2025-01-19 17:01:41.15	102.90	12.07	
2025-01-19 17:01:41.36	102.87	12.08	
2025-01-19 17:01:41.56	102.84	12.10	
2025-01-19 17:01:41.76	102.82	12.12	
2025-01-19 17:01:41.97	102.79	12.13	
2025-01-19 17:01:42.17	102.76	12.15	
2025-01-19 17:01:42.37	102.73	12.16	
2025-01-19 17:01:42.57	102.70	12.18	
2025-01-19 17:01:42.78	102.67	12.20	
2025-01-19 17:01:42.98	102.65	12.21	
2025-01-19 17:01:43.18	102.62	12.23	
2025-01-19 17:01:43.39	102.59	12.25	
2025-01-19 17:01:43.59	102.56	12.26	
2025-01-19 17:01:43.79	102.53	12.28	
2025-01-19 17:01:43.99	102.50	12.29	
2025-01-19 17:01:44.20	102.47	12.31	
2025-01-19 17:01:44.40	102.45	12.33	
2025-01-19 17:01:44.60	102.42	12.34	
2025-01-19 17:01:44.81	102.39	12.36	
2025-01-19 17:01:45.01	102.36	12.38	
2025-01-19 17:01:45.21	102.33	12.39	
2025-01-19 17:01:45.42	102.30	12.41	
2025-01-19 17:01:45.62	102.27	12.43	
2025-01-19 17:01:45.82	102.24	12.44	
2025-01-19 17:01:46.02	102.21	12.46	
2025-01-19 17:01:46.23	102.18	12.47	
2025-01-19 17:01:46.43	102.16	12.49	
2025-01-19 17:01:46.63	102.13	12.51	
2025-01-19 17:01:46.84	102.10	12.52	
2025-01-19 17:01:47.04	102.07	12.54	
2025-01-19 17:01:47.24	102.04	12.56	
2025-01-19 17:01:47.44	102.01	12.57	
2025-01-19 17:01:47.65	101.98	12.59	
2025-01-19 17:01:47.85	101.95	12.61	
2025-01-19 17:01:48.05	101.92	12.62	
2025-01-19 17:01:48.26	101.89	12.64	
2025-01-19 17:01:48.46	101.86	12.65	
2025-01-19 17:01:48.66	101.83	12.67	
2025-01-19 17:01:48.87	101.80	12.69	
2025-01-19 17:01:49.07	101.77	12.70	
2025-01-19 17:01:49.27	101.75	12.72	
2025-01-19 17:01:49.47	101.72	12.74	
2025-01-19 17:01:49.68	101.69	12.75	
2025-01-19 17:01:49.88	101.66	12.77	
2025-01-19 17:01:50.08	101.63	12.79	
2025-01-19 17:01:50.29	101.60	12.80	
2025-01-19 17:01:50.49	101.57	12.82	
2025-01-19 17:01:50.69	101.54	12.83	
2025-01-19 17:01:50.90	101.51	12.85	
2025-01-19 17:01:51.10	101.48	12.87	
2025-01-19 17:01:51.30	101.45	12.88	
2025-01-19 17:01:51.50	101.42	12.90	
2025-01-19 17:01:51.71	101.39	12.92	
2025-01-19 17:01:51.91	101.36	12.93	
2025-01-19 17:01:52.11	101.33	12.95	
2025-01-19 17:01:52.32	101.30	12.97	
2025-01-19 17:01:52.52	101.27	12.98	
2025-01-19 17:01:52.72	101.24	13.00	
2025-01-19 17:01:52.92	101.21	13.02	
2025-01-19 17:01:53.13	101.18	13.03	
2025-01-19 17:01:53.33	101.15	13.05	
2025-01-19 17:01:53.53	101.12	13.07	
2025-01-19 17:01:53.74	101.09	13.08	
2025-01-19 17:01:53.94	101.06	13.10	
2025-01-19 17:01:54.14	101.03	13.12	
2025-01-19 17:01:54.35	100.99	13.13	
2025-01-19 17:01:54.55	100.96	13.15	
2025-01-19 17:01:54.75	100.93	13.17	
2025-01-19 17:01:54.95	100.90	13.18	
2025-01-19 17:01:55.16	100.87	13.20	
2025-01-19 17:01:55.36	100.84	13.21	
2025-01-19 17:01:55.56	100.81	13.23	
2025-01-19 17:01:55.77	100.78	13.25	
2025-01-19 17:01:55.97	100.75	13.26	
2025-01-19 17:01:56.17	100.72	13.28	
2025-01-19 17:01:56.37	100.69	13.30	
2025-01-19 17:01:56.58	100.66	13.31	
2025-01-19 17:01:56.78	100.63	13.33	
2025-01-19 17:01:56.98	100.60	13.35	
2025-01-19 17:01:57.19	100.56	13.36	
2025-01-19 17:01:57.39	100.53	13.38	
2025-01-19 17:01:57.59	100.50	13.40	
2025-01-19 17:01:57.80	100.47	13.41	
2025-01-19 17:01:58.00	100.44	13.43	
2025-01-19 17:01:58.20	100.41	13.45	
2025-01-19 17:01:58.40	100.38	13.46	
2025-01-19 17:01:58.61	100.35	13.48	
2025-01-19 17:01:58.81	100.32	13.50	
2025-01-19 17:01:59.01	100.28	13.51	
2025-01-19 17:01:59.22	100.25	13.53	
2025-01-19 17:01:59.42	100.22	13.55	
2025-01-19 17:01:59.62	100.19	13.56	
2025-01-19 17:01:59.82	100.16	13.58	
2025-01-19 17:02:00.03	100.13	13.60	
2025-01-19 17:02:00.23	100.10	13.61	
2025-01-19 17:02:00.43	100.06	13.63	
2025-01-19 17:02:00.64	100.03	13.65	
2025-01-19 17:02:00.84	100.00	13.66	
2025-01-19 17:02:01.04	99.97	13.68	
2025-01-19 17:02:01.25	99.94	13.70	
2025-01-19 17:02:01.45	99.90	13.71	
2025-01-19 17:02:01.65	99.87	13.73	
2025-01-19 17:02:01.85	99.84	13.75	
2025-01-19 17:02:02.06	99.81	13.76	
2025-01-19 17:02:02.26	99.78	13.78	
2025-01-19 17:02:02.46	99.75	13.80	
2025-01-19 17:02:02.67	99.71	13.81	
2025-01-19 17:02:02.87	99.68	13.83	
2025-01-19 17:02:03.07	99.65	13.85	
2025-01-19 17:02:03.28	99.62	13.86	
2025-01-19 17:02:03.48	99.58	13.88	
2025-01-19 17:02:03.68	99.55	13.90	
2025-01-19 17:02:03.88	99.52	13.91	
2025-01-19 17:02:04.09	99.49	13.93	
2025-01-19 17:02:04.29	99.46	13.95	
2025-01-19 17:02:04.49	99.42	13.96	
2025-01-19 17:02:04.70	99.39	13.98	
2025-01-19 17:02:04.90	99.36	14.00	
2025-01-19 17:02:05.10	99.33	14.02	
2025-01-19 17:02:05.30	99.29	14.03	
2025-01-19 17:02:05.51	99.26	14.05	
2025-01-19 17:02:05.71	99.23	14.07	
2025-01-19 17:02:05.91	99.20	14.08	
2025-01-19 17:02:06.12	99.16	14.10	
2025-01-19 17:02:06.32	99.13	14.12	
2025-01-19 17:02:06.52	99.10	14.13	
2025-01-19 17:02:06.73	99.06	14.15	
2025-01-19 17:02:06.93	99.03	14.17	
2025-01-19 17:02:07.13	99.00	14.18	
2025-01-19 17:02:07.33	98.97	14.20	
2025-01-19 17:02:07.54	98.93	14.22	
2025-01-19 17:02:07.74	98.90	14.23	
2025-01-19 17:02:07.94	98.87	14.25	
2025-01-19 17:02:08.15	98.83	14.27	
2025-01-19 17:02:08.35	98.80	14.28	
2025-01-19 17:02:08.55	98.77	14.30	
2025-01-19 17:02:08.75	98.73	14.32	
2025-01-19 17:02:08.96	98.70	14.33	
2025-01-19 17:02:09.16	98.67	14.35	
2025-01-19 17:02:09.36	98.63	14.37	
2025-01-19 17:02:09.57	98.60	14.39	
2025-01-19 17:02:09.77	98.57	14.40	
2025-01-19 17:02:09.97	98.53	14.42	
2025-01-19 17:02:10.18	98.50	14.44	
2025-01-19 17:02:10.38	98.47	14.45	
2025-01-19 17:02:10.58	98.43	14.47	
2025-01-19 17:02:10.78	98.40	14.49	
2025-01-19 17:02:10.99	98.37	14.50	
2025-01-19 17:02:11.19	98.33	14.52	
2025-01-19 17:02:11.39	98.30	14.54	
2025-01-19 17:02:11.60	98.26	14.55	
2025-01-19 17:02:11.80	98.23	14.57	
2025-01-19 17:02:12.00	98.20	14.59	
2025-01-19 17:02:12.21	98.16	14.61	
2025-01-19 17:02:12.41	98.13	14.62	
2025-01-19 17:02:12.61	98.09	14.64	
2025-01-19 17:02:12.81	98.06	14.66	
2025-01-19 17:02:13.02	98.03	14.67	
2025-01-19 17:02:13.22	97.99	14.69	
2025-01-19 17:02:13.42	97.96	14.71	
2025-01-19 17:02:13.63	97.92	14.72	
2025-01-19 17:02:13.83	97.89	14.74	
2025-01-19 17:02:14.03	97.86	14.76	
2025-01-19 17:02:14.23	97.82	14.77	
2025-01-19 17:02:14.44	97.79	14.79	
2025-01-19 17:02:14.64	97.75	14.81	
2025-01-19 17:02:14.84	97.72	14.82	
2025-01-19 17:02:15.05	97.68	14.84	
2025-01-19 17:02:15.25	97.65	14.86	
2025-01-19 17:02:15.45	97.61	14.88	
2025-01-19 17:02:15.66	97.58	14.89	
2025-01-19 17:02:15.86	97.54	14.91	
2025-01-19 17:02:16.06	97.51	14.93	
2025-01-19 17:02:16.26	97.48	14.94	
2025-01-19 17:02:16.47	97.44	14.96	
2025-01-19 17:02:16.67	97.41	14.98	
2025-01-19 17:02:16.87	97.37	14.99	
2025-01-19 17:02:17.08	97.34	15.01	
2025-01-19 17:02:17.28	97.30	15.03	
2025-01-19 17:02:17.48	97.27	15.05	
2025-01-19 17:02:17.68	97.23	15.06	
2025-01-19 17:02:17.89	97.20	15.08	
2025-01-19 17:02:18.09	97.16	15.10	
2025-01-19 17:02:18.29	97.13	15.11	
2025-01-19 17:02:18.50	97.09	15.13	
2025-01-19 17:02:18.70	97.05	15.15	
2025-01-19 17:02:18.90	97.02	15.16	
2025-01-19 17:02:19.11	96.98	15.18	
2025-01-19 17:02:19.31	96.95	15.20	
2025-01-19 17:02:19.51	96.91	15.22	
2025-01-19 17:02:19.71	96.88	15.23	
2025-01-19 17:02:19.92	96.84	15.25	
2025-01-19 17:02:20.12	96.81	15.27	
2025-01-19 17:02:20.32	96.77	15.28	
2025-01-19 17:02:20.53	96.73	15.30	
2025-01-19 17:02:20.73	96.70	15.32	
2025-01-19 17:02:20.93	96.66	15.33	
2025-01-19 17:02:21.13	96.63	15.35	
2025-01-19 17:02:21.34	96.59	15.37	
2025-01-19 17:02:21.54	96.56	15.39	
2025-01-19 17:02:21.74	96.52	15.40	
2025-01-19 17:02:21.95	96.48	15.42	
2025-01-19 17:02:22.15	96.45	15.44	
2025-01-19 17:02:22.35	96.41	15.45	
2025-01-19 17:02:22.56	96.38	15.47	
2025-01-19 17:02:22.76	96.34	15.49	
2025-01-19 17:02:22.96	96.30	15.50	
2025-01-19 17:02:23.16	96.27	15.52	
2025-01-19 17:02:23.37	96.23	15.54	
2025-01-19 17:02:23.57	96.19	15.56	
2025-01-19 17:02:23.77	96.16	15.57	
2025-01-19 17:02:23.98	96.12	15.59	
2025-01-19 17:02:24.18	96.09	15.61	
2025-01-19 17:02:24.38	96.05	15.62	
2025-01-19 17:02:24.59	96.01	15.64	
2025-01-19 17:02:24.79	95.98	15.66	
2025-01-19 17:02:24.99	95.94	15.68	
2025-01-19 17:02:25.19	95.90	15.69	
2025-01-19 17:02:25.40	95.87	15.71	
2025-01-19 17:02:25.60	95.83	15.73	
2025-01-19 17:02:25.80	95.79	15.74	
2025-01-19 17:02:26.01	95.75	15.76	
2025-01-19 17:02:26.21	95.72	15.78	
2025-01-19 17:02:26.41	95.68	15.80	
2025-01-19 17:02:26.61	95.65	15.81	
2025-01-19 17:02:26.82	95.61	15.83	
2025-01-19 17:02:27.02	95.57	15.85	
2025-01-19 17:02:27.22	95.53	15.86	
2025-01-19 17:02:27.43	95.50	15.88	
2025-01-19 17:02:27.63	95.46	15.90	
2025-01-19 17:02:27.83	95.42	15.91	
2025-01-19 17:02:28.04	95.38	15.93	
2025-01-19 17:02:28.24	95.35	15.95	
2025-01-19 17:02:28.44	95.31	15.97	
2025-01-19 17:02:28.64	95.27	15.98	
2025-01-19 17:02:28.85	95.23	16.00	
2025-01-19 17:02:29.05	95.20	16.02	
2025-01-19 17:02:29.25	95.16	16.03	
2025-01-19 17:02:29.46	95.12	16.05	
2025-01-19 17:02:29.66	95.08	16.07	
2025-01-19 17:02:29.86	95.05	16.09	
2025-01-19 17:02:30.06	95.01	16.10	
2025-01-19 17:02:30.27	94.97	16.12	
2025-01-19 17:02:30.47	94.93	16.14	
2025-01-19 17:02:30.67	94.90	16.15	
2025-01-19 17:02:30.88	94.86	16.17	
2025-01-19 17:02:31.08	94.82	16.19	
2025-01-19 17:02:31.28	94.78	16.21	
2025-01-19 17:02:31.49	94.74	16.22	
2025-01-19 17:02:31.69	94.70	16.24	
2025-01-19 17:02:31.89	94.67	16.26	
2025-01-19 17:02:32.09	94.63	16.27	
2025-01-19 17:02:32.30	94.59	16.29	
2025-01-19 17:02:32.50	94.55	16.31	
2025-01-19 17:02:32.70	94.51	16.33	
2025-01-19 17:02:32.91	94.47	16.34	
2025-01-19 17:02:33.11	94.44	16.36	
2025-01-19 17:02:33.31	94.40	16.38	
2025-01-19 17:02:33.51	94.36	16.39	
2025-01-19 17:02:33.72	94.32	16.41	
2025-01-19 17:02:33.92	94.28	16.43	
2025-01-19 17:02:34.12	94.24	16.45	
2025-01-19 17:02:34.33	94.20	16.46	
2025-01-19 17:02:34.53	94.16	16.48	
2025-01-19 17:02:34.73	94.13	16.50	
2025-01-19 17:02:34.94	94.09	16.51	
2025-01-19 17:02:35.14	94.05	16.53	
2025-01-19 17:02:35.34	94.01	16.55	
2025-01-19 17:02:35.54	93.97	16.56	
2025-01-19 17:02:35.75	93.93	16.58	
2025-01-19 17:02:35.95	93.89	16.60	
2025-01-19 17:02:36.15	93.85	16.62	
2025-01-19 17:02:36.36	93.81	16.63	
2025-01-19 17:02:36.56	93.77	16.65	
2025-01-19 17:02:36.76	93.74	16.67	
2025-01-19 17:02:36.97	93.69	16.69	
2025-01-19 17:02:37.17	93.66	16.70	
2025-01-19 17:02:37.37	93.62	16.72	
2025-01-19 17:02:37.57	93.58	16.74	
2025-01-19 17:02:37.78	93.54	16.75	
2025-01-19 17:02:37.98	93.50	16.77	
2025-01-19 17:02:38.18	93.46	16.79	
2025-01-19 17:02:38.39	93.42	16.81	
2025-01-19 17:02:38.59	93.38	16.82	
2025-01-19 17:02:38.79	93.34	16.84	
2025-01-19 17:02:38.99	93.30	16.86	
2025-01-19 17:02:39.20	93.26	16.87	
2025-01-19 17:02:39.40	93.22	16.89	
2025-01-19 17:02:39.60	93.18	16.91	
2025-01-19 17:02:39.81	93.14	16.93	
2025-01-19 17:02:40.01	93.10	16.94	
2025-01-19 17:02:40.21	93.06	16.96	
2025-01-19 17:02:40.42	93.02	16.98	
2025-01-19 17:02:40.62	92.98	16.99	
2025-01-19 17:02:40.82	92.94	17.01	
2025-01-19 17:02:41.02	92.90	17.03	
2025-01-19 17:02:41.23	92.86	17.05	
2025-01-19 17:02:41.43	92.82	17.06	
2025-01-19 17:02:41.63	92.78	17.08	
2025-01-19 17:02:41.84	92.73	17.10	
2025-01-19 17:02:42.04	92.69	17.11	
2025-01-19 17:02:42.24	92.65	17.13	
2025-01-19 17:02:42.44	92.61	17.15	
2025-01-19 17:02:42.65	92.57	17.16	
2025-01-19 17:02:42.85	92.53	17.18	
2025-01-19 17:02:43.05	92.49	17.20	
2025-01-19 17:02:43.26	92.45	17.22	
2025-01-19 17:02:43.46	92.41	17.23	
2025-01-19 17:02:43.66	92.37	17.25	
2025-01-19 17:02:43.87	92.33	17.27	
2025-01-19 17:02:44.07	92.29	17.28	
2025-01-19 17:02:44.27	92.24	17.30	
2025-01-19 17:02:44.47	92.20	17.32	
2025-01-19 17:02:44.68	92.16	17.34	
2025-01-19 17:02:44.88	92.12	17.35	
2025-01-19 17:02:45.08	92.08	17.37	
2025-01-19 17:02:45.29	92.04	17.39	
2025-01-19 17:02:45.49	92.00	17.40	
2025-01-19 17:02:45.69	91.96	17.42	
2025-01-19 17:02:45.89	91.91	17.44	
2025-01-19 17:02:46.10	91.87	17.46	
2025-01-19 17:02:46.30	91.83	17.47	
2025-01-19 17:02:46.50	91.79	17.49	
2025-01-19 17:02:46.71	91.75	17.51	
2025-01-19 17:02:46.91	91.71	17.52	
2025-01-19 17:02:47.11	91.66	17.54	
2025-01-19 17:02:47.32	91.62	17.56	
2025-01-19 17:02:47.52	91.58	17.58	
2025-01-19 17:02:47.72	91.54	17.59	
2025-01-19 17:02:47.92	91.50	17.61	
2025-01-19 17:02:48.13	91.45	17.63	
2025-01-19 17:02:48.33	91.41	17.64	
2025-01-19 17:02:48.53	91.37	17.66	
2025-01-19 17:02:48.74	91.33	17.68	
2025-01-19 17:02:48.94	91.28	17.69	
2025-01-19 17:02:49.14	91.24	17.71	
2025-01-19 17:02:49.35	91.20	17.73	
2025-01-19 17:02:49.55	91.16	17.75	
2025-01-19 17:02:49.75	91.11	17.76	
2025-01-19 17:02:49.95	91.07	17.78	
2025-01-19 17:02:50.16	91.03	17.80	
2025-01-19 17:02:50.36	90.99	17.81	
2025-01-19 17:02:50.56	90.94	17.83	
2025-01-19 17:02:50.77	90.90	17.85	
2025-01-19 17:02:50.97	90.86	17.86	
2025-01-19 17:02:51.17	90.82	17.88	
2025-01-19 17:02:51.37	90.77	17.90	
2025-01-19 17:02:51.58	90.73	17.92	
2025-01-19 17:02:51.78	90.69	17.93	
2025-01-19 17:02:51.98	90.64	17.95	
2025-01-19 17:02:52.19	90.60	17.97	
2025-01-19 17:02:52.39	90.56	17.98	
2025-01-19 17:02:52.59	90.51	18.00	
2025-01-19 17:02:52.80	90.47	18.02	
2025-01-19 17:02:53.00	90.43	18.04	
2025-01-19 17:02:53.20	90.38	18.05	
2025-01-19 17:02:53.40	90.34	18.07	
2025-01-19 17:02:53.61	90.30	18.09	
2025-01-19 17:02:53.81	90.25	18.10	
2025-01-19 17:02:54.01	90.21	18.12	
2025-01-19 17:02:54.22	90.17	18.14	
2025-01-19 17:02:54.42	90.12	18.15	
2025-01-19 17:02:54.62	90.08	18.17	
2025-01-19 17:02:54.82	90.04	18.19	
2025-01-19 17:02:55.03	89.99	18.21	
2025-01-19 17:02:55.23	89.95	18.22	
2025-01-19 17:02:55.43	89.90	18.24	
2025-01-19 17:02:55.64	89.86	18.26	
2025-01-19 17:02:55.84	89.81	18.27	
2025-01-19 17:02:56.04	89.77	18.29	
2025-01-19 17:02:56.25	89.73	18.31	
2025-01-19 17:02:56.45	89.68	18.32	
2025-01-19 17:02:56.65	89.64	18.34	
2025-01-19 17:02:56.85	89.59	18.36	
2025-01-19 17:02:57.06	89.55	18.37	
2025-01-19 17:02:57.26	89.51	18.39	
2025-01-19 17:02:57.46	89.46	18.41	
2025-01-19 17:02:57.67	89.42	18.43	
2025-01-19 17:02:57.87	89.37	18.44	
2025-01-19 17:02:58.07	89.33	18.46	
2025-01-19 17:02:58.27	89.28	18.48	
2025-01-19 17:02:58.48	89.24	18.49	
2025-01-19 17:02:58.68	89.19	18.51	
2025-01-19 17:02:58.88	89.15	18.53	
2025-01-19 17:02:59.09	89.10	18.54	
2025-01-19 17:02:59.29	89.06	18.56	
2025-01-19 17:02:59.49	89.01	18.58	
2025-01-19 17:02:59.70	88.97	18.59	
2025-01-19 17:02:59.90	88.92	18.61	
2025-01-19 17:03:00.10	88.88	18.63	
2025-01-19 17:03:00.30	88.83	18.64	
2025-01-19 17:03:00.51	88.79	18.66	
2025-01-19 17:03:00.71	88.74	18.68	
2025-01-19 17:03:00.91	88.70	18.69	
2025-01-19 17:03:01.12	88.65	18.71	
2025-01-19 17:03:01.32	88.61	18.73	
2025-01-19 17:03:01.52	88.56	18.75	
2025-01-19 17:03:01.73	88.51	18.76	
2025-01-19 17:03:01.93	88.47	18.78	
2025-01-19 17:03:02.13	88.42	18.80	
2025-01-19 17:03:02.33	88.38	18.81	
2025-01-19 17:03:02.54	88.33	18.83	
2025-01-19 17:03:02.74	88.29	18.85	
2025-01-19 17:03:02.94	88.24	18.86	
2025-01-19 17:03:03.15	88.19	18.88	
2025-01-19 17:03:03.35	88.15	18.90	
2025-01-19 17:03:03.55	88.10	18.91	
2025-01-19 17:03:03.75	88.06	18.93	
2025-01-19 17:03:03.96	88.01	18.95	
2025-01-19 17:03:04.16	87.96	18.96	
2025-01-19 17:03:04.36	87.92	18.98	
2025-01-19 17:03:04.57	87.87	19.00	
2025-01-19 17:03:04.77	87.82	19.01	
2025-01-19 17:03:04.97	87.78	19.03	
2025-01-19 17:03:05.18	87.73	19.05	
2025-01-19 17:03:05.38	87.68	19.06	
2025-01-19 17:03:05.58	87.64	19.08	
2025-01-19 17:03:05.78	87.59	19.10	
2025-01-19 17:03:05.99	87.54	19.11	
2025-01-19 17:03:06.19	87.50	19.13	
2025-01-19 17:03:06.39	87.45	19.15	
2025-01-19 17:03:06.60	87.40	19.16	
2025-01-19 17:03:06.80	87.36	19.18	
2025-01-19 17:03:07.00	87.31	19.20	
2025-01-19 17:03:07.20	87.26	19.21	
2025-01-19 17:03:07.41	87.21	19.23	
2025-01-19 17:03:07.61	87.17	19.25	
2025-01-19 17:03:07.81	87.12	19.26	
2025-01-19 17:03:08.02	87.07	19.28	
2025-01-19 17:03:08.22	87.03	19.30	
2025-01-19 17:03:08.42	86.98	19.31	
2025-01-19 17:03:08.63	86.93	19.33	
2025-01-19 17:03:08.83	86.88	19.35	
2025-01-19 17:03:09.03	86.84	19.36	
2025-01-19 17:03:09.23	86.79	19.38	
2025-01-19 17:03:09.44	86.74	19.40	
2025-01-19 17:03:09.64	86.69	19.41	
2025-01-19 17:03:09.84	86.65	19.43	
2025-01-19 17:03:10.05	86.60	19.45	
2025-01-19 17:03:10.25	86.55	19.46	
2025-01-19 17:03:10.45	86.50	19.48	
2025-01-19 17:03:10.65	86.46	19.50	
2025-01-19 17:03:10.86	86.41	19.51	
2025-01-19 17:03:11.06	86.36	19.53	
2025-01-19 17:03:11.26	86.31	19.54	
2025-01-19 17:03:11.47	86.26	19.56	
2025-01-19 17:03:11.67	86.21	19.58	
2025-01-19 17:03:11.87	86.17	19.59	
2025-01-19 17:03:12.08	86.12	19.61	
2025-01-19 17:03:12.28	86.07	19.63	
2025-01-19 17:03:12.48	86.02	19.64	
2025-01-19 17:03:12.68	85.97	19.66	
2025-01-19 17:03:12.89	85.92	19.68	
2025-01-19 17:03:13.09	85.87	19.69	
2025-01-19 17:03:13.29	85.83	19.71	
2025-01-19 17:03:13.50	85.78	19.73	
2025-01-19 17:03:13.70	85.73	19.74	
2025-01-19 17:03:13.90	85.68	19.76	
2025-01-19 17:03:14.11	85.63	19.78	
2025-01-19 17:03:14.31	85.58	19.79	
2025-01-19 17:03:14.51	85.53	19.81	
2025-01-19 17:03:14.71	85.48	19.82	
2025-01-19 17:03:14.92	85.43	19.84	
2025-01-19 17:03:15.12	85.38	19.86	
2025-01-19 17:03:15.32	85.34	19.87	
2025-01-19 17:03:15.53	85.28	19.89	
2025-01-19 17:03:15.73	85.24	19.91	
2025-01-19 17:03:15.93	85.19	19.92	
2025-01-19 17:03:16.13	85.14	19.94	
2025-01-19 17:03:16.34	85.09	19.95	
2025-01-19 17:03:16.54	85.04	19.97	
2025-01-19 17:03:16.74	84.99	19.99	
2025-01-19 17:03:16.95	84.94	20.00	
2025-01-19 17:03:17.15	84.89	20.02	
2025-01-19 17:03:17.35	84.84	20.04	
2025-01-19 17:03:17.56	84.79	20.05	
2025-01-19 17:03:17.76	84.74	20.07	
2025-01-19 17:03:17.96	84.69	20.08	
2025-01-19 17:03:18.16	84.64	20.10	
2025-01-19 17:03:18.37	84.59	20.12	
2025-01-19 17:03:18.57	84.54	20.13	
2025-01-19 17:03:18.77	84.49	20.15	
2025-01-19 17:03:18.98	84.44	20.17	
2025-01-19 17:03:19.18	84.39	20.18	
2025-01-19 17:03:19.38	84.34	20.20	
2025-01-19 17:03:19.58	84.29	20.21	
2025-01-19 17:03:19.79	84.24	20.23	
2025-01-19 17:03:19.99	84.19	20.25	
2025-01-19 17:03:20.19	84.14	20.26	
2025-01-19 17:03:20.40	84.08	20.28	
2025-01-19 17:03:20.60	84.03	20.29	
2025-01-19 17:03:20.80	83.98	20.31	
2025-01-19 17:03:21.01	83.93	20.33	
2025-01-19 17:03:21.21	83.88	20.34	
2025-01-19 17:03:21.41	83.83	20.36	
2025-01-19 17:03:21.61	83.78	20.37	
2025-01-19 17:03:21.82	83.73	20.39	
2025-01-19 17:03:22.02	83.68	20.41	
2025-01-19 17:03:22.22	83.63	20.42	
2025-01-19 17:03:22.43	83.57	20.44	
2025-01-19 17:03:22.63	83.52	20.45	
2025-01-19 17:03:22.83	83.47	20.47	
2025-01-19 17:03:23.03	83.42	20.48	
2025-01-19 17:03:23.24	83.37	20.50	
2025-01-19 17:03:23.44	83.32	20.52	
2025-01-19 17:03:23.64	83.27	20.53	
2025-01-19 17:03:23.85	83.21	20.55	
2025-01-19 17:03:24.05	83.16	20.56	
2025-01-19 17:03:24.25	83.11	20.58	
2025-01-19 17:03:24.46	83.06	20.60	
2025-01-19 17:03:24.66	83.01	20.61	
2025-01-19 17:03:24.86	82.96	20.63	
2025-01-19 17:03:25.06	82.91	20.64	
2025-01-19 17:03:25.27	82.85	20.66	
2025-01-19 17:03:25.47	82.80	20.67	
2025-01-19 17:03:25.67	82.75	20.69	
2025-01-19 17:03:25.88	82.70	20.71	
2025-01-19 17:03:26.08	82.64	20.72	
2025-01-19 17:03:26.28	82.59	20.74	
2025-01-19 17:03:26.49	82.54	20.75	
2025-01-19 17:03:26.69	82.49	20.77	
2025-01-19 17:03:26.89	82.44	20.78	
2025-01-19 17:03:27.09	82.38	20.80	
2025-01-19 17:03:27.30	82.33	20.82	
2025-01-19 17:03:27.50	82.28	20.83	
2025-01-19 17:03:27.70	82.23	20.85	
2025-01-19 17:03:27.91	82.17	20.86	
2025-01-19 17:03:28.11	82.12	20.88	
2025-01-19 17:03:28.31	82.07	20.89	
2025-01-19 17:03:28.51	82.01	20.91	
2025-01-19 17:03:28.72	81.96	20.92	
2025-01-19 17:03:28.92	81.91	20.94	
2025-01-19 17:03:29.12	81.86	20.96	
2025-01-19 17:03:29.33	81.80	20.97	
2025-01-19 17:03:29.53	81.75	20.99	
2025-01-19 17:03:29.73	81.70	21.00	
2025-01-19 17:03:29.94	81.64	21.02	
2025-01-19 17:03:30.14	81.59	21.03	
2025-01-19 17:03:30.34	81.54	21.05	
2025-01-19 17:03:30.54	81.48	21.06	
2025-01-19 17:03:30.75	81.43	21.08	
2025-01-19 17:03:30.95	81.37	21.09	
2025-01-19 17:03:31.15	81.32	21.11	
2025-01-19 17:03:31.36	81.27	21.13	
2025-01-19 17:03:31.56	81.21	21.14	
2025-01-19 17:03:31.76	81.16	21.16	
2025-01-19 17:03:31.96	81.11	21.17	
2025-01-19 17:03:32.17	81.05	21.19	
2025-01-19 17:03:32.37	81.00	21.20	
2025-01-19 17:03:32.57	80.94	21.22	
2025-01-19 17:03:32.78	80.89	21.23	
2025-01-19 17:03:32.98	80.84	21.25	
2025-01-19 17:03:33.18	80.78	21.26	
2025-01-19 17:03:33.39	80.73	21.28	
2025-01-19 17:03:33.59	80.67	21.29	
2025-01-19 17:03:33.79	80.62	21.31	
2025-01-19 17:03:33.99	80.57	21.32	
2025-01-19 17:03:34.20	80.51	21.34	
2025-01-19 17:03:34.40	80.45	21.35	
2025-01-19 17:03:34.60	80.40	21.37	
2025-01-19 17:03:34.81	80.34	21.38	
2025-01-19 17:03:35.01	80.29	21.40	
2025-01-19 17:03:35.21	80.24	21.41	
2025-01-19 17:03:35.42	80.18	21.43	
2025-01-19 17:03:35.62	80.13	21.44	
2025-01-19 17:03:35.82	80.07	21.46	
2025-01-19 17:03:36.02	80.02	21.47	
2025-01-19 17:03:36.23	79.96	21.49	
2025-01-19 17:03:36.43	79.91	21.50	
2025-01-19 17:03:36.63	79.85	21.52	
2025-01-19 17:03:36.84	79.80	21.53	
2025-01-19 17:03:37.04	79.74	21.55	
2025-01-19 17:03:37.24	79.69	21.56	
2025-01-19 17:03:37.44	79.63	21.58	
2025-01-19 17:03:37.65	79.57	21.59	
2025-01-19 17:03:37.85	79.52	21.61	
2025-01-19 17:03:38.05	79.46	21.62	
2025-01-19 17:03:38.26	79.41	21.64	
2025-01-19 17:03:38.46	79.35	21.65	
2025-01-19 17:03:38.66	79.30	21.67	
2025-01-19 17:03:38.87	79.24	21.68	
2025-01-19 17:03:39.07	79.18	21.70	
2025-01-19 17:03:39.27	79.13	21.71	
2025-01-19 17:03:39.47	79.07	21.72	
2025-01-19 17:03:39.68	79.02	21.74	
2025-01-19 17:03:39.88	78.96	21.75	
2025-01-19 17:03:40.08	78.91	21.77	
2025-01-19 17:03:40.29	78.85	21.78	
2025-01-19 17:03:40.49	78.79	21.80	
2025-01-19 17:03:40.69	78.74	21.81	
2025-01-19 17:03:40.89	78.68	21.83	
2025-01-19 17:03:41.10	78.62	21.84	
2025-01-19 17:03:41.30	78.57	21.86	
2025-01-19 17:03:41.50	78.51	21.87	
2025-01-19 17:03:41.71	78.45	21.88	
2025-01-19 17:03:41.91	78.40	21.90	
2025-01-19 17:03:42.11	78.34	21.91	
2025-01-19 17:03:42.32	78.28	21.93	
2025-01-19 17:03:42.52	78.23	21.94	
2025-01-19 17:03:42.72	78.17	21.96	
2025-01-19 17:03:42.92	78.12	21.97	
2025-01-19 17:03:43.13	78.06	21.98	
2025-01-19 17:03:43.33	78.00	22.00	
2025-01-19 17:03:43.53	77.94	22.01	
2025-01-19 17:03:43.74	77.89	22.03	
2025-01-19 17:03:43.94	77.83	22.04	
2025-01-19 17:03:44.14	77.77	22.06	
2025-01-19 17:03:44.34	77.72	22.07	
2025-01-19 17:03:44.55	77.66	22.08	
2025-01-19 17:03:44.75	77.60	22.10	
2025-01-19 17:03:44.95	77.54	22.11	
2025-01-19 17:03:45.16	77.48	22.13	
2025-01-19 17:03:45.36	77.43	22.14	
2025-01-19 17:03:45.56	77.37	22.15	
2025-01-19 17:03:45.77	77.31	22.17	
2025-01-19 17:03:45.97	77.25	22.18	
2025-01-19 17:03:46.17	77.20	22.20	
2025-01-19 17:03:46.37	77.14	22.21	
2025-01-19 17:03:46.58	77.08	22.22	
2025-01-19 17:03:46.78	77.02	22.24	
2025-01-19 17:03:46.98	76.97	22.25	
2025-01-19 17:03:47.19	76.91	22.27	
2025-01-19 17:03:47.39	76.85	22.28	
2025-01-19 17:03:47.59	76.79	22.29	
2025-01-19 17:03:47.80	76.73	22.31	
2025-01-19 17:03:48.00	76.67	22.32	
2025-01-19 17:03:48.20	76.62	22.33	
2025-01-19 17:03:48.40	76.56	22.35	
2025-01-19 17:03:48.61	76.50	22.36	
2025-01-19 17:03:48.81	76.44	22.38	
2025-01-19 17:03:49.01	76.38	22.39	
2025-01-19 17:03:49.22	76.32	22.40	
2025-01-19 17:03:49.42	76.27	22.42	
2025-01-19 17:03:49.62	76.21	22.43	
2025-01-19 17:03:49.82	76.15	22.44	
2025-01-19 17:03:50.03	76.09	22.46	
2025-01-19 17:03:50.23	76.03	22.47	
2025-01-19 17:03:50.43	75.97	22.48	
2025-01-19 17:03:50.64	75.91	22.50	
2025-01-19 17:03:50.84	75.85	22.51	
2025-01-19 17:03:51.04	75.80	22.52	
2025-01-19 17:03:51.25	75.73	22.54	
2025-01-19 17:03:51.45	75.68	22.55	
2025-01-19 17:03:51.65	75.62	22.56	
2025-01-19 17:03:51.85	75.56	22.58	
2025-01-19 17:03:52.06	75.50	22.59	
2025-01-19 17:03:52.26	75.44	22.60	
2025-01-19 17:03:52.46	75.38	22.62	
2025-01-19 17:03:52.67	75.32	22.63	
2025-01-19 17:03:52.87	75.26	22.64	
2025-01-19 17:03:53.07	75.20	22.66	
2025-01-19 17:03:53.27	75.14	22.67	
2025-01-19 17:03:53.48	75.08	22.68	
2025-01-19 17:03:53.68	75.02	22.70	
2025-01-19 17:03:53.88	74.96	22.71	
2025-01-19 17:03:54.09	74.90	22.72	
2025-01-19 17:03:54.29	74.84	22.74	
2025-01-19 17:03:54.49	74.78	22.75	
2025-01-19 17:03:54.70	74.72	22.76	
2025-01-19 17:03:54.90	74.66	22.78	
2025-01-19 17:03:55.10	74.60	22.79	
2025-01-19 17:03:55.30	74.54	22.80	
2025-01-19 17:03:55.51	74.48	22.81	
2025-01-19 17:03:55.71	74.42	22.83	
2025-01-19 17:03:55.91	74.36	22.84	
2025-01-19 17:03:56.12	74.30	22.85	
2025-01-19 17:03:56.32	74.24	22.87	
2025-01-19 17:03:56.52	74.18	22.88	
2025-01-19 17:03:56.72	74.12	22.89	
2025-01-19 17:03:56.93	74.06	22.90	
2025-01-19 17:03:57.13	74.00	22.92	
2025-01-19 17:03:57.33	73.94	22.93	
2025-01-19 17:03:57.54	73.88	22.94	
2025-01-19 17:03:57.74	73.82	22.95	
2025-01-19 17:03:57.94	73.76	22.97	
2025-01-19 17:03:58.15	73.69	22.98	
2025-01-19 17:03:58.35	73.63	22.99	
2025-01-19 17:03:58.55	73.57	23.00	
2025-01-19 17:03:58.75	73.51	23.02	
2025-01-19 17:03:58.96	73.45	23.03	
2025-01-19 17:03:59.16	73.39	23.04	
2025-01-19 17:03:59.36	73.33	23.05	
2025-01-19 17:03:59.57	73.27	23.07	
2025-01-19 17:03:59.77	73.21	23.08	
2025-01-19 17:03:59.97	73.15	23.09	
2025-01-19 17:04:00.18	73.08	23.10	
2025-01-19 17:04:00.38	73.02	23.12	
2025-01-19 17:04:00.58	72.96	23.13	
2025-01-19 17:04:00.78	72.90	23.14	
2025-01-19 17:04:00.99	72.84	23.15	
2025-01-19 17:04:01.19	72.78	23.16	
2025-01-19 17:04:01.39	72.72	23.18	
2025-01-19 17:04:01.60	72.65	23.19	
2025-01-19 17:04:01.80	72.59	23.20	
2025-01-19 17:04:02.00	72.53	23.21	
2025-01-19 17:04:02.20	72.47	23.22	
2025-01-19 17:04:02.41	72.41	23.24	
2025-01-19 17:04:02.61	72.34	23.25	
2025-01-19 17:04:02.81	72.28	23.26	
2025-01-19 17:04:03.02	72.22	23.27	
2025-01-19 17:04:03.22	72.16	23.28	
2025-01-19 17:04:03.42	72.10	23.30	
2025-01-19 17:04:03.63	72.03	23.31	
2025-01-19 17:04:03.83	71.97	23.32	
2025-01-19 17:04:04.03	71.91	23.33	
2025-01-19 17:04:04.23	71.85	23.34	
2025-01-19 17:04:04.44	71.78	23.35	
2025-01-19 17:04:04.64	71.72	23.37	
2025-01-19 17:04:04.84	71.66	23.38	
2025-01-19 17:04:05.05	71.60	23.39	
2025-01-19 17:04:05.25	71.53	23.40	
2025-01-19 17:04:05.45	71.47	23.41	
2025-01-19 17:04:05.65	71.41	23.42	
2025-01-19 17:04:05.86	71.35	23.44	
2025-01-19 17:04:06.06	71.28	23.45	
2025-01-19 17:04:06.26	71.22	23.46	
2025-01-19 17:04:06.47	71.16	23.47	
2025-01-19 17:04:06.67	71.09	23.48	
2025-01-19 17:04:06.87	71.03	23.49	
2025-01-19 17:04:07.08	70.97	23.50	
2025-01-19 17:04:07.28	70.91	23.51	
2025-01-19 17:04:07.48	70.84	23.53	
2025-01-19 17:04:07.68	70.78	23.54	
2025-01-19 17:04:07.89	70.72	23.55	
2025-01-19 17:04:08.09	70.65	23.56	
2025-01-19 17:04:08.29	70.59	23.57	
2025-01-19 17:04:08.50	70.52	23.58	
2025-01-19 17:04:08.70	70.46	23.59	
2025-01-19 17:04:08.90	70.40	23.60	
2025-01-19 17:04:09.10	70.34	23.61	
2025-01-19 17:04:09.31	70.27	23.63	
2025-01-19 17:04:09.51	70.21	23.64	
2025-01-19 17:04:09.71	70.15	23.65	
2025-01-19 17:04:09.92	70.08	23.66	
2025-01-19 17:04:10.12	70.02	23.67	
2025-01-19 17:04:10.32	69.95	23.68	
2025-01-19 17:04:10.53	69.89	23.69	
2025-01-19 17:04:10.73	69.83	23.70	
2025-01-19 17:04:10.93	69.76	23.71	
2025-01-19 17:04:11.13	69.70	23.72	
2025-01-19 17:04:11.34	69.63	23.73	
2025-01-19 17:04:11.54	69.57	23.74	
2025-01-19 17:04:11.74	69.51	23.75	
2025-01-19 17:04:11.95	69.44	23.76	
2025-01-19 17:04:12.15	69.38	23.77	
2025-01-19 17:04:12.35	69.31	23.79	
2025-01-19 17:04:12.56	69.25	23.80	
2025-01-19 17:04:12.76	69.18	23.81	
2025-01-19 17:04:12.96	69.12	23.82	
2025-01-19 17:04:13.16	69.06	23.83	
2025-01-19 17:04:13.37	68.99	23.84	
2025-01-19 17:04:13.57	68.93	23.85	
2025-01-19 17:04:13.77	68.86	23.86	
2025-01-19 17:04:13.98	68.80	23.87	
2025-01-19 17:04:14.18	68.73	23.88	
2025-01-19 17:04:14.38	68.67	23.89	
2025-01-19 17:04:14.58	68.61	23.90	
2025-01-19 17:04:14.79	68.54	23.91	
2025-01-19 17:04:14.99	68.47	23.92	
2025-01-19 17:04:15.19	68.41	23.93	
2025-01-19 17:04:15.40	68.34	23.94	
2025-01-19 17:04:15.60	68.28	23.95	
2025-01-19 17:04:15.80	68.22	23.96	
2025-01-19 17:04:16.01	68.15	23.97	
2025-01-19 17:04:16.21	68.08	23.98	
2025-01-19 17:04:16.41	68.02	23.99	
2025-01-19 17:04:16.61	67.96	24.00	
2025-01-19 17:04:16.82	67.89	24.01	
2025-01-19 17:04:17.02	67.82	24.02	
2025-01-19 17:04:17.22	67.76	24.03	
2025-01-19 17:04:17.43	67.69	24.04	
2025-01-19 17:04:17.63	67.63	24.04	
2025-01-19 17:04:17.83	67.56	24.05	
2025-01-19 17:04:18.03	67.50	24.06	
2025-01-19 17:04:18.24	67.43	24.07	
2025-01-19 17:04:18.44	67.37	24.08	
2025-01-19 17:04:18.64	67.30	24.09	
2025-01-19 17:04:18.85	67.23	24.10	
2025-01-19 17:04:19.05	67.17	24.11	
2025-01-19 17:04:19.25	67.10	24.12	
2025-01-19 17:04:19.46	67.04	24.13	
2025-01-19 17:04:19.66	66.97	24.14	
2025-01-19 17:04:19.86	66.91	24.15	
2025-01-19 17:04:20.06	66.84	24.16	
2025-01-19 17:04:20.27	66.77	24.17	
2025-01-19 17:04:20.47	66.71	24.18	
2025-01-19 17:04:20.67	66.64	24.18	
2025-01-19 17:04:20.88	66.58	24.19	
2025-01-19 17:04:21.08	66.51	24.20	
2025-01-19 17:04:21.28	66.45	24.21	
2025-01-19 17:04:21.48	66.38	24.22	
2025-01-19 17:04:21.69	66.31	24.23	
2025-01-19 17:04:21.89	66.25	24.24	
2025-01-19 17:04:22.09	66.18	24.25	
2025-01-19 17:04:22.30	66.11	24.26	
2025-01-19 17:04:22.50	66.05	24.26	
2025-01-19 17:04:22.70	65.98	24.27	
2025-01-19 17:04:22.91	65.91	24.28	
2025-01-19 17:04:23.11	65.85	24.29	
2025-01-19 17:04:23.31	65.78	24.30	
2025-01-19 17:04:23.51	65.72	24.31	
2025-01-19 17:04:23.72	65.65	24.32	
2025-01-19 17:04:23.92	65.58	24.32	
2025-01-19 17:04:24.12	65.52	24.33	
2025-01-19 17:04:24.33	65.45	24.34	
2025-01-19 17:04:24.53	65.38	24.35	
2025-01-19 17:04:24.73	65.32	24.36	
2025-01-19 17:04:24.94	65.25	24.37	
2025-01-19 17:04:25.14	65.18	24.37	
2025-01-19 17:04:25.34	65.12	24.38	
2025-01-19 17:04:25.54	65.05	24.39	
2025-01-19 17:04:25.75	64.98	24.40	
2025-01-19 17:04:25.95	64.91	24.41	
2025-01-19 17:04:26.15	64.85	24.41	
2025-01-19 17:04:26.36	64.78	24.42	
2025-01-19 17:04:26.56	64.71	24.43	
2025-01-19 17:04:26.76	64.65	24.44	
2025-01-19 17:04:26.96	64.58	24.45	
2025-01-19 17:04:27.17	64.51	24.45	
2025-01-19 17:04:27.37	64.45	24.46	
2025-01-19 17:04:27.57	64.38	24.47	
2025-01-19 17:04:27.78	64.31	24.48	
2025-01-19 17:04:27.98	64.24	24.48	
2025-01-19 17:04:28.18	64.18	24.49	
2025-01-19 17:04:28.39	64.11	24.50	
2025-01-19 17:04:28.59	64.04	24.51	
2025-01-19 17:04:28.79	63.97	24.51	
2025-01-19 17:04:28.99	63.91	24.52	
2025-01-19 17:04:29.20	63.84	24.53	
2025-01-19 17:04:29.40	63.77	24.54	
2025-01-19 17:04:29.60	63.70	24.54	
2025-01-19 17:04:29.81	63.63	24.55	
2025-01-19 17:04:30.01	63.57	24.56	
2025-01-19 17:04:30.21	63.50	24.57	
2025-01-19 17:04:30.41	63.43	24.57	
2025-01-19 17:04:30.62	63.36	24.58	
2025-01-19 17:04:30.82	63.30	24.59	
2025-01-19 17:04:31.02	63.23	24.59	
2025-01-19 17:04:31.23	63.16	24.60	
2025-01-19 17:04:31.43	63.09	24.61	
2025-01-19 17:04:31.63	63.03	24.62	
2025-01-19 17:04:31.84	62.96	24.62	
2025-01-19 17:04:32.04	62.89	24.63	
2025-01-19 17:04:32.24	62.82	24.64	
2025-01-19 17:04:32.44	62.76	24.64	
2025-01-19 17:04:32.65	62.69	24.65	
2025-01-19 17:04:32.85	62.62	24.66	
2025-01-19 17:04:33.05	62.55	24.66	
2025-01-19 17:04:33.26	62.48	24.67	
2025-01-19 17:04:33.46	62.41	24.68	
2025-01-19 17:04:33.66	62.35	24.68	
2025-01-19 17:04:33.86	62.28	24.69	
2025-01-19 17:04:34.07	62.21	24.70	
2025-01-19 17:04:34.27	62.14	24.70	
2025-01-19 17:04:34.47	62.07	24.71	
2025-01-19 17:04:34.68	62.00	24.71	
2025-01-19 17:04:34.88	61.94	24.72	
2025-01-19 17:04:35.08	61.87	24.73	
2025-01-19 17:04:35.29	61.80	24.73	
2025-01-19 17:04:35.49	61.73	24.74	
2025-01-19 17:04:35.69	61.66	24.75	
2025-01-19 17:04:35.89	61.60	24.75	
2025-01-19 17:04:36.10	61.53	24.76	
2025-01-19 17:04:36.30	61.46	24.76	
2025-01-19 17:04:36.50	61.39	24.77	
2025-01-19 17:04:36.71	61.32	24.78	
2025-01-19 17:04:36.91	61.25	24.78	
2025-01-19 17:04:37.11	61.18	24.79	
2025-01-19 17:04:37.32	61.11	24.79	
2025-01-19 17:04:37.52	61.04	24.80	
2025-01-19 17:04:37.72	60.98	24.80	
2025-01-19 17:04:37.92	60.91	24.81	
2025-01-19 17:04:38.13	60.84	24.82	
2025-01-19 17:04:38.33	60.77	24.82	
2025-01-19 17:04:38.53	60.70	24.83	
2025-01-19 17:04:38.74	60.63	24.83	
2025-01-19 17:04:38.94	60.56	24.84	
2025-01-19 17:04:39.14	60.50	24.84	
2025-01-19 17:04:39.34	60.43	24.85	
2025-01-19 17:04:39.55	60.36	24.85	
2025-01-19 17:04:39.75	60.29	24.86	
2025-01-19 17:04:39.95	60.22	24.86	
2025-01-19 17:04:40.16	60.15	24.87	
2025-01-19 17:04:40.36	60.08	24.88	
2025-01-19 17:04:40.56	60.01	24.88	
2025-01-19 17:04:40.77	59.94	24.89	
2025-01-19 17:04:40.97	59.87	24.89	
2025-01-19 17:04:41.17	59.81	24.90	
2025-01-19 17:04:41.37	59.74	24.90	
2025-01-19 17:04:41.58	59.67	24.91	
2025-01-19 17:04:41.78	59.60	24.91	
2025-01-19 17:04:41.98	59.53	24.92	
2025-01-19 17:04:42.19	59.46	24.92	
2025-01-19 17:04:42.39	59.39	24.92	
2025-01-19 17:04:42.59	59.32	24.93	
2025-01-19 17:04:42.79	59.25	24.93	
2025-01-19 17:04:43.00	59.18	24.94	
2025-01-19 17:04:43.20	59.11	24.94	
2025-01-19 17:04:43.40	59.04	24.95	
2025-01-19 17:04:43.61	58.97	24.95	
2025-01-19 17:04:43.81	58.90	24.96	
2025-01-19 17:04:44.01	58.84	24.96	
2025-01-19 17:04:44.22	58.76	24.97	
2025-01-19 17:04:44.42	58.70	24.97	
2025-01-19 17:04:44.62	58.63	24.97	
2025-01-19 17:04:44.82	58.56	24.98	
2025-01-19 17:04:45.03	58.49	24.98	
2025-01-19 17:04:45.23	58.42	24.99	
2025-01-19 17:04:45.43	58.35	24.99	
2025-01-19 17:04:45.64	58.28	24.99	
2025-01-19 17:04:45.84	58.21	25.00	
2025-01-19 17:04:46.04	58.14	25.00	
2025-01-19 17:04:46.25	58.07	25.01	
2025-01-19 17:04:46.45	58.00	25.01	
2025-01-19 17:04:46.65	57.93	25.01	
2025-01-19 17:04:46.85	57.86	25.02	
2025-01-19 17:04:47.06	57.79	25.02	
2025-01-19 17:04:47.26	57.72	25.03	
2025-01-19 17:04:47.46	57.65	25.03	
2025-01-19 17:04:47.67	57.58	25.03	
2025-01-19 17:04:47.87	57.51	25.04	
2025-01-19 17:04:48.07	57.44	25.04	
2025-01-19 17:04:48.27	57.37	25.04	
2025-01-19 17:04:48.48	57.30	25.05	
2025-01-19 17:04:48.68	57.23	25.05	
2025-01-19 17:04:48.88	57.16	25.05	
2025-01-19 17:04:49.09	57.09	25.06	
2025-01-19 17:04:49.29	57.02	25.06	
2025-01-19 17:04:49.49	56.95	25.06	
2025-01-19 17:04:49.70	56.88	25.07	
2025-01-19 17:04:49.90	56.81	25.07	
2025-01-19 17:04:50.10	56.74	25.07	
2025-01-19 17:04:50.30	56.67	25.08	
2025-01-19 17:04:50.51	56.60	25.08	
2025-01-19 17:04:50.71	56.53	25.08	
2025-01-19 17:04:50.91	56.46	25.08	
2025-01-19 17:04:51.12	56.39	25.09	
2025-01-19 17:04:51.32	56.32	25.09	
2025-01-19 17:04:51.52	56.25	25.09	
2025-01-19 17:04:51.72	56.19	25.10	
2025-01-19 17:04:51.93	56.11	25.10	
2025-01-19 17:04:52.13	56.04	25.10	
2025-01-19 17:04:52.33	55.97	25.10	
2025-01-19 17:04:52.54	55.90	25.11	
2025-01-19 17:04:52.74	55.83	25.11	
2025-01-19 17:04:52.94	55.76	25.11	
2025-01-19 17:04:53.15	55.69	25.11	
2025-01-19 17:04:53.35	55.62	25.12	
2025-01-19 17:04:53.55	55.55	25.12	
2025-01-19 17:04:53.75	55.48	25.12	
2025-01-19 17:04:53.96	55.41	25.12	
2025-01-19 17:04:54.16	55.34	25.12	
2025-01-19 17:04:54.36	55.27	25.13	
2025-01-19 17:04:54.57	55.20	25.13	
2025-01-19 17:04:54.77	55.13	25.13	
2025-01-19 17:04:54.97	55.06	25.13	
2025-01-19 17:04:55.17	54.99	25.13	
2025-01-19 17:04:55.38	54.92	25.14	
2025-01-19 17:04:55.58	54.85	25.14	
2025-01-19 17:04:55.78	54.78	25.14	
2025-01-19 17:04:55.99	54.71	25.14	
2025-01-19 17:04:56.19	54.64	25.14	
2025-01-19 17:04:56.39	54.57	25.15	
2025-01-19 17:04:56.60	54.50	25.15	
2025-01-19 17:04:56.80	54.43	25.15	
2025-01-19 17:04:57.00	54.36	25.15	
2025-01-19 17:04:57.20	54.29	25.15	
2025-01-19 17:04:57.41	54.22	25.15	
2025-01-19 17:04:57.61	54.15	25.15	
2025-01-19 17:04:57.81	54.08	25.16	
2025-01-19 17:04:58.02	54.01	25.16	
2025-01-19 17:04:58.22	53.94	25.16	
2025-01-19 17:04:58.42	53.87	25.16	
2025-01-19 17:04:58.63	53.79	25.16	
2025-01-19 17:04:58.83	53.73	25.16	
2025-01-19 17:04:59.03	53.66	25.16	
2025-01-19 17:04:59.23	53.59	25.16	
2025-01-19 17:04:59.44	53.51	25.17	
2025-01-19 17:04:59.64	53.44	25.17	
2025-01-19 17:04:59.84	53.38	25.17	
2025-01-19 17:05:00.05	53.30	25.17	
2025-01-19 17:05:00.25	53.23	25.17	
2025-01-19 17:05:00.45	53.16	25.17	
2025-01-19 17:05:00.65	53.09	25.17	
2025-01-19 17:05:00.86	53.02	25.17	
2025-01-19 17:05:01.06	52.95	25.17	
2025-01-19 17:05:01.26	52.88	25.17	
2025-01-19 17:05:01.47	52.81	25.17	
2025-01-19 17:05:01.67	52.74	25.17	
2025-01-19 17:05:01.87	52.67	25.17	
2025-01-19 17:05:02.08	52.60	25.17	
2025-01-19 17:05:02.28	52.53	25.17	
2025-01-19 17:05:02.48	52.46	25.17	
2025-01-19 17:05:02.68	52.39	25.17	
2025-01-19 17:05:02.89	52.32	25.18	
2025-01-19 17:05:03.09	52.25	25.18	
2025-01-19 17:05:03.29	52.18	25.18	
2025-01-19 17:05:03.50	52.11	25.18	
2025-01-19 17:05:03.70	52.04	25.18	
2025-01-19 17:05:03.90	51.97	25.18	
2025-01-19 17:05:04.10	51.90	25.18	
2025-01-19 17:05:04.31	51.82	25.18	
2025-01-19 17:05:04.51	51.76	25.18	
2025-01-19 17:05:04.71	51.69	25.17	
2025-01-19 17:05:04.92	51.61	25.17	
2025-01-19 17:05:05.12	51.54	25.17	
2025-01-19 17:05:05.32	51.47	25.17	
2025-01-19 17:05:05.53	51.40	25.17	
2025-01-19 17:05:05.73	51.33	25.17	
2025-01-19 17:05:05.93	51.26	25.17	
2025-01-19 17:05:06.13	51.19	25.17	
2025-01-19 17:05:06.34	51.12	25.17	
2025-01-19 17:05:06.54	51.05	25.17	
2025-01-19 17:05:06.74	50.98	25.17	
2025-01-19 17:05:06.95	50.91	25.17	
2025-01-19 17:05:07.15	50.84	25.17	
2025-01-19 17:05:07.35	50.77	25.17	
2025-01-19 17:05:07.55	50.70	25.17	
2025-01-19 17:05:07.76	50.63	25.17	
2025-01-19 17:05:07.96	50.56	25.17	
2025-01-19 17:05:08.16	50.49	25.16	
2025-01-19 17:05:08.37	50.42	25.16	
2025-01-19 17:05:08.57	50.35	25.16	
2025-01-19 17:05:08.77	50.28	25.16	
2025-01-19 17:05:08.98	50.21	25.16	
2025-01-19 17:05:09.18	50.14	25.16	
2025-01-19 17:05:09.38	50.07	25.16	
2025-01-19 17:05:09.58	50.00	25.16	
2025-01-19 17:05:09.79	49.92	25.16	
2025-01-19 17:05:09.99	49.86	25.15	
2025-01-19 17:05:10.19	49.79	25.15	
2025-01-19 17:05:10.40	49.71	25.15	
2025-01-19 17:05:10.60	49.64	25.15	
2025-01-19 17:05:10.80	49.58	25.15	
2025-01-19 17:05:11.01	49.50	25.15	
2025-01-19 17:05:11.21	49.43	25.14	
2025-01-19 17:05:11.41	49.36	25.14	
2025-01-19 17:05:11.61	49.29	25.14	
2025-01-19 17:05:11.82	49.22	25.14	
2025-01-19 17:05:12.02	49.15	25.14	
2025-01-19 17:05:12.22	49.08	25.14	
2025-01-19 17:05:12.43	49.01	25.13	
2025-01-19 17:05:12.63	48.94	25.13	
2025-01-19 17:05:12.83	48.87	25.13	
2025-01-19 17:05:13.03	48.80	25.13	
2025-01-19 17:05:13.24	48.73	25.13	
2025-01-19 17:05:13.44	48.66	25.12	
2025-01-19 17:05:13.64	48.59	25.12	
2025-01-19 17:05:13.85	48.52	25.12	
2025-01-19 17:05:14.05	48.45	25.12	
2025-01-19 17:05:14.25	48.38	25.11	
2025-01-19 17:05:14.46	48.31	25.11	
2025-01-19 17:05:14.66	48.24	25.11	
2025-01-19 17:05:14.86	48.17	25.11	
2025-01-19 17:05:15.06	48.10	25.11	
2025-01-19 17:05:15.27	48.03	25.10	
2025-01-19 17:05:15.47	47.96	25.10	
2025-01-19 17:05:15.67	47.89	25.10	
2025-01-19 17:05:15.88	47.82	25.09	
2025-01-19 17:05:16.08	47.75	25.09	
2025-01-19 17:05:16.28	47.68	25.09	
2025-01-19 17:05:16.48	47.61	25.09	
2025-01-19 17:05:16.69	47.54	25.08	
2025-01-19 17:05:16.89	47.47	25.08	
2025-01-19 17:05:17.09	47.40	25.08	
2025-01-19 17:05:17.30	47.33	25.07	
2025-01-19 17:05:17.50	47.26	25.07	
2025-01-19 17:05:17.70	47.19	25.07	
2025-01-19 17:05:17.91	47.12	25.07	
2025-01-19 17:05:18.11	47.05	25.06	
2025-01-19 17:05:18.31	46.98	25.06	
2025-01-19 17:05:18.51	46.91	25.06	
2025-01-19 17:05:18.72	46.84	25.05	
2025-01-19 17:05:18.92	46.77	25.05	
2025-01-19 17:05:19.12	46.70	25.05	
2025-01-19 17:05:19.33	46.63	25.04	
2025-01-19 17:05:19.53	46.56	25.04	
2025-01-19 17:05:19.73	46.49	25.04	
2025-01-19 17:05:19.93	46.43	25.03	
2025-01-19 17:05:20.14	46.35	25.03	
2025-01-19 17:05:20.34	46.28	25.02	
2025-01-19 17:05:20.54	46.22	25.02	
2025-01-19 17:05:20.75	46.14	25.02	
2025-01-19 17:05:20.95	46.08	25.01	
2025-01-19 17:05:21.15	46.01	25.01	
2025-01-19 17:05:21.36	45.93	25.01	
2025-01-19 17:05:21.56	45.87	25.00	
2025-01-19 17:05:21.76	45.80	25.00	
2025-01-19 17:05:21.96	45.73	24.99	
2025-01-19 17:05:22.17	45.66	24.99	
2025-01-19 17:05:22.37	45.59	24.99	
2025-01-19 17:05:22.57	45.52	24.98	
2025-01-19 17:05:22.78	45.45	24.98	
2025-01-19 17:05:22.98	45.38	24.97	
2025-01-19 17:05:23.18	45.31	24.97	
2025-01-19 17:05:23.39	45.24	24.96	
2025-01-19 17:05:23.59	45.17	24.96	
2025-01-19 17:05:23.79	45.10	24.96	
2025-01-19 17:05:23.99	45.03	24.95	
2025-01-19 17:05:24.20	44.96	24.95	
2025-01-19 17:05:24.40	44.89	24.94	
2025-01-19 17:05:24.60	44.83	24.94	
2025-01-19 17:05:24.81	44.76	24.93	
2025-01-19 17:05:25.01	44.69	24.93	
2025-01-19 17:05:25.21	44.62	24.92	
2025-01-19 17:05:25.41	44.55	24.92	
