passes_logs/2025/01/19/SPB_Silybum_02/SPB_Silybum_02__20250119_223907_SUOMI_NPP_rec.log

#Pass ID: 20250119_223907_SUOMI NPP
#Satellite: SUOMI NPP
#Configuration: NPP
#Start time: 2025-01-19 22:39:06

#Version: 2.0.20230423
#Station: SPB_Silybum_02
#Location: 30.233357 lon 59.946436 lat
#TLE: 1 37849U 11061A   25019.14897053  .00000245  00000+0  13701-3 0  9999
#TLE: 2 37849  98.7451 320.0850 0001518  34.7008 325.4267 14.19540506685500

#Time	Az	El	Level	Level2	SNR	BER	Gain	Gain2
2025-01-19 22:39:08.54	26.15	4.05	
2025-01-19 22:39:08.75	26.17	4.06	
2025-01-19 22:39:08.95	26.18	4.07	
2025-01-19 22:39:09.15	26.20	4.08	
2025-01-19 22:39:09.35	26.21	4.09	
2025-01-19 22:39:09.56	26.23	4.10	
2025-01-19 22:39:09.76	26.25	4.12	
2025-01-19 22:39:09.96	26.26	4.13	
2025-01-19 22:39:10.17	26.28	4.14	
2025-01-19 22:39:10.37	26.30	4.15	
2025-01-19 22:39:10.57	26.31	4.16	
2025-01-19 22:39:10.78	26.33	4.18	
2025-01-19 22:39:10.98	26.35	4.19	
2025-01-19 22:39:11.18	26.36	4.20	
2025-01-19 22:39:11.39	26.38	4.21	
2025-01-19 22:39:11.59	26.39	4.22	
2025-01-19 22:39:11.79	26.41	4.23	
2025-01-19 22:39:11.99	26.43	4.24	
2025-01-19 22:39:12.20	26.44	4.26	
2025-01-19 22:39:12.40	26.46	4.27	
2025-01-19 22:39:12.60	26.48	4.28	
2025-01-19 22:39:12.81	26.49	4.29	
2025-01-19 22:39:13.01	26.51	4.30	
2025-01-19 22:39:13.21	26.53	4.32	
2025-01-19 22:39:13.42	26.54	4.33	
2025-01-19 22:39:13.62	26.56	4.34	
2025-01-19 22:39:13.82	26.58	4.35	
2025-01-19 22:39:14.03	26.59	4.36	
2025-01-19 22:39:14.23	26.61	4.37	
2025-01-19 22:39:14.43	26.63	4.39	
2025-01-19 22:39:14.63	26.64	4.40	
2025-01-19 22:39:14.84	26.66	4.41	
2025-01-19 22:39:15.04	26.68	4.42	
2025-01-19 22:39:15.24	26.69	4.43	
2025-01-19 22:39:15.45	26.71	4.44	
2025-01-19 22:39:15.65	26.73	4.46	
2025-01-19 22:39:15.85	26.74	4.47	
2025-01-19 22:39:16.06	26.76	4.48	
2025-01-19 22:39:16.26	26.78	4.49	
2025-01-19 22:39:16.46	26.79	4.50	
2025-01-19 22:39:16.67	26.81	4.52	
2025-01-19 22:39:16.87	26.83	4.53	
2025-01-19 22:39:17.07	26.84	4.54	
2025-01-19 22:39:17.27	26.86	4.55	
2025-01-19 22:39:17.48	26.88	4.56	
2025-01-19 22:39:17.68	26.89	4.57	
2025-01-19 22:39:17.88	26.91	4.59	
2025-01-19 22:39:18.09	26.93	4.60	
2025-01-19 22:39:18.29	26.94	4.61	
2025-01-19 22:39:18.49	26.96	4.62	
2025-01-19 22:39:18.70	26.98	4.63	
2025-01-19 22:39:18.90	26.99	4.64	
2025-01-19 22:39:19.10	27.01	4.66	
2025-01-19 22:39:19.31	27.03	4.67	
2025-01-19 22:39:19.51	27.04	4.68	
2025-01-19 22:39:19.71	27.06	4.69	
2025-01-19 22:39:19.91	27.08	4.70	
2025-01-19 22:39:20.12	27.10	4.72	
2025-01-19 22:39:20.32	27.11	4.73	
2025-01-19 22:39:20.52	27.13	4.74	
2025-01-19 22:39:20.73	27.15	4.75	
2025-01-19 22:39:20.93	27.16	4.76	
2025-01-19 22:39:21.13	27.18	4.77	
2025-01-19 22:39:21.34	27.20	4.79	
2025-01-19 22:39:21.54	27.21	4.80	
2025-01-19 22:39:21.74	27.23	4.81	
2025-01-19 22:39:21.95	27.25	4.82	
2025-01-19 22:39:22.15	27.27	4.83	
2025-01-19 22:39:22.35	27.28	4.85	
2025-01-19 22:39:22.55	27.30	4.86	
2025-01-19 22:39:22.76	27.32	4.87	
2025-01-19 22:39:22.96	27.33	4.88	
2025-01-19 22:39:23.16	27.35	4.89	
2025-01-19 22:39:23.37	27.37	4.91	
2025-01-19 22:39:23.57	27.39	4.92	
2025-01-19 22:39:23.77	27.40	4.93	
2025-01-19 22:39:23.98	27.42	4.94	
2025-01-19 22:39:24.18	27.44	4.95	
2025-01-19 22:39:24.38	27.45	4.97	
2025-01-19 22:39:24.59	27.47	4.98	
2025-01-19 22:39:24.79	27.49	4.99	
2025-01-19 22:39:24.99	27.51	5.00	
2025-01-19 22:39:25.19	27.52	5.01	
2025-01-19 22:39:25.40	27.54	5.02	
2025-01-19 22:39:25.60	27.56	5.04	
2025-01-19 22:39:25.80	27.57	5.05	
2025-01-19 22:39:26.01	27.59	5.06	
2025-01-19 22:39:26.21	27.61	5.07	
2025-01-19 22:39:26.41	27.63	5.08	
2025-01-19 22:39:26.62	27.64	5.10	
2025-01-19 22:39:26.82	27.66	5.11	
2025-01-19 22:39:27.02	27.68	5.12	
2025-01-19 22:39:27.22	27.70	5.13	
2025-01-19 22:39:27.43	27.71	5.14	
2025-01-19 22:39:27.63	27.73	5.16	
2025-01-19 22:39:27.83	27.75	5.17	
2025-01-19 22:39:28.04	27.77	5.18	
2025-01-19 22:39:28.24	27.78	5.19	
2025-01-19 22:39:28.44	27.80	5.20	
2025-01-19 22:39:28.65	27.82	5.22	
2025-01-19 22:39:28.85	27.84	5.23	
2025-01-19 22:39:29.05	27.85	5.24	
2025-01-19 22:39:29.26	27.87	5.25	
2025-01-19 22:39:29.46	27.89	5.26	
2025-01-19 22:39:29.66	27.91	5.28	
2025-01-19 22:39:29.87	27.92	5.29	
2025-01-19 22:39:30.07	27.94	5.30	
2025-01-19 22:39:30.27	27.96	5.31	
2025-01-19 22:39:30.47	27.98	5.32	
2025-01-19 22:39:30.68	27.99	5.34	
2025-01-19 22:39:30.88	28.01	5.35	
2025-01-19 22:39:31.08	28.03	5.36	
2025-01-19 22:39:31.29	28.05	5.37	
2025-01-19 22:39:31.49	28.07	5.38	
2025-01-19 22:39:31.69	28.08	5.40	
2025-01-19 22:39:31.90	28.10	5.41	
2025-01-19 22:39:32.10	28.12	5.42	
2025-01-19 22:39:32.30	28.14	5.43	
2025-01-19 22:39:32.51	28.15	5.44	
2025-01-19 22:39:32.71	28.17	5.46	
2025-01-19 22:39:32.91	28.19	5.47	
2025-01-19 22:39:33.11	28.21	5.48	
2025-01-19 22:39:33.32	28.23	5.49	
2025-01-19 22:39:33.52	28.24	5.50	
2025-01-19 22:39:33.72	28.26	5.52	
2025-01-19 22:39:33.93	28.28	5.53	
2025-01-19 22:39:34.13	28.30	5.54	
2025-01-19 22:39:34.33	28.31	5.55	
2025-01-19 22:39:34.54	28.33	5.56	
2025-01-19 22:39:34.74	28.35	5.58	
2025-01-19 22:39:34.94	28.37	5.59	
2025-01-19 22:39:35.14	28.39	5.60	
2025-01-19 22:39:35.35	28.40	5.61	
2025-01-19 22:39:35.55	28.42	5.63	
2025-01-19 22:39:35.75	28.44	5.64	
2025-01-19 22:39:35.96	28.46	5.65	
2025-01-19 22:39:36.16	28.48	5.66	
2025-01-19 22:39:36.36	28.49	5.67	
2025-01-19 22:39:36.57	28.51	5.69	
2025-01-19 22:39:36.77	28.53	5.70	
2025-01-19 22:39:36.97	28.55	5.71	
2025-01-19 22:39:37.18	28.57	5.72	
2025-01-19 22:39:37.38	28.58	5.73	
2025-01-19 22:39:37.58	28.60	5.75	
2025-01-19 22:39:37.78	28.62	5.76	
2025-01-19 22:39:37.99	28.64	5.77	
2025-01-19 22:39:38.19	28.66	5.78	
2025-01-19 22:39:38.39	28.67	5.79	
2025-01-19 22:39:38.60	28.69	5.81	
2025-01-19 22:39:38.80	28.71	5.82	
2025-01-19 22:39:39.00	28.73	5.83	
2025-01-19 22:39:39.21	28.75	5.84	
2025-01-19 22:39:39.41	28.77	5.86	
2025-01-19 22:39:39.61	28.78	5.87	
2025-01-19 22:39:39.82	28.80	5.88	
2025-01-19 22:39:40.02	28.82	5.89	
2025-01-19 22:39:40.22	28.84	5.90	
2025-01-19 22:39:40.42	28.86	5.92	
2025-01-19 22:39:40.63	28.88	5.93	
2025-01-19 22:39:40.83	28.89	5.94	
2025-01-19 22:39:41.03	28.91	5.95	
2025-01-19 22:39:41.24	28.93	5.97	
2025-01-19 22:39:41.44	28.95	5.98	
2025-01-19 22:39:41.64	28.97	5.99	
2025-01-19 22:39:41.85	28.99	6.00	
2025-01-19 22:39:42.05	29.00	6.01	
2025-01-19 22:39:42.25	29.02	6.03	
2025-01-19 22:39:42.46	29.04	6.04	
2025-01-19 22:39:42.66	29.06	6.05	
2025-01-19 22:39:42.86	29.08	6.06	
2025-01-19 22:39:43.06	29.10	6.07	
2025-01-19 22:39:43.27	29.12	6.09	
2025-01-19 22:39:43.47	29.13	6.10	
2025-01-19 22:39:43.67	29.15	6.11	
2025-01-19 22:39:43.88	29.17	6.12	
2025-01-19 22:39:44.08	29.19	6.14	
2025-01-19 22:39:44.28	29.21	6.15	
2025-01-19 22:39:44.49	29.23	6.16	
2025-01-19 22:39:44.69	29.25	6.17	
2025-01-19 22:39:44.89	29.26	6.18	
2025-01-19 22:39:45.10	29.28	6.20	
2025-01-19 22:39:45.30	29.30	6.21	
2025-01-19 22:39:45.50	29.32	6.22	
2025-01-19 22:39:45.70	29.34	6.23	
2025-01-19 22:39:45.91	29.36	6.25	
2025-01-19 22:39:46.11	29.38	6.26	
2025-01-19 22:39:46.31	29.39	6.27	
2025-01-19 22:39:46.52	29.41	6.28	
2025-01-19 22:39:46.72	29.43	6.30	
2025-01-19 22:39:46.92	29.45	6.31	
2025-01-19 22:39:47.13	29.47	6.32	
2025-01-19 22:39:47.33	29.49	6.33	
2025-01-19 22:39:47.53	29.51	6.34	
2025-01-19 22:39:47.74	29.53	6.36	
2025-01-19 22:39:47.94	29.55	6.37	
2025-01-19 22:39:48.14	29.56	6.38	
2025-01-19 22:39:48.34	29.58	6.39	
2025-01-19 22:39:48.55	29.60	6.41	
2025-01-19 22:39:48.75	29.62	6.42	
2025-01-19 22:39:48.95	29.64	6.43	
2025-01-19 22:39:49.16	29.66	6.44	
2025-01-19 22:39:49.36	29.68	6.45	
2025-01-19 22:39:49.56	29.70	6.47	
2025-01-19 22:39:49.77	29.72	6.48	
2025-01-19 22:39:49.97	29.73	6.49	
2025-01-19 22:39:50.17	29.75	6.50	
2025-01-19 22:39:50.38	29.77	6.52	
2025-01-19 22:39:50.58	29.79	6.53	
2025-01-19 22:39:50.78	29.81	6.54	
2025-01-19 22:39:50.98	29.83	6.55	
2025-01-19 22:39:51.19	29.85	6.57	
2025-01-19 22:39:51.39	29.87	6.58	
2025-01-19 22:39:51.59	29.89	6.59	
2025-01-19 22:39:51.80	29.91	6.60	
2025-01-19 22:39:52.00	29.93	6.62	
2025-01-19 22:39:52.20	29.94	6.63	
2025-01-19 22:39:52.41	29.96	6.64	
2025-01-19 22:39:52.61	29.98	6.65	
2025-01-19 22:39:52.81	30.00	6.66	
2025-01-19 22:39:53.02	30.02	6.68	
2025-01-19 22:39:53.22	30.04	6.69	
2025-01-19 22:39:53.42	30.06	6.70	
2025-01-19 22:39:53.62	30.08	6.71	
2025-01-19 22:39:53.83	30.10	6.73	
2025-01-19 22:39:54.03	30.12	6.74	
2025-01-19 22:39:54.23	30.14	6.75	
2025-01-19 22:39:54.44	30.16	6.76	
2025-01-19 22:39:54.64	30.18	6.78	
2025-01-19 22:39:54.84	30.19	6.79	
2025-01-19 22:39:55.05	30.21	6.80	
2025-01-19 22:39:55.25	30.23	6.81	
2025-01-19 22:39:55.45	30.25	6.83	
2025-01-19 22:39:55.66	30.27	6.84	
2025-01-19 22:39:55.86	30.29	6.85	
2025-01-19 22:39:56.06	30.31	6.86	
2025-01-19 22:39:56.26	30.33	6.88	
2025-01-19 22:39:56.47	30.35	6.89	
2025-01-19 22:39:56.67	30.37	6.90	
2025-01-19 22:39:56.87	30.39	6.91	
2025-01-19 22:39:57.08	30.41	6.93	
2025-01-19 22:39:57.28	30.43	6.94	
2025-01-19 22:39:57.48	30.45	6.95	
2025-01-19 22:39:57.69	30.47	6.96	
2025-01-19 22:39:57.89	30.49	6.98	
2025-01-19 22:39:58.09	30.51	6.99	
2025-01-19 22:39:58.30	30.53	7.00	
2025-01-19 22:39:58.50	30.55	7.01	
2025-01-19 22:39:58.70	30.57	7.03	
2025-01-19 22:39:58.90	30.59	7.04	
2025-01-19 22:39:59.11	30.61	7.05	
2025-01-19 22:39:59.31	30.63	7.06	
2025-01-19 22:39:59.51	30.64	7.07	
2025-01-19 22:39:59.72	30.67	7.09	
2025-01-19 22:39:59.92	30.68	7.10	
2025-01-19 22:40:00.12	30.70	7.11	
2025-01-19 22:40:00.33	30.72	7.13	
2025-01-19 22:40:00.53	30.74	7.14	
2025-01-19 22:40:00.73	30.76	7.15	
2025-01-19 22:40:00.94	30.78	7.16	
2025-01-19 22:40:01.14	30.80	7.18	
2025-01-19 22:40:01.34	30.82	7.19	
2025-01-19 22:40:01.54	30.84	7.20	
2025-01-19 22:40:01.75	30.86	7.21	
2025-01-19 22:40:01.95	30.88	7.23	
2025-01-19 22:40:02.15	30.90	7.24	
2025-01-19 22:40:02.36	30.92	7.25	
2025-01-19 22:40:02.56	30.94	7.26	
2025-01-19 22:40:02.76	30.96	7.28	
2025-01-19 22:40:02.97	30.98	7.29	
2025-01-19 22:40:03.17	31.00	7.30	
2025-01-19 22:40:03.37	31.02	7.31	
2025-01-19 22:40:03.58	31.04	7.33	
2025-01-19 22:40:03.78	31.06	7.34	
2025-01-19 22:40:03.98	31.08	7.35	
2025-01-19 22:40:04.18	31.10	7.36	
2025-01-19 22:40:04.39	31.12	7.38	
2025-01-19 22:40:04.59	31.14	7.39	
2025-01-19 22:40:04.79	31.16	7.40	
2025-01-19 22:40:05.00	31.18	7.41	
2025-01-19 22:40:05.20	31.20	7.43	
2025-01-19 22:40:05.40	31.22	7.44	
2025-01-19 22:40:05.61	31.25	7.45	
2025-01-19 22:40:05.81	31.27	7.46	
2025-01-19 22:40:06.01	31.29	7.48	
2025-01-19 22:40:06.22	31.31	7.49	
2025-01-19 22:40:06.42	31.33	7.50	
2025-01-19 22:40:06.62	31.35	7.51	
2025-01-19 22:40:06.82	31.37	7.53	
2025-01-19 22:40:07.03	31.39	7.54	
2025-01-19 22:40:07.23	31.41	7.55	
2025-01-19 22:40:07.43	31.43	7.56	
2025-01-19 22:40:07.64	31.45	7.58	
2025-01-19 22:40:07.84	31.47	7.59	
2025-01-19 22:40:08.04	31.49	7.60	
2025-01-19 22:40:08.25	31.51	7.62	
2025-01-19 22:40:08.45	31.53	7.63	
2025-01-19 22:40:08.65	31.55	7.64	
2025-01-19 22:40:08.86	31.57	7.65	
2025-01-19 22:40:09.06	31.59	7.67	
2025-01-19 22:40:09.26	31.61	7.68	
2025-01-19 22:40:09.46	31.63	7.69	
2025-01-19 22:40:09.67	31.65	7.70	
2025-01-19 22:40:09.87	31.67	7.72	
2025-01-19 22:40:10.07	31.69	7.73	
2025-01-19 22:40:10.28	31.72	7.74	
2025-01-19 22:40:10.48	31.74	7.75	
2025-01-19 22:40:10.68	31.76	7.77	
2025-01-19 22:40:10.89	31.78	7.78	
2025-01-19 22:40:11.09	31.80	7.79	
2025-01-19 22:40:11.29	31.82	7.80	
2025-01-19 22:40:11.50	31.84	7.82	
2025-01-19 22:40:11.70	31.86	7.83	
2025-01-19 22:40:11.90	31.88	7.84	
2025-01-19 22:40:12.10	31.90	7.86	
2025-01-19 22:40:12.31	31.92	7.87	
2025-01-19 22:40:12.51	31.94	7.88	
2025-01-19 22:40:12.71	31.96	7.89	
2025-01-19 22:40:12.92	31.99	7.91	
2025-01-19 22:40:13.12	32.01	7.92	
2025-01-19 22:40:13.32	32.03	7.93	
2025-01-19 22:40:13.53	32.05	7.94	
2025-01-19 22:40:13.73	32.07	7.96	
2025-01-19 22:40:13.93	32.09	7.97	
2025-01-19 22:40:14.14	32.11	7.98	
2025-01-19 22:40:14.34	32.13	8.00	
2025-01-19 22:40:14.54	32.15	8.01	
2025-01-19 22:40:14.74	32.17	8.02	
2025-01-19 22:40:14.95	32.19	8.03	
2025-01-19 22:40:15.15	32.22	8.05	
2025-01-19 22:40:15.35	32.24	8.06	
2025-01-19 22:40:15.56	32.26	8.07	
2025-01-19 22:40:15.76	32.28	8.08	
2025-01-19 22:40:15.96	32.30	8.10	
2025-01-19 22:40:16.17	32.32	8.11	
2025-01-19 22:40:16.37	32.34	8.12	
2025-01-19 22:40:16.57	32.36	8.14	
2025-01-19 22:40:16.77	32.38	8.15	
2025-01-19 22:40:16.98	32.41	8.16	
2025-01-19 22:40:17.18	32.43	8.17	
2025-01-19 22:40:17.38	32.45	8.19	
2025-01-19 22:40:17.59	32.47	8.20	
2025-01-19 22:40:17.79	32.49	8.21	
2025-01-19 22:40:17.99	32.51	8.22	
2025-01-19 22:40:18.20	32.53	8.24	
2025-01-19 22:40:18.40	32.55	8.25	
2025-01-19 22:40:18.60	32.58	8.26	
2025-01-19 22:40:18.81	32.60	8.28	
2025-01-19 22:40:19.01	32.62	8.29	
2025-01-19 22:40:19.21	32.64	8.30	
2025-01-19 22:40:19.41	32.66	8.31	
2025-01-19 22:40:19.62	32.68	8.33	
2025-01-19 22:40:19.82	32.70	8.34	
2025-01-19 22:40:20.02	32.72	8.35	
2025-01-19 22:40:20.23	32.75	8.37	
2025-01-19 22:40:20.43	32.77	8.38	
2025-01-19 22:40:20.63	32.79	8.39	
2025-01-19 22:40:20.84	32.81	8.40	
2025-01-19 22:40:21.04	32.83	8.42	
2025-01-19 22:40:21.24	32.85	8.43	
2025-01-19 22:40:21.45	32.88	8.44	
2025-01-19 22:40:21.65	32.90	8.46	
2025-01-19 22:40:21.85	32.92	8.47	
2025-01-19 22:40:22.05	32.94	8.48	
2025-01-19 22:40:22.26	32.96	8.49	
2025-01-19 22:40:22.46	32.98	8.51	
2025-01-19 22:40:22.66	33.01	8.52	
2025-01-19 22:40:22.87	33.03	8.53	
2025-01-19 22:40:23.07	33.05	8.55	
2025-01-19 22:40:23.27	33.07	8.56	
2025-01-19 22:40:23.48	33.09	8.57	
2025-01-19 22:40:23.68	33.11	8.58	
2025-01-19 22:40:23.88	33.14	8.60	
2025-01-19 22:40:24.09	33.16	8.61	
2025-01-19 22:40:24.29	33.18	8.62	
2025-01-19 22:40:24.49	33.20	8.64	
2025-01-19 22:40:24.69	33.22	8.65	
2025-01-19 22:40:24.90	33.25	8.66	
2025-01-19 22:40:25.10	33.27	8.67	
2025-01-19 22:40:25.30	33.29	8.69	
2025-01-19 22:40:25.51	33.31	8.70	
2025-01-19 22:40:25.71	33.33	8.71	
2025-01-19 22:40:25.91	33.36	8.73	
2025-01-19 22:40:26.12	33.38	8.74	
2025-01-19 22:40:26.32	33.40	8.75	
2025-01-19 22:40:26.52	33.42	8.76	
2025-01-19 22:40:26.73	33.44	8.78	
2025-01-19 22:40:26.93	33.47	8.79	
2025-01-19 22:40:27.13	33.49	8.80	
2025-01-19 22:40:27.33	33.51	8.82	
2025-01-19 22:40:27.54	33.53	8.83	
2025-01-19 22:40:27.74	33.55	8.84	
2025-01-19 22:40:27.94	33.58	8.86	
2025-01-19 22:40:28.15	33.60	8.87	
2025-01-19 22:40:28.35	33.62	8.88	
2025-01-19 22:40:28.55	33.64	8.89	
2025-01-19 22:40:28.76	33.67	8.91	
2025-01-19 22:40:28.96	33.69	8.92	
2025-01-19 22:40:29.16	33.71	8.93	
2025-01-19 22:40:29.37	33.73	8.95	
2025-01-19 22:40:29.57	33.75	8.96	
2025-01-19 22:40:29.77	33.78	8.97	
2025-01-19 22:40:29.97	33.80	8.98	
2025-01-19 22:40:30.18	33.82	9.00	
2025-01-19 22:40:30.38	33.84	9.01	
2025-01-19 22:40:30.58	33.87	9.02	
2025-01-19 22:40:30.79	33.89	9.04	
2025-01-19 22:40:30.99	33.91	9.05	
2025-01-19 22:40:31.19	33.93	9.06	
2025-01-19 22:40:31.40	33.96	9.08	
2025-01-19 22:40:31.60	33.98	9.09	
2025-01-19 22:40:31.80	34.00	9.10	
2025-01-19 22:40:32.01	34.02	9.12	
2025-01-19 22:40:32.21	34.05	9.13	
2025-01-19 22:40:32.41	34.07	9.14	
2025-01-19 22:40:32.61	34.09	9.15	
2025-01-19 22:40:32.82	34.11	9.17	
2025-01-19 22:40:33.02	34.14	9.18	
2025-01-19 22:40:33.22	34.16	9.19	
2025-01-19 22:40:33.43	34.18	9.21	
2025-01-19 22:40:33.63	34.21	9.22	
2025-01-19 22:40:33.83	34.23	9.23	
2025-01-19 22:40:34.04	34.25	9.25	
2025-01-19 22:40:34.24	34.27	9.26	
2025-01-19 22:40:34.44	34.30	9.27	
2025-01-19 22:40:34.65	34.32	9.28	
2025-01-19 22:40:34.85	34.34	9.30	
2025-01-19 22:40:35.05	34.36	9.31	
2025-01-19 22:40:35.25	34.39	9.32	
2025-01-19 22:40:35.46	34.41	9.34	
2025-01-19 22:40:35.66	34.43	9.35	
2025-01-19 22:40:35.86	34.46	9.36	
2025-01-19 22:40:36.07	34.48	9.38	
2025-01-19 22:40:36.27	34.50	9.39	
2025-01-19 22:40:36.47	34.53	9.40	
2025-01-19 22:40:36.68	34.55	9.42	
2025-01-19 22:40:36.88	34.57	9.43	
2025-01-19 22:40:37.08	34.59	9.44	
2025-01-19 22:40:37.29	34.62	9.45	
2025-01-19 22:40:37.49	34.64	9.47	
2025-01-19 22:40:37.69	34.66	9.48	
2025-01-19 22:40:37.89	34.69	9.49	
2025-01-19 22:40:38.10	34.71	9.51	
2025-01-19 22:40:38.30	34.73	9.52	
2025-01-19 22:40:38.50	34.76	9.53	
2025-01-19 22:40:38.71	34.78	9.55	
2025-01-19 22:40:38.91	34.80	9.56	
2025-01-19 22:40:39.11	34.83	9.57	
2025-01-19 22:40:39.32	34.85	9.59	
2025-01-19 22:40:39.52	34.87	9.60	
2025-01-19 22:40:39.72	34.90	9.61	
2025-01-19 22:40:39.93	34.92	9.62	
2025-01-19 22:40:40.13	34.94	9.64	
2025-01-19 22:40:40.33	34.97	9.65	
2025-01-19 22:40:40.53	34.99	9.66	
2025-01-19 22:40:40.74	35.01	9.68	
2025-01-19 22:40:40.94	35.04	9.69	
2025-01-19 22:40:41.14	35.06	9.70	
2025-01-19 22:40:41.35	35.08	9.72	
2025-01-19 22:40:41.55	35.11	9.73	
2025-01-19 22:40:41.75	35.13	9.74	
2025-01-19 22:40:41.96	35.15	9.76	
2025-01-19 22:40:42.16	35.18	9.77	
2025-01-19 22:40:42.36	35.20	9.78	
2025-01-19 22:40:42.57	35.22	9.80	
2025-01-19 22:40:42.77	35.25	9.81	
2025-01-19 22:40:42.97	35.27	9.82	
2025-01-19 22:40:43.17	35.29	9.83	
2025-01-19 22:40:43.38	35.32	9.85	
2025-01-19 22:40:43.58	35.34	9.86	
2025-01-19 22:40:43.78	35.37	9.87	
2025-01-19 22:40:43.99	35.39	9.89	
2025-01-19 22:40:44.19	35.41	9.90	
2025-01-19 22:40:44.39	35.44	9.91	
2025-01-19 22:40:44.60	35.46	9.93	
2025-01-19 22:40:44.80	35.49	9.94	
2025-01-19 22:40:45.00	35.51	9.95	
2025-01-19 22:40:45.21	35.53	9.97	
2025-01-19 22:40:45.41	35.56	9.98	
2025-01-19 22:40:45.61	35.58	9.99	
2025-01-19 22:40:45.81	35.60	10.01	
2025-01-19 22:40:46.02	35.63	10.02	
2025-01-19 22:40:46.22	35.65	10.03	
2025-01-19 22:40:46.42	35.68	10.05	
2025-01-19 22:40:46.63	35.70	10.06	
2025-01-19 22:40:46.83	35.72	10.07	
2025-01-19 22:40:47.03	35.75	10.09	
2025-01-19 22:40:47.24	35.77	10.10	
2025-01-19 22:40:47.44	35.80	10.11	
2025-01-19 22:40:47.64	35.82	10.12	
2025-01-19 22:40:47.85	35.85	10.14	
2025-01-19 22:40:48.05	35.87	10.15	
2025-01-19 22:40:48.25	35.89	10.16	
2025-01-19 22:40:48.45	35.92	10.18	
2025-01-19 22:40:48.66	35.94	10.19	
2025-01-19 22:40:48.86	35.97	10.20	
2025-01-19 22:40:49.06	35.99	10.22	
2025-01-19 22:40:49.27	36.01	10.23	
2025-01-19 22:40:49.47	36.04	10.24	
2025-01-19 22:40:49.67	36.06	10.26	
2025-01-19 22:40:49.88	36.09	10.27	
2025-01-19 22:40:50.08	36.11	10.28	
2025-01-19 22:40:50.28	36.14	10.30	
2025-01-19 22:40:50.49	36.16	10.31	
2025-01-19 22:40:50.69	36.19	10.32	
2025-01-19 22:40:50.89	36.21	10.34	
2025-01-19 22:40:51.09	36.23	10.35	
2025-01-19 22:40:51.30	36.26	10.36	
2025-01-19 22:40:51.50	36.28	10.38	
2025-01-19 22:40:51.70	36.31	10.39	
2025-01-19 22:40:51.91	36.33	10.40	
2025-01-19 22:40:52.11	36.36	10.42	
2025-01-19 22:40:52.31	36.38	10.43	
2025-01-19 22:40:52.52	36.41	10.44	
2025-01-19 22:40:52.72	36.43	10.46	
2025-01-19 22:40:52.92	36.45	10.47	
2025-01-19 22:40:53.13	36.48	10.48	
2025-01-19 22:40:53.33	36.50	10.50	
2025-01-19 22:40:53.53	36.53	10.51	
2025-01-19 22:40:53.73	36.55	10.52	
2025-01-19 22:40:53.94	36.58	10.54	
2025-01-19 22:40:54.14	36.60	10.55	
2025-01-19 22:40:54.34	36.63	10.56	
2025-01-19 22:40:54.55	36.65	10.58	
2025-01-19 22:40:54.75	36.68	10.59	
2025-01-19 22:40:54.95	36.70	10.60	
2025-01-19 22:40:55.16	36.73	10.62	
2025-01-19 22:40:55.36	36.75	10.63	
2025-01-19 22:40:55.56	36.78	10.64	
2025-01-19 22:40:55.77	36.80	10.66	
2025-01-19 22:40:55.97	36.83	10.67	
2025-01-19 22:40:56.17	36.85	10.68	
2025-01-19 22:40:56.37	36.88	10.70	
2025-01-19 22:40:56.58	36.90	10.71	
2025-01-19 22:40:56.78	36.93	10.72	
2025-01-19 22:40:56.98	36.95	10.74	
2025-01-19 22:40:57.19	36.98	10.75	
2025-01-19 22:40:57.39	37.00	10.76	
2025-01-19 22:40:57.59	37.03	10.78	
2025-01-19 22:40:57.80	37.05	10.79	
2025-01-19 22:40:58.00	37.08	10.80	
2025-01-19 22:40:58.20	37.10	10.82	
2025-01-19 22:40:58.41	37.13	10.83	
2025-01-19 22:40:58.61	37.15	10.84	
2025-01-19 22:40:58.81	37.18	10.86	
2025-01-19 22:40:59.01	37.20	10.87	
2025-01-19 22:40:59.22	37.23	10.88	
2025-01-19 22:40:59.42	37.26	10.90	
2025-01-19 22:40:59.62	37.28	10.91	
2025-01-19 22:40:59.83	37.31	10.92	
2025-01-19 22:41:00.03	37.33	10.94	
2025-01-19 22:41:00.23	37.36	10.95	
2025-01-19 22:41:00.44	37.38	10.96	
2025-01-19 22:41:00.64	37.41	10.98	
2025-01-19 22:41:00.84	37.43	10.99	
2025-01-19 22:41:01.05	37.46	11.00	
2025-01-19 22:41:01.25	37.49	11.02	
2025-01-19 22:41:01.45	37.51	11.03	
2025-01-19 22:41:01.65	37.54	11.04	
2025-01-19 22:41:01.86	37.56	11.06	
2025-01-19 22:41:02.06	37.59	11.07	
2025-01-19 22:41:02.26	37.61	11.08	
2025-01-19 22:41:02.47	37.64	11.10	
2025-01-19 22:41:02.67	37.66	11.11	
2025-01-19 22:41:02.87	37.69	11.12	
2025-01-19 22:41:03.08	37.72	11.14	
2025-01-19 22:41:03.28	37.74	11.15	
2025-01-19 22:41:03.48	37.77	11.16	
2025-01-19 22:41:03.68	37.79	11.18	
2025-01-19 22:41:03.89	37.82	11.19	
2025-01-19 22:41:04.09	37.85	11.21	
2025-01-19 22:41:04.29	37.87	11.22	
2025-01-19 22:41:04.50	37.90	11.23	
2025-01-19 22:41:04.70	37.92	11.25	
2025-01-19 22:41:04.90	37.95	11.26	
2025-01-19 22:41:05.11	37.98	11.27	
2025-01-19 22:41:05.31	38.00	11.29	
2025-01-19 22:41:05.51	38.03	11.30	
2025-01-19 22:41:05.72	38.05	11.31	
2025-01-19 22:41:05.92	38.08	11.33	
2025-01-19 22:41:06.12	38.10	11.34	
2025-01-19 22:41:06.32	38.13	11.35	
2025-01-19 22:41:06.53	38.16	11.37	
2025-01-19 22:41:06.73	38.18	11.38	
2025-01-19 22:41:06.93	38.21	11.39	
2025-01-19 22:41:07.14	38.24	11.41	
2025-01-19 22:41:07.34	38.26	11.42	
2025-01-19 22:41:07.54	38.29	11.43	
2025-01-19 22:41:07.75	38.32	11.45	
2025-01-19 22:41:07.95	38.34	11.46	
2025-01-19 22:41:08.15	38.37	11.47	
2025-01-19 22:41:08.36	38.39	11.49	
2025-01-19 22:41:08.56	38.42	11.50	
2025-01-19 22:41:08.76	38.45	11.51	
2025-01-19 22:41:08.96	38.47	11.53	
2025-01-19 22:41:09.17	38.50	11.54	
2025-01-19 22:41:09.37	38.53	11.56	
2025-01-19 22:41:09.57	38.55	11.57	
2025-01-19 22:41:09.78	38.58	11.58	
2025-01-19 22:41:09.98	38.61	11.60	
2025-01-19 22:41:10.18	38.63	11.61	
2025-01-19 22:41:10.39	38.66	11.62	
2025-01-19 22:41:10.59	38.69	11.64	
2025-01-19 22:41:10.79	38.71	11.65	
2025-01-19 22:41:11.00	38.74	11.66	
2025-01-19 22:41:11.20	38.77	11.68	
2025-01-19 22:41:11.40	38.79	11.69	
2025-01-19 22:41:11.60	38.82	11.70	
2025-01-19 22:41:11.81	38.85	11.72	
2025-01-19 22:41:12.01	38.87	11.73	
2025-01-19 22:41:12.21	38.90	11.74	
2025-01-19 22:41:12.42	38.93	11.76	
2025-01-19 22:41:12.62	38.95	11.77	
2025-01-19 22:41:12.82	38.98	11.79	
2025-01-19 22:41:13.03	39.01	11.80	
2025-01-19 22:41:13.23	39.03	11.81	
2025-01-19 22:41:13.43	39.06	11.83	
2025-01-19 22:41:13.64	39.09	11.84	
2025-01-19 22:41:13.84	39.11	11.85	
2025-01-19 22:41:14.04	39.14	11.87	
2025-01-19 22:41:14.24	39.17	11.88	
2025-01-19 22:41:14.45	39.20	11.89	
2025-01-19 22:41:14.65	39.22	11.91	
2025-01-19 22:41:14.85	39.25	11.92	
2025-01-19 22:41:15.06	39.28	11.93	
2025-01-19 22:41:15.26	39.30	11.95	
2025-01-19 22:41:15.46	39.33	11.96	
2025-01-19 22:41:15.67	39.36	11.98	
2025-01-19 22:41:15.87	39.39	11.99	
2025-01-19 22:41:16.07	39.41	12.00	
2025-01-19 22:41:16.28	39.44	12.02	
2025-01-19 22:41:16.48	39.47	12.03	
2025-01-19 22:41:16.68	39.49	12.04	
2025-01-19 22:41:16.88	39.52	12.06	
2025-01-19 22:41:17.09	39.55	12.07	
2025-01-19 22:41:17.29	39.58	12.08	
2025-01-19 22:41:17.49	39.60	12.10	
2025-01-19 22:41:17.70	39.63	12.11	
2025-01-19 22:41:17.90	39.66	12.12	
2025-01-19 22:41:18.10	39.69	12.14	
2025-01-19 22:41:18.31	39.72	12.15	
2025-01-19 22:41:18.51	39.74	12.16	
2025-01-19 22:41:18.71	39.77	12.18	
2025-01-19 22:41:18.92	39.80	12.19	
2025-01-19 22:41:19.12	39.83	12.21	
2025-01-19 22:41:19.32	39.85	12.22	
2025-01-19 22:41:19.52	39.88	12.23	
2025-01-19 22:41:19.73	39.91	12.25	
2025-01-19 22:41:19.93	39.94	12.26	
2025-01-19 22:41:20.13	39.96	12.27	
2025-01-19 22:41:20.34	39.99	12.29	
2025-01-19 22:41:20.54	40.02	12.30	
2025-01-19 22:41:20.74	40.05	12.31	
2025-01-19 22:41:20.95	40.08	12.33	
2025-01-19 22:41:21.15	40.10	12.34	
2025-01-19 22:41:21.35	40.13	12.36	
2025-01-19 22:41:21.56	40.16	12.37	
2025-01-19 22:41:21.76	40.19	12.38	
2025-01-19 22:41:21.96	40.21	12.40	
2025-01-19 22:41:22.16	40.24	12.41	
2025-01-19 22:41:22.37	40.27	12.42	
2025-01-19 22:41:22.57	40.30	12.44	
2025-01-19 22:41:22.77	40.33	12.45	
2025-01-19 22:41:22.98	40.36	12.46	
2025-01-19 22:41:23.18	40.38	12.48	
2025-01-19 22:41:23.38	40.41	12.49	
2025-01-19 22:41:23.59	40.44	12.51	
2025-01-19 22:41:23.79	40.47	12.52	
2025-01-19 22:41:23.99	40.50	12.53	
2025-01-19 22:41:24.20	40.52	12.55	
2025-01-19 22:41:24.40	40.55	12.56	
2025-01-19 22:41:24.60	40.58	12.57	
2025-01-19 22:41:24.80	40.61	12.59	
2025-01-19 22:41:25.01	40.64	12.60	
2025-01-19 22:41:25.21	40.67	12.61	
2025-01-19 22:41:25.41	40.69	12.63	
2025-01-19 22:41:25.62	40.72	12.64	
2025-01-19 22:41:25.82	40.75	12.65	
2025-01-19 22:41:26.02	40.78	12.67	
2025-01-19 22:41:26.23	40.81	12.68	
2025-01-19 22:41:26.43	40.84	12.70	
2025-01-19 22:41:26.63	40.86	12.71	
2025-01-19 22:41:26.84	40.89	12.72	
2025-01-19 22:41:27.04	40.92	12.74	
2025-01-19 22:41:27.24	40.95	12.75	
2025-01-19 22:41:27.44	40.98	12.76	
2025-01-19 22:41:27.65	41.01	12.78	
2025-01-19 22:41:27.85	41.04	12.79	
2025-01-19 22:41:28.05	41.07	12.80	
2025-01-19 22:41:28.26	41.10	12.82	
2025-01-19 22:41:28.46	41.12	12.83	
2025-01-19 22:41:28.66	41.15	12.85	
2025-01-19 22:41:28.87	41.18	12.86	
2025-01-19 22:41:29.07	41.21	12.87	
2025-01-19 22:41:29.27	41.24	12.89	
2025-01-19 22:41:29.48	41.27	12.90	
2025-01-19 22:41:29.68	41.30	12.91	
2025-01-19 22:41:29.88	41.33	12.93	
2025-01-19 22:41:30.08	41.35	12.94	
2025-01-19 22:41:30.29	41.38	12.96	
2025-01-19 22:41:30.49	41.41	12.97	
2025-01-19 22:41:30.69	41.44	12.98	
2025-01-19 22:41:30.90	41.47	13.00	
2025-01-19 22:41:31.10	41.50	13.01	
2025-01-19 22:41:31.30	41.53	13.02	
2025-01-19 22:41:31.51	41.56	13.04	
2025-01-19 22:41:31.71	41.59	13.05	
2025-01-19 22:41:31.91	41.62	13.06	
2025-01-19 22:41:32.12	41.65	13.08	
2025-01-19 22:41:32.32	41.68	13.09	
2025-01-19 22:41:32.52	41.70	13.11	
2025-01-19 22:41:32.72	41.73	13.12	
2025-01-19 22:41:32.93	41.76	13.13	
2025-01-19 22:41:33.13	41.79	13.15	
2025-01-19 22:41:33.33	41.82	13.16	
2025-01-19 22:41:33.54	41.85	13.17	
2025-01-19 22:41:33.74	41.88	13.19	
2025-01-19 22:41:33.94	41.91	13.20	
2025-01-19 22:41:34.15	41.94	13.22	
2025-01-19 22:41:34.35	41.97	13.23	
2025-01-19 22:41:34.55	42.00	13.24	
2025-01-19 22:41:34.76	42.03	13.26	
2025-01-19 22:41:34.96	42.06	13.27	
2025-01-19 22:41:35.16	42.09	13.28	
2025-01-19 22:41:35.36	42.12	13.30	
2025-01-19 22:41:35.57	42.15	13.31	
2025-01-19 22:41:35.77	42.18	13.32	
2025-01-19 22:41:35.97	42.21	13.34	
2025-01-19 22:41:36.18	42.24	13.35	
2025-01-19 22:41:36.38	42.27	13.37	
2025-01-19 22:41:36.58	42.30	13.38	
2025-01-19 22:41:36.79	42.33	13.39	
2025-01-19 22:41:36.99	42.36	13.41	
2025-01-19 22:41:37.19	42.39	13.42	
2025-01-19 22:41:37.40	42.42	13.43	
2025-01-19 22:41:37.60	42.45	13.45	
2025-01-19 22:41:37.80	42.48	13.46	
2025-01-19 22:41:38.00	42.51	13.48	
2025-01-19 22:41:38.21	42.54	13.49	
2025-01-19 22:41:38.41	42.57	13.50	
2025-01-19 22:41:38.61	42.60	13.52	
2025-01-19 22:41:38.82	42.63	13.53	
2025-01-19 22:41:39.02	42.66	13.54	
2025-01-19 22:41:39.22	42.69	13.56	
2025-01-19 22:41:39.43	42.72	13.57	
2025-01-19 22:41:39.63	42.75	13.59	
2025-01-19 22:41:39.83	42.78	13.60	
2025-01-19 22:41:40.04	42.81	13.61	
2025-01-19 22:41:40.24	42.84	13.63	
2025-01-19 22:41:40.44	42.87	13.64	
2025-01-19 22:41:40.64	42.90	13.65	
2025-01-19 22:41:40.85	42.93	13.67	
2025-01-19 22:41:41.05	42.96	13.68	
2025-01-19 22:41:41.25	42.99	13.69	
2025-01-19 22:41:41.46	43.02	13.71	
2025-01-19 22:41:41.66	43.05	13.72	
2025-01-19 22:41:41.86	43.08	13.74	
2025-01-19 22:41:42.07	43.11	13.75	
2025-01-19 22:41:42.27	43.14	13.76	
2025-01-19 22:41:42.47	43.17	13.78	
2025-01-19 22:41:42.67	43.20	13.79	
2025-01-19 22:41:42.88	43.24	13.80	
2025-01-19 22:41:43.08	43.27	13.82	
2025-01-19 22:41:43.28	43.30	13.83	
2025-01-19 22:41:43.49	43.33	13.85	
2025-01-19 22:41:43.69	43.36	13.86	
2025-01-19 22:41:43.89	43.39	13.87	
2025-01-19 22:41:44.10	43.42	13.89	
2025-01-19 22:41:44.30	43.45	13.90	
2025-01-19 22:41:44.50	43.48	13.91	
2025-01-19 22:41:44.71	43.51	13.93	
2025-01-19 22:41:44.91	43.54	13.94	
2025-01-19 22:41:45.11	43.57	13.96	
2025-01-19 22:41:45.32	43.61	13.97	
2025-01-19 22:41:45.52	43.64	13.98	
2025-01-19 22:41:45.72	43.67	14.00	
2025-01-19 22:41:45.92	43.70	14.01	
2025-01-19 22:41:46.13	43.73	14.02	
2025-01-19 22:41:46.33	43.76	14.04	
2025-01-19 22:41:46.53	43.79	14.05	
2025-01-19 22:41:46.74	43.82	14.07	
2025-01-19 22:41:46.94	43.85	14.08	
2025-01-19 22:41:47.14	43.89	14.09	
2025-01-19 22:41:47.35	43.92	14.11	
2025-01-19 22:41:47.55	43.95	14.12	
2025-01-19 22:41:47.75	43.98	14.13	
2025-01-19 22:41:47.95	44.01	14.15	
2025-01-19 22:41:48.16	44.04	14.16	
2025-01-19 22:41:48.36	44.07	14.17	
2025-01-19 22:41:48.56	44.10	14.19	
2025-01-19 22:41:48.77	44.14	14.20	
2025-01-19 22:41:48.97	44.17	14.22	
2025-01-19 22:41:49.17	44.20	14.23	
2025-01-19 22:41:49.38	44.23	14.24	
2025-01-19 22:41:49.58	44.26	14.26	
2025-01-19 22:41:49.78	44.29	14.27	
2025-01-19 22:41:49.99	44.33	14.28	
2025-01-19 22:41:50.19	44.36	14.30	
2025-01-19 22:41:50.39	44.39	14.31	
2025-01-19 22:41:50.59	44.42	14.33	
2025-01-19 22:41:50.80	44.45	14.34	
2025-01-19 22:41:51.00	44.49	14.35	
2025-01-19 22:41:51.20	44.52	14.37	
2025-01-19 22:41:51.41	44.55	14.38	
2025-01-19 22:41:51.61	44.58	14.39	
2025-01-19 22:41:51.81	44.61	14.41	
2025-01-19 22:41:52.02	44.65	14.42	
2025-01-19 22:41:52.22	44.68	14.44	
2025-01-19 22:41:52.42	44.71	14.45	
2025-01-19 22:41:52.63	44.74	14.46	
2025-01-19 22:41:52.83	44.77	14.48	
2025-01-19 22:41:53.03	44.80	14.49	
2025-01-19 22:41:53.23	44.84	14.50	
2025-01-19 22:41:53.44	44.87	14.52	
2025-01-19 22:41:53.64	44.90	14.53	
2025-01-19 22:41:53.84	44.93	14.54	
2025-01-19 22:41:54.05	44.97	14.56	
2025-01-19 22:41:54.25	45.00	14.57	
2025-01-19 22:41:54.45	45.03	14.59	
2025-01-19 22:41:54.66	45.06	14.60	
2025-01-19 22:41:54.86	45.10	14.61	
2025-01-19 22:41:55.06	45.13	14.63	
2025-01-19 22:41:55.27	45.16	14.64	
2025-01-19 22:41:55.47	45.19	14.65	
2025-01-19 22:41:55.67	45.22	14.67	
2025-01-19 22:41:55.87	45.26	14.68	
2025-01-19 22:41:56.08	45.29	14.70	
2025-01-19 22:41:56.28	45.32	14.71	
2025-01-19 22:41:56.48	45.35	14.72	
2025-01-19 22:41:56.69	45.39	14.74	
2025-01-19 22:41:56.89	45.42	14.75	
2025-01-19 22:41:57.09	45.45	14.76	
2025-01-19 22:41:57.30	45.49	14.78	
2025-01-19 22:41:57.50	45.52	14.79	
2025-01-19 22:41:57.70	45.55	14.81	
2025-01-19 22:41:57.91	45.58	14.82	
2025-01-19 22:41:58.11	45.62	14.83	
2025-01-19 22:41:58.31	45.65	14.85	
2025-01-19 22:41:58.51	45.68	14.86	
2025-01-19 22:41:58.72	45.72	14.87	
2025-01-19 22:41:58.92	45.75	14.89	
2025-01-19 22:41:59.12	45.78	14.90	
2025-01-19 22:41:59.33	45.81	14.92	
2025-01-19 22:41:59.53	45.85	14.93	
2025-01-19 22:41:59.73	45.88	14.94	
2025-01-19 22:41:59.94	45.91	14.96	
2025-01-19 22:42:00.14	45.95	14.97	
2025-01-19 22:42:00.34	45.98	14.98	
2025-01-19 22:42:00.55	46.01	15.00	
2025-01-19 22:42:00.75	46.05	15.01	
2025-01-19 22:42:00.95	46.08	15.02	
2025-01-19 22:42:01.15	46.11	15.04	
2025-01-19 22:42:01.36	46.15	15.05	
2025-01-19 22:42:01.56	46.18	15.07	
2025-01-19 22:42:01.76	46.21	15.08	
2025-01-19 22:42:01.97	46.25	15.09	
2025-01-19 22:42:02.17	46.28	15.11	
2025-01-19 22:42:02.37	46.31	15.12	
2025-01-19 22:42:02.58	46.35	15.13	
2025-01-19 22:42:02.78	46.38	15.15	
2025-01-19 22:42:02.98	46.41	15.16	
2025-01-19 22:42:03.19	46.45	15.18	
2025-01-19 22:42:03.39	46.48	15.19	
2025-01-19 22:42:03.59	46.51	15.20	
2025-01-19 22:42:03.79	46.55	15.22	
2025-01-19 22:42:04.00	46.58	15.23	
2025-01-19 22:42:04.20	46.61	15.24	
2025-01-19 22:42:04.40	46.65	15.26	
2025-01-19 22:42:04.61	46.68	15.27	
2025-01-19 22:42:04.81	46.72	15.28	
2025-01-19 22:42:05.01	46.75	15.30	
2025-01-19 22:42:05.22	46.78	15.31	
2025-01-19 22:42:05.42	46.82	15.33	
2025-01-19 22:42:05.62	46.85	15.34	
2025-01-19 22:42:05.83	46.89	15.35	
2025-01-19 22:42:06.03	46.92	15.37	
2025-01-19 22:42:06.23	46.95	15.38	
2025-01-19 22:42:06.43	46.99	15.39	
2025-01-19 22:42:06.64	47.02	15.41	
2025-01-19 22:42:06.84	47.06	15.42	
2025-01-19 22:42:07.04	47.09	15.43	
2025-01-19 22:42:07.25	47.12	15.45	
2025-01-19 22:42:07.45	47.16	15.46	
2025-01-19 22:42:07.65	47.19	15.48	
2025-01-19 22:42:07.86	47.23	15.49	
2025-01-19 22:42:08.06	47.26	15.50	
2025-01-19 22:42:08.26	47.30	15.52	
2025-01-19 22:42:08.47	47.33	15.53	
2025-01-19 22:42:08.67	47.36	15.54	
2025-01-19 22:42:08.87	47.40	15.56	
2025-01-19 22:42:09.07	47.43	15.57	
2025-01-19 22:42:09.28	47.47	15.58	
2025-01-19 22:42:09.48	47.50	15.60	
2025-01-19 22:42:09.68	47.54	15.61	
2025-01-19 22:42:09.89	47.57	15.63	
2025-01-19 22:42:10.09	47.61	15.64	
2025-01-19 22:42:10.29	47.64	15.65	
2025-01-19 22:42:10.50	47.68	15.67	
2025-01-19 22:42:10.70	47.71	15.68	
2025-01-19 22:42:10.90	47.74	15.69	
2025-01-19 22:42:11.11	47.78	15.71	
2025-01-19 22:42:11.31	47.81	15.72	
2025-01-19 22:42:11.51	47.85	15.73	
2025-01-19 22:42:11.71	47.88	15.75	
2025-01-19 22:42:11.92	47.92	15.76	
2025-01-19 22:42:12.12	47.95	15.77	
2025-01-19 22:42:12.32	47.99	15.79	
2025-01-19 22:42:12.53	48.02	15.80	
2025-01-19 22:42:12.73	48.06	15.82	
2025-01-19 22:42:12.93	48.09	15.83	
2025-01-19 22:42:13.14	48.13	15.84	
2025-01-19 22:42:13.34	48.16	15.86	
2025-01-19 22:42:13.54	48.20	15.87	
2025-01-19 22:42:13.75	48.23	15.88	
2025-01-19 22:42:13.95	48.27	15.90	
2025-01-19 22:42:14.15	48.30	15.91	
2025-01-19 22:42:14.35	48.34	15.92	
2025-01-19 22:42:14.56	48.37	15.94	
2025-01-19 22:42:14.76	48.41	15.95	
2025-01-19 22:42:14.96	48.44	15.96	
2025-01-19 22:42:15.17	48.48	15.98	
2025-01-19 22:42:15.37	48.52	15.99	
2025-01-19 22:42:15.57	48.55	16.01	
2025-01-19 22:42:15.78	48.59	16.02	
2025-01-19 22:42:15.98	48.62	16.03	
2025-01-19 22:42:16.18	48.66	16.05	
2025-01-19 22:42:16.39	48.69	16.06	
2025-01-19 22:42:16.59	48.73	16.07	
2025-01-19 22:42:16.79	48.76	16.09	
2025-01-19 22:42:16.99	48.80	16.10	
2025-01-19 22:42:17.20	48.84	16.11	
2025-01-19 22:42:17.40	48.87	16.13	
2025-01-19 22:42:17.60	48.91	16.14	
2025-01-19 22:42:17.81	48.94	16.15	
2025-01-19 22:42:18.01	48.98	16.17	
2025-01-19 22:42:18.21	49.01	16.18	
2025-01-19 22:42:18.42	49.05	16.20	
2025-01-19 22:42:18.62	49.09	16.21	
2025-01-19 22:42:18.82	49.12	16.22	
2025-01-19 22:42:19.03	49.16	16.24	
2025-01-19 22:42:19.23	49.19	16.25	
2025-01-19 22:42:19.43	49.23	16.26	
2025-01-19 22:42:19.63	49.27	16.28	
2025-01-19 22:42:19.84	49.30	16.29	
2025-01-19 22:42:20.04	49.34	16.30	
2025-01-19 22:42:20.24	49.37	16.32	
2025-01-19 22:42:20.45	49.41	16.33	
2025-01-19 22:42:20.65	49.45	16.34	
2025-01-19 22:42:20.85	49.48	16.36	
2025-01-19 22:42:21.06	49.52	16.37	
2025-01-19 22:42:21.26	49.56	16.38	
2025-01-19 22:42:21.46	49.59	16.40	
2025-01-19 22:42:21.67	49.63	16.41	
2025-01-19 22:42:21.87	49.67	16.42	
2025-01-19 22:42:22.07	49.70	16.44	
2025-01-19 22:42:22.27	49.74	16.45	
2025-01-19 22:42:22.48	49.77	16.46	
2025-01-19 22:42:22.68	49.81	16.48	
2025-01-19 22:42:22.88	49.85	16.49	
2025-01-19 22:42:23.09	49.88	16.51	
2025-01-19 22:42:23.29	49.92	16.52	
2025-01-19 22:42:23.49	49.96	16.53	
2025-01-19 22:42:23.70	49.99	16.55	
2025-01-19 22:42:23.90	50.03	16.56	
2025-01-19 22:42:24.10	50.07	16.57	
2025-01-19 22:42:24.30	50.10	16.59	
2025-01-19 22:42:24.51	50.14	16.60	
2025-01-19 22:42:24.71	50.18	16.61	
2025-01-19 22:42:24.91	50.21	16.63	
2025-01-19 22:42:25.12	50.25	16.64	
2025-01-19 22:42:25.32	50.29	16.65	
2025-01-19 22:42:25.52	50.32	16.67	
2025-01-19 22:42:25.73	50.36	16.68	
2025-01-19 22:42:25.93	50.40	16.69	
2025-01-19 22:42:26.13	50.44	16.71	
2025-01-19 22:42:26.34	50.47	16.72	
2025-01-19 22:42:26.54	50.51	16.73	
2025-01-19 22:42:26.74	50.55	16.75	
2025-01-19 22:42:26.95	50.59	16.76	
2025-01-19 22:42:27.15	50.62	16.77	
2025-01-19 22:42:27.35	50.66	16.79	
2025-01-19 22:42:27.55	50.70	16.80	
2025-01-19 22:42:27.76	50.73	16.81	
2025-01-19 22:42:27.96	50.77	16.83	
2025-01-19 22:42:28.16	50.81	16.84	
2025-01-19 22:42:28.37	50.85	16.85	
2025-01-19 22:42:28.57	50.88	16.87	
2025-01-19 22:42:28.77	50.92	16.88	
2025-01-19 22:42:28.98	50.96	16.89	
2025-01-19 22:42:29.18	51.00	16.91	
2025-01-19 22:42:29.38	51.03	16.92	
2025-01-19 22:42:29.59	51.07	16.93	
2025-01-19 22:42:29.79	51.11	16.95	
2025-01-19 22:42:29.99	51.15	16.96	
2025-01-19 22:42:30.19	51.18	16.97	
2025-01-19 22:42:30.40	51.22	16.99	
2025-01-19 22:42:30.60	51.26	17.00	
2025-01-19 22:42:30.80	51.30	17.01	
2025-01-19 22:42:31.01	51.34	17.03	
2025-01-19 22:42:31.21	51.37	17.04	
2025-01-19 22:42:31.41	51.41	17.05	
2025-01-19 22:42:31.62	51.45	17.07	
2025-01-19 22:42:31.82	51.49	17.08	
2025-01-19 22:42:32.02	51.53	17.09	
2025-01-19 22:42:32.22	51.56	17.11	
2025-01-19 22:42:32.43	51.60	17.12	
2025-01-19 22:42:32.63	51.64	17.13	
2025-01-19 22:42:32.83	51.68	17.15	
2025-01-19 22:42:33.04	51.72	17.16	
2025-01-19 22:42:33.24	51.75	17.17	
2025-01-19 22:42:33.44	51.79	17.18	
2025-01-19 22:42:33.65	51.83	17.20	
2025-01-19 22:42:33.85	51.87	17.21	
2025-01-19 22:42:34.05	51.91	17.22	
2025-01-19 22:42:34.26	51.95	17.24	
2025-01-19 22:42:34.46	51.98	17.25	
2025-01-19 22:42:34.66	52.02	17.26	
2025-01-19 22:42:34.86	52.06	17.28	
2025-01-19 22:42:35.07	52.10	17.29	
2025-01-19 22:42:35.27	52.14	17.30	
2025-01-19 22:42:35.47	52.18	17.32	
2025-01-19 22:42:35.68	52.22	17.33	
2025-01-19 22:42:35.88	52.25	17.34	
2025-01-19 22:42:36.08	52.29	17.36	
2025-01-19 22:42:36.29	52.33	17.37	
2025-01-19 22:42:36.49	52.37	17.38	
2025-01-19 22:42:36.69	52.41	17.40	
2025-01-19 22:42:36.90	52.45	17.41	
2025-01-19 22:42:37.10	52.49	17.42	
2025-01-19 22:42:37.30	52.52	17.44	
2025-01-19 22:42:37.50	52.56	17.45	
2025-01-19 22:42:37.71	52.60	17.46	
2025-01-19 22:42:37.91	52.64	17.47	
2025-01-19 22:42:38.11	52.68	17.49	
2025-01-19 22:42:38.32	52.72	17.50	
2025-01-19 22:42:38.52	52.76	17.51	
2025-01-19 22:42:38.72	52.80	17.53	
2025-01-19 22:42:38.93	52.84	17.54	
2025-01-19 22:42:39.13	52.88	17.55	
2025-01-19 22:42:39.33	52.92	17.57	
2025-01-19 22:42:39.54	52.96	17.58	
2025-01-19 22:42:39.74	52.99	17.59	
2025-01-19 22:42:39.94	53.03	17.61	
2025-01-19 22:42:40.14	53.07	17.62	
2025-01-19 22:42:40.35	53.11	17.63	
2025-01-19 22:42:40.55	53.15	17.64	
2025-01-19 22:42:40.75	53.19	17.66	
2025-01-19 22:42:40.96	53.23	17.67	
2025-01-19 22:42:41.16	53.27	17.68	
2025-01-19 22:42:41.36	53.31	17.70	
2025-01-19 22:42:41.57	53.35	17.71	
2025-01-19 22:42:41.77	53.39	17.72	
2025-01-19 22:42:41.97	53.43	17.74	
2025-01-19 22:42:42.18	53.47	17.75	
2025-01-19 22:42:42.38	53.51	17.76	
2025-01-19 22:42:42.58	53.55	17.77	
2025-01-19 22:42:42.78	53.59	17.79	
2025-01-19 22:42:42.99	53.63	17.80	
2025-01-19 22:42:43.19	53.67	17.81	
2025-01-19 22:42:43.39	53.71	17.83	
2025-01-19 22:42:43.60	53.75	17.84	
2025-01-19 22:42:43.80	53.79	17.85	
2025-01-19 22:42:44.00	53.83	17.86	
2025-01-19 22:42:44.21	53.87	17.88	
2025-01-19 22:42:44.41	53.91	17.89	
2025-01-19 22:42:44.61	53.95	17.90	
2025-01-19 22:42:44.82	53.99	17.92	
2025-01-19 22:42:45.02	54.03	17.93	
2025-01-19 22:42:45.22	54.07	17.94	
2025-01-19 22:42:45.42	54.11	17.96	
2025-01-19 22:42:45.63	54.15	17.97	
2025-01-19 22:42:45.83	54.19	17.98	
2025-01-19 22:42:46.03	54.23	17.99	
2025-01-19 22:42:46.24	54.27	18.01	
2025-01-19 22:42:46.44	54.31	18.02	
2025-01-19 22:42:46.64	54.35	18.03	
2025-01-19 22:42:46.85	54.39	18.05	
2025-01-19 22:42:47.05	54.43	18.06	
2025-01-19 22:42:47.25	54.47	18.07	
2025-01-19 22:42:47.46	54.51	18.08	
2025-01-19 22:42:47.66	54.55	18.10	
2025-01-19 22:42:47.86	54.59	18.11	
2025-01-19 22:42:48.06	54.63	18.12	
2025-01-19 22:42:48.27	54.67	18.14	
2025-01-19 22:42:48.47	54.71	18.15	
2025-01-19 22:42:48.67	54.75	18.16	
2025-01-19 22:42:48.88	54.80	18.17	
2025-01-19 22:42:49.08	54.84	18.19	
2025-01-19 22:42:49.28	54.88	18.20	
2025-01-19 22:42:49.49	54.92	18.21	
2025-01-19 22:42:49.69	54.96	18.22	
2025-01-19 22:42:49.89	55.00	18.24	
2025-01-19 22:42:50.10	55.04	18.25	
2025-01-19 22:42:50.30	55.08	18.26	
2025-01-19 22:42:50.50	55.12	18.28	
2025-01-19 22:42:50.70	55.16	18.29	
2025-01-19 22:42:50.91	55.21	18.30	
2025-01-19 22:42:51.11	55.25	18.31	
2025-01-19 22:42:51.31	55.29	18.33	
2025-01-19 22:42:51.52	55.33	18.34	
2025-01-19 22:42:51.72	55.37	18.35	
2025-01-19 22:42:51.92	55.41	18.36	
2025-01-19 22:42:52.13	55.45	18.38	
2025-01-19 22:42:52.33	55.49	18.39	
2025-01-19 22:42:52.53	55.53	18.40	
2025-01-19 22:42:52.74	55.58	18.41	
2025-01-19 22:42:52.94	55.62	18.43	
2025-01-19 22:42:53.14	55.66	18.44	
2025-01-19 22:42:53.34	55.70	18.45	
2025-01-19 22:42:53.55	55.74	18.47	
2025-01-19 22:42:53.75	55.78	18.48	
2025-01-19 22:42:53.95	55.82	18.49	
2025-01-19 22:42:54.16	55.87	18.50	
2025-01-19 22:42:54.36	55.91	18.52	
2025-01-19 22:42:54.56	55.95	18.53	
2025-01-19 22:42:54.77	55.99	18.54	
2025-01-19 22:42:54.97	56.03	18.55	
2025-01-19 22:42:55.17	56.08	18.57	
2025-01-19 22:42:55.38	56.12	18.58	
2025-01-19 22:42:55.58	56.16	18.59	
2025-01-19 22:42:55.78	56.20	18.60	
2025-01-19 22:42:55.98	56.24	18.62	
2025-01-19 22:42:56.19	56.29	18.63	
2025-01-19 22:42:56.39	56.33	18.64	
2025-01-19 22:42:56.59	56.37	18.65	
2025-01-19 22:42:56.80	56.41	18.67	
2025-01-19 22:42:57.00	56.45	18.68	
2025-01-19 22:42:57.20	56.49	18.69	
2025-01-19 22:42:57.41	56.54	18.70	
2025-01-19 22:42:57.61	56.58	18.72	
2025-01-19 22:42:57.81	56.62	18.73	
2025-01-19 22:42:58.02	56.67	18.74	
2025-01-19 22:42:58.22	56.71	18.75	
2025-01-19 22:42:58.42	56.75	18.76	
2025-01-19 22:42:58.62	56.79	18.78	
2025-01-19 22:42:58.83	56.83	18.79	
2025-01-19 22:42:59.03	56.88	18.80	
2025-01-19 22:42:59.23	56.92	18.81	
2025-01-19 22:42:59.44	56.96	18.83	
2025-01-19 22:42:59.64	57.00	18.84	
2025-01-19 22:42:59.84	57.05	18.85	
2025-01-19 22:43:00.05	57.09	18.86	
2025-01-19 22:43:00.25	57.13	18.88	
2025-01-19 22:43:00.45	57.17	18.89	
2025-01-19 22:43:00.66	57.22	18.90	
2025-01-19 22:43:00.86	57.26	18.91	
2025-01-19 22:43:01.06	57.30	18.92	
2025-01-19 22:43:01.26	57.34	18.94	
2025-01-19 22:43:01.47	57.39	18.95	
2025-01-19 22:43:01.67	57.43	18.96	
2025-01-19 22:43:01.87	57.47	18.97	
2025-01-19 22:43:02.08	57.52	18.99	
2025-01-19 22:43:02.28	57.56	19.00	
2025-01-19 22:43:02.48	57.60	19.01	
2025-01-19 22:43:02.69	57.65	19.02	
2025-01-19 22:43:02.89	57.69	19.03	
2025-01-19 22:43:03.09	57.73	19.05	
2025-01-19 22:43:03.30	57.78	19.06	
2025-01-19 22:43:03.50	57.82	19.07	
2025-01-19 22:43:03.70	57.86	19.08	
2025-01-19 22:43:03.90	57.90	19.10	
2025-01-19 22:43:04.11	57.95	19.11	
2025-01-19 22:43:04.31	57.99	19.12	
2025-01-19 22:43:04.51	58.03	19.13	
2025-01-19 22:43:04.72	58.08	19.14	
2025-01-19 22:43:04.92	58.12	19.16	
2025-01-19 22:43:05.12	58.16	19.17	
2025-01-19 22:43:05.33	58.21	19.18	
2025-01-19 22:43:05.53	58.25	19.19	
2025-01-19 22:43:05.73	58.30	19.20	
2025-01-19 22:43:05.94	58.34	19.22	
2025-01-19 22:43:06.14	58.38	19.23	
2025-01-19 22:43:06.34	58.43	19.24	
2025-01-19 22:43:06.54	58.47	19.25	
2025-01-19 22:43:06.75	58.51	19.26	
2025-01-19 22:43:06.95	58.56	19.28	
2025-01-19 22:43:07.15	58.60	19.29	
2025-01-19 22:43:07.36	58.65	19.30	
2025-01-19 22:43:07.56	58.69	19.31	
2025-01-19 22:43:07.76	58.73	19.32	
2025-01-19 22:43:07.97	58.78	19.34	
2025-01-19 22:43:08.17	58.82	19.35	
2025-01-19 22:43:08.37	58.86	19.36	
2025-01-19 22:43:08.58	58.91	19.37	
2025-01-19 22:43:08.78	58.95	19.38	
2025-01-19 22:43:08.98	59.00	19.40	
2025-01-19 22:43:09.18	59.04	19.41	
2025-01-19 22:43:09.39	59.09	19.42	
2025-01-19 22:43:09.59	59.13	19.43	
2025-01-19 22:43:09.79	59.17	19.44	
2025-01-19 22:43:10.00	59.22	19.45	
2025-01-19 22:43:10.20	59.26	19.47	
2025-01-19 22:43:10.40	59.31	19.48	
2025-01-19 22:43:10.61	59.35	19.49	
2025-01-19 22:43:10.81	59.40	19.50	
2025-01-19 22:43:11.01	59.44	19.51	
2025-01-19 22:43:11.22	59.49	19.53	
2025-01-19 22:43:11.42	59.53	19.54	
2025-01-19 22:43:11.62	59.57	19.55	
2025-01-19 22:43:11.82	59.62	19.56	
2025-01-19 22:43:12.03	59.66	19.57	
2025-01-19 22:43:12.23	59.71	19.58	
2025-01-19 22:43:12.43	59.75	19.60	
2025-01-19 22:43:12.64	59.80	19.61	
2025-01-19 22:43:12.84	59.84	19.62	
2025-01-19 22:43:13.04	59.89	19.63	
2025-01-19 22:43:13.25	59.93	19.64	
2025-01-19 22:43:13.45	59.98	19.65	
2025-01-19 22:43:13.65	60.02	19.67	
2025-01-19 22:43:13.86	60.07	19.68	
2025-01-19 22:43:14.06	60.11	19.69	
2025-01-19 22:43:14.26	60.16	19.70	
2025-01-19 22:43:14.46	60.20	19.71	
2025-01-19 22:43:14.67	60.25	19.72	
2025-01-19 22:43:14.87	60.29	19.73	
2025-01-19 22:43:15.07	60.34	19.75	
2025-01-19 22:43:15.28	60.38	19.76	
2025-01-19 22:43:15.48	60.43	19.77	
2025-01-19 22:43:15.68	60.47	19.78	
2025-01-19 22:43:15.89	60.52	19.79	
2025-01-19 22:43:16.09	60.56	19.80	
2025-01-19 22:43:16.29	60.61	19.82	
2025-01-19 22:43:16.49	60.65	19.83	
2025-01-19 22:43:16.70	60.70	19.84	
2025-01-19 22:43:16.90	60.74	19.85	
2025-01-19 22:43:17.10	60.79	19.86	
2025-01-19 22:43:17.31	60.83	19.87	
2025-01-19 22:43:17.51	60.88	19.88	
2025-01-19 22:43:17.71	60.92	19.90	
2025-01-19 22:43:17.92	60.97	19.91	
2025-01-19 22:43:18.12	61.02	19.92	
2025-01-19 22:43:18.32	61.06	19.93	
2025-01-19 22:43:18.53	61.11	19.94	
2025-01-19 22:43:18.73	61.15	19.95	
2025-01-19 22:43:18.93	61.20	19.96	
2025-01-19 22:43:19.13	61.24	19.97	
2025-01-19 22:43:19.34	61.29	19.99	
2025-01-19 22:43:19.54	61.34	20.00	
2025-01-19 22:43:19.74	61.38	20.01	
2025-01-19 22:43:19.95	61.43	20.02	
2025-01-19 22:43:20.15	61.47	20.03	
2025-01-19 22:43:20.35	61.52	20.04	
2025-01-19 22:43:20.56	61.57	20.05	
2025-01-19 22:43:20.76	61.61	20.06	
2025-01-19 22:43:20.96	61.66	20.08	
2025-01-19 22:43:21.17	61.71	20.09	
2025-01-19 22:43:21.37	61.75	20.10	
2025-01-19 22:43:21.57	61.80	20.11	
2025-01-19 22:43:21.77	61.84	20.12	
2025-01-19 22:43:21.98	61.89	20.13	
2025-01-19 22:43:22.18	61.94	20.14	
2025-01-19 22:43:22.38	61.98	20.15	
2025-01-19 22:43:22.59	62.03	20.16	
2025-01-19 22:43:22.79	62.07	20.18	
2025-01-19 22:43:22.99	62.12	20.19	
2025-01-19 22:43:23.20	62.17	20.20	
2025-01-19 22:43:23.40	62.21	20.21	
2025-01-19 22:43:23.60	62.26	20.22	
2025-01-19 22:43:23.81	62.31	20.23	
2025-01-19 22:43:24.01	62.35	20.24	
2025-01-19 22:43:24.21	62.40	20.25	
2025-01-19 22:43:24.41	62.45	20.26	
2025-01-19 22:43:24.62	62.49	20.27	
2025-01-19 22:43:24.82	62.54	20.29	
2025-01-19 22:43:25.02	62.59	20.30	
2025-01-19 22:43:25.23	62.63	20.31	
2025-01-19 22:43:25.43	62.68	20.32	
2025-01-19 22:43:25.63	62.73	20.33	
2025-01-19 22:43:25.84	62.77	20.34	
2025-01-19 22:43:26.04	62.82	20.35	
2025-01-19 22:43:26.24	62.87	20.36	
2025-01-19 22:43:26.45	62.92	20.37	
2025-01-19 22:43:26.65	62.96	20.38	
2025-01-19 22:43:26.85	63.01	20.39	
2025-01-19 22:43:27.05	63.05	20.40	
2025-01-19 22:43:27.26	63.10	20.42	
2025-01-19 22:43:27.46	63.15	20.43	
2025-01-19 22:43:27.66	63.20	20.44	
2025-01-19 22:43:27.87	63.24	20.45	
2025-01-19 22:43:28.07	63.29	20.46	
2025-01-19 22:43:28.27	63.34	20.47	
2025-01-19 22:43:28.48	63.39	20.48	
2025-01-19 22:43:28.68	63.43	20.49	
2025-01-19 22:43:28.88	63.48	20.50	
2025-01-19 22:43:29.09	63.53	20.51	
2025-01-19 22:43:29.29	63.58	20.52	
2025-01-19 22:43:29.49	63.62	20.53	
2025-01-19 22:43:29.69	63.67	20.54	
2025-01-19 22:43:29.90	63.72	20.55	
2025-01-19 22:43:30.10	63.76	20.56	
2025-01-19 22:43:30.30	63.81	20.57	
2025-01-19 22:43:30.51	63.86	20.59	
2025-01-19 22:43:30.71	63.91	20.60	
2025-01-19 22:43:30.91	63.95	20.61	
2025-01-19 22:43:31.12	64.00	20.62	
2025-01-19 22:43:31.32	64.05	20.63	
2025-01-19 22:43:31.52	64.10	20.64	
2025-01-19 22:43:31.73	64.15	20.65	
2025-01-19 22:43:31.93	64.19	20.66	
2025-01-19 22:43:32.13	64.24	20.67	
2025-01-19 22:43:32.33	64.29	20.68	
2025-01-19 22:43:32.54	64.34	20.69	
2025-01-19 22:43:32.74	64.39	20.70	
2025-01-19 22:43:32.94	64.43	20.71	
2025-01-19 22:43:33.15	64.48	20.72	
2025-01-19 22:43:33.35	64.53	20.73	
2025-01-19 22:43:33.55	64.58	20.74	
2025-01-19 22:43:33.76	64.63	20.75	
2025-01-19 22:43:33.96	64.67	20.76	
2025-01-19 22:43:34.16	64.72	20.77	
2025-01-19 22:43:34.37	64.77	20.78	
2025-01-19 22:43:34.57	64.82	20.79	
2025-01-19 22:43:34.77	64.87	20.80	
2025-01-19 22:43:34.97	64.91	20.81	
2025-01-19 22:43:35.18	64.96	20.82	
2025-01-19 22:43:35.38	65.01	20.83	
2025-01-19 22:43:35.58	65.06	20.84	
2025-01-19 22:43:35.79	65.11	20.85	
2025-01-19 22:43:35.99	65.16	20.86	
2025-01-19 22:43:36.19	65.20	20.87	
2025-01-19 22:43:36.40	65.25	20.88	
2025-01-19 22:43:36.60	65.30	20.89	
2025-01-19 22:43:36.80	65.35	20.90	
2025-01-19 22:43:37.01	65.40	20.91	
2025-01-19 22:43:37.21	65.45	20.92	
2025-01-19 22:43:37.41	65.50	20.93	
2025-01-19 22:43:37.61	65.54	20.94	
2025-01-19 22:43:37.82	65.59	20.95	
2025-01-19 22:43:38.02	65.64	20.96	
2025-01-19 22:43:38.22	65.69	20.97	
2025-01-19 22:43:38.43	65.74	20.98	
2025-01-19 22:43:38.63	65.79	20.99	
2025-01-19 22:43:38.83	65.84	21.00	
2025-01-19 22:43:39.04	65.89	21.01	
2025-01-19 22:43:39.24	65.94	21.02	
2025-01-19 22:43:39.44	65.98	21.03	
2025-01-19 22:43:39.65	66.04	21.04	
2025-01-19 22:43:39.85	66.08	21.05	
2025-01-19 22:43:40.05	66.13	21.06	
2025-01-19 22:43:40.25	66.18	21.07	
2025-01-19 22:43:40.46	66.23	21.08	
2025-01-19 22:43:40.66	66.28	21.09	
2025-01-19 22:43:40.86	66.33	21.10	
2025-01-19 22:43:41.07	66.38	21.11	
2025-01-19 22:43:41.27	66.43	21.12	
2025-01-19 22:43:41.47	66.48	21.13	
2025-01-19 22:43:41.68	66.53	21.14	
2025-01-19 22:43:41.88	66.58	21.15	
2025-01-19 22:43:42.08	66.62	21.16	
2025-01-19 22:43:42.29	66.67	21.17	
2025-01-19 22:43:42.49	66.72	21.18	
2025-01-19 22:43:42.69	66.77	21.19	
2025-01-19 22:43:42.89	66.82	21.20	
2025-01-19 22:43:43.10	66.87	21.20	
2025-01-19 22:43:43.30	66.92	21.21	
2025-01-19 22:43:43.50	66.97	21.22	
2025-01-19 22:43:43.71	67.02	21.23	
2025-01-19 22:43:43.91	67.07	21.24	
2025-01-19 22:43:44.11	67.12	21.25	
2025-01-19 22:43:44.32	67.17	21.26	
2025-01-19 22:43:44.52	67.22	21.27	
2025-01-19 22:43:44.72	67.27	21.28	
2025-01-19 22:43:44.93	67.32	21.29	
2025-01-19 22:43:45.13	67.37	21.30	
2025-01-19 22:43:45.33	67.42	21.31	
2025-01-19 22:43:45.53	67.47	21.32	
2025-01-19 22:43:45.74	67.52	21.33	
2025-01-19 22:43:45.94	67.57	21.34	
2025-01-19 22:43:46.14	67.62	21.34	
2025-01-19 22:43:46.35	67.67	21.35	
2025-01-19 22:43:46.55	67.72	21.36	
2025-01-19 22:43:46.75	67.77	21.37	
2025-01-19 22:43:46.96	67.82	21.38	
2025-01-19 22:43:47.16	67.87	21.39	
2025-01-19 22:43:47.36	67.92	21.40	
2025-01-19 22:43:47.57	67.97	21.41	
2025-01-19 22:43:47.77	68.02	21.42	
2025-01-19 22:43:47.97	68.07	21.43	
2025-01-19 22:43:48.17	68.12	21.44	
2025-01-19 22:43:48.38	68.17	21.45	
2025-01-19 22:43:48.58	68.22	21.45	
2025-01-19 22:43:48.78	68.27	21.46	
2025-01-19 22:43:48.99	68.32	21.47	
2025-01-19 22:43:49.19	68.37	21.48	
2025-01-19 22:43:49.39	68.42	21.49	
2025-01-19 22:43:49.60	68.47	21.50	
2025-01-19 22:43:49.80	68.52	21.51	
2025-01-19 22:43:50.00	68.57	21.52	
2025-01-19 22:43:50.21	68.62	21.53	
2025-01-19 22:43:50.41	68.67	21.53	
2025-01-19 22:43:50.61	68.72	21.54	
2025-01-19 22:43:50.81	68.77	21.55	
2025-01-19 22:43:51.02	68.83	21.56	
2025-01-19 22:43:51.22	68.88	21.57	
2025-01-19 22:43:51.42	68.93	21.58	
2025-01-19 22:43:51.63	68.98	21.59	
2025-01-19 22:43:51.83	69.03	21.60	
2025-01-19 22:43:52.03	69.08	21.60	
2025-01-19 22:43:52.24	69.13	21.61	
2025-01-19 22:43:52.44	69.18	21.62	
2025-01-19 22:43:52.64	69.23	21.63	
2025-01-19 22:43:52.84	69.28	21.64	
2025-01-19 22:43:53.05	69.33	21.65	
2025-01-19 22:43:53.25	69.38	21.66	
2025-01-19 22:43:53.45	69.43	21.66	
2025-01-19 22:43:53.66	69.49	21.67	
2025-01-19 22:43:53.86	69.54	21.68	
2025-01-19 22:43:54.06	69.59	21.69	
2025-01-19 22:43:54.27	69.64	21.70	
2025-01-19 22:43:54.47	69.69	21.71	
2025-01-19 22:43:54.67	69.74	21.71	
2025-01-19 22:43:54.88	69.79	21.72	
2025-01-19 22:43:55.08	69.84	21.73	
2025-01-19 22:43:55.28	69.90	21.74	
2025-01-19 22:43:55.49	69.95	21.75	
2025-01-19 22:43:55.69	70.00	21.76	
2025-01-19 22:43:55.89	70.05	21.76	
2025-01-19 22:43:56.09	70.10	21.77	
2025-01-19 22:43:56.30	70.15	21.78	
2025-01-19 22:43:56.50	70.20	21.79	
2025-01-19 22:43:56.70	70.25	21.80	
2025-01-19 22:43:56.91	70.31	21.81	
2025-01-19 22:43:57.11	70.36	21.81	
2025-01-19 22:43:57.31	70.41	21.82	
2025-01-19 22:43:57.52	70.46	21.83	
2025-01-19 22:43:57.72	70.51	21.84	
2025-01-19 22:43:57.92	70.56	21.85	
2025-01-19 22:43:58.12	70.61	21.85	
2025-01-19 22:43:58.33	70.67	21.86	
2025-01-19 22:43:58.53	70.72	21.87	
2025-01-19 22:43:58.73	70.77	21.88	
2025-01-19 22:43:58.94	70.82	21.89	
2025-01-19 22:43:59.14	70.87	21.89	
2025-01-19 22:43:59.34	70.93	21.90	
2025-01-19 22:43:59.55	70.98	21.91	
2025-01-19 22:43:59.75	71.03	21.92	
2025-01-19 22:43:59.95	71.08	21.93	
2025-01-19 22:44:00.16	71.13	21.93	
2025-01-19 22:44:00.36	71.19	21.94	
2025-01-19 22:44:00.56	71.24	21.95	
2025-01-19 22:44:00.76	71.29	21.96	
2025-01-19 22:44:00.97	71.34	21.97	
2025-01-19 22:44:01.17	71.39	21.97	
2025-01-19 22:44:01.37	71.44	21.98	
2025-01-19 22:44:01.58	71.50	21.99	
2025-01-19 22:44:01.78	71.55	22.00	
2025-01-19 22:44:01.98	71.60	22.00	
2025-01-19 22:44:02.19	71.65	22.01	
2025-01-19 22:44:02.39	71.71	22.02	
2025-01-19 22:44:02.59	71.76	22.03	
2025-01-19 22:44:02.80	71.81	22.03	
2025-01-19 22:44:03.00	71.86	22.04	
2025-01-19 22:44:03.20	71.91	22.05	
2025-01-19 22:44:03.40	71.97	22.06	
2025-01-19 22:44:03.61	72.02	22.06	
2025-01-19 22:44:03.81	72.07	22.07	
2025-01-19 22:44:04.01	72.12	22.08	
2025-01-19 22:44:04.22	72.18	22.09	
2025-01-19 22:44:04.42	72.23	22.09	
2025-01-19 22:44:04.62	72.28	22.10	
2025-01-19 22:44:04.83	72.33	22.11	
2025-01-19 22:44:05.03	72.39	22.12	
2025-01-19 22:44:05.23	72.44	22.12	
2025-01-19 22:44:05.44	72.49	22.13	
2025-01-19 22:44:05.64	72.54	22.14	
2025-01-19 22:44:05.84	72.60	22.15	
2025-01-19 22:44:06.04	72.65	22.15	
2025-01-19 22:44:06.25	72.70	22.16	
2025-01-19 22:44:06.45	72.75	22.17	
2025-01-19 22:44:06.65	72.81	22.17	
2025-01-19 22:44:06.86	72.86	22.18	
2025-01-19 22:44:07.06	72.91	22.19	
2025-01-19 22:44:07.26	72.96	22.20	
2025-01-19 22:44:07.47	73.02	22.20	
2025-01-19 22:44:07.67	73.07	22.21	
2025-01-19 22:44:07.87	73.12	22.22	
2025-01-19 22:44:08.08	73.18	22.22	
2025-01-19 22:44:08.28	73.23	22.23	
2025-01-19 22:44:08.48	73.28	22.24	
2025-01-19 22:44:08.68	73.33	22.24	
2025-01-19 22:44:08.89	73.39	22.25	
2025-01-19 22:44:09.09	73.44	22.26	
2025-01-19 22:44:09.29	73.49	22.27	
2025-01-19 22:44:09.50	73.55	22.27	
2025-01-19 22:44:09.70	73.60	22.28	
2025-01-19 22:44:09.90	73.65	22.29	
2025-01-19 22:44:10.11	73.71	22.29	
2025-01-19 22:44:10.31	73.76	22.30	
2025-01-19 22:44:10.51	73.81	22.31	
2025-01-19 22:44:10.72	73.87	22.31	
2025-01-19 22:44:10.92	73.92	22.32	
2025-01-19 22:44:11.12	73.97	22.33	
2025-01-19 22:44:11.32	74.02	22.33	
2025-01-19 22:44:11.53	74.08	22.34	
2025-01-19 22:44:11.73	74.13	22.35	
2025-01-19 22:44:11.93	74.18	22.35	
2025-01-19 22:44:12.14	74.24	22.36	
2025-01-19 22:44:12.34	74.29	22.37	
2025-01-19 22:44:12.54	74.34	22.37	
2025-01-19 22:44:12.75	74.40	22.38	
2025-01-19 22:44:12.95	74.45	22.38	
2025-01-19 22:44:13.15	74.50	22.39	
2025-01-19 22:44:13.36	74.56	22.40	
2025-01-19 22:44:13.56	74.61	22.40	
2025-01-19 22:44:13.76	74.66	22.41	
2025-01-19 22:44:13.96	74.72	22.42	
2025-01-19 22:44:14.17	74.77	22.42	
2025-01-19 22:44:14.37	74.82	22.43	
2025-01-19 22:44:14.57	74.88	22.44	
2025-01-19 22:44:14.78	74.93	22.44	
2025-01-19 22:44:14.98	74.99	22.45	
2025-01-19 22:44:15.18	75.04	22.45	
2025-01-19 22:44:15.39	75.09	22.46	
2025-01-19 22:44:15.59	75.15	22.47	
2025-01-19 22:44:15.79	75.20	22.47	
2025-01-19 22:44:16.00	75.26	22.48	
2025-01-19 22:44:16.20	75.31	22.48	
2025-01-19 22:44:16.40	75.36	22.49	
2025-01-19 22:44:16.60	75.41	22.50	
2025-01-19 22:44:16.81	75.47	22.50	
2025-01-19 22:44:17.01	75.52	22.51	
2025-01-19 22:44:17.21	75.58	22.51	
2025-01-19 22:44:17.42	75.63	22.52	
2025-01-19 22:44:17.62	75.68	22.53	
2025-01-19 22:44:17.82	75.74	22.53	
2025-01-19 22:44:18.03	75.79	22.54	
2025-01-19 22:44:18.23	75.85	22.54	
2025-01-19 22:44:18.43	75.90	22.55	
2025-01-19 22:44:18.64	75.96	22.56	
2025-01-19 22:44:18.84	76.01	22.56	
2025-01-19 22:44:19.04	76.06	22.57	
2025-01-19 22:44:19.24	76.11	22.57	
2025-01-19 22:44:19.45	76.17	22.58	
2025-01-19 22:44:19.65	76.22	22.58	
2025-01-19 22:44:19.85	76.28	22.59	
2025-01-19 22:44:20.06	76.33	22.60	
2025-01-19 22:44:20.26	76.39	22.60	
2025-01-19 22:44:20.46	76.44	22.61	
2025-01-19 22:44:20.67	76.50	22.61	
2025-01-19 22:44:20.87	76.55	22.62	
2025-01-19 22:44:21.07	76.60	22.62	
2025-01-19 22:44:21.28	76.66	22.63	
2025-01-19 22:44:21.48	76.71	22.63	
2025-01-19 22:44:21.68	76.77	22.64	
2025-01-19 22:44:21.88	76.82	22.64	
2025-01-19 22:44:22.09	76.88	22.65	
2025-01-19 22:44:22.29	76.93	22.66	
2025-01-19 22:44:22.49	76.98	22.66	
2025-01-19 22:44:22.70	77.04	22.67	
2025-01-19 22:44:22.90	77.09	22.67	
2025-01-19 22:44:23.10	77.15	22.68	
2025-01-19 22:44:23.31	77.20	22.68	
2025-01-19 22:44:23.51	77.26	22.69	
2025-01-19 22:44:23.71	77.31	22.69	
2025-01-19 22:44:23.92	77.37	22.70	
2025-01-19 22:44:24.12	77.42	22.70	
2025-01-19 22:44:24.32	77.47	22.71	
2025-01-19 22:44:24.52	77.53	22.71	
2025-01-19 22:44:24.73	77.58	22.72	
2025-01-19 22:44:24.93	77.64	22.72	
2025-01-19 22:44:25.13	77.69	22.73	
2025-01-19 22:44:25.34	77.75	22.73	
2025-01-19 22:44:25.54	77.80	22.74	
2025-01-19 22:44:25.74	77.85	22.74	
2025-01-19 22:44:25.95	77.91	22.75	
2025-01-19 22:44:26.15	77.96	22.75	
2025-01-19 22:44:26.35	78.02	22.76	
2025-01-19 22:44:26.56	78.07	22.76	
2025-01-19 22:44:26.76	78.13	22.77	
2025-01-19 22:44:26.96	78.18	22.77	
2025-01-19 22:44:27.16	78.24	22.78	
2025-01-19 22:44:27.37	78.29	22.78	
2025-01-19 22:44:27.57	78.35	22.79	
2025-01-19 22:44:27.77	78.40	22.79	
2025-01-19 22:44:27.98	78.46	22.79	
2025-01-19 22:44:28.18	78.51	22.80	
2025-01-19 22:44:28.38	78.57	22.80	
2025-01-19 22:44:28.59	78.62	22.81	
2025-01-19 22:44:28.79	78.68	22.81	
2025-01-19 22:44:28.99	78.73	22.82	
2025-01-19 22:44:29.20	78.79	22.82	
2025-01-19 22:44:29.40	78.84	22.83	
2025-01-19 22:44:29.60	78.90	22.83	
2025-01-19 22:44:29.80	78.95	22.83	
2025-01-19 22:44:30.01	79.01	22.84	
2025-01-19 22:44:30.21	79.06	22.84	
2025-01-19 22:44:30.41	79.11	22.85	
2025-01-19 22:44:30.62	79.17	22.85	
2025-01-19 22:44:30.82	79.23	22.86	
2025-01-19 22:44:31.02	79.28	22.86	
2025-01-19 22:44:31.23	79.34	22.86	
2025-01-19 22:44:31.43	79.39	22.87	
2025-01-19 22:44:31.63	79.45	22.87	
2025-01-19 22:44:31.84	79.50	22.88	
2025-01-19 22:44:32.04	79.56	22.88	
2025-01-19 22:44:32.24	79.61	22.89	
2025-01-19 22:44:32.44	79.67	22.89	
2025-01-19 22:44:32.65	79.72	22.89	
2025-01-19 22:44:32.85	79.78	22.90	
2025-01-19 22:44:33.05	79.83	22.90	
2025-01-19 22:44:33.26	79.89	22.91	
2025-01-19 22:44:33.46	79.94	22.91	
2025-01-19 22:44:33.66	80.00	22.91	
2025-01-19 22:44:33.87	80.05	22.92	
2025-01-19 22:44:34.07	80.11	22.92	
2025-01-19 22:44:34.27	80.16	22.92	
2025-01-19 22:44:34.48	80.22	22.93	
2025-01-19 22:44:34.68	80.27	22.93	
2025-01-19 22:44:34.88	80.33	22.94	
2025-01-19 22:44:35.08	80.38	22.94	
2025-01-19 22:44:35.29	80.44	22.94	
2025-01-19 22:44:35.49	80.49	22.95	
2025-01-19 22:44:35.69	80.55	22.95	
2025-01-19 22:44:35.90	80.61	22.95	
2025-01-19 22:44:36.10	80.66	22.96	
2025-01-19 22:44:36.30	80.72	22.96	
2025-01-19 22:44:36.51	80.77	22.97	
2025-01-19 22:44:36.71	80.83	22.97	
2025-01-19 22:44:36.91	80.88	22.97	
2025-01-19 22:44:37.12	80.94	22.98	
2025-01-19 22:44:37.32	80.99	22.98	
2025-01-19 22:44:37.52	81.05	22.98	
2025-01-19 22:44:37.72	81.10	22.99	
2025-01-19 22:44:37.93	81.16	22.99	
2025-01-19 22:44:38.13	81.22	22.99	
2025-01-19 22:44:38.33	81.27	23.00	
2025-01-19 22:44:38.54	81.33	23.00	
2025-01-19 22:44:38.74	81.38	23.00	
2025-01-19 22:44:38.94	81.44	23.01	
2025-01-19 22:44:39.15	81.49	23.01	
2025-01-19 22:44:39.35	81.55	23.01	
2025-01-19 22:44:39.55	81.60	23.01	
2025-01-19 22:44:39.76	81.66	23.02	
2025-01-19 22:44:39.96	81.72	23.02	
2025-01-19 22:44:40.16	81.77	23.02	
2025-01-19 22:44:40.36	81.83	23.03	
2025-01-19 22:44:40.57	81.88	23.03	
2025-01-19 22:44:40.77	81.94	23.03	
2025-01-19 22:44:40.97	81.99	23.04	
2025-01-19 22:44:41.18	82.05	23.04	
2025-01-19 22:44:41.38	82.11	23.04	
2025-01-19 22:44:41.58	82.16	23.04	
2025-01-19 22:44:41.79	82.22	23.05	
2025-01-19 22:44:41.99	82.27	23.05	
2025-01-19 22:44:42.19	82.33	23.05	
2025-01-19 22:44:42.40	82.39	23.06	
2025-01-19 22:44:42.60	82.44	23.06	
2025-01-19 22:44:42.80	82.49	23.06	
2025-01-19 22:44:43.00	82.55	23.06	
2025-01-19 22:44:43.21	82.61	23.07	
2025-01-19 22:44:43.41	82.66	23.07	
2025-01-19 22:44:43.61	82.72	23.07	
2025-01-19 22:44:43.82	82.78	23.07	
2025-01-19 22:44:44.02	82.83	23.08	
2025-01-19 22:44:44.22	82.88	23.08	
2025-01-19 22:44:44.43	82.94	23.08	
2025-01-19 22:44:44.63	83.00	23.08	
2025-01-19 22:44:44.83	83.05	23.09	
2025-01-19 22:44:45.04	83.11	23.09	
2025-01-19 22:44:45.24	83.17	23.09	
2025-01-19 22:44:45.44	83.22	23.09	
2025-01-19 22:44:45.64	83.28	23.10	
2025-01-19 22:44:45.85	83.33	23.10	
2025-01-19 22:44:46.05	83.39	23.10	
2025-01-19 22:44:46.25	83.44	23.10	
2025-01-19 22:44:46.46	83.50	23.10	
2025-01-19 22:44:46.66	83.56	23.11	
2025-01-19 22:44:46.86	83.61	23.11	
2025-01-19 22:44:47.07	83.67	23.11	
