passes_logs/2025/01/19/SPB_Silybum_02/SPB_Silybum_02__20250119_085956_TERRA_rec.log

#Pass ID: 20250119_085956_TERRA
#Satellite: TERRA
#Configuration: TERRA
#Start time: 2025-01-19 09:03:54

#Version: 2.0.20230423
#Station: SPB_Silybum_02
#Location: 30.233357 lon 59.946436 lat
#TLE: 1 25994U 99068A   25018.76132064  .00000971  00000+0  20987-3 0  9991
#TLE: 2 25994  98.0209  81.6719 0003338  64.8500  46.9329 14.60403262334620

#Time	Az	El	Level	Level2	SNR	BER	Gain	Gain2
2025-01-19 09:03:56.69	352.81	32.25	
2025-01-19 09:03:56.89	352.76	32.29	
2025-01-19 09:03:57.09	352.72	32.33	
2025-01-19 09:03:57.29	352.67	32.37	
2025-01-19 09:03:57.50	352.62	32.41	
2025-01-19 09:03:57.70	352.57	32.45	
2025-01-19 09:03:57.90	352.52	32.49	
2025-01-19 09:03:58.11	352.47	32.53	
2025-01-19 09:03:58.31	352.43	32.57	
2025-01-19 09:03:58.51	352.38	32.61	
2025-01-19 09:03:58.72	352.33	32.66	
2025-01-19 09:03:58.92	352.28	32.70	
2025-01-19 09:03:59.12	352.23	32.74	
2025-01-19 09:03:59.33	352.18	32.78	
2025-01-19 09:03:59.53	352.13	32.82	
2025-01-19 09:03:59.73	352.08	32.86	
2025-01-19 09:03:59.93	352.03	32.90	
2025-01-19 09:04:00.14	351.98	32.94	
2025-01-19 09:04:00.34	351.93	32.98	
2025-01-19 09:04:00.54	351.88	33.02	
2025-01-19 09:04:00.75	351.83	33.07	
2025-01-19 09:04:00.95	351.78	33.11	
2025-01-19 09:04:01.15	351.73	33.15	
2025-01-19 09:04:01.36	351.68	33.19	
2025-01-19 09:04:01.56	351.63	33.23	
2025-01-19 09:04:01.76	351.58	33.27	
2025-01-19 09:04:01.97	351.53	33.32	
2025-01-19 09:04:02.17	351.48	33.36	
2025-01-19 09:04:02.37	351.43	33.40	
2025-01-19 09:04:02.57	351.38	33.44	
2025-01-19 09:04:02.78	351.32	33.48	
2025-01-19 09:04:02.98	351.27	33.52	
2025-01-19 09:04:03.18	351.22	33.56	
2025-01-19 09:04:03.39	351.17	33.61	
2025-01-19 09:04:03.59	351.12	33.65	
2025-01-19 09:04:03.79	351.06	33.69	
2025-01-19 09:04:04.00	351.01	33.73	
2025-01-19 09:04:04.20	350.96	33.77	
2025-01-19 09:04:04.40	350.91	33.82	
2025-01-19 09:04:04.61	350.85	33.86	
2025-01-19 09:04:04.81	350.80	33.90	
2025-01-19 09:04:05.01	350.75	33.94	
2025-01-19 09:04:05.21	350.69	33.98	
2025-01-19 09:04:05.42	350.64	34.03	
2025-01-19 09:04:05.62	350.59	34.07	
2025-01-19 09:04:05.82	350.53	34.11	
2025-01-19 09:04:06.03	350.48	34.15	
2025-01-19 09:04:06.23	350.43	34.19	
2025-01-19 09:04:06.43	350.37	34.24	
2025-01-19 09:04:06.64	350.32	34.28	
2025-01-19 09:04:06.84	350.26	34.32	
2025-01-19 09:04:07.04	350.21	34.36	
2025-01-19 09:04:07.25	350.15	34.41	
2025-01-19 09:04:07.45	350.10	34.45	
2025-01-19 09:04:07.65	350.04	34.49	
2025-01-19 09:04:07.85	349.99	34.53	
2025-01-19 09:04:08.06	349.93	34.58	
2025-01-19 09:04:08.26	349.88	34.62	
2025-01-19 09:04:08.46	349.82	34.66	
2025-01-19 09:04:08.67	349.77	34.70	
2025-01-19 09:04:08.87	349.71	34.75	
2025-01-19 09:04:09.07	349.66	34.79	
2025-01-19 09:04:09.28	349.60	34.83	
2025-01-19 09:04:09.48	349.54	34.87	
2025-01-19 09:04:09.68	349.49	34.92	
2025-01-19 09:04:09.89	349.43	34.96	
2025-01-19 09:04:10.09	349.37	35.00	
2025-01-19 09:04:10.29	349.32	35.05	
2025-01-19 09:04:10.49	349.26	35.09	
2025-01-19 09:04:10.70	349.20	35.13	
2025-01-19 09:04:10.90	349.14	35.17	
2025-01-19 09:04:11.10	349.09	35.22	
2025-01-19 09:04:11.31	349.03	35.26	
2025-01-19 09:04:11.51	348.97	35.30	
2025-01-19 09:04:11.71	348.91	35.35	
2025-01-19 09:04:11.92	348.85	35.39	
2025-01-19 09:04:12.12	348.80	35.43	
2025-01-19 09:04:12.32	348.74	35.48	
2025-01-19 09:04:12.53	348.68	35.52	
2025-01-19 09:04:12.73	348.62	35.56	
2025-01-19 09:04:12.93	348.56	35.61	
2025-01-19 09:04:13.13	348.50	35.65	
2025-01-19 09:04:13.34	348.44	35.69	
2025-01-19 09:04:13.54	348.38	35.74	
2025-01-19 09:04:13.74	348.32	35.78	
2025-01-19 09:04:13.95	348.26	35.82	
2025-01-19 09:04:14.15	348.20	35.87	
2025-01-19 09:04:14.35	348.14	35.91	
2025-01-19 09:04:14.56	348.08	35.95	
2025-01-19 09:04:14.76	348.02	36.00	
2025-01-19 09:04:14.96	347.96	36.04	
2025-01-19 09:04:15.17	347.90	36.08	
2025-01-19 09:04:15.37	347.84	36.13	
2025-01-19 09:04:15.57	347.78	36.17	
2025-01-19 09:04:15.77	347.72	36.21	
2025-01-19 09:04:15.98	347.66	36.26	
2025-01-19 09:04:16.18	347.59	36.30	
2025-01-19 09:04:16.38	347.53	36.34	
2025-01-19 09:04:16.59	347.47	36.39	
2025-01-19 09:04:16.79	347.41	36.43	
2025-01-19 09:04:16.99	347.35	36.48	
2025-01-19 09:04:17.20	347.28	36.52	
2025-01-19 09:04:17.40	347.22	36.56	
2025-01-19 09:04:17.60	347.16	36.61	
2025-01-19 09:04:17.81	347.09	36.65	
2025-01-19 09:04:18.01	347.03	36.70	
2025-01-19 09:04:18.21	346.97	36.74	
2025-01-19 09:04:18.41	346.91	36.78	
2025-01-19 09:04:18.62	346.84	36.83	
2025-01-19 09:04:18.82	346.78	36.87	
2025-01-19 09:04:19.02	346.71	36.91	
2025-01-19 09:04:19.23	346.65	36.96	
2025-01-19 09:04:19.43	346.58	37.00	
2025-01-19 09:04:19.63	346.52	37.05	
2025-01-19 09:04:19.84	346.45	37.09	
2025-01-19 09:04:20.04	346.39	37.14	
2025-01-19 09:04:20.24	346.32	37.18	
2025-01-19 09:04:20.45	346.26	37.22	
2025-01-19 09:04:20.65	346.19	37.27	
2025-01-19 09:04:20.85	346.13	37.31	
2025-01-19 09:04:21.05	346.06	37.36	
2025-01-19 09:04:21.26	345.99	37.40	
2025-01-19 09:04:21.46	345.93	37.44	
2025-01-19 09:04:21.66	345.86	37.49	
2025-01-19 09:04:21.87	345.79	37.53	
2025-01-19 09:04:22.07	345.73	37.58	
2025-01-19 09:04:22.27	345.66	37.62	
2025-01-19 09:04:22.48	345.59	37.67	
2025-01-19 09:04:22.68	345.53	37.71	
2025-01-19 09:04:22.88	345.46	37.75	
2025-01-19 09:04:23.09	345.39	37.80	
2025-01-19 09:04:23.29	345.32	37.84	
2025-01-19 09:04:23.49	345.26	37.89	
2025-01-19 09:04:23.69	345.19	37.93	
2025-01-19 09:04:23.90	345.12	37.98	
2025-01-19 09:04:24.10	345.05	38.02	
2025-01-19 09:04:24.30	344.98	38.07	
2025-01-19 09:04:24.51	344.91	38.11	
2025-01-19 09:04:24.71	344.84	38.16	
2025-01-19 09:04:24.91	344.77	38.20	
2025-01-19 09:04:25.12	344.70	38.25	
2025-01-19 09:04:25.32	344.63	38.29	
2025-01-19 09:04:25.52	344.56	38.33	
2025-01-19 09:04:25.73	344.49	38.38	
2025-01-19 09:04:25.93	344.42	38.42	
2025-01-19 09:04:26.13	344.35	38.47	
2025-01-19 09:04:26.33	344.28	38.51	
2025-01-19 09:04:26.54	344.21	38.56	
2025-01-19 09:04:26.74	344.14	38.60	
2025-01-19 09:04:26.94	344.07	38.65	
2025-01-19 09:04:27.15	343.99	38.69	
2025-01-19 09:04:27.35	343.92	38.74	
2025-01-19 09:04:27.55	343.85	38.78	
2025-01-19 09:04:27.76	343.78	38.83	
2025-01-19 09:04:27.96	343.71	38.87	
2025-01-19 09:04:28.16	343.63	38.91	
2025-01-19 09:04:28.37	343.56	38.96	
2025-01-19 09:04:28.57	343.49	39.00	
2025-01-19 09:04:28.77	343.41	39.05	
2025-01-19 09:04:28.97	343.34	39.09	
2025-01-19 09:04:29.18	343.27	39.14	
2025-01-19 09:04:29.38	343.19	39.18	
2025-01-19 09:04:29.58	343.12	39.23	
2025-01-19 09:04:29.79	343.04	39.27	
2025-01-19 09:04:29.99	342.97	39.32	
2025-01-19 09:04:30.19	342.90	39.36	
2025-01-19 09:04:30.40	342.82	39.41	
2025-01-19 09:04:30.60	342.74	39.45	
2025-01-19 09:04:30.80	342.67	39.50	
2025-01-19 09:04:31.01	342.59	39.54	
2025-01-19 09:04:31.21	342.52	39.59	
2025-01-19 09:04:31.41	342.44	39.63	
2025-01-19 09:04:31.62	342.36	39.68	
2025-01-19 09:04:31.82	342.29	39.72	
2025-01-19 09:04:32.02	342.21	39.77	
2025-01-19 09:04:32.22	342.14	39.81	
2025-01-19 09:04:32.43	342.06	39.86	
2025-01-19 09:04:32.63	341.98	39.90	
2025-01-19 09:04:32.83	341.90	39.94	
2025-01-19 09:04:33.04	341.82	39.99	
2025-01-19 09:04:33.24	341.74	40.04	
2025-01-19 09:04:33.44	341.67	40.08	
2025-01-19 09:04:33.65	341.59	40.13	
2025-01-19 09:04:33.85	341.51	40.17	
2025-01-19 09:04:34.05	341.43	40.21	
2025-01-19 09:04:34.25	341.35	40.26	
2025-01-19 09:04:34.46	341.27	40.30	
2025-01-19 09:04:34.66	341.19	40.35	
2025-01-19 09:04:34.86	341.11	40.39	
2025-01-19 09:04:35.07	341.03	40.44	
2025-01-19 09:04:35.27	340.95	40.48	
2025-01-19 09:04:35.47	340.87	40.53	
2025-01-19 09:04:35.68	340.79	40.57	
2025-01-19 09:04:35.88	340.71	40.62	
2025-01-19 09:04:36.08	340.63	40.66	
2025-01-19 09:04:36.29	340.54	40.71	
2025-01-19 09:04:36.49	340.46	40.75	
2025-01-19 09:04:36.69	340.38	40.80	
2025-01-19 09:04:36.90	340.30	40.84	
2025-01-19 09:04:37.10	340.22	40.89	
2025-01-19 09:04:37.30	340.14	40.93	
2025-01-19 09:04:37.50	340.05	40.98	
2025-01-19 09:04:37.71	339.97	41.02	
2025-01-19 09:04:37.91	339.89	41.07	
2025-01-19 09:04:38.11	339.80	41.11	
2025-01-19 09:04:38.32	339.72	41.16	
2025-01-19 09:04:38.52	339.63	41.20	
2025-01-19 09:04:38.72	339.55	41.24	
2025-01-19 09:04:38.93	339.46	41.29	
2025-01-19 09:04:39.13	339.38	41.34	
2025-01-19 09:04:39.33	339.30	41.38	
2025-01-19 09:04:39.54	339.21	41.43	
2025-01-19 09:04:39.74	339.12	41.47	
2025-01-19 09:04:39.94	339.04	41.51	
2025-01-19 09:04:40.14	338.95	41.56	
2025-01-19 09:04:40.35	338.87	41.60	
2025-01-19 09:04:40.55	338.78	41.65	
2025-01-19 09:04:40.75	338.69	41.69	
2025-01-19 09:04:40.96	338.60	41.74	
2025-01-19 09:04:41.16	338.52	41.78	
2025-01-19 09:04:41.36	338.43	41.83	
2025-01-19 09:04:41.57	338.34	41.87	
2025-01-19 09:04:41.77	338.26	41.92	
2025-01-19 09:04:41.97	338.17	41.96	
2025-01-19 09:04:42.18	338.08	42.01	
2025-01-19 09:04:42.38	337.99	42.05	
2025-01-19 09:04:42.58	337.90	42.09	
2025-01-19 09:04:42.78	337.81	42.14	
2025-01-19 09:04:42.99	337.72	42.18	
2025-01-19 09:04:43.19	337.63	42.23	
2025-01-19 09:04:43.39	337.54	42.27	
2025-01-19 09:04:43.60	337.45	42.32	
2025-01-19 09:04:43.80	337.36	42.36	
2025-01-19 09:04:44.00	337.27	42.40	
2025-01-19 09:04:44.21	337.18	42.45	
2025-01-19 09:04:44.41	337.09	42.49	
2025-01-19 09:04:44.61	337.00	42.54	
2025-01-19 09:04:44.82	336.90	42.58	
2025-01-19 09:04:45.02	336.81	42.62	
2025-01-19 09:04:45.22	336.72	42.67	
2025-01-19 09:04:45.42	336.63	42.71	
2025-01-19 09:04:45.63	336.53	42.76	
2025-01-19 09:04:45.83	336.44	42.80	
2025-01-19 09:04:46.03	336.35	42.84	
2025-01-19 09:04:46.24	336.25	42.89	
2025-01-19 09:04:46.44	336.16	42.93	
2025-01-19 09:04:46.64	336.07	42.98	
2025-01-19 09:04:46.85	335.97	43.02	
2025-01-19 09:04:47.05	335.88	43.06	
2025-01-19 09:04:47.25	335.78	43.11	
2025-01-19 09:04:47.46	335.69	43.15	
2025-01-19 09:04:47.66	335.59	43.20	
2025-01-19 09:04:47.86	335.50	43.24	
2025-01-19 09:04:48.06	335.40	43.28	
2025-01-19 09:04:48.27	335.30	43.33	
2025-01-19 09:04:48.47	335.21	43.37	
2025-01-19 09:04:48.67	335.11	43.41	
2025-01-19 09:04:48.88	335.01	43.46	
2025-01-19 09:04:49.08	334.92	43.50	
2025-01-19 09:04:49.28	334.82	43.54	
2025-01-19 09:04:49.49	334.72	43.59	
2025-01-19 09:04:49.69	334.62	43.63	
2025-01-19 09:04:49.89	334.53	43.67	
2025-01-19 09:04:50.10	334.42	43.72	
2025-01-19 09:04:50.30	334.33	43.76	
2025-01-19 09:04:50.50	334.23	43.80	
2025-01-19 09:04:50.70	334.13	43.85	
2025-01-19 09:04:50.91	334.03	43.89	
2025-01-19 09:04:51.11	333.93	43.93	
2025-01-19 09:04:51.31	333.83	43.98	
2025-01-19 09:04:51.52	333.73	44.02	
2025-01-19 09:04:51.72	333.63	44.06	
2025-01-19 09:04:51.92	333.53	44.10	
2025-01-19 09:04:52.13	333.42	44.15	
2025-01-19 09:04:52.33	333.32	44.19	
2025-01-19 09:04:52.53	333.22	44.23	
2025-01-19 09:04:52.74	333.12	44.28	
2025-01-19 09:04:52.94	333.01	44.32	
2025-01-19 09:04:53.14	332.91	44.36	
2025-01-19 09:04:53.34	332.81	44.40	
2025-01-19 09:04:53.55	332.70	44.45	
2025-01-19 09:04:53.75	332.60	44.49	
2025-01-19 09:04:53.95	332.50	44.53	
2025-01-19 09:04:54.16	332.39	44.57	
2025-01-19 09:04:54.36	332.29	44.61	
2025-01-19 09:04:54.56	332.19	44.66	
2025-01-19 09:04:54.77	332.08	44.70	
2025-01-19 09:04:54.97	331.97	44.74	
2025-01-19 09:04:55.17	331.87	44.78	
2025-01-19 09:04:55.38	331.76	44.83	
2025-01-19 09:04:55.58	331.65	44.87	
2025-01-19 09:04:55.78	331.55	44.91	
2025-01-19 09:04:55.98	331.44	44.95	
2025-01-19 09:04:56.19	331.33	44.99	
2025-01-19 09:04:56.39	331.23	45.03	
2025-01-19 09:04:56.59	331.12	45.07	
2025-01-19 09:04:56.80	331.01	45.12	
2025-01-19 09:04:57.00	330.90	45.16	
2025-01-19 09:04:57.20	330.80	45.20	
2025-01-19 09:04:57.41	330.68	45.24	
2025-01-19 09:04:57.61	330.58	45.28	
2025-01-19 09:04:57.81	330.47	45.32	
2025-01-19 09:04:58.02	330.36	45.36	
2025-01-19 09:04:58.22	330.25	45.41	
2025-01-19 09:04:58.42	330.14	45.45	
2025-01-19 09:04:58.62	330.03	45.49	
2025-01-19 09:04:58.83	329.91	45.53	
2025-01-19 09:04:59.03	329.81	45.57	
2025-01-19 09:04:59.23	329.70	45.61	
2025-01-19 09:04:59.44	329.58	45.65	
2025-01-19 09:04:59.64	329.47	45.69	
2025-01-19 09:04:59.84	329.36	45.73	
2025-01-19 09:05:00.05	329.24	45.77	
2025-01-19 09:05:00.25	329.13	45.81	
2025-01-19 09:05:00.45	329.02	45.85	
2025-01-19 09:05:00.66	328.90	45.89	
2025-01-19 09:05:00.86	328.79	45.93	
2025-01-19 09:05:01.06	328.68	45.97	
2025-01-19 09:05:01.26	328.57	46.01	
2025-01-19 09:05:01.47	328.45	46.05	
2025-01-19 09:05:01.67	328.33	46.09	
2025-01-19 09:05:01.87	328.22	46.13	
2025-01-19 09:05:02.08	328.10	46.17	
2025-01-19 09:05:02.28	327.99	46.21	
2025-01-19 09:05:02.48	327.87	46.25	
2025-01-19 09:05:02.69	327.75	46.29	
2025-01-19 09:05:02.89	327.64	46.33	
2025-01-19 09:05:03.09	327.52	46.36	
2025-01-19 09:05:03.30	327.40	46.40	
2025-01-19 09:05:03.50	327.28	46.44	
2025-01-19 09:05:03.70	327.17	46.48	
2025-01-19 09:05:03.90	327.05	46.52	
2025-01-19 09:05:04.11	326.93	46.56	
2025-01-19 09:05:04.31	326.81	46.60	
2025-01-19 09:05:04.51	326.69	46.63	
2025-01-19 09:05:04.72	326.57	46.67	
2025-01-19 09:05:04.92	326.45	46.71	
2025-01-19 09:05:05.12	326.33	46.75	
2025-01-19 09:05:05.33	326.21	46.79	
2025-01-19 09:05:05.53	326.09	46.83	
2025-01-19 09:05:05.73	325.97	46.86	
2025-01-19 09:05:05.94	325.85	46.90	
2025-01-19 09:05:06.14	325.73	46.94	
2025-01-19 09:05:06.34	325.61	46.98	
2025-01-19 09:05:06.54	325.49	47.01	
2025-01-19 09:05:06.75	325.36	47.05	
2025-01-19 09:05:06.95	325.24	47.09	
2025-01-19 09:05:07.15	325.12	47.12	
2025-01-19 09:05:07.36	324.99	47.16	
2025-01-19 09:05:07.56	324.87	47.20	
2025-01-19 09:05:07.76	324.75	47.23	
2025-01-19 09:05:07.97	324.62	47.27	
2025-01-19 09:05:08.17	324.50	47.31	
2025-01-19 09:05:08.37	324.37	47.34	
2025-01-19 09:05:08.58	324.24	47.38	
2025-01-19 09:05:08.78	324.12	47.42	
2025-01-19 09:05:08.98	324.00	47.45	
2025-01-19 09:05:09.18	323.87	47.49	
2025-01-19 09:05:09.39	323.74	47.53	
2025-01-19 09:05:09.59	323.62	47.56	
2025-01-19 09:05:09.79	323.49	47.60	
2025-01-19 09:05:10.00	323.36	47.63	
2025-01-19 09:05:10.20	323.24	47.67	
2025-01-19 09:05:10.40	323.11	47.70	
2025-01-19 09:05:10.61	322.98	47.74	
2025-01-19 09:05:10.81	322.85	47.77	
2025-01-19 09:05:11.01	322.72	47.81	
2025-01-19 09:05:11.22	322.59	47.84	
2025-01-19 09:05:11.42	322.46	47.88	
2025-01-19 09:05:11.62	322.34	47.91	
2025-01-19 09:05:11.82	322.21	47.94	
2025-01-19 09:05:12.03	322.07	47.98	
2025-01-19 09:05:12.23	321.94	48.01	
2025-01-19 09:05:12.43	321.82	48.05	
2025-01-19 09:05:12.64	321.68	48.08	
2025-01-19 09:05:12.84	321.55	48.11	
2025-01-19 09:05:13.04	321.42	48.15	
2025-01-19 09:05:13.25	321.29	48.18	
2025-01-19 09:05:13.45	321.16	48.21	
2025-01-19 09:05:13.65	321.03	48.25	
2025-01-19 09:05:13.86	320.89	48.28	
2025-01-19 09:05:14.06	320.76	48.31	
2025-01-19 09:05:14.26	320.63	48.34	
2025-01-19 09:05:14.46	320.49	48.38	
2025-01-19 09:05:14.67	320.36	48.41	
2025-01-19 09:05:14.87	320.22	48.44	
2025-01-19 09:05:15.07	320.09	48.47	
2025-01-19 09:05:15.28	319.95	48.51	
2025-01-19 09:05:15.48	319.82	48.54	
2025-01-19 09:05:15.68	319.69	48.57	
2025-01-19 09:05:15.89	319.55	48.60	
2025-01-19 09:05:16.09	319.41	48.63	
2025-01-19 09:05:16.29	319.28	48.66	
2025-01-19 09:05:16.50	319.14	48.70	
2025-01-19 09:05:16.70	319.00	48.73	
2025-01-19 09:05:16.90	318.87	48.76	
2025-01-19 09:05:17.10	318.73	48.79	
2025-01-19 09:05:17.31	318.59	48.82	
2025-01-19 09:05:17.51	318.45	48.85	
2025-01-19 09:05:17.71	318.32	48.88	
2025-01-19 09:05:17.92	318.18	48.91	
2025-01-19 09:05:18.12	318.04	48.94	
2025-01-19 09:05:18.32	317.90	48.97	
2025-01-19 09:05:18.53	317.76	49.00	
2025-01-19 09:05:18.73	317.62	49.03	
2025-01-19 09:05:18.93	317.48	49.06	
2025-01-19 09:05:19.14	317.34	49.09	
2025-01-19 09:05:19.34	317.20	49.11	
2025-01-19 09:05:19.54	317.06	49.14	
2025-01-19 09:05:19.74	316.92	49.17	
2025-01-19 09:05:19.95	316.78	49.20	
2025-01-19 09:05:20.15	316.64	49.23	
2025-01-19 09:05:20.35	316.50	49.25	
2025-01-19 09:05:20.56	316.35	49.28	
2025-01-19 09:05:20.76	316.21	49.31	
2025-01-19 09:05:20.96	316.07	49.34	
2025-01-19 09:05:21.17	315.92	49.37	
2025-01-19 09:05:21.37	315.78	49.39	
2025-01-19 09:05:21.57	315.64	49.42	
2025-01-19 09:05:21.78	315.49	49.45	
2025-01-19 09:05:21.98	315.35	49.47	
2025-01-19 09:05:22.18	315.21	49.50	
2025-01-19 09:05:22.38	315.07	49.53	
2025-01-19 09:05:22.59	314.92	49.55	
2025-01-19 09:05:22.79	314.78	49.58	
2025-01-19 09:05:22.99	314.64	49.60	
2025-01-19 09:05:23.20	314.49	49.63	
2025-01-19 09:05:23.40	314.34	49.65	
2025-01-19 09:05:23.60	314.20	49.68	
2025-01-19 09:05:23.81	314.05	49.71	
2025-01-19 09:05:24.01	313.90	49.73	
2025-01-19 09:05:24.21	313.76	49.75	
2025-01-19 09:05:24.42	313.61	49.78	
2025-01-19 09:05:24.62	313.46	49.80	
2025-01-19 09:05:24.82	313.32	49.83	
2025-01-19 09:05:25.02	313.17	49.85	
2025-01-19 09:05:25.23	313.02	49.88	
2025-01-19 09:05:25.43	312.88	49.90	
2025-01-19 09:05:25.63	312.73	49.92	
2025-01-19 09:05:25.84	312.58	49.95	
2025-01-19 09:05:26.04	312.43	49.97	
2025-01-19 09:05:26.24	312.28	49.99	
2025-01-19 09:05:26.45	312.13	50.01	
2025-01-19 09:05:26.65	311.98	50.04	
2025-01-19 09:05:26.85	311.84	50.06	
2025-01-19 09:05:27.06	311.68	50.08	
2025-01-19 09:05:27.26	311.53	50.10	
2025-01-19 09:05:27.46	311.39	50.12	
2025-01-19 09:05:27.66	311.24	50.15	
2025-01-19 09:05:27.87	311.08	50.17	
2025-01-19 09:05:28.07	310.93	50.19	
2025-01-19 09:05:28.27	310.78	50.21	
2025-01-19 09:05:28.48	310.63	50.23	
2025-01-19 09:05:28.68	310.48	50.25	
2025-01-19 09:05:28.88	310.33	50.27	
2025-01-19 09:05:29.09	310.17	50.29	
2025-01-19 09:05:29.29	310.02	50.31	
2025-01-19 09:05:29.49	309.87	50.33	
2025-01-19 09:05:29.70	309.72	50.35	
2025-01-19 09:05:29.90	309.57	50.37	
2025-01-19 09:05:30.10	309.42	50.39	
2025-01-19 09:05:30.30	309.26	50.41	
2025-01-19 09:05:30.51	309.11	50.43	
2025-01-19 09:05:30.71	308.96	50.44	
2025-01-19 09:05:30.91	308.80	50.46	
2025-01-19 09:05:31.12	308.65	50.48	
2025-01-19 09:05:31.32	308.49	50.50	
2025-01-19 09:05:31.52	308.34	50.51	
2025-01-19 09:05:31.73	308.18	50.53	
2025-01-19 09:05:31.93	308.03	50.55	
2025-01-19 09:05:32.13	307.88	50.57	
2025-01-19 09:05:32.34	307.72	50.58	
2025-01-19 09:05:32.54	307.57	50.60	
2025-01-19 09:05:32.74	307.41	50.62	
2025-01-19 09:05:32.94	307.26	50.63	
2025-01-19 09:05:33.15	307.10	50.65	
2025-01-19 09:05:33.35	306.95	50.66	
2025-01-19 09:05:33.55	306.79	50.68	
2025-01-19 09:05:33.76	306.63	50.69	
2025-01-19 09:05:33.96	306.48	50.71	
2025-01-19 09:05:34.16	306.32	50.72	
2025-01-19 09:05:34.37	306.16	50.74	
2025-01-19 09:05:34.57	306.01	50.75	
2025-01-19 09:05:34.77	305.85	50.77	
2025-01-19 09:05:34.98	305.69	50.78	
2025-01-19 09:05:35.18	305.54	50.80	
2025-01-19 09:05:35.38	305.38	50.81	
2025-01-19 09:05:35.58	305.23	50.82	
2025-01-19 09:05:35.79	305.06	50.83	
2025-01-19 09:05:35.99	304.91	50.85	
2025-01-19 09:05:36.19	304.75	50.86	
2025-01-19 09:05:36.40	304.59	50.87	
2025-01-19 09:05:36.60	304.43	50.88	
2025-01-19 09:05:36.80	304.28	50.90	
2025-01-19 09:05:37.01	304.12	50.91	
2025-01-19 09:05:37.21	303.96	50.92	
2025-01-19 09:05:37.41	303.80	50.93	
2025-01-19 09:05:37.62	303.64	50.94	
2025-01-19 09:05:37.82	303.48	50.95	
2025-01-19 09:05:38.02	303.33	50.96	
2025-01-19 09:05:38.22	303.17	50.97	
2025-01-19 09:05:38.43	303.01	50.98	
2025-01-19 09:05:38.63	302.85	50.99	
2025-01-19 09:05:38.83	302.69	51.00	
2025-01-19 09:05:39.04	302.53	51.01	
2025-01-19 09:05:39.24	302.37	51.02	
2025-01-19 09:05:39.44	302.21	51.03	
2025-01-19 09:05:39.65	302.05	51.04	
2025-01-19 09:05:39.85	301.89	51.05	
2025-01-19 09:05:40.05	301.73	51.06	
2025-01-19 09:05:40.26	301.57	51.06	
2025-01-19 09:05:40.46	301.41	51.07	
2025-01-19 09:05:40.66	301.25	51.08	
2025-01-19 09:05:40.86	301.09	51.09	
2025-01-19 09:05:41.07	300.93	51.09	
2025-01-19 09:05:41.27	300.77	51.10	
2025-01-19 09:05:41.47	300.61	51.11	
2025-01-19 09:05:41.68	300.45	51.11	
2025-01-19 09:05:41.88	300.29	51.12	
2025-01-19 09:05:42.08	300.13	51.13	
2025-01-19 09:05:42.29	299.96	51.13	
2025-01-19 09:05:42.49	299.81	51.14	
2025-01-19 09:05:42.69	299.65	51.14	
2025-01-19 09:05:42.90	299.48	51.15	
2025-01-19 09:05:43.10	299.32	51.15	
2025-01-19 09:05:43.30	299.16	51.16	
2025-01-19 09:05:43.50	299.01	51.16	
2025-01-19 09:05:43.71	298.84	51.17	
2025-01-19 09:05:43.91	298.68	51.17	
2025-01-19 09:05:44.11	298.52	51.17	
2025-01-19 09:05:44.32	298.35	51.18	
2025-01-19 09:05:44.52	298.20	51.18	
2025-01-19 09:05:44.72	298.04	51.18	
2025-01-19 09:05:44.93	297.87	51.18	
2025-01-19 09:05:45.13	297.71	51.19	
2025-01-19 09:05:45.33	297.55	51.19	
2025-01-19 09:05:45.54	297.39	51.19	
2025-01-19 09:05:45.74	297.23	51.19	
2025-01-19 09:05:45.94	297.07	51.19	
2025-01-19 09:05:46.14	296.91	51.20	
2025-01-19 09:05:46.35	296.74	51.20	
2025-01-19 09:05:46.55	296.58	51.20	
2025-01-19 09:05:46.75	296.42	51.20	
2025-01-19 09:05:46.96	296.26	51.20	
2025-01-19 09:05:47.16	296.10	51.20	
2025-01-19 09:05:47.36	295.94	51.20	
2025-01-19 09:05:47.57	295.77	51.20	
2025-01-19 09:05:47.77	295.61	51.20	
2025-01-19 09:05:47.97	295.45	51.20	
2025-01-19 09:05:48.18	295.29	51.19	
2025-01-19 09:05:48.38	295.13	51.19	
2025-01-19 09:05:48.58	294.97	51.19	
2025-01-19 09:05:48.78	294.81	51.19	
2025-01-19 09:05:48.99	294.64	51.19	
2025-01-19 09:05:49.19	294.48	51.19	
2025-01-19 09:05:49.39	294.32	51.18	
2025-01-19 09:05:49.60	294.16	51.18	
2025-01-19 09:05:49.80	294.00	51.18	
2025-01-19 09:05:50.00	293.84	51.17	
2025-01-19 09:05:50.21	293.67	51.17	
2025-01-19 09:05:50.41	293.51	51.17	
2025-01-19 09:05:50.61	293.36	51.16	
2025-01-19 09:05:50.82	293.19	51.16	
2025-01-19 09:05:51.02	293.03	51.15	
2025-01-19 09:05:51.22	292.87	51.15	
2025-01-19 09:05:51.42	292.71	51.14	
2025-01-19 09:05:51.63	292.55	51.14	
2025-01-19 09:05:51.83	292.39	51.13	
2025-01-19 09:05:52.03	292.23	51.13	
2025-01-19 09:05:52.24	292.06	51.12	
2025-01-19 09:05:52.44	291.91	51.12	
2025-01-19 09:05:52.64	291.75	51.11	
2025-01-19 09:05:52.85	291.58	51.10	
2025-01-19 09:05:53.05	291.42	51.10	
2025-01-19 09:05:53.25	291.27	51.09	
2025-01-19 09:05:53.46	291.10	51.08	
2025-01-19 09:05:53.66	290.94	51.08	
2025-01-19 09:05:53.86	290.79	51.07	
2025-01-19 09:05:54.06	290.63	51.06	
2025-01-19 09:05:54.27	290.46	51.05	
2025-01-19 09:05:54.47	290.30	51.04	
2025-01-19 09:05:54.67	290.15	51.03	
2025-01-19 09:05:54.88	289.98	51.03	
2025-01-19 09:05:55.08	289.83	51.02	
2025-01-19 09:05:55.28	289.67	51.01	
2025-01-19 09:05:55.49	289.50	51.00	
2025-01-19 09:05:55.69	289.35	50.99	
2025-01-19 09:05:55.89	289.19	50.98	
2025-01-19 09:05:56.10	289.02	50.97	
2025-01-19 09:05:56.30	288.87	50.96	
2025-01-19 09:05:56.50	288.71	50.95	
2025-01-19 09:05:56.70	288.56	50.94	
2025-01-19 09:05:56.91	288.39	50.92	
2025-01-19 09:05:57.11	288.24	50.91	
2025-01-19 09:05:57.31	288.08	50.90	
2025-01-19 09:05:57.52	287.92	50.89	
2025-01-19 09:05:57.72	287.76	50.88	
2025-01-19 09:05:57.92	287.60	50.87	
2025-01-19 09:05:58.13	287.44	50.85	
2025-01-19 09:05:58.33	287.29	50.84	
2025-01-19 09:05:58.53	287.13	50.83	
2025-01-19 09:05:58.74	286.97	50.81	
2025-01-19 09:05:58.94	286.81	50.80	
2025-01-19 09:05:59.14	286.66	50.79	
2025-01-19 09:05:59.34	286.50	50.77	
2025-01-19 09:05:59.55	286.34	50.76	
2025-01-19 09:05:59.75	286.19	50.74	
2025-01-19 09:05:59.95	286.03	50.73	
2025-01-19 09:06:00.16	285.87	50.71	
2025-01-19 09:06:00.36	285.72	50.70	
2025-01-19 09:06:00.56	285.56	50.69	
2025-01-19 09:06:00.77	285.40	50.67	
2025-01-19 09:06:00.97	285.25	50.65	
2025-01-19 09:06:01.17	285.10	50.64	
2025-01-19 09:06:01.38	284.93	50.62	
2025-01-19 09:06:01.58	284.78	50.61	
2025-01-19 09:06:01.78	284.63	50.59	
2025-01-19 09:06:01.98	284.48	50.57	
2025-01-19 09:06:02.19	284.32	50.56	
2025-01-19 09:06:02.39	284.16	50.54	
2025-01-19 09:06:02.59	284.01	50.52	
2025-01-19 09:06:02.80	283.85	50.50	
2025-01-19 09:06:03.00	283.70	50.49	
2025-01-19 09:06:03.20	283.55	50.47	
2025-01-19 09:06:03.41	283.39	50.45	
2025-01-19 09:06:03.61	283.24	50.43	
2025-01-19 09:06:03.81	283.09	50.41	
2025-01-19 09:06:04.02	282.93	50.39	
2025-01-19 09:06:04.22	282.78	50.38	
2025-01-19 09:06:04.42	282.63	50.36	
2025-01-19 09:06:04.63	282.47	50.34	
2025-01-19 09:06:04.83	282.32	50.32	
2025-01-19 09:06:05.03	282.17	50.30	
2025-01-19 09:06:05.23	282.02	50.28	
2025-01-19 09:06:05.44	281.86	50.26	
2025-01-19 09:06:05.64	281.71	50.24	
2025-01-19 09:06:05.84	281.57	50.22	
2025-01-19 09:06:06.05	281.41	50.20	
2025-01-19 09:06:06.25	281.26	50.17	
2025-01-19 09:06:06.45	281.11	50.15	
2025-01-19 09:06:06.66	280.96	50.13	
2025-01-19 09:06:06.86	280.81	50.11	
2025-01-19 09:06:07.06	280.66	50.09	
2025-01-19 09:06:07.27	280.51	50.07	
2025-01-19 09:06:07.47	280.36	50.04	
2025-01-19 09:06:07.67	280.21	50.02	
2025-01-19 09:06:07.87	280.06	50.00	
2025-01-19 09:06:08.08	279.91	49.98	
2025-01-19 09:06:08.28	279.76	49.95	
2025-01-19 09:06:08.48	279.62	49.93	
2025-01-19 09:06:08.69	279.46	49.91	
2025-01-19 09:06:08.89	279.32	49.88	
2025-01-19 09:06:09.09	279.17	49.86	
2025-01-19 09:06:09.30	279.02	49.84	
2025-01-19 09:06:09.50	278.88	49.81	
2025-01-19 09:06:09.70	278.73	49.79	
2025-01-19 09:06:09.91	278.58	49.76	
2025-01-19 09:06:10.11	278.43	49.74	
2025-01-19 09:06:10.31	278.29	49.71	
2025-01-19 09:06:10.51	278.15	49.69	
2025-01-19 09:06:10.72	278.00	49.66	
2025-01-19 09:06:10.92	277.85	49.64	
2025-01-19 09:06:11.12	277.71	49.61	
2025-01-19 09:06:11.33	277.56	49.59	
2025-01-19 09:06:11.53	277.42	49.56	
2025-01-19 09:06:11.73	277.27	49.53	
2025-01-19 09:06:11.94	277.12	49.51	
2025-01-19 09:06:12.14	276.98	49.48	
2025-01-19 09:06:12.34	276.84	49.46	
2025-01-19 09:06:12.55	276.69	49.43	
2025-01-19 09:06:12.75	276.55	49.40	
2025-01-19 09:06:12.95	276.41	49.37	
2025-01-19 09:06:13.15	276.27	49.35	
2025-01-19 09:06:13.36	276.12	49.32	
2025-01-19 09:06:13.56	275.98	49.29	
2025-01-19 09:06:13.76	275.84	49.26	
2025-01-19 09:06:13.97	275.69	49.24	
2025-01-19 09:06:14.17	275.55	49.21	
2025-01-19 09:06:14.37	275.42	49.18	
2025-01-19 09:06:14.58	275.27	49.15	
2025-01-19 09:06:14.78	275.13	49.12	
2025-01-19 09:06:14.98	274.99	49.09	
2025-01-19 09:06:15.19	274.85	49.06	
2025-01-19 09:06:15.39	274.71	49.03	
2025-01-19 09:06:15.59	274.57	49.01	
2025-01-19 09:06:15.79	274.43	48.98	
2025-01-19 09:06:16.00	274.29	48.95	
2025-01-19 09:06:16.20	274.15	48.92	
2025-01-19 09:06:16.40	274.02	48.89	
2025-01-19 09:06:16.61	273.87	48.86	
2025-01-19 09:06:16.81	273.74	48.83	
2025-01-19 09:06:17.01	273.60	48.80	
2025-01-19 09:06:17.22	273.46	48.76	
2025-01-19 09:06:17.42	273.33	48.73	
2025-01-19 09:06:17.62	273.19	48.70	
2025-01-19 09:06:17.83	273.05	48.67	
2025-01-19 09:06:18.03	272.91	48.64	
2025-01-19 09:06:18.23	272.78	48.61	
2025-01-19 09:06:18.43	272.65	48.58	
2025-01-19 09:06:18.64	272.51	48.55	
2025-01-19 09:06:18.84	272.37	48.52	
2025-01-19 09:06:19.04	272.24	48.48	
2025-01-19 09:06:19.25	272.10	48.45	
2025-01-19 09:06:19.45	271.97	48.42	
2025-01-19 09:06:19.65	271.84	48.39	
2025-01-19 09:06:19.86	271.70	48.35	
2025-01-19 09:06:20.06	271.57	48.32	
2025-01-19 09:06:20.26	271.44	48.29	
2025-01-19 09:06:20.47	271.30	48.25	
2025-01-19 09:06:20.67	271.17	48.22	
2025-01-19 09:06:20.87	271.04	48.19	
2025-01-19 09:06:21.07	270.91	48.16	
2025-01-19 09:06:21.28	270.77	48.12	
2025-01-19 09:06:21.48	270.64	48.09	
2025-01-19 09:06:21.68	270.51	48.06	
2025-01-19 09:06:21.89	270.38	48.02	
2025-01-19 09:06:22.09	270.25	47.99	
2025-01-19 09:06:22.29	270.12	47.95	
2025-01-19 09:06:22.50	269.98	47.92	
2025-01-19 09:06:22.70	269.86	47.88	
2025-01-19 09:06:22.90	269.73	47.85	
2025-01-19 09:06:23.11	269.59	47.81	
2025-01-19 09:06:23.31	269.47	47.78	
2025-01-19 09:06:23.51	269.34	47.75	
2025-01-19 09:06:23.71	269.21	47.71	
2025-01-19 09:06:23.92	269.08	47.67	
2025-01-19 09:06:24.12	268.96	47.64	
2025-01-19 09:06:24.32	268.83	47.60	
2025-01-19 09:06:24.53	268.70	47.57	
2025-01-19 09:06:24.73	268.57	47.53	
2025-01-19 09:06:24.93	268.45	47.50	
2025-01-19 09:06:25.14	268.32	47.46	
2025-01-19 09:06:25.34	268.20	47.42	
2025-01-19 09:06:25.54	268.07	47.39	
2025-01-19 09:06:25.75	267.94	47.35	
2025-01-19 09:06:25.95	267.82	47.32	
2025-01-19 09:06:26.15	267.70	47.28	
2025-01-19 09:06:26.35	267.57	47.24	
2025-01-19 09:06:26.56	267.44	47.21	
2025-01-19 09:06:26.76	267.32	47.17	
2025-01-19 09:06:26.96	267.20	47.13	
2025-01-19 09:06:27.17	267.07	47.09	
2025-01-19 09:06:27.37	266.95	47.06	
2025-01-19 09:06:27.57	266.83	47.02	
2025-01-19 09:06:27.78	266.70	46.98	
2025-01-19 09:06:27.98	266.58	46.95	
2025-01-19 09:06:28.18	266.46	46.91	
2025-01-19 09:06:28.39	266.34	46.87	
2025-01-19 09:06:28.59	266.22	46.83	
2025-01-19 09:06:28.79	266.10	46.80	
2025-01-19 09:06:28.99	265.98	46.76	
2025-01-19 09:06:29.20	265.86	46.72	
2025-01-19 09:06:29.40	265.74	46.68	
2025-01-19 09:06:29.60	265.62	46.64	
2025-01-19 09:06:29.81	265.50	46.60	
2025-01-19 09:06:30.01	265.38	46.57	
2025-01-19 09:06:30.21	265.26	46.53	
2025-01-19 09:06:30.42	265.14	46.49	
2025-01-19 09:06:30.62	265.02	46.45	
2025-01-19 09:06:30.82	264.91	46.41	
2025-01-19 09:06:31.03	264.79	46.37	
2025-01-19 09:06:31.23	264.67	46.33	
2025-01-19 09:06:31.43	264.55	46.29	
2025-01-19 09:06:31.63	264.44	46.25	
2025-01-19 09:06:31.84	264.32	46.21	
2025-01-19 09:06:32.04	264.20	46.18	
2025-01-19 09:06:32.24	264.09	46.14	
2025-01-19 09:06:32.45	263.97	46.10	
2025-01-19 09:06:32.65	263.86	46.06	
2025-01-19 09:06:32.85	263.74	46.02	
2025-01-19 09:06:33.06	263.62	45.98	
2025-01-19 09:06:33.26	263.51	45.94	
2025-01-19 09:06:33.46	263.40	45.90	
2025-01-19 09:06:33.67	263.28	45.86	
2025-01-19 09:06:33.87	263.17	45.82	
2025-01-19 09:06:34.07	263.06	45.78	
2025-01-19 09:06:34.27	262.95	45.74	
2025-01-19 09:06:34.48	262.83	45.69	
2025-01-19 09:06:34.68	262.72	45.65	
2025-01-19 09:06:34.88	262.61	45.61	
2025-01-19 09:06:35.09	262.49	45.57	
2025-01-19 09:06:35.29	262.38	45.53	
2025-01-19 09:06:35.49	262.27	45.49	
2025-01-19 09:06:35.70	262.16	45.45	
2025-01-19 09:06:35.90	262.05	45.41	
2025-01-19 09:06:36.10	261.94	45.37	
2025-01-19 09:06:36.31	261.83	45.33	
2025-01-19 09:06:36.51	261.72	45.29	
2025-01-19 09:06:36.71	261.61	45.24	
2025-01-19 09:06:36.91	261.51	45.20	
2025-01-19 09:06:37.12	261.39	45.16	
2025-01-19 09:06:37.32	261.29	45.12	
2025-01-19 09:06:37.52	261.18	45.08	
2025-01-19 09:06:37.73	261.07	45.04	
2025-01-19 09:06:37.93	260.96	45.00	
2025-01-19 09:06:38.13	260.86	44.95	
2025-01-19 09:06:38.34	260.74	44.91	
2025-01-19 09:06:38.54	260.64	44.87	
2025-01-19 09:06:38.74	260.53	44.83	
2025-01-19 09:06:38.95	260.42	44.79	
2025-01-19 09:06:39.15	260.32	44.74	
2025-01-19 09:06:39.35	260.22	44.70	
2025-01-19 09:06:39.55	260.11	44.66	
2025-01-19 09:06:39.76	260.00	44.62	
2025-01-19 09:06:39.96	259.90	44.58	
2025-01-19 09:06:40.16	259.80	44.53	
2025-01-19 09:06:40.37	259.69	44.49	
2025-01-19 09:06:40.57	259.59	44.45	
2025-01-19 09:06:40.77	259.48	44.41	
2025-01-19 09:06:40.98	259.38	44.36	
2025-01-19 09:06:41.18	259.28	44.32	
2025-01-19 09:06:41.38	259.17	44.28	
2025-01-19 09:06:41.59	259.07	44.23	
2025-01-19 09:06:41.79	258.97	44.19	
2025-01-19 09:06:41.99	258.87	44.15	
2025-01-19 09:06:42.19	258.77	44.11	
2025-01-19 09:06:42.40	258.66	44.06	
2025-01-19 09:06:42.60	258.56	44.02	
2025-01-19 09:06:42.80	258.46	43.98	
2025-01-19 09:06:43.01	258.36	43.93	
2025-01-19 09:06:43.21	258.26	43.89	
2025-01-19 09:06:43.41	258.16	43.85	
2025-01-19 09:06:43.62	258.06	43.80	
2025-01-19 09:06:43.82	257.96	43.76	
2025-01-19 09:06:44.02	257.86	43.72	
2025-01-19 09:06:44.23	257.76	43.67	
2025-01-19 09:06:44.43	257.66	43.63	
2025-01-19 09:06:44.63	257.56	43.59	
2025-01-19 09:06:44.83	257.47	43.54	
2025-01-19 09:06:45.04	257.37	43.50	
2025-01-19 09:06:45.24	257.27	43.46	
2025-01-19 09:06:45.44	257.17	43.41	
2025-01-19 09:06:45.65	257.07	43.37	
2025-01-19 09:06:45.85	256.98	43.33	
2025-01-19 09:06:46.05	256.88	43.28	
2025-01-19 09:06:46.26	256.78	43.24	
2025-01-19 09:06:46.46	256.69	43.19	
2025-01-19 09:06:46.66	256.60	43.15	
2025-01-19 09:06:46.87	256.50	43.11	
2025-01-19 09:06:47.07	256.40	43.06	
2025-01-19 09:06:47.27	256.31	43.02	
2025-01-19 09:06:47.47	256.22	42.98	
2025-01-19 09:06:47.68	256.12	42.93	
2025-01-19 09:06:47.88	256.03	42.89	
2025-01-19 09:06:48.08	255.93	42.84	
2025-01-19 09:06:48.29	255.84	42.80	
2025-01-19 09:06:48.49	255.74	42.75	
2025-01-19 09:06:48.69	255.65	42.71	
2025-01-19 09:06:48.90	255.56	42.66	
2025-01-19 09:06:49.10	255.47	42.62	
2025-01-19 09:06:49.30	255.37	42.58	
2025-01-19 09:06:49.51	255.28	42.53	
2025-01-19 09:06:49.71	255.19	42.49	
2025-01-19 09:06:49.91	255.10	42.44	
2025-01-19 09:06:50.11	255.01	42.40	
2025-01-19 09:06:50.32	254.91	42.35	
2025-01-19 09:06:50.52	254.82	42.31	
2025-01-19 09:06:50.72	254.74	42.27	
2025-01-19 09:06:50.93	254.64	42.22	
2025-01-19 09:06:51.13	254.55	42.18	
2025-01-19 09:06:51.33	254.46	42.13	
2025-01-19 09:06:51.54	254.37	42.09	
2025-01-19 09:06:51.74	254.28	42.04	
2025-01-19 09:06:51.94	254.20	42.00	
2025-01-19 09:06:52.15	254.10	41.95	
2025-01-19 09:06:52.35	254.02	41.91	
2025-01-19 09:06:52.55	253.93	41.87	
2025-01-19 09:06:52.75	253.84	41.82	
2025-01-19 09:06:52.96	253.75	41.78	
2025-01-19 09:06:53.16	253.67	41.73	
2025-01-19 09:06:53.36	253.58	41.69	
2025-01-19 09:06:53.57	253.49	41.64	
2025-01-19 09:06:53.77	253.41	41.60	
2025-01-19 09:06:53.97	253.32	41.55	
2025-01-19 09:06:54.18	253.23	41.51	
2025-01-19 09:06:54.38	253.15	41.46	
2025-01-19 09:06:54.58	253.06	41.42	
2025-01-19 09:06:54.79	252.97	41.37	
2025-01-19 09:06:54.99	252.89	41.33	
2025-01-19 09:06:55.19	252.81	41.28	
2025-01-19 09:06:55.39	252.72	41.24	
2025-01-19 09:06:55.60	252.63	41.19	
2025-01-19 09:06:55.80	252.55	41.15	
2025-01-19 09:06:56.00	252.47	41.10	
2025-01-19 09:06:56.21	252.38	41.06	
2025-01-19 09:06:56.41	252.30	41.01	
2025-01-19 09:06:56.61	252.22	40.97	
2025-01-19 09:06:56.82	252.13	40.92	
2025-01-19 09:06:57.02	252.05	40.88	
2025-01-19 09:06:57.22	251.97	40.83	
2025-01-19 09:06:57.43	251.88	40.79	
2025-01-19 09:06:57.63	251.80	40.74	
2025-01-19 09:06:57.83	251.72	40.70	
2025-01-19 09:06:58.03	251.64	40.66	
2025-01-19 09:06:58.24	251.56	40.61	
2025-01-19 09:06:58.44	251.48	40.56	
2025-01-19 09:06:58.64	251.40	40.52	
2025-01-19 09:06:58.85	251.31	40.47	
2025-01-19 09:06:59.05	251.23	40.43	
2025-01-19 09:06:59.25	251.15	40.38	
2025-01-19 09:06:59.46	251.07	40.34	
2025-01-19 09:06:59.66	250.99	40.29	
2025-01-19 09:06:59.86	250.91	40.25	
2025-01-19 09:07:00.07	250.83	40.20	
2025-01-19 09:07:00.27	250.75	40.16	
2025-01-19 09:07:00.47	250.67	40.11	
2025-01-19 09:07:00.67	250.60	40.07	
2025-01-19 09:07:00.88	250.52	40.02	
2025-01-19 09:07:01.08	250.44	39.98	
2025-01-19 09:07:01.28	250.36	39.93	
2025-01-19 09:07:01.49	250.28	39.89	
2025-01-19 09:07:01.69	250.20	39.84	
2025-01-19 09:07:01.89	250.13	39.80	
2025-01-19 09:07:02.10	250.05	39.75	
2025-01-19 09:07:02.30	249.97	39.71	
2025-01-19 09:07:02.50	249.90	39.66	
2025-01-19 09:07:02.71	249.82	39.62	
2025-01-19 09:07:02.91	249.74	39.57	
2025-01-19 09:07:03.11	249.67	39.53	
2025-01-19 09:07:03.31	249.59	39.48	
2025-01-19 09:07:03.52	249.51	39.44	
2025-01-19 09:07:03.72	249.44	39.39	
2025-01-19 09:07:03.92	249.37	39.35	
2025-01-19 09:07:04.13	249.29	39.30	
2025-01-19 09:07:04.33	249.21	39.26	
2025-01-19 09:07:04.53	249.14	39.21	
2025-01-19 09:07:04.74	249.06	39.17	
2025-01-19 09:07:04.94	248.99	39.12	
2025-01-19 09:07:05.14	248.92	39.08	
2025-01-19 09:07:05.35	248.84	39.03	
2025-01-19 09:07:05.55	248.77	38.99	
2025-01-19 09:07:05.75	248.70	38.94	
2025-01-19 09:07:05.95	248.62	38.90	
2025-01-19 09:07:06.16	248.55	38.85	
2025-01-19 09:07:06.36	248.48	38.81	
2025-01-19 09:07:06.56	248.41	38.77	
2025-01-19 09:07:06.77	248.33	38.72	
2025-01-19 09:07:06.97	248.26	38.67	
2025-01-19 09:07:07.17	248.19	38.63	
2025-01-19 09:07:07.38	248.11	38.58	
2025-01-19 09:07:07.58	248.04	38.54	
2025-01-19 09:07:07.78	247.97	38.50	
2025-01-19 09:07:07.99	247.90	38.45	
2025-01-19 09:07:08.19	247.83	38.41	
2025-01-19 09:07:08.39	247.76	38.36	
2025-01-19 09:07:08.59	247.69	38.32	
2025-01-19 09:07:08.80	247.62	38.27	
2025-01-19 09:07:09.00	247.55	38.23	
2025-01-19 09:07:09.20	247.48	38.18	
2025-01-19 09:07:09.41	247.41	38.14	
2025-01-19 09:07:09.61	247.34	38.09	
2025-01-19 09:07:09.81	247.27	38.05	
2025-01-19 09:07:10.02	247.20	38.00	
2025-01-19 09:07:10.22	247.13	37.96	
2025-01-19 09:07:10.42	247.06	37.91	
2025-01-19 09:07:10.63	246.99	37.87	
2025-01-19 09:07:10.83	246.93	37.82	
2025-01-19 09:07:11.03	246.86	37.78	
2025-01-19 09:07:11.23	246.79	37.74	
2025-01-19 09:07:11.44	246.72	37.69	
2025-01-19 09:07:11.64	246.65	37.65	
2025-01-19 09:07:11.84	246.59	37.60	
2025-01-19 09:07:12.05	246.52	37.56	
2025-01-19 09:07:12.25	246.45	37.51	
2025-01-19 09:07:12.45	246.39	37.47	
2025-01-19 09:07:12.66	246.32	37.42	
2025-01-19 09:07:12.86	246.25	37.38	
2025-01-19 09:07:13.06	246.19	37.34	
2025-01-19 09:07:13.27	246.12	37.29	
2025-01-19 09:07:13.47	246.05	37.25	
2025-01-19 09:07:13.67	245.99	37.20	
2025-01-19 09:07:13.87	245.92	37.16	
2025-01-19 09:07:14.08	245.86	37.11	
2025-01-19 09:07:14.28	245.79	37.07	
2025-01-19 09:07:14.48	245.73	37.03	
2025-01-19 09:07:14.69	245.66	36.98	
2025-01-19 09:07:14.89	245.60	36.94	
2025-01-19 09:07:15.09	245.53	36.89	
2025-01-19 09:07:15.30	245.47	36.85	
2025-01-19 09:07:15.50	245.40	36.80	
2025-01-19 09:07:15.70	245.34	36.76	
2025-01-19 09:07:15.91	245.27	36.72	
2025-01-19 09:07:16.11	245.21	36.67	
2025-01-19 09:07:16.31	245.15	36.63	
2025-01-19 09:07:16.51	245.09	36.58	
2025-01-19 09:07:16.72	245.02	36.54	
2025-01-19 09:07:16.92	244.96	36.50	
2025-01-19 09:07:17.12	244.90	36.45	
2025-01-19 09:07:17.33	244.83	36.41	
2025-01-19 09:07:17.53	244.77	36.36	
2025-01-19 09:07:17.73	244.71	36.32	
2025-01-19 09:07:17.94	244.65	36.28	
2025-01-19 09:07:18.14	244.58	36.23	
2025-01-19 09:07:18.34	244.52	36.19	
2025-01-19 09:07:18.55	244.46	36.14	
2025-01-19 09:07:18.75	244.40	36.10	
2025-01-19 09:07:18.95	244.34	36.06	
2025-01-19 09:07:19.15	244.28	36.01	
2025-01-19 09:07:19.36	244.22	35.97	
2025-01-19 09:07:19.56	244.16	35.93	
2025-01-19 09:07:19.76	244.10	35.88	
2025-01-19 09:07:19.97	244.03	35.84	
2025-01-19 09:07:20.17	243.98	35.80	
2025-01-19 09:07:20.37	243.92	35.75	
2025-01-19 09:07:20.58	243.85	35.71	
2025-01-19 09:07:20.78	243.80	35.66	
2025-01-19 09:07:20.98	243.74	35.62	
2025-01-19 09:07:21.19	243.68	35.58	
2025-01-19 09:07:21.39	243.62	35.53	
2025-01-19 09:07:21.59	243.56	35.49	
2025-01-19 09:07:21.79	243.50	35.45	
2025-01-19 09:07:22.00	243.44	35.40	
2025-01-19 09:07:22.20	243.38	35.36	
2025-01-19 09:07:22.40	243.32	35.32	
2025-01-19 09:07:22.61	243.26	35.27	
2025-01-19 09:07:22.81	243.21	35.23	
2025-01-19 09:07:23.01	243.15	35.19	
2025-01-19 09:07:23.22	243.09	35.14	
2025-01-19 09:07:23.42	243.03	35.10	
2025-01-19 09:07:23.62	242.98	35.06	
2025-01-19 09:07:23.83	242.92	35.01	
2025-01-19 09:07:24.03	242.86	34.97	
2025-01-19 09:07:24.23	242.81	34.93	
2025-01-19 09:07:24.43	242.75	34.89	
2025-01-19 09:07:24.64	242.69	34.84	
2025-01-19 09:07:24.84	242.64	34.80	
2025-01-19 09:07:25.06	242.57	34.75	
2025-01-19 09:07:25.26	242.52	34.71	
2025-01-19 09:07:25.46	242.46	34.67	
2025-01-19 09:07:25.67	242.41	34.63	
2025-01-19 09:07:25.87	242.35	34.58	
2025-01-19 09:07:26.07	242.30	34.54	
2025-01-19 09:07:26.27	242.24	34.50	
2025-01-19 09:07:26.48	242.18	34.46	
2025-01-19 09:07:26.68	242.13	34.41	
2025-01-19 09:07:26.88	242.08	34.37	
2025-01-19 09:07:27.09	242.02	34.33	
2025-01-19 09:07:27.29	241.97	34.29	
2025-01-19 09:07:27.49	241.91	34.24	
2025-01-19 09:07:27.70	241.85	34.20	
2025-01-19 09:07:27.90	241.80	34.16	
2025-01-19 09:07:28.10	241.75	34.12	
2025-01-19 09:07:28.30	241.70	34.08	
2025-01-19 09:07:28.51	241.64	34.03	
2025-01-19 09:07:28.71	241.59	33.99	
2025-01-19 09:07:28.91	241.53	33.95	
2025-01-19 09:07:29.12	241.48	33.90	
2025-01-19 09:07:29.32	241.43	33.86	
2025-01-19 09:07:29.52	241.37	33.82	
2025-01-19 09:07:29.73	241.32	33.78	
2025-01-19 09:07:29.93	241.27	33.74	
2025-01-19 09:07:30.13	241.21	33.69	
2025-01-19 09:07:30.34	241.16	33.65	
2025-01-19 09:07:30.54	241.11	33.61	
2025-01-19 09:07:30.74	241.06	33.57	
2025-01-19 09:07:30.95	241.00	33.53	
2025-01-19 09:07:31.15	240.95	33.48	
2025-01-19 09:07:31.35	240.90	33.44	
2025-01-19 09:07:31.55	240.85	33.40	
2025-01-19 09:07:31.76	240.80	33.36	
2025-01-19 09:07:31.96	240.75	33.32	
2025-01-19 09:07:32.16	240.70	33.28	
2025-01-19 09:07:32.37	240.64	33.23	
2025-01-19 09:07:32.57	240.59	33.19	
2025-01-19 09:07:32.77	240.54	33.15	
2025-01-19 09:07:32.98	240.49	33.11	
2025-01-19 09:07:33.18	240.44	33.07	
2025-01-19 09:07:33.38	240.39	33.03	
2025-01-19 09:07:33.59	240.34	32.98	
2025-01-19 09:07:33.79	240.29	32.94	
2025-01-19 09:07:33.99	240.24	32.90	
2025-01-19 09:07:34.19	240.19	32.86	
2025-01-19 09:07:34.40	240.14	32.82	
2025-01-19 09:07:34.60	240.09	32.78	
2025-01-19 09:07:34.80	240.04	32.74	
2025-01-19 09:07:35.01	239.99	32.69	
2025-01-19 09:07:35.21	239.94	32.65	
2025-01-19 09:07:35.41	239.89	32.61	
2025-01-19 09:07:35.62	239.84	32.57	
2025-01-19 09:07:35.82	239.79	32.53	
2025-01-19 09:07:36.02	239.75	32.49	
2025-01-19 09:07:36.23	239.70	32.45	
2025-01-19 09:07:36.43	239.65	32.41	
2025-01-19 09:07:36.63	239.60	32.37	
2025-01-19 09:07:36.83	239.55	32.33	
2025-01-19 09:07:37.04	239.50	32.28	
2025-01-19 09:07:37.24	239.45	32.24	
2025-01-19 09:07:37.44	239.41	32.20	
2025-01-19 09:07:37.65	239.36	32.16	
2025-01-19 09:07:37.85	239.31	32.12	
2025-01-19 09:07:38.05	239.26	32.08	
2025-01-19 09:07:38.26	239.22	32.04	
2025-01-19 09:07:38.46	239.17	32.00	
2025-01-19 09:07:38.66	239.12	31.96	
2025-01-19 09:07:38.87	239.07	31.92	
2025-01-19 09:07:39.07	239.03	31.88	
2025-01-19 09:07:39.27	238.98	31.84	
2025-01-19 09:07:39.47	238.94	31.80	
2025-01-19 09:07:39.68	238.89	31.76	
2025-01-19 09:07:39.88	238.84	31.72	
2025-01-19 09:07:40.08	238.80	31.68	
2025-01-19 09:07:40.29	238.75	31.64	
2025-01-19 09:07:40.49	238.70	31.60	
2025-01-19 09:07:40.69	238.66	31.56	
2025-01-19 09:07:40.90	238.61	31.51	
2025-01-19 09:07:41.10	238.56	31.48	
2025-01-19 09:07:41.30	238.52	31.44	
2025-01-19 09:07:41.51	238.47	31.39	
2025-01-19 09:07:41.71	238.43	31.36	
2025-01-19 09:07:41.91	238.38	31.32	
2025-01-19 09:07:42.11	238.34	31.28	
2025-01-19 09:07:42.32	238.29	31.24	
2025-01-19 09:07:42.52	238.25	31.20	
2025-01-19 09:07:42.72	238.20	31.16	
2025-01-19 09:07:42.93	238.16	31.12	
2025-01-19 09:07:43.13	238.11	31.08	
2025-01-19 09:07:43.33	238.07	31.04	
2025-01-19 09:07:43.54	238.02	31.00	
2025-01-19 09:07:43.74	237.98	30.96	
2025-01-19 09:07:43.94	237.94	30.92	
2025-01-19 09:07:44.15	237.89	30.88	
2025-01-19 09:07:44.35	237.85	30.84	
2025-01-19 09:07:44.55	237.81	30.80	
2025-01-19 09:07:44.75	237.76	30.76	
2025-01-19 09:07:44.96	237.72	30.72	
2025-01-19 09:07:45.16	237.67	30.68	
2025-01-19 09:07:45.36	237.63	30.64	
2025-01-19 09:07:45.57	237.59	30.60	
2025-01-19 09:07:45.77	237.54	30.56	
2025-01-19 09:07:45.97	237.50	30.53	
2025-01-19 09:07:46.18	237.46	30.48	
2025-01-19 09:07:46.38	237.42	30.45	
2025-01-19 09:07:46.58	237.37	30.41	
2025-01-19 09:07:46.79	237.33	30.37	
2025-01-19 09:07:46.99	237.29	30.33	
2025-01-19 09:07:47.19	237.25	30.29	
2025-01-19 09:07:47.39	237.20	30.25	
2025-01-19 09:07:47.60	237.16	30.21	
2025-01-19 09:07:47.80	237.12	30.17	
2025-01-19 09:07:48.00	237.08	30.14	
2025-01-19 09:07:48.21	237.03	30.10	
2025-01-19 09:07:48.41	236.99	30.06	
2025-01-19 09:07:48.61	236.95	30.02	
2025-01-19 09:07:48.82	236.91	29.98	
2025-01-19 09:07:49.02	236.87	29.94	
2025-01-19 09:07:49.22	236.83	29.90	
2025-01-19 09:07:49.43	236.78	29.86	
2025-01-19 09:07:49.63	236.74	29.83	
2025-01-19 09:07:49.83	236.70	29.79	
2025-01-19 09:07:50.03	236.66	29.75	
2025-01-19 09:07:50.24	236.62	29.71	
2025-01-19 09:07:50.44	236.58	29.67	
2025-01-19 09:07:50.64	236.54	29.63	
2025-01-19 09:07:50.85	236.50	29.60	
2025-01-19 09:07:51.05	236.46	29.56	
2025-01-19 09:07:51.25	236.42	29.52	
2025-01-19 09:07:51.46	236.38	29.48	
2025-01-19 09:07:51.66	236.34	29.44	
2025-01-19 09:07:51.86	236.30	29.41	
2025-01-19 09:07:52.07	236.26	29.37	
2025-01-19 09:07:52.27	236.22	29.33	
2025-01-19 09:07:52.47	236.18	29.29	
2025-01-19 09:07:52.67	236.14	29.25	
2025-01-19 09:07:52.88	236.10	29.22	
2025-01-19 09:07:53.08	236.06	29.18	
2025-01-19 09:07:53.28	236.02	29.14	
2025-01-19 09:07:53.49	235.98	29.10	
2025-01-19 09:07:53.69	235.94	29.06	
2025-01-19 09:07:53.89	235.90	29.03	
2025-01-19 09:07:54.10	235.86	28.99	
2025-01-19 09:07:54.30	235.83	28.95	
2025-01-19 09:07:54.50	235.79	28.91	
2025-01-19 09:07:54.71	235.75	28.88	
2025-01-19 09:07:54.91	235.71	28.84	
2025-01-19 09:07:55.11	235.67	28.80	
2025-01-19 09:07:55.31	235.63	28.77	
2025-01-19 09:07:55.52	235.59	28.73	
2025-01-19 09:07:55.72	235.56	28.69	
2025-01-19 09:07:55.92	235.52	28.65	
2025-01-19 09:07:56.13	235.48	28.61	
2025-01-19 09:07:56.33	235.44	28.58	
2025-01-19 09:07:56.53	235.41	28.54	
2025-01-19 09:07:56.74	235.37	28.50	
2025-01-19 09:07:56.94	235.33	28.47	
2025-01-19 09:07:57.14	235.29	28.43	
2025-01-19 09:07:57.35	235.25	28.39	
2025-01-19 09:07:57.55	235.22	28.36	
2025-01-19 09:07:57.75	235.18	28.32	
2025-01-19 09:07:57.95	235.14	28.28	
2025-01-19 09:07:58.16	235.11	28.24	
2025-01-19 09:07:58.36	235.07	28.21	
2025-01-19 09:07:58.56	235.03	28.17	
2025-01-19 09:07:58.77	234.99	28.13	
2025-01-19 09:07:58.97	234.96	28.10	
2025-01-19 09:07:59.17	234.92	28.06	
2025-01-19 09:07:59.38	234.88	28.02	
2025-01-19 09:07:59.58	234.85	27.99	
2025-01-19 09:07:59.78	234.81	27.95	
2025-01-19 09:07:59.99	234.77	27.91	
2025-01-19 09:08:00.19	234.74	27.88	
2025-01-19 09:08:00.39	234.70	27.84	
2025-01-19 09:08:00.59	234.67	27.81	
2025-01-19 09:08:00.80	234.63	27.77	
2025-01-19 09:08:01.00	234.60	27.73	
2025-01-19 09:08:01.20	234.56	27.70	
2025-01-19 09:08:01.41	234.52	27.66	
2025-01-19 09:08:01.61	234.49	27.62	
2025-01-19 09:08:01.81	234.45	27.59	
2025-01-19 09:08:02.02	234.42	27.55	
2025-01-19 09:08:02.22	234.38	27.52	
2025-01-19 09:08:02.42	234.35	27.48	
2025-01-19 09:08:02.63	234.31	27.44	
2025-01-19 09:08:02.83	234.28	27.41	
2025-01-19 09:08:03.03	234.24	27.37	
2025-01-19 09:08:03.23	234.21	27.34	
2025-01-19 09:08:03.44	234.17	27.30	
2025-01-19 09:08:03.64	234.14	27.27	
2025-01-19 09:08:03.84	234.10	27.23	
2025-01-19 09:08:04.05	234.07	27.19	
2025-01-19 09:08:04.25	234.03	27.16	
2025-01-19 09:08:04.45	234.00	27.12	
2025-01-19 09:08:04.66	233.96	27.09	
2025-01-19 09:08:04.86	233.93	27.05	
2025-01-19 09:08:05.06	233.90	27.02	
2025-01-19 09:08:05.27	233.86	26.98	
2025-01-19 09:08:05.47	233.83	26.94	
2025-01-19 09:08:05.67	233.79	26.91	
2025-01-19 09:08:05.87	233.76	26.88	
2025-01-19 09:08:06.08	233.72	26.84	
2025-01-19 09:08:06.28	233.69	26.80	
2025-01-19 09:08:06.48	233.66	26.77	
2025-01-19 09:08:06.69	233.62	26.73	
2025-01-19 09:08:06.89	233.59	26.70	
2025-01-19 09:08:07.09	233.56	26.66	
2025-01-19 09:08:07.30	233.52	26.63	
2025-01-19 09:08:07.50	233.49	26.59	
2025-01-19 09:08:07.70	233.46	26.56	
2025-01-19 09:08:07.91	233.42	26.52	
2025-01-19 09:08:08.11	233.39	26.49	
2025-01-19 09:08:08.31	233.36	26.45	
2025-01-19 09:08:08.51	233.33	26.42	
2025-01-19 09:08:08.72	233.29	26.38	
2025-01-19 09:08:08.92	233.26	26.35	
2025-01-19 09:08:09.12	233.23	26.31	
2025-01-19 09:08:09.33	233.19	26.28	
2025-01-19 09:08:09.53	233.16	26.24	
2025-01-19 09:08:09.73	233.13	26.21	
2025-01-19 09:08:09.94	233.10	26.17	
2025-01-19 09:08:10.14	233.06	26.14	
2025-01-19 09:08:10.34	233.03	26.11	
2025-01-19 09:08:10.55	233.00	26.07	
2025-01-19 09:08:10.75	232.97	26.04	
2025-01-19 09:08:10.95	232.94	26.00	
2025-01-19 09:08:11.15	232.90	25.97	
2025-01-19 09:08:11.36	232.87	25.93	
2025-01-19 09:08:11.56	232.84	25.90	
2025-01-19 09:08:11.76	232.81	25.87	
2025-01-19 09:08:11.97	232.78	25.83	
2025-01-19 09:08:12.17	232.75	25.80	
2025-01-19 09:08:12.37	232.71	25.76	
2025-01-19 09:08:12.58	232.68	25.73	
2025-01-19 09:08:12.78	232.65	25.70	
2025-01-19 09:08:12.98	232.62	25.66	
2025-01-19 09:08:13.19	232.59	25.63	
2025-01-19 09:08:13.39	232.56	25.59	
2025-01-19 09:08:13.59	232.53	25.56	
2025-01-19 09:08:13.79	232.50	25.53	
2025-01-19 09:08:14.00	232.46	25.49	
2025-01-19 09:08:14.20	232.43	25.46	
2025-01-19 09:08:14.40	232.40	25.42	
2025-01-19 09:08:14.61	232.37	25.39	
2025-01-19 09:08:14.81	232.34	25.36	
2025-01-19 09:08:15.01	232.31	25.32	
2025-01-19 09:08:15.22	232.28	25.29	
2025-01-19 09:08:15.42	232.25	25.26	
2025-01-19 09:08:15.62	232.22	25.22	
2025-01-19 09:08:15.83	232.19	25.19	
2025-01-19 09:08:16.03	232.16	25.16	
2025-01-19 09:08:16.23	232.13	25.12	
2025-01-19 09:08:16.43	232.10	25.09	
2025-01-19 09:08:16.64	232.07	25.05	
2025-01-19 09:08:16.84	232.04	25.02	
2025-01-19 09:08:17.04	232.01	24.99	
2025-01-19 09:08:17.25	231.98	24.95	
2025-01-19 09:08:17.45	231.95	24.92	
2025-01-19 09:08:17.65	231.92	24.89	
2025-01-19 09:08:17.86	231.89	24.86	
2025-01-19 09:08:18.06	231.86	24.82	
2025-01-19 09:08:18.26	231.83	24.79	
2025-01-19 09:08:18.47	231.80	24.76	
2025-01-19 09:08:18.67	231.77	24.72	
2025-01-19 09:08:18.87	231.74	24.69	
2025-01-19 09:08:19.07	231.71	24.66	
2025-01-19 09:08:19.28	231.68	24.62	
2025-01-19 09:08:19.48	231.65	24.59	
2025-01-19 09:08:19.68	231.63	24.56	
2025-01-19 09:08:19.89	231.60	24.53	
2025-01-19 09:08:20.09	231.57	24.49	
2025-01-19 09:08:20.29	231.54	24.46	
2025-01-19 09:08:20.50	231.51	24.43	
2025-01-19 09:08:20.70	231.48	24.40	
2025-01-19 09:08:20.90	231.45	24.36	
2025-01-19 09:08:21.11	231.42	24.33	
2025-01-19 09:08:21.31	231.39	24.30	
2025-01-19 09:08:21.51	231.37	24.27	
2025-01-19 09:08:21.71	231.34	24.23	
2025-01-19 09:08:21.92	231.31	24.20	
2025-01-19 09:08:22.12	231.28	24.17	
2025-01-19 09:08:22.32	231.25	24.14	
2025-01-19 09:08:22.53	231.22	24.10	
2025-01-19 09:08:22.73	231.20	24.07	
2025-01-19 09:08:22.93	231.17	24.04	
2025-01-19 09:08:23.14	231.14	24.01	
2025-01-19 09:08:23.34	231.11	23.97	
2025-01-19 09:08:23.54	231.09	23.94	
2025-01-19 09:08:23.75	231.06	23.91	
2025-01-19 09:08:23.95	231.03	23.88	
2025-01-19 09:08:24.15	231.00	23.85	
2025-01-19 09:08:24.35	230.97	23.82	
2025-01-19 09:08:24.56	230.95	23.78	
2025-01-19 09:08:24.76	230.92	23.75	
2025-01-19 09:08:24.96	230.89	23.72	
2025-01-19 09:08:25.17	230.86	23.69	
2025-01-19 09:08:25.37	230.84	23.66	
2025-01-19 09:08:25.57	230.81	23.62	
2025-01-19 09:08:25.78	230.78	23.59	
2025-01-19 09:08:25.98	230.76	23.56	
2025-01-19 09:08:26.18	230.73	23.53	
2025-01-19 09:08:26.39	230.70	23.50	
2025-01-19 09:08:26.59	230.67	23.47	
2025-01-19 09:08:26.79	230.65	23.43	
2025-01-19 09:08:26.99	230.62	23.40	
2025-01-19 09:08:27.20	230.59	23.37	
2025-01-19 09:08:27.40	230.57	23.34	
2025-01-19 09:08:27.60	230.54	23.31	
2025-01-19 09:08:27.81	230.51	23.28	
2025-01-19 09:08:28.01	230.49	23.25	
2025-01-19 09:08:28.21	230.46	23.21	
2025-01-19 09:08:28.42	230.43	23.18	
2025-01-19 09:08:28.62	230.41	23.15	
2025-01-19 09:08:28.82	230.38	23.12	
2025-01-19 09:08:29.03	230.35	23.09	
2025-01-19 09:08:29.23	230.33	23.06	
2025-01-19 09:08:29.43	230.30	23.03	
2025-01-19 09:08:29.63	230.28	23.00	
2025-01-19 09:08:29.84	230.25	22.96	
2025-01-19 09:08:30.04	230.22	22.93	
2025-01-19 09:08:30.24	230.20	22.90	
2025-01-19 09:08:30.45	230.17	22.87	
2025-01-19 09:08:30.65	230.15	22.84	
2025-01-19 09:08:30.85	230.12	22.81	
2025-01-19 09:08:31.06	230.09	22.78	
2025-01-19 09:08:31.26	230.07	22.75	
2025-01-19 09:08:31.46	230.04	22.72	
2025-01-19 09:08:31.67	230.02	22.69	
2025-01-19 09:08:31.87	229.99	22.66	
2025-01-19 09:08:32.07	229.97	22.63	
2025-01-19 09:08:32.27	229.94	22.60	
2025-01-19 09:08:32.48	229.92	22.56	
2025-01-19 09:08:32.68	229.89	22.53	
2025-01-19 09:08:32.88	229.87	22.50	
2025-01-19 09:08:33.09	229.84	22.47	
2025-01-19 09:08:33.29	229.81	22.44	
2025-01-19 09:08:33.49	229.79	22.41	
2025-01-19 09:08:33.70	229.76	22.38	
2025-01-19 09:08:33.90	229.74	22.35	
2025-01-19 09:08:34.10	229.71	22.32	
2025-01-19 09:08:34.31	229.69	22.29	
2025-01-19 09:08:34.51	229.66	22.26	
2025-01-19 09:08:34.71	229.64	22.23	
2025-01-19 09:08:34.91	229.62	22.20	
2025-01-19 09:08:35.12	229.59	22.17	
2025-01-19 09:08:35.32	229.57	22.14	
2025-01-19 09:08:35.52	229.54	22.11	
2025-01-19 09:08:35.73	229.52	22.08	
2025-01-19 09:08:35.93	229.49	22.05	
2025-01-19 09:08:36.13	229.47	22.02	
2025-01-19 09:08:36.34	229.44	21.99	
2025-01-19 09:08:36.54	229.42	21.96	
2025-01-19 09:08:36.74	229.39	21.93	
2025-01-19 09:08:36.95	229.37	21.90	
2025-01-19 09:08:37.15	229.35	21.87	
2025-01-19 09:08:37.35	229.32	21.84	
2025-01-19 09:08:37.55	229.30	21.81	
2025-01-19 09:08:37.76	229.27	21.78	
2025-01-19 09:08:37.96	229.25	21.75	
2025-01-19 09:08:38.16	229.23	21.72	
2025-01-19 09:08:38.37	229.20	21.69	
2025-01-19 09:08:38.57	229.18	21.66	
2025-01-19 09:08:38.77	229.15	21.63	
2025-01-19 09:08:38.98	229.13	21.60	
2025-01-19 09:08:39.18	229.11	21.57	
2025-01-19 09:08:39.38	229.08	21.54	
2025-01-19 09:08:39.59	229.06	21.51	
2025-01-19 09:08:39.79	229.04	21.48	
2025-01-19 09:08:39.99	229.01	21.46	
2025-01-19 09:08:40.19	228.99	21.43	
2025-01-19 09:08:40.40	228.97	21.40	
2025-01-19 09:08:40.60	228.94	21.37	
2025-01-19 09:08:40.80	228.92	21.34	
2025-01-19 09:08:41.01	228.90	21.31	
2025-01-19 09:08:41.21	228.87	21.28	
2025-01-19 09:08:41.41	228.85	21.25	
2025-01-19 09:08:41.62	228.83	21.22	
2025-01-19 09:08:41.82	228.80	21.19	
2025-01-19 09:08:42.02	228.78	21.16	
2025-01-19 09:08:42.23	228.76	21.13	
2025-01-19 09:08:42.43	228.73	21.11	
2025-01-19 09:08:42.63	228.71	21.08	
2025-01-19 09:08:42.83	228.69	21.05	
2025-01-19 09:08:43.04	228.67	21.02	
2025-01-19 09:08:43.24	228.64	20.99	
2025-01-19 09:08:43.44	228.62	20.96	
2025-01-19 09:08:43.65	228.60	20.93	
2025-01-19 09:08:43.85	228.57	20.90	
2025-01-19 09:08:44.05	228.55	20.88	
2025-01-19 09:08:44.26	228.53	20.85	
2025-01-19 09:08:44.46	228.51	20.82	
2025-01-19 09:08:44.66	228.48	20.79	
2025-01-19 09:08:44.87	228.46	20.76	
2025-01-19 09:08:45.07	228.44	20.73	
2025-01-19 09:08:45.27	228.42	20.70	
2025-01-19 09:08:45.47	228.40	20.68	
2025-01-19 09:08:45.68	228.37	20.65	
2025-01-19 09:08:45.88	228.35	20.62	
2025-01-19 09:08:46.08	228.33	20.59	
2025-01-19 09:08:46.29	228.31	20.56	
2025-01-19 09:08:46.49	228.28	20.53	
2025-01-19 09:08:46.69	228.26	20.50	
2025-01-19 09:08:46.90	228.24	20.48	
2025-01-19 09:08:47.10	228.22	20.45	
2025-01-19 09:08:47.30	228.20	20.42	
2025-01-19 09:08:47.51	228.17	20.39	
2025-01-19 09:08:47.71	228.15	20.36	
2025-01-19 09:08:47.91	228.13	20.33	
2025-01-19 09:08:48.11	228.11	20.31	
2025-01-19 09:08:48.32	228.09	20.28	
2025-01-19 09:08:48.52	228.07	20.25	
2025-01-19 09:08:48.72	228.05	20.22	
2025-01-19 09:08:48.93	228.02	20.19	
2025-01-19 09:08:49.13	228.00	20.17	
2025-01-19 09:08:49.33	227.98	20.14	
2025-01-19 09:08:49.54	227.96	20.11	
2025-01-19 09:08:49.74	227.94	20.08	
2025-01-19 09:08:49.94	227.92	20.06	
2025-01-19 09:08:50.15	227.89	20.03	
2025-01-19 09:08:50.35	227.87	20.00	
2025-01-19 09:08:50.55	227.85	19.97	
2025-01-19 09:08:50.75	227.83	19.94	
2025-01-19 09:08:50.96	227.81	19.92	
2025-01-19 09:08:51.16	227.79	19.89	
2025-01-19 09:08:51.36	227.77	19.86	
2025-01-19 09:08:51.57	227.75	19.83	
2025-01-19 09:08:51.77	227.73	19.81	
2025-01-19 09:08:51.97	227.71	19.78	
2025-01-19 09:08:52.18	227.68	19.75	
2025-01-19 09:08:52.38	227.66	19.72	
2025-01-19 09:08:52.58	227.64	19.70	
2025-01-19 09:08:52.79	227.62	19.67	
2025-01-19 09:08:52.99	227.60	19.64	
2025-01-19 09:08:53.19	227.58	19.61	
2025-01-19 09:08:53.40	227.56	19.58	
2025-01-19 09:08:53.60	227.54	19.56	
2025-01-19 09:08:53.80	227.52	19.53	
2025-01-19 09:08:54.00	227.50	19.50	
2025-01-19 09:08:54.21	227.48	19.48	
2025-01-19 09:08:54.41	227.46	19.45	
2025-01-19 09:08:54.61	227.44	19.42	
2025-01-19 09:08:54.82	227.42	19.39	
2025-01-19 09:08:55.02	227.40	19.37	
2025-01-19 09:08:55.22	227.38	19.34	
2025-01-19 09:08:55.43	227.36	19.31	
2025-01-19 09:08:55.63	227.34	19.29	
2025-01-19 09:08:55.83	227.32	19.26	
2025-01-19 09:08:56.04	227.29	19.23	
2025-01-19 09:08:56.24	227.27	19.21	
2025-01-19 09:08:56.44	227.26	19.18	
2025-01-19 09:08:56.64	227.24	19.15	
2025-01-19 09:08:56.85	227.21	19.12	
2025-01-19 09:08:57.05	227.20	19.10	
2025-01-19 09:08:57.25	227.18	19.07	
2025-01-19 09:08:57.46	227.15	19.04	
2025-01-19 09:08:57.66	227.14	19.02	
2025-01-19 09:08:57.86	227.12	18.99	
2025-01-19 09:08:58.07	227.10	18.96	
2025-01-19 09:08:58.27	227.08	18.94	
2025-01-19 09:08:58.47	227.06	18.91	
2025-01-19 09:08:58.68	227.04	18.88	
2025-01-19 09:08:58.88	227.02	18.86	
2025-01-19 09:08:59.08	227.00	18.83	
2025-01-19 09:08:59.28	226.98	18.81	
2025-01-19 09:08:59.49	226.96	18.78	
2025-01-19 09:08:59.69	226.94	18.75	
2025-01-19 09:08:59.89	226.92	18.73	
2025-01-19 09:09:00.10	226.90	18.70	
2025-01-19 09:09:00.30	226.88	18.67	
2025-01-19 09:09:00.50	226.86	18.65	
2025-01-19 09:09:00.71	226.84	18.62	
2025-01-19 09:09:00.91	226.82	18.59	
2025-01-19 09:09:01.11	226.80	18.57	
2025-01-19 09:09:01.32	226.78	18.54	
2025-01-19 09:09:01.52	226.77	18.51	
2025-01-19 09:09:01.72	226.75	18.49	
2025-01-19 09:09:01.92	226.73	18.46	
2025-01-19 09:09:02.13	226.71	18.44	
2025-01-19 09:09:02.33	226.69	18.41	
2025-01-19 09:09:02.53	226.67	18.38	
2025-01-19 09:09:02.74	226.65	18.36	
2025-01-19 09:09:02.94	226.63	18.33	
2025-01-19 09:09:03.14	226.61	18.31	
2025-01-19 09:09:03.35	226.59	18.28	
2025-01-19 09:09:03.55	226.58	18.25	
2025-01-19 09:09:03.75	226.56	18.23	
2025-01-19 09:09:03.96	226.54	18.20	
2025-01-19 09:09:04.16	226.52	18.18	
2025-01-19 09:09:04.36	226.50	18.15	
2025-01-19 09:09:04.56	226.48	18.12	
2025-01-19 09:09:04.77	226.46	18.10	
2025-01-19 09:09:04.97	226.45	18.07	
2025-01-19 09:09:05.17	226.43	18.05	
2025-01-19 09:09:05.38	226.41	18.02	
2025-01-19 09:09:05.58	226.39	18.00	
2025-01-19 09:09:05.78	226.37	17.97	
2025-01-19 09:09:05.99	226.35	17.94	
2025-01-19 09:09:06.19	226.34	17.92	
2025-01-19 09:09:06.39	226.32	17.89	
2025-01-19 09:09:06.60	226.30	17.87	
2025-01-19 09:09:06.80	226.28	17.84	
2025-01-19 09:09:07.00	226.26	17.82	
2025-01-19 09:09:07.20	226.24	17.79	
2025-01-19 09:09:07.41	226.23	17.77	
2025-01-19 09:09:07.61	226.21	17.74	
2025-01-19 09:09:07.81	226.19	17.72	
2025-01-19 09:09:08.02	226.17	17.69	
2025-01-19 09:09:08.22	226.15	17.66	
2025-01-19 09:09:08.42	226.14	17.64	
2025-01-19 09:09:08.63	226.12	17.61	
2025-01-19 09:09:08.83	226.10	17.59	
2025-01-19 09:09:09.03	226.08	17.56	
2025-01-19 09:09:09.24	226.06	17.54	
2025-01-19 09:09:09.44	226.05	17.51	
2025-01-19 09:09:09.64	226.03	17.49	
2025-01-19 09:09:09.84	226.01	17.46	
2025-01-19 09:09:10.05	225.99	17.44	
2025-01-19 09:09:10.25	225.98	17.41	
2025-01-19 09:09:10.45	225.96	17.39	
2025-01-19 09:09:10.66	225.94	17.36	
2025-01-19 09:09:10.86	225.92	17.34	
2025-01-19 09:09:11.06	225.91	17.31	
2025-01-19 09:09:11.27	225.89	17.29	
2025-01-19 09:09:11.47	225.87	17.26	
2025-01-19 09:09:11.67	225.85	17.24	
2025-01-19 09:09:11.88	225.84	17.21	
2025-01-19 09:09:12.08	225.82	17.19	
2025-01-19 09:09:12.28	225.80	17.16	
2025-01-19 09:09:12.48	225.78	17.14	
2025-01-19 09:09:12.69	225.77	17.11	
2025-01-19 09:09:12.89	225.75	17.09	
2025-01-19 09:09:13.09	225.73	17.06	
2025-01-19 09:09:13.30	225.71	17.04	
2025-01-19 09:09:13.50	225.70	17.01	
2025-01-19 09:09:13.70	225.68	16.99	
2025-01-19 09:09:13.91	225.66	16.96	
2025-01-19 09:09:14.11	225.65	16.94	
2025-01-19 09:09:14.31	225.63	16.92	
2025-01-19 09:09:14.52	225.61	16.89	
2025-01-19 09:09:14.72	225.60	16.87	
2025-01-19 09:09:14.92	225.58	16.84	
2025-01-19 09:09:15.12	225.56	16.82	
2025-01-19 09:09:15.33	225.54	16.79	
2025-01-19 09:09:15.53	225.53	16.77	
2025-01-19 09:09:15.73	225.51	16.74	
2025-01-19 09:09:15.94	225.49	16.72	
2025-01-19 09:09:16.14	225.48	16.69	
2025-01-19 09:09:16.34	225.46	16.67	
2025-01-19 09:09:16.55	225.44	16.65	
2025-01-19 09:09:16.75	225.43	16.62	
2025-01-19 09:09:16.95	225.41	16.60	
2025-01-19 09:09:17.16	225.39	16.57	
2025-01-19 09:09:17.36	225.38	16.55	
2025-01-19 09:09:17.56	225.36	16.52	
2025-01-19 09:09:17.76	225.34	16.50	
2025-01-19 09:09:17.97	225.33	16.48	
2025-01-19 09:09:18.17	225.31	16.45	
2025-01-19 09:09:18.37	225.30	16.43	
2025-01-19 09:09:18.58	225.28	16.40	
2025-01-19 09:09:18.78	225.26	16.38	
2025-01-19 09:09:18.98	225.25	16.36	
2025-01-19 09:09:19.19	225.23	16.33	
2025-01-19 09:09:19.39	225.21	16.31	
2025-01-19 09:09:19.59	225.20	16.28	
2025-01-19 09:09:19.80	225.18	16.26	
2025-01-19 09:09:20.00	225.16	16.24	
2025-01-19 09:09:20.20	225.15	16.21	
2025-01-19 09:09:20.40	225.13	16.19	
2025-01-19 09:09:20.61	225.12	16.16	
2025-01-19 09:09:20.81	225.10	16.14	
2025-01-19 09:09:21.01	225.08	16.12	
2025-01-19 09:09:21.22	225.07	16.09	
2025-01-19 09:09:21.42	225.05	16.07	
2025-01-19 09:09:21.62	225.04	16.05	
2025-01-19 09:09:21.83	225.02	16.02	
2025-01-19 09:09:22.03	225.00	16.00	
2025-01-19 09:09:22.23	224.99	15.97	
2025-01-19 09:09:22.44	224.97	15.95	
2025-01-19 09:09:22.64	224.96	15.93	
2025-01-19 09:09:22.84	224.94	15.90	
2025-01-19 09:09:23.04	224.92	15.88	
2025-01-19 09:09:23.25	224.91	15.86	
2025-01-19 09:09:23.45	224.89	15.83	
2025-01-19 09:09:23.65	224.88	15.81	
