passes_logs/2025/01/19/SPB_Silybum_02/SPB_Silybum_02__20250119_103754_TERRA_rec.log

#Pass ID: 20250119_103754_TERRA
#Satellite: TERRA
#Configuration: TERRA
#Start time: 2025-01-19 10:44:24

#Version: 2.0.20230423
#Station: SPB_Silybum_02
#Location: 30.233357 lon 59.946436 lat
#TLE: 1 25994U 99068A   25018.76132064  .00000971  00000+0  20987-3 0  9991
#TLE: 2 25994  98.0209  81.6719 0003338  64.8500  46.9329 14.60403262334620

#Time	Az	El	Level	Level2	SNR	BER	Gain	Gain2
2025-01-19 10:44:26.05	290.50	12.27	
2025-01-19 10:44:26.26	290.46	12.26	
2025-01-19 10:44:26.46	290.42	12.25	
2025-01-19 10:44:26.66	290.38	12.24	
2025-01-19 10:44:26.87	290.34	12.23	
2025-01-19 10:44:27.07	290.30	12.22	
2025-01-19 10:44:27.27	290.26	12.21	
2025-01-19 10:44:27.48	290.22	12.20	
2025-01-19 10:44:27.68	290.18	12.19	
2025-01-19 10:44:27.88	290.14	12.18	
2025-01-19 10:44:28.08	290.10	12.17	
2025-01-19 10:44:28.29	290.06	12.16	
2025-01-19 10:44:28.49	290.02	12.15	
2025-01-19 10:44:28.69	289.98	12.15	
2025-01-19 10:44:28.90	289.94	12.13	
2025-01-19 10:44:29.10	289.90	12.13	
2025-01-19 10:44:29.30	289.86	12.12	
2025-01-19 10:44:29.51	289.82	12.11	
2025-01-19 10:44:29.71	289.78	12.10	
2025-01-19 10:44:29.91	289.74	12.09	
2025-01-19 10:44:30.12	289.70	12.08	
2025-01-19 10:44:30.32	289.66	12.07	
2025-01-19 10:44:30.52	289.62	12.06	
2025-01-19 10:44:30.72	289.58	12.05	
2025-01-19 10:44:30.93	289.54	12.04	
2025-01-19 10:44:31.13	289.50	12.03	
2025-01-19 10:44:31.33	289.46	12.02	
2025-01-19 10:44:31.54	289.42	12.01	
2025-01-19 10:44:31.74	289.39	12.00	
2025-01-19 10:44:31.94	289.35	11.99	
2025-01-19 10:44:32.15	289.31	11.98	
2025-01-19 10:44:32.35	289.27	11.97	
2025-01-19 10:44:32.55	289.23	11.96	
2025-01-19 10:44:32.76	289.19	11.95	
2025-01-19 10:44:32.96	289.15	11.94	
2025-01-19 10:44:33.16	289.11	11.93	
2025-01-19 10:44:33.36	289.07	11.92	
2025-01-19 10:44:33.57	289.03	11.91	
2025-01-19 10:44:33.77	288.99	11.90	
2025-01-19 10:44:33.97	288.96	11.89	
2025-01-19 10:44:34.18	288.92	11.88	
2025-01-19 10:44:34.38	288.88	11.87	
2025-01-19 10:44:34.58	288.84	11.86	
2025-01-19 10:44:34.79	288.80	11.85	
2025-01-19 10:44:34.99	288.76	11.84	
2025-01-19 10:44:35.19	288.72	11.83	
2025-01-19 10:44:35.40	288.68	11.82	
2025-01-19 10:44:35.60	288.64	11.81	
2025-01-19 10:44:35.80	288.61	11.80	
2025-01-19 10:44:36.00	288.57	11.79	
2025-01-19 10:44:36.21	288.53	11.78	
2025-01-19 10:44:36.41	288.49	11.77	
2025-01-19 10:44:36.61	288.45	11.76	
2025-01-19 10:44:36.82	288.41	11.75	
2025-01-19 10:44:37.02	288.37	11.74	
2025-01-19 10:44:37.22	288.34	11.73	
2025-01-19 10:44:37.43	288.30	11.72	
2025-01-19 10:44:37.63	288.26	11.71	
2025-01-19 10:44:37.83	288.22	11.70	
2025-01-19 10:44:38.04	288.18	11.69	
2025-01-19 10:44:38.24	288.14	11.68	
2025-01-19 10:44:38.44	288.11	11.67	
2025-01-19 10:44:38.64	288.07	11.66	
2025-01-19 10:44:38.85	288.03	11.65	
2025-01-19 10:44:39.05	287.99	11.64	
2025-01-19 10:44:39.25	287.95	11.63	
2025-01-19 10:44:39.46	287.91	11.62	
2025-01-19 10:44:39.66	287.88	11.61	
2025-01-19 10:44:39.86	287.84	11.60	
2025-01-19 10:44:40.07	287.80	11.59	
2025-01-19 10:44:40.27	287.76	11.58	
2025-01-19 10:44:40.47	287.72	11.57	
2025-01-19 10:44:40.68	287.68	11.56	
2025-01-19 10:44:40.88	287.65	11.55	
2025-01-19 10:44:41.08	287.61	11.54	
2025-01-19 10:44:41.28	287.57	11.53	
2025-01-19 10:44:41.49	287.53	11.52	
2025-01-19 10:44:41.69	287.50	11.51	
2025-01-19 10:44:41.89	287.46	11.50	
2025-01-19 10:44:42.10	287.42	11.48	
2025-01-19 10:44:42.30	287.38	11.47	
2025-01-19 10:44:42.50	287.34	11.46	
2025-01-19 10:44:42.71	287.31	11.45	
2025-01-19 10:44:42.91	287.27	11.44	
2025-01-19 10:44:43.11	287.23	11.43	
2025-01-19 10:44:43.32	287.19	11.42	
2025-01-19 10:44:43.52	287.16	11.41	
2025-01-19 10:44:43.72	287.12	11.40	
2025-01-19 10:44:43.92	287.08	11.39	
2025-01-19 10:44:44.13	287.04	11.38	
2025-01-19 10:44:44.33	287.01	11.37	
2025-01-19 10:44:44.53	286.97	11.36	
2025-01-19 10:44:44.74	286.93	11.35	
2025-01-19 10:44:44.94	286.89	11.34	
2025-01-19 10:44:45.14	286.86	11.33	
2025-01-19 10:44:45.35	286.82	11.32	
2025-01-19 10:44:45.55	286.78	11.31	
2025-01-19 10:44:45.75	286.74	11.30	
2025-01-19 10:44:45.96	286.71	11.29	
2025-01-19 10:44:46.16	286.67	11.28	
2025-01-19 10:44:46.36	286.63	11.27	
2025-01-19 10:44:46.56	286.60	11.26	
2025-01-19 10:44:46.77	286.56	11.25	
2025-01-19 10:44:46.97	286.52	11.24	
2025-01-19 10:44:47.17	286.48	11.23	
2025-01-19 10:44:47.38	286.45	11.22	
2025-01-19 10:44:47.58	286.41	11.21	
2025-01-19 10:44:47.78	286.37	11.20	
2025-01-19 10:44:47.99	286.33	11.18	
2025-01-19 10:44:48.19	286.30	11.17	
2025-01-19 10:44:48.39	286.26	11.16	
2025-01-19 10:44:48.60	286.22	11.15	
2025-01-19 10:44:48.80	286.19	11.14	
2025-01-19 10:44:49.00	286.15	11.13	
2025-01-19 10:44:49.20	286.11	11.12	
2025-01-19 10:44:49.41	286.08	11.11	
2025-01-19 10:44:49.61	286.04	11.10	
2025-01-19 10:44:49.81	286.00	11.09	
2025-01-19 10:44:50.02	285.97	11.08	
2025-01-19 10:44:50.22	285.93	11.07	
2025-01-19 10:44:50.42	285.89	11.06	
2025-01-19 10:44:50.63	285.86	11.05	
2025-01-19 10:44:50.83	285.82	11.04	
2025-01-19 10:44:51.03	285.78	11.03	
2025-01-19 10:44:51.24	285.75	11.02	
2025-01-19 10:44:51.44	285.71	11.01	
2025-01-19 10:44:51.64	285.67	11.00	
2025-01-19 10:44:51.84	285.64	10.99	
2025-01-19 10:44:52.05	285.60	10.97	
2025-01-19 10:44:52.25	285.56	10.96	
2025-01-19 10:44:52.45	285.53	10.95	
2025-01-19 10:44:52.66	285.49	10.94	
2025-01-19 10:44:52.86	285.46	10.93	
2025-01-19 10:44:53.06	285.42	10.92	
2025-01-19 10:44:53.27	285.38	10.91	
2025-01-19 10:44:53.47	285.35	10.90	
2025-01-19 10:44:53.67	285.31	10.89	
2025-01-19 10:44:53.88	285.27	10.88	
2025-01-19 10:44:54.08	285.24	10.87	
2025-01-19 10:44:54.28	285.20	10.86	
2025-01-19 10:44:54.48	285.17	10.85	
2025-01-19 10:44:54.69	285.13	10.84	
2025-01-19 10:44:54.89	285.09	10.83	
2025-01-19 10:44:55.09	285.06	10.82	
2025-01-19 10:44:55.30	285.02	10.81	
2025-01-19 10:44:55.50	284.99	10.79	
2025-01-19 10:44:55.70	284.95	10.78	
2025-01-19 10:44:55.91	284.91	10.77	
2025-01-19 10:44:56.11	284.88	10.76	
2025-01-19 10:44:56.31	284.84	10.75	
2025-01-19 10:44:56.52	284.81	10.74	
2025-01-19 10:44:56.72	284.77	10.73	
2025-01-19 10:44:56.92	284.74	10.72	
2025-01-19 10:44:57.12	284.70	10.71	
2025-01-19 10:44:57.33	284.66	10.70	
2025-01-19 10:44:57.53	284.63	10.69	
2025-01-19 10:44:57.73	284.59	10.68	
2025-01-19 10:44:57.94	284.56	10.67	
2025-01-19 10:44:58.14	284.52	10.66	
2025-01-19 10:44:58.34	284.49	10.65	
2025-01-19 10:44:58.55	284.45	10.63	
2025-01-19 10:44:58.75	284.41	10.62	
2025-01-19 10:44:58.95	284.38	10.61	
2025-01-19 10:44:59.16	284.34	10.60	
2025-01-19 10:44:59.36	284.31	10.59	
2025-01-19 10:44:59.56	284.27	10.58	
2025-01-19 10:44:59.76	284.24	10.57	
2025-01-19 10:44:59.97	284.20	10.56	
2025-01-19 10:45:00.17	284.17	10.55	
2025-01-19 10:45:00.37	284.13	10.54	
2025-01-19 10:45:00.58	284.10	10.53	
2025-01-19 10:45:00.78	284.06	10.52	
2025-01-19 10:45:00.98	284.03	10.51	
2025-01-19 10:45:01.19	283.99	10.49	
2025-01-19 10:45:01.39	283.96	10.48	
2025-01-19 10:45:01.59	283.92	10.47	
2025-01-19 10:45:01.80	283.88	10.46	
2025-01-19 10:45:02.00	283.85	10.45	
2025-01-19 10:45:02.20	283.82	10.44	
2025-01-19 10:45:02.40	283.78	10.43	
2025-01-19 10:45:02.61	283.75	10.42	
2025-01-19 10:45:02.81	283.71	10.41	
2025-01-19 10:45:03.01	283.68	10.40	
2025-01-19 10:45:03.22	283.64	10.39	
2025-01-19 10:45:03.42	283.61	10.38	
2025-01-19 10:45:03.62	283.57	10.37	
2025-01-19 10:45:03.83	283.54	10.35	
2025-01-19 10:45:04.03	283.50	10.34	
2025-01-19 10:45:04.23	283.47	10.33	
2025-01-19 10:45:04.44	283.43	10.32	
2025-01-19 10:45:04.64	283.40	10.31	
2025-01-19 10:45:04.84	283.36	10.30	
2025-01-19 10:45:05.04	283.33	10.29	
2025-01-19 10:45:05.25	283.29	10.28	
2025-01-19 10:45:05.45	283.26	10.27	
2025-01-19 10:45:05.65	283.23	10.26	
2025-01-19 10:45:05.86	283.19	10.25	
2025-01-19 10:45:06.06	283.16	10.24	
2025-01-19 10:45:06.26	283.12	10.22	
2025-01-19 10:45:06.47	283.09	10.21	
2025-01-19 10:45:06.67	283.05	10.20	
2025-01-19 10:45:06.87	283.02	10.19	
2025-01-19 10:45:07.08	282.98	10.18	
2025-01-19 10:45:07.28	282.95	10.17	
2025-01-19 10:45:07.48	282.92	10.16	
2025-01-19 10:45:07.68	282.88	10.15	
2025-01-19 10:45:07.89	282.85	10.14	
2025-01-19 10:45:08.09	282.81	10.13	
2025-01-19 10:45:08.29	282.78	10.12	
2025-01-19 10:45:08.50	282.74	10.10	
2025-01-19 10:45:08.70	282.71	10.09	
2025-01-19 10:45:08.90	282.68	10.08	
2025-01-19 10:45:09.11	282.64	10.07	
2025-01-19 10:45:09.31	282.61	10.06	
2025-01-19 10:45:09.51	282.57	10.05	
2025-01-19 10:45:09.72	282.54	10.04	
2025-01-19 10:45:09.92	282.51	10.03	
2025-01-19 10:45:10.12	282.47	10.02	
2025-01-19 10:45:10.32	282.44	10.01	
2025-01-19 10:45:10.53	282.40	9.99	
2025-01-19 10:45:10.73	282.37	9.98	
2025-01-19 10:45:10.93	282.34	9.97	
2025-01-19 10:45:11.14	282.30	9.96	
2025-01-19 10:45:11.34	282.27	9.95	
2025-01-19 10:45:11.54	282.24	9.94	
2025-01-19 10:45:11.75	282.20	9.93	
2025-01-19 10:45:11.95	282.17	9.92	
2025-01-19 10:45:12.15	282.13	9.91	
2025-01-19 10:45:12.36	282.10	9.90	
2025-01-19 10:45:12.56	282.07	9.89	
2025-01-19 10:45:12.76	282.03	9.87	
2025-01-19 10:45:12.96	282.00	9.86	
2025-01-19 10:45:13.17	281.97	9.85	
2025-01-19 10:45:13.37	281.93	9.84	
2025-01-19 10:45:13.57	281.90	9.83	
2025-01-19 10:45:13.78	281.87	9.82	
2025-01-19 10:45:13.98	281.83	9.81	
2025-01-19 10:45:14.18	281.80	9.80	
2025-01-19 10:45:14.39	281.76	9.79	
2025-01-19 10:45:14.59	281.73	9.77	
2025-01-19 10:45:14.79	281.70	9.76	
2025-01-19 10:45:15.00	281.66	9.75	
2025-01-19 10:45:15.20	281.63	9.74	
2025-01-19 10:45:15.40	281.60	9.73	
2025-01-19 10:45:15.60	281.57	9.72	
2025-01-19 10:45:15.81	281.53	9.71	
2025-01-19 10:45:16.01	281.50	9.70	
2025-01-19 10:45:16.21	281.47	9.69	
2025-01-19 10:45:16.42	281.43	9.68	
2025-01-19 10:45:16.62	281.40	9.66	
2025-01-19 10:45:16.82	281.37	9.65	
2025-01-19 10:45:17.03	281.33	9.64	
2025-01-19 10:45:17.23	281.30	9.63	
2025-01-19 10:45:17.43	281.27	9.62	
2025-01-19 10:45:17.64	281.23	9.61	
2025-01-19 10:45:17.84	281.20	9.60	
2025-01-19 10:45:18.04	281.17	9.59	
2025-01-19 10:45:18.24	281.14	9.58	
2025-01-19 10:45:18.45	281.10	9.56	
2025-01-19 10:45:18.65	281.07	9.55	
2025-01-19 10:45:18.85	281.04	9.54	
2025-01-19 10:45:19.06	281.01	9.53	
2025-01-19 10:45:19.26	280.97	9.52	
2025-01-19 10:45:19.46	280.94	9.51	
2025-01-19 10:45:19.67	280.91	9.50	
2025-01-19 10:45:19.87	280.88	9.49	
2025-01-19 10:45:20.07	280.84	9.48	
2025-01-19 10:45:20.28	280.81	9.46	
2025-01-19 10:45:20.48	280.78	9.45	
2025-01-19 10:45:20.68	280.75	9.44	
2025-01-19 10:45:20.88	280.71	9.43	
2025-01-19 10:45:21.09	280.68	9.42	
2025-01-19 10:45:21.29	280.65	9.41	
2025-01-19 10:45:21.49	280.62	9.40	
2025-01-19 10:45:21.70	280.58	9.39	
2025-01-19 10:45:21.90	280.55	9.38	
2025-01-19 10:45:22.10	280.52	9.36	
2025-01-19 10:45:22.31	280.49	9.35	
2025-01-19 10:45:22.51	280.45	9.34	
2025-01-19 10:45:22.71	280.42	9.33	
2025-01-19 10:45:22.92	280.39	9.32	
2025-01-19 10:45:23.12	280.36	9.31	
2025-01-19 10:45:23.32	280.33	9.30	
2025-01-19 10:45:23.52	280.29	9.29	
2025-01-19 10:45:23.73	280.26	9.28	
2025-01-19 10:45:23.93	280.23	9.26	
2025-01-19 10:45:24.13	280.20	9.25	
2025-01-19 10:45:24.34	280.16	9.24	
2025-01-19 10:45:24.54	280.13	9.23	
2025-01-19 10:45:24.74	280.10	9.22	
2025-01-19 10:45:24.95	280.07	9.21	
2025-01-19 10:45:25.15	280.04	9.20	
2025-01-19 10:45:25.35	280.01	9.19	
2025-01-19 10:45:25.56	279.97	9.17	
2025-01-19 10:45:25.76	279.94	9.16	
2025-01-19 10:45:25.96	279.91	9.15	
2025-01-19 10:45:26.16	279.88	9.14	
2025-01-19 10:45:26.37	279.85	9.13	
2025-01-19 10:45:26.57	279.81	9.12	
2025-01-19 10:45:26.77	279.78	9.11	
2025-01-19 10:45:26.98	279.75	9.10	
2025-01-19 10:45:27.18	279.72	9.09	
2025-01-19 10:45:27.38	279.69	9.07	
2025-01-19 10:45:27.59	279.66	9.06	
2025-01-19 10:45:27.79	279.62	9.05	
2025-01-19 10:45:27.99	279.59	9.04	
2025-01-19 10:45:28.20	279.56	9.03	
2025-01-19 10:45:28.40	279.53	9.02	
2025-01-19 10:45:28.60	279.50	9.01	
2025-01-19 10:45:28.80	279.47	9.00	
2025-01-19 10:45:29.01	279.44	8.98	
2025-01-19 10:45:29.21	279.40	8.97	
2025-01-19 10:45:29.41	279.37	8.96	
2025-01-19 10:45:29.62	279.34	8.95	
2025-01-19 10:45:29.82	279.31	8.94	
2025-01-19 10:45:30.02	279.28	8.93	
2025-01-19 10:45:30.23	279.25	8.92	
2025-01-19 10:45:30.43	279.22	8.91	
2025-01-19 10:45:30.63	279.19	8.89	
2025-01-19 10:45:30.84	279.15	8.88	
2025-01-19 10:45:31.04	279.12	8.87	
2025-01-19 10:45:31.24	279.09	8.86	
2025-01-19 10:45:31.44	279.06	8.85	
2025-01-19 10:45:31.65	279.03	8.84	
2025-01-19 10:45:31.85	279.00	8.83	
2025-01-19 10:45:32.05	278.97	8.82	
2025-01-19 10:45:32.26	278.94	8.80	
2025-01-19 10:45:32.46	278.91	8.79	
2025-01-19 10:45:32.66	278.88	8.78	
2025-01-19 10:45:32.87	278.84	8.77	
2025-01-19 10:45:33.07	278.81	8.76	
2025-01-19 10:45:33.27	278.78	8.75	
2025-01-19 10:45:33.48	278.75	8.74	
2025-01-19 10:45:33.68	278.72	8.73	
2025-01-19 10:45:33.88	278.69	8.71	
2025-01-19 10:45:34.08	278.66	8.70	
2025-01-19 10:45:34.29	278.63	8.69	
2025-01-19 10:45:34.49	278.60	8.68	
2025-01-19 10:45:34.69	278.57	8.67	
2025-01-19 10:45:34.90	278.54	8.66	
2025-01-19 10:45:35.10	278.51	8.65	
2025-01-19 10:45:35.30	278.48	8.64	
2025-01-19 10:45:35.51	278.44	8.62	
2025-01-19 10:45:35.71	278.41	8.61	
2025-01-19 10:45:35.91	278.38	8.60	
2025-01-19 10:45:36.12	278.35	8.59	
2025-01-19 10:45:36.32	278.32	8.58	
2025-01-19 10:45:36.52	278.29	8.57	
2025-01-19 10:45:36.72	278.26	8.56	
2025-01-19 10:45:36.93	278.23	8.54	
2025-01-19 10:45:37.13	278.20	8.53	
2025-01-19 10:45:37.33	278.17	8.52	
2025-01-19 10:45:37.54	278.14	8.51	
2025-01-19 10:45:37.74	278.11	8.50	
2025-01-19 10:45:37.94	278.08	8.49	
2025-01-19 10:45:38.15	278.05	8.48	
2025-01-19 10:45:38.35	278.02	8.47	
2025-01-19 10:45:38.55	277.99	8.45	
2025-01-19 10:45:38.76	277.96	8.44	
2025-01-19 10:45:38.96	277.93	8.43	
2025-01-19 10:45:39.16	277.90	8.42	
2025-01-19 10:45:39.37	277.87	8.41	
2025-01-19 10:45:39.57	277.84	8.40	
2025-01-19 10:45:39.77	277.81	8.39	
2025-01-19 10:45:39.97	277.78	8.38	
2025-01-19 10:45:40.18	277.75	8.36	
2025-01-19 10:45:40.38	277.72	8.35	
2025-01-19 10:45:40.58	277.69	8.34	
2025-01-19 10:45:40.79	277.66	8.33	
2025-01-19 10:45:40.99	277.63	8.32	
2025-01-19 10:45:41.19	277.60	8.31	
2025-01-19 10:45:41.40	277.57	8.30	
2025-01-19 10:45:41.60	277.54	8.28	
2025-01-19 10:45:41.80	277.51	8.27	
2025-01-19 10:45:42.01	277.48	8.26	
2025-01-19 10:45:42.21	277.45	8.25	
2025-01-19 10:45:42.41	277.42	8.24	
2025-01-19 10:45:42.61	277.39	8.23	
2025-01-19 10:45:42.82	277.36	8.22	
2025-01-19 10:45:43.02	277.33	8.21	
2025-01-19 10:45:43.22	277.30	8.19	
2025-01-19 10:45:43.43	277.27	8.18	
2025-01-19 10:45:43.63	277.24	8.17	
2025-01-19 10:45:43.83	277.21	8.16	
2025-01-19 10:45:44.04	277.18	8.15	
2025-01-19 10:45:44.24	277.15	8.14	
2025-01-19 10:45:44.44	277.13	8.13	
2025-01-19 10:45:44.64	277.10	8.11	
2025-01-19 10:45:44.85	277.07	8.10	
2025-01-19 10:45:45.05	277.04	8.09	
2025-01-19 10:45:45.25	277.01	8.08	
2025-01-19 10:45:45.46	276.98	8.07	
2025-01-19 10:45:45.66	276.95	8.06	
2025-01-19 10:45:45.86	276.92	8.05	
2025-01-19 10:45:46.07	276.89	8.03	
2025-01-19 10:45:46.27	276.86	8.02	
2025-01-19 10:45:46.47	276.83	8.01	
2025-01-19 10:45:46.68	276.80	8.00	
2025-01-19 10:45:46.88	276.77	7.99	
2025-01-19 10:45:47.08	276.75	7.98	
2025-01-19 10:45:47.29	276.72	7.97	
2025-01-19 10:45:47.49	276.69	7.96	
2025-01-19 10:45:47.69	276.66	7.94	
2025-01-19 10:45:47.89	276.63	7.93	
2025-01-19 10:45:48.10	276.60	7.92	
2025-01-19 10:45:48.30	276.57	7.91	
2025-01-19 10:45:48.50	276.54	7.90	
2025-01-19 10:45:48.71	276.51	7.89	
2025-01-19 10:45:48.91	276.48	7.88	
2025-01-19 10:45:49.11	276.46	7.86	
2025-01-19 10:45:49.32	276.43	7.85	
2025-01-19 10:45:49.52	276.40	7.84	
2025-01-19 10:45:49.72	276.37	7.83	
2025-01-19 10:45:49.93	276.34	7.82	
2025-01-19 10:45:50.13	276.31	7.81	
2025-01-19 10:45:50.33	276.28	7.80	
2025-01-19 10:45:50.53	276.25	7.79	
2025-01-19 10:45:50.74	276.22	7.77	
2025-01-19 10:45:50.94	276.20	7.76	
2025-01-19 10:45:51.14	276.17	7.75	
2025-01-19 10:45:51.35	276.14	7.74	
2025-01-19 10:45:51.55	276.11	7.73	
2025-01-19 10:45:51.75	276.08	7.72	
2025-01-19 10:45:51.96	276.05	7.71	
2025-01-19 10:45:52.16	276.03	7.69	
2025-01-19 10:45:52.36	276.00	7.68	
2025-01-19 10:45:52.56	275.97	7.67	
2025-01-19 10:45:52.77	275.94	7.66	
2025-01-19 10:45:52.97	275.91	7.65	
2025-01-19 10:45:53.17	275.88	7.64	
2025-01-19 10:45:53.38	275.85	7.63	
2025-01-19 10:45:53.58	275.83	7.61	
2025-01-19 10:45:53.78	275.80	7.60	
2025-01-19 10:45:53.99	275.77	7.59	
2025-01-19 10:45:54.19	275.74	7.58	
2025-01-19 10:45:54.39	275.71	7.57	
2025-01-19 10:45:54.60	275.68	7.56	
2025-01-19 10:45:54.80	275.66	7.55	
2025-01-19 10:45:55.00	275.63	7.53	
2025-01-19 10:45:55.21	275.60	7.52	
2025-01-19 10:45:55.41	275.57	7.51	
2025-01-19 10:45:55.61	275.54	7.50	
2025-01-19 10:45:55.81	275.52	7.49	
2025-01-19 10:45:56.02	275.49	7.48	
2025-01-19 10:45:56.22	275.46	7.47	
2025-01-19 10:45:56.42	275.43	7.46	
2025-01-19 10:45:56.63	275.40	7.44	
2025-01-19 10:45:56.83	275.38	7.43	
2025-01-19 10:45:57.03	275.35	7.42	
2025-01-19 10:45:57.24	275.32	7.41	
2025-01-19 10:45:57.44	275.29	7.40	
2025-01-19 10:45:57.64	275.27	7.39	
2025-01-19 10:45:57.85	275.24	7.37	
2025-01-19 10:45:58.05	275.21	7.36	
2025-01-19 10:45:58.25	275.18	7.35	
2025-01-19 10:45:58.45	275.15	7.34	
2025-01-19 10:45:58.66	275.13	7.33	
2025-01-19 10:45:58.86	275.10	7.32	
2025-01-19 10:45:59.06	275.07	7.31	
2025-01-19 10:45:59.27	275.04	7.30	
2025-01-19 10:45:59.47	275.02	7.28	
2025-01-19 10:45:59.67	274.99	7.27	
2025-01-19 10:45:59.88	274.96	7.26	
2025-01-19 10:46:00.08	274.93	7.25	
2025-01-19 10:46:00.28	274.91	7.24	
2025-01-19 10:46:00.49	274.88	7.23	
2025-01-19 10:46:00.69	274.85	7.22	
2025-01-19 10:46:00.89	274.82	7.20	
2025-01-19 10:46:01.09	274.80	7.19	
2025-01-19 10:46:01.30	274.77	7.18	
2025-01-19 10:46:01.50	274.74	7.17	
2025-01-19 10:46:01.70	274.71	7.16	
2025-01-19 10:46:01.91	274.69	7.15	
2025-01-19 10:46:02.11	274.66	7.14	
2025-01-19 10:46:02.31	274.63	7.12	
2025-01-19 10:46:02.52	274.60	7.11	
2025-01-19 10:46:02.72	274.58	7.10	
2025-01-19 10:46:02.92	274.55	7.09	
2025-01-19 10:46:03.13	274.52	7.08	
2025-01-19 10:46:03.33	274.49	7.07	
2025-01-19 10:46:03.53	274.47	7.06	
2025-01-19 10:46:03.73	274.44	7.04	
2025-01-19 10:46:03.94	274.41	7.03	
2025-01-19 10:46:04.14	274.39	7.02	
2025-01-19 10:46:04.34	274.36	7.01	
2025-01-19 10:46:04.55	274.33	7.00	
2025-01-19 10:46:04.75	274.31	6.99	
2025-01-19 10:46:04.95	274.28	6.98	
2025-01-19 10:46:05.16	274.25	6.96	
2025-01-19 10:46:05.36	274.22	6.95	
2025-01-19 10:46:05.56	274.20	6.94	
2025-01-19 10:46:05.77	274.17	6.93	
2025-01-19 10:46:05.97	274.14	6.92	
2025-01-19 10:46:06.17	274.12	6.91	
2025-01-19 10:46:06.37	274.09	6.90	
2025-01-19 10:46:06.58	274.06	6.89	
2025-01-19 10:46:06.78	274.04	6.87	
2025-01-19 10:46:06.98	274.01	6.86	
2025-01-19 10:46:07.19	273.98	6.85	
2025-01-19 10:46:07.39	273.96	6.84	
2025-01-19 10:46:07.59	273.93	6.83	
2025-01-19 10:46:07.80	273.90	6.82	
2025-01-19 10:46:08.00	273.88	6.81	
2025-01-19 10:46:08.20	273.85	6.79	
2025-01-19 10:46:08.41	273.82	6.78	
2025-01-19 10:46:08.61	273.80	6.77	
2025-01-19 10:46:08.81	273.77	6.76	
2025-01-19 10:46:09.01	273.74	6.75	
2025-01-19 10:46:09.22	273.72	6.74	
2025-01-19 10:46:09.42	273.69	6.73	
2025-01-19 10:46:09.62	273.66	6.71	
2025-01-19 10:46:09.83	273.64	6.70	
2025-01-19 10:46:10.03	273.61	6.69	
2025-01-19 10:46:10.23	273.59	6.68	
2025-01-19 10:46:10.44	273.56	6.67	
2025-01-19 10:46:10.64	273.53	6.66	
2025-01-19 10:46:10.84	273.51	6.65	
2025-01-19 10:46:11.05	273.48	6.63	
2025-01-19 10:46:11.25	273.45	6.62	
2025-01-19 10:46:11.45	273.43	6.61	
2025-01-19 10:46:11.65	273.40	6.60	
2025-01-19 10:46:11.86	273.37	6.59	
2025-01-19 10:46:12.06	273.35	6.58	
2025-01-19 10:46:12.26	273.32	6.57	
2025-01-19 10:46:12.47	273.30	6.55	
2025-01-19 10:46:12.67	273.27	6.54	
2025-01-19 10:46:12.87	273.24	6.53	
2025-01-19 10:46:13.08	273.22	6.52	
2025-01-19 10:46:13.28	273.19	6.51	
2025-01-19 10:46:13.48	273.17	6.50	
2025-01-19 10:46:13.69	273.14	6.49	
2025-01-19 10:46:13.89	273.11	6.47	
2025-01-19 10:46:14.09	273.09	6.46	
2025-01-19 10:46:14.29	273.06	6.45	
2025-01-19 10:46:14.50	273.04	6.44	
2025-01-19 10:46:14.70	273.01	6.43	
2025-01-19 10:46:14.90	272.98	6.42	
2025-01-19 10:46:15.11	272.96	6.41	
2025-01-19 10:46:15.31	272.93	6.40	
2025-01-19 10:46:15.51	272.91	6.38	
2025-01-19 10:46:15.72	272.88	6.37	
2025-01-19 10:46:15.92	272.86	6.36	
2025-01-19 10:46:16.12	272.83	6.35	
2025-01-19 10:46:16.33	272.80	6.34	
2025-01-19 10:46:16.53	272.78	6.33	
2025-01-19 10:46:16.73	272.75	6.32	
2025-01-19 10:46:16.93	272.73	6.30	
2025-01-19 10:46:17.14	272.70	6.29	
2025-01-19 10:46:17.34	272.68	6.28	
2025-01-19 10:46:17.54	272.65	6.27	
2025-01-19 10:46:17.75	272.62	6.26	
2025-01-19 10:46:17.95	272.60	6.25	
2025-01-19 10:46:18.15	272.57	6.24	
2025-01-19 10:46:18.36	272.55	6.22	
2025-01-19 10:46:18.56	272.52	6.21	
2025-01-19 10:46:18.76	272.50	6.20	
2025-01-19 10:46:18.97	272.47	6.19	
2025-01-19 10:46:19.17	272.45	6.18	
2025-01-19 10:46:19.37	272.42	6.17	
2025-01-19 10:46:19.57	272.40	6.16	
2025-01-19 10:46:19.78	272.37	6.14	
2025-01-19 10:46:19.98	272.35	6.13	
2025-01-19 10:46:20.18	272.32	6.12	
2025-01-19 10:46:20.39	272.29	6.11	
2025-01-19 10:46:20.59	272.27	6.10	
2025-01-19 10:46:20.79	272.24	6.09	
2025-01-19 10:46:21.00	272.22	6.08	
2025-01-19 10:46:21.20	272.19	6.07	
2025-01-19 10:46:21.40	272.17	6.05	
2025-01-19 10:46:21.61	272.14	6.04	
2025-01-19 10:46:21.81	272.12	6.03	
2025-01-19 10:46:22.01	272.09	6.02	
2025-01-19 10:46:22.21	272.07	6.01	
2025-01-19 10:46:22.42	272.04	6.00	
2025-01-19 10:46:22.62	272.02	5.99	
2025-01-19 10:46:22.82	271.99	5.97	
2025-01-19 10:46:23.03	271.97	5.96	
2025-01-19 10:46:23.23	271.94	5.95	
2025-01-19 10:46:23.43	271.92	5.94	
2025-01-19 10:46:23.64	271.89	5.93	
2025-01-19 10:46:23.84	271.87	5.92	
2025-01-19 10:46:24.04	271.84	5.91	
2025-01-19 10:46:24.25	271.82	5.89	
2025-01-19 10:46:24.45	271.79	5.88	
2025-01-19 10:46:24.65	271.77	5.87	
2025-01-19 10:46:24.85	271.74	5.86	
2025-01-19 10:46:25.06	271.72	5.85	
2025-01-19 10:46:25.26	271.69	5.84	
2025-01-19 10:46:25.46	271.67	5.83	
2025-01-19 10:46:25.67	271.64	5.82	
2025-01-19 10:46:25.87	271.62	5.80	
2025-01-19 10:46:26.07	271.60	5.79	
2025-01-19 10:46:26.28	271.57	5.78	
2025-01-19 10:46:26.48	271.55	5.77	
2025-01-19 10:46:26.68	271.52	5.76	
2025-01-19 10:46:26.89	271.50	5.75	
2025-01-19 10:46:27.09	271.47	5.74	
2025-01-19 10:46:27.29	271.45	5.72	
2025-01-19 10:46:27.49	271.42	5.71	
2025-01-19 10:46:27.70	271.40	5.70	
2025-01-19 10:46:27.90	271.37	5.69	
2025-01-19 10:46:28.10	271.35	5.68	
2025-01-19 10:46:28.31	271.33	5.67	
2025-01-19 10:46:28.51	271.30	5.66	
2025-01-19 10:46:28.71	271.28	5.65	
2025-01-19 10:46:28.92	271.25	5.63	
2025-01-19 10:46:29.12	271.23	5.62	
2025-01-19 10:46:29.32	271.20	5.61	
2025-01-19 10:46:29.53	271.18	5.60	
2025-01-19 10:46:29.73	271.15	5.59	
2025-01-19 10:46:29.93	271.13	5.58	
2025-01-19 10:46:30.13	271.11	5.57	
2025-01-19 10:46:30.34	271.08	5.55	
2025-01-19 10:46:30.54	271.06	5.54	
2025-01-19 10:46:30.74	271.03	5.53	
2025-01-19 10:46:30.95	271.01	5.52	
2025-01-19 10:46:31.15	270.99	5.51	
2025-01-19 10:46:31.35	270.96	5.50	
2025-01-19 10:46:31.56	270.94	5.49	
2025-01-19 10:46:31.76	270.91	5.48	
2025-01-19 10:46:31.96	270.89	5.46	
2025-01-19 10:46:32.17	270.86	5.45	
2025-01-19 10:46:32.37	270.84	5.44	
2025-01-19 10:46:32.57	270.82	5.43	
2025-01-19 10:46:32.77	270.79	5.42	
2025-01-19 10:46:32.98	270.77	5.41	
2025-01-19 10:46:33.18	270.75	5.40	
2025-01-19 10:46:33.38	270.72	5.38	
2025-01-19 10:46:33.59	270.70	5.37	
2025-01-19 10:46:33.79	270.67	5.36	
2025-01-19 10:46:33.99	270.65	5.35	
2025-01-19 10:46:34.20	270.63	5.34	
2025-01-19 10:46:34.40	270.60	5.33	
2025-01-19 10:46:34.60	270.58	5.32	
2025-01-19 10:46:34.81	270.55	5.31	
2025-01-19 10:46:35.01	270.53	5.29	
2025-01-19 10:46:35.21	270.51	5.28	
2025-01-19 10:46:35.41	270.48	5.27	
2025-01-19 10:46:35.62	270.46	5.26	
2025-01-19 10:46:35.82	270.44	5.25	
2025-01-19 10:46:36.02	270.41	5.24	
2025-01-19 10:46:36.23	270.39	5.23	
2025-01-19 10:46:36.43	270.37	5.21	
2025-01-19 10:46:36.63	270.34	5.20	
2025-01-19 10:46:36.84	270.32	5.19	
2025-01-19 10:46:37.04	270.29	5.18	
2025-01-19 10:46:37.24	270.27	5.17	
2025-01-19 10:46:37.45	270.25	5.16	
2025-01-19 10:46:37.65	270.22	5.15	
2025-01-19 10:46:37.85	270.20	5.14	
2025-01-19 10:46:38.05	270.18	5.12	
2025-01-19 10:46:38.26	270.15	5.11	
2025-01-19 10:46:38.46	270.13	5.10	
2025-01-19 10:46:38.66	270.11	5.09	
2025-01-19 10:46:38.87	270.08	5.08	
2025-01-19 10:46:39.07	270.06	5.07	
2025-01-19 10:46:39.27	270.04	5.06	
2025-01-19 10:46:39.48	270.01	5.05	
2025-01-19 10:46:39.68	269.99	5.03	
2025-01-19 10:46:39.88	269.97	5.02	
2025-01-19 10:46:40.09	269.94	5.01	
2025-01-19 10:46:40.29	269.92	5.00	
2025-01-19 10:46:40.49	269.90	4.99	
2025-01-19 10:46:40.69	269.87	4.98	
2025-01-19 10:46:40.90	269.85	4.97	
2025-01-19 10:46:41.10	269.83	4.96	
2025-01-19 10:46:41.30	269.81	4.94	
2025-01-19 10:46:41.51	269.78	4.93	
2025-01-19 10:46:41.71	269.76	4.92	
2025-01-19 10:46:41.91	269.74	4.91	
2025-01-19 10:46:42.12	269.71	4.90	
2025-01-19 10:46:42.32	269.69	4.89	
2025-01-19 10:46:42.52	269.67	4.88	
2025-01-19 10:46:42.73	269.64	4.86	
2025-01-19 10:46:42.93	269.62	4.85	
2025-01-19 10:46:43.13	269.60	4.84	
2025-01-19 10:46:43.33	269.58	4.83	
2025-01-19 10:46:43.54	269.55	4.82	
2025-01-19 10:46:43.74	269.53	4.81	
2025-01-19 10:46:43.94	269.51	4.80	
2025-01-19 10:46:44.15	269.48	4.79	
2025-01-19 10:46:44.35	269.46	4.77	
2025-01-19 10:46:44.55	269.44	4.76	
2025-01-19 10:46:44.76	269.41	4.75	
2025-01-19 10:46:44.96	269.39	4.74	
2025-01-19 10:46:45.16	269.37	4.73	
2025-01-19 10:46:45.37	269.35	4.72	
2025-01-19 10:46:45.57	269.32	4.71	
2025-01-19 10:46:45.77	269.30	4.70	
2025-01-19 10:46:45.97	269.28	4.69	
2025-01-19 10:46:46.18	269.26	4.67	
2025-01-19 10:46:46.38	269.23	4.66	
2025-01-19 10:46:46.58	269.21	4.65	
2025-01-19 10:46:46.79	269.19	4.64	
2025-01-19 10:46:46.99	269.17	4.63	
2025-01-19 10:46:47.19	269.14	4.62	
2025-01-19 10:46:47.40	269.12	4.61	
2025-01-19 10:46:47.60	269.10	4.60	
2025-01-19 10:46:47.80	269.08	4.58	
2025-01-19 10:46:48.01	269.05	4.57	
2025-01-19 10:46:48.21	269.03	4.56	
2025-01-19 10:46:48.41	269.01	4.55	
2025-01-19 10:46:48.61	268.99	4.54	
2025-01-19 10:46:48.82	268.96	4.53	
2025-01-19 10:46:49.02	268.94	4.52	
2025-01-19 10:46:49.22	268.92	4.51	
2025-01-19 10:46:49.43	268.90	4.49	
2025-01-19 10:46:49.63	268.87	4.48	
2025-01-19 10:46:49.83	268.85	4.47	
2025-01-19 10:46:50.04	268.83	4.46	
2025-01-19 10:46:50.24	268.81	4.45	
2025-01-19 10:46:50.44	268.78	4.44	
2025-01-19 10:46:50.65	268.76	4.43	
2025-01-19 10:46:50.85	268.74	4.42	
2025-01-19 10:46:51.05	268.72	4.40	
2025-01-19 10:46:51.25	268.70	4.39	
2025-01-19 10:46:51.46	268.67	4.38	
2025-01-19 10:46:51.66	268.65	4.37	
2025-01-19 10:46:51.86	268.63	4.36	
2025-01-19 10:46:52.07	268.61	4.35	
2025-01-19 10:46:52.27	268.59	4.34	
2025-01-19 10:46:52.47	268.56	4.33	
2025-01-19 10:46:52.68	268.54	4.31	
2025-01-19 10:46:52.88	268.52	4.30	
2025-01-19 10:46:53.08	268.50	4.29	
2025-01-19 10:46:53.29	268.47	4.28	
2025-01-19 10:46:53.49	268.45	4.27	
2025-01-19 10:46:53.69	268.43	4.26	
2025-01-19 10:46:53.89	268.41	4.25	
2025-01-19 10:46:54.10	268.39	4.24	
2025-01-19 10:46:54.30	268.37	4.23	
2025-01-19 10:46:54.50	268.34	4.21	
2025-01-19 10:46:54.71	268.32	4.20	
2025-01-19 10:46:54.91	268.30	4.19	
2025-01-19 10:46:55.11	268.28	4.18	
2025-01-19 10:46:55.32	268.26	4.17	
2025-01-19 10:46:55.52	268.23	4.16	
2025-01-19 10:46:55.72	268.21	4.15	
2025-01-19 10:46:55.93	268.19	4.14	
2025-01-19 10:46:56.13	268.17	4.12	
2025-01-19 10:46:56.33	268.15	4.11	
2025-01-19 10:46:56.53	268.13	4.10	
2025-01-19 10:46:56.74	268.10	4.09	
2025-01-19 10:46:56.94	268.08	4.08	
2025-01-19 10:46:57.14	268.06	4.07	
2025-01-19 10:46:57.35	268.04	4.06	
2025-01-19 10:46:57.55	268.02	4.05	
2025-01-19 10:46:57.75	268.00	4.04	
2025-01-19 10:46:57.96	267.97	4.02	
2025-01-19 10:46:58.16	267.95	4.01	
2025-01-19 10:46:58.36	267.93	4.00	

#Closed at: 2025-01-19 10:46:58