passes_logs/2025/01/19/SPB_Silybum_02/SPB_Silybum_02__20250119_011825_AQUA_rec.log

#Pass ID: 20250119_011825_AQUA
#Satellite: AQUA
#Configuration: AQUA
#Start time: 2025-01-19 01:18:26

#Version: 2.0.20230423
#Station: SPB_Silybum_02
#Location: 30.233357 lon 59.946436 lat
#TLE: 1 27424U 02022A   25018.15645899  .00002321  00000+0  48623-3 0  9991
#TLE: 2 27424  98.3597 334.8489 0001860 108.2535 309.6560 14.60697098208087

#Time	Az	El	Level	Level2	SNR	BER	Gain	Gain2
2025-01-19 01:18:28.63	17.42	4.22	
2025-01-19 01:18:28.83	17.42	4.23	
2025-01-19 01:18:29.04	17.43	4.25	
2025-01-19 01:18:29.24	17.43	4.26	
2025-01-19 01:18:29.44	17.43	4.28	
2025-01-19 01:18:29.65	17.43	4.29	
2025-01-19 01:18:29.85	17.43	4.31	
2025-01-19 01:18:30.05	17.43	4.32	
2025-01-19 01:18:30.26	17.43	4.34	
2025-01-19 01:18:30.46	17.43	4.35	
2025-01-19 01:18:30.66	17.43	4.37	
2025-01-19 01:18:30.87	17.44	4.38	
2025-01-19 01:18:31.07	17.44	4.40	
2025-01-19 01:18:31.27	17.44	4.41	
2025-01-19 01:18:31.48	17.44	4.43	
2025-01-19 01:18:31.68	17.44	4.44	
2025-01-19 01:18:31.88	17.44	4.46	
2025-01-19 01:18:32.09	17.44	4.47	
2025-01-19 01:18:32.29	17.44	4.49	
2025-01-19 01:18:32.49	17.44	4.50	
2025-01-19 01:18:32.69	17.45	4.51	
2025-01-19 01:18:32.90	17.45	4.53	
2025-01-19 01:18:33.10	17.45	4.54	
2025-01-19 01:18:33.30	17.45	4.56	
2025-01-19 01:18:33.51	17.45	4.57	
2025-01-19 01:18:33.71	17.45	4.59	
2025-01-19 01:18:33.91	17.45	4.60	
2025-01-19 01:18:34.12	17.45	4.62	
2025-01-19 01:18:34.32	17.45	4.63	
2025-01-19 01:18:34.52	17.46	4.65	
2025-01-19 01:18:34.73	17.46	4.66	
2025-01-19 01:18:34.93	17.46	4.68	
2025-01-19 01:18:35.13	17.46	4.69	
2025-01-19 01:18:35.34	17.46	4.71	
2025-01-19 01:18:35.54	17.46	4.72	
2025-01-19 01:18:35.74	17.46	4.74	
2025-01-19 01:18:35.95	17.46	4.75	
2025-01-19 01:18:36.15	17.46	4.77	
2025-01-19 01:18:36.35	17.47	4.78	
2025-01-19 01:18:36.56	17.47	4.80	
2025-01-19 01:18:36.76	17.47	4.81	
2025-01-19 01:18:36.96	17.47	4.83	
2025-01-19 01:18:37.17	17.47	4.84	
2025-01-19 01:18:37.37	17.47	4.86	
2025-01-19 01:18:37.57	17.47	4.87	
2025-01-19 01:18:37.78	17.47	4.89	
2025-01-19 01:18:37.98	17.47	4.90	
2025-01-19 01:18:38.18	17.48	4.92	
2025-01-19 01:18:38.38	17.48	4.93	
2025-01-19 01:18:38.59	17.48	4.95	
2025-01-19 01:18:38.79	17.48	4.96	
2025-01-19 01:18:38.99	17.48	4.98	
2025-01-19 01:18:39.20	17.48	4.99	
2025-01-19 01:18:39.40	17.48	5.01	
2025-01-19 01:18:39.60	17.48	5.02	
2025-01-19 01:18:39.81	17.49	5.04	
2025-01-19 01:18:40.01	17.49	5.05	
2025-01-19 01:18:40.21	17.49	5.07	
2025-01-19 01:18:40.42	17.49	5.08	
2025-01-19 01:18:40.62	17.49	5.10	
2025-01-19 01:18:40.82	17.49	5.11	
2025-01-19 01:18:41.03	17.49	5.13	
2025-01-19 01:18:41.23	17.49	5.15	
2025-01-19 01:18:41.43	17.49	5.16	
2025-01-19 01:18:41.64	17.50	5.18	
2025-01-19 01:18:41.84	17.50	5.19	
2025-01-19 01:18:42.04	17.50	5.21	
2025-01-19 01:18:42.25	17.50	5.22	
2025-01-19 01:18:42.45	17.50	5.24	
2025-01-19 01:18:42.65	17.50	5.25	
2025-01-19 01:18:42.86	17.50	5.27	
2025-01-19 01:18:43.06	17.50	5.28	
2025-01-19 01:18:43.26	17.50	5.30	
2025-01-19 01:18:43.47	17.51	5.31	
2025-01-19 01:18:43.67	17.51	5.33	
2025-01-19 01:18:43.87	17.51	5.34	
2025-01-19 01:18:44.07	17.51	5.36	
2025-01-19 01:18:44.28	17.51	5.37	
2025-01-19 01:18:44.48	17.51	5.39	
2025-01-19 01:18:44.68	17.51	5.41	
2025-01-19 01:18:44.89	17.51	5.42	
2025-01-19 01:18:45.09	17.51	5.44	
2025-01-19 01:18:45.29	17.52	5.45	
2025-01-19 01:18:45.50	17.52	5.47	
2025-01-19 01:18:45.70	17.52	5.48	
2025-01-19 01:18:45.90	17.52	5.50	
2025-01-19 01:18:46.11	17.52	5.51	
2025-01-19 01:18:46.31	17.52	5.53	
2025-01-19 01:18:46.51	17.52	5.54	
2025-01-19 01:18:46.72	17.52	5.56	
2025-01-19 01:18:46.92	17.52	5.58	
2025-01-19 01:18:47.12	17.53	5.59	
2025-01-19 01:18:47.33	17.53	5.61	
2025-01-19 01:18:47.53	17.53	5.62	
2025-01-19 01:18:47.73	17.53	5.64	
2025-01-19 01:18:47.94	17.53	5.65	
2025-01-19 01:18:48.14	17.53	5.67	
2025-01-19 01:18:48.34	17.53	5.68	
2025-01-19 01:18:48.55	17.53	5.70	
2025-01-19 01:18:48.75	17.53	5.72	
2025-01-19 01:18:48.95	17.54	5.73	
2025-01-19 01:18:49.16	17.54	5.75	
2025-01-19 01:18:49.36	17.54	5.76	
2025-01-19 01:18:49.56	17.54	5.78	
2025-01-19 01:18:49.76	17.54	5.79	
2025-01-19 01:18:49.97	17.54	5.81	
2025-01-19 01:18:50.17	17.54	5.82	
2025-01-19 01:18:50.37	17.54	5.84	
2025-01-19 01:18:50.58	17.54	5.86	
2025-01-19 01:18:50.78	17.55	5.87	
2025-01-19 01:18:50.98	17.55	5.89	
2025-01-19 01:18:51.19	17.55	5.90	
2025-01-19 01:18:51.39	17.55	5.92	
2025-01-19 01:18:51.59	17.55	5.93	
2025-01-19 01:18:51.80	17.55	5.95	
2025-01-19 01:18:52.00	17.55	5.97	
2025-01-19 01:18:52.20	17.55	5.98	
2025-01-19 01:18:52.41	17.55	6.00	
2025-01-19 01:18:52.61	17.56	6.01	
2025-01-19 01:18:52.81	17.56	6.03	
2025-01-19 01:18:53.02	17.56	6.05	
2025-01-19 01:18:53.22	17.56	6.06	
2025-01-19 01:18:53.42	17.56	6.08	
2025-01-19 01:18:53.63	17.56	6.09	
2025-01-19 01:18:53.83	17.56	6.11	
2025-01-19 01:18:54.03	17.56	6.12	
2025-01-19 01:18:54.24	17.57	6.14	
2025-01-19 01:18:54.44	17.57	6.16	
2025-01-19 01:18:54.64	17.57	6.17	
2025-01-19 01:18:54.85	17.57	6.19	
2025-01-19 01:18:55.05	17.57	6.20	
2025-01-19 01:18:55.25	17.57	6.22	
2025-01-19 01:18:55.45	17.57	6.23	
2025-01-19 01:18:55.66	17.57	6.25	
2025-01-19 01:18:55.86	17.57	6.27	
2025-01-19 01:18:56.06	17.58	6.28	
2025-01-19 01:18:56.27	17.58	6.30	
2025-01-19 01:18:56.47	17.58	6.31	
2025-01-19 01:18:56.67	17.58	6.33	
2025-01-19 01:18:56.88	17.58	6.35	
2025-01-19 01:18:57.08	17.58	6.36	
2025-01-19 01:18:57.28	17.58	6.38	
2025-01-19 01:18:57.49	17.58	6.40	
2025-01-19 01:18:57.69	17.58	6.41	
2025-01-19 01:18:57.89	17.59	6.43	
2025-01-19 01:18:58.10	17.59	6.44	
2025-01-19 01:18:58.30	17.59	6.46	
2025-01-19 01:18:58.50	17.59	6.48	
2025-01-19 01:18:58.71	17.59	6.49	
2025-01-19 01:18:58.91	17.59	6.51	
2025-01-19 01:18:59.11	17.59	6.52	
2025-01-19 01:18:59.32	17.59	6.54	
2025-01-19 01:18:59.52	17.59	6.56	
2025-01-19 01:18:59.72	17.60	6.57	
2025-01-19 01:18:59.93	17.60	6.59	
2025-01-19 01:19:00.13	17.60	6.60	
2025-01-19 01:19:00.33	17.60	6.62	
2025-01-19 01:19:00.53	17.60	6.64	
2025-01-19 01:19:00.74	17.60	6.65	
2025-01-19 01:19:00.94	17.60	6.67	
2025-01-19 01:19:01.14	17.60	6.69	
2025-01-19 01:19:01.35	17.61	6.70	
2025-01-19 01:19:01.55	17.61	6.72	
2025-01-19 01:19:01.75	17.61	6.73	
2025-01-19 01:19:01.96	17.61	6.75	
2025-01-19 01:19:02.16	17.61	6.77	
2025-01-19 01:19:02.36	17.61	6.78	
2025-01-19 01:19:02.57	17.61	6.80	
2025-01-19 01:19:02.77	17.61	6.82	
2025-01-19 01:19:02.97	17.61	6.83	
2025-01-19 01:19:03.18	17.62	6.85	
2025-01-19 01:19:03.38	17.62	6.87	
2025-01-19 01:19:03.58	17.62	6.88	
2025-01-19 01:19:03.79	17.62	6.90	
2025-01-19 01:19:03.99	17.62	6.91	
2025-01-19 01:19:04.19	17.62	6.93	
2025-01-19 01:19:04.40	17.62	6.95	
2025-01-19 01:19:04.60	17.62	6.96	
2025-01-19 01:19:04.80	17.62	6.98	
2025-01-19 01:19:05.01	17.63	7.00	
2025-01-19 01:19:05.21	17.63	7.01	
2025-01-19 01:19:05.41	17.63	7.03	
2025-01-19 01:19:05.62	17.63	7.05	
2025-01-19 01:19:05.82	17.63	7.06	
2025-01-19 01:19:06.02	17.63	7.08	
2025-01-19 01:19:06.22	17.63	7.10	
2025-01-19 01:19:06.43	17.63	7.11	
2025-01-19 01:19:06.63	17.64	7.13	
2025-01-19 01:19:06.83	17.64	7.14	
2025-01-19 01:19:07.04	17.64	7.16	
2025-01-19 01:19:07.24	17.64	7.18	
2025-01-19 01:19:07.44	17.64	7.19	
2025-01-19 01:19:07.65	17.64	7.21	
2025-01-19 01:19:07.85	17.64	7.23	
2025-01-19 01:19:08.05	17.64	7.24	
2025-01-19 01:19:08.26	17.64	7.26	
2025-01-19 01:19:08.46	17.65	7.28	
2025-01-19 01:19:08.66	17.65	7.29	
2025-01-19 01:19:08.87	17.65	7.31	
2025-01-19 01:19:09.07	17.65	7.33	
2025-01-19 01:19:09.27	17.65	7.34	
2025-01-19 01:19:09.48	17.65	7.36	
2025-01-19 01:19:09.68	17.65	7.38	
2025-01-19 01:19:09.88	17.65	7.39	
2025-01-19 01:19:10.09	17.66	7.41	
2025-01-19 01:19:10.29	17.66	7.43	
2025-01-19 01:19:10.49	17.66	7.45	
2025-01-19 01:19:10.70	17.66	7.46	
2025-01-19 01:19:10.90	17.66	7.48	
2025-01-19 01:19:11.10	17.66	7.50	
2025-01-19 01:19:11.31	17.66	7.51	
2025-01-19 01:19:11.51	17.66	7.53	
2025-01-19 01:19:11.71	17.66	7.55	
2025-01-19 01:19:11.91	17.67	7.56	
2025-01-19 01:19:12.12	17.67	7.58	
2025-01-19 01:19:12.32	17.67	7.60	
2025-01-19 01:19:12.52	17.67	7.61	
2025-01-19 01:19:12.73	17.67	7.63	
2025-01-19 01:19:12.93	17.67	7.65	
2025-01-19 01:19:13.13	17.67	7.66	
2025-01-19 01:19:13.34	17.67	7.68	
2025-01-19 01:19:13.54	17.67	7.70	
2025-01-19 01:19:13.74	17.68	7.72	
2025-01-19 01:19:13.95	17.68	7.73	
2025-01-19 01:19:14.15	17.68	7.75	
2025-01-19 01:19:14.35	17.68	7.77	
2025-01-19 01:19:14.56	17.68	7.78	
2025-01-19 01:19:14.76	17.68	7.80	
2025-01-19 01:19:14.96	17.68	7.82	
2025-01-19 01:19:15.17	17.68	7.84	
2025-01-19 01:19:15.37	17.69	7.85	
2025-01-19 01:19:15.57	17.69	7.87	
2025-01-19 01:19:15.78	17.69	7.89	
2025-01-19 01:19:15.98	17.69	7.90	
2025-01-19 01:19:16.18	17.69	7.92	
2025-01-19 01:19:16.39	17.69	7.94	
2025-01-19 01:19:16.59	17.69	7.96	
2025-01-19 01:19:16.79	17.69	7.97	
2025-01-19 01:19:17.00	17.69	7.99	
2025-01-19 01:19:17.20	17.70	8.01	
2025-01-19 01:19:17.40	17.70	8.02	
2025-01-19 01:19:17.60	17.70	8.04	
2025-01-19 01:19:17.81	17.70	8.06	
2025-01-19 01:19:18.01	17.70	8.08	
2025-01-19 01:19:18.21	17.70	8.09	
2025-01-19 01:19:18.42	17.70	8.11	
2025-01-19 01:19:18.62	17.70	8.13	
2025-01-19 01:19:18.82	17.71	8.14	
2025-01-19 01:19:19.03	17.71	8.16	
2025-01-19 01:19:19.23	17.71	8.18	
2025-01-19 01:19:19.43	17.71	8.20	
2025-01-19 01:19:19.64	17.71	8.21	
2025-01-19 01:19:19.84	17.71	8.23	
2025-01-19 01:19:20.04	17.71	8.25	
2025-01-19 01:19:20.25	17.71	8.27	
2025-01-19 01:19:20.45	17.72	8.28	
2025-01-19 01:19:20.65	17.72	8.30	
2025-01-19 01:19:20.86	17.72	8.32	
2025-01-19 01:19:21.06	17.72	8.34	
2025-01-19 01:19:21.26	17.72	8.35	
2025-01-19 01:19:21.47	17.72	8.37	
2025-01-19 01:19:21.67	17.72	8.39	
2025-01-19 01:19:21.87	17.72	8.41	
2025-01-19 01:19:22.08	17.72	8.42	
2025-01-19 01:19:22.28	17.73	8.44	
2025-01-19 01:19:22.48	17.73	8.46	
2025-01-19 01:19:22.69	17.73	8.48	
2025-01-19 01:19:22.89	17.73	8.49	
2025-01-19 01:19:23.09	17.73	8.51	
2025-01-19 01:19:23.29	17.73	8.53	
2025-01-19 01:19:23.50	17.73	8.55	
2025-01-19 01:19:23.70	17.73	8.56	
2025-01-19 01:19:23.90	17.74	8.58	
2025-01-19 01:19:24.11	17.74	8.60	
2025-01-19 01:19:24.31	17.74	8.62	
2025-01-19 01:19:24.51	17.74	8.63	
2025-01-19 01:19:24.72	17.74	8.65	
2025-01-19 01:19:24.92	17.74	8.67	
2025-01-19 01:19:25.12	17.74	8.69	
2025-01-19 01:19:25.33	17.74	8.71	
2025-01-19 01:19:25.53	17.74	8.72	
2025-01-19 01:19:25.73	17.75	8.74	
2025-01-19 01:19:25.94	17.75	8.76	
2025-01-19 01:19:26.14	17.75	8.78	
2025-01-19 01:19:26.34	17.75	8.79	
2025-01-19 01:19:26.55	17.75	8.81	
2025-01-19 01:19:26.75	17.75	8.83	
2025-01-19 01:19:26.95	17.75	8.85	
2025-01-19 01:19:27.16	17.75	8.87	
2025-01-19 01:19:27.36	17.76	8.88	
2025-01-19 01:19:27.56	17.76	8.90	
2025-01-19 01:19:27.77	17.76	8.92	
2025-01-19 01:19:27.97	17.76	8.94	
2025-01-19 01:19:28.17	17.76	8.96	
2025-01-19 01:19:28.38	17.76	8.97	
2025-01-19 01:19:28.58	17.76	8.99	
2025-01-19 01:19:28.78	17.76	9.01	
2025-01-19 01:19:28.98	17.77	9.03	
2025-01-19 01:19:29.19	17.77	9.05	
2025-01-19 01:19:29.39	17.77	9.06	
2025-01-19 01:19:29.59	17.77	9.08	
2025-01-19 01:19:29.80	17.77	9.10	
2025-01-19 01:19:30.00	17.77	9.12	
2025-01-19 01:19:30.20	17.77	9.14	
2025-01-19 01:19:30.41	17.77	9.15	
2025-01-19 01:19:30.61	17.77	9.17	
2025-01-19 01:19:30.81	17.78	9.19	
2025-01-19 01:19:31.02	17.78	9.21	
2025-01-19 01:19:31.22	17.78	9.23	
2025-01-19 01:19:31.42	17.78	9.24	
2025-01-19 01:19:31.63	17.78	9.26	
2025-01-19 01:19:31.83	17.78	9.28	
2025-01-19 01:19:32.03	17.78	9.30	
2025-01-19 01:19:32.24	17.78	9.32	
2025-01-19 01:19:32.44	17.79	9.34	
2025-01-19 01:19:32.64	17.79	9.35	
2025-01-19 01:19:32.85	17.79	9.37	
2025-01-19 01:19:33.05	17.79	9.39	
2025-01-19 01:19:33.25	17.79	9.41	
2025-01-19 01:19:33.46	17.79	9.43	
2025-01-19 01:19:33.66	17.79	9.45	
2025-01-19 01:19:33.86	17.79	9.46	
2025-01-19 01:19:34.07	17.80	9.48	
2025-01-19 01:19:34.27	17.80	9.50	
2025-01-19 01:19:34.47	17.80	9.52	
2025-01-19 01:19:34.67	17.80	9.54	
2025-01-19 01:19:34.88	17.80	9.56	
2025-01-19 01:19:35.08	17.80	9.57	
2025-01-19 01:19:35.28	17.80	9.59	
2025-01-19 01:19:35.49	17.80	9.61	
2025-01-19 01:19:35.69	17.81	9.63	
2025-01-19 01:19:35.89	17.81	9.65	
2025-01-19 01:19:36.10	17.81	9.67	
2025-01-19 01:19:36.30	17.81	9.69	
2025-01-19 01:19:36.50	17.81	9.70	
2025-01-19 01:19:36.71	17.81	9.72	
2025-01-19 01:19:36.91	17.81	9.74	
2025-01-19 01:19:37.11	17.81	9.76	
2025-01-19 01:19:37.32	17.81	9.78	
2025-01-19 01:19:37.52	17.82	9.80	
2025-01-19 01:19:37.72	17.82	9.82	
2025-01-19 01:19:37.93	17.82	9.83	
2025-01-19 01:19:38.13	17.82	9.85	
2025-01-19 01:19:38.33	17.82	9.87	
2025-01-19 01:19:38.54	17.82	9.89	
2025-01-19 01:19:38.74	17.82	9.91	
2025-01-19 01:19:38.94	17.82	9.93	
2025-01-19 01:19:39.15	17.83	9.95	
2025-01-19 01:19:39.35	17.83	9.97	
2025-01-19 01:19:39.55	17.83	9.98	
2025-01-19 01:19:39.75	17.83	10.00	
2025-01-19 01:19:39.96	17.83	10.02	
2025-01-19 01:19:40.16	17.83	10.04	
2025-01-19 01:19:40.36	17.83	10.06	
2025-01-19 01:19:40.57	17.83	10.08	
2025-01-19 01:19:40.77	17.84	10.10	
2025-01-19 01:19:40.97	17.84	10.12	
2025-01-19 01:19:41.18	17.84	10.14	
2025-01-19 01:19:41.38	17.84	10.15	
2025-01-19 01:19:41.58	17.84	10.17	
2025-01-19 01:19:41.79	17.84	10.19	
2025-01-19 01:19:41.99	17.84	10.21	
2025-01-19 01:19:42.19	17.84	10.23	
2025-01-19 01:19:42.40	17.85	10.25	
2025-01-19 01:19:42.60	17.85	10.27	
2025-01-19 01:19:42.80	17.85	10.29	
2025-01-19 01:19:43.01	17.85	10.31	
2025-01-19 01:19:43.21	17.85	10.33	
2025-01-19 01:19:43.41	17.85	10.34	
2025-01-19 01:19:43.62	17.85	10.36	
2025-01-19 01:19:43.82	17.85	10.38	
2025-01-19 01:19:44.02	17.86	10.40	
2025-01-19 01:19:44.23	17.86	10.42	
2025-01-19 01:19:44.43	17.86	10.44	
2025-01-19 01:19:44.63	17.86	10.46	
2025-01-19 01:19:44.84	17.86	10.48	
2025-01-19 01:19:45.04	17.86	10.50	
2025-01-19 01:19:45.24	17.86	10.52	
2025-01-19 01:19:45.44	17.86	10.54	
2025-01-19 01:19:45.65	17.87	10.56	
2025-01-19 01:19:45.85	17.87	10.57	
2025-01-19 01:19:46.05	17.87	10.59	
2025-01-19 01:19:46.26	17.87	10.61	
2025-01-19 01:19:46.46	17.87	10.63	
2025-01-19 01:19:46.66	17.87	10.65	
2025-01-19 01:19:46.87	17.87	10.67	
2025-01-19 01:19:47.07	17.87	10.69	
2025-01-19 01:19:47.27	17.88	10.71	
2025-01-19 01:19:47.48	17.88	10.73	
2025-01-19 01:19:47.68	17.88	10.75	
2025-01-19 01:19:47.88	17.88	10.77	
2025-01-19 01:19:48.09	17.88	10.79	
2025-01-19 01:19:48.29	17.88	10.81	
2025-01-19 01:19:48.49	17.88	10.83	
2025-01-19 01:19:48.70	17.88	10.85	
2025-01-19 01:19:48.90	17.89	10.87	
2025-01-19 01:19:49.10	17.89	10.89	
2025-01-19 01:19:49.31	17.89	10.91	
2025-01-19 01:19:49.51	17.89	10.93	
2025-01-19 01:19:49.71	17.89	10.94	
2025-01-19 01:19:49.92	17.89	10.96	
2025-01-19 01:19:50.12	17.89	10.98	
2025-01-19 01:19:50.32	17.89	11.00	
2025-01-19 01:19:50.53	17.90	11.02	
2025-01-19 01:19:50.73	17.90	11.04	
2025-01-19 01:19:50.93	17.90	11.06	
2025-01-19 01:19:51.13	17.90	11.08	
2025-01-19 01:19:51.34	17.90	11.10	
2025-01-19 01:19:51.54	17.90	11.12	
2025-01-19 01:19:51.74	17.90	11.14	
2025-01-19 01:19:51.95	17.90	11.16	
2025-01-19 01:19:52.15	17.91	11.18	
2025-01-19 01:19:52.35	17.91	11.20	
2025-01-19 01:19:52.56	17.91	11.22	
2025-01-19 01:19:52.76	17.91	11.24	
2025-01-19 01:19:52.96	17.91	11.26	
2025-01-19 01:19:53.17	17.91	11.28	
2025-01-19 01:19:53.37	17.91	11.30	
2025-01-19 01:19:53.57	17.91	11.32	
2025-01-19 01:19:53.78	17.92	11.34	
2025-01-19 01:19:53.98	17.92	11.36	
2025-01-19 01:19:54.18	17.92	11.38	
2025-01-19 01:19:54.39	17.92	11.40	
2025-01-19 01:19:54.59	17.92	11.42	
2025-01-19 01:19:54.79	17.92	11.44	
2025-01-19 01:19:55.00	17.92	11.46	
2025-01-19 01:19:55.20	17.92	11.48	
2025-01-19 01:19:55.40	17.93	11.50	
2025-01-19 01:19:55.61	17.93	11.52	
2025-01-19 01:19:55.81	17.93	11.54	
2025-01-19 01:19:56.01	17.93	11.56	
2025-01-19 01:19:56.22	17.93	11.58	
2025-01-19 01:19:56.42	17.93	11.60	
2025-01-19 01:19:56.62	17.93	11.62	
2025-01-19 01:19:56.82	17.93	11.64	
2025-01-19 01:19:57.03	17.94	11.66	
2025-01-19 01:19:57.23	17.94	11.68	
2025-01-19 01:19:57.43	17.94	11.70	
2025-01-19 01:19:57.64	17.94	11.72	
2025-01-19 01:19:57.84	17.94	11.74	
2025-01-19 01:19:58.04	17.94	11.76	
2025-01-19 01:19:58.25	17.94	11.79	
2025-01-19 01:19:58.45	17.94	11.81	
2025-01-19 01:19:58.65	17.95	11.83	
2025-01-19 01:19:58.86	17.95	11.85	
2025-01-19 01:19:59.06	17.95	11.87	
2025-01-19 01:19:59.26	17.95	11.89	
2025-01-19 01:19:59.47	17.95	11.91	
2025-01-19 01:19:59.67	17.95	11.93	
2025-01-19 01:19:59.87	17.95	11.95	
2025-01-19 01:20:00.08	17.96	11.97	
2025-01-19 01:20:00.28	17.96	11.99	
2025-01-19 01:20:00.48	17.96	12.01	
2025-01-19 01:20:00.69	17.96	12.03	
2025-01-19 01:20:00.89	17.96	12.05	
2025-01-19 01:20:01.09	17.96	12.07	
2025-01-19 01:20:01.30	17.96	12.09	
2025-01-19 01:20:01.50	17.96	12.11	
2025-01-19 01:20:01.70	17.97	12.13	
2025-01-19 01:20:01.91	17.97	12.16	
2025-01-19 01:20:02.11	17.97	12.18	
2025-01-19 01:20:02.31	17.97	12.20	
2025-01-19 01:20:02.51	17.97	12.22	
2025-01-19 01:20:02.72	17.97	12.24	
2025-01-19 01:20:02.92	17.97	12.26	
2025-01-19 01:20:03.12	17.97	12.28	
2025-01-19 01:20:03.33	17.98	12.30	
2025-01-19 01:20:03.53	17.98	12.32	
2025-01-19 01:20:03.73	17.98	12.34	
2025-01-19 01:20:03.94	17.98	12.36	
2025-01-19 01:20:04.14	17.98	12.38	
2025-01-19 01:20:04.34	17.98	12.40	
2025-01-19 01:20:04.55	17.98	12.43	
2025-01-19 01:20:04.75	17.99	12.45	
2025-01-19 01:20:04.95	17.99	12.47	
2025-01-19 01:20:05.16	17.99	12.49	
2025-01-19 01:20:05.36	17.99	12.51	
2025-01-19 01:20:05.56	17.99	12.53	
2025-01-19 01:20:05.77	17.99	12.55	
2025-01-19 01:20:05.97	17.99	12.57	
2025-01-19 01:20:06.17	17.99	12.59	
2025-01-19 01:20:06.38	18.00	12.62	
2025-01-19 01:20:06.58	18.00	12.64	
2025-01-19 01:20:06.78	18.00	12.66	
2025-01-19 01:20:06.99	18.00	12.68	
2025-01-19 01:20:07.19	18.00	12.70	
2025-01-19 01:20:07.39	18.00	12.72	
2025-01-19 01:20:07.60	18.00	12.74	
2025-01-19 01:20:07.80	18.00	12.77	
2025-01-19 01:20:08.00	18.01	12.79	
2025-01-19 01:20:08.20	18.01	12.81	
2025-01-19 01:20:08.41	18.01	12.83	
2025-01-19 01:20:08.61	18.01	12.85	
2025-01-19 01:20:08.81	18.01	12.87	
2025-01-19 01:20:09.02	18.01	12.89	
2025-01-19 01:20:09.22	18.01	12.91	
2025-01-19 01:20:09.42	18.02	12.94	
2025-01-19 01:20:09.63	18.02	12.96	
2025-01-19 01:20:09.83	18.02	12.98	
2025-01-19 01:20:10.03	18.02	13.00	
2025-01-19 01:20:10.24	18.02	13.02	
2025-01-19 01:20:10.44	18.02	13.04	
2025-01-19 01:20:10.64	18.02	13.07	
2025-01-19 01:20:10.85	18.02	13.09	
2025-01-19 01:20:11.05	18.03	13.11	
2025-01-19 01:20:11.25	18.03	13.13	
2025-01-19 01:20:11.46	18.03	13.15	
2025-01-19 01:20:11.66	18.03	13.17	
2025-01-19 01:20:11.86	18.03	13.20	
2025-01-19 01:20:12.07	18.03	13.22	
2025-01-19 01:20:12.27	18.03	13.24	
2025-01-19 01:20:12.47	18.03	13.26	
2025-01-19 01:20:12.68	18.04	13.28	
2025-01-19 01:20:12.88	18.04	13.30	
2025-01-19 01:20:13.08	18.04	13.33	
2025-01-19 01:20:13.29	18.04	13.35	
2025-01-19 01:20:13.49	18.04	13.37	
2025-01-19 01:20:13.69	18.04	13.39	
2025-01-19 01:20:13.89	18.04	13.41	
2025-01-19 01:20:14.10	18.05	13.44	
2025-01-19 01:20:14.30	18.05	13.46	
2025-01-19 01:20:14.50	18.05	13.48	
2025-01-19 01:20:14.71	18.05	13.50	
2025-01-19 01:20:14.91	18.05	13.52	
2025-01-19 01:20:15.11	18.05	13.55	
2025-01-19 01:20:15.32	18.05	13.57	
2025-01-19 01:20:15.52	18.06	13.59	
2025-01-19 01:20:15.72	18.06	13.61	
2025-01-19 01:20:15.93	18.06	13.64	
2025-01-19 01:20:16.13	18.06	13.66	
2025-01-19 01:20:16.33	18.06	13.68	
2025-01-19 01:20:16.54	18.06	13.70	
2025-01-19 01:20:16.74	18.06	13.72	
2025-01-19 01:20:16.94	18.06	13.75	
2025-01-19 01:20:17.15	18.07	13.77	
2025-01-19 01:20:17.35	18.07	13.79	
2025-01-19 01:20:17.55	18.07	13.81	
2025-01-19 01:20:17.76	18.07	13.84	
2025-01-19 01:20:17.96	18.07	13.86	
2025-01-19 01:20:18.16	18.07	13.88	
2025-01-19 01:20:18.37	18.07	13.90	
2025-01-19 01:20:18.57	18.08	13.93	
2025-01-19 01:20:18.77	18.08	13.95	
2025-01-19 01:20:18.97	18.08	13.97	
2025-01-19 01:20:19.18	18.08	13.99	
2025-01-19 01:20:19.38	18.08	14.02	
2025-01-19 01:20:19.58	18.08	14.04	
2025-01-19 01:20:19.79	18.08	14.06	
2025-01-19 01:20:19.99	18.08	14.08	
2025-01-19 01:20:20.19	18.09	14.11	
2025-01-19 01:20:20.40	18.09	14.13	
2025-01-19 01:20:20.60	18.09	14.15	
2025-01-19 01:20:20.80	18.09	14.17	
2025-01-19 01:20:21.01	18.09	14.20	
2025-01-19 01:20:21.21	18.09	14.22	
2025-01-19 01:20:21.41	18.09	14.24	
2025-01-19 01:20:21.62	18.10	14.27	
2025-01-19 01:20:21.82	18.10	14.29	
2025-01-19 01:20:22.02	18.10	14.31	
2025-01-19 01:20:22.23	18.10	14.33	
2025-01-19 01:20:22.43	18.10	14.36	
2025-01-19 01:20:22.63	18.10	14.38	
2025-01-19 01:20:22.84	18.10	14.40	
2025-01-19 01:20:23.04	18.11	14.43	
2025-01-19 01:20:23.24	18.11	14.45	
2025-01-19 01:20:23.45	18.11	14.47	
2025-01-19 01:20:23.65	18.11	14.49	
2025-01-19 01:20:23.85	18.11	14.52	
2025-01-19 01:20:24.06	18.11	14.54	
2025-01-19 01:20:24.26	18.11	14.56	
2025-01-19 01:20:24.46	18.11	14.59	
2025-01-19 01:20:24.66	18.12	14.61	
2025-01-19 01:20:24.87	18.12	14.63	
2025-01-19 01:20:25.07	18.12	14.66	
2025-01-19 01:20:25.27	18.12	14.68	
2025-01-19 01:20:25.48	18.12	14.70	
2025-01-19 01:20:25.68	18.12	14.73	
2025-01-19 01:20:25.88	18.12	14.75	
2025-01-19 01:20:26.09	18.13	14.77	
2025-01-19 01:20:26.29	18.13	14.80	
2025-01-19 01:20:26.49	18.13	14.82	
2025-01-19 01:20:26.70	18.13	14.84	
2025-01-19 01:20:26.90	18.13	14.87	
2025-01-19 01:20:27.10	18.13	14.89	
2025-01-19 01:20:27.31	18.13	14.91	
2025-01-19 01:20:27.51	18.14	14.94	
2025-01-19 01:20:27.71	18.14	14.96	
2025-01-19 01:20:27.92	18.14	14.98	
2025-01-19 01:20:28.12	18.14	15.01	
2025-01-19 01:20:28.32	18.14	15.03	
2025-01-19 01:20:28.53	18.14	15.06	
2025-01-19 01:20:28.73	18.14	15.08	
2025-01-19 01:20:28.93	18.15	15.10	
2025-01-19 01:20:29.14	18.15	15.13	
2025-01-19 01:20:29.34	18.15	15.15	
2025-01-19 01:20:29.54	18.15	15.17	
2025-01-19 01:20:29.75	18.15	15.20	
2025-01-19 01:20:29.95	18.15	15.22	
2025-01-19 01:20:30.15	18.15	15.25	
2025-01-19 01:20:30.35	18.16	15.27	
2025-01-19 01:20:30.56	18.16	15.29	
2025-01-19 01:20:30.76	18.16	15.32	
2025-01-19 01:20:30.96	18.16	15.34	
2025-01-19 01:20:31.17	18.16	15.37	
2025-01-19 01:20:31.37	18.16	15.39	
2025-01-19 01:20:31.57	18.16	15.41	
2025-01-19 01:20:31.78	18.17	15.44	
2025-01-19 01:20:31.98	18.17	15.46	
2025-01-19 01:20:32.18	18.17	15.49	
2025-01-19 01:20:32.39	18.17	15.51	
2025-01-19 01:20:32.59	18.17	15.53	
2025-01-19 01:20:32.79	18.17	15.56	
2025-01-19 01:20:33.00	18.17	15.58	
2025-01-19 01:20:33.20	18.17	15.61	
2025-01-19 01:20:33.40	18.18	15.63	
2025-01-19 01:20:33.61	18.18	15.66	
2025-01-19 01:20:33.81	18.18	15.68	
2025-01-19 01:20:34.01	18.18	15.70	
2025-01-19 01:20:34.22	18.18	15.73	
2025-01-19 01:20:34.42	18.18	15.75	
2025-01-19 01:20:34.62	18.18	15.78	
2025-01-19 01:20:34.83	18.19	15.80	
2025-01-19 01:20:35.03	18.19	15.83	
2025-01-19 01:20:35.23	18.19	15.85	
2025-01-19 01:20:35.44	18.19	15.88	
2025-01-19 01:20:35.64	18.19	15.90	
2025-01-19 01:20:35.84	18.19	15.92	
2025-01-19 01:20:36.04	18.19	15.95	
2025-01-19 01:20:36.25	18.20	15.97	
2025-01-19 01:20:36.45	18.20	16.00	
2025-01-19 01:20:36.65	18.20	16.02	
2025-01-19 01:20:36.86	18.20	16.05	
2025-01-19 01:20:37.06	18.20	16.07	
2025-01-19 01:20:37.26	18.20	16.10	
2025-01-19 01:20:37.47	18.20	16.12	
2025-01-19 01:20:37.67	18.21	16.15	
2025-01-19 01:20:37.87	18.21	16.17	
2025-01-19 01:20:38.08	18.21	16.20	
2025-01-19 01:20:38.28	18.21	16.22	
2025-01-19 01:20:38.48	18.21	16.25	
2025-01-19 01:20:38.69	18.21	16.27	
2025-01-19 01:20:38.89	18.22	16.30	
2025-01-19 01:20:39.09	18.22	16.32	
2025-01-19 01:20:39.30	18.22	16.35	
2025-01-19 01:20:39.50	18.22	16.37	
2025-01-19 01:20:39.70	18.22	16.40	
2025-01-19 01:20:39.91	18.22	16.42	
2025-01-19 01:20:40.11	18.22	16.45	
2025-01-19 01:20:40.31	18.23	16.47	
2025-01-19 01:20:40.52	18.23	16.50	
2025-01-19 01:20:40.72	18.23	16.52	
2025-01-19 01:20:40.92	18.23	16.55	
2025-01-19 01:20:41.13	18.23	16.57	
2025-01-19 01:20:41.33	18.23	16.60	
2025-01-19 01:20:41.53	18.23	16.62	
2025-01-19 01:20:41.73	18.24	16.65	
2025-01-19 01:20:41.94	18.24	16.68	
2025-01-19 01:20:42.14	18.24	16.70	
2025-01-19 01:20:42.34	18.24	16.73	
2025-01-19 01:20:42.55	18.24	16.75	
2025-01-19 01:20:42.75	18.24	16.78	
2025-01-19 01:20:42.95	18.24	16.80	
2025-01-19 01:20:43.16	18.25	16.83	
2025-01-19 01:20:43.36	18.25	16.85	
2025-01-19 01:20:43.56	18.25	16.88	
2025-01-19 01:20:43.77	18.25	16.91	
2025-01-19 01:20:43.97	18.25	16.93	
2025-01-19 01:20:44.17	18.25	16.96	
2025-01-19 01:20:44.38	18.25	16.98	
2025-01-19 01:20:44.58	18.26	17.01	
2025-01-19 01:20:44.78	18.26	17.03	
2025-01-19 01:20:44.99	18.26	17.06	
2025-01-19 01:20:45.19	18.26	17.09	
2025-01-19 01:20:45.39	18.26	17.11	
2025-01-19 01:20:45.60	18.26	17.14	
2025-01-19 01:20:45.80	18.26	17.17	
2025-01-19 01:20:46.00	18.27	17.19	
2025-01-19 01:20:46.21	18.27	17.22	
2025-01-19 01:20:46.41	18.27	17.24	
2025-01-19 01:20:46.61	18.27	17.27	
2025-01-19 01:20:46.82	18.27	17.30	
2025-01-19 01:20:47.02	18.27	17.32	
2025-01-19 01:20:47.22	18.28	17.35	
2025-01-19 01:20:47.42	18.28	17.37	
2025-01-19 01:20:47.63	18.28	17.40	
2025-01-19 01:20:47.83	18.28	17.43	
2025-01-19 01:20:48.03	18.28	17.45	
2025-01-19 01:20:48.24	18.28	17.48	
2025-01-19 01:20:48.44	18.28	17.51	
2025-01-19 01:20:48.64	18.29	17.53	
2025-01-19 01:20:48.85	18.29	17.56	
2025-01-19 01:20:49.05	18.29	17.59	
2025-01-19 01:20:49.25	18.29	17.61	
2025-01-19 01:20:49.46	18.29	17.64	
2025-01-19 01:20:49.66	18.29	17.67	
2025-01-19 01:20:49.86	18.29	17.69	
2025-01-19 01:20:50.07	18.30	17.72	
2025-01-19 01:20:50.27	18.30	17.75	
2025-01-19 01:20:50.47	18.30	17.77	
2025-01-19 01:20:50.68	18.30	17.80	
2025-01-19 01:20:50.88	18.30	17.83	
2025-01-19 01:20:51.08	18.30	17.85	
2025-01-19 01:20:51.29	18.31	17.88	
2025-01-19 01:20:51.49	18.31	17.91	
2025-01-19 01:20:51.69	18.31	17.93	
2025-01-19 01:20:51.90	18.31	17.96	
2025-01-19 01:20:52.10	18.31	17.99	
2025-01-19 01:20:52.30	18.31	18.01	
2025-01-19 01:20:52.51	18.31	18.04	
2025-01-19 01:20:52.71	18.32	18.07	
2025-01-19 01:20:52.91	18.32	18.10	
2025-01-19 01:20:53.11	18.32	18.12	
2025-01-19 01:20:53.32	18.32	18.15	
2025-01-19 01:20:53.52	18.32	18.18	
2025-01-19 01:20:53.72	18.32	18.20	
2025-01-19 01:20:53.93	18.33	18.23	
2025-01-19 01:20:54.13	18.33	18.26	
2025-01-19 01:20:54.33	18.33	18.29	
2025-01-19 01:20:54.54	18.33	18.31	
2025-01-19 01:20:54.74	18.33	18.34	
2025-01-19 01:20:54.94	18.33	18.37	
2025-01-19 01:20:55.15	18.33	18.40	
2025-01-19 01:20:55.35	18.34	18.42	
2025-01-19 01:20:55.55	18.34	18.45	
2025-01-19 01:20:55.76	18.34	18.48	
2025-01-19 01:20:55.96	18.34	18.51	
2025-01-19 01:20:56.16	18.34	18.53	
2025-01-19 01:20:56.37	18.34	18.56	
2025-01-19 01:20:56.57	18.35	18.59	
2025-01-19 01:20:56.77	18.35	18.62	
2025-01-19 01:20:56.98	18.35	18.65	
2025-01-19 01:20:57.18	18.35	18.67	
2025-01-19 01:20:57.38	18.35	18.70	
2025-01-19 01:20:57.59	18.35	18.73	
2025-01-19 01:20:57.79	18.35	18.76	
2025-01-19 01:20:57.99	18.36	18.78	
2025-01-19 01:20:58.20	18.36	18.81	
2025-01-19 01:20:58.40	18.36	18.84	
2025-01-19 01:20:58.60	18.36	18.87	
2025-01-19 01:20:58.80	18.36	18.90	
2025-01-19 01:20:59.01	18.36	18.93	
2025-01-19 01:20:59.21	18.37	18.95	
2025-01-19 01:20:59.41	18.37	18.98	
2025-01-19 01:20:59.62	18.37	19.01	
2025-01-19 01:20:59.82	18.37	19.04	
2025-01-19 01:21:00.02	18.37	19.07	
2025-01-19 01:21:00.23	18.37	19.10	
2025-01-19 01:21:00.43	18.38	19.12	
2025-01-19 01:21:00.63	18.38	19.15	
2025-01-19 01:21:00.84	18.38	19.18	
2025-01-19 01:21:01.04	18.38	19.21	
2025-01-19 01:21:01.24	18.38	19.24	
2025-01-19 01:21:01.45	18.38	19.27	
2025-01-19 01:21:01.65	18.38	19.29	
2025-01-19 01:21:01.85	18.39	19.32	
2025-01-19 01:21:02.06	18.39	19.35	
2025-01-19 01:21:02.26	18.39	19.38	
2025-01-19 01:21:02.46	18.39	19.41	
2025-01-19 01:21:02.67	18.39	19.44	
2025-01-19 01:21:02.87	18.39	19.47	
2025-01-19 01:21:03.07	18.40	19.50	
2025-01-19 01:21:03.28	18.40	19.53	
2025-01-19 01:21:03.48	18.40	19.55	
2025-01-19 01:21:03.68	18.40	19.58	
2025-01-19 01:21:03.88	18.40	19.61	
2025-01-19 01:21:04.09	18.40	19.64	
2025-01-19 01:21:04.29	18.41	19.67	
2025-01-19 01:21:04.49	18.41	19.70	
2025-01-19 01:21:04.70	18.41	19.73	
2025-01-19 01:21:04.90	18.41	19.76	
2025-01-19 01:21:05.10	18.41	19.79	
2025-01-19 01:21:05.31	18.41	19.82	
2025-01-19 01:21:05.51	18.42	19.85	
2025-01-19 01:21:05.71	18.42	19.87	
2025-01-19 01:21:05.92	18.42	19.90	
2025-01-19 01:21:06.12	18.42	19.93	
2025-01-19 01:21:06.32	18.42	19.96	
2025-01-19 01:21:06.53	18.42	19.99	
2025-01-19 01:21:06.73	18.43	20.02	
2025-01-19 01:21:06.93	18.43	20.05	
2025-01-19 01:21:07.14	18.43	20.08	
2025-01-19 01:21:07.34	18.43	20.11	
2025-01-19 01:21:07.54	18.43	20.14	
2025-01-19 01:21:07.75	18.43	20.17	
2025-01-19 01:21:07.95	18.43	20.20	
2025-01-19 01:21:08.15	18.44	20.23	
2025-01-19 01:21:08.36	18.44	20.26	
2025-01-19 01:21:08.56	18.44	20.29	
2025-01-19 01:21:08.76	18.44	20.32	
2025-01-19 01:21:08.97	18.44	20.35	
2025-01-19 01:21:09.17	18.44	20.38	
2025-01-19 01:21:09.37	18.45	20.41	
2025-01-19 01:21:09.57	18.45	20.44	
2025-01-19 01:21:09.78	18.45	20.47	
2025-01-19 01:21:09.98	18.45	20.50	
2025-01-19 01:21:10.18	18.45	20.53	
2025-01-19 01:21:10.39	18.45	20.56	
2025-01-19 01:21:10.59	18.46	20.59	
2025-01-19 01:21:10.79	18.46	20.62	
2025-01-19 01:21:11.00	18.46	20.65	
2025-01-19 01:21:11.20	18.46	20.68	
2025-01-19 01:21:11.40	18.46	20.71	
2025-01-19 01:21:11.61	18.46	20.74	
2025-01-19 01:21:11.81	18.47	20.77	
2025-01-19 01:21:12.01	18.47	20.80	
2025-01-19 01:21:12.22	18.47	20.84	
2025-01-19 01:21:12.42	18.47	20.87	
2025-01-19 01:21:12.62	18.47	20.90	
2025-01-19 01:21:12.83	18.47	20.93	
2025-01-19 01:21:13.03	18.48	20.96	
2025-01-19 01:21:13.23	18.48	20.99	
2025-01-19 01:21:13.44	18.48	21.02	
2025-01-19 01:21:13.64	18.48	21.05	
2025-01-19 01:21:13.84	18.48	21.08	
2025-01-19 01:21:14.05	18.49	21.11	
2025-01-19 01:21:14.25	18.49	21.14	
2025-01-19 01:21:14.45	18.49	21.17	
2025-01-19 01:21:14.66	18.49	21.21	
2025-01-19 01:21:14.86	18.49	21.24	
2025-01-19 01:21:15.06	18.49	21.27	
2025-01-19 01:21:15.26	18.50	21.30	
2025-01-19 01:21:15.47	18.50	21.33	
2025-01-19 01:21:15.67	18.50	21.36	
2025-01-19 01:21:15.87	18.50	21.39	
2025-01-19 01:21:16.08	18.50	21.43	
2025-01-19 01:21:16.28	18.50	21.46	
2025-01-19 01:21:16.48	18.51	21.49	
2025-01-19 01:21:16.69	18.51	21.52	
2025-01-19 01:21:16.89	18.51	21.55	
2025-01-19 01:21:17.09	18.51	21.58	
2025-01-19 01:21:17.30	18.51	21.61	
2025-01-19 01:21:17.50	18.51	21.65	
2025-01-19 01:21:17.70	18.52	21.68	
2025-01-19 01:21:17.91	18.52	21.71	
2025-01-19 01:21:18.11	18.52	21.74	
2025-01-19 01:21:18.31	18.52	21.77	
2025-01-19 01:21:18.52	18.52	21.81	
2025-01-19 01:21:18.72	18.52	21.84	
2025-01-19 01:21:18.92	18.53	21.87	
2025-01-19 01:21:19.13	18.53	21.90	
2025-01-19 01:21:19.33	18.53	21.93	
2025-01-19 01:21:19.53	18.53	21.97	
2025-01-19 01:21:19.74	18.53	22.00	
2025-01-19 01:21:19.94	18.53	22.03	
2025-01-19 01:21:20.14	18.54	22.06	
2025-01-19 01:21:20.35	18.54	22.10	
2025-01-19 01:21:20.55	18.54	22.13	
2025-01-19 01:21:20.75	18.54	22.16	
2025-01-19 01:21:20.95	18.54	22.19	
2025-01-19 01:21:21.16	18.55	22.22	
2025-01-19 01:21:21.36	18.55	22.26	
2025-01-19 01:21:21.56	18.55	22.29	
2025-01-19 01:21:21.77	18.55	22.32	
2025-01-19 01:21:21.97	18.55	22.35	
2025-01-19 01:21:22.17	18.55	22.39	
2025-01-19 01:21:22.38	18.56	22.42	
2025-01-19 01:21:22.58	18.56	22.45	
2025-01-19 01:21:22.78	18.56	22.49	
2025-01-19 01:21:22.99	18.56	22.52	
2025-01-19 01:21:23.19	18.56	22.55	
2025-01-19 01:21:23.39	18.56	22.58	
2025-01-19 01:21:23.60	18.57	22.62	
2025-01-19 01:21:23.80	18.57	22.65	
2025-01-19 01:21:24.00	18.57	22.68	
2025-01-19 01:21:24.21	18.57	22.72	
2025-01-19 01:21:24.41	18.57	22.75	
2025-01-19 01:21:24.61	18.58	22.78	
2025-01-19 01:21:24.82	18.58	22.82	
2025-01-19 01:21:25.02	18.58	22.85	
2025-01-19 01:21:25.22	18.58	22.88	
2025-01-19 01:21:25.43	18.58	22.92	
2025-01-19 01:21:25.63	18.58	22.95	
2025-01-19 01:21:25.83	18.59	22.98	
2025-01-19 01:21:26.04	18.59	23.02	
2025-01-19 01:21:26.24	18.59	23.05	
2025-01-19 01:21:26.44	18.59	23.09	
2025-01-19 01:21:26.64	18.59	23.12	
2025-01-19 01:21:26.85	18.60	23.15	
2025-01-19 01:21:27.05	18.60	23.19	
2025-01-19 01:21:27.26	18.60	23.22	
2025-01-19 01:21:27.46	18.60	23.26	
2025-01-19 01:21:27.66	18.60	23.29	
2025-01-19 01:21:27.87	18.60	23.32	
2025-01-19 01:21:28.07	18.61	23.36	
2025-01-19 01:21:28.27	18.61	23.39	
2025-01-19 01:21:28.48	18.61	23.43	
2025-01-19 01:21:28.68	18.61	23.46	
2025-01-19 01:21:28.88	18.61	23.49	
2025-01-19 01:21:29.08	18.62	23.53	
2025-01-19 01:21:29.29	18.62	23.56	
2025-01-19 01:21:29.49	18.62	23.60	
2025-01-19 01:21:29.69	18.62	23.63	
2025-01-19 01:21:29.90	18.62	23.67	
2025-01-19 01:21:30.10	18.63	23.70	
2025-01-19 01:21:30.30	18.63	23.74	
2025-01-19 01:21:30.51	18.63	23.77	
2025-01-19 01:21:30.71	18.63	23.81	
2025-01-19 01:21:30.91	18.63	23.84	
2025-01-19 01:21:31.12	18.63	23.88	
2025-01-19 01:21:31.32	18.64	23.91	
2025-01-19 01:21:31.52	18.64	23.94	
2025-01-19 01:21:31.73	18.64	23.98	
2025-01-19 01:21:31.93	18.64	24.02	
2025-01-19 01:21:32.13	18.64	24.05	
2025-01-19 01:21:32.34	18.65	24.09	
2025-01-19 01:21:32.54	18.65	24.12	
2025-01-19 01:21:32.74	18.65	24.16	
2025-01-19 01:21:32.95	18.65	24.19	
2025-01-19 01:21:33.15	18.65	24.23	
2025-01-19 01:21:33.35	18.66	24.26	
2025-01-19 01:21:33.56	18.66	24.30	
2025-01-19 01:21:33.76	18.66	24.33	
2025-01-19 01:21:33.96	18.66	24.37	
2025-01-19 01:21:34.17	18.66	24.41	
2025-01-19 01:21:34.37	18.66	24.44	
2025-01-19 01:21:34.57	18.67	24.48	
2025-01-19 01:21:34.77	18.67	24.51	
2025-01-19 01:21:34.98	18.67	24.55	
2025-01-19 01:21:35.18	18.67	24.58	
2025-01-19 01:21:35.38	18.67	24.62	
2025-01-19 01:21:35.59	18.68	24.66	
2025-01-19 01:21:35.79	18.68	24.69	
2025-01-19 01:21:35.99	18.68	24.73	
2025-01-19 01:21:36.20	18.68	24.76	
2025-01-19 01:21:36.40	18.68	24.80	
2025-01-19 01:21:36.60	18.69	24.84	
2025-01-19 01:21:36.81	18.69	24.87	
2025-01-19 01:21:37.01	18.69	24.91	
2025-01-19 01:21:37.21	18.69	24.95	
2025-01-19 01:21:37.42	18.69	24.98	
2025-01-19 01:21:37.62	18.70	25.02	
2025-01-19 01:21:37.82	18.70	25.05	
2025-01-19 01:21:38.03	18.70	25.09	
2025-01-19 01:21:38.23	18.70	25.13	
2025-01-19 01:21:38.43	18.70	25.17	
2025-01-19 01:21:38.64	18.71	25.20	
2025-01-19 01:21:38.84	18.71	25.24	
2025-01-19 01:21:39.04	18.71	25.28	
2025-01-19 01:21:39.25	18.71	25.31	
2025-01-19 01:21:39.45	18.71	25.35	
2025-01-19 01:21:39.65	18.72	25.39	
2025-01-19 01:21:39.86	18.72	25.43	
2025-01-19 01:21:40.06	18.72	25.46	
2025-01-19 01:21:40.26	18.72	25.50	
2025-01-19 01:21:40.46	18.72	25.54	
2025-01-19 01:21:40.67	18.73	25.57	
2025-01-19 01:21:40.87	18.73	25.61	
2025-01-19 01:21:41.07	18.73	25.65	
2025-01-19 01:21:41.28	18.73	25.69	
2025-01-19 01:21:41.48	18.73	25.72	
2025-01-19 01:21:41.68	18.74	25.76	
2025-01-19 01:21:41.89	18.74	25.80	
2025-01-19 01:21:42.09	18.74	25.84	
2025-01-19 01:21:42.29	18.74	25.87	
2025-01-19 01:21:42.50	18.74	25.91	
2025-01-19 01:21:42.70	18.75	25.95	
2025-01-19 01:21:42.90	18.75	25.99	
2025-01-19 01:21:43.11	18.75	26.03	
2025-01-19 01:21:43.31	18.75	26.07	
2025-01-19 01:21:43.51	18.75	26.10	
2025-01-19 01:21:43.72	18.76	26.14	
2025-01-19 01:21:43.92	18.76	26.18	
2025-01-19 01:21:44.12	18.76	26.22	
2025-01-19 01:21:44.33	18.76	26.26	
2025-01-19 01:21:44.53	18.76	26.30	
2025-01-19 01:21:44.73	18.77	26.33	
2025-01-19 01:21:44.94	18.77	26.37	
2025-01-19 01:21:45.14	18.77	26.41	
2025-01-19 01:21:45.34	18.77	26.45	
2025-01-19 01:21:45.55	18.77	26.49	
2025-01-19 01:21:45.75	18.78	26.53	
2025-01-19 01:21:45.95	18.78	26.57	
2025-01-19 01:21:46.15	18.78	26.60	
2025-01-19 01:21:46.36	18.78	26.64	
2025-01-19 01:21:46.56	18.78	26.68	
2025-01-19 01:21:46.76	18.79	26.72	
2025-01-19 01:21:46.97	18.79	26.76	
2025-01-19 01:21:47.17	18.79	26.80	
2025-01-19 01:21:47.37	18.79	26.84	
2025-01-19 01:21:47.58	18.80	26.88	
2025-01-19 01:21:47.78	18.80	26.92	
2025-01-19 01:21:47.98	18.80	26.96	
2025-01-19 01:21:48.19	18.80	27.00	
2025-01-19 01:21:48.39	18.80	27.04	
2025-01-19 01:21:48.59	18.81	27.08	
2025-01-19 01:21:48.80	18.81	27.12	
2025-01-19 01:21:49.00	18.81	27.16	
2025-01-19 01:21:49.20	18.81	27.20	
2025-01-19 01:21:49.41	18.81	27.24	
2025-01-19 01:21:49.61	18.82	27.28	
2025-01-19 01:21:49.81	18.82	27.32	
2025-01-19 01:21:50.02	18.82	27.36	
2025-01-19 01:21:50.22	18.82	27.40	
2025-01-19 01:21:50.42	18.83	27.44	
2025-01-19 01:21:50.63	18.83	27.48	
2025-01-19 01:21:50.83	18.83	27.52	
2025-01-19 01:21:51.03	18.83	27.56	
2025-01-19 01:21:51.24	18.83	27.60	
2025-01-19 01:21:51.44	18.84	27.64	
2025-01-19 01:21:51.64	18.84	27.68	
2025-01-19 01:21:51.84	18.84	27.72	
2025-01-19 01:21:52.05	18.84	27.76	
2025-01-19 01:21:52.25	18.84	27.80	
2025-01-19 01:21:52.45	18.85	27.84	
2025-01-19 01:21:52.66	18.85	27.89	
2025-01-19 01:21:52.86	18.85	27.93	
2025-01-19 01:21:53.06	18.85	27.97	
2025-01-19 01:21:53.27	18.86	28.01	
2025-01-19 01:21:53.47	18.86	28.05	
2025-01-19 01:21:53.67	18.86	28.09	
2025-01-19 01:21:53.88	18.86	28.13	
2025-01-19 01:21:54.08	18.86	28.17	
2025-01-19 01:21:54.28	18.87	28.22	
2025-01-19 01:21:54.49	18.87	28.26	
2025-01-19 01:21:54.69	18.87	28.30	
2025-01-19 01:21:54.89	18.87	28.34	
2025-01-19 01:21:55.10	18.88	28.38	
2025-01-19 01:21:55.30	18.88	28.43	
2025-01-19 01:21:55.50	18.88	28.47	
2025-01-19 01:21:55.71	18.88	28.51	
2025-01-19 01:21:55.91	18.88	28.55	
2025-01-19 01:21:56.11	18.89	28.59	
2025-01-19 01:21:56.32	18.89	28.64	
2025-01-19 01:21:56.52	18.89	28.68	
2025-01-19 01:21:56.72	18.89	28.72	
2025-01-19 01:21:56.92	18.90	28.76	
2025-01-19 01:21:57.13	18.90	28.81	
2025-01-19 01:21:57.33	18.90	28.85	
2025-01-19 01:21:57.53	18.90	28.89	
2025-01-19 01:21:57.74	18.91	28.93	
2025-01-19 01:21:57.94	18.91	28.98	
2025-01-19 01:21:58.14	18.91	29.02	
2025-01-19 01:21:58.35	18.91	29.06	
2025-01-19 01:21:58.55	18.91	29.10	
2025-01-19 01:21:58.75	18.92	29.15	
2025-01-19 01:21:58.96	18.92	29.19	
2025-01-19 01:21:59.16	18.92	29.23	
2025-01-19 01:21:59.36	18.92	29.28	
2025-01-19 01:21:59.57	18.93	29.32	
2025-01-19 01:21:59.77	18.93	29.36	
2025-01-19 01:21:59.97	18.93	29.41	
2025-01-19 01:22:00.18	18.93	29.45	
2025-01-19 01:22:00.38	18.94	29.49	
2025-01-19 01:22:00.58	18.94	29.54	
2025-01-19 01:22:00.79	18.94	29.58	
2025-01-19 01:22:00.99	18.94	29.63	
2025-01-19 01:22:01.19	18.94	29.67	
2025-01-19 01:22:01.40	18.95	29.71	
2025-01-19 01:22:01.60	18.95	29.76	
2025-01-19 01:22:01.80	18.95	29.80	
2025-01-19 01:22:02.01	18.95	29.85	
2025-01-19 01:22:02.21	18.96	29.89	
2025-01-19 01:22:02.41	18.96	29.93	
2025-01-19 01:22:02.61	18.96	29.98	
2025-01-19 01:22:02.82	18.96	30.02	
2025-01-19 01:22:03.02	18.97	30.07	
2025-01-19 01:22:03.22	18.97	30.11	
2025-01-19 01:22:03.43	18.97	30.16	
2025-01-19 01:22:03.63	18.97	30.20	
2025-01-19 01:22:03.83	18.98	30.25	
2025-01-19 01:22:04.04	18.98	30.29	
2025-01-19 01:22:04.24	18.98	30.34	
2025-01-19 01:22:04.44	18.98	30.38	
2025-01-19 01:22:04.65	18.99	30.43	
2025-01-19 01:22:04.85	18.99	30.47	
2025-01-19 01:22:05.05	18.99	30.52	
2025-01-19 01:22:05.26	18.99	30.56	
2025-01-19 01:22:05.46	19.00	30.61	
2025-01-19 01:22:05.66	19.00	30.65	
2025-01-19 01:22:05.87	19.00	30.70	
2025-01-19 01:22:06.07	19.00	30.75	
2025-01-19 01:22:06.27	19.01	30.79	
2025-01-19 01:22:06.48	19.01	30.84	
2025-01-19 01:22:06.68	19.01	30.88	
2025-01-19 01:22:06.88	19.01	30.93	
2025-01-19 01:22:07.09	19.02	30.98	
2025-01-19 01:22:07.29	19.02	31.02	
2025-01-19 01:22:07.49	19.02	31.07	
2025-01-19 01:22:07.70	19.02	31.12	
2025-01-19 01:22:07.90	19.03	31.16	
2025-01-19 01:22:08.10	19.03	31.21	
2025-01-19 01:22:08.30	19.03	31.25	
2025-01-19 01:22:08.51	19.03	31.30	
2025-01-19 01:22:08.71	19.04	31.35	
2025-01-19 01:22:08.91	19.04	31.39	
2025-01-19 01:22:09.12	19.04	31.44	
2025-01-19 01:22:09.32	19.04	31.49	
2025-01-19 01:22:09.52	19.05	31.53	
2025-01-19 01:22:09.73	19.05	31.58	
2025-01-19 01:22:09.93	19.05	31.63	
2025-01-19 01:22:10.13	19.05	31.68	
2025-01-19 01:22:10.34	19.06	31.72	
2025-01-19 01:22:10.54	19.06	31.77	
2025-01-19 01:22:10.74	19.06	31.82	
2025-01-19 01:22:10.95	19.06	31.87	
2025-01-19 01:22:11.15	19.07	31.91	
2025-01-19 01:22:11.35	19.07	31.96	
2025-01-19 01:22:11.56	19.07	32.01	
2025-01-19 01:22:11.76	19.07	32.06	
2025-01-19 01:22:11.96	19.08	32.11	
2025-01-19 01:22:12.17	19.08	32.16	
2025-01-19 01:22:12.37	19.08	32.20	
2025-01-19 01:22:12.57	19.08	32.25	
2025-01-19 01:22:12.78	19.09	32.30	
2025-01-19 01:22:12.98	19.09	32.35	
2025-01-19 01:22:13.18	19.09	32.40	
2025-01-19 01:22:13.39	19.10	32.45	
2025-01-19 01:22:13.59	19.10	32.49	
2025-01-19 01:22:13.79	19.10	32.54	
2025-01-19 01:22:13.99	19.10	32.59	
2025-01-19 01:22:14.20	19.11	32.64	
2025-01-19 01:22:14.40	19.11	32.69	
2025-01-19 01:22:14.60	19.11	32.74	
2025-01-19 01:22:14.81	19.11	32.79	
2025-01-19 01:22:15.01	19.12	32.84	
2025-01-19 01:22:15.21	19.12	32.89	
2025-01-19 01:22:15.42	19.12	32.94	
2025-01-19 01:22:15.62	19.12	32.99	
2025-01-19 01:22:15.82	19.13	33.03	
2025-01-19 01:22:16.03	19.13	33.09	
2025-01-19 01:22:16.23	19.13	33.13	
2025-01-19 01:22:16.43	19.14	33.18	
2025-01-19 01:22:16.64	19.14	33.24	
2025-01-19 01:22:16.84	19.14	33.28	
2025-01-19 01:22:17.04	19.14	33.33	
2025-01-19 01:22:17.25	19.15	33.39	
2025-01-19 01:22:17.45	19.15	33.44	
2025-01-19 01:22:17.65	19.15	33.49	
2025-01-19 01:22:17.86	19.16	33.54	
2025-01-19 01:22:18.06	19.16	33.59	
2025-01-19 01:22:18.26	19.16	33.64	
2025-01-19 01:22:18.47	19.16	33.69	
2025-01-19 01:22:18.67	19.17	33.74	
2025-01-19 01:22:18.87	19.17	33.79	
2025-01-19 01:22:19.08	19.17	33.84	
2025-01-19 01:22:19.28	19.18	33.89	
2025-01-19 01:22:19.48	19.18	33.94	
2025-01-19 01:22:19.68	19.18	33.99	
2025-01-19 01:22:19.89	19.18	34.05	
2025-01-19 01:22:20.09	19.19	34.10	
2025-01-19 01:22:20.29	19.19	34.15	
2025-01-19 01:22:20.50	19.19	34.20	
2025-01-19 01:22:20.70	19.20	34.25	
2025-01-19 01:22:20.90	19.20	34.30	
2025-01-19 01:22:21.11	19.20	34.36	
2025-01-19 01:22:21.31	19.20	34.41	
2025-01-19 01:22:21.51	19.21	34.46	
2025-01-19 01:22:21.72	19.21	34.51	
2025-01-19 01:22:21.92	19.21	34.57	
2025-01-19 01:22:22.12	19.22	34.62	
2025-01-19 01:22:22.33	19.22	34.67	
2025-01-19 01:22:22.53	19.22	34.72	
2025-01-19 01:22:22.73	19.22	34.78	
2025-01-19 01:22:22.94	19.23	34.83	
2025-01-19 01:22:23.14	19.23	34.88	
2025-01-19 01:22:23.34	19.23	34.93	
2025-01-19 01:22:23.55	19.24	34.99	
2025-01-19 01:22:23.75	19.24	35.04	
2025-01-19 01:22:23.95	19.24	35.09	
2025-01-19 01:22:24.16	19.25	35.15	
2025-01-19 01:22:24.36	19.25	35.20	
2025-01-19 01:22:24.56	19.25	35.25	
2025-01-19 01:22:24.77	19.25	35.31	
2025-01-19 01:22:24.97	19.26	35.36	
2025-01-19 01:22:25.17	19.26	35.42	
2025-01-19 01:22:25.37	19.26	35.47	
2025-01-19 01:22:25.58	19.27	35.53	
2025-01-19 01:22:25.78	19.27	35.58	
2025-01-19 01:22:25.98	19.27	35.63	
2025-01-19 01:22:26.19	19.28	35.69	
2025-01-19 01:22:26.39	19.28	35.74	
2025-01-19 01:22:26.59	19.28	35.80	
2025-01-19 01:22:26.80	19.29	35.85	
2025-01-19 01:22:27.00	19.29	35.91	
2025-01-19 01:22:27.20	19.29	35.96	
2025-01-19 01:22:27.41	19.29	36.02	
2025-01-19 01:22:27.61	19.30	36.07	
2025-01-19 01:22:27.81	19.30	36.13	
2025-01-19 01:22:28.02	19.30	36.18	
2025-01-19 01:22:28.22	19.31	36.24	
2025-01-19 01:22:28.42	19.31	36.29	
2025-01-19 01:22:28.63	19.31	36.35	
2025-01-19 01:22:28.83	19.32	36.40	
2025-01-19 01:22:29.03	19.32	36.46	
2025-01-19 01:22:29.24	19.32	36.52	
2025-01-19 01:22:29.44	19.33	36.57	
2025-01-19 01:22:29.64	19.33	36.63	
2025-01-19 01:22:29.85	19.33	36.68	
2025-01-19 01:22:30.05	19.34	36.74	
2025-01-19 01:22:30.25	19.34	36.80	
2025-01-19 01:22:30.46	19.34	36.85	
2025-01-19 01:22:30.66	19.35	36.91	
2025-01-19 01:22:30.86	19.35	36.97	
2025-01-19 01:22:31.06	19.35	37.02	
2025-01-19 01:22:31.27	19.36	37.08	
2025-01-19 01:22:31.47	19.36	37.14	
2025-01-19 01:22:31.67	19.36	37.19	
2025-01-19 01:22:31.88	19.37	37.25	
2025-01-19 01:22:32.08	19.37	37.31	
2025-01-19 01:22:32.28	19.37	37.36	
2025-01-19 01:22:32.49	19.38	37.42	
2025-01-19 01:22:32.69	19.38	37.48	
2025-01-19 01:22:32.89	19.38	37.54	
2025-01-19 01:22:33.10	19.39	37.60	
2025-01-19 01:22:33.30	19.39	37.65	
2025-01-19 01:22:33.50	19.39	37.71	
2025-01-19 01:22:33.71	19.40	37.77	
2025-01-19 01:22:33.91	19.40	37.83	
2025-01-19 01:22:34.11	19.40	37.89	
2025-01-19 01:22:34.32	19.41	37.95	
2025-01-19 01:22:34.52	19.41	38.01	
2025-01-19 01:22:34.72	19.41	38.06	
2025-01-19 01:22:34.93	19.42	38.12	
2025-01-19 01:22:35.13	19.42	38.18	
2025-01-19 01:22:35.33	19.42	38.24	
2025-01-19 01:22:35.54	19.43	38.30	
2025-01-19 01:22:35.74	19.43	38.36	
2025-01-19 01:22:35.94	19.43	38.42	
2025-01-19 01:22:36.15	19.44	38.48	
2025-01-19 01:22:36.35	19.44	38.54	
2025-01-19 01:22:36.55	19.44	38.60	
2025-01-19 01:22:36.75	19.45	38.66	
2025-01-19 01:22:36.96	19.45	38.72	
2025-01-19 01:22:37.16	19.46	38.78	
2025-01-19 01:22:37.36	19.46	38.84	
2025-01-19 01:22:37.57	19.46	38.90	
2025-01-19 01:22:37.77	19.47	38.96	
2025-01-19 01:22:37.97	19.47	39.02	
2025-01-19 01:22:38.18	19.47	39.08	
2025-01-19 01:22:38.38	19.48	39.14	
2025-01-19 01:22:38.58	19.48	39.20	
2025-01-19 01:22:38.79	19.48	39.26	
2025-01-19 01:22:38.99	19.49	39.32	
2025-01-19 01:22:39.19	19.49	39.38	
2025-01-19 01:22:39.40	19.50	39.45	
2025-01-19 01:22:39.60	19.50	39.51	
2025-01-19 01:22:39.80	19.50	39.57	
2025-01-19 01:22:40.01	19.51	39.63	
2025-01-19 01:22:40.21	19.51	39.69	
2025-01-19 01:22:40.41	19.51	39.75	
2025-01-19 01:22:40.62	19.52	39.82	
2025-01-19 01:22:40.82	19.52	39.88	
2025-01-19 01:22:41.02	19.53	39.94	
2025-01-19 01:22:41.23	19.53	40.00	
2025-01-19 01:22:41.43	19.53	40.06	
2025-01-19 01:22:41.63	19.54	40.13	
2025-01-19 01:22:41.83	19.54	40.19	
2025-01-19 01:22:42.04	19.54	40.25	
2025-01-19 01:22:42.24	19.55	40.31	
2025-01-19 01:22:42.44	19.55	40.38	
2025-01-19 01:22:42.65	19.56	40.44	
2025-01-19 01:22:42.85	19.56	40.50	
2025-01-19 01:22:43.05	19.56	40.57	
2025-01-19 01:22:43.26	19.57	40.63	
2025-01-19 01:22:43.46	19.57	40.70	
2025-01-19 01:22:43.66	19.58	40.76	
2025-01-19 01:22:43.87	19.58	40.82	
2025-01-19 01:22:44.07	19.58	40.89	
2025-01-19 01:22:44.27	19.59	40.95	
2025-01-19 01:22:44.48	19.59	41.02	
2025-01-19 01:22:44.68	19.60	41.08	
2025-01-19 01:22:44.88	19.60	41.14	
2025-01-19 01:22:45.09	19.60	41.21	
2025-01-19 01:22:45.29	19.61	41.27	
2025-01-19 01:22:45.49	19.61	41.34	
2025-01-19 01:22:45.70	19.62	41.40	
2025-01-19 01:22:45.90	19.62	41.47	
2025-01-19 01:22:46.10	19.62	41.53	
2025-01-19 01:22:46.31	19.63	41.60	
2025-01-19 01:22:46.51	19.63	41.66	
2025-01-19 01:22:46.71	19.64	41.73	
2025-01-19 01:22:46.92	19.64	41.80	
2025-01-19 01:22:47.12	19.65	41.86	
2025-01-19 01:22:47.32	19.65	41.93	
2025-01-19 01:22:47.52	19.65	41.99	
2025-01-19 01:22:47.73	19.66	42.06	
2025-01-19 01:22:47.93	19.66	42.13	
2025-01-19 01:22:48.13	19.67	42.19	
2025-01-19 01:22:48.34	19.67	42.26	
2025-01-19 01:22:48.54	19.67	42.33	
2025-01-19 01:22:48.74	19.68	42.39	
2025-01-19 01:22:48.95	19.68	42.46	
2025-01-19 01:22:49.15	19.69	42.53	
2025-01-19 01:22:49.35	19.69	42.59	
2025-01-19 01:22:49.56	19.70	42.66	
2025-01-19 01:22:49.76	19.70	42.73	
2025-01-19 01:22:49.96	19.71	42.80	
2025-01-19 01:22:50.17	19.71	42.87	
2025-01-19 01:22:50.37	19.71	42.93	
2025-01-19 01:22:50.57	19.72	43.00	
2025-01-19 01:22:50.78	19.72	43.07	
2025-01-19 01:22:50.98	19.73	43.14	
2025-01-19 01:22:51.18	19.73	43.20	
2025-01-19 01:22:51.39	19.74	43.27	
2025-01-19 01:22:51.59	19.74	43.34	
2025-01-19 01:22:51.79	19.75	43.41	
2025-01-19 01:22:52.00	19.75	43.48	
2025-01-19 01:22:52.20	19.75	43.55	
2025-01-19 01:22:52.40	19.76	43.62	
2025-01-19 01:22:52.61	19.76	43.69	
2025-01-19 01:22:52.81	19.77	43.76	
2025-01-19 01:22:53.01	19.77	43.83	
2025-01-19 01:22:53.21	19.78	43.89	
2025-01-19 01:22:53.42	19.78	43.97	
2025-01-19 01:22:53.62	19.79	44.03	
2025-01-19 01:22:53.82	19.79	44.10	
2025-01-19 01:22:54.03	19.80	44.18	
2025-01-19 01:22:54.23	19.80	44.25	
2025-01-19 01:22:54.43	19.81	44.31	
2025-01-19 01:22:54.64	19.81	44.39	
2025-01-19 01:22:54.84	19.82	44.46	
2025-01-19 01:22:55.04	19.82	44.53	
2025-01-19 01:22:55.25	19.83	44.60	
2025-01-19 01:22:55.45	19.83	44.67	
2025-01-19 01:22:55.65	19.83	44.74	
2025-01-19 01:22:55.86	19.84	44.81	
2025-01-19 01:22:56.06	19.84	44.88	
2025-01-19 01:22:56.26	19.85	44.96	
2025-01-19 01:22:56.47	19.85	45.03	
2025-01-19 01:22:56.67	19.86	45.10	
2025-01-19 01:22:56.87	19.86	45.17	
2025-01-19 01:22:57.08	19.87	45.25	
2025-01-19 01:22:57.28	19.87	45.32	
2025-01-19 01:22:57.48	19.88	45.39	
2025-01-19 01:22:57.69	19.88	45.46	
2025-01-19 01:22:57.89	19.89	45.54	
2025-01-19 01:22:58.09	19.89	45.61	
2025-01-19 01:22:58.30	19.90	45.68	
2025-01-19 01:22:58.50	19.90	45.75	
2025-01-19 01:22:58.70	19.91	45.83	
2025-01-19 01:22:58.90	19.91	45.90	
2025-01-19 01:22:59.11	19.92	45.98	
2025-01-19 01:22:59.31	19.93	46.05	
2025-01-19 01:22:59.51	19.93	46.12	
2025-01-19 01:22:59.72	19.94	46.20	
2025-01-19 01:22:59.92	19.94	46.27	
2025-01-19 01:23:00.12	19.95	46.34	
2025-01-19 01:23:00.33	19.95	46.42	
2025-01-19 01:23:00.53	19.96	46.49	
2025-01-19 01:23:00.73	19.96	46.57	
2025-01-19 01:23:00.94	19.97	46.64	
2025-01-19 01:23:01.14	19.97	46.72	
2025-01-19 01:23:01.34	19.98	46.79	
2025-01-19 01:23:01.55	19.98	46.87	
2025-01-19 01:23:01.75	19.99	46.94	
2025-01-19 01:23:01.95	20.00	47.02	
2025-01-19 01:23:02.16	20.00	47.10	
2025-01-19 01:23:02.36	20.01	47.17	
2025-01-19 01:23:02.56	20.01	47.25	
2025-01-19 01:23:02.77	20.02	47.33	
2025-01-19 01:23:02.97	20.02	47.40	
2025-01-19 01:23:03.17	20.03	47.48	
2025-01-19 01:23:03.38	20.03	47.55	
2025-01-19 01:23:03.58	20.04	47.63	
2025-01-19 01:23:03.78	20.05	47.71	
2025-01-19 01:23:03.99	20.05	47.79	
2025-01-19 01:23:04.19	20.06	47.86	
2025-01-19 01:23:04.39	20.06	47.94	
2025-01-19 01:23:04.59	20.07	48.01	
2025-01-19 01:23:04.80	20.07	48.09	
2025-01-19 01:23:05.00	20.08	48.17	
2025-01-19 01:23:05.20	20.09	48.25	
2025-01-19 01:23:05.41	20.09	48.33	
2025-01-19 01:23:05.61	20.10	48.41	
2025-01-19 01:23:05.81	20.10	48.48	
2025-01-19 01:23:06.02	20.11	48.56	
2025-01-19 01:23:06.22	20.12	48.64	
2025-01-19 01:23:06.42	20.12	48.72	
2025-01-19 01:23:06.63	20.13	48.80	
2025-01-19 01:23:06.83	20.13	48.88	
2025-01-19 01:23:07.03	20.14	48.96	
2025-01-19 01:23:07.24	20.15	49.04	
2025-01-19 01:23:07.44	20.15	49.12	
2025-01-19 01:23:07.64	20.16	49.19	
2025-01-19 01:23:07.85	20.17	49.28	
2025-01-19 01:23:08.05	20.17	49.36	
2025-01-19 01:23:08.25	20.18	49.43	
2025-01-19 01:23:08.46	20.18	49.52	
2025-01-19 01:23:08.66	20.19	49.60	
2025-01-19 01:23:08.86	20.20	49.68	
2025-01-19 01:23:09.07	20.20	49.76	
2025-01-19 01:23:09.27	20.21	49.84	
2025-01-19 01:23:09.47	20.22	49.92	
2025-01-19 01:23:09.68	20.22	50.00	
2025-01-19 01:23:09.88	20.23	50.08	
2025-01-19 01:23:10.08	20.24	50.16	
2025-01-19 01:23:10.28	20.24	50.24	
2025-01-19 01:23:10.49	20.25	50.33	
2025-01-19 01:23:10.69	20.26	50.41	
2025-01-19 01:23:10.89	20.26	50.49	
2025-01-19 01:23:11.10	20.27	50.57	
2025-01-19 01:23:11.30	20.28	50.66	
2025-01-19 01:23:11.50	20.28	50.74	
2025-01-19 01:23:11.71	20.29	50.82	
2025-01-19 01:23:11.91	20.30	50.90	
2025-01-19 01:23:12.11	20.30	50.99	
2025-01-19 01:23:12.32	20.31	51.07	
2025-01-19 01:23:12.52	20.32	51.15	
2025-01-19 01:23:12.72	20.32	51.24	
2025-01-19 01:23:12.93	20.33	51.32	
2025-01-19 01:23:13.13	20.34	51.40	
2025-01-19 01:23:13.33	20.35	51.49	
2025-01-19 01:23:13.54	20.35	51.57	
2025-01-19 01:23:13.74	20.36	51.66	
2025-01-19 01:23:13.94	20.37	51.74	
2025-01-19 01:23:14.15	20.38	51.83	
2025-01-19 01:23:14.35	20.38	51.91	
2025-01-19 01:23:14.55	20.39	51.99	
2025-01-19 01:23:14.76	20.40	52.08	
2025-01-19 01:23:14.96	20.40	52.17	
2025-01-19 01:23:15.16	20.41	52.25	
2025-01-19 01:23:15.36	20.42	52.33	
2025-01-19 01:23:15.57	20.43	52.42	
2025-01-19 01:23:15.77	20.43	52.51	
2025-01-19 01:23:15.97	20.44	52.59	
2025-01-19 01:23:16.18	20.45	52.68	
2025-01-19 01:23:16.38	20.46	52.77	
2025-01-19 01:23:16.58	20.47	52.85	
2025-01-19 01:23:16.79	20.47	52.94	
2025-01-19 01:23:16.99	20.48	53.03	
2025-01-19 01:23:17.19	20.49	53.11	
2025-01-19 01:23:17.40	20.50	53.20	
2025-01-19 01:23:17.60	20.50	53.29	
2025-01-19 01:23:17.80	20.51	53.37	
2025-01-19 01:23:18.01	20.52	53.46	
2025-01-19 01:23:18.21	20.53	53.55	
2025-01-19 01:23:18.41	20.54	53.64	
2025-01-19 01:23:18.62	20.55	53.73	
2025-01-19 01:23:18.82	20.55	53.81	
2025-01-19 01:23:19.02	20.56	53.90	
2025-01-19 01:23:19.23	20.57	53.99	
2025-01-19 01:23:19.43	20.58	54.08	
2025-01-19 01:23:19.63	20.59	54.17	
2025-01-19 01:23:19.84	20.60	54.26	
2025-01-19 01:23:20.04	20.60	54.35	
2025-01-19 01:23:20.24	20.61	54.43	
2025-01-19 01:23:20.45	20.62	54.53	
2025-01-19 01:23:20.65	20.63	54.62	
2025-01-19 01:23:20.85	20.64	54.70	
2025-01-19 01:23:21.05	20.65	54.79	
2025-01-19 01:23:21.26	20.66	54.89	
2025-01-19 01:23:21.46	20.66	54.97	
2025-01-19 01:23:21.66	20.67	55.06	
2025-01-19 01:23:21.87	20.68	55.16	
2025-01-19 01:23:22.07	20.69	55.25	
2025-01-19 01:23:22.27	20.70	55.34	
2025-01-19 01:23:22.48	20.71	55.43	
2025-01-19 01:23:22.68	20.72	55.52	
2025-01-19 01:23:22.88	20.73	55.61	
2025-01-19 01:23:23.09	20.74	55.70	
2025-01-19 01:23:23.29	20.75	55.79	
2025-01-19 01:23:23.49	20.76	55.88	
2025-01-19 01:23:23.70	20.77	55.98	
2025-01-19 01:23:23.90	20.78	56.07	
2025-01-19 01:23:24.10	20.78	56.16	
2025-01-19 01:23:24.31	20.79	56.26	
2025-01-19 01:23:24.51	20.80	56.35	
2025-01-19 01:23:24.71	20.81	56.44	
2025-01-19 01:23:24.92	20.82	56.54	
2025-01-19 01:23:25.12	20.83	56.63	
2025-01-19 01:23:25.32	20.84	56.72	
2025-01-19 01:23:25.53	20.85	56.82	
2025-01-19 01:23:25.73	20.86	56.91	
2025-01-19 01:23:25.93	20.87	57.00	
2025-01-19 01:23:26.14	20.88	57.10	
2025-01-19 01:23:26.34	20.89	57.19	
2025-01-19 01:23:26.54	20.90	57.28	
2025-01-19 01:23:26.74	20.91	57.38	
2025-01-19 01:23:26.95	20.93	57.47	
2025-01-19 01:23:27.15	20.94	57.57	
2025-01-19 01:23:27.35	20.95	57.66	
2025-01-19 01:23:27.56	20.96	57.76	
2025-01-19 01:23:27.76	20.97	57.85	
2025-01-19 01:23:27.96	20.98	57.95	
2025-01-19 01:23:28.17	20.99	58.04	
2025-01-19 01:23:28.37	21.00	58.14	
2025-01-19 01:23:28.57	21.01	58.23	
2025-01-19 01:23:28.78	21.02	58.33	
2025-01-19 01:23:28.98	21.03	58.43	
2025-01-19 01:23:29.18	21.04	58.52	
2025-01-19 01:23:29.39	21.06	58.62	
2025-01-19 01:23:29.59	21.07	58.72	
2025-01-19 01:23:29.79	21.08	58.81	
2025-01-19 01:23:30.00	21.09	58.91	
2025-01-19 01:23:30.20	21.10	59.01	
2025-01-19 01:23:30.40	21.11	59.10	
2025-01-19 01:23:30.61	21.13	59.20	
2025-01-19 01:23:30.81	21.14	59.30	
2025-01-19 01:23:31.01	21.15	59.40	
2025-01-19 01:23:31.22	21.16	59.50	
2025-01-19 01:23:31.42	21.17	59.60	
2025-01-19 01:23:31.62	21.19	59.69	
2025-01-19 01:23:31.83	21.20	59.79	
2025-01-19 01:23:32.03	21.21	59.89	
2025-01-19 01:23:32.23	21.22	59.99	
2025-01-19 01:23:32.43	21.24	60.09	
2025-01-19 01:23:32.64	21.25	60.19	
2025-01-19 01:23:32.84	21.26	60.29	
2025-01-19 01:23:33.04	21.27	60.38	
2025-01-19 01:23:33.25	21.29	60.49	
2025-01-19 01:23:33.45	21.30	60.58	
2025-01-19 01:23:33.65	21.31	60.68	
2025-01-19 01:23:33.86	21.33	60.79	
2025-01-19 01:23:34.06	21.34	60.88	
2025-01-19 01:23:34.26	21.35	60.98	
2025-01-19 01:23:34.47	21.37	61.09	
2025-01-19 01:23:34.67	21.38	61.19	
2025-01-19 01:23:34.87	21.39	61.29	
2025-01-19 01:23:35.08	21.41	61.39	
2025-01-19 01:23:35.28	21.42	61.49	
2025-01-19 01:23:35.48	21.44	61.59	
2025-01-19 01:23:35.69	21.45	61.69	
2025-01-19 01:23:35.89	21.47	61.79	
2025-01-19 01:23:36.09	21.48	61.90	
2025-01-19 01:23:36.30	21.49	62.00	
2025-01-19 01:23:36.50	21.51	62.10	
2025-01-19 01:23:36.70	21.52	62.20	
2025-01-19 01:23:36.91	21.54	62.31	
2025-01-19 01:23:37.11	21.55	62.41	
2025-01-19 01:23:37.31	21.57	62.51	
2025-01-19 01:23:37.52	21.58	62.62	
2025-01-19 01:23:37.72	21.60	62.72	
2025-01-19 01:23:37.92	21.62	62.82	
2025-01-19 01:23:38.12	21.63	62.92	
2025-01-19 01:23:38.33	21.65	63.03	
2025-01-19 01:23:38.53	21.66	63.13	
2025-01-19 01:23:38.73	21.68	63.23	
2025-01-19 01:23:38.94	21.70	63.34	
2025-01-19 01:23:39.14	21.71	63.44	
2025-01-19 01:23:39.34	21.73	63.55	
2025-01-19 01:23:39.55	21.74	63.65	
2025-01-19 01:23:39.75	21.76	63.76	
2025-01-19 01:23:39.95	21.78	63.86	
2025-01-19 01:23:40.16	21.80	63.97	
2025-01-19 01:23:40.36	21.81	64.07	
2025-01-19 01:23:40.56	21.83	64.18	
2025-01-19 01:23:40.77	21.85	64.28	
2025-01-19 01:23:40.97	21.86	64.39	
2025-01-19 01:23:41.17	21.88	64.49	
2025-01-19 01:23:41.38	21.90	64.60	
2025-01-19 01:23:41.58	21.92	64.71	
2025-01-19 01:23:41.78	21.94	64.81	
2025-01-19 01:23:41.99	21.96	64.92	
2025-01-19 01:23:42.19	21.97	65.03	
2025-01-19 01:23:42.39	21.99	65.13	
2025-01-19 01:23:42.60	22.01	65.24	
2025-01-19 01:23:42.80	22.03	65.35	
2025-01-19 01:23:43.00	22.05	65.45	
2025-01-19 01:23:43.21	22.07	65.56	
2025-01-19 01:23:43.41	22.09	65.67	
2025-01-19 01:23:43.61	22.11	65.77	
2025-01-19 01:23:43.81	22.13	65.88	
2025-01-19 01:23:44.02	22.15	65.99	
2025-01-19 01:23:44.22	22.17	66.10	
2025-01-19 01:23:44.42	22.19	66.20	
2025-01-19 01:23:44.63	22.21	66.32	
2025-01-19 01:23:44.83	22.23	66.42	
2025-01-19 01:23:45.03	22.25	66.53	
2025-01-19 01:23:45.24	22.28	66.64	
2025-01-19 01:23:45.44	22.30	66.75	
2025-01-19 01:23:45.64	22.32	66.86	
2025-01-19 01:23:45.85	22.34	66.97	
2025-01-19 01:23:46.05	22.36	67.08	
2025-01-19 01:23:46.25	22.39	67.19	
2025-01-19 01:23:46.46	22.41	67.30	
2025-01-19 01:23:46.66	22.43	67.41	
2025-01-19 01:23:46.86	22.45	67.52	
2025-01-19 01:23:47.07	22.48	67.63	
2025-01-19 01:23:47.27	22.50	67.74	
2025-01-19 01:23:47.47	22.53	67.85	
2025-01-19 01:23:47.68	22.55	67.96	
2025-01-19 01:23:47.88	22.57	68.07	
2025-01-19 01:23:48.08	22.60	68.18	
2025-01-19 01:23:48.29	22.63	68.29	
2025-01-19 01:23:48.49	22.65	68.40	
2025-01-19 01:23:48.69	22.68	68.51	
2025-01-19 01:23:48.89	22.70	68.62	
2025-01-19 01:23:49.10	22.73	68.74	
2025-01-19 01:23:49.30	22.75	68.85	
2025-01-19 01:23:49.50	22.78	68.96	
2025-01-19 01:23:49.71	22.81	69.07	
2025-01-19 01:23:49.91	22.84	69.18	
2025-01-19 01:23:50.11	22.86	69.29	
2025-01-19 01:23:50.32	22.89	69.41	
2025-01-19 01:23:50.52	22.92	69.52	
2025-01-19 01:23:50.72	22.95	69.63	
2025-01-19 01:23:50.93	22.98	69.75	
2025-01-19 01:23:51.13	23.01	69.86	
2025-01-19 01:23:51.33	23.04	69.97	
2025-01-19 01:23:51.54	23.07	70.09	
2025-01-19 01:23:51.74	23.10	70.20	
2025-01-19 01:23:51.94	23.13	70.31	
2025-01-19 01:23:52.15	23.16	70.43	
2025-01-19 01:23:52.35	23.19	70.54	
2025-01-19 01:23:52.55	23.22	70.65	
2025-01-19 01:23:52.76	23.25	70.77	
2025-01-19 01:23:52.96	23.29	70.88	
2025-01-19 01:23:53.16	23.32	70.99	
2025-01-19 01:23:53.37	23.35	71.11	
2025-01-19 01:23:53.57	23.39	71.22	
2025-01-19 01:23:53.77	23.42	71.34	
2025-01-19 01:23:53.98	23.46	71.45	
2025-01-19 01:23:54.18	23.49	71.57	
2025-01-19 01:23:54.38	23.53	71.68	
2025-01-19 01:23:54.59	23.56	71.80	
2025-01-19 01:23:54.79	23.60	71.91	
2025-01-19 01:23:54.99	23.64	72.03	
2025-01-19 01:23:55.19	23.67	72.14	
2025-01-19 01:23:55.40	23.71	72.26	
2025-01-19 01:23:55.60	23.75	72.37	
2025-01-19 01:23:55.80	23.79	72.49	
2025-01-19 01:23:56.01	23.83	72.61	
2025-01-19 01:23:56.21	23.87	72.72	
2025-01-19 01:23:56.41	23.91	72.84	
2025-01-19 01:23:56.62	23.95	72.96	
2025-01-19 01:23:56.82	23.99	73.07	
2025-01-19 01:23:57.02	24.04	73.18	
2025-01-19 01:23:57.23	24.08	73.30	
2025-01-19 01:23:57.43	24.12	73.42	
2025-01-19 01:23:57.63	24.17	73.53	
2025-01-19 01:23:57.84	24.21	73.66	
2025-01-19 01:23:58.04	24.26	73.77	
2025-01-19 01:23:58.24	24.31	73.89	
2025-01-19 01:23:58.45	24.35	74.01	
2025-01-19 01:23:58.65	24.40	74.12	
2025-01-19 01:23:58.85	24.45	74.24	
2025-01-19 01:23:59.06	24.50	74.36	
2025-01-19 01:23:59.26	24.55	74.48	
2025-01-19 01:23:59.46	24.60	74.59	
2025-01-19 01:23:59.67	24.65	74.71	
2025-01-19 01:23:59.87	24.71	74.83	
2025-01-19 01:24:00.07	24.76	74.95	
2025-01-19 01:24:00.27	24.81	75.06	
2025-01-19 01:24:00.48	24.87	75.18	
2025-01-19 01:24:00.68	24.92	75.30	
2025-01-19 01:24:00.88	24.98	75.42	
2025-01-19 01:24:01.09	25.04	75.54	
2025-01-19 01:24:01.29	25.10	75.66	
2025-01-19 01:24:01.49	25.16	75.77	
2025-01-19 01:24:01.70	25.22	75.90	
2025-01-19 01:24:01.90	25.28	76.01	
2025-01-19 01:24:02.10	25.34	76.13	
2025-01-19 01:24:02.31	25.41	76.25	
2025-01-19 01:24:02.51	25.47	76.37	
2025-01-19 01:24:02.71	25.54	76.49	
2025-01-19 01:24:02.92	25.61	76.61	
2025-01-19 01:24:03.12	25.68	76.73	
2025-01-19 01:24:03.32	25.75	76.85	
2025-01-19 01:24:03.53	25.82	76.97	
2025-01-19 01:24:03.73	25.89	77.09	
2025-01-19 01:24:03.93	25.97	77.21	
2025-01-19 01:24:04.14	26.05	77.33	
2025-01-19 01:24:04.34	26.12	77.45	
2025-01-19 01:24:04.54	26.20	77.57	
2025-01-19 01:24:04.75	26.28	77.69	
2025-01-19 01:24:04.95	26.36	77.81	
2025-01-19 01:24:05.15	26.45	77.93	
2025-01-19 01:24:05.36	26.53	78.05	
2025-01-19 01:24:05.56	26.62	78.17	
2025-01-19 01:24:05.76	26.71	78.29	
2025-01-19 01:24:05.96	26.80	78.41	
2025-01-19 01:24:06.17	26.89	78.53	
2025-01-19 01:24:06.37	26.99	78.65	
2025-01-19 01:24:06.57	27.08	78.77	
2025-01-19 01:24:06.78	27.18	78.89	
