passes_logs/2025/01/19/SPB_Silybum_02/SPB_Silybum_02__20250119_003803_SUOMI_NPP_rec.log

#Pass ID: 20250119_003803_SUOMI NPP
#Satellite: SUOMI NPP
#Configuration: NPP
#Start time: 2025-01-19 00:38:04

#Version: 2.0.20230423
#Station: SPB_Silybum_02
#Location: 30.233357 lon 59.946436 lat
#TLE: 1 37849U 11061A   25018.16218063  .00000203  00000+0  11733-3 0  9995
#TLE: 2 37849  98.7450 319.1107 0001555  36.1075 324.0206 14.19539838685362

#Time	Az	El	Level	Level2	SNR	BER	Gain	Gain2
2025-01-19 00:38:06.72	16.97	4.19	
2025-01-19 00:38:06.92	16.97	4.21	
2025-01-19 00:38:07.12	16.97	4.22	
2025-01-19 00:38:07.33	16.97	4.24	
2025-01-19 00:38:07.53	16.96	4.25	
2025-01-19 00:38:07.73	16.96	4.26	
2025-01-19 00:38:07.94	16.96	4.28	
2025-01-19 00:38:08.14	16.96	4.29	
2025-01-19 00:38:08.34	16.96	4.31	
2025-01-19 00:38:08.55	16.95	4.32	
2025-01-19 00:38:08.75	16.95	4.33	
2025-01-19 00:38:08.95	16.95	4.35	
2025-01-19 00:38:09.16	16.95	4.36	
2025-01-19 00:38:09.36	16.95	4.38	
2025-01-19 00:38:09.56	16.94	4.39	
2025-01-19 00:38:09.77	16.94	4.40	
2025-01-19 00:38:09.97	16.94	4.42	
2025-01-19 00:38:10.17	16.94	4.43	
2025-01-19 00:38:10.38	16.94	4.45	
2025-01-19 00:38:10.58	16.93	4.46	
2025-01-19 00:38:10.78	16.93	4.48	
2025-01-19 00:38:10.98	16.93	4.49	
2025-01-19 00:38:11.19	16.93	4.50	
2025-01-19 00:38:11.39	16.92	4.52	
2025-01-19 00:38:11.59	16.92	4.53	
2025-01-19 00:38:11.80	16.92	4.55	
2025-01-19 00:38:12.00	16.92	4.56	
2025-01-19 00:38:12.20	16.92	4.57	
2025-01-19 00:38:12.41	16.91	4.59	
2025-01-19 00:38:12.61	16.91	4.60	
2025-01-19 00:38:12.81	16.91	4.62	
2025-01-19 00:38:13.02	16.91	4.63	
2025-01-19 00:38:13.22	16.91	4.65	
2025-01-19 00:38:13.42	16.90	4.66	
2025-01-19 00:38:13.63	16.90	4.67	
2025-01-19 00:38:13.83	16.90	4.69	
2025-01-19 00:38:14.03	16.90	4.70	
2025-01-19 00:38:14.24	16.89	4.72	
2025-01-19 00:38:14.44	16.89	4.73	
2025-01-19 00:38:14.64	16.89	4.74	
2025-01-19 00:38:14.85	16.89	4.76	
2025-01-19 00:38:15.05	16.89	4.77	
2025-01-19 00:38:15.25	16.88	4.79	
2025-01-19 00:38:15.46	16.88	4.80	
2025-01-19 00:38:15.66	16.88	4.82	
2025-01-19 00:38:15.86	16.88	4.83	
2025-01-19 00:38:16.07	16.88	4.85	
2025-01-19 00:38:16.27	16.87	4.86	
2025-01-19 00:38:16.47	16.87	4.87	
2025-01-19 00:38:16.67	16.87	4.89	
2025-01-19 00:38:16.88	16.87	4.90	
2025-01-19 00:38:17.08	16.86	4.92	
2025-01-19 00:38:17.28	16.86	4.93	
2025-01-19 00:38:17.49	16.86	4.95	
2025-01-19 00:38:17.69	16.86	4.96	
2025-01-19 00:38:17.89	16.86	4.97	
2025-01-19 00:38:18.10	16.85	4.99	
2025-01-19 00:38:18.30	16.85	5.00	
2025-01-19 00:38:18.50	16.85	5.02	
2025-01-19 00:38:18.71	16.85	5.03	
2025-01-19 00:38:18.91	16.84	5.05	
2025-01-19 00:38:19.11	16.84	5.06	
2025-01-19 00:38:19.32	16.84	5.08	
2025-01-19 00:38:19.52	16.84	5.09	
2025-01-19 00:38:19.72	16.84	5.10	
2025-01-19 00:38:19.93	16.83	5.12	
2025-01-19 00:38:20.13	16.83	5.13	
2025-01-19 00:38:20.33	16.83	5.15	
2025-01-19 00:38:20.54	16.83	5.16	
2025-01-19 00:38:20.74	16.82	5.18	
2025-01-19 00:38:20.94	16.82	5.19	
2025-01-19 00:38:21.15	16.82	5.21	
2025-01-19 00:38:21.35	16.82	5.22	
2025-01-19 00:38:21.55	16.82	5.23	
2025-01-19 00:38:21.75	16.81	5.25	
2025-01-19 00:38:21.96	16.81	5.26	
2025-01-19 00:38:22.16	16.81	5.28	
2025-01-19 00:38:22.36	16.81	5.29	
2025-01-19 00:38:22.57	16.80	5.31	
2025-01-19 00:38:22.77	16.80	5.32	
2025-01-19 00:38:22.97	16.80	5.34	
2025-01-19 00:38:23.18	16.80	5.35	
2025-01-19 00:38:23.38	16.79	5.37	
2025-01-19 00:38:23.58	16.79	5.38	
2025-01-19 00:38:23.79	16.79	5.40	
2025-01-19 00:38:23.99	16.79	5.41	
2025-01-19 00:38:24.19	16.79	5.42	
2025-01-19 00:38:24.40	16.78	5.44	
2025-01-19 00:38:24.60	16.78	5.45	
2025-01-19 00:38:24.80	16.78	5.47	
2025-01-19 00:38:25.01	16.78	5.48	
2025-01-19 00:38:25.21	16.77	5.50	
2025-01-19 00:38:25.41	16.77	5.51	
2025-01-19 00:38:25.62	16.77	5.53	
2025-01-19 00:38:25.82	16.77	5.54	
2025-01-19 00:38:26.02	16.76	5.56	
2025-01-19 00:38:26.23	16.76	5.57	
2025-01-19 00:38:26.43	16.76	5.59	
2025-01-19 00:38:26.63	16.76	5.60	
2025-01-19 00:38:26.84	16.76	5.62	
2025-01-19 00:38:27.04	16.75	5.63	
2025-01-19 00:38:27.24	16.75	5.65	
2025-01-19 00:38:27.44	16.75	5.66	
2025-01-19 00:38:27.65	16.75	5.67	
2025-01-19 00:38:27.85	16.74	5.69	
2025-01-19 00:38:28.05	16.74	5.70	
2025-01-19 00:38:28.26	16.74	5.72	
2025-01-19 00:38:28.46	16.74	5.73	
2025-01-19 00:38:28.66	16.73	5.75	
2025-01-19 00:38:28.87	16.73	5.76	
2025-01-19 00:38:29.07	16.73	5.78	
2025-01-19 00:38:29.27	16.73	5.79	
2025-01-19 00:38:29.48	16.72	5.81	
2025-01-19 00:38:29.68	16.72	5.82	
2025-01-19 00:38:29.88	16.72	5.84	
2025-01-19 00:38:30.09	16.72	5.85	
2025-01-19 00:38:30.29	16.71	5.87	
2025-01-19 00:38:30.49	16.71	5.88	
2025-01-19 00:38:30.70	16.71	5.90	
2025-01-19 00:38:30.90	16.71	5.91	
2025-01-19 00:38:31.10	16.71	5.93	
2025-01-19 00:38:31.31	16.70	5.94	
2025-01-19 00:38:31.51	16.70	5.96	
2025-01-19 00:38:31.71	16.70	5.97	
2025-01-19 00:38:31.92	16.70	5.99	
2025-01-19 00:38:32.12	16.69	6.00	
2025-01-19 00:38:32.32	16.69	6.02	
2025-01-19 00:38:32.53	16.69	6.03	
2025-01-19 00:38:32.73	16.69	6.05	
2025-01-19 00:38:32.93	16.68	6.06	
2025-01-19 00:38:33.13	16.68	6.08	
2025-01-19 00:38:33.34	16.68	6.09	
2025-01-19 00:38:33.54	16.68	6.11	
2025-01-19 00:38:33.74	16.67	6.12	
2025-01-19 00:38:33.95	16.67	6.14	
2025-01-19 00:38:34.15	16.67	6.15	
2025-01-19 00:38:34.35	16.67	6.17	
2025-01-19 00:38:34.56	16.66	6.18	
2025-01-19 00:38:34.76	16.66	6.20	
2025-01-19 00:38:34.96	16.66	6.21	
2025-01-19 00:38:35.17	16.66	6.23	
2025-01-19 00:38:35.37	16.65	6.24	
2025-01-19 00:38:35.57	16.65	6.26	
2025-01-19 00:38:35.78	16.65	6.27	
2025-01-19 00:38:35.98	16.65	6.29	
2025-01-19 00:38:36.18	16.64	6.30	
2025-01-19 00:38:36.39	16.64	6.32	
2025-01-19 00:38:36.59	16.64	6.33	
2025-01-19 00:38:36.79	16.64	6.35	
2025-01-19 00:38:37.00	16.63	6.36	
2025-01-19 00:38:37.20	16.63	6.38	
2025-01-19 00:38:37.40	16.63	6.39	
2025-01-19 00:38:37.61	16.63	6.41	
2025-01-19 00:38:37.81	16.62	6.42	
2025-01-19 00:38:38.01	16.62	6.44	
2025-01-19 00:38:38.22	16.62	6.46	
2025-01-19 00:38:38.42	16.62	6.47	
2025-01-19 00:38:38.62	16.61	6.49	
2025-01-19 00:38:38.82	16.61	6.50	
2025-01-19 00:38:39.03	16.61	6.52	
2025-01-19 00:38:39.23	16.61	6.53	
2025-01-19 00:38:39.43	16.60	6.55	
2025-01-19 00:38:39.64	16.60	6.56	
2025-01-19 00:38:39.84	16.60	6.58	
2025-01-19 00:38:40.04	16.60	6.59	
2025-01-19 00:38:40.25	16.59	6.61	
2025-01-19 00:38:40.45	16.59	6.62	
2025-01-19 00:38:40.65	16.59	6.64	
2025-01-19 00:38:40.86	16.58	6.65	
2025-01-19 00:38:41.06	16.58	6.67	
2025-01-19 00:38:41.26	16.58	6.68	
2025-01-19 00:38:41.47	16.58	6.70	
2025-01-19 00:38:41.67	16.57	6.72	
2025-01-19 00:38:41.87	16.57	6.73	
2025-01-19 00:38:42.08	16.57	6.75	
2025-01-19 00:38:42.28	16.57	6.76	
2025-01-19 00:38:42.48	16.56	6.78	
2025-01-19 00:38:42.69	16.56	6.79	
2025-01-19 00:38:42.89	16.56	6.81	
2025-01-19 00:38:43.09	16.56	6.82	
2025-01-19 00:38:43.30	16.55	6.84	
2025-01-19 00:38:43.50	16.55	6.85	
2025-01-19 00:38:43.70	16.55	6.87	
2025-01-19 00:38:43.91	16.55	6.89	
2025-01-19 00:38:44.11	16.54	6.90	
2025-01-19 00:38:44.31	16.54	6.92	
2025-01-19 00:38:44.51	16.54	6.93	
2025-01-19 00:38:44.72	16.54	6.95	
2025-01-19 00:38:44.92	16.53	6.96	
2025-01-19 00:38:45.12	16.53	6.98	
2025-01-19 00:38:45.33	16.53	6.99	
2025-01-19 00:38:45.53	16.52	7.01	
2025-01-19 00:38:45.73	16.52	7.02	
2025-01-19 00:38:45.94	16.52	7.04	
2025-01-19 00:38:46.14	16.52	7.06	
2025-01-19 00:38:46.34	16.51	7.07	
2025-01-19 00:38:46.55	16.51	7.09	
2025-01-19 00:38:46.75	16.51	7.10	
2025-01-19 00:38:46.95	16.51	7.12	
2025-01-19 00:38:47.16	16.50	7.13	
2025-01-19 00:38:47.36	16.50	7.15	
2025-01-19 00:38:47.56	16.50	7.16	
2025-01-19 00:38:47.77	16.49	7.18	
2025-01-19 00:38:47.97	16.49	7.20	
2025-01-19 00:38:48.17	16.49	7.21	
2025-01-19 00:38:48.38	16.49	7.23	
2025-01-19 00:38:48.58	16.48	7.24	
2025-01-19 00:38:48.78	16.48	7.26	
2025-01-19 00:38:48.99	16.48	7.28	
2025-01-19 00:38:49.19	16.48	7.29	
2025-01-19 00:38:49.39	16.47	7.31	
2025-01-19 00:38:49.60	16.47	7.32	
2025-01-19 00:38:49.80	16.47	7.34	
2025-01-19 00:38:50.00	16.46	7.35	
2025-01-19 00:38:50.20	16.46	7.37	
2025-01-19 00:38:50.41	16.46	7.39	
2025-01-19 00:38:50.61	16.46	7.40	
2025-01-19 00:38:50.81	16.45	7.42	
2025-01-19 00:38:51.02	16.45	7.43	
2025-01-19 00:38:51.22	16.45	7.45	
2025-01-19 00:38:51.42	16.45	7.46	
2025-01-19 00:38:51.63	16.44	7.48	
2025-01-19 00:38:51.83	16.44	7.50	
2025-01-19 00:38:52.03	16.44	7.51	
2025-01-19 00:38:52.24	16.43	7.53	
2025-01-19 00:38:52.44	16.43	7.54	
2025-01-19 00:38:52.64	16.43	7.56	
2025-01-19 00:38:52.85	16.43	7.58	
2025-01-19 00:38:53.05	16.42	7.59	
2025-01-19 00:38:53.25	16.42	7.61	
2025-01-19 00:38:53.46	16.42	7.62	
2025-01-19 00:38:53.66	16.41	7.64	
2025-01-19 00:38:53.86	16.41	7.65	
2025-01-19 00:38:54.07	16.41	7.67	
2025-01-19 00:38:54.27	16.41	7.69	
2025-01-19 00:38:54.47	16.40	7.70	
2025-01-19 00:38:54.68	16.40	7.72	
2025-01-19 00:38:54.88	16.40	7.73	
2025-01-19 00:38:55.08	16.39	7.75	
2025-01-19 00:38:55.29	16.39	7.77	
2025-01-19 00:38:55.49	16.39	7.78	
2025-01-19 00:38:55.69	16.39	7.80	
2025-01-19 00:38:55.89	16.38	7.81	
2025-01-19 00:38:56.10	16.38	7.83	
2025-01-19 00:38:56.30	16.38	7.85	
2025-01-19 00:38:56.50	16.37	7.86	
2025-01-19 00:38:56.71	16.37	7.88	
2025-01-19 00:38:56.91	16.37	7.90	
2025-01-19 00:38:57.11	16.37	7.91	
2025-01-19 00:38:57.32	16.36	7.93	
2025-01-19 00:38:57.52	16.36	7.94	
2025-01-19 00:38:57.72	16.36	7.96	
2025-01-19 00:38:57.93	16.35	7.98	
2025-01-19 00:38:58.13	16.35	7.99	
2025-01-19 00:38:58.33	16.35	8.01	
2025-01-19 00:38:58.54	16.35	8.02	
2025-01-19 00:38:58.74	16.34	8.04	
2025-01-19 00:38:58.94	16.34	8.06	
2025-01-19 00:38:59.15	16.34	8.07	
2025-01-19 00:38:59.35	16.33	8.09	
2025-01-19 00:38:59.55	16.33	8.11	
2025-01-19 00:38:59.76	16.33	8.12	
2025-01-19 00:38:59.96	16.32	8.14	
2025-01-19 00:39:00.16	16.32	8.15	
2025-01-19 00:39:00.37	16.32	8.17	
2025-01-19 00:39:00.57	16.32	8.19	
2025-01-19 00:39:00.77	16.31	8.20	
2025-01-19 00:39:00.98	16.31	8.22	
2025-01-19 00:39:01.18	16.31	8.24	
2025-01-19 00:39:01.38	16.30	8.25	
2025-01-19 00:39:01.58	16.30	8.27	
2025-01-19 00:39:01.79	16.30	8.28	
2025-01-19 00:39:01.99	16.29	8.30	
2025-01-19 00:39:02.19	16.29	8.32	
2025-01-19 00:39:02.40	16.29	8.33	
2025-01-19 00:39:02.60	16.29	8.35	
2025-01-19 00:39:02.80	16.28	8.37	
2025-01-19 00:39:03.01	16.28	8.38	
2025-01-19 00:39:03.21	16.28	8.40	
2025-01-19 00:39:03.41	16.27	8.42	
2025-01-19 00:39:03.62	16.27	8.43	
2025-01-19 00:39:03.82	16.27	8.45	
2025-01-19 00:39:04.02	16.26	8.46	
2025-01-19 00:39:04.23	16.26	8.48	
2025-01-19 00:39:04.43	16.26	8.50	
2025-01-19 00:39:04.63	16.26	8.51	
2025-01-19 00:39:04.84	16.25	8.53	
2025-01-19 00:39:05.04	16.25	8.55	
2025-01-19 00:39:05.24	16.25	8.56	
2025-01-19 00:39:05.45	16.24	8.58	
2025-01-19 00:39:05.65	16.24	8.60	
2025-01-19 00:39:05.85	16.24	8.61	
2025-01-19 00:39:06.06	16.23	8.63	
2025-01-19 00:39:06.26	16.23	8.65	
2025-01-19 00:39:06.46	16.23	8.66	
2025-01-19 00:39:06.66	16.22	8.68	
2025-01-19 00:39:06.87	16.22	8.70	
2025-01-19 00:39:07.07	16.22	8.71	
2025-01-19 00:39:07.27	16.22	8.73	
2025-01-19 00:39:07.48	16.21	8.75	
2025-01-19 00:39:07.68	16.21	8.76	
2025-01-19 00:39:07.88	16.21	8.78	
2025-01-19 00:39:08.09	16.20	8.80	
2025-01-19 00:39:08.29	16.20	8.81	
2025-01-19 00:39:08.49	16.20	8.83	
2025-01-19 00:39:08.70	16.19	8.85	
2025-01-19 00:39:08.90	16.19	8.86	
2025-01-19 00:39:09.10	16.19	8.88	
2025-01-19 00:39:09.31	16.18	8.90	
2025-01-19 00:39:09.51	16.18	8.91	
2025-01-19 00:39:09.71	16.18	8.93	
2025-01-19 00:39:09.92	16.17	8.95	
2025-01-19 00:39:10.12	16.17	8.96	
2025-01-19 00:39:10.32	16.17	8.98	
2025-01-19 00:39:10.53	16.16	9.00	
2025-01-19 00:39:10.73	16.16	9.01	
2025-01-19 00:39:10.93	16.16	9.03	
2025-01-19 00:39:11.14	16.15	9.05	
2025-01-19 00:39:11.34	16.15	9.06	
2025-01-19 00:39:11.54	16.15	9.08	
2025-01-19 00:39:11.75	16.15	9.10	
2025-01-19 00:39:11.95	16.14	9.12	
2025-01-19 00:39:12.15	16.14	9.13	
2025-01-19 00:39:12.35	16.14	9.15	
2025-01-19 00:39:12.56	16.13	9.17	
2025-01-19 00:39:12.76	16.13	9.18	
2025-01-19 00:39:12.96	16.13	9.20	
2025-01-19 00:39:13.17	16.12	9.22	
2025-01-19 00:39:13.37	16.12	9.23	
2025-01-19 00:39:13.57	16.12	9.25	
2025-01-19 00:39:13.78	16.11	9.27	
2025-01-19 00:39:13.98	16.11	9.28	
2025-01-19 00:39:14.18	16.11	9.30	
2025-01-19 00:39:14.39	16.10	9.32	
2025-01-19 00:39:14.59	16.10	9.34	
2025-01-19 00:39:14.79	16.10	9.35	
2025-01-19 00:39:15.00	16.09	9.37	
2025-01-19 00:39:15.20	16.09	9.39	
2025-01-19 00:39:15.40	16.09	9.40	
2025-01-19 00:39:15.61	16.08	9.42	
2025-01-19 00:39:15.81	16.08	9.44	
2025-01-19 00:39:16.01	16.08	9.46	
2025-01-19 00:39:16.22	16.07	9.47	
2025-01-19 00:39:16.42	16.07	9.49	
2025-01-19 00:39:16.62	16.07	9.51	
2025-01-19 00:39:16.83	16.06	9.52	
2025-01-19 00:39:17.03	16.06	9.54	
2025-01-19 00:39:17.23	16.06	9.56	
2025-01-19 00:39:17.44	16.05	9.58	
2025-01-19 00:39:17.64	16.05	9.59	
2025-01-19 00:39:17.84	16.05	9.61	
2025-01-19 00:39:18.04	16.04	9.63	
2025-01-19 00:39:18.25	16.04	9.64	
2025-01-19 00:39:18.45	16.04	9.66	
2025-01-19 00:39:18.65	16.03	9.68	
2025-01-19 00:39:18.86	16.03	9.70	
2025-01-19 00:39:19.06	16.03	9.71	
2025-01-19 00:39:19.26	16.02	9.73	
2025-01-19 00:39:19.47	16.02	9.75	
2025-01-19 00:39:19.67	16.02	9.77	
2025-01-19 00:39:19.87	16.01	9.78	
2025-01-19 00:39:20.08	16.01	9.80	
2025-01-19 00:39:20.28	16.01	9.82	
2025-01-19 00:39:20.48	16.00	9.83	
2025-01-19 00:39:20.69	16.00	9.85	
2025-01-19 00:39:20.89	16.00	9.87	
2025-01-19 00:39:21.09	15.99	9.89	
2025-01-19 00:39:21.30	15.99	9.91	
2025-01-19 00:39:21.50	15.99	9.92	
2025-01-19 00:39:21.70	15.98	9.94	
2025-01-19 00:39:21.91	15.98	9.96	
2025-01-19 00:39:22.11	15.97	9.97	
2025-01-19 00:39:22.31	15.97	9.99	
2025-01-19 00:39:22.52	15.97	10.01	
2025-01-19 00:39:22.72	15.96	10.03	
2025-01-19 00:39:22.92	15.96	10.04	
2025-01-19 00:39:23.13	15.96	10.06	
2025-01-19 00:39:23.33	15.95	10.08	
2025-01-19 00:39:23.53	15.95	10.10	
2025-01-19 00:39:23.73	15.95	10.11	
2025-01-19 00:39:23.94	15.94	10.13	
2025-01-19 00:39:24.14	15.94	10.15	
2025-01-19 00:39:24.34	15.94	10.17	
2025-01-19 00:39:24.55	15.93	10.19	
2025-01-19 00:39:24.75	15.93	10.20	
2025-01-19 00:39:24.95	15.93	10.22	
2025-01-19 00:39:25.16	15.92	10.24	
2025-01-19 00:39:25.36	15.92	10.26	
2025-01-19 00:39:25.56	15.92	10.27	
2025-01-19 00:39:25.77	15.91	10.29	
2025-01-19 00:39:25.97	15.91	10.31	
2025-01-19 00:39:26.17	15.90	10.33	
2025-01-19 00:39:26.38	15.90	10.34	
2025-01-19 00:39:26.58	15.90	10.36	
2025-01-19 00:39:26.78	15.89	10.38	
2025-01-19 00:39:26.99	15.89	10.40	
2025-01-19 00:39:27.19	15.89	10.42	
2025-01-19 00:39:27.39	15.88	10.43	
2025-01-19 00:39:27.60	15.88	10.45	
2025-01-19 00:39:27.80	15.88	10.47	
2025-01-19 00:39:28.00	15.87	10.49	
2025-01-19 00:39:28.21	15.87	10.51	
2025-01-19 00:39:28.41	15.86	10.52	
2025-01-19 00:39:28.61	15.86	10.54	
2025-01-19 00:39:28.82	15.86	10.56	
2025-01-19 00:39:29.02	15.85	10.58	
2025-01-19 00:39:29.22	15.85	10.59	
2025-01-19 00:39:29.42	15.85	10.61	
2025-01-19 00:39:29.63	15.84	10.63	
2025-01-19 00:39:29.83	15.84	10.65	
2025-01-19 00:39:30.03	15.84	10.67	
2025-01-19 00:39:30.24	15.83	10.68	
2025-01-19 00:39:30.44	15.83	10.70	
2025-01-19 00:39:30.64	15.82	10.72	
2025-01-19 00:39:30.85	15.82	10.74	
2025-01-19 00:39:31.05	15.82	10.76	
2025-01-19 00:39:31.25	15.81	10.77	
2025-01-19 00:39:31.46	15.81	10.79	
2025-01-19 00:39:31.66	15.81	10.81	
2025-01-19 00:39:31.86	15.80	10.83	
2025-01-19 00:39:32.07	15.80	10.85	
2025-01-19 00:39:32.27	15.79	10.86	
2025-01-19 00:39:32.47	15.79	10.88	
2025-01-19 00:39:32.68	15.79	10.90	
2025-01-19 00:39:32.88	15.78	10.92	
2025-01-19 00:39:33.08	15.78	10.94	
2025-01-19 00:39:33.29	15.78	10.96	
2025-01-19 00:39:33.49	15.77	10.97	
2025-01-19 00:39:33.69	15.77	10.99	
2025-01-19 00:39:33.90	15.76	11.01	
2025-01-19 00:39:34.10	15.76	11.03	
2025-01-19 00:39:34.30	15.76	11.05	
2025-01-19 00:39:34.51	15.75	11.07	
2025-01-19 00:39:34.71	15.75	11.08	
2025-01-19 00:39:34.91	15.75	11.10	
2025-01-19 00:39:35.11	15.74	11.12	
2025-01-19 00:39:35.32	15.74	11.14	
2025-01-19 00:39:35.52	15.73	11.16	
2025-01-19 00:39:35.72	15.73	11.17	
2025-01-19 00:39:35.93	15.73	11.19	
2025-01-19 00:39:36.13	15.72	11.21	
2025-01-19 00:39:36.33	15.72	11.23	
2025-01-19 00:39:36.54	15.71	11.25	
2025-01-19 00:39:36.74	15.71	11.27	
2025-01-19 00:39:36.94	15.71	11.28	
2025-01-19 00:39:37.15	15.70	11.30	
2025-01-19 00:39:37.35	15.70	11.32	
2025-01-19 00:39:37.55	15.70	11.34	
2025-01-19 00:39:37.76	15.69	11.36	
2025-01-19 00:39:37.96	15.69	11.38	
2025-01-19 00:39:38.16	15.68	11.40	
2025-01-19 00:39:38.37	15.68	11.41	
2025-01-19 00:39:38.57	15.68	11.43	
2025-01-19 00:39:38.77	15.67	11.45	
2025-01-19 00:39:38.98	15.67	11.47	
2025-01-19 00:39:39.18	15.66	11.49	
2025-01-19 00:39:39.38	15.66	11.51	
2025-01-19 00:39:39.59	15.66	11.53	
2025-01-19 00:39:39.79	15.65	11.54	
2025-01-19 00:39:39.99	15.65	11.56	
2025-01-19 00:39:40.20	15.64	11.58	
2025-01-19 00:39:40.40	15.64	11.60	
2025-01-19 00:39:40.60	15.64	11.62	
2025-01-19 00:39:40.80	15.63	11.64	
2025-01-19 00:39:41.01	15.63	11.66	
2025-01-19 00:39:41.21	15.62	11.67	
2025-01-19 00:39:41.41	15.62	11.69	
2025-01-19 00:39:41.62	15.62	11.71	
2025-01-19 00:39:41.82	15.61	11.73	
2025-01-19 00:39:42.02	15.61	11.75	
2025-01-19 00:39:42.23	15.60	11.77	
2025-01-19 00:39:42.43	15.60	11.79	
2025-01-19 00:39:42.63	15.60	11.81	
2025-01-19 00:39:42.84	15.59	11.83	
2025-01-19 00:39:43.04	15.59	11.84	
2025-01-19 00:39:43.24	15.58	11.86	
2025-01-19 00:39:43.45	15.58	11.88	
2025-01-19 00:39:43.65	15.58	11.90	
2025-01-19 00:39:43.85	15.57	11.92	
2025-01-19 00:39:44.06	15.57	11.94	
2025-01-19 00:39:44.26	15.56	11.96	
2025-01-19 00:39:44.46	15.56	11.98	
2025-01-19 00:39:44.67	15.56	12.00	
2025-01-19 00:39:44.87	15.55	12.01	
2025-01-19 00:39:45.07	15.55	12.03	
2025-01-19 00:39:45.28	15.54	12.05	
2025-01-19 00:39:45.48	15.54	12.07	
2025-01-19 00:39:45.68	15.53	12.09	
2025-01-19 00:39:45.88	15.53	12.11	
2025-01-19 00:39:46.09	15.53	12.13	
2025-01-19 00:39:46.29	15.52	12.15	
2025-01-19 00:39:46.49	15.52	12.17	
2025-01-19 00:39:46.70	15.51	12.19	
2025-01-19 00:39:46.90	15.51	12.20	
2025-01-19 00:39:47.10	15.51	12.22	
2025-01-19 00:39:47.31	15.50	12.24	
2025-01-19 00:39:47.51	15.50	12.26	
2025-01-19 00:39:47.71	15.49	12.28	
2025-01-19 00:39:47.92	15.49	12.30	
2025-01-19 00:39:48.12	15.48	12.32	
2025-01-19 00:39:48.32	15.48	12.34	
2025-01-19 00:39:48.53	15.48	12.36	
2025-01-19 00:39:48.73	15.47	12.38	
2025-01-19 00:39:48.93	15.47	12.40	
2025-01-19 00:39:49.14	15.46	12.42	
2025-01-19 00:39:49.34	15.46	12.44	
2025-01-19 00:39:49.54	15.45	12.45	
2025-01-19 00:39:49.75	15.45	12.47	
2025-01-19 00:39:49.95	15.45	12.49	
2025-01-19 00:39:50.15	15.44	12.51	
2025-01-19 00:39:50.36	15.44	12.53	
2025-01-19 00:39:50.56	15.43	12.55	
2025-01-19 00:39:50.76	15.43	12.57	
2025-01-19 00:39:50.97	15.42	12.59	
2025-01-19 00:39:51.17	15.42	12.61	
2025-01-19 00:39:51.37	15.42	12.63	
2025-01-19 00:39:51.57	15.41	12.65	
2025-01-19 00:39:51.78	15.41	12.67	
2025-01-19 00:39:51.98	15.40	12.69	
2025-01-19 00:39:52.18	15.40	12.71	
2025-01-19 00:39:52.39	15.39	12.73	
2025-01-19 00:39:52.59	15.39	12.75	
2025-01-19 00:39:52.79	15.39	12.77	
2025-01-19 00:39:53.00	15.38	12.79	
2025-01-19 00:39:53.20	15.38	12.80	
2025-01-19 00:39:53.40	15.37	12.82	
2025-01-19 00:39:53.61	15.37	12.84	
2025-01-19 00:39:53.81	15.36	12.86	
2025-01-19 00:39:54.01	15.36	12.88	
2025-01-19 00:39:54.22	15.35	12.90	
2025-01-19 00:39:54.42	15.35	12.92	
2025-01-19 00:39:54.62	15.35	12.94	
2025-01-19 00:39:54.83	15.34	12.96	
2025-01-19 00:39:55.03	15.34	12.98	
2025-01-19 00:39:55.23	15.33	13.00	
2025-01-19 00:39:55.44	15.33	13.02	
2025-01-19 00:39:55.64	15.32	13.04	
2025-01-19 00:39:55.84	15.32	13.06	
2025-01-19 00:39:56.05	15.31	13.08	
2025-01-19 00:39:56.25	15.31	13.10	
2025-01-19 00:39:56.45	15.31	13.12	
2025-01-19 00:39:56.66	15.30	13.14	
2025-01-19 00:39:56.86	15.30	13.16	
2025-01-19 00:39:57.06	15.29	13.18	
2025-01-19 00:39:57.26	15.29	13.20	
2025-01-19 00:39:57.47	15.28	13.22	
2025-01-19 00:39:57.67	15.28	13.24	
2025-01-19 00:39:57.87	15.27	13.26	
2025-01-19 00:39:58.08	15.27	13.28	
2025-01-19 00:39:58.28	15.26	13.30	
2025-01-19 00:39:58.48	15.26	13.32	
2025-01-19 00:39:58.69	15.26	13.34	
2025-01-19 00:39:58.89	15.25	13.36	
2025-01-19 00:39:59.09	15.25	13.38	
2025-01-19 00:39:59.30	15.24	13.40	
2025-01-19 00:39:59.50	15.24	13.42	
2025-01-19 00:39:59.70	15.23	13.44	
2025-01-19 00:39:59.91	15.23	13.46	
2025-01-19 00:40:00.11	15.22	13.48	
2025-01-19 00:40:00.31	15.22	13.50	
2025-01-19 00:40:00.52	15.21	13.52	
2025-01-19 00:40:00.72	15.21	13.54	
2025-01-19 00:40:00.92	15.21	13.56	
2025-01-19 00:40:01.13	15.20	13.58	
2025-01-19 00:40:01.33	15.20	13.60	
2025-01-19 00:40:01.53	15.19	13.62	
2025-01-19 00:40:01.74	15.19	13.64	
2025-01-19 00:40:01.94	15.18	13.66	
2025-01-19 00:40:02.14	15.18	13.68	
2025-01-19 00:40:02.35	15.17	13.70	
2025-01-19 00:40:02.55	15.17	13.72	
2025-01-19 00:40:02.75	15.16	13.74	
2025-01-19 00:40:02.95	15.16	13.76	
2025-01-19 00:40:03.16	15.15	13.78	
2025-01-19 00:40:03.36	15.15	13.80	
2025-01-19 00:40:03.56	15.14	13.82	
2025-01-19 00:40:03.77	15.14	13.85	
2025-01-19 00:40:03.97	15.13	13.87	
2025-01-19 00:40:04.17	15.13	13.89	
2025-01-19 00:40:04.38	15.12	13.91	
2025-01-19 00:40:04.58	15.12	13.93	
2025-01-19 00:40:04.78	15.12	13.95	
2025-01-19 00:40:04.99	15.11	13.97	
2025-01-19 00:40:05.19	15.11	13.99	
2025-01-19 00:40:05.39	15.10	14.01	
2025-01-19 00:40:05.60	15.10	14.03	
2025-01-19 00:40:05.80	15.09	14.05	
2025-01-19 00:40:06.00	15.09	14.07	
2025-01-19 00:40:06.21	15.08	14.09	
2025-01-19 00:40:06.41	15.08	14.11	
2025-01-19 00:40:06.61	15.07	14.13	
2025-01-19 00:40:06.82	15.07	14.15	
2025-01-19 00:40:07.02	15.06	14.17	
2025-01-19 00:40:07.22	15.06	14.20	
2025-01-19 00:40:07.43	15.05	14.22	
2025-01-19 00:40:07.63	15.05	14.24	
2025-01-19 00:40:07.83	15.04	14.26	
2025-01-19 00:40:08.04	15.04	14.28	
2025-01-19 00:40:08.24	15.03	14.30	
2025-01-19 00:40:08.44	15.03	14.32	
2025-01-19 00:40:08.64	15.02	14.34	
2025-01-19 00:40:08.85	15.02	14.36	
2025-01-19 00:40:09.05	15.01	14.38	
2025-01-19 00:40:09.25	15.01	14.40	
2025-01-19 00:40:09.46	15.00	14.42	
2025-01-19 00:40:09.66	15.00	14.45	
2025-01-19 00:40:09.86	14.99	14.47	
2025-01-19 00:40:10.07	14.99	14.49	
2025-01-19 00:40:10.27	14.98	14.51	
2025-01-19 00:40:10.47	14.98	14.53	
2025-01-19 00:40:10.68	14.97	14.55	
2025-01-19 00:40:10.88	14.97	14.57	
2025-01-19 00:40:11.08	14.96	14.59	
2025-01-19 00:40:11.29	14.96	14.61	
2025-01-19 00:40:11.49	14.95	14.63	
2025-01-19 00:40:11.69	14.95	14.66	
2025-01-19 00:40:11.90	14.94	14.68	
2025-01-19 00:40:12.10	14.94	14.70	
2025-01-19 00:40:12.30	14.93	14.72	
2025-01-19 00:40:12.51	14.93	14.74	
2025-01-19 00:40:12.71	14.92	14.76	
2025-01-19 00:40:12.91	14.92	14.78	
2025-01-19 00:40:13.12	14.91	14.80	
2025-01-19 00:40:13.32	14.91	14.83	
2025-01-19 00:40:13.52	14.90	14.85	
2025-01-19 00:40:13.73	14.90	14.87	
2025-01-19 00:40:13.93	14.89	14.89	
2025-01-19 00:40:14.13	14.89	14.91	
2025-01-19 00:40:14.33	14.88	14.93	
2025-01-19 00:40:14.54	14.87	14.95	
2025-01-19 00:40:14.74	14.87	14.97	
2025-01-19 00:40:14.94	14.86	15.00	
2025-01-19 00:40:15.15	14.86	15.02	
2025-01-19 00:40:15.35	14.85	15.04	
2025-01-19 00:40:15.55	14.85	15.06	
2025-01-19 00:40:15.76	14.84	15.08	
2025-01-19 00:40:15.96	14.84	15.10	
2025-01-19 00:40:16.16	14.83	15.12	
2025-01-19 00:40:16.37	14.83	15.15	
2025-01-19 00:40:16.57	14.82	15.17	
2025-01-19 00:40:16.77	14.82	15.19	
2025-01-19 00:40:16.98	14.81	15.21	
2025-01-19 00:40:17.18	14.81	15.23	
2025-01-19 00:40:17.38	14.80	15.25	
2025-01-19 00:40:17.59	14.80	15.28	
2025-01-19 00:40:17.79	14.79	15.30	
2025-01-19 00:40:17.99	14.79	15.32	
2025-01-19 00:40:18.20	14.78	15.34	
2025-01-19 00:40:18.40	14.77	15.36	
2025-01-19 00:40:18.60	14.77	15.38	
2025-01-19 00:40:18.81	14.76	15.41	
2025-01-19 00:40:19.01	14.76	15.43	
2025-01-19 00:40:19.21	14.75	15.45	
2025-01-19 00:40:19.42	14.75	15.47	
2025-01-19 00:40:19.62	14.74	15.49	
2025-01-19 00:40:19.82	14.74	15.52	
2025-01-19 00:40:20.02	14.73	15.54	
2025-01-19 00:40:20.23	14.73	15.56	
2025-01-19 00:40:20.43	14.72	15.58	
2025-01-19 00:40:20.63	14.71	15.60	
2025-01-19 00:40:20.84	14.71	15.63	
2025-01-19 00:40:21.04	14.70	15.65	
2025-01-19 00:40:21.24	14.70	15.67	
2025-01-19 00:40:21.45	14.69	15.69	
2025-01-19 00:40:21.65	14.69	15.71	
2025-01-19 00:40:21.85	14.68	15.74	
2025-01-19 00:40:22.06	14.68	15.76	
2025-01-19 00:40:22.26	14.67	15.78	
2025-01-19 00:40:22.46	14.67	15.80	
2025-01-19 00:40:22.67	14.66	15.82	
2025-01-19 00:40:22.87	14.65	15.85	
2025-01-19 00:40:23.07	14.65	15.87	
2025-01-19 00:40:23.28	14.64	15.89	
2025-01-19 00:40:23.48	14.64	15.91	
2025-01-19 00:40:23.68	14.63	15.93	
2025-01-19 00:40:23.89	14.63	15.96	
2025-01-19 00:40:24.09	14.62	15.98	
2025-01-19 00:40:24.29	14.61	16.00	
2025-01-19 00:40:24.50	14.61	16.02	
2025-01-19 00:40:24.70	14.60	16.05	
2025-01-19 00:40:24.90	14.60	16.07	
2025-01-19 00:40:25.10	14.59	16.09	
2025-01-19 00:40:25.31	14.59	16.11	
2025-01-19 00:40:25.51	14.58	16.14	
2025-01-19 00:40:25.71	14.58	16.16	
2025-01-19 00:40:25.92	14.57	16.18	
2025-01-19 00:40:26.12	14.56	16.20	
2025-01-19 00:40:26.32	14.56	16.23	
2025-01-19 00:40:26.53	14.55	16.25	
2025-01-19 00:40:26.73	14.55	16.27	
2025-01-19 00:40:26.93	14.54	16.29	
2025-01-19 00:40:27.14	14.53	16.32	
2025-01-19 00:40:27.34	14.53	16.34	
2025-01-19 00:40:27.54	14.52	16.36	
2025-01-19 00:40:27.75	14.52	16.38	
2025-01-19 00:40:27.95	14.51	16.41	
2025-01-19 00:40:28.15	14.51	16.43	
2025-01-19 00:40:28.36	14.50	16.45	
2025-01-19 00:40:28.56	14.49	16.47	
2025-01-19 00:40:28.76	14.49	16.50	
2025-01-19 00:40:28.97	14.48	16.52	
2025-01-19 00:40:29.17	14.48	16.54	
2025-01-19 00:40:29.37	14.47	16.57	
2025-01-19 00:40:29.58	14.46	16.59	
2025-01-19 00:40:29.78	14.46	16.61	
2025-01-19 00:40:29.98	14.45	16.63	
2025-01-19 00:40:30.19	14.45	16.66	
2025-01-19 00:40:30.39	14.44	16.68	
2025-01-19 00:40:30.59	14.44	16.70	
2025-01-19 00:40:30.79	14.43	16.73	
2025-01-19 00:40:31.00	14.42	16.75	
2025-01-19 00:40:31.20	14.42	16.77	
2025-01-19 00:40:31.40	14.41	16.79	
2025-01-19 00:40:31.61	14.41	16.82	
2025-01-19 00:40:31.81	14.40	16.84	
2025-01-19 00:40:32.01	14.39	16.86	
2025-01-19 00:40:32.22	14.39	16.89	
2025-01-19 00:40:32.42	14.38	16.91	
2025-01-19 00:40:32.62	14.38	16.93	
2025-01-19 00:40:32.83	14.37	16.96	
2025-01-19 00:40:33.03	14.36	16.98	
2025-01-19 00:40:33.23	14.36	17.00	
2025-01-19 00:40:33.44	14.35	17.03	
2025-01-19 00:40:33.64	14.34	17.05	
2025-01-19 00:40:33.84	14.34	17.07	
2025-01-19 00:40:34.05	14.33	17.10	
2025-01-19 00:40:34.25	14.33	17.12	
2025-01-19 00:40:34.45	14.32	17.14	
2025-01-19 00:40:34.66	14.31	17.17	
2025-01-19 00:40:34.86	14.31	17.19	
2025-01-19 00:40:35.06	14.30	17.21	
2025-01-19 00:40:35.27	14.30	17.24	
2025-01-19 00:40:35.47	14.29	17.26	
2025-01-19 00:40:35.67	14.28	17.28	
2025-01-19 00:40:35.88	14.28	17.31	
2025-01-19 00:40:36.08	14.27	17.33	
2025-01-19 00:40:36.28	14.26	17.35	
2025-01-19 00:40:36.48	14.26	17.38	
2025-01-19 00:40:36.69	14.25	17.40	
2025-01-19 00:40:36.89	14.25	17.42	
2025-01-19 00:40:37.09	14.24	17.45	
2025-01-19 00:40:37.30	14.23	17.47	
2025-01-19 00:40:37.50	14.23	17.50	
2025-01-19 00:40:37.70	14.22	17.52	
2025-01-19 00:40:37.91	14.21	17.54	
2025-01-19 00:40:38.11	14.21	17.57	
2025-01-19 00:40:38.31	14.20	17.59	
2025-01-19 00:40:38.52	14.20	17.62	
2025-01-19 00:40:38.72	14.19	17.64	
2025-01-19 00:40:38.92	14.18	17.66	
2025-01-19 00:40:39.13	14.18	17.69	
2025-01-19 00:40:39.33	14.17	17.71	
2025-01-19 00:40:39.53	14.16	17.73	
2025-01-19 00:40:39.74	14.16	17.76	
2025-01-19 00:40:39.94	14.15	17.78	
2025-01-19 00:40:40.14	14.14	17.81	
2025-01-19 00:40:40.35	14.14	17.83	
2025-01-19 00:40:40.55	14.13	17.85	
2025-01-19 00:40:40.75	14.12	17.88	
2025-01-19 00:40:40.96	14.12	17.90	
2025-01-19 00:40:41.16	14.11	17.93	
2025-01-19 00:40:41.36	14.11	17.95	
2025-01-19 00:40:41.57	14.10	17.98	
2025-01-19 00:40:41.77	14.09	18.00	
2025-01-19 00:40:41.97	14.09	18.02	
2025-01-19 00:40:42.17	14.08	18.05	
2025-01-19 00:40:42.38	14.07	18.07	
2025-01-19 00:40:42.58	14.07	18.10	
2025-01-19 00:40:42.78	14.06	18.12	
2025-01-19 00:40:42.99	14.05	18.14	
2025-01-19 00:40:43.19	14.05	18.17	
2025-01-19 00:40:43.39	14.04	18.19	
2025-01-19 00:40:43.60	14.03	18.22	
2025-01-19 00:40:43.80	14.03	18.24	
2025-01-19 00:40:44.00	14.02	18.27	
2025-01-19 00:40:44.21	14.01	18.29	
2025-01-19 00:40:44.41	14.01	18.31	
2025-01-19 00:40:44.61	14.00	18.34	
2025-01-19 00:40:44.82	13.99	18.36	
2025-01-19 00:40:45.02	13.99	18.39	
2025-01-19 00:40:45.22	13.98	18.41	
2025-01-19 00:40:45.43	13.97	18.44	
2025-01-19 00:40:45.63	13.97	18.46	
2025-01-19 00:40:45.83	13.96	18.49	
2025-01-19 00:40:46.04	13.95	18.51	
2025-01-19 00:40:46.24	13.94	18.54	
2025-01-19 00:40:46.44	13.94	18.56	
2025-01-19 00:40:46.65	13.93	18.59	
2025-01-19 00:40:46.85	13.92	18.61	
2025-01-19 00:40:47.05	13.92	18.64	
2025-01-19 00:40:47.26	13.91	18.66	
2025-01-19 00:40:47.46	13.90	18.69	
2025-01-19 00:40:47.66	13.90	18.71	
2025-01-19 00:40:47.86	13.89	18.73	
2025-01-19 00:40:48.07	13.88	18.76	
2025-01-19 00:40:48.27	13.88	18.78	
2025-01-19 00:40:48.47	13.87	18.81	
2025-01-19 00:40:48.68	13.86	18.83	
2025-01-19 00:40:48.88	13.86	18.86	
2025-01-19 00:40:49.08	13.85	18.88	
2025-01-19 00:40:49.29	13.84	18.91	
2025-01-19 00:40:49.49	13.83	18.93	
2025-01-19 00:40:49.69	13.83	18.96	
2025-01-19 00:40:49.90	13.82	18.99	
2025-01-19 00:40:50.10	13.81	19.01	
2025-01-19 00:40:50.30	13.81	19.03	
2025-01-19 00:40:50.51	13.80	19.06	
2025-01-19 00:40:50.71	13.79	19.09	
2025-01-19 00:40:50.91	13.78	19.11	
2025-01-19 00:40:51.12	13.78	19.14	
2025-01-19 00:40:51.32	13.77	19.16	
2025-01-19 00:40:51.52	13.76	19.19	
2025-01-19 00:40:51.73	13.76	19.21	
2025-01-19 00:40:51.93	13.75	19.24	
2025-01-19 00:40:52.13	13.74	19.26	
2025-01-19 00:40:52.34	13.73	19.29	
2025-01-19 00:40:52.54	13.73	19.31	
2025-01-19 00:40:52.74	13.72	19.34	
2025-01-19 00:40:52.95	13.71	19.37	
2025-01-19 00:40:53.15	13.71	19.39	
2025-01-19 00:40:53.35	13.70	19.42	
2025-01-19 00:40:53.55	13.69	19.44	
2025-01-19 00:40:53.76	13.68	19.47	
2025-01-19 00:40:53.96	13.68	19.49	
2025-01-19 00:40:54.16	13.67	19.52	
2025-01-19 00:40:54.37	13.66	19.54	
2025-01-19 00:40:54.57	13.65	19.57	
2025-01-19 00:40:54.77	13.65	19.60	
2025-01-19 00:40:54.98	13.64	19.62	
2025-01-19 00:40:55.18	13.63	19.65	
2025-01-19 00:40:55.38	13.63	19.67	
2025-01-19 00:40:55.59	13.62	19.70	
2025-01-19 00:40:55.79	13.61	19.72	
2025-01-19 00:40:55.99	13.60	19.75	
2025-01-19 00:40:56.20	13.60	19.78	
2025-01-19 00:40:56.40	13.59	19.80	
2025-01-19 00:40:56.60	13.58	19.83	
2025-01-19 00:40:56.81	13.57	19.86	
2025-01-19 00:40:57.01	13.57	19.88	
2025-01-19 00:40:57.21	13.56	19.91	
2025-01-19 00:40:57.42	13.55	19.93	
2025-01-19 00:40:57.62	13.54	19.96	
2025-01-19 00:40:57.82	13.54	19.98	
2025-01-19 00:40:58.03	13.53	20.01	
2025-01-19 00:40:58.23	13.52	20.04	
2025-01-19 00:40:58.43	13.51	20.06	
2025-01-19 00:40:58.64	13.50	20.09	
2025-01-19 00:40:58.84	13.50	20.12	
2025-01-19 00:40:59.04	13.49	20.14	
2025-01-19 00:40:59.24	13.48	20.17	
2025-01-19 00:40:59.45	13.47	20.20	
2025-01-19 00:40:59.65	13.47	20.22	
2025-01-19 00:40:59.85	13.46	20.25	
2025-01-19 00:41:00.06	13.45	20.27	
2025-01-19 00:41:00.26	13.44	20.30	
2025-01-19 00:41:00.46	13.44	20.33	
2025-01-19 00:41:00.67	13.43	20.35	
2025-01-19 00:41:00.87	13.42	20.38	
2025-01-19 00:41:01.07	13.41	20.41	
2025-01-19 00:41:01.28	13.40	20.43	
2025-01-19 00:41:01.48	13.40	20.46	
2025-01-19 00:41:01.68	13.39	20.49	
2025-01-19 00:41:01.89	13.38	20.51	
2025-01-19 00:41:02.09	13.37	20.54	
2025-01-19 00:41:02.29	13.37	20.57	
2025-01-19 00:41:02.50	13.36	20.59	
2025-01-19 00:41:02.70	13.35	20.62	
2025-01-19 00:41:02.90	13.34	20.65	
2025-01-19 00:41:03.11	13.33	20.67	
2025-01-19 00:41:03.31	13.33	20.70	
2025-01-19 00:41:03.51	13.32	20.73	
2025-01-19 00:41:03.72	13.31	20.76	
2025-01-19 00:41:03.92	13.30	20.78	
2025-01-19 00:41:04.12	13.29	20.81	
2025-01-19 00:41:04.32	13.29	20.84	
2025-01-19 00:41:04.53	13.28	20.86	
2025-01-19 00:41:04.73	13.27	20.89	
2025-01-19 00:41:04.93	13.26	20.92	
2025-01-19 00:41:05.14	13.25	20.94	
2025-01-19 00:41:05.34	13.24	20.97	
2025-01-19 00:41:05.54	13.24	21.00	
2025-01-19 00:41:05.75	13.23	21.03	
2025-01-19 00:41:05.95	13.22	21.05	
2025-01-19 00:41:06.15	13.21	21.08	
2025-01-19 00:41:06.36	13.20	21.11	
2025-01-19 00:41:06.56	13.20	21.14	
2025-01-19 00:41:06.76	13.19	21.16	
2025-01-19 00:41:06.97	13.18	21.19	
2025-01-19 00:41:07.17	13.17	21.22	
2025-01-19 00:41:07.37	13.16	21.24	
2025-01-19 00:41:07.58	13.15	21.27	
2025-01-19 00:41:07.78	13.15	21.30	
2025-01-19 00:41:07.98	13.14	21.33	
2025-01-19 00:41:08.19	13.13	21.36	
2025-01-19 00:41:08.39	13.12	21.38	
2025-01-19 00:41:08.59	13.11	21.41	
2025-01-19 00:41:08.80	13.10	21.44	
2025-01-19 00:41:09.00	13.10	21.47	
2025-01-19 00:41:09.20	13.09	21.49	
2025-01-19 00:41:09.41	13.08	21.52	
2025-01-19 00:41:09.61	13.07	21.55	
2025-01-19 00:41:09.81	13.06	21.58	
2025-01-19 00:41:10.01	13.05	21.60	
2025-01-19 00:41:10.22	13.04	21.63	
2025-01-19 00:41:10.42	13.04	21.66	
2025-01-19 00:41:10.62	13.03	21.69	
2025-01-19 00:41:10.83	13.02	21.72	
2025-01-19 00:41:11.03	13.01	21.74	
2025-01-19 00:41:11.23	13.00	21.77	
2025-01-19 00:41:11.44	12.99	21.80	
2025-01-19 00:41:11.64	12.99	21.83	
2025-01-19 00:41:11.84	12.98	21.86	
2025-01-19 00:41:12.05	12.97	21.89	
2025-01-19 00:41:12.25	12.96	21.91	
2025-01-19 00:41:12.45	12.95	21.94	
2025-01-19 00:41:12.66	12.94	21.97	
2025-01-19 00:41:12.86	12.93	22.00	
2025-01-19 00:41:13.06	12.92	22.03	
2025-01-19 00:41:13.27	12.92	22.05	
2025-01-19 00:41:13.47	12.91	22.08	
2025-01-19 00:41:13.67	12.90	22.11	
2025-01-19 00:41:13.88	12.89	22.14	
2025-01-19 00:41:14.08	12.88	22.17	
2025-01-19 00:41:14.28	12.87	22.20	
2025-01-19 00:41:14.49	12.86	22.23	
2025-01-19 00:41:14.69	12.85	22.25	
2025-01-19 00:41:14.89	12.84	22.28	
2025-01-19 00:41:15.10	12.84	22.31	
2025-01-19 00:41:15.30	12.83	22.34	
2025-01-19 00:41:15.50	12.82	22.37	
2025-01-19 00:41:15.70	12.81	22.40	
2025-01-19 00:41:15.91	12.80	22.43	
2025-01-19 00:41:16.11	12.79	22.45	
2025-01-19 00:41:16.31	12.78	22.48	
2025-01-19 00:41:16.52	12.77	22.51	
2025-01-19 00:41:16.72	12.76	22.54	
2025-01-19 00:41:16.92	12.75	22.57	
2025-01-19 00:41:17.13	12.75	22.60	
2025-01-19 00:41:17.33	12.74	22.63	
2025-01-19 00:41:17.53	12.73	22.66	
2025-01-19 00:41:17.74	12.72	22.69	
2025-01-19 00:41:17.94	12.71	22.71	
2025-01-19 00:41:18.14	12.70	22.74	
2025-01-19 00:41:18.35	12.69	22.77	
2025-01-19 00:41:18.55	12.68	22.80	
2025-01-19 00:41:18.75	12.67	22.83	
2025-01-19 00:41:18.96	12.66	22.86	
2025-01-19 00:41:19.16	12.65	22.89	
2025-01-19 00:41:19.36	12.64	22.92	
2025-01-19 00:41:19.57	12.63	22.95	
2025-01-19 00:41:19.77	12.63	22.98	
2025-01-19 00:41:19.97	12.62	23.01	
2025-01-19 00:41:20.18	12.61	23.04	
2025-01-19 00:41:20.38	12.60	23.07	
2025-01-19 00:41:20.58	12.59	23.09	
2025-01-19 00:41:20.79	12.58	23.13	
2025-01-19 00:41:20.99	12.57	23.15	
2025-01-19 00:41:21.19	12.56	23.18	
2025-01-19 00:41:21.39	12.55	23.21	
2025-01-19 00:41:21.60	12.54	23.24	
2025-01-19 00:41:21.80	12.53	23.27	
2025-01-19 00:41:22.00	12.52	23.30	
2025-01-19 00:41:22.21	12.51	23.33	
2025-01-19 00:41:22.41	12.50	23.36	
2025-01-19 00:41:22.61	12.49	23.39	
2025-01-19 00:41:22.82	12.48	23.42	
2025-01-19 00:41:23.02	12.47	23.45	
2025-01-19 00:41:23.22	12.46	23.48	
2025-01-19 00:41:23.43	12.45	23.51	
2025-01-19 00:41:23.63	12.44	23.54	
2025-01-19 00:41:23.83	12.43	23.57	
2025-01-19 00:41:24.04	12.42	23.60	
2025-01-19 00:41:24.24	12.41	23.63	
2025-01-19 00:41:24.44	12.41	23.66	
2025-01-19 00:41:24.65	12.39	23.69	
2025-01-19 00:41:24.85	12.39	23.72	
2025-01-19 00:41:25.05	12.38	23.75	
2025-01-19 00:41:25.26	12.37	23.78	
2025-01-19 00:41:25.46	12.36	23.81	
2025-01-19 00:41:25.66	12.35	23.84	
2025-01-19 00:41:25.87	12.34	23.87	
2025-01-19 00:41:26.07	12.33	23.90	
2025-01-19 00:41:26.27	12.32	23.93	
2025-01-19 00:41:26.48	12.31	23.97	
2025-01-19 00:41:26.68	12.30	24.00	
2025-01-19 00:41:26.88	12.29	24.03	
2025-01-19 00:41:27.08	12.28	24.06	
2025-01-19 00:41:27.29	12.27	24.09	
2025-01-19 00:41:27.49	12.26	24.12	
2025-01-19 00:41:27.69	12.25	24.15	
2025-01-19 00:41:27.90	12.23	24.18	
2025-01-19 00:41:28.10	12.22	24.21	
2025-01-19 00:41:28.30	12.21	24.24	
2025-01-19 00:41:28.51	12.20	24.27	
2025-01-19 00:41:28.71	12.19	24.30	
2025-01-19 00:41:28.91	12.18	24.33	
2025-01-19 00:41:29.12	12.17	24.36	
2025-01-19 00:41:29.32	12.16	24.39	
2025-01-19 00:41:29.52	12.15	24.43	
2025-01-19 00:41:29.73	12.14	24.46	
2025-01-19 00:41:29.93	12.13	24.49	
2025-01-19 00:41:30.13	12.12	24.52	
2025-01-19 00:41:30.34	12.11	24.55	
2025-01-19 00:41:30.54	12.10	24.58	
2025-01-19 00:41:30.74	12.09	24.61	
2025-01-19 00:41:30.95	12.08	24.64	
2025-01-19 00:41:31.15	12.07	24.68	
2025-01-19 00:41:31.35	12.06	24.71	
2025-01-19 00:41:31.56	12.05	24.74	
2025-01-19 00:41:31.76	12.04	24.77	
2025-01-19 00:41:31.96	12.03	24.80	
2025-01-19 00:41:32.17	12.02	24.83	
2025-01-19 00:41:32.37	12.01	24.86	
2025-01-19 00:41:32.57	12.00	24.89	
2025-01-19 00:41:32.77	11.98	24.93	
2025-01-19 00:41:32.98	11.97	24.96	
2025-01-19 00:41:33.18	11.96	24.99	
2025-01-19 00:41:33.38	11.95	25.02	
2025-01-19 00:41:33.59	11.94	25.05	
2025-01-19 00:41:33.79	11.93	25.08	
2025-01-19 00:41:33.99	11.92	25.12	
2025-01-19 00:41:34.20	11.91	25.15	
2025-01-19 00:41:34.40	11.90	25.18	
2025-01-19 00:41:34.60	11.89	25.21	
2025-01-19 00:41:34.81	11.88	25.24	
2025-01-19 00:41:35.01	11.87	25.28	
2025-01-19 00:41:35.21	11.85	25.31	
2025-01-19 00:41:35.42	11.84	25.34	
2025-01-19 00:41:35.62	11.83	25.37	
2025-01-19 00:41:35.82	11.82	25.40	
2025-01-19 00:41:36.03	11.81	25.44	
2025-01-19 00:41:36.23	11.80	25.47	
2025-01-19 00:41:36.43	11.79	25.50	
2025-01-19 00:41:36.64	11.78	25.53	
2025-01-19 00:41:36.84	11.77	25.57	
2025-01-19 00:41:37.04	11.75	25.60	
2025-01-19 00:41:37.25	11.74	25.63	
2025-01-19 00:41:37.45	11.73	25.66	
2025-01-19 00:41:37.65	11.72	25.69	
2025-01-19 00:41:37.86	11.71	25.73	
2025-01-19 00:41:38.06	11.70	25.76	
2025-01-19 00:41:38.26	11.69	25.79	
2025-01-19 00:41:38.46	11.68	25.82	
2025-01-19 00:41:38.67	11.66	25.86	
2025-01-19 00:41:38.87	11.65	25.89	
2025-01-19 00:41:39.07	11.64	25.92	
2025-01-19 00:41:39.28	11.63	25.96	
2025-01-19 00:41:39.48	11.62	25.99	
2025-01-19 00:41:39.68	11.61	26.02	
2025-01-19 00:41:39.89	11.60	26.06	
2025-01-19 00:41:40.09	11.58	26.09	
2025-01-19 00:41:40.29	11.57	26.12	
2025-01-19 00:41:40.50	11.56	26.15	
2025-01-19 00:41:40.70	11.55	26.19	
2025-01-19 00:41:40.90	11.54	26.22	
2025-01-19 00:41:41.11	11.53	26.25	
2025-01-19 00:41:41.31	11.51	26.29	
2025-01-19 00:41:41.51	11.50	26.32	
2025-01-19 00:41:41.72	11.49	26.35	
2025-01-19 00:41:41.92	11.48	26.39	
2025-01-19 00:41:42.12	11.47	26.42	
2025-01-19 00:41:42.33	11.45	26.45	
2025-01-19 00:41:42.53	11.44	26.49	
2025-01-19 00:41:42.73	11.43	26.52	
2025-01-19 00:41:42.94	11.42	26.55	
2025-01-19 00:41:43.14	11.41	26.59	
2025-01-19 00:41:43.34	11.40	26.62	
2025-01-19 00:41:43.55	11.38	26.65	
2025-01-19 00:41:43.75	11.37	26.69	
2025-01-19 00:41:43.95	11.36	26.72	
2025-01-19 00:41:44.15	11.35	26.75	
2025-01-19 00:41:44.36	11.34	26.79	
2025-01-19 00:41:44.56	11.32	26.82	
2025-01-19 00:41:44.76	11.31	26.86	
2025-01-19 00:41:44.97	11.30	26.89	
2025-01-19 00:41:45.17	11.29	26.92	
2025-01-19 00:41:45.37	11.27	26.96	
2025-01-19 00:41:45.58	11.26	26.99	
2025-01-19 00:41:45.78	11.25	27.03	
2025-01-19 00:41:45.98	11.24	27.06	
2025-01-19 00:41:46.19	11.22	27.09	
2025-01-19 00:41:46.39	11.21	27.13	
2025-01-19 00:41:46.59	11.20	27.16	
2025-01-19 00:41:46.80	11.19	27.20	
2025-01-19 00:41:47.00	11.18	27.23	
2025-01-19 00:41:47.20	11.16	27.26	
2025-01-19 00:41:47.41	11.15	27.30	
2025-01-19 00:41:47.61	11.14	27.33	
2025-01-19 00:41:47.81	11.13	27.37	
2025-01-19 00:41:48.02	11.11	27.40	
2025-01-19 00:41:48.22	11.10	27.44	
2025-01-19 00:41:48.42	11.09	27.47	
2025-01-19 00:41:48.63	11.07	27.51	
2025-01-19 00:41:48.83	11.06	27.54	
2025-01-19 00:41:49.03	11.05	27.58	
2025-01-19 00:41:49.23	11.04	27.61	
2025-01-19 00:41:49.44	11.02	27.65	
2025-01-19 00:41:49.64	11.01	27.68	
2025-01-19 00:41:49.84	11.00	27.71	
2025-01-19 00:41:50.05	10.98	27.75	
2025-01-19 00:41:50.25	10.97	27.79	
2025-01-19 00:41:50.45	10.96	27.82	
2025-01-19 00:41:50.66	10.95	27.86	
2025-01-19 00:41:50.86	10.93	27.89	
2025-01-19 00:41:51.06	10.92	27.93	
2025-01-19 00:41:51.27	10.91	27.96	
2025-01-19 00:41:51.47	10.89	28.00	
2025-01-19 00:41:51.67	10.88	28.03	
2025-01-19 00:41:51.88	10.87	28.07	
2025-01-19 00:41:52.08	10.85	28.10	
2025-01-19 00:41:52.28	10.84	28.14	
2025-01-19 00:41:52.49	10.83	28.17	
2025-01-19 00:41:52.69	10.81	28.21	
2025-01-19 00:41:52.89	10.80	28.24	
2025-01-19 00:41:53.10	10.79	28.28	
2025-01-19 00:41:53.30	10.77	28.32	
2025-01-19 00:41:53.50	10.76	28.35	
2025-01-19 00:41:53.71	10.75	28.39	
2025-01-19 00:41:53.91	10.73	28.42	
2025-01-19 00:41:54.11	10.72	28.46	
2025-01-19 00:41:54.32	10.71	28.50	
2025-01-19 00:41:54.52	10.69	28.53	
2025-01-19 00:41:54.72	10.68	28.57	
2025-01-19 00:41:54.92	10.67	28.60	
2025-01-19 00:41:55.13	10.65	28.64	
2025-01-19 00:41:55.33	10.64	28.67	
2025-01-19 00:41:55.53	10.62	28.71	
2025-01-19 00:41:55.74	10.61	28.75	
2025-01-19 00:41:55.94	10.60	28.78	
2025-01-19 00:41:56.14	10.58	28.82	
2025-01-19 00:41:56.35	10.57	28.86	
2025-01-19 00:41:56.55	10.56	28.89	
2025-01-19 00:41:56.75	10.54	28.93	
2025-01-19 00:41:56.96	10.53	28.96	
2025-01-19 00:41:57.16	10.51	29.00	
2025-01-19 00:41:57.36	10.50	29.04	
2025-01-19 00:41:57.57	10.48	29.07	
2025-01-19 00:41:57.77	10.47	29.11	
2025-01-19 00:41:57.97	10.46	29.15	
2025-01-19 00:41:58.18	10.44	29.18	
2025-01-19 00:41:58.38	10.43	29.22	
2025-01-19 00:41:58.58	10.41	29.26	
2025-01-19 00:41:58.79	10.40	29.29	
2025-01-19 00:41:58.99	10.39	29.33	
2025-01-19 00:41:59.19	10.37	29.37	
2025-01-19 00:41:59.40	10.36	29.41	
2025-01-19 00:41:59.60	10.34	29.44	
2025-01-19 00:41:59.80	10.33	29.48	
2025-01-19 00:42:00.01	10.31	29.52	
2025-01-19 00:42:00.21	10.30	29.55	
2025-01-19 00:42:00.41	10.28	29.59	
2025-01-19 00:42:00.61	10.27	29.63	
2025-01-19 00:42:00.82	10.25	29.67	
2025-01-19 00:42:01.02	10.24	29.70	
2025-01-19 00:42:01.22	10.23	29.74	
2025-01-19 00:42:01.43	10.21	29.78	
2025-01-19 00:42:01.63	10.20	29.81	
2025-01-19 00:42:01.83	10.18	29.85	
2025-01-19 00:42:02.04	10.17	29.89	
2025-01-19 00:42:02.24	10.15	29.93	
2025-01-19 00:42:02.44	10.14	29.96	
2025-01-19 00:42:02.65	10.12	30.00	
2025-01-19 00:42:02.85	10.11	30.04	
2025-01-19 00:42:03.05	10.09	30.08	
2025-01-19 00:42:03.26	10.08	30.12	
2025-01-19 00:42:03.46	10.06	30.15	
2025-01-19 00:42:03.66	10.05	30.19	
2025-01-19 00:42:03.87	10.03	30.23	
2025-01-19 00:42:04.07	10.02	30.27	
2025-01-19 00:42:04.27	10.00	30.31	
2025-01-19 00:42:04.48	9.98	30.35	
2025-01-19 00:42:04.68	9.97	30.38	
2025-01-19 00:42:04.88	9.95	30.42	
2025-01-19 00:42:05.09	9.94	30.46	
2025-01-19 00:42:05.29	9.92	30.50	
2025-01-19 00:42:05.49	9.91	30.54	
2025-01-19 00:42:05.70	9.89	30.58	
2025-01-19 00:42:05.90	9.88	30.61	
2025-01-19 00:42:06.10	9.86	30.65	
2025-01-19 00:42:06.30	9.85	30.69	
2025-01-19 00:42:06.51	9.83	30.73	
2025-01-19 00:42:06.71	9.81	30.77	
2025-01-19 00:42:06.91	9.80	30.81	
2025-01-19 00:42:07.12	9.78	30.85	
2025-01-19 00:42:07.32	9.77	30.88	
2025-01-19 00:42:07.52	9.75	30.92	
2025-01-19 00:42:07.73	9.73	30.96	
2025-01-19 00:42:07.93	9.72	31.00	
2025-01-19 00:42:08.13	9.70	31.04	
2025-01-19 00:42:08.34	9.69	31.08	
2025-01-19 00:42:08.54	9.67	31.12	
2025-01-19 00:42:08.74	9.65	31.16	
2025-01-19 00:42:08.95	9.64	31.20	
2025-01-19 00:42:09.15	9.62	31.24	
2025-01-19 00:42:09.35	9.61	31.27	
2025-01-19 00:42:09.56	9.59	31.32	
2025-01-19 00:42:09.76	9.57	31.35	
2025-01-19 00:42:09.96	9.56	31.39	
2025-01-19 00:42:10.17	9.54	31.43	
2025-01-19 00:42:10.37	9.52	31.47	
2025-01-19 00:42:10.57	9.51	31.51	
2025-01-19 00:42:10.78	9.49	31.55	
2025-01-19 00:42:10.98	9.47	31.59	
2025-01-19 00:42:11.18	9.46	31.63	
2025-01-19 00:42:11.39	9.44	31.67	
2025-01-19 00:42:11.59	9.42	31.71	
2025-01-19 00:42:11.79	9.41	31.75	
2025-01-19 00:42:11.99	9.39	31.79	
2025-01-19 00:42:12.20	9.37	31.83	
2025-01-19 00:42:12.40	9.36	31.87	
2025-01-19 00:42:12.60	9.34	31.91	
2025-01-19 00:42:12.81	9.32	31.95	
2025-01-19 00:42:13.01	9.31	31.99	
2025-01-19 00:42:13.21	9.29	32.03	
2025-01-19 00:42:13.42	9.27	32.07	
2025-01-19 00:42:13.62	9.25	32.11	
2025-01-19 00:42:13.82	9.24	32.15	
2025-01-19 00:42:14.03	9.22	32.20	
2025-01-19 00:42:14.23	9.20	32.24	
2025-01-19 00:42:14.43	9.19	32.28	
2025-01-19 00:42:14.64	9.17	32.32	
2025-01-19 00:42:14.84	9.15	32.36	
2025-01-19 00:42:15.04	9.13	32.40	
2025-01-19 00:42:15.25	9.12	32.44	
2025-01-19 00:42:15.45	9.10	32.48	
2025-01-19 00:42:15.65	9.08	32.52	
2025-01-19 00:42:15.86	9.06	32.56	
2025-01-19 00:42:16.06	9.04	32.60	
2025-01-19 00:42:16.26	9.03	32.64	
2025-01-19 00:42:16.47	9.01	32.69	
2025-01-19 00:42:16.67	8.99	32.73	
2025-01-19 00:42:16.87	8.97	32.77	
2025-01-19 00:42:17.08	8.96	32.81	
2025-01-19 00:42:17.28	8.94	32.85	
2025-01-19 00:42:17.48	8.92	32.89	
2025-01-19 00:42:17.68	8.90	32.93	
2025-01-19 00:42:17.89	8.88	32.97	
2025-01-19 00:42:18.09	8.87	33.02	
2025-01-19 00:42:18.29	8.85	33.06	
2025-01-19 00:42:18.50	8.83	33.10	
2025-01-19 00:42:18.70	8.81	33.14	
2025-01-19 00:42:18.90	8.79	33.18	
2025-01-19 00:42:19.11	8.77	33.23	
2025-01-19 00:42:19.31	8.76	33.27	
2025-01-19 00:42:19.51	8.74	33.31	
2025-01-19 00:42:19.72	8.72	33.35	
2025-01-19 00:42:19.92	8.70	33.39	
2025-01-19 00:42:20.12	8.68	33.43	
2025-01-19 00:42:20.33	8.66	33.48	
2025-01-19 00:42:20.53	8.64	33.52	
2025-01-19 00:42:20.73	8.62	33.56	
2025-01-19 00:42:20.94	8.61	33.60	
2025-01-19 00:42:21.14	8.59	33.65	
2025-01-19 00:42:21.34	8.57	33.69	
2025-01-19 00:42:21.55	8.55	33.73	
2025-01-19 00:42:21.75	8.53	33.77	
2025-01-19 00:42:21.95	8.51	33.82	
2025-01-19 00:42:22.16	8.49	33.86	
2025-01-19 00:42:22.36	8.47	33.90	
2025-01-19 00:42:22.56	8.45	33.94	
2025-01-19 00:42:22.76	8.43	33.99	
2025-01-19 00:42:22.97	8.41	34.03	
2025-01-19 00:42:23.17	8.39	34.07	
2025-01-19 00:42:23.37	8.38	34.12	
2025-01-19 00:42:23.58	8.36	34.16	
2025-01-19 00:42:23.78	8.34	34.20	
2025-01-19 00:42:23.98	8.32	34.24	
2025-01-19 00:42:24.19	8.30	34.29	
2025-01-19 00:42:24.39	8.28	34.33	
2025-01-19 00:42:24.59	8.26	34.37	
2025-01-19 00:42:24.80	8.24	34.42	
2025-01-19 00:42:25.00	8.22	34.46	
2025-01-19 00:42:25.20	8.20	34.51	
2025-01-19 00:42:25.41	8.18	34.55	
2025-01-19 00:42:25.61	8.16	34.59	
2025-01-19 00:42:25.81	8.14	34.64	
2025-01-19 00:42:26.02	8.12	34.68	
2025-01-19 00:42:26.22	8.10	34.72	
2025-01-19 00:42:26.42	8.08	34.77	
2025-01-19 00:42:26.63	8.06	34.81	
2025-01-19 00:42:26.83	8.04	34.86	
2025-01-19 00:42:27.03	8.01	34.90	
2025-01-19 00:42:27.24	7.99	34.95	
2025-01-19 00:42:27.44	7.97	34.99	
2025-01-19 00:42:27.64	7.95	35.03	
2025-01-19 00:42:27.85	7.93	35.08	
2025-01-19 00:42:28.05	7.91	35.12	
2025-01-19 00:42:28.25	7.89	35.17	
2025-01-19 00:42:28.45	7.87	35.21	
2025-01-19 00:42:28.66	7.85	35.26	
2025-01-19 00:42:28.86	7.83	35.30	
2025-01-19 00:42:29.06	7.81	35.34	
2025-01-19 00:42:29.27	7.78	35.39	
2025-01-19 00:42:29.47	7.76	35.43	
2025-01-19 00:42:29.67	7.74	35.48	
2025-01-19 00:42:29.88	7.72	35.52	
2025-01-19 00:42:30.08	7.70	35.57	
2025-01-19 00:42:30.28	7.68	35.61	
2025-01-19 00:42:30.49	7.66	35.66	
2025-01-19 00:42:30.69	7.64	35.70	
2025-01-19 00:42:30.89	7.61	35.75	
2025-01-19 00:42:31.10	7.59	35.79	
2025-01-19 00:42:31.30	7.57	35.84	
2025-01-19 00:42:31.50	7.55	35.88	
2025-01-19 00:42:31.71	7.53	35.93	
2025-01-19 00:42:31.91	7.50	35.97	
2025-01-19 00:42:32.11	7.48	36.02	
2025-01-19 00:42:32.32	7.46	36.07	
2025-01-19 00:42:32.52	7.44	36.11	
2025-01-19 00:42:32.72	7.42	36.16	
2025-01-19 00:42:32.93	7.39	36.20	
2025-01-19 00:42:33.13	7.37	36.25	
2025-01-19 00:42:33.33	7.35	36.29	
2025-01-19 00:42:33.54	7.33	36.34	
2025-01-19 00:42:33.74	7.30	36.39	
2025-01-19 00:42:33.94	7.28	36.43	
2025-01-19 00:42:34.14	7.26	36.48	
2025-01-19 00:42:34.35	7.24	36.53	
2025-01-19 00:42:34.55	7.21	36.57	
2025-01-19 00:42:34.75	7.19	36.62	
2025-01-19 00:42:34.96	7.17	36.66	
2025-01-19 00:42:35.16	7.14	36.71	
2025-01-19 00:42:35.36	7.12	36.76	
2025-01-19 00:42:35.57	7.10	36.80	
2025-01-19 00:42:35.77	7.08	36.85	
2025-01-19 00:42:35.97	7.05	36.90	
2025-01-19 00:42:36.18	7.03	36.94	
2025-01-19 00:42:36.38	7.01	36.99	
2025-01-19 00:42:36.58	6.98	37.04	
2025-01-19 00:42:36.79	6.96	37.08	
2025-01-19 00:42:36.99	6.93	37.13	
2025-01-19 00:42:37.19	6.91	37.18	
2025-01-19 00:42:37.40	6.89	37.23	
2025-01-19 00:42:37.60	6.86	37.27	
2025-01-19 00:42:37.80	6.84	37.32	
2025-01-19 00:42:38.01	6.82	37.37	
2025-01-19 00:42:38.21	6.79	37.41	
2025-01-19 00:42:38.41	6.77	37.46	
2025-01-19 00:42:38.62	6.74	37.51	
2025-01-19 00:42:38.82	6.72	37.56	
2025-01-19 00:42:39.02	6.69	37.60	
2025-01-19 00:42:39.23	6.67	37.65	
2025-01-19 00:42:39.43	6.65	37.70	
2025-01-19 00:42:39.63	6.62	37.75	
2025-01-19 00:42:39.83	6.60	37.79	
2025-01-19 00:42:40.04	6.57	37.84	
2025-01-19 00:42:40.24	6.55	37.89	
2025-01-19 00:42:40.44	6.52	37.94	
2025-01-19 00:42:40.65	6.50	37.99	
2025-01-19 00:42:40.85	6.47	38.03	
2025-01-19 00:42:41.05	6.45	38.08	
2025-01-19 00:42:41.26	6.42	38.13	
2025-01-19 00:42:41.46	6.40	38.18	
2025-01-19 00:42:41.66	6.37	38.23	
2025-01-19 00:42:41.87	6.35	38.28	
2025-01-19 00:42:42.07	6.32	38.32	
2025-01-19 00:42:42.27	6.30	38.37	
2025-01-19 00:42:42.48	6.27	38.42	
2025-01-19 00:42:42.68	6.24	38.47	
2025-01-19 00:42:42.88	6.22	38.52	
2025-01-19 00:42:43.09	6.19	38.57	
2025-01-19 00:42:43.29	6.17	38.62	
2025-01-19 00:42:43.49	6.14	38.66	
2025-01-19 00:42:43.70	6.11	38.72	
2025-01-19 00:42:43.90	6.09	38.76	
2025-01-19 00:42:44.10	6.06	38.81	
2025-01-19 00:42:44.31	6.03	38.86	
2025-01-19 00:42:44.51	6.01	38.91	
2025-01-19 00:42:44.71	5.98	38.96	
2025-01-19 00:42:44.92	5.96	39.01	
2025-01-19 00:42:45.12	5.93	39.06	
2025-01-19 00:42:45.32	5.90	39.11	
2025-01-19 00:42:45.52	5.88	39.16	
2025-01-19 00:42:45.73	5.85	39.21	
2025-01-19 00:42:45.93	5.82	39.26	
2025-01-19 00:42:46.13	5.80	39.31	
2025-01-19 00:42:46.34	5.77	39.36	
2025-01-19 00:42:46.54	5.74	39.41	
2025-01-19 00:42:46.74	5.71	39.46	
2025-01-19 00:42:46.95	5.69	39.51	
2025-01-19 00:42:47.15	5.66	39.56	
2025-01-19 00:42:47.35	5.63	39.61	
2025-01-19 00:42:47.56	5.60	39.66	
2025-01-19 00:42:47.76	5.57	39.71	
2025-01-19 00:42:47.96	5.55	39.76	
2025-01-19 00:42:48.17	5.52	39.81	
2025-01-19 00:42:48.37	5.49	39.86	
2025-01-19 00:42:48.57	5.46	39.91	
2025-01-19 00:42:48.78	5.43	39.96	
2025-01-19 00:42:48.98	5.41	40.01	
2025-01-19 00:42:49.18	5.38	40.06	
2025-01-19 00:42:49.39	5.35	40.11	
2025-01-19 00:42:49.59	5.32	40.16	
2025-01-19 00:42:49.79	5.29	40.21	
2025-01-19 00:42:50.00	5.26	40.27	
2025-01-19 00:42:50.20	5.23	40.32	
2025-01-19 00:42:50.40	5.21	40.37	
2025-01-19 00:42:50.61	5.18	40.42	
2025-01-19 00:42:50.81	5.15	40.47	
2025-01-19 00:42:51.01	5.12	40.52	
2025-01-19 00:42:51.21	5.09	40.57	
2025-01-19 00:42:51.42	5.06	40.63	
2025-01-19 00:42:51.62	5.03	40.68	
2025-01-19 00:42:51.82	5.00	40.73	
2025-01-19 00:42:52.03	4.97	40.78	
2025-01-19 00:42:52.23	4.94	40.83	
2025-01-19 00:42:52.43	4.91	40.88	
2025-01-19 00:42:52.64	4.88	40.94	
2025-01-19 00:42:52.84	4.85	40.99	
2025-01-19 00:42:53.04	4.82	41.04	
2025-01-19 00:42:53.25	4.79	41.09	
2025-01-19 00:42:53.45	4.76	41.14	
2025-01-19 00:42:53.65	4.73	41.19	
2025-01-19 00:42:53.86	4.70	41.25	
2025-01-19 00:42:54.06	4.67	41.30	
2025-01-19 00:42:54.26	4.64	41.35	
2025-01-19 00:42:54.47	4.61	41.41	
2025-01-19 00:42:54.67	4.57	41.46	
2025-01-19 00:42:54.87	4.54	41.51	
2025-01-19 00:42:55.08	4.51	41.56	
2025-01-19 00:42:55.28	4.48	41.62	
2025-01-19 00:42:55.48	4.45	41.67	
2025-01-19 00:42:55.69	4.42	41.72	
2025-01-19 00:42:55.89	4.39	41.77	
2025-01-19 00:42:56.09	4.35	41.83	
2025-01-19 00:42:56.29	4.32	41.88	
2025-01-19 00:42:56.50	4.29	41.93	
2025-01-19 00:42:56.70	4.26	41.99	
2025-01-19 00:42:56.90	4.23	42.04	
2025-01-19 00:42:57.11	4.19	42.09	
2025-01-19 00:42:57.31	4.16	42.15	
2025-01-19 00:42:57.51	4.13	42.20	
2025-01-19 00:42:57.72	4.10	42.25	
2025-01-19 00:42:57.92	4.06	42.31	
2025-01-19 00:42:58.12	4.03	42.36	
2025-01-19 00:42:58.33	4.00	42.41	
2025-01-19 00:42:58.53	3.96	42.47	
2025-01-19 00:42:58.73	3.93	42.52	
2025-01-19 00:42:58.94	3.90	42.58	
2025-01-19 00:42:59.14	3.86	42.63	
2025-01-19 00:42:59.34	3.83	42.68	
2025-01-19 00:42:59.55	3.80	42.74	
2025-01-19 00:42:59.75	3.76	42.79	
2025-01-19 00:42:59.95	3.73	42.85	
2025-01-19 00:43:00.16	3.70	42.90	
2025-01-19 00:43:00.36	3.66	42.96	
2025-01-19 00:43:00.56	3.63	43.01	
2025-01-19 00:43:00.77	3.59	43.06	
2025-01-19 00:43:00.97	3.56	43.12	
2025-01-19 00:43:01.17	3.52	43.17	
2025-01-19 00:43:01.38	3.49	43.23	
2025-01-19 00:43:01.58	3.45	43.28	
2025-01-19 00:43:01.78	3.42	43.34	
2025-01-19 00:43:01.99	3.38	43.39	
2025-01-19 00:43:02.19	3.35	43.45	
2025-01-19 00:43:02.39	3.31	43.50	
2025-01-19 00:43:02.59	3.28	43.56	
2025-01-19 00:43:02.80	3.24	43.61	
2025-01-19 00:43:03.00	3.21	43.67	
2025-01-19 00:43:03.20	3.17	43.72	
2025-01-19 00:43:03.41	3.13	43.78	
2025-01-19 00:43:03.61	3.10	43.83	
2025-01-19 00:43:03.81	3.06	43.89	
2025-01-19 00:43:04.02	3.03	43.95	
2025-01-19 00:43:04.22	2.99	44.00	
2025-01-19 00:43:04.42	2.95	44.06	
2025-01-19 00:43:04.63	2.92	44.11	
2025-01-19 00:43:04.83	2.88	44.17	
2025-01-19 00:43:05.03	2.84	44.22	
2025-01-19 00:43:05.24	2.81	44.28	
2025-01-19 00:43:05.44	2.77	44.34	
2025-01-19 00:43:05.64	2.73	44.39	
2025-01-19 00:43:05.85	2.69	44.45	
2025-01-19 00:43:06.05	2.66	44.51	
2025-01-19 00:43:06.25	2.62	44.56	
2025-01-19 00:43:06.46	2.58	44.62	
2025-01-19 00:43:06.66	2.54	44.67	
2025-01-19 00:43:06.86	2.50	44.73	
2025-01-19 00:43:07.07	2.46	44.79	
2025-01-19 00:43:07.27	2.43	44.84	
2025-01-19 00:43:07.47	2.39	44.90	
2025-01-19 00:43:07.67	2.35	44.96	
2025-01-19 00:43:07.88	2.31	45.01	
2025-01-19 00:43:08.08	2.27	45.07	
2025-01-19 00:43:08.28	2.23	45.13	
2025-01-19 00:43:08.49	2.19	45.19	
2025-01-19 00:43:08.69	2.15	45.24	
2025-01-19 00:43:08.89	2.11	45.30	
2025-01-19 00:43:09.10	2.07	45.36	
2025-01-19 00:43:09.30	2.03	45.41	
2025-01-19 00:43:09.50	1.99	45.47	
2025-01-19 00:43:09.71	1.95	45.53	
2025-01-19 00:43:09.91	1.91	45.59	
2025-01-19 00:43:10.11	1.87	45.64	
2025-01-19 00:43:10.32	1.83	45.70	
2025-01-19 00:43:10.52	1.79	45.76	
2025-01-19 00:43:10.72	1.75	45.82	
2025-01-19 00:43:10.93	1.71	45.88	
2025-01-19 00:43:11.13	1.67	45.93	
2025-01-19 00:43:11.33	1.63	45.99	
2025-01-19 00:43:11.54	1.58	46.05	
2025-01-19 00:43:11.74	1.54	46.11	
2025-01-19 00:43:11.94	1.50	46.16	
2025-01-19 00:43:12.15	1.46	46.22	
2025-01-19 00:43:12.35	1.42	46.28	
2025-01-19 00:43:12.55	1.37	46.34	
2025-01-19 00:43:12.76	1.33	46.40	
2025-01-19 00:43:12.96	1.29	46.46	
2025-01-19 00:43:13.16	1.25	46.52	
2025-01-19 00:43:13.36	1.20	46.57	
2025-01-19 00:43:13.57	1.16	46.63	
2025-01-19 00:43:13.77	1.12	46.69	
2025-01-19 00:43:13.97	1.07	46.75	
2025-01-19 00:43:14.18	1.03	46.81	
2025-01-19 00:43:14.38	0.99	46.87	
2025-01-19 00:43:14.58	0.94	46.93	
2025-01-19 00:43:14.79	0.90	46.99	
2025-01-19 00:43:14.99	0.85	47.05	
2025-01-19 00:43:15.19	0.81	47.10	
2025-01-19 00:43:15.40	0.76	47.17	
2025-01-19 00:43:15.60	0.72	47.22	
2025-01-19 00:43:15.80	0.67	47.28	
2025-01-19 00:43:16.01	0.63	47.34	
2025-01-19 00:43:16.21	0.58	47.40	
2025-01-19 00:43:16.41	0.54	47.46	
2025-01-19 00:43:16.62	0.49	47.52	
2025-01-19 00:43:16.82	0.45	47.58	
2025-01-19 00:43:17.02	0.40	47.64	
2025-01-19 00:43:17.23	0.35	47.70	
2025-01-19 00:43:17.43	0.31	47.76	
2025-01-19 00:43:17.63	0.26	47.82	
2025-01-19 00:43:17.84	0.21	47.88	
2025-01-19 00:43:18.04	0.17	47.94	
2025-01-19 00:43:18.24	0.12	48.00	
2025-01-19 00:43:18.45	0.07	48.06	
2025-01-19 00:43:18.65	0.02	48.12	
2025-01-19 00:43:18.85	359.98	48.18	
2025-01-19 00:43:19.05	359.93	48.24	
2025-01-19 00:43:19.26	359.88	48.30	
2025-01-19 00:43:19.46	359.83	48.36	
2025-01-19 00:43:19.66	359.78	48.42	
2025-01-19 00:43:19.87	359.73	48.49	
2025-01-19 00:43:20.07	359.69	48.55	
2025-01-19 00:43:20.27	359.64	48.61	
2025-01-19 00:43:20.48	359.59	48.67	
2025-01-19 00:43:20.68	359.54	48.73	
2025-01-19 00:43:20.88	359.49	48.79	
2025-01-19 00:43:21.09	359.44	48.85	
2025-01-19 00:43:21.29	359.39	48.91	
2025-01-19 00:43:21.49	359.34	48.97	
2025-01-19 00:43:21.70	359.29	49.03	
2025-01-19 00:43:21.90	359.24	49.10	
2025-01-19 00:43:22.10	359.19	49.16	
2025-01-19 00:43:22.31	359.13	49.22	
2025-01-19 00:43:22.51	359.08	49.28	
2025-01-19 00:43:22.71	359.03	49.34	
2025-01-19 00:43:22.92	358.98	49.40	
2025-01-19 00:43:23.12	358.93	49.46	
2025-01-19 00:43:23.32	358.88	49.53	
2025-01-19 00:43:23.53	358.82	49.59	
2025-01-19 00:43:23.73	358.77	49.65	
2025-01-19 00:43:23.93	358.72	49.71	
2025-01-19 00:43:24.14	358.66	49.77	
2025-01-19 00:43:24.34	358.61	49.84	
2025-01-19 00:43:24.54	358.56	49.90	
2025-01-19 00:43:24.74	358.50	49.96	
2025-01-19 00:43:24.95	358.45	50.02	
2025-01-19 00:43:25.15	358.40	50.08	
2025-01-19 00:43:25.35	358.34	50.14	
2025-01-19 00:43:25.56	358.29	50.21	
2025-01-19 00:43:25.76	358.23	50.27	
2025-01-19 00:43:25.96	358.18	50.33	
2025-01-19 00:43:26.17	358.12	50.40	
2025-01-19 00:43:26.37	358.07	50.46	
2025-01-19 00:43:26.57	358.01	50.52	
2025-01-19 00:43:26.78	357.95	50.58	
2025-01-19 00:43:26.98	357.90	50.65	
2025-01-19 00:43:27.18	357.84	50.71	
2025-01-19 00:43:27.39	357.78	50.77	
2025-01-19 00:43:27.59	357.73	50.84	
2025-01-19 00:43:27.79	357.67	50.90	
2025-01-19 00:43:28.00	357.61	50.96	
2025-01-19 00:43:28.20	357.55	51.02	
2025-01-19 00:43:28.40	357.50	51.09	
2025-01-19 00:43:28.61	357.44	51.15	
2025-01-19 00:43:28.81	357.38	51.21	
2025-01-19 00:43:29.01	357.32	51.28	
2025-01-19 00:43:29.22	357.26	51.34	
2025-01-19 00:43:29.42	357.20	51.40	
2025-01-19 00:43:29.62	357.14	51.47	
2025-01-19 00:43:29.83	357.08	51.53	
2025-01-19 00:43:30.03	357.02	51.59	
2025-01-19 00:43:30.23	356.96	51.66	
2025-01-19 00:43:30.43	356.90	51.72	
2025-01-19 00:43:30.64	356.84	51.79	
2025-01-19 00:43:30.84	356.78	51.85	
2025-01-19 00:43:31.04	356.72	51.91	
2025-01-19 00:43:31.25	356.66	51.98	
2025-01-19 00:43:31.45	356.60	52.04	
2025-01-19 00:43:31.65	356.54	52.10	
2025-01-19 00:43:31.86	356.47	52.17	
2025-01-19 00:43:32.06	356.41	52.23	
2025-01-19 00:43:32.26	356.35	52.30	
2025-01-19 00:43:32.47	356.28	52.36	
2025-01-19 00:43:32.67	356.22	52.42	
2025-01-19 00:43:32.87	356.16	52.49	
2025-01-19 00:43:33.08	356.09	52.55	
2025-01-19 00:43:33.28	356.03	52.62	
2025-01-19 00:43:33.48	355.96	52.68	
2025-01-19 00:43:33.69	355.90	52.75	
2025-01-19 00:43:33.89	355.83	52.81	
2025-01-19 00:43:34.09	355.77	52.87	
2025-01-19 00:43:34.30	355.70	52.94	
2025-01-19 00:43:34.50	355.63	53.01	
2025-01-19 00:43:34.70	355.57	53.07	
2025-01-19 00:43:34.91	355.50	53.14	
2025-01-19 00:43:35.11	355.43	53.20	
2025-01-19 00:43:35.31	355.37	53.26	
2025-01-19 00:43:35.52	355.30	53.33	
2025-01-19 00:43:35.72	355.23	53.39	
2025-01-19 00:43:35.92	355.16	53.46	
2025-01-19 00:43:36.12	355.10	53.52	
2025-01-19 00:43:36.33	355.03	53.59	
2025-01-19 00:43:36.53	354.96	53.65	
2025-01-19 00:43:36.73	354.89	53.72	
2025-01-19 00:43:36.94	354.82	53.78	
2025-01-19 00:43:37.14	354.75	53.85	
2025-01-19 00:43:37.34	354.68	53.91	
2025-01-19 00:43:37.55	354.61	53.98	
2025-01-19 00:43:37.75	354.54	54.04	
2025-01-19 00:43:37.95	354.47	54.11	
2025-01-19 00:43:38.16	354.39	54.18	
2025-01-19 00:43:38.36	354.32	54.24	
2025-01-19 00:43:38.56	354.25	54.30	
2025-01-19 00:43:38.77	354.18	54.37	
2025-01-19 00:43:38.97	354.10	54.44	
2025-01-19 00:43:39.17	354.03	54.50	
2025-01-19 00:43:39.38	353.96	54.57	
2025-01-19 00:43:39.58	353.88	54.63	
2025-01-19 00:43:39.78	353.81	54.70	
2025-01-19 00:43:39.99	353.73	54.77	
2025-01-19 00:43:40.19	353.66	54.83	
2025-01-19 00:43:40.39	353.58	54.90	
2025-01-19 00:43:40.60	353.51	54.96	
2025-01-19 00:43:40.80	353.43	55.03	
2025-01-19 00:43:41.00	353.36	55.09	
2025-01-19 00:43:41.21	353.28	55.16	
2025-01-19 00:43:41.41	353.20	55.23	
2025-01-19 00:43:41.61	353.12	55.29	
2025-01-19 00:43:41.81	353.05	55.36	
2025-01-19 00:43:42.02	352.97	55.42	
2025-01-19 00:43:42.22	352.89	55.49	
2025-01-19 00:43:42.42	352.81	55.55	
2025-01-19 00:43:42.63	352.73	55.62	
2025-01-19 00:43:42.83	352.65	55.69	
2025-01-19 00:43:43.03	352.57	55.75	
2025-01-19 00:43:43.24	352.49	55.82	
2025-01-19 00:43:43.44	352.41	55.89	
2025-01-19 00:43:43.64	352.33	55.95	
2025-01-19 00:43:43.85	352.24	56.02	
2025-01-19 00:43:44.05	352.16	56.08	
2025-01-19 00:43:44.25	352.08	56.15	
2025-01-19 00:43:44.46	352.00	56.22	
2025-01-19 00:43:44.66	351.91	56.28	
2025-01-19 00:43:44.86	351.83	56.35	
2025-01-19 00:43:45.07	351.74	56.42	
2025-01-19 00:43:45.27	351.66	56.48	
2025-01-19 00:43:45.47	351.58	56.55	
2025-01-19 00:43:45.68	351.49	56.62	
2025-01-19 00:43:45.88	351.40	56.68	
2025-01-19 00:43:46.08	351.32	56.75	
2025-01-19 00:43:46.29	351.23	56.82	
