passes_logs/2025/01/19/SPB_Silybum_02/SPB_Silybum_02__20250119_201536_TERRA_rec.log

#Pass ID: 20250119_201536_TERRA
#Satellite: TERRA
#Configuration: TERRA
#Start time: 2025-01-19 20:15:37

#Version: 2.0.20230423
#Station: SPB_Silybum_02
#Location: 30.233357 lon 59.946436 lat
#TLE: 1 25994U 99068A   25018.76132064  .00000971  00000+0  20987-3 0  9991
#TLE: 2 25994  98.0209  81.6719 0003338  64.8500  46.9329 14.60403262334620

#Time	Az	El	Level	Level2	SNR	BER	Gain	Gain2
2025-01-19 20:15:39.12	218.69	4.13	
2025-01-19 20:15:39.33	218.71	4.15	
2025-01-19 20:15:39.53	218.73	4.16	
2025-01-19 20:15:39.73	218.75	4.17	
2025-01-19 20:15:39.94	218.77	4.18	
2025-01-19 20:15:40.14	218.79	4.19	
2025-01-19 20:15:40.34	218.82	4.20	
2025-01-19 20:15:40.55	218.84	4.22	
2025-01-19 20:15:40.75	218.86	4.23	
2025-01-19 20:15:40.95	218.88	4.24	
2025-01-19 20:15:41.16	218.90	4.25	
2025-01-19 20:15:41.36	218.92	4.26	
2025-01-19 20:15:41.56	218.94	4.27	
2025-01-19 20:15:41.76	218.96	4.29	
2025-01-19 20:15:41.97	218.98	4.30	
2025-01-19 20:15:42.17	219.00	4.31	
2025-01-19 20:15:42.37	219.02	4.32	
2025-01-19 20:15:42.58	219.05	4.33	
2025-01-19 20:15:42.78	219.07	4.34	
2025-01-19 20:15:42.98	219.09	4.35	
2025-01-19 20:15:43.19	219.11	4.37	
2025-01-19 20:15:43.39	219.13	4.38	
2025-01-19 20:15:43.59	219.15	4.39	
2025-01-19 20:15:43.80	219.17	4.40	
2025-01-19 20:15:44.00	219.19	4.41	
2025-01-19 20:15:44.20	219.21	4.42	
2025-01-19 20:15:44.40	219.24	4.44	
2025-01-19 20:15:44.61	219.26	4.45	
2025-01-19 20:15:44.81	219.28	4.46	
2025-01-19 20:15:45.01	219.30	4.47	
2025-01-19 20:15:45.22	219.32	4.48	
2025-01-19 20:15:45.42	219.34	4.50	
2025-01-19 20:15:45.62	219.36	4.51	
2025-01-19 20:15:45.83	219.39	4.52	
2025-01-19 20:15:46.03	219.41	4.53	
2025-01-19 20:15:46.23	219.43	4.54	
2025-01-19 20:15:46.44	219.45	4.55	
2025-01-19 20:15:46.64	219.47	4.57	
2025-01-19 20:15:46.84	219.49	4.58	
2025-01-19 20:15:47.04	219.51	4.59	
2025-01-19 20:15:47.25	219.54	4.60	
2025-01-19 20:15:47.45	219.56	4.61	
2025-01-19 20:15:47.65	219.58	4.62	
2025-01-19 20:15:47.86	219.60	4.64	
2025-01-19 20:15:48.06	219.62	4.65	
2025-01-19 20:15:48.26	219.64	4.66	
2025-01-19 20:15:48.47	219.66	4.67	
2025-01-19 20:15:48.67	219.69	4.68	
2025-01-19 20:15:48.87	219.71	4.69	
2025-01-19 20:15:49.08	219.73	4.71	
2025-01-19 20:15:49.28	219.75	4.72	
2025-01-19 20:15:49.48	219.77	4.73	
2025-01-19 20:15:49.68	219.79	4.74	
2025-01-19 20:15:49.89	219.82	4.75	
2025-01-19 20:15:50.09	219.84	4.76	
2025-01-19 20:15:50.29	219.86	4.78	
2025-01-19 20:15:50.50	219.88	4.79	
2025-01-19 20:15:50.70	219.90	4.80	
2025-01-19 20:15:50.90	219.92	4.81	
2025-01-19 20:15:51.11	219.95	4.82	
2025-01-19 20:15:51.31	219.97	4.83	
2025-01-19 20:15:51.51	219.99	4.85	
2025-01-19 20:15:51.72	220.01	4.86	
2025-01-19 20:15:51.92	220.03	4.87	
2025-01-19 20:15:52.12	220.06	4.88	
2025-01-19 20:15:52.33	220.08	4.89	
2025-01-19 20:15:52.53	220.10	4.91	
2025-01-19 20:15:52.73	220.12	4.92	
2025-01-19 20:15:52.93	220.14	4.93	
2025-01-19 20:15:53.14	220.17	4.94	
2025-01-19 20:15:53.34	220.19	4.95	
2025-01-19 20:15:53.54	220.21	4.96	
2025-01-19 20:15:53.75	220.23	4.98	
2025-01-19 20:15:53.95	220.25	4.99	
2025-01-19 20:15:54.15	220.28	5.00	
2025-01-19 20:15:54.36	220.30	5.01	
2025-01-19 20:15:54.56	220.32	5.02	
2025-01-19 20:15:54.76	220.34	5.03	
2025-01-19 20:15:54.97	220.37	5.05	
2025-01-19 20:15:55.17	220.39	5.06	
2025-01-19 20:15:55.37	220.41	5.07	
2025-01-19 20:15:55.57	220.43	5.08	
2025-01-19 20:15:55.78	220.45	5.09	
2025-01-19 20:15:55.98	220.48	5.11	
2025-01-19 20:15:56.18	220.50	5.12	
2025-01-19 20:15:56.39	220.52	5.13	
2025-01-19 20:15:56.59	220.54	5.14	
2025-01-19 20:15:56.79	220.56	5.15	
2025-01-19 20:15:57.00	220.59	5.17	
2025-01-19 20:15:57.20	220.61	5.18	
2025-01-19 20:15:57.40	220.63	5.19	
2025-01-19 20:15:57.61	220.66	5.20	
2025-01-19 20:15:57.81	220.68	5.21	
2025-01-19 20:15:58.01	220.70	5.22	
2025-01-19 20:15:58.21	220.72	5.24	
2025-01-19 20:15:58.42	220.74	5.25	
2025-01-19 20:15:58.62	220.77	5.26	
2025-01-19 20:15:58.82	220.79	5.27	
2025-01-19 20:15:59.03	220.81	5.28	
2025-01-19 20:15:59.23	220.83	5.30	
2025-01-19 20:15:59.43	220.86	5.31	
2025-01-19 20:15:59.64	220.88	5.32	
2025-01-19 20:15:59.84	220.90	5.33	
2025-01-19 20:16:00.04	220.92	5.34	
2025-01-19 20:16:00.25	220.95	5.35	
2025-01-19 20:16:00.45	220.97	5.37	
2025-01-19 20:16:00.65	220.99	5.38	
2025-01-19 20:16:00.85	221.02	5.39	
2025-01-19 20:16:01.06	221.04	5.40	
2025-01-19 20:16:01.26	221.06	5.41	
2025-01-19 20:16:01.46	221.08	5.43	
2025-01-19 20:16:01.67	221.11	5.44	
2025-01-19 20:16:01.87	221.13	5.45	
2025-01-19 20:16:02.07	221.15	5.46	
2025-01-19 20:16:02.28	221.18	5.47	
2025-01-19 20:16:02.48	221.20	5.49	
2025-01-19 20:16:02.68	221.22	5.50	
2025-01-19 20:16:02.89	221.24	5.51	
2025-01-19 20:16:03.09	221.27	5.52	
2025-01-19 20:16:03.29	221.29	5.53	
2025-01-19 20:16:03.49	221.31	5.54	
2025-01-19 20:16:03.70	221.34	5.56	
2025-01-19 20:16:03.90	221.36	5.57	
2025-01-19 20:16:04.10	221.38	5.58	
2025-01-19 20:16:04.31	221.41	5.59	
2025-01-19 20:16:04.51	221.43	5.60	
2025-01-19 20:16:04.71	221.45	5.62	
2025-01-19 20:16:04.92	221.47	5.63	
2025-01-19 20:16:05.12	221.50	5.64	
2025-01-19 20:16:05.32	221.52	5.65	
2025-01-19 20:16:05.53	221.54	5.66	
2025-01-19 20:16:05.73	221.57	5.68	
2025-01-19 20:16:05.93	221.59	5.69	
2025-01-19 20:16:06.13	221.61	5.70	
2025-01-19 20:16:06.34	221.64	5.71	
2025-01-19 20:16:06.54	221.66	5.72	
2025-01-19 20:16:06.74	221.68	5.74	
2025-01-19 20:16:06.95	221.71	5.75	
2025-01-19 20:16:07.15	221.73	5.76	
2025-01-19 20:16:07.35	221.75	5.77	
2025-01-19 20:16:07.56	221.78	5.78	
2025-01-19 20:16:07.76	221.80	5.80	
2025-01-19 20:16:07.96	221.82	5.81	
2025-01-19 20:16:08.17	221.85	5.82	
2025-01-19 20:16:08.37	221.87	5.83	
2025-01-19 20:16:08.57	221.89	5.84	
2025-01-19 20:16:08.77	221.92	5.85	
2025-01-19 20:16:08.98	221.94	5.87	
2025-01-19 20:16:09.18	221.96	5.88	
2025-01-19 20:16:09.38	221.99	5.89	
2025-01-19 20:16:09.59	222.01	5.90	
2025-01-19 20:16:09.79	222.04	5.91	
2025-01-19 20:16:09.99	222.06	5.93	
2025-01-19 20:16:10.20	222.08	5.94	
2025-01-19 20:16:10.40	222.11	5.95	
2025-01-19 20:16:10.60	222.13	5.96	
2025-01-19 20:16:10.81	222.15	5.97	
2025-01-19 20:16:11.01	222.18	5.99	
2025-01-19 20:16:11.21	222.20	6.00	
2025-01-19 20:16:11.42	222.23	6.01	
2025-01-19 20:16:11.62	222.25	6.02	
2025-01-19 20:16:11.82	222.27	6.03	
2025-01-19 20:16:12.02	222.30	6.05	
2025-01-19 20:16:12.23	222.32	6.06	
2025-01-19 20:16:12.43	222.34	6.07	
2025-01-19 20:16:12.63	222.37	6.08	
2025-01-19 20:16:12.84	222.39	6.09	
2025-01-19 20:16:13.04	222.42	6.11	
2025-01-19 20:16:13.24	222.44	6.12	
2025-01-19 20:16:13.45	222.46	6.13	
2025-01-19 20:16:13.65	222.49	6.14	
2025-01-19 20:16:13.85	222.51	6.15	
2025-01-19 20:16:14.06	222.54	6.17	
2025-01-19 20:16:14.26	222.56	6.18	
2025-01-19 20:16:14.46	222.58	6.19	
2025-01-19 20:16:14.66	222.61	6.20	
2025-01-19 20:16:14.87	222.63	6.22	
2025-01-19 20:16:15.07	222.66	6.23	
2025-01-19 20:16:15.27	222.68	6.24	
2025-01-19 20:16:15.48	222.70	6.25	
2025-01-19 20:16:15.68	222.73	6.26	
2025-01-19 20:16:15.88	222.75	6.27	
2025-01-19 20:16:16.09	222.78	6.29	
2025-01-19 20:16:16.29	222.80	6.30	
2025-01-19 20:16:16.49	222.83	6.31	
2025-01-19 20:16:16.70	222.85	6.32	
2025-01-19 20:16:16.90	222.87	6.34	
2025-01-19 20:16:17.10	222.90	6.35	
2025-01-19 20:16:17.30	222.92	6.36	
2025-01-19 20:16:17.51	222.95	6.37	
2025-01-19 20:16:17.71	222.97	6.38	
2025-01-19 20:16:17.91	223.00	6.40	
2025-01-19 20:16:18.12	223.02	6.41	
2025-01-19 20:16:18.32	223.05	6.42	
2025-01-19 20:16:18.52	223.07	6.43	
2025-01-19 20:16:18.73	223.09	6.44	
2025-01-19 20:16:18.93	223.12	6.46	
2025-01-19 20:16:19.13	223.14	6.47	
2025-01-19 20:16:19.34	223.17	6.48	
2025-01-19 20:16:19.54	223.19	6.49	
2025-01-19 20:16:19.74	223.22	6.50	
2025-01-19 20:16:19.94	223.24	6.52	
2025-01-19 20:16:20.15	223.27	6.53	
2025-01-19 20:16:20.35	223.29	6.54	
2025-01-19 20:16:20.55	223.32	6.55	
2025-01-19 20:16:20.76	223.34	6.56	
2025-01-19 20:16:20.96	223.37	6.58	
2025-01-19 20:16:21.16	223.39	6.59	
2025-01-19 20:16:21.37	223.42	6.60	
2025-01-19 20:16:21.57	223.44	6.61	
2025-01-19 20:16:21.77	223.46	6.63	
2025-01-19 20:16:21.98	223.49	6.64	
2025-01-19 20:16:22.18	223.51	6.65	
2025-01-19 20:16:22.38	223.54	6.66	
2025-01-19 20:16:22.58	223.56	6.67	
2025-01-19 20:16:22.79	223.59	6.69	
2025-01-19 20:16:22.99	223.61	6.70	
2025-01-19 20:16:23.19	223.64	6.71	
2025-01-19 20:16:23.40	223.66	6.72	
2025-01-19 20:16:23.60	223.69	6.73	
2025-01-19 20:16:23.80	223.71	6.75	
2025-01-19 20:16:24.01	223.74	6.76	
2025-01-19 20:16:24.21	223.76	6.77	
2025-01-19 20:16:24.41	223.79	6.78	
2025-01-19 20:16:24.62	223.82	6.80	
2025-01-19 20:16:24.82	223.84	6.81	
2025-01-19 20:16:25.02	223.86	6.82	
2025-01-19 20:16:25.22	223.89	6.83	
2025-01-19 20:16:25.43	223.92	6.84	
2025-01-19 20:16:25.63	223.94	6.86	
2025-01-19 20:16:25.83	223.97	6.87	
2025-01-19 20:16:26.04	223.99	6.88	
2025-01-19 20:16:26.24	224.02	6.89	
2025-01-19 20:16:26.44	224.04	6.90	
2025-01-19 20:16:26.65	224.07	6.92	
2025-01-19 20:16:26.85	224.09	6.93	
2025-01-19 20:16:27.05	224.12	6.94	
2025-01-19 20:16:27.26	224.14	6.95	
2025-01-19 20:16:27.46	224.17	6.97	
2025-01-19 20:16:27.66	224.19	6.98	
2025-01-19 20:16:27.86	224.22	6.99	
2025-01-19 20:16:28.07	224.25	7.00	
2025-01-19 20:16:28.27	224.27	7.01	
2025-01-19 20:16:28.47	224.30	7.03	
2025-01-19 20:16:28.68	224.32	7.04	
2025-01-19 20:16:28.88	224.35	7.05	
2025-01-19 20:16:29.08	224.37	7.06	
2025-01-19 20:16:29.29	224.40	7.07	
2025-01-19 20:16:29.49	224.42	7.09	
2025-01-19 20:16:29.69	224.45	7.10	
2025-01-19 20:16:29.90	224.48	7.11	
2025-01-19 20:16:30.10	224.50	7.12	
2025-01-19 20:16:30.30	224.53	7.14	
2025-01-19 20:16:30.50	224.55	7.15	
2025-01-19 20:16:30.71	224.58	7.16	
2025-01-19 20:16:30.91	224.60	7.17	
2025-01-19 20:16:31.11	224.63	7.18	
2025-01-19 20:16:31.32	224.66	7.20	
2025-01-19 20:16:31.52	224.68	7.21	
2025-01-19 20:16:31.72	224.71	7.22	
2025-01-19 20:16:31.93	224.73	7.23	
2025-01-19 20:16:32.13	224.76	7.25	
2025-01-19 20:16:32.33	224.79	7.26	
2025-01-19 20:16:32.54	224.81	7.27	
2025-01-19 20:16:32.74	224.84	7.28	
2025-01-19 20:16:32.94	224.86	7.29	
2025-01-19 20:16:33.14	224.89	7.31	
2025-01-19 20:16:33.35	224.92	7.32	
2025-01-19 20:16:33.55	224.94	7.33	
2025-01-19 20:16:33.75	224.97	7.34	
2025-01-19 20:16:33.96	225.00	7.36	
2025-01-19 20:16:34.16	225.02	7.37	
2025-01-19 20:16:34.36	225.05	7.38	
2025-01-19 20:16:34.57	225.07	7.39	
2025-01-19 20:16:34.77	225.10	7.40	
2025-01-19 20:16:34.97	225.13	7.42	
2025-01-19 20:16:35.18	225.15	7.43	
2025-01-19 20:16:35.38	225.18	7.44	
2025-01-19 20:16:35.58	225.21	7.45	
2025-01-19 20:16:35.79	225.23	7.47	
2025-01-19 20:16:35.99	225.26	7.48	
2025-01-19 20:16:36.19	225.28	7.49	
2025-01-19 20:16:36.39	225.31	7.50	
2025-01-19 20:16:36.60	225.34	7.51	
2025-01-19 20:16:36.80	225.36	7.53	
2025-01-19 20:16:37.00	225.39	7.54	
2025-01-19 20:16:37.21	225.42	7.55	
2025-01-19 20:16:37.41	225.44	7.56	
2025-01-19 20:16:37.61	225.47	7.58	
2025-01-19 20:16:37.82	225.50	7.59	
2025-01-19 20:16:38.02	225.52	7.60	
2025-01-19 20:16:38.22	225.55	7.61	
2025-01-19 20:16:38.43	225.58	7.62	
2025-01-19 20:16:38.63	225.60	7.64	
2025-01-19 20:16:38.83	225.63	7.65	
2025-01-19 20:16:39.03	225.66	7.66	
2025-01-19 20:16:39.24	225.68	7.67	
2025-01-19 20:16:39.44	225.71	7.69	
2025-01-19 20:16:39.64	225.74	7.70	
2025-01-19 20:16:39.85	225.76	7.71	
2025-01-19 20:16:40.05	225.79	7.72	
2025-01-19 20:16:40.25	225.82	7.73	
2025-01-19 20:16:40.46	225.85	7.75	
2025-01-19 20:16:40.66	225.87	7.76	
2025-01-19 20:16:40.86	225.90	7.77	
2025-01-19 20:16:41.07	225.93	7.78	
2025-01-19 20:16:41.27	225.95	7.80	
2025-01-19 20:16:41.47	225.98	7.81	
2025-01-19 20:16:41.67	226.01	7.82	
2025-01-19 20:16:41.88	226.03	7.83	
2025-01-19 20:16:42.08	226.06	7.85	
2025-01-19 20:16:42.28	226.09	7.86	
2025-01-19 20:16:42.49	226.12	7.87	
2025-01-19 20:16:42.69	226.14	7.88	
2025-01-19 20:16:42.89	226.17	7.89	
2025-01-19 20:16:43.10	226.20	7.91	
2025-01-19 20:16:43.30	226.22	7.92	
2025-01-19 20:16:43.50	226.25	7.93	
2025-01-19 20:16:43.71	226.28	7.94	
2025-01-19 20:16:43.91	226.31	7.96	
2025-01-19 20:16:44.11	226.33	7.97	
2025-01-19 20:16:44.31	226.36	7.98	
2025-01-19 20:16:44.52	226.39	7.99	
2025-01-19 20:16:44.72	226.42	8.00	
2025-01-19 20:16:44.92	226.44	8.02	
2025-01-19 20:16:45.13	226.47	8.03	
2025-01-19 20:16:45.33	226.50	8.04	
2025-01-19 20:16:45.53	226.53	8.05	
2025-01-19 20:16:45.74	226.55	8.07	
2025-01-19 20:16:45.94	226.58	8.08	
2025-01-19 20:16:46.14	226.61	8.09	
2025-01-19 20:16:46.35	226.64	8.10	
2025-01-19 20:16:46.55	226.66	8.12	
2025-01-19 20:16:46.75	226.69	8.13	
2025-01-19 20:16:46.95	226.72	8.14	
2025-01-19 20:16:47.16	226.75	8.15	
2025-01-19 20:16:47.36	226.77	8.17	
2025-01-19 20:16:47.56	226.80	8.18	
2025-01-19 20:16:47.77	226.83	8.19	
2025-01-19 20:16:47.97	226.86	8.20	
2025-01-19 20:16:48.17	226.89	8.21	
2025-01-19 20:16:48.38	226.91	8.23	
2025-01-19 20:16:48.58	226.94	8.24	
2025-01-19 20:16:48.78	226.97	8.25	
2025-01-19 20:16:48.99	227.00	8.26	
2025-01-19 20:16:49.19	227.03	8.28	
2025-01-19 20:16:49.39	227.05	8.29	
2025-01-19 20:16:49.59	227.08	8.30	
2025-01-19 20:16:49.80	227.11	8.31	
2025-01-19 20:16:50.00	227.14	8.33	
2025-01-19 20:16:50.20	227.17	8.34	
2025-01-19 20:16:50.41	227.19	8.35	
2025-01-19 20:16:50.61	227.22	8.36	
2025-01-19 20:16:50.81	227.25	8.37	
2025-01-19 20:16:51.02	227.28	8.39	
2025-01-19 20:16:51.22	227.31	8.40	
2025-01-19 20:16:51.42	227.33	8.41	
2025-01-19 20:16:51.63	227.36	8.42	
2025-01-19 20:16:51.83	227.39	8.44	
2025-01-19 20:16:52.03	227.42	8.45	
2025-01-19 20:16:52.23	227.45	8.46	
2025-01-19 20:16:52.44	227.48	8.47	
2025-01-19 20:16:52.64	227.51	8.49	
2025-01-19 20:16:52.84	227.53	8.50	
2025-01-19 20:16:53.05	227.56	8.51	
2025-01-19 20:16:53.25	227.59	8.52	
2025-01-19 20:16:53.45	227.62	8.53	
2025-01-19 20:16:53.66	227.65	8.55	
2025-01-19 20:16:53.86	227.68	8.56	
2025-01-19 20:16:54.06	227.70	8.57	
2025-01-19 20:16:54.27	227.73	8.58	
2025-01-19 20:16:54.47	227.76	8.60	
2025-01-19 20:16:54.67	227.79	8.61	
2025-01-19 20:16:54.87	227.82	8.62	
2025-01-19 20:16:55.08	227.85	8.63	
2025-01-19 20:16:55.28	227.88	8.65	
2025-01-19 20:16:55.48	227.90	8.66	
2025-01-19 20:16:55.69	227.93	8.67	
2025-01-19 20:16:55.89	227.96	8.68	
2025-01-19 20:16:56.09	227.99	8.70	
2025-01-19 20:16:56.30	228.02	8.71	
2025-01-19 20:16:56.50	228.05	8.72	
2025-01-19 20:16:56.70	228.08	8.73	
2025-01-19 20:16:56.91	228.11	8.75	
2025-01-19 20:16:57.11	228.14	8.76	
2025-01-19 20:16:57.31	228.16	8.77	
2025-01-19 20:16:57.51	228.19	8.78	
2025-01-19 20:16:57.72	228.22	8.79	
2025-01-19 20:16:57.92	228.25	8.81	
2025-01-19 20:16:58.12	228.28	8.82	
2025-01-19 20:16:58.33	228.31	8.83	
2025-01-19 20:16:58.53	228.34	8.84	
2025-01-19 20:16:58.73	228.37	8.86	
2025-01-19 20:16:58.94	228.40	8.87	
2025-01-19 20:16:59.14	228.43	8.88	
2025-01-19 20:16:59.34	228.46	8.89	
2025-01-19 20:16:59.55	228.49	8.91	
2025-01-19 20:16:59.75	228.52	8.92	
2025-01-19 20:16:59.95	228.54	8.93	
2025-01-19 20:17:00.16	228.57	8.94	
2025-01-19 20:17:00.36	228.60	8.96	
2025-01-19 20:17:00.56	228.63	8.97	
2025-01-19 20:17:00.76	228.66	8.98	
2025-01-19 20:17:00.97	228.69	8.99	
2025-01-19 20:17:01.17	228.72	9.01	
2025-01-19 20:17:01.37	228.75	9.02	
2025-01-19 20:17:01.58	228.78	9.03	
2025-01-19 20:17:01.78	228.81	9.04	
2025-01-19 20:17:01.98	228.84	9.05	
2025-01-19 20:17:02.19	228.87	9.07	
2025-01-19 20:17:02.39	228.90	9.08	
2025-01-19 20:17:02.59	228.93	9.09	
2025-01-19 20:17:02.80	228.96	9.10	
2025-01-19 20:17:03.00	228.99	9.12	
2025-01-19 20:17:03.20	229.02	9.13	
2025-01-19 20:17:03.40	229.05	9.14	
2025-01-19 20:17:03.61	229.08	9.15	
2025-01-19 20:17:03.81	229.11	9.17	
2025-01-19 20:17:04.01	229.14	9.18	
2025-01-19 20:17:04.22	229.17	9.19	
2025-01-19 20:17:04.42	229.20	9.20	
2025-01-19 20:17:04.62	229.23	9.22	
2025-01-19 20:17:04.83	229.26	9.23	
2025-01-19 20:17:05.03	229.29	9.24	
2025-01-19 20:17:05.23	229.32	9.25	
2025-01-19 20:17:05.44	229.35	9.27	
2025-01-19 20:17:05.64	229.38	9.28	
2025-01-19 20:17:05.84	229.41	9.29	
2025-01-19 20:17:06.04	229.44	9.30	
2025-01-19 20:17:06.25	229.47	9.32	
2025-01-19 20:17:06.45	229.50	9.33	
2025-01-19 20:17:06.65	229.53	9.34	
2025-01-19 20:17:06.86	229.56	9.35	
2025-01-19 20:17:07.06	229.59	9.36	
2025-01-19 20:17:07.26	229.62	9.38	
2025-01-19 20:17:07.47	229.65	9.39	
2025-01-19 20:17:07.67	229.68	9.40	
2025-01-19 20:17:07.87	229.71	9.41	
2025-01-19 20:17:08.08	229.74	9.43	
2025-01-19 20:17:08.28	229.77	9.44	
2025-01-19 20:17:08.48	229.80	9.45	
2025-01-19 20:17:08.68	229.83	9.46	
2025-01-19 20:17:08.89	229.86	9.48	
2025-01-19 20:17:09.09	229.89	9.49	
2025-01-19 20:17:09.29	229.92	9.50	
2025-01-19 20:17:09.50	229.95	9.51	
2025-01-19 20:17:09.70	229.98	9.53	
2025-01-19 20:17:09.90	230.01	9.54	
2025-01-19 20:17:10.11	230.04	9.55	
2025-01-19 20:17:10.31	230.07	9.56	
2025-01-19 20:17:10.51	230.10	9.58	
2025-01-19 20:17:10.72	230.14	9.59	
2025-01-19 20:17:10.92	230.17	9.60	
2025-01-19 20:17:11.12	230.20	9.61	
2025-01-19 20:17:11.32	230.23	9.62	
2025-01-19 20:17:11.53	230.26	9.64	
2025-01-19 20:17:11.73	230.29	9.65	
2025-01-19 20:17:11.93	230.32	9.66	
2025-01-19 20:17:12.14	230.35	9.67	
2025-01-19 20:17:12.34	230.38	9.69	
2025-01-19 20:17:12.54	230.41	9.70	
2025-01-19 20:17:12.75	230.45	9.71	
2025-01-19 20:17:12.95	230.48	9.72	
2025-01-19 20:17:13.15	230.51	9.74	
2025-01-19 20:17:13.36	230.54	9.75	
2025-01-19 20:17:13.56	230.57	9.76	
2025-01-19 20:17:13.76	230.60	9.77	
2025-01-19 20:17:13.96	230.63	9.79	
2025-01-19 20:17:14.17	230.66	9.80	
2025-01-19 20:17:14.37	230.69	9.81	
2025-01-19 20:17:14.57	230.72	9.82	
2025-01-19 20:17:14.78	230.76	9.84	
2025-01-19 20:17:14.98	230.79	9.85	
2025-01-19 20:17:15.18	230.82	9.86	
2025-01-19 20:17:15.39	230.85	9.87	
2025-01-19 20:17:15.59	230.88	9.89	
2025-01-19 20:17:15.79	230.91	9.90	
2025-01-19 20:17:16.00	230.95	9.91	
2025-01-19 20:17:16.20	230.98	9.92	
2025-01-19 20:17:16.40	231.01	9.93	
2025-01-19 20:17:16.60	231.04	9.95	
2025-01-19 20:17:16.81	231.07	9.96	
2025-01-19 20:17:17.01	231.10	9.97	
2025-01-19 20:17:17.21	231.13	9.98	
2025-01-19 20:17:17.42	231.17	10.00	
2025-01-19 20:17:17.62	231.20	10.01	
2025-01-19 20:17:17.82	231.23	10.02	
2025-01-19 20:17:18.03	231.26	10.03	
2025-01-19 20:17:18.23	231.29	10.05	
2025-01-19 20:17:18.43	231.32	10.06	
2025-01-19 20:17:18.64	231.36	10.07	
2025-01-19 20:17:18.84	231.39	10.08	
2025-01-19 20:17:19.04	231.42	10.10	
2025-01-19 20:17:19.25	231.45	10.11	
2025-01-19 20:17:19.45	231.48	10.12	
2025-01-19 20:17:19.65	231.52	10.13	
2025-01-19 20:17:19.85	231.55	10.15	
2025-01-19 20:17:20.06	231.58	10.16	
2025-01-19 20:17:20.26	231.61	10.17	
2025-01-19 20:17:20.46	231.64	10.18	
2025-01-19 20:17:20.67	231.68	10.20	
2025-01-19 20:17:20.87	231.71	10.21	
2025-01-19 20:17:21.07	231.74	10.22	
2025-01-19 20:17:21.28	231.77	10.23	
2025-01-19 20:17:21.48	231.80	10.24	
2025-01-19 20:17:21.68	231.84	10.26	
2025-01-19 20:17:21.89	231.87	10.27	
2025-01-19 20:17:22.09	231.90	10.28	
2025-01-19 20:17:22.29	231.93	10.29	
2025-01-19 20:17:22.49	231.97	10.31	
2025-01-19 20:17:22.70	232.00	10.32	
2025-01-19 20:17:22.90	232.03	10.33	
2025-01-19 20:17:23.10	232.06	10.34	
2025-01-19 20:17:23.31	232.10	10.36	
2025-01-19 20:17:23.51	232.13	10.37	
2025-01-19 20:17:23.71	232.16	10.38	
2025-01-19 20:17:23.92	232.19	10.39	
2025-01-19 20:17:24.12	232.23	10.41	
2025-01-19 20:17:24.32	232.26	10.42	
2025-01-19 20:17:24.53	232.29	10.43	
2025-01-19 20:17:24.73	232.32	10.44	
2025-01-19 20:17:24.93	232.36	10.46	
2025-01-19 20:17:25.13	232.39	10.47	
2025-01-19 20:17:25.34	232.42	10.48	
2025-01-19 20:17:25.54	232.45	10.49	
2025-01-19 20:17:25.74	232.49	10.50	
2025-01-19 20:17:25.95	232.52	10.52	
2025-01-19 20:17:26.15	232.55	10.53	
2025-01-19 20:17:26.35	232.59	10.54	
2025-01-19 20:17:26.56	232.62	10.55	
2025-01-19 20:17:26.76	232.65	10.57	
2025-01-19 20:17:26.96	232.68	10.58	
2025-01-19 20:17:27.17	232.72	10.59	
2025-01-19 20:17:27.37	232.75	10.60	
2025-01-19 20:17:27.57	232.78	10.62	
2025-01-19 20:17:27.77	232.82	10.63	
2025-01-19 20:17:27.98	232.85	10.64	
2025-01-19 20:17:28.18	232.88	10.65	
2025-01-19 20:17:28.38	232.92	10.67	
2025-01-19 20:17:28.59	232.95	10.68	
2025-01-19 20:17:28.79	232.98	10.69	
2025-01-19 20:17:28.99	233.02	10.70	
2025-01-19 20:17:29.20	233.05	10.71	
2025-01-19 20:17:29.40	233.08	10.73	
2025-01-19 20:17:29.60	233.12	10.74	
2025-01-19 20:17:29.81	233.15	10.75	
2025-01-19 20:17:30.01	233.18	10.76	
2025-01-19 20:17:30.21	233.22	10.78	
2025-01-19 20:17:30.41	233.25	10.79	
2025-01-19 20:17:30.62	233.28	10.80	
2025-01-19 20:17:30.82	233.32	10.81	
2025-01-19 20:17:31.02	233.35	10.83	
2025-01-19 20:17:31.23	233.39	10.84	
2025-01-19 20:17:31.43	233.42	10.85	
2025-01-19 20:17:31.63	233.45	10.86	
2025-01-19 20:17:31.84	233.49	10.88	
2025-01-19 20:17:32.04	233.52	10.89	
2025-01-19 20:17:32.24	233.55	10.90	
2025-01-19 20:17:32.45	233.59	10.91	
2025-01-19 20:17:32.65	233.62	10.92	
2025-01-19 20:17:32.85	233.65	10.94	
2025-01-19 20:17:33.05	233.69	10.95	
2025-01-19 20:17:33.26	233.72	10.96	
2025-01-19 20:17:33.46	233.76	10.97	
2025-01-19 20:17:33.66	233.79	10.99	
2025-01-19 20:17:33.87	233.82	11.00	
2025-01-19 20:17:34.07	233.86	11.01	
2025-01-19 20:17:34.27	233.89	11.02	
2025-01-19 20:17:34.48	233.93	11.04	
2025-01-19 20:17:34.68	233.96	11.05	
2025-01-19 20:17:34.88	233.99	11.06	
2025-01-19 20:17:35.09	234.03	11.07	
2025-01-19 20:17:35.29	234.06	11.08	
2025-01-19 20:17:35.49	234.10	11.10	
2025-01-19 20:17:35.69	234.13	11.11	
2025-01-19 20:17:35.90	234.17	11.12	
2025-01-19 20:17:36.10	234.20	11.13	
2025-01-19 20:17:36.30	234.23	11.15	
2025-01-19 20:17:36.51	234.27	11.16	
2025-01-19 20:17:36.71	234.30	11.17	
2025-01-19 20:17:36.91	234.34	11.18	
2025-01-19 20:17:37.12	234.37	11.20	
2025-01-19 20:17:37.32	234.41	11.21	
2025-01-19 20:17:37.52	234.44	11.22	
2025-01-19 20:17:37.73	234.48	11.23	
2025-01-19 20:17:37.93	234.51	11.24	
2025-01-19 20:17:38.13	234.54	11.26	
2025-01-19 20:17:38.33	234.58	11.27	
2025-01-19 20:17:38.54	234.61	11.28	
2025-01-19 20:17:38.74	234.65	11.29	
2025-01-19 20:17:38.94	234.68	11.31	
2025-01-19 20:17:39.15	234.72	11.32	
2025-01-19 20:17:39.35	234.75	11.33	
2025-01-19 20:17:39.55	234.79	11.34	
2025-01-19 20:17:39.76	234.82	11.35	
2025-01-19 20:17:39.96	234.86	11.37	
2025-01-19 20:17:40.16	234.89	11.38	
2025-01-19 20:17:40.37	234.93	11.39	
2025-01-19 20:17:40.57	234.96	11.40	
2025-01-19 20:17:40.77	235.00	11.42	
2025-01-19 20:17:40.97	235.03	11.43	
2025-01-19 20:17:41.18	235.07	11.44	
2025-01-19 20:17:41.38	235.10	11.45	
2025-01-19 20:17:41.58	235.14	11.46	
2025-01-19 20:17:41.79	235.17	11.48	
2025-01-19 20:17:41.99	235.21	11.49	
2025-01-19 20:17:42.19	235.24	11.50	
2025-01-19 20:17:42.40	235.28	11.51	
2025-01-19 20:17:42.60	235.31	11.53	
2025-01-19 20:17:42.80	235.35	11.54	
2025-01-19 20:17:43.01	235.39	11.55	
2025-01-19 20:17:43.21	235.42	11.56	
2025-01-19 20:17:43.41	235.46	11.57	
2025-01-19 20:17:43.62	235.49	11.59	
2025-01-19 20:17:43.82	235.53	11.60	
2025-01-19 20:17:44.02	235.56	11.61	
2025-01-19 20:17:44.22	235.60	11.62	
2025-01-19 20:17:44.43	235.63	11.64	
2025-01-19 20:17:44.63	235.67	11.65	
2025-01-19 20:17:44.83	235.70	11.66	
2025-01-19 20:17:45.04	235.74	11.67	
2025-01-19 20:17:45.24	235.78	11.68	
2025-01-19 20:17:45.44	235.81	11.70	
2025-01-19 20:17:45.65	235.85	11.71	
2025-01-19 20:17:45.85	235.88	11.72	
2025-01-19 20:17:46.05	235.92	11.73	
2025-01-19 20:17:46.26	235.96	11.75	
2025-01-19 20:17:46.46	235.99	11.76	
2025-01-19 20:17:46.66	236.03	11.77	
2025-01-19 20:17:46.86	236.06	11.78	
2025-01-19 20:17:47.07	236.10	11.79	
2025-01-19 20:17:47.27	236.13	11.81	
2025-01-19 20:17:47.47	236.17	11.82	
2025-01-19 20:17:47.68	236.21	11.83	
2025-01-19 20:17:47.88	236.24	11.84	
2025-01-19 20:17:48.08	236.28	11.86	
2025-01-19 20:17:48.29	236.32	11.87	
2025-01-19 20:17:48.49	236.35	11.88	
2025-01-19 20:17:48.69	236.39	11.89	
2025-01-19 20:17:48.90	236.42	11.90	
2025-01-19 20:17:49.10	236.46	11.92	
2025-01-19 20:17:49.30	236.50	11.93	
2025-01-19 20:17:49.50	236.53	11.94	
2025-01-19 20:17:49.71	236.57	11.95	
2025-01-19 20:17:49.91	236.61	11.96	
2025-01-19 20:17:50.11	236.64	11.98	
2025-01-19 20:17:50.32	236.68	11.99	
2025-01-19 20:17:50.52	236.71	12.00	
2025-01-19 20:17:50.72	236.75	12.01	
2025-01-19 20:17:50.93	236.79	12.03	
2025-01-19 20:17:51.13	236.82	12.04	
2025-01-19 20:17:51.33	236.86	12.05	
2025-01-19 20:17:51.54	236.90	12.06	
2025-01-19 20:17:51.74	236.93	12.07	
2025-01-19 20:17:51.94	236.97	12.09	
2025-01-19 20:17:52.14	237.01	12.10	
2025-01-19 20:17:52.35	237.04	12.11	
2025-01-19 20:17:52.55	237.08	12.12	
2025-01-19 20:17:52.75	237.12	12.13	
2025-01-19 20:17:52.96	237.16	12.15	
2025-01-19 20:17:53.16	237.19	12.16	
2025-01-19 20:17:53.36	237.23	12.17	
2025-01-19 20:17:53.57	237.27	12.18	
2025-01-19 20:17:53.77	237.30	12.19	
2025-01-19 20:17:53.97	237.34	12.21	
2025-01-19 20:17:54.18	237.38	12.22	
2025-01-19 20:17:54.38	237.41	12.23	
2025-01-19 20:17:54.58	237.45	12.24	
2025-01-19 20:17:54.78	237.49	12.25	
2025-01-19 20:17:54.99	237.53	12.27	
2025-01-19 20:17:55.19	237.56	12.28	
2025-01-19 20:17:55.39	237.60	12.29	
2025-01-19 20:17:55.60	237.64	12.30	
2025-01-19 20:17:55.80	237.67	12.31	
2025-01-19 20:17:56.00	237.71	12.33	
2025-01-19 20:17:56.21	237.75	12.34	
2025-01-19 20:17:56.41	237.79	12.35	
2025-01-19 20:17:56.61	237.82	12.36	
2025-01-19 20:17:56.82	237.86	12.38	
2025-01-19 20:17:57.02	237.90	12.39	
2025-01-19 20:17:57.22	237.94	12.40	
2025-01-19 20:17:57.42	237.97	12.41	
2025-01-19 20:17:57.63	238.01	12.42	
2025-01-19 20:17:57.83	238.05	12.43	
2025-01-19 20:17:58.03	238.09	12.45	
2025-01-19 20:17:58.24	238.13	12.46	
2025-01-19 20:17:58.44	238.16	12.47	
2025-01-19 20:17:58.64	238.20	12.48	
2025-01-19 20:17:58.85	238.24	12.49	
2025-01-19 20:17:59.05	238.28	12.51	
2025-01-19 20:17:59.25	238.31	12.52	
2025-01-19 20:17:59.46	238.35	12.53	
2025-01-19 20:17:59.66	238.39	12.54	
2025-01-19 20:17:59.86	238.43	12.55	
2025-01-19 20:18:00.06	238.46	12.57	
2025-01-19 20:18:00.27	238.50	12.58	
2025-01-19 20:18:00.47	238.54	12.59	
2025-01-19 20:18:00.67	238.58	12.60	
2025-01-19 20:18:00.88	238.62	12.61	
2025-01-19 20:18:01.08	238.66	12.63	
2025-01-19 20:18:01.28	238.69	12.64	
2025-01-19 20:18:01.49	238.73	12.65	
2025-01-19 20:18:01.69	238.77	12.66	
2025-01-19 20:18:01.89	238.81	12.67	
2025-01-19 20:18:02.10	238.85	12.69	
2025-01-19 20:18:02.30	238.89	12.70	
2025-01-19 20:18:02.50	238.92	12.71	
2025-01-19 20:18:02.70	238.96	12.72	
2025-01-19 20:18:02.91	239.00	12.73	
2025-01-19 20:18:03.11	239.04	12.74	
2025-01-19 20:18:03.31	239.08	12.76	
2025-01-19 20:18:03.52	239.12	12.77	
2025-01-19 20:18:03.72	239.15	12.78	
2025-01-19 20:18:03.92	239.19	12.79	
2025-01-19 20:18:04.13	239.23	12.80	
2025-01-19 20:18:04.33	239.27	12.82	
2025-01-19 20:18:04.53	239.31	12.83	
2025-01-19 20:18:04.74	239.35	12.84	
2025-01-19 20:18:04.94	239.39	12.85	
2025-01-19 20:18:05.14	239.43	12.86	
2025-01-19 20:18:05.35	239.47	12.88	
2025-01-19 20:18:05.55	239.50	12.89	
2025-01-19 20:18:05.75	239.54	12.90	
2025-01-19 20:18:05.95	239.58	12.91	
2025-01-19 20:18:06.16	239.62	12.92	
2025-01-19 20:18:06.36	239.66	12.93	
2025-01-19 20:18:06.56	239.70	12.95	
2025-01-19 20:18:06.77	239.74	12.96	
2025-01-19 20:18:06.97	239.78	12.97	
2025-01-19 20:18:07.17	239.82	12.98	
2025-01-19 20:18:07.38	239.86	12.99	
2025-01-19 20:18:07.58	239.89	13.00	
2025-01-19 20:18:07.78	239.93	13.02	
2025-01-19 20:18:07.99	239.97	13.03	
2025-01-19 20:18:08.19	240.01	13.04	
2025-01-19 20:18:08.39	240.05	13.05	
2025-01-19 20:18:08.59	240.09	13.06	
2025-01-19 20:18:08.80	240.13	13.08	
2025-01-19 20:18:09.00	240.17	13.09	
2025-01-19 20:18:09.20	240.21	13.10	
2025-01-19 20:18:09.41	240.25	13.11	
2025-01-19 20:18:09.61	240.29	13.12	
2025-01-19 20:18:09.81	240.33	13.13	
2025-01-19 20:18:10.02	240.37	13.15	
2025-01-19 20:18:10.22	240.41	13.16	
2025-01-19 20:18:10.42	240.45	13.17	
2025-01-19 20:18:10.63	240.49	13.18	
2025-01-19 20:18:10.83	240.53	13.19	
2025-01-19 20:18:11.03	240.56	13.20	
2025-01-19 20:18:11.23	240.60	13.22	
2025-01-19 20:18:11.44	240.65	13.23	
2025-01-19 20:18:11.64	240.68	13.24	
2025-01-19 20:18:11.84	240.72	13.25	
2025-01-19 20:18:12.05	240.76	13.26	
2025-01-19 20:18:12.25	240.80	13.27	
2025-01-19 20:18:12.45	240.84	13.29	
2025-01-19 20:18:12.66	240.88	13.30	
2025-01-19 20:18:12.86	240.92	13.31	
2025-01-19 20:18:13.06	240.96	13.32	
2025-01-19 20:18:13.27	241.01	13.33	
2025-01-19 20:18:13.47	241.04	13.34	
2025-01-19 20:18:13.67	241.08	13.35	
2025-01-19 20:18:13.87	241.12	13.37	
2025-01-19 20:18:14.08	241.17	13.38	
2025-01-19 20:18:14.28	241.21	13.39	
2025-01-19 20:18:14.48	241.24	13.40	
2025-01-19 20:18:14.69	241.29	13.41	
2025-01-19 20:18:14.89	241.33	13.42	
2025-01-19 20:18:15.09	241.37	13.44	
2025-01-19 20:18:15.30	241.41	13.45	
2025-01-19 20:18:15.50	241.45	13.46	
2025-01-19 20:18:15.70	241.49	13.47	
2025-01-19 20:18:15.91	241.53	13.48	
2025-01-19 20:18:16.11	241.57	13.49	
2025-01-19 20:18:16.31	241.61	13.50	
2025-01-19 20:18:16.51	241.65	13.52	
2025-01-19 20:18:16.72	241.69	13.53	
2025-01-19 20:18:16.92	241.73	13.54	
2025-01-19 20:18:17.12	241.77	13.55	
2025-01-19 20:18:17.33	241.81	13.56	
2025-01-19 20:18:17.53	241.85	13.57	
2025-01-19 20:18:17.73	241.89	13.58	
2025-01-19 20:18:17.94	241.94	13.60	
2025-01-19 20:18:18.14	241.98	13.61	
2025-01-19 20:18:18.34	242.02	13.62	
2025-01-19 20:18:18.55	242.06	13.63	
2025-01-19 20:18:18.75	242.10	13.64	
2025-01-19 20:18:18.95	242.14	13.65	
2025-01-19 20:18:19.15	242.18	13.66	
2025-01-19 20:18:19.36	242.22	13.68	
2025-01-19 20:18:19.56	242.26	13.69	
2025-01-19 20:18:19.76	242.30	13.70	
2025-01-19 20:18:19.97	242.35	13.71	
2025-01-19 20:18:20.17	242.39	13.72	
2025-01-19 20:18:20.37	242.43	13.73	
2025-01-19 20:18:20.58	242.47	13.75	
2025-01-19 20:18:20.78	242.51	13.76	
2025-01-19 20:18:20.98	242.55	13.77	
2025-01-19 20:18:21.19	242.59	13.78	
2025-01-19 20:18:21.39	242.64	13.79	
2025-01-19 20:18:21.59	242.68	13.80	
2025-01-19 20:18:21.79	242.72	13.81	
2025-01-19 20:18:22.00	242.76	13.82	
2025-01-19 20:18:22.20	242.80	13.84	
2025-01-19 20:18:22.40	242.84	13.85	
2025-01-19 20:18:22.61	242.88	13.86	
2025-01-19 20:18:22.81	242.93	13.87	
2025-01-19 20:18:23.01	242.97	13.88	
2025-01-19 20:18:23.22	243.01	13.89	
2025-01-19 20:18:23.42	243.05	13.90	
2025-01-19 20:18:23.62	243.09	13.91	
2025-01-19 20:18:23.83	243.14	13.93	
2025-01-19 20:18:24.03	243.18	13.94	
2025-01-19 20:18:24.23	243.22	13.95	
2025-01-19 20:18:24.43	243.26	13.96	
2025-01-19 20:18:24.64	243.30	13.97	
2025-01-19 20:18:24.84	243.34	13.98	
2025-01-19 20:18:25.04	243.38	13.99	
2025-01-19 20:18:25.25	243.43	14.00	
2025-01-19 20:18:25.45	243.47	14.02	
2025-01-19 20:18:25.65	243.51	14.03	
2025-01-19 20:18:25.86	243.55	14.04	
2025-01-19 20:18:26.06	243.60	14.05	
2025-01-19 20:18:26.26	243.64	14.06	
2025-01-19 20:18:26.47	243.68	14.07	
2025-01-19 20:18:26.67	243.72	14.08	
2025-01-19 20:18:26.87	243.76	14.09	
2025-01-19 20:18:27.08	243.81	14.10	
2025-01-19 20:18:27.28	243.85	14.12	
2025-01-19 20:18:27.48	243.89	14.13	
2025-01-19 20:18:27.68	243.93	14.14	
2025-01-19 20:18:27.89	243.98	14.15	
2025-01-19 20:18:28.09	244.02	14.16	
2025-01-19 20:18:28.29	244.06	14.17	
2025-01-19 20:18:28.50	244.11	14.18	
2025-01-19 20:18:28.70	244.15	14.19	
2025-01-19 20:18:28.90	244.19	14.20	
2025-01-19 20:18:29.11	244.23	14.22	
2025-01-19 20:18:29.31	244.28	14.23	
2025-01-19 20:18:29.51	244.32	14.24	
2025-01-19 20:18:29.72	244.36	14.25	
2025-01-19 20:18:29.92	244.40	14.26	
2025-01-19 20:18:30.12	244.45	14.27	
2025-01-19 20:18:30.32	244.49	14.28	
2025-01-19 20:18:30.53	244.53	14.29	
2025-01-19 20:18:30.73	244.58	14.30	
2025-01-19 20:18:30.93	244.62	14.31	
2025-01-19 20:18:31.14	244.66	14.32	
2025-01-19 20:18:31.34	244.70	14.34	
2025-01-19 20:18:31.54	244.75	14.35	
2025-01-19 20:18:31.75	244.79	14.36	
2025-01-19 20:18:31.95	244.83	14.37	
2025-01-19 20:18:32.15	244.88	14.38	
2025-01-19 20:18:32.36	244.92	14.39	
2025-01-19 20:18:32.56	244.96	14.40	
2025-01-19 20:18:32.76	245.01	14.41	
2025-01-19 20:18:32.96	245.05	14.42	
2025-01-19 20:18:33.17	245.09	14.43	
2025-01-19 20:18:33.37	245.14	14.44	
2025-01-19 20:18:33.57	245.18	14.46	
2025-01-19 20:18:33.78	245.22	14.47	
2025-01-19 20:18:33.98	245.27	14.48	
2025-01-19 20:18:34.18	245.31	14.49	
2025-01-19 20:18:34.39	245.35	14.50	
2025-01-19 20:18:34.59	245.40	14.51	
2025-01-19 20:18:34.79	245.44	14.52	
2025-01-19 20:18:35.00	245.49	14.53	
2025-01-19 20:18:35.20	245.53	14.54	
2025-01-19 20:18:35.40	245.57	14.55	
2025-01-19 20:18:35.60	245.61	14.56	
2025-01-19 20:18:35.81	245.66	14.57	
2025-01-19 20:18:36.01	245.70	14.58	
2025-01-19 20:18:36.21	245.75	14.60	
2025-01-19 20:18:36.42	245.79	14.61	
2025-01-19 20:18:36.62	245.83	14.62	
2025-01-19 20:18:36.82	245.88	14.63	
2025-01-19 20:18:37.03	245.92	14.64	
2025-01-19 20:18:37.23	245.97	14.65	
2025-01-19 20:18:37.43	246.01	14.66	
2025-01-19 20:18:37.64	246.05	14.67	
2025-01-19 20:18:37.84	246.10	14.68	
2025-01-19 20:18:38.04	246.14	14.69	
2025-01-19 20:18:38.24	246.19	14.70	
2025-01-19 20:18:38.45	246.23	14.71	
2025-01-19 20:18:38.65	246.27	14.72	
2025-01-19 20:18:38.85	246.32	14.73	
2025-01-19 20:18:39.06	246.36	14.74	
2025-01-19 20:18:39.26	246.41	14.75	
2025-01-19 20:18:39.46	246.45	14.77	
2025-01-19 20:18:39.67	246.50	14.78	
2025-01-19 20:18:39.87	246.54	14.79	
2025-01-19 20:18:40.07	246.58	14.80	
2025-01-19 20:18:40.28	246.63	14.81	
2025-01-19 20:18:40.48	246.67	14.82	
2025-01-19 20:18:40.68	246.72	14.83	
2025-01-19 20:18:40.88	246.76	14.84	
2025-01-19 20:18:41.09	246.81	14.85	
2025-01-19 20:18:41.29	246.85	14.86	
2025-01-19 20:18:41.49	246.90	14.87	
2025-01-19 20:18:41.70	246.94	14.88	
2025-01-19 20:18:41.90	246.99	14.89	
2025-01-19 20:18:42.10	247.03	14.90	
2025-01-19 20:18:42.31	247.08	14.91	
2025-01-19 20:18:42.51	247.12	14.92	
2025-01-19 20:18:42.71	247.16	14.93	
2025-01-19 20:18:42.92	247.21	14.94	
2025-01-19 20:18:43.12	247.26	14.95	
2025-01-19 20:18:43.32	247.30	14.96	
2025-01-19 20:18:43.52	247.34	14.97	
2025-01-19 20:18:43.73	247.39	14.98	
2025-01-19 20:18:43.93	247.43	14.99	
2025-01-19 20:18:44.13	247.48	15.00	
2025-01-19 20:18:44.34	247.53	15.02	
2025-01-19 20:18:44.54	247.57	15.03	
2025-01-19 20:18:44.74	247.61	15.04	
2025-01-19 20:18:44.95	247.66	15.05	
2025-01-19 20:18:45.15	247.71	15.06	
2025-01-19 20:18:45.35	247.75	15.07	
2025-01-19 20:18:45.56	247.80	15.08	
2025-01-19 20:18:45.76	247.84	15.09	
2025-01-19 20:18:45.96	247.89	15.10	
2025-01-19 20:18:46.16	247.93	15.11	
2025-01-19 20:18:46.37	247.98	15.12	
2025-01-19 20:18:46.57	248.02	15.13	
2025-01-19 20:18:46.77	248.07	15.14	
2025-01-19 20:18:46.98	248.12	15.15	
2025-01-19 20:18:47.18	248.16	15.16	
2025-01-19 20:18:47.38	248.20	15.17	
2025-01-19 20:18:47.59	248.25	15.18	
2025-01-19 20:18:47.79	248.30	15.19	
2025-01-19 20:18:47.99	248.34	15.20	
2025-01-19 20:18:48.20	248.39	15.21	
2025-01-19 20:18:48.40	248.43	15.22	
2025-01-19 20:18:48.60	248.48	15.23	
2025-01-19 20:18:48.80	248.52	15.24	
2025-01-19 20:18:49.01	248.57	15.25	
2025-01-19 20:18:49.21	248.62	15.26	
2025-01-19 20:18:49.41	248.66	15.27	
2025-01-19 20:18:49.62	248.71	15.28	
2025-01-19 20:18:49.82	248.75	15.29	
2025-01-19 20:18:50.02	248.80	15.30	
2025-01-19 20:18:50.23	248.85	15.31	
2025-01-19 20:18:50.43	248.89	15.32	
2025-01-19 20:18:50.63	248.94	15.33	
2025-01-19 20:18:50.84	248.99	15.34	
2025-01-19 20:18:51.04	249.03	15.35	
2025-01-19 20:18:51.24	249.08	15.36	
2025-01-19 20:18:51.45	249.13	15.37	
2025-01-19 20:18:51.65	249.17	15.38	
2025-01-19 20:18:51.85	249.22	15.39	
2025-01-19 20:18:52.05	249.26	15.40	
2025-01-19 20:18:52.26	249.31	15.41	
2025-01-19 20:18:52.46	249.36	15.42	
2025-01-19 20:18:52.66	249.40	15.43	
2025-01-19 20:18:52.87	249.45	15.44	
2025-01-19 20:18:53.07	249.49	15.45	
2025-01-19 20:18:53.27	249.54	15.46	
2025-01-19 20:18:53.48	249.59	15.47	
2025-01-19 20:18:53.68	249.63	15.48	
2025-01-19 20:18:53.88	249.68	15.49	
2025-01-19 20:18:54.09	249.73	15.50	
2025-01-19 20:18:54.29	249.77	15.51	
2025-01-19 20:18:54.49	249.82	15.52	
2025-01-19 20:18:54.69	249.87	15.52	
2025-01-19 20:18:54.90	249.92	15.53	
2025-01-19 20:18:55.10	249.96	15.54	
2025-01-19 20:18:55.30	250.01	15.55	
2025-01-19 20:18:55.51	250.06	15.56	
2025-01-19 20:18:55.71	250.10	15.57	
2025-01-19 20:18:55.91	250.15	15.58	
2025-01-19 20:18:56.12	250.20	15.59	
2025-01-19 20:18:56.32	250.24	15.60	
2025-01-19 20:18:56.52	250.29	15.61	
2025-01-19 20:18:56.73	250.34	15.62	
2025-01-19 20:18:56.93	250.38	15.63	
2025-01-19 20:18:57.13	250.43	15.64	
2025-01-19 20:18:57.33	250.48	15.65	
2025-01-19 20:18:57.54	250.53	15.66	
2025-01-19 20:18:57.75	250.57	15.67	
2025-01-19 20:18:57.96	250.62	15.68	
2025-01-19 20:18:58.16	250.67	15.69	
2025-01-19 20:18:58.36	250.72	15.70	
2025-01-19 20:18:58.56	250.76	15.71	
2025-01-19 20:18:58.77	250.81	15.72	
2025-01-19 20:18:58.97	250.86	15.73	
2025-01-19 20:18:59.17	250.91	15.74	
2025-01-19 20:18:59.38	250.95	15.74	
2025-01-19 20:18:59.58	251.00	15.75	
2025-01-19 20:18:59.78	251.05	15.76	
2025-01-19 20:18:59.99	251.10	15.77	
2025-01-19 20:19:00.19	251.14	15.78	
2025-01-19 20:19:00.39	251.19	15.79	
2025-01-19 20:19:00.60	251.24	15.80	
2025-01-19 20:19:00.80	251.29	15.81	
2025-01-19 20:19:01.00	251.33	15.82	
2025-01-19 20:19:01.20	251.38	15.83	
2025-01-19 20:19:01.41	251.43	15.84	
2025-01-19 20:19:01.61	251.48	15.85	
2025-01-19 20:19:01.81	251.52	15.86	
2025-01-19 20:19:02.02	251.57	15.87	
2025-01-19 20:19:02.22	251.62	15.87	
2025-01-19 20:19:02.42	251.67	15.88	
2025-01-19 20:19:02.63	251.72	15.89	
2025-01-19 20:19:02.83	251.76	15.90	
2025-01-19 20:19:03.03	251.81	15.91	
2025-01-19 20:19:03.24	251.86	15.92	
2025-01-19 20:19:03.44	251.91	15.93	
2025-01-19 20:19:03.64	251.96	15.94	
2025-01-19 20:19:03.84	252.00	15.95	
2025-01-19 20:19:04.05	252.05	15.96	
2025-01-19 20:19:04.25	252.10	15.97	
2025-01-19 20:19:04.45	252.15	15.97	
2025-01-19 20:19:04.66	252.20	15.98	
2025-01-19 20:19:04.86	252.25	15.99	
2025-01-19 20:19:05.06	252.29	16.00	
2025-01-19 20:19:05.27	252.34	16.01	
2025-01-19 20:19:05.47	252.39	16.02	
2025-01-19 20:19:05.67	252.44	16.03	
2025-01-19 20:19:05.88	252.49	16.04	
2025-01-19 20:19:06.08	252.54	16.05	
2025-01-19 20:19:06.28	252.58	16.05	
2025-01-19 20:19:06.48	252.63	16.06	
2025-01-19 20:19:06.69	252.68	16.07	
2025-01-19 20:19:06.89	252.73	16.08	
2025-01-19 20:19:07.09	252.78	16.09	
2025-01-19 20:19:07.30	252.83	16.10	
2025-01-19 20:19:07.50	252.88	16.11	
2025-01-19 20:19:07.70	252.92	16.12	
2025-01-19 20:19:07.91	252.97	16.13	
2025-01-19 20:19:08.11	253.02	16.13	
2025-01-19 20:19:08.31	253.07	16.14	
2025-01-19 20:19:08.52	253.12	16.15	
2025-01-19 20:19:08.72	253.17	16.16	
2025-01-19 20:19:08.92	253.22	16.17	
2025-01-19 20:19:09.12	253.27	16.18	
2025-01-19 20:19:09.33	253.32	16.19	
2025-01-19 20:19:09.53	253.36	16.20	
2025-01-19 20:19:09.73	253.41	16.20	
2025-01-19 20:19:09.94	253.46	16.21	
2025-01-19 20:19:10.14	253.51	16.22	
2025-01-19 20:19:10.34	253.56	16.23	
2025-01-19 20:19:10.55	253.61	16.24	
2025-01-19 20:19:10.75	253.66	16.25	
2025-01-19 20:19:10.95	253.71	16.26	
2025-01-19 20:19:11.16	253.76	16.26	
2025-01-19 20:19:11.36	253.81	16.27	
2025-01-19 20:19:11.56	253.85	16.28	
2025-01-19 20:19:11.76	253.90	16.29	
2025-01-19 20:19:11.97	253.95	16.30	
2025-01-19 20:19:12.17	254.00	16.31	
2025-01-19 20:19:12.37	254.05	16.31	
2025-01-19 20:19:12.58	254.10	16.32	
2025-01-19 20:19:12.78	254.15	16.33	
2025-01-19 20:19:12.98	254.20	16.34	
2025-01-19 20:19:13.19	254.25	16.35	
2025-01-19 20:19:13.39	254.30	16.36	
2025-01-19 20:19:13.59	254.35	16.36	
2025-01-19 20:19:13.80	254.40	16.37	
2025-01-19 20:19:14.00	254.45	16.38	
2025-01-19 20:19:14.20	254.50	16.39	
2025-01-19 20:19:14.40	254.55	16.40	
2025-01-19 20:19:14.61	254.60	16.41	
2025-01-19 20:19:14.81	254.65	16.41	
2025-01-19 20:19:15.01	254.70	16.42	
2025-01-19 20:19:15.22	254.75	16.43	
2025-01-19 20:19:15.42	254.80	16.44	
2025-01-19 20:19:15.62	254.84	16.45	
2025-01-19 20:19:15.83	254.90	16.46	
2025-01-19 20:19:16.03	254.95	16.46	
2025-01-19 20:19:16.23	254.99	16.47	
2025-01-19 20:19:16.44	255.05	16.48	
2025-01-19 20:19:16.64	255.10	16.49	
2025-01-19 20:19:16.84	255.14	16.50	
2025-01-19 20:19:17.05	255.20	16.50	
2025-01-19 20:19:17.25	255.25	16.51	
2025-01-19 20:19:17.45	255.29	16.52	
2025-01-19 20:19:17.65	255.34	16.53	
2025-01-19 20:19:17.86	255.40	16.54	
2025-01-19 20:19:18.06	255.45	16.54	
2025-01-19 20:19:18.26	255.49	16.55	
2025-01-19 20:19:18.47	255.55	16.56	
2025-01-19 20:19:18.67	255.60	16.57	
2025-01-19 20:19:18.87	255.65	16.58	
2025-01-19 20:19:19.08	255.70	16.58	
2025-01-19 20:19:19.28	255.75	16.59	
2025-01-19 20:19:19.48	255.80	16.60	
2025-01-19 20:19:19.69	255.85	16.61	
2025-01-19 20:19:19.89	255.90	16.61	
2025-01-19 20:19:20.09	255.95	16.62	
2025-01-19 20:19:20.29	256.00	16.63	
2025-01-19 20:19:20.50	256.05	16.64	
2025-01-19 20:19:20.70	256.10	16.65	
2025-01-19 20:19:20.90	256.15	16.65	
2025-01-19 20:19:21.11	256.20	16.66	
2025-01-19 20:19:21.31	256.25	16.67	
2025-01-19 20:19:21.51	256.30	16.68	
2025-01-19 20:19:21.72	256.35	16.68	
2025-01-19 20:19:21.92	256.40	16.69	
2025-01-19 20:19:22.12	256.45	16.70	
2025-01-19 20:19:22.33	256.51	16.71	
2025-01-19 20:19:22.53	256.56	16.71	
2025-01-19 20:19:22.73	256.61	16.72	
2025-01-19 20:19:22.93	256.66	16.73	
2025-01-19 20:19:23.14	256.71	16.74	
2025-01-19 20:19:23.34	256.76	16.74	
2025-01-19 20:19:23.54	256.81	16.75	
2025-01-19 20:19:23.75	256.86	16.76	
2025-01-19 20:19:23.95	256.91	16.77	
2025-01-19 20:19:24.15	256.96	16.77	
2025-01-19 20:19:24.36	257.01	16.78	
2025-01-19 20:19:24.56	257.06	16.79	
2025-01-19 20:19:24.76	257.11	16.80	
2025-01-19 20:19:24.97	257.17	16.80	
2025-01-19 20:19:25.17	257.22	16.81	
2025-01-19 20:19:25.37	257.27	16.82	
2025-01-19 20:19:25.57	257.32	16.83	
2025-01-19 20:19:25.78	257.37	16.83	
2025-01-19 20:19:25.98	257.42	16.84	
2025-01-19 20:19:26.18	257.47	16.85	
2025-01-19 20:19:26.39	257.52	16.85	
2025-01-19 20:19:26.59	257.57	16.86	
2025-01-19 20:19:26.79	257.62	16.87	
2025-01-19 20:19:27.00	257.68	16.88	
2025-01-19 20:19:27.20	257.73	16.88	
2025-01-19 20:19:27.40	257.78	16.89	
2025-01-19 20:19:27.61	257.83	16.90	
2025-01-19 20:19:27.81	257.88	16.90	
2025-01-19 20:19:28.01	257.93	16.91	
2025-01-19 20:19:28.21	257.98	16.92	
2025-01-19 20:19:28.42	258.04	16.93	
2025-01-19 20:19:28.62	258.09	16.93	
2025-01-19 20:19:28.82	258.14	16.94	
2025-01-19 20:19:29.03	258.19	16.95	
2025-01-19 20:19:29.23	258.24	16.95	
2025-01-19 20:19:29.43	258.29	16.96	
2025-01-19 20:19:29.64	258.35	16.97	
2025-01-19 20:19:29.84	258.40	16.97	
2025-01-19 20:19:30.04	258.45	16.98	
2025-01-19 20:19:30.25	258.50	16.99	
2025-01-19 20:19:30.45	258.55	17.00	
2025-01-19 20:19:30.65	258.60	17.00	
2025-01-19 20:19:30.85	258.65	17.01	
2025-01-19 20:19:31.06	258.71	17.02	
2025-01-19 20:19:31.26	258.76	17.02	
2025-01-19 20:19:31.46	258.81	17.03	
2025-01-19 20:19:31.67	258.86	17.04	
2025-01-19 20:19:31.87	258.91	17.04	
2025-01-19 20:19:32.07	258.97	17.05	
2025-01-19 20:19:32.28	259.02	17.06	
2025-01-19 20:19:32.48	259.07	17.06	
2025-01-19 20:19:32.68	259.12	17.07	
2025-01-19 20:19:32.89	259.18	17.08	
2025-01-19 20:19:33.09	259.23	17.08	
2025-01-19 20:19:33.29	259.28	17.09	
2025-01-19 20:19:33.49	259.33	17.10	
2025-01-19 20:19:33.70	259.38	17.10	
2025-01-19 20:19:33.90	259.43	17.11	
2025-01-19 20:19:34.10	259.49	17.11	
2025-01-19 20:19:34.31	259.54	17.12	
2025-01-19 20:19:34.51	259.59	17.13	
2025-01-19 20:19:34.71	259.64	17.13	
2025-01-19 20:19:34.92	259.70	17.14	
2025-01-19 20:19:35.12	259.75	17.15	
2025-01-19 20:19:35.32	259.80	17.15	
2025-01-19 20:19:35.53	259.85	17.16	
2025-01-19 20:19:35.73	259.90	17.17	
2025-01-19 20:19:35.93	259.96	17.17	
2025-01-19 20:19:36.13	260.01	17.18	
2025-01-19 20:19:36.34	260.06	17.18	
2025-01-19 20:19:36.54	260.11	17.19	
2025-01-19 20:19:36.74	260.17	17.20	
2025-01-19 20:19:36.95	260.22	17.20	
2025-01-19 20:19:37.15	260.27	17.21	
2025-01-19 20:19:37.35	260.32	17.22	
2025-01-19 20:19:37.56	260.38	17.22	
2025-01-19 20:19:37.76	260.43	17.23	
2025-01-19 20:19:37.96	260.48	17.23	
2025-01-19 20:19:38.17	260.54	17.24	
2025-01-19 20:19:38.37	260.59	17.25	
2025-01-19 20:19:38.57	260.64	17.25	
2025-01-19 20:19:38.77	260.69	17.26	
2025-01-19 20:19:38.98	260.74	17.26	
2025-01-19 20:19:39.18	260.80	17.27	
2025-01-19 20:19:39.38	260.85	17.28	
2025-01-19 20:19:39.59	260.90	17.28	
2025-01-19 20:19:39.79	260.96	17.29	
2025-01-19 20:19:39.99	261.01	17.29	
2025-01-19 20:19:40.20	261.06	17.30	
2025-01-19 20:19:40.40	261.11	17.31	
2025-01-19 20:19:40.60	261.17	17.31	
2025-01-19 20:19:40.81	261.22	17.32	
2025-01-19 20:19:41.01	261.27	17.32	
2025-01-19 20:19:41.21	261.32	17.33	
2025-01-19 20:19:41.42	261.38	17.34	
2025-01-19 20:19:41.62	261.43	17.34	
2025-01-19 20:19:41.82	261.48	17.35	
2025-01-19 20:19:42.02	261.54	17.35	
2025-01-19 20:19:42.23	261.59	17.36	
2025-01-19 20:19:42.43	261.64	17.36	
2025-01-19 20:19:42.63	261.69	17.37	
2025-01-19 20:19:42.84	261.75	17.37	
2025-01-19 20:19:43.04	261.80	17.38	
2025-01-19 20:19:43.24	261.85	17.39	
2025-01-19 20:19:43.45	261.91	17.39	
2025-01-19 20:19:43.65	261.96	17.40	
2025-01-19 20:19:43.85	262.01	17.40	
2025-01-19 20:19:44.06	262.07	17.41	
2025-01-19 20:19:44.26	262.12	17.41	
2025-01-19 20:19:44.46	262.17	17.42	
2025-01-19 20:19:44.66	262.23	17.42	
2025-01-19 20:19:44.87	262.28	17.43	
2025-01-19 20:19:45.07	262.33	17.43	
2025-01-19 20:19:45.27	262.39	17.44	
2025-01-19 20:19:45.48	262.44	17.45	
2025-01-19 20:19:45.68	262.49	17.45	
2025-01-19 20:19:45.88	262.55	17.46	
2025-01-19 20:19:46.09	262.60	17.46	
2025-01-19 20:19:46.29	262.65	17.47	
2025-01-19 20:19:46.49	262.71	17.47	
2025-01-19 20:19:46.70	262.76	17.48	
2025-01-19 20:19:46.90	262.81	17.48	
2025-01-19 20:19:47.10	262.87	17.49	
2025-01-19 20:19:47.30	262.92	17.49	
2025-01-19 20:19:47.51	262.97	17.50	
2025-01-19 20:19:47.71	263.03	17.50	
2025-01-19 20:19:47.91	263.08	17.51	
2025-01-19 20:19:48.12	263.14	17.51	
2025-01-19 20:19:48.32	263.19	17.52	
2025-01-19 20:19:48.52	263.24	17.52	
2025-01-19 20:19:48.73	263.30	17.53	
2025-01-19 20:19:48.93	263.35	17.53	
2025-01-19 20:19:49.13	263.40	17.54	
2025-01-19 20:19:49.34	263.46	17.54	
2025-01-19 20:19:49.54	263.51	17.55	
2025-01-19 20:19:49.74	263.56	17.55	
2025-01-19 20:19:49.94	263.62	17.56	
2025-01-19 20:19:50.15	263.67	17.56	
2025-01-19 20:19:50.35	263.72	17.57	
2025-01-19 20:19:50.55	263.78	17.57	
2025-01-19 20:19:50.76	263.83	17.58	
2025-01-19 20:19:50.96	263.89	17.58	
2025-01-19 20:19:51.16	263.94	17.59	
2025-01-19 20:19:51.37	263.99	17.59	
2025-01-19 20:19:51.57	264.05	17.60	
2025-01-19 20:19:51.77	264.10	17.60	
2025-01-19 20:19:51.98	264.16	17.60	
2025-01-19 20:19:52.18	264.21	17.61	
2025-01-19 20:19:52.38	264.26	17.61	
2025-01-19 20:19:52.58	264.32	17.62	
2025-01-19 20:19:52.79	264.37	17.62	
2025-01-19 20:19:52.99	264.42	17.63	
2025-01-19 20:19:53.19	264.48	17.63	
2025-01-19 20:19:53.40	264.53	17.64	
2025-01-19 20:19:53.60	264.59	17.64	
2025-01-19 20:19:53.80	264.64	17.64	
2025-01-19 20:19:54.01	264.70	17.65	
2025-01-19 20:19:54.21	264.75	17.65	
2025-01-19 20:19:54.41	264.80	17.66	
2025-01-19 20:19:54.62	264.86	17.66	
2025-01-19 20:19:54.82	264.91	17.67	
2025-01-19 20:19:55.02	264.97	17.67	
2025-01-19 20:19:55.22	265.02	17.67	
2025-01-19 20:19:55.43	265.07	17.68	
2025-01-19 20:19:55.63	265.13	17.68	
2025-01-19 20:19:55.83	265.18	17.69	
2025-01-19 20:19:56.04	265.24	17.69	
2025-01-19 20:19:56.24	265.29	17.70	
2025-01-19 20:19:56.44	265.34	17.70	
2025-01-19 20:19:56.65	265.40	17.70	
2025-01-19 20:19:56.85	265.45	17.71	
2025-01-19 20:19:57.05	265.51	17.71	
2025-01-19 20:19:57.26	265.56	17.72	
2025-01-19 20:19:57.46	265.62	17.72	
2025-01-19 20:19:57.66	265.67	17.72	
2025-01-19 20:19:57.86	265.72	17.73	
2025-01-19 20:19:58.07	265.78	17.73	
2025-01-19 20:19:58.27	265.83	17.74	
2025-01-19 20:19:58.47	265.89	17.74	
2025-01-19 20:19:58.68	265.94	17.74	
2025-01-19 20:19:58.88	266.00	17.75	
2025-01-19 20:19:59.08	266.05	17.75	
2025-01-19 20:19:59.29	266.11	17.76	
2025-01-19 20:19:59.49	266.16	17.76	
2025-01-19 20:19:59.69	266.21	17.76	
2025-01-19 20:19:59.90	266.27	17.77	
2025-01-19 20:20:00.10	266.32	17.77	
2025-01-19 20:20:00.30	266.38	17.77	
2025-01-19 20:20:00.50	266.43	17.78	
2025-01-19 20:20:00.71	266.49	17.78	
2025-01-19 20:20:00.91	266.54	17.78	
2025-01-19 20:20:01.11	266.59	17.79	
2025-01-19 20:20:01.32	266.65	17.79	
2025-01-19 20:20:01.52	266.71	17.80	
2025-01-19 20:20:01.72	266.76	17.80	
2025-01-19 20:20:01.93	266.82	17.80	
2025-01-19 20:20:02.13	266.87	17.81	
2025-01-19 20:20:02.33	266.92	17.81	
2025-01-19 20:20:02.54	266.98	17.81	
2025-01-19 20:20:02.74	267.03	17.82	
2025-01-19 20:20:02.94	267.09	17.82	
2025-01-19 20:20:03.14	267.14	17.82	
2025-01-19 20:20:03.35	267.20	17.83	
2025-01-19 20:20:03.55	267.25	17.83	
2025-01-19 20:20:03.75	267.31	17.83	
2025-01-19 20:20:03.96	267.36	17.84	
2025-01-19 20:20:04.16	267.42	17.84	
2025-01-19 20:20:04.36	267.47	17.84	
2025-01-19 20:20:04.57	267.53	17.85	
2025-01-19 20:20:04.77	267.58	17.85	
2025-01-19 20:20:04.97	267.63	17.85	
2025-01-19 20:20:05.18	267.69	17.86	
2025-01-19 20:20:05.38	267.74	17.86	
2025-01-19 20:20:05.58	267.80	17.86	
2025-01-19 20:20:05.79	267.86	17.86	
2025-01-19 20:20:05.99	267.91	17.87	
2025-01-19 20:20:06.19	267.96	17.87	
2025-01-19 20:20:06.39	268.02	17.87	
2025-01-19 20:20:06.60	268.07	17.88	
2025-01-19 20:20:06.80	268.13	17.88	
2025-01-19 20:20:07.00	268.18	17.88	
2025-01-19 20:20:07.21	268.24	17.88	
2025-01-19 20:20:07.41	268.29	17.89	
2025-01-19 20:20:07.61	268.35	17.89	
2025-01-19 20:20:07.82	268.40	17.89	
2025-01-19 20:20:08.02	268.46	17.90	
2025-01-19 20:20:08.22	268.51	17.90	
2025-01-19 20:20:08.43	268.57	17.90	
2025-01-19 20:20:08.63	268.62	17.90	
2025-01-19 20:20:08.83	268.68	17.91	
2025-01-19 20:20:09.03	268.73	17.91	
2025-01-19 20:20:09.24	268.79	17.91	
2025-01-19 20:20:09.44	268.84	17.91	
2025-01-19 20:20:09.64	268.90	17.92	
2025-01-19 20:20:09.85	268.95	17.92	
2025-01-19 20:20:10.05	269.01	17.92	
2025-01-19 20:20:10.25	269.06	17.92	
2025-01-19 20:20:10.46	269.12	17.93	
2025-01-19 20:20:10.66	269.17	17.93	
2025-01-19 20:20:10.86	269.23	17.93	
2025-01-19 20:20:11.07	269.28	17.93	
2025-01-19 20:20:11.27	269.34	17.94	
2025-01-19 20:20:11.47	269.39	17.94	
2025-01-19 20:20:11.67	269.45	17.94	
2025-01-19 20:20:11.88	269.50	17.94	
2025-01-19 20:20:12.08	269.56	17.95	
2025-01-19 20:20:12.28	269.61	17.95	
2025-01-19 20:20:12.49	269.67	17.95	
2025-01-19 20:20:12.69	269.72	17.95	
2025-01-19 20:20:12.89	269.78	17.96	
2025-01-19 20:20:13.10	269.84	17.96	
2025-01-19 20:20:13.30	269.89	17.96	
2025-01-19 20:20:13.50	269.94	17.96	
2025-01-19 20:20:13.71	270.00	17.96	
2025-01-19 20:20:13.91	270.06	17.97	
2025-01-19 20:20:14.11	270.11	17.97	
2025-01-19 20:20:14.31	270.16	17.97	
2025-01-19 20:20:14.52	270.22	17.97	
2025-01-19 20:20:14.72	270.28	17.97	
2025-01-19 20:20:14.92	270.33	17.98	
2025-01-19 20:20:15.13	270.39	17.98	
2025-01-19 20:20:15.33	270.44	17.98	
2025-01-19 20:20:15.53	270.50	17.98	
2025-01-19 20:20:15.74	270.55	17.98	
2025-01-19 20:20:15.94	270.61	17.99	
2025-01-19 20:20:16.14	270.66	17.99	
2025-01-19 20:20:16.35	270.72	17.99	
2025-01-19 20:20:16.55	270.77	17.99	
2025-01-19 20:20:16.75	270.83	17.99	
2025-01-19 20:20:16.95	270.88	17.99	
2025-01-19 20:20:17.16	270.94	18.00	
2025-01-19 20:20:17.36	270.99	18.00	
2025-01-19 20:20:17.56	271.05	18.00	
2025-01-19 20:20:17.77	271.11	18.00	
2025-01-19 20:20:17.97	271.16	18.00	
2025-01-19 20:20:18.17	271.22	18.00	
2025-01-19 20:20:18.38	271.27	18.01	
2025-01-19 20:20:18.58	271.33	18.01	
2025-01-19 20:20:18.78	271.38	18.01	
2025-01-19 20:20:18.99	271.44	18.01	
2025-01-19 20:20:19.19	271.49	18.01	
2025-01-19 20:20:19.39	271.55	18.01	
2025-01-19 20:20:19.59	271.60	18.01	
2025-01-19 20:20:19.80	271.66	18.02	
2025-01-19 20:20:20.00	271.71	18.02	
2025-01-19 20:20:20.20	271.77	18.02	
2025-01-19 20:20:20.41	271.83	18.02	
2025-01-19 20:20:20.61	271.88	18.02	
2025-01-19 20:20:20.81	271.94	18.02	
2025-01-19 20:20:21.02	271.99	18.02	
2025-01-19 20:20:21.22	272.05	18.02	
2025-01-19 20:20:21.42	272.10	18.02	
2025-01-19 20:20:21.63	272.16	18.03	
2025-01-19 20:20:21.83	272.21	18.03	
2025-01-19 20:20:22.03	272.27	18.03	
2025-01-19 20:20:22.23	272.32	18.03	
2025-01-19 20:20:22.44	272.38	18.03	
2025-01-19 20:20:22.64	272.43	18.03	
2025-01-19 20:20:22.84	272.49	18.03	
2025-01-19 20:20:23.05	272.55	18.03	
2025-01-19 20:20:23.25	272.60	18.03	
2025-01-19 20:20:23.45	272.66	18.04	
2025-01-19 20:20:23.66	272.71	18.04	
2025-01-19 20:20:23.86	272.77	18.04	
2025-01-19 20:20:24.06	272.82	18.04	
2025-01-19 20:20:24.27	272.88	18.04	
2025-01-19 20:20:24.47	272.93	18.04	
2025-01-19 20:20:24.67	272.99	18.04	
2025-01-19 20:20:24.87	273.04	18.04	
2025-01-19 20:20:25.08	273.10	18.04	
2025-01-19 20:20:25.28	273.16	18.04	
2025-01-19 20:20:25.48	273.21	18.04	
2025-01-19 20:20:25.69	273.27	18.04	
2025-01-19 20:20:25.89	273.32	18.04	
2025-01-19 20:20:26.09	273.38	18.04	
2025-01-19 20:20:26.30	273.43	18.05	
2025-01-19 20:20:26.50	273.49	18.05	
2025-01-19 20:20:26.70	273.54	18.05	
2025-01-19 20:20:26.91	273.60	18.05	
2025-01-19 20:20:27.11	273.66	18.05	
2025-01-19 20:20:27.31	273.71	18.05	
2025-01-19 20:20:27.52	273.77	18.05	
2025-01-19 20:20:27.72	273.82	18.05	
2025-01-19 20:20:27.92	273.88	18.05	
2025-01-19 20:20:28.12	273.93	18.05	
2025-01-19 20:20:28.33	273.99	18.05	
2025-01-19 20:20:28.53	274.04	18.05	
2025-01-19 20:20:28.73	274.10	18.05	
2025-01-19 20:20:28.94	274.16	18.05	
2025-01-19 20:20:29.14	274.21	18.05	
2025-01-19 20:20:29.34	274.26	18.05	
2025-01-19 20:20:29.55	274.32	18.05	
2025-01-19 20:20:29.75	274.38	18.05	
2025-01-19 20:20:29.95	274.43	18.05	
2025-01-19 20:20:30.16	274.49	18.05	
2025-01-19 20:20:30.36	274.54	18.05	
2025-01-19 20:20:30.56	274.60	18.05	
2025-01-19 20:20:30.76	274.65	18.05	
2025-01-19 20:20:30.97	274.71	18.05	
2025-01-19 20:20:31.17	274.76	18.05	
2025-01-19 20:20:31.37	274.82	18.05	
2025-01-19 20:20:31.58	274.88	18.05	
2025-01-19 20:20:31.78	274.93	18.05	
2025-01-19 20:20:31.98	274.99	18.05	
2025-01-19 20:20:32.19	275.04	18.05	
2025-01-19 20:20:32.39	275.10	18.05	
2025-01-19 20:20:32.59	275.15	18.05	
2025-01-19 20:20:32.80	275.21	18.05	
2025-01-19 20:20:33.00	275.26	18.05	
2025-01-19 20:20:33.20	275.32	18.05	
2025-01-19 20:20:33.40	275.37	18.05	
2025-01-19 20:20:33.61	275.43	18.05	
2025-01-19 20:20:33.81	275.49	18.05	
2025-01-19 20:20:34.01	275.54	18.05	
2025-01-19 20:20:34.22	275.60	18.05	
2025-01-19 20:20:34.42	275.65	18.05	
2025-01-19 20:20:34.62	275.71	18.05	
2025-01-19 20:20:34.83	275.76	18.05	
2025-01-19 20:20:35.03	275.82	18.05	
2025-01-19 20:20:35.23	275.87	18.04	
2025-01-19 20:20:35.44	275.93	18.04	
2025-01-19 20:20:35.64	275.99	18.04	
2025-01-19 20:20:35.84	276.04	18.04	
2025-01-19 20:20:36.04	276.10	18.04	
2025-01-19 20:20:36.25	276.15	18.04	
2025-01-19 20:20:36.45	276.21	18.04	
2025-01-19 20:20:36.65	276.26	18.04	
2025-01-19 20:20:36.86	276.32	18.04	
2025-01-19 20:20:37.06	276.37	18.04	
2025-01-19 20:20:37.26	276.43	18.04	
2025-01-19 20:20:37.47	276.49	18.04	
2025-01-19 20:20:37.67	276.54	18.04	
2025-01-19 20:20:37.87	276.59	18.04	
2025-01-19 20:20:38.08	276.65	18.03	
2025-01-19 20:20:38.28	276.71	18.03	
2025-01-19 20:20:38.48	276.76	18.03	
2025-01-19 20:20:38.68	276.82	18.03	
2025-01-19 20:20:38.89	276.87	18.03	
2025-01-19 20:20:39.09	276.93	18.03	
2025-01-19 20:20:39.29	276.98	18.03	
2025-01-19 20:20:39.50	277.04	18.03	
2025-01-19 20:20:39.70	277.09	18.03	
2025-01-19 20:20:39.90	277.15	18.03	
2025-01-19 20:20:40.11	277.21	18.02	
2025-01-19 20:20:40.31	277.26	18.02	
2025-01-19 20:20:40.51	277.31	18.02	
2025-01-19 20:20:40.72	277.37	18.02	
2025-01-19 20:20:40.92	277.43	18.02	
2025-01-19 20:20:41.12	277.48	18.02	
2025-01-19 20:20:41.32	277.54	18.02	
2025-01-19 20:20:41.53	277.59	18.02	
2025-01-19 20:20:41.73	277.65	18.01	
2025-01-19 20:20:41.93	277.70	18.01	
2025-01-19 20:20:42.14	277.76	18.01	
2025-01-19 20:20:42.34	277.81	18.01	
2025-01-19 20:20:42.54	277.87	18.01	
2025-01-19 20:20:42.75	277.93	18.01	
2025-01-19 20:20:42.95	277.98	18.01	
2025-01-19 20:20:43.15	278.03	18.00	
2025-01-19 20:20:43.36	278.09	18.00	
2025-01-19 20:20:43.56	278.15	18.00	
2025-01-19 20:20:43.76	278.20	18.00	
2025-01-19 20:20:43.96	278.25	18.00	
2025-01-19 20:20:44.17	278.31	18.00	
2025-01-19 20:20:44.37	278.37	17.99	
2025-01-19 20:20:44.57	278.42	17.99	
2025-01-19 20:20:44.78	278.48	17.99	
2025-01-19 20:20:44.98	278.53	17.99	
2025-01-19 20:20:45.18	278.59	17.99	
2025-01-19 20:20:45.39	278.64	17.99	
2025-01-19 20:20:45.59	278.70	17.98	
2025-01-19 20:20:45.79	278.75	17.98	
2025-01-19 20:20:46.00	278.81	17.98	
2025-01-19 20:20:46.20	278.86	17.98	
2025-01-19 20:20:46.40	278.92	17.98	
2025-01-19 20:20:46.60	278.97	17.97	
2025-01-19 20:20:46.81	279.03	17.97	
2025-01-19 20:20:47.01	279.08	17.97	
2025-01-19 20:20:47.21	279.14	17.97	
2025-01-19 20:20:47.42	279.20	17.97	
2025-01-19 20:20:47.62	279.25	17.96	
2025-01-19 20:20:47.82	279.30	17.96	
2025-01-19 20:20:48.03	279.36	17.96	
2025-01-19 20:20:48.23	279.42	17.96	
2025-01-19 20:20:48.43	279.47	17.96	
2025-01-19 20:20:48.64	279.53	17.95	
2025-01-19 20:20:48.84	279.58	17.95	
2025-01-19 20:20:49.04	279.64	17.95	
2025-01-19 20:20:49.25	279.69	17.95	
2025-01-19 20:20:49.45	279.75	17.94	
2025-01-19 20:20:49.65	279.80	17.94	
2025-01-19 20:20:49.85	279.85	17.94	
2025-01-19 20:20:50.06	279.91	17.94	
2025-01-19 20:20:50.26	279.97	17.94	
2025-01-19 20:20:50.46	280.02	17.93	
2025-01-19 20:20:50.67	280.08	17.93	
2025-01-19 20:20:50.87	280.13	17.93	
2025-01-19 20:20:51.07	280.19	17.93	
2025-01-19 20:20:51.28	280.24	17.92	
2025-01-19 20:20:51.48	280.30	17.92	
2025-01-19 20:20:51.68	280.35	17.92	
2025-01-19 20:20:51.89	280.41	17.92	
2025-01-19 20:20:52.09	280.46	17.91	
2025-01-19 20:20:52.29	280.52	17.91	
2025-01-19 20:20:52.49	280.57	17.91	
2025-01-19 20:20:52.70	280.63	17.90	
2025-01-19 20:20:52.90	280.68	17.90	
2025-01-19 20:20:53.10	280.73	17.90	
2025-01-19 20:20:53.31	280.79	17.90	
2025-01-19 20:20:53.51	280.85	17.89	
2025-01-19 20:20:53.71	280.90	17.89	
2025-01-19 20:20:53.92	280.96	17.89	
2025-01-19 20:20:54.12	281.01	17.89	
2025-01-19 20:20:54.32	281.06	17.88	
2025-01-19 20:20:54.53	281.12	17.88	
2025-01-19 20:20:54.73	281.17	17.88	
2025-01-19 20:20:54.93	281.23	17.87	
2025-01-19 20:20:55.13	281.28	17.87	
2025-01-19 20:20:55.34	281.34	17.87	
2025-01-19 20:20:55.54	281.39	17.87	
2025-01-19 20:20:55.74	281.45	17.86	
2025-01-19 20:20:55.95	281.50	17.86	
2025-01-19 20:20:56.15	281.56	17.86	
2025-01-19 20:20:56.35	281.61	17.85	
2025-01-19 20:20:56.56	281.67	17.85	
2025-01-19 20:20:56.76	281.72	17.85	
2025-01-19 20:20:56.96	281.78	17.84	
2025-01-19 20:20:57.17	281.83	17.84	
2025-01-19 20:20:57.37	281.89	17.84	
2025-01-19 20:20:57.57	281.94	17.83	
2025-01-19 20:20:57.77	281.99	17.83	
2025-01-19 20:20:57.98	282.05	17.83	
2025-01-19 20:20:58.18	282.10	17.82	
2025-01-19 20:20:58.38	282.16	17.82	
2025-01-19 20:20:58.59	282.21	17.82	
2025-01-19 20:20:58.79	282.27	17.81	
2025-01-19 20:20:58.99	282.32	17.81	
2025-01-19 20:20:59.20	282.38	17.81	
2025-01-19 20:20:59.40	282.43	17.80	
2025-01-19 20:20:59.60	282.49	17.80	
2025-01-19 20:20:59.81	282.54	17.80	
2025-01-19 20:21:00.01	282.60	17.79	
2025-01-19 20:21:00.23	282.65	17.79	
2025-01-19 20:21:00.43	282.71	17.79	
2025-01-19 20:21:00.63	282.76	17.78	
2025-01-19 20:21:00.84	282.82	17.78	
2025-01-19 20:21:01.04	282.87	17.77	
2025-01-19 20:21:01.24	282.92	17.77	
2025-01-19 20:21:01.45	282.98	17.77	
2025-01-19 20:21:01.65	283.03	17.76	
2025-01-19 20:21:01.85	283.09	17.76	
2025-01-19 20:21:02.05	283.14	17.76	
2025-01-19 20:21:02.26	283.20	17.75	
2025-01-19 20:21:02.46	283.25	17.75	
2025-01-19 20:21:02.66	283.30	17.74	
2025-01-19 20:21:02.87	283.36	17.74	
2025-01-19 20:21:03.07	283.41	17.74	
2025-01-19 20:21:03.27	283.47	17.73	
2025-01-19 20:21:03.48	283.52	17.73	
2025-01-19 20:21:03.68	283.58	17.73	
2025-01-19 20:21:03.88	283.63	17.72	
2025-01-19 20:21:04.09	283.69	17.72	
2025-01-19 20:21:04.29	283.74	17.71	
2025-01-19 20:21:04.49	283.79	17.71	
2025-01-19 20:21:04.70	283.85	17.71	
2025-01-19 20:21:04.90	283.90	17.70	
2025-01-19 20:21:05.10	283.96	17.70	
2025-01-19 20:21:05.30	284.01	17.69	
2025-01-19 20:21:05.51	284.07	17.69	
2025-01-19 20:21:05.71	284.12	17.68	
2025-01-19 20:21:05.91	284.17	17.68	
2025-01-19 20:21:06.12	284.23	17.68	
2025-01-19 20:21:06.32	284.28	17.67	
2025-01-19 20:21:06.52	284.33	17.67	
2025-01-19 20:21:06.73	284.39	17.66	
2025-01-19 20:21:06.93	284.44	17.66	
2025-01-19 20:21:07.13	284.50	17.65	
2025-01-19 20:21:07.34	284.55	17.65	
2025-01-19 20:21:07.54	284.61	17.65	
2025-01-19 20:21:07.74	284.66	17.64	
2025-01-19 20:21:07.94	284.71	17.64	
2025-01-19 20:21:08.15	284.77	17.63	
2025-01-19 20:21:08.35	284.82	17.63	
2025-01-19 20:21:08.55	284.87	17.62	
2025-01-19 20:21:08.76	284.93	17.62	
