passes_logs/2025/01/19/SPB_Silybum_02/SPB_Silybum_02__20250119_105448_AQUA_rec.log

#Pass ID: 20250119_105448_AQUA
#Satellite: AQUA
#Configuration: AQUA
#Start time: 2025-01-19 10:54:47

#Version: 2.0.20230423
#Station: SPB_Silybum_02
#Location: 30.233357 lon 59.946436 lat
#TLE: 1 27424U 02022A   25018.83604057  .00002232  00000+0  46784-3 0  9994
#TLE: 2 27424  98.3597 335.5348 0001881 107.7354 281.6526 14.60700248208189

#Time	Az	El	Level	Level2	SNR	BER	Gain	Gain2
2025-01-19 10:54:49.55	145.76	4.06	
2025-01-19 10:54:49.75	145.75	4.07	
2025-01-19 10:54:49.96	145.75	4.09	
2025-01-19 10:54:50.16	145.74	4.10	
2025-01-19 10:54:50.36	145.74	4.12	
2025-01-19 10:54:50.57	145.74	4.13	
2025-01-19 10:54:50.77	145.73	4.15	
2025-01-19 10:54:50.97	145.73	4.16	
2025-01-19 10:54:51.18	145.72	4.18	
2025-01-19 10:54:51.38	145.72	4.19	
2025-01-19 10:54:51.58	145.71	4.21	
2025-01-19 10:54:51.79	145.71	4.22	
2025-01-19 10:54:51.99	145.70	4.24	
2025-01-19 10:54:52.19	145.70	4.25	
2025-01-19 10:54:52.39	145.69	4.26	
2025-01-19 10:54:52.60	145.69	4.28	
2025-01-19 10:54:52.80	145.68	4.29	
2025-01-19 10:54:53.00	145.68	4.31	
2025-01-19 10:54:53.21	145.68	4.32	
2025-01-19 10:54:53.41	145.67	4.34	
2025-01-19 10:54:53.61	145.67	4.35	
2025-01-19 10:54:53.82	145.66	4.37	
2025-01-19 10:54:54.02	145.66	4.38	
2025-01-19 10:54:54.22	145.65	4.40	
2025-01-19 10:54:54.43	145.65	4.41	
2025-01-19 10:54:54.63	145.64	4.43	
2025-01-19 10:54:54.83	145.64	4.44	
2025-01-19 10:54:55.03	145.63	4.46	
2025-01-19 10:54:55.24	145.63	4.47	
2025-01-19 10:54:55.44	145.62	4.49	
2025-01-19 10:54:55.64	145.62	4.50	
2025-01-19 10:54:55.85	145.61	4.52	
2025-01-19 10:54:56.05	145.61	4.53	
2025-01-19 10:54:56.25	145.60	4.54	
2025-01-19 10:54:56.46	145.60	4.56	
2025-01-19 10:54:56.66	145.59	4.57	
2025-01-19 10:54:56.86	145.59	4.59	
2025-01-19 10:54:57.07	145.58	4.60	
2025-01-19 10:54:57.27	145.58	4.62	
2025-01-19 10:54:57.47	145.58	4.63	
2025-01-19 10:54:57.67	145.57	4.65	
2025-01-19 10:54:57.88	145.57	4.66	
2025-01-19 10:54:58.08	145.56	4.68	
2025-01-19 10:54:58.28	145.56	4.69	
2025-01-19 10:54:58.49	145.55	4.71	
2025-01-19 10:54:58.69	145.55	4.72	
2025-01-19 10:54:58.89	145.54	4.74	
2025-01-19 10:54:59.10	145.54	4.75	
2025-01-19 10:54:59.30	145.53	4.77	
2025-01-19 10:54:59.50	145.53	4.78	
2025-01-19 10:54:59.71	145.52	4.80	
2025-01-19 10:54:59.91	145.52	4.81	
2025-01-19 10:55:00.11	145.51	4.83	
2025-01-19 10:55:00.31	145.51	4.84	
2025-01-19 10:55:00.52	145.50	4.86	
2025-01-19 10:55:00.72	145.50	4.87	
2025-01-19 10:55:00.92	145.49	4.89	
2025-01-19 10:55:01.13	145.49	4.90	
2025-01-19 10:55:01.33	145.48	4.92	
2025-01-19 10:55:01.53	145.48	4.93	
2025-01-19 10:55:01.74	145.47	4.95	
2025-01-19 10:55:01.94	145.47	4.96	
2025-01-19 10:55:02.14	145.46	4.98	
2025-01-19 10:55:02.35	145.46	4.99	
2025-01-19 10:55:02.55	145.45	5.01	
2025-01-19 10:55:02.75	145.45	5.02	
2025-01-19 10:55:02.96	145.44	5.04	
2025-01-19 10:55:03.16	145.44	5.05	
2025-01-19 10:55:03.36	145.43	5.07	
2025-01-19 10:55:03.56	145.43	5.08	
2025-01-19 10:55:03.77	145.42	5.10	
2025-01-19 10:55:03.97	145.42	5.12	
2025-01-19 10:55:04.17	145.41	5.13	
2025-01-19 10:55:04.38	145.41	5.15	
2025-01-19 10:55:04.58	145.40	5.16	
2025-01-19 10:55:04.78	145.40	5.18	
2025-01-19 10:55:04.99	145.39	5.19	
2025-01-19 10:55:05.19	145.39	5.21	
2025-01-19 10:55:05.39	145.38	5.22	
2025-01-19 10:55:05.59	145.38	5.24	
2025-01-19 10:55:05.80	145.37	5.25	
2025-01-19 10:55:06.00	145.37	5.27	
2025-01-19 10:55:06.20	145.36	5.28	
2025-01-19 10:55:06.41	145.36	5.30	
2025-01-19 10:55:06.61	145.35	5.31	
2025-01-19 10:55:06.81	145.35	5.33	
2025-01-19 10:55:07.02	145.34	5.34	
2025-01-19 10:55:07.22	145.34	5.36	
2025-01-19 10:55:07.42	145.33	5.37	
2025-01-19 10:55:07.63	145.33	5.39	
2025-01-19 10:55:07.83	145.32	5.41	
2025-01-19 10:55:08.03	145.32	5.42	
2025-01-19 10:55:08.24	145.31	5.44	
2025-01-19 10:55:08.44	145.31	5.45	
2025-01-19 10:55:08.64	145.30	5.47	
2025-01-19 10:55:08.84	145.30	5.48	
2025-01-19 10:55:09.05	145.29	5.50	
2025-01-19 10:55:09.25	145.29	5.51	
2025-01-19 10:55:09.45	145.28	5.53	
2025-01-19 10:55:09.66	145.28	5.54	
2025-01-19 10:55:09.86	145.27	5.56	
2025-01-19 10:55:10.06	145.27	5.57	
2025-01-19 10:55:10.27	145.26	5.59	
2025-01-19 10:55:10.47	145.25	5.61	
2025-01-19 10:55:10.67	145.25	5.62	
2025-01-19 10:55:10.88	145.24	5.64	
2025-01-19 10:55:11.08	145.24	5.65	
2025-01-19 10:55:11.28	145.23	5.67	
2025-01-19 10:55:11.48	145.23	5.68	
2025-01-19 10:55:11.69	145.22	5.70	
2025-01-19 10:55:11.89	145.22	5.71	
2025-01-19 10:55:12.09	145.21	5.73	
2025-01-19 10:55:12.30	145.21	5.75	
2025-01-19 10:55:12.50	145.20	5.76	
2025-01-19 10:55:12.70	145.20	5.78	
2025-01-19 10:55:12.91	145.19	5.79	
2025-01-19 10:55:13.11	145.19	5.81	
2025-01-19 10:55:13.31	145.18	5.82	
2025-01-19 10:55:13.52	145.18	5.84	
2025-01-19 10:55:13.72	145.17	5.86	
2025-01-19 10:55:13.92	145.17	5.87	
2025-01-19 10:55:14.12	145.16	5.89	
2025-01-19 10:55:14.33	145.15	5.90	
2025-01-19 10:55:14.53	145.15	5.92	
2025-01-19 10:55:14.73	145.14	5.93	
2025-01-19 10:55:14.94	145.14	5.95	
2025-01-19 10:55:15.14	145.13	5.96	
2025-01-19 10:55:15.34	145.13	5.98	
2025-01-19 10:55:15.55	145.12	6.00	
2025-01-19 10:55:15.75	145.12	6.01	
2025-01-19 10:55:15.95	145.11	6.03	
2025-01-19 10:55:16.16	145.11	6.04	
2025-01-19 10:55:16.36	145.10	6.06	
2025-01-19 10:55:16.56	145.10	6.08	
2025-01-19 10:55:16.76	145.09	6.09	
2025-01-19 10:55:16.97	145.08	6.11	
2025-01-19 10:55:17.17	145.08	6.12	
2025-01-19 10:55:17.37	145.07	6.14	
2025-01-19 10:55:17.58	145.07	6.15	
2025-01-19 10:55:17.78	145.06	6.17	
2025-01-19 10:55:17.98	145.06	6.19	
2025-01-19 10:55:18.19	145.05	6.20	
2025-01-19 10:55:18.39	145.05	6.22	
2025-01-19 10:55:18.59	145.04	6.23	
2025-01-19 10:55:18.80	145.04	6.25	
2025-01-19 10:55:19.00	145.03	6.27	
2025-01-19 10:55:19.20	145.02	6.28	
2025-01-19 10:55:19.40	145.02	6.30	
2025-01-19 10:55:19.61	145.01	6.31	
2025-01-19 10:55:19.81	145.01	6.33	
2025-01-19 10:55:20.01	145.00	6.34	
2025-01-19 10:55:20.22	145.00	6.36	
2025-01-19 10:55:20.42	144.99	6.38	
2025-01-19 10:55:20.62	144.99	6.39	
2025-01-19 10:55:20.83	144.98	6.41	
2025-01-19 10:55:21.03	144.97	6.43	
2025-01-19 10:55:21.23	144.97	6.44	
2025-01-19 10:55:21.44	144.96	6.46	
2025-01-19 10:55:21.64	144.96	6.47	
2025-01-19 10:55:21.84	144.95	6.49	
2025-01-19 10:55:22.04	144.95	6.51	
2025-01-19 10:55:22.25	144.94	6.52	
2025-01-19 10:55:22.45	144.94	6.54	
2025-01-19 10:55:22.65	144.93	6.55	
2025-01-19 10:55:22.86	144.92	6.57	
2025-01-19 10:55:23.06	144.92	6.59	
2025-01-19 10:55:23.26	144.91	6.60	
2025-01-19 10:55:23.47	144.91	6.62	
2025-01-19 10:55:23.67	144.90	6.63	
2025-01-19 10:55:23.87	144.90	6.65	
2025-01-19 10:55:24.08	144.89	6.67	
2025-01-19 10:55:24.28	144.88	6.68	
2025-01-19 10:55:24.48	144.88	6.70	
2025-01-19 10:55:24.68	144.87	6.72	
2025-01-19 10:55:24.89	144.87	6.73	
2025-01-19 10:55:25.09	144.86	6.75	
2025-01-19 10:55:25.29	144.86	6.76	
2025-01-19 10:55:25.50	144.85	6.78	
2025-01-19 10:55:25.70	144.84	6.80	
2025-01-19 10:55:25.90	144.84	6.81	
2025-01-19 10:55:26.11	144.83	6.83	
2025-01-19 10:55:26.31	144.83	6.85	
2025-01-19 10:55:26.51	144.82	6.86	
2025-01-19 10:55:26.72	144.82	6.88	
2025-01-19 10:55:26.92	144.81	6.89	
2025-01-19 10:55:27.12	144.80	6.91	
2025-01-19 10:55:27.32	144.80	6.93	
2025-01-19 10:55:27.53	144.79	6.94	
2025-01-19 10:55:27.73	144.79	6.96	
2025-01-19 10:55:27.93	144.78	6.98	
2025-01-19 10:55:28.14	144.77	6.99	
2025-01-19 10:55:28.34	144.77	7.01	
2025-01-19 10:55:28.54	144.76	7.03	
2025-01-19 10:55:28.75	144.76	7.04	
2025-01-19 10:55:28.95	144.75	7.06	
2025-01-19 10:55:29.15	144.75	7.07	
2025-01-19 10:55:29.36	144.74	7.09	
2025-01-19 10:55:29.56	144.73	7.11	
2025-01-19 10:55:29.76	144.73	7.12	
2025-01-19 10:55:29.96	144.72	7.14	
2025-01-19 10:55:30.17	144.72	7.16	
2025-01-19 10:55:30.37	144.71	7.17	
2025-01-19 10:55:30.57	144.70	7.19	
2025-01-19 10:55:30.78	144.70	7.21	
2025-01-19 10:55:30.98	144.69	7.22	
2025-01-19 10:55:31.18	144.69	7.24	
2025-01-19 10:55:31.39	144.68	7.26	
2025-01-19 10:55:31.59	144.67	7.27	
2025-01-19 10:55:31.79	144.67	7.29	
2025-01-19 10:55:32.00	144.66	7.31	
2025-01-19 10:55:32.20	144.66	7.32	
2025-01-19 10:55:32.40	144.65	7.34	
2025-01-19 10:55:32.60	144.64	7.36	
2025-01-19 10:55:32.81	144.64	7.37	
2025-01-19 10:55:33.01	144.63	7.39	
2025-01-19 10:55:33.21	144.63	7.41	
2025-01-19 10:55:33.42	144.62	7.42	
2025-01-19 10:55:33.62	144.61	7.44	
2025-01-19 10:55:33.82	144.61	7.46	
2025-01-19 10:55:34.03	144.60	7.47	
2025-01-19 10:55:34.23	144.60	7.49	
2025-01-19 10:55:34.43	144.59	7.51	
2025-01-19 10:55:34.64	144.58	7.52	
2025-01-19 10:55:34.84	144.58	7.54	
2025-01-19 10:55:35.04	144.57	7.56	
2025-01-19 10:55:35.24	144.57	7.57	
2025-01-19 10:55:35.45	144.56	7.59	
2025-01-19 10:55:35.65	144.55	7.61	
2025-01-19 10:55:35.85	144.55	7.62	
2025-01-19 10:55:36.06	144.54	7.64	
2025-01-19 10:55:36.26	144.53	7.66	
2025-01-19 10:55:36.46	144.53	7.68	
2025-01-19 10:55:36.67	144.52	7.69	
2025-01-19 10:55:36.87	144.52	7.71	
2025-01-19 10:55:37.07	144.51	7.73	
2025-01-19 10:55:37.28	144.50	7.74	
2025-01-19 10:55:37.48	144.50	7.76	
2025-01-19 10:55:37.68	144.49	7.78	
2025-01-19 10:55:37.88	144.48	7.79	
2025-01-19 10:55:38.09	144.48	7.81	
2025-01-19 10:55:38.29	144.47	7.83	
2025-01-19 10:55:38.49	144.47	7.85	
2025-01-19 10:55:38.70	144.46	7.86	
2025-01-19 10:55:38.90	144.45	7.88	
2025-01-19 10:55:39.10	144.45	7.90	
2025-01-19 10:55:39.31	144.44	7.91	
2025-01-19 10:55:39.51	144.43	7.93	
2025-01-19 10:55:39.71	144.43	7.95	
2025-01-19 10:55:39.92	144.42	7.97	
2025-01-19 10:55:40.12	144.42	7.98	
2025-01-19 10:55:40.32	144.41	8.00	
2025-01-19 10:55:40.52	144.40	8.02	
2025-01-19 10:55:40.73	144.40	8.03	
2025-01-19 10:55:40.93	144.39	8.05	
2025-01-19 10:55:41.13	144.38	8.07	
2025-01-19 10:55:41.34	144.38	8.09	
2025-01-19 10:55:41.54	144.37	8.10	
2025-01-19 10:55:41.74	144.36	8.12	
2025-01-19 10:55:41.95	144.36	8.14	
2025-01-19 10:55:42.15	144.35	8.15	
2025-01-19 10:55:42.35	144.35	8.17	
2025-01-19 10:55:42.56	144.34	8.19	
2025-01-19 10:55:42.76	144.33	8.21	
2025-01-19 10:55:42.96	144.33	8.22	
2025-01-19 10:55:43.16	144.32	8.24	
2025-01-19 10:55:43.37	144.31	8.26	
2025-01-19 10:55:43.57	144.31	8.27	
2025-01-19 10:55:43.77	144.30	8.29	
2025-01-19 10:55:43.98	144.29	8.31	
2025-01-19 10:55:44.18	144.29	8.33	
2025-01-19 10:55:44.38	144.28	8.34	
2025-01-19 10:55:44.59	144.27	8.36	
2025-01-19 10:55:44.79	144.27	8.38	
2025-01-19 10:55:44.99	144.26	8.40	
2025-01-19 10:55:45.20	144.25	8.41	
2025-01-19 10:55:45.40	144.25	8.43	
2025-01-19 10:55:45.60	144.24	8.45	
2025-01-19 10:55:45.80	144.23	8.47	
2025-01-19 10:55:46.01	144.23	8.48	
2025-01-19 10:55:46.21	144.22	8.50	
2025-01-19 10:55:46.41	144.21	8.52	
2025-01-19 10:55:46.62	144.21	8.54	
2025-01-19 10:55:46.82	144.20	8.55	
2025-01-19 10:55:47.02	144.20	8.57	
2025-01-19 10:55:47.23	144.19	8.59	
2025-01-19 10:55:47.43	144.18	8.61	
2025-01-19 10:55:47.63	144.18	8.62	
2025-01-19 10:55:47.84	144.17	8.64	
2025-01-19 10:55:48.04	144.16	8.66	
2025-01-19 10:55:48.24	144.15	8.68	
2025-01-19 10:55:48.44	144.15	8.69	
2025-01-19 10:55:48.65	144.14	8.71	
2025-01-19 10:55:48.85	144.13	8.73	
2025-01-19 10:55:49.05	144.13	8.75	
2025-01-19 10:55:49.26	144.12	8.77	
2025-01-19 10:55:49.46	144.11	8.78	
2025-01-19 10:55:49.66	144.11	8.80	
2025-01-19 10:55:49.87	144.10	8.82	
2025-01-19 10:55:50.07	144.09	8.84	
2025-01-19 10:55:50.27	144.09	8.85	
2025-01-19 10:55:50.48	144.08	8.87	
2025-01-19 10:55:50.68	144.07	8.89	
2025-01-19 10:55:50.88	144.07	8.91	
2025-01-19 10:55:51.08	144.06	8.93	
2025-01-19 10:55:51.29	144.05	8.94	
2025-01-19 10:55:51.49	144.05	8.96	
2025-01-19 10:55:51.69	144.04	8.98	
2025-01-19 10:55:51.90	144.03	9.00	
2025-01-19 10:55:52.10	144.03	9.01	
2025-01-19 10:55:52.30	144.02	9.03	
2025-01-19 10:55:52.51	144.01	9.05	
2025-01-19 10:55:52.71	144.01	9.07	
2025-01-19 10:55:52.91	144.00	9.09	
2025-01-19 10:55:53.12	143.99	9.10	
2025-01-19 10:55:53.32	143.98	9.12	
2025-01-19 10:55:53.52	143.98	9.14	
2025-01-19 10:55:53.72	143.97	9.16	
2025-01-19 10:55:53.93	143.96	9.18	
2025-01-19 10:55:54.13	143.96	9.19	
2025-01-19 10:55:54.33	143.95	9.21	
2025-01-19 10:55:54.54	143.94	9.23	
2025-01-19 10:55:54.74	143.94	9.25	
2025-01-19 10:55:54.94	143.93	9.27	
2025-01-19 10:55:55.15	143.92	9.29	
2025-01-19 10:55:55.35	143.91	9.30	
2025-01-19 10:55:55.55	143.91	9.32	
2025-01-19 10:55:55.76	143.90	9.34	
2025-01-19 10:55:55.96	143.89	9.36	
2025-01-19 10:55:56.16	143.89	9.38	
2025-01-19 10:55:56.36	143.88	9.39	
2025-01-19 10:55:56.57	143.87	9.41	
2025-01-19 10:55:56.77	143.86	9.43	
2025-01-19 10:55:56.97	143.86	9.45	
2025-01-19 10:55:57.18	143.85	9.47	
2025-01-19 10:55:57.38	143.84	9.48	
2025-01-19 10:55:57.58	143.84	9.50	
2025-01-19 10:55:57.79	143.83	9.52	
2025-01-19 10:55:57.99	143.82	9.54	
2025-01-19 10:55:58.19	143.81	9.56	
2025-01-19 10:55:58.40	143.81	9.58	
2025-01-19 10:55:58.60	143.80	9.59	
2025-01-19 10:55:58.80	143.79	9.61	
2025-01-19 10:55:59.00	143.79	9.63	
2025-01-19 10:55:59.21	143.78	9.65	
2025-01-19 10:55:59.41	143.77	9.67	
2025-01-19 10:55:59.61	143.76	9.69	
2025-01-19 10:55:59.82	143.76	9.71	
2025-01-19 10:56:00.02	143.75	9.72	
2025-01-19 10:56:00.22	143.74	9.74	
2025-01-19 10:56:00.43	143.74	9.76	
2025-01-19 10:56:00.63	143.73	9.78	
2025-01-19 10:56:00.83	143.72	9.80	
2025-01-19 10:56:01.04	143.71	9.82	
2025-01-19 10:56:01.24	143.71	9.83	
2025-01-19 10:56:01.44	143.70	9.85	
2025-01-19 10:56:01.64	143.69	9.87	
2025-01-19 10:56:01.85	143.68	9.89	
2025-01-19 10:56:02.05	143.68	9.91	
2025-01-19 10:56:02.25	143.67	9.93	
2025-01-19 10:56:02.46	143.66	9.95	
2025-01-19 10:56:02.66	143.65	9.96	
2025-01-19 10:56:02.86	143.65	9.98	
2025-01-19 10:56:03.07	143.64	10.00	
2025-01-19 10:56:03.27	143.63	10.02	
2025-01-19 10:56:03.47	143.62	10.04	
2025-01-19 10:56:03.68	143.62	10.06	
2025-01-19 10:56:03.88	143.61	10.08	
2025-01-19 10:56:04.08	143.60	10.10	
2025-01-19 10:56:04.28	143.59	10.11	
2025-01-19 10:56:04.49	143.59	10.13	
2025-01-19 10:56:04.69	143.58	10.15	
2025-01-19 10:56:04.89	143.57	10.17	
2025-01-19 10:56:05.10	143.56	10.19	
2025-01-19 10:56:05.30	143.56	10.21	
2025-01-19 10:56:05.50	143.55	10.23	
2025-01-19 10:56:05.71	143.54	10.25	
2025-01-19 10:56:05.91	143.53	10.27	
2025-01-19 10:56:06.11	143.53	10.28	
2025-01-19 10:56:06.32	143.52	10.30	
2025-01-19 10:56:06.52	143.51	10.32	
2025-01-19 10:56:06.72	143.50	10.34	
2025-01-19 10:56:06.92	143.50	10.36	
2025-01-19 10:56:07.13	143.49	10.38	
2025-01-19 10:56:07.33	143.48	10.40	
2025-01-19 10:56:07.53	143.47	10.42	
2025-01-19 10:56:07.74	143.46	10.44	
2025-01-19 10:56:07.94	143.46	10.46	
2025-01-19 10:56:08.14	143.45	10.47	
2025-01-19 10:56:08.35	143.44	10.49	
2025-01-19 10:56:08.55	143.43	10.51	
2025-01-19 10:56:08.75	143.43	10.53	
2025-01-19 10:56:08.96	143.42	10.55	
2025-01-19 10:56:09.16	143.41	10.57	
2025-01-19 10:56:09.36	143.40	10.59	
2025-01-19 10:56:09.56	143.40	10.61	
2025-01-19 10:56:09.77	143.39	10.63	
2025-01-19 10:56:09.97	143.38	10.65	
2025-01-19 10:56:10.17	143.37	10.67	
2025-01-19 10:56:10.38	143.36	10.69	
2025-01-19 10:56:10.58	143.36	10.70	
2025-01-19 10:56:10.78	143.35	10.72	
2025-01-19 10:56:10.99	143.34	10.74	
2025-01-19 10:56:11.19	143.33	10.76	
2025-01-19 10:56:11.39	143.32	10.78	
2025-01-19 10:56:11.60	143.32	10.80	
2025-01-19 10:56:11.80	143.31	10.82	
2025-01-19 10:56:12.00	143.30	10.84	
2025-01-19 10:56:12.20	143.29	10.86	
2025-01-19 10:56:12.41	143.28	10.88	
2025-01-19 10:56:12.61	143.28	10.90	
2025-01-19 10:56:12.81	143.27	10.92	
2025-01-19 10:56:13.02	143.26	10.94	
2025-01-19 10:56:13.22	143.25	10.96	
2025-01-19 10:56:13.42	143.24	10.98	
2025-01-19 10:56:13.63	143.24	11.00	
2025-01-19 10:56:13.83	143.23	11.01	
2025-01-19 10:56:14.03	143.22	11.03	
2025-01-19 10:56:14.24	143.21	11.05	
2025-01-19 10:56:14.44	143.20	11.07	
2025-01-19 10:56:14.64	143.20	11.09	
2025-01-19 10:56:14.84	143.19	11.11	
2025-01-19 10:56:15.05	143.18	11.13	
2025-01-19 10:56:15.25	143.17	11.15	
2025-01-19 10:56:15.45	143.16	11.17	
2025-01-19 10:56:15.66	143.16	11.19	
2025-01-19 10:56:15.86	143.15	11.21	
2025-01-19 10:56:16.06	143.14	11.23	
2025-01-19 10:56:16.27	143.13	11.25	
2025-01-19 10:56:16.47	143.12	11.27	
2025-01-19 10:56:16.67	143.11	11.29	
2025-01-19 10:56:16.88	143.11	11.31	
2025-01-19 10:56:17.08	143.10	11.33	
2025-01-19 10:56:17.28	143.09	11.35	
2025-01-19 10:56:17.48	143.08	11.37	
2025-01-19 10:56:17.69	143.07	11.39	
2025-01-19 10:56:17.89	143.06	11.41	
2025-01-19 10:56:18.09	143.06	11.43	
2025-01-19 10:56:18.30	143.05	11.45	
2025-01-19 10:56:18.50	143.04	11.47	
2025-01-19 10:56:18.70	143.03	11.49	
2025-01-19 10:56:18.91	143.02	11.51	
2025-01-19 10:56:19.11	143.01	11.53	
2025-01-19 10:56:19.31	143.01	11.55	
2025-01-19 10:56:19.52	143.00	11.57	
2025-01-19 10:56:19.72	142.99	11.59	
2025-01-19 10:56:19.92	142.98	11.61	
2025-01-19 10:56:20.12	142.97	11.63	
2025-01-19 10:56:20.33	142.96	11.65	
2025-01-19 10:56:20.53	142.96	11.67	
2025-01-19 10:56:20.73	142.95	11.69	
2025-01-19 10:56:20.94	142.94	11.71	
2025-01-19 10:56:21.14	142.93	11.73	
2025-01-19 10:56:21.34	142.92	11.75	
2025-01-19 10:56:21.55	142.91	11.77	
2025-01-19 10:56:21.75	142.90	11.79	
2025-01-19 10:56:21.95	142.90	11.81	
2025-01-19 10:56:22.16	142.89	11.83	
2025-01-19 10:56:22.36	142.88	11.85	
2025-01-19 10:56:22.56	142.87	11.87	
2025-01-19 10:56:22.76	142.86	11.89	
2025-01-19 10:56:22.97	142.85	11.91	
2025-01-19 10:56:23.17	142.84	11.93	
2025-01-19 10:56:23.37	142.84	11.95	
2025-01-19 10:56:23.58	142.83	11.97	
2025-01-19 10:56:23.78	142.82	11.99	
2025-01-19 10:56:23.98	142.81	12.01	
2025-01-19 10:56:24.19	142.80	12.03	
2025-01-19 10:56:24.39	142.79	12.05	
2025-01-19 10:56:24.59	142.78	12.07	
2025-01-19 10:56:24.80	142.77	12.09	
2025-01-19 10:56:25.00	142.77	12.12	
2025-01-19 10:56:25.20	142.76	12.14	
2025-01-19 10:56:25.40	142.75	12.16	
2025-01-19 10:56:25.61	142.74	12.18	
2025-01-19 10:56:25.81	142.73	12.20	
2025-01-19 10:56:26.01	142.72	12.22	
2025-01-19 10:56:26.22	142.71	12.24	
2025-01-19 10:56:26.42	142.70	12.26	
2025-01-19 10:56:26.62	142.69	12.28	
2025-01-19 10:56:26.83	142.69	12.30	
2025-01-19 10:56:27.03	142.68	12.32	
2025-01-19 10:56:27.23	142.67	12.34	
2025-01-19 10:56:27.44	142.66	12.36	
2025-01-19 10:56:27.64	142.65	12.38	
2025-01-19 10:56:27.84	142.64	12.40	
2025-01-19 10:56:28.04	142.63	12.42	
2025-01-19 10:56:28.25	142.62	12.45	
2025-01-19 10:56:28.45	142.61	12.47	
2025-01-19 10:56:28.65	142.60	12.49	
2025-01-19 10:56:28.86	142.60	12.51	
2025-01-19 10:56:29.06	142.59	12.53	
2025-01-19 10:56:29.26	142.58	12.55	
2025-01-19 10:56:29.47	142.57	12.57	
2025-01-19 10:56:29.67	142.56	12.59	
2025-01-19 10:56:29.87	142.55	12.61	
2025-01-19 10:56:30.08	142.54	12.63	
2025-01-19 10:56:30.28	142.53	12.65	
2025-01-19 10:56:30.48	142.52	12.67	
2025-01-19 10:56:30.68	142.51	12.70	
2025-01-19 10:56:30.89	142.50	12.72	
2025-01-19 10:56:31.09	142.50	12.74	
2025-01-19 10:56:31.29	142.49	12.76	
2025-01-19 10:56:31.50	142.48	12.78	
2025-01-19 10:56:31.70	142.47	12.80	
2025-01-19 10:56:31.90	142.46	12.82	
2025-01-19 10:56:32.11	142.45	12.84	
2025-01-19 10:56:32.31	142.44	12.86	
2025-01-19 10:56:32.51	142.43	12.89	
2025-01-19 10:56:32.72	142.42	12.91	
2025-01-19 10:56:32.92	142.41	12.93	
2025-01-19 10:56:33.12	142.40	12.95	
2025-01-19 10:56:33.32	142.39	12.97	
2025-01-19 10:56:33.53	142.38	12.99	
2025-01-19 10:56:33.73	142.37	13.01	
2025-01-19 10:56:33.93	142.36	13.03	
2025-01-19 10:56:34.14	142.35	13.06	
2025-01-19 10:56:34.34	142.35	13.08	
2025-01-19 10:56:34.54	142.34	13.10	
2025-01-19 10:56:34.75	142.33	13.12	
2025-01-19 10:56:34.95	142.32	13.14	
2025-01-19 10:56:35.15	142.31	13.16	
2025-01-19 10:56:35.36	142.30	13.19	
2025-01-19 10:56:35.56	142.29	13.21	
2025-01-19 10:56:35.76	142.28	13.23	
2025-01-19 10:56:35.96	142.27	13.25	
2025-01-19 10:56:36.17	142.26	13.27	
2025-01-19 10:56:36.37	142.25	13.29	
2025-01-19 10:56:36.57	142.24	13.31	
2025-01-19 10:56:36.78	142.23	13.34	
2025-01-19 10:56:36.98	142.22	13.36	
2025-01-19 10:56:37.18	142.21	13.38	
2025-01-19 10:56:37.39	142.20	13.40	
2025-01-19 10:56:37.59	142.19	13.42	
2025-01-19 10:56:37.79	142.18	13.44	
2025-01-19 10:56:38.00	142.17	13.47	
2025-01-19 10:56:38.20	142.16	13.49	
2025-01-19 10:56:38.40	142.15	13.51	
2025-01-19 10:56:38.61	142.14	13.53	
2025-01-19 10:56:38.81	142.13	13.55	
2025-01-19 10:56:39.01	142.12	13.57	
2025-01-19 10:56:39.21	142.11	13.60	
2025-01-19 10:56:39.42	142.10	13.62	
2025-01-19 10:56:39.62	142.09	13.64	
2025-01-19 10:56:39.82	142.08	13.66	
2025-01-19 10:56:40.03	142.07	13.68	
2025-01-19 10:56:40.23	142.06	13.71	
2025-01-19 10:56:40.43	142.05	13.73	
2025-01-19 10:56:40.64	142.04	13.75	
2025-01-19 10:56:40.84	142.03	13.77	
2025-01-19 10:56:41.04	142.02	13.79	
2025-01-19 10:56:41.24	142.01	13.82	
2025-01-19 10:56:41.45	142.00	13.84	
2025-01-19 10:56:41.65	141.99	13.86	
2025-01-19 10:56:41.85	141.98	13.88	
2025-01-19 10:56:42.06	141.97	13.90	
2025-01-19 10:56:42.26	141.96	13.93	
2025-01-19 10:56:42.46	141.95	13.95	
2025-01-19 10:56:42.67	141.94	13.97	
2025-01-19 10:56:42.87	141.93	13.99	
2025-01-19 10:56:43.07	141.92	14.02	
2025-01-19 10:56:43.28	141.91	14.04	
2025-01-19 10:56:43.48	141.90	14.06	
2025-01-19 10:56:43.68	141.89	14.08	
2025-01-19 10:56:43.89	141.88	14.11	
2025-01-19 10:56:44.09	141.87	14.13	
2025-01-19 10:56:44.29	141.86	14.15	
2025-01-19 10:56:44.49	141.85	14.17	
2025-01-19 10:56:44.70	141.84	14.19	
2025-01-19 10:56:44.90	141.83	14.22	
2025-01-19 10:56:45.10	141.82	14.24	
2025-01-19 10:56:45.31	141.81	14.26	
2025-01-19 10:56:45.51	141.80	14.28	
2025-01-19 10:56:45.71	141.79	14.31	
2025-01-19 10:56:45.92	141.78	14.33	
2025-01-19 10:56:46.12	141.77	14.35	
2025-01-19 10:56:46.32	141.76	14.37	
2025-01-19 10:56:46.53	141.75	14.40	
2025-01-19 10:56:46.73	141.74	14.42	
2025-01-19 10:56:46.93	141.73	14.44	
2025-01-19 10:56:47.13	141.72	14.47	
2025-01-19 10:56:47.34	141.71	14.49	
2025-01-19 10:56:47.54	141.70	14.51	
2025-01-19 10:56:47.74	141.69	14.53	
2025-01-19 10:56:47.95	141.67	14.56	
2025-01-19 10:56:48.15	141.66	14.58	
2025-01-19 10:56:48.35	141.65	14.60	
2025-01-19 10:56:48.56	141.64	14.63	
2025-01-19 10:56:48.76	141.63	14.65	
2025-01-19 10:56:48.96	141.62	14.67	
2025-01-19 10:56:49.17	141.61	14.69	
2025-01-19 10:56:49.37	141.60	14.72	
2025-01-19 10:56:49.57	141.59	14.74	
2025-01-19 10:56:49.77	141.58	14.76	
2025-01-19 10:56:49.98	141.57	14.79	
2025-01-19 10:56:50.18	141.56	14.81	
2025-01-19 10:56:50.38	141.55	14.83	
2025-01-19 10:56:50.59	141.53	14.86	
2025-01-19 10:56:50.79	141.52	14.88	
2025-01-19 10:56:50.99	141.51	14.90	
2025-01-19 10:56:51.20	141.50	14.92	
2025-01-19 10:56:51.40	141.49	14.95	
2025-01-19 10:56:51.60	141.48	14.97	
2025-01-19 10:56:51.81	141.47	14.99	
2025-01-19 10:56:52.01	141.46	15.02	
2025-01-19 10:56:52.21	141.45	15.04	
2025-01-19 10:56:52.41	141.44	15.06	
2025-01-19 10:56:52.62	141.43	15.09	
2025-01-19 10:56:52.82	141.41	15.11	
2025-01-19 10:56:53.02	141.40	15.13	
2025-01-19 10:56:53.23	141.39	15.16	
2025-01-19 10:56:53.43	141.38	15.18	
2025-01-19 10:56:53.63	141.37	15.20	
2025-01-19 10:56:53.84	141.36	15.23	
2025-01-19 10:56:54.04	141.35	15.25	
2025-01-19 10:56:54.24	141.34	15.27	
2025-01-19 10:56:54.45	141.33	15.30	
2025-01-19 10:56:54.65	141.31	15.32	
2025-01-19 10:56:54.85	141.30	15.35	
2025-01-19 10:56:55.05	141.29	15.37	
2025-01-19 10:56:55.26	141.28	15.39	
2025-01-19 10:56:55.46	141.27	15.42	
2025-01-19 10:56:55.66	141.26	15.44	
2025-01-19 10:56:55.87	141.25	15.46	
2025-01-19 10:56:56.07	141.24	15.49	
2025-01-19 10:56:56.27	141.22	15.51	
2025-01-19 10:56:56.48	141.21	15.54	
2025-01-19 10:56:56.68	141.20	15.56	
2025-01-19 10:56:56.89	141.19	15.58	
2025-01-19 10:56:57.10	141.18	15.61	
2025-01-19 10:56:57.30	141.17	15.63	
2025-01-19 10:56:57.50	141.15	15.66	
2025-01-19 10:56:57.71	141.14	15.68	
2025-01-19 10:56:57.92	141.13	15.70	
2025-01-19 10:56:58.12	141.12	15.73	
2025-01-19 10:56:58.32	141.11	15.75	
2025-01-19 10:56:58.53	141.10	15.78	
2025-01-19 10:56:58.73	141.08	15.80	
2025-01-19 10:56:58.93	141.07	15.82	
2025-01-19 10:56:59.14	141.06	15.85	
2025-01-19 10:56:59.34	141.05	15.87	
2025-01-19 10:56:59.54	141.04	15.90	
2025-01-19 10:56:59.75	141.03	15.92	
2025-01-19 10:56:59.95	141.01	15.95	
2025-01-19 10:57:00.15	141.00	15.97	
2025-01-19 10:57:00.35	140.99	15.99	
2025-01-19 10:57:00.56	140.98	16.02	
2025-01-19 10:57:00.76	140.97	16.04	
2025-01-19 10:57:00.96	140.96	16.07	
2025-01-19 10:57:01.17	140.94	16.09	
2025-01-19 10:57:01.37	140.93	16.12	
2025-01-19 10:57:01.57	140.92	16.14	
2025-01-19 10:57:01.78	140.91	16.16	
2025-01-19 10:57:01.98	140.90	16.19	
2025-01-19 10:57:02.18	140.88	16.21	
2025-01-19 10:57:02.39	140.87	16.24	
2025-01-19 10:57:02.59	140.86	16.26	
2025-01-19 10:57:02.79	140.85	16.29	
2025-01-19 10:57:02.99	140.84	16.31	
2025-01-19 10:57:03.20	140.82	16.34	
2025-01-19 10:57:03.40	140.81	16.36	
2025-01-19 10:57:03.60	140.80	16.38	
2025-01-19 10:57:03.81	140.79	16.41	
2025-01-19 10:57:04.01	140.78	16.43	
2025-01-19 10:57:04.21	140.76	16.46	
2025-01-19 10:57:04.42	140.75	16.48	
2025-01-19 10:57:04.62	140.74	16.51	
2025-01-19 10:57:04.83	140.73	16.53	
2025-01-19 10:57:05.03	140.71	16.56	
2025-01-19 10:57:05.23	140.70	16.58	
2025-01-19 10:57:05.44	140.69	16.61	
2025-01-19 10:57:05.64	140.68	16.63	
2025-01-19 10:57:05.84	140.66	16.66	
2025-01-19 10:57:06.05	140.65	16.68	
2025-01-19 10:57:06.25	140.64	16.71	
2025-01-19 10:57:06.45	140.63	16.73	
2025-01-19 10:57:06.66	140.61	16.76	
2025-01-19 10:57:06.86	140.60	16.78	
2025-01-19 10:57:07.06	140.59	16.81	
2025-01-19 10:57:07.26	140.58	16.83	
2025-01-19 10:57:07.47	140.56	16.86	
2025-01-19 10:57:07.67	140.55	16.88	
2025-01-19 10:57:07.87	140.54	16.91	
2025-01-19 10:57:08.08	140.53	16.94	
2025-01-19 10:57:08.28	140.51	16.96	
2025-01-19 10:57:08.48	140.50	16.99	
2025-01-19 10:57:08.69	140.49	17.01	
2025-01-19 10:57:08.89	140.48	17.04	
2025-01-19 10:57:09.09	140.46	17.06	
2025-01-19 10:57:09.30	140.45	17.09	
2025-01-19 10:57:09.50	140.44	17.11	
2025-01-19 10:57:09.70	140.42	17.14	
2025-01-19 10:57:09.90	140.41	17.16	
2025-01-19 10:57:10.11	140.40	17.19	
2025-01-19 10:57:10.31	140.39	17.21	
2025-01-19 10:57:10.51	140.37	17.24	
2025-01-19 10:57:10.72	140.36	17.27	
2025-01-19 10:57:10.92	140.35	17.29	
2025-01-19 10:57:11.12	140.33	17.32	
2025-01-19 10:57:11.33	140.32	17.34	
2025-01-19 10:57:11.53	140.31	17.37	
2025-01-19 10:57:11.73	140.30	17.39	
2025-01-19 10:57:11.94	140.28	17.42	
2025-01-19 10:57:12.14	140.27	17.45	
2025-01-19 10:57:12.34	140.26	17.47	
2025-01-19 10:57:12.54	140.24	17.50	
2025-01-19 10:57:12.75	140.23	17.52	
2025-01-19 10:57:12.95	140.22	17.55	
2025-01-19 10:57:13.15	140.20	17.58	
2025-01-19 10:57:13.36	140.19	17.60	
2025-01-19 10:57:13.56	140.18	17.63	
2025-01-19 10:57:13.76	140.16	17.65	
2025-01-19 10:57:13.97	140.15	17.68	
2025-01-19 10:57:14.17	140.14	17.71	
2025-01-19 10:57:14.37	140.12	17.73	
2025-01-19 10:57:14.58	140.11	17.76	
2025-01-19 10:57:14.78	140.10	17.78	
2025-01-19 10:57:14.98	140.08	17.81	
2025-01-19 10:57:15.18	140.07	17.84	
2025-01-19 10:57:15.39	140.06	17.86	
2025-01-19 10:57:15.59	140.04	17.89	
2025-01-19 10:57:15.79	140.03	17.91	
2025-01-19 10:57:16.00	140.01	17.94	
2025-01-19 10:57:16.20	140.00	17.97	
2025-01-19 10:57:16.40	139.99	17.99	
2025-01-19 10:57:16.61	139.97	18.02	
2025-01-19 10:57:16.81	139.96	18.05	
2025-01-19 10:57:17.01	139.95	18.07	
2025-01-19 10:57:17.22	139.93	18.10	
2025-01-19 10:57:17.42	139.92	18.13	
2025-01-19 10:57:17.62	139.90	18.15	
2025-01-19 10:57:17.83	139.89	18.18	
2025-01-19 10:57:18.03	139.88	18.21	
2025-01-19 10:57:18.23	139.86	18.23	
2025-01-19 10:57:18.43	139.85	18.26	
2025-01-19 10:57:18.64	139.84	18.29	
2025-01-19 10:57:18.84	139.82	18.31	
2025-01-19 10:57:19.04	139.81	18.34	
2025-01-19 10:57:19.25	139.79	18.37	
2025-01-19 10:57:19.45	139.78	18.39	
2025-01-19 10:57:19.65	139.77	18.42	
2025-01-19 10:57:19.86	139.75	18.45	
2025-01-19 10:57:20.06	139.74	18.48	
2025-01-19 10:57:20.26	139.72	18.50	
2025-01-19 10:57:20.47	139.71	18.53	
2025-01-19 10:57:20.67	139.69	18.56	
2025-01-19 10:57:20.87	139.68	18.58	
2025-01-19 10:57:21.07	139.67	18.61	
2025-01-19 10:57:21.28	139.65	18.64	
2025-01-19 10:57:21.48	139.64	18.66	
2025-01-19 10:57:21.68	139.62	18.69	
2025-01-19 10:57:21.89	139.61	18.72	
2025-01-19 10:57:22.09	139.59	18.75	
2025-01-19 10:57:22.29	139.58	18.77	
2025-01-19 10:57:22.50	139.56	18.80	
2025-01-19 10:57:22.70	139.55	18.83	
2025-01-19 10:57:22.90	139.54	18.86	
2025-01-19 10:57:23.10	139.52	18.88	
2025-01-19 10:57:23.31	139.51	18.91	
2025-01-19 10:57:23.51	139.49	18.94	
2025-01-19 10:57:23.71	139.48	18.97	
2025-01-19 10:57:23.92	139.46	18.99	
2025-01-19 10:57:24.12	139.45	19.02	
2025-01-19 10:57:24.32	139.43	19.05	
2025-01-19 10:57:24.53	139.42	19.08	
2025-01-19 10:57:24.73	139.40	19.10	
2025-01-19 10:57:24.93	139.39	19.13	
2025-01-19 10:57:25.14	139.37	19.16	
2025-01-19 10:57:25.34	139.36	19.19	
2025-01-19 10:57:25.54	139.34	19.21	
2025-01-19 10:57:25.75	139.33	19.24	
2025-01-19 10:57:25.95	139.31	19.27	
2025-01-19 10:57:26.15	139.30	19.30	
2025-01-19 10:57:26.35	139.29	19.33	
2025-01-19 10:57:26.56	139.27	19.35	
2025-01-19 10:57:26.76	139.25	19.38	
2025-01-19 10:57:26.96	139.24	19.41	
2025-01-19 10:57:27.17	139.22	19.44	
2025-01-19 10:57:27.37	139.21	19.47	
2025-01-19 10:57:27.57	139.19	19.49	
2025-01-19 10:57:27.78	139.18	19.52	
2025-01-19 10:57:27.98	139.16	19.55	
2025-01-19 10:57:28.18	139.15	19.58	
2025-01-19 10:57:28.39	139.13	19.61	
2025-01-19 10:57:28.59	139.12	19.64	
2025-01-19 10:57:28.79	139.10	19.66	
2025-01-19 10:57:28.99	139.09	19.69	
2025-01-19 10:57:29.20	139.07	19.72	
2025-01-19 10:57:29.40	139.06	19.75	
2025-01-19 10:57:29.60	139.04	19.78	
2025-01-19 10:57:29.81	139.02	19.81	
2025-01-19 10:57:30.01	139.01	19.83	
2025-01-19 10:57:30.21	138.99	19.86	
2025-01-19 10:57:30.42	138.98	19.89	
2025-01-19 10:57:30.62	138.96	19.92	
2025-01-19 10:57:30.82	138.95	19.95	
2025-01-19 10:57:31.03	138.93	19.98	
2025-01-19 10:57:31.23	138.91	20.01	
2025-01-19 10:57:31.43	138.90	20.03	
2025-01-19 10:57:31.63	138.88	20.06	
2025-01-19 10:57:31.84	138.87	20.09	
2025-01-19 10:57:32.04	138.85	20.12	
2025-01-19 10:57:32.24	138.84	20.15	
2025-01-19 10:57:32.45	138.82	20.18	
2025-01-19 10:57:32.65	138.80	20.21	
2025-01-19 10:57:32.85	138.79	20.24	
2025-01-19 10:57:33.06	138.77	20.27	
2025-01-19 10:57:33.26	138.76	20.30	
2025-01-19 10:57:33.46	138.74	20.32	
2025-01-19 10:57:33.68	138.72	20.36	
2025-01-19 10:57:33.88	138.71	20.38	
2025-01-19 10:57:34.08	138.69	20.41	
2025-01-19 10:57:34.28	138.67	20.44	
2025-01-19 10:57:34.49	138.66	20.47	
2025-01-19 10:57:34.69	138.64	20.50	
2025-01-19 10:57:34.89	138.62	20.53	
2025-01-19 10:57:35.10	138.61	20.56	
2025-01-19 10:57:35.30	138.59	20.59	
2025-01-19 10:57:35.50	138.58	20.62	
2025-01-19 10:57:35.71	138.56	20.65	
2025-01-19 10:57:35.91	138.54	20.68	
2025-01-19 10:57:36.11	138.53	20.71	
2025-01-19 10:57:36.32	138.51	20.74	
2025-01-19 10:57:36.52	138.49	20.77	
2025-01-19 10:57:36.72	138.48	20.80	
2025-01-19 10:57:36.93	138.46	20.83	
2025-01-19 10:57:37.13	138.44	20.86	
2025-01-19 10:57:37.33	138.43	20.89	
2025-01-19 10:57:37.53	138.41	20.91	
2025-01-19 10:57:37.74	138.39	20.95	
2025-01-19 10:57:37.94	138.37	20.97	
2025-01-19 10:57:38.14	138.36	21.00	
2025-01-19 10:57:38.35	138.34	21.04	
2025-01-19 10:57:38.55	138.32	21.06	
2025-01-19 10:57:38.75	138.31	21.09	
2025-01-19 10:57:38.96	138.29	21.13	
2025-01-19 10:57:39.16	138.27	21.15	
2025-01-19 10:57:39.36	138.26	21.18	
2025-01-19 10:57:39.57	138.24	21.22	
2025-01-19 10:57:39.77	138.22	21.25	
2025-01-19 10:57:39.97	138.20	21.28	
2025-01-19 10:57:40.17	138.19	21.31	
2025-01-19 10:57:40.38	138.17	21.34	
2025-01-19 10:57:40.58	138.15	21.37	
2025-01-19 10:57:40.79	138.13	21.40	
2025-01-19 10:57:40.99	138.12	21.43	
2025-01-19 10:57:41.19	138.10	21.46	
2025-01-19 10:57:41.40	138.08	21.49	
2025-01-19 10:57:41.60	138.06	21.52	
2025-01-19 10:57:41.80	138.05	21.55	
2025-01-19 10:57:42.00	138.03	21.58	
2025-01-19 10:57:42.21	138.01	21.61	
2025-01-19 10:57:42.41	137.99	21.64	
2025-01-19 10:57:42.61	137.98	21.67	
2025-01-19 10:57:42.82	137.96	21.70	
2025-01-19 10:57:43.02	137.94	21.73	
2025-01-19 10:57:43.22	137.92	21.76	
2025-01-19 10:57:43.43	137.90	21.80	
2025-01-19 10:57:43.63	137.89	21.83	
2025-01-19 10:57:43.83	137.87	21.86	
2025-01-19 10:57:44.04	137.85	21.89	
2025-01-19 10:57:44.24	137.83	21.92	
2025-01-19 10:57:44.44	137.81	21.95	
2025-01-19 10:57:44.64	137.80	21.98	
2025-01-19 10:57:44.85	137.78	22.01	
2025-01-19 10:57:45.05	137.76	22.04	
2025-01-19 10:57:45.25	137.74	22.07	
2025-01-19 10:57:45.46	137.72	22.11	
2025-01-19 10:57:45.66	137.71	22.14	
2025-01-19 10:57:45.86	137.69	22.17	
2025-01-19 10:57:46.07	137.67	22.20	
2025-01-19 10:57:46.27	137.65	22.23	
2025-01-19 10:57:46.47	137.63	22.26	
2025-01-19 10:57:46.68	137.61	22.30	
2025-01-19 10:57:46.88	137.59	22.33	
2025-01-19 10:57:47.08	137.58	22.36	
2025-01-19 10:57:47.28	137.56	22.39	
2025-01-19 10:57:47.49	137.54	22.42	
2025-01-19 10:57:47.69	137.52	22.45	
2025-01-19 10:57:47.89	137.50	22.48	
2025-01-19 10:57:48.10	137.48	22.52	
2025-01-19 10:57:48.30	137.46	22.55	
2025-01-19 10:57:48.50	137.44	22.58	
2025-01-19 10:57:48.71	137.43	22.61	
2025-01-19 10:57:48.91	137.41	22.64	
2025-01-19 10:57:49.11	137.39	22.68	
2025-01-19 10:57:49.32	137.37	22.71	
2025-01-19 10:57:49.52	137.35	22.74	
2025-01-19 10:57:49.72	137.33	22.77	
2025-01-19 10:57:49.92	137.31	22.80	
2025-01-19 10:57:50.13	137.29	22.84	
2025-01-19 10:57:50.33	137.27	22.87	
2025-01-19 10:57:50.53	137.25	22.90	
2025-01-19 10:57:50.74	137.23	22.93	
2025-01-19 10:57:50.94	137.21	22.96	
2025-01-19 10:57:51.14	137.20	23.00	
2025-01-19 10:57:51.35	137.18	23.03	
2025-01-19 10:57:51.55	137.16	23.06	
2025-01-19 10:57:51.75	137.14	23.09	
2025-01-19 10:57:51.96	137.12	23.13	
2025-01-19 10:57:52.16	137.10	23.16	
2025-01-19 10:57:52.36	137.08	23.19	
2025-01-19 10:57:52.56	137.06	23.22	
2025-01-19 10:57:52.77	137.04	23.26	
2025-01-19 10:57:52.97	137.02	23.29	
2025-01-19 10:57:53.17	137.00	23.32	
2025-01-19 10:57:53.38	136.98	23.36	
2025-01-19 10:57:53.58	136.96	23.39	
2025-01-19 10:57:53.78	136.94	23.42	
2025-01-19 10:57:53.99	136.92	23.46	
2025-01-19 10:57:54.19	136.90	23.49	
2025-01-19 10:57:54.39	136.88	23.52	
2025-01-19 10:57:54.60	136.86	23.55	
2025-01-19 10:57:54.80	136.84	23.59	
2025-01-19 10:57:55.00	136.82	23.62	
2025-01-19 10:57:55.20	136.80	23.65	
2025-01-19 10:57:55.41	136.78	23.69	
2025-01-19 10:57:55.61	136.76	23.72	
2025-01-19 10:57:55.81	136.74	23.75	
2025-01-19 10:57:56.02	136.72	23.79	
2025-01-19 10:57:56.22	136.69	23.82	
2025-01-19 10:57:56.42	136.67	23.85	
2025-01-19 10:57:56.63	136.65	23.89	
2025-01-19 10:57:56.83	136.63	23.92	
2025-01-19 10:57:57.03	136.61	23.95	
2025-01-19 10:57:57.24	136.59	23.99	
2025-01-19 10:57:57.44	136.57	24.02	
2025-01-19 10:57:57.64	136.55	24.05	
2025-01-19 10:57:57.84	136.53	24.09	
2025-01-19 10:57:58.05	136.51	24.12	
2025-01-19 10:57:58.25	136.49	24.16	
2025-01-19 10:57:58.45	136.47	24.19	
2025-01-19 10:57:58.66	136.44	24.22	
2025-01-19 10:57:58.86	136.42	24.26	
2025-01-19 10:57:59.06	136.40	24.29	
2025-01-19 10:57:59.27	136.38	24.33	
2025-01-19 10:57:59.47	136.36	24.36	
2025-01-19 10:57:59.67	136.34	24.39	
2025-01-19 10:57:59.88	136.32	24.43	
2025-01-19 10:58:00.08	136.29	24.46	
2025-01-19 10:58:00.28	136.27	24.50	
2025-01-19 10:58:00.48	136.25	24.53	
2025-01-19 10:58:00.69	136.23	24.57	
2025-01-19 10:58:00.89	136.21	24.60	
2025-01-19 10:58:01.09	136.19	24.63	
2025-01-19 10:58:01.30	136.16	24.67	
2025-01-19 10:58:01.50	136.14	24.70	
2025-01-19 10:58:01.70	136.12	24.74	
2025-01-19 10:58:01.91	136.10	24.77	
2025-01-19 10:58:02.11	136.08	24.81	
2025-01-19 10:58:02.31	136.06	24.84	
2025-01-19 10:58:02.52	136.03	24.88	
2025-01-19 10:58:02.72	136.01	24.91	
2025-01-19 10:58:02.92	135.99	24.95	
2025-01-19 10:58:03.12	135.97	24.98	
2025-01-19 10:58:03.33	135.94	25.02	
2025-01-19 10:58:03.53	135.92	25.05	
2025-01-19 10:58:03.73	135.90	25.09	
2025-01-19 10:58:03.94	135.88	25.12	
2025-01-19 10:58:04.14	135.85	25.16	
2025-01-19 10:58:04.34	135.83	25.19	
2025-01-19 10:58:04.55	135.81	25.23	
2025-01-19 10:58:04.75	135.79	25.26	
2025-01-19 10:58:04.95	135.76	25.30	
2025-01-19 10:58:05.16	135.74	25.33	
2025-01-19 10:58:05.36	135.72	25.37	
2025-01-19 10:58:05.56	135.70	25.40	
2025-01-19 10:58:05.76	135.67	25.44	
2025-01-19 10:58:05.97	135.65	25.47	
2025-01-19 10:58:06.17	135.63	25.51	
2025-01-19 10:58:06.37	135.60	25.54	
2025-01-19 10:58:06.58	135.58	25.58	
2025-01-19 10:58:06.78	135.56	25.62	
2025-01-19 10:58:06.98	135.53	25.65	
2025-01-19 10:58:07.19	135.51	25.69	
2025-01-19 10:58:07.39	135.49	25.72	
2025-01-19 10:58:07.59	135.46	25.76	
2025-01-19 10:58:07.80	135.44	25.80	
2025-01-19 10:58:08.00	135.42	25.83	
2025-01-19 10:58:08.20	135.39	25.87	
2025-01-19 10:58:08.40	135.37	25.90	
2025-01-19 10:58:08.61	135.35	25.94	
2025-01-19 10:58:08.81	135.32	25.98	
2025-01-19 10:58:09.01	135.30	26.01	
2025-01-19 10:58:09.22	135.27	26.05	
2025-01-19 10:58:09.42	135.25	26.08	
2025-01-19 10:58:09.62	135.23	26.12	
2025-01-19 10:58:09.83	135.20	26.16	
2025-01-19 10:58:10.03	135.18	26.19	
2025-01-19 10:58:10.23	135.15	26.23	
2025-01-19 10:58:10.44	135.13	26.27	
2025-01-19 10:58:10.64	135.10	26.30	
2025-01-19 10:58:10.84	135.08	26.34	
2025-01-19 10:58:11.04	135.06	26.38	
2025-01-19 10:58:11.25	135.03	26.41	
2025-01-19 10:58:11.45	135.01	26.45	
2025-01-19 10:58:11.65	134.98	26.49	
2025-01-19 10:58:11.86	134.96	26.53	
2025-01-19 10:58:12.06	134.93	26.56	
2025-01-19 10:58:12.26	134.91	26.60	
2025-01-19 10:58:12.47	134.88	26.64	
2025-01-19 10:58:12.67	134.86	26.67	
2025-01-19 10:58:12.87	134.83	26.71	
2025-01-19 10:58:13.08	134.81	26.75	
2025-01-19 10:58:13.28	134.78	26.78	
2025-01-19 10:58:13.48	134.76	26.82	
2025-01-19 10:58:13.68	134.73	26.86	
2025-01-19 10:58:13.89	134.71	26.90	
2025-01-19 10:58:14.09	134.68	26.93	
2025-01-19 10:58:14.29	134.66	26.97	
2025-01-19 10:58:14.50	134.63	27.01	
2025-01-19 10:58:14.70	134.61	27.05	
2025-01-19 10:58:14.90	134.58	27.08	
2025-01-19 10:58:15.11	134.55	27.12	
2025-01-19 10:58:15.31	134.53	27.16	
2025-01-19 10:58:15.51	134.50	27.20	
2025-01-19 10:58:15.72	134.48	27.24	
2025-01-19 10:58:15.92	134.45	27.27	
2025-01-19 10:58:16.12	134.43	27.31	
2025-01-19 10:58:16.32	134.40	27.35	
2025-01-19 10:58:16.53	134.37	27.39	
2025-01-19 10:58:16.73	134.35	27.42	
2025-01-19 10:58:16.93	134.32	27.46	
2025-01-19 10:58:17.14	134.29	27.50	
2025-01-19 10:58:17.34	134.27	27.54	
2025-01-19 10:58:17.54	134.24	27.58	
2025-01-19 10:58:17.75	134.21	27.62	
2025-01-19 10:58:17.95	134.19	27.65	
2025-01-19 10:58:18.15	134.16	27.69	
2025-01-19 10:58:18.36	134.13	27.73	
2025-01-19 10:58:18.56	134.11	27.77	
2025-01-19 10:58:18.76	134.08	27.81	
2025-01-19 10:58:18.96	134.05	27.85	
2025-01-19 10:58:19.17	134.03	27.89	
2025-01-19 10:58:19.37	134.00	27.92	
2025-01-19 10:58:19.57	133.97	27.96	
2025-01-19 10:58:19.78	133.95	28.00	
2025-01-19 10:58:19.98	133.92	28.04	
2025-01-19 10:58:20.18	133.89	28.08	
2025-01-19 10:58:20.39	133.86	28.12	
2025-01-19 10:58:20.59	133.84	28.16	
2025-01-19 10:58:20.79	133.81	28.20	
2025-01-19 10:58:21.00	133.78	28.24	
2025-01-19 10:58:21.20	133.75	28.28	
2025-01-19 10:58:21.40	133.73	28.31	
2025-01-19 10:58:21.60	133.70	28.35	
2025-01-19 10:58:21.81	133.67	28.39	
2025-01-19 10:58:22.01	133.64	28.43	
2025-01-19 10:58:22.21	133.61	28.47	
2025-01-19 10:58:22.42	133.59	28.51	
2025-01-19 10:58:22.62	133.56	28.55	
2025-01-19 10:58:22.82	133.53	28.59	
2025-01-19 10:58:23.03	133.50	28.63	
2025-01-19 10:58:23.23	133.47	28.67	
2025-01-19 10:58:23.43	133.44	28.71	
2025-01-19 10:58:23.64	133.41	28.75	
2025-01-19 10:58:23.84	133.39	28.79	
2025-01-19 10:58:24.04	133.36	28.83	
2025-01-19 10:58:24.24	133.33	28.87	
2025-01-19 10:58:24.45	133.30	28.91	
2025-01-19 10:58:24.65	133.27	28.95	
2025-01-19 10:58:24.85	133.24	28.99	
2025-01-19 10:58:25.06	133.21	29.03	
2025-01-19 10:58:25.26	133.18	29.07	
2025-01-19 10:58:25.46	133.15	29.11	
2025-01-19 10:58:25.67	133.12	29.15	
2025-01-19 10:58:25.87	133.10	29.19	
2025-01-19 10:58:26.07	133.07	29.23	
2025-01-19 10:58:26.28	133.04	29.27	
2025-01-19 10:58:26.48	133.01	29.31	
2025-01-19 10:58:26.68	132.98	29.35	
2025-01-19 10:58:26.88	132.95	29.39	
2025-01-19 10:58:27.09	132.92	29.44	
2025-01-19 10:58:27.29	132.89	29.48	
2025-01-19 10:58:27.49	132.86	29.52	
2025-01-19 10:58:27.70	132.83	29.56	
2025-01-19 10:58:27.90	132.80	29.60	
2025-01-19 10:58:28.10	132.77	29.64	
2025-01-19 10:58:28.31	132.74	29.68	
2025-01-19 10:58:28.51	132.71	29.72	
2025-01-19 10:58:28.71	132.68	29.76	
2025-01-19 10:58:28.92	132.64	29.81	
2025-01-19 10:58:29.12	132.61	29.85	
2025-01-19 10:58:29.32	132.58	29.89	
2025-01-19 10:58:29.52	132.55	29.93	
2025-01-19 10:58:29.73	132.52	29.97	
2025-01-19 10:58:29.93	132.49	30.01	
2025-01-19 10:58:30.13	132.46	30.05	
2025-01-19 10:58:30.34	132.43	30.09	
2025-01-19 10:58:30.54	132.40	30.14	
2025-01-19 10:58:30.74	132.37	30.18	
2025-01-19 10:58:30.95	132.33	30.22	
2025-01-19 10:58:31.15	132.30	30.26	
2025-01-19 10:58:31.35	132.27	30.30	
2025-01-19 10:58:31.56	132.24	30.35	
2025-01-19 10:58:31.76	132.21	30.39	
2025-01-19 10:58:31.96	132.18	30.43	
2025-01-19 10:58:32.16	132.14	30.47	
2025-01-19 10:58:32.37	132.11	30.51	
2025-01-19 10:58:32.57	132.08	30.56	
2025-01-19 10:58:32.77	132.05	30.60	
2025-01-19 10:58:32.98	132.01	30.64	
2025-01-19 10:58:33.18	131.98	30.68	
2025-01-19 10:58:33.38	131.95	30.72	
2025-01-19 10:58:33.59	131.92	30.77	
2025-01-19 10:58:33.79	131.88	30.81	
2025-01-19 10:58:33.99	131.85	30.85	
2025-01-19 10:58:34.20	131.82	30.90	
2025-01-19 10:58:34.40	131.79	30.94	
2025-01-19 10:58:34.60	131.75	30.98	
2025-01-19 10:58:34.80	131.72	31.02	
2025-01-19 10:58:35.01	131.69	31.07	
2025-01-19 10:58:35.21	131.65	31.11	
2025-01-19 10:58:35.41	131.62	31.15	
2025-01-19 10:58:35.62	131.59	31.20	
2025-01-19 10:58:35.82	131.55	31.24	
2025-01-19 10:58:36.02	131.52	31.28	
2025-01-19 10:58:36.23	131.48	31.33	
2025-01-19 10:58:36.43	131.45	31.37	
2025-01-19 10:58:36.63	131.42	31.41	
2025-01-19 10:58:36.84	131.38	31.46	
2025-01-19 10:58:37.04	131.35	31.50	
2025-01-19 10:58:37.24	131.32	31.54	
2025-01-19 10:58:37.44	131.28	31.58	
2025-01-19 10:58:37.65	131.25	31.63	
2025-01-19 10:58:37.85	131.21	31.67	
2025-01-19 10:58:38.05	131.18	31.72	
2025-01-19 10:58:38.26	131.14	31.76	
2025-01-19 10:58:38.46	131.11	31.80	
2025-01-19 10:58:38.66	131.07	31.85	
2025-01-19 10:58:38.87	131.04	31.89	
2025-01-19 10:58:39.07	131.00	31.94	
2025-01-19 10:58:39.27	130.97	31.98	
2025-01-19 10:58:39.48	130.93	32.03	
2025-01-19 10:58:39.68	130.90	32.07	
2025-01-19 10:58:39.88	130.86	32.11	
2025-01-19 10:58:40.08	130.83	32.16	
2025-01-19 10:58:40.29	130.79	32.20	
2025-01-19 10:58:40.49	130.75	32.25	
2025-01-19 10:58:40.69	130.72	32.29	
2025-01-19 10:58:40.90	130.68	32.34	
2025-01-19 10:58:41.10	130.64	32.38	
2025-01-19 10:58:41.30	130.61	32.42	
2025-01-19 10:58:41.51	130.57	32.47	
2025-01-19 10:58:41.71	130.54	32.51	
2025-01-19 10:58:41.91	130.50	32.56	
2025-01-19 10:58:42.12	130.46	32.61	
2025-01-19 10:58:42.32	130.43	32.65	
2025-01-19 10:58:42.52	130.39	32.69	
2025-01-19 10:58:42.72	130.35	32.74	
2025-01-19 10:58:42.93	130.31	32.78	
2025-01-19 10:58:43.13	130.28	32.83	
2025-01-19 10:58:43.33	130.24	32.87	
2025-01-19 10:58:43.54	130.20	32.92	
2025-01-19 10:58:43.74	130.17	32.97	
2025-01-19 10:58:43.94	130.13	33.01	
2025-01-19 10:58:44.15	130.09	33.06	
2025-01-19 10:58:44.35	130.05	33.10	
2025-01-19 10:58:44.55	130.01	33.15	
2025-01-19 10:58:44.76	129.98	33.19	
2025-01-19 10:58:44.96	129.94	33.24	
2025-01-19 10:58:45.16	129.90	33.28	
2025-01-19 10:58:45.37	129.86	33.33	
2025-01-19 10:58:45.57	129.82	33.38	
2025-01-19 10:58:45.77	129.78	33.42	
2025-01-19 10:58:45.97	129.75	33.47	
2025-01-19 10:58:46.18	129.71	33.52	
2025-01-19 10:58:46.38	129.67	33.56	
2025-01-19 10:58:46.58	129.63	33.61	
2025-01-19 10:58:46.79	129.59	33.65	
2025-01-19 10:58:46.99	129.55	33.70	
2025-01-19 10:58:47.19	129.51	33.75	
2025-01-19 10:58:47.40	129.47	33.79	
2025-01-19 10:58:47.60	129.43	33.84	
2025-01-19 10:58:47.80	129.39	33.88	
2025-01-19 10:58:48.01	129.35	33.93	
2025-01-19 10:58:48.21	129.31	33.98	
2025-01-19 10:58:48.41	129.27	34.03	
2025-01-19 10:58:48.61	129.23	34.07	
2025-01-19 10:58:48.82	129.19	34.12	
2025-01-19 10:58:49.02	129.15	34.17	
2025-01-19 10:58:49.22	129.11	34.21	
2025-01-19 10:58:49.43	129.07	34.26	
2025-01-19 10:58:49.63	129.03	34.31	
2025-01-19 10:58:49.83	128.99	34.35	
2025-01-19 10:58:50.04	128.94	34.40	
2025-01-19 10:58:50.24	128.90	34.45	
2025-01-19 10:58:50.44	128.86	34.50	
2025-01-19 10:58:50.65	128.82	34.54	
2025-01-19 10:58:50.85	128.78	34.59	
2025-01-19 10:58:51.05	128.74	34.64	
2025-01-19 10:58:51.25	128.70	34.68	
2025-01-19 10:58:51.46	128.65	34.73	
2025-01-19 10:58:51.66	128.61	34.78	
2025-01-19 10:58:51.86	128.57	34.83	
2025-01-19 10:58:52.07	128.53	34.88	
2025-01-19 10:58:52.27	128.48	34.92	
2025-01-19 10:58:52.47	128.44	34.97	
2025-01-19 10:58:52.68	128.40	35.02	
2025-01-19 10:58:52.88	128.36	35.07	
2025-01-19 10:58:53.08	128.31	35.12	
2025-01-19 10:58:53.28	128.27	35.16	
2025-01-19 10:58:53.49	128.23	35.21	
2025-01-19 10:58:53.69	128.18	35.26	
2025-01-19 10:58:53.89	128.14	35.31	
2025-01-19 10:58:54.10	128.09	35.36	
2025-01-19 10:58:54.30	128.05	35.41	
2025-01-19 10:58:54.50	128.01	35.45	
2025-01-19 10:58:54.71	127.96	35.50	
2025-01-19 10:58:54.91	127.92	35.55	
2025-01-19 10:58:55.11	127.88	35.60	
2025-01-19 10:58:55.32	127.83	35.65	
2025-01-19 10:58:55.52	127.79	35.70	
2025-01-19 10:58:55.72	127.74	35.75	
2025-01-19 10:58:55.93	127.69	35.80	
2025-01-19 10:58:56.13	127.65	35.85	
2025-01-19 10:58:56.33	127.61	35.89	
2025-01-19 10:58:56.53	127.56	35.94	
2025-01-19 10:58:56.74	127.51	35.99	
2025-01-19 10:58:56.94	127.47	36.04	
2025-01-19 10:58:57.14	127.42	36.09	
2025-01-19 10:58:57.35	127.38	36.14	
2025-01-19 10:58:57.55	127.33	36.19	
2025-01-19 10:58:57.75	127.29	36.24	
2025-01-19 10:58:57.96	127.24	36.29	
2025-01-19 10:58:58.16	127.19	36.34	
2025-01-19 10:58:58.36	127.15	36.39	
2025-01-19 10:58:58.57	127.10	36.44	
2025-01-19 10:58:58.77	127.05	36.49	
2025-01-19 10:58:58.97	127.00	36.54	
2025-01-19 10:58:59.17	126.96	36.59	
2025-01-19 10:58:59.38	126.91	36.64	
2025-01-19 10:58:59.58	126.86	36.69	
2025-01-19 10:58:59.78	126.82	36.74	
2025-01-19 10:58:59.99	126.77	36.79	
2025-01-19 10:59:00.19	126.72	36.84	
2025-01-19 10:59:00.39	126.67	36.89	
2025-01-19 10:59:00.60	126.62	36.94	
2025-01-19 10:59:00.80	126.57	36.99	
2025-01-19 10:59:01.00	126.53	37.04	
2025-01-19 10:59:01.21	126.48	37.09	
2025-01-19 10:59:01.41	126.43	37.14	
2025-01-19 10:59:01.61	126.38	37.19	
2025-01-19 10:59:01.81	126.33	37.24	
2025-01-19 10:59:02.02	126.28	37.29	
2025-01-19 10:59:02.22	126.23	37.34	
2025-01-19 10:59:02.42	126.18	37.39	
2025-01-19 10:59:02.63	126.13	37.44	
2025-01-19 10:59:02.83	126.08	37.49	
2025-01-19 10:59:03.03	126.03	37.54	
2025-01-19 10:59:03.24	125.98	37.60	
2025-01-19 10:59:03.44	125.93	37.65	
2025-01-19 10:59:03.64	125.88	37.70	
2025-01-19 10:59:03.85	125.83	37.75	
2025-01-19 10:59:04.05	125.78	37.80	
2025-01-19 10:59:04.25	125.73	37.85	
2025-01-19 10:59:04.45	125.68	37.90	
2025-01-19 10:59:04.66	125.62	37.96	
2025-01-19 10:59:04.86	125.57	38.01	
2025-01-19 10:59:05.06	125.52	38.06	
2025-01-19 10:59:05.27	125.47	38.11	
2025-01-19 10:59:05.47	125.41	38.16	
2025-01-19 10:59:05.67	125.36	38.21	
2025-01-19 10:59:05.88	125.31	38.27	
2025-01-19 10:59:06.08	125.26	38.32	
2025-01-19 10:59:06.28	125.20	38.37	
2025-01-19 10:59:06.49	125.15	38.42	
2025-01-19 10:59:06.69	125.10	38.47	
2025-01-19 10:59:06.89	125.04	38.52	
2025-01-19 10:59:07.09	124.99	38.58	
2025-01-19 10:59:07.30	124.94	38.63	
2025-01-19 10:59:07.50	124.88	38.68	
2025-01-19 10:59:07.70	124.83	38.73	
2025-01-19 10:59:07.91	124.77	38.79	
2025-01-19 10:59:08.11	124.72	38.84	
2025-01-19 10:59:08.31	124.67	38.89	
2025-01-19 10:59:08.52	124.61	38.94	
2025-01-19 10:59:08.72	124.56	39.00	
2025-01-19 10:59:08.92	124.50	39.05	
2025-01-19 10:59:09.13	124.44	39.10	
2025-01-19 10:59:09.33	124.39	39.15	
2025-01-19 10:59:09.53	124.33	39.21	
2025-01-19 10:59:09.73	124.28	39.26	
2025-01-19 10:59:09.94	124.22	39.31	
2025-01-19 10:59:10.14	124.17	39.36	
2025-01-19 10:59:10.34	124.11	39.42	
2025-01-19 10:59:10.55	124.05	39.47	
2025-01-19 10:59:10.75	124.00	39.52	
2025-01-19 10:59:10.95	123.94	39.58	
2025-01-19 10:59:11.16	123.88	39.63	
2025-01-19 10:59:11.36	123.82	39.68	
2025-01-19 10:59:11.56	123.77	39.74	
2025-01-19 10:59:11.77	123.71	39.79	
2025-01-19 10:59:11.97	123.65	39.84	
2025-01-19 10:59:12.17	123.59	39.90	
2025-01-19 10:59:12.37	123.53	39.95	
2025-01-19 10:59:12.58	123.47	40.00	
2025-01-19 10:59:12.78	123.42	40.06	
2025-01-19 10:59:12.98	123.36	40.11	
2025-01-19 10:59:13.19	123.30	40.17	
2025-01-19 10:59:13.39	123.24	40.22	
2025-01-19 10:59:13.59	123.18	40.27	
2025-01-19 10:59:13.80	123.12	40.33	
2025-01-19 10:59:14.00	123.06	40.38	
2025-01-19 10:59:14.20	123.00	40.43	
2025-01-19 10:59:14.41	122.94	40.49	
2025-01-19 10:59:14.61	122.88	40.54	
2025-01-19 10:59:14.81	122.82	40.60	
2025-01-19 10:59:15.01	122.76	40.65	
2025-01-19 10:59:15.22	122.69	40.71	
2025-01-19 10:59:15.42	122.63	40.76	
2025-01-19 10:59:15.62	122.57	40.81	
2025-01-19 10:59:15.83	122.51	40.87	
2025-01-19 10:59:16.03	122.45	40.92	
2025-01-19 10:59:16.23	122.38	40.98	
2025-01-19 10:59:16.44	122.32	41.03	
2025-01-19 10:59:16.64	122.26	41.09	
2025-01-19 10:59:16.84	122.20	41.14	
2025-01-19 10:59:17.05	122.13	41.20	
2025-01-19 10:59:17.25	122.07	41.25	
2025-01-19 10:59:17.45	122.01	41.30	
2025-01-19 10:59:17.65	121.94	41.36	
2025-01-19 10:59:17.86	121.88	41.41	
2025-01-19 10:59:18.06	121.81	41.47	
2025-01-19 10:59:18.26	121.75	41.52	
2025-01-19 10:59:18.47	121.68	41.58	
2025-01-19 10:59:18.67	121.62	41.63	
2025-01-19 10:59:18.87	121.55	41.69	
2025-01-19 10:59:19.08	121.49	41.74	
2025-01-19 10:59:19.28	121.42	41.80	
2025-01-19 10:59:19.48	121.36	41.85	
2025-01-19 10:59:19.69	121.29	41.91	
2025-01-19 10:59:19.89	121.22	41.97	
2025-01-19 10:59:20.09	121.16	42.02	
2025-01-19 10:59:20.29	121.09	42.07	
2025-01-19 10:59:20.50	121.02	42.13	
2025-01-19 10:59:20.70	120.96	42.19	
2025-01-19 10:59:20.90	120.89	42.24	
2025-01-19 10:59:21.11	120.82	42.30	
2025-01-19 10:59:21.31	120.75	42.35	
2025-01-19 10:59:21.51	120.68	42.41	
2025-01-19 10:59:21.72	120.61	42.47	
2025-01-19 10:59:21.92	120.55	42.52	
2025-01-19 10:59:22.12	120.48	42.58	
2025-01-19 10:59:22.33	120.41	42.63	
2025-01-19 10:59:22.53	120.34	42.69	
2025-01-19 10:59:22.73	120.27	42.74	
2025-01-19 10:59:22.93	120.20	42.80	
2025-01-19 10:59:23.14	120.13	42.86	
2025-01-19 10:59:23.34	120.06	42.91	
2025-01-19 10:59:23.54	119.99	42.97	
2025-01-19 10:59:23.75	119.92	43.02	
2025-01-19 10:59:23.95	119.84	43.08	
2025-01-19 10:59:24.15	119.77	43.13	
2025-01-19 10:59:24.36	119.70	43.19	
2025-01-19 10:59:24.56	119.63	43.25	
2025-01-19 10:59:24.76	119.56	43.30	
2025-01-19 10:59:24.97	119.48	43.36	
2025-01-19 10:59:25.17	119.41	43.42	
2025-01-19 10:59:25.37	119.34	43.47	
2025-01-19 10:59:25.57	119.27	43.53	
2025-01-19 10:59:25.78	119.19	43.59	
2025-01-19 10:59:25.98	119.12	43.64	
2025-01-19 10:59:26.18	119.05	43.70	
2025-01-19 10:59:26.39	118.97	43.76	
2025-01-19 10:59:26.59	118.89	43.81	
2025-01-19 10:59:26.79	118.82	43.87	
2025-01-19 10:59:27.00	118.74	43.93	
2025-01-19 10:59:27.20	118.67	43.98	
2025-01-19 10:59:27.40	118.59	44.04	
2025-01-19 10:59:27.61	118.52	44.10	
2025-01-19 10:59:27.81	118.44	44.15	
2025-01-19 10:59:28.01	118.36	44.21	
2025-01-19 10:59:28.21	118.29	44.26	
2025-01-19 10:59:28.42	118.21	44.32	
2025-01-19 10:59:28.62	118.13	44.38	
2025-01-19 10:59:28.82	118.06	44.43	
2025-01-19 10:59:29.03	117.98	44.49	
2025-01-19 10:59:29.23	117.90	44.55	
2025-01-19 10:59:29.43	117.82	44.61	
2025-01-19 10:59:29.64	117.74	44.66	
2025-01-19 10:59:29.84	117.66	44.72	
2025-01-19 10:59:30.04	117.58	44.78	
2025-01-19 10:59:30.25	117.50	44.84	
2025-01-19 10:59:30.45	117.42	44.89	
2025-01-19 10:59:30.65	117.34	44.95	
2025-01-19 10:59:30.85	117.26	45.01	
2025-01-19 10:59:31.06	117.18	45.06	
2025-01-19 10:59:31.26	117.10	45.12	
2025-01-19 10:59:31.46	117.02	45.18	
2025-01-19 10:59:31.67	116.94	45.24	
2025-01-19 10:59:31.87	116.85	45.29	
2025-01-19 10:59:32.07	116.77	45.35	
2025-01-19 10:59:32.28	116.69	45.41	
2025-01-19 10:59:32.48	116.61	45.46	
2025-01-19 10:59:32.68	116.52	45.52	
2025-01-19 10:59:32.89	116.44	45.58	
2025-01-19 10:59:33.09	116.35	45.64	
2025-01-19 10:59:33.29	116.27	45.69	
2025-01-19 10:59:33.49	116.19	45.75	
2025-01-19 10:59:33.70	116.10	45.81	
2025-01-19 10:59:33.90	116.02	45.87	
2025-01-19 10:59:34.10	115.93	45.92	
2025-01-19 10:59:34.31	115.84	45.98	
2025-01-19 10:59:34.51	115.76	46.04	
2025-01-19 10:59:34.71	115.67	46.10	
2025-01-19 10:59:34.92	115.58	46.15	
2025-01-19 10:59:35.12	115.50	46.21	
2025-01-19 10:59:35.32	115.41	46.27	
2025-01-19 10:59:35.53	115.32	46.33	
2025-01-19 10:59:35.73	115.23	46.38	
2025-01-19 10:59:35.93	115.15	46.44	
2025-01-19 10:59:36.13	115.06	46.50	
2025-01-19 10:59:36.34	114.97	46.56	
2025-01-19 10:59:36.54	114.88	46.61	
2025-01-19 10:59:36.74	114.79	46.67	
2025-01-19 10:59:36.95	114.70	46.73	
2025-01-19 10:59:37.15	114.61	46.79	
2025-01-19 10:59:37.35	114.52	46.84	
2025-01-19 10:59:37.56	114.43	46.90	
2025-01-19 10:59:37.76	114.34	46.96	
2025-01-19 10:59:37.96	114.25	47.02	
2025-01-19 10:59:38.17	114.15	47.08	
2025-01-19 10:59:38.37	114.06	47.13	
2025-01-19 10:59:38.57	113.97	47.19	
2025-01-19 10:59:38.77	113.88	47.25	
2025-01-19 10:59:38.98	113.78	47.31	
2025-01-19 10:59:39.18	113.69	47.36	
2025-01-19 10:59:39.38	113.59	47.42	
2025-01-19 10:59:39.59	113.50	47.48	
2025-01-19 10:59:39.79	113.40	47.54	
2025-01-19 10:59:39.99	113.31	47.59	
2025-01-19 10:59:40.20	113.21	47.65	
2025-01-19 10:59:40.40	113.12	47.71	
2025-01-19 10:59:40.60	113.02	47.77	
2025-01-19 10:59:40.81	112.92	47.83	
2025-01-19 10:59:41.01	112.82	47.88	
2025-01-19 10:59:41.21	112.73	47.94	
2025-01-19 10:59:41.41	112.63	48.00	
2025-01-19 10:59:41.62	112.53	48.05	
2025-01-19 10:59:41.82	112.43	48.11	
2025-01-19 10:59:42.02	112.34	48.17	
2025-01-19 10:59:42.23	112.23	48.23	
2025-01-19 10:59:42.43	112.14	48.28	
2025-01-19 10:59:42.63	112.04	48.34	
2025-01-19 10:59:42.84	111.93	48.40	
2025-01-19 10:59:43.04	111.83	48.46	
2025-01-19 10:59:43.24	111.73	48.51	
2025-01-19 10:59:43.45	111.63	48.57	
2025-01-19 10:59:43.65	111.53	48.63	
2025-01-19 10:59:43.85	111.43	48.69	
2025-01-19 10:59:44.05	111.33	48.74	
2025-01-19 10:59:44.26	111.22	48.80	
2025-01-19 10:59:44.46	111.12	48.86	
2025-01-19 10:59:44.66	111.01	48.91	
2025-01-19 10:59:44.87	110.91	48.97	
2025-01-19 10:59:45.07	110.80	49.03	
2025-01-19 10:59:45.27	110.70	49.09	
2025-01-19 10:59:45.48	110.59	49.15	
2025-01-19 10:59:45.68	110.49	49.20	
2025-01-19 10:59:45.88	110.38	49.26	
2025-01-19 10:59:46.09	110.27	49.32	
2025-01-19 10:59:46.29	110.17	49.37	
2025-01-19 10:59:46.49	110.06	49.43	
2025-01-19 10:59:46.69	109.95	49.49	
2025-01-19 10:59:46.90	109.84	49.54	
2025-01-19 10:59:47.10	109.73	49.60	
2025-01-19 10:59:47.30	109.63	49.66	
2025-01-19 10:59:47.51	109.51	49.72	
2025-01-19 10:59:47.71	109.41	49.77	
2025-01-19 10:59:47.91	109.30	49.83	
2025-01-19 10:59:48.12	109.18	49.89	
2025-01-19 10:59:48.32	109.07	49.94	
2025-01-19 10:59:48.52	108.96	50.00	
2025-01-19 10:59:48.73	108.85	50.06	
2025-01-19 10:59:48.93	108.74	50.11	
2025-01-19 10:59:49.13	108.62	50.17	
2025-01-19 10:59:49.33	108.51	50.22	
2025-01-19 10:59:49.54	108.40	50.28	
2025-01-19 10:59:49.74	108.28	50.34	
2025-01-19 10:59:49.94	108.17	50.39	
2025-01-19 10:59:50.15	108.05	50.45	
2025-01-19 10:59:50.35	107.94	50.51	
2025-01-19 10:59:50.55	107.82	50.56	
2025-01-19 10:59:50.76	107.70	50.62	
2025-01-19 10:59:50.96	107.59	50.67	
2025-01-19 10:59:51.16	107.47	50.73	
2025-01-19 10:59:51.37	107.35	50.79	
2025-01-19 10:59:51.57	107.23	50.84	
2025-01-19 10:59:51.77	107.12	50.90	
2025-01-19 10:59:51.97	107.00	50.95	
2025-01-19 10:59:52.18	106.88	51.01	
2025-01-19 10:59:52.38	106.76	51.07	
2025-01-19 10:59:52.58	106.64	51.12	
2025-01-19 10:59:52.79	106.51	51.18	
2025-01-19 10:59:52.99	106.39	51.23	
2025-01-19 10:59:53.19	106.27	51.29	
2025-01-19 10:59:53.40	106.15	51.34	
2025-01-19 10:59:53.60	106.03	51.40	
2025-01-19 10:59:53.80	105.91	51.45	
2025-01-19 10:59:54.01	105.78	51.51	
2025-01-19 10:59:54.21	105.66	51.56	
2025-01-19 10:59:54.41	105.53	51.62	
2025-01-19 10:59:54.61	105.41	51.67	
2025-01-19 10:59:54.82	105.28	51.73	
2025-01-19 10:59:55.02	105.16	51.78	
2025-01-19 10:59:55.22	105.03	51.84	
2025-01-19 10:59:55.43	104.90	51.89	
2025-01-19 10:59:55.63	104.78	51.95	
2025-01-19 10:59:55.83	104.65	52.00	
2025-01-19 10:59:56.04	104.52	52.06	
2025-01-19 10:59:56.24	104.39	52.11	
2025-01-19 10:59:56.44	104.26	52.16	
2025-01-19 10:59:56.65	104.13	52.22	
2025-01-19 10:59:56.85	104.00	52.27	
2025-01-19 10:59:57.05	103.87	52.33	
2025-01-19 10:59:57.25	103.74	52.38	
2025-01-19 10:59:57.46	103.61	52.43	
2025-01-19 10:59:57.66	103.48	52.49	
2025-01-19 10:59:57.86	103.34	52.54	
2025-01-19 10:59:58.07	103.21	52.60	
2025-01-19 10:59:58.27	103.08	52.65	
2025-01-19 10:59:58.47	102.94	52.70	
2025-01-19 10:59:58.68	102.80	52.76	
2025-01-19 10:59:58.88	102.67	52.81	
2025-01-19 10:59:59.08	102.54	52.86	
2025-01-19 10:59:59.29	102.40	52.91	
2025-01-19 10:59:59.49	102.26	52.97	
2025-01-19 10:59:59.69	102.13	53.02	
2025-01-19 10:59:59.89	101.99	53.07	
2025-01-19 11:00:00.10	101.85	53.12	
2025-01-19 11:00:00.30	101.71	53.18	
2025-01-19 11:00:00.50	101.58	53.23	
2025-01-19 11:00:00.71	101.43	53.28	
2025-01-19 11:00:00.91	101.29	53.33	
2025-01-19 11:00:01.11	101.15	53.38	
2025-01-19 11:00:01.32	101.01	53.44	
2025-01-19 11:00:01.52	100.87	53.49	
2025-01-19 11:00:01.72	100.73	53.54	
2025-01-19 11:00:01.93	100.58	53.59	
2025-01-19 11:00:02.13	100.44	53.64	
2025-01-19 11:00:02.33	100.30	53.69	
2025-01-19 11:00:02.53	100.16	53.74	
2025-01-19 11:00:02.74	100.01	53.79	
2025-01-19 11:00:02.94	99.86	53.84	
2025-01-19 11:00:03.14	99.72	53.89	
2025-01-19 11:00:03.35	99.57	53.95	
2025-01-19 11:00:03.55	99.43	54.00	
2025-01-19 11:00:03.75	99.28	54.04	
2025-01-19 11:00:03.96	99.13	54.10	
2025-01-19 11:00:04.16	98.98	54.15	
2025-01-19 11:00:04.36	98.83	54.19	
2025-01-19 11:00:04.57	98.68	54.25	
2025-01-19 11:00:04.77	98.53	54.29	
2025-01-19 11:00:04.97	98.38	54.34	
2025-01-19 11:00:05.17	98.24	54.39	
2025-01-19 11:00:05.38	98.08	54.44	
2025-01-19 11:00:05.58	97.93	54.49	
2025-01-19 11:00:05.78	97.78	54.54	
2025-01-19 11:00:05.99	97.62	54.59	
2025-01-19 11:00:06.19	97.47	54.64	
2025-01-19 11:00:06.39	97.32	54.68	
2025-01-19 11:00:06.60	97.16	54.73	
2025-01-19 11:00:06.80	97.01	54.78	
2025-01-19 11:00:07.00	96.85	54.83	
2025-01-19 11:00:07.21	96.69	54.88	
2025-01-19 11:00:07.41	96.54	54.92	
2025-01-19 11:00:07.61	96.38	54.97	
2025-01-19 11:00:07.81	96.23	55.01	
2025-01-19 11:00:08.02	96.06	55.06	
2025-01-19 11:00:08.22	95.91	55.11	
2025-01-19 11:00:08.42	95.75	55.15	
2025-01-19 11:00:08.63	95.58	55.20	
2025-01-19 11:00:08.83	95.43	55.25	
2025-01-19 11:00:09.03	95.27	55.29	
2025-01-19 11:00:09.24	95.10	55.34	
2025-01-19 11:00:09.44	94.94	55.39	
2025-01-19 11:00:09.64	94.78	55.43	
2025-01-19 11:00:09.85	94.61	55.48	
2025-01-19 11:00:10.05	94.45	55.52	
2025-01-19 11:00:10.25	94.29	55.57	
2025-01-19 11:00:10.45	94.13	55.61	
2025-01-19 11:00:10.66	93.96	55.66	
2025-01-19 11:00:10.86	93.79	55.70	
2025-01-19 11:00:11.06	93.63	55.74	
2025-01-19 11:00:11.27	93.46	55.79	
2025-01-19 11:00:11.47	93.29	55.83	
2025-01-19 11:00:11.67	93.13	55.87	
2025-01-19 11:00:11.88	92.95	55.92	
2025-01-19 11:00:12.08	92.79	55.96	
2025-01-19 11:00:12.28	92.62	56.00	
2025-01-19 11:00:12.49	92.45	56.05	
2025-01-19 11:00:12.69	92.28	56.09	
2025-01-19 11:00:12.89	92.11	56.13	
2025-01-19 11:00:13.09	91.94	56.17	
2025-01-19 11:00:13.30	91.76	56.21	
2025-01-19 11:00:13.50	91.59	56.26	
2025-01-19 11:00:13.70	91.42	56.30	
2025-01-19 11:00:13.91	91.24	56.34	
2025-01-19 11:00:14.11	91.07	56.38	
2025-01-19 11:00:14.31	90.90	56.42	
2025-01-19 11:00:14.52	90.72	56.46	
2025-01-19 11:00:14.72	90.55	56.50	
2025-01-19 11:00:14.92	90.37	56.54	
2025-01-19 11:00:15.13	90.19	56.58	
2025-01-19 11:00:15.33	90.02	56.62	
2025-01-19 11:00:15.53	89.84	56.66	
2025-01-19 11:00:15.73	89.67	56.70	
2025-01-19 11:00:15.94	89.48	56.74	
2025-01-19 11:00:16.14	89.30	56.78	
2025-01-19 11:00:16.34	89.13	56.81	
2025-01-19 11:00:16.55	88.94	56.85	
2025-01-19 11:00:16.75	88.76	56.89	
2025-01-19 11:00:16.95	88.59	56.93	
2025-01-19 11:00:17.16	88.40	56.96	
2025-01-19 11:00:17.36	88.22	57.00	
2025-01-19 11:00:17.56	88.04	57.04	
2025-01-19 11:00:17.77	87.85	57.08	
2025-01-19 11:00:17.97	87.67	57.11	
2025-01-19 11:00:18.17	87.49	57.15	
2025-01-19 11:00:18.38	87.30	57.18	
2025-01-19 11:00:18.58	87.11	57.22	
2025-01-19 11:00:18.78	86.93	57.25	
2025-01-19 11:00:18.98	86.75	57.29	
