passes_logs/2025/01/19/SPB_Silybum_02/SPB_Silybum_02__20250119_021834_SUOMI_NPP_rec.log

#Pass ID: 20250119_021834_SUOMI NPP
#Satellite: SUOMI NPP
#Configuration: NPP
#Start time: 2025-01-19 02:18:34

#Version: 2.0.20230423
#Station: SPB_Silybum_02
#Location: 30.233357 lon 59.946436 lat
#TLE: 1 37849U 11061A   25018.16218063  .00000203  00000+0  11733-3 0  9995
#TLE: 2 37849  98.7450 319.1107 0001555  36.1075 324.0206 14.19539838685362

#Time	Az	El	Level	Level2	SNR	BER	Gain	Gain2
2025-01-19 02:18:36.33	14.06	4.13	
2025-01-19 02:18:36.53	14.05	4.14	
2025-01-19 02:18:36.74	14.03	4.16	
2025-01-19 02:18:36.94	14.01	4.17	
2025-01-19 02:18:37.14	14.00	4.18	
2025-01-19 02:18:37.35	13.98	4.19	
2025-01-19 02:18:37.55	13.97	4.20	
2025-01-19 02:18:37.75	13.95	4.22	
2025-01-19 02:18:37.96	13.94	4.23	
2025-01-19 02:18:38.16	13.92	4.24	
2025-01-19 02:18:38.36	13.91	4.25	
2025-01-19 02:18:38.57	13.89	4.27	
2025-01-19 02:18:38.77	13.88	4.28	
2025-01-19 02:18:38.97	13.86	4.29	
2025-01-19 02:18:39.18	13.84	4.30	
2025-01-19 02:18:39.38	13.83	4.31	
2025-01-19 02:18:39.58	13.81	4.32	
2025-01-19 02:18:39.79	13.80	4.34	
2025-01-19 02:18:39.99	13.78	4.35	
2025-01-19 02:18:40.19	13.77	4.36	
2025-01-19 02:18:40.40	13.75	4.37	
2025-01-19 02:18:40.60	13.73	4.39	
2025-01-19 02:18:40.80	13.72	4.40	
2025-01-19 02:18:41.01	13.70	4.41	
2025-01-19 02:18:41.21	13.69	4.42	
2025-01-19 02:18:41.41	13.67	4.43	
2025-01-19 02:18:41.61	13.66	4.45	
2025-01-19 02:18:41.82	13.64	4.46	
2025-01-19 02:18:42.02	13.62	4.47	
2025-01-19 02:18:42.22	13.61	4.48	
2025-01-19 02:18:42.43	13.59	4.49	
2025-01-19 02:18:42.63	13.58	4.51	
2025-01-19 02:18:42.83	13.56	4.52	
2025-01-19 02:18:43.04	13.55	4.53	
2025-01-19 02:18:43.24	13.53	4.54	
2025-01-19 02:18:43.44	13.51	4.55	
2025-01-19 02:18:43.65	13.50	4.57	
2025-01-19 02:18:43.85	13.48	4.58	
2025-01-19 02:18:44.05	13.47	4.59	
2025-01-19 02:18:44.26	13.45	4.60	
2025-01-19 02:18:44.46	13.43	4.61	
2025-01-19 02:18:44.66	13.42	4.63	
2025-01-19 02:18:44.87	13.40	4.64	
2025-01-19 02:18:45.07	13.39	4.65	
2025-01-19 02:18:45.27	13.37	4.66	
2025-01-19 02:18:45.48	13.35	4.68	
2025-01-19 02:18:45.68	13.34	4.69	
2025-01-19 02:18:45.88	13.32	4.70	
2025-01-19 02:18:46.09	13.31	4.71	
2025-01-19 02:18:46.29	13.29	4.72	
2025-01-19 02:18:46.49	13.27	4.74	
2025-01-19 02:18:46.70	13.26	4.75	
2025-01-19 02:18:46.90	13.24	4.76	
2025-01-19 02:18:47.10	13.23	4.77	
2025-01-19 02:18:47.30	13.21	4.78	
2025-01-19 02:18:47.51	13.19	4.80	
2025-01-19 02:18:47.71	13.18	4.81	
2025-01-19 02:18:47.91	13.16	4.82	
2025-01-19 02:18:48.12	13.15	4.83	
2025-01-19 02:18:48.32	13.13	4.85	
2025-01-19 02:18:48.52	13.11	4.86	
2025-01-19 02:18:48.73	13.10	4.87	
2025-01-19 02:18:48.93	13.08	4.88	
2025-01-19 02:18:49.13	13.06	4.89	
2025-01-19 02:18:49.34	13.05	4.91	
2025-01-19 02:18:49.54	13.03	4.92	
2025-01-19 02:18:49.74	13.02	4.93	
2025-01-19 02:18:49.95	13.00	4.94	
2025-01-19 02:18:50.15	12.98	4.95	
2025-01-19 02:18:50.35	12.97	4.97	
2025-01-19 02:18:50.56	12.95	4.98	
2025-01-19 02:18:50.76	12.93	4.99	
2025-01-19 02:18:50.96	12.92	5.00	
2025-01-19 02:18:51.17	12.90	5.02	
2025-01-19 02:18:51.37	12.88	5.03	
2025-01-19 02:18:51.57	12.87	5.04	
2025-01-19 02:18:51.78	12.85	5.05	
2025-01-19 02:18:51.98	12.84	5.06	
2025-01-19 02:18:52.18	12.82	5.08	
2025-01-19 02:18:52.39	12.80	5.09	
2025-01-19 02:18:52.59	12.79	5.10	
2025-01-19 02:18:52.79	12.77	5.11	
2025-01-19 02:18:52.99	12.75	5.13	
2025-01-19 02:18:53.20	12.74	5.14	
2025-01-19 02:18:53.40	12.72	5.15	
2025-01-19 02:18:53.60	12.70	5.16	
2025-01-19 02:18:53.81	12.69	5.18	
2025-01-19 02:18:54.01	12.67	5.19	
2025-01-19 02:18:54.21	12.65	5.20	
2025-01-19 02:18:54.42	12.64	5.21	
2025-01-19 02:18:54.62	12.62	5.22	
2025-01-19 02:18:54.82	12.60	5.24	
2025-01-19 02:18:55.03	12.59	5.25	
2025-01-19 02:18:55.23	12.57	5.26	
2025-01-19 02:18:55.43	12.55	5.27	
2025-01-19 02:18:55.64	12.54	5.29	
2025-01-19 02:18:55.84	12.52	5.30	
2025-01-19 02:18:56.04	12.50	5.31	
2025-01-19 02:18:56.25	12.49	5.32	
2025-01-19 02:18:56.45	12.47	5.33	
2025-01-19 02:18:56.65	12.45	5.35	
2025-01-19 02:18:56.86	12.44	5.36	
2025-01-19 02:18:57.06	12.42	5.37	
2025-01-19 02:18:57.26	12.40	5.38	
2025-01-19 02:18:57.47	12.39	5.40	
2025-01-19 02:18:57.67	12.37	5.41	
2025-01-19 02:18:57.87	12.35	5.42	
2025-01-19 02:18:58.08	12.34	5.43	
2025-01-19 02:18:58.28	12.32	5.45	
2025-01-19 02:18:58.48	12.30	5.46	
2025-01-19 02:18:58.68	12.29	5.47	
2025-01-19 02:18:58.89	12.27	5.48	
2025-01-19 02:18:59.09	12.25	5.50	
2025-01-19 02:18:59.29	12.23	5.51	
2025-01-19 02:18:59.50	12.22	5.52	
2025-01-19 02:18:59.70	12.20	5.53	
2025-01-19 02:18:59.90	12.18	5.54	
2025-01-19 02:19:00.11	12.17	5.56	
2025-01-19 02:19:00.31	12.15	5.57	
2025-01-19 02:19:00.51	12.13	5.58	
2025-01-19 02:19:00.72	12.11	5.59	
2025-01-19 02:19:00.92	12.10	5.61	
2025-01-19 02:19:01.12	12.08	5.62	
2025-01-19 02:19:01.33	12.06	5.63	
2025-01-19 02:19:01.53	12.05	5.64	
2025-01-19 02:19:01.73	12.03	5.66	
2025-01-19 02:19:01.94	12.01	5.67	
2025-01-19 02:19:02.14	11.99	5.68	
2025-01-19 02:19:02.34	11.98	5.69	
2025-01-19 02:19:02.55	11.96	5.71	
2025-01-19 02:19:02.75	11.94	5.72	
2025-01-19 02:19:02.95	11.93	5.73	
2025-01-19 02:19:03.16	11.91	5.74	
2025-01-19 02:19:03.36	11.89	5.76	
2025-01-19 02:19:03.56	11.87	5.77	
2025-01-19 02:19:03.77	11.86	5.78	
2025-01-19 02:19:03.97	11.84	5.79	
2025-01-19 02:19:04.17	11.82	5.80	
2025-01-19 02:19:04.37	11.81	5.82	
2025-01-19 02:19:04.58	11.79	5.83	
2025-01-19 02:19:04.78	11.77	5.84	
2025-01-19 02:19:04.98	11.75	5.85	
2025-01-19 02:19:05.19	11.73	5.87	
2025-01-19 02:19:05.39	11.72	5.88	
2025-01-19 02:19:05.59	11.70	5.89	
2025-01-19 02:19:05.80	11.68	5.90	
2025-01-19 02:19:06.00	11.67	5.92	
2025-01-19 02:19:06.20	11.65	5.93	
2025-01-19 02:19:06.41	11.63	5.94	
2025-01-19 02:19:06.61	11.61	5.95	
2025-01-19 02:19:06.81	11.60	5.97	
2025-01-19 02:19:07.02	11.58	5.98	
2025-01-19 02:19:07.22	11.56	5.99	
2025-01-19 02:19:07.42	11.54	6.00	
2025-01-19 02:19:07.63	11.52	6.02	
2025-01-19 02:19:07.83	11.51	6.03	
2025-01-19 02:19:08.03	11.49	6.04	
2025-01-19 02:19:08.24	11.47	6.05	
2025-01-19 02:19:08.44	11.45	6.07	
2025-01-19 02:19:08.64	11.44	6.08	
2025-01-19 02:19:08.85	11.42	6.09	
2025-01-19 02:19:09.05	11.40	6.10	
2025-01-19 02:19:09.25	11.38	6.12	
2025-01-19 02:19:09.46	11.37	6.13	
2025-01-19 02:19:09.66	11.35	6.14	
2025-01-19 02:19:09.86	11.33	6.15	
2025-01-19 02:19:10.06	11.31	6.17	
2025-01-19 02:19:10.27	11.29	6.18	
2025-01-19 02:19:10.47	11.28	6.19	
2025-01-19 02:19:10.67	11.26	6.20	
2025-01-19 02:19:10.88	11.24	6.22	
2025-01-19 02:19:11.08	11.22	6.23	
2025-01-19 02:19:11.28	11.21	6.24	
2025-01-19 02:19:11.49	11.19	6.25	
2025-01-19 02:19:11.69	11.17	6.27	
2025-01-19 02:19:11.89	11.15	6.28	
2025-01-19 02:19:12.10	11.13	6.29	
2025-01-19 02:19:12.30	11.12	6.30	
2025-01-19 02:19:12.50	11.10	6.32	
2025-01-19 02:19:12.71	11.08	6.33	
2025-01-19 02:19:12.91	11.06	6.34	
2025-01-19 02:19:13.11	11.04	6.36	
2025-01-19 02:19:13.32	11.03	6.37	
2025-01-19 02:19:13.52	11.01	6.38	
2025-01-19 02:19:13.72	10.99	6.39	
2025-01-19 02:19:13.93	10.97	6.41	
2025-01-19 02:19:14.13	10.95	6.42	
2025-01-19 02:19:14.33	10.94	6.43	
2025-01-19 02:19:14.54	10.92	6.44	
2025-01-19 02:19:14.74	10.90	6.46	
2025-01-19 02:19:14.94	10.88	6.47	
2025-01-19 02:19:15.14	10.86	6.48	
2025-01-19 02:19:15.35	10.84	6.49	
2025-01-19 02:19:15.55	10.83	6.51	
2025-01-19 02:19:15.75	10.81	6.52	
2025-01-19 02:19:15.96	10.79	6.53	
2025-01-19 02:19:16.16	10.77	6.54	
2025-01-19 02:19:16.36	10.75	6.56	
2025-01-19 02:19:16.57	10.73	6.57	
2025-01-19 02:19:16.77	10.72	6.58	
2025-01-19 02:19:16.97	10.70	6.59	
2025-01-19 02:19:17.18	10.68	6.61	
2025-01-19 02:19:17.38	10.66	6.62	
2025-01-19 02:19:17.58	10.64	6.63	
2025-01-19 02:19:17.79	10.62	6.65	
2025-01-19 02:19:17.99	10.61	6.66	
2025-01-19 02:19:18.19	10.59	6.67	
2025-01-19 02:19:18.40	10.57	6.68	
2025-01-19 02:19:18.60	10.55	6.70	
2025-01-19 02:19:18.80	10.53	6.71	
2025-01-19 02:19:19.01	10.51	6.72	
2025-01-19 02:19:19.21	10.49	6.73	
2025-01-19 02:19:19.41	10.48	6.75	
2025-01-19 02:19:19.62	10.46	6.76	
2025-01-19 02:19:19.82	10.44	6.77	
2025-01-19 02:19:20.02	10.42	6.78	
2025-01-19 02:19:20.23	10.40	6.80	
2025-01-19 02:19:20.43	10.38	6.81	
2025-01-19 02:19:20.63	10.37	6.82	
2025-01-19 02:19:20.83	10.35	6.84	
2025-01-19 02:19:21.04	10.33	6.85	
2025-01-19 02:19:21.24	10.31	6.86	
2025-01-19 02:19:21.44	10.29	6.87	
2025-01-19 02:19:21.65	10.27	6.89	
2025-01-19 02:19:21.85	10.25	6.90	
2025-01-19 02:19:22.05	10.23	6.91	
2025-01-19 02:19:22.26	10.21	6.93	
2025-01-19 02:19:22.46	10.20	6.94	
2025-01-19 02:19:22.66	10.18	6.95	
2025-01-19 02:19:22.87	10.16	6.96	
2025-01-19 02:19:23.07	10.14	6.98	
2025-01-19 02:19:23.27	10.12	6.99	
2025-01-19 02:19:23.48	10.10	7.00	
2025-01-19 02:19:23.68	10.08	7.01	
2025-01-19 02:19:23.88	10.06	7.03	
2025-01-19 02:19:24.09	10.04	7.04	
2025-01-19 02:19:24.29	10.03	7.05	
2025-01-19 02:19:24.49	10.01	7.06	
2025-01-19 02:19:24.70	9.99	7.08	
2025-01-19 02:19:24.90	9.97	7.09	
2025-01-19 02:19:25.10	9.95	7.10	
2025-01-19 02:19:25.31	9.93	7.12	
2025-01-19 02:19:25.51	9.91	7.13	
2025-01-19 02:19:25.71	9.89	7.14	
2025-01-19 02:19:25.92	9.87	7.15	
2025-01-19 02:19:26.12	9.85	7.17	
2025-01-19 02:19:26.32	9.84	7.18	
2025-01-19 02:19:26.52	9.82	7.19	
2025-01-19 02:19:26.73	9.80	7.21	
2025-01-19 02:19:26.93	9.78	7.22	
2025-01-19 02:19:27.13	9.76	7.23	
2025-01-19 02:19:27.34	9.74	7.24	
2025-01-19 02:19:27.54	9.72	7.26	
2025-01-19 02:19:27.74	9.70	7.27	
2025-01-19 02:19:27.95	9.68	7.28	
2025-01-19 02:19:28.15	9.66	7.30	
2025-01-19 02:19:28.35	9.64	7.31	
2025-01-19 02:19:28.56	9.62	7.32	
2025-01-19 02:19:28.76	9.60	7.33	
2025-01-19 02:19:28.96	9.59	7.35	
2025-01-19 02:19:29.17	9.57	7.36	
2025-01-19 02:19:29.37	9.55	7.37	
2025-01-19 02:19:29.57	9.53	7.39	
2025-01-19 02:19:29.78	9.51	7.40	
2025-01-19 02:19:29.98	9.49	7.41	
2025-01-19 02:19:30.18	9.47	7.42	
2025-01-19 02:19:30.39	9.45	7.44	
2025-01-19 02:19:30.59	9.43	7.45	
2025-01-19 02:19:30.79	9.41	7.46	
2025-01-19 02:19:31.00	9.39	7.48	
2025-01-19 02:19:31.20	9.37	7.49	
2025-01-19 02:19:31.40	9.35	7.50	
2025-01-19 02:19:31.61	9.33	7.51	
2025-01-19 02:19:31.81	9.31	7.53	
2025-01-19 02:19:32.01	9.29	7.54	
2025-01-19 02:19:32.21	9.27	7.55	
2025-01-19 02:19:32.42	9.25	7.57	
2025-01-19 02:19:32.62	9.23	7.58	
2025-01-19 02:19:32.82	9.21	7.59	
2025-01-19 02:19:33.03	9.19	7.60	
2025-01-19 02:19:33.23	9.18	7.62	
2025-01-19 02:19:33.43	9.16	7.63	
2025-01-19 02:19:33.64	9.14	7.64	
2025-01-19 02:19:33.84	9.12	7.66	
2025-01-19 02:19:34.04	9.10	7.67	
2025-01-19 02:19:34.25	9.08	7.68	
2025-01-19 02:19:34.45	9.06	7.69	
2025-01-19 02:19:34.65	9.04	7.71	
2025-01-19 02:19:34.86	9.02	7.72	
2025-01-19 02:19:35.06	9.00	7.73	
2025-01-19 02:19:35.26	8.98	7.75	
2025-01-19 02:19:35.47	8.96	7.76	
2025-01-19 02:19:35.67	8.94	7.77	
2025-01-19 02:19:35.87	8.92	7.79	
2025-01-19 02:19:36.08	8.90	7.80	
2025-01-19 02:19:36.28	8.88	7.81	
2025-01-19 02:19:36.48	8.86	7.82	
2025-01-19 02:19:36.69	8.84	7.84	
2025-01-19 02:19:36.89	8.82	7.85	
2025-01-19 02:19:37.09	8.80	7.86	
2025-01-19 02:19:37.30	8.78	7.88	
2025-01-19 02:19:37.50	8.76	7.89	
2025-01-19 02:19:37.70	8.74	7.90	
2025-01-19 02:19:37.90	8.72	7.91	
2025-01-19 02:19:38.11	8.70	7.93	
2025-01-19 02:19:38.31	8.68	7.94	
2025-01-19 02:19:38.51	8.66	7.95	
2025-01-19 02:19:38.72	8.63	7.97	
2025-01-19 02:19:38.92	8.62	7.98	
2025-01-19 02:19:39.12	8.60	7.99	
2025-01-19 02:19:39.33	8.57	8.01	
2025-01-19 02:19:39.53	8.55	8.02	
2025-01-19 02:19:39.73	8.53	8.03	
2025-01-19 02:19:39.94	8.51	8.05	
2025-01-19 02:19:40.14	8.49	8.06	
2025-01-19 02:19:40.34	8.47	8.07	
2025-01-19 02:19:40.55	8.45	8.08	
2025-01-19 02:19:40.75	8.43	8.10	
2025-01-19 02:19:40.95	8.41	8.11	
2025-01-19 02:19:41.16	8.39	8.12	
2025-01-19 02:19:41.36	8.37	8.14	
2025-01-19 02:19:41.56	8.35	8.15	
2025-01-19 02:19:41.77	8.33	8.16	
2025-01-19 02:19:41.97	8.31	8.18	
2025-01-19 02:19:42.17	8.29	8.19	
2025-01-19 02:19:42.38	8.27	8.20	
2025-01-19 02:19:42.58	8.25	8.21	
2025-01-19 02:19:42.78	8.23	8.23	
2025-01-19 02:19:42.99	8.21	8.24	
2025-01-19 02:19:43.19	8.19	8.25	
2025-01-19 02:19:43.39	8.16	8.27	
2025-01-19 02:19:43.59	8.14	8.28	
2025-01-19 02:19:43.80	8.12	8.29	
2025-01-19 02:19:44.00	8.10	8.31	
2025-01-19 02:19:44.20	8.08	8.32	
2025-01-19 02:19:44.41	8.06	8.33	
2025-01-19 02:19:44.61	8.04	8.35	
2025-01-19 02:19:44.81	8.02	8.36	
2025-01-19 02:19:45.02	8.00	8.37	
2025-01-19 02:19:45.22	7.98	8.38	
2025-01-19 02:19:45.42	7.96	8.40	
2025-01-19 02:19:45.63	7.94	8.41	
2025-01-19 02:19:45.83	7.92	8.42	
2025-01-19 02:19:46.03	7.89	8.44	
2025-01-19 02:19:46.24	7.87	8.45	
2025-01-19 02:19:46.44	7.85	8.46	
2025-01-19 02:19:46.64	7.83	8.48	
2025-01-19 02:19:46.85	7.81	8.49	
2025-01-19 02:19:47.05	7.79	8.50	
2025-01-19 02:19:47.25	7.77	8.52	
2025-01-19 02:19:47.46	7.75	8.53	
2025-01-19 02:19:47.66	7.73	8.54	
2025-01-19 02:19:47.86	7.71	8.56	
2025-01-19 02:19:48.07	7.68	8.57	
2025-01-19 02:19:48.27	7.66	8.58	
2025-01-19 02:19:48.47	7.64	8.59	
2025-01-19 02:19:48.68	7.62	8.61	
2025-01-19 02:19:48.88	7.60	8.62	
2025-01-19 02:19:49.08	7.58	8.63	
2025-01-19 02:19:49.28	7.56	8.65	
2025-01-19 02:19:49.49	7.54	8.66	
2025-01-19 02:19:49.69	7.51	8.67	
2025-01-19 02:19:49.89	7.49	8.69	
2025-01-19 02:19:50.10	7.47	8.70	
2025-01-19 02:19:50.30	7.45	8.71	
2025-01-19 02:19:50.50	7.43	8.73	
2025-01-19 02:19:50.71	7.41	8.74	
2025-01-19 02:19:50.91	7.39	8.75	
2025-01-19 02:19:51.11	7.37	8.77	
2025-01-19 02:19:51.32	7.34	8.78	
2025-01-19 02:19:51.52	7.32	8.79	
2025-01-19 02:19:51.72	7.30	8.81	
2025-01-19 02:19:51.93	7.28	8.82	
2025-01-19 02:19:52.13	7.26	8.83	
2025-01-19 02:19:52.33	7.24	8.84	
2025-01-19 02:19:52.54	7.21	8.86	
2025-01-19 02:19:52.74	7.19	8.87	
2025-01-19 02:19:52.94	7.17	8.88	
2025-01-19 02:19:53.15	7.15	8.90	
2025-01-19 02:19:53.35	7.13	8.91	
2025-01-19 02:19:53.55	7.11	8.92	
2025-01-19 02:19:53.76	7.08	8.94	
2025-01-19 02:19:53.96	7.06	8.95	
2025-01-19 02:19:54.16	7.04	8.96	
2025-01-19 02:19:54.37	7.02	8.98	
2025-01-19 02:19:54.57	7.00	8.99	
2025-01-19 02:19:54.77	6.98	9.00	
2025-01-19 02:19:54.97	6.95	9.02	
2025-01-19 02:19:55.18	6.93	9.03	
2025-01-19 02:19:55.38	6.91	9.04	
2025-01-19 02:19:55.58	6.89	9.06	
2025-01-19 02:19:55.79	6.87	9.07	
2025-01-19 02:19:55.99	6.85	9.08	
2025-01-19 02:19:56.19	6.82	9.10	
2025-01-19 02:19:56.40	6.80	9.11	
2025-01-19 02:19:56.60	6.78	9.12	
2025-01-19 02:19:56.80	6.76	9.14	
2025-01-19 02:19:57.01	6.73	9.15	
2025-01-19 02:19:57.21	6.71	9.16	
2025-01-19 02:19:57.41	6.69	9.18	
2025-01-19 02:19:57.62	6.67	9.19	
2025-01-19 02:19:57.82	6.65	9.20	
2025-01-19 02:19:58.02	6.63	9.22	
2025-01-19 02:19:58.23	6.60	9.23	
2025-01-19 02:19:58.43	6.58	9.24	
2025-01-19 02:19:58.63	6.56	9.26	
2025-01-19 02:19:58.84	6.54	9.27	
2025-01-19 02:19:59.04	6.51	9.28	
2025-01-19 02:19:59.24	6.49	9.30	
2025-01-19 02:19:59.45	6.47	9.31	
2025-01-19 02:19:59.65	6.45	9.32	
2025-01-19 02:19:59.85	6.43	9.34	
2025-01-19 02:20:00.05	6.40	9.35	
2025-01-19 02:20:00.26	6.38	9.36	
2025-01-19 02:20:00.46	6.36	9.38	
2025-01-19 02:20:00.66	6.34	9.39	
2025-01-19 02:20:00.87	6.31	9.40	
2025-01-19 02:20:01.07	6.29	9.42	
2025-01-19 02:20:01.27	6.27	9.43	
2025-01-19 02:20:01.48	6.25	9.44	
2025-01-19 02:20:01.68	6.22	9.46	
2025-01-19 02:20:01.88	6.20	9.47	
2025-01-19 02:20:02.09	6.18	9.48	
2025-01-19 02:20:02.29	6.16	9.50	
2025-01-19 02:20:02.49	6.13	9.51	
2025-01-19 02:20:02.70	6.11	9.52	
2025-01-19 02:20:02.90	6.09	9.54	
2025-01-19 02:20:03.10	6.07	9.55	
2025-01-19 02:20:03.31	6.04	9.56	
2025-01-19 02:20:03.51	6.02	9.58	
2025-01-19 02:20:03.71	6.00	9.59	
2025-01-19 02:20:03.92	5.97	9.60	
2025-01-19 02:20:04.12	5.95	9.62	
2025-01-19 02:20:04.32	5.93	9.63	
2025-01-19 02:20:04.53	5.91	9.64	
2025-01-19 02:20:04.73	5.88	9.66	
2025-01-19 02:20:04.93	5.86	9.67	
2025-01-19 02:20:05.14	5.84	9.68	
2025-01-19 02:20:05.34	5.81	9.70	
2025-01-19 02:20:05.54	5.79	9.71	
2025-01-19 02:20:05.74	5.77	9.72	
2025-01-19 02:20:05.95	5.75	9.74	
2025-01-19 02:20:06.15	5.72	9.75	
2025-01-19 02:20:06.35	5.70	9.76	
2025-01-19 02:20:06.56	5.68	9.78	
2025-01-19 02:20:06.76	5.65	9.79	
2025-01-19 02:20:06.96	5.63	9.80	
2025-01-19 02:20:07.17	5.61	9.82	
2025-01-19 02:20:07.37	5.59	9.83	
2025-01-19 02:20:07.57	5.56	9.84	
2025-01-19 02:20:07.78	5.54	9.86	
2025-01-19 02:20:07.98	5.52	9.87	
2025-01-19 02:20:08.18	5.49	9.88	
2025-01-19 02:20:08.39	5.47	9.90	
2025-01-19 02:20:08.59	5.45	9.91	
2025-01-19 02:20:08.79	5.42	9.92	
2025-01-19 02:20:09.00	5.40	9.94	
2025-01-19 02:20:09.20	5.38	9.95	
2025-01-19 02:20:09.40	5.35	9.96	
2025-01-19 02:20:09.61	5.33	9.98	
2025-01-19 02:20:09.81	5.31	9.99	
2025-01-19 02:20:10.01	5.28	10.00	
2025-01-19 02:20:10.22	5.26	10.02	
2025-01-19 02:20:10.42	5.24	10.03	
2025-01-19 02:20:10.62	5.21	10.05	
2025-01-19 02:20:10.83	5.19	10.06	
2025-01-19 02:20:11.03	5.17	10.07	
2025-01-19 02:20:11.23	5.14	10.09	
2025-01-19 02:20:11.43	5.12	10.10	
2025-01-19 02:20:11.64	5.10	10.11	
2025-01-19 02:20:11.84	5.07	10.13	
2025-01-19 02:20:12.04	5.05	10.14	
2025-01-19 02:20:12.25	5.02	10.15	
2025-01-19 02:20:12.45	5.00	10.17	
2025-01-19 02:20:12.65	4.98	10.18	
2025-01-19 02:20:12.86	4.95	10.19	
2025-01-19 02:20:13.06	4.93	10.21	
2025-01-19 02:20:13.26	4.91	10.22	
2025-01-19 02:20:13.47	4.88	10.23	
2025-01-19 02:20:13.67	4.86	10.25	
2025-01-19 02:20:13.87	4.84	10.26	
2025-01-19 02:20:14.08	4.81	10.27	
2025-01-19 02:20:14.28	4.79	10.29	
2025-01-19 02:20:14.48	4.76	10.30	
2025-01-19 02:20:14.69	4.74	10.32	
2025-01-19 02:20:14.89	4.72	10.33	
2025-01-19 02:20:15.09	4.69	10.34	
2025-01-19 02:20:15.30	4.67	10.36	
2025-01-19 02:20:15.50	4.64	10.37	
2025-01-19 02:20:15.70	4.62	10.38	
2025-01-19 02:20:15.91	4.60	10.40	
2025-01-19 02:20:16.11	4.57	10.41	
2025-01-19 02:20:16.31	4.55	10.42	
2025-01-19 02:20:16.52	4.52	10.44	
2025-01-19 02:20:16.72	4.50	10.45	
2025-01-19 02:20:16.92	4.48	10.46	
2025-01-19 02:20:17.12	4.45	10.48	
2025-01-19 02:20:17.33	4.43	10.49	
2025-01-19 02:20:17.53	4.40	10.50	
2025-01-19 02:20:17.73	4.38	10.52	
2025-01-19 02:20:17.94	4.35	10.53	
2025-01-19 02:20:18.14	4.33	10.55	
2025-01-19 02:20:18.34	4.31	10.56	
2025-01-19 02:20:18.55	4.28	10.57	
2025-01-19 02:20:18.75	4.26	10.59	
2025-01-19 02:20:18.95	4.23	10.60	
2025-01-19 02:20:19.16	4.21	10.61	
2025-01-19 02:20:19.36	4.18	10.63	
2025-01-19 02:20:19.56	4.16	10.64	
2025-01-19 02:20:19.77	4.13	10.65	
2025-01-19 02:20:19.97	4.11	10.67	
2025-01-19 02:20:20.17	4.09	10.68	
2025-01-19 02:20:20.38	4.06	10.69	
2025-01-19 02:20:20.58	4.04	10.71	
2025-01-19 02:20:20.78	4.01	10.72	
2025-01-19 02:20:20.99	3.99	10.74	
2025-01-19 02:20:21.19	3.96	10.75	
2025-01-19 02:20:21.39	3.94	10.76	
2025-01-19 02:20:21.60	3.91	10.78	
2025-01-19 02:20:21.80	3.89	10.79	
2025-01-19 02:20:22.00	3.86	10.80	
2025-01-19 02:20:22.21	3.84	10.82	
2025-01-19 02:20:22.41	3.81	10.83	
2025-01-19 02:20:22.61	3.79	10.84	
2025-01-19 02:20:22.81	3.77	10.86	
2025-01-19 02:20:23.02	3.74	10.87	
2025-01-19 02:20:23.22	3.72	10.88	
2025-01-19 02:20:23.42	3.69	10.90	
2025-01-19 02:20:23.63	3.67	10.91	
2025-01-19 02:20:23.83	3.64	10.93	
2025-01-19 02:20:24.03	3.62	10.94	
2025-01-19 02:20:24.24	3.59	10.95	
2025-01-19 02:20:24.44	3.57	10.97	
2025-01-19 02:20:24.64	3.54	10.98	
2025-01-19 02:20:24.85	3.52	10.99	
2025-01-19 02:20:25.05	3.49	11.01	
2025-01-19 02:20:25.25	3.47	11.02	
2025-01-19 02:20:25.46	3.44	11.03	
2025-01-19 02:20:25.66	3.42	11.05	
2025-01-19 02:20:25.86	3.39	11.06	
2025-01-19 02:20:26.07	3.36	11.08	
2025-01-19 02:20:26.27	3.34	11.09	
2025-01-19 02:20:26.47	3.31	11.10	
2025-01-19 02:20:26.68	3.29	11.12	
2025-01-19 02:20:26.88	3.26	11.13	
2025-01-19 02:20:27.08	3.24	11.14	
2025-01-19 02:20:27.29	3.21	11.16	
2025-01-19 02:20:27.49	3.19	11.17	
2025-01-19 02:20:27.69	3.16	11.18	
2025-01-19 02:20:27.90	3.14	11.20	
2025-01-19 02:20:28.10	3.11	11.21	
2025-01-19 02:20:28.30	3.09	11.23	
2025-01-19 02:20:28.50	3.06	11.24	
2025-01-19 02:20:28.71	3.03	11.25	
2025-01-19 02:20:28.91	3.01	11.27	
2025-01-19 02:20:29.11	2.98	11.28	
2025-01-19 02:20:29.32	2.96	11.29	
2025-01-19 02:20:29.52	2.93	11.31	
2025-01-19 02:20:29.72	2.91	11.32	
2025-01-19 02:20:29.93	2.88	11.34	
2025-01-19 02:20:30.13	2.86	11.35	
2025-01-19 02:20:30.33	2.83	11.36	
2025-01-19 02:20:30.54	2.80	11.38	
2025-01-19 02:20:30.74	2.78	11.39	
2025-01-19 02:20:30.94	2.75	11.40	
2025-01-19 02:20:31.15	2.73	11.42	
2025-01-19 02:20:31.35	2.70	11.43	
2025-01-19 02:20:31.55	2.68	11.44	
2025-01-19 02:20:31.76	2.65	11.46	
2025-01-19 02:20:31.96	2.62	11.47	
2025-01-19 02:20:32.16	2.60	11.49	
2025-01-19 02:20:32.37	2.57	11.50	
2025-01-19 02:20:32.57	2.55	11.51	
2025-01-19 02:20:32.77	2.52	11.53	
2025-01-19 02:20:32.98	2.49	11.54	
2025-01-19 02:20:33.18	2.47	11.55	
2025-01-19 02:20:33.38	2.44	11.57	
2025-01-19 02:20:33.58	2.42	11.58	
2025-01-19 02:20:33.79	2.39	11.60	
2025-01-19 02:20:33.99	2.36	11.61	
2025-01-19 02:20:34.19	2.34	11.62	
2025-01-19 02:20:34.40	2.31	11.64	
2025-01-19 02:20:34.60	2.28	11.65	
2025-01-19 02:20:34.80	2.26	11.66	
2025-01-19 02:20:35.01	2.23	11.68	
2025-01-19 02:20:35.21	2.21	11.69	
2025-01-19 02:20:35.41	2.18	11.70	
2025-01-19 02:20:35.62	2.15	11.72	
2025-01-19 02:20:35.82	2.13	11.73	
2025-01-19 02:20:36.02	2.10	11.75	
2025-01-19 02:20:36.23	2.07	11.76	
2025-01-19 02:20:36.43	2.05	11.77	
2025-01-19 02:20:36.63	2.02	11.79	
2025-01-19 02:20:36.84	1.99	11.80	
2025-01-19 02:20:37.04	1.97	11.81	
2025-01-19 02:20:37.24	1.94	11.83	
2025-01-19 02:20:37.45	1.91	11.84	
2025-01-19 02:20:37.65	1.89	11.86	
2025-01-19 02:20:37.85	1.86	11.87	
2025-01-19 02:20:38.06	1.83	11.88	
2025-01-19 02:20:38.26	1.81	11.90	
2025-01-19 02:20:38.46	1.78	11.91	
2025-01-19 02:20:38.67	1.75	11.93	
2025-01-19 02:20:38.87	1.73	11.94	
2025-01-19 02:20:39.07	1.70	11.95	
2025-01-19 02:20:39.27	1.67	11.97	
2025-01-19 02:20:39.48	1.65	11.98	
2025-01-19 02:20:39.68	1.62	11.99	
2025-01-19 02:20:39.88	1.59	12.01	
2025-01-19 02:20:40.09	1.57	12.02	
2025-01-19 02:20:40.29	1.54	12.03	
2025-01-19 02:20:40.49	1.51	12.05	
2025-01-19 02:20:40.70	1.49	12.06	
2025-01-19 02:20:40.90	1.46	12.08	
2025-01-19 02:20:41.10	1.43	12.09	
2025-01-19 02:20:41.31	1.40	12.10	
2025-01-19 02:20:41.51	1.38	12.12	
2025-01-19 02:20:41.71	1.35	12.13	
2025-01-19 02:20:41.92	1.32	12.15	
2025-01-19 02:20:42.12	1.30	12.16	
2025-01-19 02:20:42.32	1.27	12.17	
2025-01-19 02:20:42.53	1.24	12.19	
2025-01-19 02:20:42.73	1.21	12.20	
2025-01-19 02:20:42.93	1.19	12.21	
2025-01-19 02:20:43.14	1.16	12.23	
2025-01-19 02:20:43.34	1.13	12.24	
2025-01-19 02:20:43.54	1.10	12.26	
2025-01-19 02:20:43.75	1.08	12.27	
2025-01-19 02:20:43.95	1.05	12.28	
2025-01-19 02:20:44.15	1.02	12.30	
2025-01-19 02:20:44.36	0.99	12.31	
2025-01-19 02:20:44.56	0.97	12.32	
2025-01-19 02:20:44.76	0.94	12.34	
2025-01-19 02:20:44.96	0.91	12.35	
2025-01-19 02:20:45.17	0.88	12.37	
2025-01-19 02:20:45.37	0.86	12.38	
2025-01-19 02:20:45.57	0.83	12.39	
2025-01-19 02:20:45.78	0.80	12.41	
2025-01-19 02:20:45.98	0.77	12.42	
2025-01-19 02:20:46.18	0.75	12.43	
2025-01-19 02:20:46.39	0.72	12.45	
2025-01-19 02:20:46.59	0.69	12.46	
2025-01-19 02:20:46.79	0.66	12.48	
2025-01-19 02:20:47.00	0.64	12.49	
2025-01-19 02:20:47.20	0.61	12.50	
2025-01-19 02:20:47.40	0.58	12.52	
2025-01-19 02:20:47.61	0.55	12.53	
2025-01-19 02:20:47.81	0.52	12.55	
2025-01-19 02:20:48.01	0.50	12.56	
2025-01-19 02:20:48.22	0.47	12.57	
2025-01-19 02:20:48.42	0.44	12.59	
2025-01-19 02:20:48.62	0.41	12.60	
2025-01-19 02:20:48.83	0.38	12.61	
2025-01-19 02:20:49.03	0.36	12.63	
2025-01-19 02:20:49.23	0.33	12.64	
2025-01-19 02:20:49.44	0.30	12.66	
2025-01-19 02:20:49.64	0.27	12.67	
2025-01-19 02:20:49.84	0.24	12.68	
2025-01-19 02:20:50.05	0.21	12.70	
2025-01-19 02:20:50.25	0.19	12.71	
2025-01-19 02:20:50.45	0.16	12.72	
2025-01-19 02:20:50.65	0.13	12.74	
2025-01-19 02:20:50.86	0.10	12.75	
2025-01-19 02:20:51.06	0.07	12.77	
2025-01-19 02:20:51.26	0.05	12.78	
2025-01-19 02:20:51.47	0.02	12.79	
2025-01-19 02:20:51.67	359.99	12.81	
2025-01-19 02:20:51.87	359.96	12.82	
2025-01-19 02:20:52.08	359.93	12.84	
2025-01-19 02:20:52.28	359.90	12.85	
2025-01-19 02:20:52.48	359.87	12.86	
2025-01-19 02:20:52.69	359.85	12.88	
2025-01-19 02:20:52.89	359.82	12.89	
2025-01-19 02:20:53.09	359.79	12.90	
2025-01-19 02:20:53.30	359.76	12.92	
2025-01-19 02:20:53.50	359.73	12.93	
2025-01-19 02:20:53.70	359.70	12.95	
2025-01-19 02:20:53.91	359.67	12.96	
2025-01-19 02:20:54.11	359.64	12.97	
2025-01-19 02:20:54.31	359.62	12.99	
2025-01-19 02:20:54.52	359.59	13.00	
2025-01-19 02:20:54.72	359.56	13.02	
2025-01-19 02:20:54.92	359.53	13.03	
2025-01-19 02:20:55.13	359.50	13.04	
2025-01-19 02:20:55.33	359.47	13.06	
2025-01-19 02:20:55.53	359.44	13.07	
2025-01-19 02:20:55.74	359.41	13.08	
2025-01-19 02:20:55.94	359.38	13.10	
2025-01-19 02:20:56.14	359.36	13.11	
2025-01-19 02:20:56.34	359.33	13.13	
2025-01-19 02:20:56.55	359.30	13.14	
2025-01-19 02:20:56.75	359.27	13.15	
2025-01-19 02:20:56.95	359.24	13.17	
2025-01-19 02:20:57.16	359.21	13.18	
2025-01-19 02:20:57.36	359.18	13.20	
2025-01-19 02:20:57.56	359.15	13.21	
2025-01-19 02:20:57.77	359.12	13.22	
2025-01-19 02:20:57.97	359.09	13.24	
2025-01-19 02:20:58.17	359.06	13.25	
2025-01-19 02:20:58.38	359.03	13.26	
2025-01-19 02:20:58.58	359.00	13.28	
2025-01-19 02:20:58.78	358.98	13.29	
2025-01-19 02:20:58.99	358.95	13.31	
2025-01-19 02:20:59.19	358.92	13.32	
2025-01-19 02:20:59.39	358.89	13.33	
2025-01-19 02:20:59.60	358.86	13.35	
2025-01-19 02:20:59.80	358.83	13.36	
2025-01-19 02:21:00.00	358.80	13.38	
2025-01-19 02:21:00.21	358.77	13.39	
2025-01-19 02:21:00.41	358.74	13.40	
2025-01-19 02:21:00.61	358.71	13.42	
2025-01-19 02:21:00.82	358.68	13.43	
2025-01-19 02:21:01.02	358.65	13.44	
2025-01-19 02:21:01.22	358.62	13.46	
2025-01-19 02:21:01.42	358.59	13.47	
2025-01-19 02:21:01.63	358.56	13.49	
2025-01-19 02:21:01.83	358.53	13.50	
2025-01-19 02:21:02.03	358.50	13.51	
2025-01-19 02:21:02.24	358.47	13.53	
2025-01-19 02:21:02.44	358.44	13.54	
2025-01-19 02:21:02.64	358.41	13.56	
2025-01-19 02:21:02.85	358.38	13.57	
2025-01-19 02:21:03.05	358.35	13.58	
2025-01-19 02:21:03.25	358.32	13.60	
2025-01-19 02:21:03.46	358.29	13.61	
2025-01-19 02:21:03.66	358.26	13.62	
2025-01-19 02:21:03.86	358.23	13.64	
2025-01-19 02:21:04.07	358.20	13.65	
2025-01-19 02:21:04.27	358.17	13.67	
2025-01-19 02:21:04.47	358.14	13.68	
2025-01-19 02:21:04.68	358.11	13.69	
2025-01-19 02:21:04.88	358.08	13.71	
2025-01-19 02:21:05.08	358.05	13.72	
2025-01-19 02:21:05.29	358.02	13.74	
2025-01-19 02:21:05.49	357.99	13.75	
2025-01-19 02:21:05.69	357.96	13.76	
2025-01-19 02:21:05.90	357.93	13.78	
2025-01-19 02:21:06.10	357.90	13.79	
2025-01-19 02:21:06.30	357.87	13.80	
2025-01-19 02:21:06.51	357.84	13.82	
2025-01-19 02:21:06.71	357.81	13.83	
2025-01-19 02:21:06.91	357.78	13.85	
2025-01-19 02:21:07.12	357.74	13.86	
2025-01-19 02:21:07.32	357.71	13.87	
2025-01-19 02:21:07.52	357.68	13.89	
2025-01-19 02:21:07.72	357.65	13.90	
2025-01-19 02:21:07.93	357.62	13.92	
2025-01-19 02:21:08.13	357.59	13.93	
2025-01-19 02:21:08.33	357.56	13.94	
2025-01-19 02:21:08.54	357.53	13.96	
2025-01-19 02:21:08.74	357.50	13.97	
2025-01-19 02:21:08.94	357.47	13.98	
2025-01-19 02:21:09.15	357.44	14.00	
2025-01-19 02:21:09.35	357.41	14.01	
2025-01-19 02:21:09.55	357.38	14.03	
2025-01-19 02:21:09.76	357.34	14.04	
2025-01-19 02:21:09.96	357.31	14.05	
2025-01-19 02:21:10.16	357.28	14.07	
2025-01-19 02:21:10.37	357.25	14.08	
2025-01-19 02:21:10.57	357.22	14.10	
2025-01-19 02:21:10.77	357.19	14.11	
2025-01-19 02:21:10.98	357.16	14.12	
2025-01-19 02:21:11.18	357.13	14.14	
2025-01-19 02:21:11.38	357.10	14.15	
2025-01-19 02:21:11.59	357.06	14.16	
2025-01-19 02:21:11.79	357.03	14.18	
2025-01-19 02:21:11.99	357.00	14.19	
2025-01-19 02:21:12.20	356.97	14.21	
2025-01-19 02:21:12.40	356.94	14.22	
2025-01-19 02:21:12.60	356.91	14.23	
2025-01-19 02:21:12.81	356.88	14.25	
2025-01-19 02:21:13.01	356.85	14.26	
2025-01-19 02:21:13.21	356.81	14.28	
2025-01-19 02:21:13.41	356.78	14.29	
2025-01-19 02:21:13.62	356.75	14.30	
2025-01-19 02:21:13.82	356.72	14.32	
2025-01-19 02:21:14.02	356.69	14.33	
2025-01-19 02:21:14.23	356.66	14.34	
2025-01-19 02:21:14.43	356.62	14.36	
2025-01-19 02:21:14.63	356.59	14.37	
2025-01-19 02:21:14.84	356.56	14.39	
2025-01-19 02:21:15.04	356.53	14.40	
2025-01-19 02:21:15.24	356.50	14.41	
2025-01-19 02:21:15.45	356.47	14.43	
2025-01-19 02:21:15.65	356.43	14.44	
2025-01-19 02:21:15.85	356.40	14.45	
2025-01-19 02:21:16.06	356.37	14.47	
2025-01-19 02:21:16.26	356.34	14.48	
2025-01-19 02:21:16.46	356.31	14.50	
2025-01-19 02:21:16.67	356.27	14.51	
2025-01-19 02:21:16.87	356.24	14.52	
2025-01-19 02:21:17.07	356.21	14.54	
2025-01-19 02:21:17.28	356.18	14.55	
2025-01-19 02:21:17.48	356.15	14.57	
2025-01-19 02:21:17.68	356.11	14.58	
2025-01-19 02:21:17.89	356.08	14.59	
2025-01-19 02:21:18.09	356.05	14.61	
2025-01-19 02:21:18.29	356.02	14.62	
2025-01-19 02:21:18.49	355.99	14.63	
2025-01-19 02:21:18.70	355.95	14.65	
2025-01-19 02:21:18.90	355.92	14.66	
2025-01-19 02:21:19.10	355.89	14.68	
2025-01-19 02:21:19.31	355.86	14.69	
2025-01-19 02:21:19.51	355.82	14.70	
2025-01-19 02:21:19.71	355.79	14.72	
2025-01-19 02:21:19.92	355.76	14.73	
2025-01-19 02:21:20.12	355.73	14.74	
2025-01-19 02:21:20.32	355.69	14.76	
2025-01-19 02:21:20.53	355.66	14.77	
2025-01-19 02:21:20.73	355.63	14.79	
2025-01-19 02:21:20.93	355.60	14.80	
2025-01-19 02:21:21.14	355.56	14.81	
2025-01-19 02:21:21.34	355.53	14.83	
2025-01-19 02:21:21.54	355.50	14.84	
2025-01-19 02:21:21.75	355.46	14.86	
2025-01-19 02:21:21.95	355.43	14.87	
2025-01-19 02:21:22.15	355.40	14.88	
2025-01-19 02:21:22.36	355.37	14.90	
2025-01-19 02:21:22.56	355.33	14.91	
2025-01-19 02:21:22.76	355.30	14.92	
2025-01-19 02:21:22.97	355.27	14.94	
2025-01-19 02:21:23.17	355.23	14.95	
2025-01-19 02:21:23.37	355.20	14.97	
2025-01-19 02:21:23.58	355.17	14.98	
2025-01-19 02:21:23.78	355.14	14.99	
2025-01-19 02:21:23.98	355.10	15.01	
2025-01-19 02:21:24.18	355.07	15.02	
2025-01-19 02:21:24.39	355.04	15.03	
2025-01-19 02:21:24.59	355.00	15.05	
2025-01-19 02:21:24.79	354.97	15.06	
2025-01-19 02:21:25.00	354.94	15.08	
2025-01-19 02:21:25.20	354.90	15.09	
2025-01-19 02:21:25.40	354.87	15.10	
2025-01-19 02:21:25.61	354.84	15.12	
2025-01-19 02:21:25.81	354.80	15.13	
2025-01-19 02:21:26.01	354.77	15.14	
2025-01-19 02:21:26.22	354.74	15.16	
2025-01-19 02:21:26.42	354.70	15.17	
2025-01-19 02:21:26.62	354.67	15.19	
2025-01-19 02:21:26.83	354.64	15.20	
2025-01-19 02:21:27.03	354.60	15.21	
2025-01-19 02:21:27.23	354.57	15.23	
2025-01-19 02:21:27.44	354.53	15.24	
2025-01-19 02:21:27.64	354.50	15.25	
2025-01-19 02:21:27.84	354.47	15.27	
2025-01-19 02:21:28.05	354.43	15.28	
2025-01-19 02:21:28.25	354.40	15.30	
2025-01-19 02:21:28.45	354.37	15.31	
2025-01-19 02:21:28.66	354.33	15.32	
2025-01-19 02:21:28.86	354.30	15.34	
2025-01-19 02:21:29.06	354.27	15.35	
2025-01-19 02:21:29.27	354.23	15.36	
2025-01-19 02:21:29.47	354.20	15.38	
2025-01-19 02:21:29.67	354.16	15.39	
2025-01-19 02:21:29.87	354.13	15.40	
2025-01-19 02:21:30.08	354.09	15.42	
2025-01-19 02:21:30.28	354.06	15.43	
2025-01-19 02:21:30.48	354.03	15.45	
2025-01-19 02:21:30.69	353.99	15.46	
2025-01-19 02:21:30.89	353.96	15.47	
2025-01-19 02:21:31.09	353.93	15.49	
2025-01-19 02:21:31.30	353.89	15.50	
2025-01-19 02:21:31.50	353.86	15.51	
2025-01-19 02:21:31.70	353.82	15.53	
2025-01-19 02:21:31.91	353.79	15.54	
2025-01-19 02:21:32.11	353.75	15.56	
2025-01-19 02:21:32.31	353.72	15.57	
2025-01-19 02:21:32.52	353.68	15.58	
2025-01-19 02:21:32.72	353.65	15.60	
2025-01-19 02:21:32.92	353.62	15.61	
2025-01-19 02:21:33.13	353.58	15.62	
2025-01-19 02:21:33.33	353.55	15.64	
2025-01-19 02:21:33.53	353.51	15.65	
2025-01-19 02:21:33.74	353.48	15.66	
2025-01-19 02:21:33.94	353.44	15.68	
2025-01-19 02:21:34.14	353.41	15.69	
2025-01-19 02:21:34.35	353.37	15.71	
2025-01-19 02:21:34.55	353.34	15.72	
2025-01-19 02:21:34.75	353.30	15.73	
2025-01-19 02:21:34.96	353.27	15.75	
2025-01-19 02:21:35.16	353.23	15.76	
2025-01-19 02:21:35.36	353.20	15.77	
2025-01-19 02:21:35.57	353.16	15.79	
2025-01-19 02:21:35.77	353.13	15.80	
2025-01-19 02:21:35.97	353.09	15.81	
2025-01-19 02:21:36.18	353.06	15.83	
2025-01-19 02:21:36.38	353.02	15.84	
2025-01-19 02:21:36.58	352.99	15.86	
2025-01-19 02:21:36.79	352.95	15.87	
2025-01-19 02:21:36.99	352.92	15.88	
2025-01-19 02:21:37.19	352.88	15.90	
2025-01-19 02:21:37.40	352.85	15.91	
2025-01-19 02:21:37.60	352.81	15.92	
2025-01-19 02:21:37.80	352.78	15.94	
2025-01-19 02:21:38.00	352.74	15.95	
2025-01-19 02:21:38.21	352.71	15.96	
2025-01-19 02:21:38.41	352.67	15.98	
2025-01-19 02:21:38.61	352.64	15.99	
2025-01-19 02:21:38.82	352.60	16.00	
2025-01-19 02:21:39.02	352.57	16.02	
2025-01-19 02:21:39.22	352.53	16.03	
2025-01-19 02:21:39.43	352.49	16.05	
2025-01-19 02:21:39.63	352.46	16.06	
2025-01-19 02:21:39.83	352.42	16.07	
2025-01-19 02:21:40.04	352.39	16.09	
2025-01-19 02:21:40.24	352.35	16.10	
2025-01-19 02:21:40.44	352.32	16.11	
2025-01-19 02:21:40.65	352.28	16.13	
2025-01-19 02:21:40.85	352.25	16.14	
2025-01-19 02:21:41.05	352.21	16.15	
2025-01-19 02:21:41.26	352.17	16.17	
2025-01-19 02:21:41.46	352.14	16.18	
2025-01-19 02:21:41.66	352.10	16.19	
2025-01-19 02:21:41.87	352.07	16.21	
2025-01-19 02:21:42.07	352.03	16.22	
2025-01-19 02:21:42.27	351.99	16.23	
2025-01-19 02:21:42.48	351.96	16.25	
2025-01-19 02:21:42.68	351.92	16.26	
2025-01-19 02:21:42.88	351.89	16.27	
2025-01-19 02:21:43.09	351.85	16.29	
2025-01-19 02:21:43.29	351.81	16.30	
2025-01-19 02:21:43.49	351.78	16.32	
2025-01-19 02:21:43.69	351.74	16.33	
2025-01-19 02:21:43.90	351.70	16.34	
2025-01-19 02:21:44.10	351.67	16.36	
2025-01-19 02:21:44.30	351.63	16.37	
2025-01-19 02:21:44.51	351.60	16.38	
2025-01-19 02:21:44.71	351.56	16.40	
2025-01-19 02:21:44.91	351.52	16.41	
2025-01-19 02:21:45.12	351.49	16.42	
2025-01-19 02:21:45.32	351.45	16.44	
2025-01-19 02:21:45.52	351.41	16.45	
2025-01-19 02:21:45.73	351.38	16.46	
2025-01-19 02:21:45.93	351.34	16.48	
2025-01-19 02:21:46.13	351.30	16.49	
2025-01-19 02:21:46.34	351.27	16.50	
2025-01-19 02:21:46.54	351.23	16.52	
2025-01-19 02:21:46.74	351.19	16.53	
2025-01-19 02:21:46.95	351.16	16.54	
2025-01-19 02:21:47.15	351.12	16.56	
2025-01-19 02:21:47.35	351.08	16.57	
2025-01-19 02:21:47.56	351.05	16.58	
2025-01-19 02:21:47.76	351.01	16.60	
2025-01-19 02:21:47.96	350.97	16.61	
2025-01-19 02:21:48.17	350.94	16.62	
2025-01-19 02:21:48.37	350.90	16.64	
2025-01-19 02:21:48.57	350.86	16.65	
2025-01-19 02:21:48.78	350.82	16.66	
2025-01-19 02:21:48.98	350.79	16.68	
2025-01-19 02:21:49.18	350.75	16.69	
2025-01-19 02:21:49.38	350.71	16.70	
2025-01-19 02:21:49.59	350.68	16.72	
2025-01-19 02:21:49.79	350.64	16.73	
2025-01-19 02:21:49.99	350.60	16.74	
2025-01-19 02:21:50.20	350.56	16.76	
2025-01-19 02:21:50.40	350.53	16.77	
2025-01-19 02:21:50.60	350.49	16.78	
2025-01-19 02:21:50.81	350.45	16.80	
2025-01-19 02:21:51.01	350.42	16.81	
2025-01-19 02:21:51.21	350.38	16.82	
2025-01-19 02:21:51.42	350.34	16.84	
2025-01-19 02:21:51.62	350.30	16.85	
2025-01-19 02:21:51.82	350.27	16.86	
2025-01-19 02:21:52.03	350.23	16.88	
2025-01-19 02:21:52.23	350.19	16.89	
2025-01-19 02:21:52.43	350.15	16.90	
2025-01-19 02:21:52.64	350.11	16.92	
2025-01-19 02:21:52.84	350.08	16.93	
2025-01-19 02:21:53.04	350.04	16.94	
2025-01-19 02:21:53.25	350.00	16.96	
2025-01-19 02:21:53.45	349.96	16.97	
2025-01-19 02:21:53.65	349.93	16.98	
2025-01-19 02:21:53.86	349.89	17.00	
2025-01-19 02:21:54.06	349.85	17.01	
2025-01-19 02:21:54.26	349.81	17.02	
2025-01-19 02:21:54.47	349.77	17.04	
2025-01-19 02:21:54.67	349.74	17.05	
2025-01-19 02:21:54.87	349.70	17.06	
2025-01-19 02:21:55.07	349.66	17.07	
2025-01-19 02:21:55.28	349.62	17.09	
2025-01-19 02:21:55.48	349.58	17.10	
2025-01-19 02:21:55.68	349.55	17.11	
2025-01-19 02:21:55.89	349.51	17.13	
2025-01-19 02:21:56.09	349.47	17.14	
2025-01-19 02:21:56.29	349.43	17.15	
2025-01-19 02:21:56.50	349.39	17.17	
2025-01-19 02:21:56.70	349.35	17.18	
2025-01-19 02:21:56.90	349.32	17.19	
2025-01-19 02:21:57.11	349.28	17.21	
2025-01-19 02:21:57.31	349.24	17.22	
2025-01-19 02:21:57.51	349.20	17.23	
2025-01-19 02:21:57.72	349.16	17.25	
2025-01-19 02:21:57.92	349.12	17.26	
2025-01-19 02:21:58.12	349.09	17.27	
2025-01-19 02:21:58.33	349.05	17.29	
2025-01-19 02:21:58.53	349.01	17.30	
2025-01-19 02:21:58.73	348.97	17.31	
2025-01-19 02:21:58.94	348.93	17.32	
2025-01-19 02:21:59.14	348.89	17.34	
2025-01-19 02:21:59.34	348.85	17.35	
2025-01-19 02:21:59.55	348.81	17.36	
2025-01-19 02:21:59.75	348.77	17.38	
2025-01-19 02:21:59.95	348.74	17.39	
2025-01-19 02:22:00.16	348.70	17.40	
2025-01-19 02:22:00.36	348.66	17.42	
2025-01-19 02:22:00.56	348.62	17.43	
2025-01-19 02:22:00.76	348.58	17.44	
2025-01-19 02:22:00.97	348.54	17.45	
2025-01-19 02:22:01.17	348.50	17.47	
2025-01-19 02:22:01.37	348.46	17.48	
2025-01-19 02:22:01.58	348.42	17.49	
2025-01-19 02:22:01.78	348.38	17.51	
2025-01-19 02:22:01.98	348.35	17.52	
2025-01-19 02:22:02.19	348.30	17.53	
2025-01-19 02:22:02.39	348.27	17.55	
2025-01-19 02:22:02.59	348.23	17.56	
2025-01-19 02:22:02.80	348.19	17.57	
2025-01-19 02:22:03.00	348.15	17.58	
2025-01-19 02:22:03.20	348.11	17.60	
2025-01-19 02:22:03.41	348.07	17.61	
2025-01-19 02:22:03.61	348.03	17.62	
2025-01-19 02:22:03.81	347.99	17.64	
2025-01-19 02:22:04.02	347.95	17.65	
2025-01-19 02:22:04.22	347.91	17.66	
2025-01-19 02:22:04.42	347.87	17.67	
2025-01-19 02:22:04.63	347.83	17.69	
2025-01-19 02:22:04.83	347.79	17.70	
2025-01-19 02:22:05.03	347.75	17.71	
2025-01-19 02:22:05.24	347.71	17.73	
2025-01-19 02:22:05.44	347.67	17.74	
2025-01-19 02:22:05.64	347.63	17.75	
2025-01-19 02:22:05.84	347.59	17.76	
2025-01-19 02:22:06.05	347.55	17.78	
2025-01-19 02:22:06.25	347.51	17.79	
2025-01-19 02:22:06.45	347.47	17.80	
2025-01-19 02:22:06.66	347.43	17.82	
2025-01-19 02:22:06.86	347.39	17.83	
2025-01-19 02:22:07.06	347.35	17.84	
2025-01-19 02:22:07.27	347.31	17.85	
2025-01-19 02:22:07.47	347.27	17.87	
2025-01-19 02:22:07.67	347.23	17.88	
2025-01-19 02:22:07.88	347.19	17.89	
2025-01-19 02:22:08.08	347.15	17.90	
2025-01-19 02:22:08.28	347.11	17.92	
2025-01-19 02:22:08.49	347.07	17.93	
2025-01-19 02:22:08.69	347.03	17.94	
2025-01-19 02:22:08.89	346.99	17.96	
2025-01-19 02:22:09.10	346.95	17.97	
2025-01-19 02:22:09.30	346.91	17.98	
2025-01-19 02:22:09.50	346.87	17.99	
2025-01-19 02:22:09.71	346.83	18.01	
2025-01-19 02:22:09.91	346.79	18.02	
2025-01-19 02:22:10.11	346.75	18.03	
2025-01-19 02:22:10.32	346.71	18.04	
2025-01-19 02:22:10.52	346.67	18.06	
2025-01-19 02:22:10.72	346.63	18.07	
2025-01-19 02:22:10.93	346.58	18.08	
2025-01-19 02:22:11.13	346.54	18.09	
2025-01-19 02:22:11.33	346.50	18.11	
2025-01-19 02:22:11.53	346.46	18.12	
2025-01-19 02:22:11.74	346.42	18.13	
2025-01-19 02:22:11.94	346.38	18.15	
2025-01-19 02:22:12.14	346.34	18.16	
2025-01-19 02:22:12.35	346.30	18.17	
2025-01-19 02:22:12.55	346.26	18.18	
2025-01-19 02:22:12.75	346.22	18.20	
2025-01-19 02:22:12.96	346.17	18.21	
2025-01-19 02:22:13.16	346.13	18.22	
2025-01-19 02:22:13.36	346.09	18.23	
2025-01-19 02:22:13.57	346.05	18.25	
2025-01-19 02:22:13.77	346.01	18.26	
2025-01-19 02:22:13.97	345.97	18.27	
2025-01-19 02:22:14.18	345.93	18.28	
2025-01-19 02:22:14.38	345.89	18.30	
2025-01-19 02:22:14.58	345.85	18.31	
2025-01-19 02:22:14.79	345.80	18.32	
2025-01-19 02:22:14.99	345.76	18.33	
2025-01-19 02:22:15.19	345.72	18.35	
2025-01-19 02:22:15.40	345.68	18.36	
2025-01-19 02:22:15.60	345.64	18.37	
2025-01-19 02:22:15.80	345.60	18.38	
2025-01-19 02:22:16.01	345.55	18.40	
2025-01-19 02:22:16.21	345.51	18.41	
2025-01-19 02:22:16.41	345.47	18.42	
2025-01-19 02:22:16.62	345.43	18.43	
2025-01-19 02:22:16.82	345.39	18.44	
2025-01-19 02:22:17.02	345.35	18.46	
2025-01-19 02:22:17.22	345.30	18.47	
2025-01-19 02:22:17.43	345.26	18.48	
2025-01-19 02:22:17.63	345.22	18.49	
2025-01-19 02:22:17.83	345.18	18.51	
2025-01-19 02:22:18.04	345.14	18.52	
2025-01-19 02:22:18.24	345.09	18.53	
2025-01-19 02:22:18.44	345.05	18.54	
2025-01-19 02:22:18.65	345.01	18.56	
2025-01-19 02:22:18.85	344.97	18.57	
2025-01-19 02:22:19.05	344.93	18.58	
2025-01-19 02:22:19.26	344.88	18.59	
2025-01-19 02:22:19.46	344.84	18.60	
2025-01-19 02:22:19.66	344.80	18.62	
2025-01-19 02:22:19.87	344.76	18.63	
2025-01-19 02:22:20.07	344.71	18.64	
2025-01-19 02:22:20.27	344.67	18.65	
2025-01-19 02:22:20.48	344.63	18.67	
2025-01-19 02:22:20.68	344.59	18.68	
2025-01-19 02:22:20.88	344.55	18.69	
2025-01-19 02:22:21.09	344.50	18.70	
2025-01-19 02:22:21.29	344.46	18.71	
2025-01-19 02:22:21.49	344.42	18.73	
2025-01-19 02:22:21.70	344.37	18.74	
2025-01-19 02:22:21.90	344.33	18.75	
2025-01-19 02:22:22.10	344.29	18.76	
2025-01-19 02:22:22.31	344.25	18.77	
2025-01-19 02:22:22.51	344.20	18.79	
2025-01-19 02:22:22.71	344.16	18.80	
2025-01-19 02:22:22.91	344.12	18.81	
2025-01-19 02:22:23.12	344.08	18.82	
2025-01-19 02:22:23.32	344.03	18.83	
2025-01-19 02:22:23.52	343.99	18.85	
2025-01-19 02:22:23.73	343.95	18.86	
2025-01-19 02:22:23.93	343.90	18.87	
2025-01-19 02:22:24.13	343.86	18.88	
2025-01-19 02:22:24.34	343.82	18.89	
2025-01-19 02:22:24.54	343.77	18.91	
2025-01-19 02:22:24.74	343.73	18.92	
2025-01-19 02:22:24.95	343.69	18.93	
2025-01-19 02:22:25.15	343.65	18.94	
2025-01-19 02:22:25.35	343.60	18.95	
2025-01-19 02:22:25.56	343.56	18.97	
2025-01-19 02:22:25.76	343.52	18.98	
2025-01-19 02:22:25.96	343.47	18.99	
2025-01-19 02:22:26.17	343.43	19.00	
2025-01-19 02:22:26.37	343.39	19.01	
2025-01-19 02:22:26.57	343.34	19.02	
2025-01-19 02:22:26.78	343.30	19.04	
2025-01-19 02:22:26.98	343.26	19.05	
2025-01-19 02:22:27.18	343.21	19.06	
2025-01-19 02:22:27.39	343.17	19.07	
2025-01-19 02:22:27.59	343.12	19.08	
2025-01-19 02:22:27.79	343.08	19.10	
2025-01-19 02:22:28.00	343.04	19.11	
2025-01-19 02:22:28.20	342.99	19.12	
2025-01-19 02:22:28.40	342.95	19.13	
2025-01-19 02:22:28.60	342.91	19.14	
2025-01-19 02:22:28.81	342.86	19.15	
2025-01-19 02:22:29.01	342.82	19.17	
2025-01-19 02:22:29.21	342.78	19.18	
2025-01-19 02:22:29.42	342.73	19.19	
2025-01-19 02:22:29.62	342.69	19.20	
2025-01-19 02:22:29.82	342.64	19.21	
2025-01-19 02:22:30.03	342.60	19.22	
2025-01-19 02:22:30.23	342.56	19.24	
2025-01-19 02:22:30.43	342.51	19.25	
2025-01-19 02:22:30.64	342.47	19.26	
2025-01-19 02:22:30.84	342.42	19.27	
2025-01-19 02:22:31.04	342.38	19.28	
2025-01-19 02:22:31.25	342.33	19.29	
2025-01-19 02:22:31.45	342.29	19.31	
2025-01-19 02:22:31.65	342.25	19.32	
2025-01-19 02:22:31.86	342.20	19.33	
2025-01-19 02:22:32.06	342.16	19.34	
2025-01-19 02:22:32.26	342.11	19.35	
2025-01-19 02:22:32.47	342.07	19.36	
2025-01-19 02:22:32.67	342.02	19.37	
2025-01-19 02:22:32.87	341.98	19.39	
2025-01-19 02:22:33.08	341.93	19.40	
2025-01-19 02:22:33.28	341.89	19.41	
2025-01-19 02:22:33.48	341.85	19.42	
2025-01-19 02:22:33.69	341.80	19.43	
2025-01-19 02:22:33.89	341.76	19.44	
2025-01-19 02:22:34.09	341.71	19.45	
2025-01-19 02:22:34.29	341.67	19.47	
2025-01-19 02:22:34.50	341.62	19.48	
2025-01-19 02:22:34.70	341.58	19.49	
2025-01-19 02:22:34.90	341.53	19.50	
2025-01-19 02:22:35.11	341.49	19.51	
2025-01-19 02:22:35.31	341.44	19.52	
2025-01-19 02:22:35.51	341.40	19.53	
2025-01-19 02:22:35.72	341.35	19.55	
2025-01-19 02:22:35.92	341.31	19.56	
2025-01-19 02:22:36.12	341.26	19.57	
2025-01-19 02:22:36.33	341.22	19.58	
2025-01-19 02:22:36.53	341.17	19.59	
2025-01-19 02:22:36.73	341.13	19.60	
2025-01-19 02:22:36.94	341.08	19.61	
2025-01-19 02:22:37.14	341.04	19.62	
2025-01-19 02:22:37.34	340.99	19.64	
2025-01-19 02:22:37.55	340.95	19.65	
2025-01-19 02:22:37.75	340.90	19.66	
2025-01-19 02:22:37.95	340.86	19.67	
2025-01-19 02:22:38.16	340.81	19.68	
2025-01-19 02:22:38.36	340.77	19.69	
2025-01-19 02:22:38.56	340.72	19.70	
2025-01-19 02:22:38.77	340.67	19.71	
2025-01-19 02:22:38.97	340.63	19.72	
2025-01-19 02:22:39.17	340.59	19.74	
2025-01-19 02:22:39.38	340.54	19.75	
2025-01-19 02:22:39.58	340.49	19.76	
2025-01-19 02:22:39.78	340.45	19.77	
2025-01-19 02:22:39.98	340.40	19.78	
2025-01-19 02:22:40.19	340.36	19.79	
2025-01-19 02:22:40.39	340.31	19.80	
2025-01-19 02:22:40.59	340.27	19.81	
2025-01-19 02:22:40.80	340.22	19.82	
2025-01-19 02:22:41.00	340.17	19.83	
2025-01-19 02:22:41.20	340.13	19.84	
2025-01-19 02:22:41.41	340.08	19.86	
2025-01-19 02:22:41.61	340.04	19.87	
2025-01-19 02:22:41.81	339.99	19.88	
2025-01-19 02:22:42.02	339.94	19.89	
2025-01-19 02:22:42.22	339.90	19.90	
2025-01-19 02:22:42.42	339.85	19.91	
2025-01-19 02:22:42.63	339.81	19.92	
2025-01-19 02:22:42.83	339.76	19.93	
2025-01-19 02:22:43.03	339.71	19.94	
2025-01-19 02:22:43.24	339.67	19.95	
2025-01-19 02:22:43.44	339.62	19.96	
2025-01-19 02:22:43.64	339.58	19.97	
2025-01-19 02:22:43.85	339.53	19.99	
2025-01-19 02:22:44.05	339.48	20.00	
2025-01-19 02:22:44.25	339.44	20.01	
2025-01-19 02:22:44.46	339.39	20.02	
2025-01-19 02:22:44.66	339.34	20.03	
2025-01-19 02:22:44.86	339.30	20.04	
2025-01-19 02:22:45.07	339.25	20.05	
2025-01-19 02:22:45.27	339.20	20.06	
2025-01-19 02:22:45.47	339.16	20.07	
2025-01-19 02:22:45.67	339.11	20.08	
2025-01-19 02:22:45.88	339.06	20.09	
2025-01-19 02:22:46.08	339.02	20.10	
2025-01-19 02:22:46.28	338.97	20.11	
2025-01-19 02:22:46.49	338.92	20.12	
2025-01-19 02:22:46.69	338.88	20.13	
2025-01-19 02:22:46.89	338.83	20.14	
2025-01-19 02:22:47.10	338.78	20.16	
2025-01-19 02:22:47.30	338.74	20.17	
2025-01-19 02:22:47.50	338.69	20.18	
2025-01-19 02:22:47.71	338.64	20.19	
2025-01-19 02:22:47.91	338.60	20.20	
2025-01-19 02:22:48.11	338.55	20.21	
2025-01-19 02:22:48.32	338.50	20.22	
2025-01-19 02:22:48.52	338.46	20.23	
2025-01-19 02:22:48.72	338.41	20.24	
2025-01-19 02:22:48.93	338.36	20.25	
2025-01-19 02:22:49.13	338.31	20.26	
2025-01-19 02:22:49.33	338.27	20.27	
2025-01-19 02:22:49.54	338.22	20.28	
2025-01-19 02:22:49.74	338.17	20.29	
2025-01-19 02:22:49.94	338.13	20.30	
2025-01-19 02:22:50.15	338.08	20.31	
2025-01-19 02:22:50.35	338.03	20.32	
2025-01-19 02:22:50.55	337.98	20.33	
2025-01-19 02:22:50.75	337.94	20.34	
2025-01-19 02:22:50.96	337.89	20.35	
2025-01-19 02:22:51.16	337.84	20.36	
2025-01-19 02:22:51.36	337.80	20.37	
2025-01-19 02:22:51.57	337.75	20.38	
2025-01-19 02:22:51.77	337.70	20.39	
2025-01-19 02:22:51.97	337.65	20.40	
2025-01-19 02:22:52.18	337.60	20.41	
2025-01-19 02:22:52.38	337.56	20.42	
2025-01-19 02:22:52.58	337.51	20.43	
2025-01-19 02:22:52.79	337.46	20.44	
2025-01-19 02:22:52.99	337.41	20.45	
2025-01-19 02:22:53.19	337.37	20.46	
2025-01-19 02:22:53.40	337.32	20.47	
2025-01-19 02:22:53.60	337.27	20.48	
2025-01-19 02:22:53.80	337.22	20.49	
2025-01-19 02:22:54.01	337.17	20.50	
2025-01-19 02:22:54.21	337.13	20.51	
2025-01-19 02:22:54.41	337.08	20.52	
2025-01-19 02:22:54.62	337.03	20.53	
2025-01-19 02:22:54.82	336.98	20.54	
2025-01-19 02:22:55.02	336.93	20.55	
2025-01-19 02:22:55.23	336.89	20.56	
2025-01-19 02:22:55.43	336.84	20.57	
2025-01-19 02:22:55.63	336.79	20.58	
2025-01-19 02:22:55.84	336.74	20.59	
2025-01-19 02:22:56.04	336.69	20.60	
2025-01-19 02:22:56.24	336.65	20.61	
2025-01-19 02:22:56.44	336.60	20.62	
2025-01-19 02:22:56.65	336.55	20.63	
2025-01-19 02:22:56.85	336.50	20.64	
2025-01-19 02:22:57.05	336.45	20.65	
2025-01-19 02:22:57.26	336.40	20.66	
2025-01-19 02:22:57.46	336.36	20.67	
2025-01-19 02:22:57.66	336.31	20.68	
2025-01-19 02:22:57.87	336.26	20.69	
2025-01-19 02:22:58.07	336.21	20.70	
2025-01-19 02:22:58.27	336.16	20.71	
2025-01-19 02:22:58.48	336.11	20.72	
2025-01-19 02:22:58.68	336.06	20.72	
2025-01-19 02:22:58.88	336.02	20.73	
2025-01-19 02:22:59.09	335.97	20.74	
2025-01-19 02:22:59.29	335.92	20.75	
2025-01-19 02:22:59.49	335.87	20.76	
2025-01-19 02:22:59.70	335.82	20.77	
2025-01-19 02:22:59.90	335.77	20.78	
2025-01-19 02:23:00.10	335.72	20.79	
2025-01-19 02:23:00.31	335.67	20.80	
2025-01-19 02:23:00.51	335.63	20.81	
2025-01-19 02:23:00.71	335.58	20.82	
2025-01-19 02:23:00.92	335.53	20.83	
2025-01-19 02:23:01.12	335.48	20.84	
2025-01-19 02:23:01.32	335.43	20.85	
2025-01-19 02:23:01.53	335.38	20.86	
2025-01-19 02:23:01.73	335.33	20.87	
2025-01-19 02:23:01.93	335.28	20.87	
2025-01-19 02:23:02.13	335.24	20.88	
2025-01-19 02:23:02.34	335.18	20.89	
2025-01-19 02:23:02.54	335.14	20.90	
2025-01-19 02:23:02.74	335.09	20.91	
2025-01-19 02:23:02.95	335.04	20.92	
2025-01-19 02:23:03.15	334.99	20.93	
2025-01-19 02:23:03.35	334.94	20.94	
2025-01-19 02:23:03.56	334.89	20.95	
2025-01-19 02:23:03.76	334.84	20.96	
2025-01-19 02:23:03.96	334.79	20.97	
2025-01-19 02:23:04.17	334.74	20.97	
2025-01-19 02:23:04.37	334.69	20.98	
2025-01-19 02:23:04.57	334.64	20.99	
2025-01-19 02:23:04.78	334.59	21.00	
2025-01-19 02:23:04.98	334.54	21.01	
2025-01-19 02:23:05.18	334.49	21.02	
2025-01-19 02:23:05.39	334.44	21.03	
2025-01-19 02:23:05.59	334.39	21.04	
2025-01-19 02:23:05.79	334.35	21.05	
2025-01-19 02:23:06.00	334.29	21.05	
2025-01-19 02:23:06.20	334.25	21.06	
2025-01-19 02:23:06.40	334.20	21.07	
2025-01-19 02:23:06.61	334.15	21.08	
2025-01-19 02:23:06.81	334.10	21.09	
2025-01-19 02:23:07.01	334.05	21.10	
2025-01-19 02:23:07.21	334.00	21.11	
2025-01-19 02:23:07.42	333.95	21.12	
2025-01-19 02:23:07.62	333.90	21.12	
2025-01-19 02:23:07.82	333.85	21.13	
2025-01-19 02:23:08.03	333.80	21.14	
2025-01-19 02:23:08.23	333.75	21.15	
2025-01-19 02:23:08.43	333.70	21.16	
2025-01-19 02:23:08.64	333.65	21.17	
2025-01-19 02:23:08.84	333.60	21.18	
2025-01-19 02:23:09.04	333.55	21.18	
2025-01-19 02:23:09.25	333.50	21.19	
2025-01-19 02:23:09.45	333.45	21.20	
2025-01-19 02:23:09.65	333.40	21.21	
2025-01-19 02:23:09.86	333.35	21.22	
2025-01-19 02:23:10.06	333.30	21.23	
2025-01-19 02:23:10.26	333.25	21.23	
2025-01-19 02:23:10.47	333.20	21.24	
2025-01-19 02:23:10.67	333.15	21.25	
2025-01-19 02:23:10.87	333.10	21.26	
2025-01-19 02:23:11.08	333.04	21.27	
2025-01-19 02:23:11.28	332.99	21.28	
2025-01-19 02:23:11.48	332.95	21.28	
2025-01-19 02:23:11.69	332.89	21.29	
2025-01-19 02:23:11.89	332.84	21.30	
2025-01-19 02:23:12.09	332.79	21.31	
2025-01-19 02:23:12.30	332.74	21.32	
2025-01-19 02:23:12.50	332.69	21.33	
2025-01-19 02:23:12.70	332.64	21.33	
2025-01-19 02:23:12.91	332.59	21.34	
2025-01-19 02:23:13.11	332.54	21.35	
2025-01-19 02:23:13.31	332.49	21.36	
2025-01-19 02:23:13.51	332.44	21.37	
2025-01-19 02:23:13.72	332.39	21.37	
2025-01-19 02:23:13.92	332.34	21.38	
2025-01-19 02:23:14.12	332.29	21.39	
2025-01-19 02:23:14.33	332.24	21.40	
2025-01-19 02:23:14.53	332.19	21.41	
2025-01-19 02:23:14.73	332.14	21.41	
2025-01-19 02:23:14.94	332.08	21.42	
2025-01-19 02:23:15.14	332.03	21.43	
2025-01-19 02:23:15.34	331.98	21.44	
2025-01-19 02:23:15.55	331.93	21.45	
2025-01-19 02:23:15.75	331.88	21.45	
2025-01-19 02:23:15.95	331.83	21.46	
2025-01-19 02:23:16.16	331.78	21.47	
2025-01-19 02:23:16.36	331.73	21.48	
2025-01-19 02:23:16.56	331.68	21.48	
2025-01-19 02:23:16.77	331.62	21.49	
2025-01-19 02:23:16.97	331.57	21.50	
2025-01-19 02:23:17.17	331.52	21.51	
2025-01-19 02:23:17.38	331.47	21.52	
2025-01-19 02:23:17.58	331.42	21.52	
2025-01-19 02:23:17.78	331.37	21.53	
2025-01-19 02:23:17.99	331.32	21.54	
2025-01-19 02:23:18.19	331.27	21.55	
2025-01-19 02:23:18.39	331.22	21.55	
2025-01-19 02:23:18.60	331.16	21.56	
2025-01-19 02:23:18.80	331.11	21.57	
2025-01-19 02:23:19.00	331.06	21.58	
2025-01-19 02:23:19.20	331.01	21.58	
2025-01-19 02:23:19.41	330.96	21.59	
2025-01-19 02:23:19.61	330.91	21.60	
2025-01-19 02:23:19.81	330.86	21.61	
2025-01-19 02:23:20.02	330.80	21.61	
2025-01-19 02:23:20.22	330.75	21.62	
2025-01-19 02:23:20.42	330.70	21.63	
2025-01-19 02:23:20.63	330.65	21.64	
2025-01-19 02:23:20.83	330.60	21.64	
2025-01-19 02:23:21.03	330.55	21.65	
2025-01-19 02:23:21.24	330.49	21.66	
2025-01-19 02:23:21.44	330.44	21.66	
2025-01-19 02:23:21.64	330.39	21.67	
2025-01-19 02:23:21.85	330.34	21.68	
2025-01-19 02:23:22.05	330.29	21.69	
2025-01-19 02:23:22.25	330.24	21.69	
2025-01-19 02:23:22.46	330.18	21.70	
2025-01-19 02:23:22.66	330.13	21.71	
2025-01-19 02:23:22.86	330.08	21.71	
2025-01-19 02:23:23.07	330.03	21.72	
2025-01-19 02:23:23.27	329.98	21.73	
2025-01-19 02:23:23.47	329.92	21.73	
2025-01-19 02:23:23.68	329.87	21.74	
2025-01-19 02:23:23.88	329.82	21.75	
2025-01-19 02:23:24.08	329.77	21.76	
2025-01-19 02:23:24.29	329.71	21.76	
2025-01-19 02:23:24.49	329.66	21.77	
2025-01-19 02:23:24.69	329.61	21.78	
2025-01-19 02:23:24.89	329.56	21.78	
2025-01-19 02:23:25.10	329.51	21.79	
2025-01-19 02:23:25.30	329.46	21.80	
2025-01-19 02:23:25.50	329.40	21.80	
2025-01-19 02:23:25.71	329.35	21.81	
2025-01-19 02:23:25.91	329.30	21.82	
2025-01-19 02:23:26.11	329.25	21.82	
2025-01-19 02:23:26.32	329.19	21.83	
2025-01-19 02:23:26.52	329.14	21.84	
2025-01-19 02:23:26.72	329.09	21.84	
2025-01-19 02:23:26.93	329.04	21.85	
2025-01-19 02:23:27.13	328.99	21.86	
2025-01-19 02:23:27.33	328.93	21.86	
2025-01-19 02:23:27.54	328.88	21.87	
2025-01-19 02:23:27.74	328.83	21.88	
2025-01-19 02:23:27.94	328.78	21.88	
2025-01-19 02:23:28.15	328.72	21.89	
2025-01-19 02:23:28.35	328.67	21.90	
2025-01-19 02:23:28.55	328.62	21.90	
2025-01-19 02:23:28.76	328.56	21.91	
2025-01-19 02:23:28.96	328.51	21.91	
2025-01-19 02:23:29.16	328.46	21.92	
2025-01-19 02:23:29.37	328.41	21.93	
2025-01-19 02:23:29.57	328.36	21.93	
2025-01-19 02:23:29.77	328.30	21.94	
2025-01-19 02:23:29.97	328.25	21.95	
2025-01-19 02:23:30.18	328.20	21.95	
2025-01-19 02:23:30.38	328.15	21.96	
2025-01-19 02:23:30.58	328.09	21.96	
2025-01-19 02:23:30.79	328.04	21.97	
2025-01-19 02:23:30.99	327.99	21.98	
2025-01-19 02:23:31.19	327.94	21.98	
2025-01-19 02:23:31.40	327.88	21.99	
2025-01-19 02:23:31.60	327.83	21.99	
2025-01-19 02:23:31.80	327.78	22.00	
2025-01-19 02:23:32.01	327.72	22.01	
2025-01-19 02:23:32.21	327.67	22.01	
2025-01-19 02:23:32.41	327.62	22.02	
2025-01-19 02:23:32.62	327.56	22.02	
2025-01-19 02:23:32.82	327.51	22.03	
2025-01-19 02:23:33.02	327.46	22.04	
2025-01-19 02:23:33.23	327.40	22.04	
2025-01-19 02:23:33.43	327.35	22.05	
2025-01-19 02:23:33.63	327.30	22.05	
2025-01-19 02:23:33.84	327.24	22.06	
2025-01-19 02:23:34.04	327.19	22.06	
2025-01-19 02:23:34.24	327.14	22.07	
2025-01-19 02:23:34.45	327.09	22.08	
2025-01-19 02:23:34.65	327.03	22.08	
2025-01-19 02:23:34.85	326.98	22.09	
2025-01-19 02:23:35.06	326.93	22.09	
2025-01-19 02:23:35.26	326.87	22.10	
2025-01-19 02:23:35.46	326.82	22.10	
2025-01-19 02:23:35.66	326.77	22.11	
2025-01-19 02:23:35.87	326.71	22.12	
2025-01-19 02:23:36.07	326.66	22.12	
2025-01-19 02:23:36.27	326.61	22.13	
2025-01-19 02:23:36.48	326.55	22.13	
2025-01-19 02:23:36.68	326.50	22.14	
2025-01-19 02:23:36.88	326.45	22.14	
2025-01-19 02:23:37.09	326.39	22.15	
2025-01-19 02:23:37.29	326.34	22.15	
2025-01-19 02:23:37.49	326.29	22.16	
2025-01-19 02:23:37.70	326.23	22.16	
2025-01-19 02:23:37.90	326.18	22.17	
2025-01-19 02:23:38.10	326.13	22.17	
2025-01-19 02:23:38.31	326.07	22.18	
2025-01-19 02:23:38.51	326.02	22.18	
2025-01-19 02:23:38.71	325.97	22.19	
2025-01-19 02:23:38.92	325.91	22.19	
2025-01-19 02:23:39.12	325.86	22.20	
2025-01-19 02:23:39.32	325.81	22.20	
2025-01-19 02:23:39.53	325.75	22.21	
2025-01-19 02:23:39.73	325.70	22.21	
2025-01-19 02:23:39.93	325.65	22.22	
2025-01-19 02:23:40.14	325.59	22.23	
2025-01-19 02:23:40.34	325.54	22.23	
2025-01-19 02:23:40.54	325.49	22.23	
2025-01-19 02:23:40.75	325.43	22.24	
2025-01-19 02:23:40.95	325.38	22.24	
2025-01-19 02:23:41.15	325.32	22.25	
2025-01-19 02:23:41.35	325.27	22.25	
2025-01-19 02:23:41.56	325.22	22.26	
2025-01-19 02:23:41.76	325.16	22.26	
2025-01-19 02:23:41.96	325.11	22.27	
2025-01-19 02:23:42.17	325.05	22.27	
2025-01-19 02:23:42.37	325.00	22.28	
2025-01-19 02:23:42.57	324.95	22.28	
2025-01-19 02:23:42.78	324.89	22.29	
2025-01-19 02:23:42.98	324.84	22.29	
2025-01-19 02:23:43.18	324.79	22.30	
2025-01-19 02:23:43.39	324.73	22.30	
2025-01-19 02:23:43.59	324.68	22.31	
2025-01-19 02:23:43.79	324.63	22.31	
2025-01-19 02:23:44.00	324.57	22.31	
2025-01-19 02:23:44.20	324.52	22.32	
2025-01-19 02:23:44.40	324.46	22.32	
2025-01-19 02:23:44.61	324.41	22.33	
2025-01-19 02:23:44.81	324.35	22.33	
2025-01-19 02:23:45.01	324.30	22.34	
2025-01-19 02:23:45.22	324.25	22.34	
2025-01-19 02:23:45.42	324.19	22.34	
2025-01-19 02:23:45.62	324.14	22.35	
2025-01-19 02:23:45.83	324.08	22.35	
2025-01-19 02:23:46.03	324.03	22.36	
2025-01-19 02:23:46.23	323.98	22.36	
2025-01-19 02:23:46.44	323.92	22.37	
2025-01-19 02:23:46.64	323.87	22.37	
2025-01-19 02:23:46.84	323.81	22.37	
2025-01-19 02:23:47.04	323.76	22.38	
2025-01-19 02:23:47.25	323.70	22.38	
2025-01-19 02:23:47.45	323.65	22.39	
2025-01-19 02:23:47.65	323.60	22.39	
2025-01-19 02:23:47.86	323.54	22.39	
2025-01-19 02:23:48.06	323.49	22.40	
2025-01-19 02:23:48.26	323.44	22.40	
2025-01-19 02:23:48.47	323.38	22.41	
2025-01-19 02:23:48.67	323.33	22.41	
2025-01-19 02:23:48.87	323.27	22.41	
2025-01-19 02:23:49.08	323.22	22.42	
2025-01-19 02:23:49.28	323.16	22.42	
2025-01-19 02:23:49.48	323.11	22.42	
2025-01-19 02:23:49.69	323.05	22.43	
2025-01-19 02:23:49.89	323.00	22.43	
2025-01-19 02:23:50.09	322.95	22.44	
2025-01-19 02:23:50.30	322.89	22.44	
2025-01-19 02:23:50.50	322.84	22.44	
2025-01-19 02:23:50.70	322.78	22.45	
2025-01-19 02:23:50.91	322.73	22.45	
2025-01-19 02:23:51.11	322.67	22.45	
2025-01-19 02:23:51.31	322.62	22.46	
2025-01-19 02:23:51.52	322.56	22.46	
2025-01-19 02:23:51.72	322.51	22.46	
2025-01-19 02:23:51.92	322.46	22.47	
2025-01-19 02:23:52.13	322.40	22.47	
2025-01-19 02:23:52.33	322.35	22.47	
2025-01-19 02:23:52.53	322.29	22.48	
2025-01-19 02:23:52.73	322.24	22.48	
2025-01-19 02:23:52.94	322.18	22.48	
2025-01-19 02:23:53.14	322.13	22.49	
2025-01-19 02:23:53.34	322.07	22.49	
2025-01-19 02:23:53.55	322.02	22.49	
2025-01-19 02:23:53.75	321.96	22.50	
2025-01-19 02:23:53.95	321.91	22.50	
2025-01-19 02:23:54.16	321.85	22.50	
2025-01-19 02:23:54.36	321.80	22.51	
2025-01-19 02:23:54.56	321.75	22.51	
2025-01-19 02:23:54.77	321.69	22.51	
2025-01-19 02:23:54.97	321.64	22.52	
2025-01-19 02:23:55.17	321.58	22.52	
2025-01-19 02:23:55.38	321.53	22.52	
2025-01-19 02:23:55.58	321.47	22.52	
2025-01-19 02:23:55.78	321.42	22.53	
2025-01-19 02:23:55.99	321.36	22.53	
2025-01-19 02:23:56.19	321.31	22.53	
2025-01-19 02:23:56.39	321.25	22.54	
2025-01-19 02:23:56.60	321.20	22.54	
2025-01-19 02:23:56.80	321.14	22.54	
2025-01-19 02:23:57.00	321.09	22.54	
2025-01-19 02:23:57.21	321.03	22.55	
2025-01-19 02:23:57.41	320.98	22.55	
2025-01-19 02:23:57.61	320.93	22.55	
2025-01-19 02:23:57.81	320.87	22.55	
2025-01-19 02:23:58.02	320.82	22.56	
2025-01-19 02:23:58.22	320.76	22.56	
2025-01-19 02:23:58.42	320.71	22.56	
2025-01-19 02:23:58.63	320.65	22.57	
2025-01-19 02:23:58.83	320.60	22.57	
2025-01-19 02:23:59.03	320.54	22.57	
2025-01-19 02:23:59.24	320.49	22.57	
2025-01-19 02:23:59.44	320.43	22.57	
2025-01-19 02:23:59.64	320.38	22.58	
2025-01-19 02:23:59.85	320.32	22.58	
2025-01-19 02:24:00.05	320.27	22.58	
2025-01-19 02:24:00.25	320.21	22.58	
2025-01-19 02:24:00.46	320.16	22.59	
2025-01-19 02:24:00.66	320.10	22.59	
2025-01-19 02:24:00.86	320.05	22.59	
2025-01-19 02:24:01.07	319.99	22.59	
2025-01-19 02:24:01.27	319.94	22.60	
2025-01-19 02:24:01.47	319.88	22.60	
2025-01-19 02:24:01.68	319.83	22.60	
2025-01-19 02:24:01.88	319.77	22.60	
2025-01-19 02:24:02.08	319.72	22.60	
2025-01-19 02:24:02.29	319.66	22.61	
2025-01-19 02:24:02.49	319.61	22.61	
2025-01-19 02:24:02.69	319.55	22.61	
2025-01-19 02:24:02.90	319.50	22.61	
2025-01-19 02:24:03.10	319.44	22.61	
2025-01-19 02:24:03.30	319.39	22.61	
2025-01-19 02:24:03.51	319.33	22.62	
2025-01-19 02:24:03.71	319.28	22.62	
2025-01-19 02:24:03.91	319.22	22.62	
2025-01-19 02:24:04.11	319.17	22.62	
2025-01-19 02:24:04.32	319.11	22.62	
2025-01-19 02:24:04.52	319.06	22.63	
2025-01-19 02:24:04.72	319.00	22.63	
2025-01-19 02:24:04.93	318.95	22.63	
2025-01-19 02:24:05.13	318.89	22.63	
2025-01-19 02:24:05.33	318.84	22.63	
2025-01-19 02:24:05.54	318.78	22.63	
2025-01-19 02:24:05.74	318.73	22.64	
2025-01-19 02:24:05.94	318.67	22.64	
2025-01-19 02:24:06.15	318.62	22.64	
2025-01-19 02:24:06.35	318.56	22.64	
2025-01-19 02:24:06.55	318.51	22.64	
2025-01-19 02:24:06.76	318.45	22.64	
2025-01-19 02:24:06.96	318.40	22.64	
2025-01-19 02:24:07.16	318.34	22.64	
2025-01-19 02:24:07.37	318.29	22.65	
2025-01-19 02:24:07.57	318.23	22.65	
2025-01-19 02:24:07.77	318.18	22.65	
2025-01-19 02:24:07.98	318.12	22.65	
2025-01-19 02:24:08.18	318.07	22.65	
2025-01-19 02:24:08.38	318.01	22.65	
2025-01-19 02:24:08.59	317.95	22.65	
2025-01-19 02:24:08.79	317.90	22.65	
2025-01-19 02:24:08.99	317.85	22.66	
2025-01-19 02:24:09.19	317.79	22.66	
2025-01-19 02:24:09.40	317.73	22.66	
2025-01-19 02:24:09.60	317.68	22.66	
2025-01-19 02:24:09.80	317.63	22.66	
2025-01-19 02:24:10.01	317.57	22.66	
2025-01-19 02:24:10.21	317.51	22.66	
2025-01-19 02:24:10.41	317.46	22.66	
2025-01-19 02:24:10.62	317.40	22.66	
2025-01-19 02:24:10.82	317.35	22.66	
2025-01-19 02:24:11.02	317.29	22.66	
2025-01-19 02:24:11.23	317.24	22.67	
2025-01-19 02:24:11.43	317.18	22.67	
2025-01-19 02:24:11.63	317.13	22.67	
2025-01-19 02:24:11.84	317.07	22.67	
