passes_logs/2025/01/19/SPB_Silybum_02/SPB_Silybum_02__20250119_152535_TERRA_rec.log

#Pass ID: 20250119_152535_TERRA
#Satellite: TERRA
#Configuration: TERRA
#Start time: 2025-01-19 15:25:35

#Version: 2.0.20230423
#Station: SPB_Silybum_02
#Location: 30.233357 lon 59.946436 lat
#TLE: 1 25994U 99068A   25018.76132064  .00000971  00000+0  20987-3 0  9991
#TLE: 2 25994  98.0209  81.6719 0003338  64.8500  46.9329 14.60403262334620

#Time	Az	El	Level	Level2	SNR	BER	Gain	Gain2
2025-01-19 15:25:37.91	63.72	4.08	
2025-01-19 15:25:38.11	63.69	4.09	
2025-01-19 15:25:38.32	63.66	4.10	
2025-01-19 15:25:38.52	63.64	4.11	
2025-01-19 15:25:38.72	63.61	4.11	
2025-01-19 15:25:38.93	63.58	4.12	
2025-01-19 15:25:39.13	63.55	4.13	
2025-01-19 15:25:39.33	63.53	4.14	
2025-01-19 15:25:39.53	63.50	4.15	
2025-01-19 15:25:39.74	63.47	4.15	
2025-01-19 15:25:39.94	63.44	4.16	
2025-01-19 15:25:40.14	63.41	4.17	
2025-01-19 15:25:40.35	63.39	4.18	
2025-01-19 15:25:40.55	63.36	4.19	
2025-01-19 15:25:40.75	63.33	4.19	
2025-01-19 15:25:40.96	63.30	4.20	
2025-01-19 15:25:41.16	63.27	4.21	
2025-01-19 15:25:41.36	63.25	4.22	
2025-01-19 15:25:41.56	63.22	4.23	
2025-01-19 15:25:41.77	63.19	4.24	
2025-01-19 15:25:41.97	63.16	4.24	
2025-01-19 15:25:42.17	63.13	4.25	
2025-01-19 15:25:42.38	63.11	4.26	
2025-01-19 15:25:42.58	63.08	4.27	
2025-01-19 15:25:42.78	63.05	4.28	
2025-01-19 15:25:42.98	63.02	4.28	
2025-01-19 15:25:43.19	62.99	4.29	
2025-01-19 15:25:43.39	62.97	4.30	
2025-01-19 15:25:43.59	62.94	4.31	
2025-01-19 15:25:43.80	62.91	4.32	
2025-01-19 15:25:44.00	62.88	4.32	
2025-01-19 15:25:44.20	62.85	4.33	
2025-01-19 15:25:44.41	62.82	4.34	
2025-01-19 15:25:44.61	62.80	4.35	
2025-01-19 15:25:44.81	62.77	4.36	
2025-01-19 15:25:45.01	62.74	4.36	
2025-01-19 15:25:45.22	62.71	4.37	
2025-01-19 15:25:45.42	62.68	4.38	
2025-01-19 15:25:45.62	62.65	4.39	
2025-01-19 15:25:45.83	62.63	4.40	
2025-01-19 15:25:46.03	62.60	4.40	
2025-01-19 15:25:46.23	62.57	4.41	
2025-01-19 15:25:46.43	62.54	4.42	
2025-01-19 15:25:46.64	62.51	4.43	
2025-01-19 15:25:46.84	62.48	4.44	
2025-01-19 15:25:47.04	62.46	4.44	
2025-01-19 15:25:47.25	62.43	4.45	
2025-01-19 15:25:47.45	62.40	4.46	
2025-01-19 15:25:47.65	62.37	4.47	
2025-01-19 15:25:47.86	62.34	4.48	
2025-01-19 15:25:48.06	62.31	4.48	
2025-01-19 15:25:48.26	62.28	4.49	
2025-01-19 15:25:48.46	62.26	4.50	
2025-01-19 15:25:48.67	62.23	4.51	
2025-01-19 15:25:48.87	62.20	4.52	
2025-01-19 15:25:49.07	62.17	4.52	
2025-01-19 15:25:49.28	62.14	4.53	
2025-01-19 15:25:49.48	62.11	4.54	
2025-01-19 15:25:49.68	62.08	4.55	
2025-01-19 15:25:49.89	62.05	4.56	
2025-01-19 15:25:50.09	62.03	4.56	
2025-01-19 15:25:50.29	62.00	4.57	
2025-01-19 15:25:50.49	61.97	4.58	
2025-01-19 15:25:50.70	61.94	4.59	
2025-01-19 15:25:50.90	61.91	4.60	
2025-01-19 15:25:51.10	61.88	4.60	
2025-01-19 15:25:51.31	61.85	4.61	
2025-01-19 15:25:51.51	61.82	4.62	
2025-01-19 15:25:51.71	61.79	4.63	
2025-01-19 15:25:51.91	61.77	4.63	
2025-01-19 15:25:52.12	61.74	4.64	
2025-01-19 15:25:52.32	61.71	4.65	
2025-01-19 15:25:52.52	61.68	4.66	
2025-01-19 15:25:52.73	61.65	4.67	
2025-01-19 15:25:52.93	61.62	4.67	
2025-01-19 15:25:53.13	61.59	4.68	
2025-01-19 15:25:53.34	61.56	4.69	
2025-01-19 15:25:53.54	61.53	4.70	
2025-01-19 15:25:53.74	61.50	4.71	
2025-01-19 15:25:53.94	61.48	4.71	
2025-01-19 15:25:54.15	61.45	4.72	
2025-01-19 15:25:54.35	61.42	4.73	
2025-01-19 15:25:54.55	61.39	4.74	
2025-01-19 15:25:54.76	61.36	4.75	
2025-01-19 15:25:54.96	61.33	4.75	
2025-01-19 15:25:55.16	61.30	4.76	
2025-01-19 15:25:55.36	61.27	4.77	
2025-01-19 15:25:55.57	61.24	4.78	
2025-01-19 15:25:55.77	61.21	4.78	
2025-01-19 15:25:55.97	61.18	4.79	
2025-01-19 15:25:56.18	61.15	4.80	
2025-01-19 15:25:56.38	61.13	4.81	
2025-01-19 15:25:56.58	61.10	4.82	
2025-01-19 15:25:56.79	61.07	4.82	
2025-01-19 15:25:56.99	61.04	4.83	
2025-01-19 15:25:57.19	61.01	4.84	
2025-01-19 15:25:57.39	60.98	4.85	
2025-01-19 15:25:57.60	60.95	4.85	
2025-01-19 15:25:57.80	60.92	4.86	
2025-01-19 15:25:58.00	60.89	4.87	
2025-01-19 15:25:58.21	60.86	4.88	
2025-01-19 15:25:58.41	60.83	4.89	
2025-01-19 15:25:58.61	60.80	4.89	
2025-01-19 15:25:58.82	60.77	4.90	
2025-01-19 15:25:59.02	60.74	4.91	
2025-01-19 15:25:59.22	60.71	4.92	
2025-01-19 15:25:59.42	60.68	4.92	
2025-01-19 15:25:59.63	60.65	4.93	
2025-01-19 15:25:59.83	60.62	4.94	
2025-01-19 15:26:00.03	60.60	4.95	
2025-01-19 15:26:00.24	60.56	4.96	
2025-01-19 15:26:00.44	60.54	4.96	
2025-01-19 15:26:00.64	60.51	4.97	
2025-01-19 15:26:00.84	60.48	4.98	
2025-01-19 15:26:01.05	60.45	4.99	
2025-01-19 15:26:01.25	60.42	4.99	
2025-01-19 15:26:01.45	60.39	5.00	
2025-01-19 15:26:01.66	60.36	5.01	
2025-01-19 15:26:01.86	60.33	5.02	
2025-01-19 15:26:02.06	60.30	5.03	
2025-01-19 15:26:02.27	60.27	5.03	
2025-01-19 15:26:02.47	60.24	5.04	
2025-01-19 15:26:02.67	60.21	5.05	
2025-01-19 15:26:02.87	60.18	5.06	
2025-01-19 15:26:03.08	60.15	5.06	
2025-01-19 15:26:03.28	60.12	5.07	
2025-01-19 15:26:03.48	60.09	5.08	
2025-01-19 15:26:03.69	60.06	5.09	
2025-01-19 15:26:03.89	60.03	5.09	
2025-01-19 15:26:04.09	60.00	5.10	
2025-01-19 15:26:04.29	59.97	5.11	
2025-01-19 15:26:04.50	59.94	5.12	
2025-01-19 15:26:04.70	59.91	5.13	
2025-01-19 15:26:04.90	59.88	5.13	
2025-01-19 15:26:05.11	59.85	5.14	
2025-01-19 15:26:05.31	59.82	5.15	
2025-01-19 15:26:05.51	59.79	5.16	
2025-01-19 15:26:05.72	59.76	5.16	
2025-01-19 15:26:05.92	59.73	5.17	
2025-01-19 15:26:06.12	59.70	5.18	
2025-01-19 15:26:06.32	59.67	5.19	
2025-01-19 15:26:06.53	59.64	5.19	
2025-01-19 15:26:06.73	59.61	5.20	
2025-01-19 15:26:06.93	59.58	5.21	
2025-01-19 15:26:07.14	59.55	5.22	
2025-01-19 15:26:07.34	59.52	5.22	
2025-01-19 15:26:07.54	59.49	5.23	
2025-01-19 15:26:07.74	59.46	5.24	
2025-01-19 15:26:07.95	59.43	5.25	
2025-01-19 15:26:08.15	59.40	5.25	
2025-01-19 15:26:08.35	59.37	5.26	
2025-01-19 15:26:08.56	59.33	5.27	
2025-01-19 15:26:08.76	59.30	5.28	
2025-01-19 15:26:08.96	59.27	5.28	
2025-01-19 15:26:09.17	59.24	5.29	
2025-01-19 15:26:09.37	59.21	5.30	
2025-01-19 15:26:09.57	59.18	5.31	
2025-01-19 15:26:09.77	59.15	5.31	
2025-01-19 15:26:09.98	59.12	5.32	
2025-01-19 15:26:10.18	59.09	5.33	
2025-01-19 15:26:10.38	59.06	5.34	
2025-01-19 15:26:10.59	59.03	5.35	
2025-01-19 15:26:10.79	59.00	5.35	
2025-01-19 15:26:10.99	58.97	5.36	
2025-01-19 15:26:11.20	58.94	5.37	
2025-01-19 15:26:11.40	58.91	5.38	
2025-01-19 15:26:11.60	58.88	5.38	
2025-01-19 15:26:11.80	58.85	5.39	
2025-01-19 15:26:12.01	58.82	5.40	
2025-01-19 15:26:12.21	58.79	5.41	
2025-01-19 15:26:12.41	58.76	5.41	
2025-01-19 15:26:12.62	58.72	5.42	
2025-01-19 15:26:12.82	58.69	5.43	
2025-01-19 15:26:13.02	58.66	5.44	
2025-01-19 15:26:13.22	58.63	5.44	
2025-01-19 15:26:13.43	58.60	5.45	
2025-01-19 15:26:13.63	58.57	5.46	
2025-01-19 15:26:13.83	58.54	5.46	
2025-01-19 15:26:14.04	58.51	5.47	
2025-01-19 15:26:14.24	58.48	5.48	
2025-01-19 15:26:14.44	58.45	5.49	
2025-01-19 15:26:14.65	58.42	5.49	
2025-01-19 15:26:14.85	58.39	5.50	
2025-01-19 15:26:15.05	58.36	5.51	
2025-01-19 15:26:15.25	58.32	5.52	
2025-01-19 15:26:15.46	58.29	5.52	
2025-01-19 15:26:15.66	58.26	5.53	
2025-01-19 15:26:15.86	58.23	5.54	
2025-01-19 15:26:16.07	58.20	5.55	
2025-01-19 15:26:16.27	58.17	5.55	
2025-01-19 15:26:16.47	58.14	5.56	
2025-01-19 15:26:16.68	58.11	5.57	
2025-01-19 15:26:16.88	58.08	5.58	
2025-01-19 15:26:17.08	58.05	5.58	
2025-01-19 15:26:17.28	58.01	5.59	
2025-01-19 15:26:17.49	57.98	5.60	
2025-01-19 15:26:17.69	57.95	5.61	
2025-01-19 15:26:17.89	57.92	5.61	
2025-01-19 15:26:18.10	57.89	5.62	
2025-01-19 15:26:18.30	57.86	5.63	
2025-01-19 15:26:18.50	57.83	5.63	
2025-01-19 15:26:18.71	57.79	5.64	
2025-01-19 15:26:18.91	57.76	5.65	
2025-01-19 15:26:19.11	57.73	5.66	
2025-01-19 15:26:19.31	57.70	5.66	
2025-01-19 15:26:19.52	57.67	5.67	
2025-01-19 15:26:19.72	57.64	5.68	
2025-01-19 15:26:19.92	57.61	5.69	
2025-01-19 15:26:20.13	57.58	5.69	
2025-01-19 15:26:20.33	57.55	5.70	
2025-01-19 15:26:20.53	57.51	5.71	
2025-01-19 15:26:20.74	57.48	5.72	
2025-01-19 15:26:20.94	57.45	5.72	
2025-01-19 15:26:21.14	57.42	5.73	
2025-01-19 15:26:21.34	57.39	5.74	
2025-01-19 15:26:21.55	57.36	5.74	
2025-01-19 15:26:21.75	57.33	5.75	
2025-01-19 15:26:21.95	57.29	5.76	
2025-01-19 15:26:22.16	57.26	5.77	
2025-01-19 15:26:22.36	57.23	5.77	
2025-01-19 15:26:22.56	57.20	5.78	
2025-01-19 15:26:22.78	57.17	5.79	
2025-01-19 15:26:22.98	57.13	5.80	
2025-01-19 15:26:23.18	57.10	5.80	
2025-01-19 15:26:23.38	57.07	5.81	
2025-01-19 15:26:23.59	57.04	5.82	
2025-01-19 15:26:23.79	57.01	5.82	
2025-01-19 15:26:23.99	56.98	5.83	
2025-01-19 15:26:24.20	56.94	5.84	
2025-01-19 15:26:24.40	56.91	5.85	
2025-01-19 15:26:24.60	56.88	5.85	
2025-01-19 15:26:24.81	56.85	5.86	
2025-01-19 15:26:25.01	56.82	5.87	
2025-01-19 15:26:25.21	56.79	5.87	
2025-01-19 15:26:25.41	56.75	5.88	
2025-01-19 15:26:25.62	56.72	5.89	
2025-01-19 15:26:25.82	56.69	5.90	
2025-01-19 15:26:26.02	56.66	5.90	
2025-01-19 15:26:26.23	56.63	5.91	
2025-01-19 15:26:26.43	56.59	5.92	
2025-01-19 15:26:26.63	56.56	5.92	
2025-01-19 15:26:26.83	56.53	5.93	
2025-01-19 15:26:27.04	56.50	5.94	
2025-01-19 15:26:27.24	56.47	5.95	
2025-01-19 15:26:27.44	56.44	5.95	
2025-01-19 15:26:27.65	56.40	5.96	
2025-01-19 15:26:27.85	56.37	5.97	
2025-01-19 15:26:28.06	56.34	5.97	
2025-01-19 15:26:28.27	56.31	5.98	
2025-01-19 15:26:28.47	56.27	5.99	
2025-01-19 15:26:28.67	56.24	6.00	
2025-01-19 15:26:28.87	56.21	6.00	
2025-01-19 15:26:29.08	56.18	6.01	
2025-01-19 15:26:29.28	56.15	6.02	
2025-01-19 15:26:29.48	56.11	6.02	
2025-01-19 15:26:29.69	56.08	6.03	
2025-01-19 15:26:29.89	56.05	6.04	
2025-01-19 15:26:30.09	56.02	6.04	
2025-01-19 15:26:30.30	55.98	6.05	
2025-01-19 15:26:30.50	55.95	6.06	
2025-01-19 15:26:30.70	55.92	6.07	
2025-01-19 15:26:30.90	55.89	6.07	
2025-01-19 15:26:31.11	55.86	6.08	
2025-01-19 15:26:31.31	55.82	6.09	
2025-01-19 15:26:31.51	55.79	6.09	
2025-01-19 15:26:31.72	55.76	6.10	
2025-01-19 15:26:31.92	55.73	6.11	
2025-01-19 15:26:32.12	55.69	6.11	
2025-01-19 15:26:32.32	55.66	6.12	
2025-01-19 15:26:32.53	55.63	6.13	
2025-01-19 15:26:32.73	55.60	6.14	
2025-01-19 15:26:32.93	55.57	6.14	
2025-01-19 15:26:33.14	55.53	6.15	
2025-01-19 15:26:33.34	55.50	6.16	
2025-01-19 15:26:33.55	55.47	6.16	
2025-01-19 15:26:33.75	55.43	6.17	
2025-01-19 15:26:33.95	55.40	6.18	
2025-01-19 15:26:34.16	55.37	6.18	
2025-01-19 15:26:34.36	55.34	6.19	
2025-01-19 15:26:34.56	55.30	6.20	
2025-01-19 15:26:34.77	55.27	6.21	
2025-01-19 15:26:34.97	55.24	6.21	
2025-01-19 15:26:35.17	55.21	6.22	
2025-01-19 15:26:35.37	55.17	6.23	
2025-01-19 15:26:35.58	55.14	6.23	
2025-01-19 15:26:35.78	55.11	6.24	
2025-01-19 15:26:35.98	55.08	6.25	
2025-01-19 15:26:36.19	55.04	6.25	
2025-01-19 15:26:36.39	55.01	6.26	
2025-01-19 15:26:36.59	54.98	6.27	
2025-01-19 15:26:36.80	54.94	6.27	
2025-01-19 15:26:37.00	54.91	6.28	
2025-01-19 15:26:37.20	54.88	6.29	
2025-01-19 15:26:37.40	54.85	6.29	
2025-01-19 15:26:37.61	54.81	6.30	
2025-01-19 15:26:37.81	54.78	6.31	
2025-01-19 15:26:38.01	54.75	6.31	
2025-01-19 15:26:38.22	54.71	6.32	
2025-01-19 15:26:38.42	54.68	6.33	
2025-01-19 15:26:38.62	54.65	6.33	
2025-01-19 15:26:38.82	54.62	6.34	
2025-01-19 15:26:39.03	54.58	6.35	
2025-01-19 15:26:39.23	54.55	6.35	
2025-01-19 15:26:39.43	54.52	6.36	
2025-01-19 15:26:39.64	54.48	6.37	
2025-01-19 15:26:39.85	54.45	6.38	
2025-01-19 15:26:40.05	54.42	6.38	
2025-01-19 15:26:40.25	54.38	6.39	
2025-01-19 15:26:40.45	54.35	6.40	
2025-01-19 15:26:40.66	54.32	6.40	
2025-01-19 15:26:40.86	54.29	6.41	
2025-01-19 15:26:41.06	54.25	6.42	
2025-01-19 15:26:41.27	54.22	6.42	
2025-01-19 15:26:41.47	54.19	6.43	
2025-01-19 15:26:41.67	54.15	6.44	
2025-01-19 15:26:41.88	54.12	6.44	
2025-01-19 15:26:42.08	54.09	6.45	
2025-01-19 15:26:42.28	54.05	6.46	
2025-01-19 15:26:42.48	54.02	6.46	
2025-01-19 15:26:42.69	53.99	6.47	
2025-01-19 15:26:42.89	53.95	6.48	
2025-01-19 15:26:43.09	53.92	6.48	
2025-01-19 15:26:43.30	53.89	6.49	
2025-01-19 15:26:43.50	53.85	6.50	
2025-01-19 15:26:43.70	53.82	6.50	
2025-01-19 15:26:43.90	53.79	6.51	
2025-01-19 15:26:44.11	53.75	6.52	
2025-01-19 15:26:44.31	53.72	6.52	
2025-01-19 15:26:44.51	53.69	6.53	
2025-01-19 15:26:44.72	53.65	6.54	
2025-01-19 15:26:44.92	53.62	6.54	
2025-01-19 15:26:45.12	53.59	6.55	
2025-01-19 15:26:45.33	53.55	6.55	
2025-01-19 15:26:45.53	53.52	6.56	
2025-01-19 15:26:45.73	53.49	6.57	
2025-01-19 15:26:45.93	53.45	6.57	
2025-01-19 15:26:46.14	53.42	6.58	
2025-01-19 15:26:46.34	53.39	6.59	
2025-01-19 15:26:46.54	53.35	6.59	
2025-01-19 15:26:46.75	53.32	6.60	
2025-01-19 15:26:46.95	53.29	6.61	
2025-01-19 15:26:47.15	53.25	6.61	
2025-01-19 15:26:47.35	53.22	6.62	
2025-01-19 15:26:47.56	53.18	6.63	
2025-01-19 15:26:47.76	53.15	6.63	
2025-01-19 15:26:47.96	53.12	6.64	
2025-01-19 15:26:48.17	53.08	6.65	
2025-01-19 15:26:48.37	53.05	6.65	
2025-01-19 15:26:48.57	53.02	6.66	
2025-01-19 15:26:48.78	52.98	6.67	
2025-01-19 15:26:48.98	52.95	6.67	
2025-01-19 15:26:49.18	52.92	6.68	
2025-01-19 15:26:49.38	52.88	6.68	
2025-01-19 15:26:49.59	52.85	6.69	
2025-01-19 15:26:49.79	52.81	6.70	
2025-01-19 15:26:49.99	52.78	6.70	
2025-01-19 15:26:50.20	52.75	6.71	
2025-01-19 15:26:50.40	52.71	6.72	
2025-01-19 15:26:50.60	52.68	6.72	
2025-01-19 15:26:50.80	52.65	6.73	
2025-01-19 15:26:51.01	52.61	6.74	
2025-01-19 15:26:51.21	52.58	6.74	
2025-01-19 15:26:51.41	52.54	6.75	
2025-01-19 15:26:51.62	52.51	6.75	
2025-01-19 15:26:51.82	52.47	6.76	
2025-01-19 15:26:52.02	52.44	6.77	
2025-01-19 15:26:52.23	52.41	6.77	
2025-01-19 15:26:52.43	52.37	6.78	
2025-01-19 15:26:52.63	52.34	6.79	
2025-01-19 15:26:52.83	52.31	6.79	
2025-01-19 15:26:53.04	52.27	6.80	
2025-01-19 15:26:53.24	52.24	6.80	
2025-01-19 15:26:53.44	52.20	6.81	
2025-01-19 15:26:53.65	52.17	6.82	
2025-01-19 15:26:53.85	52.13	6.82	
2025-01-19 15:26:54.05	52.10	6.83	
2025-01-19 15:26:54.26	52.06	6.84	
2025-01-19 15:26:54.46	52.03	6.84	
2025-01-19 15:26:54.66	52.00	6.85	
2025-01-19 15:26:54.86	51.96	6.85	
2025-01-19 15:26:55.07	51.93	6.86	
2025-01-19 15:26:55.27	51.89	6.87	
2025-01-19 15:26:55.47	51.86	6.87	
2025-01-19 15:26:55.68	51.83	6.88	
2025-01-19 15:26:55.88	51.79	6.89	
2025-01-19 15:26:56.08	51.76	6.89	
2025-01-19 15:26:56.28	51.72	6.90	
2025-01-19 15:26:56.49	51.69	6.90	
2025-01-19 15:26:56.69	51.65	6.91	
2025-01-19 15:26:56.89	51.62	6.92	
2025-01-19 15:26:57.10	51.59	6.92	
2025-01-19 15:26:57.30	51.55	6.93	
2025-01-19 15:26:57.50	51.52	6.94	
2025-01-19 15:26:57.71	51.48	6.94	
2025-01-19 15:26:57.91	51.45	6.95	
2025-01-19 15:26:58.11	51.41	6.95	
2025-01-19 15:26:58.31	51.38	6.96	
2025-01-19 15:26:58.52	51.34	6.97	
2025-01-19 15:26:58.72	51.31	6.97	
2025-01-19 15:26:58.92	51.28	6.98	
2025-01-19 15:26:59.13	51.24	6.98	
2025-01-19 15:26:59.33	51.21	6.99	
2025-01-19 15:26:59.53	51.17	7.00	
2025-01-19 15:26:59.73	51.14	7.00	
2025-01-19 15:26:59.94	51.10	7.01	
2025-01-19 15:27:00.14	51.07	7.01	
2025-01-19 15:27:00.34	51.03	7.02	
2025-01-19 15:27:00.55	51.00	7.03	
2025-01-19 15:27:00.75	50.96	7.03	
2025-01-19 15:27:00.95	50.93	7.04	
2025-01-19 15:27:01.16	50.89	7.04	
2025-01-19 15:27:01.36	50.86	7.05	
2025-01-19 15:27:01.56	50.83	7.06	
2025-01-19 15:27:01.76	50.79	7.06	
2025-01-19 15:27:01.97	50.76	7.07	
2025-01-19 15:27:02.17	50.72	7.07	
2025-01-19 15:27:02.37	50.69	7.08	
2025-01-19 15:27:02.58	50.65	7.09	
2025-01-19 15:27:02.78	50.62	7.09	
2025-01-19 15:27:02.98	50.58	7.10	
2025-01-19 15:27:03.18	50.55	7.10	
2025-01-19 15:27:03.39	50.51	7.11	
2025-01-19 15:27:03.59	50.48	7.12	
2025-01-19 15:27:03.79	50.44	7.12	
2025-01-19 15:27:04.00	50.41	7.13	
2025-01-19 15:27:04.20	50.37	7.13	
2025-01-19 15:27:04.40	50.34	7.14	
2025-01-19 15:27:04.61	50.30	7.15	
2025-01-19 15:27:04.81	50.27	7.15	
2025-01-19 15:27:05.01	50.23	7.16	
2025-01-19 15:27:05.21	50.20	7.16	
2025-01-19 15:27:05.42	50.16	7.17	
2025-01-19 15:27:05.62	50.13	7.17	
2025-01-19 15:27:05.82	50.09	7.18	
2025-01-19 15:27:06.03	50.06	7.19	
2025-01-19 15:27:06.23	50.02	7.19	
2025-01-19 15:27:06.43	49.99	7.20	
2025-01-19 15:27:06.64	49.95	7.20	
2025-01-19 15:27:06.84	49.92	7.21	
2025-01-19 15:27:07.04	49.88	7.21	
2025-01-19 15:27:07.24	49.85	7.22	
2025-01-19 15:27:07.45	49.81	7.23	
2025-01-19 15:27:07.65	49.78	7.23	
2025-01-19 15:27:07.85	49.74	7.24	
2025-01-19 15:27:08.06	49.71	7.24	
2025-01-19 15:27:08.26	49.67	7.25	
2025-01-19 15:27:08.46	49.64	7.25	
2025-01-19 15:27:08.66	49.60	7.26	
2025-01-19 15:27:08.87	49.56	7.27	
2025-01-19 15:27:09.07	49.53	7.27	
2025-01-19 15:27:09.27	49.49	7.28	
2025-01-19 15:27:09.48	49.46	7.28	
2025-01-19 15:27:09.68	49.42	7.29	
2025-01-19 15:27:09.88	49.39	7.29	
2025-01-19 15:27:10.09	49.35	7.30	
2025-01-19 15:27:10.29	49.32	7.31	
2025-01-19 15:27:10.49	49.28	7.31	
2025-01-19 15:27:10.69	49.25	7.32	
2025-01-19 15:27:10.90	49.21	7.32	
2025-01-19 15:27:11.10	49.18	7.33	
2025-01-19 15:27:11.30	49.14	7.33	
2025-01-19 15:27:11.51	49.10	7.34	
2025-01-19 15:27:11.71	49.07	7.35	
2025-01-19 15:27:11.91	49.03	7.35	
2025-01-19 15:27:12.11	49.00	7.36	
2025-01-19 15:27:12.32	48.96	7.36	
2025-01-19 15:27:12.52	48.93	7.37	
2025-01-19 15:27:12.72	48.89	7.37	
2025-01-19 15:27:12.93	48.86	7.38	
2025-01-19 15:27:13.13	48.82	7.38	
2025-01-19 15:27:13.33	48.79	7.39	
2025-01-19 15:27:13.54	48.75	7.40	
2025-01-19 15:27:13.74	48.71	7.40	
2025-01-19 15:27:13.94	48.68	7.41	
2025-01-19 15:27:14.14	48.64	7.41	
2025-01-19 15:27:14.35	48.61	7.42	
2025-01-19 15:27:14.55	48.57	7.42	
2025-01-19 15:27:14.75	48.54	7.43	
2025-01-19 15:27:14.96	48.50	7.43	
2025-01-19 15:27:15.16	48.46	7.44	
2025-01-19 15:27:15.36	48.43	7.44	
2025-01-19 15:27:15.56	48.39	7.45	
2025-01-19 15:27:15.77	48.36	7.46	
2025-01-19 15:27:15.97	48.32	7.46	
2025-01-19 15:27:16.17	48.29	7.47	
2025-01-19 15:27:16.38	48.25	7.47	
2025-01-19 15:27:16.58	48.21	7.48	
2025-01-19 15:27:16.78	48.18	7.48	
2025-01-19 15:27:16.99	48.14	7.49	
2025-01-19 15:27:17.19	48.11	7.49	
2025-01-19 15:27:17.39	48.07	7.50	
2025-01-19 15:27:17.59	48.03	7.50	
2025-01-19 15:27:17.80	48.00	7.51	
2025-01-19 15:27:18.00	47.96	7.51	
2025-01-19 15:27:18.20	47.93	7.52	
2025-01-19 15:27:18.41	47.89	7.52	
2025-01-19 15:27:18.61	47.85	7.53	
2025-01-19 15:27:18.81	47.82	7.54	
2025-01-19 15:27:19.01	47.78	7.54	
2025-01-19 15:27:19.22	47.75	7.55	
2025-01-19 15:27:19.42	47.71	7.55	
2025-01-19 15:27:19.62	47.67	7.56	
2025-01-19 15:27:19.83	47.64	7.56	
2025-01-19 15:27:20.03	47.60	7.57	
2025-01-19 15:27:20.23	47.57	7.57	
2025-01-19 15:27:20.44	47.53	7.58	
2025-01-19 15:27:20.64	47.49	7.58	
2025-01-19 15:27:20.84	47.46	7.59	
2025-01-19 15:27:21.04	47.42	7.59	
2025-01-19 15:27:21.25	47.38	7.60	
2025-01-19 15:27:21.45	47.35	7.60	
2025-01-19 15:27:21.65	47.31	7.61	
2025-01-19 15:27:21.86	47.28	7.61	
2025-01-19 15:27:22.06	47.24	7.62	
2025-01-19 15:27:22.26	47.20	7.62	
2025-01-19 15:27:22.47	47.17	7.63	
2025-01-19 15:27:22.67	47.13	7.63	
2025-01-19 15:27:22.87	47.10	7.64	
2025-01-19 15:27:23.07	47.06	7.64	
2025-01-19 15:27:23.28	47.02	7.65	
2025-01-19 15:27:23.48	46.99	7.65	
2025-01-19 15:27:23.68	46.95	7.66	
2025-01-19 15:27:23.89	46.91	7.66	
2025-01-19 15:27:24.09	46.88	7.67	
2025-01-19 15:27:24.29	46.84	7.67	
2025-01-19 15:27:24.49	46.81	7.68	
2025-01-19 15:27:24.70	46.77	7.68	
2025-01-19 15:27:24.90	46.73	7.69	
2025-01-19 15:27:25.10	46.70	7.69	
2025-01-19 15:27:25.31	46.66	7.70	
2025-01-19 15:27:25.51	46.62	7.70	
2025-01-19 15:27:25.71	46.59	7.71	
2025-01-19 15:27:25.92	46.55	7.71	
2025-01-19 15:27:26.12	46.51	7.72	
2025-01-19 15:27:26.32	46.48	7.72	
2025-01-19 15:27:26.52	46.44	7.73	
2025-01-19 15:27:26.73	46.40	7.73	
2025-01-19 15:27:26.93	46.37	7.74	
2025-01-19 15:27:27.13	46.33	7.74	
2025-01-19 15:27:27.34	46.29	7.75	
2025-01-19 15:27:27.54	46.26	7.75	
2025-01-19 15:27:27.74	46.22	7.76	
2025-01-19 15:27:27.94	46.18	7.76	
2025-01-19 15:27:28.15	46.15	7.77	
2025-01-19 15:27:28.35	46.11	7.77	
2025-01-19 15:27:28.55	46.07	7.78	
2025-01-19 15:27:28.76	46.04	7.78	
2025-01-19 15:27:28.96	46.00	7.79	
2025-01-19 15:27:29.16	45.96	7.79	
2025-01-19 15:27:29.37	45.93	7.80	
2025-01-19 15:27:29.57	45.89	7.80	
2025-01-19 15:27:29.77	45.85	7.81	
2025-01-19 15:27:29.97	45.82	7.81	
2025-01-19 15:27:30.18	45.78	7.82	
2025-01-19 15:27:30.38	45.74	7.82	
2025-01-19 15:27:30.58	45.71	7.83	
2025-01-19 15:27:30.79	45.67	7.83	
2025-01-19 15:27:30.99	45.63	7.84	
2025-01-19 15:27:31.19	45.60	7.84	
2025-01-19 15:27:31.40	45.56	7.85	
2025-01-19 15:27:31.60	45.52	7.85	
2025-01-19 15:27:31.80	45.49	7.85	
2025-01-19 15:27:32.00	45.45	7.86	
2025-01-19 15:27:32.21	45.41	7.86	
2025-01-19 15:27:32.41	45.37	7.87	
2025-01-19 15:27:32.61	45.34	7.87	
2025-01-19 15:27:32.82	45.30	7.88	
2025-01-19 15:27:33.02	45.26	7.88	
2025-01-19 15:27:33.22	45.23	7.89	
2025-01-19 15:27:33.42	45.19	7.89	
2025-01-19 15:27:33.63	45.15	7.90	
2025-01-19 15:27:33.83	45.12	7.90	
2025-01-19 15:27:34.03	45.08	7.91	
2025-01-19 15:27:34.24	45.04	7.91	
2025-01-19 15:27:34.44	45.00	7.91	
2025-01-19 15:27:34.64	44.97	7.92	
2025-01-19 15:27:34.85	44.93	7.92	
2025-01-19 15:27:35.05	44.89	7.93	
2025-01-19 15:27:35.25	44.86	7.93	
2025-01-19 15:27:35.45	44.82	7.94	
2025-01-19 15:27:35.66	44.78	7.94	
2025-01-19 15:27:35.86	44.74	7.95	
2025-01-19 15:27:36.06	44.71	7.95	
2025-01-19 15:27:36.27	44.67	7.96	
2025-01-19 15:27:36.47	44.63	7.96	
2025-01-19 15:27:36.67	44.60	7.96	
2025-01-19 15:27:36.87	44.56	7.97	
2025-01-19 15:27:37.08	44.52	7.97	
2025-01-19 15:27:37.28	44.48	7.98	
2025-01-19 15:27:37.48	44.45	7.98	
2025-01-19 15:27:37.69	44.41	7.99	
2025-01-19 15:27:37.89	44.37	7.99	
2025-01-19 15:27:38.09	44.34	7.99	
2025-01-19 15:27:38.30	44.30	8.00	
2025-01-19 15:27:38.50	44.26	8.00	
2025-01-19 15:27:38.70	44.22	8.01	
2025-01-19 15:27:38.90	44.19	8.01	
2025-01-19 15:27:39.11	44.15	8.02	
2025-01-19 15:27:39.31	44.11	8.02	
2025-01-19 15:27:39.51	44.07	8.03	
2025-01-19 15:27:39.72	44.04	8.03	
2025-01-19 15:27:39.92	44.00	8.03	
2025-01-19 15:27:40.12	43.96	8.04	
2025-01-19 15:27:40.33	43.92	8.04	
2025-01-19 15:27:40.53	43.89	8.05	
2025-01-19 15:27:40.73	43.85	8.05	
2025-01-19 15:27:40.93	43.81	8.06	
2025-01-19 15:27:41.14	43.77	8.06	
2025-01-19 15:27:41.34	43.74	8.06	
2025-01-19 15:27:41.54	43.70	8.07	
2025-01-19 15:27:41.75	43.66	8.07	
2025-01-19 15:27:41.95	43.62	8.08	
2025-01-19 15:27:42.15	43.59	8.08	
2025-01-19 15:27:42.35	43.55	8.08	
2025-01-19 15:27:42.56	43.51	8.09	
2025-01-19 15:27:42.76	43.48	8.09	
2025-01-19 15:27:42.96	43.44	8.10	
2025-01-19 15:27:43.17	43.40	8.10	
2025-01-19 15:27:43.37	43.36	8.11	
2025-01-19 15:27:43.57	43.33	8.11	
2025-01-19 15:27:43.78	43.29	8.11	
2025-01-19 15:27:43.98	43.25	8.12	
2025-01-19 15:27:44.18	43.21	8.12	
2025-01-19 15:27:44.38	43.18	8.13	
2025-01-19 15:27:44.59	43.14	8.13	
2025-01-19 15:27:44.79	43.10	8.13	
2025-01-19 15:27:44.99	43.06	8.14	
2025-01-19 15:27:45.20	43.02	8.14	
2025-01-19 15:27:45.40	42.99	8.15	
2025-01-19 15:27:45.60	42.95	8.15	
2025-01-19 15:27:45.80	42.91	8.15	
2025-01-19 15:27:46.01	42.87	8.16	
2025-01-19 15:27:46.21	42.84	8.16	
2025-01-19 15:27:46.41	42.80	8.17	
2025-01-19 15:27:46.62	42.76	8.17	
2025-01-19 15:27:46.82	42.72	8.17	
2025-01-19 15:27:47.02	42.68	8.18	
2025-01-19 15:27:47.23	42.65	8.18	
2025-01-19 15:27:47.43	42.61	8.19	
2025-01-19 15:27:47.63	42.57	8.19	
2025-01-19 15:27:47.83	42.53	8.19	
2025-01-19 15:27:48.04	42.49	8.20	
2025-01-19 15:27:48.24	42.46	8.20	
2025-01-19 15:27:48.44	42.42	8.21	
2025-01-19 15:27:48.65	42.38	8.21	
2025-01-19 15:27:48.85	42.34	8.21	
2025-01-19 15:27:49.05	42.31	8.22	
2025-01-19 15:27:49.25	42.27	8.22	
2025-01-19 15:27:49.46	42.23	8.22	
2025-01-19 15:27:49.66	42.19	8.23	
2025-01-19 15:27:49.86	42.15	8.23	
2025-01-19 15:27:50.07	42.12	8.24	
2025-01-19 15:27:50.27	42.08	8.24	
2025-01-19 15:27:50.47	42.04	8.24	
2025-01-19 15:27:50.68	42.00	8.25	
2025-01-19 15:27:50.88	41.96	8.25	
2025-01-19 15:27:51.08	41.93	8.26	
2025-01-19 15:27:51.28	41.89	8.26	
2025-01-19 15:27:51.49	41.85	8.26	
2025-01-19 15:27:51.69	41.81	8.27	
2025-01-19 15:27:51.89	41.77	8.27	
2025-01-19 15:27:52.10	41.74	8.27	
2025-01-19 15:27:52.30	41.70	8.28	
2025-01-19 15:27:52.50	41.66	8.28	
2025-01-19 15:27:52.71	41.62	8.28	
2025-01-19 15:27:52.91	41.58	8.29	
2025-01-19 15:27:53.11	41.55	8.29	
2025-01-19 15:27:53.31	41.51	8.30	
2025-01-19 15:27:53.52	41.47	8.30	
2025-01-19 15:27:53.72	41.43	8.30	
2025-01-19 15:27:53.92	41.39	8.31	
2025-01-19 15:27:54.13	41.35	8.31	
2025-01-19 15:27:54.33	41.32	8.31	
2025-01-19 15:27:54.53	41.28	8.32	
2025-01-19 15:27:54.73	41.24	8.32	
2025-01-19 15:27:54.94	41.20	8.32	
2025-01-19 15:27:55.14	41.16	8.33	
2025-01-19 15:27:55.34	41.13	8.33	
2025-01-19 15:27:55.55	41.09	8.33	
2025-01-19 15:27:55.75	41.05	8.34	
2025-01-19 15:27:55.95	41.01	8.34	
2025-01-19 15:27:56.16	40.97	8.35	
2025-01-19 15:27:56.36	40.93	8.35	
2025-01-19 15:27:56.56	40.90	8.35	
2025-01-19 15:27:56.76	40.86	8.36	
2025-01-19 15:27:56.97	40.82	8.36	
2025-01-19 15:27:57.17	40.78	8.36	
2025-01-19 15:27:57.37	40.74	8.37	
2025-01-19 15:27:57.58	40.70	8.37	
2025-01-19 15:27:57.78	40.67	8.37	
2025-01-19 15:27:57.98	40.63	8.38	
2025-01-19 15:27:58.18	40.59	8.38	
2025-01-19 15:27:58.39	40.55	8.38	
2025-01-19 15:27:58.59	40.51	8.39	
2025-01-19 15:27:58.79	40.48	8.39	
2025-01-19 15:27:59.00	40.44	8.39	
2025-01-19 15:27:59.20	40.40	8.40	
2025-01-19 15:27:59.40	40.36	8.40	
2025-01-19 15:27:59.61	40.32	8.40	
2025-01-19 15:27:59.81	40.28	8.41	
2025-01-19 15:28:00.01	40.24	8.41	
2025-01-19 15:28:00.21	40.21	8.41	
2025-01-19 15:28:00.42	40.17	8.42	
2025-01-19 15:28:00.62	40.13	8.42	
2025-01-19 15:28:00.82	40.09	8.42	
2025-01-19 15:28:01.03	40.05	8.43	
2025-01-19 15:28:01.23	40.01	8.43	
2025-01-19 15:28:01.43	39.98	8.43	
2025-01-19 15:28:01.63	39.94	8.43	
2025-01-19 15:28:01.84	39.90	8.44	
2025-01-19 15:28:02.04	39.86	8.44	
2025-01-19 15:28:02.24	39.82	8.44	
2025-01-19 15:28:02.45	39.78	8.45	
2025-01-19 15:28:02.65	39.74	8.45	
2025-01-19 15:28:02.85	39.71	8.45	
2025-01-19 15:28:03.06	39.67	8.46	
2025-01-19 15:28:03.26	39.63	8.46	
2025-01-19 15:28:03.46	39.59	8.46	
2025-01-19 15:28:03.66	39.55	8.47	
2025-01-19 15:28:03.87	39.51	8.47	
2025-01-19 15:28:04.07	39.47	8.47	
2025-01-19 15:28:04.27	39.44	8.47	
2025-01-19 15:28:04.48	39.40	8.48	
2025-01-19 15:28:04.68	39.36	8.48	
2025-01-19 15:28:04.88	39.32	8.48	
2025-01-19 15:28:05.09	39.28	8.49	
2025-01-19 15:28:05.29	39.24	8.49	
2025-01-19 15:28:05.49	39.20	8.49	
2025-01-19 15:28:05.69	39.17	8.50	
2025-01-19 15:28:05.90	39.13	8.50	
2025-01-19 15:28:06.10	39.09	8.50	
2025-01-19 15:28:06.30	39.05	8.50	
2025-01-19 15:28:06.51	39.01	8.51	
2025-01-19 15:28:06.71	38.97	8.51	
2025-01-19 15:28:06.91	38.93	8.51	
2025-01-19 15:28:07.11	38.89	8.52	
2025-01-19 15:28:07.32	38.85	8.52	
2025-01-19 15:28:07.52	38.82	8.52	
2025-01-19 15:28:07.72	38.78	8.52	
2025-01-19 15:28:07.93	38.74	8.53	
2025-01-19 15:28:08.13	38.70	8.53	
2025-01-19 15:28:08.33	38.66	8.53	
2025-01-19 15:28:08.54	38.62	8.54	
2025-01-19 15:28:08.74	38.58	8.54	
2025-01-19 15:28:08.94	38.54	8.54	
2025-01-19 15:28:09.14	38.51	8.54	
2025-01-19 15:28:09.35	38.47	8.55	
2025-01-19 15:28:09.55	38.43	8.55	
2025-01-19 15:28:09.75	38.39	8.55	
2025-01-19 15:28:09.96	38.35	8.56	
2025-01-19 15:28:10.16	38.31	8.56	
2025-01-19 15:28:10.36	38.27	8.56	
2025-01-19 15:28:10.56	38.23	8.56	
2025-01-19 15:28:10.77	38.19	8.57	
2025-01-19 15:28:10.97	38.16	8.57	
2025-01-19 15:28:11.17	38.12	8.57	
2025-01-19 15:28:11.38	38.08	8.57	
2025-01-19 15:28:11.58	38.04	8.58	
2025-01-19 15:28:11.78	38.00	8.58	
2025-01-19 15:28:11.99	37.96	8.58	
2025-01-19 15:28:12.19	37.92	8.58	
2025-01-19 15:28:12.39	37.88	8.59	
2025-01-19 15:28:12.59	37.85	8.59	
2025-01-19 15:28:12.80	37.80	8.59	
2025-01-19 15:28:13.00	37.77	8.59	
2025-01-19 15:28:13.20	37.73	8.60	
2025-01-19 15:28:13.41	37.69	8.60	
2025-01-19 15:28:13.61	37.65	8.60	
2025-01-19 15:28:13.81	37.61	8.60	
2025-01-19 15:28:14.01	37.57	8.61	
2025-01-19 15:28:14.22	37.53	8.61	
2025-01-19 15:28:14.42	37.49	8.61	
2025-01-19 15:28:14.62	37.45	8.61	
2025-01-19 15:28:14.83	37.41	8.62	
2025-01-19 15:28:15.03	37.38	8.62	
2025-01-19 15:28:15.23	37.34	8.62	
2025-01-19 15:28:15.44	37.30	8.62	
2025-01-19 15:28:15.64	37.26	8.63	
2025-01-19 15:28:15.84	37.22	8.63	
2025-01-19 15:28:16.04	37.18	8.63	
2025-01-19 15:28:16.25	37.14	8.63	
2025-01-19 15:28:16.45	37.10	8.64	
2025-01-19 15:28:16.65	37.06	8.64	
2025-01-19 15:28:16.86	37.02	8.64	
2025-01-19 15:28:17.06	36.99	8.64	
2025-01-19 15:28:17.26	36.95	8.65	
2025-01-19 15:28:17.47	36.91	8.65	
2025-01-19 15:28:17.67	36.87	8.65	
2025-01-19 15:28:17.87	36.83	8.65	
2025-01-19 15:28:18.07	36.79	8.65	
2025-01-19 15:28:18.28	36.75	8.66	
2025-01-19 15:28:18.48	36.71	8.66	
2025-01-19 15:28:18.68	36.67	8.66	
2025-01-19 15:28:18.89	36.63	8.66	
2025-01-19 15:28:19.09	36.59	8.67	
2025-01-19 15:28:19.29	36.56	8.67	
2025-01-19 15:28:19.49	36.52	8.67	
2025-01-19 15:28:19.70	36.48	8.67	
2025-01-19 15:28:19.90	36.44	8.67	
2025-01-19 15:28:20.10	36.40	8.68	
2025-01-19 15:28:20.31	36.36	8.68	
2025-01-19 15:28:20.51	36.32	8.68	
2025-01-19 15:28:20.71	36.28	8.68	
2025-01-19 15:28:20.92	36.24	8.68	
2025-01-19 15:28:21.12	36.20	8.69	
2025-01-19 15:28:21.32	36.16	8.69	
2025-01-19 15:28:21.52	36.12	8.69	
2025-01-19 15:28:21.73	36.08	8.69	
2025-01-19 15:28:21.93	36.04	8.69	
2025-01-19 15:28:22.13	36.01	8.70	
2025-01-19 15:28:22.34	35.97	8.70	
2025-01-19 15:28:22.54	35.93	8.70	
2025-01-19 15:28:22.74	35.89	8.70	
2025-01-19 15:28:22.94	35.85	8.70	
2025-01-19 15:28:23.15	35.81	8.71	
2025-01-19 15:28:23.35	35.77	8.71	
2025-01-19 15:28:23.55	35.73	8.71	
2025-01-19 15:28:23.76	35.69	8.71	
2025-01-19 15:28:23.96	35.65	8.71	
2025-01-19 15:28:24.16	35.61	8.72	
2025-01-19 15:28:24.37	35.57	8.72	
2025-01-19 15:28:24.57	35.53	8.72	
2025-01-19 15:28:24.77	35.49	8.72	
2025-01-19 15:28:24.97	35.46	8.72	
2025-01-19 15:28:25.18	35.42	8.73	
2025-01-19 15:28:25.38	35.38	8.73	
2025-01-19 15:28:25.58	35.34	8.73	
2025-01-19 15:28:25.79	35.30	8.73	
2025-01-19 15:28:25.99	35.26	8.73	
2025-01-19 15:28:26.19	35.22	8.73	
2025-01-19 15:28:26.39	35.18	8.74	
2025-01-19 15:28:26.60	35.14	8.74	
2025-01-19 15:28:26.80	35.10	8.74	
2025-01-19 15:28:27.00	35.06	8.74	
2025-01-19 15:28:27.21	35.02	8.74	
2025-01-19 15:28:27.41	34.98	8.75	
2025-01-19 15:28:27.61	34.94	8.75	
2025-01-19 15:28:27.82	34.90	8.75	
2025-01-19 15:28:28.02	34.86	8.75	
2025-01-19 15:28:28.22	34.83	8.75	
2025-01-19 15:28:28.42	34.79	8.75	
2025-01-19 15:28:28.63	34.75	8.76	
2025-01-19 15:28:28.83	34.71	8.76	
2025-01-19 15:28:29.03	34.67	8.76	
2025-01-19 15:28:29.24	34.63	8.76	
2025-01-19 15:28:29.44	34.59	8.76	
2025-01-19 15:28:29.64	34.55	8.76	
2025-01-19 15:28:29.84	34.51	8.76	
2025-01-19 15:28:30.05	34.47	8.77	
2025-01-19 15:28:30.25	34.43	8.77	
2025-01-19 15:28:30.45	34.39	8.77	
2025-01-19 15:28:30.66	34.35	8.77	
2025-01-19 15:28:30.86	34.31	8.77	
2025-01-19 15:28:31.06	34.27	8.77	
2025-01-19 15:28:31.27	34.23	8.78	
2025-01-19 15:28:31.47	34.19	8.78	
2025-01-19 15:28:31.67	34.15	8.78	
2025-01-19 15:28:31.87	34.12	8.78	
2025-01-19 15:28:32.08	34.07	8.78	
2025-01-19 15:28:32.28	34.04	8.78	
2025-01-19 15:28:32.48	34.00	8.78	
2025-01-19 15:28:32.69	33.96	8.79	
2025-01-19 15:28:32.89	33.92	8.79	
2025-01-19 15:28:33.09	33.88	8.79	
2025-01-19 15:28:33.30	33.84	8.79	
2025-01-19 15:28:33.50	33.80	8.79	
2025-01-19 15:28:33.70	33.76	8.79	
2025-01-19 15:28:33.90	33.72	8.79	
2025-01-19 15:28:34.11	33.68	8.79	
2025-01-19 15:28:34.31	33.64	8.80	
2025-01-19 15:28:34.51	33.60	8.80	
2025-01-19 15:28:34.72	33.56	8.80	
2025-01-19 15:28:34.92	33.52	8.80	
2025-01-19 15:28:35.12	33.48	8.80	
2025-01-19 15:28:35.32	33.44	8.80	
2025-01-19 15:28:35.53	33.40	8.80	
2025-01-19 15:28:35.73	33.36	8.80	
2025-01-19 15:28:35.93	33.32	8.81	
2025-01-19 15:28:36.14	33.28	8.81	
2025-01-19 15:28:36.34	33.24	8.81	
2025-01-19 15:28:36.54	33.21	8.81	
2025-01-19 15:28:36.75	33.16	8.81	
2025-01-19 15:28:36.95	33.13	8.81	
2025-01-19 15:28:37.15	33.09	8.81	
2025-01-19 15:28:37.35	33.05	8.81	
2025-01-19 15:28:37.56	33.01	8.82	
2025-01-19 15:28:37.76	32.97	8.82	
2025-01-19 15:28:37.96	32.93	8.82	
2025-01-19 15:28:38.17	32.89	8.82	
2025-01-19 15:28:38.37	32.85	8.82	
2025-01-19 15:28:38.57	32.81	8.82	
2025-01-19 15:28:38.77	32.77	8.82	
2025-01-19 15:28:38.98	32.73	8.82	
2025-01-19 15:28:39.18	32.69	8.82	
2025-01-19 15:28:39.38	32.65	8.82	
2025-01-19 15:28:39.59	32.61	8.83	
2025-01-19 15:28:39.79	32.57	8.83	
2025-01-19 15:28:39.99	32.53	8.83	
2025-01-19 15:28:40.20	32.49	8.83	
2025-01-19 15:28:40.40	32.45	8.83	
2025-01-19 15:28:40.60	32.41	8.83	
2025-01-19 15:28:40.80	32.37	8.83	
2025-01-19 15:28:41.01	32.33	8.83	
2025-01-19 15:28:41.21	32.29	8.83	
2025-01-19 15:28:41.41	32.25	8.83	
2025-01-19 15:28:41.62	32.21	8.83	
2025-01-19 15:28:41.82	32.17	8.84	
2025-01-19 15:28:42.02	32.13	8.84	
2025-01-19 15:28:42.23	32.09	8.84	
2025-01-19 15:28:42.43	32.05	8.84	
2025-01-19 15:28:42.63	32.02	8.84	
2025-01-19 15:28:42.83	31.98	8.84	
2025-01-19 15:28:43.04	31.94	8.84	
2025-01-19 15:28:43.24	31.90	8.84	
2025-01-19 15:28:43.44	31.86	8.84	
2025-01-19 15:28:43.65	31.82	8.84	
2025-01-19 15:28:43.85	31.78	8.84	
2025-01-19 15:28:44.05	31.74	8.84	
2025-01-19 15:28:44.25	31.70	8.84	
2025-01-19 15:28:44.46	31.66	8.85	
2025-01-19 15:28:44.66	31.62	8.85	
2025-01-19 15:28:44.86	31.58	8.85	
2025-01-19 15:28:45.07	31.54	8.85	
2025-01-19 15:28:45.27	31.50	8.85	
2025-01-19 15:28:45.47	31.46	8.85	
2025-01-19 15:28:45.68	31.42	8.85	
2025-01-19 15:28:45.88	31.38	8.85	
2025-01-19 15:28:46.08	31.34	8.85	
2025-01-19 15:28:46.28	31.30	8.85	
2025-01-19 15:28:46.49	31.26	8.85	
2025-01-19 15:28:46.69	31.22	8.85	
2025-01-19 15:28:46.89	31.18	8.85	
2025-01-19 15:28:47.10	31.14	8.85	
2025-01-19 15:28:47.30	31.10	8.85	
2025-01-19 15:28:47.50	31.06	8.85	
2025-01-19 15:28:47.70	31.02	8.85	
2025-01-19 15:28:47.91	30.98	8.86	
2025-01-19 15:28:48.11	30.94	8.86	
2025-01-19 15:28:48.31	30.90	8.86	
2025-01-19 15:28:48.52	30.86	8.86	
2025-01-19 15:28:48.72	30.82	8.86	
2025-01-19 15:28:48.92	30.78	8.86	
2025-01-19 15:28:49.13	30.74	8.86	
2025-01-19 15:28:49.33	30.70	8.86	
2025-01-19 15:28:49.53	30.67	8.86	
2025-01-19 15:28:49.73	30.63	8.86	
2025-01-19 15:28:49.94	30.59	8.86	
2025-01-19 15:28:50.14	30.55	8.86	
2025-01-19 15:28:50.34	30.51	8.86	
2025-01-19 15:28:50.55	30.47	8.86	
2025-01-19 15:28:50.75	30.43	8.86	
2025-01-19 15:28:50.95	30.39	8.86	
2025-01-19 15:28:51.16	30.35	8.86	
2025-01-19 15:28:51.36	30.31	8.86	
2025-01-19 15:28:51.56	30.27	8.86	
2025-01-19 15:28:51.76	30.23	8.86	
2025-01-19 15:28:51.97	30.19	8.86	
2025-01-19 15:28:52.17	30.15	8.86	
2025-01-19 15:28:52.37	30.11	8.86	
2025-01-19 15:28:52.58	30.07	8.86	
2025-01-19 15:28:52.78	30.03	8.86	
2025-01-19 15:28:52.98	29.99	8.86	
2025-01-19 15:28:53.18	29.95	8.86	
2025-01-19 15:28:53.39	29.91	8.86	
2025-01-19 15:28:53.59	29.87	8.86	
2025-01-19 15:28:53.79	29.83	8.86	
2025-01-19 15:28:54.00	29.79	8.86	
2025-01-19 15:28:54.20	29.75	8.86	
2025-01-19 15:28:54.40	29.71	8.86	
2025-01-19 15:28:54.60	29.67	8.86	
2025-01-19 15:28:54.81	29.63	8.86	
2025-01-19 15:28:55.01	29.59	8.86	
2025-01-19 15:28:55.21	29.55	8.86	
2025-01-19 15:28:55.42	29.51	8.86	
2025-01-19 15:28:55.62	29.47	8.86	
2025-01-19 15:28:55.82	29.43	8.86	
2025-01-19 15:28:56.03	29.39	8.86	
2025-01-19 15:28:56.23	29.35	8.86	
2025-01-19 15:28:56.43	29.31	8.86	
2025-01-19 15:28:56.63	29.28	8.86	
2025-01-19 15:28:56.84	29.23	8.86	
2025-01-19 15:28:57.04	29.19	8.86	
2025-01-19 15:28:57.24	29.16	8.86	
2025-01-19 15:28:57.45	29.11	8.86	
2025-01-19 15:28:57.65	29.08	8.86	
2025-01-19 15:28:57.85	29.04	8.86	
2025-01-19 15:28:58.06	28.99	8.86	
2025-01-19 15:28:58.26	28.96	8.86	
2025-01-19 15:28:58.46	28.92	8.86	
2025-01-19 15:28:58.66	28.88	8.86	
2025-01-19 15:28:58.87	28.84	8.86	
2025-01-19 15:28:59.07	28.80	8.86	
2025-01-19 15:28:59.27	28.76	8.86	
2025-01-19 15:28:59.48	28.72	8.86	
2025-01-19 15:28:59.68	28.68	8.86	
2025-01-19 15:28:59.88	28.64	8.86	
2025-01-19 15:29:00.08	28.60	8.86	
2025-01-19 15:29:00.29	28.56	8.86	
2025-01-19 15:29:00.49	28.52	8.86	
2025-01-19 15:29:00.69	28.48	8.86	
2025-01-19 15:29:00.90	28.44	8.86	
2025-01-19 15:29:01.10	28.40	8.86	
2025-01-19 15:29:01.30	28.36	8.86	
2025-01-19 15:29:01.51	28.32	8.86	
2025-01-19 15:29:01.71	28.28	8.86	
2025-01-19 15:29:01.91	28.24	8.86	
2025-01-19 15:29:02.11	28.20	8.86	
2025-01-19 15:29:02.32	28.16	8.86	
2025-01-19 15:29:02.52	28.12	8.86	
2025-01-19 15:29:02.72	28.08	8.86	
2025-01-19 15:29:02.93	28.04	8.86	
2025-01-19 15:29:03.13	28.00	8.86	
2025-01-19 15:29:03.33	27.96	8.86	
2025-01-19 15:29:03.54	27.92	8.86	
2025-01-19 15:29:03.74	27.88	8.86	
2025-01-19 15:29:03.94	27.84	8.85	
2025-01-19 15:29:04.14	27.80	8.85	
2025-01-19 15:29:04.35	27.76	8.85	
2025-01-19 15:29:04.55	27.72	8.85	
2025-01-19 15:29:04.75	27.69	8.85	
2025-01-19 15:29:04.96	27.64	8.85	
2025-01-19 15:29:05.16	27.61	8.85	
2025-01-19 15:29:05.36	27.57	8.85	
2025-01-19 15:29:05.56	27.53	8.85	
2025-01-19 15:29:05.77	27.49	8.85	
2025-01-19 15:29:05.97	27.45	8.85	
2025-01-19 15:29:06.17	27.41	8.85	
2025-01-19 15:29:06.38	27.37	8.85	
2025-01-19 15:29:06.58	27.33	8.85	
2025-01-19 15:29:06.78	27.29	8.85	
2025-01-19 15:29:06.99	27.25	8.85	
2025-01-19 15:29:07.19	27.21	8.85	
2025-01-19 15:29:07.39	27.17	8.84	
2025-01-19 15:29:07.59	27.13	8.84	
2025-01-19 15:29:07.80	27.09	8.84	
2025-01-19 15:29:08.00	27.05	8.84	
2025-01-19 15:29:08.20	27.01	8.84	
2025-01-19 15:29:08.41	26.97	8.84	
2025-01-19 15:29:08.61	26.93	8.84	
2025-01-19 15:29:08.81	26.89	8.84	
2025-01-19 15:29:09.01	26.85	8.84	
2025-01-19 15:29:09.22	26.81	8.84	
2025-01-19 15:29:09.42	26.77	8.84	
2025-01-19 15:29:09.62	26.73	8.84	
2025-01-19 15:29:09.83	26.69	8.83	
2025-01-19 15:29:10.03	26.65	8.83	
2025-01-19 15:29:10.23	26.61	8.83	
2025-01-19 15:29:10.44	26.57	8.83	
2025-01-19 15:29:10.64	26.53	8.83	
2025-01-19 15:29:10.84	26.49	8.83	
2025-01-19 15:29:11.04	26.46	8.83	
2025-01-19 15:29:11.25	26.41	8.83	
2025-01-19 15:29:11.45	26.38	8.83	
2025-01-19 15:29:11.65	26.34	8.83	
2025-01-19 15:29:11.86	26.30	8.83	
2025-01-19 15:29:12.06	26.26	8.82	
2025-01-19 15:29:12.26	26.22	8.82	
2025-01-19 15:29:12.46	26.18	8.82	
2025-01-19 15:29:12.67	26.14	8.82	
2025-01-19 15:29:12.87	26.10	8.82	
2025-01-19 15:29:13.07	26.06	8.82	
2025-01-19 15:29:13.28	26.02	8.82	
2025-01-19 15:29:13.48	25.98	8.82	
2025-01-19 15:29:13.68	25.94	8.82	
2025-01-19 15:29:13.89	25.90	8.82	
2025-01-19 15:29:14.09	25.86	8.81	
2025-01-19 15:29:14.29	25.82	8.81	
2025-01-19 15:29:14.49	25.78	8.81	
2025-01-19 15:29:14.70	25.74	8.81	
2025-01-19 15:29:14.90	25.70	8.81	
2025-01-19 15:29:15.10	25.66	8.81	
2025-01-19 15:29:15.31	25.62	8.81	
2025-01-19 15:29:15.51	25.58	8.81	
2025-01-19 15:29:15.71	25.54	8.81	
2025-01-19 15:29:15.92	25.50	8.80	
2025-01-19 15:29:16.12	25.46	8.80	
2025-01-19 15:29:16.32	25.43	8.80	
2025-01-19 15:29:16.52	25.39	8.80	
2025-01-19 15:29:16.73	25.35	8.80	
2025-01-19 15:29:16.93	25.31	8.80	
2025-01-19 15:29:17.13	25.27	8.80	
2025-01-19 15:29:17.34	25.23	8.80	
2025-01-19 15:29:17.54	25.19	8.79	
2025-01-19 15:29:17.74	25.15	8.79	
2025-01-19 15:29:17.94	25.11	8.79	
2025-01-19 15:29:18.15	25.07	8.79	
2025-01-19 15:29:18.35	25.03	8.79	
2025-01-19 15:29:18.55	24.99	8.79	
2025-01-19 15:29:18.76	24.95	8.79	
2025-01-19 15:29:18.96	24.91	8.78	
2025-01-19 15:29:19.16	24.87	8.78	
2025-01-19 15:29:19.37	24.83	8.78	
2025-01-19 15:29:19.57	24.79	8.78	
2025-01-19 15:29:19.77	24.75	8.78	
2025-01-19 15:29:19.97	24.71	8.78	
2025-01-19 15:29:20.18	24.67	8.78	
2025-01-19 15:29:20.38	24.64	8.77	
2025-01-19 15:29:20.58	24.60	8.77	
2025-01-19 15:29:20.79	24.56	8.77	
2025-01-19 15:29:20.99	24.52	8.77	
2025-01-19 15:29:21.19	24.48	8.77	
2025-01-19 15:29:21.39	24.44	8.77	
2025-01-19 15:29:21.60	24.40	8.77	
2025-01-19 15:29:21.80	24.36	8.76	
2025-01-19 15:29:22.00	24.32	8.76	
2025-01-19 15:29:22.21	24.28	8.76	
2025-01-19 15:29:22.41	24.24	8.76	
2025-01-19 15:29:22.61	24.20	8.76	
2025-01-19 15:29:22.82	24.16	8.76	
2025-01-19 15:29:23.02	24.12	8.75	
2025-01-19 15:29:23.22	24.08	8.75	
2025-01-19 15:29:23.42	24.04	8.75	
2025-01-19 15:29:23.63	24.00	8.75	
2025-01-19 15:29:23.83	23.96	8.75	
2025-01-19 15:29:24.03	23.93	8.75	
2025-01-19 15:29:24.24	23.89	8.74	
2025-01-19 15:29:24.44	23.85	8.74	
2025-01-19 15:29:24.64	23.81	8.74	
2025-01-19 15:29:24.84	23.77	8.74	
2025-01-19 15:29:25.05	23.73	8.74	
2025-01-19 15:29:25.25	23.69	8.74	
2025-01-19 15:29:25.45	23.65	8.73	
2025-01-19 15:29:25.66	23.61	8.73	
2025-01-19 15:29:25.86	23.57	8.73	
2025-01-19 15:29:26.06	23.53	8.73	
2025-01-19 15:29:26.27	23.49	8.73	
2025-01-19 15:29:26.47	23.45	8.72	
2025-01-19 15:29:26.67	23.41	8.72	
2025-01-19 15:29:26.87	23.38	8.72	
2025-01-19 15:29:27.08	23.33	8.72	
2025-01-19 15:29:27.28	23.30	8.72	
2025-01-19 15:29:27.48	23.26	8.71	
2025-01-19 15:29:27.69	23.22	8.71	
2025-01-19 15:29:27.89	23.18	8.71	
2025-01-19 15:29:28.09	23.14	8.71	
2025-01-19 15:29:28.30	23.10	8.71	
2025-01-19 15:29:28.50	23.06	8.71	
2025-01-19 15:29:28.70	23.02	8.70	
2025-01-19 15:29:28.90	22.98	8.70	
2025-01-19 15:29:29.11	22.94	8.70	
2025-01-19 15:29:29.31	22.90	8.70	
2025-01-19 15:29:29.51	22.86	8.70	
2025-01-19 15:29:29.72	22.82	8.69	
2025-01-19 15:29:29.92	22.79	8.69	
2025-01-19 15:29:30.12	22.75	8.69	
2025-01-19 15:29:30.32	22.71	8.69	
2025-01-19 15:29:30.53	22.67	8.69	
2025-01-19 15:29:30.73	22.63	8.68	
2025-01-19 15:29:30.93	22.59	8.68	
2025-01-19 15:29:31.14	22.55	8.68	
2025-01-19 15:29:31.34	22.51	8.68	
2025-01-19 15:29:31.54	22.47	8.67	
2025-01-19 15:29:31.75	22.43	8.67	
2025-01-19 15:29:31.95	22.39	8.67	
2025-01-19 15:29:32.15	22.35	8.67	
2025-01-19 15:29:32.35	22.32	8.67	
2025-01-19 15:29:32.56	22.28	8.66	
2025-01-19 15:29:32.76	22.24	8.66	
2025-01-19 15:29:32.96	22.20	8.66	
2025-01-19 15:29:33.17	22.16	8.66	
2025-01-19 15:29:33.37	22.12	8.65	
2025-01-19 15:29:33.57	22.08	8.65	
2025-01-19 15:29:33.77	22.04	8.65	
2025-01-19 15:29:33.98	22.00	8.65	
2025-01-19 15:29:34.18	21.96	8.65	
2025-01-19 15:29:34.38	21.93	8.64	
2025-01-19 15:29:34.59	21.88	8.64	
2025-01-19 15:29:34.79	21.85	8.64	
2025-01-19 15:29:34.99	21.81	8.64	
2025-01-19 15:29:35.20	21.77	8.63	
2025-01-19 15:29:35.40	21.73	8.63	
2025-01-19 15:29:35.60	21.69	8.63	
2025-01-19 15:29:35.80	21.65	8.63	
2025-01-19 15:29:36.01	21.61	8.62	
2025-01-19 15:29:36.21	21.57	8.62	
2025-01-19 15:29:36.41	21.53	8.62	
2025-01-19 15:29:36.62	21.49	8.62	
2025-01-19 15:29:36.82	21.46	8.61	
2025-01-19 15:29:37.02	21.42	8.61	
2025-01-19 15:29:37.22	21.38	8.61	
2025-01-19 15:29:37.43	21.34	8.61	
2025-01-19 15:29:37.63	21.30	8.61	
2025-01-19 15:29:37.83	21.26	8.60	
2025-01-19 15:29:38.04	21.22	8.60	
2025-01-19 15:29:38.24	21.18	8.60	
2025-01-19 15:29:38.44	21.15	8.60	
2025-01-19 15:29:38.65	21.10	8.59	
2025-01-19 15:29:38.85	21.07	8.59	
2025-01-19 15:29:39.05	21.03	8.59	
2025-01-19 15:29:39.25	20.99	8.58	
2025-01-19 15:29:39.46	20.95	8.58	
2025-01-19 15:29:39.66	20.91	8.58	
2025-01-19 15:29:39.86	20.87	8.58	
2025-01-19 15:29:40.07	20.83	8.57	
2025-01-19 15:29:40.27	20.79	8.57	
2025-01-19 15:29:40.47	20.76	8.57	
2025-01-19 15:29:40.68	20.72	8.57	
2025-01-19 15:29:40.88	20.68	8.56	
2025-01-19 15:29:41.08	20.64	8.56	
2025-01-19 15:29:41.28	20.60	8.56	
2025-01-19 15:29:41.49	20.56	8.56	
2025-01-19 15:29:41.69	20.52	8.55	
2025-01-19 15:29:41.89	20.48	8.55	
2025-01-19 15:29:42.10	20.44	8.55	
2025-01-19 15:29:42.30	20.41	8.54	
2025-01-19 15:29:42.50	20.37	8.54	
2025-01-19 15:29:42.70	20.33	8.54	
2025-01-19 15:29:42.91	20.29	8.54	
2025-01-19 15:29:43.11	20.25	8.53	
2025-01-19 15:29:43.31	20.21	8.53	
2025-01-19 15:29:43.52	20.17	8.53	
2025-01-19 15:29:43.72	20.13	8.53	
2025-01-19 15:29:43.92	20.10	8.52	
2025-01-19 15:29:44.13	20.06	8.52	
2025-01-19 15:29:44.33	20.02	8.52	
2025-01-19 15:29:44.53	19.98	8.51	
2025-01-19 15:29:44.73	19.94	8.51	
2025-01-19 15:29:44.94	19.90	8.51	
2025-01-19 15:29:45.14	19.86	8.51	
2025-01-19 15:29:45.34	19.83	8.50	
2025-01-19 15:29:45.55	19.79	8.50	
2025-01-19 15:29:45.75	19.75	8.50	
2025-01-19 15:29:45.95	19.71	8.49	
2025-01-19 15:29:46.15	19.67	8.49	
2025-01-19 15:29:46.36	19.63	8.49	
2025-01-19 15:29:46.56	19.59	8.48	
2025-01-19 15:29:46.76	19.56	8.48	
2025-01-19 15:29:46.97	19.52	8.48	
2025-01-19 15:29:47.17	19.48	8.48	
2025-01-19 15:29:47.37	19.44	8.47	
2025-01-19 15:29:47.58	19.40	8.47	
2025-01-19 15:29:47.78	19.36	8.47	
2025-01-19 15:29:47.98	19.32	8.46	
2025-01-19 15:29:48.18	19.29	8.46	
2025-01-19 15:29:48.39	19.25	8.46	
2025-01-19 15:29:48.59	19.21	8.45	
2025-01-19 15:29:48.79	19.17	8.45	
2025-01-19 15:29:49.00	19.13	8.45	
2025-01-19 15:29:49.20	19.09	8.44	
2025-01-19 15:29:49.40	19.05	8.44	
2025-01-19 15:29:49.60	19.02	8.44	
2025-01-19 15:29:49.81	18.98	8.44	
2025-01-19 15:29:50.01	18.94	8.43	
2025-01-19 15:29:50.21	18.90	8.43	
2025-01-19 15:29:50.42	18.86	8.43	
2025-01-19 15:29:50.62	18.82	8.42	
2025-01-19 15:29:50.82	18.79	8.42	
2025-01-19 15:29:51.03	18.75	8.42	
2025-01-19 15:29:51.23	18.71	8.41	
2025-01-19 15:29:51.43	18.67	8.41	
2025-01-19 15:29:51.63	18.63	8.41	
2025-01-19 15:29:51.84	18.59	8.40	
2025-01-19 15:29:52.04	18.55	8.40	
2025-01-19 15:29:52.24	18.52	8.40	
2025-01-19 15:29:52.45	18.48	8.39	
2025-01-19 15:29:52.65	18.44	8.39	
2025-01-19 15:29:52.85	18.40	8.39	
2025-01-19 15:29:53.06	18.36	8.38	
2025-01-19 15:29:53.26	18.32	8.38	
2025-01-19 15:29:53.46	18.29	8.38	
2025-01-19 15:29:53.66	18.25	8.37	
2025-01-19 15:29:53.87	18.21	8.37	
2025-01-19 15:29:54.07	18.17	8.37	
2025-01-19 15:29:54.27	18.13	8.36	
2025-01-19 15:29:54.48	18.09	8.36	
2025-01-19 15:29:54.68	18.06	8.36	
2025-01-19 15:29:54.88	18.02	8.35	
2025-01-19 15:29:55.08	17.98	8.35	
2025-01-19 15:29:55.29	17.94	8.35	
2025-01-19 15:29:55.49	17.90	8.34	
2025-01-19 15:29:55.69	17.87	8.34	
2025-01-19 15:29:55.90	17.83	8.34	
2025-01-19 15:29:56.10	17.79	8.33	
2025-01-19 15:29:56.30	17.75	8.33	
2025-01-19 15:29:56.51	17.71	8.32	
2025-01-19 15:29:56.71	17.67	8.32	
2025-01-19 15:29:56.91	17.64	8.32	
2025-01-19 15:29:57.11	17.60	8.31	
2025-01-19 15:29:57.32	17.56	8.31	
2025-01-19 15:29:57.52	17.52	8.31	
2025-01-19 15:29:57.72	17.49	8.30	
2025-01-19 15:29:57.93	17.45	8.30	
2025-01-19 15:29:58.13	17.41	8.30	
2025-01-19 15:29:58.33	17.37	8.29	
2025-01-19 15:29:58.53	17.33	8.29	
2025-01-19 15:29:58.74	17.29	8.29	
2025-01-19 15:29:58.94	17.26	8.28	
2025-01-19 15:29:59.14	17.22	8.28	
2025-01-19 15:29:59.35	17.18	8.27	
2025-01-19 15:29:59.55	17.14	8.27	
2025-01-19 15:29:59.75	17.10	8.27	
2025-01-19 15:29:59.96	17.07	8.26	
2025-01-19 15:30:00.16	17.03	8.26	
2025-01-19 15:30:00.36	16.99	8.26	
2025-01-19 15:30:00.56	16.95	8.25	
2025-01-19 15:30:00.77	16.91	8.25	
2025-01-19 15:30:00.97	16.88	8.24	
2025-01-19 15:30:01.17	16.84	8.24	
2025-01-19 15:30:01.38	16.80	8.24	
2025-01-19 15:30:01.58	16.76	8.23	
2025-01-19 15:30:01.78	16.73	8.23	
2025-01-19 15:30:01.98	16.69	8.23	
2025-01-19 15:30:02.19	16.65	8.22	
2025-01-19 15:30:02.39	16.61	8.22	
2025-01-19 15:30:02.59	16.57	8.21	
2025-01-19 15:30:02.80	16.54	8.21	
2025-01-19 15:30:03.00	16.50	8.21	
2025-01-19 15:30:03.20	16.46	8.20	
2025-01-19 15:30:03.41	16.42	8.20	
2025-01-19 15:30:03.61	16.38	8.20	
2025-01-19 15:30:03.81	16.35	8.19	
2025-01-19 15:30:04.01	16.31	8.19	
2025-01-19 15:30:04.22	16.27	8.18	
2025-01-19 15:30:04.42	16.23	8.18	
2025-01-19 15:30:04.62	16.20	8.18	
2025-01-19 15:30:04.83	16.16	8.17	
2025-01-19 15:30:05.03	16.12	8.17	
2025-01-19 15:30:05.23	16.08	8.16	
2025-01-19 15:30:05.44	16.04	8.16	
2025-01-19 15:30:05.64	16.01	8.16	
2025-01-19 15:30:05.84	15.97	8.15	
2025-01-19 15:30:06.04	15.93	8.15	
2025-01-19 15:30:06.25	15.89	8.14	
2025-01-19 15:30:06.45	15.86	8.14	
2025-01-19 15:30:06.65	15.82	8.14	
2025-01-19 15:30:06.86	15.78	8.13	
2025-01-19 15:30:07.06	15.74	8.13	
2025-01-19 15:30:07.26	15.71	8.12	
2025-01-19 15:30:07.46	15.67	8.12	
2025-01-19 15:30:07.67	15.63	8.12	
2025-01-19 15:30:07.87	15.59	8.11	
2025-01-19 15:30:08.07	15.56	8.11	
2025-01-19 15:30:08.28	15.52	8.10	
2025-01-19 15:30:08.48	15.48	8.10	
2025-01-19 15:30:08.68	15.44	8.09	
2025-01-19 15:30:08.89	15.41	8.09	
2025-01-19 15:30:09.09	15.37	8.09	
2025-01-19 15:30:09.29	15.33	8.08	
2025-01-19 15:30:09.49	15.30	8.08	
2025-01-19 15:30:09.70	15.26	8.07	
2025-01-19 15:30:09.90	15.22	8.07	
2025-01-19 15:30:10.10	15.18	8.07	
2025-01-19 15:30:10.31	15.14	8.06	
2025-01-19 15:30:10.51	15.11	8.06	
2025-01-19 15:30:10.71	15.07	8.05	
2025-01-19 15:30:10.91	15.03	8.05	
2025-01-19 15:30:11.12	15.00	8.04	
2025-01-19 15:30:11.32	14.96	8.04	
2025-01-19 15:30:11.52	14.92	8.04	
2025-01-19 15:30:11.73	14.88	8.03	
2025-01-19 15:30:11.93	14.85	8.03	
2025-01-19 15:30:12.13	14.81	8.02	
2025-01-19 15:30:12.34	14.77	8.02	
2025-01-19 15:30:12.54	14.73	8.01	
2025-01-19 15:30:12.74	14.70	8.01	
2025-01-19 15:30:12.94	14.66	8.01	
2025-01-19 15:30:13.15	14.62	8.00	
2025-01-19 15:30:13.35	14.59	8.00	
2025-01-19 15:30:13.55	14.55	7.99	
2025-01-19 15:30:13.76	14.51	7.99	
2025-01-19 15:30:13.96	14.47	7.98	
2025-01-19 15:30:14.16	14.44	7.98	
2025-01-19 15:30:14.37	14.40	7.97	
2025-01-19 15:30:14.57	14.36	7.97	
2025-01-19 15:30:14.77	14.33	7.97	
2025-01-19 15:30:14.97	14.29	7.96	
2025-01-19 15:30:15.18	14.25	7.96	
2025-01-19 15:30:15.38	14.21	7.95	
2025-01-19 15:30:15.58	14.18	7.95	
2025-01-19 15:30:15.79	14.14	7.94	
2025-01-19 15:30:15.99	14.10	7.94	
2025-01-19 15:30:16.19	14.07	7.93	
2025-01-19 15:30:16.39	14.03	7.93	
2025-01-19 15:30:16.60	13.99	7.93	
2025-01-19 15:30:16.80	13.96	7.92	
2025-01-19 15:30:17.00	13.92	7.92	
2025-01-19 15:30:17.21	13.88	7.91	
2025-01-19 15:30:17.41	13.84	7.91	
2025-01-19 15:30:17.61	13.81	7.90	
2025-01-19 15:30:17.82	13.77	7.90	
2025-01-19 15:30:18.02	13.73	7.89	
2025-01-19 15:30:18.22	13.70	7.89	
2025-01-19 15:30:18.42	13.66	7.88	
2025-01-19 15:30:18.63	13.62	7.88	
2025-01-19 15:30:18.83	13.59	7.87	
2025-01-19 15:30:19.03	13.55	7.87	
2025-01-19 15:30:19.24	13.51	7.87	
2025-01-19 15:30:19.44	13.48	7.86	
2025-01-19 15:30:19.64	13.44	7.86	
2025-01-19 15:30:19.84	13.40	7.85	
2025-01-19 15:30:20.05	13.36	7.85	
2025-01-19 15:30:20.25	13.33	7.84	
2025-01-19 15:30:20.45	13.29	7.84	
2025-01-19 15:30:20.66	13.25	7.83	
2025-01-19 15:30:20.86	13.22	7.83	
2025-01-19 15:30:21.06	13.18	7.82	
2025-01-19 15:30:21.27	13.14	7.82	
2025-01-19 15:30:21.47	13.11	7.81	
2025-01-19 15:30:21.67	13.07	7.81	
2025-01-19 15:30:21.87	13.04	7.80	
2025-01-19 15:30:22.08	13.00	7.80	
2025-01-19 15:30:22.28	12.96	7.79	
2025-01-19 15:30:22.48	12.93	7.79	
2025-01-19 15:30:22.69	12.89	7.78	
2025-01-19 15:30:22.89	12.85	7.78	
2025-01-19 15:30:23.09	12.82	7.78	
2025-01-19 15:30:23.29	12.78	7.77	
2025-01-19 15:30:23.50	12.74	7.77	
2025-01-19 15:30:23.70	12.71	7.76	
2025-01-19 15:30:23.90	12.67	7.76	
2025-01-19 15:30:24.11	12.63	7.75	
2025-01-19 15:30:24.31	12.60	7.75	
2025-01-19 15:30:24.51	12.56	7.74	
2025-01-19 15:30:24.72	12.52	7.74	
2025-01-19 15:30:24.92	12.49	7.73	
2025-01-19 15:30:25.12	12.45	7.73	
2025-01-19 15:30:25.32	12.41	7.72	
2025-01-19 15:30:25.53	12.38	7.72	
2025-01-19 15:30:25.73	12.34	7.71	
2025-01-19 15:30:25.93	12.31	7.71	
2025-01-19 15:30:26.14	12.27	7.70	
2025-01-19 15:30:26.34	12.23	7.70	
2025-01-19 15:30:26.54	12.20	7.69	
2025-01-19 15:30:26.75	12.16	7.69	
2025-01-19 15:30:26.95	12.12	7.68	
2025-01-19 15:30:27.15	12.09	7.68	
2025-01-19 15:30:27.35	12.05	7.67	
2025-01-19 15:30:27.56	12.01	7.67	
2025-01-19 15:30:27.76	11.98	7.66	
2025-01-19 15:30:27.96	11.94	7.66	
2025-01-19 15:30:28.17	11.90	7.65	
2025-01-19 15:30:28.37	11.87	7.65	
2025-01-19 15:30:28.57	11.83	7.64	
2025-01-19 15:30:28.77	11.80	7.64	
2025-01-19 15:30:28.98	11.76	7.63	
2025-01-19 15:30:29.18	11.72	7.63	
2025-01-19 15:30:29.38	11.69	7.62	
2025-01-19 15:30:29.59	11.65	7.62	
2025-01-19 15:30:29.79	11.62	7.61	
2025-01-19 15:30:29.99	11.58	7.61	
2025-01-19 15:30:30.20	11.54	7.60	
2025-01-19 15:30:30.40	11.51	7.59	
2025-01-19 15:30:30.60	11.47	7.59	
2025-01-19 15:30:30.80	11.44	7.58	
2025-01-19 15:30:31.01	11.40	7.58	
2025-01-19 15:30:31.21	11.36	7.57	
2025-01-19 15:30:31.41	11.33	7.57	
2025-01-19 15:30:31.62	11.29	7.56	
2025-01-19 15:30:31.82	11.26	7.56	
2025-01-19 15:30:32.02	11.22	7.55	
2025-01-19 15:30:32.22	11.18	7.55	
2025-01-19 15:30:32.43	11.15	7.54	
2025-01-19 15:30:32.63	11.11	7.54	
2025-01-19 15:30:32.83	11.08	7.53	
2025-01-19 15:30:33.04	11.04	7.53	
2025-01-19 15:30:33.24	11.00	7.52	
2025-01-19 15:30:33.44	10.97	7.52	
2025-01-19 15:30:33.65	10.93	7.51	
2025-01-19 15:30:33.85	10.90	7.51	
2025-01-19 15:30:34.05	10.86	7.50	
2025-01-19 15:30:34.25	10.83	7.50	
2025-01-19 15:30:34.46	10.79	7.49	
2025-01-19 15:30:34.66	10.75	7.48	
2025-01-19 15:30:34.86	10.72	7.48	
2025-01-19 15:30:35.07	10.68	7.47	
2025-01-19 15:30:35.27	10.65	7.47	
2025-01-19 15:30:35.47	10.61	7.46	
2025-01-19 15:30:35.67	10.58	7.46	
2025-01-19 15:30:35.88	10.54	7.45	
2025-01-19 15:30:36.08	10.50	7.45	
2025-01-19 15:30:36.28	10.47	7.44	
2025-01-19 15:30:36.49	10.43	7.44	
2025-01-19 15:30:36.69	10.40	7.43	
2025-01-19 15:30:36.89	10.36	7.42	
2025-01-19 15:30:37.10	10.32	7.42	
2025-01-19 15:30:37.30	10.29	7.41	
2025-01-19 15:30:37.50	10.25	7.41	
2025-01-19 15:30:37.70	10.22	7.40	
2025-01-19 15:30:37.91	10.18	7.40	
2025-01-19 15:30:38.11	10.15	7.39	
2025-01-19 15:30:38.31	10.11	7.39	
2025-01-19 15:30:38.52	10.08	7.38	
2025-01-19 15:30:38.72	10.04	7.38	
2025-01-19 15:30:38.92	10.01	7.37	
2025-01-19 15:30:39.13	9.97	7.36	
2025-01-19 15:30:39.33	9.93	7.36	
2025-01-19 15:30:39.53	9.90	7.35	
2025-01-19 15:30:39.73	9.86	7.35	
2025-01-19 15:30:39.94	9.83	7.34	
2025-01-19 15:30:40.14	9.79	7.34	
2025-01-19 15:30:40.34	9.76	7.33	
2025-01-19 15:30:40.55	9.72	7.33	
2025-01-19 15:30:40.75	9.69	7.32	
2025-01-19 15:30:40.95	9.65	7.31	
2025-01-19 15:30:41.15	9.62	7.31	
2025-01-19 15:30:41.36	9.58	7.30	
2025-01-19 15:30:41.56	9.55	7.30	
2025-01-19 15:30:41.76	9.51	7.29	
2025-01-19 15:30:41.97	9.47	7.29	
2025-01-19 15:30:42.17	9.44	7.28	
2025-01-19 15:30:42.37	9.40	7.27	
2025-01-19 15:30:42.58	9.37	7.27	
2025-01-19 15:30:42.78	9.33	7.26	
2025-01-19 15:30:42.98	9.30	7.26	
2025-01-19 15:30:43.18	9.26	7.25	
2025-01-19 15:30:43.39	9.23	7.25	
2025-01-19 15:30:43.59	9.19	7.24	
2025-01-19 15:30:43.79	9.16	7.24	
2025-01-19 15:30:44.00	9.12	7.23	
2025-01-19 15:30:44.20	9.09	7.22	
2025-01-19 15:30:44.40	9.05	7.22	
2025-01-19 15:30:44.60	9.02	7.21	
2025-01-19 15:30:44.81	8.98	7.21	
2025-01-19 15:30:45.01	8.95	7.20	
2025-01-19 15:30:45.21	8.91	7.19	
2025-01-19 15:30:45.42	8.88	7.19	
2025-01-19 15:30:45.62	8.84	7.18	
2025-01-19 15:30:45.82	8.81	7.18	
2025-01-19 15:30:46.03	8.77	7.17	
2025-01-19 15:30:46.23	8.74	7.17	
2025-01-19 15:30:46.43	8.70	7.16	
2025-01-19 15:30:46.63	8.67	7.15	
2025-01-19 15:30:46.84	8.63	7.15	
2025-01-19 15:30:47.04	8.60	7.14	
2025-01-19 15:30:47.24	8.56	7.14	
2025-01-19 15:30:47.45	8.53	7.13	
2025-01-19 15:30:47.65	8.49	7.12	
2025-01-19 15:30:47.85	8.46	7.12	
2025-01-19 15:30:48.05	8.43	7.11	
2025-01-19 15:30:48.26	8.39	7.11	
2025-01-19 15:30:48.46	8.36	7.10	
2025-01-19 15:30:48.66	8.32	7.10	
2025-01-19 15:30:48.87	8.29	7.09	
2025-01-19 15:30:49.07	8.25	7.08	
2025-01-19 15:30:49.27	8.22	7.08	
2025-01-19 15:30:49.48	8.18	7.07	
2025-01-19 15:30:49.68	8.15	7.07	
2025-01-19 15:30:49.88	8.11	7.06	
2025-01-19 15:30:50.08	8.08	7.05	
2025-01-19 15:30:50.29	8.04	7.05	
2025-01-19 15:30:50.49	8.01	7.04	
2025-01-19 15:30:50.69	7.97	7.04	
2025-01-19 15:30:50.90	7.94	7.03	
2025-01-19 15:30:51.10	7.90	7.02	
2025-01-19 15:30:51.30	7.87	7.02	
2025-01-19 15:30:51.51	7.83	7.01	
2025-01-19 15:30:51.71	7.80	7.01	
2025-01-19 15:30:51.91	7.77	7.00	
2025-01-19 15:30:52.11	7.73	6.99	
2025-01-19 15:30:52.32	7.70	6.99	
2025-01-19 15:30:52.52	7.66	6.98	
2025-01-19 15:30:52.72	7.63	6.98	
2025-01-19 15:30:52.93	7.59	6.97	
2025-01-19 15:30:53.13	7.56	6.96	
2025-01-19 15:30:53.33	7.53	6.96	
2025-01-19 15:30:53.53	7.49	6.95	
2025-01-19 15:30:53.74	7.46	6.94	
2025-01-19 15:30:53.94	7.42	6.94	
2025-01-19 15:30:54.14	7.39	6.93	
2025-01-19 15:30:54.35	7.35	6.93	
2025-01-19 15:30:54.55	7.32	6.92	
2025-01-19 15:30:54.75	7.29	6.91	
2025-01-19 15:30:54.96	7.25	6.91	
2025-01-19 15:30:55.16	7.22	6.90	
2025-01-19 15:30:55.36	7.18	6.90	
2025-01-19 15:30:55.56	7.15	6.89	
2025-01-19 15:30:55.77	7.11	6.88	
2025-01-19 15:30:55.97	7.08	6.88	
2025-01-19 15:30:56.17	7.05	6.87	
2025-01-19 15:30:56.38	7.01	6.86	
2025-01-19 15:30:56.58	6.98	6.86	
2025-01-19 15:30:56.78	6.94	6.85	
2025-01-19 15:30:56.98	6.91	6.85	
2025-01-19 15:30:57.19	6.88	6.84	
2025-01-19 15:30:57.39	6.84	6.83	
2025-01-19 15:30:57.59	6.81	6.83	
2025-01-19 15:30:57.80	6.77	6.82	
2025-01-19 15:30:58.00	6.74	6.81	
2025-01-19 15:30:58.20	6.71	6.81	
2025-01-19 15:30:58.41	6.67	6.80	
2025-01-19 15:30:58.61	6.64	6.80	
2025-01-19 15:30:58.81	6.60	6.79	
2025-01-19 15:30:59.01	6.57	6.78	
2025-01-19 15:30:59.22	6.54	6.78	
2025-01-19 15:30:59.42	6.50	6.77	
2025-01-19 15:30:59.62	6.47	6.76	
2025-01-19 15:30:59.83	6.43	6.76	
2025-01-19 15:31:00.03	6.40	6.75	
2025-01-19 15:31:00.23	6.37	6.75	
2025-01-19 15:31:00.43	6.33	6.74	
2025-01-19 15:31:00.64	6.30	6.73	
2025-01-19 15:31:00.84	6.27	6.73	
2025-01-19 15:31:01.04	6.23	6.72	
2025-01-19 15:31:01.25	6.20	6.71	
2025-01-19 15:31:01.45	6.16	6.71	
2025-01-19 15:31:01.65	6.13	6.70	
2025-01-19 15:31:01.86	6.10	6.69	
2025-01-19 15:31:02.06	6.06	6.69	
2025-01-19 15:31:02.26	6.03	6.68	
2025-01-19 15:31:02.46	6.00	6.68	
2025-01-19 15:31:02.67	5.96	6.67	
2025-01-19 15:31:02.87	5.93	6.66	
2025-01-19 15:31:03.07	5.90	6.66	
2025-01-19 15:31:03.28	5.86	6.65	
2025-01-19 15:31:03.48	5.83	6.64	
2025-01-19 15:31:03.68	5.79	6.64	
2025-01-19 15:31:03.89	5.76	6.63	
2025-01-19 15:31:04.09	5.73	6.62	
2025-01-19 15:31:04.29	5.69	6.62	
2025-01-19 15:31:04.49	5.66	6.61	
2025-01-19 15:31:04.70	5.63	6.60	
2025-01-19 15:31:04.90	5.59	6.60	
2025-01-19 15:31:05.10	5.56	6.59	
2025-01-19 15:31:05.31	5.53	6.58	
2025-01-19 15:31:05.51	5.49	6.58	
2025-01-19 15:31:05.71	5.46	6.57	
2025-01-19 15:31:05.91	5.43	6.57	
2025-01-19 15:31:06.12	5.39	6.56	
2025-01-19 15:31:06.32	5.36	6.55	
2025-01-19 15:31:06.52	5.33	6.55	
2025-01-19 15:31:06.73	5.29	6.54	
2025-01-19 15:31:06.93	5.26	6.53	
2025-01-19 15:31:07.13	5.23	6.53	
2025-01-19 15:31:07.34	5.19	6.52	
2025-01-19 15:31:07.54	5.16	6.51	
2025-01-19 15:31:07.74	5.13	6.51	
2025-01-19 15:31:07.94	5.09	6.50	
2025-01-19 15:31:08.15	5.06	6.49	
2025-01-19 15:31:08.35	5.03	6.49	
2025-01-19 15:31:08.55	4.99	6.48	
2025-01-19 15:31:08.76	4.96	6.47	
2025-01-19 15:31:08.96	4.93	6.47	
2025-01-19 15:31:09.16	4.89	6.46	
2025-01-19 15:31:09.36	4.86	6.45	
2025-01-19 15:31:09.57	4.83	6.45	
2025-01-19 15:31:09.77	4.80	6.44	
2025-01-19 15:31:09.97	4.76	6.43	
2025-01-19 15:31:10.18	4.73	6.43	
2025-01-19 15:31:10.38	4.70	6.42	
2025-01-19 15:31:10.58	4.66	6.41	
2025-01-19 15:31:10.79	4.63	6.41	
2025-01-19 15:31:10.99	4.60	6.40	
2025-01-19 15:31:11.19	4.56	6.39	
2025-01-19 15:31:11.39	4.53	6.39	
2025-01-19 15:31:11.60	4.50	6.38	
2025-01-19 15:31:11.80	4.47	6.37	
2025-01-19 15:31:12.00	4.43	6.37	
2025-01-19 15:31:12.21	4.40	6.36	
2025-01-19 15:31:12.41	4.37	6.35	
2025-01-19 15:31:12.61	4.33	6.35	
2025-01-19 15:31:12.81	4.30	6.34	
2025-01-19 15:31:13.02	4.27	6.33	
2025-01-19 15:31:13.22	4.24	6.33	
2025-01-19 15:31:13.42	4.20	6.32	
2025-01-19 15:31:13.63	4.17	6.31	
2025-01-19 15:31:13.83	4.14	6.31	
2025-01-19 15:31:14.03	4.11	6.30	
2025-01-19 15:31:14.24	4.07	6.29	
2025-01-19 15:31:14.44	4.04	6.29	
2025-01-19 15:31:14.64	4.01	6.28	
2025-01-19 15:31:14.84	3.98	6.27	
2025-01-19 15:31:15.05	3.94	6.26	
2025-01-19 15:31:15.25	3.91	6.26	
2025-01-19 15:31:15.45	3.88	6.25	
2025-01-19 15:31:15.66	3.84	6.24	
2025-01-19 15:31:15.86	3.81	6.24	
2025-01-19 15:31:16.06	3.78	6.23	
2025-01-19 15:31:16.27	3.75	6.22	
2025-01-19 15:31:16.47	3.71	6.22	
2025-01-19 15:31:16.67	3.68	6.21	
2025-01-19 15:31:16.87	3.65	6.20	
2025-01-19 15:31:17.08	3.62	6.20	
2025-01-19 15:31:17.28	3.58	6.19	
2025-01-19 15:31:17.48	3.55	6.18	
2025-01-19 15:31:17.69	3.52	6.18	
2025-01-19 15:31:17.89	3.49	6.17	
2025-01-19 15:31:18.09	3.46	6.16	
2025-01-19 15:31:18.29	3.42	6.16	
2025-01-19 15:31:18.50	3.39	6.15	
2025-01-19 15:31:18.70	3.36	6.14	
2025-01-19 15:31:18.90	3.33	6.13	
2025-01-19 15:31:19.11	3.29	6.13	
2025-01-19 15:31:19.31	3.26	6.12	
2025-01-19 15:31:19.51	3.23	6.11	
2025-01-19 15:31:19.72	3.20	6.11	
2025-01-19 15:31:19.92	3.16	6.10	
2025-01-19 15:31:20.12	3.13	6.09	
2025-01-19 15:31:20.32	3.10	6.09	
2025-01-19 15:31:20.53	3.07	6.08	
2025-01-19 15:31:20.73	3.04	6.07	
2025-01-19 15:31:20.93	3.00	6.06	
2025-01-19 15:31:21.14	2.97	6.06	
2025-01-19 15:31:21.34	2.94	6.05	
2025-01-19 15:31:21.54	2.91	6.04	
2025-01-19 15:31:21.74	2.88	6.04	
2025-01-19 15:31:21.95	2.84	6.03	
2025-01-19 15:31:22.15	2.81	6.02	
2025-01-19 15:31:22.35	2.78	6.02	
2025-01-19 15:31:22.56	2.75	6.01	
2025-01-19 15:31:22.76	2.72	6.00	
2025-01-19 15:31:22.96	2.68	5.99	
2025-01-19 15:31:23.17	2.65	5.99	
2025-01-19 15:31:23.37	2.62	5.98	
2025-01-19 15:31:23.57	2.59	5.97	
2025-01-19 15:31:23.77	2.56	5.97	
2025-01-19 15:31:23.98	2.52	5.96	
2025-01-19 15:31:24.18	2.49	5.95	
2025-01-19 15:31:24.38	2.46	5.94	
2025-01-19 15:31:24.59	2.43	5.94	
