passes_logs/2025/01/19/SPB_Silybum_02/SPB_Silybum_02__20250119_071415_SUOMI_NPP_rec.log

#Pass ID: 20250119_071415_SUOMI NPP
#Satellite: SUOMI NPP
#Configuration: NPP
#Start time: 2025-01-19 07:14:14

#Version: 2.0.20230423
#Station: SPB_Silybum_02
#Location: 30.233357 lon 59.946436 lat
#TLE: 1 37849U 11061A   25018.79654560  .00000210  00000+0  12058-3 0  9999
#TLE: 2 37849  98.7450 319.7371 0001526  35.0024 325.1252 14.19540179685454

#Time	Az	El	Level	Level2	SNR	BER	Gain	Gain2
2025-01-19 07:14:16.37	72.10	4.05	
2025-01-19 07:14:16.58	72.08	4.06	
2025-01-19 07:14:16.78	72.06	4.07	
2025-01-19 07:14:16.98	72.04	4.08	
2025-01-19 07:14:17.19	72.01	4.09	
2025-01-19 07:14:17.39	71.99	4.10	
2025-01-19 07:14:17.59	71.97	4.11	
2025-01-19 07:14:17.79	71.95	4.12	
2025-01-19 07:14:18.00	71.93	4.13	
2025-01-19 07:14:18.20	71.90	4.14	
2025-01-19 07:14:18.40	71.88	4.15	
2025-01-19 07:14:18.61	71.86	4.16	
2025-01-19 07:14:18.81	71.84	4.17	
2025-01-19 07:14:19.01	71.82	4.18	
2025-01-19 07:14:19.22	71.79	4.19	
2025-01-19 07:14:19.42	71.77	4.20	
2025-01-19 07:14:19.62	71.75	4.21	
2025-01-19 07:14:19.83	71.73	4.22	
2025-01-19 07:14:20.03	71.71	4.22	
2025-01-19 07:14:20.23	71.68	4.23	
2025-01-19 07:14:20.43	71.66	4.24	
2025-01-19 07:14:20.64	71.64	4.25	
2025-01-19 07:14:20.84	71.62	4.26	
2025-01-19 07:14:21.04	71.60	4.27	
2025-01-19 07:14:21.25	71.57	4.28	
2025-01-19 07:14:21.45	71.55	4.29	
2025-01-19 07:14:21.65	71.53	4.30	
2025-01-19 07:14:21.86	71.51	4.31	
2025-01-19 07:14:22.06	71.49	4.32	
2025-01-19 07:14:22.26	71.46	4.33	
2025-01-19 07:14:22.47	71.44	4.34	
2025-01-19 07:14:22.67	71.42	4.35	
2025-01-19 07:14:22.87	71.40	4.36	
2025-01-19 07:14:23.07	71.37	4.37	
2025-01-19 07:14:23.28	71.35	4.38	
2025-01-19 07:14:23.48	71.33	4.39	
2025-01-19 07:14:23.68	71.31	4.40	
2025-01-19 07:14:23.89	71.28	4.41	
2025-01-19 07:14:24.09	71.26	4.42	
2025-01-19 07:14:24.29	71.24	4.42	
2025-01-19 07:14:24.50	71.22	4.43	
2025-01-19 07:14:24.70	71.20	4.44	
2025-01-19 07:14:24.90	71.17	4.45	
2025-01-19 07:14:25.11	71.15	4.46	
2025-01-19 07:14:25.31	71.13	4.47	
2025-01-19 07:14:25.51	71.11	4.48	
2025-01-19 07:14:25.71	71.08	4.49	
2025-01-19 07:14:25.92	71.06	4.50	
2025-01-19 07:14:26.12	71.04	4.51	
2025-01-19 07:14:26.32	71.02	4.52	
2025-01-19 07:14:26.53	70.99	4.53	
2025-01-19 07:14:26.73	70.97	4.54	
2025-01-19 07:14:26.93	70.95	4.55	
2025-01-19 07:14:27.14	70.93	4.56	
2025-01-19 07:14:27.34	70.90	4.57	
2025-01-19 07:14:27.54	70.88	4.58	
2025-01-19 07:14:27.75	70.86	4.59	
2025-01-19 07:14:27.95	70.84	4.60	
2025-01-19 07:14:28.15	70.81	4.61	
2025-01-19 07:14:28.36	70.79	4.62	
2025-01-19 07:14:28.56	70.77	4.62	
2025-01-19 07:14:28.76	70.74	4.63	
2025-01-19 07:14:28.96	70.72	4.64	
2025-01-19 07:14:29.17	70.70	4.65	
2025-01-19 07:14:29.37	70.68	4.66	
2025-01-19 07:14:29.57	70.65	4.67	
2025-01-19 07:14:29.78	70.63	4.68	
2025-01-19 07:14:29.98	70.61	4.69	
2025-01-19 07:14:30.18	70.59	4.70	
2025-01-19 07:14:30.39	70.56	4.71	
2025-01-19 07:14:30.59	70.54	4.72	
2025-01-19 07:14:30.79	70.52	4.73	
2025-01-19 07:14:31.00	70.49	4.74	
2025-01-19 07:14:31.20	70.47	4.75	
2025-01-19 07:14:31.40	70.45	4.76	
2025-01-19 07:14:31.60	70.43	4.77	
2025-01-19 07:14:31.81	70.40	4.78	
2025-01-19 07:14:32.01	70.38	4.79	
2025-01-19 07:14:32.21	70.36	4.80	
2025-01-19 07:14:32.42	70.33	4.81	
2025-01-19 07:14:32.62	70.31	4.81	
2025-01-19 07:14:32.82	70.29	4.82	
2025-01-19 07:14:33.03	70.26	4.83	
2025-01-19 07:14:33.23	70.24	4.84	
2025-01-19 07:14:33.43	70.22	4.85	
2025-01-19 07:14:33.64	70.19	4.86	
2025-01-19 07:14:33.84	70.17	4.87	
2025-01-19 07:14:34.04	70.15	4.88	
2025-01-19 07:14:34.24	70.13	4.89	
2025-01-19 07:14:34.45	70.10	4.90	
2025-01-19 07:14:34.65	70.08	4.91	
2025-01-19 07:14:34.85	70.06	4.92	
2025-01-19 07:14:35.06	70.03	4.93	
2025-01-19 07:14:35.26	70.01	4.94	
2025-01-19 07:14:35.46	69.99	4.95	
2025-01-19 07:14:35.67	69.96	4.96	
2025-01-19 07:14:35.87	69.94	4.97	
2025-01-19 07:14:36.07	69.92	4.98	
2025-01-19 07:14:36.27	69.90	4.99	
2025-01-19 07:14:36.48	69.87	4.99	
2025-01-19 07:14:36.68	69.85	5.00	
2025-01-19 07:14:36.88	69.83	5.01	
2025-01-19 07:14:37.09	69.80	5.02	
2025-01-19 07:14:37.29	69.78	5.03	
2025-01-19 07:14:37.49	69.76	5.04	
2025-01-19 07:14:37.70	69.73	5.05	
2025-01-19 07:14:37.90	69.71	5.06	
2025-01-19 07:14:38.10	69.68	5.07	
2025-01-19 07:14:38.31	69.66	5.08	
2025-01-19 07:14:38.51	69.64	5.09	
2025-01-19 07:14:38.71	69.61	5.10	
2025-01-19 07:14:38.92	69.59	5.11	
2025-01-19 07:14:39.12	69.57	5.12	
2025-01-19 07:14:39.32	69.54	5.13	
2025-01-19 07:14:39.52	69.52	5.14	
2025-01-19 07:14:39.73	69.50	5.15	
2025-01-19 07:14:39.93	69.47	5.16	
2025-01-19 07:14:40.13	69.45	5.16	
2025-01-19 07:14:40.34	69.43	5.17	
2025-01-19 07:14:40.54	69.40	5.18	
2025-01-19 07:14:40.74	69.38	5.19	
2025-01-19 07:14:40.95	69.35	5.20	
2025-01-19 07:14:41.15	69.33	5.21	
2025-01-19 07:14:41.35	69.31	5.22	
2025-01-19 07:14:41.56	69.28	5.23	
2025-01-19 07:14:41.76	69.26	5.24	
2025-01-19 07:14:41.96	69.24	5.25	
2025-01-19 07:14:42.16	69.21	5.26	
2025-01-19 07:14:42.37	69.19	5.27	
2025-01-19 07:14:42.57	69.17	5.28	
2025-01-19 07:14:42.77	69.14	5.29	
2025-01-19 07:14:42.98	69.12	5.30	
2025-01-19 07:14:43.18	69.09	5.31	
2025-01-19 07:14:43.38	69.07	5.32	
2025-01-19 07:14:43.59	69.05	5.33	
2025-01-19 07:14:43.79	69.02	5.34	
2025-01-19 07:14:43.99	69.00	5.34	
2025-01-19 07:14:44.20	68.97	5.35	
2025-01-19 07:14:44.40	68.95	5.36	
2025-01-19 07:14:44.60	68.93	5.37	
2025-01-19 07:14:44.80	68.90	5.38	
2025-01-19 07:14:45.01	68.88	5.39	
2025-01-19 07:14:45.21	68.86	5.40	
2025-01-19 07:14:45.41	68.83	5.41	
2025-01-19 07:14:45.62	68.81	5.42	
2025-01-19 07:14:45.82	68.78	5.43	
2025-01-19 07:14:46.02	68.76	5.44	
2025-01-19 07:14:46.23	68.74	5.45	
2025-01-19 07:14:46.43	68.71	5.46	
2025-01-19 07:14:46.63	68.69	5.47	
2025-01-19 07:14:46.84	68.66	5.48	
2025-01-19 07:14:47.04	68.64	5.49	
2025-01-19 07:14:47.24	68.62	5.50	
2025-01-19 07:14:47.44	68.59	5.50	
2025-01-19 07:14:47.65	68.57	5.51	
2025-01-19 07:14:47.85	68.54	5.52	
2025-01-19 07:14:48.05	68.52	5.53	
2025-01-19 07:14:48.26	68.49	5.54	
2025-01-19 07:14:48.46	68.47	5.55	
2025-01-19 07:14:48.66	68.45	5.56	
2025-01-19 07:14:48.87	68.42	5.57	
2025-01-19 07:14:49.07	68.40	5.58	
2025-01-19 07:14:49.27	68.37	5.59	
2025-01-19 07:14:49.48	68.35	5.60	
2025-01-19 07:14:49.68	68.33	5.61	
2025-01-19 07:14:49.88	68.30	5.62	
2025-01-19 07:14:50.08	68.28	5.63	
2025-01-19 07:14:50.29	68.25	5.64	
2025-01-19 07:14:50.49	68.23	5.65	
2025-01-19 07:14:50.69	68.20	5.65	
2025-01-19 07:14:50.90	68.18	5.66	
2025-01-19 07:14:51.10	68.15	5.67	
2025-01-19 07:14:51.30	68.13	5.68	
2025-01-19 07:14:51.51	68.11	5.69	
2025-01-19 07:14:51.71	68.08	5.70	
2025-01-19 07:14:51.91	68.06	5.71	
2025-01-19 07:14:52.12	68.03	5.72	
2025-01-19 07:14:52.32	68.01	5.73	
2025-01-19 07:14:52.52	67.98	5.74	
2025-01-19 07:14:52.72	67.96	5.75	
2025-01-19 07:14:52.93	67.93	5.76	
2025-01-19 07:14:53.13	67.91	5.77	
2025-01-19 07:14:53.33	67.89	5.78	
2025-01-19 07:14:53.54	67.86	5.79	
2025-01-19 07:14:53.74	67.84	5.80	
2025-01-19 07:14:53.94	67.81	5.80	
2025-01-19 07:14:54.15	67.79	5.81	
2025-01-19 07:14:54.35	67.76	5.82	
2025-01-19 07:14:54.55	67.74	5.83	
2025-01-19 07:14:54.76	67.71	5.84	
2025-01-19 07:14:54.96	67.69	5.85	
2025-01-19 07:14:55.16	67.66	5.86	
2025-01-19 07:14:55.36	67.64	5.87	
2025-01-19 07:14:55.57	67.61	5.88	
2025-01-19 07:14:55.77	67.59	5.89	
2025-01-19 07:14:55.97	67.56	5.90	
2025-01-19 07:14:56.18	67.54	5.91	
2025-01-19 07:14:56.38	67.51	5.92	
2025-01-19 07:14:56.58	67.49	5.93	
2025-01-19 07:14:56.79	67.46	5.94	
2025-01-19 07:14:56.99	67.44	5.95	
2025-01-19 07:14:57.19	67.42	5.95	
2025-01-19 07:14:57.40	67.39	5.96	
2025-01-19 07:14:57.60	67.37	5.97	
2025-01-19 07:14:57.80	67.34	5.98	
2025-01-19 07:14:58.00	67.32	5.99	
2025-01-19 07:14:58.21	67.29	6.00	
2025-01-19 07:14:58.41	67.27	6.01	
2025-01-19 07:14:58.61	67.24	6.02	
2025-01-19 07:14:58.82	67.22	6.03	
2025-01-19 07:14:59.02	67.19	6.04	
2025-01-19 07:14:59.22	67.17	6.05	
2025-01-19 07:14:59.43	67.14	6.06	
2025-01-19 07:14:59.63	67.12	6.07	
2025-01-19 07:14:59.83	67.09	6.08	
2025-01-19 07:15:00.04	67.06	6.09	
2025-01-19 07:15:00.24	67.04	6.09	
2025-01-19 07:15:00.44	67.02	6.10	
2025-01-19 07:15:00.64	66.99	6.11	
2025-01-19 07:15:00.85	66.96	6.12	
2025-01-19 07:15:01.05	66.94	6.13	
2025-01-19 07:15:01.25	66.91	6.14	
2025-01-19 07:15:01.46	66.89	6.15	
2025-01-19 07:15:01.66	66.86	6.16	
2025-01-19 07:15:01.86	66.84	6.17	
2025-01-19 07:15:02.07	66.81	6.18	
2025-01-19 07:15:02.27	66.79	6.19	
2025-01-19 07:15:02.47	66.76	6.20	
2025-01-19 07:15:02.68	66.74	6.21	
2025-01-19 07:15:02.88	66.71	6.22	
2025-01-19 07:15:03.08	66.69	6.22	
2025-01-19 07:15:03.28	66.66	6.23	
2025-01-19 07:15:03.49	66.64	6.24	
2025-01-19 07:15:03.69	66.61	6.25	
2025-01-19 07:15:03.89	66.59	6.26	
2025-01-19 07:15:04.10	66.56	6.27	
2025-01-19 07:15:04.30	66.53	6.28	
2025-01-19 07:15:04.50	66.51	6.29	
2025-01-19 07:15:04.71	66.48	6.30	
2025-01-19 07:15:04.91	66.46	6.31	
2025-01-19 07:15:05.11	66.43	6.32	
2025-01-19 07:15:05.32	66.41	6.33	
2025-01-19 07:15:05.52	66.38	6.34	
2025-01-19 07:15:05.72	66.36	6.34	
2025-01-19 07:15:05.92	66.33	6.35	
2025-01-19 07:15:06.13	66.30	6.36	
2025-01-19 07:15:06.33	66.28	6.37	
2025-01-19 07:15:06.53	66.25	6.38	
2025-01-19 07:15:06.74	66.23	6.39	
2025-01-19 07:15:06.94	66.20	6.40	
2025-01-19 07:15:07.14	66.18	6.41	
2025-01-19 07:15:07.35	66.15	6.42	
2025-01-19 07:15:07.55	66.12	6.43	
2025-01-19 07:15:07.75	66.10	6.44	
2025-01-19 07:15:07.96	66.07	6.45	
2025-01-19 07:15:08.16	66.05	6.46	
2025-01-19 07:15:08.36	66.02	6.47	
2025-01-19 07:15:08.56	66.00	6.47	
2025-01-19 07:15:08.77	65.97	6.48	
2025-01-19 07:15:08.97	65.94	6.49	
2025-01-19 07:15:09.17	65.92	6.50	
2025-01-19 07:15:09.38	65.89	6.51	
2025-01-19 07:15:09.58	65.87	6.52	
2025-01-19 07:15:09.78	65.84	6.53	
2025-01-19 07:15:09.99	65.81	6.54	
2025-01-19 07:15:10.19	65.79	6.55	
2025-01-19 07:15:10.39	65.76	6.56	
2025-01-19 07:15:10.60	65.74	6.57	
2025-01-19 07:15:10.80	65.71	6.58	
2025-01-19 07:15:11.00	65.69	6.58	
2025-01-19 07:15:11.20	65.66	6.59	
2025-01-19 07:15:11.41	65.63	6.60	
2025-01-19 07:15:11.61	65.61	6.61	
2025-01-19 07:15:11.81	65.58	6.62	
2025-01-19 07:15:12.02	65.55	6.63	
2025-01-19 07:15:12.22	65.53	6.64	
2025-01-19 07:15:12.42	65.50	6.65	
2025-01-19 07:15:12.63	65.48	6.66	
2025-01-19 07:15:12.83	65.45	6.67	
2025-01-19 07:15:13.03	65.42	6.68	
2025-01-19 07:15:13.24	65.40	6.69	
2025-01-19 07:15:13.44	65.37	6.70	
2025-01-19 07:15:13.64	65.35	6.70	
2025-01-19 07:15:13.84	65.32	6.71	
2025-01-19 07:15:14.05	65.29	6.72	
2025-01-19 07:15:14.25	65.27	6.73	
2025-01-19 07:15:14.45	65.24	6.74	
2025-01-19 07:15:14.66	65.21	6.75	
2025-01-19 07:15:14.86	65.19	6.76	
2025-01-19 07:15:15.06	65.16	6.77	
2025-01-19 07:15:15.27	65.13	6.78	
2025-01-19 07:15:15.47	65.11	6.79	
2025-01-19 07:15:15.67	65.08	6.80	
2025-01-19 07:15:15.88	65.06	6.81	
2025-01-19 07:15:16.08	65.03	6.81	
2025-01-19 07:15:16.28	65.00	6.82	
2025-01-19 07:15:16.48	64.98	6.83	
2025-01-19 07:15:16.69	64.95	6.84	
2025-01-19 07:15:16.89	64.92	6.85	
2025-01-19 07:15:17.09	64.90	6.86	
2025-01-19 07:15:17.30	64.87	6.87	
2025-01-19 07:15:17.50	64.84	6.88	
2025-01-19 07:15:17.70	64.82	6.89	
2025-01-19 07:15:17.91	64.79	6.90	
2025-01-19 07:15:18.11	64.76	6.91	
2025-01-19 07:15:18.31	64.74	6.91	
2025-01-19 07:15:18.52	64.71	6.92	
2025-01-19 07:15:18.72	64.68	6.93	
2025-01-19 07:15:18.92	64.66	6.94	
2025-01-19 07:15:19.12	64.63	6.95	
2025-01-19 07:15:19.33	64.60	6.96	
2025-01-19 07:15:19.53	64.58	6.97	
2025-01-19 07:15:19.73	64.55	6.98	
2025-01-19 07:15:19.94	64.52	6.99	
2025-01-19 07:15:20.14	64.50	7.00	
2025-01-19 07:15:20.34	64.47	7.01	
2025-01-19 07:15:20.55	64.44	7.01	
2025-01-19 07:15:20.75	64.42	7.02	
2025-01-19 07:15:20.95	64.39	7.03	
2025-01-19 07:15:21.16	64.36	7.04	
2025-01-19 07:15:21.36	64.34	7.05	
2025-01-19 07:15:21.56	64.31	7.06	
2025-01-19 07:15:21.76	64.28	7.07	
2025-01-19 07:15:21.97	64.26	7.08	
2025-01-19 07:15:22.17	64.23	7.09	
2025-01-19 07:15:22.37	64.20	7.10	
2025-01-19 07:15:22.58	64.17	7.11	
2025-01-19 07:15:22.78	64.15	7.11	
2025-01-19 07:15:22.98	64.12	7.12	
2025-01-19 07:15:23.19	64.09	7.13	
2025-01-19 07:15:23.39	64.07	7.14	
2025-01-19 07:15:23.59	64.04	7.15	
2025-01-19 07:15:23.80	64.01	7.16	
2025-01-19 07:15:24.00	63.99	7.17	
2025-01-19 07:15:24.20	63.96	7.18	
2025-01-19 07:15:24.40	63.93	7.19	
2025-01-19 07:15:24.61	63.90	7.20	
2025-01-19 07:15:24.81	63.88	7.20	
2025-01-19 07:15:25.01	63.85	7.21	
2025-01-19 07:15:25.22	63.82	7.22	
2025-01-19 07:15:25.42	63.80	7.23	
2025-01-19 07:15:25.62	63.77	7.24	
2025-01-19 07:15:25.83	63.74	7.25	
2025-01-19 07:15:26.03	63.71	7.26	
2025-01-19 07:15:26.23	63.69	7.27	
2025-01-19 07:15:26.44	63.66	7.28	
2025-01-19 07:15:26.64	63.63	7.29	
2025-01-19 07:15:26.84	63.60	7.29	
2025-01-19 07:15:27.04	63.58	7.30	
2025-01-19 07:15:27.25	63.55	7.31	
2025-01-19 07:15:27.45	63.52	7.32	
2025-01-19 07:15:27.65	63.50	7.33	
2025-01-19 07:15:27.86	63.47	7.34	
2025-01-19 07:15:28.06	63.44	7.35	
2025-01-19 07:15:28.26	63.41	7.36	
2025-01-19 07:15:28.47	63.38	7.37	
2025-01-19 07:15:28.67	63.36	7.38	
2025-01-19 07:15:28.87	63.33	7.38	
2025-01-19 07:15:29.08	63.30	7.39	
2025-01-19 07:15:29.28	63.27	7.40	
2025-01-19 07:15:29.48	63.25	7.41	
2025-01-19 07:15:29.68	63.22	7.42	
2025-01-19 07:15:29.89	63.19	7.43	
2025-01-19 07:15:30.09	63.16	7.44	
2025-01-19 07:15:30.29	63.14	7.45	
2025-01-19 07:15:30.50	63.11	7.46	
2025-01-19 07:15:30.70	63.08	7.47	
2025-01-19 07:15:30.90	63.05	7.47	
2025-01-19 07:15:31.11	63.03	7.48	
2025-01-19 07:15:31.31	63.00	7.49	
2025-01-19 07:15:31.51	62.97	7.50	
2025-01-19 07:15:31.72	62.94	7.51	
2025-01-19 07:15:31.92	62.92	7.52	
2025-01-19 07:15:32.12	62.89	7.53	
2025-01-19 07:15:32.32	62.86	7.54	
2025-01-19 07:15:32.53	62.83	7.55	
2025-01-19 07:15:32.73	62.80	7.55	
2025-01-19 07:15:32.93	62.78	7.56	
2025-01-19 07:15:33.14	62.75	7.57	
2025-01-19 07:15:33.34	62.72	7.58	
2025-01-19 07:15:33.54	62.69	7.59	
2025-01-19 07:15:33.75	62.66	7.60	
2025-01-19 07:15:33.95	62.64	7.61	
2025-01-19 07:15:34.15	62.61	7.62	
2025-01-19 07:15:34.36	62.58	7.63	
2025-01-19 07:15:34.56	62.55	7.63	
2025-01-19 07:15:34.76	62.53	7.64	
2025-01-19 07:15:34.96	62.50	7.65	
2025-01-19 07:15:35.17	62.47	7.66	
2025-01-19 07:15:35.37	62.44	7.67	
2025-01-19 07:15:35.57	62.41	7.68	
2025-01-19 07:15:35.78	62.38	7.69	
2025-01-19 07:15:35.98	62.36	7.70	
2025-01-19 07:15:36.18	62.33	7.71	
2025-01-19 07:15:36.39	62.30	7.71	
2025-01-19 07:15:36.59	62.27	7.72	
2025-01-19 07:15:36.79	62.24	7.73	
2025-01-19 07:15:37.00	62.22	7.74	
2025-01-19 07:15:37.20	62.19	7.75	
2025-01-19 07:15:37.40	62.16	7.76	
2025-01-19 07:15:37.60	62.13	7.77	
2025-01-19 07:15:37.81	62.10	7.78	
2025-01-19 07:15:38.01	62.07	7.79	
2025-01-19 07:15:38.21	62.05	7.79	
2025-01-19 07:15:38.42	62.02	7.80	
2025-01-19 07:15:38.62	61.99	7.81	
2025-01-19 07:15:38.82	61.96	7.82	
2025-01-19 07:15:39.03	61.93	7.83	
2025-01-19 07:15:39.23	61.90	7.84	
2025-01-19 07:15:39.43	61.88	7.85	
2025-01-19 07:15:39.64	61.85	7.86	
2025-01-19 07:15:39.84	61.82	7.86	
2025-01-19 07:15:40.04	61.79	7.87	
2025-01-19 07:15:40.24	61.76	7.88	
2025-01-19 07:15:40.45	61.73	7.89	
2025-01-19 07:15:40.65	61.71	7.90	
2025-01-19 07:15:40.85	61.68	7.91	
2025-01-19 07:15:41.06	61.65	7.92	
2025-01-19 07:15:41.26	61.62	7.93	
2025-01-19 07:15:41.46	61.59	7.93	
2025-01-19 07:15:41.67	61.56	7.94	
2025-01-19 07:15:41.87	61.53	7.95	
2025-01-19 07:15:42.07	61.51	7.96	
2025-01-19 07:15:42.28	61.48	7.97	
2025-01-19 07:15:42.48	61.45	7.98	
2025-01-19 07:15:42.68	61.42	7.99	
2025-01-19 07:15:42.88	61.39	8.00	
2025-01-19 07:15:43.09	61.36	8.00	
2025-01-19 07:15:43.29	61.33	8.01	
2025-01-19 07:15:43.49	61.31	8.02	
2025-01-19 07:15:43.70	61.28	8.03	
2025-01-19 07:15:43.90	61.25	8.04	
2025-01-19 07:15:44.10	61.22	8.05	
2025-01-19 07:15:44.31	61.19	8.06	
2025-01-19 07:15:44.51	61.16	8.07	
2025-01-19 07:15:44.71	61.13	8.07	
2025-01-19 07:15:44.92	61.10	8.08	
2025-01-19 07:15:45.12	61.07	8.09	
2025-01-19 07:15:45.32	61.05	8.10	
2025-01-19 07:15:45.52	61.02	8.11	
2025-01-19 07:15:45.73	60.99	8.12	
2025-01-19 07:15:45.93	60.96	8.13	
2025-01-19 07:15:46.13	60.93	8.13	
2025-01-19 07:15:46.34	60.90	8.14	
2025-01-19 07:15:46.54	60.87	8.15	
2025-01-19 07:15:46.74	60.84	8.16	
2025-01-19 07:15:46.95	60.81	8.17	
2025-01-19 07:15:47.15	60.78	8.18	
2025-01-19 07:15:47.35	60.76	8.19	
2025-01-19 07:15:47.56	60.73	8.20	
2025-01-19 07:15:47.76	60.70	8.20	
2025-01-19 07:15:47.96	60.67	8.21	
2025-01-19 07:15:48.16	60.64	8.22	
2025-01-19 07:15:48.37	60.61	8.23	
2025-01-19 07:15:48.57	60.58	8.24	
2025-01-19 07:15:48.77	60.55	8.25	
2025-01-19 07:15:48.98	60.52	8.26	
2025-01-19 07:15:49.18	60.49	8.26	
2025-01-19 07:15:49.38	60.46	8.27	
2025-01-19 07:15:49.59	60.43	8.28	
2025-01-19 07:15:49.79	60.40	8.29	
2025-01-19 07:15:49.99	60.38	8.30	
2025-01-19 07:15:50.20	60.35	8.31	
2025-01-19 07:15:50.40	60.32	8.32	
2025-01-19 07:15:50.60	60.29	8.32	
2025-01-19 07:15:50.80	60.26	8.33	
2025-01-19 07:15:51.01	60.23	8.34	
2025-01-19 07:15:51.21	60.20	8.35	
2025-01-19 07:15:51.41	60.17	8.36	
2025-01-19 07:15:51.62	60.14	8.37	
2025-01-19 07:15:51.82	60.11	8.38	
2025-01-19 07:15:52.02	60.08	8.38	
2025-01-19 07:15:52.23	60.05	8.39	
2025-01-19 07:15:52.43	60.02	8.40	
2025-01-19 07:15:52.63	59.99	8.41	
2025-01-19 07:15:52.84	59.96	8.42	
2025-01-19 07:15:53.04	59.93	8.43	
2025-01-19 07:15:53.24	59.90	8.44	
2025-01-19 07:15:53.44	59.88	8.44	
2025-01-19 07:15:53.65	59.84	8.45	
2025-01-19 07:15:53.85	59.82	8.46	
2025-01-19 07:15:54.05	59.79	8.47	
2025-01-19 07:15:54.26	59.76	8.48	
2025-01-19 07:15:54.46	59.73	8.49	
2025-01-19 07:15:54.66	59.70	8.50	
2025-01-19 07:15:54.87	59.67	8.50	
2025-01-19 07:15:55.07	59.64	8.51	
2025-01-19 07:15:55.27	59.61	8.52	
2025-01-19 07:15:55.48	59.58	8.53	
2025-01-19 07:15:55.68	59.55	8.54	
2025-01-19 07:15:55.88	59.52	8.55	
2025-01-19 07:15:56.08	59.49	8.55	
2025-01-19 07:15:56.29	59.46	8.56	
2025-01-19 07:15:56.49	59.43	8.57	
2025-01-19 07:15:56.69	59.40	8.58	
2025-01-19 07:15:56.90	59.37	8.59	
2025-01-19 07:15:57.10	59.34	8.60	
2025-01-19 07:15:57.30	59.31	8.61	
2025-01-19 07:15:57.51	59.28	8.61	
2025-01-19 07:15:57.71	59.25	8.62	
2025-01-19 07:15:57.91	59.22	8.63	
2025-01-19 07:15:58.12	59.19	8.64	
2025-01-19 07:15:58.32	59.16	8.65	
2025-01-19 07:15:58.52	59.13	8.66	
2025-01-19 07:15:58.72	59.10	8.66	
2025-01-19 07:15:58.93	59.07	8.67	
2025-01-19 07:15:59.13	59.04	8.68	
2025-01-19 07:15:59.33	59.01	8.69	
2025-01-19 07:15:59.54	58.98	8.70	
2025-01-19 07:15:59.74	58.95	8.71	
2025-01-19 07:15:59.94	58.92	8.71	
2025-01-19 07:16:00.15	58.89	8.72	
2025-01-19 07:16:00.35	58.86	8.73	
2025-01-19 07:16:00.55	58.83	8.74	
2025-01-19 07:16:00.76	58.80	8.75	
2025-01-19 07:16:00.96	58.77	8.76	
2025-01-19 07:16:01.16	58.74	8.76	
2025-01-19 07:16:01.37	58.71	8.77	
2025-01-19 07:16:01.57	58.68	8.78	
2025-01-19 07:16:01.77	58.65	8.79	
2025-01-19 07:16:01.97	58.62	8.80	
2025-01-19 07:16:02.18	58.58	8.81	
2025-01-19 07:16:02.38	58.55	8.81	
2025-01-19 07:16:02.58	58.52	8.82	
2025-01-19 07:16:02.79	58.49	8.83	
2025-01-19 07:16:02.99	58.46	8.84	
2025-01-19 07:16:03.19	58.43	8.85	
2025-01-19 07:16:03.40	58.40	8.86	
2025-01-19 07:16:03.60	58.37	8.86	
2025-01-19 07:16:03.80	58.34	8.87	
2025-01-19 07:16:04.01	58.31	8.88	
2025-01-19 07:16:04.21	58.28	8.89	
2025-01-19 07:16:04.41	58.25	8.90	
2025-01-19 07:16:04.61	58.22	8.91	
2025-01-19 07:16:04.82	58.19	8.91	
2025-01-19 07:16:05.02	58.16	8.92	
2025-01-19 07:16:05.22	58.13	8.93	
2025-01-19 07:16:05.43	58.10	8.94	
2025-01-19 07:16:05.63	58.07	8.95	
2025-01-19 07:16:05.83	58.04	8.96	
2025-01-19 07:16:06.04	58.00	8.96	
2025-01-19 07:16:06.24	57.97	8.97	
2025-01-19 07:16:06.44	57.94	8.98	
2025-01-19 07:16:06.65	57.91	8.99	
2025-01-19 07:16:06.85	57.88	9.00	
2025-01-19 07:16:07.05	57.85	9.00	
2025-01-19 07:16:07.25	57.82	9.01	
2025-01-19 07:16:07.46	57.79	9.02	
2025-01-19 07:16:07.66	57.76	9.03	
2025-01-19 07:16:07.86	57.73	9.04	
2025-01-19 07:16:08.07	57.70	9.05	
2025-01-19 07:16:08.27	57.67	9.05	
2025-01-19 07:16:08.47	57.64	9.06	
2025-01-19 07:16:08.68	57.60	9.07	
2025-01-19 07:16:08.88	57.57	9.08	
2025-01-19 07:16:09.08	57.54	9.09	
2025-01-19 07:16:09.29	57.51	9.09	
2025-01-19 07:16:09.49	57.48	9.10	
2025-01-19 07:16:09.69	57.45	9.11	
2025-01-19 07:16:09.89	57.42	9.12	
2025-01-19 07:16:10.10	57.39	9.13	
2025-01-19 07:16:10.30	57.36	9.13	
2025-01-19 07:16:10.50	57.33	9.14	
2025-01-19 07:16:10.71	57.29	9.15	
2025-01-19 07:16:10.91	57.26	9.16	
2025-01-19 07:16:11.11	57.23	9.17	
2025-01-19 07:16:11.32	57.20	9.18	
2025-01-19 07:16:11.52	57.17	9.18	
2025-01-19 07:16:11.72	57.14	9.19	
2025-01-19 07:16:11.93	57.11	9.20	
2025-01-19 07:16:12.13	57.08	9.21	
2025-01-19 07:16:12.33	57.04	9.22	
2025-01-19 07:16:12.53	57.01	9.22	
2025-01-19 07:16:12.74	56.98	9.23	
2025-01-19 07:16:12.94	56.95	9.24	
2025-01-19 07:16:13.14	56.92	9.25	
2025-01-19 07:16:13.35	56.89	9.26	
2025-01-19 07:16:13.55	56.86	9.26	
2025-01-19 07:16:13.75	56.83	9.27	
2025-01-19 07:16:13.96	56.79	9.28	
2025-01-19 07:16:14.16	56.76	9.29	
2025-01-19 07:16:14.36	56.73	9.30	
2025-01-19 07:16:14.57	56.70	9.30	
2025-01-19 07:16:14.77	56.67	9.31	
2025-01-19 07:16:14.97	56.64	9.32	
2025-01-19 07:16:15.17	56.61	9.33	
2025-01-19 07:16:15.38	56.57	9.34	
2025-01-19 07:16:15.58	56.54	9.34	
2025-01-19 07:16:15.78	56.51	9.35	
2025-01-19 07:16:15.99	56.48	9.36	
2025-01-19 07:16:16.19	56.45	9.37	
2025-01-19 07:16:16.39	56.42	9.38	
2025-01-19 07:16:16.60	56.38	9.38	
2025-01-19 07:16:16.80	56.35	9.39	
2025-01-19 07:16:17.00	56.32	9.40	
2025-01-19 07:16:17.20	56.29	9.41	
2025-01-19 07:16:17.41	56.26	9.42	
2025-01-19 07:16:17.61	56.23	9.42	
2025-01-19 07:16:17.81	56.19	9.43	
2025-01-19 07:16:18.02	56.16	9.44	
2025-01-19 07:16:18.22	56.13	9.45	
2025-01-19 07:16:18.42	56.10	9.45	
2025-01-19 07:16:18.63	56.07	9.46	
2025-01-19 07:16:18.83	56.04	9.47	
2025-01-19 07:16:19.03	56.00	9.48	
2025-01-19 07:16:19.24	55.97	9.49	
2025-01-19 07:16:19.44	55.94	9.49	
2025-01-19 07:16:19.64	55.91	9.50	
2025-01-19 07:16:19.85	55.88	9.51	
2025-01-19 07:16:20.05	55.84	9.52	
2025-01-19 07:16:20.25	55.81	9.53	
2025-01-19 07:16:20.45	55.78	9.53	
2025-01-19 07:16:20.66	55.75	9.54	
2025-01-19 07:16:20.86	55.72	9.55	
2025-01-19 07:16:21.06	55.69	9.56	
2025-01-19 07:16:21.27	55.65	9.56	
2025-01-19 07:16:21.47	55.62	9.57	
2025-01-19 07:16:21.67	55.59	9.58	
2025-01-19 07:16:21.88	55.56	9.59	
2025-01-19 07:16:22.08	55.52	9.60	
2025-01-19 07:16:22.28	55.49	9.60	
2025-01-19 07:16:22.49	55.46	9.61	
2025-01-19 07:16:22.69	55.43	9.62	
2025-01-19 07:16:22.89	55.40	9.63	
2025-01-19 07:16:23.09	55.36	9.63	
2025-01-19 07:16:23.30	55.33	9.64	
2025-01-19 07:16:23.50	55.30	9.65	
2025-01-19 07:16:23.70	55.27	9.66	
2025-01-19 07:16:23.91	55.23	9.67	
2025-01-19 07:16:24.11	55.20	9.67	
2025-01-19 07:16:24.31	55.17	9.68	
2025-01-19 07:16:24.52	55.14	9.69	
2025-01-19 07:16:24.72	55.11	9.70	
2025-01-19 07:16:24.92	55.07	9.70	
2025-01-19 07:16:25.13	55.04	9.71	
2025-01-19 07:16:25.33	55.01	9.72	
2025-01-19 07:16:25.53	54.98	9.73	
2025-01-19 07:16:25.73	54.94	9.73	
2025-01-19 07:16:25.94	54.91	9.74	
2025-01-19 07:16:26.14	54.88	9.75	
2025-01-19 07:16:26.34	54.85	9.76	
2025-01-19 07:16:26.55	54.81	9.77	
2025-01-19 07:16:26.75	54.78	9.77	
2025-01-19 07:16:26.95	54.75	9.78	
2025-01-19 07:16:27.16	54.72	9.79	
2025-01-19 07:16:27.36	54.68	9.80	
2025-01-19 07:16:27.56	54.65	9.80	
2025-01-19 07:16:27.77	54.62	9.81	
2025-01-19 07:16:27.97	54.59	9.82	
2025-01-19 07:16:28.17	54.55	9.83	
2025-01-19 07:16:28.37	54.52	9.83	
2025-01-19 07:16:28.58	54.49	9.84	
2025-01-19 07:16:28.78	54.46	9.85	
2025-01-19 07:16:28.98	54.42	9.86	
2025-01-19 07:16:29.19	54.39	9.86	
2025-01-19 07:16:29.39	54.36	9.87	
2025-01-19 07:16:29.59	54.33	9.88	
2025-01-19 07:16:29.80	54.29	9.89	
2025-01-19 07:16:30.00	54.26	9.89	
2025-01-19 07:16:30.20	54.23	9.90	
2025-01-19 07:16:30.41	54.19	9.91	
2025-01-19 07:16:30.61	54.16	9.92	
2025-01-19 07:16:30.81	54.13	9.92	
2025-01-19 07:16:31.01	54.10	9.93	
2025-01-19 07:16:31.22	54.06	9.94	
2025-01-19 07:16:31.42	54.03	9.95	
2025-01-19 07:16:31.62	54.00	9.95	
2025-01-19 07:16:31.83	53.96	9.96	
2025-01-19 07:16:32.03	53.93	9.97	
2025-01-19 07:16:32.23	53.90	9.98	
2025-01-19 07:16:32.44	53.87	9.98	
2025-01-19 07:16:32.64	53.83	9.99	
2025-01-19 07:16:32.84	53.80	10.00	
2025-01-19 07:16:33.05	53.77	10.01	
2025-01-19 07:16:33.25	53.73	10.01	
2025-01-19 07:16:33.45	53.70	10.02	
2025-01-19 07:16:33.65	53.67	10.03	
2025-01-19 07:16:33.86	53.63	10.04	
2025-01-19 07:16:34.06	53.60	10.04	
2025-01-19 07:16:34.26	53.57	10.05	
2025-01-19 07:16:34.47	53.53	10.06	
2025-01-19 07:16:34.67	53.50	10.07	
2025-01-19 07:16:34.87	53.47	10.07	
2025-01-19 07:16:35.08	53.44	10.08	
2025-01-19 07:16:35.28	53.40	10.09	
2025-01-19 07:16:35.48	53.37	10.10	
2025-01-19 07:16:35.69	53.34	10.10	
2025-01-19 07:16:35.89	53.30	10.11	
2025-01-19 07:16:36.09	53.27	10.12	
2025-01-19 07:16:36.29	53.24	10.12	
2025-01-19 07:16:36.50	53.20	10.13	
2025-01-19 07:16:36.70	53.17	10.14	
2025-01-19 07:16:36.90	53.14	10.15	
2025-01-19 07:16:37.11	53.10	10.15	
2025-01-19 07:16:37.31	53.07	10.16	
2025-01-19 07:16:37.51	53.04	10.17	
2025-01-19 07:16:37.72	53.00	10.18	
2025-01-19 07:16:37.92	52.97	10.18	
2025-01-19 07:16:38.12	52.94	10.19	
2025-01-19 07:16:38.33	52.90	10.20	
2025-01-19 07:16:38.53	52.87	10.20	
2025-01-19 07:16:38.73	52.84	10.21	
2025-01-19 07:16:38.93	52.80	10.22	
2025-01-19 07:16:39.14	52.77	10.23	
2025-01-19 07:16:39.34	52.74	10.23	
2025-01-19 07:16:39.54	52.70	10.24	
2025-01-19 07:16:39.75	52.67	10.25	
2025-01-19 07:16:39.95	52.63	10.25	
2025-01-19 07:16:40.15	52.60	10.26	
2025-01-19 07:16:40.36	52.57	10.27	
2025-01-19 07:16:40.56	52.53	10.28	
2025-01-19 07:16:40.76	52.50	10.28	
2025-01-19 07:16:40.97	52.47	10.29	
2025-01-19 07:16:41.17	52.43	10.30	
2025-01-19 07:16:41.37	52.40	10.30	
2025-01-19 07:16:41.57	52.37	10.31	
2025-01-19 07:16:41.78	52.33	10.32	
2025-01-19 07:16:41.98	52.30	10.33	
2025-01-19 07:16:42.18	52.27	10.33	
2025-01-19 07:16:42.39	52.23	10.34	
2025-01-19 07:16:42.59	52.20	10.35	
2025-01-19 07:16:42.79	52.16	10.35	
2025-01-19 07:16:43.00	52.13	10.36	
2025-01-19 07:16:43.20	52.10	10.37	
2025-01-19 07:16:43.40	52.06	10.38	
2025-01-19 07:16:43.61	52.03	10.38	
2025-01-19 07:16:43.81	51.99	10.39	
2025-01-19 07:16:44.01	51.96	10.40	
2025-01-19 07:16:44.21	51.93	10.40	
2025-01-19 07:16:44.42	51.89	10.41	
2025-01-19 07:16:44.62	51.86	10.42	
2025-01-19 07:16:44.82	51.82	10.42	
2025-01-19 07:16:45.03	51.79	10.43	
2025-01-19 07:16:45.23	51.76	10.44	
2025-01-19 07:16:45.43	51.72	10.45	
2025-01-19 07:16:45.64	51.69	10.45	
2025-01-19 07:16:45.84	51.65	10.46	
2025-01-19 07:16:46.04	51.62	10.47	
2025-01-19 07:16:46.25	51.59	10.47	
2025-01-19 07:16:46.45	51.55	10.48	
2025-01-19 07:16:46.65	51.52	10.49	
2025-01-19 07:16:46.85	51.48	10.49	
2025-01-19 07:16:47.06	51.45	10.50	
2025-01-19 07:16:47.26	51.42	10.51	
2025-01-19 07:16:47.46	51.38	10.52	
2025-01-19 07:16:47.67	51.35	10.52	
2025-01-19 07:16:47.87	51.31	10.53	
2025-01-19 07:16:48.07	51.28	10.54	
2025-01-19 07:16:48.28	51.24	10.54	
2025-01-19 07:16:48.48	51.21	10.55	
2025-01-19 07:16:48.68	51.18	10.56	
2025-01-19 07:16:48.89	51.14	10.56	
2025-01-19 07:16:49.09	51.11	10.57	
2025-01-19 07:16:49.29	51.07	10.58	
2025-01-19 07:16:49.49	51.04	10.58	
2025-01-19 07:16:49.70	51.00	10.59	
2025-01-19 07:16:49.90	50.97	10.60	
2025-01-19 07:16:50.10	50.94	10.60	
2025-01-19 07:16:50.31	50.90	10.61	
2025-01-19 07:16:50.51	50.87	10.62	
2025-01-19 07:16:50.71	50.83	10.62	
2025-01-19 07:16:50.92	50.80	10.63	
2025-01-19 07:16:51.12	50.76	10.64	
2025-01-19 07:16:51.32	50.73	10.64	
2025-01-19 07:16:51.53	50.69	10.65	
2025-01-19 07:16:51.73	50.66	10.66	
2025-01-19 07:16:51.93	50.63	10.67	
2025-01-19 07:16:52.13	50.59	10.67	
2025-01-19 07:16:52.34	50.56	10.68	
2025-01-19 07:16:52.54	50.52	10.69	
2025-01-19 07:16:52.74	50.49	10.69	
2025-01-19 07:16:52.95	50.45	10.70	
2025-01-19 07:16:53.15	50.42	10.71	
2025-01-19 07:16:53.35	50.38	10.71	
2025-01-19 07:16:53.56	50.35	10.72	
2025-01-19 07:16:53.76	50.31	10.73	
2025-01-19 07:16:53.96	50.28	10.73	
2025-01-19 07:16:54.17	50.24	10.74	
2025-01-19 07:16:54.37	50.21	10.75	
2025-01-19 07:16:54.57	50.17	10.75	
2025-01-19 07:16:54.77	50.14	10.76	
2025-01-19 07:16:54.98	50.10	10.77	
2025-01-19 07:16:55.18	50.07	10.77	
2025-01-19 07:16:55.38	50.04	10.78	
2025-01-19 07:16:55.59	50.00	10.78	
2025-01-19 07:16:55.79	49.97	10.79	
2025-01-19 07:16:55.99	49.93	10.80	
2025-01-19 07:16:56.20	49.90	10.80	
2025-01-19 07:16:56.40	49.86	10.81	
2025-01-19 07:16:56.60	49.83	10.82	
2025-01-19 07:16:56.81	49.79	10.82	
2025-01-19 07:16:57.01	49.76	10.83	
2025-01-19 07:16:57.21	49.72	10.84	
2025-01-19 07:16:57.41	49.69	10.84	
2025-01-19 07:16:57.62	49.65	10.85	
2025-01-19 07:16:57.82	49.62	10.86	
2025-01-19 07:16:58.02	49.58	10.86	
2025-01-19 07:16:58.23	49.55	10.87	
2025-01-19 07:16:58.43	49.51	10.88	
2025-01-19 07:16:58.63	49.48	10.88	
2025-01-19 07:16:58.84	49.44	10.89	
2025-01-19 07:16:59.04	49.41	10.90	
2025-01-19 07:16:59.24	49.37	10.90	
2025-01-19 07:16:59.45	49.34	10.91	
2025-01-19 07:16:59.65	49.30	10.91	
2025-01-19 07:16:59.85	49.27	10.92	
2025-01-19 07:17:00.05	49.23	10.93	
2025-01-19 07:17:00.26	49.19	10.93	
2025-01-19 07:17:00.46	49.16	10.94	
2025-01-19 07:17:00.66	49.13	10.95	
2025-01-19 07:17:00.87	49.09	10.95	
2025-01-19 07:17:01.07	49.05	10.96	
2025-01-19 07:17:01.27	49.02	10.97	
2025-01-19 07:17:01.48	48.98	10.97	
2025-01-19 07:17:01.68	48.95	10.98	
2025-01-19 07:17:01.88	48.91	10.98	
2025-01-19 07:17:02.09	48.88	10.99	
2025-01-19 07:17:02.29	48.84	11.00	
2025-01-19 07:17:02.49	48.81	11.00	
2025-01-19 07:17:02.69	48.77	11.01	
2025-01-19 07:17:02.90	48.74	11.02	
2025-01-19 07:17:03.10	48.70	11.02	
2025-01-19 07:17:03.30	48.67	11.03	
2025-01-19 07:17:03.51	48.63	11.03	
2025-01-19 07:17:03.71	48.59	11.04	
2025-01-19 07:17:03.91	48.56	11.05	
2025-01-19 07:17:04.12	48.52	11.05	
2025-01-19 07:17:04.32	48.49	11.06	
2025-01-19 07:17:04.52	48.45	11.07	
2025-01-19 07:17:04.73	48.42	11.07	
2025-01-19 07:17:04.93	48.38	11.08	
2025-01-19 07:17:05.13	48.35	11.08	
2025-01-19 07:17:05.33	48.31	11.09	
2025-01-19 07:17:05.54	48.27	11.10	
2025-01-19 07:17:05.74	48.24	11.10	
2025-01-19 07:17:05.94	48.20	11.11	
2025-01-19 07:17:06.15	48.17	11.11	
2025-01-19 07:17:06.35	48.13	11.12	
2025-01-19 07:17:06.57	48.09	11.13	
2025-01-19 07:17:06.77	48.06	11.13	
2025-01-19 07:17:06.97	48.02	11.14	
2025-01-19 07:17:07.18	47.99	11.15	
2025-01-19 07:17:07.38	47.95	11.15	
2025-01-19 07:17:07.58	47.92	11.16	
2025-01-19 07:17:07.78	47.88	11.16	
2025-01-19 07:17:07.99	47.84	11.17	
2025-01-19 07:17:08.19	47.81	11.18	
2025-01-19 07:17:08.39	47.77	11.18	
2025-01-19 07:17:08.60	47.74	11.19	
2025-01-19 07:17:08.80	47.70	11.19	
2025-01-19 07:17:09.00	47.67	11.20	
2025-01-19 07:17:09.21	47.63	11.21	
2025-01-19 07:17:09.41	47.59	11.21	
2025-01-19 07:17:09.61	47.56	11.22	
2025-01-19 07:17:09.82	47.52	11.22	
2025-01-19 07:17:10.02	47.49	11.23	
2025-01-19 07:17:10.22	47.45	11.24	
2025-01-19 07:17:10.42	47.42	11.24	
2025-01-19 07:17:10.63	47.38	11.25	
2025-01-19 07:17:10.83	47.34	11.25	
2025-01-19 07:17:11.03	47.31	11.26	
2025-01-19 07:17:11.24	47.27	11.26	
2025-01-19 07:17:11.44	47.23	11.27	
2025-01-19 07:17:11.64	47.20	11.28	
2025-01-19 07:17:11.85	47.16	11.28	
2025-01-19 07:17:12.05	47.13	11.29	
2025-01-19 07:17:12.25	47.09	11.29	
2025-01-19 07:17:12.46	47.05	11.30	
2025-01-19 07:17:12.66	47.02	11.31	
2025-01-19 07:17:12.86	46.98	11.31	
2025-01-19 07:17:13.06	46.95	11.32	
2025-01-19 07:17:13.27	46.91	11.32	
2025-01-19 07:17:13.47	46.87	11.33	
2025-01-19 07:17:13.67	46.84	11.33	
2025-01-19 07:17:13.88	46.80	11.34	
2025-01-19 07:17:14.08	46.77	11.35	
2025-01-19 07:17:14.28	46.73	11.35	
2025-01-19 07:17:14.49	46.69	11.36	
2025-01-19 07:17:14.69	46.66	11.36	
2025-01-19 07:17:14.89	46.62	11.37	
2025-01-19 07:17:15.10	46.58	11.37	
2025-01-19 07:17:15.30	46.55	11.38	
2025-01-19 07:17:15.50	46.51	11.39	
2025-01-19 07:17:15.70	46.48	11.39	
2025-01-19 07:17:15.91	46.44	11.40	
2025-01-19 07:17:16.11	46.40	11.40	
2025-01-19 07:17:16.31	46.37	11.41	
2025-01-19 07:17:16.52	46.33	11.41	
2025-01-19 07:17:16.72	46.29	11.42	
2025-01-19 07:17:16.92	46.26	11.43	
2025-01-19 07:17:17.13	46.22	11.43	
2025-01-19 07:17:17.33	46.18	11.44	
2025-01-19 07:17:17.53	46.15	11.44	
2025-01-19 07:17:17.74	46.11	11.45	
2025-01-19 07:17:17.94	46.07	11.45	
2025-01-19 07:17:18.14	46.04	11.46	
2025-01-19 07:17:18.34	46.00	11.46	
2025-01-19 07:17:18.55	45.97	11.47	
2025-01-19 07:17:18.75	45.93	11.48	
2025-01-19 07:17:18.95	45.89	11.48	
2025-01-19 07:17:19.16	45.86	11.49	
2025-01-19 07:17:19.36	45.82	11.49	
2025-01-19 07:17:19.56	45.78	11.50	
2025-01-19 07:17:19.77	45.75	11.50	
2025-01-19 07:17:19.97	45.71	11.51	
2025-01-19 07:17:20.17	45.67	11.51	
2025-01-19 07:17:20.38	45.64	11.52	
2025-01-19 07:17:20.58	45.60	11.52	
2025-01-19 07:17:20.78	45.56	11.53	
2025-01-19 07:17:20.98	45.53	11.54	
2025-01-19 07:17:21.19	45.49	11.54	
2025-01-19 07:17:21.39	45.45	11.55	
2025-01-19 07:17:21.59	45.42	11.55	
2025-01-19 07:17:21.80	45.38	11.56	
2025-01-19 07:17:22.00	45.34	11.56	
2025-01-19 07:17:22.20	45.31	11.57	
2025-01-19 07:17:22.41	45.27	11.57	
2025-01-19 07:17:22.61	45.23	11.58	
2025-01-19 07:17:22.81	45.20	11.58	
2025-01-19 07:17:23.02	45.16	11.59	
2025-01-19 07:17:23.22	45.12	11.59	
2025-01-19 07:17:23.42	45.09	11.60	
2025-01-19 07:17:23.62	45.05	11.60	
2025-01-19 07:17:23.83	45.01	11.61	
2025-01-19 07:17:24.03	44.97	11.62	
2025-01-19 07:17:24.23	44.94	11.62	
2025-01-19 07:17:24.44	44.90	11.63	
2025-01-19 07:17:24.64	44.86	11.63	
2025-01-19 07:17:24.84	44.83	11.64	
2025-01-19 07:17:25.05	44.79	11.64	
2025-01-19 07:17:25.25	44.75	11.65	
2025-01-19 07:17:25.45	44.72	11.65	
2025-01-19 07:17:25.66	44.68	11.66	
2025-01-19 07:17:25.86	44.64	11.66	
2025-01-19 07:17:26.06	44.61	11.67	
2025-01-19 07:17:26.26	44.57	11.67	
2025-01-19 07:17:26.47	44.53	11.68	
2025-01-19 07:17:26.67	44.49	11.68	
2025-01-19 07:17:26.87	44.46	11.69	
2025-01-19 07:17:27.08	44.42	11.69	
2025-01-19 07:17:27.28	44.38	11.70	
2025-01-19 07:17:27.48	44.35	11.70	
2025-01-19 07:17:27.69	44.31	11.71	
2025-01-19 07:17:27.89	44.27	11.71	
2025-01-19 07:17:28.09	44.23	11.72	
2025-01-19 07:17:28.30	44.20	11.72	
2025-01-19 07:17:28.50	44.16	11.73	
2025-01-19 07:17:28.70	44.12	11.73	
2025-01-19 07:17:28.90	44.09	11.74	
2025-01-19 07:17:29.11	44.05	11.74	
2025-01-19 07:17:29.31	44.01	11.75	
2025-01-19 07:17:29.51	43.97	11.75	
2025-01-19 07:17:29.72	43.94	11.76	
2025-01-19 07:17:29.92	43.90	11.76	
2025-01-19 07:17:30.12	43.86	11.77	
2025-01-19 07:17:30.33	43.82	11.77	
2025-01-19 07:17:30.53	43.79	11.78	
2025-01-19 07:17:30.73	43.75	11.78	
2025-01-19 07:17:30.94	43.71	11.79	
2025-01-19 07:17:31.14	43.68	11.79	
2025-01-19 07:17:31.34	43.64	11.80	
2025-01-19 07:17:31.54	43.60	11.80	
2025-01-19 07:17:31.75	43.56	11.81	
2025-01-19 07:17:31.95	43.53	11.81	
2025-01-19 07:17:32.15	43.49	11.82	
2025-01-19 07:17:32.36	43.45	11.82	
2025-01-19 07:17:32.56	43.41	11.83	
2025-01-19 07:17:32.76	43.38	11.83	
2025-01-19 07:17:32.97	43.34	11.84	
2025-01-19 07:17:33.17	43.30	11.84	
2025-01-19 07:17:33.37	43.27	11.85	
2025-01-19 07:17:33.58	43.23	11.85	
2025-01-19 07:17:33.78	43.19	11.85	
2025-01-19 07:17:33.98	43.15	11.86	
2025-01-19 07:17:34.18	43.12	11.86	
2025-01-19 07:17:34.39	43.08	11.87	
2025-01-19 07:17:34.59	43.04	11.87	
2025-01-19 07:17:34.79	43.00	11.88	
2025-01-19 07:17:35.00	42.96	11.88	
2025-01-19 07:17:35.20	42.93	11.89	
2025-01-19 07:17:35.40	42.89	11.89	
2025-01-19 07:17:35.61	42.85	11.90	
2025-01-19 07:17:35.81	42.81	11.90	
2025-01-19 07:17:36.01	42.78	11.91	
2025-01-19 07:17:36.22	42.74	11.91	
2025-01-19 07:17:36.42	42.70	11.92	
2025-01-19 07:17:36.62	42.66	11.92	
2025-01-19 07:17:36.82	42.63	11.92	
2025-01-19 07:17:37.03	42.59	11.93	
2025-01-19 07:17:37.23	42.55	11.93	
2025-01-19 07:17:37.43	42.51	11.94	
2025-01-19 07:17:37.64	42.47	11.94	
2025-01-19 07:17:37.84	42.44	11.95	
2025-01-19 07:17:38.04	42.40	11.95	
2025-01-19 07:17:38.25	42.36	11.96	
2025-01-19 07:17:38.45	42.32	11.96	
2025-01-19 07:17:38.65	42.29	11.96	
2025-01-19 07:17:38.86	42.25	11.97	
2025-01-19 07:17:39.06	42.21	11.97	
2025-01-19 07:17:39.26	42.17	11.98	
2025-01-19 07:17:39.46	42.14	11.98	
2025-01-19 07:17:39.67	42.10	11.99	
2025-01-19 07:17:39.87	42.06	11.99	
2025-01-19 07:17:40.07	42.02	12.00	
2025-01-19 07:17:40.28	41.98	12.00	
2025-01-19 07:17:40.48	41.95	12.00	
2025-01-19 07:17:40.68	41.91	12.01	
2025-01-19 07:17:40.89	41.87	12.01	
2025-01-19 07:17:41.09	41.83	12.02	
2025-01-19 07:17:41.29	41.80	12.02	
2025-01-19 07:17:41.50	41.76	12.03	
2025-01-19 07:17:41.70	41.72	12.03	
2025-01-19 07:17:41.90	41.68	12.03	
2025-01-19 07:17:42.10	41.64	12.04	
2025-01-19 07:17:42.31	41.60	12.04	
2025-01-19 07:17:42.51	41.57	12.05	
2025-01-19 07:17:42.71	41.53	12.05	
2025-01-19 07:17:42.92	41.49	12.06	
2025-01-19 07:17:43.12	41.45	12.06	
2025-01-19 07:17:43.32	41.42	12.06	
2025-01-19 07:17:43.53	41.38	12.07	
2025-01-19 07:17:43.73	41.34	12.07	
2025-01-19 07:17:43.93	41.30	12.08	
2025-01-19 07:17:44.14	41.26	12.08	
2025-01-19 07:17:44.34	41.22	12.09	
2025-01-19 07:17:44.54	41.19	12.09	
2025-01-19 07:17:44.75	41.15	12.09	
2025-01-19 07:17:44.95	41.11	12.10	
2025-01-19 07:17:45.15	41.07	12.10	
2025-01-19 07:17:45.35	41.03	12.11	
2025-01-19 07:17:45.56	41.00	12.11	
2025-01-19 07:17:45.76	40.96	12.11	
2025-01-19 07:17:45.96	40.92	12.12	
2025-01-19 07:17:46.17	40.88	12.12	
2025-01-19 07:17:46.37	40.84	12.13	
2025-01-19 07:17:46.57	40.81	12.13	
2025-01-19 07:17:46.78	40.77	12.13	
2025-01-19 07:17:46.98	40.73	12.14	
2025-01-19 07:17:47.18	40.69	12.14	
2025-01-19 07:17:47.39	40.65	12.15	
2025-01-19 07:17:47.59	40.61	12.15	
2025-01-19 07:17:47.79	40.58	12.15	
2025-01-19 07:17:47.99	40.54	12.16	
2025-01-19 07:17:48.20	40.50	12.16	
2025-01-19 07:17:48.40	40.46	12.17	
2025-01-19 07:17:48.60	40.42	12.17	
2025-01-19 07:17:48.81	40.38	12.17	
2025-01-19 07:17:49.01	40.35	12.18	
2025-01-19 07:17:49.21	40.31	12.18	
2025-01-19 07:17:49.42	40.27	12.19	
2025-01-19 07:17:49.62	40.23	12.19	
2025-01-19 07:17:49.82	40.19	12.19	
2025-01-19 07:17:50.03	40.15	12.20	
2025-01-19 07:17:50.23	40.12	12.20	
2025-01-19 07:17:50.43	40.08	12.20	
2025-01-19 07:17:50.63	40.04	12.21	
2025-01-19 07:17:50.84	40.00	12.21	
2025-01-19 07:17:51.04	39.96	12.22	
2025-01-19 07:17:51.24	39.92	12.22	
2025-01-19 07:17:51.45	39.88	12.22	
2025-01-19 07:17:51.65	39.85	12.23	
2025-01-19 07:17:51.85	39.81	12.23	
2025-01-19 07:17:52.06	39.77	12.23	
2025-01-19 07:17:52.26	39.73	12.24	
2025-01-19 07:17:52.46	39.69	12.24	
2025-01-19 07:17:52.67	39.65	12.24	
2025-01-19 07:17:52.87	39.62	12.25	
2025-01-19 07:17:53.07	39.58	12.25	
2025-01-19 07:17:53.27	39.54	12.26	
2025-01-19 07:17:53.48	39.50	12.26	
2025-01-19 07:17:53.68	39.46	12.26	
2025-01-19 07:17:53.88	39.42	12.27	
2025-01-19 07:17:54.09	39.38	12.27	
2025-01-19 07:17:54.29	39.35	12.27	
2025-01-19 07:17:54.49	39.31	12.28	
2025-01-19 07:17:54.70	39.27	12.28	
2025-01-19 07:17:54.90	39.23	12.28	
2025-01-19 07:17:55.10	39.19	12.29	
2025-01-19 07:17:55.31	39.15	12.29	
2025-01-19 07:17:55.51	39.11	12.29	
2025-01-19 07:17:55.71	39.08	12.30	
2025-01-19 07:17:55.91	39.04	12.30	
2025-01-19 07:17:56.12	39.00	12.31	
2025-01-19 07:17:56.32	38.96	12.31	
2025-01-19 07:17:56.52	38.92	12.31	
2025-01-19 07:17:56.73	38.88	12.32	
2025-01-19 07:17:56.93	38.84	12.32	
2025-01-19 07:17:57.13	38.81	12.32	
2025-01-19 07:17:57.34	38.77	12.33	
2025-01-19 07:17:57.54	38.73	12.33	
2025-01-19 07:17:57.74	38.69	12.33	
2025-01-19 07:17:57.95	38.65	12.34	
2025-01-19 07:17:58.15	38.61	12.34	
2025-01-19 07:17:58.35	38.57	12.34	
2025-01-19 07:17:58.55	38.54	12.35	
2025-01-19 07:17:58.76	38.49	12.35	
2025-01-19 07:17:58.96	38.46	12.35	
2025-01-19 07:17:59.16	38.42	12.36	
2025-01-19 07:17:59.37	38.38	12.36	
2025-01-19 07:17:59.57	38.34	12.36	
2025-01-19 07:17:59.77	38.30	12.37	
2025-01-19 07:17:59.98	38.26	12.37	
2025-01-19 07:18:00.18	38.22	12.37	
2025-01-19 07:18:00.38	38.19	12.37	
2025-01-19 07:18:00.59	38.15	12.38	
2025-01-19 07:18:00.79	38.11	12.38	
2025-01-19 07:18:00.99	38.07	12.38	
2025-01-19 07:18:01.19	38.03	12.39	
2025-01-19 07:18:01.40	37.99	12.39	
2025-01-19 07:18:01.60	37.95	12.39	
2025-01-19 07:18:01.80	37.91	12.40	
2025-01-19 07:18:02.01	37.87	12.40	
2025-01-19 07:18:02.21	37.84	12.40	
2025-01-19 07:18:02.41	37.80	12.41	
2025-01-19 07:18:02.62	37.76	12.41	
2025-01-19 07:18:02.82	37.72	12.41	
2025-01-19 07:18:03.02	37.68	12.41	
2025-01-19 07:18:03.23	37.64	12.42	
2025-01-19 07:18:03.43	37.60	12.42	
2025-01-19 07:18:03.63	37.56	12.42	
2025-01-19 07:18:03.83	37.52	12.43	
2025-01-19 07:18:04.04	37.48	12.43	
2025-01-19 07:18:04.24	37.45	12.43	
2025-01-19 07:18:04.44	37.41	12.44	
2025-01-19 07:18:04.65	37.37	12.44	
2025-01-19 07:18:04.85	37.33	12.44	
2025-01-19 07:18:05.05	37.29	12.44	
2025-01-19 07:18:05.26	37.25	12.45	
2025-01-19 07:18:05.46	37.21	12.45	
2025-01-19 07:18:05.66	37.17	12.45	
2025-01-19 07:18:05.87	37.13	12.46	
2025-01-19 07:18:06.07	37.09	12.46	
2025-01-19 07:18:06.27	37.06	12.46	
2025-01-19 07:18:06.47	37.02	12.46	
2025-01-19 07:18:06.68	36.98	12.47	
2025-01-19 07:18:06.88	36.94	12.47	
2025-01-19 07:18:07.08	36.90	12.47	
2025-01-19 07:18:07.29	36.86	12.48	
2025-01-19 07:18:07.49	36.82	12.48	
2025-01-19 07:18:07.69	36.78	12.48	
2025-01-19 07:18:07.90	36.74	12.48	
2025-01-19 07:18:08.10	36.70	12.49	
2025-01-19 07:18:08.30	36.66	12.49	
2025-01-19 07:18:08.51	36.62	12.49	
2025-01-19 07:18:08.71	36.59	12.49	
2025-01-19 07:18:08.91	36.55	12.50	
2025-01-19 07:18:09.11	36.51	12.50	
2025-01-19 07:18:09.32	36.47	12.50	
2025-01-19 07:18:09.52	36.43	12.51	
2025-01-19 07:18:09.72	36.39	12.51	
2025-01-19 07:18:09.93	36.35	12.51	
2025-01-19 07:18:10.13	36.31	12.51	
2025-01-19 07:18:10.33	36.27	12.52	
2025-01-19 07:18:10.54	36.23	12.52	
2025-01-19 07:18:10.74	36.19	12.52	
2025-01-19 07:18:10.94	36.16	12.52	
2025-01-19 07:18:11.15	36.11	12.53	
2025-01-19 07:18:11.35	36.08	12.53	
2025-01-19 07:18:11.55	36.04	12.53	
2025-01-19 07:18:11.75	36.00	12.53	
2025-01-19 07:18:11.96	35.96	12.54	
2025-01-19 07:18:12.16	35.92	12.54	
2025-01-19 07:18:12.36	35.88	12.54	
2025-01-19 07:18:12.57	35.84	12.54	
2025-01-19 07:18:12.77	35.80	12.55	
2025-01-19 07:18:12.97	35.76	12.55	
2025-01-19 07:18:13.18	35.72	12.55	
2025-01-19 07:18:13.38	35.68	12.55	
2025-01-19 07:18:13.58	35.64	12.55	
2025-01-19 07:18:13.79	35.60	12.56	
2025-01-19 07:18:13.99	35.57	12.56	
2025-01-19 07:18:14.19	35.53	12.56	
2025-01-19 07:18:14.39	35.49	12.56	
2025-01-19 07:18:14.60	35.45	12.57	
2025-01-19 07:18:14.80	35.41	12.57	
2025-01-19 07:18:15.00	35.37	12.57	
2025-01-19 07:18:15.21	35.33	12.57	
2025-01-19 07:18:15.41	35.29	12.58	
2025-01-19 07:18:15.61	35.25	12.58	
2025-01-19 07:18:15.82	35.21	12.58	
2025-01-19 07:18:16.02	35.17	12.58	
2025-01-19 07:18:16.22	35.13	12.58	
2025-01-19 07:18:16.43	35.09	12.59	
2025-01-19 07:18:16.63	35.05	12.59	
2025-01-19 07:18:16.83	35.01	12.59	
2025-01-19 07:18:17.03	34.98	12.59	
2025-01-19 07:18:17.24	34.93	12.59	
2025-01-19 07:18:17.44	34.90	12.60	
2025-01-19 07:18:17.64	34.86	12.60	
2025-01-19 07:18:17.85	34.82	12.60	
2025-01-19 07:18:18.05	34.78	12.60	
2025-01-19 07:18:18.25	34.74	12.61	
2025-01-19 07:18:18.46	34.70	12.61	
2025-01-19 07:18:18.66	34.66	12.61	
2025-01-19 07:18:18.86	34.62	12.61	
2025-01-19 07:18:19.07	34.58	12.61	
2025-01-19 07:18:19.27	34.54	12.62	
2025-01-19 07:18:19.47	34.50	12.62	
2025-01-19 07:18:19.67	34.46	12.62	
2025-01-19 07:18:19.88	34.42	12.62	
2025-01-19 07:18:20.08	34.38	12.62	
2025-01-19 07:18:20.28	34.34	12.63	
2025-01-19 07:18:20.49	34.30	12.63	
2025-01-19 07:18:20.69	34.26	12.63	
2025-01-19 07:18:20.89	34.23	12.63	
2025-01-19 07:18:21.10	34.18	12.63	
2025-01-19 07:18:21.30	34.15	12.63	
2025-01-19 07:18:21.50	34.11	12.64	
2025-01-19 07:18:21.71	34.07	12.64	
2025-01-19 07:18:21.91	34.03	12.64	
2025-01-19 07:18:22.11	33.99	12.64	
2025-01-19 07:18:22.31	33.95	12.64	
2025-01-19 07:18:22.52	33.91	12.65	
2025-01-19 07:18:22.72	33.87	12.65	
2025-01-19 07:18:22.92	33.83	12.65	
2025-01-19 07:18:23.13	33.79	12.65	
2025-01-19 07:18:23.33	33.75	12.65	
2025-01-19 07:18:23.53	33.71	12.65	
2025-01-19 07:18:23.74	33.67	12.66	
2025-01-19 07:18:23.94	33.63	12.66	
2025-01-19 07:18:24.14	33.59	12.66	
2025-01-19 07:18:24.35	33.55	12.66	
2025-01-19 07:18:24.55	33.51	12.66	
2025-01-19 07:18:24.75	33.47	12.66	
2025-01-19 07:18:24.95	33.43	12.67	
2025-01-19 07:18:25.16	33.39	12.67	
2025-01-19 07:18:25.36	33.35	12.67	
2025-01-19 07:18:25.56	33.32	12.67	
2025-01-19 07:18:25.77	33.27	12.67	
2025-01-19 07:18:25.97	33.24	12.67	
2025-01-19 07:18:26.17	33.20	12.68	
2025-01-19 07:18:26.38	33.16	12.68	
2025-01-19 07:18:26.58	33.12	12.68	
2025-01-19 07:18:26.78	33.08	12.68	
2025-01-19 07:18:26.99	33.04	12.68	
2025-01-19 07:18:27.19	33.00	12.68	
2025-01-19 07:18:27.39	32.96	12.68	
2025-01-19 07:18:27.59	32.92	12.69	
2025-01-19 07:18:27.80	32.88	12.69	
2025-01-19 07:18:28.00	32.84	12.69	
2025-01-19 07:18:28.20	32.80	12.69	
2025-01-19 07:18:28.41	32.76	12.69	
2025-01-19 07:18:28.61	32.72	12.69	
2025-01-19 07:18:28.81	32.68	12.69	
2025-01-19 07:18:29.02	32.64	12.70	
2025-01-19 07:18:29.22	32.60	12.70	
2025-01-19 07:18:29.42	32.56	12.70	
2025-01-19 07:18:29.63	32.52	12.70	
2025-01-19 07:18:29.83	32.48	12.70	
2025-01-19 07:18:30.03	32.44	12.70	
2025-01-19 07:18:30.23	32.40	12.70	
2025-01-19 07:18:30.44	32.36	12.70	
2025-01-19 07:18:30.64	32.32	12.71	
2025-01-19 07:18:30.84	32.28	12.71	
2025-01-19 07:18:31.05	32.24	12.71	
2025-01-19 07:18:31.25	32.20	12.71	
2025-01-19 07:18:31.45	32.16	12.71	
2025-01-19 07:18:31.66	32.12	12.71	
2025-01-19 07:18:31.86	32.08	12.71	
2025-01-19 07:18:32.06	32.05	12.71	
2025-01-19 07:18:32.27	32.00	12.72	
2025-01-19 07:18:32.47	31.96	12.72	
2025-01-19 07:18:32.67	31.93	12.72	
2025-01-19 07:18:32.87	31.89	12.72	
2025-01-19 07:18:33.08	31.85	12.72	
2025-01-19 07:18:33.28	31.81	12.72	
2025-01-19 07:18:33.48	31.77	12.72	
2025-01-19 07:18:33.69	31.73	12.72	
2025-01-19 07:18:33.89	31.69	12.72	
2025-01-19 07:18:34.09	31.65	12.72	
2025-01-19 07:18:34.30	31.61	12.73	
2025-01-19 07:18:34.50	31.57	12.73	
2025-01-19 07:18:34.70	31.53	12.73	
2025-01-19 07:18:34.91	31.49	12.73	
2025-01-19 07:18:35.11	31.45	12.73	
2025-01-19 07:18:35.31	31.41	12.73	
2025-01-19 07:18:35.51	31.37	12.73	
2025-01-19 07:18:35.72	31.33	12.73	
2025-01-19 07:18:35.92	31.29	12.73	
2025-01-19 07:18:36.12	31.25	12.73	
2025-01-19 07:18:36.33	31.21	12.74	
2025-01-19 07:18:36.53	31.17	12.74	
2025-01-19 07:18:36.73	31.13	12.74	
2025-01-19 07:18:36.94	31.09	12.74	
2025-01-19 07:18:37.14	31.05	12.74	
2025-01-19 07:18:37.34	31.01	12.74	
2025-01-19 07:18:37.55	30.97	12.74	
2025-01-19 07:18:37.75	30.93	12.74	
2025-01-19 07:18:37.95	30.89	12.74	
2025-01-19 07:18:38.15	30.85	12.74	
2025-01-19 07:18:38.36	30.81	12.74	
2025-01-19 07:18:38.56	30.77	12.74	
2025-01-19 07:18:38.76	30.73	12.74	
2025-01-19 07:18:38.97	30.69	12.75	
2025-01-19 07:18:39.17	30.65	12.75	
2025-01-19 07:18:39.37	30.61	12.75	
2025-01-19 07:18:39.58	30.57	12.75	
2025-01-19 07:18:39.78	30.53	12.75	
2025-01-19 07:18:39.98	30.49	12.75	
2025-01-19 07:18:40.19	30.45	12.75	
2025-01-19 07:18:40.39	30.41	12.75	
2025-01-19 07:18:40.59	30.37	12.75	
2025-01-19 07:18:40.79	30.33	12.75	
2025-01-19 07:18:41.00	30.29	12.75	
2025-01-19 07:18:41.20	30.25	12.75	
2025-01-19 07:18:41.40	30.21	12.75	
2025-01-19 07:18:41.61	30.17	12.75	
2025-01-19 07:18:41.81	30.13	12.75	
2025-01-19 07:18:42.01	30.10	12.75	
2025-01-19 07:18:42.22	30.05	12.75	
2025-01-19 07:18:42.42	30.01	12.75	
2025-01-19 07:18:42.62	29.98	12.76	
2025-01-19 07:18:42.83	29.93	12.76	
2025-01-19 07:18:43.03	29.89	12.76	
2025-01-19 07:18:43.23	29.86	12.76	
2025-01-19 07:18:43.43	29.82	12.76	
2025-01-19 07:18:43.64	29.78	12.76	
2025-01-19 07:18:43.84	29.74	12.76	
2025-01-19 07:18:44.04	29.70	12.76	
2025-01-19 07:18:44.25	29.66	12.76	
2025-01-19 07:18:44.45	29.62	12.76	
2025-01-19 07:18:44.65	29.58	12.76	
2025-01-19 07:18:44.86	29.54	12.76	
2025-01-19 07:18:45.06	29.50	12.76	
2025-01-19 07:18:45.26	29.46	12.76	
2025-01-19 07:18:45.47	29.42	12.76	
2025-01-19 07:18:45.67	29.38	12.76	
2025-01-19 07:18:45.87	29.34	12.76	
2025-01-19 07:18:46.07	29.30	12.76	
2025-01-19 07:18:46.28	29.26	12.76	
2025-01-19 07:18:46.48	29.22	12.76	
2025-01-19 07:18:46.68	29.18	12.76	
2025-01-19 07:18:46.89	29.14	12.76	
2025-01-19 07:18:47.09	29.10	12.76	
2025-01-19 07:18:47.29	29.06	12.76	
2025-01-19 07:18:47.50	29.02	12.76	
2025-01-19 07:18:47.70	28.98	12.76	
2025-01-19 07:18:47.90	28.94	12.76	
2025-01-19 07:18:48.11	28.90	12.76	
2025-01-19 07:18:48.31	28.86	12.76	
2025-01-19 07:18:48.51	28.82	12.76	
2025-01-19 07:18:48.71	28.78	12.76	
2025-01-19 07:18:48.92	28.74	12.76	
2025-01-19 07:18:49.12	28.70	12.76	
2025-01-19 07:18:49.32	28.66	12.76	
2025-01-19 07:18:49.53	28.62	12.76	
2025-01-19 07:18:49.73	28.58	12.76	
2025-01-19 07:18:49.93	28.54	12.76	
2025-01-19 07:18:50.14	28.50	12.76	
2025-01-19 07:18:50.34	28.46	12.76	
2025-01-19 07:18:50.54	28.42	12.76	
2025-01-19 07:18:50.75	28.38	12.76	
2025-01-19 07:18:50.95	28.34	12.76	
2025-01-19 07:18:51.15	28.30	12.76	
2025-01-19 07:18:51.35	28.26	12.76	
2025-01-19 07:18:51.56	28.22	12.76	
2025-01-19 07:18:51.76	28.18	12.76	
2025-01-19 07:18:51.96	28.14	12.76	
2025-01-19 07:18:52.17	28.10	12.76	
2025-01-19 07:18:52.37	28.06	12.76	
2025-01-19 07:18:52.57	28.02	12.76	
2025-01-19 07:18:52.78	27.98	12.76	
2025-01-19 07:18:52.98	27.94	12.76	
2025-01-19 07:18:53.18	27.90	12.76	
2025-01-19 07:18:53.39	27.86	12.76	
2025-01-19 07:18:53.59	27.82	12.76	
2025-01-19 07:18:53.79	27.78	12.76	
2025-01-19 07:18:53.99	27.74	12.76	
2025-01-19 07:18:54.20	27.70	12.76	
2025-01-19 07:18:54.40	27.66	12.76	
2025-01-19 07:18:54.60	27.62	12.76	
2025-01-19 07:18:54.81	27.58	12.76	
2025-01-19 07:18:55.01	27.54	12.76	
2025-01-19 07:18:55.21	27.50	12.76	
2025-01-19 07:18:55.42	27.46	12.76	
2025-01-19 07:18:55.62	27.42	12.76	
2025-01-19 07:18:55.82	27.38	12.76	
2025-01-19 07:18:56.03	27.34	12.75	
2025-01-19 07:18:56.23	27.30	12.75	
2025-01-19 07:18:56.43	27.26	12.75	
2025-01-19 07:18:56.63	27.23	12.75	
2025-01-19 07:18:56.84	27.18	12.75	
2025-01-19 07:18:57.04	27.15	12.75	
2025-01-19 07:18:57.24	27.11	12.75	
2025-01-19 07:18:57.45	27.06	12.75	
2025-01-19 07:18:57.65	27.03	12.75	
2025-01-19 07:18:57.85	26.99	12.75	
2025-01-19 07:18:58.06	26.95	12.75	
2025-01-19 07:18:58.26	26.91	12.75	
2025-01-19 07:18:58.46	26.87	12.75	
2025-01-19 07:18:58.67	26.83	12.75	
2025-01-19 07:18:58.87	26.79	12.75	
2025-01-19 07:18:59.07	26.75	12.75	
2025-01-19 07:18:59.27	26.71	12.75	
2025-01-19 07:18:59.48	26.67	12.74	
2025-01-19 07:18:59.68	26.63	12.74	
2025-01-19 07:18:59.88	26.59	12.74	
2025-01-19 07:19:00.09	26.55	12.74	
2025-01-19 07:19:00.29	26.51	12.74	
2025-01-19 07:19:00.49	26.47	12.74	
2025-01-19 07:19:00.70	26.43	12.74	
2025-01-19 07:19:00.90	26.39	12.74	
2025-01-19 07:19:01.10	26.35	12.74	
2025-01-19 07:19:01.31	26.31	12.74	
2025-01-19 07:19:01.51	26.27	12.74	
2025-01-19 07:19:01.71	26.23	12.74	
2025-01-19 07:19:01.91	26.19	12.74	
2025-01-19 07:19:02.12	26.15	12.73	
2025-01-19 07:19:02.32	26.11	12.73	
2025-01-19 07:19:02.52	26.07	12.73	
2025-01-19 07:19:02.73	26.03	12.73	
2025-01-19 07:19:02.93	25.99	12.73	
2025-01-19 07:19:03.13	25.95	12.73	
2025-01-19 07:19:03.34	25.91	12.73	
2025-01-19 07:19:03.54	25.87	12.73	
2025-01-19 07:19:03.74	25.83	12.73	
2025-01-19 07:19:03.95	25.79	12.73	
2025-01-19 07:19:04.15	25.75	12.73	
2025-01-19 07:19:04.35	25.71	12.72	
2025-01-19 07:19:04.55	25.67	12.72	
2025-01-19 07:19:04.76	25.63	12.72	
2025-01-19 07:19:04.96	25.59	12.72	
2025-01-19 07:19:05.16	25.55	12.72	
2025-01-19 07:19:05.37	25.51	12.72	
2025-01-19 07:19:05.57	25.47	12.72	
2025-01-19 07:19:05.77	25.43	12.72	
2025-01-19 07:19:05.98	25.39	12.72	
2025-01-19 07:19:06.18	25.35	12.71	
2025-01-19 07:19:06.38	25.32	12.71	
2025-01-19 07:19:06.59	25.27	12.71	
2025-01-19 07:19:06.79	25.24	12.71	
2025-01-19 07:19:06.99	25.20	12.71	
2025-01-19 07:19:07.19	25.16	12.71	
2025-01-19 07:19:07.40	25.12	12.71	
2025-01-19 07:19:07.60	25.08	12.71	
2025-01-19 07:19:07.80	25.04	12.71	
2025-01-19 07:19:08.01	25.00	12.70	
2025-01-19 07:19:08.21	24.96	12.70	
2025-01-19 07:19:08.41	24.92	12.70	
2025-01-19 07:19:08.62	24.88	12.70	
2025-01-19 07:19:08.82	24.84	12.70	
2025-01-19 07:19:09.02	24.80	12.70	
2025-01-19 07:19:09.23	24.76	12.70	
2025-01-19 07:19:09.43	24.72	12.69	
2025-01-19 07:19:09.63	24.68	12.69	
2025-01-19 07:19:09.83	24.64	12.69	
2025-01-19 07:19:10.04	24.60	12.69	
2025-01-19 07:19:10.24	24.56	12.69	
2025-01-19 07:19:10.44	24.52	12.69	
2025-01-19 07:19:10.65	24.48	12.69	
2025-01-19 07:19:10.85	24.44	12.68	
2025-01-19 07:19:11.05	24.40	12.68	
2025-01-19 07:19:11.26	24.36	12.68	
2025-01-19 07:19:11.46	24.32	12.68	
2025-01-19 07:19:11.66	24.28	12.68	
2025-01-19 07:19:11.87	24.24	12.68	
2025-01-19 07:19:12.07	24.20	12.68	
2025-01-19 07:19:12.27	24.17	12.67	
2025-01-19 07:19:12.47	24.13	12.67	
2025-01-19 07:19:12.68	24.09	12.67	
2025-01-19 07:19:12.88	24.05	12.67	
2025-01-19 07:19:13.08	24.01	12.67	
2025-01-19 07:19:13.29	23.97	12.67	
2025-01-19 07:19:13.49	23.93	12.66	
2025-01-19 07:19:13.69	23.89	12.66	
2025-01-19 07:19:13.90	23.85	12.66	
2025-01-19 07:19:14.10	23.81	12.66	
2025-01-19 07:19:14.30	23.77	12.66	
2025-01-19 07:19:14.51	23.73	12.66	
2025-01-19 07:19:14.71	23.69	12.65	
2025-01-19 07:19:14.91	23.65	12.65	
2025-01-19 07:19:15.12	23.61	12.65	
2025-01-19 07:19:15.32	23.57	12.65	
2025-01-19 07:19:15.52	23.53	12.65	
2025-01-19 07:19:15.72	23.49	12.65	
2025-01-19 07:19:15.93	23.45	12.64	
2025-01-19 07:19:16.13	23.41	12.64	
2025-01-19 07:19:16.33	23.37	12.64	
2025-01-19 07:19:16.54	23.33	12.64	
2025-01-19 07:19:16.74	23.29	12.64	
2025-01-19 07:19:16.94	23.26	12.64	
2025-01-19 07:19:17.15	23.21	12.63	
2025-01-19 07:19:17.35	23.18	12.63	
2025-01-19 07:19:17.55	23.14	12.63	
2025-01-19 07:19:17.75	23.10	12.63	
2025-01-19 07:19:17.96	23.06	12.63	
2025-01-19 07:19:18.16	23.02	12.62	
2025-01-19 07:19:18.36	22.98	12.62	
2025-01-19 07:19:18.57	22.94	12.62	
2025-01-19 07:19:18.77	22.90	12.62	
2025-01-19 07:19:18.97	22.86	12.62	
2025-01-19 07:19:19.18	22.82	12.61	
2025-01-19 07:19:19.38	22.78	12.61	
2025-01-19 07:19:19.58	22.74	12.61	
2025-01-19 07:19:19.79	22.70	12.61	
2025-01-19 07:19:19.99	22.66	12.61	
2025-01-19 07:19:20.19	22.62	12.60	
2025-01-19 07:19:20.40	22.58	12.60	
2025-01-19 07:19:20.60	22.54	12.60	
2025-01-19 07:19:20.80	22.51	12.60	
2025-01-19 07:19:21.00	22.47	12.60	
2025-01-19 07:19:21.21	22.43	12.59	
2025-01-19 07:19:21.41	22.39	12.59	
2025-01-19 07:19:21.61	22.35	12.59	
2025-01-19 07:19:21.82	22.31	12.59	
2025-01-19 07:19:22.02	22.27	12.59	
2025-01-19 07:19:22.22	22.23	12.58	
2025-01-19 07:19:22.43	22.19	12.58	
2025-01-19 07:19:22.63	22.15	12.58	
2025-01-19 07:19:22.83	22.11	12.58	
2025-01-19 07:19:23.04	22.07	12.57	
2025-01-19 07:19:23.24	22.03	12.57	
2025-01-19 07:19:23.44	21.99	12.57	
2025-01-19 07:19:23.64	21.95	12.57	
2025-01-19 07:19:23.85	21.91	12.56	
2025-01-19 07:19:24.05	21.88	12.56	
2025-01-19 07:19:24.25	21.84	12.56	
2025-01-19 07:19:24.46	21.80	12.56	
2025-01-19 07:19:24.66	21.76	12.56	
2025-01-19 07:19:24.86	21.72	12.55	
2025-01-19 07:19:25.07	21.68	12.55	
2025-01-19 07:19:25.27	21.64	12.55	
2025-01-19 07:19:25.47	21.60	12.55	
2025-01-19 07:19:25.68	21.56	12.54	
2025-01-19 07:19:25.88	21.52	12.54	
2025-01-19 07:19:26.08	21.48	12.54	
2025-01-19 07:19:26.28	21.44	12.54	
2025-01-19 07:19:26.49	21.40	12.53	
2025-01-19 07:19:26.69	21.37	12.53	
2025-01-19 07:19:26.89	21.33	12.53	
2025-01-19 07:19:27.10	21.29	12.53	
2025-01-19 07:19:27.30	21.25	12.52	
2025-01-19 07:19:27.50	21.21	12.52	
2025-01-19 07:19:27.71	21.17	12.52	
2025-01-19 07:19:27.91	21.13	12.52	
2025-01-19 07:19:28.11	21.09	12.51	
2025-01-19 07:19:28.32	21.05	12.51	
2025-01-19 07:19:28.52	21.01	12.51	
2025-01-19 07:19:28.72	20.97	12.51	
2025-01-19 07:19:28.92	20.93	12.50	
2025-01-19 07:19:29.13	20.89	12.50	
2025-01-19 07:19:29.33	20.86	12.50	
2025-01-19 07:19:29.53	20.82	12.50	
2025-01-19 07:19:29.74	20.78	12.49	
2025-01-19 07:19:29.94	20.74	12.49	
2025-01-19 07:19:30.14	20.70	12.49	
2025-01-19 07:19:30.35	20.66	12.48	
2025-01-19 07:19:30.55	20.62	12.48	
2025-01-19 07:19:30.75	20.58	12.48	
2025-01-19 07:19:30.96	20.54	12.48	
2025-01-19 07:19:31.16	20.50	12.47	
2025-01-19 07:19:31.36	20.47	12.47	
2025-01-19 07:19:31.56	20.43	12.47	
2025-01-19 07:19:31.77	20.39	12.47	
2025-01-19 07:19:31.97	20.35	12.46	
2025-01-19 07:19:32.17	20.31	12.46	
2025-01-19 07:19:32.38	20.27	12.46	
2025-01-19 07:19:32.58	20.23	12.45	
2025-01-19 07:19:32.78	20.19	12.45	
2025-01-19 07:19:32.99	20.15	12.45	
2025-01-19 07:19:33.19	20.11	12.45	
2025-01-19 07:19:33.39	20.08	12.44	
2025-01-19 07:19:33.60	20.03	12.44	
2025-01-19 07:19:33.80	20.00	12.44	
2025-01-19 07:19:34.00	19.96	12.43	
2025-01-19 07:19:34.20	19.92	12.43	
2025-01-19 07:19:34.41	19.88	12.43	
2025-01-19 07:19:34.61	19.84	12.43	
2025-01-19 07:19:34.81	19.80	12.42	
2025-01-19 07:19:35.02	19.76	12.42	
2025-01-19 07:19:35.22	19.72	12.42	
2025-01-19 07:19:35.42	19.69	12.41	
2025-01-19 07:19:35.63	19.65	12.41	
2025-01-19 07:19:35.83	19.61	12.41	
2025-01-19 07:19:36.03	19.57	12.40	
2025-01-19 07:19:36.24	19.53	12.40	
2025-01-19 07:19:36.44	19.49	12.40	
2025-01-19 07:19:36.64	19.45	12.39	
2025-01-19 07:19:36.84	19.41	12.39	
2025-01-19 07:19:37.05	19.37	12.39	
2025-01-19 07:19:37.25	19.34	12.39	
2025-01-19 07:19:37.45	19.30	12.38	
2025-01-19 07:19:37.66	19.26	12.38	
2025-01-19 07:19:37.86	19.22	12.38	
2025-01-19 07:19:38.06	19.18	12.37	
2025-01-19 07:19:38.27	19.14	12.37	
2025-01-19 07:19:38.47	19.10	12.37	
2025-01-19 07:19:38.67	19.06	12.36	
2025-01-19 07:19:38.88	19.02	12.36	
2025-01-19 07:19:39.08	18.99	12.36	
2025-01-19 07:19:39.28	18.95	12.35	
2025-01-19 07:19:39.48	18.91	12.35	
2025-01-19 07:19:39.69	18.87	12.35	
2025-01-19 07:19:39.89	18.83	12.34	
2025-01-19 07:19:40.09	18.79	12.34	
2025-01-19 07:19:40.30	18.75	12.34	
2025-01-19 07:19:40.50	18.72	12.33	
2025-01-19 07:19:40.70	18.68	12.33	
2025-01-19 07:19:40.91	18.64	12.33	
2025-01-19 07:19:41.11	18.60	12.32	
2025-01-19 07:19:41.31	18.56	12.32	
2025-01-19 07:19:41.52	18.52	12.32	
2025-01-19 07:19:41.72	18.48	12.31	
2025-01-19 07:19:41.92	18.45	12.31	
2025-01-19 07:19:42.12	18.41	12.31	
2025-01-19 07:19:42.33	18.37	12.30	
2025-01-19 07:19:42.53	18.33	12.30	
2025-01-19 07:19:42.73	18.29	12.30	
2025-01-19 07:19:42.94	18.25	12.29	
2025-01-19 07:19:43.14	18.21	12.29	
2025-01-19 07:19:43.34	18.18	12.29	
2025-01-19 07:19:43.55	18.14	12.28	
2025-01-19 07:19:43.75	18.10	12.28	
2025-01-19 07:19:43.95	18.06	12.28	
2025-01-19 07:19:44.16	18.02	12.27	
2025-01-19 07:19:44.36	17.98	12.27	
2025-01-19 07:19:44.56	17.94	12.26	
2025-01-19 07:19:44.76	17.91	12.26	
2025-01-19 07:19:44.97	17.87	12.26	
2025-01-19 07:19:45.17	17.83	12.25	
2025-01-19 07:19:45.37	17.79	12.25	
2025-01-19 07:19:45.58	17.75	12.25	
2025-01-19 07:19:45.78	17.71	12.24	
2025-01-19 07:19:45.98	17.68	12.24	
2025-01-19 07:19:46.19	17.64	12.24	
2025-01-19 07:19:46.39	17.60	12.23	
2025-01-19 07:19:46.59	17.56	12.23	
2025-01-19 07:19:46.80	17.52	12.22	
2025-01-19 07:19:47.00	17.48	12.22	
2025-01-19 07:19:47.20	17.44	12.22	
2025-01-19 07:19:47.40	17.41	12.21	
2025-01-19 07:19:47.61	17.37	12.21	
2025-01-19 07:19:47.81	17.33	12.21	
2025-01-19 07:19:48.01	17.29	12.20	
2025-01-19 07:19:48.22	17.25	12.20	
2025-01-19 07:19:48.42	17.21	12.19	
2025-01-19 07:19:48.62	17.18	12.19	
2025-01-19 07:19:48.83	17.14	12.19	
2025-01-19 07:19:49.03	17.10	12.18	
2025-01-19 07:19:49.23	17.06	12.18	
2025-01-19 07:19:49.44	17.02	12.18	
2025-01-19 07:19:49.64	16.98	12.17	
2025-01-19 07:19:49.84	16.95	12.17	
2025-01-19 07:19:50.04	16.91	12.16	
2025-01-19 07:19:50.25	16.87	12.16	
2025-01-19 07:19:50.45	16.83	12.16	
2025-01-19 07:19:50.65	16.79	12.15	
2025-01-19 07:19:50.86	16.75	12.15	
2025-01-19 07:19:51.06	16.72	12.14	
2025-01-19 07:19:51.26	16.68	12.14	
2025-01-19 07:19:51.47	16.64	12.14	
2025-01-19 07:19:51.67	16.60	12.13	
2025-01-19 07:19:51.87	16.56	12.13	
2025-01-19 07:19:52.08	16.53	12.12	
2025-01-19 07:19:52.28	16.49	12.12	
2025-01-19 07:19:52.48	16.45	12.12	
2025-01-19 07:19:52.68	16.41	12.11	
2025-01-19 07:19:52.89	16.37	12.11	
2025-01-19 07:19:53.09	16.34	12.10	
2025-01-19 07:19:53.29	16.30	12.10	
2025-01-19 07:19:53.50	16.26	12.10	
2025-01-19 07:19:53.70	16.22	12.09	
2025-01-19 07:19:53.90	16.18	12.09	
2025-01-19 07:19:54.11	16.14	12.08	
2025-01-19 07:19:54.31	16.11	12.08	
2025-01-19 07:19:54.51	16.07	12.07	
2025-01-19 07:19:54.72	16.03	12.07	
2025-01-19 07:19:54.92	15.99	12.07	
2025-01-19 07:19:55.12	15.96	12.06	
2025-01-19 07:19:55.32	15.92	12.06	
2025-01-19 07:19:55.53	15.88	12.05	
2025-01-19 07:19:55.73	15.84	12.05	
2025-01-19 07:19:55.93	15.80	12.05	
2025-01-19 07:19:56.14	15.77	12.04	
