passes_logs/2025/01/19/SPB_Silybum_02/SPB_Silybum_02__20250119_091914_AQUA_rec.log

#Pass ID: 20250119_091914_AQUA
#Satellite: AQUA
#Configuration: AQUA
#Start time: 2025-01-19 09:19:13

#Version: 2.0.20230423
#Station: SPB_Silybum_02
#Location: 30.233357 lon 59.946436 lat
#TLE: 1 27424U 02022A   25018.83604057  .00002232  00000+0  46784-3 0  9994
#TLE: 2 27424  98.3597 335.5348 0001881 107.7354 281.6526 14.60700248208189

#Time	Az	El	Level	Level2	SNR	BER	Gain	Gain2
2025-01-19 09:19:15.55	96.48	4.06	
2025-01-19 09:19:15.75	96.46	4.07	
2025-01-19 09:19:15.96	96.44	4.08	
2025-01-19 09:19:16.16	96.42	4.10	
2025-01-19 09:19:16.36	96.40	4.11	
2025-01-19 09:19:16.57	96.38	4.12	
2025-01-19 09:19:16.77	96.36	4.13	
2025-01-19 09:19:16.97	96.34	4.14	
2025-01-19 09:19:17.17	96.32	4.15	
2025-01-19 09:19:17.38	96.30	4.17	
2025-01-19 09:19:17.58	96.28	4.18	
2025-01-19 09:19:17.78	96.26	4.19	
2025-01-19 09:19:17.99	96.24	4.20	
2025-01-19 09:19:18.19	96.22	4.21	
2025-01-19 09:19:18.39	96.20	4.22	
2025-01-19 09:19:18.60	96.17	4.24	
2025-01-19 09:19:18.80	96.15	4.25	
2025-01-19 09:19:19.00	96.13	4.26	
2025-01-19 09:19:19.21	96.11	4.27	
2025-01-19 09:19:19.41	96.09	4.28	
2025-01-19 09:19:19.61	96.07	4.29	
2025-01-19 09:19:19.81	96.05	4.31	
2025-01-19 09:19:20.02	96.03	4.32	
2025-01-19 09:19:20.22	96.01	4.33	
2025-01-19 09:19:20.42	95.99	4.34	
2025-01-19 09:19:20.63	95.97	4.35	
2025-01-19 09:19:20.83	95.95	4.36	
2025-01-19 09:19:21.03	95.93	4.38	
2025-01-19 09:19:21.24	95.91	4.39	
2025-01-19 09:19:21.44	95.89	4.40	
2025-01-19 09:19:21.64	95.87	4.41	
2025-01-19 09:19:21.85	95.84	4.42	
2025-01-19 09:19:22.05	95.82	4.44	
2025-01-19 09:19:22.25	95.80	4.45	
2025-01-19 09:19:22.45	95.78	4.46	
2025-01-19 09:19:22.66	95.76	4.47	
2025-01-19 09:19:22.86	95.74	4.48	
2025-01-19 09:19:23.06	95.72	4.49	
2025-01-19 09:19:23.27	95.70	4.51	
2025-01-19 09:19:23.47	95.68	4.52	
2025-01-19 09:19:23.67	95.66	4.53	
2025-01-19 09:19:23.88	95.64	4.54	
2025-01-19 09:19:24.08	95.61	4.55	
2025-01-19 09:19:24.28	95.59	4.56	
2025-01-19 09:19:24.49	95.57	4.58	
2025-01-19 09:19:24.69	95.55	4.59	
2025-01-19 09:19:24.89	95.53	4.60	
2025-01-19 09:19:25.09	95.51	4.61	
2025-01-19 09:19:25.30	95.49	4.62	
2025-01-19 09:19:25.50	95.47	4.64	
2025-01-19 09:19:25.70	95.45	4.65	
2025-01-19 09:19:25.91	95.42	4.66	
2025-01-19 09:19:26.11	95.40	4.67	
2025-01-19 09:19:26.31	95.38	4.68	
2025-01-19 09:19:26.52	95.36	4.69	
2025-01-19 09:19:26.72	95.34	4.71	
2025-01-19 09:19:26.92	95.32	4.72	
2025-01-19 09:19:27.13	95.30	4.73	
2025-01-19 09:19:27.33	95.28	4.74	
2025-01-19 09:19:27.53	95.26	4.75	
2025-01-19 09:19:27.73	95.23	4.77	
2025-01-19 09:19:27.94	95.21	4.78	
2025-01-19 09:19:28.14	95.19	4.79	
2025-01-19 09:19:28.34	95.17	4.80	
2025-01-19 09:19:28.55	95.15	4.81	
2025-01-19 09:19:28.75	95.13	4.82	
2025-01-19 09:19:28.95	95.11	4.84	
2025-01-19 09:19:29.16	95.08	4.85	
2025-01-19 09:19:29.36	95.06	4.86	
2025-01-19 09:19:29.56	95.04	4.87	
2025-01-19 09:19:29.77	95.02	4.88	
2025-01-19 09:19:29.97	95.00	4.90	
2025-01-19 09:19:30.17	94.98	4.91	
2025-01-19 09:19:30.37	94.96	4.92	
2025-01-19 09:19:30.58	94.93	4.93	
2025-01-19 09:19:30.78	94.91	4.94	
2025-01-19 09:19:30.98	94.89	4.95	
2025-01-19 09:19:31.19	94.87	4.97	
2025-01-19 09:19:31.39	94.85	4.98	
2025-01-19 09:19:31.59	94.83	4.99	
2025-01-19 09:19:31.80	94.80	5.00	
2025-01-19 09:19:32.00	94.78	5.01	
2025-01-19 09:19:32.20	94.76	5.03	
2025-01-19 09:19:32.41	94.74	5.04	
2025-01-19 09:19:32.61	94.72	5.05	
2025-01-19 09:19:32.81	94.69	5.06	
2025-01-19 09:19:33.01	94.67	5.07	
2025-01-19 09:19:33.22	94.65	5.09	
2025-01-19 09:19:33.42	94.63	5.10	
2025-01-19 09:19:33.62	94.61	5.11	
2025-01-19 09:19:33.83	94.58	5.12	
2025-01-19 09:19:34.03	94.56	5.13	
2025-01-19 09:19:34.23	94.54	5.14	
2025-01-19 09:19:34.44	94.52	5.16	
2025-01-19 09:19:34.64	94.50	5.17	
2025-01-19 09:19:34.84	94.48	5.18	
2025-01-19 09:19:35.05	94.45	5.19	
2025-01-19 09:19:35.25	94.43	5.20	
2025-01-19 09:19:35.45	94.41	5.22	
2025-01-19 09:19:35.65	94.39	5.23	
2025-01-19 09:19:35.86	94.36	5.24	
2025-01-19 09:19:36.06	94.34	5.25	
2025-01-19 09:19:36.26	94.32	5.26	
2025-01-19 09:19:36.47	94.30	5.28	
2025-01-19 09:19:36.67	94.28	5.29	
2025-01-19 09:19:36.87	94.25	5.30	
2025-01-19 09:19:37.08	94.23	5.31	
2025-01-19 09:19:37.28	94.21	5.32	
2025-01-19 09:19:37.48	94.19	5.34	
2025-01-19 09:19:37.69	94.16	5.35	
2025-01-19 09:19:37.89	94.14	5.36	
2025-01-19 09:19:38.09	94.12	5.37	
2025-01-19 09:19:38.29	94.10	5.38	
2025-01-19 09:19:38.50	94.08	5.40	
2025-01-19 09:19:38.70	94.05	5.41	
2025-01-19 09:19:38.90	94.03	5.42	
2025-01-19 09:19:39.11	94.01	5.43	
2025-01-19 09:19:39.31	93.99	5.44	
2025-01-19 09:19:39.51	93.96	5.45	
2025-01-19 09:19:39.72	93.94	5.47	
2025-01-19 09:19:39.92	93.92	5.48	
2025-01-19 09:19:40.12	93.90	5.49	
2025-01-19 09:19:40.33	93.87	5.50	
2025-01-19 09:19:40.53	93.85	5.51	
2025-01-19 09:19:40.73	93.83	5.53	
2025-01-19 09:19:40.93	93.81	5.54	
2025-01-19 09:19:41.14	93.78	5.55	
2025-01-19 09:19:41.34	93.76	5.56	
2025-01-19 09:19:41.54	93.74	5.57	
2025-01-19 09:19:41.75	93.71	5.59	
2025-01-19 09:19:41.95	93.69	5.60	
2025-01-19 09:19:42.15	93.67	5.61	
2025-01-19 09:19:42.36	93.65	5.62	
2025-01-19 09:19:42.56	93.62	5.63	
2025-01-19 09:19:42.76	93.60	5.65	
2025-01-19 09:19:42.97	93.58	5.66	
2025-01-19 09:19:43.17	93.56	5.67	
2025-01-19 09:19:43.37	93.53	5.68	
2025-01-19 09:19:43.57	93.51	5.69	
2025-01-19 09:19:43.78	93.49	5.71	
2025-01-19 09:19:43.98	93.46	5.72	
2025-01-19 09:19:44.18	93.44	5.73	
2025-01-19 09:19:44.39	93.42	5.74	
2025-01-19 09:19:44.59	93.40	5.75	
2025-01-19 09:19:44.79	93.37	5.77	
2025-01-19 09:19:45.00	93.35	5.78	
2025-01-19 09:19:45.20	93.33	5.79	
2025-01-19 09:19:45.40	93.30	5.80	
2025-01-19 09:19:45.61	93.28	5.81	
2025-01-19 09:19:45.81	93.26	5.83	
2025-01-19 09:19:46.01	93.23	5.84	
2025-01-19 09:19:46.21	93.21	5.85	
2025-01-19 09:19:46.42	93.19	5.86	
2025-01-19 09:19:46.62	93.16	5.87	
2025-01-19 09:19:46.82	93.14	5.89	
2025-01-19 09:19:47.03	93.12	5.90	
2025-01-19 09:19:47.23	93.09	5.91	
2025-01-19 09:19:47.43	93.07	5.92	
2025-01-19 09:19:47.64	93.05	5.93	
2025-01-19 09:19:47.84	93.02	5.95	
2025-01-19 09:19:48.04	93.00	5.96	
2025-01-19 09:19:48.25	92.98	5.97	
2025-01-19 09:19:48.45	92.95	5.98	
2025-01-19 09:19:48.65	92.93	5.99	
2025-01-19 09:19:48.85	92.91	6.01	
2025-01-19 09:19:49.06	92.88	6.02	
2025-01-19 09:19:49.26	92.86	6.03	
2025-01-19 09:19:49.46	92.84	6.04	
2025-01-19 09:19:49.67	92.81	6.06	
2025-01-19 09:19:49.87	92.79	6.07	
2025-01-19 09:19:50.07	92.77	6.08	
2025-01-19 09:19:50.28	92.74	6.09	
2025-01-19 09:19:50.48	92.72	6.10	
2025-01-19 09:19:50.68	92.70	6.12	
2025-01-19 09:19:50.89	92.67	6.13	
2025-01-19 09:19:51.09	92.65	6.14	
2025-01-19 09:19:51.29	92.62	6.15	
2025-01-19 09:19:51.49	92.60	6.16	
2025-01-19 09:19:51.70	92.58	6.18	
2025-01-19 09:19:51.90	92.55	6.19	
2025-01-19 09:19:52.10	92.53	6.20	
2025-01-19 09:19:52.31	92.51	6.21	
2025-01-19 09:19:52.51	92.48	6.22	
2025-01-19 09:19:52.71	92.46	6.24	
2025-01-19 09:19:52.92	92.43	6.25	
2025-01-19 09:19:53.12	92.41	6.26	
2025-01-19 09:19:53.32	92.39	6.27	
2025-01-19 09:19:53.53	92.36	6.28	
2025-01-19 09:19:53.73	92.34	6.30	
2025-01-19 09:19:53.93	92.31	6.31	
2025-01-19 09:19:54.13	92.29	6.32	
2025-01-19 09:19:54.34	92.27	6.33	
2025-01-19 09:19:54.54	92.24	6.35	
2025-01-19 09:19:54.74	92.22	6.36	
2025-01-19 09:19:54.95	92.19	6.37	
2025-01-19 09:19:55.15	92.17	6.38	
2025-01-19 09:19:55.35	92.15	6.39	
2025-01-19 09:19:55.56	92.12	6.41	
2025-01-19 09:19:55.76	92.10	6.42	
2025-01-19 09:19:55.96	92.07	6.43	
2025-01-19 09:19:56.17	92.05	6.44	
2025-01-19 09:19:56.37	92.02	6.45	
2025-01-19 09:19:56.57	92.00	6.47	
2025-01-19 09:19:56.77	91.98	6.48	
2025-01-19 09:19:56.98	91.95	6.49	
2025-01-19 09:19:57.18	91.93	6.50	
2025-01-19 09:19:57.38	91.90	6.51	
2025-01-19 09:19:57.59	91.88	6.53	
2025-01-19 09:19:57.79	91.85	6.54	
2025-01-19 09:19:57.99	91.83	6.55	
2025-01-19 09:19:58.20	91.81	6.56	
2025-01-19 09:19:58.40	91.78	6.58	
2025-01-19 09:19:58.60	91.76	6.59	
2025-01-19 09:19:58.81	91.73	6.60	
2025-01-19 09:19:59.01	91.71	6.61	
2025-01-19 09:19:59.21	91.68	6.62	
2025-01-19 09:19:59.41	91.66	6.64	
2025-01-19 09:19:59.62	91.63	6.65	
2025-01-19 09:19:59.82	91.61	6.66	
2025-01-19 09:20:00.02	91.58	6.67	
2025-01-19 09:20:00.23	91.56	6.68	
2025-01-19 09:20:00.43	91.53	6.70	
2025-01-19 09:20:00.63	91.51	6.71	
2025-01-19 09:20:00.84	91.49	6.72	
2025-01-19 09:20:01.04	91.46	6.73	
2025-01-19 09:20:01.24	91.44	6.75	
2025-01-19 09:20:01.45	91.41	6.76	
2025-01-19 09:20:01.65	91.39	6.77	
2025-01-19 09:20:01.85	91.36	6.78	
2025-01-19 09:20:02.05	91.34	6.79	
2025-01-19 09:20:02.26	91.31	6.81	
2025-01-19 09:20:02.46	91.29	6.82	
2025-01-19 09:20:02.66	91.26	6.83	
2025-01-19 09:20:02.87	91.24	6.84	
2025-01-19 09:20:03.07	91.21	6.85	
2025-01-19 09:20:03.27	91.19	6.87	
2025-01-19 09:20:03.48	91.16	6.88	
2025-01-19 09:20:03.68	91.14	6.89	
2025-01-19 09:20:03.88	91.11	6.90	
2025-01-19 09:20:04.09	91.09	6.92	
2025-01-19 09:20:04.29	91.06	6.93	
2025-01-19 09:20:04.49	91.04	6.94	
2025-01-19 09:20:04.69	91.01	6.95	
2025-01-19 09:20:04.90	90.99	6.96	
2025-01-19 09:20:05.10	90.96	6.98	
2025-01-19 09:20:05.30	90.94	6.99	
2025-01-19 09:20:05.51	90.91	7.00	
2025-01-19 09:20:05.71	90.88	7.01	
2025-01-19 09:20:05.91	90.86	7.03	
2025-01-19 09:20:06.12	90.83	7.04	
2025-01-19 09:20:06.32	90.81	7.05	
2025-01-19 09:20:06.52	90.78	7.06	
2025-01-19 09:20:06.73	90.76	7.07	
2025-01-19 09:20:06.93	90.73	7.09	
2025-01-19 09:20:07.13	90.71	7.10	
2025-01-19 09:20:07.33	90.68	7.11	
2025-01-19 09:20:07.54	90.66	7.12	
2025-01-19 09:20:07.74	90.63	7.14	
2025-01-19 09:20:07.94	90.61	7.15	
2025-01-19 09:20:08.15	90.58	7.16	
2025-01-19 09:20:08.35	90.55	7.17	
2025-01-19 09:20:08.55	90.53	7.18	
2025-01-19 09:20:08.76	90.50	7.20	
2025-01-19 09:20:08.96	90.48	7.21	
2025-01-19 09:20:09.16	90.45	7.22	
2025-01-19 09:20:09.37	90.42	7.23	
2025-01-19 09:20:09.57	90.40	7.25	
2025-01-19 09:20:09.77	90.37	7.26	
2025-01-19 09:20:09.97	90.35	7.27	
2025-01-19 09:20:10.18	90.32	7.28	
2025-01-19 09:20:10.38	90.30	7.29	
2025-01-19 09:20:10.58	90.27	7.31	
2025-01-19 09:20:10.79	90.24	7.32	
2025-01-19 09:20:10.99	90.22	7.33	
2025-01-19 09:20:11.19	90.19	7.34	
2025-01-19 09:20:11.40	90.17	7.36	
2025-01-19 09:20:11.60	90.14	7.37	
2025-01-19 09:20:11.80	90.11	7.38	
2025-01-19 09:20:12.01	90.09	7.39	
2025-01-19 09:20:12.21	90.06	7.40	
2025-01-19 09:20:12.41	90.04	7.42	
2025-01-19 09:20:12.61	90.01	7.43	
2025-01-19 09:20:12.82	89.98	7.44	
2025-01-19 09:20:13.02	89.96	7.45	
2025-01-19 09:20:13.22	89.93	7.47	
2025-01-19 09:20:13.43	89.91	7.48	
2025-01-19 09:20:13.63	89.88	7.49	
2025-01-19 09:20:13.83	89.85	7.50	
2025-01-19 09:20:14.04	89.83	7.51	
2025-01-19 09:20:14.24	89.80	7.53	
2025-01-19 09:20:14.44	89.77	7.54	
2025-01-19 09:20:14.65	89.75	7.55	
2025-01-19 09:20:14.85	89.72	7.56	
2025-01-19 09:20:15.05	89.70	7.58	
2025-01-19 09:20:15.25	89.67	7.59	
2025-01-19 09:20:15.46	89.64	7.60	
2025-01-19 09:20:15.66	89.62	7.61	
2025-01-19 09:20:15.86	89.59	7.62	
2025-01-19 09:20:16.07	89.56	7.64	
2025-01-19 09:20:16.27	89.54	7.65	
2025-01-19 09:20:16.47	89.51	7.66	
2025-01-19 09:20:16.68	89.48	7.67	
2025-01-19 09:20:16.88	89.46	7.69	
2025-01-19 09:20:17.08	89.43	7.70	
2025-01-19 09:20:17.29	89.40	7.71	
2025-01-19 09:20:17.49	89.38	7.72	
2025-01-19 09:20:17.69	89.35	7.73	
2025-01-19 09:20:17.89	89.32	7.75	
2025-01-19 09:20:18.10	89.30	7.76	
2025-01-19 09:20:18.30	89.27	7.77	
2025-01-19 09:20:18.50	89.24	7.78	
2025-01-19 09:20:18.71	89.21	7.80	
2025-01-19 09:20:18.91	89.19	7.81	
2025-01-19 09:20:19.11	89.16	7.82	
2025-01-19 09:20:19.32	89.13	7.83	
2025-01-19 09:20:19.52	89.11	7.85	
2025-01-19 09:20:19.72	89.08	7.86	
2025-01-19 09:20:19.93	89.05	7.87	
2025-01-19 09:20:20.13	89.03	7.88	
2025-01-19 09:20:20.33	89.00	7.89	
2025-01-19 09:20:20.53	88.97	7.91	
2025-01-19 09:20:20.74	88.95	7.92	
2025-01-19 09:20:20.94	88.92	7.93	
2025-01-19 09:20:21.14	88.89	7.94	
2025-01-19 09:20:21.35	88.86	7.96	
2025-01-19 09:20:21.55	88.84	7.97	
2025-01-19 09:20:21.75	88.81	7.98	
2025-01-19 09:20:21.96	88.78	7.99	
2025-01-19 09:20:22.16	88.75	8.01	
2025-01-19 09:20:22.36	88.73	8.02	
2025-01-19 09:20:22.57	88.70	8.03	
2025-01-19 09:20:22.77	88.67	8.04	
2025-01-19 09:20:22.97	88.65	8.05	
2025-01-19 09:20:23.17	88.62	8.07	
2025-01-19 09:20:23.38	88.59	8.08	
2025-01-19 09:20:23.58	88.56	8.09	
2025-01-19 09:20:23.78	88.54	8.10	
2025-01-19 09:20:23.99	88.51	8.12	
2025-01-19 09:20:24.19	88.48	8.13	
2025-01-19 09:20:24.39	88.45	8.14	
2025-01-19 09:20:24.60	88.43	8.15	
2025-01-19 09:20:24.80	88.40	8.17	
2025-01-19 09:20:25.00	88.37	8.18	
2025-01-19 09:20:25.21	88.34	8.19	
2025-01-19 09:20:25.41	88.31	8.20	
2025-01-19 09:20:25.61	88.29	8.21	
2025-01-19 09:20:25.81	88.26	8.23	
2025-01-19 09:20:26.02	88.23	8.24	
2025-01-19 09:20:26.22	88.20	8.25	
2025-01-19 09:20:26.42	88.18	8.26	
2025-01-19 09:20:26.63	88.15	8.28	
2025-01-19 09:20:26.83	88.12	8.29	
2025-01-19 09:20:27.03	88.09	8.30	
2025-01-19 09:20:27.24	88.06	8.31	
2025-01-19 09:20:27.44	88.04	8.32	
2025-01-19 09:20:27.64	88.01	8.34	
2025-01-19 09:20:27.85	87.98	8.35	
2025-01-19 09:20:28.05	87.95	8.36	
2025-01-19 09:20:28.25	87.92	8.37	
2025-01-19 09:20:28.45	87.90	8.39	
2025-01-19 09:20:28.66	87.87	8.40	
2025-01-19 09:20:28.86	87.84	8.41	
2025-01-19 09:20:29.06	87.81	8.42	
2025-01-19 09:20:29.27	87.78	8.44	
2025-01-19 09:20:29.47	87.76	8.45	
2025-01-19 09:20:29.67	87.73	8.46	
2025-01-19 09:20:29.88	87.70	8.47	
2025-01-19 09:20:30.08	87.67	8.48	
2025-01-19 09:20:30.28	87.64	8.50	
2025-01-19 09:20:30.49	87.61	8.51	
2025-01-19 09:20:30.69	87.59	8.52	
2025-01-19 09:20:30.89	87.56	8.53	
2025-01-19 09:20:31.09	87.53	8.55	
2025-01-19 09:20:31.30	87.50	8.56	
2025-01-19 09:20:31.50	87.47	8.57	
2025-01-19 09:20:31.70	87.44	8.58	
2025-01-19 09:20:31.91	87.41	8.60	
2025-01-19 09:20:32.11	87.39	8.61	
2025-01-19 09:20:32.31	87.36	8.62	
2025-01-19 09:20:32.52	87.33	8.63	
2025-01-19 09:20:32.72	87.30	8.65	
2025-01-19 09:20:32.92	87.27	8.66	
2025-01-19 09:20:33.13	87.24	8.67	
2025-01-19 09:20:33.33	87.21	8.68	
2025-01-19 09:20:33.53	87.19	8.69	
2025-01-19 09:20:33.74	87.16	8.71	
2025-01-19 09:20:33.94	87.13	8.72	
2025-01-19 09:20:34.14	87.10	8.73	
2025-01-19 09:20:34.34	87.07	8.74	
2025-01-19 09:20:34.55	87.04	8.76	
2025-01-19 09:20:34.75	87.01	8.77	
2025-01-19 09:20:34.95	86.98	8.78	
2025-01-19 09:20:35.16	86.95	8.79	
2025-01-19 09:20:35.36	86.93	8.81	
2025-01-19 09:20:35.56	86.90	8.82	
2025-01-19 09:20:35.77	86.87	8.83	
2025-01-19 09:20:35.97	86.84	8.84	
2025-01-19 09:20:36.17	86.81	8.85	
2025-01-19 09:20:36.38	86.78	8.87	
2025-01-19 09:20:36.58	86.75	8.88	
2025-01-19 09:20:36.78	86.72	8.89	
2025-01-19 09:20:36.98	86.69	8.90	
2025-01-19 09:20:37.19	86.66	8.92	
2025-01-19 09:20:37.39	86.64	8.93	
2025-01-19 09:20:37.59	86.61	8.94	
2025-01-19 09:20:37.80	86.58	8.95	
2025-01-19 09:20:38.00	86.55	8.97	
2025-01-19 09:20:38.20	86.52	8.98	
2025-01-19 09:20:38.41	86.49	8.99	
2025-01-19 09:20:38.61	86.46	9.00	
2025-01-19 09:20:38.81	86.43	9.01	
2025-01-19 09:20:39.02	86.40	9.03	
2025-01-19 09:20:39.22	86.37	9.04	
2025-01-19 09:20:39.42	86.34	9.05	
2025-01-19 09:20:39.62	86.31	9.06	
2025-01-19 09:20:39.83	86.28	9.08	
2025-01-19 09:20:40.03	86.25	9.09	
2025-01-19 09:20:40.23	86.22	9.10	
2025-01-19 09:20:40.44	86.19	9.11	
2025-01-19 09:20:40.64	86.16	9.13	
2025-01-19 09:20:40.84	86.13	9.14	
2025-01-19 09:20:41.05	86.10	9.15	
2025-01-19 09:20:41.25	86.07	9.16	
2025-01-19 09:20:41.45	86.04	9.17	
2025-01-19 09:20:41.66	86.01	9.19	
2025-01-19 09:20:41.86	85.98	9.20	
2025-01-19 09:20:42.06	85.96	9.21	
2025-01-19 09:20:42.26	85.93	9.22	
2025-01-19 09:20:42.47	85.89	9.24	
2025-01-19 09:20:42.67	85.87	9.25	
2025-01-19 09:20:42.87	85.84	9.26	
2025-01-19 09:20:43.08	85.80	9.27	
2025-01-19 09:20:43.28	85.78	9.29	
2025-01-19 09:20:43.48	85.75	9.30	
2025-01-19 09:20:43.69	85.71	9.31	
2025-01-19 09:20:43.89	85.68	9.32	
2025-01-19 09:20:44.09	85.65	9.33	
2025-01-19 09:20:44.30	85.62	9.35	
2025-01-19 09:20:44.50	85.59	9.36	
2025-01-19 09:20:44.70	85.56	9.37	
2025-01-19 09:20:44.90	85.53	9.38	
2025-01-19 09:20:45.11	85.50	9.40	
2025-01-19 09:20:45.31	85.47	9.41	
2025-01-19 09:20:45.51	85.44	9.42	
2025-01-19 09:20:45.72	85.41	9.43	
2025-01-19 09:20:45.92	85.38	9.45	
2025-01-19 09:20:46.12	85.35	9.46	
2025-01-19 09:20:46.33	85.32	9.47	
2025-01-19 09:20:46.53	85.29	9.48	
2025-01-19 09:20:46.73	85.26	9.49	
2025-01-19 09:20:46.94	85.23	9.51	
2025-01-19 09:20:47.14	85.20	9.52	
2025-01-19 09:20:47.34	85.17	9.53	
2025-01-19 09:20:47.54	85.14	9.54	
2025-01-19 09:20:47.75	85.11	9.56	
2025-01-19 09:20:47.95	85.08	9.57	
2025-01-19 09:20:48.15	85.05	9.58	
2025-01-19 09:20:48.36	85.01	9.59	
2025-01-19 09:20:48.56	84.98	9.61	
2025-01-19 09:20:48.76	84.95	9.62	
2025-01-19 09:20:48.97	84.92	9.63	
2025-01-19 09:20:49.17	84.89	9.64	
2025-01-19 09:20:49.37	84.86	9.65	
2025-01-19 09:20:49.58	84.83	9.67	
2025-01-19 09:20:49.78	84.80	9.68	
2025-01-19 09:20:49.98	84.77	9.69	
2025-01-19 09:20:50.18	84.74	9.70	
2025-01-19 09:20:50.39	84.71	9.72	
2025-01-19 09:20:50.59	84.67	9.73	
2025-01-19 09:20:50.79	84.64	9.74	
2025-01-19 09:20:51.00	84.61	9.75	
2025-01-19 09:20:51.20	84.58	9.77	
2025-01-19 09:20:51.40	84.55	9.78	
2025-01-19 09:20:51.61	84.52	9.79	
2025-01-19 09:20:51.81	84.49	9.80	
2025-01-19 09:20:52.01	84.46	9.81	
2025-01-19 09:20:52.22	84.42	9.83	
2025-01-19 09:20:52.42	84.39	9.84	
2025-01-19 09:20:52.62	84.36	9.85	
2025-01-19 09:20:52.82	84.33	9.86	
2025-01-19 09:20:53.03	84.30	9.88	
2025-01-19 09:20:53.23	84.27	9.89	
2025-01-19 09:20:53.43	84.24	9.90	
2025-01-19 09:20:53.64	84.21	9.91	
2025-01-19 09:20:53.84	84.17	9.93	
2025-01-19 09:20:54.04	84.14	9.94	
2025-01-19 09:20:54.25	84.11	9.95	
2025-01-19 09:20:54.45	84.08	9.96	
2025-01-19 09:20:54.65	84.05	9.97	
2025-01-19 09:20:54.86	84.02	9.99	
2025-01-19 09:20:55.06	83.98	10.00	
2025-01-19 09:20:55.26	83.95	10.01	
2025-01-19 09:20:55.46	83.92	10.02	
2025-01-19 09:20:55.67	83.89	10.04	
2025-01-19 09:20:55.87	83.86	10.05	
2025-01-19 09:20:56.07	83.83	10.06	
2025-01-19 09:20:56.28	83.79	10.07	
2025-01-19 09:20:56.48	83.76	10.08	
2025-01-19 09:20:56.68	83.73	10.10	
2025-01-19 09:20:56.89	83.70	10.11	
2025-01-19 09:20:57.09	83.67	10.12	
2025-01-19 09:20:57.29	83.63	10.13	
2025-01-19 09:20:57.50	83.60	10.15	
2025-01-19 09:20:57.70	83.57	10.16	
2025-01-19 09:20:57.90	83.54	10.17	
2025-01-19 09:20:58.10	83.51	10.18	
2025-01-19 09:20:58.31	83.47	10.20	
2025-01-19 09:20:58.51	83.44	10.21	
2025-01-19 09:20:58.71	83.41	10.22	
2025-01-19 09:20:58.92	83.38	10.23	
2025-01-19 09:20:59.12	83.34	10.24	
2025-01-19 09:20:59.32	83.31	10.26	
2025-01-19 09:20:59.53	83.28	10.27	
2025-01-19 09:20:59.73	83.25	10.28	
2025-01-19 09:20:59.93	83.22	10.29	
2025-01-19 09:21:00.14	83.18	10.31	
2025-01-19 09:21:00.34	83.15	10.32	
2025-01-19 09:21:00.54	83.12	10.33	
2025-01-19 09:21:00.74	83.09	10.34	
2025-01-19 09:21:00.95	83.05	10.35	
2025-01-19 09:21:01.15	83.02	10.37	
2025-01-19 09:21:01.35	82.99	10.38	
2025-01-19 09:21:01.56	82.95	10.39	
2025-01-19 09:21:01.76	82.92	10.40	
2025-01-19 09:21:01.96	82.89	10.42	
2025-01-19 09:21:02.17	82.86	10.43	
2025-01-19 09:21:02.37	82.82	10.44	
2025-01-19 09:21:02.57	82.79	10.45	
2025-01-19 09:21:02.78	82.76	10.46	
2025-01-19 09:21:02.98	82.73	10.48	
2025-01-19 09:21:03.18	82.69	10.49	
2025-01-19 09:21:03.38	82.66	10.50	
2025-01-19 09:21:03.59	82.63	10.51	
2025-01-19 09:21:03.79	82.59	10.53	
2025-01-19 09:21:03.99	82.56	10.54	
2025-01-19 09:21:04.20	82.53	10.55	
2025-01-19 09:21:04.40	82.49	10.56	
2025-01-19 09:21:04.60	82.46	10.57	
2025-01-19 09:21:04.81	82.43	10.59	
2025-01-19 09:21:05.01	82.40	10.60	
2025-01-19 09:21:05.21	82.36	10.61	
2025-01-19 09:21:05.42	82.33	10.62	
2025-01-19 09:21:05.62	82.30	10.64	
2025-01-19 09:21:05.82	82.26	10.65	
2025-01-19 09:21:06.02	82.23	10.66	
2025-01-19 09:21:06.23	82.20	10.67	
2025-01-19 09:21:06.43	82.16	10.68	
2025-01-19 09:21:06.63	82.13	10.70	
2025-01-19 09:21:06.84	82.10	10.71	
2025-01-19 09:21:07.04	82.06	10.72	
2025-01-19 09:21:07.24	82.03	10.73	
2025-01-19 09:21:07.45	81.99	10.75	
2025-01-19 09:21:07.65	81.96	10.76	
2025-01-19 09:21:07.85	81.93	10.77	
2025-01-19 09:21:08.06	81.89	10.78	
2025-01-19 09:21:08.26	81.86	10.79	
2025-01-19 09:21:08.46	81.83	10.81	
2025-01-19 09:21:08.66	81.79	10.82	
2025-01-19 09:21:08.87	81.76	10.83	
2025-01-19 09:21:09.07	81.73	10.84	
2025-01-19 09:21:09.27	81.69	10.85	
2025-01-19 09:21:09.48	81.66	10.87	
2025-01-19 09:21:09.68	81.62	10.88	
2025-01-19 09:21:09.88	81.59	10.89	
2025-01-19 09:21:10.09	81.56	10.90	
2025-01-19 09:21:10.29	81.52	10.91	
2025-01-19 09:21:10.49	81.49	10.93	
2025-01-19 09:21:10.70	81.45	10.94	
2025-01-19 09:21:10.90	81.42	10.95	
2025-01-19 09:21:11.10	81.39	10.96	
2025-01-19 09:21:11.30	81.35	10.98	
2025-01-19 09:21:11.51	81.32	10.99	
2025-01-19 09:21:11.71	81.28	11.00	
2025-01-19 09:21:11.91	81.25	11.01	
2025-01-19 09:21:12.12	81.22	11.02	
2025-01-19 09:21:12.32	81.18	11.04	
2025-01-19 09:21:12.52	81.15	11.05	
2025-01-19 09:21:12.73	81.11	11.06	
2025-01-19 09:21:12.93	81.08	11.07	
2025-01-19 09:21:13.13	81.05	11.08	
2025-01-19 09:21:13.34	81.01	11.10	
2025-01-19 09:21:13.54	80.98	11.11	
2025-01-19 09:21:13.74	80.94	11.12	
2025-01-19 09:21:13.94	80.91	11.13	
2025-01-19 09:21:14.15	80.87	11.15	
2025-01-19 09:21:14.35	80.84	11.16	
2025-01-19 09:21:14.55	80.80	11.17	
2025-01-19 09:21:14.76	80.77	11.18	
2025-01-19 09:21:14.96	80.73	11.19	
2025-01-19 09:21:15.16	80.70	11.21	
2025-01-19 09:21:15.37	80.66	11.22	
2025-01-19 09:21:15.57	80.63	11.23	
2025-01-19 09:21:15.77	80.60	11.24	
2025-01-19 09:21:15.98	80.56	11.25	
2025-01-19 09:21:16.18	80.53	11.27	
2025-01-19 09:21:16.38	80.49	11.28	
2025-01-19 09:21:16.58	80.46	11.29	
2025-01-19 09:21:16.79	80.42	11.30	
2025-01-19 09:21:16.99	80.39	11.31	
2025-01-19 09:21:17.19	80.35	11.33	
2025-01-19 09:21:17.40	80.32	11.34	
2025-01-19 09:21:17.60	80.28	11.35	
2025-01-19 09:21:17.80	80.25	11.36	
2025-01-19 09:21:18.01	80.21	11.37	
2025-01-19 09:21:18.21	80.18	11.39	
2025-01-19 09:21:18.41	80.14	11.40	
2025-01-19 09:21:18.62	80.10	11.41	
2025-01-19 09:21:18.82	80.07	11.42	
2025-01-19 09:21:19.02	80.04	11.43	
2025-01-19 09:21:19.22	80.00	11.45	
2025-01-19 09:21:19.43	79.96	11.46	
2025-01-19 09:21:19.63	79.93	11.47	
2025-01-19 09:21:19.83	79.89	11.48	
2025-01-19 09:21:20.04	79.86	11.49	
2025-01-19 09:21:20.24	79.82	11.51	
2025-01-19 09:21:20.44	79.79	11.52	
2025-01-19 09:21:20.65	79.75	11.53	
2025-01-19 09:21:20.85	79.72	11.54	
2025-01-19 09:21:21.05	79.68	11.55	
2025-01-19 09:21:21.26	79.64	11.57	
2025-01-19 09:21:21.46	79.61	11.58	
2025-01-19 09:21:21.66	79.57	11.59	
2025-01-19 09:21:21.86	79.54	11.60	
2025-01-19 09:21:22.07	79.50	11.61	
2025-01-19 09:21:22.27	79.47	11.63	
2025-01-19 09:21:22.47	79.43	11.64	
2025-01-19 09:21:22.68	79.39	11.65	
2025-01-19 09:21:22.88	79.36	11.66	
2025-01-19 09:21:23.08	79.32	11.67	
2025-01-19 09:21:23.29	79.29	11.69	
2025-01-19 09:21:23.49	79.25	11.70	
2025-01-19 09:21:23.69	79.22	11.71	
2025-01-19 09:21:23.90	79.18	11.72	
2025-01-19 09:21:24.10	79.14	11.73	
2025-01-19 09:21:24.30	79.11	11.74	
2025-01-19 09:21:24.50	79.07	11.76	
2025-01-19 09:21:24.71	79.03	11.77	
2025-01-19 09:21:24.91	79.00	11.78	
2025-01-19 09:21:25.11	78.96	11.79	
2025-01-19 09:21:25.32	78.93	11.80	
2025-01-19 09:21:25.52	78.89	11.82	
2025-01-19 09:21:25.72	78.85	11.83	
2025-01-19 09:21:25.93	78.82	11.84	
2025-01-19 09:21:26.13	78.78	11.85	
2025-01-19 09:21:26.33	78.74	11.86	
2025-01-19 09:21:26.54	78.71	11.88	
2025-01-19 09:21:26.74	78.67	11.89	
2025-01-19 09:21:26.94	78.64	11.90	
2025-01-19 09:21:27.14	78.60	11.91	
2025-01-19 09:21:27.35	78.56	11.92	
2025-01-19 09:21:27.55	78.53	11.93	
2025-01-19 09:21:27.75	78.49	11.95	
2025-01-19 09:21:27.96	78.45	11.96	
2025-01-19 09:21:28.16	78.42	11.97	
2025-01-19 09:21:28.36	78.38	11.98	
2025-01-19 09:21:28.57	78.34	11.99	
2025-01-19 09:21:28.77	78.30	12.01	
2025-01-19 09:21:28.97	78.27	12.02	
2025-01-19 09:21:29.18	78.23	12.03	
2025-01-19 09:21:29.38	78.19	12.04	
2025-01-19 09:21:29.58	78.16	12.05	
2025-01-19 09:21:29.78	78.12	12.06	
2025-01-19 09:21:29.99	78.08	12.08	
2025-01-19 09:21:30.19	78.05	12.09	
2025-01-19 09:21:30.39	78.01	12.10	
2025-01-19 09:21:30.60	77.97	12.11	
2025-01-19 09:21:30.80	77.94	12.12	
2025-01-19 09:21:31.00	77.90	12.14	
2025-01-19 09:21:31.21	77.86	12.15	
2025-01-19 09:21:31.41	77.82	12.16	
2025-01-19 09:21:31.61	77.79	12.17	
2025-01-19 09:21:31.82	77.75	12.18	
2025-01-19 09:21:32.02	77.71	12.19	
2025-01-19 09:21:32.22	77.68	12.21	
2025-01-19 09:21:32.42	77.64	12.22	
2025-01-19 09:21:32.63	77.60	12.23	
2025-01-19 09:21:32.83	77.56	12.24	
2025-01-19 09:21:33.03	77.53	12.25	
2025-01-19 09:21:33.24	77.49	12.26	
2025-01-19 09:21:33.44	77.45	12.28	
2025-01-19 09:21:33.64	77.41	12.29	
2025-01-19 09:21:33.85	77.37	12.30	
2025-01-19 09:21:34.05	77.34	12.31	
2025-01-19 09:21:34.25	77.30	12.32	
2025-01-19 09:21:34.46	77.26	12.33	
2025-01-19 09:21:34.66	77.22	12.35	
2025-01-19 09:21:34.86	77.19	12.36	
2025-01-19 09:21:35.06	77.15	12.37	
2025-01-19 09:21:35.27	77.11	12.38	
2025-01-19 09:21:35.47	77.07	12.39	
2025-01-19 09:21:35.67	77.04	12.40	
2025-01-19 09:21:35.88	77.00	12.42	
2025-01-19 09:21:36.08	76.96	12.43	
2025-01-19 09:21:36.28	76.92	12.44	
2025-01-19 09:21:36.49	76.88	12.45	
2025-01-19 09:21:36.69	76.85	12.46	
2025-01-19 09:21:36.89	76.81	12.47	
2025-01-19 09:21:37.10	76.77	12.49	
2025-01-19 09:21:37.30	76.73	12.50	
2025-01-19 09:21:37.50	76.69	12.51	
2025-01-19 09:21:37.70	76.66	12.52	
2025-01-19 09:21:37.91	76.62	12.53	
2025-01-19 09:21:38.11	76.58	12.54	
2025-01-19 09:21:38.31	76.54	12.55	
2025-01-19 09:21:38.52	76.50	12.57	
2025-01-19 09:21:38.72	76.46	12.58	
2025-01-19 09:21:38.92	76.43	12.59	
2025-01-19 09:21:39.13	76.39	12.60	
2025-01-19 09:21:39.33	76.35	12.61	
2025-01-19 09:21:39.53	76.31	12.62	
2025-01-19 09:21:39.74	76.27	12.64	
2025-01-19 09:21:39.94	76.23	12.65	
2025-01-19 09:21:40.14	76.19	12.66	
2025-01-19 09:21:40.34	76.16	12.67	
2025-01-19 09:21:40.55	76.12	12.68	
2025-01-19 09:21:40.75	76.08	12.69	
2025-01-19 09:21:40.95	76.04	12.70	
2025-01-19 09:21:41.16	76.00	12.72	
2025-01-19 09:21:41.36	75.96	12.73	
2025-01-19 09:21:41.56	75.92	12.74	
2025-01-19 09:21:41.77	75.88	12.75	
2025-01-19 09:21:41.97	75.84	12.76	
2025-01-19 09:21:42.17	75.81	12.77	
2025-01-19 09:21:42.38	75.77	12.79	
2025-01-19 09:21:42.58	75.73	12.80	
2025-01-19 09:21:42.78	75.69	12.81	
2025-01-19 09:21:42.98	75.65	12.82	
2025-01-19 09:21:43.19	75.61	12.83	
2025-01-19 09:21:43.39	75.57	12.84	
2025-01-19 09:21:43.59	75.53	12.85	
2025-01-19 09:21:43.80	75.49	12.87	
2025-01-19 09:21:44.00	75.45	12.88	
2025-01-19 09:21:44.20	75.42	12.89	
2025-01-19 09:21:44.41	75.38	12.90	
2025-01-19 09:21:44.61	75.34	12.91	
2025-01-19 09:21:44.81	75.30	12.92	
2025-01-19 09:21:45.02	75.26	12.93	
2025-01-19 09:21:45.22	75.22	12.94	
2025-01-19 09:21:45.42	75.18	12.96	
2025-01-19 09:21:45.62	75.14	12.97	
2025-01-19 09:21:45.83	75.10	12.98	
2025-01-19 09:21:46.03	75.06	12.99	
2025-01-19 09:21:46.23	75.02	13.00	
2025-01-19 09:21:46.44	74.98	13.01	
2025-01-19 09:21:46.64	74.94	13.02	
2025-01-19 09:21:46.84	74.90	13.04	
2025-01-19 09:21:47.05	74.86	13.05	
2025-01-19 09:21:47.25	74.82	13.06	
2025-01-19 09:21:47.45	74.78	13.07	
2025-01-19 09:21:47.66	74.74	13.08	
2025-01-19 09:21:47.86	74.70	13.09	
2025-01-19 09:21:48.06	74.66	13.10	
2025-01-19 09:21:48.26	74.62	13.11	
2025-01-19 09:21:48.47	74.58	13.13	
2025-01-19 09:21:48.67	74.54	13.14	
2025-01-19 09:21:48.87	74.50	13.15	
2025-01-19 09:21:49.08	74.46	13.16	
2025-01-19 09:21:49.28	74.42	13.17	
2025-01-19 09:21:49.48	74.38	13.18	
2025-01-19 09:21:49.69	74.34	13.19	
2025-01-19 09:21:49.89	74.30	13.20	
2025-01-19 09:21:50.09	74.26	13.21	
2025-01-19 09:21:50.30	74.22	13.23	
2025-01-19 09:21:50.50	74.18	13.24	
2025-01-19 09:21:50.70	74.14	13.25	
2025-01-19 09:21:50.90	74.10	13.26	
2025-01-19 09:21:51.11	74.06	13.27	
2025-01-19 09:21:51.31	74.02	13.28	
2025-01-19 09:21:51.51	73.98	13.29	
2025-01-19 09:21:51.72	73.94	13.30	
2025-01-19 09:21:51.92	73.90	13.32	
2025-01-19 09:21:52.12	73.86	13.33	
2025-01-19 09:21:52.33	73.82	13.34	
2025-01-19 09:21:52.53	73.78	13.35	
2025-01-19 09:21:52.73	73.74	13.36	
2025-01-19 09:21:52.94	73.70	13.37	
2025-01-19 09:21:53.14	73.66	13.38	
2025-01-19 09:21:53.34	73.62	13.39	
2025-01-19 09:21:53.54	73.58	13.40	
2025-01-19 09:21:53.75	73.53	13.41	
2025-01-19 09:21:53.95	73.49	13.43	
2025-01-19 09:21:54.15	73.45	13.44	
2025-01-19 09:21:54.36	73.41	13.45	
2025-01-19 09:21:54.56	73.37	13.46	
2025-01-19 09:21:54.76	73.33	13.47	
2025-01-19 09:21:54.97	73.29	13.48	
2025-01-19 09:21:55.17	73.25	13.49	
2025-01-19 09:21:55.37	73.21	13.50	
2025-01-19 09:21:55.58	73.16	13.51	
2025-01-19 09:21:55.78	73.12	13.52	
2025-01-19 09:21:55.98	73.08	13.54	
2025-01-19 09:21:56.18	73.04	13.55	
2025-01-19 09:21:56.39	73.00	13.56	
2025-01-19 09:21:56.59	72.96	13.57	
2025-01-19 09:21:56.79	72.92	13.58	
2025-01-19 09:21:57.00	72.88	13.59	
2025-01-19 09:21:57.20	72.84	13.60	
2025-01-19 09:21:57.40	72.79	13.61	
2025-01-19 09:21:57.61	72.75	13.62	
2025-01-19 09:21:57.81	72.71	13.63	
2025-01-19 09:21:58.01	72.67	13.64	
2025-01-19 09:21:58.22	72.63	13.66	
2025-01-19 09:21:58.42	72.59	13.67	
2025-01-19 09:21:58.62	72.55	13.68	
2025-01-19 09:21:58.82	72.50	13.69	
2025-01-19 09:21:59.03	72.46	13.70	
2025-01-19 09:21:59.23	72.42	13.71	
2025-01-19 09:21:59.43	72.38	13.72	
2025-01-19 09:21:59.64	72.34	13.73	
2025-01-19 09:21:59.84	72.29	13.74	
2025-01-19 09:22:00.04	72.25	13.75	
2025-01-19 09:22:00.25	72.21	13.76	
2025-01-19 09:22:00.45	72.17	13.77	
2025-01-19 09:22:00.65	72.13	13.79	
2025-01-19 09:22:00.86	72.08	13.80	
2025-01-19 09:22:01.06	72.04	13.81	
2025-01-19 09:22:01.26	72.00	13.82	
2025-01-19 09:22:01.46	71.96	13.83	
2025-01-19 09:22:01.67	71.92	13.84	
2025-01-19 09:22:01.87	71.88	13.85	
2025-01-19 09:22:02.07	71.83	13.86	
2025-01-19 09:22:02.28	71.79	13.87	
2025-01-19 09:22:02.48	71.75	13.88	
2025-01-19 09:22:02.68	71.71	13.89	
2025-01-19 09:22:02.89	71.66	13.90	
2025-01-19 09:22:03.09	71.62	13.91	
2025-01-19 09:22:03.29	71.58	13.92	
2025-01-19 09:22:03.50	71.54	13.93	
2025-01-19 09:22:03.70	71.49	13.95	
2025-01-19 09:22:03.90	71.45	13.96	
2025-01-19 09:22:04.11	71.41	13.97	
2025-01-19 09:22:04.31	71.37	13.98	
2025-01-19 09:22:04.51	71.33	13.99	
2025-01-19 09:22:04.71	71.28	14.00	
2025-01-19 09:22:04.92	71.24	14.01	
2025-01-19 09:22:05.12	71.20	14.02	
2025-01-19 09:22:05.32	71.16	14.03	
2025-01-19 09:22:05.53	71.11	14.04	
2025-01-19 09:22:05.73	71.07	14.05	
2025-01-19 09:22:05.93	71.03	14.06	
2025-01-19 09:22:06.14	70.98	14.07	
2025-01-19 09:22:06.34	70.94	14.08	
2025-01-19 09:22:06.54	70.90	14.09	
2025-01-19 09:22:06.75	70.85	14.10	
2025-01-19 09:22:06.95	70.81	14.11	
2025-01-19 09:22:07.15	70.77	14.12	
2025-01-19 09:22:07.35	70.73	14.13	
2025-01-19 09:22:07.56	70.68	14.14	
2025-01-19 09:22:07.76	70.64	14.16	
2025-01-19 09:22:07.96	70.60	14.17	
2025-01-19 09:22:08.17	70.55	14.18	
2025-01-19 09:22:08.37	70.51	14.19	
2025-01-19 09:22:08.57	70.47	14.20	
2025-01-19 09:22:08.78	70.42	14.21	
2025-01-19 09:22:08.98	70.38	14.22	
2025-01-19 09:22:09.18	70.34	14.23	
2025-01-19 09:22:09.39	70.29	14.24	
2025-01-19 09:22:09.59	70.25	14.25	
2025-01-19 09:22:09.79	70.21	14.26	
2025-01-19 09:22:09.99	70.17	14.27	
2025-01-19 09:22:10.20	70.12	14.28	
2025-01-19 09:22:10.40	70.08	14.29	
2025-01-19 09:22:10.60	70.04	14.30	
2025-01-19 09:22:10.81	69.99	14.31	
2025-01-19 09:22:11.01	69.95	14.32	
2025-01-19 09:22:11.21	69.90	14.33	
2025-01-19 09:22:11.42	69.86	14.34	
2025-01-19 09:22:11.62	69.82	14.35	
2025-01-19 09:22:11.82	69.77	14.36	
2025-01-19 09:22:12.03	69.73	14.37	
2025-01-19 09:22:12.23	69.68	14.38	
2025-01-19 09:22:12.43	69.64	14.39	
2025-01-19 09:22:12.63	69.60	14.40	
2025-01-19 09:22:12.84	69.55	14.41	
2025-01-19 09:22:13.04	69.51	14.42	
2025-01-19 09:22:13.24	69.47	14.43	
2025-01-19 09:22:13.45	69.42	14.44	
2025-01-19 09:22:13.65	69.38	14.45	
2025-01-19 09:22:13.85	69.33	14.46	
2025-01-19 09:22:14.06	69.29	14.47	
2025-01-19 09:22:14.26	69.25	14.48	
2025-01-19 09:22:14.46	69.20	14.49	
2025-01-19 09:22:14.67	69.16	14.50	
2025-01-19 09:22:14.87	69.11	14.51	
2025-01-19 09:22:15.07	69.07	14.52	
2025-01-19 09:22:15.27	69.03	14.53	
2025-01-19 09:22:15.48	68.98	14.54	
2025-01-19 09:22:15.68	68.94	14.55	
2025-01-19 09:22:15.88	68.89	14.56	
2025-01-19 09:22:16.09	68.85	14.57	
2025-01-19 09:22:16.29	68.80	14.58	
2025-01-19 09:22:16.49	68.76	14.59	
2025-01-19 09:22:16.70	68.71	14.60	
2025-01-19 09:22:16.90	68.67	14.61	
2025-01-19 09:22:17.10	68.63	14.62	
2025-01-19 09:22:17.31	68.58	14.63	
2025-01-19 09:22:17.51	68.54	14.64	
2025-01-19 09:22:17.71	68.49	14.65	
2025-01-19 09:22:17.91	68.45	14.66	
2025-01-19 09:22:18.12	68.40	14.67	
2025-01-19 09:22:18.32	68.36	14.68	
2025-01-19 09:22:18.52	68.31	14.69	
2025-01-19 09:22:18.73	68.27	14.70	
2025-01-19 09:22:18.93	68.22	14.71	
2025-01-19 09:22:19.13	68.18	14.72	
2025-01-19 09:22:19.34	68.13	14.73	
2025-01-19 09:22:19.54	68.09	14.74	
2025-01-19 09:22:19.74	68.04	14.75	
2025-01-19 09:22:19.95	68.00	14.76	
2025-01-19 09:22:20.15	67.95	14.77	
2025-01-19 09:22:20.35	67.91	14.78	
2025-01-19 09:22:20.55	67.87	14.79	
2025-01-19 09:22:20.76	67.82	14.80	
2025-01-19 09:22:20.96	67.77	14.81	
2025-01-19 09:22:21.16	67.73	14.82	
2025-01-19 09:22:21.37	67.68	14.83	
2025-01-19 09:22:21.57	67.64	14.84	
2025-01-19 09:22:21.77	67.59	14.85	
2025-01-19 09:22:21.98	67.55	14.86	
2025-01-19 09:22:22.18	67.50	14.87	
2025-01-19 09:22:22.38	67.46	14.87	
2025-01-19 09:22:22.58	67.41	14.88	
2025-01-19 09:22:22.79	67.37	14.89	
2025-01-19 09:22:22.99	67.32	14.90	
2025-01-19 09:22:23.19	67.28	14.91	
2025-01-19 09:22:23.40	67.23	14.92	
2025-01-19 09:22:23.60	67.18	14.93	
2025-01-19 09:22:23.80	67.14	14.94	
2025-01-19 09:22:24.01	67.09	14.95	
2025-01-19 09:22:24.21	67.05	14.96	
2025-01-19 09:22:24.41	67.00	14.97	
2025-01-19 09:22:24.62	66.96	14.98	
2025-01-19 09:22:24.82	66.91	14.99	
2025-01-19 09:22:25.02	66.87	15.00	
2025-01-19 09:22:25.23	66.82	15.01	
2025-01-19 09:22:25.43	66.77	15.02	
2025-01-19 09:22:25.63	66.73	15.03	
2025-01-19 09:22:25.83	66.68	15.04	
2025-01-19 09:22:26.04	66.64	15.04	
2025-01-19 09:22:26.24	66.59	15.05	
2025-01-19 09:22:26.44	66.54	15.06	
2025-01-19 09:22:26.65	66.50	15.07	
2025-01-19 09:22:26.85	66.45	15.08	
2025-01-19 09:22:27.05	66.41	15.09	
2025-01-19 09:22:27.26	66.36	15.10	
2025-01-19 09:22:27.46	66.31	15.11	
2025-01-19 09:22:27.66	66.27	15.12	
2025-01-19 09:22:27.87	66.22	15.13	
2025-01-19 09:22:28.07	66.17	15.14	
2025-01-19 09:22:28.27	66.13	15.15	
2025-01-19 09:22:28.47	66.08	15.16	
2025-01-19 09:22:28.68	66.04	15.16	
2025-01-19 09:22:28.88	65.99	15.17	
2025-01-19 09:22:29.08	65.94	15.18	
2025-01-19 09:22:29.29	65.90	15.19	
2025-01-19 09:22:29.49	65.85	15.20	
2025-01-19 09:22:29.69	65.81	15.21	
2025-01-19 09:22:29.91	65.75	15.22	
2025-01-19 09:22:30.11	65.71	15.23	
2025-01-19 09:22:30.32	65.66	15.24	
2025-01-19 09:22:30.52	65.62	15.25	
2025-01-19 09:22:30.72	65.57	15.26	
2025-01-19 09:22:30.92	65.52	15.26	
2025-01-19 09:22:31.13	65.48	15.27	
2025-01-19 09:22:31.33	65.43	15.28	
2025-01-19 09:22:31.53	65.38	15.29	
2025-01-19 09:22:31.74	65.33	15.30	
2025-01-19 09:22:31.94	65.29	15.31	
2025-01-19 09:22:32.14	65.24	15.32	
2025-01-19 09:22:32.35	65.19	15.33	
2025-01-19 09:22:32.55	65.15	15.34	
2025-01-19 09:22:32.75	65.10	15.35	
2025-01-19 09:22:32.96	65.05	15.35	
2025-01-19 09:22:33.16	65.01	15.36	
2025-01-19 09:22:33.36	64.96	15.37	
2025-01-19 09:22:33.56	64.91	15.38	
2025-01-19 09:22:33.77	64.87	15.39	
2025-01-19 09:22:33.97	64.82	15.40	
2025-01-19 09:22:34.17	64.77	15.41	
2025-01-19 09:22:34.38	64.72	15.42	
2025-01-19 09:22:34.58	64.68	15.42	
2025-01-19 09:22:34.78	64.63	15.43	
2025-01-19 09:22:34.99	64.58	15.44	
2025-01-19 09:22:35.19	64.54	15.45	
2025-01-19 09:22:35.39	64.49	15.46	
2025-01-19 09:22:35.60	64.44	15.47	
2025-01-19 09:22:35.80	64.39	15.48	
2025-01-19 09:22:36.00	64.35	15.48	
2025-01-19 09:22:36.20	64.30	15.49	
2025-01-19 09:22:36.41	64.25	15.50	
2025-01-19 09:22:36.61	64.21	15.51	
2025-01-19 09:22:36.81	64.16	15.52	
2025-01-19 09:22:37.02	64.11	15.53	
2025-01-19 09:22:37.22	64.06	15.54	
2025-01-19 09:22:37.42	64.02	15.54	
2025-01-19 09:22:37.63	63.97	15.55	
2025-01-19 09:22:37.83	63.92	15.56	
2025-01-19 09:22:38.03	63.87	15.57	
2025-01-19 09:22:38.24	63.82	15.58	
2025-01-19 09:22:38.44	63.78	15.59	
2025-01-19 09:22:38.64	63.73	15.60	
2025-01-19 09:22:38.84	63.68	15.60	
2025-01-19 09:22:39.05	63.63	15.61	
2025-01-19 09:22:39.25	63.59	15.62	
2025-01-19 09:22:39.45	63.54	15.63	
2025-01-19 09:22:39.66	63.49	15.64	
2025-01-19 09:22:39.86	63.44	15.65	
2025-01-19 09:22:40.06	63.39	15.65	
2025-01-19 09:22:40.27	63.34	15.66	
2025-01-19 09:22:40.47	63.30	15.67	
2025-01-19 09:22:40.67	63.25	15.68	
2025-01-19 09:22:40.88	63.20	15.69	
2025-01-19 09:22:41.08	63.15	15.70	
2025-01-19 09:22:41.28	63.11	15.70	
2025-01-19 09:22:41.48	63.06	15.71	
2025-01-19 09:22:41.69	63.01	15.72	
2025-01-19 09:22:41.89	62.96	15.73	
2025-01-19 09:22:42.09	62.91	15.74	
2025-01-19 09:22:42.30	62.86	15.74	
2025-01-19 09:22:42.50	62.82	15.75	
2025-01-19 09:22:42.70	62.77	15.76	
2025-01-19 09:22:42.91	62.72	15.77	
2025-01-19 09:22:43.11	62.67	15.78	
2025-01-19 09:22:43.31	62.62	15.78	
2025-01-19 09:22:43.52	62.57	15.79	
2025-01-19 09:22:43.72	62.53	15.80	
2025-01-19 09:22:43.92	62.48	15.81	
2025-01-19 09:22:44.12	62.43	15.82	
2025-01-19 09:22:44.33	62.38	15.82	
2025-01-19 09:22:44.53	62.33	15.83	
2025-01-19 09:22:44.73	62.28	15.84	
2025-01-19 09:22:44.94	62.23	15.85	
2025-01-19 09:22:45.14	62.19	15.86	
2025-01-19 09:22:45.34	62.14	15.86	
2025-01-19 09:22:45.55	62.09	15.87	
2025-01-19 09:22:45.75	62.04	15.88	
2025-01-19 09:22:45.95	61.99	15.89	
2025-01-19 09:22:46.16	61.94	15.90	
2025-01-19 09:22:46.36	61.89	15.90	
2025-01-19 09:22:46.56	61.85	15.91	
2025-01-19 09:22:46.77	61.80	15.92	
2025-01-19 09:22:46.97	61.75	15.93	
2025-01-19 09:22:47.17	61.70	15.93	
2025-01-19 09:22:47.37	61.65	15.94	
2025-01-19 09:22:47.58	61.60	15.95	
2025-01-19 09:22:47.78	61.55	15.96	
2025-01-19 09:22:47.98	61.50	15.96	
2025-01-19 09:22:48.19	61.45	15.97	
2025-01-19 09:22:48.39	61.40	15.98	
2025-01-19 09:22:48.59	61.36	15.99	
2025-01-19 09:22:48.80	61.31	16.00	
2025-01-19 09:22:49.00	61.26	16.00	
2025-01-19 09:22:49.20	61.21	16.01	
2025-01-19 09:22:49.41	61.16	16.02	
2025-01-19 09:22:49.61	61.11	16.03	
2025-01-19 09:22:49.81	61.06	16.03	
2025-01-19 09:22:50.01	61.01	16.04	
2025-01-19 09:22:50.22	60.96	16.05	
2025-01-19 09:22:50.42	60.91	16.05	
2025-01-19 09:22:50.62	60.86	16.06	
2025-01-19 09:22:50.83	60.81	16.07	
2025-01-19 09:22:51.03	60.76	16.08	
2025-01-19 09:22:51.23	60.72	16.08	
2025-01-19 09:22:51.44	60.66	16.09	
2025-01-19 09:22:51.64	60.62	16.10	
2025-01-19 09:22:51.84	60.57	16.11	
2025-01-19 09:22:52.05	60.52	16.11	
2025-01-19 09:22:52.25	60.47	16.12	
2025-01-19 09:22:52.45	60.42	16.13	
2025-01-19 09:22:52.65	60.37	16.14	
2025-01-19 09:22:52.86	60.32	16.14	
2025-01-19 09:22:53.06	60.27	16.15	
2025-01-19 09:22:53.26	60.22	16.16	
2025-01-19 09:22:53.47	60.17	16.16	
2025-01-19 09:22:53.67	60.12	16.17	
2025-01-19 09:22:53.87	60.07	16.18	
2025-01-19 09:22:54.08	60.02	16.19	
2025-01-19 09:22:54.28	59.97	16.19	
2025-01-19 09:22:54.48	59.92	16.20	
2025-01-19 09:22:54.69	59.87	16.21	
2025-01-19 09:22:54.89	59.82	16.21	
2025-01-19 09:22:55.09	59.77	16.22	
2025-01-19 09:22:55.29	59.72	16.23	
2025-01-19 09:22:55.50	59.67	16.23	
2025-01-19 09:22:55.70	59.62	16.24	
2025-01-19 09:22:55.90	59.57	16.25	
2025-01-19 09:22:56.11	59.52	16.26	
2025-01-19 09:22:56.31	59.47	16.26	
2025-01-19 09:22:56.51	59.42	16.27	
2025-01-19 09:22:56.72	59.37	16.28	
2025-01-19 09:22:56.92	59.32	16.28	
2025-01-19 09:22:57.12	59.27	16.29	
2025-01-19 09:22:57.33	59.22	16.30	
2025-01-19 09:22:57.53	59.17	16.30	
2025-01-19 09:22:57.73	59.12	16.31	
2025-01-19 09:22:57.93	59.07	16.32	
2025-01-19 09:22:58.14	59.02	16.32	
2025-01-19 09:22:58.34	58.97	16.33	
2025-01-19 09:22:58.54	58.92	16.34	
2025-01-19 09:22:58.75	58.87	16.34	
2025-01-19 09:22:58.95	58.82	16.35	
2025-01-19 09:22:59.15	58.77	16.36	
2025-01-19 09:22:59.36	58.72	16.36	
2025-01-19 09:22:59.56	58.67	16.37	
2025-01-19 09:22:59.76	58.62	16.38	
2025-01-19 09:22:59.96	58.57	16.38	
2025-01-19 09:23:00.17	58.51	16.39	
2025-01-19 09:23:00.37	58.46	16.40	
2025-01-19 09:23:00.57	58.42	16.40	
2025-01-19 09:23:00.78	58.36	16.41	
2025-01-19 09:23:00.98	58.31	16.42	
2025-01-19 09:23:01.18	58.26	16.42	
2025-01-19 09:23:01.39	58.21	16.43	
2025-01-19 09:23:01.59	58.16	16.43	
2025-01-19 09:23:01.79	58.11	16.44	
2025-01-19 09:23:02.00	58.06	16.45	
2025-01-19 09:23:02.20	58.01	16.45	
2025-01-19 09:23:02.40	57.96	16.46	
2025-01-19 09:23:02.61	57.91	16.47	
2025-01-19 09:23:02.81	57.86	16.47	
2025-01-19 09:23:03.01	57.81	16.48	
2025-01-19 09:23:03.21	57.76	16.49	
2025-01-19 09:23:03.42	57.70	16.49	
2025-01-19 09:23:03.62	57.65	16.50	
2025-01-19 09:23:03.82	57.60	16.50	
2025-01-19 09:23:04.03	57.55	16.51	
2025-01-19 09:23:04.23	57.50	16.52	
2025-01-19 09:23:04.43	57.45	16.52	
2025-01-19 09:23:04.64	57.40	16.53	
2025-01-19 09:23:04.84	57.35	16.53	
2025-01-19 09:23:05.04	57.30	16.54	
2025-01-19 09:23:05.25	57.24	16.55	
2025-01-19 09:23:05.45	57.19	16.55	
2025-01-19 09:23:05.65	57.14	16.56	
2025-01-19 09:23:05.85	57.09	16.56	
2025-01-19 09:23:06.06	57.04	16.57	
2025-01-19 09:23:06.26	56.99	16.58	
2025-01-19 09:23:06.46	56.94	16.58	
2025-01-19 09:23:06.67	56.89	16.59	
2025-01-19 09:23:06.87	56.84	16.59	
2025-01-19 09:23:07.07	56.78	16.60	
2025-01-19 09:23:07.28	56.73	16.61	
2025-01-19 09:23:07.48	56.68	16.61	
2025-01-19 09:23:07.68	56.63	16.62	
2025-01-19 09:23:07.89	56.58	16.62	
2025-01-19 09:23:08.09	56.53	16.63	
2025-01-19 09:23:08.29	56.48	16.63	
2025-01-19 09:23:08.49	56.43	16.64	
2025-01-19 09:23:08.70	56.37	16.65	
2025-01-19 09:23:08.90	56.32	16.65	
2025-01-19 09:23:09.10	56.27	16.66	
2025-01-19 09:23:09.31	56.22	16.66	
2025-01-19 09:23:09.51	56.17	16.67	
2025-01-19 09:23:09.71	56.12	16.67	
2025-01-19 09:23:09.92	56.06	16.68	
2025-01-19 09:23:10.12	56.01	16.68	
2025-01-19 09:23:10.32	55.96	16.69	
2025-01-19 09:23:10.53	55.91	16.70	
2025-01-19 09:23:10.73	55.86	16.70	
2025-01-19 09:23:10.93	55.81	16.71	
2025-01-19 09:23:11.13	55.76	16.71	
2025-01-19 09:23:11.34	55.70	16.72	
2025-01-19 09:23:11.54	55.65	16.72	
2025-01-19 09:23:11.74	55.60	16.73	
2025-01-19 09:23:11.95	55.55	16.73	
2025-01-19 09:23:12.15	55.50	16.74	
2025-01-19 09:23:12.35	55.44	16.74	
2025-01-19 09:23:12.56	55.39	16.75	
2025-01-19 09:23:12.76	55.34	16.75	
2025-01-19 09:23:12.96	55.29	16.76	
2025-01-19 09:23:13.17	55.24	16.77	
2025-01-19 09:23:13.37	55.18	16.77	
2025-01-19 09:23:13.57	55.13	16.78	
2025-01-19 09:23:13.77	55.08	16.78	
2025-01-19 09:23:13.98	55.03	16.79	
2025-01-19 09:23:14.18	54.98	16.79	
2025-01-19 09:23:14.38	54.93	16.80	
2025-01-19 09:23:14.59	54.87	16.80	
2025-01-19 09:23:14.79	54.82	16.81	
2025-01-19 09:23:14.99	54.77	16.81	
2025-01-19 09:23:15.20	54.72	16.82	
2025-01-19 09:23:15.40	54.66	16.82	
2025-01-19 09:23:15.60	54.61	16.83	
2025-01-19 09:23:15.81	54.56	16.83	
2025-01-19 09:23:16.01	54.51	16.84	
2025-01-19 09:23:16.21	54.46	16.84	
2025-01-19 09:23:16.41	54.41	16.85	
2025-01-19 09:23:16.62	54.35	16.85	
2025-01-19 09:23:16.82	54.30	16.86	
2025-01-19 09:23:17.02	54.25	16.86	
2025-01-19 09:23:17.23	54.19	16.86	
2025-01-19 09:23:17.43	54.14	16.87	
2025-01-19 09:23:17.63	54.09	16.87	
2025-01-19 09:23:17.84	54.04	16.88	
2025-01-19 09:23:18.04	53.99	16.88	
2025-01-19 09:23:18.24	53.93	16.89	
2025-01-19 09:23:18.45	53.88	16.89	
2025-01-19 09:23:18.65	53.83	16.90	
2025-01-19 09:23:18.85	53.78	16.90	
2025-01-19 09:23:19.05	53.73	16.91	
2025-01-19 09:23:19.26	53.67	16.91	
2025-01-19 09:23:19.46	53.62	16.92	
2025-01-19 09:23:19.66	53.57	16.92	
2025-01-19 09:23:19.87	53.51	16.92	
2025-01-19 09:23:20.07	53.46	16.93	
2025-01-19 09:23:20.27	53.41	16.93	
2025-01-19 09:23:20.48	53.36	16.94	
2025-01-19 09:23:20.68	53.30	16.94	
2025-01-19 09:23:20.88	53.25	16.95	
2025-01-19 09:23:21.09	53.20	16.95	
2025-01-19 09:23:21.29	53.15	16.96	
2025-01-19 09:23:21.49	53.09	16.96	
2025-01-19 09:23:21.69	53.04	16.96	
2025-01-19 09:23:21.90	52.99	16.97	
2025-01-19 09:23:22.10	52.94	16.97	
2025-01-19 09:23:22.30	52.88	16.98	
2025-01-19 09:23:22.51	52.83	16.98	
2025-01-19 09:23:22.71	52.78	16.99	
2025-01-19 09:23:22.91	52.73	16.99	
2025-01-19 09:23:23.12	52.67	16.99	
2025-01-19 09:23:23.32	52.62	17.00	
2025-01-19 09:23:23.52	52.57	17.00	
2025-01-19 09:23:23.73	52.51	17.01	
2025-01-19 09:23:23.93	52.46	17.01	
2025-01-19 09:23:24.13	52.41	17.01	
2025-01-19 09:23:24.33	52.36	17.02	
2025-01-19 09:23:24.54	52.30	17.02	
2025-01-19 09:23:24.74	52.25	17.03	
2025-01-19 09:23:24.94	52.20	17.03	
2025-01-19 09:23:25.15	52.14	17.03	
2025-01-19 09:23:25.35	52.09	17.04	
2025-01-19 09:23:25.55	52.04	17.04	
2025-01-19 09:23:25.76	51.99	17.04	
2025-01-19 09:23:25.96	51.93	17.05	
2025-01-19 09:23:26.16	51.88	17.05	
2025-01-19 09:23:26.37	51.83	17.06	
2025-01-19 09:23:26.57	51.77	17.06	
2025-01-19 09:23:26.77	51.72	17.06	
2025-01-19 09:23:26.97	51.67	17.07	
2025-01-19 09:23:27.18	51.62	17.07	
2025-01-19 09:23:27.38	51.56	17.07	
2025-01-19 09:23:27.58	51.51	17.08	
2025-01-19 09:23:27.79	51.46	17.08	
2025-01-19 09:23:27.99	51.40	17.09	
2025-01-19 09:23:28.19	51.35	17.09	
2025-01-19 09:23:28.40	51.30	17.09	
2025-01-19 09:23:28.60	51.24	17.10	
2025-01-19 09:23:28.80	51.19	17.10	
2025-01-19 09:23:29.01	51.14	17.10	
2025-01-19 09:23:29.21	51.08	17.11	
2025-01-19 09:23:29.41	51.03	17.11	
2025-01-19 09:23:29.61	50.98	17.11	
2025-01-19 09:23:29.82	50.93	17.12	
2025-01-19 09:23:30.02	50.87	17.12	
2025-01-19 09:23:30.22	50.82	17.12	
2025-01-19 09:23:30.43	50.77	17.13	
2025-01-19 09:23:30.63	50.71	17.13	
2025-01-19 09:23:30.83	50.66	17.13	
2025-01-19 09:23:31.04	50.61	17.14	
2025-01-19 09:23:31.24	50.55	17.14	
2025-01-19 09:23:31.44	50.50	17.14	
2025-01-19 09:23:31.65	50.45	17.15	
2025-01-19 09:23:31.85	50.39	17.15	
2025-01-19 09:23:32.05	50.34	17.15	
2025-01-19 09:23:32.25	50.29	17.15	
2025-01-19 09:23:32.46	50.23	17.16	
2025-01-19 09:23:32.66	50.18	17.16	
2025-01-19 09:23:32.86	50.13	17.16	
2025-01-19 09:23:33.07	50.07	17.17	
2025-01-19 09:23:33.27	50.02	17.17	
2025-01-19 09:23:33.47	49.97	17.17	
2025-01-19 09:23:33.68	49.91	17.18	
2025-01-19 09:23:33.88	49.86	17.18	
2025-01-19 09:23:34.08	49.81	17.18	
2025-01-19 09:23:34.29	49.75	17.18	
2025-01-19 09:23:34.49	49.70	17.19	
2025-01-19 09:23:34.69	49.65	17.19	
2025-01-19 09:23:34.89	49.59	17.19	
2025-01-19 09:23:35.10	49.54	17.20	
2025-01-19 09:23:35.30	49.49	17.20	
2025-01-19 09:23:35.50	49.43	17.20	
2025-01-19 09:23:35.71	49.38	17.20	
2025-01-19 09:23:35.91	49.33	17.21	
2025-01-19 09:23:36.11	49.27	17.21	
2025-01-19 09:23:36.32	49.22	17.21	
2025-01-19 09:23:36.52	49.16	17.21	
2025-01-19 09:23:36.72	49.11	17.22	
2025-01-19 09:23:36.93	49.06	17.22	
2025-01-19 09:23:37.13	49.00	17.22	
2025-01-19 09:23:37.33	48.95	17.22	
2025-01-19 09:23:37.53	48.90	17.23	
2025-01-19 09:23:37.74	48.84	17.23	
2025-01-19 09:23:37.94	48.79	17.23	
2025-01-19 09:23:38.14	48.74	17.23	
2025-01-19 09:23:38.35	48.68	17.24	
2025-01-19 09:23:38.55	48.63	17.24	
2025-01-19 09:23:38.75	48.58	17.24	
2025-01-19 09:23:38.96	48.52	17.24	
2025-01-19 09:23:39.16	48.47	17.24	
2025-01-19 09:23:39.36	48.42	17.25	
2025-01-19 09:23:39.57	48.36	17.25	
2025-01-19 09:23:39.77	48.31	17.25	
2025-01-19 09:23:39.97	48.25	17.25	
2025-01-19 09:23:40.17	48.20	17.26	
2025-01-19 09:23:40.38	48.15	17.26	
2025-01-19 09:23:40.58	48.09	17.26	
2025-01-19 09:23:40.78	48.04	17.26	
2025-01-19 09:23:40.99	47.98	17.26	
2025-01-19 09:23:41.19	47.93	17.27	
2025-01-19 09:23:41.39	47.88	17.27	
2025-01-19 09:23:41.60	47.82	17.27	
2025-01-19 09:23:41.80	47.77	17.27	
2025-01-19 09:23:42.00	47.72	17.27	
2025-01-19 09:23:42.21	47.66	17.28	
2025-01-19 09:23:42.41	47.61	17.28	
2025-01-19 09:23:42.61	47.56	17.28	
2025-01-19 09:23:42.81	47.50	17.28	
2025-01-19 09:23:43.02	47.45	17.28	
2025-01-19 09:23:43.22	47.39	17.28	
2025-01-19 09:23:43.42	47.34	17.29	
2025-01-19 09:23:43.63	47.29	17.29	
2025-01-19 09:23:43.83	47.23	17.29	
2025-01-19 09:23:44.03	47.18	17.29	
2025-01-19 09:23:44.24	47.12	17.29	
2025-01-19 09:23:44.44	47.07	17.29	
2025-01-19 09:23:44.64	47.02	17.30	
2025-01-19 09:23:44.85	46.96	17.30	
2025-01-19 09:23:45.05	46.91	17.30	
2025-01-19 09:23:45.25	46.86	17.30	
2025-01-19 09:23:45.45	46.80	17.30	
2025-01-19 09:23:45.66	46.75	17.30	
2025-01-19 09:23:45.86	46.69	17.31	
2025-01-19 09:23:46.06	46.64	17.31	
2025-01-19 09:23:46.27	46.59	17.31	
2025-01-19 09:23:46.47	46.53	17.31	
2025-01-19 09:23:46.67	46.48	17.31	
2025-01-19 09:23:46.88	46.42	17.31	
2025-01-19 09:23:47.08	46.37	17.31	
2025-01-19 09:23:47.28	46.32	17.31	
2025-01-19 09:23:47.49	46.26	17.32	
2025-01-19 09:23:47.69	46.21	17.32	
2025-01-19 09:23:47.89	46.16	17.32	
2025-01-19 09:23:48.09	46.10	17.32	
2025-01-19 09:23:48.30	46.05	17.32	
2025-01-19 09:23:48.50	45.99	17.32	
2025-01-19 09:23:48.70	45.94	17.32	
2025-01-19 09:23:48.91	45.88	17.32	
2025-01-19 09:23:49.11	45.83	17.32	
2025-01-19 09:23:49.31	45.78	17.33	
2025-01-19 09:23:49.52	45.72	17.33	
2025-01-19 09:23:49.72	45.67	17.33	
2025-01-19 09:23:49.92	45.62	17.33	
2025-01-19 09:23:50.13	45.56	17.33	
2025-01-19 09:23:50.33	45.51	17.33	
2025-01-19 09:23:50.53	45.45	17.33	
2025-01-19 09:23:50.73	45.40	17.33	
2025-01-19 09:23:50.94	45.34	17.33	
2025-01-19 09:23:51.14	45.29	17.33	
2025-01-19 09:23:51.34	45.24	17.33	
2025-01-19 09:23:51.55	45.18	17.34	
2025-01-19 09:23:51.75	45.13	17.34	
2025-01-19 09:23:51.95	45.08	17.34	
2025-01-19 09:23:52.16	45.02	17.34	
2025-01-19 09:23:52.36	44.97	17.34	
2025-01-19 09:23:52.56	44.91	17.34	
2025-01-19 09:23:52.77	44.86	17.34	
2025-01-19 09:23:52.97	44.81	17.34	
2025-01-19 09:23:53.17	44.75	17.34	
2025-01-19 09:23:53.37	44.70	17.34	
2025-01-19 09:23:53.58	44.64	17.34	
2025-01-19 09:23:53.78	44.59	17.34	
2025-01-19 09:23:53.98	44.54	17.34	
2025-01-19 09:23:54.19	44.48	17.34	
2025-01-19 09:23:54.39	44.43	17.34	
2025-01-19 09:23:54.59	44.37	17.34	
2025-01-19 09:23:54.80	44.32	17.34	
2025-01-19 09:23:55.00	44.27	17.34	
2025-01-19 09:23:55.20	44.21	17.34	
2025-01-19 09:23:55.41	44.16	17.35	
2025-01-19 09:23:55.61	44.10	17.35	
2025-01-19 09:23:55.81	44.05	17.35	
2025-01-19 09:23:56.01	44.00	17.35	
2025-01-19 09:23:56.22	43.94	17.35	
2025-01-19 09:23:56.42	43.89	17.35	
2025-01-19 09:23:56.62	43.83	17.35	
2025-01-19 09:23:56.83	43.78	17.35	
2025-01-19 09:23:57.03	43.73	17.35	
2025-01-19 09:23:57.23	43.67	17.35	
2025-01-19 09:23:57.44	43.62	17.35	
2025-01-19 09:23:57.64	43.56	17.35	
2025-01-19 09:23:57.84	43.51	17.35	
2025-01-19 09:23:58.05	43.45	17.35	
2025-01-19 09:23:58.25	43.40	17.35	
2025-01-19 09:23:58.45	43.35	17.35	
2025-01-19 09:23:58.65	43.29	17.35	
2025-01-19 09:23:58.86	43.24	17.35	
2025-01-19 09:23:59.06	43.19	17.35	
2025-01-19 09:23:59.26	43.13	17.35	
2025-01-19 09:23:59.47	43.08	17.35	
2025-01-19 09:23:59.67	43.02	17.35	
2025-01-19 09:23:59.87	42.97	17.35	
2025-01-19 09:24:00.08	42.91	17.34	
2025-01-19 09:24:00.28	42.86	17.34	
2025-01-19 09:24:00.48	42.81	17.34	
2025-01-19 09:24:00.69	42.75	17.34	
2025-01-19 09:24:00.89	42.70	17.34	
2025-01-19 09:24:01.09	42.65	17.34	
2025-01-19 09:24:01.29	42.59	17.34	
2025-01-19 09:24:01.50	42.54	17.34	
2025-01-19 09:24:01.70	42.48	17.34	
2025-01-19 09:24:01.90	42.43	17.34	
2025-01-19 09:24:02.11	42.37	17.34	
2025-01-19 09:24:02.31	42.32	17.34	
2025-01-19 09:24:02.51	42.27	17.34	
2025-01-19 09:24:02.72	42.21	17.34	
2025-01-19 09:24:02.92	42.16	17.34	
2025-01-19 09:24:03.12	42.11	17.34	
2025-01-19 09:24:03.33	42.05	17.34	
2025-01-19 09:24:03.53	42.00	17.34	
2025-01-19 09:24:03.73	41.94	17.34	
2025-01-19 09:24:03.93	41.89	17.33	
2025-01-19 09:24:04.14	41.83	17.33	
2025-01-19 09:24:04.34	41.78	17.33	
2025-01-19 09:24:04.54	41.73	17.33	
2025-01-19 09:24:04.75	41.67	17.33	
2025-01-19 09:24:04.95	41.62	17.33	
2025-01-19 09:24:05.15	41.57	17.33	
2025-01-19 09:24:05.36	41.51	17.33	
2025-01-19 09:24:05.56	41.46	17.33	
2025-01-19 09:24:05.76	41.40	17.33	
2025-01-19 09:24:05.97	41.35	17.33	
2025-01-19 09:24:06.17	41.30	17.32	
2025-01-19 09:24:06.37	41.24	17.32	
2025-01-19 09:24:06.57	41.19	17.32	
2025-01-19 09:24:06.78	41.13	17.32	
2025-01-19 09:24:06.98	41.08	17.32	
2025-01-19 09:24:07.18	41.03	17.32	
2025-01-19 09:24:07.39	40.97	17.32	
2025-01-19 09:24:07.59	40.92	17.32	
2025-01-19 09:24:07.79	40.87	17.32	
2025-01-19 09:24:08.00	40.81	17.31	
2025-01-19 09:24:08.20	40.76	17.31	
2025-01-19 09:24:08.40	40.70	17.31	
2025-01-19 09:24:08.61	40.65	17.31	
2025-01-19 09:24:08.81	40.59	17.31	
2025-01-19 09:24:09.01	40.54	17.31	
2025-01-19 09:24:09.21	40.49	17.31	
2025-01-19 09:24:09.42	40.43	17.30	
2025-01-19 09:24:09.62	40.38	17.30	
2025-01-19 09:24:09.82	40.33	17.30	
2025-01-19 09:24:10.03	40.27	17.30	
2025-01-19 09:24:10.23	40.22	17.30	
2025-01-19 09:24:10.43	40.17	17.30	
2025-01-19 09:24:10.64	40.11	17.30	
2025-01-19 09:24:10.84	40.06	17.29	
2025-01-19 09:24:11.04	40.00	17.29	
2025-01-19 09:24:11.25	39.95	17.29	
2025-01-19 09:24:11.45	39.90	17.29	
2025-01-19 09:24:11.65	39.84	17.29	
2025-01-19 09:24:11.85	39.79	17.29	
2025-01-19 09:24:12.06	39.73	17.28	
2025-01-19 09:24:12.26	39.68	17.28	
2025-01-19 09:24:12.46	39.63	17.28	
2025-01-19 09:24:12.67	39.57	17.28	
2025-01-19 09:24:12.87	39.52	17.28	
2025-01-19 09:24:13.07	39.47	17.27	
2025-01-19 09:24:13.28	39.41	17.27	
2025-01-19 09:24:13.48	39.36	17.27	
2025-01-19 09:24:13.68	39.31	17.27	
2025-01-19 09:24:13.89	39.25	17.27	
2025-01-19 09:24:14.09	39.20	17.26	
2025-01-19 09:24:14.29	39.14	17.26	
2025-01-19 09:24:14.49	39.09	17.26	
2025-01-19 09:24:14.70	39.04	17.26	
2025-01-19 09:24:14.90	38.98	17.26	
2025-01-19 09:24:15.10	38.93	17.25	
2025-01-19 09:24:15.31	38.87	17.25	
2025-01-19 09:24:15.51	38.82	17.25	
2025-01-19 09:24:15.71	38.77	17.25	
2025-01-19 09:24:15.92	38.71	17.25	
2025-01-19 09:24:16.12	38.66	17.24	
2025-01-19 09:24:16.32	38.61	17.24	
2025-01-19 09:24:16.53	38.55	17.24	
2025-01-19 09:24:16.73	38.50	17.24	
2025-01-19 09:24:16.93	38.45	17.23	
2025-01-19 09:24:17.13	38.39	17.23	
2025-01-19 09:24:17.34	38.34	17.23	
2025-01-19 09:24:17.54	38.29	17.23	
2025-01-19 09:24:17.74	38.23	17.22	
2025-01-19 09:24:17.95	38.18	17.22	
2025-01-19 09:24:18.15	38.13	17.22	
2025-01-19 09:24:18.35	38.07	17.22	
2025-01-19 09:24:18.56	38.02	17.21	
2025-01-19 09:24:18.76	37.96	17.21	
2025-01-19 09:24:18.96	37.91	17.21	
2025-01-19 09:24:19.17	37.86	17.21	
2025-01-19 09:24:19.37	37.80	17.20	
2025-01-19 09:24:19.57	37.75	17.20	
2025-01-19 09:24:19.78	37.70	17.20	
2025-01-19 09:24:19.98	37.64	17.20	
2025-01-19 09:24:20.18	37.59	17.19	
2025-01-19 09:24:20.38	37.54	17.19	
2025-01-19 09:24:20.59	37.48	17.19	
2025-01-19 09:24:20.79	37.43	17.19	
2025-01-19 09:24:20.99	37.38	17.18	
2025-01-19 09:24:21.20	37.32	17.18	
2025-01-19 09:24:21.40	37.27	17.18	
2025-01-19 09:24:21.60	37.22	17.17	
2025-01-19 09:24:21.81	37.16	17.17	
2025-01-19 09:24:22.01	37.11	17.17	
2025-01-19 09:24:22.21	37.06	17.17	
2025-01-19 09:24:22.42	37.00	17.16	
2025-01-19 09:24:22.62	36.95	17.16	
2025-01-19 09:24:22.82	36.90	17.16	
2025-01-19 09:24:23.02	36.84	17.15	
2025-01-19 09:24:23.23	36.79	17.15	
2025-01-19 09:24:23.43	36.74	17.15	
2025-01-19 09:24:23.63	36.68	17.14	
2025-01-19 09:24:23.84	36.63	17.14	
2025-01-19 09:24:24.04	36.58	17.14	
2025-01-19 09:24:24.24	36.52	17.13	
2025-01-19 09:24:24.45	36.47	17.13	
2025-01-19 09:24:24.65	36.42	17.13	
2025-01-19 09:24:24.85	36.37	17.12	
2025-01-19 09:24:25.06	36.31	17.12	
2025-01-19 09:24:25.26	36.26	17.12	
2025-01-19 09:24:25.46	36.21	17.11	
2025-01-19 09:24:25.66	36.15	17.11	
2025-01-19 09:24:25.87	36.10	17.11	
2025-01-19 09:24:26.07	36.05	17.10	
2025-01-19 09:24:26.27	35.99	17.10	
2025-01-19 09:24:26.48	35.94	17.10	
2025-01-19 09:24:26.68	35.89	17.09	
2025-01-19 09:24:26.88	35.83	17.09	
2025-01-19 09:24:27.09	35.78	17.09	
2025-01-19 09:24:27.29	35.73	17.08	
2025-01-19 09:24:27.49	35.68	17.08	
2025-01-19 09:24:27.70	35.62	17.08	
2025-01-19 09:24:27.90	35.57	17.07	
2025-01-19 09:24:28.10	35.52	17.07	
2025-01-19 09:24:28.30	35.46	17.07	
2025-01-19 09:24:28.51	35.41	17.06	
2025-01-19 09:24:28.71	35.36	17.06	
2025-01-19 09:24:28.91	35.31	17.05	
2025-01-19 09:24:29.12	35.25	17.05	
2025-01-19 09:24:29.32	35.20	17.05	
2025-01-19 09:24:29.52	35.15	17.04	
2025-01-19 09:24:29.73	35.09	17.04	
2025-01-19 09:24:29.93	35.04	17.04	
2025-01-19 09:24:30.13	34.99	17.03	
2025-01-19 09:24:30.34	34.93	17.03	
2025-01-19 09:24:30.54	34.88	17.02	
2025-01-19 09:24:30.74	34.83	17.02	
2025-01-19 09:24:30.94	34.78	17.02	
2025-01-19 09:24:31.15	34.72	17.01	
2025-01-19 09:24:31.35	34.67	17.01	
2025-01-19 09:24:31.55	34.62	17.00	
2025-01-19 09:24:31.76	34.56	17.00	
2025-01-19 09:24:31.96	34.51	17.00	
2025-01-19 09:24:32.16	34.46	16.99	
2025-01-19 09:24:32.37	34.41	16.99	
2025-01-19 09:24:32.57	34.35	16.98	
2025-01-19 09:24:32.77	34.30	16.98	
2025-01-19 09:24:32.98	34.25	16.97	
2025-01-19 09:24:33.18	34.20	16.97	
2025-01-19 09:24:33.38	34.14	16.97	
2025-01-19 09:24:33.58	34.09	16.96	
2025-01-19 09:24:33.79	34.04	16.96	
2025-01-19 09:24:33.99	33.99	16.95	
2025-01-19 09:24:34.19	33.94	16.95	
2025-01-19 09:24:34.40	33.88	16.94	
2025-01-19 09:24:34.60	33.83	16.94	
2025-01-19 09:24:34.80	33.78	16.94	
2025-01-19 09:24:35.01	33.72	16.93	
2025-01-19 09:24:35.21	33.67	16.93	
2025-01-19 09:24:35.41	33.62	16.92	
2025-01-19 09:24:35.61	33.57	16.92	
2025-01-19 09:24:35.82	33.51	16.91	
2025-01-19 09:24:36.02	33.46	16.91	
2025-01-19 09:24:36.22	33.41	16.90	
2025-01-19 09:24:36.43	33.36	16.90	
2025-01-19 09:24:36.63	33.31	16.90	
2025-01-19 09:24:36.83	33.25	16.89	
2025-01-19 09:24:37.04	33.20	16.89	
2025-01-19 09:24:37.24	33.15	16.88	
2025-01-19 09:24:37.44	33.10	16.88	
2025-01-19 09:24:37.65	33.04	16.87	
2025-01-19 09:24:37.85	32.99	16.87	
2025-01-19 09:24:38.05	32.94	16.86	
2025-01-19 09:24:38.26	32.89	16.86	
2025-01-19 09:24:38.46	32.84	16.85	
2025-01-19 09:24:38.66	32.78	16.85	
2025-01-19 09:24:38.86	32.73	16.84	
2025-01-19 09:24:39.07	32.68	16.84	
2025-01-19 09:24:39.27	32.63	16.83	
2025-01-19 09:24:39.47	32.58	16.83	
2025-01-19 09:24:39.68	32.52	16.82	
2025-01-19 09:24:39.88	32.47	16.82	
2025-01-19 09:24:40.08	32.42	16.81	
2025-01-19 09:24:40.29	32.37	16.81	
2025-01-19 09:24:40.49	32.32	16.80	
2025-01-19 09:24:40.69	32.26	16.80	
2025-01-19 09:24:40.90	32.21	16.79	
2025-01-19 09:24:41.10	32.16	16.79	
2025-01-19 09:24:41.30	32.11	16.78	
2025-01-19 09:24:41.50	32.06	16.78	
2025-01-19 09:24:41.71	32.00	16.77	
2025-01-19 09:24:41.91	31.95	16.77	
2025-01-19 09:24:42.11	31.90	16.76	
2025-01-19 09:24:42.32	31.85	16.76	
2025-01-19 09:24:42.52	31.80	16.75	
2025-01-19 09:24:42.72	31.75	16.75	
2025-01-19 09:24:42.93	31.69	16.74	
2025-01-19 09:24:43.13	31.64	16.74	
2025-01-19 09:24:43.33	31.59	16.73	
2025-01-19 09:24:43.54	31.54	16.73	
2025-01-19 09:24:43.74	31.49	16.72	
2025-01-19 09:24:43.94	31.44	16.72	
2025-01-19 09:24:44.14	31.39	16.71	
2025-01-19 09:24:44.35	31.33	16.70	
2025-01-19 09:24:44.55	31.28	16.70	
2025-01-19 09:24:44.75	31.23	16.69	
2025-01-19 09:24:44.96	31.18	16.69	
2025-01-19 09:24:45.16	31.13	16.68	
2025-01-19 09:24:45.36	31.08	16.68	
2025-01-19 09:24:45.57	31.02	16.67	
2025-01-19 09:24:45.77	30.97	16.67	
2025-01-19 09:24:45.97	30.92	16.66	
2025-01-19 09:24:46.18	30.87	16.65	
2025-01-19 09:24:46.38	30.82	16.65	
2025-01-19 09:24:46.58	30.77	16.64	
2025-01-19 09:24:46.78	30.72	16.64	
2025-01-19 09:24:46.99	30.66	16.63	
2025-01-19 09:24:47.19	30.61	16.63	
2025-01-19 09:24:47.39	30.56	16.62	
2025-01-19 09:24:47.60	30.51	16.61	
2025-01-19 09:24:47.80	30.46	16.61	
2025-01-19 09:24:48.00	30.41	16.60	
2025-01-19 09:24:48.21	30.36	16.60	
2025-01-19 09:24:48.41	30.31	16.59	
2025-01-19 09:24:48.61	30.25	16.59	
2025-01-19 09:24:48.82	30.20	16.58	
2025-01-19 09:24:49.02	30.15	16.57	
2025-01-19 09:24:49.22	30.10	16.57	
2025-01-19 09:24:49.42	30.05	16.56	
2025-01-19 09:24:49.63	30.00	16.56	
2025-01-19 09:24:49.83	29.95	16.55	
2025-01-19 09:24:50.03	29.90	16.54	
2025-01-19 09:24:50.24	29.85	16.54	
2025-01-19 09:24:50.44	29.79	16.53	
2025-01-19 09:24:50.64	29.74	16.53	
2025-01-19 09:24:50.85	29.69	16.52	
2025-01-19 09:24:51.05	29.64	16.51	
2025-01-19 09:24:51.25	29.59	16.51	
2025-01-19 09:24:51.46	29.54	16.50	
2025-01-19 09:24:51.66	29.49	16.49	
2025-01-19 09:24:51.86	29.44	16.49	
2025-01-19 09:24:52.06	29.39	16.48	
2025-01-19 09:24:52.27	29.34	16.48	
2025-01-19 09:24:52.47	29.29	16.47	
2025-01-19 09:24:52.67	29.24	16.46	
2025-01-19 09:24:52.88	29.18	16.46	
2025-01-19 09:24:53.08	29.13	16.45	
2025-01-19 09:24:53.28	29.08	16.45	
2025-01-19 09:24:53.49	29.03	16.44	
2025-01-19 09:24:53.69	28.98	16.43	
2025-01-19 09:24:53.89	28.93	16.43	
2025-01-19 09:24:54.10	28.88	16.42	
2025-01-19 09:24:54.30	28.83	16.41	
