passes_logs/2025/01/19/SPB_Silybum_02/SPB_Silybum_02__20250119_085129_SUOMI_NPP_rec.log

#Pass ID: 20250119_085129_SUOMI NPP
#Satellite: SUOMI NPP
#Configuration: NPP
#Start time: 2025-01-19 08:51:29

#Version: 2.0.20230423
#Station: SPB_Silybum_02
#Location: 30.233357 lon 59.946436 lat
#TLE: 1 37849U 11061A   25018.79654560  .00000210  00000+0  12058-3 0  9999
#TLE: 2 37849  98.7450 319.7371 0001526  35.0024 325.1252 14.19540179685454

#Time	Az	El	Level	Level2	SNR	BER	Gain	Gain2
2025-01-19 08:51:31.08	118.46	4.10	
2025-01-19 08:51:31.29	118.45	4.12	
2025-01-19 08:51:31.49	118.44	4.13	
2025-01-19 08:51:31.69	118.43	4.14	
2025-01-19 08:51:31.90	118.42	4.15	
2025-01-19 08:51:32.10	118.40	4.17	
2025-01-19 08:51:32.30	118.39	4.18	
2025-01-19 08:51:32.51	118.38	4.19	
2025-01-19 08:51:32.71	118.37	4.21	
2025-01-19 08:51:32.91	118.36	4.22	
2025-01-19 08:51:33.12	118.35	4.23	
2025-01-19 08:51:33.32	118.34	4.25	
2025-01-19 08:51:33.52	118.32	4.26	
2025-01-19 08:51:33.72	118.31	4.27	
2025-01-19 08:51:33.93	118.30	4.28	
2025-01-19 08:51:34.13	118.29	4.30	
2025-01-19 08:51:34.33	118.28	4.31	
2025-01-19 08:51:34.54	118.26	4.32	
2025-01-19 08:51:34.74	118.25	4.34	
2025-01-19 08:51:34.94	118.24	4.35	
2025-01-19 08:51:35.15	118.23	4.36	
2025-01-19 08:51:35.35	118.22	4.38	
2025-01-19 08:51:35.55	118.21	4.39	
2025-01-19 08:51:35.76	118.19	4.40	
2025-01-19 08:51:35.96	118.18	4.42	
2025-01-19 08:51:36.16	118.17	4.43	
2025-01-19 08:51:36.36	118.16	4.44	
2025-01-19 08:51:36.57	118.15	4.46	
2025-01-19 08:51:36.77	118.14	4.47	
2025-01-19 08:51:36.97	118.12	4.48	
2025-01-19 08:51:37.18	118.11	4.49	
2025-01-19 08:51:37.38	118.10	4.51	
2025-01-19 08:51:37.58	118.09	4.52	
2025-01-19 08:51:37.79	118.08	4.53	
2025-01-19 08:51:37.99	118.06	4.55	
2025-01-19 08:51:38.19	118.05	4.56	
2025-01-19 08:51:38.40	118.04	4.57	
2025-01-19 08:51:38.60	118.03	4.59	
2025-01-19 08:51:38.80	118.02	4.60	
2025-01-19 08:51:39.00	118.00	4.61	
2025-01-19 08:51:39.21	117.99	4.63	
2025-01-19 08:51:39.41	117.98	4.64	
2025-01-19 08:51:39.61	117.97	4.65	
2025-01-19 08:51:39.82	117.96	4.67	
2025-01-19 08:51:40.02	117.94	4.68	
2025-01-19 08:51:40.22	117.93	4.69	
2025-01-19 08:51:40.43	117.92	4.71	
2025-01-19 08:51:40.63	117.91	4.72	
2025-01-19 08:51:40.83	117.90	4.73	
2025-01-19 08:51:41.04	117.88	4.75	
2025-01-19 08:51:41.24	117.87	4.76	
2025-01-19 08:51:41.44	117.86	4.77	
2025-01-19 08:51:41.64	117.85	4.78	
2025-01-19 08:51:41.85	117.83	4.80	
2025-01-19 08:51:42.05	117.82	4.81	
2025-01-19 08:51:42.25	117.81	4.82	
2025-01-19 08:51:42.46	117.80	4.84	
2025-01-19 08:51:42.66	117.79	4.85	
2025-01-19 08:51:42.86	117.77	4.86	
2025-01-19 08:51:43.07	117.76	4.88	
2025-01-19 08:51:43.27	117.75	4.89	
2025-01-19 08:51:43.47	117.74	4.90	
2025-01-19 08:51:43.68	117.73	4.92	
2025-01-19 08:51:43.88	117.71	4.93	
2025-01-19 08:51:44.08	117.70	4.94	
2025-01-19 08:51:44.28	117.69	4.96	
2025-01-19 08:51:44.49	117.68	4.97	
2025-01-19 08:51:44.69	117.66	4.98	
2025-01-19 08:51:44.89	117.65	5.00	
2025-01-19 08:51:45.10	117.64	5.01	
2025-01-19 08:51:45.30	117.63	5.02	
2025-01-19 08:51:45.50	117.61	5.04	
2025-01-19 08:51:45.71	117.60	5.05	
2025-01-19 08:51:45.91	117.59	5.06	
2025-01-19 08:51:46.11	117.58	5.08	
2025-01-19 08:51:46.32	117.56	5.09	
2025-01-19 08:51:46.52	117.55	5.10	
2025-01-19 08:51:46.72	117.54	5.12	
2025-01-19 08:51:46.92	117.53	5.13	
2025-01-19 08:51:47.13	117.52	5.15	
2025-01-19 08:51:47.33	117.50	5.16	
2025-01-19 08:51:47.53	117.49	5.17	
2025-01-19 08:51:47.74	117.48	5.19	
2025-01-19 08:51:47.94	117.47	5.20	
2025-01-19 08:51:48.14	117.45	5.21	
2025-01-19 08:51:48.35	117.44	5.23	
2025-01-19 08:51:48.55	117.43	5.24	
2025-01-19 08:51:48.75	117.42	5.25	
2025-01-19 08:51:48.96	117.40	5.27	
2025-01-19 08:51:49.16	117.39	5.28	
2025-01-19 08:51:49.36	117.38	5.29	
2025-01-19 08:51:49.56	117.37	5.31	
2025-01-19 08:51:49.77	117.35	5.32	
2025-01-19 08:51:49.97	117.34	5.33	
2025-01-19 08:51:50.17	117.33	5.35	
2025-01-19 08:51:50.38	117.31	5.36	
2025-01-19 08:51:50.58	117.30	5.37	
2025-01-19 08:51:50.78	117.29	5.39	
2025-01-19 08:51:50.99	117.28	5.40	
2025-01-19 08:51:51.19	117.26	5.41	
2025-01-19 08:51:51.39	117.25	5.43	
2025-01-19 08:51:51.60	117.24	5.44	
2025-01-19 08:51:51.80	117.23	5.45	
2025-01-19 08:51:52.00	117.21	5.47	
2025-01-19 08:51:52.20	117.20	5.48	
2025-01-19 08:51:52.41	117.19	5.50	
2025-01-19 08:51:52.61	117.18	5.51	
2025-01-19 08:51:52.81	117.16	5.52	
2025-01-19 08:51:53.02	117.15	5.54	
2025-01-19 08:51:53.22	117.14	5.55	
2025-01-19 08:51:53.42	117.12	5.56	
2025-01-19 08:51:53.63	117.11	5.58	
2025-01-19 08:51:53.83	117.10	5.59	
2025-01-19 08:51:54.03	117.09	5.60	
2025-01-19 08:51:54.24	117.07	5.62	
2025-01-19 08:51:54.44	117.06	5.63	
2025-01-19 08:51:54.64	117.05	5.64	
2025-01-19 08:51:54.84	117.03	5.66	
2025-01-19 08:51:55.05	117.02	5.67	
2025-01-19 08:51:55.25	117.01	5.69	
2025-01-19 08:51:55.45	117.00	5.70	
2025-01-19 08:51:55.66	116.98	5.71	
2025-01-19 08:51:55.86	116.97	5.73	
2025-01-19 08:51:56.06	116.96	5.74	
2025-01-19 08:51:56.27	116.94	5.75	
2025-01-19 08:51:56.47	116.93	5.77	
2025-01-19 08:51:56.67	116.92	5.78	
2025-01-19 08:51:56.88	116.90	5.80	
2025-01-19 08:51:57.08	116.89	5.81	
2025-01-19 08:51:57.28	116.88	5.82	
2025-01-19 08:51:57.48	116.87	5.84	
2025-01-19 08:51:57.69	116.85	5.85	
2025-01-19 08:51:57.89	116.84	5.86	
2025-01-19 08:51:58.09	116.83	5.88	
2025-01-19 08:51:58.30	116.81	5.89	
2025-01-19 08:51:58.50	116.80	5.90	
2025-01-19 08:51:58.70	116.79	5.92	
2025-01-19 08:51:58.91	116.77	5.93	
2025-01-19 08:51:59.11	116.76	5.95	
2025-01-19 08:51:59.31	116.75	5.96	
2025-01-19 08:51:59.52	116.73	5.97	
2025-01-19 08:51:59.72	116.72	5.99	
2025-01-19 08:51:59.92	116.71	6.00	
2025-01-19 08:52:00.12	116.69	6.01	
2025-01-19 08:52:00.33	116.68	6.03	
2025-01-19 08:52:00.53	116.67	6.04	
2025-01-19 08:52:00.73	116.65	6.06	
2025-01-19 08:52:00.94	116.64	6.07	
2025-01-19 08:52:01.14	116.63	6.08	
2025-01-19 08:52:01.34	116.61	6.10	
2025-01-19 08:52:01.55	116.60	6.11	
2025-01-19 08:52:01.75	116.59	6.12	
2025-01-19 08:52:01.95	116.57	6.14	
2025-01-19 08:52:02.16	116.56	6.15	
2025-01-19 08:52:02.36	116.55	6.17	
2025-01-19 08:52:02.56	116.53	6.18	
2025-01-19 08:52:02.76	116.52	6.19	
2025-01-19 08:52:02.97	116.51	6.21	
2025-01-19 08:52:03.17	116.49	6.22	
2025-01-19 08:52:03.37	116.48	6.24	
2025-01-19 08:52:03.58	116.47	6.25	
2025-01-19 08:52:03.78	116.45	6.26	
2025-01-19 08:52:03.98	116.44	6.28	
2025-01-19 08:52:04.19	116.43	6.29	
2025-01-19 08:52:04.39	116.41	6.30	
2025-01-19 08:52:04.59	116.40	6.32	
2025-01-19 08:52:04.80	116.39	6.33	
2025-01-19 08:52:05.00	116.37	6.35	
2025-01-19 08:52:05.20	116.36	6.36	
2025-01-19 08:52:05.40	116.35	6.37	
2025-01-19 08:52:05.61	116.33	6.39	
2025-01-19 08:52:05.81	116.32	6.40	
2025-01-19 08:52:06.01	116.30	6.42	
2025-01-19 08:52:06.22	116.29	6.43	
2025-01-19 08:52:06.42	116.28	6.44	
2025-01-19 08:52:06.62	116.26	6.46	
2025-01-19 08:52:06.83	116.25	6.47	
2025-01-19 08:52:07.03	116.24	6.49	
2025-01-19 08:52:07.23	116.22	6.50	
2025-01-19 08:52:07.44	116.21	6.51	
2025-01-19 08:52:07.64	116.19	6.53	
2025-01-19 08:52:07.84	116.18	6.54	
2025-01-19 08:52:08.04	116.17	6.56	
2025-01-19 08:52:08.25	116.15	6.57	
2025-01-19 08:52:08.45	116.14	6.58	
2025-01-19 08:52:08.65	116.13	6.60	
2025-01-19 08:52:08.86	116.11	6.61	
2025-01-19 08:52:09.06	116.10	6.63	
2025-01-19 08:52:09.26	116.08	6.64	
2025-01-19 08:52:09.47	116.07	6.65	
2025-01-19 08:52:09.67	116.06	6.67	
2025-01-19 08:52:09.87	116.04	6.68	
2025-01-19 08:52:10.08	116.03	6.70	
2025-01-19 08:52:10.28	116.01	6.71	
2025-01-19 08:52:10.48	116.00	6.72	
2025-01-19 08:52:10.69	115.99	6.74	
2025-01-19 08:52:10.89	115.97	6.75	
2025-01-19 08:52:11.09	115.96	6.77	
2025-01-19 08:52:11.29	115.95	6.78	
2025-01-19 08:52:11.50	115.93	6.80	
2025-01-19 08:52:11.70	115.92	6.81	
2025-01-19 08:52:11.90	115.90	6.82	
2025-01-19 08:52:12.11	115.89	6.84	
2025-01-19 08:52:12.31	115.88	6.85	
2025-01-19 08:52:12.51	115.86	6.87	
2025-01-19 08:52:12.72	115.85	6.88	
2025-01-19 08:52:12.92	115.83	6.89	
2025-01-19 08:52:13.12	115.82	6.91	
2025-01-19 08:52:13.33	115.80	6.92	
2025-01-19 08:52:13.53	115.79	6.94	
2025-01-19 08:52:13.73	115.78	6.95	
2025-01-19 08:52:13.93	115.76	6.96	
2025-01-19 08:52:14.14	115.75	6.98	
2025-01-19 08:52:14.34	115.73	6.99	
2025-01-19 08:52:14.54	115.72	7.01	
2025-01-19 08:52:14.75	115.71	7.02	
2025-01-19 08:52:14.95	115.69	7.04	
2025-01-19 08:52:15.15	115.68	7.05	
2025-01-19 08:52:15.36	115.66	7.06	
2025-01-19 08:52:15.56	115.65	7.08	
2025-01-19 08:52:15.76	115.63	7.09	
2025-01-19 08:52:15.97	115.62	7.11	
2025-01-19 08:52:16.17	115.61	7.12	
2025-01-19 08:52:16.37	115.59	7.14	
2025-01-19 08:52:16.57	115.58	7.15	
2025-01-19 08:52:16.78	115.56	7.16	
2025-01-19 08:52:16.98	115.55	7.18	
2025-01-19 08:52:17.18	115.53	7.19	
2025-01-19 08:52:17.39	115.52	7.21	
2025-01-19 08:52:17.59	115.50	7.22	
2025-01-19 08:52:17.79	115.49	7.23	
2025-01-19 08:52:18.00	115.48	7.25	
2025-01-19 08:52:18.20	115.46	7.26	
2025-01-19 08:52:18.40	115.45	7.28	
2025-01-19 08:52:18.61	115.43	7.29	
2025-01-19 08:52:18.81	115.42	7.31	
2025-01-19 08:52:19.01	115.40	7.32	
2025-01-19 08:52:19.21	115.39	7.33	
2025-01-19 08:52:19.42	115.37	7.35	
2025-01-19 08:52:19.62	115.36	7.36	
2025-01-19 08:52:19.82	115.35	7.38	
2025-01-19 08:52:20.03	115.33	7.39	
2025-01-19 08:52:20.23	115.32	7.41	
2025-01-19 08:52:20.43	115.30	7.42	
2025-01-19 08:52:20.64	115.29	7.44	
2025-01-19 08:52:20.84	115.27	7.45	
2025-01-19 08:52:21.04	115.26	7.46	
2025-01-19 08:52:21.25	115.24	7.48	
2025-01-19 08:52:21.45	115.23	7.49	
2025-01-19 08:52:21.65	115.21	7.51	
2025-01-19 08:52:21.85	115.20	7.52	
2025-01-19 08:52:22.06	115.18	7.54	
2025-01-19 08:52:22.26	115.17	7.55	
2025-01-19 08:52:22.46	115.15	7.57	
2025-01-19 08:52:22.67	115.14	7.58	
2025-01-19 08:52:22.87	115.12	7.59	
2025-01-19 08:52:23.07	115.11	7.61	
2025-01-19 08:52:23.28	115.09	7.62	
2025-01-19 08:52:23.48	115.08	7.64	
2025-01-19 08:52:23.68	115.07	7.65	
2025-01-19 08:52:23.89	115.05	7.67	
2025-01-19 08:52:24.09	115.04	7.68	
2025-01-19 08:52:24.29	115.02	7.70	
2025-01-19 08:52:24.49	115.01	7.71	
2025-01-19 08:52:24.70	114.99	7.72	
2025-01-19 08:52:24.90	114.98	7.74	
2025-01-19 08:52:25.10	114.96	7.75	
2025-01-19 08:52:25.31	114.95	7.77	
2025-01-19 08:52:25.51	114.93	7.78	
2025-01-19 08:52:25.71	114.92	7.80	
2025-01-19 08:52:25.92	114.90	7.81	
2025-01-19 08:52:26.12	114.89	7.83	
2025-01-19 08:52:26.32	114.87	7.84	
2025-01-19 08:52:26.53	114.85	7.86	
2025-01-19 08:52:26.73	114.84	7.87	
2025-01-19 08:52:26.93	114.83	7.88	
2025-01-19 08:52:27.13	114.81	7.90	
2025-01-19 08:52:27.34	114.79	7.91	
2025-01-19 08:52:27.54	114.78	7.93	
2025-01-19 08:52:27.74	114.76	7.94	
2025-01-19 08:52:27.95	114.75	7.96	
2025-01-19 08:52:28.15	114.73	7.97	
2025-01-19 08:52:28.35	114.72	7.99	
2025-01-19 08:52:28.56	114.70	8.00	
2025-01-19 08:52:28.76	114.69	8.02	
2025-01-19 08:52:28.96	114.67	8.03	
2025-01-19 08:52:29.17	114.66	8.05	
2025-01-19 08:52:29.37	114.64	8.06	
2025-01-19 08:52:29.57	114.63	8.07	
2025-01-19 08:52:29.77	114.61	8.09	
2025-01-19 08:52:29.98	114.60	8.10	
2025-01-19 08:52:30.18	114.58	8.12	
2025-01-19 08:52:30.38	114.57	8.13	
2025-01-19 08:52:30.59	114.55	8.15	
2025-01-19 08:52:30.79	114.53	8.16	
2025-01-19 08:52:30.99	114.52	8.18	
2025-01-19 08:52:31.20	114.50	8.19	
2025-01-19 08:52:31.40	114.49	8.21	
2025-01-19 08:52:31.60	114.47	8.22	
2025-01-19 08:52:31.81	114.46	8.24	
2025-01-19 08:52:32.01	114.44	8.25	
2025-01-19 08:52:32.21	114.43	8.27	
2025-01-19 08:52:32.41	114.41	8.28	
2025-01-19 08:52:32.62	114.40	8.30	
2025-01-19 08:52:32.82	114.38	8.31	
2025-01-19 08:52:33.02	114.36	8.32	
2025-01-19 08:52:33.23	114.35	8.34	
2025-01-19 08:52:33.43	114.33	8.35	
2025-01-19 08:52:33.63	114.32	8.37	
2025-01-19 08:52:33.84	114.30	8.38	
2025-01-19 08:52:34.04	114.29	8.40	
2025-01-19 08:52:34.24	114.27	8.41	
2025-01-19 08:52:34.45	114.25	8.43	
2025-01-19 08:52:34.65	114.24	8.44	
2025-01-19 08:52:34.85	114.22	8.46	
2025-01-19 08:52:35.05	114.21	8.47	
2025-01-19 08:52:35.26	114.19	8.49	
2025-01-19 08:52:35.46	114.18	8.50	
2025-01-19 08:52:35.66	114.16	8.52	
2025-01-19 08:52:35.87	114.14	8.53	
2025-01-19 08:52:36.07	114.13	8.55	
2025-01-19 08:52:36.27	114.11	8.56	
2025-01-19 08:52:36.48	114.10	8.58	
2025-01-19 08:52:36.68	114.08	8.59	
2025-01-19 08:52:36.88	114.06	8.61	
2025-01-19 08:52:37.09	114.05	8.62	
2025-01-19 08:52:37.29	114.03	8.64	
2025-01-19 08:52:37.49	114.02	8.65	
2025-01-19 08:52:37.69	114.00	8.67	
2025-01-19 08:52:37.90	113.98	8.68	
2025-01-19 08:52:38.10	113.97	8.70	
2025-01-19 08:52:38.30	113.95	8.71	
2025-01-19 08:52:38.51	113.94	8.73	
2025-01-19 08:52:38.71	113.92	8.74	
2025-01-19 08:52:38.91	113.90	8.76	
2025-01-19 08:52:39.12	113.89	8.77	
2025-01-19 08:52:39.32	113.87	8.79	
2025-01-19 08:52:39.52	113.86	8.80	
2025-01-19 08:52:39.73	113.84	8.82	
2025-01-19 08:52:39.93	113.82	8.83	
2025-01-19 08:52:40.13	113.81	8.85	
2025-01-19 08:52:40.33	113.79	8.86	
2025-01-19 08:52:40.54	113.78	8.88	
2025-01-19 08:52:40.74	113.76	8.89	
2025-01-19 08:52:40.94	113.74	8.91	
2025-01-19 08:52:41.15	113.73	8.92	
2025-01-19 08:52:41.35	113.71	8.94	
2025-01-19 08:52:41.55	113.69	8.95	
2025-01-19 08:52:41.76	113.68	8.97	
2025-01-19 08:52:41.96	113.66	8.98	
2025-01-19 08:52:42.16	113.65	9.00	
2025-01-19 08:52:42.37	113.63	9.01	
2025-01-19 08:52:42.57	113.61	9.03	
2025-01-19 08:52:42.77	113.60	9.04	
2025-01-19 08:52:42.97	113.58	9.06	
2025-01-19 08:52:43.18	113.56	9.07	
2025-01-19 08:52:43.38	113.55	9.09	
2025-01-19 08:52:43.58	113.53	9.10	
2025-01-19 08:52:43.79	113.51	9.12	
2025-01-19 08:52:43.99	113.50	9.13	
2025-01-19 08:52:44.19	113.48	9.15	
2025-01-19 08:52:44.40	113.46	9.16	
2025-01-19 08:52:44.60	113.45	9.18	
2025-01-19 08:52:44.80	113.43	9.19	
2025-01-19 08:52:45.01	113.41	9.21	
2025-01-19 08:52:45.21	113.40	9.22	
2025-01-19 08:52:45.41	113.38	9.24	
2025-01-19 08:52:45.61	113.36	9.25	
2025-01-19 08:52:45.82	113.35	9.27	
2025-01-19 08:52:46.02	113.33	9.28	
2025-01-19 08:52:46.22	113.31	9.30	
2025-01-19 08:52:46.43	113.30	9.32	
2025-01-19 08:52:46.63	113.28	9.33	
2025-01-19 08:52:46.83	113.26	9.35	
2025-01-19 08:52:47.04	113.25	9.36	
2025-01-19 08:52:47.24	113.23	9.38	
2025-01-19 08:52:47.44	113.21	9.39	
2025-01-19 08:52:47.65	113.20	9.41	
2025-01-19 08:52:47.85	113.18	9.42	
2025-01-19 08:52:48.05	113.16	9.44	
2025-01-19 08:52:48.25	113.15	9.45	
2025-01-19 08:52:48.46	113.13	9.47	
2025-01-19 08:52:48.66	113.11	9.48	
2025-01-19 08:52:48.86	113.10	9.50	
2025-01-19 08:52:49.07	113.08	9.51	
2025-01-19 08:52:49.27	113.06	9.53	
2025-01-19 08:52:49.47	113.04	9.54	
2025-01-19 08:52:49.68	113.03	9.56	
2025-01-19 08:52:49.88	113.01	9.57	
2025-01-19 08:52:50.08	112.99	9.59	
2025-01-19 08:52:50.29	112.98	9.61	
2025-01-19 08:52:50.49	112.96	9.62	
2025-01-19 08:52:50.69	112.94	9.64	
2025-01-19 08:52:50.89	112.93	9.65	
2025-01-19 08:52:51.10	112.91	9.67	
2025-01-19 08:52:51.30	112.89	9.68	
2025-01-19 08:52:51.50	112.87	9.70	
2025-01-19 08:52:51.71	112.86	9.71	
2025-01-19 08:52:51.91	112.84	9.73	
2025-01-19 08:52:52.11	112.82	9.74	
2025-01-19 08:52:52.32	112.80	9.76	
2025-01-19 08:52:52.52	112.79	9.77	
2025-01-19 08:52:52.72	112.77	9.79	
2025-01-19 08:52:52.93	112.75	9.81	
2025-01-19 08:52:53.13	112.73	9.82	
2025-01-19 08:52:53.33	112.72	9.84	
2025-01-19 08:52:53.53	112.70	9.85	
2025-01-19 08:52:53.74	112.68	9.87	
2025-01-19 08:52:53.94	112.67	9.88	
2025-01-19 08:52:54.14	112.65	9.90	
2025-01-19 08:52:54.35	112.63	9.91	
2025-01-19 08:52:54.55	112.61	9.93	
2025-01-19 08:52:54.75	112.60	9.94	
2025-01-19 08:52:54.96	112.58	9.96	
2025-01-19 08:52:55.16	112.56	9.98	
2025-01-19 08:52:55.36	112.54	9.99	
2025-01-19 08:52:55.57	112.53	10.01	
2025-01-19 08:52:55.77	112.51	10.02	
2025-01-19 08:52:55.97	112.49	10.04	
2025-01-19 08:52:56.17	112.47	10.05	
2025-01-19 08:52:56.39	112.45	10.07	
2025-01-19 08:52:56.60	112.44	10.09	
2025-01-19 08:52:56.80	112.42	10.10	
2025-01-19 08:52:57.00	112.40	10.12	
2025-01-19 08:52:57.21	112.38	10.13	
2025-01-19 08:52:57.41	112.36	10.15	
2025-01-19 08:52:57.61	112.35	10.16	
2025-01-19 08:52:57.81	112.33	10.18	
2025-01-19 08:52:58.02	112.31	10.20	
2025-01-19 08:52:58.22	112.29	10.21	
2025-01-19 08:52:58.42	112.28	10.23	
2025-01-19 08:52:58.63	112.26	10.24	
2025-01-19 08:52:58.83	112.24	10.26	
2025-01-19 08:52:59.03	112.22	10.27	
2025-01-19 08:52:59.24	112.20	10.29	
2025-01-19 08:52:59.44	112.19	10.30	
2025-01-19 08:52:59.64	112.17	10.32	
2025-01-19 08:52:59.85	112.15	10.34	
2025-01-19 08:53:00.05	112.13	10.35	
2025-01-19 08:53:00.25	112.11	10.37	
2025-01-19 08:53:00.45	112.10	10.38	
2025-01-19 08:53:00.66	112.08	10.40	
2025-01-19 08:53:00.86	112.06	10.41	
2025-01-19 08:53:01.06	112.04	10.43	
2025-01-19 08:53:01.27	112.02	10.45	
2025-01-19 08:53:01.47	112.01	10.46	
2025-01-19 08:53:01.67	111.99	10.48	
2025-01-19 08:53:01.88	111.97	10.49	
2025-01-19 08:53:02.08	111.95	10.51	
2025-01-19 08:53:02.28	111.93	10.52	
2025-01-19 08:53:02.49	111.91	10.54	
2025-01-19 08:53:02.69	111.90	10.56	
2025-01-19 08:53:02.89	111.88	10.57	
2025-01-19 08:53:03.09	111.86	10.59	
2025-01-19 08:53:03.30	111.84	10.60	
2025-01-19 08:53:03.50	111.82	10.62	
2025-01-19 08:53:03.70	111.81	10.64	
2025-01-19 08:53:03.91	111.79	10.65	
2025-01-19 08:53:04.11	111.77	10.67	
2025-01-19 08:53:04.31	111.75	10.68	
2025-01-19 08:53:04.52	111.73	10.70	
2025-01-19 08:53:04.72	111.71	10.71	
2025-01-19 08:53:04.92	111.69	10.73	
2025-01-19 08:53:05.13	111.68	10.75	
2025-01-19 08:53:05.33	111.66	10.76	
2025-01-19 08:53:05.53	111.64	10.78	
2025-01-19 08:53:05.73	111.62	10.79	
2025-01-19 08:53:05.94	111.60	10.81	
2025-01-19 08:53:06.14	111.58	10.83	
2025-01-19 08:53:06.34	111.57	10.84	
2025-01-19 08:53:06.55	111.55	10.86	
2025-01-19 08:53:06.75	111.53	10.87	
2025-01-19 08:53:06.95	111.51	10.89	
2025-01-19 08:53:07.16	111.49	10.91	
2025-01-19 08:53:07.36	111.47	10.92	
2025-01-19 08:53:07.56	111.45	10.94	
2025-01-19 08:53:07.77	111.43	10.95	
2025-01-19 08:53:07.97	111.41	10.97	
2025-01-19 08:53:08.17	111.40	10.99	
2025-01-19 08:53:08.37	111.38	11.00	
2025-01-19 08:53:08.58	111.36	11.02	
2025-01-19 08:53:08.78	111.34	11.03	
2025-01-19 08:53:08.98	111.32	11.05	
2025-01-19 08:53:09.19	111.30	11.07	
2025-01-19 08:53:09.39	111.28	11.08	
2025-01-19 08:53:09.59	111.26	11.10	
2025-01-19 08:53:09.80	111.24	11.11	
2025-01-19 08:53:10.00	111.23	11.13	
2025-01-19 08:53:10.20	111.21	11.15	
2025-01-19 08:53:10.41	111.19	11.16	
2025-01-19 08:53:10.61	111.17	11.18	
2025-01-19 08:53:10.81	111.15	11.19	
2025-01-19 08:53:11.01	111.13	11.21	
2025-01-19 08:53:11.22	111.11	11.23	
2025-01-19 08:53:11.42	111.09	11.24	
2025-01-19 08:53:11.62	111.07	11.26	
2025-01-19 08:53:11.83	111.05	11.27	
2025-01-19 08:53:12.03	111.03	11.29	
2025-01-19 08:53:12.23	111.02	11.31	
2025-01-19 08:53:12.44	111.00	11.32	
2025-01-19 08:53:12.64	110.98	11.34	
2025-01-19 08:53:12.84	110.96	11.35	
2025-01-19 08:53:13.05	110.94	11.37	
2025-01-19 08:53:13.25	110.92	11.39	
2025-01-19 08:53:13.45	110.90	11.40	
2025-01-19 08:53:13.66	110.88	11.42	
2025-01-19 08:53:13.86	110.86	11.44	
2025-01-19 08:53:14.06	110.84	11.45	
2025-01-19 08:53:14.26	110.82	11.47	
2025-01-19 08:53:14.47	110.80	11.48	
2025-01-19 08:53:14.67	110.78	11.50	
2025-01-19 08:53:14.87	110.76	11.52	
2025-01-19 08:53:15.08	110.74	11.53	
2025-01-19 08:53:15.28	110.72	11.55	
2025-01-19 08:53:15.48	110.70	11.57	
2025-01-19 08:53:15.69	110.68	11.58	
2025-01-19 08:53:15.89	110.67	11.60	
2025-01-19 08:53:16.09	110.65	11.61	
2025-01-19 08:53:16.30	110.63	11.63	
2025-01-19 08:53:16.50	110.61	11.65	
2025-01-19 08:53:16.70	110.59	11.66	
2025-01-19 08:53:16.90	110.57	11.68	
2025-01-19 08:53:17.11	110.55	11.70	
2025-01-19 08:53:17.31	110.53	11.71	
2025-01-19 08:53:17.51	110.51	11.73	
2025-01-19 08:53:17.72	110.49	11.75	
2025-01-19 08:53:17.92	110.47	11.76	
2025-01-19 08:53:18.12	110.45	11.78	
2025-01-19 08:53:18.33	110.43	11.79	
2025-01-19 08:53:18.53	110.41	11.81	
2025-01-19 08:53:18.73	110.39	11.83	
2025-01-19 08:53:18.94	110.37	11.84	
2025-01-19 08:53:19.14	110.35	11.86	
2025-01-19 08:53:19.34	110.33	11.88	
2025-01-19 08:53:19.54	110.31	11.89	
2025-01-19 08:53:19.75	110.29	11.91	
2025-01-19 08:53:19.95	110.27	11.93	
2025-01-19 08:53:20.15	110.25	11.94	
2025-01-19 08:53:20.36	110.23	11.96	
2025-01-19 08:53:20.56	110.21	11.97	
2025-01-19 08:53:20.76	110.19	11.99	
2025-01-19 08:53:20.97	110.17	12.01	
2025-01-19 08:53:21.17	110.15	12.02	
2025-01-19 08:53:21.37	110.13	12.04	
2025-01-19 08:53:21.58	110.11	12.06	
2025-01-19 08:53:21.78	110.09	12.07	
2025-01-19 08:53:21.98	110.07	12.09	
2025-01-19 08:53:22.18	110.05	12.11	
2025-01-19 08:53:22.39	110.02	12.12	
2025-01-19 08:53:22.59	110.00	12.14	
2025-01-19 08:53:22.79	109.98	12.16	
2025-01-19 08:53:23.00	109.96	12.17	
2025-01-19 08:53:23.20	109.94	12.19	
2025-01-19 08:53:23.40	109.92	12.21	
2025-01-19 08:53:23.61	109.90	12.22	
2025-01-19 08:53:23.81	109.88	12.24	
2025-01-19 08:53:24.01	109.86	12.26	
2025-01-19 08:53:24.22	109.84	12.27	
2025-01-19 08:53:24.42	109.82	12.29	
2025-01-19 08:53:24.62	109.80	12.30	
2025-01-19 08:53:24.82	109.78	12.32	
2025-01-19 08:53:25.03	109.76	12.34	
2025-01-19 08:53:25.23	109.74	12.35	
2025-01-19 08:53:25.43	109.72	12.37	
2025-01-19 08:53:25.64	109.70	12.39	
2025-01-19 08:53:25.84	109.68	12.40	
2025-01-19 08:53:26.04	109.65	12.42	
2025-01-19 08:53:26.25	109.63	12.44	
2025-01-19 08:53:26.45	109.61	12.45	
2025-01-19 08:53:26.65	109.59	12.47	
2025-01-19 08:53:26.86	109.57	12.49	
2025-01-19 08:53:27.06	109.55	12.50	
2025-01-19 08:53:27.26	109.53	12.52	
2025-01-19 08:53:27.46	109.51	12.54	
2025-01-19 08:53:27.67	109.49	12.55	
2025-01-19 08:53:27.87	109.47	12.57	
2025-01-19 08:53:28.07	109.45	12.59	
2025-01-19 08:53:28.28	109.42	12.61	
2025-01-19 08:53:28.48	109.40	12.62	
2025-01-19 08:53:28.68	109.38	12.64	
2025-01-19 08:53:28.89	109.36	12.66	
2025-01-19 08:53:29.09	109.34	12.67	
2025-01-19 08:53:29.29	109.32	12.69	
2025-01-19 08:53:29.50	109.30	12.71	
2025-01-19 08:53:29.70	109.28	12.72	
2025-01-19 08:53:29.90	109.25	12.74	
2025-01-19 08:53:30.10	109.23	12.76	
2025-01-19 08:53:30.31	109.21	12.77	
2025-01-19 08:53:30.51	109.19	12.79	
2025-01-19 08:53:30.71	109.17	12.81	
2025-01-19 08:53:30.92	109.15	12.82	
2025-01-19 08:53:31.12	109.13	12.84	
2025-01-19 08:53:31.32	109.11	12.86	
2025-01-19 08:53:31.53	109.08	12.87	
2025-01-19 08:53:31.73	109.06	12.89	
2025-01-19 08:53:31.93	109.04	12.91	
2025-01-19 08:53:32.14	109.02	12.92	
2025-01-19 08:53:32.34	109.00	12.94	
2025-01-19 08:53:32.54	108.98	12.96	
2025-01-19 08:53:32.74	108.95	12.97	
2025-01-19 08:53:32.95	108.93	12.99	
2025-01-19 08:53:33.15	108.91	13.01	
2025-01-19 08:53:33.35	108.89	13.03	
2025-01-19 08:53:33.56	108.87	13.04	
2025-01-19 08:53:33.76	108.85	13.06	
2025-01-19 08:53:33.96	108.82	13.08	
2025-01-19 08:53:34.17	108.80	13.09	
2025-01-19 08:53:34.37	108.78	13.11	
2025-01-19 08:53:34.57	108.76	13.13	
2025-01-19 08:53:34.78	108.74	13.14	
2025-01-19 08:53:34.98	108.71	13.16	
2025-01-19 08:53:35.18	108.69	13.18	
2025-01-19 08:53:35.38	108.67	13.19	
2025-01-19 08:53:35.59	108.65	13.21	
2025-01-19 08:53:35.79	108.63	13.23	
2025-01-19 08:53:35.99	108.61	13.25	
2025-01-19 08:53:36.20	108.58	13.26	
2025-01-19 08:53:36.40	108.56	13.28	
2025-01-19 08:53:36.60	108.54	13.30	
2025-01-19 08:53:36.81	108.52	13.31	
2025-01-19 08:53:37.01	108.49	13.33	
2025-01-19 08:53:37.21	108.47	13.35	
2025-01-19 08:53:37.42	108.45	13.37	
2025-01-19 08:53:37.62	108.43	13.38	
2025-01-19 08:53:37.82	108.41	13.40	
2025-01-19 08:53:38.02	108.38	13.42	
2025-01-19 08:53:38.23	108.36	13.43	
2025-01-19 08:53:38.43	108.34	13.45	
2025-01-19 08:53:38.63	108.32	13.47	
2025-01-19 08:53:38.84	108.29	13.49	
2025-01-19 08:53:39.04	108.27	13.50	
2025-01-19 08:53:39.24	108.25	13.52	
2025-01-19 08:53:39.45	108.23	13.54	
2025-01-19 08:53:39.65	108.20	13.55	
2025-01-19 08:53:39.85	108.18	13.57	
2025-01-19 08:53:40.06	108.16	13.59	
2025-01-19 08:53:40.26	108.14	13.61	
2025-01-19 08:53:40.46	108.11	13.62	
2025-01-19 08:53:40.66	108.09	13.64	
2025-01-19 08:53:40.87	108.07	13.66	
2025-01-19 08:53:41.07	108.05	13.67	
2025-01-19 08:53:41.27	108.02	13.69	
2025-01-19 08:53:41.48	108.00	13.71	
2025-01-19 08:53:41.68	107.98	13.73	
2025-01-19 08:53:41.88	107.96	13.74	
2025-01-19 08:53:42.09	107.93	13.76	
2025-01-19 08:53:42.29	107.91	13.78	
2025-01-19 08:53:42.49	107.89	13.79	
2025-01-19 08:53:42.70	107.86	13.81	
2025-01-19 08:53:42.90	107.84	13.83	
2025-01-19 08:53:43.10	107.82	13.85	
2025-01-19 08:53:43.30	107.80	13.86	
2025-01-19 08:53:43.51	107.77	13.88	
2025-01-19 08:53:43.71	107.75	13.90	
2025-01-19 08:53:43.91	107.73	13.92	
2025-01-19 08:53:44.12	107.70	13.93	
2025-01-19 08:53:44.32	107.68	13.95	
2025-01-19 08:53:44.52	107.66	13.97	
2025-01-19 08:53:44.73	107.63	13.99	
2025-01-19 08:53:44.93	107.61	14.00	
2025-01-19 08:53:45.13	107.59	14.02	
2025-01-19 08:53:45.34	107.56	14.04	
2025-01-19 08:53:45.54	107.54	14.05	
2025-01-19 08:53:45.74	107.52	14.07	
2025-01-19 08:53:45.94	107.49	14.09	
2025-01-19 08:53:46.15	107.47	14.11	
2025-01-19 08:53:46.35	107.45	14.12	
2025-01-19 08:53:46.55	107.42	14.14	
2025-01-19 08:53:46.76	107.40	14.16	
2025-01-19 08:53:46.96	107.38	14.18	
2025-01-19 08:53:47.16	107.35	14.19	
2025-01-19 08:53:47.37	107.33	14.21	
2025-01-19 08:53:47.57	107.31	14.23	
2025-01-19 08:53:47.77	107.28	14.25	
2025-01-19 08:53:47.98	107.26	14.26	
2025-01-19 08:53:48.18	107.23	14.28	
2025-01-19 08:53:48.38	107.21	14.30	
2025-01-19 08:53:48.58	107.19	14.32	
2025-01-19 08:53:48.79	107.16	14.33	
2025-01-19 08:53:48.99	107.14	14.35	
2025-01-19 08:53:49.19	107.12	14.37	
2025-01-19 08:53:49.40	107.09	14.39	
2025-01-19 08:53:49.60	107.07	14.40	
2025-01-19 08:53:49.80	107.05	14.42	
2025-01-19 08:53:50.01	107.02	14.44	
2025-01-19 08:53:50.21	107.00	14.46	
2025-01-19 08:53:50.41	106.97	14.47	
2025-01-19 08:53:50.62	106.95	14.49	
2025-01-19 08:53:50.82	106.92	14.51	
2025-01-19 08:53:51.02	106.90	14.53	
2025-01-19 08:53:51.22	106.88	14.54	
2025-01-19 08:53:51.43	106.85	14.56	
2025-01-19 08:53:51.63	106.83	14.58	
2025-01-19 08:53:51.83	106.81	14.60	
2025-01-19 08:53:52.04	106.78	14.61	
2025-01-19 08:53:52.24	106.76	14.63	
2025-01-19 08:53:52.44	106.73	14.65	
2025-01-19 08:53:52.65	106.71	14.67	
2025-01-19 08:53:52.85	106.68	14.69	
2025-01-19 08:53:53.05	106.66	14.70	
2025-01-19 08:53:53.26	106.63	14.72	
2025-01-19 08:53:53.46	106.61	14.74	
2025-01-19 08:53:53.66	106.59	14.76	
2025-01-19 08:53:53.86	106.56	14.77	
2025-01-19 08:53:54.07	106.54	14.79	
2025-01-19 08:53:54.27	106.51	14.81	
2025-01-19 08:53:54.47	106.49	14.83	
2025-01-19 08:53:54.68	106.46	14.84	
2025-01-19 08:53:54.88	106.44	14.86	
2025-01-19 08:53:55.08	106.41	14.88	
2025-01-19 08:53:55.29	106.39	14.90	
2025-01-19 08:53:55.49	106.36	14.92	
2025-01-19 08:53:55.69	106.34	14.93	
2025-01-19 08:53:55.90	106.31	14.95	
2025-01-19 08:53:56.10	106.29	14.97	
2025-01-19 08:53:56.30	106.27	14.99	
2025-01-19 08:53:56.50	106.24	15.00	
2025-01-19 08:53:56.71	106.22	15.02	
2025-01-19 08:53:56.91	106.19	15.04	
2025-01-19 08:53:57.11	106.17	15.06	
2025-01-19 08:53:57.32	106.14	15.08	
2025-01-19 08:53:57.52	106.12	15.09	
2025-01-19 08:53:57.72	106.09	15.11	
2025-01-19 08:53:57.93	106.07	15.13	
2025-01-19 08:53:58.13	106.04	15.15	
2025-01-19 08:53:58.33	106.02	15.16	
2025-01-19 08:53:58.54	105.99	15.18	
2025-01-19 08:53:58.74	105.97	15.20	
2025-01-19 08:53:58.94	105.94	15.22	
2025-01-19 08:53:59.14	105.92	15.24	
2025-01-19 08:53:59.35	105.89	15.25	
2025-01-19 08:53:59.55	105.86	15.27	
2025-01-19 08:53:59.75	105.84	15.29	
2025-01-19 08:53:59.96	105.81	15.31	
2025-01-19 08:54:00.16	105.79	15.33	
2025-01-19 08:54:00.36	105.76	15.34	
2025-01-19 08:54:00.57	105.74	15.36	
2025-01-19 08:54:00.77	105.71	15.38	
2025-01-19 08:54:00.97	105.69	15.40	
2025-01-19 08:54:01.18	105.66	15.42	
2025-01-19 08:54:01.38	105.64	15.43	
2025-01-19 08:54:01.58	105.61	15.45	
2025-01-19 08:54:01.78	105.58	15.47	
2025-01-19 08:54:01.99	105.56	15.49	
2025-01-19 08:54:02.19	105.53	15.51	
2025-01-19 08:54:02.39	105.51	15.52	
2025-01-19 08:54:02.60	105.48	15.54	
2025-01-19 08:54:02.80	105.46	15.56	
2025-01-19 08:54:03.00	105.43	15.58	
2025-01-19 08:54:03.21	105.40	15.60	
2025-01-19 08:54:03.41	105.38	15.61	
2025-01-19 08:54:03.61	105.35	15.63	
2025-01-19 08:54:03.82	105.33	15.65	
2025-01-19 08:54:04.02	105.30	15.67	
2025-01-19 08:54:04.22	105.27	15.69	
2025-01-19 08:54:04.42	105.25	15.70	
2025-01-19 08:54:04.63	105.22	15.72	
2025-01-19 08:54:04.83	105.20	15.74	
2025-01-19 08:54:05.03	105.17	15.76	
2025-01-19 08:54:05.24	105.14	15.78	
2025-01-19 08:54:05.44	105.12	15.79	
2025-01-19 08:54:05.64	105.09	15.81	
2025-01-19 08:54:05.85	105.06	15.83	
2025-01-19 08:54:06.05	105.04	15.85	
2025-01-19 08:54:06.25	105.01	15.87	
2025-01-19 08:54:06.46	104.98	15.89	
2025-01-19 08:54:06.66	104.96	15.90	
2025-01-19 08:54:06.86	104.93	15.92	
2025-01-19 08:54:07.06	104.91	15.94	
2025-01-19 08:54:07.27	104.88	15.96	
2025-01-19 08:54:07.47	104.85	15.98	
2025-01-19 08:54:07.67	104.83	15.99	
2025-01-19 08:54:07.88	104.80	16.01	
2025-01-19 08:54:08.08	104.77	16.03	
2025-01-19 08:54:08.28	104.75	16.05	
2025-01-19 08:54:08.49	104.72	16.07	
2025-01-19 08:54:08.69	104.69	16.08	
2025-01-19 08:54:08.89	104.67	16.10	
2025-01-19 08:54:09.10	104.64	16.12	
2025-01-19 08:54:09.30	104.61	16.14	
2025-01-19 08:54:09.50	104.59	16.16	
2025-01-19 08:54:09.70	104.56	16.18	
2025-01-19 08:54:09.91	104.53	16.19	
2025-01-19 08:54:10.11	104.51	16.21	
2025-01-19 08:54:10.31	104.48	16.23	
2025-01-19 08:54:10.52	104.45	16.25	
2025-01-19 08:54:10.72	104.42	16.27	
2025-01-19 08:54:10.92	104.40	16.29	
2025-01-19 08:54:11.13	104.37	16.30	
2025-01-19 08:54:11.33	104.34	16.32	
2025-01-19 08:54:11.53	104.32	16.34	
2025-01-19 08:54:11.74	104.29	16.36	
2025-01-19 08:54:11.94	104.26	16.38	
2025-01-19 08:54:12.14	104.23	16.40	
2025-01-19 08:54:12.34	104.21	16.41	
2025-01-19 08:54:12.55	104.18	16.43	
2025-01-19 08:54:12.75	104.15	16.45	
2025-01-19 08:54:12.95	104.12	16.47	
2025-01-19 08:54:13.16	104.10	16.49	
2025-01-19 08:54:13.36	104.07	16.51	
2025-01-19 08:54:13.56	104.04	16.52	
2025-01-19 08:54:13.77	104.01	16.54	
2025-01-19 08:54:13.97	103.99	16.56	
2025-01-19 08:54:14.17	103.96	16.58	
2025-01-19 08:54:14.38	103.93	16.60	
2025-01-19 08:54:14.58	103.90	16.62	
2025-01-19 08:54:14.78	103.88	16.63	
2025-01-19 08:54:14.98	103.85	16.65	
2025-01-19 08:54:15.19	103.82	16.67	
2025-01-19 08:54:15.39	103.79	16.69	
2025-01-19 08:54:15.59	103.76	16.71	
2025-01-19 08:54:15.80	103.74	16.73	
2025-01-19 08:54:16.00	103.71	16.75	
2025-01-19 08:54:16.20	103.68	16.76	
2025-01-19 08:54:16.41	103.65	16.78	
2025-01-19 08:54:16.61	103.62	16.80	
2025-01-19 08:54:16.81	103.60	16.82	
2025-01-19 08:54:17.02	103.57	16.84	
2025-01-19 08:54:17.22	103.54	16.86	
2025-01-19 08:54:17.42	103.51	16.88	
2025-01-19 08:54:17.62	103.48	16.89	
2025-01-19 08:54:17.83	103.45	16.91	
2025-01-19 08:54:18.03	103.43	16.93	
2025-01-19 08:54:18.23	103.40	16.95	
2025-01-19 08:54:18.44	103.37	16.97	
2025-01-19 08:54:18.64	103.34	16.99	
2025-01-19 08:54:18.84	103.31	17.01	
2025-01-19 08:54:19.05	103.28	17.02	
2025-01-19 08:54:19.25	103.26	17.04	
2025-01-19 08:54:19.45	103.23	17.06	
2025-01-19 08:54:19.66	103.20	17.08	
2025-01-19 08:54:19.86	103.17	17.10	
2025-01-19 08:54:20.06	103.14	17.12	
2025-01-19 08:54:20.26	103.11	17.14	
2025-01-19 08:54:20.47	103.08	17.15	
2025-01-19 08:54:20.67	103.06	17.17	
2025-01-19 08:54:20.87	103.03	17.19	
2025-01-19 08:54:21.08	103.00	17.21	
2025-01-19 08:54:21.28	102.97	17.23	
2025-01-19 08:54:21.48	102.94	17.25	
2025-01-19 08:54:21.69	102.91	17.27	
2025-01-19 08:54:21.89	102.88	17.28	
2025-01-19 08:54:22.09	102.85	17.30	
2025-01-19 08:54:22.30	102.82	17.32	
2025-01-19 08:54:22.50	102.79	17.34	
2025-01-19 08:54:22.70	102.77	17.36	
2025-01-19 08:54:22.90	102.74	17.38	
2025-01-19 08:54:23.11	102.71	17.40	
2025-01-19 08:54:23.31	102.68	17.42	
2025-01-19 08:54:23.51	102.65	17.43	
2025-01-19 08:54:23.72	102.62	17.45	
2025-01-19 08:54:23.92	102.59	17.47	
2025-01-19 08:54:24.12	102.56	17.49	
2025-01-19 08:54:24.33	102.53	17.51	
2025-01-19 08:54:24.53	102.50	17.53	
2025-01-19 08:54:24.73	102.47	17.55	
2025-01-19 08:54:24.94	102.44	17.57	
2025-01-19 08:54:25.14	102.41	17.58	
2025-01-19 08:54:25.34	102.38	17.60	
2025-01-19 08:54:25.54	102.35	17.62	
2025-01-19 08:54:25.75	102.32	17.64	
2025-01-19 08:54:25.95	102.29	17.66	
2025-01-19 08:54:26.15	102.27	17.68	
2025-01-19 08:54:26.36	102.23	17.70	
2025-01-19 08:54:26.56	102.20	17.72	
2025-01-19 08:54:26.76	102.18	17.73	
2025-01-19 08:54:26.97	102.14	17.75	
2025-01-19 08:54:27.17	102.11	17.77	
2025-01-19 08:54:27.37	102.09	17.79	
2025-01-19 08:54:27.58	102.05	17.81	
2025-01-19 08:54:27.78	102.02	17.83	
2025-01-19 08:54:27.98	102.00	17.85	
2025-01-19 08:54:28.18	101.97	17.87	
2025-01-19 08:54:28.39	101.93	17.89	
2025-01-19 08:54:28.59	101.90	17.90	
2025-01-19 08:54:28.79	101.87	17.92	
2025-01-19 08:54:29.00	101.84	17.94	
2025-01-19 08:54:29.20	101.81	17.96	
2025-01-19 08:54:29.40	101.78	17.98	
2025-01-19 08:54:29.61	101.75	18.00	
2025-01-19 08:54:29.81	101.72	18.02	
2025-01-19 08:54:30.01	101.69	18.04	
2025-01-19 08:54:30.22	101.66	18.06	
2025-01-19 08:54:30.42	101.63	18.08	
2025-01-19 08:54:30.62	101.60	18.09	
2025-01-19 08:54:30.82	101.57	18.11	
2025-01-19 08:54:31.03	101.54	18.13	
2025-01-19 08:54:31.23	101.51	18.15	
2025-01-19 08:54:31.43	101.48	18.17	
2025-01-19 08:54:31.64	101.45	18.19	
2025-01-19 08:54:31.84	101.42	18.21	
2025-01-19 08:54:32.04	101.38	18.23	
2025-01-19 08:54:32.25	101.35	18.25	
2025-01-19 08:54:32.45	101.32	18.27	
2025-01-19 08:54:32.65	101.29	18.28	
2025-01-19 08:54:32.86	101.26	18.30	
2025-01-19 08:54:33.06	101.23	18.32	
2025-01-19 08:54:33.26	101.20	18.34	
2025-01-19 08:54:33.46	101.17	18.36	
2025-01-19 08:54:33.67	101.14	18.38	
2025-01-19 08:54:33.87	101.10	18.40	
2025-01-19 08:54:34.07	101.07	18.42	
2025-01-19 08:54:34.28	101.04	18.44	
2025-01-19 08:54:34.48	101.01	18.46	
2025-01-19 08:54:34.68	100.98	18.47	
2025-01-19 08:54:34.89	100.95	18.49	
2025-01-19 08:54:35.09	100.92	18.51	
2025-01-19 08:54:35.29	100.89	18.53	
2025-01-19 08:54:35.50	100.85	18.55	
2025-01-19 08:54:35.70	100.82	18.57	
2025-01-19 08:54:35.90	100.79	18.59	
2025-01-19 08:54:36.10	100.76	18.61	
2025-01-19 08:54:36.31	100.73	18.63	
2025-01-19 08:54:36.51	100.70	18.65	
2025-01-19 08:54:36.71	100.66	18.67	
2025-01-19 08:54:36.92	100.63	18.69	
2025-01-19 08:54:37.12	100.60	18.70	
2025-01-19 08:54:37.32	100.57	18.72	
2025-01-19 08:54:37.53	100.54	18.74	
2025-01-19 08:54:37.73	100.50	18.76	
2025-01-19 08:54:37.93	100.47	18.78	
2025-01-19 08:54:38.14	100.44	18.80	
2025-01-19 08:54:38.34	100.41	18.82	
2025-01-19 08:54:38.54	100.38	18.84	
2025-01-19 08:54:38.74	100.34	18.86	
2025-01-19 08:54:38.95	100.31	18.88	
2025-01-19 08:54:39.15	100.28	18.90	
2025-01-19 08:54:39.35	100.25	18.91	
2025-01-19 08:54:39.56	100.21	18.93	
2025-01-19 08:54:39.76	100.18	18.95	
2025-01-19 08:54:39.96	100.15	18.97	
2025-01-19 08:54:40.17	100.12	18.99	
2025-01-19 08:54:40.37	100.08	19.01	
2025-01-19 08:54:40.57	100.05	19.03	
2025-01-19 08:54:40.78	100.02	19.05	
2025-01-19 08:54:40.98	99.99	19.07	
2025-01-19 08:54:41.18	99.95	19.09	
2025-01-19 08:54:41.38	99.92	19.11	
2025-01-19 08:54:41.59	99.89	19.13	
2025-01-19 08:54:41.79	99.86	19.15	
2025-01-19 08:54:41.99	99.82	19.16	
2025-01-19 08:54:42.20	99.79	19.18	
2025-01-19 08:54:42.40	99.76	19.20	
2025-01-19 08:54:42.60	99.72	19.22	
2025-01-19 08:54:42.81	99.69	19.24	
2025-01-19 08:54:43.01	99.66	19.26	
2025-01-19 08:54:43.21	99.62	19.28	
2025-01-19 08:54:43.42	99.59	19.30	
2025-01-19 08:54:43.62	99.56	19.32	
2025-01-19 08:54:43.82	99.52	19.34	
2025-01-19 08:54:44.02	99.49	19.36	
2025-01-19 08:54:44.23	99.46	19.38	
2025-01-19 08:54:44.43	99.42	19.40	
2025-01-19 08:54:44.63	99.39	19.42	
2025-01-19 08:54:44.84	99.36	19.44	
2025-01-19 08:54:45.04	99.32	19.45	
2025-01-19 08:54:45.24	99.29	19.47	
2025-01-19 08:54:45.45	99.26	19.49	
2025-01-19 08:54:45.65	99.22	19.51	
2025-01-19 08:54:45.85	99.19	19.53	
2025-01-19 08:54:46.06	99.15	19.55	
2025-01-19 08:54:46.26	99.12	19.57	
2025-01-19 08:54:46.46	99.09	19.59	
2025-01-19 08:54:46.67	99.05	19.61	
2025-01-19 08:54:46.87	99.02	19.63	
2025-01-19 08:54:47.07	98.99	19.65	
2025-01-19 08:54:47.27	98.95	19.67	
2025-01-19 08:54:47.48	98.92	19.69	
2025-01-19 08:54:47.68	98.88	19.71	
2025-01-19 08:54:47.88	98.85	19.73	
2025-01-19 08:54:48.09	98.82	19.75	
2025-01-19 08:54:48.29	98.78	19.76	
2025-01-19 08:54:48.49	98.75	19.78	
2025-01-19 08:54:48.70	98.71	19.80	
2025-01-19 08:54:48.90	98.68	19.82	
2025-01-19 08:54:49.10	98.64	19.84	
2025-01-19 08:54:49.31	98.61	19.86	
2025-01-19 08:54:49.51	98.58	19.88	
2025-01-19 08:54:49.71	98.54	19.90	
2025-01-19 08:54:49.91	98.51	19.92	
2025-01-19 08:54:50.12	98.47	19.94	
2025-01-19 08:54:50.32	98.44	19.96	
2025-01-19 08:54:50.52	98.40	19.98	
2025-01-19 08:54:50.73	98.37	20.00	
2025-01-19 08:54:50.93	98.33	20.02	
2025-01-19 08:54:51.13	98.30	20.04	
2025-01-19 08:54:51.34	98.26	20.06	
2025-01-19 08:54:51.54	98.23	20.08	
2025-01-19 08:54:51.74	98.19	20.10	
2025-01-19 08:54:51.95	98.16	20.12	
2025-01-19 08:54:52.15	98.12	20.13	
2025-01-19 08:54:52.35	98.09	20.15	
2025-01-19 08:54:52.55	98.05	20.17	
2025-01-19 08:54:52.76	98.02	20.19	
2025-01-19 08:54:52.96	97.98	20.21	
2025-01-19 08:54:53.16	97.95	20.23	
2025-01-19 08:54:53.37	97.91	20.25	
2025-01-19 08:54:53.57	97.88	20.27	
2025-01-19 08:54:53.77	97.84	20.29	
2025-01-19 08:54:53.98	97.81	20.31	
2025-01-19 08:54:54.18	97.77	20.33	
2025-01-19 08:54:54.38	97.74	20.35	
2025-01-19 08:54:54.59	97.70	20.37	
2025-01-19 08:54:54.79	97.66	20.39	
2025-01-19 08:54:54.99	97.63	20.41	
2025-01-19 08:54:55.19	97.59	20.43	
2025-01-19 08:54:55.40	97.56	20.45	
2025-01-19 08:54:55.60	97.52	20.47	
2025-01-19 08:54:55.80	97.49	20.49	
2025-01-19 08:54:56.01	97.45	20.51	
2025-01-19 08:54:56.21	97.41	20.52	
2025-01-19 08:54:56.41	97.38	20.54	
2025-01-19 08:54:56.62	97.34	20.56	
2025-01-19 08:54:56.82	97.30	20.58	
2025-01-19 08:54:57.02	97.27	20.60	
2025-01-19 08:54:57.23	97.23	20.62	
2025-01-19 08:54:57.43	97.20	20.64	
2025-01-19 08:54:57.63	97.16	20.66	
2025-01-19 08:54:57.83	97.12	20.68	
2025-01-19 08:54:58.04	97.09	20.70	
2025-01-19 08:54:58.24	97.05	20.72	
2025-01-19 08:54:58.44	97.02	20.74	
2025-01-19 08:54:58.65	96.98	20.76	
2025-01-19 08:54:58.85	96.94	20.78	
2025-01-19 08:54:59.05	96.91	20.80	
2025-01-19 08:54:59.26	96.87	20.82	
2025-01-19 08:54:59.46	96.83	20.84	
2025-01-19 08:54:59.66	96.79	20.86	
2025-01-19 08:54:59.87	96.76	20.88	
2025-01-19 08:55:00.07	96.72	20.90	
2025-01-19 08:55:00.27	96.68	20.92	
2025-01-19 08:55:00.47	96.65	20.94	
2025-01-19 08:55:00.68	96.61	20.96	
2025-01-19 08:55:00.88	96.57	20.98	
2025-01-19 08:55:01.08	96.54	20.99	
2025-01-19 08:55:01.29	96.50	21.02	
2025-01-19 08:55:01.49	96.46	21.03	
2025-01-19 08:55:01.69	96.42	21.05	
2025-01-19 08:55:01.90	96.39	21.07	
2025-01-19 08:55:02.10	96.35	21.09	
2025-01-19 08:55:02.30	96.31	21.11	
2025-01-19 08:55:02.51	96.27	21.13	
2025-01-19 08:55:02.71	96.24	21.15	
2025-01-19 08:55:02.91	96.20	21.17	
2025-01-19 08:55:03.11	96.16	21.19	
2025-01-19 08:55:03.32	96.12	21.21	
2025-01-19 08:55:03.52	96.09	21.23	
2025-01-19 08:55:03.72	96.05	21.25	
2025-01-19 08:55:03.93	96.01	21.27	
2025-01-19 08:55:04.13	95.97	21.29	
2025-01-19 08:55:04.33	95.94	21.31	
2025-01-19 08:55:04.54	95.90	21.33	
2025-01-19 08:55:04.74	95.86	21.35	
2025-01-19 08:55:04.94	95.82	21.37	
2025-01-19 08:55:05.15	95.78	21.39	
2025-01-19 08:55:05.35	95.75	21.41	
2025-01-19 08:55:05.55	95.71	21.43	
2025-01-19 08:55:05.75	95.67	21.45	
2025-01-19 08:55:05.96	95.63	21.47	
2025-01-19 08:55:06.16	95.59	21.49	
2025-01-19 08:55:06.36	95.56	21.51	
2025-01-19 08:55:06.57	95.52	21.53	
2025-01-19 08:55:06.77	95.48	21.55	
2025-01-19 08:55:06.97	95.44	21.57	
2025-01-19 08:55:07.18	95.40	21.59	
2025-01-19 08:55:07.38	95.36	21.61	
2025-01-19 08:55:07.58	95.32	21.62	
2025-01-19 08:55:07.78	95.29	21.64	
2025-01-19 08:55:07.99	95.25	21.66	
2025-01-19 08:55:08.19	95.21	21.68	
2025-01-19 08:55:08.39	95.17	21.70	
2025-01-19 08:55:08.60	95.13	21.72	
2025-01-19 08:55:08.80	95.09	21.74	
2025-01-19 08:55:09.00	95.05	21.76	
2025-01-19 08:55:09.21	95.01	21.78	
2025-01-19 08:55:09.41	94.97	21.80	
2025-01-19 08:55:09.61	94.94	21.82	
2025-01-19 08:55:09.82	94.89	21.84	
2025-01-19 08:55:10.02	94.86	21.86	
2025-01-19 08:55:10.22	94.82	21.88	
2025-01-19 08:55:10.43	94.78	21.90	
2025-01-19 08:55:10.63	94.74	21.92	
2025-01-19 08:55:10.83	94.70	21.94	
2025-01-19 08:55:11.03	94.66	21.96	
2025-01-19 08:55:11.24	94.62	21.98	
2025-01-19 08:55:11.44	94.58	22.00	
2025-01-19 08:55:11.64	94.54	22.02	
2025-01-19 08:55:11.85	94.50	22.04	
2025-01-19 08:55:12.05	94.46	22.06	
2025-01-19 08:55:12.25	94.42	22.08	
2025-01-19 08:55:12.46	94.38	22.10	
2025-01-19 08:55:12.66	94.34	22.12	
2025-01-19 08:55:12.86	94.30	22.14	
2025-01-19 08:55:13.07	94.26	22.16	
2025-01-19 08:55:13.27	94.22	22.18	
2025-01-19 08:55:13.47	94.18	22.20	
2025-01-19 08:55:13.67	94.14	22.22	
2025-01-19 08:55:13.88	94.10	22.24	
2025-01-19 08:55:14.08	94.06	22.26	
2025-01-19 08:55:14.28	94.02	22.27	
2025-01-19 08:55:14.49	93.98	22.30	
2025-01-19 08:55:14.69	93.94	22.31	
2025-01-19 08:55:14.89	93.90	22.33	
2025-01-19 08:55:15.10	93.86	22.35	
2025-01-19 08:55:15.30	93.82	22.37	
2025-01-19 08:55:15.50	93.78	22.39	
2025-01-19 08:55:15.71	93.74	22.41	
2025-01-19 08:55:15.91	93.70	22.43	
2025-01-19 08:55:16.11	93.66	22.45	
2025-01-19 08:55:16.31	93.62	22.47	
2025-01-19 08:55:16.52	93.57	22.49	
2025-01-19 08:55:16.72	93.53	22.51	
2025-01-19 08:55:16.92	93.49	22.53	
2025-01-19 08:55:17.13	93.45	22.55	
2025-01-19 08:55:17.33	93.41	22.57	
2025-01-19 08:55:17.53	93.37	22.59	
2025-01-19 08:55:17.74	93.33	22.61	
2025-01-19 08:55:17.94	93.29	22.63	
2025-01-19 08:55:18.14	93.25	22.65	
2025-01-19 08:55:18.35	93.20	22.67	
2025-01-19 08:55:18.55	93.16	22.69	
2025-01-19 08:55:18.75	93.12	22.71	
2025-01-19 08:55:18.95	93.08	22.73	
2025-01-19 08:55:19.16	93.04	22.75	
2025-01-19 08:55:19.36	93.00	22.77	
2025-01-19 08:55:19.56	92.95	22.79	
2025-01-19 08:55:19.77	92.91	22.81	
2025-01-19 08:55:19.97	92.87	22.83	
2025-01-19 08:55:20.17	92.83	22.85	
2025-01-19 08:55:20.38	92.79	22.87	
2025-01-19 08:55:20.58	92.74	22.89	
2025-01-19 08:55:20.78	92.70	22.91	
2025-01-19 08:55:20.99	92.66	22.93	
2025-01-19 08:55:21.19	92.62	22.95	
2025-01-19 08:55:21.39	92.58	22.96	
2025-01-19 08:55:21.59	92.54	22.98	
2025-01-19 08:55:21.80	92.49	23.00	
2025-01-19 08:55:22.00	92.45	23.02	
2025-01-19 08:55:22.20	92.41	23.04	
2025-01-19 08:55:22.41	92.36	23.06	
2025-01-19 08:55:22.61	92.32	23.08	
2025-01-19 08:55:22.81	92.28	23.10	
2025-01-19 08:55:23.02	92.24	23.12	
2025-01-19 08:55:23.22	92.19	23.14	
2025-01-19 08:55:23.42	92.15	23.16	
2025-01-19 08:55:23.63	92.11	23.18	
2025-01-19 08:55:23.83	92.07	23.20	
2025-01-19 08:55:24.03	92.02	23.22	
2025-01-19 08:55:24.23	91.98	23.24	
2025-01-19 08:55:24.44	91.94	23.26	
2025-01-19 08:55:24.64	91.89	23.28	
2025-01-19 08:55:24.84	91.85	23.30	
2025-01-19 08:55:25.05	91.81	23.32	
2025-01-19 08:55:25.25	91.77	23.34	
2025-01-19 08:55:25.45	91.72	23.36	
2025-01-19 08:55:25.66	91.68	23.38	
2025-01-19 08:55:25.86	91.64	23.40	
2025-01-19 08:55:26.06	91.59	23.42	
2025-01-19 08:55:26.27	91.55	23.44	
2025-01-19 08:55:26.47	91.50	23.46	
2025-01-19 08:55:26.67	91.46	23.48	
2025-01-19 08:55:26.87	91.42	23.49	
2025-01-19 08:55:27.08	91.37	23.52	
2025-01-19 08:55:27.28	91.33	23.53	
2025-01-19 08:55:27.48	91.29	23.55	
2025-01-19 08:55:27.69	91.24	23.57	
2025-01-19 08:55:27.89	91.20	23.59	
2025-01-19 08:55:28.09	91.16	23.61	
2025-01-19 08:55:28.30	91.11	23.63	
2025-01-19 08:55:28.50	91.07	23.65	
2025-01-19 08:55:28.70	91.02	23.67	
2025-01-19 08:55:28.91	90.98	23.69	
2025-01-19 08:55:29.11	90.93	23.71	
2025-01-19 08:55:29.31	90.89	23.73	
2025-01-19 08:55:29.51	90.85	23.75	
2025-01-19 08:55:29.72	90.80	23.77	
2025-01-19 08:55:29.92	90.76	23.79	
2025-01-19 08:55:30.12	90.71	23.81	
2025-01-19 08:55:30.33	90.67	23.83	
2025-01-19 08:55:30.53	90.62	23.85	
2025-01-19 08:55:30.73	90.58	23.87	
2025-01-19 08:55:30.94	90.53	23.89	
2025-01-19 08:55:31.14	90.49	23.91	
2025-01-19 08:55:31.34	90.44	23.93	
2025-01-19 08:55:31.55	90.40	23.95	
2025-01-19 08:55:31.75	90.35	23.97	
2025-01-19 08:55:31.95	90.31	23.98	
2025-01-19 08:55:32.15	90.27	24.00	
2025-01-19 08:55:32.36	90.22	24.02	
2025-01-19 08:55:32.56	90.17	24.04	
2025-01-19 08:55:32.76	90.13	24.06	
2025-01-19 08:55:32.97	90.08	24.08	
2025-01-19 08:55:33.17	90.04	24.10	
2025-01-19 08:55:33.37	89.99	24.12	
2025-01-19 08:55:33.58	89.95	24.14	
2025-01-19 08:55:33.78	89.90	24.16	
2025-01-19 08:55:33.98	89.86	24.18	
2025-01-19 08:55:34.19	89.81	24.20	
2025-01-19 08:55:34.39	89.76	24.22	
2025-01-19 08:55:34.59	89.72	24.24	
2025-01-19 08:55:34.79	89.67	24.26	
2025-01-19 08:55:35.00	89.63	24.28	
2025-01-19 08:55:35.20	89.58	24.30	
2025-01-19 08:55:35.40	89.54	24.32	
2025-01-19 08:55:35.61	89.49	24.34	
2025-01-19 08:55:35.81	89.44	24.35	
2025-01-19 08:55:36.01	89.40	24.37	
2025-01-19 08:55:36.22	89.35	24.39	
2025-01-19 08:55:36.42	89.30	24.41	
2025-01-19 08:55:36.62	89.26	24.43	
2025-01-19 08:55:36.83	89.21	24.45	
2025-01-19 08:55:37.03	89.17	24.47	
2025-01-19 08:55:37.23	89.12	24.49	
2025-01-19 08:55:37.43	89.07	24.51	
2025-01-19 08:55:37.64	89.03	24.53	
2025-01-19 08:55:37.84	88.98	24.55	
2025-01-19 08:55:38.04	88.93	24.57	
2025-01-19 08:55:38.25	88.89	24.59	
2025-01-19 08:55:38.45	88.84	24.61	
2025-01-19 08:55:38.65	88.79	24.63	
2025-01-19 08:55:38.86	88.74	24.65	
2025-01-19 08:55:39.06	88.70	24.66	
2025-01-19 08:55:39.26	88.65	24.68	
2025-01-19 08:55:39.47	88.60	24.70	
2025-01-19 08:55:39.67	88.56	24.72	
2025-01-19 08:55:39.87	88.51	24.74	
2025-01-19 08:55:40.07	88.46	24.76	
2025-01-19 08:55:40.28	88.41	24.78	
2025-01-19 08:55:40.48	88.37	24.80	
2025-01-19 08:55:40.68	88.32	24.82	
2025-01-19 08:55:40.89	88.27	24.84	
2025-01-19 08:55:41.09	88.22	24.86	
2025-01-19 08:55:41.29	88.18	24.88	
2025-01-19 08:55:41.50	88.13	24.90	
2025-01-19 08:55:41.70	88.08	24.92	
2025-01-19 08:55:41.90	88.03	24.93	
2025-01-19 08:55:42.11	87.98	24.95	
2025-01-19 08:55:42.31	87.94	24.97	
2025-01-19 08:55:42.51	87.89	24.99	
2025-01-19 08:55:42.71	87.84	25.01	
2025-01-19 08:55:42.92	87.79	25.03	
2025-01-19 08:55:43.12	87.75	25.05	
2025-01-19 08:55:43.32	87.70	25.07	
2025-01-19 08:55:43.53	87.65	25.09	
2025-01-19 08:55:43.73	87.60	25.11	
2025-01-19 08:55:43.93	87.55	25.13	
2025-01-19 08:55:44.14	87.50	25.15	
2025-01-19 08:55:44.34	87.46	25.16	
2025-01-19 08:55:44.54	87.41	25.18	
2025-01-19 08:55:44.75	87.36	25.20	
2025-01-19 08:55:44.95	87.31	25.22	
2025-01-19 08:55:45.15	87.26	25.24	
2025-01-19 08:55:45.35	87.21	25.26	
2025-01-19 08:55:45.56	87.16	25.28	
2025-01-19 08:55:45.76	87.11	25.30	
2025-01-19 08:55:45.96	87.07	25.32	
2025-01-19 08:55:46.17	87.02	25.34	
2025-01-19 08:55:46.37	86.97	25.36	
2025-01-19 08:55:46.57	86.92	25.37	
2025-01-19 08:55:46.78	86.87	25.39	
2025-01-19 08:55:46.98	86.82	25.41	
2025-01-19 08:55:47.18	86.77	25.43	
2025-01-19 08:55:47.39	86.72	25.45	
2025-01-19 08:55:47.59	86.67	25.47	
2025-01-19 08:55:47.79	86.62	25.49	
2025-01-19 08:55:47.99	86.57	25.51	
2025-01-19 08:55:48.20	86.52	25.53	
2025-01-19 08:55:48.40	86.47	25.54	
2025-01-19 08:55:48.60	86.42	25.56	
2025-01-19 08:55:48.81	86.37	25.58	
2025-01-19 08:55:49.01	86.32	25.60	
2025-01-19 08:55:49.21	86.27	25.62	
2025-01-19 08:55:49.42	86.22	25.64	
2025-01-19 08:55:49.62	86.17	25.66	
2025-01-19 08:55:49.82	86.12	25.68	
2025-01-19 08:55:50.03	86.07	25.70	
2025-01-19 08:55:50.23	86.02	25.71	
2025-01-19 08:55:50.43	85.97	25.73	
2025-01-19 08:55:50.63	85.92	25.75	
2025-01-19 08:55:50.84	85.87	25.77	
2025-01-19 08:55:51.04	85.82	25.79	
2025-01-19 08:55:51.24	85.77	25.81	
2025-01-19 08:55:51.45	85.72	25.83	
2025-01-19 08:55:51.65	85.67	25.85	
2025-01-19 08:55:51.85	85.62	25.86	
2025-01-19 08:55:52.06	85.57	25.88	
2025-01-19 08:55:52.26	85.52	25.90	
2025-01-19 08:55:52.46	85.47	25.92	
2025-01-19 08:55:52.67	85.41	25.94	
2025-01-19 08:55:52.87	85.36	25.96	
2025-01-19 08:55:53.07	85.31	25.98	
2025-01-19 08:55:53.27	85.26	26.00	
2025-01-19 08:55:53.48	85.21	26.01	
2025-01-19 08:55:53.68	85.16	26.03	
2025-01-19 08:55:53.88	85.11	26.05	
2025-01-19 08:55:54.09	85.05	26.07	
2025-01-19 08:55:54.29	85.00	26.09	
2025-01-19 08:55:54.49	84.95	26.11	
2025-01-19 08:55:54.70	84.90	26.13	
2025-01-19 08:55:54.90	84.85	26.14	
2025-01-19 08:55:55.10	84.80	26.16	
2025-01-19 08:55:55.31	84.74	26.18	
2025-01-19 08:55:55.51	84.69	26.20	
2025-01-19 08:55:55.71	84.64	26.22	
2025-01-19 08:55:55.91	84.59	26.24	
2025-01-19 08:55:56.12	84.54	26.26	
2025-01-19 08:55:56.32	84.49	26.27	
2025-01-19 08:55:56.52	84.43	26.29	
2025-01-19 08:55:56.73	84.38	26.31	
2025-01-19 08:55:56.93	84.33	26.33	
2025-01-19 08:55:57.13	84.28	26.35	
2025-01-19 08:55:57.34	84.22	26.37	
2025-01-19 08:55:57.54	84.17	26.38	
2025-01-19 08:55:57.74	84.12	26.40	
2025-01-19 08:55:57.95	84.07	26.42	
2025-01-19 08:55:58.15	84.01	26.44	
2025-01-19 08:55:58.35	83.96	26.46	
2025-01-19 08:55:58.55	83.91	26.48	
2025-01-19 08:55:58.76	83.86	26.50	
2025-01-19 08:55:58.96	83.80	26.51	
2025-01-19 08:55:59.16	83.75	26.53	
2025-01-19 08:55:59.37	83.70	26.55	
2025-01-19 08:55:59.57	83.64	26.57	
2025-01-19 08:55:59.77	83.59	26.59	
2025-01-19 08:55:59.98	83.54	26.60	
2025-01-19 08:56:00.18	83.48	26.62	
2025-01-19 08:56:00.38	83.43	26.64	
2025-01-19 08:56:00.59	83.38	26.66	
2025-01-19 08:56:00.79	83.32	26.68	
2025-01-19 08:56:00.99	83.27	26.70	
2025-01-19 08:56:01.19	83.22	26.71	
2025-01-19 08:56:01.40	83.16	26.73	
2025-01-19 08:56:01.60	83.11	26.75	
2025-01-19 08:56:01.80	83.06	26.77	
2025-01-19 08:56:02.01	83.00	26.79	
2025-01-19 08:56:02.21	82.95	26.80	
2025-01-19 08:56:02.41	82.90	26.82	
2025-01-19 08:56:02.62	82.84	26.84	
2025-01-19 08:56:02.82	82.79	26.86	
2025-01-19 08:56:03.02	82.73	26.88	
2025-01-19 08:56:03.24	82.67	26.89	
2025-01-19 08:56:03.44	82.62	26.91	
2025-01-19 08:56:03.65	82.57	26.93	
2025-01-19 08:56:03.85	82.51	26.95	
2025-01-19 08:56:04.05	82.46	26.97	
2025-01-19 08:56:04.26	82.40	26.98	
2025-01-19 08:56:04.46	82.35	27.00	
2025-01-19 08:56:04.66	82.29	27.02	
2025-01-19 08:56:04.87	82.24	27.04	
2025-01-19 08:56:05.07	82.18	27.06	
2025-01-19 08:56:05.27	82.13	27.07	
2025-01-19 08:56:05.48	82.07	27.09	
2025-01-19 08:56:05.68	82.02	27.11	
2025-01-19 08:56:05.88	81.97	27.13	
2025-01-19 08:56:06.08	81.91	27.14	
2025-01-19 08:56:06.29	81.85	27.16	
2025-01-19 08:56:06.49	81.80	27.18	
2025-01-19 08:56:06.69	81.75	27.20	
2025-01-19 08:56:06.90	81.69	27.22	
2025-01-19 08:56:07.10	81.63	27.23	
2025-01-19 08:56:07.30	81.58	27.25	
2025-01-19 08:56:07.51	81.52	27.27	
2025-01-19 08:56:07.71	81.47	27.29	
2025-01-19 08:56:07.91	81.41	27.30	
2025-01-19 08:56:08.12	81.35	27.32	
2025-01-19 08:56:08.32	81.30	27.34	
2025-01-19 08:56:08.52	81.25	27.36	
2025-01-19 08:56:08.72	81.19	27.37	
2025-01-19 08:56:08.93	81.13	27.39	
2025-01-19 08:56:09.13	81.08	27.41	
2025-01-19 08:56:09.33	81.02	27.43	
2025-01-19 08:56:09.54	80.96	27.44	
2025-01-19 08:56:09.74	80.91	27.46	
2025-01-19 08:56:09.94	80.85	27.48	
2025-01-19 08:56:10.15	80.80	27.50	
2025-01-19 08:56:10.35	80.74	27.51	
2025-01-19 08:56:10.55	80.68	27.53	
2025-01-19 08:56:10.76	80.63	27.55	
2025-01-19 08:56:10.96	80.57	27.56	
2025-01-19 08:56:11.16	80.51	27.58	
2025-01-19 08:56:11.36	80.46	27.60	
2025-01-19 08:56:11.57	80.40	27.62	
2025-01-19 08:56:11.77	80.34	27.63	
2025-01-19 08:56:11.97	80.29	27.65	
2025-01-19 08:56:12.18	80.23	27.67	
2025-01-19 08:56:12.38	80.17	27.68	
2025-01-19 08:56:12.58	80.12	27.70	
2025-01-19 08:56:12.79	80.06	27.72	
2025-01-19 08:56:12.99	80.00	27.74	
2025-01-19 08:56:13.19	79.95	27.75	
2025-01-19 08:56:13.39	79.89	27.77	
2025-01-19 08:56:13.60	79.83	27.79	
2025-01-19 08:56:13.80	79.77	27.80	
2025-01-19 08:56:14.00	79.72	27.82	
2025-01-19 08:56:14.21	79.66	27.84	
2025-01-19 08:56:14.41	79.60	27.85	
2025-01-19 08:56:14.61	79.54	27.87	
2025-01-19 08:56:14.82	79.48	27.89	
2025-01-19 08:56:15.02	79.43	27.91	
2025-01-19 08:56:15.22	79.37	27.92	
2025-01-19 08:56:15.43	79.31	27.94	
2025-01-19 08:56:15.63	79.25	27.96	
2025-01-19 08:56:15.83	79.20	27.97	
2025-01-19 08:56:16.04	79.14	27.99	
2025-01-19 08:56:16.24	79.08	28.01	
2025-01-19 08:56:16.44	79.02	28.02	
2025-01-19 08:56:16.64	78.97	28.04	
2025-01-19 08:56:16.85	78.91	28.06	
2025-01-19 08:56:17.05	78.85	28.07	
2025-01-19 08:56:17.25	78.79	28.09	
2025-01-19 08:56:17.46	78.73	28.11	
2025-01-19 08:56:17.66	78.67	28.12	
2025-01-19 08:56:17.86	78.61	28.14	
2025-01-19 08:56:18.07	78.55	28.16	
2025-01-19 08:56:18.27	78.50	28.17	
2025-01-19 08:56:18.47	78.44	28.19	
2025-01-19 08:56:18.68	78.38	28.20	
2025-01-19 08:56:18.88	78.32	28.22	
2025-01-19 08:56:19.08	78.26	28.24	
2025-01-19 08:56:19.28	78.20	28.25	
2025-01-19 08:56:19.49	78.14	28.27	
2025-01-19 08:56:19.69	78.08	28.29	
2025-01-19 08:56:19.89	78.03	28.30	
2025-01-19 08:56:20.10	77.96	28.32	
2025-01-19 08:56:20.30	77.91	28.34	
2025-01-19 08:56:20.50	77.85	28.35	
2025-01-19 08:56:20.71	77.79	28.37	
2025-01-19 08:56:20.91	77.73	28.38	
2025-01-19 08:56:21.11	77.67	28.40	
2025-01-19 08:56:21.32	77.61	28.42	
2025-01-19 08:56:21.52	77.55	28.43	
2025-01-19 08:56:21.72	77.49	28.45	
2025-01-19 08:56:21.92	77.43	28.46	
2025-01-19 08:56:22.13	77.37	28.48	
2025-01-19 08:56:22.33	77.31	28.50	
2025-01-19 08:56:22.53	77.25	28.51	
2025-01-19 08:56:22.74	77.19	28.53	
2025-01-19 08:56:22.94	77.13	28.54	
2025-01-19 08:56:23.14	77.07	28.56	
2025-01-19 08:56:23.35	77.01	28.58	
2025-01-19 08:56:23.55	76.95	28.59	
2025-01-19 08:56:23.75	76.89	28.61	
2025-01-19 08:56:23.96	76.83	28.62	
2025-01-19 08:56:24.16	76.77	28.64	
2025-01-19 08:56:24.36	76.71	28.65	
2025-01-19 08:56:24.56	76.65	28.67	
2025-01-19 08:56:24.77	76.59	28.69	
2025-01-19 08:56:24.97	76.53	28.70	
2025-01-19 08:56:25.17	76.47	28.72	
2025-01-19 08:56:25.38	76.40	28.73	
2025-01-19 08:56:25.58	76.34	28.75	
2025-01-19 08:56:25.78	76.28	28.76	
2025-01-19 08:56:25.99	76.22	28.78	
2025-01-19 08:56:26.19	76.16	28.79	
2025-01-19 08:56:26.39	76.10	28.81	
2025-01-19 08:56:26.60	76.04	28.83	
2025-01-19 08:56:26.80	75.98	28.84	
2025-01-19 08:56:27.00	75.92	28.86	
2025-01-19 08:56:27.20	75.86	28.87	
2025-01-19 08:56:27.41	75.79	28.89	
2025-01-19 08:56:27.61	75.73	28.90	
2025-01-19 08:56:27.81	75.67	28.92	
2025-01-19 08:56:28.02	75.61	28.93	
2025-01-19 08:56:28.22	75.55	28.95	
2025-01-19 08:56:28.42	75.49	28.96	
2025-01-19 08:56:28.63	75.42	28.98	
2025-01-19 08:56:28.83	75.36	28.99	
2025-01-19 08:56:29.03	75.30	29.01	
2025-01-19 08:56:29.24	75.24	29.02	
2025-01-19 08:56:29.44	75.18	29.04	
2025-01-19 08:56:29.64	75.11	29.05	
2025-01-19 08:56:29.84	75.05	29.07	
2025-01-19 08:56:30.05	74.99	29.08	
2025-01-19 08:56:30.25	74.93	29.10	
2025-01-19 08:56:30.45	74.87	29.11	
2025-01-19 08:56:30.66	74.80	29.13	
2025-01-19 08:56:30.86	74.74	29.14	
2025-01-19 08:56:31.06	74.68	29.16	
2025-01-19 08:56:31.27	74.61	29.17	
2025-01-19 08:56:31.47	74.55	29.19	
2025-01-19 08:56:31.67	74.49	29.20	
2025-01-19 08:56:31.88	74.43	29.22	
2025-01-19 08:56:32.08	74.37	29.23	
2025-01-19 08:56:32.28	74.30	29.25	
2025-01-19 08:56:32.48	74.24	29.26	
2025-01-19 08:56:32.69	74.18	29.27	
2025-01-19 08:56:32.89	74.11	29.29	
2025-01-19 08:56:33.09	74.05	29.30	
2025-01-19 08:56:33.30	73.99	29.32	
2025-01-19 08:56:33.50	73.93	29.33	
2025-01-19 08:56:33.70	73.86	29.35	
2025-01-19 08:56:33.91	73.80	29.36	
2025-01-19 08:56:34.11	73.74	29.38	
2025-01-19 08:56:34.31	73.67	29.39	
2025-01-19 08:56:34.52	73.61	29.40	
2025-01-19 08:56:34.72	73.54	29.42	
2025-01-19 08:56:34.92	73.48	29.43	
2025-01-19 08:56:35.12	73.42	29.45	
2025-01-19 08:56:35.33	73.35	29.46	
2025-01-19 08:56:35.53	73.29	29.47	
2025-01-19 08:56:35.73	73.23	29.49	
2025-01-19 08:56:35.94	73.16	29.50	
2025-01-19 08:56:36.14	73.10	29.52	
2025-01-19 08:56:36.34	73.04	29.53	
2025-01-19 08:56:36.55	72.97	29.54	
2025-01-19 08:56:36.75	72.91	29.56	
2025-01-19 08:56:36.95	72.84	29.57	
2025-01-19 08:56:37.16	72.78	29.59	
2025-01-19 08:56:37.36	72.72	29.60	
2025-01-19 08:56:37.56	72.65	29.61	
2025-01-19 08:56:37.76	72.59	29.63	
2025-01-19 08:56:37.97	72.52	29.64	
2025-01-19 08:56:38.17	72.46	29.65	
2025-01-19 08:56:38.37	72.40	29.67	
2025-01-19 08:56:38.58	72.33	29.68	
2025-01-19 08:56:38.78	72.26	29.70	
2025-01-19 08:56:38.98	72.20	29.71	
2025-01-19 08:56:39.19	72.13	29.72	
2025-01-19 08:56:39.39	72.07	29.74	
2025-01-19 08:56:39.59	72.01	29.75	
2025-01-19 08:56:39.80	71.94	29.76	
2025-01-19 08:56:40.00	71.88	29.78	
2025-01-19 08:56:40.20	71.81	29.79	
2025-01-19 08:56:40.40	71.75	29.80	
2025-01-19 08:56:40.61	71.68	29.82	
2025-01-19 08:56:40.81	71.62	29.83	
2025-01-19 08:56:41.01	71.55	29.84	
2025-01-19 08:56:41.22	71.49	29.86	
2025-01-19 08:56:41.42	71.42	29.87	
2025-01-19 08:56:41.62	71.36	29.88	
2025-01-19 08:56:41.83	71.29	29.89	
2025-01-19 08:56:42.03	71.22	29.91	
2025-01-19 08:56:42.23	71.16	29.92	
2025-01-19 08:56:42.44	71.09	29.93	
2025-01-19 08:56:42.64	71.03	29.95	
2025-01-19 08:56:42.84	70.96	29.96	
2025-01-19 08:56:43.04	70.90	29.97	
2025-01-19 08:56:43.25	70.83	29.98	
2025-01-19 08:56:43.45	70.77	30.00	
2025-01-19 08:56:43.65	70.70	30.01	
2025-01-19 08:56:43.86	70.63	30.02	
2025-01-19 08:56:44.06	70.57	30.04	
2025-01-19 08:56:44.26	70.50	30.05	
2025-01-19 08:56:44.47	70.43	30.06	
2025-01-19 08:56:44.67	70.37	30.07	
2025-01-19 08:56:44.87	70.30	30.09	
2025-01-19 08:56:45.08	70.24	30.10	
2025-01-19 08:56:45.28	70.17	30.11	
2025-01-19 08:56:45.48	70.11	30.12	
2025-01-19 08:56:45.68	70.04	30.13	
2025-01-19 08:56:45.89	69.97	30.15	
2025-01-19 08:56:46.09	69.91	30.16	
2025-01-19 08:56:46.29	69.84	30.17	
2025-01-19 08:56:46.50	69.77	30.18	
2025-01-19 08:56:46.70	69.71	30.20	
2025-01-19 08:56:46.90	69.64	30.21	
2025-01-19 08:56:47.11	69.57	30.22	
2025-01-19 08:56:47.31	69.51	30.23	
2025-01-19 08:56:47.51	69.44	30.24	
2025-01-19 08:56:47.72	69.37	30.26	
2025-01-19 08:56:47.92	69.31	30.27	
2025-01-19 08:56:48.12	69.24	30.28	
2025-01-19 08:56:48.32	69.17	30.29	
2025-01-19 08:56:48.53	69.10	30.30	
2025-01-19 08:56:48.73	69.04	30.31	
2025-01-19 08:56:48.93	68.97	30.33	
2025-01-19 08:56:49.14	68.90	30.34	
2025-01-19 08:56:49.34	68.84	30.35	
2025-01-19 08:56:49.54	68.77	30.36	
2025-01-19 08:56:49.75	68.70	30.37	
2025-01-19 08:56:49.95	68.63	30.38	
2025-01-19 08:56:50.15	68.57	30.40	
2025-01-19 08:56:50.36	68.50	30.41	
2025-01-19 08:56:50.56	68.43	30.42	
2025-01-19 08:56:50.76	68.36	30.43	
2025-01-19 08:56:50.96	68.30	30.44	
2025-01-19 08:56:51.17	68.23	30.45	
2025-01-19 08:56:51.37	68.16	30.46	
2025-01-19 08:56:51.57	68.09	30.47	
2025-01-19 08:56:51.78	68.02	30.49	
2025-01-19 08:56:51.98	67.96	30.50	
2025-01-19 08:56:52.18	67.89	30.51	
2025-01-19 08:56:52.39	67.82	30.52	
2025-01-19 08:56:52.59	67.75	30.53	
2025-01-19 08:56:52.79	67.69	30.54	
2025-01-19 08:56:53.00	67.62	30.55	
2025-01-19 08:56:53.20	67.55	30.56	
2025-01-19 08:56:53.40	67.48	30.57	
2025-01-19 08:56:53.60	67.42	30.58	
2025-01-19 08:56:53.81	67.34	30.60	
2025-01-19 08:56:54.01	67.28	30.61	
2025-01-19 08:56:54.21	67.21	30.62	
2025-01-19 08:56:54.42	67.14	30.63	
2025-01-19 08:56:54.62	67.07	30.64	
2025-01-19 08:56:54.82	67.00	30.65	
2025-01-19 08:56:55.03	66.93	30.66	
2025-01-19 08:56:55.23	66.87	30.67	
2025-01-19 08:56:55.43	66.80	30.68	
2025-01-19 08:56:55.64	66.73	30.69	
2025-01-19 08:56:55.84	66.66	30.70	
2025-01-19 08:56:56.04	66.59	30.71	
2025-01-19 08:56:56.24	66.52	30.72	
2025-01-19 08:56:56.45	66.45	30.73	
2025-01-19 08:56:56.65	66.39	30.74	
2025-01-19 08:56:56.85	66.32	30.75	
2025-01-19 08:56:57.06	66.25	30.76	
2025-01-19 08:56:57.26	66.18	30.77	
2025-01-19 08:56:57.46	66.11	30.78	
2025-01-19 08:56:57.67	66.04	30.79	
2025-01-19 08:56:57.87	65.97	30.80	
2025-01-19 08:56:58.07	65.90	30.81	
2025-01-19 08:56:58.28	65.83	30.82	
2025-01-19 08:56:58.48	65.76	30.83	
2025-01-19 08:56:58.68	65.69	30.84	
2025-01-19 08:56:58.88	65.63	30.85	
2025-01-19 08:56:59.09	65.55	30.86	
2025-01-19 08:56:59.29	65.49	30.87	
2025-01-19 08:56:59.49	65.42	30.88	
2025-01-19 08:56:59.70	65.35	30.89	
2025-01-19 08:56:59.90	65.28	30.90	
2025-01-19 08:57:00.10	65.21	30.91	
2025-01-19 08:57:00.31	65.14	30.92	
2025-01-19 08:57:00.51	65.07	30.93	
2025-01-19 08:57:00.71	65.00	30.93	
2025-01-19 08:57:00.92	64.93	30.94	
2025-01-19 08:57:01.12	64.86	30.95	
2025-01-19 08:57:01.32	64.79	30.96	
2025-01-19 08:57:01.52	64.72	30.97	
2025-01-19 08:57:01.73	64.65	30.98	
2025-01-19 08:57:01.93	64.58	30.99	
2025-01-19 08:57:02.13	64.51	31.00	
2025-01-19 08:57:02.34	64.44	31.01	
2025-01-19 08:57:02.54	64.37	31.02	
2025-01-19 08:57:02.74	64.30	31.02	
2025-01-19 08:57:02.95	64.23	31.03	
2025-01-19 08:57:03.15	64.16	31.04	
2025-01-19 08:57:03.35	64.09	31.05	
2025-01-19 08:57:03.56	64.02	31.06	
2025-01-19 08:57:03.76	63.95	31.07	
2025-01-19 08:57:03.96	63.88	31.08	
2025-01-19 08:57:04.16	63.81	31.08	
