passes_logs/2026/01/13/R2.0S_Moscow/R2.0S_Moscow__20260113_235308_SUOMI_NPP_rec.log

#Pass ID: 20260113_235308_SUOMI NPP
#Satellite: SUOMI NPP
#Configuration: NPP
#almurnet v.1.7.20251203
#Start time: 2026-01-13 23:53:09

#Version: 2.2.20231116
#Station: R2.0S_Moscow
#Location: 37.707566 lon 55.798166 lat
#TLE: 1 37849U 11061A   26013.27136842  .00000065  00000+0  51889-4 0  9990
#TLE: 2 37849  98.7808 315.3349 0002489  66.6776 293.4661 14.19524902736466

#Time	Az	El	Level	Level2	SNR	BER	BlckErr	Temp	State	Recorded	gain1	gain2
2026-01-13 23:53:09.01	15.59	2.05	-42.9	-57.5	3.8	1.49e+00	0	51	0	0	57	19208
2026-01-13 23:53:10.02	15.59	2.12	-42.9	-57.5	3.8	1.49e+00	0	52	104	0	57	19200
2026-01-13 23:53:11.03	15.59	2.18	-42.9	-57.5	3.8	1.49e+00	0	52	104	0	57	19176
2026-01-13 23:53:12.04	15.59	2.24	-42.9	-57.5	3.8	1.49e+00	0	52	104	0	57	19208
2026-01-13 23:53:13.05	15.58	2.31	-42.9	-57.5	3.8	1.49e+00	0	52	104	0	57	19198
2026-01-13 23:53:14.06	15.58	2.38	-42.9	-57.5	3.8	1.49e+00	0	52	104	0	57	19204
2026-01-13 23:53:15.07	15.58	2.44	-42.9	-57.5	3.8	1.49e+00	0	52	104	0	57	19235
2026-01-13 23:53:16.08	15.58	2.51	-42.9	-57.5	3.8	1.49e+00	0	52	104	0	57	19194
2026-01-13 23:53:17.09	15.57	2.57	-42.9	-57.5	3.8	1.49e+00	0	52	104	0	57	19177
2026-01-13 23:53:18.10	15.57	2.64	-42.9	-57.5	3.8	1.49e+00	0	52	104	0	57	19259
2026-01-13 23:53:19.11	15.57	2.70	-42.9	-57.5	3.8	1.49e+00	0	52	104	0	57	19216
2026-01-13 23:53:20.13	15.57	2.77	-42.9	-57.5	3.8	1.49e+00	0	52	104	0	57	19230
2026-01-13 23:53:21.14	15.56	2.84	-42.9	-57.5	3.8	1.49e+00	0	52	104	0	57	19213
2026-01-13 23:53:22.15	15.56	2.90	-42.9	-57.5	3.8	1.49e+00	0	52	104	0	57	19170
2026-01-13 23:53:23.16	15.56	2.97	-42.9	-57.4	3.8	1.49e+00	0	52	104	0	57	19149
2026-01-13 23:53:24.17	15.56	3.04	-42.9	-57.5	3.8	1.49e+00	0	53	104	0	57	19178
2026-01-13 23:53:25.18	15.55	3.10	-42.9	-57.5	3.8	1.49e+00	0	53	104	0	57	19196
2026-01-13 23:53:26.19	15.55	3.17	-42.9	-57.5	3.8	1.49e+00	0	53	104	0	57	19189
2026-01-13 23:53:27.20	15.55	3.24	-42.9	-57.5	3.8	1.49e+00	0	53	104	0	57	19171
2026-01-13 23:53:28.21	15.55	3.30	-42.9	-57.5	3.8	1.49e+00	0	53	104	0	57	19246
2026-01-13 23:53:29.22	15.54	3.37	-42.9	-57.5	3.8	1.49e+00	0	53	104	0	57	19199
2026-01-13 23:53:30.23	15.54	3.44	-42.9	-57.5	3.8	1.49e+00	0	53	104	0	57	19226
2026-01-13 23:53:31.25	15.54	3.51	-42.9	-57.5	3.8	1.49e+00	0	53	104	0	57	19181
2026-01-13 23:53:32.26	15.53	3.58	-42.9	-57.5	3.8	1.49e+00	0	53	104	0	57	19193
2026-01-13 23:53:33.27	15.53	3.64	-42.9	-57.5	3.8	1.49e+00	0	53	104	0	57	19240
2026-01-13 23:53:34.28	15.53	3.71	-42.9	-57.4	3.8	1.49e+00	0	53	104	0	57	19152
2026-01-13 23:53:35.29	15.52	3.78	-42.9	-57.5	3.8	1.49e+00	0	53	104	0	57	19177
2026-01-13 23:53:36.30	15.52	3.85	-42.9	-57.5	3.8	1.49e+00	0	53	104	0	57	19223
2026-01-13 23:53:37.31	15.52	3.92	-42.9	-57.5	3.8	1.49e+00	0	53	104	0	57	19194
2026-01-13 23:53:38.32	15.52	3.99	-42.9	-57.4	3.8	1.49e+00	0	53	104	0	57	19161
2026-01-13 23:53:39.34	15.51	4.06	-42.9	-57.5	3.8	1.49e+00	0	54	104	0	57	19237
2026-01-13 23:53:40.35	15.51	4.13	-42.9	-57.5	3.8	1.49e+00	0	54	104	0	57	19198
2026-01-13 23:53:41.36	15.51	4.20	-42.9	-57.5	3.8	1.49e+00	0	54	104	0	57	19204
2026-01-13 23:53:42.37	15.50	4.27	-42.9	-57.4	3.8	1.49e+00	0	54	104	0	57	19144
2026-01-13 23:53:43.38	15.50	4.34	-42.9	-57.5	3.8	1.49e+00	0	54	104	0	57	19234
2026-01-13 23:53:44.39	15.50	4.41	-42.9	-57.5	3.8	1.49e+00	0	54	104	0	57	19182
2026-01-13 23:53:45.40	15.49	4.48	-42.9	-57.5	3.8	1.49e+00	0	54	104	0	57	19191
2026-01-13 23:53:46.41	15.49	4.55	-42.9	-57.4	3.8	1.49e+00	0	54	104	0	57	19138
2026-01-13 23:53:47.42	15.49	4.62	-42.9	-57.5	3.8	1.49e+00	0	54	104	0	57	19178
2026-01-13 23:53:48.43	15.48	4.69	-42.9	-57.5	3.8	1.49e+00	0	54	104	0	57	19229
2026-01-13 23:53:49.45	15.48	4.76	-42.9	-57.5	3.8	1.49e+00	0	54	104	0	57	19189
2026-01-13 23:53:50.46	15.47	4.83	-42.9	-57.5	3.8	1.49e+00	0	54	104	0	57	19204
2026-01-13 23:53:51.47	15.47	4.90	-42.9	-57.4	3.8	1.49e+00	0	54	104	0	57	19138
2026-01-13 23:53:52.48	15.47	4.98	-42.9	-57.5	3.8	1.49e+00	0	54	104	0	57	19210
2026-01-13 23:53:53.49	15.46	5.05	-42.9	-57.5	3.8	1.49e+00	0	54	104	0	57	19232
2026-01-13 23:53:54.50	15.46	5.12	-42.9	-57.4	3.8	1.49e+00	0	54	104	0	57	19071
2026-01-13 23:53:55.51	15.46	5.19	-42.9	-57.5	3.8	1.49e+00	0	55	104	0	57	19177
2026-01-13 23:53:56.52	15.45	5.26	-42.9	-57.4	3.8	1.49e+00	0	55	104	0	57	19146
2026-01-13 23:53:57.53	15.45	5.34	-42.9	-57.5	3.8	1.49e+00	0	55	104	0	57	19188
2026-01-13 23:53:58.54	15.44	5.41	-42.9	-57.5	3.8	1.49e+00	0	55	104	0	57	19169
2026-01-13 23:53:59.55	15.44	5.48	-42.9	-57.4	3.8	1.49e+00	0	55	104	0	57	19148
2026-01-13 23:54:00.56	15.44	5.56	-42.9	-57.4	3.8	1.49e+00	0	55	104	0	57	19165
2026-01-13 23:54:01.58	15.43	5.63	-42.9	-57.4	3.8	1.49e+00	0	55	104	0	57	19135
2026-01-13 23:54:02.59	15.43	5.70	-42.9	-57.4	3.8	1.49e+00	0	55	104	0	57	19090
2026-01-13 23:54:03.60	15.42	5.78	-42.9	-57.5	3.8	1.49e+00	0	55	104	0	57	19173
2026-01-13 23:54:04.61	15.42	5.85	-42.9	-57.5	3.8	1.49e+00	0	55	104	0	57	19189
2026-01-13 23:54:05.62	15.42	5.93	-42.9	-57.5	3.8	1.49e+00	0	55	104	0	57	19183
2026-01-13 23:54:06.63	15.41	6.00	-42.9	-57.4	3.8	1.49e+00	0	55	104	0	57	19028
2026-01-13 23:54:07.64	15.41	6.08	-42.9	-57.3	3.8	1.49e+00	0	55	104	0	57	18920
2026-01-13 23:54:08.65	15.40	6.15	-42.9	-57.4	3.8	1.49e+00	0	55	104	0	57	19035
2026-01-13 23:54:09.66	15.40	6.23	-42.9	-57.4	3.8	1.49e+00	0	55	104	0	57	19070
2026-01-13 23:54:10.68	15.39	6.30	-42.9	-57.4	3.8	1.49e+00	0	55	104	0	57	19136
2026-01-13 23:54:11.69	15.39	6.38	-42.9	-57.4	3.8	1.49e+00	0	55	104	0	57	19159
2026-01-13 23:54:12.70	15.39	6.45	-42.9	-57.4	3.8	1.49e+00	0	56	104	0	57	19044
2026-01-13 23:54:13.71	15.38	6.53	-42.9	-57.3	3.8	1.49e+00	0	55	104	0	57	18866
2026-01-13 23:54:14.72	15.38	6.61	-42.9	-57.2	3.8	1.49e+00	0	55	104	0	57	18722
2026-01-13 23:54:15.73	15.37	6.68	-42.9	-57.2	3.8	1.49e+00	0	55	104	0	57	18528
2026-01-13 23:54:16.74	15.37	6.76	-42.9	-57.1	3.8	1.49e+00	0	56	104	0	57	18420
2026-01-13 23:54:17.75	15.36	6.84	-42.9	-57.0	3.8	1.49e+00	0	56	104	0	57	18108
2026-01-13 23:54:18.77	15.36	6.91	-42.9	-56.7	3.8	1.49e+00	0	56	104	0	57	17503
2026-01-13 23:54:19.78	15.35	6.99	-42.9	-56.3	3.8	1.49e+00	0	56	104	0	57	16768
2026-01-13 23:54:20.79	15.35	7.07	-42.8	-55.7	3.8	1.49e+00	0	56	104	0	57	15588
2026-01-13 23:54:21.80	15.34	7.15	-42.8	-54.8	3.9	1.48e+00	0	56	104	0	57	14050
2026-01-13 23:54:22.81	15.34	7.22	-42.7	-53.8	4.2	1.42e+00	0	56	0	0	57	12604
2026-01-13 23:54:23.82	15.33	7.30	-42.6	-52.6	4.6	1.29e+00	0	56	0	1048576	57	11006
2026-01-13 23:54:24.83	15.33	7.38	-42.5	-51.8	5.0	7.51e-01	0	56	0	3145728	56	10637
2026-01-13 23:54:25.84	15.32	7.46	-42.3	-51.0	5.5	5.48e-01	0	56	0	4194304	56	9633
2026-01-13 23:54:26.85	15.32	7.54	-42.1	-50.0	6.3	3.40e-01	0	56	0	6291456	56	8565
2026-01-13 23:54:27.86	15.31	7.62	-42.1	-49.7	6.5	2.45e-01	0	56	0	8388608	56	8310
2026-01-13 23:54:28.87	15.31	7.70	-42.1	-49.7	6.5	2.31e-01	0	56	0	10485760	56	8355
2026-01-13 23:54:29.88	15.30	7.78	-42.2	-50.4	6.0	2.56e-01	0	56	0	12582912	56	8978
2026-01-13 23:54:30.89	15.30	7.86	-42.3	-50.9	5.6	4.45e-01	0	56	0	13631488	56	9530
2026-01-13 23:54:31.90	15.29	7.94	-42.3	-50.6	5.8	4.45e-01	0	56	0	15728640	56	9177
2026-01-13 23:54:32.91	15.28	8.02	-42.3	-50.4	5.9	3.75e-01	0	56	0	17825792	56	9068
2026-01-13 23:54:33.92	15.28	8.10	-42.5	-50.9	5.8	3.52e-01	0	56	0	19922944	56	9527
2026-01-13 23:54:34.93	15.27	8.18	-42.8	-55.6	3.8	1.01e+00	0	56	104	20971520	56	16351
2026-01-13 23:54:35.94	15.27	8.26	-42.6	-51.8	5.2	1.14e+00	0	56	0	20971520	56	10602
2026-01-13 23:54:36.95	15.26	8.34	-43.4	-54.6	4.2	5.74e-01	0	56	0	22020096	57	13821
2026-01-13 23:54:37.96	15.26	8.43	-42.3	-56.4	3.8	8.30e-01	0	57	104	23068672	56	18027
2026-01-13 23:54:38.97	15.25	8.51	-42.6	-50.7	5.8	1.27e+00	0	56	0	23068672	56	9388
2026-01-13 23:54:39.98	15.24	8.59	-42.5	-50.2	6.4	2.91e-01	0	56	0	25165824	56	8803
2026-01-13 23:54:40.99	15.24	8.67	-42.6	-50.2	6.3	2.74e-01	0	57	0	26214400	56	8851
2026-01-13 23:54:42.00	15.23	8.76	-42.6	-50.3	6.3	2.52e-01	0	57	0	28311552	56	8868
2026-01-13 23:54:43.01	15.23	8.84	-42.6	-50.3	6.3	2.25e-01	0	57	0	30408704	56	8900
2026-01-13 23:54:44.02	15.22	8.92	-42.6	-50.1	6.6	2.53e-01	0	57	0	32505856	56	8673
2026-01-13 23:54:45.03	15.21	9.01	-42.6	-49.8	6.8	1.92e-01	0	57	0	34603008	56	8446
2026-01-13 23:54:46.04	15.21	9.09	-42.7	-49.9	6.8	1.84e-01	0	57	0	35651584	56	8538
2026-01-13 23:54:47.05	15.20	9.18	-42.6	-49.7	7.0	1.66e-01	0	57	0	37748736	56	8350
2026-01-13 23:54:48.06	15.19	9.26	-42.6	-49.6	7.1	1.40e-01	0	57	0	39845888	56	8250
2026-01-13 23:54:49.06	15.19	9.34	-42.7	-49.7	7.1	1.53e-01	0	57	0	41943040	56	8294
2026-01-13 23:54:50.07	15.18	9.43	-42.7	-49.7	7.1	1.36e-01	0	57	0	44040192	56	8296
2026-01-13 23:54:51.08	15.18	9.51	-42.7	-49.5	7.2	1.20e-01	0	57	0	45088768	56	8168
2026-01-13 23:54:52.09	15.17	9.60	-42.7	-49.6	7.2	1.24e-01	0	57	0	47185920	56	8246
2026-01-13 23:54:53.10	15.16	9.69	-42.7	-49.4	7.4	1.28e-01	0	57	0	49283072	56	8064
2026-01-13 23:54:54.11	15.16	9.77	-42.7	-49.6	7.2	1.30e-01	0	57	0	51380224	56	8217
2026-01-13 23:54:55.12	15.15	9.86	-42.7	-49.6	7.2	1.30e-01	0	57	0	53477376	56	8233
2026-01-13 23:54:56.13	15.14	9.95	-42.7	-49.3	7.5	1.14e-01	0	57	0	55574528	56	7916
2026-01-13 23:54:57.14	15.13	10.03	-42.7	-49.6	7.2	1.28e-01	0	57	0	56623104	56	8195
2026-01-13 23:54:58.15	15.13	10.12	-42.7	-49.5	7.3	1.26e-01	0	57	0	58720256	56	8171
2026-01-13 23:54:59.16	15.12	10.21	-42.7	-49.3	7.5	1.00e-01	0	57	0	60817408	56	7954
2026-01-13 23:55:00.17	15.11	10.30	-42.7	-49.3	7.5	1.02e-01	0	57	0	62914560	56	7990
2026-01-13 23:55:01.18	15.11	10.39	-42.7	-49.3	7.6	9.50e-02	0	57	0	65011712	56	7909
2026-01-13 23:55:02.19	15.10	10.48	-42.7	-49.4	7.5	9.82e-02	0	57	0	66060288	56	8069
2026-01-13 23:55:03.20	15.09	10.56	-42.6	-49.1	7.8	1.00e-01	0	57	0	68157440	56	7771
2026-01-13 23:55:04.21	15.08	10.65	-42.7	-49.2	7.7	7.51e-02	0	57	0	70254592	56	7822
2026-01-13 23:55:05.22	15.08	10.74	-42.7	-49.2	7.7	8.80e-02	0	57	0	72351744	56	7875
2026-01-13 23:55:06.23	15.07	10.83	-42.7	-49.1	7.8	9.00e-02	0	57	0	74448896	56	7765
2026-01-13 23:55:07.24	15.06	10.93	-42.7	-49.2	7.7	8.52e-02	0	57	0	75497472	56	7845
2026-01-13 23:55:08.25	15.05	11.02	-42.7	-49.3	7.6	9.80e-02	0	57	0	77594624	56	7945
2026-01-13 23:55:09.26	15.05	11.11	-42.6	-48.8	8.1	7.66e-02	0	57	0	79691776	56	7528
2026-01-13 23:55:10.27	15.04	11.20	-42.7	-49.0	8.0	6.53e-02	0	57	0	81788928	56	7688
2026-01-13 23:55:11.28	15.03	11.29	-42.7	-49.0	8.0	6.51e-02	0	57	0	83886080	56	7694
2026-01-13 23:55:12.29	15.02	11.38	-42.7	-48.8	8.2	5.29e-02	0	57	0	84934656	56	7514
2026-01-13 23:55:13.29	15.01	11.47	-42.7	-48.8	8.2	5.55e-02	0	58	0	87031808	56	7496
2026-01-13 23:55:14.30	15.01	11.57	-42.7	-48.8	8.3	5.18e-02	0	57	0	89128960	56	7516
2026-01-13 23:55:15.31	15.00	11.66	-42.7	-48.7	8.4	4.62e-02	0	58	0	91226112	56	7388
2026-01-13 23:55:16.32	14.99	11.75	-42.7	-48.6	8.4	4.67e-02	0	58	0	93323264	56	7358
2026-01-13 23:55:17.33	14.98	11.85	-42.6	-48.6	8.5	4.51e-02	0	57	0	94371840	56	7297
2026-01-13 23:55:18.34	14.97	11.94	-42.7	-48.7	8.4	4.57e-02	0	57	0	96468992	56	7397
2026-01-13 23:55:19.35	14.96	12.04	-42.6	-48.5	8.5	4.55e-02	0	58	0	98566144	56	7283
2026-01-13 23:55:20.36	14.95	12.13	-42.7	-48.7	8.5	3.59e-02	0	58	0	100663296	56	7388
2026-01-13 23:55:21.37	14.95	12.23	-42.7	-48.6	8.5	4.35e-02	0	58	0	102760448	56	7360
2026-01-13 23:55:22.38	14.94	12.32	-42.6	-48.4	8.7	3.75e-02	0	58	0	103809024	56	7150
2026-01-13 23:55:23.39	14.93	12.42	-42.6	-48.4	8.7	3.27e-02	0	58	0	105906176	56	7154
2026-01-13 23:55:24.40	14.92	12.52	-42.6	-48.3	8.8	3.28e-02	0	58	0	108003328	56	7096
2026-01-13 23:55:25.41	14.91	12.61	-42.6	-48.2	8.9	2.96e-02	0	58	0	110100480	56	7038
2026-01-13 23:55:26.42	14.90	12.71	-42.6	-48.4	8.8	3.03e-02	0	58	0	112197632	56	7154
2026-01-13 23:55:27.43	14.89	12.81	-42.7	-48.5	8.8	3.07e-02	0	58	0	113246208	56	7220
2026-01-13 23:55:28.44	14.88	12.91	-42.6	-48.4	8.8	2.66e-02	0	58	0	115343360	56	7150
2026-01-13 23:55:29.45	14.87	13.01	-42.7	-48.4	8.8	3.08e-02	0	58	0	117440512	56	7161
2026-01-13 23:55:30.46	14.86	13.10	-42.6	-48.1	9.1	2.84e-02	0	58	0	119537664	56	6949
2026-01-13 23:55:31.47	14.85	13.20	-42.6	-48.2	9.1	2.36e-02	0	58	0	121634816	56	6998
2026-01-13 23:55:32.48	14.84	13.30	-42.7	-48.2	9.0	2.33e-02	0	58	0	123731968	56	7034
2026-01-13 23:55:33.49	14.83	13.40	-42.6	-48.1	9.2	1.91e-02	0	58	0	124780544	56	6902
2026-01-13 23:55:34.49	14.82	13.50	-42.7	-48.2	9.1	2.20e-02	0	58	0	126877696	56	7026
2026-01-13 23:55:35.50	14.81	13.60	-42.6	-48.0	9.3	2.02e-02	0	58	0	128974848	56	6865
2026-01-13 23:55:36.51	14.80	13.71	-42.6	-48.1	9.3	1.62e-02	0	58	0	131072000	56	6888
2026-01-13 23:55:37.52	14.79	13.81	-42.7	-48.1	9.2	1.97e-02	0	58	0	133169152	56	6946
2026-01-13 23:55:38.53	14.78	13.91	-42.6	-48.0	9.4	1.92e-02	0	58	0	134217728	56	6819
2026-01-13 23:55:39.54	14.77	14.01	-42.7	-48.1	9.3	1.82e-02	0	58	0	136314880	56	6917
2026-01-13 23:55:40.55	14.76	14.12	-42.7	-48.1	9.2	1.94e-02	0	58	0	138412032	56	6951
2026-01-13 23:55:41.56	14.75	14.22	-42.6	-47.9	9.6	1.52e-02	0	58	0	140509184	56	6746
2026-01-13 23:55:42.57	14.74	14.32	-42.6	-47.8	9.6	1.26e-02	0	58	0	142606336	56	6692
2026-01-13 23:55:43.58	14.73	14.43	-42.6	-47.7	9.8	1.23e-02	0	58	0	143654912	56	6600
2026-01-13 23:55:44.59	14.72	14.53	-42.6	-47.7	9.8	9.72e-03	0	58	0	145752064	56	6597
2026-01-13 23:55:45.60	14.71	14.64	-42.6	-47.7	9.8	1.15e-02	0	58	0	147849216	56	6605
2026-01-13 23:55:46.61	14.70	14.74	-42.5	-47.5	10.0	8.90e-03	0	58	0	149946368	56	6448
2026-01-13 23:55:47.62	14.69	14.85	-42.6	-47.7	9.8	9.73e-03	0	58	0	152043520	56	6583
2026-01-13 23:55:48.63	14.67	14.96	-42.5	-47.6	9.9	9.70e-03	0	58	0	153092096	56	6525
2026-01-13 23:55:49.64	14.66	15.07	-42.6	-47.6	9.9	7.49e-03	0	59	0	155189248	56	6560
2026-01-13 23:55:50.65	14.65	15.17	-42.6	-47.7	9.8	9.33e-03	0	59	0	157286400	56	6628
2026-01-13 23:55:51.65	14.64	15.28	-42.6	-47.7	9.9	1.03e-02	0	59	0	159383552	56	6574
2026-01-13 23:55:52.66	14.63	15.39	-42.5	-47.5	10.0	7.63e-03	0	59	0	161480704	56	6490
2026-01-13 23:55:53.67	14.62	15.50	-42.5	-47.5	10.1	7.34e-03	0	58	0	162529280	56	6448
2026-01-13 23:55:54.68	14.60	15.61	-42.4	-47.2	10.4	6.36e-03	0	58	0	164626432	56	6225
2026-01-13 23:55:55.69	14.59	15.72	-42.5	-47.3	10.2	6.03e-03	0	58	0	166723584	56	6313
2026-01-13 23:55:56.70	14.58	15.83	-42.5	-47.4	10.2	5.47e-03	0	58	0	168820736	56	6385
2026-01-13 23:55:57.71	14.57	15.94	-42.5	-47.4	10.2	4.48e-03	0	58	0	170917888	56	6387
2026-01-13 23:55:58.72	14.55	16.05	-42.5	-47.3	10.3	5.18e-03	0	59	0	171966464	56	6314
2026-01-13 23:55:59.73	14.54	16.16	-42.5	-47.2	10.4	4.72e-03	0	58	0	174063616	56	6235
2026-01-13 23:56:00.74	14.53	16.28	-42.5	-47.3	10.4	4.34e-03	0	59	0	176160768	56	6276
2026-01-13 23:56:01.75	14.52	16.39	-42.5	-47.2	10.5	4.50e-03	0	59	0	178257920	56	6206
2026-01-13 23:56:02.76	14.50	16.50	-42.4	-47.1	10.6	3.40e-03	0	59	0	180355072	56	6145
2026-01-13 23:56:03.77	14.49	16.62	-42.5	-47.2	10.5	4.01e-03	0	59	0	181403648	56	6244
2026-01-13 23:56:04.78	14.48	16.73	-42.5	-47.1	10.5	3.98e-03	0	58	0	183500800	56	6175
2026-01-13 23:56:05.79	14.46	16.85	-42.5	-47.3	10.4	3.50e-03	0	59	0	185597952	56	6281
2026-01-13 23:56:06.79	14.45	16.96	-42.5	-47.2	10.5	3.99e-03	0	59	0	187695104	56	6249
2026-01-13 23:56:07.80	14.44	17.08	-42.5	-47.1	10.7	3.64e-03	0	59	0	189792256	56	6140
2026-01-13 23:56:08.81	14.42	17.20	-42.5	-47.2	10.6	3.26e-03	0	59	0	191889408	56	6206
2026-01-13 23:56:09.82	14.41	17.31	-42.5	-47.3	10.5	3.31e-03	0	59	0	192937984	56	6277
2026-01-13 23:56:10.83	14.39	17.43	-42.5	-47.0	10.8	2.65e-03	0	59	0	195035136	56	6123
2026-01-13 23:56:11.84	14.38	17.55	-42.5	-47.1	10.7	2.81e-03	0	59	0	197132288	56	6158
2026-01-13 23:56:12.85	14.36	17.67	-42.4	-46.8	10.9	2.59e-03	0	59	0	199229440	56	5981
2026-01-13 23:56:13.86	14.35	17.79	-42.4	-46.9	11.0	1.80e-03	0	59	0	201326592	56	6004
2026-01-13 23:56:14.87	14.34	17.91	-42.4	-46.8	11.0	2.29e-03	0	59	0	202375168	56	5976
2026-01-13 23:56:15.88	14.32	18.03	-42.3	-46.6	11.2	1.94e-03	0	59	0	204472320	56	5837
2026-01-13 23:56:16.89	14.31	18.15	-42.4	-46.7	11.2	1.86e-03	0	59	0	206569472	56	5881
2026-01-13 23:56:17.90	14.29	18.28	-42.3	-46.7	11.2	1.51e-03	0	59	0	208666624	56	5864
2026-01-13 23:56:18.91	14.27	18.40	-42.4	-46.7	11.2	1.16e-03	0	59	0	210763776	56	5884
2026-01-13 23:56:19.92	14.26	18.52	-42.3	-46.6	11.3	1.19e-03	0	59	0	211812352	56	5809
2026-01-13 23:56:20.93	14.24	18.65	-42.2	-46.4	11.5	1.07e-03	0	59	0	213909504	56	5705
2026-01-13 23:56:21.94	14.23	18.77	-42.3	-46.5	11.4	8.25e-04	0	59	0	216006656	56	5740
2026-01-13 23:56:22.95	14.21	18.90	-42.3	-46.5	11.4	7.89e-04	0	59	0	218103808	56	5745
2026-01-13 23:56:23.95	14.20	19.02	-42.2	-46.2	11.7	7.74e-04	0	59	0	220200960	56	5583
2026-01-13 23:56:24.97	14.18	19.15	-42.2	-46.4	11.6	6.79e-04	0	59	0	221249536	56	5661
2026-01-13 23:56:25.98	14.16	19.28	-42.3	-46.5	11.5	7.64e-04	0	59	0	223346688	56	5725
2026-01-13 23:56:26.99	14.15	19.40	-42.3	-46.4	11.6	6.20e-04	0	59	0	225443840	56	5675
2026-01-13 23:56:27.99	14.13	19.53	-42.3	-46.4	11.5	8.32e-04	0	59	0	227540992	56	5695
2026-01-13 23:56:29.00	14.11	19.66	-42.3	-46.5	11.4	8.95e-04	0	59	0	229638144	56	5763
2026-01-13 23:56:30.01	14.10	19.79	-42.3	-46.3	11.7	6.60e-04	0	59	0	230686720	56	5633
2026-01-13 23:56:31.02	14.08	19.92	-42.3	-46.4	11.6	7.48e-04	0	59	0	232783872	56	5681
2026-01-13 23:56:32.03	14.06	20.05	-42.3	-46.3	11.7	7.20e-04	0	59	0	234881024	56	5647
2026-01-13 23:56:33.04	14.04	20.18	-42.3	-46.3	11.7	7.80e-04	0	59	0	236978176	56	5655
2026-01-13 23:56:34.05	14.03	20.32	-42.3	-46.3	11.7	6.97e-04	0	59	0	239075328	56	5630
2026-01-13 23:56:35.06	14.01	20.45	-42.4	-46.5	11.5	6.11e-04	0	59	0	240123904	56	5782
2026-01-13 23:56:36.07	13.99	20.59	-42.3	-46.5	11.6	8.89e-04	0	59	0	242221056	56	5723
2026-01-13 23:56:37.08	13.97	20.72	-42.2	-46.2	11.8	7.03e-04	0	59	0	244318208	56	5568
2026-01-13 23:56:38.09	13.95	20.86	-42.3	-46.4	11.6	6.17e-04	0	59	0	246415360	56	5684
2026-01-13 23:56:39.10	13.93	20.99	-42.3	-46.4	11.6	5.99e-04	0	59	0	248512512	56	5701
2026-01-13 23:56:40.11	13.91	21.13	-42.3	-46.3	11.8	5.35e-04	0	59	0	249561088	56	5619
2026-01-13 23:56:41.12	13.89	21.27	-42.3	-46.4	11.7	6.62e-04	0	59	0	251658240	56	5669
2026-01-13 23:56:42.13	13.87	21.41	-42.3	-46.3	11.6	5.19e-04	0	59	0	253755392	56	5648
2026-01-13 23:56:43.14	13.86	21.54	-42.4	-46.5	11.5	4.41e-04	0	59	0	255852544	56	5750
2026-01-13 23:56:44.15	13.84	21.68	-42.4	-46.4	11.6	6.45e-04	0	59	0	257949696	56	5719
2026-01-13 23:56:45.16	13.82	21.83	-42.3	-46.2	11.8	6.03e-04	0	59	0	258998272	56	5588
2026-01-13 23:56:46.16	13.79	21.97	-42.3	-46.3	11.7	5.57e-04	0	59	0	261095424	56	5652
2026-01-13 23:56:47.17	13.77	22.11	-42.4	-46.4	11.6	7.19e-04	0	59	0	263192576	56	5717
2026-01-13 23:56:48.18	13.75	22.25	-42.4	-46.5	11.6	6.55e-04	0	59	0	265289728	56	5741
2026-01-13 23:56:49.19	13.73	22.40	-42.4	-46.5	11.6	7.96e-04	0	59	0	267386880	56	5744
2026-01-13 23:56:50.20	13.71	22.54	-42.4	-46.5	11.6	6.62e-04	0	59	0	268435456	56	5752
2026-01-13 23:56:51.21	13.69	22.69	-42.4	-46.4	11.6	5.19e-04	0	59	0	270532608	56	5715
2026-01-13 23:56:52.22	13.67	22.83	-42.4	-46.4	11.7	6.19e-04	0	59	0	272629760	56	5718
2026-01-13 23:56:53.23	13.65	22.98	-42.2	-46.0	12.1	5.49e-04	0	59	0	274726912	56	5443
2026-01-13 23:56:54.24	13.62	23.13	-42.3	-46.2	11.9	4.90e-04	0	59	0	276824064	56	5574
2026-01-13 23:56:55.25	13.60	23.28	-42.3	-46.3	11.8	4.29e-04	0	60	0	277872640	56	5619
2026-01-13 23:56:56.26	13.58	23.43	-42.2	-46.1	12.0	3.29e-04	0	59	0	279969792	56	5509
2026-01-13 23:56:57.27	13.56	23.58	-42.2	-46.1	12.1	2.37e-04	0	59	0	282066944	56	5473
2026-01-13 23:56:58.28	13.53	23.73	-42.2	-46.1	12.0	3.30e-04	0	59	0	284164096	56	5509
2026-01-13 23:56:59.29	13.51	23.88	-42.2	-46.0	12.1	2.49e-04	0	59	0	286261248	56	5437
2026-01-13 23:57:00.30	13.48	24.04	-42.2	-46.1	12.1	2.51e-04	0	59	0	288358400	56	5478
2026-01-13 23:57:01.31	13.46	24.19	-42.1	-45.9	12.3	2.72e-04	0	59	0	289406976	56	5384
2026-01-13 23:57:02.32	13.44	24.35	-42.3	-46.2	12.0	3.50e-04	0	60	0	291504128	56	5550
2026-01-13 23:57:03.33	13.41	24.50	-42.3	-46.3	11.9	2.74e-04	0	59	0	293601280	56	5603
2026-01-13 23:57:04.34	13.39	24.66	-42.3	-46.3	11.9	2.53e-04	0	59	0	295698432	56	5644
2026-01-13 23:57:05.35	13.36	24.82	-42.4	-46.4	11.8	4.80e-04	0	59	0	297795584	56	5703
2026-01-13 23:57:06.36	13.34	24.98	-42.3	-46.3	11.9	4.90e-04	0	60	0	298844160	56	5628
2026-01-13 23:57:07.37	13.31	25.14	-42.3	-46.3	11.9	4.93e-04	0	59	0	300941312	56	5605
2026-01-13 23:57:08.38	13.28	25.30	-42.4	-46.3	11.9	4.63e-04	0	59	0	303038464	56	5626
2026-01-13 23:57:09.39	13.26	25.46	-42.2	-45.9	12.3	4.17e-04	0	59	0	305135616	56	5367
2026-01-13 23:57:10.40	13.23	25.62	-42.2	-45.9	12.3	2.43e-04	0	59	0	307232768	56	5391
2026-01-13 23:57:11.41	13.20	25.79	-42.3	-46.2	12.1	1.76e-04	0	59	0	308281344	56	5554
2026-01-13 23:57:12.42	13.18	25.95	-42.2	-46.0	12.3	1.33e-04	0	59	0	310378496	56	5419
2026-01-13 23:57:13.43	13.15	26.12	-42.1	-45.8	12.4	1.74e-04	0	59	0	312475648	56	5311
2026-01-13 23:57:14.44	13.12	26.28	-42.2	-46.0	12.2	2.28e-04	0	59	0	314572800	56	5410
2026-01-13 23:57:15.45	13.09	26.45	-42.3	-46.2	12.1	1.53e-04	0	59	0	316669952	56	5535
2026-01-13 23:57:16.46	13.06	26.62	-42.3	-46.2	12.1	3.47e-04	0	59	0	317718528	56	5557
2026-01-13 23:57:17.47	13.04	26.79	-42.3	-46.3	12.0	3.41e-04	0	59	0	319815680	56	5594
2026-01-13 23:57:18.48	13.01	26.96	-42.5	-46.7	11.6	5.94e-04	0	59	0	321912832	56	5858
2026-01-13 23:57:19.49	12.98	27.13	-42.7	-47.1	11.1	9.17e-04	0	59	0	324009984	56	6141
2026-01-13 23:57:20.50	12.95	27.31	-42.7	-46.9	11.3	9.80e-04	0	59	0	326107136	56	6055
2026-01-13 23:57:21.51	12.92	27.48	-42.7	-47.1	11.2	1.70e-03	0	59	0	328204288	56	6172
2026-01-13 23:57:22.52	12.88	27.66	-42.7	-46.9	11.3	1.82e-03	0	59	0	329252864	56	6025
2026-01-13 23:57:23.54	12.85	27.84	-42.9	-47.4	10.8	2.00e-03	0	59	0	331350016	56	6389
2026-01-13 23:57:24.54	12.82	28.01	-42.8	-47.3	11.0	1.87e-03	0	60	0	333447168	56	6286
2026-01-13 23:57:25.56	12.79	28.19	-42.6	-46.8	11.5	2.03e-03	0	60	0	335544320	56	5970
2026-01-13 23:57:26.56	12.76	28.37	-42.7	-47.0	11.2	1.87e-03	0	59	0	337641472	56	6112
2026-01-13 23:57:27.58	12.72	28.55	-42.9	-47.4	10.8	2.06e-03	0	60	0	338690048	56	6366
2026-01-13 23:57:28.58	12.69	28.74	-42.9	-47.5	10.7	1.53e-03	0	59	0	340787200	56	6467
2026-01-13 23:57:29.60	12.66	28.92	-43.1	-47.9	10.3	3.66e-03	0	60	0	342884352	56	6757
2026-01-13 23:57:30.61	12.62	29.11	-43.1	-47.8	10.4	7.06e-03	0	60	0	344981504	57	6317
2026-01-13 23:57:31.61	12.59	29.29	-43.2	-48.2	10.0	5.64e-03	0	59	0	347078656	57	6608
2026-01-13 23:57:32.62	12.55	29.48	-43.4	-48.6	9.7	1.03e-02	0	60	0	348127232	57	6905
2026-01-13 23:57:33.63	12.52	29.67	-43.3	-48.5	9.8	1.04e-02	0	60	0	350224384	57	6817
2026-01-13 23:57:34.64	12.48	29.86	-43.3	-48.3	9.9	1.34e-02	0	60	0	352321536	57	6711
2026-01-13 23:57:35.65	12.45	30.05	-43.4	-48.7	9.5	1.12e-02	0	60	0	354418688	57	7037
2026-01-13 23:57:36.66	12.41	30.24	-43.4	-48.6	9.6	1.01e-02	0	60	0	356515840	57	6927
2026-01-13 23:57:37.67	12.37	30.43	-43.3	-48.3	9.9	9.35e-03	0	60	0	357564416	57	6692
2026-01-13 23:57:38.68	12.33	30.63	-43.3	-48.3	9.9	8.80e-03	0	60	0	359661568	57	6674
2026-01-13 23:57:39.69	12.30	30.82	-43.3	-48.4	9.9	1.18e-02	0	60	0	361758720	57	6748
2026-01-13 23:57:40.70	12.26	31.02	-43.4	-48.7	9.6	1.33e-02	0	60	0	363855872	57	6992
2026-01-13 23:57:41.71	12.22	31.22	-43.6	-49.2	9.1	1.67e-02	0	60	0	365953024	57	7379
2026-01-13 23:57:42.72	12.18	31.42	-43.7	-49.5	8.7	3.62e-02	0	60	0	367001600	58	7273
2026-01-13 23:57:43.73	12.14	31.62	-43.9	-50.2	8.0	5.49e-02	0	60	0	369098752	58	7892
2026-01-13 23:57:44.73	12.10	31.82	-44.1	-50.8	7.4	8.14e-02	0	60	0	371195904	58	8427
2026-01-13 23:57:45.74	12.05	32.03	-44.2	-51.2	7.1	1.47e-01	0	60	0	373293056	58	8791
2026-01-13 23:57:46.75	12.01	32.23	-44.2	-51.5	6.8	1.46e-01	0	60	0	375390208	59	8610
2026-01-13 23:57:47.76	11.97	32.44	-44.3	-51.8	6.6	1.91e-01	0	60	0	376438784	59	8884
2026-01-13 23:57:48.77	11.93	32.65	-44.2	-51.2	7.1	1.65e-01	0	60	0	378535936	59	8276
2026-01-13 23:57:49.78	11.88	32.86	-44.1	-51.1	7.2	1.64e-01	0	60	0	380633088	59	8185
2026-01-13 23:57:50.79	11.84	33.07	-44.1	-51.0	7.3	1.53e-01	0	60	0	382730240	59	8109
2026-01-13 23:57:51.80	11.79	33.28	-44.1	-50.8	7.5	1.23e-01	0	60	0	384827392	59	7954
2026-01-13 23:57:52.81	11.75	33.50	-44.1	-50.9	7.4	1.16e-01	0	60	0	385875968	59	8003
2026-01-13 23:57:53.82	11.70	33.71	-44.0	-50.6	7.7	1.14e-01	0	60	0	387973120	59	7776
2026-01-13 23:57:54.83	11.65	33.93	-44.0	-50.6	7.6	8.47e-02	0	60	0	390070272	59	7779
2026-01-13 23:57:55.84	11.60	34.15	-43.9	-49.9	8.2	6.68e-02	0	60	0	392167424	59	7204
2026-01-13 23:57:56.85	11.56	34.37	-43.7	-49.3	8.9	3.62e-02	0	60	0	394264576	59	6665
2026-01-13 23:57:57.86	11.51	34.59	-43.6	-49.0	9.3	2.79e-02	0	60	0	396361728	59	6469
2026-01-13 23:57:58.87	11.46	34.82	-43.3	-48.3	10.0	1.27e-02	0	60	0	397410304	58	6283
2026-01-13 23:57:59.88	11.41	35.04	-43.2	-47.9	10.5	4.17e-03	0	60	0	399507456	58	6004
2026-01-13 23:58:00.89	11.35	35.27	-42.9	-47.2	11.2	1.76e-03	0	60	0	401604608	57	5899
2026-01-13 23:58:01.90	11.30	35.50	-42.7	-46.9	11.5	9.63e-04	0	60	0	403701760	57	5677
2026-01-13 23:58:02.91	11.25	35.73	-42.6	-46.7	11.6	8.25e-04	0	60	0	405798912	57	5570
2026-01-13 23:58:03.92	11.19	35.96	-42.6	-46.8	11.6	4.59e-04	0	60	0	406847488	57	5599
2026-01-13 23:58:04.93	11.14	36.19	-42.7	-46.8	11.6	5.55e-04	0	60	0	408944640	57	5627
2026-01-13 23:58:05.94	11.08	36.43	-42.6	-46.6	11.9	3.70e-04	0	60	0	411041792	56	5803
2026-01-13 23:58:06.95	11.03	36.66	-42.4	-46.3	12.2	3.05e-04	0	60	0	413138944	56	5608
2026-01-13 23:58:07.95	10.97	36.90	-42.5	-46.4	12.2	1.94e-04	0	60	0	414187520	56	5709
2026-01-13 23:58:08.97	10.91	37.14	-42.1	-45.7	12.8	5.95e-05	0	60	0	416284672	56	5258
2026-01-13 23:58:09.98	10.85	37.39	-41.8	-45.2	13.1	4.57e-05	0	60	0	418381824	55	5258
2026-01-13 23:58:10.99	10.79	37.63	-41.8	-45.2	13.1	6.33e-05	0	60	0	420478976	55	5274
2026-01-13 23:58:12.00	10.73	37.87	-41.9	-45.3	13.0	3.05e-05	0	60	0	422576128	55	5325
2026-01-13 23:58:13.01	10.67	38.12	-42.0	-45.6	12.7	5.18e-05	0	60	0	424673280	55	5513
2026-01-13 23:58:14.02	10.61	38.37	-42.0	-45.5	12.8	1.30e-04	0	60	0	425721856	55	5423
2026-01-13 23:58:15.03	10.54	38.62	-42.1	-45.8	12.5	9.46e-05	0	60	0	427819008	55	5594
2026-01-13 23:58:16.04	10.48	38.87	-42.3	-46.1	12.2	1.41e-04	0	60	0	429916160	55	5799
2026-01-13 23:58:17.05	10.41	39.13	-42.2	-45.9	12.4	2.31e-04	0	60	0	432013312	55	5691
2026-01-13 23:58:18.06	10.34	39.38	-42.0	-45.6	12.7	1.29e-04	0	60	0	434110464	55	5526
2026-01-13 23:58:19.07	10.28	39.64	-42.0	-45.5	12.8	9.00e-05	0	60	0	435159040	55	5409
2026-01-13 23:58:20.08	10.21	39.90	-42.0	-45.6	12.7	5.34e-05	0	60	0	437256192	55	5504
2026-01-13 23:58:21.09	10.13	40.17	-42.0	-45.5	12.8	4.88e-05	0	60	0	439353344	55	5442
2026-01-13 23:58:22.10	10.06	40.43	-42.2	-45.9	12.5	6.40e-05	0	60	0	441450496	55	5657
2026-01-13 23:58:23.10	9.99	40.69	-42.2	-45.9	12.4	1.23e-04	0	60	0	443547648	55	5664
2026-01-13 23:58:24.12	9.91	40.96	-42.1	-45.7	12.6	1.29e-04	0	60	0	444596224	55	5555
2026-01-13 23:58:25.12	9.84	41.23	-42.4	-46.4	11.9	3.46e-04	0	60	0	446693376	55	6022
2026-01-13 23:58:26.13	9.76	41.50	-42.6	-46.7	11.7	5.39e-04	0	60	0	448790528	55	6203
2026-01-13 23:58:27.14	9.68	41.77	-42.9	-47.2	11.3	4.74e-04	0	60	0	450887680	56	6210
2026-01-13 23:58:28.15	9.60	42.05	-42.9	-47.3	11.1	1.71e-03	0	60	0	452984832	56	6314
2026-01-13 23:58:29.16	9.52	42.33	-42.9	-47.2	11.2	2.29e-03	0	60	0	454033408	56	6247
2026-01-13 23:58:30.17	9.44	42.61	-43.1	-47.7	10.6	1.82e-03	0	60	0	456130560	56	6585
2026-01-13 23:58:31.18	9.35	42.89	-43.1	-47.8	10.6	2.55e-03	0	60	0	458227712	56	6665
2026-01-13 23:58:32.19	9.27	43.17	-43.2	-47.9	10.6	3.75e-03	0	60	0	460324864	57	6361
2026-01-13 23:58:33.20	9.18	43.46	-43.3	-48.0	10.4	6.48e-03	0	60	0	462422016	57	6491
2026-01-13 23:58:34.21	9.09	43.75	-43.5	-48.6	9.8	9.34e-03	0	60	0	464519168	57	6942
2026-01-13 23:58:35.22	9.00	44.04	-43.5	-48.7	9.6	1.17e-02	0	60	0	465567744	57	6982
2026-01-13 23:58:36.23	8.91	44.33	-43.5	-48.7	9.6	1.17e-02	0	60	0	467664896	57	7007
2026-01-13 23:58:37.24	8.81	44.62	-43.4	-48.5	9.9	9.27e-03	0	60	0	469762048	57	6807
2026-01-13 23:58:38.25	8.72	44.92	-43.1	-47.6	10.8	4.99e-03	0	60	0	471859200	57	6190
2026-01-13 23:58:39.26	8.62	45.22	-43.1	-47.5	11.0	2.68e-03	0	60	0	473956352	57	6090
2026-01-13 23:58:40.27	8.52	45.52	-42.9	-47.1	11.4	1.36e-03	0	60	0	475004928	57	5815
2026-01-13 23:58:41.28	8.42	45.82	-43.0	-47.4	11.0	1.17e-03	0	60	0	477102080	57	6013
2026-01-13 23:58:42.29	8.31	46.13	-43.1	-47.7	10.7	2.75e-03	0	60	0	479199232	57	6242
2026-01-13 23:58:43.30	8.21	46.43	-43.3	-48.2	10.2	5.36e-03	0	60	0	481296384	57	6620
2026-01-13 23:58:44.31	8.10	46.74	-43.6	-48.9	9.5	1.23e-02	0	60	0	483393536	57	7128
2026-01-13 23:58:45.32	7.99	47.05	-43.8	-49.3	9.1	1.71e-02	0	60	0	484442112	58	7073
2026-01-13 23:58:46.33	7.87	47.37	-43.6	-48.7	9.6	1.65e-02	0	60	0	486539264	58	6637
2026-01-13 23:58:47.34	7.76	47.68	-43.6	-48.8	9.6	1.01e-02	0	60	0	488636416	58	6685
2026-01-13 23:58:48.35	7.64	48.00	-43.3	-48.1	10.3	1.03e-02	0	60	0	490733568	58	6163
2026-01-13 23:58:49.36	7.52	48.32	-43.5	-48.5	10.0	7.01e-03	0	60	0	492830720	58	6468
2026-01-13 23:58:50.37	7.40	48.64	-43.8	-49.3	9.1	1.77e-02	0	60	0	493879296	58	7097
2026-01-13 23:58:51.38	7.27	48.97	-43.9	-49.7	8.7	3.10e-02	0	60	0	495976448	58	7438
2026-01-13 23:58:52.39	7.14	49.30	-43.7	-49.1	9.2	2.88e-02	0	60	0	498073600	58	6953
2026-01-13 23:58:53.40	7.01	49.63	-43.4	-48.4	10.0	1.44e-02	0	60	0	500170752	58	6420
2026-01-13 23:58:54.41	6.88	49.96	-43.2	-47.9	10.6	4.24e-03	0	60	0	502267904	58	6012
2026-01-13 23:58:55.41	6.74	50.29	-43.0	-47.3	11.0	1.95e-03	0	60	0	503316480	58	5621
2026-01-13 23:58:56.42	6.60	50.62	-42.9	-47.2	11.3	9.83e-04	0	60	0	505413632	57	5897
2026-01-13 23:58:57.43	6.46	50.96	-43.0	-47.5	11.0	1.58e-03	0	60	0	507510784	57	6073
2026-01-13 23:58:58.44	6.31	51.30	-42.8	-46.9	11.5	1.31e-03	0	60	0	509607936	57	5685
2026-01-13 23:58:59.45	6.16	51.65	-42.7	-46.7	11.8	7.23e-04	0	60	0	511705088	57	5563
2026-01-13 23:59:00.47	6.00	52.00	-42.5	-46.2	12.3	2.27e-04	0	60	0	512753664	56	5586
2026-01-13 23:59:01.47	5.85	52.34	-42.5	-46.3	12.2	1.79e-04	0	60	0	514850816	56	5650
2026-01-13 23:59:02.48	5.68	52.69	-42.6	-46.5	12.0	1.52e-04	0	60	0	516947968	56	5786
2026-01-13 23:59:03.49	5.52	53.04	-43.0	-47.3	11.2	9.80e-04	0	60	0	519045120	56	6322
2026-01-13 23:59:04.50	5.35	53.40	-43.1	-47.6	11.0	4.00e-03	0	60	0	521142272	57	6159
2026-01-13 23:59:05.51	5.17	53.75	-42.9	-47.2	11.4	1.97e-03	0	60	0	522190848	57	5877
2026-01-13 23:59:06.52	4.99	54.11	-42.6	-46.6	11.9	9.35e-04	0	60	0	524288000	56	5789
2026-01-13 23:59:07.53	4.81	54.47	-42.4	-46.2	12.3	1.57e-04	0	60	0	526385152	56	5557
2026-01-13 23:59:08.54	4.62	54.84	-42.4	-46.0	12.5	7.01e-05	0	60	0	528482304	56	5456
2026-01-13 23:59:09.55	4.43	55.20	-42.4	-46.0	12.5	6.10e-05	0	60	0	530579456	56	5438
2026-01-13 23:59:10.56	4.23	55.57	-42.4	-46.1	12.5	1.32e-04	0	60	0	532676608	56	5513
2026-01-13 23:59:11.57	4.03	55.94	-42.5	-46.2	12.4	1.17e-04	0	60	0	533725184	56	5591
2026-01-13 23:59:12.58	3.82	56.31	-42.5	-46.2	12.3	1.07e-04	0	60	0	535822336	56	5562
2026-01-13 23:59:13.59	3.60	56.68	-42.8	-46.8	11.7	2.84e-04	0	60	0	537919488	56	5987
2026-01-13 23:59:14.59	3.38	57.06	-42.9	-47.1	11.4	1.20e-03	0	60	0	540016640	56	6201
2026-01-13 23:59:15.60	3.16	57.44	-43.0	-47.3	11.2	1.59e-03	0	60	0	541065216	56	6308
2026-01-13 23:59:16.61	2.92	57.82	-43.1	-47.4	11.0	1.61e-03	0	60	0	543162368	56	6414
2026-01-13 23:59:17.62	2.68	58.20	-43.1	-47.6	10.9	1.81e-03	0	60	0	545259520	56	6529
2026-01-13 23:59:18.63	2.43	58.58	-43.4	-48.2	10.2	3.29e-03	0	60	0	547356672	57	6638
2026-01-13 23:59:19.64	2.18	58.97	-43.7	-49.1	9.3	1.42e-02	0	60	0	549453824	58	6953
2026-01-13 23:59:20.65	1.92	59.36	-43.6	-48.9	9.5	2.29e-02	0	60	0	550502400	58	6799
2026-01-13 23:59:21.66	1.65	59.75	-43.1	-47.4	11.1	4.03e-03	0	60	0	552599552	58	5710
2026-01-13 23:59:22.68	1.36	60.14	-42.5	-46.2	12.2	3.64e-04	0	60	0	554696704	56	5584
2026-01-13 23:59:23.69	1.07	60.54	-42.6	-46.4	12.1	1.98e-04	0	60	0	556793856	56	5709
2026-01-13 23:59:24.70	0.78	60.93	-43.1	-47.6	10.9	7.48e-04	0	60	0	558891008	56	6548
2026-01-13 23:59:25.70	0.47	61.33	-43.0	-47.5	11.0	3.22e-03	0	60	0	560988160	57	6096
2026-01-13 23:59:26.71	0.16	61.73	-42.7	-46.8	11.8	9.20e-04	0	60	0	562036736	57	5620
2026-01-13 23:59:27.72	359.83	62.13	-42.3	-46.0	12.5	1.81e-04	0	60	0	564133888	56	5423
2026-01-13 23:59:28.73	359.49	62.53	-42.0	-45.4	13.1	1.04e-04	0	60	0	566231040	56	5045
2026-01-13 23:59:29.74	359.14	62.93	-41.7	-45.0	13.4	1.75e-05	0	60	0	568328192	55	5110
2026-01-13 23:59:30.75	358.78	63.34	-41.7	-44.9	13.5	6.80e-06	0	60	0	570425344	55	5093
2026-01-13 23:59:31.76	358.40	63.74	-41.7	-44.9	13.6	4.50e-06	0	60	0	571473920	55	5048
2026-01-13 23:59:32.77	358.01	64.15	-42.0	-45.4	13.0	2.89e-05	0	60	0	573571072	55	5389
2026-01-13 23:59:33.78	357.61	64.56	-41.8	-45.1	13.3	3.43e-05	0	61	0	575668224	55	5202
2026-01-13 23:59:34.79	357.19	64.97	-41.5	-44.6	13.8	1.75e-05	0	60	0	577765376	55	4917
2026-01-13 23:59:35.80	356.76	65.38	-42.0	-45.4	13.0	1.22e-05	0	60	0	579862528	54	5673
2026-01-13 23:59:36.81	356.31	65.79	-42.4	-46.2	12.1	1.07e-04	0	60	0	580911104	55	5918
2026-01-13 23:59:37.82	355.84	66.20	-42.9	-47.1	11.4	7.32e-04	0	60	0	583008256	56	6149
2026-01-13 23:59:38.82	355.36	66.61	-43.0	-47.3	11.2	1.24e-03	0	60	0	585105408	56	6329
2026-01-13 23:59:39.83	354.85	67.03	-42.9	-47.2	11.3	1.01e-03	0	60	0	587202560	56	6222
2026-01-13 23:59:40.84	354.33	67.44	-43.1	-47.7	10.8	1.72e-03	0	60	0	589299712	56	6611
2026-01-13 23:59:41.85	353.78	67.86	-43.2	-47.9	10.4	4.74e-03	0	60	0	590348288	57	6388
2026-01-13 23:59:42.86	353.21	68.27	-43.3	-48.2	10.0	6.69e-03	0	60	0	592445440	57	6638
2026-01-13 23:59:43.87	352.62	68.68	-43.3	-48.3	10.1	6.45e-03	0	60	0	594542592	57	6673
2026-01-13 23:59:44.88	352.00	69.10	-43.2	-48.0	10.4	7.86e-03	0	60	0	596639744	57	6440
2026-01-13 23:59:45.89	351.35	69.51	-43.0	-47.3	11.2	1.99e-03	0	60	0	598736896	57	5985
2026-01-13 23:59:46.90	350.67	69.92	-43.1	-47.5	10.9	1.55e-03	0	60	0	599785472	57	6118
2026-01-13 23:59:47.91	349.97	70.33	-43.0	-47.4	11.1	2.10e-03	0	61	0	601882624	57	6003
2026-01-13 23:59:48.92	349.23	70.74	-42.5	-46.3	12.2	3.81e-04	0	61	0	603979776	56	5647
2026-01-13 23:59:49.93	348.46	71.15	-42.1	-45.6	12.8	9.99e-05	0	60	0	606076928	56	5195
2026-01-13 23:59:50.94	347.65	71.56	-42.1	-45.6	12.9	4.11e-05	0	61	0	608174080	56	5186
2026-01-13 23:59:51.95	346.80	71.96	-42.1	-45.5	12.9	4.80e-05	0	60	0	609222656	56	5133
2026-01-13 23:59:52.96	345.91	72.37	-41.3	-44.3	14.0	6.80e-06	0	60	0	611319808	54	5020
2026-01-13 23:59:53.97	344.98	72.77	-41.7	-44.9	13.4	5.30e-06	0	60	0	613416960	54	5378
2026-01-13 23:59:54.98	344.00	73.16	-41.8	-45.3	13.1	4.19e-05	0	60	0	615514112	54	5594
2026-01-13 23:59:55.99	342.97	73.56	-41.9	-45.2	13.0	7.01e-05	0	60	0	617611264	54	5587
2026-01-13 23:59:57.00	341.88	73.94	-42.4	-46.3	12.0	1.62e-04	0	61	0	618659840	55	5965
2026-01-13 23:59:58.00	340.76	74.32	-43.1	-47.8	10.6	8.96e-04	0	61	0	620756992	56	6659
2026-01-13 23:59:59.01	339.56	74.70	-43.6	-49.1	9.2	1.41e-02	0	60	0	622854144	57	7293
2026-01-14 00:00:00.02	338.30	75.08	-43.4	-48.4	9.9	9.92e-03	0	60	0	624951296	57	6768
2026-01-14 00:00:01.03	336.97	75.44	-43.7	-49.3	9.0	1.16e-02	0	60	0	627048448	57	7522
2026-01-14 00:00:02.04	335.57	75.80	-43.9	-50.0	8.2	5.40e-02	0	60	0	629145600	58	7718
2026-01-14 00:00:03.05	334.10	76.16	-43.6	-48.8	9.4	1.75e-02	0	60	0	630194176	58	6700
2026-01-14 00:00:04.06	332.55	76.50	-43.3	-48.2	10.2	7.86e-03	0	61	0	632291328	58	6208
2026-01-14 00:00:05.07	330.92	76.84	-43.9	-49.9	8.5	1.67e-02	0	60	0	634388480	58	7545
2026-01-14 00:00:06.08	329.19	77.16	-43.8	-49.5	8.8	5.28e-02	0	60	0	636485632	58	7264
2026-01-14 00:00:07.09	327.38	77.47	-43.2	-47.9	10.4	9.05e-03	0	61	0	638582784	58	6019
2026-01-14 00:00:08.10	325.48	77.77	-43.1	-47.7	10.5	3.86e-03	0	60	0	639631360	57	6267
2026-01-14 00:00:09.11	323.48	78.06	-43.0	-47.5	10.8	3.20e-03	0	61	0	641728512	57	6117
2026-01-14 00:00:10.12	321.38	78.33	-43.3	-48.1	10.2	4.07e-03	0	61	0	643825664	57	6515
2026-01-14 00:00:11.13	319.18	78.59	-43.1	-47.6	10.7	2.94e-03	0	61	0	645922816	57	6164
2026-01-14 00:00:12.14	316.87	78.83	-43.2	-48.0	10.3	5.52e-03	0	61	0	648019968	57	6442
2026-01-14 00:00:13.15	314.47	79.05	-43.8	-49.5	8.7	1.30e-02	0	60	0	649068544	58	7249
2026-01-14 00:00:14.16	311.97	79.26	-44.0	-50.3	8.0	5.12e-02	0	60	0	651165696	58	7963
2026-01-14 00:00:15.17	309.38	79.44	-44.2	-51.2	7.1	1.32e-01	0	60	0	653262848	59	8293
2026-01-14 00:00:16.18	306.70	79.60	-44.3	-51.3	7.0	1.41e-01	0	61	0	655360000	59	8388
2026-01-14 00:00:17.19	303.95	79.74	-44.2	-50.8	7.4	1.99e-01	0	61	0	657457152	59	7988
2026-01-14 00:00:18.20	301.12	79.85	-44.5	-52.4	6.2	1.76e-01	0	61	0	658505728	59	9555
2026-01-14 00:00:19.21	298.23	79.94	-44.6	-52.8	5.7	3.93e-01	0	61	0	660602880	59	10020
2026-01-14 00:00:20.22	295.30	80.00	-44.5	-52.7	5.7	6.37e-01	0	60	0	662700032	60	9382
2026-01-14 00:00:21.23	292.34	80.04	-44.2	-51.2	7.1	2.47e-01	0	61	0	664797184	60	7891
2026-01-14 00:00:22.24	289.36	80.05	-44.3	-51.9	6.5	2.34e-01	0	61	0	666894336	60	8520
2026-01-14 00:00:23.25	286.39	80.03	-44.6	-53.7	5.2	4.63e-01	0	61	0	667942912	60	10429
2026-01-14 00:00:24.26	283.43	79.99	-44.5	-53.0	5.6	5.48e-01	0	60	0	670040064	60	9636
2026-01-14 00:00:25.26	280.54	79.93	-44.2	-51.4	6.9	2.89e-01	0	60	0	672137216	60	8077
2026-01-14 00:00:26.27	277.66	79.83	-44.0	-50.5	7.7	9.94e-02	0	60	0	674234368	59	7672
2026-01-14 00:00:27.28	274.84	79.71	-44.1	-50.5	7.5	5.59e-02	0	60	0	676331520	59	7689
2026-01-14 00:00:28.29	272.10	79.57	-44.2	-51.2	7.0	1.71e-01	0	61	0	677380096	59	8365
2026-01-14 00:00:29.30	269.43	79.41	-43.8	-49.8	8.4	5.29e-02	0	61	0	679477248	59	7102
2026-01-14 00:00:30.31	266.86	79.22	-44.0	-50.3	7.9	3.99e-02	0	61	0	681574400	59	7529
2026-01-14 00:00:31.32	264.37	79.02	-44.1	-50.5	7.6	1.12e-01	0	61	0	683671552	59	7698
2026-01-14 00:00:32.33	261.99	78.79	-43.7	-49.2	8.9	2.80e-02	0	61	0	685768704	59	6636
2026-01-14 00:00:33.34	259.71	78.55	-43.8	-49.4	8.7	1.63e-02	0	61	0	686817280	58	7173
2026-01-14 00:00:34.35	257.52	78.29	-44.3	-51.6	6.6	1.08e-01	0	61	0	688914432	59	8676
2026-01-14 00:00:35.36	255.44	78.01	-43.9	-49.8	8.3	5.45e-02	0	61	0	691011584	59	7113
2026-01-14 00:00:36.37	253.45	77.72	-44.1	-50.5	7.8	5.86e-02	0	61	0	693108736	59	7632
2026-01-14 00:00:37.38	251.56	77.42	-44.1	-50.8	7.5	9.80e-02	0	61	0	695205888	59	7912
2026-01-14 00:00:38.39	249.77	77.10	-44.3	-51.5	6.7	1.16e-01	0	61	0	697303040	59	8618
2026-01-14 00:00:39.40	248.06	76.77	-44.5	-52.5	6.1	2.22e-01	0	61	0	698351616	59	9607
2026-01-14 00:00:40.41	246.44	76.44	-44.6	-52.8	5.8	4.38e-01	0	61	0	700448768	59	10014
2026-01-14 00:00:41.42	244.90	76.09	-44.6	-53.3	5.3	4.82e-01	0	61	0	702545920	59	10578
2026-01-14 00:00:42.43	243.44	75.74	-44.3	-51.4	6.7	4.23e-01	0	61	0	704643072	59	8519
2026-01-14 00:00:43.44	242.06	75.38	-43.6	-49.0	9.1	7.73e-02	0	61	0	706740224	59	6490
2026-01-14 00:00:44.44	240.75	75.01	-43.4	-48.6	9.7	1.40e-02	0	61	0	707788800	58	6502
2026-01-14 00:00:45.46	239.49	74.63	-43.2	-48.0	10.2	1.31e-02	0	61	0	709885952	58	6071
2026-01-14 00:00:46.47	238.30	74.25	-42.7	-46.9	11.3	3.46e-03	0	61	0	711983104	57	5679
2026-01-14 00:00:47.48	237.17	73.87	-43.1	-47.6	10.6	2.36e-03	0	61	0	714080256	57	6174
2026-01-14 00:00:48.48	236.11	73.48	-43.0	-47.4	10.8	2.90e-03	0	61	0	716177408	57	6061
2026-01-14 00:00:49.50	235.08	73.08	-42.5	-46.4	11.8	2.06e-03	0	61	0	717225984	57	5390
2026-01-14 00:00:50.51	234.11	72.68	-41.7	-44.9	13.2	1.44e-05	0	61	0	719323136	54	5379
2026-01-14 00:00:51.52	233.18	72.28	-42.0	-45.5	12.6	5.11e-05	0	61	0	721420288	54	5756
2026-01-14 00:00:52.53	232.30	71.88	-42.6	-46.8	11.3	5.03e-04	0	61	0	723517440	55	6314
2026-01-14 00:00:53.54	231.46	71.47	-42.8	-47.1	11.1	3.29e-03	0	61	0	725614592	57	5815
2026-01-14 00:00:54.55	230.66	71.07	-42.9	-47.2	11.0	2.00e-03	0	61	0	726663168	57	5883
2026-01-14 00:00:55.56	229.89	70.66	-42.1	-45.6	12.6	5.52e-04	0	61	0	728760320	56	5168
2026-01-14 00:00:56.57	229.16	70.24	-42.3	-46.0	12.2	9.23e-05	0	61	0	730857472	56	5464
2026-01-14 00:00:57.58	228.46	69.83	-43.2	-48.1	10.2	2.23e-03	0	61	0	732954624	56	6896
2026-01-14 00:00:58.59	227.79	69.42	-43.0	-47.4	10.7	5.69e-03	0	61	0	735051776	57	6039
2026-01-14 00:00:59.60	227.14	69.00	-42.7	-46.8	11.5	1.15e-03	0	61	0	736100352	57	5596
2026-01-14 00:01:00.61	226.53	68.59	-43.0	-47.6	10.5	2.37e-03	0	61	0	738197504	57	6182
2026-01-14 00:01:01.62	225.94	68.18	-43.2	-48.1	9.9	6.06e-03	0	61	0	740294656	57	6554
2026-01-14 00:01:02.63	225.37	67.76	-43.4	-48.5	9.6	1.25e-02	0	61	0	742391808	57	6868
2026-01-14 00:01:03.63	224.83	67.35	-43.1	-47.7	10.5	4.57e-03	0	61	0	744488960	57	6241
2026-01-14 00:01:04.64	224.31	66.93	-42.2	-45.8	12.3	3.71e-04	0	61	0	745537536	56	5288
2026-01-14 00:01:05.65	223.81	66.52	-41.6	-44.9	13.2	3.20e-05	0	61	0	747634688	55	5075
2026-01-14 00:01:06.66	223.33	66.11	-41.8	-45.3	12.8	3.05e-05	0	61	0	749731840	55	5294
2026-01-14 00:01:07.67	222.86	65.69	-42.4	-46.3	11.9	2.43e-04	0	61	0	751828992	55	5932
2026-01-14 00:01:08.68	222.42	65.28	-42.4	-46.4	11.6	9.99e-04	0	61	0	753926144	55	6038
2026-01-14 00:01:09.69	221.99	64.87	-42.5	-46.5	11.6	7.53e-04	0	61	0	754974720	55	6073
2026-01-14 00:01:10.70	221.57	64.46	-43.2	-48.1	10.1	4.29e-03	0	61	0	757071872	57	6515
2026-01-14 00:01:11.71	221.17	64.05	-42.6	-46.5	11.7	3.76e-03	0	61	0	759169024	57	5457
2026-01-14 00:01:12.72	220.78	63.64	-42.6	-46.6	11.6	4.73e-04	0	61	0	761266176	57	5495
2026-01-14 00:01:13.73	220.41	63.23	-43.6	-49.2	9.0	1.08e-02	0	61	0	763363328	57	7402
2026-01-14 00:01:14.74	220.05	62.83	-43.9	-50.1	7.9	1.20e-01	0	61	0	765460480	58	7785
2026-01-14 00:01:15.75	219.70	62.42	-43.5	-48.8	9.3	3.29e-02	0	61	0	766509056	58	6720
2026-01-14 00:01:16.76	219.36	62.02	-44.3	-51.4	6.9	2.69e-02	0	61	0	768606208	59	8497
2026-01-14 00:01:17.76	219.04	61.62	-44.2	-51.2	7.0	2.13e-01	0	61	0	770703360	59	8349
2026-01-14 00:01:18.77	218.72	61.22	-43.6	-48.9	9.2	5.68e-02	0	61	0	772800512	59	6374
2026-01-14 00:01:19.78	218.42	60.83	-43.3	-48.1	10.1	9.08e-03	0	61	0	774897664	58	6155
2026-01-14 00:01:20.80	218.12	60.42	-42.7	-46.7	11.5	2.30e-03	0	61	0	775946240	57	5585
2026-01-14 00:01:21.80	217.84	60.03	-41.8	-45.1	13.0	9.61e-05	0	61	0	778043392	55	5201
2026-01-14 00:01:22.81	217.56	59.64	-41.7	-44.9	13.2	5.64e-05	0	61	0	780140544	55	5092
2026-01-14 00:01:23.82	217.29	59.25	-41.8	-45.2	12.9	3.12e-05	0	61	0	782237696	54	5547
2026-01-14 00:01:24.83	217.03	58.86	-41.8	-45.2	13.0	4.04e-05	0	61	0	784334848	54	5576
2026-01-14 00:01:25.84	216.77	58.47	-42.1	-45.7	12.4	2.89e-05	0	61	0	785383424	54	5891
2026-01-14 00:01:26.85	216.52	58.09	-42.2	-46.1	12.1	1.72e-04	0	61	0	787480576	55	5791
2026-01-14 00:01:27.86	216.28	57.71	-42.6	-46.7	11.4	4.79e-04	0	61	0	789577728	55	6246
2026-01-14 00:01:28.87	216.05	57.32	-42.4	-46.3	11.8	7.57e-04	0	61	0	791674880	55	5963
2026-01-14 00:01:29.88	215.83	56.95	-42.3	-46.2	11.9	4.33e-04	0	61	0	793772032	55	5866
2026-01-14 00:01:30.89	215.61	56.57	-42.5	-46.6	11.5	3.33e-04	0	61	0	794820608	55	6188
2026-01-14 00:01:31.90	215.39	56.19	-43.2	-48.0	10.3	2.05e-03	0	61	0	796917760	56	6823
2026-01-14 00:01:32.91	215.18	55.82	-43.4	-48.3	9.8	9.45e-03	0	61	0	799014912	57	6713
2026-01-14 00:01:33.92	214.98	55.45	-43.5	-48.7	9.4	1.48e-02	0	61	0	801112064	57	6971
2026-01-14 00:01:34.93	214.78	55.08	-43.8	-49.5	8.7	2.96e-02	0	61	0	803209216	58	7263
2026-01-14 00:01:35.94	214.59	54.72	-43.4	-48.6	9.5	2.68e-02	0	61	0	804257792	58	6519
2026-01-14 00:01:36.95	214.40	54.35	-43.1	-47.7	10.5	7.12e-03	0	61	0	806354944	58	5918
2026-01-14 00:01:37.96	214.22	53.99	-43.2	-47.9	10.3	5.01e-03	0	61	0	808452096	58	6032
2026-01-14 00:01:38.96	214.04	53.64	-42.9	-47.3	10.9	6.54e-03	0	61	0	810549248	57	5961
2026-01-14 00:01:39.97	213.87	53.28	-42.8	-47.0	11.2	2.98e-03	0	61	0	812646400	57	5743
2026-01-14 00:01:40.98	213.70	52.92	-43.1	-47.8	10.6	2.07e-03	0	61	0	813694976	57	6279
2026-01-14 00:01:41.99	213.53	52.57	-43.2	-48.0	10.2	5.19e-03	0	61	0	815792128	57	6428
2026-01-14 00:01:43.00	213.37	52.22	-43.1	-47.6	10.6	4.17e-03	0	61	0	817889280	57	6157
2026-01-14 00:01:44.01	213.21	51.87	-42.9	-47.2	11.0	1.56e-03	0	61	0	819986432	57	5877
2026-01-14 00:01:45.02	213.06	51.53	-43.0	-47.4	10.8	2.63e-03	0	61	0	822083584	57	6002
2026-01-14 00:01:46.03	212.91	51.18	-43.2	-47.9	10.4	4.96e-03	0	61	0	823132160	57	6353
2026-01-14 00:01:47.04	212.76	50.84	-43.1	-47.7	10.4	8.31e-03	0	61	0	825229312	57	6266
2026-01-14 00:01:48.05	212.62	50.50	-43.0	-47.5	10.7	3.00e-03	0	61	0	827326464	57	6105
2026-01-14 00:01:49.06	212.48	50.16	-43.3	-48.2	10.0	7.15e-03	0	61	0	829423616	57	6623
2026-01-14 00:01:50.07	212.34	49.83	-43.8	-49.6	8.7	2.45e-02	0	61	0	831520768	58	7312
2026-01-14 00:01:51.08	212.21	49.50	-44.0	-50.5	7.6	1.03e-01	0	61	0	832569344	58	8130
2026-01-14 00:01:52.09	212.08	49.17	-43.7	-49.2	8.8	9.50e-02	0	61	0	834666496	58	7030
2026-01-14 00:01:53.09	211.95	48.84	-43.6	-48.9	9.3	2.96e-02	0	61	0	836763648	58	6735
2026-01-14 00:01:54.10	211.82	48.52	-43.8	-49.7	8.5	3.17e-02	0	61	0	838860800	58	7381
2026-01-14 00:01:55.11	211.70	48.19	-44.1	-50.7	7.5	6.88e-02	0	61	0	840957952	58	8276
2026-01-14 00:01:56.12	211.58	47.87	-44.3	-51.4	6.9	1.37e-01	0	61	0	843055104	59	8540
2026-01-14 00:01:57.13	211.46	47.56	-44.4	-52.0	6.3	2.45e-01	0	61	0	844103680	59	9118
2026-01-14 00:01:58.14	211.35	47.24	-44.1	-50.9	7.3	2.00e-01	0	61	0	846200832	59	8013
2026-01-14 00:01:59.15	211.23	46.92	-44.2	-50.9	7.3	1.25e-01	0	61	0	848297984	59	7998
2026-01-14 00:02:00.16	211.12	46.61	-44.1	-50.6	7.5	1.15e-01	0	61	0	850395136	59	7776
2026-01-14 00:02:01.17	211.02	46.30	-44.2	-50.8	7.3	1.24e-01	0	61	0	852492288	59	7978
2026-01-14 00:02:02.18	210.91	45.99	-43.6	-49.1	9.1	5.16e-02	0	61	0	853540864	59	6527
2026-01-14 00:02:03.19	210.80	45.69	-43.1	-47.8	10.4	7.61e-03	0	61	0	855638016	58	5953
2026-01-14 00:02:04.20	210.70	45.39	-42.9	-47.2	11.0	2.72e-03	0	61	0	857735168	57	5909
2026-01-14 00:02:05.21	210.60	45.08	-43.4	-48.4	9.8	3.74e-03	0	61	0	859832320	57	6738
2026-01-14 00:02:06.22	210.50	44.79	-43.5	-48.7	9.4	2.17e-02	0	61	0	861929472	57	7000
2026-01-14 00:02:07.23	210.41	44.49	-43.5	-48.8	9.3	1.35e-02	0	61	0	862978048	57	7094
2026-01-14 00:02:08.24	210.31	44.19	-43.4	-48.3	9.8	1.77e-02	0	61	0	865075200	57	6719
2026-01-14 00:02:09.25	210.22	43.90	-43.5	-48.8	9.4	1.28e-02	0	61	0	867172352	57	7060
2026-01-14 00:02:10.26	210.13	43.61	-43.5	-48.8	9.5	2.75e-02	0	61	0	869269504	58	6656
2026-01-14 00:02:11.27	210.04	43.32	-43.5	-48.6	9.5	1.46e-02	0	61	0	871366656	58	6529
2026-01-14 00:02:12.28	209.95	43.04	-43.6	-48.9	9.3	2.04e-02	0	61	0	872415232	58	6739
2026-01-14 00:02:13.29	209.87	42.75	-43.6	-49.0	9.0	2.59e-02	0	61	0	874512384	58	6863
2026-01-14 00:02:14.29	209.78	42.47	-43.9	-50.2	7.9	4.10e-02	0	61	0	876609536	58	7899
2026-01-14 00:02:15.30	209.70	42.19	-44.3	-51.8	6.5	1.14e-01	0	61	0	878706688	59	8873
2026-01-14 00:02:16.31	209.62	41.91	-44.5	-52.8	5.6	4.89e-01	0	61	0	880803840	59	10057
2026-01-14 00:02:17.32	209.54	41.64	-44.0	-50.5	7.6	2.59e-01	0	61	0	881852416	59	7695
2026-01-14 00:02:18.33	209.46	41.36	-43.8	-49.7	8.5	7.02e-02	0	61	0	883949568	59	6977
2026-01-14 00:02:19.34	209.38	41.09	-43.5	-48.9	9.2	2.96e-02	0	61	0	886046720	59	6375
2026-01-14 00:02:20.36	209.30	40.82	-43.5	-49.0	9.2	1.81e-02	0	61	0	888143872	58	6826
2026-01-14 00:02:21.36	209.23	40.55	-43.4	-48.6	9.5	2.45e-02	0	61	0	890241024	58	6570
2026-01-14 00:02:22.37	209.16	40.29	-43.7	-49.5	8.7	2.55e-02	0	61	0	891289600	58	7219
2026-01-14 00:02:23.38	209.08	40.02	-43.8	-49.7	8.3	5.46e-02	0	61	0	893386752	58	7455
2026-01-14 00:02:24.39	209.01	39.76	-43.7	-49.3	8.8	2.76e-02	0	61	0	895483904	58	7103
2026-01-14 00:02:25.40	208.94	39.50	-43.8	-49.7	8.4	3.90e-02	0	61	0	897581056	58	7436
2026-01-14 00:02:26.41	208.88	39.24	-44.0	-50.3	7.8	4.89e-02	0	61	0	899678208	58	7963
2026-01-14 00:02:27.42	208.81	38.98	-43.7	-49.5	8.6	5.90e-02	0	61	0	900726784	58	7221
2026-01-14 00:02:28.43	208.74	38.73	-43.5	-48.8	9.3	2.11e-02	0	61	0	902823936	58	6677
2026-01-14 00:02:29.44	208.68	38.48	-43.4	-48.5	9.6	1.68e-02	0	61	0	904921088	58	6453
2026-01-14 00:02:30.45	208.61	38.22	-42.9	-47.4	10.7	4.48e-03	0	61	0	907018240	57	6034
2026-01-14 00:02:31.46	208.55	37.98	-42.7	-47.0	11.2	1.69e-03	0	61	0	909115392	57	5755
2026-01-14 00:02:32.46	208.49	37.73	-42.8	-47.1	11.1	1.90e-03	0	61	0	911212544	57	5834
2026-01-14 00:02:33.47	208.42	37.48	-43.1	-47.8	10.4	2.98e-03	0	61	0	912261120	57	6322
2026-01-14 00:02:34.48	208.36	37.24	-43.1	-47.6	10.5	5.17e-03	0	61	0	914358272	57	6188
2026-01-14 00:02:35.49	208.31	37.00	-43.3	-48.3	9.9	6.19e-03	0	61	0	916455424	57	6662
2026-01-14 00:02:36.50	208.25	36.76	-43.4	-48.4	9.8	1.05e-02	0	61	0	918552576	57	6753
2026-01-14 00:02:37.51	208.19	36.52	-43.3	-48.2	9.9	1.21e-02	0	61	0	920649728	57	6603
2026-01-14 00:02:38.52	208.13	36.28	-43.5	-48.7	9.5	1.57e-02	0	61	0	921698304	57	7013
2026-01-14 00:02:39.53	208.08	36.05	-43.7	-49.4	9.1	2.31e-02	0	61	0	923795456	57	7552
2026-01-14 00:02:40.54	208.02	35.81	-43.8	-49.6	8.5	3.15e-02	0	61	0	925892608	58	7306
2026-01-14 00:02:41.55	207.97	35.58	-43.7	-49.4	8.7	3.22e-02	0	61	0	927989760	58	7136
2026-01-14 00:02:42.56	207.91	35.35	-44.0	-50.2	7.9	4.67e-02	0	61	0	930086912	58	7850
2026-01-14 00:02:43.57	207.86	35.12	-43.8	-49.6	8.5	7.49e-02	0	61	0	931135488	58	7300
2026-01-14 00:02:44.58	207.81	34.89	-43.6	-49.1	9.0	3.08e-02	0	61	0	933232640	58	6928
2026-01-14 00:02:45.59	207.76	34.67	-43.5	-48.8	9.3	1.76e-02	0	61	0	935329792	58	6680
2026-01-14 00:02:46.60	207.71	34.44	-43.4	-48.4	9.6	1.28e-02	0	61	0	937426944	58	6400
2026-01-14 00:02:47.61	207.66	34.22	-43.0	-47.5	10.7	5.96e-03	0	61	0	939524096	58	5754
2026-01-14 00:02:48.62	207.61	34.00	-43.1	-47.7	10.4	3.95e-03	0	61	0	940572672	58	5906
2026-01-14 00:02:49.63	207.56	33.78	-43.1	-47.6	10.6	3.92e-03	0	61	0	942669824	58	5800
2026-01-14 00:02:50.64	207.51	33.56	-43.0	-47.5	10.6	4.71e-03	0	61	0	944766976	57	6079
2026-01-14 00:02:51.65	207.47	33.35	-43.1	-47.8	10.3	4.61e-03	0	61	0	946864128	57	6305
2026-01-14 00:02:52.66	207.42	33.13	-43.1	-47.6	10.5	3.81e-03	0	61	0	948961280	57	6178
2026-01-14 00:02:53.67	207.37	32.92	-43.1	-47.8	10.4	5.48e-03	0	61	0	950009856	57	6290
2026-01-14 00:02:54.68	207.33	32.71	-43.2	-47.9	10.2	6.09e-03	0	61	0	952107008	57	6417
2026-01-14 00:02:55.69	207.28	32.50	-43.3	-48.2	10.0	7.21e-03	0	61	0	954204160	57	6578
2026-01-14 00:02:56.70	207.24	32.29	-43.3	-48.3	9.8	8.09e-03	0	61	0	956301312	57	6679
2026-01-14 00:02:57.71	207.20	32.08	-43.5	-48.7	9.4	1.47e-02	0	61	0	958398464	57	7015
2026-01-14 00:02:58.72	207.16	31.87	-43.5	-49.0	9.1	1.66e-02	0	61	0	959447040	57	7228
2026-01-14 00:02:59.73	207.11	31.67	-43.5	-48.7	9.3	1.58e-02	0	61	0	961544192	57	6993
2026-01-14 00:03:00.74	207.07	31.46	-43.4	-48.5	9.6	1.41e-02	0	61	0	963641344	57	6824
2026-01-14 00:03:01.75	207.03	31.26	-43.2	-48.0	10.1	8.73e-03	0	61	0	965738496	57	6441
2026-01-14 00:03:02.76	206.99	31.06	-43.3	-48.2	9.9	8.58e-03	0	61	0	967835648	57	6626
2026-01-14 00:03:03.77	206.95	30.86	-43.2	-48.0	10.1	8.24e-03	0	61	0	968884224	57	6452
2026-01-14 00:03:04.78	206.91	30.66	-43.1	-47.9	10.3	6.69e-03	0	61	0	970981376	57	6348
2026-01-14 00:03:05.79	206.87	30.47	-43.2	-48.0	10.1	6.04e-03	0	61	0	973078528	57	6451
2026-01-14 00:03:06.80	206.83	30.27	-43.2	-48.0	10.1	5.87e-03	0	61	0	975175680	57	6465
2026-01-14 00:03:07.81	206.80	30.08	-43.1	-47.7	10.4	5.41e-03	0	61	0	977272832	57	6237
2026-01-14 00:03:08.82	206.76	29.89	-43.2	-48.2	10.1	5.48e-03	0	61	0	979369984	57	6572
2026-01-14 00:03:09.83	206.72	29.70	-43.3	-48.2	9.9	7.05e-03	0	61	0	980418560	57	6622
2026-01-14 00:03:10.84	206.69	29.50	-43.2	-48.1	10.0	9.06e-03	0	61	0	982515712	57	6534
2026-01-14 00:03:11.84	206.65	29.32	-43.2	-48.1	10.0	1.25e-02	0	61	0	984612864	57	6520
2026-01-14 00:03:12.85	206.61	29.13	-43.3	-48.2	9.8	1.07e-02	0	61	0	986710016	57	6635
2026-01-14 00:03:13.86	206.58	28.94	-43.3	-48.3	9.8	1.01e-02	0	61	0	988807168	57	6662
2026-01-14 00:03:14.87	206.55	28.76	-43.1	-47.9	10.2	8.40e-03	0	61	0	989855744	57	6399
2026-01-14 00:03:15.88	206.51	28.57	-42.9	-47.3	10.7	3.60e-03	0	61	0	991952896	57	5979
2026-01-14 00:03:16.89	206.48	28.39	-42.7	-46.9	11.5	1.97e-03	0	61	0	994050048	57	5663
2026-01-14 00:03:17.90	206.44	28.21	-42.6	-46.7	11.4	9.81e-04	0	61	0	996147200	57	5585
2026-01-14 00:03:18.91	206.41	28.03	-42.6	-46.7	11.5	9.50e-04	0	61	0	998244352	57	5542
2026-01-14 00:03:19.92	206.38	27.85	-42.6	-46.8	11.3	9.98e-04	0	61	0	999292928	56	5958
2026-01-14 00:03:20.93	206.35	27.67	-42.8	-47.1	11.0	1.59e-03	0	61	0	1001390080	56	6152
2026-01-14 00:03:21.94	206.31	27.50	-42.8	-47.1	11.0	2.11e-03	0	61	0	1003487232	56	6176
2026-01-14 00:03:22.95	206.28	27.32	-42.7	-47.0	11.0	2.22e-03	0	61	0	1005584384	56	6125
2026-01-14 00:03:23.96	206.25	27.14	-42.9	-47.3	10.8	2.05e-03	0	61	0	1007681536	56	6314
2026-01-14 00:03:24.97	206.22	26.97	-42.9	-47.3	10.8	1.40e-03	0	61	0	1008730112	56	6301
2026-01-14 00:03:25.98	206.19	26.80	-42.8	-47.1	11.0	2.04e-03	0	61	0	1010827264	56	6161
2026-01-14 00:03:26.99	206.16	26.63	-42.5	-46.5	11.6	7.45e-04	0	61	0	1012924416	56	5728
2026-01-14 00:03:28.00	206.13	26.46	-42.3	-46.2	12.0	3.71e-04	0	61	0	1015021568	56	5542
2026-01-14 00:03:29.01	206.10	26.29	-42.3	-46.1	12.0	4.04e-04	0	61	0	1017118720	56	5489
2026-01-14 00:03:30.01	206.07	26.12	-42.3	-46.0	12.1	2.43e-04	0	61	0	1018167296	56	5461
2026-01-14 00:03:31.02	206.05	25.95	-42.2	-45.9	12.2	2.88e-04	0	61	0	1020264448	56	5399
2026-01-14 00:03:32.03	206.02	25.79	-42.3	-46.2	11.9	3.36e-04	0	61	0	1022361600	56	5574
2026-01-14 00:03:33.04	205.99	25.62	-42.4	-46.3	11.8	3.40e-04	0	61	0	1024458752	56	5620
2026-01-14 00:03:34.05	205.96	25.46	-42.3	-46.2	11.9	4.36e-04	0	61	0	1026555904	56	5559
2026-01-14 00:03:35.06	205.93	25.29	-42.5	-46.4	11.7	4.76e-04	0	61	0	1027604480	56	5722
2026-01-14 00:03:36.07	205.91	25.13	-42.5	-46.6	11.5	8.52e-04	0	61	0	1029701632	56	5840
2026-01-14 00:03:37.08	205.88	24.97	-42.6	-46.8	11.3	1.13e-03	0	61	0	1031798784	56	5933
2026-01-14 00:03:38.09	205.85	24.81	-42.6	-46.7	11.3	1.22e-03	0	61	0	1033895936	56	5887
2026-01-14 00:03:39.10	205.83	24.65	-42.6	-46.7	11.4	1.21e-03	0	61	0	1035993088	56	5868
2026-01-14 00:03:40.11	205.80	24.49	-42.6	-46.9	11.2	1.33e-03	0	61	0	1037041664	56	6000
2026-01-14 00:03:41.12	205.78	24.34	-42.6	-46.8	11.2	1.18e-03	0	61	0	1039138816	56	5967
2026-01-14 00:03:42.13	205.75	24.18	-42.7	-46.9	11.2	9.65e-04	0	61	0	1041235968	56	6037
2026-01-14 00:03:43.14	205.73	24.02	-42.7	-47.0	11.0	1.49e-03	0	61	0	1043333120	56	6096
2026-01-14 00:03:44.15	205.70	23.87	-42.8	-47.3	10.8	1.49e-03	0	61	0	1045430272	56	6279
2026-01-14 00:03:45.16	205.68	23.72	-42.8	-47.2	10.9	2.07e-03	0	61	0	1047527424	56	6223
2026-01-14 00:03:46.17	205.65	23.56	-42.8	-47.2	10.7	3.19e-03	0	61	0	1048576000	56	6244
2026-01-14 00:03:47.18	205.63	23.41	-43.0	-47.8	10.2	4.49e-03	0	61	0	1050673152	56	6679
2026-01-14 00:03:48.18	205.61	23.26	-43.0	-47.8	10.2	5.76e-03	0	61	0	1052770304	56	6696
2026-01-14 00:03:49.19	205.58	23.11	-43.0	-47.8	10.2	5.44e-03	0	61	0	1054867456	56	6654
2026-01-14 00:03:50.20	205.56	22.96	-43.0	-47.8	10.2	6.26e-03	0	61	0	1055916032	56	6682
2026-01-14 00:03:51.21	205.54	22.81	-43.0	-47.7	10.3	6.69e-03	0	61	0	1058013184	56	6613
2026-01-14 00:03:52.22	205.52	22.67	-43.1	-48.1	9.9	6.59e-03	0	61	0	1060110336	56	6951
2026-01-14 00:03:53.23	205.49	22.52	-43.0	-47.9	10.1	7.09e-03	0	61	0	1062207488	56	6751
2026-01-14 00:03:54.24	205.47	22.37	-43.2	-48.2	9.7	8.41e-03	0	61	0	1064304640	56	7032
2026-01-14 00:03:55.25	205.45	22.23	-43.1	-48.0	10.0	1.01e-02	0	61	0	1065353216	56	6813
2026-01-14 00:03:56.26	205.43	22.08	-43.0	-47.7	10.3	5.64e-03	0	61	0	1067450368	56	6593
2026-01-14 00:03:57.27	205.41	21.94	-43.0	-47.7	10.2	5.39e-03	0	61	0	1069547520	56	6644
2026-01-14 00:03:58.28	205.38	21.80	-42.9	-47.5	10.4	5.77e-03	0	61	0	1071644672	56	6451
2026-01-14 00:03:59.29	205.36	21.65	-42.8	-47.4	10.5	3.73e-03	0	61	0	1073741824	56	6410
2026-01-14 00:04:00.30	205.34	21.51	-43.0	-47.8	10.2	4.33e-03	0	61	0	1075838976	56	6651
2026-01-14 00:04:01.30	205.32	21.37	-43.0	-47.7	10.2	5.02e-03	0	61	0	1076887552	56	6615
2026-01-14 00:04:02.31	205.30	21.24	-42.9	-47.5	10.4	4.70e-03	0	61	0	1078984704	56	6473
2026-01-14 00:04:03.32	205.28	21.10	-43.0	-47.8	10.3	5.75e-03	0	61	0	1081081856	56	6651
2026-01-14 00:04:04.33	205.26	20.96	-43.0	-47.7	10.2	8.13e-03	0	61	0	1083179008	56	6632
2026-01-14 00:04:05.34	205.24	20.82	-43.0	-47.9	10.0	9.18e-03	0	61	0	1085276160	56	6745
2026-01-14 00:04:06.35	205.22	20.68	-43.1	-48.1	9.9	7.50e-03	0	61	0	1086324736	56	6886
2026-01-14 00:04:07.36	205.20	20.55	-43.1	-48.1	9.8	9.73e-03	0	61	0	1088421888	56	6946
2026-01-14 00:04:08.37	205.18	20.41	-43.0	-47.9	10.1	8.60e-03	0	61	0	1090519040	56	6733
2026-01-14 00:04:09.38	205.17	20.28	-43.1	-48.1	9.8	9.76e-03	0	61	0	1092616192	56	6903
2026-01-14 00:04:10.39	205.15	20.15	-43.1	-48.2	9.7	1.06e-02	0	61	0	1094713344	56	6973
2026-01-14 00:04:11.40	205.13	20.01	-43.0	-47.9	10.0	5.36e-03	0	61	0	1095761920	56	6751
2026-01-14 00:04:12.41	205.11	19.88	-42.9	-47.6	10.3	6.06e-03	0	61	0	1097859072	56	6534
2026-01-14 00:04:13.42	205.09	19.75	-42.7	-47.2	10.7	4.09e-03	0	61	0	1099956224	56	6258
2026-01-14 00:04:14.43	205.07	19.62	-42.7	-47.1	10.8	2.44e-03	0	61	0	1102053376	56	6186
2026-01-14 00:04:15.44	205.06	19.49	-42.7	-47.1	10.9	2.80e-03	0	61	0	1104150528	56	6143
2026-01-14 00:04:16.45	205.04	19.36	-42.6	-47.0	11.0	1.91e-03	0	61	0	1105199104	56	6096
2026-01-14 00:04:17.46	205.02	19.23	-42.6	-46.9	11.1	2.10e-03	0	61	0	1107296256	56	6009
2026-01-14 00:04:18.47	205.00	19.10	-42.6	-46.9	11.0	2.13e-03	0	61	0	1109393408	56	6040
2026-01-14 00:04:19.48	204.99	18.97	-42.6	-46.9	11.1	1.70e-03	0	61	0	1111490560	56	5994
2026-01-14 00:04:20.49	204.97	18.85	-42.5	-46.7	11.3	1.43e-03	0	61	0	1113587712	56	5856
2026-01-14 00:04:21.50	204.95	18.72	-42.6	-46.9	11.0	1.31e-03	0	61	0	1114636288	56	6029
2026-01-14 00:04:22.51	204.93	18.60	-42.6	-47.0	10.9	2.24e-03	0	61	0	1116733440	56	6103
2026-01-14 00:04:23.52	204.92	18.47	-42.7	-47.3	10.7	2.87e-03	0	61	0	1118830592	56	6279
2026-01-14 00:04:24.53	204.90	18.35	-42.8	-47.4	10.4	3.23e-03	0	61	0	1120927744	56	6420
2026-01-14 00:04:25.54	204.89	18.22	-42.9	-47.6	10.3	4.57e-03	0	61	0	1123024896	56	6538
2026-01-14 00:04:26.54	204.87	18.10	-42.9	-47.7	10.1	6.54e-03	0	61	0	1124073472	56	6640
2026-01-14 00:04:27.55	204.85	17.98	-43.0	-47.8	10.0	7.30e-03	0	61	0	1126170624	56	6692
2026-01-14 00:04:28.56	204.84	17.86	-43.1	-48.2	9.6	1.18e-02	0	61	0	1128267776	56	7021
2026-01-14 00:04:29.57	204.82	17.73	-43.3	-48.7	9.1	1.76e-02	0	61	0	1130364928	57	7004
2026-01-14 00:04:30.58	204.81	17.61	-43.1	-48.3	9.5	1.80e-02	0	61	0	1132462080	57	6664
2026-01-14 00:04:31.59	204.79	17.49	-43.3	-48.8	9.0	1.63e-02	0	61	0	1133510656	57	7066
2026-01-14 00:04:32.60	204.78	17.37	-43.3	-48.9	8.8	3.27e-02	0	61	0	1135607808	57	7179
2026-01-14 00:04:33.61	204.76	17.26	-43.2	-48.6	9.1	2.45e-02	0	61	0	1137704960	57	6955
2026-01-14 00:04:34.62	204.75	17.14	-43.4	-49.0	8.8	2.50e-02	0	61	0	1139802112	57	7256
2026-01-14 00:04:35.63	204.73	17.02	-43.3	-48.9	8.8	3.55e-02	0	61	0	1141899264	57	7185
2026-01-14 00:04:36.64	204.72	16.90	-43.3	-48.8	9.0	3.05e-02	0	61	0	1143996416	57	7075
2026-01-14 00:04:37.65	204.70	16.79	-43.4	-49.1	8.6	3.27e-02	0	61	0	1145044992	57	7311
2026-01-14 00:04:38.66	204.69	16.67	-43.3	-48.9	8.8	3.26e-02	0	61	0	1147142144	57	7189
2026-01-14 00:04:39.67	204.67	16.55	-43.3	-48.9	8.9	3.34e-02	0	61	0	1149239296	57	7122
2026-01-14 00:04:40.68	204.66	16.44	-43.3	-49.0	8.8	3.57e-02	0	61	0	1151336448	57	7209
2026-01-14 00:04:41.69	204.65	16.32	-43.3	-48.9	8.8	3.15e-02	0	61	0	1153433600	57	7194
2026-01-14 00:04:42.70	204.63	16.21	-43.2	-48.7	9.0	2.92e-02	0	61	0	1154482176	57	7036
2026-01-14 00:04:43.71	204.62	16.10	-43.3	-49.0	8.7	2.58e-02	0	61	0	1156579328	57	7254
2026-01-14 00:04:44.72	204.60	15.98	-43.3	-48.9	8.8	2.94e-02	0	61	0	1158676480	57	7151
2026-01-14 00:04:45.73	204.59	15.87	-43.3	-49.0	8.7	3.31e-02	0	61	0	1160773632	57	7211
2026-01-14 00:04:46.74	204.58	15.76	-43.4	-49.1	8.5	3.77e-02	0	61	0	1162870784	57	7366
2026-01-14 00:04:47.75	204.56	15.65	-43.3	-49.1	8.6	4.34e-02	0	61	0	1163919360	57	7302
2026-01-14 00:04:48.76	204.55	15.54	-43.4	-49.1	8.5	3.94e-02	0	61	0	1166016512	57	7364
2026-01-14 00:04:49.77	204.54	15.43	-43.3	-49.1	8.6	4.44e-02	0	61	0	1168113664	57	7357
2026-01-14 00:04:50.78	204.53	15.32	-43.3	-49.0	8.6	4.61e-02	0	61	0	1170210816	57	7281
2026-01-14 00:04:51.79	204.51	15.21	-43.4	-49.4	8.3	4.50e-02	0	61	0	1172307968	57	7599
2026-01-14 00:04:52.80	204.50	15.10	-43.4	-49.4	8.3	5.52e-02	0	61	0	1173356544	57	7623
