passes_logs/2026/01/13/R2.0S_Moscow/R2.0S_Moscow__20260113_160954_FENGYUN_3E_rec.log

#Pass ID: 20260113_160954_FENGYUN 3E
#Satellite: FENGYUN 3E
#Configuration: FENGYUN 3E
#almurnet v.1.7.20251203
#Start time: 2026-01-13 16:09:55

#Version: 2.2.20231116
#Station: R2.0S_Moscow
#Location: 37.707566 lon 55.798166 lat
#TLE: 1 49008U 21062A   26012.89166517 -.00000229  00000+0 -86979-4 0  9993
#TLE: 2 49008  98.7492  18.0449 0001954 141.1957 218.9360 14.19884302234542

#Time	Az	El	Level	Level2	SNR	BER	BlckErr	Temp	State	Recorded	gain1	gain2
2026-01-13 16:09:55.00	221.73	2.03	-44.5	-55.4	3.8	8.45e-01	0	51	0	0	59	12770
2026-01-13 16:09:56.00	221.82	2.08	-44.5	-55.4	3.8	8.46e-01	0	51	104	0	59	12763
2026-01-13 16:09:57.02	221.91	2.13	-44.5	-55.4	3.8	8.46e-01	0	51	104	0	59	12782
2026-01-13 16:09:58.03	222.01	2.18	-44.5	-55.4	3.8	8.45e-01	0	51	104	0	59	12800
2026-01-13 16:09:59.04	222.10	2.23	-44.5	-55.5	3.8	8.45e-01	0	51	104	0	59	12819
2026-01-13 16:10:00.05	222.19	2.28	-44.5	-55.4	3.8	8.46e-01	0	51	104	0	59	12766
2026-01-13 16:10:01.06	222.28	2.33	-44.5	-55.4	3.8	8.45e-01	0	51	104	0	59	12754
2026-01-13 16:10:02.07	222.37	2.38	-44.5	-55.4	3.8	8.47e-01	0	51	104	0	59	12797
2026-01-13 16:10:03.08	222.47	2.43	-44.5	-55.4	3.8	8.46e-01	0	52	104	0	59	12760
2026-01-13 16:10:04.09	222.56	2.48	-44.5	-55.4	3.8	8.47e-01	0	52	104	0	59	12799
2026-01-13 16:10:05.10	222.65	2.52	-44.5	-55.4	3.8	8.45e-01	0	52	104	0	59	12743
2026-01-13 16:10:06.11	222.75	2.57	-44.5	-55.4	3.8	8.46e-01	0	52	104	0	59	12765
2026-01-13 16:10:07.12	222.84	2.62	-44.5	-55.4	3.8	8.46e-01	0	52	104	0	59	12792
2026-01-13 16:10:08.13	222.94	2.67	-44.5	-55.4	3.8	8.47e-01	0	52	104	0	59	12791
2026-01-13 16:10:09.15	223.03	2.72	-44.5	-55.4	3.8	8.46e-01	0	52	104	0	59	12751
2026-01-13 16:10:10.16	223.13	2.77	-44.5	-55.4	3.8	8.47e-01	0	52	104	0	59	12786
2026-01-13 16:10:11.17	223.22	2.82	-44.5	-55.4	3.8	8.45e-01	0	52	104	0	59	12744
2026-01-13 16:10:12.18	223.32	2.87	-44.5	-55.5	3.8	8.47e-01	0	52	104	0	59	12825
2026-01-13 16:10:13.19	223.41	2.92	-44.5	-55.5	3.8	8.46e-01	0	52	104	0	59	12829
2026-01-13 16:10:14.20	223.51	2.97	-44.5	-55.4	3.8	8.47e-01	0	52	104	0	59	12739
2026-01-13 16:10:15.21	223.61	3.02	-44.5	-55.5	3.8	8.48e-01	0	52	104	0	59	12816
2026-01-13 16:10:16.22	223.70	3.07	-44.5	-55.4	3.8	8.46e-01	0	52	104	0	59	12772
2026-01-13 16:10:17.23	223.80	3.12	-44.5	-55.4	3.8	8.46e-01	0	52	104	0	59	12724
2026-01-13 16:10:18.24	223.90	3.17	-44.5	-55.4	3.8	8.47e-01	0	53	104	0	59	12794
2026-01-13 16:10:19.25	224.00	3.22	-44.5	-55.4	3.8	8.46e-01	0	53	104	0	59	12776
2026-01-13 16:10:20.26	224.09	3.27	-44.5	-55.4	3.8	8.46e-01	0	53	104	0	59	12745
2026-01-13 16:10:21.27	224.19	3.32	-44.4	-55.4	3.8	8.47e-01	0	53	104	0	59	12731
2026-01-13 16:10:22.28	224.29	3.37	-44.5	-55.4	3.8	8.46e-01	0	53	104	0	59	12759
2026-01-13 16:10:23.29	224.39	3.42	-44.5	-55.4	3.8	8.46e-01	0	53	104	0	59	12769
2026-01-13 16:10:24.30	224.49	3.47	-44.5	-55.4	3.8	8.46e-01	0	53	104	0	59	12790
2026-01-13 16:10:25.30	224.59	3.52	-44.5	-55.4	3.8	8.45e-01	0	53	104	0	59	12775
2026-01-13 16:10:26.31	224.69	3.57	-44.5	-55.4	3.8	8.46e-01	0	53	104	0	59	12731
2026-01-13 16:10:27.32	224.79	3.62	-44.5	-55.4	3.8	8.46e-01	0	53	104	0	59	12722
2026-01-13 16:10:28.33	224.89	3.67	-44.5	-55.4	3.8	8.46e-01	0	53	104	0	59	12751
2026-01-13 16:10:29.34	224.99	3.72	-44.5	-55.4	3.8	8.46e-01	0	53	104	0	59	12733
2026-01-13 16:10:30.36	225.09	3.77	-44.5	-55.4	3.8	8.46e-01	0	53	104	0	59	12736
2026-01-13 16:10:31.37	225.19	3.82	-44.5	-55.5	3.8	8.46e-01	0	53	104	0	59	12813
2026-01-13 16:10:32.38	225.30	3.87	-44.5	-55.4	3.8	8.45e-01	0	53	104	0	59	12756
2026-01-13 16:10:33.39	225.40	3.92	-44.5	-55.4	3.8	8.46e-01	0	54	104	0	59	12686
2026-01-13 16:10:34.40	225.50	3.97	-44.5	-55.4	3.8	8.47e-01	0	54	104	0	59	12748
2026-01-13 16:10:35.41	225.60	4.02	-44.5	-55.4	3.8	8.47e-01	0	54	104	0	59	12722
2026-01-13 16:10:36.42	225.71	4.08	-44.5	-55.4	3.8	8.46e-01	0	54	104	0	59	12782
2026-01-13 16:10:37.43	225.81	4.13	-44.5	-55.4	3.8	8.47e-01	0	54	104	0	59	12744
2026-01-13 16:10:38.44	225.92	4.18	-44.5	-55.4	3.8	8.46e-01	0	54	104	0	59	12712
2026-01-13 16:10:39.45	226.02	4.23	-44.5	-55.4	3.8	8.46e-01	0	54	104	0	59	12750
2026-01-13 16:10:40.46	226.12	4.28	-44.5	-55.4	3.8	8.46e-01	0	54	104	0	59	12729
2026-01-13 16:10:41.47	226.23	4.33	-44.5	-55.4	3.8	8.47e-01	0	54	104	0	59	12754
2026-01-13 16:10:42.48	226.34	4.38	-44.5	-55.4	3.8	8.45e-01	0	54	104	0	59	12728
2026-01-13 16:10:43.49	226.44	4.43	-44.5	-55.4	3.8	8.46e-01	0	54	104	0	59	12723
2026-01-13 16:10:44.50	226.55	4.48	-44.5	-55.4	3.8	8.46e-01	0	55	104	0	59	12775
2026-01-13 16:10:45.51	226.65	4.53	-44.5	-55.4	3.8	8.46e-01	0	54	104	0	59	12709
2026-01-13 16:10:46.52	226.76	4.58	-44.5	-55.4	3.8	8.46e-01	0	54	104	0	59	12737
2026-01-13 16:10:47.53	226.87	4.63	-44.5	-55.4	3.8	8.46e-01	0	55	104	0	59	12800
2026-01-13 16:10:48.54	226.98	4.68	-44.5	-55.4	3.8	8.46e-01	0	55	104	0	59	12744
2026-01-13 16:10:49.55	227.08	4.73	-44.5	-55.4	3.8	8.47e-01	0	55	104	0	59	12730
2026-01-13 16:10:50.56	227.19	4.78	-44.5	-55.4	3.8	8.46e-01	0	55	104	0	59	12755
2026-01-13 16:10:51.57	227.30	4.83	-44.5	-55.4	3.8	8.46e-01	0	55	104	0	59	12765
2026-01-13 16:10:52.58	227.41	4.88	-44.5	-55.4	3.8	8.46e-01	0	55	104	0	59	12742
2026-01-13 16:10:53.59	227.52	4.93	-44.5	-55.4	3.8	8.46e-01	0	55	104	0	59	12690
2026-01-13 16:10:54.60	227.63	4.98	-44.5	-55.4	3.8	8.46e-01	0	55	104	0	59	12725
2026-01-13 16:10:55.61	227.74	5.03	-44.5	-55.4	3.8	8.46e-01	0	55	104	0	59	12773
2026-01-13 16:10:56.62	227.85	5.08	-44.5	-55.4	3.8	8.45e-01	0	55	104	0	59	12700
2026-01-13 16:10:57.63	227.96	5.14	-44.5	-55.4	3.8	8.47e-01	0	55	104	0	59	12740
2026-01-13 16:10:58.63	228.07	5.19	-44.5	-55.4	3.8	8.47e-01	0	55	104	0	59	12704
2026-01-13 16:10:59.65	228.18	5.24	-44.5	-55.4	3.8	8.47e-01	0	55	104	0	59	12692
2026-01-13 16:11:00.65	228.29	5.29	-44.5	-55.4	3.8	8.46e-01	0	55	104	0	59	12699
2026-01-13 16:11:01.66	228.41	5.34	-44.5	-55.4	3.8	8.46e-01	0	55	104	0	59	12712
2026-01-13 16:11:02.67	228.52	5.39	-44.5	-55.4	3.8	8.46e-01	0	55	104	0	59	12672
2026-01-13 16:11:03.69	228.63	5.44	-44.5	-55.4	3.8	8.46e-01	0	55	104	0	59	12690
2026-01-13 16:11:04.70	228.75	5.49	-44.5	-55.4	3.8	8.46e-01	0	55	104	0	59	12745
2026-01-13 16:11:05.71	228.86	5.54	-44.5	-55.4	3.8	8.46e-01	0	55	104	0	59	12766
2026-01-13 16:11:06.72	228.98	5.59	-44.5	-55.4	3.8	8.47e-01	0	55	104	0	59	12716
2026-01-13 16:11:07.73	229.09	5.64	-44.5	-55.4	3.8	8.46e-01	0	56	104	0	59	12697
2026-01-13 16:11:08.74	229.21	5.69	-44.5	-55.4	3.8	8.46e-01	0	55	104	0	59	12766
2026-01-13 16:11:09.75	229.32	5.74	-44.5	-55.4	3.8	8.47e-01	0	56	104	0	59	12684
2026-01-13 16:11:10.76	229.44	5.79	-44.5	-55.3	3.8	8.47e-01	0	56	104	0	59	12624
2026-01-13 16:11:11.77	229.55	5.84	-44.5	-55.3	3.8	8.46e-01	0	56	104	0	59	12651
2026-01-13 16:11:12.78	229.67	5.89	-44.5	-55.3	3.8	8.46e-01	0	56	104	0	59	12559
2026-01-13 16:11:13.79	229.79	5.95	-44.5	-55.3	3.8	8.46e-01	0	56	104	0	59	12564
2026-01-13 16:11:14.80	229.90	6.00	-44.5	-55.3	3.8	8.46e-01	0	56	104	0	59	12556
2026-01-13 16:11:15.81	230.02	6.05	-44.5	-55.3	3.8	8.46e-01	0	56	104	0	59	12528
2026-01-13 16:11:16.82	230.14	6.10	-44.4	-55.2	3.8	8.46e-01	0	56	104	0	59	12386
2026-01-13 16:11:17.83	230.26	6.15	-44.4	-55.2	3.8	8.46e-01	0	56	104	0	59	12401
2026-01-13 16:11:18.84	230.38	6.20	-44.4	-55.1	3.8	8.47e-01	0	56	104	0	59	12251
2026-01-13 16:11:19.85	230.50	6.25	-44.4	-55.0	3.8	8.45e-01	0	56	104	0	59	12211
2026-01-13 16:11:20.87	230.62	6.30	-44.4	-55.0	3.8	8.47e-01	0	56	104	0	59	12219
2026-01-13 16:11:21.88	230.74	6.35	-44.4	-55.0	3.8	8.46e-01	0	56	104	0	59	12161
2026-01-13 16:11:22.89	230.86	6.40	-44.4	-55.0	3.8	8.44e-01	0	56	104	0	59	12157
2026-01-13 16:11:23.90	230.98	6.45	-44.4	-54.8	3.8	8.47e-01	0	56	104	0	59	11899
2026-01-13 16:11:24.91	231.10	6.50	-44.4	-54.6	3.8	8.47e-01	0	56	104	0	59	11598
2026-01-13 16:11:25.92	231.22	6.55	-44.3	-54.3	3.8	8.46e-01	0	56	104	0	59	11230
2026-01-13 16:11:26.93	231.35	6.60	-44.2	-53.7	3.8	8.45e-01	0	56	104	0	59	10430
2026-01-13 16:11:27.94	231.47	6.65	-44.1	-52.9	4.0	8.44e-01	0	56	104	0	59	9523
2026-01-13 16:11:28.95	231.59	6.70	-44.0	-52.1	4.1	8.39e-01	0	56	0	0	59	8710
2026-01-13 16:11:29.96	231.71	6.76	-43.9	-51.3	4.3	8.32e-01	0	56	0	0	58	8441
2026-01-13 16:11:30.97	231.84	6.81	-43.7	-50.6	4.7	8.17e-01	0	56	0	0	58	7720
2026-01-13 16:11:31.98	231.96	6.86	-43.6	-49.9	5.0	7.87e-01	0	57	0	0	58	7186
2026-01-13 16:11:33.00	232.09	6.91	-43.3	-49.1	5.4	7.34e-01	0	56	0	0	57	6959
2026-01-13 16:11:34.01	232.21	6.96	-43.2	-48.7	5.8	6.17e-01	0	56	0	3145728	57	6599
2026-01-13 16:11:35.02	232.34	7.01	-43.1	-48.3	6.0	3.57e-01	0	56	0	9437184	57	6312
2026-01-13 16:11:36.03	232.47	7.06	-42.8	-47.7	6.5	2.46e-01	0	56	0	16777216	56	6261
2026-01-13 16:11:37.04	232.59	7.11	-42.7	-47.3	6.9	1.94e-01	0	57	0	24117248	56	5957
2026-01-13 16:11:38.05	232.72	7.16	-42.6	-47.1	7.1	1.49e-01	0	57	0	31457280	56	5809
2026-01-13 16:11:39.06	232.85	7.21	-42.6	-47.1	7.1	1.51e-01	0	57	0	38797312	56	5806
2026-01-13 16:11:40.07	232.97	7.26	-42.6	-47.2	7.0	1.66e-01	0	57	0	46137344	56	5870
2026-01-13 16:11:41.08	233.10	7.31	-42.6	-47.2	6.9	1.67e-01	0	56	0	53477376	56	5912
2026-01-13 16:11:42.09	233.23	7.36	-42.8	-47.6	6.5	2.21e-01	0	57	0	60817408	56	6201
2026-01-13 16:11:43.10	233.36	7.41	-43.0	-48.1	6.1	2.94e-01	0	57	0	68157440	56	6555
2026-01-13 16:11:44.11	233.49	7.46	-43.0	-48.3	6.0	3.33e-01	0	57	0	75497472	56	6710
2026-01-13 16:11:45.12	233.62	7.51	-43.0	-48.1	6.2	3.23e-01	0	57	0	82837504	56	6525
2026-01-13 16:11:46.13	233.75	7.56	-42.8	-47.7	6.5	2.47e-01	0	57	0	90177536	56	6217
2026-01-13 16:11:47.14	233.88	7.61	-42.6	-47.1	7.1	1.84e-01	0	57	0	97517568	56	5796
2026-01-13 16:11:48.16	234.01	7.66	-42.0	-45.9	8.0	9.32e-02	0	57	0	104857600	55	5373
2026-01-13 16:11:49.17	234.14	7.71	-41.5	-45.0	9.0	2.87e-02	0	57	0	112197632	54	5121
2026-01-13 16:11:50.18	234.28	7.76	-41.0	-44.0	9.9	1.16e-02	0	57	0	119537664	53	4870
2026-01-13 16:11:51.19	234.41	7.81	-40.7	-43.5	10.5	5.08e-03	0	57	0	125829120	52	4852
2026-01-13 16:11:52.20	234.54	7.86	-40.5	-43.3	10.8	2.84e-03	0	57	0	133169152	52	4723
2026-01-13 16:11:53.21	234.67	7.91	-40.5	-43.1	11.0	2.10e-03	0	57	0	141557760	51	4917
2026-01-13 16:11:54.22	234.81	7.96	-40.5	-43.1	11.0	1.80e-03	0	57	0	147849216	51	4911
2026-01-13 16:11:55.23	234.94	8.01	-40.1	-42.6	11.5	2.85e-03	0	57	0	155189248	51	4618
2026-01-13 16:11:56.24	235.08	8.06	-44.1	-51.3	4.5	8.42e-01	0	57	0	157286400	58	8373
2026-01-13 16:11:57.25	235.21	8.11	-40.7	-43.5	10.5	9.17e-03	0	57	0	157286400	52	4868
2026-01-13 16:11:58.26	235.35	8.16	-43.2	-48.8	5.6	7.09e-01	0	57	0	163577856	56	7075
2026-01-13 16:11:59.27	235.48	8.21	-43.9	-51.6	4.2	8.35e-01	0	57	0	164626432	57	9278
2026-01-13 16:12:00.28	235.62	8.26	-40.7	-43.4	10.8	1.81e-03	0	57	0	170917888	51	5077
2026-01-13 16:12:01.29	235.76	8.31	-39.4	-41.6	12.7	1.28e-04	0	57	0	178257920	49	4617
2026-01-13 16:12:02.30	235.89	8.36	-39.5	-41.7	12.6	8.46e-05	0	57	0	185597952	49	4672
2026-01-13 16:12:03.31	236.03	8.41	-39.5	-41.6	12.7	1.09e-04	0	57	0	192937984	49	4638
2026-01-13 16:12:04.32	236.17	8.46	-39.4	-41.5	12.8	7.55e-05	0	57	0	200278016	49	4565
2026-01-13 16:12:05.33	236.31	8.51	-39.2	-41.3	13.0	2.97e-05	0	57	0	207618048	49	4454
2026-01-13 16:12:06.34	236.45	8.56	-39.5	-41.6	12.7	7.55e-05	0	57	0	214958080	49	4624
2026-01-13 16:12:07.35	236.59	8.61	-39.5	-41.7	12.6	8.46e-05	0	58	0	222298112	49	4677
2026-01-13 16:12:08.36	236.73	8.66	-39.5	-41.7	12.6	1.52e-04	0	57	0	229638144	49	4674
2026-01-13 16:12:09.37	236.87	8.71	-39.4	-41.5	12.8	5.14e-05	0	58	0	236978176	49	4576
2026-01-13 16:12:10.38	237.01	8.76	-39.6	-41.8	12.6	8.92e-05	0	57	0	244318208	49	4712
2026-01-13 16:12:11.39	237.15	8.81	-39.5	-41.7	12.7	1.04e-04	0	58	0	251658240	49	4657
2026-01-13 16:12:12.40	237.29	8.86	-39.4	-41.5	12.8	9.72e-05	0	57	0	258998272	49	4586
2026-01-13 16:12:13.41	237.44	8.91	-39.4	-41.5	12.9	7.20e-05	0	57	0	266338304	49	4563
2026-01-13 16:12:14.42	237.58	8.95	-39.4	-41.5	12.9	6.17e-05	0	58	0	273678336	49	4571
2026-01-13 16:12:15.43	237.72	9.00	-39.4	-41.5	12.9	6.17e-05	0	58	0	281018368	49	4581
2026-01-13 16:12:16.44	237.87	9.05	-39.3	-41.4	13.0	4.80e-05	0	58	0	287309824	49	4508
2026-01-13 16:12:17.45	238.01	9.10	-39.2	-41.3	13.1	3.89e-05	0	58	0	294649856	49	4446
2026-01-13 16:12:18.46	238.15	9.15	-39.2	-41.2	13.2	3.54e-05	0	58	0	301989888	49	4406
2026-01-13 16:12:19.47	238.30	9.20	-39.4	-41.4	12.9	5.14e-05	0	58	0	309329920	49	4529
2026-01-13 16:12:20.48	238.45	9.25	-39.4	-41.5	12.9	7.89e-05	0	58	0	316669952	49	4573
2026-01-13 16:12:21.49	238.59	9.30	-39.2	-41.2	13.2	3.20e-05	0	58	0	324009984	49	4416
2026-01-13 16:12:22.50	238.74	9.35	-39.3	-41.3	13.1	2.97e-05	0	58	0	331350016	49	4473
2026-01-13 16:12:23.51	238.89	9.39	-39.2	-41.2	13.2	2.28e-05	0	58	0	338690048	49	4407
2026-01-13 16:12:24.52	239.03	9.44	-39.1	-41.1	13.3	3.31e-05	0	58	0	346030080	49	4344
2026-01-13 16:12:25.53	239.18	9.49	-39.1	-41.1	13.3	2.74e-05	0	58	0	353370112	49	4353
2026-01-13 16:12:26.54	239.33	9.54	-39.1	-41.1	13.3	1.60e-05	0	58	0	360710144	49	4347
2026-01-13 16:12:27.55	239.48	9.59	-39.2	-41.2	13.2	2.63e-05	0	58	0	368050176	49	4420
2026-01-13 16:12:28.56	239.63	9.64	-39.2	-41.2	13.2	2.63e-05	0	58	0	375390208	49	4403
2026-01-13 16:12:29.57	239.78	9.68	-39.1	-41.1	13.3	2.05e-05	0	58	0	382730240	49	4357
2026-01-13 16:12:30.58	239.93	9.73	-39.2	-41.1	13.3	2.40e-05	0	58	0	390070272	49	4390
2026-01-13 16:12:31.59	240.08	9.78	-39.1	-41.0	13.4	2.17e-05	0	58	0	397410304	49	4330
2026-01-13 16:12:32.60	240.23	9.83	-39.0	-40.9	13.6	1.48e-05	0	58	0	404750336	48	4510
2026-01-13 16:12:33.61	240.38	9.87	-39.0	-41.0	13.5	8.00e-06	0	58	0	412090368	48	4556
2026-01-13 16:12:34.62	240.54	9.92	-39.1	-41.1	13.4	8.00e-06	0	58	0	419430400	48	4629
2026-01-13 16:12:35.63	240.69	9.97	-39.1	-41.1	13.4	9.10e-06	0	58	0	426770432	48	4618
2026-01-13 16:12:36.65	240.84	10.02	-39.0	-40.9	13.5	6.80e-06	0	58	0	433061888	48	4542
2026-01-13 16:12:37.65	241.00	10.06	-39.2	-41.2	13.3	1.60e-05	0	58	0	441450496	48	4663
2026-01-13 16:12:38.67	241.15	10.11	-39.2	-41.2	13.2	2.97e-05	0	58	0	448790528	48	4701
2026-01-13 16:12:39.68	241.31	10.16	-39.0	-41.0	13.5	1.37e-05	0	58	0	455081984	48	4557
2026-01-13 16:12:40.68	241.46	10.21	-39.1	-41.1	13.4	1.71e-05	0	58	0	462422016	48	4622
2026-01-13 16:12:41.69	241.62	10.25	-39.2	-41.1	13.3	1.48e-05	0	58	0	469762048	48	4650
2026-01-13 16:12:42.71	241.77	10.30	-39.2	-41.2	13.3	1.71e-05	0	58	0	477102080	48	4656
2026-01-13 16:12:43.72	241.93	10.35	-39.1	-41.1	13.4	8.00e-06	0	58	0	484442112	48	4620
2026-01-13 16:12:44.73	242.09	10.39	-39.1	-41.0	13.5	8.00e-06	0	59	0	491782144	48	4593
2026-01-13 16:12:45.74	242.24	10.44	-39.1	-41.0	13.5	1.02e-05	0	58	0	499122176	48	4598
2026-01-13 16:12:46.75	242.40	10.49	-39.1	-41.0	13.5	8.00e-06	0	58	0	506462208	48	4582
2026-01-13 16:12:47.76	242.56	10.53	-39.1	-41.0	13.5	2.17e-05	0	58	0	513802240	48	4583
2026-01-13 16:12:48.77	242.72	10.58	-38.9	-40.8	13.7	8.00e-06	0	58	0	521142272	48	4477
2026-01-13 16:12:49.78	242.88	10.63	-38.9	-40.8	13.7	4.50e-06	0	58	0	528482304	48	4459
2026-01-13 16:12:50.79	243.04	10.67	-39.0	-40.9	13.6	9.10e-06	0	58	0	535822336	48	4530
2026-01-13 16:12:51.79	243.20	10.72	-39.0	-40.9	13.6	1.37e-05	0	58	0	543162368	48	4522
2026-01-13 16:12:52.80	243.36	10.76	-39.1	-41.0	13.5	8.00e-06	0	58	0	550502400	48	4594
2026-01-13 16:12:53.81	243.52	10.81	-39.0	-40.9	13.6	5.70e-06	0	59	0	557842432	48	4531
2026-01-13 16:12:54.82	243.68	10.86	-38.9	-40.8	13.8	3.40e-06	0	58	0	565182464	48	4462
2026-01-13 16:12:55.83	243.85	10.90	-38.9	-40.8	13.8	5.70e-06	0	58	0	572522496	48	4443
2026-01-13 16:12:56.84	244.01	10.95	-38.8	-40.7	13.9	9.10e-06	0	58	0	579862528	48	4396
2026-01-13 16:12:57.86	244.17	10.99	-38.8	-40.7	13.9	4.50e-06	0	58	0	587202560	48	4403
2026-01-13 16:12:58.87	244.34	11.04	-38.8	-40.6	13.9	2.20e-06	0	58	0	594542592	48	4365
2026-01-13 16:12:59.87	244.50	11.08	-38.7	-40.5	14.0	0.00e+00	0	58	0	601882624	48	4326
2026-01-13 16:13:00.88	244.67	11.13	-38.6	-40.4	14.1	3.40e-06	0	59	0	608174080	48	4287
2026-01-13 16:13:01.89	244.83	11.17	-38.7	-40.5	14.1	2.20e-06	0	59	0	615514112	48	4300
2026-01-13 16:13:02.90	245.00	11.22	-38.7	-40.5	14.1	2.20e-06	0	59	0	622854144	48	4295
2026-01-13 16:13:03.91	245.16	11.26	-38.6	-40.4	14.2	3.40e-06	0	58	0	630194176	48	4263
2026-01-13 16:13:04.92	245.33	11.30	-38.8	-40.6	14.0	1.10e-06	0	59	0	637534208	48	4360
2026-01-13 16:13:05.93	245.50	11.35	-38.7	-40.5	14.0	2.20e-06	0	59	0	644874240	48	4339
2026-01-13 16:13:06.94	245.67	11.39	-38.8	-40.7	13.9	5.70e-06	0	59	0	652214272	48	4411
2026-01-13 16:13:07.95	245.84	11.44	-38.7	-40.5	14.1	3.40e-06	0	59	0	659554304	48	4310
2026-01-13 16:13:08.96	246.00	11.48	-38.7	-40.5	14.1	2.20e-06	0	59	0	666894336	48	4292
2026-01-13 16:13:09.97	246.17	11.52	-38.6	-40.3	14.2	0.00e+00	0	59	0	674234368	48	4239
2026-01-13 16:13:10.98	246.34	11.57	-38.5	-40.3	14.3	0.00e+00	0	59	0	681574400	48	4213
2026-01-13 16:13:11.99	246.51	11.61	-38.5	-40.3	14.3	0.00e+00	0	59	0	688914432	48	4208
2026-01-13 16:13:13.00	246.68	11.65	-38.4	-40.2	14.2	4.50e-06	0	59	0	696254464	47	4423
2026-01-13 16:13:14.01	246.86	11.70	-38.5	-40.2	14.2	4.50e-06	0	59	0	703594496	47	4431
2026-01-13 16:13:15.02	247.03	11.74	-38.4	-40.2	14.2	3.40e-06	0	59	0	710934528	47	4433
2026-01-13 16:13:16.03	247.20	11.78	-38.6	-40.4	14.0	4.50e-06	0	59	0	718274560	47	4522
2026-01-13 16:13:17.04	247.37	11.83	-38.6	-40.4	14.0	0.00e+00	0	59	0	725614592	47	4501
2026-01-13 16:13:18.05	247.55	11.87	-38.6	-40.4	14.0	2.20e-06	0	59	0	731906048	47	4506
2026-01-13 16:13:19.06	247.72	11.91	-38.5	-40.3	14.1	1.10e-06	0	59	0	740294656	47	4476
2026-01-13 16:13:20.07	247.89	11.95	-38.5	-40.3	14.1	5.70e-06	0	59	0	747634688	47	4469
2026-01-13 16:13:21.08	248.07	11.99	-38.5	-40.2	14.2	1.10e-06	0	59	0	753926144	47	4441
2026-01-13 16:13:22.09	248.24	12.04	-38.4	-40.1	14.3	1.10e-06	0	59	0	761266176	47	4385
2026-01-13 16:13:23.10	248.42	12.08	-38.4	-40.1	14.3	0.00e+00	0	59	0	768606208	47	4372
2026-01-13 16:13:24.11	248.60	12.12	-38.4	-40.1	14.3	0.00e+00	0	59	0	775946240	47	4385
2026-01-13 16:13:25.11	248.77	12.16	-38.4	-40.1	14.3	2.20e-06	0	59	0	783286272	47	4362
2026-01-13 16:13:26.12	248.95	12.20	-38.3	-40.0	14.4	1.10e-06	0	59	0	790626304	47	4332
2026-01-13 16:13:27.14	249.13	12.24	-38.2	-39.9	14.5	1.10e-06	0	59	0	797966336	47	4278
2026-01-13 16:13:28.14	249.30	12.28	-38.3	-40.1	14.4	1.10e-06	0	59	0	805306368	47	4372
2026-01-13 16:13:29.16	249.48	12.32	-38.2	-39.9	14.5	1.10e-06	0	59	0	812646400	47	4290
2026-01-13 16:13:30.17	249.66	12.36	-38.3	-40.0	14.4	0.00e+00	0	59	0	819986432	47	4325
2026-01-13 16:13:31.18	249.84	12.40	-38.2	-39.9	14.6	1.10e-06	0	59	0	827326464	47	4258
2026-01-13 16:13:32.19	250.02	12.44	-38.1	-39.8	14.7	1.10e-06	0	59	0	834666496	47	4207
2026-01-13 16:13:33.20	250.20	12.48	-38.1	-39.8	14.7	0.00e+00	0	59	0	842006528	47	4215
2026-01-13 16:13:34.20	250.38	12.52	-38.2	-40.0	14.5	1.10e-06	0	59	0	849346560	47	4298
2026-01-13 16:13:35.21	250.56	12.56	-38.2	-39.9	14.5	0.00e+00	0	59	0	856686592	47	4273
2026-01-13 16:13:36.23	250.75	12.60	-38.1	-39.8	14.6	0.00e+00	0	59	0	864026624	47	4235
2026-01-13 16:13:37.24	250.93	12.64	-38.2	-39.9	14.5	0.00e+00	0	59	0	871366656	47	4285
2026-01-13 16:13:38.25	251.11	12.68	-38.2	-39.9	14.5	1.10e-06	0	59	0	878706688	47	4291
2026-01-13 16:13:39.26	251.30	12.72	-38.2	-39.8	14.6	0.00e+00	0	59	0	886046720	47	4234
2026-01-13 16:13:40.26	251.48	12.76	-38.1	-39.8	14.7	1.10e-06	0	59	0	893386752	47	4206
2026-01-13 16:13:41.27	251.66	12.79	-38.1	-39.7	14.7	0.00e+00	0	59	0	900726784	47	4185
2026-01-13 16:13:42.28	251.85	12.83	-38.2	-39.9	14.6	0.00e+00	0	59	0	907018240	47	4265
2026-01-13 16:13:43.29	252.03	12.87	-38.0	-39.7	14.8	0.00e+00	0	59	0	914358272	47	4156
2026-01-13 16:13:44.30	252.22	12.91	-38.1	-39.8	14.7	0.00e+00	0	59	0	922746880	47	4211
2026-01-13 16:13:45.31	252.40	12.94	-38.1	-39.7	14.7	2.20e-06	0	59	0	929038336	47	4187
2026-01-13 16:13:46.32	252.59	12.98	-38.0	-39.7	14.8	0.00e+00	0	59	0	936378368	47	4173
2026-01-13 16:13:47.33	252.78	13.02	-38.1	-39.8	14.7	0.00e+00	0	59	0	943718400	47	4209
2026-01-13 16:13:48.34	252.96	13.06	-38.0	-39.7	14.8	0.00e+00	0	59	0	951058432	47	4157
2026-01-13 16:13:49.35	253.15	13.09	-38.1	-39.8	14.6	0.00e+00	0	59	0	958398464	47	4223
2026-01-13 16:13:50.36	253.34	13.13	-38.2	-39.9	14.6	0.00e+00	0	60	0	965738496	47	4261
2026-01-13 16:13:51.37	253.53	13.16	-38.1	-39.9	14.6	0.00e+00	0	59	0	973078528	47	4246
2026-01-13 16:13:52.38	253.72	13.20	-38.1	-39.8	14.7	0.00e+00	0	59	0	980418560	47	4236
2026-01-13 16:13:53.39	253.91	13.23	-38.1	-39.8	14.7	1.10e-06	0	59	0	987758592	47	4237
2026-01-13 16:13:54.40	254.10	13.27	-38.1	-39.8	14.6	0.00e+00	0	59	0	995098624	47	4242
2026-01-13 16:13:55.41	254.29	13.31	-38.1	-39.8	14.7	0.00e+00	0	59	0	1002438656	47	4198
2026-01-13 16:13:56.42	254.48	13.34	-38.3	-40.0	14.5	0.00e+00	0	60	0	1009778688	47	4312
2026-01-13 16:13:57.43	254.67	13.37	-38.1	-39.8	14.7	0.00e+00	0	59	0	1017118720	47	4209
2026-01-13 16:13:58.44	254.86	13.41	-38.1	-39.8	14.7	0.00e+00	0	59	0	1024458752	47	4223
2026-01-13 16:13:59.45	255.05	13.44	-38.2	-40.0	14.5	0.00e+00	0	59	0	1030750208	47	4295
2026-01-13 16:14:00.44	255.24	13.48	-38.2	-39.9	14.6	1.10e-06	0	59	0	1038090240	47	4252
2026-01-13 16:14:01.45	255.44	13.51	-38.0	-39.7	14.7	0.00e+00	0	59	0	1045430272	47	4177
2026-01-13 16:14:02.46	255.63	13.54	-38.1	-39.7	14.7	0.00e+00	0	59	0	1052770304	47	4188
2026-01-13 16:14:03.47	255.82	13.58	-38.0	-39.7	14.8	0.00e+00	0	59	0	1060110336	46	4421
2026-01-13 16:14:04.48	256.02	13.61	-38.1	-39.8	14.7	0.00e+00	0	59	0	1067450368	46	4449
2026-01-13 16:14:05.49	256.21	13.64	-38.0	-39.6	14.9	2.20e-06	0	59	0	1074790400	46	4382
2026-01-13 16:14:06.50	256.41	13.67	-37.8	-39.5	15.0	0.00e+00	0	59	0	1082130432	46	4300
2026-01-13 16:14:07.51	256.60	13.71	-38.0	-39.6	14.9	0.00e+00	0	60	0	1089470464	46	4364
2026-01-13 16:14:08.52	256.80	13.74	-37.9	-39.5	15.0	0.00e+00	0	59	0	1096810496	46	4324
2026-01-13 16:14:09.53	257.00	13.77	-38.0	-39.6	14.9	0.00e+00	0	59	0	1104150528	46	4376
2026-01-13 16:14:10.54	257.19	13.80	-38.0	-39.6	14.9	0.00e+00	0	59	0	1111490560	46	4369
2026-01-13 16:14:11.55	257.39	13.83	-37.9	-39.6	15.0	0.00e+00	0	60	0	1118830592	46	4342
2026-01-13 16:14:12.56	257.59	13.86	-38.0	-39.6	14.9	1.10e-06	0	59	0	1126170624	46	4383
2026-01-13 16:14:13.57	257.79	13.89	-38.0	-39.6	14.9	0.00e+00	0	59	0	1133510656	46	4391
2026-01-13 16:14:14.57	257.98	13.92	-38.1	-39.7	14.8	0.00e+00	0	59	0	1140850688	46	4430
2026-01-13 16:14:15.59	258.18	13.95	-38.1	-39.8	14.8	0.00e+00	0	59	0	1148190720	46	4442
2026-01-13 16:14:16.60	258.38	13.98	-38.0	-39.7	14.8	2.20e-06	0	60	0	1155530752	46	4423
2026-01-13 16:14:17.60	258.58	14.01	-38.0	-39.7	14.8	0.00e+00	0	59	0	1162870784	46	4417
2026-01-13 16:14:18.61	258.78	14.04	-38.0	-39.7	14.8	0.00e+00	0	59	0	1170210816	46	4417
2026-01-13 16:14:19.62	258.98	14.07	-38.0	-39.6	14.9	0.00e+00	0	59	0	1177550848	46	4380
2026-01-13 16:14:20.63	259.18	14.10	-38.0	-39.6	14.9	0.00e+00	0	60	0	1183842304	46	4363
2026-01-13 16:14:21.64	259.38	14.12	-38.0	-39.7	14.8	0.00e+00	0	59	0	1191182336	46	4420
2026-01-13 16:14:22.65	259.58	14.15	-38.0	-39.7	14.9	0.00e+00	0	60	0	1198522368	46	4410
2026-01-13 16:14:23.66	259.78	14.18	-38.0	-39.6	14.9	0.00e+00	0	59	0	1205862400	46	4370
2026-01-13 16:14:24.67	259.99	14.21	-38.0	-39.7	14.8	0.00e+00	0	59	0	1213202432	46	4417
2026-01-13 16:14:25.68	260.19	14.23	-38.1	-39.7	14.8	0.00e+00	0	59	0	1220542464	46	4432
2026-01-13 16:14:26.69	260.39	14.26	-38.1	-39.8	14.7	1.10e-06	0	60	0	1227882496	46	4469
2026-01-13 16:14:27.70	260.59	14.29	-38.1	-39.7	14.8	1.10e-06	0	59	0	1235222528	46	4441
2026-01-13 16:14:28.71	260.80	14.31	-38.0	-39.6	14.9	0.00e+00	0	60	0	1242562560	46	4376
2026-01-13 16:14:29.72	261.00	14.34	-37.9	-39.5	15.0	0.00e+00	0	60	0	1249902592	46	4337
2026-01-13 16:14:30.73	261.21	14.36	-37.9	-39.5	15.0	0.00e+00	0	59	0	1257242624	46	4332
2026-01-13 16:14:31.74	261.41	14.39	-37.9	-39.5	15.1	0.00e+00	0	59	0	1264582656	46	4292
2026-01-13 16:14:32.75	261.61	14.41	-37.9	-39.5	15.0	0.00e+00	0	59	0	1271922688	46	4318
2026-01-13 16:14:33.76	261.82	14.44	-38.0	-39.6	14.9	1.10e-06	0	60	0	1279262720	46	4370
2026-01-13 16:14:34.77	262.03	14.46	-37.9	-39.5	15.1	0.00e+00	0	60	0	1286602752	46	4300
2026-01-13 16:14:35.79	262.23	14.49	-37.9	-39.5	15.1	0.00e+00	0	60	0	1293942784	46	4307
2026-01-13 16:14:36.80	262.44	14.51	-37.9	-39.5	15.0	0.00e+00	0	59	0	1301282816	46	4309
2026-01-13 16:14:37.81	262.65	14.53	-38.0	-39.6	15.0	0.00e+00	0	59	0	1308622848	46	4368
2026-01-13 16:14:38.82	262.85	14.56	-38.0	-39.7	14.8	0.00e+00	0	59	0	1315962880	46	4409
2026-01-13 16:14:39.83	263.06	14.58	-37.9	-39.5	15.0	0.00e+00	0	60	0	1323302912	46	4339
2026-01-13 16:14:40.84	263.27	14.60	-37.8	-39.4	15.1	0.00e+00	0	60	0	1329594368	46	4272
2026-01-13 16:14:41.84	263.47	14.62	-37.8	-39.4	15.2	0.00e+00	0	59	0	1336934400	46	4263
2026-01-13 16:14:42.85	263.68	14.64	-38.0	-39.6	14.9	1.10e-06	0	60	0	1345323008	46	4377
2026-01-13 16:14:43.86	263.89	14.66	-37.8	-39.4	15.2	0.00e+00	0	60	0	1351614464	46	4246
2026-01-13 16:14:44.87	264.10	14.68	-37.7	-39.3	15.2	0.00e+00	0	60	0	1358954496	46	4229
2026-01-13 16:14:45.88	264.31	14.71	-37.6	-39.2	15.4	0.00e+00	0	60	0	1366294528	46	4154
2026-01-13 16:14:46.89	264.51	14.73	-37.7	-39.2	15.3	0.00e+00	0	60	0	1373634560	46	4182
2026-01-13 16:14:47.90	264.72	14.75	-37.6	-39.2	15.4	0.00e+00	0	60	0	1380974592	46	4158
2026-01-13 16:14:48.91	264.93	14.76	-37.7	-39.2	15.3	0.00e+00	0	60	0	1388314624	46	4187
2026-01-13 16:14:49.92	265.14	14.78	-37.7	-39.2	15.3	0.00e+00	0	60	0	1395654656	46	4185
2026-01-13 16:14:50.93	265.35	14.80	-37.7	-39.3	15.3	0.00e+00	0	60	0	1402994688	46	4197
2026-01-13 16:14:51.94	265.56	14.82	-37.7	-39.3	15.2	0.00e+00	0	60	0	1410334720	46	4221
2026-01-13 16:14:52.95	265.77	14.84	-37.8	-39.4	15.2	0.00e+00	0	60	0	1417674752	46	4265
2026-01-13 16:14:53.96	265.99	14.86	-37.8	-39.4	15.1	0.00e+00	0	60	0	1425014784	46	4279
2026-01-13 16:14:54.97	266.20	14.87	-37.7	-39.3	15.3	0.00e+00	0	60	0	1432354816	46	4210
2026-01-13 16:14:55.98	266.41	14.89	-37.7	-39.3	15.3	0.00e+00	0	60	0	1439694848	46	4222
2026-01-13 16:14:56.99	266.62	14.91	-37.6	-39.2	15.4	0.00e+00	0	60	0	1447034880	46	4154
2026-01-13 16:14:58.00	266.83	14.92	-37.7	-39.3	15.3	0.00e+00	0	60	0	1454374912	46	4214
2026-01-13 16:14:59.01	267.04	14.94	-37.6	-39.1	15.4	0.00e+00	0	59	0	1461714944	46	4128
2026-01-13 16:15:00.02	267.26	14.96	-37.6	-39.1	15.4	0.00e+00	0	60	0	1469054976	46	4137
2026-01-13 16:15:01.03	267.47	14.97	-37.6	-39.2	15.4	0.00e+00	0	59	0	1476395008	46	4158
2026-01-13 16:15:02.04	267.68	14.99	-37.6	-39.2	15.4	0.00e+00	0	60	0	1482686464	46	4162
2026-01-13 16:15:03.05	267.89	15.00	-37.8	-39.4	15.2	0.00e+00	0	60	0	1490026496	46	4268
2026-01-13 16:15:04.06	268.11	15.02	-37.7	-39.3	15.2	0.00e+00	0	60	0	1498415104	46	4235
2026-01-13 16:15:05.07	268.32	15.03	-37.8	-39.5	15.1	0.00e+00	0	60	0	1504706560	46	4292
2026-01-13 16:15:06.08	268.53	15.04	-37.7	-39.2	15.3	0.00e+00	0	60	0	1512046592	46	4183
2026-01-13 16:15:07.09	268.75	15.06	-37.7	-39.3	15.3	0.00e+00	0	60	0	1519386624	46	4200
2026-01-13 16:15:08.10	268.96	15.07	-37.7	-39.3	15.3	0.00e+00	0	60	0	1526726656	46	4206
2026-01-13 16:15:09.11	269.17	15.08	-37.7	-39.2	15.3	0.00e+00	0	60	0	1534066688	46	4185
2026-01-13 16:15:10.12	269.39	15.09	-37.7	-39.3	15.3	0.00e+00	0	60	0	1541406720	46	4205
2026-01-13 16:15:11.13	269.60	15.10	-37.7	-39.2	15.3	0.00e+00	0	60	0	1548746752	46	4191
2026-01-13 16:15:12.14	269.82	15.12	-37.9	-39.5	15.1	0.00e+00	0	60	0	1556086784	46	4306
2026-01-13 16:15:13.15	270.03	15.13	-37.9	-39.5	15.1	0.00e+00	0	60	0	1563426816	46	4317
2026-01-13 16:15:14.16	270.25	15.14	-37.9	-39.6	15.0	0.00e+00	0	60	0	1570766848	46	4347
2026-01-13 16:15:15.17	270.46	15.15	-37.9	-39.5	15.1	0.00e+00	0	60	0	1578106880	46	4316
2026-01-13 16:15:16.18	270.68	15.16	-37.9	-39.5	15.0	0.00e+00	0	60	0	1585446912	46	4338
2026-01-13 16:15:17.19	270.89	15.17	-37.9	-39.6	15.0	1.10e-06	0	60	0	1592786944	46	4349
2026-01-13 16:15:18.20	271.11	15.18	-37.8	-39.4	15.1	0.00e+00	0	60	0	1600126976	46	4287
2026-01-13 16:15:19.21	271.32	15.18	-37.8	-39.3	15.2	0.00e+00	0	60	0	1607467008	46	4242
2026-01-13 16:15:20.22	271.54	15.19	-37.7	-39.3	15.3	0.00e+00	0	60	0	1614807040	46	4199
2026-01-13 16:15:21.23	271.75	15.20	-37.6	-39.2	15.4	0.00e+00	0	60	0	1622147072	46	4149
2026-01-13 16:15:22.24	271.97	15.21	-37.6	-39.2	15.3	0.00e+00	0	60	0	1628438528	46	4172
2026-01-13 16:15:23.25	272.18	15.22	-37.6	-39.1	15.4	0.00e+00	0	60	0	1635778560	46	4130
2026-01-13 16:15:24.26	272.40	15.22	-37.6	-39.2	15.4	0.00e+00	0	60	0	1644167168	46	4157
2026-01-13 16:15:25.27	272.62	15.23	-37.7	-39.3	15.3	0.00e+00	0	60	0	1650458624	46	4200
2026-01-13 16:15:26.28	272.83	15.23	-37.7	-39.2	15.3	0.00e+00	0	60	0	1657798656	46	4190
2026-01-13 16:15:27.29	273.05	15.24	-37.8	-39.4	15.2	0.00e+00	0	60	0	1665138688	46	4247
2026-01-13 16:15:28.30	273.26	15.25	-37.8	-39.3	15.2	0.00e+00	0	60	0	1672478720	46	4240
2026-01-13 16:15:29.31	273.48	15.25	-37.8	-39.4	15.2	0.00e+00	0	60	0	1679818752	46	4251
2026-01-13 16:15:30.32	273.70	15.26	-37.8	-39.4	15.1	0.00e+00	0	60	0	1687158784	46	4269
2026-01-13 16:15:31.33	273.91	15.26	-37.8	-39.4	15.2	0.00e+00	0	60	0	1694498816	46	4247
2026-01-13 16:15:32.34	274.13	15.26	-37.7	-39.3	15.3	0.00e+00	0	60	0	1701838848	46	4210
2026-01-13 16:15:33.35	274.35	15.27	-37.7	-39.2	15.3	0.00e+00	0	60	0	1709178880	46	4190
2026-01-13 16:15:34.36	274.56	15.27	-37.8	-39.3	15.1	0.00e+00	0	60	0	1716518912	46	4241
2026-01-13 16:15:35.37	274.78	15.27	-37.8	-39.4	15.1	0.00e+00	0	60	0	1723858944	46	4253
2026-01-13 16:15:36.38	275.00	15.27	-37.7	-39.3	15.2	0.00e+00	0	60	0	1731198976	46	4241
2026-01-13 16:15:37.39	275.21	15.28	-37.7	-39.2	15.3	0.00e+00	0	60	0	1738539008	46	4184
2026-01-13 16:15:38.40	275.43	15.28	-37.7	-39.3	15.2	0.00e+00	0	60	0	1745879040	46	4213
2026-01-13 16:15:39.42	275.65	15.28	-37.8	-39.3	15.2	0.00e+00	0	60	0	1753219072	46	4236
2026-01-13 16:15:40.43	275.86	15.28	-37.7	-39.3	15.2	0.00e+00	0	60	0	1760559104	46	4221
2026-01-13 16:15:41.44	276.08	15.28	-37.8	-39.4	15.1	0.00e+00	0	60	0	1767899136	46	4274
2026-01-13 16:15:42.45	276.30	15.28	-37.9	-39.5	15.0	1.10e-06	0	60	0	1775239168	46	4335
2026-01-13 16:15:43.45	276.51	15.28	-37.9	-39.5	15.0	1.10e-06	0	60	0	1782579200	46	4314
2026-01-13 16:15:44.46	276.73	15.28	-37.8	-39.4	15.1	0.00e+00	0	60	0	1789919232	46	4247
2026-01-13 16:15:45.48	276.95	15.28	-37.8	-39.4	15.1	0.00e+00	0	60	0	1797259264	46	4264
2026-01-13 16:15:46.49	277.16	15.28	-37.7	-39.3	15.2	0.00e+00	0	60	0	1803550720	46	4234
2026-01-13 16:15:47.50	277.38	15.27	-37.7	-39.2	15.2	0.00e+00	0	60	0	1810890752	46	4192
2026-01-13 16:15:48.51	277.60	15.27	-37.7	-39.3	15.2	0.00e+00	0	60	0	1819279360	46	4213
2026-01-13 16:15:49.52	277.81	15.27	-37.7	-39.2	15.3	0.00e+00	0	60	0	1825570816	46	4189
2026-01-13 16:15:50.53	278.03	15.26	-37.6	-39.2	15.3	0.00e+00	0	60	0	1832910848	46	4169
2026-01-13 16:15:51.54	278.25	15.26	-37.6	-39.2	15.3	0.00e+00	0	60	0	1840250880	46	4163
2026-01-13 16:15:52.55	278.46	15.26	-37.7	-39.2	15.3	0.00e+00	0	60	0	1847590912	46	4190
2026-01-13 16:15:53.56	278.68	15.25	-37.7	-39.3	15.2	0.00e+00	0	60	0	1854930944	46	4239
2026-01-13 16:15:54.57	278.90	15.25	-37.7	-39.3	15.2	0.00e+00	0	60	0	1862270976	46	4203
2026-01-13 16:15:55.58	279.11	15.24	-37.6	-39.2	15.3	0.00e+00	0	60	0	1869611008	46	4160
2026-01-13 16:15:56.59	279.33	15.24	-37.6	-39.2	15.3	0.00e+00	0	60	0	1876951040	46	4175
2026-01-13 16:15:57.60	279.54	15.23	-37.6	-39.2	15.3	0.00e+00	0	60	0	1884291072	46	4160
2026-01-13 16:15:58.61	279.76	15.23	-37.7	-39.3	15.2	0.00e+00	0	60	0	1891631104	46	4203
2026-01-13 16:15:59.62	279.98	15.22	-37.7	-39.3	15.2	0.00e+00	0	60	0	1898971136	46	4219
2026-01-13 16:16:00.62	280.19	15.21	-37.7	-39.3	15.1	0.00e+00	0	60	0	1906311168	46	4236
2026-01-13 16:16:01.63	280.40	15.21	-37.8	-39.4	15.1	0.00e+00	0	60	0	1913651200	46	4284
2026-01-13 16:16:02.64	280.62	15.20	-37.9	-39.5	15.0	0.00e+00	0	60	0	1920991232	46	4315
2026-01-13 16:16:03.65	280.84	15.19	-37.9	-39.5	14.9	0.00e+00	0	60	0	1928331264	46	4328
2026-01-13 16:16:04.66	281.05	15.18	-37.8	-39.4	15.1	0.00e+00	0	60	0	1935671296	46	4276
2026-01-13 16:16:05.67	281.27	15.17	-37.8	-39.4	15.1	0.00e+00	0	60	0	1943011328	46	4255
2026-01-13 16:16:06.68	281.48	15.16	-37.8	-39.4	15.1	0.00e+00	0	60	0	1949302784	46	4283
2026-01-13 16:16:07.69	281.70	15.15	-37.8	-39.4	15.1	0.00e+00	0	60	0	1956642816	46	4266
2026-01-13 16:16:08.70	281.91	15.14	-37.9	-39.5	15.0	0.00e+00	0	60	0	1965031424	46	4307
2026-01-13 16:16:09.71	282.12	15.13	-37.9	-39.6	14.9	0.00e+00	0	60	0	1971322880	46	4348
2026-01-13 16:16:10.72	282.34	15.12	-37.9	-39.6	14.9	0.00e+00	0	60	0	1978662912	46	4347
2026-01-13 16:16:11.73	282.55	15.11	-38.0	-39.7	14.8	1.10e-06	0	60	0	1986002944	46	4423
2026-01-13 16:16:12.74	282.77	15.10	-38.0	-39.7	14.8	0.00e+00	0	61	0	1993342976	46	4417
2026-01-13 16:16:13.75	282.98	15.09	-37.8	-39.4	15.1	1.10e-06	0	60	0	2000683008	46	4264
2026-01-13 16:16:14.76	283.19	15.08	-37.8	-39.4	15.0	0.00e+00	0	60	0	2008023040	46	4258
2026-01-13 16:16:15.77	283.41	15.06	-37.8	-39.4	15.1	0.00e+00	0	60	0	2015363072	46	4263
2026-01-13 16:16:16.78	283.62	15.05	-37.7	-39.3	15.1	0.00e+00	0	60	0	2022703104	46	4214
2026-01-13 16:16:17.78	283.83	15.04	-37.8	-39.4	15.0	0.00e+00	0	60	0	2030043136	46	4287
2026-01-13 16:16:18.79	284.05	15.02	-37.8	-39.4	15.0	1.10e-06	0	60	0	2037383168	46	4282
2026-01-13 16:16:19.81	284.26	15.01	-37.8	-39.4	15.0	0.00e+00	0	60	0	2044723200	46	4276
2026-01-13 16:16:20.82	284.47	15.00	-37.8	-39.4	15.0	0.00e+00	0	60	0	2052063232	46	4260
2026-01-13 16:16:21.83	284.69	14.98	-37.8	-39.4	15.1	0.00e+00	0	60	0	2059403264	46	4252
2026-01-13 16:16:22.84	284.90	14.97	-37.7	-39.3	15.1	0.00e+00	0	60	0	2066743296	46	4231
2026-01-13 16:16:23.85	285.11	14.95	-37.7	-39.3	15.1	0.00e+00	0	60	0	2074083328	46	4218
2026-01-13 16:16:24.85	285.32	14.93	-37.6	-39.2	15.2	0.00e+00	0	60	0	2081423360	46	4184
2026-01-13 16:16:25.87	285.53	14.92	-37.7	-39.3	15.1	0.00e+00	0	60	0	2088763392	46	4226
2026-01-13 16:16:26.88	285.74	14.90	-37.8	-39.4	15.0	0.00e+00	0	60	0	2096103424	46	4254
2026-01-13 16:16:27.89	285.95	14.89	-37.8	-39.5	14.9	0.00e+00	0	60	0	2102394880	46	4295
2026-01-13 16:16:28.90	286.17	14.87	-37.8	-39.5	14.9	0.00e+00	0	60	0	2109734912	46	4309
2026-01-13 16:16:29.91	286.38	14.85	-37.9	-39.5	14.8	0.00e+00	0	60	0	2118123520	46	4340
2026-01-13 16:16:30.91	286.58	14.83	-37.9	-39.6	14.8	0.00e+00	0	60	0	2124414976	46	4344
2026-01-13 16:16:31.93	286.80	14.81	-37.9	-39.6	14.7	1.10e-06	0	60	0	2131755008	46	4370
2026-01-13 16:16:32.93	287.00	14.80	-37.9	-39.6	14.8	0.00e+00	0	60	0	2139095040	46	4346
2026-01-13 16:16:33.94	287.21	14.78	-37.9	-39.6	14.7	1.10e-06	0	60	0	2146435072	46	4366
2026-01-13 16:16:34.95	287.42	14.76	-37.8	-39.5	14.8	0.00e+00	0	60	0	2153775104	46	4296
2026-01-13 16:16:35.96	287.63	14.74	-37.9	-39.6	14.8	0.00e+00	0	60	0	2161115136	46	4352
2026-01-13 16:16:36.97	287.84	14.72	-38.0	-39.6	14.7	0.00e+00	0	60	0	2168455168	46	4387
2026-01-13 16:16:37.98	288.05	14.70	-38.0	-39.7	14.6	1.10e-06	0	60	0	2175795200	46	4416
2026-01-13 16:16:38.99	288.26	14.68	-38.0	-39.7	14.6	0.00e+00	0	60	0	2183135232	46	4418
2026-01-13 16:16:40.00	288.47	14.66	-38.1	-39.8	14.6	1.10e-06	0	60	0	2190475264	46	4466
2026-01-13 16:16:41.01	288.67	14.64	-38.0	-39.8	14.6	0.00e+00	0	60	0	2197815296	46	4459
2026-01-13 16:16:42.02	288.88	14.61	-38.1	-39.8	14.5	0.00e+00	0	60	0	2205155328	46	4467
2026-01-13 16:16:43.03	289.09	14.59	-38.1	-39.8	14.6	0.00e+00	0	60	0	2212495360	46	4465
2026-01-13 16:16:44.04	289.29	14.57	-38.0	-39.8	14.5	0.00e+00	0	60	0	2219835392	46	4449
2026-01-13 16:16:45.05	289.50	14.55	-38.0	-39.7	14.6	1.10e-06	0	60	0	2227175424	46	4438
2026-01-13 16:16:46.06	289.71	14.52	-37.9	-39.6	14.7	0.00e+00	0	60	0	2234515456	46	4351
2026-01-13 16:16:47.07	289.91	14.50	-38.0	-39.7	14.6	0.00e+00	0	60	0	2241855488	46	4420
2026-01-13 16:16:48.08	290.12	14.48	-38.0	-39.6	14.6	0.00e+00	0	60	0	2248146944	46	4389
2026-01-13 16:16:49.09	290.32	14.45	-38.0	-39.7	14.6	0.00e+00	0	60	0	2255486976	46	4419
2026-01-13 16:16:50.11	290.53	14.43	-38.0	-39.7	14.6	2.20e-06	0	60	0	2263875584	46	4392
2026-01-13 16:16:51.12	290.73	14.41	-37.9	-39.6	14.6	0.00e+00	0	60	0	2270167040	46	4370
2026-01-13 16:16:52.12	290.94	14.38	-37.9	-39.6	14.7	0.00e+00	0	60	0	2277507072	46	4352
2026-01-13 16:16:53.13	291.14	14.36	-37.8	-39.5	14.8	0.00e+00	0	61	0	2284847104	46	4322
2026-01-13 16:16:54.14	291.34	14.33	-37.9	-39.6	14.7	0.00e+00	0	60	0	2292187136	46	4361
2026-01-13 16:16:55.15	291.55	14.31	-37.9	-39.5	14.7	0.00e+00	0	60	0	2299527168	46	4338
2026-01-13 16:16:56.16	291.75	14.28	-37.7	-39.4	14.8	0.00e+00	0	60	0	2306867200	46	4247
2026-01-13 16:16:57.17	291.95	14.25	-37.7	-39.4	14.8	0.00e+00	0	60	0	2314207232	46	4259
2026-01-13 16:16:58.18	292.15	14.23	-37.7	-39.4	14.8	0.00e+00	0	60	0	2321547264	46	4247
2026-01-13 16:16:59.19	292.35	14.20	-37.6	-39.3	14.8	0.00e+00	0	60	0	2328887296	46	4220
2026-01-13 16:17:00.20	292.56	14.17	-37.6	-39.2	14.9	0.00e+00	0	60	0	2336227328	46	4188
2026-01-13 16:17:01.21	292.76	14.14	-37.6	-39.2	14.8	0.00e+00	0	60	0	2343567360	46	4183
2026-01-13 16:17:02.22	292.96	14.12	-37.7	-39.4	14.7	0.00e+00	0	60	0	2350907392	46	4254
2026-01-13 16:17:03.23	293.16	14.09	-37.6	-39.3	14.7	0.00e+00	0	61	0	2358247424	46	4226
2026-01-13 16:17:04.24	293.36	14.06	-37.6	-39.2	14.8	0.00e+00	0	60	0	2365587456	46	4168
2026-01-13 16:17:05.25	293.56	14.03	-37.6	-39.3	14.8	0.00e+00	0	60	0	2372927488	46	4197
2026-01-13 16:17:06.26	293.76	14.00	-37.6	-39.3	14.7	0.00e+00	0	60	0	2380267520	46	4207
2026-01-13 16:17:07.27	293.96	13.97	-37.6	-39.2	14.7	0.00e+00	0	61	0	2387607552	46	4185
2026-01-13 16:17:08.28	294.15	13.94	-37.7	-39.4	14.6	1.10e-06	0	60	0	2394947584	46	4265
2026-01-13 16:17:09.29	294.35	13.91	-37.7	-39.5	14.5	0.00e+00	0	60	0	2401239040	46	4306
2026-01-13 16:17:10.30	294.55	13.88	-37.8	-39.6	14.3	1.10e-06	0	61	0	2409627648	46	4368
2026-01-13 16:17:11.31	294.75	13.85	-37.8	-39.5	14.5	0.00e+00	0	60	0	2416967680	46	4308
2026-01-13 16:17:12.32	294.94	13.82	-37.7	-39.5	14.5	0.00e+00	0	60	0	2423259136	46	4293
2026-01-13 16:17:13.33	295.14	13.79	-37.8	-39.5	14.4	0.00e+00	0	60	0	2430599168	46	4318
2026-01-13 16:17:14.34	295.33	13.76	-37.7	-39.4	14.5	0.00e+00	0	60	0	2437939200	46	4280
2026-01-13 16:17:15.35	295.53	13.73	-37.7	-39.4	14.6	1.10e-06	0	60	0	2445279232	46	4246
2026-01-13 16:17:16.36	295.73	13.70	-37.7	-39.3	14.7	0.00e+00	0	60	0	2452619264	46	4237
2026-01-13 16:17:17.37	295.92	13.67	-37.6	-39.3	14.8	0.00e+00	0	60	0	2459959296	46	4194
2026-01-13 16:17:18.38	296.11	13.63	-37.6	-39.2	14.8	0.00e+00	0	60	0	2467299328	46	4179
2026-01-13 16:17:19.39	296.31	13.60	-37.7	-39.4	14.7	0.00e+00	0	60	0	2474639360	46	4248
2026-01-13 16:17:20.40	296.50	13.57	-37.7	-39.4	14.8	0.00e+00	0	60	0	2481979392	46	4247
2026-01-13 16:17:21.41	296.69	13.54	-37.6	-39.3	14.9	0.00e+00	0	60	0	2489319424	46	4196
2026-01-13 16:17:22.42	296.89	13.50	-37.6	-39.3	14.9	0.00e+00	0	60	0	2496659456	46	4215
2026-01-13 16:17:23.43	297.08	13.47	-37.7	-39.4	14.8	0.00e+00	0	60	0	2503999488	46	4255
2026-01-13 16:17:24.44	297.27	13.44	-37.8	-39.5	14.7	0.00e+00	0	60	0	2511339520	46	4322
2026-01-13 16:17:25.45	297.46	13.40	-37.9	-39.6	14.7	0.00e+00	0	60	0	2518679552	46	4357
2026-01-13 16:17:26.45	297.65	13.37	-38.0	-39.7	14.6	0.00e+00	0	60	0	2526019584	46	4412
2026-01-13 16:17:27.46	297.84	13.33	-38.1	-39.8	14.5	0.00e+00	0	60	0	2533359616	46	4469
2026-01-13 16:17:28.48	298.03	13.30	-38.2	-39.9	14.4	2.20e-06	0	60	0	2540699648	46	4522
2026-01-13 16:17:29.49	298.22	13.26	-38.2	-39.9	14.3	2.20e-06	0	60	0	2548039680	46	4545
2026-01-13 16:17:30.50	298.41	13.23	-38.2	-40.0	14.3	3.40e-06	0	60	0	2554331136	46	4563
2026-01-13 16:17:31.51	298.60	13.19	-38.3	-40.1	14.2	1.10e-06	0	61	0	2562719744	46	4608
2026-01-13 16:17:32.52	298.79	13.16	-38.3	-40.1	14.3	4.50e-06	0	60	0	2569011200	46	4612
2026-01-13 16:17:33.53	298.98	13.12	-38.4	-40.2	14.2	2.20e-06	0	60	0	2576351232	46	4664
2026-01-13 16:17:34.54	299.17	13.09	-38.3	-40.1	14.3	2.20e-06	0	60	0	2583691264	46	4609
2026-01-13 16:17:35.55	299.35	13.05	-38.3	-40.1	14.2	2.20e-06	0	61	0	2591031296	46	4645
2026-01-13 16:17:36.56	299.54	13.01	-38.3	-40.0	14.3	2.20e-06	0	61	0	2598371328	46	4589
2026-01-13 16:17:37.57	299.72	12.98	-38.3	-40.1	14.3	1.10e-06	0	60	0	2605711360	46	4606
2026-01-13 16:17:38.58	299.91	12.94	-38.3	-40.1	14.3	1.10e-06	0	60	0	2613051392	46	4599
2026-01-13 16:17:39.59	300.10	12.90	-38.4	-40.2	14.2	1.10e-06	0	60	0	2620391424	46	4663
2026-01-13 16:17:40.60	300.28	12.87	-38.4	-40.3	14.1	1.10e-06	0	60	0	2627731456	46	4706
2026-01-13 16:17:41.61	300.46	12.83	-38.4	-40.3	14.1	4.50e-06	0	60	0	2635071488	46	4713
2026-01-13 16:17:42.62	300.65	12.79	-38.4	-40.2	14.1	3.40e-06	0	60	0	2642411520	46	4693
2026-01-13 16:17:43.63	300.83	12.75	-38.4	-40.2	14.1	0.00e+00	0	61	0	2649751552	46	4692
2026-01-13 16:17:44.64	301.01	12.72	-38.4	-40.2	14.1	2.20e-06	0	61	0	2657091584	46	4676
2026-01-13 16:17:45.65	301.20	12.68	-38.5	-40.3	14.0	2.20e-06	0	60	0	2664431616	46	4719
2026-01-13 16:17:46.66	301.38	12.64	-38.5	-40.3	14.0	4.50e-06	0	60	0	2671771648	46	4717
2026-01-13 16:17:47.67	301.56	12.60	-38.5	-40.4	13.9	4.50e-06	0	60	0	2679111680	46	4770
2026-01-13 16:17:48.68	301.74	12.56	-38.5	-40.3	14.0	2.20e-06	0	60	0	2686451712	46	4751
2026-01-13 16:17:49.69	301.92	12.52	-38.5	-40.3	14.0	3.40e-06	0	60	0	2693791744	46	4729
2026-01-13 16:17:50.70	302.10	12.48	-38.4	-40.3	14.1	2.20e-06	0	60	0	2700083200	46	4710
2026-01-13 16:17:51.71	302.28	12.44	-38.4	-40.2	14.1	1.10e-06	0	60	0	2708471808	46	4693
2026-01-13 16:17:52.72	302.46	12.40	-38.3	-40.1	14.2	2.20e-06	0	60	0	2715811840	46	4634
2026-01-13 16:17:53.73	302.64	12.36	-38.4	-40.2	14.1	1.10e-06	0	60	0	2722103296	46	4658
2026-01-13 16:17:54.74	302.82	12.32	-38.4	-40.2	14.1	2.20e-06	0	60	0	2729443328	46	4697
2026-01-13 16:17:55.75	302.99	12.28	-38.4	-40.2	14.1	2.20e-06	0	61	0	2736783360	46	4676
2026-01-13 16:17:56.76	303.17	12.24	-38.3	-40.1	14.2	4.50e-06	0	60	0	2744123392	46	4608
2026-01-13 16:17:57.77	303.35	12.20	-38.4	-40.3	14.1	1.10e-06	0	60	0	2751463424	46	4709
2026-01-13 16:17:58.78	303.52	12.16	-38.6	-40.4	13.9	4.50e-06	0	60	0	2758803456	46	4789
2026-01-13 16:17:59.79	303.70	12.12	-38.5	-40.4	13.9	6.80e-06	0	60	0	2766143488	46	4784
2026-01-13 16:18:00.80	303.87	12.08	-38.5	-40.3	14.0	9.10e-06	0	60	0	2773483520	46	4759
2026-01-13 16:18:01.81	304.05	12.04	-38.5	-40.3	14.0	0.00e+00	0	60	0	2780823552	46	4753
2026-01-13 16:18:02.82	304.22	12.00	-38.4	-40.2	14.1	4.50e-06	0	60	0	2788163584	46	4702
2026-01-13 16:18:03.83	304.40	11.95	-38.5	-40.3	14.0	2.20e-06	0	61	0	2795503616	46	4746
2026-01-13 16:18:04.84	304.57	11.91	-38.4	-40.3	14.0	4.50e-06	0	61	0	2802843648	46	4717
2026-01-13 16:18:05.85	304.74	11.87	-38.3	-40.1	14.2	3.40e-06	0	60	0	2810183680	46	4616
2026-01-13 16:18:06.86	304.92	11.83	-38.4	-40.2	14.1	2.20e-06	0	61	0	2817523712	46	4676
2026-01-13 16:18:07.87	305.09	11.79	-38.4	-40.3	14.0	3.40e-06	0	61	0	2824863744	46	4714
2026-01-13 16:18:08.88	305.26	11.74	-38.5	-40.3	14.0	0.00e+00	0	60	0	2832203776	46	4745
2026-01-13 16:18:09.89	305.43	11.70	-38.6	-40.5	13.8	4.50e-06	0	61	0	2839543808	46	4822
2026-01-13 16:18:10.90	305.60	11.66	-38.6	-40.5	13.8	9.10e-06	0	60	0	2846883840	47	4564
2026-01-13 16:18:11.91	305.77	11.62	-38.8	-40.8	13.4	1.37e-05	0	60	0	2854223872	47	4736
2026-01-13 16:18:12.92	305.94	11.57	-38.9	-40.9	13.4	1.60e-05	0	60	0	2861563904	47	4770
2026-01-13 16:18:13.93	306.11	11.53	-38.9	-40.9	13.3	1.94e-05	0	60	0	2868903936	47	4797
2026-01-13 16:18:14.94	306.28	11.49	-38.8	-40.8	13.5	1.37e-05	0	61	0	2875195392	47	4717
2026-01-13 16:18:15.95	306.45	11.44	-38.9	-40.9	13.4	1.83e-05	0	61	0	2882535424	47	4783
2026-01-13 16:18:16.96	306.61	11.40	-38.9	-40.9	13.3	2.17e-05	0	61	0	2890924032	47	4812
2026-01-13 16:18:17.97	306.78	11.36	-38.8	-40.8	13.5	1.14e-05	0	60	0	2897215488	47	4735
2026-01-13 16:18:18.98	306.95	11.31	-38.8	-40.8	13.5	1.14e-05	0	61	0	2904555520	47	4723
2026-01-13 16:18:19.99	307.11	11.27	-38.8	-40.8	13.5	1.14e-05	0	61	0	2911895552	47	4725
2026-01-13 16:18:21.00	307.28	11.22	-38.7	-40.7	13.6	1.14e-05	0	60	0	2919235584	47	4671
2026-01-13 16:18:22.01	307.44	11.18	-38.7	-40.7	13.6	9.10e-06	0	60	0	2926575616	47	4653
2026-01-13 16:18:23.02	307.61	11.14	-38.8	-40.7	13.6	1.25e-05	0	61	0	2933915648	47	4679
2026-01-13 16:18:24.03	307.77	11.09	-38.8	-40.7	13.5	6.80e-06	0	60	0	2941255680	47	4689
2026-01-13 16:18:25.04	307.94	11.05	-38.7	-40.6	13.6	1.48e-05	0	61	0	2948595712	47	4630
2026-01-13 16:18:26.05	308.10	11.00	-38.6	-40.5	13.7	4.50e-06	0	61	0	2955935744	47	4572
2026-01-13 16:18:27.06	308.26	10.96	-38.6	-40.4	13.8	2.20e-06	0	61	0	2963275776	47	4533
2026-01-13 16:18:28.07	308.42	10.91	-38.6	-40.5	13.7	8.00e-06	0	60	0	2970615808	47	4574
2026-01-13 16:18:29.08	308.59	10.87	-38.7	-40.7	13.6	1.37e-05	0	61	0	2977955840	47	4656
2026-01-13 16:18:30.09	308.75	10.82	-38.7	-40.6	13.6	6.80e-06	0	61	0	2985295872	47	4630
2026-01-13 16:18:31.10	308.91	10.78	-38.8	-40.7	13.5	1.37e-05	0	61	0	2992635904	47	4674
2026-01-13 16:18:32.11	309.07	10.73	-38.9	-40.8	13.4	5.70e-06	0	60	0	2999975936	47	4743
2026-01-13 16:18:33.12	309.23	10.68	-39.0	-41.0	13.2	2.40e-05	0	61	0	3007315968	47	4821
2026-01-13 16:18:34.13	309.39	10.64	-38.8	-40.8	13.4	1.25e-05	0	61	0	3014656000	47	4722
2026-01-13 16:18:35.14	309.55	10.59	-38.9	-40.9	13.3	1.83e-05	0	60	0	3020947456	47	4781
2026-01-13 16:18:36.15	309.70	10.55	-38.9	-40.9	13.3	2.86e-05	0	61	0	3028287488	47	4779
2026-01-13 16:18:37.16	309.86	10.50	-38.9	-41.0	13.2	2.51e-05	0	60	0	3036676096	47	4827
2026-01-13 16:18:38.17	310.02	10.46	-39.0	-41.0	13.2	2.17e-05	0	61	0	3042967552	47	4841
2026-01-13 16:18:39.18	310.18	10.41	-39.0	-41.0	13.1	3.66e-05	0	60	0	3050307584	47	4866
2026-01-13 16:18:40.19	310.33	10.36	-39.0	-41.0	13.1	3.54e-05	0	61	0	3057647616	47	4869
2026-01-13 16:18:41.20	310.49	10.32	-38.8	-40.8	13.4	2.28e-05	0	61	0	3064987648	47	4747
2026-01-13 16:18:42.21	310.64	10.27	-39.0	-41.0	13.2	2.86e-05	0	61	0	3072327680	47	4854
2026-01-13 16:18:43.22	310.80	10.22	-38.8	-40.8	13.4	9.10e-06	0	60	0	3079667712	47	4733
2026-01-13 16:18:44.23	310.95	10.18	-39.0	-41.0	13.1	3.77e-05	0	60	0	3087007744	47	4856
2026-01-13 16:18:45.24	311.11	10.13	-39.1	-41.1	13.1	3.77e-05	0	60	0	3094347776	47	4910
2026-01-13 16:18:46.25	311.26	10.08	-39.1	-41.1	13.0	2.40e-05	0	61	0	3101687808	47	4903
2026-01-13 16:18:47.26	311.41	10.04	-39.1	-41.2	13.0	4.34e-05	0	61	0	3109027840	47	4957
2026-01-13 16:18:48.27	311.57	9.99	-39.1	-41.1	13.1	4.00e-05	0	61	0	3116367872	47	4911
2026-01-13 16:18:49.29	311.72	9.94	-39.0	-41.0	13.1	2.86e-05	0	61	0	3123707904	47	4849
2026-01-13 16:18:50.30	311.87	9.89	-39.0	-41.0	13.1	2.51e-05	0	61	0	3131047936	47	4830
2026-01-13 16:18:51.31	312.02	9.85	-39.1	-41.2	13.0	4.00e-05	0	61	0	3138387968	47	4930
2026-01-13 16:18:52.32	312.17	9.80	-39.3	-41.4	12.9	5.49e-05	0	60	0	3145728000	48	4795
2026-01-13 16:18:53.33	312.32	9.75	-39.4	-41.5	12.8	7.20e-05	0	60	0	3153068032	48	4829
2026-01-13 16:18:54.34	312.47	9.70	-39.3	-41.4	12.9	4.23e-05	0	61	0	3160408064	48	4760
2026-01-13 16:18:55.35	312.62	9.66	-39.3	-41.4	12.9	5.37e-05	0	61	0	3167748096	48	4777
2026-01-13 16:18:56.36	312.77	9.61	-39.2	-41.3	13.0	3.66e-05	0	60	0	3175088128	48	4724
2026-01-13 16:18:57.37	312.92	9.56	-39.1	-41.1	13.2	2.63e-05	0	61	0	3182428160	48	4614
2026-01-13 16:18:58.38	313.07	9.51	-39.2	-41.2	13.1	3.08e-05	0	61	0	3189768192	48	4669
2026-01-13 16:18:59.39	313.21	9.47	-39.2	-41.3	13.0	4.34e-05	0	61	0	3196059648	48	4730
2026-01-13 16:19:00.40	313.36	9.42	-39.0	-41.0	13.2	4.11e-05	0	61	0	3204448256	48	4591
2026-01-13 16:19:01.41	313.51	9.37	-39.1	-41.1	13.1	3.08e-05	0	61	0	3211788288	48	4628
2026-01-13 16:19:02.42	313.65	9.32	-39.1	-41.2	13.1	3.66e-05	0	61	0	3218079744	48	4661
2026-01-13 16:19:03.43	313.80	9.27	-39.0	-41.0	13.3	3.43e-05	0	61	0	3225419776	48	4553
2026-01-13 16:19:04.44	313.94	9.23	-39.2	-41.2	13.0	5.14e-05	0	61	0	3232759808	48	4690
2026-01-13 16:19:05.45	314.09	9.18	-39.1	-41.2	13.1	4.00e-05	0	61	0	3240099840	48	4659
2026-01-13 16:19:06.46	314.23	9.13	-39.4	-41.5	12.7	7.20e-05	0	61	0	3247439872	48	4866
2026-01-13 16:19:07.47	314.38	9.08	-39.4	-41.6	12.7	9.84e-05	0	60	0	3254779904	48	4892
2026-01-13 16:19:08.48	314.52	9.03	-39.6	-41.9	12.4	1.58e-04	0	61	0	3262119936	48	5043
2026-01-13 16:19:09.49	314.66	8.98	-39.5	-41.7	12.5	1.26e-04	0	61	0	3269459968	48	4970
2026-01-13 16:19:10.50	314.80	8.93	-39.6	-41.9	12.4	1.79e-04	0	61	0	3276800000	48	5047
2026-01-13 16:19:11.51	314.95	8.89	-39.8	-42.1	12.1	2.41e-04	0	61	0	3284140032	49	4897
2026-01-13 16:19:12.52	315.09	8.84	-39.7	-41.9	12.3	2.25e-04	0	61	0	3291480064	49	4808
2026-01-13 16:19:13.53	315.23	8.79	-39.7	-41.9	12.3	2.06e-04	0	61	0	3298820096	49	4806
2026-01-13 16:19:14.54	315.37	8.74	-39.7	-42.0	12.2	2.22e-04	0	61	0	3306160128	49	4836
2026-01-13 16:19:15.55	315.51	8.69	-39.6	-41.8	12.4	1.84e-04	0	61	0	3313500160	49	4744
2026-01-13 16:19:16.56	315.65	8.64	-39.7	-41.9	12.3	1.88e-04	0	61	0	3320840192	49	4795
2026-01-13 16:19:17.57	315.79	8.59	-39.6	-41.8	12.4	1.92e-04	0	61	0	3328180224	49	4739
2026-01-13 16:19:18.58	315.93	8.54	-39.7	-42.0	12.2	2.36e-04	0	60	0	3335520256	49	4819
2026-01-13 16:19:19.59	316.06	8.50	-39.5	-41.7	12.5	1.65e-04	0	61	0	3341811712	49	4685
2026-01-13 16:19:20.60	316.20	8.45	-39.8	-42.1	12.1	2.66e-04	0	61	0	3349151744	49	4904
2026-01-13 16:19:21.61	316.34	8.40	-39.7	-42.0	12.2	3.38e-04	0	60	0	3357540352	49	4827
2026-01-13 16:19:22.62	316.48	8.35	-39.4	-41.6	12.6	1.14e-04	0	61	0	3363831808	49	4616
2026-01-13 16:19:23.63	316.61	8.30	-39.4	-41.6	12.6	9.72e-05	0	61	0	3371171840	49	4601
2026-01-13 16:19:24.64	316.75	8.25	-39.3	-41.5	12.7	8.46e-05	0	61	0	3378511872	49	4552
2026-01-13 16:19:25.65	316.88	8.20	-39.1	-41.2	12.9	3.77e-05	0	61	0	3385851904	49	4434
2026-01-13 16:19:26.66	317.02	8.15	-39.2	-41.3	12.8	6.40e-05	0	61	0	3393191936	49	4491
2026-01-13 16:19:27.67	317.15	8.10	-39.1	-41.1	13.0	3.20e-05	0	61	0	3400531968	49	4386
2026-01-13 16:19:28.68	317.29	8.05	-39.2	-41.4	12.8	6.29e-05	0	61	0	3407872000	49	4507
2026-01-13 16:19:29.69	317.42	8.00	-44.2	-52.8	3.9	1.93e-04	0	61	104	3414163456	58	9979
2026-01-13 16:19:30.70	317.55	7.95	-44.9	-55.7	3.8	8.47e-01	0	61	104	3414163456	59	13215
2026-01-13 16:19:31.71	317.69	7.90	-45.2	-56.0	3.8	8.45e-01	0	61	104	3414163456	59	13691
2026-01-13 16:19:32.72	317.82	7.85	-45.2	-56.4	3.8	8.46e-01	0	61	104	3414163456	60	13506
2026-01-13 16:19:33.72	317.95	7.81	-45.4	-56.6	3.8	8.46e-01	0	61	104	3414163456	60	13729
2026-01-13 16:19:34.74	318.08	7.76	-45.5	-56.7	3.8	8.46e-01	0	61	104	3414163456	60	13919
2026-01-13 16:19:35.75	318.21	7.71	-45.5	-56.7	3.8	8.46e-01	0	61	104	3414163456	60	14029
2026-01-13 16:19:36.76	318.35	7.66	-45.6	-56.8	3.8	8.45e-01	0	61	104	3414163456	60	14064
2026-01-13 16:19:37.77	318.48	7.61	-45.6	-56.8	3.8	8.46e-01	0	61	104	3414163456	60	14182
2026-01-13 16:19:38.78	318.61	7.56	-45.6	-56.8	3.8	8.47e-01	0	61	104	3414163456	60	14059
2026-01-13 16:19:39.79	318.73	7.51	-45.5	-56.7	3.8	8.46e-01	0	61	104	3414163456	60	13958
2026-01-13 16:19:40.80	318.86	7.46	-45.5	-56.7	3.8	8.45e-01	0	61	104	3414163456	60	13930
2026-01-13 16:19:41.81	318.99	7.41	-45.5	-56.7	3.8	8.46e-01	0	60	104	3414163456	60	14027
2026-01-13 16:19:42.81	319.12	7.36	-45.5	-56.7	3.8	8.46e-01	0	61	104	3414163456	60	13919
2026-01-13 16:19:43.83	319.25	7.31	-45.5	-56.7	3.8	8.46e-01	0	61	104	3414163456	60	13901
2026-01-13 16:19:44.83	319.37	7.26	-45.5	-56.7	3.8	8.46e-01	0	61	104	3414163456	60	13901
2026-01-13 16:19:45.84	319.50	7.21	-45.5	-56.6	3.8	8.47e-01	0	61	104	3414163456	60	13851
2026-01-13 16:19:46.85	319.63	7.16	-45.5	-56.6	3.8	8.47e-01	0	61	104	3414163456	60	13820
2026-01-13 16:19:47.86	319.75	7.11	-45.5	-56.6	3.8	8.46e-01	0	61	104	3414163456	60	13757
2026-01-13 16:19:48.87	319.88	7.06	-45.5	-56.6	3.8	8.45e-01	0	61	104	3414163456	60	13867
2026-01-13 16:19:49.88	320.00	7.01	-45.5	-56.6	3.8	8.46e-01	0	61	104	3414163456	60	13814
2026-01-13 16:19:50.89	320.13	6.96	-45.5	-56.6	3.8	8.47e-01	0	61	104	3414163456	60	13825
2026-01-13 16:19:51.90	320.25	6.91	-45.4	-56.6	3.8	8.45e-01	0	61	104	3414163456	60	13840
2026-01-13 16:19:52.91	320.38	6.86	-45.5	-56.6	3.8	8.45e-01	0	61	104	3414163456	60	13852
2026-01-13 16:19:53.91	320.50	6.81	-45.5	-56.6	3.8	8.46e-01	0	61	104	3414163456	60	13850
2026-01-13 16:19:54.92	320.62	6.76	-45.5	-56.6	3.8	8.46e-01	0	61	104	3414163456	60	13827
2026-01-13 16:19:55.93	320.75	6.71	-45.4	-56.6	3.8	8.46e-01	0	61	104	3414163456	60	13860
2026-01-13 16:19:56.94	320.87	6.66	-45.4	-56.5	3.8	8.46e-01	0	61	104	3414163456	60	13706
2026-01-13 16:19:57.95	320.99	6.61	-45.4	-56.6	3.8	8.46e-01	0	61	104	3414163456	60	13787
2026-01-13 16:19:58.96	321.11	6.56	-45.5	-56.6	3.8	8.47e-01	0	61	104	3414163456	60	13738
2026-01-13 16:19:59.97	321.23	6.51	-45.4	-56.6	3.8	8.46e-01	0	61	104	3414163456	60	13755
2026-01-13 16:20:00.98	321.35	6.46	-45.4	-56.6	3.8	8.46e-01	0	61	104	3414163456	60	13767
2026-01-13 16:20:01.99	321.47	6.41	-45.4	-56.6	3.8	8.46e-01	0	61	104	3414163456	60	13800
2026-01-13 16:20:03.00	321.59	6.36	-45.4	-56.6	3.8	8.46e-01	0	61	104	3414163456	60	13806
2026-01-13 16:20:04.01	321.71	6.31	-45.4	-56.6	3.8	8.45e-01	0	61	104	3414163456	60	13802
2026-01-13 16:20:05.02	321.83	6.26	-45.4	-56.6	3.8	8.46e-01	0	61	104	3414163456	60	13798
2026-01-13 16:20:06.03	321.95	6.21	-45.4	-56.5	3.8	8.46e-01	0	61	104	3414163456	60	13723
2026-01-13 16:20:07.04	322.07	6.16	-45.4	-56.6	3.8	8.46e-01	0	61	104	3414163456	60	13805
2026-01-13 16:20:08.05	322.19	6.11	-45.3	-56.6	3.8	8.46e-01	0	61	104	3414163456	60	13840
2026-01-13 16:20:09.06	322.30	6.06	-45.4	-56.6	3.8	8.47e-01	0	61	104	3414163456	60	13831
2026-01-13 16:20:10.07	322.42	6.01	-45.4	-56.6	3.8	8.46e-01	0	61	104	3414163456	60	13784
2026-01-13 16:20:11.08	322.54	5.96	-45.5	-56.6	3.8	8.46e-01	0	61	104	3414163456	60	13837
2026-01-13 16:20:12.08	322.65	5.91	-45.4	-56.6	3.8	8.46e-01	0	61	104	3414163456	60	13772
2026-01-13 16:20:13.09	322.77	5.86	-45.4	-56.6	3.8	8.46e-01	0	61	104	3414163456	60	13767
2026-01-13 16:20:14.10	322.89	5.81	-45.4	-56.6	3.8	8.46e-01	0	61	104	3414163456	60	13796
2026-01-13 16:20:15.11	323.00	5.76	-45.4	-56.6	3.8	8.46e-01	0	61	104	3414163456	60	13806
2026-01-13 16:20:16.12	323.12	5.71	-45.4	-56.6	3.8	8.46e-01	0	61	104	3414163456	60	13759
2026-01-13 16:20:17.13	323.23	5.66	-45.3	-56.5	3.8	8.47e-01	0	61	104	3414163456	60	13629
2026-01-13 16:20:18.14	323.34	5.61	-45.4	-56.6	3.8	8.45e-01	0	61	104	3414163456	60	13781
2026-01-13 16:20:19.15	323.46	5.56	-45.4	-56.6	3.8	8.45e-01	0	61	104	3414163456	60	13806
2026-01-13 16:20:20.16	323.57	5.51	-45.4	-56.6	3.8	8.45e-01	0	61	104	3414163456	60	13791
2026-01-13 16:20:21.17	323.68	5.46	-45.4	-56.6	3.8	8.45e-01	0	61	104	3414163456	60	13764
2026-01-13 16:20:22.18	323.80	5.41	-45.4	-56.6	3.8	8.46e-01	0	61	104	3414163456	60	13737
2026-01-13 16:20:23.19	323.91	5.36	-45.3	-56.6	3.8	8.47e-01	0	61	104	3414163456	60	13826
2026-01-13 16:20:24.20	324.02	5.31	-45.4	-56.6	3.8	8.45e-01	0	61	104	3414163456	60	13764
2026-01-13 16:20:25.21	324.13	5.26	-45.4	-56.6	3.8	8.46e-01	0	61	104	3414163456	60	13835
2026-01-13 16:20:26.22	324.24	5.21	-45.4	-56.6	3.8	8.46e-01	0	61	104	3414163456	60	13738
2026-01-13 16:20:27.23	324.36	5.16	-45.4	-56.6	3.8	8.45e-01	0	61	104	3414163456	60	13772
2026-01-13 16:20:28.24	324.47	5.11	-45.3	-56.5	3.8	8.46e-01	0	61	104	3414163456	60	13714
2026-01-13 16:20:29.25	324.58	5.06	-45.4	-56.6	3.8	8.45e-01	0	61	104	3414163456	60	13744
2026-01-13 16:20:30.25	324.68	5.01	-45.4	-56.6	3.8	8.47e-01	0	61	104	3414163456	60	13816
2026-01-13 16:20:31.26	324.79	4.96	-45.4	-56.6	3.8	8.47e-01	0	61	104	3414163456	60	13775
2026-01-13 16:20:32.27	324.90	4.91	-45.4	-56.5	3.8	8.46e-01	0	61	104	3414163456	60	13696
2026-01-13 16:20:33.28	325.01	4.86	-45.4	-56.6	3.8	8.46e-01	0	61	104	3414163456	60	13728
2026-01-13 16:20:34.29	325.12	4.81	-45.4	-56.6	3.8	8.45e-01	0	61	104	3414163456	60	13749
2026-01-13 16:20:35.30	325.23	4.76	-45.4	-56.6	3.8	8.47e-01	0	61	104	3414163456	60	13732
2026-01-13 16:20:36.31	325.34	4.71	-45.4	-56.6	3.8	8.46e-01	0	61	104	3414163456	60	13800
2026-01-13 16:20:37.32	325.44	4.66	-45.4	-56.6	3.8	8.45e-01	0	61	104	3414163456	60	13759
2026-01-13 16:20:38.33	325.55	4.61	-45.4	-56.6	3.8	8.47e-01	0	61	104	3414163456	60	13775
2026-01-13 16:20:39.34	325.66	4.56	-45.4	-56.6	3.8	8.47e-01	0	61	104	3414163456	60	13751
2026-01-13 16:20:40.35	325.76	4.51	-45.4	-56.6	3.8	8.45e-01	0	61	104	3414163456	60	13818
2026-01-13 16:20:41.36	325.87	4.46	-45.4	-56.6	3.8	8.47e-01	0	61	104	3414163456	60	13754
2026-01-13 16:20:42.37	325.97	4.41	-45.4	-56.6	3.8	8.46e-01	0	61	104	3414163456	60	13803
2026-01-13 16:20:43.38	326.08	4.36	-45.4	-56.5	3.8	8.46e-01	0	61	104	3414163456	60	13723
2026-01-13 16:20:44.39	326.18	4.31	-45.4	-56.6	3.8	8.46e-01	0	61	104	3414163456	60	13845
2026-01-13 16:20:45.40	326.29	4.26	-45.4	-56.6	3.8	8.46e-01	0	61	104	3414163456	60	13756
2026-01-13 16:20:46.41	326.39	4.21	-45.4	-56.6	3.8	8.46e-01	0	61	104	3414163456	60	13746
2026-01-13 16:20:47.42	326.50	4.16	-45.4	-56.5	3.8	8.44e-01	0	61	104	3414163456	60	13715
2026-01-13 16:20:48.43	326.60	4.11	-45.4	-56.5	3.8	8.47e-01	0	61	104	3414163456	60	13697
2026-01-13 16:20:49.44	326.70	4.06	-45.4	-56.6	3.8	8.46e-01	0	61	104	3414163456	60	13735
2026-01-13 16:20:50.45	326.81	4.01	-45.4	-56.5	3.8	8.46e-01	0	61	104	3414163456	60	13703
2026-01-13 16:20:51.46	326.91	3.96	-45.4	-56.6	3.8	8.46e-01	0	61	104	3414163456	60	13761
2026-01-13 16:20:52.47	327.01	3.91	-45.4	-56.6	3.8	8.46e-01	0	61	104	3414163456	60	13758
2026-01-13 16:20:53.48	327.11	3.86	-45.4	-56.6	3.8	8.46e-01	0	61	104	3414163456	60	13745
2026-01-13 16:20:54.49	327.21	3.81	-45.4	-56.6	3.8	8.46e-01	0	61	104	3414163456	60	13736
2026-01-13 16:20:55.50	327.31	3.76	-45.4	-56.5	3.8	8.46e-01	0	61	104	3414163456	60	13705
2026-01-13 16:20:56.51	327.42	3.72	-45.4	-56.5	3.8	8.46e-01	0	61	104	3414163456	60	13719
2026-01-13 16:20:57.52	327.52	3.67	-45.4	-56.6	3.8	8.47e-01	0	61	104	3414163456	60	13768
2026-01-13 16:20:58.53	327.62	3.62	-45.3	-56.6	3.8	8.45e-01	0	61	104	3414163456	60	13779
2026-01-13 16:20:59.54	327.72	3.57	-45.4	-56.6	3.8	8.45e-01	0	61	104	3414163456	60	13731
2026-01-13 16:21:00.55	327.82	3.52	-45.4	-56.6	3.8	8.45e-01	0	61	104	3414163456	60	13785
2026-01-13 16:21:01.56	327.92	3.47	-45.4	-56.5	3.8	8.46e-01	0	61	104	3414163456	60	13725
2026-01-13 16:21:02.57	328.01	3.42	-45.4	-56.6	3.8	8.47e-01	0	61	104	3414163456	60	13773
2026-01-13 16:21:03.58	328.11	3.37	-45.4	-56.5	3.8	8.46e-01	0	61	104	3414163456	60	13682
2026-01-13 16:21:04.59	328.21	3.32	-45.4	-56.6	3.8	8.46e-01	0	61	104	3414163456	60	13738
2026-01-13 16:21:05.60	328.31	3.27	-45.4	-56.6	3.8	8.47e-01	0	61	104	3414163456	60	13806
2026-01-13 16:21:06.61	328.41	3.22	-45.4	-56.6	3.8	8.45e-01	0	61	104	3414163456	60	13774
2026-01-13 16:21:07.62	328.50	3.17	-45.4	-56.6	3.8	8.46e-01	0	61	104	3414163456	60	13786
2026-01-13 16:21:08.63	328.60	3.12	-45.4	-56.5	3.8	8.46e-01	0	61	104	3414163456	60	13719
2026-01-13 16:21:09.64	328.70	3.07	-45.4	-56.6	3.8	8.46e-01	0	61	104	3414163456	60	13735
2026-01-13 16:21:10.65	328.79	3.02	-45.4	-56.6	3.8	8.46e-01	0	61	104	3414163456	60	13746
2026-01-13 16:21:11.66	328.89	2.97	-45.4	-56.6	3.8	8.45e-01	0	61	104	3414163456	60	13770
2026-01-13 16:21:12.67	328.99	2.93	-45.4	-56.5	3.8	8.46e-01	0	61	104	3414163456	60	13711
2026-01-13 16:21:13.68	329.08	2.88	-45.4	-56.5	3.8	8.46e-01	0	61	104	3414163456	60	13723
2026-01-13 16:21:14.69	329.18	2.83	-45.4	-56.6	3.8	8.45e-01	0	61	104	3414163456	60	13780
2026-01-13 16:21:15.70	329.27	2.78	-45.4	-56.5	3.8	8.46e-01	0	61	104	3414163456	60	13652
2026-01-13 16:21:16.71	329.37	2.73	-45.4	-56.5	3.8	8.46e-01	0	61	104	3414163456	60	13721
2026-01-13 16:21:17.72	329.46	2.68	-45.4	-56.6	3.8	8.46e-01	0	61	104	3414163456	60	13739
2026-01-13 16:21:18.73	329.55	2.63	-45.4	-56.5	3.8	8.46e-01	0	61	104	3414163456	60	13701
2026-01-13 16:21:19.74	329.65	2.58	-45.3	-56.6	3.8	8.46e-01	0	61	104	3414163456	60	13733
2026-01-13 16:21:20.75	329.74	2.53	-45.4	-56.5	3.8	8.46e-01	0	61	104	3414163456	60	13670
2026-01-13 16:21:21.76	329.84	2.48	-45.4	-56.6	3.8	8.46e-01	0	61	104	3414163456	60	13731
2026-01-13 16:21:22.77	329.93	2.43	-45.4	-56.6	3.8	8.47e-01	0	61	104	3414163456	60	13743
2026-01-13 16:21:23.78	330.02	2.39	-45.4	-56.5	3.8	8.46e-01	0	61	104	3414163456	60	13699
2026-01-13 16:21:24.79	330.11	2.34	-45.4	-56.5	3.8	8.46e-01	0	61	104	3414163456	60	13696
2026-01-13 16:21:25.80	330.20	2.29	-45.4	-56.5	3.8	8.46e-01	0	61	104	3414163456	60	13723
2026-01-13 16:21:26.81	330.30	2.24	-45.4	-56.6	3.8	8.46e-01	0	61	104	3414163456	60	13728
2026-01-13 16:21:27.81	330.39	2.19	-45.4	-56.6	3.8	8.45e-01	0	61	104	3414163456	60	13759
