passes_logs/2026/01/13/R2.0S_Moscow/R2.0S_Moscow__20260113_114435_SUOMI_NPP_rec.log

#Pass ID: 20260113_114435_SUOMI NPP
#Satellite: SUOMI NPP
#Configuration: NPP
#almurnet v.1.7.20251203
#Start time: 2026-01-13 11:44:35

#Version: 2.2.20231116
#Station: R2.0S_Moscow
#Location: 37.707566 lon 55.798166 lat
#TLE: 1 37849U 11061A   26012.28456845  .00000093  00000+0  65163-4 0  9999
#TLE: 2 37849  98.7807 314.3566 0002508  68.3553 291.7890 14.19524725736322

#Time	Az	El	Level	Level2	SNR	BER	BlckErr	Temp	State	Recorded	gain1	gain2
2026-01-13 11:44:35.41	214.31	2.02	-44.1	-58.4	3.8	1.49e+00	0	50	0	0	59	19059
2026-01-13 11:44:36.40	214.39	2.07	-44.1	-58.4	3.8	1.49e+00	0	50	104	0	59	19063
2026-01-13 11:44:37.41	214.47	2.12	-44.1	-58.4	3.8	1.49e+00	0	50	104	0	59	19006
2026-01-13 11:44:38.42	214.55	2.17	-44.1	-58.4	3.8	1.49e+00	0	51	104	0	59	19037
2026-01-13 11:44:39.43	214.64	2.23	-44.1	-58.4	3.8	1.49e+00	0	51	104	0	59	19035
2026-01-13 11:44:40.45	214.72	2.28	-44.1	-58.4	3.8	1.49e+00	0	50	104	0	59	19048
2026-01-13 11:44:41.46	214.80	2.33	-44.1	-58.4	3.8	1.49e+00	0	51	104	0	59	19027
2026-01-13 11:44:42.46	214.89	2.39	-44.1	-58.4	3.8	1.49e+00	0	51	104	0	59	18992
2026-01-13 11:44:43.48	214.97	2.44	-44.1	-58.4	3.8	1.49e+00	0	51	104	0	59	18990
2026-01-13 11:44:44.49	215.05	2.49	-44.1	-58.4	3.8	1.49e+00	0	51	104	0	59	19064
2026-01-13 11:44:45.50	215.14	2.55	-44.1	-58.4	3.8	1.49e+00	0	51	104	0	59	19072
2026-01-13 11:44:46.51	215.22	2.60	-44.1	-58.4	3.8	1.49e+00	0	51	104	0	59	19009
2026-01-13 11:44:47.52	215.31	2.65	-44.1	-58.4	3.8	1.49e+00	0	51	104	0	59	18994
2026-01-13 11:44:48.53	215.39	2.71	-44.1	-58.4	3.8	1.49e+00	0	51	104	0	59	19002
2026-01-13 11:44:49.54	215.48	2.76	-44.1	-58.4	3.8	1.49e+00	0	51	104	0	59	18950
2026-01-13 11:44:50.55	215.56	2.81	-44.1	-58.4	3.8	1.49e+00	0	51	104	0	59	19059
2026-01-13 11:44:51.56	215.65	2.87	-44.1	-58.4	3.8	1.49e+00	0	51	104	0	59	18983
2026-01-13 11:44:52.57	215.74	2.92	-44.1	-58.4	3.8	1.49e+00	0	51	104	0	59	18997
2026-01-13 11:44:53.58	215.82	2.97	-44.1	-58.4	3.8	1.49e+00	0	51	104	0	59	18964
2026-01-13 11:44:54.59	215.91	3.03	-44.1	-58.4	3.8	1.49e+00	0	51	104	0	59	18964
2026-01-13 11:44:55.60	216.00	3.08	-44.1	-58.4	3.8	1.49e+00	0	52	104	0	59	18982
2026-01-13 11:44:56.61	216.08	3.13	-44.1	-58.4	3.8	1.49e+00	0	52	104	0	59	18992
2026-01-13 11:44:57.62	216.17	3.19	-44.1	-58.4	3.8	1.49e+00	0	52	104	0	59	18994
2026-01-13 11:44:58.63	216.26	3.24	-44.1	-58.4	3.8	1.49e+00	0	52	104	0	59	19039
2026-01-13 11:44:59.64	216.35	3.30	-44.1	-58.3	3.8	1.49e+00	0	52	104	0	59	18925
2026-01-13 11:45:00.65	216.44	3.35	-44.1	-58.4	3.8	1.49e+00	0	52	104	0	59	18984
2026-01-13 11:45:01.66	216.53	3.40	-44.1	-58.4	3.8	1.49e+00	0	52	104	0	59	19023
2026-01-13 11:45:02.67	216.62	3.46	-44.1	-58.4	3.8	1.49e+00	0	52	104	0	59	18995
2026-01-13 11:45:03.69	216.71	3.51	-44.1	-58.4	3.8	1.49e+00	0	52	104	0	59	18988
2026-01-13 11:45:04.70	216.80	3.57	-44.1	-58.4	3.8	1.49e+00	0	52	104	0	59	18977
2026-01-13 11:45:05.71	216.89	3.62	-44.1	-58.4	3.8	1.49e+00	0	52	104	0	59	19011
2026-01-13 11:45:06.72	216.98	3.68	-44.1	-58.4	3.8	1.49e+00	0	52	104	0	59	19004
2026-01-13 11:45:07.73	217.07	3.73	-44.1	-58.4	3.8	1.49e+00	0	52	104	0	59	19035
2026-01-13 11:45:08.74	217.16	3.78	-44.1	-58.4	3.8	1.49e+00	0	52	104	0	59	19005
2026-01-13 11:45:09.75	217.25	3.84	-44.1	-58.4	3.8	1.49e+00	0	53	104	0	59	18971
2026-01-13 11:45:10.76	217.34	3.89	-44.1	-58.4	3.8	1.49e+00	0	52	104	0	59	18961
2026-01-13 11:45:11.77	217.44	3.95	-44.1	-58.4	3.8	1.49e+00	0	52	104	0	59	19023
2026-01-13 11:45:12.78	217.53	4.00	-44.1	-58.4	3.8	1.49e+00	0	53	104	0	59	18986
2026-01-13 11:45:13.79	217.62	4.06	-44.1	-58.4	3.8	1.49e+00	0	53	104	0	59	18954
2026-01-13 11:45:14.80	217.71	4.11	-44.1	-58.4	3.8	1.49e+00	0	53	104	0	59	18960
2026-01-13 11:45:15.81	217.81	4.17	-44.1	-58.4	3.8	1.49e+00	0	53	104	0	59	19005
2026-01-13 11:45:16.83	217.90	4.22	-44.1	-58.4	3.8	1.49e+00	0	53	104	0	59	18963
2026-01-13 11:45:17.84	218.00	4.28	-44.1	-58.4	3.8	1.49e+00	0	53	104	0	59	18973
2026-01-13 11:45:18.85	218.09	4.33	-44.1	-58.4	3.8	1.49e+00	0	53	104	0	59	19046
2026-01-13 11:45:19.86	218.19	4.39	-44.1	-58.4	3.8	1.49e+00	0	53	104	0	59	19006
2026-01-13 11:45:20.87	218.28	4.44	-44.1	-58.4	3.8	1.49e+00	0	53	104	0	59	19032
2026-01-13 11:45:21.88	218.38	4.50	-44.1	-58.3	3.8	1.49e+00	0	53	104	0	59	18947
2026-01-13 11:45:22.89	218.47	4.55	-44.1	-58.4	3.8	1.49e+00	0	53	104	0	59	18973
2026-01-13 11:45:23.89	218.57	4.61	-44.1	-58.4	3.8	1.49e+00	0	53	104	0	59	19021
2026-01-13 11:45:24.91	218.67	4.66	-44.1	-58.4	3.8	1.49e+00	0	53	104	0	59	19015
2026-01-13 11:45:25.92	218.76	4.72	-44.1	-58.3	3.8	1.49e+00	0	53	104	0	59	18940
2026-01-13 11:45:26.93	218.86	4.77	-44.1	-58.4	3.8	1.49e+00	0	54	104	0	59	18968
2026-01-13 11:45:27.94	218.96	4.83	-44.1	-58.3	3.8	1.49e+00	0	54	104	0	59	18926
2026-01-13 11:45:28.95	219.06	4.88	-44.1	-58.3	3.8	1.49e+00	0	54	104	0	59	18941
2026-01-13 11:45:29.96	219.16	4.94	-44.1	-58.4	3.8	1.49e+00	0	54	104	0	59	18954
2026-01-13 11:45:30.97	219.26	4.99	-44.1	-58.4	3.8	1.49e+00	0	54	104	0	59	18963
2026-01-13 11:45:31.98	219.35	5.05	-44.1	-58.3	3.8	1.49e+00	0	54	104	0	59	18914
2026-01-13 11:45:32.99	219.45	5.11	-44.1	-58.3	3.8	1.49e+00	0	54	104	0	59	18937
2026-01-13 11:45:34.00	219.55	5.16	-44.1	-58.3	3.8	1.49e+00	0	54	104	0	59	18878
2026-01-13 11:45:35.01	219.65	5.22	-44.1	-58.3	3.8	1.49e+00	0	54	104	0	59	18863
2026-01-13 11:45:36.02	219.76	5.27	-44.0	-58.2	3.8	1.49e+00	0	54	104	0	59	18717
2026-01-13 11:45:37.03	219.86	5.33	-44.1	-58.3	3.8	1.49e+00	0	54	104	0	59	18783
2026-01-13 11:45:38.04	219.96	5.38	-44.1	-58.2	3.8	1.49e+00	0	54	104	0	59	18724
2026-01-13 11:45:39.05	220.06	5.44	-44.1	-58.3	3.8	1.49e+00	0	54	104	0	59	18807
2026-01-13 11:45:40.06	220.16	5.50	-44.1	-58.3	3.8	1.49e+00	0	54	104	0	59	18817
2026-01-13 11:45:41.07	220.26	5.55	-44.1	-58.2	3.8	1.49e+00	0	54	104	0	59	18674
2026-01-13 11:45:42.08	220.37	5.61	-44.1	-58.3	3.8	1.49e+00	0	54	104	0	59	18798
2026-01-13 11:45:43.09	220.47	5.66	-44.0	-58.2	3.8	1.49e+00	0	54	104	0	59	18664
2026-01-13 11:45:44.10	220.57	5.72	-44.1	-58.2	3.8	1.49e+00	0	54	104	0	59	18567
2026-01-13 11:45:45.11	220.68	5.78	-44.1	-58.1	3.8	1.49e+00	0	54	104	0	59	18494
2026-01-13 11:45:46.12	220.78	5.83	-44.0	-58.1	3.8	1.49e+00	0	54	104	0	59	18370
2026-01-13 11:45:47.13	220.89	5.89	-44.1	-58.0	3.8	1.49e+00	0	54	104	0	59	18278
2026-01-13 11:45:48.14	220.99	5.94	-44.1	-58.0	3.8	1.49e+00	0	54	104	0	59	18199
2026-01-13 11:45:49.15	221.10	6.00	-44.1	-57.9	3.8	1.49e+00	0	54	104	0	59	18080
2026-01-13 11:45:50.16	221.21	6.06	-44.1	-57.9	3.8	1.49e+00	0	55	104	0	59	17980
2026-01-13 11:45:51.17	221.31	6.11	-44.0	-57.8	3.8	1.49e+00	0	55	104	0	59	17858
2026-01-13 11:45:52.18	221.42	6.17	-44.0	-57.7	3.8	1.49e+00	0	54	104	0	59	17508
2026-01-13 11:45:53.19	221.53	6.23	-44.0	-57.4	3.8	1.49e+00	0	55	104	0	59	17026
2026-01-13 11:45:54.20	221.63	6.28	-44.0	-57.0	3.8	1.49e+00	0	55	104	0	59	16260
2026-01-13 11:45:55.21	221.74	6.34	-44.0	-56.7	3.8	1.49e+00	0	55	104	0	59	15602
2026-01-13 11:45:56.22	221.85	6.40	-43.9	-56.3	3.8	1.48e+00	0	55	104	0	59	14984
2026-01-13 11:45:57.23	221.96	6.45	-43.9	-56.0	4.0	1.49e+00	0	55	104	0	59	14530
2026-01-13 11:45:58.24	222.07	6.51	-43.9	-55.8	3.8	1.48e+00	0	55	104	0	59	14194
2026-01-13 11:45:59.25	222.18	6.56	-43.9	-55.3	4.1	1.47e+00	0	55	0	0	59	13412
2026-01-13 11:46:00.26	222.29	6.62	-43.8	-54.9	4.2	1.45e+00	0	55	0	0	59	12734
2026-01-13 11:46:01.27	222.40	6.68	-43.8	-54.5	4.3	1.36e+00	0	55	0	0	59	12147
2026-01-13 11:46:02.28	222.51	6.74	-43.8	-54.0	4.4	1.26e+00	0	55	0	1048576	59	11523
2026-01-13 11:46:03.29	222.62	6.79	-43.7	-53.8	4.5	1.05e+00	0	55	0	3145728	59	11245
2026-01-13 11:46:04.30	222.73	6.85	-43.7	-53.4	4.7	9.46e-01	0	55	0	5242880	59	10715
2026-01-13 11:46:05.31	222.85	6.91	-43.6	-52.9	5.0	7.96e-01	0	55	0	7340032	59	10075
2026-01-13 11:46:06.32	222.96	6.96	-43.6	-52.6	5.1	6.38e-01	0	55	0	8388608	59	9760
2026-01-13 11:46:07.33	223.07	7.02	-43.5	-52.4	5.2	6.00e-01	0	55	0	10485760	59	9583
2026-01-13 11:46:08.34	223.18	7.08	-43.5	-52.4	5.3	6.06e-01	0	55	0	12582912	59	9504
2026-01-13 11:46:09.35	223.30	7.13	-43.5	-52.4	5.2	5.90e-01	0	55	0	14680064	59	9530
2026-01-13 11:46:10.36	223.41	7.19	-43.6	-52.5	5.2	5.79e-01	0	55	0	16777216	59	9633
2026-01-13 11:46:11.37	223.53	7.25	-43.6	-52.7	5.0	6.49e-01	0	55	0	17825792	59	9890
2026-01-13 11:46:12.39	223.64	7.30	-43.6	-52.8	5.0	6.72e-01	0	55	0	19922944	58	10543
2026-01-13 11:46:13.39	223.76	7.36	-43.6	-53.0	4.9	7.41e-01	0	55	0	22020096	58	10790
2026-01-13 11:46:14.40	223.87	7.42	-43.6	-53.1	4.8	7.67e-01	0	55	0	24117248	58	10939
2026-01-13 11:46:15.41	223.99	7.48	-43.6	-52.8	5.0	7.27e-01	0	55	0	26214400	58	10585
2026-01-13 11:46:16.42	224.11	7.53	-43.5	-52.2	5.3	6.52e-01	0	56	0	27262976	58	9931
2026-01-13 11:46:17.43	224.23	7.59	-43.4	-51.8	5.6	4.70e-01	0	55	0	29360128	58	9463
2026-01-13 11:46:18.45	224.34	7.65	-43.3	-51.1	6.1	3.48e-01	0	56	0	31457280	58	8744
2026-01-13 11:46:19.46	224.46	7.71	-43.2	-50.8	6.3	2.63e-01	0	56	0	33554432	58	8411
2026-01-13 11:46:20.47	224.58	7.76	-43.1	-50.3	6.8	1.90e-01	0	56	0	35651584	58	7974
2026-01-13 11:46:21.48	224.70	7.82	-43.1	-50.1	6.9	1.56e-01	0	56	0	36700160	58	7802
2026-01-13 11:46:22.49	224.82	7.88	-43.2	-50.3	6.8	1.76e-01	0	56	0	38797312	58	7967
2026-01-13 11:46:23.50	224.94	7.93	-43.1	-50.3	6.8	1.67e-01	0	56	0	40894464	58	7940
2026-01-13 11:46:24.51	225.06	7.99	-43.2	-50.7	6.5	2.07e-01	0	56	0	42991616	58	8316
2026-01-13 11:46:25.52	225.18	8.05	-43.0	-49.7	7.3	2.56e-01	0	56	0	45088768	58	7412
2026-01-13 11:46:26.53	225.30	8.11	-43.7	-54.1	4.6	7.78e-02	0	56	0	46137344	57	13056
2026-01-13 11:46:27.54	225.43	8.16	-43.4	-51.4	4.4	1.49e+00	0	56	104	46137344	58	8987
2026-01-13 11:46:28.54	225.55	8.22	-43.0	-49.4	7.7	2.68e-01	0	56	0	46137344	57	7626
2026-01-13 11:46:29.55	225.67	8.28	-42.8	-48.9	8.4	8.85e-02	0	56	0	48234496	57	7157
2026-01-13 11:46:30.56	225.79	8.34	-43.4	-51.4	5.8	1.37e+00	0	56	104	49283072	58	8994
2026-01-13 11:46:31.57	225.92	8.39	-42.8	-48.7	8.4	6.26e-02	0	56	0	50331648	57	7021
2026-01-13 11:46:32.58	226.04	8.45	-42.7	-48.4	8.8	4.10e-02	0	56	0	52428800	57	6772
2026-01-13 11:46:33.59	226.17	8.51	-42.7	-48.4	8.8	3.11e-02	0	56	0	54525952	57	6740
2026-01-13 11:46:34.60	226.29	8.57	-42.6	-48.1	9.1	2.38e-02	0	56	0	56623104	57	6532
2026-01-13 11:46:35.61	226.42	8.62	-42.5	-47.8	9.3	2.15e-02	0	56	0	58720256	57	6347
2026-01-13 11:46:36.62	226.54	8.68	-42.6	-48.0	9.3	1.90e-02	0	56	0	59768832	57	6421
2026-01-13 11:46:37.63	226.67	8.74	-42.6	-47.8	9.4	1.63e-02	0	56	0	61865984	57	6335
2026-01-13 11:46:38.64	226.80	8.80	-42.6	-47.8	9.4	1.87e-02	0	56	0	63963136	57	6295
2026-01-13 11:46:39.65	226.93	8.85	-42.5	-47.7	9.5	1.35e-02	0	56	0	66060288	56	6610
2026-01-13 11:46:40.65	227.05	8.91	-42.5	-47.6	9.6	1.17e-02	0	56	0	67108864	56	6567
2026-01-13 11:46:41.66	227.18	8.97	-42.6	-47.8	9.5	1.45e-02	0	56	0	69206016	56	6661
2026-01-13 11:46:42.67	227.31	9.03	-42.5	-47.7	9.5	1.39e-02	0	56	0	71303168	56	6627
2026-01-13 11:46:43.68	227.44	9.08	-42.6	-47.9	9.4	1.71e-02	0	56	0	73400320	56	6726
2026-01-13 11:46:44.69	227.57	9.14	-42.6	-47.9	9.3	1.68e-02	0	56	0	75497472	56	6777
2026-01-13 11:46:45.70	227.70	9.20	-42.7	-48.0	9.2	1.57e-02	0	56	0	76546048	56	6871
2026-01-13 11:46:46.71	227.83	9.26	-42.6	-48.0	9.3	1.70e-02	0	57	0	78643200	56	6822
2026-01-13 11:46:47.72	227.96	9.32	-42.7	-48.1	9.2	1.98e-02	0	56	0	80740352	56	6906
2026-01-13 11:46:48.73	228.10	9.37	-42.6	-47.7	9.5	1.79e-02	0	57	0	82837504	56	6644
2026-01-13 11:46:49.74	228.23	9.43	-42.5	-47.7	9.6	1.47e-02	0	57	0	84934656	56	6606
2026-01-13 11:46:50.75	228.36	9.49	-42.6	-47.7	9.6	1.25e-02	0	57	0	87031808	56	6587
2026-01-13 11:46:51.76	228.50	9.55	-42.5	-47.6	9.7	1.27e-02	0	57	0	88080384	56	6530
2026-01-13 11:46:52.76	228.63	9.60	-42.6	-47.7	9.6	1.34e-02	0	57	0	90177536	56	6625
2026-01-13 11:46:53.78	228.76	9.66	-42.6	-47.7	9.6	1.25e-02	0	57	0	92274688	56	6628
2026-01-13 11:46:54.78	228.90	9.72	-42.6	-47.7	9.6	1.25e-02	0	57	0	94371840	56	6637
2026-01-13 11:46:55.79	229.03	9.78	-42.5	-47.7	9.6	1.46e-02	0	57	0	96468992	56	6593
2026-01-13 11:46:56.80	229.17	9.83	-42.6	-47.8	9.5	1.37e-02	0	57	0	97517568	56	6696
2026-01-13 11:46:57.81	229.31	9.89	-42.5	-47.6	9.7	1.19e-02	0	57	0	99614720	56	6559
2026-01-13 11:46:58.82	229.44	9.95	-42.6	-47.9	9.5	1.39e-02	0	57	0	101711872	56	6734
2026-01-13 11:46:59.83	229.58	10.01	-42.6	-47.9	9.4	1.64e-02	0	57	0	103809024	56	6772
2026-01-13 11:47:00.84	229.72	10.06	-42.6	-47.9	9.5	1.52e-02	0	57	0	105906176	56	6732
2026-01-13 11:47:01.85	229.86	10.12	-42.6	-48.0	9.3	1.57e-02	0	57	0	106954752	56	6836
2026-01-13 11:47:02.86	230.00	10.18	-42.7	-48.1	9.3	1.95e-02	0	57	0	109051904	56	6910
2026-01-13 11:47:03.87	230.14	10.24	-42.7	-48.1	9.3	1.87e-02	0	57	0	111149056	56	6905
2026-01-13 11:47:04.88	230.28	10.30	-42.7	-48.1	9.3	1.69e-02	0	57	0	113246208	56	6889
2026-01-13 11:47:05.89	230.42	10.35	-42.8	-48.2	9.1	1.93e-02	0	57	0	115343360	56	7039
2026-01-13 11:47:06.90	230.56	10.41	-42.6	-47.9	9.4	1.84e-02	0	57	0	116391936	56	6795
2026-01-13 11:47:07.91	230.70	10.47	-42.6	-47.9	9.5	1.56e-02	0	57	0	118489088	56	6733
2026-01-13 11:47:08.92	230.85	10.53	-42.7	-47.9	9.5	1.32e-02	0	57	0	120586240	56	6755
2026-01-13 11:47:09.93	230.99	10.58	-42.6	-47.6	9.7	1.20e-02	0	57	0	122683392	56	6567
2026-01-13 11:47:10.94	231.13	10.64	-42.6	-47.8	9.6	1.16e-02	0	57	0	124780544	56	6647
2026-01-13 11:47:11.95	231.28	10.70	-42.6	-47.6	9.8	1.08e-02	0	57	0	125829120	56	6525
2026-01-13 11:47:12.96	231.42	10.76	-42.6	-47.8	9.6	1.21e-02	0	57	0	127926272	56	6656
2026-01-13 11:47:13.97	231.57	10.81	-42.6	-47.8	9.6	9.92e-03	0	57	0	130023424	56	6647
2026-01-13 11:47:14.98	231.71	10.87	-42.7	-47.9	9.5	1.13e-02	0	57	0	132120576	56	6728
2026-01-13 11:47:15.99	231.86	10.93	-42.6	-47.6	9.8	1.10e-02	0	57	0	134217728	56	6552
2026-01-13 11:47:17.00	232.01	10.98	-42.6	-47.6	9.9	9.69e-03	0	57	0	135266304	56	6501
2026-01-13 11:47:18.00	232.15	11.04	-42.7	-47.8	9.7	1.07e-02	0	57	0	137363456	56	6659
2026-01-13 11:47:19.01	232.30	11.10	-42.6	-47.5	9.9	1.01e-02	0	57	0	139460608	56	6485
2026-01-13 11:47:20.02	232.45	11.16	-42.6	-47.5	10.0	9.93e-03	0	57	0	141557760	56	6459
2026-01-13 11:47:21.03	232.60	11.21	-42.6	-47.6	9.8	9.45e-03	0	57	0	143654912	56	6519
2026-01-13 11:47:22.04	232.75	11.27	-42.5	-47.3	10.1	8.26e-03	0	57	0	144703488	56	6347
2026-01-13 11:47:23.05	232.90	11.33	-42.5	-47.2	10.3	7.05e-03	0	57	0	146800640	56	6253
2026-01-13 11:47:24.06	233.05	11.38	-42.5	-47.3	10.1	6.92e-03	0	57	0	148897792	56	6332
2026-01-13 11:47:25.07	233.20	11.44	-42.5	-47.3	10.2	6.48e-03	0	57	0	150994944	56	6283
2026-01-13 11:47:26.08	233.36	11.50	-42.4	-47.1	10.3	4.62e-03	0	57	0	153092096	56	6188
2026-01-13 11:47:27.09	233.51	11.56	-42.5	-47.2	10.2	5.36e-03	0	57	0	155189248	56	6270
2026-01-13 11:47:28.10	233.66	11.61	-42.5	-47.2	10.3	5.32e-03	0	57	0	156237824	56	6238
2026-01-13 11:47:29.11	233.82	11.67	-42.5	-47.3	10.2	6.27e-03	0	58	0	158334976	56	6323
2026-01-13 11:47:30.12	233.97	11.73	-42.5	-47.3	10.2	5.98e-03	0	57	0	160432128	56	6314
2026-01-13 11:47:31.12	234.12	11.78	-42.6	-47.5	10.0	6.58e-03	0	57	0	162529280	56	6455
2026-01-13 11:47:32.14	234.28	11.84	-42.5	-47.3	10.2	6.78e-03	0	57	0	164626432	56	6311
2026-01-13 11:47:33.15	234.44	11.90	-42.6	-47.6	9.9	6.78e-03	0	57	0	165675008	56	6522
2026-01-13 11:47:34.16	234.59	11.95	-42.6	-47.5	10.0	7.38e-03	0	57	0	167772160	56	6493
2026-01-13 11:47:35.17	234.75	12.01	-42.7	-47.8	9.7	8.62e-03	0	57	0	169869312	56	6648
2026-01-13 11:47:36.18	234.91	12.06	-42.7	-47.8	9.7	1.01e-02	0	57	0	171966464	56	6652
2026-01-13 11:47:37.19	235.07	12.12	-42.7	-47.7	9.8	1.04e-02	0	57	0	174063616	56	6620
2026-01-13 11:47:38.20	235.23	12.18	-42.7	-47.7	9.8	1.04e-02	0	58	0	175112192	56	6600
2026-01-13 11:47:39.21	235.39	12.23	-42.6	-47.5	10.1	9.59e-03	0	58	0	177209344	56	6423
2026-01-13 11:47:40.22	235.55	12.29	-42.7	-47.6	9.9	7.91e-03	0	57	0	179306496	56	6533
2026-01-13 11:47:41.23	235.71	12.35	-42.6	-47.5	10.0	7.86e-03	0	58	0	181403648	56	6469
2026-01-13 11:47:42.24	235.87	12.40	-42.6	-47.4	10.1	6.97e-03	0	58	0	183500800	56	6404
2026-01-13 11:47:43.25	236.03	12.46	-42.6	-47.5	10.1	7.11e-03	0	57	0	184549376	56	6430
2026-01-13 11:47:44.25	236.19	12.51	-42.6	-47.4	10.2	5.43e-03	0	58	0	186646528	56	6371
2026-01-13 11:47:45.27	236.36	12.57	-42.5	-47.2	10.3	5.87e-03	0	57	0	188743680	56	6251
2026-01-13 11:47:46.27	236.52	12.62	-42.5	-47.1	10.4	5.98e-03	0	57	0	190840832	56	6197
2026-01-13 11:47:47.28	236.68	12.68	-42.6	-47.6	10.0	6.84e-03	0	58	0	192937984	56	6499
2026-01-13 11:47:48.29	236.85	12.73	-42.5	-47.3	10.3	6.09e-03	0	58	0	193986560	56	6280
2026-01-13 11:47:49.30	237.01	12.79	-42.5	-47.1	10.4	5.62e-03	0	58	0	196083712	56	6202
2026-01-13 11:47:50.31	237.18	12.85	-42.4	-47.0	10.6	4.79e-03	0	58	0	198180864	56	6067
2026-01-13 11:47:51.32	237.35	12.90	-42.4	-46.9	10.7	2.53e-03	0	58	0	200278016	56	5994
2026-01-13 11:47:52.33	237.51	12.96	-42.3	-46.7	10.9	1.94e-03	0	58	0	202375168	56	5861
2026-01-13 11:47:53.34	237.68	13.01	-42.2	-46.5	11.1	1.39e-03	0	58	0	203423744	56	5738
2026-01-13 11:47:54.35	237.85	13.07	-42.2	-46.4	11.2	1.39e-03	0	58	0	205520896	56	5700
2026-01-13 11:47:55.36	238.02	13.12	-42.1	-46.3	11.3	1.18e-03	0	58	0	207618048	56	5635
2026-01-13 11:47:56.37	238.19	13.17	-42.2	-46.5	11.1	1.37e-03	0	58	0	209715200	56	5757
2026-01-13 11:47:57.38	238.36	13.23	-42.2	-46.5	11.2	1.32e-03	0	58	0	211812352	56	5732
2026-01-13 11:47:58.39	238.53	13.28	-42.3	-46.7	11.0	1.66e-03	0	58	0	212860928	56	5857
2026-01-13 11:47:59.40	238.70	13.34	-42.4	-46.8	10.8	2.27e-03	0	58	0	214958080	56	5985
2026-01-13 11:48:00.41	238.88	13.39	-42.4	-46.9	10.8	2.62e-03	0	58	0	217055232	56	6007
2026-01-13 11:48:01.42	239.05	13.45	-42.5	-47.0	10.6	2.77e-03	0	58	0	219152384	56	6093
2026-01-13 11:48:02.43	239.22	13.50	-42.5	-47.1	10.5	3.48e-03	0	58	0	221249536	56	6134
2026-01-13 11:48:03.44	239.40	13.55	-42.4	-46.9	10.8	3.11e-03	0	58	0	223346688	56	6011
2026-01-13 11:48:04.45	239.57	13.61	-42.4	-46.8	10.9	2.20e-03	0	58	0	224395264	56	5948
2026-01-13 11:48:05.46	239.75	13.66	-42.3	-46.6	11.0	2.24e-03	0	58	0	226492416	56	5844
2026-01-13 11:48:06.47	239.92	13.72	-42.3	-46.5	11.1	1.71e-03	0	58	0	228589568	56	5784
2026-01-13 11:48:07.48	240.10	13.77	-42.2	-46.5	11.2	1.29e-03	0	58	0	230686720	56	5736
2026-01-13 11:48:08.49	240.28	13.82	-42.2	-46.4	11.3	1.30e-03	0	58	0	232783872	56	5677
2026-01-13 11:48:09.50	240.46	13.88	-42.3	-46.5	11.2	1.27e-03	0	58	0	233832448	56	5750
2026-01-13 11:48:10.51	240.63	13.93	-42.2	-46.4	11.3	1.35e-03	0	58	0	235929600	56	5693
2026-01-13 11:48:11.51	240.81	13.98	-42.2	-46.3	11.3	1.12e-03	0	58	0	238026752	56	5640
2026-01-13 11:48:12.52	240.99	14.03	-42.2	-46.4	11.3	1.18e-03	0	58	0	240123904	56	5683
2026-01-13 11:48:13.53	241.17	14.09	-42.2	-46.5	11.2	1.12e-03	0	58	0	242221056	56	5723
2026-01-13 11:48:14.54	241.35	14.14	-42.2	-46.4	11.2	1.26e-03	0	58	0	243269632	56	5708
2026-01-13 11:48:15.55	241.53	14.19	-42.3	-46.5	11.2	1.29e-03	0	58	0	245366784	56	5734
2026-01-13 11:48:16.56	241.72	14.24	-42.4	-46.7	11.0	1.57e-03	0	58	0	247463936	56	5892
2026-01-13 11:48:17.57	241.90	14.29	-42.3	-46.6	11.0	1.74e-03	0	58	0	249561088	56	5854
2026-01-13 11:48:18.58	242.08	14.35	-42.4	-46.7	11.0	1.99e-03	0	58	0	251658240	56	5899
2026-01-13 11:48:19.59	242.27	14.40	-42.4	-46.9	10.8	2.15e-03	0	58	0	252706816	56	6000
2026-01-13 11:48:20.60	242.45	14.45	-42.4	-46.8	10.9	2.09e-03	0	58	0	254803968	56	5955
2026-01-13 11:48:21.61	242.64	14.50	-42.4	-46.9	10.8	2.69e-03	0	58	0	256901120	56	5993
2026-01-13 11:48:22.62	242.82	14.55	-42.4	-46.7	10.9	2.40e-03	0	58	0	258998272	56	5915
2026-01-13 11:48:23.63	243.01	14.60	-42.3	-46.6	11.1	1.83e-03	0	58	0	261095424	56	5819
2026-01-13 11:48:24.64	243.20	14.65	-42.3	-46.6	11.1	1.58e-03	0	58	0	262144000	56	5798
2026-01-13 11:48:25.64	243.38	14.70	-42.3	-46.6	11.1	1.71e-03	0	58	0	264241152	56	5822
2026-01-13 11:48:26.65	243.57	14.75	-42.3	-46.6	11.1	1.85e-03	0	58	0	266338304	56	5789
2026-01-13 11:48:27.66	243.76	14.80	-42.4	-46.7	11.0	1.61e-03	0	58	0	268435456	56	5865
2026-01-13 11:48:28.67	243.95	14.85	-42.4	-46.9	10.8	2.01e-03	0	58	0	270532608	56	6008
2026-01-13 11:48:29.68	244.14	14.90	-42.6	-47.1	10.5	2.65e-03	0	58	0	271581184	56	6202
2026-01-13 11:48:30.69	244.33	14.95	-42.6	-47.3	10.4	4.30e-03	0	58	0	273678336	56	6286
2026-01-13 11:48:31.70	244.52	15.00	-42.5	-47.1	10.6	4.00e-03	0	58	0	275775488	56	6167
2026-01-13 11:48:32.71	244.71	15.05	-42.6	-47.2	10.5	4.19e-03	0	58	0	277872640	56	6232
2026-01-13 11:48:33.72	244.91	15.10	-42.6	-47.2	10.4	4.29e-03	0	58	0	279969792	56	6270
2026-01-13 11:48:34.73	245.10	15.15	-42.5	-47.1	10.6	3.81e-03	0	58	0	281018368	56	6152
2026-01-13 11:48:35.74	245.29	15.20	-42.6	-47.2	10.5	3.66e-03	0	58	0	283115520	56	6219
2026-01-13 11:48:36.75	245.49	15.25	-42.6	-47.2	10.4	5.04e-03	0	58	0	285212672	56	6266
2026-01-13 11:48:37.76	245.68	15.29	-42.6	-47.2	10.5	5.38e-03	0	58	0	287309824	56	6235
2026-01-13 11:48:38.77	245.88	15.34	-42.7	-47.5	10.1	5.29e-03	0	58	0	289406976	56	6463
2026-01-13 11:48:39.78	246.08	15.39	-42.8	-47.8	9.9	7.31e-03	0	58	0	291504128	56	6654
2026-01-13 11:48:40.79	246.27	15.44	-42.8	-47.7	9.9	9.55e-03	0	59	0	292552704	56	6632
2026-01-13 11:48:41.80	246.47	15.48	-42.9	-48.0	9.7	1.13e-02	0	58	0	294649856	56	6815
2026-01-13 11:48:42.81	246.67	15.53	-42.8	-47.6	10.0	1.07e-02	0	58	0	296747008	56	6555
2026-01-13 11:48:43.81	246.87	15.58	-42.8	-47.7	10.0	8.78e-03	0	58	0	298844160	56	6611
2026-01-13 11:48:44.82	247.07	15.62	-42.8	-47.8	9.9	7.87e-03	0	58	0	300941312	56	6656
2026-01-13 11:48:45.83	247.27	15.67	-42.8	-47.6	10.0	6.77e-03	0	58	0	301989888	56	6544
2026-01-13 11:48:46.84	247.47	15.72	-42.7	-47.5	10.1	6.53e-03	0	58	0	304087040	56	6477
2026-01-13 11:48:47.85	247.67	15.76	-42.7	-47.6	10.1	7.22e-03	0	58	0	306184192	56	6502
2026-01-13 11:48:48.86	247.87	15.81	-42.7	-47.5	10.1	6.28e-03	0	58	0	308281344	56	6455
2026-01-13 11:48:49.87	248.07	15.85	-42.7	-47.6	10.1	6.81e-03	0	58	0	310378496	56	6497
2026-01-13 11:48:50.88	248.28	15.90	-42.7	-47.6	10.1	6.78e-03	0	58	0	311427072	56	6508
2026-01-13 11:48:51.89	248.48	15.94	-42.7	-47.4	10.2	4.91e-03	0	58	0	313524224	56	6391
2026-01-13 11:48:52.90	248.68	15.99	-42.8	-47.7	10.1	5.50e-03	0	58	0	315621376	56	6571
2026-01-13 11:48:53.91	248.89	16.03	-42.8	-47.8	9.9	8.12e-03	0	58	0	317718528	56	6647
2026-01-13 11:48:54.92	249.09	16.08	-42.9	-47.9	9.7	7.20e-03	0	58	0	319815680	56	6764
2026-01-13 11:48:55.93	249.30	16.12	-42.9	-47.9	9.8	1.03e-02	0	58	0	320864256	56	6795
2026-01-13 11:48:56.94	249.51	16.16	-42.9	-48.0	9.7	1.12e-02	0	58	0	322961408	56	6829
2026-01-13 11:48:57.95	249.71	16.21	-42.9	-47.8	9.8	9.99e-03	0	58	0	325058560	56	6722
2026-01-13 11:48:58.96	249.92	16.25	-42.8	-47.8	9.8	9.53e-03	0	58	0	327155712	56	6715
2026-01-13 11:48:59.97	250.13	16.29	-42.7	-47.5	10.2	7.06e-03	0	58	0	329252864	56	6473
2026-01-13 11:49:00.98	250.34	16.34	-42.8	-47.7	10.0	5.47e-03	0	58	0	330301440	56	6611
2026-01-13 11:49:01.99	250.55	16.38	-42.7	-47.6	10.1	6.89e-03	0	58	0	332398592	56	6519
2026-01-13 11:49:03.00	250.76	16.42	-42.8	-47.7	10.0	7.17e-03	0	58	0	334495744	56	6575
2026-01-13 11:49:04.00	250.97	16.46	-42.9	-48.1	9.6	1.01e-02	0	58	0	336592896	56	6891
2026-01-13 11:49:05.01	251.18	16.50	-43.0	-48.1	9.5	1.35e-02	0	58	0	338690048	56	6946
2026-01-13 11:49:06.02	251.39	16.54	-43.0	-48.3	9.3	1.86e-02	0	59	0	339738624	56	7061
2026-01-13 11:49:07.03	251.60	16.58	-43.0	-48.1	9.5	1.49e-02	0	58	0	341835776	56	6938
2026-01-13 11:49:08.04	251.81	16.62	-42.9	-47.9	9.7	1.28e-02	0	59	0	343932928	56	6787
2026-01-13 11:49:09.05	252.03	16.66	-42.9	-47.9	9.7	1.13e-02	0	58	0	346030080	56	6787
2026-01-13 11:49:10.06	252.24	16.70	-42.9	-47.8	9.8	9.87e-03	0	58	0	348127232	56	6698
2026-01-13 11:49:11.07	252.46	16.74	-42.8	-47.8	10.0	9.42e-03	0	58	0	349175808	56	6662
2026-01-13 11:49:12.08	252.67	16.78	-42.8	-47.8	9.9	8.35e-03	0	59	0	351272960	56	6648
2026-01-13 11:49:13.09	252.89	16.82	-42.9	-47.9	9.7	1.11e-02	0	59	0	353370112	56	6758
2026-01-13 11:49:14.10	253.10	16.86	-42.8	-47.6	10.0	1.00e-02	0	59	0	355467264	56	6546
2026-01-13 11:49:15.11	253.32	16.90	-42.7	-47.5	10.2	8.25e-03	0	59	0	357564416	56	6425
2026-01-13 11:49:16.12	253.54	16.93	-42.7	-47.4	10.3	6.19e-03	0	59	0	359661568	56	6409
2026-01-13 11:49:17.13	253.75	16.97	-42.6	-47.2	10.5	4.31e-03	0	59	0	360710144	56	6224
2026-01-13 11:49:18.14	253.97	17.01	-42.6	-47.2	10.5	4.00e-03	0	59	0	362807296	56	6249
2026-01-13 11:49:19.15	254.19	17.05	-42.6	-47.1	10.5	5.06e-03	0	59	0	364904448	56	6202
2026-01-13 11:49:20.16	254.41	17.08	-42.7	-47.4	10.3	5.02e-03	0	59	0	367001600	56	6389
2026-01-13 11:49:21.17	254.63	17.12	-42.9	-47.8	9.8	9.85e-03	0	59	0	369098752	56	6719
2026-01-13 11:49:22.18	254.85	17.15	-42.9	-47.9	9.7	1.10e-02	0	58	0	370147328	56	6770
2026-01-13 11:49:23.19	255.07	17.19	-42.9	-47.8	9.8	9.18e-03	0	59	0	372244480	56	6718
2026-01-13 11:49:24.20	255.29	17.22	-42.8	-47.7	9.9	7.95e-03	0	59	0	374341632	56	6630
2026-01-13 11:49:25.20	255.51	17.26	-42.6	-47.3	10.4	6.65e-03	0	59	0	376438784	56	6291
2026-01-13 11:49:26.21	255.73	17.29	-42.6	-47.2	10.5	3.88e-03	0	58	0	378535936	56	6226
2026-01-13 11:49:27.22	255.96	17.33	-42.5	-47.0	10.7	2.87e-03	0	58	0	379584512	56	6098
2026-01-13 11:49:28.23	256.18	17.36	-42.4	-46.8	10.9	2.56e-03	0	59	0	381681664	56	5947
2026-01-13 11:49:29.24	256.40	17.39	-42.5	-46.9	10.9	2.16e-03	0	59	0	383778816	56	5999
2026-01-13 11:49:30.25	256.63	17.43	-42.6	-47.1	10.6	2.63e-03	0	59	0	385875968	56	6185
2026-01-13 11:49:31.26	256.85	17.46	-42.7	-47.3	10.4	3.07e-03	0	58	0	387973120	56	6318
2026-01-13 11:49:32.27	257.08	17.49	-42.6	-47.3	10.5	4.46e-03	0	59	0	389021696	56	6288
2026-01-13 11:49:33.28	257.30	17.52	-42.7	-47.4	10.3	4.97e-03	0	58	0	391118848	56	6369
2026-01-13 11:49:34.29	257.53	17.55	-42.6	-47.3	10.4	4.68e-03	0	59	0	393216000	56	6287
2026-01-13 11:49:35.30	257.75	17.58	-42.6	-47.1	10.6	3.78e-03	0	59	0	395313152	56	6165
2026-01-13 11:49:36.31	257.98	17.61	-42.7	-47.3	10.4	3.85e-03	0	59	0	397410304	56	6329
2026-01-13 11:49:37.32	258.21	17.64	-42.6	-47.2	10.5	3.93e-03	0	59	0	398458880	56	6273
2026-01-13 11:49:38.33	258.44	17.67	-42.5	-47.0	10.7	3.14e-03	0	59	0	400556032	56	6112
2026-01-13 11:49:39.34	258.66	17.70	-42.5	-46.9	10.9	2.49e-03	0	59	0	402653184	56	6014
2026-01-13 11:49:40.35	258.89	17.73	-42.5	-46.9	10.9	2.23e-03	0	59	0	404750336	56	6010
2026-01-13 11:49:41.36	259.12	17.76	-42.3	-46.6	11.2	1.79e-03	0	59	0	406847488	56	5792
2026-01-13 11:49:42.37	259.35	17.79	-42.3	-46.4	11.3	1.25e-03	0	59	0	407896064	56	5691
2026-01-13 11:49:43.37	259.58	17.81	-42.2	-46.2	11.6	7.62e-04	0	59	0	409993216	56	5568
2026-01-13 11:49:44.38	259.81	17.84	-42.2	-46.3	11.5	7.07e-04	0	59	0	412090368	56	5618
2026-01-13 11:49:45.39	260.04	17.87	-42.3	-46.5	11.2	1.06e-03	0	59	0	414187520	56	5776
2026-01-13 11:49:46.40	260.27	17.90	-42.5	-47.0	10.8	2.11e-03	0	59	0	416284672	56	6070
2026-01-13 11:49:47.41	260.50	17.92	-42.5	-47.1	10.6	2.82e-03	0	59	0	417333248	56	6154
2026-01-13 11:49:48.42	260.73	17.95	-42.5	-47.0	10.8	3.32e-03	0	59	0	419430400	56	6087
2026-01-13 11:49:49.43	260.97	17.97	-42.5	-47.0	10.8	2.70e-03	0	59	0	421527552	56	6100
2026-01-13 11:49:50.44	261.20	18.00	-42.4	-46.8	11.0	2.20e-03	0	59	0	423624704	56	5941
2026-01-13 11:49:51.45	261.43	18.02	-42.4	-46.7	11.0	1.99e-03	0	59	0	425721856	56	5917
2026-01-13 11:49:52.46	261.66	18.04	-42.4	-46.7	11.1	1.73e-03	0	59	0	426770432	56	5893
2026-01-13 11:49:53.47	261.90	18.07	-42.4	-46.8	11.0	1.76e-03	0	59	0	428867584	56	5926
2026-01-13 11:49:54.48	262.13	18.09	-42.4	-46.7	11.1	1.74e-03	0	59	0	430964736	56	5869
2026-01-13 11:49:55.49	262.37	18.11	-42.3	-46.5	11.3	1.40e-03	0	59	0	433061888	56	5729
2026-01-13 11:49:56.50	262.60	18.14	-42.2	-46.4	11.5	1.20e-03	0	59	0	435159040	56	5660
2026-01-13 11:49:57.51	262.84	18.16	-42.0	-45.8	12.0	6.03e-04	0	59	0	436207616	56	5321
2026-01-13 11:49:58.52	263.07	18.18	-42.1	-46.0	11.8	3.80e-04	0	59	0	438304768	56	5462
2026-01-13 11:49:59.53	263.31	18.20	-42.1	-46.1	11.6	4.68e-04	0	59	0	440401920	56	5505
2026-01-13 11:50:00.53	263.54	18.22	-42.3	-46.4	11.4	8.24e-04	0	59	0	442499072	56	5685
2026-01-13 11:50:01.54	263.78	18.24	-42.3	-46.6	11.2	1.30e-03	0	59	0	444596224	56	5789
2026-01-13 11:50:02.55	264.01	18.26	-42.4	-46.6	11.1	1.63e-03	0	59	0	445644800	56	5838
2026-01-13 11:50:03.56	264.25	18.28	-42.3	-46.4	11.4	1.35e-03	0	59	0	447741952	56	5684
2026-01-13 11:50:04.57	264.49	18.29	-42.2	-46.3	11.5	9.82e-04	0	59	0	449839104	56	5617
2026-01-13 11:50:05.58	264.72	18.31	-42.1	-46.1	11.7	5.97e-04	0	59	0	451936256	56	5504
2026-01-13 11:50:06.59	264.96	18.33	-42.2	-46.2	11.5	6.74e-04	0	59	0	454033408	56	5592
2026-01-13 11:50:07.60	265.20	18.35	-42.3	-46.5	11.3	9.67e-04	0	59	0	456130560	56	5769
2026-01-13 11:50:08.61	265.44	18.36	-42.5	-46.9	10.9	2.12e-03	0	59	0	457179136	56	6037
2026-01-13 11:50:09.62	265.68	18.38	-42.6	-47.2	10.6	3.29e-03	0	59	0	459276288	56	6218
2026-01-13 11:50:10.63	265.91	18.40	-42.6	-47.2	10.5	3.85e-03	0	59	0	461373440	56	6216
2026-01-13 11:50:11.64	266.15	18.41	-42.6	-47.2	10.5	3.71e-03	0	59	0	463470592	56	6239
2026-01-13 11:50:12.65	266.39	18.42	-42.5	-47.0	10.8	2.47e-03	0	59	0	465567744	56	6069
2026-01-13 11:50:13.66	266.63	18.44	-42.5	-46.9	10.9	2.29e-03	0	59	0	466616320	56	5994
2026-01-13 11:50:14.67	266.87	18.45	-42.6	-47.0	10.7	2.56e-03	0	59	0	468713472	56	6128
2026-01-13 11:50:15.68	267.11	18.47	-42.6	-47.2	10.5	3.37e-03	0	59	0	470810624	56	6245
2026-01-13 11:50:16.69	267.35	18.48	-42.7	-47.3	10.4	4.69e-03	0	59	0	472907776	56	6326
2026-01-13 11:50:17.70	267.59	18.49	-42.8	-47.5	10.3	5.26e-03	0	59	0	475004928	56	6462
2026-01-13 11:50:18.71	267.83	18.50	-42.7	-47.4	10.3	5.12e-03	0	59	0	476053504	56	6381
2026-01-13 11:50:19.72	268.07	18.51	-42.6	-47.2	10.6	4.51e-03	0	59	0	478150656	56	6219
2026-01-13 11:50:20.73	268.31	18.52	-42.6	-47.1	10.7	2.93e-03	0	59	0	480247808	56	6166
2026-01-13 11:50:21.74	268.55	18.53	-42.6	-47.2	10.6	3.05e-03	0	59	0	482344960	56	6224
2026-01-13 11:50:22.74	268.79	18.54	-42.7	-47.4	10.3	4.01e-03	0	59	0	484442112	56	6378
2026-01-13 11:50:23.76	269.03	18.55	-42.8	-47.7	10.0	6.15e-03	0	59	0	485490688	56	6609
2026-01-13 11:50:24.77	269.27	18.56	-43.0	-48.1	9.6	1.12e-02	0	59	0	487587840	56	6928
2026-01-13 11:50:25.78	269.52	18.57	-43.0	-48.1	9.7	1.21e-02	0	59	0	489684992	56	6889
2026-01-13 11:50:26.79	269.76	18.58	-42.9	-47.9	9.8	1.12e-02	0	59	0	491782144	56	6777
2026-01-13 11:50:27.80	270.00	18.59	-42.8	-47.7	9.9	9.25e-03	0	59	0	493879296	56	6639
2026-01-13 11:50:28.81	270.24	18.59	-42.8	-47.7	10.0	7.89e-03	0	59	0	494927872	56	6631
2026-01-13 11:50:29.82	270.48	18.60	-42.8	-47.7	10.0	8.26e-03	0	59	0	497025024	56	6622
2026-01-13 11:50:30.83	270.72	18.61	-42.9	-47.9	9.9	8.42e-03	0	59	0	499122176	56	6751
2026-01-13 11:50:31.84	270.97	18.61	-42.9	-47.9	9.8	9.10e-03	0	59	0	501219328	56	6739
2026-01-13 11:50:32.85	271.21	18.62	-42.9	-47.8	9.9	9.54e-03	0	59	0	503316480	56	6658
2026-01-13 11:50:33.85	271.45	18.62	-42.8	-47.6	10.1	6.31e-03	0	59	0	504365056	56	6551
2026-01-13 11:50:34.86	271.69	18.62	-42.6	-47.1	10.6	4.70e-03	0	59	0	506462208	56	6195
2026-01-13 11:50:35.87	271.93	18.63	-42.6	-47.2	10.6	3.55e-03	0	59	0	508559360	56	6221
2026-01-13 11:50:36.88	272.17	18.63	-42.6	-47.0	10.6	3.21e-03	0	59	0	510656512	56	6122
2026-01-13 11:50:37.89	272.41	18.63	-42.6	-47.2	10.5	3.52e-03	0	59	0	512753664	56	6268
2026-01-13 11:50:38.90	272.66	18.63	-42.7	-47.4	10.4	4.49e-03	0	59	0	513802240	56	6358
2026-01-13 11:50:39.91	272.90	18.64	-42.6	-47.2	10.5	4.43e-03	0	59	0	515899392	56	6273
2026-01-13 11:50:40.92	273.14	18.64	-42.6	-47.1	10.6	3.96e-03	0	59	0	517996544	56	6191
2026-01-13 11:50:41.93	273.38	18.64	-42.6	-47.1	10.6	3.43e-03	0	59	0	520093696	56	6192
2026-01-13 11:50:42.94	273.63	18.64	-42.6	-47.1	10.6	3.13e-03	0	59	0	522190848	56	6196
2026-01-13 11:50:43.95	273.87	18.64	-42.6	-47.1	10.6	3.42e-03	0	59	0	524288000	56	6182
2026-01-13 11:50:44.96	274.11	18.64	-42.6	-47.2	10.5	4.03e-03	0	59	0	525336576	56	6217
2026-01-13 11:50:45.97	274.35	18.63	-42.7	-47.3	10.3	4.63e-03	0	59	0	527433728	56	6336
2026-01-13 11:50:46.98	274.59	18.63	-42.8	-47.6	10.1	5.52e-03	0	59	0	529530880	56	6508
2026-01-13 11:50:47.99	274.84	18.63	-42.7	-47.5	10.2	6.56e-03	0	59	0	531628032	56	6464
2026-01-13 11:50:49.00	275.08	18.63	-42.7	-47.5	10.2	6.14e-03	0	59	0	533725184	56	6437
2026-01-13 11:50:50.01	275.32	18.62	-42.8	-47.6	10.1	6.16e-03	0	59	0	534773760	56	6525
2026-01-13 11:50:51.02	275.56	18.62	-42.8	-47.7	10.0	7.20e-03	0	59	0	536870912	56	6646
2026-01-13 11:50:52.02	275.80	18.61	-42.8	-47.8	9.9	7.88e-03	0	59	0	538968064	56	6650
2026-01-13 11:50:53.03	276.04	18.61	-42.9	-47.9	9.8	8.97e-03	0	59	0	541065216	56	6772
2026-01-13 11:50:54.04	276.29	18.60	-42.9	-47.9	9.8	1.06e-02	0	59	0	543162368	56	6738
2026-01-13 11:50:55.05	276.53	18.60	-42.8	-47.8	9.8	1.04e-02	0	59	0	544210944	56	6714
2026-01-13 11:50:56.06	276.77	18.59	-42.8	-47.8	9.9	9.48e-03	0	59	0	546308096	56	6685
2026-01-13 11:50:57.07	277.01	18.58	-42.7	-47.3	10.3	5.44e-03	0	59	0	548405248	56	6341
2026-01-13 11:50:58.08	277.25	18.58	-42.6	-47.1	10.6	4.00e-03	0	59	0	550502400	56	6163
2026-01-13 11:50:59.09	277.49	18.57	-42.5	-46.9	10.8	3.06e-03	0	59	0	552599552	56	6026
2026-01-13 11:51:00.10	277.73	18.56	-42.4	-46.8	10.9	2.33e-03	0	59	0	553648128	56	5960
2026-01-13 11:51:01.11	277.97	18.55	-42.5	-47.0	10.7	2.49e-03	0	59	0	555745280	56	6087
2026-01-13 11:51:02.12	278.21	18.54	-42.6	-47.2	10.5	3.33e-03	0	59	0	557842432	56	6227
2026-01-13 11:51:03.13	278.45	18.53	-42.7	-47.4	10.3	4.55e-03	0	59	0	559939584	56	6399
2026-01-13 11:51:04.14	278.70	18.52	-42.7	-47.4	10.2	6.15e-03	0	59	0	562036736	56	6404
2026-01-13 11:51:05.15	278.94	18.51	-42.7	-47.5	10.2	6.43e-03	0	59	0	563085312	56	6435
2026-01-13 11:51:06.16	279.18	18.50	-42.8	-47.7	10.0	6.51e-03	0	59	0	565182464	56	6603
2026-01-13 11:51:07.17	279.42	18.49	-42.8	-47.7	10.0	8.46e-03	0	59	0	567279616	56	6580
2026-01-13 11:51:08.18	279.65	18.47	-42.8	-47.8	9.8	8.94e-03	0	59	0	569376768	56	6708
2026-01-13 11:51:09.19	279.89	18.46	-42.9	-48.1	9.5	1.10e-02	0	59	0	571473920	56	6915
2026-01-13 11:51:10.19	280.13	18.45	-43.0	-48.2	9.5	1.48e-02	0	59	0	572522496	56	6968
2026-01-13 11:51:11.20	280.37	18.43	-43.0	-48.4	9.2	1.80e-02	0	59	0	574619648	56	7139
2026-01-13 11:51:12.21	280.61	18.42	-43.1	-48.5	9.2	2.08e-02	0	59	0	576716800	56	7213
2026-01-13 11:51:13.22	280.85	18.41	-43.0	-48.3	9.3	1.80e-02	0	59	0	578813952	56	7085
2026-01-13 11:51:14.23	281.09	18.39	-43.0	-48.3	9.3	1.68e-02	0	59	0	580911104	56	7049
2026-01-13 11:51:15.24	281.32	18.37	-42.9	-48.2	9.5	1.70e-02	0	59	0	581959680	56	6976
2026-01-13 11:51:16.25	281.56	18.36	-42.9	-48.0	9.6	1.38e-02	0	59	0	584056832	56	6821
2026-01-13 11:51:17.26	281.80	18.34	-42.9	-48.0	9.7	1.33e-02	0	59	0	586153984	56	6809
2026-01-13 11:51:18.27	282.04	18.32	-42.8	-47.7	9.9	1.14e-02	0	59	0	588251136	56	6646
2026-01-13 11:51:19.28	282.27	18.31	-42.7	-47.5	10.2	6.94e-03	0	59	0	590348288	56	6494
2026-01-13 11:51:20.29	282.51	18.29	-42.7	-47.4	10.2	6.00e-03	0	59	0	592445440	56	6411
2026-01-13 11:51:21.30	282.75	18.27	-42.5	-47.1	10.6	4.47e-03	0	59	0	593494016	56	6174
2026-01-13 11:51:22.31	282.98	18.25	-42.4	-46.8	10.8	3.15e-03	0	59	0	595591168	56	5985
2026-01-13 11:51:23.32	283.22	18.23	-42.3	-46.6	11.1	2.34e-03	0	59	0	597688320	56	5794
2026-01-13 11:51:24.32	283.45	18.21	-42.2	-46.4	11.2	1.78e-03	0	59	0	599785472	56	5698
2026-01-13 11:51:25.33	283.69	18.19	-42.2	-46.2	11.4	1.18e-03	0	60	0	601882624	56	5584
2026-01-13 11:51:26.34	283.92	18.17	-42.1	-46.2	11.5	8.64e-04	0	59	0	602931200	56	5550
2026-01-13 11:51:27.35	284.16	18.15	-42.1	-46.2	11.5	7.39e-04	0	59	0	605028352	56	5554
2026-01-13 11:51:28.36	284.39	18.13	-42.3	-46.5	11.1	1.28e-03	0	60	0	607125504	56	5764
2026-01-13 11:51:29.37	284.62	18.11	-42.4	-46.8	10.8	2.41e-03	0	59	0	609222656	56	5961
2026-01-13 11:51:30.38	284.86	18.08	-42.5	-47.1	10.6	3.22e-03	0	59	0	611319808	56	6143
2026-01-13 11:51:31.39	285.09	18.06	-42.7	-47.5	10.2	4.80e-03	0	59	0	612368384	56	6421
2026-01-13 11:51:32.40	285.32	18.04	-42.7	-47.6	10.0	7.50e-03	0	59	0	614465536	56	6519
2026-01-13 11:51:33.41	285.56	18.01	-42.8	-47.7	9.9	7.14e-03	0	59	0	616562688	56	6575
2026-01-13 11:51:34.42	285.79	17.99	-42.8	-47.7	9.9	8.20e-03	0	59	0	618659840	56	6618
2026-01-13 11:51:35.43	286.02	17.97	-42.8	-47.8	9.8	8.84e-03	0	59	0	620756992	56	6693
2026-01-13 11:51:36.44	286.25	17.94	-42.8	-47.8	9.8	8.67e-03	0	59	0	621805568	56	6700
2026-01-13 11:51:37.45	286.48	17.91	-42.8	-47.8	9.8	8.31e-03	0	60	0	623902720	56	6671
2026-01-13 11:51:38.46	286.71	17.89	-42.7	-47.6	10.0	8.13e-03	0	59	0	625999872	56	6537
2026-01-13 11:51:39.46	286.94	17.86	-42.7	-47.4	10.3	7.22e-03	0	59	0	628097024	56	6379
2026-01-13 11:51:40.48	287.17	17.84	-42.6	-47.3	10.4	4.86e-03	0	59	0	630194176	56	6278
2026-01-13 11:51:41.48	287.40	17.81	-42.5	-47.0	10.6	3.89e-03	0	59	0	631242752	56	6088
2026-01-13 11:51:42.49	287.63	17.78	-42.5	-46.9	10.7	2.94e-03	0	59	0	633339904	56	6053
2026-01-13 11:51:43.50	287.86	17.75	-42.5	-47.0	10.7	2.74e-03	0	59	0	635437056	56	6092
2026-01-13 11:51:44.51	288.09	17.72	-42.6	-47.2	10.5	3.18e-03	0	59	0	637534208	56	6220
2026-01-13 11:51:45.52	288.32	17.70	-42.7	-47.4	10.2	5.72e-03	0	59	0	639631360	56	6374
2026-01-13 11:51:46.53	288.54	17.67	-42.7	-47.4	10.2	6.20e-03	0	59	0	640679936	56	6416
2026-01-13 11:51:47.54	288.77	17.64	-42.8	-47.7	9.9	6.81e-03	0	59	0	642777088	56	6598
2026-01-13 11:51:48.55	289.00	17.61	-42.7	-47.5	10.2	6.39e-03	0	59	0	644874240	56	6424
2026-01-13 11:51:49.56	289.22	17.58	-42.7	-47.5	10.1	5.75e-03	0	59	0	646971392	56	6476
2026-01-13 11:51:50.57	289.45	17.55	-42.7	-47.4	10.2	5.45e-03	0	60	0	649068544	56	6388
2026-01-13 11:51:51.58	289.67	17.51	-42.4	-46.9	10.8	3.75e-03	0	59	0	650117120	56	6015
2026-01-13 11:51:52.59	289.90	17.48	-42.4	-46.9	10.8	2.06e-03	0	59	0	652214272	56	5998
2026-01-13 11:51:53.60	290.12	17.45	-42.3	-46.6	11.0	1.65e-03	0	59	0	654311424	56	5841
2026-01-13 11:51:54.61	290.35	17.42	-42.3	-46.5	11.1	1.60e-03	0	59	0	656408576	56	5781
2026-01-13 11:51:55.62	290.57	17.39	-42.3	-46.6	11.1	1.65e-03	0	59	0	658505728	56	5827
2026-01-13 11:51:56.63	290.79	17.35	-42.4	-46.7	11.0	1.74e-03	0	59	0	660602880	56	5873
2026-01-13 11:51:57.64	291.01	17.32	-42.3	-46.6	11.1	1.90e-03	0	59	0	661651456	56	5808
2026-01-13 11:51:58.65	291.24	17.29	-42.3	-46.7	11.0	1.98e-03	0	59	0	663748608	56	5887
2026-01-13 11:51:59.66	291.46	17.25	-42.3	-46.7	11.0	1.60e-03	0	59	0	665845760	56	5863
2026-01-13 11:52:00.67	291.68	17.22	-42.2	-46.4	11.2	1.19e-03	0	59	0	667942912	56	5715
2026-01-13 11:52:01.68	291.90	17.18	-42.2	-46.4	11.2	1.23e-03	0	59	0	670040064	56	5706
2026-01-13 11:52:02.69	292.12	17.15	-42.3	-46.5	11.1	1.49e-03	0	59	0	671088640	56	5788
2026-01-13 11:52:03.70	292.34	17.11	-42.2	-46.5	11.2	1.67e-03	0	59	0	673185792	56	5727
2026-01-13 11:52:04.71	292.56	17.08	-42.2	-46.4	11.3	1.17e-03	0	59	0	675282944	56	5658
2026-01-13 11:52:05.72	292.77	17.04	-42.2	-46.5	11.2	1.31e-03	0	60	0	677380096	56	5727
2026-01-13 11:52:06.73	292.99	17.00	-42.3	-46.5	11.2	1.06e-03	0	59	0	679477248	56	5765
2026-01-13 11:52:07.74	293.21	16.97	-42.2	-46.5	11.2	1.07e-03	0	59	0	680525824	56	5747
2026-01-13 11:52:08.75	293.43	16.93	-42.2	-46.4	11.3	1.37e-03	0	59	0	682622976	56	5689
2026-01-13 11:52:09.76	293.64	16.89	-42.1	-46.2	11.5	1.02e-03	0	59	0	684720128	56	5559
2026-01-13 11:52:10.77	293.86	16.85	-42.1	-46.2	11.5	1.10e-03	0	59	0	686817280	56	5564
2026-01-13 11:52:11.78	294.07	16.81	-42.1	-46.1	11.5	8.04e-04	0	59	0	688914432	56	5525
2026-01-13 11:52:12.79	294.29	16.78	-42.2	-46.3	11.3	1.16e-03	0	59	0	689963008	56	5638
2026-01-13 11:52:13.80	294.50	16.74	-42.2	-46.3	11.3	1.02e-03	0	59	0	692060160	56	5624
2026-01-13 11:52:14.81	294.71	16.70	-42.2	-46.4	11.3	1.08e-03	0	59	0	694157312	56	5683
2026-01-13 11:52:15.82	294.93	16.66	-42.2	-46.4	11.2	1.20e-03	0	59	0	696254464	56	5689
2026-01-13 11:52:16.83	295.14	16.62	-42.1	-46.2	11.4	9.57e-04	0	60	0	698351616	56	5575
2026-01-13 11:52:17.84	295.35	16.58	-42.1	-46.2	11.4	9.66e-04	0	59	0	699400192	56	5574
2026-01-13 11:52:18.84	295.56	16.54	-42.1	-46.3	11.4	1.14e-03	0	59	0	701497344	56	5595
2026-01-13 11:52:19.85	295.77	16.50	-42.1	-46.2	11.4	1.21e-03	0	59	0	703594496	56	5557
2026-01-13 11:52:20.86	295.98	16.46	-42.2	-46.3	11.3	1.18e-03	0	59	0	705691648	56	5640
2026-01-13 11:52:21.87	296.19	16.42	-42.2	-46.5	11.1	1.51e-03	0	59	0	707788800	56	5750
2026-01-13 11:52:22.88	296.40	16.37	-42.2	-46.5	11.0	1.74e-03	0	60	0	708837376	56	5786
2026-01-13 11:52:23.89	296.61	16.33	-42.2	-46.5	11.1	1.69e-03	0	60	0	710934528	56	5749
2026-01-13 11:52:24.90	296.82	16.29	-42.2	-46.5	11.1	1.63e-03	0	60	0	713031680	56	5770
2026-01-13 11:52:25.91	297.02	16.25	-42.1	-46.3	11.3	1.28e-03	0	59	0	715128832	56	5634
2026-01-13 11:52:26.92	297.23	16.21	-42.0	-46.0	11.6	1.10e-03	0	60	0	717225984	56	5409
2026-01-13 11:52:27.93	297.44	16.16	-42.0	-46.0	11.6	7.02e-04	0	60	0	718274560	56	5426
2026-01-13 11:52:28.94	297.64	16.12	-41.8	-45.8	11.6	7.12e-04	0	59	0	720371712	55	5640
2026-01-13 11:52:29.95	297.85	16.08	-41.9	-46.0	11.4	8.26e-04	0	59	0	722468864	55	5745
2026-01-13 11:52:30.96	298.05	16.03	-42.0	-46.2	11.2	1.01e-03	0	60	0	724566016	55	5885
2026-01-13 11:52:31.97	298.25	15.99	-42.1	-46.3	11.1	1.40e-03	0	59	0	726663168	55	5962
2026-01-13 11:52:32.98	298.46	15.94	-42.1	-46.3	11.1	1.68e-03	0	59	0	728760320	55	5988
2026-01-13 11:52:33.99	298.66	15.90	-42.1	-46.5	10.9	2.09e-03	0	59	0	729808896	55	6100
2026-01-13 11:52:35.00	298.86	15.85	-42.1	-46.5	11.0	2.28e-03	0	59	0	731906048	55	6068
2026-01-13 11:52:36.00	299.06	15.81	-42.0	-46.3	11.2	2.06e-03	0	60	0	734003200	55	5931
2026-01-13 11:52:37.02	299.26	15.76	-42.1	-46.4	11.1	1.58e-03	0	59	0	736100352	55	6015
2026-01-13 11:52:38.03	299.46	15.72	-42.2	-46.6	10.8	1.96e-03	0	60	0	738197504	55	6134
2026-01-13 11:52:39.03	299.66	15.67	-42.2	-46.6	10.9	1.83e-03	0	59	0	739246080	55	6144
2026-01-13 11:52:40.04	299.86	15.63	-42.3	-46.8	10.6	2.84e-03	0	59	0	741343232	55	6310
2026-01-13 11:52:41.05	300.06	15.58	-42.4	-47.1	10.3	4.00e-03	0	59	0	743440384	55	6511
2026-01-13 11:52:42.06	300.26	15.53	-42.6	-47.6	9.8	6.91e-03	0	60	0	745537536	55	6885
2026-01-13 11:52:43.07	300.45	15.49	-42.9	-48.2	9.3	1.19e-02	0	59	0	747634688	56	7000
2026-01-13 11:52:44.08	300.65	15.44	-42.9	-48.3	9.2	1.97e-02	0	60	0	748683264	56	7082
2026-01-13 11:52:45.09	300.85	15.39	-42.8	-48.0	9.5	1.63e-02	0	59	0	750780416	56	6869
2026-01-13 11:52:46.10	301.04	15.35	-42.8	-47.9	9.6	1.50e-02	0	59	0	752877568	56	6761
2026-01-13 11:52:47.11	301.24	15.30	-42.7	-47.6	9.9	8.75e-03	0	59	0	754974720	56	6517
2026-01-13 11:52:48.12	301.43	15.25	-42.6	-47.4	10.1	8.09e-03	0	59	0	757071872	56	6382
2026-01-13 11:52:49.13	301.62	15.20	-42.5	-47.1	10.4	3.63e-03	0	60	0	758120448	56	6165
2026-01-13 11:52:50.14	301.82	15.15	-42.4	-46.8	10.7	2.80e-03	0	59	0	760217600	56	5975
2026-01-13 11:52:51.15	302.01	15.11	-42.3	-46.6	10.9	2.38e-03	0	59	0	762314752	56	5838
2026-01-13 11:52:52.16	302.20	15.06	-42.3	-46.7	10.9	2.17e-03	0	59	0	764411904	56	5876
2026-01-13 11:52:53.17	302.39	15.01	-42.3	-46.7	10.8	1.93e-03	0	60	0	766509056	56	5890
2026-01-13 11:52:54.18	302.58	14.96	-42.3	-46.8	10.8	2.83e-03	0	59	0	767557632	56	5948
2026-01-13 11:52:55.19	302.77	14.91	-42.4	-46.9	10.7	2.95e-03	0	60	0	769654784	56	6015
2026-01-13 11:52:56.20	302.96	14.86	-42.4	-46.9	10.6	3.19e-03	0	60	0	771751936	56	6058
2026-01-13 11:52:57.21	303.15	14.81	-42.4	-47.0	10.6	3.86e-03	0	59	0	773849088	56	6082
2026-01-13 11:52:58.22	303.34	14.76	-42.6	-47.3	10.2	4.26e-03	0	60	0	775946240	56	6339
2026-01-13 11:52:59.23	303.53	14.71	-42.6	-47.5	10.0	5.50e-03	0	60	0	776994816	56	6470
2026-01-13 11:53:00.23	303.71	14.66	-42.7	-47.8	9.7	9.56e-03	0	59	0	779091968	56	6651
2026-01-13 11:53:01.24	303.90	14.61	-42.8	-48.0	9.5	1.26e-02	0	60	0	781189120	56	6846
2026-01-13 11:53:02.25	304.08	14.56	-42.9	-48.3	9.2	1.99e-02	0	60	0	783286272	56	7061
2026-01-13 11:53:03.26	304.27	14.51	-43.0	-48.5	8.9	2.68e-02	0	59	0	785383424	56	7266
2026-01-13 11:53:04.27	304.45	14.46	-43.0	-48.7	8.8	2.99e-02	0	59	0	786432000	56	7379
2026-01-13 11:53:05.28	304.64	14.41	-43.0	-48.6	8.8	3.38e-02	0	60	0	788529152	56	7361
2026-01-13 11:53:06.29	304.82	14.36	-43.0	-48.7	8.8	4.08e-02	0	60	0	790626304	56	7382
2026-01-13 11:53:07.30	305.00	14.31	-42.9	-48.4	9.1	2.44e-02	0	60	0	792723456	56	7129
2026-01-13 11:53:08.31	305.18	14.25	-42.9	-48.2	9.3	2.12e-02	0	60	0	794820608	56	6974
2026-01-13 11:53:09.32	305.36	14.20	-42.8	-48.0	9.4	1.82e-02	0	60	0	796917760	56	6872
2026-01-13 11:53:10.33	305.55	14.15	-42.8	-48.0	9.4	1.54e-02	0	60	0	797966336	56	6857
2026-01-13 11:53:11.34	305.73	14.10	-42.8	-48.0	9.4	1.55e-02	0	60	0	800063488	56	6855
2026-01-13 11:53:12.35	305.90	14.05	-42.8	-48.0	9.5	1.81e-02	0	60	0	802160640	56	6823
2026-01-13 11:53:13.36	306.08	13.99	-42.8	-48.1	9.3	1.64e-02	0	60	0	804257792	56	6941
2026-01-13 11:53:14.37	306.26	13.94	-42.9	-48.1	9.3	1.69e-02	0	60	0	806354944	56	6947
2026-01-13 11:53:15.38	306.44	13.89	-42.8	-48.1	9.3	1.56e-02	0	60	0	807403520	56	6930
2026-01-13 11:53:16.39	306.62	13.84	-42.7	-47.8	9.6	1.17e-02	0	59	0	809500672	56	6676
2026-01-13 11:53:17.40	306.79	13.78	-42.7	-47.6	9.8	1.01e-02	0	59	0	811597824	56	6543
2026-01-13 11:53:18.40	306.97	13.73	-42.6	-47.6	9.9	9.10e-03	0	60	0	813694976	56	6533
2026-01-13 11:53:19.41	307.14	13.68	-42.6	-47.4	10.0	6.93e-03	0	59	0	815792128	56	6413
2026-01-13 11:53:20.42	307.32	13.63	-42.6	-47.5	10.0	8.80e-03	0	60	0	816840704	56	6464
2026-01-13 11:53:21.43	307.49	13.57	-42.6	-47.6	9.9	7.72e-03	0	60	0	818937856	56	6542
2026-01-13 11:53:22.44	307.66	13.52	-42.7	-47.8	9.7	8.68e-03	0	60	0	821035008	56	6659
2026-01-13 11:53:23.45	307.84	13.47	-42.7	-47.8	9.6	1.31e-02	0	59	0	823132160	56	6721
2026-01-13 11:53:24.46	308.01	13.41	-42.7	-47.8	9.6	1.22e-02	0	60	0	825229312	56	6718
2026-01-13 11:53:25.47	308.18	13.36	-42.8	-48.0	9.5	1.33e-02	0	60	0	826277888	56	6833
2026-01-13 11:53:26.48	308.35	13.30	-42.8	-48.0	9.4	1.41e-02	0	60	0	828375040	56	6833
2026-01-13 11:53:27.49	308.52	13.25	-42.8	-48.1	9.4	1.48e-02	0	60	0	830472192	56	6882
2026-01-13 11:53:28.50	308.69	13.20	-42.8	-48.0	9.4	1.64e-02	0	60	0	832569344	56	6824
2026-01-13 11:53:29.51	308.86	13.14	-42.8	-48.1	9.3	1.93e-02	0	60	0	834666496	56	6925
2026-01-13 11:53:30.51	309.03	13.09	-42.9	-48.3	9.1	2.23e-02	0	60	0	835715072	56	7109
2026-01-13 11:53:31.53	309.20	13.03	-42.9	-48.3	9.2	2.04e-02	0	60	0	837812224	56	7046
2026-01-13 11:53:32.53	309.36	12.98	-42.9	-48.3	9.1	2.47e-02	0	60	0	839909376	56	7118
2026-01-13 11:53:33.54	309.53	12.93	-42.8	-48.0	9.4	1.90e-02	0	60	0	842006528	56	6868
2026-01-13 11:53:34.55	309.69	12.87	-42.7	-47.9	9.5	1.46e-02	0	60	0	844103680	56	6763
2026-01-13 11:53:35.56	309.86	12.82	-42.7	-47.9	9.5	1.56e-02	0	60	0	845152256	56	6769
2026-01-13 11:53:36.57	310.02	12.76	-42.7	-47.7	9.7	1.27e-02	0	60	0	847249408	56	6584
2026-01-13 11:53:37.58	310.19	12.71	-42.8	-48.0	9.5	1.47e-02	0	59	0	849346560	56	6817
2026-01-13 11:53:38.59	310.35	12.65	-42.8	-48.0	9.4	1.62e-02	0	60	0	851443712	56	6876
2026-01-13 11:53:39.60	310.51	12.60	-42.8	-48.0	9.4	1.60e-02	0	60	0	853540864	56	6832
2026-01-13 11:53:40.61	310.68	12.54	-42.9	-48.3	9.2	1.80e-02	0	60	0	854589440	56	7067
2026-01-13 11:53:41.62	310.84	12.49	-42.9	-48.4	9.0	2.10e-02	0	59	0	856686592	56	7189
2026-01-13 11:53:42.63	311.00	12.43	-42.9	-48.4	9.0	2.49e-02	0	60	0	858783744	56	7182
2026-01-13 11:53:43.64	311.16	12.38	-42.9	-48.3	9.1	2.67e-02	0	60	0	860880896	56	7054
2026-01-13 11:53:44.65	311.32	12.32	-42.8	-48.1	9.3	1.94e-02	0	60	0	862978048	56	6902
2026-01-13 11:53:45.66	311.48	12.26	-42.8	-48.1	9.3	1.65e-02	0	60	0	864026624	56	6940
2026-01-13 11:53:46.67	311.64	12.21	-42.7	-47.8	9.6	1.46e-02	0	60	0	866123776	56	6708
2026-01-13 11:53:47.68	311.80	12.15	-42.6	-47.6	9.8	1.22e-02	0	60	0	868220928	56	6511
2026-01-13 11:53:48.69	311.96	12.10	-42.6	-47.5	9.9	8.33e-03	0	60	0	870318080	56	6465
2026-01-13 11:53:49.70	312.11	12.04	-42.6	-47.5	9.9	8.78e-03	0	60	0	872415232	56	6464
2026-01-13 11:53:50.71	312.27	11.99	-42.5	-47.3	10.2	7.74e-03	0	60	0	874512384	56	6280
2026-01-13 11:53:51.72	312.43	11.93	-42.4	-47.1	10.3	5.85e-03	0	60	0	875560960	56	6195
2026-01-13 11:53:52.73	312.58	11.87	-42.6	-47.5	9.9	7.37e-03	0	60	0	877658112	56	6446
2026-01-13 11:53:53.74	312.74	11.82	-42.5	-47.3	10.1	6.83e-03	0	60	0	879755264	56	6318
2026-01-13 11:53:54.75	312.89	11.76	-42.5	-47.4	10.0	7.08e-03	0	60	0	881852416	56	6392
2026-01-13 11:53:55.76	313.04	11.71	-42.5	-47.3	10.1	8.64e-03	0	60	0	883949568	56	6309
2026-01-13 11:53:56.77	313.20	11.65	-42.4	-47.2	10.2	6.31e-03	0	59	0	884998144	56	6220
2026-01-13 11:53:57.78	313.35	11.59	-42.4	-47.1	10.3	5.89e-03	0	60	0	887095296	56	6191
2026-01-13 11:53:58.79	313.50	11.54	-42.3	-47.0	10.4	5.11e-03	0	60	0	889192448	56	6085
2026-01-13 11:53:59.80	313.65	11.48	-42.3	-47.0	10.4	4.66e-03	0	60	0	891289600	56	6073
2026-01-13 11:54:00.81	313.80	11.42	-42.4	-47.0	10.3	5.00e-03	0	60	0	893386752	56	6118
2026-01-13 11:54:01.82	313.95	11.37	-42.4	-47.1	10.3	4.84e-03	0	60	0	894435328	56	6141
2026-01-13 11:54:02.83	314.10	11.31	-42.4	-47.3	10.2	5.54e-03	0	59	0	896532480	56	6280
2026-01-13 11:54:03.84	314.25	11.25	-42.5	-47.4	10.0	7.00e-03	0	60	0	898629632	56	6378
2026-01-13 11:54:04.85	314.40	11.20	-42.6	-47.6	9.8	8.26e-03	0	60	0	900726784	56	6526
2026-01-13 11:54:05.86	314.55	11.14	-42.6	-47.7	9.7	1.15e-02	0	60	0	902823936	56	6590
2026-01-13 11:54:06.87	314.70	11.08	-42.6	-47.8	9.6	1.30e-02	0	60	0	903872512	56	6664
2026-01-13 11:54:07.88	314.84	11.03	-42.6	-47.6	9.7	1.28e-02	0	60	0	905969664	56	6558
2026-01-13 11:54:08.89	314.99	10.97	-42.5	-47.4	9.9	9.20e-03	0	60	0	908066816	56	6390
2026-01-13 11:54:09.89	315.13	10.92	-42.5	-47.3	10.0	8.12e-03	0	60	0	910163968	56	6345
2026-01-13 11:54:10.90	315.28	10.86	-42.3	-46.9	10.4	5.98e-03	0	60	0	912261120	56	6051
2026-01-13 11:54:11.91	315.42	10.80	-42.2	-46.8	10.6	3.76e-03	0	60	0	913309696	56	5955
2026-01-13 11:54:12.92	315.57	10.74	-42.1	-46.5	10.9	3.29e-03	0	60	0	915406848	56	5755
2026-01-13 11:54:13.93	315.71	10.69	-42.1	-46.4	11.0	2.28e-03	0	60	0	917504000	56	5696
2026-01-13 11:54:14.94	315.86	10.63	-42.0	-46.3	11.1	1.70e-03	0	60	0	919601152	56	5636
2026-01-13 11:54:15.95	316.00	10.57	-41.9	-46.1	11.0	1.75e-03	0	60	0	921698304	55	5853
2026-01-13 11:54:16.96	316.14	10.52	-41.9	-46.3	10.9	1.99e-03	0	60	0	922746880	55	5973
2026-01-13 11:54:17.97	316.28	10.46	-41.9	-46.4	10.8	2.70e-03	0	60	0	924844032	55	5995
2026-01-13 11:54:18.98	316.42	10.40	-41.9	-46.3	10.9	2.20e-03	0	59	0	926941184	55	5961
2026-01-13 11:54:19.99	316.56	10.35	-42.0	-46.6	10.6	2.94e-03	0	60	0	929038336	55	6165
2026-01-13 11:54:21.00	316.70	10.29	-42.0	-46.5	10.6	3.64e-03	0	60	0	931135488	55	6126
2026-01-13 11:54:22.01	316.84	10.23	-42.0	-46.6	10.6	4.12e-03	0	60	0	932184064	55	6164
2026-01-13 11:54:23.02	316.98	10.18	-42.1	-46.8	10.3	4.00e-03	0	59	0	934281216	55	6315
2026-01-13 11:54:24.03	317.12	10.12	-42.1	-46.8	10.4	5.16e-03	0	59	0	936378368	55	6287
2026-01-13 11:54:25.04	317.26	10.06	-42.1	-46.8	10.4	4.59e-03	0	60	0	938475520	55	6287
2026-01-13 11:54:26.05	317.40	10.00	-42.2	-47.0	10.1	5.53e-03	0	60	0	940572672	55	6484
2026-01-13 11:54:27.05	317.53	9.95	-42.2	-47.0	10.1	6.11e-03	0	60	0	941621248	55	6445
2026-01-13 11:54:28.06	317.67	9.89	-42.3	-47.3	9.7	8.81e-03	0	60	0	943718400	55	6690
2026-01-13 11:54:29.08	317.80	9.83	-42.3	-47.5	9.6	1.14e-02	0	60	0	945815552	55	6814
2026-01-13 11:54:30.09	317.94	9.78	-42.4	-47.5	9.5	1.25e-02	0	60	0	947912704	55	6859
2026-01-13 11:54:31.09	318.07	9.72	-42.4	-47.7	9.3	1.79e-02	0	60	0	950009856	55	6996
2026-01-13 11:54:32.10	318.21	9.66	-42.4	-47.6	9.4	1.82e-02	0	60	0	951058432	55	6927
2026-01-13 11:54:33.11	318.34	9.61	-42.3	-47.5	9.5	1.79e-02	0	60	0	953155584	55	6842
2026-01-13 11:54:34.12	318.47	9.55	-42.4	-47.6	9.4	1.69e-02	0	60	0	955252736	55	6933
2026-01-13 11:54:35.13	318.61	9.49	-42.3	-47.3	9.7	1.08e-02	0	60	0	957349888	55	6669
2026-01-13 11:54:36.14	318.74	9.43	-42.2	-47.1	10.0	8.65e-03	0	60	0	959447040	55	6527
2026-01-13 11:54:37.15	318.87	9.38	-42.1	-47.0	10.1	7.51e-03	0	60	0	960495616	55	6437
2026-01-13 11:54:38.16	319.00	9.32	-42.1	-46.8	10.2	5.93e-03	0	60	0	962592768	55	6324
2026-01-13 11:54:39.17	319.13	9.26	-42.1	-46.8	10.2	6.12e-03	0	60	0	964689920	55	6331
2026-01-13 11:54:40.18	319.26	9.21	-42.1	-46.8	10.2	6.51e-03	0	60	0	966787072	55	6322
2026-01-13 11:54:41.19	319.39	9.15	-42.1	-46.8	10.2	6.42e-03	0	60	0	968884224	55	6347
2026-01-13 11:54:42.20	319.52	9.09	-42.1	-46.9	10.1	8.05e-03	0	60	0	970981376	55	6372
2026-01-13 11:54:43.21	319.65	9.04	-42.2	-47.2	9.8	8.22e-03	0	59	0	972029952	55	6620
2026-01-13 11:54:44.22	319.78	8.98	-42.2	-47.3	9.7	1.13e-02	0	60	0	974127104	55	6685
2026-01-13 11:54:45.22	319.91	8.92	-42.3	-47.6	9.3	1.54e-02	0	60	0	976224256	55	6917
2026-01-13 11:54:46.23	320.03	8.86	-42.4	-47.8	9.2	1.79e-02	0	60	0	978321408	55	7059
2026-01-13 11:54:47.24	320.16	8.81	-42.4	-47.8	9.1	2.41e-02	0	60	0	980418560	55	7118
2026-01-13 11:54:48.25	320.29	8.75	-42.5	-48.0	8.9	2.84e-02	0	60	0	981467136	55	7280
2026-01-13 11:54:49.26	320.41	8.69	-42.6	-48.4	8.5	3.44e-02	0	60	0	983564288	55	7580
2026-01-13 11:54:50.27	320.54	8.64	-42.6	-48.4	8.5	4.05e-02	0	60	0	985661440	55	7564
2026-01-13 11:54:51.28	320.66	8.58	-42.5	-48.2	8.7	3.72e-02	0	60	0	987758592	55	7418
2026-01-13 11:54:52.29	320.79	8.52	-42.5	-48.1	8.7	3.35e-02	0	60	0	989855744	55	7346
2026-01-13 11:54:53.30	320.91	8.47	-42.4	-48.0	8.8	3.26e-02	0	60	0	990904320	55	7255
2026-01-13 11:54:54.31	321.04	8.41	-42.5	-48.1	8.8	2.87e-02	0	60	0	993001472	55	7342
2026-01-13 11:54:55.32	321.16	8.35	-42.4	-48.0	8.9	2.75e-02	0	60	0	995098624	55	7219
2026-01-13 11:54:56.33	321.28	8.30	-42.4	-48.0	8.9	2.60e-02	0	60	0	997195776	55	7226
2026-01-13 11:54:57.34	321.40	8.24	-42.4	-47.9	9.0	2.61e-02	0	60	0	999292928	55	7155
2026-01-13 11:54:58.35	321.52	8.18	-42.4	-48.0	8.9	2.72e-02	0	60	0	1000341504	55	7236
2026-01-13 11:54:59.36	321.65	8.12	-42.5	-48.1	8.7	3.14e-02	0	60	0	1002438656	55	7365
2026-01-13 11:55:00.37	321.77	8.07	-42.5	-48.3	8.5	3.63e-02	0	60	0	1004535808	55	7520
2026-01-13 11:55:01.38	321.89	8.01	-42.6	-48.6	8.3	4.24e-02	0	60	0	1006632960	55	7789
2026-01-13 11:55:02.39	322.01	7.95	-44.5	-58.5	3.8	1.47e+00	0	60	104	1006632960	59	19233
2026-01-13 11:55:03.40	322.13	7.90	-44.7	-59.0	3.8	1.49e+00	0	60	104	1006632960	60	19367
2026-01-13 11:55:04.41	322.25	7.84	-44.9	-59.3	3.8	1.49e+00	0	60	104	1006632960	60	19931
2026-01-13 11:55:05.42	322.36	7.78	-45.0	-59.5	3.8	1.49e+00	0	60	104	1006632960	60	20333
2026-01-13 11:55:06.43	322.48	7.73	-45.1	-59.6	3.8	1.49e+00	0	60	104	1006632960	60	20651
2026-01-13 11:55:07.44	322.60	7.67	-45.2	-59.6	3.8	1.49e+00	0	60	104	1006632960	60	20756
2026-01-13 11:55:08.45	322.72	7.61	-45.3	-59.7	3.8	1.49e+00	0	60	104	1006632960	61	19728
2026-01-13 11:55:09.46	322.83	7.56	-45.3	-59.8	3.8	1.49e+00	0	60	104	1006632960	61	19880
2026-01-13 11:55:10.47	322.95	7.50	-45.3	-59.7	3.8	1.49e+00	0	60	104	1006632960	61	19836
2026-01-13 11:55:11.48	323.07	7.45	-45.3	-59.7	3.8	1.49e+00	0	60	104	1006632960	61	19762
2026-01-13 11:55:12.49	323.18	7.39	-45.1	-59.7	3.8	1.49e+00	0	60	104	1006632960	61	19657
2026-01-13 11:55:13.50	323.30	7.33	-45.2	-59.7	3.8	1.49e+00	0	60	104	1006632960	61	19682
2026-01-13 11:55:14.51	323.41	7.28	-45.2	-59.7	3.8	1.49e+00	0	60	104	1006632960	61	19764
2026-01-13 11:55:15.52	323.53	7.22	-45.3	-59.7	3.8	1.49e+00	0	60	104	1006632960	61	19739
2026-01-13 11:55:16.53	323.64	7.16	-45.2	-59.7	3.8	1.49e+00	0	60	104	1006632960	61	19680
2026-01-13 11:55:17.54	323.75	7.11	-45.2	-59.6	3.8	1.49e+00	0	60	104	1006632960	61	19612
2026-01-13 11:55:18.55	323.87	7.05	-45.2	-59.7	3.8	1.49e+00	0	60	104	1006632960	61	19638
2026-01-13 11:55:19.56	323.98	6.99	-45.1	-59.6	3.8	1.49e+00	0	60	104	1006632960	61	19580
2026-01-13 11:55:20.57	324.09	6.94	-45.1	-59.6	3.8	1.49e+00	0	60	104	1006632960	61	19581
2026-01-13 11:55:21.58	324.20	6.88	-45.2	-59.6	3.8	1.49e+00	0	60	104	1006632960	61	19560
2026-01-13 11:55:22.59	324.31	6.83	-45.2	-59.6	3.8	1.49e+00	0	60	104	1006632960	61	19587
2026-01-13 11:55:23.60	324.42	6.77	-45.2	-59.7	3.8	1.49e+00	0	60	104	1006632960	61	19662
2026-01-13 11:55:24.61	324.54	6.71	-45.2	-59.6	3.8	1.49e+00	0	60	104	1006632960	61	19587
2026-01-13 11:55:25.62	324.65	6.66	-45.2	-59.7	3.8	1.49e+00	0	60	104	1006632960	61	19631
2026-01-13 11:55:26.63	324.75	6.60	-45.2	-59.6	3.8	1.49e+00	0	60	104	1006632960	61	19602
2026-01-13 11:55:27.64	324.86	6.55	-45.1	-59.6	3.8	1.49e+00	0	60	104	1006632960	61	19570
2026-01-13 11:55:28.65	324.97	6.49	-45.1	-59.6	3.8	1.49e+00	0	60	104	1006632960	61	19593
2026-01-13 11:55:29.66	325.08	6.43	-45.2	-59.7	3.8	1.49e+00	0	60	104	1006632960	61	19625
2026-01-13 11:55:30.67	325.19	6.38	-45.2	-59.6	3.8	1.49e+00	0	60	104	1006632960	61	19570
2026-01-13 11:55:31.68	325.30	6.32	-45.1	-59.6	3.8	1.49e+00	0	60	104	1006632960	61	19564
2026-01-13 11:55:32.69	325.40	6.27	-45.1	-59.6	3.8	1.49e+00	0	60	104	1006632960	61	19548
2026-01-13 11:55:33.70	325.51	6.21	-45.1	-59.6	3.8	1.49e+00	0	60	104	1006632960	61	19559
2026-01-13 11:55:34.71	325.62	6.16	-45.1	-59.6	3.8	1.49e+00	0	60	104	1006632960	61	19586
2026-01-13 11:55:35.72	325.72	6.10	-45.1	-59.6	3.8	1.49e+00	0	60	104	1006632960	60	20701
2026-01-13 11:55:36.74	325.83	6.04	-45.1	-59.6	3.8	1.49e+00	0	59	104	1006632960	60	20706
2026-01-13 11:55:37.75	325.94	5.99	-45.2	-59.6	3.8	1.49e+00	0	60	104	1006632960	60	20760
2026-01-13 11:55:38.76	326.04	5.93	-45.1	-59.6	3.8	1.49e+00	0	60	104	1006632960	60	20722
2026-01-13 11:55:39.77	326.15	5.88	-45.1	-59.6	3.8	1.49e+00	0	60	104	1006632960	60	20682
2026-01-13 11:55:40.78	326.25	5.82	-44.9	-59.6	3.8	1.49e+00	0	60	104	1006632960	60	20688
2026-01-13 11:55:41.79	326.35	5.77	-45.1	-59.6	3.8	1.49e+00	0	60	104	1006632960	60	20648
2026-01-13 11:55:42.80	326.46	5.71	-45.2	-59.6	3.8	1.49e+00	0	60	104	1006632960	60	20714
2026-01-13 11:55:43.81	326.56	5.66	-45.1	-59.6	3.8	1.49e+00	0	60	104	1006632960	60	20657
2026-01-13 11:55:44.82	326.66	5.60	-44.5	-59.6	3.8	1.49e+00	0	60	104	1006632960	60	20620
2026-01-13 11:55:45.83	326.77	5.54	-45.1	-59.6	3.8	1.49e+00	0	60	104	1006632960	60	20715
2026-01-13 11:55:46.84	326.87	5.49	-45.1	-59.6	3.8	1.49e+00	0	60	104	1006632960	60	20682
2026-01-13 11:55:47.85	326.97	5.43	-45.0	-59.6	3.8	1.49e+00	0	60	104	1006632960	60	20661
2026-01-13 11:55:48.86	327.07	5.38	-45.1	-59.6	3.8	1.49e+00	0	60	104	1006632960	60	20688
2026-01-13 11:55:49.87	327.17	5.32	-45.1	-59.6	3.8	1.49e+00	0	60	104	1006632960	60	20648
2026-01-13 11:55:50.88	327.27	5.27	-45.1	-59.6	3.8	1.49e+00	0	60	104	1006632960	60	20671
2026-01-13 11:55:51.89	327.37	5.21	-45.1	-59.6	3.8	1.49e+00	0	60	104	1006632960	60	20688
2026-01-13 11:55:52.90	327.47	5.16	-45.1	-59.6	3.8	1.49e+00	0	60	104	1006632960	60	20651
2026-01-13 11:55:53.91	327.57	5.10	-45.1	-59.6	3.8	1.49e+00	0	60	104	1006632960	60	20679
2026-01-13 11:55:54.92	327.67	5.05	-45.1	-59.6	3.8	1.49e+00	0	60	104	1006632960	60	20677
2026-01-13 11:55:55.93	327.77	5.00	-45.1	-59.6	3.8	1.49e+00	0	60	104	1006632960	60	20673
2026-01-13 11:55:56.94	327.87	4.94	-45.1	-59.6	3.8	1.49e+00	0	60	104	1006632960	60	20684
2026-01-13 11:55:57.95	327.97	4.89	-45.1	-59.6	3.8	1.49e+00	0	60	104	1006632960	60	20662
2026-01-13 11:55:58.96	328.06	4.83	-45.1	-59.6	3.8	1.49e+00	0	60	104	1006632960	60	20688
2026-01-13 11:55:59.97	328.16	4.78	-45.1	-59.6	3.8	1.49e+00	0	60	104	1006632960	60	20666
2026-01-13 11:56:00.98	328.26	4.72	-45.1	-59.6	3.8	1.49e+00	0	60	104	1006632960	60	20729
2026-01-13 11:56:01.99	328.35	4.67	-45.1	-59.6	3.8	1.49e+00	0	60	104	1006632960	60	20714
2026-01-13 11:56:02.99	328.45	4.61	-45.1	-59.6	3.8	1.49e+00	0	60	104	1006632960	60	20660
2026-01-13 11:56:04.01	328.55	4.56	-45.0	-59.6	3.8	1.49e+00	0	60	104	1006632960	60	20656
2026-01-13 11:56:05.02	328.64	4.50	-45.1	-59.6	3.8	1.49e+00	0	60	104	1006632960	60	20679
2026-01-13 11:56:06.03	328.74	4.45	-45.1	-59.6	3.8	1.49e+00	0	60	104	1006632960	60	20664
2026-01-13 11:56:07.04	328.83	4.40	-45.1	-59.6	3.8	1.49e+00	0	60	104	1006632960	60	20655
2026-01-13 11:56:08.05	328.93	4.34	-45.1	-59.6	3.8	1.49e+00	0	60	104	1006632960	60	20703
2026-01-13 11:56:09.06	329.02	4.29	-45.1	-59.6	3.8	1.49e+00	0	60	104	1006632960	60	20663
2026-01-13 11:56:10.07	329.11	4.23	-45.1	-59.6	3.8	1.49e+00	0	60	104	1006632960	60	20639
2026-01-13 11:56:11.08	329.21	4.18	-45.1	-59.6	3.8	1.49e+00	0	60	104	1006632960	60	20685
2026-01-13 11:56:12.09	329.30	4.13	-45.1	-59.6	3.8	1.49e+00	0	60	104	1006632960	60	20659
2026-01-13 11:56:13.10	329.39	4.07	-45.1	-59.6	3.8	1.49e+00	0	60	104	1006632960	60	20669
2026-01-13 11:56:14.11	329.49	4.02	-45.1	-59.6	3.8	1.49e+00	0	60	104	1006632960	60	20609
