passes_logs/2026/01/13/R2.0S_Moscow/R2.0S_Moscow__20260113_104128_AQUA_rec.log

#Pass ID: 20260113_104128_AQUA
#Satellite: AQUA
#Configuration: AQUA
#almurnet v.1.7.20251203
#Start time: 2026-01-13 10:41:30

#Version: 2.2.20231116
#Station: R2.0S_Moscow
#Location: 37.707566 lon 55.798166 lat
#TLE: 1 27424U 02022A   26012.29577270  .00001027  00000+0  21555-3 0  9995
#TLE: 2 27424  98.4078 338.6778 0002034  81.5885  29.6294 14.61817302260499

#Time	Az	El	Level	Level2	SNR	BER	BlckErr	Temp	State	Recorded	gain1	gain2
2026-01-13 10:41:30.23	131.01	2.13	-15.3	-40.0	3.7	7.63e-01	0	51	0	0	1	64551
2026-01-13 10:41:31.23	130.96	2.19	-12.1	-36.8	3.6	7.46e-01	0	51	104	0	0	47408
2026-01-13 10:41:32.24	130.91	2.26	-12.1	-38.0	3.7	7.61e-01	0	51	104	0	0	54457
2026-01-13 10:41:33.25	130.86	2.32	-13.5	-38.4	3.3	7.65e-01	0	52	104	0	0	56653
2026-01-13 10:41:34.26	130.81	2.39	-13.7	-38.6	3.7	7.56e-01	0	51	104	0	0	58470
2026-01-13 10:41:35.27	130.76	2.45	-11.7	-37.4	3.7	7.47e-01	0	51	104	0	1	47975
2026-01-13 10:41:36.28	130.71	2.52	-12.7	-38.0	3.7	7.59e-01	0	51	104	0	0	54529
2026-01-13 10:41:37.29	130.66	2.58	-14.2	-37.1	3.7	7.41e-01	0	51	104	0	0	48739
2026-01-13 10:41:38.30	130.61	2.65	-13.8	-39.2	3.5	7.57e-01	0	52	104	0	0	62545
2026-01-13 10:41:39.31	130.55	2.71	-14.8	-39.2	3.5	7.54e-01	0	52	104	0	0	62045
2026-01-13 10:41:40.32	130.50	2.78	-14.0	-38.3	3.9	7.54e-01	0	52	104	0	1	52896
2026-01-13 10:41:41.33	130.45	2.84	-15.3	-37.4	3.7	7.43e-01	0	52	104	0	0	50835
2026-01-13 10:41:42.35	130.39	2.91	-12.7	-39.7	3.2	7.43e-01	0	52	104	0	2	59147
2026-01-13 10:41:43.36	130.34	2.97	-11.7	-39.9	3.5	7.47e-01	0	52	104	0	2	60584
2026-01-13 10:41:44.37	130.29	3.04	-15.2	-38.1	3.8	7.46e-01	0	52	104	0	0	54953
2026-01-13 10:41:45.38	130.23	3.11	-19.7	-40.1	3.6	7.64e-01	0	52	104	0	1	65535
2026-01-13 10:41:46.39	130.18	3.17	-13.8	-38.8	3.7	7.52e-01	0	52	104	0	0	59473
2026-01-13 10:41:47.40	130.12	3.24	-17.0	-41.1	3.6	7.75e-01	0	52	104	0	3	65535
2026-01-13 10:41:48.41	130.07	3.31	-11.0	-37.8	3.4	7.45e-01	0	52	104	0	0	53198
2026-01-13 10:41:49.41	130.01	3.37	-10.9	-36.7	3.7	7.49e-01	0	52	104	0	0	46529
2026-01-13 10:41:50.42	129.96	3.44	-10.5	-35.9	3.7	7.47e-01	0	52	104	0	0	42783
2026-01-13 10:41:51.43	129.90	3.51	-9.6	-36.2	3.8	7.53e-01	0	52	104	0	0	43915
2026-01-13 10:41:52.44	129.85	3.57	-15.2	-38.6	3.5	7.52e-01	0	53	104	0	1	54708
2026-01-13 10:41:53.45	129.79	3.64	-16.1	-38.6	3.7	7.47e-01	0	53	104	0	3	49021
2026-01-13 10:41:54.46	129.73	3.71	-8.7	-36.1	4.1	7.51e-01	0	53	104	0	0	43873
2026-01-13 10:41:55.47	129.68	3.78	-13.8	-36.9	3.8	7.50e-01	0	52	104	0	0	47749
2026-01-13 10:41:56.48	129.62	3.85	-12.5	-37.8	3.8	7.58e-01	0	53	104	0	0	53067
2026-01-13 10:41:57.49	129.56	3.91	-13.3	-38.6	3.6	7.55e-01	0	53	104	0	0	57961
2026-01-13 10:41:58.50	129.50	3.98	-14.2	-38.9	3.6	7.63e-01	0	53	104	0	0	60216
2026-01-13 10:41:59.51	129.45	4.05	-14.0	-38.6	3.8	7.57e-01	0	53	104	0	1	54924
2026-01-13 10:42:00.52	129.39	4.12	-13.0	-37.2	3.9	7.43e-01	0	53	104	0	1	46771
2026-01-13 10:42:01.52	129.33	4.19	-11.8	-37.2	3.8	7.51e-01	0	53	104	0	0	49416
2026-01-13 10:42:02.54	129.27	4.26	-14.1	-37.8	3.8	7.44e-01	0	53	104	0	0	52933
2026-01-13 10:42:03.55	129.21	4.33	-15.6	-39.3	3.9	7.58e-01	0	53	104	0	1	59465
2026-01-13 10:42:04.56	129.15	4.39	-17.2	-38.9	3.7	7.55e-01	0	53	104	0	3	50898
2026-01-13 10:42:05.57	129.09	4.46	-11.9	-37.4	3.4	7.44e-01	0	53	104	0	0	50508
2026-01-13 10:42:06.58	129.03	4.53	-17.3	-38.6	4.0	7.56e-01	0	53	104	0	2	51695
2026-01-13 10:42:07.59	128.97	4.60	-10.1	-37.1	3.7	7.50e-01	0	53	104	0	0	49048
2026-01-13 10:42:08.60	128.91	4.67	-13.5	-39.7	5.0	7.67e-01	0	53	104	0	2	58940
2026-01-13 10:42:09.61	128.85	4.74	-12.1	-36.9	3.8	7.55e-01	0	53	104	0	0	48039
2026-01-13 10:42:10.62	128.78	4.81	-12.8	-38.8	3.9	7.55e-01	0	53	104	0	0	59723
2026-01-13 10:42:11.63	128.72	4.88	-13.3	-38.2	3.9	7.72e-01	0	53	104	0	0	55820
2026-01-13 10:42:12.63	128.66	4.95	-14.3	-37.1	3.8	7.51e-01	0	53	104	0	0	49173
2026-01-13 10:42:13.64	128.60	5.03	-15.1	-37.2	3.6	7.52e-01	0	53	104	0	0	49657
2026-01-13 10:42:14.65	128.54	5.10	-11.6	-37.6	3.9	7.58e-01	0	53	104	0	0	51704
2026-01-13 10:42:15.67	128.47	5.17	-17.3	-40.6	3.4	7.62e-01	0	53	104	0	2	65102
2026-01-13 10:42:16.68	128.41	5.24	-12.1	-39.2	3.9	7.63e-01	0	53	104	0	1	58720
2026-01-13 10:42:17.69	128.34	5.31	-15.2	-43.1	3.3	7.71e-01	0	54	104	0	7	65400
2026-01-13 10:42:18.69	128.28	5.38	-12.5	-41.1	3.6	7.60e-01	0	54	104	0	3	65535
2026-01-13 10:42:19.70	128.21	5.46	-12.8	-39.9	3.7	7.69e-01	0	54	104	0	2	60177
2026-01-13 10:42:20.71	128.15	5.53	-11.5	-37.8	3.7	7.58e-01	0	54	104	0	0	53016
2026-01-13 10:42:21.72	128.08	5.60	-13.8	-37.1	3.9	7.62e-01	0	54	104	0	1	46259
2026-01-13 10:42:22.73	128.02	5.67	-11.6	-36.9	3.7	7.53e-01	0	54	104	0	0	48142
2026-01-13 10:42:23.74	127.95	5.74	-14.2	-40.7	3.5	7.73e-01	0	54	104	0	5	55345
2026-01-13 10:42:24.75	127.88	5.82	-13.3	-37.4	3.8	7.51e-01	0	54	104	0	0	50864
2026-01-13 10:42:25.76	127.82	5.89	-9.6	-38.2	3.5	7.54e-01	0	54	104	0	0	55612
2026-01-13 10:42:26.77	127.75	5.96	-15.5	-37.5	3.9	7.49e-01	0	54	104	0	2	45853
2026-01-13 10:42:27.78	127.68	6.04	-10.0	-36.9	3.7	7.59e-01	0	54	104	0	0	47642
2026-01-13 10:42:28.79	127.61	6.11	-12.0	-36.5	3.7	7.55e-01	0	54	104	0	0	45930
2026-01-13 10:42:29.80	127.55	6.19	-12.7	-37.5	3.4	7.47e-01	0	54	104	0	0	51116
2026-01-13 10:42:30.81	127.48	6.26	-17.2	-39.6	3.9	7.63e-01	0	54	104	0	4	51753
2026-01-13 10:42:31.82	127.41	6.33	-11.8	-37.9	3.6	7.60e-01	0	54	104	0	0	53908
2026-01-13 10:42:32.83	127.34	6.41	-17.2	-39.6	3.8	7.54e-01	0	54	104	0	3	54860
2026-01-13 10:42:33.84	127.27	6.48	-15.2	-37.9	3.8	7.47e-01	0	54	104	0	1	50481
2026-01-13 10:42:34.85	127.20	6.56	-11.9	-37.5	3.7	7.34e-01	0	54	104	0	0	51530
2026-01-13 10:42:35.86	127.13	6.63	-16.5	-43.0	3.3	7.60e-01	0	54	104	0	7	64942
2026-01-13 10:42:36.87	127.05	6.71	-14.1	-37.8	3.8	7.48e-01	0	54	104	0	2	47502
2026-01-13 10:42:37.88	126.98	6.78	-13.6	-38.7	3.6	7.60e-01	0	54	104	0	0	59041
2026-01-13 10:42:38.89	126.91	6.86	-11.4	-37.5	3.8	7.58e-01	0	54	104	0	0	51578
2026-01-13 10:42:39.90	126.84	6.94	-16.0	-40.4	3.7	7.45e-01	0	54	104	0	6	50511
2026-01-13 10:42:40.92	126.76	7.01	-19.8	-44.1	3.4	7.69e-01	0	54	104	0	9	65529
2026-01-13 10:42:41.93	126.69	7.09	-12.2	-39.6	3.8	7.64e-01	0	55	104	0	0	65051
2026-01-13 10:42:42.94	126.62	7.17	-15.8	-38.7	3.4	7.56e-01	0	55	104	0	4	46549
2026-01-13 10:42:43.95	126.54	7.24	-20.1	-45.3	3.5	7.59e-01	0	54	104	0	12	63041
2026-01-13 10:42:44.96	126.47	7.32	-19.6	-45.0	3.8	7.52e-01	0	55	104	0	12	60994
2026-01-13 10:42:45.97	126.39	7.40	-11.6	-37.6	3.8	7.42e-01	0	55	104	0	0	51738
2026-01-13 10:42:46.98	126.32	7.47	-13.5	-40.3	3.8	7.62e-01	0	55	104	0	5	53059
2026-01-13 10:42:47.99	126.24	7.55	-17.9	-43.6	3.6	7.65e-01	0	55	104	0	8	65535
2026-01-13 10:42:49.00	126.16	7.63	-17.6	-39.2	3.6	7.52e-01	0	55	104	0	4	49649
2026-01-13 10:42:50.01	126.08	7.71	-20.6	-43.1	3.6	7.58e-01	0	55	104	0	7	65535
2026-01-13 10:42:51.02	126.01	7.79	-17.7	-43.0	3.7	7.57e-01	0	55	104	0	7	64713
2026-01-13 10:42:52.03	125.93	7.86	-20.0	-43.1	3.6	7.55e-01	0	55	104	0	7	65196
2026-01-13 10:42:53.04	125.85	7.94	-12.4	-37.6	3.6	7.53e-01	0	55	104	0	0	51982
2026-01-13 10:42:54.05	125.77	8.02	-11.6	-37.7	3.7	7.28e-01	0	55	104	0	0	52488
2026-01-13 10:42:55.06	125.69	8.10	-18.2	-43.0	3.8	7.61e-01	0	55	104	0	9	57538
2026-01-13 10:42:56.07	125.61	8.18	-19.9	-43.6	3.3	7.75e-01	0	55	104	0	8	65535
2026-01-13 10:42:57.08	125.53	8.26	-12.4	-36.5	3.8	7.42e-01	0	55	104	0	0	45654
2026-01-13 10:42:58.09	125.45	8.34	-12.6	-39.6	3.3	7.63e-01	0	55	104	0	0	65256
2026-01-13 10:42:59.10	125.37	8.42	-13.9	-38.1	4.2	7.58e-01	0	55	104	0	3	46229
2026-01-13 10:43:00.11	125.29	8.50	-11.9	-35.4	4.0	7.30e-01	0	55	104	0	0	40209
2026-01-13 10:43:01.12	125.20	8.58	-10.9	-35.0	3.8	7.58e-01	0	55	104	0	0	38281
2026-01-13 10:43:02.13	125.12	8.66	-16.1	-39.2	4.1	7.59e-01	0	55	104	0	4	49809
2026-01-13 10:43:03.14	125.04	8.74	-17.6	-39.2	3.7	7.61e-01	0	55	104	0	1	59030
2026-01-13 10:43:04.15	124.95	8.82	-14.7	-39.8	3.7	7.22e-01	0	55	104	0	7	44467
2026-01-13 10:43:05.16	124.87	8.91	-11.9	-41.1	4.0	7.62e-01	0	55	104	0	7	51734
2026-01-13 10:43:06.17	124.78	8.99	-18.8	-44.4	4.3	7.46e-01	0	55	104	0	21	33934
2026-01-13 10:43:07.18	124.70	9.07	-14.8	-39.6	3.7	7.54e-01	0	55	104	0	3	54847
2026-01-13 10:43:08.19	124.61	9.15	-20.1	-42.3	3.7	7.49e-01	0	55	104	0	7	59817
2026-01-13 10:43:09.20	124.53	9.24	-19.0	-44.6	3.7	7.57e-01	0	55	104	0	12	58227
2026-01-13 10:43:10.20	124.44	9.32	-18.2	-43.5	3.8	7.54e-01	0	56	104	0	12	51031
2026-01-13 10:43:11.21	124.35	9.40	-23.5	-44.2	3.8	7.59e-01	0	55	104	0	14	49795
2026-01-13 10:43:12.22	124.26	9.48	-25.9	-45.1	4.7	7.32e-01	0	55	104	0	26	27553
2026-01-13 10:43:13.23	124.17	9.57	-19.4	-43.2	3.3	7.72e-01	0	55	104	0	8	62651
2026-01-13 10:43:14.24	124.08	9.65	-32.1	-45.2	4.1	7.24e-01	0	55	104	0	28	24925
2026-01-13 10:43:15.25	123.99	9.73	-26.2	-49.8	4.0	7.59e-01	0	55	104	0	22	59842
2026-01-13 10:43:16.26	123.90	9.82	-28.9	-44.0	8.0	6.49e-01	86	56	0	0	31	18127
2026-01-13 10:43:17.27	123.81	9.90	-17.4	-39.8	4.5	7.33e-01	0	56	104	0	8	41998
2026-01-13 10:43:18.28	123.72	9.99	-30.1	-42.9	7.2	6.73e-01	39	55	0	524288	27	20089
2026-01-13 10:43:19.28	123.63	10.07	-29.9	-43.2	4.5	7.36e-01	0	55	104	1048576	14	44021
2026-01-13 10:43:20.30	123.53	10.16	-23.1	-40.9	3.9	7.30e-01	0	56	104	1048576	16	30168
2026-01-13 10:43:21.30	123.44	10.24	-24.7	-43.6	6.9	6.48e-01	83	55	0	1048576	31	17449
2026-01-13 10:43:22.31	123.35	10.33	-27.0	-43.2	6.4	6.63e-01	92	56	0	1048576	28	19813
2026-01-13 10:43:23.32	123.25	10.42	-27.3	-44.6	4.3	7.33e-01	0	56	104	1048576	19	38811
2026-01-13 10:43:24.33	123.16	10.50	-26.5	-43.0	6.6	6.65e-01	7	55	104	1048576	26	21578
2026-01-13 10:43:25.34	123.06	10.59	-17.6	-41.0	4.0	7.47e-01	0	56	104	1572864	10	43192
2026-01-13 10:43:26.35	122.96	10.68	-29.2	-41.9	4.5	7.33e-01	0	56	104	1572864	17	31949
2026-01-13 10:43:27.37	122.87	10.76	-25.8	-43.1	5.9	6.68e-01	0	56	104	1572864	21	29307
2026-01-13 10:43:28.37	122.77	10.85	-28.6	-43.9	7.4	6.55e-01	92	56	0	2097152	32	17021
2026-01-13 10:43:29.38	122.67	10.94	-24.9	-42.4	6.8	6.72e-01	0	56	104	2621440	27	19031
2026-01-13 10:43:30.39	122.57	11.03	-31.4	-42.7	8.0	6.58e-01	53	56	0	3145728	30	16565
2026-01-13 10:43:31.40	122.47	11.11	-30.5	-43.8	4.6	7.23e-01	0	56	104	4194304	25	24992
2026-01-13 10:43:32.41	122.37	11.20	-27.3	-43.3	4.0	7.43e-01	0	56	104	4194304	18	35507
2026-01-13 10:43:33.42	122.27	11.29	-17.1	-41.8	4.3	7.22e-01	0	56	104	4194304	18	29870
2026-01-13 10:43:34.43	122.17	11.38	-28.2	-43.5	4.7	7.24e-01	0	56	104	4194304	28	20416
2026-01-13 10:43:35.44	122.06	11.47	-27.4	-43.9	4.2	7.20e-01	0	56	104	4718592	23	28584
2026-01-13 10:43:36.45	121.96	11.56	-30.7	-43.9	7.8	6.61e-01	89	56	0	5242880	33	16126
2026-01-13 10:43:37.46	121.86	11.65	-23.6	-40.4	3.9	7.36e-01	0	56	104	5242880	13	33956
2026-01-13 10:43:38.46	121.75	11.74	-17.5	-40.3	4.3	7.32e-01	0	56	104	5242880	16	28090
2026-01-13 10:43:39.47	121.65	11.83	-23.3	-42.4	4.5	7.38e-01	0	56	104	5242880	22	25519
2026-01-13 10:43:40.49	121.54	11.92	-24.5	-43.0	6.1	6.74e-01	0	56	0	5242880	25	23024
2026-01-13 10:43:41.50	121.43	12.01	-24.1	-44.5	4.4	7.12e-01	0	56	104	5242880	23	30442
2026-01-13 10:43:42.50	121.33	12.10	-32.7	-43.0	10.1	6.28e-01	82	56	0	5242880	33	14423
2026-01-13 10:43:43.51	121.22	12.19	-27.0	-42.1	6.7	6.44e-01	46	56	0	6291456	29	16444
2026-01-13 10:43:44.52	121.11	12.28	-23.9	-41.6	4.1	7.41e-01	0	56	104	7340032	17	31004
2026-01-13 10:43:45.53	121.00	12.38	-22.4	-42.9	6.5	6.59e-01	40	56	0	7340032	26	21498
2026-01-13 10:43:46.54	120.89	12.47	-21.2	-40.8	4.6	7.23e-01	0	56	104	7340032	21	22351
2026-01-13 10:43:47.55	120.78	12.56	-30.3	-43.9	4.6	7.21e-01	0	56	104	7340032	30	19027
2026-01-13 10:43:48.56	120.67	12.66	-29.7	-42.7	4.3	7.44e-01	0	56	104	7340032	18	32955
2026-01-13 10:43:49.57	120.55	12.75	-28.1	-43.6	8.8	6.26e-01	53	56	0	7340032	32	16378
2026-01-13 10:43:50.58	120.44	12.84	-33.1	-43.4	9.3	6.28e-01	67	56	0	8912896	34	14373
2026-01-13 10:43:51.59	120.32	12.94	-27.4	-42.5	4.4	7.33e-01	0	56	104	8912896	19	30491
2026-01-13 10:43:52.60	120.21	13.03	-28.2	-42.7	8.1	6.29e-01	80	56	0	9437184	31	15625
2026-01-13 10:43:53.61	120.09	13.12	-34.0	-43.7	7.8	6.52e-01	69	56	0	11010048	32	16587
2026-01-13 10:43:54.62	119.98	13.22	-30.5	-43.5	7.3	6.32e-01	58	57	0	12582912	31	17258
2026-01-13 10:43:55.62	119.86	13.31	-20.8	-38.2	3.6	7.09e-01	0	56	104	12582912	14	24921
2026-01-13 10:43:56.63	119.74	13.41	-32.7	-45.3	5.1	7.20e-01	0	56	104	12582912	39	13264
2026-01-13 10:43:57.64	119.62	13.50	-30.2	-42.2	8.6	6.55e-01	24	56	0	13631488	31	14796
2026-01-13 10:43:58.65	119.50	13.60	-31.9	-44.4	10.4	6.21e-01	38	56	0	15204352	38	12776
2026-01-13 10:43:59.66	119.38	13.70	-29.7	-43.5	9.6	6.24e-01	44	56	0	16777216	36	12905
2026-01-13 10:44:00.67	119.26	13.79	-34.1	-44.3	9.6	6.36e-01	58	56	0	18874368	40	11285
2026-01-13 10:44:01.68	119.14	13.89	-37.0	-44.5	12.0	6.15e-01	20	56	0	20971520	45	8598
2026-01-13 10:44:02.69	119.01	13.99	-37.0	-44.7	12.8	6.14e-01	12	56	0	22544384	46	8357
2026-01-13 10:44:03.70	118.89	14.09	-29.0	-42.2	9.2	6.55e-01	30	56	0	24117248	32	13897
2026-01-13 10:44:04.71	118.76	14.18	-25.9	-42.2	8.3	6.49e-01	80	56	0	26214400	29	16667
2026-01-13 10:44:05.72	118.64	14.28	-36.1	-45.0	9.4	6.18e-01	36	56	0	27787264	40	12110
2026-01-13 10:44:06.73	118.51	14.38	-34.7	-43.3	8.7	6.29e-01	51	56	0	29360128	32	15868
2026-01-13 10:44:07.74	118.38	14.48	-38.5	-44.5	13.5	6.12e-01	1	56	0	30932992	47	7665
2026-01-13 10:44:08.75	118.25	14.58	-28.3	-42.7	9.0	6.47e-01	74	57	0	32505856	28	18581
2026-01-13 10:44:09.76	118.12	14.68	-30.6	-42.5	10.6	6.55e-01	62	56	0	34078720	30	16159
2026-01-13 10:44:10.77	117.99	14.78	-27.7	-42.2	7.3	6.57e-01	41	56	0	35651584	31	14840
2026-01-13 10:44:11.78	117.86	14.88	-39.2	-44.9	15.5	6.08e-01	0	57	0	37748736	50	6755
2026-01-13 10:44:12.79	117.72	14.98	-32.0	-44.1	12.8	6.13e-01	13	57	0	39321600	41	10365
2026-01-13 10:44:13.80	117.59	15.08	-34.5	-44.5	10.6	6.27e-01	44	57	0	40894464	38	12932
2026-01-13 10:44:14.81	117.46	15.18	-37.4	-44.7	14.5	6.07e-01	0	57	0	42991616	46	8324
2026-01-13 10:44:15.82	117.32	15.28	-39.2	-44.7	15.2	6.09e-01	0	57	0	44564480	50	6631
2026-01-13 10:44:16.83	117.18	15.38	-34.5	-44.1	10.9	6.29e-01	34	57	0	46661632	40	10959
2026-01-13 10:44:17.84	117.04	15.48	-39.6	-44.5	13.3	6.09e-01	5	57	0	48758784	47	7717
2026-01-13 10:44:18.85	116.91	15.58	-38.6	-44.6	14.6	6.10e-01	4	57	0	50331648	49	6944
2026-01-13 10:44:19.86	116.77	15.69	-33.8	-44.5	11.7	6.17e-01	20	57	0	52428800	47	7635
2026-01-13 10:44:20.86	116.63	15.79	-34.3	-44.3	9.2	6.30e-01	47	57	0	54001664	38	12614
2026-01-13 10:44:21.87	116.48	15.89	-33.7	-44.3	12.1	6.14e-01	11	57	0	56098816	39	11946
2026-01-13 10:44:22.88	116.34	15.99	-32.1	-43.9	9.6	6.36e-01	54	57	0	57671680	37	12726
2026-01-13 10:44:23.89	116.20	16.10	-35.6	-44.4	12.1	6.22e-01	25	57	0	59768832	43	9569
2026-01-13 10:44:24.90	116.05	16.20	-39.7	-44.3	14.9	6.09e-01	1	56	0	61341696	47	7527
2026-01-13 10:44:25.91	115.90	16.31	-36.9	-44.5	14.3	6.11e-01	7	57	0	63438848	44	9085
2026-01-13 10:44:26.92	115.76	16.41	-39.4	-44.3	15.0	6.09e-01	3	57	0	65011712	48	7106
2026-01-13 10:44:27.93	115.61	16.52	-40.4	-44.7	15.7	6.07e-01	1	57	0	67108864	51	6207
2026-01-13 10:44:28.94	115.46	16.62	-40.9	-44.4	15.7	6.10e-01	2	57	0	69206016	51	6020
2026-01-13 10:44:29.95	115.31	16.73	-40.5	-44.7	15.6	6.09e-01	0	57	0	70778880	51	6216
2026-01-13 10:44:30.96	115.16	16.83	-38.7	-44.4	15.1	6.07e-01	1	57	0	72876032	46	7996
2026-01-13 10:44:31.97	115.00	16.94	-40.4	-44.6	16.3	6.06e-01	2	57	0	74973184	52	5816
2026-01-13 10:44:32.98	114.85	17.05	-40.4	-44.7	17.1	6.07e-01	0	57	0	76546048	51	6221
2026-01-13 10:44:33.99	114.69	17.15	-41.1	-44.6	17.6	6.08e-01	0	57	0	78643200	52	5821
2026-01-13 10:44:35.00	114.54	17.26	-41.0	-44.7	18.1	6.07e-01	0	57	0	80216064	53	5574
2026-01-13 10:44:36.01	114.38	17.37	-37.4	-44.5	17.1	6.06e-01	0	57	0	82313216	49	6867
2026-01-13 10:44:37.02	114.22	17.47	-41.8	-44.9	18.4	6.07e-01	0	57	0	84410368	53	5722
2026-01-13 10:44:38.03	114.06	17.58	-41.1	-44.7	18.4	6.08e-01	0	57	0	85983232	53	5540
2026-01-13 10:44:39.03	113.90	17.69	-40.6	-44.6	18.1	6.06e-01	0	57	0	88080384	52	5837
2026-01-13 10:44:40.04	113.74	17.80	-41.1	-44.7	18.3	6.07e-01	0	57	0	89653248	53	5578
2026-01-13 10:44:41.05	113.57	17.91	-41.4	-44.7	18.0	6.04e-01	0	57	0	91750400	53	5590
2026-01-13 10:44:42.06	113.41	18.02	-40.4	-44.7	17.9	6.05e-01	0	57	0	93847552	53	5551
2026-01-13 10:44:43.07	113.24	18.12	-41.0	-44.7	18.4	6.07e-01	0	57	0	95420416	52	5878
2026-01-13 10:44:44.08	113.07	18.23	-41.2	-44.6	18.0	6.05e-01	0	57	0	97517568	53	5497
2026-01-13 10:44:45.09	112.90	18.34	-41.4	-44.7	18.5	6.07e-01	0	57	0	99614720	53	5532
2026-01-13 10:44:46.10	112.73	18.45	-41.4	-44.7	18.5	6.06e-01	0	57	0	101187584	53	5550
2026-01-13 10:44:47.11	112.56	18.57	-40.9	-44.7	18.5	6.06e-01	0	57	0	103284736	53	5539
2026-01-13 10:44:48.12	112.39	18.68	-41.3	-44.6	18.5	6.07e-01	0	57	0	104857600	53	5473
2026-01-13 10:44:49.13	112.21	18.79	-41.3	-44.6	18.6	6.04e-01	0	57	0	106954752	53	5492
2026-01-13 10:44:50.14	112.04	18.90	-41.3	-44.6	18.7	6.06e-01	0	57	0	109051904	53	5466
2026-01-13 10:44:51.15	111.86	19.01	-41.3	-44.5	18.7	6.05e-01	0	57	0	110624768	53	5450
2026-01-13 10:44:52.16	111.68	19.12	-41.4	-44.6	18.6	6.06e-01	0	57	0	112721920	53	5516
2026-01-13 10:44:53.17	111.50	19.24	-41.0	-44.7	18.5	6.06e-01	0	57	0	114294784	53	5584
2026-01-13 10:44:54.18	111.32	19.35	-41.6	-44.9	18.4	6.08e-01	0	57	0	116391936	53	5679
2026-01-13 10:44:55.19	111.14	19.46	-41.5	-44.7	18.5	6.08e-01	0	57	0	118489088	53	5589
2026-01-13 10:44:56.19	110.95	19.57	-41.5	-44.7	18.5	6.06e-01	0	57	0	120061952	53	5584
2026-01-13 10:44:57.20	110.77	19.69	-41.4	-44.5	18.7	6.03e-01	0	57	0	122159104	53	5451
2026-01-13 10:44:58.21	110.58	19.80	-41.5	-44.7	18.6	6.08e-01	0	57	0	123731968	53	5562
2026-01-13 10:44:59.22	110.39	19.91	-41.5	-44.7	18.6	6.04e-01	0	57	0	125829120	53	5550
2026-01-13 10:45:00.23	110.20	20.03	-41.5	-44.7	18.6	6.08e-01	0	57	0	127926272	53	5556
2026-01-13 10:45:01.24	110.01	20.14	-41.5	-44.6	18.6	6.06e-01	0	57	0	129499136	53	5528
2026-01-13 10:45:02.25	109.82	20.26	-41.5	-44.7	18.6	6.04e-01	0	57	0	131596288	53	5565
2026-01-13 10:45:03.26	109.62	20.37	-41.6	-44.9	18.3	6.04e-01	0	57	0	133169152	53	5709
2026-01-13 10:45:04.27	109.42	20.49	-41.7	-45.1	18.2	6.03e-01	0	57	0	135266304	54	5496
2026-01-13 10:45:05.28	109.23	20.60	-41.7	-45.1	18.3	6.08e-01	0	57	0	137363456	54	5476
2026-01-13 10:45:06.29	109.03	20.72	-41.7	-45.0	18.3	6.08e-01	0	57	0	138936320	54	5449
2026-01-13 10:45:07.30	108.83	20.83	-41.5	-45.0	18.2	6.06e-01	0	57	0	141033472	54	5443
2026-01-13 10:45:08.31	108.62	20.95	-41.7	-44.9	18.4	6.07e-01	0	57	0	143130624	54	5380
2026-01-13 10:45:09.32	108.42	21.07	-41.7	-44.9	18.4	6.07e-01	0	57	0	144703488	54	5358
2026-01-13 10:45:10.33	108.21	21.18	-41.6	-44.8	18.5	6.09e-01	0	57	0	146800640	54	5309
2026-01-13 10:45:11.34	108.00	21.30	-41.6	-44.7	18.6	6.09e-01	0	57	0	148373504	54	5273
2026-01-13 10:45:12.35	107.79	21.42	-41.6	-44.8	18.5	6.09e-01	0	57	0	150470656	54	5339
2026-01-13 10:45:13.36	107.58	21.53	-41.6	-44.8	18.6	6.07e-01	0	57	0	152567808	54	5304
2026-01-13 10:45:14.37	107.37	21.65	-41.6	-44.9	18.5	6.08e-01	0	57	0	154140672	54	5343
2026-01-13 10:45:15.38	107.16	21.77	-41.6	-44.9	18.5	6.06e-01	0	57	0	156237824	54	5371
2026-01-13 10:45:16.39	106.94	21.88	-41.8	-45.1	18.3	6.06e-01	0	57	0	157810688	54	5472
2026-01-13 10:45:17.40	106.72	22.00	-41.9	-45.2	18.2	6.05e-01	0	57	0	159907840	54	5559
2026-01-13 10:45:18.40	106.50	22.12	-41.9	-45.3	18.1	6.03e-01	0	57	0	162004992	54	5621
2026-01-13 10:45:19.42	106.28	22.24	-41.9	-45.3	18.1	6.09e-01	0	57	0	163577856	54	5618
2026-01-13 10:45:20.43	106.06	22.36	-41.9	-45.2	18.1	6.05e-01	0	57	0	165675008	54	5581
2026-01-13 10:45:21.43	105.83	22.47	-41.8	-45.2	18.2	6.07e-01	0	57	0	167772160	54	5539
2026-01-13 10:45:22.44	105.61	22.59	-41.8	-45.1	18.3	6.07e-01	0	57	0	169345024	54	5480
2026-01-13 10:45:23.45	105.38	22.71	-41.7	-44.9	18.5	6.07e-01	0	57	0	171442176	54	5382
2026-01-13 10:45:24.46	105.15	22.83	-41.7	-44.9	18.5	6.07e-01	0	57	0	173015040	54	5367
2026-01-13 10:45:25.47	104.92	22.95	-41.7	-45.0	18.4	6.06e-01	0	57	0	175112192	54	5424
2026-01-13 10:45:26.48	104.68	23.07	-41.7	-45.0	18.4	6.07e-01	0	57	0	177209344	54	5432
2026-01-13 10:45:27.49	104.45	23.19	-41.7	-44.9	18.5	6.04e-01	0	57	0	178782208	54	5362
2026-01-13 10:45:28.50	104.21	23.31	-41.7	-45.0	18.4	6.04e-01	0	57	0	180879360	54	5409
2026-01-13 10:45:29.51	103.97	23.43	-41.6	-44.8	18.7	6.08e-01	0	57	0	182452224	54	5294
2026-01-13 10:45:30.52	103.73	23.55	-41.6	-44.8	18.7	6.08e-01	0	57	0	184549376	54	5285
2026-01-13 10:45:31.53	103.48	23.66	-41.5	-44.6	18.8	6.05e-01	0	57	0	186646528	54	5198
2026-01-13 10:45:32.54	103.24	23.78	-41.5	-44.5	18.9	6.03e-01	0	57	0	188219392	54	5139
2026-01-13 10:45:33.55	102.99	23.90	-41.5	-44.6	18.8	6.08e-01	0	57	0	190316544	54	5201
2026-01-13 10:45:34.56	102.74	24.02	-41.6	-44.8	18.6	6.08e-01	0	57	0	191889408	54	5319
2026-01-13 10:45:35.57	102.49	24.14	-41.7	-44.9	18.5	6.06e-01	0	57	0	193986560	54	5387
2026-01-13 10:45:36.58	102.23	24.26	-41.8	-45.1	18.4	6.08e-01	0	57	0	196083712	54	5488
2026-01-13 10:45:37.59	101.98	24.38	-42.0	-45.3	18.2	6.09e-01	0	58	0	197656576	54	5647
2026-01-13 10:45:38.60	101.72	24.50	-42.0	-45.4	18.1	6.06e-01	0	57	0	199753728	54	5664
2026-01-13 10:45:39.60	101.46	24.62	-41.8	-45.3	18.2	6.08e-01	0	57	0	201326592	54	5608
2026-01-13 10:45:40.61	101.20	24.74	-41.8	-45.0	18.4	6.04e-01	0	57	0	203423744	54	5447
2026-01-13 10:45:41.62	100.93	24.86	-41.6	-44.7	18.8	6.06e-01	0	57	0	205520896	54	5228
2026-01-13 10:45:42.63	100.67	24.98	-41.5	-44.6	18.9	6.04e-01	0	57	0	207093760	54	5174
2026-01-13 10:45:43.64	100.40	25.10	-41.6	-44.7	18.8	6.09e-01	0	57	0	209190912	54	5240
2026-01-13 10:45:44.65	100.13	25.22	-41.7	-44.9	18.6	6.06e-01	0	58	0	211288064	54	5345
2026-01-13 10:45:45.66	99.86	25.34	-41.8	-44.9	18.6	6.07e-01	0	57	0	212860928	54	5398
2026-01-13 10:45:46.67	99.58	25.45	-41.7	-44.9	18.5	6.06e-01	0	57	0	214958080	54	5391
2026-01-13 10:45:47.68	99.31	25.57	-41.7	-44.8	18.7	6.05e-01	0	57	0	216530944	54	5334
2026-01-13 10:45:48.69	99.03	25.69	-41.7	-44.8	18.7	6.05e-01	0	57	0	218628096	54	5307
2026-01-13 10:45:49.70	98.74	25.81	-41.7	-44.9	18.6	6.05e-01	0	58	0	220725248	54	5362
2026-01-13 10:45:50.71	98.46	25.93	-41.6	-44.8	18.7	6.02e-01	0	57	0	222298112	54	5288
2026-01-13 10:45:51.72	98.18	26.05	-41.6	-44.7	18.8	6.07e-01	0	57	0	224395264	54	5235
2026-01-13 10:45:52.73	97.89	26.16	-41.6	-44.7	18.9	6.06e-01	0	57	0	225968128	54	5220
2026-01-13 10:45:53.74	97.60	26.28	-41.6	-44.6	18.9	6.07e-01	0	58	0	228065280	54	5207
2026-01-13 10:45:54.75	97.30	26.40	-41.4	-44.4	19.1	6.07e-01	0	57	0	230162432	54	5068
2026-01-13 10:45:55.76	97.01	26.52	-41.4	-44.3	19.2	6.07e-01	0	57	0	231735296	54	5025
2026-01-13 10:45:56.77	96.71	26.63	-41.4	-44.3	19.2	6.05e-01	0	57	0	233832448	54	5014
2026-01-13 10:45:57.78	96.41	26.75	-41.4	-44.3	19.2	6.05e-01	0	57	0	235405312	54	5035
2026-01-13 10:45:58.79	96.11	26.87	-41.5	-44.4	19.1	6.06e-01	0	57	0	237502464	54	5085
2026-01-13 10:45:59.80	95.81	26.98	-41.6	-44.6	18.9	6.05e-01	0	57	0	239599616	54	5210
2026-01-13 10:46:00.81	95.50	27.10	-41.6	-44.6	18.9	6.09e-01	0	57	0	241172480	54	5186
2026-01-13 10:46:01.82	95.19	27.21	-41.4	-44.3	19.3	6.07e-01	0	58	0	243269632	54	4998
2026-01-13 10:46:02.83	94.88	27.33	-41.3	-44.2	19.3	6.04e-01	0	58	0	244842496	54	4953
2026-01-13 10:46:03.84	94.57	27.44	-41.3	-44.2	19.4	6.04e-01	0	57	0	246939648	54	4934
2026-01-13 10:46:04.84	94.26	27.56	-41.3	-44.3	19.3	6.07e-01	0	58	0	249036800	54	4984
2026-01-13 10:46:05.85	93.94	27.67	-41.3	-44.1	19.5	6.06e-01	0	57	0	250609664	54	4902
2026-01-13 10:46:06.86	93.62	27.78	-41.3	-44.2	19.4	6.07e-01	0	58	0	252706816	54	4945
2026-01-13 10:46:07.87	93.30	27.90	-41.3	-44.2	19.3	6.05e-01	0	57	0	254279680	54	4967
2026-01-13 10:46:08.88	92.97	28.01	-41.3	-44.2	19.4	6.06e-01	0	57	0	256376832	54	4945
2026-01-13 10:46:09.89	92.64	28.12	-41.2	-44.1	19.5	6.06e-01	0	58	0	258473984	54	4889
2026-01-13 10:46:10.90	92.31	28.23	-41.2	-44.0	19.6	6.07e-01	0	58	0	260046848	54	4842
2026-01-13 10:46:11.91	91.98	28.34	-41.2	-44.0	19.6	6.06e-01	0	57	0	262144000	54	4845
2026-01-13 10:46:12.92	91.65	28.45	-41.2	-44.0	19.5	6.05e-01	0	57	0	264241152	54	4870
2026-01-13 10:46:13.93	91.31	28.56	-41.1	-43.9	19.7	6.04e-01	0	57	0	265814016	54	4798
2026-01-13 10:46:14.94	90.97	28.67	-41.2	-44.1	19.5	6.04e-01	0	57	0	267911168	54	4874
2026-01-13 10:46:15.95	90.63	28.78	-41.1	-43.9	19.7	6.03e-01	0	57	0	269484032	54	4790
2026-01-13 10:46:16.96	90.29	28.89	-41.1	-43.9	19.7	6.06e-01	0	58	0	271581184	54	4806
2026-01-13 10:46:17.97	89.94	29.00	-41.3	-44.1	19.5	6.08e-01	0	57	0	273678336	54	4898
2026-01-13 10:46:18.98	89.59	29.10	-41.3	-44.2	19.4	6.08e-01	0	57	0	275251200	54	4967
2026-01-13 10:46:19.99	89.24	29.21	-41.4	-44.2	19.4	6.06e-01	0	58	0	277348352	54	4976
2026-01-13 10:46:21.00	88.89	29.31	-41.2	-44.0	19.6	6.08e-01	0	58	0	279445504	54	4825
2026-01-13 10:46:22.00	88.53	29.42	-41.2	-44.0	19.6	6.06e-01	0	58	0	281018368	54	4843
2026-01-13 10:46:23.01	88.18	29.52	-41.2	-44.0	19.6	6.07e-01	0	58	0	283115520	54	4824
2026-01-13 10:46:24.02	87.81	29.62	-41.1	-43.9	19.7	6.06e-01	0	58	0	284688384	54	4774
2026-01-13 10:46:25.03	87.45	29.72	-41.2	-44.0	19.7	6.05e-01	0	57	0	286785536	54	4816
2026-01-13 10:46:26.04	87.09	29.82	-41.1	-43.9	19.8	6.05e-01	0	58	0	288882688	54	4771
2026-01-13 10:46:27.05	86.72	29.92	-41.1	-43.8	19.8	6.05e-01	0	58	0	290455552	54	4743
2026-01-13 10:46:28.06	86.35	30.02	-41.1	-43.8	19.8	6.06e-01	0	58	0	292552704	54	4741
2026-01-13 10:46:29.07	85.98	30.12	-41.2	-43.9	19.7	6.08e-01	0	57	0	294125568	54	4810
2026-01-13 10:46:30.08	85.60	30.22	-41.0	-43.7	19.9	6.06e-01	0	58	0	296222720	54	4686
2026-01-13 10:46:31.09	85.22	30.31	-40.9	-43.5	20.1	6.07e-01	0	58	0	298319872	53	4869
2026-01-13 10:46:32.10	84.84	30.41	-41.1	-43.8	19.8	6.06e-01	0	57	0	299892736	53	5020
2026-01-13 10:46:33.11	84.46	30.50	-41.1	-43.8	19.8	6.07e-01	0	58	0	301989888	53	5015
2026-01-13 10:46:34.12	84.08	30.59	-41.0	-43.8	19.9	6.08e-01	0	58	0	303562752	53	4987
2026-01-13 10:46:35.13	83.69	30.69	-41.0	-43.7	19.9	6.08e-01	0	57	0	305659904	53	4939
2026-01-13 10:46:36.14	83.30	30.78	-41.1	-43.8	19.8	6.07e-01	0	57	0	307757056	53	5003
2026-01-13 10:46:37.15	82.91	30.87	-41.1	-43.9	19.8	6.06e-01	0	58	0	309329920	53	5064
2026-01-13 10:46:38.16	82.52	30.95	-41.0	-43.7	19.9	6.04e-01	0	58	0	311427072	53	4967
2026-01-13 10:46:39.17	82.12	31.04	-40.9	-43.6	20.1	6.07e-01	0	58	0	312999936	53	4887
2026-01-13 10:46:40.17	81.73	31.13	-41.1	-43.8	19.9	6.06e-01	0	58	0	315097088	53	5007
2026-01-13 10:46:41.18	81.33	31.21	-41.2	-44.0	19.6	6.05e-01	0	58	0	317194240	53	5157
2026-01-13 10:46:42.19	80.93	31.29	-41.0	-43.8	19.8	6.04e-01	0	58	0	318767104	53	4999
2026-01-13 10:46:43.20	80.53	31.38	-41.1	-43.8	19.8	6.06e-01	0	58	0	320864256	53	5019
2026-01-13 10:46:44.21	80.12	31.46	-41.0	-43.7	20.0	6.08e-01	0	57	0	322437120	53	4949
2026-01-13 10:46:45.22	79.71	31.54	-41.1	-43.8	19.9	6.08e-01	0	58	0	324534272	53	5023
2026-01-13 10:46:46.23	79.30	31.61	-41.1	-43.8	19.9	6.03e-01	0	58	0	326631424	53	5021
2026-01-13 10:46:47.24	78.89	31.69	-41.1	-43.8	19.9	6.09e-01	0	58	0	328204288	53	4999
2026-01-13 10:46:48.25	78.48	31.76	-41.1	-43.9	19.8	6.08e-01	0	58	0	330301440	53	5074
2026-01-13 10:46:49.26	78.06	31.84	-41.2	-44.0	19.7	6.06e-01	0	58	0	332398592	53	5138
2026-01-13 10:46:50.27	77.64	31.91	-41.2	-44.0	19.7	6.05e-01	0	58	0	333971456	53	5146
2026-01-13 10:46:51.28	77.22	31.98	-41.1	-43.9	19.8	6.06e-01	0	58	0	336068608	53	5057
2026-01-13 10:46:52.29	76.80	32.05	-41.2	-44.0	19.7	6.07e-01	0	58	0	337641472	53	5111
2026-01-13 10:46:53.30	76.38	32.12	-41.3	-44.1	19.6	6.07e-01	0	58	0	339738624	53	5209
2026-01-13 10:46:54.30	75.96	32.18	-41.3	-44.1	19.6	6.06e-01	0	58	0	341835776	53	5161
2026-01-13 10:46:55.31	75.53	32.25	-41.0	-43.7	19.9	6.06e-01	0	58	0	343408640	53	4981
2026-01-13 10:46:56.32	75.10	32.31	-41.1	-43.9	19.9	6.07e-01	0	58	0	345505792	53	5052
2026-01-13 10:46:57.33	74.67	32.37	-41.3	-44.1	19.6	6.07e-01	0	58	0	347602944	53	5190
2026-01-13 10:46:58.34	74.24	32.43	-41.3	-44.2	19.6	6.06e-01	0	58	0	349175808	53	5221
2026-01-13 10:46:59.35	73.81	32.49	-41.2	-44.0	19.7	6.06e-01	0	58	0	351272960	53	5129
2026-01-13 10:47:00.36	73.37	32.54	-41.1	-43.9	19.8	6.05e-01	0	58	0	352845824	53	5073
2026-01-13 10:47:01.37	72.93	32.60	-41.2	-43.9	19.8	6.07e-01	0	58	0	354942976	53	5098
2026-01-13 10:47:02.38	72.50	32.65	-41.3	-44.1	19.6	6.07e-01	0	58	0	356515840	53	5166
2026-01-13 10:47:03.39	72.06	32.70	-41.4	-44.2	19.5	6.07e-01	0	58	0	358612992	53	5260
2026-01-13 10:47:04.40	71.62	32.75	-41.1	-43.9	19.8	6.05e-01	0	58	0	360710144	53	5055
2026-01-13 10:47:05.41	71.17	32.80	-41.1	-43.9	19.9	6.04e-01	0	58	0	362283008	53	5061
2026-01-13 10:47:06.42	70.73	32.84	-41.2	-44.0	19.7	6.07e-01	0	58	0	364380160	53	5133
2026-01-13 10:47:07.42	70.29	32.89	-41.4	-44.3	19.5	6.05e-01	0	58	0	365953024	53	5307
2026-01-13 10:47:08.43	69.84	32.93	-41.2	-44.0	19.8	6.07e-01	0	58	0	368050176	53	5109
2026-01-13 10:47:09.44	69.40	32.97	-41.2	-43.9	19.8	6.07e-01	0	58	0	370147328	53	5095
2026-01-13 10:47:10.45	68.95	33.01	-41.4	-44.2	19.6	6.06e-01	0	58	0	371720192	53	5256
2026-01-13 10:47:11.46	68.50	33.04	-41.5	-44.5	19.3	6.05e-01	0	58	0	373817344	53	5409
2026-01-13 10:47:12.47	68.05	33.08	-41.2	-43.9	19.8	6.06e-01	0	58	0	375914496	53	5099
2026-01-13 10:47:13.48	67.60	33.11	-41.3	-44.0	19.7	6.08e-01	0	58	0	377487360	53	5151
2026-01-13 10:47:14.49	67.14	33.14	-41.3	-44.1	19.7	6.07e-01	0	58	0	379584512	53	5181
2026-01-13 10:47:15.50	66.69	33.17	-41.4	-44.3	19.5	6.07e-01	0	58	0	381157376	53	5293
2026-01-13 10:47:16.51	66.24	33.20	-41.4	-44.2	19.6	6.06e-01	0	58	0	383254528	53	5224
2026-01-13 10:47:17.52	65.78	33.22	-41.4	-44.2	19.5	6.09e-01	0	58	0	385351680	53	5274
2026-01-13 10:47:18.53	65.33	33.24	-41.2	-44.0	19.8	6.06e-01	0	58	0	386924544	53	5111
2026-01-13 10:47:19.54	64.87	33.26	-41.4	-44.2	19.6	6.08e-01	0	58	0	389021696	53	5264
2026-01-13 10:47:20.55	64.42	33.28	-41.4	-44.3	19.5	6.07e-01	0	58	0	390594560	53	5303
2026-01-13 10:47:21.55	63.96	33.30	-41.5	-44.3	19.5	6.05e-01	0	58	0	392691712	53	5320
2026-01-13 10:47:22.57	63.50	33.31	-41.5	-44.4	19.4	6.06e-01	0	58	0	394788864	53	5343
2026-01-13 10:47:23.58	63.04	33.33	-41.6	-44.5	19.2	6.08e-01	0	58	0	396361728	53	5453
2026-01-13 10:47:24.59	62.59	33.34	-41.8	-44.8	19.0	6.06e-01	0	58	0	398458880	54	5338
2026-01-13 10:47:25.59	62.13	33.34	-41.4	-44.3	19.5	6.07e-01	0	58	0	400556032	54	5015
2026-01-13 10:47:26.60	61.67	33.35	-41.3	-44.1	19.7	6.05e-01	0	58	0	402128896	54	4918
2026-01-13 10:47:27.61	61.22	33.36	-41.3	-44.2	19.6	6.05e-01	0	58	0	404226048	54	4936
2026-01-13 10:47:28.62	60.76	33.36	-41.5	-44.3	19.5	6.06e-01	0	58	0	405798912	54	5024
2026-01-13 10:47:29.63	60.30	33.36	-41.5	-44.4	19.4	6.06e-01	0	58	0	407896064	54	5045
2026-01-13 10:47:30.64	59.84	33.36	-41.5	-44.3	19.5	6.07e-01	0	58	0	409993216	54	5031
2026-01-13 10:47:31.65	59.38	33.35	-41.4	-44.3	19.6	6.07e-01	0	58	0	411566080	54	4989
2026-01-13 10:47:32.66	58.92	33.35	-41.4	-44.2	19.6	6.07e-01	0	58	0	413663232	54	4979
2026-01-13 10:47:33.67	58.47	33.34	-41.5	-44.4	19.4	6.06e-01	0	58	0	415236096	54	5083
2026-01-13 10:47:34.68	58.01	33.33	-41.6	-44.5	19.3	6.05e-01	0	58	0	417333248	54	5113
2026-01-13 10:47:35.69	57.55	33.32	-41.5	-44.4	19.4	6.07e-01	0	58	0	419430400	54	5045
2026-01-13 10:47:36.70	57.09	33.30	-41.6	-44.5	19.3	6.07e-01	0	58	0	421003264	54	5127
2026-01-13 10:47:37.71	56.64	33.29	-41.7	-44.7	19.1	6.06e-01	0	58	0	423100416	54	5272
2026-01-13 10:47:38.72	56.18	33.27	-41.8	-44.9	18.9	6.06e-01	0	58	0	424673280	54	5399
2026-01-13 10:47:39.73	55.72	33.25	-41.7	-44.7	19.1	6.05e-01	0	58	0	426770432	54	5245
2026-01-13 10:47:40.74	55.27	33.23	-41.6	-44.5	19.3	6.05e-01	0	58	0	428867584	54	5120
2026-01-13 10:47:41.74	54.82	33.21	-41.7	-44.7	19.2	6.06e-01	0	58	0	430440448	54	5219
2026-01-13 10:47:42.75	54.37	33.18	-41.8	-44.9	18.9	6.08e-01	0	58	0	432537600	54	5358
2026-01-13 10:47:43.76	53.91	33.15	-41.7	-44.7	19.1	6.04e-01	0	58	0	434110464	54	5270
2026-01-13 10:47:44.77	53.46	33.12	-41.6	-44.6	19.2	6.07e-01	0	58	0	436207616	54	5175
2026-01-13 10:47:45.78	53.01	33.09	-41.6	-44.5	19.4	6.05e-01	0	58	0	438304768	54	5109
2026-01-13 10:47:46.79	52.56	33.06	-41.7	-44.6	19.2	6.07e-01	0	58	0	439877632	54	5201
2026-01-13 10:47:47.80	52.11	33.02	-41.8	-44.8	19.0	6.06e-01	0	58	0	441974784	54	5295
2026-01-13 10:47:48.81	51.66	32.99	-41.7	-44.6	19.2	6.04e-01	0	58	0	444071936	54	5198
2026-01-13 10:47:49.82	51.21	32.95	-41.8	-44.9	18.9	6.07e-01	0	58	0	445644800	54	5375
2026-01-13 10:47:50.83	50.77	32.91	-41.7	-44.6	19.2	6.07e-01	0	58	0	447741952	54	5211
2026-01-13 10:47:51.84	50.32	32.86	-41.6	-44.6	19.3	6.06e-01	0	58	0	449314816	54	5160
2026-01-13 10:47:52.85	49.88	32.82	-41.8	-44.8	19.0	6.06e-01	0	58	0	451411968	54	5298
2026-01-13 10:47:53.86	49.44	32.77	-41.7	-44.8	19.1	6.08e-01	0	58	0	453509120	54	5287
2026-01-13 10:47:54.87	49.00	32.72	-41.6	-44.5	19.3	6.06e-01	0	58	0	455081984	54	5117
2026-01-13 10:47:55.88	48.56	32.67	-41.7	-44.7	19.1	6.06e-01	0	58	0	457179136	54	5276
2026-01-13 10:47:56.89	48.12	32.62	-41.8	-44.8	19.1	6.05e-01	0	58	0	458752000	54	5297
2026-01-13 10:47:57.90	47.68	32.57	-41.8	-44.8	19.1	6.04e-01	0	58	0	460849152	54	5295
2026-01-13 10:47:58.91	47.25	32.51	-41.7	-44.6	19.2	6.06e-01	0	58	0	462946304	54	5188
2026-01-13 10:47:59.92	46.82	32.46	-41.7	-44.6	19.2	6.05e-01	0	58	0	464519168	54	5202
2026-01-13 10:48:00.93	46.38	32.40	-41.7	-44.6	19.2	6.05e-01	0	58	0	466616320	54	5211
2026-01-13 10:48:01.94	45.95	32.34	-41.8	-44.8	19.0	6.06e-01	0	58	0	468713472	54	5332
2026-01-13 10:48:02.94	45.53	32.28	-41.7	-44.6	19.2	6.05e-01	0	58	0	470286336	54	5209
2026-01-13 10:48:03.95	45.10	32.21	-41.6	-44.6	19.3	6.07e-01	0	58	0	472383488	54	5171
2026-01-13 10:48:04.96	44.68	32.15	-41.7	-44.7	19.2	6.08e-01	0	58	0	473956352	54	5235
2026-01-13 10:48:05.97	44.25	32.08	-41.8	-44.8	19.1	6.07e-01	0	58	0	476053504	54	5282
2026-01-13 10:48:06.98	43.83	32.01	-41.6	-44.5	19.3	6.07e-01	0	58	0	478150656	54	5140
2026-01-13 10:48:07.99	43.41	31.94	-41.7	-44.6	19.2	6.07e-01	0	58	0	479723520	54	5207
2026-01-13 10:48:09.00	42.99	31.87	-41.7	-44.7	19.1	6.08e-01	0	58	0	481820672	54	5272
2026-01-13 10:48:10.01	42.58	31.80	-42.0	-54.4	3.8	7.47e-01	0	58	104	481820672	54	16115
2026-01-13 10:48:11.02	42.17	31.72	-42.0	-54.5	3.8	7.44e-01	0	58	104	481820672	54	16215
2026-01-13 10:48:12.03	41.75	31.65	-42.1	-54.4	3.9	7.44e-01	0	58	104	481820672	54	16008
2026-01-13 10:48:13.04	41.34	31.57	-41.9	-54.1	3.8	7.45e-01	0	58	104	481820672	54	15552
2026-01-13 10:48:14.05	40.94	31.49	-44.9	-60.5	3.8	7.49e-01	0	58	104	481820672	60	22993
2026-01-13 10:48:15.06	40.53	31.41	-44.4	-58.7	3.8	7.46e-01	0	58	104	481820672	59	19824
2026-01-13 10:48:16.07	40.13	31.33	-45.6	-63.1	3.8	7.44e-01	0	58	104	481820672	61	29185
2026-01-13 10:48:17.08	39.73	31.25	-45.1	-60.9	3.8	7.47e-01	0	58	104	481820672	60	23975
2026-01-13 10:48:18.08	39.33	31.17	-42.3	-54.8	3.9	7.42e-01	0	58	104	481820672	56	15023
2026-01-13 10:48:19.09	38.93	31.08	-42.5	-55.2	3.8	7.44e-01	0	58	104	481820672	56	15591
2026-01-13 10:48:20.10	38.54	31.00	-42.3	-54.7	3.9	7.38e-01	0	58	104	481820672	56	14803
2026-01-13 10:48:21.11	38.15	30.91	-43.6	-57.3	3.8	7.41e-01	0	58	104	481820672	58	17702
2026-01-13 10:48:22.12	37.75	30.82	-44.9	-60.8	3.8	7.45e-01	0	58	104	481820672	60	23591
2026-01-13 10:48:23.13	37.37	30.73	-45.3	-61.7	3.8	7.46e-01	0	58	104	481820672	61	24848
2026-01-13 10:48:24.14	36.98	30.64	-44.5	-59.3	3.8	7.39e-01	0	58	104	481820672	61	18910
2026-01-13 10:48:25.15	36.60	30.55	-45.2	-61.4	3.8	7.45e-01	0	58	104	481820672	61	24092
2026-01-13 10:48:26.16	36.21	30.45	-42.7	-55.2	4.2	7.31e-01	0	58	104	481820672	57	14757
2026-01-13 10:48:27.17	35.84	30.36	-42.6	-55.1	3.8	7.44e-01	0	58	104	481820672	57	14625
2026-01-13 10:48:28.18	35.46	30.26	-42.7	-55.6	3.8	7.43e-01	0	58	104	481820672	57	15527
2026-01-13 10:48:29.19	35.08	30.17	-43.6	-57.2	3.8	7.47e-01	0	58	104	481820672	57	18711
2026-01-13 10:48:30.20	34.71	30.07	-44.8	-60.4	3.9	7.44e-01	0	58	104	481820672	61	21504
2026-01-13 10:48:31.20	34.35	29.97	-45.0	-60.7	3.9	7.46e-01	0	58	104	481820672	61	22086
2026-01-13 10:48:32.21	33.98	29.88	-43.8	-57.4	3.8	7.44e-01	0	58	104	481820672	59	16913
2026-01-13 10:48:33.23	33.61	29.77	-45.1	-61.2	3.9	7.41e-01	0	58	104	481820672	60	24857
2026-01-13 10:48:34.24	33.25	29.67	-42.6	-55.4	3.8	7.44e-01	0	58	104	481820672	57	15152
2026-01-13 10:48:35.24	32.89	29.57	-42.6	-55.3	3.8	7.42e-01	0	58	104	481820672	57	15007
2026-01-13 10:48:36.25	32.53	29.47	-42.4	-55.1	3.8	7.44e-01	0	58	104	481820672	56	15531
2026-01-13 10:48:37.26	32.18	29.37	-42.4	-55.0	3.8	7.42e-01	0	58	104	481820672	56	15248
2026-01-13 10:48:38.27	31.82	29.26	-44.2	-58.1	3.9	7.48e-01	0	58	104	481820672	59	18487
2026-01-13 10:48:39.28	31.47	29.16	-44.1	-58.3	3.8	7.44e-01	0	58	104	481820672	59	18770
2026-01-13 10:48:40.29	31.12	29.05	-44.1	-58.7	3.9	7.43e-01	0	58	104	481820672	60	18699
2026-01-13 10:48:41.30	30.78	28.95	-44.7	-60.0	3.8	7.43e-01	0	58	104	481820672	61	20421
2026-01-13 10:48:42.31	30.43	28.84	-42.6	-55.3	3.8	7.45e-01	0	58	104	481820672	56	15791
2026-01-13 10:48:43.32	30.09	28.73	-42.6	-55.4	3.8	7.47e-01	0	58	104	481820672	56	15997
2026-01-13 10:48:44.33	29.75	28.62	-42.4	-55.1	3.8	7.44e-01	0	58	104	481820672	56	15426
2026-01-13 10:48:45.33	29.42	28.52	-42.5	-55.2	3.8	7.46e-01	0	58	104	481820672	57	14826
2026-01-13 10:48:46.34	29.09	28.41	-43.5	-57.1	3.8	7.45e-01	0	58	104	481820672	59	16501
2026-01-13 10:48:47.35	28.75	28.30	-44.7	-60.2	3.9	7.42e-01	0	58	104	481820672	60	22240
2026-01-13 10:48:48.36	28.42	28.19	-43.4	-56.5	3.9	7.45e-01	0	58	104	481820672	58	16309
2026-01-13 10:48:49.37	28.10	28.07	-44.7	-60.1	3.8	7.45e-01	0	58	104	481820672	60	21903
2026-01-13 10:48:50.38	27.77	27.96	-42.7	-55.5	3.8	7.44e-01	0	58	104	481820672	57	15276
2026-01-13 10:48:51.40	27.45	27.85	-42.6	-55.3	3.8	7.47e-01	0	58	104	481820672	57	15040
2026-01-13 10:48:52.41	27.13	27.74	-42.2	-54.7	3.8	7.43e-01	0	58	104	481820672	56	14769
2026-01-13 10:48:53.42	26.81	27.62	-42.3	-54.8	3.8	7.44e-01	0	58	104	481820672	56	15033
2026-01-13 10:48:54.42	26.50	27.51	-43.0	-56.2	3.9	7.41e-01	0	58	104	481820672	58	15595
2026-01-13 10:48:55.43	26.18	27.40	-44.4	-59.4	3.9	7.43e-01	0	58	104	481820672	61	19058
2026-01-13 10:48:56.44	25.87	27.28	-42.8	-55.8	3.9	7.48e-01	0	58	104	481820672	57	15778
2026-01-13 10:48:57.45	25.57	27.17	-44.4	-59.4	3.9	7.45e-01	0	58	104	481820672	60	20094
2026-01-13 10:48:58.46	25.26	27.05	-42.7	-55.5	3.8	7.44e-01	0	58	104	481820672	57	15362
2026-01-13 10:48:59.46	24.96	26.94	-42.6	-55.4	3.8	7.43e-01	0	58	104	481820672	57	15094
2026-01-13 10:49:00.47	24.66	26.82	-42.2	-55.0	3.8	7.45e-01	0	58	104	481820672	56	15291
2026-01-13 10:49:01.49	24.36	26.71	-43.3	-56.8	3.8	7.45e-01	0	58	104	481820672	57	17831
2026-01-13 10:49:02.50	24.06	26.59	-42.2	-54.8	3.9	7.46e-01	0	58	104	481820672	56	14915
2026-01-13 10:49:03.51	23.76	26.47	-44.3	-58.8	3.8	7.44e-01	0	58	104	481820672	60	18818
2026-01-13 10:49:04.52	23.47	26.36	-41.9	-54.6	3.8	7.43e-01	0	58	104	481820672	56	14623
2026-01-13 10:49:05.53	23.18	26.24	-44.1	-58.7	3.8	7.45e-01	0	58	104	481820672	60	18689
2026-01-13 10:49:06.53	22.90	26.12	-42.7	-55.7	3.8	7.43e-01	0	58	104	481820672	57	15694
2026-01-13 10:49:07.55	22.61	26.00	-42.6	-55.4	3.8	7.48e-01	0	58	104	481820672	57	15161
2026-01-13 10:49:08.55	22.33	25.89	-42.2	-54.7	3.8	7.44e-01	0	58	104	481820672	56	14714
2026-01-13 10:49:09.56	22.05	25.77	-43.0	-56.0	3.8	7.48e-01	0	58	104	481820672	56	17194
2026-01-13 10:49:10.57	21.77	25.65	-42.3	-54.8	3.8	7.45e-01	0	58	104	481820672	56	14956
2026-01-13 10:49:11.58	21.49	25.53	-44.2	-58.6	3.8	7.42e-01	0	58	104	481820672	60	18334
2026-01-13 10:49:12.58	21.22	25.42	-42.8	-55.6	3.8	7.46e-01	0	58	104	481820672	57	15550
2026-01-13 10:49:13.59	20.95	25.30	-44.1	-58.4	3.9	7.44e-01	0	58	104	481820672	59	18959
2026-01-13 10:49:14.60	20.68	25.18	-43.0	-56.0	3.8	7.45e-01	0	58	104	481820672	57	16218
2026-01-13 10:49:15.61	20.41	25.06	-42.7	-55.6	3.8	7.45e-01	0	58	104	481820672	57	15491
2026-01-13 10:49:16.62	20.14	24.94	-42.3	-55.0	3.8	7.44e-01	0	58	104	481820672	56	15266
2026-01-13 10:49:17.63	19.88	24.82	-44.1	-58.2	3.8	7.47e-01	0	58	104	481820672	58	19784
2026-01-13 10:49:18.64	19.62	24.70	-42.7	-55.4	3.8	7.46e-01	0	58	104	481820672	56	16125
2026-01-13 10:49:19.65	19.36	24.59	-44.4	-58.9	3.8	7.45e-01	0	58	104	481820672	59	20153
2026-01-13 10:49:20.66	19.10	24.47	-42.7	-55.4	3.8	7.46e-01	0	58	104	481820672	56	16077
2026-01-13 10:49:21.67	18.85	24.35	-43.7	-57.5	3.8	7.46e-01	0	58	104	481820672	59	17085
2026-01-13 10:49:22.67	18.60	24.23	-42.6	-55.4	3.8	7.45e-01	0	58	104	481820672	57	15133
2026-01-13 10:49:23.68	18.34	24.11	-42.6	-55.5	3.8	7.45e-01	0	58	104	481820672	57	15295
2026-01-13 10:49:24.69	18.09	23.99	-42.4	-55.4	3.8	7.45e-01	0	58	104	481820672	56	16071
2026-01-13 10:49:25.70	17.85	23.87	-43.6	-57.3	3.8	7.47e-01	0	58	104	481820672	57	18801
2026-01-13 10:49:26.71	17.60	23.75	-43.1	-56.1	3.8	7.47e-01	0	58	104	481820672	56	17452
2026-01-13 10:49:27.71	17.36	23.64	-44.5	-59.2	3.8	7.48e-01	0	58	104	481820672	59	20796
2026-01-13 10:49:28.73	17.12	23.52	-44.3	-57.8	3.7	7.45e-01	0	58	104	481820672	58	18933
2026-01-13 10:49:29.74	16.88	23.40	-43.2	-56.6	3.8	7.45e-01	0	58	104	481820672	58	16449
2026-01-13 10:49:30.75	16.64	23.28	-42.8	-55.9	3.8	7.43e-01	0	58	104	481820672	57	16003
2026-01-13 10:49:31.75	16.41	23.16	-42.8	-55.8	3.8	7.43e-01	0	58	104	481820672	57	15900
2026-01-13 10:49:32.76	16.17	23.04	-42.6	-55.4	3.8	7.43e-01	0	58	104	481820672	56	16076
2026-01-13 10:49:33.77	15.94	22.93	-44.6	-60.1	3.8	7.46e-01	0	58	104	481820672	60	21824
2026-01-13 10:49:34.78	15.71	22.81	-43.4	-56.8	3.8	7.45e-01	0	58	104	481820672	57	17810
2026-01-13 10:49:35.79	15.48	22.69	-44.3	-58.8	3.8	7.45e-01	0	58	104	481820672	59	19984
2026-01-13 10:49:36.80	15.25	22.57	-43.7	-57.3	3.8	7.49e-01	0	59	104	481820672	57	18924
2026-01-13 10:49:37.81	15.03	22.45	-43.3	-56.6	3.8	7.42e-01	0	58	104	481820672	58	16400
2026-01-13 10:49:38.82	14.81	22.34	-42.5	-55.4	3.8	7.44e-01	0	58	104	481820672	56	16058
2026-01-13 10:49:39.83	14.59	22.22	-42.4	-55.3	3.8	7.44e-01	0	58	104	481820672	56	15847
2026-01-13 10:49:40.84	14.37	22.10	-42.3	-55.0	3.8	7.44e-01	0	58	104	481820672	56	15364
2026-01-13 10:49:41.84	14.15	21.98	-44.4	-59.0	3.8	7.45e-01	0	58	104	481820672	59	20465
2026-01-13 10:49:42.85	13.94	21.87	-44.8	-60.6	3.7	7.46e-01	0	58	104	481820672	60	23062
2026-01-13 10:49:43.86	13.72	21.75	-44.0	-57.9	3.8	7.44e-01	0	58	104	481820672	59	18083
2026-01-13 10:49:44.88	13.51	21.63	-44.0	-58.0	3.8	7.45e-01	0	58	104	481820672	58	19312
2026-01-13 10:49:45.88	13.30	21.52	-42.9	-56.0	3.8	7.47e-01	0	58	104	481820672	57	16279
2026-01-13 10:49:46.89	13.09	21.40	-42.4	-55.1	3.8	7.43e-01	0	58	104	481820672	56	15534
2026-01-13 10:49:47.90	12.88	21.28	-42.3	-55.0	3.8	7.48e-01	0	58	104	481820672	56	15370
2026-01-13 10:49:48.91	12.68	21.17	-42.4	-55.3	3.8	7.46e-01	0	58	104	481820672	56	15863
2026-01-13 10:49:49.92	12.47	21.05	-44.7	-59.9	3.8	7.48e-01	0	59	104	481820672	59	22626
2026-01-13 10:49:50.92	12.27	20.94	-43.8	-57.9	3.8	7.47e-01	0	58	104	481820672	58	19076
2026-01-13 10:49:51.93	12.07	20.82	-44.7	-60.1	3.8	7.45e-01	0	58	104	481820672	59	23289
2026-01-13 10:49:52.94	11.87	20.71	-45.1	-61.9	3.7	7.43e-01	0	58	104	481820672	60	26808
2026-01-13 10:49:53.95	11.67	20.59	-42.0	-54.4	3.8	7.50e-01	0	58	104	481820672	56	14332
2026-01-13 10:49:54.96	11.48	20.48	-42.2	-54.7	3.8	7.41e-01	0	58	104	481820672	56	14735
2026-01-13 10:49:55.97	11.28	20.36	-42.2	-54.8	3.8	7.43e-01	0	58	104	481820672	56	14999
2026-01-13 10:49:56.98	11.09	20.25	-44.2	-59.0	3.8	7.45e-01	0	58	104	481820672	58	21570
2026-01-13 10:49:57.98	10.90	20.14	-44.5	-59.7	3.8	7.45e-01	0	58	104	481820672	59	22110
2026-01-13 10:49:58.99	10.71	20.02	-45.1	-62.4	3.8	7.48e-01	0	58	104	481820672	60	28617
2026-01-13 10:50:00.00	10.52	19.91	-43.9	-58.2	3.8	7.48e-01	0	58	104	481820672	59	18520
2026-01-13 10:50:01.01	10.34	19.80	-44.7	-60.1	3.8	7.44e-01	0	58	104	481820672	59	23096
2026-01-13 10:50:02.02	10.15	19.68	-42.7	-55.8	3.8	7.47e-01	0	58	104	481820672	57	15781
2026-01-13 10:50:03.03	9.97	19.57	-42.3	-55.0	3.8	7.43e-01	0	58	104	481820672	56	15381
2026-01-13 10:50:04.04	9.78	19.46	-42.3	-55.1	3.8	7.46e-01	0	58	104	481820672	56	15477
2026-01-13 10:50:05.05	9.60	19.35	-42.0	-54.8	3.8	7.44e-01	0	58	104	481820672	55	15885
2026-01-13 10:50:06.05	9.42	19.24	-44.5	-60.7	3.8	7.44e-01	0	58	104	481820672	60	23355
2026-01-13 10:50:07.06	9.25	19.12	-43.8	-58.0	3.9	7.46e-01	0	58	104	481820672	58	19359
2026-01-13 10:50:08.07	9.07	19.01	-44.5	-59.8	3.8	7.45e-01	0	59	104	481820672	59	22273
2026-01-13 10:50:09.08	8.89	18.90	-44.9	-62.3	3.8	7.45e-01	0	58	104	481820672	60	28259
2026-01-13 10:50:10.09	8.72	18.79	-42.0	-54.8	3.8	7.48e-01	0	58	104	481820672	55	15935
2026-01-13 10:50:11.10	8.55	18.68	-42.0	-54.8	3.8	7.47e-01	0	58	104	481820672	55	15832
2026-01-13 10:50:12.11	8.38	18.57	-42.0	-54.8	3.8	7.42e-01	0	58	104	481820672	55	15803
2026-01-13 10:50:13.12	8.20	18.46	-44.6	-61.1	3.8	7.46e-01	0	58	104	481820672	60	24632
2026-01-13 10:50:14.13	8.04	18.35	-43.6	-57.6	3.8	7.41e-01	0	58	104	481820672	59	17327
2026-01-13 10:50:15.14	7.87	18.24	-44.3	-60.0	3.9	7.45e-01	0	58	104	481820672	60	21558
2026-01-13 10:50:16.14	7.70	18.13	-44.1	-59.0	3.9	7.41e-01	0	58	104	481820672	59	20443
2026-01-13 10:50:17.15	7.54	18.03	-44.8	-62.6	3.8	7.43e-01	0	58	104	481820672	60	29053
2026-01-13 10:50:18.16	7.38	17.92	-42.1	-55.0	3.8	7.41e-01	0	58	104	481820672	56	15305
2026-01-13 10:50:19.17	7.21	17.81	-42.2	-55.1	3.8	7.45e-01	0	58	104	481820672	56	15508
2026-01-13 10:50:20.18	7.05	17.70	-42.0	-54.6	3.8	7.42e-01	0	58	104	481820672	56	14571
2026-01-13 10:50:21.19	6.89	17.59	-43.4	-57.2	3.8	7.40e-01	0	58	104	481820672	57	18675
2026-01-13 10:50:22.20	6.73	17.49	-43.5	-57.6	3.9	7.41e-01	0	58	104	481820672	58	18510
2026-01-13 10:50:23.21	6.58	17.38	-44.6	-61.9	3.9	7.43e-01	0	58	104	481820672	60	26934
2026-01-13 10:50:24.22	6.42	17.27	-43.1	-57.2	3.8	7.40e-01	0	58	104	481820672	58	17566
2026-01-13 10:50:25.23	6.26	17.17	-44.4	-60.3	3.8	7.47e-01	0	58	104	481820672	59	23747
2026-01-13 10:50:26.24	6.11	17.06	-42.0	-55.0	3.8	7.46e-01	0	58	104	481820672	56	15259
2026-01-13 10:50:27.24	5.96	16.96	-42.1	-54.9	3.8	7.39e-01	0	58	104	481820672	56	15118
2026-01-13 10:50:28.26	5.81	16.85	-42.0	-54.8	3.8	7.41e-01	0	58	104	481820672	56	15046
2026-01-13 10:50:29.27	5.66	16.74	-41.6	-54.3	3.8	7.45e-01	0	58	104	481820672	55	14989
2026-01-13 10:50:30.27	5.51	16.64	-42.4	-56.3	3.9	7.41e-01	0	58	104	481820672	57	16765
2026-01-13 10:50:31.28	5.36	16.54	-44.3	-61.1	3.9	7.44e-01	0	58	104	481820672	59	26132
2026-01-13 10:50:32.29	5.21	16.43	-42.5	-56.4	3.8	7.43e-01	0	58	104	481820672	57	16938
2026-01-13 10:50:33.30	5.07	16.33	-44.1	-59.7	3.8	7.44e-01	0	58	104	481820672	59	22206
2026-01-13 10:50:34.31	4.92	16.22	-41.9	-55.1	3.8	7.44e-01	0	58	104	481820672	55	16404
2026-01-13 10:50:35.32	4.78	16.12	-42.0	-55.2	3.8	7.47e-01	0	58	104	481820672	55	16650
2026-01-13 10:50:36.33	4.64	16.02	-41.7	-54.8	3.8	7.46e-01	0	58	104	481820672	55	15770
2026-01-13 10:50:37.34	4.49	15.91	-41.6	-54.5	3.8	7.46e-01	0	58	104	481820672	54	16248
2026-01-13 10:50:38.35	4.35	15.81	-42.0	-55.2	3.9	7.38e-01	0	59	104	481820672	56	15738
2026-01-13 10:50:39.35	4.22	15.71	-43.8	-60.4	3.9	7.47e-01	0	58	104	481820672	59	24010
2026-01-13 10:50:40.36	4.08	15.61	-42.2	-55.7	3.8	7.42e-01	0	58	104	481820672	56	16629
2026-01-13 10:50:41.37	3.94	15.51	-43.7	-59.0	3.8	7.44e-01	0	58	104	481820672	58	21653
2026-01-13 10:50:42.38	3.80	15.41	-41.7	-54.7	3.8	7.46e-01	0	59	104	481820672	55	15727
2026-01-13 10:50:43.39	3.67	15.31	-41.7	-54.8	3.8	7.44e-01	0	58	104	481820672	55	15884
2026-01-13 10:50:44.40	3.53	15.21	-41.8	-55.2	3.8	7.46e-01	0	58	104	481820672	55	16596
2026-01-13 10:50:45.41	3.40	15.11	-41.7	-55.2	3.8	7.45e-01	0	58	104	481820672	55	16536
2026-01-13 10:50:46.42	3.27	15.01	-41.7	-55.3	3.8	7.43e-01	0	58	104	481820672	55	16780
2026-01-13 10:50:47.43	3.14	14.91	-42.3	-57.0	3.8	7.43e-01	0	58	104	481820672	55	20459
2026-01-13 10:50:48.44	3.01	14.81	-41.5	-55.2	3.8	7.44e-01	0	58	104	481820672	55	16676
2026-01-13 10:50:49.45	2.88	14.71	-42.7	-59.3	3.9	7.46e-01	0	58	104	481820672	56	24990
2026-01-13 10:50:50.46	2.75	14.61	-41.1	-54.4	3.8	7.47e-01	0	58	104	481820672	54	16006
2026-01-13 10:50:51.47	2.62	14.51	-40.9	-54.2	3.8	7.49e-01	0	58	104	481820672	53	16630
2026-01-13 10:50:52.48	2.49	14.41	-41.7	-55.7	3.8	7.43e-01	0	58	104	481820672	53	19722
2026-01-13 10:50:53.49	2.37	14.31	-43.0	-58.6	3.8	7.43e-01	0	58	104	481820672	57	21858
2026-01-13 10:50:54.50	2.24	14.22	-41.1	-54.6	3.8	7.42e-01	0	58	104	481820672	54	16503
2026-01-13 10:50:55.51	2.12	14.12	-41.7	-57.9	3.9	7.43e-01	0	58	104	481820672	55	22684
2026-01-13 10:50:56.52	2.00	14.02	-40.5	-54.1	3.8	7.46e-01	0	58	104	481820672	53	16475
2026-01-13 10:50:57.53	1.87	13.93	-42.3	-57.5	3.9	7.43e-01	0	58	104	481820672	56	20396
2026-01-13 10:50:58.53	1.75	13.83	-40.9	-54.8	3.8	7.46e-01	0	58	104	481820672	53	17711
2026-01-13 10:50:59.54	1.63	13.73	-41.0	-55.1	3.8	7.44e-01	0	58	104	481820672	53	18467
2026-01-13 10:51:00.55	1.51	13.64	-40.9	-55.4	3.8	7.43e-01	0	59	104	481820672	53	18961
2026-01-13 10:51:01.56	1.39	13.54	-41.4	-56.2	3.8	7.47e-01	0	58	104	481820672	53	20883
2026-01-13 10:51:02.57	1.28	13.45	-41.3	-56.9	3.8	7.44e-01	0	58	104	481820672	54	21274
2026-01-13 10:51:03.58	1.16	13.35	-41.6	-59.8	3.9	7.46e-01	0	58	104	481820672	54	29953
2026-01-13 10:51:04.59	1.04	13.26	-41.7	-58.4	3.8	7.47e-01	0	58	104	481820672	54	25497
2026-01-13 10:51:05.60	0.93	13.16	-42.2	-60.2	3.8	7.43e-01	0	59	104	481820672	55	29395
2026-01-13 10:51:06.61	0.81	13.07	-41.9	-59.5	3.8	7.49e-01	0	58	104	481820672	55	27252
2026-01-13 10:51:07.62	0.70	12.98	-41.9	-59.7	3.8	7.45e-01	0	59	104	481820672	55	28011
2026-01-13 10:51:08.63	0.59	12.88	-41.7	-59.8	3.8	7.51e-01	0	59	104	481820672	55	28041
2026-01-13 10:51:09.64	0.47	12.79	-41.9	-60.3	3.8	7.46e-01	0	59	104	481820672	55	29710
2026-01-13 10:51:10.65	0.36	12.70	-41.5	-60.5	3.8	7.43e-01	0	59	104	481820672	55	30410
2026-01-13 10:51:11.66	0.25	12.61	-41.9	-60.9	3.8	7.49e-01	0	59	104	481820672	54	33714
2026-01-13 10:51:12.66	0.14	12.51	-41.4	-60.6	3.8	7.49e-01	0	58	104	481820672	54	32773
2026-01-13 10:51:13.67	0.03	12.42	-41.0	-60.2	3.8	7.48e-01	0	59	104	481820672	54	31445
2026-01-13 10:51:14.68	359.92	12.33	-40.9	-60.2	3.8	7.46e-01	0	59	104	481820672	53	32950
2026-01-13 10:51:15.69	359.82	12.24	-40.8	-60.1	3.8	7.43e-01	0	59	104	481820672	53	32836
2026-01-13 10:51:16.70	359.71	12.15	-40.8	-60.1	3.8	7.45e-01	0	58	104	481820672	53	32734
2026-01-13 10:51:17.71	359.60	12.06	-41.4	-60.6	3.8	7.48e-01	0	59	104	481820672	53	34568
2026-01-13 10:51:18.72	359.50	11.97	-40.6	-60.3	3.8	7.44e-01	0	58	104	481820672	53	33351
2026-01-13 10:51:19.73	359.39	11.88	-41.0	-60.5	3.8	7.46e-01	0	58	104	481820672	52	36443
2026-01-13 10:51:20.74	359.29	11.79	-40.0	-60.0	3.8	7.48e-01	0	59	104	481820672	52	34094
2026-01-13 10:51:21.75	359.19	11.70	-39.9	-59.9	3.8	7.47e-01	0	58	104	481820672	51	35847
2026-01-13 10:51:22.76	359.08	11.61	-39.9	-59.9	3.8	7.47e-01	0	59	104	481820672	51	35741
2026-01-13 10:51:23.77	358.98	11.52	-39.9	-59.8	3.8	7.44e-01	0	58	104	481820672	51	35690
2026-01-13 10:51:24.78	358.88	11.43	-40.0	-59.8	3.8	7.49e-01	0	58	104	481820672	51	35585
2026-01-13 10:51:25.78	358.78	11.34	-40.2	-60.0	3.8	7.45e-01	0	59	104	481820672	51	36184
2026-01-13 10:51:26.79	358.68	11.25	-40.5	-60.3	3.8	7.43e-01	0	58	104	481820672	51	37403
2026-01-13 10:51:27.80	358.58	11.17	-40.9	-60.5	3.8	7.45e-01	0	58	104	481820672	52	36203
2026-01-13 10:51:28.81	358.48	11.08	-40.0	-59.6	3.8	7.45e-01	0	58	104	481820672	51	34705
2026-01-13 10:51:29.82	358.38	10.99	-39.9	-59.8	3.8	7.46e-01	0	58	104	481820672	51	35677
2026-01-13 10:51:30.83	358.29	10.90	-40.1	-59.8	3.8	7.47e-01	0	59	104	481820672	51	35452
2026-01-13 10:51:31.84	358.19	10.82	-40.1	-59.8	3.8	7.44e-01	0	58	104	481820672	51	35375
2026-01-13 10:51:32.85	358.09	10.73	-40.2	-59.8	3.8	7.44e-01	0	58	104	481820672	51	35284
2026-01-13 10:51:33.86	358.00	10.64	-40.3	-59.8	3.8	7.47e-01	0	58	104	481820672	51	35345
2026-01-13 10:51:34.87	357.90	10.56	-40.5	-60.2	3.8	7.47e-01	0	58	104	481820672	51	37023
2026-01-13 10:51:35.88	357.81	10.47	-39.9	-59.8	3.8	7.49e-01	0	58	104	481820672	51	35627
2026-01-13 10:51:36.89	357.72	10.39	-40.3	-60.0	3.8	7.47e-01	0	59	104	481820672	51	36357
2026-01-13 10:51:37.90	357.62	10.30	-39.7	-59.8	3.8	7.46e-01	0	58	104	481820672	51	35414
2026-01-13 10:51:38.90	357.53	10.22	-40.3	-60.0	3.8	7.46e-01	0	59	104	481820672	51	36126
2026-01-13 10:51:39.91	357.44	10.13	-40.7	-60.0	3.9	7.45e-01	0	58	104	481820672	52	34375
2026-01-13 10:51:40.92	357.35	10.05	-39.9	-59.8	3.8	7.45e-01	0	59	104	481820672	51	35408
2026-01-13 10:51:41.93	357.26	9.96	-40.8	-60.0	3.9	7.45e-01	0	59	104	481820672	52	34125
2026-01-13 10:51:42.94	357.17	9.88	-40.0	-59.8	3.8	7.44e-01	0	58	104	481820672	51	35466
2026-01-13 10:51:43.95	357.08	9.79	-39.9	-59.7	3.8	7.46e-01	0	59	104	481820672	51	35224
2026-01-13 10:51:44.96	356.99	9.71	-40.1	-59.9	3.8	7.41e-01	0	58	104	481820672	51	35728
2026-01-13 10:51:45.97	356.90	9.63	-39.9	-59.7	3.8	7.47e-01	0	59	104	481820672	51	35167
2026-01-13 10:51:46.98	356.81	9.54	-39.9	-59.8	3.8	7.45e-01	0	58	104	481820672	51	35595
2026-01-13 10:51:47.99	356.73	9.46	-40.4	-59.9	3.8	7.47e-01	0	58	104	481820672	51	36021
2026-01-13 10:51:49.00	356.64	9.38	-40.3	-59.7	3.8	7.45e-01	0	58	104	481820672	51	35266
2026-01-13 10:51:50.01	356.55	9.30	-40.4	-59.9	3.8	7.47e-01	0	58	104	481820672	51	35894
2026-01-13 10:51:51.02	356.47	9.21	-40.2	-59.7	3.8	7.44e-01	0	58	104	481820672	51	35197
2026-01-13 10:51:52.03	356.38	9.13	-39.7	-59.8	3.8	7.48e-01	0	59	104	481820672	51	35459
2026-01-13 10:51:53.04	356.30	9.05	-39.7	-59.8	3.8	7.47e-01	0	58	104	481820672	51	35300
2026-01-13 10:51:54.04	356.22	8.97	-39.7	-59.8	3.8	7.46e-01	0	58	104	481820672	51	35448
2026-01-13 10:51:55.05	356.13	8.89	-39.8	-59.7	3.8	7.45e-01	0	58	104	481820672	51	35159
2026-01-13 10:51:56.06	356.05	8.81	-40.5	-59.9	3.8	7.45e-01	0	59	104	481820672	51	35753
2026-01-13 10:51:57.07	355.97	8.73	-39.8	-59.7	3.8	7.45e-01	0	59	104	481820672	51	35133
2026-01-13 10:51:58.08	355.89	8.65	-40.5	-59.9	3.8	7.46e-01	0	58	104	481820672	51	35785
2026-01-13 10:51:59.09	355.81	8.57	-39.8	-59.8	3.8	7.45e-01	0	58	104	481820672	51	35314
2026-01-13 10:52:00.10	355.72	8.49	-40.2	-59.9	3.8	7.47e-01	0	58	104	481820672	51	35931
2026-01-13 10:52:01.11	355.64	8.41	-39.8	-59.7	3.8	7.47e-01	0	58	104	481820672	51	35110
2026-01-13 10:52:02.12	355.56	8.33	-40.4	-59.9	3.8	7.47e-01	0	59	104	481820672	51	35720
2026-01-13 10:52:03.13	355.49	8.25	-39.7	-59.7	3.8	7.43e-01	0	59	104	481820672	51	35090
2026-01-13 10:52:04.14	355.41	8.17	-40.3	-59.9	3.8	7.43e-01	0	58	104	481820672	51	35734
2026-01-13 10:52:05.15	355.33	8.09	-40.1	-59.8	3.8	7.48e-01	0	58	104	481820672	51	35414
2026-01-13 10:52:06.16	355.25	8.01	-40.4	-59.9	3.8	7.47e-01	0	59	104	481820672	51	35896
2026-01-13 10:52:07.17	355.17	7.93	-41.6	-61.0	3.8	7.44e-01	0	58	104	481820672	53	36338
2026-01-13 10:52:08.18	355.10	7.86	-44.1	-63.1	3.8	7.45e-01	0	59	104	481820672	58	34549
2026-01-13 10:52:09.19	355.02	7.78	-45.3	-64.1	3.8	7.40e-01	0	58	104	481820672	61	32610
2026-01-13 10:52:10.21	354.94	7.70	-45.7	-64.5	3.9	7.46e-01	0	58	104	481820672	62	32202
2026-01-13 10:52:11.22	354.87	7.62	-46.0	-64.7	3.8	7.43e-01	0	59	104	481820672	62	33072
2026-01-13 10:52:12.23	354.79	7.54	-46.1	-64.8	3.8	7.45e-01	0	58	104	481820672	62	33437
2026-01-13 10:52:13.24	354.72	7.47	-46.2	-64.9	3.8	7.45e-01	0	59	104	481820672	62	33742
2026-01-13 10:52:14.25	354.64	7.39	-46.1	-64.9	3.8	7.46e-01	0	59	104	481820672	62	33881
2026-01-13 10:52:15.26	354.57	7.31	-46.2	-64.9	3.8	7.45e-01	0	59	104	481820672	63	32137
2026-01-13 10:52:16.27	354.50	7.24	-46.1	-64.4	3.8	7.44e-01	0	59	104	481820672	62	32124
2026-01-13 10:52:17.28	354.43	7.16	-45.7	-64.8	3.8	7.44e-01	0	58	104	481820672	62	33360
2026-01-13 10:52:18.29	354.35	7.08	-46.2	-64.9	3.8	7.45e-01	0	59	104	481820672	62	33960
2026-01-13 10:52:19.30	354.28	7.01	-46.0	-64.9	3.8	7.42e-01	0	59	104	481820672	62	33831
2026-01-13 10:52:20.31	354.21	6.93	-46.0	-64.9	3.8	7.49e-01	0	58	104	481820672	62	33824
2026-01-13 10:52:21.32	354.14	6.86	-46.1	-64.9	3.8	7.46e-01	0	59	104	481820672	62	33982
2026-01-13 10:52:22.33	354.07	6.78	-46.1	-64.9	3.8	7.45e-01	0	59	104	481820672	62	33884
2026-01-13 10:52:23.34	354.00	6.71	-46.1	-64.9	3.8	7.48e-01	0	58	104	481820672	62	33759
2026-01-13 10:52:24.35	353.93	6.63	-46.1	-64.9	3.8	7.44e-01	0	59	104	481820672	62	33696
2026-01-13 10:52:25.36	353.86	6.56	-46.0	-64.8	3.8	7.44e-01	0	59	104	481820672	62	33601
2026-01-13 10:52:26.37	353.79	6.48	-46.1	-64.8	3.8	7.44e-01	0	59	104	481820672	62	33642
2026-01-13 10:52:27.38	353.72	6.41	-46.1	-64.8	3.8	7.46e-01	0	58	104	481820672	62	33653
2026-01-13 10:52:28.39	353.65	6.34	-46.1	-64.8	3.8	7.46e-01	0	59	104	481820672	62	33660
2026-01-13 10:52:29.40	353.59	6.26	-46.1	-64.8	3.8	7.48e-01	0	59	104	481820672	62	33682
2026-01-13 10:52:30.41	353.52	6.19	-46.1	-64.8	3.8	7.46e-01	0	58	104	481820672	62	33621
2026-01-13 10:52:31.42	353.45	6.12	-46.0	-64.8	3.8	7.45e-01	0	59	104	481820672	62	33682
2026-01-13 10:52:32.43	353.38	6.04	-46.1	-64.8	3.8	7.49e-01	0	59	104	481820672	62	33581
2026-01-13 10:52:33.44	353.32	5.97	-46.0	-64.8	3.8	7.48e-01	0	59	104	481820672	62	33641
2026-01-13 10:52:34.45	353.25	5.90	-46.0	-64.8	3.8	7.49e-01	0	59	104	481820672	62	33584
2026-01-13 10:52:35.46	353.19	5.82	-46.0	-64.8	3.8	7.41e-01	0	59	104	481820672	62	33563
2026-01-13 10:52:36.47	353.12	5.75	-46.0	-64.8	3.8	7.44e-01	0	59	104	481820672	62	33633
2026-01-13 10:52:37.48	353.06	5.68	-44.8	-64.8	3.8	7.44e-01	0	59	104	481820672	62	33527
2026-01-13 10:52:38.49	352.99	5.61	-45.9	-64.6	3.8	7.48e-01	0	59	104	481820672	61	34533
2026-01-13 10:52:39.50	352.93	5.54	-46.0	-64.8	3.8	7.45e-01	0	59	104	481820672	62	33593
2026-01-13 10:52:40.52	352.86	5.46	-46.0	-64.8	3.8	7.49e-01	0	59	104	481820672	62	33546
2026-01-13 10:52:41.53	352.80	5.39	-46.0	-64.8	3.8	7.42e-01	0	59	104	481820672	62	33512
2026-01-13 10:52:42.54	352.74	5.32	-46.0	-64.8	3.8	7.43e-01	0	59	104	481820672	62	33567
2026-01-13 10:52:43.55	352.68	5.25	-46.0	-64.9	3.8	7.42e-01	0	59	104	481820672	62	33805
2026-01-13 10:52:44.56	352.61	5.18	-46.0	-64.8	3.8	7.49e-01	0	59	104	481820672	62	33514
2026-01-13 10:52:45.57	352.55	5.11	-46.0	-64.8	3.8	7.46e-01	0	59	104	481820672	62	33522
2026-01-13 10:52:46.58	352.49	5.04	-45.9	-65.0	3.8	7.49e-01	0	59	104	481820672	62	34385
2026-01-13 10:52:47.59	352.43	4.97	-46.0	-64.9	3.8	7.49e-01	0	59	104	481820672	62	34049
2026-01-13 10:52:48.60	352.37	4.90	-46.0	-64.8	3.8	7.46e-01	0	59	104	481820672	62	33516
2026-01-13 10:52:49.61	352.31	4.83	-46.0	-64.8	3.8	7.42e-01	0	59	104	481820672	62	33524
2026-01-13 10:52:50.62	352.25	4.76	-46.0	-64.9	3.7	7.42e-01	0	59	104	481820672	62	33729
2026-01-13 10:52:51.63	352.19	4.69	-46.0	-64.8	3.8	7.45e-01	0	59	104	481820672	62	33547
2026-01-13 10:52:52.64	352.13	4.62	-46.0	-64.8	3.8	7.46e-01	0	59	104	481820672	62	33499
2026-01-13 10:52:53.65	352.07	4.55	-46.0	-64.8	3.8	7.44e-01	0	58	104	481820672	62	33487
2026-01-13 10:52:54.66	352.01	4.48	-46.0	-64.8	3.8	7.45e-01	0	59	104	481820672	62	33494
2026-01-13 10:52:55.67	351.95	4.41	-46.0	-64.8	3.8	7.45e-01	0	59	104	481820672	62	33460
2026-01-13 10:52:56.68	351.89	4.34	-46.0	-64.8	3.8	7.45e-01	0	59	104	481820672	62	33484
2026-01-13 10:52:57.69	351.84	4.27	-45.8	-64.4	3.8	7.44e-01	0	59	104	481820672	61	34074
2026-01-13 10:52:58.70	351.78	4.20	-46.0	-64.8	3.8	7.45e-01	0	59	104	481820672	62	33493
2026-01-13 10:52:59.71	351.72	4.13	-46.0	-64.8	3.8	7.45e-01	0	59	104	481820672	62	33442
2026-01-13 10:53:00.72	351.67	4.07	-46.0	-64.8	3.8	7.46e-01	0	59	104	481820672	62	33444
2026-01-13 10:53:01.73	351.61	4.00	-45.9	-64.8	3.8	7.44e-01	0	59	104	481820672	62	33578
2026-01-13 10:53:02.74	351.55	3.93	-46.0	-65.0	3.8	7.44e-01	0	59	104	481820672	62	34140
2026-01-13 10:53:03.75	351.50	3.86	-45.9	-64.8	3.8	7.42e-01	0	59	104	481820672	62	33438
2026-01-13 10:53:04.76	351.44	3.80	-45.9	-64.8	3.8	7.46e-01	0	59	104	481820672	62	33461
2026-01-13 10:53:05.77	351.39	3.73	-46.0	-64.8	3.8	7.45e-01	0	59	104	481820672	62	33451
2026-01-13 10:53:06.79	351.33	3.66	-46.0	-64.8	3.8	7.47e-01	0	59	104	481820672	62	33476
2026-01-13 10:53:07.80	351.28	3.59	-46.0	-64.8	3.8	7.46e-01	0	59	104	481820672	62	33490
2026-01-13 10:53:08.81	351.22	3.53	-45.9	-64.8	3.8	7.44e-01	0	59	104	481820672	62	33533
