passes_logs/2026/01/13/R2.0S_Moscow/R2.0S_Moscow__20260113_100229_SUOMI_NPP_rec.log

#Pass ID: 20260113_100229_SUOMI NPP
#Satellite: SUOMI NPP
#Configuration: NPP
#almurnet v.1.7.20251203
#Start time: 2026-01-13 10:02:32

#Version: 2.2.20231116
#Station: R2.0S_Moscow
#Location: 37.707566 lon 55.798166 lat
#TLE: 1 37849U 11061A   26012.28456845  .00000093  00000+0  65163-4 0  9999
#TLE: 2 37849  98.7807 314.3566 0002508  68.3553 291.7890 14.19524725736322

#Time	Az	El	Level	Level2	SNR	BER	BlckErr	Temp	State	Recorded	gain1	gain2
2026-01-13 10:02:32.17	162.00	2.15	-43.8	-58.2	3.8	1.49e+00	0	48	0	0	59	18586
2026-01-13 10:02:33.17	162.00	2.21	-43.8	-58.2	3.8	1.49e+00	0	48	104	0	59	18571
2026-01-13 10:02:34.18	162.01	2.28	-43.8	-58.2	3.8	1.49e+00	0	48	104	0	59	18597
2026-01-13 10:02:35.19	162.01	2.34	-43.8	-58.2	3.8	1.49e+00	0	48	104	0	59	18618
2026-01-13 10:02:36.20	162.02	2.41	-43.8	-58.2	3.8	1.49e+00	0	49	104	0	59	18568
2026-01-13 10:02:37.21	162.02	2.47	-43.8	-58.2	3.8	1.49e+00	0	49	104	0	59	18536
2026-01-13 10:02:38.22	162.03	2.54	-43.8	-58.2	3.8	1.49e+00	0	49	104	0	59	18527
2026-01-13 10:02:39.23	162.03	2.61	-43.8	-58.2	3.8	1.49e+00	0	49	104	0	59	18569
2026-01-13 10:02:40.24	162.04	2.67	-43.8	-58.2	3.8	1.49e+00	0	49	104	0	59	18545
2026-01-13 10:02:41.25	162.04	2.74	-43.8	-58.2	3.8	1.49e+00	0	49	104	0	59	18573
2026-01-13 10:02:42.26	162.05	2.81	-43.8	-58.2	3.8	1.49e+00	0	49	104	0	59	18535
2026-01-13 10:02:43.27	162.05	2.87	-43.8	-58.2	3.8	1.49e+00	0	49	104	0	59	18616
2026-01-13 10:02:44.28	162.06	2.94	-43.8	-58.2	3.8	1.49e+00	0	49	104	0	59	18586
2026-01-13 10:02:45.29	162.06	3.01	-43.8	-58.2	3.8	1.49e+00	0	49	104	0	59	18572
2026-01-13 10:02:46.30	162.06	3.07	-43.8	-58.2	3.8	1.49e+00	0	49	104	0	59	18619
2026-01-13 10:02:47.31	162.07	3.14	-43.8	-58.2	3.8	1.49e+00	0	49	104	0	59	18556
2026-01-13 10:02:48.32	162.07	3.21	-43.8	-58.2	3.8	1.49e+00	0	49	104	0	59	18553
2026-01-13 10:02:49.33	162.08	3.28	-43.8	-58.2	3.8	1.49e+00	0	49	104	0	59	18586
2026-01-13 10:02:50.34	162.08	3.35	-43.8	-58.1	3.8	1.49e+00	0	50	104	0	59	18508
2026-01-13 10:02:51.35	162.09	3.41	-43.8	-58.2	3.8	1.49e+00	0	49	104	0	59	18527
2026-01-13 10:02:52.36	162.09	3.48	-43.8	-58.1	3.8	1.49e+00	0	50	104	0	59	18471
2026-01-13 10:02:53.38	162.10	3.55	-43.8	-58.1	3.8	1.49e+00	0	49	104	0	59	18391
2026-01-13 10:02:54.39	162.10	3.62	-43.8	-58.1	3.8	1.49e+00	0	50	104	0	59	18388
2026-01-13 10:02:55.40	162.11	3.69	-43.8	-58.1	3.8	1.49e+00	0	50	104	0	59	18319
2026-01-13 10:02:56.41	162.11	3.76	-43.8	-58.0	3.8	1.49e+00	0	50	104	0	59	18176
2026-01-13 10:02:57.42	162.12	3.83	-43.8	-58.0	3.8	1.49e+00	0	50	104	0	59	18142
2026-01-13 10:02:58.43	162.12	3.90	-43.8	-58.0	3.8	1.49e+00	0	50	104	0	59	18227
2026-01-13 10:02:59.44	162.13	3.97	-43.8	-58.0	3.8	1.49e+00	0	50	104	0	59	18204
2026-01-13 10:03:00.45	162.13	4.04	-43.8	-58.1	3.8	1.49e+00	0	50	104	0	59	18371
2026-01-13 10:03:01.46	162.14	4.11	-43.8	-58.1	3.8	1.49e+00	0	50	104	0	59	18370
2026-01-13 10:03:02.47	162.14	4.18	-43.8	-58.1	3.8	1.49e+00	0	50	104	0	59	18347
2026-01-13 10:03:03.48	162.15	4.25	-43.8	-58.1	3.8	1.49e+00	0	51	104	0	59	18307
2026-01-13 10:03:04.49	162.15	4.32	-43.8	-58.1	3.8	1.49e+00	0	50	104	0	59	18361
2026-01-13 10:03:05.50	162.16	4.39	-43.8	-58.1	3.8	1.49e+00	0	50	104	0	59	18412
2026-01-13 10:03:06.51	162.16	4.46	-43.8	-58.1	3.8	1.49e+00	0	51	104	0	59	18439
2026-01-13 10:03:07.52	162.17	4.53	-43.8	-58.1	3.8	1.49e+00	0	50	104	0	59	18490
2026-01-13 10:03:08.53	162.17	4.60	-43.8	-58.1	3.8	1.49e+00	0	51	104	0	59	18491
2026-01-13 10:03:09.54	162.18	4.67	-43.8	-58.1	3.8	1.49e+00	0	51	104	0	59	18464
2026-01-13 10:03:10.55	162.18	4.75	-43.8	-58.2	3.8	1.49e+00	0	51	104	0	59	18536
2026-01-13 10:03:11.57	162.19	4.82	-43.8	-58.1	3.8	1.49e+00	0	51	104	0	59	18514
2026-01-13 10:03:12.58	162.19	4.89	-43.8	-58.2	3.8	1.49e+00	0	51	104	0	59	18518
2026-01-13 10:03:13.59	162.20	4.96	-43.8	-58.1	3.8	1.49e+00	0	51	104	0	59	18387
2026-01-13 10:03:14.60	162.20	5.04	-43.8	-58.1	3.8	1.49e+00	0	51	104	0	59	18395
2026-01-13 10:03:15.61	162.21	5.11	-43.8	-58.1	3.8	1.49e+00	0	51	104	0	59	18374
2026-01-13 10:03:16.62	162.21	5.18	-43.8	-58.0	3.8	1.49e+00	0	51	104	0	59	18228
2026-01-13 10:03:17.63	162.22	5.25	-43.8	-58.0	3.8	1.49e+00	0	51	104	0	59	18096
2026-01-13 10:03:18.64	162.22	5.33	-43.8	-57.9	3.8	1.49e+00	0	51	104	0	59	18010
2026-01-13 10:03:19.65	162.23	5.40	-43.8	-57.9	3.8	1.49e+00	0	51	104	0	59	17975
2026-01-13 10:03:20.66	162.24	5.47	-43.8	-57.7	3.8	1.49e+00	0	51	104	0	59	17618
2026-01-13 10:03:21.67	162.24	5.55	-43.8	-57.6	3.8	1.49e+00	0	51	104	0	59	17387
2026-01-13 10:03:22.68	162.25	5.62	-43.8	-57.5	3.8	1.49e+00	0	51	104	0	59	17253
2026-01-13 10:03:23.69	162.25	5.70	-43.7	-57.5	3.8	1.49e+00	0	51	104	0	59	17106
2026-01-13 10:03:24.70	162.26	5.77	-43.8	-57.4	3.8	1.49e+00	0	51	104	0	59	17053
2026-01-13 10:03:25.71	162.26	5.85	-43.8	-57.4	3.8	1.49e+00	0	51	104	0	59	16920
2026-01-13 10:03:26.72	162.27	5.92	-43.8	-57.3	3.8	1.49e+00	0	51	104	0	58	17722
2026-01-13 10:03:27.73	162.27	6.00	-43.7	-57.1	3.8	1.49e+00	0	52	104	0	58	17467
2026-01-13 10:03:28.74	162.28	6.07	-43.7	-56.8	3.8	1.49e+00	0	51	104	0	58	16853
2026-01-13 10:03:29.75	162.28	6.15	-43.7	-56.9	3.8	1.49e+00	0	52	104	0	58	17068
2026-01-13 10:03:30.76	162.29	6.22	-43.7	-56.6	3.8	1.49e+00	0	52	104	0	58	16488
2026-01-13 10:03:31.78	162.29	6.30	-43.7	-57.0	3.8	1.49e+00	0	52	104	0	58	17152
2026-01-13 10:03:32.78	162.30	6.38	-43.7	-56.6	3.8	1.49e+00	0	52	104	0	58	16421
2026-01-13 10:03:33.79	162.30	6.45	-43.7	-56.6	3.8	1.49e+00	0	52	104	0	58	16476
2026-01-13 10:03:34.80	162.31	6.53	-43.7	-56.9	3.8	1.49e+00	0	52	104	0	58	16927
2026-01-13 10:03:35.81	162.32	6.61	-43.7	-56.9	3.8	1.49e+00	0	52	104	0	58	16929
2026-01-13 10:03:36.82	162.32	6.68	-43.7	-57.0	3.8	1.49e+00	0	52	104	0	58	17210
2026-01-13 10:03:37.83	162.33	6.76	-43.7	-57.3	3.8	1.49e+00	0	52	104	0	58	17772
2026-01-13 10:03:38.84	162.33	6.84	-43.8	-57.6	3.8	1.49e+00	0	52	104	0	58	18416
2026-01-13 10:03:39.85	162.34	6.92	-43.8	-57.8	3.8	1.49e+00	0	52	104	0	58	18935
2026-01-13 10:03:40.86	162.34	7.00	-43.8	-58.1	3.8	1.49e+00	0	52	104	0	58	19499
2026-01-13 10:03:41.87	162.35	7.07	-43.8	-58.1	3.8	1.49e+00	0	53	104	0	58	19610
2026-01-13 10:03:42.88	162.35	7.15	-43.8	-58.1	3.8	1.49e+00	0	52	104	0	58	19534
2026-01-13 10:03:43.90	162.36	7.23	-43.8	-57.8	3.8	1.49e+00	0	52	104	0	58	18818
2026-01-13 10:03:44.91	162.36	7.31	-43.8	-57.3	3.8	1.49e+00	0	52	104	0	58	17796
2026-01-13 10:03:45.92	162.37	7.39	-43.7	-56.8	3.8	1.49e+00	0	52	104	0	58	16705
2026-01-13 10:03:46.93	162.38	7.47	-43.6	-55.7	3.8	1.49e+00	0	52	104	0	58	14848
2026-01-13 10:03:47.94	162.38	7.55	-43.6	-54.9	4.1	1.47e+00	0	53	104	0	58	13550
2026-01-13 10:03:48.95	162.39	7.63	-43.5	-54.0	4.4	1.34e+00	0	53	0	0	58	12198
2026-01-13 10:03:49.96	162.39	7.71	-43.5	-53.6	4.5	9.42e-01	0	53	0	2097152	58	11600
2026-01-13 10:03:50.97	162.40	7.79	-43.3	-52.5	5.0	8.49e-01	0	53	0	4194304	58	10268
2026-01-13 10:03:51.98	162.40	7.87	-43.2	-52.1	5.3	5.94e-01	0	53	0	5242880	58	9719
2026-01-13 10:03:52.99	162.41	7.95	-43.2	-51.8	5.5	4.95e-01	0	53	0	7340032	57	9994
2026-01-13 10:03:54.00	162.42	8.03	-43.1	-51.5	5.7	4.18e-01	0	53	0	9437184	56	10189
2026-01-13 10:03:55.01	162.42	8.12	-44.0	-57.3	3.8	1.48e+00	0	53	104	10485760	58	17690
2026-01-13 10:03:56.02	162.43	8.20	-43.7	-56.4	3.8	1.49e+00	0	53	104	10485760	58	16115
2026-01-13 10:03:57.03	162.43	8.28	-43.0	-50.1	6.9	1.03e+00	0	53	0	10485760	57	8225
2026-01-13 10:03:58.04	162.44	8.36	-44.0	-57.1	3.8	1.41e+00	0	53	104	11534336	58	17454
2026-01-13 10:03:59.05	162.44	8.45	-43.5	-55.2	4.1	4.21e-01	0	53	0	11534336	58	13893
2026-01-13 10:04:00.06	162.45	8.53	-42.9	-49.8	7.1	6.02e-01	0	53	0	12582912	57	7960
2026-01-13 10:04:01.07	162.46	8.61	-42.9	-49.9	7.1	1.44e-01	0	53	0	14680064	57	7992
2026-01-13 10:04:02.08	162.46	8.70	-42.8	-49.9	7.0	1.45e-01	0	53	0	16777216	57	8059
2026-01-13 10:04:03.09	162.47	8.78	-42.8	-49.6	7.4	1.10e-01	0	53	0	18874368	57	7744
2026-01-13 10:04:04.10	162.47	8.86	-42.8	-49.6	7.4	1.08e-01	0	53	0	20971520	57	7735
2026-01-13 10:04:05.11	162.48	8.95	-42.8	-49.6	7.4	1.11e-01	0	53	0	22020096	57	7769
2026-01-13 10:04:06.12	162.49	9.03	-42.8	-49.5	7.6	1.15e-01	0	53	0	24117248	57	7632
2026-01-13 10:04:07.13	162.49	9.12	-42.8	-49.5	7.6	1.03e-01	0	54	0	26214400	57	7666
2026-01-13 10:04:08.14	162.50	9.20	-42.8	-49.3	7.7	7.86e-02	0	53	0	28311552	57	7537
2026-01-13 10:04:09.14	162.50	9.29	-42.9	-49.4	7.7	1.06e-01	0	54	0	30408704	57	7596
2026-01-13 10:04:10.15	162.51	9.37	-42.8	-49.4	7.6	8.36e-02	0	54	0	31457280	57	7599
2026-01-13 10:04:11.16	162.52	9.46	-42.9	-49.4	7.7	8.07e-02	0	54	0	33554432	56	8049
2026-01-13 10:04:12.17	162.52	9.55	-42.9	-49.4	7.7	9.82e-02	0	53	0	35651584	56	8074
2026-01-13 10:04:13.18	162.53	9.63	-42.8	-49.2	7.9	8.43e-02	0	54	0	37748736	56	7868
2026-01-13 10:04:14.19	162.53	9.72	-42.9	-49.5	7.6	9.30e-02	0	54	0	39845888	56	8132
2026-01-13 10:04:15.20	162.54	9.81	-42.9	-49.5	7.7	8.18e-02	0	54	0	40894464	56	8084
2026-01-13 10:04:16.21	162.55	9.90	-42.6	-49.4	7.8	7.52e-02	0	54	0	42991616	56	8009
2026-01-13 10:04:17.22	162.55	9.98	-42.9	-49.4	7.8	8.13e-02	0	54	0	45088768	56	8043
2026-01-13 10:04:18.23	162.56	10.07	-42.9	-49.4	7.8	8.57e-02	0	54	0	47185920	56	8039
2026-01-13 10:04:19.24	162.56	10.16	-42.9	-49.2	8.0	7.41e-02	0	54	0	49283072	56	7849
2026-01-13 10:04:20.25	162.57	10.25	-42.9	-49.3	7.9	8.27e-02	0	54	0	50331648	56	7956
2026-01-13 10:04:21.26	162.58	10.34	-42.9	-49.3	8.0	8.06e-02	0	54	0	52428800	56	7900
2026-01-13 10:04:22.27	162.58	10.43	-43.0	-49.5	7.7	7.66e-02	0	54	0	54525952	56	8129
2026-01-13 10:04:23.29	162.59	10.52	-42.9	-49.4	7.9	8.99e-02	0	54	0	56623104	56	8010
2026-01-13 10:04:24.30	162.60	10.61	-42.9	-49.3	8.0	5.68e-02	0	54	0	58720256	56	7912
2026-01-13 10:04:25.30	162.60	10.70	-42.9	-49.3	7.9	7.35e-02	0	54	0	59768832	56	7988
2026-01-13 10:04:26.31	162.61	10.79	-42.9	-49.2	8.1	6.00e-02	0	54	0	61865984	56	7826
2026-01-13 10:04:27.32	162.62	10.88	-43.0	-49.3	8.0	5.75e-02	0	54	0	63963136	56	7987
2026-01-13 10:04:28.33	162.62	10.98	-42.9	-49.2	8.1	6.15e-02	0	54	0	66060288	56	7890
2026-01-13 10:04:29.34	162.63	11.07	-42.9	-49.0	8.3	5.77e-02	0	54	0	68157440	56	7686
2026-01-13 10:04:30.35	162.63	11.16	-42.7	-49.1	8.2	5.41e-02	0	54	0	69206016	56	7732
2026-01-13 10:04:31.36	162.64	11.25	-42.6	-48.8	8.5	4.82e-02	0	54	0	71303168	56	7500
2026-01-13 10:04:32.37	162.65	11.35	-42.8	-48.8	8.5	3.70e-02	0	54	0	73400320	56	7542
2026-01-13 10:04:33.38	162.65	11.44	-42.9	-48.8	8.5	4.22e-02	0	54	0	75497472	56	7516
2026-01-13 10:04:34.39	162.66	11.53	-42.8	-48.6	8.7	4.34e-02	0	54	0	77594624	56	7365
2026-01-13 10:04:35.40	162.67	11.63	-42.8	-48.7	8.7	3.84e-02	0	54	0	79691776	56	7408
2026-01-13 10:04:36.41	162.67	11.72	-42.8	-48.7	8.7	3.64e-02	0	54	0	80740352	56	7381
2026-01-13 10:04:37.42	162.68	11.82	-42.8	-48.5	8.9	2.84e-02	0	54	0	82837504	56	7274
2026-01-13 10:04:38.42	162.69	11.91	-42.8	-48.6	8.9	2.70e-02	0	54	0	84934656	56	7290
2026-01-13 10:04:39.44	162.69	12.01	-42.8	-48.5	8.9	2.73e-02	0	54	0	87031808	56	7233
2026-01-13 10:04:40.45	162.70	12.10	-42.8	-48.3	9.1	2.06e-02	0	54	0	89128960	56	7108
2026-01-13 10:04:41.46	162.71	12.20	-42.8	-48.4	9.0	2.28e-02	0	54	0	90177536	56	7161
2026-01-13 10:04:42.46	162.71	12.30	-42.7	-48.1	9.3	2.32e-02	0	55	0	92274688	56	6920
2026-01-13 10:04:43.47	162.72	12.39	-42.7	-48.1	9.3	1.70e-02	0	54	0	94371840	56	6951
2026-01-13 10:04:44.48	162.73	12.49	-42.7	-48.1	9.3	1.97e-02	0	54	0	96468992	56	6959
2026-01-13 10:04:45.49	162.73	12.59	-42.6	-47.9	9.6	1.64e-02	0	55	0	98566144	56	6744
2026-01-13 10:04:46.50	162.74	12.69	-42.7	-48.0	9.5	1.64e-02	0	55	0	99614720	56	6832
2026-01-13 10:04:47.51	162.75	12.79	-42.6	-47.9	9.6	1.58e-02	0	55	0	101711872	56	6767
2026-01-13 10:04:48.52	162.75	12.88	-42.7	-48.0	9.5	1.39e-02	0	55	0	103809024	56	6814
2026-01-13 10:04:49.53	162.76	12.98	-42.6	-47.9	9.6	1.35e-02	0	55	0	105906176	56	6762
2026-01-13 10:04:50.54	162.77	13.08	-42.7	-47.9	9.6	1.28e-02	0	55	0	108003328	56	6765
2026-01-13 10:04:51.55	162.78	13.18	-42.7	-48.0	9.6	1.25e-02	0	55	0	109051904	56	6803
2026-01-13 10:04:52.56	162.78	13.29	-42.7	-48.0	9.6	1.34e-02	0	55	0	111149056	56	6807
2026-01-13 10:04:53.57	162.79	13.39	-42.7	-47.9	9.7	1.10e-02	0	55	0	113246208	56	6748
2026-01-13 10:04:54.58	162.80	13.49	-42.7	-48.1	9.5	1.29e-02	0	55	0	115343360	56	6885
2026-01-13 10:04:55.59	162.80	13.59	-42.7	-48.0	9.6	1.60e-02	0	55	0	117440512	56	6804
2026-01-13 10:04:56.60	162.81	13.69	-42.7	-48.0	9.6	1.18e-02	0	55	0	118489088	56	6838
2026-01-13 10:04:57.61	162.82	13.80	-42.7	-48.0	9.5	1.46e-02	0	55	0	120586240	56	6859
2026-01-13 10:04:58.62	162.83	13.90	-42.7	-48.0	9.6	1.58e-02	0	55	0	122683392	56	6806
2026-01-13 10:04:59.63	162.83	14.00	-42.7	-48.1	9.5	1.57e-02	0	55	0	124780544	56	6880
2026-01-13 10:05:00.64	162.84	14.11	-42.7	-48.0	9.5	1.47e-02	0	55	0	126877696	56	6863
2026-01-13 10:05:01.65	162.85	14.21	-42.7	-48.0	9.5	1.22e-02	0	55	0	127926272	56	6850
2026-01-13 10:05:02.66	162.85	14.32	-42.6	-47.8	9.8	1.08e-02	0	55	0	130023424	56	6653
2026-01-13 10:05:03.66	162.86	14.42	-42.6	-47.5	10.1	8.08e-03	0	55	0	132120576	56	6481
2026-01-13 10:05:04.68	162.87	14.53	-42.6	-47.5	10.1	7.84e-03	0	55	0	134217728	56	6473
2026-01-13 10:05:05.69	162.88	14.64	-42.5	-47.3	10.3	5.43e-03	0	55	0	136314880	56	6346
2026-01-13 10:05:06.70	162.88	14.74	-42.4	-47.2	10.4	4.56e-03	0	55	0	137363456	56	6239
2026-01-13 10:05:07.70	162.89	14.85	-42.4	-47.1	10.6	4.39e-03	0	55	0	139460608	56	6154
2026-01-13 10:05:08.71	162.90	14.96	-42.4	-47.0	10.6	3.69e-03	0	55	0	141557760	56	6125
2026-01-13 10:05:09.72	162.91	15.07	-42.4	-47.0	10.7	2.85e-03	0	55	0	143654912	56	6075
2026-01-13 10:05:10.73	162.91	15.17	-42.3	-46.9	10.8	2.57e-03	0	55	0	145752064	56	5995
2026-01-13 10:05:11.74	162.92	15.28	-42.3	-46.8	10.9	2.40e-03	0	55	0	147849216	56	5943
2026-01-13 10:05:12.75	162.93	15.39	-42.3	-46.8	10.8	2.31e-03	0	55	0	148897792	56	5948
2026-01-13 10:05:13.76	162.94	15.50	-42.3	-46.9	10.9	1.74e-03	0	55	0	150994944	56	6002
2026-01-13 10:05:14.77	162.94	15.61	-42.3	-46.8	10.9	2.00e-03	0	55	0	153092096	56	5981
2026-01-13 10:05:15.78	162.95	15.73	-42.3	-46.8	10.9	2.35e-03	0	55	0	155189248	56	5971
2026-01-13 10:05:16.78	162.96	15.84	-42.4	-47.0	10.7	2.50e-03	0	55	0	157286400	56	6111
2026-01-13 10:05:17.80	162.97	15.95	-42.4	-46.9	10.8	2.90e-03	0	55	0	158334976	56	6042
2026-01-13 10:05:18.81	162.98	16.06	-42.4	-47.0	10.7	2.52e-03	0	55	0	160432128	56	6068
2026-01-13 10:05:19.82	162.98	16.18	-42.4	-47.0	10.7	2.67e-03	0	55	0	162529280	56	6121
2026-01-13 10:05:20.82	162.99	16.29	-42.4	-46.9	10.8	3.05e-03	0	55	0	164626432	56	6046
2026-01-13 10:05:21.83	163.00	16.40	-42.4	-46.9	10.8	2.64e-03	0	55	0	166723584	56	6047
2026-01-13 10:05:22.84	163.01	16.52	-42.4	-47.0	10.8	2.63e-03	0	55	0	167772160	56	6071
2026-01-13 10:05:23.85	163.02	16.64	-42.3	-46.8	10.8	2.44e-03	0	56	0	169869312	56	5991
2026-01-13 10:05:24.86	163.02	16.75	-42.3	-46.7	11.0	2.02e-03	0	55	0	171966464	56	5901
2026-01-13 10:05:25.87	163.03	16.87	-42.3	-46.6	11.2	1.53e-03	0	55	0	174063616	56	5816
2026-01-13 10:05:26.88	163.04	16.99	-42.2	-46.4	11.3	1.13e-03	0	55	0	176160768	56	5704
2026-01-13 10:05:27.89	163.05	17.10	-42.1	-46.4	11.4	9.76e-04	0	55	0	177209344	56	5657
2026-01-13 10:05:28.90	163.06	17.22	-42.1	-46.2	11.6	8.22e-04	0	55	0	179306496	56	5589
2026-01-13 10:05:29.91	163.06	17.34	-42.1	-46.2	11.6	7.14e-04	0	56	0	181403648	56	5551
2026-01-13 10:05:30.92	163.07	17.46	-41.9	-46.0	11.6	6.68e-04	0	55	0	183500800	55	5735
2026-01-13 10:05:31.93	163.08	17.58	-41.8	-45.9	11.7	4.97e-04	0	56	0	185597952	55	5665
2026-01-13 10:05:32.94	163.09	17.70	-41.9	-45.9	11.7	5.52e-04	0	56	0	186646528	55	5720
2026-01-13 10:05:33.95	163.10	17.82	-41.8	-45.8	11.8	5.81e-04	0	56	0	188743680	55	5606
2026-01-13 10:05:34.95	163.11	17.94	-41.9	-45.9	11.7	4.64e-04	0	56	0	190840832	55	5695
2026-01-13 10:05:35.96	163.12	18.07	-41.9	-46.0	11.6	6.00e-04	0	55	0	192937984	55	5763
2026-01-13 10:05:36.97	163.12	18.19	-41.9	-45.9	11.8	5.92e-04	0	55	0	195035136	55	5677
2026-01-13 10:05:37.98	163.13	18.31	-41.8	-45.8	11.8	4.95e-04	0	56	0	196083712	55	5642
2026-01-13 10:05:38.99	163.14	18.44	-41.8	-45.8	11.8	5.78e-04	0	55	0	198180864	55	5626
2026-01-13 10:05:40.00	163.15	18.56	-41.8	-45.8	11.8	5.38e-04	0	56	0	200278016	55	5635
2026-01-13 10:05:41.01	163.16	18.69	-41.9	-46.0	11.6	7.23e-04	0	56	0	202375168	55	5758
2026-01-13 10:05:42.02	163.17	18.82	-41.9	-45.9	11.8	5.27e-04	0	56	0	204472320	55	5657
2026-01-13 10:05:43.03	163.18	18.94	-41.9	-45.9	11.7	4.71e-04	0	56	0	205520896	55	5709
2026-01-13 10:05:44.04	163.19	19.07	-41.9	-45.9	11.7	3.84e-04	0	56	0	207618048	55	5698
2026-01-13 10:05:45.05	163.19	19.20	-41.9	-46.0	11.7	5.09e-04	0	56	0	209715200	55	5746
2026-01-13 10:05:46.06	163.20	19.33	-41.9	-45.9	11.7	4.72e-04	0	56	0	211812352	55	5709
2026-01-13 10:05:47.07	163.21	19.46	-41.9	-45.9	11.8	6.54e-04	0	56	0	213909504	55	5670
2026-01-13 10:05:48.08	163.22	19.59	-41.9	-45.9	11.8	4.74e-04	0	56	0	216006656	55	5665
2026-01-13 10:05:49.09	163.23	19.72	-41.9	-46.0	11.7	5.61e-04	0	56	0	217055232	55	5747
2026-01-13 10:05:50.10	163.24	19.85	-41.8	-45.7	11.9	4.80e-04	0	56	0	219152384	55	5574
2026-01-13 10:05:51.11	163.25	19.98	-41.8	-45.7	11.9	3.53e-04	0	56	0	221249536	55	5568
2026-01-13 10:05:52.12	163.26	20.12	-41.9	-45.8	11.9	4.18e-04	0	56	0	223346688	55	5607
2026-01-13 10:05:53.13	163.27	20.25	-41.8	-45.7	12.0	3.89e-04	0	56	0	225443840	55	5559
2026-01-13 10:05:54.14	163.28	20.39	-41.9	-45.9	11.8	4.20e-04	0	56	0	226492416	55	5660
2026-01-13 10:05:55.15	163.29	20.52	-41.8	-45.7	12.0	5.00e-04	0	56	0	228589568	55	5569
2026-01-13 10:05:56.16	163.30	20.66	-41.9	-45.8	11.9	4.31e-04	0	56	0	230686720	55	5649
2026-01-13 10:05:57.17	163.31	20.79	-41.9	-45.9	11.8	4.04e-04	0	56	0	232783872	55	5700
2026-01-13 10:05:58.18	163.32	20.93	-41.9	-45.9	11.8	4.55e-04	0	56	0	234881024	55	5666
2026-01-13 10:05:59.19	163.33	21.07	-41.9	-46.0	11.7	4.48e-04	0	56	0	235929600	55	5752
2026-01-13 10:06:00.20	163.34	21.21	-42.0	-46.0	11.7	5.10e-04	0	56	0	238026752	55	5754
2026-01-13 10:06:01.21	163.35	21.35	-42.0	-46.0	11.7	4.36e-04	0	56	0	240123904	55	5747
2026-01-13 10:06:02.22	163.36	21.49	-41.9	-46.0	11.7	5.29e-04	0	56	0	242221056	55	5737
2026-01-13 10:06:03.23	163.37	21.63	-42.0	-46.0	11.7	7.63e-04	0	56	0	244318208	55	5771
2026-01-13 10:06:04.23	163.38	21.77	-42.0	-46.1	11.6	7.93e-04	0	56	0	245366784	55	5835
2026-01-13 10:06:05.24	163.39	21.92	-42.1	-46.4	11.3	8.21e-04	0	56	0	247463936	55	6017
2026-01-13 10:06:06.25	163.40	22.06	-42.1	-46.3	11.5	1.08e-03	0	56	0	249561088	55	5927
2026-01-13 10:06:07.26	163.41	22.20	-42.2	-46.4	11.3	1.18e-03	0	56	0	251658240	55	6036
2026-01-13 10:06:08.27	163.42	22.35	-42.2	-46.6	11.1	1.51e-03	0	56	0	253755392	55	6148
2026-01-13 10:06:09.28	163.43	22.50	-42.3	-46.7	11.0	1.52e-03	0	56	0	254803968	55	6229
2026-01-13 10:06:10.29	163.44	22.64	-42.3	-46.7	11.0	1.57e-03	0	56	0	256901120	55	6236
2026-01-13 10:06:11.30	163.45	22.79	-42.3	-46.8	10.9	2.27e-03	0	56	0	258998272	55	6297
2026-01-13 10:06:12.31	163.46	22.94	-42.3	-46.8	10.9	2.18e-03	0	56	0	261095424	55	6347
2026-01-13 10:06:13.32	163.47	23.09	-42.3	-46.8	10.9	1.93e-03	0	56	0	263192576	55	6328
2026-01-13 10:06:14.33	163.48	23.24	-42.3	-46.6	11.1	2.08e-03	0	56	0	264241152	55	6191
2026-01-13 10:06:15.34	163.49	23.39	-42.3	-46.7	11.0	2.01e-03	0	56	0	266338304	55	6247
2026-01-13 10:06:16.36	163.50	23.55	-42.3	-46.8	10.9	1.91e-03	0	56	0	268435456	55	6332
2026-01-13 10:06:17.36	163.51	23.70	-42.4	-46.8	10.8	2.23e-03	0	56	0	270532608	55	6345
2026-01-13 10:06:18.37	163.52	23.85	-42.4	-46.8	10.9	1.92e-03	0	56	0	272629760	55	6321
2026-01-13 10:06:19.39	163.54	24.01	-42.4	-47.0	10.8	2.60e-03	0	56	0	273678336	55	6443
2026-01-13 10:06:20.39	163.55	24.16	-42.5	-47.1	10.6	3.00e-03	0	56	0	275775488	55	6515
2026-01-13 10:06:21.40	163.56	24.32	-42.5	-47.1	10.6	2.46e-03	0	56	0	277872640	55	6551
2026-01-13 10:06:22.41	163.57	24.48	-42.5	-47.2	10.5	3.94e-03	0	56	0	279969792	55	6594
2026-01-13 10:06:23.42	163.58	24.64	-42.5	-47.0	10.6	3.77e-03	0	56	0	282066944	55	6473
2026-01-13 10:06:24.43	163.59	24.80	-42.5	-47.2	10.5	3.95e-03	0	56	0	284164096	55	6599
2026-01-13 10:06:25.44	163.60	24.96	-42.1	-47.4	10.2	1.29e-02	0	56	0	285212672	55	6767
2026-01-13 10:06:26.45	163.62	25.12	-41.8	-47.0	10.5	1.31e-02	0	56	0	287309824	55	6455
2026-01-13 10:06:27.46	163.63	25.28	-42.0	-47.3	10.3	1.21e-02	0	56	0	289406976	55	6670
2026-01-13 10:06:28.47	163.64	25.45	-41.8	-47.2	10.4	1.14e-02	0	56	0	291504128	55	6594
2026-01-13 10:06:29.47	163.65	25.61	-42.0	-46.9	10.7	1.04e-02	0	56	0	293601280	55	6411
2026-01-13 10:06:30.48	163.66	25.78	-41.9	-47.1	10.5	1.14e-02	0	56	0	294649856	55	6550
2026-01-13 10:06:31.49	163.68	25.94	-42.0	-47.2	10.3	1.13e-02	0	56	0	296747008	55	6621
2026-01-13 10:06:32.51	163.69	26.11	-42.2	-47.3	10.3	1.00e-02	0	56	0	298844160	55	6647
2026-01-13 10:06:33.51	163.70	26.28	-42.3	-47.4	10.1	1.21e-02	0	56	0	300941312	55	6791
2026-01-13 10:06:34.52	163.71	26.45	-42.2	-47.0	10.5	1.31e-02	0	57	0	303038464	55	6467
2026-01-13 10:06:35.53	163.73	26.62	-42.4	-47.5	10.1	1.22e-02	0	56	0	304087040	55	6823
2026-01-13 10:06:36.54	163.74	26.80	-42.3	-47.5	10.1	1.25e-02	0	56	0	306184192	55	6825
2026-01-13 10:06:37.55	163.75	26.97	-42.2	-47.1	10.5	1.11e-02	0	56	0	308281344	55	6517
2026-01-13 10:06:38.56	163.76	27.14	-42.3	-47.2	10.4	1.22e-02	0	56	0	310378496	55	6605
2026-01-13 10:06:39.57	163.78	27.32	-42.4	-47.4	10.2	1.19e-02	0	57	0	312475648	55	6729
2026-01-13 10:06:40.58	163.79	27.50	-42.4	-47.3	10.3	1.02e-02	0	57	0	313524224	55	6706
2026-01-13 10:06:41.59	163.80	27.67	-42.4	-47.2	10.4	1.07e-02	0	57	0	315621376	55	6641
2026-01-13 10:06:42.60	163.82	27.85	-42.3	-46.9	10.8	1.12e-02	0	56	0	317718528	55	6356
2026-01-13 10:06:43.61	163.83	28.03	-42.3	-47.0	10.6	1.09e-02	0	57	0	319815680	55	6486
2026-01-13 10:06:44.62	163.84	28.21	-42.4	-47.3	10.4	1.05e-02	0	57	0	321912832	55	6657
2026-01-13 10:06:45.63	163.86	28.40	-42.3	-47.3	10.4	1.14e-02	0	57	0	322961408	55	6692
2026-01-13 10:06:46.64	163.87	28.58	-42.5	-47.5	10.2	1.35e-02	0	56	0	325058560	55	6842
2026-01-13 10:06:47.65	163.89	28.77	-42.8	-48.2	9.6	1.88e-02	0	57	0	327155712	56	7024
2026-01-13 10:06:48.66	163.90	28.95	-42.9	-48.2	9.6	1.58e-02	0	57	0	329252864	56	6980
2026-01-13 10:06:49.67	163.91	29.14	-43.2	-48.4	9.5	1.76e-02	0	57	0	331350016	56	7188
2026-01-13 10:06:50.68	163.93	29.33	-43.0	-48.0	9.9	1.30e-02	0	57	0	332398592	57	6458
2026-01-13 10:06:51.69	163.94	29.52	-43.0	-48.0	9.9	1.06e-02	0	57	0	334495744	57	6478
2026-01-13 10:06:52.70	163.96	29.71	-42.9	-47.8	10.1	7.15e-03	0	57	0	336592896	57	6330
2026-01-13 10:06:53.71	163.97	29.90	-42.8	-47.4	10.6	5.92e-03	0	57	0	338690048	57	6051
2026-01-13 10:06:54.72	163.99	30.10	-42.8	-47.5	10.5	5.10e-03	0	57	0	340787200	57	6072
2026-01-13 10:06:55.73	164.00	30.29	-42.9	-47.6	10.4	4.18e-03	0	56	0	341835776	57	6165
2026-01-13 10:06:56.74	164.02	30.49	-42.8	-47.5	10.4	5.77e-03	0	57	0	343932928	57	6103
2026-01-13 10:06:57.75	164.03	30.69	-42.9	-47.8	10.2	4.86e-03	0	57	0	346030080	57	6309
2026-01-13 10:06:58.76	164.05	30.89	-43.2	-48.5	9.4	7.28e-03	0	56	0	348127232	57	6819
2026-01-13 10:06:59.77	164.06	31.09	-43.1	-48.1	9.8	1.13e-02	0	57	0	350224384	57	6536
2026-01-13 10:07:00.78	164.08	31.29	-43.1	-48.3	9.7	1.19e-02	0	57	0	352321536	57	6660
2026-01-13 10:07:01.79	164.10	31.49	-43.2	-48.5	9.4	2.48e-02	0	57	0	353370112	57	6865
2026-01-13 10:07:02.79	164.11	31.70	-43.2	-48.5	9.4	1.75e-02	0	56	0	355467264	57	6879
2026-01-13 10:07:03.80	164.13	31.90	-43.1	-48.3	9.8	1.16e-02	0	57	0	357564416	57	6677
2026-01-13 10:07:04.81	164.15	32.11	-43.1	-48.1	9.8	1.46e-02	0	57	0	359661568	57	6567
2026-01-13 10:07:05.82	164.16	32.32	-43.0	-47.9	10.0	8.28e-03	0	56	0	361758720	57	6389
2026-01-13 10:07:06.83	164.18	32.53	-43.1	-48.3	9.7	8.25e-03	0	57	0	362807296	57	6678
2026-01-13 10:07:07.84	164.20	32.74	-43.1	-48.3	9.7	7.44e-03	0	56	0	364904448	57	6679
2026-01-13 10:07:08.85	164.21	32.96	-43.1	-48.1	9.9	1.04e-02	0	57	0	367001600	57	6542
2026-01-13 10:07:09.86	164.23	33.17	-43.1	-48.2	9.8	1.34e-02	0	57	0	369098752	57	6605
2026-01-13 10:07:10.87	164.25	33.39	-43.2	-48.4	9.5	1.94e-02	0	57	0	371195904	57	6800
2026-01-13 10:07:11.88	164.27	33.61	-43.3	-48.7	9.2	1.80e-02	0	57	0	372244480	57	6988
2026-01-13 10:07:12.89	164.28	33.83	-43.3	-48.7	9.3	1.43e-02	0	57	0	374341632	57	7017
2026-01-13 10:07:13.90	164.30	34.05	-43.1	-48.1	9.8	1.39e-02	0	57	0	376438784	57	6552
2026-01-13 10:07:14.91	164.32	34.27	-43.0	-47.9	10.1	9.18e-03	0	57	0	378535936	57	6349
2026-01-13 10:07:15.92	164.34	34.50	-42.9	-47.6	10.4	5.17e-03	0	57	0	380633088	57	6134
2026-01-13 10:07:16.93	164.36	34.72	-42.9	-47.7	10.4	3.43e-03	0	57	0	381681664	57	6256
2026-01-13 10:07:17.94	164.38	34.95	-42.6	-46.8	11.2	1.49e-03	0	57	0	383778816	57	5644
2026-01-13 10:07:18.95	164.40	35.18	-42.6	-46.9	11.2	1.30e-03	0	57	0	385875968	57	5661
2026-01-13 10:07:19.96	164.42	35.41	-42.4	-46.6	11.5	1.86e-03	0	57	0	387973120	56	5793
2026-01-13 10:07:20.97	164.43	35.64	-42.5	-46.7	11.3	1.04e-03	0	57	0	390070272	56	5874
2026-01-13 10:07:21.98	164.45	35.88	-42.3	-46.3	11.7	6.96e-04	0	57	0	391118848	56	5644
2026-01-13 10:07:22.99	164.47	36.12	-42.2	-46.0	12.1	2.78e-04	0	57	0	393216000	56	5447
2026-01-13 10:07:24.00	164.50	36.35	-41.9	-45.6	12.4	2.64e-04	0	57	0	395313152	55	5465
2026-01-13 10:07:25.01	164.52	36.59	-41.7	-45.3	12.6	1.46e-04	0	57	0	397410304	55	5331
2026-01-13 10:07:26.02	164.54	36.84	-41.7	-45.3	12.6	1.07e-04	0	57	0	399507456	55	5320
2026-01-13 10:07:27.03	164.56	37.08	-41.7	-45.2	12.7	7.62e-05	0	57	0	400556032	55	5279
2026-01-13 10:07:28.03	164.58	37.32	-41.6	-45.1	12.8	5.34e-05	0	57	0	402653184	55	5195
2026-01-13 10:07:29.04	164.60	37.57	-41.7	-45.2	12.7	9.53e-05	0	57	0	404750336	55	5226
2026-01-13 10:07:30.05	164.62	37.82	-41.7	-45.3	12.7	9.23e-05	0	57	0	406847488	55	5306
2026-01-13 10:07:31.06	164.65	38.07	-41.7	-45.2	12.8	4.95e-05	0	57	0	408944640	55	5225
2026-01-13 10:07:32.07	164.67	38.32	-41.6	-45.1	12.8	5.72e-05	0	57	0	409993216	55	5189
2026-01-13 10:07:33.08	164.69	38.58	-41.5	-44.8	13.1	3.50e-05	0	57	0	412090368	54	5331
2026-01-13 10:07:34.09	164.71	38.83	-41.4	-44.7	13.3	3.28e-05	0	57	0	414187520	54	5253
2026-01-13 10:07:35.10	164.74	39.09	-41.4	-44.6	13.4	9.90e-06	0	57	0	416284672	54	5196
2026-01-13 10:07:36.11	164.76	39.35	-41.6	-45.1	12.9	2.21e-05	0	57	0	418381824	54	5492
2026-01-13 10:07:37.12	164.79	39.61	-41.6	-45.0	12.9	2.74e-05	0	57	0	420478976	54	5442
2026-01-13 10:07:38.13	164.81	39.88	-41.8	-45.4	12.7	5.26e-05	0	57	0	421527552	54	5659
2026-01-13 10:07:39.14	164.83	40.15	-41.8	-45.5	12.5	1.83e-04	0	57	0	423624704	54	5748
2026-01-13 10:07:40.15	164.86	40.41	-41.8	-45.4	12.5	1.18e-04	0	57	0	425721856	54	5677
2026-01-13 10:07:41.16	164.89	40.68	-42.0	-45.9	12.1	1.19e-04	0	57	0	427819008	54	6045
2026-01-13 10:07:42.17	164.91	40.96	-41.8	-45.5	12.5	1.35e-04	0	57	0	429916160	54	5778
2026-01-13 10:07:43.18	164.94	41.23	-41.9	-45.7	12.2	1.41e-04	0	57	0	430964736	54	5882
2026-01-13 10:07:44.19	164.96	41.51	-42.0	-45.8	12.1	3.44e-04	0	57	0	433061888	54	5963
2026-01-13 10:07:45.20	164.99	41.79	-42.0	-45.8	12.1	2.35e-04	0	57	0	435159040	54	5992
2026-01-13 10:07:46.20	165.02	42.07	-42.0	-45.9	12.1	2.78e-04	0	57	0	437256192	54	6009
2026-01-13 10:07:47.21	165.05	42.35	-42.1	-46.0	11.9	2.27e-04	0	57	0	438304768	54	6101
2026-01-13 10:07:48.22	165.08	42.63	-42.1	-46.0	12.0	3.81e-04	0	57	0	440401920	54	6108
2026-01-13 10:07:49.23	165.10	42.92	-42.0	-45.8	12.1	3.82e-04	0	57	0	442499072	54	5941
2026-01-13 10:07:50.24	165.13	43.21	-42.1	-46.0	11.9	5.20e-04	0	57	0	444596224	55	5754
2026-01-13 10:07:51.25	165.16	43.50	-42.2	-46.2	11.7	5.16e-04	0	57	0	446693376	55	5866
2026-01-13 10:07:52.26	165.19	43.80	-42.1	-46.0	11.9	2.62e-04	0	57	0	448790528	55	5775
2026-01-13 10:07:53.27	165.23	44.09	-42.2	-46.1	11.8	5.14e-04	0	57	0	449839104	55	5847
2026-01-13 10:07:54.28	165.26	44.39	-42.2	-46.1	11.8	4.23e-04	0	57	0	451936256	55	5840
2026-01-13 10:07:55.29	165.29	44.69	-42.3	-46.4	11.5	5.48e-04	0	57	0	454033408	55	6023
2026-01-13 10:07:56.30	165.32	45.00	-42.4	-46.6	11.3	1.01e-03	0	57	0	456130560	55	6184
2026-01-13 10:07:57.31	165.35	45.30	-42.7	-47.2	10.7	1.94e-03	0	57	0	458227712	55	6618
2026-01-13 10:07:58.32	165.39	45.61	-43.0	-47.8	10.3	4.51e-03	0	57	0	459276288	56	6678
2026-01-13 10:07:59.33	165.42	45.92	-43.0	-47.8	10.2	6.61e-03	0	57	0	461373440	56	6715
2026-01-13 10:08:00.34	165.46	46.23	-43.0	-47.8	10.2	9.56e-03	0	57	0	463470592	56	6701
2026-01-13 10:08:01.35	165.49	46.55	-43.1	-48.0	10.0	7.71e-03	0	57	0	465567744	56	6841
2026-01-13 10:08:02.36	165.53	46.86	-43.1	-47.9	10.2	5.34e-03	0	57	0	467664896	56	6789
2026-01-13 10:08:03.36	165.56	47.18	-43.1	-48.1	9.9	9.49e-03	0	57	0	468713472	56	6919
2026-01-13 10:08:04.37	165.60	47.50	-43.3	-48.6	9.6	1.17e-02	0	57	0	470810624	57	6944
2026-01-13 10:08:05.38	165.64	47.83	-43.3	-48.5	9.5	2.01e-02	0	57	0	472907776	57	6823
2026-01-13 10:08:06.39	165.68	48.15	-43.5	-49.3	8.7	2.97e-02	0	57	0	475004928	57	7464
2026-01-13 10:08:07.40	165.72	48.48	-43.5	-49.2	8.8	3.55e-02	0	57	0	477102080	57	7407
2026-01-13 10:08:08.41	165.76	48.81	-43.3	-48.6	9.4	1.74e-02	0	57	0	478150656	57	6941
2026-01-13 10:08:09.42	165.80	49.15	-43.2	-48.2	9.9	1.48e-02	0	57	0	480247808	57	6577
2026-01-13 10:08:10.43	165.84	49.49	-43.1	-48.0	9.9	1.23e-02	0	58	0	482344960	57	6491
2026-01-13 10:08:11.43	165.88	49.82	-43.1	-48.1	10.0	6.45e-03	0	57	0	484442112	57	6510
2026-01-13 10:08:12.43	165.93	50.16	-43.1	-48.0	10.0	7.86e-03	0	57	0	486539264	57	6483
2026-01-13 10:08:13.45	165.97	50.51	-43.0	-47.9	10.2	4.37e-03	0	57	0	487587840	57	6380
2026-01-13 10:08:14.46	166.02	50.86	-42.8	-47.3	10.7	3.18e-03	0	57	0	489684992	57	5992
2026-01-13 10:08:15.47	166.07	51.21	-42.5	-46.7	11.2	1.82e-03	0	57	0	491782144	56	5894
2026-01-13 10:08:16.48	166.11	51.56	-42.3	-46.2	11.9	1.49e-03	0	57	0	493879296	56	5588
2026-01-13 10:08:17.49	166.16	51.91	-42.0	-45.7	12.4	2.05e-04	0	57	0	495976448	56	5243
2026-01-13 10:08:18.50	166.21	52.27	-41.7	-45.2	12.7	5.95e-05	0	57	0	497025024	55	5257
2026-01-13 10:08:19.50	166.26	52.63	-41.8	-45.3	12.7	2.36e-05	0	57	0	499122176	55	5321
2026-01-13 10:08:20.51	166.32	52.99	-41.8	-45.3	12.6	4.95e-05	0	57	0	501219328	55	5317
2026-01-13 10:08:21.53	166.37	53.36	-41.9	-45.4	12.5	1.26e-04	0	57	0	503316480	55	5402
2026-01-13 10:08:22.53	166.42	53.72	-42.3	-46.3	11.7	3.59e-04	0	57	0	505413632	55	5936
2026-01-13 10:08:23.54	166.48	54.09	-42.3	-46.4	11.5	9.83e-04	0	57	0	506462208	55	6022
2026-01-13 10:08:24.55	166.54	54.47	-42.6	-47.0	11.1	2.01e-03	0	57	0	508559360	55	6457
2026-01-13 10:08:25.56	166.60	54.84	-42.6	-47.0	10.9	2.01e-03	0	57	0	510656512	55	6456
2026-01-13 10:08:26.57	166.66	55.22	-42.4	-46.5	11.5	9.33e-04	0	57	0	512753664	55	6115
2026-01-13 10:08:27.58	166.72	55.60	-42.0	-45.7	12.3	2.41e-04	0	57	0	514850816	55	5545
2026-01-13 10:08:28.59	166.78	55.99	-41.7	-45.1	12.9	7.55e-05	0	57	0	516947968	55	5187
2026-01-13 10:08:29.60	166.85	56.37	-41.4	-44.5	13.4	3.43e-05	0	57	0	517996544	54	5135
2026-01-13 10:08:30.61	166.91	56.76	-41.2	-44.3	13.7	4.50e-06	0	57	0	520093696	54	5022
2026-01-13 10:08:31.62	166.98	57.16	-41.3	-44.5	13.6	7.60e-06	0	57	0	522190848	54	5147
2026-01-13 10:08:32.63	167.05	57.55	-41.7	-45.2	12.9	1.52e-05	0	57	0	524288000	54	5530
2026-01-13 10:08:33.64	167.13	57.95	-41.9	-45.6	12.4	7.70e-05	0	57	0	526385152	54	5820
2026-01-13 10:08:34.65	167.20	58.35	-42.0	-45.7	12.3	2.66e-04	0	57	0	527433728	54	5887
2026-01-13 10:08:35.66	167.28	58.75	-42.0	-45.8	12.1	3.42e-04	0	57	0	529530880	54	5991
2026-01-13 10:08:36.67	167.36	59.16	-41.9	-45.6	12.3	2.71e-04	0	57	0	531628032	54	5831
2026-01-13 10:08:37.68	167.44	59.56	-41.7	-45.2	12.6	1.56e-04	0	57	0	533725184	54	5581
2026-01-13 10:08:38.69	167.52	59.97	-41.6	-45.0	13.0	4.73e-05	0	58	0	535822336	54	5414
2026-01-13 10:08:39.70	167.61	60.39	-41.2	-44.3	13.7	1.14e-05	0	57	0	536870912	54	5019
2026-01-13 10:08:40.71	167.70	60.80	-41.3	-44.4	13.6	4.50e-06	0	57	0	538968064	54	5064
2026-01-13 10:08:41.71	167.79	61.22	-41.1	-44.2	13.8	6.10e-06	0	57	0	541065216	54	4961
2026-01-13 10:08:42.73	167.89	61.64	-41.0	-43.9	14.0	6.80e-06	0	57	0	543162368	54	4796
2026-01-13 10:08:43.73	167.98	62.06	-40.8	-43.6	14.5	7.00e-07	0	57	0	545259520	53	4875
2026-01-13 10:08:44.75	168.09	62.49	-40.5	-43.2	14.8	0.00e+00	0	57	0	546308096	53	4669
2026-01-13 10:08:45.76	168.19	62.92	-40.6	-43.4	14.7	0.00e+00	0	57	0	548405248	52	5055
2026-01-13 10:08:46.77	168.30	63.35	-40.8	-43.6	14.4	0.00e+00	0	57	0	550502400	52	5172
2026-01-13 10:08:47.77	168.41	63.78	-40.9	-43.8	14.2	1.50e-06	0	57	0	552599552	52	5285
2026-01-13 10:08:48.78	168.53	64.22	-40.6	-43.4	14.6	3.00e-06	0	57	0	554696704	52	5049
2026-01-13 10:08:49.79	168.65	64.66	-40.7	-43.4	14.5	0.00e+00	0	57	0	555745280	52	5091
2026-01-13 10:08:50.80	168.78	65.10	-40.6	-43.3	14.7	0.00e+00	0	58	0	557842432	52	4990
2026-01-13 10:08:51.81	168.91	65.55	-40.9	-43.8	14.1	7.00e-07	0	57	0	559939584	52	5315
2026-01-13 10:08:52.82	169.05	65.99	-40.9	-43.8	14.1	7.00e-07	0	57	0	562036736	52	5309
2026-01-13 10:08:53.83	169.19	66.44	-41.3	-44.5	13.4	4.50e-06	0	57	0	564133888	53	5452
2026-01-13 10:08:54.84	169.34	66.89	-41.4	-44.7	13.2	9.90e-06	0	57	0	565182464	53	5569
2026-01-13 10:08:55.85	169.49	67.34	-41.5	-44.8	13.0	1.44e-05	0	57	0	567279616	53	5653
2026-01-13 10:08:56.86	169.65	67.80	-42.1	-45.8	12.1	7.85e-05	0	57	0	569376768	54	5977
2026-01-13 10:08:57.87	169.82	68.26	-43.1	-48.1	9.9	1.86e-03	0	57	0	571473920	56	6933
2026-01-13 10:08:58.88	170.00	68.72	-43.9	-50.6	7.5	3.04e-02	0	57	0	573571072	58	8188
2026-01-13 10:08:59.89	170.18	69.18	-44.1	-51.3	6.8	2.10e-01	0	57	0	574619648	58	8925
2026-01-13 10:09:00.90	170.38	69.65	-43.9	-50.3	7.4	1.22e-01	0	57	0	576716800	58	7975
2026-01-13 10:09:01.91	170.58	70.11	-43.6	-49.4	8.6	4.33e-02	0	57	0	578813952	58	7145
2026-01-13 10:09:02.92	170.79	70.58	-43.6	-49.4	8.5	4.84e-02	0	57	0	580911104	58	7133
2026-01-13 10:09:03.93	171.02	71.05	-43.7	-49.8	8.1	4.56e-02	0	57	0	583008256	58	7495
2026-01-13 10:09:04.94	171.25	71.52	-43.5	-49.3	8.6	3.70e-02	0	57	0	585105408	58	7079
2026-01-13 10:09:05.95	171.50	72.00	-43.5	-49.3	8.6	5.72e-02	0	57	0	586153984	58	7059
2026-01-13 10:09:06.96	171.77	72.47	-43.1	-48.0	9.9	1.74e-02	0	57	0	588251136	58	6069
2026-01-13 10:09:07.97	172.05	72.95	-42.4	-46.4	11.6	3.05e-03	0	57	0	590348288	56	5657
2026-01-13 10:09:08.98	172.34	73.43	-41.8	-45.3	12.5	2.30e-04	0	57	0	592445440	55	5332
2026-01-13 10:09:09.99	172.66	73.91	-41.9	-45.6	12.3	1.69e-04	0	58	0	594542592	55	5488
2026-01-13 10:09:10.99	172.99	74.39	-42.3	-46.4	11.5	6.06e-04	0	57	0	595591168	55	6007
2026-01-13 10:09:12.00	173.34	74.87	-42.5	-46.9	10.8	1.38e-03	0	57	0	597688320	55	6419
2026-01-13 10:09:13.01	173.72	75.35	-42.9	-47.7	10.3	4.33e-03	0	58	0	599785472	56	6574
2026-01-13 10:09:14.02	174.13	75.84	-43.4	-48.9	9.0	1.52e-02	0	57	0	601882624	57	7198
2026-01-13 10:09:15.03	174.56	76.33	-43.4	-49.1	8.6	3.64e-02	0	58	0	603979776	57	7354
2026-01-13 10:09:16.04	175.03	76.81	-42.8	-47.3	10.7	6.35e-03	0	57	0	605028352	57	5928
2026-01-13 10:09:17.05	175.54	77.30	-42.1	-45.8	12.2	1.00e-03	0	58	0	607125504	56	5299
2026-01-13 10:09:18.06	176.09	77.79	-42.3	-46.3	11.7	2.12e-04	0	57	0	609222656	56	5624
2026-01-13 10:09:19.07	176.68	78.28	-43.3	-48.7	9.2	9.67e-03	0	58	0	611319808	57	7039
2026-01-13 10:09:20.08	177.33	78.77	-43.5	-49.1	8.7	4.52e-02	0	58	0	613416960	57	7366
2026-01-13 10:09:21.09	178.03	79.26	-43.2	-48.3	9.6	1.65e-02	0	57	0	614465536	57	6706
2026-01-13 10:09:22.10	178.81	79.75	-43.1	-48.1	9.7	1.14e-02	0	58	0	616562688	57	6543
2026-01-13 10:09:23.11	179.66	80.23	-42.9	-47.7	10.4	4.72e-03	0	57	0	618659840	57	6209
2026-01-13 10:09:24.12	180.61	80.72	-42.7	-47.1	10.7	2.42e-03	0	57	0	620756992	57	5835
2026-01-13 10:09:25.12	181.64	81.20	-43.3	-48.7	9.2	4.12e-03	0	57	0	622854144	57	7003
2026-01-13 10:09:26.14	182.83	81.69	-43.7	-50.0	7.8	6.44e-02	0	58	0	623902720	58	7707
2026-01-13 10:09:27.15	184.15	82.17	-44.0	-51.3	6.6	1.50e-01	0	58	0	625999872	58	8932
2026-01-13 10:09:28.16	185.64	82.64	-44.1	-51.5	6.4	2.26e-01	0	57	0	628097024	58	9119
2026-01-13 10:09:29.16	187.32	83.11	-43.6	-49.7	8.2	7.93e-02	0	57	0	630194176	58	7425
2026-01-13 10:09:30.17	189.26	83.58	-43.1	-48.1	9.8	2.12e-02	0	57	0	632291328	57	6510
2026-01-13 10:09:31.18	191.51	84.03	-43.0	-47.8	10.2	4.93e-03	0	57	0	633339904	57	6335
2026-01-13 10:09:32.19	194.13	84.48	-42.9	-47.6	10.5	5.72e-03	0	57	0	635437056	57	6144
2026-01-13 10:09:33.20	197.20	84.92	-42.7	-47.1	10.9	1.72e-03	0	57	0	637534208	56	6184
2026-01-13 10:09:34.21	200.84	85.33	-42.6	-46.8	11.2	1.30e-03	0	57	0	639631360	56	5967
2026-01-13 10:09:35.22	205.17	85.73	-43.1	-48.1	9.7	4.49e-03	0	57	0	641728512	56	6952
2026-01-13 10:09:36.23	210.36	86.10	-43.2	-48.4	9.6	7.91e-03	0	58	0	642777088	57	6784
2026-01-13 10:09:37.24	216.56	86.43	-43.3	-48.6	9.4	1.06e-02	0	57	0	644874240	57	6900
2026-01-13 10:09:38.25	223.91	86.70	-43.4	-48.9	9.0	3.59e-02	0	57	0	646971392	57	7122
2026-01-13 10:09:39.26	232.45	86.92	-43.2	-48.3	9.7	1.49e-02	0	57	0	649068544	57	6654
2026-01-13 10:09:40.27	242.04	87.06	-43.5	-49.4	8.6	2.63e-02	0	57	0	651165696	57	7569
2026-01-13 10:09:41.28	252.26	87.11	-43.5	-49.3	8.6	4.41e-02	0	57	0	653262848	57	7473
2026-01-13 10:09:42.29	262.50	87.07	-43.2	-48.3	9.5	1.45e-02	0	57	0	654311424	57	6684
2026-01-13 10:09:43.30	272.15	86.93	-42.4	-46.5	11.4	4.15e-03	0	58	0	656408576	56	5784
2026-01-13 10:09:44.31	280.78	86.72	-41.7	-45.1	12.8	1.43e-04	0	58	0	658505728	55	5203
2026-01-13 10:09:45.32	288.22	86.45	-42.9	-47.6	10.4	1.87e-03	0	58	0	660602880	56	6550
2026-01-13 10:09:46.33	294.50	86.12	-43.5	-49.0	8.9	2.57e-02	0	58	0	662700032	57	7280
2026-01-13 10:09:47.34	299.75	85.76	-43.0	-47.7	10.4	1.40e-02	0	58	0	663748608	57	6208
2026-01-13 10:09:48.35	304.14	85.36	-42.9	-47.4	10.5	4.70e-03	0	58	0	665845760	57	6053
2026-01-13 10:09:49.36	307.83	84.95	-43.1	-48.0	10.0	9.90e-03	0	58	0	667942912	57	6449
2026-01-13 10:09:50.37	310.94	84.51	-42.5	-46.7	11.3	4.48e-03	0	58	0	670040064	57	5557
2026-01-13 10:09:51.38	313.58	84.07	-42.5	-46.5	11.5	9.11e-04	0	58	0	672137216	56	5786
2026-01-13 10:09:52.39	315.86	83.61	-42.6	-46.7	11.3	2.31e-03	0	58	0	673185792	56	5921
2026-01-13 10:09:53.40	317.82	83.15	-42.7	-47.1	10.9	2.66e-03	0	58	0	675282944	56	6178
2026-01-13 10:09:54.40	319.52	82.68	-42.7	-46.9	11.3	1.91e-03	0	57	0	677380096	56	6030
2026-01-13 10:09:55.41	321.02	82.21	-43.1	-47.9	10.1	5.38e-03	0	58	0	679477248	56	6769
2026-01-13 10:09:56.42	322.35	81.73	-43.6	-49.5	8.6	1.88e-02	0	58	0	681574400	57	7648
2026-01-13 10:09:57.43	323.53	81.25	-43.6	-49.3	8.5	5.59e-02	0	58	0	682622976	58	7121
2026-01-13 10:09:58.44	324.59	80.76	-43.0	-47.6	10.4	6.65e-03	0	58	0	684720128	57	6149
2026-01-13 10:09:59.45	325.54	80.28	-42.6	-46.7	11.5	1.55e-03	0	58	0	686817280	57	5561
2026-01-13 10:10:00.46	326.40	79.79	-42.5	-46.6	11.5	6.61e-04	0	57	0	688914432	56	5804
2026-01-13 10:10:01.47	327.18	79.30	-42.7	-46.9	11.4	7.84e-04	0	58	0	691011584	56	6006
2026-01-13 10:10:02.48	327.89	78.81	-44.0	-50.7	7.4	3.08e-02	0	58	0	692060160	58	8309
2026-01-13 10:10:03.49	328.54	78.32	-44.0	-50.7	7.3	1.48e-01	0	58	0	694157312	58	8338
2026-01-13 10:10:04.50	329.14	77.84	-43.5	-49.3	8.5	6.17e-02	0	58	0	696254464	58	7109
2026-01-13 10:10:05.51	329.69	77.35	-44.0	-50.6	7.5	8.01e-02	0	58	0	698351616	58	8223
2026-01-13 10:10:06.52	330.20	76.86	-43.8	-50.5	7.5	1.66e-01	0	58	0	700448768	58	8173
2026-01-13 10:10:07.53	330.67	76.37	-43.3	-48.9	9.1	5.67e-02	0	58	0	701497344	57	7122
2026-01-13 10:10:08.54	331.11	75.89	-43.1	-48.8	9.3	2.22e-02	0	58	0	703594496	57	7069
2026-01-13 10:10:09.55	331.52	75.40	-43.8	-50.0	8.1	4.44e-02	0	58	0	705691648	58	7703
2026-01-13 10:10:10.56	331.90	74.92	-43.8	-49.9	8.2	5.96e-02	0	58	0	707788800	58	7559
2026-01-13 10:10:11.56	332.26	74.44	-44.3	-52.3	6.0	2.83e-01	0	58	0	709885952	59	9403
2026-01-13 10:10:12.57	332.59	73.96	-43.7	-50.9	7.1	3.23e-01	0	58	0	710934528	58	8494
2026-01-13 10:10:13.58	332.91	73.48	-43.7	-49.7	8.3	5.02e-02	0	57	0	713031680	57	7832
2026-01-13 10:10:14.59	333.20	73.00	-43.6	-52.1	6.0	1.97e-01	0	58	0	715128832	58	9819
2026-01-13 10:10:15.60	333.48	72.52	-44.6	-54.7	4.5	7.23e-01	0	58	0	717225984	59	12460
2026-01-13 10:10:16.61	333.75	72.05	-44.3	-52.8	5.5	7.78e-01	0	58	0	719323136	59	10047
2026-01-13 10:10:17.62	334.00	71.58	-44.4	-52.3	6.0	3.23e-01	0	58	0	721420288	59	9454
2026-01-13 10:10:18.63	334.24	71.10	-44.1	-52.6	5.8	3.34e-01	0	57	0	722468864	59	9830
2026-01-13 10:10:19.64	334.46	70.64	-44.5	-52.9	5.6	5.45e-01	0	58	0	724566016	59	10133
2026-01-13 10:10:20.65	334.68	70.17	-44.5	-53.2	5.4	4.57e-01	0	58	0	726663168	59	10444
2026-01-13 10:10:21.66	334.88	69.70	-44.2	-52.1	6.1	5.38e-01	0	58	0	728760320	59	9198
2026-01-13 10:10:22.66	335.07	69.24	-43.3	-48.5	9.5	5.33e-02	0	58	0	730857472	57	6849
2026-01-13 10:10:23.68	335.26	68.78	-43.3	-48.3	9.6	6.25e-03	0	58	0	731906048	57	6719
2026-01-13 10:10:24.69	335.44	68.32	-43.4	-48.7	9.4	1.64e-02	0	58	0	734003200	57	7003
2026-01-13 10:10:25.69	335.60	67.87	-43.4	-49.2	8.9	2.27e-02	0	58	0	736100352	57	7382
2026-01-13 10:10:26.70	335.77	67.41	-43.5	-49.0	9.0	2.31e-02	0	58	0	738197504	57	7287
2026-01-13 10:10:27.71	335.92	66.96	-43.9	-50.3	7.7	5.26e-02	0	58	0	740294656	58	7985
2026-01-13 10:10:28.72	336.07	66.51	-43.3	-48.4	9.7	3.67e-02	0	58	0	741343232	57	6791
2026-01-13 10:10:29.73	336.21	66.06	-42.6	-46.8	11.4	2.86e-03	0	58	0	743440384	57	5603
2026-01-13 10:10:30.74	336.35	65.62	-42.9	-47.4	10.7	2.18e-03	0	58	0	745537536	56	6406
2026-01-13 10:10:31.75	336.48	65.17	-42.4	-46.4	11.8	1.75e-03	0	58	0	747634688	56	5660
2026-01-13 10:10:32.76	336.61	64.73	-41.3	-44.5	13.6	5.11e-05	0	58	0	749731840	54	5110
2026-01-13 10:10:33.77	336.73	64.29	-41.4	-44.6	13.5	3.73e-05	0	58	0	750780416	53	5505
2026-01-13 10:10:34.78	336.85	63.86	-42.2	-46.1	12.0	9.38e-05	0	58	0	752877568	54	6184
2026-01-13 10:10:35.79	336.96	63.43	-42.7	-47.1	11.1	2.31e-03	0	58	0	754974720	56	6132
2026-01-13 10:10:36.80	337.07	62.99	-42.0	-45.5	12.6	5.35e-04	0	58	0	757071872	56	5132
2026-01-13 10:10:37.81	337.18	62.57	-41.5	-44.8	13.2	2.51e-05	0	58	0	759169024	54	5336
2026-01-13 10:10:38.82	337.28	62.14	-41.5	-44.7	13.4	8.30e-06	0	58	0	760217600	54	5270
2026-01-13 10:10:39.82	337.38	61.72	-41.5	-44.8	13.3	9.90e-06	0	58	0	762314752	54	5290
2026-01-13 10:10:40.83	337.48	61.30	-42.4	-46.4	11.6	3.49e-04	0	58	0	764411904	55	6030
2026-01-13 10:10:41.84	337.57	60.88	-43.9	-50.2	8.0	1.93e-02	0	58	0	766509056	58	7811
2026-01-13 10:10:42.85	337.66	60.47	-44.2	-51.4	6.8	1.27e-01	0	58	0	768606208	59	8473
2026-01-13 10:10:43.86	337.75	60.06	-43.5	-49.0	9.1	5.61e-02	0	58	0	769654784	58	6845
2026-01-13 10:10:44.87	337.83	59.65	-42.8	-47.2	10.8	3.90e-03	0	58	0	771751936	57	5911
2026-01-13 10:10:45.89	337.91	59.24	-41.9	-46.3	11.8	1.43e-03	0	58	0	773849088	55	5945
2026-01-13 10:10:46.89	337.99	58.84	-42.9	-47.3	10.9	9.84e-04	0	58	0	775946240	56	6331
2026-01-13 10:10:47.91	338.07	58.43	-42.8	-47.2	11.1	2.41e-03	0	58	0	778043392	56	6204
2026-01-13 10:10:48.92	338.15	58.03	-43.1	-47.9	10.3	2.60e-03	0	58	0	779091968	56	6762
2026-01-13 10:10:49.92	338.22	57.64	-43.2	-48.1	10.0	8.65e-03	0	58	0	781189120	57	6501
2026-01-13 10:10:50.93	338.29	57.25	-42.4	-46.3	11.9	1.48e-03	0	58	0	783286272	56	5626
2026-01-13 10:10:51.94	338.36	56.85	-41.2	-44.3	13.8	2.21e-05	0	58	0	785383424	54	4995
2026-01-13 10:10:52.95	338.42	56.47	-41.3	-44.4	13.8	3.00e-06	0	57	0	787480576	54	5050
2026-01-13 10:10:53.97	338.49	56.08	-42.1	-45.9	12.3	1.17e-04	0	58	0	789577728	54	6024
2026-01-13 10:10:54.98	338.56	55.69	-42.0	-45.8	12.2	4.85e-04	0	58	0	790626304	55	5643
2026-01-13 10:10:55.98	338.62	55.32	-41.7	-45.2	12.9	1.52e-04	0	58	0	792723456	55	5271
2026-01-13 10:10:56.99	338.68	54.94	-41.7	-45.1	13.0	3.81e-05	0	58	0	794820608	55	5178
2026-01-13 10:10:58.00	338.74	54.56	-42.2	-46.0	12.2	1.21e-04	0	58	0	796917760	55	5727
2026-01-13 10:10:59.01	338.79	54.19	-42.6	-46.8	11.2	6.03e-04	0	58	0	799014912	55	6341
2026-01-13 10:11:00.02	338.85	53.82	-42.3	-46.7	11.3	1.39e-03	0	58	0	800063488	55	6238
2026-01-13 10:11:01.03	338.91	53.46	-42.2	-46.0	12.0	5.19e-04	0	58	0	802160640	55	5765
2026-01-13 10:11:02.04	338.96	53.09	-42.1	-45.8	12.3	2.81e-04	0	58	0	804257792	55	5650
2026-01-13 10:11:03.05	339.01	52.73	-42.5	-46.7	11.4	4.16e-04	0	58	0	806354944	55	6222
2026-01-13 10:11:04.06	339.06	52.37	-43.1	-47.9	10.4	3.68e-03	0	58	0	807403520	56	6726
2026-01-13 10:11:05.06	339.11	52.02	-43.4	-49.0	9.2	1.03e-02	0	58	0	809500672	57	7216
2026-01-13 10:11:06.08	339.16	51.66	-43.9	-50.1	7.9	3.57e-02	0	58	0	811597824	58	7805
2026-01-13 10:11:07.09	339.21	51.31	-43.8	-49.9	8.2	7.77e-02	0	58	0	813694976	58	7581
2026-01-13 10:11:08.10	339.26	50.96	-43.7	-49.4	8.7	6.93e-02	0	58	0	815792128	58	7191
2026-01-13 10:11:09.11	339.30	50.61	-43.2	-48.2	10.0	2.63e-02	0	58	0	817889280	58	6220
2026-01-13 10:11:10.12	339.35	50.27	-42.8	-47.3	10.8	3.96e-03	0	58	0	818937856	57	5935
2026-01-13 10:11:11.13	339.39	49.93	-42.5	-46.5	11.7	1.42e-03	0	58	0	821035008	57	5411
2026-01-13 10:11:12.14	339.44	49.59	-42.6	-46.8	11.5	6.45e-04	0	58	0	823132160	56	5924
2026-01-13 10:11:13.15	339.48	49.25	-42.5	-46.4	11.8	5.11e-04	0	58	0	825229312	56	5693
2026-01-13 10:11:14.16	339.52	48.92	-42.9	-47.3	10.8	9.12e-04	0	58	0	827326464	56	6332
2026-01-13 10:11:15.17	339.56	48.59	-43.6	-49.4	8.7	8.46e-03	0	58	0	828375040	57	7604
2026-01-13 10:11:16.18	339.60	48.26	-44.2	-51.7	6.5	2.46e-01	0	58	0	830472192	59	8811
2026-01-13 10:11:17.19	339.64	47.94	-43.7	-49.8	8.3	1.87e-01	0	58	0	832569344	59	7052
2026-01-13 10:11:18.19	339.68	47.62	-42.9	-47.4	10.8	1.63e-02	0	58	0	834666496	57	6003
2026-01-13 10:11:19.20	339.72	47.29	-42.4	-46.3	12.0	1.47e-03	0	58	0	836763648	56	5637
2026-01-13 10:11:20.21	339.75	46.98	-42.3	-46.0	12.2	1.96e-04	0	58	0	837812224	56	5457
2026-01-13 10:11:21.22	339.79	46.66	-42.6	-46.7	11.6	6.37e-04	0	58	0	839909376	56	5888
2026-01-13 10:11:22.23	339.83	46.34	-42.6	-46.7	11.4	1.11e-03	0	58	0	842006528	56	5922
2026-01-13 10:11:23.24	339.86	46.03	-42.8	-47.1	11.1	2.38e-03	0	58	0	844103680	56	6177
2026-01-13 10:11:24.25	339.90	45.72	-42.8	-47.3	10.9	2.47e-03	0	58	0	846200832	56	6336
2026-01-13 10:11:25.26	339.93	45.42	-43.3	-48.5	9.7	4.56e-03	0	58	0	847249408	57	6844
2026-01-13 10:11:26.27	339.96	45.11	-43.4	-48.9	9.3	1.80e-02	0	58	0	849346560	57	7134
2026-01-13 10:11:27.28	340.00	44.81	-43.4	-48.8	9.3	2.03e-02	0	58	0	851443712	57	7094
2026-01-13 10:11:28.29	340.03	44.51	-43.2	-48.1	10.0	1.49e-02	0	58	0	853540864	57	6556
2026-01-13 10:11:29.29	340.06	44.22	-43.3	-48.4	9.8	1.03e-02	0	58	0	855638016	57	6755
2026-01-13 10:11:30.30	340.09	43.92	-42.5	-46.6	11.5	2.47e-03	0	58	0	856686592	57	5470
2026-01-13 10:11:31.31	340.12	43.63	-41.6	-44.9	13.2	1.83e-04	0	58	0	858783744	55	5085
2026-01-13 10:11:32.32	340.15	43.34	-41.3	-44.3	13.8	2.21e-05	0	58	0	860880896	54	5014
2026-01-13 10:11:33.33	340.18	43.05	-41.5	-44.7	13.3	3.80e-06	0	58	0	862978048	54	5247
2026-01-13 10:11:34.34	340.21	42.76	-41.8	-45.3	12.8	5.95e-05	0	58	0	865075200	54	5613
2026-01-13 10:11:35.35	340.24	42.48	-42.5	-46.7	11.3	2.42e-04	0	58	0	866123776	55	6260
2026-01-13 10:11:36.36	340.27	42.19	-43.1	-48.1	10.0	6.67e-03	0	58	0	868220928	56	6914
2026-01-13 10:11:37.37	340.30	41.91	-43.4	-49.0	9.2	1.91e-02	0	58	0	870318080	57	7254
2026-01-13 10:11:38.38	340.32	41.64	-43.7	-49.7	8.4	3.57e-02	0	58	0	872415232	57	7827
2026-01-13 10:11:39.39	340.35	41.36	-43.4	-48.9	9.2	2.28e-02	0	58	0	874512384	57	7144
2026-01-13 10:11:40.40	340.38	41.09	-43.2	-48.3	9.8	1.72e-02	0	58	0	875560960	57	6674
2026-01-13 10:11:41.41	340.40	40.82	-42.9	-47.4	10.6	9.32e-03	0	58	0	877658112	57	6059
2026-01-13 10:11:42.42	340.43	40.55	-43.1	-47.8	10.2	5.16e-03	0	58	0	879755264	57	6347
2026-01-13 10:11:43.43	340.46	40.28	-42.9	-47.5	10.7	3.46e-03	0	58	0	881852416	57	6068
2026-01-13 10:11:44.44	340.48	40.01	-42.3	-46.2	12.0	1.05e-03	0	58	0	883949568	56	5548
2026-01-13 10:11:45.45	340.51	39.75	-42.0	-45.5	12.6	2.24e-04	0	58	0	886046720	56	5158
2026-01-13 10:11:46.46	340.53	39.49	-42.4	-46.5	11.8	1.72e-04	0	58	0	887095296	56	5735
2026-01-13 10:11:47.47	340.55	39.23	-42.8	-47.2	10.9	1.86e-03	0	58	0	889192448	56	6220
2026-01-13 10:11:48.48	340.58	38.97	-43.3	-48.7	9.3	4.39e-03	0	58	0	891289600	57	6993
2026-01-13 10:11:49.49	340.60	38.71	-44.0	-50.8	7.2	7.09e-02	0	58	0	893386752	58	8453
2026-01-13 10:11:50.50	340.63	38.46	-44.2	-52.1	6.2	1.77e-01	0	58	0	895483904	58	9746
2026-01-13 10:11:51.50	340.65	38.21	-44.5	-54.0	4.8	5.15e-01	0	58	0	896532480	59	11515
2026-01-13 10:11:52.51	340.67	37.96	-44.6	-54.6	4.6	1.23e+00	0	58	0	898629632	59	12361
2026-01-13 10:11:53.52	340.69	37.71	-44.5	-53.9	4.8	9.13e-01	0	58	0	900726784	59	11405
2026-01-13 10:11:54.53	340.72	37.47	-44.4	-53.5	5.1	6.82e-01	0	58	0	902823936	59	10859
2026-01-13 10:11:55.54	340.74	37.22	-44.5	-53.7	5.0	6.48e-01	0	58	0	904921088	59	11070
2026-01-13 10:11:56.55	340.76	36.98	-44.5	-53.9	4.9	7.84e-01	0	58	0	905969664	59	11292
2026-01-13 10:11:57.56	340.78	36.74	-44.2	-52.2	6.1	4.49e-01	0	58	0	908066816	59	9314
2026-01-13 10:11:58.57	340.80	36.50	-44.1	-51.4	6.7	2.35e-01	0	58	0	910163968	59	8482
2026-01-13 10:11:59.58	340.82	36.26	-43.8	-50.3	7.6	1.05e-01	0	58	0	912261120	59	7524
2026-01-13 10:12:00.59	340.84	36.02	-43.7	-49.8	8.2	5.34e-02	0	58	0	914358272	59	7107
2026-01-13 10:12:01.60	340.86	35.79	-43.2	-48.5	9.5	3.00e-02	0	58	0	915406848	58	6434
2026-01-13 10:12:02.61	340.88	35.56	-43.3	-48.8	9.2	1.89e-02	0	58	0	917504000	58	6653
2026-01-13 10:12:03.62	340.90	35.33	-43.6	-49.5	8.4	3.19e-02	0	58	0	919601152	58	7265
2026-01-13 10:12:04.62	340.92	35.10	-43.8	-50.2	7.7	5.73e-02	0	58	0	921698304	58	7845
2026-01-13 10:12:05.63	340.94	34.87	-44.1	-51.7	6.4	1.75e-01	0	58	0	923795456	58	9313
2026-01-13 10:12:06.64	340.96	34.65	-44.3	-52.5	5.8	3.05e-01	0	58	0	924844032	59	9701
2026-01-13 10:12:07.65	340.98	34.42	-44.4	-53.6	5.1	6.00e-01	0	58	0	926941184	59	11006
2026-01-13 10:12:08.66	341.00	34.20	-44.6	-54.9	4.5	1.02e+00	0	58	0	929038336	59	12690
2026-01-13 10:12:09.67	341.02	33.98	-44.6	-55.1	4.4	1.32e+00	0	58	0	930086912	59	13097
2026-01-13 10:12:10.68	341.04	33.76	-44.5	-54.6	4.5	1.01e+00	0	58	0	932184064	59	12330
2026-01-13 10:12:11.69	341.06	33.54	-44.5	-54.1	4.8	7.66e-01	0	58	0	934281216	59	11610
2026-01-13 10:12:12.70	341.07	33.33	-44.4	-53.7	5.0	7.55e-01	0	58	0	936378368	59	11059
2026-01-13 10:12:13.71	341.09	33.11	-44.4	-53.6	5.0	5.58e-01	0	58	0	938475520	59	10976
2026-01-13 10:12:14.72	341.11	32.90	-44.5	-53.9	4.8	7.71e-01	0	58	0	939524096	59	11396
2026-01-13 10:12:15.73	341.13	32.69	-44.2	-52.4	5.7	5.63e-01	0	58	0	941621248	59	9545
2026-01-13 10:12:16.74	341.14	32.48	-44.1	-51.6	6.3	2.66e-01	0	58	0	943718400	59	8752
2026-01-13 10:12:17.75	341.16	32.27	-43.7	-50.2	7.7	1.32e-01	0	58	0	945815552	59	7385
2026-01-13 10:12:18.76	341.18	32.06	-43.5	-49.5	8.3	6.72e-02	0	58	0	947912704	59	6860
2026-01-13 10:12:19.77	341.19	31.86	-43.3	-48.8	9.1	3.47e-02	0	58	0	948961280	58	6681
2026-01-13 10:12:20.78	341.21	31.65	-43.2	-48.5	9.4	1.64e-02	0	58	0	951058432	58	6445
2026-01-13 10:12:21.79	341.23	31.45	-43.2	-48.5	9.3	1.61e-02	0	58	0	953155584	58	6447
2026-01-13 10:12:22.79	341.24	31.25	-43.1	-48.3	9.6	1.24e-02	0	58	0	955252736	58	6332
2026-01-13 10:12:23.80	341.26	31.05	-43.4	-49.3	8.6	1.96e-02	0	58	0	957349888	58	7065
2026-01-13 10:12:24.81	341.28	30.85	-43.5	-49.3	8.5	3.62e-02	0	58	0	958398464	58	7102
2026-01-13 10:12:25.82	341.29	30.65	-43.6	-49.9	8.0	6.23e-02	0	58	0	960495616	58	7551
2026-01-13 10:12:26.83	341.31	30.46	-43.8	-50.7	7.2	1.09e-01	0	58	0	962592768	58	8366
2026-01-13 10:12:27.84	341.32	30.26	-43.9	-51.2	6.7	1.74e-01	0	58	0	964689920	58	8803
2026-01-13 10:12:28.85	341.34	30.07	-43.8	-50.9	6.9	1.65e-01	0	58	0	966787072	58	8474
2026-01-13 10:12:29.86	341.35	29.88	-43.7	-50.6	7.3	1.77e-01	0	58	0	968884224	58	8184
2026-01-13 10:12:30.87	341.37	29.68	-43.7	-50.4	7.4	1.57e-01	0	58	0	969932800	58	8031
2026-01-13 10:12:31.88	341.38	29.49	-43.5	-49.8	8.0	8.33e-02	0	58	0	972029952	58	7511
2026-01-13 10:12:32.89	341.40	29.31	-43.4	-49.3	8.4	5.62e-02	0	58	0	974127104	58	7121
2026-01-13 10:12:33.90	341.41	29.12	-43.3	-49.0	8.8	4.24e-02	0	58	0	976224256	58	6838
2026-01-13 10:12:34.91	341.43	28.93	-43.1	-48.4	9.4	2.25e-02	0	58	0	978321408	58	6348
2026-01-13 10:12:35.92	341.44	28.75	-43.2	-48.6	9.1	2.22e-02	0	58	0	979369984	58	6558
2026-01-13 10:12:36.93	341.46	28.57	-43.1	-48.4	9.4	1.65e-02	0	58	0	981467136	58	6355
2026-01-13 10:12:37.94	341.47	28.38	-43.1	-48.4	9.3	1.47e-02	0	58	0	983564288	57	6793
2026-01-13 10:12:38.95	341.49	28.20	-43.0	-48.3	9.5	1.56e-02	0	58	0	985661440	57	6654
2026-01-13 10:12:39.96	341.50	28.02	-43.0	-48.2	9.7	1.22e-02	0	58	0	987758592	57	6587
2026-01-13 10:12:40.97	341.51	27.84	-42.9	-48.0	9.7	1.01e-02	0	58	0	988807168	57	6490
2026-01-13 10:12:41.98	341.53	27.67	-42.9	-48.1	9.7	9.62e-03	0	58	0	990904320	57	6502
2026-01-13 10:12:42.99	341.54	27.49	-42.6	-47.3	10.5	9.61e-03	0	58	0	993001472	57	5975
2026-01-13 10:12:44.00	341.56	27.31	-42.5	-47.1	10.7	3.72e-03	0	58	0	995098624	57	5813
2026-01-13 10:12:45.01	341.57	27.14	-42.5	-47.1	10.6	2.98e-03	0	58	0	997195776	56	6161
2026-01-13 10:12:46.02	341.58	26.97	-42.3	-46.6	11.1	2.15e-03	0	58	0	998244352	56	5854
2026-01-13 10:12:47.03	341.60	26.80	-42.2	-46.4	11.3	1.50e-03	0	58	0	1000341504	56	5717
2026-01-13 10:12:48.04	341.61	26.62	-42.1	-46.2	11.5	8.15e-04	0	58	0	1002438656	56	5569
2026-01-13 10:12:49.04	341.62	26.46	-42.0	-46.0	11.7	6.74e-04	0	58	0	1004535808	56	5464
2026-01-13 10:12:50.05	341.63	26.29	-41.8	-45.8	11.7	8.03e-04	0	58	0	1006632960	55	5641
2026-01-13 10:12:51.06	341.65	26.12	-41.7	-45.7	11.8	6.29e-04	0	58	0	1007681536	55	5578
2026-01-13 10:12:52.07	341.66	25.95	-41.7	-45.7	11.8	4.89e-04	0	58	0	1009778688	55	5557
2026-01-13 10:12:53.08	341.67	25.79	-41.6	-45.6	11.9	5.38e-04	0	58	0	1011875840	55	5482
2026-01-13 10:12:54.09	341.69	25.62	-41.6	-45.5	11.9	4.30e-04	0	58	0	1013972992	55	5460
2026-01-13 10:12:55.10	341.70	25.46	-41.7	-45.7	11.7	5.01e-04	0	58	0	1016070144	55	5575
2026-01-13 10:12:56.11	341.71	25.30	-41.8	-46.1	11.4	4.88e-04	0	58	0	1017118720	55	5795
2026-01-13 10:12:57.12	341.72	25.14	-41.8	-46.1	11.3	1.28e-03	0	58	0	1019215872	55	5810
2026-01-13 10:12:58.13	341.74	24.98	-41.8	-46.1	11.3	1.21e-03	0	58	0	1021313024	55	5808
2026-01-13 10:12:59.14	341.75	24.82	-42.0	-46.5	10.8	1.62e-03	0	58	0	1023410176	55	6108
2026-01-13 10:13:00.15	341.76	24.66	-41.9	-46.3	11.0	2.31e-03	0	58	0	1025507328	55	5959
2026-01-13 10:13:01.16	341.77	24.50	-41.8	-46.2	11.1	1.99e-03	0	58	0	1026555904	55	5878
2026-01-13 10:13:02.17	341.78	24.34	-41.8	-46.2	11.1	1.76e-03	0	58	0	1028653056	55	5882
2026-01-13 10:13:03.18	341.80	24.19	-41.8	-46.1	11.2	1.47e-03	0	58	0	1030750208	55	5807
2026-01-13 10:13:04.19	341.81	24.03	-41.6	-45.6	11.6	8.41e-04	0	58	0	1032847360	55	5496
2026-01-13 10:13:05.20	341.82	23.88	-41.5	-45.5	11.7	6.23e-04	0	58	0	1034944512	55	5417
2026-01-13 10:13:06.21	341.83	23.73	-41.2	-45.0	12.1	4.63e-04	0	58	0	1035993088	54	5412
2026-01-13 10:13:07.21	341.84	23.58	-41.1	-44.9	12.2	1.67e-04	0	58	0	1038090240	54	5382
2026-01-13 10:13:08.22	341.85	23.42	-41.1	-44.9	12.2	1.46e-04	0	58	0	1040187392	54	5346
2026-01-13 10:13:09.23	341.87	23.27	-40.9	-44.6	12.5	1.79e-04	0	58	0	1042284544	53	5474
2026-01-13 10:13:10.24	341.88	23.12	-40.7	-44.2	12.7	7.62e-05	0	58	0	1044381696	53	5275
2026-01-13 10:13:11.25	341.89	22.98	-40.7	-44.4	12.5	8.92e-05	0	58	0	1045430272	53	5361
2026-01-13 10:13:12.26	341.90	22.83	-40.8	-44.7	12.1	1.87e-04	0	58	0	1047527424	53	5563
2026-01-13 10:13:13.27	341.91	22.68	-40.7	-44.5	12.1	3.88e-04	0	58	0	1049624576	53	5462
2026-01-13 10:13:14.28	341.92	22.54	-40.5	-44.4	12.1	3.46e-04	0	58	0	1051721728	53	5354
2026-01-13 10:13:15.29	341.93	22.39	-40.4	-44.3	12.1	2.63e-04	0	58	0	1053818880	52	5621
2026-01-13 10:13:16.30	341.94	22.25	-40.5	-44.6	11.7	3.65e-04	0	58	0	1054867456	52	5844
2026-01-13 10:13:17.31	341.95	22.10	-40.6	-45.0	11.2	9.35e-04	0	58	0	1056964608	52	6094
2026-01-13 10:13:18.32	341.97	21.96	-40.7	-45.1	11.0	1.39e-03	0	58	0	1059061760	52	6192
2026-01-13 10:13:19.33	341.98	21.82	-40.5	-45.0	11.1	1.84e-03	0	58	0	1061158912	52	6068
2026-01-13 10:13:20.34	341.99	21.68	-40.5	-45.0	11.0	1.66e-03	0	58	0	1063256064	52	6097
2026-01-13 10:13:21.35	342.00	21.54	-40.7	-45.6	10.3	3.72e-03	0	58	0	1065353216	52	6557
2026-01-13 10:13:22.36	342.01	21.40	-40.7	-46.0	9.8	8.20e-03	0	58	0	1066401792	52	6825
2026-01-13 10:13:23.37	342.02	21.26	-41.0	-47.0	8.6	2.57e-02	0	58	0	1068498944	52	7706
2026-01-13 10:13:24.38	342.03	21.12	-41.2	-48.2	7.3	8.00e-02	0	58	0	1070596096	52	8849
2026-01-13 10:13:25.39	342.04	20.98	-41.2	-49.2	6.3	1.72e-01	0	58	0	1072693248	53	9294
2026-01-13 10:13:26.40	342.05	20.85	-41.3	-50.2	5.6	4.15e-01	0	58	0	1074790400	53	10447
2026-01-13 10:13:27.41	342.06	20.71	-41.4	-51.6	4.7	7.10e-01	0	58	0	1075838976	53	12246
2026-01-13 10:13:28.42	342.07	20.57	-41.4	-52.5	4.3	1.07e+00	0	58	0	1077936128	53	13599
2026-01-13 10:13:29.43	342.08	20.44	-41.3	-53.6	4.0	1.40e+00	0	58	0	1077936128	53	15441
2026-01-13 10:13:30.44	342.09	20.31	-41.3	-54.3	3.8	1.49e+00	0	58	104	1077936128	53	16787
2026-01-13 10:13:31.45	342.10	20.17	-41.2	-55.0	3.8	1.49e+00	0	58	104	1077936128	53	18292
2026-01-13 10:13:32.46	342.11	20.04	-41.2	-55.5	3.8	1.49e+00	0	58	104	1077936128	53	19177
2026-01-13 10:13:33.47	342.12	19.91	-41.2	-55.8	3.8	1.49e+00	0	58	104	1077936128	53	20000
2026-01-13 10:13:34.48	342.13	19.78	-41.0	-56.0	3.8	1.49e+00	0	58	104	1077936128	53	20358
2026-01-13 10:13:35.48	342.14	19.65	-40.7	-55.9	3.8	1.49e+00	0	58	104	1077936128	53	20234
2026-01-13 10:13:36.50	342.15	19.52	-40.7	-55.9	3.8	1.49e+00	0	58	104	1077936128	53	20127
2026-01-13 10:13:37.51	342.16	19.39	-40.9	-56.0	3.8	1.49e+00	0	58	104	1077936128	53	20398
2026-01-13 10:13:38.52	342.17	19.26	-40.7	-55.4	3.8	1.49e+00	0	58	104	1077936128	53	18983
2026-01-13 10:13:39.53	342.18	19.14	-40.6	-55.4	3.8	1.49e+00	0	58	104	1077936128	53	19089
2026-01-13 10:13:40.54	342.19	19.01	-40.5	-55.4	3.8	1.49e+00	0	58	104	1077936128	53	19100
2026-01-13 10:13:41.55	342.20	18.88	-40.5	-55.4	3.8	1.49e+00	0	58	104	1077936128	52	20218
2026-01-13 10:13:42.56	342.21	18.76	-40.7	-55.7	3.8	1.49e+00	0	58	104	1077936128	52	20909
2026-01-13 10:13:43.57	342.22	18.63	-40.6	-55.5	3.8	1.49e+00	0	58	104	1077936128	52	20415
2026-01-13 10:13:44.58	342.23	18.51	-40.7	-55.6	3.8	1.49e+00	0	58	104	1077936128	52	20675
2026-01-13 10:13:45.59	342.24	18.38	-40.6	-55.5	3.8	1.49e+00	0	58	104	1077936128	52	20363
2026-01-13 10:13:46.60	342.25	18.26	-40.7	-55.5	3.8	1.49e+00	0	58	104	1077936128	52	20523
2026-01-13 10:13:47.60	342.26	18.14	-40.7	-55.7	3.8	1.49e+00	0	58	104	1077936128	52	20867
2026-01-13 10:13:48.61	342.27	18.02	-40.6	-55.4	3.8	1.49e+00	0	58	104	1077936128	52	20231
2026-01-13 10:13:49.62	342.27	17.90	-40.6	-55.4	3.8	1.49e+00	0	58	104	1077936128	52	20184
2026-01-13 10:13:50.63	342.28	17.78	-40.6	-55.4	3.8	1.49e+00	0	58	104	1077936128	52	20245
2026-01-13 10:13:51.64	342.29	17.66	-40.4	-55.3	3.8	1.49e+00	0	58	104	1077936128	52	19950
2026-01-13 10:13:52.65	342.30	17.54	-40.6	-55.4	3.8	1.49e+00	0	58	104	1077936128	52	20110
2026-01-13 10:13:53.66	342.31	17.42	-40.4	-55.2	3.8	1.49e+00	0	58	104	1077936128	52	19821
2026-01-13 10:13:54.67	342.32	17.30	-40.5	-55.4	3.8	1.49e+00	0	58	104	1077936128	52	20155
2026-01-13 10:13:55.68	342.33	17.18	-40.4	-55.3	3.8	1.49e+00	0	58	104	1077936128	52	20041
2026-01-13 10:13:56.69	342.34	17.07	-40.4	-55.3	3.8	1.49e+00	0	58	104	1077936128	52	20046
2026-01-13 10:13:57.70	342.35	16.95	-40.3	-55.2	3.8	1.49e+00	0	58	104	1077936128	52	19704
2026-01-13 10:13:58.71	342.36	16.83	-40.4	-55.3	3.8	1.49e+00	0	58	104	1077936128	52	19990
2026-01-13 10:13:59.72	342.37	16.72	-40.6	-55.3	3.8	1.49e+00	0	58	104	1077936128	52	19962
2026-01-13 10:14:00.71	342.37	16.60	-40.4	-55.3	3.8	1.49e+00	0	58	104	1077936128	52	19928
2026-01-13 10:14:01.72	342.38	16.49	-40.6	-55.3	3.8	1.49e+00	0	58	104	1077936128	52	19923
2026-01-13 10:14:02.73	342.39	16.38	-40.4	-55.3	3.8	1.49e+00	0	58	104	1077936128	52	19884
2026-01-13 10:14:03.74	342.40	16.26	-40.4	-55.2	3.8	1.49e+00	0	58	104	1077936128	52	19820
2026-01-13 10:14:04.75	342.41	16.15	-40.6	-55.3	3.8	1.49e+00	0	58	104	1077936128	52	19949
2026-01-13 10:14:05.76	342.42	16.04	-40.5	-55.3	3.8	1.49e+00	0	58	104	1077936128	52	19860
2026-01-13 10:14:06.77	342.43	15.93	-40.6	-55.4	3.8	1.49e+00	0	58	104	1077936128	52	20085
2026-01-13 10:14:07.77	342.43	15.82	-40.6	-55.2	3.8	1.49e+00	0	58	104	1077936128	52	19828
2026-01-13 10:14:08.78	342.44	15.71	-40.5	-55.2	3.8	1.49e+00	0	58	104	1077936128	52	19761
2026-01-13 10:14:09.79	342.45	15.60	-40.6	-55.2	3.8	1.49e+00	0	58	104	1077936128	52	19716
