passes_logs/2026/01/13/R2.0S_Moscow/R2.0S_Moscow__20260113_223335_NOAA_20_JPSS-1_rec.log

#Pass ID: 20260113_223335_NOAA 20 (JPSS-1)
#Satellite: NOAA 20 (JPSS-1)
#Configuration: NOAA 20
#almurnet v.1.7.20251203
#Start time: 2026-01-13 22:33:35

#Version: 2.2.20231116
#Station: R2.0S_Moscow
#Location: 37.707566 lon 55.798166 lat
#TLE: 1 43013U 17073A   26013.21545503  .00000073  00000+0  55630-4 0  9998
#TLE: 2 43013  98.7633 314.1737 0001580  41.9966 318.1331 14.19535680422486

#Time	Az	El	Level	Level2	SNR	BER	BlckErr	Temp	State	Recorded	gain1	gain2
2026-01-13 22:33:35.37	22.24	1.97	-42.6	-57.4	3.8	1.49e+00	0	52	0	0	57	19126
2026-01-13 22:33:36.37	22.30	2.03	-42.4	-57.2	3.8	1.49e+00	0	52	104	0	55	20919
2026-01-13 22:33:37.38	22.35	2.09	-42.4	-57.2	3.8	1.49e+00	0	52	104	0	55	21008
2026-01-13 22:33:38.39	22.40	2.14	-42.4	-57.2	3.8	1.49e+00	0	52	104	0	55	20944
2026-01-13 22:33:39.41	22.46	2.20	-42.4	-57.2	3.8	1.49e+00	0	52	104	0	55	20981
2026-01-13 22:33:40.42	22.51	2.26	-42.4	-57.2	3.8	1.49e+00	0	52	104	0	55	20961
2026-01-13 22:33:41.43	22.57	2.32	-42.4	-57.2	3.8	1.49e+00	0	52	104	0	55	20954
2026-01-13 22:33:42.44	22.63	2.38	-42.4	-57.2	3.8	1.49e+00	0	52	104	0	55	20953
2026-01-13 22:33:43.45	22.68	2.44	-42.4	-57.2	3.8	1.49e+00	0	52	104	0	55	20965
2026-01-13 22:33:44.46	22.74	2.50	-42.4	-57.2	3.8	1.49e+00	0	52	104	0	55	20963
2026-01-13 22:33:45.47	22.79	2.56	-42.4	-57.2	3.8	1.49e+00	0	52	104	0	55	20930
2026-01-13 22:33:46.48	22.85	2.62	-42.4	-57.2	3.8	1.49e+00	0	52	104	0	55	20930
2026-01-13 22:33:47.49	22.91	2.68	-42.4	-57.2	3.8	1.49e+00	0	52	104	0	55	20962
2026-01-13 22:33:48.50	22.96	2.75	-42.4	-57.2	3.8	1.49e+00	0	53	104	0	55	20933
2026-01-13 22:33:49.51	23.02	2.81	-42.4	-57.2	3.8	1.49e+00	0	53	104	0	55	20934
2026-01-13 22:33:50.52	23.08	2.87	-42.4	-57.2	3.8	1.49e+00	0	53	104	0	55	20942
2026-01-13 22:33:51.53	23.13	2.93	-42.4	-57.2	3.8	1.49e+00	0	53	104	0	55	20911
2026-01-13 22:33:52.55	23.19	2.99	-42.4	-57.2	3.8	1.49e+00	0	53	104	0	55	20929
2026-01-13 22:33:53.56	23.25	3.05	-42.4	-57.2	3.8	1.49e+00	0	53	104	0	55	20968
2026-01-13 22:33:54.57	23.31	3.11	-42.4	-57.2	3.8	1.49e+00	0	53	104	0	55	20897
2026-01-13 22:33:55.58	23.36	3.17	-42.4	-57.2	3.8	1.49e+00	0	53	104	0	55	20917
2026-01-13 22:33:56.59	23.42	3.23	-42.4	-57.2	3.8	1.49e+00	0	53	104	0	55	20929
2026-01-13 22:33:57.60	23.48	3.29	-42.4	-57.2	3.8	1.49e+00	0	53	104	0	55	20920
2026-01-13 22:33:58.61	23.54	3.36	-42.4	-57.2	3.8	1.49e+00	0	53	104	0	55	20927
2026-01-13 22:33:59.62	23.60	3.42	-42.4	-57.2	3.8	1.49e+00	0	53	104	0	55	20929
2026-01-13 22:34:00.63	23.66	3.48	-42.4	-57.2	3.8	1.49e+00	0	53	104	0	55	20973
2026-01-13 22:34:01.64	23.72	3.54	-42.4	-57.2	3.8	1.49e+00	0	53	104	0	55	20956
2026-01-13 22:34:02.65	23.78	3.60	-42.4	-57.2	3.8	1.49e+00	0	54	104	0	55	20900
2026-01-13 22:34:03.66	23.84	3.67	-42.4	-57.2	3.8	1.49e+00	0	53	104	0	55	20919
2026-01-13 22:34:04.68	23.90	3.73	-42.4	-57.2	3.8	1.49e+00	0	54	104	0	55	20981
2026-01-13 22:34:05.69	23.96	3.79	-42.4	-57.2	3.8	1.49e+00	0	54	104	0	55	20908
2026-01-13 22:34:06.70	24.02	3.85	-42.4	-57.2	3.8	1.49e+00	0	54	104	0	55	20963
2026-01-13 22:34:07.71	24.08	3.92	-42.4	-57.2	3.8	1.49e+00	0	54	104	0	55	20964
2026-01-13 22:34:08.72	24.14	3.98	-42.4	-57.2	3.8	1.49e+00	0	54	104	0	55	20957
2026-01-13 22:34:09.73	24.20	4.04	-42.4	-57.2	3.8	1.49e+00	0	54	104	0	55	20917
2026-01-13 22:34:10.74	24.27	4.11	-42.4	-57.2	3.8	1.49e+00	0	54	104	0	55	20884
2026-01-13 22:34:11.75	24.33	4.17	-42.4	-57.2	3.8	1.49e+00	0	54	104	0	55	20924
2026-01-13 22:34:12.76	24.39	4.23	-42.4	-57.2	3.8	1.49e+00	0	54	104	0	55	20883
2026-01-13 22:34:13.77	24.45	4.29	-42.4	-57.2	3.8	1.49e+00	0	54	104	0	55	20925
2026-01-13 22:34:14.78	24.51	4.36	-42.4	-57.2	3.8	1.49e+00	0	54	104	0	55	20980
2026-01-13 22:34:15.79	24.58	4.42	-42.4	-57.2	3.8	1.49e+00	0	54	104	0	55	20963
2026-01-13 22:34:16.81	24.64	4.49	-42.4	-57.2	3.8	1.49e+00	0	54	104	0	55	20905
2026-01-13 22:34:17.82	24.70	4.55	-42.4	-57.2	3.8	1.49e+00	0	54	104	0	55	20934
2026-01-13 22:34:18.83	24.77	4.61	-42.4	-57.2	3.8	1.49e+00	0	55	104	0	55	20859
2026-01-13 22:34:19.84	24.83	4.68	-42.4	-57.2	3.8	1.49e+00	0	54	104	0	55	20943
2026-01-13 22:34:20.85	24.90	4.74	-42.4	-57.2	3.8	1.49e+00	0	55	104	0	55	20893
2026-01-13 22:34:21.86	24.96	4.81	-42.4	-57.2	3.8	1.49e+00	0	55	104	0	55	20891
2026-01-13 22:34:22.87	25.03	4.87	-42.4	-57.2	3.8	1.49e+00	0	55	104	0	55	20938
2026-01-13 22:34:23.88	25.09	4.94	-42.4	-57.2	3.8	1.49e+00	0	55	104	0	55	20968
2026-01-13 22:34:24.89	25.16	5.00	-42.4	-57.2	3.8	1.49e+00	0	55	104	0	55	20965
2026-01-13 22:34:25.91	25.22	5.07	-42.4	-57.2	3.8	1.49e+00	0	55	104	0	55	20886
2026-01-13 22:34:26.92	25.29	5.13	-42.4	-57.2	3.8	1.49e+00	0	55	104	0	55	20947
2026-01-13 22:34:27.93	25.35	5.20	-42.4	-57.2	3.8	1.49e+00	0	55	104	0	55	20902
2026-01-13 22:34:28.94	25.42	5.26	-42.4	-57.2	3.8	1.49e+00	0	55	104	0	55	20929
2026-01-13 22:34:29.95	25.49	5.33	-42.4	-57.2	3.8	1.49e+00	0	55	104	0	55	20874
2026-01-13 22:34:30.96	25.55	5.39	-42.4	-57.2	3.8	1.49e+00	0	55	104	0	55	20899
2026-01-13 22:34:31.97	25.62	5.46	-42.4	-57.2	3.8	1.49e+00	0	55	104	0	55	20879
2026-01-13 22:34:32.98	25.69	5.52	-42.4	-57.2	3.8	1.49e+00	0	55	104	0	55	20973
2026-01-13 22:34:34.00	25.76	5.59	-42.4	-57.2	3.8	1.49e+00	0	55	104	0	55	20882
2026-01-13 22:34:35.01	25.82	5.66	-42.4	-57.2	3.8	1.49e+00	0	55	104	0	55	20934
2026-01-13 22:34:36.02	25.89	5.72	-42.4	-57.2	3.8	1.49e+00	0	55	104	0	55	20899
2026-01-13 22:34:37.03	25.96	5.79	-42.4	-57.2	3.8	1.49e+00	0	55	104	0	55	20920
2026-01-13 22:34:38.04	26.03	5.86	-42.4	-57.2	3.8	1.49e+00	0	55	104	0	55	20935
2026-01-13 22:34:39.05	26.10	5.92	-42.4	-57.2	3.8	1.49e+00	0	55	104	0	55	20923
2026-01-13 22:34:40.06	26.17	5.99	-42.4	-57.2	3.8	1.49e+00	0	55	104	0	55	20845
2026-01-13 22:34:41.07	26.24	6.06	-42.4	-57.2	3.8	1.49e+00	0	56	104	0	55	20849
2026-01-13 22:34:42.08	26.31	6.12	-42.4	-57.2	3.8	1.49e+00	0	56	104	0	55	20824
2026-01-13 22:34:43.09	26.38	6.19	-42.4	-57.1	3.8	1.49e+00	0	56	104	0	55	20750
2026-01-13 22:34:44.10	26.45	6.26	-42.4	-57.2	3.8	1.49e+00	0	56	104	0	55	20796
2026-01-13 22:34:45.11	26.52	6.33	-42.4	-57.1	3.8	1.49e+00	0	56	104	0	55	20671
2026-01-13 22:34:46.12	26.59	6.39	-42.4	-57.1	3.8	1.49e+00	0	56	104	0	55	20749
2026-01-13 22:34:47.14	26.66	6.46	-42.4	-57.1	3.8	1.49e+00	0	56	104	0	55	20742
2026-01-13 22:34:48.15	26.74	6.53	-42.4	-57.2	3.8	1.49e+00	0	56	104	0	55	20841
2026-01-13 22:34:49.16	26.81	6.60	-42.4	-57.2	3.8	1.49e+00	0	56	104	0	55	20828
2026-01-13 22:34:50.17	26.88	6.67	-42.4	-57.2	3.8	1.49e+00	0	56	104	0	55	20834
2026-01-13 22:34:51.18	26.95	6.73	-42.4	-57.1	3.8	1.49e+00	0	56	104	0	55	20594
2026-01-13 22:34:52.19	27.03	6.80	-42.4	-57.0	3.8	1.49e+00	0	56	104	0	55	20517
2026-01-13 22:34:53.20	27.10	6.87	-42.4	-56.9	3.8	1.49e+00	0	56	104	0	55	20173
2026-01-13 22:34:54.21	27.17	6.94	-42.4	-56.7	3.8	1.49e+00	0	56	104	0	55	19663
2026-01-13 22:34:55.22	27.25	7.01	-42.4	-56.3	3.8	1.49e+00	0	56	104	0	55	18927
2026-01-13 22:34:56.24	27.32	7.08	-42.4	-56.6	3.8	1.49e+00	0	56	104	0	55	19402
2026-01-13 22:34:57.25	27.40	7.15	-42.4	-56.7	3.8	1.49e+00	0	56	104	0	55	19681
2026-01-13 22:34:58.26	27.47	7.22	-42.4	-56.6	3.8	1.49e+00	0	56	104	0	55	19408
2026-01-13 22:34:59.27	27.55	7.29	-42.3	-56.3	3.8	1.49e+00	0	56	104	0	55	18840
2026-01-13 22:35:00.28	27.63	7.36	-42.2	-54.2	3.9	1.48e+00	0	56	104	0	55	14874
2026-01-13 22:35:01.29	27.70	7.43	-42.1	-53.0	4.4	1.34e+00	84	56	0	0	55	12844
2026-01-13 22:35:02.30	27.78	7.50	-42.1	-52.3	4.6	1.04e+00	0	57	0	2097152	55	11888
2026-01-13 22:35:03.31	27.85	7.57	-42.0	-51.5	5.0	8.21e-01	0	56	0	3145728	55	10883
2026-01-13 22:35:04.32	27.93	7.64	-41.8	-50.3	5.8	4.40e-01	0	56	0	5242880	55	9464
2026-01-13 22:35:05.33	28.01	7.71	-41.6	-49.2	6.7	2.45e-01	0	56	0	7340032	55	8330
2026-01-13 22:35:06.34	28.09	7.78	-41.4	-48.5	7.4	1.59e-01	0	57	0	9437184	54	8171
2026-01-13 22:35:07.35	28.17	7.85	-41.5	-48.7	7.2	1.36e-01	0	57	0	11534336	54	8327
2026-01-13 22:35:08.36	28.24	7.92	-41.2	-47.7	8.2	8.11e-02	0	57	0	12582912	54	7421
2026-01-13 22:35:09.37	28.32	7.99	-41.3	-47.8	8.1	5.22e-02	0	57	0	14680064	54	7507
2026-01-13 22:35:10.38	28.40	8.06	-41.3	-47.7	8.2	7.25e-02	0	57	0	16777216	54	7450
2026-01-13 22:35:11.39	28.48	8.13	-41.8	-48.4	7.9	5.29e-02	0	57	0	18874368	54	8066
2026-01-13 22:35:12.41	28.56	8.21	-41.8	-48.7	7.3	5.34e-01	0	57	0	20971520	55	7887
2026-01-13 22:35:13.42	28.64	8.28	-41.7	-51.9	4.8	2.86e-01	0	57	0	22020096	54	11998
2026-01-13 22:35:14.43	28.72	8.35	-41.8	-49.5	4.9	1.49e+00	1	57	104	23068672	54	9131
2026-01-13 22:35:15.44	28.81	8.42	-42.4	-49.5	7.1	3.33e-01	0	57	0	24117248	56	8098
2026-01-13 22:35:16.44	28.89	8.49	-41.5	-47.3	9.0	3.22e-02	0	57	0	26214400	55	6677
2026-01-13 22:35:17.45	28.97	8.57	-41.6	-47.5	8.9	2.84e-02	0	57	0	27262976	55	6862
2026-01-13 22:35:18.46	29.05	8.64	-41.5	-46.9	9.5	1.95e-02	0	57	0	29360128	54	6788
2026-01-13 22:35:19.47	29.13	8.71	-41.6	-47.3	9.1	1.96e-02	0	57	0	31457280	54	7076
2026-01-13 22:35:20.48	29.22	8.78	-41.7	-47.3	9.2	1.95e-02	0	57	0	33554432	54	7044
2026-01-13 22:35:21.49	29.30	8.86	-41.8	-47.6	9.0	2.01e-02	0	57	0	35651584	54	7336
2026-01-13 22:35:22.50	29.38	8.93	-41.8	-47.6	9.0	2.97e-02	0	57	0	36700160	54	7292
2026-01-13 22:35:23.51	29.47	9.00	-41.6	-47.0	9.6	1.23e-02	0	57	0	38797312	54	6840
2026-01-13 22:35:24.52	29.55	9.08	-41.7	-47.4	9.2	1.92e-02	0	57	0	40894464	54	7134
2026-01-13 22:35:25.53	29.64	9.15	-41.7	-47.2	9.5	1.73e-02	0	57	0	42991616	54	7006
2026-01-13 22:35:26.54	29.72	9.22	-41.8	-47.4	9.3	1.85e-02	0	57	0	45088768	54	7146
2026-01-13 22:35:27.55	29.81	9.30	-41.8	-47.3	9.4	1.65e-02	0	57	0	46137344	54	7089
2026-01-13 22:35:28.56	29.90	9.37	-41.8	-47.4	9.3	1.92e-02	0	57	0	48234496	54	7124
2026-01-13 22:35:29.57	29.98	9.45	-41.8	-47.3	9.4	1.89e-02	0	57	0	50331648	54	7057
2026-01-13 22:35:30.57	30.07	9.52	-41.9	-47.5	9.2	1.85e-02	0	58	0	52428800	54	7258
2026-01-13 22:35:31.58	30.16	9.60	-41.9	-47.3	9.4	2.06e-02	0	57	0	54525952	54	7080
2026-01-13 22:35:32.59	30.25	9.67	-41.7	-46.9	9.8	1.24e-02	0	57	0	55574528	54	6787
2026-01-13 22:35:33.60	30.33	9.75	-41.8	-47.0	9.8	9.44e-03	0	57	0	57671680	54	6812
2026-01-13 22:35:34.61	30.42	9.82	-41.8	-47.1	9.6	1.34e-02	0	58	0	59768832	54	6919
2026-01-13 22:35:35.62	30.51	9.90	-41.8	-47.0	9.8	1.15e-02	0	57	0	61865984	54	6845
2026-01-13 22:35:36.63	30.60	9.97	-41.9	-47.1	9.7	1.03e-02	0	57	0	63963136	54	6899
2026-01-13 22:35:37.64	30.69	10.05	-41.9	-47.0	9.8	1.22e-02	0	57	0	66060288	54	6871
2026-01-13 22:35:38.65	30.78	10.12	-41.9	-46.9	9.9	9.90e-03	0	57	0	67108864	54	6793
2026-01-13 22:35:39.66	30.87	10.20	-41.9	-46.9	9.9	8.53e-03	0	57	0	69206016	54	6791
2026-01-13 22:35:40.67	30.97	10.28	-41.8	-46.8	10.0	8.72e-03	0	58	0	71303168	54	6696
2026-01-13 22:35:41.68	31.06	10.35	-41.8	-46.8	10.1	7.44e-03	0	58	0	73400320	54	6691
2026-01-13 22:35:42.69	31.15	10.43	-41.9	-47.0	9.9	7.67e-03	0	58	0	75497472	54	6827
2026-01-13 22:35:43.70	31.24	10.51	-41.9	-46.8	10.1	6.99e-03	0	58	0	76546048	54	6722
2026-01-13 22:35:44.71	31.34	10.58	-41.9	-46.8	10.1	6.73e-03	0	58	0	78643200	54	6704
2026-01-13 22:35:45.72	31.43	10.66	-41.9	-46.8	10.2	5.68e-03	0	58	0	80740352	54	6687
2026-01-13 22:35:46.73	31.53	10.74	-42.0	-46.8	10.2	5.88e-03	0	58	0	82837504	54	6717
2026-01-13 22:35:47.73	31.62	10.81	-42.0	-46.9	10.1	6.51e-03	0	58	0	84934656	54	6747
2026-01-13 22:35:48.74	31.71	10.89	-41.9	-46.7	10.4	6.21e-03	0	58	0	85983232	54	6580
2026-01-13 22:35:49.75	31.81	10.97	-41.9	-46.7	10.4	5.25e-03	0	58	0	88080384	54	6604
2026-01-13 22:35:50.76	31.91	11.05	-41.9	-46.6	10.5	3.75e-03	0	58	0	90177536	54	6526
2026-01-13 22:35:51.77	32.00	11.13	-41.9	-46.7	10.4	4.66e-03	0	58	0	92274688	54	6616
2026-01-13 22:35:52.78	32.10	11.20	-41.9	-46.7	10.4	4.75e-03	0	58	0	94371840	54	6596
2026-01-13 22:35:53.79	32.20	11.28	-41.8	-46.5	10.6	3.22e-03	0	58	0	95420416	54	6442
2026-01-13 22:35:54.80	32.30	11.36	-41.9	-46.5	10.6	3.11e-03	0	58	0	97517568	54	6457
2026-01-13 22:35:55.81	32.40	11.44	-41.9	-46.5	10.7	3.11e-03	0	58	0	99614720	54	6438
2026-01-13 22:35:56.82	32.49	11.52	-41.9	-46.5	10.7	2.94e-03	0	58	0	101711872	54	6427
2026-01-13 22:35:57.83	32.59	11.60	-41.8	-46.3	10.9	2.51e-03	0	58	0	103809024	54	6331
2026-01-13 22:35:58.84	32.69	11.68	-41.8	-46.2	11.0	1.90e-03	0	58	0	104857600	54	6241
2026-01-13 22:35:59.85	32.80	11.76	-41.8	-46.3	10.8	2.20e-03	0	58	0	106954752	54	6337
2026-01-13 22:36:00.86	32.90	11.84	-41.8	-46.3	10.9	2.16e-03	0	58	0	109051904	54	6311
2026-01-13 22:36:01.87	33.00	11.92	-41.8	-46.3	11.0	2.03e-03	0	58	0	111149056	54	6277
2026-01-13 22:36:02.88	33.10	12.00	-41.8	-46.2	11.1	1.91e-03	0	58	0	113246208	54	6243
2026-01-13 22:36:03.88	33.20	12.08	-41.9	-46.4	10.8	2.02e-03	0	58	0	114294784	54	6375
2026-01-13 22:36:04.89	33.31	12.16	-41.8	-46.3	11.0	1.99e-03	0	58	0	116391936	54	6321
2026-01-13 22:36:05.90	33.41	12.24	-41.9	-46.4	10.9	2.44e-03	0	58	0	118489088	54	6375
2026-01-13 22:36:06.91	33.52	12.32	-41.9	-46.3	11.0	1.99e-03	0	58	0	120586240	54	6324
2026-01-13 22:36:07.92	33.62	12.40	-41.9	-46.4	10.9	2.12e-03	0	58	0	122683392	54	6352
2026-01-13 22:36:08.93	33.73	12.48	-41.9	-46.4	10.8	2.18e-03	0	58	0	123731968	54	6413
2026-01-13 22:36:09.94	33.83	12.56	-42.0	-46.5	10.8	2.33e-03	0	58	0	125829120	54	6435
2026-01-13 22:36:10.95	33.94	12.65	-41.9	-46.4	10.8	2.68e-03	0	58	0	127926272	54	6406
2026-01-13 22:36:11.96	34.05	12.73	-42.0	-46.5	10.8	2.27e-03	0	58	0	130023424	54	6478
2026-01-13 22:36:12.97	34.15	12.81	-42.0	-46.6	10.7	3.14e-03	0	59	0	132120576	54	6554
2026-01-13 22:36:13.98	34.26	12.89	-42.0	-46.5	10.8	3.02e-03	0	58	0	134217728	54	6490
2026-01-13 22:36:14.99	34.37	12.97	-42.1	-46.7	10.7	2.73e-03	0	58	0	135266304	54	6612
2026-01-13 22:36:16.00	34.48	13.06	-42.1	-46.8	10.6	3.36e-03	0	59	0	137363456	54	6665
2026-01-13 22:36:17.01	34.59	13.14	-42.1	-46.8	10.5	3.47e-03	0	58	0	139460608	54	6700
2026-01-13 22:36:18.02	34.70	13.22	-42.1	-46.7	10.7	3.53e-03	0	58	0	141557760	54	6578
2026-01-13 22:36:19.03	34.81	13.31	-42.1	-46.8	10.5	3.91e-03	0	58	0	143654912	54	6700
2026-01-13 22:36:20.04	34.93	13.39	-42.1	-46.7	10.7	3.24e-03	0	58	0	144703488	54	6615
2026-01-13 22:36:21.05	35.04	13.47	-42.1	-46.8	10.6	3.14e-03	0	58	0	146800640	54	6659
2026-01-13 22:36:22.06	35.15	13.56	-42.2	-46.9	10.5	3.91e-03	0	58	0	148897792	54	6777
2026-01-13 22:36:23.06	35.27	13.64	-42.1	-46.7	10.7	3.33e-03	0	59	0	150994944	54	6618
2026-01-13 22:36:24.07	35.38	13.72	-42.1	-46.6	10.8	2.91e-03	0	58	0	152043520	54	6525
2026-01-13 22:36:25.08	35.50	13.81	-42.0	-46.4	11.0	2.20e-03	0	59	0	154140672	54	6416
2026-01-13 22:36:26.09	35.61	13.89	-42.0	-46.6	10.7	7.66e-03	0	58	0	156237824	54	6514
2026-01-13 22:36:27.10	35.73	13.98	-42.0	-46.5	10.8	8.09e-03	0	58	0	158334976	54	6483
2026-01-13 22:36:28.11	35.84	14.06	-42.0	-46.5	10.8	6.69e-03	0	59	0	160432128	54	6457
2026-01-13 22:36:29.12	35.96	14.15	-42.0	-46.5	10.9	3.98e-03	0	59	0	162529280	54	6464
2026-01-13 22:36:30.13	36.08	14.23	-42.1	-46.6	10.8	2.90e-03	0	59	0	163577856	54	6561
2026-01-13 22:36:31.14	36.20	14.32	-42.2	-46.8	10.6	2.86e-03	0	58	0	165675008	54	6709
2026-01-13 22:36:32.15	36.32	14.40	-42.2	-46.7	10.7	2.93e-03	0	59	0	167772160	54	6645
2026-01-13 22:36:33.16	36.44	14.49	-42.1	-46.5	10.9	2.60e-03	0	59	0	169869312	54	6492
2026-01-13 22:36:34.17	36.56	14.58	-42.1	-46.6	10.9	2.18e-03	0	58	0	171966464	54	6551
2026-01-13 22:36:35.18	36.68	14.66	-42.2	-46.8	10.7	2.77e-03	0	59	0	173015040	54	6668
2026-01-13 22:36:36.19	36.81	14.75	-42.2	-46.8	10.7	3.51e-03	0	59	0	175112192	55	6282
2026-01-13 22:36:37.20	36.93	14.84	-42.1	-46.6	10.9	2.76e-03	0	59	0	177209344	55	6188
2026-01-13 22:36:38.20	37.05	14.92	-42.1	-46.6	10.9	2.35e-03	0	59	0	179306496	55	6148
2026-01-13 22:36:39.21	37.18	15.01	-42.1	-46.4	11.1	1.65e-03	0	59	0	181403648	55	6057
2026-01-13 22:36:40.23	37.30	15.10	-42.1	-46.6	10.9	1.83e-03	0	59	0	182452224	55	6150
2026-01-13 22:36:41.23	37.43	15.18	-42.2	-46.7	10.8	2.58e-03	0	59	0	184549376	55	6241
2026-01-13 22:36:42.24	37.55	15.27	-42.2	-46.7	10.8	2.28e-03	0	59	0	186646528	55	6259
2026-01-13 22:36:43.25	37.68	15.36	-42.2	-46.6	11.0	1.95e-03	0	59	0	188743680	55	6163
2026-01-13 22:36:44.26	37.81	15.45	-42.1	-46.5	11.0	2.17e-03	0	59	0	190840832	55	6123
2026-01-13 22:36:45.27	37.94	15.53	-42.2	-46.6	11.0	1.83e-03	0	59	0	191889408	55	6172
2026-01-13 22:36:46.28	38.07	15.62	-42.2	-46.7	10.8	2.45e-03	0	59	0	193986560	55	6266
2026-01-13 22:36:47.29	38.20	15.71	-42.3	-46.9	10.6	2.45e-03	0	59	0	196083712	55	6409
2026-01-13 22:36:48.30	38.33	15.80	-42.3	-46.9	10.6	3.31e-03	0	59	0	198180864	55	6408
2026-01-13 22:36:49.31	38.46	15.89	-42.3	-47.0	10.6	3.41e-03	0	59	0	200278016	55	6457
2026-01-13 22:36:50.32	38.59	15.98	-42.4	-47.1	10.5	3.63e-03	0	59	0	201326592	55	6564
2026-01-13 22:36:51.33	38.73	16.07	-42.3	-47.1	10.5	3.91e-03	0	59	0	203423744	55	6509
2026-01-13 22:36:52.34	38.86	16.16	-42.3	-46.9	10.7	3.46e-03	0	59	0	205520896	55	6379
2026-01-13 22:36:53.35	38.99	16.25	-42.2	-46.7	10.9	2.37e-03	0	59	0	207618048	55	6227
2026-01-13 22:36:54.36	39.13	16.34	-42.2	-46.6	11.0	1.80e-03	0	59	0	209715200	55	6182
2026-01-13 22:36:55.37	39.27	16.43	-42.1	-46.5	11.1	1.50e-03	0	59	0	210763776	55	6112
2026-01-13 22:36:56.38	39.40	16.52	-42.1	-46.5	11.2	1.46e-03	0	59	0	212860928	55	6094
2026-01-13 22:36:57.39	39.54	16.61	-42.1	-46.5	11.1	1.57e-03	0	59	0	214958080	55	6112
2026-01-13 22:36:58.40	39.68	16.70	-42.1	-46.5	11.2	1.19e-03	0	59	0	217055232	55	6099
2026-01-13 22:36:59.41	39.82	16.79	-42.1	-46.4	11.3	1.30e-03	0	59	0	219152384	55	6022
2026-01-13 22:37:00.42	39.96	16.88	-42.1	-46.4	11.3	1.31e-03	0	59	0	220200960	55	6039
2026-01-13 22:37:01.43	40.10	16.97	-42.1	-46.4	11.3	1.10e-03	0	59	0	222298112	55	6004
2026-01-13 22:37:02.44	40.24	17.06	-42.2	-46.5	11.2	1.01e-03	0	59	0	224395264	55	6096
2026-01-13 22:37:03.45	40.39	17.15	-42.1	-46.4	11.3	1.25e-03	0	59	0	226492416	55	6054
2026-01-13 22:37:04.46	40.53	17.25	-42.2	-46.6	11.1	1.44e-03	0	59	0	228589568	55	6138
2026-01-13 22:37:05.47	40.67	17.34	-42.2	-46.6	11.1	1.47e-03	0	59	0	230686720	55	6136
2026-01-13 22:37:06.48	40.82	17.43	-42.2	-46.5	11.3	1.29e-03	0	59	0	231735296	55	6073
2026-01-13 22:37:07.49	40.97	17.52	-42.2	-46.5	11.2	1.36e-03	0	59	0	233832448	55	6107
2026-01-13 22:37:08.50	41.11	17.61	-42.2	-46.4	11.3	1.37e-03	0	59	0	235929600	55	6060
2026-01-13 22:37:09.50	41.26	17.71	-42.1	-46.4	11.4	1.13e-03	0	59	0	238026752	55	6018
2026-01-13 22:37:10.51	41.41	17.80	-42.1	-46.3	11.5	1.01e-03	0	59	0	240123904	55	5950
2026-01-13 22:37:11.52	41.56	17.89	-42.1	-46.3	11.4	1.00e-03	0	59	0	241172480	55	5990
2026-01-13 22:37:12.53	41.71	17.98	-42.1	-46.3	11.5	8.14e-04	0	59	0	243269632	55	5935
2026-01-13 22:37:13.54	41.86	18.08	-42.1	-46.2	11.5	7.84e-04	0	59	0	245366784	55	5916
2026-01-13 22:37:14.55	42.01	18.17	-42.1	-46.3	11.5	8.33e-04	0	59	0	247463936	55	5977
2026-01-13 22:37:15.56	42.17	18.26	-42.1	-46.3	11.5	8.69e-04	0	59	0	249561088	55	5951
2026-01-13 22:37:16.57	42.32	18.36	-42.1	-46.3	11.5	7.57e-04	0	59	0	250609664	55	5952
2026-01-13 22:37:17.58	42.48	18.45	-42.1	-46.2	11.6	7.63e-04	0	59	0	252706816	55	5861
2026-01-13 22:37:18.59	42.63	18.55	-42.1	-46.2	11.6	7.09e-04	0	59	0	254803968	55	5871
2026-01-13 22:37:19.60	42.79	18.64	-42.0	-46.1	11.7	6.29e-04	0	59	0	256901120	55	5812
2026-01-13 22:37:20.61	42.95	18.73	-42.0	-46.0	11.8	5.44e-04	0	59	0	258998272	55	5757
2026-01-13 22:37:21.62	43.11	18.83	-41.9	-45.8	12.0	4.07e-04	0	59	0	260046848	55	5634
2026-01-13 22:37:22.63	43.27	18.92	-41.9	-45.8	12.0	2.82e-04	0	59	0	262144000	55	5622
2026-01-13 22:37:23.64	43.43	19.02	-41.9	-45.7	12.1	2.94e-04	0	59	0	264241152	55	5574
2026-01-13 22:37:24.65	43.59	19.11	-41.8	-45.6	12.2	2.33e-04	0	59	0	266338304	55	5505
2026-01-13 22:37:25.66	43.75	19.21	-41.8	-45.6	12.3	1.96e-04	0	59	0	268435456	55	5467
2026-01-13 22:37:26.67	43.92	19.30	-41.8	-45.5	12.4	1.81e-04	0	59	0	269484032	55	5420
2026-01-13 22:37:27.68	44.08	19.40	-41.7	-45.5	12.4	1.48e-04	0	59	0	271581184	55	5418
2026-01-13 22:37:28.69	44.25	19.49	-41.8	-45.5	12.4	1.43e-04	0	59	0	273678336	55	5429
2026-01-13 22:37:29.70	44.42	19.59	-41.7	-45.4	12.4	1.31e-04	0	59	0	275775488	55	5386
2026-01-13 22:37:30.71	44.58	19.69	-41.7	-45.5	12.4	1.59e-04	0	59	0	277872640	55	5405
2026-01-13 22:37:31.72	44.75	19.78	-41.7	-45.5	12.4	1.46e-04	0	59	0	278921216	55	5411
2026-01-13 22:37:32.73	44.92	19.88	-41.7	-45.5	12.4	1.37e-04	0	59	0	281018368	55	5403
2026-01-13 22:37:33.74	45.09	19.97	-41.8	-45.5	12.4	1.43e-04	0	59	0	283115520	55	5432
2026-01-13 22:37:34.75	45.27	20.07	-41.8	-45.5	12.3	1.89e-04	0	59	0	285212672	55	5444
2026-01-13 22:37:35.76	45.44	20.17	-41.8	-45.5	12.4	1.41e-04	0	59	0	287309824	55	5413
2026-01-13 22:37:36.77	45.61	20.26	-41.8	-45.5	12.3	1.46e-04	0	59	0	288358400	55	5456
2026-01-13 22:37:37.78	45.79	20.36	-41.8	-45.5	12.3	1.49e-04	0	59	0	290455552	55	5450
2026-01-13 22:37:38.78	45.96	20.46	-41.8	-45.6	12.3	1.61e-04	0	59	0	292552704	55	5473
2026-01-13 22:37:39.79	46.14	20.55	-41.7	-45.4	12.4	1.65e-04	0	59	0	294649856	55	5373
2026-01-13 22:37:40.80	46.32	20.65	-41.8	-45.6	12.3	1.82e-04	0	60	0	296747008	55	5479
2026-01-13 22:37:41.81	46.50	20.75	-41.8	-45.5	12.3	1.98e-04	0	60	0	298844160	55	5453
2026-01-13 22:37:42.82	46.68	20.84	-41.8	-45.5	12.4	1.52e-04	0	59	0	299892736	55	5440
2026-01-13 22:37:43.83	46.86	20.94	-41.8	-45.5	12.4	1.49e-04	0	60	0	301989888	55	5447
2026-01-13 22:37:44.84	47.04	21.04	-41.7	-45.4	12.5	1.23e-04	0	60	0	304087040	55	5349
2026-01-13 22:37:45.85	47.23	21.14	-41.7	-45.4	12.5	1.49e-04	0	59	0	306184192	55	5353
2026-01-13 22:37:46.86	47.41	21.23	-41.7	-45.4	12.5	1.33e-04	0	60	0	308281344	55	5344
2026-01-13 22:37:47.87	47.60	21.33	-41.7	-45.4	12.5	1.17e-04	0	60	0	309329920	55	5357
2026-01-13 22:37:48.88	47.79	21.43	-41.7	-45.3	12.6	9.61e-05	0	60	0	311427072	55	5285
2026-01-13 22:37:49.89	47.98	21.53	-41.6	-45.2	12.7	7.01e-05	0	59	0	313524224	55	5257
2026-01-13 22:37:50.90	48.17	21.62	-41.6	-45.2	12.7	7.70e-05	0	60	0	315621376	55	5241
2026-01-13 22:37:51.91	48.36	21.72	-41.6	-45.3	12.7	6.40e-05	0	60	0	317718528	55	5284
2026-01-13 22:37:52.92	48.55	21.82	-41.6	-45.3	12.7	8.01e-05	0	60	0	318767104	55	5280
2026-01-13 22:37:53.93	48.74	21.92	-41.7	-45.3	12.6	8.69e-05	0	60	0	320864256	55	5316
2026-01-13 22:37:54.94	48.94	22.02	-41.8	-45.4	12.5	9.99e-05	0	59	0	322961408	55	5392
2026-01-13 22:37:55.95	49.13	22.11	-41.7	-45.3	12.6	8.77e-05	0	60	0	325058560	55	5327
2026-01-13 22:37:56.95	49.33	22.21	-41.6	-45.2	12.7	8.92e-05	0	60	0	327155712	55	5254
2026-01-13 22:37:57.96	49.53	22.31	-41.6	-45.1	12.8	6.17e-05	0	60	0	328204288	55	5201
2026-01-13 22:37:58.97	49.73	22.41	-41.5	-45.0	12.9	7.70e-05	0	60	0	330301440	55	5118
2026-01-13 22:37:59.98	49.93	22.51	-41.5	-44.9	13.0	3.66e-05	0	60	0	332398592	55	5081
2026-01-13 22:38:00.99	50.13	22.61	-41.5	-45.0	13.0	3.43e-05	0	60	0	334495744	54	5409
2026-01-13 22:38:02.00	50.33	22.70	-41.5	-45.0	13.0	3.58e-05	0	60	0	336592896	54	5403
2026-01-13 22:38:03.01	50.54	22.80	-41.5	-45.0	13.0	3.66e-05	0	60	0	337641472	54	5424
2026-01-13 22:38:04.02	50.74	22.90	-41.5	-45.0	13.0	4.04e-05	0	60	0	339738624	54	5442
2026-01-13 22:38:05.03	50.95	23.00	-41.5	-44.9	13.1	4.11e-05	0	60	0	341835776	54	5371
2026-01-13 22:38:06.04	51.16	23.10	-41.5	-44.9	13.1	3.20e-05	0	60	0	343932928	54	5382
2026-01-13 22:38:07.05	51.37	23.20	-41.5	-45.0	13.0	2.97e-05	0	60	0	346030080	54	5429
2026-01-13 22:38:08.06	51.58	23.29	-41.5	-45.0	13.0	4.34e-05	0	60	0	347078656	54	5416
2026-01-13 22:38:09.07	51.79	23.39	-41.6	-45.1	12.8	5.95e-05	0	60	0	349175808	54	5528
2026-01-13 22:38:10.08	52.01	23.49	-41.6	-45.1	12.9	4.88e-05	0	60	0	351272960	54	5509
2026-01-13 22:38:11.08	52.22	23.59	-41.7	-45.2	12.8	3.96e-05	0	60	0	353370112	54	5576
2026-01-13 22:38:12.09	52.44	23.69	-41.7	-45.2	12.8	4.50e-05	0	60	0	355467264	54	5570
2026-01-13 22:38:13.10	52.65	23.78	-41.7	-45.2	12.8	5.95e-05	0	60	0	356515840	54	5584
2026-01-13 22:38:14.11	52.87	23.88	-41.7	-45.2	12.8	6.17e-05	0	60	0	358612992	54	5556
2026-01-13 22:38:15.12	53.09	23.98	-41.7	-45.3	12.8	4.27e-05	0	60	0	360710144	54	5595
2026-01-13 22:38:16.13	53.31	24.08	-41.7	-45.2	12.8	7.24e-05	0	60	0	362807296	54	5565
2026-01-13 22:38:17.14	53.54	24.18	-41.7	-45.3	12.7	8.01e-05	0	60	0	364904448	54	5593
2026-01-13 22:38:18.14	53.76	24.27	-41.6	-45.1	12.9	4.88e-05	0	60	0	367001600	54	5528
2026-01-13 22:38:19.15	53.98	24.37	-41.6	-45.1	12.9	4.80e-05	0	60	0	368050176	54	5500
2026-01-13 22:38:20.16	54.21	24.47	-41.6	-45.1	12.9	4.95e-05	0	59	0	370147328	54	5497
2026-01-13 22:38:21.17	54.44	24.57	-41.7	-45.2	12.8	5.72e-05	0	60	0	372244480	54	5568
2026-01-13 22:38:22.18	54.67	24.66	-41.7	-45.2	12.8	6.86e-05	0	60	0	374341632	54	5588
2026-01-13 22:38:23.19	54.90	24.76	-41.7	-45.3	12.7	6.02e-05	0	60	0	376438784	54	5654
2026-01-13 22:38:24.20	55.13	24.86	-41.8	-45.4	12.6	7.70e-05	0	60	0	377487360	54	5682
2026-01-13 22:38:25.21	55.37	24.96	-41.8	-45.5	12.5	1.02e-04	0	60	0	379584512	54	5787
2026-01-13 22:38:26.22	55.60	25.05	-41.9	-45.6	12.4	1.40e-04	0	60	0	381681664	54	5831
2026-01-13 22:38:27.23	55.84	25.15	-41.9	-45.6	12.4	1.71e-04	0	60	0	383778816	54	5823
2026-01-13 22:38:28.24	56.08	25.25	-41.9	-45.7	12.3	1.72e-04	0	60	0	385875968	54	5890
2026-01-13 22:38:29.25	56.32	25.34	-42.0	-45.9	12.1	2.19e-04	0	60	0	386924544	54	6002
2026-01-13 22:38:30.26	56.56	25.44	-42.1	-46.0	12.0	2.82e-04	0	60	0	389021696	54	6125
2026-01-13 22:38:31.27	56.80	25.54	-42.0	-45.9	12.0	3.12e-04	0	60	0	391118848	54	6060
2026-01-13 22:38:32.28	57.05	25.63	-42.1	-46.1	12.0	3.79e-04	0	60	0	393216000	54	6145
2026-01-13 22:38:33.29	57.29	25.73	-42.1	-46.1	11.9	3.81e-04	0	60	0	395313152	54	6166
2026-01-13 22:38:34.30	57.54	25.82	-42.1	-46.1	11.9	4.59e-04	0	60	0	396361728	54	6160
2026-01-13 22:38:35.31	57.79	25.92	-42.1	-46.1	11.9	4.13e-04	0	60	0	398458880	54	6167
2026-01-13 22:38:36.32	58.04	26.01	-42.2	-46.2	11.8	4.48e-04	0	60	0	400556032	54	6254
2026-01-13 22:38:37.33	58.29	26.11	-42.2	-46.3	11.7	6.24e-04	0	60	0	402653184	55	5956
2026-01-13 22:38:38.34	58.54	26.20	-42.3	-46.5	11.5	7.77e-04	0	60	0	404750336	55	6111
2026-01-13 22:38:39.34	58.79	26.30	-42.4	-46.6	11.3	9.82e-04	0	60	0	405798912	55	6202
2026-01-13 22:38:40.35	59.05	26.39	-42.4	-46.7	11.2	1.26e-03	0	60	0	407896064	55	6273
2026-01-13 22:38:41.36	59.31	26.49	-42.4	-46.8	11.2	1.19e-03	0	60	0	409993216	55	6276
2026-01-13 22:38:42.37	59.57	26.58	-42.4	-46.6	11.4	9.91e-04	0	60	0	412090368	55	6190
2026-01-13 22:38:43.38	59.83	26.67	-42.4	-46.6	11.4	1.02e-03	0	60	0	414187520	55	6151
2026-01-13 22:38:44.39	60.09	26.77	-42.4	-46.6	11.3	9.07e-04	0	60	0	415236096	55	6202
2026-01-13 22:38:45.40	60.35	26.86	-42.4	-46.6	11.4	9.08e-04	0	60	0	417333248	55	6161
2026-01-13 22:38:46.41	60.62	26.95	-42.5	-46.8	11.2	1.20e-03	0	60	0	419430400	55	6313
2026-01-13 22:38:47.42	60.88	27.04	-42.5	-46.9	11.0	1.44e-03	0	60	0	421527552	55	6406
2026-01-13 22:38:48.43	61.15	27.13	-42.7	-47.2	10.8	2.44e-03	0	60	0	423624704	55	6622
2026-01-13 22:38:49.44	61.42	27.23	-42.9	-47.7	10.4	3.71e-03	0	60	0	424673280	56	6598
2026-01-13 22:38:50.45	61.69	27.32	-43.1	-48.1	10.0	5.37e-03	0	60	0	426770432	56	6890
2026-01-13 22:38:51.46	61.96	27.41	-43.2	-48.3	9.8	9.46e-03	0	60	0	428867584	56	7083
2026-01-13 22:38:52.47	62.24	27.50	-43.3	-48.5	9.6	1.14e-02	0	60	0	430964736	57	6834
2026-01-13 22:38:53.48	62.51	27.59	-43.3	-48.5	9.6	1.26e-02	0	60	0	433061888	57	6861
2026-01-13 22:38:54.49	62.79	27.68	-43.3	-48.5	9.6	1.33e-02	0	60	0	435159040	57	6832
2026-01-13 22:38:55.50	63.07	27.77	-43.2	-48.4	9.7	1.15e-02	0	60	0	436207616	57	6756
2026-01-13 22:38:56.51	63.35	27.86	-43.2	-48.4	9.7	1.07e-02	0	60	0	438304768	57	6756
2026-01-13 22:38:57.52	63.63	27.94	-43.2	-48.3	9.9	8.89e-03	0	60	0	440401920	57	6679
2026-01-13 22:38:58.53	63.91	28.03	-43.2	-48.3	9.9	8.98e-03	0	60	0	442499072	57	6672
2026-01-13 22:38:59.54	64.20	28.12	-43.2	-48.2	10.0	9.87e-03	0	60	0	444596224	57	6574
2026-01-13 22:39:00.55	64.49	28.21	-43.1	-48.1	10.0	7.87e-03	0	60	0	445644800	57	6540
2026-01-13 22:39:01.56	64.77	28.29	-43.1	-48.1	10.0	7.65e-03	0	60	0	447741952	57	6566
2026-01-13 22:39:02.57	65.06	28.38	-43.2	-48.1	10.0	6.81e-03	0	60	0	449839104	57	6545
2026-01-13 22:39:03.58	65.35	28.46	-43.2	-48.1	10.0	7.06e-03	0	60	0	451936256	57	6555
2026-01-13 22:39:04.59	65.65	28.55	-43.2	-48.3	9.8	7.95e-03	0	60	0	454033408	57	6677
2026-01-13 22:39:05.60	65.94	28.63	-43.3	-48.4	9.8	9.17e-03	0	60	0	455081984	57	6751
2026-01-13 22:39:06.61	66.24	28.72	-43.3	-48.4	9.7	1.06e-02	0	60	0	457179136	57	6789
2026-01-13 22:39:07.62	66.53	28.80	-43.2	-48.2	9.9	1.01e-02	0	60	0	459276288	57	6613
2026-01-13 22:39:08.63	66.83	28.88	-43.2	-48.2	10.0	8.17e-03	0	60	0	461373440	57	6613
2026-01-13 22:39:09.64	67.13	28.96	-43.1	-48.0	10.2	6.77e-03	0	60	0	463470592	57	6432
2026-01-13 22:39:10.65	67.43	29.05	-43.1	-48.0	10.2	5.73e-03	0	60	0	464519168	57	6447
2026-01-13 22:39:11.66	67.74	29.13	-43.0	-47.8	10.4	4.45e-03	0	60	0	466616320	57	6286
2026-01-13 22:39:12.67	68.04	29.21	-43.1	-47.8	10.3	4.20e-03	0	60	0	468713472	57	6346
2026-01-13 22:39:13.68	68.35	29.29	-43.1	-47.9	10.3	4.93e-03	0	60	0	470810624	57	6370
2026-01-13 22:39:14.69	68.65	29.37	-43.2	-48.1	10.1	5.79e-03	0	60	0	472907776	57	6532
2026-01-13 22:39:15.70	68.96	29.44	-43.2	-48.1	10.1	7.14e-03	0	60	0	473956352	57	6539
2026-01-13 22:39:16.71	69.27	29.52	-43.2	-48.2	10.0	7.31e-03	0	60	0	476053504	57	6589
2026-01-13 22:39:17.72	69.59	29.60	-43.2	-48.1	10.1	7.28e-03	0	60	0	478150656	57	6541
2026-01-13 22:39:18.73	69.90	29.67	-43.1	-48.0	10.1	6.45e-03	0	60	0	480247808	57	6494
2026-01-13 22:39:19.74	70.21	29.75	-43.1	-48.1	10.1	6.62e-03	0	60	0	482344960	57	6525
2026-01-13 22:39:20.75	70.53	29.82	-43.1	-47.9	10.3	5.59e-03	0	60	0	483393536	57	6376
2026-01-13 22:39:21.76	70.85	29.90	-43.1	-48.0	10.2	5.75e-03	0	60	0	485490688	57	6432
2026-01-13 22:39:22.77	71.17	29.97	-43.2	-48.1	10.0	6.10e-03	0	60	0	487587840	57	6567
2026-01-13 22:39:23.78	71.49	30.04	-43.2	-48.3	9.8	8.34e-03	0	60	0	489684992	57	6694
2026-01-13 22:39:24.79	71.81	30.12	-43.4	-48.8	9.4	1.25e-02	0	60	0	491782144	57	7084
2026-01-13 22:39:25.80	72.13	30.19	-43.6	-49.4	8.8	2.19e-02	0	60	0	492830720	57	7619
2026-01-13 22:39:26.81	72.46	30.26	-43.8	-49.9	8.2	3.74e-02	0	60	0	494927872	58	7617
2026-01-13 22:39:27.82	72.79	30.33	-43.9	-50.4	7.7	7.62e-02	0	60	0	497025024	58	8077
2026-01-13 22:39:28.82	73.11	30.39	-44.0	-50.5	7.6	9.01e-02	0	60	0	499122176	58	8157
2026-01-13 22:39:29.83	73.44	30.46	-44.0	-50.7	7.5	9.98e-02	0	60	0	501219328	58	8329
2026-01-13 22:39:30.84	73.77	30.53	-44.0	-50.6	7.6	9.87e-02	0	60	0	503316480	58	8205
2026-01-13 22:39:31.85	74.10	30.59	-44.0	-50.5	7.6	9.56e-02	0	60	0	504365056	58	8172
2026-01-13 22:39:32.87	74.44	30.66	-44.0	-50.5	7.7	1.01e-01	0	60	0	506462208	58	8105
2026-01-13 22:39:33.87	74.77	30.72	-43.9	-50.2	7.9	7.94e-02	0	60	0	508559360	58	7895
2026-01-13 22:39:34.88	75.11	30.78	-43.9	-50.2	7.9	7.18e-02	0	60	0	510656512	58	7879
2026-01-13 22:39:35.89	75.44	30.85	-43.9	-50.3	7.8	7.11e-02	0	60	0	512753664	58	7925
2026-01-13 22:39:36.90	75.78	30.91	-43.9	-50.4	7.8	8.18e-02	0	60	0	513802240	58	8010
2026-01-13 22:39:37.91	76.12	30.97	-44.0	-50.7	7.5	9.27e-02	0	60	0	515899392	58	8329
2026-01-13 22:39:38.92	76.46	31.03	-44.0	-50.8	7.3	1.17e-01	0	60	0	517996544	58	8421
2026-01-13 22:39:39.93	76.80	31.09	-44.0	-50.7	7.4	1.08e-01	0	60	0	520093696	58	8360
2026-01-13 22:39:40.94	77.15	31.14	-44.0	-50.5	7.6	1.03e-01	0	60	0	522190848	58	8158
2026-01-13 22:39:41.95	77.49	31.20	-44.0	-50.5	7.6	8.90e-02	0	61	0	523239424	58	8148
2026-01-13 22:39:42.96	77.84	31.26	-43.8	-49.9	8.2	7.90e-02	0	60	0	525336576	58	7607
2026-01-13 22:39:43.97	78.18	31.31	-43.7	-49.5	8.6	4.15e-02	0	60	0	527433728	58	7286
2026-01-13 22:39:44.98	78.53	31.36	-43.6	-49.3	8.9	3.34e-02	0	60	0	529530880	58	7095
2026-01-13 22:39:45.99	78.88	31.41	-43.7	-49.5	8.7	3.14e-02	0	60	0	531628032	58	7235
2026-01-13 22:39:46.99	79.23	31.47	-43.7	-49.6	8.6	4.07e-02	0	60	0	532676608	58	7368
2026-01-13 22:39:48.01	79.58	31.52	-43.8	-49.7	8.4	4.17e-02	0	60	0	534773760	58	7453
2026-01-13 22:39:49.01	79.93	31.56	-43.8	-49.9	8.3	4.95e-02	0	60	0	536870912	58	7555
2026-01-13 22:39:50.02	80.28	31.61	-43.8	-50.0	8.2	4.97e-02	0	60	0	538968064	58	7658
2026-01-13 22:39:51.03	80.64	31.66	-43.8	-49.8	8.3	5.95e-02	0	60	0	541065216	58	7541
2026-01-13 22:39:52.04	80.99	31.70	-43.7	-49.5	8.7	4.70e-02	0	60	0	542113792	58	7284
2026-01-13 22:39:53.05	81.35	31.75	-43.6	-49.3	8.9	2.88e-02	0	60	0	544210944	58	7059
2026-01-13 22:39:54.06	81.71	31.79	-43.6	-49.2	9.1	2.64e-02	0	60	0	546308096	58	6965
2026-01-13 22:39:55.07	82.07	31.83	-43.6	-49.1	9.1	2.21e-02	0	60	0	548405248	58	6892
2026-01-13 22:39:56.08	82.42	31.88	-43.5	-49.0	9.2	1.84e-02	0	60	0	550502400	58	6813
2026-01-13 22:39:57.09	82.78	31.92	-43.5	-49.0	9.2	2.16e-02	0	60	0	551550976	58	6822
2026-01-13 22:39:58.10	83.15	31.95	-43.5	-49.0	9.2	2.00e-02	0	60	0	553648128	58	6847
2026-01-13 22:39:59.11	83.51	31.99	-43.6	-49.1	9.1	2.18e-02	0	60	0	555745280	58	6959
2026-01-13 22:40:00.12	83.87	32.03	-43.6	-49.2	8.9	2.94e-02	0	60	0	557842432	58	7033
2026-01-13 22:40:01.13	84.23	32.06	-43.5	-49.0	9.2	2.22e-02	0	60	0	559939584	58	6830
2026-01-13 22:40:02.14	84.60	32.10	-43.5	-48.9	9.3	1.84e-02	0	60	0	560988160	58	6771
2026-01-13 22:40:03.15	84.96	32.13	-43.5	-48.8	9.4	1.84e-02	0	60	0	563085312	58	6682
2026-01-13 22:40:04.16	85.33	32.16	-43.4	-48.7	9.5	1.59e-02	0	60	0	565182464	58	6617
2026-01-13 22:40:05.17	85.69	32.19	-43.6	-49.1	9.1	1.67e-02	0	60	0	567279616	58	6907
2026-01-13 22:40:06.18	86.06	32.22	-43.7	-49.6	8.6	3.19e-02	0	60	0	569376768	58	7313
2026-01-13 22:40:07.19	86.43	32.25	-43.8	-49.9	8.2	4.19e-02	0	60	0	571473920	58	7626
2026-01-13 22:40:08.20	86.80	32.28	-44.0	-50.4	7.8	6.75e-02	0	60	0	572522496	58	8036
2026-01-13 22:40:09.21	87.17	32.30	-43.9	-50.3	7.8	7.89e-02	0	60	0	574619648	58	7968
2026-01-13 22:40:10.22	87.54	32.32	-43.9	-50.0	8.1	6.98e-02	0	60	0	576716800	58	7698
2026-01-13 22:40:11.23	87.91	32.35	-43.8	-49.6	8.5	5.00e-02	0	60	0	578813952	58	7362
2026-01-13 22:40:12.23	88.27	32.37	-43.5	-49.0	9.3	2.40e-02	0	60	0	580911104	58	6812
2026-01-13 22:40:13.24	88.64	32.39	-43.4	-48.7	9.6	1.40e-02	0	60	0	581959680	58	6576
2026-01-13 22:40:14.25	89.02	32.41	-43.3	-48.5	9.8	1.16e-02	0	60	0	584056832	58	6428
2026-01-13 22:40:15.26	89.39	32.42	-43.4	-48.5	9.7	9.75e-03	0	60	0	586153984	58	6466
2026-01-13 22:40:16.27	89.76	32.44	-43.4	-48.6	9.6	1.37e-02	0	60	0	588251136	58	6541
2026-01-13 22:40:17.28	90.13	32.46	-43.4	-48.7	9.5	1.41e-02	0	60	0	590348288	58	6576
2026-01-13 22:40:18.29	90.51	32.47	-43.4	-48.6	9.6	1.25e-02	0	60	0	591396864	58	6557
2026-01-13 22:40:19.30	90.88	32.48	-43.4	-48.7	9.6	1.26e-02	0	60	0	593494016	58	6575
2026-01-13 22:40:20.31	91.25	32.49	-43.4	-48.6	9.6	1.33e-02	0	60	0	595591168	58	6540
2026-01-13 22:40:21.32	91.63	32.50	-43.5	-48.8	9.4	1.39e-02	0	60	0	597688320	58	6687
2026-01-13 22:40:22.33	92.00	32.51	-43.5	-48.9	9.4	1.60e-02	0	60	0	599785472	58	6727
2026-01-13 22:40:23.34	92.37	32.52	-43.5	-48.9	9.3	1.87e-02	0	60	0	600834048	58	6764
2026-01-13 22:40:24.35	92.75	32.52	-43.6	-49.1	9.1	2.01e-02	0	60	0	602931200	58	6940
2026-01-13 22:40:25.36	93.12	32.53	-43.7	-49.4	8.7	3.18e-02	0	60	0	605028352	58	7195
2026-01-13 22:40:26.37	93.50	32.53	-43.8	-49.6	8.5	3.99e-02	0	60	0	607125504	58	7346
2026-01-13 22:40:27.38	93.87	32.53	-43.8	-49.7	8.4	4.33e-02	0	60	0	609222656	58	7455
2026-01-13 22:40:28.39	94.25	32.53	-43.8	-49.7	8.5	4.60e-02	0	60	0	610271232	58	7443
2026-01-13 22:40:29.39	94.62	32.53	-43.7	-49.5	8.8	3.60e-02	0	60	0	612368384	58	7213
2026-01-13 22:40:30.40	94.99	32.53	-43.6	-49.1	9.1	2.85e-02	0	60	0	614465536	58	6928
2026-01-13 22:40:31.41	95.37	32.53	-43.4	-48.6	9.6	1.81e-02	0	60	0	616562688	58	6550
2026-01-13 22:40:32.42	95.74	32.52	-43.3	-48.2	10.0	8.58e-03	0	60	0	618659840	58	6260
2026-01-13 22:40:33.43	96.12	32.51	-43.2	-48.0	10.2	6.10e-03	0	60	0	619708416	58	6117
2026-01-13 22:40:34.44	96.49	32.51	-43.3	-48.2	10.1	6.56e-03	0	60	0	621805568	58	6211
2026-01-13 22:40:35.46	96.87	32.50	-43.4	-48.7	9.6	1.10e-02	0	61	0	623902720	58	6574
2026-01-13 22:40:36.47	97.24	32.49	-43.5	-49.0	9.2	1.65e-02	0	60	0	625999872	58	6822
2026-01-13 22:40:37.48	97.61	32.48	-43.7	-49.4	8.8	2.59e-02	0	60	0	628097024	58	7145
2026-01-13 22:40:38.49	97.99	32.46	-43.7	-49.5	8.7	3.47e-02	0	60	0	629145600	58	7253
2026-01-13 22:40:39.50	98.36	32.45	-43.8	-49.7	8.5	4.07e-02	0	60	0	631242752	58	7375
2026-01-13 22:40:40.50	98.73	32.43	-43.8	-49.7	8.5	4.08e-02	0	60	0	633339904	58	7410
2026-01-13 22:40:41.51	99.10	32.42	-43.8	-49.8	8.3	4.33e-02	0	60	0	635437056	58	7527
2026-01-13 22:40:42.52	99.47	32.40	-43.9	-50.0	8.2	5.45e-02	0	60	0	637534208	58	7656
2026-01-13 22:40:43.53	99.85	32.38	-43.9	-50.1	8.1	6.14e-02	0	60	0	639631360	58	7779
2026-01-13 22:40:44.54	100.22	32.36	-43.9	-50.2	8.0	6.53e-02	0	60	0	640679936	58	7891
2026-01-13 22:40:45.55	100.59	32.34	-44.0	-50.5	7.7	7.63e-02	0	61	0	642777088	58	8174
2026-01-13 22:40:46.56	100.96	32.31	-44.1	-50.7	7.6	9.50e-02	0	61	0	644874240	58	8295
2026-01-13 22:40:47.57	101.33	32.29	-44.1	-50.7	7.5	1.12e-01	0	60	0	646971392	58	8312
2026-01-13 22:40:48.58	101.70	32.26	-44.1	-50.8	7.4	1.04e-01	0	60	0	649068544	58	8400
2026-01-13 22:40:49.59	102.06	32.23	-44.1	-50.9	7.4	1.05e-01	0	60	0	650117120	58	8469
2026-01-13 22:40:50.60	102.43	32.21	-44.0	-50.6	7.7	1.01e-01	0	60	0	652214272	58	8190
2026-01-13 22:40:51.61	102.80	32.18	-44.0	-50.5	7.7	9.22e-02	0	60	0	654311424	58	8114
2026-01-13 22:40:52.62	103.17	32.14	-44.0	-50.4	7.8	7.72e-02	0	61	0	656408576	58	8036
2026-01-13 22:40:53.63	103.53	32.11	-44.0	-50.4	7.8	8.33e-02	0	60	0	658505728	58	8016
2026-01-13 22:40:54.64	103.90	32.08	-44.1	-50.7	7.6	9.71e-02	0	60	0	659554304	58	8273
2026-01-13 22:40:55.65	104.26	32.04	-44.0	-50.4	7.8	8.72e-02	0	60	0	661651456	58	8057
2026-01-13 22:40:56.65	104.62	32.01	-44.1	-50.7	7.5	9.04e-02	0	60	0	663748608	58	8294
2026-01-13 22:40:57.66	104.98	31.97	-44.0	-50.6	7.7	9.46e-02	0	60	0	665845760	58	8187
2026-01-13 22:40:58.67	105.35	31.93	-44.0	-50.4	7.9	8.61e-02	0	60	0	667942912	58	8042
2026-01-13 22:40:59.68	105.71	31.89	-44.0	-50.4	7.8	8.70e-02	0	60	0	668991488	58	8068
2026-01-13 22:41:00.69	106.07	31.85	-44.0	-50.4	7.8	8.20e-02	0	60	0	671088640	58	8055
2026-01-13 22:41:01.70	106.43	31.81	-43.9	-50.0	8.1	7.36e-02	0	60	0	673185792	58	7716
2026-01-13 22:41:02.71	106.78	31.77	-43.6	-49.3	8.9	3.87e-02	0	60	0	675282944	58	7053
2026-01-13 22:41:03.72	107.14	31.72	-43.6	-49.0	9.2	2.48e-02	0	60	0	677380096	58	6838
2026-01-13 22:41:04.73	107.50	31.68	-43.4	-48.7	9.5	1.45e-02	0	60	0	678428672	58	6586
2026-01-13 22:41:05.74	107.85	31.63	-43.5	-48.7	9.5	1.40e-02	0	61	0	680525824	58	6614
2026-01-13 22:41:06.75	108.21	31.59	-43.4	-48.6	9.7	1.30e-02	0	60	0	682622976	58	6535
2026-01-13 22:41:07.76	108.56	31.54	-43.5	-48.9	9.3	1.56e-02	0	61	0	684720128	58	6800
2026-01-13 22:41:08.77	108.91	31.49	-43.6	-49.0	9.2	2.00e-02	0	61	0	686817280	58	6840
2026-01-13 22:41:09.78	109.27	31.44	-43.6	-49.2	9.0	2.19e-02	0	61	0	687865856	58	7022
2026-01-13 22:41:10.79	109.62	31.38	-43.7	-49.3	8.9	2.77e-02	0	60	0	689963008	58	7055
2026-01-13 22:41:11.79	109.96	31.33	-43.7	-49.4	8.9	2.55e-02	0	60	0	692060160	58	7127
2026-01-13 22:41:12.80	110.31	31.28	-43.7	-49.3	8.9	2.69e-02	0	60	0	694157312	58	7084
2026-01-13 22:41:13.81	110.66	31.22	-43.6	-49.2	9.0	2.38e-02	0	60	0	696254464	58	7013
2026-01-13 22:41:14.82	111.00	31.17	-43.6	-49.2	9.0	2.70e-02	0	60	0	697303040	58	7030
2026-01-13 22:41:15.83	111.35	31.11	-43.6	-49.0	9.3	2.27e-02	0	60	0	699400192	58	6822
2026-01-13 22:41:16.84	111.69	31.05	-43.6	-49.0	9.3	1.94e-02	0	61	0	701497344	58	6841
2026-01-13 22:41:17.85	112.03	30.99	-43.5	-48.8	9.4	1.57e-02	0	61	0	703594496	58	6704
2026-01-13 22:41:18.86	112.37	30.93	-43.5	-48.7	9.5	1.50e-02	0	61	0	705691648	58	6639
2026-01-13 22:41:19.87	112.71	30.87	-43.4	-48.5	9.8	1.20e-02	0	60	0	707788800	58	6467
2026-01-13 22:41:20.88	113.05	30.81	-43.4	-48.4	9.9	9.43e-03	0	60	0	708837376	58	6386
2026-01-13 22:41:21.89	113.39	30.75	-43.4	-48.6	9.7	1.09e-02	0	60	0	710934528	58	6510
2026-01-13 22:41:22.90	113.73	30.68	-43.4	-48.6	9.7	1.09e-02	0	61	0	713031680	58	6521
2026-01-13 22:41:23.91	114.06	30.62	-43.6	-48.9	9.3	1.82e-02	0	61	0	715128832	58	6799
2026-01-13 22:41:24.92	114.39	30.55	-43.7	-49.4	8.9	2.33e-02	0	61	0	717225984	58	7132
2026-01-13 22:41:25.93	114.73	30.49	-43.8	-49.9	8.4	3.98e-02	0	60	0	718274560	58	7556
2026-01-13 22:41:26.94	115.06	30.42	-43.9	-50.0	8.2	5.32e-02	0	61	0	720371712	58	7658
2026-01-13 22:41:27.95	115.38	30.35	-44.0	-50.2	8.1	6.19e-02	0	61	0	722468864	58	7859
2026-01-13 22:41:28.96	115.71	30.28	-43.9	-50.0	8.2	6.00e-02	0	61	0	724566016	58	7632
2026-01-13 22:41:29.97	116.04	30.21	-43.8	-49.6	8.7	4.93e-02	0	61	0	726663168	58	7291
2026-01-13 22:41:30.98	116.36	30.14	-43.7	-49.2	9.0	2.97e-02	0	61	0	727711744	58	7038
2026-01-13 22:41:31.99	116.69	30.07	-43.6	-49.1	9.2	2.11e-02	0	61	0	729808896	58	6888
2026-01-13 22:41:33.00	117.01	30.00	-43.6	-49.1	9.1	2.14e-02	0	60	0	731906048	58	6953
2026-01-13 22:41:34.01	117.33	29.92	-43.7	-49.3	9.0	2.46e-02	0	61	0	734003200	58	7071
2026-01-13 22:41:35.02	117.65	29.85	-43.7	-49.4	8.8	3.02e-02	0	61	0	736100352	58	7189
2026-01-13 22:41:36.03	117.97	29.77	-43.7	-49.4	8.8	3.01e-02	0	61	0	737148928	58	7197
2026-01-13 22:41:37.04	118.29	29.70	-43.8	-49.6	8.7	3.54e-02	0	60	0	739246080	58	7321
2026-01-13 22:41:38.05	118.60	29.62	-43.8	-49.7	8.5	4.14e-02	0	60	0	741343232	58	7440
2026-01-13 22:41:39.06	118.91	29.55	-43.9	-50.0	8.3	4.67e-02	0	60	0	743440384	58	7673
2026-01-13 22:41:40.07	119.23	29.47	-43.9	-50.2	8.0	6.83e-02	0	61	0	745537536	58	7842
2026-01-13 22:41:41.08	119.54	29.39	-44.1	-50.6	7.7	8.56e-02	0	61	0	746586112	58	8210
2026-01-13 22:41:42.08	119.84	29.31	-44.0	-50.4	7.8	9.28e-02	0	60	0	748683264	58	8052
2026-01-13 22:41:43.09	120.15	29.23	-43.9	-50.1	8.1	6.97e-02	0	61	0	750780416	58	7743
2026-01-13 22:41:44.10	120.46	29.15	-43.9	-50.0	8.2	5.77e-02	0	61	0	752877568	58	7714
2026-01-13 22:41:45.11	120.76	29.07	-43.9	-50.0	8.2	5.63e-02	0	61	0	754974720	58	7704
2026-01-13 22:41:46.12	121.06	28.99	-43.9	-50.1	8.2	5.66e-02	0	61	0	756023296	58	7731
2026-01-13 22:41:47.13	121.37	28.91	-43.8	-49.8	8.5	5.10e-02	0	61	0	758120448	58	7470
2026-01-13 22:41:48.14	121.67	28.82	-43.6	-49.2	9.1	3.21e-02	0	61	0	760217600	58	6963
2026-01-13 22:41:49.15	121.97	28.74	-43.3	-48.3	9.9	1.48e-02	0	61	0	762314752	58	6327
2026-01-13 22:41:50.16	122.26	28.66	-43.2	-47.9	10.4	5.27e-03	0	61	0	764411904	58	6042
2026-01-13 22:41:51.17	122.56	28.57	-43.2	-47.9	10.4	4.67e-03	0	61	0	765460480	58	6032
2026-01-13 22:41:52.18	122.85	28.49	-43.2	-48.1	10.2	5.36e-03	0	61	0	767557632	58	6138
2026-01-13 22:41:53.19	123.14	28.40	-43.3	-48.4	9.9	8.00e-03	0	61	0	769654784	58	6355
2026-01-13 22:41:54.20	123.44	28.32	-43.4	-48.5	9.8	9.80e-03	0	61	0	771751936	58	6446
2026-01-13 22:41:55.20	123.72	28.23	-43.4	-48.6	9.6	1.20e-02	0	61	0	773849088	58	6561
2026-01-13 22:41:56.21	124.01	28.14	-43.4	-48.6	9.7	1.13e-02	0	61	0	775946240	58	6511
2026-01-13 22:41:57.22	124.30	28.05	-43.5	-48.8	9.5	1.41e-02	0	61	0	776994816	58	6655
2026-01-13 22:41:58.23	124.58	27.97	-43.6	-49.0	9.2	1.78e-02	0	61	0	779091968	58	6879
2026-01-13 22:41:59.24	124.87	27.88	-43.7	-49.5	8.7	2.50e-02	0	61	0	781189120	58	7257
2026-01-13 22:42:00.25	125.15	27.79	-43.8	-49.7	8.5	4.15e-02	0	60	0	783286272	58	7426
2026-01-13 22:42:01.26	125.43	27.70	-43.7	-49.4	8.8	3.64e-02	0	61	0	784334848	58	7130
2026-01-13 22:42:02.27	125.71	27.61	-43.5	-48.9	9.3	2.45e-02	0	61	0	786432000	58	6767
2026-01-13 22:42:03.28	125.98	27.52	-43.3	-48.3	10.0	1.02e-02	0	60	0	788529152	58	6313
2026-01-13 22:42:04.29	126.26	27.43	-43.1	-47.8	10.4	6.05e-03	0	61	0	790626304	58	5964
2026-01-13 22:42:05.30	126.53	27.34	-43.0	-47.6	10.7	3.21e-03	0	61	0	792723456	58	5841
2026-01-13 22:42:06.31	126.81	27.25	-43.1	-47.9	10.4	3.58e-03	0	61	0	793772032	58	6017
2026-01-13 22:42:07.32	127.08	27.15	-43.2	-48.2	10.1	6.58e-03	0	61	0	795869184	58	6204
2026-01-13 22:42:08.33	127.35	27.06	-43.2	-48.1	10.2	7.24e-03	0	61	0	797966336	58	6132
2026-01-13 22:42:09.34	127.62	26.97	-43.1	-47.7	10.5	4.27e-03	0	61	0	800063488	58	5904
2026-01-13 22:42:10.35	127.88	26.88	-42.8	-47.1	11.2	1.82e-03	0	61	0	802160640	57	5812
2026-01-13 22:42:11.36	128.15	26.78	-42.8	-47.1	11.2	1.15e-03	0	61	0	804257792	57	5809
2026-01-13 22:42:12.37	128.41	26.69	-42.9	-47.4	10.9	1.74e-03	0	61	0	805306368	57	6005
2026-01-13 22:42:13.38	128.67	26.59	-43.2	-48.1	10.1	4.85e-03	0	61	0	807403520	57	6566
2026-01-13 22:42:14.39	128.93	26.50	-43.6	-49.1	9.1	1.44e-02	0	61	0	809500672	57	7347
2026-01-13 22:42:15.40	129.19	26.41	-43.8	-50.0	8.2	3.76e-02	0	61	0	811597824	58	7691
2026-01-13 22:42:16.41	129.45	26.31	-43.8	-49.8	8.3	5.87e-02	0	61	0	813694976	58	7541
2026-01-13 22:42:17.42	129.71	26.22	-43.5	-49.0	9.2	2.98e-02	0	61	0	814743552	58	6850
2026-01-13 22:42:18.43	129.96	26.12	-43.4	-48.6	9.6	1.57e-02	0	61	0	816840704	58	6570
2026-01-13 22:42:19.44	130.21	26.03	-43.4	-48.5	9.8	1.05e-02	0	61	0	818937856	58	6443
2026-01-13 22:42:20.45	130.46	25.93	-43.3	-48.5	9.8	9.71e-03	0	61	0	821035008	58	6431
2026-01-13 22:42:21.46	130.71	25.83	-43.5	-48.8	9.4	1.27e-02	0	61	0	823132160	58	6674
2026-01-13 22:42:22.47	130.96	25.74	-43.5	-48.8	9.5	1.53e-02	0	61	0	824180736	58	6662
2026-01-13 22:42:23.48	131.21	25.64	-43.4	-48.7	9.5	1.47e-02	0	61	0	826277888	58	6629
2026-01-13 22:42:24.49	131.46	25.54	-43.3	-48.2	10.0	1.10e-02	0	61	0	828375040	58	6240
2026-01-13 22:42:25.49	131.70	25.45	-43.0	-47.7	10.6	3.80e-03	0	60	0	830472192	58	5857
2026-01-13 22:42:26.50	131.94	25.35	-42.9	-47.4	10.9	2.68e-03	0	61	0	832569344	57	6024
2026-01-13 22:42:27.51	132.18	25.25	-43.0	-47.7	10.6	2.53e-03	0	60	0	833617920	57	6231
2026-01-13 22:42:28.52	132.42	25.16	-43.3	-48.3	9.9	5.08e-03	0	61	0	835715072	57	6709
2026-01-13 22:42:29.53	132.66	25.06	-43.5	-48.9	9.3	1.55e-02	0	61	0	837812224	57	7135
2026-01-13 22:42:30.54	132.90	24.96	-43.5	-48.9	9.3	2.15e-02	0	60	0	839909376	57	7162
2026-01-13 22:42:31.55	133.13	24.86	-43.1	-47.9	10.3	1.18e-02	0	60	0	842006528	57	6419
2026-01-13 22:42:32.57	133.37	24.77	-42.8	-47.1	11.2	2.00e-03	0	60	0	844103680	57	5808
2026-01-13 22:42:33.58	133.60	24.67	-42.5	-46.6	11.7	7.50e-04	0	61	0	845152256	57	5490
2026-01-13 22:42:34.59	133.83	24.57	-42.6	-46.6	11.7	5.47e-04	0	61	0	847249408	57	5500
2026-01-13 22:42:35.59	134.06	24.47	-42.8	-47.1	11.2	1.08e-03	0	61	0	849346560	57	5805
2026-01-13 22:42:36.60	134.29	24.37	-42.9	-47.5	10.7	2.37e-03	0	61	0	851443712	57	6127
2026-01-13 22:42:37.61	134.51	24.27	-43.0	-47.7	10.6	3.17e-03	0	61	0	852492288	57	6229
2026-01-13 22:42:38.62	134.74	24.18	-43.0	-47.8	10.4	4.36e-03	0	61	0	854589440	57	6315
2026-01-13 22:42:39.63	134.96	24.08	-43.0	-47.7	10.5	4.02e-03	0	60	0	856686592	57	6231
2026-01-13 22:42:40.64	135.19	23.98	-42.9	-47.5	10.7	3.16e-03	0	61	0	858783744	57	6100
2026-01-13 22:42:41.65	135.41	23.88	-42.7	-46.9	11.4	1.76e-03	0	60	0	860880896	57	5664
2026-01-13 22:42:42.66	135.63	23.78	-42.5	-46.6	11.7	6.42e-04	0	61	0	861929472	57	5493
2026-01-13 22:42:43.67	135.85	23.68	-42.7	-46.9	11.3	8.43e-04	0	60	0	864026624	57	5706
2026-01-13 22:42:44.68	136.07	23.58	-42.8	-47.3	10.9	1.39e-03	0	61	0	866123776	57	5984
2026-01-13 22:42:45.69	136.28	23.48	-43.0	-47.6	10.6	3.19e-03	0	61	0	868220928	57	6179
2026-01-13 22:42:46.69	136.49	23.39	-42.9	-47.5	10.7	3.11e-03	0	61	0	870318080	57	6101
2026-01-13 22:42:47.70	136.71	23.29	-42.9	-47.3	10.9	2.41e-03	0	61	0	872415232	57	5982
2026-01-13 22:42:48.71	136.92	23.19	-42.8	-47.1	11.1	1.71e-03	0	61	0	873463808	57	5839
2026-01-13 22:42:49.72	137.13	23.09	-42.6	-46.8	11.4	1.52e-03	0	61	0	875560960	57	5622
2026-01-13 22:42:50.73	137.34	22.99	-42.3	-46.2	12.0	5.79e-04	0	61	0	877658112	56	5570
2026-01-13 22:42:51.74	137.55	22.89	-42.3	-46.1	12.2	2.14e-04	0	60	0	879755264	56	5487
2026-01-13 22:42:52.75	137.76	22.79	-42.3	-46.2	12.1	2.67e-04	0	61	0	881852416	56	5554
2026-01-13 22:42:53.76	137.96	22.69	-42.4	-46.3	11.9	3.62e-04	0	61	0	882900992	56	5618
2026-01-13 22:42:54.77	138.17	22.59	-42.4	-46.3	12.0	3.54e-04	0	60	0	884998144	56	5608
2026-01-13 22:42:55.77	138.37	22.49	-42.3	-46.2	12.0	3.80e-04	0	60	0	887095296	56	5587
2026-01-13 22:42:56.78	138.57	22.40	-42.2	-45.9	12.3	2.06e-04	0	61	0	889192448	56	5384
2026-01-13 22:42:57.79	138.77	22.30	-42.1	-45.8	12.5	1.34e-04	0	61	0	891289600	56	5331
2026-01-13 22:42:58.80	138.97	22.20	-42.1	-45.7	12.5	1.21e-04	0	61	0	892338176	56	5277
2026-01-13 22:42:59.81	139.17	22.10	-41.8	-45.3	12.8	6.94e-05	0	61	0	894435328	55	5329
2026-01-13 22:43:00.82	139.36	22.00	-41.8	-45.4	12.8	4.50e-05	0	61	0	896532480	55	5352
2026-01-13 22:43:01.83	139.56	21.90	-41.8	-45.3	12.8	5.26e-05	0	61	0	898629632	55	5334
2026-01-13 22:43:02.84	139.75	21.80	-41.8	-45.3	12.8	5.11e-05	0	60	0	900726784	55	5307
2026-01-13 22:43:03.85	139.95	21.70	-41.8	-45.3	12.8	5.11e-05	0	61	0	901775360	55	5336
2026-01-13 22:43:04.85	140.14	21.61	-41.8	-45.3	12.8	5.18e-05	0	61	0	903872512	55	5297
2026-01-13 22:43:05.86	140.33	21.51	-41.7	-45.2	12.9	5.95e-05	0	61	0	905969664	55	5277
2026-01-13 22:43:06.87	140.52	21.41	-41.6	-45.1	13.0	3.58e-05	0	61	0	908066816	55	5172
2026-01-13 22:43:07.88	140.71	21.31	-41.6	-45.0	13.1	3.12e-05	0	60	0	910163968	55	5155
2026-01-13 22:43:08.89	140.89	21.21	-41.6	-45.1	13.0	4.27e-05	0	61	0	911212544	55	5173
2026-01-13 22:43:09.90	141.08	21.11	-41.6	-45.0	13.1	2.36e-05	0	61	0	913309696	55	5144
2026-01-13 22:43:10.91	141.27	21.01	-41.6	-45.1	13.0	3.35e-05	0	61	0	915406848	55	5170
2026-01-13 22:43:11.92	141.45	20.92	-41.6	-45.0	13.1	2.59e-05	0	61	0	917504000	55	5115
2026-01-13 22:43:12.93	141.63	20.82	-41.7	-45.2	12.9	4.73e-05	0	61	0	919601152	55	5224
2026-01-13 22:43:13.94	141.81	20.72	-41.7	-45.1	12.9	4.34e-05	0	61	0	920649728	55	5212
2026-01-13 22:43:14.95	141.99	20.62	-41.7	-45.2	12.9	3.35e-05	0	61	0	922746880	55	5230
2026-01-13 22:43:15.96	142.17	20.53	-41.6	-45.1	12.9	4.27e-05	0	61	0	924844032	55	5214
2026-01-13 22:43:16.97	142.35	20.43	-41.6	-45.1	13.0	3.35e-05	0	61	0	926941184	55	5164
2026-01-13 22:43:17.98	142.53	20.33	-41.5	-44.8	13.2	2.28e-05	0	61	0	929038336	55	5037
2026-01-13 22:43:18.99	142.71	20.23	-41.4	-44.6	13.5	1.22e-05	0	61	0	930086912	54	5185
2026-01-13 22:43:20.00	142.88	20.13	-41.4	-44.7	13.4	9.10e-06	0	61	0	932184064	54	5239
2026-01-13 22:43:21.01	143.05	20.04	-41.5	-44.8	13.3	1.60e-05	0	61	0	934281216	54	5286
2026-01-13 22:43:22.02	143.23	19.94	-41.5	-44.9	13.2	1.60e-05	0	61	0	936378368	54	5369
2026-01-13 22:43:23.03	143.40	19.84	-41.6	-45.0	13.0	2.89e-05	0	61	0	938475520	54	5463
2026-01-13 22:43:24.04	143.57	19.75	-41.8	-45.4	12.6	7.78e-05	0	61	0	940572672	54	5700
2026-01-13 22:43:25.05	143.74	19.65	-41.9	-45.8	12.3	1.43e-04	0	61	0	941621248	54	5937
2026-01-13 22:43:26.06	143.91	19.55	-42.1	-46.0	12.1	2.53e-04	0	61	0	943718400	54	6072
2026-01-13 22:43:27.07	144.08	19.46	-42.1	-46.0	12.0	3.58e-04	0	61	0	945815552	54	6124
2026-01-13 22:43:28.08	144.24	19.36	-42.1	-46.1	11.9	4.10e-04	0	61	0	947912704	54	6150
2026-01-13 22:43:29.09	144.41	19.26	-42.0	-45.9	12.1	2.88e-04	0	61	0	950009856	54	6017
2026-01-13 22:43:30.10	144.57	19.17	-42.0	-45.9	12.1	2.84e-04	0	60	0	951058432	54	6007
2026-01-13 22:43:31.11	144.74	19.07	-42.0	-45.9	12.1	2.65e-04	0	61	0	953155584	54	6032
2026-01-13 22:43:32.12	144.90	18.98	-41.9	-45.7	12.3	2.59e-04	0	61	0	955252736	54	5907
2026-01-13 22:43:33.13	145.06	18.88	-41.9	-45.7	12.3	2.04e-04	0	61	0	957349888	54	5881
2026-01-13 22:43:34.14	145.22	18.79	-41.8	-45.6	12.4	1.40e-04	0	61	0	959447040	54	5807
2026-01-13 22:43:35.15	145.38	18.69	-42.0	-45.8	12.2	2.04e-04	0	61	0	960495616	54	5940
2026-01-13 22:43:36.16	145.54	18.60	-42.0	-46.0	12.0	2.63e-04	0	61	0	962592768	54	6072
2026-01-13 22:43:37.17	145.70	18.50	-42.0	-45.9	12.1	3.18e-04	0	60	0	964689920	54	6032
2026-01-13 22:43:38.18	145.85	18.41	-42.1	-46.1	11.9	3.77e-04	0	61	0	966787072	54	6151
2026-01-13 22:43:39.19	146.01	18.31	-42.0	-45.9	12.0	3.92e-04	0	61	0	968884224	54	6053
2026-01-13 22:43:40.20	146.17	18.22	-42.0	-45.8	12.2	2.48e-04	0	60	0	969932800	54	5971
2026-01-13 22:43:41.21	146.32	18.12	-42.0	-45.9	12.1	3.06e-04	0	61	0	972029952	54	6006
2026-01-13 22:43:42.22	146.47	18.03	-42.0	-45.8	12.2	2.68e-04	0	61	0	974127104	54	5945
2026-01-13 22:43:43.23	146.62	17.93	-42.1	-46.1	11.8	2.98e-04	0	61	0	976224256	54	6202
2026-01-13 22:43:44.24	146.78	17.84	-42.1	-46.1	11.8	4.97e-04	0	61	0	978321408	54	6181
2026-01-13 22:43:45.25	146.93	17.75	-42.0	-45.9	12.0	3.26e-04	0	61	0	979369984	54	6040
2026-01-13 22:43:46.26	147.08	17.65	-42.1	-46.1	11.8	3.56e-04	0	61	0	981467136	54	6164
2026-01-13 22:43:47.27	147.22	17.56	-42.2	-46.2	11.7	5.53e-04	0	61	0	983564288	54	6254
2026-01-13 22:43:48.28	147.37	17.47	-42.2	-46.4	11.5	6.29e-04	0	61	0	985661440	54	6362
2026-01-13 22:43:49.29	147.52	17.37	-42.3	-46.5	11.4	8.22e-04	0	61	0	987758592	55	6073
2026-01-13 22:43:50.30	147.66	17.28	-42.2	-46.4	11.5	9.50e-04	0	60	0	988807168	55	6037
2026-01-13 22:43:51.31	147.81	17.19	-42.3	-46.6	11.3	1.21e-03	0	61	0	990904320	55	6163
2026-01-13 22:43:52.32	147.95	17.09	-42.3	-46.7	11.2	1.38e-03	0	61	0	993001472	55	6233
2026-01-13 22:43:53.33	148.10	17.00	-42.3	-46.7	11.1	1.39e-03	0	61	0	995098624	55	6232
2026-01-13 22:43:54.33	148.24	16.91	-42.4	-46.9	10.9	1.78e-03	0	61	0	997195776	55	6382
2026-01-13 22:43:55.34	148.38	16.82	-42.6	-47.3	10.5	3.07e-03	0	61	0	998244352	55	6682
2026-01-13 22:43:56.35	148.52	16.73	-42.7	-47.5	10.3	4.03e-03	0	61	0	1000341504	55	6832
2026-01-13 22:43:57.36	148.66	16.64	-42.9	-47.9	10.0	7.39e-03	0	61	0	1002438656	56	6785
2026-01-13 22:43:58.37	148.80	16.54	-43.0	-48.1	9.8	9.12e-03	0	61	0	1004535808	56	6899
2026-01-13 22:43:59.38	148.94	16.45	-43.0	-48.1	9.8	1.13e-02	0	61	0	1006632960	56	6948
2026-01-13 22:44:00.39	149.08	16.36	-42.9	-47.9	10.0	8.39e-03	0	61	0	1008730112	56	6741
2026-01-13 22:44:01.40	149.21	16.27	-42.8	-47.6	10.3	5.66e-03	0	61	0	1009778688	56	6515
2026-01-13 22:44:02.41	149.35	16.18	-42.7	-47.5	10.5	4.16e-03	0	61	0	1011875840	56	6430
2026-01-13 22:44:03.42	149.48	16.09	-42.6	-47.1	10.8	3.08e-03	0	61	0	1013972992	56	6193
2026-01-13 22:44:04.42	149.62	16.00	-42.5	-47.0	10.9	2.15e-03	0	61	0	1016070144	56	6108
2026-01-13 22:44:05.43	149.75	15.91	-42.5	-46.8	11.1	1.74e-03	0	61	0	1018167296	56	5981
2026-01-13 22:44:06.45	149.88	15.82	-42.5	-46.9	11.1	1.86e-03	0	61	0	1019215872	56	6019
2026-01-13 22:44:07.45	150.01	15.73	-42.6	-47.1	10.8	2.12e-03	0	61	0	1021313024	56	6137
2026-01-13 22:44:08.46	150.15	15.64	-42.7	-47.3	10.6	2.77e-03	0	61	0	1023410176	56	6334
2026-01-13 22:44:09.47	150.28	15.55	-42.7	-47.5	10.4	4.33e-03	0	61	0	1025507328	56	6453
2026-01-13 22:44:10.48	150.41	15.46	-42.8	-47.7	10.2	5.34e-03	0	60	0	1027604480	56	6595
2026-01-13 22:44:11.49	150.53	15.37	-42.9	-47.9	9.9	8.05e-03	0	61	0	1028653056	56	6787
2026-01-13 22:44:12.50	150.66	15.29	-42.9	-47.9	9.9	8.85e-03	0	61	0	1030750208	56	6785
2026-01-13 22:44:13.51	150.79	15.20	-42.9	-48.0	9.9	9.08e-03	0	61	0	1032847360	56	6824
2026-01-13 22:44:14.52	150.92	15.11	-42.8	-47.8	10.0	9.18e-03	0	61	0	1034944512	56	6679
2026-01-13 22:44:15.53	151.04	15.02	-42.7	-47.6	10.3	6.91e-03	0	61	0	1037041664	56	6500
2026-01-13 22:44:16.54	151.17	14.93	-42.7	-47.5	10.3	5.16e-03	0	61	0	1038090240	56	6483
2026-01-13 22:44:17.55	151.29	14.84	-42.7	-47.6	10.3	4.75e-03	0	61	0	1040187392	56	6495
2026-01-13 22:44:18.56	151.42	14.76	-42.6	-47.2	10.6	3.84e-03	0	61	0	1042284544	56	6224
2026-01-13 22:44:19.57	151.54	14.67	-42.5	-47.1	10.7	3.45e-03	0	61	0	1044381696	56	6145
2026-01-13 22:44:20.58	151.66	14.58	-42.5	-47.0	10.9	2.39e-03	0	61	0	1046478848	56	6077
2026-01-13 22:44:21.59	151.78	14.50	-42.5	-47.0	10.8	2.22e-03	0	61	0	1047527424	56	6106
2026-01-13 22:44:22.59	151.90	14.41	-42.5	-47.1	10.8	2.46e-03	0	61	0	1049624576	56	6146
2026-01-13 22:44:23.60	152.03	14.32	-42.6	-47.2	10.6	2.96e-03	0	61	0	1051721728	56	6251
2026-01-13 22:44:24.61	152.14	14.24	-42.7	-47.5	10.3	4.21e-03	0	61	0	1053818880	56	6443
2026-01-13 22:44:25.62	152.26	14.15	-42.7	-47.7	10.1	6.49e-03	0	61	0	1055916032	56	6596
2026-01-13 22:44:26.63	152.38	14.06	-42.7	-47.8	10.0	7.04e-03	0	61	0	1056964608	56	6647
2026-01-13 22:44:27.64	152.50	13.98	-42.8	-47.8	10.0	8.65e-03	0	61	0	1059061760	56	6660
2026-01-13 22:44:28.65	152.62	13.89	-42.8	-47.8	10.0	8.21e-03	0	61	0	1061158912	56	6660
2026-01-13 22:44:29.66	152.73	13.81	-42.7	-47.6	10.1	6.81e-03	0	61	0	1063256064	56	6567
2026-01-13 22:44:30.67	152.85	13.72	-42.7	-47.6	10.1	6.53e-03	0	61	0	1065353216	56	6570
2026-01-13 22:44:31.68	152.96	13.64	-42.6	-47.3	10.4	5.92e-03	0	61	0	1066401792	56	6335
2026-01-13 22:44:32.69	153.08	13.55	-42.5	-47.1	10.7	3.78e-03	0	61	0	1068498944	56	6145
2026-01-13 22:44:33.70	153.19	13.47	-42.4	-46.9	10.9	2.48e-03	0	61	0	1070596096	56	6004
2026-01-13 22:44:34.71	153.31	13.38	-42.3	-46.6	11.1	1.74e-03	0	61	0	1072693248	56	5843
2026-01-13 22:44:35.72	153.42	13.30	-42.3	-46.6	11.2	1.64e-03	0	61	0	1074790400	56	5809
2026-01-13 22:44:36.73	153.53	13.21	-42.2	-46.4	11.4	1.16e-03	0	61	0	1076887552	56	5669
2026-01-13 22:44:37.74	153.64	13.13	-42.2	-46.5	11.3	1.12e-03	0	61	0	1077936128	56	5748
2026-01-13 22:44:38.75	153.75	13.05	-42.3	-46.6	11.1	1.36e-03	0	61	0	1080033280	56	5817
2026-01-13 22:44:39.76	153.86	12.96	-42.3	-46.6	11.1	1.48e-03	0	61	0	1082130432	56	5842
2026-01-13 22:44:40.77	153.97	12.88	-42.4	-46.8	10.8	2.10e-03	0	61	0	1084227584	56	5991
2026-01-13 22:44:41.78	154.08	12.80	-42.4	-47.0	10.6	2.83e-03	0	61	0	1086324736	56	6110
2026-01-13 22:44:42.79	154.19	12.71	-42.5	-47.2	10.5	3.74e-03	0	61	0	1087373312	56	6246
2026-01-13 22:44:43.80	154.30	12.63	-42.5	-47.3	10.4	5.02e-03	0	61	0	1089470464	56	6294
2026-01-13 22:44:44.81	154.41	12.55	-42.5	-47.3	10.4	5.08e-03	0	61	0	1091567616	56	6291
2026-01-13 22:44:45.82	154.51	12.47	-42.6	-47.4	10.2	5.67e-03	0	61	0	1093664768	56	6406
2026-01-13 22:44:46.83	154.62	12.38	-42.6	-47.4	10.2	5.78e-03	0	61	0	1095761920	56	6416
2026-01-13 22:44:47.84	154.72	12.30	-42.6	-47.4	10.2	5.99e-03	0	61	0	1096810496	56	6414
2026-01-13 22:44:48.85	154.83	12.22	-42.6	-47.5	10.1	7.38e-03	0	61	0	1098907648	56	6427
2026-01-13 22:44:49.86	154.93	12.14	-42.5	-47.4	10.2	6.18e-03	0	61	0	1101004800	56	6372
2026-01-13 22:44:50.87	155.04	12.06	-42.5	-47.4	10.2	5.28e-03	0	61	0	1103101952	56	6386
2026-01-13 22:44:51.88	155.14	11.98	-42.5	-47.3	10.2	5.36e-03	0	61	0	1105199104	56	6338
2026-01-13 22:44:52.89	155.24	11.89	-42.4	-47.1	10.5	4.78e-03	0	61	0	1106247680	56	6153
2026-01-13 22:44:53.90	155.35	11.81	-42.4	-47.1	10.5	3.86e-03	0	61	0	1108344832	56	6152
2026-01-13 22:44:54.91	155.45	11.73	-42.4	-47.0	10.5	3.53e-03	0	61	0	1110441984	56	6107
2026-01-13 22:44:55.92	155.55	11.65	-42.3	-47.0	10.6	3.60e-03	0	61	0	1112539136	56	6074
2026-01-13 22:44:56.93	155.65	11.57	-42.3	-47.0	10.6	3.61e-03	0	61	0	1114636288	56	6075
2026-01-13 22:44:57.94	155.75	11.49	-42.3	-46.9	10.6	4.02e-03	0	61	0	1115684864	56	6029
2026-01-13 22:44:58.95	155.85	11.41	-42.3	-46.9	10.6	3.08e-03	0	61	0	1117782016	56	6039
2026-01-13 22:44:59.96	155.95	11.33	-42.3	-47.0	10.5	3.35e-03	0	61	0	1119879168	56	6121
2026-01-13 22:45:00.97	156.05	11.25	-42.3	-46.8	10.7	3.52e-03	0	61	0	1121976320	56	5992
2026-01-13 22:45:01.98	156.14	11.17	-42.3	-47.0	10.5	3.80e-03	0	60	0	1124073472	56	6099
2026-01-13 22:45:02.99	156.24	11.09	-42.3	-47.0	10.5	3.81e-03	0	61	0	1125122048	56	6100
2026-01-13 22:45:04.00	156.34	11.01	-42.3	-47.1	10.3	4.52e-03	0	61	0	1127219200	56	6147
2026-01-13 22:45:05.01	156.44	10.94	-42.3	-47.1	10.3	5.08e-03	0	61	0	1129316352	56	6159
2026-01-13 22:45:06.02	156.53	10.86	-42.3	-47.1	10.3	5.38e-03	0	61	0	1131413504	56	6174
2026-01-13 22:45:07.03	156.63	10.78	-42.4	-47.2	10.2	5.65e-03	0	61	0	1133510656	56	6236
2026-01-13 22:45:08.04	156.72	10.70	-42.4	-47.3	10.2	5.93e-03	0	61	0	1134559232	56	6283
2026-01-13 22:45:09.05	156.82	10.62	-42.4	-47.3	10.2	5.62e-03	0	61	0	1136656384	56	6293
2026-01-13 22:45:10.06	156.91	10.54	-42.5	-47.4	10.0	6.36e-03	0	61	0	1138753536	56	6389
2026-01-13 22:45:11.07	157.00	10.47	-42.4	-47.3	10.1	6.81e-03	0	61	0	1140850688	56	6295
2026-01-13 22:45:12.08	157.10	10.39	-42.4	-47.3	10.1	6.29e-03	0	61	0	1142947840	56	6297
2026-01-13 22:45:13.09	157.19	10.31	-42.4	-47.4	10.0	6.85e-03	0	61	0	1145044992	56	6381
2026-01-13 22:45:14.10	157.28	10.23	-42.4	-47.3	10.1	7.40e-03	0	61	0	1146093568	56	6294
2026-01-13 22:45:15.11	157.37	10.16	-42.4	-47.3	10.1	7.02e-03	0	61	0	1148190720	56	6296
2026-01-13 22:45:16.12	157.46	10.08	-42.4	-47.3	10.0	7.57e-03	0	61	0	1150287872	56	6310
2026-01-13 22:45:17.13	157.56	10.00	-42.4	-47.3	10.1	6.94e-03	0	61	0	1152385024	56	6296
2026-01-13 22:45:18.14	157.65	9.93	-42.4	-47.3	10.0	8.59e-03	0	61	0	1154482176	56	6329
2026-01-13 22:45:19.14	157.73	9.85	-42.4	-47.5	9.8	9.74e-03	0	61	0	1155530752	56	6444
