passes_logs/2026/01/13/R2.0S_Moscow/R2.0S_Moscow__20260113_232328_NOAA_21_JPSS-2_rec.log

#Pass ID: 20260113_232328_NOAA 21 (JPSS-2)
#Satellite: NOAA 21 (JPSS-2)
#Configuration: NOAA-21
#almurnet v.1.7.20251203
#Start time: 2026-01-13 23:23:28

#Version: 2.2.20231116
#Station: R2.0S_Moscow
#Location: 37.707566 lon 55.798166 lat
#TLE: 1 54234U 22150A   26013.18009385  .00000056  00000+0  47387-4 0  9997
#TLE: 2 54234  98.7496 314.1019 0000691 303.8246  56.2864 14.19534466164559

#Time	Az	El	Level	Level2	SNR	BER	BlckErr	Temp	State	Recorded	gain1	gain2
2026-01-13 23:23:28.62	17.42	1.98	-41.7	-54.7	3.8	1.49e+00	0	58	0	0	55	15593
2026-01-13 23:23:29.64	17.43	2.05	-41.6	-54.6	3.8	1.49e+00	0	58	104	0	53	17409
2026-01-13 23:23:30.65	17.45	2.11	-41.6	-54.6	3.8	1.49e+00	0	58	104	0	53	17466
2026-01-13 23:23:31.66	17.47	2.18	-41.6	-54.6	3.8	1.49e+00	0	58	104	0	53	17358
2026-01-13 23:23:32.67	17.48	2.24	-41.6	-54.6	3.8	1.49e+00	0	58	104	0	53	17383
2026-01-13 23:23:33.68	17.50	2.30	-41.6	-54.6	3.8	1.49e+00	0	58	104	0	53	17427
2026-01-13 23:23:34.69	17.52	2.37	-41.6	-54.6	3.8	1.49e+00	0	58	104	0	53	17409
2026-01-13 23:23:35.70	17.53	2.43	-41.6	-54.6	3.8	1.49e+00	0	58	104	0	53	17434
2026-01-13 23:23:36.71	17.55	2.50	-41.6	-54.6	3.8	1.49e+00	0	58	104	0	53	17397
2026-01-13 23:23:37.72	17.57	2.56	-41.6	-54.6	3.8	1.49e+00	0	58	104	0	53	17394
2026-01-13 23:23:38.74	17.58	2.63	-41.6	-54.6	3.8	1.49e+00	0	58	104	0	53	17346
2026-01-13 23:23:39.75	17.60	2.70	-41.6	-54.6	3.8	1.49e+00	0	58	104	0	53	17364
2026-01-13 23:23:40.76	17.62	2.76	-41.6	-54.6	3.8	1.49e+00	0	58	104	0	53	17408
2026-01-13 23:23:41.77	17.63	2.83	-41.6	-54.6	3.8	1.49e+00	0	58	104	0	53	17408
2026-01-13 23:23:42.78	17.65	2.89	-41.6	-54.6	3.8	1.49e+00	0	58	104	0	53	17347
2026-01-13 23:23:43.79	17.67	2.96	-41.6	-54.6	3.8	1.49e+00	0	58	104	0	53	17367
2026-01-13 23:23:44.80	17.69	3.02	-41.6	-54.6	3.8	1.49e+00	0	58	104	0	53	17395
2026-01-13 23:23:45.81	17.70	3.09	-41.6	-54.6	3.8	1.49e+00	0	58	104	0	53	17396
2026-01-13 23:23:46.82	17.72	3.16	-41.6	-54.6	3.8	1.49e+00	0	58	104	0	53	17440
2026-01-13 23:23:47.83	17.74	3.22	-41.6	-54.6	3.8	1.49e+00	0	58	104	0	53	17405
2026-01-13 23:23:48.84	17.75	3.29	-41.6	-54.6	3.8	1.49e+00	0	58	104	0	53	17394
2026-01-13 23:23:49.85	17.77	3.36	-41.6	-54.6	3.8	1.49e+00	0	58	104	0	53	17409
2026-01-13 23:23:50.86	17.79	3.42	-41.6	-54.6	3.8	1.49e+00	0	58	104	0	53	17380
2026-01-13 23:23:51.87	17.81	3.49	-41.6	-54.6	3.8	1.49e+00	0	58	104	0	53	17352
2026-01-13 23:23:52.88	17.82	3.56	-41.6	-54.6	3.8	1.49e+00	0	58	104	0	53	17355
2026-01-13 23:23:53.89	17.84	3.63	-41.6	-54.6	3.8	1.49e+00	0	58	104	0	53	17400
2026-01-13 23:23:54.91	17.86	3.70	-41.6	-54.6	3.8	1.49e+00	0	58	104	0	53	17363
2026-01-13 23:23:55.91	17.88	3.76	-41.6	-54.6	3.8	1.49e+00	0	58	104	0	53	17357
2026-01-13 23:23:56.92	17.90	3.83	-41.6	-54.6	3.8	1.49e+00	0	58	104	0	53	17360
2026-01-13 23:23:57.94	17.91	3.90	-41.6	-54.6	3.8	1.49e+00	0	58	104	0	53	17346
2026-01-13 23:23:58.95	17.93	3.97	-41.6	-54.6	3.8	1.49e+00	0	58	104	0	53	17339
2026-01-13 23:23:59.96	17.95	4.04	-41.6	-54.6	3.8	1.49e+00	0	58	104	0	53	17289
2026-01-13 23:24:00.97	17.97	4.11	-41.6	-54.6	3.8	1.49e+00	0	59	104	0	53	17292
2026-01-13 23:24:01.98	17.99	4.17	-41.6	-54.6	3.8	1.49e+00	0	59	104	0	53	17330
2026-01-13 23:24:02.99	18.00	4.24	-41.6	-54.6	3.8	1.49e+00	0	58	104	0	53	17394
2026-01-13 23:24:04.00	18.02	4.31	-41.6	-54.6	3.8	1.49e+00	0	58	104	0	53	17367
2026-01-13 23:24:05.01	18.04	4.38	-41.6	-54.6	3.8	1.49e+00	0	59	104	0	53	17319
2026-01-13 23:24:06.02	18.06	4.45	-41.6	-54.6	3.8	1.49e+00	0	59	104	0	53	17316
2026-01-13 23:24:07.03	18.08	4.52	-41.6	-54.6	3.8	1.49e+00	0	59	104	0	53	17303
2026-01-13 23:24:08.05	18.10	4.59	-41.6	-54.6	3.8	1.49e+00	0	59	104	0	53	17336
2026-01-13 23:24:09.06	18.11	4.66	-41.6	-54.6	3.8	1.49e+00	0	58	104	0	53	17353
2026-01-13 23:24:10.07	18.13	4.73	-41.6	-54.6	3.8	1.49e+00	0	59	104	0	53	17393
2026-01-13 23:24:11.08	18.15	4.80	-41.6	-54.6	3.8	1.49e+00	0	59	104	0	53	17316
2026-01-13 23:24:12.09	18.17	4.88	-41.6	-54.6	3.8	1.49e+00	0	58	104	0	53	17373
2026-01-13 23:24:13.10	18.19	4.95	-41.6	-54.6	3.8	1.49e+00	0	59	104	0	53	17326
2026-01-13 23:24:14.11	18.21	5.02	-41.6	-54.6	3.8	1.49e+00	0	59	104	0	53	17290
2026-01-13 23:24:15.12	18.23	5.09	-41.6	-54.6	3.8	1.49e+00	0	59	104	0	53	17376
2026-01-13 23:24:16.13	18.25	5.16	-41.6	-54.6	3.8	1.49e+00	0	59	104	0	53	17362
2026-01-13 23:24:17.14	18.27	5.23	-41.6	-54.6	3.8	1.49e+00	0	59	104	0	53	17314
2026-01-13 23:24:18.15	18.28	5.30	-41.6	-54.6	3.8	1.49e+00	0	59	104	0	53	17393
2026-01-13 23:24:19.16	18.30	5.38	-41.6	-54.6	3.8	1.49e+00	0	59	104	0	53	17295
2026-01-13 23:24:20.17	18.32	5.45	-41.6	-54.6	3.8	1.49e+00	0	59	104	0	53	17326
2026-01-13 23:24:21.18	18.34	5.52	-41.6	-54.6	3.8	1.49e+00	0	59	104	0	53	17304
2026-01-13 23:24:22.19	18.36	5.59	-41.6	-54.6	3.8	1.49e+00	0	59	104	0	53	17344
2026-01-13 23:24:23.21	18.38	5.67	-41.6	-54.6	3.8	1.49e+00	0	59	104	0	53	17358
2026-01-13 23:24:24.22	18.40	5.74	-41.6	-54.6	3.8	1.49e+00	0	59	104	0	53	17327
2026-01-13 23:24:25.23	18.42	5.81	-41.6	-54.6	3.8	1.49e+00	0	59	104	0	53	17290
2026-01-13 23:24:26.24	18.44	5.89	-41.6	-54.6	3.8	1.49e+00	0	59	104	0	53	17356
2026-01-13 23:24:27.25	18.46	5.96	-41.6	-54.6	3.8	1.49e+00	0	59	104	0	53	17307
2026-01-13 23:24:28.26	18.48	6.03	-41.6	-54.6	3.8	1.49e+00	0	59	104	0	53	17337
2026-01-13 23:24:29.27	18.50	6.11	-41.6	-54.6	3.8	1.49e+00	0	59	104	0	53	17294
2026-01-13 23:24:30.28	18.52	6.18	-41.6	-54.6	3.8	1.49e+00	0	59	104	0	53	17299
2026-01-13 23:24:31.29	18.54	6.26	-41.6	-54.6	3.8	1.49e+00	0	59	104	0	53	17343
2026-01-13 23:24:32.30	18.56	6.33	-41.6	-54.6	3.8	1.49e+00	0	59	104	0	53	17310
2026-01-13 23:24:33.31	18.58	6.41	-41.6	-54.6	3.8	1.49e+00	0	59	104	0	53	17297
2026-01-13 23:24:34.32	18.60	6.48	-41.6	-54.6	3.8	1.49e+00	0	59	104	0	53	17341
2026-01-13 23:24:35.33	18.62	6.56	-41.6	-54.6	3.8	1.49e+00	0	59	104	0	53	17337
2026-01-13 23:24:36.34	18.64	6.63	-41.6	-54.6	3.8	1.49e+00	0	59	104	0	53	17333
2026-01-13 23:24:37.35	18.66	6.71	-41.6	-54.6	3.8	1.49e+00	0	59	104	0	53	17318
2026-01-13 23:24:38.37	18.69	6.79	-41.6	-54.5	3.8	1.49e+00	0	59	104	0	53	17274
2026-01-13 23:24:39.38	18.71	6.86	-41.6	-54.5	3.8	1.49e+00	0	59	104	0	53	17154
2026-01-13 23:24:40.39	18.73	6.94	-41.6	-54.5	3.8	1.49e+00	0	59	104	0	53	17123
2026-01-13 23:24:41.40	18.75	7.02	-41.6	-54.5	3.8	1.49e+00	0	59	104	0	53	17100
2026-01-13 23:24:42.41	18.77	7.09	-41.6	-54.4	3.8	1.49e+00	0	59	104	0	53	16971
2026-01-13 23:24:43.42	18.79	7.17	-41.6	-54.4	3.8	1.49e+00	0	59	104	0	53	16995
2026-01-13 23:24:44.43	18.81	7.25	-41.6	-54.4	3.8	1.49e+00	0	59	104	0	53	16895
2026-01-13 23:24:45.44	18.83	7.33	-41.6	-54.2	3.8	1.49e+00	0	59	104	0	53	16682
2026-01-13 23:24:46.45	18.85	7.40	-41.6	-54.1	3.8	1.49e+00	0	59	104	0	53	16421
2026-01-13 23:24:47.46	18.88	7.48	-41.6	-54.0	3.8	1.49e+00	0	60	104	0	53	16170
2026-01-13 23:24:48.47	18.90	7.56	-41.6	-53.8	3.8	1.49e+00	0	59	104	0	53	15783
2026-01-13 23:24:49.48	18.92	7.64	-41.5	-53.5	3.8	1.49e+00	0	59	104	0	53	15252
2026-01-13 23:24:50.49	18.94	7.72	-41.5	-53.2	3.8	1.49e+00	0	59	104	0	53	14864
2026-01-13 23:24:51.50	18.96	7.80	-41.4	-52.9	3.8	1.49e+00	0	60	104	0	53	14365
2026-01-13 23:24:52.51	18.99	7.88	-41.4	-52.0	3.9	1.48e+00	0	59	104	0	53	12945
2026-01-13 23:24:53.53	19.01	7.96	-41.3	-51.7	3.9	1.47e+00	0	59	104	0	53	12388
2026-01-13 23:24:54.54	19.03	8.04	-41.1	-50.0	4.5	1.40e+00	4	60	104	0	53	10241
2026-01-13 23:24:55.55	19.05	8.12	-41.3	-48.8	5.3	6.52e-01	0	59	0	0	53	8911
2026-01-13 23:24:56.56	19.08	8.20	-41.6	-50.8	4.0	7.08e-01	2	60	104	3145728	54	10541
2026-01-13 23:24:57.57	19.10	8.28	-40.6	-47.2	4.4	1.49e+00	0	59	104	3145728	53	7387
2026-01-13 23:24:58.58	19.12	8.36	-42.0	-48.7	5.8	2.36e-01	0	60	0	5242880	54	8354
2026-01-13 23:24:59.59	19.14	8.44	-40.1	-44.7	9.1	3.54e-01	0	59	0	5242880	52	5881
2026-01-13 23:25:00.60	19.17	8.52	-40.4	-46.2	7.2	9.86e-01	0	60	104	6291456	52	6995
2026-01-13 23:25:01.61	19.19	8.60	-40.1	-44.7	9.1	2.09e-02	0	60	0	8388608	52	5880
2026-01-13 23:25:02.62	19.21	8.68	-40.3	-45.1	8.7	3.01e-02	0	60	0	11534336	52	6183
2026-01-13 23:25:03.63	19.24	8.77	-40.6	-45.7	8.2	5.39e-02	0	60	0	15728640	52	6573
2026-01-13 23:25:04.64	19.26	8.85	-40.8	-45.8	8.2	6.54e-02	0	60	0	18874368	52	6651
2026-01-13 23:25:05.65	19.28	8.93	-40.6	-45.2	8.9	3.50e-02	0	60	0	22020096	52	6227
2026-01-13 23:25:06.66	19.31	9.02	-40.6	-44.9	9.2	2.12e-02	0	60	0	25165824	52	6056
2026-01-13 23:25:07.67	19.33	9.10	-40.7	-45.0	9.2	2.37e-02	0	60	0	27262976	52	6094
2026-01-13 23:25:08.67	19.35	9.18	-40.7	-44.8	9.4	1.73e-02	0	60	0	31457280	52	5978
2026-01-13 23:25:09.68	19.38	9.27	-40.6	-44.6	9.7	1.33e-02	0	60	0	34603008	52	5815
2026-01-13 23:25:10.69	19.40	9.35	-40.7	-44.7	9.6	1.27e-02	0	60	0	37748736	52	5902
2026-01-13 23:25:11.70	19.42	9.43	-40.8	-44.7	9.6	1.06e-02	0	60	0	40894464	52	5872
2026-01-13 23:25:12.71	19.45	9.52	-40.8	-44.8	9.6	1.29e-02	0	60	0	44040192	52	5925
2026-01-13 23:25:13.72	19.47	9.60	-40.8	-44.6	9.7	1.06e-02	0	60	0	47185920	52	5853
2026-01-13 23:25:14.73	19.50	9.69	-40.8	-44.6	9.8	9.77e-03	0	60	0	50331648	52	5823
2026-01-13 23:25:15.74	19.52	9.77	-41.0	-44.9	9.6	1.26e-02	0	60	0	53477376	52	6015
2026-01-13 23:25:16.75	19.55	9.86	-40.8	-44.5	10.0	8.77e-03	0	60	0	56623104	52	5765
2026-01-13 23:25:17.76	19.57	9.95	-40.8	-44.5	10.0	8.25e-03	0	60	0	59768832	52	5760
2026-01-13 23:25:18.77	19.60	10.03	-40.9	-44.6	9.9	8.21e-03	0	60	0	62914560	52	5845
2026-01-13 23:25:19.78	19.62	10.12	-40.8	-44.5	10.1	8.02e-03	0	60	0	66060288	52	5738
2026-01-13 23:25:20.79	19.65	10.21	-41.1	-45.0	9.6	1.07e-02	0	60	0	69206016	52	6075
2026-01-13 23:25:21.80	19.67	10.29	-40.7	-44.3	10.4	5.78e-03	0	60	0	72351744	52	5602
2026-01-13 23:25:22.81	19.70	10.38	-40.8	-44.4	10.3	5.65e-03	0	60	0	75497472	52	5671
2026-01-13 23:25:23.83	19.72	10.47	-40.8	-44.4	10.3	5.08e-03	0	60	0	78643200	52	5658
2026-01-13 23:25:24.83	19.75	10.56	-40.7	-44.2	10.5	3.84e-03	0	60	0	81788928	52	5556
2026-01-13 23:25:25.84	19.77	10.65	-40.7	-44.2	10.6	4.61e-03	0	60	0	84934656	52	5543
2026-01-13 23:25:26.85	19.80	10.74	-40.7	-44.1	10.7	2.85e-03	0	60	0	88080384	52	5487
2026-01-13 23:25:27.86	19.82	10.82	-40.7	-44.1	10.7	3.10e-03	0	60	0	91226112	52	5526
2026-01-13 23:25:28.87	19.85	10.91	-40.7	-44.1	10.7	2.90e-03	0	60	0	94371840	52	5474
2026-01-13 23:25:29.88	19.88	11.00	-40.7	-44.0	10.8	2.54e-03	0	60	0	97517568	52	5434
2026-01-13 23:25:30.89	19.90	11.09	-40.7	-43.9	10.9	2.17e-03	0	60	0	100663296	52	5392
2026-01-13 23:25:31.90	19.93	11.18	-40.7	-44.0	10.9	2.13e-03	0	60	0	103809024	52	5441
2026-01-13 23:25:32.91	19.96	11.28	-40.6	-43.8	11.1	1.93e-03	0	60	0	106954752	52	5312
2026-01-13 23:25:33.92	19.98	11.37	-40.6	-43.7	11.2	1.56e-03	0	60	0	110100480	52	5271
2026-01-13 23:25:34.93	20.01	11.46	-40.6	-43.7	11.2	1.32e-03	0	60	0	113246208	52	5279
2026-01-13 23:25:35.94	20.04	11.55	-40.6	-43.7	11.2	1.30e-03	0	60	0	116391936	52	5270
2026-01-13 23:25:36.95	20.06	11.64	-40.6	-43.7	11.3	1.22e-03	0	60	0	119537664	52	5235
2026-01-13 23:25:37.97	20.09	11.74	-40.5	-43.6	11.4	1.08e-03	0	60	0	122683392	52	5194
2026-01-13 23:25:38.98	20.12	11.83	-40.5	-43.6	11.5	8.60e-04	0	60	0	125829120	52	5168
2026-01-13 23:25:39.99	20.15	11.92	-40.5	-43.6	11.5	1.02e-03	0	60	0	128974848	52	5164
2026-01-13 23:25:41.00	20.18	12.02	-40.5	-43.5	11.5	8.88e-04	0	60	0	132120576	52	5140
2026-01-13 23:25:42.01	20.20	12.11	-40.5	-43.5	11.6	7.65e-04	0	60	0	135266304	52	5112
2026-01-13 23:25:43.02	20.23	12.20	-40.5	-43.5	11.6	6.99e-04	0	60	0	138412032	52	5130
2026-01-13 23:25:44.03	20.26	12.30	-40.5	-43.4	11.7	6.87e-04	0	60	0	141557760	52	5076
2026-01-13 23:25:45.04	20.29	12.39	-40.5	-43.5	11.6	7.06e-04	0	60	0	144703488	52	5112
2026-01-13 23:25:46.05	20.32	12.49	-40.5	-43.4	11.7	6.02e-04	0	60	0	147849216	52	5098
2026-01-13 23:25:47.06	20.35	12.59	-40.4	-43.3	11.8	5.16e-04	0	60	0	150994944	52	5035
2026-01-13 23:25:48.07	20.37	12.68	-40.4	-43.3	11.9	4.68e-04	0	60	0	154140672	52	4998
2026-01-13 23:25:49.08	20.40	12.78	-40.4	-43.2	11.9	3.51e-04	0	60	0	157286400	52	4976
2026-01-13 23:25:50.09	20.43	12.88	-40.4	-43.3	11.9	4.31e-04	0	60	0	160432128	52	5004
2026-01-13 23:25:51.10	20.46	12.97	-40.4	-43.3	11.9	3.92e-04	0	60	0	163577856	52	5020
2026-01-13 23:25:52.11	20.49	13.07	-40.4	-43.3	11.9	3.84e-04	0	60	0	166723584	52	5017
2026-01-13 23:25:53.12	20.52	13.17	-40.4	-43.3	11.9	3.84e-04	0	60	0	169869312	52	5016
2026-01-13 23:25:54.13	20.55	13.27	-40.4	-43.2	12.0	3.42e-04	0	60	0	173015040	52	4982
2026-01-13 23:25:55.14	20.58	13.37	-40.4	-43.3	11.9	3.45e-04	0	60	0	176160768	52	5001
2026-01-13 23:25:56.15	20.61	13.47	-40.4	-43.2	12.0	3.50e-04	0	60	0	179306496	52	4958
2026-01-13 23:25:57.15	20.64	13.56	-40.4	-43.2	12.1	3.27e-04	0	60	0	182452224	52	4941
2026-01-13 23:25:58.16	20.67	13.66	-40.4	-43.3	12.0	3.31e-04	0	60	0	185597952	52	4986
2026-01-13 23:25:59.17	20.70	13.76	-40.4	-43.2	12.0	3.16e-04	0	60	0	188743680	52	4970
2026-01-13 23:26:00.18	20.73	13.87	-40.4	-43.2	12.0	3.28e-04	0	60	0	191889408	52	4966
2026-01-13 23:26:01.19	20.76	13.97	-40.4	-43.3	12.0	3.20e-04	0	60	0	195035136	52	5010
2026-01-13 23:26:02.20	20.80	14.07	-40.4	-43.2	12.0	3.24e-04	0	60	0	198180864	52	4978
2026-01-13 23:26:03.21	20.83	14.17	-40.5	-43.3	12.0	3.22e-04	0	60	0	201326592	52	5016
2026-01-13 23:26:04.22	20.86	14.27	-40.4	-43.3	12.0	3.11e-04	0	60	0	204472320	52	4999
2026-01-13 23:26:05.23	20.89	14.38	-40.5	-43.3	12.0	3.14e-04	0	60	0	207618048	52	5008
2026-01-13 23:26:06.24	20.92	14.48	-40.5	-43.3	12.0	2.84e-04	0	60	0	210763776	52	5007
2026-01-13 23:26:07.25	20.96	14.58	-40.5	-43.3	12.0	3.20e-04	0	60	0	213909504	52	4997
2026-01-13 23:26:08.26	20.99	14.69	-40.5	-43.3	12.0	3.03e-04	0	60	0	217055232	52	5011
2026-01-13 23:26:09.27	21.02	14.79	-40.5	-43.3	12.1	3.00e-04	0	60	0	220200960	52	4987
2026-01-13 23:26:10.28	21.05	14.90	-40.5	-43.3	12.0	2.86e-04	0	60	0	223346688	52	5003
2026-01-13 23:26:11.29	21.09	15.00	-40.5	-43.3	12.1	2.65e-04	0	60	0	226492416	52	4989
2026-01-13 23:26:12.30	21.12	15.11	-40.5	-43.2	12.1	2.45e-04	0	60	0	229638144	52	4980
2026-01-13 23:26:13.30	21.15	15.22	-40.5	-43.3	12.0	2.60e-04	0	60	0	232783872	52	5028
2026-01-13 23:26:14.32	21.19	15.32	-40.5	-43.4	12.0	3.11e-04	0	60	0	235929600	52	5047
2026-01-13 23:26:15.33	21.22	15.43	-40.6	-43.4	12.0	3.40e-04	0	60	0	239075328	52	5067
2026-01-13 23:26:16.34	21.25	15.54	-40.6	-43.5	11.9	3.92e-04	0	60	0	242221056	52	5113
2026-01-13 23:26:17.35	21.29	15.65	-40.6	-43.5	11.9	3.85e-04	0	60	0	245366784	52	5142
2026-01-13 23:26:18.36	21.32	15.76	-40.6	-43.5	11.9	3.46e-04	0	60	0	248512512	52	5113
2026-01-13 23:26:19.37	21.36	15.87	-40.7	-43.5	11.9	3.61e-04	0	60	0	251658240	52	5148
2026-01-13 23:26:20.38	21.39	15.98	-40.7	-43.5	11.9	3.99e-04	0	60	0	254803968	52	5154
2026-01-13 23:26:21.39	21.43	16.09	-40.7	-43.6	11.9	4.17e-04	0	60	0	257949696	52	5161
2026-01-13 23:26:22.40	21.46	16.20	-40.7	-43.6	11.9	3.61e-04	0	60	0	261095424	52	5164
2026-01-13 23:26:23.41	21.50	16.31	-40.7	-43.6	11.9	3.81e-04	0	60	0	264241152	52	5191
2026-01-13 23:26:24.42	21.54	16.42	-40.7	-43.6	11.9	3.92e-04	0	60	0	267386880	52	5166
2026-01-13 23:26:25.43	21.57	16.53	-40.7	-43.5	11.9	3.84e-04	0	60	0	270532608	52	5155
2026-01-13 23:26:26.44	21.61	16.65	-40.7	-43.6	11.9	3.86e-04	0	60	0	273678336	52	5170
2026-01-13 23:26:27.45	21.64	16.76	-40.7	-43.5	12.0	3.04e-04	0	60	0	276824064	52	5127
2026-01-13 23:26:28.46	21.68	16.87	-40.6	-43.4	12.0	2.99e-04	0	60	0	279969792	52	5098
2026-01-13 23:26:29.47	21.72	16.99	-40.6	-43.4	12.1	2.71e-04	0	60	0	283115520	52	5082
2026-01-13 23:26:30.48	21.76	17.10	-40.7	-43.4	12.1	2.52e-04	0	60	0	286261248	52	5093
2026-01-13 23:26:31.49	21.79	17.22	-40.6	-43.4	12.2	2.56e-04	0	60	0	289406976	52	5071
2026-01-13 23:26:32.50	21.83	17.33	-40.6	-43.3	12.2	2.39e-04	0	60	0	292552704	52	5031
2026-01-13 23:26:33.51	21.87	17.45	-40.6	-43.4	12.2	2.26e-04	0	60	0	295698432	52	5054
2026-01-13 23:26:34.52	21.91	17.57	-40.6	-43.4	12.2	2.29e-04	0	60	0	298844160	52	5052
2026-01-13 23:26:35.53	21.95	17.69	-40.7	-43.5	12.1	2.20e-04	0	60	0	301989888	52	5103
2026-01-13 23:26:36.55	21.99	17.81	-40.6	-43.4	12.2	2.30e-04	0	60	0	305135616	52	5055
2026-01-13 23:26:37.56	22.03	17.93	-40.6	-43.3	12.3	1.93e-04	0	60	0	308281344	52	5018
2026-01-13 23:26:38.57	22.07	18.04	-40.6	-43.3	12.3	1.81e-04	0	60	0	311427072	52	5028
2026-01-13 23:26:39.58	22.10	18.16	-40.6	-43.3	12.3	1.68e-04	0	60	0	315621376	52	5020
2026-01-13 23:26:40.59	22.14	18.29	-40.6	-43.2	12.4	1.72e-04	0	60	0	318767104	52	4983
2026-01-13 23:26:41.60	22.19	18.41	-40.5	-43.2	12.4	1.57e-04	0	60	0	320864256	52	4978
2026-01-13 23:26:42.61	22.23	18.53	-40.5	-43.2	12.4	1.51e-04	0	60	0	324009984	52	4975
2026-01-13 23:26:43.62	22.27	18.65	-40.5	-43.2	12.4	1.50e-04	0	60	0	327155712	52	4975
2026-01-13 23:26:44.63	22.31	18.77	-40.5	-43.1	12.5	1.20e-04	0	60	0	331350016	52	4911
2026-01-13 23:26:45.64	22.35	18.90	-40.5	-43.1	12.6	9.68e-05	0	60	0	334495744	52	4885
2026-01-13 23:26:46.65	22.39	19.02	-40.4	-43.0	12.6	9.76e-05	0	60	0	337641472	52	4864
2026-01-13 23:26:47.66	22.43	19.15	-40.4	-43.0	12.6	8.69e-05	0	60	0	340787200	52	4862
2026-01-13 23:26:48.67	22.48	19.27	-40.4	-43.0	12.7	7.01e-05	0	60	0	342884352	52	4834
2026-01-13 23:26:49.68	22.52	19.40	-40.4	-42.9	12.8	6.71e-05	0	60	0	347078656	52	4781
2026-01-13 23:26:50.69	22.56	19.52	-40.4	-42.9	12.8	6.63e-05	0	60	0	350224384	52	4792
2026-01-13 23:26:51.70	22.61	19.65	-40.4	-42.9	12.8	8.08e-05	0	60	0	353370112	52	4813
2026-01-13 23:26:52.71	22.65	19.78	-40.4	-42.9	12.8	5.95e-05	0	60	0	356515840	52	4810
2026-01-13 23:26:53.72	22.69	19.91	-40.3	-42.9	12.8	7.32e-05	0	60	0	359661568	52	4781
2026-01-13 23:26:54.73	22.74	20.04	-40.3	-42.8	12.9	4.50e-05	0	60	0	362807296	52	4741
2026-01-13 23:26:55.74	22.78	20.17	-40.3	-42.8	13.0	4.27e-05	0	60	0	365953024	52	4710
2026-01-13 23:26:56.75	22.83	20.30	-40.3	-42.7	13.0	3.81e-05	0	60	0	369098752	52	4691
2026-01-13 23:26:57.76	22.87	20.43	-40.2	-42.7	13.1	3.20e-05	0	60	0	372244480	52	4662
2026-01-13 23:26:58.77	22.92	20.56	-40.2	-42.6	13.2	3.12e-05	0	60	0	375390208	52	4625
2026-01-13 23:26:59.78	22.96	20.69	-40.2	-42.7	13.1	2.89e-05	0	60	0	378535936	52	4663
2026-01-13 23:27:00.79	23.01	20.83	-40.1	-42.5	13.2	3.12e-05	0	60	0	381681664	52	4597
2026-01-13 23:27:01.80	23.06	20.96	-40.1	-42.5	13.3	1.37e-05	0	60	0	384827392	52	4554
2026-01-13 23:27:02.81	23.11	21.10	-40.1	-42.5	13.3	1.83e-05	0	60	0	387973120	52	4550
2026-01-13 23:27:03.82	23.15	21.23	-40.0	-42.4	13.4	1.29e-05	0	60	0	391118848	52	4517
2026-01-13 23:27:04.83	23.20	21.37	-40.0	-42.4	13.4	9.10e-06	0	60	0	394264576	52	4505
2026-01-13 23:27:05.84	23.25	21.51	-40.0	-42.4	13.4	1.37e-05	0	60	0	397410304	52	4516
2026-01-13 23:27:06.85	23.30	21.64	-40.0	-42.3	13.6	1.22e-05	0	61	0	400556032	51	4741
2026-01-13 23:27:07.86	23.35	21.78	-40.1	-42.4	13.5	1.44e-05	0	60	0	403701760	51	4762
2026-01-13 23:27:08.87	23.40	21.92	-40.0	-42.3	13.6	6.80e-06	0	60	0	406847488	51	4727
2026-01-13 23:27:09.87	23.45	22.06	-40.0	-42.3	13.6	6.80e-06	0	60	0	409993216	51	4719
2026-01-13 23:27:10.89	23.50	22.20	-39.9	-42.1	13.8	3.00e-06	0	60	0	413138944	51	4621
2026-01-13 23:27:11.90	23.55	22.34	-39.9	-42.1	13.9	1.50e-06	0	60	0	416284672	51	4608
2026-01-13 23:27:12.91	23.60	22.48	-39.8	-42.0	13.9	3.00e-06	0	60	0	419430400	51	4554
2026-01-13 23:27:13.92	23.65	22.63	-39.8	-41.9	14.0	7.00e-07	0	60	0	422576128	51	4541
2026-01-13 23:27:14.93	23.70	22.77	-39.7	-41.9	14.0	1.50e-06	0	61	0	425721856	51	4508
2026-01-13 23:27:15.94	23.76	22.92	-39.7	-41.9	14.0	2.20e-06	0	60	0	428867584	51	4521
2026-01-13 23:27:16.95	23.81	23.06	-39.7	-41.8	14.1	3.80e-06	0	61	0	432013312	51	4472
2026-01-13 23:27:17.96	23.86	23.21	-39.6	-41.8	14.2	7.00e-07	0	60	0	435159040	51	4443
2026-01-13 23:27:18.97	23.92	23.35	-39.6	-41.7	14.3	0.00e+00	0	60	0	438304768	51	4396
2026-01-13 23:27:19.98	23.97	23.50	-39.6	-41.7	14.3	7.00e-07	0	61	0	441450496	51	4396
2026-01-13 23:27:20.99	24.03	23.65	-39.6	-41.7	14.3	2.20e-06	0	60	0	444596224	51	4399
2026-01-13 23:27:22.00	24.08	23.80	-39.6	-41.6	14.3	0.00e+00	0	61	0	447741952	51	4384
2026-01-13 23:27:23.01	24.14	23.95	-39.6	-41.7	14.3	1.50e-06	0	60	0	450887680	51	4393
2026-01-13 23:27:24.02	24.19	24.10	-39.6	-41.7	14.3	2.20e-06	0	60	0	454033408	51	4419
2026-01-13 23:27:25.03	24.25	24.25	-39.5	-41.6	14.4	1.50e-06	0	60	0	457179136	51	4344
2026-01-13 23:27:26.04	24.31	24.41	-39.5	-41.5	14.4	0.00e+00	0	61	0	460324864	50	4590
2026-01-13 23:27:27.05	24.37	24.56	-39.5	-41.6	14.4	0.00e+00	0	60	0	463470592	50	4604
2026-01-13 23:27:28.06	24.43	24.71	-39.6	-41.6	14.4	0.00e+00	0	60	0	466616320	50	4646
2026-01-13 23:27:29.08	24.48	24.87	-39.6	-41.7	14.3	7.00e-07	0	60	0	469762048	50	4666
2026-01-13 23:27:30.09	24.54	25.03	-39.7	-41.9	14.1	7.00e-07	0	60	0	472907776	50	4761
2026-01-13 23:27:31.10	24.60	25.18	-39.7	-41.9	14.1	7.00e-07	0	60	0	476053504	50	4772
2026-01-13 23:27:32.11	24.67	25.34	-39.9	-42.1	13.9	2.20e-06	0	60	0	479199232	50	4877
2026-01-13 23:27:33.12	24.73	25.50	-39.9	-42.1	13.9	7.60e-06	0	60	0	482344960	50	4892
2026-01-13 23:27:34.13	24.79	25.66	-40.0	-42.2	13.8	3.80e-06	0	60	0	485490688	50	4952
2026-01-13 23:27:35.14	24.85	25.82	-40.0	-42.3	13.7	5.30e-06	0	60	0	488636416	50	4992
2026-01-13 23:27:36.15	24.91	25.99	-40.1	-42.4	13.6	6.10e-06	0	61	0	491782144	50	5082
2026-01-13 23:27:37.16	24.98	26.15	-40.2	-42.5	13.5	9.10e-06	0	61	0	494927872	50	5149
2026-01-13 23:27:38.17	25.04	26.31	-40.3	-42.7	13.4	9.90e-06	0	61	0	498073600	51	4929
2026-01-13 23:27:39.18	25.11	26.48	-40.3	-42.7	13.3	1.75e-05	0	60	0	501219328	51	4963
2026-01-13 23:27:40.19	25.17	26.64	-40.4	-42.8	13.2	3.66e-05	0	60	0	504365056	51	5024
2026-01-13 23:27:41.20	25.24	26.81	-40.4	-42.8	13.2	3.35e-05	0	60	0	507510784	51	5034
2026-01-13 23:27:42.21	25.31	26.98	-40.4	-42.9	13.1	2.36e-05	0	60	0	510656512	51	5051
2026-01-13 23:27:43.22	25.37	27.15	-40.4	-42.8	13.2	2.13e-05	0	61	0	513802240	51	5034
2026-01-13 23:27:44.23	25.44	27.32	-40.5	-43.0	13.1	3.58e-05	0	61	0	516947968	51	5109
2026-01-13 23:27:45.24	25.51	27.49	-40.6	-43.0	13.0	4.50e-05	0	60	0	520093696	51	5155
2026-01-13 23:27:46.25	25.58	27.66	-40.6	-43.2	12.8	4.88e-05	0	61	0	523239424	51	5233
2026-01-13 23:27:47.26	25.65	27.83	-40.7	-43.2	12.7	6.63e-05	0	61	0	526385152	52	4964
2026-01-13 23:27:48.27	25.72	28.01	-40.7	-43.3	12.6	8.69e-05	0	61	0	529530880	52	5038
2026-01-13 23:27:49.28	25.79	28.18	-40.8	-43.5	12.5	1.09e-04	0	61	0	532676608	52	5128
2026-01-13 23:27:50.28	25.86	28.36	-40.9	-43.5	12.4	1.23e-04	0	60	0	535822336	52	5151
2026-01-13 23:27:51.29	25.94	28.53	-40.9	-43.6	12.4	1.59e-04	0	61	0	538968064	52	5172
2026-01-13 23:27:52.30	26.01	28.71	-41.0	-43.7	12.2	2.10e-04	0	60	0	542113792	52	5247
2026-01-13 23:27:53.31	26.09	28.89	-41.0	-43.8	12.2	2.15e-04	0	60	0	545259520	52	5295
2026-01-13 23:27:54.32	26.16	29.07	-41.1	-43.8	12.1	2.49e-04	0	60	0	548405248	52	5320
2026-01-13 23:27:55.33	26.24	29.25	-41.0	-43.8	12.2	1.98e-04	0	61	0	551550976	52	5307
2026-01-13 23:27:56.34	26.32	29.43	-41.0	-43.7	12.2	2.30e-04	0	61	0	554696704	52	5274
2026-01-13 23:27:57.35	26.39	29.62	-40.9	-43.7	12.4	1.91e-04	0	60	0	557842432	52	5223
2026-01-13 23:27:58.36	26.47	29.80	-40.8	-43.4	12.6	1.12e-04	0	61	0	560988160	52	5088
2026-01-13 23:27:59.37	26.55	29.99	-40.7	-43.3	12.7	8.69e-05	0	61	0	564133888	52	5027
2026-01-13 23:28:00.38	26.63	30.18	-40.7	-43.2	12.8	7.78e-05	0	61	0	567279616	52	4981
2026-01-13 23:28:01.39	26.71	30.37	-40.5	-43.0	13.0	3.73e-05	0	61	0	570425344	52	4841
2026-01-13 23:28:02.40	26.80	30.56	-40.4	-42.8	13.3	2.28e-05	0	61	0	573571072	52	4721
2026-01-13 23:28:03.42	26.88	30.75	-40.2	-42.6	13.5	1.52e-05	0	61	0	576716800	52	4621
2026-01-13 23:28:04.43	26.96	30.94	-40.1	-42.4	13.6	6.10e-06	0	61	0	579862528	52	4517
2026-01-13 23:28:05.44	27.05	31.13	-40.1	-42.4	13.6	6.10e-06	0	61	0	583008256	52	4525
2026-01-13 23:28:06.44	27.14	31.33	-40.1	-42.3	13.7	5.30e-06	0	61	0	586153984	52	4490
2026-01-13 23:28:07.45	27.22	31.52	-40.1	-42.4	13.6	4.50e-06	0	60	0	589299712	52	4505
2026-01-13 23:28:08.46	27.31	31.72	-40.1	-42.4	13.6	5.30e-06	0	61	0	592445440	52	4535
2026-01-13 23:28:09.47	27.40	31.92	-40.1	-42.4	13.6	9.10e-06	0	61	0	595591168	52	4543
2026-01-13 23:28:10.48	27.49	32.12	-40.2	-42.5	13.5	9.10e-06	0	60	0	598736896	52	4565
2026-01-13 23:28:11.49	27.58	32.32	-40.2	-42.6	13.4	1.29e-05	0	60	0	601882624	52	4614
2026-01-13 23:28:12.50	27.67	32.52	-40.3	-42.7	13.3	1.60e-05	0	61	0	605028352	52	4656
2026-01-13 23:28:13.52	27.77	32.73	-40.4	-42.9	13.1	2.51e-05	0	61	0	608174080	52	4769
2026-01-13 23:28:14.53	27.86	32.93	-40.5	-43.0	13.0	2.28e-05	0	61	0	612368384	52	4829
2026-01-13 23:28:15.54	27.96	33.14	-40.6	-43.1	12.9	4.57e-05	0	61	0	614465536	52	4902
2026-01-13 23:28:16.55	28.06	33.35	-40.7	-43.2	12.8	5.03e-05	0	61	0	617611264	52	4956
2026-01-13 23:28:17.56	28.16	33.55	-40.7	-43.2	12.8	4.73e-05	0	61	0	620756992	52	4953
2026-01-13 23:28:18.57	28.25	33.76	-40.7	-43.2	12.8	5.56e-05	0	60	0	623902720	52	4942
2026-01-13 23:28:19.58	28.36	33.98	-40.7	-43.2	12.8	6.25e-05	0	61	0	628097024	52	4976
2026-01-13 23:28:20.59	28.46	34.19	-40.7	-43.3	12.8	7.09e-05	0	61	0	631242752	52	4985
2026-01-13 23:28:21.60	28.56	34.40	-40.9	-43.5	12.5	1.29e-04	0	61	0	634388480	52	5158
2026-01-13 23:28:22.61	28.67	34.62	-41.0	-43.8	12.3	1.81e-04	0	61	0	636485632	52	5282
2026-01-13 23:28:23.62	28.77	34.84	-41.2	-44.0	12.1	2.32e-04	0	61	0	639631360	52	5412
2026-01-13 23:28:24.63	28.88	35.05	-41.2	-44.1	12.0	3.30e-04	0	61	0	643825664	53	5165
2026-01-13 23:28:25.64	28.99	35.27	-41.3	-44.2	11.9	3.74e-04	0	61	0	646971392	53	5233
2026-01-13 23:28:26.65	29.10	35.50	-41.3	-44.2	11.8	3.91e-04	0	60	0	650117120	53	5258
2026-01-13 23:28:27.66	29.21	35.72	-41.3	-44.1	11.9	4.60e-04	0	61	0	653262848	53	5214
2026-01-13 23:28:28.67	29.32	35.94	-41.3	-44.2	11.9	4.45e-04	0	61	0	656408576	53	5219
2026-01-13 23:28:29.68	29.44	36.17	-41.4	-44.4	11.7	5.51e-04	0	61	0	659554304	53	5345
2026-01-13 23:28:30.69	29.55	36.40	-41.5	-44.4	11.6	6.05e-04	0	61	0	662700032	53	5401
2026-01-13 23:28:31.70	29.67	36.62	-41.5	-44.5	11.6	7.15e-04	0	60	0	665845760	53	5413
2026-01-13 23:28:32.71	29.79	36.85	-41.4	-44.4	11.7	5.74e-04	0	61	0	668991488	53	5352
2026-01-13 23:28:33.72	29.91	37.09	-41.4	-44.4	11.7	5.90e-04	0	60	0	672137216	53	5349
2026-01-13 23:28:34.73	30.03	37.32	-41.3	-44.2	11.9	4.16e-04	0	61	0	675282944	53	5245
2026-01-13 23:28:35.74	30.16	37.55	-41.3	-44.1	12.0	3.53e-04	0	61	0	678428672	53	5171
2026-01-13 23:28:36.75	30.29	37.79	-41.3	-44.1	12.0	3.26e-04	0	61	0	681574400	53	5185
2026-01-13 23:28:37.76	30.41	38.03	-41.3	-44.1	12.0	3.45e-04	0	61	0	684720128	53	5183
2026-01-13 23:28:38.77	30.54	38.27	-41.2	-44.0	12.0	3.46e-04	0	60	0	687865856	53	5159
2026-01-13 23:28:39.78	30.67	38.51	-41.2	-44.0	12.0	3.81e-04	0	60	0	691011584	53	5138
2026-01-13 23:28:40.79	30.81	38.75	-41.3	-44.1	11.9	3.52e-04	0	61	0	694157312	53	5184
2026-01-13 23:28:41.80	30.94	39.00	-41.4	-44.2	11.8	4.59e-04	0	61	0	697303040	53	5277
2026-01-13 23:28:42.81	31.08	39.24	-41.4	-44.3	11.8	4.94e-04	0	61	0	700448768	53	5305
2026-01-13 23:28:43.83	31.22	39.49	-41.3	-44.1	12.0	3.40e-04	0	61	0	703594496	53	5174
2026-01-13 23:28:44.83	31.36	39.74	-41.3	-44.2	11.9	3.46e-04	0	61	0	706740224	53	5252
2026-01-13 23:28:45.84	31.51	39.99	-41.4	-44.2	11.9	3.85e-04	0	61	0	709885952	53	5277
2026-01-13 23:28:46.85	31.65	40.24	-41.4	-44.3	11.8	4.65e-04	0	61	0	713031680	53	5337
2026-01-13 23:28:47.86	31.80	40.49	-41.5	-44.5	11.7	6.87e-04	0	61	0	716177408	53	5407
2026-01-13 23:28:48.87	31.95	40.75	-41.7	-44.8	11.2	1.00e-03	0	61	0	719323136	54	5340
2026-01-13 23:28:49.89	32.11	41.01	-42.0	-45.2	10.8	2.09e-03	0	61	0	722468864	54	5583
2026-01-13 23:28:50.90	32.26	41.27	-42.1	-45.6	10.5	3.56e-03	0	61	0	725614592	54	5798
2026-01-13 23:28:51.90	32.42	41.52	-42.2	-45.7	10.4	3.95e-03	0	60	0	728760320	54	5858
2026-01-13 23:28:52.91	32.58	41.79	-42.3	-45.9	10.2	5.74e-03	0	61	0	731906048	55	5683
2026-01-13 23:28:53.92	32.74	42.05	-42.3	-46.0	10.1	7.49e-03	0	61	0	735051776	55	5727
2026-01-13 23:28:54.93	32.90	42.31	-42.4	-46.1	10.0	7.41e-03	0	61	0	738197504	55	5809
2026-01-13 23:28:55.94	33.07	42.58	-42.3	-45.9	10.1	6.91e-03	0	61	0	741343232	55	5714
2026-01-13 23:28:56.95	33.24	42.85	-42.3	-45.9	10.2	6.81e-03	0	61	0	744488960	55	5687
2026-01-13 23:28:57.96	33.42	43.12	-42.3	-45.9	10.2	6.55e-03	0	61	0	747634688	55	5682
2026-01-13 23:28:58.97	33.59	43.39	-42.5	-46.2	9.9	8.39e-03	0	61	0	750780416	55	5904
2026-01-13 23:28:59.98	33.77	43.66	-42.6	-46.4	9.6	1.05e-02	0	61	0	753926144	55	6044
2026-01-13 23:29:00.99	33.96	43.94	-42.6	-46.5	9.5	1.42e-02	0	61	0	757071872	55	6128
2026-01-13 23:29:02.00	34.14	44.22	-42.7	-46.6	9.4	1.57e-02	0	61	0	760217600	55	6196
2026-01-13 23:29:03.01	34.33	44.49	-42.6	-46.4	9.7	1.30e-02	0	61	0	763363328	55	6048
2026-01-13 23:29:04.02	34.52	44.77	-42.4	-46.1	9.9	8.91e-03	0	61	0	766509056	55	5799
2026-01-13 23:29:05.03	34.72	45.06	-42.4	-46.1	10.0	7.18e-03	0	61	0	769654784	55	5816
2026-01-13 23:29:06.04	34.92	45.34	-42.4	-46.0	10.1	7.03e-03	0	61	0	772800512	55	5741
2026-01-13 23:29:07.05	35.12	45.62	-42.4	-46.1	10.0	8.62e-03	0	61	0	775946240	55	5811
2026-01-13 23:29:08.06	35.32	45.91	-42.5	-46.2	9.9	9.98e-03	0	61	0	779091968	55	5887
2026-01-13 23:29:09.07	35.53	46.20	-42.2	-45.7	10.4	5.62e-03	0	61	0	782237696	55	5567
2026-01-13 23:29:10.08	35.75	46.49	-42.0	-45.4	10.8	3.13e-03	0	61	0	785383424	55	5341
2026-01-13 23:29:11.09	35.97	46.78	-41.9	-45.0	11.1	1.92e-03	0	61	0	788529152	55	5158
2026-01-13 23:29:12.10	36.19	47.07	-41.6	-44.7	11.5	1.05e-03	0	61	0	791674880	55	4927
2026-01-13 23:29:13.11	36.41	47.37	-41.6	-44.5	11.7	6.16e-04	0	61	0	794820608	55	4862
2026-01-13 23:29:14.11	36.64	47.66	-41.5	-44.4	11.7	4.45e-04	0	61	0	797966336	54	5100
2026-01-13 23:29:15.12	36.87	47.96	-41.5	-44.3	11.9	4.34e-04	0	61	0	801112064	54	5027
2026-01-13 23:29:16.13	37.11	48.26	-41.5	-44.3	11.9	4.57e-04	0	61	0	804257792	54	5026
2026-01-13 23:29:17.14	37.36	48.56	-41.3	-44.1	12.1	3.41e-04	0	61	0	807403520	54	4912
2026-01-13 23:29:18.15	37.60	48.86	-41.3	-44.1	12.1	2.52e-04	0	61	0	810549248	54	4926
2026-01-13 23:29:19.16	37.86	49.17	-41.4	-44.2	12.1	2.88e-04	0	61	0	813694976	54	4931
2026-01-13 23:29:20.17	38.12	49.47	-41.5	-44.4	11.8	3.55e-04	0	61	0	816840704	54	5062
2026-01-13 23:29:21.18	38.38	49.78	-41.6	-44.6	11.6	6.90e-04	0	61	0	819986432	54	5189
2026-01-13 23:29:22.19	38.65	50.09	-41.8	-45.0	11.2	1.05e-03	0	61	0	823132160	54	5415
2026-01-13 23:29:23.20	38.92	50.40	-41.8	-45.0	11.2	1.30e-03	0	61	0	826277888	54	5432
2026-01-13 23:29:24.21	39.20	50.71	-41.8	-45.0	11.1	1.39e-03	0	61	0	829423616	54	5428
2026-01-13 23:29:25.22	39.48	51.02	-42.0	-45.3	10.9	1.70e-03	0	61	0	832569344	54	5610
2026-01-13 23:29:26.23	39.78	51.34	-42.1	-45.4	10.7	2.29e-03	0	61	0	835715072	54	5721
2026-01-13 23:29:27.24	40.07	51.65	-42.0	-45.3	10.8	2.84e-03	0	61	0	838860800	54	5651
2026-01-13 23:29:28.25	40.38	51.97	-42.0	-45.2	11.0	2.14e-03	0	60	0	842006528	54	5580
2026-01-13 23:29:29.26	40.69	52.29	-41.8	-45.0	11.2	1.34e-03	0	61	0	845152256	54	5415
2026-01-13 23:29:30.27	41.00	52.61	-41.6	-44.5	11.7	7.69e-04	0	61	0	848297984	54	5144
2026-01-13 23:29:31.28	41.33	52.93	-41.4	-44.3	11.9	4.24e-04	0	61	0	851443712	54	5039
2026-01-13 23:29:32.29	41.66	53.25	-41.3	-44.1	12.2	2.90e-04	0	61	0	854589440	54	4888
2026-01-13 23:29:33.30	42.00	53.57	-41.3	-44.1	12.1	2.29e-04	0	61	0	857735168	54	4904
2026-01-13 23:29:34.30	42.34	53.89	-41.4	-44.2	12.0	2.97e-04	0	61	0	860880896	54	4973
2026-01-13 23:29:35.31	42.69	54.22	-41.5	-44.5	11.9	4.79e-04	0	61	0	864026624	54	5107
2026-01-13 23:29:36.33	43.06	54.55	-41.5	-44.4	11.8	5.16e-04	0	60	0	867172352	54	5086
2026-01-13 23:29:37.34	43.43	54.88	-41.4	-44.2	12.0	3.91e-04	0	61	0	870318080	54	4978
2026-01-13 23:29:38.35	43.80	55.20	-41.2	-43.9	12.3	1.83e-04	0	61	0	873463808	54	4814
2026-01-13 23:29:39.35	44.19	55.53	-41.0	-43.6	12.6	1.16e-04	0	61	0	876609536	54	4644
2026-01-13 23:29:40.36	44.58	55.86	-40.9	-43.5	12.7	8.46e-05	0	61	0	879755264	53	4836
2026-01-13 23:29:41.37	44.99	56.19	-40.9	-43.5	12.8	7.55e-05	0	61	0	882900992	53	4815
2026-01-13 23:29:42.38	45.40	56.52	-40.8	-43.4	12.8	5.34e-05	0	61	0	886046720	53	4782
2026-01-13 23:29:43.39	45.83	56.85	-40.8	-43.3	12.9	6.10e-05	0	61	0	889192448	53	4733
2026-01-13 23:29:44.40	46.26	57.18	-40.8	-43.3	12.9	4.11e-05	0	61	0	892338176	53	4758
2026-01-13 23:29:45.41	46.71	57.51	-40.6	-43.0	13.2	2.97e-05	0	61	0	895483904	53	4587
2026-01-13 23:29:46.42	47.16	57.84	-40.6	-43.0	13.2	2.59e-05	0	61	0	898629632	53	4595
2026-01-13 23:29:47.43	47.63	58.18	-40.4	-42.7	13.5	1.75e-05	0	61	0	901775360	52	4677
2026-01-13 23:29:48.45	48.12	58.51	-40.4	-42.8	13.4	1.52e-05	0	61	0	904921088	52	4741
2026-01-13 23:29:49.46	48.61	58.85	-40.2	-42.4	13.7	6.10e-06	0	61	0	908066816	52	4537
2026-01-13 23:29:50.46	49.11	59.17	-40.2	-42.5	13.8	8.30e-06	0	61	0	911212544	52	4550
2026-01-13 23:29:51.47	49.63	59.51	-40.1	-42.4	13.9	1.50e-06	0	61	0	914358272	52	4496
2026-01-13 23:29:52.49	50.16	59.84	-40.0	-42.2	14.1	2.20e-06	0	61	0	917504000	51	4654
2026-01-13 23:29:53.50	50.71	60.17	-40.0	-42.1	14.1	3.00e-06	0	61	0	920649728	51	4615
2026-01-13 23:29:54.51	51.26	60.50	-39.9	-42.0	14.3	7.00e-07	0	61	0	923795456	51	4546
2026-01-13 23:29:55.52	51.84	60.83	-39.7	-41.8	14.5	7.00e-07	0	61	0	926941184	51	4446
2026-01-13 23:29:56.53	52.42	61.16	-39.7	-41.7	14.6	0.00e+00	0	61	0	930086912	51	4394
2026-01-13 23:29:57.54	53.03	61.49	-39.7	-41.8	14.5	1.50e-06	0	61	0	933232640	51	4464
2026-01-13 23:29:58.55	53.65	61.82	-39.8	-41.9	14.5	0.00e+00	0	61	0	936378368	51	4494
2026-01-13 23:29:59.56	54.28	62.14	-39.7	-41.7	14.6	0.00e+00	0	61	0	939524096	51	4403
2026-01-13 23:30:00.57	54.94	62.47	-39.5	-41.5	14.8	7.00e-07	0	60	0	942669824	51	4294
2026-01-13 23:30:01.58	55.61	62.79	-39.4	-41.3	15.0	7.00e-07	0	61	0	946864128	50	4465
2026-01-13 23:30:02.59	56.30	63.11	-39.4	-41.4	15.0	0.00e+00	0	60	0	950009856	50	4495
2026-01-13 23:30:03.60	57.00	63.43	-39.4	-41.4	14.9	0.00e+00	0	61	0	953155584	50	4513
2026-01-13 23:30:04.61	57.73	63.75	-39.3	-41.2	15.1	0.00e+00	0	61	0	955252736	50	4395
2026-01-13 23:30:05.62	58.48	64.06	-39.3	-41.2	15.1	7.00e-07	0	61	0	958398464	50	4425
2026-01-13 23:30:06.63	59.25	64.37	-39.3	-41.2	15.1	0.00e+00	0	60	0	962592768	50	4418
2026-01-13 23:30:07.64	60.03	64.68	-39.3	-41.2	15.1	0.00e+00	0	61	0	965738496	50	4433
2026-01-13 23:30:08.65	60.84	64.98	-39.2	-41.0	15.3	0.00e+00	0	61	0	968884224	50	4321
2026-01-13 23:30:09.66	61.67	65.29	-38.9	-40.7	15.7	0.00e+00	0	61	0	972029952	49	4408
2026-01-13 23:30:10.67	62.53	65.59	-38.9	-40.7	15.6	0.00e+00	0	61	0	975175680	49	4421
2026-01-13 23:30:11.68	63.41	65.88	-39.4	-41.3	15.0	0.00e+00	0	61	0	978321408	49	4738
2026-01-13 23:30:12.69	64.31	66.17	-39.4	-41.4	15.0	0.00e+00	0	61	0	981467136	49	4763
2026-01-13 23:30:13.71	65.24	66.46	-39.2	-41.1	15.2	0.00e+00	0	61	0	984612864	49	4628
2026-01-13 23:30:14.71	66.18	66.74	-39.3	-41.2	15.0	0.00e+00	0	60	0	987758592	49	4695
2026-01-13 23:30:15.72	67.16	67.01	-39.3	-41.3	15.0	0.00e+00	0	61	0	990904320	49	4728
2026-01-13 23:30:16.74	68.17	67.29	-39.5	-41.5	14.8	0.00e+00	0	60	0	994050048	49	4850
2026-01-13 23:30:17.75	69.20	67.55	-39.6	-41.6	14.7	0.00e+00	0	61	0	997195776	49	4896
2026-01-13 23:30:18.76	70.25	67.81	-39.3	-41.3	15.0	0.00e+00	0	61	0	1000341504	49	4711
2026-01-13 23:30:19.77	71.33	68.07	-39.1	-41.0	15.3	0.00e+00	0	60	0	1003487232	49	4557
2026-01-13 23:30:20.78	72.44	68.31	-39.1	-41.0	15.3	0.00e+00	0	61	0	1006632960	49	4547
2026-01-13 23:30:21.79	73.57	68.55	-39.2	-41.1	15.2	0.00e+00	0	61	0	1009778688	49	4603
2026-01-13 23:30:22.80	74.74	68.78	-39.0	-40.9	15.3	0.00e+00	0	61	0	1012924416	49	4497
2026-01-13 23:30:23.81	75.93	69.01	-39.1	-40.9	15.3	0.00e+00	0	60	0	1016070144	49	4535
2026-01-13 23:30:24.82	77.14	69.23	-39.4	-41.3	14.9	0.00e+00	0	61	0	1019215872	49	4736
2026-01-13 23:30:25.83	78.39	69.43	-39.6	-41.6	14.7	7.00e-07	0	61	0	1022361600	49	4887
2026-01-13 23:30:26.84	79.66	69.63	-39.7	-41.7	14.6	0.00e+00	0	61	0	1025507328	49	4973
2026-01-13 23:30:27.85	80.95	69.82	-39.6	-41.6	14.6	1.50e-06	0	61	0	1028653056	49	4918
2026-01-13 23:30:28.86	82.28	70.01	-39.6	-41.6	14.6	0.00e+00	0	60	0	1031798784	49	4919
2026-01-13 23:30:29.87	83.62	70.18	-39.5	-41.5	14.7	0.00e+00	0	61	0	1034944512	49	4868
2026-01-13 23:30:30.87	84.98	70.34	-39.1	-41.0	15.2	0.00e+00	0	61	0	1038090240	49	4563
2026-01-13 23:30:31.88	86.38	70.49	-38.8	-40.6	15.6	0.00e+00	0	61	0	1041235968	49	4351
2026-01-13 23:30:32.89	87.79	70.63	-38.7	-40.5	15.7	0.00e+00	0	61	0	1044381696	49	4301
2026-01-13 23:30:33.90	89.23	70.76	-38.9	-40.7	15.5	0.00e+00	0	61	0	1047527424	49	4417
2026-01-13 23:30:34.92	90.71	70.88	-38.9	-40.8	15.5	0.00e+00	0	61	0	1050673152	49	4454
2026-01-13 23:30:35.93	92.18	70.98	-38.9	-40.7	15.5	0.00e+00	0	61	0	1053818880	49	4418
2026-01-13 23:30:36.94	93.68	71.08	-39.2	-41.1	15.1	0.00e+00	0	60	0	1056964608	49	4640
2026-01-13 23:30:37.95	95.19	71.16	-39.5	-41.6	14.7	0.00e+00	0	61	0	1060110336	49	4874
2026-01-13 23:30:38.96	96.71	71.23	-39.4	-41.4	14.8	7.00e-07	0	61	0	1063256064	49	4805
2026-01-13 23:30:39.97	98.24	71.29	-39.2	-41.1	15.0	0.00e+00	0	61	0	1066401792	49	4642
2026-01-13 23:30:40.98	99.78	71.33	-39.6	-41.6	14.6	7.00e-07	0	61	0	1069547520	49	4902
2026-01-13 23:30:41.99	101.33	71.37	-39.6	-41.6	14.6	0.00e+00	0	61	0	1072693248	49	4926
2026-01-13 23:30:43.00	102.89	71.39	-39.3	-41.2	15.0	0.00e+00	0	61	0	1075838976	49	4703
2026-01-13 23:30:44.01	104.44	71.39	-39.1	-40.9	15.3	0.00e+00	0	61	0	1078984704	49	4531
2026-01-13 23:30:45.02	106.00	71.39	-39.0	-40.8	15.4	0.00e+00	0	61	0	1082130432	49	4491
2026-01-13 23:30:46.03	107.55	71.37	-39.3	-41.2	15.0	0.00e+00	0	61	0	1085276160	49	4695
2026-01-13 23:30:47.04	109.10	71.34	-39.7	-41.8	14.4	1.50e-06	0	61	0	1088421888	49	4993
2026-01-13 23:30:48.05	110.64	71.29	-39.8	-42.0	14.2	1.50e-06	0	61	0	1091567616	50	4819
2026-01-13 23:30:49.06	112.18	71.23	-39.7	-41.7	14.5	7.00e-07	0	61	0	1094713344	50	4694
2026-01-13 23:30:50.07	113.70	71.16	-39.4	-41.4	14.8	0.00e+00	0	61	0	1097859072	50	4514
2026-01-13 23:30:51.07	115.20	71.08	-39.4	-41.3	14.9	0.00e+00	0	61	0	1101004800	50	4487
2026-01-13 23:30:52.08	116.69	70.99	-39.2	-41.1	15.1	7.00e-07	0	61	0	1104150528	50	4390
2026-01-13 23:30:53.09	118.17	70.88	-39.6	-41.7	14.5	0.00e+00	0	61	0	1107296256	50	4683
2026-01-13 23:30:54.10	119.63	70.77	-39.8	-42.0	14.3	1.50e-06	0	61	0	1110441984	50	4824
2026-01-13 23:30:55.11	121.07	70.64	-39.6	-41.7	14.5	0.00e+00	0	61	0	1113587712	50	4658
2026-01-13 23:30:56.12	122.49	70.50	-39.7	-41.8	14.4	0.00e+00	0	61	0	1116733440	50	4725
2026-01-13 23:30:57.13	123.89	70.35	-39.9	-42.1	14.1	1.50e-06	0	61	0	1119879168	50	4919
2026-01-13 23:30:58.14	125.26	70.18	-40.0	-42.2	14.0	3.00e-06	0	61	0	1123024896	50	4933
2026-01-13 23:30:59.15	126.61	70.01	-40.0	-42.1	14.0	4.50e-06	0	61	0	1126170624	50	4924
2026-01-13 23:31:00.16	127.94	69.83	-39.7	-41.8	14.3	7.00e-07	0	61	0	1129316352	50	4716
2026-01-13 23:31:01.17	129.24	69.64	-39.2	-41.1	15.0	0.00e+00	0	61	0	1132462080	50	4360
2026-01-13 23:31:02.18	130.51	69.44	-39.0	-40.9	15.3	0.00e+00	0	61	0	1135607808	50	4257
2026-01-13 23:31:03.19	131.76	69.23	-38.8	-40.5	15.6	0.00e+00	0	61	0	1138753536	49	4340
2026-01-13 23:31:04.20	132.98	69.02	-39.4	-41.3	14.8	0.00e+00	0	61	0	1141899264	49	4753
2026-01-13 23:31:05.21	134.17	68.79	-39.8	-41.9	14.2	7.00e-07	0	61	0	1145044992	50	4783
2026-01-13 23:31:06.22	135.33	68.56	-39.7	-41.8	14.4	2.20e-06	0	61	0	1148190720	50	4729
2026-01-13 23:31:07.23	136.47	68.32	-39.3	-41.2	15.0	0.00e+00	0	61	0	1151336448	50	4399
2026-01-13 23:31:08.24	137.58	68.07	-38.9	-40.8	15.4	0.00e+00	0	61	0	1154482176	49	4443
2026-01-13 23:31:09.25	138.66	67.82	-38.9	-40.7	15.3	0.00e+00	0	61	0	1157627904	49	4439
2026-01-13 23:31:10.26	139.72	67.56	-39.2	-41.0	15.0	0.00e+00	0	61	0	1160773632	49	4597
2026-01-13 23:31:11.27	140.75	67.29	-39.9	-42.1	14.1	0.00e+00	0	61	0	1163919360	50	4903
2026-01-13 23:31:12.28	141.75	67.02	-40.1	-42.3	13.9	5.30e-06	0	61	0	1167065088	50	5004
2026-01-13 23:31:13.29	142.73	66.75	-39.4	-41.4	14.8	7.00e-07	0	61	0	1170210816	50	4497
2026-01-13 23:31:14.30	143.68	66.46	-38.9	-40.7	15.4	7.00e-07	0	61	0	1173356544	49	4413
2026-01-13 23:31:15.31	144.61	66.18	-39.0	-40.8	15.3	0.00e+00	0	61	0	1176502272	49	4474
2026-01-13 23:31:16.32	145.51	65.89	-39.5	-41.5	14.6	0.00e+00	0	61	0	1179648000	49	4833
2026-01-13 23:31:17.33	146.39	65.59	-40.4	-42.8	13.4	5.30e-06	0	61	0	1182793728	51	4988
2026-01-13 23:31:18.34	147.25	65.29	-40.8	-43.5	12.6	6.86e-05	0	61	0	1185939456	52	5109
2026-01-13 23:31:19.35	148.08	64.99	-40.5	-42.9	13.1	4.95e-05	0	61	0	1189085184	52	4786
2026-01-13 23:31:20.36	148.90	64.68	-40.0	-42.2	13.9	3.80e-06	0	61	0	1192230912	52	4399
2026-01-13 23:31:21.37	149.69	64.37	-39.8	-41.9	14.3	7.00e-07	0	61	0	1195376640	51	4508
2026-01-13 23:31:22.38	150.45	64.06	-40.2	-42.4	13.7	1.50e-06	0	61	0	1198522368	51	4785
2026-01-13 23:31:23.39	151.20	63.75	-40.8	-43.4	12.5	3.58e-05	0	61	0	1201668096	52	5082
2026-01-13 23:31:24.40	151.93	63.43	-41.8	-44.9	11.0	1.19e-03	0	61	0	1204813824	54	5395
2026-01-13 23:31:25.41	152.64	63.11	-42.1	-45.6	10.4	4.66e-03	0	61	0	1207959552	54	5790
2026-01-13 23:31:26.42	153.33	62.79	-41.4	-44.3	11.7	1.15e-03	0	61	0	1211105280	54	5014
2026-01-13 23:31:27.43	154.01	62.47	-40.2	-42.5	13.5	2.21e-05	0	61	0	1214251008	52	4596
2026-01-13 23:31:28.44	154.66	62.14	-39.4	-41.3	14.8	7.00e-07	0	61	0	1217396736	50	4493
2026-01-13 23:31:29.45	155.30	61.81	-39.4	-41.3	14.8	0.00e+00	0	61	0	1220542464	50	4482
2026-01-13 23:31:30.46	155.92	61.49	-40.1	-42.2	13.8	7.00e-07	0	61	0	1223688192	50	4979
2026-01-13 23:31:31.47	156.52	61.16	-40.7	-43.3	12.6	4.27e-05	0	61	0	1226833920	52	5002
2026-01-13 23:31:32.48	157.11	60.83	-40.9	-43.6	12.3	1.81e-04	0	61	0	1229979648	52	5196
2026-01-13 23:31:33.49	157.69	60.50	-40.5	-43.0	13.0	5.41e-05	0	61	0	1233125376	52	4824
2026-01-13 23:31:34.50	158.25	60.16	-40.0	-42.1	13.9	5.30e-06	0	61	0	1236271104	51	4645
2026-01-13 23:31:35.51	158.79	59.83	-39.7	-41.8	14.3	2.20e-06	0	61	0	1239416832	51	4448
2026-01-13 23:31:36.52	159.32	59.50	-39.9	-42.1	14.0	7.00e-07	0	61	0	1242562560	51	4619
2026-01-13 23:31:37.53	159.84	59.17	-40.6	-43.0	13.0	1.14e-05	0	61	0	1245708288	51	5121
2026-01-13 23:31:38.54	160.35	58.83	-41.5	-44.5	11.5	4.11e-04	0	61	0	1248854016	53	5407
2026-01-13 23:31:39.55	160.84	58.50	-41.9	-45.3	10.6	3.35e-03	0	61	0	1251999744	54	5603
2026-01-13 23:31:40.56	161.32	58.17	-41.5	-44.5	11.4	1.43e-03	0	61	0	1255145472	54	5159
2026-01-13 23:31:41.57	161.79	57.83	-40.6	-43.1	12.8	9.91e-05	0	61	0	1258291200	53	4633
2026-01-13 23:31:42.58	162.25	57.50	-40.0	-42.2	13.8	3.00e-06	0	61	0	1262485504	52	4398
2026-01-13 23:31:43.59	162.70	57.17	-39.7	-41.7	14.4	7.00e-07	0	61	0	1265631232	51	4417
2026-01-13 23:31:44.60	163.13	56.83	-39.6	-41.6	14.5	0.00e+00	0	61	0	1268776960	51	4354
2026-01-13 23:31:45.61	163.56	56.50	-40.1	-42.3	13.7	4.50e-06	0	61	0	1270874112	51	4751
2026-01-13 23:31:46.62	163.97	56.17	-40.9	-43.6	12.3	9.30e-05	0	61	0	1274019840	52	5161
2026-01-13 23:31:47.63	164.38	55.84	-41.7	-44.8	11.0	1.43e-03	0	61	0	1278214144	53	5627
2026-01-13 23:31:48.64	164.78	55.51	-41.6	-44.6	11.3	1.64e-03	0	61	0	1281359872	54	5208
2026-01-13 23:31:49.65	165.16	55.18	-41.2	-43.9	12.0	6.42e-04	0	61	0	1284505600	54	4813
2026-01-13 23:31:50.66	165.54	54.85	-40.9	-43.5	12.4	2.29e-04	0	61	0	1287651328	53	4850
2026-01-13 23:31:51.67	165.91	54.52	-40.4	-42.7	13.3	3.35e-05	0	61	0	1290797056	52	4670
2026-01-13 23:31:52.68	166.27	54.19	-40.1	-42.3	13.7	5.30e-06	0	61	0	1293942784	52	4477
2026-01-13 23:31:53.69	166.63	53.87	-40.4	-42.7	13.3	1.75e-05	0	61	0	1297088512	52	4676
2026-01-13 23:31:54.70	166.97	53.54	-40.8	-43.3	12.6	7.55e-05	0	61	0	1300234240	52	5038
2026-01-13 23:31:55.71	167.31	53.22	-41.3	-44.1	11.8	4.73e-04	0	61	0	1303379968	53	5210
2026-01-13 23:31:56.72	167.64	52.89	-41.7	-44.8	11.0	1.51e-03	0	61	0	1306525696	53	5634
2026-01-13 23:31:57.73	167.97	52.57	-41.9	-45.1	10.7	2.96e-03	0	61	0	1309671424	54	5524
2026-01-13 23:31:58.74	168.29	52.25	-41.9	-45.1	10.7	3.29e-03	0	61	0	1312817152	54	5522
2026-01-13 23:31:59.75	168.60	51.93	-41.7	-44.8	11.0	2.10e-03	0	61	0	1315962880	54	5328
2026-01-13 23:32:00.77	168.90	51.61	-41.5	-44.4	11.6	1.01e-03	0	61	0	1319108608	54	5057
2026-01-13 23:32:01.77	169.20	51.30	-41.1	-43.8	12.1	3.65e-04	0	61	0	1322254336	54	4746
2026-01-13 23:32:02.78	169.49	50.98	-41.0	-43.6	12.3	1.81e-04	0	61	0	1325400064	54	4645
2026-01-13 23:32:03.79	169.77	50.67	-41.3	-44.1	11.7	3.44e-04	0	60	0	1328545792	54	4920
2026-01-13 23:32:04.81	170.06	50.35	-41.7	-44.8	11.1	1.14e-03	0	61	0	1331691520	54	5289
2026-01-13 23:32:05.82	170.33	50.04	-42.3	-45.8	10.1	5.29e-03	0	61	0	1334837248	55	5613
2026-01-13 23:32:06.83	170.60	49.73	-42.5	-46.3	9.6	1.13e-02	0	61	0	1337982976	55	5928
2026-01-13 23:32:07.84	170.86	49.42	-42.4	-46.0	9.8	9.91e-03	0	61	0	1341128704	55	5752
2026-01-13 23:32:08.85	171.12	49.11	-42.4	-46.2	9.7	1.00e-02	0	61	0	1344274432	55	5871
2026-01-13 23:32:09.85	171.37	48.81	-42.3	-46.0	9.9	1.08e-02	0	61	0	1347420160	55	5746
2026-01-13 23:32:10.86	171.62	48.51	-42.0	-45.3	10.6	4.64e-03	0	61	0	1350565888	55	5307
2026-01-13 23:32:11.87	171.86	48.20	-41.7	-44.7	11.1	1.92e-03	0	61	0	1353711616	55	4971
2026-01-13 23:32:12.88	172.10	47.90	-41.8	-45.0	10.9	2.05e-03	0	61	0	1356857344	55	5138
2026-01-13 23:32:13.89	172.34	47.60	-42.0	-45.3	10.6	2.90e-03	0	61	0	1360003072	55	5285
2026-01-13 23:32:14.90	172.57	47.31	-42.1	-45.5	10.4	4.90e-03	0	61	0	1363148800	55	5403
2026-01-13 23:32:15.91	172.79	47.01	-41.9	-45.2	10.6	3.68e-03	0	61	0	1366294528	55	5226
2026-01-13 23:32:16.92	173.01	46.72	-41.8	-45.1	10.7	3.42e-03	0	61	0	1369440256	55	5163
2026-01-13 23:32:17.93	173.23	46.42	-42.1	-45.5	10.3	4.80e-03	0	61	0	1372585984	55	5416
2026-01-13 23:32:18.94	173.44	46.13	-42.1	-45.6	10.2	6.29e-03	0	61	0	1375731712	55	5503
2026-01-13 23:32:19.95	173.65	45.84	-42.1	-45.6	10.2	5.78e-03	0	61	0	1378877440	55	5491
2026-01-13 23:32:20.96	173.86	45.55	-42.0	-45.4	10.4	4.61e-03	0	61	0	1382023168	55	5357
2026-01-13 23:32:21.97	174.06	45.27	-42.1	-45.4	10.4	4.71e-03	0	61	0	1385168896	55	5400
2026-01-13 23:32:22.98	174.26	44.98	-42.4	-46.0	9.8	8.68e-03	0	61	0	1388314624	55	5776
2026-01-13 23:32:23.99	174.46	44.70	-43.0	-47.1	8.8	2.21e-02	0	61	0	1391460352	56	6171
2026-01-13 23:32:25.00	174.65	44.42	-42.9	-47.0	8.9	3.60e-02	0	61	0	1394606080	56	6095
2026-01-13 23:32:26.01	174.84	44.14	-42.7	-46.6	9.3	1.93e-02	0	61	0	1397751808	56	5827
2026-01-13 23:32:27.02	175.02	43.86	-42.5	-46.2	9.7	1.23e-02	0	61	0	1400897536	56	5567
2026-01-13 23:32:28.03	175.21	43.59	-42.3	-45.8	10.2	7.08e-03	0	61	0	1404043264	56	5296
2026-01-13 23:32:29.04	175.39	43.31	-42.3	-45.7	10.3	5.36e-03	0	61	0	1407188992	56	5258
2026-01-13 23:32:30.05	175.56	43.04	-42.3	-45.8	10.1	6.70e-03	0	61	0	1410334720	56	5336
2026-01-13 23:32:31.06	175.74	42.77	-42.4	-45.9	10.0	7.35e-03	0	61	0	1413480448	56	5365
2026-01-13 23:32:32.07	175.91	42.50	-42.2	-45.6	10.3	6.43e-03	0	61	0	1416626176	56	5171
2026-01-13 23:32:33.08	176.07	42.23	-42.0	-45.3	10.6	3.46e-03	0	61	0	1419771904	56	5037
2026-01-13 23:32:34.09	176.24	41.96	-42.0	-45.3	10.7	2.94e-03	0	61	0	1422917632	56	4993
2026-01-13 23:32:35.10	176.40	41.70	-42.0	-45.2	10.7	3.13e-03	0	61	0	1426063360	56	4983
2026-01-13 23:32:36.11	176.56	41.44	-41.8	-44.9	10.8	2.63e-03	0	61	0	1429209088	55	5089
2026-01-13 23:32:37.12	176.72	41.17	-41.6	-44.7	11.1	1.90e-03	0	61	0	1432354816	55	4956
2026-01-13 23:32:38.13	176.87	40.91	-41.6	-44.6	11.2	1.42e-03	0	61	0	1435500544	55	4904
2026-01-13 23:32:39.14	177.03	40.66	-41.7	-44.8	11.0	1.56e-03	0	61	0	1438646272	55	5021
2026-01-13 23:32:40.15	177.18	40.40	-41.9	-45.2	10.6	2.86e-03	0	61	0	1441792000	55	5245
2026-01-13 23:32:41.16	177.33	40.14	-42.1	-45.6	10.1	5.96e-03	0	61	0	1444937728	55	5508
2026-01-13 23:32:42.17	177.47	39.89	-42.2	-45.8	9.9	8.42e-03	0	61	0	1448083456	55	5647
2026-01-13 23:32:43.18	177.61	39.64	-42.2	-45.8	9.9	8.58e-03	0	61	0	1451229184	55	5623
2026-01-13 23:32:44.19	177.76	39.39	-42.0	-45.5	10.2	5.92e-03	0	61	0	1454374912	55	5457
2026-01-13 23:32:45.20	177.90	39.14	-41.9	-45.3	10.5	4.52e-03	0	61	0	1457520640	55	5287
2026-01-13 23:32:46.21	178.03	38.90	-41.7	-44.9	10.9	2.50e-03	0	61	0	1460666368	55	5068
2026-01-13 23:32:47.23	178.17	38.65	-41.6	-44.8	11.0	1.96e-03	0	61	0	1463812096	55	4994
2026-01-13 23:32:48.23	178.30	38.41	-41.5	-44.5	11.3	1.19e-03	0	61	0	1466957824	54	5127
2026-01-13 23:32:49.24	178.43	38.16	-41.3	-44.2	11.5	8.77e-04	0	61	0	1470103552	54	4981
2026-01-13 23:32:50.25	178.56	37.92	-41.4	-44.3	11.5	8.79e-04	0	61	0	1473249280	54	4995
2026-01-13 23:32:51.26	178.69	37.68	-41.3	-44.3	11.5	8.88e-04	0	61	0	1476395008	54	4985
2026-01-13 23:32:52.27	178.82	37.45	-41.3	-44.2	11.5	7.34e-04	0	61	0	1479540736	54	4949
2026-01-13 23:32:53.28	178.94	37.21	-41.3	-44.2	11.5	8.60e-04	0	61	0	1482686464	54	4973
2026-01-13 23:32:54.29	179.06	36.98	-41.3	-44.2	11.6	8.06e-04	0	61	0	1485832192	54	4964
2026-01-13 23:32:55.30	179.18	36.74	-41.4	-44.4	11.4	9.41e-04	0	61	0	1488977920	54	5045
2026-01-13 23:32:56.31	179.30	36.51	-41.4	-44.3	11.4	1.02e-03	0	61	0	1492123648	54	5041
2026-01-13 23:32:57.32	179.42	36.28	-41.3	-44.2	11.5	8.50e-04	0	61	0	1495269376	54	4983
2026-01-13 23:32:58.33	179.54	36.06	-41.1	-43.9	11.9	4.57e-04	0	61	0	1498415104	54	4800
2026-01-13 23:32:59.34	179.65	35.83	-40.9	-43.6	12.2	2.75e-04	0	61	0	1501560832	53	4888
2026-01-13 23:33:00.35	179.76	35.60	-40.9	-43.5	12.3	1.94e-04	0	61	0	1504706560	53	4845
2026-01-13 23:33:01.36	179.87	35.38	-40.9	-43.5	12.3	2.08e-04	0	61	0	1507852288	53	4863
2026-01-13 23:33:02.37	179.98	35.16	-41.0	-43.7	12.0	2.75e-04	0	61	0	1510998016	53	4980
2026-01-13 23:33:03.38	180.09	34.94	-41.2	-44.1	11.7	5.03e-04	0	61	0	1514143744	53	5167
2026-01-13 23:33:04.39	180.20	34.72	-41.4	-44.4	11.4	9.34e-04	0	61	0	1517289472	53	5360
2026-01-13 23:33:05.40	180.31	34.50	-41.6	-44.7	11.0	1.61e-03	0	61	0	1520435200	53	5586
2026-01-13 23:33:06.40	180.41	34.28	-41.7	-45.0	10.8	2.55e-03	0	61	0	1523580928	53	5739
2026-01-13 23:33:07.41	180.51	34.07	-41.7	-45.0	10.7	2.65e-03	0	61	0	1526726656	53	5724
2026-01-13 23:33:08.42	180.61	33.86	-41.7	-44.9	10.8	2.56e-03	0	61	0	1529872384	54	5394
2026-01-13 23:33:09.43	180.71	33.64	-41.5	-44.6	11.1	1.88e-03	0	61	0	1533018112	54	5204
2026-01-13 23:33:10.44	180.81	33.43	-41.3	-44.3	11.5	8.64e-04	0	61	0	1536163840	54	4985
2026-01-13 23:33:11.45	180.91	33.22	-41.2	-44.0	11.7	6.92e-04	0	61	0	1539309568	54	4868
2026-01-13 23:33:12.46	181.01	33.01	-40.9	-43.6	12.1	3.13e-04	0	61	0	1542455296	53	4920
2026-01-13 23:33:13.47	181.10	32.81	-40.8	-43.5	12.3	1.75e-04	0	61	0	1545601024	53	4827
2026-01-13 23:33:14.48	181.20	32.60	-40.6	-43.2	12.5	1.10e-04	0	61	0	1548746752	53	4682
2026-01-13 23:33:15.49	181.29	32.40	-40.6	-43.1	12.6	9.99e-05	0	61	0	1551892480	53	4649
2026-01-13 23:33:16.50	181.38	32.19	-40.5	-43.0	12.7	8.01e-05	0	61	0	1555038208	53	4584
2026-01-13 23:33:17.51	181.47	31.99	-40.5	-43.0	12.7	8.62e-05	0	61	0	1558183936	53	4576
2026-01-13 23:33:18.53	181.57	31.79	-40.5	-43.0	12.7	6.48e-05	0	61	0	1561329664	53	4571
2026-01-13 23:33:19.54	181.65	31.59	-40.5	-43.0	12.8	6.33e-05	0	61	0	1564475392	52	4833
2026-01-13 23:33:20.55	181.74	31.39	-40.4	-42.9	12.8	5.95e-05	0	61	0	1567621120	52	4786
2026-01-13 23:33:21.56	181.83	31.19	-40.4	-42.9	12.8	7.01e-05	0	61	0	1570766848	52	4801
2026-01-13 23:33:22.57	181.92	31.00	-40.4	-42.9	12.8	4.57e-05	0	61	0	1573912576	52	4807
2026-01-13 23:33:23.58	182.00	30.80	-40.3	-42.8	13.0	4.27e-05	0	61	0	1578106880	52	4717
2026-01-13 23:33:24.59	182.08	30.61	-40.3	-42.6	13.1	3.58e-05	0	61	0	1581252608	52	4645
2026-01-13 23:33:25.60	182.17	30.42	-40.1	-42.5	13.3	1.60e-05	0	61	0	1584398336	52	4561
2026-01-13 23:33:26.61	182.25	30.23	-40.1	-42.4	13.4	2.36e-05	0	61	0	1586495488	52	4517
2026-01-13 23:33:27.62	182.33	30.04	-40.0	-42.3	13.4	8.30e-06	0	61	0	1589641216	52	4480
2026-01-13 23:33:28.63	182.41	29.85	-40.1	-42.4	13.4	1.44e-05	0	61	0	1593835520	52	4494
2026-01-13 23:33:29.64	182.49	29.66	-40.1	-42.4	13.3	1.06e-05	0	61	0	1596981248	52	4520
2026-01-13 23:33:30.65	182.57	29.48	-40.2	-42.6	13.1	3.58e-05	0	61	0	1600126976	52	4623
2026-01-13 23:33:31.66	182.65	29.29	-40.3	-42.7	13.0	2.89e-05	0	61	0	1603272704	52	4687
2026-01-13 23:33:32.67	182.72	29.11	-40.3	-42.8	12.9	5.41e-05	0	61	0	1606418432	52	4725
2026-01-13 23:33:33.68	182.80	28.93	-40.3	-42.8	12.9	4.27e-05	0	61	0	1609564160	52	4740
2026-01-13 23:33:34.69	182.87	28.75	-40.3	-42.7	13.0	4.27e-05	0	61	0	1612709888	52	4679
2026-01-13 23:33:35.70	182.95	28.57	-40.3	-42.7	13.0	5.26e-05	0	61	0	1615855616	52	4694
2026-01-13 23:33:36.71	183.02	28.39	-40.3	-42.7	13.0	4.42e-05	0	61	0	1619001344	52	4692
2026-01-13 23:33:37.72	183.09	28.21	-40.3	-42.7	13.0	3.73e-05	0	61	0	1622147072	52	4672
2026-01-13 23:33:38.73	183.17	28.03	-40.2	-42.6	13.1	3.50e-05	0	61	0	1625292800	52	4642
2026-01-13 23:33:39.74	183.24	27.86	-40.3	-42.8	12.9	3.66e-05	0	61	0	1628438528	52	4717
2026-01-13 23:33:40.75	183.31	27.68	-40.3	-42.8	12.9	4.95e-05	0	61	0	1631584256	52	4716
2026-01-13 23:33:41.76	183.38	27.51	-40.4	-42.8	12.8	4.57e-05	0	61	0	1634729984	52	4752
2026-01-13 23:33:42.77	183.45	27.34	-40.4	-43.0	12.7	7.40e-05	0	61	0	1637875712	52	4821
2026-01-13 23:33:43.78	183.51	27.16	-40.4	-43.0	12.7	8.46e-05	0	61	0	1641021440	52	4823
2026-01-13 23:33:44.79	183.58	26.99	-40.3	-42.8	12.8	7.17e-05	0	61	0	1644167168	52	4734
2026-01-13 23:33:45.80	183.65	26.82	-40.4	-42.9	12.8	6.25e-05	0	61	0	1647312896	52	4778
2026-01-13 23:33:46.81	183.72	26.66	-40.3	-42.8	12.8	5.34e-05	0	61	0	1650458624	52	4750
2026-01-13 23:33:47.82	183.78	26.49	-40.3	-42.7	12.9	5.11e-05	0	61	0	1653604352	52	4703
2026-01-13 23:33:48.84	183.85	26.32	-40.3	-42.8	12.9	4.95e-05	0	61	0	1656750080	52	4722
2026-01-13 23:33:49.85	183.91	26.16	-40.3	-42.7	12.9	5.41e-05	0	61	0	1659895808	52	4696
2026-01-13 23:33:50.85	183.97	25.99	-40.3	-42.7	12.9	4.42e-05	0	61	0	1663041536	52	4688
2026-01-13 23:33:51.86	184.04	25.83	-40.2	-42.7	13.0	3.66e-05	0	61	0	1666187264	52	4654
2026-01-13 23:33:52.88	184.10	25.66	-40.2	-42.7	13.0	4.19e-05	0	61	0	1669332992	52	4655
2026-01-13 23:33:53.89	184.16	25.50	-40.2	-42.6	13.0	5.11e-05	0	61	0	1672478720	52	4640
2026-01-13 23:33:54.90	184.22	25.34	-40.2	-42.6	13.0	3.96e-05	0	61	0	1675624448	52	4624
2026-01-13 23:33:55.91	184.28	25.18	-40.2	-42.6	13.1	2.67e-05	0	61	0	1678770176	52	4615
2026-01-13 23:33:56.92	184.34	25.02	-40.2	-42.6	13.1	2.36e-05	0	61	0	1681915904	52	4607
2026-01-13 23:33:57.93	184.40	24.87	-40.2	-42.6	13.1	4.34e-05	0	61	0	1685061632	52	4609
2026-01-13 23:33:58.94	184.46	24.71	-40.1	-42.6	13.1	3.96e-05	0	61	0	1688207360	52	4599
2026-01-13 23:33:59.95	184.52	24.55	-40.2	-42.6	13.0	2.67e-05	0	61	0	1691353088	52	4632
2026-01-13 23:34:00.96	184.58	24.40	-40.2	-42.7	13.0	3.89e-05	0	61	0	1694498816	52	4656
2026-01-13 23:34:01.97	184.64	24.24	-40.3	-42.7	12.9	4.34e-05	0	61	0	1697644544	52	4688
2026-01-13 23:34:02.98	184.69	24.09	-40.3	-42.8	12.8	5.56e-05	0	61	0	1700790272	52	4745
2026-01-13 23:34:03.99	184.75	23.94	-40.3	-42.8	12.8	5.34e-05	0	61	0	1703936000	52	4741
2026-01-13 23:34:05.00	184.81	23.79	-40.4	-42.9	12.8	6.33e-05	0	61	0	1707081728	52	4777
2026-01-13 23:34:06.01	184.86	23.63	-40.3	-42.8	12.8	5.87e-05	0	61	0	1710227456	52	4752
2026-01-13 23:34:07.02	184.92	23.48	-40.2	-42.7	12.9	4.50e-05	0	61	0	1713373184	52	4683
2026-01-13 23:34:08.03	184.97	23.34	-40.2	-42.6	13.0	3.81e-05	0	61	0	1716518912	52	4651
2026-01-13 23:34:09.04	185.02	23.19	-40.2	-42.6	13.0	4.34e-05	0	61	0	1719664640	52	4642
2026-01-13 23:34:10.05	185.08	23.04	-40.2	-42.6	13.0	2.97e-05	0	61	0	1722810368	52	4631
2026-01-13 23:34:11.06	185.13	22.89	-40.1	-42.5	13.1	3.73e-05	0	61	0	1725956096	52	4570
2026-01-13 23:34:12.07	185.18	22.75	-40.1	-42.5	13.1	3.66e-05	0	61	0	1729101824	52	4548
2026-01-13 23:34:13.08	185.24	22.60	-40.0	-42.4	13.2	2.21e-05	0	61	0	1732247552	52	4506
2026-01-13 23:34:14.10	185.29	22.46	-40.0	-42.3	13.2	1.67e-05	0	61	0	1735393280	52	4493
2026-01-13 23:34:15.11	185.34	22.31	-40.0	-42.4	13.3	1.44e-05	0	61	0	1738539008	51	4771
2026-01-13 23:34:16.12	185.39	22.17	-40.0	-42.3	13.4	1.75e-05	0	61	0	1741684736	51	4754
2026-01-13 23:34:17.13	185.44	22.03	-40.0	-42.4	13.3	1.37e-05	0	61	0	1744830464	51	4766
2026-01-13 23:34:18.14	185.49	21.89	-40.0	-42.4	13.3	1.44e-05	0	61	0	1747976192	51	4764
2026-01-13 23:34:19.15	185.54	21.75	-40.0	-42.3	13.3	1.67e-05	0	61	0	1751121920	51	4756
2026-01-13 23:34:20.16	185.59	21.61	-40.1	-42.4	13.2	2.13e-05	0	61	0	1754267648	51	4812
2026-01-13 23:34:21.17	185.64	21.47	-40.1	-42.4	13.2	2.67e-05	0	61	0	1757413376	51	4804
2026-01-13 23:34:22.18	185.68	21.33	-40.1	-42.4	13.2	3.35e-05	0	61	0	1760559104	51	4810
2026-01-13 23:34:23.19	185.73	21.19	-40.1	-42.5	13.2	1.90e-05	0	61	0	1763704832	51	4840
2026-01-13 23:34:24.20	185.78	21.06	-40.1	-42.5	13.1	1.98e-05	0	61	0	1766850560	51	4849
2026-01-13 23:34:25.21	185.83	20.92	-40.1	-42.4	13.2	2.36e-05	0	61	0	1769996288	51	4814
2026-01-13 23:34:26.22	185.87	20.78	-40.1	-42.4	13.2	2.44e-05	0	61	0	1773142016	51	4814
2026-01-13 23:34:27.23	185.92	20.65	-40.1	-42.5	13.2	2.05e-05	0	61	0	1776287744	51	4824
2026-01-13 23:34:28.24	185.96	20.52	-40.0	-42.4	13.3	1.90e-05	0	61	0	1779433472	51	4770
2026-01-13 23:34:29.25	186.01	20.38	-40.0	-42.4	13.3	2.21e-05	0	61	0	1782579200	51	4762
2026-01-13 23:34:30.26	186.06	20.25	-40.0	-42.4	13.3	1.90e-05	0	61	0	1785724928	51	4762
2026-01-13 23:34:31.27	186.10	20.12	-40.0	-42.4	13.3	1.29e-05	0	61	0	1788870656	51	4769
2026-01-13 23:34:32.28	186.14	19.99	-40.1	-42.4	13.2	2.21e-05	0	61	0	1792016384	51	4797
2026-01-13 23:34:33.29	186.19	19.86	-40.1	-42.4	13.2	2.74e-05	0	61	0	1795162112	51	4809
2026-01-13 23:34:34.30	186.23	19.73	-40.1	-42.5	13.1	2.89e-05	0	61	0	1798307840	51	4833
2026-01-13 23:34:35.31	186.28	19.60	-40.2	-42.7	13.0	3.43e-05	0	61	0	1801453568	51	4929
2026-01-13 23:34:36.32	186.32	19.47	-40.2	-42.7	12.9	4.73e-05	0	61	0	1804599296	51	4943
2026-01-13 23:34:37.33	186.36	19.34	-40.3	-42.8	12.8	4.95e-05	0	61	0	1807745024	51	5024
2026-01-13 23:34:38.34	186.40	19.22	-40.4	-43.0	12.6	7.93e-05	0	61	0	1810890752	51	5124
2026-01-13 23:34:39.35	186.45	19.09	-40.5	-43.1	12.5	1.12e-04	0	61	0	1814036480	51	5185
2026-01-13 23:34:40.36	186.49	18.96	-40.6	-43.2	12.4	1.40e-04	0	61	0	1817182208	51	5233
2026-01-13 23:34:41.37	186.53	18.84	-40.6	-43.3	12.3	1.65e-04	0	61	0	1820327936	51	5317
2026-01-13 23:34:42.38	186.57	18.71	-40.6	-43.3	12.3	1.92e-04	0	61	0	1823473664	51	5316
2026-01-13 23:34:43.39	186.61	18.59	-40.7	-43.4	12.2	2.14e-04	0	61	0	1826619392	51	5342
2026-01-13 23:34:44.40	186.65	18.47	-40.7	-43.4	12.2	2.54e-04	0	61	0	1829765120	51	5362
2026-01-13 23:34:45.41	186.69	18.34	-40.7	-43.4	12.1	2.46e-04	0	61	0	1832910848	51	5388
2026-01-13 23:34:46.42	186.73	18.22	-40.7	-43.4	12.1	2.54e-04	0	61	0	1836056576	52	5069
2026-01-13 23:34:47.43	186.77	18.10	-40.7	-43.4	12.0	2.84e-04	0	61	0	1839202304	52	5094
2026-01-13 23:34:48.44	186.81	17.98	-40.6	-43.4	12.1	2.55e-04	0	61	0	1842348032	52	5051
2026-01-13 23:34:49.45	186.85	17.86	-40.7	-43.5	12.0	3.39e-04	0	61	0	1845493760	52	5108
2026-01-13 23:34:50.45	186.89	17.74	-40.7	-43.4	12.0	3.10e-04	0	61	0	1848639488	52	5094
2026-01-13 23:34:51.46	186.93	17.62	-40.7	-43.4	12.0	3.13e-04	0	61	0	1851785216	52	5080
2026-01-13 23:34:52.47	186.96	17.50	-40.7	-43.4	12.0	3.07e-04	0	61	0	1854930944	52	5097
2026-01-13 23:34:53.49	187.00	17.38	-40.7	-43.4	12.0	3.20e-04	0	61	0	1858076672	52	5096
2026-01-13 23:34:54.50	187.04	17.26	-40.7	-43.4	12.0	3.23e-04	0	61	0	1861222400	52	5099
2026-01-13 23:34:55.50	187.08	17.15	-40.7	-43.5	12.0	3.46e-04	0	61	0	1864368128	52	5130
2026-01-13 23:34:56.51	187.11	17.03	-40.7	-43.5	11.9	3.45e-04	0	61	0	1867513856	52	5151
2026-01-13 23:34:57.52	187.15	16.91	-40.8	-43.6	11.8	4.36e-04	0	61	0	1871708160	52	5198
2026-01-13 23:34:58.53	187.19	16.80	-40.8	-43.7	11.8	4.53e-04	0	61	0	1874853888	52	5236
2026-01-13 23:34:59.54	187.22	16.68	-40.8	-43.6	11.9	4.52e-04	0	61	0	1876951040	52	5170
2026-01-13 23:35:00.55	187.26	16.57	-40.8	-43.6	11.8	4.23e-04	0	61	0	1880096768	52	5193
2026-01-13 23:35:01.56	187.30	16.46	-40.8	-43.6	11.8	4.55e-04	0	61	0	1883242496	52	5207
2026-01-13 23:35:02.57	187.33	16.34	-40.7	-43.6	11.9	4.57e-04	0	61	0	1886388224	52	5165
2026-01-13 23:35:03.58	187.37	16.23	-40.8	-43.6	11.9	4.32e-04	0	61	0	1890582528	52	5183
2026-01-13 23:35:04.59	187.40	16.12	-40.8	-43.6	11.8	4.48e-04	0	61	0	1893728256	52	5191
2026-01-13 23:35:05.60	187.44	16.01	-40.8	-43.6	11.9	4.21e-04	0	61	0	1896873984	52	5186
2026-01-13 23:35:06.61	187.47	15.89	-40.8	-43.6	11.8	4.49e-04	0	61	0	1900019712	52	5210
2026-01-13 23:35:07.62	187.51	15.78	-40.8	-43.6	11.8	4.64e-04	0	61	0	1902116864	52	5192
2026-01-13 23:35:08.63	187.54	15.67	-40.8	-43.6	11.9	3.87e-04	0	61	0	1906311168	52	5182
