passes_logs/2026/01/13/R2.0S_Moscow/R2.0S_Moscow__20260113_111406_NOAA_21_JPSS-2_rec.log

#Pass ID: 20260113_111406_NOAA 21 (JPSS-2)
#Satellite: NOAA 21 (JPSS-2)
#Configuration: NOAA-21
#almurnet v.1.7.20251203
#Start time: 2026-01-13 11:16:18

#Version: 2.2.20231116
#Station: R2.0S_Moscow
#Location: 37.707566 lon 55.798166 lat
#TLE: 1 54234U 22150A   26012.26378519  .00000063  00000+0  50547-4 0  9993
#TLE: 2 54234  98.7495 313.1967 0000726 309.1075  51.0036 14.19534275164425

#Time	Az	El	Level	Level2	SNR	BER	BlckErr	Temp	State	Recorded	gain1	gain2
2026-01-13 11:16:18.74	210.90	10.52	-45.1	-56.6	3.8	8.46e-01	0	59	0	0	60	14665
2026-01-13 11:16:19.75	211.01	10.60	-45.3	-57.5	3.8	1.49e+00	0	59	104	0	62	14400
2026-01-13 11:16:20.76	211.11	10.67	-45.3	-57.5	3.8	1.49e+00	0	59	104	0	62	14427
2026-01-13 11:16:21.77	211.22	10.74	-45.3	-57.5	3.8	1.49e+00	0	59	104	0	62	14450
2026-01-13 11:16:22.77	211.33	10.82	-45.2	-57.4	3.8	1.49e+00	0	59	104	0	62	14353
2026-01-13 11:16:23.79	211.45	10.89	-45.2	-57.4	3.8	1.49e+00	0	59	104	0	62	14257
2026-01-13 11:16:24.80	211.56	10.97	-45.2	-57.4	3.8	1.49e+00	0	60	104	0	62	14248
2026-01-13 11:16:25.81	211.67	11.04	-45.1	-57.3	3.8	1.49e+00	0	59	104	0	62	14118
2026-01-13 11:16:26.82	211.78	11.11	-45.1	-57.1	3.8	1.49e+00	0	59	104	0	62	13859
2026-01-13 11:16:27.83	211.90	11.19	-44.9	-57.0	3.8	1.49e+00	0	59	104	0	61	14505
2026-01-13 11:16:28.84	212.01	11.26	-44.8	-57.0	3.8	1.49e+00	0	60	104	0	61	14410
2026-01-13 11:16:29.85	212.12	11.34	-44.7	-56.8	3.8	1.49e+00	0	60	104	0	61	14074
2026-01-13 11:16:30.86	212.24	11.41	-44.7	-56.7	3.8	1.49e+00	0	59	104	0	61	13950
2026-01-13 11:16:31.87	212.36	11.48	-44.6	-56.6	3.8	1.49e+00	0	59	104	0	61	13833
2026-01-13 11:16:32.88	212.47	11.56	-44.6	-56.6	3.8	1.49e+00	0	60	104	0	60	14566
2026-01-13 11:16:33.89	212.59	11.63	-44.6	-56.5	3.8	1.49e+00	0	59	104	0	60	14526
2026-01-13 11:16:34.90	212.71	11.71	-44.6	-56.6	3.8	1.49e+00	0	59	104	0	60	14550
2026-01-13 11:16:35.91	212.82	11.78	-44.6	-56.5	3.8	1.49e+00	0	59	104	0	60	14524
2026-01-13 11:16:36.92	212.94	11.86	-44.6	-56.5	3.8	1.49e+00	0	60	104	0	60	14540
2026-01-13 11:16:37.93	213.06	11.94	-44.3	-56.3	3.8	1.49e+00	0	59	104	0	59	14981
2026-01-13 11:16:38.94	213.18	12.01	-44.5	-56.2	3.8	1.49e+00	0	59	104	0	59	14839
2026-01-13 11:16:39.95	213.30	12.09	-44.6	-56.1	3.8	1.49e+00	0	60	104	0	59	14623
2026-01-13 11:16:40.96	213.42	12.16	-44.6	-56.0	3.8	1.49e+00	0	59	104	0	59	14399
2026-01-13 11:16:41.97	213.54	12.24	-44.6	-55.8	3.8	1.49e+00	0	60	104	0	59	14138
2026-01-13 11:16:42.98	213.66	12.31	-44.6	-55.6	3.8	1.49e+00	0	59	104	0	59	13852
2026-01-13 11:16:44.00	213.79	12.39	-44.6	-55.4	3.8	1.49e+00	0	60	104	0	59	13436
2026-01-13 11:16:45.00	213.91	12.47	-44.4	-55.2	3.8	1.49e+00	0	60	104	0	59	13191
2026-01-13 11:16:46.02	214.04	12.54	-44.5	-54.8	3.8	1.49e+00	0	59	104	0	59	12610
2026-01-13 11:16:47.02	214.16	12.62	-44.4	-54.3	3.9	1.48e+00	0	59	104	0	59	11826
2026-01-13 11:16:48.04	214.29	12.70	-44.3	-53.1	4.2	1.47e+00	0	59	104	0	59	10400
2026-01-13 11:16:49.05	214.41	12.77	-44.2	-53.0	4.0	1.40e+00	0	59	104	0	59	10185
2026-01-13 11:16:50.06	214.54	12.85	-44.1	-51.7	4.8	1.19e+00	0	59	104	0	59	8781
2026-01-13 11:16:51.07	214.66	12.93	-43.9	-51.0	5.1	6.70e-01	0	60	0	1048576	59	8151
2026-01-13 11:16:52.08	214.79	13.00	-43.8	-50.5	5.4	5.35e-01	0	59	0	4194304	59	7655
2026-01-13 11:16:53.09	214.92	13.08	-43.7	-49.8	5.9	3.96e-01	0	59	0	7340032	59	7079
2026-01-13 11:16:54.10	215.05	13.16	-43.5	-49.3	6.3	2.87e-01	0	60	0	10485760	59	6715
2026-01-13 11:16:55.11	215.18	13.24	-43.4	-48.9	6.7	2.16e-01	0	59	0	13631488	58	6740
2026-01-13 11:16:56.12	215.31	13.31	-43.3	-48.5	7.0	1.70e-01	0	60	0	16777216	58	6479
2026-01-13 11:16:57.13	215.44	13.39	-43.1	-48.1	7.4	1.22e-01	0	60	0	19922944	58	6177
2026-01-13 11:16:58.14	215.57	13.47	-43.0	-47.8	7.6	9.19e-02	0	60	0	23068672	57	6322
2026-01-13 11:16:59.15	215.70	13.55	-43.0	-47.9	7.6	9.87e-02	0	59	0	26214400	57	6362
2026-01-13 11:17:00.16	215.84	13.62	-43.0	-48.0	7.5	9.94e-02	0	59	0	29360128	57	6436
2026-01-13 11:17:01.17	215.97	13.70	-43.1	-48.1	7.4	1.11e-01	0	59	0	32505856	57	6539
2026-01-13 11:17:02.18	216.11	13.78	-43.1	-48.4	7.1	1.42e-01	0	60	0	35651584	57	6746
2026-01-13 11:17:03.19	216.24	13.86	-43.3	-48.7	6.8	1.82e-01	0	59	0	38797312	57	7032
2026-01-13 11:17:04.20	216.38	13.94	-43.3	-48.7	6.8	1.86e-01	0	59	0	41943040	57	7005
2026-01-13 11:17:05.21	216.51	14.02	-43.2	-48.4	7.1	1.59e-01	0	60	0	45088768	57	6774
2026-01-13 11:17:06.22	216.65	14.09	-42.9	-47.8	7.6	1.14e-01	0	60	0	48234496	57	6303
2026-01-13 11:17:07.23	216.79	14.17	-42.6	-47.0	8.5	5.53e-02	0	59	0	51380224	57	5733
2026-01-13 11:17:08.24	216.93	14.25	-42.2	-46.1	9.3	2.40e-02	0	59	0	54525952	56	5523
2026-01-13 11:17:09.25	217.06	14.33	-41.8	-45.4	9.9	9.89e-03	0	60	0	57671680	55	5361
2026-01-13 11:17:10.26	217.20	14.41	-41.6	-45.0	10.4	5.21e-03	0	60	0	60817408	55	5142
2026-01-13 11:17:11.27	217.35	14.49	-41.5	-44.9	10.4	4.41e-03	0	60	0	63963136	55	5089
2026-01-13 11:17:12.28	217.49	14.57	-41.7	-45.1	10.2	5.40e-03	0	60	0	67108864	54	5528
2026-01-13 11:17:13.29	217.63	14.65	-40.9	-43.9	11.6	1.00e-02	0	59	0	70254592	53	5065
2026-01-13 11:17:14.30	217.77	14.73	-44.7	-55.3	3.8	1.49e+00	0	59	104	71303168	60	12622
2026-01-13 11:17:15.31	217.92	14.81	-42.0	-45.7	9.8	2.73e-02	0	59	0	72351744	56	5266
2026-01-13 11:17:16.33	218.06	14.89	-44.2	-52.4	4.4	1.48e+00	0	60	104	73400320	59	9513
2026-01-13 11:17:17.34	218.21	14.97	-44.4	-54.5	3.9	1.49e+00	0	60	104	73400320	59	12188
2026-01-13 11:17:18.35	218.35	15.05	-42.1	-46.0	9.4	3.11e-02	0	59	0	75497472	55	5753
2026-01-13 11:17:19.35	218.50	15.13	-41.1	-44.2	11.3	1.95e-03	0	59	0	78643200	54	4955
2026-01-13 11:17:20.36	218.64	15.21	-41.1	-44.1	11.4	1.27e-03	0	60	0	81788928	54	4887
2026-01-13 11:17:21.37	218.79	15.29	-40.9	-43.9	11.5	8.88e-04	0	59	0	84934656	53	5068
2026-01-13 11:17:22.38	218.94	15.37	-40.9	-43.9	11.6	8.17e-04	0	60	0	87031808	53	5051
2026-01-13 11:17:23.39	219.09	15.45	-40.9	-43.8	11.6	6.77e-04	0	60	0	91226112	53	5038
2026-01-13 11:17:24.40	219.24	15.53	-40.9	-43.9	11.6	6.83e-04	0	59	0	94371840	53	5063
2026-01-13 11:17:25.41	219.39	15.61	-40.9	-43.8	11.7	6.33e-04	0	59	0	97517568	53	4994
2026-01-13 11:17:26.42	219.55	15.69	-40.8	-43.8	11.7	6.25e-04	0	59	0	100663296	53	4994
2026-01-13 11:17:27.43	219.70	15.77	-40.8	-43.7	11.8	4.84e-04	0	60	0	103809024	53	4928
2026-01-13 11:17:28.44	219.85	15.85	-40.9	-43.7	11.7	5.29e-04	0	59	0	106954752	53	4975
2026-01-13 11:17:29.45	220.01	15.93	-40.8	-43.6	11.8	4.82e-04	0	59	0	110100480	53	4923
2026-01-13 11:17:30.46	220.16	16.01	-40.8	-43.7	11.8	4.97e-04	0	60	0	113246208	53	4927
2026-01-13 11:17:31.47	220.32	16.09	-40.8	-43.6	11.9	4.79e-04	0	59	0	116391936	53	4921
2026-01-13 11:17:32.48	220.47	16.17	-40.8	-43.6	11.9	4.23e-04	0	60	0	119537664	53	4908
2026-01-13 11:17:33.49	220.63	16.25	-40.8	-43.5	12.0	3.70e-04	0	60	0	122683392	53	4869
2026-01-13 11:17:34.49	220.79	16.33	-40.8	-43.6	11.9	3.75e-04	0	59	0	125829120	53	4910
2026-01-13 11:17:35.50	220.95	16.41	-40.8	-43.6	12.0	3.89e-04	0	60	0	128974848	53	4871
2026-01-13 11:17:36.51	221.11	16.49	-40.8	-43.6	12.0	3.42e-04	0	59	0	132120576	53	4877
2026-01-13 11:17:37.53	221.27	16.58	-40.7	-43.5	12.0	3.09e-04	0	59	0	135266304	53	4842
2026-01-13 11:17:38.53	221.43	16.66	-40.8	-43.6	11.9	3.48e-04	0	60	0	138412032	53	4889
2026-01-13 11:17:39.55	221.60	16.74	-40.8	-43.6	12.0	3.49e-04	0	59	0	141557760	53	4875
2026-01-13 11:17:40.56	221.76	16.82	-40.8	-43.6	11.9	4.52e-04	0	60	0	144703488	53	4920
2026-01-13 11:17:41.57	221.92	16.90	-40.9	-43.8	11.7	5.07e-04	0	59	0	147849216	53	5016
2026-01-13 11:17:42.57	222.09	16.98	-40.9	-43.8	11.8	4.75e-04	0	59	0	150994944	53	4985
2026-01-13 11:17:43.58	222.25	17.06	-40.9	-43.8	11.7	5.01e-04	0	59	0	154140672	53	5024
2026-01-13 11:17:44.59	222.42	17.14	-40.9	-43.8	11.8	5.46e-04	0	60	0	157286400	53	4998
2026-01-13 11:17:45.60	222.59	17.23	-40.9	-43.8	11.7	5.56e-04	0	60	0	160432128	53	5039
2026-01-13 11:17:46.61	222.76	17.31	-40.9	-43.8	11.7	5.29e-04	0	59	0	163577856	53	5026
2026-01-13 11:17:47.62	222.93	17.39	-40.9	-43.8	11.7	5.03e-04	0	60	0	166723584	53	5038
2026-01-13 11:17:48.63	223.10	17.47	-40.9	-43.9	11.7	5.35e-04	0	60	0	169869312	53	5042
2026-01-13 11:17:49.64	223.27	17.55	-41.0	-43.9	11.7	5.68e-04	0	59	0	173015040	53	5046
2026-01-13 11:17:50.65	223.44	17.63	-41.0	-43.9	11.7	5.92e-04	0	59	0	176160768	53	5050
2026-01-13 11:17:51.66	223.62	17.72	-41.0	-44.0	11.6	6.70e-04	0	60	0	179306496	53	5109
2026-01-13 11:17:52.67	223.79	17.80	-41.1	-44.0	11.5	7.88e-04	0	60	0	182452224	53	5149
2026-01-13 11:17:53.68	223.96	17.88	-41.0	-44.0	11.6	7.85e-04	0	60	0	185597952	53	5102
2026-01-13 11:17:54.69	224.14	17.96	-41.0	-44.0	11.6	7.78e-04	0	60	0	188743680	53	5113
2026-01-13 11:17:55.70	224.32	18.04	-41.0	-43.9	11.6	7.61e-04	0	60	0	191889408	53	5093
2026-01-13 11:17:56.71	224.50	18.12	-41.0	-44.0	11.6	6.30e-04	0	60	0	195035136	53	5123
2026-01-13 11:17:57.72	224.67	18.21	-41.0	-43.9	11.7	5.78e-04	0	60	0	198180864	53	5053
2026-01-13 11:17:58.73	224.85	18.29	-40.9	-43.8	11.8	5.29e-04	0	60	0	201326592	53	5015
2026-01-13 11:17:59.75	225.04	18.37	-40.9	-43.8	11.8	4.59e-04	0	59	0	204472320	53	4984
2026-01-13 11:18:00.76	225.22	18.45	-40.8	-43.6	11.9	3.69e-04	0	60	0	207618048	53	4920
2026-01-13 11:18:01.76	225.40	18.53	-40.8	-43.6	12.0	3.92e-04	0	60	0	210763776	53	4898
2026-01-13 11:18:02.77	225.58	18.62	-40.8	-43.5	12.1	3.10e-04	0	60	0	213909504	53	4829
2026-01-13 11:18:03.78	225.77	18.70	-40.7	-43.5	12.2	2.88e-04	0	59	0	217055232	53	4817
2026-01-13 11:18:04.80	225.96	18.78	-40.7	-43.4	12.2	2.59e-04	0	60	0	220200960	53	4776
2026-01-13 11:18:05.80	226.14	18.86	-40.6	-43.3	12.3	1.72e-04	0	60	0	223346688	53	4734
2026-01-13 11:18:06.81	226.33	18.94	-40.6	-43.3	12.3	1.75e-04	0	60	0	226492416	53	4719
2026-01-13 11:18:07.82	226.52	19.02	-40.6	-43.2	12.3	1.56e-04	0	59	0	229638144	53	4705
2026-01-13 11:18:08.83	226.71	19.11	-40.6	-43.2	12.4	1.52e-04	0	60	0	232783872	53	4698
2026-01-13 11:18:09.84	226.90	19.19	-40.6	-43.3	12.3	1.71e-04	0	60	0	235929600	53	4735
2026-01-13 11:18:10.85	227.09	19.27	-40.6	-43.2	12.4	1.58e-04	0	60	0	239075328	53	4670
2026-01-13 11:18:11.86	227.28	19.35	-40.5	-43.1	12.5	1.40e-04	0	60	0	242221056	53	4622
2026-01-13 11:18:12.87	227.47	19.43	-40.5	-43.1	12.6	1.07e-04	0	59	0	245366784	53	4616
2026-01-13 11:18:13.88	227.67	19.51	-40.4	-42.9	12.7	7.32e-05	0	60	0	248512512	52	4808
2026-01-13 11:18:14.89	227.86	19.59	-40.3	-42.8	12.8	5.64e-05	0	60	0	251658240	52	4730
2026-01-13 11:18:15.90	228.06	19.68	-40.3	-42.7	12.9	4.80e-05	0	59	0	254803968	52	4686
2026-01-13 11:18:16.91	228.26	19.76	-40.2	-42.7	13.0	4.73e-05	0	60	0	257949696	52	4675
2026-01-13 11:18:17.92	228.46	19.84	-40.2	-42.7	13.0	3.66e-05	0	60	0	261095424	52	4657
2026-01-13 11:18:18.93	228.66	19.92	-40.3	-42.8	12.9	5.79e-05	0	60	0	264241152	52	4716
2026-01-13 11:18:19.94	228.86	20.00	-40.3	-42.7	12.9	5.34e-05	0	60	0	267386880	52	4692
2026-01-13 11:18:20.95	229.06	20.08	-40.3	-42.7	12.9	3.12e-05	0	60	0	270532608	52	4684
2026-01-13 11:18:21.96	229.26	20.16	-40.2	-42.7	13.0	3.35e-05	0	60	0	273678336	52	4672
2026-01-13 11:18:22.97	229.46	20.24	-40.2	-42.7	13.0	3.96e-05	0	60	0	276824064	52	4663
2026-01-13 11:18:23.98	229.67	20.32	-40.2	-42.6	13.0	3.73e-05	0	60	0	279969792	52	4647
2026-01-13 11:18:24.99	229.87	20.40	-40.2	-42.7	13.0	3.89e-05	0	60	0	283115520	52	4674
2026-01-13 11:18:26.00	230.08	20.48	-40.2	-42.7	13.0	3.66e-05	0	60	0	286261248	52	4673
2026-01-13 11:18:27.01	230.29	20.56	-40.3	-42.7	13.0	5.49e-05	0	59	0	289406976	52	4685
2026-01-13 11:18:28.02	230.50	20.64	-40.2	-42.7	13.0	4.11e-05	0	60	0	292552704	52	4663
2026-01-13 11:18:29.03	230.71	20.72	-40.2	-42.6	13.0	4.34e-05	0	60	0	295698432	52	4640
2026-01-13 11:18:30.04	230.92	20.80	-40.1	-42.5	13.1	2.67e-05	0	60	0	298844160	52	4588
2026-01-13 11:18:31.05	231.13	20.88	-40.1	-42.4	13.2	2.82e-05	0	60	0	301989888	52	4544
2026-01-13 11:18:32.06	231.34	20.96	-40.0	-42.3	13.3	1.67e-05	0	60	0	305135616	52	4483
2026-01-13 11:18:33.07	231.56	21.04	-40.0	-42.2	13.6	1.37e-05	0	60	0	308281344	51	4682
2026-01-13 11:18:34.08	231.77	21.12	-40.0	-42.2	13.5	6.80e-06	0	60	0	311427072	51	4691
2026-01-13 11:18:35.09	231.99	21.20	-39.9	-42.1	13.7	4.50e-06	0	59	0	314572800	51	4632
2026-01-13 11:18:36.10	232.21	21.28	-39.8	-42.0	13.8	4.50e-06	0	60	0	317718528	51	4579
2026-01-13 11:18:37.11	232.43	21.36	-39.8	-42.0	13.8	8.30e-06	0	60	0	320864256	51	4570
2026-01-13 11:18:38.12	232.65	21.44	-39.7	-41.9	13.8	4.50e-06	0	60	0	324009984	51	4528
2026-01-13 11:18:39.13	232.87	21.52	-39.7	-41.9	13.9	4.50e-06	0	59	0	327155712	51	4512
2026-01-13 11:18:40.14	233.09	21.59	-39.6	-41.8	14.0	3.80e-06	0	60	0	330301440	51	4462
2026-01-13 11:18:41.15	233.31	21.67	-39.7	-41.8	14.0	3.00e-06	0	60	0	333447168	51	4471
2026-01-13 11:18:42.16	233.54	21.75	-39.6	-41.7	14.0	2.20e-06	0	60	0	336592896	51	4436
2026-01-13 11:18:43.17	233.76	21.83	-39.6	-41.7	14.1	3.00e-06	0	60	0	339738624	51	4423
2026-01-13 11:18:44.19	233.99	21.91	-39.6	-41.7	14.0	2.20e-06	0	60	0	342884352	51	4439
2026-01-13 11:18:45.19	234.21	21.98	-39.6	-41.8	14.0	3.00e-06	0	60	0	346030080	51	4447
2026-01-13 11:18:46.20	234.44	22.06	-39.6	-41.7	14.0	7.00e-07	0	60	0	349175808	51	4438
2026-01-13 11:18:47.21	234.67	22.14	-39.6	-41.7	14.0	1.50e-06	0	60	0	352321536	51	4438
2026-01-13 11:18:48.22	234.90	22.21	-39.6	-41.7	14.1	3.00e-06	0	60	0	355467264	51	4410
2026-01-13 11:18:49.23	235.13	22.29	-39.6	-41.7	14.1	3.80e-06	0	59	0	358612992	51	4408
2026-01-13 11:18:50.24	235.37	22.37	-39.6	-41.7	14.0	3.00e-06	0	60	0	361758720	51	4430
2026-01-13 11:18:51.25	235.60	22.44	-39.6	-41.7	14.1	2.20e-06	0	60	0	364904448	51	4407
2026-01-13 11:18:52.26	235.84	22.52	-39.6	-41.8	14.0	2.20e-06	0	60	0	368050176	51	4458
2026-01-13 11:18:53.27	236.07	22.59	-39.6	-41.7	14.1	7.00e-07	0	59	0	371195904	51	4414
2026-01-13 11:18:54.28	236.31	22.67	-39.6	-41.7	14.0	2.20e-06	0	60	0	374341632	51	4430
2026-01-13 11:18:55.29	236.55	22.74	-39.6	-41.7	14.1	2.20e-06	0	60	0	377487360	51	4439
2026-01-13 11:18:56.30	236.79	22.82	-39.7	-41.9	13.9	6.80e-06	0	60	0	380633088	51	4504
2026-01-13 11:18:57.31	237.03	22.89	-39.7	-41.9	13.9	7.00e-07	0	59	0	383778816	51	4514
2026-01-13 11:18:58.31	237.27	22.96	-39.8	-42.0	13.8	3.00e-06	0	60	0	386924544	51	4555
2026-01-13 11:18:59.32	237.51	23.04	-39.8	-42.0	13.8	2.20e-06	0	59	0	390070272	51	4565
2026-01-13 11:19:00.33	237.76	23.11	-39.8	-42.0	13.8	3.80e-06	0	60	0	393216000	51	4578
2026-01-13 11:19:01.34	238.00	23.18	-39.8	-42.0	13.7	3.80e-06	0	60	0	397410304	51	4586
2026-01-13 11:19:02.35	238.25	23.26	-39.8	-42.0	13.8	3.80e-06	0	60	0	400556032	51	4578
2026-01-13 11:19:03.36	238.49	23.33	-39.8	-42.0	13.7	9.90e-06	0	60	0	402653184	51	4595
2026-01-13 11:19:04.37	238.74	23.40	-39.8	-42.0	13.8	3.80e-06	0	60	0	405798912	51	4590
2026-01-13 11:19:05.38	238.99	23.47	-39.8	-42.1	13.7	7.60e-06	0	60	0	408944640	51	4616
2026-01-13 11:19:06.39	239.24	23.54	-39.8	-42.1	13.7	2.20e-06	0	60	0	413138944	51	4607
2026-01-13 11:19:07.40	239.50	23.61	-39.9	-42.1	13.7	9.90e-06	0	60	0	416284672	51	4637
2026-01-13 11:19:08.41	239.75	23.68	-39.9	-42.1	13.7	4.50e-06	0	60	0	419430400	51	4637
2026-01-13 11:19:09.42	240.00	23.75	-39.9	-42.2	13.6	4.50e-06	0	59	0	422576128	51	4671
2026-01-13 11:19:10.43	240.26	23.82	-39.9	-42.2	13.6	1.44e-05	0	60	0	424673280	51	4669
2026-01-13 11:19:11.44	240.51	23.89	-39.9	-42.2	13.6	9.90e-06	0	60	0	427819008	51	4674
2026-01-13 11:19:12.45	240.77	23.96	-39.9	-42.1	13.7	6.80e-06	0	59	0	432013312	51	4624
2026-01-13 11:19:13.46	241.03	24.03	-39.9	-42.1	13.7	4.50e-06	0	59	0	435159040	51	4620
2026-01-13 11:19:14.47	241.29	24.10	-39.9	-42.1	13.7	5.30e-06	0	60	0	438304768	51	4618
2026-01-13 11:19:15.48	241.55	24.17	-39.9	-42.1	13.7	9.10e-06	0	60	0	441450496	51	4621
2026-01-13 11:19:16.49	241.81	24.23	-40.0	-42.2	13.5	1.22e-05	0	60	0	444596224	51	4701
2026-01-13 11:19:17.50	242.07	24.30	-40.1	-42.3	13.4	1.14e-05	0	60	0	447741952	51	4758
2026-01-13 11:19:18.51	242.34	24.37	-40.2	-42.5	13.3	1.22e-05	0	60	0	450887680	51	4853
2026-01-13 11:19:19.52	242.60	24.43	-40.3	-42.6	13.2	1.90e-05	0	60	0	454033408	51	4922
2026-01-13 11:19:20.53	242.87	24.50	-40.3	-42.7	13.1	3.12e-05	0	60	0	457179136	51	4939
2026-01-13 11:19:21.54	243.14	24.56	-40.3	-42.6	13.1	2.97e-05	0	60	0	460324864	51	4923
2026-01-13 11:19:22.55	243.40	24.63	-40.2	-42.5	13.3	1.75e-05	0	60	0	463470592	51	4864
2026-01-13 11:19:23.55	243.67	24.69	-40.1	-42.4	13.4	1.44e-05	0	60	0	466616320	51	4808
2026-01-13 11:19:24.56	243.94	24.75	-40.1	-42.4	13.4	1.52e-05	0	60	0	469762048	51	4791
2026-01-13 11:19:25.57	244.21	24.81	-40.1	-42.4	13.4	9.10e-06	0	60	0	472907776	51	4775
2026-01-13 11:19:26.58	244.49	24.88	-40.1	-42.4	13.4	9.10e-06	0	60	0	476053504	51	4784
2026-01-13 11:19:27.60	244.76	24.94	-40.1	-42.4	13.4	1.98e-05	0	60	0	479199232	51	4787
2026-01-13 11:19:28.61	245.04	25.00	-40.1	-42.4	13.4	1.29e-05	0	60	0	482344960	51	4796
2026-01-13 11:19:29.62	245.31	25.06	-40.1	-42.5	13.4	1.75e-05	0	60	0	485490688	51	4836
2026-01-13 11:19:30.63	245.59	25.12	-40.1	-42.5	13.3	1.83e-05	0	60	0	488636416	51	4828
2026-01-13 11:19:31.64	245.87	25.18	-40.2	-42.6	13.2	2.51e-05	0	60	0	491782144	51	4882
2026-01-13 11:19:32.65	246.14	25.24	-40.2	-42.6	13.2	2.05e-05	0	59	0	494927872	51	4895
2026-01-13 11:19:33.66	246.42	25.30	-40.2	-42.5	13.3	2.05e-05	0	60	0	498073600	51	4855
2026-01-13 11:19:34.67	246.70	25.36	-40.2	-42.5	13.2	2.13e-05	0	60	0	501219328	51	4859
2026-01-13 11:19:35.68	246.99	25.41	-40.1	-42.4	13.4	1.52e-05	0	60	0	504365056	51	4804
2026-01-13 11:19:36.69	247.27	25.47	-40.2	-42.5	13.3	1.44e-05	0	60	0	507510784	51	4837
2026-01-13 11:19:37.70	247.55	25.53	-40.2	-42.5	13.3	1.83e-05	0	60	0	510656512	51	4840
2026-01-13 11:19:38.71	247.84	25.58	-40.2	-42.6	13.2	1.98e-05	0	60	0	513802240	51	4884
2026-01-13 11:19:39.72	248.12	25.64	-40.2	-42.6	13.2	2.44e-05	0	60	0	516947968	51	4903
2026-01-13 11:19:40.73	248.41	25.69	-40.3	-42.6	13.2	3.12e-05	0	60	0	520093696	51	4923
2026-01-13 11:19:41.73	248.69	25.74	-40.2	-42.6	13.2	1.60e-05	0	60	0	523239424	51	4894
2026-01-13 11:19:42.75	248.99	25.80	-40.1	-42.5	13.3	1.37e-05	0	60	0	526385152	51	4817
2026-01-13 11:19:43.76	249.27	25.85	-40.1	-42.4	13.3	1.44e-05	0	60	0	529530880	51	4784
2026-01-13 11:19:44.77	249.56	25.90	-40.1	-42.4	13.4	7.60e-06	0	60	0	532676608	51	4768
2026-01-13 11:19:45.78	249.86	25.95	-40.1	-42.4	13.3	1.52e-05	0	60	0	535822336	51	4810
2026-01-13 11:19:46.79	250.15	26.00	-40.2	-42.5	13.2	1.90e-05	0	60	0	538968064	51	4867
2026-01-13 11:19:47.80	250.44	26.05	-40.2	-42.5	13.3	1.98e-05	0	60	0	542113792	51	4865
2026-01-13 11:19:48.81	250.74	26.10	-40.1	-42.4	13.4	1.52e-05	0	60	0	545259520	51	4804
2026-01-13 11:19:49.81	251.03	26.15	-40.0	-42.3	13.5	1.22e-05	0	60	0	548405248	51	4741
2026-01-13 11:19:50.82	251.32	26.19	-40.0	-42.3	13.6	1.22e-05	0	60	0	551550976	51	4723
2026-01-13 11:19:51.83	251.62	26.24	-40.0	-42.3	13.5	6.80e-06	0	60	0	554696704	51	4752
2026-01-13 11:19:52.84	251.92	26.29	-40.0	-42.3	13.5	1.14e-05	0	60	0	557842432	51	4742
2026-01-13 11:19:53.85	252.21	26.33	-40.1	-42.4	13.4	1.44e-05	0	60	0	560988160	51	4773
2026-01-13 11:19:54.86	252.51	26.38	-40.1	-42.5	13.3	6.10e-06	0	60	0	564133888	51	4816
2026-01-13 11:19:55.87	252.81	26.42	-40.2	-42.6	13.2	2.13e-05	0	60	0	567279616	51	4884
2026-01-13 11:19:56.88	253.11	26.46	-40.3	-42.7	13.1	2.36e-05	0	60	0	570425344	51	4947
2026-01-13 11:19:57.89	253.42	26.51	-40.3	-42.7	13.1	2.36e-05	0	60	0	573571072	51	4959
2026-01-13 11:19:58.90	253.72	26.55	-40.2	-42.5	13.3	1.98e-05	0	60	0	576716800	51	4864
2026-01-13 11:19:59.91	254.02	26.59	-40.1	-42.4	13.4	1.29e-05	0	60	0	579862528	51	4772
2026-01-13 11:20:00.92	254.32	26.63	-40.0	-42.3	13.5	1.29e-05	0	60	0	583008256	51	4734
2026-01-13 11:20:01.93	254.63	26.67	-40.0	-42.3	13.5	6.10e-06	0	60	0	586153984	51	4732
2026-01-13 11:20:02.94	254.93	26.70	-40.0	-42.3	13.5	1.14e-05	0	60	0	589299712	51	4721
2026-01-13 11:20:03.95	255.24	26.74	-40.0	-42.3	13.5	6.80e-06	0	60	0	592445440	51	4738
2026-01-13 11:20:04.96	255.55	26.78	-40.1	-42.4	13.5	1.60e-05	0	60	0	595591168	51	4767
2026-01-13 11:20:05.97	255.85	26.81	-40.2	-42.5	13.3	9.90e-06	0	60	0	598736896	51	4851
2026-01-13 11:20:06.98	256.16	26.85	-40.2	-42.5	13.3	1.44e-05	0	60	0	601882624	51	4857
2026-01-13 11:20:07.98	256.47	26.88	-40.2	-42.5	13.3	2.13e-05	0	60	0	605028352	51	4855
2026-01-13 11:20:08.99	256.77	26.92	-40.2	-42.5	13.3	1.60e-05	0	60	0	608174080	51	4867
2026-01-13 11:20:10.00	257.08	26.95	-40.1	-42.5	13.3	1.67e-05	0	60	0	611319808	51	4829
2026-01-13 11:20:11.01	257.39	26.98	-40.1	-42.4	13.4	1.67e-05	0	60	0	614465536	51	4784
2026-01-13 11:20:12.02	257.71	27.01	-40.0	-42.3	13.5	4.50e-06	0	60	0	617611264	51	4733
2026-01-13 11:20:13.03	258.02	27.04	-40.0	-42.3	13.6	1.14e-05	0	60	0	620756992	51	4707
2026-01-13 11:20:14.04	258.33	27.07	-40.0	-42.2	13.6	7.60e-06	0	60	0	623902720	51	4694
2026-01-13 11:20:15.05	258.64	27.10	-40.0	-42.2	13.6	1.83e-05	0	60	0	627048448	51	4687
2026-01-13 11:20:16.06	258.95	27.13	-39.9	-42.2	13.6	1.14e-05	0	60	0	630194176	51	4676
2026-01-13 11:20:17.07	259.27	27.15	-39.9	-42.2	13.6	8.30e-06	0	60	0	633339904	51	4663
2026-01-13 11:20:18.08	259.58	27.18	-39.9	-42.2	13.7	5.30e-06	0	60	0	636485632	51	4656
2026-01-13 11:20:19.09	259.90	27.20	-39.9	-42.2	13.7	1.22e-05	0	60	0	639631360	51	4652
2026-01-13 11:20:20.10	260.21	27.23	-39.9	-42.2	13.6	4.50e-06	0	60	0	642777088	51	4673
2026-01-13 11:20:21.11	260.53	27.25	-39.9	-42.1	13.7	9.10e-06	0	60	0	645922816	51	4620
2026-01-13 11:20:22.12	260.84	27.27	-39.9	-42.2	13.6	7.60e-06	0	60	0	649068544	51	4685
2026-01-13 11:20:23.13	261.16	27.29	-40.0	-42.2	13.6	6.10e-06	0	60	0	652214272	51	4702
2026-01-13 11:20:24.14	261.48	27.31	-40.0	-42.3	13.6	7.60e-06	0	60	0	655360000	51	4711
2026-01-13 11:20:25.15	261.79	27.33	-40.0	-42.2	13.6	1.14e-05	0	60	0	658505728	51	4684
2026-01-13 11:20:26.16	262.11	27.35	-39.9	-42.2	13.7	1.06e-05	0	60	0	661651456	51	4673
2026-01-13 11:20:27.17	262.43	27.37	-39.9	-42.2	13.6	3.00e-06	0	60	0	664797184	51	4655
2026-01-13 11:20:28.18	262.75	27.38	-39.9	-42.2	13.6	9.10e-06	0	60	0	667942912	51	4673
2026-01-13 11:20:29.19	263.07	27.40	-40.0	-42.3	13.5	9.90e-06	0	60	0	671088640	51	4740
2026-01-13 11:20:30.20	263.38	27.41	-40.1	-42.4	13.5	1.22e-05	0	60	0	674234368	51	4761
2026-01-13 11:20:31.21	263.70	27.43	-40.1	-42.4	13.4	1.83e-05	0	60	0	677380096	51	4814
2026-01-13 11:20:32.22	264.02	27.44	-40.1	-42.4	13.4	1.67e-05	0	60	0	680525824	51	4800
2026-01-13 11:20:33.23	264.34	27.45	-40.1	-42.3	13.5	1.52e-05	0	60	0	683671552	51	4753
2026-01-13 11:20:34.24	264.66	27.46	-40.0	-42.3	13.6	8.30e-06	0	60	0	686817280	51	4707
2026-01-13 11:20:35.25	264.98	27.47	-40.0	-42.3	13.5	1.37e-05	0	60	0	689963008	51	4735
2026-01-13 11:20:36.26	265.30	27.48	-40.1	-42.4	13.4	1.90e-05	0	60	0	693108736	51	4782
2026-01-13 11:20:37.27	265.62	27.49	-40.1	-42.4	13.4	1.67e-05	0	60	0	696254464	51	4799
2026-01-13 11:20:38.28	265.94	27.50	-40.2	-42.5	13.3	1.60e-05	0	60	0	699400192	51	4843
2026-01-13 11:20:39.29	266.26	27.50	-40.1	-42.4	13.5	1.67e-05	0	60	0	702545920	51	4767
2026-01-13 11:20:40.30	266.58	27.51	-40.0	-42.3	13.6	1.06e-05	0	60	0	705691648	51	4717
2026-01-13 11:20:41.31	266.90	27.51	-40.0	-42.2	13.6	1.14e-05	0	60	0	708837376	51	4684
2026-01-13 11:20:42.32	267.22	27.52	-40.0	-42.2	13.6	6.10e-06	0	60	0	711983104	51	4697
2026-01-13 11:20:43.33	267.55	27.52	-40.0	-42.3	13.5	7.60e-06	0	60	0	715128832	51	4736
2026-01-13 11:20:44.34	267.87	27.52	-40.1	-42.4	13.4	1.90e-05	0	60	0	718274560	51	4813
2026-01-13 11:20:45.35	268.19	27.52	-40.1	-42.4	13.4	5.30e-06	0	60	0	721420288	51	4807
2026-01-13 11:20:46.36	268.51	27.52	-40.1	-42.4	13.4	1.37e-05	0	60	0	724566016	51	4768
2026-01-13 11:20:47.37	268.83	27.52	-40.0	-42.3	13.5	7.60e-06	0	60	0	727711744	51	4727
2026-01-13 11:20:48.38	269.15	27.52	-40.0	-42.3	13.5	9.90e-06	0	60	0	730857472	51	4733
2026-01-13 11:20:49.39	269.47	27.51	-40.1	-42.4	13.4	1.52e-05	0	60	0	735051776	51	4790
2026-01-13 11:20:50.40	269.79	27.51	-40.2	-42.5	13.3	2.13e-05	0	60	0	738197504	51	4864
2026-01-13 11:20:51.41	270.11	27.50	-40.2	-42.5	13.3	1.44e-05	0	60	0	741343232	51	4853
2026-01-13 11:20:52.42	270.43	27.50	-40.1	-42.5	13.3	1.75e-05	0	60	0	743440384	51	4818
2026-01-13 11:20:53.43	270.75	27.49	-40.1	-42.4	13.4	6.80e-06	0	60	0	746586112	51	4814
2026-01-13 11:20:54.44	271.07	27.48	-40.1	-42.4	13.4	8.30e-06	0	60	0	749731840	51	4762
2026-01-13 11:20:55.45	271.39	27.47	-40.0	-42.3	13.6	6.10e-06	0	60	0	753926144	51	4708
2026-01-13 11:20:56.46	271.71	27.46	-39.9	-42.2	13.6	6.10e-06	0	60	0	757071872	51	4677
2026-01-13 11:20:57.47	272.03	27.45	-39.9	-42.1	13.7	6.80e-06	0	60	0	760217600	51	4637
2026-01-13 11:20:58.48	272.35	27.44	-39.9	-42.1	13.7	6.80e-06	0	60	0	763363328	51	4634
2026-01-13 11:20:59.49	272.67	27.43	-39.8	-42.0	13.8	6.10e-06	0	60	0	765460480	51	4570
2026-01-13 11:21:00.50	272.99	27.42	-39.8	-42.0	13.8	4.50e-06	0	60	0	769654784	51	4563
2026-01-13 11:21:01.51	273.31	27.40	-39.9	-42.1	13.8	3.80e-06	0	60	0	772800512	51	4602
2026-01-13 11:21:02.52	273.62	27.39	-39.9	-42.2	13.6	7.60e-06	0	60	0	775946240	51	4673
2026-01-13 11:21:03.53	273.94	27.37	-39.9	-42.2	13.6	5.30e-06	0	60	0	779091968	51	4670
2026-01-13 11:21:04.54	274.26	27.35	-39.9	-42.1	13.7	6.80e-06	0	60	0	782237696	51	4641
2026-01-13 11:21:05.55	274.58	27.33	-39.9	-42.1	13.7	1.06e-05	0	60	0	785383424	51	4627
2026-01-13 11:21:06.56	274.89	27.31	-39.8	-42.0	13.8	3.00e-06	0	60	0	788529152	51	4588
2026-01-13 11:21:07.57	275.21	27.29	-39.8	-42.0	13.8	3.80e-06	0	60	0	791674880	51	4556
2026-01-13 11:21:08.58	275.53	27.27	-39.8	-42.0	13.8	3.80e-06	0	60	0	794820608	51	4591
2026-01-13 11:21:09.59	275.84	27.25	-39.9	-42.1	13.7	3.80e-06	0	60	0	797966336	51	4618
2026-01-13 11:21:10.60	276.16	27.23	-39.9	-42.1	13.7	5.30e-06	0	60	0	801112064	51	4648
2026-01-13 11:21:11.61	276.47	27.20	-40.0	-42.3	13.5	9.10e-06	0	60	0	804257792	51	4722
2026-01-13 11:21:12.62	276.78	27.18	-40.0	-42.3	13.4	1.83e-05	0	60	0	807403520	51	4753
2026-01-13 11:21:13.62	277.10	27.15	-40.0	-42.3	13.5	6.80e-06	0	60	0	810549248	51	4731
2026-01-13 11:21:14.63	277.41	27.13	-40.0	-42.2	13.6	8.30e-06	0	60	0	813694976	51	4678
2026-01-13 11:21:15.64	277.72	27.10	-39.8	-42.0	13.8	4.50e-06	0	60	0	816840704	51	4574
2026-01-13 11:21:16.65	278.03	27.07	-39.8	-42.0	13.8	6.10e-06	0	60	0	819986432	51	4575
2026-01-13 11:21:17.66	278.34	27.04	-39.8	-42.0	13.8	2.20e-06	0	60	0	823132160	51	4568
2026-01-13 11:21:18.67	278.66	27.01	-39.8	-42.0	13.8	2.20e-06	0	60	0	826277888	51	4552
2026-01-13 11:21:19.68	278.97	26.98	-39.8	-42.0	13.8	3.00e-06	0	60	0	829423616	51	4575
2026-01-13 11:21:20.69	279.28	26.95	-39.8	-42.0	13.7	4.50e-06	0	60	0	832569344	51	4574
2026-01-13 11:21:21.70	279.58	26.92	-39.9	-42.1	13.7	5.30e-06	0	60	0	835715072	51	4608
2026-01-13 11:21:22.71	279.89	26.89	-39.9	-42.2	13.6	8.30e-06	0	60	0	838860800	51	4658
2026-01-13 11:21:23.72	280.20	26.85	-39.9	-42.2	13.6	9.10e-06	0	60	0	842006528	51	4673
2026-01-13 11:21:24.73	280.51	26.82	-39.9	-42.2	13.6	1.06e-05	0	60	0	845152256	51	4672
2026-01-13 11:21:25.74	280.81	26.78	-39.9	-42.2	13.6	9.10e-06	0	60	0	848297984	51	4662
2026-01-13 11:21:26.75	281.12	26.75	-39.9	-42.2	13.6	6.10e-06	0	60	0	851443712	51	4662
2026-01-13 11:21:27.76	281.43	26.71	-39.9	-42.1	13.7	6.80e-06	0	60	0	854589440	51	4612
2026-01-13 11:21:28.77	281.73	26.67	-39.8	-42.0	13.8	3.80e-06	0	60	0	857735168	51	4587
2026-01-13 11:21:29.78	282.03	26.63	-39.8	-42.0	13.9	6.10e-06	0	60	0	860880896	51	4549
2026-01-13 11:21:30.79	282.34	26.59	-39.8	-42.0	13.8	5.30e-06	0	60	0	864026624	51	4550
2026-01-13 11:21:31.80	282.64	26.55	-39.8	-42.0	13.8	5.30e-06	0	60	0	867172352	51	4553
2026-01-13 11:21:32.81	282.94	26.51	-39.8	-42.0	13.8	6.10e-06	0	60	0	870318080	51	4557
2026-01-13 11:21:33.82	283.24	26.47	-39.8	-42.0	13.8	2.20e-06	0	60	0	873463808	51	4591
2026-01-13 11:21:34.83	283.54	26.43	-39.8	-42.1	13.7	3.80e-06	0	60	0	876609536	51	4615
2026-01-13 11:21:35.84	283.84	26.38	-39.9	-42.1	13.7	8.30e-06	0	60	0	879755264	51	4619
2026-01-13 11:21:36.85	284.14	26.34	-39.9	-42.1	13.6	4.50e-06	0	60	0	882900992	51	4639
2026-01-13 11:21:37.86	284.44	26.29	-40.0	-42.2	13.6	1.14e-05	0	60	0	886046720	51	4698
2026-01-13 11:21:38.87	284.73	26.25	-40.0	-42.2	13.5	1.29e-05	0	60	0	889192448	51	4704
2026-01-13 11:21:39.88	285.03	26.20	-40.0	-42.3	13.5	1.44e-05	0	60	0	892338176	51	4709
2026-01-13 11:21:40.89	285.32	26.15	-40.0	-42.3	13.5	1.75e-05	0	60	0	895483904	51	4730
2026-01-13 11:21:41.90	285.62	26.11	-40.0	-42.3	13.5	1.06e-05	0	60	0	898629632	51	4723
2026-01-13 11:21:42.91	285.91	26.06	-40.1	-42.4	13.4	1.06e-05	0	60	0	901775360	51	4784
2026-01-13 11:21:43.92	286.20	26.01	-40.2	-42.6	13.2	1.98e-05	0	60	0	904921088	51	4872
2026-01-13 11:21:44.93	286.49	25.96	-40.2	-42.6	13.1	2.13e-05	0	60	0	908066816	51	4919
2026-01-13 11:21:45.94	286.78	25.91	-40.2	-42.6	13.2	2.28e-05	0	60	0	911212544	51	4901
2026-01-13 11:21:46.95	287.07	25.86	-40.2	-42.5	13.2	1.90e-05	0	60	0	914358272	51	4851
2026-01-13 11:21:47.96	287.36	25.81	-40.1	-42.5	13.2	2.13e-05	0	60	0	917504000	51	4865
2026-01-13 11:21:48.97	287.65	25.75	-40.2	-42.6	13.2	1.60e-05	0	60	0	920649728	51	4892
2026-01-13 11:21:49.98	287.93	25.70	-40.2	-42.6	13.2	2.36e-05	0	60	0	923795456	51	4876
2026-01-13 11:21:50.99	288.22	25.65	-40.2	-42.6	13.1	2.74e-05	0	60	0	926941184	51	4897
2026-01-13 11:21:52.00	288.51	25.59	-40.2	-42.7	13.1	2.97e-05	0	60	0	930086912	51	4929
2026-01-13 11:21:53.01	288.79	25.54	-40.2	-42.7	13.1	3.28e-05	0	60	0	933232640	51	4936
2026-01-13 11:21:54.01	289.07	25.48	-40.3	-42.7	13.1	2.59e-05	0	60	0	936378368	51	4934
2026-01-13 11:21:55.02	289.35	25.43	-40.1	-42.5	13.2	2.67e-05	0	60	0	939524096	51	4849
2026-01-13 11:21:56.03	289.63	25.37	-40.1	-42.5	13.3	1.98e-05	0	60	0	942669824	51	4837
2026-01-13 11:21:57.04	289.91	25.31	-40.1	-42.4	13.3	1.29e-05	0	60	0	945815552	51	4782
2026-01-13 11:21:58.05	290.19	25.25	-40.0	-42.3	13.4	1.90e-05	0	60	0	948961280	51	4742
2026-01-13 11:21:59.06	290.47	25.19	-40.0	-42.2	13.5	1.22e-05	0	60	0	952107008	51	4705
2026-01-13 11:22:00.07	290.74	25.14	-39.9	-42.2	13.6	6.80e-06	0	60	0	955252736	51	4658
2026-01-13 11:22:01.08	291.02	25.08	-39.9	-42.1	13.6	8.30e-06	0	60	0	958398464	51	4651
2026-01-13 11:22:02.09	291.29	25.02	-39.9	-42.2	13.6	4.50e-06	0	60	0	961544192	51	4660
2026-01-13 11:22:03.10	291.57	24.95	-39.9	-42.1	13.6	5.30e-06	0	60	0	964689920	51	4644
2026-01-13 11:22:04.11	291.84	24.89	-39.9	-42.1	13.6	1.14e-05	0	60	0	967835648	51	4643
2026-01-13 11:22:05.12	292.11	24.83	-39.9	-42.1	13.6	8.30e-06	0	60	0	970981376	51	4648
2026-01-13 11:22:06.13	292.38	24.77	-39.9	-42.1	13.6	8.30e-06	0	60	0	974127104	51	4643
2026-01-13 11:22:07.14	292.65	24.71	-39.9	-42.2	13.5	1.06e-05	0	60	0	977272832	51	4682
2026-01-13 11:22:08.15	292.92	24.64	-39.9	-42.1	13.6	1.29e-05	0	60	0	980418560	51	4635
2026-01-13 11:22:09.16	293.19	24.58	-39.9	-42.2	13.6	9.10e-06	0	60	0	983564288	51	4678
2026-01-13 11:22:10.17	293.45	24.51	-39.9	-42.2	13.6	7.60e-06	0	60	0	986710016	51	4659
2026-01-13 11:22:11.18	293.72	24.45	-39.9	-42.1	13.6	9.90e-06	0	60	0	989855744	51	4651
2026-01-13 11:22:12.19	293.98	24.38	-39.8	-42.1	13.6	3.80e-06	0	60	0	993001472	51	4616
2026-01-13 11:22:13.20	294.25	24.32	-39.8	-42.0	13.7	6.10e-06	0	60	0	996147200	51	4596
2026-01-13 11:22:14.21	294.51	24.25	-39.8	-42.0	13.7	8.30e-06	0	60	0	999292928	51	4569
2026-01-13 11:22:15.22	294.77	24.19	-39.8	-42.1	13.7	1.50e-06	0	60	0	1002438656	51	4603
2026-01-13 11:22:16.23	295.03	24.12	-39.8	-42.1	13.6	5.30e-06	0	60	0	1005584384	51	4614
2026-01-13 11:22:17.24	295.29	24.05	-39.8	-42.0	13.8	6.10e-06	0	60	0	1008730112	51	4556
2026-01-13 11:22:18.25	295.54	23.98	-39.7	-41.9	13.9	3.80e-06	0	60	0	1011875840	51	4505
2026-01-13 11:22:19.25	295.80	23.92	-39.6	-41.8	13.9	4.50e-06	0	60	0	1015021568	51	4455
2026-01-13 11:22:20.26	296.05	23.85	-39.6	-41.7	14.0	3.00e-06	0	60	0	1018167296	51	4425
2026-01-13 11:22:21.28	296.31	23.78	-39.6	-41.7	14.0	0.00e+00	0	60	0	1021313024	51	4440
2026-01-13 11:22:22.29	296.56	23.71	-39.7	-41.9	13.8	7.00e-07	0	60	0	1024458752	51	4521
2026-01-13 11:22:23.29	296.81	23.64	-39.8	-42.0	13.7	6.10e-06	0	60	0	1027604480	51	4578
2026-01-13 11:22:24.30	297.06	23.57	-39.9	-42.2	13.5	1.44e-05	0	60	0	1030750208	51	4679
2026-01-13 11:22:25.31	297.31	23.50	-40.0	-42.4	13.3	5.30e-06	0	60	0	1033895936	51	4768
2026-01-13 11:22:26.32	297.56	23.43	-40.1	-42.5	13.2	1.90e-05	0	60	0	1037041664	51	4822
2026-01-13 11:22:27.33	297.81	23.36	-40.2	-42.6	13.2	2.28e-05	0	60	0	1040187392	51	4872
2026-01-13 11:22:28.34	298.06	23.28	-40.1	-42.4	13.3	2.13e-05	0	60	0	1043333120	51	4789
2026-01-13 11:22:29.35	298.30	23.21	-40.1	-42.4	13.3	1.90e-05	0	60	0	1046478848	51	4783
2026-01-13 11:22:30.36	298.55	23.14	-40.0	-42.4	13.4	1.44e-05	0	60	0	1049624576	51	4761
2026-01-13 11:22:31.37	298.79	23.07	-39.9	-42.2	13.4	8.30e-06	0	60	0	1052770304	51	4688
2026-01-13 11:22:32.38	299.03	22.99	-39.9	-42.2	13.5	8.30e-06	0	60	0	1055916032	51	4658
2026-01-13 11:22:33.39	299.27	22.92	-39.9	-42.2	13.5	9.90e-06	0	60	0	1059061760	51	4673
2026-01-13 11:22:34.40	299.51	22.85	-40.0	-42.3	13.4	9.10e-06	0	60	0	1062207488	51	4730
2026-01-13 11:22:35.41	299.75	22.77	-40.0	-42.3	13.4	1.37e-05	0	60	0	1065353216	51	4726
2026-01-13 11:22:36.42	299.99	22.70	-40.0	-42.3	13.3	1.90e-05	0	60	0	1068498944	51	4740
2026-01-13 11:22:37.42	300.22	22.63	-40.0	-42.4	13.3	1.83e-05	0	60	0	1071644672	51	4775
2026-01-13 11:22:38.43	300.46	22.55	-40.1	-42.5	13.2	2.59e-05	0	60	0	1074790400	51	4820
2026-01-13 11:22:39.44	300.69	22.48	-40.1	-42.5	13.2	2.13e-05	0	60	0	1078984704	51	4840
2026-01-13 11:22:40.45	300.92	22.40	-40.2	-42.6	13.1	2.36e-05	0	60	0	1081081856	51	4889
2026-01-13 11:22:41.46	301.16	22.33	-40.2	-42.6	13.1	2.59e-05	0	60	0	1084227584	51	4875
2026-01-13 11:22:42.47	301.39	22.25	-40.1	-42.5	13.1	2.67e-05	0	60	0	1087373312	51	4865
2026-01-13 11:22:43.48	301.62	22.17	-40.1	-42.5	13.2	2.51e-05	0	60	0	1090519040	51	4839
2026-01-13 11:22:44.49	301.85	22.10	-40.1	-42.6	13.1	3.43e-05	0	60	0	1094713344	51	4874
2026-01-13 11:22:45.50	302.07	22.02	-40.1	-42.4	13.2	2.74e-05	0	60	0	1097859072	51	4808
2026-01-13 11:22:46.51	302.30	21.95	-40.0	-42.4	13.2	2.13e-05	0	60	0	1101004800	51	4794
2026-01-13 11:22:47.52	302.53	21.87	-40.0	-42.3	13.3	2.36e-05	0	60	0	1104150528	51	4749
2026-01-13 11:22:48.53	302.75	21.79	-40.0	-42.3	13.3	1.29e-05	0	60	0	1106247680	51	4748
2026-01-13 11:22:49.54	302.97	21.71	-40.0	-42.3	13.3	1.67e-05	0	60	0	1110441984	51	4738
2026-01-13 11:22:50.56	303.20	21.64	-40.0	-42.3	13.3	1.98e-05	0	60	0	1113587712	51	4745
2026-01-13 11:22:51.56	303.42	21.56	-40.0	-42.3	13.3	1.90e-05	0	60	0	1116733440	51	4756
2026-01-13 11:22:52.58	303.64	21.48	-40.1	-42.4	13.2	2.28e-05	0	60	0	1119879168	51	4806
2026-01-13 11:22:53.58	303.86	21.40	-40.0	-42.3	13.3	1.90e-05	0	60	0	1123024896	51	4756
2026-01-13 11:22:54.59	304.07	21.33	-40.0	-42.4	13.2	2.05e-05	0	60	0	1126170624	51	4794
2026-01-13 11:22:55.60	304.29	21.25	-40.1	-42.5	13.2	1.60e-05	0	60	0	1129316352	51	4821
2026-01-13 11:22:56.61	304.51	21.17	-40.1	-42.5	13.2	3.50e-05	0	60	0	1132462080	51	4827
2026-01-13 11:22:57.62	304.72	21.09	-40.1	-42.5	13.1	2.21e-05	0	60	0	1135607808	51	4851
2026-01-13 11:22:58.63	304.93	21.01	-40.1	-42.5	13.2	2.74e-05	0	60	0	1138753536	51	4816
2026-01-13 11:22:59.64	305.15	20.93	-40.0	-42.4	13.2	2.74e-05	0	60	0	1141899264	51	4813
2026-01-13 11:23:00.65	305.36	20.85	-40.0	-42.4	13.2	2.13e-05	0	60	0	1145044992	51	4771
2026-01-13 11:23:01.66	305.57	20.77	-40.0	-42.4	13.2	2.97e-05	0	60	0	1148190720	51	4784
2026-01-13 11:23:02.67	305.78	20.70	-40.1	-42.5	13.1	2.28e-05	0	60	0	1151336448	51	4818
2026-01-13 11:23:03.68	305.98	20.62	-40.1	-42.5	13.1	3.05e-05	0	60	0	1154482176	51	4850
2026-01-13 11:23:04.69	306.19	20.54	-40.1	-42.5	13.0	3.43e-05	0	60	0	1157627904	51	4870
2026-01-13 11:23:05.70	306.40	20.46	-40.2	-42.6	13.0	3.96e-05	0	60	0	1160773632	51	4902
2026-01-13 11:23:06.71	306.60	20.38	-40.2	-42.6	12.9	5.41e-05	0	60	0	1163919360	51	4912
2026-01-13 11:23:07.72	306.81	20.30	-40.1	-42.6	13.0	3.58e-05	0	60	0	1167065088	51	4881
2026-01-13 11:23:08.73	307.01	20.22	-40.0	-42.4	13.2	2.74e-05	0	60	0	1170210816	51	4791
2026-01-13 11:23:09.74	307.21	20.14	-39.9	-42.3	13.3	1.14e-05	0	60	0	1173356544	51	4714
2026-01-13 11:23:10.75	307.41	20.06	-39.9	-42.2	13.3	1.90e-05	0	60	0	1176502272	51	4688
2026-01-13 11:23:11.76	307.61	19.98	-39.9	-42.2	13.4	1.98e-05	0	60	0	1179648000	51	4666
2026-01-13 11:23:12.77	307.81	19.90	-39.9	-42.3	13.3	1.67e-05	0	60	0	1182793728	51	4714
2026-01-13 11:23:13.78	308.01	19.82	-39.9	-42.3	13.3	2.05e-05	0	60	0	1185939456	51	4718
2026-01-13 11:23:14.79	308.21	19.74	-40.0	-42.4	13.2	1.83e-05	0	60	0	1189085184	51	4787
2026-01-13 11:23:15.80	308.40	19.66	-40.0	-42.4	13.2	2.13e-05	0	60	0	1192230912	51	4779
2026-01-13 11:23:16.81	308.60	19.57	-40.0	-42.4	13.1	2.59e-05	0	60	0	1195376640	51	4796
2026-01-13 11:23:17.82	308.79	19.49	-40.0	-42.4	13.1	3.12e-05	0	60	0	1198522368	51	4810
2026-01-13 11:23:18.83	308.98	19.41	-40.1	-42.5	13.1	5.11e-05	0	60	0	1201668096	51	4837
2026-01-13 11:23:19.84	309.18	19.33	-40.0	-42.4	13.1	3.05e-05	0	60	0	1204813824	51	4810
2026-01-13 11:23:20.85	309.37	19.25	-40.1	-42.5	13.1	2.59e-05	0	60	0	1207959552	51	4840
2026-01-13 11:23:21.86	309.56	19.17	-40.1	-42.5	13.1	2.44e-05	0	60	0	1211105280	51	4825
2026-01-13 11:23:22.87	309.74	19.09	-40.0	-42.4	13.1	3.20e-05	0	60	0	1214251008	51	4812
2026-01-13 11:23:23.88	309.93	19.01	-40.0	-42.4	13.1	2.36e-05	0	60	0	1217396736	51	4811
2026-01-13 11:23:24.89	310.12	18.93	-40.1	-42.5	13.1	2.44e-05	0	60	0	1220542464	51	4821
2026-01-13 11:23:25.90	310.31	18.85	-40.1	-42.5	13.1	3.50e-05	0	60	0	1223688192	51	4851
2026-01-13 11:23:26.92	310.49	18.77	-40.1	-42.6	13.0	2.82e-05	0	60	0	1226833920	51	4879
2026-01-13 11:23:27.92	310.67	18.69	-40.1	-42.5	13.1	3.50e-05	0	60	0	1229979648	51	4843
2026-01-13 11:23:28.93	310.86	18.60	-40.1	-42.6	13.0	3.73e-05	0	60	0	1233125376	51	4887
2026-01-13 11:23:29.94	311.04	18.52	-40.1	-42.5	13.0	3.28e-05	0	60	0	1236271104	51	4868
2026-01-13 11:23:30.95	311.22	18.44	-40.2	-42.6	12.9	3.96e-05	0	60	0	1239416832	51	4908
2026-01-13 11:23:31.96	311.40	18.36	-40.2	-42.7	12.9	4.95e-05	0	60	0	1242562560	51	4942
2026-01-13 11:23:32.97	311.58	18.28	-40.2	-42.7	12.8	4.57e-05	0	60	0	1245708288	51	4977
2026-01-13 11:23:33.98	311.76	18.20	-40.3	-42.8	12.7	6.86e-05	0	60	0	1248854016	51	5019
2026-01-13 11:23:34.99	311.94	18.12	-40.3	-42.8	12.7	6.63e-05	0	60	0	1251999744	51	5008
2026-01-13 11:23:36.00	312.11	18.04	-40.3	-42.8	12.8	7.09e-05	0	60	0	1255145472	51	5005
2026-01-13 11:23:37.01	312.29	17.96	-40.3	-42.8	12.7	8.01e-05	0	60	0	1258291200	51	5018
2026-01-13 11:23:38.02	312.46	17.88	-40.3	-42.8	12.7	7.47e-05	0	60	0	1261436928	51	5018
2026-01-13 11:23:39.03	312.64	17.79	-40.3	-42.8	12.7	6.40e-05	0	60	0	1264582656	51	5026
2026-01-13 11:23:40.04	312.81	17.71	-40.3	-42.8	12.7	7.62e-05	0	60	0	1267728384	51	5035
2026-01-13 11:23:41.05	312.98	17.63	-40.4	-42.9	12.6	8.77e-05	0	60	0	1270874112	51	5088
2026-01-13 11:23:42.06	313.15	17.55	-40.4	-43.0	12.5	1.04e-04	0	60	0	1274019840	51	5140
2026-01-13 11:23:43.07	313.32	17.47	-40.5	-43.1	12.4	1.17e-04	0	60	0	1277165568	51	5193
2026-01-13 11:23:44.08	313.49	17.39	-40.5	-43.2	12.3	1.83e-04	0	60	0	1280311296	51	5234
2026-01-13 11:23:45.08	313.66	17.31	-40.5	-43.2	12.3	1.72e-04	0	60	0	1283457024	51	5232
2026-01-13 11:23:46.10	313.83	17.23	-40.5	-43.1	12.4	1.61e-04	0	60	0	1286602752	51	5194
2026-01-13 11:23:47.10	313.99	17.15	-40.4	-43.1	12.4	1.35e-04	0	60	0	1289748480	51	5167
2026-01-13 11:23:48.11	314.16	17.07	-40.4	-43.0	12.5	1.14e-04	0	60	0	1292894208	51	5122
2026-01-13 11:23:49.12	314.32	16.99	-40.4	-43.0	12.5	1.39e-04	0	60	0	1296039936	51	5126
2026-01-13 11:23:50.13	314.49	16.91	-40.4	-43.0	12.5	1.17e-04	0	60	0	1299185664	51	5133
2026-01-13 11:23:51.14	314.65	16.83	-40.5	-43.1	12.4	1.67e-04	0	60	0	1302331392	51	5201
2026-01-13 11:23:52.15	314.81	16.75	-40.5	-43.2	12.3	1.87e-04	0	60	0	1305477120	51	5224
2026-01-13 11:23:53.17	314.98	16.66	-40.5	-43.1	12.3	1.69e-04	0	60	0	1308622848	51	5208
2026-01-13 11:23:54.18	315.14	16.58	-40.5	-43.1	12.3	1.65e-04	0	60	0	1311768576	51	5200
2026-01-13 11:23:55.19	315.30	16.50	-40.5	-43.1	12.4	1.29e-04	0	60	0	1314914304	51	5189
2026-01-13 11:23:56.19	315.46	16.42	-40.4	-43.0	12.4	1.40e-04	0	60	0	1318060032	51	5147
2026-01-13 11:23:57.20	315.61	16.34	-40.5	-43.1	12.4	1.50e-04	0	60	0	1321205760	51	5193
2026-01-13 11:23:58.21	315.77	16.26	-40.5	-43.1	12.3	1.67e-04	0	60	0	1324351488	51	5190
2026-01-13 11:23:59.22	315.93	16.18	-40.5	-43.1	12.3	1.87e-04	0	60	0	1327497216	51	5215
2026-01-13 11:24:00.23	316.08	16.10	-40.5	-43.2	12.2	1.94e-04	0	60	0	1330642944	51	5278
2026-01-13 11:24:01.24	316.24	16.02	-40.5	-43.2	12.3	2.16e-04	0	60	0	1333788672	51	5258
2026-01-13 11:24:02.25	316.39	15.94	-40.5	-43.2	12.3	1.87e-04	0	60	0	1336934400	51	5246
2026-01-13 11:24:03.26	316.55	15.86	-40.5	-43.2	12.3	2.01e-04	0	60	0	1340080128	51	5227
2026-01-13 11:24:04.27	316.70	15.78	-40.5	-43.1	12.3	1.72e-04	0	60	0	1343225856	51	5215
2026-01-13 11:24:05.28	316.85	15.70	-40.5	-43.2	12.3	1.74e-04	0	60	0	1346371584	51	5255
2026-01-13 11:24:06.29	317.00	15.63	-40.5	-43.2	12.3	1.66e-04	0	60	0	1349517312	51	5223
2026-01-13 11:24:07.30	317.15	15.55	-40.5	-43.2	12.2	2.49e-04	0	60	0	1352663040	51	5263
2026-01-13 11:24:08.31	317.30	15.47	-40.6	-43.3	12.1	2.59e-04	0	60	0	1355808768	51	5314
2026-01-13 11:24:09.32	317.45	15.39	-40.7	-43.4	12.0	2.95e-04	0	60	0	1358954496	51	5393
2026-01-13 11:24:10.33	317.60	15.31	-40.7	-43.5	11.9	3.55e-04	0	60	0	1362100224	51	5445
2026-01-13 11:24:11.34	317.75	15.23	-40.7	-43.5	11.8	4.89e-04	0	60	0	1365245952	52	5149
2026-01-13 11:24:12.35	317.89	15.15	-40.7	-43.6	11.7	5.80e-04	0	60	0	1368391680	52	5214
2026-01-13 11:24:13.36	318.04	15.07	-40.7	-43.6	11.7	5.94e-04	0	60	0	1371537408	52	5191
2026-01-13 11:24:14.37	318.18	14.99	-40.7	-43.6	11.7	5.74e-04	0	60	0	1374683136	52	5199
2026-01-13 11:24:15.38	318.33	14.91	-40.7	-43.5	11.8	5.41e-04	0	60	0	1377828864	52	5153
2026-01-13 11:24:16.39	318.47	14.83	-40.6	-43.5	11.8	4.41e-04	0	60	0	1380974592	52	5121
2026-01-13 11:24:17.40	318.61	14.76	-40.6	-43.4	11.9	4.07e-04	0	60	0	1384120320	52	5094
2026-01-13 11:24:18.41	318.75	14.68	-40.6	-43.3	12.0	3.39e-04	0	60	0	1387266048	52	5036
2026-01-13 11:24:19.42	318.90	14.60	-40.5	-43.3	12.0	3.52e-04	0	60	0	1390411776	52	5026
2026-01-13 11:24:20.43	319.04	14.52	-40.6	-43.3	12.0	3.19e-04	0	60	0	1393557504	52	5040
2026-01-13 11:24:21.44	319.18	14.44	-40.6	-43.4	11.9	3.39e-04	0	60	0	1396703232	52	5081
2026-01-13 11:24:22.45	319.32	14.36	-40.5	-43.3	12.0	3.23e-04	0	60	0	1399848960	52	5016
2026-01-13 11:24:23.46	319.45	14.29	-40.5	-43.3	12.0	3.37e-04	0	60	0	1402994688	52	5009
2026-01-13 11:24:24.47	319.59	14.21	-40.5	-43.3	12.0	3.43e-04	0	60	0	1406140416	52	5002
2026-01-13 11:24:25.48	319.73	14.13	-40.5	-43.2	12.0	3.18e-04	0	60	0	1409286144	52	4983
2026-01-13 11:24:26.49	319.86	14.05	-40.5	-43.3	12.0	3.07e-04	0	60	0	1412431872	52	4991
2026-01-13 11:24:27.49	320.00	13.97	-40.5	-43.3	12.0	2.97e-04	0	60	0	1416626176	52	5003
2026-01-13 11:24:28.51	320.14	13.90	-40.6	-43.4	11.9	4.26e-04	0	60	0	1419771904	52	5062
2026-01-13 11:24:29.52	320.27	13.82	-40.6	-43.5	11.8	4.38e-04	0	60	0	1421869056	52	5112
2026-01-13 11:24:30.53	320.40	13.74	-40.7	-43.6	11.6	5.93e-04	0	60	0	1425014784	52	5193
2026-01-13 11:24:31.54	320.54	13.66	-40.8	-43.8	11.4	8.58e-04	0	60	0	1428160512	52	5303
2026-01-13 11:24:32.55	320.67	13.59	-40.8	-43.8	11.4	9.35e-04	0	60	0	1432354816	52	5334
2026-01-13 11:24:33.56	320.80	13.51	-40.8	-43.8	11.4	9.81e-04	0	60	0	1435500544	52	5333
2026-01-13 11:24:34.57	320.93	13.43	-40.8	-43.9	11.3	1.11e-03	0	60	0	1438646272	52	5347
2026-01-13 11:24:35.58	321.06	13.36	-40.8	-43.8	11.4	1.05e-03	0	60	0	1441792000	52	5322
2026-01-13 11:24:36.59	321.19	13.28	-40.8	-43.8	11.4	1.03e-03	0	60	0	1443889152	52	5327
2026-01-13 11:24:37.60	321.32	13.20	-40.8	-43.9	11.3	1.05e-03	0	60	0	1448083456	52	5358
2026-01-13 11:24:38.61	321.45	13.13	-40.9	-43.9	11.3	1.16e-03	0	60	0	1451229184	52	5385
2026-01-13 11:24:39.62	321.58	13.05	-40.9	-44.0	11.2	1.41e-03	0	60	0	1454374912	52	5432
2026-01-13 11:24:40.63	321.70	12.97	-40.8	-43.9	11.3	1.31e-03	0	60	0	1457520640	52	5369
2026-01-13 11:24:41.64	321.83	12.90	-40.9	-43.9	11.2	1.34e-03	0	60	0	1460666368	52	5383
2026-01-13 11:24:42.65	321.96	12.82	-40.8	-43.8	11.3	1.16e-03	0	60	0	1463812096	52	5337
2026-01-13 11:24:43.66	322.08	12.75	-40.8	-43.8	11.4	1.01e-03	0	60	0	1466957824	52	5297
2026-01-13 11:24:44.67	322.21	12.67	-40.7	-43.7	11.4	9.54e-04	0	60	0	1470103552	52	5263
2026-01-13 11:24:45.68	322.33	12.60	-40.8	-43.8	11.4	9.54e-04	0	60	0	1473249280	52	5290
2026-01-13 11:24:46.69	322.45	12.52	-40.8	-43.8	11.4	1.06e-03	0	60	0	1476395008	52	5305
2026-01-13 11:24:47.70	322.58	12.44	-40.7	-43.8	11.4	1.06e-03	0	60	0	1479540736	52	5289
2026-01-13 11:24:48.71	322.70	12.37	-40.8	-43.8	11.4	9.67e-04	0	60	0	1482686464	52	5285
2026-01-13 11:24:49.72	322.82	12.29	-40.7	-43.7	11.4	9.79e-04	0	60	0	1485832192	52	5246
2026-01-13 11:24:50.73	322.94	12.22	-40.8	-43.8	11.3	1.10e-03	0	60	0	1488977920	52	5327
2026-01-13 11:24:51.74	323.06	12.14	-41.0	-44.2	10.9	1.72e-03	0	60	0	1492123648	52	5559
2026-01-13 11:24:52.75	323.18	12.07	-40.8	-43.8	11.3	1.21e-03	0	60	0	1495269376	52	5304
2026-01-13 11:24:53.76	323.30	11.99	-40.9	-44.1	11.1	1.57e-03	0	60	0	1498415104	52	5468
2026-01-13 11:24:54.77	323.42	11.92	-41.0	-44.1	10.9	2.12e-03	0	60	0	1501560832	52	5514
2026-01-13 11:24:55.78	323.54	11.85	-41.0	-44.2	10.9	2.15e-03	0	60	0	1504706560	52	5560
2026-01-13 11:24:56.79	323.65	11.77	-41.0	-44.1	10.9	2.21e-03	0	60	0	1507852288	52	5520
2026-01-13 11:24:57.80	323.77	11.70	-41.0	-44.2	10.9	1.99e-03	0	60	0	1510998016	52	5547
2026-01-13 11:24:58.81	323.89	11.62	-40.9	-44.1	10.9	2.10e-03	0	60	0	1514143744	52	5516
2026-01-13 11:24:59.82	324.00	11.55	-40.9	-44.1	11.0	1.94e-03	0	60	0	1517289472	52	5490
2026-01-13 11:25:00.82	324.12	11.48	-40.9	-44.1	10.9	2.13e-03	0	60	0	1520435200	52	5528
2026-01-13 11:25:01.83	324.23	11.40	-40.9	-44.1	10.9	2.16e-03	0	60	0	1523580928	52	5523
2026-01-13 11:25:02.84	324.35	11.33	-41.0	-44.2	10.8	2.66e-03	0	60	0	1526726656	52	5561
2026-01-13 11:25:03.85	324.46	11.26	-41.0	-44.3	10.7	2.83e-03	0	60	0	1529872384	52	5624
2026-01-13 11:25:04.86	324.57	11.18	-41.1	-44.5	10.5	3.95e-03	0	60	0	1533018112	52	5741
2026-01-13 11:25:05.87	324.68	11.11	-41.1	-44.4	10.5	3.37e-03	0	60	0	1536163840	52	5709
2026-01-13 11:25:06.88	324.80	11.04	-41.0	-44.4	10.6	3.56e-03	0	60	0	1539309568	52	5661
2026-01-13 11:25:07.89	324.91	10.96	-41.1	-44.5	10.5	3.78e-03	0	60	0	1542455296	52	5750
2026-01-13 11:25:08.90	325.02	10.89	-41.1	-44.4	10.5	3.93e-03	0	60	0	1545601024	52	5710
2026-01-13 11:25:09.91	325.13	10.82	-40.9	-44.1	10.8	2.41e-03	0	60	0	1548746752	52	5488
2026-01-13 11:25:10.92	325.24	10.74	-40.9	-44.0	10.9	2.32e-03	0	60	0	1551892480	52	5453
2026-01-13 11:25:11.93	325.35	10.67	-40.8	-44.0	10.9	2.02e-03	0	60	0	1555038208	52	5441
2026-01-13 11:25:12.94	325.46	10.60	-40.9	-44.1	10.9	2.45e-03	0	60	0	1558183936	52	5468
2026-01-13 11:25:13.95	325.56	10.53	-40.8	-44.0	10.9	2.35e-03	0	60	0	1561329664	52	5428
2026-01-13 11:25:14.96	325.67	10.46	-40.8	-44.0	10.9	2.12e-03	0	60	0	1564475392	52	5449
2026-01-13 11:25:15.96	325.78	10.38	-40.9	-44.1	10.8	2.78e-03	0	60	0	1567621120	52	5499
2026-01-13 11:25:16.98	325.89	10.31	-40.8	-44.0	10.9	1.99e-03	0	60	0	1570766848	52	5450
2026-01-13 11:25:17.99	325.99	10.24	-40.8	-44.0	10.9	2.30e-03	0	60	0	1573912576	52	5457
2026-01-13 11:25:18.99	326.10	10.17	-41.0	-44.3	10.6	3.11e-03	0	60	0	1577058304	52	5640
2026-01-13 11:25:20.00	326.20	10.10	-41.0	-44.4	10.5	3.80e-03	0	60	0	1580204032	52	5689
2026-01-13 11:25:21.01	326.31	10.03	-41.0	-44.4	10.5	4.08e-03	0	60	0	1583349760	52	5678
2026-01-13 11:25:22.02	326.41	9.96	-41.1	-44.6	10.3	4.94e-03	0	60	0	1586495488	52	5800
2026-01-13 11:25:23.03	326.52	9.88	-41.1	-44.5	10.4	4.66e-03	0	60	0	1589641216	52	5749
2026-01-13 11:25:24.04	326.62	9.81	-41.2	-44.7	10.1	6.46e-03	0	60	0	1592786944	52	5912
2026-01-13 11:25:25.05	326.72	9.74	-41.1	-44.6	10.3	5.65e-03	0	60	0	1595932672	52	5809
2026-01-13 11:25:26.06	326.82	9.67	-41.2	-44.8	10.1	5.45e-03	0	60	0	1599078400	52	5935
2026-01-13 11:25:27.07	326.93	9.60	-41.1	-44.6	10.2	5.97e-03	0	60	0	1602224128	52	5815
2026-01-13 11:25:28.08	327.03	9.53	-41.2	-44.8	10.0	7.17e-03	0	60	0	1605369856	52	5954
2026-01-13 11:25:29.09	327.13	9.46	-41.1	-44.6	10.3	5.56e-03	0	60	0	1608515584	52	5791
2026-01-13 11:25:30.10	327.23	9.39	-41.0	-44.3	10.5	4.37e-03	0	60	0	1611661312	52	5655
2026-01-13 11:25:31.11	327.33	9.32	-41.0	-44.5	10.3	5.29e-03	0	60	0	1614807040	52	5771
2026-01-13 11:25:32.12	327.43	9.25	-41.1	-44.6	10.2	6.17e-03	0	60	0	1617952768	52	5813
2026-01-13 11:25:33.13	327.53	9.18	-41.1	-44.6	10.2	6.07e-03	0	60	0	1621098496	52	5801
2026-01-13 11:25:34.14	327.63	9.11	-41.0	-44.5	10.3	5.79e-03	0	60	0	1624244224	52	5773
2026-01-13 11:25:35.15	327.72	9.04	-41.1	-44.6	10.2	5.94e-03	0	60	0	1627389952	52	5793
2026-01-13 11:25:36.16	327.82	8.97	-41.1	-44.8	10.0	7.64e-03	0	60	0	1630535680	52	5924
2026-01-13 11:25:37.17	327.92	8.90	-41.2	-44.8	9.9	7.62e-03	0	60	0	1633681408	52	5943
2026-01-13 11:25:38.18	328.02	8.83	-41.2	-44.9	9.8	8.21e-03	0	60	0	1636827136	52	6019
2026-01-13 11:25:39.19	328.11	8.76	-41.3	-45.0	9.7	1.08e-02	0	60	0	1639972864	53	5738
2026-01-13 11:25:40.20	328.21	8.69	-41.2	-45.0	9.7	1.25e-02	0	60	0	1643118592	53	5735
2026-01-13 11:25:41.21	328.31	8.63	-41.3	-45.0	9.6	1.10e-02	0	60	0	1646264320	53	5780
2026-01-13 11:25:42.22	328.40	8.56	-41.1	-44.7	9.9	8.64e-03	0	60	0	1649410048	53	5566
2026-01-13 11:25:43.23	328.50	8.49	-41.2	-45.0	9.7	1.19e-02	0	60	0	1652555776	53	5728
2026-01-13 11:25:44.24	328.59	8.42	-41.3	-45.1	9.5	1.45e-02	0	60	0	1655701504	53	5831
2026-01-13 11:25:45.25	328.68	8.35	-41.4	-45.3	9.4	1.60e-02	0	60	0	1658847232	53	5925
2026-01-13 11:25:46.26	328.78	8.28	-41.2	-45.0	9.6	1.11e-02	0	60	0	1661992960	53	5758
2026-01-13 11:25:47.27	328.87	8.22	-41.3	-45.1	9.5	1.35e-02	0	60	0	1665138688	53	5821
2026-01-13 11:25:48.28	328.96	8.15	-41.2	-45.0	9.6	1.27e-02	0	60	0	1668284416	53	5753
2026-01-13 11:25:49.29	329.05	8.08	-41.3	-45.2	9.4	1.59e-02	0	60	0	1671430144	53	5875
2026-01-13 11:25:50.30	329.15	8.01	-41.2	-45.0	9.6	1.64e-02	0	60	0	1674575872	53	5764
2026-01-13 11:25:51.31	329.24	7.94	-44.4	-56.1	3.8	1.47e+00	0	60	104	1675624448	59	14697
2026-01-13 11:25:52.32	329.33	7.88	-44.7	-56.7	3.8	1.49e+00	0	60	104	1675624448	59	15677
2026-01-13 11:25:53.33	329.42	7.81	-44.8	-57.1	3.8	1.49e+00	0	60	104	1675624448	60	15426
2026-01-13 11:25:54.34	329.51	7.74	-45.0	-57.2	3.8	1.49e+00	0	60	104	1675624448	60	15702
2026-01-13 11:25:55.35	329.60	7.68	-45.1	-57.3	3.8	1.49e+00	0	60	104	1675624448	60	15935
2026-01-13 11:25:56.35	329.69	7.61	-45.2	-57.4	3.8	1.49e+00	0	60	104	1675624448	60	16088
2026-01-13 11:25:57.36	329.78	7.54	-45.2	-57.5	3.8	1.49e+00	0	60	104	1675624448	61	15314
2026-01-13 11:25:58.37	329.87	7.48	-45.3	-57.5	3.8	1.49e+00	0	60	104	1675624448	61	15337
2026-01-13 11:25:59.38	329.95	7.41	-45.0	-57.6	3.8	1.49e+00	0	60	104	1675624448	60	16345
2026-01-13 11:26:00.39	330.04	7.34	-45.2	-57.5	3.8	1.49e+00	0	60	104	1675624448	61	15308
2026-01-13 11:26:01.40	330.13	7.28	-44.9	-57.5	3.8	1.49e+00	0	60	104	1675624448	61	15269
2026-01-13 11:26:02.41	330.22	7.21	-45.1	-57.5	3.8	1.49e+00	0	60	104	1675624448	61	15280
2026-01-13 11:26:03.42	330.30	7.14	-45.1	-57.5	3.8	1.49e+00	0	60	104	1675624448	61	15307
2026-01-13 11:26:04.43	330.39	7.08	-45.1	-57.5	3.8	1.49e+00	0	60	104	1675624448	61	15238
2026-01-13 11:26:05.44	330.48	7.01	-45.2	-57.4	3.8	1.49e+00	0	60	104	1675624448	61	15191
2026-01-13 11:26:06.45	330.56	6.95	-45.2	-57.4	3.8	1.49e+00	0	60	104	1675624448	61	15191
2026-01-13 11:26:07.46	330.65	6.88	-45.1	-57.5	3.8	1.49e+00	0	60	104	1675624448	61	15239
2026-01-13 11:26:08.47	330.73	6.81	-45.1	-57.4	3.8	1.49e+00	0	60	104	1675624448	61	15176
2026-01-13 11:26:09.48	330.82	6.75	-45.2	-57.4	3.8	1.49e+00	0	60	104	1675624448	61	15193
2026-01-13 11:26:10.49	330.90	6.68	-45.2	-57.5	3.8	1.49e+00	0	60	104	1675624448	60	16134
2026-01-13 11:26:11.50	330.99	6.62	-45.2	-57.5	3.8	1.49e+00	0	60	104	1675624448	60	16128
2026-01-13 11:26:12.51	331.07	6.55	-45.2	-57.5	3.8	1.49e+00	0	60	104	1675624448	60	16133
2026-01-13 11:26:13.52	331.15	6.49	-45.2	-57.4	3.8	1.49e+00	0	60	104	1675624448	60	16091
2026-01-13 11:26:14.53	331.24	6.42	-45.2	-57.4	3.8	1.49e+00	0	60	104	1675624448	60	16070
2026-01-13 11:26:15.54	331.32	6.36	-45.1	-57.4	3.8	1.49e+00	0	60	104	1675624448	60	16110
2026-01-13 11:26:16.55	331.40	6.29	-45.2	-57.4	3.8	1.49e+00	0	60	104	1675624448	60	16083
2026-01-13 11:26:17.56	331.48	6.23	-45.2	-57.4	3.8	1.49e+00	0	60	104	1675624448	60	16074
2026-01-13 11:26:18.57	331.56	6.17	-45.1	-57.4	3.8	1.49e+00	0	60	104	1675624448	60	16087
2026-01-13 11:26:19.58	331.64	6.10	-45.1	-57.4	3.8	1.49e+00	0	60	104	1675624448	60	16066
2026-01-13 11:26:20.59	331.73	6.04	-45.2	-57.4	3.8	1.49e+00	0	60	104	1675624448	60	16066
2026-01-13 11:26:21.60	331.81	5.97	-45.1	-57.4	3.8	1.49e+00	0	60	104	1675624448	60	16034
2026-01-13 11:26:22.61	331.89	5.91	-45.1	-57.4	3.8	1.49e+00	0	60	104	1675624448	60	16008
2026-01-13 11:26:23.62	331.97	5.84	-45.1	-57.4	3.8	1.49e+00	0	60	104	1675624448	60	15999
2026-01-13 11:26:24.63	332.05	5.78	-45.2	-57.4	3.8	1.49e+00	0	60	104	1675624448	60	16032
2026-01-13 11:26:25.64	332.12	5.72	-45.1	-57.4	3.8	1.49e+00	0	60	104	1675624448	60	16041
2026-01-13 11:26:26.65	332.20	5.65	-45.1	-57.4	3.8	1.49e+00	0	60	104	1675624448	60	16034
2026-01-13 11:26:27.66	332.28	5.59	-45.1	-57.4	3.8	1.49e+00	0	60	104	1675624448	60	16047
2026-01-13 11:26:28.67	332.36	5.53	-45.1	-57.4	3.8	1.49e+00	0	60	104	1675624448	60	16063
2026-01-13 11:26:29.68	332.44	5.46	-45.1	-57.4	3.8	1.49e+00	0	60	104	1675624448	60	16021
2026-01-13 11:26:30.69	332.52	5.40	-45.1	-57.4	3.8	1.49e+00	0	60	104	1675624448	60	15998
2026-01-13 11:26:31.70	332.59	5.34	-45.1	-57.4	3.8	1.49e+00	0	60	104	1675624448	60	15998
2026-01-13 11:26:32.71	332.67	5.28	-45.1	-57.4	3.8	1.49e+00	0	60	104	1675624448	60	16022
2026-01-13 11:26:33.72	332.75	5.21	-45.1	-57.4	3.8	1.49e+00	0	60	104	1675624448	60	16024
2026-01-13 11:26:34.72	332.82	5.15	-45.1	-57.4	3.8	1.49e+00	0	60	104	1675624448	60	15993
2026-01-13 11:26:35.74	332.90	5.09	-45.1	-57.4	3.8	1.49e+00	0	60	104	1675624448	60	16012
2026-01-13 11:26:36.75	332.97	5.03	-45.1	-57.4	3.8	1.49e+00	0	60	104	1675624448	60	16049
2026-01-13 11:26:37.76	333.05	4.96	-45.1	-57.4	3.8	1.49e+00	0	61	104	1675624448	60	15981
2026-01-13 11:26:38.77	333.12	4.90	-45.1	-57.4	3.8	1.49e+00	0	60	104	1675624448	60	16001
2026-01-13 11:26:39.77	333.20	4.84	-45.1	-57.4	3.8	1.49e+00	0	60	104	1675624448	60	16000
2026-01-13 11:26:40.78	333.27	4.78	-45.1	-57.4	3.8	1.49e+00	0	60	104	1675624448	60	15976
2026-01-13 11:26:41.79	333.35	4.72	-45.1	-57.4	3.8	1.49e+00	0	60	104	1675624448	60	15999
2026-01-13 11:26:42.80	333.42	4.65	-45.1	-57.4	3.8	1.49e+00	0	60	104	1675624448	60	15971
2026-01-13 11:26:43.81	333.49	4.59	-45.1	-57.4	3.8	1.49e+00	0	60	104	1675624448	60	16009
2026-01-13 11:26:44.82	333.57	4.53	-45.1	-57.4	3.8	1.49e+00	0	60	104	1675624448	60	16008
2026-01-13 11:26:45.83	333.64	4.47	-45.1	-57.4	3.8	1.49e+00	0	60	104	1675624448	60	15993
2026-01-13 11:26:46.84	333.71	4.41	-45.1	-57.4	3.8	1.49e+00	0	60	104	1675624448	60	16021
2026-01-13 11:26:47.85	333.79	4.35	-45.1	-57.4	3.8	1.49e+00	0	60	104	1675624448	60	16005
2026-01-13 11:26:48.86	333.86	4.29	-45.1	-57.4	3.8	1.49e+00	0	60	104	1675624448	60	15997
2026-01-13 11:26:49.87	333.93	4.22	-45.0	-57.3	3.8	1.49e+00	0	60	104	1675624448	60	15921
2026-01-13 11:26:50.87	334.00	4.16	-45.1	-57.4	3.8	1.49e+00	0	60	104	1675624448	60	16014
2026-01-13 11:26:51.88	334.07	4.10	-44.3	-57.3	3.8	1.49e+00	0	60	104	1675624448	60	15933
2026-01-13 11:26:52.89	334.14	4.04	-45.0	-57.4	3.8	1.49e+00	0	60	104	1675624448	60	15987
2026-01-13 11:26:53.90	334.21	3.98	-45.0	-57.4	3.8	1.49e+00	0	60	104	1675624448	60	15990
2026-01-13 11:26:54.91	334.29	3.92	-45.1	-57.4	3.8	1.49e+00	0	60	104	1675624448	60	15985
2026-01-13 11:26:55.92	334.36	3.86	-45.1	-57.4	3.8	1.49e+00	0	60	104	1675624448	60	15982
2026-01-13 11:26:56.93	334.43	3.80	-45.1	-57.4	3.8	1.49e+00	0	60	104	1675624448	60	15974
2026-01-13 11:26:57.94	334.50	3.74	-45.1	-57.4	3.8	1.49e+00	0	60	104	1675624448	60	15982
2026-01-13 11:26:58.95	334.56	3.68	-45.1	-57.4	3.8	1.49e+00	0	60	104	1675624448	60	15998
2026-01-13 11:26:59.96	334.63	3.62	-45.1	-57.4	3.8	1.49e+00	0	60	104	1675624448	60	15964
2026-01-13 11:27:00.97	334.70	3.56	-45.1	-57.4	3.8	1.49e+00	0	60	104	1675624448	60	15989
2026-01-13 11:27:01.98	334.77	3.50	-45.1	-57.4	3.8	1.49e+00	0	60	104	1675624448	60	15995
2026-01-13 11:27:02.99	334.84	3.44	-45.1	-57.4	3.8	1.49e+00	0	60	104	1675624448	60	15970
2026-01-13 11:27:03.99	334.91	3.38	-45.0	-57.4	3.8	1.49e+00	0	60	104	1675624448	60	15988
2026-01-13 11:27:05.00	334.98	3.32	-45.1	-57.4	3.8	1.49e+00	0	60	104	1675624448	60	15970
2026-01-13 11:27:06.01	335.04	3.26	-45.1	-57.3	3.8	1.49e+00	0	60	104	1675624448	60	15931
2026-01-13 11:27:07.03	335.11	3.20	-45.1	-57.4	3.8	1.49e+00	0	60	104	1675624448	60	15992
2026-01-13 11:27:08.03	335.18	3.14	-45.1	-57.4	3.8	1.49e+00	0	60	104	1675624448	60	15958
2026-01-13 11:27:09.04	335.24	3.09	-45.1	-57.4	3.8	1.49e+00	0	60	104	1675624448	60	15953
2026-01-13 11:27:10.05	335.31	3.03	-45.0	-57.3	3.8	1.49e+00	0	60	104	1675624448	60	15924
2026-01-13 11:27:11.06	335.38	2.97	-45.1	-57.4	3.8	1.49e+00	0	60	104	1675624448	60	15970
2026-01-13 11:27:12.07	335.44	2.91	-45.1	-57.4	3.8	1.49e+00	0	60	104	1675624448	60	15953
2026-01-13 11:27:13.08	335.51	2.85	-45.1	-57.4	3.8	1.49e+00	0	60	104	1675624448	60	15963
2026-01-13 11:27:14.09	335.58	2.79	-45.1	-57.4	3.8	1.49e+00	0	60	104	1675624448	60	15967
2026-01-13 11:27:15.10	335.64	2.73	-45.0	-57.4	3.8	1.49e+00	0	60	104	1675624448	60	15950
2026-01-13 11:27:16.11	335.71	2.67	-45.1	-57.3	3.8	1.49e+00	0	60	104	1675624448	60	15926
2026-01-13 11:27:17.12	335.77	2.62	-45.1	-57.3	3.8	1.49e+00	0	60	104	1675624448	60	15917
2026-01-13 11:27:18.13	335.84	2.56	-45.1	-57.4	3.8	1.49e+00	0	60	104	1675624448	60	15990
2026-01-13 11:27:19.14	335.90	2.50	-45.1	-57.4	3.8	1.49e+00	0	60	104	1675624448	60	15959
2026-01-13 11:27:20.15	335.96	2.44	-45.1	-57.4	3.8	1.49e+00	0	60	104	1675624448	60	15951
2026-01-13 11:27:21.16	336.03	2.38	-45.1	-57.4	3.8	1.49e+00	0	60	104	1675624448	60	15950
2026-01-13 11:27:22.17	336.09	2.33	-45.1	-57.3	3.8	1.49e+00	0	60	104	1675624448	60	15942
2026-01-13 11:27:23.18	336.16	2.27	-45.1	-57.3	3.8	1.49e+00	0	60	104	1675624448	60	15937
2026-01-13 11:27:24.19	336.22	2.21	-45.1	-57.3	3.8	1.49e+00	0	60	104	1675624448	60	15932
2026-01-13 11:27:25.20	336.28	2.15	-45.1	-57.3	3.8	1.49e+00	0	60	104	1675624448	60	15936
2026-01-13 11:27:26.21	336.35	2.10	-45.1	-57.3	3.8	1.49e+00	0	60	104	1675624448	60	15939
2026-01-13 11:27:27.22	336.41	2.04	-45.1	-57.3	3.8	1.49e+00	0	60	104	1675624448	60	15928
2026-01-13 11:27:28.23	336.47	1.98	-45.1	-57.4	3.8	1.49e+00	0	60	104	1675624448	60	15961
2026-01-13 11:27:29.24	336.53	1.92	-45.1	-57.3	3.8	1.49e+00	0	60	104	1675624448	60	15931
2026-01-13 11:27:30.25	336.59	1.87	-45.1	-57.3	3.8	1.49e+00	0	60	104	1675624448	60	15902

#Closed at: 2026-01-13 11:27:30
#Recorded file [1675 MB]: D:/lorett/data/31039_260113_141618.dat