passes_logs/2026/01/13/R2.0S_Moscow/R2.0S_Moscow__20260113_015235_SUOMI_NPP_rec.log

#Pass ID: 20260113_015235_SUOMI NPP
#Satellite: SUOMI NPP
#Configuration: NPP
#almurnet v.1.7.20251203
#Start time: 2026-01-13 01:52:36

#Version: 2.2.20231116
#Station: R2.0S_Moscow
#Location: 37.707566 lon 55.798166 lat
#TLE: 1 37849U 11061A   26012.28456845  .00000093  00000+0  65163-4 0  9999
#TLE: 2 37849  98.7807 314.3566 0002508  68.3553 291.7890 14.19524725736322

#Time	Az	El	Level	Level2	SNR	BER	BlckErr	Temp	State	Recorded	gain1	gain2
2026-01-13 01:52:36.56	8.95	2.06	-39.3	-54.7	3.8	1.49e+00	0	54	0	0	50	20898
2026-01-13 01:52:37.56	8.87	2.11	-39.3	-54.7	3.8	1.49e+00	0	54	104	0	49	22049
2026-01-13 01:52:38.57	8.79	2.16	-39.3	-54.7	3.8	1.49e+00	0	54	104	0	49	22130
2026-01-13 01:52:39.58	8.70	2.21	-39.3	-54.7	3.8	1.49e+00	0	54	104	0	49	22069
2026-01-13 01:52:40.60	8.62	2.26	-39.3	-54.7	3.8	1.49e+00	0	54	104	0	49	22094
2026-01-13 01:52:41.60	8.54	2.32	-39.3	-54.7	3.8	1.49e+00	0	54	104	0	49	22114
2026-01-13 01:52:42.61	8.46	2.37	-39.3	-54.7	3.8	1.49e+00	0	54	104	0	49	22108
2026-01-13 01:52:43.62	8.37	2.42	-39.3	-54.7	3.8	1.49e+00	0	54	104	0	49	22050
2026-01-13 01:52:44.63	8.29	2.47	-39.3	-54.7	3.8	1.49e+00	0	54	104	0	49	22048
2026-01-13 01:52:45.64	8.21	2.53	-39.3	-54.7	3.8	1.49e+00	0	54	104	0	49	22039
2026-01-13 01:52:46.65	8.12	2.58	-39.3	-54.7	3.8	1.49e+00	0	54	104	0	49	22016
2026-01-13 01:52:47.66	8.04	2.63	-39.3	-54.7	3.8	1.49e+00	0	55	104	0	49	22078
2026-01-13 01:52:48.67	7.95	2.68	-39.3	-54.7	3.8	1.49e+00	0	54	104	0	49	22032
2026-01-13 01:52:49.68	7.87	2.74	-39.3	-54.7	3.8	1.49e+00	0	55	104	0	49	22022
2026-01-13 01:52:50.69	7.78	2.79	-39.3	-54.7	3.8	1.49e+00	0	55	104	0	49	22045
2026-01-13 01:52:51.70	7.70	2.84	-39.3	-54.7	3.8	1.49e+00	0	55	104	0	49	22070
2026-01-13 01:52:52.71	7.61	2.90	-39.3	-54.7	3.8	1.49e+00	0	55	104	0	49	22036
2026-01-13 01:52:53.72	7.53	2.95	-39.3	-54.7	3.8	1.49e+00	0	55	104	0	49	22040
2026-01-13 01:52:54.73	7.44	3.00	-39.3	-54.6	3.8	1.49e+00	0	55	104	0	49	22002
2026-01-13 01:52:55.74	7.35	3.05	-39.3	-54.7	3.8	1.49e+00	0	55	104	0	49	22045
2026-01-13 01:52:56.75	7.27	3.11	-39.3	-54.7	3.8	1.49e+00	0	55	104	0	49	22030
2026-01-13 01:52:57.76	7.18	3.16	-39.3	-54.7	3.8	1.49e+00	0	55	104	0	49	22019
2026-01-13 01:52:58.77	7.09	3.21	-39.3	-54.7	3.8	1.49e+00	0	55	104	0	49	22056
2026-01-13 01:52:59.78	7.00	3.27	-39.3	-54.7	3.8	1.49e+00	0	55	104	0	49	22070
2026-01-13 01:53:00.78	6.91	3.32	-39.3	-54.7	3.8	1.49e+00	0	55	104	0	49	22017
2026-01-13 01:53:01.80	6.82	3.37	-39.3	-54.6	3.8	1.49e+00	0	55	104	0	49	21987
2026-01-13 01:53:02.81	6.73	3.43	-39.3	-54.7	3.8	1.49e+00	0	55	104	0	49	22023
2026-01-13 01:53:03.81	6.65	3.48	-39.3	-54.6	3.8	1.49e+00	0	55	104	0	49	22004
2026-01-13 01:53:04.82	6.56	3.53	-39.3	-54.7	3.8	1.49e+00	0	55	104	0	49	22014
2026-01-13 01:53:05.84	6.46	3.59	-39.3	-54.6	3.8	1.49e+00	0	55	104	0	49	21958
2026-01-13 01:53:06.84	6.38	3.64	-39.3	-54.6	3.8	1.49e+00	0	55	104	0	49	21993
2026-01-13 01:53:07.85	6.28	3.69	-39.3	-54.7	3.8	1.49e+00	0	55	104	0	49	22044
2026-01-13 01:53:08.86	6.19	3.75	-39.3	-54.7	3.8	1.49e+00	0	56	104	0	49	22022
2026-01-13 01:53:09.87	6.10	3.80	-39.3	-54.7	3.8	1.49e+00	0	56	104	0	49	22016
2026-01-13 01:53:10.88	6.01	3.85	-39.3	-54.7	3.8	1.49e+00	0	56	104	0	49	22071
2026-01-13 01:53:11.89	5.92	3.91	-39.3	-54.7	3.8	1.49e+00	0	55	104	0	49	22073
2026-01-13 01:53:12.90	5.82	3.96	-39.3	-54.6	3.8	1.49e+00	0	56	104	0	49	21984
2026-01-13 01:53:13.91	5.73	4.01	-39.3	-54.6	3.8	1.49e+00	0	56	104	0	49	21976
2026-01-13 01:53:14.92	5.64	4.07	-39.3	-54.7	3.8	1.49e+00	0	56	104	0	49	22019
2026-01-13 01:53:15.93	5.54	4.12	-39.3	-54.7	3.8	1.49e+00	0	55	104	0	49	22058
2026-01-13 01:53:16.94	5.45	4.17	-39.3	-54.6	3.8	1.49e+00	0	56	104	0	49	21987
2026-01-13 01:53:17.95	5.36	4.23	-39.3	-54.7	3.8	1.49e+00	0	56	104	0	49	22043
2026-01-13 01:53:18.96	5.26	4.28	-39.3	-54.7	3.8	1.49e+00	0	56	104	0	49	22014
2026-01-13 01:53:19.97	5.17	4.34	-39.2	-54.6	3.8	1.49e+00	0	56	104	0	49	21980
2026-01-13 01:53:20.98	5.07	4.39	-39.2	-54.7	3.8	1.49e+00	0	56	104	0	49	22060
2026-01-13 01:53:21.99	4.97	4.44	-39.3	-54.6	3.8	1.49e+00	0	56	104	0	49	21998
2026-01-13 01:53:23.00	4.88	4.50	-39.3	-54.7	3.8	1.49e+00	0	56	104	0	49	22018
2026-01-13 01:53:24.02	4.78	4.55	-39.2	-54.7	3.8	1.49e+00	0	56	104	0	49	22045
2026-01-13 01:53:25.02	4.68	4.60	-39.3	-54.6	3.8	1.49e+00	0	56	104	0	49	21957
2026-01-13 01:53:26.03	4.59	4.66	-39.3	-54.6	3.8	1.49e+00	0	56	104	0	49	22006
2026-01-13 01:53:27.05	4.49	4.71	-39.3	-54.7	3.8	1.49e+00	0	56	104	0	49	22023
2026-01-13 01:53:28.06	4.39	4.77	-39.2	-54.6	3.8	1.49e+00	0	56	104	0	49	21943
2026-01-13 01:53:29.07	4.29	4.82	-39.3	-54.7	3.8	1.49e+00	0	56	104	0	49	22027
2026-01-13 01:53:30.08	4.19	4.88	-39.3	-54.6	3.8	1.49e+00	0	56	104	0	49	22007
2026-01-13 01:53:31.09	4.09	4.93	-39.3	-54.6	3.8	1.49e+00	0	56	104	0	49	21989
2026-01-13 01:53:32.10	3.99	4.98	-39.2	-54.6	3.8	1.49e+00	0	56	104	0	49	21962
2026-01-13 01:53:33.11	3.89	5.04	-39.2	-54.6	3.8	1.49e+00	0	57	104	0	49	21977
2026-01-13 01:53:34.12	3.79	5.09	-39.3	-54.6	3.8	1.49e+00	0	56	104	0	49	21974
2026-01-13 01:53:35.13	3.69	5.15	-39.3	-54.6	3.8	1.49e+00	0	56	104	0	49	21960
2026-01-13 01:53:36.14	3.59	5.20	-39.3	-54.7	3.8	1.49e+00	0	56	104	0	49	22011
2026-01-13 01:53:37.15	3.49	5.26	-39.3	-54.6	3.8	1.49e+00	0	56	104	0	49	21979
2026-01-13 01:53:38.17	3.39	5.31	-39.3	-54.6	3.8	1.49e+00	0	56	104	0	49	21967
2026-01-13 01:53:39.17	3.28	5.36	-39.3	-54.6	3.8	1.49e+00	0	57	104	0	49	21926
2026-01-13 01:53:40.18	3.18	5.42	-39.3	-54.6	3.8	1.49e+00	0	57	104	0	49	21971
2026-01-13 01:53:41.19	3.08	5.47	-39.2	-54.6	3.8	1.49e+00	0	57	104	0	49	21981
2026-01-13 01:53:42.20	2.97	5.53	-39.2	-54.6	3.8	1.49e+00	0	56	104	0	49	21962
2026-01-13 01:53:43.21	2.87	5.58	-39.2	-54.6	3.8	1.49e+00	0	57	104	0	49	21940
2026-01-13 01:53:44.22	2.77	5.64	-39.3	-54.6	3.8	1.49e+00	0	57	104	0	49	21953
2026-01-13 01:53:45.23	2.66	5.69	-39.3	-54.6	3.8	1.49e+00	0	57	104	0	49	21934
2026-01-13 01:53:46.24	2.56	5.75	-39.2	-54.6	3.8	1.49e+00	0	57	104	0	49	21992
2026-01-13 01:53:47.25	2.45	5.80	-39.2	-54.6	3.8	1.49e+00	0	57	104	0	49	21918
2026-01-13 01:53:48.26	2.34	5.85	-39.2	-54.6	3.8	1.49e+00	0	57	104	0	49	22001
2026-01-13 01:53:49.27	2.24	5.91	-39.2	-54.6	3.8	1.49e+00	0	57	104	0	49	21958
2026-01-13 01:53:50.28	2.13	5.96	-39.2	-54.6	3.8	1.49e+00	0	57	104	0	49	21996
2026-01-13 01:53:51.29	2.02	6.02	-39.2	-54.6	3.8	1.49e+00	0	57	104	0	49	21986
2026-01-13 01:53:52.30	1.92	6.07	-39.2	-54.7	3.8	1.49e+00	0	57	104	0	49	22023
2026-01-13 01:53:53.31	1.81	6.13	-39.2	-54.7	3.8	1.49e+00	0	57	104	0	49	22045
2026-01-13 01:53:54.32	1.70	6.18	-39.3	-54.6	3.8	1.49e+00	0	57	104	0	49	21968
2026-01-13 01:53:55.33	1.59	6.24	-39.2	-54.6	3.8	1.49e+00	0	57	104	0	49	21961
2026-01-13 01:53:56.34	1.48	6.29	-39.3	-54.6	3.8	1.49e+00	0	57	104	0	49	21978
2026-01-13 01:53:57.35	1.37	6.35	-39.2	-54.6	3.8	1.49e+00	0	57	104	0	49	21985
2026-01-13 01:53:58.36	1.26	6.40	-39.2	-54.7	3.8	1.49e+00	0	57	104	0	49	22029
2026-01-13 01:53:59.37	1.15	6.46	-39.2	-54.6	3.8	1.49e+00	0	57	104	0	49	21968
2026-01-13 01:54:00.38	1.04	6.51	-39.2	-54.6	3.8	1.49e+00	0	57	104	0	49	21925
2026-01-13 01:54:01.39	0.93	6.57	-39.3	-54.6	3.8	1.49e+00	0	57	104	0	49	22001
2026-01-13 01:54:02.40	0.81	6.62	-39.2	-54.7	3.8	1.49e+00	0	57	104	0	49	22041
2026-01-13 01:54:03.41	0.70	6.68	-39.2	-54.7	3.8	1.49e+00	0	57	104	0	49	22020
2026-01-13 01:54:04.42	0.59	6.73	-39.2	-54.6	3.8	1.49e+00	0	57	104	0	49	21986
2026-01-13 01:54:05.43	0.48	6.78	-39.2	-54.6	3.8	1.49e+00	0	57	104	0	49	21930
2026-01-13 01:54:06.44	0.36	6.84	-39.2	-54.6	3.8	1.49e+00	0	57	104	0	49	21974
2026-01-13 01:54:07.45	0.25	6.89	-39.2	-54.6	3.8	1.49e+00	0	57	104	0	49	21918
2026-01-13 01:54:08.46	0.13	6.95	-39.2	-54.7	3.8	1.49e+00	0	57	104	0	49	22048
2026-01-13 01:54:09.47	0.02	7.00	-39.2	-54.6	3.8	1.49e+00	0	57	104	0	49	21941
2026-01-13 01:54:10.48	359.90	7.06	-39.2	-54.6	3.8	1.49e+00	0	57	104	0	49	21974
2026-01-13 01:54:11.49	359.79	7.11	-39.3	-54.6	3.8	1.49e+00	0	57	104	0	49	21967
2026-01-13 01:54:12.50	359.67	7.17	-39.2	-54.6	3.8	1.49e+00	0	57	104	0	49	21973
2026-01-13 01:54:13.51	359.55	7.22	-39.2	-54.6	3.8	1.49e+00	0	57	104	0	49	21934
2026-01-13 01:54:14.52	359.44	7.28	-39.2	-54.7	3.8	1.49e+00	0	58	104	0	49	22020
2026-01-13 01:54:15.53	359.32	7.33	-39.2	-54.6	3.8	1.49e+00	0	58	104	0	49	21960
2026-01-13 01:54:16.54	359.20	7.39	-39.2	-54.6	3.8	1.49e+00	0	57	104	0	49	21965
2026-01-13 01:54:17.55	359.08	7.44	-39.2	-54.6	3.8	1.49e+00	0	58	104	0	49	21983
2026-01-13 01:54:18.56	358.96	7.50	-39.2	-54.6	3.8	1.49e+00	0	58	104	0	49	21978
2026-01-13 01:54:19.57	358.84	7.55	-39.2	-54.6	3.8	1.49e+00	0	58	104	0	49	21966
2026-01-13 01:54:20.58	358.72	7.61	-39.2	-54.6	3.8	1.49e+00	0	58	104	0	49	21976
2026-01-13 01:54:21.59	358.60	7.66	-39.2	-54.6	3.8	1.49e+00	0	58	104	0	49	21898
2026-01-13 01:54:22.60	358.48	7.72	-39.2	-54.6	3.8	1.49e+00	0	58	104	0	49	21986
2026-01-13 01:54:23.61	358.36	7.77	-39.3	-54.6	3.8	1.49e+00	0	58	104	0	49	21973
2026-01-13 01:54:24.62	358.24	7.83	-39.2	-54.6	3.8	1.49e+00	0	58	104	0	49	21958
2026-01-13 01:54:25.63	358.12	7.88	-39.2	-54.6	3.8	1.49e+00	0	58	104	0	49	21965
2026-01-13 01:54:26.64	357.99	7.94	-39.2	-54.6	3.8	1.49e+00	0	58	104	0	49	21930
2026-01-13 01:54:27.65	357.87	7.99	-39.2	-54.7	3.8	1.49e+00	0	58	104	0	49	22009
2026-01-13 01:54:28.66	357.74	8.05	-39.2	-54.6	3.8	1.49e+00	0	58	104	0	49	21966
2026-01-13 01:54:29.67	357.62	8.10	-39.8	-54.8	3.8	1.49e+00	0	58	104	0	50	21051
2026-01-13 01:54:30.68	357.50	8.16	-39.4	-54.7	3.8	1.49e+00	0	58	104	0	50	20987
2026-01-13 01:54:31.69	357.37	8.21	-39.9	-54.8	3.8	1.49e+00	0	58	104	0	50	21060
2026-01-13 01:54:32.70	357.24	8.27	-39.6	-54.8	3.8	1.49e+00	0	58	104	0	50	21083
2026-01-13 01:54:33.71	357.12	8.32	-39.9	-54.8	3.8	1.49e+00	0	58	104	0	50	21144
2026-01-13 01:54:34.72	356.99	8.38	-39.7	-54.7	3.8	1.49e+00	0	58	104	0	50	20983
2026-01-13 01:54:35.73	356.86	8.43	-39.8	-54.8	3.8	1.49e+00	0	58	104	0	50	21149
2026-01-13 01:54:36.74	356.74	8.49	-39.8	-54.7	3.8	1.49e+00	0	58	104	0	50	20919
2026-01-13 01:54:37.75	356.61	8.54	-39.7	-54.8	3.8	1.49e+00	0	58	104	0	50	21019
2026-01-13 01:54:38.76	356.48	8.60	-39.6	-54.7	3.8	1.49e+00	0	58	104	0	50	20954
2026-01-13 01:54:39.76	356.35	8.65	-39.8	-54.8	3.8	1.49e+00	0	58	104	0	50	21123
2026-01-13 01:54:40.77	356.22	8.70	-39.8	-54.7	3.8	1.49e+00	0	58	104	0	50	20933
2026-01-13 01:54:41.78	356.09	8.76	-39.9	-54.8	3.8	1.49e+00	0	58	104	0	50	21202
2026-01-13 01:54:42.80	355.96	8.81	-39.7	-54.8	3.8	1.49e+00	0	58	104	0	50	21044
2026-01-13 01:54:43.81	355.83	8.87	-39.9	-54.8	3.8	1.49e+00	0	58	104	0	50	21238
2026-01-13 01:54:44.82	355.70	8.92	-39.7	-54.8	3.8	1.49e+00	0	58	104	0	50	21182
2026-01-13 01:54:45.83	355.56	8.98	-40.0	-54.9	3.8	1.49e+00	0	58	104	0	50	21348
2026-01-13 01:54:46.83	355.43	9.03	-39.8	-54.8	3.8	1.49e+00	0	58	104	0	50	21173
2026-01-13 01:54:47.84	355.30	9.09	-40.1	-54.9	3.8	1.49e+00	0	58	104	0	50	21391
2026-01-13 01:54:48.85	355.16	9.14	-39.8	-54.8	3.8	1.49e+00	0	58	104	0	50	21151
2026-01-13 01:54:49.86	355.03	9.20	-40.2	-55.0	3.8	1.49e+00	0	58	104	0	50	21530
2026-01-13 01:54:50.87	354.90	9.25	-39.9	-54.8	3.8	1.49e+00	0	58	104	0	50	21146
2026-01-13 01:54:51.88	354.76	9.30	-40.1	-55.1	3.8	1.49e+00	0	58	104	0	50	21936
2026-01-13 01:54:52.89	354.62	9.36	-40.1	-54.9	3.8	1.49e+00	0	58	104	0	50	21419
2026-01-13 01:54:53.90	354.49	9.41	-40.2	-55.1	3.8	1.49e+00	0	58	104	0	50	21867
2026-01-13 01:54:54.91	354.35	9.47	-40.1	-54.9	3.8	1.49e+00	0	58	104	0	50	21383
2026-01-13 01:54:55.92	354.21	9.52	-40.4	-55.1	3.8	1.49e+00	0	58	104	0	51	20562
2026-01-13 01:54:56.93	354.08	9.58	-40.1	-54.9	3.8	1.49e+00	0	58	104	0	51	20191
2026-01-13 01:54:57.94	353.94	9.63	-40.4	-55.1	3.8	1.49e+00	0	59	104	0	51	20661
2026-01-13 01:54:58.95	353.80	9.68	-40.2	-55.0	3.8	1.49e+00	0	58	104	0	51	20314
2026-01-13 01:54:59.96	353.66	9.74	-40.3	-55.1	3.8	1.49e+00	0	58	104	0	51	20619
2026-01-13 01:55:00.97	353.52	9.79	-40.3	-55.0	3.8	1.49e+00	0	58	104	0	51	20361
2026-01-13 01:55:01.98	353.38	9.85	-40.2	-55.1	3.8	1.49e+00	0	58	104	0	51	20545
2026-01-13 01:55:02.99	353.24	9.90	-40.4	-55.1	3.8	1.49e+00	0	58	104	0	51	20565
2026-01-13 01:55:04.00	353.09	9.95	-40.4	-55.3	3.8	1.49e+00	0	58	104	0	51	21032
2026-01-13 01:55:05.00	352.95	10.01	-40.4	-55.0	3.8	1.49e+00	0	58	104	0	51	20528
2026-01-13 01:55:06.01	352.81	10.06	-40.4	-55.2	3.8	1.49e+00	0	59	104	0	51	20943
2026-01-13 01:55:07.02	352.67	10.11	-40.4	-55.1	3.8	1.49e+00	0	58	104	0	51	20546
2026-01-13 01:55:08.03	352.52	10.17	-40.5	-55.3	3.8	1.49e+00	0	58	104	0	51	21100
2026-01-13 01:55:09.04	352.38	10.22	-40.4	-55.2	3.8	1.49e+00	0	59	104	0	51	20961
2026-01-13 01:55:10.05	352.23	10.28	-40.7	-55.4	3.8	1.49e+00	0	58	104	0	51	21313
2026-01-13 01:55:11.06	352.09	10.33	-40.4	-55.2	3.8	1.49e+00	0	58	104	0	51	20929
2026-01-13 01:55:12.07	351.94	10.38	-40.6	-55.3	3.8	1.49e+00	0	58	104	0	51	21196
2026-01-13 01:55:13.08	351.80	10.44	-40.3	-55.3	3.8	1.49e+00	0	59	104	0	51	21019
2026-01-13 01:55:14.09	351.65	10.49	-40.7	-55.4	3.8	1.49e+00	0	59	104	0	52	20087
2026-01-13 01:55:15.10	351.50	10.54	-40.2	-55.2	3.8	1.49e+00	0	59	104	0	52	19630
2026-01-13 01:55:16.11	351.35	10.59	-40.7	-55.3	3.8	1.49e+00	0	58	104	0	52	19952
2026-01-13 01:55:17.12	351.20	10.65	-40.6	-55.3	3.8	1.49e+00	0	58	104	0	52	19949
2026-01-13 01:55:18.13	351.06	10.70	-40.8	-55.4	3.8	1.49e+00	0	59	104	0	52	20160
2026-01-13 01:55:19.14	350.91	10.75	-40.7	-55.4	3.8	1.49e+00	0	58	104	0	52	20109
2026-01-13 01:55:20.15	350.76	10.81	-40.7	-55.4	3.8	1.49e+00	0	59	104	0	52	20285
2026-01-13 01:55:21.16	350.60	10.86	-40.5	-55.3	3.8	1.49e+00	0	59	104	0	52	19877
2026-01-13 01:55:22.17	350.45	10.91	-40.8	-55.5	3.8	1.49e+00	0	59	104	0	52	20316
2026-01-13 01:55:23.18	350.30	10.96	-40.6	-55.3	3.8	1.49e+00	0	59	104	0	52	20035
2026-01-13 01:55:24.19	350.15	11.02	-40.8	-55.4	3.8	1.49e+00	0	59	104	0	52	20153
2026-01-13 01:55:25.20	349.99	11.07	-40.5	-55.2	3.8	1.49e+00	0	59	104	0	52	19678
2026-01-13 01:55:26.21	349.84	11.12	-40.7	-55.3	3.8	1.49e+00	0	59	104	0	52	20065
2026-01-13 01:55:27.22	349.69	11.17	-40.6	-55.3	3.8	1.49e+00	0	59	104	0	52	20070
2026-01-13 01:55:28.23	349.53	11.23	-40.9	-55.7	3.8	1.49e+00	0	59	104	0	52	20871
2026-01-13 01:55:29.24	349.38	11.28	-40.7	-55.4	3.8	1.49e+00	0	59	104	0	52	20293
2026-01-13 01:55:30.24	349.22	11.33	-40.9	-55.7	3.8	1.49e+00	0	59	104	0	52	20902
2026-01-13 01:55:31.25	349.07	11.38	-40.8	-55.4	3.8	1.49e+00	0	59	104	0	52	20274
2026-01-13 01:55:32.26	348.91	11.43	-41.0	-55.7	3.8	1.49e+00	0	59	104	0	52	20795
2026-01-13 01:55:33.27	348.75	11.48	-40.8	-55.6	3.8	1.49e+00	0	59	104	0	52	20700
2026-01-13 01:55:34.28	348.59	11.54	-41.0	-55.7	3.8	1.49e+00	0	59	104	0	52	20891
2026-01-13 01:55:35.29	348.43	11.59	-40.9	-55.6	3.8	1.49e+00	0	59	104	0	52	20635
2026-01-13 01:55:36.30	348.27	11.64	-40.9	-55.7	3.8	1.49e+00	0	59	104	0	52	20850
2026-01-13 01:55:37.31	348.11	11.69	-40.9	-55.7	3.8	1.49e+00	0	59	104	0	52	20885
2026-01-13 01:55:38.32	347.95	11.74	-41.0	-55.7	3.8	1.49e+00	0	59	104	0	52	21007
2026-01-13 01:55:39.33	347.79	11.79	-40.9	-55.7	3.8	1.49e+00	0	59	104	0	52	20875
2026-01-13 01:55:40.34	347.63	11.84	-41.0	-55.8	3.8	1.49e+00	0	59	104	0	52	21155
2026-01-13 01:55:41.35	347.47	11.89	-41.1	-55.7	3.8	1.49e+00	0	59	104	0	52	20960
2026-01-13 01:55:42.36	347.31	11.94	-41.0	-55.8	3.8	1.49e+00	0	59	104	0	52	21136
2026-01-13 01:55:43.37	347.14	11.99	-41.1	-55.8	3.8	1.49e+00	0	59	104	0	52	21052
2026-01-13 01:55:44.38	346.98	12.05	-41.1	-55.7	3.8	1.49e+00	0	59	104	0	52	20910
2026-01-13 01:55:45.40	346.81	12.10	-41.1	-55.7	3.8	1.49e+00	0	59	104	0	52	20994
2026-01-13 01:55:46.40	346.65	12.15	-40.9	-55.6	3.8	1.49e+00	0	59	104	0	52	20649
2026-01-13 01:55:47.41	346.48	12.20	-41.1	-55.8	3.8	1.49e+00	0	59	104	0	52	21162
2026-01-13 01:55:48.42	346.32	12.25	-41.0	-55.6	3.8	1.49e+00	0	59	104	0	52	20756
2026-01-13 01:55:49.43	346.15	12.30	-40.8	-55.4	3.8	1.49e+00	0	59	104	0	52	20237
2026-01-13 01:55:50.44	345.98	12.34	-40.8	-55.5	3.8	1.49e+00	0	59	104	0	52	20480
2026-01-13 01:55:51.46	345.81	12.39	-40.7	-55.4	3.8	1.49e+00	0	59	104	0	52	20212
2026-01-13 01:55:52.46	345.65	12.44	-40.6	-55.4	3.8	1.49e+00	0	59	104	0	52	20233
2026-01-13 01:55:53.47	345.48	12.49	-40.6	-55.4	3.8	1.49e+00	0	59	104	0	52	20161
2026-01-13 01:55:54.48	345.31	12.54	-40.7	-55.4	3.8	1.49e+00	0	59	104	0	52	20298
2026-01-13 01:55:55.50	345.13	12.59	-40.7	-55.5	3.8	1.49e+00	0	59	104	0	52	20340
2026-01-13 01:55:56.51	344.96	12.64	-40.7	-55.5	3.8	1.49e+00	0	59	104	0	52	20445
2026-01-13 01:55:57.51	344.79	12.69	-40.7	-55.5	3.8	1.49e+00	0	59	104	0	52	20342
2026-01-13 01:55:58.52	344.62	12.74	-40.6	-55.4	3.8	1.49e+00	0	59	104	0	52	20295
2026-01-13 01:55:59.53	344.45	12.78	-40.5	-55.2	3.8	1.49e+00	0	59	104	0	52	19833
2026-01-13 01:56:00.54	344.28	12.83	-40.6	-55.4	3.8	1.49e+00	0	59	104	0	52	20222
2026-01-13 01:56:01.55	344.10	12.88	-40.6	-55.4	3.8	1.49e+00	0	59	104	0	52	20113
2026-01-13 01:56:02.56	343.93	12.93	-40.6	-55.4	3.8	1.49e+00	0	59	104	0	52	20104
2026-01-13 01:56:03.57	343.75	12.98	-40.8	-55.5	3.8	1.49e+00	0	59	104	0	52	20412
2026-01-13 01:56:04.58	343.58	13.02	-40.6	-55.3	3.8	1.49e+00	0	59	104	0	52	19944
2026-01-13 01:56:05.59	343.40	13.07	-40.7	-55.4	3.8	1.49e+00	0	59	104	0	52	20110
2026-01-13 01:56:06.60	343.22	13.12	-40.6	-55.3	3.8	1.49e+00	0	59	104	0	52	20056
2026-01-13 01:56:07.61	343.05	13.16	-40.4	-55.3	3.8	1.49e+00	0	59	104	0	52	19866
2026-01-13 01:56:08.62	342.87	13.21	-40.8	-55.4	3.8	1.49e+00	0	59	104	0	52	20142
2026-01-13 01:56:09.63	342.69	13.26	-40.6	-55.3	3.8	1.49e+00	0	59	104	0	52	19975
2026-01-13 01:56:10.64	342.51	13.30	-40.7	-55.4	3.8	1.49e+00	0	59	104	0	52	20178
2026-01-13 01:56:11.65	342.33	13.35	-40.8	-55.4	3.8	1.49e+00	0	59	104	0	52	20172
2026-01-13 01:56:12.66	342.15	13.40	-40.3	-55.2	3.8	1.49e+00	0	59	104	0	52	19706
2026-01-13 01:56:13.67	341.97	13.44	-40.6	-55.3	3.8	1.49e+00	0	59	104	0	52	19938
2026-01-13 01:56:14.68	341.79	13.49	-40.3	-55.2	3.8	1.49e+00	0	59	104	0	52	19814
2026-01-13 01:56:15.69	341.61	13.53	-40.7	-55.5	3.8	1.49e+00	0	59	104	0	52	20370
2026-01-13 01:56:16.70	341.43	13.58	-40.4	-55.3	3.8	1.49e+00	0	59	104	0	52	19863
2026-01-13 01:56:17.71	341.24	13.62	-40.8	-55.6	3.8	1.49e+00	0	59	104	0	52	20623
2026-01-13 01:56:18.72	341.06	13.67	-40.5	-55.3	3.8	1.49e+00	0	59	104	0	52	20028
2026-01-13 01:56:19.73	340.88	13.71	-40.7	-55.4	3.8	1.49e+00	0	59	104	0	52	20283
2026-01-13 01:56:20.74	340.69	13.76	-40.8	-55.6	3.8	1.49e+00	0	59	104	0	52	20600
2026-01-13 01:56:21.75	340.51	13.80	-40.9	-55.7	3.8	1.49e+00	0	59	104	0	52	20899
2026-01-13 01:56:22.76	340.32	13.84	-41.0	-55.7	3.8	1.49e+00	0	59	104	0	52	20848
2026-01-13 01:56:23.77	340.13	13.89	-41.8	-55.3	3.8	1.49e+00	0	59	104	0	54	17783
2026-01-13 01:56:24.78	339.95	13.93	-41.1	-55.7	3.8	1.49e+00	0	59	104	0	54	18598
2026-01-13 01:56:25.79	339.76	13.97	-41.4	-54.1	3.8	1.49e+00	0	59	104	0	53	16323
2026-01-13 01:56:26.79	339.57	14.02	-41.6	-52.3	4.5	1.36e+00	0	59	0	0	53	13280
2026-01-13 01:56:27.80	339.39	14.06	-41.6	-51.0	5.1	8.95e-01	0	59	0	2097152	53	11543
2026-01-13 01:56:28.81	339.20	14.10	-41.4	-49.6	6.1	3.90e-01	0	59	0	4194304	53	9800
2026-01-13 01:56:29.82	339.01	14.14	-41.2	-48.1	7.5	1.64e-01	0	59	0	5242880	53	8203
2026-01-13 01:56:30.83	338.82	14.19	-40.9	-47.0	8.7	6.58e-02	0	59	0	7340032	53	7218
2026-01-13 01:56:31.84	338.63	14.23	-40.8	-46.5	9.3	1.87e-02	0	59	0	9437184	53	6870
2026-01-13 01:56:32.85	338.43	14.27	-40.8	-46.2	9.7	1.19e-02	0	59	0	11534336	53	6597
2026-01-13 01:56:33.86	338.24	14.31	-40.9	-46.4	9.6	1.24e-02	0	59	0	13631488	53	6739
2026-01-13 01:56:34.87	338.05	14.35	-41.0	-46.6	9.5	1.47e-02	0	59	0	14680064	53	6904
2026-01-13 01:56:35.88	337.86	14.39	-41.2	-46.7	9.3	1.63e-02	0	59	0	16777216	53	7038
2026-01-13 01:56:36.89	337.66	14.43	-41.4	-47.0	9.1	1.80e-02	0	60	0	18874368	53	7283
2026-01-13 01:56:37.90	337.47	14.47	-41.5	-47.0	9.3	2.86e-02	0	59	0	20971520	53	7275
2026-01-13 01:56:38.91	337.28	14.51	-41.2	-46.0	10.5	6.60e-03	0	59	0	23068672	53	6480
2026-01-13 01:56:39.92	337.08	14.55	-41.4	-46.1	10.5	2.45e-03	0	59	0	25165824	53	6549
2026-01-13 01:56:40.93	336.88	14.59	-41.6	-46.5	10.3	4.58e-03	0	59	0	26214400	53	6809
2026-01-13 01:56:41.94	336.69	14.63	-41.6	-46.5	10.2	5.28e-03	0	59	0	28311552	53	6867
2026-01-13 01:56:42.95	336.49	14.67	-41.7	-46.8	10.0	5.26e-03	0	59	0	30408704	54	6680
2026-01-13 01:56:43.96	336.29	14.71	-41.9	-47.2	9.5	1.10e-02	0	59	0	32505856	54	7012
2026-01-13 01:56:44.96	336.10	14.75	-42.0	-47.3	9.4	1.38e-02	0	59	0	34603008	54	7111
2026-01-13 01:56:45.97	335.90	14.78	-41.9	-47.2	9.5	1.26e-02	0	59	0	35651584	54	7021
2026-01-13 01:56:46.98	335.70	14.82	-41.9	-47.0	9.8	1.27e-02	0	59	0	37748736	54	6843
2026-01-13 01:56:47.99	335.50	14.86	-41.7	-46.6	10.3	6.13e-03	0	59	0	39845888	54	6496
2026-01-13 01:56:49.00	335.30	14.90	-41.8	-46.8	10.2	6.65e-03	0	59	0	41943040	54	6664
2026-01-13 01:56:50.01	335.10	14.93	-41.8	-46.6	10.4	4.72e-03	0	59	0	42991616	54	6514
2026-01-13 01:56:51.02	334.90	14.97	-41.8	-46.6	10.3	5.22e-03	0	59	0	45088768	54	6566
2026-01-13 01:56:52.03	334.70	15.01	-41.9	-46.8	10.2	5.33e-03	0	59	0	47185920	54	6709
2026-01-13 01:56:53.04	334.50	15.04	-41.9	-46.9	10.1	5.77e-03	0	59	0	49283072	54	6740
2026-01-13 01:56:54.04	334.30	15.08	-41.9	-46.8	10.2	7.07e-03	0	60	0	51380224	54	6700
2026-01-13 01:56:55.05	334.10	15.11	-41.9	-46.7	10.3	5.38e-03	0	59	0	53477376	54	6621
2026-01-13 01:56:56.06	333.89	15.15	-41.9	-46.7	10.3	5.13e-03	0	59	0	54525952	54	6614
2026-01-13 01:56:57.07	333.69	15.18	-41.8	-46.5	10.6	4.44e-03	0	59	0	56623104	54	6449
2026-01-13 01:56:58.08	333.49	15.22	-41.8	-46.4	10.7	2.68e-03	0	59	0	58720256	54	6394
2026-01-13 01:56:59.09	333.28	15.25	-41.8	-46.4	10.7	2.95e-03	0	59	0	60817408	54	6413
2026-01-13 01:57:00.10	333.08	15.29	-41.8	-46.5	10.7	2.57e-03	0	59	0	62914560	54	6442
2026-01-13 01:57:01.11	332.87	15.32	-41.8	-46.5	10.7	3.24e-03	0	59	0	63963136	54	6436
2026-01-13 01:57:02.12	332.66	15.35	-41.9	-46.7	10.5	3.86e-03	0	59	0	66060288	54	6573
2026-01-13 01:57:03.13	332.46	15.38	-42.0	-46.9	10.2	4.80e-03	0	60	0	68157440	54	6763
2026-01-13 01:57:04.14	332.25	15.42	-42.0	-46.9	10.3	5.05e-03	0	59	0	70254592	54	6757
2026-01-13 01:57:05.15	332.04	15.45	-42.1	-47.0	10.2	5.91e-03	0	59	0	72351744	54	6804
2026-01-13 01:57:06.16	331.84	15.48	-42.0	-46.8	10.5	5.42e-03	0	59	0	73400320	54	6660
2026-01-13 01:57:07.17	331.63	15.51	-41.8	-46.3	10.9	2.25e-03	0	59	0	75497472	54	6307
2026-01-13 01:57:08.18	331.42	15.54	-41.8	-46.1	11.1	1.53e-03	0	59	0	77594624	54	6186
2026-01-13 01:57:09.19	331.21	15.57	-41.7	-45.9	11.3	1.19e-03	0	60	0	79691776	54	6056
2026-01-13 01:57:10.20	331.00	15.61	-41.6	-45.7	11.6	7.08e-04	0	59	0	81788928	54	5914
2026-01-13 01:57:11.20	330.79	15.63	-41.6	-45.7	11.6	7.06e-04	0	59	0	82837504	54	5922
2026-01-13 01:57:12.21	330.58	15.66	-41.6	-45.7	11.7	7.22e-04	0	60	0	84934656	54	5880
2026-01-13 01:57:13.22	330.37	15.69	-41.5	-45.6	11.8	4.75e-04	0	59	0	87031808	54	5804
2026-01-13 01:57:14.23	330.16	15.72	-41.7	-46.0	11.5	6.21e-04	0	60	0	89128960	54	6075
2026-01-13 01:57:15.24	329.95	15.75	-41.7	-45.8	11.6	6.59e-04	0	59	0	91226112	54	5931
2026-01-13 01:57:16.25	329.73	15.78	-41.7	-45.8	11.6	7.39e-04	0	59	0	92274688	54	5941
2026-01-13 01:57:17.26	329.52	15.81	-41.7	-45.8	11.6	7.84e-04	0	60	0	94371840	54	5964
2026-01-13 01:57:18.27	329.31	15.84	-41.7	-45.8	11.6	7.16e-04	0	59	0	96468992	54	5970
2026-01-13 01:57:19.28	329.10	15.86	-41.7	-45.8	11.7	5.71e-04	0	60	0	98566144	54	5929
2026-01-13 01:57:20.29	328.88	15.89	-41.7	-45.8	11.6	6.23e-04	0	59	0	100663296	54	5962
2026-01-13 01:57:21.30	328.67	15.92	-41.8	-46.0	11.4	6.79e-04	0	60	0	101711872	54	6091
2026-01-13 01:57:22.31	328.45	15.94	-41.8	-46.0	11.5	1.07e-03	0	59	0	103809024	54	6072
2026-01-13 01:57:23.32	328.24	15.97	-41.9	-46.3	11.1	1.68e-03	0	60	0	105906176	54	6331
2026-01-13 01:57:24.33	328.02	15.99	-42.0	-46.6	10.8	2.25e-03	0	60	0	108003328	54	6518
2026-01-13 01:57:25.33	327.81	16.02	-42.1	-46.7	10.7	2.50e-03	0	59	0	110100480	54	6605
2026-01-13 01:57:26.34	327.59	16.04	-42.1	-46.7	10.7	3.10e-03	0	59	0	111149056	54	6624
2026-01-13 01:57:27.36	327.37	16.07	-42.0	-46.4	11.1	2.00e-03	0	59	0	113246208	54	6363
2026-01-13 01:57:28.36	327.16	16.09	-42.0	-46.5	10.9	2.19e-03	0	59	0	115343360	54	6478
2026-01-13 01:57:29.37	326.94	16.11	-42.0	-46.5	10.9	2.21e-03	0	59	0	117440512	54	6440
2026-01-13 01:57:30.38	326.73	16.14	-42.0	-46.6	10.8	2.76e-03	0	59	0	119537664	54	6500
2026-01-13 01:57:31.39	326.51	16.16	-42.0	-46.6	10.8	2.27e-03	0	59	0	121634816	54	6514
2026-01-13 01:57:32.40	326.29	16.18	-42.0	-46.6	10.8	2.35e-03	0	60	0	122683392	54	6514
2026-01-13 01:57:33.41	326.07	16.20	-42.0	-46.6	10.8	2.41e-03	0	60	0	124780544	54	6519
2026-01-13 01:57:34.42	325.85	16.22	-42.0	-46.6	10.8	2.64e-03	0	60	0	126877696	54	6517
2026-01-13 01:57:35.43	325.63	16.25	-42.1	-46.8	10.6	2.63e-03	0	60	0	128974848	54	6666
2026-01-13 01:57:36.44	325.41	16.27	-42.2	-47.0	10.4	3.54e-03	0	59	0	131072000	55	6470
2026-01-13 01:57:37.45	325.19	16.29	-42.3	-47.2	10.2	5.57e-03	0	60	0	132120576	55	6578
2026-01-13 01:57:38.45	324.98	16.31	-42.2	-47.0	10.5	5.27e-03	0	60	0	134217728	55	6426
2026-01-13 01:57:39.46	324.76	16.33	-42.2	-46.9	10.5	4.76e-03	0	60	0	136314880	55	6419
2026-01-13 01:57:40.47	324.54	16.34	-42.1	-46.6	10.7	3.29e-03	0	60	0	138412032	55	6199
2026-01-13 01:57:41.48	324.31	16.36	-42.0	-46.4	11.0	2.36e-03	0	60	0	140509184	55	6027
2026-01-13 01:57:42.49	324.09	16.38	-41.9	-46.1	11.3	1.33e-03	0	60	0	141557760	55	5855
2026-01-13 01:57:43.50	323.87	16.40	-41.8	-45.9	11.5	9.36e-04	0	60	0	143654912	55	5666
2026-01-13 01:57:44.51	323.65	16.42	-41.8	-46.0	11.4	1.10e-03	0	60	0	145752064	55	5750
2026-01-13 01:57:45.52	323.43	16.43	-41.9	-46.2	11.2	1.19e-03	0	60	0	147849216	55	5914
2026-01-13 01:57:46.53	323.21	16.45	-42.0	-46.4	11.0	1.64e-03	0	60	0	149946368	55	6052
2026-01-13 01:57:47.54	322.98	16.47	-42.1	-46.6	10.8	2.27e-03	0	60	0	150994944	55	6157
2026-01-13 01:57:48.55	322.76	16.48	-42.0	-46.5	10.9	2.12e-03	0	60	0	153092096	55	6110
2026-01-13 01:57:49.56	322.54	16.50	-41.9	-46.3	11.1	2.04e-03	0	60	0	155189248	55	5985
2026-01-13 01:57:50.57	322.32	16.51	-41.9	-46.1	11.3	1.51e-03	0	60	0	157286400	55	5852
2026-01-13 01:57:51.58	322.09	16.52	-41.8	-46.0	11.5	9.43e-04	0	60	0	159383552	55	5725
2026-01-13 01:57:52.59	321.87	16.54	-41.8	-46.1	11.4	7.49e-04	0	60	0	160432128	55	5817
2026-01-13 01:57:53.60	321.64	16.55	-41.8	-46.1	11.3	9.46e-04	0	60	0	162529280	55	5815
2026-01-13 01:57:54.61	321.42	16.57	-41.8	-46.1	11.4	8.82e-04	0	60	0	164626432	55	5797
2026-01-13 01:57:55.62	321.20	16.58	-41.9	-46.2	11.3	1.00e-03	0	60	0	166723584	55	5897
2026-01-13 01:57:56.63	320.97	16.59	-41.9	-46.4	11.1	1.46e-03	0	60	0	168820736	55	6001
2026-01-13 01:57:57.63	320.75	16.60	-42.0	-46.5	10.9	2.68e-03	0	60	0	169869312	55	6105
2026-01-13 01:57:58.64	320.53	16.61	-42.1	-46.9	10.5	2.89e-03	0	60	0	171966464	55	6373
2026-01-13 01:57:59.65	320.30	16.62	-42.3	-47.3	10.1	4.68e-03	0	60	0	174063616	55	6681
2026-01-13 01:58:00.66	320.08	16.63	-42.4	-47.5	9.9	6.14e-03	0	60	0	176160768	55	6805
2026-01-13 01:58:01.67	319.85	16.64	-42.4	-47.6	9.8	8.61e-03	0	60	0	178257920	55	6911
2026-01-13 01:58:02.68	319.62	16.65	-42.4	-47.7	9.7	1.03e-02	0	60	0	179306496	55	6977
2026-01-13 01:58:03.69	319.40	16.66	-42.4	-47.7	9.7	1.05e-02	0	60	0	181403648	55	6964
2026-01-13 01:58:04.70	319.17	16.67	-42.4	-47.5	9.9	8.76e-03	0	60	0	183500800	55	6818
2026-01-13 01:58:05.71	318.95	16.68	-42.4	-47.5	9.8	7.75e-03	0	60	0	185597952	55	6854
2026-01-13 01:58:06.72	318.72	16.69	-42.3	-47.5	9.9	9.36e-03	0	60	0	187695104	55	6821
2026-01-13 01:58:07.73	318.50	16.69	-42.2	-47.1	10.3	8.50e-03	0	60	0	189792256	55	6545
2026-01-13 01:58:08.74	318.27	16.70	-42.2	-47.2	10.2	6.64e-03	0	60	0	190840832	55	6575
2026-01-13 01:58:09.75	318.04	16.71	-42.2	-47.2	10.2	5.77e-03	0	60	0	192937984	55	6615
2026-01-13 01:58:10.76	317.82	16.71	-42.2	-47.2	10.2	5.38e-03	0	60	0	195035136	55	6590
2026-01-13 01:58:11.77	317.59	16.72	-42.2	-47.2	10.2	5.95e-03	0	60	0	197132288	55	6618
2026-01-13 01:58:12.77	317.37	16.72	-42.3	-47.3	10.1	6.73e-03	0	60	0	199229440	55	6711
2026-01-13 01:58:13.79	317.14	16.73	-42.3	-47.2	10.2	7.65e-03	0	60	0	200278016	55	6631
2026-01-13 01:58:14.79	316.91	16.73	-42.3	-47.2	10.3	5.89e-03	0	60	0	202375168	55	6580
2026-01-13 01:58:15.80	316.69	16.73	-42.3	-47.3	10.0	6.60e-03	0	60	0	204472320	55	6717
2026-01-13 01:58:16.81	316.46	16.74	-42.2	-47.0	10.4	4.19e-03	0	60	0	206569472	55	6463
2026-01-13 01:58:17.82	316.23	16.74	-42.0	-46.6	10.8	3.38e-03	0	60	0	208666624	55	6197
2026-01-13 01:58:18.83	316.01	16.74	-41.9	-46.4	11.0	1.86e-03	0	60	0	209715200	55	6021
2026-01-13 01:58:19.84	315.78	16.74	-41.9	-46.2	11.2	1.30e-03	0	60	0	211812352	55	5893
2026-01-13 01:58:20.85	315.55	16.74	-41.8	-46.0	11.4	1.14e-03	0	60	0	213909504	55	5742
2026-01-13 01:58:21.87	315.32	16.75	-41.8	-46.0	11.5	9.80e-04	0	60	0	216006656	55	5757
2026-01-13 01:58:22.88	315.10	16.75	-41.9	-46.2	11.2	1.16e-03	0	60	0	218103808	55	5893
2026-01-13 01:58:23.89	314.87	16.75	-41.9	-46.3	11.2	1.20e-03	0	60	0	219152384	55	5957
2026-01-13 01:58:24.90	314.64	16.75	-42.1	-46.7	10.8	2.20e-03	0	60	0	221249536	55	6232
2026-01-13 01:58:25.90	314.42	16.74	-42.2	-47.0	10.4	4.07e-03	0	60	0	223346688	55	6461
2026-01-13 01:58:26.91	314.19	16.74	-42.2	-47.0	10.3	4.82e-03	0	60	0	225443840	55	6494
2026-01-13 01:58:27.92	313.96	16.74	-42.3	-47.2	10.2	5.57e-03	0	60	0	227540992	55	6579
2026-01-13 01:58:28.93	313.74	16.74	-42.4	-47.4	10.0	6.78e-03	0	60	0	228589568	55	6745
2026-01-13 01:58:29.94	313.51	16.74	-42.4	-47.4	10.0	6.90e-03	0	60	0	230686720	55	6767
2026-01-13 01:58:30.95	313.28	16.73	-42.4	-47.5	9.9	7.38e-03	0	60	0	232783872	55	6804
2026-01-13 01:58:31.96	313.06	16.73	-42.2	-47.1	10.3	7.12e-03	0	60	0	234881024	55	6507
2026-01-13 01:58:32.98	312.83	16.72	-42.1	-46.8	10.6	4.05e-03	0	60	0	236978176	55	6323
2026-01-13 01:58:33.99	312.60	16.72	-42.0	-46.5	10.9	2.87e-03	0	60	0	238026752	55	6100
2026-01-13 01:58:35.00	312.38	16.71	-41.9	-46.3	11.2	2.09e-03	0	60	0	240123904	55	5937
2026-01-13 01:58:36.01	312.15	16.71	-41.8	-46.2	11.3	1.08e-03	0	60	0	242221056	55	5860
2026-01-13 01:58:37.02	311.92	16.70	-41.9	-46.3	11.2	1.28e-03	0	60	0	244318208	55	5924
2026-01-13 01:58:38.02	311.70	16.70	-41.9	-46.3	11.1	1.82e-03	0	60	0	246415360	55	5985
2026-01-13 01:58:39.03	311.47	16.69	-42.0	-46.5	10.9	2.04e-03	0	60	0	247463936	55	6128
2026-01-13 01:58:40.04	311.25	16.68	-42.1	-46.8	10.6	2.89e-03	0	60	0	249561088	55	6332
2026-01-13 01:58:41.05	311.02	16.67	-42.2	-47.1	10.3	4.30e-03	0	60	0	251658240	55	6517
2026-01-13 01:58:42.06	310.80	16.67	-42.4	-47.5	10.0	7.09e-03	0	60	0	253755392	55	6818
2026-01-13 01:58:43.07	310.57	16.66	-42.5	-47.7	9.7	8.49e-03	0	60	0	255852544	55	7012
2026-01-13 01:58:44.08	310.34	16.65	-42.5	-48.0	9.4	1.34e-02	0	60	0	257949696	55	7210
2026-01-13 01:58:45.09	310.12	16.64	-42.5	-48.0	9.3	1.84e-02	0	60	0	258998272	55	7267
2026-01-13 01:58:46.10	309.89	16.63	-42.6	-48.3	9.0	2.20e-02	0	60	0	261095424	55	7523
2026-01-13 01:58:47.11	309.67	16.62	-42.7	-48.5	8.9	2.70e-02	0	60	0	263192576	55	7636
2026-01-13 01:58:48.12	309.44	16.61	-42.7	-48.4	9.0	2.68e-02	0	60	0	265289728	55	7572
2026-01-13 01:58:49.13	309.22	16.60	-42.6	-48.1	9.2	2.27e-02	0	60	0	267386880	55	7336
2026-01-13 01:58:50.14	308.99	16.58	-42.5	-47.9	9.6	1.66e-02	0	60	0	268435456	55	7130
2026-01-13 01:58:51.15	308.77	16.57	-42.3	-47.4	10.0	1.43e-02	0	60	0	270532608	55	6774
2026-01-13 01:58:52.16	308.55	16.56	-42.3	-47.2	10.2	6.22e-03	0	60	0	272629760	55	6615
2026-01-13 01:58:53.17	308.32	16.55	-42.2	-47.1	10.2	5.17e-03	0	60	0	274726912	55	6553
2026-01-13 01:58:54.18	308.10	16.53	-42.1	-46.9	10.5	4.49e-03	0	60	0	276824064	55	6393
2026-01-13 01:58:55.18	307.88	16.52	-42.1	-46.8	10.6	3.83e-03	0	60	0	277872640	55	6340
2026-01-13 01:58:56.19	307.65	16.50	-42.0	-46.7	10.7	3.13e-03	0	60	0	279969792	55	6235
2026-01-13 01:58:57.20	307.43	16.49	-42.1	-46.7	10.6	3.23e-03	0	60	0	282066944	55	6267
2026-01-13 01:58:58.21	307.21	16.47	-42.0	-46.5	10.9	2.65e-03	0	60	0	284164096	55	6113
2026-01-13 01:58:59.22	306.98	16.46	-42.0	-46.5	10.8	2.31e-03	0	60	0	286261248	55	6117
2026-01-13 01:59:00.23	306.76	16.44	-42.0	-46.6	10.7	2.31e-03	0	60	0	287309824	55	6202
2026-01-13 01:59:01.24	306.54	16.42	-42.1	-46.8	10.6	2.53e-03	0	60	0	289406976	55	6279
2026-01-13 01:59:02.25	306.32	16.41	-42.1	-46.8	10.6	3.01e-03	0	60	0	291504128	55	6327
2026-01-13 01:59:03.26	306.09	16.39	-42.1	-46.8	10.6	3.45e-03	0	60	0	293601280	55	6278
2026-01-13 01:59:04.27	305.87	16.37	-42.1	-46.8	10.6	4.08e-03	0	60	0	295698432	55	6303
2026-01-13 01:59:05.28	305.65	16.35	-42.1	-46.8	10.6	3.62e-03	0	60	0	296747008	55	6289
2026-01-13 01:59:06.29	305.43	16.33	-42.1	-46.7	10.7	2.66e-03	0	60	0	298844160	55	6215
2026-01-13 01:59:07.30	305.21	16.32	-41.9	-46.2	11.2	1.33e-03	0	60	0	300941312	55	5871
2026-01-13 01:59:08.31	304.99	16.30	-41.7	-45.9	11.5	8.92e-04	0	60	0	303038464	55	5709
2026-01-13 01:59:09.32	304.77	16.28	-41.7	-45.8	11.6	5.44e-04	0	60	0	305135616	55	5655
2026-01-13 01:59:10.33	304.55	16.26	-41.6	-45.7	11.7	5.97e-04	0	60	0	306184192	55	5535
2026-01-13 01:59:11.33	304.33	16.24	-41.7	-45.8	11.6	6.45e-04	0	60	0	308281344	55	5636
2026-01-13 01:59:12.34	304.11	16.21	-41.8	-45.9	11.5	7.43e-04	0	60	0	310378496	55	5699
2026-01-13 01:59:13.35	303.89	16.19	-41.9	-46.2	11.3	8.95e-04	0	60	0	312475648	55	5858
2026-01-13 01:59:14.36	303.68	16.17	-41.8	-46.0	11.4	1.03e-03	0	60	0	314572800	55	5758
2026-01-13 01:59:15.37	303.46	16.15	-41.9	-46.2	11.2	1.04e-03	0	60	0	315621376	55	5885
2026-01-13 01:59:16.38	303.24	16.12	-41.9	-46.1	11.3	1.10e-03	0	60	0	317718528	55	5842
2026-01-13 01:59:17.39	303.02	16.10	-41.9	-46.2	11.2	1.16e-03	0	60	0	319815680	55	5897
2026-01-13 01:59:18.40	302.80	16.08	-41.9	-46.3	11.1	1.53e-03	0	60	0	321912832	55	5926
2026-01-13 01:59:19.41	302.59	16.05	-41.9	-46.2	11.2	1.64e-03	0	60	0	324009984	55	5903
2026-01-13 01:59:20.42	302.37	16.03	-42.0	-46.5	10.9	2.15e-03	0	60	0	326107136	55	6063
2026-01-13 01:59:21.43	302.15	16.00	-42.0	-46.4	10.9	1.75e-03	0	60	0	327155712	55	6052
2026-01-13 01:59:22.44	301.94	15.98	-42.1	-46.7	10.7	1.91e-03	0	60	0	329252864	55	6222
2026-01-13 01:59:23.45	301.72	15.95	-42.0	-46.4	10.9	2.63e-03	0	60	0	331350016	55	6044
2026-01-13 01:59:24.46	301.51	15.93	-42.0	-46.6	10.8	2.41e-03	0	60	0	333447168	55	6144
2026-01-13 01:59:25.47	301.29	15.90	-42.0	-46.6	10.8	2.97e-03	0	60	0	335544320	55	6185
2026-01-13 01:59:26.47	301.08	15.88	-42.0	-46.7	10.7	3.58e-03	0	60	0	336592896	55	6219
2026-01-13 01:59:27.48	300.87	15.85	-42.1	-46.7	10.7	3.29e-03	0	60	0	338690048	55	6232
2026-01-13 01:59:28.49	300.65	15.82	-42.0	-46.5	10.9	2.38e-03	0	60	0	340787200	55	6103
2026-01-13 01:59:29.50	300.44	15.79	-41.9	-46.4	11.0	2.09e-03	0	60	0	342884352	55	6003
2026-01-13 01:59:30.51	300.23	15.76	-41.8	-46.0	11.4	1.29e-03	0	60	0	344981504	55	5768
2026-01-13 01:59:31.52	300.01	15.74	-41.8	-46.1	11.3	1.06e-03	0	60	0	346030080	55	5790
2026-01-13 01:59:32.53	299.80	15.71	-41.8	-46.0	11.4	9.73e-04	0	60	0	348127232	55	5737
2026-01-13 01:59:33.54	299.59	15.68	-41.8	-46.1	11.2	1.49e-03	0	60	0	350224384	55	5836
2026-01-13 01:59:34.55	299.38	15.65	-41.7	-45.9	11.4	9.54e-04	0	60	0	352321536	55	5693
2026-01-13 01:59:35.56	299.17	15.62	-41.9	-46.3	11.1	1.05e-03	0	60	0	354418688	55	5924
2026-01-13 01:59:36.57	298.96	15.59	-41.7	-45.9	11.4	1.01e-03	0	60	0	355467264	55	5674
2026-01-13 01:59:37.58	298.75	15.56	-41.7	-45.9	11.4	9.43e-04	0	60	0	357564416	55	5671
2026-01-13 01:59:38.59	298.54	15.53	-41.8	-46.0	11.3	9.83e-04	0	60	0	359661568	55	5726
2026-01-13 01:59:39.60	298.33	15.50	-41.7	-45.9	11.4	8.25e-04	0	60	0	361758720	55	5698
2026-01-13 01:59:40.61	298.12	15.46	-41.8	-46.2	11.1	1.24e-03	0	60	0	363855872	55	5866
2026-01-13 01:59:41.62	297.91	15.43	-41.9	-46.2	11.1	1.50e-03	0	60	0	364904448	55	5875
2026-01-13 01:59:42.62	297.71	15.40	-42.0	-46.6	10.6	2.29e-03	0	60	0	367001600	55	6194
2026-01-13 01:59:43.64	297.50	15.37	-42.0	-46.6	10.7	2.91e-03	0	60	0	369098752	55	6139
2026-01-13 01:59:44.64	297.29	15.33	-41.9	-46.5	10.8	2.97e-03	0	60	0	371195904	55	6090
2026-01-13 01:59:45.65	297.09	15.30	-42.0	-46.7	10.6	2.99e-03	0	60	0	373293056	55	6229
2026-01-13 01:59:46.66	296.88	15.27	-42.1	-46.9	10.3	4.35e-03	0	60	0	374341632	55	6354
2026-01-13 01:59:47.67	296.68	15.23	-42.1	-46.8	10.4	3.60e-03	0	60	0	376438784	55	6297
2026-01-13 01:59:48.68	296.47	15.20	-42.1	-46.8	10.4	4.45e-03	0	60	0	378535936	55	6344
2026-01-13 01:59:49.69	296.27	15.16	-42.2	-47.1	10.1	6.74e-03	0	60	0	380633088	55	6559
2026-01-13 01:59:50.70	296.06	15.13	-42.2	-47.2	10.1	7.04e-03	0	60	0	382730240	55	6583
2026-01-13 01:59:51.71	295.86	15.09	-42.3	-47.2	10.0	8.87e-03	0	60	0	383778816	55	6624
2026-01-13 01:59:52.72	295.66	15.06	-42.4	-47.5	9.7	8.55e-03	0	60	0	385875968	55	6859
2026-01-13 01:59:53.73	295.45	15.02	-42.3	-47.4	9.8	1.03e-02	0	60	0	387973120	55	6783
2026-01-13 01:59:54.74	295.25	14.99	-42.2	-47.3	9.9	9.20e-03	0	60	0	390070272	55	6658
2026-01-13 01:59:55.75	295.05	14.95	-42.2	-47.3	9.9	1.03e-02	0	60	0	392167424	55	6665
2026-01-13 01:59:56.76	294.85	14.91	-42.3	-47.4	9.7	1.01e-02	0	60	0	393216000	55	6769
2026-01-13 01:59:57.77	294.65	14.88	-42.2	-47.4	9.7	1.12e-02	0	60	0	395313152	55	6758
2026-01-13 01:59:58.78	294.45	14.84	-42.3	-47.4	9.7	1.19e-02	0	60	0	397410304	55	6782
2026-01-13 01:59:59.79	294.25	14.80	-42.2	-47.3	9.7	1.16e-02	0	60	0	399507456	55	6693
2026-01-13 02:00:00.80	294.05	14.76	-42.2	-47.2	9.9	9.65e-03	0	60	0	401604608	55	6615
2026-01-13 02:00:01.81	293.85	14.72	-42.1	-47.0	10.1	9.14e-03	0	60	0	402653184	55	6458
2026-01-13 02:00:02.82	293.65	14.69	-42.1	-47.0	10.1	8.09e-03	0	60	0	404750336	55	6457
2026-01-13 02:00:03.83	293.46	14.65	-42.1	-47.0	10.0	7.36e-03	0	60	0	406847488	55	6477
2026-01-13 02:00:04.84	293.26	14.61	-42.0	-46.9	10.2	7.49e-03	0	60	0	408944640	55	6349
2026-01-13 02:00:05.85	293.06	14.57	-41.9	-46.8	10.3	6.59e-03	0	60	0	411041792	55	6287
2026-01-13 02:00:06.86	292.87	14.53	-41.8	-46.5	10.6	4.39e-03	0	60	0	412090368	55	6090
2026-01-13 02:00:07.87	292.67	14.49	-41.8	-46.4	10.7	3.64e-03	0	60	0	414187520	55	6017
2026-01-13 02:00:08.88	292.48	14.45	-41.7	-46.2	10.8	3.36e-03	0	60	0	416284672	55	5898
2026-01-13 02:00:09.89	292.28	14.41	-41.6	-45.9	11.1	1.53e-03	0	60	0	418381824	55	5672
2026-01-13 02:00:10.90	292.09	14.37	-41.5	-45.9	11.0	1.52e-03	0	60	0	420478976	55	5703
2026-01-13 02:00:11.91	291.90	14.33	-41.5	-45.9	11.1	1.80e-03	0	60	0	422576128	55	5673
2026-01-13 02:00:12.92	291.70	14.28	-41.5	-45.8	11.1	2.18e-03	0	60	0	423624704	55	5636
2026-01-13 02:00:13.93	291.51	14.24	-41.6	-46.2	10.7	2.34e-03	0	60	0	425721856	54	6258
2026-01-13 02:00:14.94	291.32	14.20	-41.7	-46.5	10.4	3.35e-03	0	60	0	427819008	54	6439
2026-01-13 02:00:15.95	291.13	14.16	-41.7	-46.5	10.5	3.42e-03	0	60	0	429916160	54	6441
2026-01-13 02:00:16.96	290.94	14.12	-41.8	-46.5	10.4	4.13e-03	0	60	0	432013312	54	6468
2026-01-13 02:00:17.97	290.75	14.07	-41.8	-46.6	10.3	5.04e-03	0	60	0	433061888	54	6532
2026-01-13 02:00:18.98	290.56	14.03	-41.8	-46.7	10.1	6.21e-03	0	60	0	435159040	54	6642
2026-01-13 02:00:19.99	290.37	13.99	-41.9	-47.0	9.8	7.54e-03	0	60	0	437256192	54	6812
2026-01-13 02:00:21.00	290.18	13.95	-42.0	-47.4	9.3	1.04e-02	0	60	0	439353344	54	7184
2026-01-13 02:00:22.00	289.99	13.90	-42.1	-47.7	9.1	1.27e-02	0	60	0	441450496	54	7374
2026-01-13 02:00:23.01	289.81	13.86	-42.0	-47.5	9.1	2.04e-02	0	60	0	442499072	54	7283
2026-01-13 02:00:24.02	289.62	13.82	-41.9	-47.4	9.2	2.09e-02	0	60	0	444596224	54	7200
2026-01-13 02:00:25.03	289.43	13.77	-42.0	-47.7	8.9	2.49e-02	0	60	0	446693376	54	7403
2026-01-13 02:00:26.04	289.25	13.73	-42.0	-47.7	8.9	2.89e-02	0	60	0	448790528	54	7388
2026-01-13 02:00:27.05	289.06	13.68	-41.9	-47.5	9.0	2.68e-02	0	60	0	450887680	54	7232
2026-01-13 02:00:28.06	288.88	13.64	-41.9	-47.6	8.8	2.77e-02	0	60	0	451936256	54	7357
2026-01-13 02:00:29.07	288.70	13.59	-41.9	-47.5	8.9	2.99e-02	0	60	0	454033408	54	7279
2026-01-13 02:00:30.08	288.51	13.55	-41.8	-47.5	8.9	2.92e-02	0	60	0	456130560	54	7213
2026-01-13 02:00:31.09	288.33	13.50	-41.8	-47.5	8.9	2.65e-02	0	60	0	458227712	54	7219
2026-01-13 02:00:32.10	288.15	13.46	-41.8	-47.6	8.7	3.44e-02	0	60	0	460324864	54	7366
2026-01-13 02:00:33.11	287.97	13.41	-41.8	-47.7	8.7	3.50e-02	0	60	0	462422016	54	7404
2026-01-13 02:00:34.12	287.78	13.37	-41.8	-47.7	8.6	3.85e-02	0	60	0	463470592	54	7378
2026-01-13 02:00:35.13	287.60	13.32	-41.9	-47.8	8.5	4.84e-02	0	60	0	465567744	54	7528
2026-01-13 02:00:36.14	287.42	13.27	-41.9	-47.9	8.4	4.32e-02	0	60	0	467664896	54	7597
2026-01-13 02:00:37.15	287.24	13.23	-41.9	-47.9	8.4	4.57e-02	0	60	0	469762048	54	7573
2026-01-13 02:00:38.16	287.07	13.18	-41.8	-47.7	8.5	4.37e-02	0	60	0	471859200	54	7431
2026-01-13 02:00:39.17	286.89	13.13	-41.8	-47.6	8.7	3.62e-02	0	60	0	472907776	54	7290
2026-01-13 02:00:40.18	286.71	13.09	-41.8	-47.7	8.5	3.69e-02	0	60	0	475004928	54	7432
2026-01-13 02:00:41.19	286.53	13.04	-41.8	-47.8	8.3	4.76e-02	0	60	0	477102080	54	7539
2026-01-13 02:00:42.20	286.36	12.99	-41.9	-48.1	8.1	5.84e-02	0	60	0	479199232	54	7756
2026-01-13 02:00:43.21	286.18	12.94	-41.8	-48.0	8.1	6.26e-02	0	60	0	480247808	54	7698
2026-01-13 02:00:44.22	286.01	12.90	-41.8	-47.9	8.2	6.33e-02	0	60	0	482344960	54	7594
2026-01-13 02:00:45.23	285.83	12.85	-41.7	-47.8	8.4	5.28e-02	0	60	0	484442112	54	7490
2026-01-13 02:00:46.24	285.66	12.80	-41.7	-47.5	8.6	4.00e-02	0	60	0	486539264	54	7279
2026-01-13 02:00:47.25	285.48	12.75	-41.6	-47.2	8.9	2.93e-02	0	60	0	488636416	54	7002
2026-01-13 02:00:48.26	285.31	12.70	-41.6	-47.3	8.8	2.98e-02	0	60	0	490733568	54	7071
2026-01-13 02:00:49.27	285.14	12.66	-41.5	-47.2	8.9	2.83e-02	0	60	0	491782144	54	7007
2026-01-13 02:00:50.28	284.97	12.61	-41.6	-47.5	8.5	3.37e-02	0	60	0	493879296	54	7240
2026-01-13 02:00:51.28	284.80	12.56	-41.6	-47.7	8.3	4.16e-02	0	60	0	495976448	54	7438
2026-01-13 02:00:52.29	284.62	12.51	-41.7	-48.0	8.0	6.20e-02	0	60	0	498073600	54	7680
2026-01-13 02:00:53.30	284.45	12.46	-41.7	-48.1	8.0	6.75e-02	0	60	0	500170752	54	7726
2026-01-13 02:00:54.31	284.28	12.41	-41.9	-48.5	7.5	7.45e-02	0	60	0	501219328	54	8152
2026-01-13 02:00:55.32	284.12	12.36	-41.9	-48.6	7.4	1.04e-01	0	60	0	503316480	54	8246
2026-01-13 02:00:56.33	283.95	12.31	-41.9	-48.9	7.1	1.16e-01	0	60	0	505413632	54	8521
2026-01-13 02:00:57.34	283.78	12.26	-41.9	-48.7	7.3	1.42e-01	0	60	0	507510784	54	8326
2026-01-13 02:00:58.36	283.61	12.21	-41.9	-48.4	7.7	9.12e-02	0	60	0	509607936	54	8021
2026-01-13 02:00:59.37	283.44	12.16	-41.9	-48.2	7.9	8.40e-02	0	60	0	510656512	54	7882
2026-01-13 02:01:00.38	283.28	12.11	-41.9	-48.2	8.0	7.34e-02	0	60	0	512753664	54	7826
2026-01-13 02:01:01.39	283.11	12.06	-41.8	-48.1	8.0	6.30e-02	0	60	0	514850816	54	7745
2026-01-13 02:01:02.39	282.95	12.01	-41.8	-48.0	8.2	5.46e-02	0	60	0	516947968	54	7636
2026-01-13 02:01:03.40	282.78	11.96	-41.7	-47.6	8.6	4.60e-02	0	60	0	519045120	54	7309
2026-01-13 02:01:04.41	282.62	11.91	-41.8	-47.6	8.6	3.76e-02	0	60	0	520093696	54	7357
2026-01-13 02:01:05.42	282.46	11.86	-41.8	-47.5	8.6	3.59e-02	0	60	0	522190848	54	7283
2026-01-13 02:01:06.43	282.29	11.81	-41.9	-48.1	8.2	4.76e-02	0	60	0	524288000	54	7737
2026-01-13 02:01:07.44	282.13	11.76	-42.1	-48.6	7.7	5.75e-02	0	60	0	526385152	54	8206
2026-01-13 02:01:08.45	281.97	11.71	-42.2	-49.1	7.3	1.05e-01	0	60	0	528482304	55	8177
2026-01-13 02:01:09.46	281.81	11.65	-42.3	-49.4	7.0	1.47e-01	0	60	0	529530880	55	8516
2026-01-13 02:01:10.47	281.65	11.60	-42.5	-50.0	6.5	2.17e-01	0	60	0	531628032	55	9138
2026-01-13 02:01:11.48	281.49	11.55	-42.5	-50.3	6.1	3.02e-01	0	60	0	533725184	55	9464
2026-01-13 02:01:12.49	281.33	11.50	-42.6	-50.4	6.1	3.23e-01	0	60	0	535822336	55	9542
2026-01-13 02:01:13.50	281.17	11.45	-42.5	-50.2	6.2	2.95e-01	0	60	0	537919488	55	9388
2026-01-13 02:01:14.51	281.01	11.40	-42.5	-50.3	6.3	2.62e-01	0	60	0	538968064	55	9414
2026-01-13 02:01:15.52	280.85	11.34	-42.4	-49.5	6.8	1.96e-01	0	60	0	541065216	55	8650
2026-01-13 02:01:16.53	280.70	11.29	-42.4	-49.4	7.0	1.62e-01	0	60	0	543162368	55	8542
2026-01-13 02:01:17.54	280.54	11.24	-42.3	-49.4	7.0	1.64e-01	0	60	0	545259520	55	8472
2026-01-13 02:01:18.55	280.38	11.19	-42.4	-49.5	6.9	1.55e-01	0	60	0	547356672	55	8640
2026-01-13 02:01:19.56	280.23	11.14	-42.4	-49.7	6.8	1.54e-01	0	60	0	548405248	55	8838
2026-01-13 02:01:20.56	280.08	11.08	-42.3	-49.2	7.1	1.49e-01	0	60	0	550502400	55	8330
2026-01-13 02:01:21.57	279.92	11.03	-42.2	-49.1	7.1	1.42e-01	0	60	0	552599552	55	8240
2026-01-13 02:01:22.58	279.77	10.98	-42.1	-48.9	7.3	1.29e-01	0	60	0	554696704	55	8046
2026-01-13 02:01:23.59	279.61	10.93	-42.1	-48.9	7.3	1.23e-01	0	60	0	556793856	55	8030
2026-01-13 02:01:24.60	279.46	10.87	-42.0	-48.5	7.7	9.32e-02	0	60	0	558891008	55	7684
2026-01-13 02:01:25.61	279.31	10.82	-41.9	-48.4	7.7	8.06e-02	0	60	0	559939584	55	7630
2026-01-13 02:01:26.62	279.16	10.77	-41.9	-48.6	7.5	9.19e-02	0	60	0	562036736	55	7738
2026-01-13 02:01:27.63	279.01	10.71	-41.9	-48.5	7.5	1.04e-01	0	60	0	564133888	55	7698
2026-01-13 02:01:28.64	278.86	10.66	-42.0	-48.8	7.3	1.21e-01	0	60	0	566231040	55	7917
2026-01-13 02:01:29.64	278.71	10.61	-42.0	-49.0	7.1	1.41e-01	0	60	0	568328192	55	8123
2026-01-13 02:01:30.65	278.56	10.56	-42.1	-49.2	6.8	1.67e-01	0	60	0	569376768	55	8364
2026-01-13 02:01:31.66	278.41	10.50	-42.0	-49.2	6.9	1.71e-01	0	60	0	571473920	55	8302
2026-01-13 02:01:32.67	278.26	10.45	-42.0	-49.2	6.8	1.76e-01	0	60	0	573571072	55	8332
2026-01-13 02:01:33.68	278.11	10.40	-42.0	-49.2	6.7	2.04e-01	0	60	0	575668224	55	8308
2026-01-13 02:01:34.69	277.97	10.34	-41.9	-49.0	6.9	1.81e-01	0	60	0	577765376	55	8128
2026-01-13 02:01:35.70	277.82	10.29	-41.8	-48.8	7.1	1.53e-01	0	60	0	578813952	55	7957
2026-01-13 02:01:36.71	277.68	10.24	-41.8	-48.9	6.9	1.56e-01	0	60	0	580911104	55	8045
2026-01-13 02:01:37.72	277.53	10.18	-41.8	-49.0	6.8	1.77e-01	0	60	0	583008256	55	8108
2026-01-13 02:01:38.73	277.38	10.13	-41.7	-49.2	6.5	1.93e-01	0	60	0	585105408	55	8332
2026-01-13 02:01:39.74	277.24	10.07	-41.7	-49.4	6.4	2.35e-01	0	60	0	587202560	55	8466
2026-01-13 02:01:40.75	277.10	10.02	-41.7	-49.5	6.2	2.79e-01	0	60	0	588251136	55	8629
2026-01-13 02:01:41.76	276.95	9.97	-41.6	-49.6	6.0	3.03e-01	0	61	0	590348288	55	8742
2026-01-13 02:01:42.77	276.81	9.91	-41.6	-49.7	5.9	3.26e-01	0	60	0	592445440	55	8815
2026-01-13 02:01:43.78	276.67	9.86	-41.6	-49.9	5.8	3.73e-01	0	60	0	594542592	55	9020
2026-01-13 02:01:44.79	276.53	9.80	-41.6	-50.4	5.4	4.55e-01	0	60	0	596639744	55	9534
2026-01-13 02:01:45.80	276.39	9.75	-41.6	-50.7	5.2	5.48e-01	0	60	0	597688320	55	9857
2026-01-13 02:01:46.81	276.24	9.70	-41.6	-51.0	5.0	6.61e-01	0	60	0	599785472	55	10263
2026-01-13 02:01:47.81	276.11	9.64	-41.6	-51.4	4.7	8.02e-01	0	60	0	601882624	55	10683
2026-01-13 02:01:48.82	275.97	9.59	-41.6	-51.8	4.5	9.01e-01	0	60	0	603979776	55	11253
2026-01-13 02:01:49.84	275.83	9.53	-41.6	-52.1	4.4	1.08e+00	0	60	0	606076928	55	11635
2026-01-13 02:01:50.85	275.69	9.48	-41.5	-52.3	4.3	1.31e+00	0	60	0	607125504	55	11923
2026-01-13 02:01:51.86	275.55	9.42	-41.5	-52.6	4.2	1.37e+00	0	60	0	607125504	55	12328
2026-01-13 02:01:52.87	275.41	9.37	-41.5	-52.9	4.1	1.40e+00	0	60	0	607125504	55	12692
2026-01-13 02:01:53.88	275.27	9.32	-41.5	-53.2	3.9	1.46e+00	0	60	104	607125504	54	13970
2026-01-13 02:01:54.89	275.14	9.26	-41.4	-53.4	4.0	1.48e+00	0	60	104	607125504	54	14248
2026-01-13 02:01:55.90	275.00	9.21	-41.4	-53.6	3.8	1.48e+00	0	60	104	607125504	54	14566
2026-01-13 02:01:56.91	274.87	9.15	-41.4	-53.7	3.8	1.48e+00	0	60	104	607125504	54	14855
2026-01-13 02:01:57.92	274.73	9.10	-41.3	-53.8	3.8	1.48e+00	0	60	104	607125504	54	14969
2026-01-13 02:01:58.92	274.60	9.04	-41.2	-53.8	3.9	1.49e+00	0	60	104	607125504	54	14950
2026-01-13 02:01:59.93	274.46	8.99	-41.1	-53.9	3.8	1.49e+00	0	60	104	607125504	54	15204
2026-01-13 02:02:00.94	274.33	8.93	-41.1	-54.0	3.8	1.49e+00	0	60	104	607125504	54	15243
2026-01-13 02:02:01.95	274.20	8.88	-41.0	-54.1	3.8	1.49e+00	0	61	104	607125504	54	15562
2026-01-13 02:02:02.96	274.07	8.82	-41.0	-54.1	3.8	1.49e+00	0	60	104	607125504	54	15573
2026-01-13 02:02:03.97	273.93	8.77	-41.0	-54.3	3.8	1.49e+00	0	60	104	607125504	54	15912
2026-01-13 02:02:04.98	273.80	8.72	-40.9	-54.3	3.8	1.49e+00	0	60	104	607125504	53	16822
2026-01-13 02:02:05.99	273.67	8.66	-40.9	-54.4	3.8	1.49e+00	0	60	104	607125504	53	16961
2026-01-13 02:02:07.00	273.54	8.61	-40.8	-54.4	3.8	1.49e+00	0	60	104	607125504	53	17027
2026-01-13 02:02:08.01	273.41	8.55	-40.7	-54.5	3.8	1.49e+00	0	60	104	607125504	53	17243
2026-01-13 02:02:09.02	273.28	8.50	-40.7	-54.6	3.8	1.49e+00	0	60	104	607125504	53	17320
2026-01-13 02:02:10.03	273.15	8.44	-40.8	-54.7	3.8	1.49e+00	0	60	104	607125504	53	17592
2026-01-13 02:02:11.04	273.02	8.39	-40.7	-55.0	3.8	1.49e+00	0	60	104	607125504	53	18155
2026-01-13 02:02:12.04	272.90	8.33	-40.4	-54.6	3.8	1.49e+00	0	60	104	607125504	52	18457
2026-01-13 02:02:13.05	272.77	8.28	-41.2	-54.9	3.8	1.49e+00	0	60	104	607125504	52	18959
2026-01-13 02:02:14.06	272.64	8.22	-40.1	-54.6	3.8	1.49e+00	0	61	104	607125504	52	18501
2026-01-13 02:02:15.08	272.52	8.17	-41.1	-54.9	3.8	1.49e+00	0	60	104	607125504	52	19102
2026-01-13 02:02:16.09	272.39	8.11	-40.0	-54.6	3.8	1.49e+00	0	60	104	607125504	52	18381
2026-01-13 02:02:17.09	272.27	8.06	-40.2	-54.5	3.8	1.49e+00	0	60	104	607125504	52	18249
2026-01-13 02:02:18.10	272.14	8.00	-40.5	-55.0	3.8	1.49e+00	0	60	104	607125504	52	19386
2026-01-13 02:02:19.11	272.02	7.95	-43.9	-57.9	3.9	1.49e+00	0	60	104	607125504	58	19126
2026-01-13 02:02:20.12	271.89	7.89	-44.7	-58.9	3.8	1.49e+00	0	60	104	607125504	59	20218
2026-01-13 02:02:21.13	271.77	7.84	-44.8	-59.2	3.8	1.49e+00	0	60	104	607125504	60	19813
2026-01-13 02:02:22.14	271.65	7.78	-45.0	-59.4	3.8	1.49e+00	0	60	104	607125504	60	20115
2026-01-13 02:02:23.15	271.52	7.73	-45.0	-59.5	3.8	1.49e+00	0	60	104	607125504	60	20388
2026-01-13 02:02:24.16	271.40	7.67	-45.1	-59.5	3.8	1.49e+00	0	60	104	607125504	60	20426
2026-01-13 02:02:25.17	271.28	7.62	-45.2	-59.6	3.8	1.49e+00	0	60	104	607125504	60	20605
2026-01-13 02:02:26.18	271.16	7.56	-45.2	-59.6	3.8	1.49e+00	0	60	104	607125504	60	20750
2026-01-13 02:02:27.19	271.04	7.51	-45.2	-59.7	3.8	1.49e+00	0	60	104	607125504	61	19668
2026-01-13 02:02:28.20	270.92	7.45	-45.2	-59.6	3.8	1.49e+00	0	60	104	607125504	61	19565
2026-01-13 02:02:29.20	270.80	7.40	-45.2	-59.6	3.8	1.49e+00	0	60	104	607125504	61	19568
2026-01-13 02:02:30.21	270.68	7.34	-45.2	-59.6	3.8	1.49e+00	0	60	104	607125504	61	19495
2026-01-13 02:02:31.22	270.56	7.29	-45.2	-59.6	3.8	1.49e+00	0	60	104	607125504	61	19431
2026-01-13 02:02:32.24	270.44	7.23	-45.2	-59.6	3.8	1.49e+00	0	60	104	607125504	61	19484
2026-01-13 02:02:33.25	270.32	7.18	-45.2	-59.6	3.8	1.49e+00	0	61	104	607125504	61	19573
2026-01-13 02:02:34.26	270.20	7.12	-45.2	-59.6	3.8	1.49e+00	0	60	104	607125504	61	19596
2026-01-13 02:02:35.27	270.09	7.07	-45.1	-59.6	3.8	1.49e+00	0	60	104	607125504	61	19443
2026-01-13 02:02:36.28	269.97	7.01	-45.1	-59.6	3.8	1.49e+00	0	61	104	607125504	61	19546
2026-01-13 02:02:37.29	269.85	6.96	-45.1	-59.6	3.8	1.49e+00	0	60	104	607125504	61	19490
2026-01-13 02:02:38.29	269.74	6.90	-45.1	-59.6	3.8	1.49e+00	0	60	104	607125504	61	19506
2026-01-13 02:02:39.31	269.62	6.85	-45.1	-59.6	3.8	1.49e+00	0	60	104	607125504	61	19501
2026-01-13 02:02:40.32	269.51	6.79	-45.1	-59.6	3.8	1.49e+00	0	60	104	607125504	61	19446
2026-01-13 02:02:41.33	269.39	6.74	-45.1	-59.6	3.8	1.49e+00	0	60	104	607125504	61	19446
2026-01-13 02:02:42.34	269.28	6.68	-45.1	-59.6	3.8	1.49e+00	0	60	104	607125504	61	19455
2026-01-13 02:02:43.35	269.17	6.63	-45.1	-59.6	3.8	1.49e+00	0	60	104	607125504	61	19496
2026-01-13 02:02:44.36	269.05	6.57	-45.1	-59.6	3.8	1.49e+00	0	61	104	607125504	61	19422
2026-01-13 02:02:45.37	268.94	6.52	-45.1	-59.6	3.8	1.49e+00	0	60	104	607125504	61	19433
2026-01-13 02:02:46.38	268.83	6.46	-45.1	-59.6	3.8	1.49e+00	0	60	104	607125504	61	19443
2026-01-13 02:02:47.39	268.72	6.41	-45.1	-59.6	3.8	1.49e+00	0	60	104	607125504	61	19454
2026-01-13 02:02:48.40	268.60	6.35	-45.1	-59.6	3.8	1.49e+00	0	60	104	607125504	61	19446
2026-01-13 02:02:49.41	268.49	6.30	-45.1	-59.6	3.8	1.49e+00	0	60	104	607125504	61	19399
2026-01-13 02:02:50.42	268.38	6.24	-45.1	-59.6	3.8	1.49e+00	0	61	104	607125504	61	19395
2026-01-13 02:02:51.43	268.27	6.19	-45.1	-59.5	3.8	1.49e+00	0	60	104	607125504	61	19386
2026-01-13 02:02:52.44	268.16	6.13	-45.1	-59.6	3.8	1.49e+00	0	60	104	607125504	61	19404
2026-01-13 02:02:53.45	268.05	6.08	-45.1	-59.6	3.8	1.49e+00	0	60	104	607125504	61	19419
2026-01-13 02:02:54.46	267.95	6.02	-45.1	-59.6	3.8	1.49e+00	0	61	104	607125504	61	19404
2026-01-13 02:02:55.47	267.84	5.97	-45.1	-59.6	3.8	1.49e+00	0	61	104	607125504	61	19442
2026-01-13 02:02:56.48	267.73	5.91	-45.1	-59.6	3.8	1.49e+00	0	60	104	607125504	61	19440
2026-01-13 02:02:57.49	267.62	5.86	-45.1	-59.6	3.8	1.49e+00	0	61	104	607125504	61	19391
2026-01-13 02:02:58.50	267.51	5.80	-45.1	-59.6	3.8	1.49e+00	0	60	104	607125504	61	19439
2026-01-13 02:02:59.51	267.41	5.75	-45.1	-59.6	3.8	1.49e+00	0	60	104	607125504	61	19421
2026-01-13 02:03:00.52	267.30	5.69	-45.1	-59.6	3.8	1.49e+00	0	60	104	607125504	61	19455
2026-01-13 02:03:01.53	267.19	5.64	-45.1	-59.6	3.8	1.49e+00	0	60	104	607125504	61	19405
2026-01-13 02:03:02.54	267.09	5.59	-45.1	-59.6	3.8	1.49e+00	0	60	104	607125504	61	19394
2026-01-13 02:03:03.55	266.98	5.53	-45.1	-59.6	3.8	1.49e+00	0	60	104	607125504	61	19421
2026-01-13 02:03:04.56	266.88	5.48	-45.1	-59.6	3.8	1.49e+00	0	60	104	607125504	61	19392
2026-01-13 02:03:05.57	266.77	5.42	-45.1	-59.6	3.8	1.49e+00	0	61	104	607125504	61	19444
2026-01-13 02:03:06.58	266.67	5.37	-45.1	-59.5	3.8	1.49e+00	0	61	104	607125504	61	19375
2026-01-13 02:03:07.59	266.57	5.31	-45.1	-59.6	3.8	1.49e+00	0	60	104	607125504	61	19394
2026-01-13 02:03:08.60	266.46	5.26	-45.1	-59.5	3.8	1.49e+00	0	60	104	607125504	61	19373
2026-01-13 02:03:09.61	266.36	5.20	-45.1	-59.6	3.8	1.49e+00	0	60	104	607125504	61	19394
2026-01-13 02:03:10.62	266.26	5.15	-45.1	-59.6	3.8	1.49e+00	0	61	104	607125504	61	19427
2026-01-13 02:03:11.63	266.16	5.09	-45.1	-59.6	3.8	1.49e+00	0	60	104	607125504	61	19451
2026-01-13 02:03:12.64	266.06	5.04	-45.1	-59.5	3.8	1.49e+00	0	60	104	607125504	61	19373
2026-01-13 02:03:13.65	265.95	4.99	-45.1	-59.5	3.8	1.49e+00	0	60	104	607125504	61	19379
2026-01-13 02:03:14.65	265.85	4.93	-45.1	-59.6	3.8	1.49e+00	0	60	104	607125504	61	19403
2026-01-13 02:03:15.66	265.75	4.88	-45.1	-59.6	3.8	1.49e+00	0	61	104	607125504	61	19429
2026-01-13 02:03:16.67	265.65	4.82	-45.1	-59.5	3.8	1.49e+00	0	61	104	607125504	61	19379
2026-01-13 02:03:17.68	265.55	4.77	-45.1	-59.5	3.8	1.49e+00	0	61	104	607125504	61	19371
2026-01-13 02:03:18.69	265.45	4.72	-45.1	-59.6	3.8	1.49e+00	0	61	104	607125504	61	19451
2026-01-13 02:03:19.70	265.36	4.66	-45.1	-59.6	3.8	1.49e+00	0	60	104	607125504	61	19410
2026-01-13 02:03:20.71	265.26	4.61	-45.1	-59.5	3.8	1.49e+00	0	61	104	607125504	61	19354
2026-01-13 02:03:21.72	265.16	4.55	-45.1	-59.5	3.8	1.49e+00	0	60	104	607125504	61	19362
2026-01-13 02:03:22.73	265.06	4.50	-45.1	-59.6	3.8	1.49e+00	0	61	104	607125504	61	19391
2026-01-13 02:03:23.74	264.96	4.45	-45.1	-59.6	3.8	1.49e+00	0	60	104	607125504	61	19401
2026-01-13 02:03:24.75	264.87	4.39	-45.1	-59.5	3.8	1.49e+00	0	60	104	607125504	61	19353
2026-01-13 02:03:25.76	264.77	4.34	-45.1	-59.5	3.8	1.49e+00	0	61	104	607125504	61	19379
2026-01-13 02:03:26.77	264.67	4.28	-45.1	-59.5	3.8	1.49e+00	0	60	104	607125504	61	19377
2026-01-13 02:03:27.78	264.58	4.23	-45.1	-59.5	3.8	1.49e+00	0	61	104	607125504	61	19385
2026-01-13 02:03:28.79	264.48	4.18	-45.1	-59.5	3.8	1.49e+00	0	60	104	607125504	61	19361
2026-01-13 02:03:29.80	264.39	4.12	-45.1	-59.6	3.8	1.49e+00	0	60	104	607125504	61	19390
2026-01-13 02:03:30.81	264.29	4.07	-45.1	-59.6	3.8	1.49e+00	0	61	104	607125504	61	19428
2026-01-13 02:03:31.82	264.20	4.01	-45.1	-59.5	3.8	1.49e+00	0	61	104	607125504	61	19333
2026-01-13 02:03:32.83	264.10	3.96	-45.1	-59.5	3.8	1.49e+00	0	61	104	607125504	61	19371
2026-01-13 02:03:33.83	264.01	3.91	-45.1	-59.5	3.8	1.49e+00	0	60	104	607125504	61	19357
2026-01-13 02:03:34.84	263.92	3.85	-45.1	-59.5	3.8	1.49e+00	0	61	104	607125504	61	19389
2026-01-13 02:03:35.85	263.82	3.80	-45.1	-59.5	3.8	1.49e+00	0	60	104	607125504	61	19371
2026-01-13 02:03:36.86	263.73	3.75	-45.1	-59.5	3.8	1.49e+00	0	60	104	607125504	61	19337
2026-01-13 02:03:37.87	263.64	3.69	-45.1	-59.5	3.8	1.49e+00	0	60	104	607125504	61	19348
2026-01-13 02:03:38.88	263.55	3.64	-45.1	-59.5	3.8	1.49e+00	0	61	104	607125504	61	19357
2026-01-13 02:03:39.89	263.45	3.59	-45.1	-59.5	3.8	1.49e+00	0	61	104	607125504	61	19350
2026-01-13 02:03:40.90	263.36	3.53	-45.1	-59.5	3.8	1.49e+00	0	60	104	607125504	61	19344
2026-01-13 02:03:41.91	263.27	3.48	-45.1	-59.5	3.8	1.49e+00	0	60	104	607125504	61	19338
2026-01-13 02:03:42.92	263.18	3.43	-45.1	-59.5	3.8	1.49e+00	0	61	104	607125504	61	19381
2026-01-13 02:03:43.93	263.09	3.37	-45.1	-59.5	3.8	1.49e+00	0	60	104	607125504	61	19374
2026-01-13 02:03:44.95	263.00	3.32	-45.1	-59.5	3.8	1.49e+00	0	60	104	607125504	61	19315
2026-01-13 02:03:45.96	262.91	3.27	-45.1	-59.5	3.8	1.49e+00	0	60	104	607125504	61	19321
2026-01-13 02:03:46.97	262.82	3.21	-45.1	-59.5	3.8	1.49e+00	0	60	104	607125504	61	19339
2026-01-13 02:03:47.98	262.73	3.16	-45.1	-59.5	3.8	1.49e+00	0	60	104	607125504	61	19292
2026-01-13 02:03:48.99	262.64	3.11	-45.1	-59.5	3.8	1.49e+00	0	60	104	607125504	61	19319
2026-01-13 02:03:50.00	262.55	3.05	-45.1	-59.5	3.8	1.49e+00	0	60	104	607125504	61	19340
2026-01-13 02:03:51.01	262.47	3.00	-45.1	-59.5	3.8	1.49e+00	0	60	104	607125504	61	19319
2026-01-13 02:03:52.02	262.38	2.95	-45.1	-59.5	3.8	1.49e+00	0	60	104	607125504	61	19324
2026-01-13 02:03:53.03	262.29	2.89	-45.1	-59.5	3.8	1.49e+00	0	60	104	607125504	61	19293
2026-01-13 02:03:54.04	262.20	2.84	-45.1	-59.5	3.8	1.49e+00	0	61	104	607125504	61	19350
2026-01-13 02:03:55.05	262.12	2.79	-45.1	-59.5	3.8	1.49e+00	0	60	104	607125504	61	19344
2026-01-13 02:03:56.06	262.03	2.74	-45.1	-59.5	3.8	1.49e+00	0	60	104	607125504	61	19336
2026-01-13 02:03:57.07	261.94	2.68	-45.1	-59.5	3.8	1.49e+00	0	60	104	607125504	61	19349
2026-01-13 02:03:58.08	261.86	2.63	-45.1	-59.5	3.8	1.49e+00	0	60	104	607125504	61	19303
2026-01-13 02:03:59.09	261.77	2.58	-45.1	-59.5	3.8	1.49e+00	0	61	104	607125504	61	19308
2026-01-13 02:04:00.10	261.69	2.52	-45.1	-59.6	3.8	1.49e+00	0	60	104	607125504	61	19413
2026-01-13 02:04:01.11	261.60	2.47	-45.1	-59.5	3.8	1.49e+00	0	60	104	607125504	61	19357
2026-01-13 02:04:02.12	261.52	2.42	-45.1	-59.5	3.8	1.49e+00	0	60	104	607125504	61	19348
2026-01-13 02:04:03.13	261.43	2.37	-45.1	-59.5	3.8	1.49e+00	0	60	104	607125504	61	19324
2026-01-13 02:04:04.14	261.35	2.31	-45.1	-59.5	3.8	1.49e+00	0	61	104	607125504	61	19324
2026-01-13 02:04:05.15	261.27	2.26	-45.1	-59.5	3.8	1.49e+00	0	61	104	607125504	61	19318
2026-01-13 02:04:06.16	261.18	2.21	-45.1	-59.5	3.8	1.49e+00	0	60	104	607125504	61	19294
2026-01-13 02:04:07.17	261.10	2.16	-45.1	-59.5	3.8	1.49e+00	0	60	104	607125504	61	19283
2026-01-13 02:04:08.18	261.02	2.10	-45.1	-59.5	3.8	1.49e+00	0	60	104	607125504	61	19341
2026-01-13 02:04:09.19	260.93	2.05	-45.1	-59.5	3.8	1.49e+00	0	61	104	607125504	61	19254
2026-01-13 02:04:10.20	260.85	2.00	-45.1	-59.5	3.8	1.49e+00	0	60	104	607125504	61	19294
2026-01-13 02:04:11.20	260.77	1.95	-45.1	-59.5	3.8	1.49e+00	0	60	104	607125504	61	19288

#Closed at: 2026-01-13 02:04:11
#Recorded file [607 MB]: D:/lorett/data/31039_260113_045236.dat