passes_logs/2026/01/13/R2.0S_Moscow/R2.0S_Moscow__20260113_093257_NOAA_21_JPSS-2_rec.log

#Pass ID: 20260113_093257_NOAA 21 (JPSS-2)
#Satellite: NOAA 21 (JPSS-2)
#Configuration: NOAA-21
#almurnet v.1.7.20251203
#Start time: 2026-01-13 09:32:59

#Version: 2.2.20231116
#Station: R2.0S_Moscow
#Location: 37.707566 lon 55.798166 lat
#TLE: 1 54234U 22150A   26012.26378519  .00000063  00000+0  50547-4 0  9993
#TLE: 2 54234  98.7495 313.1967 0000726 309.1075  51.0036 14.19534275164425

#Time	Az	El	Level	Level2	SNR	BER	BlckErr	Temp	State	Recorded	gain1	gain2
2026-01-13 09:32:59.89	149.82	2.14	-43.7	-55.8	3.8	1.49e+00	0	49	0	0	58	15033
2026-01-13 09:33:00.90	149.81	2.21	-43.7	-55.8	3.8	1.49e+00	0	49	104	0	58	14977
2026-01-13 09:33:01.92	149.79	2.27	-43.7	-55.8	3.8	1.49e+00	0	49	104	0	58	15021
2026-01-13 09:33:02.93	149.78	2.34	-43.7	-55.8	3.8	1.49e+00	0	49	104	0	58	15004
2026-01-13 09:33:03.94	149.76	2.41	-43.7	-55.9	3.8	1.49e+00	0	49	104	0	57	15963
2026-01-13 09:33:04.95	149.75	2.47	-43.7	-55.8	3.8	1.49e+00	0	49	104	0	57	15915
2026-01-13 09:33:05.96	149.73	2.54	-43.6	-55.8	3.8	1.49e+00	0	49	104	0	57	15897
2026-01-13 09:33:06.97	149.72	2.60	-43.7	-55.8	3.8	1.49e+00	0	49	104	0	57	15871
2026-01-13 09:33:07.98	149.70	2.67	-43.6	-55.8	3.8	1.49e+00	0	49	104	0	57	15873
2026-01-13 09:33:08.99	149.69	2.73	-43.7	-55.8	3.8	1.49e+00	0	49	104	0	57	15897
2026-01-13 09:33:10.00	149.67	2.80	-43.7	-55.8	3.8	1.49e+00	0	49	104	0	57	15838
2026-01-13 09:33:11.01	149.66	2.87	-43.7	-55.8	3.8	1.49e+00	0	49	104	0	57	15875
2026-01-13 09:33:12.02	149.64	2.93	-43.7	-55.8	3.8	1.49e+00	0	49	104	0	57	15800
2026-01-13 09:33:13.03	149.63	3.00	-43.4	-55.8	3.8	1.49e+00	0	50	104	0	57	15887
2026-01-13 09:33:14.04	149.61	3.07	-43.7	-55.8	3.8	1.49e+00	0	50	104	0	57	15936
2026-01-13 09:33:15.05	149.60	3.14	-43.7	-55.8	3.8	1.49e+00	0	50	104	0	57	15904
2026-01-13 09:33:16.06	149.58	3.20	-43.7	-55.8	3.8	1.49e+00	0	50	104	0	57	15922
2026-01-13 09:33:17.07	149.57	3.27	-43.7	-55.8	3.8	1.49e+00	0	50	104	0	57	15936
2026-01-13 09:33:18.08	149.55	3.34	-43.7	-55.8	3.8	1.49e+00	0	50	104	0	57	15922
2026-01-13 09:33:19.09	149.53	3.41	-43.7	-55.8	3.8	1.49e+00	0	50	104	0	57	15921
2026-01-13 09:33:20.10	149.52	3.47	-43.7	-55.8	3.8	1.49e+00	0	50	104	0	57	15841
2026-01-13 09:33:21.11	149.50	3.54	-43.7	-55.9	3.8	1.49e+00	0	50	104	0	57	15951
2026-01-13 09:33:22.12	149.49	3.61	-43.7	-55.8	3.8	1.49e+00	0	50	104	0	57	15867
2026-01-13 09:33:23.13	149.47	3.68	-43.7	-55.8	3.8	1.49e+00	0	50	104	0	57	15901
2026-01-13 09:33:24.14	149.45	3.75	-43.7	-55.8	3.8	1.49e+00	0	50	104	0	57	15881
2026-01-13 09:33:25.15	149.44	3.82	-43.7	-55.8	3.8	1.49e+00	0	50	104	0	57	15891
2026-01-13 09:33:26.16	149.42	3.89	-43.7	-55.8	3.8	1.49e+00	0	50	104	0	57	15858
2026-01-13 09:33:27.17	149.41	3.96	-43.6	-55.8	3.8	1.49e+00	0	50	104	0	57	15913
2026-01-13 09:33:28.18	149.39	4.02	-43.6	-55.8	3.8	1.49e+00	0	51	104	0	57	15863
2026-01-13 09:33:29.19	149.37	4.09	-43.6	-55.8	3.8	1.49e+00	0	51	104	0	57	15886
2026-01-13 09:33:30.20	149.36	4.16	-43.7	-55.8	3.8	1.49e+00	0	51	104	0	57	15926
2026-01-13 09:33:31.21	149.34	4.23	-43.7	-55.8	3.8	1.49e+00	0	51	104	0	57	15882
2026-01-13 09:33:32.22	149.32	4.30	-43.7	-55.8	3.8	1.49e+00	0	51	104	0	57	15852
2026-01-13 09:33:33.23	149.31	4.37	-43.6	-55.8	3.8	1.49e+00	0	51	104	0	57	15896
2026-01-13 09:33:34.24	149.29	4.44	-43.7	-55.8	3.8	1.49e+00	0	51	104	0	57	15886
2026-01-13 09:33:35.25	149.27	4.52	-43.6	-55.8	3.8	1.49e+00	0	51	104	0	57	15893
2026-01-13 09:33:36.26	149.25	4.59	-43.6	-55.8	3.8	1.49e+00	0	51	104	0	57	15905
2026-01-13 09:33:37.27	149.24	4.66	-43.6	-55.8	3.8	1.49e+00	0	51	104	0	57	15876
2026-01-13 09:33:38.28	149.22	4.73	-43.7	-55.8	3.8	1.49e+00	0	51	104	0	57	15877
2026-01-13 09:33:39.29	149.20	4.80	-43.6	-55.8	3.8	1.49e+00	0	51	104	0	57	15868
2026-01-13 09:33:40.30	149.18	4.87	-43.7	-55.8	3.8	1.49e+00	0	51	104	0	57	15904
2026-01-13 09:33:41.31	149.17	4.94	-43.7	-55.8	3.8	1.49e+00	0	51	104	0	57	15911
2026-01-13 09:33:42.32	149.15	5.02	-43.7	-55.8	3.8	1.49e+00	0	51	104	0	57	15895
2026-01-13 09:33:43.33	149.13	5.09	-43.7	-55.8	3.8	1.49e+00	0	51	104	0	57	15916
2026-01-13 09:33:44.34	149.11	5.16	-43.7	-55.8	3.8	1.49e+00	0	51	104	0	57	15880
2026-01-13 09:33:45.35	149.10	5.23	-43.7	-55.8	3.8	1.49e+00	0	51	104	0	57	15895
2026-01-13 09:33:46.36	149.08	5.31	-43.7	-55.8	3.8	1.49e+00	0	51	104	0	57	15772
2026-01-13 09:33:47.37	149.06	5.38	-43.6	-55.7	3.8	1.49e+00	0	52	104	0	57	15755
2026-01-13 09:33:48.38	149.04	5.45	-43.6	-55.7	3.8	1.49e+00	0	52	104	0	57	15720
2026-01-13 09:33:49.39	149.02	5.52	-43.7	-55.7	3.8	1.49e+00	0	51	104	0	57	15628
2026-01-13 09:33:50.40	149.00	5.60	-43.7	-55.6	3.8	1.49e+00	0	52	104	0	57	15536
2026-01-13 09:33:51.41	148.98	5.67	-43.6	-55.5	3.8	1.49e+00	0	52	104	0	57	15391
2026-01-13 09:33:52.42	148.97	5.75	-43.6	-55.5	3.8	1.49e+00	0	52	104	0	57	15252
2026-01-13 09:33:53.43	148.95	5.82	-43.6	-55.4	3.8	1.49e+00	0	52	104	0	57	15098
2026-01-13 09:33:54.44	148.93	5.89	-43.5	-55.2	3.8	1.49e+00	0	52	104	0	57	14802
2026-01-13 09:33:55.45	148.91	5.97	-43.6	-55.0	3.8	1.49e+00	0	52	104	0	57	14468
2026-01-13 09:33:56.46	148.89	6.04	-43.6	-54.8	3.8	1.49e+00	0	52	104	0	57	14077
2026-01-13 09:33:57.48	148.87	6.12	-43.5	-54.4	3.8	1.49e+00	0	52	104	0	57	13487
2026-01-13 09:33:58.49	148.85	6.19	-43.4	-54.0	3.9	1.49e+00	0	52	104	0	57	12826
2026-01-13 09:33:59.49	148.83	6.27	-43.4	-54.0	3.9	1.48e+00	0	52	104	0	57	12815
2026-01-13 09:34:00.50	148.81	6.35	-43.4	-53.7	3.8	1.48e+00	0	52	104	0	57	12465
2026-01-13 09:34:01.51	148.79	6.42	-43.3	-53.4	3.8	1.48e+00	0	52	104	0	57	11983
2026-01-13 09:34:02.52	148.77	6.50	-43.2	-52.9	4.0	1.48e+00	0	52	104	0	57	11362
2026-01-13 09:34:03.53	148.75	6.57	-43.3	-52.9	3.9	1.46e+00	0	52	104	0	57	11312
2026-01-13 09:34:04.54	148.73	6.65	-43.3	-52.8	4.1	1.48e+00	0	53	104	0	57	11265
2026-01-13 09:34:05.55	148.71	6.73	-43.4	-53.3	3.9	1.49e+00	0	52	104	0	57	11867
2026-01-13 09:34:06.56	148.69	6.80	-43.4	-53.4	3.9	1.48e+00	0	53	104	0	57	12090
2026-01-13 09:34:07.57	148.67	6.88	-43.4	-54.2	3.8	1.49e+00	0	52	104	0	57	13148
2026-01-13 09:34:08.58	148.65	6.96	-43.2	-54.5	3.8	1.49e+00	0	53	104	0	57	13616
2026-01-13 09:34:09.59	148.63	7.04	-43.6	-55.1	3.8	1.49e+00	0	53	104	0	57	14543
2026-01-13 09:34:10.60	148.61	7.11	-43.6	-55.6	3.8	1.49e+00	0	53	104	0	57	15506
2026-01-13 09:34:11.61	148.59	7.19	-43.6	-55.7	3.8	1.49e+00	0	53	104	0	57	15722
2026-01-13 09:34:12.62	148.56	7.27	-43.6	-55.6	3.8	1.49e+00	0	53	104	0	57	15411
2026-01-13 09:34:13.63	148.54	7.35	-43.5	-55.0	3.8	1.49e+00	0	53	104	0	57	14400
2026-01-13 09:34:14.64	148.52	7.43	-43.5	-54.0	3.8	1.49e+00	0	53	104	0	57	12820
2026-01-13 09:34:15.65	148.50	7.51	-43.3	-52.3	4.2	1.48e+00	0	53	104	0	57	10558
2026-01-13 09:34:16.66	148.48	7.59	-43.1	-51.7	4.0	1.21e+00	0	53	104	0	57	9932
2026-01-13 09:34:17.67	148.46	7.67	-42.8	-49.8	5.2	8.13e-01	0	53	0	0	56	8428
2026-01-13 09:34:18.68	148.43	7.75	-42.6	-48.8	5.9	3.97e-01	0	53	0	3145728	56	7522
2026-01-13 09:34:19.69	148.41	7.83	-42.4	-48.1	6.5	2.36e-01	0	53	0	6291456	56	6904
2026-01-13 09:34:20.70	148.39	7.91	-42.0	-47.1	7.4	1.38e-01	0	53	0	9437184	56	6165
2026-01-13 09:34:21.71	148.37	7.99	-41.6	-46.4	7.9	9.77e-02	0	53	0	12582912	55	6051
2026-01-13 09:34:22.72	148.35	8.07	-44.1	-55.7	3.8	1.24e+00	0	53	104	14680064	58	14844
2026-01-13 09:34:23.73	148.32	8.15	-43.7	-53.7	3.9	1.49e+00	0	53	104	14680064	59	11108
2026-01-13 09:34:24.74	148.30	8.23	-41.6	-46.4	5.0	1.41e+00	0	53	104	14680064	54	6348
2026-01-13 09:34:25.75	148.28	8.31	-43.2	-52.4	3.9	6.97e-01	0	54	104	14680064	57	10775
2026-01-13 09:34:26.76	148.25	8.39	-40.8	-44.7	9.7	2.77e-02	0	53	0	14680064	53	5536
2026-01-13 09:34:27.77	148.23	8.48	-40.9	-44.9	9.4	2.18e-02	0	53	0	17825792	53	5674
2026-01-13 09:34:28.78	148.21	8.56	-40.9	-44.7	9.5	1.33e-02	0	53	0	20971520	53	5576
2026-01-13 09:34:29.79	148.18	8.64	-40.8	-44.6	9.8	9.91e-03	0	53	0	24117248	53	5492
2026-01-13 09:34:30.80	148.16	8.72	-40.7	-44.3	10.1	7.03e-03	0	53	0	27262976	52	5607
2026-01-13 09:34:31.81	148.14	8.81	-40.7	-44.3	10.1	6.49e-03	0	53	0	30408704	52	5605
2026-01-13 09:34:32.82	148.11	8.89	-40.8	-44.4	10.1	8.35e-03	0	54	0	33554432	52	5676
2026-01-13 09:34:33.82	148.09	8.97	-40.7	-44.3	10.2	5.29e-03	0	53	0	36700160	52	5601
2026-01-13 09:34:34.83	148.06	9.06	-40.6	-44.0	10.5	4.69e-03	0	53	0	39845888	52	5420
2026-01-13 09:34:35.84	148.04	9.14	-40.7	-44.1	10.4	4.54e-03	0	54	0	42991616	52	5521
2026-01-13 09:34:36.85	148.02	9.23	-40.7	-44.1	10.4	4.54e-03	0	54	0	46137344	52	5522
2026-01-13 09:34:37.86	147.99	9.31	-40.6	-44.0	10.6	4.07e-03	0	54	0	49283072	52	5424
2026-01-13 09:34:38.87	147.97	9.40	-40.6	-44.1	10.5	4.14e-03	0	54	0	52428800	52	5477
2026-01-13 09:34:39.88	147.94	9.48	-40.6	-44.0	10.7	3.36e-03	0	54	0	55574528	51	5750
2026-01-13 09:34:40.89	147.92	9.57	-40.5	-43.9	10.7	2.90e-03	0	54	0	58720256	51	5698
2026-01-13 09:34:41.90	147.89	9.65	-40.6	-44.0	10.7	3.58e-03	0	54	0	61865984	51	5723
2026-01-13 09:34:42.91	147.86	9.74	-40.4	-43.9	10.7	2.83e-03	0	54	0	65011712	51	5718
2026-01-13 09:34:43.92	147.84	9.83	-40.6	-43.9	10.7	2.51e-03	0	54	0	68157440	51	5676
2026-01-13 09:34:44.93	147.81	9.91	-40.5	-43.8	10.9	2.30e-03	0	54	0	71303168	51	5632
2026-01-13 09:34:45.94	147.79	10.00	-40.5	-43.7	11.0	3.63e-03	0	54	0	74448896	51	5592
2026-01-13 09:34:46.95	147.76	10.09	-40.6	-43.8	11.0	2.02e-03	0	54	0	77594624	51	5610
2026-01-13 09:34:47.96	147.73	10.18	-40.6	-43.8	11.0	1.90e-03	0	54	0	80740352	51	5595
2026-01-13 09:34:48.97	147.71	10.26	-40.6	-43.7	11.0	2.12e-03	0	54	0	83886080	51	5586
2026-01-13 09:34:49.98	147.68	10.35	-40.4	-43.6	11.2	2.58e-03	0	54	0	87031808	51	5487
2026-01-13 09:34:50.99	147.65	10.44	-40.5	-43.6	11.2	1.59e-03	0	54	0	90177536	51	5494
2026-01-13 09:34:52.00	147.63	10.53	-40.4	-43.5	11.3	1.01e-03	0	54	0	93323264	51	5437
2026-01-13 09:34:53.01	147.60	10.62	-40.3	-43.5	11.1	3.01e-03	0	54	0	96468992	51	5419
2026-01-13 09:34:54.02	147.57	10.71	-40.5	-43.6	11.3	1.09e-03	0	54	0	99614720	51	5476
2026-01-13 09:34:55.03	147.54	10.80	-40.5	-43.6	11.3	3.89e-03	0	54	0	102760448	51	5469
2026-01-13 09:34:56.04	147.52	10.89	-40.1	-43.5	11.0	1.01e-03	0	54	0	105906176	51	5435
2026-01-13 09:34:57.05	147.49	10.98	-40.3	-43.3	11.6	7.36e-04	0	54	0	109051904	51	5315
2026-01-13 09:34:58.06	147.46	11.07	-40.4	-43.4	11.5	9.41e-04	0	54	0	112197632	51	5370
2026-01-13 09:34:59.06	147.43	11.16	-40.5	-43.5	11.4	9.67e-04	0	54	0	115343360	51	5447
2026-01-13 09:35:00.07	147.40	11.25	-40.5	-43.6	11.4	1.04e-03	0	54	0	118489088	51	5473
2026-01-13 09:35:01.08	147.38	11.34	-40.4	-43.4	11.6	7.41e-04	0	55	0	121634816	51	5354
2026-01-13 09:35:02.10	147.35	11.44	-40.4	-43.3	11.7	3.78e-03	0	55	0	124780544	51	5315
2026-01-13 09:35:03.11	147.32	11.53	-40.4	-43.3	11.7	6.64e-04	0	54	0	127926272	51	5330
2026-01-13 09:35:04.12	147.29	11.62	-40.3	-43.2	11.8	5.31e-04	0	54	0	131072000	51	5234
2026-01-13 09:35:05.13	147.26	11.72	-40.3	-43.2	11.8	2.05e-03	0	55	0	134217728	51	5246
2026-01-13 09:35:06.14	147.23	11.81	-40.2	-43.2	11.7	6.56e-04	0	55	0	137363456	51	5268
2026-01-13 09:35:07.15	147.20	11.91	-40.4	-43.3	11.8	6.03e-04	0	54	0	140509184	51	5283
2026-01-13 09:35:08.16	147.17	12.00	-40.3	-43.2	11.8	4.97e-04	0	54	0	143654912	51	5234
2026-01-13 09:35:09.17	147.14	12.09	-40.3	-43.1	11.9	4.40e-04	0	54	0	146800640	51	5216
2026-01-13 09:35:10.18	147.11	12.19	-40.2	-43.0	12.0	2.97e-04	0	55	0	149946368	51	5157
2026-01-13 09:35:11.19	147.08	12.28	-40.3	-43.1	11.9	1.26e-03	0	55	0	153092096	51	5204
2026-01-13 09:35:12.20	147.04	12.38	-40.3	-43.1	12.0	3.68e-04	0	55	0	156237824	51	5177
2026-01-13 09:35:13.21	147.01	12.48	-40.3	-43.2	11.9	3.72e-04	0	55	0	159383552	51	5225
2026-01-13 09:35:14.22	146.98	12.57	-40.2	-43.0	12.1	2.68e-04	0	55	0	162529280	51	5126
2026-01-13 09:35:15.23	146.95	12.67	-40.3	-43.1	12.0	9.11e-04	0	55	0	165675008	51	5211
2026-01-13 09:35:16.23	146.92	12.77	-40.2	-43.0	12.1	2.55e-04	0	55	0	168820736	51	5145
2026-01-13 09:35:17.24	146.89	12.86	-40.2	-43.0	12.1	1.11e-03	0	55	0	171966464	51	5131
2026-01-13 09:35:18.25	146.85	12.96	-40.3	-43.0	12.1	2.64e-04	0	55	0	175112192	51	5156
2026-01-13 09:35:19.26	146.82	13.06	-40.2	-43.0	12.2	2.66e-04	0	55	0	178257920	51	5125
2026-01-13 09:35:20.27	146.79	13.16	-40.0	-42.9	12.1	1.83e-04	0	55	0	181403648	51	5055
2026-01-13 09:35:21.28	146.76	13.26	-40.1	-42.8	12.4	1.69e-04	0	55	0	184549376	51	5024
2026-01-13 09:35:22.29	146.72	13.36	-40.2	-42.9	12.3	2.23e-04	0	55	0	187695104	51	5059
2026-01-13 09:35:23.30	146.69	13.46	-40.2	-42.9	12.3	1.79e-04	0	55	0	190840832	51	5073
2026-01-13 09:35:24.31	146.65	13.56	-40.1	-42.8	12.4	6.42e-04	0	55	0	193986560	51	5014
2026-01-13 09:35:25.32	146.62	13.66	-40.1	-42.8	12.3	8.22e-04	0	55	0	197132288	51	5035
2026-01-13 09:35:26.33	146.59	13.76	-40.1	-42.9	12.1	3.43e-03	0	55	0	200278016	50	5341
2026-01-13 09:35:27.34	146.55	13.86	-40.0	-42.8	12.1	1.55e-03	0	55	0	203423744	51	5038
2026-01-13 09:35:28.35	146.52	13.97	-40.1	-42.9	12.3	6.26e-03	0	55	0	206569472	50	5345
2026-01-13 09:35:29.37	146.48	14.07	-39.7	-42.7	12.1	7.93e-04	0	55	0	209715200	50	5259
2026-01-13 09:35:30.38	146.45	14.17	-40.0	-42.6	12.6	1.83e-03	0	55	0	212860928	50	5218
2026-01-13 09:35:31.38	146.41	14.27	-40.2	-42.9	12.3	2.91e-04	0	55	0	216006656	51	5078
2026-01-13 09:35:32.39	146.37	14.38	-39.7	-42.6	12.5	5.77e-04	0	55	0	219152384	51	4906
2026-01-13 09:35:33.40	146.34	14.48	-40.0	-42.8	12.5	2.98e-04	0	55	0	222298112	51	4993
2026-01-13 09:35:34.41	146.30	14.59	-40.1	-42.7	12.5	1.77e-03	0	55	0	225443840	50	5276
2026-01-13 09:35:35.42	146.26	14.69	-40.1	-42.7	12.6	1.71e-03	0	55	0	228589568	50	5240
2026-01-13 09:35:36.44	146.23	14.80	-40.1	-42.7	12.5	8.80e-04	0	55	0	231735296	50	5257
2026-01-13 09:35:37.45	146.19	14.91	-39.9	-42.6	12.4	6.46e-04	0	55	0	234881024	50	5202
2026-01-13 09:35:38.46	146.15	15.01	-40.1	-42.7	12.6	8.69e-05	0	55	0	238026752	50	5239
2026-01-13 09:35:39.46	146.11	15.12	-40.1	-42.7	12.6	1.53e-04	0	55	0	241172480	50	5279
2026-01-13 09:35:40.47	146.08	15.23	-40.1	-42.7	12.6	1.27e-04	0	55	0	244318208	50	5253
2026-01-13 09:35:41.48	146.04	15.33	-40.2	-42.8	12.6	1.55e-03	0	55	0	247463936	50	5282
2026-01-13 09:35:42.49	146.00	15.44	-40.2	-42.8	12.6	1.10e-04	0	55	0	251658240	50	5297
2026-01-13 09:35:43.50	145.96	15.55	-40.1	-42.7	12.7	1.53e-04	0	55	0	254803968	50	5257
2026-01-13 09:35:44.51	145.92	15.66	-40.2	-42.8	12.6	1.50e-04	0	55	0	256901120	50	5306
2026-01-13 09:35:45.53	145.88	15.77	-40.2	-42.8	12.5	1.89e-03	0	55	0	260046848	51	5029
2026-01-13 09:35:46.54	145.84	15.88	-40.2	-42.8	12.5	3.42e-04	0	55	0	263192576	51	4987
2026-01-13 09:35:47.55	145.80	15.99	-40.2	-42.8	12.5	7.29e-04	0	56	0	267386880	51	5038
2026-01-13 09:35:48.56	145.76	16.10	-40.3	-42.9	12.5	1.61e-04	0	55	0	270532608	51	5060
2026-01-13 09:35:49.57	145.72	16.21	-40.3	-42.9	12.5	3.17e-04	0	55	0	273678336	51	5093
2026-01-13 09:35:50.58	145.68	16.33	-40.1	-42.8	12.5	3.34e-04	0	55	0	276824064	51	5018
2026-01-13 09:35:51.59	145.64	16.44	-40.2	-42.8	12.6	3.23e-04	0	55	0	279969792	51	4994
2026-01-13 09:35:52.60	145.59	16.55	-40.2	-42.7	12.6	2.50e-04	0	55	0	283115520	51	4966
2026-01-13 09:35:53.60	145.55	16.66	-40.2	-42.7	12.7	1.51e-04	0	55	0	286261248	51	4958
2026-01-13 09:35:54.61	145.51	16.78	-40.2	-42.8	12.6	2.30e-04	0	55	0	289406976	51	5007
2026-01-13 09:35:55.62	145.47	16.89	-40.2	-42.7	12.7	2.20e-04	0	55	0	292552704	51	4977
2026-01-13 09:35:56.63	145.42	17.01	-40.1	-42.7	12.6	2.46e-04	0	55	0	295698432	51	4968
2026-01-13 09:35:57.64	145.38	17.12	-40.3	-42.8	12.7	8.39e-05	0	55	0	298844160	51	5035
2026-01-13 09:35:58.65	145.34	17.24	-40.1	-42.8	12.7	1.10e-04	0	56	0	301989888	51	5018
2026-01-13 09:35:59.66	145.29	17.36	-40.1	-42.8	12.7	1.60e-04	0	56	0	305135616	51	5004
2026-01-13 09:36:00.67	145.25	17.48	-40.2	-42.8	12.7	3.26e-04	0	55	0	308281344	51	5028
2026-01-13 09:36:01.68	145.20	17.59	-40.3	-42.9	12.6	8.31e-05	0	56	0	311427072	51	5065
2026-01-13 09:36:02.69	145.16	17.71	-40.2	-42.8	12.7	8.39e-05	0	56	0	314572800	51	5022
2026-01-13 09:36:03.70	145.11	17.83	-40.3	-42.9	12.6	2.20e-04	0	56	0	317718528	51	5065
2026-01-13 09:36:04.71	145.06	17.95	-40.3	-42.9	12.6	9.53e-05	0	56	0	320864256	51	5088
2026-01-13 09:36:05.72	145.02	18.07	-40.4	-43.0	12.5	9.38e-05	0	56	0	324009984	51	5129
2026-01-13 09:36:06.73	144.97	18.19	-40.4	-43.0	12.4	1.22e-04	0	55	0	327155712	51	5120
2026-01-13 09:36:07.74	144.92	18.31	-40.3	-43.0	12.4	1.62e-04	0	55	0	330301440	51	5136
2026-01-13 09:36:08.75	144.87	18.43	-40.4	-43.0	12.5	9.61e-05	0	56	0	333447168	51	5128
2026-01-13 09:36:09.76	144.83	18.56	-40.4	-43.1	12.5	1.19e-04	0	55	0	336592896	51	5169
2026-01-13 09:36:10.77	144.78	18.68	-40.4	-43.0	12.6	1.11e-04	0	55	0	339738624	51	5106
2026-01-13 09:36:11.78	144.73	18.80	-40.4	-43.0	12.6	8.85e-05	0	56	0	342884352	51	5115
2026-01-13 09:36:12.79	144.68	18.93	-40.4	-43.1	12.5	1.04e-04	0	56	0	346030080	51	5162
2026-01-13 09:36:13.80	144.63	19.05	-40.4	-43.1	12.5	1.20e-04	0	56	0	349175808	51	5177
2026-01-13 09:36:14.81	144.58	19.18	-40.4	-43.0	12.6	8.54e-05	0	56	0	352321536	51	5150
2026-01-13 09:36:15.82	144.53	19.30	-40.4	-43.0	12.6	1.16e-04	0	56	0	355467264	51	5140
2026-01-13 09:36:16.83	144.48	19.43	-40.4	-43.1	12.6	7.55e-05	0	56	0	358612992	51	5160
2026-01-13 09:36:17.84	144.43	19.56	-40.2	-43.0	12.4	9.91e-05	0	56	0	361758720	51	5108
2026-01-13 09:36:18.85	144.37	19.69	-40.3	-42.9	12.7	7.09e-05	0	56	0	364904448	51	5066
2026-01-13 09:36:19.85	144.32	19.81	-40.3	-42.9	12.8	7.70e-05	0	56	0	368050176	51	5068
2026-01-13 09:36:20.86	144.27	19.94	-40.3	-42.8	12.8	5.64e-05	0	56	0	371195904	51	5019
2026-01-13 09:36:21.87	144.21	20.07	-40.3	-42.8	12.9	4.65e-05	0	56	0	374341632	51	5022
2026-01-13 09:36:22.88	144.16	20.20	-40.2	-42.7	12.9	5.26e-05	0	56	0	377487360	51	4982
2026-01-13 09:36:23.89	144.11	20.34	-40.2	-42.7	13.0	4.42e-05	0	56	0	380633088	51	4943
2026-01-13 09:36:24.90	144.05	20.47	-40.1	-42.6	13.1	2.74e-05	0	56	0	383778816	51	4909
2026-01-13 09:36:25.91	144.00	20.60	-40.1	-42.5	13.1	3.28e-05	0	56	0	386924544	51	4860
2026-01-13 09:36:26.92	143.94	20.73	-40.0	-42.5	13.2	2.21e-05	0	56	0	390070272	51	4817
2026-01-13 09:36:27.93	143.88	20.87	-39.9	-42.4	13.1	1.67e-05	0	56	0	393216000	51	4805
2026-01-13 09:36:28.95	143.83	21.00	-39.9	-42.3	13.4	1.22e-05	0	56	0	396361728	51	4711
2026-01-13 09:36:29.96	143.77	21.14	-40.0	-42.4	13.3	1.83e-05	0	56	0	399507456	51	4769
2026-01-13 09:36:30.97	143.71	21.27	-39.9	-42.2	13.4	1.06e-05	0	56	0	402653184	51	4694
2026-01-13 09:36:31.97	143.65	21.41	-39.8	-42.1	13.6	1.29e-05	0	56	0	405798912	51	4618
2026-01-13 09:36:32.98	143.59	21.55	-39.7	-42.0	13.7	9.90e-06	0	56	0	408944640	51	4588
2026-01-13 09:36:33.99	143.53	21.68	-39.7	-41.9	13.8	5.30e-06	0	56	0	412090368	51	4517
2026-01-13 09:36:35.00	143.47	21.82	-39.7	-41.9	13.8	1.50e-06	0	56	0	415236096	51	4524
2026-01-13 09:36:36.01	143.41	21.96	-39.6	-41.8	13.9	3.80e-06	0	56	0	418381824	51	4489
2026-01-13 09:36:37.02	143.35	22.10	-39.6	-41.8	13.9	4.50e-06	0	56	0	421527552	51	4469
2026-01-13 09:36:38.03	143.29	22.24	-39.6	-41.8	13.9	2.20e-06	0	56	0	424673280	51	4466
2026-01-13 09:36:39.04	143.23	22.39	-39.5	-41.7	14.1	1.50e-06	0	56	0	427819008	51	4421
2026-01-13 09:36:40.05	143.16	22.53	-39.6	-41.7	14.0	4.50e-06	0	56	0	430964736	51	4441
2026-01-13 09:36:41.06	143.10	22.67	-39.6	-41.7	14.0	2.20e-06	0	56	0	434110464	51	4429
2026-01-13 09:36:42.07	143.03	22.82	-39.5	-41.6	14.2	0.00e+00	0	56	0	437256192	50	4624
2026-01-13 09:36:43.08	142.97	22.96	-39.5	-41.7	14.1	7.00e-07	0	56	0	440401920	50	4654
2026-01-13 09:36:44.09	142.90	23.11	-39.4	-41.6	14.2	2.20e-06	0	56	0	443547648	50	4617
2026-01-13 09:36:45.10	142.84	23.25	-39.4	-41.5	14.3	1.50e-06	0	56	0	446693376	50	4582
2026-01-13 09:36:46.11	142.77	23.40	-39.4	-41.6	14.2	3.00e-06	0	56	0	449839104	50	4600
2026-01-13 09:36:47.12	142.70	23.55	-39.4	-41.5	14.3	3.00e-06	0	56	0	452984832	50	4590
2026-01-13 09:36:48.13	142.64	23.70	-39.4	-41.5	14.3	1.50e-06	0	56	0	456130560	50	4590
2026-01-13 09:36:49.14	142.57	23.85	-39.5	-41.6	14.2	2.20e-06	0	56	0	459276288	50	4640
2026-01-13 09:36:50.15	142.50	24.00	-39.4	-41.5	14.3	2.20e-06	0	56	0	462422016	50	4583
2026-01-13 09:36:51.16	142.43	24.15	-39.4	-41.6	14.2	0.00e+00	0	56	0	465567744	50	4605
2026-01-13 09:36:52.17	142.36	24.30	-39.5	-41.6	14.2	1.50e-06	0	57	0	468713472	50	4624
2026-01-13 09:36:53.18	142.28	24.45	-39.5	-41.6	14.2	7.00e-07	0	56	0	471859200	50	4608
2026-01-13 09:36:54.19	142.21	24.61	-39.5	-41.6	14.2	2.20e-06	0	56	0	475004928	50	4647
2026-01-13 09:36:55.20	142.14	24.76	-39.5	-41.7	14.1	1.50e-06	0	56	0	478150656	50	4663
2026-01-13 09:36:56.21	142.06	24.92	-39.6	-41.8	14.0	0.00e+00	0	56	0	481296384	50	4723
2026-01-13 09:36:57.23	141.99	25.07	-39.7	-42.0	13.8	4.50e-06	0	56	0	484442112	50	4828
2026-01-13 09:36:58.23	141.91	25.23	-39.8	-42.1	13.8	3.80e-06	0	56	0	487587840	50	4872
2026-01-13 09:36:59.24	141.84	25.39	-39.9	-42.1	13.7	9.10e-06	0	56	0	490733568	50	4919
2026-01-13 09:37:00.25	141.76	25.55	-39.9	-42.2	13.7	6.80e-06	0	56	0	493879296	50	4930
2026-01-13 09:37:01.26	141.68	25.71	-40.0	-42.3	13.5	1.06e-05	0	56	0	497025024	50	5033
2026-01-13 09:37:02.27	141.60	25.87	-40.0	-42.3	13.5	8.30e-06	0	56	0	500170752	50	5038
2026-01-13 09:37:03.29	141.52	26.03	-40.1	-42.4	13.5	1.44e-05	0	56	0	503316480	50	5073
2026-01-13 09:37:04.30	141.44	26.19	-40.1	-42.5	13.3	1.14e-05	0	56	0	506462208	50	5136
2026-01-13 09:37:05.31	141.36	26.36	-40.2	-42.6	13.3	1.60e-05	0	56	0	509607936	50	5197
2026-01-13 09:37:06.32	141.28	26.52	-40.2	-42.6	13.2	1.75e-05	0	56	0	512753664	51	4914
2026-01-13 09:37:07.32	141.20	26.68	-40.3	-42.7	13.1	2.59e-05	0	57	0	515899392	51	4979
2026-01-13 09:37:08.34	141.11	26.85	-40.3	-42.7	13.2	1.90e-05	0	57	0	519045120	51	4953
2026-01-13 09:37:09.35	141.03	27.02	-40.3	-42.8	13.1	2.28e-05	0	57	0	522190848	51	5005
2026-01-13 09:37:10.36	140.94	27.19	-40.4	-42.9	13.0	3.20e-05	0	57	0	525336576	51	5045
2026-01-13 09:37:11.37	140.86	27.36	-40.4	-42.9	12.9	4.95e-05	0	57	0	528482304	51	5087
2026-01-13 09:37:12.38	140.77	27.53	-40.5	-43.0	12.8	4.50e-05	0	56	0	531628032	51	5141
2026-01-13 09:37:13.39	140.68	27.70	-40.6	-43.2	12.6	8.16e-05	0	57	0	534773760	51	5266
2026-01-13 09:37:14.40	140.59	27.87	-40.6	-43.2	12.7	9.15e-05	0	57	0	537919488	51	5258
2026-01-13 09:37:15.41	140.50	28.04	-40.6	-43.3	12.6	9.15e-05	0	56	0	541065216	51	5292
2026-01-13 09:37:16.42	140.41	28.22	-40.7	-43.3	12.6	1.14e-04	0	56	0	544210944	51	5310
2026-01-13 09:37:17.43	140.32	28.39	-40.6	-43.2	12.7	8.69e-05	0	56	0	547356672	51	5268
2026-01-13 09:37:18.44	140.22	28.57	-40.6	-43.1	12.7	6.63e-05	0	57	0	550502400	51	5199
2026-01-13 09:37:19.45	140.13	28.75	-40.5	-43.1	12.8	5.79e-05	0	57	0	553648128	51	5182
2026-01-13 09:37:20.46	140.03	28.92	-40.4	-43.0	13.0	5.49e-05	0	56	0	556793856	51	5105
2026-01-13 09:37:21.47	139.94	29.10	-40.5	-43.0	12.9	5.18e-05	0	56	0	559939584	51	5120
2026-01-13 09:37:22.48	139.84	29.28	-40.5	-43.0	12.9	4.11e-05	0	57	0	563085312	51	5138
2026-01-13 09:37:23.49	139.74	29.46	-40.4	-42.9	13.0	4.42e-05	0	56	0	566231040	51	5076
2026-01-13 09:37:24.50	139.64	29.65	-40.4	-42.9	13.1	2.89e-05	0	56	0	570425344	51	5043
2026-01-13 09:37:25.51	139.54	29.83	-40.3	-42.7	13.2	2.89e-05	0	57	0	573571072	51	4974
2026-01-13 09:37:26.51	139.44	30.01	-40.2	-42.6	13.3	1.98e-05	0	56	0	575668224	51	4889
2026-01-13 09:37:27.52	139.33	30.20	-40.1	-42.5	13.5	1.29e-05	0	57	0	578813952	51	4837
2026-01-13 09:37:28.53	139.23	30.39	-40.1	-42.4	13.5	1.22e-05	0	57	0	581959680	51	4787
2026-01-13 09:37:29.55	139.12	30.58	-40.1	-42.4	13.6	8.30e-06	0	57	0	586153984	51	4769
2026-01-13 09:37:30.55	139.01	30.76	-40.0	-42.3	13.7	9.10e-06	0	57	0	589299712	51	4758
2026-01-13 09:37:31.56	138.90	30.95	-40.0	-42.3	13.7	9.10e-06	0	57	0	592445440	51	4730
2026-01-13 09:37:32.57	138.79	31.14	-40.0	-42.3	13.7	6.10e-06	0	57	0	595591168	51	4729
2026-01-13 09:37:33.58	138.68	31.34	-40.1	-42.4	13.6	5.30e-06	0	57	0	597688320	51	4788
2026-01-13 09:37:34.59	138.57	31.53	-40.1	-42.4	13.5	1.22e-05	0	57	0	601882624	51	4802
2026-01-13 09:37:35.60	138.46	31.72	-40.2	-42.6	13.4	1.67e-05	0	56	0	605028352	51	4884
2026-01-13 09:37:36.61	138.34	31.92	-40.3	-42.7	13.3	2.13e-05	0	57	0	608174080	51	4939
2026-01-13 09:37:37.62	138.22	32.12	-40.3	-42.8	13.2	1.75e-05	0	57	0	611319808	51	4994
2026-01-13 09:37:38.63	138.10	32.31	-40.4	-42.9	13.1	2.74e-05	0	57	0	614465536	51	5058
2026-01-13 09:37:39.64	137.98	32.51	-40.4	-42.9	13.1	3.43e-05	0	57	0	617611264	51	5047
2026-01-13 09:37:40.64	137.86	32.71	-40.4	-42.9	13.1	2.59e-05	0	57	0	620756992	51	5051
2026-01-13 09:37:41.65	137.74	32.91	-40.4	-42.9	13.0	2.97e-05	0	57	0	623902720	51	5076
2026-01-13 09:37:42.66	137.62	33.12	-40.4	-42.8	13.1	3.20e-05	0	57	0	627048448	51	5019
2026-01-13 09:37:43.67	137.49	33.32	-40.4	-42.9	13.0	3.35e-05	0	57	0	630194176	51	5070
2026-01-13 09:37:44.68	137.36	33.53	-40.5	-42.9	13.0	2.51e-05	0	57	0	633339904	51	5084
2026-01-13 09:37:45.69	137.23	33.73	-40.5	-43.0	13.0	2.36e-05	0	57	0	636485632	51	5116
2026-01-13 09:37:46.70	137.10	33.94	-40.6	-43.1	12.9	2.97e-05	0	57	0	639631360	51	5193
2026-01-13 09:37:47.71	136.97	34.15	-40.6	-43.1	12.8	6.02e-05	0	57	0	642777088	51	5210
2026-01-13 09:37:48.72	136.83	34.36	-40.7	-43.3	12.6	7.01e-05	0	57	0	645922816	52	4997
2026-01-13 09:37:49.74	136.70	34.57	-40.8	-43.5	12.4	1.21e-04	0	57	0	649068544	52	5123
2026-01-13 09:37:50.75	136.56	34.79	-40.9	-43.6	12.3	1.81e-04	0	57	0	652214272	52	5190
2026-01-13 09:37:51.75	136.42	35.00	-40.9	-43.7	12.1	2.70e-04	0	57	0	655360000	52	5245
2026-01-13 09:37:52.76	136.28	35.21	-41.1	-44.0	11.8	3.56e-04	0	57	0	658505728	52	5442
2026-01-13 09:37:53.78	136.13	35.43	-41.2	-44.2	11.7	5.19e-04	0	57	0	661651456	53	5222
2026-01-13 09:37:54.79	135.98	35.65	-41.3	-44.3	11.5	7.18e-04	0	57	0	664797184	53	5318
2026-01-13 09:37:55.80	135.84	35.87	-41.4	-44.5	11.4	9.18e-04	0	57	0	667942912	53	5427
2026-01-13 09:37:56.80	135.69	36.09	-41.5	-44.6	11.2	1.30e-03	0	57	0	671088640	53	5513
2026-01-13 09:37:57.81	135.54	36.31	-41.6	-44.8	11.1	1.50e-03	0	57	0	674234368	53	5609
2026-01-13 09:37:58.82	135.38	36.53	-41.6	-44.8	11.1	1.66e-03	0	57	0	677380096	53	5638
2026-01-13 09:37:59.83	135.23	36.75	-41.6	-44.9	11.0	2.06e-03	0	57	0	680525824	53	5689
2026-01-13 09:38:00.84	135.07	36.98	-41.6	-44.9	11.0	2.10e-03	0	57	0	683671552	53	5694
2026-01-13 09:38:01.85	134.91	37.21	-41.7	-45.0	10.9	2.20e-03	0	57	0	686817280	54	5464
2026-01-13 09:38:02.86	134.74	37.43	-41.8	-45.2	10.7	2.88e-03	0	57	0	689963008	54	5580
2026-01-13 09:38:03.87	134.58	37.66	-41.8	-45.1	10.8	2.54e-03	0	57	0	693108736	54	5470
2026-01-13 09:38:04.88	134.41	37.89	-41.9	-45.3	10.6	3.34e-03	0	57	0	696254464	54	5623
2026-01-13 09:38:05.89	134.24	38.13	-42.0	-45.5	10.4	3.95e-03	0	57	0	699400192	54	5736
2026-01-13 09:38:06.90	134.07	38.36	-41.9	-45.4	10.5	4.06e-03	0	57	0	702545920	54	5677
2026-01-13 09:38:07.91	133.89	38.59	-41.9	-45.3	10.5	4.18e-03	0	57	0	705691648	54	5654
2026-01-13 09:38:08.92	133.71	38.83	-41.8	-45.2	10.7	3.06e-03	0	57	0	708837376	54	5541
2026-01-13 09:38:09.93	133.53	39.07	-41.8	-45.1	10.8	2.63e-03	0	57	0	711983104	54	5493
2026-01-13 09:38:10.93	133.35	39.30	-41.9	-45.2	10.7	2.93e-03	0	57	0	715128832	54	5568
2026-01-13 09:38:11.94	133.17	39.54	-41.8	-45.1	10.8	2.66e-03	0	57	0	718274560	54	5480
2026-01-13 09:38:12.95	132.98	39.78	-41.9	-45.3	10.6	2.99e-03	0	57	0	721420288	54	5612
2026-01-13 09:38:13.96	132.79	40.03	-42.1	-45.6	10.3	4.40e-03	0	57	0	724566016	54	5809
2026-01-13 09:38:14.97	132.59	40.27	-42.1	-45.7	10.1	5.69e-03	0	57	0	727711744	54	5916
2026-01-13 09:38:15.97	132.40	40.51	-42.2	-45.9	10.0	8.23e-03	0	57	0	730857472	55	5703
2026-01-13 09:38:16.98	132.20	40.76	-42.4	-46.2	9.7	1.07e-02	0	57	0	734003200	55	5913
2026-01-13 09:38:17.99	131.99	41.00	-42.3	-46.2	9.8	1.13e-02	0	57	0	737148928	55	5864
2026-01-13 09:38:19.00	131.78	41.25	-42.3	-46.0	9.9	9.18e-03	0	57	0	740294656	55	5759
2026-01-13 09:38:20.01	131.57	41.50	-42.0	-45.6	10.3	6.92e-03	0	57	0	743440384	55	5496
2026-01-13 09:38:21.02	131.36	41.75	-42.0	-45.4	10.4	5.19e-03	0	57	0	746586112	55	5395
2026-01-13 09:38:22.03	131.14	42.01	-41.8	-45.0	10.8	2.60e-03	0	57	0	749731840	55	5136
2026-01-13 09:38:23.04	130.92	42.26	-41.8	-45.0	10.9	2.05e-03	0	57	0	752877568	55	5144
2026-01-13 09:38:24.05	130.70	42.52	-41.7	-45.0	10.9	2.31e-03	0	57	0	756023296	55	5106
2026-01-13 09:38:25.06	130.47	42.77	-41.8	-45.1	10.8	2.55e-03	0	57	0	759169024	55	5166
2026-01-13 09:38:26.07	130.24	43.03	-41.8	-45.0	10.9	2.40e-03	0	57	0	762314752	55	5153
2026-01-13 09:38:27.08	130.01	43.29	-41.9	-45.3	10.6	3.15e-03	0	57	0	765460480	55	5303
2026-01-13 09:38:28.09	129.77	43.55	-42.0	-45.4	10.5	4.43e-03	0	57	0	768606208	55	5394
2026-01-13 09:38:29.10	129.53	43.81	-42.1	-45.7	10.2	5.91e-03	0	57	0	771751936	55	5545
2026-01-13 09:38:30.11	129.28	44.07	-42.2	-45.9	9.9	8.45e-03	0	57	0	774897664	55	5721
2026-01-13 09:38:31.12	129.03	44.33	-42.2	-45.9	10.0	8.39e-03	0	57	0	778043392	55	5674
2026-01-13 09:38:32.14	128.77	44.60	-42.1	-45.7	10.2	6.20e-03	0	57	0	781189120	55	5552
2026-01-13 09:38:33.15	128.51	44.87	-42.0	-45.5	10.5	4.62e-03	0	57	0	784334848	55	5416
2026-01-13 09:38:34.16	128.25	45.13	-41.7	-44.8	11.1	1.99e-03	0	57	0	787480576	55	5028
2026-01-13 09:38:35.17	127.98	45.40	-41.6	-44.6	11.3	1.21e-03	0	57	0	790626304	55	4904
2026-01-13 09:38:36.18	127.71	45.67	-41.5	-44.5	11.5	1.16e-03	0	57	0	793772032	55	4841
2026-01-13 09:38:37.19	127.43	45.94	-41.5	-44.5	11.4	7.91e-04	0	57	0	796917760	54	5149
2026-01-13 09:38:38.20	127.15	46.21	-41.7	-44.8	11.2	1.19e-03	0	57	0	800063488	54	5315
2026-01-13 09:38:39.21	126.86	46.48	-41.9	-45.2	10.8	2.43e-03	0	57	0	803209216	54	5564
2026-01-13 09:38:40.22	126.57	46.76	-42.0	-45.4	10.5	3.68e-03	0	57	0	806354944	54	5714
2026-01-13 09:38:41.23	126.27	47.03	-42.0	-45.4	10.6	3.61e-03	0	57	0	809500672	54	5679
2026-01-13 09:38:42.24	125.97	47.31	-41.9	-45.3	10.7	3.35e-03	0	57	0	812646400	54	5607
2026-01-13 09:38:43.24	125.66	47.58	-41.8	-45.0	10.9	2.12e-03	0	57	0	815792128	54	5443
2026-01-13 09:38:44.25	125.35	47.86	-41.7	-44.9	11.1	1.84e-03	0	57	0	818937856	54	5382
2026-01-13 09:38:45.27	125.02	48.14	-41.7	-44.9	11.1	1.62e-03	0	57	0	822083584	54	5395
2026-01-13 09:38:46.28	124.70	48.41	-41.7	-45.0	11.0	1.76e-03	0	57	0	825229312	54	5406
2026-01-13 09:38:47.29	124.37	48.69	-41.7	-44.9	11.1	1.50e-03	0	57	0	828375040	54	5347
2026-01-13 09:38:48.30	124.03	48.97	-41.6	-44.8	11.2	1.35e-03	0	57	0	831520768	54	5288
2026-01-13 09:38:49.31	123.68	49.25	-41.6	-44.8	11.2	1.31e-03	0	57	0	834666496	54	5286
2026-01-13 09:38:50.32	123.33	49.53	-41.6	-44.7	11.3	1.25e-03	0	57	0	837812224	54	5257
2026-01-13 09:38:51.33	122.98	49.82	-41.6	-44.7	11.3	1.15e-03	0	57	0	840957952	54	5247
2026-01-13 09:38:52.34	122.61	50.10	-41.7	-44.9	11.1	1.42e-03	0	57	0	844103680	54	5354
2026-01-13 09:38:53.35	122.24	50.38	-41.7	-44.9	11.1	1.61e-03	0	57	0	847249408	54	5345
2026-01-13 09:38:54.36	121.87	50.66	-41.6	-44.8	11.2	1.40e-03	0	57	0	850395136	54	5295
2026-01-13 09:38:55.37	121.48	50.95	-41.4	-44.3	11.6	1.10e-03	0	57	0	853540864	54	5029
2026-01-13 09:38:56.38	121.09	51.23	-41.1	-43.9	12.1	3.17e-04	0	57	0	856686592	54	4767
2026-01-13 09:38:57.39	120.69	51.51	-41.1	-43.9	12.1	2.53e-04	0	57	0	859832320	54	4760
2026-01-13 09:38:58.39	120.29	51.80	-41.2	-44.1	11.9	3.58e-04	0	57	0	862978048	54	4891
2026-01-13 09:38:59.40	119.87	52.08	-41.4	-44.4	11.6	7.16e-04	0	57	0	866123776	54	5087
2026-01-13 09:39:00.41	119.45	52.36	-41.5	-44.5	11.5	8.51e-04	0	57	0	869269504	54	5130
2026-01-13 09:39:01.42	119.02	52.65	-41.4	-44.3	11.6	6.88e-04	0	57	0	872415232	54	5023
2026-01-13 09:39:02.43	118.58	52.93	-41.1	-43.9	12.1	4.05e-04	0	57	0	875560960	54	4760
2026-01-13 09:39:03.44	118.13	53.22	-40.9	-43.6	12.4	1.59e-04	0	57	0	878706688	53	4877
2026-01-13 09:39:04.45	117.67	53.50	-40.8	-43.5	12.5	1.27e-04	0	57	0	881852416	53	4825
2026-01-13 09:39:05.46	117.20	53.78	-40.4	-42.9	13.2	2.97e-05	0	57	0	884998144	52	4763
2026-01-13 09:39:06.47	116.73	54.07	-40.3	-42.7	13.3	1.60e-05	0	57	0	888143872	52	4690
2026-01-13 09:39:07.48	116.24	54.35	-40.4	-42.8	13.2	1.98e-05	0	57	0	891289600	52	4706
2026-01-13 09:39:08.49	115.75	54.63	-40.5	-42.9	13.1	2.74e-05	0	57	0	894435328	52	4802
2026-01-13 09:39:09.50	115.24	54.91	-40.4	-42.8	13.2	2.13e-05	0	57	0	897581056	52	4746
2026-01-13 09:39:10.51	114.73	55.19	-40.2	-42.6	13.4	2.44e-05	0	57	0	900726784	52	4607
2026-01-13 09:39:11.52	114.20	55.47	-40.2	-42.5	13.6	1.06e-05	0	57	0	903872512	52	4557
2026-01-13 09:39:12.53	113.67	55.75	-40.3	-42.7	13.3	1.67e-05	0	57	0	908066816	52	4663
2026-01-13 09:39:13.54	113.12	56.03	-40.5	-43.0	13.0	2.05e-05	0	57	0	911212544	52	4867
2026-01-13 09:39:14.55	112.56	56.31	-40.5	-43.0	13.0	3.66e-05	0	57	0	913309696	52	4862
2026-01-13 09:39:15.56	111.99	56.58	-40.4	-42.9	13.2	1.75e-05	0	57	0	916455424	52	4783
2026-01-13 09:39:16.57	111.41	56.85	-40.3	-42.6	13.4	2.21e-05	0	57	0	919601152	52	4630
2026-01-13 09:39:17.58	110.82	57.13	-40.1	-42.3	13.7	6.10e-06	0	57	0	923795456	52	4493
2026-01-13 09:39:18.59	110.22	57.40	-40.3	-42.6	13.4	4.50e-06	0	57	0	926941184	52	4642
2026-01-13 09:39:19.60	109.60	57.66	-40.4	-42.9	13.2	2.36e-05	0	57	0	930086912	52	4783
2026-01-13 09:39:20.61	108.97	57.93	-40.3	-42.8	13.3	1.67e-05	0	57	0	933232640	52	4722
2026-01-13 09:39:21.62	108.33	58.20	-40.0	-42.3	13.7	8.30e-06	0	57	0	936378368	52	4455
2026-01-13 09:39:22.63	107.68	58.46	-39.8	-41.9	14.2	3.00e-06	0	57	0	939524096	51	4525
2026-01-13 09:39:23.64	107.01	58.72	-39.8	-41.9	14.2	1.50e-06	0	57	0	942669824	51	4503
2026-01-13 09:39:24.65	106.33	58.97	-39.8	-42.0	14.1	7.00e-07	0	57	0	945815552	51	4556
2026-01-13 09:39:25.66	105.64	59.23	-40.0	-42.2	13.9	2.20e-06	0	57	0	948961280	51	4695
2026-01-13 09:39:26.67	104.93	59.48	-40.1	-42.3	13.8	3.80e-06	0	57	0	952107008	51	4754
2026-01-13 09:39:27.69	104.20	59.73	-39.9	-42.0	14.1	3.80e-06	0	57	0	955252736	51	4588
2026-01-13 09:39:28.70	103.47	59.98	-39.5	-41.5	14.6	1.50e-06	0	57	0	958398464	51	4293
2026-01-13 09:39:29.71	102.72	60.22	-39.4	-41.4	14.7	1.50e-06	0	57	0	961544192	50	4522
2026-01-13 09:39:30.72	101.96	60.46	-39.7	-41.8	14.4	7.00e-07	0	57	0	964689920	50	4706
2026-01-13 09:39:31.73	101.18	60.69	-39.7	-41.8	14.3	0.00e+00	0	57	0	967835648	50	4751
2026-01-13 09:39:32.74	100.39	60.92	-39.6	-41.7	14.5	2.20e-06	0	57	0	970981376	50	4675
2026-01-13 09:39:33.75	99.58	61.15	-39.4	-41.4	14.7	0.00e+00	0	57	0	974127104	50	4530
2026-01-13 09:39:34.76	98.76	61.37	-39.5	-41.6	14.6	7.00e-07	0	57	0	977272832	50	4610
2026-01-13 09:39:35.77	97.93	61.59	-39.6	-41.7	14.4	7.00e-07	0	57	0	980418560	50	4683
2026-01-13 09:39:36.78	97.08	61.80	-39.7	-41.8	14.4	7.00e-07	0	57	0	983564288	50	4750
2026-01-13 09:39:37.79	96.21	62.01	-39.8	-41.9	14.2	1.50e-06	0	57	0	986710016	50	4795
2026-01-13 09:39:38.80	95.33	62.21	-39.9	-42.1	14.1	3.00e-06	0	57	0	989855744	50	4900
2026-01-13 09:39:39.81	94.44	62.41	-40.2	-42.5	13.7	6.10e-06	0	57	0	993001472	50	5110
2026-01-13 09:39:40.82	93.53	62.60	-39.8	-41.9	14.2	1.50e-06	0	57	0	996147200	50	4804
2026-01-13 09:39:41.83	92.61	62.79	-39.5	-41.6	14.5	7.00e-07	0	57	0	999292928	50	4612
2026-01-13 09:39:42.84	91.67	62.97	-39.3	-41.2	14.8	0.00e+00	0	58	0	1002438656	50	4440
2026-01-13 09:39:43.85	90.72	63.14	-39.2	-41.2	15.0	7.00e-07	0	57	0	1005584384	50	4394
2026-01-13 09:39:44.86	89.75	63.31	-39.2	-41.1	14.9	0.00e+00	0	57	0	1008730112	50	4390
2026-01-13 09:39:45.88	88.76	63.47	-39.1	-41.0	15.0	0.00e+00	0	57	0	1011875840	50	4307
2026-01-13 09:39:46.89	87.77	63.63	-39.1	-41.0	15.0	0.00e+00	0	57	0	1015021568	50	4314
2026-01-13 09:39:47.90	86.77	63.78	-39.2	-41.2	14.9	0.00e+00	0	57	0	1018167296	50	4403
2026-01-13 09:39:48.91	85.75	63.92	-39.4	-41.4	14.7	0.00e+00	0	57	0	1021313024	50	4524
2026-01-13 09:39:49.92	84.72	64.05	-39.5	-41.5	14.5	0.00e+00	0	57	0	1024458752	50	4589
2026-01-13 09:39:50.93	83.68	64.18	-39.7	-41.8	14.3	7.00e-07	0	57	0	1027604480	50	4725
2026-01-13 09:39:51.94	82.63	64.30	-39.7	-41.9	14.2	1.50e-06	0	57	0	1030750208	50	4774
2026-01-13 09:39:52.95	81.57	64.41	-39.6	-41.7	14.3	7.00e-07	0	57	0	1033895936	50	4694
2026-01-13 09:39:53.96	80.49	64.51	-39.2	-41.1	14.9	0.00e+00	0	57	0	1037041664	50	4381
2026-01-13 09:39:54.97	79.41	64.61	-39.2	-41.1	14.9	0.00e+00	0	57	0	1040187392	50	4374
2026-01-13 09:39:55.98	78.32	64.69	-39.1	-41.0	15.1	0.00e+00	0	57	0	1043333120	50	4308
2026-01-13 09:39:56.99	77.22	64.77	-39.1	-41.0	15.1	0.00e+00	0	57	0	1046478848	50	4305
2026-01-13 09:39:58.00	76.11	64.85	-39.1	-41.0	15.1	0.00e+00	0	58	0	1049624576	50	4308
2026-01-13 09:39:59.01	75.00	64.91	-39.2	-41.1	15.0	0.00e+00	0	57	0	1052770304	50	4364
2026-01-13 09:40:00.02	73.88	64.96	-39.3	-41.2	14.8	0.00e+00	0	57	0	1055916032	50	4431
2026-01-13 09:40:01.03	72.76	65.01	-39.3	-41.3	14.9	0.00e+00	0	57	0	1059061760	50	4457
2026-01-13 09:40:02.04	71.63	65.04	-39.4	-41.3	14.7	7.00e-07	0	58	0	1062207488	50	4492
2026-01-13 09:40:03.05	70.50	65.07	-39.3	-41.2	14.9	0.00e+00	0	57	0	1065353216	50	4418
2026-01-13 09:40:04.06	69.37	65.09	-39.6	-41.7	14.4	0.00e+00	0	57	0	1068498944	50	4702
2026-01-13 09:40:05.07	68.23	65.10	-39.8	-41.9	14.2	7.00e-07	0	58	0	1071644672	50	4777
2026-01-13 09:40:06.08	67.10	65.10	-39.7	-41.7	14.3	0.00e+00	0	57	0	1074790400	50	4704
2026-01-13 09:40:07.09	65.96	65.09	-39.7	-41.8	14.2	3.00e-06	0	57	0	1077936128	50	4743
2026-01-13 09:40:08.10	64.83	65.08	-39.5	-41.6	14.5	0.00e+00	0	57	0	1081081856	50	4606
2026-01-13 09:40:09.11	63.70	65.05	-39.4	-41.4	14.6	0.00e+00	0	57	0	1084227584	50	4512
2026-01-13 09:40:10.12	62.57	65.02	-39.6	-41.6	14.5	1.50e-06	0	57	0	1087373312	50	4628
2026-01-13 09:40:11.13	61.44	64.98	-39.8	-41.9	14.2	0.00e+00	0	58	0	1090519040	50	4799
2026-01-13 09:40:12.15	60.31	64.93	-39.4	-41.4	14.6	0.00e+00	0	58	0	1093664768	50	4525
2026-01-13 09:40:13.16	59.20	64.87	-39.4	-41.3	14.7	1.50e-06	0	58	0	1096810496	50	4491
2026-01-13 09:40:14.17	58.09	64.80	-39.6	-41.6	14.4	0.00e+00	0	58	0	1099956224	50	4649
2026-01-13 09:40:15.18	56.99	64.72	-40.0	-42.2	13.9	4.50e-06	0	57	0	1103101952	50	4975
2026-01-13 09:40:16.19	55.90	64.64	-39.8	-42.0	14.1	0.00e+00	0	57	0	1106247680	50	4835
2026-01-13 09:40:17.20	54.81	64.54	-39.4	-41.4	14.7	0.00e+00	0	58	0	1109393408	50	4509
2026-01-13 09:40:18.21	53.74	64.44	-39.4	-41.4	14.7	1.50e-06	0	57	0	1112539136	50	4507
2026-01-13 09:40:19.22	52.67	64.33	-39.3	-41.3	14.8	0.00e+00	0	58	0	1115684864	50	4464
2026-01-13 09:40:20.23	51.62	64.22	-39.2	-41.1	15.0	7.00e-07	0	57	0	1118830592	50	4358
2026-01-13 09:40:21.23	50.58	64.09	-39.1	-41.0	15.0	0.00e+00	0	57	0	1121976320	50	4310
2026-01-13 09:40:22.24	49.55	63.96	-39.6	-41.6	14.4	7.00e-07	0	58	0	1125122048	50	4639
2026-01-13 09:40:23.25	48.53	63.82	-39.8	-41.9	14.1	1.50e-06	0	58	0	1128267776	50	4810
2026-01-13 09:40:24.26	47.52	63.68	-39.5	-41.5	14.6	7.00e-07	0	57	0	1131413504	50	4570
2026-01-13 09:40:25.27	46.53	63.53	-39.3	-41.3	14.8	1.50e-06	0	57	0	1134559232	50	4456
2026-01-13 09:40:26.28	45.54	63.37	-39.6	-41.6	14.5	0.00e+00	0	58	0	1137704960	50	4625
2026-01-13 09:40:27.29	44.58	63.20	-39.7	-41.8	14.3	7.00e-07	0	58	0	1140850688	50	4743
2026-01-13 09:40:28.30	43.62	63.03	-39.7	-41.9	14.3	1.50e-06	0	58	0	1143996416	50	4763
2026-01-13 09:40:29.31	42.68	62.85	-39.7	-41.7	14.4	1.50e-06	0	57	0	1147142144	50	4695
2026-01-13 09:40:30.32	41.75	62.67	-39.7	-41.8	14.3	7.00e-07	0	57	0	1150287872	50	4751
2026-01-13 09:40:31.33	40.84	62.48	-40.0	-42.1	14.0	3.80e-06	0	57	0	1153433600	50	4924
2026-01-13 09:40:32.35	39.94	62.28	-40.1	-42.3	13.8	5.30e-06	0	57	0	1156579328	50	5027
2026-01-13 09:40:33.36	39.05	62.08	-40.0	-42.3	13.7	5.30e-06	0	58	0	1159725056	50	4988
2026-01-13 09:40:34.37	38.19	61.87	-40.0	-42.2	13.8	1.50e-06	0	57	0	1162870784	50	4957
2026-01-13 09:40:35.38	37.33	61.66	-40.2	-42.5	13.6	3.80e-06	0	58	0	1166016512	50	5105
2026-01-13 09:40:36.39	36.49	61.45	-40.2	-42.5	13.5	9.10e-06	0	58	0	1169162240	51	4845
2026-01-13 09:40:37.39	35.68	61.23	-39.9	-42.1	13.9	4.50e-06	0	57	0	1172307968	51	4622
2026-01-13 09:40:38.40	34.87	61.00	-39.6	-41.7	14.3	1.50e-06	0	58	0	1175453696	51	4422
2026-01-13 09:40:39.41	34.07	60.78	-39.6	-41.6	14.4	0.00e+00	0	58	0	1178599424	51	4382
2026-01-13 09:40:40.42	33.29	60.54	-39.8	-41.9	14.1	7.00e-07	0	57	0	1181745152	51	4527
2026-01-13 09:40:41.43	32.52	60.31	-40.0	-42.2	13.9	4.50e-06	0	58	0	1184890880	51	4662
2026-01-13 09:40:42.44	31.77	60.07	-40.0	-42.2	13.8	6.80e-06	0	58	0	1188036608	51	4704
2026-01-13 09:40:43.45	31.03	59.82	-39.8	-41.9	14.2	7.00e-07	0	57	0	1191182336	51	4523
2026-01-13 09:40:44.46	30.31	59.58	-39.5	-41.5	14.6	0.00e+00	0	57	0	1194328064	50	4555
2026-01-13 09:40:45.47	29.60	59.33	-39.4	-41.4	14.6	7.00e-07	0	58	0	1197473792	50	4531
2026-01-13 09:40:46.48	28.90	59.08	-39.8	-42.0	14.1	2.20e-06	0	58	0	1200619520	50	4852
2026-01-13 09:40:47.49	28.22	58.82	-40.1	-42.4	13.7	7.60e-06	0	58	0	1204813824	50	5065
2026-01-13 09:40:48.50	27.55	58.56	-40.3	-42.6	13.5	9.90e-06	0	58	0	1206910976	51	4883
2026-01-13 09:40:49.51	26.89	58.30	-40.3	-42.6	13.5	8.30e-06	0	57	0	1210056704	51	4895
2026-01-13 09:40:50.52	26.25	58.04	-40.1	-42.3	13.8	6.80e-06	0	58	0	1213202432	51	4746
2026-01-13 09:40:51.53	25.62	57.77	-39.8	-41.9	14.2	0.00e+00	0	57	0	1217396736	51	4512
2026-01-13 09:40:52.54	25.00	57.51	-40.2	-42.5	13.6	5.30e-06	0	57	0	1220542464	51	4835
2026-01-13 09:40:53.55	24.39	57.24	-40.7	-43.3	12.7	4.27e-05	0	58	0	1223688192	51	5313
2026-01-13 09:40:54.56	23.79	56.97	-40.9	-43.5	12.4	1.40e-04	0	58	0	1226833920	52	5148
2026-01-13 09:40:55.57	23.21	56.70	-40.6	-43.0	12.9	6.71e-05	0	57	0	1229979648	52	4867
2026-01-13 09:40:56.58	22.64	56.42	-40.0	-42.2	13.9	8.30e-06	0	57	0	1233125376	51	4679
2026-01-13 09:40:57.59	22.08	56.15	-39.7	-41.8	14.3	2.20e-06	0	57	0	1236271104	51	4471
2026-01-13 09:40:58.60	21.53	55.87	-39.9	-42.1	14.0	2.20e-06	0	58	0	1239416832	51	4621
2026-01-13 09:40:59.61	20.99	55.59	-40.3	-42.6	13.5	3.00e-06	0	58	0	1242562560	51	4924
2026-01-13 09:41:00.62	20.46	55.31	-40.4	-42.7	13.4	1.37e-05	0	58	0	1245708288	51	4951
2026-01-13 09:41:01.63	19.94	55.04	-40.4	-42.8	13.3	1.22e-05	0	58	0	1248854016	51	5010
2026-01-13 09:41:02.64	19.44	54.76	-41.0	-43.7	12.3	1.07e-04	0	57	0	1251999744	52	5221
2026-01-13 09:41:03.65	18.94	54.47	-41.2	-44.1	11.9	4.20e-04	0	58	0	1255145472	53	5194
2026-01-13 09:41:04.66	18.45	54.19	-40.9	-43.5	12.4	2.54e-04	0	58	0	1258291200	53	4854
2026-01-13 09:41:05.67	17.97	53.91	-40.6	-43.2	12.8	5.56e-05	0	57	0	1261436928	53	4680
2026-01-13 09:41:06.68	17.51	53.63	-40.7	-43.3	12.8	5.64e-05	0	58	0	1264582656	53	4719
2026-01-13 09:41:07.69	17.05	53.35	-40.7	-43.3	12.7	6.10e-05	0	58	0	1267728384	52	5036
2026-01-13 09:41:08.70	16.59	53.06	-41.0	-43.8	12.3	1.35e-04	0	58	0	1270874112	52	5293
2026-01-13 09:41:09.71	16.15	52.78	-41.4	-44.4	11.5	6.23e-04	0	57	0	1274019840	53	5398
2026-01-13 09:41:10.71	15.72	52.50	-41.8	-45.2	10.8	2.24e-03	0	58	0	1277165568	54	5557
2026-01-13 09:41:11.73	15.29	52.21	-41.8	-45.0	10.9	2.57e-03	0	58	0	1280311296	54	5456
2026-01-13 09:41:12.74	14.88	51.93	-41.6	-44.7	11.2	1.52e-03	0	58	0	1283457024	54	5268
2026-01-13 09:41:13.74	14.47	51.65	-41.2	-44.1	11.9	5.58e-04	0	57	0	1286602752	54	4901
2026-01-13 09:41:14.75	14.07	51.37	-40.7	-43.3	12.7	1.37e-04	0	58	0	1289748480	53	4738
2026-01-13 09:41:15.76	13.68	51.08	-40.5	-43.0	13.0	4.11e-05	0	57	0	1292894208	52	4831
2026-01-13 09:41:16.77	13.29	50.80	-40.3	-42.7	13.3	8.30e-06	0	58	0	1296039936	52	4683
2026-01-13 09:41:17.78	12.91	50.52	-40.6	-43.2	12.9	3.43e-05	0	58	0	1299185664	51	5244
2026-01-13 09:41:18.79	12.54	50.24	-41.1	-44.1	11.9	2.00e-04	0	58	0	1302331392	53	5206
2026-01-13 09:41:19.80	12.17	49.96	-41.6	-44.7	11.3	9.95e-04	0	58	0	1305477120	53	5546
2026-01-13 09:41:20.81	11.81	49.68	-41.4	-44.5	11.4	1.05e-03	0	58	0	1308622848	53	5405
2026-01-13 09:41:21.82	11.46	49.40	-41.4	-44.3	11.5	8.35e-04	0	58	0	1311768576	53	5324
2026-01-13 09:41:22.84	11.11	49.11	-41.4	-44.4	11.5	8.42e-04	0	58	0	1314914304	53	5358
2026-01-13 09:41:23.85	10.77	48.84	-41.4	-44.4	11.5	8.70e-04	0	58	0	1318060032	53	5368
2026-01-13 09:41:24.86	10.44	48.56	-41.6	-44.8	11.1	1.29e-03	0	58	0	1321205760	53	5593
2026-01-13 09:41:25.87	10.12	48.28	-41.8	-45.1	10.8	2.12e-03	0	58	0	1324351488	54	5475
2026-01-13 09:41:26.88	9.79	48.00	-41.7	-44.8	11.1	2.04e-03	0	57	0	1327497216	54	5314
2026-01-13 09:41:27.89	9.48	47.73	-41.7	-45.0	10.8	2.22e-03	0	58	0	1330642944	54	5419
2026-01-13 09:41:28.90	9.17	47.45	-42.0	-45.6	10.1	4.78e-03	0	58	0	1333788672	54	5821
2026-01-13 09:41:29.91	8.86	47.18	-42.2	-46.4	9.1	2.16e-02	0	58	0	1336934400	55	6038
2026-01-13 09:41:30.92	8.57	46.91	-42.6	-46.8	8.8	3.35e-02	0	58	0	1340080128	55	6346
2026-01-13 09:41:31.93	8.27	46.63	-42.4	-46.3	9.5	1.72e-02	0	58	0	1343225856	55	5933
2026-01-13 09:41:32.94	7.98	46.36	-41.8	-45.1	10.7	5.65e-03	0	58	0	1346371584	55	5205
2026-01-13 09:41:33.95	7.70	46.09	-41.3	-44.3	11.5	1.13e-03	0	58	0	1349517312	54	5030
2026-01-13 09:41:34.96	7.42	45.82	-41.2	-44.1	11.7	5.35e-04	0	58	0	1352663040	53	5196
2026-01-13 09:41:35.97	7.15	45.55	-41.3	-44.3	11.6	6.96e-04	0	58	0	1355808768	53	5280
2026-01-13 09:41:36.98	6.88	45.29	-41.5	-44.7	11.1	1.30e-03	0	58	0	1358954496	53	5542
2026-01-13 09:41:37.99	6.61	45.02	-41.7	-44.9	10.9	2.05e-03	0	58	0	1362100224	53	5664
2026-01-13 09:41:39.00	6.35	44.76	-41.7	-44.9	11.0	1.95e-03	0	58	0	1365245952	53	5666
2026-01-13 09:41:40.01	6.10	44.49	-41.6	-44.8	11.1	1.87e-03	0	58	0	1368391680	53	5611
2026-01-13 09:41:41.03	5.84	44.23	-41.6	-44.8	11.1	1.44e-03	0	58	0	1371537408	53	5599
2026-01-13 09:41:42.04	5.60	43.97	-41.8	-45.0	10.8	2.37e-03	0	58	0	1374683136	54	5457
2026-01-13 09:41:43.05	5.35	43.70	-42.0	-45.4	10.4	4.26e-03	0	58	0	1377828864	54	5715
2026-01-13 09:41:44.06	5.11	43.45	-42.2	-45.9	9.9	7.56e-03	0	58	0	1380974592	54	6022
2026-01-13 09:41:45.07	4.88	43.19	-42.3	-46.1	9.7	1.14e-02	0	58	0	1384120320	55	5804
2026-01-13 09:41:46.08	4.65	42.93	-42.4	-46.2	9.6	1.34e-02	0	58	0	1387266048	55	5895
2026-01-13 09:41:47.09	4.42	42.68	-42.0	-45.5	10.3	7.97e-03	0	58	0	1390411776	55	5463
2026-01-13 09:41:48.10	4.19	42.42	-41.7	-45.0	10.9	2.80e-03	0	58	0	1393557504	55	5123
2026-01-13 09:41:49.11	3.97	42.17	-41.7	-44.9	10.9	2.15e-03	0	58	0	1396703232	55	5094
2026-01-13 09:41:50.12	3.76	41.92	-41.7	-45.0	10.8	2.55e-03	0	58	0	1399848960	55	5131
2026-01-13 09:41:51.13	3.54	41.67	-41.7	-44.9	10.9	2.39e-03	0	58	0	1402994688	55	5095
2026-01-13 09:41:52.14	3.33	41.42	-41.7	-45.0	10.8	2.69e-03	0	58	0	1406140416	55	5138
2026-01-13 09:41:53.15	3.12	41.17	-41.6	-44.8	11.0	2.49e-03	0	58	0	1409286144	55	5010
2026-01-13 09:41:54.16	2.92	40.92	-41.4	-44.5	11.4	1.20e-03	0	58	0	1412431872	54	5131
2026-01-13 09:41:55.17	2.72	40.68	-41.4	-44.5	11.4	1.03e-03	0	58	0	1415577600	54	5123
2026-01-13 09:41:56.18	2.52	40.43	-41.5	-44.6	11.2	1.38e-03	0	58	0	1418723328	54	5216
2026-01-13 09:41:57.19	2.33	40.19	-41.6	-44.7	11.2	1.40e-03	0	58	0	1421869056	54	5243
2026-01-13 09:41:58.20	2.13	39.95	-41.7	-45.0	10.9	2.02e-03	0	58	0	1425014784	54	5422
2026-01-13 09:41:59.21	1.94	39.71	-41.9	-45.3	10.6	3.14e-03	0	58	0	1428160512	54	5601
2026-01-13 09:42:00.22	1.76	39.47	-41.9	-45.3	10.5	3.64e-03	0	58	0	1431306240	54	5632
2026-01-13 09:42:01.23	1.57	39.23	-41.9	-45.3	10.6	3.74e-03	0	58	0	1434451968	54	5617
2026-01-13 09:42:02.23	1.40	39.00	-41.8	-45.1	10.7	3.45e-03	0	58	0	1437597696	54	5519
2026-01-13 09:42:03.24	1.22	38.76	-41.8	-45.0	10.8	2.71e-03	0	58	0	1440743424	54	5463
2026-01-13 09:42:04.25	1.04	38.53	-41.6	-44.8	11.0	2.14e-03	0	58	0	1443889152	54	5337
2026-01-13 09:42:05.26	0.87	38.29	-41.6	-44.7	11.1	1.56e-03	0	58	0	1447034880	54	5261
2026-01-13 09:42:06.27	0.70	38.06	-41.5	-44.7	11.1	1.62e-03	0	58	0	1450180608	54	5241
2026-01-13 09:42:07.28	0.53	37.83	-41.4	-44.5	11.3	1.18e-03	0	58	0	1453326336	54	5140
2026-01-13 09:42:08.29	0.37	37.60	-41.6	-44.9	10.9	1.70e-03	0	58	0	1456472064	54	5349
2026-01-13 09:42:09.31	0.20	37.37	-41.8	-45.1	10.7	3.07e-03	0	58	0	1459617792	54	5502
2026-01-13 09:42:10.32	0.04	37.15	-41.8	-45.2	10.6	3.31e-03	0	58	0	1462763520	54	5544
2026-01-13 09:42:11.33	359.88	36.92	-41.7	-45.0	10.8	2.55e-03	0	58	0	1465909248	54	5424
2026-01-13 09:42:12.34	359.72	36.70	-41.6	-44.9	11.0	2.16e-03	0	58	0	1469054976	54	5347
2026-01-13 09:42:13.35	359.57	36.48	-41.5	-44.5	11.3	1.49e-03	0	58	0	1472200704	54	5159
2026-01-13 09:42:14.36	359.42	36.26	-41.2	-44.1	11.8	7.46e-04	0	58	0	1475346432	54	4889
2026-01-13 09:42:15.37	359.27	36.04	-41.0	-43.8	12.1	3.23e-04	0	58	0	1478492160	54	4707
2026-01-13 09:42:16.38	359.12	35.82	-40.9	-43.6	12.2	2.14e-04	0	58	0	1481637888	53	4882
2026-01-13 09:42:17.39	358.97	35.60	-40.8	-43.5	12.4	1.59e-04	0	58	0	1484783616	53	4842
2026-01-13 09:42:18.39	358.83	35.39	-40.9	-43.7	12.1	2.61e-04	0	58	0	1487929344	53	4952
2026-01-13 09:42:19.40	358.69	35.17	-41.0	-43.9	11.9	3.87e-04	0	58	0	1491075072	53	5092
2026-01-13 09:42:20.41	358.55	34.96	-41.2	-44.2	11.6	7.11e-04	0	58	0	1494220800	53	5256
2026-01-13 09:42:21.42	358.41	34.75	-41.2	-44.2	11.6	6.44e-04	0	58	0	1497366528	53	5273
2026-01-13 09:42:22.43	358.27	34.54	-41.2	-44.2	11.6	7.45e-04	0	58	0	1500512256	53	5238
2026-01-13 09:42:23.44	358.14	34.33	-41.1	-44.1	11.7	5.80e-04	0	58	0	1503657984	53	5184
2026-01-13 09:42:24.45	358.01	34.12	-41.1	-44.1	11.7	6.02e-04	0	58	0	1506803712	53	5183
2026-01-13 09:42:25.46	357.87	33.91	-41.1	-44.0	11.7	4.71e-04	0	58	0	1509949440	53	5159
2026-01-13 09:42:26.47	357.74	33.70	-41.1	-43.9	11.8	4.48e-04	0	58	0	1513095168	53	5095
2026-01-13 09:42:27.48	357.62	33.50	-40.9	-43.8	12.0	3.66e-04	0	58	0	1516240896	53	5003
2026-01-13 09:42:28.49	357.49	33.30	-40.7	-43.4	12.4	1.88e-04	0	58	0	1520435200	53	4778
2026-01-13 09:42:29.50	357.37	33.09	-40.6	-43.2	12.5	1.20e-04	0	58	0	1522532352	53	4703
2026-01-13 09:42:30.51	357.24	32.89	-40.6	-43.2	12.6	1.20e-04	0	58	0	1525678080	53	4667
2026-01-13 09:42:31.52	357.12	32.69	-40.4	-42.9	12.9	5.11e-05	0	58	0	1528823808	52	4786
2026-01-13 09:42:32.53	357.00	32.49	-40.3	-42.8	12.9	4.19e-05	0	58	0	1533018112	52	4757
2026-01-13 09:42:33.54	356.88	32.30	-40.1	-42.5	13.3	1.90e-05	0	58	0	1536163840	52	4596
2026-01-13 09:42:34.55	356.77	32.10	-40.1	-42.5	13.3	2.21e-05	0	58	0	1539309568	52	4594
2026-01-13 09:42:35.56	356.65	31.90	-40.0	-42.4	13.4	1.83e-05	0	58	0	1542455296	52	4522
2026-01-13 09:42:36.57	356.54	31.71	-40.1	-42.5	13.3	1.22e-05	0	58	0	1545601024	52	4554
2026-01-13 09:42:37.58	356.42	31.52	-40.0	-42.4	13.4	1.98e-05	0	58	0	1548746752	52	4517
2026-01-13 09:42:38.59	356.31	31.32	-40.0	-42.3	13.5	1.75e-05	0	58	0	1551892480	51	4746
2026-01-13 09:42:39.60	356.20	31.13	-39.9	-42.2	13.6	6.10e-06	0	58	0	1555038208	51	4679
2026-01-13 09:42:40.61	356.09	30.94	-39.9	-42.2	13.6	8.30e-06	0	58	0	1558183936	51	4694
2026-01-13 09:42:41.62	355.99	30.76	-39.9	-42.2	13.6	6.80e-06	0	58	0	1561329664	51	4681
2026-01-13 09:42:42.63	355.88	30.57	-40.0	-42.3	13.5	1.44e-05	0	58	0	1564475392	51	4742
2026-01-13 09:42:43.64	355.78	30.38	-40.1	-42.5	13.3	1.22e-05	0	58	0	1567621120	51	4843
2026-01-13 09:42:44.65	355.67	30.20	-40.3	-42.8	12.9	3.96e-05	0	58	0	1570766848	51	5021
2026-01-13 09:42:45.66	355.57	30.01	-40.4	-43.0	12.8	6.33e-05	0	58	0	1573912576	51	5119
2026-01-13 09:42:46.67	355.47	29.83	-40.6	-43.3	12.5	1.27e-04	0	58	0	1577058304	51	5281
2026-01-13 09:42:47.68	355.37	29.65	-40.7	-43.4	12.3	1.52e-04	0	58	0	1580204032	51	5396
2026-01-13 09:42:48.69	355.27	29.47	-40.8	-43.6	12.0	2.89e-04	0	58	0	1583349760	52	5195
2026-01-13 09:42:49.70	355.17	29.29	-40.9	-43.8	11.8	5.12e-04	0	58	0	1586495488	52	5285
2026-01-13 09:42:50.71	355.07	29.11	-40.8	-43.6	12.0	3.13e-04	0	58	0	1589641216	52	5190
2026-01-13 09:42:51.72	354.98	28.93	-40.7	-43.5	12.1	2.77e-04	0	58	0	1592786944	52	5104
2026-01-13 09:42:52.73	354.88	28.75	-40.6	-43.3	12.2	2.38e-04	0	58	0	1595932672	52	5039
2026-01-13 09:42:53.74	354.79	28.58	-40.5	-43.2	12.3	1.69e-04	0	58	0	1599078400	52	4978
2026-01-13 09:42:54.75	354.70	28.40	-40.4	-43.1	12.5	1.38e-04	0	58	0	1602224128	52	4887
2026-01-13 09:42:55.76	354.61	28.23	-40.5	-43.2	12.4	1.22e-04	0	58	0	1605369856	52	4949
2026-01-13 09:42:56.77	354.52	28.05	-40.3	-42.9	12.7	8.62e-05	0	58	0	1608515584	52	4796
2026-01-13 09:42:57.78	354.43	27.88	-40.3	-42.8	12.7	7.01e-05	0	58	0	1611661312	52	4750
2026-01-13 09:42:58.79	354.34	27.71	-40.2	-42.8	12.8	7.09e-05	0	58	0	1614807040	52	4711
2026-01-13 09:42:59.80	354.25	27.54	-40.1	-42.6	12.9	5.72e-05	0	58	0	1617952768	52	4623
2026-01-13 09:43:00.81	354.17	27.37	-40.0	-42.5	13.2	2.67e-05	0	58	0	1621098496	51	4815
2026-01-13 09:43:01.82	354.08	27.21	-39.9	-42.4	13.3	1.98e-05	0	58	0	1624244224	51	4761
2026-01-13 09:43:02.83	354.00	27.04	-39.9	-42.3	13.3	1.90e-05	0	58	0	1627389952	51	4729
2026-01-13 09:43:03.84	353.91	26.87	-39.9	-42.2	13.4	1.75e-05	0	58	0	1630535680	51	4690
2026-01-13 09:43:04.85	353.83	26.71	-39.8	-42.1	13.5	1.98e-05	0	58	0	1633681408	51	4644
2026-01-13 09:43:05.86	353.75	26.54	-39.7	-42.0	13.6	3.80e-06	0	58	0	1636827136	51	4548
2026-01-13 09:43:06.87	353.67	26.38	-39.7	-42.1	13.5	6.10e-06	0	58	0	1639972864	51	4615
2026-01-13 09:43:07.88	353.59	26.22	-39.8	-42.2	13.3	1.37e-05	0	58	0	1643118592	51	4663
2026-01-13 09:43:08.89	353.51	26.06	-39.8	-42.2	13.3	1.29e-05	0	58	0	1646264320	51	4678
2026-01-13 09:43:09.90	353.43	25.90	-39.8	-42.2	13.2	1.98e-05	0	58	0	1649410048	51	4686
2026-01-13 09:43:10.91	353.35	25.74	-39.8	-42.2	13.2	2.36e-05	0	58	0	1652555776	51	4685
2026-01-13 09:43:11.92	353.28	25.58	-39.8	-42.3	13.1	2.89e-05	0	58	0	1655701504	51	4737
2026-01-13 09:43:12.93	353.20	25.42	-39.9	-42.3	13.1	3.12e-05	0	58	0	1658847232	51	4748
2026-01-13 09:43:13.94	353.13	25.26	-39.9	-42.4	13.0	4.42e-05	0	58	0	1661992960	51	4799
2026-01-13 09:43:14.95	353.05	25.11	-39.8	-42.3	13.1	2.97e-05	0	58	0	1665138688	51	4721
2026-01-13 09:43:15.96	352.98	24.95	-39.8	-42.2	13.1	2.67e-05	0	58	0	1668284416	51	4704
2026-01-13 09:43:16.97	352.91	24.80	-39.8	-42.3	13.0	3.20e-05	0	58	0	1671430144	51	4723
2026-01-13 09:43:17.98	352.83	24.65	-39.8	-42.3	12.9	3.96e-05	0	58	0	1674575872	51	4759
2026-01-13 09:43:18.99	352.76	24.49	-39.9	-42.4	12.9	4.11e-05	0	58	0	1677721600	51	4776
2026-01-13 09:43:20.00	352.69	24.34	-39.9	-42.4	12.8	4.50e-05	0	58	0	1680867328	51	4794
2026-01-13 09:43:21.01	352.62	24.19	-39.9	-42.5	12.7	8.31e-05	0	58	0	1684013056	51	4863
2026-01-13 09:43:22.02	352.55	24.04	-39.9	-42.5	12.6	8.16e-05	0	58	0	1687158784	51	4863
2026-01-13 09:43:23.02	352.48	23.89	-40.0	-42.6	12.5	1.12e-04	0	58	0	1690304512	51	4906
2026-01-13 09:43:24.03	352.42	23.74	-39.9	-42.6	12.5	1.38e-04	0	58	0	1693450240	51	4883
2026-01-13 09:43:25.04	352.35	23.60	-39.9	-42.6	12.5	1.23e-04	0	58	0	1696595968	51	4889
2026-01-13 09:43:26.05	352.28	23.45	-40.1	-42.9	12.2	1.64e-04	0	58	0	1699741696	51	5047
2026-01-13 09:43:27.06	352.22	23.30	-40.0	-42.7	12.3	2.27e-04	0	58	0	1702887424	51	4960
2026-01-13 09:43:28.07	352.15	23.16	-39.7	-42.4	12.6	1.20e-04	0	58	0	1706033152	51	4761
2026-01-13 09:43:29.08	352.09	23.01	-39.7	-42.4	12.4	1.17e-04	0	58	0	1709178880	51	4773
2026-01-13 09:43:30.09	352.02	22.87	-39.9	-42.8	11.9	3.01e-04	0	58	0	1712324608	51	5014
2026-01-13 09:43:31.10	351.96	22.73	-39.8	-42.8	11.7	5.32e-04	0	58	0	1715470336	51	5017
2026-01-13 09:43:32.11	351.90	22.58	-39.5	-42.5	11.9	4.58e-04	0	58	0	1718616064	51	4819
2026-01-13 09:43:33.12	351.84	22.44	-39.4	-42.3	11.8	3.72e-04	0	58	0	1721761792	50	5039
2026-01-13 09:43:34.13	351.77	22.30	-39.3	-42.3	11.7	5.89e-04	0	58	0	1724907520	50	5024
2026-01-13 09:43:35.14	351.71	22.16	-39.1	-42.1	11.9	4.17e-04	0	58	0	1728053248	50	4891
2026-01-13 09:43:36.15	351.65	22.02	-39.0	-42.0	12.0	3.11e-04	0	58	0	1731198976	50	4839
2026-01-13 09:43:37.16	351.59	21.88	-39.0	-42.0	11.9	3.86e-04	0	58	0	1734344704	50	4835
2026-01-13 09:43:38.17	351.53	21.75	-39.0	-42.1	11.8	4.12e-04	0	58	0	1737490432	50	4899
2026-01-13 09:43:39.18	351.48	21.61	-39.2	-42.5	11.3	9.79e-04	0	58	0	1740636160	50	5130
2026-01-13 09:43:40.19	351.42	21.47	-39.6	-43.3	10.4	3.27e-03	0	58	0	1743781888	50	5598
2026-01-13 09:43:41.19	351.36	21.34	-40.0	-44.3	9.3	1.50e-02	0	58	0	1746927616	50	6294
2026-01-13 09:43:42.20	351.30	21.20	-40.5	-45.4	8.0	4.33e-02	0	58	0	1750073344	51	6793
2026-01-13 09:43:43.21	351.25	21.07	-40.8	-46.8	6.5	1.58e-01	0	58	0	1753219072	52	7494
2026-01-13 09:43:44.22	351.19	20.93	-41.0	-48.2	5.3	4.25e-01	0	58	0	1756364800	52	8824
2026-01-13 09:43:45.23	351.14	20.80	-41.2	-49.6	4.1	1.28e+00	0	58	104	1758461952	52	10380
2026-01-13 09:43:46.24	351.08	20.67	-41.2	-51.0	4.1	1.47e+00	0	58	104	1758461952	53	11470
2026-01-13 09:43:47.25	351.03	20.54	-41.2	-52.4	3.8	1.49e+00	0	58	104	1758461952	53	13493
2026-01-13 09:43:48.26	350.97	20.41	-41.2	-53.2	3.8	1.49e+00	0	58	104	1758461952	53	14777
2026-01-13 09:43:49.27	350.92	20.28	-41.1	-53.5	3.8	1.49e+00	0	58	104	1758461952	53	15242
2026-01-13 09:43:50.28	350.87	20.15	-41.9	-53.0	3.8	1.49e+00	0	58	104	1758461952	54	13717
2026-01-13 09:43:51.29	350.81	20.02	-41.8	-53.0	3.8	1.49e+00	0	58	104	1758461952	54	13682
2026-01-13 09:43:52.30	350.76	19.89	-41.2	-53.9	3.8	1.49e+00	0	58	104	1758461952	54	15052
2026-01-13 09:43:53.31	350.71	19.76	-41.4	-53.4	3.8	1.49e+00	0	58	104	1758461952	54	14253
2026-01-13 09:43:54.31	350.66	19.64	-41.3	-53.5	3.8	1.49e+00	0	58	104	1758461952	54	14451
2026-01-13 09:43:55.32	350.61	19.51	-41.2	-53.6	3.8	1.49e+00	0	58	104	1758461952	54	14694
2026-01-13 09:43:56.33	350.56	19.38	-41.2	-53.7	3.8	1.49e+00	0	58	104	1758461952	54	14876
2026-01-13 09:43:57.34	350.51	19.26	-41.2	-53.7	3.8	1.49e+00	0	58	104	1758461952	54	14734
2026-01-13 09:43:58.35	350.46	19.13	-40.8	-53.1	3.8	1.49e+00	0	58	104	1758461952	53	14656
2026-01-13 09:43:59.36	350.41	19.01	-40.8	-53.1	3.8	1.49e+00	0	58	104	1758461952	53	14659
2026-01-13 09:44:00.37	350.36	18.89	-40.7	-53.3	3.8	1.49e+00	0	58	104	1758461952	53	14886
2026-01-13 09:44:01.38	350.31	18.76	-40.8	-53.2	3.8	1.49e+00	0	58	104	1758461952	53	14818
2026-01-13 09:44:02.39	350.27	18.64	-40.7	-53.2	3.8	1.49e+00	0	58	104	1758461952	53	14811
2026-01-13 09:44:03.40	350.22	18.52	-40.8	-53.3	3.8	1.49e+00	0	58	104	1758461952	53	14940
2026-01-13 09:44:04.41	350.17	18.40	-40.8	-53.3	3.8	1.49e+00	0	58	104	1758461952	53	14950
2026-01-13 09:44:05.42	350.13	18.28	-40.8	-53.3	3.8	1.49e+00	0	58	104	1758461952	53	14894
2026-01-13 09:44:06.43	350.08	18.16	-40.8	-53.2	3.8	1.49e+00	0	58	104	1758461952	53	14871
2026-01-13 09:44:07.44	350.03	18.04	-40.8	-53.2	3.8	1.49e+00	0	58	104	1758461952	53	14865
2026-01-13 09:44:08.44	349.99	17.92	-40.8	-53.2	3.8	1.49e+00	0	58	104	1758461952	53	14834
2026-01-13 09:44:09.45	349.94	17.80	-40.7	-53.3	3.8	1.49e+00	0	58	104	1758461952	53	14892
2026-01-13 09:44:10.46	349.90	17.68	-40.8	-53.3	3.8	1.49e+00	0	58	104	1758461952	53	14900
2026-01-13 09:44:11.47	349.86	17.57	-40.8	-53.2	3.8	1.49e+00	0	58	104	1758461952	53	14845
2026-01-13 09:44:12.48	349.81	17.45	-40.7	-53.4	3.8	1.49e+00	0	58	104	1758461952	51	16921
2026-01-13 09:44:13.49	349.77	17.33	-40.7	-53.3	3.8	1.49e+00	0	58	104	1758461952	52	15808
2026-01-13 09:44:14.49	349.73	17.22	-40.6	-53.2	3.8	1.49e+00	0	58	104	1758461952	51	16675
2026-01-13 09:44:15.50	349.68	17.10	-40.8	-53.3	3.8	1.49e+00	0	58	104	1758461952	52	15869
2026-01-13 09:44:16.52	349.64	16.99	-40.8	-53.3	3.8	1.49e+00	0	58	104	1758461952	52	15864
2026-01-13 09:44:17.52	349.60	16.87	-40.9	-53.3	3.8	1.49e+00	0	58	104	1758461952	52	15831
2026-01-13 09:44:18.53	349.56	16.76	-41.0	-53.4	3.8	1.49e+00	0	58	104	1758461952	52	15965
2026-01-13 09:44:19.55	349.52	16.65	-40.8	-53.3	3.8	1.49e+00	0	58	104	1758461952	53	14908
2026-01-13 09:44:20.55	349.48	16.54	-41.0	-53.4	3.8	1.49e+00	0	58	104	1758461952	53	15112
2026-01-13 09:44:21.56	349.44	16.42	-40.9	-53.3	3.8	1.49e+00	0	58	104	1758461952	53	14983
2026-01-13 09:44:22.57	349.39	16.31	-40.6	-53.4	3.8	1.49e+00	0	58	104	1758461952	53	15093
2026-01-13 09:44:23.58	349.35	16.20	-40.9	-53.3	3.8	1.49e+00	0	58	104	1758461952	53	15019
2026-01-13 09:44:24.59	349.32	16.09	-40.8	-53.4	3.8	1.49e+00	0	58	104	1758461952	53	15192
2026-01-13 09:44:25.60	349.28	15.98	-40.9	-53.4	3.8	1.49e+00	0	58	104	1758461952	53	15073
2026-01-13 09:44:26.61	349.24	15.87	-41.2	-53.6	3.8	1.49e+00	0	58	104	1758461952	53	15429
2026-01-13 09:44:27.62	349.20	15.76	-40.6	-53.4	3.8	1.49e+00	0	58	104	1758461952	53	15115
2026-01-13 09:44:28.63	349.16	15.65	-41.1	-53.5	3.8	1.49e+00	0	58	104	1758461952	52	16294
2026-01-13 09:44:29.64	349.12	15.54	-40.5	-53.4	3.8	1.49e+00	0	58	104	1758461952	52	16076
2026-01-13 09:44:30.65	349.08	15.44	-41.0	-53.6	3.8	1.49e+00	0	58	104	1758461952	52	16320
2026-01-13 09:44:31.66	349.05	15.33	-40.8	-53.5	3.8	1.49e+00	0	58	104	1758461952	52	16186
2026-01-13 09:44:32.67	349.01	15.22	-41.1	-53.6	3.8	1.49e+00	0	58	104	1758461952	52	16328
2026-01-13 09:44:33.68	348.97	15.12	-40.8	-53.5	3.8	1.49e+00	0	58	104	1758461952	52	16235
2026-01-13 09:44:34.68	348.94	15.01	-41.2	-53.6	3.8	1.49e+00	0	58	104	1758461952	52	16331
