passes_logs/2026/01/13/R2.0S_Moscow/R2.0S_Moscow__20260113_000438_FENGYUN_3G_rec.log

#Pass ID: 20260113_000438_FENGYUN 3G
#Satellite: FENGYUN 3G
#Configuration: FENGYUN 3G
#almurnet v.1.7.20251203
#Start time: 2026-01-13 00:04:39

#Version: 2.2.20231116
#Station: R2.0S_Moscow
#Location: 37.707566 lon 55.798166 lat
#TLE: 1 56232U 23055A   26012.28315646  .00028343  00000+0  44482-3 0  9993
#TLE: 2 56232  49.9940  69.9476 0004238  14.1066 346.0019 15.53388001155773

#Time	Az	El	Level	Level2	SNR	BER	BlckErr	Temp	State	Recorded	gain1	gain2
2026-01-13 00:04:39.64	248.32	2.08	-44.0	-62.2	3.8	8.47e-01	0	51	0	0	60	27836
2026-01-13 00:04:40.64	248.26	2.15	-44.0	-62.2	3.8	8.44e-01	0	51	104	0	60	27878
2026-01-13 00:04:41.65	248.20	2.22	-44.0	-62.2	3.8	8.46e-01	0	51	104	0	60	27865
2026-01-13 00:04:42.66	248.13	2.28	-44.0	-62.2	3.8	8.47e-01	0	51	104	0	60	27829
2026-01-13 00:04:43.67	248.07	2.35	-44.0	-62.2	3.8	8.47e-01	0	51	104	0	60	27864
2026-01-13 00:04:44.68	248.01	2.42	-44.0	-62.2	3.8	8.46e-01	0	51	104	0	60	27861
2026-01-13 00:04:45.69	247.94	2.48	-44.0	-62.2	3.8	8.45e-01	0	52	104	0	60	27888
2026-01-13 00:04:46.70	247.88	2.55	-44.0	-62.2	3.8	8.45e-01	0	52	104	0	60	27835
2026-01-13 00:04:47.71	247.81	2.62	-44.0	-62.2	3.8	8.46e-01	0	51	104	0	60	27824
2026-01-13 00:04:48.72	247.75	2.69	-44.0	-62.2	3.8	8.47e-01	0	52	104	0	60	27730
2026-01-13 00:04:49.73	247.68	2.76	-44.0	-62.1	3.8	8.47e-01	0	52	104	0	60	27697
2026-01-13 00:04:50.74	247.61	2.83	-44.0	-62.1	3.8	8.46e-01	0	52	104	0	60	27579
2026-01-13 00:04:51.75	247.55	2.89	-44.0	-62.1	3.8	8.45e-01	0	52	104	0	60	27455
2026-01-13 00:04:52.76	247.48	2.96	-44.0	-62.1	3.8	8.45e-01	0	52	104	0	60	27471
2026-01-13 00:04:53.77	247.41	3.03	-44.0	-62.1	3.8	8.46e-01	0	52	104	0	60	27425
2026-01-13 00:04:54.78	247.34	3.10	-44.0	-62.1	3.8	8.47e-01	0	52	104	0	60	27532
2026-01-13 00:04:55.79	247.27	3.17	-44.0	-62.1	3.8	8.47e-01	0	52	104	0	60	27540
2026-01-13 00:04:56.80	247.20	3.24	-44.0	-62.1	3.8	8.47e-01	0	52	104	0	60	27464
2026-01-13 00:04:57.81	247.13	3.31	-44.0	-62.1	3.8	8.47e-01	0	52	104	0	60	27401
2026-01-13 00:04:58.82	247.06	3.38	-44.0	-62.1	3.8	8.46e-01	0	52	104	0	60	27435
2026-01-13 00:04:59.83	246.99	3.45	-44.0	-62.1	3.8	8.46e-01	0	53	104	0	60	27394
2026-01-13 00:05:00.84	246.92	3.52	-44.0	-62.0	3.8	8.46e-01	0	53	104	0	60	27371
2026-01-13 00:05:01.85	246.85	3.60	-44.0	-62.0	3.8	8.48e-01	0	53	104	0	60	27197
2026-01-13 00:05:02.86	246.78	3.67	-44.0	-62.0	3.8	8.48e-01	0	53	104	0	60	27386
2026-01-13 00:05:03.87	246.70	3.74	-44.0	-62.0	3.8	8.46e-01	0	53	104	0	60	27163
2026-01-13 00:05:04.87	246.63	3.81	-44.0	-62.0	3.8	8.46e-01	0	53	104	0	60	27244
2026-01-13 00:05:05.89	246.56	3.88	-44.0	-61.9	3.8	8.46e-01	0	53	104	0	60	27031
2026-01-13 00:05:06.90	246.48	3.96	-44.0	-61.9	3.8	8.47e-01	0	53	104	0	60	26976
2026-01-13 00:05:07.91	246.41	4.03	-44.0	-61.8	3.8	8.45e-01	0	53	104	0	60	26666
2026-01-13 00:05:08.92	246.33	4.10	-44.0	-61.7	3.8	8.45e-01	0	53	104	0	60	26453
2026-01-13 00:05:09.93	246.25	4.18	-44.1	-61.6	3.8	8.45e-01	0	53	104	0	59	27444
2026-01-13 00:05:10.94	246.18	4.25	-44.1	-61.5	3.8	8.46e-01	0	53	104	0	59	27273
2026-01-13 00:05:11.95	246.10	4.32	-44.1	-61.5	3.8	8.45e-01	0	53	104	0	59	27196
2026-01-13 00:05:12.96	246.02	4.40	-44.1	-61.4	3.8	8.45e-01	0	53	104	0	59	27066
2026-01-13 00:05:13.97	245.94	4.47	-44.1	-61.5	3.8	8.46e-01	0	53	104	0	59	27383
2026-01-13 00:05:14.98	245.86	4.55	-44.1	-61.6	3.8	8.46e-01	0	53	104	0	59	27477
2026-01-13 00:05:15.99	245.78	4.62	-44.1	-61.7	3.8	8.46e-01	0	53	104	0	59	27919
2026-01-13 00:05:17.00	245.70	4.70	-44.1	-61.7	3.8	8.46e-01	0	53	104	0	59	27983
2026-01-13 00:05:18.01	245.62	4.77	-44.1	-61.7	3.8	8.46e-01	0	54	104	0	59	27714
2026-01-13 00:05:19.02	245.54	4.85	-44.1	-61.6	3.8	8.46e-01	0	53	104	0	59	27409
2026-01-13 00:05:20.03	245.46	4.92	-44.1	-61.6	3.8	8.47e-01	0	54	104	0	59	27606
2026-01-13 00:05:21.04	245.38	5.00	-44.1	-61.4	3.8	8.47e-01	0	54	104	0	59	26916
2026-01-13 00:05:22.05	245.29	5.08	-44.0	-61.2	3.8	8.45e-01	0	54	104	0	59	26308
2026-01-13 00:05:23.06	245.21	5.15	-44.0	-60.7	3.8	8.45e-01	0	54	104	0	59	24901
2026-01-13 00:05:24.08	245.12	5.23	-44.0	-60.6	3.8	8.45e-01	0	54	104	0	59	24553
2026-01-13 00:05:25.08	245.04	5.31	-44.0	-60.0	3.9	8.45e-01	0	54	104	0	59	22972
2026-01-13 00:05:26.10	244.95	5.39	-44.0	-60.0	3.8	8.45e-01	0	54	104	0	59	22959
2026-01-13 00:05:27.10	244.87	5.46	-44.0	-59.9	3.8	8.45e-01	0	54	104	0	59	22596
2026-01-13 00:05:28.12	244.78	5.54	-44.0	-59.5	3.8	8.45e-01	0	54	104	0	59	21639
2026-01-13 00:05:29.12	244.69	5.62	-44.0	-59.5	4.0	8.45e-01	0	54	104	0	59	21512
2026-01-13 00:05:30.14	244.60	5.70	-44.0	-59.2	4.1	8.43e-01	0	54	0	0	59	20798
2026-01-13 00:05:31.15	244.51	5.78	-44.0	-58.7	4.2	8.42e-01	0	54	0	0	59	19670
2026-01-13 00:05:32.16	244.42	5.86	-44.0	-58.7	4.2	8.39e-01	0	54	0	0	59	19664
2026-01-13 00:05:33.17	244.33	5.94	-43.9	-58.1	4.3	8.39e-01	0	54	0	0	59	18312
2026-01-13 00:05:34.18	244.24	6.02	-43.9	-57.2	4.6	8.30e-01	0	54	0	0	59	16569
2026-01-13 00:05:35.19	244.15	6.10	-43.8	-56.2	5.2	7.89e-01	0	54	0	0	59	14851
2026-01-13 00:05:36.20	244.05	6.18	-43.7	-54.9	6.1	7.89e-01	0	55	0	524288	59	12788
2026-01-13 00:05:37.21	243.96	6.26	-43.6	-54.0	6.9	4.99e-01	0	54	0	1572864	59	11525
2026-01-13 00:05:38.22	243.87	6.34	-43.6	-53.5	7.4	1.98e-01	0	54	0	2621440	59	10838
2026-01-13 00:05:39.23	243.77	6.43	-43.5	-52.8	8.1	1.98e-01	0	54	0	3670016	58	10548
2026-01-13 00:05:40.24	243.67	6.51	-43.4	-52.1	8.8	1.00e-01	0	55	0	4718592	58	9759
2026-01-13 00:05:41.25	243.58	6.59	-43.2	-51.3	9.7	3.76e-02	0	54	0	6291456	58	8882
2026-01-13 00:05:42.26	243.48	6.67	-43.2	-51.1	9.9	3.76e-02	0	54	0	7340032	58	8710
2026-01-13 00:05:43.27	243.38	6.76	-43.2	-51.4	9.5	1.39e-02	0	55	0	8388608	58	9031
2026-01-13 00:05:44.28	243.28	6.84	-43.3	-51.8	9.2	1.59e-02	0	55	0	9437184	58	9423
2026-01-13 00:05:45.29	243.18	6.92	-43.4	-52.6	8.3	3.55e-02	0	55	0	10485760	58	10342
2026-01-13 00:05:46.30	243.08	7.01	-43.6	-53.8	7.1	3.55e-02	0	55	0	11534336	58	11908
2026-01-13 00:05:47.32	242.98	7.09	-43.8	-55.9	5.5	1.29e-01	0	55	0	12582912	58	15170
2026-01-13 00:05:48.33	242.88	7.18	-43.9	-58.3	4.3	6.42e-01	0	55	0	12582912	58	20043
2026-01-13 00:05:49.34	242.77	7.26	-44.0	-59.0	4.1	6.42e-01	0	55	0	12582912	58	21628
2026-01-13 00:05:50.35	242.67	7.35	-43.8	-56.2	5.2	8.38e-01	0	55	0	13107200	58	15757
2026-01-13 00:05:51.36	242.56	7.44	-43.5	-52.9	7.9	5.94e-01	0	55	0	14155776	58	10740
2026-01-13 00:05:52.37	242.46	7.52	-43.1	-50.6	10.3	5.94e-01	0	55	0	15204352	58	8221
2026-01-13 00:05:53.38	242.35	7.61	-42.5	-48.7	12.3	4.26e-02	0	55	0	16252928	57	7002
2026-01-13 00:05:54.39	242.24	7.70	-42.3	-47.8	13.3	7.56e-04	0	55	0	17301504	56	6665
2026-01-13 00:05:55.40	242.13	7.79	-42.0	-47.2	13.9	7.56e-04	0	55	0	18350080	56	6216
2026-01-13 00:05:56.41	242.02	7.87	-41.6	-46.3	14.7	1.37e-05	0	55	0	19398656	55	5953
2026-01-13 00:05:57.42	241.91	7.96	-41.5	-46.1	14.9	0.00e+00	0	55	0	20447232	55	5835
2026-01-13 00:05:58.43	241.80	8.05	-41.5	-46.2	14.8	0.00e+00	0	55	0	22020096	55	5881
2026-01-13 00:05:59.44	241.69	8.14	-41.0	-45.0	15.8	0.00e+00	0	55	0	23068672	54	5404
2026-01-13 00:06:00.45	241.58	8.23	-40.9	-44.9	16.5	1.10e-06	0	55	0	24117248	52	6000
2026-01-13 00:06:01.46	241.46	8.32	-43.3	-51.8	7.8	1.10e-01	0	55	0	25165824	57	9990
2026-01-13 00:06:02.46	241.35	8.41	-40.8	-44.6	16.3	1.10e-01	0	56	0	26214400	53	5466
2026-01-13 00:06:03.47	241.23	8.50	-42.8	-49.6	10.8	2.26e-02	0	55	0	27262976	57	7772
2026-01-13 00:06:04.48	241.11	8.59	-41.0	-45.0	16.1	1.34e-02	0	56	0	28835840	53	5780
2026-01-13 00:06:05.49	240.99	8.68	-40.9	-44.7	16.3	1.34e-02	0	55	0	29884416	53	5580
2026-01-13 00:06:06.50	240.88	8.77	-40.7	-44.5	16.6	0.00e+00	0	55	0	30932992	53	5410
2026-01-13 00:06:07.51	240.75	8.87	-40.5	-44.0	17.1	0.00e+00	0	56	0	31981568	52	5412
2026-01-13 00:06:08.52	240.63	8.96	-40.2	-43.5	17.6	0.00e+00	0	55	0	33030144	52	5147
2026-01-13 00:06:09.53	240.51	9.05	-40.1	-43.3	17.9	0.00e+00	0	56	0	34078720	52	4992
2026-01-13 00:06:10.54	240.39	9.15	-40.1	-43.2	17.9	0.00e+00	0	56	0	35651584	52	4983
2026-01-13 00:06:11.55	240.26	9.24	-40.1	-43.2	17.9	0.00e+00	0	56	0	36700160	52	4974
2026-01-13 00:06:12.56	240.14	9.34	-40.1	-43.3	17.9	0.00e+00	0	56	0	37748736	52	4989
2026-01-13 00:06:13.57	240.01	9.43	-40.1	-43.2	18.1	0.00e+00	0	56	0	38797312	51	5267
2026-01-13 00:06:14.58	239.88	9.53	-40.0	-43.1	18.2	0.00e+00	0	56	0	39845888	51	5183
2026-01-13 00:06:15.59	239.75	9.62	-40.0	-43.0	18.3	0.00e+00	0	56	0	40894464	51	5150
2026-01-13 00:06:16.60	239.62	9.72	-40.0	-43.0	18.3	0.00e+00	0	56	0	42467328	51	5153
2026-01-13 00:06:17.61	239.49	9.82	-40.1	-43.3	18.1	0.00e+00	0	56	0	43515904	51	5306
2026-01-13 00:06:18.62	239.35	9.91	-40.1	-43.2	18.1	0.00e+00	0	56	0	44564480	51	5265
2026-01-13 00:06:19.63	239.22	10.01	-40.1	-43.3	18.0	0.00e+00	0	56	0	45613056	51	5314
2026-01-13 00:06:20.64	239.09	10.11	-40.2	-43.5	17.9	0.00e+00	0	56	0	46661632	51	5415
2026-01-13 00:06:21.65	238.95	10.21	-40.2	-43.4	17.9	0.00e+00	0	56	0	48234496	51	5374
2026-01-13 00:06:22.66	238.81	10.31	-40.1	-43.2	18.1	0.00e+00	0	56	0	49283072	51	5263
2026-01-13 00:06:23.67	238.67	10.41	-39.9	-42.9	18.4	0.00e+00	0	56	0	50331648	51	5083
2026-01-13 00:06:24.68	238.53	10.51	-39.9	-42.9	18.5	0.00e+00	0	56	0	51380224	51	5068
2026-01-13 00:06:25.69	238.39	10.61	-39.8	-42.8	18.6	0.00e+00	0	56	0	52428800	51	5003
2026-01-13 00:06:26.70	238.25	10.71	-39.7	-42.6	18.8	0.00e+00	0	56	0	53477376	51	4872
2026-01-13 00:06:27.71	238.10	10.81	-39.7	-42.6	18.8	0.00e+00	0	56	0	55050240	51	4909
2026-01-13 00:06:28.72	237.96	10.91	-39.9	-42.9	18.5	0.00e+00	0	56	0	56098816	51	5077
2026-01-13 00:06:29.73	237.81	11.02	-39.9	-42.9	18.5	0.00e+00	0	56	0	57147392	51	5064
2026-01-13 00:06:30.74	237.66	11.12	-39.9	-42.8	18.6	0.00e+00	0	56	0	58195968	51	5010
2026-01-13 00:06:31.74	237.51	11.22	-39.9	-42.8	18.6	0.00e+00	0	56	0	59244544	51	5002
2026-01-13 00:06:32.75	237.36	11.32	-39.8	-42.7	18.8	0.00e+00	0	56	0	60293120	51	4941
2026-01-13 00:06:33.76	237.21	11.43	-39.8	-42.7	18.7	0.00e+00	0	56	0	61341696	51	4983
2026-01-13 00:06:34.77	237.05	11.53	-39.9	-42.9	18.6	0.00e+00	0	56	0	62914560	51	5048
2026-01-13 00:06:35.79	236.89	11.64	-39.8	-42.6	18.8	0.00e+00	0	56	0	63963136	51	4918
2026-01-13 00:06:36.79	236.74	11.75	-39.6	-42.4	19.1	0.00e+00	0	56	0	65011712	51	4782
2026-01-13 00:06:37.81	236.58	11.85	-39.6	-42.4	19.1	0.00e+00	0	56	0	66060288	51	4773
2026-01-13 00:06:38.82	236.42	11.96	-39.4	-42.0	19.4	0.00e+00	0	56	0	67108864	50	4866
2026-01-13 00:06:39.83	236.25	12.07	-39.3	-42.0	19.5	0.00e+00	0	56	0	68157440	50	4823
2026-01-13 00:06:40.84	236.09	12.18	-39.4	-42.1	19.4	0.00e+00	0	56	0	69730304	50	4903
2026-01-13 00:06:41.85	235.93	12.29	-39.5	-42.2	19.3	0.00e+00	0	56	0	70778880	50	4935
2026-01-13 00:06:42.86	235.76	12.39	-39.4	-42.0	19.5	0.00e+00	0	56	0	71827456	50	4848
2026-01-13 00:06:43.86	235.59	12.50	-39.3	-41.9	19.6	0.00e+00	0	56	0	72876032	50	4790
2026-01-13 00:06:44.87	235.42	12.61	-39.3	-42.0	19.6	0.00e+00	0	56	0	73924608	50	4815
2026-01-13 00:06:45.88	235.25	12.72	-39.4	-42.0	19.5	0.00e+00	0	56	0	74973184	50	4836
2026-01-13 00:06:46.89	235.08	12.84	-39.4	-42.1	19.5	0.00e+00	0	56	0	76546048	50	4872
2026-01-13 00:06:47.90	234.90	12.95	-39.5	-42.2	19.3	0.00e+00	0	57	0	77594624	50	4972
2026-01-13 00:06:48.91	234.72	13.06	-39.6	-42.3	19.3	0.00e+00	0	57	0	78643200	50	4999
2026-01-13 00:06:49.92	234.54	13.17	-39.5	-42.2	19.4	0.00e+00	0	56	0	79691776	50	4936
2026-01-13 00:06:50.93	234.36	13.29	-39.3	-41.9	19.6	0.00e+00	0	57	0	80740352	50	4803
2026-01-13 00:06:51.94	234.18	13.40	-39.3	-41.9	19.6	0.00e+00	0	57	0	81788928	50	4802
2026-01-13 00:06:52.95	234.00	13.52	-39.2	-41.7	19.9	0.00e+00	0	56	0	83361792	50	4675
2026-01-13 00:06:53.96	233.81	13.63	-39.2	-41.8	19.7	0.00e+00	0	57	0	84410368	50	4750
2026-01-13 00:06:54.97	233.62	13.75	-39.1	-41.6	20.0	0.00e+00	0	56	0	85458944	50	4620
2026-01-13 00:06:55.98	233.43	13.86	-39.0	-41.5	20.1	0.00e+00	0	57	0	86507520	50	4559
2026-01-13 00:06:56.99	233.24	13.98	-39.1	-41.6	20.0	0.00e+00	0	57	0	87556096	50	4612
2026-01-13 00:06:57.99	233.05	14.10	-38.9	-41.3	20.2	0.00e+00	0	57	0	89128960	49	4754
2026-01-13 00:06:59.00	232.85	14.21	-39.0	-41.5	20.1	0.00e+00	0	57	0	90177536	49	4821
2026-01-13 00:07:00.01	232.65	14.33	-39.1	-41.6	20.0	0.00e+00	0	57	0	91226112	49	4891
2026-01-13 00:07:01.02	232.45	14.45	-39.1	-41.6	20.0	0.00e+00	0	57	0	92274688	49	4885
2026-01-13 00:07:02.03	232.25	14.57	-39.1	-41.6	20.0	0.00e+00	0	57	0	93323264	49	4919
2026-01-13 00:07:03.04	232.05	14.69	-39.1	-41.6	20.0	0.00e+00	0	57	0	94371840	49	4921
2026-01-13 00:07:04.05	231.84	14.81	-39.1	-41.6	20.1	0.00e+00	0	57	0	95944704	49	4871
2026-01-13 00:07:05.06	231.63	14.93	-39.1	-41.5	20.1	0.00e+00	0	57	0	96993280	49	4865
2026-01-13 00:07:06.07	231.42	15.06	-38.9	-41.3	20.4	0.00e+00	0	57	0	98041856	49	4707
2026-01-13 00:07:07.08	231.21	15.18	-38.8	-41.1	20.5	0.00e+00	0	57	0	99090432	49	4637
2026-01-13 00:07:08.09	230.99	15.30	-38.6	-40.9	20.7	0.00e+00	0	57	0	100139008	49	4538
2026-01-13 00:07:09.10	230.78	15.42	-38.6	-41.0	20.7	0.00e+00	0	57	0	101187584	49	4551
2026-01-13 00:07:10.11	230.56	15.55	-38.6	-40.9	20.8	0.00e+00	0	57	0	102236160	49	4498
2026-01-13 00:07:11.12	230.33	15.67	-38.6	-40.9	20.8	0.00e+00	0	57	0	103809024	49	4513
2026-01-13 00:07:12.13	230.11	15.80	-38.6	-40.8	20.9	0.00e+00	0	57	0	104857600	49	4474
2026-01-13 00:07:13.14	229.88	15.92	-38.7	-41.0	20.7	0.00e+00	0	57	0	105906176	49	4561
2026-01-13 00:07:14.14	229.66	16.05	-38.6	-40.8	20.9	0.00e+00	0	57	0	106954752	49	4480
2026-01-13 00:07:15.15	229.42	16.18	-38.7	-41.0	20.7	0.00e+00	0	57	0	108003328	49	4560
2026-01-13 00:07:16.16	229.19	16.30	-38.5	-40.8	20.9	0.00e+00	0	57	0	109051904	49	4466
2026-01-13 00:07:17.17	228.95	16.43	-38.5	-40.7	21.0	0.00e+00	0	57	0	110624768	49	4437
2026-01-13 00:07:18.18	228.71	16.56	-38.3	-40.5	21.2	0.00e+00	0	57	0	111673344	48	4559
2026-01-13 00:07:19.19	228.47	16.69	-38.1	-40.3	21.4	0.00e+00	0	57	0	112721920	48	4454
2026-01-13 00:07:20.20	228.23	16.82	-38.0	-40.1	21.6	0.00e+00	0	57	0	113770496	48	4360
2026-01-13 00:07:21.21	227.98	16.95	-38.2	-40.3	21.4	0.00e+00	0	57	0	114819072	48	4464
2026-01-13 00:07:22.22	227.73	17.08	-38.3	-40.5	21.3	0.00e+00	0	57	0	115867648	48	4564
2026-01-13 00:07:23.23	227.48	17.21	-38.4	-40.7	21.1	0.00e+00	0	57	0	117440512	48	4652
2026-01-13 00:07:24.24	227.22	17.34	-38.3	-40.5	21.2	0.00e+00	0	57	0	118489088	48	4581
2026-01-13 00:07:25.25	226.96	17.48	-38.4	-40.6	21.2	0.00e+00	0	57	0	119537664	48	4624
2026-01-13 00:07:26.26	226.70	17.61	-38.2	-40.4	21.4	0.00e+00	0	57	0	120586240	48	4502
2026-01-13 00:07:27.27	226.44	17.74	-38.3	-40.4	21.3	0.00e+00	0	57	0	121634816	48	4525
2026-01-13 00:07:28.28	226.17	17.88	-38.3	-40.5	21.3	0.00e+00	0	57	0	122683392	48	4554
2026-01-13 00:07:29.29	225.90	18.01	-38.2	-40.3	21.4	0.00e+00	0	57	0	124256256	48	4492
2026-01-13 00:07:30.30	225.63	18.15	-38.2	-40.4	21.4	0.00e+00	0	57	0	125304832	48	4496
2026-01-13 00:07:31.31	225.35	18.28	-38.3	-40.5	21.2	0.00e+00	0	57	0	126353408	48	4582
2026-01-13 00:07:32.32	225.07	18.42	-38.1	-40.1	21.6	0.00e+00	0	57	0	127401984	48	4381
2026-01-13 00:07:33.32	224.79	18.55	-38.0	-40.1	21.7	0.00e+00	0	57	0	128450560	48	4377
2026-01-13 00:07:34.33	224.51	18.69	-37.9	-40.0	21.7	0.00e+00	0	57	0	129499136	47	4580
2026-01-13 00:07:35.34	224.22	18.82	-37.9	-40.0	21.8	0.00e+00	0	57	0	131072000	47	4558
2026-01-13 00:07:36.35	223.93	18.96	-37.8	-39.8	22.0	0.00e+00	0	58	0	132120576	47	4461
2026-01-13 00:07:37.36	223.63	19.10	-38.0	-40.1	21.7	0.00e+00	0	57	0	133169152	47	4626
2026-01-13 00:07:38.37	223.34	19.24	-38.0	-40.1	21.7	0.00e+00	0	57	0	134217728	47	4612
2026-01-13 00:07:39.38	223.03	19.38	-38.0	-40.1	21.7	0.00e+00	0	58	0	135266304	47	4608
2026-01-13 00:07:40.39	222.73	19.52	-37.9	-39.9	21.8	0.00e+00	0	58	0	136314880	47	4542
2026-01-13 00:07:41.40	222.42	19.66	-37.7	-39.7	22.1	0.00e+00	0	57	0	137887744	47	4419
2026-01-13 00:07:42.41	222.11	19.79	-37.9	-40.0	21.8	0.00e+00	0	58	0	138936320	47	4573
2026-01-13 00:07:43.42	221.79	19.93	-37.7	-39.7	22.1	0.00e+00	0	58	0	139984896	47	4416
2026-01-13 00:07:44.43	221.48	20.08	-37.6	-39.6	22.2	0.00e+00	0	57	0	141033472	47	4361
2026-01-13 00:07:45.44	221.15	20.22	-37.4	-39.4	22.4	0.00e+00	0	57	0	142082048	46	4494
2026-01-13 00:07:46.45	220.83	20.36	-37.2	-39.1	22.6	0.00e+00	0	58	0	143130624	46	4389
2026-01-13 00:07:47.45	220.50	20.50	-37.3	-39.2	22.7	0.00e+00	0	58	0	144703488	46	4397
2026-01-13 00:07:48.46	220.17	20.64	-37.6	-39.6	22.3	0.00e+00	0	58	0	145752064	46	4603
2026-01-13 00:07:49.47	219.83	20.78	-37.4	-39.4	22.5	0.00e+00	0	58	0	146800640	46	4495
2026-01-13 00:07:50.48	219.49	20.92	-37.6	-39.6	22.2	0.00e+00	0	58	0	147849216	46	4614
2026-01-13 00:07:51.49	219.15	21.06	-37.5	-39.5	22.3	0.00e+00	0	58	0	148897792	46	4575
2026-01-13 00:07:52.50	218.80	21.20	-37.6	-39.5	22.3	0.00e+00	0	58	0	149946368	46	4581
2026-01-13 00:07:53.51	218.45	21.35	-37.3	-39.2	22.6	0.00e+00	0	58	0	151519232	46	4398
2026-01-13 00:07:54.52	218.09	21.49	-37.2	-39.1	22.6	0.00e+00	0	58	0	152567808	46	4380
2026-01-13 00:07:55.53	217.73	21.63	-37.1	-38.9	22.9	0.00e+00	0	58	0	153616384	46	4268
2026-01-13 00:07:56.54	217.37	21.77	-37.1	-39.0	22.8	0.00e+00	0	58	0	154664960	46	4297
2026-01-13 00:07:57.55	217.00	21.92	-37.1	-38.9	22.9	0.00e+00	0	58	0	155713536	46	4290
2026-01-13 00:07:58.56	216.63	22.06	-37.0	-38.9	23.0	0.00e+00	0	58	0	156762112	46	4261
2026-01-13 00:07:59.57	216.26	22.20	-37.0	-38.9	22.9	0.00e+00	0	58	0	158334976	46	4254
2026-01-13 00:08:00.59	215.87	22.34	-37.4	-39.3	22.6	0.00e+00	0	58	0	159383552	46	4449
2026-01-13 00:08:01.60	215.49	22.49	-37.5	-39.4	22.5	0.00e+00	0	58	0	160432128	46	4521
2026-01-13 00:08:02.61	215.10	22.63	-37.5	-39.4	22.5	0.00e+00	0	58	0	161480704	46	4532
2026-01-13 00:08:03.62	214.71	22.77	-37.3	-39.2	22.6	0.00e+00	0	58	0	162529280	46	4426
2026-01-13 00:08:04.63	214.31	22.91	-37.1	-39.0	22.9	0.00e+00	0	58	0	163577856	46	4322
2026-01-13 00:08:05.64	213.91	23.05	-37.0	-38.9	23.0	0.00e+00	0	58	0	165150720	46	4252
2026-01-13 00:08:06.65	213.51	23.19	-37.0	-38.8	23.0	0.00e+00	0	58	0	166199296	46	4218
2026-01-13 00:08:07.66	213.10	23.33	-36.6	-38.4	23.4	0.00e+00	0	58	0	167247872	45	4259
2026-01-13 00:08:08.67	212.68	23.47	-36.8	-38.6	23.2	0.00e+00	0	58	0	168296448	45	4359
2026-01-13 00:08:09.67	212.27	23.61	-36.7	-38.5	23.3	0.00e+00	0	58	0	169345024	45	4325
2026-01-13 00:08:10.68	211.85	23.75	-36.9	-38.8	23.1	0.00e+00	0	58	0	170393600	45	4444
2026-01-13 00:08:11.69	211.42	23.89	-36.8	-38.6	23.3	0.00e+00	0	58	0	171966464	45	4351
2026-01-13 00:08:12.70	210.99	24.03	-36.8	-38.6	23.2	0.00e+00	0	58	0	173015040	45	4343
2026-01-13 00:08:13.70	210.56	24.17	-36.7	-38.5	23.4	0.00e+00	0	58	0	174063616	45	4322
2026-01-13 00:08:14.71	210.12	24.30	-36.9	-38.7	23.2	0.00e+00	0	58	0	175112192	45	4402
2026-01-13 00:08:15.72	209.67	24.44	-36.7	-38.5	23.3	0.00e+00	0	58	0	176160768	45	4320
2026-01-13 00:08:16.73	209.22	24.58	-36.9	-38.8	23.1	0.00e+00	0	58	0	177733632	45	4454
2026-01-13 00:08:17.74	208.77	24.71	-36.9	-38.7	23.2	0.00e+00	0	58	0	178782208	45	4418
2026-01-13 00:08:18.75	208.31	24.85	-36.8	-38.6	23.2	0.00e+00	0	58	0	179830784	45	4384
2026-01-13 00:08:19.76	207.85	24.98	-36.8	-38.6	23.2	0.00e+00	0	58	0	180879360	45	4374
2026-01-13 00:08:20.77	207.38	25.11	-36.6	-38.4	23.5	0.00e+00	0	58	0	181927936	45	4255
2026-01-13 00:08:21.78	206.91	25.24	-36.5	-38.3	23.6	0.00e+00	0	58	0	182976512	45	4200
2026-01-13 00:08:22.79	206.43	25.37	-36.5	-38.2	23.6	0.00e+00	0	58	0	184025088	45	4178
2026-01-13 00:08:23.80	205.95	25.50	-36.8	-38.6	23.3	0.00e+00	0	58	0	185597952	44	4606
2026-01-13 00:08:24.81	205.47	25.63	-36.7	-38.5	23.4	0.00e+00	0	58	0	186646528	44	4548
2026-01-13 00:08:25.82	204.98	25.76	-36.7	-38.5	23.4	0.00e+00	0	58	0	187695104	44	4566
2026-01-13 00:08:26.83	204.48	25.88	-36.7	-38.4	23.3	0.00e+00	0	58	0	188743680	44	4543
2026-01-13 00:08:27.83	203.99	26.01	-36.5	-38.3	23.6	0.00e+00	0	58	0	189792256	44	4447
2026-01-13 00:08:28.84	203.49	26.13	-36.4	-38.1	23.8	0.00e+00	0	58	0	190840832	44	4371
2026-01-13 00:08:29.85	202.98	26.25	-36.3	-38.0	23.8	0.00e+00	0	58	0	192413696	44	4332
2026-01-13 00:08:30.86	202.47	26.37	-36.4	-38.2	23.7	0.00e+00	0	58	0	193462272	44	4403
2026-01-13 00:08:31.87	201.95	26.49	-36.5	-38.3	23.6	0.00e+00	0	58	0	194510848	44	4471
2026-01-13 00:08:32.88	201.43	26.61	-36.6	-38.4	23.5	0.00e+00	0	58	0	195559424	44	4506
2026-01-13 00:08:33.89	200.90	26.72	-36.5	-38.2	23.6	0.00e+00	0	58	0	196608000	44	4409
2026-01-13 00:08:34.90	200.37	26.84	-36.3	-38.0	23.9	0.00e+00	0	58	0	197656576	44	4308
2026-01-13 00:08:35.91	199.84	26.95	-36.2	-37.9	23.9	0.00e+00	0	58	0	199229440	44	4280
2026-01-13 00:08:36.92	199.30	27.06	-36.1	-37.8	24.0	0.00e+00	0	58	0	200278016	44	4219
2026-01-13 00:08:37.93	198.76	27.16	-36.1	-37.8	24.0	0.00e+00	0	58	0	201326592	44	4227
2026-01-13 00:08:38.94	198.21	27.27	-36.4	-38.1	23.7	0.00e+00	0	58	0	202375168	44	4358
2026-01-13 00:08:39.95	197.66	27.37	-36.3	-38.0	23.8	0.00e+00	0	58	0	203423744	44	4326
2026-01-13 00:08:40.96	197.11	27.48	-36.4	-38.2	23.7	0.00e+00	0	58	0	204472320	44	4397
2026-01-13 00:08:41.97	196.55	27.58	-36.3	-38.0	23.8	0.00e+00	0	58	0	206045184	44	4307
2026-01-13 00:08:42.98	195.99	27.67	-36.1	-37.8	24.0	0.00e+00	0	58	0	207093760	44	4215
2026-01-13 00:08:43.99	195.42	27.77	-36.3	-38.0	23.8	0.00e+00	0	58	0	208142336	44	4292
2026-01-13 00:08:45.00	194.85	27.86	-36.4	-38.1	23.7	0.00e+00	0	58	0	209190912	44	4380
2026-01-13 00:08:46.00	194.28	27.95	-36.5	-38.2	23.6	0.00e+00	0	58	0	210239488	44	4419
2026-01-13 00:08:47.01	193.70	28.04	-36.5	-38.2	23.6	0.00e+00	0	58	0	211288064	44	4420
2026-01-13 00:08:48.02	193.12	28.12	-36.3	-38.0	23.8	0.00e+00	0	58	0	212860928	44	4329
2026-01-13 00:08:49.03	192.54	28.20	-36.2	-37.9	23.9	0.00e+00	0	58	0	213909504	44	4264
2026-01-13 00:08:50.04	191.95	28.28	-36.3	-38.0	23.9	0.00e+00	0	58	0	214958080	44	4299
2026-01-13 00:08:51.05	191.36	28.36	-36.5	-38.3	23.4	0.00e+00	0	58	0	216006656	44	4469
2026-01-13 00:08:52.06	190.77	28.43	-36.3	-38.0	23.8	0.00e+00	0	58	0	217055232	44	4310
2026-01-13 00:08:53.07	190.17	28.51	-36.3	-38.0	23.7	0.00e+00	0	58	0	218103808	44	4338
2026-01-13 00:08:54.08	189.57	28.57	-36.2	-37.9	23.8	0.00e+00	0	58	0	219676672	44	4288
2026-01-13 00:08:55.09	188.96	28.64	-36.2	-38.0	23.8	0.00e+00	0	58	0	220725248	44	4297
2026-01-13 00:08:56.10	188.36	28.70	-36.5	-38.2	23.6	0.00e+00	0	58	0	221773824	44	4416
2026-01-13 00:08:57.11	187.75	28.76	-36.5	-38.2	23.6	0.00e+00	0	58	0	222822400	44	4430
2026-01-13 00:08:58.12	187.14	28.82	-36.8	-38.6	23.3	0.00e+00	0	58	0	223870976	44	4615
2026-01-13 00:08:59.13	186.53	28.87	-36.9	-38.7	23.1	0.00e+00	0	58	0	224919552	44	4697
2026-01-13 00:09:00.14	185.91	28.92	-37.0	-38.9	23.0	0.00e+00	0	58	0	226492416	44	4765
2026-01-13 00:09:01.15	185.29	28.97	-36.7	-38.5	23.3	0.00e+00	0	58	0	227540992	44	4561
2026-01-13 00:09:02.16	184.68	29.01	-36.8	-38.6	23.2	0.00e+00	0	58	0	228589568	44	4634
2026-01-13 00:09:03.16	184.06	29.05	-36.9	-38.7	23.1	0.00e+00	0	58	0	229638144	44	4681
2026-01-13 00:09:04.17	183.44	29.09	-36.8	-38.6	23.2	0.00e+00	0	58	0	230686720	44	4611
2026-01-13 00:09:05.18	182.81	29.12	-36.5	-38.3	23.5	0.00e+00	0	58	0	231735296	44	4452
2026-01-13 00:09:06.19	182.19	29.15	-36.4	-38.1	23.7	0.00e+00	0	58	0	233308160	44	4380
2026-01-13 00:09:07.20	181.56	29.18	-36.4	-38.1	23.6	0.00e+00	0	58	0	234356736	44	4356
2026-01-13 00:09:08.21	180.93	29.20	-36.5	-38.2	23.7	0.00e+00	0	58	0	235405312	44	4418
2026-01-13 00:09:09.22	180.30	29.22	-36.6	-38.3	23.5	0.00e+00	0	58	0	236453888	44	4484
2026-01-13 00:09:10.23	179.67	29.24	-36.7	-38.5	23.4	0.00e+00	0	58	0	237502464	44	4557
2026-01-13 00:09:11.24	179.04	29.25	-36.8	-38.6	23.3	0.00e+00	0	58	0	238551040	44	4600
2026-01-13 00:09:12.25	178.41	29.26	-36.5	-38.2	23.6	0.00e+00	0	58	0	240123904	44	4438
2026-01-13 00:09:13.26	177.78	29.27	-36.6	-38.3	23.5	0.00e+00	0	58	0	241172480	44	4468
2026-01-13 00:09:14.27	177.15	29.27	-36.5	-38.3	23.6	0.00e+00	0	58	0	242221056	44	4451
2026-01-13 00:09:15.28	176.52	29.27	-36.4	-38.1	23.7	0.00e+00	0	58	0	243269632	44	4374
2026-01-13 00:09:16.28	175.89	29.26	-36.8	-38.5	23.4	0.00e+00	0	59	0	244318208	44	4594
2026-01-13 00:09:17.29	175.26	29.26	-36.8	-38.5	23.4	0.00e+00	0	58	0	245366784	44	4597
2026-01-13 00:09:18.31	174.63	29.25	-36.8	-38.6	23.4	0.00e+00	0	58	0	246939648	44	4599
2026-01-13 00:09:19.32	174.00	29.23	-36.8	-38.6	23.5	0.00e+00	0	58	0	247988224	44	4609
2026-01-13 00:09:20.33	173.37	29.21	-36.6	-38.4	23.5	0.00e+00	0	58	0	249036800	44	4512
2026-01-13 00:09:21.33	172.75	29.19	-36.8	-38.6	23.4	0.00e+00	0	58	0	250085376	44	4617
2026-01-13 00:09:22.34	172.12	29.17	-36.8	-38.6	23.3	0.00e+00	0	58	0	251133952	44	4601
2026-01-13 00:09:23.35	171.49	29.14	-36.9	-38.7	23.3	0.00e+00	0	58	0	252182528	44	4653
2026-01-13 00:09:24.36	170.87	29.10	-36.7	-38.5	23.4	0.00e+00	0	58	0	253755392	44	4554
2026-01-13 00:09:25.37	170.24	29.07	-36.8	-38.6	23.3	0.00e+00	0	58	0	254803968	44	4634
2026-01-13 00:09:26.39	169.62	29.03	-36.8	-38.6	23.3	0.00e+00	0	58	0	255852544	44	4618
2026-01-13 00:09:27.39	169.00	28.99	-36.5	-38.2	23.5	0.00e+00	0	58	0	256901120	43	4699
2026-01-13 00:09:28.40	168.38	28.94	-36.3	-38.0	23.7	0.00e+00	0	59	0	257949696	43	4589
2026-01-13 00:09:29.41	167.77	28.90	-36.1	-37.8	23.9	0.00e+00	0	58	0	258998272	43	4471
2026-01-13 00:09:30.42	167.15	28.84	-36.3	-38.1	23.7	0.00e+00	0	58	0	260571136	43	4615
2026-01-13 00:09:31.43	166.54	28.79	-36.4	-38.2	23.6	0.00e+00	0	58	0	261619712	43	4655
2026-01-13 00:09:32.44	165.93	28.73	-36.6	-38.4	23.4	0.00e+00	0	59	0	262668288	43	4760
2026-01-13 00:09:33.45	165.33	28.67	-37.0	-38.8	23.2	0.00e+00	0	59	0	263716864	44	4723
2026-01-13 00:09:34.46	164.72	28.61	-37.1	-39.0	23.0	0.00e+00	0	59	0	264765440	44	4826
2026-01-13 00:09:35.47	164.12	28.54	-36.7	-38.4	23.6	0.00e+00	0	58	0	265814016	44	4527
2026-01-13 00:09:36.48	163.52	28.47	-36.5	-38.2	23.7	0.00e+00	0	59	0	267386880	44	4432
2026-01-13 00:09:37.49	162.93	28.40	-36.5	-38.2	23.7	0.00e+00	0	58	0	268435456	44	4425
2026-01-13 00:09:38.50	162.34	28.32	-36.4	-38.2	23.7	0.00e+00	0	59	0	269484032	44	4403
2026-01-13 00:09:39.51	161.75	28.24	-36.6	-38.4	23.5	0.00e+00	0	58	0	270532608	44	4514
2026-01-13 00:09:40.52	161.16	28.16	-36.5	-38.2	23.7	0.00e+00	0	59	0	271581184	44	4432
2026-01-13 00:09:41.53	160.58	28.08	-36.5	-38.3	23.7	0.00e+00	0	58	0	272629760	44	4448
2026-01-13 00:09:42.53	160.01	27.99	-36.4	-38.1	23.9	0.00e+00	0	58	0	274202624	44	4364
2026-01-13 00:09:43.54	159.43	27.90	-36.3	-38.1	23.9	0.00e+00	0	58	0	275251200	44	4343
2026-01-13 00:09:44.55	158.86	27.81	-36.1	-37.8	24.1	0.00e+00	0	59	0	276299776	44	4230
2026-01-13 00:09:45.56	158.29	27.72	-36.1	-37.8	24.1	0.00e+00	0	59	0	277348352	44	4236
2026-01-13 00:09:46.57	157.73	27.62	-36.0	-37.7	24.2	0.00e+00	0	58	0	278396928	44	4170
2026-01-13 00:09:47.58	157.17	27.53	-35.7	-37.4	24.4	0.00e+00	0	59	0	279445504	43	4264
2026-01-13 00:09:48.59	156.61	27.42	-35.9	-37.6	24.2	0.00e+00	0	58	0	281018368	43	4379
2026-01-13 00:09:49.60	156.06	27.32	-36.2	-38.0	23.9	0.00e+00	0	59	0	282066944	43	4554
2026-01-13 00:09:50.61	155.51	27.22	-36.6	-38.4	23.4	0.00e+00	0	58	0	283115520	43	4810
2026-01-13 00:09:51.62	154.97	27.11	-37.0	-38.8	23.2	0.00e+00	0	59	0	284164096	44	4753
2026-01-13 00:09:52.63	154.43	27.00	-36.8	-38.6	23.4	0.00e+00	0	59	0	285212672	44	4633
2026-01-13 00:09:53.64	153.89	26.89	-36.6	-38.3	23.6	0.00e+00	0	59	0	286261248	44	4492
2026-01-13 00:09:54.65	153.36	26.78	-36.3	-38.1	23.9	0.00e+00	0	59	0	287834112	44	4348
2026-01-13 00:09:55.66	152.84	26.66	-36.2	-37.9	24.1	0.00e+00	0	59	0	288882688	44	4274
2026-01-13 00:09:56.67	152.31	26.55	-36.1	-37.8	24.2	0.00e+00	0	58	0	289931264	44	4216
2026-01-13 00:09:57.68	151.80	26.43	-36.5	-38.2	23.8	0.00e+00	0	59	0	290979840	44	4422
2026-01-13 00:09:58.69	151.28	26.31	-36.6	-38.4	23.6	0.00e+00	0	59	0	292028416	44	4503
2026-01-13 00:09:59.70	150.77	26.19	-36.7	-38.5	23.5	0.00e+00	0	58	0	293076992	44	4592
2026-01-13 00:10:00.71	150.27	26.07	-37.2	-39.1	23.0	0.00e+00	0	59	0	294649856	44	4877
2026-01-13 00:10:01.72	149.77	25.95	-37.1	-39.0	23.0	0.00e+00	0	59	0	295698432	45	4568
2026-01-13 00:10:02.72	149.28	25.82	-37.2	-39.1	23.0	0.00e+00	0	59	0	296747008	45	4599
2026-01-13 00:10:03.73	148.79	25.70	-36.9	-38.7	23.3	0.00e+00	0	59	0	297795584	45	4424
2026-01-13 00:10:04.74	148.30	25.57	-36.9	-38.7	23.3	0.00e+00	0	59	0	298844160	45	4431
2026-01-13 00:10:05.75	147.82	25.44	-36.6	-38.4	23.6	0.00e+00	0	58	0	299892736	45	4272
2026-01-13 00:10:06.76	147.34	25.31	-36.7	-38.5	23.4	0.00e+00	0	59	0	301465600	45	4335
2026-01-13 00:10:07.77	146.87	25.18	-36.8	-38.7	23.3	0.00e+00	0	59	0	302514176	45	4399
2026-01-13 00:10:08.78	146.40	25.05	-37.0	-38.8	23.2	0.00e+00	0	59	0	303562752	45	4475
2026-01-13 00:10:09.79	145.93	24.92	-36.9	-38.7	23.2	0.00e+00	0	59	0	304611328	45	4438
2026-01-13 00:10:10.80	145.47	24.78	-36.7	-38.5	23.5	0.00e+00	0	59	0	305659904	45	4296
2026-01-13 00:10:11.81	145.02	24.65	-36.7	-38.5	23.5	0.00e+00	0	59	0	306708480	45	4329
2026-01-13 00:10:12.81	144.57	24.51	-36.6	-38.3	23.6	0.00e+00	0	59	0	308281344	45	4231
2026-01-13 00:10:13.82	144.13	24.38	-36.5	-38.2	23.6	0.00e+00	0	59	0	309329920	44	4422
2026-01-13 00:10:14.83	143.68	24.24	-36.7	-38.5	23.5	0.00e+00	0	59	0	310378496	44	4571
2026-01-13 00:10:15.84	143.25	24.10	-36.9	-38.7	23.3	0.00e+00	0	59	0	311427072	44	4667
2026-01-13 00:10:16.85	142.81	23.97	-37.2	-39.1	22.8	0.00e+00	0	59	0	312475648	44	4891
2026-01-13 00:10:17.86	142.39	23.83	-37.1	-39.0	22.9	0.00e+00	0	59	0	313524224	44	4859
2026-01-13 00:10:18.87	141.96	23.69	-37.1	-38.9	23.0	0.00e+00	0	59	0	314572800	44	4803
2026-01-13 00:10:19.88	141.54	23.55	-36.9	-38.8	23.1	0.00e+00	0	59	0	316145664	44	4743
2026-01-13 00:10:20.89	141.13	23.41	-36.7	-38.5	23.4	0.00e+00	0	59	0	317194240	44	4561
2026-01-13 00:10:21.90	140.72	23.27	-36.7	-38.5	23.4	0.00e+00	0	59	0	318242816	44	4578
2026-01-13 00:10:22.91	140.31	23.13	-36.8	-38.6	23.2	0.00e+00	0	59	0	319291392	44	4651
2026-01-13 00:10:23.92	139.91	22.99	-37.0	-38.8	23.0	0.00e+00	0	59	0	320339968	44	4754
2026-01-13 00:10:24.93	139.51	22.85	-37.0	-38.9	22.9	0.00e+00	0	59	0	321388544	44	4798
2026-01-13 00:10:25.94	139.12	22.71	-37.1	-38.9	22.9	0.00e+00	0	59	0	322961408	44	4814
2026-01-13 00:10:26.95	138.73	22.56	-37.2	-39.1	22.8	0.00e+00	0	59	0	324009984	44	4887
2026-01-13 00:10:27.96	138.34	22.42	-37.1	-39.0	22.8	0.00e+00	0	59	0	325058560	44	4837
2026-01-13 00:10:28.97	137.96	22.28	-37.1	-39.0	22.8	0.00e+00	0	59	0	326107136	44	4848
2026-01-13 00:10:29.98	137.58	22.14	-37.1	-39.0	22.8	0.00e+00	0	59	0	327155712	44	4827
2026-01-13 00:10:30.99	137.21	22.00	-37.1	-39.0	22.8	0.00e+00	0	59	0	328728576	44	4831
2026-01-13 00:10:32.00	136.84	21.85	-37.1	-38.9	22.8	0.00e+00	0	59	0	329777152	44	4814
2026-01-13 00:10:33.01	136.48	21.71	-37.2	-39.1	22.7	0.00e+00	0	59	0	330825728	44	4911
2026-01-13 00:10:34.02	136.12	21.57	-37.4	-39.3	22.4	0.00e+00	0	59	0	331874304	45	4740
2026-01-13 00:10:35.03	135.76	21.43	-37.5	-39.4	22.4	0.00e+00	0	59	0	332922880	45	4810
2026-01-13 00:10:36.04	135.41	21.29	-37.6	-39.6	22.1	0.00e+00	0	59	0	333971456	45	4906
2026-01-13 00:10:37.05	135.06	21.14	-37.5	-39.5	22.2	0.00e+00	0	59	0	335544320	45	4851
2026-01-13 00:10:38.05	134.72	21.00	-37.5	-39.5	22.2	0.00e+00	0	59	0	336592896	45	4844
2026-01-13 00:10:39.06	134.37	20.86	-37.3	-39.2	22.5	0.00e+00	0	59	0	337641472	45	4693
2026-01-13 00:10:40.07	134.04	20.72	-37.4	-39.4	22.4	0.00e+00	0	59	0	338690048	45	4766
2026-01-13 00:10:41.08	133.70	20.58	-37.4	-39.3	22.4	0.00e+00	0	59	0	339738624	45	4749
2026-01-13 00:10:42.09	133.37	20.44	-37.6	-39.6	22.1	0.00e+00	0	59	0	340787200	45	4897
2026-01-13 00:10:43.10	133.04	20.30	-37.4	-39.4	22.3	0.00e+00	0	59	0	342360064	45	4794
2026-01-13 00:10:44.11	132.72	20.16	-37.5	-39.5	22.2	0.00e+00	0	59	0	343408640	45	4818
2026-01-13 00:10:45.12	132.40	20.02	-37.5	-39.4	22.2	0.00e+00	0	59	0	344457216	45	4811
2026-01-13 00:10:46.13	132.09	19.88	-37.7	-39.7	22.0	0.00e+00	0	59	0	345505792	45	4966
2026-01-13 00:10:47.14	131.77	19.74	-37.8	-39.8	21.9	0.00e+00	0	59	0	346554368	46	4737
2026-01-13 00:10:48.15	131.46	19.60	-37.8	-39.9	21.8	0.00e+00	0	59	0	347602944	46	4794
2026-01-13 00:10:49.16	131.16	19.46	-37.9	-40.0	21.7	0.00e+00	0	59	0	349175808	46	4831
2026-01-13 00:10:50.17	130.86	19.32	-37.8	-39.9	21.8	0.00e+00	0	59	0	350224384	46	4760
2026-01-13 00:10:51.18	130.56	19.18	-37.8	-39.8	21.8	0.00e+00	0	59	0	351272960	46	4757
2026-01-13 00:10:52.19	130.26	19.05	-37.7	-39.8	21.8	0.00e+00	0	59	0	352321536	46	4733
2026-01-13 00:10:53.20	129.97	18.91	-37.7	-39.8	21.8	0.00e+00	0	59	0	353370112	46	4724
2026-01-13 00:10:54.21	129.68	18.77	-37.9	-40.0	21.6	0.00e+00	0	59	0	354418688	46	4865
2026-01-13 00:10:55.22	129.39	18.64	-37.8	-40.0	21.6	0.00e+00	0	59	0	355467264	46	4839
2026-01-13 00:10:56.23	129.11	18.50	-37.9	-40.1	21.5	0.00e+00	0	59	0	357040128	46	4879
2026-01-13 00:10:57.23	128.83	18.37	-37.9	-40.0	21.5	0.00e+00	0	59	0	358088704	46	4828
2026-01-13 00:10:58.24	128.56	18.23	-37.8	-39.9	21.6	0.00e+00	0	59	0	359137280	46	4807
2026-01-13 00:10:59.25	128.28	18.10	-38.0	-40.1	21.4	0.00e+00	0	59	0	360185856	46	4920
2026-01-13 00:11:00.26	128.01	17.96	-38.0	-40.1	21.4	0.00e+00	0	59	0	361234432	46	4920
2026-01-13 00:11:01.27	127.74	17.83	-38.2	-40.4	21.1	0.00e+00	0	59	0	362283008	46	5078
2026-01-13 00:11:02.28	127.48	17.69	-38.0	-40.2	21.3	0.00e+00	0	59	0	363855872	46	4949
2026-01-13 00:11:03.29	127.22	17.56	-37.9	-40.1	21.4	0.00e+00	0	59	0	364904448	46	4891
2026-01-13 00:11:04.30	126.96	17.43	-37.9	-40.1	21.4	0.00e+00	0	59	0	365953024	46	4897
2026-01-13 00:11:05.31	126.70	17.30	-38.0	-40.2	21.2	0.00e+00	0	59	0	367001600	46	4970
2026-01-13 00:11:06.32	126.45	17.17	-38.2	-40.4	21.1	0.00e+00	0	59	0	368050176	46	5055
2026-01-13 00:11:07.33	126.20	17.04	-38.3	-40.6	20.8	0.00e+00	0	59	0	369098752	47	4923
2026-01-13 00:11:08.34	125.95	16.91	-38.4	-40.7	20.8	0.00e+00	0	59	0	370671616	47	4928
2026-01-13 00:11:09.35	125.70	16.78	-38.4	-40.7	20.7	0.00e+00	0	59	0	371720192	47	4959
2026-01-13 00:11:10.36	125.46	16.65	-38.3	-40.6	20.8	0.00e+00	0	59	0	372768768	47	4876
2026-01-13 00:11:11.36	125.22	16.52	-38.2	-40.4	20.9	0.00e+00	0	59	0	373817344	47	4797
2026-01-13 00:11:12.37	124.98	16.39	-38.2	-40.5	20.8	0.00e+00	0	59	0	374865920	47	4860
2026-01-13 00:11:13.38	124.75	16.26	-38.2	-40.5	20.8	0.00e+00	0	59	0	375914496	47	4852
2026-01-13 00:11:14.39	124.51	16.14	-37.8	-40.6	20.5	0.00e+00	0	59	0	377487360	47	4907
2026-01-13 00:11:15.40	124.28	16.01	-38.4	-40.8	20.6	0.00e+00	0	59	0	378535936	47	4986
2026-01-13 00:11:16.41	124.06	15.89	-38.4	-40.8	20.5	0.00e+00	0	59	0	379584512	47	5018
2026-01-13 00:11:17.42	123.83	15.76	-38.5	-40.9	20.4	0.00e+00	0	59	0	380633088	47	5065
2026-01-13 00:11:18.43	123.61	15.64	-38.6	-41.1	20.2	0.00e+00	0	59	0	381681664	47	5208
2026-01-13 00:11:19.44	123.39	15.51	-38.9	-41.3	20.0	0.00e+00	0	59	0	383254528	48	5039
2026-01-13 00:11:20.45	123.17	15.39	-37.8	-41.5	19.6	0.00e+00	0	59	0	384303104	47	5437
2026-01-13 00:11:21.46	122.95	15.26	-39.1	-41.7	19.6	0.00e+00	0	59	0	385351680	48	5270
2026-01-13 00:11:22.47	122.74	15.14	-39.1	-41.7	19.4	0.00e+00	0	59	0	386400256	48	5273
2026-01-13 00:11:23.48	122.53	15.02	-39.0	-41.6	19.7	6.80e-06	0	59	0	387448832	48	5202
2026-01-13 00:11:24.49	122.32	14.90	-37.2	-41.3	18.7	6.80e-06	0	59	0	388497408	45	5959
2026-01-13 00:11:25.50	122.11	14.78	-38.6	-41.3	19.9	1.48e-05	0	59	0	390070272	48	4997
2026-01-13 00:11:26.51	121.91	14.66	-38.7	-41.2	19.2	3.40e-06	0	59	0	391118848	47	5268
2026-01-13 00:11:27.52	121.70	14.54	-38.9	-41.5	19.7	9.10e-06	0	59	0	392167424	48	5124
2026-01-13 00:11:28.53	121.50	14.42	-39.0	-41.7	19.2	9.10e-06	0	59	0	393216000	48	5220
2026-01-13 00:11:29.54	121.30	14.30	-38.8	-41.8	19.3	3.20e-05	0	59	0	394264576	48	5317
2026-01-13 00:11:30.55	121.11	14.18	-39.2	-42.1	17.8	8.01e-05	0	59	0	395313152	49	5198
2026-01-13 00:11:31.56	120.91	14.06	-39.3	-42.0	18.9	8.01e-05	0	59	0	396361728	49	5153
2026-01-13 00:11:32.57	120.72	13.95	-39.1	-41.9	18.7	1.34e-04	0	59	0	397934592	48	5391
2026-01-13 00:11:33.58	120.53	13.83	-39.0	-41.9	19.2	1.34e-04	0	59	0	398983168	48	5369
2026-01-13 00:11:34.59	120.34	13.72	-38.9	-41.8	19.2	1.34e-04	0	59	0	400031744	48	5285
2026-01-13 00:11:35.60	120.15	13.60	-38.7	-41.7	19.4	7.55e-05	0	59	0	401080320	48	5232
2026-01-13 00:11:36.61	119.97	13.49	-38.5	-41.8	19.2	4.92e-05	0	59	0	402128896	48	5307
2026-01-13 00:11:37.62	119.79	13.37	-39.0	-42.0	19.0	4.92e-05	0	59	0	403177472	48	5435
2026-01-13 00:11:38.62	119.61	13.26	-39.1	-42.0	18.7	3.43e-05	0	59	0	404750336	48	5463
2026-01-13 00:11:39.63	119.43	13.15	-39.2	-42.2	18.7	1.07e-04	0	59	0	405798912	49	5266
2026-01-13 00:11:40.64	119.25	13.03	-39.2	-42.3	18.7	3.66e-05	0	59	0	406847488	49	5287
2026-01-13 00:11:41.65	119.07	12.92	-39.3	-42.2	18.3	3.66e-05	0	59	0	407896064	49	5266
2026-01-13 00:11:42.66	118.90	12.81	-39.4	-42.4	18.4	3.64e-04	0	59	0	408944640	49	5374
2026-01-13 00:11:43.67	118.73	12.70	-39.1	-42.3	18.5	2.86e-05	0	59	0	409993216	49	5338
2026-01-13 00:11:44.68	118.56	12.59	-39.1	-42.3	18.6	2.86e-05	0	59	0	411566080	49	5299
2026-01-13 00:11:45.69	118.39	12.48	-39.3	-42.4	18.6	6.80e-06	0	59	0	412614656	49	5342
2026-01-13 00:11:46.70	118.22	12.37	-38.7	-42.4	18.4	4.50e-06	0	59	0	413663232	49	5375
2026-01-13 00:11:47.71	118.05	12.26	-39.4	-42.6	18.2	4.50e-06	0	59	0	414711808	49	5485
2026-01-13 00:11:48.72	117.89	12.15	-39.4	-42.6	18.0	6.80e-06	0	59	0	415760384	49	5506
2026-01-13 00:11:49.73	117.73	12.04	-39.1	-42.6	17.8	5.55e-04	0	59	0	416808960	49	5508
2026-01-13 00:11:50.74	117.57	11.94	-39.2	-42.5	17.7	5.55e-04	0	59	0	418381824	49	5463
2026-01-13 00:11:51.75	117.41	11.83	-39.0	-42.7	17.6	2.51e-05	0	59	0	419430400	48	5871
2026-01-13 00:11:52.76	117.25	11.73	-38.7	-42.7	17.5	2.74e-05	0	59	0	420478976	48	5894
2026-01-13 00:11:53.77	117.09	11.62	-37.6	-42.7	17.3	6.17e-05	0	59	0	421527552	47	6252
2026-01-13 00:11:54.78	116.94	11.51	-38.1	-42.7	16.3	6.17e-05	0	59	0	422576128	46	6606
2026-01-13 00:11:55.79	116.78	11.41	-38.0	-43.0	16.4	3.08e-04	0	59	0	424148992	47	6478
2026-01-13 00:11:56.80	116.63	11.31	-36.9	-43.1	15.3	2.67e-04	0	59	0	425197568	46	6900
2026-01-13 00:11:57.81	116.48	11.20	-37.4	-42.9	15.5	2.67e-04	0	59	0	426246144	44	7555
2026-01-13 00:11:58.82	116.33	11.10	-37.3	-43.3	15.1	4.93e-04	0	59	0	427294720	45	7524
2026-01-13 00:11:59.83	116.18	11.00	-34.8	-43.3	14.1	6.27e-04	0	59	0	428343296	44	7913
2026-01-13 00:12:00.84	116.04	10.89	-37.1	-43.2	14.2	6.27e-04	0	59	0	429391872	44	7828
2026-01-13 00:12:01.85	115.89	10.79	-37.4	-43.1	14.2	1.21e-03	0	59	0	430964736	42	8679
2026-01-13 00:12:02.86	115.75	10.69	-34.7	-42.4	14.4	7.30e-04	0	59	0	432013312	41	8471
2026-01-13 00:12:03.87	115.61	10.59	-35.9	-42.7	13.9	7.30e-04	0	59	0	433061888	42	8278
2026-01-13 00:12:04.88	115.47	10.49	-35.2	-42.4	14.0	6.61e-04	0	59	0	434110464	41	8474
2026-01-13 00:12:05.89	115.33	10.39	-35.7	-42.5	13.2	7.04e-04	0	59	0	435159040	40	9115
2026-01-13 00:12:06.90	115.19	10.29	-34.0	-42.8	12.5	1.20e-03	0	59	0	436207616	37	11264
2026-01-13 00:12:07.91	115.05	10.19	-34.9	-43.2	12.6	1.20e-03	0	59	0	437256192	41	9295
2026-01-13 00:12:08.92	114.91	10.09	-35.5	-42.6	12.6	2.71e-03	0	59	0	438829056	41	8719
2026-01-13 00:12:09.93	114.78	10.00	-35.1	-42.6	12.7	1.42e-03	0	59	0	439877632	38	10357
2026-01-13 00:12:10.94	114.65	9.90	-35.8	-46.3	9.8	1.42e-03	0	59	0	440926208	42	12599
2026-01-13 00:12:11.95	114.51	9.80	-37.1	-46.9	9.5	1.55e-02	0	59	0	441974784	41	14288
2026-01-13 00:12:12.96	114.38	9.71	-33.8	-45.3	10.0	4.69e-02	0	59	0	443023360	40	12570
2026-01-13 00:12:13.97	114.25	9.61	-36.4	-46.2	9.5	4.69e-02	0	59	0	444071936	39	14823
2026-01-13 00:12:14.98	114.13	9.51	-36.6	-49.8	7.0	2.49e-02	0	59	0	445644800	43	17695
2026-01-13 00:12:15.99	114.00	9.42	-35.0	-50.4	6.0	2.48e-01	0	59	0	446169088	39	23899
2026-01-13 00:12:17.00	113.87	9.32	-35.9	-49.6	7.0	2.48e-01	0	59	0	446693376	43	17376
2026-01-13 00:12:18.01	113.75	9.23	-35.0	-47.5	8.4	5.06e-01	0	59	0	447741952	40	16137
2026-01-13 00:12:19.02	113.62	9.14	-33.4	-47.6	8.4	1.22e-01	0	59	0	449314816	40	16473
2026-01-13 00:12:20.02	113.50	9.04	-35.9	-47.9	7.5	1.83e-01	0	59	0	450363392	38	18950
2026-01-13 00:12:21.03	113.38	8.95	-35.6	-45.2	9.8	1.83e-01	0	59	0	451411968	42	11135
2026-01-13 00:12:22.04	113.26	8.86	-34.1	-44.2	12.1	6.23e-02	0	59	0	452460544	43	9312
2026-01-13 00:12:23.05	113.14	8.77	-36.2	-43.8	12.0	2.13e-03	0	59	0	453509120	41	9991
2026-01-13 00:12:24.06	113.02	8.67	-35.4	-43.8	12.4	2.13e-03	0	59	0	454557696	41	9976
2026-01-13 00:12:25.07	112.90	8.58	-34.0	-43.9	12.3	1.52e-03	0	59	0	455606272	43	9010
2026-01-13 00:12:26.08	112.78	8.49	-36.3	-44.3	11.5	2.04e-03	0	59	0	457179136	39	11917
2026-01-13 00:12:27.09	112.67	8.40	-35.2	-44.8	11.4	2.04e-03	0	59	0	458227712	43	9989
2026-01-13 00:12:28.10	112.55	8.31	-35.2	-43.5	12.0	4.82e-03	0	59	0	459276288	41	9639
2026-01-13 00:12:29.11	112.44	8.22	-35.7	-44.0	12.2	2.43e-03	0	60	0	460324864	41	10267
2026-01-13 00:12:30.12	112.33	8.13	-36.0	-44.3	12.4	2.43e-03	0	59	0	461373440	42	10044
2026-01-13 00:12:31.13	112.22	8.04	-34.4	-44.8	12.2	3.02e-03	0	59	0	462422016	44	9454
2026-01-13 00:12:32.14	112.10	7.96	-44.1	-61.1	3.9	2.10e-02	0	59	104	463470592	58	27405
2026-01-13 00:12:33.15	111.99	7.87	-44.6	-62.5	3.8	7.96e-01	0	59	104	463470592	59	30681
2026-01-13 00:12:34.16	111.89	7.78	-44.8	-62.8	3.8	7.96e-01	0	59	104	463470592	60	29991
2026-01-13 00:12:35.17	111.78	7.69	-45.0	-63.1	3.8	8.46e-01	0	60	104	463470592	60	30795
2026-01-13 00:12:36.17	111.67	7.61	-45.2	-63.3	3.8	8.46e-01	0	59	104	463470592	60	31549
2026-01-13 00:12:37.18	111.56	7.52	-45.3	-63.4	3.8	8.46e-01	0	59	104	463470592	61	30174
2026-01-13 00:12:38.19	111.46	7.43	-45.4	-63.5	3.8	8.47e-01	0	59	104	463470592	61	30668
2026-01-13 00:12:39.20	111.36	7.35	-45.5	-63.7	3.8	8.45e-01	0	59	104	463470592	61	31157
2026-01-13 00:12:40.21	111.25	7.26	-45.6	-63.7	3.8	8.45e-01	0	59	104	463470592	61	31295
2026-01-13 00:12:41.22	111.15	7.18	-45.6	-63.7	3.8	8.46e-01	0	60	104	463470592	61	31399
2026-01-13 00:12:42.23	111.05	7.09	-45.5	-63.7	3.8	8.46e-01	0	59	104	463470592	61	31267
2026-01-13 00:12:43.24	110.95	7.01	-45.4	-63.7	3.8	8.47e-01	0	59	104	463470592	61	31180
2026-01-13 00:12:44.25	110.85	6.92	-45.4	-63.6	3.8	8.47e-01	0	59	104	463470592	61	31004
2026-01-13 00:12:45.26	110.75	6.84	-45.3	-63.6	3.8	8.47e-01	0	59	104	463470592	61	30889
2026-01-13 00:12:46.27	110.65	6.76	-45.3	-63.6	3.8	8.47e-01	0	59	104	463470592	61	30909
2026-01-13 00:12:47.28	110.55	6.67	-45.3	-63.6	3.8	8.47e-01	0	59	104	463470592	61	30957
2026-01-13 00:12:48.29	110.45	6.59	-45.2	-63.5	3.8	8.46e-01	0	60	104	463470592	61	30618
2026-01-13 00:12:49.30	110.36	6.51	-45.2	-63.5	3.8	8.46e-01	0	59	104	463470592	61	30540
2026-01-13 00:12:50.31	110.26	6.43	-45.2	-63.5	3.8	8.46e-01	0	59	104	463470592	61	30503
2026-01-13 00:12:51.32	110.17	6.35	-45.2	-63.5	3.8	8.46e-01	0	60	104	463470592	61	30434
2026-01-13 00:12:52.33	110.07	6.26	-45.2	-63.5	3.8	8.46e-01	0	59	104	463470592	61	30469
2026-01-13 00:12:53.34	109.98	6.18	-45.2	-63.5	3.8	8.46e-01	0	59	104	463470592	61	30443
2026-01-13 00:12:54.35	109.89	6.10	-45.2	-63.5	3.8	8.45e-01	0	59	104	463470592	61	30457
2026-01-13 00:12:55.36	109.79	6.02	-45.2	-63.5	3.8	8.46e-01	0	59	104	463470592	61	30470
2026-01-13 00:12:56.37	109.70	5.94	-45.2	-63.5	3.8	8.46e-01	0	59	104	463470592	61	30410
2026-01-13 00:12:57.38	109.61	5.86	-45.2	-63.5	3.8	8.46e-01	0	60	104	463470592	61	30418
2026-01-13 00:12:58.39	109.52	5.78	-45.2	-63.5	3.8	8.47e-01	0	59	104	463470592	61	30456
2026-01-13 00:12:59.40	109.43	5.70	-45.2	-63.5	3.8	8.47e-01	0	60	104	463470592	61	30460
2026-01-13 00:13:00.41	109.35	5.63	-45.2	-63.5	3.8	8.47e-01	0	59	104	463470592	61	30393
2026-01-13 00:13:01.42	109.26	5.55	-45.2	-63.5	3.8	8.46e-01	0	59	104	463470592	61	30456
2026-01-13 00:13:02.43	109.17	5.47	-45.1	-63.4	3.8	8.46e-01	0	59	104	463470592	61	30348
2026-01-13 00:13:03.44	109.08	5.39	-45.1	-63.4	3.8	8.46e-01	0	60	104	463470592	61	30309
2026-01-13 00:13:04.45	109.00	5.31	-45.1	-63.4	3.8	8.45e-01	0	59	104	463470592	61	30249
2026-01-13 00:13:05.46	108.91	5.24	-45.1	-63.4	3.8	8.46e-01	0	59	104	463470592	61	30306
2026-01-13 00:13:06.47	108.83	5.16	-45.1	-63.4	3.8	8.46e-01	0	60	104	463470592	61	30227
2026-01-13 00:13:07.48	108.75	5.08	-45.1	-63.4	3.8	8.46e-01	0	59	104	463470592	61	30296
2026-01-13 00:13:08.49	108.66	5.01	-45.1	-63.4	3.8	8.46e-01	0	59	104	463470592	61	30193
2026-01-13 00:13:09.50	108.58	4.93	-45.1	-63.4	3.8	8.46e-01	0	60	104	463470592	61	30223
2026-01-13 00:13:10.51	108.50	4.85	-45.1	-63.4	3.8	8.46e-01	0	60	104	463470592	61	30189
2026-01-13 00:13:11.52	108.42	4.78	-45.1	-63.4	3.8	8.48e-01	0	59	104	463470592	61	30260
2026-01-13 00:13:12.53	108.34	4.70	-45.1	-63.4	3.8	8.46e-01	0	60	104	463470592	61	30142
2026-01-13 00:13:13.54	108.26	4.63	-45.1	-63.4	3.8	8.46e-01	0	59	104	463470592	61	30266
2026-01-13 00:13:14.55	108.18	4.55	-45.1	-63.4	3.8	8.47e-01	0	60	104	463470592	61	30271
2026-01-13 00:13:15.56	108.10	4.48	-45.1	-63.4	3.8	8.46e-01	0	60	104	463470592	61	30242
2026-01-13 00:13:16.57	108.02	4.41	-45.1	-63.4	3.8	8.46e-01	0	60	104	463470592	61	30248
2026-01-13 00:13:17.58	107.94	4.33	-45.1	-63.4	3.8	8.46e-01	0	60	104	463470592	61	30280
2026-01-13 00:13:18.59	107.87	4.26	-45.1	-63.4	3.8	8.45e-01	0	60	104	463470592	61	30209
2026-01-13 00:13:19.60	107.79	4.18	-45.1	-63.4	3.8	8.45e-01	0	60	104	463470592	61	30222
2026-01-13 00:13:20.61	107.71	4.11	-45.1	-63.4	3.8	8.45e-01	0	59	104	463470592	61	30206
2026-01-13 00:13:21.62	107.64	4.04	-45.1	-63.4	3.8	8.46e-01	0	59	104	463470592	61	30210
2026-01-13 00:13:22.63	107.56	3.97	-45.1	-63.4	3.8	8.48e-01	0	59	104	463470592	61	30176
2026-01-13 00:13:23.64	107.49	3.89	-45.1	-63.4	3.8	8.48e-01	0	60	104	463470592	61	30160
2026-01-13 00:13:24.65	107.42	3.82	-45.1	-63.4	3.8	8.46e-01	0	60	104	463470592	61	30130
2026-01-13 00:13:25.65	107.34	3.75	-45.1	-63.4	3.8	8.47e-01	0	59	104	463470592	61	30242
2026-01-13 00:13:26.66	107.27	3.68	-45.1	-63.4	3.8	8.47e-01	0	59	104	463470592	61	30161
2026-01-13 00:13:27.67	107.20	3.61	-45.1	-63.4	3.8	8.47e-01	0	60	104	463470592	61	30162
2026-01-13 00:13:28.68	107.13	3.54	-45.1	-63.4	3.8	8.47e-01	0	60	104	463470592	61	30172
2026-01-13 00:13:29.69	107.06	3.47	-45.1	-63.4	3.8	8.47e-01	0	59	104	463470592	61	30121
2026-01-13 00:13:30.70	106.99	3.40	-45.1	-63.4	3.8	8.46e-01	0	60	104	463470592	61	30145
2026-01-13 00:13:31.72	106.92	3.32	-45.1	-63.4	3.8	8.46e-01	0	59	104	463470592	61	30127
2026-01-13 00:13:32.72	106.85	3.26	-45.1	-63.4	3.8	8.46e-01	0	59	104	463470592	61	30141
2026-01-13 00:13:33.73	106.78	3.19	-45.1	-63.4	3.8	8.46e-01	0	59	104	463470592	61	30091
2026-01-13 00:13:34.74	106.71	3.12	-45.1	-63.4	3.8	8.47e-01	0	59	104	463470592	61	30188
2026-01-13 00:13:35.75	106.64	3.05	-45.1	-63.4	3.8	8.45e-01	0	60	104	463470592	61	30126
2026-01-13 00:13:36.77	106.57	2.98	-45.0	-63.4	3.8	8.45e-01	0	60	104	463470592	61	30123
2026-01-13 00:13:37.78	106.50	2.91	-45.1	-63.4	3.8	8.47e-01	0	60	104	463470592	61	30105
2026-01-13 00:13:38.79	106.44	2.84	-45.1	-63.4	3.8	8.46e-01	0	60	104	463470592	61	30109
2026-01-13 00:13:39.80	106.37	2.77	-45.1	-63.4	3.8	8.46e-01	0	60	104	463470592	61	30085
2026-01-13 00:13:40.81	106.31	2.70	-45.1	-63.4	3.8	8.46e-01	0	60	104	463470592	61	30104
2026-01-13 00:13:41.81	106.24	2.63	-45.1	-63.4	3.8	8.45e-01	0	59	104	463470592	61	30098
2026-01-13 00:13:42.82	106.18	2.57	-45.1	-63.4	3.8	8.45e-01	0	59	104	463470592	61	30080
2026-01-13 00:13:43.83	106.11	2.50	-45.1	-63.4	3.8	8.47e-01	0	60	104	463470592	61	30094
2026-01-13 00:13:44.84	106.05	2.43	-45.1	-63.4	3.8	8.46e-01	0	60	104	463470592	61	30110
2026-01-13 00:13:45.86	105.98	2.36	-45.1	-63.4	3.8	8.46e-01	0	60	104	463470592	61	30124
2026-01-13 00:13:46.87	105.92	2.30	-45.1	-63.3	3.8	8.45e-01	0	60	104	463470592	61	30024
2026-01-13 00:13:47.87	105.86	2.23	-45.1	-63.4	3.8	8.45e-01	0	60	104	463470592	61	30040
2026-01-13 00:13:48.89	105.80	2.16	-45.1	-63.4	3.8	8.45e-01	0	59	104	463470592	61	30123
2026-01-13 00:13:49.90	105.73	2.10	-45.1	-63.4	3.8	8.45e-01	0	60	104	463470592	61	30089
2026-01-13 00:13:50.91	105.67	2.03	-45.1	-63.3	3.8	8.46e-01	0	60	104	463470592	61	30007
2026-01-13 00:13:51.92	105.61	1.97	-45.1	-63.4	3.8	8.46e-01	0	59	104	463470592	61	30114
2026-01-13 00:13:52.93	105.55	1.90	-45.0	-63.4	3.8	8.46e-01	0	60	104	463470592	61	30101

#Closed at: 2026-01-13 00:13:53
#Recorded file [463 MB]: D:/lorett/data/31039_260113_030439.dat