passes_logs/2026/01/13/R2.0S_Moscow/R2.0S_Moscow__20260113_082342_SUOMI_NPP_rec.log

#Pass ID: 20260113_082342_SUOMI NPP
#Satellite: SUOMI NPP
#Configuration: NPP
#almurnet v.1.7.20251203
#Start time: 2026-01-13 08:23:43

#Version: 2.2.20231116
#Station: R2.0S_Moscow
#Location: 37.707566 lon 55.798166 lat
#TLE: 1 37849U 11061A   26012.28456845  .00000093  00000+0  65163-4 0  9999
#TLE: 2 37849  98.7807 314.3566 0002508  68.3553 291.7890 14.19524725736322

#Time	Az	El	Level	Level2	SNR	BER	BlckErr	Temp	State	Recorded	gain1	gain2
2026-01-13 08:23:43.11	113.67	2.04	-34.4	-51.6	4.0	1.50e+00	0	49	0	0	39	27624
2026-01-13 08:23:44.13	113.60	2.10	-36.7	-54.7	4.1	1.50e+00	0	49	104	0	50	20869
2026-01-13 08:23:45.14	113.54	2.16	-35.3	-54.6	3.9	1.50e+00	0	49	104	0	47	24621
2026-01-13 08:23:46.15	113.47	2.22	-39.0	-54.8	3.9	1.49e+00	0	49	104	0	47	25042
2026-01-13 08:23:47.16	113.41	2.27	-36.2	-53.3	4.0	1.50e+00	0	49	104	0	46	22294
2026-01-13 08:23:48.17	113.34	2.33	-38.4	-55.4	3.8	1.50e+00	0	49	104	0	48	25544
2026-01-13 08:23:49.18	113.27	2.39	-38.7	-54.6	3.6	1.50e+00	0	49	104	0	44	29065
2026-01-13 08:23:50.19	113.21	2.45	-34.9	-53.2	4.0	1.49e+00	0	49	104	0	40	31322
2026-01-13 08:23:51.20	113.14	2.51	-33.2	-50.8	3.9	1.50e+00	0	49	104	0	38	26578
2026-01-13 08:23:52.20	113.07	2.56	-35.5	-54.2	3.7	1.50e+00	0	50	104	0	39	37100
2026-01-13 08:23:53.22	113.00	2.62	-39.1	-53.3	3.9	1.50e+00	0	50	104	0	40	31685
2026-01-13 08:23:54.23	112.94	2.68	-35.2	-51.0	4.0	1.50e+00	0	50	104	0	37	28992
2026-01-13 08:23:55.24	112.87	2.74	-40.0	-55.9	3.9	1.50e+00	0	50	104	0	44	34044
2026-01-13 08:23:56.25	112.80	2.80	-36.5	-54.5	4.0	1.50e+00	0	50	104	0	46	25668
2026-01-13 08:23:57.26	112.73	2.86	-38.1	-54.9	3.8	1.50e+00	0	50	104	0	45	28679
2026-01-13 08:23:58.27	112.66	2.91	-35.1	-52.1	3.9	1.50e+00	0	50	104	0	39	29294
2026-01-13 08:23:59.28	112.59	2.97	-38.8	-54.8	4.1	1.50e+00	0	50	104	0	38	42228
2026-01-13 08:24:00.29	112.52	3.03	-34.5	-52.2	4.1	1.50e+00	0	50	104	0	41	26419
2026-01-13 08:24:01.30	112.45	3.09	-39.5	-54.6	4.1	1.49e+00	0	50	104	0	43	31043
2026-01-13 08:24:02.31	112.38	3.15	-39.7	-55.6	4.0	1.49e+00	0	50	104	0	50	23224
2026-01-13 08:24:03.32	112.31	3.21	-32.9	-52.4	4.1	1.50e+00	0	50	104	0	38	31935
2026-01-13 08:24:04.33	112.24	3.27	-35.0	-51.8	4.2	1.50e+00	0	50	104	0	38	29854
2026-01-13 08:24:05.34	112.17	3.33	-36.1	-53.4	3.9	1.50e+00	0	50	104	0	44	25411
2026-01-13 08:24:06.35	112.10	3.39	-39.9	-55.6	3.9	1.50e+00	0	51	104	0	47	27686
2026-01-13 08:24:07.36	112.03	3.45	-34.0	-52.0	4.0	1.50e+00	0	51	104	0	38	30575
2026-01-13 08:24:08.37	111.96	3.51	-33.2	-53.2	3.6	1.50e+00	0	51	104	0	43	26259
2026-01-13 08:24:09.38	111.88	3.57	-34.3	-53.6	4.0	1.50e+00	0	51	104	0	42	29013
2026-01-13 08:24:10.39	111.81	3.63	-32.4	-51.6	3.9	1.50e+00	0	51	104	0	38	29138
2026-01-13 08:24:11.40	111.74	3.69	-35.6	-52.8	4.0	1.50e+00	0	51	104	0	38	33608
2026-01-13 08:24:12.42	111.66	3.75	-38.3	-52.9	3.9	1.50e+00	0	51	104	0	38	34028
2026-01-13 08:24:13.43	111.59	3.81	-32.5	-49.8	4.1	1.50e+00	0	51	104	0	35	28064
2026-01-13 08:24:14.44	111.52	3.87	-40.4	-55.3	3.8	1.50e+00	0	51	104	0	42	35653
2026-01-13 08:24:15.45	111.44	3.93	-36.8	-52.7	4.1	1.49e+00	0	51	104	0	47	19835
2026-01-13 08:24:16.46	111.37	3.99	-38.7	-53.8	4.0	1.50e+00	0	51	104	0	39	35618
2026-01-13 08:24:17.47	111.29	4.05	-33.6	-54.1	3.9	1.50e+00	0	51	104	0	39	36654
2026-01-13 08:24:18.48	111.22	4.11	-30.8	-50.7	4.3	1.50e+00	0	51	104	0	36	29497
2026-01-13 08:24:19.49	111.14	4.17	-38.1	-54.4	3.9	1.49e+00	0	51	104	0	50	20275
2026-01-13 08:24:20.50	111.07	4.23	-36.6	-52.6	4.1	1.50e+00	0	51	104	0	43	24619
2026-01-13 08:24:21.51	110.99	4.29	-37.0	-53.9	4.1	1.50e+00	0	51	104	0	44	26796
2026-01-13 08:24:22.52	110.91	4.35	-36.0	-53.7	3.6	1.50e+00	0	51	104	0	46	23476
2026-01-13 08:24:23.53	110.84	4.41	-36.5	-53.7	3.9	1.50e+00	0	51	104	0	47	22056
2026-01-13 08:24:24.54	110.76	4.47	-38.8	-55.8	4.1	1.50e+00	0	52	104	0	51	22464
2026-01-13 08:24:25.55	110.68	4.53	-39.7	-55.9	4.0	1.49e+00	0	52	104	0	52	21363
2026-01-13 08:24:26.56	110.61	4.59	-36.3	-53.6	3.9	1.50e+00	0	52	104	0	43	27410
2026-01-13 08:24:27.57	110.53	4.66	-36.2	-50.9	4.0	1.50e+00	0	52	104	0	41	22693
2026-01-13 08:24:28.58	110.45	4.72	-33.3	-51.3	3.9	1.50e+00	0	52	104	0	38	28308
2026-01-13 08:24:29.60	110.37	4.78	-35.2	-53.6	4.1	1.50e+00	0	52	104	0	43	27512
2026-01-13 08:24:30.61	110.29	4.84	-33.6	-51.8	4.2	1.50e+00	0	52	104	0	37	31771
2026-01-13 08:24:31.62	110.21	4.90	-33.0	-50.5	4.0	1.50e+00	0	52	104	0	35	30510
2026-01-13 08:24:32.63	110.13	4.96	-35.1	-52.2	3.9	1.50e+00	0	52	104	0	41	26327
2026-01-13 08:24:33.64	110.05	5.03	-32.9	-49.4	4.0	1.50e+00	0	52	104	0	36	25386
2026-01-13 08:24:34.65	109.97	5.09	-35.8	-54.3	4.3	1.50e+00	0	52	104	0	43	29789
2026-01-13 08:24:35.66	109.89	5.15	-36.1	-52.5	4.0	1.50e+00	0	52	104	0	40	28732
2026-01-13 08:24:36.67	109.81	5.21	-33.0	-54.0	4.0	1.50e+00	0	52	104	0	40	34324
2026-01-13 08:24:37.68	109.73	5.27	-31.9	-50.1	3.9	1.50e+00	0	52	104	0	38	24616
2026-01-13 08:24:38.69	109.65	5.34	-35.9	-54.0	4.0	1.50e+00	0	52	104	0	45	25774
2026-01-13 08:24:39.70	109.56	5.40	-33.9	-52.1	4.0	1.50e+00	0	52	104	0	41	26059
2026-01-13 08:24:40.71	109.48	5.46	-40.3	-55.7	4.0	1.50e+00	0	53	104	0	49	24758
2026-01-13 08:24:41.72	109.40	5.52	-36.4	-55.1	3.9	1.50e+00	0	52	104	0	47	26120
2026-01-13 08:24:42.73	109.32	5.59	-39.1	-54.2	3.8	1.50e+00	0	53	104	0	45	26411
2026-01-13 08:24:43.74	109.23	5.65	-34.7	-52.2	3.8	1.50e+00	0	52	104	0	39	29527
2026-01-13 08:24:44.75	109.15	5.71	-32.9	-52.5	4.2	1.50e+00	0	52	104	0	37	34196
2026-01-13 08:24:45.76	109.06	5.77	-34.0	-50.4	4.0	1.50e+00	0	53	104	0	40	22593
2026-01-13 08:24:46.77	108.98	5.84	-32.8	-52.1	4.3	1.50e+00	0	53	104	0	38	30954
2026-01-13 08:24:47.78	108.89	5.90	-29.3	-46.0	3.9	1.50e+00	0	53	0	0	29	25770
2026-01-13 08:24:48.79	108.81	5.96	-29.7	-48.0	4.2	1.50e+00	0	53	104	0	33	25820
2026-01-13 08:24:49.80	108.72	6.03	-34.6	-51.6	3.9	1.50e+00	0	53	104	0	38	29193
2026-01-13 08:24:50.81	108.64	6.09	-37.3	-53.8	4.0	1.50e+00	0	53	104	0	44	26687
2026-01-13 08:24:51.82	108.55	6.15	-36.9	-48.1	3.9	1.50e+00	0	53	104	0	29	32744
2026-01-13 08:24:52.82	108.46	6.22	-36.7	-53.2	3.7	1.49e+00	0	53	104	0	42	27747
2026-01-13 08:24:53.84	108.37	6.28	-36.4	-54.6	4.2	1.49e+00	0	53	104	0	45	27635
2026-01-13 08:24:54.84	108.29	6.34	-38.0	-54.2	4.2	1.49e+00	0	53	104	0	48	22162
2026-01-13 08:24:55.86	108.20	6.41	-36.5	-53.9	3.9	1.50e+00	0	53	104	0	45	25378
2026-01-13 08:24:56.86	108.11	6.47	-38.4	-54.3	3.8	1.50e+00	0	53	104	0	44	28084
2026-01-13 08:24:57.88	108.02	6.54	-36.6	-53.8	4.2	1.50e+00	0	53	104	0	42	29826
2026-01-13 08:24:58.89	107.93	6.60	-36.7	-53.4	4.2	1.50e+00	0	53	104	0	44	25293
2026-01-13 08:24:59.90	107.84	6.66	-31.3	-48.3	4.0	1.50e+00	0	53	104	0	34	25219
2026-01-13 08:25:00.91	107.75	6.73	-34.2	-53.6	4.3	1.50e+00	0	53	104	0	41	30771
2026-01-13 08:25:01.92	107.66	6.79	-30.8	-50.4	4.0	1.50e+00	0	53	104	0	34	31931
2026-01-13 08:25:02.93	107.57	6.86	-33.2	-52.6	3.9	1.50e+00	0	53	104	0	37	34653
2026-01-13 08:25:03.94	107.48	6.92	-31.2	-49.6	4.3	1.50e+00	0	53	104	0	33	30845
2026-01-13 08:25:04.95	107.39	6.99	-38.1	-54.2	4.0	1.50e+00	0	53	104	0	47	23495
2026-01-13 08:25:05.96	107.29	7.05	-35.1	-51.6	4.0	1.50e+00	0	53	104	0	34	36586
2026-01-13 08:25:06.97	107.20	7.12	-32.2	-48.7	4.0	1.50e+00	0	53	104	0	30	33077
2026-01-13 08:25:07.98	107.11	7.18	-31.8	-50.0	3.7	1.50e+00	0	53	104	0	39	22907
2026-01-13 08:25:08.99	107.01	7.25	-35.0	-50.8	4.0	1.50e+00	0	54	104	0	38	26523
2026-01-13 08:25:10.00	106.92	7.31	-35.5	-53.6	4.0	1.50e+00	0	53	104	0	43	27439
2026-01-13 08:25:11.01	106.82	7.38	-33.2	-52.0	3.8	1.50e+00	0	53	104	0	39	28881
2026-01-13 08:25:12.02	106.73	7.44	-33.3	-51.7	3.9	1.50e+00	0	54	104	0	42	23525
2026-01-13 08:25:13.03	106.63	7.51	-38.2	-54.4	3.8	1.49e+00	0	54	104	0	46	25475
2026-01-13 08:25:14.04	106.54	7.57	-40.1	-54.0	4.3	1.49e+00	0	54	104	0	45	25672
2026-01-13 08:25:15.05	106.44	7.64	-34.8	-52.4	3.9	1.49e+00	0	54	104	0	50	16084
2026-01-13 08:25:16.06	106.35	7.70	-32.6	-48.5	3.9	1.50e+00	0	54	104	0	36	22974
2026-01-13 08:25:17.07	106.25	7.77	-37.4	-51.1	3.8	1.48e+00	0	54	104	0	47	16347
2026-01-13 08:25:18.08	106.15	7.84	-33.9	-49.7	4.5	1.29e+00	0	54	0	0	48	13168
2026-01-13 08:25:19.09	106.05	7.90	-32.1	-48.9	4.6	1.28e+00	0	54	0	0	42	16959
2026-01-13 08:25:20.10	105.95	7.97	-33.9	-48.1	4.4	1.47e+00	0	54	104	1048576	38	19601
2026-01-13 08:25:21.11	105.86	8.03	-34.7	-49.1	4.6	1.37e+00	0	54	0	1048576	40	19446
2026-01-13 08:25:22.12	105.76	8.10	-41.8	-56.4	4.2	1.50e+00	0	54	104	1048576	45	34005
2026-01-13 08:25:23.13	105.66	8.17	-37.7	-54.3	3.8	1.49e+00	0	54	104	1048576	45	26745
2026-01-13 08:25:24.14	105.56	8.23	-30.2	-46.9	4.1	1.46e+00	0	54	104	1048576	29	28460
2026-01-13 08:25:25.15	105.46	8.30	-24.7	-44.7	4.1	1.50e+00	0	54	104	1048576	22	33088
2026-01-13 08:25:26.16	105.35	8.37	-32.2	-49.9	4.2	1.49e+00	0	54	104	1048576	38	24114
2026-01-13 08:25:27.17	105.25	8.43	-26.1	-43.9	4.1	1.43e+00	0	54	104	1048576	24	26961
2026-01-13 08:25:28.18	105.15	8.50	-34.9	-48.6	4.6	1.48e+00	0	54	104	1048576	35	24610
2026-01-13 08:25:29.19	105.05	8.57	-24.7	-44.9	4.3	1.47e+00	0	54	0	1048576	21	35760
2026-01-13 08:25:30.20	104.94	8.63	-34.1	-45.2	4.2	1.50e+00	0	54	104	1048576	18	43994
2026-01-13 08:25:31.21	104.84	8.70	-27.6	-43.7	4.2	1.49e+00	0	54	104	1048576	27	22236
2026-01-13 08:25:32.22	104.74	8.77	-24.4	-42.9	4.2	1.50e+00	0	54	104	1048576	18	33740
2026-01-13 08:25:33.23	104.63	8.83	-23.4	-45.0	4.1	1.50e+00	0	54	104	1048576	22	34086
2026-01-13 08:25:34.24	104.53	8.90	-30.8	-45.1	4.3	1.49e+00	0	55	104	1048576	20	39135
2026-01-13 08:25:35.25	104.42	8.97	-26.7	-42.3	4.0	1.49e+00	0	54	104	1048576	24	22333
2026-01-13 08:25:36.26	104.31	9.04	-32.7	-47.6	4.1	1.50e+00	0	54	104	1048576	33	24580
2026-01-13 08:25:37.27	104.21	9.10	-26.5	-41.8	3.8	1.49e+00	0	54	104	1048576	23	22401
2026-01-13 08:25:38.28	104.10	9.17	-30.7	-44.3	4.3	1.49e+00	0	54	104	1048576	29	21193
2026-01-13 08:25:39.29	103.99	9.24	-27.3	-42.8	3.8	1.45e+00	0	54	104	1048576	25	22302
2026-01-13 08:25:40.29	103.89	9.31	-32.7	-48.0	3.1	1.49e+00	0	55	104	1048576	32	27248
2026-01-13 08:25:41.30	103.78	9.38	-27.8	-43.4	4.1	1.49e+00	0	55	104	1048576	25	24087
2026-01-13 08:25:42.31	103.67	9.44	-31.1	-46.9	4.2	1.49e+00	0	55	104	1048576	33	22750
2026-01-13 08:25:43.32	103.56	9.51	-30.1	-46.7	4.1	1.49e+00	0	55	104	1048576	35	19762
2026-01-13 08:25:44.33	103.45	9.58	-28.4	-45.4	4.1	1.49e+00	0	55	104	1048576	28	25282
2026-01-13 08:25:45.34	103.34	9.65	-31.9	-46.0	4.2	1.49e+00	0	54	104	1048576	30	24193
2026-01-13 08:25:46.35	103.23	9.72	-26.8	-44.1	4.1	1.49e+00	0	55	104	1048576	28	21963
2026-01-13 08:25:47.36	103.11	9.79	-28.5	-44.5	4.1	1.49e+00	0	55	104	1048576	30	20448
2026-01-13 08:25:48.37	103.00	9.85	-27.4	-44.6	4.0	1.50e+00	0	55	104	1048576	27	24592
2026-01-13 08:25:49.38	102.89	9.92	-26.7	-42.2	3.8	1.50e+00	0	55	104	1048576	25	20929
2026-01-13 08:25:50.39	102.78	9.99	-25.8	-41.4	4.0	1.49e+00	0	54	104	1048576	24	20282
2026-01-13 08:25:51.40	102.66	10.06	-29.0	-41.6	4.0	1.49e+00	0	55	104	1048576	27	17358
2026-01-13 08:25:52.40	102.55	10.13	-28.1	-43.4	4.0	1.50e+00	0	55	0	1048576	28	20110
2026-01-13 08:25:53.41	102.43	10.20	-27.7	-42.1	3.9	1.50e+00	0	55	104	1048576	23	23056
2026-01-13 08:25:54.42	102.32	10.27	-29.8	-43.4	4.2	1.50e+00	0	55	104	1048576	26	22597
2026-01-13 08:25:55.43	102.20	10.34	-26.7	-39.9	4.1	1.50e+00	0	55	104	1048576	18	23915
2026-01-13 08:25:56.44	102.08	10.40	-30.8	-41.3	4.0	1.50e+00	0	55	104	1048576	20	25241
2026-01-13 08:25:57.45	101.97	10.47	-23.1	-38.9	3.8	1.50e+00	0	55	104	1048576	19	20250
2026-01-13 08:25:58.46	101.85	10.54	-25.7	-40.8	3.9	1.50e+00	0	55	104	1048576	20	23588
2026-01-13 08:25:59.47	101.73	10.61	-23.6	-38.9	3.6	1.50e+00	0	55	104	1048576	19	20266
2026-01-13 08:26:00.48	101.61	10.68	-25.5	-40.7	4.0	1.50e+00	0	55	104	1048576	19	24702
2026-01-13 08:26:01.49	101.49	10.75	-21.7	-37.5	4.0	1.50e+00	0	55	104	1048576	15	21631
2026-01-13 08:26:02.50	101.37	10.82	-25.4	-40.3	3.9	1.50e+00	0	55	104	1048576	17	26574
2026-01-13 08:26:03.50	101.25	10.89	-20.2	-39.1	3.9	1.50e+00	0	55	104	1048576	13	29215
2026-01-13 08:26:04.51	101.13	10.96	-21.0	-38.0	4.1	1.50e+00	0	55	104	1048576	13	25563
2026-01-13 08:26:05.52	101.01	11.03	-25.6	-41.8	4.1	1.50e+00	0	55	104	1048576	20	26705
2026-01-13 08:26:06.53	100.89	11.10	-21.0	-38.1	3.7	1.50e+00	0	55	104	1048576	13	26030
2026-01-13 08:26:07.54	100.76	11.17	-21.2	-38.3	3.8	1.50e+00	0	55	104	1048576	13	26674
2026-01-13 08:26:08.54	100.64	11.24	-21.0	-40.1	4.0	1.50e+00	0	55	104	1048576	18	24666
2026-01-13 08:26:09.55	100.52	11.31	-32.7	-46.3	4.1	1.50e+00	0	55	104	1048576	31	23626
2026-01-13 08:26:10.56	100.39	11.38	-31.2	-47.5	3.8	1.50e+00	0	55	104	1048576	33	24329
2026-01-13 08:26:11.57	100.27	11.45	-22.6	-41.2	4.0	1.50e+00	0	55	104	1048576	22	22197
2026-01-13 08:26:12.58	100.14	11.52	-24.4	-41.8	3.8	1.50e+00	0	55	104	1048576	27	17857
2026-01-13 08:26:13.59	100.01	11.59	-28.1	-41.7	4.0	1.49e+00	0	55	104	1048576	24	20941
2026-01-13 08:26:14.60	99.89	11.66	-21.4	-38.1	3.8	1.50e+00	0	55	104	1048576	17	20663
2026-01-13 08:26:15.61	99.76	11.73	-32.2	-47.5	4.1	1.50e+00	0	55	104	1048576	34	23015
2026-01-13 08:26:16.62	99.63	11.80	-27.7	-41.4	3.6	1.50e+00	0	55	104	1048576	24	20182
2026-01-13 08:26:17.63	99.50	11.87	-23.5	-40.5	3.7	1.50e+00	0	56	104	1048576	17	27076
2026-01-13 08:26:18.64	99.37	11.94	-23.4	-41.2	3.7	1.50e+00	0	55	104	1048576	19	26226
2026-01-13 08:26:19.65	99.24	12.01	-21.7	-38.4	3.7	1.50e+00	0	55	104	1048576	14	25516
2026-01-13 08:26:20.66	99.11	12.09	-26.9	-45.0	4.2	1.48e+00	0	55	104	1048576	32	19271
2026-01-13 08:26:21.67	98.98	12.16	-27.1	-44.6	3.9	1.48e+00	0	56	104	1048576	24	29095
2026-01-13 08:26:22.68	98.84	12.23	-30.8	-46.5	4.3	1.50e+00	0	56	104	1048576	33	21735
2026-01-13 08:26:23.69	98.71	12.30	-22.7	-39.6	3.9	1.49e+00	0	55	104	1048576	17	24666
2026-01-13 08:26:24.69	98.58	12.37	-22.4	-44.9	3.7	1.50e+00	0	56	104	1048576	31	20081
2026-01-13 08:26:25.71	98.44	12.44	-24.8	-42.7	4.0	1.50e+00	0	56	104	1048576	21	27740
2026-01-13 08:26:26.71	98.31	12.51	-25.3	-43.5	4.1	1.50e+00	0	56	104	1048576	30	18223
2026-01-13 08:26:27.72	98.17	12.58	-35.4	-49.5	4.1	1.50e+00	0	56	104	1048576	31	34471
2026-01-13 08:26:28.73	98.04	12.65	-22.9	-41.1	4.0	1.50e+00	0	56	104	1048576	24	19415
2026-01-13 08:26:29.74	97.90	12.73	-25.5	-43.0	4.1	1.50e+00	0	56	104	1048576	28	19223
2026-01-13 08:26:30.75	97.76	12.80	-26.3	-46.3	4.1	1.49e+00	0	56	104	1048576	31	23634
2026-01-13 08:26:31.76	97.62	12.87	-38.8	-50.8	4.0	1.50e+00	0	56	104	1048576	44	18817
2026-01-13 08:26:32.77	97.48	12.94	-36.5	-52.4	3.9	1.49e+00	0	56	104	1048576	49	17028
2026-01-13 08:26:33.78	97.34	13.01	-34.2	-46.7	3.9	1.49e+00	0	56	104	1048576	28	29519
2026-01-13 08:26:34.79	97.20	13.08	-33.7	-49.4	4.1	1.48e+00	0	56	104	1048576	48	12669
2026-01-13 08:26:35.80	97.06	13.15	-42.0	-52.8	3.9	1.48e+00	0	56	104	1048576	53	14125
2026-01-13 08:26:36.81	96.92	13.23	-41.9	-53.7	3.9	1.47e+00	0	56	104	1048576	52	16684
2026-01-13 08:26:37.82	96.78	13.30	-35.3	-51.0	4.1	1.44e+00	0	56	104	1048576	40	24147
2026-01-13 08:26:38.83	96.63	13.37	-37.0	-52.6	4.3	1.47e+00	0	56	104	1048576	50	16478
2026-01-13 08:26:39.84	96.49	13.44	-41.8	-53.5	4.2	1.36e+00	0	56	0	1048576	54	14463
2026-01-13 08:26:40.85	96.34	13.51	-37.6	-52.7	4.1	1.46e+00	0	56	104	1048576	49	17610
2026-01-13 08:26:41.86	96.20	13.58	-40.6	-53.0	4.3	1.47e+00	0	56	104	1048576	50	17131
2026-01-13 08:26:42.87	96.05	13.66	-43.2	-53.0	4.7	1.11e+00	0	56	0	1048576	56	12170
2026-01-13 08:26:43.88	95.91	13.73	-39.5	-52.3	4.4	1.29e+00	0	56	0	2097152	51	14893
2026-01-13 08:26:44.89	95.76	13.80	-40.4	-52.3	4.7	1.15e+00	0	56	0	4194304	53	13308
2026-01-13 08:26:45.90	95.61	13.87	-41.2	-51.8	5.0	7.43e-01	0	56	0	6291456	53	12633
2026-01-13 08:26:46.91	95.46	13.94	-41.7	-51.5	5.1	6.03e-01	0	56	0	7340032	54	11480
2026-01-13 08:26:47.92	95.31	14.02	-43.1	-51.3	5.7	4.75e-01	0	56	0	9437184	56	10041
2026-01-13 08:26:48.93	95.16	14.09	-43.1	-51.5	5.6	4.70e-01	0	56	0	11534336	56	10290
2026-01-13 08:26:49.94	95.01	14.16	-42.7	-50.5	6.4	3.27e-01	0	56	0	13631488	56	9078
2026-01-13 08:26:50.95	94.86	14.23	-42.8	-49.6	7.3	1.83e-01	0	56	0	15728640	56	8180
2026-01-13 08:26:51.96	94.70	14.30	-42.7	-49.0	7.8	1.02e-01	0	56	0	16777216	56	7717
2026-01-13 08:26:52.97	94.55	14.38	-42.7	-49.2	7.7	8.37e-02	0	56	0	18874368	56	7824
2026-01-13 08:26:53.98	94.40	14.45	-42.8	-49.5	7.4	9.84e-02	0	56	0	20971520	56	8126
2026-01-13 08:26:54.98	94.24	14.52	-42.8	-49.4	7.5	1.30e-01	0	56	0	23068672	56	8027
2026-01-13 08:26:55.99	94.09	14.59	-42.7	-49.1	7.8	1.03e-01	0	56	0	25165824	56	7748
2026-01-13 08:26:57.00	93.93	14.66	-42.6	-48.6	8.2	6.32e-02	0	56	0	26214400	56	7329
2026-01-13 08:26:58.01	93.77	14.74	-42.6	-48.8	8.0	6.28e-02	0	56	0	28311552	56	7531
2026-01-13 08:26:59.02	93.62	14.81	-42.7	-49.0	7.8	7.39e-02	0	56	0	30408704	56	7698
2026-01-13 08:27:00.03	93.46	14.88	-42.5	-48.5	8.3	6.38e-02	0	56	0	32505856	56	7274
2026-01-13 08:27:01.04	93.30	14.95	-42.4	-48.2	8.6	4.52e-02	0	56	0	34603008	56	6999
2026-01-13 08:27:02.05	93.14	15.02	-42.2	-47.6	9.2	2.86e-02	0	56	0	35651584	56	6533
2026-01-13 08:27:03.06	92.98	15.10	-42.2	-47.5	9.3	1.77e-02	0	56	0	37748736	56	6474
2026-01-13 08:27:04.07	92.81	15.17	-42.3	-47.7	9.1	2.15e-02	0	56	0	39845888	56	6622
2026-01-13 08:27:05.08	92.65	15.24	-42.4	-48.1	8.7	2.52e-02	0	56	0	41943040	56	6941
2026-01-13 08:27:06.08	92.49	15.31	-42.3	-48.0	8.8	3.01e-02	0	56	0	44040192	56	6836
2026-01-13 08:27:07.10	92.32	15.38	-42.4	-48.1	8.7	3.31e-02	0	56	0	45088768	56	6910
2026-01-13 08:27:08.10	92.16	15.45	-42.3	-48.1	8.7	3.14e-02	0	56	0	47185920	56	6894
2026-01-13 08:27:09.11	91.99	15.53	-42.3	-47.8	9.0	2.93e-02	0	56	0	49283072	56	6684
2026-01-13 08:27:10.12	91.83	15.60	-42.3	-47.9	8.8	2.54e-02	0	56	0	51380224	56	6791
2026-01-13 08:27:11.13	91.66	15.67	-42.3	-48.0	8.8	3.00e-02	0	56	0	53477376	56	6857
2026-01-13 08:27:12.15	91.49	15.74	-42.4	-48.2	8.6	3.48e-02	0	56	0	55574528	56	7002
2026-01-13 08:27:13.16	91.32	15.81	-42.3	-48.2	8.6	4.03e-02	0	56	0	56623104	56	7010
2026-01-13 08:27:14.17	91.15	15.89	-42.3	-48.1	8.6	4.23e-02	0	56	0	58720256	56	6922
2026-01-13 08:27:15.18	90.98	15.96	-42.2	-47.8	8.9	3.10e-02	0	56	0	60817408	56	6686
2026-01-13 08:27:16.18	90.81	16.03	-42.1	-47.9	8.8	3.04e-02	0	56	0	62914560	56	6761
2026-01-13 08:27:17.19	90.64	16.10	-42.0	-47.6	8.9	2.94e-02	0	56	0	65011712	55	6923
2026-01-13 08:27:18.20	90.46	16.17	-41.9	-47.5	8.9	2.62e-02	0	56	0	66060288	55	6872
2026-01-13 08:27:19.21	90.29	16.24	-41.9	-47.6	8.8	3.12e-02	0	56	0	68157440	55	6885
2026-01-13 08:27:20.22	90.11	16.31	-42.0	-47.9	8.4	2.92e-02	0	57	0	70254592	55	7147
2026-01-13 08:27:21.23	89.94	16.38	-41.9	-48.1	8.2	4.41e-02	0	56	0	72351744	55	7294
2026-01-13 08:27:22.24	89.76	16.46	-42.0	-48.1	8.1	6.73e-02	0	56	0	74448896	55	7308
2026-01-13 08:27:23.25	89.58	16.53	-41.9	-48.0	8.2	6.59e-02	0	56	0	75497472	55	7266
2026-01-13 08:27:24.26	89.40	16.60	-41.9	-48.1	8.1	5.88e-02	0	57	0	77594624	55	7310
2026-01-13 08:27:25.27	89.23	16.67	-42.0	-48.4	7.8	5.83e-02	0	56	0	79691776	55	7596
2026-01-13 08:27:26.28	89.05	16.74	-42.1	-48.5	7.7	8.17e-02	0	57	0	81788928	55	7680
2026-01-13 08:27:27.29	88.86	16.81	-42.1	-48.6	7.6	8.49e-02	0	57	0	83886080	55	7762
2026-01-13 08:27:28.30	88.68	16.88	-42.1	-48.8	7.4	1.09e-01	0	57	0	84934656	55	7930
2026-01-13 08:27:29.31	88.50	16.95	-42.0	-48.6	7.5	1.06e-01	0	57	0	87031808	55	7782
2026-01-13 08:27:30.32	88.32	17.02	-41.9	-48.6	7.5	1.05e-01	0	57	0	89128960	55	7731
2026-01-13 08:27:31.33	88.13	17.09	-41.8	-48.6	7.4	1.04e-01	0	57	0	91226112	55	7741
2026-01-13 08:27:32.34	87.95	17.16	-41.7	-48.5	7.5	1.10e-01	0	56	0	93323264	55	7634
2026-01-13 08:27:33.35	87.76	17.23	-41.7	-48.5	7.4	1.21e-01	0	56	0	94371840	55	7670
2026-01-13 08:27:34.36	87.57	17.30	-41.6	-48.4	7.5	1.08e-01	0	57	0	96468992	55	7590
2026-01-13 08:27:35.37	87.39	17.37	-41.6	-48.3	7.6	9.51e-02	0	56	0	98566144	55	7486
2026-01-13 08:27:36.39	87.19	17.44	-41.7	-48.6	7.2	1.14e-01	0	57	0	100663296	55	7753
2026-01-13 08:27:37.39	87.01	17.51	-41.6	-48.4	7.4	1.25e-01	0	57	0	102760448	55	7596
2026-01-13 08:27:38.40	86.82	17.58	-41.7	-48.4	7.4	1.03e-01	0	57	0	103809024	55	7590
2026-01-13 08:27:39.41	86.62	17.65	-41.6	-48.0	7.9	9.02e-02	0	57	0	105906176	55	7265
2026-01-13 08:27:40.42	86.43	17.72	-41.6	-48.1	7.8	7.51e-02	0	57	0	108003328	55	7292
2026-01-13 08:27:41.43	86.24	17.79	-41.7	-48.3	7.7	8.32e-02	0	57	0	110100480	55	7519
2026-01-13 08:27:42.44	86.05	17.86	-41.8	-48.4	7.5	9.89e-02	0	57	0	112197632	55	7630
2026-01-13 08:27:43.45	85.85	17.93	-41.7	-48.4	7.5	1.00e-01	0	57	0	113246208	55	7596
2026-01-13 08:27:44.46	85.65	18.00	-41.6	-48.0	7.9	7.97e-02	0	57	0	115343360	55	7241
2026-01-13 08:27:45.47	85.46	18.07	-41.5	-47.8	8.0	6.94e-02	0	57	0	117440512	55	7089
2026-01-13 08:27:46.48	85.26	18.13	-41.5	-47.7	8.1	6.73e-02	0	57	0	119537664	54	7416
2026-01-13 08:27:47.49	85.06	18.20	-41.4	-47.7	8.1	6.24e-02	0	57	0	121634816	54	7387
2026-01-13 08:27:48.50	84.86	18.27	-41.4	-47.7	8.1	5.97e-02	0	57	0	122683392	54	7382
2026-01-13 08:27:49.51	84.66	18.34	-41.3	-47.2	8.6	4.70e-02	0	57	0	124780544	54	7030
2026-01-13 08:27:50.52	84.46	18.41	-41.4	-47.2	8.6	3.75e-02	0	57	0	126877696	54	7032
2026-01-13 08:27:51.53	84.26	18.47	-41.4	-47.0	8.9	3.38e-02	0	57	0	128974848	54	6862
2026-01-13 08:27:52.54	84.05	18.54	-41.4	-46.9	9.1	2.29e-02	0	57	0	131072000	54	6724
2026-01-13 08:27:53.55	83.85	18.61	-41.4	-46.8	9.2	1.89e-02	0	57	0	133169152	54	6688
2026-01-13 08:27:54.56	83.65	18.68	-41.3	-46.6	9.4	1.61e-02	0	57	0	134217728	54	6556
2026-01-13 08:27:55.57	83.44	18.74	-41.2	-46.3	9.8	1.33e-02	0	57	0	136314880	54	6306
2026-01-13 08:27:56.58	83.23	18.81	-41.2	-46.1	9.9	1.03e-02	0	57	0	138412032	54	6189
2026-01-13 08:27:57.59	83.03	18.88	-41.1	-46.2	9.8	1.05e-02	0	57	0	140509184	54	6237
2026-01-13 08:27:58.60	82.82	18.94	-41.1	-45.9	10.2	6.58e-03	0	57	0	142606336	54	6053
2026-01-13 08:27:59.61	82.61	19.01	-41.0	-45.8	10.2	5.45e-03	0	57	0	143654912	53	6295
2026-01-13 08:28:00.62	82.40	19.07	-40.9	-45.6	10.5	4.02e-03	0	57	0	145752064	53	6182
2026-01-13 08:28:01.62	82.19	19.14	-41.0	-45.8	10.3	5.02e-03	0	57	0	147849216	53	6337
2026-01-13 08:28:02.63	81.97	19.20	-41.1	-46.0	10.1	5.96e-03	0	57	0	149946368	53	6451
2026-01-13 08:28:03.64	81.76	19.27	-41.2	-46.2	9.9	7.76e-03	0	57	0	152043520	53	6643
2026-01-13 08:28:04.65	81.55	19.33	-41.3	-46.4	9.8	9.75e-03	0	57	0	153092096	53	6781
2026-01-13 08:28:05.66	81.33	19.40	-41.4	-46.7	9.5	1.09e-02	0	57	0	155189248	53	7002
2026-01-13 08:28:06.67	81.12	19.46	-41.4	-46.8	9.4	1.28e-02	0	57	0	157286400	53	7078
2026-01-13 08:28:07.68	80.90	19.53	-41.4	-46.9	9.3	2.04e-02	0	57	0	159383552	53	7178
2026-01-13 08:28:08.69	80.68	19.59	-41.6	-47.5	8.6	3.04e-02	0	57	0	161480704	53	7717
2026-01-13 08:28:09.70	80.46	19.65	-41.5	-47.5	8.6	3.86e-02	0	57	0	162529280	53	7682
2026-01-13 08:28:10.71	80.24	19.72	-41.5	-47.2	8.9	2.77e-02	0	57	0	164626432	53	7397
2026-01-13 08:28:11.72	80.02	19.78	-41.4	-47.1	9.1	2.66e-02	0	57	0	166723584	53	7295
2026-01-13 08:28:12.73	79.80	19.84	-41.4	-47.0	9.1	2.19e-02	0	57	0	168820736	53	7229
2026-01-13 08:28:13.74	79.58	19.90	-41.3	-46.9	9.3	2.08e-02	0	57	0	170917888	53	7144
2026-01-13 08:28:14.75	79.36	19.97	-41.4	-46.9	9.3	1.66e-02	0	57	0	171966464	53	7176
2026-01-13 08:28:15.76	79.13	20.03	-41.4	-46.7	9.5	1.52e-02	0	57	0	174063616	53	6995
2026-01-13 08:28:16.77	78.91	20.09	-41.3	-46.4	9.9	1.06e-02	0	57	0	176160768	53	6760
2026-01-13 08:28:17.77	78.68	20.15	-41.3	-46.2	10.2	7.61e-03	0	57	0	178257920	53	6571
2026-01-13 08:28:18.79	78.46	20.21	-41.2	-46.3	10.0	6.64e-03	0	57	0	180355072	53	6676
2026-01-13 08:28:19.79	78.23	20.27	-41.2	-46.3	10.0	7.27e-03	0	57	0	181403648	53	6708
2026-01-13 08:28:20.80	78.00	20.33	-41.2	-46.2	10.1	8.04e-03	0	57	0	183500800	53	6645
2026-01-13 08:28:21.81	77.77	20.39	-41.1	-45.8	10.6	4.50e-03	0	57	0	185597952	53	6326
2026-01-13 08:28:22.82	77.54	20.45	-41.0	-45.7	10.8	3.27e-03	0	57	0	187695104	53	6206
2026-01-13 08:28:23.83	77.31	20.51	-40.8	-45.2	11.2	1.69e-03	0	57	0	189792256	53	5873
2026-01-13 08:28:24.84	77.08	20.57	-40.9	-45.3	11.1	1.46e-03	0	57	0	190840832	53	5963
2026-01-13 08:28:25.85	76.84	20.63	-41.0	-45.6	10.8	2.22e-03	0	57	0	192937984	53	6179
2026-01-13 08:28:26.86	76.61	20.69	-41.0	-45.6	10.8	3.10e-03	0	57	0	195035136	53	6195
2026-01-13 08:28:27.87	76.38	20.74	-41.0	-45.6	10.8	2.62e-03	0	57	0	197132288	53	6183
2026-01-13 08:28:28.88	76.14	20.80	-41.1	-45.7	10.9	2.07e-03	0	57	0	199229440	53	6225
2026-01-13 08:28:29.89	75.90	20.86	-41.1	-45.6	11.0	1.78e-03	0	57	0	201326592	53	6140
2026-01-13 08:28:30.90	75.67	20.91	-41.1	-45.6	11.0	1.63e-03	0	57	0	202375168	53	6165
2026-01-13 08:28:31.90	75.43	20.97	-41.1	-45.5	11.0	1.63e-03	0	57	0	204472320	53	6117
2026-01-13 08:28:32.91	75.19	21.03	-41.0	-45.2	11.4	1.15e-03	0	57	0	206569472	53	5914
2026-01-13 08:28:33.92	74.95	21.08	-41.0	-45.4	11.2	1.14e-03	0	57	0	208666624	53	6003
2026-01-13 08:28:34.93	74.71	21.14	-41.1	-45.5	11.1	1.47e-03	0	57	0	210763776	53	6121
2026-01-13 08:28:35.94	74.47	21.19	-41.2	-45.6	11.1	1.61e-03	0	57	0	211812352	53	6166
2026-01-13 08:28:36.95	74.23	21.24	-41.2	-45.6	11.1	1.59e-03	0	57	0	213909504	53	6188
2026-01-13 08:28:37.96	73.98	21.30	-41.2	-45.7	11.2	1.21e-03	0	57	0	216006656	53	6203
2026-01-13 08:28:38.97	73.74	21.35	-41.4	-45.9	11.0	1.71e-03	0	57	0	218103808	53	6354
2026-01-13 08:28:39.98	73.49	21.40	-41.4	-45.8	11.1	2.20e-03	0	57	0	220200960	53	6311
2026-01-13 08:28:40.99	73.25	21.46	-41.4	-45.7	11.2	1.48e-03	0	57	0	221249536	53	6253
2026-01-13 08:28:42.00	73.00	21.51	-41.2	-45.4	11.5	1.02e-03	0	57	0	223346688	53	6058
2026-01-13 08:28:43.01	72.75	21.56	-41.1	-45.3	11.7	6.87e-04	0	57	0	225443840	53	5943
2026-01-13 08:28:44.02	72.50	21.61	-41.3	-45.6	11.4	7.34e-04	0	57	0	227540992	53	6157
2026-01-13 08:28:45.03	72.25	21.66	-41.3	-45.7	11.3	1.04e-03	0	57	0	229638144	53	6209
2026-01-13 08:28:46.04	72.00	21.71	-41.2	-45.5	11.4	2.25e-03	0	57	0	230686720	53	6090
2026-01-13 08:28:47.05	71.75	21.76	-41.1	-45.4	11.5	4.50e-03	0	57	0	232783872	53	5999
2026-01-13 08:28:48.06	71.50	21.81	-41.2	-45.5	11.4	6.08e-03	0	57	0	234881024	53	6073
2026-01-13 08:28:49.07	71.25	21.86	-41.0	-45.1	11.8	2.97e-03	0	57	0	236978176	53	5809
2026-01-13 08:28:50.07	71.00	21.90	-41.0	-45.1	11.9	2.30e-03	0	57	0	239075328	53	5807
2026-01-13 08:28:51.08	70.74	21.95	-40.9	-44.8	12.2	3.15e-03	0	57	0	240123904	53	5629
2026-01-13 08:28:52.09	70.49	22.00	-40.8	-44.6	12.5	2.09e-03	0	57	0	242221056	53	5498
2026-01-13 08:28:53.10	70.23	22.05	-40.7	-44.4	12.6	2.22e-03	0	57	0	244318208	53	5383
2026-01-13 08:28:54.11	69.98	22.09	-40.9	-44.7	12.3	7.20e-03	0	57	0	246415360	53	5570
2026-01-13 08:28:55.12	69.72	22.14	-40.7	-44.7	12.2	1.18e-02	0	57	0	248512512	53	5569
2026-01-13 08:28:56.13	69.46	22.18	-40.7	-44.6	12.4	1.27e-02	0	57	0	249561088	53	5517
2026-01-13 08:28:57.14	69.20	22.23	-40.7	-44.5	12.6	1.24e-02	0	57	0	251658240	53	5404
2026-01-13 08:28:58.15	68.94	22.27	-40.6	-44.5	12.5	1.27e-02	0	57	0	253755392	53	5423
2026-01-13 08:28:59.16	68.68	22.31	-40.5	-44.6	12.4	1.26e-02	0	57	0	255852544	53	5519
2026-01-13 08:29:00.17	68.42	22.36	-40.8	-45.0	12.1	1.29e-02	0	57	0	257949696	53	5744
2026-01-13 08:29:01.18	68.16	22.40	-40.9	-45.3	11.8	1.06e-02	0	57	0	258998272	53	5955
2026-01-13 08:29:02.19	67.90	22.44	-41.5	-45.5	11.9	1.28e-02	0	57	0	261095424	53	6076
2026-01-13 08:29:03.19	67.64	22.48	-41.5	-45.5	11.9	4.25e-04	0	57	0	263192576	53	6114
2026-01-13 08:29:04.20	67.38	22.52	-41.7	-45.9	11.5	8.51e-04	0	57	0	265289728	54	6057
2026-01-13 08:29:05.21	67.11	22.56	-41.8	-46.2	11.2	1.16e-03	0	57	0	267386880	54	6211
2026-01-13 08:29:06.22	66.85	22.60	-42.0	-46.4	11.0	2.17e-03	0	57	0	269484032	54	6390
2026-01-13 08:29:07.23	66.58	22.64	-42.1	-46.7	10.8	2.36e-03	0	57	0	270532608	54	6583
2026-01-13 08:29:08.24	66.31	22.68	-42.2	-47.1	10.3	4.10e-03	0	57	0	272629760	55	6529
2026-01-13 08:29:09.25	66.05	22.71	-42.3	-47.3	10.0	5.83e-03	0	57	0	274726912	55	6713
2026-01-13 08:29:10.26	65.78	22.75	-42.2	-47.0	10.4	7.06e-03	0	57	0	276824064	55	6492
2026-01-13 08:29:11.27	65.51	22.79	-42.1	-46.8	10.7	4.14e-03	0	57	0	278921216	55	6304
2026-01-13 08:29:12.28	65.24	22.82	-42.0	-46.6	10.8	2.99e-03	0	57	0	279969792	55	6202
2026-01-13 08:29:13.29	64.97	22.86	-42.2	-46.8	10.7	2.71e-03	0	57	0	282066944	55	6327
2026-01-13 08:29:14.30	64.70	22.89	-41.0	-46.8	10.5	1.09e-02	0	57	0	284164096	53	7065
2026-01-13 08:29:15.31	64.43	22.92	-40.9	-46.4	11.0	9.80e-03	0	57	0	286261248	53	6743
2026-01-13 08:29:16.32	64.16	22.96	-40.7	-45.9	11.4	8.91e-03	0	57	0	288358400	52	6800
2026-01-13 08:29:17.33	63.89	22.99	-40.8	-45.9	11.4	8.57e-03	0	57	0	289406976	52	6776
2026-01-13 08:29:18.34	63.62	23.02	-41.1	-46.1	11.3	8.24e-03	0	57	0	291504128	52	6903
2026-01-13 08:29:19.35	63.35	23.05	-41.5	-46.1	11.3	8.51e-03	0	57	0	293601280	53	6505
2026-01-13 08:29:20.36	63.07	23.08	-41.8	-46.3	11.1	8.18e-03	0	57	0	295698432	54	6302
2026-01-13 08:29:21.37	62.80	23.11	-41.9	-46.3	11.1	8.07e-03	0	58	0	297795584	54	6323
2026-01-13 08:29:22.38	62.52	23.14	-41.9	-46.3	11.2	7.67e-03	0	58	0	298844160	54	6290
2026-01-13 08:29:23.39	62.25	23.17	-41.9	-46.4	11.0	8.47e-03	0	57	0	300941312	54	6386
2026-01-13 08:29:24.40	61.97	23.20	-42.0	-46.7	10.8	7.81e-03	0	58	0	303038464	54	6596
2026-01-13 08:29:25.41	61.70	23.22	-42.0	-46.7	10.7	9.63e-03	0	57	0	305135616	54	6643
2026-01-13 08:29:26.42	61.42	23.25	-42.0	-46.8	10.7	9.64e-03	0	57	0	307232768	54	6661
2026-01-13 08:29:27.43	61.14	23.28	-42.0	-46.7	10.8	9.64e-03	0	57	0	308281344	54	6586
2026-01-13 08:29:28.44	60.87	23.30	-42.1	-46.6	10.9	5.08e-03	0	57	0	310378496	54	6534
2026-01-13 08:29:29.45	60.59	23.32	-42.1	-46.7	10.9	2.20e-03	0	58	0	312475648	54	6590
2026-01-13 08:29:30.45	60.31	23.35	-42.1	-46.7	10.8	2.58e-03	0	57	0	314572800	55	6271
2026-01-13 08:29:31.46	60.04	23.37	-42.3	-47.1	10.4	2.97e-03	0	57	0	316669952	55	6541
2026-01-13 08:29:32.47	59.76	23.39	-42.3	-47.1	10.4	4.89e-03	0	57	0	317718528	55	6548
2026-01-13 08:29:33.48	59.48	23.41	-42.3	-47.3	10.2	6.01e-03	0	57	0	319815680	55	6671
2026-01-13 08:29:34.49	59.20	23.43	-42.3	-47.1	10.4	5.13e-03	0	57	0	321912832	55	6545
2026-01-13 08:29:35.50	58.92	23.45	-42.2	-46.9	10.5	4.22e-03	0	57	0	324009984	55	6403
2026-01-13 08:29:36.51	58.64	23.47	-42.2	-47.0	10.5	4.38e-03	0	58	0	326107136	55	6461
2026-01-13 08:29:37.52	58.36	23.49	-42.2	-47.0	10.5	3.01e-03	0	57	0	327155712	55	6486
2026-01-13 08:29:38.53	58.08	23.51	-42.3	-47.3	10.3	3.97e-03	0	57	0	329252864	55	6664
2026-01-13 08:29:39.54	57.80	23.53	-42.4	-47.3	10.3	5.05e-03	0	57	0	331350016	55	6662
2026-01-13 08:29:40.55	57.51	23.54	-42.5	-47.6	10.0	5.91e-03	0	58	0	333447168	55	6897
2026-01-13 08:29:41.56	57.23	23.56	-42.5	-47.8	9.7	9.29e-03	0	57	0	335544320	55	7105
2026-01-13 08:29:42.57	56.95	23.57	-42.7	-48.1	9.3	1.37e-02	0	57	0	337641472	55	7371
2026-01-13 08:29:43.58	56.67	23.59	-42.6	-48.1	9.5	1.47e-02	0	58	0	338690048	55	7291
2026-01-13 08:29:44.59	56.38	23.60	-42.7	-48.2	9.4	1.50e-02	0	58	0	340787200	55	7403
2026-01-13 08:29:45.60	56.10	23.61	-42.5	-47.9	9.7	1.35e-02	0	57	0	342884352	55	7136
2026-01-13 08:29:46.61	55.82	23.62	-42.6	-47.8	9.7	1.01e-02	0	58	0	344981504	55	7120
2026-01-13 08:29:47.61	55.54	23.64	-42.3	-47.1	10.4	5.24e-03	0	57	0	347078656	55	6567
2026-01-13 08:29:48.62	55.25	23.65	-42.1	-46.8	10.8	3.05e-03	0	58	0	348127232	55	6300
2026-01-13 08:29:49.63	54.97	23.66	-42.1	-46.6	11.0	1.99e-03	0	57	0	350224384	55	6150
2026-01-13 08:29:50.64	54.69	23.66	-41.9	-46.1	11.5	1.16e-03	0	57	0	352321536	55	5844
2026-01-13 08:29:51.65	54.40	23.67	-41.8	-46.0	11.6	7.05e-04	0	58	0	354418688	55	5741
2026-01-13 08:29:52.66	54.12	23.68	-41.8	-45.9	11.7	5.83e-04	0	58	0	355467264	55	5706
2026-01-13 08:29:53.67	53.84	23.69	-41.9	-46.1	11.4	7.00e-04	0	58	0	357564416	55	5855
2026-01-13 08:29:54.68	53.55	23.69	-42.0	-46.4	11.2	1.10e-03	0	57	0	359661568	55	6030
2026-01-13 08:29:55.69	53.27	23.70	-42.0	-46.6	11.0	1.73e-03	0	57	0	361758720	55	6161
2026-01-13 08:29:56.70	52.98	23.70	-42.1	-46.7	10.9	1.98e-03	0	58	0	363855872	55	6218
2026-01-13 08:29:57.71	52.70	23.71	-42.0	-46.5	11.1	1.61e-03	0	57	0	365953024	55	6106
2026-01-13 08:29:58.72	52.41	23.71	-42.0	-46.5	11.1	1.45e-03	0	58	0	367001600	55	6090
2026-01-13 08:29:59.73	52.13	23.71	-42.0	-46.5	11.1	1.45e-03	0	58	0	369098752	55	6080
2026-01-13 08:30:00.74	51.84	23.71	-42.0	-46.5	11.1	1.30e-03	0	58	0	371195904	55	6105
2026-01-13 08:30:01.74	51.56	23.71	-42.1	-46.6	11.0	1.68e-03	0	58	0	373293056	55	6170
2026-01-13 08:30:02.75	51.28	23.71	-42.1	-46.5	11.1	1.71e-03	0	58	0	375390208	55	6106
2026-01-13 08:30:03.76	50.99	23.71	-42.0	-46.3	11.3	1.34e-03	0	58	0	376438784	55	5976
2026-01-13 08:30:04.78	50.70	23.71	-41.9	-46.0	11.5	8.83e-04	0	57	0	378535936	55	5785
2026-01-13 08:30:05.78	50.42	23.71	-41.9	-46.1	11.6	8.41e-04	0	58	0	380633088	55	5796
2026-01-13 08:30:06.79	50.14	23.70	-41.9	-46.1	11.5	8.44e-04	0	58	0	382730240	55	5829
2026-01-13 08:30:07.80	49.85	23.70	-42.0	-46.4	11.3	8.10e-04	0	57	0	384827392	55	6026
2026-01-13 08:30:08.81	49.57	23.69	-41.8	-45.9	11.8	7.10e-04	0	58	0	385875968	55	5689
2026-01-13 08:30:09.82	49.29	23.69	-41.7	-45.8	11.9	5.26e-04	0	57	0	387973120	55	5601
2026-01-13 08:30:10.83	49.00	23.68	-41.6	-45.5	12.2	2.49e-04	0	57	0	390070272	55	5419
2026-01-13 08:30:11.84	48.72	23.67	-41.7	-45.6	12.1	2.53e-04	0	57	0	392167424	55	5511
2026-01-13 08:30:12.86	48.43	23.67	-41.8	-45.9	11.8	4.21e-04	0	58	0	394264576	55	5710
2026-01-13 08:30:13.86	48.15	23.66	-41.9	-46.1	11.6	4.16e-04	0	58	0	395313152	55	5789
2026-01-13 08:30:14.88	47.86	23.65	-41.8	-46.0	11.7	5.84e-04	0	58	0	397410304	55	5740
2026-01-13 08:30:15.88	47.58	23.64	-41.6	-45.5	12.2	4.17e-04	0	58	0	399507456	55	5455
2026-01-13 08:30:16.89	47.30	23.63	-41.5	-45.1	12.6	1.70e-04	0	58	0	401604608	54	5519
2026-01-13 08:30:17.90	47.02	23.62	-41.4	-45.0	12.8	5.87e-05	0	58	0	403701760	54	5403
2026-01-13 08:30:18.91	46.73	23.60	-41.3	-44.8	12.9	8.77e-05	0	58	0	405798912	54	5336
2026-01-13 08:30:19.93	46.45	23.59	-41.3	-44.8	12.9	4.42e-05	0	57	0	406847488	54	5325
2026-01-13 08:30:20.93	46.17	23.58	-41.4	-45.1	12.6	5.87e-05	0	58	0	408944640	54	5497
2026-01-13 08:30:21.95	45.88	23.56	-41.2	-44.6	13.1	3.96e-05	0	58	0	411041792	54	5214
2026-01-13 08:30:22.96	45.60	23.55	-41.1	-44.4	13.3	1.98e-05	0	57	0	413138944	54	5076
2026-01-13 08:30:23.97	45.32	23.53	-40.9	-44.1	13.6	3.80e-06	0	57	0	415236096	53	5198
2026-01-13 08:30:24.97	45.04	23.51	-40.8	-43.9	13.8	3.80e-06	0	57	0	416284672	53	5068
2026-01-13 08:30:25.98	44.76	23.50	-40.9	-44.0	13.7	7.60e-06	0	58	0	418381824	53	5146
2026-01-13 08:30:27.00	44.48	23.48	-40.9	-44.0	13.7	1.06e-05	0	58	0	420478976	53	5156
2026-01-13 08:30:28.00	44.20	23.46	-41.0	-44.2	13.6	1.14e-05	0	57	0	422576128	53	5234
2026-01-13 08:30:29.01	43.92	23.44	-41.0	-44.3	13.4	1.44e-05	0	58	0	424673280	53	5309
2026-01-13 08:30:30.02	43.64	23.42	-41.0	-44.3	13.4	1.06e-05	0	58	0	425721856	53	5311
2026-01-13 08:30:31.03	43.36	23.40	-41.1	-44.5	13.2	1.44e-05	0	58	0	427819008	53	5411
2026-01-13 08:30:32.04	43.09	23.37	-41.3	-44.8	12.9	2.82e-05	0	57	0	429916160	53	5622
2026-01-13 08:30:33.05	42.81	23.35	-41.4	-45.0	12.7	3.81e-05	0	58	0	432013312	53	5740
2026-01-13 08:30:34.06	42.53	23.33	-41.4	-45.0	12.7	6.25e-05	0	58	0	434110464	53	5769
2026-01-13 08:30:35.07	42.25	23.30	-41.4	-45.0	12.7	8.31e-05	0	58	0	435159040	53	5727
2026-01-13 08:30:36.08	41.98	23.28	-41.5	-45.1	12.6	5.79e-05	0	58	0	437256192	53	5821
2026-01-13 08:30:37.09	41.70	23.25	-41.4	-45.0	12.7	8.54e-05	0	58	0	439353344	53	5786
2026-01-13 08:30:38.10	41.42	23.23	-41.4	-45.0	12.7	5.64e-05	0	57	0	441450496	53	5774
2026-01-13 08:30:39.11	41.15	23.20	-41.4	-44.9	12.9	6.17e-05	0	58	0	443547648	53	5684
2026-01-13 08:30:40.12	40.87	23.17	-41.4	-45.0	12.8	4.42e-05	0	58	0	444596224	53	5743
2026-01-13 08:30:41.13	40.60	23.15	-41.5	-45.1	12.7	6.86e-05	0	58	0	446693376	53	5789
2026-01-13 08:30:42.14	40.32	23.12	-41.7	-45.6	12.1	1.40e-04	0	58	0	448790528	54	5818
2026-01-13 08:30:43.15	40.05	23.09	-42.0	-46.2	11.5	6.23e-04	0	58	0	450887680	54	6230
2026-01-13 08:30:44.16	39.78	23.06	-42.0	-46.2	11.5	6.95e-04	0	57	0	452984832	54	6234
2026-01-13 08:30:45.16	39.51	23.03	-42.0	-46.1	11.6	5.93e-04	0	58	0	454033408	54	6145
2026-01-13 08:30:46.17	39.24	23.00	-41.7	-45.5	12.2	2.27e-04	0	58	0	456130560	54	5760
2026-01-13 08:30:47.18	38.96	22.96	-41.6	-45.4	12.3	1.89e-04	0	58	0	458227712	54	5690
2026-01-13 08:30:48.19	38.69	22.93	-41.6	-45.4	12.4	1.25e-04	0	58	0	460324864	54	5684
2026-01-13 08:30:49.20	38.42	22.90	-41.8	-45.8	11.9	1.72e-04	0	58	0	462422016	54	5962
2026-01-13 08:30:50.21	38.15	22.86	-41.8	-45.7	12.0	2.62e-04	0	58	0	463470592	54	5898
2026-01-13 08:30:51.22	37.89	22.83	-41.9	-45.9	11.8	3.58e-04	0	58	0	465567744	54	6024
2026-01-13 08:30:52.23	37.62	22.79	-41.9	-46.0	11.7	3.93e-04	0	58	0	467664896	54	6091
2026-01-13 08:30:53.24	37.35	22.76	-42.2	-46.5	11.2	1.26e-03	0	58	0	469762048	54	6475
2026-01-13 08:30:54.25	37.08	22.72	-42.1	-46.5	11.3	1.40e-03	0	58	0	471859200	54	6430
2026-01-13 08:30:55.26	36.82	22.68	-42.3	-46.8	10.9	1.37e-03	0	57	0	472907776	55	6282
2026-01-13 08:30:56.27	36.55	22.65	-42.3	-46.8	10.9	1.73e-03	0	58	0	475004928	55	6314
2026-01-13 08:30:57.28	36.29	22.61	-42.4	-47.0	10.7	2.24e-03	0	57	0	477102080	55	6474
2026-01-13 08:30:58.29	36.02	22.57	-42.4	-47.0	10.7	3.06e-03	0	58	0	479199232	55	6486
2026-01-13 08:30:59.30	35.76	22.53	-42.5	-47.5	10.1	6.71e-03	0	58	0	481296384	55	6842
2026-01-13 08:31:00.31	35.49	22.49	-42.5	-47.5	10.1	7.18e-03	0	58	0	482344960	55	6872
2026-01-13 08:31:01.32	35.23	22.45	-42.5	-47.4	10.2	6.29e-03	0	58	0	484442112	55	6774
2026-01-13 08:31:02.32	34.97	22.41	-42.4	-47.2	10.4	4.45e-03	0	58	0	486539264	55	6615
2026-01-13 08:31:03.33	34.71	22.37	-42.3	-46.9	10.7	2.67e-03	0	58	0	488636416	55	6410
2026-01-13 08:31:04.34	34.45	22.32	-42.3	-47.0	10.7	2.55e-03	0	58	0	490733568	55	6440
2026-01-13 08:31:05.35	34.19	22.28	-42.3	-46.9	10.8	2.52e-03	0	58	0	491782144	55	6348
2026-01-13 08:31:06.36	33.93	22.24	-42.4	-47.2	10.5	3.06e-03	0	58	0	493879296	55	6585
2026-01-13 08:31:07.37	33.67	22.19	-42.4	-47.2	10.5	3.67e-03	0	58	0	495976448	55	6583
2026-01-13 08:31:08.38	33.42	22.15	-42.4	-47.2	10.4	3.92e-03	0	58	0	498073600	55	6627
2026-01-13 08:31:09.39	33.16	22.10	-42.4	-47.3	10.3	4.92e-03	0	58	0	500170752	55	6691
2026-01-13 08:31:10.40	32.91	22.06	-42.5	-47.6	10.1	5.94e-03	0	58	0	502267904	55	6885
2026-01-13 08:31:11.41	32.65	22.01	-42.5	-47.4	10.2	6.18e-03	0	58	0	503316480	55	6794
2026-01-13 08:31:12.42	32.40	21.96	-42.4	-47.2	10.5	5.13e-03	0	58	0	505413632	55	6571
2026-01-13 08:31:13.43	32.14	21.92	-42.3	-47.0	10.7	3.34e-03	0	58	0	507510784	55	6493
2026-01-13 08:31:14.44	31.89	21.87	-42.2	-46.8	10.9	2.93e-03	0	58	0	509607936	55	6339
2026-01-13 08:31:15.45	31.64	21.82	-42.3	-46.9	10.8	3.00e-03	0	58	0	511705088	55	6392
2026-01-13 08:31:16.46	31.39	21.77	-42.2	-46.8	10.8	2.62e-03	0	58	0	512753664	55	6338
2026-01-13 08:31:17.46	31.14	21.72	-42.3	-47.0	10.6	3.08e-03	0	58	0	514850816	55	6492
2026-01-13 08:31:18.47	30.89	21.67	-42.2	-46.8	10.9	3.05e-03	0	58	0	516947968	55	6296
2026-01-13 08:31:19.48	30.64	21.62	-42.1	-46.6	11.1	1.64e-03	0	58	0	519045120	55	6134
2026-01-13 08:31:20.49	30.39	21.57	-42.1	-46.7	11.0	1.71e-03	0	58	0	521142272	55	6224
2026-01-13 08:31:21.50	30.15	21.52	-42.3	-47.0	10.6	2.49e-03	0	58	0	522190848	55	6463
2026-01-13 08:31:22.51	29.90	21.47	-42.4	-47.4	10.3	5.18e-03	0	58	0	524288000	55	6765
2026-01-13 08:31:23.52	29.65	21.42	-42.6	-47.8	9.8	8.83e-03	0	58	0	526385152	55	7091
2026-01-13 08:31:24.53	29.41	21.36	-42.5	-47.6	10.0	8.91e-03	0	58	0	528482304	55	6932
2026-01-13 08:31:25.54	29.17	21.31	-42.5	-47.5	10.1	6.82e-03	0	58	0	530579456	55	6822
2026-01-13 08:31:26.55	28.92	21.26	-42.4	-47.2	10.4	4.98e-03	0	58	0	531628032	55	6623
2026-01-13 08:31:27.56	28.68	21.20	-42.4	-47.2	10.5	4.06e-03	0	58	0	533725184	55	6627
2026-01-13 08:31:28.57	28.44	21.15	-42.3	-46.9	10.7	3.35e-03	0	58	0	535822336	55	6419
2026-01-13 08:31:29.58	28.20	21.10	-42.3	-47.0	10.7	3.35e-03	0	58	0	537919488	55	6438
2026-01-13 08:31:30.59	27.96	21.04	-42.4	-47.4	10.2	4.03e-03	0	58	0	540016640	55	6734
2026-01-13 08:31:31.60	27.72	20.99	-42.5	-47.7	9.9	7.07e-03	0	58	0	541065216	55	6973
2026-01-13 08:31:32.61	27.49	20.93	-42.7	-48.1	9.4	1.37e-02	0	58	0	543162368	55	7350
2026-01-13 08:31:33.62	27.25	20.87	-43.0	-48.6	9.1	1.69e-02	0	58	0	545259520	56	7367
2026-01-13 08:31:34.63	27.01	20.82	-43.0	-48.8	8.9	2.88e-02	0	58	0	547356672	56	7541
2026-01-13 08:31:35.64	26.78	20.76	-42.7	-47.9	9.8	2.21e-02	0	58	0	549453824	56	6790
2026-01-13 08:31:36.65	26.54	20.70	-42.6	-47.6	10.1	1.01e-02	0	58	0	550502400	56	6526
2026-01-13 08:31:37.66	26.31	20.64	-42.3	-47.0	10.8	3.76e-03	0	58	0	552599552	56	6105
2026-01-13 08:31:38.67	26.08	20.59	-42.2	-46.8	11.0	1.75e-03	0	58	0	554696704	56	5963
2026-01-13 08:31:39.68	25.85	20.53	-41.9	-46.3	11.4	1.17e-03	0	58	0	556793856	55	5949
2026-01-13 08:31:40.68	25.62	20.47	-41.9	-46.1	11.6	9.35e-04	0	58	0	558891008	55	5823
2026-01-13 08:31:41.69	25.39	20.41	-41.8	-46.0	11.7	7.06e-04	0	58	0	559939584	55	5777
2026-01-13 08:31:42.70	25.16	20.35	-41.9	-46.2	11.5	8.06e-04	0	58	0	562036736	55	5901
2026-01-13 08:31:43.71	24.93	20.29	-41.8	-46.0	11.7	6.71e-04	0	58	0	564133888	55	5769
2026-01-13 08:31:44.73	24.70	20.23	-41.9	-46.2	11.5	7.22e-04	0	58	0	566231040	55	5878
2026-01-13 08:31:45.73	24.48	20.17	-41.8	-46.0	11.6	8.45e-04	0	58	0	568328192	55	5770
2026-01-13 08:31:46.74	24.25	20.11	-41.8	-45.9	11.7	5.29e-04	0	58	0	570425344	55	5703
2026-01-13 08:31:47.75	24.03	20.05	-41.8	-45.8	11.8	5.11e-04	0	58	0	571473920	55	5651
2026-01-13 08:31:48.76	23.81	19.99	-41.6	-45.5	12.1	3.54e-04	0	58	0	573571072	55	5461
2026-01-13 08:31:49.77	23.58	19.92	-41.5	-45.4	12.3	2.19e-04	0	58	0	575668224	54	5692
2026-01-13 08:31:50.78	23.36	19.86	-41.4	-45.0	12.7	1.10e-04	0	58	0	577765376	54	5450
2026-01-13 08:31:51.79	23.14	19.80	-41.3	-44.9	12.9	4.73e-05	0	58	0	579862528	54	5349
2026-01-13 08:31:52.80	22.92	19.74	-41.2	-44.7	12.9	3.81e-05	0	58	0	580911104	54	5268
2026-01-13 08:31:53.81	22.70	19.67	-41.1	-44.5	13.2	1.90e-05	0	58	0	583008256	54	5157
2026-01-13 08:31:54.82	22.49	19.61	-41.2	-44.8	12.9	3.43e-05	0	58	0	585105408	54	5300
2026-01-13 08:31:55.82	22.27	19.55	-41.4	-45.2	12.5	1.06e-04	0	58	0	587202560	54	5534
2026-01-13 08:31:56.83	22.05	19.49	-41.6	-45.6	12.1	2.18e-04	0	58	0	589299712	54	5810
2026-01-13 08:31:57.84	21.84	19.42	-41.8	-46.0	11.7	4.61e-04	0	58	0	590348288	54	6064
2026-01-13 08:31:58.85	21.63	19.36	-42.0	-46.5	11.1	1.05e-03	0	58	0	592445440	54	6437
2026-01-13 08:31:59.86	21.41	19.29	-42.1	-46.6	11.0	1.75e-03	0	58	0	594542592	54	6547
2026-01-13 08:32:00.87	21.20	19.23	-42.1	-46.8	10.8	2.45e-03	0	58	0	596639744	54	6688
2026-01-13 08:32:01.88	20.99	19.16	-42.1	-46.9	10.7	2.52e-03	0	58	0	598736896	54	6733
2026-01-13 08:32:02.89	20.78	19.10	-42.2	-47.0	10.5	3.79e-03	0	58	0	599785472	55	6479
2026-01-13 08:32:03.90	20.57	19.03	-42.1	-46.8	10.8	3.90e-03	0	58	0	601882624	55	6298
2026-01-13 08:32:04.91	20.36	18.97	-42.1	-46.9	10.8	2.12e-03	0	58	0	603979776	55	6361
2026-01-13 08:32:05.92	20.15	18.90	-42.0	-46.5	11.2	1.34e-03	0	58	0	606076928	55	6067
2026-01-13 08:32:06.93	19.94	18.83	-41.9	-46.2	11.4	1.15e-03	0	58	0	608174080	55	5886
2026-01-13 08:32:07.94	19.74	18.77	-41.8	-46.0	11.6	8.70e-04	0	58	0	609222656	55	5746
2026-01-13 08:32:08.95	19.53	18.70	-41.8	-46.1	11.5	8.96e-04	0	58	0	611319808	55	5817
2026-01-13 08:32:09.96	19.33	18.63	-41.8	-46.0	11.6	7.08e-04	0	58	0	613416960	55	5746
2026-01-13 08:32:10.97	19.13	18.57	-41.6	-45.7	11.8	5.45e-04	0	58	0	615514112	55	5584
2026-01-13 08:32:11.98	18.92	18.50	-41.4	-45.3	12.3	2.34e-04	0	58	0	617611264	54	5644
2026-01-13 08:32:12.99	18.72	18.43	-41.4	-45.3	12.3	1.73e-04	0	58	0	618659840	54	5600
2026-01-13 08:32:14.00	18.52	18.37	-41.4	-45.3	12.4	1.72e-04	0	58	0	620756992	54	5597
2026-01-13 08:32:15.00	18.32	18.30	-41.5	-45.4	12.2	1.71e-04	0	58	0	622854144	54	5668
2026-01-13 08:32:16.01	18.13	18.23	-41.7	-45.8	11.8	3.17e-04	0	58	0	624951296	54	5954
2026-01-13 08:32:17.02	17.93	18.16	-41.8	-46.1	11.5	5.87e-04	0	58	0	627048448	54	6167
2026-01-13 08:32:18.03	17.73	18.09	-41.9	-46.4	11.1	1.17e-03	0	58	0	628097024	54	6407
2026-01-13 08:32:19.04	17.54	18.03	-42.0	-46.5	11.0	1.73e-03	0	58	0	630194176	54	6443
2026-01-13 08:32:20.05	17.34	17.96	-41.8	-46.3	11.2	1.47e-03	0	58	0	632291328	54	6303
2026-01-13 08:32:21.06	17.15	17.89	-41.7	-45.9	11.6	9.33e-04	0	58	0	634388480	54	6031
2026-01-13 08:32:22.07	16.95	17.82	-41.8	-46.0	11.5	6.42e-04	0	58	0	636485632	54	6104
2026-01-13 08:32:23.08	16.76	17.75	-41.8	-46.2	11.4	7.90e-04	0	58	0	638582784	54	6203
2026-01-13 08:32:24.10	16.57	17.68	-41.9	-46.3	11.2	1.23e-03	0	58	0	639631360	54	6344
2026-01-13 08:32:25.11	16.38	17.61	-42.0	-46.7	10.8	2.27e-03	0	58	0	641728512	54	6575
2026-01-13 08:32:26.11	16.19	17.54	-42.1	-46.8	10.7	2.63e-03	0	58	0	643825664	54	6658
2026-01-13 08:32:27.12	16.00	17.47	-42.0	-46.5	11.0	2.48e-03	0	58	0	645922816	54	6460
2026-01-13 08:32:28.13	15.81	17.41	-41.9	-46.5	11.0	2.16e-03	0	58	0	648019968	54	6433
2026-01-13 08:32:29.14	15.62	17.34	-41.8	-46.1	11.3	1.29e-03	0	58	0	649068544	54	6187
2026-01-13 08:32:30.15	15.44	17.27	-41.7	-46.0	11.5	9.27e-04	0	58	0	651165696	54	6109
2026-01-13 08:32:31.16	15.25	17.20	-41.6	-45.8	11.7	6.02e-04	0	58	0	653262848	54	5934
2026-01-13 08:32:32.17	15.07	17.13	-41.7	-45.8	11.7	5.81e-04	0	58	0	655360000	54	5948
2026-01-13 08:32:33.18	14.89	17.06	-41.6	-45.7	11.8	6.13e-04	0	58	0	657457152	54	5893
2026-01-13 08:32:34.19	14.70	16.99	-41.4	-45.4	12.0	4.08e-04	0	58	0	658505728	54	5688
2026-01-13 08:32:35.20	14.52	16.92	-41.4	-45.4	12.1	2.84e-04	0	58	0	660602880	54	5670
2026-01-13 08:32:36.21	14.34	16.84	-41.4	-45.4	12.1	3.12e-04	0	58	0	662700032	54	5689
2026-01-13 08:32:37.22	14.16	16.77	-41.5	-45.4	12.1	3.66e-04	0	58	0	664797184	54	5686
2026-01-13 08:32:38.23	13.98	16.70	-41.6	-45.7	11.7	4.65e-04	0	58	0	666894336	54	5903
2026-01-13 08:32:39.24	13.80	16.63	-41.8	-46.1	11.3	8.45e-04	0	58	0	667942912	54	6146
2026-01-13 08:32:40.25	13.62	16.56	-41.8	-46.2	11.2	1.27e-03	0	58	0	670040064	54	6232
2026-01-13 08:32:41.26	13.45	16.49	-41.8	-46.2	11.2	1.33e-03	0	58	0	672137216	54	6203
2026-01-13 08:32:42.27	13.27	16.42	-41.7	-45.9	11.4	1.27e-03	0	58	0	674234368	54	6042
2026-01-13 08:32:43.28	13.10	16.35	-41.5	-45.5	11.9	5.71e-04	0	58	0	676331520	54	5741
2026-01-13 08:32:44.29	12.92	16.28	-41.4	-45.2	12.1	2.75e-04	0	58	0	677380096	54	5585
2026-01-13 08:32:45.30	12.75	16.21	-41.3	-45.1	12.2	1.88e-04	0	58	0	679477248	54	5481
2026-01-13 08:32:46.31	12.58	16.14	-41.1	-44.8	12.5	1.36e-04	0	58	0	681574400	54	5324
2026-01-13 08:32:47.32	12.41	16.07	-41.2	-44.9	12.5	9.99e-05	0	58	0	683671552	54	5356
2026-01-13 08:32:48.33	12.23	15.99	-41.2	-44.9	12.4	1.29e-04	0	58	0	685768704	54	5382
2026-01-13 08:32:49.34	12.06	15.92	-41.2	-45.0	12.3	1.81e-04	0	58	0	686817280	54	5459
2026-01-13 08:32:50.35	11.90	15.85	-41.2	-45.0	12.3	2.17e-04	0	58	0	688914432	54	5455
2026-01-13 08:32:51.35	11.73	15.78	-41.3	-45.2	12.1	1.92e-04	0	58	0	691011584	54	5546
2026-01-13 08:32:52.36	11.56	15.71	-41.4	-45.3	12.0	2.55e-04	0	58	0	693108736	54	5639
2026-01-13 08:32:53.37	11.39	15.64	-41.4	-45.5	11.7	3.79e-04	0	58	0	695205888	54	5767
2026-01-13 08:32:54.38	11.23	15.57	-41.4	-45.6	11.6	6.48e-04	0	58	0	696254464	54	5791
2026-01-13 08:32:55.39	11.06	15.49	-41.5	-45.7	11.5	7.46e-04	0	58	0	698351616	54	5876
2026-01-13 08:32:56.40	10.90	15.42	-41.5	-45.7	11.4	1.03e-03	0	58	0	700448768	54	5900
2026-01-13 08:32:57.41	10.74	15.35	-41.5	-45.6	11.5	8.02e-04	0	58	0	702545920	54	5854
2026-01-13 08:32:58.42	10.57	15.28	-41.4	-45.6	11.5	8.48e-04	0	58	0	704643072	54	5828
2026-01-13 08:32:59.43	10.41	15.21	-41.3	-45.4	11.7	6.43e-04	0	58	0	706740224	54	5661
2026-01-13 08:33:00.44	10.25	15.14	-41.2	-45.1	11.9	3.94e-04	0	58	0	707788800	54	5489
2026-01-13 08:33:01.45	10.09	15.07	-41.1	-45.0	12.1	3.38e-04	0	58	0	709885952	54	5411
2026-01-13 08:33:02.46	9.93	14.99	-41.1	-45.0	12.0	2.92e-04	0	58	0	711983104	54	5453
2026-01-13 08:33:03.47	9.77	14.92	-41.3	-45.6	11.3	6.74e-04	0	58	0	714080256	54	5792
2026-01-13 08:33:04.48	9.61	14.85	-41.3	-45.5	11.4	8.06e-04	0	58	0	716177408	54	5776
2026-01-13 08:33:05.48	9.46	14.78	-41.6	-46.2	10.6	2.17e-03	0	58	0	717225984	54	6252
2026-01-13 08:33:06.50	9.30	14.71	-41.6	-46.2	10.7	4.33e-03	0	58	0	719323136	54	6229
2026-01-13 08:33:07.51	9.14	14.63	-41.7	-46.7	10.1	4.93e-03	0	58	0	721420288	54	6574
2026-01-13 08:33:08.52	8.99	14.56	-41.7	-46.7	10.0	7.18e-03	0	58	0	723517440	54	6631
2026-01-13 08:33:09.53	8.83	14.49	-41.7	-46.7	10.0	7.07e-03	0	58	0	725614592	54	6641
2026-01-13 08:33:10.54	8.68	14.42	-41.6	-46.5	10.2	6.60e-03	0	58	0	726663168	54	6464
2026-01-13 08:33:11.55	8.53	14.35	-41.5	-46.2	10.6	4.11e-03	0	58	0	728760320	54	6255
2026-01-13 08:33:12.56	8.38	14.28	-41.5	-46.2	10.5	4.26e-03	0	58	0	730857472	54	6243
2026-01-13 08:33:13.56	8.23	14.21	-41.5	-46.2	10.4	3.41e-03	0	58	0	732954624	54	6256
2026-01-13 08:33:14.57	8.08	14.13	-41.6	-46.5	10.1	4.86e-03	0	58	0	735051776	54	6481
2026-01-13 08:33:15.58	7.93	14.06	-41.4	-46.0	10.6	5.39e-03	0	58	0	736100352	54	6092
2026-01-13 08:33:16.59	7.78	13.99	-41.3	-46.0	10.6	4.21e-03	0	58	0	738197504	54	6078
2026-01-13 08:33:17.60	7.63	13.92	-41.1	-45.6	11.0	3.41e-03	0	58	0	740294656	54	5831
2026-01-13 08:33:18.61	7.48	13.85	-41.0	-45.4	11.1	1.58e-03	0	58	0	742391808	54	5675
2026-01-13 08:33:19.62	7.34	13.78	-41.0	-45.5	10.9	1.63e-03	0	58	0	744488960	53	6126
2026-01-13 08:33:20.63	7.19	13.70	-41.2	-46.1	10.3	3.21e-03	0	58	0	745537536	53	6526
2026-01-13 08:33:21.64	7.04	13.63	-41.2	-46.0	10.3	5.94e-03	0	58	0	747634688	53	6479
2026-01-13 08:33:22.64	6.90	13.56	-41.0	-45.8	10.4	4.96e-03	0	58	0	749731840	53	6336
2026-01-13 08:33:23.65	6.76	13.49	-41.1	-46.0	10.2	5.16e-03	0	58	0	751828992	53	6435
2026-01-13 08:33:24.66	6.61	13.42	-41.1	-46.2	9.9	7.19e-03	0	58	0	753926144	53	6632
2026-01-13 08:33:25.67	6.47	13.35	-41.2	-46.9	9.1	1.72e-02	0	58	0	754974720	53	7140
2026-01-13 08:33:26.69	6.33	13.28	-41.4	-47.5	8.4	3.85e-02	0	58	0	757071872	53	7707
2026-01-13 08:33:27.69	6.19	13.20	-41.3	-47.7	8.1	5.20e-02	0	58	0	759169024	53	7865
2026-01-13 08:33:28.70	6.05	13.13	-41.2	-47.5	8.2	6.66e-02	0	58	0	761266176	53	7646
2026-01-13 08:33:29.71	5.91	13.06	-41.1	-47.2	8.4	4.75e-02	0	58	0	763363328	53	7431
2026-01-13 08:33:30.72	5.77	12.99	-40.8	-46.7	8.8	3.84e-02	0	58	0	764411904	53	6992
2026-01-13 08:33:31.73	5.63	12.92	-40.6	-46.0	9.5	2.16e-02	0	58	0	766509056	53	6469
2026-01-13 08:33:32.74	5.49	12.85	-40.4	-45.5	10.1	7.97e-03	0	58	0	768606208	52	6442
2026-01-13 08:33:33.75	5.36	12.78	-40.3	-45.3	10.3	5.41e-03	0	58	0	770703360	52	6292
2026-01-13 08:33:34.76	5.22	12.71	-40.2	-45.2	10.3	5.71e-03	0	58	0	772800512	52	6243
2026-01-13 08:33:35.77	5.09	12.64	-40.2	-45.2	10.2	6.88e-03	0	58	0	774897664	52	6240
2026-01-13 08:33:36.78	4.95	12.56	-40.4	-45.8	9.5	9.09e-03	0	58	0	775946240	52	6710
2026-01-13 08:33:37.79	4.82	12.49	-40.7	-47.2	8.1	2.82e-02	0	58	0	778043392	52	7811
2026-01-13 08:33:38.80	4.68	12.42	-41.0	-48.8	6.5	1.65e-01	0	58	0	780140544	52	9435
2026-01-13 08:33:39.81	4.55	12.35	-41.3	-51.0	4.9	5.42e-01	0	58	0	782237696	53	11471
2026-01-13 08:33:40.82	4.42	12.28	-41.3	-53.0	4.1	1.15e+00	0	58	0	783286272	53	14406
2026-01-13 08:33:41.83	4.29	12.21	-41.3	-54.4	3.8	1.48e+00	0	58	104	783286272	53	16991
2026-01-13 08:33:42.84	4.16	12.14	-41.2	-55.3	3.8	1.49e+00	0	58	104	783286272	53	18844
2026-01-13 08:33:43.84	4.03	12.07	-41.1	-55.8	3.8	1.49e+00	0	58	104	783286272	53	19850
2026-01-13 08:33:44.85	3.90	12.00	-41.0	-55.8	3.8	1.49e+00	0	58	104	783286272	53	19950
2026-01-13 08:33:45.86	3.77	11.93	-40.9	-55.8	3.8	1.49e+00	0	58	104	783286272	53	19875
2026-01-13 08:33:46.87	3.64	11.86	-41.2	-55.9	3.8	1.49e+00	0	58	104	783286272	53	20080
2026-01-13 08:33:47.88	3.51	11.79	-40.5	-55.2	3.8	1.49e+00	0	58	104	783286272	53	18544
2026-01-13 08:33:48.89	3.39	11.72	-40.1	-54.9	3.8	1.49e+00	0	58	104	783286272	52	18972
2026-01-13 08:33:49.90	3.26	11.65	-40.5	-55.2	3.8	1.49e+00	0	58	104	783286272	52	19758
2026-01-13 08:33:50.91	3.13	11.58	-40.3	-55.0	3.8	1.49e+00	0	58	104	783286272	52	19295
2026-01-13 08:33:51.92	3.01	11.51	-40.2	-55.0	3.8	1.49e+00	0	58	104	783286272	52	19196
2026-01-13 08:33:52.93	2.88	11.44	-40.2	-54.8	3.8	1.49e+00	0	58	104	783286272	52	18938
2026-01-13 08:33:53.94	2.76	11.37	-40.0	-54.7	3.8	1.49e+00	0	58	104	783286272	52	18696
2026-01-13 08:33:54.95	2.64	11.30	-40.1	-54.9	3.8	1.49e+00	0	58	104	783286272	52	19029
2026-01-13 08:33:55.96	2.51	11.23	-40.5	-55.4	3.8	1.49e+00	0	58	104	783286272	52	20236
2026-01-13 08:33:56.97	2.39	11.16	-40.5	-55.3	3.8	1.49e+00	0	58	104	783286272	52	20001
2026-01-13 08:33:57.98	2.27	11.09	-40.0	-54.8	3.8	1.49e+00	0	58	104	783286272	51	19875
2026-01-13 08:33:58.99	2.15	11.02	-40.1	-54.9	3.8	1.49e+00	0	58	104	783286272	51	20266
2026-01-13 08:34:00.00	2.03	10.95	-40.0	-54.9	3.8	1.49e+00	0	58	104	783286272	51	20119
2026-01-13 08:34:01.01	1.91	10.88	-40.0	-54.8	3.8	1.49e+00	0	58	104	783286272	51	19948
2026-01-13 08:34:02.02	1.79	10.81	-40.1	-54.9	3.8	1.49e+00	0	58	104	783286272	51	20260
2026-01-13 08:34:03.03	1.67	10.74	-40.0	-54.8	3.8	1.49e+00	0	58	104	783286272	51	19904
2026-01-13 08:34:04.04	1.55	10.67	-40.3	-55.1	3.8	1.49e+00	0	58	104	783286272	51	20584
2026-01-13 08:34:05.04	1.43	10.60	-40.4	-55.2	3.8	1.49e+00	0	58	104	783286272	51	20903
2026-01-13 08:34:06.05	1.32	10.53	-40.0	-54.7	3.8	1.49e+00	0	58	104	783286272	51	19823
2026-01-13 08:34:07.06	1.20	10.46	-40.3	-55.1	3.8	1.49e+00	0	58	104	783286272	51	20740
2026-01-13 08:34:08.07	1.09	10.40	-39.9	-54.7	3.8	1.49e+00	0	58	104	783286272	51	19728
2026-01-13 08:34:09.08	0.97	10.33	-39.8	-54.7	3.8	1.49e+00	0	58	104	783286272	51	19811
2026-01-13 08:34:10.09	0.86	10.26	-40.0	-54.9	3.8	1.49e+00	0	58	104	783286272	51	20093
2026-01-13 08:34:11.10	0.74	10.19	-39.7	-54.7	3.8	1.49e+00	0	58	104	783286272	51	19688
2026-01-13 08:34:12.11	0.63	10.12	-40.0	-54.8	3.8	1.49e+00	0	58	104	783286272	51	19899
2026-01-13 08:34:13.12	0.51	10.05	-40.1	-54.9	3.8	1.49e+00	0	58	104	783286272	51	20228
2026-01-13 08:34:14.13	0.40	9.98	-39.8	-54.6	3.8	1.49e+00	0	58	104	783286272	51	19567
2026-01-13 08:34:15.14	0.29	9.91	-40.0	-54.9	3.8	1.49e+00	0	58	104	783286272	51	20111
2026-01-13 08:34:16.15	0.18	9.85	-39.8	-54.6	3.8	1.49e+00	0	58	104	783286272	51	19553
2026-01-13 08:34:17.16	0.07	9.78	-39.3	-54.7	3.8	1.49e+00	0	58	104	783286272	50	20784
2026-01-13 08:34:18.17	359.96	9.71	-39.9	-54.7	3.8	1.49e+00	0	58	104	783286272	50	20971
2026-01-13 08:34:19.17	359.85	9.64	-39.3	-54.6	3.8	1.49e+00	0	58	104	783286272	50	20650
2026-01-13 08:34:20.18	359.74	9.57	-39.8	-54.7	3.8	1.49e+00	0	58	104	783286272	50	20940
2026-01-13 08:34:21.19	359.63	9.51	-39.5	-54.8	3.8	1.49e+00	0	58	104	783286272	50	21066
2026-01-13 08:34:22.20	359.52	9.44	-39.5	-54.7	3.8	1.49e+00	0	58	104	783286272	50	20800
2026-01-13 08:34:23.21	359.41	9.37	-39.4	-54.7	3.8	1.49e+00	0	58	104	783286272	50	20933
2026-01-13 08:34:24.22	359.31	9.30	-39.4	-54.6	3.8	1.49e+00	0	58	104	783286272	50	20761
2026-01-13 08:34:25.23	359.20	9.24	-39.5	-54.6	3.8	1.49e+00	0	58	104	783286272	50	20654
2026-01-13 08:34:26.24	359.09	9.17	-39.3	-54.6	3.8	1.49e+00	0	58	104	783286272	50	20751
2026-01-13 08:34:27.25	358.99	9.10	-39.5	-54.5	3.8	1.49e+00	0	58	104	783286272	50	20519
2026-01-13 08:34:28.26	358.88	9.03	-39.2	-54.6	3.8	1.49e+00	0	58	104	783286272	50	20657
2026-01-13 08:34:29.27	358.78	8.97	-39.7	-54.7	3.8	1.49e+00	0	58	104	783286272	50	20817
2026-01-13 08:34:30.28	358.68	8.90	-39.3	-54.6	3.8	1.49e+00	0	58	104	783286272	50	20640
2026-01-13 08:34:31.29	358.57	8.83	-39.7	-54.6	3.8	1.49e+00	0	58	104	783286272	50	20747
2026-01-13 08:34:32.30	358.47	8.77	-39.2	-54.6	3.8	1.49e+00	0	58	104	783286272	50	20579
2026-01-13 08:34:33.31	358.37	8.70	-39.5	-54.6	3.8	1.49e+00	0	58	104	783286272	50	20552
2026-01-13 08:34:34.32	358.26	8.63	-39.5	-54.6	3.8	1.49e+00	0	58	104	783286272	50	20543
2026-01-13 08:34:35.33	358.16	8.57	-39.4	-54.5	3.8	1.49e+00	0	58	104	783286272	50	20525
2026-01-13 08:34:36.34	358.06	8.50	-39.6	-54.6	3.8	1.49e+00	0	58	104	783286272	50	20630
2026-01-13 08:34:37.35	357.96	8.43	-39.6	-54.6	3.8	1.49e+00	0	59	104	783286272	50	20643
2026-01-13 08:34:38.36	357.86	8.37	-39.1	-54.6	3.8	1.49e+00	0	58	104	783286272	50	20601
2026-01-13 08:34:39.37	357.76	8.30	-39.6	-54.6	3.8	1.49e+00	0	58	104	783286272	50	20724
2026-01-13 08:34:40.38	357.66	8.23	-39.0	-54.5	3.8	1.49e+00	0	58	104	783286272	49	21745
2026-01-13 08:34:41.39	357.56	8.17	-39.4	-54.5	3.8	1.49e+00	0	58	104	783286272	49	21666
2026-01-13 08:34:42.40	357.46	8.10	-39.4	-54.5	3.8	1.49e+00	0	58	104	783286272	49	21695
2026-01-13 08:34:43.41	357.36	8.04	-39.5	-54.5	3.8	1.49e+00	0	58	104	783286272	49	21634
2026-01-13 08:34:44.42	357.27	7.97	-40.5	-55.5	3.8	1.49e+00	0	58	104	783286272	51	21632
2026-01-13 08:34:45.43	357.17	7.90	-44.1	-58.4	3.8	1.49e+00	0	58	104	783286272	58	20282
2026-01-13 08:34:46.44	357.07	7.84	-44.7	-59.2	3.8	1.49e+00	0	58	104	783286272	60	19802
2026-01-13 08:34:47.45	356.98	7.77	-45.0	-59.5	3.8	1.49e+00	0	58	104	783286272	60	20520
2026-01-13 08:34:48.46	356.88	7.71	-45.1	-59.7	3.8	1.49e+00	0	58	104	783286272	60	20891
2026-01-13 08:34:49.47	356.79	7.64	-45.2	-59.9	3.8	1.49e+00	0	58	104	783286272	61	20116
2026-01-13 08:34:50.48	356.69	7.58	-45.3	-59.9	3.8	1.49e+00	0	58	104	783286272	61	20117
2026-01-13 08:34:51.49	356.60	7.51	-45.3	-59.9	3.8	1.49e+00	0	58	104	783286272	61	20254
2026-01-13 08:34:52.50	356.50	7.45	-45.3	-59.9	3.8	1.49e+00	0	58	104	783286272	61	20156
2026-01-13 08:34:53.51	356.41	7.38	-44.8	-59.9	3.8	1.49e+00	0	58	104	783286272	60	21333
2026-01-13 08:34:54.52	356.32	7.32	-45.2	-59.9	3.8	1.49e+00	0	58	104	783286272	61	20151
2026-01-13 08:34:55.53	356.22	7.25	-45.3	-59.9	3.8	1.49e+00	0	58	104	783286272	60	21301
2026-01-13 08:34:56.54	356.13	7.19	-45.3	-59.8	3.8	1.49e+00	0	58	104	783286272	61	20054
2026-01-13 08:34:57.55	356.04	7.12	-45.3	-59.8	3.8	1.49e+00	0	58	104	783286272	61	19922
2026-01-13 08:34:58.56	355.95	7.06	-45.2	-59.8	3.8	1.49e+00	0	58	104	783286272	61	19979
2026-01-13 08:34:59.56	355.86	6.99	-45.2	-59.7	3.8	1.49e+00	0	58	104	783286272	61	19695
2026-01-13 08:35:00.57	355.77	6.93	-45.1	-59.7	3.8	1.49e+00	0	58	104	783286272	61	19731
2026-01-13 08:35:01.58	355.68	6.86	-45.1	-59.7	3.8	1.49e+00	0	58	104	783286272	61	19691
2026-01-13 08:35:02.59	355.59	6.80	-45.2	-59.7	3.8	1.49e+00	0	58	104	783286272	61	19692
2026-01-13 08:35:03.60	355.50	6.74	-45.0	-59.7	3.8	1.49e+00	0	58	104	783286272	60	20825
2026-01-13 08:35:04.61	355.41	6.67	-44.3	-59.5	3.8	1.49e+00	0	58	104	783286272	59	21644
2026-01-13 08:35:05.62	355.32	6.61	-45.1	-59.7	3.8	1.49e+00	0	58	104	783286272	60	20806
2026-01-13 08:35:06.63	355.23	6.54	-45.1	-59.7	3.8	1.49e+00	0	58	104	783286272	60	20783
2026-01-13 08:35:07.64	355.15	6.48	-45.1	-59.7	3.8	1.49e+00	0	58	104	783286272	60	20789
2026-01-13 08:35:08.65	355.06	6.42	-45.1	-59.7	3.8	1.49e+00	0	58	104	783286272	60	20852
2026-01-13 08:35:09.66	354.97	6.35	-45.1	-59.7	3.8	1.49e+00	0	58	104	783286272	60	20800
2026-01-13 08:35:10.67	354.89	6.29	-45.1	-59.6	3.8	1.49e+00	0	58	104	783286272	60	20738
2026-01-13 08:35:11.68	354.80	6.23	-45.1	-59.7	3.8	1.49e+00	0	58	104	783286272	60	20790
2026-01-13 08:35:12.69	354.71	6.16	-45.1	-59.6	3.8	1.49e+00	0	58	104	783286272	60	20773
2026-01-13 08:35:13.70	354.63	6.10	-45.1	-59.6	3.8	1.49e+00	0	58	104	783286272	60	20775
2026-01-13 08:35:14.71	354.54	6.04	-45.1	-59.7	3.8	1.49e+00	0	58	104	783286272	60	20778
2026-01-13 08:35:15.72	354.46	5.97	-45.0	-59.6	3.8	1.49e+00	0	58	104	783286272	60	20744
2026-01-13 08:35:16.72	354.38	5.91	-45.1	-59.6	3.8	1.49e+00	0	58	104	783286272	60	20763
2026-01-13 08:35:17.74	354.29	5.85	-45.1	-59.6	3.8	1.49e+00	0	58	104	783286272	60	20713
2026-01-13 08:35:18.75	354.21	5.79	-45.0	-59.6	3.8	1.49e+00	0	58	104	783286272	60	20748
2026-01-13 08:35:19.76	354.13	5.72	-45.1	-59.6	3.8	1.49e+00	0	58	104	783286272	60	20761
2026-01-13 08:35:20.76	354.04	5.66	-45.1	-59.6	3.8	1.49e+00	0	58	104	783286272	60	20699
2026-01-13 08:35:21.77	353.96	5.60	-45.1	-59.6	3.8	1.49e+00	0	58	104	783286272	60	20707
2026-01-13 08:35:22.78	353.88	5.54	-45.0	-59.6	3.8	1.49e+00	0	58	104	783286272	60	20681
2026-01-13 08:35:23.79	353.80	5.47	-45.0	-59.6	3.8	1.49e+00	0	58	104	783286272	60	20741
2026-01-13 08:35:24.80	353.72	5.41	-45.0	-59.6	3.8	1.49e+00	0	58	104	783286272	60	20691
2026-01-13 08:35:25.81	353.64	5.35	-45.1	-59.6	3.8	1.49e+00	0	58	104	783286272	60	20702
2026-01-13 08:35:26.82	353.56	5.29	-45.0	-59.6	3.8	1.49e+00	0	58	104	783286272	60	20657
2026-01-13 08:35:27.83	353.48	5.23	-45.1	-59.6	3.8	1.49e+00	0	58	104	783286272	60	20737
