passes_logs/2026/01/13/R2.0S_Moscow/R2.0S_Moscow__20260113_001157_SUOMI_NPP_rec.log

#Pass ID: 20260113_001157_SUOMI NPP
#Satellite: SUOMI NPP
#Configuration: NPP
#almurnet v.1.7.20251203
#Start time: 2026-01-13 00:14:00

#Version: 2.2.20231116
#Station: R2.0S_Moscow
#Location: 37.707566 lon 55.798166 lat
#TLE: 1 37849U 11061A   26012.28456845  .00000093  00000+0  65163-4 0  9999
#TLE: 2 37849  98.7807 314.3566 0002508  68.3553 291.7890 14.19524725736322

#Time	Az	El	Level	Level2	SNR	BER	BlckErr	Temp	State	Recorded	gain1	gain2
2026-01-13 00:14:00.43	11.47	11.20	-45.1	-63.4	3.8	8.47e-01	0	59	0	0	61	30114
2026-01-13 00:14:01.44	11.44	11.29	-45.4	-59.9	3.8	1.49e+00	0	60	104	0	62	19143
2026-01-13 00:14:02.45	11.40	11.38	-45.4	-59.9	3.8	1.49e+00	0	60	104	0	62	19128
2026-01-13 00:14:03.46	11.37	11.47	-45.3	-59.9	3.8	1.49e+00	0	60	104	0	62	19026
2026-01-13 00:14:04.47	11.33	11.56	-45.2	-59.8	3.8	1.49e+00	0	59	104	0	62	18836
2026-01-13 00:14:05.48	11.30	11.66	-45.1	-59.7	3.8	1.49e+00	0	60	104	0	62	18614
2026-01-13 00:14:06.49	11.26	11.75	-45.0	-59.5	3.8	1.49e+00	0	60	104	0	62	18305
2026-01-13 00:14:07.50	11.23	11.84	-44.8	-59.4	3.8	1.49e+00	0	59	104	0	61	19159
2026-01-13 00:14:08.51	11.19	11.93	-44.6	-58.3	3.8	1.49e+00	0	60	104	0	61	16881
2026-01-13 00:14:09.52	11.16	12.03	-44.3	-58.6	3.8	1.49e+00	0	60	104	0	60	18308
2026-01-13 00:14:10.53	11.12	12.12	-44.3	-58.3	3.8	1.49e+00	0	60	104	0	60	17766
2026-01-13 00:14:11.54	11.09	12.21	-44.3	-58.1	3.8	1.49e+00	0	60	104	0	60	17409
2026-01-13 00:14:12.55	11.05	12.31	-44.3	-57.8	3.8	1.49e+00	0	59	104	0	60	16743
2026-01-13 00:14:13.56	11.01	12.40	-44.3	-57.6	3.8	1.49e+00	0	60	104	0	60	16462
2026-01-13 00:14:14.57	10.98	12.50	-44.2	-57.6	3.8	1.49e+00	0	60	104	0	60	16357
2026-01-13 00:14:15.57	10.94	12.59	-44.3	-57.7	3.8	1.49e+00	0	60	104	0	60	16607
2026-01-13 00:14:16.58	10.90	12.69	-44.3	-57.9	3.8	1.49e+00	0	60	104	0	60	16971
2026-01-13 00:14:17.59	10.86	12.78	-44.3	-58.1	3.8	1.49e+00	0	60	104	0	60	17342
2026-01-13 00:14:18.60	10.83	12.88	-44.3	-58.3	3.8	1.49e+00	0	59	104	0	60	17696
2026-01-13 00:14:19.61	10.79	12.98	-44.3	-58.4	3.8	1.49e+00	0	60	104	0	60	18045
2026-01-13 00:14:20.62	10.75	13.07	-44.3	-58.5	3.8	1.49e+00	0	59	104	0	60	18251
2026-01-13 00:14:21.63	10.71	13.17	-44.3	-58.7	3.8	1.49e+00	0	59	104	0	60	18547
2026-01-13 00:14:22.64	10.67	13.27	-44.3	-58.8	3.8	1.49e+00	0	60	104	0	60	18806
2026-01-13 00:14:23.65	10.63	13.37	-44.3	-58.9	3.8	1.49e+00	0	60	104	0	60	18964
2026-01-13 00:14:24.66	10.59	13.47	-44.3	-58.9	3.8	1.49e+00	0	60	104	0	60	18957
2026-01-13 00:14:25.67	10.55	13.57	-44.3	-58.8	3.8	1.49e+00	0	60	104	0	60	18827
2026-01-13 00:14:26.68	10.51	13.67	-44.3	-58.7	3.8	1.49e+00	0	60	104	0	60	18636
2026-01-13 00:14:27.69	10.47	13.76	-44.3	-58.4	3.8	1.49e+00	0	60	104	0	60	17892
2026-01-13 00:14:28.70	10.43	13.87	-44.2	-57.9	3.8	1.49e+00	0	60	104	0	60	17057
2026-01-13 00:14:29.71	10.39	13.97	-44.2	-57.2	3.8	1.49e+00	0	59	104	0	60	15749
2026-01-13 00:14:30.72	10.35	14.07	-44.2	-56.6	3.8	1.49e+00	0	60	104	0	60	14629
2026-01-13 00:14:31.73	10.31	14.17	-44.1	-55.9	4.0	1.48e+00	0	60	104	0	60	13500
2026-01-13 00:14:32.74	10.26	14.27	-44.0	-54.9	4.3	1.39e+00	0	60	0	0	60	12055
2026-01-13 00:14:33.75	10.22	14.37	-44.0	-54.1	4.5	1.26e+00	0	60	0	1048576	59	11658
2026-01-13 00:14:34.76	10.18	14.47	-44.0	-53.6	4.8	8.69e-01	0	60	0	3145728	59	11024
2026-01-13 00:14:35.77	10.14	14.58	-43.9	-53.3	5.0	7.57e-01	0	60	0	5242880	59	10589
2026-01-13 00:14:36.78	10.09	14.68	-43.9	-53.0	5.1	6.92e-01	0	60	0	7340032	59	10245
2026-01-13 00:14:37.79	10.05	14.79	-43.9	-53.4	4.9	7.21e-01	0	60	0	8388608	59	10667
2026-01-13 00:14:38.80	10.00	14.89	-44.0	-53.7	4.7	8.29e-01	0	60	0	10485760	59	11033
2026-01-13 00:14:39.82	9.96	15.00	-44.0	-54.1	4.6	8.95e-01	0	60	0	12582912	59	11656
2026-01-13 00:14:40.83	9.91	15.10	-44.1	-54.7	4.3	1.26e+00	0	60	0	14680064	59	12476
2026-01-13 00:14:41.84	9.87	15.21	-44.1	-55.0	4.2	1.36e+00	0	60	0	14680064	59	12909
2026-01-13 00:14:42.85	9.82	15.31	-44.1	-54.6	4.4	1.36e+00	0	60	0	14680064	59	12309
2026-01-13 00:14:43.86	9.78	15.42	-43.9	-53.6	4.8	8.97e-01	0	60	0	16777216	59	10937
2026-01-13 00:14:44.87	9.73	15.53	-43.7	-52.0	5.7	5.51e-01	0	60	0	18874368	59	9133
2026-01-13 00:14:45.88	9.69	15.63	-43.4	-50.4	7.0	2.43e-01	0	60	0	19922944	58	8019
2026-01-13 00:14:46.89	9.64	15.74	-42.9	-48.8	8.6	5.22e-02	0	60	0	22020096	57	7097
2026-01-13 00:14:47.90	9.59	15.85	-42.6	-47.7	9.7	1.62e-02	0	60	0	24117248	57	6271
2026-01-13 00:14:48.91	9.54	15.96	-42.2	-46.8	10.7	5.23e-03	0	60	0	26214400	56	5937
2026-01-13 00:14:49.92	9.50	16.07	-41.7	-45.9	11.4	1.74e-03	0	60	0	28311552	55	5668
2026-01-13 00:14:50.93	9.45	16.18	-41.6	-45.5	11.8	5.42e-04	0	60	0	30408704	55	5459
2026-01-13 00:14:51.94	9.40	16.29	-41.4	-45.3	12.1	3.25e-04	0	60	0	31457280	54	5594
2026-01-13 00:14:52.95	9.35	16.40	-41.3	-45.1	12.3	2.21e-04	0	60	0	33554432	54	5494
2026-01-13 00:14:53.96	9.30	16.51	-41.5	-45.4	12.0	2.73e-04	0	60	0	35651584	54	5693
2026-01-13 00:14:54.97	9.25	16.62	-42.0	-46.4	11.0	6.14e-04	0	60	0	37748736	54	6419
2026-01-13 00:14:55.99	9.20	16.73	-43.4	-49.9	7.8	1.37e-03	0	60	0	39845888	57	8015
2026-01-13 00:14:57.00	9.15	16.85	-44.2	-56.1	4.0	3.37e-01	0	60	0	40894464	58	15446
2026-01-13 00:14:58.01	9.10	16.96	-43.9	-52.4	5.4	1.41e-01	0	60	0	40894464	58	10062
2026-01-13 00:14:59.02	9.05	17.07	-42.9	-48.6	8.8	5.09e-03	0	60	0	42991616	56	7345
2026-01-13 00:15:00.03	8.99	17.19	-41.7	-45.8	11.7	1.51e-02	0	60	0	45088768	55	5604
2026-01-13 00:15:01.04	8.94	17.30	-41.5	-45.5	12.0	3.68e-04	0	60	0	47185920	55	5405
2026-01-13 00:15:02.05	8.89	17.42	-41.5	-45.4	12.0	3.16e-04	0	60	0	48234496	55	5375
2026-01-13 00:15:03.06	8.84	17.53	-41.5	-45.4	12.0	2.60e-04	0	60	0	50331648	55	5373
2026-01-13 00:15:04.07	8.78	17.65	-41.6	-45.4	12.1	2.08e-04	0	60	0	52428800	54	5717
2026-01-13 00:15:05.08	8.73	17.77	-41.6	-45.6	11.9	3.53e-04	0	60	0	54525952	54	5811
2026-01-13 00:15:06.09	8.67	17.88	-41.6	-45.6	11.9	3.98e-04	0	60	0	56623104	54	5821
2026-01-13 00:15:07.09	8.62	18.00	-41.6	-45.4	12.1	2.83e-04	0	60	0	57671680	54	5712
2026-01-13 00:15:08.10	8.56	18.12	-41.6	-45.4	12.1	2.23e-04	0	60	0	59768832	54	5685
2026-01-13 00:15:09.11	8.51	18.24	-41.5	-45.2	12.3	2.88e-04	0	60	0	61865984	54	5561
2026-01-13 00:15:10.12	8.45	18.36	-41.6	-45.4	12.1	2.49e-04	0	60	0	63963136	54	5719
2026-01-13 00:15:11.13	8.39	18.48	-41.6	-45.4	12.1	2.59e-04	0	60	0	66060288	54	5700
2026-01-13 00:15:12.14	8.34	18.60	-41.7	-45.6	12.0	2.29e-04	0	60	0	68157440	54	5840
2026-01-13 00:15:13.15	8.28	18.72	-41.8	-45.8	11.8	3.98e-04	0	60	0	69206016	54	5932
2026-01-13 00:15:14.16	8.22	18.84	-41.7	-45.5	12.0	4.61e-04	0	60	0	71303168	54	5780
2026-01-13 00:15:15.17	8.16	18.96	-41.8	-45.8	11.7	2.37e-04	0	60	0	73400320	54	5985
2026-01-13 00:15:16.18	8.10	19.09	-41.7	-45.7	11.9	4.58e-04	0	60	0	75497472	54	5905
2026-01-13 00:15:17.19	8.04	19.21	-41.6	-45.4	12.2	3.44e-04	0	60	0	77594624	54	5698
2026-01-13 00:15:18.20	7.98	19.33	-41.7	-45.7	11.9	2.89e-04	0	60	0	78643200	54	5863
2026-01-13 00:15:19.21	7.92	19.46	-41.8	-45.8	11.8	4.41e-04	0	60	0	80740352	54	5936
2026-01-13 00:15:20.21	7.86	19.58	-41.7	-45.5	12.1	2.96e-04	0	60	0	82837504	54	5787
2026-01-13 00:15:21.22	7.80	19.71	-41.8	-45.7	11.9	3.23e-04	0	60	0	84934656	54	5908
2026-01-13 00:15:22.23	7.73	19.83	-41.7	-45.6	12.0	4.67e-04	0	60	0	87031808	54	5804
2026-01-13 00:15:23.24	7.67	19.96	-41.8	-45.8	11.8	4.90e-04	0	60	0	88080384	54	5936
2026-01-13 00:15:24.25	7.61	20.09	-41.8	-45.7	11.9	4.29e-04	0	60	0	90177536	54	5917
2026-01-13 00:15:25.26	7.54	20.22	-41.7	-45.6	12.0	4.10e-04	0	60	0	92274688	54	5844
2026-01-13 00:15:26.27	7.48	20.35	-41.8	-45.9	11.8	5.35e-04	0	60	0	94371840	54	6011
2026-01-13 00:15:27.28	7.41	20.47	-41.7	-45.6	12.1	3.55e-04	0	60	0	96468992	54	5828
2026-01-13 00:15:28.29	7.35	20.61	-41.7	-45.6	12.0	1.58e-04	0	60	0	97517568	54	5849
2026-01-13 00:15:29.30	7.28	20.74	-41.7	-45.5	12.1	2.70e-04	0	60	0	99614720	54	5772
2026-01-13 00:15:30.31	7.21	20.87	-41.6	-45.3	12.4	1.74e-04	0	60	0	101711872	54	5615
2026-01-13 00:15:31.32	7.15	21.00	-41.7	-45.4	12.2	1.56e-04	0	60	0	103809024	54	5717
2026-01-13 00:15:32.33	7.08	21.13	-41.7	-45.6	12.1	2.66e-04	0	60	0	105906176	54	5807
2026-01-13 00:15:33.34	7.01	21.27	-41.5	-45.2	12.6	1.41e-04	0	60	0	106954752	54	5550
2026-01-13 00:15:34.35	6.94	21.40	-41.7	-45.4	12.3	1.86e-04	0	60	0	109051904	54	5706
2026-01-13 00:15:35.36	6.87	21.53	-41.7	-45.5	12.2	2.38e-04	0	60	0	111149056	54	5747
2026-01-13 00:15:36.37	6.80	21.67	-41.8	-45.6	12.1	1.73e-04	0	60	0	113246208	54	5816
2026-01-13 00:15:37.37	6.73	21.80	-41.8	-45.7	12.0	2.73e-04	0	60	0	115343360	54	5869
2026-01-13 00:15:38.38	6.65	21.94	-41.8	-45.6	12.1	3.61e-04	0	60	0	116391936	54	5828
2026-01-13 00:15:39.39	6.58	22.08	-41.8	-45.7	12.0	3.65e-04	0	60	0	118489088	54	5918
2026-01-13 00:15:40.40	6.51	22.22	-41.9	-45.8	11.9	3.97e-04	0	60	0	120586240	54	5978
2026-01-13 00:15:41.41	6.43	22.35	-41.8	-45.7	12.1	2.72e-04	0	60	0	122683392	54	5905
2026-01-13 00:15:42.42	6.36	22.49	-41.9	-45.8	12.0	4.19e-04	0	60	0	124780544	54	5949
2026-01-13 00:15:43.43	6.28	22.63	-41.9	-45.8	11.9	4.33e-04	0	60	0	125829120	54	5991
2026-01-13 00:15:44.44	6.21	22.78	-41.9	-45.9	11.8	1.98e-04	0	60	0	127926272	54	6031
2026-01-13 00:15:45.45	6.13	22.92	-42.0	-46.0	11.8	3.69e-04	0	60	0	130023424	54	6077
2026-01-13 00:15:46.46	6.05	23.06	-41.7	-45.5	12.2	3.39e-04	0	60	0	132120576	54	5772
2026-01-13 00:15:47.47	5.97	23.20	-41.9	-45.8	12.0	3.04e-04	0	60	0	134217728	54	5927
2026-01-13 00:15:48.48	5.89	23.35	-41.8	-45.7	12.1	3.05e-04	0	60	0	136314880	54	5901
2026-01-13 00:15:49.49	5.81	23.49	-41.7	-45.4	12.4	1.31e-04	0	60	0	137363456	54	5716
2026-01-13 00:15:50.50	5.73	23.64	-41.9	-45.8	12.0	3.29e-04	0	60	0	139460608	54	5959
2026-01-13 00:15:51.51	5.65	23.78	-41.9	-45.8	12.0	3.91e-04	0	60	0	141557760	54	5964
2026-01-13 00:15:52.52	5.57	23.93	-42.0	-46.0	11.7	3.84e-04	0	60	0	143654912	54	6103
2026-01-13 00:15:53.53	5.48	24.08	-42.1	-46.3	11.5	7.32e-04	0	60	0	145752064	54	6316
2026-01-13 00:15:54.54	5.40	24.22	-42.0	-45.9	11.9	9.44e-04	0	60	0	146800640	54	6057
2026-01-13 00:15:55.55	5.31	24.37	-42.2	-46.4	11.4	1.13e-03	0	60	0	148897792	55	5995
2026-01-13 00:15:56.56	5.23	24.52	-42.3	-46.6	11.1	1.34e-03	0	60	0	150994944	55	6196
2026-01-13 00:15:57.57	5.14	24.67	-42.4	-46.9	10.9	1.18e-03	0	60	0	153092096	55	6354
2026-01-13 00:15:58.59	5.05	24.83	-42.4	-46.9	10.9	2.29e-03	0	60	0	155189248	55	6385
2026-01-13 00:15:59.60	4.96	24.98	-42.4	-46.8	11.0	2.19e-03	0	60	0	156237824	55	6329
2026-01-13 00:16:00.60	4.88	25.13	-42.5	-47.0	10.8	2.08e-03	0	60	0	158334976	55	6468
2026-01-13 00:16:01.61	4.79	25.29	-42.4	-46.9	10.9	2.69e-03	0	60	0	160432128	55	6404
2026-01-13 00:16:02.62	4.69	25.44	-42.2	-46.3	11.5	1.75e-03	0	60	0	162529280	55	5985
2026-01-13 00:16:03.63	4.60	25.60	-42.4	-46.9	10.9	2.10e-03	0	60	0	164626432	55	6370
2026-01-13 00:16:04.64	4.51	25.75	-42.4	-46.8	11.0	2.09e-03	0	60	0	165675008	55	6333
2026-01-13 00:16:05.65	4.42	25.91	-42.4	-46.8	11.0	1.12e-03	0	60	0	167772160	55	6325
2026-01-13 00:16:06.66	4.32	26.07	-42.4	-46.9	10.9	1.57e-03	0	60	0	169869312	55	6370
2026-01-13 00:16:07.67	4.22	26.23	-42.3	-46.7	11.1	2.33e-03	0	60	0	171966464	55	6207
2026-01-13 00:16:08.68	4.13	26.39	-42.4	-46.8	11.1	1.98e-03	0	60	0	174063616	55	6278
2026-01-13 00:16:09.69	4.03	26.55	-42.4	-46.9	10.9	2.40e-03	0	60	0	175112192	55	6363
2026-01-13 00:16:10.70	3.93	26.71	-42.4	-46.8	11.1	2.78e-03	0	60	0	177209344	55	6277
2026-01-13 00:16:11.71	3.83	26.87	-42.6	-47.2	10.6	2.72e-03	0	60	0	179306496	55	6575
2026-01-13 00:16:12.72	3.73	27.03	-42.5	-47.1	10.7	3.03e-03	0	60	0	181403648	55	6527
2026-01-13 00:16:13.73	3.63	27.20	-42.6	-47.2	10.6	2.36e-03	0	60	0	183500800	55	6626
2026-01-13 00:16:14.74	3.52	27.36	-42.6	-47.2	10.7	3.08e-03	0	60	0	184549376	55	6590
2026-01-13 00:16:15.75	3.42	27.53	-42.5	-47.0	10.9	3.07e-03	0	60	0	186646528	55	6425
2026-01-13 00:16:16.76	3.31	27.70	-42.5	-47.1	10.8	2.38e-03	0	60	0	188743680	55	6504
2026-01-13 00:16:17.77	3.21	27.86	-42.6	-47.1	10.7	2.22e-03	0	60	0	190840832	55	6564
2026-01-13 00:16:18.78	3.10	28.03	-42.4	-46.8	11.1	1.96e-03	0	60	0	192937984	55	6278
2026-01-13 00:16:19.79	2.99	28.20	-42.3	-46.5	11.4	1.16e-03	0	60	0	193986560	55	6064
2026-01-13 00:16:20.80	2.88	28.37	-42.2	-46.3	11.7	8.17e-04	0	60	0	196083712	55	5978
2026-01-13 00:16:21.81	2.77	28.54	-42.2	-46.2	11.6	7.03e-04	0	60	0	198180864	55	5922
2026-01-13 00:16:22.82	2.65	28.72	-42.2	-46.1	11.8	6.73e-04	0	60	0	200278016	55	5844
2026-01-13 00:16:23.83	2.54	28.89	-42.1	-46.1	11.8	6.35e-04	0	60	0	202375168	55	5825
2026-01-13 00:16:24.84	2.42	29.06	-42.3	-46.5	11.4	8.47e-04	0	60	0	204472320	55	6111
2026-01-13 00:16:25.84	2.31	29.24	-42.4	-46.6	11.2	1.07e-03	0	60	0	205520896	55	6180
2026-01-13 00:16:26.85	2.19	29.41	-42.5	-46.8	11.1	1.51e-03	0	60	0	207618048	55	6339
2026-01-13 00:16:27.86	2.07	29.59	-42.6	-47.2	10.7	2.68e-03	0	60	0	209715200	55	6587
2026-01-13 00:16:28.87	1.95	29.77	-43.0	-47.9	10.2	4.69e-03	0	60	0	211812352	56	6730
2026-01-13 00:16:29.88	1.83	29.95	-43.0	-47.9	10.2	4.98e-03	0	60	0	213909504	56	6737
2026-01-13 00:16:30.89	1.71	30.13	-43.1	-48.2	9.8	8.99e-03	0	60	0	214958080	56	7014
2026-01-13 00:16:31.90	1.58	30.31	-43.2	-48.4	9.6	1.84e-02	0	60	0	217055232	57	6793
2026-01-13 00:16:32.91	1.45	30.49	-43.2	-48.5	9.5	1.84e-02	0	60	0	219152384	57	6840
2026-01-13 00:16:33.92	1.33	30.67	-43.3	-48.9	9.2	1.72e-02	0	60	0	221249536	57	7139
2026-01-13 00:16:34.93	1.20	30.86	-43.4	-49.2	8.9	2.38e-02	0	60	0	222298112	57	7379
2026-01-13 00:16:35.94	1.07	31.04	-43.4	-49.0	9.0	2.37e-02	0	60	0	224395264	57	7282
2026-01-13 00:16:36.95	0.93	31.23	-43.5	-49.5	8.5	2.52e-02	0	60	0	226492416	57	7641
2026-01-13 00:16:37.96	0.80	31.42	-43.5	-49.2	8.8	3.13e-02	0	60	0	228589568	57	7384
2026-01-13 00:16:38.97	0.66	31.60	-43.6	-49.6	8.4	3.56e-02	0	60	0	230686720	57	7793
2026-01-13 00:16:39.97	0.53	31.79	-43.7	-49.8	8.3	5.28e-02	0	60	0	232783872	57	7921
2026-01-13 00:16:40.98	0.39	31.98	-43.6	-49.7	8.4	5.70e-02	0	60	0	233832448	57	7846
2026-01-13 00:16:41.99	0.25	32.17	-43.7	-50.0	8.0	5.22e-02	0	60	0	235929600	58	7716
2026-01-13 00:16:43.00	0.11	32.37	-43.7	-49.7	8.4	5.00e-02	0	60	0	238026752	58	7400
2026-01-13 00:16:44.01	359.96	32.56	-43.6	-49.4	8.6	4.02e-02	0	60	0	240123904	58	7181
2026-01-13 00:16:45.02	359.82	32.75	-43.6	-49.3	8.7	3.44e-02	0	60	0	242221056	58	7103
2026-01-13 00:16:46.03	359.67	32.95	-43.6	-49.5	8.6	3.35e-02	0	60	0	243269632	58	7222
2026-01-13 00:16:47.04	359.52	33.14	-43.6	-49.5	8.6	4.02e-02	0	60	0	245366784	58	7280
2026-01-13 00:16:48.05	359.37	33.34	-43.6	-49.3	8.8	2.76e-02	0	60	0	247463936	58	7115
2026-01-13 00:16:49.06	359.22	33.54	-43.7	-49.9	8.2	4.04e-02	0	60	0	249561088	58	7566
2026-01-13 00:16:50.07	359.06	33.74	-43.8	-50.0	7.9	5.91e-02	0	60	0	251658240	58	7674
2026-01-13 00:16:51.08	358.90	33.94	-43.9	-50.5	7.6	8.11e-02	0	60	0	252706816	58	8134
2026-01-13 00:16:52.09	358.75	34.14	-44.0	-50.8	7.4	1.09e-01	0	60	0	254803968	58	8379
2026-01-13 00:16:53.10	358.58	34.34	-43.9	-50.3	7.7	1.34e-01	0	60	0	256901120	58	7952
2026-01-13 00:16:54.11	358.42	34.55	-44.0	-50.8	7.3	1.29e-01	0	60	0	258998272	58	8392
2026-01-13 00:16:55.12	358.26	34.75	-44.1	-51.1	7.0	1.34e-01	0	60	0	261095424	58	8693
2026-01-13 00:16:56.13	358.09	34.96	-44.0	-50.9	7.2	1.12e-01	0	60	0	262144000	58	8491
2026-01-13 00:16:57.14	357.92	35.17	-44.1	-51.2	7.1	1.48e-01	0	60	0	264241152	58	8783
2026-01-13 00:16:58.15	357.75	35.37	-44.1	-51.2	7.0	1.85e-01	0	60	0	266338304	58	8805
2026-01-13 00:16:59.16	357.57	35.58	-44.2	-51.8	6.5	1.50e-01	0	60	0	268435456	59	8946
2026-01-13 00:17:00.17	357.40	35.79	-44.3	-52.1	6.2	2.75e-01	0	60	0	270532608	59	9278
2026-01-13 00:17:01.18	357.22	36.01	-44.1	-51.1	7.0	2.32e-01	0	60	0	272629760	59	8199
2026-01-13 00:17:02.19	357.04	36.22	-44.1	-51.4	6.7	2.16e-01	0	60	0	273678336	59	8523
2026-01-13 00:17:03.20	356.85	36.43	-43.9	-50.3	7.8	1.66e-01	0	60	0	275775488	59	7512
2026-01-13 00:17:04.21	356.67	36.65	-43.7	-49.7	8.4	4.10e-02	0	60	0	277872640	59	7001
2026-01-13 00:17:05.22	356.48	36.86	-43.6	-49.3	8.9	4.43e-02	0	60	0	279969792	59	6647
2026-01-13 00:17:06.23	356.29	37.08	-43.5	-48.9	9.1	2.63e-02	0	60	0	281018368	58	6761
2026-01-13 00:17:07.24	356.10	37.30	-43.4	-48.9	9.3	1.57e-02	0	60	0	283115520	58	6728
2026-01-13 00:17:08.25	355.90	37.51	-43.4	-48.8	9.4	1.74e-02	0	60	0	285212672	58	6661
2026-01-13 00:17:09.25	355.70	37.73	-43.3	-48.5	9.7	1.79e-02	0	60	0	287309824	58	6460
2026-01-13 00:17:10.26	355.50	37.95	-43.5	-49.0	9.2	2.19e-02	0	60	0	289406976	58	6824
2026-01-13 00:17:11.28	355.29	38.18	-43.5	-48.9	9.3	2.30e-02	0	60	0	290455552	58	6775
2026-01-13 00:17:12.29	355.09	38.40	-43.6	-49.2	9.0	2.14e-02	0	60	0	292552704	58	7002
2026-01-13 00:17:13.29	354.88	38.62	-43.4	-48.7	9.4	1.67e-02	0	60	0	294649856	58	6628
2026-01-13 00:17:14.31	354.66	38.85	-43.3	-48.3	9.8	1.24e-02	0	60	0	296747008	58	6347
2026-01-13 00:17:15.32	354.45	39.08	-43.3	-48.4	9.9	8.17e-03	0	60	0	298844160	58	6361
2026-01-13 00:17:16.33	354.23	39.30	-43.3	-48.4	9.7	7.33e-03	0	60	0	300941312	58	6419
2026-01-13 00:17:17.34	354.01	39.53	-43.0	-47.7	10.6	4.91e-03	0	60	0	301989888	58	5865
2026-01-13 00:17:18.35	353.78	39.76	-43.2	-48.0	10.3	5.11e-03	0	60	0	304087040	58	6074
2026-01-13 00:17:19.36	353.55	39.99	-43.2	-48.2	10.0	5.93e-03	0	60	0	306184192	58	6203
2026-01-13 00:17:20.37	353.32	40.22	-43.3	-48.5	9.7	7.88e-03	0	60	0	308281344	58	6435
2026-01-13 00:17:21.38	353.08	40.45	-43.5	-48.9	9.3	1.39e-02	0	60	0	310378496	58	6795
2026-01-13 00:17:22.38	352.85	40.68	-43.5	-48.9	9.3	1.80e-02	0	60	0	311427072	58	6768
2026-01-13 00:17:23.40	352.60	40.92	-43.5	-49.0	9.2	2.07e-02	0	60	0	313524224	58	6825
2026-01-13 00:17:24.41	352.36	41.15	-43.4	-48.7	9.4	1.74e-02	0	60	0	315621376	58	6644
2026-01-13 00:17:25.41	352.11	41.39	-43.4	-48.6	9.6	1.22e-02	0	60	0	317718528	58	6536
2026-01-13 00:17:26.42	351.85	41.62	-43.3	-48.3	9.9	8.88e-03	0	60	0	319815680	58	6301
2026-01-13 00:17:27.43	351.60	41.86	-43.3	-48.3	10.0	5.78e-03	0	60	0	320864256	58	6306
2026-01-13 00:17:28.44	351.34	42.10	-43.1	-47.8	10.4	1.18e-02	0	60	0	322961408	58	5953
2026-01-13 00:17:29.45	351.07	42.34	-43.1	-47.8	10.4	5.53e-03	0	60	0	325058560	58	5988
2026-01-13 00:17:30.46	350.80	42.58	-43.5	-49.0	9.3	9.13e-03	0	60	0	327155712	58	6824
2026-01-13 00:17:31.47	350.53	42.82	-43.5	-48.8	9.4	1.17e-02	0	60	0	329252864	58	6688
2026-01-13 00:17:32.48	350.25	43.06	-43.7	-49.5	8.7	2.68e-02	0	60	0	330301440	58	7249
2026-01-13 00:17:33.49	349.97	43.31	-43.8	-49.8	8.5	5.38e-02	0	60	0	332398592	58	7476
2026-01-13 00:17:34.50	349.68	43.55	-43.7	-49.4	8.8	3.34e-02	0	60	0	334495744	58	7164
2026-01-13 00:17:35.51	349.39	43.79	-43.5	-48.8	9.5	2.90e-02	0	60	0	336592896	58	6673
2026-01-13 00:17:36.52	349.10	44.04	-43.4	-48.6	9.6	1.70e-02	0	60	0	338690048	58	6570
2026-01-13 00:17:37.53	348.80	44.28	-43.5	-49.0	9.3	1.40e-02	0	60	0	340787200	58	6804
2026-01-13 00:17:38.54	348.49	44.53	-43.3	-48.3	10.0	1.59e-02	0	60	0	341835776	58	6346
2026-01-13 00:17:39.55	348.18	44.78	-43.4	-48.6	9.6	1.25e-02	0	60	0	343932928	58	6549
2026-01-13 00:17:40.56	347.87	45.02	-43.5	-48.9	9.5	1.42e-02	0	60	0	346030080	58	6725
2026-01-13 00:17:41.57	347.55	45.27	-43.4	-48.5	9.8	1.11e-02	0	60	0	348127232	58	6474
2026-01-13 00:17:42.58	347.23	45.52	-43.1	-47.8	10.5	8.26e-03	0	60	0	350224384	58	5965
2026-01-13 00:17:43.59	346.90	45.77	-43.4	-48.4	9.8	7.82e-03	0	60	0	351272960	58	6416
2026-01-13 00:17:44.60	346.56	46.02	-43.4	-48.6	9.5	1.11e-02	0	60	0	353370112	58	6533
2026-01-13 00:17:45.61	346.22	46.27	-43.4	-48.7	9.5	1.35e-02	0	60	0	355467264	58	6590
2026-01-13 00:17:46.62	345.88	46.52	-43.4	-48.6	9.6	1.57e-02	0	60	0	357564416	58	6515
2026-01-13 00:17:47.63	345.52	46.77	-43.2	-47.9	10.4	9.76e-03	0	60	0	358612992	58	6050
2026-01-13 00:17:48.64	345.17	47.02	-43.1	-47.7	10.6	3.57e-03	0	60	0	360710144	58	5891
2026-01-13 00:17:49.65	344.80	47.27	-43.0	-47.4	10.9	3.54e-03	0	60	0	362807296	57	6056
2026-01-13 00:17:50.66	344.44	47.52	-42.9	-47.4	11.0	2.24e-03	0	60	0	364904448	57	5994
2026-01-13 00:17:51.66	344.06	47.77	-43.1	-47.7	10.6	2.10e-03	0	60	0	367001600	57	6225
2026-01-13 00:17:52.67	343.68	48.02	-43.0	-47.6	10.7	2.83e-03	0	60	0	369098752	57	6173
2026-01-13 00:17:53.68	343.30	48.28	-42.8	-47.1	11.3	1.77e-03	0	60	0	370147328	57	5849
2026-01-13 00:17:54.69	342.90	48.53	-42.7	-46.8	11.6	1.19e-03	0	60	0	372244480	57	5610
2026-01-13 00:17:55.70	342.50	48.78	-42.6	-46.6	11.8	8.60e-04	0	60	0	374341632	57	5483
2026-01-13 00:17:56.71	342.10	49.03	-42.9	-47.3	11.0	1.15e-03	0	60	0	376438784	57	5972
2026-01-13 00:17:57.72	341.68	49.28	-43.1	-47.8	10.4	3.88e-03	0	60	0	378535936	57	6336
2026-01-13 00:17:58.73	341.26	49.53	-43.4	-48.5	9.7	8.11e-03	0	60	0	379584512	57	6828
2026-01-13 00:17:59.74	340.83	49.78	-43.4	-48.6	9.6	1.20e-02	0	60	0	381681664	57	6920
2026-01-13 00:18:00.75	340.40	50.03	-43.3	-48.2	10.1	1.01e-02	0	60	0	383778816	57	6576
2026-01-13 00:18:01.76	339.96	50.28	-43.2	-48.0	10.3	5.16e-03	0	60	0	385875968	57	6474
2026-01-13 00:18:02.77	339.51	50.53	-43.1	-47.7	10.6	4.58e-03	0	60	0	387973120	57	6264
2026-01-13 00:18:03.78	339.05	50.78	-42.9	-47.3	11.0	1.99e-03	0	60	0	389021696	57	5935
2026-01-13 00:18:04.79	338.59	51.03	-42.7	-46.7	11.6	1.32e-03	0	60	0	391118848	57	5569
2026-01-13 00:18:05.80	338.11	51.28	-42.6	-46.6	11.8	5.83e-04	0	60	0	393216000	57	5484
2026-01-13 00:18:06.81	337.63	51.53	-42.2	-45.9	12.4	2.05e-04	0	61	0	395313152	56	5373
2026-01-13 00:18:07.81	337.15	51.77	-41.7	-45.0	13.3	7.78e-05	0	60	0	397410304	55	5135
2026-01-13 00:18:08.82	336.65	52.02	-41.3	-44.2	13.9	3.00e-06	0	60	0	398458880	54	4972
2026-01-13 00:18:09.83	336.15	52.26	-41.4	-44.4	13.8	3.00e-06	0	60	0	400556032	54	5093
2026-01-13 00:18:10.84	335.64	52.50	-41.8	-45.1	13.1	3.00e-06	0	60	0	402653184	54	5522
2026-01-13 00:18:11.85	335.11	52.74	-42.1	-45.8	12.4	9.76e-05	0	60	0	404750336	54	5991
2026-01-13 00:18:12.86	334.58	52.99	-42.4	-46.3	12.0	3.05e-04	0	60	0	406847488	55	5958
2026-01-13 00:18:13.87	334.04	53.22	-42.4	-46.3	11.9	5.01e-04	0	60	0	407896064	55	5992
2026-01-13 00:18:14.88	333.49	53.46	-42.6	-46.9	11.3	6.70e-04	0	60	0	409993216	55	6404
2026-01-13 00:18:15.89	332.94	53.70	-43.2	-48.1	10.1	2.54e-03	0	60	0	412090368	57	6536
2026-01-13 00:18:16.90	332.37	53.93	-43.4	-48.8	9.5	7.81e-03	0	60	0	414187520	57	7067
2026-01-13 00:18:17.91	331.79	54.16	-43.4	-48.6	9.7	1.30e-02	0	60	0	416284672	57	6934
2026-01-13 00:18:18.92	331.21	54.40	-43.0	-47.7	10.6	5.45e-03	0	60	0	417333248	57	6255
2026-01-13 00:18:19.93	330.61	54.62	-42.5	-46.6	11.7	1.70e-03	0	60	0	419430400	57	5484
2026-01-13 00:18:20.94	330.01	54.85	-42.0	-45.5	12.8	2.30e-04	0	60	0	421527552	56	5155
2026-01-13 00:18:21.95	329.40	55.07	-41.9	-45.4	12.9	5.11e-05	0	60	0	423624704	55	5353
2026-01-13 00:18:22.96	328.77	55.30	-42.2	-46.1	12.1	1.23e-04	0	60	0	425721856	55	5792
2026-01-13 00:18:23.97	328.14	55.51	-42.9	-47.2	11.1	4.03e-04	0	61	0	426770432	56	6263
2026-01-13 00:18:24.98	327.49	55.73	-43.0	-47.4	10.9	2.59e-03	0	60	0	428867584	56	6406
2026-01-13 00:18:25.99	326.84	55.95	-42.8	-47.2	11.1	2.17e-03	0	60	0	430964736	56	6228
2026-01-13 00:18:27.00	326.18	56.16	-42.6	-46.7	11.5	1.08e-03	0	60	0	433061888	56	5912
2026-01-13 00:18:28.01	325.50	56.36	-42.6	-46.5	11.8	5.29e-04	0	60	0	435159040	56	5776
2026-01-13 00:18:29.02	324.82	56.57	-42.5	-46.4	11.9	4.62e-04	0	60	0	437256192	56	5704
2026-01-13 00:18:30.03	324.12	56.77	-42.6	-46.7	11.6	5.74e-04	0	60	0	438304768	56	5886
2026-01-13 00:18:31.04	323.42	56.97	-42.6	-46.7	11.7	5.28e-04	0	60	0	440401920	56	5885
2026-01-13 00:18:32.05	322.70	57.16	-42.8	-47.1	11.3	6.35e-04	0	60	0	442499072	56	6144
2026-01-13 00:18:33.06	321.98	57.35	-42.8	-47.1	11.2	1.17e-03	0	60	0	444596224	56	6139
2026-01-13 00:18:34.06	321.25	57.54	-42.7	-46.9	11.4	1.59e-03	0	60	0	446693376	56	6018
2026-01-13 00:18:35.08	320.50	57.72	-42.6	-46.6	11.7	7.15e-04	0	60	0	447741952	56	5840
2026-01-13 00:18:36.08	319.75	57.90	-42.5	-46.4	11.9	4.49e-04	0	60	0	449839104	56	5687
2026-01-13 00:18:37.09	318.98	58.08	-42.4	-46.3	12.0	4.29e-04	0	60	0	451936256	56	5612
2026-01-13 00:18:38.10	318.21	58.25	-42.3	-46.1	12.2	1.88e-04	0	60	0	454033408	56	5509
2026-01-13 00:18:39.11	317.42	58.41	-42.2	-45.9	12.4	1.04e-04	0	60	0	456130560	56	5382
2026-01-13 00:18:40.12	316.63	58.57	-42.6	-46.7	11.6	4.04e-04	0	60	0	457179136	56	5902
2026-01-13 00:18:41.13	315.82	58.73	-42.8	-47.2	11.1	1.42e-03	0	60	0	459276288	56	6227
2026-01-13 00:18:42.14	315.01	58.88	-42.8	-47.3	11.1	1.90e-03	0	60	0	461373440	56	6291
2026-01-13 00:18:43.15	314.19	59.03	-42.7	-46.8	11.4	1.47e-03	0	60	0	463470592	56	5961
2026-01-13 00:18:44.16	313.35	59.17	-42.8	-47.1	11.3	1.12e-03	0	60	0	465567744	56	6135
2026-01-13 00:18:45.17	312.51	59.31	-42.9	-47.4	10.9	1.84e-03	0	60	0	466616320	56	6392
2026-01-13 00:18:46.18	311.66	59.44	-42.7	-47.0	11.2	2.07e-03	0	60	0	468713472	56	6091
2026-01-13 00:18:47.19	310.80	59.56	-42.4	-46.2	12.1	5.07e-04	0	60	0	470810624	56	5560
2026-01-13 00:18:48.20	309.93	59.68	-42.5	-46.3	12.0	2.64e-04	0	60	0	472907776	56	5643
2026-01-13 00:18:49.21	309.06	59.79	-42.6	-46.6	11.6	4.46e-04	0	60	0	475004928	56	5835
2026-01-13 00:18:50.22	308.18	59.90	-43.2	-48.1	9.9	2.12e-03	0	60	0	476053504	57	6504
2026-01-13 00:18:51.22	307.30	60.00	-43.0	-47.6	10.6	5.98e-03	0	60	0	478150656	57	6132
2026-01-13 00:18:52.23	306.40	60.10	-42.8	-47.0	11.2	2.21e-03	0	60	0	480247808	57	5766
2026-01-13 00:18:53.24	305.50	60.19	-42.9	-47.2	11.0	1.01e-03	0	60	0	482344960	57	5913
2026-01-13 00:18:54.25	304.59	60.27	-43.4	-48.7	9.5	8.13e-03	0	60	0	484442112	57	7011
2026-01-13 00:18:55.26	303.67	60.35	-43.4	-48.9	9.3	1.99e-02	0	60	0	485490688	57	7132
2026-01-13 00:18:56.27	302.75	60.42	-43.4	-48.5	9.6	1.52e-02	0	60	0	487587840	57	6869
2026-01-13 00:18:57.28	301.83	60.48	-43.1	-47.7	10.5	4.27e-03	0	60	0	489684992	57	6237
2026-01-13 00:18:58.29	300.90	60.54	-43.1	-47.9	10.3	3.77e-03	0	60	0	491782144	57	6378
2026-01-13 00:18:59.30	299.97	60.59	-43.2	-48.1	10.1	5.29e-03	0	60	0	493879296	57	6553
2026-01-13 00:19:00.31	299.03	60.63	-43.2	-48.2	10.0	8.42e-03	0	60	0	494927872	57	6571
2026-01-13 00:19:01.32	298.09	60.67	-42.7	-47.0	11.2	1.92e-03	0	60	0	497025024	57	5746
2026-01-13 00:19:02.33	297.15	60.70	-42.2	-46.0	12.3	2.91e-04	0	60	0	499122176	56	5404
2026-01-13 00:19:03.34	296.20	60.72	-42.2	-46.0	12.3	1.48e-04	0	60	0	501219328	56	5437
2026-01-13 00:19:04.34	295.27	60.74	-41.7	-45.1	13.0	1.72e-04	0	60	0	503316480	55	5206
2026-01-13 00:19:05.35	294.32	60.75	-41.1	-44.1	14.1	9.90e-06	0	60	0	504365056	54	4898
2026-01-13 00:19:06.36	293.37	60.75	-40.9	-43.7	14.4	7.00e-07	0	60	0	506462208	53	4934
2026-01-13 00:19:07.37	292.42	60.74	-40.7	-43.3	14.8	0.00e+00	0	60	0	508559360	53	4759
2026-01-13 00:19:08.38	291.48	60.73	-40.6	-43.2	14.9	0.00e+00	0	60	0	510656512	53	4691
2026-01-13 00:19:09.39	290.53	60.71	-40.8	-43.6	14.6	0.00e+00	0	60	0	512753664	53	4874
2026-01-13 00:19:10.40	289.59	60.69	-41.4	-44.5	13.6	3.00e-06	0	60	0	514850816	53	5428
2026-01-13 00:19:11.41	288.65	60.66	-41.3	-44.5	13.6	1.29e-05	0	60	0	515899392	53	5403
2026-01-13 00:19:12.42	287.71	60.62	-41.4	-44.6	13.5	3.00e-06	0	60	0	517996544	53	5484
2026-01-13 00:19:13.43	286.77	60.57	-41.1	-44.1	14.0	1.06e-05	0	60	0	520093696	53	5185
2026-01-13 00:19:14.44	285.84	60.52	-40.9	-43.8	14.3	7.00e-07	0	60	0	522190848	53	4986
2026-01-13 00:19:15.45	284.91	60.46	-40.8	-43.7	14.4	0.00e+00	0	60	0	524288000	53	4927
2026-01-13 00:19:16.46	283.99	60.39	-41.5	-44.8	13.3	1.50e-06	0	60	0	525336576	53	5649
2026-01-13 00:19:17.47	283.07	60.32	-41.8	-45.3	12.7	1.03e-04	0	60	0	527433728	54	5616
2026-01-13 00:19:18.47	282.16	60.24	-42.0	-45.8	12.2	1.04e-04	0	60	0	529530880	54	5950
2026-01-13 00:19:19.48	281.26	60.16	-42.2	-46.2	12.0	2.94e-04	0	60	0	531628032	55	5899
2026-01-13 00:19:20.49	280.35	60.07	-41.4	-44.5	13.5	4.50e-05	0	60	0	533725184	54	5141
2026-01-13 00:19:21.50	279.46	59.97	-41.0	-43.8	14.2	1.50e-06	0	60	0	534773760	53	5041
2026-01-13 00:19:22.51	278.57	59.86	-41.3	-44.4	13.7	7.00e-07	0	60	0	536870912	53	5391
2026-01-13 00:19:23.52	277.69	59.75	-41.9	-45.4	12.6	4.80e-05	0	60	0	538968064	54	5721
2026-01-13 00:19:24.53	276.82	59.64	-42.5	-46.7	11.4	4.74e-04	0	60	0	541065216	55	6215
2026-01-13 00:19:25.54	275.95	59.52	-42.7	-47.3	10.8	8.82e-04	0	60	0	543162368	55	6657
2026-01-13 00:19:26.55	275.10	59.39	-42.8	-47.2	11.0	2.41e-03	0	60	0	544210944	56	6226
2026-01-13 00:19:27.56	274.25	59.26	-42.6	-46.8	11.4	8.21e-04	0	60	0	546308096	56	5958
2026-01-13 00:19:28.57	273.41	59.12	-42.6	-46.8	11.3	7.28e-04	0	60	0	548405248	56	5985
2026-01-13 00:19:29.58	272.58	58.98	-43.2	-48.1	9.9	2.46e-03	0	60	0	550502400	56	6939
2026-01-13 00:19:30.59	271.76	58.83	-43.2	-48.2	10.0	1.28e-02	0	60	0	552599552	57	6580
2026-01-13 00:19:31.60	270.94	58.67	-42.7	-46.9	11.2	3.41e-03	0	60	0	553648128	57	5718
2026-01-13 00:19:32.61	270.14	58.52	-42.5	-46.6	11.6	6.98e-04	0	60	0	555745280	56	5815
2026-01-13 00:19:33.62	269.35	58.35	-42.4	-46.3	11.9	7.99e-04	0	60	0	557842432	56	5625
2026-01-13 00:19:34.63	268.57	58.18	-42.3	-46.1	12.3	2.50e-04	0	60	0	559939584	56	5466
2026-01-13 00:19:35.64	267.79	58.01	-42.4	-46.4	11.7	2.87e-04	0	60	0	562036736	56	5686
2026-01-13 00:19:36.64	267.04	57.84	-42.2	-45.9	12.2	2.10e-04	0	60	0	563085312	56	5385
2026-01-13 00:19:37.65	266.28	57.66	-41.5	-44.7	13.3	3.20e-05	0	60	0	565182464	55	4965
2026-01-13 00:19:38.66	265.54	57.47	-41.9	-45.5	12.6	1.75e-05	0	60	0	567279616	55	5421
2026-01-13 00:19:39.67	264.81	57.28	-42.0	-45.6	12.4	1.55e-04	0	60	0	569376768	55	5490
2026-01-13 00:19:40.68	264.09	57.09	-41.7	-45.1	13.0	7.17e-05	0	60	0	571473920	55	5183
2026-01-13 00:19:41.69	263.37	56.89	-41.7	-45.1	12.9	5.26e-05	0	60	0	572522496	55	5168
2026-01-13 00:19:42.70	262.67	56.69	-41.5	-44.7	13.3	3.58e-05	0	60	0	574619648	55	4973
2026-01-13 00:19:43.71	261.98	56.49	-41.1	-44.0	14.0	4.50e-06	0	60	0	576716800	53	5156
2026-01-13 00:19:44.72	261.30	56.29	-41.1	-44.1	14.0	2.20e-06	0	60	0	578813952	53	5173
2026-01-13 00:19:45.73	260.63	56.08	-41.4	-44.6	13.4	1.67e-05	0	60	0	580911104	53	5507
2026-01-13 00:19:46.74	259.97	55.86	-41.4	-44.5	13.5	1.14e-05	0	60	0	583008256	53	5431
2026-01-13 00:19:47.75	259.31	55.65	-41.7	-45.1	13.0	9.90e-06	0	60	0	584056832	54	5520
2026-01-13 00:19:48.76	258.67	55.43	-41.9	-45.4	12.6	8.85e-05	0	61	0	586153984	54	5700
2026-01-13 00:19:49.77	258.04	55.21	-41.9	-45.4	12.6	8.08e-05	0	60	0	588251136	54	5701
2026-01-13 00:19:50.78	257.42	54.99	-42.2	-45.9	12.1	1.54e-04	0	60	0	590348288	54	6057
2026-01-13 00:19:51.79	256.81	54.76	-42.3	-46.3	11.6	5.06e-04	0	60	0	592445440	55	5986
2026-01-13 00:19:52.80	256.20	54.53	-42.4	-46.4	11.6	5.71e-04	0	60	0	593494016	55	6024
2026-01-13 00:19:53.81	255.61	54.30	-42.5	-46.7	11.3	7.51e-04	0	61	0	595591168	55	6228
2026-01-13 00:19:54.82	255.03	54.07	-42.3	-46.3	11.7	1.23e-03	0	60	0	597688320	55	5958
2026-01-13 00:19:55.83	254.46	53.84	-42.3	-46.2	11.8	3.51e-04	0	60	0	599785472	55	5861
2026-01-13 00:19:56.84	253.89	53.60	-43.0	-47.6	10.7	6.87e-04	0	60	0	601882624	56	6563
2026-01-13 00:19:57.85	253.34	53.37	-43.1	-47.8	10.3	4.83e-03	0	60	0	602931200	56	6698
2026-01-13 00:19:58.86	252.79	53.13	-42.9	-47.4	10.7	4.60e-03	0	60	0	605028352	56	6420
2026-01-13 00:19:59.87	252.25	52.89	-42.8	-47.2	10.9	3.40e-03	0	60	0	607125504	56	6221
2026-01-13 00:20:00.87	251.73	52.65	-42.9	-47.4	10.7	6.07e-03	0	61	0	609222656	56	6415
2026-01-13 00:20:01.89	251.20	52.40	-42.7	-46.9	11.2	2.18e-03	0	60	0	611319808	56	6027
2026-01-13 00:20:02.89	250.70	52.16	-42.3	-46.1	12.1	1.16e-03	0	60	0	612368384	56	5505
2026-01-13 00:20:03.90	250.19	51.91	-42.2	-45.8	12.4	1.62e-04	0	60	0	614465536	56	5291
2026-01-13 00:20:04.91	249.70	51.67	-42.5	-46.6	11.8	1.75e-04	0	60	0	616562688	56	5802
2026-01-13 00:20:05.92	249.21	51.42	-42.8	-47.1	11.0	9.45e-04	0	60	0	618659840	56	6191
2026-01-13 00:20:06.93	248.73	51.17	-42.9	-47.5	10.6	4.54e-03	0	61	0	620756992	56	6482
2026-01-13 00:20:07.94	248.26	50.92	-42.2	-45.9	12.2	1.04e-03	0	60	0	621805568	56	5389
2026-01-13 00:20:08.95	247.80	50.67	-41.6	-44.9	13.1	4.73e-05	0	60	0	623902720	55	5085
2026-01-13 00:20:09.96	247.35	50.42	-42.1	-45.7	12.3	7.09e-05	0	60	0	625999872	55	5581
2026-01-13 00:20:10.97	246.90	50.17	-42.5	-46.7	11.3	7.32e-04	0	60	0	628097024	55	6220
2026-01-13 00:20:11.98	246.46	49.92	-43.3	-48.4	9.8	2.22e-03	0	60	0	630194176	57	6736
2026-01-13 00:20:12.99	246.02	49.67	-43.4	-48.7	9.3	2.33e-02	0	60	0	631242752	57	6997
2026-01-13 00:20:14.00	245.60	49.42	-43.7	-49.6	8.4	2.21e-02	0	60	0	633339904	57	7742
2026-01-13 00:20:15.01	245.18	49.17	-43.5	-49.0	9.0	3.16e-02	0	60	0	635437056	57	7217
2026-01-13 00:20:16.02	244.77	48.91	-43.4	-48.7	9.4	1.55e-02	0	60	0	637534208	57	7004
2026-01-13 00:20:17.03	244.36	48.66	-43.3	-48.4	9.6	1.64e-02	0	60	0	639631360	57	6800
2026-01-13 00:20:18.04	243.96	48.41	-43.5	-48.8	9.1	1.97e-02	0	60	0	640679936	57	7103
2026-01-13 00:20:19.04	243.57	48.16	-43.7	-49.6	8.5	2.67e-02	0	60	0	642777088	57	7776
2026-01-13 00:20:20.05	243.19	47.91	-44.3	-52.1	6.1	1.21e-01	0	60	0	644874240	59	9251
2026-01-13 00:20:21.06	242.81	47.65	-44.3	-52.2	6.0	3.26e-01	0	60	0	646971392	59	9281
2026-01-13 00:20:22.07	242.44	47.40	-44.2	-51.5	6.6	3.08e-01	0	60	0	649068544	59	8583
2026-01-13 00:20:23.08	242.07	47.15	-43.7	-49.5	8.4	8.77e-02	0	61	0	651165696	59	6876
2026-01-13 00:20:24.09	241.71	46.90	-43.6	-49.3	8.7	4.23e-02	0	61	0	652214272	59	6697
2026-01-13 00:20:25.10	241.35	46.65	-43.3	-48.4	9.6	1.63e-02	0	60	0	654311424	58	6365
2026-01-13 00:20:26.11	241.00	46.40	-43.2	-48.0	10.0	8.91e-03	0	60	0	656408576	58	6107
2026-01-13 00:20:27.12	240.66	46.14	-43.4	-48.7	9.4	1.22e-02	0	60	0	658505728	58	6596
2026-01-13 00:20:28.13	240.32	45.89	-43.3	-48.5	9.4	1.81e-02	0	60	0	660602880	58	6470
2026-01-13 00:20:29.14	239.98	45.64	-43.3	-48.3	9.7	1.22e-02	0	60	0	661651456	58	6315
2026-01-13 00:20:30.15	239.66	45.39	-43.0	-47.6	10.4	9.08e-03	0	60	0	663748608	58	5836
2026-01-13 00:20:31.16	239.33	45.14	-42.7	-47.0	11.1	2.60e-03	0	60	0	665845760	57	5753
2026-01-13 00:20:32.17	239.01	44.90	-42.9	-47.4	10.6	2.00e-03	0	60	0	667942912	57	6055
2026-01-13 00:20:33.18	238.70	44.65	-43.0	-47.7	10.4	2.44e-03	0	61	0	668991488	57	6238
2026-01-13 00:20:34.19	238.39	44.40	-43.3	-48.3	9.7	8.15e-03	0	60	0	671088640	57	6715
2026-01-13 00:20:35.20	238.09	44.15	-43.4	-48.8	9.2	2.18e-02	0	60	0	673185792	57	7056
2026-01-13 00:20:36.21	237.79	43.91	-43.4	-48.8	9.2	2.32e-02	0	60	0	675282944	57	7053
2026-01-13 00:20:37.21	237.50	43.66	-43.5	-48.9	9.0	1.91e-02	0	60	0	677380096	57	7196
2026-01-13 00:20:38.22	237.21	43.42	-43.2	-48.1	9.9	1.28e-02	0	60	0	679477248	57	6563
2026-01-13 00:20:39.23	236.92	43.18	-43.3	-48.3	9.7	1.19e-02	0	60	0	680525824	57	6657
2026-01-13 00:20:40.24	236.64	42.93	-43.2	-48.2	9.8	1.07e-02	0	60	0	682622976	57	6622
2026-01-13 00:20:41.25	236.37	42.69	-43.2	-48.0	10.0	7.28e-03	0	61	0	684720128	57	6469
2026-01-13 00:20:42.26	236.09	42.45	-43.4	-48.7	9.3	1.40e-02	0	60	0	686817280	57	7000
2026-01-13 00:20:43.27	235.83	42.21	-43.6	-49.2	8.7	2.65e-02	0	60	0	688914432	57	7446
2026-01-13 00:20:44.27	235.56	41.97	-43.4	-48.7	9.2	2.35e-02	0	60	0	689963008	57	7032
2026-01-13 00:20:45.29	235.30	41.73	-43.2	-48.3	9.7	1.63e-02	0	60	0	692060160	57	6648
2026-01-13 00:20:46.29	235.05	41.49	-43.1	-48.0	9.9	6.75e-03	0	60	0	694157312	57	6482
2026-01-13 00:20:47.30	234.79	41.26	-43.2	-48.2	9.7	8.61e-03	0	61	0	696254464	57	6582
2026-01-13 00:20:48.31	234.54	41.02	-43.3	-48.4	9.6	1.04e-02	0	60	0	698351616	57	6780
2026-01-13 00:20:49.33	234.30	40.78	-43.5	-49.0	9.0	2.15e-02	0	60	0	699400192	57	7241
2026-01-13 00:20:50.34	234.05	40.55	-43.5	-49.1	8.9	2.33e-02	0	60	0	701497344	57	7322
2026-01-13 00:20:51.35	233.82	40.31	-43.5	-48.9	9.0	3.98e-02	0	60	0	703594496	57	7164
2026-01-13 00:20:52.36	233.58	40.08	-43.6	-49.4	8.5	3.17e-02	0	60	0	705691648	57	7630
2026-01-13 00:20:53.37	233.35	39.85	-43.8	-49.8	8.2	4.66e-02	0	60	0	707788800	58	7499
2026-01-13 00:20:54.38	233.12	39.62	-43.6	-49.3	8.6	5.67e-02	0	60	0	708837376	58	7072
2026-01-13 00:20:55.39	232.89	39.39	-43.7	-49.6	8.4	5.84e-02	0	61	0	710934528	58	7364
2026-01-13 00:20:56.40	232.67	39.16	-43.6	-49.2	8.8	3.83e-02	0	60	0	713031680	58	7002
2026-01-13 00:20:57.41	232.45	38.93	-43.5	-49.0	8.9	3.25e-02	0	60	0	715128832	58	6856
2026-01-13 00:20:58.42	232.24	38.71	-43.4	-48.7	9.2	3.26e-02	0	60	0	717225984	58	6646
2026-01-13 00:20:59.43	232.03	38.48	-43.5	-49.1	8.8	3.00e-02	0	60	0	718274560	58	6932
2026-01-13 00:21:00.44	231.82	38.26	-43.6	-49.4	8.7	3.24e-02	0	60	0	720371712	58	7157
2026-01-13 00:21:01.44	231.61	38.04	-43.8	-49.8	8.1	6.23e-02	0	60	0	722468864	58	7526
2026-01-13 00:21:02.45	231.41	37.81	-43.6	-49.2	8.8	4.14e-02	0	61	0	724566016	58	6992
2026-01-13 00:21:03.46	231.21	37.59	-43.7	-49.5	8.4	3.78e-02	0	60	0	726663168	58	7265
2026-01-13 00:21:04.48	231.00	37.37	-43.8	-49.8	8.1	6.23e-02	0	60	0	727711744	58	7510
2026-01-13 00:21:05.49	230.81	37.15	-43.8	-49.9	8.1	6.69e-02	0	60	0	729808896	58	7562
2026-01-13 00:21:06.50	230.62	36.93	-43.4	-48.8	9.1	4.75e-02	0	60	0	731906048	58	6678
2026-01-13 00:21:07.50	230.43	36.72	-43.1	-48.0	10.0	1.41e-02	0	60	0	734003200	58	6088
2026-01-13 00:21:08.51	230.24	36.50	-43.0	-47.7	10.3	7.44e-03	0	60	0	736100352	58	5871
2026-01-13 00:21:09.52	230.05	36.29	-43.2	-48.1	9.9	6.30e-03	0	61	0	737148928	58	6198
2026-01-13 00:21:10.53	229.87	36.07	-43.5	-49.0	9.0	1.87e-02	0	60	0	739246080	58	6845
2026-01-13 00:21:11.54	229.69	35.86	-43.8	-50.1	7.8	4.46e-02	0	60	0	741343232	58	7793
2026-01-13 00:21:12.56	229.51	35.65	-43.6	-49.4	8.5	7.12e-02	0	60	0	743440384	58	7164
2026-01-13 00:21:13.57	229.33	35.44	-43.5	-49.0	8.9	3.51e-02	0	60	0	745537536	58	6817
2026-01-13 00:21:14.58	229.16	35.23	-43.5	-49.0	8.9	2.42e-02	0	60	0	747634688	58	6866
2026-01-13 00:21:15.59	228.99	35.02	-43.5	-49.0	8.8	2.10e-02	0	60	0	748683264	58	6867
2026-01-13 00:21:16.60	228.82	34.81	-43.6	-49.3	8.6	3.26e-02	0	60	0	750780416	58	7118
2026-01-13 00:21:17.61	228.65	34.60	-43.4	-48.9	9.0	2.92e-02	0	60	0	752877568	58	6738
2026-01-13 00:21:18.62	228.49	34.40	-43.4	-48.8	9.1	2.87e-02	0	60	0	754974720	58	6669
2026-01-13 00:21:19.63	228.32	34.19	-43.0	-47.7	10.3	1.51e-02	0	60	0	757071872	58	5909
2026-01-13 00:21:20.64	228.16	33.99	-42.9	-47.5	10.5	5.56e-03	0	61	0	758120448	57	6084
2026-01-13 00:21:21.65	228.00	33.79	-42.9	-47.6	10.4	3.67e-03	0	60	0	760217600	57	6145
2026-01-13 00:21:22.66	227.85	33.59	-43.3	-48.5	9.5	8.08e-03	0	60	0	762314752	57	6875
2026-01-13 00:21:23.67	227.69	33.39	-43.4	-48.8	9.1	2.05e-02	0	60	0	764411904	57	7116
2026-01-13 00:21:24.68	227.54	33.19	-43.5	-49.1	8.7	2.93e-02	0	60	0	766509056	57	7371
2026-01-13 00:21:25.69	227.39	32.99	-43.2	-48.3	9.6	3.43e-02	0	60	0	767557632	57	6676
2026-01-13 00:21:26.69	227.24	32.80	-43.0	-47.7	10.2	7.93e-03	0	60	0	769654784	57	6261
2026-01-13 00:21:27.70	227.09	32.60	-42.9	-47.5	10.5	5.16e-03	0	60	0	771751936	57	6088
2026-01-13 00:21:28.71	226.95	32.41	-43.2	-48.2	9.8	4.38e-03	0	60	0	773849088	57	6591
2026-01-13 00:21:29.72	226.80	32.21	-43.5	-49.1	8.7	1.74e-02	0	60	0	775946240	57	7355
2026-01-13 00:21:30.73	226.66	32.02	-43.6	-49.6	8.2	4.50e-02	0	60	0	776994816	57	7796
2026-01-13 00:21:31.74	226.52	31.83	-43.8	-50.1	7.8	9.73e-02	0	60	0	779091968	58	7760
2026-01-13 00:21:32.75	226.38	31.64	-43.6	-49.4	8.5	6.53e-02	0	60	0	781189120	58	7132
2026-01-13 00:21:33.76	226.24	31.45	-43.3	-48.5	9.4	2.49e-02	0	61	0	783286272	58	6459
2026-01-13 00:21:34.77	226.11	31.26	-43.0	-47.8	10.1	1.04e-02	0	60	0	785383424	58	5966
2026-01-13 00:21:35.78	225.97	31.07	-43.0	-47.8	10.2	5.45e-03	0	60	0	787480576	57	6301
2026-01-13 00:21:36.79	225.84	30.89	-43.0	-47.8	10.1	6.33e-03	0	61	0	788529152	57	6318
2026-01-13 00:21:37.80	225.71	30.70	-43.2	-48.3	9.7	1.03e-02	0	60	0	790626304	57	6649
2026-01-13 00:21:38.81	225.58	30.52	-43.3	-48.6	9.3	1.43e-02	0	60	0	792723456	57	6929
2026-01-13 00:21:39.82	225.45	30.33	-43.1	-48.2	9.7	1.22e-02	0	60	0	794820608	57	6571
2026-01-13 00:21:40.83	225.33	30.15	-43.0	-47.8	10.1	9.19e-03	0	60	0	795869184	57	6331
2026-01-13 00:21:41.84	225.20	29.97	-42.8	-47.2	10.8	3.37e-03	0	60	0	797966336	57	5886
2026-01-13 00:21:42.84	225.08	29.79	-42.6	-46.8	11.2	1.90e-03	0	60	0	800063488	57	5608
2026-01-13 00:21:43.85	224.96	29.61	-42.7	-47.1	10.8	1.79e-03	0	60	0	802160640	57	5830
2026-01-13 00:21:44.86	224.84	29.43	-43.0	-47.9	10.0	4.70e-03	0	60	0	804257792	57	6388
2026-01-13 00:21:45.87	224.72	29.26	-43.3	-48.6	9.3	1.21e-02	0	60	0	805306368	57	6895
2026-01-13 00:21:46.88	224.60	29.08	-43.6	-49.5	8.4	2.80e-02	0	60	0	807403520	57	7665
2026-01-13 00:21:47.89	224.48	28.91	-43.5	-49.4	8.5	3.57e-02	0	60	0	809500672	57	7551
2026-01-13 00:21:48.90	224.37	28.73	-43.5	-49.4	8.5	3.51e-02	0	60	0	811597824	57	7613
2026-01-13 00:21:49.91	224.25	28.56	-43.3	-48.7	9.2	3.30e-02	0	60	0	813694976	57	7001
2026-01-13 00:21:50.92	224.14	28.38	-43.2	-48.4	9.5	1.77e-02	0	60	0	815792128	57	6786
2026-01-13 00:21:51.93	224.03	28.21	-43.1	-48.1	9.7	1.28e-02	0	61	0	816840704	57	6560
2026-01-13 00:21:52.94	223.92	28.04	-43.2	-48.4	9.5	1.30e-02	0	60	0	818937856	57	6740
2026-01-13 00:21:53.95	223.81	27.87	-43.2	-48.5	9.4	1.48e-02	0	60	0	821035008	57	6816
2026-01-13 00:21:54.96	223.70	27.70	-43.1	-48.2	9.7	1.60e-02	0	60	0	823132160	57	6594
2026-01-13 00:21:55.97	223.59	27.54	-43.1	-48.2	9.6	1.26e-02	0	60	0	825229312	57	6628
2026-01-13 00:21:56.98	223.49	27.37	-43.0	-47.8	10.1	9.06e-03	0	61	0	826277888	57	6320
2026-01-13 00:21:57.99	223.38	27.20	-42.8	-47.3	10.5	4.76e-03	0	60	0	828375040	57	5966
2026-01-13 00:21:59.00	223.28	27.04	-42.7	-47.1	10.8	2.53e-03	0	61	0	830472192	57	5817
2026-01-13 00:22:00.01	223.18	26.87	-42.4	-46.5	11.3	1.77e-03	0	60	0	832569344	56	5785
2026-01-13 00:22:01.01	223.08	26.71	-42.6	-46.9	11.1	1.70e-03	0	60	0	834666496	56	6004
2026-01-13 00:22:02.02	222.97	26.55	-42.6	-46.9	11.0	1.97e-03	0	60	0	835715072	56	6061
2026-01-13 00:22:03.03	222.88	26.39	-42.8	-47.5	10.4	3.72e-03	0	60	0	837812224	56	6459
2026-01-13 00:22:04.04	222.78	26.23	-43.0	-48.0	10.0	6.45e-03	0	60	0	839909376	56	6804
2026-01-13 00:22:05.05	222.68	26.07	-43.2	-48.6	9.2	1.23e-02	0	60	0	842006528	57	6907
2026-01-13 00:22:06.07	222.58	25.90	-43.3	-48.8	9.1	2.03e-02	0	60	0	844103680	57	7044
2026-01-13 00:22:07.08	222.49	25.75	-43.4	-49.0	8.9	2.54e-02	0	60	0	845152256	57	7213
2026-01-13 00:22:08.08	222.39	25.59	-43.5	-49.2	8.6	3.03e-02	0	61	0	847249408	57	7417
2026-01-13 00:22:09.09	222.30	25.43	-43.3	-48.9	8.9	2.96e-02	0	61	0	849346560	57	7153
2026-01-13 00:22:10.10	222.21	25.28	-43.3	-48.7	9.1	2.19e-02	0	60	0	851443712	57	6983
2026-01-13 00:22:11.11	222.12	25.12	-43.3	-48.8	9.1	2.14e-02	0	60	0	853540864	57	7051
2026-01-13 00:22:12.12	222.03	24.97	-43.3	-48.8	9.0	2.60e-02	0	61	0	854589440	57	7079
2026-01-13 00:22:13.13	221.94	24.82	-43.3	-48.7	9.1	1.89e-02	0	60	0	856686592	57	7018
2026-01-13 00:22:14.14	221.85	24.66	-43.2	-48.6	9.1	2.11e-02	0	60	0	858783744	57	6928
2026-01-13 00:22:15.15	221.76	24.51	-43.3	-48.8	9.0	2.17e-02	0	61	0	860880896	57	7107
2026-01-13 00:22:16.16	221.67	24.36	-43.2	-48.6	9.2	2.20e-02	0	61	0	862978048	57	6913
2026-01-13 00:22:17.17	221.59	24.21	-43.2	-48.5	9.3	1.91e-02	0	60	0	864026624	57	6879
2026-01-13 00:22:18.18	221.50	24.06	-42.9	-47.8	9.9	1.40e-02	0	60	0	866123776	57	6330
2026-01-13 00:22:19.19	221.42	23.91	-42.9	-47.7	10.1	8.49e-03	0	61	0	868220928	57	6272
2026-01-13 00:22:20.20	221.33	23.76	-42.9	-47.6	10.2	7.63e-03	0	60	0	870318080	57	6182
2026-01-13 00:22:21.21	221.25	23.62	-42.8	-47.4	10.4	5.97e-03	0	61	0	872415232	57	6033
2026-01-13 00:22:22.22	221.17	23.47	-42.8	-47.4	10.4	4.69e-03	0	60	0	873463808	57	6056
2026-01-13 00:22:23.23	221.09	23.33	-42.9	-47.6	10.2	5.71e-03	0	60	0	875560960	57	6167
2026-01-13 00:22:24.24	221.00	23.18	-42.8	-47.4	10.4	5.54e-03	0	60	0	877658112	57	6023
2026-01-13 00:22:25.25	220.92	23.04	-42.8	-47.4	10.3	4.70e-03	0	60	0	879755264	57	6045
2026-01-13 00:22:26.25	220.85	22.90	-42.8	-47.4	10.5	5.01e-03	0	60	0	881852416	57	6015
2026-01-13 00:22:27.26	220.77	22.75	-42.7	-47.3	10.5	4.39e-03	0	61	0	883949568	57	5970
2026-01-13 00:22:28.27	220.69	22.61	-42.6	-47.1	10.7	3.74e-03	0	61	0	884998144	57	5801
2026-01-13 00:22:29.29	220.61	22.47	-42.7	-47.2	10.6	3.16e-03	0	60	0	887095296	57	5917
2026-01-13 00:22:30.29	220.54	22.33	-42.6	-46.9	10.9	2.79e-03	0	60	0	889192448	57	5685
2026-01-13 00:22:31.30	220.46	22.19	-42.4	-46.7	11.2	1.61e-03	0	60	0	891289600	56	5873
2026-01-13 00:22:32.31	220.39	22.05	-42.5	-46.7	11.1	1.48e-03	0	60	0	893386752	56	5908
2026-01-13 00:22:33.32	220.31	21.91	-42.4	-46.6	11.2	1.13e-03	0	60	0	894435328	56	5801
2026-01-13 00:22:34.33	220.24	21.78	-42.3	-46.5	11.4	1.06e-03	0	60	0	896532480	56	5745
2026-01-13 00:22:35.34	220.17	21.64	-42.3	-46.5	11.3	1.16e-03	0	60	0	898629632	56	5736
2026-01-13 00:22:36.35	220.09	21.50	-42.4	-46.7	11.1	1.24e-03	0	60	0	900726784	56	5869
2026-01-13 00:22:37.36	220.02	21.37	-42.5	-46.8	11.0	1.62e-03	0	60	0	902823936	56	5969
2026-01-13 00:22:38.37	219.95	21.23	-42.6	-47.1	10.6	3.32e-03	0	60	0	903872512	56	6186
2026-01-13 00:22:39.38	219.88	21.10	-42.8	-47.6	10.2	5.00e-03	0	60	0	905969664	56	6531
2026-01-13 00:22:40.39	219.81	20.96	-42.9	-47.8	9.9	6.69e-03	0	60	0	908066816	56	6698
2026-01-13 00:22:41.40	219.74	20.83	-43.1	-48.3	9.4	1.44e-02	0	61	0	910163968	56	7093
2026-01-13 00:22:42.41	219.68	20.70	-43.1	-48.4	9.3	1.83e-02	0	61	0	912261120	56	7160
2026-01-13 00:22:43.42	219.61	20.57	-43.2	-48.8	9.0	2.01e-02	0	61	0	913309696	56	7469
2026-01-13 00:22:44.42	219.54	20.44	-43.4	-49.3	8.4	3.47e-02	0	60	0	915406848	57	7520
2026-01-13 00:22:45.43	219.48	20.31	-43.3	-49.2	8.5	3.92e-02	0	60	0	917504000	57	7386
2026-01-13 00:22:46.44	219.41	20.18	-43.4	-49.5	8.2	4.45e-02	0	61	0	919601152	57	7691
2026-01-13 00:22:47.45	219.34	20.05	-43.4	-49.4	8.3	5.08e-02	0	61	0	921698304	57	7580
2026-01-13 00:22:48.46	219.28	19.92	-43.3	-49.2	8.5	5.01e-02	0	61	0	922746880	57	7411
2026-01-13 00:22:49.47	219.21	19.79	-43.3	-49.0	8.7	3.59e-02	0	60	0	924844032	57	7257
2026-01-13 00:22:50.48	219.15	19.67	-43.3	-49.0	8.6	3.06e-02	0	60	0	926941184	57	7238
2026-01-13 00:22:51.49	219.09	19.54	-43.1	-48.6	9.1	3.16e-02	0	61	0	929038336	57	6894
2026-01-13 00:22:52.50	219.03	19.41	-43.0	-48.3	9.4	2.02e-02	0	61	0	931135488	57	6666
2026-01-13 00:22:53.51	218.96	19.29	-43.0	-48.2	9.4	2.05e-02	0	61	0	932184064	57	6635
2026-01-13 00:22:54.52	218.90	19.16	-42.9	-47.9	9.7	1.10e-02	0	61	0	934281216	57	6410
2026-01-13 00:22:55.53	218.84	19.04	-42.8	-47.7	10.0	8.07e-03	0	61	0	936378368	57	6229
2026-01-13 00:22:56.54	218.78	18.92	-42.7	-47.5	10.2	7.90e-03	0	60	0	938475520	57	6117
2026-01-13 00:22:57.55	218.72	18.79	-42.6	-47.3	10.4	4.57e-03	0	60	0	940572672	57	5964
2026-01-13 00:22:58.55	218.66	18.67	-42.6	-47.2	10.5	3.18e-03	0	60	0	941621248	57	5875
2026-01-13 00:22:59.56	218.60	18.55	-42.5	-46.9	10.8	2.31e-03	0	60	0	943718400	56	6020
2026-01-13 00:23:00.57	218.54	18.43	-42.4	-46.6	11.1	1.58e-03	0	60	0	945815552	56	5849
2026-01-13 00:23:01.58	218.49	18.31	-42.2	-46.3	11.3	1.19e-03	0	60	0	947912704	56	5641
2026-01-13 00:23:02.59	218.43	18.19	-42.2	-46.4	11.3	1.17e-03	0	61	0	950009856	56	5684
2026-01-13 00:23:03.60	218.37	18.07	-42.1	-46.1	11.7	1.11e-03	0	61	0	952107008	56	5492
2026-01-13 00:23:04.61	218.31	17.95	-42.1	-46.2	11.6	6.58e-04	0	60	0	953155584	56	5548
2026-01-13 00:23:05.62	218.26	17.83	-42.2	-46.3	11.4	9.98e-04	0	61	0	955252736	56	5614
2026-01-13 00:23:06.63	218.20	17.71	-42.2	-46.2	11.5	1.13e-03	0	61	0	957349888	56	5583
2026-01-13 00:23:07.64	218.15	17.60	-42.3	-46.5	11.3	1.06e-03	0	60	0	959447040	56	5725
2026-01-13 00:23:08.65	218.09	17.48	-42.3	-46.6	11.0	1.47e-03	0	60	0	961544192	56	5852
2026-01-13 00:23:09.66	218.04	17.36	-42.3	-46.6	11.1	1.57e-03	0	60	0	962592768	56	5813
2026-01-13 00:23:10.67	217.98	17.25	-42.4	-46.9	10.8	2.37e-03	0	60	0	964689920	56	6005
2026-01-13 00:23:11.68	217.93	17.13	-42.4	-46.9	10.8	2.98e-03	0	60	0	966787072	56	6003
2026-01-13 00:23:12.69	217.88	17.02	-42.6	-47.3	10.3	3.57e-03	0	60	0	968884224	56	6313
2026-01-13 00:23:13.70	217.83	16.90	-42.6	-47.4	10.3	5.60e-03	0	60	0	970981376	56	6386
2026-01-13 00:23:14.71	217.77	16.79	-42.7	-47.6	10.1	4.90e-03	0	60	0	972029952	56	6517
2026-01-13 00:23:15.71	217.72	16.68	-42.8	-47.8	9.8	8.35e-03	0	60	0	974127104	56	6684
2026-01-13 00:23:16.72	217.67	16.56	-42.8	-47.7	9.9	1.03e-02	0	60	0	976224256	56	6645
2026-01-13 00:23:17.73	217.62	16.45	-42.8	-47.7	9.9	8.60e-03	0	60	0	978321408	56	6620
2026-01-13 00:23:18.74	217.57	16.34	-42.8	-47.7	9.9	8.62e-03	0	60	0	980418560	56	6626
2026-01-13 00:23:19.75	217.52	16.23	-42.8	-47.9	9.7	9.42e-03	0	60	0	981467136	56	6725
2026-01-13 00:23:20.76	217.47	16.12	-42.7	-47.6	10.0	9.23e-03	0	60	0	983564288	56	6495
2026-01-13 00:23:21.77	217.42	16.01	-42.7	-47.6	10.0	7.82e-03	0	60	0	985661440	56	6502
2026-01-13 00:23:22.78	217.37	15.90	-42.8	-47.8	9.8	1.03e-02	0	60	0	987758592	56	6682
2026-01-13 00:23:23.79	217.32	15.79	-42.7	-47.5	10.1	7.68e-03	0	60	0	989855744	56	6467
2026-01-13 00:23:24.80	217.27	15.68	-42.7	-47.6	10.0	7.65e-03	0	60	0	990904320	56	6502
2026-01-13 00:23:25.81	217.23	15.57	-42.7	-47.6	9.9	1.06e-02	0	60	0	993001472	56	6555
2026-01-13 00:23:26.82	217.18	15.46	-42.7	-47.6	10.0	8.71e-03	0	60	0	995098624	56	6518
2026-01-13 00:23:27.83	217.13	15.35	-42.8	-47.8	9.7	9.75e-03	0	60	0	997195776	56	6680
2026-01-13 00:23:28.84	217.08	15.25	-42.7	-47.7	9.8	1.05e-02	0	60	0	999292928	56	6646
2026-01-13 00:23:29.85	217.04	15.14	-42.7	-47.7	9.8	9.80e-03	0	61	0	1000341504	56	6636
2026-01-13 00:23:30.86	216.99	15.03	-42.8	-48.0	9.5	1.34e-02	0	61	0	1002438656	56	6845
2026-01-13 00:23:31.87	216.95	14.93	-42.8	-48.1	9.4	1.32e-02	0	60	0	1004535808	56	6886
2026-01-13 00:23:32.88	216.90	14.82	-42.8	-48.1	9.2	1.55e-02	0	61	0	1006632960	56	6911
2026-01-13 00:23:33.89	216.85	14.72	-42.9	-48.4	9.1	1.93e-02	0	60	0	1008730112	56	7132
2026-01-13 00:23:34.90	216.81	14.61	-43.0	-48.5	9.0	2.38e-02	0	60	0	1009778688	56	7246
2026-01-13 00:23:35.91	216.77	14.51	-43.0	-48.5	8.9	2.63e-02	0	60	0	1011875840	56	7258
2026-01-13 00:23:36.92	216.72	14.41	-43.1	-48.9	8.6	3.45e-02	0	60	0	1013972992	56	7545
2026-01-13 00:23:37.93	216.68	14.30	-43.1	-49.0	8.4	4.48e-02	0	60	0	1016070144	56	7695
2026-01-13 00:23:38.94	216.63	14.20	-43.1	-48.9	8.6	4.27e-02	0	60	0	1018167296	56	7557
2026-01-13 00:23:39.95	216.59	14.10	-43.2	-49.2	8.3	5.56e-02	0	60	0	1020264448	56	7833
2026-01-13 00:23:40.95	216.55	14.00	-43.1	-49.1	8.4	6.54e-02	0	60	0	1021313024	57	7317
2026-01-13 00:23:41.97	216.51	13.89	-43.2	-49.1	8.2	4.84e-02	0	60	0	1023410176	57	7365
2026-01-13 00:23:42.97	216.46	13.79	-43.1	-48.9	8.5	5.17e-02	0	60	0	1025507328	57	7176
2026-01-13 00:23:43.99	216.42	13.69	-43.1	-49.0	8.4	3.92e-02	0	61	0	1027604480	57	7246
2026-01-13 00:23:44.99	216.38	13.59	-43.0	-48.8	8.6	4.13e-02	0	60	0	1029701632	57	7062
2026-01-13 00:23:46.00	216.34	13.49	-43.0	-48.6	8.8	3.49e-02	0	60	0	1030750208	57	6922
2026-01-13 00:23:47.01	216.30	13.39	-42.9	-48.3	9.1	2.97e-02	0	60	0	1032847360	57	6700
2026-01-13 00:23:48.02	216.26	13.29	-42.9	-48.5	8.9	2.62e-02	0	60	0	1034944512	57	6805
2026-01-13 00:23:49.03	216.22	13.20	-42.8	-48.1	9.3	1.91e-02	0	60	0	1037041664	57	6547
2026-01-13 00:23:50.04	216.18	13.10	-42.8	-48.0	9.3	1.81e-02	0	60	0	1039138816	57	6475
2026-01-13 00:23:51.05	216.14	13.00	-42.7	-47.9	9.5	1.51e-02	0	60	0	1040187392	57	6402
2026-01-13 00:23:52.06	216.10	12.90	-42.6	-47.5	9.8	1.15e-02	0	60	0	1042284544	57	6128
2026-01-13 00:23:53.07	216.06	12.80	-42.5	-47.4	10.0	8.16e-03	0	61	0	1044381696	57	6056
2026-01-13 00:23:54.08	216.02	12.71	-42.5	-47.4	10.0	7.68e-03	0	61	0	1046478848	56	6366
2026-01-13 00:23:55.09	215.98	12.61	-42.4	-47.2	10.1	8.07e-03	0	60	0	1048576000	56	6265
2026-01-13 00:23:56.10	215.94	12.52	-42.4	-47.1	10.3	5.30e-03	0	60	0	1049624576	56	6194
2026-01-13 00:23:57.11	215.90	12.42	-42.5	-47.3	10.1	5.52e-03	0	60	0	1051721728	56	6297
2026-01-13 00:23:58.12	215.86	12.32	-42.4	-47.0	10.3	5.51e-03	0	60	0	1053818880	56	6128
2026-01-13 00:23:59.13	215.83	12.23	-42.3	-46.9	10.4	4.32e-03	0	61	0	1055916032	56	6021
2026-01-13 00:24:00.14	215.79	12.13	-42.4	-47.1	10.2	5.92e-03	0	60	0	1058013184	56	6166
2026-01-13 00:24:01.15	215.75	12.04	-42.3	-47.0	10.4	4.97e-03	0	60	0	1059061760	56	6069
2026-01-13 00:24:02.16	215.71	11.95	-42.3	-47.0	10.4	4.32e-03	0	60	0	1061158912	56	6123
2026-01-13 00:24:03.17	215.68	11.85	-42.4	-47.1	10.2	6.51e-03	0	60	0	1063256064	56	6173
2026-01-13 00:24:04.18	215.64	11.76	-42.4	-47.1	10.2	5.47e-03	0	60	0	1065353216	56	6198
2026-01-13 00:24:05.19	215.61	11.67	-42.4	-47.2	10.1	6.04e-03	0	60	0	1067450368	56	6246
2026-01-13 00:24:06.20	215.57	11.57	-42.4	-47.2	10.2	5.72e-03	0	60	0	1068498944	56	6209
2026-01-13 00:24:07.21	215.53	11.48	-42.4	-47.2	10.1	6.46e-03	0	60	0	1070596096	56	6274
2026-01-13 00:24:08.22	215.50	11.39	-42.5	-47.5	9.8	7.85e-03	0	60	0	1072693248	56	6454
2026-01-13 00:24:09.22	215.46	11.30	-42.4	-47.4	9.9	8.67e-03	0	60	0	1074790400	56	6396
2026-01-13 00:24:10.24	215.43	11.21	-42.5	-47.5	9.7	9.51e-03	0	60	0	1076887552	56	6453
2026-01-13 00:24:11.24	215.39	11.12	-42.5	-47.6	9.6	1.23e-02	0	60	0	1077936128	56	6567
2026-01-13 00:24:12.25	215.36	11.03	-42.5	-47.7	9.5	1.22e-02	0	60	0	1080033280	56	6644
2026-01-13 00:24:13.26	215.32	10.94	-42.6	-47.8	9.4	1.43e-02	0	61	0	1082130432	56	6714
2026-01-13 00:24:14.27	215.29	10.85	-42.6	-47.9	9.4	1.73e-02	0	60	0	1084227584	56	6743
2026-01-13 00:24:15.28	215.26	10.76	-42.6	-48.1	9.2	1.82e-02	0	60	0	1086324736	56	6896
2026-01-13 00:24:16.29	215.22	10.67	-42.6	-47.8	9.3	1.98e-02	0	60	0	1088421888	56	6717
2026-01-13 00:24:17.30	215.19	10.58	-42.6	-48.2	9.1	2.16e-02	0	60	0	1089470464	56	6960
2026-01-13 00:24:18.31	215.16	10.49	-42.6	-47.9	9.3	2.64e-02	0	60	0	1091567616	56	6796
2026-01-13 00:24:19.32	215.12	10.40	-42.6	-48.1	9.0	2.53e-02	0	60	0	1093664768	56	6948
2026-01-13 00:24:20.33	215.09	10.31	-42.7	-48.3	8.8	2.65e-02	0	60	0	1095761920	56	7094
2026-01-13 00:24:21.34	215.06	10.22	-42.7	-48.4	8.8	3.17e-02	0	60	0	1097859072	56	7145
2026-01-13 00:24:22.35	215.03	10.14	-42.7	-48.4	8.7	3.20e-02	0	60	0	1098907648	56	7194
2026-01-13 00:24:23.36	214.99	10.05	-42.7	-48.4	8.7	3.27e-02	0	61	0	1101004800	56	7194
2026-01-13 00:24:24.37	214.96	9.96	-42.7	-48.4	8.7	3.17e-02	0	60	0	1103101952	56	7127
2026-01-13 00:24:25.38	214.93	9.88	-42.8	-48.7	8.4	4.32e-02	0	61	0	1105199104	56	7413
2026-01-13 00:24:26.39	214.90	9.79	-42.7	-48.4	8.7	4.12e-02	0	60	0	1107296256	56	7178
2026-01-13 00:24:27.40	214.87	9.70	-42.7	-48.4	8.6	3.40e-02	0	61	0	1108344832	56	7194
2026-01-13 00:24:28.41	214.84	9.62	-42.8	-48.7	8.4	4.14e-02	0	61	0	1110441984	56	7419
2026-01-13 00:24:29.42	214.80	9.53	-42.6	-48.4	8.6	4.02e-02	0	61	0	1112539136	56	7182
2026-01-13 00:24:30.43	214.77	9.45	-42.7	-48.6	8.5	4.14e-02	0	61	0	1114636288	56	7302
2026-01-13 00:24:31.44	214.74	9.36	-42.7	-48.6	8.5	4.52e-02	0	60	0	1116733440	56	7320
2026-01-13 00:24:32.45	214.71	9.28	-42.7	-48.6	8.5	4.05e-02	0	61	0	1117782016	56	7294
2026-01-13 00:24:33.46	214.68	9.19	-42.7	-48.6	8.4	4.98e-02	0	61	0	1119879168	56	7356
2026-01-13 00:24:34.47	214.65	9.11	-42.7	-48.8	8.2	5.41e-02	0	60	0	1121976320	56	7460
2026-01-13 00:24:35.48	214.62	9.03	-42.7	-48.8	8.2	5.90e-02	0	61	0	1124073472	56	7535
2026-01-13 00:24:36.49	214.59	8.94	-42.8	-48.9	8.1	5.56e-02	0	61	0	1126170624	56	7566
2026-01-13 00:24:37.50	214.56	8.86	-42.7	-48.8	8.1	6.10e-02	0	61	0	1127219200	56	7525
2026-01-13 00:24:38.51	214.53	8.78	-42.8	-49.1	7.8	6.85e-02	0	60	0	1129316352	56	7786
2026-01-13 00:24:39.51	214.51	8.70	-42.8	-49.0	7.9	7.25e-02	0	61	0	1131413504	56	7696
2026-01-13 00:24:40.52	214.48	8.61	-42.8	-49.1	7.9	6.93e-02	0	60	0	1133510656	56	7777
2026-01-13 00:24:41.53	214.45	8.53	-42.8	-49.2	7.8	8.41e-02	0	60	0	1135607808	56	7837
2026-01-13 00:24:42.54	214.42	8.45	-42.8	-49.2	7.7	9.98e-02	0	60	0	1136656384	56	7843
2026-01-13 00:24:43.55	214.39	8.37	-42.8	-49.2	7.7	8.92e-02	0	61	0	1138753536	56	7847
2026-01-13 00:24:44.56	214.36	8.29	-42.8	-49.3	7.6	9.63e-02	0	60	0	1140850688	56	7925
2026-01-13 00:24:45.57	214.33	8.20	-42.8	-49.5	7.4	1.19e-01	0	61	0	1142947840	56	8100
2026-01-13 00:24:46.58	214.31	8.12	-42.8	-49.3	7.5	1.11e-01	0	60	0	1145044992	56	7953
2026-01-13 00:24:47.59	214.28	8.04	-43.0	-49.9	7.0	1.08e-01	0	61	0	1146093568	56	8552
2026-01-13 00:24:48.60	214.25	7.96	-43.9	-55.4	4.1	2.91e-01	0	60	0	1148190720	58	14274
2026-01-13 00:24:49.61	214.22	7.88	-44.6	-58.7	3.8	1.49e+00	0	60	104	1148190720	59	19767
2026-01-13 00:24:50.62	214.20	7.80	-44.7	-59.1	3.8	1.49e+00	0	60	104	1148190720	60	19572
2026-01-13 00:24:51.63	214.17	7.72	-44.9	-59.3	3.8	1.49e+00	0	61	104	1148190720	60	19989
2026-01-13 00:24:52.64	214.14	7.64	-45.0	-59.4	3.8	1.49e+00	0	60	104	1148190720	60	20227
2026-01-13 00:24:53.65	214.12	7.56	-45.1	-59.5	3.8	1.49e+00	0	60	104	1148190720	60	20440
2026-01-13 00:24:54.66	214.09	7.49	-45.2	-59.6	3.8	1.49e+00	0	61	104	1148190720	60	20645
2026-01-13 00:24:55.67	214.06	7.41	-45.2	-59.6	3.8	1.49e+00	0	60	104	1148190720	60	20679
2026-01-13 00:24:56.68	214.04	7.33	-45.2	-59.6	3.8	1.49e+00	0	61	104	1148190720	61	19579
2026-01-13 00:24:57.69	214.01	7.25	-45.2	-59.6	3.8	1.49e+00	0	61	104	1148190720	61	19480
2026-01-13 00:24:58.70	213.98	7.17	-45.2	-59.6	3.8	1.49e+00	0	61	104	1148190720	61	19443
2026-01-13 00:24:59.71	213.96	7.09	-45.1	-59.6	3.8	1.49e+00	0	60	104	1148190720	61	19398
2026-01-13 00:25:00.71	213.93	7.02	-45.1	-59.5	3.8	1.49e+00	0	60	104	1148190720	61	19338
2026-01-13 00:25:01.72	213.91	6.94	-45.1	-59.5	3.8	1.49e+00	0	61	104	1148190720	61	19346
2026-01-13 00:25:02.74	213.88	6.86	-45.1	-59.5	3.8	1.49e+00	0	60	104	1148190720	61	19374
2026-01-13 00:25:03.74	213.86	6.79	-45.1	-59.6	3.8	1.49e+00	0	60	104	1148190720	61	19424
2026-01-13 00:25:04.75	213.83	6.71	-45.1	-59.5	3.8	1.49e+00	0	60	104	1148190720	61	19309
2026-01-13 00:25:05.76	213.81	6.63	-45.1	-59.6	3.8	1.49e+00	0	60	104	1148190720	61	19390
2026-01-13 00:25:06.77	213.78	6.56	-45.1	-59.5	3.8	1.49e+00	0	60	104	1148190720	61	19341
2026-01-13 00:25:07.78	213.76	6.48	-45.1	-59.5	3.8	1.49e+00	0	60	104	1148190720	61	19338
2026-01-13 00:25:08.79	213.73	6.41	-45.1	-59.5	3.8	1.49e+00	0	60	104	1148190720	61	19346
2026-01-13 00:25:09.80	213.71	6.33	-45.1	-59.5	3.8	1.49e+00	0	60	104	1148190720	61	19337
2026-01-13 00:25:10.81	213.68	6.26	-45.1	-59.5	3.8	1.49e+00	0	60	104	1148190720	61	19323
2026-01-13 00:25:11.82	213.66	6.18	-45.1	-59.5	3.8	1.49e+00	0	60	104	1148190720	61	19339
2026-01-13 00:25:12.83	213.64	6.11	-45.1	-59.5	3.8	1.49e+00	0	60	104	1148190720	61	19337
2026-01-13 00:25:13.84	213.61	6.03	-45.1	-59.5	3.8	1.49e+00	0	60	104	1148190720	61	19274
2026-01-13 00:25:14.84	213.59	5.96	-45.1	-59.5	3.8	1.49e+00	0	60	104	1148190720	61	19331
2026-01-13 00:25:15.85	213.57	5.88	-45.1	-59.5	3.8	1.49e+00	0	61	104	1148190720	61	19293
2026-01-13 00:25:16.86	213.54	5.81	-45.1	-59.5	3.8	1.49e+00	0	61	104	1148190720	61	19295
2026-01-13 00:25:17.87	213.52	5.73	-45.1	-59.5	3.8	1.49e+00	0	60	104	1148190720	61	19314
2026-01-13 00:25:18.88	213.50	5.66	-45.1	-59.5	3.8	1.49e+00	0	60	104	1148190720	61	19289
2026-01-13 00:25:19.89	213.47	5.59	-45.1	-59.5	3.8	1.49e+00	0	60	104	1148190720	61	19240
2026-01-13 00:25:20.90	213.45	5.51	-45.1	-59.5	3.8	1.49e+00	0	61	104	1148190720	61	19305
2026-01-13 00:25:21.91	213.43	5.44	-45.1	-59.5	3.8	1.49e+00	0	60	104	1148190720	61	19322
2026-01-13 00:25:22.92	213.40	5.37	-45.1	-59.5	3.8	1.49e+00	0	60	104	1148190720	61	19265
2026-01-13 00:25:23.93	213.38	5.30	-45.1	-59.5	3.8	1.49e+00	0	60	104	1148190720	61	19197
2026-01-13 00:25:24.94	213.36	5.22	-45.1	-59.5	3.8	1.49e+00	0	61	104	1148190720	61	19273
2026-01-13 00:25:25.95	213.34	5.15	-45.0	-59.5	3.8	1.49e+00	0	60	104	1148190720	61	19211
2026-01-13 00:25:26.96	213.32	5.08	-45.0	-59.5	3.8	1.49e+00	0	61	104	1148190720	61	19236
2026-01-13 00:25:27.97	213.29	5.01	-45.0	-59.5	3.8	1.49e+00	0	60	104	1148190720	61	19245
2026-01-13 00:25:28.98	213.27	4.94	-45.0	-59.5	3.8	1.49e+00	0	60	104	1148190720	61	19237
2026-01-13 00:25:29.99	213.25	4.86	-45.0	-59.5	3.8	1.49e+00	0	60	104	1148190720	61	19183
2026-01-13 00:25:31.00	213.23	4.79	-45.0	-59.5	3.8	1.49e+00	0	60	104	1148190720	61	19196
2026-01-13 00:25:32.00	213.21	4.72	-45.0	-59.4	3.8	1.49e+00	0	60	104	1148190720	61	19130
2026-01-13 00:25:33.01	213.19	4.65	-45.0	-59.5	3.8	1.49e+00	0	60	104	1148190720	61	19171
2026-01-13 00:25:34.02	213.16	4.58	-45.0	-59.5	3.8	1.49e+00	0	60	104	1148190720	61	19177
2026-01-13 00:25:35.03	213.14	4.51	-45.0	-59.5	3.8	1.49e+00	0	60	104	1148190720	61	19177
2026-01-13 00:25:36.04	213.12	4.44	-45.0	-59.5	3.8	1.49e+00	0	61	104	1148190720	61	19228
2026-01-13 00:25:37.05	213.10	4.37	-45.0	-59.4	3.8	1.49e+00	0	60	104	1148190720	61	19141
2026-01-13 00:25:38.06	213.08	4.30	-45.0	-59.5	3.8	1.49e+00	0	61	104	1148190720	61	19198
