passes_logs/2026/01/13/R2.0S_Moscow/R2.0S_Moscow__20260113_221304_SUOMI_NPP_rec.log

#Pass ID: 20260113_221304_SUOMI NPP
#Satellite: SUOMI NPP
#Configuration: NPP
#almurnet v.1.7.20251203
#Start time: 2026-01-13 22:13:07

#Version: 2.2.20231116
#Station: R2.0S_Moscow
#Location: 37.707566 lon 55.798166 lat
#TLE: 1 37849U 11061A   26013.27136842  .00000065  00000+0  51889-4 0  9990
#TLE: 2 37849  98.7808 315.3349 0002489  66.6776 293.4661 14.19524902736466

#Time	Az	El	Level	Level2	SNR	BER	BlckErr	Temp	State	Recorded	gain1	gain2
2026-01-13 22:13:07.24	25.70	2.13	-42.1	-57.1	3.8	1.49e+00	0	51	0	0	56	19460
2026-01-13 22:13:08.24	25.77	2.18	-41.9	-56.9	3.8	1.49e+00	0	51	104	0	54	21397
2026-01-13 22:13:09.25	25.85	2.24	-41.9	-56.9	3.8	1.49e+00	0	51	104	0	54	21379
2026-01-13 22:13:10.26	25.92	2.29	-41.9	-56.9	3.8	1.49e+00	0	51	104	0	54	21342
2026-01-13 22:13:11.27	26.00	2.35	-41.9	-56.9	3.8	1.49e+00	0	51	104	0	54	21363
2026-01-13 22:13:12.28	26.07	2.40	-41.9	-56.9	3.8	1.49e+00	0	51	104	0	54	21364
2026-01-13 22:13:13.29	26.15	2.46	-41.9	-56.9	3.8	1.49e+00	0	51	104	0	54	21440
2026-01-13 22:13:14.30	26.22	2.51	-41.9	-56.9	3.8	1.49e+00	0	52	104	0	54	21404
2026-01-13 22:13:15.32	26.30	2.57	-41.9	-56.9	3.8	1.49e+00	0	52	104	0	54	21378
2026-01-13 22:13:16.33	26.37	2.62	-41.9	-56.9	3.8	1.49e+00	0	52	104	0	54	21368
2026-01-13 22:13:17.34	26.45	2.68	-41.9	-56.9	3.8	1.49e+00	0	52	104	0	54	21308
2026-01-13 22:13:18.35	26.53	2.73	-41.9	-56.9	3.8	1.49e+00	0	52	104	0	54	21386
2026-01-13 22:13:19.36	26.60	2.79	-41.9	-56.9	3.8	1.49e+00	0	52	104	0	54	21335
2026-01-13 22:13:20.37	26.68	2.84	-41.9	-56.9	3.8	1.49e+00	0	52	104	0	54	21411
2026-01-13 22:13:21.38	26.76	2.90	-41.9	-56.9	3.8	1.49e+00	0	52	104	0	54	21305
2026-01-13 22:13:22.39	26.84	2.96	-41.9	-56.9	3.8	1.49e+00	0	52	104	0	54	21343
2026-01-13 22:13:23.40	26.91	3.01	-41.9	-56.9	3.8	1.49e+00	0	52	104	0	54	21403
2026-01-13 22:13:24.41	26.99	3.07	-41.9	-56.9	3.8	1.49e+00	0	52	104	0	54	21344
2026-01-13 22:13:25.42	27.07	3.12	-41.9	-56.9	3.8	1.49e+00	0	52	104	0	54	21358
2026-01-13 22:13:26.43	27.15	3.18	-41.9	-56.9	3.8	1.49e+00	0	53	104	0	54	21331
2026-01-13 22:13:27.44	27.23	3.24	-41.9	-56.9	3.8	1.49e+00	0	52	104	0	54	21306
2026-01-13 22:13:28.45	27.31	3.29	-41.9	-56.9	3.8	1.49e+00	0	52	104	0	54	21364
2026-01-13 22:13:29.46	27.39	3.35	-41.9	-56.9	3.8	1.49e+00	0	53	104	0	54	21386
2026-01-13 22:13:30.48	27.47	3.41	-41.9	-56.9	3.8	1.49e+00	0	53	104	0	54	21371
2026-01-13 22:13:31.49	27.55	3.46	-41.9	-56.9	3.8	1.49e+00	0	53	104	0	54	21380
2026-01-13 22:13:32.50	27.63	3.52	-41.9	-56.9	3.8	1.49e+00	0	53	104	0	54	21378
2026-01-13 22:13:33.51	27.71	3.58	-41.9	-56.9	3.8	1.49e+00	0	53	104	0	54	21403
2026-01-13 22:13:34.52	27.79	3.63	-41.9	-56.9	3.8	1.49e+00	0	53	104	0	54	21364
2026-01-13 22:13:35.53	27.87	3.69	-41.9	-56.9	3.8	1.49e+00	0	53	104	0	54	21344
2026-01-13 22:13:36.54	27.95	3.75	-41.9	-56.9	3.8	1.49e+00	0	53	104	0	54	21271
2026-01-13 22:13:37.55	28.03	3.80	-41.9	-56.9	3.8	1.49e+00	0	53	104	0	54	21330
2026-01-13 22:13:38.56	28.11	3.86	-41.9	-56.9	3.8	1.49e+00	0	53	104	0	54	21336
2026-01-13 22:13:39.57	28.20	3.92	-41.9	-56.9	3.8	1.49e+00	0	53	104	0	54	21342
2026-01-13 22:13:40.58	28.28	3.97	-41.9	-56.9	3.8	1.49e+00	0	53	104	0	54	21353
2026-01-13 22:13:41.59	28.36	4.03	-41.9	-56.9	3.8	1.49e+00	0	53	104	0	54	21362
2026-01-13 22:13:42.60	28.45	4.09	-41.9	-56.9	3.8	1.49e+00	0	54	104	0	54	21273
2026-01-13 22:13:43.62	28.53	4.15	-41.9	-56.9	3.8	1.49e+00	0	54	104	0	54	21376
2026-01-13 22:13:44.62	28.61	4.20	-41.9	-56.9	3.8	1.49e+00	0	54	104	0	54	21354
2026-01-13 22:13:45.64	28.70	4.26	-41.9	-56.9	3.8	1.49e+00	0	54	104	0	54	21334
2026-01-13 22:13:46.65	28.78	4.32	-41.9	-56.9	3.8	1.49e+00	0	54	104	0	54	21293
2026-01-13 22:13:47.66	28.87	4.38	-41.9	-56.9	3.8	1.49e+00	0	54	104	0	54	21407
2026-01-13 22:13:48.67	28.95	4.43	-41.9	-56.9	3.8	1.49e+00	0	54	104	0	54	21353
2026-01-13 22:13:49.68	29.04	4.49	-41.9	-56.9	3.8	1.49e+00	0	54	104	0	54	21328
2026-01-13 22:13:50.69	29.12	4.55	-41.9	-56.9	3.8	1.49e+00	0	54	104	0	54	21327
2026-01-13 22:13:51.70	29.21	4.61	-41.9	-56.9	3.8	1.49e+00	0	54	104	0	54	21319
2026-01-13 22:13:52.71	29.30	4.66	-41.9	-56.9	3.8	1.49e+00	0	54	104	0	54	21325
2026-01-13 22:13:53.72	29.38	4.72	-41.9	-56.9	3.8	1.49e+00	0	54	104	0	54	21360
2026-01-13 22:13:54.74	29.47	4.78	-41.9	-56.9	3.8	1.49e+00	0	54	104	0	54	21358
2026-01-13 22:13:55.75	29.56	4.84	-41.9	-56.9	3.8	1.49e+00	0	54	104	0	54	21338
2026-01-13 22:13:56.76	29.65	4.90	-41.9	-56.9	3.8	1.49e+00	0	55	104	0	54	21364
2026-01-13 22:13:57.77	29.74	4.96	-41.9	-56.9	3.8	1.49e+00	0	54	104	0	54	21366
2026-01-13 22:13:58.78	29.82	5.01	-41.9	-56.9	3.8	1.49e+00	0	54	104	0	54	21373
2026-01-13 22:13:59.79	29.91	5.07	-41.9	-56.9	3.8	1.49e+00	0	54	104	0	54	21345
2026-01-13 22:14:00.78	30.00	5.13	-41.9	-56.9	3.8	1.49e+00	0	54	104	0	54	21355
2026-01-13 22:14:01.79	30.09	5.19	-41.9	-56.9	3.8	1.49e+00	0	54	104	0	54	21323
2026-01-13 22:14:02.80	30.18	5.25	-41.9	-56.9	3.8	1.49e+00	0	54	104	0	54	21365
2026-01-13 22:14:03.81	30.27	5.31	-41.9	-56.9	3.8	1.49e+00	0	54	104	0	54	21323
2026-01-13 22:14:04.82	30.36	5.37	-41.9	-56.9	3.8	1.49e+00	0	55	104	0	54	21312
2026-01-13 22:14:05.83	30.45	5.42	-41.9	-56.9	3.8	1.49e+00	0	55	104	0	54	21327
2026-01-13 22:14:06.84	30.54	5.48	-41.9	-56.9	3.8	1.49e+00	0	55	104	0	54	21312
2026-01-13 22:14:07.85	30.63	5.54	-41.9	-56.9	3.8	1.49e+00	0	55	104	0	54	21298
2026-01-13 22:14:08.86	30.73	5.60	-41.9	-56.9	3.8	1.49e+00	0	55	104	0	54	21359
2026-01-13 22:14:09.87	30.82	5.66	-41.9	-56.9	3.8	1.49e+00	0	55	104	0	54	21299
2026-01-13 22:14:10.88	30.91	5.72	-41.9	-56.9	3.8	1.49e+00	0	55	104	0	54	21387
2026-01-13 22:14:11.89	31.00	5.78	-41.9	-56.9	3.8	1.49e+00	0	55	104	0	54	21297
2026-01-13 22:14:12.90	31.10	5.84	-41.9	-56.9	3.8	1.49e+00	0	55	104	0	54	21345
2026-01-13 22:14:13.91	31.19	5.90	-41.8	-56.9	3.8	1.49e+00	0	55	104	0	54	21311
2026-01-13 22:14:14.93	31.28	5.96	-41.8	-56.9	3.8	1.49e+00	0	55	104	0	54	21358
2026-01-13 22:14:15.94	31.38	6.02	-41.8	-56.9	3.8	1.49e+00	0	55	104	0	54	21344
2026-01-13 22:14:16.95	31.47	6.08	-41.9	-56.9	3.8	1.49e+00	0	55	104	0	54	21380
2026-01-13 22:14:17.96	31.57	6.14	-41.9	-56.9	3.8	1.49e+00	0	55	104	0	54	21328
2026-01-13 22:14:18.97	31.66	6.20	-41.8	-56.9	3.8	1.49e+00	0	55	104	0	54	21360
2026-01-13 22:14:19.98	31.76	6.26	-41.8	-56.9	3.8	1.49e+00	0	55	104	0	54	21298
2026-01-13 22:14:20.99	31.86	6.32	-41.9	-56.9	3.8	1.49e+00	0	55	104	0	54	21322
2026-01-13 22:14:22.00	31.95	6.38	-41.9	-56.8	3.8	1.49e+00	0	55	104	0	54	21251
2026-01-13 22:14:23.01	32.05	6.44	-41.9	-56.9	3.8	1.49e+00	0	55	104	0	54	21314
2026-01-13 22:14:24.02	32.15	6.50	-41.9	-56.9	3.8	1.49e+00	0	55	104	0	54	21290
2026-01-13 22:14:25.03	32.25	6.56	-41.9	-56.8	3.8	1.49e+00	0	55	104	0	54	21232
2026-01-13 22:14:26.04	32.34	6.62	-41.9	-56.8	3.8	1.49e+00	0	56	104	0	54	21197
2026-01-13 22:14:27.06	32.44	6.68	-41.9	-56.8	3.8	1.49e+00	0	56	104	0	54	21186
2026-01-13 22:14:28.07	32.54	6.74	-41.9	-56.8	3.8	1.49e+00	0	56	104	0	54	21247
2026-01-13 22:14:29.08	32.64	6.80	-41.9	-56.9	3.8	1.49e+00	0	55	104	0	54	21303
2026-01-13 22:14:30.09	32.74	6.86	-41.9	-56.8	3.8	1.49e+00	0	56	104	0	54	21210
2026-01-13 22:14:31.10	32.84	6.92	-41.9	-56.8	3.8	1.49e+00	0	56	104	0	54	21048
2026-01-13 22:14:32.11	32.94	6.99	-41.9	-56.6	3.8	1.49e+00	0	56	104	0	54	20648
2026-01-13 22:14:33.12	33.04	7.05	-41.9	-56.2	3.8	1.49e+00	0	56	104	0	54	19694
2026-01-13 22:14:34.13	33.14	7.11	-41.9	-56.0	3.8	1.49e+00	0	56	104	0	54	19223
2026-01-13 22:14:35.14	33.25	7.17	-41.8	-55.7	3.8	1.49e+00	0	56	104	0	54	18590
2026-01-13 22:14:36.15	33.35	7.23	-41.9	-55.5	3.8	1.49e+00	0	56	104	0	54	18286
2026-01-13 22:14:37.16	33.45	7.29	-41.9	-56.4	3.8	1.49e+00	0	56	104	0	54	20108
2026-01-13 22:14:38.17	33.55	7.35	-41.9	-56.7	3.8	1.49e+00	0	56	104	0	54	20818
2026-01-13 22:14:39.18	33.66	7.41	-41.9	-56.9	3.8	1.49e+00	0	56	104	0	54	21343
2026-01-13 22:14:40.19	33.76	7.48	-41.9	-56.5	3.8	1.49e+00	0	56	104	0	54	20310
2026-01-13 22:14:41.21	33.87	7.54	-41.8	-55.1	3.8	1.49e+00	0	56	104	0	54	17337
2026-01-13 22:14:42.22	33.97	7.60	-41.8	-54.5	3.9	1.48e+00	0	56	104	0	54	16186
2026-01-13 22:14:43.23	34.08	7.66	-41.6	-52.4	4.5	1.34e+00	0	56	0	0	54	12773
2026-01-13 22:14:44.24	34.18	7.72	-41.5	-51.5	4.9	9.32e-01	0	56	0	2097152	54	11429
2026-01-13 22:14:45.25	34.29	7.78	-41.5	-51.4	4.9	7.40e-01	0	56	0	4194304	54	11377
2026-01-13 22:14:46.26	34.39	7.85	-41.4	-50.7	5.4	6.36e-01	0	56	0	5242880	54	10424
2026-01-13 22:14:47.27	34.50	7.91	-41.1	-48.8	6.7	3.26e-01	0	56	0	7340032	54	8437
2026-01-13 22:14:48.28	34.61	7.97	-40.6	-47.0	8.5	1.03e-01	0	56	0	9437184	53	7287
2026-01-13 22:14:49.29	34.72	8.03	-40.7	-47.0	8.6	3.54e-02	0	56	0	11534336	53	7214
2026-01-13 22:14:50.30	34.82	8.09	-41.1	-47.6	8.3	3.28e-02	0	56	0	13631488	53	7732
2026-01-13 22:14:51.31	34.93	8.16	-41.5	-49.3	6.4	4.71e-01	0	56	0	14680064	54	8931
2026-01-13 22:14:52.32	35.04	8.22	-40.7	-49.9	5.8	2.64e-01	0	56	0	16777216	53	10106
2026-01-13 22:14:53.33	35.15	8.28	-41.0	-52.9	3.9	1.49e+00	0	57	104	17825792	53	14373
2026-01-13 22:14:54.34	35.26	8.34	-42.1	-50.6	5.8	2.35e-01	0	56	0	18874368	55	9830
2026-01-13 22:14:55.35	35.37	8.41	-41.0	-47.3	8.7	3.88e-02	0	56	0	19922944	54	7067
2026-01-13 22:14:56.36	35.48	8.47	-41.1	-47.5	8.5	3.89e-02	0	57	0	22020096	54	7228
2026-01-13 22:14:57.37	35.59	8.53	-41.2	-47.7	8.4	4.01e-02	0	57	0	24117248	54	7437
2026-01-13 22:14:58.38	35.71	8.59	-41.2	-47.6	8.5	4.69e-02	0	56	0	26214400	54	7315
2026-01-13 22:14:59.39	35.82	8.66	-41.3	-47.6	8.5	4.75e-02	0	57	0	28311552	54	7370
2026-01-13 22:15:00.39	35.93	8.72	-41.4	-48.0	8.2	4.62e-02	0	57	0	29360128	54	7655
2026-01-13 22:15:01.40	36.04	8.78	-41.6	-48.2	7.9	5.57e-02	0	57	0	31457280	54	7861
2026-01-13 22:15:02.41	36.16	8.85	-41.5	-47.8	8.4	5.55e-02	0	57	0	33554432	54	7524
2026-01-13 22:15:03.42	36.27	8.91	-41.6	-48.1	8.1	4.78e-02	0	57	0	35651584	54	7728
2026-01-13 22:15:04.43	36.38	8.97	-41.5	-47.7	8.5	4.73e-02	0	57	0	37748736	54	7424
2026-01-13 22:15:05.44	36.50	9.03	-41.6	-48.1	8.1	5.71e-02	0	57	0	38797312	54	7730
2026-01-13 22:15:06.45	36.61	9.10	-41.7	-48.1	8.1	6.44e-02	0	57	0	40894464	54	7777
2026-01-13 22:15:07.46	36.73	9.16	-41.6	-48.0	8.2	6.63e-02	0	57	0	42991616	54	7706
2026-01-13 22:15:08.47	36.85	9.22	-41.7	-47.9	8.4	5.41e-02	0	57	0	45088768	54	7595
2026-01-13 22:15:09.48	36.96	9.29	-41.8	-48.0	8.4	3.99e-02	0	57	0	47185920	54	7676
2026-01-13 22:15:10.49	37.08	9.35	-41.8	-47.9	8.6	4.02e-02	0	57	0	49283072	54	7544
2026-01-13 22:15:11.50	37.20	9.42	-41.8	-47.8	8.6	3.09e-02	0	57	0	50331648	54	7475
2026-01-13 22:15:12.51	37.32	9.48	-41.8	-47.6	8.8	3.29e-02	0	57	0	52428800	54	7358
2026-01-13 22:15:13.52	37.44	9.54	-41.8	-47.8	8.7	2.59e-02	0	57	0	54525952	54	7461
2026-01-13 22:15:14.53	37.56	9.61	-41.8	-47.5	9.1	3.75e-02	0	57	0	56623104	54	7245
2026-01-13 22:15:15.54	37.68	9.67	-42.0	-47.8	8.8	2.25e-02	0	57	0	58720256	54	7486
2026-01-13 22:15:16.55	37.80	9.73	-41.8	-47.3	9.3	2.47e-02	0	57	0	59768832	54	7121
2026-01-13 22:15:17.56	37.92	9.80	-41.9	-47.6	9.1	2.10e-02	0	57	0	61865984	54	7299
2026-01-13 22:15:18.57	38.04	9.86	-41.9	-47.3	9.4	1.73e-02	0	57	0	63963136	54	7051
2026-01-13 22:15:19.58	38.16	9.93	-42.0	-47.7	9.1	1.64e-02	0	57	0	66060288	54	7372
2026-01-13 22:15:20.59	38.28	9.99	-42.0	-47.5	9.2	2.14e-02	0	57	0	68157440	54	7259
2026-01-13 22:15:21.60	38.41	10.05	-42.0	-47.5	9.2	2.07e-02	0	57	0	69206016	54	7245
2026-01-13 22:15:22.61	38.53	10.12	-42.0	-47.4	9.4	1.70e-02	0	57	0	71303168	54	7154
2026-01-13 22:15:23.62	38.65	10.18	-42.0	-47.3	9.4	1.90e-02	0	57	0	73400320	54	7080
2026-01-13 22:15:24.63	38.78	10.25	-42.0	-47.3	9.4	1.56e-02	0	57	0	75497472	54	7113
2026-01-13 22:15:25.63	38.90	10.31	-41.9	-47.1	9.7	1.32e-02	0	57	0	77594624	54	6893
2026-01-13 22:15:26.64	39.03	10.38	-42.0	-47.4	9.4	1.47e-02	0	57	0	78643200	54	7156
2026-01-13 22:15:27.65	39.15	10.44	-41.9	-47.2	9.6	1.43e-02	0	57	0	80740352	54	6993
2026-01-13 22:15:28.66	39.28	10.50	-41.9	-47.0	9.9	9.58e-03	0	57	0	82837504	54	6815
2026-01-13 22:15:29.67	39.41	10.57	-41.9	-47.1	9.8	1.11e-02	0	57	0	84934656	54	6898
2026-01-13 22:15:30.68	39.54	10.63	-41.9	-46.9	10.0	9.50e-03	0	57	0	87031808	54	6767
2026-01-13 22:15:31.69	39.66	10.70	-41.9	-46.8	10.1	6.75e-03	0	57	0	88080384	54	6719
2026-01-13 22:15:32.70	39.79	10.76	-41.9	-47.0	9.9	8.09e-03	0	57	0	90177536	54	6817
2026-01-13 22:15:33.71	39.92	10.83	-41.9	-46.8	10.2	8.34e-03	0	57	0	92274688	54	6676
2026-01-13 22:15:34.72	40.05	10.89	-41.9	-46.8	10.2	6.80e-03	0	57	0	94371840	54	6668
2026-01-13 22:15:35.73	40.18	10.96	-41.9	-46.9	10.0	6.44e-03	0	58	0	96468992	54	6793
2026-01-13 22:15:36.74	40.31	11.02	-41.9	-46.9	10.2	7.68e-03	0	57	0	97517568	54	6765
2026-01-13 22:15:37.75	40.45	11.09	-41.9	-46.8	10.2	5.99e-03	0	57	0	99614720	54	6703
2026-01-13 22:15:38.76	40.58	11.15	-42.0	-47.0	10.0	6.36e-03	0	58	0	101711872	54	6851
2026-01-13 22:15:39.77	40.71	11.22	-42.0	-46.9	10.1	8.02e-03	0	58	0	103809024	54	6773
2026-01-13 22:15:40.78	40.84	11.28	-42.0	-47.1	9.9	7.79e-03	0	58	0	105906176	54	6896
2026-01-13 22:15:41.79	40.98	11.35	-42.1	-47.2	9.8	8.20e-03	0	58	0	106954752	54	6999
2026-01-13 22:15:42.80	41.11	11.41	-42.0	-47.1	9.9	9.14e-03	0	58	0	109051904	54	6949
2026-01-13 22:15:43.81	41.25	11.48	-42.2	-47.4	9.6	1.14e-02	0	58	0	111149056	54	7193
2026-01-13 22:15:44.82	41.38	11.54	-42.2	-47.4	9.6	1.11e-02	0	58	0	113246208	54	7180
2026-01-13 22:15:45.83	41.52	11.61	-42.2	-47.4	9.7	1.35e-02	0	58	0	115343360	55	6753
2026-01-13 22:15:46.84	41.66	11.67	-42.2	-47.5	9.6	1.34e-02	0	58	0	117440512	55	6816
2026-01-13 22:15:47.84	41.79	11.74	-42.2	-47.6	9.5	1.26e-02	0	58	0	118489088	55	6892
2026-01-13 22:15:48.85	41.93	11.80	-42.2	-47.4	9.7	1.31e-02	0	58	0	120586240	55	6756
2026-01-13 22:15:49.86	42.07	11.87	-42.2	-47.3	9.8	1.01e-02	0	58	0	122683392	55	6710
2026-01-13 22:15:50.88	42.21	11.93	-42.3	-47.6	9.6	1.25e-02	0	58	0	124780544	55	6891
2026-01-13 22:15:51.89	42.35	12.00	-42.2	-47.4	9.8	1.28e-02	0	58	0	126877696	55	6742
2026-01-13 22:15:52.90	42.49	12.07	-42.1	-47.2	9.9	8.64e-03	0	58	0	127926272	55	6619
2026-01-13 22:15:53.91	42.63	12.13	-42.0	-46.9	10.2	7.18e-03	0	58	0	130023424	55	6393
2026-01-13 22:15:54.92	42.77	12.20	-42.1	-47.2	10.0	6.16e-03	0	58	0	132120576	55	6577
2026-01-13 22:15:55.93	42.91	12.26	-42.1	-47.1	10.1	7.92e-03	0	58	0	134217728	55	6510
2026-01-13 22:15:56.94	43.06	12.33	-42.2	-47.3	9.9	9.41e-03	0	58	0	135266304	55	6691
2026-01-13 22:15:57.94	43.20	12.39	-42.3	-47.5	9.6	1.16e-02	0	58	0	137363456	55	6852
2026-01-13 22:15:58.95	43.34	12.46	-42.2	-47.4	9.9	9.18e-03	0	58	0	139460608	55	6739
2026-01-13 22:15:59.96	43.49	12.52	-42.2	-47.4	9.8	1.04e-02	0	58	0	141557760	55	6775
2026-01-13 22:16:00.96	43.63	12.59	-42.2	-47.3	9.9	7.70e-03	0	58	0	143654912	55	6669
2026-01-13 22:16:01.97	43.78	12.65	-42.2	-47.1	10.1	6.32e-03	0	58	0	145752064	55	6542
2026-01-13 22:16:02.98	43.93	12.72	-42.1	-46.9	10.3	5.51e-03	0	58	0	146800640	55	6412
2026-01-13 22:16:03.99	44.07	12.78	-42.1	-46.9	10.3	4.50e-03	0	58	0	148897792	55	6387
2026-01-13 22:16:05.00	44.22	12.85	-42.1	-46.9	10.3	3.99e-03	0	58	0	150994944	55	6396
2026-01-13 22:16:06.01	44.37	12.92	-41.9	-46.4	10.9	3.26e-03	0	58	0	153092096	55	6040
2026-01-13 22:16:07.02	44.52	12.98	-41.9	-46.4	10.8	2.64e-03	0	58	0	155189248	55	6046
2026-01-13 22:16:08.03	44.67	13.05	-41.8	-46.4	11.0	2.06e-03	0	58	0	156237824	55	5993
2026-01-13 22:16:09.04	44.82	13.11	-41.9	-46.5	10.8	2.02e-03	0	58	0	158334976	55	6076
2026-01-13 22:16:10.05	44.97	13.18	-41.9	-46.5	10.8	2.67e-03	0	58	0	160432128	55	6103
2026-01-13 22:16:11.06	45.12	13.24	-41.9	-46.4	11.0	2.07e-03	0	58	0	162529280	55	6025
2026-01-13 22:16:12.07	45.27	13.31	-41.9	-46.3	11.0	2.34e-03	0	58	0	164626432	55	5969
2026-01-13 22:16:13.08	45.43	13.38	-41.9	-46.3	11.0	1.88e-03	0	58	0	165675008	55	5956
2026-01-13 22:16:14.09	45.58	13.44	-41.9	-46.5	10.8	2.52e-03	0	58	0	167772160	55	6083
2026-01-13 22:16:15.10	45.73	13.51	-41.9	-46.5	10.8	2.23e-03	0	58	0	169869312	55	6067
2026-01-13 22:16:16.11	45.89	13.57	-41.9	-46.4	10.9	2.20e-03	0	58	0	171966464	55	6016
2026-01-13 22:16:17.12	46.04	13.64	-42.0	-46.6	10.7	2.58e-03	0	58	0	174063616	55	6156
2026-01-13 22:16:18.13	46.20	13.70	-42.0	-46.6	10.7	2.41e-03	0	59	0	175112192	55	6164
2026-01-13 22:16:19.14	46.36	13.77	-42.0	-46.6	10.8	3.15e-03	0	58	0	177209344	55	6148
2026-01-13 22:16:20.15	46.52	13.83	-42.0	-46.6	10.7	2.78e-03	0	58	0	179306496	55	6197
2026-01-13 22:16:21.16	46.67	13.90	-42.0	-46.7	10.6	3.42e-03	0	58	0	181403648	55	6246
2026-01-13 22:16:22.17	46.83	13.97	-42.0	-46.6	10.7	3.35e-03	0	58	0	183500800	55	6145
2026-01-13 22:16:23.18	46.99	14.03	-42.0	-46.7	10.7	3.31e-03	0	58	0	184549376	55	6237
2026-01-13 22:16:24.19	47.15	14.10	-42.0	-46.7	10.7	3.08e-03	0	58	0	186646528	55	6224
2026-01-13 22:16:25.20	47.31	14.16	-42.0	-46.8	10.6	2.72e-03	0	58	0	188743680	55	6281
2026-01-13 22:16:26.20	47.48	14.23	-42.1	-47.0	10.5	4.02e-03	0	58	0	190840832	55	6439
2026-01-13 22:16:27.21	47.64	14.29	-42.1	-46.9	10.5	4.47e-03	0	59	0	192937984	55	6353
2026-01-13 22:16:28.22	47.80	14.36	-42.2	-47.2	10.2	4.96e-03	0	59	0	193986560	55	6626
2026-01-13 22:16:29.23	47.96	14.42	-42.2	-47.2	10.1	6.28e-03	0	58	0	196083712	55	6635
2026-01-13 22:16:30.24	48.13	14.49	-42.2	-47.2	10.1	7.80e-03	0	58	0	198180864	55	6623
2026-01-13 22:16:31.25	48.29	14.55	-42.2	-47.3	10.1	6.52e-03	0	59	0	200278016	55	6655
2026-01-13 22:16:32.26	48.46	14.62	-42.2	-47.3	10.1	6.44e-03	0	59	0	202375168	55	6653
2026-01-13 22:16:33.27	48.63	14.68	-42.1	-47.0	10.4	5.39e-03	0	59	0	203423744	55	6468
2026-01-13 22:16:34.28	48.80	14.75	-42.0	-46.8	10.7	3.02e-03	0	59	0	205520896	55	6278
2026-01-13 22:16:35.29	48.96	14.81	-41.9	-46.4	11.0	2.46e-03	0	59	0	207618048	55	6050
2026-01-13 22:16:36.30	49.13	14.88	-41.9	-46.4	11.0	1.61e-03	0	58	0	209715200	55	6024
2026-01-13 22:16:37.31	49.30	14.94	-41.9	-46.3	11.2	1.46e-03	0	58	0	211812352	55	5976
2026-01-13 22:16:38.32	49.47	15.01	-41.9	-46.4	11.0	1.43e-03	0	59	0	213909504	55	6061
2026-01-13 22:16:39.33	49.64	15.07	-41.9	-46.4	11.0	1.80e-03	0	59	0	214958080	55	6029
2026-01-13 22:16:40.34	49.81	15.14	-42.0	-46.7	10.7	2.15e-03	0	59	0	217055232	55	6236
2026-01-13 22:16:41.35	49.99	15.20	-42.0	-46.8	10.7	2.44e-03	0	58	0	219152384	55	6277
2026-01-13 22:16:42.36	50.16	15.27	-42.0	-46.7	10.7	2.94e-03	0	59	0	221249536	55	6210
2026-01-13 22:16:43.36	50.33	15.33	-42.0	-46.7	10.7	2.94e-03	0	59	0	223346688	55	6258
2026-01-13 22:16:44.37	50.51	15.39	-42.0	-46.6	10.9	3.06e-03	0	59	0	224395264	55	6154
2026-01-13 22:16:45.38	50.68	15.46	-41.9	-46.4	11.1	2.28e-03	0	59	0	226492416	55	5994
2026-01-13 22:16:46.39	50.86	15.52	-41.8	-46.1	11.3	1.33e-03	0	59	0	228589568	55	5849
2026-01-13 22:16:47.40	51.04	15.59	-41.8	-46.1	11.3	1.12e-03	0	59	0	230686720	55	5835
2026-01-13 22:16:48.41	51.21	15.65	-41.8	-46.2	11.3	1.13e-03	0	59	0	232783872	55	5857
2026-01-13 22:16:49.42	51.39	15.72	-41.7	-46.0	11.5	9.86e-04	0	59	0	233832448	55	5765
2026-01-13 22:16:50.43	51.57	15.78	-41.7	-46.0	11.4	8.92e-04	0	59	0	235929600	55	5754
2026-01-13 22:16:51.44	51.75	15.84	-41.6	-45.9	11.6	8.69e-04	0	59	0	238026752	55	5669
2026-01-13 22:16:52.45	51.93	15.91	-41.7	-46.0	11.5	7.84e-04	0	59	0	240123904	55	5746
2026-01-13 22:16:53.46	52.11	15.97	-41.6	-45.8	11.6	8.73e-04	0	59	0	242221056	55	5654
2026-01-13 22:16:54.47	52.30	16.03	-41.6	-45.8	11.7	6.77e-04	0	59	0	243269632	55	5633
2026-01-13 22:16:55.48	52.48	16.10	-41.6	-45.8	11.7	6.45e-04	0	59	0	245366784	55	5624
2026-01-13 22:16:56.49	52.66	16.16	-41.6	-45.8	11.6	5.98e-04	0	59	0	247463936	55	5650
2026-01-13 22:16:57.50	52.85	16.22	-41.6	-45.9	11.6	5.73e-04	0	59	0	249561088	55	5696
2026-01-13 22:16:58.51	53.03	16.29	-41.6	-45.8	11.7	5.55e-04	0	59	0	251658240	55	5608
2026-01-13 22:16:59.52	53.22	16.35	-41.6	-45.9	11.6	6.79e-04	0	59	0	252706816	55	5667
2026-01-13 22:17:00.53	53.40	16.41	-41.7	-46.0	11.5	7.44e-04	0	59	0	254803968	55	5747
2026-01-13 22:17:01.54	53.59	16.48	-41.7	-46.0	11.5	8.74e-04	0	59	0	256901120	55	5755
2026-01-13 22:17:02.55	53.78	16.54	-41.7	-46.1	11.5	9.31e-04	0	59	0	258998272	55	5810
2026-01-13 22:17:03.56	53.97	16.60	-41.7	-46.0	11.4	7.30e-04	0	59	0	261095424	55	5780
2026-01-13 22:17:04.57	54.16	16.66	-41.7	-46.1	11.5	8.90e-04	0	59	0	262144000	55	5822
2026-01-13 22:17:05.58	54.35	16.73	-41.6	-45.9	11.6	6.80e-04	0	59	0	264241152	55	5661
2026-01-13 22:17:06.58	54.54	16.79	-41.7	-45.9	11.6	5.90e-04	0	59	0	266338304	55	5711
2026-01-13 22:17:07.59	54.73	16.85	-41.6	-45.8	11.7	4.42e-04	0	59	0	268435456	55	5617
2026-01-13 22:17:08.60	54.92	16.91	-41.6	-45.7	11.8	5.03e-04	0	59	0	270532608	55	5548
2026-01-13 22:17:09.61	55.12	16.97	-41.6	-45.8	11.7	4.96e-04	0	59	0	271581184	55	5608
2026-01-13 22:17:10.62	55.31	17.03	-41.6	-45.8	11.6	4.60e-04	0	59	0	273678336	55	5644
2026-01-13 22:17:11.63	55.51	17.10	-41.7	-46.1	11.4	6.45e-04	0	59	0	275775488	55	5826
2026-01-13 22:17:12.64	55.70	17.16	-41.8	-46.2	11.3	9.88e-04	0	59	0	277872640	55	5900
2026-01-13 22:17:13.65	55.90	17.22	-41.8	-46.2	11.3	1.05e-03	0	59	0	279969792	55	5911
2026-01-13 22:17:14.66	56.10	17.28	-41.8	-46.2	11.3	1.06e-03	0	59	0	282066944	55	5895
2026-01-13 22:17:15.67	56.30	17.34	-41.9	-46.3	11.2	1.49e-03	0	59	0	283115520	55	5986
2026-01-13 22:17:16.68	56.49	17.40	-41.8	-46.1	11.4	1.16e-03	0	59	0	285212672	55	5825
2026-01-13 22:17:17.69	56.69	17.46	-41.7	-46.0	11.5	8.03e-04	0	59	0	287309824	55	5730
2026-01-13 22:17:18.70	56.89	17.52	-41.7	-46.0	11.5	7.90e-04	0	59	0	289406976	55	5760
2026-01-13 22:17:19.71	57.10	17.58	-41.7	-46.0	11.6	8.36e-04	0	59	0	291504128	55	5752
2026-01-13 22:17:20.72	57.30	17.64	-41.8	-46.2	11.3	1.01e-03	0	59	0	292552704	55	5876
2026-01-13 22:17:21.73	57.50	17.70	-41.9	-46.4	11.1	1.37e-03	0	59	0	294649856	55	6044
2026-01-13 22:17:22.74	57.71	17.76	-42.0	-46.6	10.9	1.84e-03	0	59	0	296747008	55	6159
2026-01-13 22:17:23.75	57.91	17.82	-42.0	-46.7	10.8	2.71e-03	0	59	0	298844160	55	6258
2026-01-13 22:17:24.76	58.12	17.88	-42.1	-46.8	10.7	3.75e-03	0	59	0	300941312	55	6317
2026-01-13 22:17:25.77	58.32	17.94	-42.1	-46.8	10.7	2.80e-03	0	59	0	301989888	55	6304
2026-01-13 22:17:26.78	58.53	17.99	-42.1	-46.7	10.8	3.21e-03	0	59	0	304087040	55	6258
2026-01-13 22:17:27.79	58.74	18.05	-42.1	-46.7	10.8	2.47e-03	0	59	0	306184192	55	6259
2026-01-13 22:17:28.80	58.94	18.11	-42.2	-46.9	10.6	3.20e-03	0	59	0	308281344	55	6395
2026-01-13 22:17:29.81	59.15	18.17	-42.1	-46.9	10.6	3.25e-03	0	59	0	310378496	55	6374
2026-01-13 22:17:30.82	59.36	18.23	-42.3	-47.2	10.3	4.11e-03	0	59	0	311427072	55	6573
2026-01-13 22:17:31.83	59.57	18.28	-42.3	-47.3	10.2	6.78e-03	0	59	0	313524224	55	6696
2026-01-13 22:17:32.83	59.78	18.34	-42.4	-47.5	9.9	7.58e-03	0	59	0	315621376	55	6810
2026-01-13 22:17:33.84	60.00	18.40	-42.4	-47.6	9.9	7.95e-03	0	59	0	317718528	55	6913
2026-01-13 22:17:34.85	60.21	18.45	-42.5	-47.8	9.7	9.61e-03	0	60	0	319815680	55	7054
2026-01-13 22:17:35.86	60.42	18.51	-42.5	-47.9	9.6	1.11e-02	0	59	0	320864256	55	7155
2026-01-13 22:17:36.87	60.64	18.57	-42.6	-47.9	9.6	1.21e-02	0	59	0	322961408	55	7190
2026-01-13 22:17:37.88	60.85	18.62	-42.6	-48.1	9.4	1.76e-02	0	59	0	325058560	55	7291
2026-01-13 22:17:38.89	61.07	18.68	-42.7	-48.3	9.1	2.01e-02	0	59	0	327155712	55	7516
2026-01-13 22:17:39.90	61.29	18.73	-42.9	-48.6	9.0	2.16e-02	0	59	0	329252864	56	7297
2026-01-13 22:17:40.91	61.50	18.79	-42.9	-48.6	9.0	2.26e-02	0	59	0	330301440	56	7326
2026-01-13 22:17:41.92	61.72	18.84	-42.8	-48.4	9.2	1.84e-02	0	59	0	332398592	56	7133
2026-01-13 22:17:42.93	61.94	18.90	-42.8	-48.3	9.4	1.58e-02	0	59	0	334495744	56	7041
2026-01-13 22:17:43.94	62.16	18.95	-42.8	-48.4	9.2	1.75e-02	0	59	0	336592896	56	7190
2026-01-13 22:17:44.94	62.38	19.01	-42.8	-48.4	9.2	1.99e-02	0	59	0	338690048	56	7148
2026-01-13 22:17:45.95	62.60	19.06	-42.9	-48.6	9.0	2.04e-02	0	59	0	339738624	56	7352
2026-01-13 22:17:46.97	62.83	19.11	-42.9	-48.5	9.1	2.37e-02	0	59	0	341835776	56	7245
2026-01-13 22:17:47.97	63.05	19.16	-42.8	-48.5	9.1	2.34e-02	0	60	0	343932928	56	7213
2026-01-13 22:17:48.98	63.27	19.22	-42.8	-48.3	9.3	1.93e-02	0	59	0	346030080	56	7055
2026-01-13 22:17:49.99	63.50	19.27	-42.7	-48.0	9.6	1.53e-02	0	60	0	348127232	56	6875
2026-01-13 22:17:51.00	63.72	19.32	-42.6	-47.7	9.9	9.67e-03	0	60	0	350224384	56	6628
2026-01-13 22:17:52.01	63.95	19.37	-42.7	-48.0	9.6	1.23e-02	0	59	0	351272960	56	6805
2026-01-13 22:17:53.02	64.18	19.43	-42.6	-47.7	9.9	1.16e-02	0	60	0	353370112	56	6640
2026-01-13 22:17:54.03	64.40	19.48	-42.7	-48.0	9.6	1.19e-02	0	60	0	355467264	56	6833
2026-01-13 22:17:55.04	64.63	19.53	-42.7	-48.1	9.5	1.28e-02	0	59	0	357564416	56	6891
2026-01-13 22:17:56.05	64.86	19.58	-42.6	-47.8	9.8	1.11e-02	0	60	0	359661568	56	6672
2026-01-13 22:17:57.06	65.09	19.63	-42.5	-47.5	10.0	8.87e-03	0	60	0	360710144	56	6455
2026-01-13 22:17:58.07	65.32	19.68	-42.3	-47.0	10.6	4.15e-03	0	59	0	362807296	56	6106
2026-01-13 22:17:59.08	65.55	19.73	-42.2	-46.9	10.7	3.06e-03	0	59	0	364904448	56	6018
2026-01-13 22:18:00.09	65.79	19.78	-42.2	-46.8	10.8	3.03e-03	0	59	0	367001600	56	5965
2026-01-13 22:18:01.10	66.02	19.82	-42.2	-46.9	10.7	2.87e-03	0	60	0	369098752	56	6010
2026-01-13 22:18:02.11	66.25	19.87	-42.3	-47.0	10.5	3.35e-03	0	59	0	370147328	56	6130
2026-01-13 22:18:03.12	66.49	19.92	-42.4	-47.5	10.1	4.68e-03	0	60	0	372244480	56	6453
2026-01-13 22:18:04.13	66.72	19.97	-42.3	-47.2	10.3	6.04e-03	0	60	0	374341632	56	6261
2026-01-13 22:18:05.14	66.96	20.01	-42.3	-47.2	10.3	5.73e-03	0	60	0	376438784	56	6226
2026-01-13 22:18:06.15	67.19	20.06	-42.2	-46.9	10.6	5.63e-03	0	59	0	378535936	56	6045
2026-01-13 22:18:07.16	67.43	20.11	-42.2	-46.9	10.6	3.41e-03	0	59	0	379584512	56	6026
2026-01-13 22:18:08.17	67.67	20.15	-42.2	-47.0	10.5	3.49e-03	0	60	0	381681664	56	6087
2026-01-13 22:18:09.18	67.91	20.20	-42.3	-47.1	10.2	3.90e-03	0	60	0	383778816	56	6182
2026-01-13 22:18:10.19	68.15	20.24	-42.3	-47.4	9.9	8.05e-03	0	60	0	385875968	56	6383
2026-01-13 22:18:11.20	68.39	20.29	-42.3	-47.5	9.8	8.40e-03	0	60	0	387973120	56	6448
2026-01-13 22:18:12.21	68.63	20.33	-42.3	-47.5	9.7	1.21e-02	0	60	0	389021696	56	6483
2026-01-13 22:18:13.22	68.87	20.38	-42.2	-47.3	9.9	8.69e-03	0	59	0	391118848	56	6347
2026-01-13 22:18:14.23	69.11	20.42	-42.0	-46.7	10.5	5.53e-03	0	60	0	393216000	56	5908
2026-01-13 22:18:15.24	69.35	20.46	-41.7	-46.2	10.8	3.21e-03	0	59	0	395313152	55	5914
2026-01-13 22:18:16.25	69.60	20.51	-41.7	-46.2	10.8	2.15e-03	0	60	0	397410304	55	5915
2026-01-13 22:18:17.26	69.84	20.55	-41.6	-46.2	10.8	2.13e-03	0	60	0	398458880	55	5884
2026-01-13 22:18:18.27	70.09	20.59	-41.7	-46.3	10.7	2.46e-03	0	59	0	400556032	55	5963
2026-01-13 22:18:19.28	70.33	20.63	-41.8	-46.6	10.4	3.39e-03	0	60	0	402653184	55	6163
2026-01-13 22:18:20.29	70.58	20.67	-41.8	-46.8	10.2	5.44e-03	0	60	0	404750336	55	6297
2026-01-13 22:18:21.30	70.82	20.71	-41.9	-46.9	9.9	7.99e-03	0	60	0	406847488	55	6418
2026-01-13 22:18:22.31	71.07	20.75	-41.9	-47.2	9.7	8.65e-03	0	60	0	407896064	55	6582
2026-01-13 22:18:23.31	71.32	20.79	-41.9	-47.2	9.6	1.21e-02	0	60	0	409993216	55	6581
2026-01-13 22:18:24.33	71.57	20.83	-41.9	-47.4	9.4	1.56e-02	0	60	0	412090368	55	6745
2026-01-13 22:18:25.34	71.82	20.87	-42.0	-47.7	9.0	2.07e-02	0	59	0	414187520	55	7020
2026-01-13 22:18:26.35	72.07	20.91	-42.0	-47.6	9.1	2.38e-02	0	59	0	416284672	55	6909
2026-01-13 22:18:27.36	72.32	20.94	-41.9	-47.4	9.3	1.98e-02	0	60	0	418381824	55	6760
2026-01-13 22:18:28.37	72.57	20.98	-41.8	-47.1	9.6	1.38e-02	0	60	0	419430400	55	6537
2026-01-13 22:18:29.38	72.82	21.02	-41.8	-46.8	10.0	9.90e-03	0	59	0	421527552	55	6312
2026-01-13 22:18:30.39	73.07	21.05	-41.7	-46.6	10.2	7.22e-03	0	60	0	423624704	55	6194
2026-01-13 22:18:31.40	73.32	21.09	-41.7	-46.4	10.5	3.77e-03	0	60	0	425721856	55	6011
2026-01-13 22:18:32.41	73.58	21.12	-41.7	-46.5	10.4	4.64e-03	0	60	0	427819008	55	6105
2026-01-13 22:18:33.41	73.83	21.16	-41.7	-46.4	10.5	4.38e-03	0	59	0	428867584	55	6037
2026-01-13 22:18:34.42	74.08	21.19	-41.6	-46.3	10.5	3.75e-03	0	60	0	430964736	55	5990
2026-01-13 22:18:35.43	74.34	21.22	-41.4	-46.0	10.9	2.91e-03	0	60	0	433061888	54	6065
2026-01-13 22:18:36.44	74.59	21.26	-41.4	-45.9	11.0	1.91e-03	0	60	0	435159040	54	6033
2026-01-13 22:18:37.45	74.85	21.29	-41.5	-46.1	10.8	1.91e-03	0	60	0	437256192	54	6175
2026-01-13 22:18:38.46	75.11	21.32	-41.7	-46.4	10.5	3.25e-03	0	60	0	438304768	54	6409
2026-01-13 22:18:39.47	75.36	21.35	-41.8	-46.7	10.2	5.19e-03	0	60	0	440401920	54	6584
2026-01-13 22:18:40.48	75.62	21.38	-41.9	-46.9	10.0	7.12e-03	0	60	0	442499072	54	6768
2026-01-13 22:18:41.49	75.88	21.41	-41.8	-46.7	10.2	7.52e-03	0	60	0	444596224	54	6644
2026-01-13 22:18:42.50	76.14	21.44	-41.8	-46.6	10.4	4.26e-03	0	60	0	446693376	54	6507
2026-01-13 22:18:43.51	76.40	21.47	-41.7	-46.3	10.7	2.95e-03	0	60	0	447741952	54	6332
2026-01-13 22:18:44.52	76.66	21.50	-41.6	-46.2	10.8	2.25e-03	0	60	0	449839104	54	6235
2026-01-13 22:18:45.53	76.92	21.53	-41.7	-46.4	10.6	2.71e-03	0	60	0	451936256	54	6362
2026-01-13 22:18:46.54	77.18	21.56	-41.8	-46.8	10.2	5.17e-03	0	60	0	454033408	54	6664
2026-01-13 22:18:47.55	77.44	21.58	-41.9	-47.0	9.9	9.04e-03	0	60	0	456130560	54	6812
2026-01-13 22:18:48.56	77.70	21.61	-42.1	-47.2	9.7	1.00e-02	0	60	0	457179136	54	7021
2026-01-13 22:18:49.57	77.96	21.64	-41.9	-46.9	10.0	8.42e-03	0	60	0	459276288	54	6770
2026-01-13 22:18:50.58	78.22	21.66	-41.9	-46.8	10.2	5.92e-03	0	60	0	461373440	54	6698
2026-01-13 22:18:51.59	78.49	21.69	-41.8	-46.4	10.6	3.67e-03	0	60	0	463470592	54	6397
2026-01-13 22:18:52.60	78.75	21.71	-41.7	-46.3	10.8	2.61e-03	0	60	0	465567744	54	6302
2026-01-13 22:18:53.61	79.01	21.73	-41.8	-46.6	10.5	3.64e-03	0	60	0	466616320	54	6516
2026-01-13 22:18:54.62	79.28	21.76	-42.0	-47.0	10.1	5.63e-03	0	60	0	468713472	54	6845
2026-01-13 22:18:55.63	79.54	21.78	-42.0	-47.0	10.0	7.88e-03	0	60	0	470810624	54	6864
2026-01-13 22:18:56.64	79.81	21.80	-42.0	-47.2	9.9	9.38e-03	0	60	0	472907776	54	6981
2026-01-13 22:18:57.65	80.07	21.82	-41.9	-46.9	10.2	6.27e-03	0	60	0	475004928	54	6744
2026-01-13 22:18:58.66	80.34	21.84	-41.7	-46.4	10.7	4.53e-03	0	60	0	476053504	54	6389
2026-01-13 22:18:59.67	80.60	21.86	-41.8	-46.4	10.6	3.53e-03	0	60	0	478150656	54	6395
2026-01-13 22:19:00.68	80.87	21.88	-41.8	-46.4	10.7	3.21e-03	0	60	0	480247808	54	6369
2026-01-13 22:19:01.69	81.13	21.90	-41.8	-46.5	10.5	3.32e-03	0	60	0	482344960	54	6478
2026-01-13 22:19:02.70	81.40	21.92	-41.9	-46.6	10.6	3.31e-03	0	60	0	484442112	54	6502
2026-01-13 22:19:03.71	81.67	21.93	-41.9	-46.5	10.6	3.42e-03	0	60	0	486539264	54	6467
2026-01-13 22:19:04.72	81.94	21.95	-41.8	-46.1	11.0	2.22e-03	0	60	0	487587840	54	6176
2026-01-13 22:19:05.73	82.20	21.97	-41.6	-45.8	11.3	1.58e-03	0	60	0	489684992	54	5975
2026-01-13 22:19:06.74	82.47	21.98	-41.7	-46.0	11.1	1.69e-03	0	60	0	491782144	54	6123
2026-01-13 22:19:07.75	82.74	22.00	-41.9	-46.3	10.8	1.74e-03	0	60	0	493879296	54	6322
2026-01-13 22:19:08.76	83.01	22.01	-41.9	-46.5	10.6	2.87e-03	0	60	0	495976448	54	6452
2026-01-13 22:19:09.77	83.28	22.03	-42.0	-46.7	10.5	4.15e-03	0	60	0	497025024	54	6574
2026-01-13 22:19:10.78	83.54	22.04	-42.0	-46.6	10.5	4.24e-03	0	60	0	499122176	54	6563
2026-01-13 22:19:11.79	83.81	22.05	-41.8	-46.3	10.8	2.95e-03	0	60	0	501219328	54	6309
2026-01-13 22:19:12.80	84.08	22.06	-41.9	-46.6	10.4	3.65e-03	0	60	0	503316480	54	6554
2026-01-13 22:19:13.80	84.35	22.07	-42.0	-46.9	10.2	4.04e-03	0	60	0	505413632	54	6730
2026-01-13 22:19:14.81	84.62	22.08	-42.2	-47.3	9.8	6.62e-03	0	60	0	506462208	54	7051
2026-01-13 22:19:15.82	84.89	22.09	-42.4	-47.8	9.3	1.41e-02	0	60	0	508559360	55	7063
2026-01-13 22:19:16.83	85.16	22.10	-42.5	-48.1	8.9	2.36e-02	0	60	0	510656512	55	7321
2026-01-13 22:19:17.84	85.43	22.11	-42.5	-48.2	8.8	3.07e-02	0	60	0	512753664	55	7417
2026-01-13 22:19:18.85	85.70	22.12	-42.5	-48.2	8.9	3.47e-02	0	60	0	514850816	55	7373
2026-01-13 22:19:19.86	85.97	22.13	-42.5	-48.1	8.9	3.13e-02	0	60	0	515899392	55	7356
2026-01-13 22:19:20.87	86.24	22.13	-42.4	-47.8	9.3	2.19e-02	0	60	0	517996544	55	7066
2026-01-13 22:19:21.88	86.51	22.14	-42.3	-47.6	9.5	1.53e-02	0	60	0	520093696	55	6941
2026-01-13 22:19:22.88	86.78	22.15	-42.2	-47.5	9.6	1.21e-02	0	60	0	522190848	55	6820
2026-01-13 22:19:23.89	87.05	22.15	-42.1	-47.0	10.1	9.04e-03	0	60	0	524288000	55	6467
2026-01-13 22:19:24.90	87.32	22.15	-42.0	-46.8	10.4	5.66e-03	0	60	0	525336576	55	6287
2026-01-13 22:19:25.91	87.59	22.16	-42.0	-46.8	10.3	4.99e-03	0	60	0	527433728	55	6334
2026-01-13 22:19:26.92	87.86	22.16	-42.0	-46.8	10.3	4.31e-03	0	60	0	529530880	55	6322
2026-01-13 22:19:27.93	88.13	22.16	-42.1	-47.0	10.1	5.21e-03	0	60	0	531628032	55	6462
2026-01-13 22:19:28.94	88.41	22.16	-42.1	-46.9	10.3	6.37e-03	0	60	0	533725184	55	6387
2026-01-13 22:19:29.95	88.68	22.17	-42.0	-46.8	10.4	5.65e-03	0	60	0	534773760	55	6319
2026-01-13 22:19:30.96	88.95	22.17	-42.2	-47.1	10.1	6.41e-03	0	60	0	536870912	55	6520
2026-01-13 22:19:31.97	89.22	22.16	-42.1	-46.9	10.3	5.39e-03	0	60	0	538968064	55	6398
2026-01-13 22:19:32.98	89.49	22.16	-42.1	-46.8	10.3	4.88e-03	0	60	0	541065216	55	6347
2026-01-13 22:19:33.99	89.76	22.16	-42.0	-46.6	10.6	4.12e-03	0	60	0	543162368	55	6187
2026-01-13 22:19:35.00	90.03	22.16	-41.9	-46.4	10.9	2.60e-03	0	60	0	544210944	55	6002
2026-01-13 22:19:36.01	90.30	22.16	-41.9	-46.3	10.9	2.60e-03	0	60	0	546308096	55	5979
2026-01-13 22:19:37.02	90.58	22.15	-41.8	-46.0	11.3	1.68e-03	0	60	0	548405248	55	5781
2026-01-13 22:19:38.03	90.85	22.15	-41.8	-45.9	11.4	9.83e-04	0	60	0	550502400	55	5700
2026-01-13 22:19:39.04	91.12	22.14	-41.6	-45.6	11.8	8.02e-04	0	60	0	552599552	55	5488
2026-01-13 22:19:40.05	91.39	22.14	-41.6	-45.6	11.9	6.52e-04	0	60	0	554696704	55	5475
2026-01-13 22:19:41.05	91.66	22.13	-41.7	-45.8	11.6	6.10e-04	0	60	0	555745280	55	5593
2026-01-13 22:19:42.06	91.93	22.13	-41.7	-45.7	11.7	5.65e-04	0	60	0	557842432	55	5573
2026-01-13 22:19:43.07	92.20	22.12	-41.8	-45.8	11.7	6.55e-04	0	60	0	559939584	55	5598
2026-01-13 22:19:44.08	92.47	22.11	-41.8	-45.9	11.6	6.61e-04	0	60	0	562036736	55	5688
2026-01-13 22:19:45.10	92.74	22.10	-41.9	-45.9	11.6	7.26e-04	0	60	0	564133888	55	5715
2026-01-13 22:19:46.10	93.01	22.09	-41.9	-46.0	11.5	7.50e-04	0	60	0	565182464	55	5759
2026-01-13 22:19:47.12	93.28	22.08	-41.9	-46.0	11.5	7.51e-04	0	60	0	567279616	55	5732
2026-01-13 22:19:48.13	93.55	22.07	-41.9	-45.9	11.7	5.23e-04	0	60	0	569376768	55	5680
2026-01-13 22:19:49.13	93.82	22.06	-41.9	-45.9	11.7	5.61e-04	0	60	0	571473920	55	5675
2026-01-13 22:19:50.14	94.09	22.05	-41.9	-45.9	11.7	5.02e-04	0	60	0	573571072	55	5672
2026-01-13 22:19:51.15	94.36	22.03	-41.9	-46.0	11.6	6.29e-04	0	60	0	574619648	55	5744
2026-01-13 22:19:52.16	94.63	22.02	-42.1	-46.3	11.3	8.95e-04	0	60	0	576716800	55	5971
2026-01-13 22:19:53.17	94.89	22.01	-42.1	-46.3	11.3	1.07e-03	0	60	0	578813952	55	5962
2026-01-13 22:19:54.18	95.16	21.99	-42.1	-46.2	11.4	9.86e-04	0	60	0	580911104	55	5921
2026-01-13 22:19:55.19	95.43	21.98	-42.0	-46.1	11.5	8.74e-04	0	60	0	583008256	55	5838
2026-01-13 22:19:56.20	95.70	21.96	-41.9	-45.9	11.7	6.57e-04	0	60	0	584056832	55	5675
2026-01-13 22:19:57.21	95.97	21.95	-42.0	-46.0	11.6	6.78e-04	0	60	0	586153984	55	5760
2026-01-13 22:19:58.22	96.23	21.93	-42.0	-46.0	11.6	8.84e-04	0	60	0	588251136	55	5765
2026-01-13 22:19:59.23	96.50	21.91	-42.2	-46.5	11.2	1.06e-03	0	60	0	590348288	55	6068
2026-01-13 22:20:00.24	96.77	21.89	-42.3	-46.6	11.0	1.72e-03	0	60	0	592445440	55	6190
2026-01-13 22:20:01.25	97.04	21.87	-42.3	-46.8	10.9	1.75e-03	0	60	0	593494016	55	6298
2026-01-13 22:20:02.26	97.30	21.85	-42.2	-46.6	11.0	1.77e-03	0	60	0	595591168	55	6191
2026-01-13 22:20:03.26	97.56	21.83	-42.0	-46.0	11.7	1.35e-03	0	60	0	597688320	55	5746
2026-01-13 22:20:04.27	97.83	21.81	-41.8	-45.7	12.0	3.58e-04	0	60	0	599785472	55	5547
2026-01-13 22:20:05.28	98.10	21.79	-41.7	-45.4	12.3	2.36e-04	0	60	0	601882624	55	5389
2026-01-13 22:20:06.29	98.36	21.77	-41.8	-45.5	12.1	2.16e-04	0	60	0	602931200	55	5460
2026-01-13 22:20:07.30	98.63	21.75	-41.8	-45.6	12.1	2.68e-04	0	60	0	605028352	55	5508
2026-01-13 22:20:08.31	98.89	21.72	-41.8	-45.7	12.0	2.58e-04	0	60	0	607125504	55	5536
2026-01-13 22:20:09.32	99.15	21.70	-41.8	-45.7	12.1	3.32e-04	0	60	0	609222656	55	5533
2026-01-13 22:20:10.33	99.42	21.68	-41.8	-45.6	12.2	2.82e-04	0	60	0	611319808	55	5473
2026-01-13 22:20:11.34	99.68	21.65	-41.7	-45.4	12.3	2.04e-04	0	60	0	612368384	55	5385
2026-01-13 22:20:12.35	99.94	21.63	-41.5	-45.1	12.7	1.43e-04	0	60	0	614465536	55	5170
2026-01-13 22:20:13.36	100.20	21.60	-41.5	-45.1	12.6	1.23e-04	0	60	0	616562688	55	5189
2026-01-13 22:20:14.37	100.47	21.57	-41.6	-45.2	12.6	1.04e-04	0	60	0	618659840	55	5221
2026-01-13 22:20:15.38	100.73	21.55	-41.6	-45.3	12.5	9.91e-05	0	60	0	620756992	55	5283
2026-01-13 22:20:16.39	100.99	21.52	-41.6	-45.3	12.4	1.17e-04	0	60	0	622854144	55	5307
2026-01-13 22:20:17.40	101.25	21.49	-41.7	-45.4	12.3	1.69e-04	0	60	0	623902720	55	5365
2026-01-13 22:20:18.41	101.51	21.46	-41.7	-45.4	12.4	1.78e-04	0	60	0	625999872	55	5349
2026-01-13 22:20:19.42	101.77	21.43	-41.7	-45.4	12.4	1.80e-04	0	60	0	628097024	55	5352
2026-01-13 22:20:20.43	102.03	21.40	-41.6	-45.3	12.4	1.77e-04	0	60	0	630194176	55	5327
2026-01-13 22:20:21.44	102.29	21.37	-41.6	-45.2	12.5	9.99e-05	0	60	0	632291328	55	5274
2026-01-13 22:20:22.45	102.54	21.34	-41.6	-45.3	12.4	1.47e-04	0	60	0	633339904	55	5326
2026-01-13 22:20:23.45	102.80	21.31	-41.7	-45.3	12.4	1.38e-04	0	60	0	635437056	55	5340
2026-01-13 22:20:24.46	103.06	21.28	-41.7	-45.5	12.2	1.98e-04	0	60	0	637534208	55	5452
2026-01-13 22:20:25.47	103.31	21.25	-41.8	-45.7	12.0	2.80e-04	0	60	0	639631360	55	5545
2026-01-13 22:20:26.48	103.57	21.21	-41.9	-45.8	11.9	3.49e-04	0	60	0	640679936	55	5649
2026-01-13 22:20:27.49	103.82	21.18	-41.8	-45.6	12.1	2.91e-04	0	60	0	642777088	55	5496
2026-01-13 22:20:28.50	104.08	21.14	-41.8	-45.5	12.2	3.05e-04	0	60	0	644874240	55	5453
2026-01-13 22:20:29.51	104.33	21.11	-41.7	-45.4	12.3	2.14e-04	0	60	0	646971392	55	5387
2026-01-13 22:20:30.52	104.59	21.07	-41.6	-45.4	12.4	1.59e-04	0	60	0	649068544	55	5343
2026-01-13 22:20:31.53	104.84	21.04	-41.6	-45.3	12.4	1.32e-04	0	60	0	651165696	55	5299
2026-01-13 22:20:32.54	105.09	21.00	-41.5	-45.2	12.6	1.14e-04	0	60	0	652214272	55	5226
2026-01-13 22:20:33.55	105.34	20.97	-41.5	-45.0	12.7	1.01e-04	0	60	0	654311424	54	5455
2026-01-13 22:20:34.56	105.60	20.93	-41.4	-44.9	12.9	9.38e-05	0	60	0	656408576	54	5371
2026-01-13 22:20:35.57	105.85	20.89	-41.5	-45.0	12.8	8.77e-05	0	60	0	658505728	54	5435
2026-01-13 22:20:36.58	106.10	20.85	-41.4	-44.9	12.9	4.57e-05	0	60	0	660602880	54	5350
2026-01-13 22:20:37.59	106.35	20.81	-41.5	-45.0	12.7	4.65e-05	0	60	0	661651456	54	5462
2026-01-13 22:20:38.60	106.60	20.77	-41.5	-45.1	12.6	9.99e-05	0	60	0	663748608	54	5516
2026-01-13 22:20:39.61	106.84	20.73	-41.7	-45.4	12.4	1.40e-04	0	60	0	665845760	54	5672
2026-01-13 22:20:40.62	107.09	20.69	-41.7	-45.4	12.3	1.66e-04	0	60	0	667942912	54	5711
2026-01-13 22:20:41.63	107.34	20.65	-41.7	-45.4	12.3	2.17e-04	0	60	0	670040064	54	5720
2026-01-13 22:20:42.63	107.58	20.61	-41.7	-45.5	12.2	2.77e-04	0	60	0	671088640	54	5783
2026-01-13 22:20:43.64	107.83	20.57	-41.7	-45.5	12.3	1.84e-04	0	60	0	673185792	54	5735
2026-01-13 22:20:44.65	108.07	20.53	-41.7	-45.3	12.4	1.53e-04	0	60	0	675282944	54	5655
2026-01-13 22:20:45.66	108.32	20.49	-41.7	-45.5	12.2	1.86e-04	0	60	0	677380096	54	5780
2026-01-13 22:20:46.67	108.56	20.44	-41.7	-45.5	12.3	1.43e-04	0	60	0	679477248	54	5728
2026-01-13 22:20:47.68	108.81	20.40	-41.8	-45.6	12.1	2.14e-04	0	60	0	680525824	54	5824
2026-01-13 22:20:48.69	109.05	20.36	-41.9	-45.9	11.9	3.38e-04	0	60	0	682622976	54	6045
2026-01-13 22:20:49.70	109.29	20.31	-42.0	-46.1	11.6	5.26e-04	0	60	0	684720128	54	6150
2026-01-13 22:20:50.71	109.53	20.27	-42.0	-46.0	11.7	7.23e-04	0	60	0	686817280	54	6106
2026-01-13 22:20:51.72	109.77	20.22	-41.9	-45.9	11.9	7.68e-04	0	60	0	688914432	54	5994
2026-01-13 22:20:52.73	110.01	20.18	-41.8	-45.6	12.1	2.45e-04	0	60	0	689963008	54	5828
2026-01-13 22:20:53.74	110.25	20.13	-41.7	-45.5	12.2	1.82e-04	0	60	0	692060160	54	5766
2026-01-13 22:20:54.75	110.49	20.08	-41.6	-45.3	12.5	1.60e-04	0	60	0	694157312	54	5595
2026-01-13 22:20:55.76	110.73	20.04	-41.6	-45.2	12.5	9.84e-05	0	60	0	696254464	54	5565
2026-01-13 22:20:56.77	110.96	19.99	-41.4	-45.0	12.8	8.23e-05	0	60	0	698351616	54	5417
2026-01-13 22:20:57.78	111.20	19.94	-41.5	-45.1	12.6	8.16e-05	0	60	0	699400192	54	5511
2026-01-13 22:20:58.79	111.44	19.90	-41.6	-45.3	12.4	1.07e-04	0	60	0	701497344	54	5633
2026-01-13 22:20:59.80	111.67	19.85	-41.8	-45.6	12.2	1.80e-04	0	60	0	703594496	54	5838
2026-01-13 22:21:00.80	111.90	19.80	-42.1	-46.3	11.4	3.76e-04	0	60	0	705691648	54	6309
2026-01-13 22:21:01.81	112.14	19.75	-42.3	-46.8	10.9	1.30e-03	0	60	0	707788800	55	6299
2026-01-13 22:21:02.82	112.37	19.70	-42.5	-47.1	10.5	3.18e-03	0	60	0	708837376	55	6537
2026-01-13 22:21:03.83	112.60	19.65	-42.6	-47.3	10.3	4.73e-03	0	60	0	710934528	55	6694
2026-01-13 22:21:04.84	112.83	19.60	-42.6	-47.6	10.0	5.03e-03	0	60	0	713031680	55	6900
2026-01-13 22:21:05.85	113.06	19.55	-42.5	-47.3	10.3	5.10e-03	0	60	0	715128832	55	6667
2026-01-13 22:21:06.86	113.29	19.50	-42.5	-47.1	10.5	3.90e-03	0	60	0	717225984	55	6529
2026-01-13 22:21:07.87	113.52	19.45	-42.4	-47.0	10.6	2.83e-03	0	60	0	719323136	55	6468
2026-01-13 22:21:08.88	113.75	19.40	-42.4	-46.9	10.7	2.61e-03	0	60	0	720371712	55	6407
2026-01-13 22:21:09.89	113.98	19.34	-42.4	-46.9	10.8	2.90e-03	0	60	0	722468864	55	6367
2026-01-13 22:21:10.90	114.21	19.29	-42.4	-47.0	10.6	2.41e-03	0	60	0	724566016	55	6469
2026-01-13 22:21:11.91	114.43	19.24	-42.3	-46.7	10.9	2.13e-03	0	60	0	726663168	55	6261
2026-01-13 22:21:12.92	114.66	19.19	-42.2	-46.6	11.0	2.08e-03	0	60	0	728760320	55	6169
2026-01-13 22:21:13.93	114.88	19.13	-42.2	-46.6	11.0	1.73e-03	0	60	0	729808896	55	6166
2026-01-13 22:21:14.94	115.11	19.08	-42.2	-46.5	11.1	1.29e-03	0	60	0	731906048	55	6117
2026-01-13 22:21:15.95	115.33	19.03	-42.3	-46.7	11.0	1.99e-03	0	60	0	734003200	55	6217
2026-01-13 22:21:16.96	115.55	18.97	-42.1	-46.6	11.0	2.06e-03	0	60	0	736100352	55	6194
2026-01-13 22:21:17.97	115.77	18.92	-42.3	-46.8	10.8	2.04e-03	0	60	0	738197504	55	6309
2026-01-13 22:21:18.98	115.99	18.86	-42.3	-46.8	10.8	2.27e-03	0	61	0	739246080	55	6286
2026-01-13 22:21:19.99	116.21	18.81	-42.1	-46.4	11.3	1.44e-03	0	60	0	741343232	55	6039
2026-01-13 22:21:21.00	116.43	18.75	-42.1	-46.3	11.3	1.40e-03	0	61	0	743440384	55	5991
2026-01-13 22:21:22.01	116.65	18.70	-42.1	-46.3	11.3	1.51e-03	0	60	0	745537536	55	5928
2026-01-13 22:21:23.02	116.87	18.64	-42.3	-46.7	10.9	1.80e-03	0	60	0	747634688	55	6215
2026-01-13 22:21:24.03	117.08	18.59	-42.4	-47.1	10.5	2.75e-03	0	60	0	748683264	55	6496
2026-01-13 22:21:25.03	117.30	18.53	-42.6	-47.7	9.9	5.63e-03	0	60	0	750780416	55	6960
2026-01-13 22:21:26.04	117.51	18.47	-42.9	-48.1	9.6	1.08e-02	0	60	0	752877568	56	6948
2026-01-13 22:21:27.05	117.73	18.42	-43.0	-48.5	9.3	1.68e-02	0	60	0	754974720	56	7209
2026-01-13 22:21:28.06	117.94	18.36	-42.9	-48.2	9.5	1.96e-02	0	60	0	757071872	56	7022
2026-01-13 22:21:29.07	118.15	18.30	-42.8	-47.9	9.8	1.36e-02	0	60	0	758120448	56	6764
2026-01-13 22:21:30.08	118.37	18.24	-41.4	-47.4	9.3	8.43e-03	0	60	0	760217600	54	7136
2026-01-13 22:21:31.09	118.58	18.19	-42.3	-46.8	10.8	5.04e-03	0	60	0	762314752	55	6294
2026-01-13 22:21:32.10	118.79	18.13	-42.2	-46.7	10.9	2.56e-03	0	60	0	764411904	55	6213
2026-01-13 22:21:33.11	119.00	18.07	-42.2	-46.7	10.8	2.97e-03	0	60	0	766509056	55	6252
2026-01-13 22:21:34.12	119.21	18.01	-42.3	-46.8	10.6	3.03e-03	0	60	0	767557632	55	6327
2026-01-13 22:21:35.13	119.42	17.95	-42.4	-47.2	10.4	5.97e-03	0	60	0	769654784	55	6601
2026-01-13 22:21:36.14	119.62	17.89	-42.5	-47.4	10.1	8.76e-03	0	60	0	771751936	55	6747
2026-01-13 22:21:37.15	119.83	17.83	-42.5	-47.4	10.1	6.56e-03	0	60	0	773849088	55	6789
2026-01-13 22:21:38.16	120.04	17.78	-42.5	-47.2	10.3	5.66e-03	0	60	0	775946240	55	6641
2026-01-13 22:21:39.18	120.24	17.71	-42.4	-47.0	10.6	4.65e-03	0	60	0	776994816	55	6426
2026-01-13 22:21:40.19	120.45	17.65	-42.2	-46.7	10.9	3.20e-03	0	60	0	779091968	55	6239
2026-01-13 22:21:41.19	120.65	17.60	-42.2	-46.6	10.9	1.94e-03	0	60	0	781189120	55	6184
2026-01-13 22:21:42.20	120.85	17.54	-42.2	-46.7	10.8	1.98e-02	0	60	0	783286272	55	6221
2026-01-13 22:21:43.21	121.05	17.47	-37.7	-46.0	10.4	1.47e-02	0	60	0	785383424	51	7231
2026-01-13 22:21:44.22	121.25	17.41	-42.3	-46.8	10.7	2.22e-03	0	60	0	787480576	55	6318
2026-01-13 22:21:45.23	121.45	17.35	-42.3	-46.9	10.6	3.02e-03	0	60	0	788529152	55	6385
2026-01-13 22:21:46.24	121.65	17.29	-42.2	-46.6	10.9	2.17e-03	0	60	0	790626304	54	6549
2026-01-13 22:21:47.25	121.85	17.23	-42.3	-46.9	10.6	1.35e-02	0	60	0	792723456	55	6395
2026-01-13 22:21:48.26	122.05	17.17	-42.1	-46.4	11.1	1.86e-03	0	60	0	794820608	55	6045
2026-01-13 22:21:49.27	122.25	17.11	-42.1	-46.4	11.1	1.33e-03	0	60	0	796917760	55	6026
2026-01-13 22:21:50.28	122.44	17.05	-42.0	-46.2	11.3	1.60e-03	0	60	0	797966336	55	5923
2026-01-13 22:21:51.29	122.64	16.98	-42.1	-46.4	11.2	1.43e-03	0	60	0	800063488	55	5999
2026-01-13 22:21:52.30	122.84	16.92	-42.3	-46.8	10.7	6.19e-03	0	60	0	802160640	55	6307
2026-01-13 22:21:53.31	123.03	16.86	-42.3	-47.0	10.5	1.06e-02	0	60	0	804257792	55	6454
2026-01-13 22:21:54.31	123.22	16.80	-42.3	-47.0	10.5	4.15e-03	0	60	0	806354944	55	6443
2026-01-13 22:21:55.32	123.41	16.74	-41.7	-47.1	10.4	4.38e-03	0	60	0	807403520	55	6507
2026-01-13 22:21:56.34	123.61	16.67	-42.2	-46.7	10.8	2.98e-03	0	60	0	809500672	55	6217
2026-01-13 22:21:57.35	123.80	16.61	-41.9	-46.1	11.4	1.77e-03	0	60	0	811597824	55	5833
2026-01-13 22:21:58.36	123.99	16.55	-41.7	-45.9	11.6	6.52e-03	0	60	0	813694976	53	6377
2026-01-13 22:21:59.36	124.18	16.48	-41.6	-45.7	11.8	5.72e-03	0	60	0	815792128	54	5905
2026-01-13 22:22:00.37	124.36	16.42	-41.7	-45.6	11.8	4.42e-04	0	60	0	816840704	54	5847
2026-01-13 22:22:01.38	124.55	16.36	-41.7	-45.7	11.6	5.09e-04	0	60	0	818937856	52	6645
2026-01-13 22:22:02.39	124.74	16.29	-41.9	-46.1	11.4	1.05e-03	0	60	0	821035008	54	6153
2026-01-13 22:22:03.40	124.93	16.23	-42.0	-46.3	11.1	1.17e-03	0	60	0	823132160	54	6345
2026-01-13 22:22:04.41	125.11	16.17	-39.9	-46.8	10.7	6.54e-03	0	61	0	825229312	53	7113
2026-01-13 22:22:05.42	125.30	16.10	-42.1	-46.6	10.7	8.84e-03	0	61	0	826277888	54	6551
2026-01-13 22:22:06.43	125.48	16.04	-42.2	-46.7	10.7	5.16e-03	0	60	0	828375040	54	6618
2026-01-13 22:22:07.44	125.66	15.97	-42.2	-46.9	10.5	4.23e-03	0	60	0	830472192	55	6369
2026-01-13 22:22:08.44	125.84	15.91	-41.9	-46.8	10.5	3.66e-03	0	60	0	832569344	55	6319
2026-01-13 22:22:09.46	126.03	15.85	-41.5	-46.9	10.5	4.13e-03	0	60	0	834666496	53	7164
2026-01-13 22:22:10.46	126.21	15.78	-42.2	-47.0	10.1	6.61e-03	0	60	0	835715072	55	6493
2026-01-13 22:22:11.47	126.39	15.72	-42.4	-47.3	10.0	5.85e-03	0	60	0	837812224	55	6679
2026-01-13 22:22:12.49	126.57	15.65	-42.3	-47.5	9.8	9.69e-03	0	60	0	839909376	55	6868
2026-01-13 22:22:13.49	126.75	15.59	-42.4	-47.4	9.5	1.15e-02	0	60	0	842006528	54	7199
2026-01-13 22:22:14.50	126.92	15.52	-42.4	-47.4	9.9	1.00e-01	0	61	0	844103680	55	6739
2026-01-13 22:22:15.51	127.10	15.46	-42.1	-47.1	10.2	7.93e-03	0	60	0	845152256	55	6511
2026-01-13 22:22:16.52	127.28	15.39	-41.7	-46.4	10.8	5.15e-03	0	60	0	847249408	54	6409
2026-01-13 22:22:17.53	127.45	15.33	-41.3	-46.2	11.0	5.98e-03	0	60	0	849346560	54	6217
2026-01-13 22:22:18.54	127.63	15.26	-36.9	-46.0	10.8	9.15e-02	0	61	0	851443712	44	10837
2026-01-13 22:22:19.55	127.80	15.20	-41.6	-45.8	10.8	1.04e-02	0	60	0	853540864	53	6319
2026-01-13 22:22:20.56	127.98	15.13	-41.5	-45.9	11.2	9.82e-03	0	60	0	855638016	53	6391
2026-01-13 22:22:21.57	128.15	15.07	-41.6	-45.9	11.0	1.14e-02	0	60	0	856686592	53	6383
2026-01-13 22:22:22.59	128.32	15.00	-41.7	-46.3	10.2	2.66e-01	0	60	0	858783744	53	6689
2026-01-13 22:22:23.60	128.49	14.94	-41.6	-46.4	10.1	2.88e-02	0	60	0	860880896	52	7189
2026-01-13 22:22:24.60	128.66	14.87	-40.8	-46.8	9.2	6.94e-02	0	61	0	861929472	51	7963
2026-01-13 22:22:25.61	128.83	14.81	-40.8	-46.4	9.8	9.11e-02	0	61	0	864026624	52	7178
2026-01-13 22:22:26.62	129.00	14.74	-40.9	-46.2	9.9	3.12e-01	0	60	0	866123776	52	7001
2026-01-13 22:22:27.64	129.17	14.68	-40.8	-45.7	10.0	5.94e-02	0	60	0	868220928	52	6643
2026-01-13 22:22:28.65	129.34	14.61	-39.0	-45.4	10.6	9.28e-02	0	61	0	870318080	51	6776
2026-01-13 22:22:29.66	129.51	14.54	-40.1	-45.4	10.3	7.40e-02	0	60	0	870318080	50	7128
2026-01-13 22:22:30.67	129.67	14.48	-40.1	-45.3	10.2	2.89e-01	0	60	0	870318080	50	7112
2026-01-13 22:22:31.68	129.84	14.41	-40.1	-45.5	9.5	1.32e-01	0	60	0	870318080	50	7247
2026-01-13 22:22:32.69	130.00	14.35	-39.7	-45.5	9.9	1.41e-01	0	61	0	871366656	50	7282
2026-01-13 22:22:33.70	130.17	14.28	-39.1	-45.4	8.9	1.65e-01	0	60	0	873463808	45	9516
2026-01-13 22:22:34.71	130.33	14.21	-39.3	-46.1	8.5	1.04e+00	0	61	104	874512384	49	8182
2026-01-13 22:22:35.72	130.49	14.15	-39.4	-46.2	8.8	6.06e-01	0	60	0	874512384	48	8798
2026-01-13 22:22:36.73	130.66	14.08	-39.1	-46.0	8.6	4.07e-01	0	61	0	876609536	48	8650
2026-01-13 22:22:37.74	130.82	14.02	-38.7	-46.0	8.6	2.42e-01	0	60	0	878706688	47	9101
2026-01-13 22:22:38.75	130.98	13.95	-38.3	-46.0	8.0	9.21e-01	0	61	104	878706688	46	9691
2026-01-13 22:22:39.76	131.14	13.88	-31.7	-43.6	7.3	2.93e-01	0	60	0	879755264	40	10398
2026-01-13 22:22:40.77	131.30	13.82	-22.8	-36.2	4.4	6.32e-01	0	60	0	881852416	34	6260
2026-01-13 22:22:41.78	131.46	13.75	-36.7	-46.6	7.5	4.21e-01	0	60	0	881852416	40	14647
2026-01-13 22:22:42.79	131.61	13.69	-37.8	-46.5	7.1	8.48e-01	0	61	104	882900992	45	10886
2026-01-13 22:22:43.80	131.77	13.62	-33.1	-46.0	7.1	4.51e-01	0	60	0	883949568	40	13683
2026-01-13 22:22:44.81	131.93	13.55	-37.9	-46.8	5.1	1.27e+00	0	61	104	884998144	40	14984
2026-01-13 22:22:45.82	132.08	13.49	-33.9	-46.3	5.2	1.29e+00	0	60	104	884998144	44	11214
2026-01-13 22:22:46.83	132.24	13.42	-33.7	-46.1	4.5	1.30e+00	0	61	104	884998144	28	27510
2026-01-13 22:22:47.83	132.39	13.36	-37.8	-46.1	5.2	1.25e+00	0	60	104	884998144	41	12969
2026-01-13 22:22:48.84	132.54	13.29	-38.3	-46.6	7.3	6.76e-01	0	61	0	884998144	46	10344
2026-01-13 22:22:49.85	132.70	13.22	-35.9	-45.9	7.8	3.19e-01	0	61	0	887095296	46	9578
2026-01-13 22:22:50.86	132.85	13.16	-37.5	-46.2	7.2	8.68e-01	0	61	0	888143872	39	14782
2026-01-13 22:22:51.88	133.00	13.09	-36.3	-45.4	7.8	3.77e-01	0	60	0	889192448	41	12037
2026-01-13 22:22:52.88	133.15	13.02	-37.9	-45.4	5.5	6.12e-01	0	60	104	891289600	39	13562
2026-01-13 22:22:53.89	133.30	12.96	-38.0	-46.0	7.9	2.91e-01	0	61	0	891289600	46	9679
2026-01-13 22:22:54.90	133.45	12.89	-38.5	-46.2	4.0	3.66e-01	0	61	104	893386752	41	13169
2026-01-13 22:22:55.91	133.60	12.83	-38.8	-46.4	7.8	1.26e+00	0	60	0	893386752	46	10149
2026-01-13 22:22:56.92	133.75	12.76	-38.9	-46.7	7.5	3.94e-01	0	60	0	894435328	46	10448
2026-01-13 22:22:57.93	133.90	12.69	-37.7	-46.3	7.5	3.79e-01	0	60	0	896532480	43	11901
2026-01-13 22:22:58.94	134.05	12.63	-39.0	-47.6	5.1	2.61e-01	0	61	104	898629632	47	10947
2026-01-13 22:22:59.95	134.19	12.56	-39.5	-47.4	7.5	2.66e-01	0	61	0	898629632	47	10687
2026-01-13 22:23:00.96	134.34	12.49	-40.1	-47.1	8.1	4.09e-01	0	61	0	900726784	49	9268
2026-01-13 22:23:01.97	134.49	12.43	-40.1	-47.0	8.5	2.10e-01	0	61	0	902823936	50	8654
2026-01-13 22:23:02.98	134.63	12.36	-40.3	-47.1	8.7	1.25e-01	0	61	0	904921088	51	8270
2026-01-13 22:23:03.99	134.77	12.30	-40.4	-47.0	8.0	2.00e-01	0	60	0	907018240	46	10780
2026-01-13 22:23:05.00	134.92	12.23	-40.7	-47.1	5.2	2.36e-01	0	60	104	908066816	50	8677
2026-01-13 22:23:06.01	135.06	12.16	-41.6	-47.9	8.4	1.42e-01	0	61	0	909115392	52	8496
2026-01-13 22:23:07.02	135.20	12.10	-40.6	-47.1	8.2	1.16e-01	0	60	0	910163968	51	8220
2026-01-13 22:23:08.03	135.34	12.03	-41.4	-47.7	8.3	1.09e-01	0	60	0	912261120	53	7882
2026-01-13 22:23:09.04	135.49	11.97	-40.1	-47.5	8.4	1.46e-01	0	60	0	914358272	52	8125
2026-01-13 22:23:10.05	135.63	11.90	-40.8	-47.3	8.7	2.88e-01	0	60	0	916455424	53	7466
2026-01-13 22:23:11.06	135.77	11.83	-38.9	-47.2	8.6	1.59e-01	0	60	0	918552576	53	7451
2026-01-13 22:23:12.07	135.90	11.77	-41.3	-46.7	9.1	1.65e-01	0	61	0	919601152	53	7006
2026-01-13 22:23:13.08	136.04	11.70	-40.5	-46.6	9.1	8.29e-02	0	60	0	921698304	51	7767
2026-01-13 22:23:14.09	136.18	11.64	-39.0	-46.5	8.6	8.98e-02	0	61	0	923795456	49	8576
2026-01-13 22:23:15.10	136.32	11.57	-41.1	-46.3	9.8	7.84e-02	0	61	0	925892608	52	7082
2026-01-13 22:23:16.11	136.46	11.50	-41.0	-46.3	9.8	4.68e-02	0	61	0	927989760	51	7465
2026-01-13 22:23:17.12	136.59	11.44	-40.9	-46.2	9.6	5.80e-01	0	61	0	929038336	52	7020
2026-01-13 22:23:18.13	136.73	11.37	-37.6	-46.2	8.6	4.52e-02	0	61	0	931135488	48	8764
2026-01-13 22:23:19.14	136.86	11.31	-41.6	-46.8	9.2	4.45e-02	0	61	0	933232640	52	7529
2026-01-13 22:23:20.15	137.00	11.24	-41.2	-46.3	9.4	4.82e-02	0	60	0	934281216	52	7081
2026-01-13 22:23:21.16	137.13	11.17	-40.9	-46.6	9.4	4.05e-02	0	60	0	936378368	53	6925
2026-01-13 22:23:22.17	137.26	11.11	-40.7	-46.9	9.2	4.21e-02	0	60	0	938475520	53	7164
2026-01-13 22:23:23.18	137.40	11.04	-42.0	-47.6	8.9	3.68e-01	0	60	0	940572672	53	7731
2026-01-13 22:23:24.19	137.53	10.98	-41.0	-47.3	8.7	4.90e-02	0	60	0	942669824	53	7489
2026-01-13 22:23:25.20	137.66	10.91	-40.4	-46.5	9.5	5.04e-02	0	60	0	943718400	51	7676
2026-01-13 22:23:26.21	137.79	10.85	-40.6	-45.8	10.1	3.54e-02	0	61	0	945815552	52	6649
2026-01-13 22:23:27.22	137.92	10.78	-41.2	-46.2	9.9	3.49e-02	0	60	0	947912704	51	7400
2026-01-13 22:23:28.22	138.05	10.72	-31.8	-48.4	8.0	3.40e-02	0	61	0	950009856	51	9600
2026-01-13 22:23:29.23	138.18	10.65	-42.0	-48.5	7.5	4.47e-01	0	61	0	951058432	53	8567
2026-01-13 22:23:30.24	138.31	10.59	-41.7	-49.1	7.0	1.47e-01	0	61	0	953155584	54	8739
2026-01-13 22:23:31.25	138.44	10.52	-42.2	-51.4	4.5	2.54e-01	0	60	104	954204160	46	17924
2026-01-13 22:23:32.26	138.56	10.46	-31.4	-45.7	4.3	6.71e-01	0	61	0	954204160	48	8366
2026-01-13 22:23:33.27	138.69	10.39	-42.6	-51.7	5.1	6.63e-01	0	61	0	954204160	54	11779
2026-01-13 22:23:34.28	138.82	10.33	-42.7	-52.9	4.6	8.10e-01	0	61	0	956301312	55	12691
2026-01-13 22:23:35.29	138.94	10.26	-42.7	-52.1	4.8	1.41e+00	0	61	104	957349888	44	21892
2026-01-13 22:23:36.30	139.07	10.20	-42.5	-51.0	4.7	4.84e-01	0	60	0	958398464	45	18245
2026-01-13 22:23:37.31	139.19	10.13	-42.6	-51.2	5.5	5.50e-01	0	61	0	960495616	55	10495
2026-01-13 22:23:38.31	139.32	10.07	-42.3	-49.9	6.3	3.29e-01	0	61	0	962592768	54	9538
2026-01-13 22:23:39.32	139.44	10.00	-41.8	-47.9	8.3	9.66e-02	0	60	0	963641344	54	7546
2026-01-13 22:23:40.33	139.56	9.94	-41.3	-46.5	7.8	1.86e-02	0	61	0	965738496	44	11448
2026-01-13 22:23:41.35	139.69	9.87	-41.5	-46.7	9.6	1.15e-02	0	60	0	967835648	53	7024
2026-01-13 22:23:42.35	139.81	9.81	-42.0	-48.2	8.1	4.89e-02	0	60	0	969932800	54	7872
2026-01-13 22:23:43.36	139.93	9.74	-41.7	-47.1	9.2	3.95e-02	0	60	0	972029952	54	6908
2026-01-13 22:23:44.37	140.05	9.68	-41.7	-46.9	9.5	1.23e-02	0	60	0	973078528	54	6778
2026-01-13 22:23:45.38	140.17	9.61	-41.8	-47.2	9.2	2.47e-02	0	60	0	975175680	54	6987
2026-01-13 22:23:46.39	140.29	9.55	-41.7	-47.1	9.4	1.82e-02	0	60	0	977272832	54	6916
2026-01-13 22:23:47.40	140.41	9.48	-41.8	-47.2	9.2	4.09e-02	0	60	0	979369984	54	6969
2026-01-13 22:23:48.41	140.53	9.42	-41.7	-47.0	9.4	1.61e-02	0	61	0	981467136	54	6872
2026-01-13 22:23:49.42	140.65	9.36	-41.9	-47.4	9.0	1.98e-02	0	61	0	982515712	54	7147
2026-01-13 22:23:50.43	140.77	9.29	-41.8	-47.3	9.1	1.97e-02	0	60	0	984612864	54	7091
2026-01-13 22:23:51.44	140.89	9.23	-41.8	-47.2	9.3	2.31e-02	0	60	0	986710016	54	6994
2026-01-13 22:23:52.45	141.00	9.16	-41.9	-47.3	9.2	3.43e-02	0	61	0	988807168	54	7097
2026-01-13 22:23:53.46	141.12	9.10	-42.0	-47.5	9.0	2.81e-02	0	60	0	990904320	54	7249
2026-01-13 22:23:54.47	141.24	9.04	-42.1	-47.7	8.8	2.88e-02	0	60	0	991952896	54	7433
2026-01-13 22:23:55.47	141.35	8.97	-42.2	-47.9	8.6	3.25e-02	0	60	0	994050048	54	7624
2026-01-13 22:23:56.48	141.47	8.91	-42.2	-48.1	8.5	3.05e-02	0	60	0	996147200	54	7788
2026-01-13 22:23:57.49	141.58	8.84	-42.3	-48.3	8.3	3.38e-02	0	60	0	998244352	55	7491
2026-01-13 22:23:58.50	141.69	8.78	-42.2	-48.0	8.5	4.10e-02	0	60	0	1000341504	55	7262
2026-01-13 22:23:59.51	141.81	8.72	-42.2	-47.9	8.6	4.24e-02	0	61	0	1001390080	55	7178
2026-01-13 22:24:00.52	141.92	8.65	-42.2	-48.0	8.5	3.91e-02	0	60	0	1003487232	55	7279
2026-01-13 22:24:01.53	142.03	8.59	-42.1	-47.8	8.7	3.44e-02	0	61	0	1005584384	55	7085
2026-01-13 22:24:02.54	142.15	8.53	-42.2	-48.0	8.5	3.61e-02	0	60	0	1007681536	55	7275
2026-01-13 22:24:03.55	142.26	8.46	-42.1	-48.0	8.5	3.74e-02	0	61	0	1009778688	55	7220
2026-01-13 22:24:04.56	142.37	8.40	-42.1	-48.0	8.5	4.25e-02	0	61	0	1011875840	55	7216
2026-01-13 22:24:05.57	142.48	8.34	-41.7	-47.7	8.8	3.73e-02	0	60	0	1012924416	55	7014
2026-01-13 22:24:06.58	142.59	8.27	-42.0	-47.6	8.9	2.90e-02	0	61	0	1015021568	55	6946
2026-01-13 22:24:07.59	142.70	8.21	-42.0	-47.5	9.0	2.72e-02	0	61	0	1017118720	54	7271
2026-01-13 22:24:08.60	142.81	8.15	-42.0	-47.6	8.9	2.92e-02	0	60	0	1019215872	54	7315
2026-01-13 22:24:09.61	142.92	8.08	-42.0	-47.5	9.0	2.57e-02	0	60	0	1021313024	54	7263
2026-01-13 22:24:10.62	143.03	8.02	-43.5	-54.2	4.7	2.91e-02	0	61	0	1022361600	57	13131
2026-01-13 22:24:11.63	143.14	7.96	-44.2	-58.1	3.8	1.49e+00	0	60	104	1022361600	58	19585
2026-01-13 22:24:12.64	143.24	7.90	-44.7	-59.3	3.7	1.49e+00	0	61	104	1022361600	60	19883
2026-01-13 22:24:13.65	143.35	7.83	-45.0	-59.6	3.8	1.49e+00	0	61	104	1022361600	60	20623
2026-01-13 22:24:14.66	143.46	7.77	-45.2	-59.8	3.8	1.49e+00	0	61	104	1022361600	60	21111
2026-01-13 22:24:15.67	143.56	7.71	-45.3	-59.9	3.8	1.49e+00	0	61	104	1022361600	61	20228
2026-01-13 22:24:16.68	143.67	7.64	-45.4	-60.0	3.8	1.49e+00	0	60	104	1022361600	61	20446
2026-01-13 22:24:17.69	143.78	7.58	-45.5	-60.1	3.8	1.49e+00	0	60	104	1022361600	61	20639
2026-01-13 22:24:18.70	143.88	7.52	-45.5	-60.1	3.8	1.49e+00	0	61	104	1022361600	61	20762
2026-01-13 22:24:19.71	143.99	7.46	-45.5	-60.1	3.8	1.49e+00	0	61	104	1022361600	61	20682
2026-01-13 22:24:20.72	144.09	7.40	-45.5	-60.0	3.8	1.49e+00	0	61	104	1022361600	61	20479
2026-01-13 22:24:21.73	144.19	7.33	-45.4	-60.0	3.8	1.49e+00	0	61	104	1022361600	61	20310
2026-01-13 22:24:22.74	144.30	7.27	-45.3	-59.9	3.8	1.49e+00	0	61	104	1022361600	61	20228
2026-01-13 22:24:23.75	144.40	7.21	-45.3	-59.9	3.8	1.49e+00	0	61	104	1022361600	61	20082
2026-01-13 22:24:24.77	144.50	7.15	-45.3	-59.8	3.8	1.49e+00	0	61	104	1022361600	61	19986
2026-01-13 22:24:25.78	144.61	7.09	-45.2	-59.7	3.8	1.49e+00	0	61	104	1022361600	61	19820
2026-01-13 22:24:26.79	144.71	7.02	-45.2	-59.7	3.8	1.49e+00	0	61	104	1022361600	61	19833
2026-01-13 22:24:27.80	144.81	6.96	-45.2	-59.7	3.8	1.49e+00	0	61	104	1022361600	61	19790
2026-01-13 22:24:28.81	144.91	6.90	-45.2	-59.7	3.8	1.49e+00	0	60	104	1022361600	61	19813
2026-01-13 22:24:29.82	145.01	6.84	-45.2	-59.7	3.8	1.49e+00	0	61	104	1022361600	61	19808
2026-01-13 22:24:30.83	145.11	6.78	-45.2	-59.7	3.8	1.49e+00	0	60	104	1022361600	61	19756
2026-01-13 22:24:31.84	145.21	6.72	-45.2	-59.7	3.8	1.49e+00	0	61	104	1022361600	61	19757
2026-01-13 22:24:32.85	145.31	6.65	-45.2	-59.7	3.8	1.49e+00	0	60	104	1022361600	61	19722
2026-01-13 22:24:33.86	145.41	6.59	-45.2	-59.7	3.8	1.49e+00	0	60	104	1022361600	61	19694
2026-01-13 22:24:34.87	145.51	6.53	-45.2	-59.7	3.8	1.49e+00	0	61	104	1022361600	61	19729
2026-01-13 22:24:35.88	145.60	6.47	-45.2	-59.7	3.8	1.49e+00	0	61	104	1022361600	61	19674
2026-01-13 22:24:36.89	145.70	6.41	-45.2	-59.7	3.8	1.49e+00	0	61	104	1022361600	61	19712
2026-01-13 22:24:37.91	145.80	6.35	-45.2	-59.7	3.8	1.49e+00	0	60	104	1022361600	61	19745
2026-01-13 22:24:38.92	145.90	6.29	-45.2	-59.7	3.8	1.49e+00	0	61	104	1022361600	61	19763
2026-01-13 22:24:39.93	145.99	6.23	-45.2	-59.7	3.8	1.49e+00	0	61	104	1022361600	61	19706
2026-01-13 22:24:40.94	146.09	6.17	-45.2	-59.7	3.8	1.49e+00	0	61	104	1022361600	61	19717
2026-01-13 22:24:41.95	146.18	6.11	-45.2	-59.7	3.8	1.49e+00	0	61	104	1022361600	61	19684
2026-01-13 22:24:42.96	146.28	6.04	-45.2	-59.7	3.8	1.49e+00	0	61	104	1022361600	61	19708
2026-01-13 22:24:43.97	146.37	5.98	-45.2	-59.7	3.8	1.49e+00	0	61	104	1022361600	61	19684
2026-01-13 22:24:44.98	146.47	5.92	-45.2	-59.7	3.8	1.49e+00	0	61	104	1022361600	61	19700
2026-01-13 22:24:45.99	146.56	5.86	-45.2	-59.7	3.8	1.49e+00	0	61	104	1022361600	61	19690
2026-01-13 22:24:47.00	146.66	5.80	-45.2	-59.7	3.8	1.49e+00	0	61	104	1022361600	61	19716
2026-01-13 22:24:48.01	146.75	5.74	-45.2	-59.7	3.8	1.49e+00	0	60	104	1022361600	61	19676
2026-01-13 22:24:49.02	146.84	5.68	-45.2	-59.7	3.8	1.49e+00	0	61	104	1022361600	61	19661
2026-01-13 22:24:50.03	146.94	5.62	-45.2	-59.7	3.8	1.49e+00	0	61	104	1022361600	61	19660
2026-01-13 22:24:51.05	147.03	5.56	-45.2	-59.7	3.8	1.49e+00	0	60	104	1022361600	61	19667
2026-01-13 22:24:52.06	147.12	5.50	-45.2	-59.7	3.8	1.49e+00	0	61	104	1022361600	61	19657
