passes_logs/2026/01/13/R2.0S_Moscow/R2.0S_Moscow__20260113_025146_FENGYUN_3D_rec.log

#Pass ID: 20260113_025146_FENGYUN 3D
#Satellite: FENGYUN 3D
#Configuration: FENGYUN 3D
#almurnet v.1.7.20251203
#Start time: 2026-01-13 02:56:25

#Version: 2.2.20231116
#Station: R2.0S_Moscow
#Location: 37.707566 lon 55.798166 lat
#TLE: 1 43010U 17072A   26012.32543542  .00000598  00000+0  30457-3 0  9997
#TLE: 2 43010  98.9935 344.1005 0002233 112.6136 247.5276 14.19696644422876

#Time	Az	El	Level	Level2	SNR	BER	BlckErr	Temp	State	Recorded	gain1	gain2
2026-01-13 02:56:25.10	343.95	25.47	-45.9	-64.7	3.8	7.49e-01	0	59	0	0	62	33158
2026-01-13 02:56:26.12	343.72	25.58	-45.2	-56.7	3.8	8.46e-01	0	60	104	0	62	13228
2026-01-13 02:56:27.13	343.50	25.69	-45.2	-56.7	3.8	8.46e-01	0	60	104	0	62	13153
2026-01-13 02:56:28.14	343.27	25.80	-45.2	-56.7	3.8	8.46e-01	0	60	104	0	62	13177
2026-01-13 02:56:29.15	343.04	25.91	-45.1	-56.6	3.8	8.46e-01	0	60	104	0	62	13106
2026-01-13 02:56:30.16	342.81	26.02	-45.1	-56.6	3.8	8.45e-01	0	60	104	0	62	13063
2026-01-13 02:56:31.17	342.58	26.13	-45.1	-56.6	3.8	8.46e-01	0	60	104	0	62	13038
2026-01-13 02:56:32.18	342.35	26.24	-45.0	-56.4	3.8	8.46e-01	0	60	104	0	62	12746
2026-01-13 02:56:33.19	342.11	26.35	-45.0	-56.5	3.8	8.47e-01	0	60	104	0	62	12824
2026-01-13 02:56:34.20	341.88	26.46	-45.0	-56.4	3.8	8.46e-01	0	60	104	0	61	13532
2026-01-13 02:56:35.21	341.64	26.57	-44.9	-56.5	3.8	8.45e-01	0	60	104	0	61	13632
2026-01-13 02:56:36.22	341.40	26.67	-45.0	-56.5	3.8	8.46e-01	0	60	104	0	61	13615
2026-01-13 02:56:37.23	341.16	26.78	-44.9	-56.4	3.8	8.46e-01	0	60	104	0	61	13449
2026-01-13 02:56:38.24	340.91	26.89	-44.9	-56.1	3.8	8.45e-01	0	60	104	0	61	13017
2026-01-13 02:56:39.25	340.67	27.00	-44.9	-55.7	3.8	8.47e-01	0	60	104	0	61	12486
2026-01-13 02:56:40.27	340.42	27.11	-44.9	-55.5	3.8	8.45e-01	0	60	104	0	61	12178
2026-01-13 02:56:41.28	340.17	27.22	-44.9	-55.5	3.8	8.45e-01	0	60	104	0	61	12192
2026-01-13 02:56:42.29	339.92	27.33	-44.9	-55.6	3.8	8.46e-01	0	60	104	0	61	12314
2026-01-13 02:56:43.30	339.67	27.43	-44.9	-55.8	3.8	8.46e-01	0	60	104	0	61	12594
2026-01-13 02:56:44.31	339.42	27.54	-44.9	-55.9	3.8	8.46e-01	0	60	104	0	61	12790
2026-01-13 02:56:45.32	339.16	27.65	-44.9	-56.1	3.8	8.46e-01	0	60	104	0	61	13006
2026-01-13 02:56:46.33	338.90	27.76	-44.9	-56.0	3.8	8.46e-01	0	60	104	0	61	12932
2026-01-13 02:56:47.34	338.65	27.86	-44.9	-55.7	3.8	8.45e-01	0	60	104	0	61	12378
2026-01-13 02:56:48.35	338.39	27.97	-44.8	-55.3	3.8	8.47e-01	0	60	104	0	61	11853
2026-01-13 02:56:49.37	338.12	28.08	-44.8	-55.1	3.8	8.46e-01	0	60	104	0	61	11601
2026-01-13 02:56:50.37	337.86	28.18	-44.8	-55.3	3.8	8.46e-01	0	60	104	0	61	11955
2026-01-13 02:56:51.39	337.59	28.29	-44.8	-55.6	3.8	8.46e-01	0	60	104	0	61	12330
2026-01-13 02:56:52.40	337.32	28.40	-44.9	-55.7	3.8	8.47e-01	0	60	104	0	61	12459
2026-01-13 02:56:53.41	337.05	28.50	-44.8	-55.5	3.8	8.46e-01	0	60	104	0	61	12195
2026-01-13 02:56:54.42	336.78	28.61	-44.8	-55.4	3.8	8.45e-01	0	60	104	0	61	11990
2026-01-13 02:56:55.43	336.51	28.71	-44.7	-54.9	3.8	8.45e-01	0	60	104	0	61	11301
2026-01-13 02:56:56.44	336.23	28.82	-44.6	-53.7	4.0	8.43e-01	0	60	104	0	61	9877
2026-01-13 02:56:57.45	335.96	28.92	-44.4	-52.6	4.3	8.38e-01	0	60	0	0	60	9254
2026-01-13 02:56:58.47	335.68	29.02	-44.4	-52.6	4.3	8.32e-01	0	60	0	0	60	9278
2026-01-13 02:56:59.48	335.40	29.13	-44.7	-54.0	3.9	8.41e-01	0	60	104	0	60	10899
2026-01-13 02:57:00.49	335.11	29.23	-44.9	-56.2	3.8	8.47e-01	0	60	104	0	60	14008
2026-01-13 02:57:01.50	334.83	29.33	-44.9	-55.6	3.8	8.46e-01	0	60	104	0	60	13101
2026-01-13 02:57:02.51	334.55	29.44	-44.4	-52.3	4.4	8.40e-01	0	60	104	0	60	8881
2026-01-13 02:57:03.52	334.26	29.54	-43.9	-49.9	5.5	7.55e-01	0	60	0	0	59	7177
2026-01-13 02:57:04.53	333.97	29.64	-43.6	-49.0	6.2	3.35e-01	0	60	0	4194304	59	6458
2026-01-13 02:57:05.55	333.67	29.74	-43.6	-49.0	6.2	2.97e-01	0	60	0	10485760	59	6460
2026-01-13 02:57:06.56	333.38	29.84	-43.9	-49.8	5.6	4.64e-01	0	60	0	15728640	59	7108
2026-01-13 02:57:07.57	333.09	29.94	-44.4	-52.1	4.4	7.94e-01	0	60	0	16777216	59	9269
2026-01-13 02:57:08.58	332.79	30.04	-44.8	-55.4	3.8	8.46e-01	0	60	104	16777216	60	12805
2026-01-13 02:57:09.59	332.49	30.14	-44.3	-52.2	4.0	8.45e-01	0	60	104	16777216	60	8788
2026-01-13 02:57:10.60	332.19	30.24	-42.9	-47.2	7.8	3.20e-01	0	60	0	19922944	57	5863
2026-01-13 02:57:11.61	331.89	30.33	-41.3	-44.2	10.7	8.76e-03	0	60	0	25165824	54	4980
2026-01-13 02:57:12.62	331.58	30.43	-40.8	-43.4	11.6	1.35e-03	0	60	0	31457280	53	4811
2026-01-13 02:57:13.63	331.28	30.53	-41.3	-44.3	10.6	2.41e-03	0	60	0	36700160	53	5339
2026-01-13 02:57:14.64	330.97	30.62	-42.5	-46.6	8.3	2.46e-02	0	60	0	41943040	55	6138
2026-01-13 02:57:15.65	330.66	30.72	-42.5	-46.5	8.5	7.94e-02	0	60	0	48234496	56	5773
2026-01-13 02:57:16.66	330.35	30.81	-40.1	-42.6	12.5	3.02e-03	0	60	0	53477376	52	4620
2026-01-13 02:57:17.67	330.04	30.91	-38.1	-39.9	15.3	0.00e+00	0	60	0	59768832	48	4261
2026-01-13 02:57:18.68	329.72	31.00	-36.8	-38.4	16.8	0.00e+00	0	60	0	65011712	45	4246
2026-01-13 02:57:19.69	329.40	31.09	-40.4	-42.9	12.4	0.00e+00	0	60	0	70254592	51	5082
2026-01-13 02:57:20.71	329.08	31.19	-41.8	-45.2	9.8	5.31e-03	0	60	0	76546048	54	5548
2026-01-13 02:57:21.72	328.76	31.28	-37.4	-39.1	16.1	0.00e+00	0	61	0	81788928	45	4610
2026-01-13 02:57:22.72	328.44	31.37	-39.6	-41.8	13.6	0.00e+00	0	60	0	88080384	49	5011
2026-01-13 02:57:23.74	328.11	31.46	-41.0	-43.9	11.5	1.83e-05	0	60	0	93323264	52	5383
2026-01-13 02:57:24.75	327.79	31.55	-37.7	-39.4	15.6	8.84e-02	0	60	0	96468992	47	4258
2026-01-13 02:57:25.76	327.46	31.63	-36.3	-37.8	17.4	0.00e+00	0	60	0	102760448	44	4197
2026-01-13 02:57:26.77	327.13	31.72	-36.2	-37.7	17.4	0.00e+00	0	60	0	108003328	44	4178
2026-01-13 02:57:27.78	326.80	31.81	-36.2	-37.8	17.4	0.00e+00	0	60	0	114294784	44	4202
2026-01-13 02:57:28.79	326.46	31.89	-36.3	-37.9	17.3	0.00e+00	0	60	0	119537664	44	4247
2026-01-13 02:57:29.80	326.13	31.98	-36.2	-37.9	17.3	0.00e+00	0	60	0	124780544	44	4265
2026-01-13 02:57:30.81	325.79	32.06	-36.0	-37.9	17.3	0.00e+00	0	60	0	131072000	44	4256
2026-01-13 02:57:31.82	325.45	32.15	-35.6	-37.7	17.3	0.00e+00	0	60	0	136314880	43	4398
2026-01-13 02:57:32.83	325.11	32.23	-35.7	-37.8	17.2	0.00e+00	0	60	0	142606336	43	4454
2026-01-13 02:57:33.84	324.77	32.31	-35.9	-37.6	17.3	0.00e+00	0	60	0	147849216	43	4378
2026-01-13 02:57:34.85	324.43	32.39	-36.0	-37.6	17.4	0.00e+00	0	60	0	153092096	43	4346
2026-01-13 02:57:35.86	324.08	32.47	-36.0	-37.6	17.4	0.00e+00	0	60	0	159383552	43	4341
2026-01-13 02:57:36.87	323.73	32.55	-35.9	-37.4	17.6	0.00e+00	0	60	0	164626432	43	4278
2026-01-13 02:57:37.88	323.38	32.62	-35.9	-37.4	17.6	0.00e+00	0	60	0	170917888	43	4276
2026-01-13 02:57:38.89	323.03	32.70	-36.0	-37.5	17.5	0.00e+00	0	60	0	176160768	43	4313
2026-01-13 02:57:39.90	322.68	32.78	-36.0	-37.5	17.5	0.00e+00	0	60	0	182452224	43	4319
2026-01-13 02:57:40.91	322.33	32.85	-36.0	-37.6	17.4	0.00e+00	0	60	0	187695104	43	4341
2026-01-13 02:57:41.93	321.97	32.92	-36.0	-37.6	17.3	0.00e+00	0	60	0	193986560	43	4378
2026-01-13 02:57:42.94	321.61	33.00	-36.0	-37.6	17.4	0.00e+00	0	60	0	199229440	43	4375
2026-01-13 02:57:43.95	321.25	33.07	-35.9	-37.5	17.4	0.00e+00	0	60	0	204472320	43	4339
2026-01-13 02:57:44.95	320.90	33.14	-35.9	-37.5	17.5	0.00e+00	0	60	0	210763776	43	4307
2026-01-13 02:57:45.97	320.53	33.21	-36.1	-37.6	17.4	0.00e+00	0	61	0	216006656	43	4373
2026-01-13 02:57:46.98	320.17	33.27	-36.2	-37.7	17.3	0.00e+00	0	60	0	222298112	43	4407
2026-01-13 02:57:47.98	319.80	33.34	-36.3	-37.8	17.2	0.00e+00	0	60	0	227540992	43	4447
2026-01-13 02:57:48.99	319.44	33.40	-36.2	-37.7	17.3	0.00e+00	0	60	0	232783872	43	4406
2026-01-13 02:57:50.00	319.07	33.47	-36.3	-37.8	17.2	0.00e+00	0	60	0	239075328	43	4450
2026-01-13 02:57:51.01	318.70	33.53	-36.3	-37.9	17.1	0.00e+00	0	60	0	244318208	43	4497
2026-01-13 02:57:52.02	318.33	33.59	-36.5	-38.0	17.0	0.00e+00	0	60	0	250609664	43	4571
2026-01-13 02:57:53.03	317.96	33.65	-36.3	-37.9	17.1	0.00e+00	0	60	0	255852544	43	4502
2026-01-13 02:57:54.04	317.58	33.71	-36.3	-37.8	17.2	0.00e+00	0	60	0	261095424	43	4465
2026-01-13 02:57:55.05	317.21	33.77	-36.2	-37.7	17.3	0.00e+00	0	60	0	267386880	43	4425
2026-01-13 02:57:56.06	316.83	33.83	-36.2	-37.7	17.3	0.00e+00	0	60	0	272629760	43	4396
2026-01-13 02:57:57.07	316.45	33.88	-36.3	-37.8	17.2	0.00e+00	0	60	0	278921216	43	4464
2026-01-13 02:57:58.08	316.08	33.94	-36.1	-37.6	17.4	0.00e+00	0	60	0	284164096	43	4359
2026-01-13 02:57:59.09	315.70	33.99	-36.1	-37.6	17.4	0.00e+00	0	60	0	290455552	43	4367
2026-01-13 02:58:00.10	315.31	34.04	-36.1	-37.6	17.4	0.00e+00	0	60	0	295698432	43	4351
2026-01-13 02:58:01.11	314.93	34.09	-36.0	-37.5	17.5	0.00e+00	0	60	0	301989888	43	4296
2026-01-13 02:58:02.11	314.55	34.14	-36.1	-37.6	17.4	0.00e+00	0	60	0	307232768	43	4352
2026-01-13 02:58:03.12	314.17	34.19	-36.1	-37.6	17.4	0.00e+00	0	60	0	312475648	43	4352
2026-01-13 02:58:04.13	313.78	34.23	-36.1	-37.6	17.4	0.00e+00	0	60	0	318767104	43	4370
2026-01-13 02:58:05.14	313.39	34.28	-36.2	-37.6	17.3	0.00e+00	0	60	0	324009984	43	4391
2026-01-13 02:58:06.16	313.00	34.32	-36.1	-37.6	17.4	0.00e+00	0	60	0	330301440	43	4376
2026-01-13 02:58:07.17	312.61	34.36	-36.1	-37.6	17.4	0.00e+00	0	60	0	335544320	43	4359
2026-01-13 02:58:08.18	312.22	34.40	-36.2	-37.7	17.3	0.00e+00	0	60	0	340787200	43	4407
2026-01-13 02:58:09.19	311.83	34.44	-36.3	-37.7	17.2	0.00e+00	0	61	0	347078656	43	4432
2026-01-13 02:58:10.20	311.44	34.48	-36.4	-38.0	17.0	0.00e+00	0	60	0	352321536	43	4555
2026-01-13 02:58:11.21	311.04	34.51	-36.4	-38.0	17.0	0.00e+00	0	60	0	358612992	43	4561
2026-01-13 02:58:12.22	310.65	34.55	-36.2	-37.7	17.3	0.00e+00	0	60	0	363855872	43	4413
2026-01-13 02:58:13.23	310.26	34.58	-36.0	-37.5	17.5	0.00e+00	0	60	0	369098752	43	4310
2026-01-13 02:58:14.23	309.86	34.61	-36.0	-37.5	17.5	0.00e+00	0	60	0	375390208	43	4317
2026-01-13 02:58:15.24	309.47	34.64	-36.0	-37.4	17.5	0.00e+00	0	60	0	380633088	43	4290
2026-01-13 02:58:16.25	309.07	34.67	-35.8	-37.2	17.7	0.00e+00	0	60	0	386924544	43	4188
2026-01-13 02:58:17.26	308.67	34.69	-35.8	-37.2	17.8	0.00e+00	0	60	0	392167424	43	4162
2026-01-13 02:58:18.27	308.28	34.72	-35.8	-37.2	17.7	0.00e+00	0	60	0	397410304	43	4189
2026-01-13 02:58:19.28	307.88	34.74	-35.9	-37.4	17.6	0.00e+00	0	60	0	403701760	43	4264
2026-01-13 02:58:20.29	307.48	34.76	-36.1	-37.6	17.4	0.00e+00	0	61	0	408944640	43	4355
2026-01-13 02:58:21.30	307.08	34.78	-36.1	-37.6	17.4	0.00e+00	0	60	0	415236096	43	4348
2026-01-13 02:58:22.31	306.68	34.80	-35.9	-37.4	17.6	0.00e+00	0	60	0	420478976	43	4252
2026-01-13 02:58:23.32	306.28	34.82	-35.9	-37.4	17.6	0.00e+00	0	60	0	426770432	43	4250
2026-01-13 02:58:24.33	305.87	34.83	-35.9	-37.4	17.6	0.00e+00	0	60	0	432013312	43	4249
2026-01-13 02:58:25.35	305.47	34.85	-35.9	-37.3	17.7	0.00e+00	0	61	0	437256192	43	4207
2026-01-13 02:58:26.36	305.07	34.86	-35.8	-37.3	17.7	0.00e+00	0	60	0	443547648	43	4212
2026-01-13 02:58:27.37	304.66	34.87	-35.7	-37.1	17.8	0.00e+00	0	60	0	448790528	43	4136
2026-01-13 02:58:28.38	304.26	34.88	-35.7	-37.1	17.8	0.00e+00	0	60	0	455081984	43	4131
2026-01-13 02:58:29.39	303.86	34.89	-35.8	-37.2	17.7	0.00e+00	0	60	0	460324864	43	4189
2026-01-13 02:58:30.40	303.46	34.89	-36.0	-37.4	17.6	0.00e+00	0	60	0	465567744	43	4267
2026-01-13 02:58:31.41	303.05	34.90	-36.1	-37.6	17.4	0.00e+00	0	60	0	471859200	43	4363
2026-01-13 02:58:32.42	302.65	34.90	-36.1	-37.5	17.4	0.00e+00	0	60	0	477102080	43	4329
2026-01-13 02:58:33.43	302.25	34.90	-35.8	-37.3	17.7	0.00e+00	0	60	0	483393536	43	4209
2026-01-13 02:58:34.43	301.85	34.90	-35.8	-37.2	17.7	0.00e+00	0	60	0	488636416	43	4179
2026-01-13 02:58:35.45	301.44	34.90	-35.9	-37.3	17.7	0.00e+00	0	60	0	494927872	43	4217
2026-01-13 02:58:36.46	301.04	34.89	-36.0	-37.5	17.5	0.00e+00	0	60	0	500170752	43	4311
2026-01-13 02:58:37.46	300.64	34.89	-36.2	-37.6	17.4	0.00e+00	0	60	0	505413632	43	4379
2026-01-13 02:58:38.47	300.23	34.88	-36.2	-37.7	17.3	0.00e+00	0	60	0	511705088	43	4407
2026-01-13 02:58:39.49	299.83	34.87	-36.2	-37.7	17.2	0.00e+00	0	60	0	516947968	43	4441
2026-01-13 02:58:40.50	299.43	34.86	-36.0	-37.5	17.5	0.00e+00	0	60	0	523239424	43	4302
2026-01-13 02:58:41.51	299.02	34.85	-35.8	-37.3	17.7	0.00e+00	0	60	0	528482304	43	4201
2026-01-13 02:58:42.52	298.62	34.84	-36.0	-37.4	17.6	0.00e+00	0	60	0	534773760	43	4271
2026-01-13 02:58:43.53	298.22	34.82	-36.0	-37.5	17.5	0.00e+00	0	60	0	540016640	43	4302
2026-01-13 02:58:44.53	297.82	34.81	-36.1	-37.5	17.4	0.00e+00	0	60	0	545259520	43	4333
2026-01-13 02:58:45.54	297.42	34.79	-36.1	-37.5	17.4	0.00e+00	0	61	0	551550976	43	4324
2026-01-13 02:58:46.56	297.02	34.77	-36.0	-37.4	17.6	0.00e+00	0	60	0	556793856	43	4272
2026-01-13 02:58:47.57	296.62	34.75	-36.0	-37.5	17.5	0.00e+00	0	60	0	563085312	43	4300
2026-01-13 02:58:48.58	296.22	34.72	-36.1	-37.5	17.4	0.00e+00	0	60	0	568328192	43	4332
2026-01-13 02:58:49.59	295.82	34.70	-36.1	-37.5	17.4	0.00e+00	0	61	0	573571072	43	4339
2026-01-13 02:58:50.60	295.42	34.67	-36.0	-37.4	17.5	0.00e+00	0	60	0	579862528	43	4289
2026-01-13 02:58:51.61	295.02	34.64	-35.9	-37.3	17.6	0.00e+00	0	61	0	585105408	43	4230
2026-01-13 02:58:52.62	294.63	34.61	-36.0	-37.4	17.5	0.00e+00	0	60	0	591396864	43	4271
2026-01-13 02:58:53.62	294.23	34.58	-36.1	-37.5	17.4	0.00e+00	0	60	0	596639744	43	4338
2026-01-13 02:58:54.63	293.84	34.55	-36.1	-37.5	17.4	0.00e+00	0	60	0	601882624	43	4334
2026-01-13 02:58:55.64	293.45	34.52	-36.1	-37.6	17.3	0.00e+00	0	60	0	608174080	43	4380
2026-01-13 02:58:56.65	293.05	34.48	-36.1	-37.6	17.4	0.00e+00	0	60	0	613416960	43	4346
2026-01-13 02:58:57.66	292.66	34.45	-36.0	-37.5	17.5	0.00e+00	0	60	0	619708416	43	4306
2026-01-13 02:58:58.67	292.27	34.41	-36.0	-37.4	17.5	0.00e+00	0	60	0	624951296	43	4286
2026-01-13 02:58:59.68	291.88	34.37	-36.1	-37.6	17.3	0.00e+00	0	60	0	631242752	43	4367
2026-01-13 02:59:00.69	291.49	34.33	-36.1	-37.5	17.4	0.00e+00	0	60	0	636485632	43	4337
2026-01-13 02:59:01.70	291.10	34.28	-36.0	-37.5	17.5	0.00e+00	0	60	0	641728512	43	4301
2026-01-13 02:59:02.71	290.71	34.24	-35.9	-37.4	17.5	0.00e+00	0	61	0	648019968	43	4261
2026-01-13 02:59:03.72	290.32	34.20	-36.0	-37.5	17.5	0.00e+00	0	60	0	653262848	43	4303
2026-01-13 02:59:04.73	289.94	34.15	-36.2	-37.7	17.3	0.00e+00	0	60	0	659554304	43	4417
2026-01-13 02:59:05.74	289.55	34.10	-36.3	-37.8	17.2	0.00e+00	0	60	0	664797184	43	4448
2026-01-13 02:59:06.75	289.17	34.05	-36.2	-37.7	17.2	0.00e+00	0	60	0	670040064	43	4426
2026-01-13 02:59:07.76	288.79	34.00	-36.2	-37.7	17.2	0.00e+00	0	60	0	676331520	43	4437
2026-01-13 02:59:08.77	288.40	33.95	-36.2	-37.6	17.3	0.00e+00	0	60	0	681574400	43	4378
2026-01-13 02:59:09.78	288.02	33.89	-36.2	-37.6	17.3	0.00e+00	0	60	0	687865856	43	4390
2026-01-13 02:59:10.79	287.65	33.84	-36.0	-37.5	17.4	0.00e+00	0	61	0	693108736	43	4314
2026-01-13 02:59:11.80	287.27	33.78	-35.9	-37.4	17.6	0.00e+00	0	60	0	698351616	43	4258
2026-01-13 02:59:12.81	286.89	33.72	-35.9	-37.4	17.6	0.00e+00	0	60	0	704643072	43	4266
2026-01-13 02:59:13.82	286.52	33.67	-36.0	-37.5	17.4	0.00e+00	0	60	0	709885952	43	4322
2026-01-13 02:59:14.83	286.14	33.60	-36.1	-37.6	17.4	0.00e+00	0	60	0	716177408	43	4359
2026-01-13 02:59:15.84	285.77	33.54	-36.2	-37.6	17.3	0.00e+00	0	60	0	721420288	43	4390
2026-01-13 02:59:16.85	285.40	33.48	-36.0	-37.5	17.4	0.00e+00	0	60	0	727711744	43	4315
2026-01-13 02:59:17.86	285.03	33.42	-36.1	-37.5	17.4	0.00e+00	0	60	0	732954624	43	4334
2026-01-13 02:59:18.87	284.66	33.35	-35.9	-37.4	17.5	0.00e+00	0	60	0	739246080	43	4270
2026-01-13 02:59:19.88	284.30	33.29	-35.9	-37.4	17.5	0.00e+00	0	60	0	744488960	43	4269
2026-01-13 02:59:20.89	283.93	33.22	-35.9	-37.4	17.5	0.00e+00	0	60	0	749731840	43	4265
2026-01-13 02:59:21.90	283.57	33.15	-36.0	-37.4	17.5	0.00e+00	0	60	0	756023296	43	4267
2026-01-13 02:59:22.91	283.21	33.08	-36.0	-37.4	17.5	0.00e+00	0	60	0	761266176	43	4265
2026-01-13 02:59:23.93	282.85	33.01	-36.0	-37.5	17.4	0.00e+00	0	61	0	767557632	43	4305
2026-01-13 02:59:24.93	282.49	32.94	-36.1	-37.6	17.3	0.00e+00	0	61	0	772800512	43	4377
2026-01-13 02:59:25.95	282.13	32.86	-36.3	-37.8	17.1	0.00e+00	0	61	0	778043392	43	4461
2026-01-13 02:59:26.96	281.78	32.79	-36.5	-38.0	16.9	0.00e+00	0	61	0	784334848	43	4574
2026-01-13 02:59:27.97	281.42	32.71	-36.3	-37.9	17.1	0.00e+00	0	60	0	789577728	43	4499
2026-01-13 02:59:28.98	281.07	32.64	-36.3	-37.8	17.1	0.00e+00	0	60	0	795869184	43	4462
2026-01-13 02:59:29.99	280.72	32.56	-36.3	-37.8	17.1	0.00e+00	0	60	0	801112064	43	4463
2026-01-13 02:59:30.99	280.37	32.48	-36.2	-37.6	17.3	0.00e+00	0	61	0	806354944	43	4390
2026-01-13 02:59:32.00	280.03	32.40	-36.1	-37.6	17.3	0.00e+00	0	60	0	812646400	43	4355
2026-01-13 02:59:33.01	279.68	32.32	-36.1	-37.5	17.4	0.00e+00	0	60	0	817889280	43	4330
2026-01-13 02:59:34.02	279.34	32.24	-35.9	-37.4	17.5	0.00e+00	0	60	0	824180736	43	4260
2026-01-13 02:59:35.03	279.00	32.16	-35.9	-37.3	17.6	0.00e+00	0	60	0	829423616	43	4214
2026-01-13 02:59:36.04	278.66	32.08	-35.9	-37.3	17.6	0.00e+00	0	60	0	835715072	43	4238
2026-01-13 02:59:37.05	278.32	31.99	-36.0	-37.4	17.5	0.00e+00	0	60	0	840957952	43	4268
2026-01-13 02:59:38.06	277.98	31.91	-35.9	-37.4	17.5	0.00e+00	0	60	0	847249408	43	4251
2026-01-13 02:59:39.07	277.65	31.82	-36.0	-37.5	17.4	0.00e+00	0	60	0	852492288	43	4313
2026-01-13 02:59:40.08	277.31	31.73	-36.1	-37.6	17.3	0.00e+00	0	60	0	857735168	43	4348
2026-01-13 02:59:41.09	276.98	31.65	-36.1	-37.6	17.3	0.00e+00	0	60	0	864026624	43	4376
2026-01-13 02:59:42.10	276.65	31.56	-36.0	-37.5	17.4	0.00e+00	0	60	0	869269504	43	4304
2026-01-13 02:59:43.11	276.33	31.47	-36.1	-37.6	17.3	0.00e+00	0	60	0	875560960	43	4349
2026-01-13 02:59:44.12	276.00	31.38	-36.2	-37.7	17.2	0.00e+00	0	60	0	880803840	43	4432
2026-01-13 02:59:45.13	275.68	31.29	-36.4	-38.0	16.9	0.00e+00	0	60	0	886046720	43	4550
2026-01-13 02:59:46.13	275.36	31.20	-36.5	-38.0	16.8	0.00e+00	0	60	0	892338176	43	4585
2026-01-13 02:59:47.14	275.04	31.11	-36.3	-37.8	17.0	0.00e+00	0	60	0	897581056	43	4484
2026-01-13 02:59:48.15	274.72	31.01	-36.2	-37.6	17.2	0.00e+00	0	60	0	903872512	43	4385
2026-01-13 02:59:49.16	274.40	30.92	-36.1	-37.5	17.3	0.00e+00	0	60	0	909115392	43	4340
2026-01-13 02:59:50.17	274.09	30.83	-36.0	-37.5	17.4	0.00e+00	0	60	0	914358272	43	4301
2026-01-13 02:59:51.18	273.77	30.73	-36.1	-37.6	17.3	0.00e+00	0	60	0	920649728	43	4351
2026-01-13 02:59:52.19	273.46	30.64	-36.1	-37.6	17.3	0.00e+00	0	60	0	925892608	43	4371
2026-01-13 02:59:53.20	273.15	30.54	-36.2	-37.7	17.2	0.00e+00	0	60	0	932184064	43	4394
2026-01-13 02:59:54.21	272.85	30.44	-36.1	-37.6	17.3	0.00e+00	0	61	0	937426944	43	4350
2026-01-13 02:59:55.22	272.54	30.35	-36.1	-37.6	17.3	0.00e+00	0	60	0	943718400	43	4364
2026-01-13 02:59:56.23	272.24	30.25	-36.2	-37.6	17.2	0.00e+00	0	60	0	948961280	43	4388
2026-01-13 02:59:57.24	271.93	30.15	-36.2	-37.7	17.2	0.00e+00	0	61	0	954204160	43	4409
2026-01-13 02:59:58.25	271.63	30.05	-36.2	-37.6	17.2	0.00e+00	0	60	0	960495616	43	4391
2026-01-13 02:59:59.26	271.34	29.95	-36.1	-37.6	17.2	0.00e+00	0	60	0	965738496	43	4380
2026-01-13 03:00:00.26	271.04	29.85	-36.2	-37.7	17.2	0.00e+00	0	60	0	972029952	43	4393
2026-01-13 03:00:01.27	270.75	29.75	-36.2	-37.8	17.1	0.00e+00	0	60	0	977272832	43	4443
2026-01-13 03:00:02.28	270.45	29.65	-36.2	-37.7	17.1	0.00e+00	0	60	0	982515712	43	4432
2026-01-13 03:00:03.29	270.16	29.55	-36.2	-37.7	17.2	0.00e+00	0	60	0	988807168	43	4414
2026-01-13 03:00:04.30	269.87	29.45	-36.2	-37.7	17.1	0.00e+00	0	60	0	994050048	43	4412
2026-01-13 03:00:05.31	269.59	29.34	-36.0	-37.5	17.3	0.00e+00	0	61	0	1000341504	43	4318
2026-01-13 03:00:06.32	269.30	29.24	-36.1	-37.5	17.3	0.00e+00	0	60	0	1005584384	43	4332
2026-01-13 03:00:07.33	269.02	29.14	-36.1	-37.5	17.3	0.00e+00	0	61	0	1010827264	43	4324
2026-01-13 03:00:08.34	268.74	29.03	-36.1	-37.6	17.3	0.00e+00	0	60	0	1017118720	43	4356
2026-01-13 03:00:09.36	268.45	28.93	-36.1	-37.6	17.2	0.00e+00	0	60	0	1022361600	43	4368
2026-01-13 03:00:10.37	268.18	28.82	-36.1	-37.5	17.3	0.00e+00	0	61	0	1028653056	43	4328
2026-01-13 03:00:11.38	267.90	28.72	-36.1	-37.5	17.3	0.00e+00	0	60	0	1033895936	43	4335
2026-01-13 03:00:12.39	267.63	28.61	-36.1	-37.6	17.3	0.00e+00	0	60	0	1040187392	43	4348
2026-01-13 03:00:13.40	267.35	28.51	-36.2	-37.7	17.2	0.00e+00	0	61	0	1045430272	43	4400
2026-01-13 03:00:14.40	267.08	28.40	-36.2	-37.7	17.1	0.00e+00	0	60	0	1051721728	43	4427
2026-01-13 03:00:15.41	266.82	28.30	-36.2	-37.7	17.2	0.00e+00	0	60	0	1056964608	43	4392
2026-01-13 03:00:16.42	266.55	28.19	-36.2	-37.7	17.1	0.00e+00	0	60	0	1062207488	43	4416
2026-01-13 03:00:17.43	266.28	28.09	-36.3	-37.8	17.0	0.00e+00	0	60	0	1068498944	43	4468
2026-01-13 03:00:18.44	266.02	27.98	-36.4	-38.0	16.8	0.00e+00	0	60	0	1073741824	43	4559
2026-01-13 03:00:19.45	265.76	27.87	-36.6	-38.1	16.7	0.00e+00	0	60	0	1078984704	43	4642
2026-01-13 03:00:20.46	265.50	27.76	-36.4	-38.0	16.8	0.00e+00	0	60	0	1085276160	43	4565
2026-01-13 03:00:21.47	265.24	27.66	-36.4	-38.0	16.8	0.00e+00	0	60	0	1090519040	43	4558
2026-01-13 03:00:22.48	264.98	27.55	-36.5	-38.0	16.8	0.00e+00	0	60	0	1096810496	43	4588
2026-01-13 03:00:23.49	264.73	27.44	-36.3	-37.8	17.0	0.00e+00	0	60	0	1102053376	43	4485
2026-01-13 03:00:24.50	264.47	27.33	-36.4	-37.8	17.0	0.00e+00	0	60	0	1107296256	43	4492
2026-01-13 03:00:25.51	264.22	27.22	-36.4	-38.0	16.9	0.00e+00	0	60	0	1113587712	43	4546
2026-01-13 03:00:26.52	263.97	27.11	-36.4	-38.0	16.8	0.00e+00	0	60	0	1118830592	43	4569
2026-01-13 03:00:27.53	263.72	27.01	-36.5	-38.0	16.8	0.00e+00	0	60	0	1125122048	43	4579
2026-01-13 03:00:28.54	263.48	26.90	-36.5	-38.0	16.8	0.00e+00	0	60	0	1130364928	43	4574
2026-01-13 03:00:29.55	263.23	26.79	-36.4	-37.9	16.9	0.00e+00	0	60	0	1136656384	43	4526
2026-01-13 03:00:30.56	262.99	26.68	-36.4	-37.9	16.9	0.00e+00	0	60	0	1141899264	43	4542
2026-01-13 03:00:31.57	262.75	26.57	-36.6	-38.1	16.7	0.00e+00	0	60	0	1148190720	43	4631
2026-01-13 03:00:32.58	262.51	26.46	-36.7	-38.3	16.5	0.00e+00	0	60	0	1153433600	43	4706
2026-01-13 03:00:33.59	262.27	26.35	-36.9	-38.5	16.4	0.00e+00	0	60	0	1158676480	44	4594
2026-01-13 03:00:34.60	262.03	26.24	-36.9	-38.5	16.5	0.00e+00	0	60	0	1164967936	44	4583
2026-01-13 03:00:35.61	261.80	26.13	-37.0	-38.6	16.4	0.00e+00	0	60	0	1170210816	44	4622
2026-01-13 03:00:36.62	261.57	26.02	-37.0	-38.6	16.4	0.00e+00	0	60	0	1176502272	44	4627
2026-01-13 03:00:37.63	261.33	25.91	-37.0	-38.6	16.3	0.00e+00	0	61	0	1181745152	44	4642
2026-01-13 03:00:38.64	261.10	25.80	-36.9	-38.5	16.4	0.00e+00	0	60	0	1186988032	44	4583
2026-01-13 03:00:39.65	260.88	25.69	-36.9	-38.5	16.4	0.00e+00	0	60	0	1193279488	44	4587
2026-01-13 03:00:40.66	260.65	25.58	-36.9	-38.5	16.4	0.00e+00	0	60	0	1198522368	44	4594
2026-01-13 03:00:41.67	260.42	25.47	-36.8	-38.4	16.5	0.00e+00	0	60	0	1204813824	44	4521
2026-01-13 03:00:42.68	260.20	25.36	-36.9	-38.4	16.5	0.00e+00	0	60	0	1210056704	44	4545
2026-01-13 03:00:43.69	259.98	25.25	-36.9	-38.6	16.4	0.00e+00	0	60	0	1215299584	44	4601
2026-01-13 03:00:44.70	259.76	25.14	-37.1	-38.7	16.2	0.00e+00	0	60	0	1221591040	44	4692
2026-01-13 03:00:45.71	259.54	25.03	-37.2	-38.8	16.1	0.00e+00	0	61	0	1226833920	44	4751
2026-01-13 03:00:46.72	259.32	24.92	-37.2	-38.9	16.1	0.00e+00	0	60	0	1233125376	44	4763
2026-01-13 03:00:47.73	259.11	24.81	-37.2	-38.8	16.1	0.00e+00	0	60	0	1238368256	44	4757
2026-01-13 03:00:48.74	258.89	24.70	-37.0	-38.7	16.2	0.00e+00	0	60	0	1244659712	44	4666
2026-01-13 03:00:49.75	258.68	24.59	-37.1	-38.7	16.2	0.00e+00	0	60	0	1249902592	44	4692
2026-01-13 03:00:50.76	258.47	24.48	-37.0	-38.6	16.3	0.00e+00	0	60	0	1256194048	44	4624
2026-01-13 03:00:51.77	258.26	24.37	-37.1	-38.7	16.3	0.00e+00	0	60	0	1261436928	44	4658
2026-01-13 03:00:52.78	258.05	24.26	-36.9	-38.5	16.4	0.00e+00	0	60	0	1266679808	44	4558
2026-01-13 03:00:53.79	257.84	24.15	-36.9	-38.5	16.4	0.00e+00	0	60	0	1272971264	44	4576
2026-01-13 03:00:54.80	257.64	24.04	-37.0	-38.6	16.4	0.00e+00	0	60	0	1278214144	44	4612
2026-01-13 03:00:55.81	257.43	23.93	-37.0	-38.7	16.2	0.00e+00	0	60	0	1284505600	44	4664
2026-01-13 03:00:56.82	257.23	23.82	-37.1	-38.8	16.1	0.00e+00	0	60	0	1289748480	44	4724
2026-01-13 03:00:57.83	257.03	23.71	-37.2	-38.9	16.0	0.00e+00	0	60	0	1294991360	45	4527
2026-01-13 03:00:58.84	256.83	23.60	-37.3	-39.0	15.9	0.00e+00	0	60	0	1301282816	45	4553
2026-01-13 03:00:59.85	256.63	23.49	-37.2	-38.9	16.0	0.00e+00	0	60	0	1306525696	45	4503
2026-01-13 03:01:00.86	256.43	23.38	-37.2	-38.9	16.0	0.00e+00	0	60	0	1312817152	45	4511
2026-01-13 03:01:01.87	256.24	23.27	-37.2	-38.8	16.1	0.00e+00	0	60	0	1318060032	45	4486
2026-01-13 03:01:02.88	256.04	23.16	-37.2	-38.8	16.0	0.00e+00	0	60	0	1323302912	45	4493
2026-01-13 03:01:03.89	255.85	23.05	-37.2	-38.9	16.0	0.00e+00	0	60	0	1329594368	45	4496
2026-01-13 03:01:04.90	255.66	22.94	-37.2	-38.9	16.0	0.00e+00	0	61	0	1334837248	45	4521
2026-01-13 03:01:05.91	255.47	22.84	-37.3	-39.0	15.9	0.00e+00	0	60	0	1341128704	45	4569
2026-01-13 03:01:06.92	255.28	22.73	-37.3	-39.0	15.9	0.00e+00	0	61	0	1346371584	45	4577
2026-01-13 03:01:07.93	255.09	22.62	-37.4	-39.1	15.8	0.00e+00	0	60	0	1352663040	45	4605
2026-01-13 03:01:08.94	254.91	22.51	-37.2	-38.9	15.9	0.00e+00	0	60	0	1357905920	45	4539
2026-01-13 03:01:09.95	254.72	22.40	-37.3	-38.9	15.9	0.00e+00	0	60	0	1363148800	45	4531
2026-01-13 03:01:10.96	254.54	22.29	-37.2	-38.9	16.0	0.00e+00	0	60	0	1369440256	45	4519
2026-01-13 03:01:11.97	254.36	22.19	-37.2	-38.9	15.9	0.00e+00	0	60	0	1374683136	45	4524
2026-01-13 03:01:12.98	254.18	22.08	-37.2	-38.9	16.0	0.00e+00	0	60	0	1380974592	45	4518
2026-01-13 03:01:13.99	254.00	21.97	-37.2	-38.8	16.0	0.00e+00	0	61	0	1386217472	45	4489
2026-01-13 03:01:15.00	253.82	21.86	-37.2	-38.9	16.0	0.00e+00	0	60	0	1391460352	45	4509
2026-01-13 03:01:16.01	253.64	21.75	-37.3	-38.9	15.9	0.00e+00	0	60	0	1397751808	45	4530
2026-01-13 03:01:17.02	253.46	21.65	-37.2	-38.8	16.0	0.00e+00	0	61	0	1402994688	45	4493
2026-01-13 03:01:18.03	253.29	21.54	-37.2	-38.8	16.0	0.00e+00	0	60	0	1409286144	45	4493
2026-01-13 03:01:19.04	253.12	21.43	-37.1	-38.8	16.1	0.00e+00	0	60	0	1414529024	45	4471
2026-01-13 03:01:20.05	252.94	21.33	-37.2	-38.9	15.9	0.00e+00	0	60	0	1419771904	45	4509
2026-01-13 03:01:21.06	252.77	21.22	-37.2	-38.8	16.0	0.00e+00	0	60	0	1426063360	45	4484
2026-01-13 03:01:22.07	252.60	21.11	-37.1	-38.8	16.0	0.00e+00	0	60	0	1431306240	45	4465
2026-01-13 03:01:23.08	252.43	21.01	-37.2	-38.8	16.0	0.00e+00	0	60	0	1437597696	45	4483
2026-01-13 03:01:24.08	252.27	20.90	-37.1	-38.8	16.1	0.00e+00	0	60	0	1442840576	45	4457
2026-01-13 03:01:25.10	252.10	20.80	-37.2	-38.9	16.0	0.00e+00	0	60	0	1449132032	45	4501
2026-01-13 03:01:26.11	251.93	20.69	-37.3	-39.1	15.8	0.00e+00	0	60	0	1454374912	45	4601
2026-01-13 03:01:27.12	251.77	20.58	-37.3	-38.9	15.9	0.00e+00	0	60	0	1460666368	45	4536
2026-01-13 03:01:28.13	251.61	20.48	-37.3	-39.0	15.8	0.00e+00	0	61	0	1465909248	45	4557
2026-01-13 03:01:29.14	251.45	20.37	-37.3	-39.0	15.8	0.00e+00	0	60	0	1471152128	45	4583
2026-01-13 03:01:30.15	251.29	20.27	-37.4	-39.1	15.7	0.00e+00	0	60	0	1477443584	45	4620
2026-01-13 03:01:31.16	251.13	20.16	-37.4	-39.1	15.7	0.00e+00	0	60	0	1482686464	45	4650
2026-01-13 03:01:32.17	250.97	20.06	-37.5	-39.2	15.6	0.00e+00	0	60	0	1488977920	45	4705
2026-01-13 03:01:33.18	250.81	19.96	-37.5	-39.2	15.6	0.00e+00	0	61	0	1494220800	45	4673
2026-01-13 03:01:34.19	250.65	19.85	-37.5	-39.2	15.5	0.00e+00	0	61	0	1499463680	45	4704
2026-01-13 03:01:35.20	250.50	19.75	-37.6	-39.3	15.5	0.00e+00	0	61	0	1505755136	45	4758
2026-01-13 03:01:36.21	250.34	19.64	-37.6	-39.3	15.5	1.10e-06	0	61	0	1510998016	45	4740
2026-01-13 03:01:37.22	250.19	19.54	-37.6	-39.3	15.4	0.00e+00	0	60	0	1517289472	45	4757
2026-01-13 03:01:38.23	250.04	19.44	-37.7	-39.4	15.4	0.00e+00	0	60	0	1522532352	45	4812
2026-01-13 03:01:39.24	249.89	19.33	-37.6	-39.3	15.4	0.00e+00	0	60	0	1527775232	45	4758
2026-01-13 03:01:40.25	249.74	19.23	-37.6	-39.3	15.4	0.00e+00	0	61	0	1534066688	45	4758
2026-01-13 03:01:41.26	249.59	19.13	-37.6	-39.4	15.4	0.00e+00	0	60	0	1539309568	45	4767
2026-01-13 03:01:42.27	249.44	19.03	-37.6	-39.3	15.5	0.00e+00	0	60	0	1545601024	45	4737
2026-01-13 03:01:43.28	249.29	18.92	-37.7	-39.5	15.3	0.00e+00	0	60	0	1550843904	45	4820
2026-01-13 03:01:44.29	249.15	18.82	-37.6	-39.3	15.4	0.00e+00	0	61	0	1557135360	45	4750
2026-01-13 03:01:45.30	249.00	18.72	-37.6	-39.4	15.4	0.00e+00	0	60	0	1562378240	45	4764
2026-01-13 03:01:46.31	248.86	18.62	-37.7	-39.5	15.3	0.00e+00	0	60	0	1568669696	45	4850
2026-01-13 03:01:47.32	248.71	18.52	-37.8	-39.7	15.1	0.00e+00	0	60	0	1573912576	46	4668
2026-01-13 03:01:48.33	248.57	18.42	-37.9	-39.8	15.0	0.00e+00	0	60	0	1579155456	46	4731
2026-01-13 03:01:49.34	248.43	18.32	-38.0	-39.9	14.9	0.00e+00	0	60	0	1585446912	46	4800
2026-01-13 03:01:50.35	248.29	18.22	-37.9	-39.8	15.0	0.00e+00	0	60	0	1590689792	46	4724
2026-01-13 03:01:51.36	248.15	18.12	-38.0	-39.8	15.0	0.00e+00	0	60	0	1596981248	46	4738
2026-01-13 03:01:52.37	248.01	18.02	-37.9	-39.8	15.0	0.00e+00	0	61	0	1602224128	46	4721
2026-01-13 03:01:53.38	247.88	17.92	-37.9	-39.8	15.0	0.00e+00	0	60	0	1607467008	46	4706
2026-01-13 03:01:54.39	247.74	17.82	-38.0	-39.9	14.9	0.00e+00	0	60	0	1613758464	46	4765
2026-01-13 03:01:55.40	247.60	17.72	-38.0	-39.9	14.9	0.00e+00	0	61	0	1619001344	46	4776
2026-01-13 03:01:56.41	247.47	17.62	-38.1	-40.0	14.8	0.00e+00	0	60	0	1625292800	46	4830
2026-01-13 03:01:57.42	247.33	17.52	-38.1	-40.0	14.7	0.00e+00	0	61	0	1630535680	46	4850
2026-01-13 03:01:58.43	247.20	17.42	-38.1	-40.0	14.7	0.00e+00	0	60	0	1635778560	46	4869
2026-01-13 03:01:59.44	247.07	17.32	-38.2	-40.1	14.7	0.00e+00	0	60	0	1642070016	46	4888
2026-01-13 03:02:00.45	246.94	17.22	-38.2	-40.1	14.6	0.00e+00	0	61	0	1647312896	46	4899
2026-01-13 03:02:01.46	246.81	17.13	-38.2	-40.1	14.6	1.10e-06	0	60	0	1653604352	47	4650
2026-01-13 03:02:02.47	246.68	17.03	-38.2	-40.1	14.6	0.00e+00	0	61	0	1658847232	47	4624
2026-01-13 03:02:03.48	246.55	16.93	-38.1	-40.0	14.7	0.00e+00	0	60	0	1665138688	47	4584
2026-01-13 03:02:04.49	246.42	16.83	-38.1	-40.0	14.7	0.00e+00	0	61	0	1670381568	47	4562
2026-01-13 03:02:05.50	246.29	16.74	-38.1	-40.0	14.7	0.00e+00	0	61	0	1676673024	47	4562
2026-01-13 03:02:06.51	246.17	16.64	-38.1	-40.0	14.7	0.00e+00	0	60	0	1681915904	47	4552
2026-01-13 03:02:07.53	246.04	16.54	-38.1	-39.9	14.7	1.10e-06	0	60	0	1687158784	47	4541
2026-01-13 03:02:08.53	245.92	16.45	-38.1	-40.0	14.6	1.10e-06	0	60	0	1693450240	47	4596
2026-01-13 03:02:09.54	245.79	16.35	-38.2	-40.1	14.6	0.00e+00	0	60	0	1698693120	47	4638
2026-01-13 03:02:10.55	245.67	16.26	-38.3	-40.2	14.4	1.10e-06	0	60	0	1704984576	47	4699
2026-01-13 03:02:11.56	245.55	16.16	-38.4	-40.3	14.3	1.10e-06	0	61	0	1710227456	47	4754
2026-01-13 03:02:12.58	245.43	16.06	-38.4	-40.5	14.2	1.10e-06	0	60	0	1715470336	47	4824
2026-01-13 03:02:13.58	245.31	15.97	-38.6	-40.6	14.1	4.50e-06	0	60	0	1721761792	47	4900
2026-01-13 03:02:14.59	245.19	15.87	-38.5	-40.5	14.2	3.40e-06	0	61	0	1727004672	47	4850
2026-01-13 03:02:15.60	245.07	15.78	-38.4	-40.4	14.3	1.10e-06	0	60	0	1733296128	47	4798
2026-01-13 03:02:16.61	244.95	15.69	-38.5	-40.5	14.2	2.20e-06	0	61	0	1738539008	47	4857
2026-01-13 03:02:17.62	244.83	15.59	-38.6	-40.6	14.1	3.40e-06	0	61	0	1743781888	47	4893
2026-01-13 03:02:18.63	244.72	15.50	-38.6	-40.7	14.0	4.50e-06	0	60	0	1750073344	47	4941
2026-01-13 03:02:19.64	244.60	15.40	-38.6	-40.7	13.9	2.20e-06	0	60	0	1755316224	47	4960
2026-01-13 03:02:20.65	244.49	15.31	-38.7	-40.8	13.9	4.50e-06	0	60	0	1761607680	47	4990
2026-01-13 03:02:21.65	244.37	15.22	-38.9	-41.0	13.7	8.00e-06	0	61	0	1766850560	48	4837
2026-01-13 03:02:22.66	244.26	15.13	-38.9	-41.0	13.7	8.00e-06	0	60	0	1773142016	48	4870
2026-01-13 03:02:23.68	244.14	15.03	-39.0	-41.2	13.6	1.94e-05	0	61	0	1778384896	48	4933
2026-01-13 03:02:24.69	244.03	14.94	-39.0	-41.1	13.6	1.48e-05	0	60	0	1783627776	48	4923
2026-01-13 03:02:25.70	243.92	14.85	-39.0	-41.1	13.6	6.80e-06	0	60	0	1789919232	48	4901
2026-01-13 03:02:26.70	243.81	14.76	-39.0	-41.1	13.6	1.37e-05	0	60	0	1795162112	48	4918
2026-01-13 03:02:27.71	243.70	14.66	-38.9	-41.0	13.7	1.94e-05	0	60	0	1801453568	48	4841
2026-01-13 03:02:28.72	243.59	14.57	-38.8	-40.9	13.8	5.70e-06	0	61	0	1806696448	48	4803
2026-01-13 03:02:29.74	243.48	14.48	-38.9	-41.0	13.7	5.70e-06	0	61	0	1811939328	48	4841
2026-01-13 03:02:30.75	243.37	14.39	-38.9	-41.1	13.6	1.60e-05	0	60	0	1818230784	48	4876
2026-01-13 03:02:31.76	243.26	14.30	-38.9	-41.0	13.7	3.40e-06	0	61	0	1823473664	48	4844
2026-01-13 03:02:32.77	243.16	14.21	-39.0	-41.1	13.6	1.48e-05	0	60	0	1829765120	48	4914
2026-01-13 03:02:33.78	243.05	14.12	-39.0	-41.1	13.6	1.94e-05	0	60	0	1835008000	48	4906
2026-01-13 03:02:34.78	242.95	14.03	-39.0	-41.2	13.5	8.00e-06	0	60	0	1840250880	48	4957
2026-01-13 03:02:35.79	242.84	13.94	-38.9	-41.1	13.6	1.25e-05	0	60	0	1846542336	48	4872
2026-01-13 03:02:36.80	242.74	13.85	-39.0	-41.1	13.5	1.25e-05	0	60	0	1851785216	48	4916
2026-01-13 03:02:37.82	242.63	13.76	-39.0	-41.2	13.5	1.83e-05	0	60	0	1858076672	48	4949
2026-01-13 03:02:38.82	242.53	13.67	-39.1	-41.2	13.4	2.97e-05	0	61	0	1863319552	48	4980
2026-01-13 03:02:39.83	242.43	13.58	-39.0	-41.2	13.4	1.94e-05	0	60	0	1869611008	48	4961
2026-01-13 03:02:40.84	242.33	13.49	-39.0	-41.2	13.5	1.94e-05	0	61	0	1874853888	48	4959
2026-01-13 03:02:41.85	242.23	13.41	-39.1	-41.3	13.4	2.74e-05	0	61	0	1881145344	48	4989
2026-01-13 03:02:42.86	242.13	13.32	-39.1	-41.4	13.3	3.43e-05	0	61	0	1886388224	48	5057
2026-01-13 03:02:43.87	242.03	13.23	-39.1	-41.2	13.4	2.40e-05	0	60	0	1891631104	48	4978
2026-01-13 03:02:44.88	241.93	13.14	-39.1	-41.3	13.4	2.63e-05	0	60	0	1897922560	48	5003
2026-01-13 03:02:45.89	241.83	13.05	-39.1	-41.3	13.3	2.86e-05	0	61	0	1903165440	48	5022
2026-01-13 03:02:46.90	241.73	12.97	-39.1	-41.3	13.3	1.94e-05	0	60	0	1908408320	48	5024
2026-01-13 03:02:47.91	241.63	12.88	-39.2	-41.4	13.2	4.23e-05	0	61	0	1914699776	48	5097
2026-01-13 03:02:48.92	241.54	12.79	-39.1	-41.4	13.2	3.08e-05	0	60	0	1919942656	49	4766
2026-01-13 03:02:49.93	241.44	12.71	-39.0	-41.2	13.4	2.05e-05	0	61	0	1926234112	49	4692
2026-01-13 03:02:50.94	241.34	12.62	-39.0	-41.3	13.4	3.43e-05	0	61	0	1931476992	49	4708
2026-01-13 03:02:51.95	241.25	12.53	-39.2	-41.4	13.2	3.54e-05	0	60	0	1936719872	49	4798
2026-01-13 03:02:52.96	241.15	12.45	-39.1	-41.4	13.2	2.40e-05	0	60	0	1943011328	49	4768
2026-01-13 03:02:53.97	241.06	12.36	-39.2	-41.4	13.2	4.23e-05	0	61	0	1948254208	49	4809
2026-01-13 03:02:54.98	240.97	12.28	-39.3	-41.6	13.0	5.72e-05	0	60	0	1954545664	49	4887
2026-01-13 03:02:55.99	240.87	12.19	-39.3	-41.6	13.0	6.86e-05	0	60	0	1959788544	49	4875
2026-01-13 03:02:57.00	240.78	12.11	-39.4	-41.8	12.7	8.35e-05	0	60	0	1966080000	49	5009
2026-01-13 03:02:58.01	240.69	12.02	-39.3	-41.6	13.0	6.98e-05	0	61	0	1971322880	49	4897
2026-01-13 03:02:59.02	240.60	11.94	-39.3	-41.6	13.0	4.80e-05	0	61	0	1977614336	49	4873
2026-01-13 03:03:00.02	240.51	11.85	-39.2	-41.5	13.0	5.60e-05	0	60	0	1982857216	49	4856
2026-01-13 03:03:01.03	240.42	11.77	-39.3	-41.6	12.9	7.66e-05	0	60	0	1988100096	49	4926
2026-01-13 03:03:02.04	240.33	11.69	-39.4	-41.8	12.7	1.22e-04	0	60	0	1994391552	49	5010
2026-01-13 03:03:03.05	240.24	11.60	-39.5	-41.9	12.5	1.35e-04	0	60	0	1999634432	49	5095
2026-01-13 03:03:04.06	240.15	11.52	-39.6	-42.1	12.4	1.94e-04	0	61	0	2005925888	49	5169
2026-01-13 03:03:05.07	240.06	11.44	-39.7	-42.2	12.3	2.56e-04	0	60	0	2011168768	49	5240
2026-01-13 03:03:06.08	239.97	11.35	-39.7	-42.1	12.3	2.53e-04	0	61	0	2016411648	49	5218
2026-01-13 03:03:07.10	239.89	11.27	-39.7	-42.1	12.3	2.25e-04	0	60	0	2022703104	49	5218
2026-01-13 03:03:08.10	239.80	11.19	-39.8	-42.3	12.2	2.21e-04	0	60	0	2027945984	50	4994
2026-01-13 03:03:09.12	239.71	11.10	-39.8	-42.3	12.2	3.36e-04	0	60	0	2034237440	50	5036
2026-01-13 03:03:10.13	239.63	11.02	-39.8	-42.3	12.2	3.59e-04	0	60	0	2039480320	50	4993
2026-01-13 03:03:11.14	239.54	10.94	-39.9	-42.5	12.0	4.55e-04	0	60	0	2044723200	50	5115
2026-01-13 03:03:12.15	239.46	10.86	-39.9	-42.5	12.0	5.03e-04	0	60	0	2051014656	50	5144
2026-01-13 03:03:13.16	239.37	10.78	-39.8	-42.4	12.1	5.33e-04	0	60	0	2056257536	50	5044
2026-01-13 03:03:14.17	239.29	10.70	-39.7	-42.2	12.2	3.27e-04	0	60	0	2062548992	50	4958
2026-01-13 03:03:15.18	239.21	10.61	-39.6	-42.1	12.4	2.70e-04	0	61	0	2067791872	50	4884
2026-01-13 03:03:16.19	239.12	10.53	-39.7	-42.2	12.3	2.77e-04	0	61	0	2074083328	50	4939
2026-01-13 03:03:17.20	239.04	10.45	-39.6	-42.0	12.4	2.61e-04	0	60	0	2079326208	50	4863
2026-01-13 03:03:18.21	238.96	10.37	-39.7	-42.2	12.2	3.07e-04	0	60	0	2085617664	50	4948
2026-01-13 03:03:19.22	238.88	10.29	-39.8	-42.3	12.1	3.55e-04	0	61	0	2090860544	50	5026
2026-01-13 03:03:20.23	238.80	10.21	-39.8	-42.3	12.1	3.89e-04	0	60	0	2096103424	50	5026
2026-01-13 03:03:21.25	238.72	10.13	-39.7	-42.2	12.2	3.25e-04	0	61	0	2102394880	50	4953
2026-01-13 03:03:22.26	238.64	10.05	-39.8	-42.4	12.0	4.51e-04	0	61	0	2107637760	50	5077
2026-01-13 03:03:23.27	238.56	9.97	-39.8	-42.4	11.9	4.99e-04	0	60	0	2113929216	50	5086
2026-01-13 03:03:24.28	238.48	9.89	-39.7	-42.3	12.1	5.08e-04	0	60	0	2119172096	50	4996
2026-01-13 03:03:25.29	238.40	9.81	-39.7	-42.3	12.1	4.53e-04	0	60	0	2124414976	50	5017
2026-01-13 03:03:26.30	238.32	9.74	-39.8	-42.4	12.0	4.26e-04	0	60	0	2130706432	50	5046
2026-01-13 03:03:27.31	238.24	9.66	-39.7	-42.2	12.2	3.98e-04	0	61	0	2135949312	50	4954
2026-01-13 03:03:28.32	238.17	9.58	-39.7	-42.3	12.0	5.87e-04	0	60	0	2142240768	50	5012
2026-01-13 03:03:29.33	238.09	9.50	-39.8	-42.4	11.9	6.40e-04	0	61	0	2147483648	50	5066
2026-01-13 03:03:30.34	238.01	9.42	-39.9	-42.5	11.8	6.25e-04	0	61	0	2152726528	50	5127
2026-01-13 03:03:31.35	237.94	9.34	-39.9	-42.6	11.7	8.26e-04	0	61	0	2159017984	50	5161
2026-01-13 03:03:32.36	237.86	9.27	-39.9	-42.6	11.7	6.48e-04	0	61	0	2164260864	50	5173
2026-01-13 03:03:33.37	237.78	9.19	-39.9	-42.7	11.6	9.22e-04	0	60	0	2170552320	50	5227
2026-01-13 03:03:34.38	237.71	9.11	-39.8	-42.5	11.8	7.33e-04	0	61	0	2175795200	50	5138
2026-01-13 03:03:35.39	237.64	9.03	-39.9	-42.6	11.6	1.01e-03	0	60	0	2182086656	50	5192
2026-01-13 03:03:36.40	237.56	8.96	-39.8	-42.5	11.8	9.07e-04	0	60	0	2187329536	50	5120
2026-01-13 03:03:37.41	237.49	8.88	-40.0	-42.7	11.5	1.00e-03	0	60	0	2193620992	50	5254
2026-01-13 03:03:38.42	237.41	8.80	-39.9	-42.6	11.7	8.46e-04	0	60	0	2198863872	50	5181
2026-01-13 03:03:39.43	237.34	8.73	-39.9	-42.6	11.7	9.05e-04	0	61	0	2204106752	50	5172
2026-01-13 03:03:40.44	237.27	8.65	-39.8	-42.5	11.8	7.46e-04	0	61	0	2210398208	50	5129
2026-01-13 03:03:41.45	237.20	8.58	-40.0	-42.7	11.5	1.15e-03	0	60	0	2215641088	50	5278
2026-01-13 03:03:42.46	237.13	8.50	-40.1	-42.9	11.3	1.21e-03	0	61	0	2221932544	50	5367
2026-01-13 03:03:43.47	237.05	8.42	-40.0	-42.8	11.5	1.70e-03	0	60	0	2227175424	50	5296
2026-01-13 03:03:44.48	236.98	8.35	-40.0	-42.7	11.5	1.20e-03	0	61	0	2232418304	50	5277
2026-01-13 03:03:45.49	236.91	8.27	-40.0	-42.7	11.5	1.27e-03	0	60	0	2238709760	50	5257
2026-01-13 03:03:46.50	236.84	8.20	-40.0	-42.8	11.4	1.22e-03	0	61	0	2243952640	50	5294
2026-01-13 03:03:47.51	236.77	8.12	-39.9	-42.7	11.5	1.33e-03	0	61	0	2250244096	50	5253
2026-01-13 03:03:48.52	236.70	8.05	-40.1	-42.9	11.2	1.76e-03	0	61	0	2255486976	50	5390
2026-01-13 03:03:49.53	236.63	7.97	-43.3	-49.0	5.9	2.77e-03	0	60	0	2260729856	56	7713
2026-01-13 03:03:50.54	236.57	7.90	-44.5	-55.7	3.8	8.46e-01	0	60	104	2261778432	59	13923
2026-01-13 03:03:51.56	236.50	7.83	-44.7	-56.2	3.8	8.46e-01	0	60	104	2261778432	60	13997
2026-01-13 03:03:52.57	236.43	7.75	-44.9	-56.4	3.8	8.45e-01	0	60	104	2261778432	60	14253
2026-01-13 03:03:53.58	236.36	7.68	-45.0	-56.5	3.8	8.45e-01	0	60	104	2261778432	60	14473
2026-01-13 03:03:54.59	236.29	7.60	-45.0	-56.6	3.8	8.46e-01	0	60	104	2261778432	60	14547
2026-01-13 03:03:55.60	236.23	7.53	-45.1	-56.6	3.8	8.47e-01	0	60	104	2261778432	60	14636
2026-01-13 03:03:56.61	236.16	7.46	-45.2	-56.7	3.8	8.47e-01	0	60	104	2261778432	60	14827
2026-01-13 03:03:57.62	236.09	7.38	-45.2	-56.7	3.8	8.46e-01	0	60	104	2261778432	60	14834
2026-01-13 03:03:58.63	236.03	7.31	-45.2	-56.7	3.8	8.46e-01	0	61	104	2261778432	60	14820
2026-01-13 03:03:59.64	235.96	7.24	-45.2	-56.7	3.8	8.46e-01	0	60	104	2261778432	60	14762
2026-01-13 03:04:00.65	235.90	7.17	-45.1	-56.7	3.8	8.46e-01	0	61	104	2261778432	60	14753
2026-01-13 03:04:01.66	235.83	7.09	-45.1	-56.6	3.8	8.46e-01	0	61	104	2261778432	60	14670
2026-01-13 03:04:02.67	235.77	7.02	-45.1	-56.6	3.8	8.46e-01	0	61	104	2261778432	60	14680
2026-01-13 03:04:03.68	235.70	6.95	-45.1	-56.6	3.8	8.46e-01	0	61	104	2261778432	60	14693
2026-01-13 03:04:04.69	235.64	6.88	-45.1	-56.6	3.8	8.46e-01	0	61	104	2261778432	60	14643
2026-01-13 03:04:05.70	235.58	6.81	-45.1	-56.6	3.8	8.46e-01	0	61	104	2261778432	60	14693
2026-01-13 03:04:06.71	235.51	6.73	-45.1	-56.6	3.8	8.46e-01	0	61	104	2261778432	60	14603
2026-01-13 03:04:07.72	235.45	6.66	-45.1	-56.6	3.8	8.46e-01	0	61	104	2261778432	60	14579
2026-01-13 03:04:08.73	235.39	6.59	-45.1	-56.6	3.8	8.46e-01	0	60	104	2261778432	60	14654
2026-01-13 03:04:09.74	235.33	6.52	-45.1	-56.6	3.8	8.46e-01	0	61	104	2261778432	60	14600
2026-01-13 03:04:10.75	235.26	6.45	-45.1	-56.6	3.8	8.45e-01	0	61	104	2261778432	60	14591
2026-01-13 03:04:11.76	235.20	6.38	-45.1	-56.6	3.8	8.45e-01	0	60	104	2261778432	60	14587
2026-01-13 03:04:12.77	235.14	6.31	-45.1	-56.6	3.8	8.47e-01	0	60	104	2261778432	60	14561
2026-01-13 03:04:13.78	235.08	6.24	-45.1	-56.6	3.8	8.46e-01	0	61	104	2261778432	60	14583
2026-01-13 03:04:14.78	235.02	6.17	-45.1	-56.6	3.8	8.45e-01	0	61	104	2261778432	60	14567
2026-01-13 03:04:15.79	234.96	6.10	-45.1	-56.6	3.8	8.46e-01	0	60	104	2261778432	60	14575
2026-01-13 03:04:16.80	234.90	6.03	-45.1	-56.6	3.8	8.46e-01	0	61	104	2261778432	60	14561
2026-01-13 03:04:17.81	234.84	5.96	-45.1	-56.6	3.8	8.47e-01	0	61	104	2261778432	60	14567
2026-01-13 03:04:18.82	234.78	5.89	-45.1	-56.6	3.8	8.48e-01	0	61	104	2261778432	60	14584
2026-01-13 03:04:19.83	234.72	5.82	-45.1	-56.6	3.8	8.46e-01	0	60	104	2261778432	60	14637
2026-01-13 03:04:20.84	234.66	5.75	-45.1	-56.6	3.8	8.47e-01	0	60	104	2261778432	60	14561
2026-01-13 03:04:21.85	234.60	5.68	-45.1	-56.6	3.8	8.45e-01	0	60	104	2261778432	60	14550
2026-01-13 03:04:22.86	234.55	5.61	-45.1	-56.6	3.8	8.46e-01	0	60	104	2261778432	60	14587
2026-01-13 03:04:23.87	234.49	5.54	-45.1	-56.6	3.8	8.45e-01	0	60	104	2261778432	60	14601
2026-01-13 03:04:24.88	234.43	5.47	-45.1	-56.6	3.8	8.47e-01	0	61	104	2261778432	60	14561
2026-01-13 03:04:25.89	234.37	5.41	-45.0	-56.6	3.8	8.47e-01	0	61	104	2261778432	60	14543
2026-01-13 03:04:26.90	234.31	5.34	-45.1	-56.6	3.8	8.46e-01	0	61	104	2261778432	60	14611
2026-01-13 03:04:27.91	234.26	5.27	-45.0	-56.6	3.8	8.47e-01	0	61	104	2261778432	60	14599
2026-01-13 03:04:28.92	234.20	5.20	-45.0	-56.6	3.8	8.47e-01	0	61	104	2261778432	60	14583
2026-01-13 03:04:29.93	234.14	5.13	-45.1	-56.5	3.8	8.46e-01	0	60	104	2261778432	60	14516
2026-01-13 03:04:30.94	234.09	5.07	-45.1	-56.6	3.8	8.45e-01	0	60	104	2261778432	60	14553
2026-01-13 03:04:31.95	234.03	5.00	-45.0	-56.5	3.8	8.46e-01	0	61	104	2261778432	60	14510
2026-01-13 03:04:32.96	233.98	4.93	-45.1	-56.6	3.8	8.46e-01	0	60	104	2261778432	60	14638
2026-01-13 03:04:33.97	233.92	4.86	-45.1	-56.6	3.8	8.46e-01	0	61	104	2261778432	60	14570
2026-01-13 03:04:34.98	233.87	4.80	-45.0	-56.5	3.8	8.47e-01	0	60	104	2261778432	60	14533
2026-01-13 03:04:35.99	233.81	4.73	-45.0	-56.6	3.8	8.47e-01	0	61	104	2261778432	60	14542
2026-01-13 03:04:37.00	233.76	4.66	-45.0	-56.6	3.8	8.46e-01	0	60	104	2261778432	60	14542
2026-01-13 03:04:38.01	233.70	4.59	-45.0	-56.6	3.8	8.46e-01	0	61	104	2261778432	60	14582
2026-01-13 03:04:39.02	233.65	4.53	-45.0	-56.6	3.8	8.46e-01	0	61	104	2261778432	60	14547
2026-01-13 03:04:40.03	233.60	4.46	-45.1	-56.5	3.8	8.45e-01	0	61	104	2261778432	60	14530
2026-01-13 03:04:41.04	233.54	4.40	-45.1	-56.6	3.8	8.47e-01	0	61	104	2261778432	60	14548
2026-01-13 03:04:42.04	233.49	4.33	-45.0	-56.5	3.8	8.46e-01	0	61	104	2261778432	60	14492
2026-01-13 03:04:43.05	233.44	4.26	-45.0	-56.5	3.8	8.47e-01	0	61	104	2261778432	60	14525
2026-01-13 03:04:44.06	233.38	4.20	-45.0	-56.5	3.8	8.46e-01	0	61	104	2261778432	60	14523
2026-01-13 03:04:45.07	233.33	4.13	-45.0	-56.5	3.8	8.46e-01	0	61	104	2261778432	60	14537
2026-01-13 03:04:46.08	233.28	4.07	-45.0	-56.5	3.8	8.45e-01	0	61	104	2261778432	60	14519
2026-01-13 03:04:47.10	233.23	4.00	-45.0	-56.5	3.8	8.46e-01	0	60	104	2261778432	60	14499
2026-01-13 03:04:48.11	233.17	3.93	-45.0	-56.5	3.8	8.45e-01	0	61	104	2261778432	60	14532
2026-01-13 03:04:49.12	233.12	3.87	-45.0	-56.6	3.8	8.46e-01	0	61	104	2261778432	60	14570
2026-01-13 03:04:50.13	233.07	3.80	-45.0	-56.6	3.8	8.45e-01	0	60	104	2261778432	60	14588
2026-01-13 03:04:51.14	233.02	3.74	-45.0	-56.5	3.8	8.47e-01	0	61	104	2261778432	60	14465
2026-01-13 03:04:52.15	232.97	3.67	-45.0	-56.5	3.8	8.47e-01	0	61	104	2261778432	60	14530
2026-01-13 03:04:53.16	232.92	3.61	-45.0	-56.5	3.8	8.46e-01	0	61	104	2261778432	60	14536
2026-01-13 03:04:54.17	232.87	3.55	-45.0	-56.5	3.8	8.46e-01	0	61	104	2261778432	60	14513
2026-01-13 03:04:55.18	232.82	3.48	-45.0	-56.5	3.8	8.47e-01	0	61	104	2261778432	60	14521
2026-01-13 03:04:56.19	232.77	3.42	-45.0	-56.6	3.8	8.45e-01	0	61	104	2261778432	60	14569
2026-01-13 03:04:57.20	232.72	3.35	-45.0	-56.5	3.8	8.47e-01	0	61	104	2261778432	60	14513
2026-01-13 03:04:58.21	232.67	3.29	-45.0	-56.6	3.8	8.47e-01	0	61	104	2261778432	60	14543
2026-01-13 03:04:59.22	232.62	3.22	-45.0	-56.5	3.8	8.45e-01	0	61	104	2261778432	60	14504
2026-01-13 03:05:00.23	232.57	3.16	-45.0	-56.6	3.8	8.47e-01	0	61	104	2261778432	60	14565
2026-01-13 03:05:01.24	232.52	3.10	-45.0	-56.5	3.8	8.46e-01	0	61	104	2261778432	60	14508
2026-01-13 03:05:02.25	232.47	3.03	-45.0	-56.5	3.8	8.46e-01	0	61	104	2261778432	60	14509
2026-01-13 03:05:03.26	232.43	2.97	-45.0	-56.5	3.8	8.47e-01	0	61	104	2261778432	60	14534
2026-01-13 03:05:04.27	232.38	2.91	-45.0	-56.5	3.8	8.46e-01	0	61	104	2261778432	60	14501
2026-01-13 03:05:05.28	232.33	2.84	-45.0	-56.5	3.8	8.46e-01	0	61	104	2261778432	60	14494
2026-01-13 03:05:06.29	232.28	2.78	-45.0	-56.5	3.8	8.48e-01	0	61	104	2261778432	60	14480
2026-01-13 03:05:07.30	232.24	2.72	-45.0	-56.5	3.8	8.46e-01	0	61	104	2261778432	60	14519
2026-01-13 03:05:08.31	232.19	2.65	-45.0	-56.5	3.8	8.46e-01	0	61	104	2261778432	60	14531
2026-01-13 03:05:09.32	232.14	2.59	-45.0	-56.5	3.8	8.45e-01	0	61	104	2261778432	60	14470
2026-01-13 03:05:10.33	232.09	2.53	-45.0	-56.5	3.8	8.46e-01	0	60	104	2261778432	60	14509
2026-01-13 03:05:11.34	232.05	2.47	-45.0	-56.5	3.8	8.46e-01	0	61	104	2261778432	60	14529
2026-01-13 03:05:12.35	232.00	2.40	-45.0	-56.5	3.8	8.46e-01	0	61	104	2261778432	60	14521
2026-01-13 03:05:13.36	231.96	2.34	-45.0	-56.5	3.8	8.47e-01	0	61	104	2261778432	60	14499
2026-01-13 03:05:14.37	231.91	2.28	-45.0	-56.5	3.8	8.45e-01	0	61	104	2261778432	60	14516
2026-01-13 03:05:15.38	231.86	2.22	-45.0	-56.5	3.8	8.46e-01	0	60	104	2261778432	60	14529
2026-01-13 03:05:16.39	231.82	2.16	-45.0	-56.5	3.8	8.46e-01	0	61	104	2261778432	60	14530
2026-01-13 03:05:17.40	231.77	2.09	-45.0	-56.6	3.8	8.46e-01	0	61	104	2261778432	60	14567
2026-01-13 03:05:18.41	231.73	2.03	-45.0	-56.5	3.8	8.47e-01	0	60	104	2261778432	60	14474
2026-01-13 03:05:19.42	231.68	1.97	-45.0	-56.5	3.8	8.47e-01	0	61	104	2261778432	60	14494
2026-01-13 03:05:20.43	231.64	1.91	-45.0	-56.5	3.8	8.46e-01	0	61	104	2261778432	60	14497

#Closed at: 2026-01-13 03:05:20
#Recorded file [2261 MB]: D:/lorett/data/31039_260113_055624.dat