passes_logs/2026/01/13/R2.0S_Moscow/R2.0S_Moscow__20260113_124224_FENGYUN_3D_rec.log

#Pass ID: 20260113_124224_FENGYUN 3D
#Satellite: FENGYUN 3D
#Configuration: FENGYUN 3D
#almurnet v.1.7.20251203
#Start time: 2026-01-13 12:42:27

#Version: 2.2.20231116
#Station: R2.0S_Moscow
#Location: 37.707566 lon 55.798166 lat
#TLE: 1 43010U 17072A   26012.32543542  .00000598  00000+0  30457-3 0  9997
#TLE: 2 43010  98.9935 344.1005 0002233 112.6136 247.5276 14.19696644422876

#Time	Az	El	Level	Level2	SNR	BER	BlckErr	Temp	State	Recorded	gain1	gain2
2026-01-13 12:42:27.03	182.48	2.14	-44.0	-55.3	3.8	8.46e-01	0	50	0	0	59	13410
2026-01-13 12:42:28.04	182.51	2.20	-44.0	-55.4	3.8	8.47e-01	0	51	104	0	59	13417
2026-01-13 12:42:29.05	182.55	2.27	-44.0	-55.3	3.8	8.46e-01	0	51	104	0	59	13339
2026-01-13 12:42:30.06	182.59	2.33	-44.0	-55.3	3.8	8.45e-01	0	51	104	0	59	13351
2026-01-13 12:42:31.07	182.63	2.39	-44.0	-55.3	3.8	8.46e-01	0	51	104	0	59	13341
2026-01-13 12:42:32.08	182.66	2.46	-44.0	-55.3	3.8	8.46e-01	0	51	104	0	59	13381
2026-01-13 12:42:33.09	182.70	2.52	-44.0	-55.3	3.8	8.45e-01	0	51	104	0	59	13393
2026-01-13 12:42:34.10	182.74	2.58	-44.0	-55.3	3.8	8.46e-01	0	51	104	0	59	13399
2026-01-13 12:42:35.11	182.78	2.65	-44.0	-55.3	3.8	8.46e-01	0	51	104	0	59	13331
2026-01-13 12:42:36.12	182.82	2.71	-44.0	-55.3	3.8	8.46e-01	0	51	104	0	59	13359
2026-01-13 12:42:37.13	182.86	2.78	-44.0	-55.3	3.8	8.46e-01	0	51	104	0	59	13368
2026-01-13 12:42:38.14	182.89	2.84	-44.0	-55.3	3.8	8.46e-01	0	52	104	0	59	13368
2026-01-13 12:42:39.15	182.93	2.91	-44.0	-55.3	3.8	8.47e-01	0	52	104	0	59	13322
2026-01-13 12:42:40.16	182.97	2.97	-44.0	-55.3	3.8	8.47e-01	0	52	104	0	59	13358
2026-01-13 12:42:41.17	183.01	3.03	-44.0	-55.3	3.8	8.46e-01	0	52	104	0	59	13410
2026-01-13 12:42:42.18	183.05	3.10	-44.0	-55.3	3.8	8.47e-01	0	52	104	0	59	13331
2026-01-13 12:42:43.20	183.09	3.17	-44.0	-55.3	3.8	8.46e-01	0	52	104	0	59	13357
2026-01-13 12:42:44.21	183.13	3.23	-44.0	-55.3	3.8	8.45e-01	0	52	104	0	59	13334
2026-01-13 12:42:45.21	183.17	3.30	-44.0	-55.3	3.8	8.46e-01	0	52	104	0	59	13317
2026-01-13 12:42:46.22	183.21	3.36	-44.0	-55.3	3.8	8.46e-01	0	52	104	0	59	13356
2026-01-13 12:42:47.23	183.25	3.43	-44.0	-55.3	3.8	8.47e-01	0	52	104	0	59	13383
2026-01-13 12:42:48.24	183.29	3.49	-44.0	-55.3	3.8	8.45e-01	0	52	104	0	59	13318
2026-01-13 12:42:49.25	183.33	3.56	-44.0	-55.3	3.8	8.46e-01	0	52	104	0	59	13359
2026-01-13 12:42:50.26	183.37	3.63	-44.0	-55.3	3.8	8.47e-01	0	52	104	0	59	13362
2026-01-13 12:42:51.27	183.41	3.69	-44.0	-55.3	3.8	8.46e-01	0	53	104	0	59	13411
2026-01-13 12:42:52.28	183.45	3.76	-44.0	-55.3	3.8	8.47e-01	0	52	104	0	59	13399
2026-01-13 12:42:53.30	183.49	3.83	-44.0	-55.3	3.8	8.47e-01	0	53	104	0	59	13331
2026-01-13 12:42:54.31	183.54	3.89	-44.0	-55.3	3.8	8.46e-01	0	52	104	0	59	13337
2026-01-13 12:42:55.32	183.58	3.96	-44.0	-55.3	3.8	8.45e-01	0	53	104	0	59	13288
2026-01-13 12:42:56.33	183.62	4.03	-44.0	-55.3	3.8	8.46e-01	0	53	104	0	59	13339
2026-01-13 12:42:57.34	183.66	4.09	-44.0	-55.3	3.8	8.46e-01	0	53	104	0	59	13305
2026-01-13 12:42:58.35	183.70	4.16	-44.0	-55.3	3.8	8.47e-01	0	53	104	0	59	13288
2026-01-13 12:42:59.36	183.75	4.23	-44.0	-55.2	3.8	8.46e-01	0	53	104	0	59	13217
2026-01-13 12:43:00.37	183.79	4.30	-44.0	-55.1	3.8	8.47e-01	0	53	104	0	59	13085
2026-01-13 12:43:01.38	183.83	4.36	-43.9	-55.0	3.8	8.46e-01	0	53	104	0	59	12893
2026-01-13 12:43:02.39	183.87	4.43	-43.9	-54.9	3.8	8.46e-01	0	53	104	0	59	12688
2026-01-13 12:43:03.40	183.92	4.50	-43.9	-54.6	3.8	8.47e-01	0	53	104	0	59	12261
2026-01-13 12:43:04.41	183.96	4.57	-43.9	-54.5	3.8	8.46e-01	0	53	104	0	59	12102
2026-01-13 12:43:05.42	184.00	4.64	-43.9	-54.5	3.8	8.46e-01	0	53	104	0	59	12181
2026-01-13 12:43:06.43	184.05	4.71	-43.9	-54.2	3.8	8.47e-01	0	53	104	0	59	11728
2026-01-13 12:43:07.44	184.09	4.77	-43.9	-54.2	3.8	8.47e-01	0	53	104	0	59	11740
2026-01-13 12:43:08.45	184.13	4.84	-43.8	-53.8	3.8	8.47e-01	0	54	104	0	59	11215
2026-01-13 12:43:09.46	184.18	4.91	-43.8	-53.8	3.8	8.46e-01	0	54	104	0	59	11285
2026-01-13 12:43:10.48	184.22	4.98	-43.8	-53.8	3.8	8.46e-01	0	53	104	0	59	11199
2026-01-13 12:43:11.49	184.27	5.05	-43.8	-54.0	3.8	8.46e-01	0	53	104	0	59	11462
2026-01-13 12:43:12.50	184.31	5.12	-43.8	-53.9	3.8	8.46e-01	0	54	104	0	59	11322
2026-01-13 12:43:13.51	184.36	5.19	-43.8	-53.8	3.8	8.45e-01	0	54	104	0	59	11191
2026-01-13 12:43:14.52	184.40	5.26	-43.8	-53.5	3.8	8.46e-01	0	54	104	0	59	10899
2026-01-13 12:43:15.53	184.45	5.33	-43.7	-53.1	3.8	8.45e-01	0	54	104	0	59	10296
2026-01-13 12:43:16.54	184.49	5.40	-43.7	-53.1	3.8	8.44e-01	0	54	104	0	59	10336
2026-01-13 12:43:17.55	184.54	5.47	-43.7	-52.8	4.0	8.45e-01	0	54	104	0	59	10051
2026-01-13 12:43:18.56	184.58	5.54	-43.6	-52.3	4.1	8.41e-01	0	54	0	0	59	9485
2026-01-13 12:43:19.57	184.63	5.61	-43.6	-52.5	4.0	8.42e-01	0	54	0	0	59	9621
2026-01-13 12:43:20.58	184.68	5.69	-43.5	-51.6	4.2	8.37e-01	0	54	0	0	59	8701
2026-01-13 12:43:21.58	184.72	5.76	-43.4	-51.2	4.3	8.31e-01	0	54	0	0	58	8849
2026-01-13 12:43:22.60	184.77	5.83	-43.3	-50.8	4.5	8.20e-01	0	54	0	0	58	8447
2026-01-13 12:43:23.61	184.82	5.90	-43.2	-50.4	4.6	8.15e-01	0	54	0	0	58	8066
2026-01-13 12:43:24.62	184.86	5.97	-43.1	-50.0	4.8	7.87e-01	0	54	0	0	58	7698
2026-01-13 12:43:25.63	184.91	6.04	-43.0	-49.6	5.1	7.58e-01	0	55	0	0	58	7338
2026-01-13 12:43:26.64	184.96	6.12	-42.9	-49.3	5.3	7.43e-01	0	55	0	0	57	7481
2026-01-13 12:43:27.65	185.01	6.19	-42.8	-48.9	5.5	7.02e-01	0	55	0	0	57	7145
2026-01-13 12:43:28.66	185.06	6.26	-43.0	-49.3	5.2	7.27e-01	0	55	0	2097152	57	7536
2026-01-13 12:43:29.67	185.10	6.33	-42.7	-48.5	5.8	6.62e-01	0	55	0	4194304	57	6827
2026-01-13 12:43:30.68	185.15	6.41	-42.7	-48.5	5.8	4.63e-01	0	55	0	10485760	57	6869
2026-01-13 12:43:31.69	185.20	6.48	-42.7	-48.6	5.8	4.02e-01	0	55	0	15728640	57	6889
2026-01-13 12:43:32.70	185.25	6.55	-42.7	-48.4	5.9	4.11e-01	0	55	0	20971520	57	6760
2026-01-13 12:43:33.71	185.30	6.63	-42.7	-48.4	5.9	4.29e-01	0	55	0	27262976	57	6753
2026-01-13 12:43:34.72	185.35	6.70	-42.6	-48.3	6.0	3.78e-01	0	55	0	32505856	57	6658
2026-01-13 12:43:35.73	185.40	6.77	-42.5	-48.0	6.1	3.59e-01	0	55	0	38797312	57	6484
2026-01-13 12:43:36.74	185.45	6.85	-42.6	-48.1	6.1	3.34e-01	0	55	0	44040192	56	6915
2026-01-13 12:43:37.75	185.50	6.92	-42.3	-47.4	6.7	2.45e-01	0	55	0	49283072	56	6369
2026-01-13 12:43:38.76	185.55	7.00	-42.2	-47.1	7.0	1.96e-01	0	55	0	55574528	56	6151
2026-01-13 12:43:39.77	185.60	7.07	-42.0	-46.6	7.4	1.42e-01	0	55	0	60817408	56	5847
2026-01-13 12:43:40.78	185.65	7.15	-41.5	-45.7	8.1	8.18e-02	0	55	0	67108864	55	5580
2026-01-13 12:43:41.79	185.70	7.22	-41.3	-45.4	8.4	5.46e-02	0	55	0	72351744	54	5673
2026-01-13 12:43:42.80	185.75	7.30	-41.0	-44.8	9.0	4.09e-02	0	55	0	78643200	54	5323
2026-01-13 12:43:43.81	185.81	7.37	-40.8	-44.4	9.4	1.89e-02	0	55	0	83886080	53	5394
2026-01-13 12:43:44.82	185.86	7.45	-40.5	-43.8	10.1	1.43e-02	0	55	0	90177536	53	5034
2026-01-13 12:43:45.83	185.91	7.52	-40.3	-43.6	10.3	6.26e-03	0	55	0	95420416	52	5160
2026-01-13 12:43:46.84	185.96	7.60	-40.2	-43.3	10.6	6.12e-03	0	55	0	100663296	52	5004
2026-01-13 12:43:47.85	186.02	7.68	-40.1	-43.2	10.7	3.86e-03	0	55	0	106954752	52	4953
2026-01-13 12:43:48.86	186.07	7.75	-40.1	-43.1	10.9	2.84e-03	0	55	0	112197632	51	5189
2026-01-13 12:43:49.86	186.12	7.83	-40.2	-43.3	10.7	3.74e-03	0	55	0	117440512	51	5302
2026-01-13 12:43:50.87	186.17	7.91	-40.2	-43.4	10.6	3.93e-03	0	55	0	123731968	51	5360
2026-01-13 12:43:51.88	186.23	7.98	-40.3	-43.5	10.5	4.59e-03	0	55	0	128974848	51	5455
2026-01-13 12:43:52.89	186.28	8.06	-40.6	-44.0	10.0	9.63e-03	0	55	0	135266304	51	5757
2026-01-13 12:43:53.90	186.34	8.14	-40.0	-43.0	11.0	2.96e-03	0	55	0	140509184	51	5139
2026-01-13 12:43:54.91	186.39	8.22	-40.8	-44.2	9.9	3.22e-03	0	56	0	145752064	52	5550
2026-01-13 12:43:55.92	186.45	8.29	-43.3	-51.1	4.4	6.08e-01	0	56	0	150994944	57	9193
2026-01-13 12:43:56.93	186.50	8.37	-43.8	-54.2	3.8	8.18e-01	0	56	104	150994944	58	12466
2026-01-13 12:43:57.94	186.56	8.45	-41.2	-45.0	9.2	4.10e-01	0	55	0	150994944	52	6077
2026-01-13 12:43:58.95	186.61	8.53	-39.9	-42.7	11.4	1.83e-03	0	56	0	157286400	51	4961
2026-01-13 12:43:59.96	186.67	8.61	-39.5	-42.1	12.0	6.12e-04	0	56	0	162529280	51	4642
2026-01-13 12:44:00.97	186.72	8.69	-39.7	-42.5	11.7	7.87e-04	0	56	0	168820736	51	4832
2026-01-13 12:44:01.98	186.78	8.77	-39.6	-42.4	11.8	9.28e-04	0	56	0	174063616	51	4761
2026-01-13 12:44:02.99	186.84	8.85	-39.6	-42.2	12.0	4.89e-04	0	56	0	179306496	51	4686
2026-01-13 12:44:04.00	186.90	8.93	-39.6	-42.3	11.9	5.23e-04	0	56	0	185597952	51	4717
2026-01-13 12:44:05.01	186.95	9.01	-39.5	-42.2	12.0	3.72e-04	0	56	0	190840832	50	4953
2026-01-13 12:44:06.02	187.01	9.09	-39.5	-42.2	12.1	5.14e-04	0	56	0	197132288	50	4933
2026-01-13 12:44:07.03	187.07	9.17	-39.6	-42.2	12.0	5.15e-04	0	56	0	202375168	50	4966
2026-01-13 12:44:08.04	187.13	9.25	-39.5	-42.1	12.1	3.98e-04	0	56	0	207618048	50	4918
2026-01-13 12:44:09.05	187.19	9.33	-39.6	-42.3	12.0	4.02e-04	0	56	0	213909504	50	4985
2026-01-13 12:44:10.06	187.24	9.41	-39.5	-42.1	12.2	3.56e-04	0	56	0	219152384	50	4871
2026-01-13 12:44:11.07	187.30	9.49	-39.6	-42.2	12.1	3.81e-04	0	56	0	225443840	50	4946
2026-01-13 12:44:12.08	187.36	9.57	-39.5	-42.1	12.2	3.36e-04	0	56	0	230686720	50	4916
2026-01-13 12:44:13.09	187.42	9.66	-39.6	-42.3	12.0	3.52e-04	0	56	0	236978176	50	5002
2026-01-13 12:44:14.10	187.48	9.74	-39.4	-42.0	12.3	2.87e-04	0	56	0	242221056	50	4838
2026-01-13 12:44:15.11	187.54	9.82	-39.4	-42.0	12.3	3.16e-04	0	56	0	247463936	50	4849
2026-01-13 12:44:16.12	187.61	9.90	-39.4	-42.0	12.3	2.35e-04	0	56	0	253755392	50	4847
2026-01-13 12:44:17.13	187.67	9.99	-39.5	-42.1	12.2	2.62e-04	0	56	0	258998272	50	4897
2026-01-13 12:44:18.14	187.73	10.07	-39.3	-41.8	12.5	1.51e-04	0	56	0	265289728	50	4736
2026-01-13 12:44:19.14	187.79	10.15	-39.5	-42.0	12.3	2.80e-04	0	56	0	270532608	50	4847
2026-01-13 12:44:20.15	187.85	10.24	-39.4	-42.0	12.4	2.33e-04	0	56	0	275775488	50	4838
2026-01-13 12:44:21.16	187.91	10.32	-39.4	-41.9	12.5	1.99e-04	0	56	0	282066944	50	4783
2026-01-13 12:44:22.17	187.98	10.40	-39.4	-41.9	12.5	2.05e-04	0	57	0	287309824	50	4790
2026-01-13 12:44:23.18	188.04	10.49	-39.4	-41.9	12.4	2.01e-04	0	56	0	293601280	50	4812
2026-01-13 12:44:24.19	188.10	10.57	-39.4	-41.9	12.5	2.15e-04	0	56	0	298844160	50	4799
2026-01-13 12:44:25.20	188.17	10.66	-39.4	-41.9	12.5	1.98e-04	0	57	0	304087040	50	4798
2026-01-13 12:44:26.21	188.23	10.74	-39.4	-41.9	12.5	1.67e-04	0	56	0	310378496	50	4809
2026-01-13 12:44:27.22	188.30	10.83	-39.4	-41.9	12.5	2.05e-04	0	57	0	315621376	50	4798
2026-01-13 12:44:28.23	188.36	10.92	-39.4	-41.9	12.5	1.75e-04	0	57	0	321912832	50	4802
2026-01-13 12:44:29.24	188.43	11.00	-39.4	-41.9	12.5	1.26e-04	0	57	0	327155712	50	4791
2026-01-13 12:44:30.25	188.49	11.09	-39.4	-41.9	12.5	1.40e-04	0	57	0	333447168	50	4793
2026-01-13 12:44:31.26	188.56	11.17	-39.4	-41.9	12.6	1.58e-04	0	57	0	338690048	50	4764
2026-01-13 12:44:32.27	188.63	11.26	-39.3	-41.8	12.6	1.33e-04	0	57	0	344981504	50	4747
2026-01-13 12:44:33.28	188.69	11.35	-39.3	-41.8	12.7	1.20e-04	0	57	0	350224384	50	4733
2026-01-13 12:44:34.29	188.76	11.44	-39.3	-41.7	12.8	9.38e-05	0	57	0	355467264	50	4671
2026-01-13 12:44:35.30	188.83	11.52	-39.2	-41.6	12.8	1.04e-04	0	57	0	361758720	50	4630
2026-01-13 12:44:36.31	188.90	11.61	-39.2	-41.6	12.8	8.69e-05	0	57	0	367001600	50	4639
2026-01-13 12:44:37.32	188.96	11.70	-39.3	-41.7	12.8	8.46e-05	0	57	0	372244480	50	4661
2026-01-13 12:44:38.33	189.03	11.79	-39.2	-41.6	12.9	7.78e-05	0	57	0	378535936	50	4629
2026-01-13 12:44:39.34	189.10	11.88	-39.3	-41.7	12.8	1.06e-04	0	57	0	383778816	50	4676
2026-01-13 12:44:40.34	189.17	11.97	-39.2	-41.6	12.9	6.17e-05	0	57	0	390070272	50	4622
2026-01-13 12:44:41.35	189.24	12.06	-39.2	-41.6	12.9	6.63e-05	0	57	0	395313152	50	4623
2026-01-13 12:44:42.37	189.31	12.15	-39.1	-41.5	13.0	5.49e-05	0	57	0	400556032	50	4583
2026-01-13 12:44:43.38	189.38	12.24	-39.1	-41.4	13.1	5.03e-05	0	57	0	406847488	50	4536
2026-01-13 12:44:44.39	189.46	12.33	-39.1	-41.5	13.1	5.60e-05	0	57	0	412090368	50	4549
2026-01-13 12:44:45.40	189.53	12.42	-39.1	-41.4	13.1	5.26e-05	0	57	0	418381824	50	4533
2026-01-13 12:44:46.41	189.60	12.51	-39.1	-41.4	13.1	4.34e-05	0	57	0	423624704	50	4545
2026-01-13 12:44:47.42	189.67	12.60	-39.1	-41.5	13.1	5.83e-05	0	57	0	429916160	50	4554
2026-01-13 12:44:48.43	189.74	12.69	-39.0	-41.4	13.2	4.80e-05	0	57	0	435159040	50	4500
2026-01-13 12:44:49.44	189.82	12.78	-39.1	-41.4	13.2	4.23e-05	0	57	0	441450496	50	4527
2026-01-13 12:44:50.45	189.89	12.88	-39.1	-41.4	13.2	5.26e-05	0	57	0	446693376	50	4535
2026-01-13 12:44:51.46	189.97	12.97	-39.1	-41.4	13.2	4.00e-05	0	57	0	451936256	50	4515
2026-01-13 12:44:52.47	190.04	13.06	-39.0	-41.3	13.2	3.77e-05	0	57	0	458227712	50	4492
2026-01-13 12:44:53.48	190.12	13.15	-39.0	-41.3	13.3	4.00e-05	0	57	0	463470592	50	4484
2026-01-13 12:44:54.49	190.19	13.25	-38.9	-41.2	13.4	1.37e-05	0	57	0	469762048	49	4675
2026-01-13 12:44:55.50	190.27	13.34	-38.9	-41.2	13.4	2.63e-05	0	57	0	475004928	49	4701
2026-01-13 12:44:56.51	190.34	13.44	-39.0	-41.3	13.3	2.28e-05	0	57	0	480247808	49	4716
2026-01-13 12:44:57.52	190.42	13.53	-38.9	-41.2	13.5	1.83e-05	0	57	0	486539264	49	4653
2026-01-13 12:44:58.53	190.50	13.63	-38.9	-41.2	13.4	1.48e-05	0	57	0	491782144	49	4690
2026-01-13 12:44:59.54	190.58	13.72	-38.9	-41.1	13.5	1.60e-05	0	57	0	498073600	49	4640
2026-01-13 12:45:00.55	190.66	13.82	-38.9	-41.2	13.5	2.05e-05	0	57	0	503316480	49	4661
2026-01-13 12:45:01.56	190.73	13.91	-38.9	-41.2	13.5	2.63e-05	0	57	0	508559360	49	4662
2026-01-13 12:45:02.57	190.81	14.01	-39.0	-41.3	13.3	2.97e-05	0	57	0	514850816	49	4737
2026-01-13 12:45:03.57	190.89	14.10	-39.0	-41.3	13.4	2.05e-05	0	57	0	520093696	49	4727
2026-01-13 12:45:04.59	190.97	14.20	-38.9	-41.2	13.5	2.51e-05	0	57	0	526385152	49	4679
2026-01-13 12:45:05.60	191.05	14.30	-39.0	-41.3	13.4	2.28e-05	0	58	0	531628032	49	4711
2026-01-13 12:45:06.61	191.14	14.40	-38.9	-41.2	13.5	2.51e-05	0	57	0	537919488	49	4665
2026-01-13 12:45:07.61	191.22	14.49	-38.9	-41.2	13.5	1.48e-05	0	57	0	543162368	49	4661
2026-01-13 12:45:08.62	191.30	14.59	-38.9	-41.1	13.5	1.60e-05	0	57	0	549453824	49	4632
2026-01-13 12:45:09.63	191.38	14.69	-38.8	-41.0	13.6	8.00e-06	0	57	0	554696704	49	4598
2026-01-13 12:45:10.64	191.47	14.79	-38.7	-40.9	13.8	9.10e-06	0	58	0	559939584	49	4510
2026-01-13 12:45:11.65	191.55	14.89	-38.7	-40.9	13.8	1.02e-05	0	58	0	566231040	49	4496
2026-01-13 12:45:12.66	191.64	14.99	-38.6	-40.7	14.0	3.40e-06	0	58	0	571473920	49	4434
2026-01-13 12:45:13.67	191.72	15.09	-38.5	-40.6	14.1	8.00e-06	0	58	0	576716800	49	4375
2026-01-13 12:45:14.68	191.81	15.19	-38.4	-40.5	14.2	5.70e-06	0	57	0	583008256	48	4585
2026-01-13 12:45:15.69	191.89	15.29	-38.4	-40.5	14.3	1.10e-06	0	58	0	588251136	48	4551
2026-01-13 12:45:16.70	191.98	15.39	-38.3	-40.4	14.4	1.10e-06	0	57	0	594542592	48	4508
2026-01-13 12:45:17.71	192.07	15.49	-38.3	-40.4	14.3	0.00e+00	0	58	0	599785472	48	4515
2026-01-13 12:45:18.72	192.15	15.59	-38.4	-40.4	14.3	3.40e-06	0	57	0	606076928	48	4524
2026-01-13 12:45:19.73	192.24	15.69	-38.3	-40.3	14.5	0.00e+00	0	58	0	611319808	48	4460
2026-01-13 12:45:20.74	192.33	15.79	-38.3	-40.3	14.4	2.20e-06	0	58	0	616562688	48	4478
2026-01-13 12:45:21.75	192.42	15.90	-38.3	-40.3	14.4	2.20e-06	0	57	0	622854144	48	4482
2026-01-13 12:45:22.76	192.51	16.00	-38.3	-40.3	14.4	0.00e+00	0	58	0	628097024	48	4470
2026-01-13 12:45:23.77	192.60	16.10	-38.3	-40.4	14.4	1.10e-06	0	58	0	634388480	48	4494
2026-01-13 12:45:24.78	192.69	16.21	-38.3	-40.3	14.4	0.00e+00	0	58	0	639631360	48	4493
2026-01-13 12:45:25.79	192.79	16.31	-38.3	-40.3	14.4	0.00e+00	0	58	0	645922816	48	4477
2026-01-13 12:45:26.80	192.88	16.42	-38.3	-40.3	14.4	0.00e+00	0	58	0	651165696	48	4478
2026-01-13 12:45:27.81	192.97	16.52	-38.3	-40.4	14.4	0.00e+00	0	58	0	656408576	48	4498
2026-01-13 12:45:28.82	193.07	16.63	-38.3	-40.3	14.4	0.00e+00	0	58	0	662700032	48	4471
2026-01-13 12:45:29.83	193.16	16.73	-38.2	-40.2	14.6	0.00e+00	0	58	0	667942912	48	4394
2026-01-13 12:45:30.84	193.26	16.84	-38.1	-40.1	14.7	0.00e+00	0	58	0	674234368	48	4344
2026-01-13 12:45:31.85	193.35	16.95	-38.0	-40.0	14.8	0.00e+00	0	58	0	679477248	48	4321
2026-01-13 12:45:32.85	193.45	17.05	-38.0	-39.9	14.8	1.10e-06	0	58	0	684720128	48	4289
2026-01-13 12:45:33.86	193.55	17.16	-38.1	-40.0	14.8	0.00e+00	0	58	0	691011584	48	4335
2026-01-13 12:45:34.87	193.64	17.27	-38.1	-40.0	14.7	1.10e-06	0	58	0	696254464	48	4338
2026-01-13 12:45:35.88	193.74	17.37	-38.1	-40.1	14.7	0.00e+00	0	58	0	702545920	48	4355
2026-01-13 12:45:36.89	193.84	17.48	-38.1	-40.1	14.7	1.10e-06	0	58	0	707788800	48	4387
2026-01-13 12:45:37.90	193.94	17.59	-38.1	-40.1	14.7	1.10e-06	0	58	0	713031680	48	4365
2026-01-13 12:45:38.91	194.04	17.70	-38.1	-40.1	14.7	2.20e-06	0	58	0	719323136	48	4376
2026-01-13 12:45:39.92	194.14	17.81	-38.1	-40.0	14.8	1.10e-06	0	58	0	724566016	48	4333
2026-01-13 12:45:40.93	194.25	17.92	-37.9	-39.8	14.8	1.10e-06	0	58	0	730857472	47	4493
2026-01-13 12:45:41.94	194.35	18.03	-37.8	-39.8	14.9	1.10e-06	0	58	0	736100352	47	4479
2026-01-13 12:45:42.95	194.45	18.14	-37.8	-39.8	14.9	0.00e+00	0	58	0	742391808	47	4459
2026-01-13 12:45:43.96	194.56	18.25	-37.7	-39.6	15.1	0.00e+00	0	58	0	747634688	47	4357
2026-01-13 12:45:44.97	194.66	18.37	-37.7	-39.6	15.1	0.00e+00	0	58	0	753926144	47	4386
2026-01-13 12:45:45.98	194.77	18.48	-37.7	-39.6	15.1	0.00e+00	0	58	0	759169024	47	4369
2026-01-13 12:45:46.99	194.87	18.59	-37.6	-39.6	15.1	0.00e+00	0	58	0	764411904	47	4343
2026-01-13 12:45:48.00	194.98	18.70	-37.7	-39.7	15.1	0.00e+00	0	58	0	770703360	47	4392
2026-01-13 12:45:49.01	195.09	18.82	-37.7	-39.7	15.0	0.00e+00	0	58	0	775946240	47	4408
2026-01-13 12:45:50.02	195.20	18.93	-37.8	-39.7	15.0	0.00e+00	0	58	0	782237696	47	4426
2026-01-13 12:45:51.03	195.31	19.05	-37.8	-39.8	14.9	1.10e-06	0	58	0	787480576	47	4452
2026-01-13 12:45:52.04	195.42	19.16	-37.8	-39.8	14.9	0.00e+00	0	58	0	792723456	47	4448
2026-01-13 12:45:53.05	195.53	19.28	-37.7	-39.7	15.0	0.00e+00	0	58	0	799014912	47	4418
2026-01-13 12:45:54.06	195.64	19.39	-37.7	-39.7	15.1	0.00e+00	0	58	0	804257792	47	4401
2026-01-13 12:45:55.07	195.75	19.51	-37.7	-39.6	15.1	0.00e+00	0	58	0	809500672	47	4377
2026-01-13 12:45:56.08	195.87	19.62	-37.6	-39.5	15.2	0.00e+00	0	58	0	815792128	47	4330
2026-01-13 12:45:57.09	195.98	19.74	-37.6	-39.5	15.2	0.00e+00	0	58	0	821035008	47	4319
2026-01-13 12:45:58.10	196.10	19.86	-37.5	-39.4	15.3	0.00e+00	0	58	0	827326464	47	4291
2026-01-13 12:45:59.11	196.21	19.98	-37.5	-39.4	15.3	0.00e+00	0	58	0	832569344	47	4264
2026-01-13 12:46:00.12	196.33	20.09	-37.5	-39.3	15.4	0.00e+00	0	58	0	838860800	46	4492
2026-01-13 12:46:01.13	196.45	20.21	-37.5	-39.4	15.4	0.00e+00	0	58	0	844103680	46	4495
2026-01-13 12:46:02.14	196.57	20.33	-37.5	-39.4	15.4	0.00e+00	0	58	0	850395136	46	4524
2026-01-13 12:46:03.15	196.69	20.45	-37.5	-39.4	15.3	0.00e+00	0	58	0	855638016	46	4541
2026-01-13 12:46:04.16	196.81	20.57	-37.6	-39.5	15.3	0.00e+00	0	58	0	860880896	46	4566
2026-01-13 12:46:05.17	196.93	20.69	-37.5	-39.4	15.3	0.00e+00	0	58	0	867172352	46	4538
2026-01-13 12:46:06.18	197.05	20.81	-37.6	-39.5	15.3	0.00e+00	0	58	0	872415232	46	4560
2026-01-13 12:46:07.19	197.17	20.94	-37.5	-39.4	15.4	0.00e+00	0	58	0	878706688	46	4512
2026-01-13 12:46:08.20	197.30	21.06	-37.5	-39.4	15.4	0.00e+00	0	58	0	883949568	46	4499
2026-01-13 12:46:09.21	197.42	21.18	-37.4	-39.3	15.5	0.00e+00	0	58	0	889192448	46	4472
2026-01-13 12:46:10.22	197.55	21.30	-37.4	-39.2	15.5	0.00e+00	0	58	0	895483904	46	4439
2026-01-13 12:46:11.23	197.68	21.43	-37.3	-39.1	15.6	0.00e+00	0	58	0	900726784	46	4391
2026-01-13 12:46:12.24	197.81	21.55	-37.2	-39.1	15.7	0.00e+00	0	58	0	907018240	46	4353
2026-01-13 12:46:13.25	197.94	21.67	-37.2	-39.0	15.8	0.00e+00	0	58	0	912261120	46	4319
2026-01-13 12:46:14.26	198.07	21.80	-37.2	-39.0	15.8	0.00e+00	0	58	0	917504000	46	4310
2026-01-13 12:46:15.27	198.20	21.92	-37.2	-39.0	15.8	0.00e+00	0	58	0	923795456	46	4333
2026-01-13 12:46:16.28	198.33	22.05	-37.2	-39.0	15.8	0.00e+00	0	59	0	929038336	46	4320
2026-01-13 12:46:17.29	198.46	22.18	-37.2	-39.0	15.7	0.00e+00	0	59	0	935329792	46	4335
2026-01-13 12:46:18.30	198.60	22.30	-37.3	-39.1	15.7	0.00e+00	0	58	0	940572672	46	4368
2026-01-13 12:46:19.31	198.73	22.43	-37.2	-39.1	15.7	0.00e+00	0	58	0	946864128	46	4351
2026-01-13 12:46:20.32	198.87	22.56	-37.2	-39.0	15.8	0.00e+00	0	58	0	952107008	46	4334
2026-01-13 12:46:21.33	199.01	22.68	-37.2	-39.0	15.8	0.00e+00	0	58	0	958398464	46	4311
2026-01-13 12:46:22.34	199.15	22.81	-37.1	-38.8	16.0	0.00e+00	0	59	0	963641344	46	4229
2026-01-13 12:46:23.35	199.29	22.94	-37.0	-38.8	16.0	0.00e+00	0	59	0	968884224	46	4222
2026-01-13 12:46:24.36	199.43	23.07	-37.1	-38.9	15.9	0.00e+00	0	59	0	975175680	46	4259
2026-01-13 12:46:25.37	199.57	23.20	-37.1	-38.9	16.0	0.00e+00	0	59	0	980418560	46	4251
2026-01-13 12:46:26.38	199.71	23.33	-37.1	-38.9	15.9	0.00e+00	0	59	0	986710016	46	4282
2026-01-13 12:46:27.39	199.86	23.46	-37.1	-38.8	16.0	1.10e-06	0	59	0	991952896	46	4239
2026-01-13 12:46:28.39	200.00	23.59	-37.0	-38.8	16.0	0.00e+00	0	59	0	997195776	46	4209
2026-01-13 12:46:29.40	200.15	23.72	-37.0	-38.8	16.1	0.00e+00	0	59	0	1003487232	46	4196
2026-01-13 12:46:30.41	200.30	23.86	-36.9	-38.7	16.2	0.00e+00	0	59	0	1008730112	45	4407
2026-01-13 12:46:31.42	200.45	23.99	-36.9	-38.6	16.2	0.00e+00	0	58	0	1015021568	45	4376
2026-01-13 12:46:32.43	200.60	24.12	-36.8	-38.6	16.3	0.00e+00	0	59	0	1020264448	45	4346
2026-01-13 12:46:33.44	200.75	24.26	-36.8	-38.5	16.3	0.00e+00	0	58	0	1025507328	45	4326
2026-01-13 12:46:34.45	200.90	24.39	-36.9	-38.6	16.2	0.00e+00	0	59	0	1031798784	45	4373
2026-01-13 12:46:35.46	201.06	24.53	-36.9	-38.7	16.1	0.00e+00	0	59	0	1037041664	45	4411
2026-01-13 12:46:36.47	201.21	24.66	-36.9	-38.6	16.2	0.00e+00	0	58	0	1043333120	45	4374
2026-01-13 12:46:37.48	201.37	24.80	-36.9	-38.6	16.3	0.00e+00	0	59	0	1048576000	45	4356
2026-01-13 12:46:38.49	201.53	24.93	-36.8	-38.5	16.4	0.00e+00	0	59	0	1054867456	45	4316
2026-01-13 12:46:39.50	201.69	25.07	-36.8	-38.5	16.3	0.00e+00	0	59	0	1060110336	45	4328
2026-01-13 12:46:40.51	201.85	25.21	-36.8	-38.5	16.3	0.00e+00	0	59	0	1065353216	45	4334
2026-01-13 12:46:41.52	202.01	25.34	-36.9	-38.6	16.3	0.00e+00	0	59	0	1071644672	45	4356
2026-01-13 12:46:42.53	202.17	25.48	-36.8	-38.5	16.3	0.00e+00	0	59	0	1076887552	45	4316
2026-01-13 12:46:43.54	202.34	25.62	-36.7	-38.5	16.4	0.00e+00	0	58	0	1083179008	45	4294
2026-01-13 12:46:44.55	202.50	25.76	-36.7	-38.4	16.5	0.00e+00	0	59	0	1088421888	45	4252
2026-01-13 12:46:45.56	202.67	25.90	-36.7	-38.3	16.5	0.00e+00	0	59	0	1093664768	45	4231
2026-01-13 12:46:46.57	202.84	26.04	-36.7	-38.3	16.5	0.00e+00	0	59	0	1099956224	45	4235
2026-01-13 12:46:47.58	203.01	26.18	-36.7	-38.4	16.5	0.00e+00	0	59	0	1105199104	45	4258
2026-01-13 12:46:48.59	203.19	26.32	-36.7	-38.4	16.5	0.00e+00	0	59	0	1111490560	45	4256
2026-01-13 12:46:49.60	203.36	26.46	-36.6	-38.3	16.5	0.00e+00	0	59	0	1116733440	45	4233
2026-01-13 12:46:50.61	203.53	26.60	-36.6	-38.3	16.6	0.00e+00	0	59	0	1121976320	45	4200
2026-01-13 12:46:51.62	203.71	26.75	-36.6	-38.3	16.6	0.00e+00	0	59	0	1128267776	45	4197
2026-01-13 12:46:52.63	203.89	26.89	-36.6	-38.3	16.6	0.00e+00	0	59	0	1133510656	45	4209
2026-01-13 12:46:53.64	204.07	27.03	-36.7	-38.4	16.5	0.00e+00	0	59	0	1139802112	45	4251
2026-01-13 12:46:54.65	204.25	27.18	-36.7	-38.4	16.5	0.00e+00	0	59	0	1145044992	45	4269
2026-01-13 12:46:55.65	204.43	27.32	-36.8	-38.5	16.4	0.00e+00	0	59	0	1151336448	45	4311
2026-01-13 12:46:56.66	204.62	27.46	-36.8	-38.5	16.4	0.00e+00	0	59	0	1156579328	45	4309
2026-01-13 12:46:57.67	204.80	27.61	-36.7	-38.4	16.4	0.00e+00	0	59	0	1162870784	45	4290
2026-01-13 12:46:58.69	204.99	27.75	-36.7	-38.4	16.5	0.00e+00	0	59	0	1168113664	45	4243
2026-01-13 12:46:59.69	205.18	27.90	-36.6	-38.3	16.5	0.00e+00	0	59	0	1173356544	45	4229
2026-01-13 12:47:00.70	205.37	28.05	-36.6	-38.3	16.6	0.00e+00	0	59	0	1179648000	45	4228
2026-01-13 12:47:01.71	205.57	28.19	-36.6	-38.3	16.6	0.00e+00	0	59	0	1184890880	45	4233
2026-01-13 12:47:02.72	205.76	28.34	-36.6	-38.3	16.6	0.00e+00	0	59	0	1191182336	45	4223
2026-01-13 12:47:03.73	205.96	28.49	-36.6	-38.3	16.6	0.00e+00	0	59	0	1196425216	45	4214
2026-01-13 12:47:04.74	206.16	28.64	-36.6	-38.3	16.6	0.00e+00	0	59	0	1201668096	45	4225
2026-01-13 12:47:05.75	206.36	28.78	-36.6	-38.3	16.5	0.00e+00	0	59	0	1207959552	45	4239
2026-01-13 12:47:06.76	206.56	28.93	-36.7	-38.4	16.5	0.00e+00	0	59	0	1213202432	45	4258
2026-01-13 12:47:07.77	206.76	29.08	-36.6	-38.3	16.6	0.00e+00	0	59	0	1218445312	45	4217
2026-01-13 12:47:08.78	206.97	29.23	-36.6	-38.3	16.6	0.00e+00	0	59	0	1224736768	45	4229
2026-01-13 12:47:09.79	207.18	29.38	-36.6	-38.3	16.6	0.00e+00	0	59	0	1229979648	45	4227
2026-01-13 12:47:10.80	207.39	29.53	-36.6	-38.3	16.6	0.00e+00	0	59	0	1236271104	45	4234
2026-01-13 12:47:11.81	207.60	29.68	-36.6	-38.3	16.6	0.00e+00	0	59	0	1241513984	45	4230
2026-01-13 12:47:12.82	207.81	29.84	-36.7	-38.4	16.5	0.00e+00	0	59	0	1247805440	45	4245
2026-01-13 12:47:13.83	208.03	29.99	-36.7	-38.4	16.5	0.00e+00	0	59	0	1253048320	45	4278
2026-01-13 12:47:14.84	208.25	30.14	-36.7	-38.4	16.5	0.00e+00	0	59	0	1259339776	45	4272
2026-01-13 12:47:15.85	208.46	30.29	-36.6	-38.4	16.5	0.00e+00	0	59	0	1264582656	45	4248
2026-01-13 12:47:16.86	208.69	30.44	-36.6	-38.3	16.6	0.00e+00	0	59	0	1269825536	45	4232
2026-01-13 12:47:17.87	208.91	30.60	-36.6	-38.3	16.6	0.00e+00	0	59	0	1276116992	45	4225
2026-01-13 12:47:18.88	209.14	30.75	-36.6	-38.3	16.6	0.00e+00	0	59	0	1281359872	45	4224
2026-01-13 12:47:19.89	209.36	30.91	-36.6	-38.3	16.6	0.00e+00	0	59	0	1287651328	45	4219
2026-01-13 12:47:20.90	209.59	31.06	-36.6	-38.2	16.7	0.00e+00	0	59	0	1292894208	45	4184
2026-01-13 12:47:21.91	209.83	31.21	-36.5	-38.1	16.8	0.00e+00	0	59	0	1298137088	45	4144
2026-01-13 12:47:22.92	210.06	31.37	-36.5	-38.1	16.8	0.00e+00	0	59	0	1304428544	44	4376
2026-01-13 12:47:23.93	210.30	31.52	-36.4	-38.0	16.9	0.00e+00	0	59	0	1309671424	44	4314
2026-01-13 12:47:24.94	210.54	31.68	-36.3	-37.9	17.0	0.00e+00	0	59	0	1315962880	44	4284
2026-01-13 12:47:25.95	210.78	31.83	-36.3	-37.9	17.0	0.00e+00	0	59	0	1321205760	44	4282
2026-01-13 12:47:26.96	211.02	31.99	-36.4	-38.1	16.9	0.00e+00	0	59	0	1326448640	44	4359
2026-01-13 12:47:27.97	211.27	32.15	-36.5	-38.2	16.7	0.00e+00	0	59	0	1332740096	44	4412
2026-01-13 12:47:28.98	211.51	32.30	-36.6	-38.3	16.7	0.00e+00	0	59	0	1337982976	44	4454
2026-01-13 12:47:29.99	211.76	32.46	-36.6	-38.3	16.7	0.00e+00	0	59	0	1344274432	44	4444
2026-01-13 12:47:31.00	212.02	32.62	-36.5	-38.2	16.8	0.00e+00	0	59	0	1349517312	44	4399
2026-01-13 12:47:32.01	212.27	32.77	-36.4	-38.0	16.9	0.00e+00	0	59	0	1355808768	44	4316
2026-01-13 12:47:33.02	212.53	32.93	-36.4	-38.0	16.9	0.00e+00	0	59	0	1361051648	44	4306
2026-01-13 12:47:34.03	212.79	33.09	-36.4	-38.0	16.9	0.00e+00	0	59	0	1367343104	44	4321
2026-01-13 12:47:35.04	213.05	33.25	-36.4	-38.0	16.9	0.00e+00	0	59	0	1372585984	44	4309
2026-01-13 12:47:36.05	213.32	33.40	-36.3	-37.9	17.0	0.00e+00	0	59	0	1377828864	44	4279
2026-01-13 12:47:37.05	213.58	33.56	-36.3	-37.9	17.0	0.00e+00	0	59	0	1384120320	44	4285
2026-01-13 12:47:38.06	213.85	33.72	-36.3	-37.9	17.0	0.00e+00	0	59	0	1389363200	44	4274
2026-01-13 12:47:39.07	214.12	33.88	-36.3	-38.0	16.9	0.00e+00	0	59	0	1395654656	44	4294
2026-01-13 12:47:40.09	214.40	34.04	-36.3	-38.0	16.9	0.00e+00	0	59	0	1400897536	44	4314
2026-01-13 12:47:41.10	214.68	34.20	-36.4	-38.1	16.8	0.00e+00	0	59	0	1406140416	44	4381
2026-01-13 12:47:42.11	214.96	34.35	-36.5	-38.1	16.8	0.00e+00	0	59	0	1412431872	44	4379
2026-01-13 12:47:43.11	215.24	34.51	-36.4	-38.1	16.8	0.00e+00	0	59	0	1417674752	44	4365
2026-01-13 12:47:44.12	215.53	34.67	-36.4	-38.0	16.9	0.00e+00	0	59	0	1423966208	44	4333
2026-01-13 12:47:45.13	215.82	34.83	-36.4	-38.0	16.9	0.00e+00	0	59	0	1429209088	44	4320
2026-01-13 12:47:46.14	216.11	34.99	-36.4	-38.0	16.9	0.00e+00	0	59	0	1434451968	44	4309
2026-01-13 12:47:47.15	216.40	35.15	-36.3	-38.0	16.9	0.00e+00	0	59	0	1440743424	44	4308
2026-01-13 12:47:48.16	216.70	35.30	-36.3	-38.0	17.0	0.00e+00	0	59	0	1445986304	44	4304
2026-01-13 12:47:49.17	217.00	35.46	-36.4	-38.1	16.9	0.00e+00	0	59	0	1452277760	44	4345
2026-01-13 12:47:50.18	217.30	35.62	-36.5	-38.2	16.8	0.00e+00	0	59	0	1457520640	44	4392
2026-01-13 12:47:51.19	217.61	35.78	-36.4	-38.1	16.8	0.00e+00	0	59	0	1463812096	44	4383
2026-01-13 12:47:52.20	217.92	35.94	-36.4	-38.0	16.8	0.00e+00	0	59	0	1469054976	44	4340
2026-01-13 12:47:53.21	218.23	36.10	-36.3	-37.9	17.0	0.00e+00	0	59	0	1474297856	44	4288
2026-01-13 12:47:54.22	218.54	36.25	-36.2	-37.9	17.1	0.00e+00	0	59	0	1480589312	44	4245
2026-01-13 12:47:55.23	218.86	36.41	-36.2	-37.8	17.2	0.00e+00	0	59	0	1485832192	44	4198
2026-01-13 12:47:56.24	219.18	36.57	-36.1	-37.7	17.2	0.00e+00	0	59	0	1492123648	44	4170
2026-01-13 12:47:57.25	219.50	36.73	-36.1	-37.7	17.2	0.00e+00	0	59	0	1497366528	44	4184
2026-01-13 12:47:58.26	219.83	36.88	-36.2	-37.8	17.1	0.00e+00	0	59	0	1502609408	44	4218
2026-01-13 12:47:59.27	220.16	37.04	-36.3	-37.9	17.0	0.00e+00	0	59	0	1508900864	44	4272
2026-01-13 12:48:00.28	220.49	37.20	-36.4	-38.0	16.9	0.00e+00	0	59	0	1514143744	44	4332
2026-01-13 12:48:01.29	220.83	37.35	-36.4	-38.0	16.9	0.00e+00	0	59	0	1520435200	44	4326
2026-01-13 12:48:02.30	221.17	37.51	-36.3	-38.0	17.0	0.00e+00	0	59	0	1525678080	44	4304
2026-01-13 12:48:03.31	221.51	37.66	-36.2	-37.8	17.1	0.00e+00	0	59	0	1530920960	44	4207
2026-01-13 12:48:04.32	221.86	37.82	-36.1	-37.7	17.3	0.00e+00	0	59	0	1537212416	44	4148
2026-01-13 12:48:05.33	222.21	37.97	-36.2	-37.8	17.2	0.00e+00	0	59	0	1542455296	44	4212
2026-01-13 12:48:06.34	222.56	38.13	-36.3	-37.9	17.0	0.00e+00	0	59	0	1548746752	44	4278
2026-01-13 12:48:07.35	222.91	38.28	-36.3	-37.9	17.0	0.00e+00	0	59	0	1553989632	44	4271
2026-01-13 12:48:08.36	223.27	38.43	-36.2	-37.9	17.1	0.00e+00	0	59	0	1560281088	44	4243
2026-01-13 12:48:09.37	223.64	38.58	-36.3	-37.9	17.0	0.00e+00	0	60	0	1565523968	44	4265
2026-01-13 12:48:10.38	224.00	38.74	-36.4	-38.0	16.9	0.00e+00	0	59	0	1571815424	44	4325
2026-01-13 12:48:11.39	224.37	38.89	-36.4	-38.0	16.9	0.00e+00	0	59	0	1577058304	44	4339
2026-01-13 12:48:12.40	224.74	39.04	-36.4	-38.1	16.9	0.00e+00	0	59	0	1582301184	44	4344
2026-01-13 12:48:13.41	225.12	39.19	-36.3	-38.0	17.0	0.00e+00	0	59	0	1588592640	44	4293
2026-01-13 12:48:14.43	225.50	39.34	-36.4	-38.1	16.9	0.00e+00	0	59	0	1593835520	44	4358
2026-01-13 12:48:15.43	225.88	39.48	-36.4	-38.1	16.8	0.00e+00	0	59	0	1600126976	44	4369
2026-01-13 12:48:16.44	226.27	39.63	-36.4	-38.0	16.9	0.00e+00	0	59	0	1605369856	44	4327
2026-01-13 12:48:17.45	226.66	39.78	-36.4	-38.0	17.0	0.00e+00	0	59	0	1610612736	44	4312
2026-01-13 12:48:18.46	227.05	39.92	-36.3	-38.0	17.0	0.00e+00	0	59	0	1616904192	44	4300
2026-01-13 12:48:19.47	227.44	40.07	-36.3	-38.0	17.0	0.00e+00	0	59	0	1622147072	44	4295
2026-01-13 12:48:20.48	227.84	40.21	-36.3	-37.9	17.0	0.00e+00	0	59	0	1628438528	44	4282
2026-01-13 12:48:21.49	228.25	40.36	-36.4	-38.0	17.0	0.00e+00	0	59	0	1633681408	44	4315
2026-01-13 12:48:22.50	228.66	40.50	-36.4	-38.0	17.0	0.00e+00	0	59	0	1638924288	44	4313
2026-01-13 12:48:23.51	229.07	40.64	-36.3	-38.0	17.0	0.00e+00	0	59	0	1645215744	44	4295
2026-01-13 12:48:24.52	229.48	40.78	-36.2	-37.8	17.1	0.00e+00	0	59	0	1650458624	44	4231
2026-01-13 12:48:25.53	229.90	40.92	-36.2	-37.8	17.1	0.00e+00	0	59	0	1656750080	44	4229
2026-01-13 12:48:26.54	230.32	41.06	-36.2	-37.8	17.1	0.00e+00	0	59	0	1661992960	44	4221
2026-01-13 12:48:27.55	230.74	41.19	-36.2	-37.8	17.2	0.00e+00	0	59	0	1668284416	44	4223
2026-01-13 12:48:28.56	231.17	41.33	-36.3	-37.9	17.1	0.00e+00	0	59	0	1673527296	44	4253
2026-01-13 12:48:29.57	231.60	41.46	-36.3	-38.0	17.0	0.00e+00	0	59	0	1678770176	44	4297
2026-01-13 12:48:30.58	232.04	41.59	-36.4	-38.1	16.9	0.00e+00	0	59	0	1685061632	44	4345
2026-01-13 12:48:31.59	232.48	41.73	-36.3	-37.9	17.0	0.00e+00	0	59	0	1690304512	44	4266
2026-01-13 12:48:32.60	232.92	41.86	-36.3	-37.9	17.1	0.00e+00	0	59	0	1696595968	44	4256
2026-01-13 12:48:33.60	233.36	41.98	-36.2	-37.8	17.2	0.00e+00	0	59	0	1701838848	44	4219
2026-01-13 12:48:34.61	233.81	42.11	-36.3	-37.9	17.0	0.00e+00	0	59	0	1707081728	44	4277
2026-01-13 12:48:35.62	234.26	42.23	-36.5	-38.2	16.8	0.00e+00	0	59	0	1713373184	44	4398
2026-01-13 12:48:36.63	234.72	42.36	-36.6	-38.3	16.6	0.00e+00	0	59	0	1718616064	44	4473
2026-01-13 12:48:37.65	235.18	42.48	-36.5	-38.2	16.7	0.00e+00	0	60	0	1724907520	44	4415
2026-01-13 12:48:38.65	235.64	42.60	-36.5	-38.2	16.8	0.00e+00	0	59	0	1730150400	44	4413
2026-01-13 12:48:39.67	236.11	42.72	-36.5	-38.2	16.7	0.00e+00	0	59	0	1735393280	44	4437
2026-01-13 12:48:40.68	236.58	42.84	-36.4	-38.1	16.8	0.00e+00	0	59	0	1741684736	44	4366
2026-01-13 12:48:41.69	237.05	42.95	-36.4	-38.0	17.0	0.00e+00	0	59	0	1746927616	44	4299
2026-01-13 12:48:42.70	237.53	43.07	-36.3	-38.0	17.0	0.00e+00	0	60	0	1753219072	44	4293
2026-01-13 12:48:43.70	238.01	43.18	-36.7	-38.4	16.5	0.00e+00	0	59	0	1758461952	44	4533
2026-01-13 12:48:44.72	238.49	43.29	-36.8	-38.6	16.4	0.00e+00	0	59	0	1764753408	44	4616
2026-01-13 12:48:45.73	238.98	43.40	-36.8	-38.6	16.4	0.00e+00	0	59	0	1769996288	44	4623
2026-01-13 12:48:46.74	239.47	43.50	-36.7	-38.4	16.6	0.00e+00	0	59	0	1776287744	44	4504
2026-01-13 12:48:47.75	239.96	43.61	-36.6	-38.3	16.6	0.00e+00	0	59	0	1781530624	44	4486
2026-01-13 12:48:48.76	240.46	43.71	-36.5	-38.1	16.8	0.00e+00	0	59	0	1786773504	44	4386
2026-01-13 12:48:49.77	240.96	43.81	-36.4	-38.0	17.0	0.00e+00	0	59	0	1793064960	44	4332
2026-01-13 12:48:50.78	241.46	43.91	-36.4	-38.0	17.0	0.00e+00	0	60	0	1798307840	44	4298
2026-01-13 12:48:51.79	241.97	44.00	-36.4	-38.0	16.9	0.00e+00	0	59	0	1804599296	44	4329
2026-01-13 12:48:52.80	242.47	44.10	-36.6	-38.3	16.7	0.00e+00	0	60	0	1809842176	44	4455
2026-01-13 12:48:53.81	242.99	44.19	-36.6	-38.3	16.6	0.00e+00	0	60	0	1815085056	44	4483
2026-01-13 12:48:54.82	243.50	44.28	-36.7	-38.4	16.6	0.00e+00	0	60	0	1821376512	44	4499
2026-01-13 12:48:55.83	244.02	44.36	-36.7	-38.4	16.6	0.00e+00	0	59	0	1826619392	44	4507
2026-01-13 12:48:56.84	244.54	44.45	-36.7	-38.4	16.5	0.00e+00	0	59	0	1832910848	44	4526
2026-01-13 12:48:57.85	245.06	44.53	-36.6	-38.3	16.7	0.00e+00	0	59	0	1838153728	44	4450
2026-01-13 12:48:58.86	245.58	44.61	-36.6	-38.2	16.8	0.00e+00	0	60	0	1843396608	44	4424
2026-01-13 12:48:59.87	246.11	44.69	-36.6	-38.2	16.7	0.00e+00	0	60	0	1849688064	44	4422
2026-01-13 12:49:00.88	246.64	44.76	-36.5	-38.2	16.8	0.00e+00	0	59	0	1854930944	44	4408
2026-01-13 12:49:01.89	247.17	44.83	-36.6	-38.3	16.6	0.00e+00	0	59	0	1861222400	44	4476
2026-01-13 12:49:02.90	247.71	44.90	-36.6	-38.3	16.6	0.00e+00	0	59	0	1866465280	44	4486
2026-01-13 12:49:03.91	248.24	44.97	-36.7	-38.4	16.6	0.00e+00	0	60	0	1872756736	44	4500
2026-01-13 12:49:04.91	248.78	45.03	-36.6	-38.2	16.8	0.00e+00	0	59	0	1877999616	44	4419
2026-01-13 12:49:05.92	249.32	45.09	-36.5	-38.1	16.9	0.00e+00	0	59	0	1884291072	44	4378
2026-01-13 12:49:06.93	249.86	45.15	-36.5	-38.2	16.8	0.00e+00	0	59	0	1889533952	44	4407
2026-01-13 12:49:07.94	250.40	45.21	-36.5	-38.1	16.8	0.00e+00	0	59	0	1894776832	44	4387
2026-01-13 12:49:08.96	250.96	45.26	-36.5	-38.1	16.9	0.00e+00	0	59	0	1901068288	44	4346
2026-01-13 12:49:09.97	251.51	45.31	-36.6	-38.3	16.7	0.00e+00	0	59	0	1906311168	44	4445
2026-01-13 12:49:10.98	252.06	45.36	-36.9	-38.6	16.4	0.00e+00	0	59	0	1912602624	44	4638
2026-01-13 12:49:11.98	252.60	45.40	-36.9	-38.7	16.3	0.00e+00	0	59	0	1917845504	44	4657
2026-01-13 12:49:12.99	253.15	45.45	-36.8	-38.5	16.4	0.00e+00	0	59	0	1923088384	44	4581
2026-01-13 12:49:14.00	253.71	45.48	-36.8	-38.5	16.4	0.00e+00	0	59	0	1929379840	44	4580
2026-01-13 12:49:15.01	254.27	45.52	-36.9	-38.7	16.3	0.00e+00	0	60	0	1934622720	44	4654
2026-01-13 12:49:16.02	254.82	45.55	-36.7	-38.4	16.6	0.00e+00	0	60	0	1940914176	44	4504
2026-01-13 12:49:17.03	255.38	45.59	-36.5	-38.1	16.8	0.00e+00	0	60	0	1946157056	44	4383
2026-01-13 12:49:18.04	255.94	45.61	-36.6	-38.3	16.7	0.00e+00	0	60	0	1951399936	44	4477
2026-01-13 12:49:19.05	256.50	45.64	-36.8	-38.5	16.5	0.00e+00	0	60	0	1957691392	44	4568
2026-01-13 12:49:20.06	257.06	45.66	-36.5	-38.2	16.8	0.00e+00	0	60	0	1962934272	44	4399
2026-01-13 12:49:21.07	257.62	45.68	-36.4	-38.0	17.0	0.00e+00	0	60	0	1969225728	44	4315
2026-01-13 12:49:22.08	258.19	45.69	-36.5	-38.1	16.9	0.00e+00	0	60	0	1974468608	44	4380
2026-01-13 12:49:23.09	258.75	45.71	-36.6	-38.3	16.6	0.00e+00	0	59	0	1980760064	44	4479
2026-01-13 12:49:24.10	259.31	45.72	-36.7	-38.4	16.5	0.00e+00	0	60	0	1986002944	44	4533
2026-01-13 12:49:25.11	259.87	45.72	-36.7	-38.4	16.6	0.00e+00	0	60	0	1991245824	44	4512
2026-01-13 12:49:26.12	260.44	45.73	-36.6	-38.2	16.8	0.00e+00	0	60	0	1997537280	44	4415
2026-01-13 12:49:27.13	261.00	45.73	-36.5	-38.2	16.8	0.00e+00	0	59	0	2002780160	44	4395
2026-01-13 12:49:28.14	261.57	45.73	-36.7	-38.3	16.6	0.00e+00	0	59	0	2009071616	44	4492
2026-01-13 12:49:29.15	262.13	45.72	-36.7	-38.5	16.5	0.00e+00	0	59	0	2014314496	44	4553
2026-01-13 12:49:30.16	262.69	45.71	-36.6	-38.3	16.7	0.00e+00	0	59	0	2019557376	44	4448
2026-01-13 12:49:31.17	263.26	45.70	-36.5	-38.1	16.9	0.00e+00	0	60	0	2025848832	44	4372
2026-01-13 12:49:32.18	263.82	45.69	-36.7	-38.4	16.6	0.00e+00	0	59	0	2031091712	44	4530
2026-01-13 12:49:33.19	264.38	45.67	-37.0	-38.8	16.2	0.00e+00	0	59	0	2037383168	44	4739
2026-01-13 12:49:34.19	264.94	45.65	-37.1	-38.8	16.1	0.00e+00	0	59	0	2042626048	44	4759
2026-01-13 12:49:35.21	265.50	45.63	-36.9	-38.6	16.3	0.00e+00	0	59	0	2047868928	44	4641
2026-01-13 12:49:36.21	266.06	45.60	-36.8	-38.5	16.5	0.00e+00	0	59	0	2054160384	44	4553
2026-01-13 12:49:37.22	266.61	45.57	-36.8	-38.5	16.5	0.00e+00	0	60	0	2059403264	44	4574
2026-01-13 12:49:38.23	267.17	45.54	-36.8	-38.6	16.4	0.00e+00	0	59	0	2065694720	44	4618
2026-01-13 12:49:39.24	267.73	45.51	-36.8	-38.5	16.5	0.00e+00	0	60	0	2070937600	44	4555
2026-01-13 12:49:40.25	268.28	45.47	-36.6	-38.3	16.6	0.00e+00	0	59	0	2077229056	44	4475
2026-01-13 12:49:41.26	268.84	45.43	-36.7	-38.4	16.6	0.00e+00	0	59	0	2082471936	44	4528
2026-01-13 12:49:42.27	269.39	45.39	-37.0	-38.7	16.3	0.00e+00	0	59	0	2088763392	44	4702
2026-01-13 12:49:43.29	269.94	45.34	-37.0	-38.8	16.2	0.00e+00	0	60	0	2094006272	44	4746
2026-01-13 12:49:44.30	270.49	45.29	-36.9	-38.6	16.4	0.00e+00	0	59	0	2099249152	44	4643
2026-01-13 12:49:45.30	271.04	45.24	-36.7	-38.4	16.6	0.00e+00	0	59	0	2105540608	44	4524
2026-01-13 12:49:46.32	271.59	45.19	-36.7	-38.3	16.6	0.00e+00	0	60	0	2110783488	44	4491
2026-01-13 12:49:47.33	272.13	45.13	-36.8	-38.5	16.5	0.00e+00	0	59	0	2117074944	44	4556
2026-01-13 12:49:48.34	272.67	45.07	-36.8	-38.6	16.4	0.00e+00	0	60	0	2122317824	44	4603
2026-01-13 12:49:49.35	273.21	45.01	-36.8	-38.5	16.4	0.00e+00	0	60	0	2127560704	44	4579
2026-01-13 12:49:50.36	273.75	44.94	-36.6	-38.2	16.7	0.00e+00	0	60	0	2133852160	44	4437
2026-01-13 12:49:51.37	274.28	44.87	-36.4	-38.0	16.9	0.00e+00	0	60	0	2139095040	44	4340
2026-01-13 12:49:52.38	274.82	44.80	-36.6	-38.2	16.7	0.00e+00	0	59	0	2145386496	44	4422
2026-01-13 12:49:53.39	275.35	44.73	-36.8	-38.5	16.5	0.00e+00	0	60	0	2150629376	44	4571
2026-01-13 12:49:54.40	275.87	44.66	-36.7	-38.5	16.5	0.00e+00	0	60	0	2155872256	44	4561
2026-01-13 12:49:55.41	276.40	44.58	-36.6	-38.3	16.6	0.00e+00	0	60	0	2162163712	44	4462
2026-01-13 12:49:56.42	276.92	44.50	-36.7	-38.3	16.6	0.00e+00	0	59	0	2167406592	44	4483
2026-01-13 12:49:57.43	277.44	44.41	-36.7	-38.4	16.5	0.00e+00	0	60	0	2173698048	44	4515
2026-01-13 12:49:58.44	277.96	44.33	-36.7	-38.2	17.0	0.00e+00	0	60	0	2178940928	44	4397
2026-01-13 12:49:59.45	278.48	44.24	-36.6	-38.1	17.1	0.00e+00	0	60	0	2185232384	44	4352
2026-01-13 12:50:00.46	278.99	44.15	-36.7	-38.3	16.9	0.00e+00	0	60	0	2190475264	44	4450
2026-01-13 12:50:01.47	279.50	44.06	-36.9	-38.5	16.8	0.00e+00	0	60	0	2196766720	44	4546
2026-01-13 12:50:02.48	280.00	43.97	-36.8	-38.3	16.9	0.00e+00	0	60	0	2202009600	44	4474
2026-01-13 12:50:03.49	280.51	43.87	-36.5	-38.0	17.2	0.00e+00	0	60	0	2207252480	44	4315
2026-01-13 12:50:04.50	281.00	43.77	-36.5	-38.0	17.2	0.00e+00	0	60	0	2213543936	44	4300
2026-01-13 12:50:05.51	281.50	43.67	-36.6	-38.0	17.1	0.00e+00	0	60	0	2218786816	44	4335
2026-01-13 12:50:06.52	282.00	43.57	-36.6	-38.2	17.0	0.00e+00	0	60	0	2225078272	44	4398
2026-01-13 12:50:07.53	282.49	43.47	-36.6	-38.1	17.1	0.00e+00	0	60	0	2230321152	44	4371
2026-01-13 12:50:08.54	282.97	43.36	-36.6	-38.1	17.1	0.00e+00	0	60	0	2235564032	44	4379
2026-01-13 12:50:09.55	283.46	43.25	-36.7	-38.3	16.9	0.00e+00	0	59	0	2241855488	44	4442
2026-01-13 12:50:10.56	283.94	43.14	-36.9	-38.5	16.7	0.00e+00	0	60	0	2247098368	44	4558
2026-01-13 12:50:11.57	284.42	43.03	-36.9	-38.5	16.7	0.00e+00	0	60	0	2253389824	44	4561
2026-01-13 12:50:12.58	284.89	42.91	-36.8	-38.3	16.8	0.00e+00	0	60	0	2258632704	44	4483
2026-01-13 12:50:13.59	285.36	42.80	-36.8	-38.3	16.9	0.00e+00	0	60	0	2263875584	44	4492
2026-01-13 12:50:14.60	285.83	42.68	-36.9	-38.5	16.7	0.00e+00	0	59	0	2270167040	44	4551
2026-01-13 12:50:15.61	286.29	42.56	-36.8	-38.4	16.8	0.00e+00	0	60	0	2275409920	44	4518
2026-01-13 12:50:16.62	286.75	42.44	-36.7	-38.3	16.9	0.00e+00	0	60	0	2281701376	44	4450
2026-01-13 12:50:17.63	287.21	42.32	-36.7	-38.2	17.0	0.00e+00	0	59	0	2286944256	44	4412
2026-01-13 12:50:18.64	287.66	42.19	-36.8	-38.3	16.9	0.00e+00	0	59	0	2293235712	44	4454
2026-01-13 12:50:19.65	288.11	42.07	-36.9	-38.4	16.8	0.00e+00	0	59	0	2298478592	44	4527
2026-01-13 12:50:20.66	288.56	41.94	-36.8	-38.4	16.8	0.00e+00	0	60	0	2303721472	44	4504
2026-01-13 12:50:21.67	289.00	41.81	-36.7	-38.2	17.0	0.00e+00	0	60	0	2310012928	44	4422
2026-01-13 12:50:22.68	289.44	41.68	-36.6	-38.1	17.1	0.00e+00	0	59	0	2315255808	44	4360
2026-01-13 12:50:23.69	289.88	41.55	-36.6	-38.1	17.1	0.00e+00	0	60	0	2321547264	44	4343
2026-01-13 12:50:24.70	290.31	41.42	-36.6	-38.0	17.1	0.00e+00	0	60	0	2326790144	44	4334
2026-01-13 12:50:25.71	290.74	41.28	-36.4	-37.9	17.3	0.00e+00	0	59	0	2332033024	44	4274
2026-01-13 12:50:26.72	291.17	41.15	-36.4	-37.9	17.3	0.00e+00	0	60	0	2338324480	44	4260
2026-01-13 12:50:27.73	291.59	41.01	-36.5	-38.0	17.2	0.00e+00	0	60	0	2343567360	44	4327
2026-01-13 12:50:28.74	292.01	40.88	-36.5	-38.0	17.1	0.00e+00	0	60	0	2349858816	44	4336
2026-01-13 12:50:29.75	292.42	40.74	-36.4	-37.9	17.2	0.00e+00	0	60	0	2355101696	44	4275
2026-01-13 12:50:30.76	292.84	40.60	-36.3	-37.7	17.5	0.00e+00	0	60	0	2360344576	44	4173
2026-01-13 12:50:31.77	293.24	40.46	-36.2	-37.6	17.6	0.00e+00	0	60	0	2366636032	44	4116
2026-01-13 12:50:32.78	293.65	40.32	-36.3	-37.8	17.4	0.00e+00	0	60	0	2371878912	44	4211
2026-01-13 12:50:33.79	294.05	40.17	-36.6	-38.1	17.1	0.00e+00	0	60	0	2378170368	44	4369
2026-01-13 12:50:34.80	294.45	40.03	-36.7	-38.2	17.0	0.00e+00	0	60	0	2383413248	44	4415
2026-01-13 12:50:35.81	294.84	39.88	-36.7	-38.2	17.0	0.00e+00	0	60	0	2389704704	44	4399
2026-01-13 12:50:36.82	295.23	39.74	-36.5	-38.0	17.2	0.00e+00	0	60	0	2394947584	44	4320
2026-01-13 12:50:37.83	295.62	39.59	-36.4	-37.9	17.3	0.00e+00	0	60	0	2401239040	44	4243
2026-01-13 12:50:38.84	296.00	39.45	-36.2	-37.7	17.5	0.00e+00	0	60	0	2406481920	44	4155
2026-01-13 12:50:39.85	296.38	39.30	-36.2	-37.6	17.6	0.00e+00	0	60	0	2411724800	44	4122
2026-01-13 12:50:40.85	296.76	39.15	-36.2	-37.6	17.6	0.00e+00	0	60	0	2418016256	44	4130
2026-01-13 12:50:41.86	297.13	39.00	-36.2	-37.7	17.5	0.00e+00	0	60	0	2423259136	44	4164
2026-01-13 12:50:42.87	297.50	38.85	-36.3	-37.7	17.4	0.00e+00	0	60	0	2429550592	44	4182
2026-01-13 12:50:43.88	297.87	38.70	-36.3	-37.8	17.4	0.00e+00	0	60	0	2434793472	44	4197
2026-01-13 12:50:44.90	298.23	38.55	-36.3	-37.7	17.5	0.00e+00	0	60	0	2440036352	44	4172
2026-01-13 12:50:45.90	298.59	38.40	-36.3	-37.7	17.4	0.00e+00	0	60	0	2446327808	44	4192
2026-01-13 12:50:46.91	298.95	38.24	-36.3	-37.8	17.4	0.00e+00	0	60	0	2451570688	44	4210
2026-01-13 12:50:47.92	299.30	38.09	-36.3	-37.8	17.4	0.00e+00	0	60	0	2457862144	44	4196
2026-01-13 12:50:48.93	299.65	37.94	-36.3	-37.7	17.4	0.00e+00	0	60	0	2463105024	44	4183
2026-01-13 12:50:49.95	300.00	37.78	-36.3	-37.7	17.4	0.00e+00	0	59	0	2468347904	44	4189
2026-01-13 12:50:50.96	300.34	37.63	-36.3	-37.8	17.4	0.00e+00	0	60	0	2474639360	44	4211
2026-01-13 12:50:51.97	300.68	37.47	-36.3	-37.8	17.4	0.00e+00	0	60	0	2479882240	44	4209
2026-01-13 12:50:52.98	301.02	37.32	-36.3	-37.8	17.4	0.00e+00	0	60	0	2486173696	44	4211
2026-01-13 12:50:53.99	301.36	37.16	-36.2	-37.7	17.5	0.00e+00	0	60	0	2491416576	44	4148
2026-01-13 12:50:55.00	301.69	37.01	-36.2	-37.6	17.6	0.00e+00	0	60	0	2497708032	44	4135
2026-01-13 12:50:56.00	302.01	36.85	-36.2	-37.6	17.5	0.00e+00	0	60	0	2502950912	44	4132
2026-01-13 12:50:57.01	302.34	36.70	-36.2	-37.7	17.5	0.00e+00	0	60	0	2508193792	44	4161
2026-01-13 12:50:58.02	302.66	36.54	-36.3	-37.8	17.4	0.00e+00	0	60	0	2514485248	44	4218
2026-01-13 12:50:59.03	302.98	36.38	-36.4	-37.8	17.3	0.00e+00	0	60	0	2519728128	44	4236
2026-01-13 12:51:00.04	303.29	36.23	-36.3	-37.8	17.3	0.00e+00	0	60	0	2526019584	44	4223
2026-01-13 12:51:01.05	303.61	36.07	-36.4	-37.8	17.3	0.00e+00	0	60	0	2531262464	44	4224
2026-01-13 12:51:02.06	303.91	35.91	-36.4	-37.9	17.3	0.00e+00	0	60	0	2536505344	44	4255
2026-01-13 12:51:03.07	304.22	35.76	-36.5	-38.0	17.2	0.00e+00	0	60	0	2542796800	44	4309
2026-01-13 12:51:04.08	304.53	35.60	-36.6	-38.2	17.0	0.00e+00	0	60	0	2548039680	44	4397
2026-01-13 12:51:05.09	304.83	35.44	-36.7	-38.3	16.9	0.00e+00	0	60	0	2554331136	44	4442
2026-01-13 12:51:06.10	305.12	35.28	-36.7	-38.2	16.9	0.00e+00	0	60	0	2559574016	44	4440
2026-01-13 12:51:07.11	305.42	35.13	-36.6	-38.2	17.0	0.00e+00	0	60	0	2564816896	44	4394
2026-01-13 12:51:08.11	305.71	34.97	-36.6	-38.1	17.1	0.00e+00	0	60	0	2571108352	44	4358
2026-01-13 12:51:09.13	306.00	34.81	-36.4	-37.9	17.3	0.00e+00	0	60	0	2576351232	44	4258
2026-01-13 12:51:10.13	306.29	34.65	-36.4	-37.9	17.3	0.00e+00	0	60	0	2582642688	44	4244
2026-01-13 12:51:11.15	306.57	34.50	-36.4	-37.9	17.3	0.00e+00	0	60	0	2587885568	44	4253
2026-01-13 12:51:12.15	306.85	34.34	-36.5	-37.9	17.2	0.00e+00	0	60	0	2594177024	44	4287
2026-01-13 12:51:13.16	307.13	34.18	-36.4	-38.0	17.2	0.00e+00	0	60	0	2599419904	44	4292
2026-01-13 12:51:14.17	307.41	34.02	-36.5	-38.0	17.1	0.00e+00	0	60	0	2605711360	44	4303
2026-01-13 12:51:15.18	307.68	33.87	-36.4	-37.9	17.2	0.00e+00	0	60	0	2610954240	44	4255
2026-01-13 12:51:16.19	307.95	33.71	-36.3	-37.8	17.3	0.00e+00	0	60	0	2616197120	44	4212
2026-01-13 12:51:17.20	308.22	33.55	-36.3	-37.8	17.3	0.00e+00	0	60	0	2622488576	44	4216
2026-01-13 12:51:18.21	308.49	33.40	-36.4	-37.9	17.3	0.00e+00	0	60	0	2627731456	44	4244
2026-01-13 12:51:19.22	308.75	33.24	-36.5	-38.0	17.1	0.00e+00	0	60	0	2632974336	44	4318
2026-01-13 12:51:20.23	309.01	33.08	-36.6	-38.1	17.0	0.00e+00	0	60	0	2639265792	44	4366
2026-01-13 12:51:21.24	309.27	32.93	-36.7	-38.2	16.9	0.00e+00	0	60	0	2644508672	44	4422
2026-01-13 12:51:22.25	309.53	32.77	-36.6	-38.2	17.0	0.00e+00	0	60	0	2650800128	44	4404
2026-01-13 12:51:23.26	309.78	32.61	-36.6	-38.1	17.0	0.00e+00	0	60	0	2656043008	44	4371
2026-01-13 12:51:24.27	310.03	32.46	-36.5	-38.0	17.2	0.00e+00	0	60	0	2661285888	44	4293
2026-01-13 12:51:25.28	310.28	32.30	-36.5	-37.9	17.2	0.00e+00	0	60	0	2667577344	44	4291
2026-01-13 12:51:26.29	310.53	32.15	-36.4	-37.9	17.2	0.00e+00	0	60	0	2672820224	44	4284
2026-01-13 12:51:27.29	310.77	31.99	-36.4	-37.9	17.2	0.00e+00	0	60	0	2679111680	44	4277
2026-01-13 12:51:28.30	311.01	31.84	-36.5	-38.0	17.1	0.00e+00	0	60	0	2684354560	44	4327
2026-01-13 12:51:29.31	311.25	31.68	-36.7	-38.2	16.9	0.00e+00	0	60	0	2690646016	44	4413
2026-01-13 12:51:30.32	311.49	31.53	-36.7	-38.3	16.8	0.00e+00	0	60	0	2695888896	44	4470
2026-01-13 12:51:31.33	311.72	31.37	-36.8	-38.4	16.7	0.00e+00	0	60	0	2702180352	44	4510
2026-01-13 12:51:32.34	311.96	31.22	-36.8	-38.4	16.7	0.00e+00	0	60	0	2707423232	44	4514
2026-01-13 12:51:33.36	312.19	31.07	-36.8	-38.4	16.7	0.00e+00	0	60	0	2712666112	44	4499
2026-01-13 12:51:34.37	312.42	30.91	-36.7	-38.2	16.8	0.00e+00	0	60	0	2718957568	44	4435
2026-01-13 12:51:35.38	312.64	30.76	-36.7	-38.2	16.9	0.00e+00	0	60	0	2724200448	44	4410
2026-01-13 12:51:36.39	312.87	30.61	-36.7	-38.2	16.9	0.00e+00	0	60	0	2730491904	44	4402
2026-01-13 12:51:37.40	313.09	30.46	-36.6	-38.2	16.9	0.00e+00	0	60	0	2735734784	44	4394
2026-01-13 12:51:38.40	313.31	30.31	-36.7	-38.3	16.8	0.00e+00	0	60	0	2740977664	44	4445
2026-01-13 12:51:39.41	313.53	30.15	-36.8	-38.3	16.7	0.00e+00	0	60	0	2747269120	44	4473
2026-01-13 12:51:40.42	313.75	30.00	-36.8	-38.4	16.7	0.00e+00	0	60	0	2752512000	44	4511
2026-01-13 12:51:41.43	313.96	29.85	-36.9	-38.5	16.6	0.00e+00	0	60	0	2758803456	44	4550
2026-01-13 12:51:42.44	314.17	29.70	-36.9	-38.5	16.6	0.00e+00	0	60	0	2764046336	44	4576
2026-01-13 12:51:43.45	314.38	29.55	-36.9	-38.5	16.6	0.00e+00	0	60	0	2769289216	44	4562
2026-01-13 12:51:44.46	314.59	29.40	-36.8	-38.4	16.7	0.00e+00	0	60	0	2775580672	44	4510
2026-01-13 12:51:45.47	314.80	29.25	-36.7	-38.3	16.8	0.00e+00	0	60	0	2780823552	44	4447
2026-01-13 12:51:46.48	315.00	29.10	-36.6	-38.2	16.9	0.00e+00	0	60	0	2787115008	44	4414
2026-01-13 12:51:47.49	315.21	28.96	-36.5	-38.1	17.0	0.00e+00	0	60	0	2792357888	44	4349
2026-01-13 12:51:48.50	315.41	28.81	-36.5	-38.0	17.1	0.00e+00	0	60	0	2798649344	44	4311
2026-01-13 12:51:49.51	315.61	28.66	-36.4	-37.9	17.1	0.00e+00	0	60	0	2803892224	44	4286
2026-01-13 12:51:50.52	315.80	28.51	-36.4	-37.9	17.1	0.00e+00	0	60	0	2810183680	44	4276
2026-01-13 12:51:51.53	316.00	28.37	-36.5	-38.0	17.1	0.00e+00	0	60	0	2815426560	44	4293
2026-01-13 12:51:52.54	316.19	28.22	-36.5	-38.1	17.0	0.00e+00	0	60	0	2820669440	44	4342
2026-01-13 12:51:53.55	316.39	28.07	-36.6	-38.2	16.9	0.00e+00	0	60	0	2826960896	44	4401
2026-01-13 12:51:54.56	316.58	27.93	-36.7	-38.3	16.8	0.00e+00	0	60	0	2832203776	44	4452
2026-01-13 12:51:55.57	316.77	27.78	-36.8	-38.4	16.7	0.00e+00	0	60	0	2838495232	44	4508
2026-01-13 12:51:56.59	316.96	27.64	-36.8	-38.4	16.6	0.00e+00	0	60	0	2843738112	44	4527
2026-01-13 12:51:57.60	317.14	27.49	-36.9	-38.5	16.6	0.00e+00	0	60	0	2848980992	44	4553
2026-01-13 12:51:58.61	317.33	27.35	-36.9	-38.5	16.6	0.00e+00	0	60	0	2855272448	44	4551
2026-01-13 12:51:59.62	317.51	27.21	-36.9	-38.5	16.6	0.00e+00	0	60	0	2860515328	44	4568
2026-01-13 12:52:00.63	317.69	27.07	-36.9	-38.5	16.6	0.00e+00	0	60	0	2866806784	44	4560
2026-01-13 12:52:01.64	317.87	26.92	-36.9	-38.5	16.6	0.00e+00	0	60	0	2872049664	44	4546
2026-01-13 12:52:02.64	318.05	26.78	-36.9	-38.5	16.6	0.00e+00	0	60	0	2877292544	44	4546
2026-01-13 12:52:03.65	318.22	26.64	-36.8	-38.4	16.6	0.00e+00	0	60	0	2883584000	44	4532
2026-01-13 12:52:04.66	318.40	26.50	-36.9	-38.5	16.6	0.00e+00	0	60	0	2888826880	44	4552
2026-01-13 12:52:05.67	318.57	26.36	-36.9	-38.5	16.6	0.00e+00	0	60	0	2895118336	44	4546
2026-01-13 12:52:06.69	318.74	26.22	-36.9	-38.5	16.5	0.00e+00	0	60	0	2900361216	44	4565
2026-01-13 12:52:07.70	318.91	26.08	-37.0	-38.6	16.4	0.00e+00	0	60	0	2906652672	44	4615
2026-01-13 12:52:08.71	319.08	25.94	-37.0	-38.6	16.4	0.00e+00	0	60	0	2911895552	44	4607
2026-01-13 12:52:09.72	319.25	25.80	-37.0	-38.7	16.3	0.00e+00	0	60	0	2917138432	44	4653
2026-01-13 12:52:10.73	319.42	25.66	-37.0	-38.7	16.3	0.00e+00	0	60	0	2923429888	44	4662
2026-01-13 12:52:11.74	319.58	25.53	-37.1	-38.7	16.3	0.00e+00	0	60	0	2928672768	44	4670
2026-01-13 12:52:12.75	319.74	25.39	-37.0	-38.7	16.3	0.00e+00	0	60	0	2934964224	44	4653
2026-01-13 12:52:13.76	319.91	25.25	-37.0	-38.6	16.4	0.00e+00	0	60	0	2940207104	44	4635
2026-01-13 12:52:14.77	320.07	25.12	-37.0	-38.5	16.4	0.00e+00	0	60	0	2945449984	44	4592
2026-01-13 12:52:15.78	320.22	24.98	-36.9	-38.5	16.5	0.00e+00	0	60	0	2951741440	44	4564
2026-01-13 12:52:16.79	320.38	24.85	-36.9	-38.5	16.5	0.00e+00	0	60	0	2956984320	44	4585
2026-01-13 12:52:17.79	320.54	24.71	-37.0	-38.6	16.4	0.00e+00	0	60	0	2963275776	44	4607
2026-01-13 12:52:18.80	320.69	24.58	-37.0	-38.6	16.4	0.00e+00	0	60	0	2968518656	44	4628
2026-01-13 12:52:19.81	320.85	24.44	-37.1	-38.7	16.3	0.00e+00	0	60	0	2973761536	44	4667
2026-01-13 12:52:20.82	321.00	24.31	-37.1	-38.8	16.1	0.00e+00	0	60	0	2980052992	44	4730
2026-01-13 12:52:21.83	321.15	24.18	-37.2	-38.9	16.0	0.00e+00	0	60	0	2985295872	45	4521
2026-01-13 12:52:22.84	321.30	24.05	-37.3	-39.0	15.9	0.00e+00	0	60	0	2991587328	45	4594
2026-01-13 12:52:23.85	321.45	23.91	-37.4	-39.1	15.9	0.00e+00	0	60	0	2996830208	45	4617
2026-01-13 12:52:24.86	321.60	23.78	-37.4	-39.1	15.8	0.00e+00	0	60	0	3003121664	45	4648
2026-01-13 12:52:25.87	321.74	23.65	-37.4	-39.2	15.8	0.00e+00	0	60	0	3008364544	45	4656
2026-01-13 12:52:26.88	321.89	23.52	-37.4	-39.1	15.8	0.00e+00	0	60	0	3013607424	45	4643
2026-01-13 12:52:27.89	322.03	23.39	-37.4	-39.1	15.8	0.00e+00	0	60	0	3019898880	45	4622
2026-01-13 12:52:28.90	322.18	23.26	-37.3	-39.0	15.9	0.00e+00	0	60	0	3025141760	45	4566
2026-01-13 12:52:29.91	322.32	23.13	-37.3	-38.9	16.0	0.00e+00	0	60	0	3031433216	45	4531
2026-01-13 12:52:30.92	322.46	23.00	-37.2	-38.8	16.1	0.00e+00	0	60	0	3036676096	45	4478
2026-01-13 12:52:31.93	322.60	22.88	-37.2	-38.8	16.1	0.00e+00	0	60	0	3042967552	45	4487
2026-01-13 12:52:32.94	322.74	22.75	-37.2	-38.8	16.1	0.00e+00	0	60	0	3048210432	45	4466
2026-01-13 12:52:33.95	322.88	22.62	-37.2	-38.9	16.0	0.00e+00	0	60	0	3053453312	45	4502
2026-01-13 12:52:34.96	323.01	22.50	-37.3	-38.9	16.0	0.00e+00	0	60	0	3059744768	45	4515
2026-01-13 12:52:35.97	323.15	22.37	-37.3	-39.0	15.9	0.00e+00	0	60	0	3064987648	45	4572
2026-01-13 12:52:36.98	323.28	22.24	-37.4	-39.1	15.8	0.00e+00	0	60	0	3071279104	45	4622
2026-01-13 12:52:37.99	323.42	22.12	-37.5	-39.2	15.6	0.00e+00	0	60	0	3076521984	45	4693
2026-01-13 12:52:39.00	323.55	21.99	-37.6	-39.4	15.5	0.00e+00	0	60	0	3081764864	45	4766
2026-01-13 12:52:40.01	323.68	21.87	-37.7	-39.5	15.4	0.00e+00	0	60	0	3088056320	45	4840
2026-01-13 12:52:41.02	323.81	21.75	-37.8	-39.6	15.3	0.00e+00	0	60	0	3093299200	46	4618
2026-01-13 12:52:42.03	323.94	21.62	-37.8	-39.6	15.3	0.00e+00	0	60	0	3099590656	46	4609
2026-01-13 12:52:43.04	324.07	21.50	-37.8	-39.6	15.3	0.00e+00	0	60	0	3104833536	46	4634
2026-01-13 12:52:44.05	324.19	21.38	-37.8	-39.6	15.2	1.10e-06	0	60	0	3110076416	46	4633
2026-01-13 12:52:45.06	324.32	21.26	-37.8	-39.6	15.2	0.00e+00	0	60	0	3116367872	46	4625
2026-01-13 12:52:46.07	324.44	21.13	-37.8	-39.6	15.3	0.00e+00	0	60	0	3121610752	46	4614
2026-01-13 12:52:47.08	324.57	21.01	-37.8	-39.6	15.3	0.00e+00	0	60	0	3127902208	46	4610
2026-01-13 12:52:48.09	324.69	20.89	-37.7	-39.5	15.4	0.00e+00	0	60	0	3133145088	46	4563
2026-01-13 12:52:49.10	324.82	20.77	-37.7	-39.5	15.4	0.00e+00	0	60	0	3139436544	46	4550
2026-01-13 12:52:50.11	324.94	20.65	-37.7	-39.5	15.3	0.00e+00	0	60	0	3144679424	46	4575
2026-01-13 12:52:51.12	325.06	20.53	-37.7	-39.5	15.3	0.00e+00	0	60	0	3150970880	46	4579
2026-01-13 12:52:52.13	325.18	20.41	-37.8	-39.6	15.2	0.00e+00	0	60	0	3156213760	46	4623
2026-01-13 12:52:53.14	325.30	20.30	-37.9	-39.7	15.2	0.00e+00	0	60	0	3161456640	46	4667
2026-01-13 12:52:54.15	325.41	20.18	-37.9	-39.8	15.1	0.00e+00	0	60	0	3167748096	46	4706
2026-01-13 12:52:55.16	325.53	20.06	-37.9	-39.7	15.1	0.00e+00	0	60	0	3172990976	46	4703
2026-01-13 12:52:56.17	325.65	19.94	-37.9	-39.8	15.0	0.00e+00	0	60	0	3179282432	46	4710
2026-01-13 12:52:57.18	325.76	19.83	-38.0	-39.8	15.0	0.00e+00	0	60	0	3184525312	46	4751
2026-01-13 12:52:58.19	325.88	19.71	-38.0	-39.9	14.9	0.00e+00	0	60	0	3189768192	46	4766
2026-01-13 12:52:59.20	325.99	19.60	-38.0	-39.9	14.9	0.00e+00	0	60	0	3196059648	46	4773
2026-01-13 12:53:00.22	326.11	19.48	-38.0	-39.8	15.0	0.00e+00	0	60	0	3201302528	46	4733
2026-01-13 12:53:01.23	326.22	19.36	-38.0	-39.9	14.9	1.10e-06	0	60	0	3207593984	46	4763
2026-01-13 12:53:02.24	326.33	19.25	-38.0	-39.9	14.9	0.00e+00	0	60	0	3212836864	46	4784
2026-01-13 12:53:03.25	326.44	19.14	-38.0	-39.8	14.9	0.00e+00	0	60	0	3218079744	46	4745
2026-01-13 12:53:04.25	326.55	19.02	-37.9	-39.8	15.0	0.00e+00	0	60	0	3224371200	46	4720
2026-01-13 12:53:05.26	326.66	18.91	-37.9	-39.8	15.0	0.00e+00	0	60	0	3229614080	46	4728
2026-01-13 12:53:06.27	326.76	18.80	-38.0	-39.8	14.9	0.00e+00	0	60	0	3235905536	46	4742
2026-01-13 12:53:07.29	326.87	18.68	-38.0	-39.9	14.9	2.20e-06	0	60	0	3241148416	46	4762
2026-01-13 12:53:08.30	326.98	18.57	-38.0	-39.9	14.8	0.00e+00	0	60	0	3247439872	46	4780
2026-01-13 12:53:09.31	327.09	18.46	-38.1	-40.0	14.8	0.00e+00	0	60	0	3252682752	46	4820
2026-01-13 12:53:10.32	327.19	18.35	-38.1	-40.1	14.6	0.00e+00	0	60	0	3257925632	46	4886
2026-01-13 12:53:11.33	327.30	18.24	-38.2	-40.1	14.6	1.10e-06	0	60	0	3264217088	46	4913
2026-01-13 12:53:12.34	327.40	18.13	-38.2	-40.2	14.5	0.00e+00	0	60	0	3269459968	46	4935
2026-01-13 12:53:13.35	327.50	18.02	-38.3	-40.2	14.4	1.10e-06	0	60	0	3275751424	47	4704
2026-01-13 12:53:14.36	327.60	17.91	-38.4	-40.4	14.3	2.20e-06	0	60	0	3280994304	47	4760
2026-01-13 12:53:15.37	327.71	17.80	-38.4	-40.4	14.3	1.10e-06	0	60	0	3287285760	47	4788
2026-01-13 12:53:16.38	327.81	17.69	-38.4	-40.4	14.3	2.20e-06	0	60	0	3292528640	47	4776
2026-01-13 12:53:17.39	327.91	17.58	-38.4	-40.5	14.2	0.00e+00	0	60	0	3297771520	47	4817
2026-01-13 12:53:18.40	328.01	17.48	-38.5	-40.5	14.2	1.10e-06	0	60	0	3304062976	47	4842
2026-01-13 12:53:19.41	328.11	17.37	-38.4	-40.5	14.2	3.40e-06	0	60	0	3309305856	47	4833
2026-01-13 12:53:20.41	328.20	17.26	-38.4	-40.5	14.2	1.10e-06	0	60	0	3314548736	47	4835
2026-01-13 12:53:21.42	328.30	17.16	-38.4	-40.5	14.2	3.40e-06	0	60	0	3320840192	47	4828
2026-01-13 12:53:22.43	328.40	17.05	-38.5	-40.5	14.1	5.70e-06	0	60	0	3326083072	47	4852
2026-01-13 12:53:23.44	328.49	16.94	-38.5	-40.5	14.1	4.50e-06	0	60	0	3332374528	47	4841
2026-01-13 12:53:24.45	328.59	16.84	-38.5	-40.5	14.1	1.10e-06	0	60	0	3337617408	47	4844
2026-01-13 12:53:25.46	328.68	16.73	-38.5	-40.5	14.1	4.50e-06	0	60	0	3343908864	47	4834
2026-01-13 12:53:26.47	328.78	16.63	-38.5	-40.5	14.1	2.20e-06	0	60	0	3349151744	47	4835
2026-01-13 12:53:27.48	328.87	16.52	-38.5	-40.5	14.1	2.20e-06	0	60	0	3355443200	47	4828
2026-01-13 12:53:28.49	328.96	16.42	-38.4	-40.5	14.1	2.20e-06	0	60	0	3360686080	47	4816
2026-01-13 12:53:29.51	329.06	16.32	-38.5	-40.5	14.1	2.20e-06	0	60	0	3365928960	47	4840
2026-01-13 12:53:30.52	329.15	16.21	-38.5	-40.6	14.0	5.70e-06	0	60	0	3372220416	47	4901
2026-01-13 12:53:31.53	329.24	16.11	-38.6	-40.7	13.9	8.00e-06	0	60	0	3377463296	47	4956
2026-01-13 12:53:32.54	329.33	16.01	-38.6	-40.7	13.8	1.14e-05	0	60	0	3383754752	47	4973
2026-01-13 12:53:33.55	329.42	15.91	-38.6	-40.7	13.8	6.80e-06	0	60	0	3388997632	47	4973
2026-01-13 12:53:34.56	329.51	15.80	-38.7	-40.8	13.8	1.14e-05	0	60	0	3394240512	47	5004
2026-01-13 12:53:35.57	329.60	15.70	-38.7	-40.8	13.7	1.25e-05	0	60	0	3400531968	47	5020
2026-01-13 12:53:36.58	329.69	15.60	-38.7	-40.9	13.7	1.60e-05	0	60	0	3405774848	47	5043
2026-01-13 12:53:37.59	329.78	15.50	-38.9	-41.1	13.6	1.02e-05	0	60	0	3412066304	48	4876
2026-01-13 12:53:38.60	329.86	15.40	-38.9	-41.1	13.4	1.37e-05	0	60	0	3417309184	48	4919
2026-01-13 12:53:39.61	329.95	15.30	-38.9	-41.0	13.6	2.17e-05	0	60	0	3422552064	48	4850
2026-01-13 12:53:40.62	330.04	15.20	-38.9	-41.1	13.5	1.25e-05	0	60	0	3428843520	48	4892
2026-01-13 12:53:41.63	330.12	15.10	-38.8	-41.0	13.6	1.48e-05	0	60	0	3434086400	48	4829
2026-01-13 12:53:42.64	330.21	15.00	-38.9	-41.1	13.5	1.83e-05	0	60	0	3440377856	48	4906
2026-01-13 12:53:43.65	330.29	14.90	-38.8	-41.0	13.6	5.70e-06	0	60	0	3445620736	48	4822
2026-01-13 12:53:44.66	330.37	14.81	-38.8	-40.9	13.6	5.70e-06	0	60	0	3451912192	48	4813
2026-01-13 12:53:45.67	330.46	14.71	-38.9	-41.0	13.5	1.02e-05	0	60	0	3457155072	48	4838
2026-01-13 12:53:46.68	330.54	14.61	-38.8	-40.9	13.6	1.71e-05	0	60	0	3463446528	48	4797
2026-01-13 12:53:47.70	330.62	14.51	-38.8	-41.0	13.6	9.10e-06	0	60	0	3468689408	48	4827
2026-01-13 12:53:48.71	330.71	14.42	-38.9	-41.1	13.4	2.05e-05	0	60	0	3473932288	48	4907
2026-01-13 12:53:49.72	330.79	14.32	-38.8	-40.9	13.6	2.28e-05	0	60	0	3480223744	48	4814
2026-01-13 12:53:50.72	330.87	14.23	-38.8	-41.0	13.5	1.37e-05	0	60	0	3485466624	48	4838
2026-01-13 12:53:51.73	330.95	14.13	-38.9	-41.1	13.4	2.40e-05	0	60	0	3491758080	48	4902
2026-01-13 12:53:52.74	331.03	14.03	-39.0	-41.2	13.3	3.66e-05	0	60	0	3497000960	48	4956
2026-01-13 12:53:53.76	331.11	13.94	-39.0	-41.2	13.2	3.77e-05	0	60	0	3502243840	48	4974
2026-01-13 12:53:54.77	331.19	13.84	-39.1	-41.3	13.1	3.66e-05	0	60	0	3508535296	48	5040
2026-01-13 12:53:55.78	331.27	13.75	-39.0	-41.3	13.1	4.57e-05	0	60	0	3513778176	48	5019
2026-01-13 12:53:56.79	331.34	13.65	-39.1	-41.4	13.1	4.46e-05	0	60	0	3520069632	48	5058
2026-01-13 12:53:57.80	331.42	13.56	-39.2	-41.5	12.9	6.75e-05	0	60	0	3525312512	48	5141
