passes_logs/2026/01/13/R2.0S_Moscow/R2.0S_Moscow__20260113_014055_FENGYUN_3G_rec.log

#Pass ID: 20260113_014055_FENGYUN 3G
#Satellite: FENGYUN 3G
#Configuration: FENGYUN 3G
#almurnet v.1.7.20251203
#Start time: 2026-01-13 01:40:56

#Version: 2.2.20231116
#Station: R2.0S_Moscow
#Location: 37.707566 lon 55.798166 lat
#TLE: 1 56232U 23055A   26012.28315646  .00028343  00000+0  44482-3 0  9993
#TLE: 2 56232  49.9940  69.9476 0004238  14.1066 346.0019 15.53388001155773

#Time	Az	El	Level	Level2	SNR	BER	BlckErr	Temp	State	Recorded	gain1	gain2
2026-01-13 01:40:56.86	262.62	2.10	-44.0	-62.2	3.8	8.46e-01	0	51	0	0	60	27915
2026-01-13 01:40:57.86	262.54	2.17	-44.0	-62.2	3.8	8.44e-01	0	52	104	0	60	27807
2026-01-13 01:40:58.87	262.46	2.23	-44.0	-62.2	3.8	8.46e-01	0	52	104	0	60	27795
2026-01-13 01:40:59.88	262.38	2.30	-44.0	-62.2	3.8	8.46e-01	0	52	104	0	60	27863
2026-01-13 01:41:00.89	262.30	2.36	-44.1	-62.2	3.8	8.46e-01	0	52	104	0	59	29400
2026-01-13 01:41:01.90	262.22	2.43	-44.1	-62.2	3.8	8.45e-01	0	52	104	0	59	29385
2026-01-13 01:41:02.91	262.13	2.49	-44.1	-62.2	3.8	8.46e-01	0	52	104	0	59	29374
2026-01-13 01:41:03.92	262.05	2.56	-44.1	-62.2	3.8	8.46e-01	0	52	104	0	59	29433
2026-01-13 01:41:04.93	261.97	2.62	-44.1	-62.1	3.8	8.46e-01	0	52	104	0	59	29327
2026-01-13 01:41:05.95	261.88	2.69	-44.1	-62.1	3.8	8.47e-01	0	52	104	0	59	29263
2026-01-13 01:41:06.96	261.80	2.75	-44.1	-62.1	3.8	8.47e-01	0	52	104	0	59	29210
2026-01-13 01:41:07.97	261.71	2.82	-44.1	-62.1	3.8	8.47e-01	0	52	104	0	59	29073
2026-01-13 01:41:08.98	261.63	2.89	-44.1	-62.1	3.8	8.47e-01	0	52	104	0	59	29032
2026-01-13 01:41:09.99	261.54	2.95	-44.1	-62.1	3.8	8.47e-01	0	53	104	0	59	29088
2026-01-13 01:41:11.00	261.45	3.02	-44.1	-62.1	3.8	8.46e-01	0	53	104	0	59	29070
2026-01-13 01:41:12.01	261.37	3.08	-44.1	-62.1	3.8	8.46e-01	0	53	104	0	59	29014
2026-01-13 01:41:13.02	261.28	3.15	-44.1	-62.0	3.8	8.46e-01	0	53	104	0	59	28906
2026-01-13 01:41:14.03	261.19	3.22	-44.1	-62.0	3.8	8.46e-01	0	53	104	0	59	28930
2026-01-13 01:41:15.04	261.10	3.29	-44.1	-62.1	3.8	8.46e-01	0	53	104	0	59	29107
2026-01-13 01:41:16.05	261.01	3.35	-44.1	-62.0	3.8	8.46e-01	0	53	104	0	59	29001
2026-01-13 01:41:17.06	260.92	3.42	-44.1	-62.0	3.8	8.46e-01	0	53	104	0	59	28848
2026-01-13 01:41:18.08	260.83	3.49	-44.1	-62.0	3.8	8.46e-01	0	53	104	0	59	28905
2026-01-13 01:41:19.08	260.74	3.56	-44.1	-62.0	3.8	8.47e-01	0	53	104	0	59	28712
2026-01-13 01:41:20.09	260.64	3.63	-44.1	-61.9	3.8	8.47e-01	0	53	104	0	59	28571
2026-01-13 01:41:21.10	260.55	3.69	-44.1	-61.7	3.8	8.46e-01	0	53	104	0	59	27991
2026-01-13 01:41:22.11	260.46	3.76	-44.0	-61.6	3.8	8.46e-01	0	53	104	0	59	27458
2026-01-13 01:41:23.12	260.36	3.83	-44.0	-61.5	3.8	8.46e-01	0	53	104	0	59	27219
2026-01-13 01:41:24.13	260.27	3.90	-44.0	-61.3	3.8	8.44e-01	0	54	104	0	59	26657
2026-01-13 01:41:25.14	260.17	3.97	-44.0	-61.3	3.8	8.45e-01	0	54	104	0	59	26572
2026-01-13 01:41:26.15	260.07	4.04	-44.0	-61.1	3.8	8.45e-01	0	54	104	0	59	26014
2026-01-13 01:41:27.16	259.98	4.11	-44.0	-61.3	3.8	8.45e-01	0	54	104	0	59	26536
2026-01-13 01:41:28.17	259.88	4.18	-44.0	-61.5	3.8	8.46e-01	0	54	104	0	59	27083
2026-01-13 01:41:29.18	259.78	4.25	-44.0	-61.5	3.8	8.44e-01	0	54	104	0	59	27208
2026-01-13 01:41:30.19	259.68	4.32	-44.0	-61.8	3.8	8.44e-01	0	54	104	0	59	28100
2026-01-13 01:41:31.20	259.58	4.39	-44.1	-61.8	3.8	8.46e-01	0	54	104	0	59	28282
2026-01-13 01:41:32.21	259.48	4.46	-44.0	-61.8	3.8	8.47e-01	0	54	104	0	59	28233
2026-01-13 01:41:33.22	259.38	4.53	-44.0	-61.7	3.8	8.47e-01	0	54	104	0	59	27879
2026-01-13 01:41:34.23	259.28	4.60	-44.1	-61.7	3.8	8.46e-01	0	54	104	0	59	27746
2026-01-13 01:41:35.24	259.18	4.67	-44.1	-61.8	3.8	8.46e-01	0	54	104	0	59	28201
2026-01-13 01:41:36.26	259.07	4.75	-44.1	-61.8	3.8	8.46e-01	0	54	104	0	59	28289
2026-01-13 01:41:37.27	258.97	4.82	-44.0	-61.8	3.8	8.47e-01	0	54	104	0	59	28095
2026-01-13 01:41:38.28	258.86	4.89	-44.0	-61.5	3.8	8.46e-01	0	54	104	0	59	27388
2026-01-13 01:41:39.29	258.76	4.96	-44.0	-61.5	3.8	8.46e-01	0	54	104	0	59	27113
2026-01-13 01:41:40.30	258.65	5.04	-44.0	-61.4	3.8	8.46e-01	0	54	104	0	59	26801
2026-01-13 01:41:41.31	258.54	5.11	-44.0	-61.3	3.8	8.45e-01	0	54	104	0	59	26531
2026-01-13 01:41:42.32	258.44	5.18	-44.0	-61.4	3.8	8.46e-01	0	54	104	0	59	27020
2026-01-13 01:41:43.33	258.33	5.26	-44.0	-61.4	3.8	8.46e-01	0	54	104	0	59	26897
2026-01-13 01:41:44.33	258.22	5.33	-44.0	-61.4	3.8	8.48e-01	0	54	104	0	59	27010
2026-01-13 01:41:45.35	258.11	5.40	-44.0	-61.6	3.8	8.45e-01	0	54	104	0	59	27593
2026-01-13 01:41:46.35	258.00	5.48	-44.1	-61.7	3.8	8.45e-01	0	55	104	0	59	27853
2026-01-13 01:41:47.36	257.89	5.55	-44.0	-61.6	3.8	8.45e-01	0	55	104	0	59	27655
2026-01-13 01:41:48.37	257.77	5.62	-44.0	-61.4	3.8	8.47e-01	0	55	104	0	59	26957
2026-01-13 01:41:49.38	257.66	5.70	-44.0	-61.1	3.8	8.46e-01	0	55	104	0	59	25958
2026-01-13 01:41:50.39	257.55	5.77	-44.0	-60.7	3.8	8.46e-01	0	55	104	0	59	24913
2026-01-13 01:41:51.40	257.43	5.85	-44.0	-60.4	3.8	8.46e-01	0	55	104	0	59	23990
2026-01-13 01:41:52.41	257.32	5.92	-44.0	-60.3	3.8	8.45e-01	0	55	104	0	59	23682
2026-01-13 01:41:53.42	257.20	6.00	-44.0	-59.9	3.9	8.45e-01	0	55	104	0	59	22694
2026-01-13 01:41:54.43	257.08	6.08	-44.0	-60.0	3.8	8.44e-01	0	55	104	0	59	22798
2026-01-13 01:41:55.44	256.96	6.15	-44.0	-59.5	4.0	8.45e-01	0	55	104	0	59	21664
2026-01-13 01:41:56.45	256.84	6.23	-44.0	-59.5	3.9	8.45e-01	0	55	104	0	59	21525
2026-01-13 01:41:57.46	256.72	6.31	-44.0	-58.7	4.2	8.44e-01	0	55	0	0	59	19773
2026-01-13 01:41:58.48	256.60	6.38	-43.9	-58.1	4.4	8.39e-01	0	55	0	0	59	18486
2026-01-13 01:41:59.49	256.48	6.46	-43.9	-56.8	4.8	8.39e-01	0	55	0	0	59	15822
2026-01-13 01:42:00.50	256.35	6.54	-43.8	-55.7	5.5	8.14e-01	0	55	0	0	59	13989
2026-01-13 01:42:01.51	256.23	6.62	-43.7	-54.7	6.2	6.63e-01	0	55	0	524288	59	12480
2026-01-13 01:42:02.52	256.11	6.69	-43.5	-53.5	7.4	2.47e-01	0	55	0	1572864	59	10802
2026-01-13 01:42:03.53	255.98	6.77	-43.5	-52.8	8.0	2.47e-01	0	55	0	3145728	58	10559
2026-01-13 01:42:04.54	255.85	6.85	-43.3	-51.8	9.1	8.53e-02	0	55	0	4194304	58	9441
2026-01-13 01:42:05.55	255.72	6.93	-43.3	-51.6	9.3	2.89e-02	0	55	0	5242880	58	9244
2026-01-13 01:42:06.56	255.60	7.01	-43.3	-51.7	9.3	2.89e-02	0	56	0	6291456	58	9302
2026-01-13 01:42:07.57	255.47	7.09	-43.4	-52.3	8.6	2.17e-02	0	55	0	7340032	58	10014
2026-01-13 01:42:08.58	255.34	7.17	-43.6	-53.4	7.6	5.63e-02	0	56	0	8388608	58	11291
2026-01-13 01:42:09.60	255.20	7.25	-43.8	-55.3	5.9	5.63e-02	0	55	0	9961472	58	14184
2026-01-13 01:42:10.61	255.07	7.33	-43.9	-58.3	4.3	2.37e-01	0	56	0	9961472	58	20044
2026-01-13 01:42:11.62	254.94	7.41	-44.0	-60.8	3.8	8.07e-01	0	56	104	9961472	58	26698
2026-01-13 01:42:12.63	254.80	7.49	-43.9	-57.4	4.6	8.07e-01	0	56	104	9961472	58	18022
2026-01-13 01:42:13.64	254.66	7.57	-43.5	-53.4	7.4	8.42e-01	0	55	0	10485760	58	11317
2026-01-13 01:42:14.65	254.53	7.65	-43.1	-50.9	10.0	3.29e-01	0	56	0	11534336	58	8502
2026-01-13 01:42:15.66	254.39	7.73	-42.6	-49.0	12.0	9.35e-03	0	56	0	12582912	57	7221
2026-01-13 01:42:16.67	254.25	7.81	-42.2	-47.6	13.4	9.35e-03	0	56	0	13631488	56	6546
2026-01-13 01:42:17.68	254.11	7.90	-42.1	-47.4	13.7	1.28e-04	0	56	0	14680064	56	6395
2026-01-13 01:42:18.69	253.97	7.98	-41.8	-46.8	14.1	9.10e-06	0	56	0	16252928	55	6311
2026-01-13 01:42:19.70	253.83	8.06	-41.9	-46.8	14.6	9.10e-06	0	56	0	17301504	54	6679
2026-01-13 01:42:20.71	253.68	8.14	-41.6	-46.2	14.9	4.11e-05	0	56	0	18350080	55	5859
2026-01-13 01:42:21.72	253.54	8.23	-43.6	-54.3	7.8	1.32e-04	0	56	0	19398656	57	13319
2026-01-13 01:42:22.73	253.39	8.31	-42.7	-49.0	12.1	1.32e-04	0	56	0	20447232	57	7284
2026-01-13 01:42:23.74	253.24	8.39	-41.8	-46.7	14.6	2.16e-01	0	56	0	21495808	54	6576
2026-01-13 01:42:24.75	253.09	8.48	-41.8	-46.7	14.0	2.69e-03	0	56	0	22544384	55	6225
2026-01-13 01:42:25.76	252.95	8.56	-41.0	-45.0	16.1	2.69e-03	0	56	0	23592960	54	5435
2026-01-13 01:42:26.77	252.79	8.65	-41.0	-45.0	16.1	1.66e-04	0	56	0	25165824	54	5406
2026-01-13 01:42:27.78	252.64	8.73	-40.7	-44.5	16.5	0.00e+00	0	56	0	26214400	53	5430
2026-01-13 01:42:28.79	252.49	8.82	-40.5	-44.1	17.1	0.00e+00	0	56	0	27262976	53	5160
2026-01-13 01:42:29.80	252.34	8.90	-40.6	-44.2	16.9	0.00e+00	0	56	0	28311552	53	5232
2026-01-13 01:42:30.81	252.18	8.99	-40.4	-43.9	17.3	0.00e+00	0	56	0	29360128	52	5379
2026-01-13 01:42:31.82	252.02	9.07	-40.7	-44.4	16.7	0.00e+00	0	56	0	30932992	52	5708
2026-01-13 01:42:32.83	251.86	9.16	-40.9	-44.7	16.4	0.00e+00	0	56	0	31981568	52	5920
2026-01-13 01:42:33.84	251.70	9.25	-40.8	-44.6	16.6	0.00e+00	0	56	0	33030144	52	5809
2026-01-13 01:42:34.84	251.55	9.33	-40.6	-44.2	16.9	0.00e+00	0	56	0	34078720	52	5560
2026-01-13 01:42:35.85	251.38	9.42	-40.5	-44.0	17.2	0.00e+00	0	56	0	35127296	52	5440
2026-01-13 01:42:36.86	251.22	9.51	-40.5	-43.9	17.3	0.00e+00	0	56	0	36175872	52	5379
2026-01-13 01:42:37.87	251.06	9.59	-40.5	-43.9	17.3	0.00e+00	0	57	0	37748736	52	5396
2026-01-13 01:42:38.88	250.89	9.68	-40.4	-43.8	17.4	0.00e+00	0	56	0	38797312	52	5313
2026-01-13 01:42:39.89	250.72	9.77	-40.4	-43.8	17.5	0.00e+00	0	56	0	39845888	52	5291
2026-01-13 01:42:40.90	250.55	9.86	-40.4	-43.7	17.5	0.00e+00	0	56	0	40894464	52	5264
2026-01-13 01:42:41.91	250.38	9.95	-40.5	-43.9	17.3	0.00e+00	0	56	0	41943040	52	5387
2026-01-13 01:42:42.92	250.21	10.04	-40.4	-43.7	17.6	0.00e+00	0	56	0	42991616	52	5245
2026-01-13 01:42:43.93	250.04	10.13	-40.3	-43.6	17.6	0.00e+00	0	56	0	44564480	52	5213
2026-01-13 01:42:44.94	249.86	10.22	-40.3	-43.7	17.6	0.00e+00	0	56	0	45613056	52	5219
2026-01-13 01:42:45.95	249.69	10.31	-40.2	-43.4	17.9	0.00e+00	0	56	0	46661632	52	5081
2026-01-13 01:42:46.96	249.51	10.40	-40.2	-43.5	17.8	0.00e+00	0	57	0	47710208	52	5138
2026-01-13 01:42:47.97	249.33	10.49	-40.1	-43.2	18.1	0.00e+00	0	56	0	48758784	52	4946
2026-01-13 01:42:48.97	249.15	10.58	-40.2	-43.3	18.1	0.00e+00	0	57	0	49807360	51	5320
2026-01-13 01:42:49.98	248.97	10.67	-40.3	-43.5	17.9	0.00e+00	0	57	0	51380224	51	5411
2026-01-13 01:42:50.99	248.79	10.76	-40.2	-43.4	18.0	0.00e+00	0	57	0	52428800	51	5391
2026-01-13 01:42:52.00	248.60	10.85	-40.2	-43.3	18.1	0.00e+00	0	57	0	53477376	51	5303
2026-01-13 01:42:53.01	248.41	10.94	-40.2	-43.4	18.0	0.00e+00	0	57	0	54525952	51	5367
2026-01-13 01:42:54.02	248.23	11.03	-40.1	-43.2	18.2	0.00e+00	0	57	0	55574528	51	5231
2026-01-13 01:42:55.03	248.04	11.13	-40.1	-43.2	18.3	0.00e+00	0	57	0	56623104	51	5241
2026-01-13 01:42:56.04	247.84	11.22	-40.0	-42.9	18.5	0.00e+00	0	57	0	58195968	51	5099
2026-01-13 01:42:57.05	247.65	11.31	-39.9	-42.8	18.7	0.00e+00	0	57	0	59244544	51	5011
2026-01-13 01:42:58.06	247.46	11.41	-40.0	-43.0	18.5	0.00e+00	0	57	0	60293120	51	5136
2026-01-13 01:42:59.07	247.26	11.50	-39.8	-42.7	18.7	0.00e+00	0	57	0	61341696	51	4973
2026-01-13 01:43:00.08	247.06	11.59	-39.7	-42.5	19.0	0.00e+00	0	57	0	62390272	51	4842
2026-01-13 01:43:01.09	246.86	11.69	-39.8	-42.6	18.9	0.00e+00	0	57	0	63438848	51	4909
2026-01-13 01:43:02.10	246.66	11.78	-39.7	-42.5	18.9	0.00e+00	0	57	0	64487424	51	4863
2026-01-13 01:43:03.11	246.46	11.88	-39.8	-42.7	18.8	0.00e+00	0	57	0	66060288	51	4932
2026-01-13 01:43:04.12	246.25	11.97	-39.8	-42.6	18.9	0.00e+00	0	57	0	67108864	51	4914
2026-01-13 01:43:05.13	246.05	12.07	-39.8	-42.6	18.9	0.00e+00	0	57	0	68157440	51	4906
2026-01-13 01:43:06.14	245.84	12.16	-39.7	-42.6	18.9	0.00e+00	0	57	0	69206016	51	4888
2026-01-13 01:43:07.15	245.63	12.26	-39.7	-42.5	19.0	0.00e+00	0	57	0	70254592	51	4848
2026-01-13 01:43:08.16	245.41	12.35	-39.6	-42.3	19.2	0.00e+00	0	57	0	71303168	51	4728
2026-01-13 01:43:09.17	245.20	12.45	-39.6	-42.3	19.2	0.00e+00	0	57	0	72876032	51	4748
2026-01-13 01:43:10.17	244.99	12.55	-39.5	-42.2	19.3	0.00e+00	0	57	0	73924608	51	4687
2026-01-13 01:43:11.18	244.77	12.64	-39.4	-42.0	19.5	0.00e+00	0	57	0	74973184	50	4866
2026-01-13 01:43:12.19	244.55	12.74	-39.3	-41.9	19.6	0.00e+00	0	57	0	76021760	50	4801
2026-01-13 01:43:13.20	244.33	12.84	-39.5	-42.3	19.3	0.00e+00	0	57	0	77070336	50	4985
2026-01-13 01:43:14.21	244.10	12.93	-39.6	-42.3	19.2	0.00e+00	0	57	0	78118912	50	5035
2026-01-13 01:43:15.22	243.88	13.03	-39.6	-42.3	19.2	0.00e+00	0	57	0	79691776	50	5022
2026-01-13 01:43:16.23	243.65	13.13	-39.6	-42.3	19.3	0.00e+00	0	57	0	80740352	50	5036
2026-01-13 01:43:17.24	243.42	13.23	-39.6	-42.2	19.4	0.00e+00	0	57	0	81788928	50	4973
2026-01-13 01:43:18.25	243.19	13.32	-39.7	-42.4	19.1	0.00e+00	0	57	0	82837504	50	5085
2026-01-13 01:43:19.26	242.96	13.42	-39.5	-42.2	19.3	0.00e+00	0	57	0	83886080	50	4941
2026-01-13 01:43:20.26	242.73	13.52	-39.3	-41.9	19.6	0.00e+00	0	57	0	85458944	50	4791
2026-01-13 01:43:21.28	242.49	13.62	-39.3	-41.9	19.7	0.00e+00	0	57	0	86507520	50	4779
2026-01-13 01:43:22.29	242.25	13.72	-39.2	-41.7	19.9	0.00e+00	0	57	0	87556096	50	4656
2026-01-13 01:43:23.30	242.00	13.82	-39.1	-41.7	19.9	0.00e+00	0	57	0	88604672	50	4658
2026-01-13 01:43:24.31	241.76	13.92	-39.0	-41.5	20.1	0.00e+00	0	57	0	89653248	50	4552
2026-01-13 01:43:25.32	241.52	14.02	-38.9	-41.4	20.2	0.00e+00	0	57	0	90701824	49	4766
2026-01-13 01:43:26.33	241.27	14.12	-39.1	-41.6	20.0	0.00e+00	0	57	0	92274688	49	4905
2026-01-13 01:43:27.34	241.02	14.22	-39.3	-41.8	19.8	0.00e+00	0	57	0	93323264	49	5013
2026-01-13 01:43:28.35	240.77	14.32	-39.4	-42.0	19.6	0.00e+00	0	57	0	94371840	49	5142
2026-01-13 01:43:29.36	240.51	14.42	-39.2	-41.7	19.9	0.00e+00	0	57	0	95420416	49	4965
2026-01-13 01:43:30.37	240.25	14.52	-39.0	-41.5	20.1	0.00e+00	0	57	0	96468992	49	4842
2026-01-13 01:43:31.38	240.00	14.62	-38.7	-41.0	20.6	0.00e+00	0	57	0	97517568	49	4589
2026-01-13 01:43:32.39	239.73	14.72	-38.8	-41.1	20.5	0.00e+00	0	57	0	99090432	49	4645
2026-01-13 01:43:33.40	239.47	14.82	-38.9	-41.2	20.4	0.00e+00	0	58	0	100139008	49	4705
2026-01-13 01:43:34.41	239.20	14.92	-38.7	-41.0	20.7	0.00e+00	0	57	0	101187584	49	4549
2026-01-13 01:43:35.41	238.94	15.02	-38.6	-40.9	20.7	0.00e+00	0	58	0	102236160	49	4511
2026-01-13 01:43:36.42	238.67	15.12	-38.6	-40.8	20.8	0.00e+00	0	57	0	103284736	49	4491
2026-01-13 01:43:37.43	238.40	15.22	-38.7	-41.0	20.6	0.00e+00	0	57	0	104333312	49	4581
2026-01-13 01:43:38.44	238.12	15.32	-38.9	-41.3	20.4	0.00e+00	0	58	0	105381888	49	4712
2026-01-13 01:43:39.45	237.84	15.43	-38.9	-41.3	20.4	0.00e+00	0	58	0	106954752	49	4711
2026-01-13 01:43:40.46	237.56	15.53	-38.8	-41.2	20.5	0.00e+00	0	57	0	108003328	49	4664
2026-01-13 01:43:41.47	237.28	15.63	-38.7	-41.1	20.6	0.00e+00	0	58	0	109051904	49	4601
2026-01-13 01:43:42.48	237.00	15.73	-38.8	-41.2	20.5	0.00e+00	0	58	0	110100480	49	4672
2026-01-13 01:43:43.49	236.71	15.83	-38.7	-41.1	20.6	0.00e+00	0	57	0	111149056	49	4618
2026-01-13 01:43:44.50	236.42	15.93	-38.6	-40.8	20.8	0.00e+00	0	58	0	112197632	49	4482
2026-01-13 01:43:45.51	236.13	16.03	-38.4	-40.6	21.0	0.00e+00	0	58	0	113770496	48	4648
2026-01-13 01:43:46.52	235.83	16.13	-38.4	-40.6	21.1	0.00e+00	0	57	0	114819072	48	4609
2026-01-13 01:43:47.53	235.54	16.24	-38.4	-40.6	21.1	0.00e+00	0	57	0	115867648	48	4628
2026-01-13 01:43:48.53	235.24	16.34	-38.4	-40.6	21.1	0.00e+00	0	57	0	116916224	48	4629
2026-01-13 01:43:49.54	234.94	16.44	-38.5	-40.7	21.0	0.00e+00	0	58	0	117964800	48	4691
2026-01-13 01:43:50.55	234.63	16.54	-38.5	-40.8	20.9	0.00e+00	0	58	0	119013376	48	4729
2026-01-13 01:43:51.56	234.33	16.64	-38.6	-40.9	20.8	0.00e+00	0	58	0	120586240	48	4775
2026-01-13 01:43:52.57	234.02	16.74	-38.6	-40.9	20.8	0.00e+00	0	58	0	121634816	48	4800
2026-01-13 01:43:53.58	233.70	16.84	-38.7	-41.0	20.8	0.00e+00	0	58	0	122683392	48	4839
2026-01-13 01:43:54.59	233.39	16.94	-38.6	-40.8	20.9	0.00e+00	0	58	0	123731968	48	4733
2026-01-13 01:43:55.60	233.07	17.04	-38.4	-40.6	21.1	0.00e+00	0	58	0	124780544	48	4648
2026-01-13 01:43:56.61	232.75	17.14	-38.2	-40.4	21.4	0.00e+00	0	58	0	125829120	48	4514
2026-01-13 01:43:57.62	232.43	17.24	-38.1	-40.3	21.5	0.00e+00	0	58	0	127401984	48	4457
2026-01-13 01:43:58.63	232.10	17.34	-38.0	-40.1	21.7	0.00e+00	0	58	0	128450560	48	4349
2026-01-13 01:43:59.64	231.77	17.44	-38.0	-40.0	21.7	0.00e+00	0	58	0	129499136	47	4598
2026-01-13 01:44:00.65	231.44	17.54	-37.9	-40.0	21.7	0.00e+00	0	58	0	130547712	47	4557
2026-01-13 01:44:01.66	231.11	17.64	-37.9	-39.9	21.8	0.00e+00	0	58	0	131596288	47	4539
2026-01-13 01:44:02.67	230.77	17.74	-37.9	-40.0	21.7	0.00e+00	0	58	0	133169152	47	4572
2026-01-13 01:44:03.67	230.43	17.84	-38.0	-40.2	21.6	0.00e+00	0	58	0	134217728	47	4655
2026-01-13 01:44:04.69	230.09	17.94	-38.4	-40.6	21.2	0.00e+00	0	58	0	135266304	47	4898
2026-01-13 01:44:05.70	229.74	18.03	-38.3	-40.6	21.2	0.00e+00	0	58	0	136314880	47	4871
2026-01-13 01:44:06.70	229.40	18.13	-38.6	-41.0	20.8	0.00e+00	0	58	0	137363456	47	5105
2026-01-13 01:44:07.71	229.05	18.23	-38.5	-40.8	21.0	0.00e+00	0	58	0	138412032	47	4995
2026-01-13 01:44:08.72	228.70	18.33	-38.2	-40.4	21.3	0.00e+00	0	58	0	139984896	47	4783
2026-01-13 01:44:09.73	228.34	18.42	-38.0	-40.1	21.7	0.00e+00	0	58	0	141033472	47	4613
2026-01-13 01:44:10.74	227.98	18.52	-37.8	-39.8	21.9	0.00e+00	0	58	0	142082048	47	4482
2026-01-13 01:44:11.75	227.62	18.61	-37.7	-39.7	22.1	0.00e+00	0	58	0	143130624	47	4404
2026-01-13 01:44:12.76	227.26	18.71	-37.5	-39.5	22.2	0.00e+00	0	58	0	144179200	47	4316
2026-01-13 01:44:13.77	226.89	18.80	-37.6	-39.6	22.2	0.00e+00	0	58	0	145227776	46	4611
2026-01-13 01:44:14.78	226.52	18.90	-37.7	-39.7	22.1	0.00e+00	0	58	0	146276352	46	4673
2026-01-13 01:44:15.79	226.15	18.99	-37.8	-39.8	22.0	0.00e+00	0	58	0	147849216	46	4747
2026-01-13 01:44:16.80	225.77	19.08	-37.8	-39.8	22.0	0.00e+00	0	58	0	148897792	46	4746
2026-01-13 01:44:17.81	225.39	19.18	-38.0	-40.1	21.7	0.00e+00	0	58	0	149946368	46	4912
2026-01-13 01:44:18.82	225.01	19.27	-37.9	-40.0	21.8	0.00e+00	0	58	0	150994944	46	4856
2026-01-13 01:44:19.83	224.63	19.36	-38.0	-40.1	21.7	0.00e+00	0	58	0	152043520	46	4893
2026-01-13 01:44:20.84	224.24	19.45	-38.1	-40.2	21.6	0.00e+00	0	58	0	153092096	46	4982
2026-01-13 01:44:21.85	223.85	19.54	-38.2	-40.3	21.5	0.00e+00	0	58	0	154664960	46	5012
2026-01-13 01:44:22.86	223.46	19.63	-38.2	-40.3	21.5	0.00e+00	0	58	0	155713536	46	5023
2026-01-13 01:44:23.87	223.06	19.71	-38.0	-40.1	21.7	0.00e+00	0	58	0	156762112	46	4889
2026-01-13 01:44:24.88	222.67	19.80	-38.0	-40.2	21.7	0.00e+00	0	58	0	157810688	46	4927
2026-01-13 01:44:25.89	222.27	19.89	-38.1	-40.2	21.6	0.00e+00	0	58	0	158859264	46	4976
2026-01-13 01:44:26.90	221.86	19.97	-37.9	-39.9	21.9	0.00e+00	0	58	0	159907840	46	4813
2026-01-13 01:44:27.91	221.46	20.06	-37.8	-39.8	22.1	0.00e+00	0	58	0	161480704	46	4726
2026-01-13 01:44:28.92	221.05	20.14	-37.7	-39.7	22.1	0.00e+00	0	58	0	162529280	46	4688
2026-01-13 01:44:29.93	220.64	20.23	-37.4	-39.4	22.4	0.00e+00	0	58	0	163577856	46	4505
2026-01-13 01:44:30.94	220.22	20.31	-37.2	-39.1	22.7	0.00e+00	0	58	0	164626432	46	4367
2026-01-13 01:44:31.95	219.81	20.39	-37.2	-39.1	22.8	0.00e+00	0	58	0	165675008	46	4344
2026-01-13 01:44:32.96	219.39	20.47	-37.2	-39.1	22.8	0.00e+00	0	58	0	166723584	46	4345
2026-01-13 01:44:33.97	218.96	20.55	-37.4	-39.3	22.6	0.00e+00	0	58	0	168296448	46	4470
2026-01-13 01:44:34.98	218.54	20.63	-37.5	-39.4	22.5	0.00e+00	0	58	0	169345024	46	4522
2026-01-13 01:44:35.99	218.11	20.70	-37.5	-39.4	22.4	0.00e+00	0	58	0	170393600	46	4521
2026-01-13 01:44:37.00	217.68	20.78	-37.5	-39.5	22.4	0.00e+00	0	58	0	171442176	46	4573
2026-01-13 01:44:38.01	217.25	20.85	-37.4	-39.4	22.5	0.00e+00	0	58	0	172490752	46	4508
2026-01-13 01:44:39.02	216.82	20.93	-37.4	-39.3	22.5	0.00e+00	0	58	0	174063616	46	4483
2026-01-13 01:44:40.03	216.38	21.00	-37.4	-39.4	22.5	0.00e+00	0	58	0	175112192	46	4500
2026-01-13 01:44:41.04	215.94	21.07	-37.3	-39.2	22.6	0.00e+00	0	58	0	176160768	46	4440
2026-01-13 01:44:42.04	215.50	21.14	-37.3	-39.2	22.7	0.00e+00	0	58	0	177209344	46	4399
2026-01-13 01:44:43.06	215.05	21.21	-37.2	-39.1	22.7	0.00e+00	0	58	0	178257920	46	4376
2026-01-13 01:44:44.06	214.61	21.27	-37.1	-39.0	22.9	0.00e+00	0	58	0	179306496	46	4300
2026-01-13 01:44:45.07	214.16	21.34	-37.1	-39.0	22.8	0.00e+00	0	58	0	180355072	46	4314
2026-01-13 01:44:46.08	213.71	21.40	-37.3	-39.2	22.7	0.00e+00	0	58	0	181927936	46	4413
2026-01-13 01:44:47.09	213.26	21.47	-37.4	-39.3	22.5	0.00e+00	0	58	0	182976512	46	4474
2026-01-13 01:44:48.10	212.80	21.53	-37.5	-39.5	22.4	0.00e+00	0	58	0	184025088	46	4553
2026-01-13 01:44:49.11	212.34	21.59	-37.6	-39.6	22.3	0.00e+00	0	58	0	185073664	46	4633
2026-01-13 01:44:50.12	211.88	21.65	-37.5	-39.4	22.4	0.00e+00	0	58	0	186122240	46	4537
2026-01-13 01:44:51.13	211.42	21.70	-37.5	-39.4	22.4	0.00e+00	0	58	0	187170816	46	4542
2026-01-13 01:44:52.14	210.96	21.76	-37.4	-39.3	22.5	0.00e+00	0	58	0	188743680	46	4487
2026-01-13 01:44:53.15	210.49	21.81	-37.3	-39.2	22.6	0.00e+00	0	58	0	189792256	46	4431
2026-01-13 01:44:54.16	210.02	21.87	-37.1	-39.0	22.7	0.00e+00	0	58	0	190840832	46	4333
2026-01-13 01:44:55.17	209.55	21.92	-37.1	-38.9	22.9	0.00e+00	0	58	0	191889408	46	4281
2026-01-13 01:44:56.18	209.08	21.97	-37.1	-38.9	22.9	0.00e+00	0	58	0	192937984	46	4279
2026-01-13 01:44:57.19	208.61	22.01	-37.2	-39.0	22.8	0.00e+00	0	58	0	193986560	46	4334
2026-01-13 01:44:58.20	208.14	22.06	-37.2	-39.0	22.8	0.00e+00	0	58	0	195559424	46	4321
2026-01-13 01:44:59.21	207.66	22.10	-37.1	-39.0	22.8	0.00e+00	0	58	0	196608000	46	4327
2026-01-13 01:45:00.22	207.18	22.15	-37.0	-38.9	23.0	0.00e+00	0	58	0	197656576	46	4258
2026-01-13 01:45:01.22	206.71	22.19	-36.9	-38.7	23.2	0.00e+00	0	58	0	198705152	45	4401
2026-01-13 01:45:02.23	206.22	22.22	-36.8	-38.6	23.2	0.00e+00	0	59	0	199753728	45	4371
2026-01-13 01:45:03.24	205.74	22.26	-36.9	-38.8	23.1	0.00e+00	0	58	0	200802304	45	4458
2026-01-13 01:45:04.25	205.26	22.30	-37.0	-38.8	23.0	0.00e+00	0	58	0	202375168	45	4467
2026-01-13 01:45:05.26	204.77	22.33	-36.9	-38.7	23.1	0.00e+00	0	58	0	203423744	45	4411
2026-01-13 01:45:06.27	204.29	22.36	-37.0	-38.8	23.1	0.00e+00	0	58	0	204472320	45	4461
2026-01-13 01:45:07.28	203.80	22.39	-36.9	-38.8	23.1	0.00e+00	0	58	0	205520896	45	4445
2026-01-13 01:45:08.29	203.31	22.42	-36.9	-38.7	23.1	0.00e+00	0	58	0	206569472	45	4420
2026-01-13 01:45:09.30	202.82	22.45	-36.8	-38.6	23.2	0.00e+00	0	58	0	207618048	45	4365
2026-01-13 01:45:10.31	202.33	22.47	-36.8	-38.6	23.2	0.00e+00	0	58	0	209190912	45	4380
2026-01-13 01:45:11.32	201.84	22.49	-36.7	-38.5	23.3	0.00e+00	0	58	0	210239488	45	4324
2026-01-13 01:45:12.33	201.35	22.51	-36.8	-38.5	23.3	0.00e+00	0	58	0	211288064	45	4335
2026-01-13 01:45:13.34	200.86	22.53	-36.8	-38.6	23.2	0.00e+00	0	59	0	212336640	45	4379
2026-01-13 01:45:14.35	200.36	22.55	-36.8	-38.6	23.2	0.00e+00	0	59	0	213385216	45	4374
2026-01-13 01:45:15.36	199.87	22.56	-37.0	-38.8	23.0	0.00e+00	0	58	0	214433792	45	4493
2026-01-13 01:45:16.37	199.37	22.57	-37.1	-39.0	22.9	0.00e+00	0	58	0	216006656	45	4548
2026-01-13 01:45:17.38	198.88	22.58	-37.3	-39.2	22.7	0.00e+00	0	58	0	217055232	45	4665
2026-01-13 01:45:18.39	198.38	22.59	-37.5	-39.5	22.4	0.00e+00	0	58	0	218103808	45	4828
2026-01-13 01:45:19.39	197.89	22.60	-37.4	-39.3	22.5	0.00e+00	0	58	0	219152384	45	4737
2026-01-13 01:45:20.40	197.40	22.60	-37.3	-39.2	22.6	0.00e+00	0	59	0	220200960	45	4679
2026-01-13 01:45:21.41	196.90	22.61	-37.3	-39.2	22.7	0.00e+00	0	59	0	221249536	45	4676
2026-01-13 01:45:22.42	196.40	22.61	-37.2	-39.1	22.8	0.00e+00	0	59	0	222822400	45	4626
2026-01-13 01:45:23.43	195.91	22.61	-36.9	-38.8	23.0	0.00e+00	0	58	0	223870976	45	4456
2026-01-13 01:45:24.44	195.41	22.60	-36.8	-38.6	23.2	0.00e+00	0	59	0	224919552	45	4388
2026-01-13 01:45:25.45	194.92	22.60	-36.9	-38.7	23.1	0.00e+00	0	58	0	225968128	45	4435
2026-01-13 01:45:26.46	194.42	22.59	-36.8	-38.7	23.1	0.00e+00	0	58	0	227016704	45	4393
2026-01-13 01:45:27.47	193.93	22.58	-36.6	-38.4	23.4	0.00e+00	0	59	0	228065280	45	4270
2026-01-13 01:45:28.48	193.43	22.57	-37.0	-38.9	23.0	0.00e+00	0	58	0	229638144	45	4500
2026-01-13 01:45:29.48	192.94	22.56	-37.0	-38.9	22.9	0.00e+00	0	59	0	230686720	45	4520
2026-01-13 01:45:30.49	192.45	22.54	-37.1	-39.0	22.8	0.00e+00	0	59	0	231735296	45	4571
2026-01-13 01:45:31.50	191.95	22.53	-37.5	-39.5	22.4	0.00e+00	0	59	0	232783872	45	4824
2026-01-13 01:45:32.51	191.46	22.51	-37.6	-39.6	22.2	0.00e+00	0	59	0	233832448	45	4894
2026-01-13 01:45:33.52	190.97	22.49	-37.5	-39.5	22.4	0.00e+00	0	59	0	234881024	45	4840
2026-01-13 01:45:34.53	190.48	22.46	-37.5	-39.5	22.4	0.00e+00	0	58	0	236453888	45	4821
2026-01-13 01:45:35.54	189.99	22.44	-37.3	-39.2	22.6	0.00e+00	0	59	0	237502464	45	4684
2026-01-13 01:45:36.55	189.50	22.41	-37.2	-39.1	22.7	0.00e+00	0	59	0	238551040	45	4609
2026-01-13 01:45:37.56	189.01	22.38	-37.0	-38.9	22.9	0.00e+00	0	59	0	239599616	45	4500
2026-01-13 01:45:38.57	188.52	22.35	-36.6	-38.4	23.3	0.00e+00	0	58	0	240648192	45	4265
2026-01-13 01:45:39.58	188.04	22.32	-36.6	-38.4	23.4	0.00e+00	0	59	0	241696768	45	4255
2026-01-13 01:45:40.59	187.55	22.29	-36.5	-38.3	23.5	0.00e+00	0	59	0	243269632	45	4214
2026-01-13 01:45:41.60	187.07	22.25	-36.3	-38.0	23.7	0.00e+00	0	58	0	244318208	44	4322
2026-01-13 01:45:42.61	186.59	22.21	-36.7	-38.5	23.3	0.00e+00	0	59	0	245366784	44	4546
2026-01-13 01:45:43.62	186.11	22.17	-36.8	-38.6	23.1	0.00e+00	0	59	0	246415360	44	4634
2026-01-13 01:45:44.63	185.63	22.13	-37.0	-38.8	22.9	0.00e+00	0	59	0	247463936	44	4743
2026-01-13 01:45:45.63	185.16	22.09	-37.1	-39.0	22.8	0.00e+00	0	59	0	248512512	44	4815
2026-01-13 01:45:46.64	184.68	22.04	-36.6	-38.4	23.3	0.00e+00	0	59	0	250085376	44	4533
2026-01-13 01:45:47.65	184.20	22.00	-36.4	-38.1	23.6	0.00e+00	0	59	0	251133952	44	4384
2026-01-13 01:45:48.66	183.73	21.95	-36.0	-37.7	23.9	0.00e+00	0	59	0	252182528	44	4190
2026-01-13 01:45:49.67	183.26	21.90	-36.3	-38.0	23.7	0.00e+00	0	59	0	253231104	44	4338
2026-01-13 01:45:50.68	182.79	21.85	-36.9	-38.7	23.0	0.00e+00	0	59	0	254279680	44	4686
2026-01-13 01:45:51.69	182.32	21.80	-37.2	-39.1	22.7	0.00e+00	0	59	0	255328256	44	4874
2026-01-13 01:45:52.70	181.86	21.74	-37.4	-39.4	22.4	0.00e+00	0	59	0	256901120	45	4765
2026-01-13 01:45:53.71	181.40	21.69	-37.5	-39.5	22.2	0.00e+00	0	59	0	257949696	45	4844
2026-01-13 01:45:54.72	180.93	21.63	-37.5	-39.5	22.3	0.00e+00	0	59	0	258998272	45	4817
2026-01-13 01:45:55.73	180.48	21.57	-37.5	-39.5	22.2	0.00e+00	0	59	0	260046848	45	4840
2026-01-13 01:45:56.74	180.02	21.51	-37.1	-39.0	22.7	0.00e+00	0	59	0	261095424	45	4548
2026-01-13 01:45:57.75	179.56	21.45	-37.2	-39.1	22.6	0.00e+00	0	59	0	262144000	45	4621
2026-01-13 01:45:58.76	179.11	21.38	-37.0	-38.9	22.8	0.00e+00	0	59	0	263716864	45	4512
2026-01-13 01:45:59.77	178.66	21.32	-37.2	-39.1	22.7	0.00e+00	0	59	0	264765440	45	4605
2026-01-13 01:46:00.78	178.21	21.25	-37.5	-39.4	22.3	0.00e+00	0	59	0	265814016	45	4805
2026-01-13 01:46:01.79	177.77	21.18	-37.6	-39.6	22.2	0.00e+00	0	59	0	266862592	45	4872
2026-01-13 01:46:02.80	177.32	21.12	-37.9	-40.0	21.8	0.00e+00	0	59	0	267911168	46	4817
2026-01-13 01:46:03.81	176.88	21.05	-37.6	-39.6	22.2	0.00e+00	0	59	0	268959744	46	4613
2026-01-13 01:46:04.82	176.44	20.97	-37.4	-39.4	22.4	0.00e+00	0	58	0	270532608	46	4503
2026-01-13 01:46:05.83	176.01	20.90	-37.2	-39.1	22.6	0.00e+00	0	59	0	271581184	46	4361
2026-01-13 01:46:06.84	175.57	20.83	-37.4	-39.3	22.5	0.00e+00	0	59	0	272629760	46	4456
2026-01-13 01:46:07.85	175.14	20.75	-37.6	-39.6	22.2	0.00e+00	0	58	0	273678336	46	4619
2026-01-13 01:46:08.86	174.71	20.68	-37.5	-39.4	22.3	0.00e+00	0	59	0	274726912	46	4536
2026-01-13 01:46:09.87	174.28	20.60	-37.9	-39.9	22.0	0.00e+00	0	59	0	275775488	46	4777
2026-01-13 01:46:10.88	173.86	20.52	-37.4	-39.4	22.4	0.00e+00	0	59	0	277348352	46	4497
2026-01-13 01:46:11.89	173.44	20.44	-37.5	-39.4	22.4	0.00e+00	0	58	0	278396928	46	4540
2026-01-13 01:46:12.89	173.02	20.36	-37.5	-39.5	22.3	0.00e+00	0	59	0	279445504	46	4556
2026-01-13 01:46:13.90	172.61	20.28	-37.9	-39.9	21.9	0.00e+00	0	59	0	280494080	46	4785
2026-01-13 01:46:14.91	172.20	20.20	-37.8	-39.9	21.9	0.00e+00	0	59	0	281542656	46	4784
2026-01-13 01:46:15.92	171.79	20.11	-37.9	-39.9	21.9	0.00e+00	0	59	0	282591232	46	4799
2026-01-13 01:46:16.93	171.38	20.03	-37.8	-39.8	22.0	0.00e+00	0	59	0	284164096	46	4713
2026-01-13 01:46:17.94	170.97	19.95	-37.9	-40.0	21.8	0.00e+00	0	59	0	285212672	46	4818
2026-01-13 01:46:18.95	170.57	19.86	-38.1	-40.3	21.5	0.00e+00	0	59	0	286261248	46	5000
2026-01-13 01:46:19.96	170.17	19.77	-38.2	-40.4	21.4	0.00e+00	0	59	0	287309824	47	4783
2026-01-13 01:46:20.97	169.77	19.69	-38.4	-40.6	21.1	0.00e+00	0	59	0	288358400	47	4925
2026-01-13 01:46:21.98	169.38	19.60	-38.4	-40.7	21.2	0.00e+00	0	59	0	289406976	47	4929
2026-01-13 01:46:22.99	168.99	19.51	-38.4	-40.6	21.3	0.00e+00	0	59	0	290979840	47	4884
2026-01-13 01:46:24.00	168.60	19.42	-38.1	-40.2	21.6	0.00e+00	0	59	0	292028416	47	4677
2026-01-13 01:46:25.01	168.21	19.33	-37.8	-39.8	22.0	0.00e+00	0	59	0	293076992	47	4483
2026-01-13 01:46:26.02	167.83	19.24	-37.5	-39.5	22.3	0.00e+00	0	59	0	294125568	47	4293
2026-01-13 01:46:27.03	167.45	19.14	-37.7	-39.7	22.2	0.00e+00	0	59	0	295174144	47	4408
2026-01-13 01:46:28.04	167.07	19.05	-38.0	-40.1	21.7	0.00e+00	0	59	0	296222720	47	4613
2026-01-13 01:46:29.05	166.70	18.96	-38.3	-40.4	21.4	0.00e+00	0	59	0	297795584	47	4800
2026-01-13 01:46:30.05	166.33	18.87	-38.5	-40.7	21.2	0.00e+00	0	59	0	298844160	47	4968
2026-01-13 01:46:31.06	165.96	18.77	-38.6	-40.8	21.1	0.00e+00	0	59	0	299892736	47	5023
2026-01-13 01:46:32.07	165.59	18.68	-38.4	-40.6	21.2	0.00e+00	0	59	0	300941312	47	4894
2026-01-13 01:46:33.08	165.23	18.58	-38.1	-40.2	21.6	0.00e+00	0	59	0	301989888	47	4705
2026-01-13 01:46:34.09	164.87	18.49	-38.0	-40.2	21.7	0.00e+00	0	59	0	303038464	47	4652
2026-01-13 01:46:35.10	164.51	18.39	-37.8	-39.9	22.0	0.00e+00	0	59	0	304611328	47	4494
2026-01-13 01:46:36.11	164.16	18.29	-37.9	-40.0	21.9	0.00e+00	0	59	0	305659904	47	4547
2026-01-13 01:46:37.12	163.80	18.20	-37.7	-39.8	22.1	0.00e+00	0	59	0	306708480	47	4446
2026-01-13 01:46:38.13	163.45	18.10	-37.9	-40.0	21.8	0.00e+00	0	59	0	307757056	47	4574
2026-01-13 01:46:39.14	163.11	18.00	-38.0	-40.1	21.7	0.00e+00	0	59	0	308805632	47	4645
2026-01-13 01:46:40.15	162.76	17.90	-38.2	-40.3	21.6	0.00e+00	0	59	0	309854208	47	4734
2026-01-13 01:46:41.16	162.42	17.80	-38.2	-40.4	21.5	0.00e+00	0	59	0	311427072	47	4773
2026-01-13 01:46:42.17	162.08	17.71	-38.2	-40.3	21.6	0.00e+00	0	59	0	312475648	47	4734
2026-01-13 01:46:43.18	161.75	17.61	-38.3	-40.5	21.4	0.00e+00	0	59	0	313524224	47	4816
2026-01-13 01:46:44.19	161.41	17.51	-38.3	-40.4	21.5	0.00e+00	0	59	0	314572800	47	4798
2026-01-13 01:46:45.20	161.08	17.41	-38.2	-40.4	21.5	0.00e+00	0	59	0	315621376	47	4783
2026-01-13 01:46:46.21	160.76	17.31	-38.3	-40.4	21.4	0.00e+00	0	59	0	316669952	47	4796
2026-01-13 01:46:47.21	160.43	17.21	-38.5	-40.7	21.1	0.00e+00	0	59	0	318242816	47	4961
2026-01-13 01:46:48.22	160.11	17.11	-38.5	-40.7	21.2	0.00e+00	0	59	0	319291392	47	4968
2026-01-13 01:46:49.23	159.79	17.01	-38.6	-40.9	21.0	0.00e+00	0	59	0	320339968	47	5047
2026-01-13 01:46:50.24	159.47	16.91	-38.5	-40.8	21.1	0.00e+00	0	59	0	321388544	47	5010
2026-01-13 01:46:51.25	159.16	16.81	-38.6	-40.8	21.0	0.00e+00	0	59	0	322437120	47	5028
2026-01-13 01:46:52.26	158.85	16.71	-38.4	-40.6	21.3	0.00e+00	0	59	0	323485696	47	4907
2026-01-13 01:46:53.27	158.54	16.61	-38.5	-40.8	21.1	0.00e+00	0	59	0	325058560	47	5004
2026-01-13 01:46:54.28	158.23	16.50	-38.6	-40.9	21.0	0.00e+00	0	59	0	326107136	47	5079
2026-01-13 01:46:55.29	157.93	16.40	-38.7	-40.9	20.9	0.00e+00	0	59	0	327155712	47	5100
2026-01-13 01:46:56.30	157.63	16.30	-38.7	-41.0	20.8	0.00e+00	0	59	0	328204288	48	4858
2026-01-13 01:46:57.31	157.33	16.20	-38.7	-41.0	20.9	0.00e+00	0	59	0	329252864	48	4847
2026-01-13 01:46:58.32	157.03	16.10	-38.8	-41.0	20.9	0.00e+00	0	59	0	330301440	48	4868
2026-01-13 01:46:59.33	156.74	16.00	-38.7	-40.9	21.0	0.00e+00	0	59	0	331874304	48	4807
2026-01-13 01:47:00.34	156.44	15.90	-38.8	-41.1	20.8	0.00e+00	0	59	0	332922880	48	4878
2026-01-13 01:47:01.35	156.16	15.80	-38.8	-41.1	20.8	0.00e+00	0	59	0	333971456	48	4875
2026-01-13 01:47:02.36	155.87	15.69	-39.0	-41.4	20.5	0.00e+00	0	59	0	335020032	48	5043
2026-01-13 01:47:03.37	155.59	15.59	-38.9	-41.2	20.6	0.00e+00	0	59	0	336068608	48	4983
2026-01-13 01:47:04.38	155.30	15.49	-39.0	-41.4	20.4	0.00e+00	0	59	0	337117184	48	5059
2026-01-13 01:47:05.39	155.02	15.39	-38.8	-41.1	20.7	0.00e+00	0	59	0	338690048	48	4901
2026-01-13 01:47:06.40	154.75	15.29	-38.8	-41.2	20.7	0.00e+00	0	59	0	339738624	48	4931
2026-01-13 01:47:07.41	154.47	15.19	-38.8	-41.2	20.6	0.00e+00	0	59	0	340787200	48	4929
2026-01-13 01:47:08.42	154.20	15.09	-39.0	-41.4	20.4	0.00e+00	0	59	0	341835776	48	5064
2026-01-13 01:47:09.43	153.93	14.99	-39.1	-41.5	20.2	0.00e+00	0	59	0	342884352	48	5145
2026-01-13 01:47:10.44	153.66	14.88	-39.0	-41.5	20.2	0.00e+00	0	59	0	343932928	48	5132
2026-01-13 01:47:11.45	153.40	14.78	-39.0	-41.5	20.2	0.00e+00	0	59	0	345505792	48	5136
2026-01-13 01:47:12.46	153.14	14.68	-38.9	-41.3	20.4	0.00e+00	0	59	0	346554368	48	5037
2026-01-13 01:47:13.47	152.88	14.58	-38.9	-41.3	20.4	0.00e+00	0	59	0	347602944	48	5011
2026-01-13 01:47:14.48	152.62	14.48	-38.9	-41.3	20.3	0.00e+00	0	59	0	348651520	48	5028
2026-01-13 01:47:15.49	152.36	14.38	-38.9	-41.3	20.4	0.00e+00	0	59	0	349700096	48	5017
2026-01-13 01:47:16.50	152.11	14.28	-39.2	-41.7	19.9	0.00e+00	0	59	0	350748672	48	5269
2026-01-13 01:47:17.51	151.86	14.18	-39.2	-41.7	20.0	0.00e+00	0	59	0	352321536	49	4954
2026-01-13 01:47:18.52	151.61	14.08	-39.3	-41.9	19.8	0.00e+00	0	59	0	353370112	49	5051
2026-01-13 01:47:19.53	151.36	13.98	-39.2	-41.7	19.9	0.00e+00	0	59	0	354418688	49	4943
2026-01-13 01:47:20.54	151.11	13.88	-39.2	-41.7	19.9	0.00e+00	0	59	0	355467264	49	4949
2026-01-13 01:47:21.55	150.87	13.78	-39.2	-41.8	19.8	0.00e+00	0	59	0	356515840	49	5004
2026-01-13 01:47:22.56	150.63	13.68	-39.4	-42.0	19.6	0.00e+00	0	59	0	357564416	49	5123
2026-01-13 01:47:23.57	150.39	13.58	-39.6	-42.3	19.3	0.00e+00	0	59	0	359137280	49	5306
2026-01-13 01:47:24.58	150.15	13.49	-39.5	-42.2	19.4	0.00e+00	0	59	0	360185856	49	5257
2026-01-13 01:47:25.59	149.92	13.39	-39.5	-42.2	19.3	0.00e+00	0	59	0	361234432	49	5251
2026-01-13 01:47:26.60	149.69	13.29	-39.3	-41.9	19.7	0.00e+00	0	59	0	362283008	49	5049
2026-01-13 01:47:27.60	149.46	13.19	-39.4	-42.0	19.5	0.00e+00	0	59	0	363331584	49	5140
2026-01-13 01:47:28.61	149.23	13.09	-39.3	-41.9	19.7	0.00e+00	0	59	0	364380160	49	5060
2026-01-13 01:47:29.62	149.00	13.00	-39.4	-42.0	19.6	0.00e+00	0	59	0	365953024	49	5128
2026-01-13 01:47:30.63	148.78	12.90	-39.4	-42.1	19.5	0.00e+00	0	59	0	367001600	49	5174
2026-01-13 01:47:31.64	148.55	12.80	-39.4	-42.1	19.4	0.00e+00	0	59	0	368050176	49	5173
2026-01-13 01:47:32.65	148.33	12.70	-39.6	-42.4	19.1	0.00e+00	0	59	0	369098752	49	5388
2026-01-13 01:47:33.66	148.11	12.61	-39.7	-42.5	19.0	0.00e+00	0	59	0	370147328	49	5427
2026-01-13 01:47:34.67	147.90	12.51	-39.8	-42.6	18.9	0.00e+00	0	59	0	371195904	50	5200
2026-01-13 01:47:35.68	147.68	12.41	-39.6	-42.4	19.0	0.00e+00	0	59	0	372768768	50	5088
2026-01-13 01:47:36.69	147.47	12.32	-39.8	-42.6	18.8	0.00e+00	0	59	0	373817344	50	5199
2026-01-13 01:47:37.70	147.26	12.22	-39.8	-42.7	18.8	0.00e+00	0	59	0	374865920	50	5222
2026-01-13 01:47:38.70	147.05	12.13	-39.9	-42.8	18.6	0.00e+00	0	59	0	375914496	50	5295
2026-01-13 01:47:39.72	146.84	12.03	-40.0	-43.0	18.5	0.00e+00	0	59	0	376963072	50	5406
2026-01-13 01:47:40.73	146.63	11.94	-40.0	-43.0	18.4	0.00e+00	0	59	0	378011648	50	5441
2026-01-13 01:47:41.73	146.43	11.84	-40.0	-43.0	18.4	0.00e+00	0	59	0	379584512	50	5426
2026-01-13 01:47:42.74	146.23	11.75	-40.0	-43.0	18.4	0.00e+00	0	59	0	380633088	50	5417
2026-01-13 01:47:43.75	146.02	11.65	-39.8	-42.7	18.6	0.00e+00	0	59	0	381681664	50	5256
2026-01-13 01:47:44.76	145.83	11.56	-39.8	-42.8	18.5	0.00e+00	0	59	0	382730240	50	5304
2026-01-13 01:47:45.77	145.63	11.47	-39.8	-42.7	18.6	0.00e+00	0	59	0	383778816	50	5256
2026-01-13 01:47:46.78	145.43	11.37	-39.8	-42.8	18.5	0.00e+00	0	59	0	384827392	50	5320
2026-01-13 01:47:47.79	145.24	11.28	-40.0	-43.1	18.2	0.00e+00	0	59	0	386400256	50	5465
2026-01-13 01:47:48.80	145.04	11.19	-40.0	-43.1	18.1	0.00e+00	0	59	0	387448832	50	5524
2026-01-13 01:47:49.81	144.85	11.09	-40.0	-43.1	18.1	0.00e+00	0	59	0	388497408	50	5516
2026-01-13 01:47:50.82	144.66	11.00	-40.0	-43.1	18.0	0.00e+00	0	59	0	389545984	50	5526
2026-01-13 01:47:51.83	144.48	10.91	-39.9	-43.0	18.2	0.00e+00	0	59	0	390594560	50	5424
2026-01-13 01:47:52.84	144.29	10.82	-39.8	-42.8	18.4	0.00e+00	0	59	0	391643136	50	5302
2026-01-13 01:47:53.85	144.10	10.73	-39.8	-42.8	18.3	0.00e+00	0	59	0	393216000	50	5308
2026-01-13 01:47:54.86	143.92	10.63	-39.9	-42.9	18.2	0.00e+00	0	59	0	394264576	50	5395
2026-01-13 01:47:55.87	143.74	10.54	-39.8	-42.9	18.2	0.00e+00	0	59	0	395313152	50	5364
2026-01-13 01:47:56.88	143.56	10.45	-40.0	-43.2	17.9	0.00e+00	0	59	0	396361728	50	5566
2026-01-13 01:47:57.89	143.38	10.36	-40.1	-43.3	17.8	0.00e+00	0	59	0	397410304	50	5602
2026-01-13 01:47:58.89	143.21	10.27	-40.0	-43.2	17.8	0.00e+00	0	59	0	398458880	50	5591
2026-01-13 01:47:59.90	143.03	10.18	-40.1	-43.5	17.5	0.00e+00	0	59	0	399507456	50	5731
2026-01-13 01:48:00.91	142.86	10.09	-40.1	-43.4	17.6	0.00e+00	0	59	0	401080320	50	5680
2026-01-13 01:48:01.92	142.68	10.00	-40.1	-43.4	17.5	0.00e+00	0	59	0	402128896	50	5719
2026-01-13 01:48:02.93	142.51	9.91	-40.2	-43.5	17.3	0.00e+00	0	59	0	403177472	50	5785
2026-01-13 01:48:03.94	142.34	9.83	-40.2	-43.6	17.3	0.00e+00	0	59	0	404226048	50	5842
2026-01-13 01:48:04.95	142.17	9.74	-40.3	-43.7	17.1	0.00e+00	0	59	0	405274624	51	5592
2026-01-13 01:48:05.96	142.00	9.65	-40.4	-44.0	16.9	0.00e+00	0	59	0	406323200	51	5773
2026-01-13 01:48:06.97	141.84	9.56	-40.4	-44.1	16.7	0.00e+00	0	59	0	407896064	51	5811
2026-01-13 01:48:07.98	141.67	9.47	-40.3	-43.9	16.9	0.00e+00	0	59	0	408944640	51	5707
2026-01-13 01:48:08.99	141.51	9.39	-40.2	-43.7	17.0	0.00e+00	0	59	0	409993216	51	5558
2026-01-13 01:48:10.00	141.35	9.30	-40.2	-43.8	17.0	0.00e+00	0	59	0	411041792	51	5627
2026-01-13 01:48:11.01	141.19	9.21	-40.2	-43.8	16.8	0.00e+00	0	59	0	412090368	51	5637
2026-01-13 01:48:12.02	141.03	9.13	-40.1	-43.7	16.8	0.00e+00	0	59	0	413663232	51	5586
2026-01-13 01:48:13.03	140.87	9.04	-40.3	-44.0	16.6	0.00e+00	0	59	0	414711808	51	5783
2026-01-13 01:48:14.04	140.71	8.95	-40.3	-44.2	16.3	0.00e+00	0	59	0	415760384	51	5911
2026-01-13 01:48:15.05	140.56	8.87	-40.4	-44.3	16.1	0.00e+00	0	59	0	416808960	51	5977
2026-01-13 01:48:16.06	140.40	8.78	-40.4	-44.6	15.6	0.00e+00	0	59	0	417857536	51	6193
2026-01-13 01:48:17.06	140.25	8.70	-40.2	-44.2	16.1	1.33e-04	0	59	0	418906112	51	5888
2026-01-13 01:48:18.07	140.10	8.61	-40.4	-44.5	15.7	1.33e-04	0	59	0	420478976	51	6094
2026-01-13 01:48:19.08	139.95	8.53	-39.7	-43.6	16.7	1.10e-06	0	59	0	421527552	51	5498
2026-01-13 01:48:20.09	139.80	8.45	-40.5	-45.2	15.0	1.54e-04	0	59	0	422576128	51	6575
2026-01-13 01:48:21.10	139.65	8.36	-39.8	-43.5	16.5	1.54e-04	0	59	0	423624704	50	5744
2026-01-13 01:48:22.11	139.51	8.28	-38.6	-43.2	16.8	4.77e-04	0	59	0	424673280	49	5858
2026-01-13 01:48:23.12	139.36	8.20	-40.7	-45.5	14.5	2.24e-04	0	59	0	425721856	51	6871
2026-01-13 01:48:24.13	139.22	8.11	-41.5	-48.4	11.4	2.32e-04	0	59	0	427294720	53	8470
2026-01-13 01:48:25.14	139.07	8.03	-42.1	-51.8	7.8	2.32e-04	0	59	0	428343296	54	11932
2026-01-13 01:48:26.15	138.93	7.95	-43.1	-61.0	3.7	1.04e-01	0	59	104	428343296	56	30726
2026-01-13 01:48:27.16	138.79	7.87	-43.8	-62.1	3.9	8.45e-01	0	59	104	428343296	57	32927
2026-01-13 01:48:28.17	138.65	7.78	-45.0	-63.0	3.8	8.45e-01	0	59	104	428343296	60	30611
2026-01-13 01:48:29.18	138.51	7.70	-45.1	-63.2	3.8	8.46e-01	0	59	104	428343296	60	31398
2026-01-13 01:48:30.19	138.37	7.62	-45.3	-63.4	3.8	8.45e-01	0	59	104	428343296	61	30098
2026-01-13 01:48:31.20	138.23	7.54	-45.4	-63.5	3.8	8.45e-01	0	59	104	428343296	61	30543
2026-01-13 01:48:32.21	138.10	7.46	-45.5	-63.6	3.8	8.46e-01	0	59	104	428343296	61	30824
2026-01-13 01:48:33.22	137.96	7.38	-45.5	-63.7	3.8	8.46e-01	0	59	104	428343296	61	31188
2026-01-13 01:48:34.23	137.83	7.30	-45.6	-63.7	3.8	8.46e-01	0	59	104	428343296	61	31430
2026-01-13 01:48:35.24	137.70	7.22	-45.6	-63.8	3.8	8.46e-01	0	59	104	428343296	61	31562
2026-01-13 01:48:36.25	137.56	7.14	-45.5	-63.7	3.8	8.46e-01	0	59	104	428343296	61	31437
2026-01-13 01:48:37.26	137.43	7.06	-45.4	-63.7	3.8	8.45e-01	0	59	104	428343296	61	31188
2026-01-13 01:48:38.27	137.30	6.98	-45.4	-63.6	3.8	8.45e-01	0	59	104	428343296	61	31086
2026-01-13 01:48:39.28	137.18	6.90	-45.4	-63.6	3.8	8.44e-01	0	59	104	428343296	61	31065
2026-01-13 01:48:40.29	137.05	6.82	-45.4	-63.6	3.8	8.46e-01	0	59	104	428343296	61	31049
2026-01-13 01:48:41.30	136.92	6.74	-45.3	-63.6	3.8	8.46e-01	0	60	104	428343296	61	30832
2026-01-13 01:48:42.31	136.80	6.66	-45.3	-63.6	3.8	8.46e-01	0	59	104	428343296	61	30864
2026-01-13 01:48:43.32	136.67	6.59	-45.3	-63.6	3.8	8.46e-01	0	59	104	428343296	61	30787
2026-01-13 01:48:44.33	136.55	6.51	-45.3	-63.6	3.8	8.46e-01	0	59	104	428343296	61	30865
2026-01-13 01:48:45.34	136.42	6.43	-45.3	-63.6	3.8	8.46e-01	0	59	104	428343296	61	30736
2026-01-13 01:48:46.35	136.30	6.35	-45.3	-63.6	3.8	8.46e-01	0	60	104	428343296	61	30769
2026-01-13 01:48:47.36	136.18	6.28	-45.3	-63.6	3.8	8.46e-01	0	59	104	428343296	61	30748
2026-01-13 01:48:48.37	136.06	6.20	-45.3	-63.5	3.8	8.47e-01	0	59	104	428343296	61	30621
2026-01-13 01:48:49.38	135.94	6.12	-45.3	-63.6	3.8	8.46e-01	0	59	104	428343296	61	30804
2026-01-13 01:48:50.39	135.82	6.05	-45.3	-63.6	3.8	8.46e-01	0	59	104	428343296	61	30789
2026-01-13 01:48:51.40	135.70	5.97	-45.3	-63.6	3.8	8.46e-01	0	59	104	428343296	61	30752
2026-01-13 01:48:52.41	135.59	5.90	-45.3	-63.6	3.8	8.47e-01	0	59	104	428343296	61	30764
2026-01-13 01:48:53.42	135.47	5.82	-45.3	-63.5	3.8	8.45e-01	0	60	104	428343296	61	30714
2026-01-13 01:48:54.43	135.36	5.75	-45.3	-63.5	3.8	8.45e-01	0	59	104	428343296	61	30688
2026-01-13 01:48:55.44	135.24	5.67	-45.3	-63.5	3.8	8.46e-01	0	59	104	428343296	61	30720
2026-01-13 01:48:56.45	135.13	5.60	-45.3	-63.5	3.8	8.47e-01	0	59	104	428343296	61	30701
2026-01-13 01:48:57.46	135.02	5.52	-45.3	-63.6	3.8	8.47e-01	0	59	104	428343296	61	30750
2026-01-13 01:48:58.47	134.90	5.45	-45.2	-63.5	3.8	8.46e-01	0	59	104	428343296	61	30647
2026-01-13 01:48:59.48	134.79	5.37	-45.2	-63.5	3.8	8.45e-01	0	59	104	428343296	61	30681
2026-01-13 01:49:00.49	134.68	5.30	-45.2	-63.5	3.8	8.48e-01	0	59	104	428343296	61	30604
2026-01-13 01:49:01.51	134.57	5.23	-45.2	-63.5	3.8	8.48e-01	0	59	104	428343296	61	30683
2026-01-13 01:49:02.52	134.46	5.15	-45.2	-63.5	3.8	8.46e-01	0	59	104	428343296	61	30630
2026-01-13 01:49:03.53	134.36	5.08	-45.2	-63.5	3.8	8.44e-01	0	59	104	428343296	61	30588
2026-01-13 01:49:04.54	134.25	5.01	-45.2	-63.5	3.8	8.44e-01	0	59	104	428343296	61	30662
2026-01-13 01:49:05.55	134.14	4.94	-45.2	-63.5	3.8	8.45e-01	0	59	104	428343296	61	30618
2026-01-13 01:49:06.56	134.04	4.86	-45.2	-63.5	3.8	8.45e-01	0	60	104	428343296	61	30584
2026-01-13 01:49:07.57	133.93	4.79	-45.2	-63.5	3.8	8.45e-01	0	59	104	428343296	61	30550
2026-01-13 01:49:08.58	133.83	4.72	-45.2	-63.5	3.8	8.47e-01	0	60	104	428343296	61	30641
2026-01-13 01:49:09.59	133.72	4.65	-45.2	-63.5	3.8	8.46e-01	0	60	104	428343296	61	30514
2026-01-13 01:49:10.60	133.62	4.58	-45.2	-63.5	3.8	8.46e-01	0	59	104	428343296	61	30531
2026-01-13 01:49:11.62	133.52	4.50	-45.2	-63.5	3.8	8.47e-01	0	60	104	428343296	61	30565
2026-01-13 01:49:12.63	133.42	4.43	-45.2	-63.5	3.8	8.46e-01	0	59	104	428343296	61	30600
2026-01-13 01:49:13.64	133.32	4.36	-45.2	-63.5	3.8	8.46e-01	0	59	104	428343296	61	30509
2026-01-13 01:49:14.64	133.22	4.29	-45.2	-63.5	3.8	8.46e-01	0	59	104	428343296	61	30611
2026-01-13 01:49:15.65	133.12	4.22	-45.2	-63.5	3.8	8.46e-01	0	59	104	428343296	61	30570
2026-01-13 01:49:16.66	133.02	4.15	-45.2	-63.5	3.8	8.46e-01	0	59	104	428343296	61	30584
2026-01-13 01:49:17.68	132.92	4.08	-45.2	-63.5	3.8	8.46e-01	0	60	104	428343296	61	30616
2026-01-13 01:49:18.68	132.83	4.01	-45.2	-63.5	3.8	8.46e-01	0	60	104	428343296	61	30577
2026-01-13 01:49:19.69	132.73	3.94	-45.2	-63.5	3.8	8.45e-01	0	59	104	428343296	61	30559
2026-01-13 01:49:20.70	132.63	3.87	-45.2	-63.5	3.8	8.45e-01	0	60	104	428343296	61	30547
2026-01-13 01:49:21.72	132.54	3.80	-45.2	-63.5	3.8	8.46e-01	0	59	104	428343296	61	30527
2026-01-13 01:49:22.73	132.44	3.74	-45.2	-63.5	3.8	8.45e-01	0	59	104	428343296	61	30513
2026-01-13 01:49:23.74	132.35	3.67	-45.2	-63.5	3.8	8.45e-01	0	59	104	428343296	61	30526
2026-01-13 01:49:24.75	132.26	3.60	-45.2	-63.5	3.8	8.47e-01	0	60	104	428343296	61	30617
2026-01-13 01:49:25.76	132.16	3.53	-45.2	-63.5	3.8	8.46e-01	0	60	104	428343296	61	30593
2026-01-13 01:49:26.77	132.07	3.46	-45.2	-63.5	3.8	8.46e-01	0	60	104	428343296	61	30538
2026-01-13 01:49:27.78	131.98	3.39	-45.2	-63.5	3.8	8.46e-01	0	60	104	428343296	61	30533
2026-01-13 01:49:28.79	131.89	3.33	-45.2	-63.5	3.8	8.46e-01	0	59	104	428343296	61	30504
2026-01-13 01:49:29.80	131.80	3.26	-45.2	-63.5	3.8	8.47e-01	0	60	104	428343296	61	30587
2026-01-13 01:49:30.81	131.71	3.19	-45.2	-63.5	3.8	8.47e-01	0	60	104	428343296	61	30561
2026-01-13 01:49:31.82	131.62	3.13	-45.2	-63.5	3.8	8.46e-01	0	59	104	428343296	61	30556
2026-01-13 01:49:32.83	131.53	3.06	-45.2	-63.5	3.8	8.46e-01	0	60	104	428343296	61	30546
2026-01-13 01:49:33.84	131.45	2.99	-45.2	-63.5	3.8	8.46e-01	0	60	104	428343296	61	30540
2026-01-13 01:49:34.85	131.36	2.93	-45.2	-63.5	3.8	8.47e-01	0	59	104	428343296	61	30488
2026-01-13 01:49:35.86	131.27	2.86	-45.2	-63.5	3.8	8.46e-01	0	60	104	428343296	61	30493
2026-01-13 01:49:36.87	131.19	2.79	-45.2	-63.5	3.8	8.46e-01	0	60	104	428343296	61	30560
2026-01-13 01:49:37.88	131.10	2.73	-45.2	-63.5	3.8	8.46e-01	0	59	104	428343296	61	30534
2026-01-13 01:49:38.89	131.02	2.66	-45.2	-63.5	3.8	8.45e-01	0	59	104	428343296	61	30574
2026-01-13 01:49:39.90	130.93	2.60	-45.2	-63.5	3.8	8.46e-01	0	60	104	428343296	61	30536
2026-01-13 01:49:40.91	130.85	2.53	-45.2	-63.5	3.8	8.46e-01	0	60	104	428343296	61	30526
2026-01-13 01:49:41.92	130.77	2.47	-45.2	-63.5	3.8	8.45e-01	0	60	104	428343296	61	30473
2026-01-13 01:49:42.93	130.68	2.40	-45.2	-63.5	3.8	8.46e-01	0	60	104	428343296	61	30557
2026-01-13 01:49:43.94	130.60	2.34	-45.2	-63.5	3.8	8.46e-01	0	59	104	428343296	61	30517
2026-01-13 01:49:44.95	130.52	2.27	-45.2	-63.5	3.8	8.47e-01	0	60	104	428343296	61	30505
2026-01-13 01:49:45.96	130.44	2.21	-45.2	-63.5	3.8	8.47e-01	0	60	104	428343296	61	30478
2026-01-13 01:49:46.96	130.36	2.14	-45.2	-63.5	3.8	8.47e-01	0	59	104	428343296	61	30475
2026-01-13 01:49:47.98	130.28	2.08	-45.2	-63.5	3.8	8.46e-01	0	60	104	428343296	61	30524
2026-01-13 01:49:48.99	130.20	2.01	-45.2	-63.5	3.8	8.45e-01	0	60	104	428343296	61	30456

#Closed at: 2026-01-13 01:49:49
#Recorded file [428 MB]: D:/lorett/data/31039_260113_044056.dat