passes_logs/2026/01/13/R2.0S_Moscow/R2.0S_Moscow__20260113_231304_FENGYUN_3G_rec.log

#Pass ID: 20260113_231304_FENGYUN 3G
#Satellite: FENGYUN 3G
#Configuration: FENGYUN 3G
#almurnet v.1.7.20251203
#Start time: 2026-01-13 23:13:04

#Version: 2.2.20231116
#Station: R2.0S_Moscow
#Location: 37.707566 lon 55.798166 lat
#TLE: 1 56232U 23055A   26013.24803668  .00022566  00000+0  35531-3 0  9992
#TLE: 2 56232  49.9941  64.9712 0004217  19.4523 340.6605 15.53433909155921

#Time	Az	El	Level	Level2	SNR	BER	BlckErr	Temp	State	Recorded	gain1	gain2
2026-01-13 23:13:04.56	241.59	2.01	-44.3	-62.3	3.8	8.46e-01	0	51	0	0	60	28225
2026-01-13 23:13:05.57	241.52	2.07	-44.3	-62.4	3.8	8.44e-01	0	51	104	0	60	28629
2026-01-13 23:13:06.58	241.46	2.14	-44.3	-62.5	3.8	8.46e-01	0	51	104	0	60	28760
2026-01-13 23:13:07.59	241.39	2.21	-44.3	-62.4	3.8	8.45e-01	0	51	104	0	60	28577
2026-01-13 23:13:08.60	241.32	2.27	-44.3	-62.4	3.8	8.45e-01	0	51	104	0	60	28564
2026-01-13 23:13:09.61	241.25	2.34	-44.3	-62.5	3.8	8.46e-01	0	51	104	0	60	28733
2026-01-13 23:13:10.62	241.18	2.41	-44.3	-62.4	3.8	8.45e-01	0	51	104	0	60	28643
2026-01-13 23:13:11.63	241.12	2.47	-44.3	-62.5	3.8	8.45e-01	0	51	104	0	60	28681
2026-01-13 23:13:12.65	241.05	2.54	-44.3	-62.5	3.8	8.46e-01	0	51	104	0	60	28738
2026-01-13 23:13:13.66	240.98	2.61	-44.3	-62.5	3.8	8.46e-01	0	51	104	0	60	28696
2026-01-13 23:13:14.67	240.91	2.68	-44.3	-62.5	3.8	8.46e-01	0	52	104	0	60	28798
2026-01-13 23:13:15.68	240.83	2.74	-44.3	-62.5	3.8	8.45e-01	0	52	104	0	60	28725
2026-01-13 23:13:16.69	240.76	2.81	-44.3	-62.5	3.8	8.46e-01	0	52	104	0	60	28830
2026-01-13 23:13:17.70	240.69	2.88	-44.3	-62.5	3.8	8.46e-01	0	52	104	0	60	28690
2026-01-13 23:13:18.71	240.62	2.95	-44.3	-62.4	3.8	8.46e-01	0	52	104	0	60	28509
2026-01-13 23:13:19.72	240.55	3.02	-44.3	-62.4	3.8	8.46e-01	0	52	104	0	60	28507
2026-01-13 23:13:20.73	240.47	3.09	-44.3	-62.4	3.8	8.47e-01	0	52	104	0	60	28607
2026-01-13 23:13:21.75	240.40	3.16	-44.3	-62.4	3.8	8.47e-01	0	52	104	0	60	28356
2026-01-13 23:13:22.76	240.32	3.23	-44.3	-62.4	3.8	8.46e-01	0	52	104	0	60	28385
2026-01-13 23:13:23.77	240.25	3.29	-44.3	-62.4	3.8	8.46e-01	0	52	104	0	60	28363
2026-01-13 23:13:24.78	240.17	3.36	-44.3	-62.3	3.8	8.46e-01	0	52	104	0	60	28215
2026-01-13 23:13:25.79	240.10	3.43	-44.3	-62.2	3.8	8.46e-01	0	52	104	0	60	27814
2026-01-13 23:13:26.80	240.02	3.51	-44.3	-62.3	3.8	8.45e-01	0	52	104	0	60	28195
2026-01-13 23:13:27.81	239.94	3.58	-44.3	-62.3	3.8	8.45e-01	0	52	104	0	60	28156
2026-01-13 23:13:28.82	239.87	3.65	-44.3	-62.4	3.8	8.47e-01	0	53	104	0	60	28359
2026-01-13 23:13:29.83	239.79	3.72	-44.3	-62.3	3.8	8.45e-01	0	53	104	0	60	28311
2026-01-13 23:13:30.84	239.71	3.79	-44.3	-62.4	3.8	8.45e-01	0	52	104	0	60	28422
2026-01-13 23:13:31.85	239.63	3.86	-44.3	-62.4	3.8	8.47e-01	0	53	104	0	60	28487
2026-01-13 23:13:32.86	239.55	3.93	-44.3	-62.2	3.8	8.47e-01	0	53	104	0	60	27792
2026-01-13 23:13:33.87	239.47	4.00	-44.3	-62.3	3.8	8.46e-01	0	53	104	0	60	28218
2026-01-13 23:13:34.89	239.39	4.08	-44.3	-62.3	3.8	8.46e-01	0	53	104	0	60	28220
2026-01-13 23:13:35.90	239.31	4.15	-44.3	-62.2	3.8	8.47e-01	0	53	104	0	60	27891
2026-01-13 23:13:36.91	239.22	4.22	-44.3	-62.2	3.8	8.45e-01	0	53	104	0	60	27764
2026-01-13 23:13:37.92	239.14	4.30	-44.3	-61.9	3.8	8.45e-01	0	53	104	0	60	27016
2026-01-13 23:13:38.93	239.06	4.37	-44.3	-61.9	3.8	8.47e-01	0	53	104	0	60	26848
2026-01-13 23:13:39.94	238.97	4.44	-44.2	-61.8	3.8	8.45e-01	0	53	104	0	60	26557
2026-01-13 23:13:40.95	238.89	4.52	-44.3	-61.6	3.8	8.45e-01	0	53	104	0	60	25944
2026-01-13 23:13:41.96	238.80	4.59	-44.2	-61.8	3.8	8.46e-01	0	53	104	0	60	26620
2026-01-13 23:13:42.98	238.72	4.67	-44.2	-61.8	3.8	8.45e-01	0	53	104	0	60	26560
2026-01-13 23:13:43.99	238.63	4.74	-44.3	-61.9	3.8	8.44e-01	0	53	104	0	60	26945
2026-01-13 23:13:45.00	238.54	4.82	-44.2	-61.8	3.8	8.44e-01	0	53	104	0	60	26529
2026-01-13 23:13:46.01	238.45	4.89	-44.2	-61.7	3.8	8.46e-01	0	54	104	0	60	26441
2026-01-13 23:13:47.02	238.37	4.97	-44.3	-62.0	3.8	8.46e-01	0	54	104	0	60	27183
2026-01-13 23:13:48.03	238.28	5.04	-44.2	-62.0	3.8	8.46e-01	0	54	104	0	60	27108
2026-01-13 23:13:49.04	238.19	5.12	-44.3	-61.9	3.8	8.47e-01	0	54	104	0	60	26916
2026-01-13 23:13:50.05	238.10	5.19	-44.2	-61.5	3.8	8.46e-01	0	54	104	0	60	25649
2026-01-13 23:13:51.06	238.00	5.27	-44.2	-61.1	3.8	8.46e-01	0	54	104	0	60	24585
2026-01-13 23:13:52.07	237.91	5.35	-44.2	-60.7	3.8	8.46e-01	0	54	104	0	60	23538
2026-01-13 23:13:53.08	237.82	5.42	-44.2	-60.2	3.9	8.46e-01	0	54	104	0	60	22017
2026-01-13 23:13:54.10	237.73	5.50	-44.2	-59.6	4.0	8.46e-01	0	54	0	0	60	20699
2026-01-13 23:13:55.11	237.63	5.58	-44.2	-59.4	4.1	8.43e-01	0	54	0	0	60	20099
2026-01-13 23:13:56.12	237.54	5.66	-44.2	-58.9	4.2	8.41e-01	0	54	0	0	60	19021
2026-01-13 23:13:57.13	237.44	5.74	-44.1	-58.7	4.3	8.36e-01	0	54	0	0	60	18677
2026-01-13 23:13:58.14	237.35	5.82	-44.1	-58.6	4.3	8.36e-01	0	54	0	0	60	18327
2026-01-13 23:13:59.15	237.25	5.89	-44.2	-58.7	4.3	8.33e-01	0	54	0	0	60	18587
2026-01-13 23:14:00.15	237.15	5.97	-44.1	-58.7	4.2	8.35e-01	0	54	0	0	60	18558
2026-01-13 23:14:01.16	237.05	6.05	-44.1	-58.3	4.4	8.35e-01	0	54	0	0	60	17879
2026-01-13 23:14:02.17	236.95	6.13	-44.1	-57.8	4.6	8.31e-01	0	54	0	0	60	16776
2026-01-13 23:14:03.18	236.85	6.21	-44.0	-56.6	5.1	8.08e-01	0	54	0	0	60	14696
2026-01-13 23:14:04.19	236.75	6.29	-44.0	-55.5	5.9	8.08e-01	0	54	0	0	59	13706
2026-01-13 23:14:05.20	236.65	6.37	-44.0	-54.8	6.4	6.17e-01	0	54	0	1572864	59	12651
2026-01-13 23:14:06.21	236.55	6.45	-43.9	-53.8	7.3	2.95e-01	0	55	0	2621440	59	11249
2026-01-13 23:14:07.22	236.45	6.54	-43.7	-53.0	8.2	2.95e-01	0	54	0	3670016	59	10206
2026-01-13 23:14:08.23	236.34	6.62	-43.6	-52.0	9.1	1.12e-01	0	55	0	4718592	59	9156
2026-01-13 23:14:09.24	236.24	6.70	-43.4	-51.3	9.9	3.69e-02	0	54	0	5767168	58	8944
2026-01-13 23:14:10.25	236.13	6.78	-43.4	-51.2	10.0	1.15e-02	0	55	0	6815744	58	8830
2026-01-13 23:14:11.25	236.02	6.86	-43.5	-51.4	9.8	1.15e-02	0	55	0	7864320	58	9059
2026-01-13 23:14:12.26	235.92	6.95	-43.6	-51.8	9.4	1.20e-02	0	55	0	9437184	58	9467
2026-01-13 23:14:13.27	235.81	7.03	-43.7	-52.6	8.6	2.34e-02	0	55	0	10485760	58	10299
2026-01-13 23:14:14.28	235.70	7.11	-43.9	-54.1	7.2	2.34e-02	0	55	0	11534336	58	12295
2026-01-13 23:14:15.29	235.59	7.20	-44.2	-56.8	5.1	9.90e-02	0	55	0	12582912	58	16797
2026-01-13 23:14:16.30	235.48	7.28	-44.3	-59.1	4.1	6.46e-01	0	55	0	12582912	59	20768
2026-01-13 23:14:17.31	235.37	7.37	-44.2	-58.3	4.3	6.46e-01	0	55	0	12582912	59	18829
2026-01-13 23:14:18.32	235.25	7.45	-43.9	-54.6	6.6	8.38e-01	0	55	0	13107200	59	12333
2026-01-13 23:14:19.33	235.14	7.54	-43.5	-51.6	9.5	4.16e-01	0	55	0	14155776	59	8734
2026-01-13 23:14:20.34	235.02	7.62	-43.0	-49.5	11.7	4.16e-01	0	55	0	15204352	58	7264
2026-01-13 23:14:21.35	234.91	7.71	-42.5	-48.0	13.3	1.37e-02	0	55	0	16252928	57	6426
2026-01-13 23:14:22.36	234.79	7.80	-42.2	-47.1	14.2	1.44e-04	0	55	0	17301504	56	6178
2026-01-13 23:14:23.37	234.67	7.88	-42.0	-46.7	14.7	0.00e+00	0	55	0	18350080	56	5887
2026-01-13 23:14:24.38	234.56	7.97	-41.8	-46.4	14.8	0.00e+00	0	55	0	19922944	55	6036
2026-01-13 23:14:25.39	234.44	8.06	-41.5	-45.9	15.3	0.00e+00	0	55	0	20971520	55	5657
2026-01-13 23:14:26.40	234.32	8.15	-41.6	-46.0	15.5	0.00e+00	0	55	0	22020096	54	6077
2026-01-13 23:14:27.41	234.19	8.23	-41.7	-46.2	14.8	0.00e+00	0	56	0	23068672	55	5918
2026-01-13 23:14:28.42	234.07	8.32	-42.8	-48.9	11.0	6.34e-04	0	55	0	24117248	57	7128
2026-01-13 23:14:29.43	233.95	8.41	-40.7	-44.2	17.4	1.62e-01	0	55	0	25165824	53	5219
2026-01-13 23:14:30.44	233.82	8.50	-43.8	-53.4	7.0	1.62e-01	0	56	0	26214400	58	11297
2026-01-13 23:14:31.45	233.70	8.59	-40.5	-43.9	17.4	8.20e-02	0	56	0	27262976	53	5085
2026-01-13 23:14:32.46	233.57	8.68	-40.4	-43.7	17.7	2.74e-05	0	55	0	28311552	52	5277
2026-01-13 23:14:33.46	233.44	8.77	-40.4	-43.7	17.7	0.00e+00	0	55	0	29884416	52	5234
2026-01-13 23:14:34.47	233.31	8.86	-40.3	-43.5	17.9	0.00e+00	0	56	0	30932992	52	5146
2026-01-13 23:14:35.48	233.18	8.95	-40.3	-43.5	17.9	0.00e+00	0	56	0	31981568	52	5108
2026-01-13 23:14:36.49	233.05	9.05	-40.3	-43.6	17.9	0.00e+00	0	56	0	33030144	52	5168
2026-01-13 23:14:37.50	232.92	9.14	-40.4	-43.6	17.8	0.00e+00	0	56	0	34078720	52	5211
2026-01-13 23:14:38.51	232.79	9.23	-40.4	-43.6	17.8	0.00e+00	0	56	0	35127296	52	5210
2026-01-13 23:14:39.52	232.65	9.32	-40.3	-43.5	17.9	0.00e+00	0	56	0	36700160	52	5116
2026-01-13 23:14:40.53	232.52	9.42	-40.3	-43.5	18.0	0.00e+00	0	56	0	37748736	52	5116
2026-01-13 23:14:41.54	232.38	9.51	-40.4	-43.6	17.9	0.00e+00	0	56	0	38797312	52	5177
2026-01-13 23:14:42.55	232.24	9.61	-40.3	-43.4	18.0	0.00e+00	0	56	0	39845888	52	5098
2026-01-13 23:14:43.56	232.10	9.70	-40.3	-43.5	18.0	0.00e+00	0	56	0	40894464	52	5112
2026-01-13 23:14:44.57	231.96	9.79	-40.4	-43.6	17.9	0.00e+00	0	56	0	41943040	52	5163
2026-01-13 23:14:45.58	231.82	9.89	-40.3	-43.4	18.0	0.00e+00	0	56	0	43515904	52	5084
2026-01-13 23:14:46.59	231.67	9.99	-40.3	-43.4	18.0	0.00e+00	0	56	0	44564480	52	5085
2026-01-13 23:14:47.60	231.53	10.08	-40.2	-43.2	18.3	0.00e+00	0	56	0	45613056	52	4978
2026-01-13 23:14:48.61	231.38	10.18	-40.1	-43.1	18.4	0.00e+00	0	56	0	46661632	52	4914
2026-01-13 23:14:49.62	231.23	10.28	-40.1	-43.1	18.4	0.00e+00	0	56	0	47710208	52	4913
2026-01-13 23:14:50.63	231.09	10.37	-40.1	-43.1	18.4	0.00e+00	0	56	0	48758784	52	4882
2026-01-13 23:14:51.63	230.94	10.47	-40.0	-43.0	18.5	0.00e+00	0	56	0	50331648	52	4833
2026-01-13 23:14:52.64	230.79	10.57	-40.1	-43.1	18.5	0.00e+00	0	56	0	51380224	52	4891
2026-01-13 23:14:53.65	230.63	10.67	-40.1	-43.1	18.4	0.00e+00	0	56	0	52428800	52	4923
2026-01-13 23:14:54.66	230.48	10.77	-40.1	-43.0	18.5	0.00e+00	0	56	0	53477376	52	4867
2026-01-13 23:14:55.67	230.32	10.87	-40.0	-42.9	18.6	0.00e+00	0	56	0	54525952	52	4811
2026-01-13 23:14:56.68	230.17	10.97	-40.1	-43.1	18.6	0.00e+00	0	56	0	55574528	51	5173
2026-01-13 23:14:57.69	230.01	11.07	-40.2	-43.1	18.5	0.00e+00	0	56	0	57147392	51	5212
2026-01-13 23:14:58.70	229.85	11.17	-40.1	-43.1	18.6	0.00e+00	0	56	0	58195968	51	5178
2026-01-13 23:14:59.71	229.69	11.27	-40.1	-43.0	18.7	0.00e+00	0	56	0	59244544	51	5104
2026-01-13 23:15:00.72	229.52	11.37	-40.0	-42.8	18.8	0.00e+00	0	56	0	60293120	51	5035
2026-01-13 23:15:01.73	229.36	11.48	-40.0	-42.8	18.9	0.00e+00	0	57	0	61341696	51	5024
2026-01-13 23:15:02.74	229.19	11.58	-39.8	-42.6	19.1	0.00e+00	0	57	0	62390272	51	4899
2026-01-13 23:15:03.75	229.02	11.68	-39.8	-42.5	19.2	0.00e+00	0	56	0	63438848	51	4856
2026-01-13 23:15:04.76	228.85	11.79	-39.9	-42.7	19.0	0.00e+00	0	56	0	65011712	51	4962
2026-01-13 23:15:05.77	228.68	11.89	-39.9	-42.7	19.0	0.00e+00	0	57	0	66060288	51	4946
2026-01-13 23:15:06.78	228.51	12.00	-39.9	-42.6	19.1	0.00e+00	0	56	0	67108864	51	4907
2026-01-13 23:15:07.79	228.34	12.10	-39.8	-42.6	19.1	0.00e+00	0	57	0	68157440	51	4888
2026-01-13 23:15:08.80	228.16	12.21	-39.9	-42.7	19.0	0.00e+00	0	57	0	69206016	51	4963
2026-01-13 23:15:09.80	227.99	12.31	-39.9	-42.7	19.1	0.00e+00	0	57	0	70778880	51	4952
2026-01-13 23:15:10.81	227.81	12.42	-39.9	-42.7	19.0	0.00e+00	0	57	0	71827456	51	4983
2026-01-13 23:15:11.82	227.63	12.53	-40.0	-42.9	18.9	0.00e+00	0	57	0	72876032	51	5051
2026-01-13 23:15:12.83	227.44	12.63	-40.0	-42.8	19.0	0.00e+00	0	57	0	73924608	51	4997
2026-01-13 23:15:13.84	227.26	12.74	-39.8	-42.5	19.2	0.00e+00	0	57	0	74973184	51	4832
2026-01-13 23:15:14.85	227.07	12.85	-39.6	-42.3	19.4	0.00e+00	0	57	0	76021760	51	4725
2026-01-13 23:15:15.86	226.88	12.96	-39.5	-42.1	19.7	0.00e+00	0	57	0	77594624	51	4622
2026-01-13 23:15:16.87	226.69	13.07	-39.4	-42.0	19.8	0.00e+00	0	57	0	78643200	50	4830
2026-01-13 23:15:17.88	226.50	13.18	-39.4	-41.9	19.9	0.00e+00	0	57	0	79691776	50	4771
2026-01-13 23:15:18.89	226.31	13.29	-39.3	-41.7	20.1	0.00e+00	0	57	0	80740352	50	4691
2026-01-13 23:15:19.90	226.11	13.40	-39.2	-41.7	20.1	0.00e+00	0	57	0	81788928	50	4682
2026-01-13 23:15:20.91	225.92	13.51	-39.2	-41.6	20.1	0.00e+00	0	57	0	82837504	50	4646
2026-01-13 23:15:21.92	225.72	13.62	-39.4	-41.9	20.0	0.00e+00	0	57	0	84410368	50	4773
2026-01-13 23:15:22.93	225.51	13.74	-39.4	-41.9	19.9	0.00e+00	0	57	0	85458944	50	4787
2026-01-13 23:15:23.94	225.31	13.85	-39.4	-41.9	20.0	0.00e+00	0	57	0	86507520	50	4760
2026-01-13 23:15:24.95	225.11	13.96	-39.3	-41.8	20.0	0.00e+00	0	57	0	87556096	50	4743
2026-01-13 23:15:25.96	224.90	14.08	-39.3	-41.7	20.1	0.00e+00	0	57	0	88604672	50	4697
2026-01-13 23:15:26.97	224.69	14.19	-39.2	-41.7	20.1	0.00e+00	0	57	0	89653248	50	4677
2026-01-13 23:15:27.98	224.48	14.30	-39.3	-41.8	20.1	0.00e+00	0	57	0	91226112	50	4733
2026-01-13 23:15:28.99	224.26	14.42	-39.2	-41.6	20.2	0.00e+00	0	57	0	92274688	50	4643
2026-01-13 23:15:30.00	224.05	14.54	-39.0	-41.4	20.4	0.00e+00	0	57	0	93323264	50	4515
2026-01-13 23:15:31.01	223.83	14.65	-38.8	-41.1	20.7	0.00e+00	0	57	0	94371840	49	4641
2026-01-13 23:15:32.02	223.61	14.77	-38.8	-41.1	20.7	0.00e+00	0	57	0	95420416	49	4616
2026-01-13 23:15:33.03	223.39	14.89	-38.9	-41.3	20.6	0.00e+00	0	57	0	96468992	49	4712
2026-01-13 23:15:34.03	223.16	15.00	-39.1	-41.4	20.4	0.00e+00	0	57	0	98041856	49	4806
2026-01-13 23:15:35.04	222.94	15.12	-39.1	-41.4	20.4	0.00e+00	0	57	0	99090432	49	4803
2026-01-13 23:15:36.05	222.71	15.24	-39.1	-41.5	20.4	0.00e+00	0	57	0	100139008	49	4829
2026-01-13 23:15:37.06	222.48	15.36	-38.9	-41.2	20.6	0.00e+00	0	57	0	101187584	49	4705
2026-01-13 23:15:38.07	222.24	15.48	-38.8	-41.1	20.8	0.00e+00	0	57	0	102236160	49	4631
2026-01-13 23:15:39.08	222.01	15.60	-38.8	-41.0	20.9	0.00e+00	0	57	0	103284736	49	4593
2026-01-13 23:15:40.09	221.77	15.72	-38.7	-41.0	20.9	0.00e+00	0	57	0	104333312	49	4560
2026-01-13 23:15:41.10	221.53	15.84	-38.6	-40.7	21.1	0.00e+00	0	57	0	105906176	49	4436
2026-01-13 23:15:42.11	221.28	15.96	-38.6	-40.8	21.1	0.00e+00	0	57	0	106954752	49	4484
2026-01-13 23:15:43.12	221.04	16.08	-38.5	-40.6	21.3	0.00e+00	0	57	0	108003328	49	4380
2026-01-13 23:15:44.13	220.79	16.20	-38.7	-40.9	21.0	0.00e+00	0	57	0	109051904	49	4507
2026-01-13 23:15:45.14	220.54	16.32	-38.6	-40.9	21.1	0.00e+00	0	57	0	110100480	49	4502
2026-01-13 23:15:46.15	220.28	16.45	-38.7	-40.9	21.0	0.00e+00	0	58	0	111149056	49	4544
2026-01-13 23:15:47.16	220.02	16.57	-38.7	-41.0	20.9	0.00e+00	0	57	0	112721920	49	4562
2026-01-13 23:15:48.17	219.77	16.69	-38.5	-40.7	21.3	0.00e+00	0	57	0	113770496	49	4402
2026-01-13 23:15:49.18	219.50	16.82	-38.5	-40.7	21.2	0.00e+00	0	57	0	114819072	49	4426
2026-01-13 23:15:50.19	219.24	16.94	-38.4	-40.5	21.4	0.00e+00	0	57	0	115867648	48	4587
2026-01-13 23:15:51.20	218.97	17.07	-38.1	-40.2	21.7	0.00e+00	0	57	0	116916224	48	4395
2026-01-13 23:15:52.21	218.70	17.19	-38.2	-40.3	21.6	0.00e+00	0	57	0	118489088	48	4478
2026-01-13 23:15:53.22	218.43	17.32	-38.2	-40.3	21.6	0.00e+00	0	57	0	119537664	48	4483
2026-01-13 23:15:54.23	218.15	17.44	-38.3	-40.4	21.6	0.00e+00	0	57	0	120586240	48	4507
2026-01-13 23:15:55.24	217.87	17.57	-38.0	-40.0	21.9	0.00e+00	0	58	0	121634816	48	4324
2026-01-13 23:15:56.25	217.59	17.70	-37.9	-39.9	22.0	0.00e+00	0	58	0	122683392	47	4529
2026-01-13 23:15:57.26	217.31	17.82	-38.1	-40.2	21.8	0.00e+00	0	57	0	123731968	47	4668
2026-01-13 23:15:58.27	217.02	17.95	-38.2	-40.3	21.7	0.00e+00	0	57	0	125304832	47	4727
2026-01-13 23:15:59.27	216.73	18.08	-38.4	-40.5	21.4	0.00e+00	0	57	0	126353408	47	4869
2026-01-13 23:16:00.28	216.44	18.20	-38.4	-40.6	21.3	0.00e+00	0	57	0	127401984	47	4884
2026-01-13 23:16:01.29	216.14	18.33	-38.5	-40.8	21.2	0.00e+00	0	57	0	128450560	47	4994
2026-01-13 23:16:02.30	215.84	18.46	-38.4	-40.6	21.3	0.00e+00	0	58	0	129499136	47	4908
2026-01-13 23:16:03.31	215.54	18.59	-38.4	-40.6	21.4	0.00e+00	0	58	0	130547712	47	4892
2026-01-13 23:16:04.32	215.23	18.72	-38.3	-40.4	21.6	0.00e+00	0	58	0	132120576	47	4784
2026-01-13 23:16:05.33	214.92	18.85	-38.1	-40.1	21.8	0.00e+00	0	58	0	133169152	47	4639
2026-01-13 23:16:06.34	214.61	18.97	-38.0	-40.0	21.9	0.00e+00	0	58	0	134217728	47	4595
2026-01-13 23:16:07.35	214.30	19.10	-37.8	-39.8	22.1	0.00e+00	0	58	0	135266304	47	4479
2026-01-13 23:16:08.36	213.98	19.23	-37.7	-39.7	22.3	0.00e+00	0	58	0	136314880	47	4407
2026-01-13 23:16:09.37	213.65	19.36	-37.8	-39.8	22.2	0.00e+00	0	58	0	137363456	47	4451
2026-01-13 23:16:10.38	213.33	19.49	-37.8	-39.8	22.2	0.00e+00	0	58	0	138936320	47	4450
2026-01-13 23:16:11.39	213.00	19.62	-37.9	-40.0	22.0	0.00e+00	0	58	0	139984896	47	4554
2026-01-13 23:16:12.40	212.67	19.75	-38.1	-40.2	21.7	0.00e+00	0	58	0	141033472	47	4685
2026-01-13 23:16:13.41	212.33	19.88	-38.2	-40.2	21.8	0.00e+00	0	58	0	142082048	47	4693
2026-01-13 23:16:14.42	211.99	20.01	-38.2	-40.2	21.7	0.00e+00	0	58	0	143130624	47	4694
2026-01-13 23:16:15.43	211.65	20.14	-37.9	-39.9	22.0	0.00e+00	0	58	0	144179200	47	4543
2026-01-13 23:16:16.44	211.30	20.27	-37.8	-39.8	22.2	0.00e+00	0	58	0	145227776	47	4452
2026-01-13 23:16:17.44	210.96	20.40	-37.6	-39.6	22.4	0.00e+00	0	58	0	146800640	47	4349
2026-01-13 23:16:18.45	210.60	20.53	-37.6	-39.6	22.4	0.00e+00	0	58	0	147849216	47	4348
2026-01-13 23:16:19.46	210.25	20.66	-37.3	-39.2	22.8	0.00e+00	0	58	0	148897792	46	4400
2026-01-13 23:16:20.47	209.89	20.79	-37.4	-39.4	22.6	0.00e+00	0	58	0	149946368	46	4498
2026-01-13 23:16:21.48	209.52	20.92	-37.3	-39.2	22.8	0.00e+00	0	58	0	150994944	46	4414
2026-01-13 23:16:22.49	209.15	21.05	-37.4	-39.3	22.7	0.00e+00	0	58	0	152043520	46	4463
2026-01-13 23:16:23.50	208.78	21.18	-37.8	-39.8	22.2	0.00e+00	0	58	0	153616384	46	4751
2026-01-13 23:16:24.52	208.40	21.31	-37.8	-39.9	22.1	0.00e+00	0	58	0	154664960	46	4760
2026-01-13 23:16:25.52	208.03	21.44	-37.7	-39.7	22.3	0.00e+00	0	58	0	155713536	46	4664
2026-01-13 23:16:26.53	207.64	21.57	-37.7	-39.7	22.3	0.00e+00	0	58	0	156762112	46	4658
2026-01-13 23:16:27.54	207.26	21.70	-37.7	-39.6	22.4	0.00e+00	0	58	0	157810688	46	4651
2026-01-13 23:16:28.55	206.87	21.82	-37.4	-39.2	22.8	0.00e+00	0	58	0	158859264	46	4429
2026-01-13 23:16:29.56	206.47	21.95	-37.3	-39.1	22.8	0.00e+00	0	58	0	160432128	46	4373
2026-01-13 23:16:30.57	206.07	22.08	-37.0	-38.8	23.2	0.00e+00	0	58	0	161480704	46	4232
2026-01-13 23:16:31.58	205.67	22.21	-37.1	-38.9	23.1	0.00e+00	0	58	0	162529280	46	4261
2026-01-13 23:16:32.59	205.26	22.33	-37.0	-38.8	23.1	0.00e+00	0	58	0	163577856	45	4481
2026-01-13 23:16:33.60	204.85	22.46	-37.2	-39.1	22.9	0.00e+00	0	58	0	164626432	45	4606
2026-01-13 23:16:34.61	204.44	22.58	-37.3	-39.1	22.9	0.00e+00	0	58	0	166199296	45	4631
2026-01-13 23:16:35.62	204.02	22.71	-37.3	-39.2	22.8	0.00e+00	0	58	0	167247872	45	4672
2026-01-13 23:16:36.63	203.60	22.83	-37.3	-39.2	22.8	0.00e+00	0	58	0	168296448	45	4671
2026-01-13 23:16:37.64	203.17	22.96	-37.4	-39.3	22.7	0.00e+00	0	58	0	169345024	45	4727
2026-01-13 23:16:38.65	202.74	23.08	-37.5	-39.4	22.6	0.00e+00	0	58	0	170393600	45	4783
2026-01-13 23:16:39.66	202.31	23.20	-37.6	-39.6	22.5	0.00e+00	0	58	0	171442176	45	4873
2026-01-13 23:16:40.67	201.87	23.32	-37.5	-39.4	22.7	0.00e+00	0	58	0	173015040	45	4770
2026-01-13 23:16:41.68	201.43	23.44	-37.2	-39.1	22.9	0.00e+00	0	58	0	174063616	45	4619
2026-01-13 23:16:42.69	200.98	23.56	-37.0	-38.9	23.1	0.00e+00	0	58	0	175112192	45	4496
2026-01-13 23:16:43.70	200.53	23.68	-37.0	-38.8	23.2	0.00e+00	0	58	0	176160768	45	4464
2026-01-13 23:16:44.71	200.08	23.80	-36.9	-38.6	23.3	0.00e+00	0	58	0	177209344	45	4388
2026-01-13 23:16:45.72	199.62	23.92	-36.9	-38.6	23.3	0.00e+00	0	58	0	178257920	45	4389
2026-01-13 23:16:46.73	199.16	24.03	-36.7	-38.5	23.5	0.00e+00	0	58	0	179830784	45	4311
2026-01-13 23:16:47.73	198.70	24.14	-36.8	-38.5	23.4	0.00e+00	0	58	0	180879360	45	4338
2026-01-13 23:16:48.74	198.23	24.26	-36.7	-38.4	23.5	0.00e+00	0	58	0	181927936	45	4266
2026-01-13 23:16:49.75	197.76	24.37	-36.7	-38.4	23.5	0.00e+00	0	58	0	182976512	45	4279
2026-01-13 23:16:50.76	197.28	24.48	-36.9	-38.7	23.3	0.00e+00	0	58	0	184025088	45	4436
2026-01-13 23:16:51.77	196.80	24.59	-36.7	-38.4	23.5	0.00e+00	0	58	0	185073664	45	4289
2026-01-13 23:16:52.78	196.31	24.70	-36.8	-38.5	23.4	0.00e+00	0	58	0	186122240	45	4334
2026-01-13 23:16:53.79	195.82	24.81	-36.8	-38.6	23.4	0.00e+00	0	58	0	187695104	45	4352
2026-01-13 23:16:54.80	195.33	24.91	-36.9	-38.6	23.4	0.00e+00	0	58	0	188743680	45	4387
2026-01-13 23:16:55.81	194.83	25.02	-36.7	-38.5	23.5	0.00e+00	0	58	0	189792256	45	4311
2026-01-13 23:16:56.82	194.33	25.12	-36.6	-38.4	23.6	0.00e+00	0	58	0	190840832	45	4255
2026-01-13 23:16:57.83	193.83	25.22	-36.7	-38.5	23.5	0.00e+00	0	58	0	191889408	45	4306
2026-01-13 23:16:58.84	193.32	25.32	-36.8	-38.6	23.4	0.00e+00	0	58	0	192937984	45	4360
2026-01-13 23:16:59.84	192.81	25.42	-36.8	-38.6	23.4	0.00e+00	0	58	0	194510848	45	4365
2026-01-13 23:17:00.85	192.30	25.51	-37.0	-38.8	23.2	0.00e+00	0	58	0	195559424	45	4459
2026-01-13 23:17:01.86	191.78	25.61	-37.0	-38.8	23.1	0.00e+00	0	58	0	196608000	45	4478
2026-01-13 23:17:02.87	191.25	25.70	-36.9	-38.7	23.2	0.00e+00	0	58	0	197656576	45	4410
2026-01-13 23:17:03.88	190.73	25.79	-36.9	-38.7	23.3	0.00e+00	0	58	0	198705152	45	4395
2026-01-13 23:17:04.89	190.20	25.88	-36.6	-38.3	23.6	0.00e+00	0	58	0	199753728	45	4216
2026-01-13 23:17:05.90	189.67	25.96	-36.7	-38.4	23.5	0.00e+00	0	58	0	201326592	45	4280
2026-01-13 23:17:06.91	189.13	26.05	-36.6	-38.4	23.5	0.00e+00	0	59	0	202375168	45	4244
2026-01-13 23:17:07.92	188.59	26.13	-36.8	-38.6	23.3	0.00e+00	0	58	0	203423744	45	4356
2026-01-13 23:17:08.93	188.05	26.21	-36.8	-38.5	23.4	0.00e+00	0	58	0	204472320	45	4322
2026-01-13 23:17:09.94	187.50	26.29	-36.6	-38.4	23.5	0.00e+00	0	58	0	205520896	45	4250
2026-01-13 23:17:10.95	186.96	26.36	-36.6	-38.3	23.6	0.00e+00	0	58	0	206569472	45	4225
2026-01-13 23:17:11.96	186.40	26.44	-36.4	-38.1	23.7	0.00e+00	0	58	0	208142336	44	4388
2026-01-13 23:17:12.97	185.85	26.51	-36.6	-38.3	23.5	0.00e+00	0	58	0	209190912	44	4482
2026-01-13 23:17:13.98	185.29	26.57	-36.7	-38.4	23.4	0.00e+00	0	58	0	210239488	44	4535
2026-01-13 23:17:14.99	184.73	26.64	-36.6	-38.3	23.6	0.00e+00	0	58	0	211288064	44	4490
2026-01-13 23:17:16.00	184.17	26.70	-36.5	-38.2	23.7	0.00e+00	0	58	0	212336640	44	4411
2026-01-13 23:17:17.01	183.61	26.77	-36.2	-37.9	23.9	0.00e+00	0	58	0	213909504	44	4281
2026-01-13 23:17:18.02	183.04	26.82	-36.2	-37.9	24.0	0.00e+00	0	58	0	214958080	44	4246
2026-01-13 23:17:19.02	182.48	26.88	-36.3	-38.0	23.8	0.00e+00	0	59	0	216006656	44	4325
2026-01-13 23:17:20.03	181.90	26.93	-36.3	-38.0	23.8	0.00e+00	0	59	0	217055232	44	4328
2026-01-13 23:17:21.04	181.33	26.98	-36.5	-38.2	23.8	0.00e+00	0	58	0	218103808	44	4432
2026-01-13 23:17:22.05	180.75	27.03	-36.3	-38.0	23.9	0.00e+00	0	59	0	219152384	44	4319
2026-01-13 23:17:23.06	180.18	27.08	-36.1	-37.8	24.1	0.00e+00	0	58	0	220725248	44	4215
2026-01-13 23:17:24.07	179.60	27.12	-36.1	-37.7	24.2	0.00e+00	0	59	0	221773824	44	4171
2026-01-13 23:17:25.08	179.02	27.16	-36.2	-37.8	24.1	0.00e+00	0	59	0	222822400	44	4231
2026-01-13 23:17:26.08	178.44	27.19	-36.3	-38.0	24.0	0.00e+00	0	59	0	223870976	44	4310
2026-01-13 23:17:27.09	177.85	27.23	-36.3	-38.0	23.9	0.00e+00	0	59	0	224919552	44	4312
2026-01-13 23:17:28.10	177.27	27.26	-36.4	-38.1	23.8	0.00e+00	0	59	0	225968128	44	4360
2026-01-13 23:17:29.11	176.68	27.29	-36.1	-37.8	24.1	0.00e+00	0	58	0	227016704	44	4215
2026-01-13 23:17:30.12	176.09	27.31	-36.0	-37.7	24.3	0.00e+00	0	59	0	228589568	44	4148
2026-01-13 23:17:31.13	175.50	27.33	-36.4	-38.1	24.0	0.00e+00	0	59	0	229638144	44	4382
2026-01-13 23:17:32.14	174.92	27.35	-36.4	-38.1	23.8	0.00e+00	0	59	0	230686720	44	4386
2026-01-13 23:17:33.15	174.32	27.37	-36.4	-38.1	23.8	0.00e+00	0	58	0	231735296	44	4391
2026-01-13 23:17:34.16	173.73	27.38	-36.4	-38.1	23.9	0.00e+00	0	59	0	232783872	44	4371
2026-01-13 23:17:35.17	173.14	27.39	-36.4	-38.1	23.9	0.00e+00	0	59	0	233832448	44	4372
2026-01-13 23:17:36.18	172.55	27.40	-36.5	-38.2	23.8	0.00e+00	0	59	0	235405312	44	4404
2026-01-13 23:17:37.19	171.96	27.40	-36.6	-38.3	23.7	0.00e+00	0	59	0	236453888	44	4475
2026-01-13 23:17:38.20	171.37	27.41	-36.6	-38.3	23.7	0.00e+00	0	59	0	237502464	44	4458
2026-01-13 23:17:39.21	170.77	27.40	-36.6	-38.3	23.7	0.00e+00	0	59	0	238551040	44	4461
2026-01-13 23:17:40.22	170.18	27.40	-36.6	-38.3	23.7	0.00e+00	0	59	0	239599616	44	4458
2026-01-13 23:17:41.23	169.59	27.39	-36.4	-38.1	23.9	0.00e+00	0	59	0	240648192	44	4355
2026-01-13 23:17:42.24	169.00	27.38	-36.5	-38.2	23.8	0.00e+00	0	59	0	242221056	44	4404
2026-01-13 23:17:43.25	168.41	27.37	-36.4	-38.1	23.9	0.00e+00	0	59	0	243269632	44	4390
2026-01-13 23:17:44.26	167.82	27.35	-36.4	-38.1	24.0	0.00e+00	0	59	0	244318208	44	4343
2026-01-13 23:17:45.26	167.23	27.33	-36.3	-38.0	24.1	0.00e+00	0	59	0	245366784	44	4315
2026-01-13 23:17:46.27	166.64	27.31	-36.2	-37.9	24.2	0.00e+00	0	59	0	246415360	44	4252
2026-01-13 23:17:47.28	166.06	27.28	-36.2	-37.9	24.2	0.00e+00	0	59	0	247463936	44	4245
2026-01-13 23:17:48.29	165.47	27.25	-36.1	-37.7	24.3	0.00e+00	0	59	0	249036800	44	4188
2026-01-13 23:17:49.30	164.89	27.22	-36.2	-37.9	24.0	0.00e+00	0	59	0	250085376	43	4524
2026-01-13 23:17:50.31	164.30	27.19	-36.5	-38.3	23.6	0.00e+00	0	59	0	251133952	43	4724
2026-01-13 23:17:51.32	163.72	27.15	-36.5	-38.2	23.7	0.00e+00	0	59	0	252182528	43	4676
2026-01-13 23:17:52.33	163.14	27.11	-36.4	-38.1	23.7	0.00e+00	0	59	0	253231104	43	4646
2026-01-13 23:17:53.34	162.56	27.07	-35.9	-37.5	24.3	0.00e+00	0	59	0	254279680	43	4312
2026-01-13 23:17:54.35	161.98	27.02	-35.4	-37.0	24.8	0.00e+00	0	59	0	255852544	42	4321
2026-01-13 23:17:55.36	161.41	26.97	-35.7	-37.3	24.6	0.00e+00	0	59	0	256901120	42	4468
2026-01-13 23:17:56.37	160.84	26.92	-36.0	-37.7	24.2	0.00e+00	0	59	0	257949696	42	4673
2026-01-13 23:17:57.38	160.26	26.87	-36.4	-38.2	23.7	0.00e+00	0	59	0	258998272	43	4658
2026-01-13 23:17:58.39	159.70	26.81	-36.3	-38.1	23.9	0.00e+00	0	59	0	260046848	43	4599
2026-01-13 23:17:59.40	159.13	26.75	-36.2	-37.9	24.0	0.00e+00	0	59	0	261095424	43	4530
2026-01-13 23:18:00.41	158.57	26.69	-36.0	-37.7	24.2	0.00e+00	0	59	0	262668288	43	4413
2026-01-13 23:18:01.41	158.01	26.63	-35.7	-37.3	24.6	0.00e+00	0	59	0	263716864	43	4215
2026-01-13 23:18:02.42	157.45	26.56	-35.8	-37.4	24.5	0.00e+00	0	59	0	264765440	43	4264
2026-01-13 23:18:03.43	156.90	26.49	-35.9	-37.5	24.4	0.00e+00	0	59	0	265814016	43	4318
2026-01-13 23:18:04.44	156.34	26.42	-36.1	-37.8	24.1	0.00e+00	0	59	0	266862592	43	4447
2026-01-13 23:18:05.45	155.79	26.35	-36.3	-38.0	23.9	0.00e+00	0	59	0	267911168	43	4590
2026-01-13 23:18:06.46	155.24	26.27	-36.4	-38.1	23.8	0.00e+00	0	59	0	269484032	43	4633
2026-01-13 23:18:07.47	154.70	26.20	-36.4	-38.1	23.8	0.00e+00	0	59	0	270532608	43	4634
2026-01-13 23:18:08.48	154.16	26.12	-36.6	-38.4	23.6	0.00e+00	0	59	0	271581184	43	4764
2026-01-13 23:18:09.49	153.62	26.03	-36.9	-38.7	23.4	0.00e+00	0	59	0	272629760	44	4686
2026-01-13 23:18:10.50	153.09	25.95	-37.0	-38.9	23.3	0.00e+00	0	59	0	273678336	44	4767
2026-01-13 23:18:11.51	152.56	25.86	-37.0	-38.8	23.3	0.00e+00	0	59	0	274726912	44	4736
2026-01-13 23:18:12.52	152.03	25.77	-37.0	-38.8	23.3	0.00e+00	0	59	0	276299776	44	4759
2026-01-13 23:18:13.53	151.50	25.68	-36.8	-38.5	23.6	0.00e+00	0	59	0	277348352	44	4583
2026-01-13 23:18:14.54	150.98	25.59	-36.6	-38.3	23.8	0.00e+00	0	59	0	278396928	44	4488
2026-01-13 23:18:15.55	150.46	25.50	-36.5	-38.3	23.8	0.00e+00	0	59	0	279445504	44	4447
2026-01-13 23:18:16.56	149.95	25.40	-36.4	-38.1	24.0	0.00e+00	0	59	0	280494080	44	4384
2026-01-13 23:18:17.57	149.44	25.30	-36.6	-38.4	23.7	0.00e+00	0	59	0	281542656	44	4525
2026-01-13 23:18:18.58	148.93	25.20	-36.9	-38.7	23.5	0.00e+00	0	59	0	283115520	44	4705
2026-01-13 23:18:19.59	148.43	25.10	-37.1	-39.0	23.2	0.00e+00	0	59	0	284164096	44	4825
2026-01-13 23:18:20.60	147.93	25.00	-37.2	-39.0	23.1	0.00e+00	0	59	0	285212672	44	4868
2026-01-13 23:18:21.61	147.44	24.90	-37.2	-39.1	23.0	0.00e+00	0	59	0	286261248	45	4614
2026-01-13 23:18:22.62	146.94	24.79	-37.0	-38.9	23.3	0.00e+00	0	59	0	287309824	45	4500
2026-01-13 23:18:23.63	146.46	24.68	-37.1	-38.9	23.2	0.00e+00	0	59	0	288358400	45	4523
2026-01-13 23:18:24.64	145.97	24.57	-37.0	-38.8	23.2	0.00e+00	0	59	0	289931264	45	4492
2026-01-13 23:18:25.65	145.49	24.47	-37.3	-39.2	22.9	0.00e+00	0	59	0	290979840	45	4686
2026-01-13 23:18:26.66	145.02	24.35	-37.2	-39.0	23.1	0.00e+00	0	59	0	292028416	45	4595
2026-01-13 23:18:27.67	144.55	24.24	-37.3	-39.2	22.9	0.00e+00	0	59	0	293076992	45	4656
2026-01-13 23:18:28.68	144.08	24.13	-37.0	-38.8	23.2	0.00e+00	0	59	0	294125568	45	4476
2026-01-13 23:18:29.69	143.61	24.01	-36.8	-38.5	23.5	0.00e+00	0	59	0	295174144	45	4335
2026-01-13 23:18:30.70	143.15	23.90	-36.6	-38.3	23.7	0.00e+00	0	59	0	296747008	45	4234
2026-01-13 23:18:31.71	142.70	23.78	-36.5	-38.3	23.8	0.00e+00	0	59	0	297795584	45	4209
2026-01-13 23:18:32.72	142.24	23.66	-36.6	-38.3	23.7	0.00e+00	0	59	0	298844160	45	4227
2026-01-13 23:18:33.73	141.80	23.55	-36.9	-38.7	23.4	0.00e+00	0	59	0	299892736	45	4403
2026-01-13 23:18:34.74	141.35	23.43	-37.1	-38.9	23.1	0.00e+00	0	59	0	300941312	45	4521
2026-01-13 23:18:35.75	140.91	23.31	-37.2	-39.0	22.9	0.00e+00	0	59	0	301989888	45	4595
2026-01-13 23:18:36.75	140.48	23.19	-37.2	-39.0	23.0	0.00e+00	0	59	0	303562752	45	4583
2026-01-13 23:18:37.76	140.05	23.06	-37.0	-38.8	23.2	0.00e+00	0	59	0	304611328	45	4477
2026-01-13 23:18:38.77	139.62	22.94	-37.0	-38.8	23.2	0.00e+00	0	59	0	305659904	45	4473
2026-01-13 23:18:39.79	139.19	22.82	-37.0	-38.9	23.1	0.00e+00	0	59	0	306708480	45	4494
2026-01-13 23:18:40.79	138.77	22.69	-36.8	-38.7	23.3	0.00e+00	0	59	0	307757056	45	4393
2026-01-13 23:18:41.80	138.36	22.57	-36.6	-38.4	23.5	0.00e+00	0	59	0	308805632	45	4265
2026-01-13 23:18:42.81	137.94	22.44	-36.6	-38.4	23.6	0.00e+00	0	59	0	310378496	45	4258
2026-01-13 23:18:43.82	137.54	22.32	-36.8	-38.6	23.3	0.00e+00	0	59	0	311427072	45	4360
2026-01-13 23:18:44.83	137.13	22.19	-37.1	-38.9	23.0	0.00e+00	0	59	0	312475648	45	4531
2026-01-13 23:18:45.84	136.73	22.07	-37.2	-39.1	22.8	0.00e+00	0	59	0	313524224	45	4640
2026-01-13 23:18:46.85	136.33	21.94	-37.3	-39.2	22.7	0.00e+00	0	59	0	314572800	45	4699
2026-01-13 23:18:47.86	135.94	21.81	-37.4	-39.3	22.6	0.00e+00	0	59	0	315621376	45	4745
2026-01-13 23:18:48.87	135.55	21.68	-37.3	-39.2	22.8	0.00e+00	0	59	0	317194240	45	4653
2026-01-13 23:18:49.88	135.17	21.55	-37.1	-38.9	22.9	0.00e+00	0	59	0	318242816	45	4536
2026-01-13 23:18:50.89	134.78	21.43	-37.2	-39.1	22.8	0.00e+00	0	59	0	319291392	45	4625
2026-01-13 23:18:51.90	134.41	21.30	-37.3	-39.2	22.7	0.00e+00	0	59	0	320339968	45	4654
2026-01-13 23:18:52.91	134.03	21.17	-37.4	-39.4	22.4	0.00e+00	0	59	0	321388544	45	4771
2026-01-13 23:18:53.92	133.66	21.04	-37.5	-39.4	22.5	0.00e+00	0	59	0	322437120	45	4798
2026-01-13 23:18:54.93	133.30	20.91	-37.5	-39.5	22.4	0.00e+00	0	59	0	324009984	45	4823
2026-01-13 23:18:55.94	132.93	20.78	-37.4	-39.3	22.6	0.00e+00	0	59	0	325058560	45	4736
2026-01-13 23:18:56.95	132.57	20.65	-37.4	-39.4	22.5	0.00e+00	0	59	0	326107136	45	4779
2026-01-13 23:18:57.96	132.22	20.52	-37.7	-39.7	22.2	0.00e+00	0	59	0	327155712	45	4937
2026-01-13 23:18:58.97	131.87	20.39	-37.8	-39.8	22.1	0.00e+00	0	59	0	328204288	46	4720
2026-01-13 23:18:59.98	131.52	20.26	-37.7	-39.7	22.2	0.00e+00	0	59	0	329252864	46	4673
2026-01-13 23:19:00.99	131.17	20.13	-37.7	-39.7	22.2	0.00e+00	0	59	0	330825728	46	4661
2026-01-13 23:19:02.00	130.83	20.00	-37.6	-39.5	22.3	0.00e+00	0	59	0	331874304	46	4594
2026-01-13 23:19:03.01	130.49	19.87	-37.6	-39.6	22.3	0.00e+00	0	59	0	332922880	46	4614
2026-01-13 23:19:04.02	130.16	19.74	-37.4	-39.4	22.3	0.00e+00	0	59	0	333971456	45	4806
2026-01-13 23:19:05.02	129.83	19.62	-37.7	-39.9	22.0	0.00e+00	0	59	0	335020032	46	4783
2026-01-13 23:19:06.03	129.50	19.49	-38.0	-40.2	21.2	0.00e+00	0	59	0	336068608	46	4961
2026-01-13 23:19:07.04	129.18	19.36	-37.6	-40.1	21.7	0.00e+00	0	59	0	337641472	46	4914
2026-01-13 23:19:08.05	128.86	19.23	-37.0	-39.8	21.8	0.00e+00	0	59	0	338690048	45	5018
2026-01-13 23:19:09.06	128.54	19.10	-37.0	-39.6	22.1	0.00e+00	0	59	0	339738624	45	4908
2026-01-13 23:19:10.07	128.23	18.97	-37.2	-39.8	22.0	0.00e+00	0	59	0	340787200	46	4714
2026-01-13 23:19:11.08	127.92	18.84	-37.8	-39.8	21.9	0.00e+00	0	59	0	341835776	46	4749
2026-01-13 23:19:12.09	127.61	18.71	-37.9	-40.0	21.8	0.00e+00	0	59	0	342884352	46	4828
2026-01-13 23:19:13.10	127.30	18.58	-37.8	-39.9	21.9	0.00e+00	0	59	0	344457216	46	4779
2026-01-13 23:19:14.11	127.00	18.46	-37.8	-39.8	21.9	0.00e+00	0	59	0	345505792	46	4752
2026-01-13 23:19:15.12	126.70	18.33	-37.7	-39.7	22.0	0.00e+00	0	59	0	346554368	45	4969
2026-01-13 23:19:16.12	126.41	18.20	-37.0	-39.7	21.9	0.00e+00	0	59	0	347602944	45	4975
2026-01-13 23:19:17.13	126.12	18.07	-37.5	-39.9	21.8	0.00e+00	0	59	0	348651520	46	4789
2026-01-13 23:19:18.14	125.83	17.95	-37.7	-40.2	21.5	0.00e+00	0	59	0	349700096	46	4930
2026-01-13 23:19:19.15	125.54	17.82	-38.2	-40.3	21.3	0.00e+00	0	59	0	351272960	46	5031
2026-01-13 23:19:20.16	125.26	17.69	-33.1	-40.3	20.2	0.00e+00	0	59	0	352321536	37	8396
2026-01-13 23:19:21.17	124.98	17.57	-38.1	-40.2	21.2	3.40e-06	0	59	0	353370112	46	4977
2026-01-13 23:19:22.18	124.70	17.44	-38.1	-40.5	19.4	0.00e+00	0	59	0	354418688	46	5145
2026-01-13 23:19:23.19	124.43	17.32	-38.0	-40.1	21.5	0.00e+00	0	59	0	355467264	46	4906
2026-01-13 23:19:24.20	124.15	17.19	-38.0	-40.2	21.4	1.10e-06	0	59	0	356515840	46	4941
2026-01-13 23:19:25.21	123.89	17.07	-38.2	-40.4	21.3	0.00e+00	0	59	0	358088704	46	5043
2026-01-13 23:19:26.22	123.62	16.94	-38.2	-40.4	21.2	0.00e+00	0	60	0	359137280	46	5081
2026-01-13 23:19:27.23	123.36	16.82	-38.3	-40.6	21.0	0.00e+00	0	59	0	360185856	47	4893
2026-01-13 23:19:28.24	123.09	16.70	-38.3	-40.6	20.9	0.00e+00	0	59	0	361234432	47	4894
2026-01-13 23:19:29.25	122.84	16.57	-38.5	-40.8	20.8	5.70e-06	0	59	0	362283008	47	5021
2026-01-13 23:19:30.26	122.58	16.45	-38.6	-41.0	20.5	5.70e-06	0	59	0	363331584	47	5142
2026-01-13 23:19:31.27	122.33	16.33	-38.7	-41.1	20.4	0.00e+00	0	59	0	364904448	47	5170
2026-01-13 23:19:32.28	122.08	16.21	-31.8	-40.7	18.6	1.37e-05	0	59	0	365953024	35	9902
2026-01-13 23:19:33.29	121.83	16.08	-31.2	-40.4	18.9	1.37e-05	0	60	0	367001600	34	10092
2026-01-13 23:19:34.30	121.58	15.96	-38.6	-41.0	19.9	1.14e-05	0	60	0	368050176	47	5114
2026-01-13 23:19:35.31	121.34	15.84	-35.3	-40.8	18.9	4.34e-05	0	60	0	369098752	37	8900
2026-01-13 23:19:36.32	121.10	15.72	-38.2	-40.8	20.5	4.34e-05	0	59	0	370147328	47	5022
2026-01-13 23:19:37.32	120.87	15.60	-38.4	-40.8	20.6	3.40e-06	0	59	0	371720192	47	5019
2026-01-13 23:19:38.33	120.63	15.48	-38.4	-40.8	20.6	0.00e+00	0	59	0	372768768	47	5032
2026-01-13 23:19:39.34	120.40	15.37	-38.8	-41.4	20.1	0.00e+00	0	59	0	373817344	48	5069
2026-01-13 23:19:40.35	120.17	15.25	-38.9	-41.4	20.1	0.00e+00	0	59	0	374865920	48	5066
2026-01-13 23:19:41.36	119.94	15.13	-39.0	-41.5	19.9	1.10e-06	0	59	0	375914496	48	5109
2026-01-13 23:19:42.37	119.71	15.01	-39.0	-41.5	20.0	2.20e-06	0	60	0	376963072	48	5115
2026-01-13 23:19:43.38	119.49	14.89	-38.8	-41.4	19.9	2.20e-06	0	59	0	378535936	48	5076
2026-01-13 23:19:44.39	119.27	14.78	-38.9	-41.4	20.0	1.43e-04	0	59	0	379584512	48	5083
2026-01-13 23:19:45.40	119.05	14.66	-38.5	-41.3	20.1	1.10e-06	0	59	0	380633088	48	5037
2026-01-13 23:19:46.41	118.83	14.55	-38.7	-41.3	20.0	1.10e-06	0	59	0	381681664	48	5030
2026-01-13 23:19:47.42	118.62	14.43	-38.8	-41.5	19.9	0.00e+00	0	59	0	382730240	48	5137
2026-01-13 23:19:48.43	118.40	14.32	-38.7	-41.5	19.7	0.00e+00	0	59	0	383778816	48	5118
2026-01-13 23:19:49.44	118.19	14.20	-38.8	-41.7	19.6	0.00e+00	0	59	0	385351680	48	5250
2026-01-13 23:19:50.45	117.98	14.09	-39.0	-41.9	19.5	8.58e-05	0	59	0	386400256	49	5046
2026-01-13 23:19:51.46	117.78	13.97	-39.2	-41.8	19.6	2.20e-06	0	59	0	387448832	49	5018
2026-01-13 23:19:52.47	117.57	13.86	-39.4	-42.1	19.4	0.00e+00	0	59	0	388497408	49	5168
2026-01-13 23:19:53.48	117.37	13.75	-39.4	-42.2	19.2	0.00e+00	0	59	0	389545984	49	5224
2026-01-13 23:19:54.49	117.17	13.64	-39.2	-42.0	19.4	0.00e+00	0	59	0	390594560	49	5150
2026-01-13 23:19:55.50	116.97	13.53	-39.3	-41.9	19.5	2.20e-06	0	59	0	392167424	49	5090
2026-01-13 23:19:56.51	116.77	13.41	-39.1	-41.8	19.6	2.20e-06	0	59	0	393216000	49	5029
2026-01-13 23:19:57.52	116.58	13.30	-39.1	-41.8	19.6	0.00e+00	0	60	0	394264576	49	5002
2026-01-13 23:19:58.52	116.39	13.20	-39.2	-41.9	19.4	0.00e+00	0	60	0	395313152	49	5062
2026-01-13 23:19:59.53	116.20	13.09	-39.2	-42.0	19.4	0.00e+00	0	59	0	396361728	49	5103
2026-01-13 23:20:00.54	116.01	12.98	-39.3	-42.1	19.2	0.00e+00	0	60	0	397410304	49	5184
2026-01-13 23:20:01.55	115.82	12.87	-39.5	-42.3	19.0	0.00e+00	0	60	0	398458880	49	5311
2026-01-13 23:20:02.56	115.64	12.76	-39.5	-42.3	19.0	0.00e+00	0	59	0	400031744	49	5338
2026-01-13 23:20:03.57	115.45	12.65	-39.6	-42.5	18.8	0.00e+00	0	60	0	401080320	49	5457
2026-01-13 23:20:04.58	115.27	12.54	-39.6	-42.7	18.6	1.10e-06	0	59	0	402128896	50	5226
2026-01-13 23:20:05.59	115.09	12.44	-39.6	-42.5	18.8	0.00e+00	0	60	0	403177472	50	5128
2026-01-13 23:20:06.60	114.91	12.33	-39.4	-42.5	18.6	0.00e+00	0	59	0	404226048	50	5157
2026-01-13 23:20:07.61	114.74	12.23	-39.6	-42.6	18.7	0.00e+00	0	59	0	405798912	49	5493
2026-01-13 23:20:08.62	114.56	12.12	-39.3	-42.6	18.6	0.00e+00	0	59	0	406847488	49	5484
2026-01-13 23:20:09.63	114.39	12.02	-39.7	-42.8	18.4	0.00e+00	0	59	0	407896064	50	5293
2026-01-13 23:20:10.64	114.22	11.91	-39.7	-42.9	18.3	0.00e+00	0	59	0	408944640	50	5379
2026-01-13 23:20:11.65	114.04	11.81	-39.3	-43.1	18.0	1.10e-06	0	59	0	409993216	50	5504
2026-01-13 23:20:12.66	113.88	11.70	-39.7	-43.2	17.9	1.10e-06	0	60	0	411041792	50	5532
2026-01-13 23:20:13.67	113.71	11.60	-39.8	-43.4	17.8	0.00e+00	0	59	0	412614656	50	5694
2026-01-13 23:20:14.68	113.54	11.50	-39.3	-43.1	17.8	3.40e-06	0	59	0	413663232	50	5515
2026-01-13 23:20:15.69	113.38	11.40	-39.7	-43.1	17.7	3.40e-06	0	59	0	414711808	50	5479
2026-01-13 23:20:16.70	113.22	11.29	-39.8	-43.2	17.7	1.37e-05	0	60	0	415760384	50	5561
2026-01-13 23:20:17.71	113.06	11.19	-39.5	-43.1	17.8	2.05e-05	0	60	0	416808960	50	5507
2026-01-13 23:20:18.72	112.90	11.09	-39.6	-43.2	17.6	3.40e-06	0	60	0	417857536	50	5537
2026-01-13 23:20:19.72	112.74	10.99	-38.4	-43.3	16.4	3.40e-06	0	60	0	419430400	48	6329
2026-01-13 23:20:20.73	112.58	10.89	-38.8	-43.2	17.2	1.62e-04	0	60	0	420478976	49	5887
2026-01-13 23:20:21.75	112.43	10.79	-39.2	-43.2	17.2	6.17e-05	0	60	0	421527552	49	5889
2026-01-13 23:20:22.75	112.28	10.69	-39.1	-43.8	16.6	6.17e-05	0	60	0	422576128	50	5971
2026-01-13 23:20:23.76	112.12	10.60	-39.4	-43.3	16.9	8.23e-05	0	59	0	423624704	49	5941
2026-01-13 23:20:24.77	111.97	10.50	-39.4	-43.6	16.7	1.28e-04	0	60	0	424673280	50	5791
2026-01-13 23:20:25.78	111.82	10.40	-39.5	-43.7	16.3	1.28e-04	0	59	0	426246144	49	6212
2026-01-13 23:20:26.79	111.67	10.30	-39.5	-43.4	16.6	7.43e-05	0	60	0	427294720	49	6045
2026-01-13 23:20:27.80	111.53	10.21	-39.0	-43.4	17.1	3.54e-05	0	60	0	428343296	49	6051
2026-01-13 23:20:28.81	111.38	10.11	-39.5	-43.8	16.5	3.77e-05	0	60	0	429391872	50	5992
2026-01-13 23:20:29.82	111.24	10.01	-39.3	-43.9	16.5	3.77e-05	0	60	0	430440448	50	6017
2026-01-13 23:20:30.83	111.10	9.92	-39.5	-43.9	16.4	1.13e-04	0	59	0	431489024	50	6058
2026-01-13 23:20:31.84	110.95	9.82	-40.1	-44.1	16.5	2.63e-05	0	59	0	433061888	51	5829
2026-01-13 23:20:32.85	110.81	9.73	-40.4	-44.4	16.2	2.63e-05	0	60	0	434110464	51	6055
2026-01-13 23:20:33.86	110.67	9.63	-40.3	-44.2	16.5	6.80e-06	0	59	0	435159040	51	5881
2026-01-13 23:20:34.87	110.54	9.54	-40.1	-43.8	16.8	1.25e-05	0	60	0	436207616	51	5639
2026-01-13 23:20:35.88	110.40	9.45	-40.1	-43.9	16.8	1.25e-05	0	60	0	437256192	50	6029
2026-01-13 23:20:36.89	110.26	9.35	-40.1	-43.7	17.0	1.10e-06	0	60	0	438304768	51	5589
2026-01-13 23:20:37.90	110.13	9.26	-40.0	-43.7	17.0	2.20e-06	0	59	0	439353344	50	5873
2026-01-13 23:20:38.91	110.00	9.17	-39.5	-43.5	16.9	2.20e-06	0	60	0	440926208	50	5746
2026-01-13 23:20:39.92	109.86	9.08	-39.9	-43.8	16.9	1.10e-06	0	60	0	441974784	50	5936
2026-01-13 23:20:40.93	109.73	8.98	-39.9	-43.9	16.6	0.00e+00	0	60	0	443023360	50	6040
2026-01-13 23:20:41.94	109.60	8.89	-40.0	-43.8	16.7	0.00e+00	0	60	0	444071936	50	5981
2026-01-13 23:20:42.95	109.48	8.80	-39.8	-44.1	16.4	0.00e+00	0	60	0	445120512	50	6144
2026-01-13 23:20:43.96	109.35	8.71	-39.8	-44.1	16.3	1.10e-06	0	60	0	446693376	50	6180
2026-01-13 23:20:44.97	109.22	8.62	-40.1	-44.2	16.2	0.00e+00	0	59	0	447741952	50	6249
2026-01-13 23:20:45.98	109.10	8.53	-39.8	-44.3	16.0	0.00e+00	0	60	0	448790528	51	5977
2026-01-13 23:20:46.99	108.97	8.44	-40.4	-44.8	15.4	0.00e+00	0	59	0	449839104	51	6315
2026-01-13 23:20:48.00	108.85	8.35	-40.2	-44.9	15.2	1.10e-06	0	60	0	450887680	51	6408
2026-01-13 23:20:49.00	108.73	8.27	-40.3	-44.9	15.3	1.10e-06	0	60	0	451936256	51	6390
2026-01-13 23:20:50.01	108.61	8.18	-40.2	-44.8	15.3	1.10e-06	0	60	0	453509120	51	6324
2026-01-13 23:20:51.02	108.49	8.09	-39.7	-44.6	15.4	0.00e+00	0	60	0	454557696	51	6164
2026-01-13 23:20:52.03	108.37	8.00	-40.1	-44.5	15.5	0.00e+00	0	60	0	455606272	51	6089
2026-01-13 23:20:53.04	108.25	7.92	-42.9	-61.1	3.7	1.10e-06	0	60	104	456130560	58	27475
2026-01-13 23:20:54.05	108.13	7.83	-44.7	-62.6	3.8	5.32e-01	0	59	104	456130560	59	30916
2026-01-13 23:20:55.07	108.01	7.74	-44.9	-62.9	3.8	8.45e-01	0	60	104	456130560	60	30281
2026-01-13 23:20:56.08	107.90	7.66	-45.1	-63.1	3.8	8.45e-01	0	60	104	456130560	60	31083
2026-01-13 23:20:57.09	107.78	7.57	-45.3	-63.5	3.8	8.47e-01	0	60	104	456130560	61	30446
2026-01-13 23:20:58.09	107.67	7.49	-45.5	-63.6	3.8	8.45e-01	0	60	104	456130560	61	30928
2026-01-13 23:20:59.11	107.56	7.40	-45.6	-63.7	3.8	8.45e-01	0	60	104	456130560	61	31289
2026-01-13 23:21:00.12	107.45	7.32	-45.7	-63.8	3.8	8.45e-01	0	60	104	456130560	61	31628
2026-01-13 23:21:01.13	107.34	7.23	-45.8	-63.9	3.8	8.46e-01	0	60	104	456130560	62	30327
2026-01-13 23:21:02.14	107.23	7.15	-45.8	-64.0	3.8	8.46e-01	0	60	104	456130560	62	30430
2026-01-13 23:21:03.15	107.12	7.06	-45.7	-63.9	3.8	8.45e-01	0	60	104	456130560	62	30293
2026-01-13 23:21:04.16	107.01	6.98	-45.7	-63.9	3.8	8.45e-01	0	60	104	456130560	62	30212
2026-01-13 23:21:05.17	106.90	6.90	-45.6	-63.9	3.8	8.45e-01	0	60	104	456130560	62	30113
2026-01-13 23:21:06.18	106.80	6.82	-45.6	-63.8	3.8	8.46e-01	0	60	104	456130560	62	29992
2026-01-13 23:21:07.19	106.69	6.73	-45.5	-63.8	3.8	8.48e-01	0	60	104	456130560	62	29893
2026-01-13 23:21:08.20	106.59	6.65	-45.5	-63.8	3.8	8.46e-01	0	60	104	456130560	62	29949
2026-01-13 23:21:09.21	106.48	6.57	-45.4	-63.8	3.8	8.46e-01	0	60	104	456130560	62	29708
2026-01-13 23:21:10.23	106.38	6.49	-45.4	-63.7	3.8	8.46e-01	0	60	104	456130560	62	29560
2026-01-13 23:21:11.24	106.28	6.41	-45.4	-63.7	3.8	8.46e-01	0	60	104	456130560	62	29605
2026-01-13 23:21:12.25	106.18	6.33	-45.4	-63.7	3.8	8.46e-01	0	60	104	456130560	62	29606
2026-01-13 23:21:13.26	106.08	6.25	-45.4	-63.7	3.8	8.47e-01	0	60	104	456130560	62	29470
2026-01-13 23:21:14.27	105.98	6.17	-45.4	-63.7	3.8	8.46e-01	0	60	104	456130560	62	29575
2026-01-13 23:21:15.28	105.88	6.09	-45.4	-63.7	3.8	8.46e-01	0	60	104	456130560	62	29545
2026-01-13 23:21:16.29	105.78	6.01	-45.4	-63.7	3.8	8.47e-01	0	60	104	456130560	62	29564
2026-01-13 23:21:17.30	105.68	5.93	-45.4	-63.7	3.8	8.45e-01	0	60	104	456130560	62	29503
2026-01-13 23:21:18.31	105.59	5.85	-45.4	-63.7	3.8	8.45e-01	0	60	104	456130560	62	29584
2026-01-13 23:21:19.33	105.49	5.77	-45.4	-63.7	3.8	8.45e-01	0	60	104	456130560	62	29528
2026-01-13 23:21:20.34	105.39	5.69	-45.4	-63.7	3.8	8.47e-01	0	60	104	456130560	62	29527
2026-01-13 23:21:21.35	105.30	5.62	-45.4	-63.7	3.8	8.47e-01	0	60	104	456130560	62	29469
2026-01-13 23:21:22.36	105.21	5.54	-45.4	-63.7	3.8	8.47e-01	0	60	104	456130560	62	29482
2026-01-13 23:21:23.37	105.11	5.46	-45.4	-63.7	3.8	8.46e-01	0	60	104	456130560	62	29453
2026-01-13 23:21:24.38	105.02	5.38	-45.4	-63.7	3.8	8.47e-01	0	60	104	456130560	62	29433
2026-01-13 23:21:25.39	104.93	5.31	-45.4	-63.7	3.8	8.47e-01	0	60	104	456130560	62	29454
2026-01-13 23:21:26.40	104.84	5.23	-45.4	-63.7	3.8	8.47e-01	0	60	104	456130560	62	29438
2026-01-13 23:21:27.41	104.75	5.15	-45.4	-63.7	3.8	8.47e-01	0	60	104	456130560	62	29417
2026-01-13 23:21:28.42	104.66	5.08	-45.4	-63.7	3.8	8.47e-01	0	60	104	456130560	62	29461
2026-01-13 23:21:29.44	104.57	5.00	-45.4	-63.7	3.8	8.47e-01	0	60	104	456130560	62	29402
2026-01-13 23:21:30.45	104.48	4.93	-45.4	-63.7	3.8	8.46e-01	0	60	104	456130560	62	29417
2026-01-13 23:21:31.46	104.39	4.85	-45.4	-63.7	3.8	8.46e-01	0	60	104	456130560	62	29362
2026-01-13 23:21:32.47	104.31	4.78	-45.4	-63.7	3.8	8.46e-01	0	60	104	456130560	62	29363
2026-01-13 23:21:33.48	104.22	4.70	-45.4	-63.7	3.8	8.46e-01	0	60	104	456130560	62	29361
2026-01-13 23:21:34.49	104.14	4.63	-45.4	-63.7	3.8	8.45e-01	0	60	104	456130560	62	29468
2026-01-13 23:21:35.50	104.05	4.56	-45.4	-63.7	3.8	8.45e-01	0	60	104	456130560	62	29434
2026-01-13 23:21:36.51	103.97	4.48	-45.4	-63.7	3.8	8.47e-01	0	60	104	456130560	62	29449
2026-01-13 23:21:37.52	103.88	4.41	-45.4	-63.7	3.8	8.45e-01	0	60	104	456130560	62	29356
2026-01-13 23:21:38.53	103.80	4.34	-45.4	-63.7	3.8	8.45e-01	0	60	104	456130560	62	29449
2026-01-13 23:21:39.55	103.72	4.26	-45.4	-63.7	3.8	8.46e-01	0	60	104	456130560	62	29425
2026-01-13 23:21:40.56	103.63	4.19	-45.4	-63.7	3.8	8.46e-01	0	60	104	456130560	62	29430
2026-01-13 23:21:41.57	103.55	4.12	-45.4	-63.7	3.8	8.46e-01	0	60	104	456130560	62	29459
2026-01-13 23:21:42.58	103.47	4.04	-45.4	-63.7	3.8	8.47e-01	0	60	104	456130560	62	29411
2026-01-13 23:21:43.59	103.39	3.97	-45.4	-63.7	3.8	8.46e-01	0	60	104	456130560	62	29408
2026-01-13 23:21:44.60	103.31	3.90	-45.4	-63.7	3.8	8.46e-01	0	60	104	456130560	62	29357
2026-01-13 23:21:45.61	103.23	3.83	-45.4	-63.7	3.8	8.46e-01	0	60	104	456130560	62	29365
2026-01-13 23:21:46.62	103.16	3.76	-45.4	-63.6	3.8	8.46e-01	0	60	104	456130560	62	29339
2026-01-13 23:21:47.63	103.08	3.69	-45.4	-63.7	3.8	8.46e-01	0	60	104	456130560	62	29400
2026-01-13 23:21:48.65	103.00	3.62	-45.4	-63.7	3.8	8.46e-01	0	60	104	456130560	62	29372
2026-01-13 23:21:49.66	102.92	3.55	-45.3	-63.7	3.8	8.46e-01	0	60	104	456130560	62	29384
2026-01-13 23:21:50.67	102.85	3.48	-45.4	-63.6	3.8	8.47e-01	0	60	104	456130560	62	29325
2026-01-13 23:21:51.68	102.77	3.41	-45.4	-63.7	3.8	8.47e-01	0	60	104	456130560	62	29388
2026-01-13 23:21:52.69	102.70	3.34	-45.3	-63.7	3.8	8.46e-01	0	60	104	456130560	62	29358
2026-01-13 23:21:53.70	102.62	3.27	-45.4	-63.7	3.8	8.46e-01	0	60	104	456130560	62	29381
2026-01-13 23:21:54.71	102.55	3.20	-45.3	-63.7	3.8	8.46e-01	0	60	104	456130560	62	29354
2026-01-13 23:21:55.72	102.47	3.13	-45.3	-63.7	3.8	8.45e-01	0	60	104	456130560	62	29371
2026-01-13 23:21:56.73	102.40	3.06	-45.4	-63.7	3.8	8.46e-01	0	60	104	456130560	62	29361
2026-01-13 23:21:57.74	102.33	2.99	-45.3	-63.7	3.8	8.47e-01	0	60	104	456130560	62	29386
2026-01-13 23:21:58.75	102.26	2.92	-45.3	-63.7	3.8	8.47e-01	0	60	104	456130560	62	29381
2026-01-13 23:21:59.76	102.18	2.85	-45.4	-63.6	3.8	8.47e-01	0	60	104	456130560	62	29342
2026-01-13 23:22:00.77	102.11	2.79	-45.3	-63.6	3.8	8.45e-01	0	60	104	456130560	62	29262
2026-01-13 23:22:01.78	102.04	2.72	-45.3	-63.6	3.8	8.45e-01	0	60	104	456130560	62	29329
2026-01-13 23:22:02.79	101.97	2.65	-45.3	-63.6	3.8	8.47e-01	0	60	104	456130560	62	29345
2026-01-13 23:22:03.81	101.90	2.58	-45.3	-63.7	3.8	8.47e-01	0	60	104	456130560	62	29443
2026-01-13 23:22:04.82	101.83	2.52	-45.3	-63.7	3.8	8.47e-01	0	60	104	456130560	62	29369
2026-01-13 23:22:05.83	101.76	2.45	-45.3	-63.6	3.8	8.46e-01	0	60	104	456130560	62	29319
2026-01-13 23:22:06.84	101.70	2.38	-45.3	-63.6	3.8	8.46e-01	0	60	104	456130560	62	29324
2026-01-13 23:22:07.85	101.63	2.32	-45.3	-63.6	3.8	8.46e-01	0	60	104	456130560	62	29314
2026-01-13 23:22:08.86	101.56	2.25	-45.3	-63.7	3.8	8.46e-01	0	60	104	456130560	62	29352
2026-01-13 23:22:09.87	101.49	2.18	-45.3	-63.6	3.8	8.46e-01	0	60	104	456130560	62	29340
2026-01-13 23:22:10.88	101.43	2.12	-45.3	-63.7	3.8	8.46e-01	0	60	104	456130560	62	29367
2026-01-13 23:22:11.89	101.36	2.05	-45.3	-63.6	3.8	8.46e-01	0	60	104	456130560	62	29298
2026-01-13 23:22:12.91	101.30	1.99	-45.3	-63.6	3.8	8.46e-01	0	60	104	456130560	62	29308
2026-01-13 23:22:13.92	101.23	1.92	-45.3	-63.6	3.8	8.47e-01	0	60	104	456130560	62	29282
2026-01-13 23:22:14.93	101.17	1.86	-45.3	-63.6	3.8	8.47e-01	0	60	104	456130560	62	29313

#Closed at: 2026-01-13 23:22:15
#Recorded file [456 MB]: D:/lorett/data/31039_260114_021304.dat