passes_logs/2026/01/13/R2.0S_Moscow/R2.0S_Moscow__20260113_043657_FENGYUN_3E_rec.log

#Pass ID: 20260113_043657_FENGYUN 3E
#Satellite: FENGYUN 3E
#Configuration: FENGYUN 3E
#almurnet v.1.7.20251203
#Start time: 2026-01-13 04:36:58

#Version: 2.2.20231116
#Station: R2.0S_Moscow
#Location: 37.707566 lon 55.798166 lat
#TLE: 1 49008U 21062A   26012.25745337  .00000274  00000+0  14981-3 0  9997
#TLE: 2 49008  98.7491  17.4183 0001913 142.8235 217.3074 14.19885845234459

#Time	Az	El	Level	Level2	SNR	BER	BlckErr	Temp	State	Recorded	gain1	gain2
2026-01-13 04:36:58.00	13.43	2.04	-41.4	-52.2	3.8	8.46e-01	0	50	0	0	53	12489
2026-01-13 04:36:59.00	13.41	2.10	-41.4	-52.2	3.8	8.45e-01	0	51	104	0	53	12499
2026-01-13 04:37:00.01	13.38	2.16	-41.4	-52.3	3.8	8.45e-01	0	51	104	0	53	12551
2026-01-13 04:37:01.02	13.36	2.23	-41.4	-52.2	3.8	8.46e-01	0	51	104	0	53	12482
2026-01-13 04:37:02.03	13.33	2.29	-41.4	-52.2	3.8	8.45e-01	0	51	104	0	53	12493
2026-01-13 04:37:03.04	13.30	2.35	-41.4	-52.2	3.8	8.47e-01	0	51	104	0	53	12465
2026-01-13 04:37:04.05	13.28	2.42	-41.4	-52.2	3.8	8.46e-01	0	51	104	0	53	12508
2026-01-13 04:37:05.06	13.25	2.48	-41.4	-52.2	3.8	8.46e-01	0	51	104	0	53	12504
2026-01-13 04:37:06.07	13.23	2.55	-41.4	-52.2	3.8	8.46e-01	0	52	104	0	53	12516
2026-01-13 04:37:07.08	13.20	2.61	-41.4	-52.2	3.8	8.47e-01	0	52	104	0	53	12486
2026-01-13 04:37:08.09	13.17	2.68	-41.4	-52.2	3.8	8.48e-01	0	52	104	0	53	12482
2026-01-13 04:37:09.10	13.15	2.74	-41.4	-52.2	3.8	8.46e-01	0	52	104	0	53	12473
2026-01-13 04:37:10.11	13.12	2.81	-41.4	-52.2	3.8	8.46e-01	0	52	104	0	53	12476
2026-01-13 04:37:11.12	13.09	2.87	-41.4	-52.2	3.8	8.47e-01	0	52	104	0	53	12474
2026-01-13 04:37:12.13	13.07	2.94	-41.4	-52.2	3.8	8.46e-01	0	52	104	0	53	12492
2026-01-13 04:37:13.14	13.04	3.00	-41.4	-52.2	3.8	8.46e-01	0	52	104	0	53	12495
2026-01-13 04:37:14.16	13.01	3.07	-41.4	-52.2	3.8	8.45e-01	0	52	104	0	53	12500
2026-01-13 04:37:15.17	12.98	3.13	-41.4	-52.3	3.8	8.45e-01	0	52	104	0	53	12525
2026-01-13 04:37:16.18	12.96	3.20	-41.4	-52.2	3.8	8.46e-01	0	52	104	0	53	12501
2026-01-13 04:37:17.19	12.93	3.27	-41.4	-52.2	3.8	8.45e-01	0	52	104	0	53	12454
2026-01-13 04:37:18.20	12.90	3.33	-41.4	-52.2	3.8	8.46e-01	0	52	104	0	53	12438
2026-01-13 04:37:19.21	12.87	3.40	-41.4	-52.2	3.8	8.46e-01	0	52	104	0	53	12436
2026-01-13 04:37:20.22	12.85	3.47	-41.4	-52.2	3.8	8.47e-01	0	53	104	0	53	12440
2026-01-13 04:37:21.23	12.82	3.53	-41.4	-52.2	3.8	8.46e-01	0	52	104	0	53	12423
2026-01-13 04:37:22.24	12.79	3.60	-41.4	-52.2	3.8	8.46e-01	0	53	104	0	53	12378
2026-01-13 04:37:23.25	12.76	3.67	-41.3	-52.1	3.8	8.47e-01	0	53	104	0	53	12343
2026-01-13 04:37:24.26	12.73	3.73	-41.3	-52.1	3.8	8.46e-01	0	53	104	0	53	12305
2026-01-13 04:37:25.27	12.70	3.80	-41.3	-52.1	3.8	8.47e-01	0	53	104	0	53	12247
2026-01-13 04:37:26.28	12.67	3.87	-41.3	-52.1	3.8	8.47e-01	0	53	104	0	53	12287
2026-01-13 04:37:27.29	12.64	3.93	-41.3	-52.0	3.8	8.46e-01	0	53	104	0	53	12221
2026-01-13 04:37:28.30	12.62	4.00	-41.3	-52.0	3.8	8.47e-01	0	53	104	0	53	12230
2026-01-13 04:37:29.31	12.59	4.07	-41.3	-51.9	3.8	8.46e-01	0	53	104	0	53	12061
2026-01-13 04:37:30.32	12.56	4.14	-41.3	-52.0	3.8	8.46e-01	0	53	104	0	53	12120
2026-01-13 04:37:31.33	12.53	4.21	-41.3	-51.9	3.8	8.45e-01	0	53	104	0	53	11984
2026-01-13 04:37:32.34	12.50	4.28	-41.3	-52.0	3.8	8.46e-01	0	53	104	0	53	12138
2026-01-13 04:37:33.35	12.47	4.34	-41.3	-52.0	3.8	8.45e-01	0	53	104	0	53	12158
2026-01-13 04:37:34.36	12.44	4.41	-41.3	-52.0	3.8	8.46e-01	0	54	104	0	53	12232
2026-01-13 04:37:35.36	12.41	4.48	-41.3	-52.0	3.8	8.45e-01	0	54	104	0	53	12137
2026-01-13 04:37:36.38	12.38	4.55	-41.3	-52.0	3.8	8.46e-01	0	54	104	0	53	12226
2026-01-13 04:37:37.38	12.34	4.62	-41.3	-52.0	3.8	8.45e-01	0	53	104	0	53	12179
2026-01-13 04:37:38.39	12.31	4.69	-41.3	-52.0	3.8	8.47e-01	0	54	104	0	53	12199
2026-01-13 04:37:39.40	12.28	4.76	-41.3	-52.1	3.8	8.45e-01	0	54	104	0	53	12366
2026-01-13 04:37:40.42	12.25	4.83	-41.3	-52.1	3.8	8.46e-01	0	54	104	0	53	12346
2026-01-13 04:37:41.43	12.22	4.90	-41.3	-52.2	3.8	8.46e-01	0	54	104	0	53	12410
2026-01-13 04:37:42.44	12.19	4.97	-41.3	-52.2	3.8	8.46e-01	0	54	104	0	53	12433
2026-01-13 04:37:43.45	12.16	5.04	-41.3	-52.2	3.8	8.47e-01	0	54	104	0	53	12417
2026-01-13 04:37:44.46	12.12	5.11	-41.4	-52.2	3.8	8.46e-01	0	54	104	0	53	12383
2026-01-13 04:37:45.47	12.09	5.18	-41.3	-52.1	3.8	8.45e-01	0	54	104	0	53	12274
2026-01-13 04:37:46.48	12.06	5.25	-41.3	-51.9	3.8	8.45e-01	0	54	104	0	53	12025
2026-01-13 04:37:47.49	12.03	5.32	-41.3	-51.7	3.8	8.46e-01	0	54	104	0	53	11754
2026-01-13 04:37:48.50	11.99	5.39	-41.2	-51.4	3.8	8.46e-01	0	54	104	0	53	11395
2026-01-13 04:37:49.51	11.96	5.46	-41.2	-51.1	3.8	8.46e-01	0	54	104	0	53	10942
2026-01-13 04:37:50.52	11.93	5.54	-41.2	-50.8	3.8	8.45e-01	0	54	104	0	53	10640
2026-01-13 04:37:51.53	11.90	5.61	-41.1	-50.3	3.8	8.45e-01	0	55	104	0	53	10004
2026-01-13 04:37:52.54	11.86	5.68	-41.0	-50.0	3.8	8.44e-01	0	54	104	0	53	9647
2026-01-13 04:37:53.55	11.83	5.75	-41.0	-49.7	3.9	8.44e-01	0	54	104	0	53	9346
2026-01-13 04:37:54.56	11.80	5.82	-41.0	-49.6	4.0	8.44e-01	0	55	104	0	53	9179
2026-01-13 04:37:55.57	11.76	5.90	-40.9	-49.2	4.1	8.43e-01	0	55	104	0	52	9313
2026-01-13 04:37:56.58	11.73	5.97	-40.9	-49.0	4.1	8.38e-01	0	55	0	0	52	9101
2026-01-13 04:37:57.59	11.69	6.04	-40.9	-48.9	4.1	8.40e-01	0	55	0	0	52	9012
2026-01-13 04:37:58.61	11.66	6.11	-40.9	-49.1	4.1	8.41e-01	0	55	0	0	52	9242
2026-01-13 04:37:59.62	11.62	6.19	-40.9	-49.3	3.9	8.42e-01	0	55	104	0	52	9417
2026-01-13 04:38:00.63	11.59	6.26	-41.0	-49.4	4.0	8.42e-01	0	55	0	0	52	9508
2026-01-13 04:38:01.64	11.55	6.34	-41.0	-49.8	3.8	8.43e-01	0	55	104	0	52	9981
2026-01-13 04:38:02.65	11.52	6.41	-41.1	-50.2	3.8	8.46e-01	0	55	104	0	52	10417
2026-01-13 04:38:03.66	11.48	6.48	-41.1	-50.4	3.8	8.46e-01	0	55	104	0	52	10662
2026-01-13 04:38:04.67	11.45	6.56	-41.1	-50.5	3.8	8.46e-01	0	55	104	0	52	10884
2026-01-13 04:38:05.68	11.41	6.63	-41.2	-51.0	3.8	8.48e-01	0	55	104	0	52	11426
2026-01-13 04:38:06.69	11.37	6.71	-41.2	-51.0	3.8	8.47e-01	0	55	104	0	52	11514
2026-01-13 04:38:07.70	11.34	6.78	-41.2	-50.8	3.8	8.48e-01	0	55	104	0	52	11237
2026-01-13 04:38:08.71	11.30	6.86	-41.1	-50.5	3.8	8.47e-01	0	55	104	0	52	10852
2026-01-13 04:38:09.71	11.27	6.93	-41.1	-50.5	3.8	8.45e-01	0	55	104	0	52	10798
2026-01-13 04:38:10.72	11.23	7.01	-41.1	-50.1	3.8	8.45e-01	0	56	104	0	52	10373
2026-01-13 04:38:11.73	11.19	7.08	-41.1	-49.9	4.0	8.44e-01	0	55	104	0	52	10171
2026-01-13 04:38:12.74	11.15	7.16	-41.0	-49.4	4.0	8.42e-01	0	56	0	0	52	9505
2026-01-13 04:38:13.75	11.12	7.23	-40.9	-49.2	3.9	8.39e-01	0	55	104	0	52	9313
2026-01-13 04:38:14.77	11.08	7.31	-40.9	-48.9	4.1	8.39e-01	0	55	0	0	52	9050
2026-01-13 04:38:15.78	11.04	7.39	-40.9	-49.1	4.1	8.41e-01	0	56	0	0	52	9203
2026-01-13 04:38:16.79	11.00	7.46	-40.8	-48.6	4.2	8.36e-01	0	56	0	0	52	8718
2026-01-13 04:38:17.80	10.96	7.54	-40.8	-48.4	4.2	8.37e-01	0	56	0	0	52	8554
2026-01-13 04:38:18.81	10.92	7.62	-40.8	-48.5	4.2	8.35e-01	0	56	0	0	52	8595
2026-01-13 04:38:19.82	10.89	7.70	-40.9	-48.8	4.1	8.39e-01	0	56	0	0	52	8941
2026-01-13 04:38:20.83	10.85	7.77	-40.9	-49.1	4.1	8.39e-01	0	56	0	0	52	9192
2026-01-13 04:38:21.84	10.81	7.85	-41.0	-49.5	4.0	8.44e-01	0	56	104	0	52	9665
2026-01-13 04:38:22.86	10.77	7.93	-41.0	-49.9	3.8	8.45e-01	0	56	104	0	52	10113
2026-01-13 04:38:23.87	10.73	8.01	-41.1	-49.9	3.9	8.45e-01	0	56	104	0	52	10063
2026-01-13 04:38:24.88	10.69	8.09	-41.0	-51.6	3.8	8.46e-01	0	56	104	0	52	12258
2026-01-13 04:38:25.88	10.65	8.16	-41.1	-51.8	3.8	8.46e-01	0	56	104	0	52	12570
2026-01-13 04:38:26.89	10.61	8.24	-41.6	-52.0	3.8	8.46e-01	0	56	104	0	52	12906
2026-01-13 04:38:27.90	10.57	8.32	-41.7	-50.5	3.8	8.45e-01	0	56	104	0	53	10217
2026-01-13 04:38:28.91	10.52	8.40	-40.9	-51.7	3.8	8.46e-01	0	56	104	0	52	12462
2026-01-13 04:38:29.92	10.48	8.48	-41.4	-50.5	3.8	8.45e-01	0	56	104	0	52	10880
2026-01-13 04:38:30.93	10.44	8.56	-41.4	-50.2	4.0	8.44e-01	0	56	104	0	52	10462
2026-01-13 04:38:31.94	10.40	8.64	-41.4	-50.1	3.9	8.44e-01	0	56	104	0	52	10410
2026-01-13 04:38:32.95	10.36	8.72	-41.3	-50.3	3.8	8.44e-01	0	56	104	0	52	10608
2026-01-13 04:38:33.97	10.31	8.80	-41.4	-50.6	3.9	8.45e-01	0	56	104	0	52	11010
2026-01-13 04:38:34.97	10.27	8.88	-41.4	-50.7	3.8	8.46e-01	0	56	104	0	52	11106
2026-01-13 04:38:35.98	10.23	8.97	-41.3	-50.8	3.8	8.46e-01	0	56	104	0	52	11173
2026-01-13 04:38:37.00	10.19	9.05	-41.3	-50.6	3.8	8.45e-01	0	56	104	0	52	10975
2026-01-13 04:38:38.01	10.14	9.13	-41.4	-50.9	3.8	8.46e-01	0	56	104	0	52	11367
2026-01-13 04:38:39.02	10.10	9.21	-41.4	-51.4	3.8	8.46e-01	0	57	104	0	52	11980
2026-01-13 04:38:40.03	10.06	9.29	-41.4	-51.7	3.8	8.46e-01	0	57	104	0	52	12443
2026-01-13 04:38:41.04	10.01	9.38	-41.5	-51.9	3.8	8.47e-01	0	57	104	0	52	12784
2026-01-13 04:38:42.05	9.97	9.46	-41.5	-52.2	3.8	8.46e-01	0	56	104	0	52	13155
2026-01-13 04:38:43.06	9.92	9.54	-41.7	-52.4	3.8	8.47e-01	0	57	104	0	52	13425
2026-01-13 04:38:44.07	9.88	9.62	-40.8	-51.7	3.8	8.46e-01	0	57	104	0	52	12427
2026-01-13 04:38:45.08	9.83	9.71	-41.0	-51.9	3.8	8.47e-01	0	57	104	0	52	12766
2026-01-13 04:38:46.09	9.79	9.79	-40.9	-51.8	3.8	8.46e-01	0	57	104	0	52	12571
2026-01-13 04:38:47.10	9.74	9.88	-40.9	-51.8	3.8	8.47e-01	0	57	104	0	52	12641
2026-01-13 04:38:48.11	9.69	9.96	-40.9	-51.8	3.8	8.46e-01	0	57	104	0	52	12567
2026-01-13 04:38:49.12	9.65	10.04	-40.8	-51.6	3.8	8.45e-01	0	57	104	0	52	12331
2026-01-13 04:38:50.13	9.60	10.13	-40.8	-51.3	3.8	8.46e-01	0	57	104	0	52	11932
2026-01-13 04:38:51.14	9.55	10.21	-41.1	-51.6	3.8	8.47e-01	0	57	104	0	52	12318
2026-01-13 04:38:52.15	9.51	10.30	-41.6	-51.3	3.8	8.46e-01	0	57	104	0	52	11904
2026-01-13 04:38:53.16	9.46	10.38	-42.1	-50.4	4.0	8.44e-01	0	57	104	0	53	10086
2026-01-13 04:38:54.17	9.41	10.47	-41.2	-51.8	3.8	8.47e-01	0	57	104	0	53	11914
2026-01-13 04:38:55.18	9.36	10.56	-41.9	-50.1	4.1	8.44e-01	0	57	104	0	53	9811
2026-01-13 04:38:56.19	9.31	10.64	-41.9	-50.1	4.1	8.43e-01	0	57	104	0	53	9809
2026-01-13 04:38:57.20	9.26	10.73	-42.0	-50.3	3.9	8.42e-01	0	57	104	0	53	10015
2026-01-13 04:38:58.20	9.22	10.82	-42.0	-50.3	4.1	8.45e-01	0	57	104	0	53	9997
2026-01-13 04:38:59.22	9.17	10.90	-42.1	-50.0	4.1	8.41e-01	0	57	0	0	53	9694
2026-01-13 04:39:00.22	9.12	10.99	-41.9	-49.3	4.3	8.33e-01	0	57	0	0	53	8929
2026-01-13 04:39:01.24	9.07	11.08	-41.6	-48.1	4.8	8.09e-01	0	57	0	0	53	7780
2026-01-13 04:39:02.25	9.02	11.17	-41.4	-47.2	5.4	7.42e-01	0	57	0	0	53	6988
2026-01-13 04:39:03.26	8.96	11.26	-41.2	-46.6	5.8	6.18e-01	0	57	0	1048576	53	6535
2026-01-13 04:39:04.27	8.91	11.35	-41.0	-46.0	6.2	3.04e-01	0	57	0	8388608	53	6110
2026-01-13 04:39:05.28	8.86	11.43	-40.8	-45.5	6.6	2.42e-01	0	58	0	15728640	52	6117
2026-01-13 04:39:06.29	8.81	11.52	-40.6	-44.9	7.2	1.48e-01	0	57	0	22020096	52	5684
2026-01-13 04:39:07.30	8.76	11.61	-40.3	-44.1	8.1	7.97e-02	0	57	0	30408704	51	5499
2026-01-13 04:39:08.31	8.71	11.70	-39.9	-43.5	8.8	3.83e-02	0	58	0	37748736	50	5404
2026-01-13 04:39:09.32	8.65	11.79	-39.7	-42.9	9.3	2.15e-02	0	58	0	44040192	50	5095
2026-01-13 04:39:10.33	8.60	11.88	-39.6	-42.8	9.5	1.87e-02	0	58	0	51380224	50	4988
2026-01-13 04:39:11.34	8.55	11.97	-39.3	-42.1	10.3	7.44e-03	0	58	0	58720256	49	4920
2026-01-13 04:39:12.35	8.49	12.07	-39.1	-41.7	10.8	3.49e-03	0	58	0	66060288	49	4692
2026-01-13 04:39:13.36	8.44	12.16	-39.0	-41.5	11.1	1.93e-03	0	58	0	73400320	48	4859
2026-01-13 04:39:14.37	8.38	12.25	-38.8	-41.3	11.4	1.21e-03	0	58	0	80740352	48	4729
2026-01-13 04:39:15.38	8.33	12.34	-38.9	-41.4	11.5	7.88e-04	0	58	0	88080384	48	4761
2026-01-13 04:39:16.39	8.27	12.43	-38.2	-40.5	12.2	2.84e-04	0	58	0	95420416	47	4575
2026-01-13 04:39:17.40	8.22	12.53	-38.3	-40.6	12.2	2.13e-04	0	58	0	102760448	47	4609
2026-01-13 04:39:18.41	8.16	12.62	-38.3	-40.5	12.3	2.37e-04	0	58	0	110100480	47	4580
2026-01-13 04:39:19.42	8.10	12.71	-38.3	-40.5	12.3	2.06e-04	0	58	0	117440512	47	4582
2026-01-13 04:39:20.43	8.05	12.81	-38.5	-40.8	12.1	3.62e-04	0	58	0	124780544	47	4706
2026-01-13 04:39:21.44	7.99	12.90	-38.5	-40.8	12.1	3.63e-04	0	58	0	132120576	47	4747
2026-01-13 04:39:22.45	7.93	13.00	-38.6	-40.9	12.0	4.23e-04	0	58	0	139460608	47	4812
2026-01-13 04:39:23.46	7.87	13.09	-38.5	-40.8	12.3	3.09e-04	0	58	0	146800640	47	4724
2026-01-13 04:39:24.47	7.82	13.19	-38.4	-40.5	12.7	7.55e-05	0	58	0	154140672	47	4575
2026-01-13 04:39:25.48	7.76	13.28	-38.1	-40.1	13.2	5.95e-05	0	58	0	161480704	47	4344
2026-01-13 04:39:26.49	7.70	13.38	-38.0	-40.0	13.3	1.83e-05	0	58	0	168820736	46	4567
2026-01-13 04:39:27.50	7.64	13.47	-38.1	-40.1	13.2	2.17e-05	0	58	0	176160768	46	4641
2026-01-13 04:39:28.51	7.58	13.57	-38.5	-40.6	12.8	4.92e-05	0	58	0	183500800	46	4913
2026-01-13 04:39:29.52	7.52	13.67	-38.6	-40.7	12.8	9.26e-05	0	58	0	190840832	46	4951
2026-01-13 04:39:30.53	7.46	13.76	-38.0	-39.9	13.6	2.05e-05	0	58	0	197132288	46	4537
2026-01-13 04:39:31.54	7.40	13.86	-37.9	-39.8	13.8	5.70e-06	0	58	0	205520896	46	4460
2026-01-13 04:39:32.56	7.33	13.96	-37.9	-39.8	13.8	2.20e-06	0	58	0	212860928	46	4471
2026-01-13 04:39:33.56	7.27	14.06	-38.3	-40.2	13.5	1.02e-05	0	58	0	219152384	46	4676
2026-01-13 04:39:34.58	7.21	14.16	-38.1	-40.1	13.6	1.37e-05	0	58	0	226492416	46	4601
2026-01-13 04:39:35.59	7.14	14.26	-37.9	-39.7	14.0	0.00e+00	0	58	0	233832448	46	4402
2026-01-13 04:39:36.60	7.08	14.36	-37.9	-39.7	14.1	4.50e-06	0	58	0	241172480	46	4398
2026-01-13 04:39:37.61	7.02	14.46	-38.0	-39.8	14.0	6.80e-06	0	58	0	248512512	46	4465
2026-01-13 04:39:38.62	6.95	14.56	-37.8	-39.6	14.2	1.10e-06	0	58	0	255852544	46	4373
2026-01-13 04:39:39.63	6.89	14.66	-37.8	-39.6	14.2	2.20e-06	0	58	0	263192576	46	4361
2026-01-13 04:39:40.64	6.82	14.76	-37.8	-39.5	14.3	0.00e+00	0	58	0	270532608	46	4337
2026-01-13 04:39:41.65	6.76	14.86	-37.7	-39.5	14.3	1.10e-06	0	58	0	277872640	46	4328
2026-01-13 04:39:42.66	6.69	14.96	-37.8	-39.6	14.2	0.00e+00	0	58	0	285212672	46	4373
2026-01-13 04:39:43.67	6.62	15.06	-37.7	-39.5	14.4	1.10e-06	0	59	0	292552704	46	4299
2026-01-13 04:39:44.68	6.56	15.16	-37.7	-39.5	14.4	0.00e+00	0	58	0	299892736	46	4296
2026-01-13 04:39:45.69	6.49	15.27	-37.6	-39.3	14.6	1.10e-06	0	58	0	307232768	46	4208
2026-01-13 04:39:46.70	6.42	15.37	-37.6	-39.3	14.6	0.00e+00	0	58	0	314572800	46	4223
2026-01-13 04:39:47.71	6.35	15.47	-37.8	-39.5	14.4	3.40e-06	0	58	0	321912832	46	4312
2026-01-13 04:39:48.72	6.28	15.58	-37.6	-39.3	14.7	0.00e+00	0	59	0	329252864	46	4208
2026-01-13 04:39:49.73	6.21	15.68	-37.8	-39.5	14.5	0.00e+00	0	58	0	336592896	46	4303
2026-01-13 04:39:50.74	6.14	15.79	-37.6	-39.3	14.7	0.00e+00	0	59	0	343932928	46	4195
2026-01-13 04:39:51.75	6.07	15.89	-37.7	-39.4	14.6	0.00e+00	0	59	0	351272960	45	4515
2026-01-13 04:39:52.76	6.00	16.00	-37.7	-39.4	14.6	1.10e-06	0	59	0	358612992	45	4524
2026-01-13 04:39:53.77	5.93	16.10	-37.7	-39.4	14.6	0.00e+00	0	59	0	364904448	45	4538
2026-01-13 04:39:54.78	5.85	16.21	-37.5	-39.2	14.9	0.00e+00	0	58	0	372244480	45	4408
2026-01-13 04:39:55.79	5.78	16.32	-37.6	-39.3	14.8	0.00e+00	0	58	0	379584512	45	4451
2026-01-13 04:39:56.80	5.71	16.43	-37.6	-39.2	14.9	0.00e+00	0	59	0	386924544	45	4421
2026-01-13 04:39:57.81	5.63	16.53	-37.6	-39.2	14.9	1.10e-06	0	59	0	394264576	45	4409
2026-01-13 04:39:58.82	5.56	16.64	-37.6	-39.2	14.9	1.10e-06	0	59	0	401604608	45	4440
2026-01-13 04:39:59.82	5.48	16.75	-37.6	-39.3	14.9	0.00e+00	0	59	0	408944640	45	4471
2026-01-13 04:40:00.83	5.41	16.86	-37.7	-39.4	14.8	0.00e+00	0	59	0	416284672	45	4504
2026-01-13 04:40:01.84	5.33	16.97	-37.7	-39.3	14.9	0.00e+00	0	59	0	423624704	45	4477
2026-01-13 04:40:02.85	5.25	17.08	-37.4	-39.0	15.2	0.00e+00	0	59	0	430964736	45	4314
2026-01-13 04:40:03.86	5.18	17.19	-37.5	-39.1	15.1	0.00e+00	0	59	0	438304768	45	4366
2026-01-13 04:40:04.87	5.10	17.30	-37.4	-39.0	15.2	0.00e+00	0	58	0	445644800	45	4311
2026-01-13 04:40:05.88	5.02	17.41	-37.3	-38.9	15.4	0.00e+00	0	59	0	452984832	45	4244
2026-01-13 04:40:06.89	4.94	17.52	-37.3	-38.9	15.4	0.00e+00	0	59	0	460324864	45	4247
2026-01-13 04:40:07.90	4.86	17.63	-37.2	-38.7	15.5	0.00e+00	0	59	0	467664896	45	4192
2026-01-13 04:40:08.91	4.78	17.75	-37.1	-38.6	15.6	0.00e+00	0	59	0	475004928	45	4133
2026-01-13 04:40:09.92	4.70	17.86	-37.2	-38.7	15.6	0.00e+00	0	59	0	482344960	45	4166
2026-01-13 04:40:10.93	4.62	17.97	-37.1	-38.6	15.7	0.00e+00	0	59	0	489684992	45	4127
2026-01-13 04:40:11.94	4.53	18.09	-37.0	-38.5	15.8	0.00e+00	0	59	0	497025024	45	4085
2026-01-13 04:40:12.95	4.45	18.20	-37.1	-38.6	15.7	0.00e+00	0	59	0	504365056	45	4134
2026-01-13 04:40:13.97	4.37	18.32	-37.2	-38.7	15.6	0.00e+00	0	59	0	511705088	45	4158
2026-01-13 04:40:14.97	4.28	18.43	-37.1	-38.6	15.7	0.00e+00	0	59	0	517996544	45	4119
2026-01-13 04:40:15.99	4.20	18.55	-37.0	-38.5	15.9	0.00e+00	0	59	0	525336576	45	4070
2026-01-13 04:40:16.99	4.11	18.66	-37.0	-38.5	15.9	0.00e+00	0	59	0	533725184	44	4316
2026-01-13 04:40:18.00	4.02	18.78	-37.0	-38.4	15.9	0.00e+00	0	59	0	540016640	44	4288
2026-01-13 04:40:19.01	3.94	18.90	-36.9	-38.4	16.0	0.00e+00	0	59	0	547356672	44	4261
2026-01-13 04:40:20.02	3.85	19.02	-36.9	-38.3	16.1	0.00e+00	0	59	0	554696704	44	4229
2026-01-13 04:40:21.03	3.76	19.13	-36.9	-38.3	16.1	0.00e+00	0	59	0	562036736	44	4232
2026-01-13 04:40:22.04	3.67	19.25	-37.0	-38.4	16.0	0.00e+00	0	59	0	569376768	44	4267
2026-01-13 04:40:23.05	3.58	19.37	-36.8	-38.2	16.3	0.00e+00	0	59	0	576716800	44	4170
2026-01-13 04:40:24.06	3.49	19.49	-36.9	-38.4	16.1	0.00e+00	0	59	0	584056832	44	4250
2026-01-13 04:40:25.07	3.40	19.61	-36.9	-38.4	16.1	0.00e+00	0	59	0	591396864	44	4254
2026-01-13 04:40:26.08	3.31	19.73	-37.0	-38.4	16.1	0.00e+00	0	59	0	598736896	44	4281
2026-01-13 04:40:27.09	3.21	19.85	-37.1	-38.5	16.0	0.00e+00	0	59	0	606076928	44	4333
2026-01-13 04:40:28.10	3.12	19.98	-37.1	-38.5	16.0	0.00e+00	0	59	0	613416960	44	4335
2026-01-13 04:40:29.11	3.02	20.10	-36.9	-38.3	16.2	0.00e+00	0	59	0	620756992	44	4234
2026-01-13 04:40:30.12	2.93	20.22	-37.0	-38.4	16.1	0.00e+00	0	59	0	628097024	44	4271
2026-01-13 04:40:31.13	2.83	20.34	-36.9	-38.3	16.2	0.00e+00	0	59	0	635437056	44	4227
2026-01-13 04:40:32.14	2.73	20.47	-36.9	-38.4	16.1	0.00e+00	0	59	0	642777088	44	4265
2026-01-13 04:40:33.15	2.64	20.59	-37.0	-38.4	16.1	0.00e+00	0	59	0	650117120	44	4278
2026-01-13 04:40:34.16	2.54	20.72	-36.9	-38.4	16.1	0.00e+00	0	59	0	657457152	44	4263
2026-01-13 04:40:35.17	2.44	20.84	-37.0	-38.4	16.1	0.00e+00	0	59	0	663748608	44	4291
2026-01-13 04:40:36.18	2.34	20.97	-37.1	-38.5	16.0	0.00e+00	0	59	0	671088640	44	4333
2026-01-13 04:40:37.19	2.24	21.10	-37.0	-38.5	16.0	0.00e+00	0	59	0	678428672	44	4312
2026-01-13 04:40:38.20	2.13	21.22	-37.0	-38.4	16.1	0.00e+00	0	59	0	685768704	44	4284
2026-01-13 04:40:39.21	2.03	21.35	-37.0	-38.4	16.2	0.00e+00	0	59	0	693108736	44	4261
2026-01-13 04:40:40.22	1.93	21.48	-37.0	-38.4	16.1	0.00e+00	0	59	0	700448768	44	4271
2026-01-13 04:40:41.23	1.82	21.61	-37.0	-38.4	16.2	0.00e+00	0	59	0	707788800	44	4259
2026-01-13 04:40:42.24	1.72	21.74	-36.9	-38.4	16.2	0.00e+00	0	59	0	715128832	44	4259
2026-01-13 04:40:43.25	1.61	21.87	-37.1	-38.5	16.1	0.00e+00	0	59	0	722468864	44	4324
2026-01-13 04:40:44.26	1.50	22.00	-37.0	-38.5	16.1	0.00e+00	0	59	0	729808896	44	4300
2026-01-13 04:40:45.27	1.39	22.13	-36.9	-38.3	16.3	0.00e+00	0	59	0	737148928	44	4221
2026-01-13 04:40:46.28	1.28	22.26	-36.9	-38.4	16.2	0.00e+00	0	59	0	744488960	44	4243
2026-01-13 04:40:47.29	1.17	22.39	-36.8	-38.2	16.4	0.00e+00	0	59	0	751828992	44	4185
2026-01-13 04:40:48.30	1.06	22.52	-36.8	-38.2	16.4	0.00e+00	0	59	0	759169024	44	4183
2026-01-13 04:40:49.31	0.95	22.66	-36.9	-38.3	16.3	0.00e+00	0	59	0	766509056	44	4216
2026-01-13 04:40:50.32	0.84	22.79	-36.7	-38.1	16.5	0.00e+00	0	59	0	773849088	44	4115
2026-01-13 04:40:51.33	0.72	22.93	-36.7	-38.1	16.5	0.00e+00	0	59	0	781189120	44	4111
2026-01-13 04:40:52.34	0.61	23.06	-36.7	-38.1	16.5	0.00e+00	0	59	0	788529152	44	4131
2026-01-13 04:40:53.35	0.49	23.20	-36.7	-38.1	16.5	0.00e+00	0	59	0	795869184	44	4132
2026-01-13 04:40:54.36	0.37	23.33	-36.7	-38.0	16.6	0.00e+00	0	60	0	803209216	44	4093
2026-01-13 04:40:55.36	0.25	23.47	-36.8	-38.2	16.4	0.00e+00	0	59	0	810549248	44	4193
2026-01-13 04:40:56.38	0.13	23.61	-36.8	-38.2	16.4	0.00e+00	0	59	0	816840704	44	4156
2026-01-13 04:40:57.39	0.01	23.74	-36.8	-38.2	16.5	0.00e+00	0	59	0	824180736	44	4156
2026-01-13 04:40:58.40	359.89	23.88	-36.7	-38.1	16.5	0.00e+00	0	59	0	832569344	44	4114
2026-01-13 04:40:59.41	359.77	24.02	-36.7	-38.1	16.5	0.00e+00	0	59	0	838860800	44	4125
2026-01-13 04:41:00.42	359.64	24.16	-36.7	-38.1	16.6	0.00e+00	0	59	0	846200832	44	4100
2026-01-13 04:41:01.43	359.52	24.30	-36.7	-38.1	16.5	0.00e+00	0	59	0	853540864	44	4107
2026-01-13 04:41:02.44	359.39	24.44	-36.7	-38.1	16.5	0.00e+00	0	59	0	860880896	44	4128
2026-01-13 04:41:03.45	359.26	24.58	-36.7	-38.1	16.5	0.00e+00	0	59	0	868220928	44	4122
2026-01-13 04:41:04.46	359.14	24.73	-36.6	-37.9	16.7	0.00e+00	0	59	0	875560960	44	4051
2026-01-13 04:41:05.47	359.01	24.87	-36.8	-38.2	16.5	0.00e+00	0	60	0	882900992	44	4159
2026-01-13 04:41:06.48	358.87	25.01	-36.7	-38.1	16.6	0.00e+00	0	60	0	890241024	44	4117
2026-01-13 04:41:07.49	358.74	25.16	-36.7	-38.1	16.5	0.00e+00	0	59	0	897581056	44	4139
2026-01-13 04:41:08.50	358.61	25.30	-36.7	-38.0	16.6	0.00e+00	0	59	0	904921088	44	4095
2026-01-13 04:41:09.52	358.47	25.45	-36.8	-38.1	16.6	0.00e+00	0	60	0	912261120	44	4136
2026-01-13 04:41:10.53	358.34	25.59	-36.5	-37.9	16.7	0.00e+00	0	59	0	919601152	43	4244
2026-01-13 04:41:11.54	358.20	25.74	-36.5	-37.9	16.7	0.00e+00	0	59	0	926941184	43	4251
2026-01-13 04:41:12.55	358.06	25.89	-36.4	-37.7	16.8	0.00e+00	0	60	0	934281216	43	4179
2026-01-13 04:41:13.56	357.92	26.04	-36.3	-37.7	16.9	0.00e+00	0	59	0	941621248	43	4154
2026-01-13 04:41:14.57	357.78	26.18	-36.4	-37.7	16.8	0.00e+00	0	60	0	948961280	43	4186
2026-01-13 04:41:15.58	357.64	26.33	-36.4	-37.7	16.8	0.00e+00	0	60	0	956301312	43	4174
2026-01-13 04:41:16.59	357.49	26.48	-36.3	-37.6	16.9	0.00e+00	0	60	0	962592768	43	4136
2026-01-13 04:41:17.60	357.35	26.63	-36.3	-37.7	16.9	0.00e+00	0	59	0	970981376	43	4150
2026-01-13 04:41:18.60	357.20	26.78	-36.2	-37.5	17.0	0.00e+00	0	60	0	978321408	43	4086
2026-01-13 04:41:19.61	357.05	26.93	-36.0	-37.3	17.3	0.00e+00	0	59	0	984612864	43	3977
2026-01-13 04:41:20.62	356.90	27.09	-36.4	-37.7	16.9	0.00e+00	0	59	0	991952896	42	4411
2026-01-13 04:41:21.63	356.75	27.24	-35.9	-37.2	17.4	0.00e+00	0	59	0	999292928	42	4169
2026-01-13 04:41:22.64	356.60	27.39	-35.8	-37.1	17.5	0.00e+00	0	59	0	1006632960	42	4109
2026-01-13 04:41:23.65	356.44	27.55	-35.7	-37.0	17.6	0.00e+00	0	59	0	1013972992	42	4058
2026-01-13 04:41:24.66	356.29	27.70	-35.7	-36.9	17.7	0.00e+00	0	59	0	1021313024	42	4017
2026-01-13 04:41:25.67	356.13	27.86	-35.4	-36.6	18.0	0.00e+00	0	60	0	1028653056	41	4130
2026-01-13 04:41:26.68	355.97	28.01	-35.5	-36.7	17.9	0.00e+00	0	60	0	1035993088	41	4148
2026-01-13 04:41:27.69	355.81	28.17	-35.5	-36.7	17.9	0.00e+00	0	60	0	1043333120	41	4152
2026-01-13 04:41:28.70	355.65	28.33	-35.4	-36.6	18.0	0.00e+00	0	60	0	1050673152	41	4127
2026-01-13 04:41:29.71	355.48	28.48	-35.5	-36.7	17.9	0.00e+00	0	60	0	1058013184	41	4151
2026-01-13 04:41:30.72	355.32	28.64	-35.5	-36.7	17.9	0.00e+00	0	59	0	1065353216	41	4156
2026-01-13 04:41:31.73	355.15	28.80	-35.7	-36.9	17.7	0.00e+00	0	60	0	1072693248	41	4256
2026-01-13 04:41:32.74	354.98	28.96	-35.7	-36.9	17.7	0.00e+00	0	60	0	1080033280	41	4274
2026-01-13 04:41:33.75	354.81	29.12	-35.8	-37.0	17.6	0.00e+00	0	60	0	1087373312	41	4332
2026-01-13 04:41:34.76	354.64	29.28	-35.9	-37.1	17.5	0.00e+00	0	60	0	1094713344	41	4382
2026-01-13 04:41:35.77	354.46	29.44	-36.0	-37.3	17.4	0.00e+00	0	60	0	1102053376	41	4446
2026-01-13 04:41:36.78	354.29	29.61	-36.0	-37.2	17.4	0.00e+00	0	60	0	1109393408	41	4432
2026-01-13 04:41:37.79	354.11	29.77	-36.1	-37.3	17.4	0.00e+00	0	60	0	1116733440	41	4493
2026-01-13 04:41:38.80	353.93	29.93	-36.1	-37.4	17.2	0.00e+00	0	60	0	1124073472	41	4531
2026-01-13 04:41:39.81	353.75	30.10	-36.2	-37.5	17.2	0.00e+00	0	60	0	1131413504	42	4326
2026-01-13 04:41:40.82	353.56	30.26	-36.4	-37.8	17.0	0.00e+00	0	60	0	1137704960	42	4444
2026-01-13 04:41:41.83	353.38	30.43	-36.5	-37.8	17.0	0.00e+00	0	60	0	1145044992	43	4209
2026-01-13 04:41:42.84	353.19	30.59	-36.4	-37.7	17.0	0.00e+00	0	60	0	1152385024	43	4164
2026-01-13 04:41:43.85	353.00	30.76	-36.5	-37.8	16.9	0.00e+00	0	60	0	1159725056	43	4225
2026-01-13 04:41:44.85	352.81	30.92	-36.4	-37.8	17.0	0.00e+00	0	60	0	1167065088	43	4201
2026-01-13 04:41:45.86	352.62	31.09	-36.5	-37.8	16.9	0.00e+00	0	60	0	1174405120	43	4234
2026-01-13 04:41:46.88	352.42	31.26	-36.7	-38.0	16.8	0.00e+00	0	60	0	1181745152	43	4319
2026-01-13 04:41:47.88	352.23	31.43	-36.6	-38.0	16.8	0.00e+00	0	60	0	1189085184	43	4297
2026-01-13 04:41:48.89	352.03	31.60	-36.5	-37.9	16.9	0.00e+00	0	60	0	1196425216	43	4244
2026-01-13 04:41:49.90	351.82	31.77	-36.4	-37.6	17.1	0.00e+00	0	60	0	1203765248	43	4143
2026-01-13 04:41:50.91	351.62	31.94	-36.2	-37.5	17.2	0.00e+00	0	60	0	1211105280	43	4086
2026-01-13 04:41:51.92	351.41	32.11	-36.0	-37.2	17.5	0.00e+00	0	60	0	1218445312	43	3945
2026-01-13 04:41:52.93	351.21	32.28	-36.1	-37.4	17.4	0.00e+00	0	60	0	1225785344	42	4247
2026-01-13 04:41:53.94	351.00	32.45	-36.0	-37.3	17.5	0.00e+00	0	60	0	1233125376	42	4204
2026-01-13 04:41:54.95	350.78	32.63	-35.9	-37.2	17.6	0.00e+00	0	60	0	1240465408	42	4162
2026-01-13 04:41:55.96	350.57	32.80	-35.9	-37.2	17.6	0.00e+00	0	60	0	1247805440	42	4152
2026-01-13 04:41:56.97	350.35	32.98	-35.7	-36.9	17.9	0.00e+00	0	60	0	1255145472	42	4028
2026-01-13 04:41:57.98	350.13	33.15	-35.9	-37.1	17.7	0.00e+00	0	60	0	1261436928	42	4123
2026-01-13 04:41:58.99	349.91	33.32	-35.8	-37.1	17.8	0.00e+00	0	60	0	1268776960	42	4099
2026-01-13 04:42:00.00	349.68	33.50	-35.8	-37.1	17.7	0.00e+00	0	60	0	1277165568	42	4102
2026-01-13 04:42:01.01	349.46	33.68	-35.9	-37.2	17.6	0.00e+00	0	60	0	1283457024	42	4169
2026-01-13 04:42:02.01	349.23	33.85	-35.7	-37.0	17.8	0.00e+00	0	60	0	1290797056	42	4056
2026-01-13 04:42:03.03	348.99	34.03	-35.9	-37.1	17.7	0.00e+00	0	60	0	1298137088	42	4136
2026-01-13 04:42:04.04	348.76	34.21	-35.9	-37.1	17.7	0.00e+00	0	60	0	1305477120	42	4143
2026-01-13 04:42:05.05	348.52	34.39	-35.8	-37.0	17.8	0.00e+00	0	60	0	1312817152	42	4083
2026-01-13 04:42:06.06	348.28	34.56	-35.9	-37.1	17.7	0.00e+00	0	60	0	1320157184	42	4117
2026-01-13 04:42:07.07	348.04	34.74	-35.8	-37.0	17.9	0.00e+00	0	60	0	1327497216	42	4057
2026-01-13 04:42:08.08	347.79	34.92	-35.9	-37.1	17.7	0.00e+00	0	60	0	1334837248	41	4370
2026-01-13 04:42:09.09	347.54	35.10	-35.9	-37.1	17.7	0.00e+00	0	60	0	1342177280	41	4363
2026-01-13 04:42:10.10	347.29	35.28	-36.0	-37.2	17.6	0.00e+00	0	60	0	1349517312	41	4414
2026-01-13 04:42:11.11	347.04	35.46	-36.1	-37.4	17.5	0.00e+00	0	60	0	1356857344	41	4504
2026-01-13 04:42:12.12	346.78	35.64	-36.2	-37.5	17.4	0.00e+00	0	60	0	1364197376	42	4301
2026-01-13 04:42:13.13	346.52	35.82	-36.2	-37.5	17.3	0.00e+00	0	60	0	1371537408	42	4324
2026-01-13 04:42:14.14	346.26	36.01	-36.4	-37.7	17.1	0.00e+00	0	60	0	1378877440	42	4436
2026-01-13 04:42:15.15	345.99	36.19	-36.5	-37.8	17.1	0.00e+00	0	60	0	1386217472	42	4483
2026-01-13 04:42:16.16	345.73	36.37	-36.5	-37.9	17.0	0.00e+00	0	60	0	1393557504	42	4494
2026-01-13 04:42:17.17	345.45	36.55	-36.4	-37.7	17.2	0.00e+00	0	60	0	1400897536	42	4425
2026-01-13 04:42:18.18	345.18	36.74	-36.0	-37.2	17.6	0.00e+00	0	60	0	1408237568	42	4174
2026-01-13 04:42:19.19	344.90	36.92	-36.2	-37.5	17.4	0.00e+00	0	60	0	1415577600	42	4294
2026-01-13 04:42:20.20	344.62	37.10	-36.2	-37.4	17.4	0.00e+00	0	60	0	1422917632	42	4279
2026-01-13 04:42:21.21	344.34	37.29	-36.2	-37.4	17.4	0.00e+00	0	60	0	1430257664	42	4290
2026-01-13 04:42:22.22	344.05	37.47	-36.2	-37.4	17.4	0.00e+00	0	60	0	1436549120	42	4285
2026-01-13 04:42:23.24	343.75	37.66	-35.9	-37.1	17.7	0.00e+00	0	60	0	1443889152	42	4121
2026-01-13 04:42:24.24	343.46	37.84	-36.3	-37.6	17.3	0.00e+00	0	60	0	1452277760	42	4368
2026-01-13 04:42:25.25	343.16	38.02	-36.1	-37.4	17.5	0.00e+00	0	60	0	1458569216	42	4261
2026-01-13 04:42:26.26	342.86	38.21	-36.1	-37.4	17.5	0.00e+00	0	60	0	1465909248	42	4259
2026-01-13 04:42:27.27	342.56	38.39	-36.1	-37.4	17.5	0.00e+00	0	60	0	1473249280	42	4267
2026-01-13 04:42:28.28	342.25	38.58	-36.2	-37.5	17.4	0.00e+00	0	60	0	1480589312	42	4297
2026-01-13 04:42:29.29	341.94	38.76	-36.1	-37.4	17.5	0.00e+00	0	60	0	1487929344	42	4248
2026-01-13 04:42:30.30	341.62	38.95	-36.1	-37.3	17.6	0.00e+00	0	60	0	1495269376	42	4218
2026-01-13 04:42:31.31	341.30	39.13	-36.1	-37.3	17.6	0.00e+00	0	60	0	1502609408	42	4237
2026-01-13 04:42:32.33	340.98	39.32	-36.2	-37.5	17.5	0.00e+00	0	60	0	1509949440	42	4298
2026-01-13 04:42:33.34	340.65	39.50	-36.3	-37.6	17.3	0.00e+00	0	60	0	1517289472	42	4346
2026-01-13 04:42:34.35	340.32	39.69	-36.3	-37.6	17.3	0.00e+00	0	60	0	1524629504	42	4343
2026-01-13 04:42:35.35	339.99	39.87	-36.2	-37.5	17.5	0.00e+00	0	60	0	1531969536	42	4303
2026-01-13 04:42:36.37	339.65	40.05	-36.3	-37.5	17.4	0.00e+00	0	60	0	1539309568	42	4336
2026-01-13 04:42:37.38	339.31	40.24	-36.2	-37.5	17.4	0.00e+00	0	60	0	1546649600	42	4294
2026-01-13 04:42:38.39	338.96	40.42	-36.3	-37.6	17.3	0.00e+00	0	60	0	1553989632	42	4369
2026-01-13 04:42:39.39	338.62	40.60	-36.3	-37.6	17.3	0.00e+00	0	60	0	1561329664	43	4122
2026-01-13 04:42:40.40	338.26	40.79	-36.5	-37.8	17.1	0.00e+00	0	60	0	1568669696	43	4236
2026-01-13 04:42:41.41	337.91	40.97	-36.6	-37.9	17.0	0.00e+00	0	60	0	1576009728	43	4274
2026-01-13 04:42:42.42	337.54	41.15	-36.7	-38.0	16.9	0.00e+00	0	60	0	1583349760	43	4328
2026-01-13 04:42:43.43	337.18	41.33	-36.6	-37.9	17.0	0.00e+00	0	60	0	1589641216	43	4243
2026-01-13 04:42:44.44	336.81	41.52	-36.6	-37.9	17.1	0.00e+00	0	60	0	1596981248	43	4257
2026-01-13 04:42:45.45	336.43	41.70	-36.3	-37.6	17.4	0.00e+00	0	60	0	1605369856	43	4104
2026-01-13 04:42:46.46	336.06	41.88	-36.1	-37.3	17.6	0.00e+00	0	60	0	1611661312	43	3986
2026-01-13 04:42:47.47	335.67	42.06	-36.1	-37.3	17.6	0.00e+00	0	60	0	1619001344	43	3984
2026-01-13 04:42:48.48	335.29	42.24	-36.2	-37.4	17.5	0.00e+00	0	60	0	1626341376	43	4034
2026-01-13 04:42:49.49	334.89	42.42	-36.3	-37.5	17.4	0.00e+00	0	60	0	1633681408	42	4339
2026-01-13 04:42:50.50	334.50	42.60	-36.0	-37.2	17.7	0.00e+00	0	60	0	1641021440	42	4184
2026-01-13 04:42:51.51	334.10	42.77	-36.1	-37.3	17.7	0.00e+00	0	60	0	1648361472	42	4218
2026-01-13 04:42:52.52	333.69	42.95	-36.1	-37.3	17.7	0.00e+00	0	60	0	1655701504	42	4226
2026-01-13 04:42:53.53	333.28	43.13	-36.2	-37.4	17.5	0.00e+00	0	60	0	1663041536	42	4272
2026-01-13 04:42:54.54	332.87	43.30	-36.1	-37.3	17.7	0.00e+00	0	60	0	1670381568	42	4227
2026-01-13 04:42:55.55	332.45	43.48	-36.3	-37.6	17.4	0.00e+00	0	60	0	1677721600	42	4369
2026-01-13 04:42:56.56	332.03	43.65	-36.5	-37.8	17.2	0.00e+00	0	60	0	1685061632	42	4474
2026-01-13 04:42:57.57	331.60	43.82	-36.7	-38.0	17.0	0.00e+00	0	60	0	1692401664	42	4583
2026-01-13 04:42:58.58	331.17	43.99	-36.8	-38.1	16.8	0.00e+00	0	60	0	1699741696	43	4377
2026-01-13 04:42:59.59	330.73	44.16	-36.8	-38.1	16.9	0.00e+00	0	60	0	1707081728	43	4368
2026-01-13 04:43:00.60	330.29	44.33	-37.0	-38.3	16.6	0.00e+00	0	60	0	1714421760	43	4473
2026-01-13 04:43:01.61	329.84	44.50	-36.8	-38.2	16.8	0.00e+00	0	60	0	1721761792	43	4418
2026-01-13 04:43:02.62	329.39	44.67	-36.6	-37.9	17.1	0.00e+00	0	60	0	1729101824	43	4260
2026-01-13 04:43:03.63	328.93	44.83	-36.5	-37.8	17.2	0.00e+00	0	60	0	1735393280	43	4213
2026-01-13 04:43:04.64	328.47	45.00	-36.3	-37.6	17.4	0.00e+00	0	60	0	1743781888	43	4113
2026-01-13 04:43:05.65	328.01	45.16	-36.2	-37.5	17.5	0.00e+00	0	60	0	1751121920	43	4055
2026-01-13 04:43:06.66	327.54	45.32	-36.1	-37.4	17.6	0.00e+00	0	60	0	1757413376	43	4010
2026-01-13 04:43:07.67	327.06	45.48	-36.1	-37.3	17.6	0.00e+00	0	60	0	1764753408	43	3993
2026-01-13 04:43:08.68	326.58	45.64	-36.1	-37.3	17.7	0.00e+00	0	60	0	1772093440	43	3977
2026-01-13 04:43:09.69	326.09	45.80	-36.0	-37.2	17.8	0.00e+00	0	60	0	1779433472	42	4174
2026-01-13 04:43:10.70	325.60	45.95	-36.1	-37.3	17.6	0.00e+00	0	60	0	1786773504	42	4238
2026-01-13 04:43:11.71	325.11	46.10	-36.3	-37.5	17.5	0.00e+00	0	60	0	1794113536	42	4321
2026-01-13 04:43:12.72	324.61	46.25	-36.5	-37.7	17.2	0.00e+00	0	60	0	1801453568	42	4441
2026-01-13 04:43:13.73	324.11	46.40	-36.6	-37.9	17.0	0.00e+00	0	60	0	1808793600	43	4291
2026-01-13 04:43:14.74	323.60	46.55	-36.8	-38.1	16.8	0.00e+00	0	60	0	1816133632	43	4372
2026-01-13 04:43:15.75	323.08	46.70	-36.8	-38.2	16.8	0.00e+00	0	60	0	1823473664	43	4403
2026-01-13 04:43:16.76	322.56	46.84	-36.8	-38.1	16.9	0.00e+00	0	60	0	1830813696	43	4364
2026-01-13 04:43:17.77	322.04	46.98	-36.7	-38.0	17.0	0.00e+00	0	60	0	1838153728	43	4319
2026-01-13 04:43:18.78	321.51	47.12	-36.6	-37.9	17.1	0.00e+00	0	60	0	1845493760	43	4255
2026-01-13 04:43:19.79	320.98	47.26	-36.5	-37.7	17.2	0.00e+00	0	61	0	1852833792	43	4189
2026-01-13 04:43:20.80	320.44	47.39	-36.5	-37.7	17.2	0.00e+00	0	60	0	1860173824	43	4185
2026-01-13 04:43:21.81	319.90	47.52	-36.7	-38.0	16.9	0.00e+00	0	60	0	1867513856	43	4321
2026-01-13 04:43:22.82	319.35	47.65	-36.9	-38.2	16.7	0.00e+00	0	60	0	1874853888	43	4432
2026-01-13 04:43:23.83	318.80	47.78	-36.9	-38.3	16.7	0.00e+00	0	60	0	1882193920	43	4455
2026-01-13 04:43:24.84	318.24	47.90	-36.9	-38.3	16.7	0.00e+00	0	60	0	1889533952	43	4445
2026-01-13 04:43:25.85	317.68	48.03	-36.9	-38.3	16.7	0.00e+00	0	60	0	1896873984	43	4447
2026-01-13 04:43:26.86	317.12	48.15	-36.8	-38.2	16.8	0.00e+00	0	61	0	1904214016	43	4399
2026-01-13 04:43:27.87	316.55	48.26	-36.7	-38.0	17.0	0.00e+00	0	60	0	1910505472	43	4308
2026-01-13 04:43:28.88	315.97	48.38	-36.6	-37.9	17.1	0.00e+00	0	60	0	1917845504	43	4264
2026-01-13 04:43:29.89	315.39	48.49	-36.7	-38.0	17.0	0.00e+00	0	60	0	1926234112	43	4294
2026-01-13 04:43:30.90	314.81	48.60	-37.0	-38.3	16.6	0.00e+00	0	60	0	1932525568	43	4483
2026-01-13 04:43:31.91	314.23	48.70	-37.1	-38.5	16.5	0.00e+00	0	60	0	1939865600	43	4547
2026-01-13 04:43:32.92	313.64	48.80	-37.4	-38.8	16.3	0.00e+00	0	60	0	1947205632	44	4464
2026-01-13 04:43:33.93	313.04	48.90	-37.3	-38.7	16.4	0.00e+00	0	60	0	1954545664	44	4406
2026-01-13 04:43:34.94	312.44	49.00	-37.1	-38.4	16.6	0.00e+00	0	60	0	1961885696	44	4277
2026-01-13 04:43:35.95	311.84	49.09	-37.1	-38.5	16.7	0.00e+00	0	60	0	1969225728	44	4302
2026-01-13 04:43:36.96	311.24	49.18	-37.2	-38.5	16.6	0.00e+00	0	60	0	1976565760	44	4327
2026-01-13 04:43:37.97	310.63	49.27	-37.3	-38.7	16.4	0.00e+00	0	60	0	1983905792	44	4400
2026-01-13 04:43:38.98	310.02	49.35	-37.4	-38.8	16.4	0.00e+00	0	60	0	1991245824	44	4442
2026-01-13 04:43:39.99	309.40	49.43	-37.3	-38.7	16.4	0.00e+00	0	60	0	1998585856	44	4417
2026-01-13 04:43:41.00	308.78	49.51	-37.0	-38.3	16.8	0.00e+00	0	60	0	2005925888	44	4221
2026-01-13 04:43:42.01	308.16	49.58	-36.8	-38.1	17.0	0.00e+00	0	60	0	2013265920	44	4141
2026-01-13 04:43:43.02	307.53	49.65	-36.7	-38.0	17.1	0.00e+00	0	60	0	2020605952	44	4070
2026-01-13 04:43:44.03	306.91	49.71	-36.7	-38.0	17.1	0.00e+00	0	60	0	2027945984	44	4084
2026-01-13 04:43:45.04	306.28	49.78	-36.9	-38.3	16.9	0.00e+00	0	60	0	2035286016	44	4199
2026-01-13 04:43:46.05	305.64	49.83	-37.2	-38.6	16.5	0.00e+00	0	60	0	2042626048	44	4367
2026-01-13 04:43:47.06	305.01	49.89	-37.2	-38.6	16.5	0.00e+00	0	60	0	2049966080	44	4365
2026-01-13 04:43:48.07	304.37	49.94	-37.3	-38.6	16.5	0.00e+00	0	60	0	2056257536	44	4385
2026-01-13 04:43:49.08	303.73	49.99	-37.1	-38.4	16.7	0.00e+00	0	60	0	2063597568	44	4281
2026-01-13 04:43:50.09	303.09	50.03	-37.1	-38.4	16.7	0.00e+00	0	60	0	2070937600	44	4261
2026-01-13 04:43:51.10	302.45	50.07	-37.1	-38.4	16.7	0.00e+00	0	60	0	2078277632	44	4287
2026-01-13 04:43:52.11	301.80	50.11	-36.9	-38.2	16.8	0.00e+00	0	60	0	2085617664	44	4163
2026-01-13 04:43:53.12	301.16	50.14	-36.9	-38.3	16.8	0.00e+00	0	60	0	2092957696	44	4202
2026-01-13 04:43:54.13	300.51	50.17	-37.1	-38.4	16.7	0.00e+00	0	61	0	2100297728	44	4257
2026-01-13 04:43:55.14	299.86	50.19	-37.0	-38.3	16.8	0.00e+00	0	60	0	2107637760	44	4225
2026-01-13 04:43:56.15	299.21	50.21	-36.8	-38.1	16.9	0.00e+00	0	60	0	2114977792	44	4145
2026-01-13 04:43:57.16	298.56	50.23	-36.8	-38.0	17.0	0.00e+00	0	60	0	2122317824	44	4095
2026-01-13 04:43:58.17	297.91	50.24	-36.6	-37.9	17.2	0.00e+00	0	60	0	2129657856	44	4033
2026-01-13 04:43:59.18	297.26	50.25	-37.0	-38.3	16.8	0.00e+00	0	60	0	2136997888	44	4214
2026-01-13 04:44:00.19	296.60	50.25	-37.2	-38.6	16.6	0.00e+00	0	60	0	2144337920	44	4346
2026-01-13 04:44:01.20	295.95	50.25	-37.2	-38.6	16.5	0.00e+00	0	60	0	2151677952	44	4360
2026-01-13 04:44:02.21	295.30	50.25	-37.1	-38.5	16.7	0.00e+00	0	60	0	2159017984	44	4296
2026-01-13 04:44:03.22	294.65	50.24	-37.0	-38.3	16.8	0.00e+00	0	60	0	2166358016	44	4205
2026-01-13 04:44:04.23	294.00	50.23	-36.8	-38.1	17.0	0.00e+00	0	60	0	2173698048	44	4136
2026-01-13 04:44:05.24	293.35	50.22	-36.8	-38.1	17.0	0.00e+00	0	61	0	2181038080	44	4135
2026-01-13 04:44:06.25	292.70	50.20	-37.1	-38.5	16.6	0.00e+00	0	60	0	2188378112	44	4299
2026-01-13 04:44:07.27	292.04	50.18	-37.1	-38.4	16.7	0.00e+00	0	60	0	2195718144	44	4278
2026-01-13 04:44:08.28	291.39	50.15	-37.0	-38.3	16.8	0.00e+00	0	60	0	2203058176	44	4234
2026-01-13 04:44:09.29	290.74	50.12	-36.8	-38.1	17.0	0.00e+00	0	60	0	2209349632	44	4140
2026-01-13 04:44:10.29	290.11	50.08	-36.8	-38.1	17.0	0.00e+00	0	60	0	2217738240	44	4120
2026-01-13 04:44:11.31	289.45	50.05	-36.9	-38.3	16.9	0.00e+00	0	60	0	2225078272	44	4200
2026-01-13 04:44:12.32	288.81	50.00	-37.1	-38.4	16.7	0.00e+00	0	60	0	2231369728	44	4279
2026-01-13 04:44:13.33	288.17	49.96	-36.8	-38.1	17.0	0.00e+00	0	60	0	2238709760	44	4140
2026-01-13 04:44:14.34	287.53	49.91	-36.6	-37.9	17.2	0.00e+00	0	60	0	2246049792	44	4031
2026-01-13 04:44:15.35	286.90	49.85	-36.7	-38.0	17.1	0.00e+00	0	60	0	2253389824	44	4086
2026-01-13 04:44:16.36	286.26	49.80	-36.8	-38.0	17.0	0.00e+00	0	60	0	2260729856	44	4086
2026-01-13 04:44:17.37	285.63	49.74	-37.0	-38.3	16.8	0.00e+00	0	60	0	2268069888	44	4216
2026-01-13 04:44:18.38	285.00	49.67	-36.9	-38.2	16.9	0.00e+00	0	60	0	2275409920	44	4185
2026-01-13 04:44:19.39	284.37	49.60	-36.7	-38.0	17.1	0.00e+00	0	60	0	2282749952	44	4074
2026-01-13 04:44:20.39	283.76	49.53	-36.7	-38.0	17.1	0.00e+00	0	61	0	2290089984	44	4087
2026-01-13 04:44:21.40	283.14	49.46	-36.8	-38.1	17.0	0.00e+00	0	61	0	2297430016	44	4144
2026-01-13 04:44:22.41	282.52	49.38	-36.8	-38.1	17.0	0.00e+00	0	60	0	2304770048	44	4111
2026-01-13 04:44:23.42	281.90	49.30	-36.6	-37.8	17.3	0.00e+00	0	60	0	2312110080	44	4002
2026-01-13 04:44:24.43	281.29	49.21	-36.7	-38.0	17.1	0.00e+00	0	60	0	2319450112	44	4084
2026-01-13 04:44:25.44	280.69	49.13	-36.9	-38.3	16.9	0.00e+00	0	61	0	2326790144	44	4194
2026-01-13 04:44:26.45	280.08	49.03	-37.1	-38.4	16.7	0.00e+00	0	61	0	2334130176	44	4269
2026-01-13 04:44:27.46	279.48	48.94	-37.1	-38.5	16.7	0.00e+00	0	60	0	2341470208	44	4300
2026-01-13 04:44:28.47	278.88	48.84	-36.9	-38.3	16.9	0.00e+00	0	60	0	2348810240	44	4194
2026-01-13 04:44:29.48	278.29	48.74	-36.7	-38.0	17.1	0.00e+00	0	61	0	2355101696	44	4077
2026-01-13 04:44:30.49	277.70	48.64	-36.7	-38.0	17.1	0.00e+00	0	60	0	2362441728	44	4077
2026-01-13 04:44:31.50	277.12	48.53	-36.9	-38.2	16.9	0.00e+00	0	60	0	2370830336	44	4158
2026-01-13 04:44:32.51	276.54	48.42	-37.1	-38.4	16.7	0.00e+00	0	60	0	2377121792	44	4264
2026-01-13 04:44:33.52	275.96	48.30	-37.0	-38.4	16.8	0.00e+00	0	60	0	2384461824	44	4246
2026-01-13 04:44:34.53	275.39	48.19	-36.9	-38.2	16.9	0.00e+00	0	61	0	2391801856	44	4174
2026-01-13 04:44:35.54	274.82	48.07	-36.8	-38.1	17.0	0.00e+00	0	60	0	2399141888	44	4120
2026-01-13 04:44:36.55	274.26	47.95	-36.8	-38.1	17.0	0.00e+00	0	60	0	2406481920	44	4124
2026-01-13 04:44:37.57	273.69	47.82	-36.6	-37.9	17.2	0.00e+00	0	60	0	2413821952	44	4020
2026-01-13 04:44:38.58	273.14	47.70	-36.6	-37.9	17.2	0.00e+00	0	61	0	2421161984	44	4014
2026-01-13 04:44:39.59	272.59	47.57	-36.8	-38.1	17.0	0.00e+00	0	61	0	2428502016	44	4140
2026-01-13 04:44:40.60	272.04	47.44	-37.0	-38.3	16.8	0.00e+00	0	60	0	2435842048	44	4239
2026-01-13 04:44:41.61	271.50	47.30	-36.9	-38.3	16.8	0.00e+00	0	61	0	2443182080	44	4212
2026-01-13 04:44:42.62	270.97	47.17	-36.7	-38.0	17.1	0.00e+00	0	60	0	2450522112	44	4062
2026-01-13 04:44:43.63	270.43	47.03	-36.5	-37.8	17.3	0.00e+00	0	60	0	2457862144	44	3975
2026-01-13 04:44:44.63	269.91	46.89	-36.2	-37.5	17.5	0.00e+00	0	60	0	2465202176	43	4056
2026-01-13 04:44:45.64	269.39	46.75	-36.3	-37.6	17.3	0.00e+00	0	60	0	2472542208	43	4126
2026-01-13 04:44:46.65	268.87	46.60	-36.6	-37.9	17.0	0.00e+00	0	60	0	2479882240	43	4284
2026-01-13 04:44:47.66	268.36	46.45	-36.7	-38.0	17.0	0.00e+00	0	60	0	2487222272	43	4336
2026-01-13 04:44:48.67	267.85	46.30	-36.6	-37.9	17.0	0.00e+00	0	60	0	2494562304	43	4282
2026-01-13 04:44:49.69	267.35	46.15	-36.5	-37.8	17.2	0.00e+00	0	60	0	2501902336	43	4215
2026-01-13 04:44:50.70	266.85	46.00	-36.4	-37.7	17.3	0.00e+00	0	61	0	2509242368	43	4159
2026-01-13 04:44:51.71	266.35	45.84	-36.4	-37.7	17.3	0.00e+00	0	60	0	2516582400	43	4155
2026-01-13 04:44:52.72	265.87	45.69	-36.4	-37.7	17.3	0.00e+00	0	60	0	2523922432	43	4175
2026-01-13 04:44:53.73	265.38	45.53	-36.5	-37.7	17.2	0.00e+00	0	60	0	2530213888	43	4191
2026-01-13 04:44:54.74	264.90	45.37	-36.4	-37.7	17.2	0.00e+00	0	61	0	2537553920	43	4178
2026-01-13 04:44:55.74	264.44	45.21	-36.4	-37.7	17.2	0.00e+00	0	60	0	2545942528	43	4180
2026-01-13 04:44:56.75	263.97	45.05	-36.4	-37.7	17.3	0.00e+00	0	60	0	2552233984	43	4157
2026-01-13 04:44:57.77	263.50	44.88	-36.2	-37.5	17.5	0.00e+00	0	60	0	2559574016	43	4071
2026-01-13 04:44:58.78	263.04	44.72	-36.2	-37.4	17.5	0.00e+00	0	60	0	2566914048	43	4046
2026-01-13 04:44:59.79	262.58	44.55	-36.0	-37.2	17.7	0.00e+00	0	60	0	2574254080	43	3953
2026-01-13 04:45:00.79	262.14	44.38	-35.9	-37.1	17.9	0.00e+00	0	60	0	2581594112	42	4101
2026-01-13 04:45:01.81	261.69	44.21	-35.7	-36.8	18.1	0.00e+00	0	61	0	2588934144	42	4003
2026-01-13 04:45:02.81	261.25	44.04	-35.6	-36.8	18.2	0.00e+00	0	60	0	2596274176	42	3961
2026-01-13 04:45:03.83	260.81	43.87	-35.7	-36.8	18.1	0.00e+00	0	61	0	2603614208	42	3991
2026-01-13 04:45:04.84	260.38	43.70	-35.7	-36.9	18.1	0.00e+00	0	60	0	2610954240	42	4027
2026-01-13 04:45:05.85	259.96	43.52	-35.9	-37.1	17.9	0.00e+00	0	60	0	2618294272	42	4107
2026-01-13 04:45:06.86	259.54	43.35	-36.0	-37.3	17.7	0.00e+00	0	61	0	2625634304	42	4196
2026-01-13 04:45:07.87	259.12	43.17	-36.0	-37.2	17.8	0.00e+00	0	61	0	2632974336	42	4162
2026-01-13 04:45:08.88	258.71	43.00	-35.8	-37.0	18.0	0.00e+00	0	60	0	2640314368	42	4057
2026-01-13 04:45:09.89	258.30	42.82	-35.7	-36.9	18.0	0.00e+00	0	60	0	2647654400	42	4035
2026-01-13 04:45:10.90	257.90	42.64	-35.7	-36.9	18.1	0.00e+00	0	60	0	2654994432	42	4033
2026-01-13 04:45:11.91	257.50	42.46	-35.8	-37.0	17.9	0.00e+00	0	61	0	2662334464	42	4075
2026-01-13 04:45:12.92	257.10	42.28	-35.9	-37.1	17.9	0.00e+00	0	61	0	2669674496	42	4099
2026-01-13 04:45:13.93	256.71	42.10	-35.9	-37.1	17.8	0.00e+00	0	61	0	2675965952	42	4118
2026-01-13 04:45:14.94	256.33	41.92	-35.9	-37.1	17.8	0.00e+00	0	60	0	2683305984	42	4134
2026-01-13 04:45:15.95	255.95	41.74	-35.9	-37.1	17.9	0.00e+00	0	60	0	2691694592	42	4112
2026-01-13 04:45:16.96	255.57	41.56	-35.8	-37.0	18.0	0.00e+00	0	61	0	2697986048	42	4058
2026-01-13 04:45:17.97	255.20	41.38	-35.7	-36.9	18.1	0.00e+00	0	61	0	2705326080	42	4021
2026-01-13 04:45:18.98	254.83	41.19	-35.6	-36.8	18.1	0.00e+00	0	61	0	2712666112	42	3974
2026-01-13 04:45:19.99	254.46	41.01	-35.6	-36.7	18.2	0.00e+00	0	61	0	2720006144	42	3939
2026-01-13 04:45:21.00	254.10	40.83	-35.8	-37.0	17.8	0.00e+00	0	60	0	2727346176	41	4292
2026-01-13 04:45:22.01	253.75	40.64	-35.8	-37.0	17.9	0.00e+00	0	61	0	2734686208	41	4316
2026-01-13 04:45:23.02	253.39	40.46	-35.9	-37.1	17.8	0.00e+00	0	60	0	2742026240	41	4384
2026-01-13 04:45:24.03	253.05	40.27	-36.0	-37.2	17.7	0.00e+00	0	60	0	2749366272	41	4435
2026-01-13 04:45:25.04	252.70	40.09	-36.0	-37.2	17.7	0.00e+00	0	61	0	2756706304	41	4415
2026-01-13 04:45:26.05	252.36	39.90	-35.8	-37.1	17.8	0.00e+00	0	61	0	2764046336	41	4346
2026-01-13 04:45:27.06	252.02	39.72	-35.8	-37.1	17.9	0.00e+00	0	61	0	2771386368	41	4343
2026-01-13 04:45:28.07	251.69	39.53	-35.8	-37.0	17.9	0.00e+00	0	60	0	2778726400	41	4322
2026-01-13 04:45:29.08	251.36	39.35	-35.8	-37.1	17.9	0.00e+00	0	60	0	2786066432	41	4351
2026-01-13 04:45:30.09	251.04	39.16	-35.8	-37.0	17.9	0.00e+00	0	60	0	2793406464	41	4311
2026-01-13 04:45:31.10	250.72	38.98	-35.9	-37.1	17.9	0.00e+00	0	60	0	2800746496	41	4352
2026-01-13 04:45:32.11	250.40	38.79	-35.9	-37.1	17.8	0.00e+00	0	61	0	2808086528	41	4352
2026-01-13 04:45:33.12	250.08	38.61	-35.9	-37.2	17.8	0.00e+00	0	60	0	2815426560	41	4405
2026-01-13 04:45:34.13	249.77	38.42	-36.1	-37.4	17.5	0.00e+00	0	61	0	2822766592	41	4510
2026-01-13 04:45:35.14	249.47	38.24	-36.1	-37.4	17.5	0.00e+00	0	61	0	2830106624	41	4506
2026-01-13 04:45:36.15	249.16	38.05	-36.1	-37.3	17.6	0.00e+00	0	61	0	2837446656	41	4466
2026-01-13 04:45:37.16	248.86	37.87	-35.9	-37.1	17.8	0.00e+00	0	60	0	2844786688	41	4391
2026-01-13 04:45:38.17	248.57	37.68	-35.7	-36.9	17.9	0.00e+00	0	60	0	2851078144	41	4288
2026-01-13 04:45:39.18	248.27	37.50	-35.7	-36.9	17.9	0.00e+00	0	61	0	2858418176	41	4283
2026-01-13 04:45:40.19	247.98	37.31	-35.7	-36.9	18.0	0.00e+00	0	61	0	2865758208	41	4286
2026-01-13 04:45:41.20	247.70	37.13	-35.7	-36.9	17.9	0.00e+00	0	61	0	2873098240	41	4274
2026-01-13 04:45:42.21	247.41	36.94	-35.7	-36.9	18.0	0.00e+00	0	61	0	2880438272	41	4267
2026-01-13 04:45:43.22	247.13	36.76	-35.5	-36.7	18.2	0.00e+00	0	60	0	2887778304	41	4161
2026-01-13 04:45:44.23	246.86	36.57	-35.3	-36.4	18.5	0.00e+00	0	61	0	2895118336	41	4036
2026-01-13 04:45:45.24	246.58	36.39	-35.1	-36.2	18.7	0.00e+00	0	61	0	2902458368	41	3929
2026-01-13 04:45:46.25	246.31	36.21	-35.0	-36.1	18.7	0.00e+00	0	61	0	2909798400	41	3903
2026-01-13 04:45:47.25	246.05	36.03	-35.2	-36.3	18.5	0.00e+00	0	61	0	2917138432	41	3987
2026-01-13 04:45:48.27	245.78	35.84	-35.4	-36.5	18.4	0.00e+00	0	61	0	2924478464	41	4075
2026-01-13 04:45:49.28	245.52	35.66	-35.5	-36.7	18.2	0.00e+00	0	60	0	2931818496	41	4175
2026-01-13 04:45:50.28	245.26	35.48	-35.7	-36.9	17.9	0.00e+00	0	61	0	2939158528	41	4262
2026-01-13 04:45:51.30	245.00	35.30	-35.7	-37.0	18.0	0.00e+00	0	61	0	2946498560	41	4296
2026-01-13 04:45:52.30	244.75	35.12	-35.8	-37.0	17.7	0.00e+00	0	61	0	2953838592	41	4295
2026-01-13 04:45:53.32	244.50	34.93	-35.6	-36.8	18.1	0.00e+00	0	60	0	2961178624	41	4222
2026-01-13 04:45:54.33	244.25	34.75	-35.7	-36.9	18.0	0.00e+00	0	61	0	2968518656	41	4243
2026-01-13 04:45:55.34	244.01	34.57	-35.5	-36.7	18.2	0.00e+00	0	61	0	2974810112	41	4179
2026-01-13 04:45:56.35	243.76	34.39	-35.4	-36.6	18.3	0.00e+00	0	61	0	2983198720	41	4106
2026-01-13 04:45:57.36	243.53	34.22	-35.3	-36.4	18.4	0.00e+00	0	61	0	2990538752	41	4029
2026-01-13 04:45:58.37	243.29	34.04	-35.2	-36.4	18.5	0.00e+00	0	61	0	2996830208	41	4015
2026-01-13 04:45:59.37	243.06	33.86	-35.3	-36.5	18.3	0.00e+00	0	61	0	3004170240	41	4068
2026-01-13 04:46:00.38	242.82	33.68	-35.4	-36.6	18.3	0.00e+00	0	61	0	3011510272	41	4127
2026-01-13 04:46:01.40	242.59	33.50	-35.6	-36.8	18.0	0.00e+00	0	61	0	3018850304	41	4237
2026-01-13 04:46:02.40	242.37	33.33	-35.7	-36.9	17.9	0.00e+00	0	61	0	3026190336	41	4291
2026-01-13 04:46:03.41	242.14	33.15	-35.8	-37.0	17.9	0.00e+00	0	61	0	3033530368	41	4330
2026-01-13 04:46:04.42	241.92	32.98	-35.6	-36.9	18.0	0.00e+00	0	61	0	3040870400	41	4244
2026-01-13 04:46:05.43	241.70	32.80	-35.5	-36.6	18.2	0.00e+00	0	61	0	3048210432	41	4142
2026-01-13 04:46:06.44	241.49	32.63	-35.4	-36.5	18.3	0.00e+00	0	61	0	3055550464	41	4087
2026-01-13 04:46:07.45	241.27	32.45	-35.3	-36.5	18.4	0.00e+00	0	61	0	3062890496	41	4054
2026-01-13 04:46:08.46	241.06	32.28	-35.3	-36.4	18.4	0.00e+00	0	61	0	3070230528	41	4043
2026-01-13 04:46:09.47	240.85	32.11	-35.4	-36.6	18.2	0.00e+00	0	61	0	3077570560	41	4125
2026-01-13 04:46:10.48	240.64	31.94	-35.5	-36.7	18.1	0.00e+00	0	60	0	3084910592	41	4174
2026-01-13 04:46:11.49	240.44	31.76	-35.6	-36.8	18.0	0.00e+00	0	61	0	3092250624	41	4232
2026-01-13 04:46:12.50	240.23	31.59	-35.6	-36.8	18.0	0.00e+00	0	61	0	3099590656	41	4223
2026-01-13 04:46:13.51	240.03	31.42	-35.6	-36.8	18.1	0.00e+00	0	61	0	3106930688	41	4206
2026-01-13 04:46:14.52	239.83	31.25	-35.6	-36.8	18.1	0.00e+00	0	61	0	3114270720	41	4205
2026-01-13 04:46:15.53	239.64	31.08	-35.5	-36.7	18.1	0.00e+00	0	60	0	3121610752	41	4178
2026-01-13 04:46:16.54	239.44	30.91	-35.6	-36.8	18.0	0.00e+00	0	61	0	3128950784	41	4217
2026-01-13 04:46:17.55	239.25	30.75	-35.6	-36.8	18.0	0.00e+00	0	61	0	3136290816	41	4213
2026-01-13 04:46:18.56	239.06	30.58	-35.6	-36.8	18.0	0.00e+00	0	61	0	3143630848	41	4204
2026-01-13 04:46:19.57	238.87	30.41	-35.7	-36.9	18.0	0.00e+00	0	61	0	3149922304	41	4254
2026-01-13 04:46:20.58	238.68	30.24	-35.7	-36.9	17.9	0.00e+00	0	60	0	3157262336	41	4279
2026-01-13 04:46:21.59	238.50	30.08	-35.7	-36.9	17.9	0.00e+00	0	61	0	3165650944	41	4258
2026-01-13 04:46:22.60	238.31	29.91	-35.8	-37.0	17.9	0.00e+00	0	60	0	3171942400	41	4310
2026-01-13 04:46:23.61	238.13	29.75	-35.9	-37.1	17.7	0.00e+00	0	61	0	3179282432	41	4375
2026-01-13 04:46:24.62	237.95	29.59	-36.0	-37.2	17.6	0.00e+00	0	61	0	3186622464	41	4425
2026-01-13 04:46:25.63	237.77	29.42	-36.1	-37.3	17.5	0.00e+00	0	61	0	3193962496	41	4491
2026-01-13 04:46:26.64	237.60	29.26	-36.1	-37.3	17.5	0.00e+00	0	61	0	3201302528	41	4480
2026-01-13 04:46:27.65	237.42	29.10	-36.0	-37.3	17.5	0.00e+00	0	61	0	3208642560	41	4450
2026-01-13 04:46:28.66	237.25	28.94	-35.8	-37.0	17.7	0.00e+00	0	61	0	3215982592	41	4340
2026-01-13 04:46:29.67	237.08	28.78	-35.7	-36.9	17.9	0.00e+00	0	61	0	3223322624	41	4273
2026-01-13 04:46:30.68	236.91	28.62	-35.6	-36.8	18.1	0.00e+00	0	60	0	3230662656	41	4196
2026-01-13 04:46:31.69	236.75	28.46	-35.5	-36.7	18.1	0.00e+00	0	61	0	3238002688	41	4169
2026-01-13 04:46:32.69	236.58	28.30	-35.6	-36.7	18.1	0.00e+00	0	61	0	3245342720	41	4188
2026-01-13 04:46:33.71	236.42	28.14	-35.6	-36.8	18.1	0.00e+00	0	61	0	3252682752	41	4197
2026-01-13 04:46:34.71	236.26	27.98	-35.7	-36.9	17.9	0.00e+00	0	61	0	3260022784	41	4269
2026-01-13 04:46:35.72	236.10	27.83	-35.8	-37.0	17.8	0.00e+00	0	61	0	3267362816	41	4321
2026-01-13 04:46:36.73	235.94	27.67	-35.8	-37.1	17.7	0.00e+00	0	61	0	3273654272	41	4365
2026-01-13 04:46:37.74	235.78	27.51	-35.9	-37.1	17.7	0.00e+00	0	61	0	3280994304	41	4374
2026-01-13 04:46:38.75	235.62	27.36	-35.9	-37.1	17.7	0.00e+00	0	61	0	3289382912	41	4384
2026-01-13 04:46:39.76	235.47	27.21	-35.9	-37.2	17.6	0.00e+00	0	61	0	3295674368	41	4407
2026-01-13 04:46:40.77	235.32	27.05	-35.8	-37.1	17.7	0.00e+00	0	61	0	3303014400	41	4358
2026-01-13 04:46:41.78	235.16	26.90	-35.8	-37.0	17.8	0.00e+00	0	61	0	3310354432	41	4314
2026-01-13 04:46:42.79	235.01	26.75	-35.8	-37.0	17.8	0.00e+00	0	61	0	3317694464	41	4323
2026-01-13 04:46:43.80	234.87	26.59	-35.8	-37.0	17.8	0.00e+00	0	61	0	3325034496	41	4307
2026-01-13 04:46:44.80	234.72	26.44	-35.8	-37.0	17.8	0.00e+00	0	61	0	3332374528	41	4325
2026-01-13 04:46:45.81	234.58	26.29	-35.8	-37.0	17.8	0.00e+00	0	61	0	3339714560	41	4299
2026-01-13 04:46:46.82	234.43	26.14	-35.8	-37.0	17.8	0.00e+00	0	61	0	3347054592	41	4338
2026-01-13 04:46:47.83	234.29	26.00	-35.8	-37.0	17.8	0.00e+00	0	61	0	3354394624	41	4310
2026-01-13 04:46:48.84	234.15	25.85	-35.7	-37.0	17.8	0.00e+00	0	61	0	3361734656	41	4292
2026-01-13 04:46:49.85	234.01	25.70	-35.8	-37.0	17.8	0.00e+00	0	61	0	3369074688	41	4314
2026-01-13 04:46:50.86	233.87	25.55	-35.8	-37.0	17.8	0.00e+00	0	61	0	3376414720	41	4296
2026-01-13 04:46:51.87	233.73	25.40	-35.8	-37.0	17.7	0.00e+00	0	60	0	3383754752	41	4330
2026-01-13 04:46:52.88	233.59	25.26	-35.8	-37.0	17.8	0.00e+00	0	61	0	3391094784	41	4319
2026-01-13 04:46:53.89	233.46	25.11	-35.9	-37.1	17.7	0.00e+00	0	61	0	3398434816	41	4363
2026-01-13 04:46:54.90	233.33	24.97	-35.9	-37.1	17.7	0.00e+00	0	61	0	3405774848	41	4360
2026-01-13 04:46:55.91	233.19	24.82	-36.0	-37.2	17.5	0.00e+00	0	61	0	3413114880	41	4438
2026-01-13 04:46:56.92	233.06	24.68	-36.0	-37.3	17.5	0.00e+00	0	61	0	3420454912	41	4458
2026-01-13 04:46:57.93	232.93	24.54	-36.1	-37.3	17.4	0.00e+00	0	60	0	3426746368	41	4481
2026-01-13 04:46:58.94	232.80	24.39	-36.1	-37.3	17.4	0.00e+00	0	61	0	3435134976	41	4492
2026-01-13 04:46:59.95	232.67	24.25	-36.1	-37.4	17.4	0.00e+00	0	61	0	3442475008	41	4510
2026-01-13 04:47:00.96	232.55	24.11	-36.2	-37.4	17.3	0.00e+00	0	61	0	3448766464	41	4541
2026-01-13 04:47:01.97	232.42	23.97	-36.2	-37.4	17.3	0.00e+00	0	61	0	3456106496	41	4543
2026-01-13 04:47:02.98	232.30	23.83	-36.1	-37.4	17.3	0.00e+00	0	61	0	3463446528	41	4508
2026-01-13 04:47:03.99	232.18	23.69	-36.2	-37.5	17.3	0.00e+00	0	61	0	3470786560	41	4556
2026-01-13 04:47:05.00	232.05	23.55	-36.1	-37.4	17.3	0.00e+00	0	61	0	3478126592	41	4545
2026-01-13 04:47:06.01	231.93	23.41	-36.1	-37.4	17.4	0.00e+00	0	61	0	3485466624	41	4510
2026-01-13 04:47:07.02	231.81	23.28	-36.1	-37.4	17.3	0.00e+00	0	61	0	3492806656	41	4511
2026-01-13 04:47:08.03	231.69	23.14	-36.1	-37.4	17.3	0.00e+00	0	61	0	3500146688	41	4514
2026-01-13 04:47:09.04	231.58	23.00	-36.1	-37.4	17.3	0.00e+00	0	61	0	3507486720	41	4501
2026-01-13 04:47:10.05	231.46	22.87	-36.1	-37.4	17.3	0.00e+00	0	61	0	3514826752	41	4494
2026-01-13 04:47:11.06	231.34	22.73	-36.1	-37.3	17.4	0.00e+00	0	60	0	3522166784	41	4472
2026-01-13 04:47:12.06	231.23	22.60	-36.1	-37.3	17.4	0.00e+00	0	61	0	3529506816	41	4490
2026-01-13 04:47:13.07	231.12	22.47	-36.1	-37.4	17.3	0.00e+00	0	61	0	3536846848	41	4527
2026-01-13 04:47:14.08	231.00	22.33	-36.1	-37.4	17.3	0.00e+00	0	61	0	3544186880	41	4527
2026-01-13 04:47:15.09	230.89	22.20	-36.2	-37.4	17.2	0.00e+00	0	61	0	3551526912	41	4543
2026-01-13 04:47:16.10	230.78	22.07	-36.2	-37.4	17.3	0.00e+00	0	61	0	3558866944	42	4286
2026-01-13 04:47:17.11	230.67	21.94	-36.3	-37.6	17.1	0.00e+00	0	61	0	3566206976	42	4381
2026-01-13 04:47:18.12	230.56	21.80	-36.3	-37.6	17.1	0.00e+00	0	61	0	3572498432	42	4383
2026-01-13 04:47:19.13	230.46	21.67	-36.4	-37.7	17.0	0.00e+00	0	61	0	3579838464	42	4425
2026-01-13 04:47:20.14	230.35	21.54	-36.4	-37.7	17.0	0.00e+00	0	61	0	3587178496	42	4439
2026-01-13 04:47:21.15	230.24	21.41	-36.4	-37.8	16.9	0.00e+00	0	60	0	3594518528	42	4457
2026-01-13 04:47:22.16	230.14	21.29	-36.4	-37.8	17.0	0.00e+00	0	61	0	3601858560	42	4448
2026-01-13 04:47:23.17	230.03	21.16	-36.5	-37.8	16.9	0.00e+00	0	61	0	3609198592	42	4474
2026-01-13 04:47:24.18	229.93	21.03	-36.6	-37.9	16.8	0.00e+00	0	61	0	3616538624	42	4518
2026-01-13 04:47:25.19	229.83	20.90	-36.6	-37.9	16.8	0.00e+00	0	61	0	3623878656	42	4526
2026-01-13 04:47:26.20	229.73	20.77	-36.6	-38.0	16.7	0.00e+00	0	61	0	3631218688	42	4563
2026-01-13 04:47:27.21	229.63	20.65	-36.7	-38.1	16.6	0.00e+00	0	61	0	3638558720	42	4607
2026-01-13 04:47:28.22	229.53	20.52	-36.8	-38.2	16.5	0.00e+00	0	60	0	3645898752	43	4396
2026-01-13 04:47:29.24	229.43	20.40	-36.9	-38.3	16.4	0.00e+00	0	61	0	3653238784	43	4449
2026-01-13 04:47:30.25	229.33	20.27	-36.9	-38.3	16.4	0.00e+00	0	61	0	3660578816	43	4442
2026-01-13 04:47:31.26	229.23	20.15	-37.0	-38.4	16.3	0.00e+00	0	61	0	3667918848	43	4508
2026-01-13 04:47:32.27	229.13	20.02	-37.0	-38.4	16.2	0.00e+00	0	61	0	3675258880	43	4545
2026-01-13 04:47:33.28	229.04	19.90	-37.0	-38.4	16.3	0.00e+00	0	61	0	3682598912	43	4531
2026-01-13 04:47:34.29	228.94	19.78	-37.0	-38.5	16.2	0.00e+00	0	61	0	3689938944	43	4549
2026-01-13 04:47:35.30	228.85	19.66	-37.0	-38.4	16.3	0.00e+00	0	61	0	3697278976	43	4529
2026-01-13 04:47:36.31	228.75	19.54	-37.0	-38.4	16.2	0.00e+00	0	61	0	3704619008	43	4522
2026-01-13 04:47:37.32	228.66	19.41	-37.0	-38.4	16.3	0.00e+00	0	61	0	3711959040	43	4513
2026-01-13 04:47:38.33	228.57	19.29	-36.9	-38.3	16.3	0.00e+00	0	61	0	3719299072	43	4481
2026-01-13 04:47:39.34	228.48	19.17	-37.0	-38.4	16.2	0.00e+00	0	61	0	3725590528	43	4507
2026-01-13 04:47:40.35	228.39	19.05	-36.9	-38.3	16.4	0.00e+00	0	61	0	3733979136	43	4460
2026-01-13 04:47:41.36	228.30	18.94	-36.8	-38.2	16.4	0.00e+00	0	61	0	3741319168	43	4420
2026-01-13 04:47:42.37	228.21	18.82	-36.8	-38.2	16.4	0.00e+00	0	61	0	3747610624	43	4428
2026-01-13 04:47:43.38	228.12	18.70	-36.8	-38.2	16.4	0.00e+00	0	61	0	3754950656	43	4418
2026-01-13 04:47:44.39	228.03	18.58	-36.8	-38.2	16.4	0.00e+00	0	61	0	3762290688	43	4417
2026-01-13 04:47:45.40	227.95	18.47	-36.8	-38.2	16.4	0.00e+00	0	61	0	3769630720	43	4432
2026-01-13 04:47:46.41	227.86	18.35	-36.9	-38.4	16.3	0.00e+00	0	61	0	3776970752	43	4508
2026-01-13 04:47:47.42	227.77	18.23	-36.9	-38.3	16.3	0.00e+00	0	61	0	3784310784	43	4489
2026-01-13 04:47:48.43	227.69	18.12	-37.0	-38.4	16.2	0.00e+00	0	61	0	3791650816	43	4537
2026-01-13 04:47:49.43	227.60	18.00	-37.1	-38.6	16.0	0.00e+00	0	61	0	3798990848	43	4615
2026-01-13 04:47:50.44	227.52	17.89	-37.1	-38.5	16.1	0.00e+00	0	61	0	3806330880	43	4587
2026-01-13 04:47:51.46	227.44	17.77	-37.4	-38.9	15.9	0.00e+00	0	61	0	3813670912	44	4511
2026-01-13 04:47:52.47	227.35	17.66	-37.5	-39.0	15.8	0.00e+00	0	61	0	3821010944	44	4548
2026-01-13 04:47:53.48	227.27	17.55	-37.5	-39.0	15.7	0.00e+00	0	61	0	3828350976	44	4583
2026-01-13 04:47:54.49	227.19	17.43	-37.5	-39.0	15.7	0.00e+00	0	61	0	3835691008	44	4598
2026-01-13 04:47:55.50	227.11	17.32	-37.5	-39.0	15.7	0.00e+00	0	61	0	3843031040	44	4594
2026-01-13 04:47:56.51	227.03	17.21	-37.6	-39.1	15.6	0.00e+00	0	61	0	3850371072	44	4621
2026-01-13 04:47:57.52	226.95	17.10	-37.6	-39.1	15.5	0.00e+00	0	61	0	3857711104	45	4386
2026-01-13 04:47:58.53	226.87	16.99	-37.7	-39.2	15.5	0.00e+00	0	61	0	3865051136	45	4420
2026-01-13 04:47:59.54	226.80	16.88	-37.6	-39.1	15.6	0.00e+00	0	61	0	3871342592	45	4364
2026-01-13 04:48:00.55	226.72	16.77	-37.6	-39.2	15.5	0.00e+00	0	61	0	3879731200	45	4401
2026-01-13 04:48:01.55	226.64	16.66	-37.6	-39.1	15.6	0.00e+00	0	61	0	3887071232	45	4383
2026-01-13 04:48:02.56	226.57	16.55	-37.6	-39.1	15.6	0.00e+00	0	61	0	3893362688	45	4387
2026-01-13 04:48:03.57	226.49	16.44	-37.6	-39.1	15.6	0.00e+00	0	61	0	3900702720	45	4380
2026-01-13 04:48:04.59	226.41	16.33	-37.7	-39.2	15.4	0.00e+00	0	61	0	3908042752	45	4437
2026-01-13 04:48:05.60	226.34	16.22	-37.7	-39.3	15.4	0.00e+00	0	61	0	3915382784	45	4442
2026-01-13 04:48:06.61	226.27	16.12	-37.7	-39.3	15.4	0.00e+00	0	61	0	3922722816	45	4456
2026-01-13 04:48:07.62	226.19	16.01	-37.7	-39.3	15.4	0.00e+00	0	61	0	3930062848	45	4451
2026-01-13 04:48:08.63	226.12	15.90	-37.7	-39.3	15.4	0.00e+00	0	61	0	3937402880	45	4444
2026-01-13 04:48:09.64	226.05	15.80	-37.8	-39.3	15.3	0.00e+00	0	61	0	3944742912	45	4483
2026-01-13 04:48:10.65	225.97	15.69	-37.7	-39.3	15.3	0.00e+00	0	61	0	3952082944	45	4474
2026-01-13 04:48:11.66	225.90	15.58	-37.8	-39.4	15.3	0.00e+00	0	61	0	3959422976	45	4512
2026-01-13 04:48:12.67	225.83	15.48	-37.9	-39.5	15.2	0.00e+00	0	61	0	3966763008	45	4562
2026-01-13 04:48:13.68	225.76	15.38	-37.9	-39.5	15.2	0.00e+00	0	61	0	3974103040	45	4546
2026-01-13 04:48:14.69	225.69	15.27	-37.8	-39.4	15.2	0.00e+00	0	61	0	3981443072	45	4512
2026-01-13 04:48:15.70	225.62	15.17	-37.9	-39.5	15.1	0.00e+00	0	61	0	3988783104	45	4571
2026-01-13 04:48:16.71	225.55	15.06	-37.9	-39.4	15.2	0.00e+00	0	61	0	3996123136	45	4544
2026-01-13 04:48:17.72	225.48	14.96	-37.8	-39.4	15.2	0.00e+00	0	61	0	4003463168	45	4545
2026-01-13 04:48:18.73	225.42	14.86	-38.0	-39.6	15.0	0.00e+00	0	61	0	4010803200	45	4609
2026-01-13 04:48:19.74	225.35	14.76	-37.9	-39.5	15.1	0.00e+00	0	61	0	4018143232	45	4573
2026-01-13 04:48:20.75	225.28	14.65	-37.8	-39.5	15.1	0.00e+00	0	61	0	4025483264	45	4548
2026-01-13 04:48:21.77	225.22	14.55	-37.9	-39.5	15.1	0.00e+00	0	61	0	4032823296	45	4582
2026-01-13 04:48:22.78	225.15	14.45	-37.9	-39.6	15.0	0.00e+00	0	61	0	4040163328	45	4607
2026-01-13 04:48:23.79	225.08	14.35	-38.0	-39.6	15.0	0.00e+00	0	61	0	4046454784	45	4636
2026-01-13 04:48:24.80	225.02	14.25	-38.0	-39.6	15.0	1.10e-06	0	61	0	4054843392	45	4622
2026-01-13 04:48:25.81	224.95	14.15	-37.9	-39.6	15.0	0.00e+00	0	61	0	4062183424	45	4605
2026-01-13 04:48:26.81	224.89	14.05	-37.9	-39.5	15.1	0.00e+00	0	61	0	4068474880	45	4581
2026-01-13 04:48:27.82	224.83	13.95	-37.9	-39.6	15.0	0.00e+00	0	61	0	4075814912	45	4608
2026-01-13 04:48:28.83	224.76	13.85	-38.0	-39.7	14.9	0.00e+00	0	61	0	4083154944	45	4662
2026-01-13 04:48:29.84	224.70	13.76	-38.0	-39.7	14.9	0.00e+00	0	61	0	4090494976	45	4660
2026-01-13 04:48:30.85	224.64	13.66	-38.0	-39.7	14.9	0.00e+00	0	61	0	4097835008	45	4676
2026-01-13 04:48:31.86	224.58	13.56	-38.1	-39.8	14.7	0.00e+00	0	61	0	4105175040	45	4737
2026-01-13 04:48:32.87	224.51	13.46	-38.1	-39.7	14.8	0.00e+00	0	61	0	4112515072	45	4698
2026-01-13 04:48:33.88	224.45	13.37	-38.2	-39.9	14.7	0.00e+00	0	61	0	4119855104	45	4763
2026-01-13 04:48:34.89	224.39	13.27	-38.3	-40.0	14.5	2.20e-06	0	61	0	4127195136	46	4577
2026-01-13 04:48:35.90	224.33	13.17	-38.2	-39.9	14.6	0.00e+00	0	61	0	4134535168	46	4536
2026-01-13 04:48:36.91	224.27	13.08	-38.4	-40.2	14.3	0.00e+00	0	61	0	4141875200	46	4656
2026-01-13 04:48:37.92	224.21	12.98	-38.3	-40.1	14.4	0.00e+00	0	61	0	4149215232	46	4607
