passes_logs/2026/01/13/R2.0S_Moscow/R2.0S_Moscow__20260113_084344_NOAA_20_JPSS-1_rec.log

#Pass ID: 20260113_084344_NOAA 20 (JPSS-1)
#Satellite: NOAA 20 (JPSS-1)
#Configuration: NOAA 20
#almurnet v.1.7.20251203
#Start time: 2026-01-13 08:43:45

#Version: 2.2.20231116
#Station: R2.0S_Moscow
#Location: 37.707566 lon 55.798166 lat
#TLE: 1 43013U 17073A   26012.29914746  .00000087  00000+0  62270-4 0  9997
#TLE: 2 43013  98.7632 313.2670 0001616  43.2193 316.9110 14.19535514422351

#Time	Az	El	Level	Level2	SNR	BER	BlckErr	Temp	State	Recorded	gain1	gain2
2026-01-13 08:43:45.13	125.80	2.02	-16.3	-32.8	3.7	1.50e+00	0	49	0	0	2	26505
2026-01-13 08:43:46.13	125.75	2.08	-22.6	-34.0	3.9	1.49e+00	0	49	104	0	0	34154
2026-01-13 08:43:47.14	125.70	2.15	-23.0	-40.3	3.1	1.49e+00	0	49	104	0	4	56216
2026-01-13 08:43:48.15	125.65	2.21	-13.8	-36.1	3.6	1.50e+00	0	50	104	0	4	34612
2026-01-13 08:43:49.16	125.60	2.27	-10.5	-34.5	3.5	1.49e+00	0	50	104	0	4	28833
2026-01-13 08:43:50.17	125.55	2.33	-15.2	-33.9	3.6	1.49e+00	0	50	104	0	0	33841
2026-01-13 08:43:51.18	125.50	2.39	-23.9	-39.3	3.9	1.50e+00	0	50	104	0	12	31531
2026-01-13 08:43:52.19	125.45	2.45	-9.5	-33.2	3.6	1.49e+00	0	50	104	0	0	31095
2026-01-13 08:43:53.20	125.40	2.51	-9.1	-31.8	3.5	1.49e+00	0	50	104	0	0	26709
2026-01-13 08:43:54.21	125.35	2.58	-10.3	-31.5	3.8	1.50e+00	0	50	104	0	6	18269
2026-01-13 08:43:55.22	125.30	2.64	-14.0	-31.0	3.4	1.49e+00	0	50	104	0	3	20497
2026-01-13 08:43:56.23	125.25	2.70	-15.8	-34.1	3.9	1.49e+00	0	50	104	0	8	21965
2026-01-13 08:43:57.24	125.19	2.76	-10.8	-31.5	3.2	1.50e+00	0	50	104	0	0	25823
2026-01-13 08:43:58.25	125.14	2.82	-9.8	-33.5	4.0	1.50e+00	0	50	104	0	0	32243
2026-01-13 08:43:59.26	125.09	2.89	-14.3	-34.7	3.5	1.49e+00	0	50	104	0	0	37063
2026-01-13 08:44:00.27	125.04	2.95	-23.3	-41.8	4.1	1.49e+00	0	50	104	0	14	37784
2026-01-13 08:44:01.28	124.99	3.01	-24.1	-44.9	3.3	1.49e+00	0	50	104	0	17	44986
2026-01-13 08:44:02.29	124.93	3.07	-13.2	-32.2	3.5	1.49e+00	0	50	104	0	0	27879
2026-01-13 08:44:03.31	124.88	3.14	-25.0	-46.1	3.9	1.50e+00	0	51	104	0	20	43670
2026-01-13 08:44:04.32	124.83	3.20	-24.6	-42.8	3.7	1.50e+00	0	51	104	0	18	33403
2026-01-13 08:44:05.33	124.77	3.26	-11.0	-32.6	3.3	1.50e+00	0	51	104	0	8	18503
2026-01-13 08:44:06.34	124.72	3.33	-15.3	-36.1	7.1	1.49e+00	0	51	104	0	10	24548
2026-01-13 08:44:07.35	124.67	3.39	-17.0	-38.3	3.8	1.50e+00	0	51	104	0	14	25199
2026-01-13 08:44:08.36	124.61	3.45	-10.6	-36.9	3.5	1.50e+00	0	51	104	0	3	40091
2026-01-13 08:44:09.37	124.56	3.52	-23.2	-45.1	3.9	1.49e+00	0	51	104	0	19	41409
2026-01-13 08:44:10.38	124.50	3.58	-21.2	-38.7	3.6	1.49e+00	0	51	104	0	14	26419
2026-01-13 08:44:11.39	124.45	3.65	-16.1	-31.5	3.8	1.50e+00	0	51	104	0	0	25695
2026-01-13 08:44:12.40	124.39	3.71	-24.3	-44.4	3.6	1.50e+00	0	51	104	0	19	37877
2026-01-13 08:44:13.41	124.34	3.77	-21.4	-44.5	3.8	1.50e+00	0	51	104	0	17	43347
2026-01-13 08:44:14.42	124.28	3.84	-14.9	-36.8	3.6	1.50e+00	0	52	104	0	7	31601
2026-01-13 08:44:15.43	124.22	3.90	-25.3	-43.6	3.9	1.49e+00	0	51	104	0	15	43583
2026-01-13 08:44:16.44	124.17	3.97	-20.1	-38.6	3.7	1.50e+00	0	52	104	0	17	21879
2026-01-13 08:44:17.45	124.11	4.03	-17.0	-34.4	3.6	1.50e+00	0	52	104	0	9	21385
2026-01-13 08:44:18.46	124.06	4.10	-23.4	-42.7	3.4	1.49e+00	0	52	104	0	14	41573
2026-01-13 08:44:19.47	124.00	4.16	-23.2	-41.9	3.9	1.50e+00	0	52	104	0	14	37838
2026-01-13 08:44:20.48	123.94	4.23	-20.2	-41.5	3.4	1.50e+00	0	51	104	0	15	34460
2026-01-13 08:44:21.49	123.88	4.29	-21.5	-41.9	3.6	1.50e+00	0	52	104	0	18	30209
2026-01-13 08:44:22.50	123.83	4.36	-21.5	-41.5	-2.0	1.50e+00	0	52	104	0	13	38556
2026-01-13 08:44:23.51	123.77	4.42	-21.9	-38.7	3.3	1.50e+00	0	52	104	0	7	39575
2026-01-13 08:44:24.52	123.71	4.49	-22.1	-40.0	3.5	1.50e+00	0	52	104	0	14	30500
2026-01-13 08:44:25.54	123.65	4.55	-10.9	-34.4	3.5	1.50e+00	0	52	104	0	0	35865
2026-01-13 08:44:26.55	123.59	4.62	-16.8	-35.8	3.9	1.50e+00	0	52	104	0	8	26710
2026-01-13 08:44:27.56	123.53	4.68	-24.0	-43.7	3.7	1.50e+00	0	52	104	0	16	41896
2026-01-13 08:44:28.57	123.47	4.75	-25.9	-42.4	3.7	1.50e+00	0	52	104	0	17	33825
2026-01-13 08:44:29.58	123.41	4.82	-11.1	-32.5	4.0	1.50e+00	0	52	104	0	2	25618
2026-01-13 08:44:30.59	123.35	4.88	-9.4	-35.3	3.6	1.49e+00	0	52	104	0	2	35494
2026-01-13 08:44:31.60	123.29	4.95	-11.0	-31.1	3.8	1.49e+00	0	52	104	0	0	24477
2026-01-13 08:44:32.61	123.23	5.02	-10.7	-31.9	3.2	1.49e+00	0	52	104	0	0	26833
2026-01-13 08:44:33.62	123.17	5.08	-20.9	-32.2	3.3	1.49e+00	0	52	104	0	0	27847
2026-01-13 08:44:34.63	123.11	5.15	-22.0	-43.7	3.5	1.50e+00	0	52	104	0	18	36957
2026-01-13 08:44:35.64	123.05	5.22	-16.3	-35.1	3.7	1.50e+00	0	53	104	0	8	24666
2026-01-13 08:44:36.65	122.99	5.28	-24.8	-41.3	3.8	1.50e+00	0	52	104	0	15	33374
2026-01-13 08:44:37.66	122.93	5.35	-22.1	-43.5	3.4	1.50e+00	0	53	104	0	14	45741
2026-01-13 08:44:38.67	122.86	5.42	-15.3	-35.8	4.0	1.50e+00	0	53	104	0	5	31663
2026-01-13 08:44:39.68	122.80	5.49	-16.9	-35.2	4.0	1.50e+00	0	53	104	0	6	27772
2026-01-13 08:44:40.69	122.74	5.55	-16.7	-36.1	3.6	1.49e+00	0	53	104	0	9	26060
2026-01-13 08:44:41.70	122.67	5.62	-17.2	-33.3	3.8	1.50e+00	0	53	104	0	6	22461
2026-01-13 08:44:42.71	122.61	5.69	-14.3	-32.8	3.8	1.50e+00	0	53	104	0	7	19970
2026-01-13 08:44:43.72	122.55	5.76	-23.4	-41.7	3.2	1.50e+00	0	53	104	0	15	35245
2026-01-13 08:44:44.73	122.48	5.83	-23.9	-43.5	3.7	1.50e+00	0	53	104	0	16	40963
2026-01-13 08:44:45.74	122.42	5.89	-23.2	-41.6	3.9	1.50e+00	0	53	104	0	16	32706
2026-01-13 08:44:46.76	122.35	5.96	-14.6	-33.5	3.8	1.50e+00	0	53	104	0	5	24155
2026-01-13 08:44:47.77	122.29	6.03	-22.7	-42.1	3.7	1.50e+00	0	53	104	0	16	34525
2026-01-13 08:44:48.77	122.22	6.10	-13.6	-34.8	3.6	1.50e+00	0	53	104	0	7	25212
2026-01-13 08:44:49.79	122.16	6.17	-18.3	-38.3	3.4	1.50e+00	0	53	104	0	9	33682
2026-01-13 08:44:50.80	122.09	6.24	-20.6	-36.3	3.8	1.50e+00	0	53	104	0	13	21040
2026-01-13 08:44:51.80	122.03	6.31	-12.9	-36.6	3.6	1.50e+00	0	53	104	0	13	21889
2026-01-13 08:44:52.81	121.96	6.38	-19.4	-36.6	3.7	1.50e+00	0	53	104	0	9	27566
2026-01-13 08:44:53.82	121.89	6.45	-14.9	-34.8	3.4	1.50e+00	0	53	104	0	5	28224
2026-01-13 08:44:54.83	121.82	6.52	-23.5	-38.5	13.0	1.49e+00	0	53	104	0	3	48369
2026-01-13 08:44:55.85	121.76	6.59	-19.8	-36.3	4.5	1.50e+00	0	53	104	0	5	33416
2026-01-13 08:44:56.86	121.69	6.66	-22.4	-37.4	3.0	1.49e+00	0	53	104	0	1	47712
2026-01-13 08:44:57.87	121.62	6.73	-13.1	-38.9	3.2	1.50e+00	0	53	104	0	5	45173
2026-01-13 08:44:58.88	121.55	6.80	-20.4	-39.5	3.4	1.50e+00	0	54	104	0	12	32341
2026-01-13 08:44:59.89	121.48	6.87	-12.9	-31.9	4.4	1.49e+00	0	53	104	0	6	18963
2026-01-13 08:45:00.90	121.41	6.94	-21.8	-35.5	3.5	1.50e+00	0	54	104	0	1	38612
2026-01-13 08:45:01.91	121.34	7.01	-14.5	-34.2	3.4	1.50e+00	0	54	104	0	3	29470
2026-01-13 08:45:02.92	121.27	7.08	-11.9	-36.9	3.4	1.50e+00	0	54	104	0	5	36035
2026-01-13 08:45:03.93	121.20	7.15	-21.0	-41.9	3.5	1.50e+00	0	54	104	0	14	37913
2026-01-13 08:45:04.94	121.13	7.22	-21.0	-38.2	3.8	1.50e+00	0	54	104	0	9	33302
2026-01-13 08:45:05.95	121.06	7.29	-20.8	-40.3	3.7	1.50e+00	0	54	104	0	15	29735
2026-01-13 08:45:06.96	120.99	7.37	-22.1	-41.4	3.6	1.50e+00	0	54	104	0	14	35989
2026-01-13 08:45:07.97	120.92	7.44	-11.4	-31.9	3.8	1.49e+00	0	54	104	0	0	26987
2026-01-13 08:45:08.98	120.84	7.51	-23.3	-40.4	3.3	1.50e+00	0	54	104	0	11	37942
2026-01-13 08:45:09.99	120.77	7.58	-23.3	-41.3	3.5	1.50e+00	0	54	104	0	8	49931
2026-01-13 08:45:11.00	120.70	7.65	-18.9	-41.1	3.9	1.50e+00	0	54	104	0	13	36663
2026-01-13 08:45:12.01	120.63	7.73	-10.2	-31.4	3.7	1.50e+00	0	54	104	0	0	25379
2026-01-13 08:45:13.02	120.55	7.80	-22.2	-36.5	3.7	1.50e+00	0	54	104	0	4	36367
2026-01-13 08:45:14.03	120.48	7.87	-20.1	-39.4	4.0	1.50e+00	0	54	104	0	11	33970
2026-01-13 08:45:15.04	120.40	7.94	-20.4	-36.1	3.7	1.50e+00	0	54	104	0	9	26022
2026-01-13 08:45:16.05	120.33	8.02	-21.4	-38.4	3.6	1.50e+00	0	54	104	0	11	30361
2026-01-13 08:45:17.06	120.25	8.09	-12.6	-37.1	3.6	1.50e+00	0	54	104	0	13	23145
2026-01-13 08:45:18.07	120.18	8.16	-10.3	-32.1	3.4	1.50e+00	0	54	104	0	0	27619
2026-01-13 08:45:19.08	120.10	8.24	-9.2	-28.3	3.3	1.49e+00	0	54	104	0	0	17815
2026-01-13 08:45:20.09	120.02	8.31	-17.1	-36.1	3.7	1.50e+00	0	54	104	0	11	23072
2026-01-13 08:45:21.10	119.95	8.38	-7.0	-31.5	3.9	1.50e+00	0	54	104	0	0	25800
2026-01-13 08:45:22.11	119.87	8.46	-21.9	-38.5	3.7	1.49e+00	0	54	104	0	10	32440
2026-01-13 08:45:23.12	119.79	8.53	-19.7	-37.4	3.7	1.50e+00	0	54	104	0	10	28447
2026-01-13 08:45:24.13	119.71	8.61	-20.9	-37.5	3.6	1.50e+00	0	54	104	0	9	30610
2026-01-13 08:45:25.14	119.64	8.68	-12.4	-30.0	3.2	1.50e+00	0	54	104	0	0	21638
2026-01-13 08:45:26.15	119.56	8.76	-20.1	-35.4	3.9	1.50e+00	0	55	104	0	4	32164
2026-01-13 08:45:27.16	119.48	8.83	-17.6	-35.8	3.6	1.50e+00	0	55	104	0	9	25145
2026-01-13 08:45:28.17	119.40	8.91	-18.1	-36.0	3.7	1.50e+00	0	54	104	0	7	28907
2026-01-13 08:45:29.17	119.32	8.98	-22.8	-39.2	3.6	1.50e+00	0	54	0	0	12	31316
2026-01-13 08:45:30.18	119.24	9.06	-27.2	-43.7	4.2	1.50e+00	0	55	104	0	20	32992
2026-01-13 08:45:31.19	119.16	9.13	-17.1	-36.8	3.9	1.50e+00	0	55	104	0	4	37738
2026-01-13 08:45:32.20	119.08	9.21	-30.1	-43.7	3.2	1.50e+00	0	55	104	0	10	58897
2026-01-13 08:45:33.21	118.99	9.28	-23.4	-38.9	4.0	1.50e+00	0	55	104	0	18	21269
2026-01-13 08:45:34.22	118.91	9.36	-24.2	-41.3	3.8	1.50e+00	0	55	104	0	18	28316
2026-01-13 08:45:35.23	118.83	9.44	-14.3	-33.1	3.7	1.50e+00	0	55	104	0	1	29018
2026-01-13 08:45:36.24	118.75	9.51	-22.4	-40.3	3.6	1.50e+00	0	55	104	0	8	44535
2026-01-13 08:45:37.25	118.66	9.59	-16.5	-31.7	3.9	1.50e+00	0	55	104	0	0	26395
2026-01-13 08:45:38.27	118.58	9.67	-14.2	-32.0	3.8	1.50e+00	0	55	104	0	1	25704
2026-01-13 08:45:39.27	118.49	9.74	-22.2	-36.5	3.5	1.50e+00	0	55	104	0	3	38335
2026-01-13 08:45:40.28	118.41	9.82	-13.8	-32.7	3.7	1.49e+00	0	55	104	0	1	27744
2026-01-13 08:45:41.29	118.32	9.90	-12.0	-29.8	4.3	1.49e+00	0	55	104	0	0	21232
2026-01-13 08:45:42.30	118.24	9.97	-11.3	-29.7	3.7	1.49e+00	0	55	104	0	0	20792
2026-01-13 08:45:43.31	118.15	10.05	-16.7	-33.6	-1.2	1.50e+00	0	55	104	0	9	19400
2026-01-13 08:45:44.32	118.06	10.13	-23.9	-42.0	4.0	1.50e+00	0	55	104	0	25	20501
2026-01-13 08:45:45.33	117.98	10.21	-10.7	-30.1	3.8	1.50e+00	0	55	104	0	0	21790
2026-01-13 08:45:46.34	117.89	10.29	-8.3	-29.8	3.7	1.50e+00	0	55	104	0	0	21082
2026-01-13 08:45:47.35	117.80	10.36	-19.6	-35.5	3.7	1.50e+00	0	55	104	0	6	28847
2026-01-13 08:45:48.36	117.71	10.44	-22.8	-35.9	3.7	1.50e+00	0	55	104	0	7	28646
2026-01-13 08:45:49.37	117.62	10.52	-18.5	-36.0	3.7	1.50e+00	0	55	104	0	10	24387
2026-01-13 08:45:50.38	117.53	10.60	-27.7	-39.4	3.7	1.50e+00	0	55	104	0	13	30377
2026-01-13 08:45:51.39	117.44	10.68	-32.0	-48.9	3.9	1.50e+00	0	55	104	0	34	26922
2026-01-13 08:45:52.40	117.35	10.76	-18.5	-33.8	3.4	1.50e+00	0	55	104	0	18	11945
2026-01-13 08:45:53.41	117.26	10.84	-17.3	-39.5	3.6	1.50e+00	0	55	104	0	20	20403
2026-01-13 08:45:54.42	117.17	10.92	-19.7	-34.7	3.6	1.50e+00	0	55	104	0	13	17533
2026-01-13 08:45:55.43	117.07	11.00	-13.5	-31.0	3.6	1.50e+00	0	55	104	0	11	12848
2026-01-13 08:45:56.44	116.98	11.08	-14.9	-31.0	4.0	1.50e+00	0	55	104	0	1	22974
2026-01-13 08:45:57.45	116.89	11.16	-22.1	-41.1	3.8	1.50e+00	0	55	104	0	24	19429
2026-01-13 08:45:58.46	116.79	11.24	-27.8	-42.6	3.9	1.50e+00	0	55	104	0	22	25958
2026-01-13 08:45:59.47	116.70	11.32	-23.8	-45.2	4.2	1.51e+00	0	55	104	0	29	23511
2026-01-13 08:46:00.48	116.60	11.40	-23.3	-42.3	4.0	1.50e+00	0	55	104	0	27	18893
2026-01-13 08:46:01.49	116.51	11.48	-15.2	-33.6	3.6	1.50e+00	0	55	104	0	4	26116
2026-01-13 08:46:02.49	116.41	11.56	-24.0	-40.6	4.2	1.50e+00	0	55	104	0	21	21817
2026-01-13 08:46:03.50	116.32	11.64	-26.4	-38.1	3.7	1.50e+00	0	55	104	0	21	16500
2026-01-13 08:46:04.51	116.22	11.72	-30.0	-44.7	3.9	1.50e+00	0	55	104	0	27	24814
2026-01-13 08:46:05.52	116.12	11.81	-22.5	-42.6	4.0	1.50e+00	0	55	104	0	26	20695
2026-01-13 08:46:06.53	116.02	11.89	-29.9	-45.3	4.2	1.47e+00	0	56	104	0	31	21090
2026-01-13 08:46:07.54	115.93	11.97	-35.5	-53.5	4.1	1.50e+00	0	55	104	0	43	27254
2026-01-13 08:46:08.55	115.83	12.05	-33.5	-45.9	4.8	1.51e+00	0	56	104	0	39	14245
2026-01-13 08:46:09.56	115.73	12.14	-33.7	-45.3	4.8	1.48e+00	0	56	104	0	37	14891
2026-01-13 08:46:10.57	115.63	12.22	-38.2	-51.0	4.2	1.47e+00	0	56	104	0	43	20402
2026-01-13 08:46:11.58	115.52	12.30	-39.8	-51.5	4.2	1.45e+00	0	56	104	0	44	20408
2026-01-13 08:46:12.59	115.42	12.38	-38.0	-50.4	4.7	1.39e+00	0	56	104	0	34	31932
2026-01-13 08:46:13.60	115.32	12.47	-37.4	-51.3	5.0	1.46e+00	12	56	104	0	46	17722
2026-01-13 08:46:14.61	115.22	12.55	-29.5	-50.5	4.2	1.46e+00	0	56	104	0	45	17118
2026-01-13 08:46:15.62	115.11	12.63	-40.4	-51.7	4.5	1.46e+00	0	56	104	0	47	17532
2026-01-13 08:46:16.63	115.01	12.72	-41.2	-51.7	5.0	1.26e+00	25	56	104	0	50	14801
2026-01-13 08:46:17.64	114.91	12.80	-38.2	-52.0	4.9	8.56e-01	7	56	0	0	46	19261
2026-01-13 08:46:18.65	114.80	12.89	-29.6	-49.7	4.0	1.37e+00	0	56	104	1048576	41	19780
2026-01-13 08:46:19.66	114.69	12.97	-42.5	-52.6	5.1	6.80e-01	0	56	0	2097152	56	11565
2026-01-13 08:46:20.67	114.59	13.06	-43.0	-52.1	5.3	9.20e-01	14	56	0	3145728	56	10957
2026-01-13 08:46:21.68	114.48	13.14	-42.5	-51.6	5.4	5.35e-01	0	56	0	5242880	55	10913
2026-01-13 08:46:22.69	114.37	13.23	-43.4	-51.9	5.6	5.69e-01	0	56	0	7340032	57	10146
2026-01-13 08:46:23.70	114.26	13.31	-43.4	-51.7	5.8	4.77e-01	0	56	0	9437184	57	9847
2026-01-13 08:46:24.71	114.16	13.40	-43.3	-50.7	6.4	3.33e-01	0	56	0	10485760	57	8848
2026-01-13 08:46:25.72	114.05	13.48	-43.1	-49.9	7.2	1.56e-01	0	56	0	12582912	56	8498
2026-01-13 08:46:26.73	113.94	13.57	-43.0	-49.5	7.6	1.18e-01	0	56	0	14680064	56	8133
2026-01-13 08:46:27.74	113.82	13.65	-40.5	-48.2	8.3	7.78e-02	0	56	0	16777216	54	7827
2026-01-13 08:46:28.75	113.71	13.74	-42.5	-48.8	8.1	6.01e-02	0	56	0	18874368	55	7916
2026-01-13 08:46:29.76	113.60	13.83	-42.4	-48.1	8.9	3.89e-02	0	56	0	19922944	55	7331
2026-01-13 08:46:30.77	113.49	13.91	-42.5	-47.9	9.1	2.65e-02	0	56	0	22020096	55	7204
2026-01-13 08:46:31.78	113.37	14.00	-42.5	-48.0	9.1	2.48e-02	0	56	0	24117248	55	7256
2026-01-13 08:46:32.79	113.26	14.09	-42.5	-48.1	9.0	2.76e-02	0	56	0	26214400	55	7334
2026-01-13 08:46:33.80	113.14	14.17	-42.5	-48.2	8.9	2.55e-02	0	56	0	28311552	55	7387
2026-01-13 08:46:34.81	113.03	14.26	-42.1	-48.0	9.1	2.81e-02	0	56	0	29360128	55	7250
2026-01-13 08:46:35.82	112.91	14.35	-42.3	-47.8	9.2	2.43e-02	0	56	0	31457280	55	7087
2026-01-13 08:46:36.82	112.80	14.44	-41.3	-47.8	9.3	1.80e-02	0	56	0	33554432	55	7060
2026-01-13 08:46:37.83	112.68	14.52	-41.3	-47.1	9.5	2.44e-02	0	56	0	35651584	54	6917
2026-01-13 08:46:38.84	112.56	14.61	-42.1	-47.7	9.0	2.21e-02	0	56	0	37748736	53	7833
2026-01-13 08:46:39.85	112.44	14.70	-37.6	-47.7	8.3	2.82e-02	0	56	0	39845888	48	10497
2026-01-13 08:46:40.86	112.32	14.79	-41.9	-47.8	9.2	3.50e-02	0	56	0	40894464	54	7500
2026-01-13 08:46:41.87	112.20	14.88	-42.2	-47.6	9.4	2.11e-02	0	56	0	42991616	54	7324
2026-01-13 08:46:42.88	112.08	14.97	-42.1	-47.6	9.4	3.07e-02	0	56	0	45088768	54	7314
2026-01-13 08:46:43.89	111.96	15.06	-40.6	-47.5	9.5	2.86e-02	0	56	0	47185920	54	7256
2026-01-13 08:46:44.90	111.83	15.15	-42.4	-47.8	9.4	1.78e-02	0	56	0	49283072	55	7049
2026-01-13 08:46:45.91	111.71	15.24	-42.4	-47.8	9.4	1.95e-02	0	56	0	50331648	55	7058
2026-01-13 08:46:46.92	111.58	15.33	-42.4	-47.7	9.3	1.96e-02	0	56	0	52428800	55	7038
2026-01-13 08:46:47.93	111.46	15.42	-42.2	-47.5	9.7	1.35e-02	0	56	0	54525952	54	7205
2026-01-13 08:46:48.94	111.33	15.51	-40.6	-47.6	9.7	8.90e-03	0	56	0	56623104	52	8191
2026-01-13 08:46:49.95	111.21	15.60	-42.0	-47.1	10.1	7.90e-03	0	57	0	58720256	55	6542
2026-01-13 08:46:50.97	111.08	15.69	-41.6	-47.2	10.1	8.06e-03	0	56	0	59768832	55	6615
2026-01-13 08:46:51.97	110.95	15.78	-41.8	-47.4	9.8	1.03e-02	0	56	0	61865984	55	6799
2026-01-13 08:46:52.98	110.82	15.87	-42.4	-47.5	9.7	1.17e-02	0	56	0	63963136	55	6865
2026-01-13 08:46:54.00	110.69	15.96	-42.4	-47.5	9.8	1.15e-02	0	56	0	66060288	55	6812
2026-01-13 08:46:55.01	110.56	16.05	-42.4	-47.5	9.8	9.63e-03	0	56	0	68157440	55	6815
2026-01-13 08:46:56.02	110.43	16.14	-42.4	-47.4	9.9	9.62e-03	0	56	0	69206016	55	6790
2026-01-13 08:46:57.03	110.30	16.24	-42.5	-47.6	9.7	9.49e-03	0	56	0	71303168	55	6911
2026-01-13 08:46:58.04	110.16	16.33	-42.5	-47.8	9.5	1.24e-02	0	56	0	73400320	55	7087
2026-01-13 08:46:59.05	110.03	16.42	-42.5	-47.7	9.6	1.46e-02	0	56	0	75497472	55	7033
2026-01-13 08:47:00.06	109.89	16.51	-42.4	-47.5	9.8	1.44e-02	0	56	0	77594624	55	6838
2026-01-13 08:47:01.07	109.76	16.60	-42.3	-47.2	10.1	6.37e-03	0	57	0	78643200	55	6613
2026-01-13 08:47:02.08	109.62	16.70	-42.3	-47.2	10.2	5.92e-03	0	56	0	80740352	55	6578
2026-01-13 08:47:03.08	109.48	16.79	-42.3	-47.1	10.2	5.92e-03	0	56	0	82837504	55	6555
2026-01-13 08:47:04.10	109.35	16.88	-42.3	-47.2	10.1	6.31e-03	0	56	0	84934656	55	6610
2026-01-13 08:47:05.11	109.21	16.98	-42.3	-47.2	10.2	6.65e-03	0	57	0	87031808	55	6606
2026-01-13 08:47:06.12	109.07	17.07	-42.3	-47.2	10.1	6.99e-03	0	57	0	88080384	55	6611
2026-01-13 08:47:07.13	108.93	17.16	-42.2	-46.8	10.5	6.05e-03	0	57	0	90177536	54	6719
2026-01-13 08:47:08.14	108.78	17.26	-42.0	-46.8	10.3	4.16e-03	0	57	0	92274688	54	6717
2026-01-13 08:47:09.15	108.64	17.35	-41.9	-46.7	10.7	4.18e-03	0	57	0	94371840	54	6604
2026-01-13 08:47:10.16	108.50	17.44	-40.2	-46.6	10.7	4.21e-03	0	57	0	96468992	54	6538
2026-01-13 08:47:11.17	108.35	17.54	-39.2	-46.5	10.0	4.40e-03	0	57	0	97517568	53	6869
2026-01-13 08:47:12.18	108.21	17.63	-42.1	-46.9	10.3	4.33e-03	0	57	0	99614720	54	6741
2026-01-13 08:47:13.19	108.06	17.73	-42.2	-46.8	10.6	4.13e-03	0	57	0	101711872	54	6702
2026-01-13 08:47:14.20	107.91	17.82	-42.1	-46.7	10.5	5.65e-03	0	57	0	103809024	54	6616
2026-01-13 08:47:15.21	107.77	17.92	-42.0	-46.6	10.7	2.90e-03	0	57	0	105906176	54	6560
2026-01-13 08:47:16.22	107.62	18.01	-42.1	-46.7	10.8	4.35e-03	0	57	0	108003328	54	6590
2026-01-13 08:47:17.23	107.47	18.11	-41.6	-46.7	10.5	3.37e-03	0	57	0	109051904	54	6604
2026-01-13 08:47:18.24	107.31	18.20	-42.2	-46.7	10.7	2.91e-03	0	57	0	111149056	54	6630
2026-01-13 08:47:19.25	107.16	18.30	-42.1	-46.8	10.7	3.06e-03	0	57	0	113246208	54	6665
2026-01-13 08:47:20.26	107.01	18.39	-42.2	-46.7	10.8	2.73e-03	0	57	0	115343360	54	6603
2026-01-13 08:47:21.27	106.86	18.49	-42.1	-46.6	10.9	2.29e-03	0	57	0	117440512	54	6528
2026-01-13 08:47:22.27	106.70	18.58	-42.1	-46.6	10.9	2.35e-03	0	57	0	118489088	54	6553
2026-01-13 08:47:23.29	106.54	18.68	-42.1	-46.8	10.7	2.59e-03	0	57	0	120586240	54	6683
2026-01-13 08:47:24.29	106.39	18.78	-42.2	-46.8	10.7	2.97e-03	0	57	0	122683392	55	6311
2026-01-13 08:47:25.30	106.23	18.87	-42.2	-46.8	10.7	3.49e-03	0	57	0	124780544	55	6319
2026-01-13 08:47:26.31	106.07	18.97	-42.2	-46.8	10.7	2.78e-03	0	57	0	126877696	55	6283
2026-01-13 08:47:27.32	105.91	19.07	-42.2	-46.7	10.8	2.49e-03	0	57	0	127926272	55	6214
2026-01-13 08:47:28.33	105.75	19.16	-42.1	-46.5	11.0	2.18e-03	0	57	0	130023424	55	6105
2026-01-13 08:47:29.34	105.59	19.26	-42.2	-46.6	10.9	2.30e-03	0	57	0	132120576	55	6188
2026-01-13 08:47:30.35	105.43	19.36	-42.2	-46.8	10.7	2.87e-03	0	57	0	134217728	55	6307
2026-01-13 08:47:31.36	105.26	19.46	-42.2	-46.9	10.6	3.01e-03	0	57	0	136314880	55	6363
2026-01-13 08:47:32.37	105.10	19.55	-42.2	-46.6	10.9	2.47e-03	0	57	0	137363456	55	6176
2026-01-13 08:47:33.38	104.93	19.65	-42.2	-46.7	10.8	2.31e-03	0	57	0	139460608	55	6265
2026-01-13 08:47:34.39	104.76	19.75	-42.3	-46.9	10.6	3.24e-03	0	57	0	141557760	55	6406
2026-01-13 08:47:35.40	104.59	19.85	-42.3	-47.0	10.5	3.67e-03	0	57	0	143654912	55	6460
2026-01-13 08:47:36.41	104.42	19.94	-42.3	-47.0	10.5	4.33e-03	0	57	0	145752064	55	6472
2026-01-13 08:47:37.41	104.26	20.04	-42.3	-47.0	10.5	4.41e-03	0	57	0	146800640	55	6429
2026-01-13 08:47:38.42	104.08	20.14	-42.3	-47.0	10.5	4.09e-03	0	57	0	148897792	55	6437
2026-01-13 08:47:39.43	103.91	20.24	-42.4	-47.1	10.4	4.21e-03	0	57	0	150994944	55	6557
2026-01-13 08:47:40.44	103.74	20.34	-42.4	-47.3	10.2	5.29e-03	0	57	0	153092096	55	6673
2026-01-13 08:47:41.45	103.56	20.44	-42.5	-47.5	10.0	6.93e-03	0	57	0	155189248	55	6845
2026-01-13 08:47:42.46	103.39	20.53	-42.5	-47.5	10.0	8.12e-03	0	57	0	156237824	55	6834
2026-01-13 08:47:43.47	103.21	20.63	-42.4	-47.1	10.4	5.00e-03	0	57	0	158334976	55	6541
2026-01-13 08:47:44.48	103.03	20.73	-42.3	-47.0	10.5	4.12e-03	0	57	0	160432128	55	6491
2026-01-13 08:47:45.49	102.85	20.83	-42.4	-47.2	10.3	4.88e-03	0	57	0	162529280	55	6629
2026-01-13 08:47:46.50	102.67	20.93	-42.5	-47.4	10.1	6.00e-03	0	57	0	164626432	55	6725
2026-01-13 08:47:47.51	102.49	21.03	-42.5	-47.4	10.1	7.10e-03	0	57	0	165675008	55	6782
2026-01-13 08:47:48.52	102.30	21.13	-42.4	-47.2	10.3	5.56e-03	0	57	0	167772160	55	6618
2026-01-13 08:47:49.53	102.12	21.23	-42.4	-47.1	10.4	4.50e-03	0	57	0	169869312	55	6560
2026-01-13 08:47:50.54	101.93	21.33	-42.5	-47.3	10.3	4.81e-03	0	57	0	171966464	55	6669
2026-01-13 08:47:51.55	101.75	21.43	-42.4	-47.2	10.3	4.63e-03	0	57	0	174063616	55	6617
2026-01-13 08:47:52.56	101.56	21.53	-42.5	-47.3	10.3	4.89e-03	0	57	0	176160768	55	6650
2026-01-13 08:47:53.57	101.37	21.63	-42.5	-47.2	10.3	5.94e-03	0	57	0	177209344	55	6636
2026-01-13 08:47:54.58	101.18	21.72	-42.4	-47.2	10.4	4.27e-03	0	57	0	179306496	55	6574
2026-01-13 08:47:55.59	100.99	21.82	-42.4	-47.2	10.4	4.69e-03	0	57	0	181403648	55	6579
2026-01-13 08:47:56.60	100.79	21.92	-42.4	-47.1	10.4	4.35e-03	0	57	0	183500800	55	6564
2026-01-13 08:47:57.61	100.60	22.02	-42.3	-46.9	10.7	4.19e-03	0	57	0	185597952	55	6404
2026-01-13 08:47:58.62	100.40	22.12	-42.4	-46.9	10.7	3.32e-03	0	57	0	186646528	55	6406
2026-01-13 08:47:59.63	100.21	22.22	-42.3	-46.9	10.7	3.25e-03	0	58	0	188743680	55	6382
2026-01-13 08:48:00.64	100.01	22.32	-42.3	-46.8	10.8	2.71e-03	0	57	0	190840832	55	6316
2026-01-13 08:48:01.65	99.81	22.42	-42.3	-46.8	10.8	2.44e-03	0	57	0	192937984	55	6289
2026-01-13 08:48:02.66	99.61	22.52	-42.2	-46.7	10.9	2.15e-03	0	57	0	195035136	55	6226
2026-01-13 08:48:03.67	99.41	22.62	-42.2	-46.6	11.1	1.69e-03	0	57	0	196083712	55	6145
2026-01-13 08:48:04.68	99.20	22.72	-42.2	-46.6	11.0	1.58e-03	0	57	0	198180864	55	6167
2026-01-13 08:48:05.69	99.00	22.82	-42.2	-46.6	11.1	1.58e-03	0	57	0	200278016	55	6140
2026-01-13 08:48:06.70	98.79	22.92	-42.1	-46.4	11.3	1.43e-03	0	57	0	202375168	55	5998
2026-01-13 08:48:07.71	98.59	23.02	-42.1	-46.2	11.4	1.12e-03	0	57	0	204472320	55	5918
2026-01-13 08:48:08.72	98.38	23.12	-42.0	-46.2	11.4	1.01e-03	0	57	0	205520896	55	5890
2026-01-13 08:48:09.73	98.17	23.22	-42.1	-46.3	11.3	1.06e-03	0	57	0	207618048	55	5955
2026-01-13 08:48:10.74	97.96	23.32	-42.0	-46.3	11.4	1.19e-03	0	57	0	209715200	55	5959
2026-01-13 08:48:11.75	97.74	23.42	-42.0	-46.2	11.5	1.14e-03	0	57	0	211812352	55	5876
2026-01-13 08:48:12.76	97.53	23.52	-41.9	-46.0	11.7	6.68e-04	0	57	0	213909504	55	5762
2026-01-13 08:48:13.77	97.31	23.62	-42.0	-46.1	11.6	6.39e-04	0	57	0	214958080	55	5792
2026-01-13 08:48:14.78	97.10	23.72	-41.9	-45.9	11.8	5.22e-04	0	57	0	217055232	55	5667
2026-01-13 08:48:15.79	96.88	23.82	-41.8	-45.8	11.9	4.13e-04	0	57	0	219152384	55	5605
2026-01-13 08:48:16.80	96.66	23.92	-41.9	-45.8	11.9	4.41e-04	0	57	0	221249536	55	5642
2026-01-13 08:48:17.80	96.44	24.02	-41.9	-45.9	11.7	5.43e-04	0	57	0	223346688	55	5710
2026-01-13 08:48:18.81	96.22	24.12	-42.0	-46.1	11.6	6.53e-04	0	57	0	224395264	55	5817
2026-01-13 08:48:19.82	96.00	24.22	-41.9	-46.0	11.7	6.39e-04	0	57	0	226492416	55	5742
2026-01-13 08:48:20.83	95.77	24.32	-41.9	-46.0	11.7	5.52e-04	0	57	0	228589568	55	5761
2026-01-13 08:48:21.84	95.54	24.41	-42.0	-46.0	11.6	6.45e-04	0	57	0	230686720	55	5782
2026-01-13 08:48:22.85	95.32	24.51	-42.0	-46.1	11.6	7.24e-04	0	57	0	232783872	55	5838
2026-01-13 08:48:23.86	95.09	24.61	-42.0	-46.2	11.5	7.81e-04	0	57	0	233832448	55	5879
2026-01-13 08:48:24.87	94.85	24.71	-42.1	-46.3	11.4	9.07e-04	0	58	0	235929600	55	5954
2026-01-13 08:48:25.88	94.62	24.81	-42.0	-46.1	11.6	8.14e-04	0	57	0	238026752	55	5829
2026-01-13 08:48:26.89	94.39	24.91	-42.0	-46.1	11.6	8.61e-04	0	57	0	240123904	55	5838
2026-01-13 08:48:27.90	94.15	25.00	-41.9	-46.0	11.7	6.77e-04	0	57	0	242221056	55	5740
2026-01-13 08:48:28.92	93.91	25.10	-41.9	-45.8	11.9	4.23e-04	0	57	0	244318208	55	5636
2026-01-13 08:48:29.92	93.68	25.20	-41.8	-45.7	12.0	3.24e-04	0	57	0	245366784	55	5559
2026-01-13 08:48:30.94	93.44	25.30	-41.8	-45.7	12.0	3.08e-04	0	57	0	247463936	55	5557
2026-01-13 08:48:31.95	93.19	25.40	-41.8	-45.7	12.0	3.14e-04	0	57	0	249561088	55	5565
2026-01-13 08:48:32.96	92.95	25.49	-41.8	-45.7	12.0	2.97e-04	0	58	0	251658240	55	5544
2026-01-13 08:48:33.97	92.71	25.59	-41.8	-45.6	12.1	2.89e-04	0	57	0	253755392	55	5528
2026-01-13 08:48:34.98	92.46	25.69	-41.8	-45.7	12.1	2.52e-04	0	58	0	254803968	55	5547
2026-01-13 08:48:35.99	92.21	25.78	-41.8	-45.7	12.0	2.88e-04	0	57	0	256901120	55	5562
2026-01-13 08:48:37.00	91.97	25.88	-41.8	-45.7	12.1	3.14e-04	0	57	0	258998272	55	5542
2026-01-13 08:48:38.01	91.72	25.98	-41.9	-45.7	12.0	2.89e-04	0	57	0	261095424	55	5592
2026-01-13 08:48:39.02	91.46	26.07	-41.9	-45.9	11.8	4.20e-04	0	58	0	263192576	55	5703
2026-01-13 08:48:40.03	91.21	26.17	-42.1	-46.2	11.6	6.12e-04	0	58	0	264241152	55	5885
2026-01-13 08:48:41.04	90.96	26.26	-42.2	-46.5	11.2	8.77e-04	0	57	0	266338304	55	6086
2026-01-13 08:48:42.05	90.70	26.36	-42.4	-46.8	10.9	1.92e-03	0	57	0	268435456	55	6322
2026-01-13 08:48:43.06	90.44	26.45	-42.3	-46.6	11.1	1.98e-03	0	57	0	270532608	55	6184
2026-01-13 08:48:44.07	90.18	26.55	-42.3	-46.7	11.0	2.00e-03	0	57	0	272629760	55	6271
2026-01-13 08:48:45.07	89.92	26.64	-42.3	-46.8	11.0	1.86e-03	0	58	0	273678336	55	6289
2026-01-13 08:48:46.08	89.66	26.73	-42.4	-46.9	10.8	2.32e-03	0	58	0	275775488	55	6420
2026-01-13 08:48:47.09	89.40	26.83	-42.4	-46.8	10.9	2.15e-03	0	58	0	277872640	55	6312
2026-01-13 08:48:48.10	89.13	26.92	-42.4	-46.8	10.9	2.18e-03	0	58	0	279969792	55	6310
2026-01-13 08:48:49.11	88.86	27.01	-42.4	-46.9	10.8	2.23e-03	0	57	0	282066944	55	6375
2026-01-13 08:48:50.12	88.59	27.10	-42.5	-47.1	10.6	2.77e-03	0	58	0	283115520	55	6563
2026-01-13 08:48:51.13	88.32	27.20	-42.6	-47.3	10.3	4.92e-03	0	58	0	285212672	55	6722
2026-01-13 08:48:52.14	88.05	27.29	-42.6	-47.3	10.5	4.30e-03	0	58	0	287309824	55	6665
2026-01-13 08:48:53.15	87.78	27.38	-42.6	-47.3	10.4	4.71e-03	0	57	0	289406976	55	6690
2026-01-13 08:48:54.16	87.50	27.47	-42.6	-47.3	10.4	4.64e-03	0	57	0	291504128	55	6689
2026-01-13 08:48:55.17	87.23	27.56	-42.6	-47.5	10.1	4.72e-03	0	57	0	292552704	55	6824
2026-01-13 08:48:56.18	86.95	27.65	-42.7	-47.4	10.3	5.40e-03	0	58	0	294649856	55	6797
2026-01-13 08:48:57.19	86.67	27.74	-42.7	-47.5	10.3	5.34e-03	0	58	0	296747008	55	6808
2026-01-13 08:48:58.20	86.39	27.83	-42.7	-47.5	10.2	5.90e-03	0	58	0	298844160	55	6852
2026-01-13 08:48:59.21	86.10	27.91	-42.9	-47.8	10.1	6.52e-03	0	57	0	300941312	56	6721
2026-01-13 08:49:00.22	85.82	28.00	-42.9	-47.8	10.2	6.71e-03	0	58	0	301989888	56	6650
2026-01-13 08:49:01.23	85.53	28.09	-42.9	-47.7	10.2	5.22e-03	0	57	0	304087040	56	6614
2026-01-13 08:49:02.24	85.25	28.18	-42.9	-47.9	10.0	7.02e-03	0	58	0	306184192	56	6767
2026-01-13 08:49:03.25	84.96	28.26	-43.0	-48.1	9.9	9.25e-03	0	58	0	308281344	56	6899
2026-01-13 08:49:04.26	84.67	28.35	-43.1	-48.4	9.5	1.23e-02	0	58	0	310378496	56	7160
2026-01-13 08:49:05.27	84.37	28.43	-43.1	-48.2	9.7	1.20e-02	0	58	0	312475648	56	7039
2026-01-13 08:49:06.28	84.08	28.52	-43.0	-48.1	9.8	1.09e-02	0	57	0	313524224	56	6953
2026-01-13 08:49:07.29	83.78	28.60	-43.0	-48.0	10.0	8.03e-03	0	57	0	315621376	56	6821
2026-01-13 08:49:08.30	83.49	28.68	-43.0	-48.0	10.0	8.90e-03	0	58	0	317718528	56	6838
2026-01-13 08:49:09.31	83.19	28.77	-42.9	-47.8	10.1	7.88e-03	0	58	0	319815680	56	6698
2026-01-13 08:49:10.32	82.89	28.85	-42.9	-47.9	10.0	6.21e-03	0	58	0	321912832	56	6756
2026-01-13 08:49:11.33	82.59	28.93	-43.0	-48.0	10.0	8.14e-03	0	57	0	322961408	56	6807
2026-01-13 08:49:12.34	82.28	29.01	-42.9	-47.9	10.0	8.19e-03	0	57	0	325058560	56	6764
2026-01-13 08:49:13.35	81.98	29.09	-43.0	-47.9	10.0	7.65e-03	0	58	0	327155712	56	6790
2026-01-13 08:49:14.36	81.67	29.17	-43.0	-48.0	10.0	7.91e-03	0	58	0	329252864	56	6816
2026-01-13 08:49:15.37	81.37	29.25	-42.9	-47.9	10.1	6.98e-03	0	58	0	331350016	56	6725
2026-01-13 08:49:16.37	81.06	29.33	-42.9	-47.7	10.2	6.19e-03	0	58	0	332398592	56	6624
2026-01-13 08:49:17.38	80.75	29.40	-42.9	-47.7	10.3	5.33e-03	0	58	0	334495744	56	6592
2026-01-13 08:49:18.39	80.44	29.48	-42.9	-47.8	10.2	5.63e-03	0	58	0	336592896	56	6670
2026-01-13 08:49:19.40	80.12	29.56	-43.0	-48.0	10.0	6.86e-03	0	57	0	338690048	56	6822
2026-01-13 08:49:20.41	79.81	29.63	-43.1	-48.1	9.8	1.02e-02	0	58	0	340787200	56	6948
2026-01-13 08:49:21.42	79.49	29.71	-43.1	-48.2	9.7	1.15e-02	0	58	0	341835776	56	6997
2026-01-13 08:49:22.43	79.17	29.78	-43.0	-48.0	9.9	1.05e-02	0	58	0	343932928	56	6878
2026-01-13 08:49:23.44	78.85	29.85	-43.0	-47.9	10.0	7.10e-03	0	57	0	346030080	56	6784
2026-01-13 08:49:24.45	78.53	29.92	-42.9	-47.7	10.3	5.77e-03	0	58	0	348127232	56	6646
2026-01-13 08:49:25.46	78.21	29.99	-43.0	-47.9	10.1	6.07e-03	0	58	0	350224384	56	6727
2026-01-13 08:49:26.47	77.89	30.06	-43.0	-47.9	10.1	6.99e-03	0	58	0	351272960	56	6751
2026-01-13 08:49:27.48	77.56	30.13	-43.0	-47.9	10.1	6.85e-03	0	58	0	353370112	56	6726
2026-01-13 08:49:28.49	77.24	30.20	-43.0	-48.1	9.9	8.03e-03	0	58	0	355467264	56	6899
2026-01-13 08:49:29.50	76.91	30.27	-43.0	-47.9	10.1	8.68e-03	0	58	0	357564416	56	6764
2026-01-13 08:49:30.51	76.58	30.34	-43.0	-48.0	10.0	7.32e-03	0	57	0	359661568	56	6825
2026-01-13 08:49:31.52	76.25	30.40	-43.0	-48.0	10.0	8.25e-03	0	58	0	360710144	56	6848
2026-01-13 08:49:32.53	75.92	30.47	-43.2	-48.4	9.6	1.06e-02	0	58	0	362807296	56	7131
2026-01-13 08:49:33.54	75.58	30.53	-43.2	-48.4	9.6	1.27e-02	0	58	0	364904448	56	7153
2026-01-13 08:49:34.55	75.25	30.59	-43.2	-48.6	9.4	1.33e-02	0	58	0	367001600	57	6890
2026-01-13 08:49:35.56	74.91	30.65	-43.3	-48.8	9.2	1.77e-02	0	58	0	369098752	57	7081
2026-01-13 08:49:36.57	74.58	30.72	-43.4	-49.0	9.1	2.06e-02	0	58	0	370147328	57	7221
2026-01-13 08:49:37.58	74.24	30.78	-43.3	-48.8	9.2	2.10e-02	0	58	0	372244480	57	7081
2026-01-13 08:49:38.59	73.90	30.83	-43.3	-48.8	9.2	2.00e-02	0	58	0	374341632	57	7068
2026-01-13 08:49:39.60	73.56	30.89	-43.2	-48.6	9.4	1.75e-02	0	58	0	376438784	57	6913
2026-01-13 08:49:40.60	73.22	30.95	-43.2	-48.6	9.4	1.67e-02	0	57	0	378535936	57	6894
2026-01-13 08:49:41.61	72.88	31.00	-43.1	-48.1	9.9	1.12e-02	0	58	0	380633088	57	6545
2026-01-13 08:49:42.62	72.53	31.06	-43.0	-48.0	10.0	7.66e-03	0	58	0	381681664	57	6431
2026-01-13 08:49:43.63	72.19	31.11	-43.1	-48.1	10.0	7.99e-03	0	58	0	383778816	57	6529
2026-01-13 08:49:44.64	71.84	31.16	-43.1	-48.2	9.8	1.01e-02	0	58	0	385875968	57	6600
2026-01-13 08:49:45.65	71.49	31.22	-43.1	-48.1	9.9	1.06e-02	0	58	0	387973120	57	6514
2026-01-13 08:49:46.66	71.14	31.27	-43.1	-48.2	9.9	9.17e-03	0	58	0	390070272	57	6578
2026-01-13 08:49:47.67	70.79	31.32	-43.1	-48.3	9.8	9.74e-03	0	58	0	391118848	57	6669
2026-01-13 08:49:48.68	70.44	31.36	-43.1	-48.3	9.8	9.66e-03	0	58	0	393216000	57	6652
2026-01-13 08:49:49.69	70.09	31.41	-43.1	-48.1	10.0	8.24e-03	0	58	0	395313152	57	6499
2026-01-13 08:49:50.70	69.74	31.46	-43.0	-47.8	10.2	6.50e-03	0	58	0	397410304	57	6337
2026-01-13 08:49:51.71	69.38	31.50	-42.9	-47.6	10.5	4.82e-03	0	58	0	399507456	57	6177
2026-01-13 08:49:52.72	69.03	31.54	-42.9	-47.6	10.4	4.08e-03	0	58	0	400556032	57	6190
2026-01-13 08:49:53.73	68.67	31.59	-42.9	-47.6	10.4	4.08e-03	0	58	0	402653184	57	6194
2026-01-13 08:49:54.74	68.31	31.63	-42.9	-47.5	10.6	3.69e-03	0	58	0	404750336	57	6093
2026-01-13 08:49:55.75	67.96	31.67	-42.9	-47.6	10.5	4.35e-03	0	58	0	406847488	57	6175
2026-01-13 08:49:56.76	67.60	31.71	-42.9	-47.7	10.4	4.59e-03	0	58	0	408944640	57	6238
2026-01-13 08:49:57.76	67.24	31.74	-43.0	-47.8	10.2	5.04e-03	0	58	0	409993216	57	6321
2026-01-13 08:49:58.77	66.88	31.78	-43.0	-48.0	10.1	5.79e-03	0	58	0	412090368	57	6428
2026-01-13 08:49:59.78	66.52	31.82	-43.1	-48.2	9.9	8.21e-03	0	58	0	414187520	57	6595
2026-01-13 08:50:00.79	66.16	31.85	-43.2	-48.3	9.8	9.63e-03	0	58	0	416284672	57	6650
2026-01-13 08:50:01.80	65.80	31.88	-43.2	-48.3	9.7	1.15e-02	0	58	0	418381824	57	6701
2026-01-13 08:50:02.81	65.43	31.91	-43.2	-48.2	9.8	1.00e-02	0	58	0	419430400	57	6641
2026-01-13 08:50:03.82	65.07	31.94	-43.2	-48.3	9.7	9.81e-03	0	58	0	421527552	57	6704
2026-01-13 08:50:04.83	64.70	31.97	-43.2	-48.5	9.6	1.19e-02	0	58	0	423624704	57	6805
2026-01-13 08:50:05.84	64.34	32.00	-43.2	-48.4	9.6	1.29e-02	0	58	0	425721856	57	6770
2026-01-13 08:50:06.85	63.97	32.03	-43.2	-48.4	9.7	1.11e-02	0	58	0	427819008	57	6732
2026-01-13 08:50:07.86	63.61	32.05	-43.3	-48.6	9.4	1.32e-02	0	58	0	428867584	57	6912
2026-01-13 08:50:08.87	63.24	32.07	-43.4	-48.9	9.2	1.74e-02	0	58	0	430964736	57	7174
2026-01-13 08:50:09.88	62.87	32.10	-43.4	-49.0	9.1	2.30e-02	0	58	0	433061888	57	7216
2026-01-13 08:50:10.89	62.51	32.12	-43.4	-49.0	9.0	2.33e-02	0	58	0	435159040	57	7272
2026-01-13 08:50:11.90	62.14	32.14	-43.4	-49.1	9.0	2.23e-02	0	58	0	437256192	57	7290
2026-01-13 08:50:12.91	61.77	32.15	-43.5	-49.1	8.9	2.48e-02	0	58	0	438304768	57	7303
2026-01-13 08:50:13.92	61.40	32.17	-43.5	-49.1	8.9	2.76e-02	0	58	0	440401920	57	7349
2026-01-13 08:50:14.93	61.03	32.19	-43.5	-49.1	8.9	2.72e-02	0	58	0	442499072	57	7361
2026-01-13 08:50:15.94	60.66	32.20	-43.4	-48.8	9.2	2.28e-02	0	58	0	444596224	57	7100
2026-01-13 08:50:16.95	60.29	32.21	-43.4	-48.8	9.2	2.02e-02	0	58	0	446693376	57	7110
2026-01-13 08:50:17.96	59.92	32.23	-43.4	-48.9	9.1	2.06e-02	0	58	0	448790528	57	7153
2026-01-13 08:50:18.97	59.55	32.24	-43.4	-49.0	9.1	2.18e-02	0	58	0	449839104	57	7211
2026-01-13 08:50:19.98	59.18	32.24	-43.4	-48.8	9.2	2.23e-02	0	58	0	451936256	57	7092
2026-01-13 08:50:20.99	58.81	32.25	-43.4	-48.9	9.1	2.00e-02	0	58	0	454033408	57	7160
2026-01-13 08:50:22.00	58.44	32.26	-43.3	-48.7	9.3	1.89e-02	0	58	0	456130560	57	7016
2026-01-13 08:50:23.00	58.07	32.26	-43.3	-48.6	9.4	1.74e-02	0	58	0	458227712	57	6944
2026-01-13 08:50:24.01	57.70	32.27	-43.2	-48.4	9.6	1.36e-02	0	58	0	459276288	57	6780
2026-01-13 08:50:25.02	57.33	32.27	-43.2	-48.4	9.7	1.09e-02	0	58	0	461373440	57	6743
2026-01-13 08:50:26.03	56.95	32.27	-43.2	-48.2	9.8	9.62e-03	0	58	0	463470592	57	6631
2026-01-13 08:50:27.05	56.58	32.27	-43.2	-48.4	9.7	1.05e-02	0	58	0	465567744	57	6734
2026-01-13 08:50:28.05	56.21	32.27	-43.2	-48.3	9.7	1.12e-02	0	58	0	467664896	57	6721
2026-01-13 08:50:29.06	55.84	32.26	-43.3	-48.6	9.4	1.43e-02	0	58	0	468713472	57	6930
2026-01-13 08:50:30.07	55.47	32.26	-43.3	-48.7	9.3	1.56e-02	0	58	0	470810624	57	7021
2026-01-13 08:50:31.08	55.10	32.25	-43.4	-48.9	9.0	1.99e-02	0	58	0	472907776	57	7200
2026-01-13 08:50:32.09	54.73	32.25	-43.5	-49.2	8.8	2.96e-02	0	58	0	475004928	57	7397
2026-01-13 08:50:33.10	54.36	32.24	-43.6	-49.4	8.6	3.66e-02	0	58	0	477102080	57	7599
2026-01-13 08:50:34.11	53.99	32.23	-43.6	-49.4	8.6	3.89e-02	0	58	0	478150656	57	7606
2026-01-13 08:50:35.12	53.61	32.21	-43.5	-49.2	8.8	3.55e-02	0	58	0	480247808	57	7432
2026-01-13 08:50:36.13	53.24	32.20	-43.4	-48.8	9.2	2.39e-02	0	58	0	482344960	57	7097
2026-01-13 08:50:37.14	52.88	32.19	-43.3	-48.6	9.4	1.76e-02	0	58	0	484442112	57	6939
2026-01-13 08:50:38.15	52.51	32.17	-43.3	-48.8	9.2	1.47e-02	0	58	0	486539264	57	7078
2026-01-13 08:50:39.16	52.14	32.16	-43.4	-48.9	9.2	2.12e-02	0	58	0	487587840	57	7153
2026-01-13 08:50:40.17	51.77	32.14	-43.4	-48.8	9.2	2.09e-02	0	58	0	489684992	57	7066
2026-01-13 08:50:41.18	51.40	32.12	-43.4	-48.9	9.2	2.06e-02	0	58	0	491782144	57	7157
2026-01-13 08:50:42.19	51.03	32.10	-43.4	-48.8	9.2	2.00e-02	0	58	0	493879296	57	7081
2026-01-13 08:50:43.20	50.67	32.07	-43.3	-48.7	9.4	1.76e-02	0	58	0	495976448	57	6989
2026-01-13 08:50:44.21	50.30	32.05	-43.2	-48.2	9.8	1.39e-02	0	58	0	497025024	57	6642
2026-01-13 08:50:45.22	49.93	32.03	-43.2	-48.2	9.9	9.01e-03	0	58	0	499122176	57	6579
2026-01-13 08:50:46.23	49.57	32.00	-43.2	-48.3	9.8	9.34e-03	0	58	0	501219328	57	6655
2026-01-13 08:50:47.24	49.20	31.97	-43.2	-48.3	9.8	1.12e-02	0	58	0	503316480	57	6687
2026-01-13 08:50:48.25	48.84	31.94	-43.2	-48.4	9.7	1.23e-02	0	58	0	505413632	57	6750
2026-01-13 08:50:49.26	48.48	31.91	-43.3	-48.5	9.5	1.31e-02	0	58	0	506462208	57	6871
2026-01-13 08:50:50.27	48.11	31.88	-43.3	-48.7	9.4	1.54e-02	0	58	0	508559360	57	6975
2026-01-13 08:50:51.28	47.75	31.85	-43.4	-48.9	9.2	1.71e-02	0	58	0	510656512	57	7164
2026-01-13 08:50:52.29	47.39	31.82	-43.4	-48.7	9.3	1.88e-02	0	58	0	512753664	57	7016
2026-01-13 08:50:53.30	47.03	31.78	-43.3	-48.6	9.5	1.61e-02	0	58	0	514850816	57	6910
2026-01-13 08:50:54.31	46.67	31.75	-43.4	-48.7	9.4	1.62e-02	0	58	0	516947968	57	6989
2026-01-13 08:50:55.31	46.31	31.71	-43.3	-48.6	9.4	1.58e-02	0	58	0	517996544	57	6956
2026-01-13 08:50:56.32	45.96	31.67	-43.4	-48.7	9.3	1.79e-02	0	58	0	520093696	57	7028
2026-01-13 08:50:57.33	45.60	31.63	-43.4	-48.7	9.4	1.77e-02	0	58	0	522190848	57	6999
2026-01-13 08:50:58.34	45.24	31.59	-43.4	-48.8	9.2	1.91e-02	0	58	0	524288000	57	7108
2026-01-13 08:50:59.35	44.89	31.55	-43.5	-49.2	8.9	2.48e-02	0	58	0	526385152	57	7385
2026-01-13 08:51:00.36	44.53	31.50	-43.6	-49.3	8.7	3.18e-02	0	58	0	527433728	57	7535
2026-01-13 08:51:01.37	44.18	31.46	-43.6	-49.4	8.6	3.89e-02	0	58	0	529530880	57	7610
2026-01-13 08:51:02.38	43.83	31.41	-43.6	-49.6	8.5	3.91e-02	0	58	0	531628032	57	7723
2026-01-13 08:51:03.39	43.47	31.37	-43.6	-49.3	8.7	3.27e-02	0	58	0	533725184	57	7497
2026-01-13 08:51:04.40	43.12	31.32	-43.5	-49.2	8.9	2.85e-02	0	58	0	535822336	57	7374
2026-01-13 08:51:05.41	42.78	31.27	-43.5	-49.0	9.1	2.39e-02	0	58	0	536870912	57	7252
2026-01-13 08:51:06.42	42.43	31.22	-43.4	-48.7	9.3	1.99e-02	0	58	0	538968064	57	7008
2026-01-13 08:51:07.43	42.08	31.17	-43.3	-48.6	9.5	1.48e-02	0	58	0	541065216	57	6928
2026-01-13 08:51:08.44	41.73	31.12	-43.3	-48.4	9.6	1.21e-02	0	58	0	543162368	57	6788
2026-01-13 08:51:09.45	41.39	31.06	-43.3	-48.6	9.4	1.41e-02	0	58	0	545259520	57	6941
2026-01-13 08:51:10.47	41.04	31.01	-43.5	-49.2	8.9	2.16e-02	0	58	0	546308096	57	7373
2026-01-13 08:51:11.47	40.70	30.95	-43.6	-49.5	8.5	3.81e-02	0	58	0	548405248	57	7696
2026-01-13 08:51:12.48	40.36	30.90	-43.7	-49.7	8.4	4.42e-02	0	58	0	550502400	57	7818
2026-01-13 08:51:13.49	40.02	30.84	-43.6	-49.5	8.5	4.39e-02	0	58	0	552599552	57	7710
2026-01-13 08:51:14.50	39.68	30.78	-43.6	-49.5	8.6	3.92e-02	0	58	0	554696704	57	7631
2026-01-13 08:51:15.51	39.35	30.72	-43.6	-49.5	8.6	3.94e-02	0	58	0	555745280	57	7646
2026-01-13 08:51:16.52	39.01	30.66	-43.6	-49.3	8.7	3.49e-02	0	58	0	557842432	57	7531
2026-01-13 08:51:17.53	38.67	30.60	-43.6	-49.3	8.7	3.21e-02	0	58	0	559939584	57	7504
2026-01-13 08:51:18.54	38.34	30.53	-43.6	-49.5	8.6	3.49e-02	0	58	0	562036736	57	7631
2026-01-13 08:51:19.55	38.01	30.47	-43.6	-49.6	8.5	3.92e-02	0	58	0	564133888	57	7736
2026-01-13 08:51:20.56	37.68	30.41	-43.7	-49.7	8.4	4.73e-02	0	58	0	565182464	57	7829
2026-01-13 08:51:21.57	37.35	30.34	-43.6	-49.3	8.7	4.00e-02	0	58	0	567279616	57	7512
2026-01-13 08:51:22.58	37.02	30.28	-43.5	-49.1	8.9	3.04e-02	0	58	0	569376768	57	7364
2026-01-13 08:51:23.59	36.69	30.21	-43.5	-49.1	9.0	2.87e-02	0	58	0	571473920	57	7317
2026-01-13 08:51:24.60	36.37	30.14	-43.5	-49.2	8.9	2.85e-02	0	58	0	573571072	57	7373
2026-01-13 08:51:25.61	36.04	30.07	-43.5	-49.0	9.0	2.89e-02	0	58	0	574619648	57	7274
2026-01-13 08:51:26.62	35.72	30.00	-43.5	-49.2	8.8	2.63e-02	0	58	0	576716800	57	7440
2026-01-13 08:51:27.63	35.40	29.93	-43.5	-49.1	9.0	2.74e-02	0	58	0	578813952	57	7324
2026-01-13 08:51:28.64	35.08	29.86	-43.5	-49.1	8.9	2.75e-02	0	58	0	580911104	57	7338
2026-01-13 08:51:29.65	34.76	29.79	-43.4	-49.0	9.1	2.50e-02	0	58	0	583008256	57	7205
2026-01-13 08:51:30.66	34.44	29.71	-43.4	-49.0	9.1	2.26e-02	0	58	0	585105408	57	7211
2026-01-13 08:51:31.67	34.13	29.64	-43.4	-48.8	9.2	2.47e-02	0	58	0	586153984	57	7120
2026-01-13 08:51:32.68	33.81	29.56	-43.4	-48.8	9.2	1.98e-02	0	58	0	588251136	57	7081
2026-01-13 08:51:33.68	33.50	29.49	-43.3	-48.6	9.3	1.82e-02	0	58	0	590348288	57	6958
2026-01-13 08:51:34.69	33.19	29.41	-43.4	-48.8	9.3	2.08e-02	0	58	0	592445440	57	7090
2026-01-13 08:51:35.70	32.88	29.34	-43.4	-48.8	9.3	1.91e-02	0	58	0	594542592	57	7045
2026-01-13 08:51:36.71	32.57	29.26	-43.4	-48.7	9.3	1.54e-02	0	58	0	595591168	57	6990
2026-01-13 08:51:37.72	32.27	29.18	-43.3	-48.7	9.3	1.85e-02	0	58	0	597688320	57	7010
2026-01-13 08:51:38.73	31.96	29.10	-43.3	-48.6	9.4	1.65e-02	0	58	0	599785472	57	6929
2026-01-13 08:51:39.74	31.66	29.02	-43.4	-48.8	9.3	1.93e-02	0	58	0	601882624	57	7052
2026-01-13 08:51:40.75	31.36	28.94	-43.3	-48.6	9.4	1.65e-02	0	58	0	603979776	57	6945
2026-01-13 08:51:41.76	31.06	28.86	-43.3	-48.6	9.4	1.57e-02	0	58	0	605028352	57	6915
2026-01-13 08:51:42.77	30.76	28.78	-43.3	-48.7	9.3	1.65e-02	0	58	0	607125504	57	7018
2026-01-13 08:51:43.78	30.46	28.70	-43.4	-48.9	9.2	2.04e-02	0	58	0	609222656	57	7133
2026-01-13 08:51:44.79	30.16	28.61	-43.3	-48.5	9.5	1.65e-02	0	58	0	611319808	57	6873
2026-01-13 08:51:45.80	29.87	28.53	-43.2	-48.4	9.6	1.47e-02	0	58	0	613416960	57	6780
2026-01-13 08:51:46.81	29.58	28.45	-43.2	-48.2	9.8	1.15e-02	0	58	0	614465536	57	6640
2026-01-13 08:51:47.82	29.28	28.36	-43.2	-48.3	9.8	9.91e-03	0	58	0	616562688	57	6667
2026-01-13 08:51:48.84	28.99	28.28	-43.2	-48.3	9.8	9.86e-03	0	58	0	618659840	57	6664
2026-01-13 08:51:49.85	28.70	28.19	-43.2	-48.4	9.7	1.03e-02	0	58	0	620756992	57	6724
2026-01-13 08:51:50.86	28.42	28.10	-43.1	-48.0	10.1	7.37e-03	0	58	0	622854144	57	6426
2026-01-13 08:51:51.87	28.13	28.02	-43.0	-47.9	10.2	5.75e-03	0	58	0	623902720	57	6371
2026-01-13 08:51:52.88	27.85	27.93	-43.1	-48.0	10.2	5.63e-03	0	58	0	625999872	57	6433
2026-01-13 08:51:53.89	27.57	27.84	-43.2	-48.3	9.7	8.82e-03	0	58	0	628097024	57	6699
2026-01-13 08:51:54.90	27.29	27.75	-43.2	-48.5	9.5	1.20e-02	0	58	0	630194176	57	6822
2026-01-13 08:51:55.91	27.01	27.66	-43.2	-48.4	9.7	1.29e-02	0	58	0	632291328	57	6735
2026-01-13 08:51:56.91	26.73	27.58	-43.1	-48.1	9.9	8.98e-03	0	58	0	633339904	57	6538
2026-01-13 08:51:57.92	26.46	27.49	-43.1	-48.1	9.9	7.72e-03	0	58	0	635437056	57	6567
2026-01-13 08:51:58.93	26.18	27.40	-43.1	-48.1	10.0	8.15e-03	0	58	0	637534208	57	6529
2026-01-13 08:51:59.95	25.91	27.30	-43.1	-48.0	10.0	7.56e-03	0	58	0	639631360	57	6460
2026-01-13 08:52:00.95	25.64	27.21	-43.1	-48.0	10.1	6.87e-03	0	58	0	641728512	57	6465
2026-01-13 08:52:01.96	25.37	27.12	-43.0	-47.9	10.2	7.32e-03	0	58	0	642777088	57	6380
2026-01-13 08:52:02.97	25.10	27.03	-42.9	-47.7	10.3	5.29e-03	0	58	0	644874240	57	6250
2026-01-13 08:52:03.98	24.84	26.94	-42.8	-47.5	10.6	3.87e-03	0	58	0	646971392	57	6077
2026-01-13 08:52:04.99	24.57	26.85	-42.8	-47.4	10.7	3.00e-03	0	58	0	649068544	57	5995
2026-01-13 08:52:06.00	24.31	26.75	-42.7	-47.2	10.9	2.45e-03	0	58	0	651165696	57	5904
2026-01-13 08:52:07.01	24.05	26.66	-42.6	-47.0	11.1	2.30e-03	0	58	0	653262848	57	5762
2026-01-13 08:52:08.02	23.79	26.57	-42.6	-46.8	11.3	1.30e-03	0	58	0	654311424	57	5620
2026-01-13 08:52:09.03	23.53	26.47	-42.6	-46.8	11.4	9.28e-04	0	58	0	656408576	56	5946
2026-01-13 08:52:10.04	23.27	26.38	-42.6	-46.9	11.2	1.22e-03	0	58	0	658505728	56	6025
2026-01-13 08:52:11.05	23.02	26.28	-42.6	-46.9	11.3	1.30e-03	0	58	0	660602880	56	6017
2026-01-13 08:52:12.06	22.76	26.19	-42.5	-46.7	11.4	1.16e-03	0	58	0	662700032	56	5916
2026-01-13 08:52:13.07	22.51	26.09	-42.4	-46.5	11.7	8.25e-04	0	58	0	663748608	56	5744
2026-01-13 08:52:14.08	22.26	26.00	-42.2	-46.1	12.0	4.58e-04	0	58	0	665845760	56	5518
2026-01-13 08:52:15.08	22.01	25.90	-42.1	-45.9	12.2	2.82e-04	0	58	0	667942912	56	5384
2026-01-13 08:52:16.09	21.77	25.81	-42.1	-45.9	12.2	2.03e-04	0	58	0	670040064	56	5380
2026-01-13 08:52:17.10	21.52	25.71	-42.1	-46.0	12.2	2.10e-04	0	58	0	672137216	56	5411
2026-01-13 08:52:18.11	21.27	25.62	-42.1	-45.8	12.3	1.80e-04	0	58	0	673185792	56	5339
2026-01-13 08:52:19.12	21.03	25.52	-42.0	-45.6	12.5	1.20e-04	0	58	0	675282944	56	5205
2026-01-13 08:52:20.13	20.79	25.42	-41.7	-45.2	12.8	8.16e-05	0	58	0	677380096	55	5274
2026-01-13 08:52:21.14	20.55	25.33	-41.7	-45.3	12.7	9.53e-05	0	58	0	679477248	55	5284
2026-01-13 08:52:22.15	20.31	25.23	-41.7	-45.3	12.7	7.70e-05	0	58	0	681574400	55	5303
2026-01-13 08:52:23.16	20.07	25.13	-41.6	-45.1	12.8	5.26e-05	0	58	0	682622976	55	5207
2026-01-13 08:52:24.17	19.84	25.03	-41.6	-45.1	12.9	3.89e-05	0	58	0	684720128	55	5160
2026-01-13 08:52:25.18	19.60	24.94	-41.5	-45.0	13.0	4.34e-05	0	58	0	686817280	55	5112
2026-01-13 08:52:26.19	19.37	24.84	-41.6	-45.0	13.0	3.35e-05	0	58	0	688914432	55	5142
2026-01-13 08:52:27.20	19.14	24.74	-41.5	-44.9	13.0	4.42e-05	0	58	0	691011584	55	5096
2026-01-13 08:52:28.21	18.91	24.64	-41.5	-44.9	13.1	3.43e-05	0	58	0	692060160	54	5357
2026-01-13 08:52:29.22	18.68	24.54	-41.4	-44.8	13.2	2.28e-05	0	58	0	694157312	54	5292
2026-01-13 08:52:30.23	18.45	24.45	-41.4	-44.8	13.2	3.12e-05	0	58	0	696254464	54	5312
2026-01-13 08:52:31.24	18.23	24.35	-41.4	-44.8	13.2	2.36e-05	0	58	0	698351616	54	5289
2026-01-13 08:52:32.25	18.00	24.25	-41.4	-44.7	13.3	1.06e-05	0	58	0	700448768	54	5245
2026-01-13 08:52:33.26	17.78	24.15	-41.3	-44.5	13.5	9.90e-06	0	58	0	701497344	54	5127
2026-01-13 08:52:34.27	17.56	24.05	-41.2	-44.4	13.6	1.06e-05	0	58	0	703594496	54	5065
2026-01-13 08:52:35.28	17.34	23.95	-41.3	-44.5	13.5	9.10e-06	0	58	0	705691648	54	5132
2026-01-13 08:52:36.29	17.12	23.85	-41.3	-44.6	13.5	1.06e-05	0	58	0	707788800	54	5161
2026-01-13 08:52:37.30	16.90	23.76	-41.2	-44.4	13.6	1.44e-05	0	58	0	709885952	54	5062
2026-01-13 08:52:38.31	16.69	23.66	-41.2	-44.4	13.6	6.80e-06	0	58	0	710934528	54	5087
2026-01-13 08:52:39.32	16.47	23.56	-41.3	-44.5	13.5	5.30e-06	0	58	0	713031680	54	5138
2026-01-13 08:52:40.33	16.26	23.46	-41.3	-44.6	13.4	1.52e-05	0	58	0	715128832	54	5207
2026-01-13 08:52:41.34	16.05	23.36	-41.4	-44.7	13.2	2.59e-05	0	58	0	717225984	54	5276
2026-01-13 08:52:42.35	15.84	23.26	-41.4	-44.9	13.1	3.12e-05	0	58	0	719323136	54	5349
2026-01-13 08:52:43.36	15.63	23.16	-41.5	-45.1	12.9	4.57e-05	0	58	0	721420288	54	5466
2026-01-13 08:52:44.36	15.43	23.06	-41.5	-45.0	12.9	5.11e-05	0	58	0	722468864	54	5459
2026-01-13 08:52:45.37	15.22	22.96	-41.6	-45.1	12.8	5.79e-05	0	58	0	724566016	54	5497
2026-01-13 08:52:46.38	15.01	22.86	-41.6	-45.2	12.7	6.63e-05	0	58	0	726663168	54	5537
2026-01-13 08:52:47.39	14.81	22.76	-41.6	-45.2	12.7	8.16e-05	0	58	0	728760320	54	5585
2026-01-13 08:52:48.40	14.61	22.66	-41.7	-45.3	12.6	1.04e-04	0	58	0	730857472	54	5614
2026-01-13 08:52:49.41	14.41	22.56	-41.6	-45.2	12.7	7.24e-05	0	58	0	731906048	54	5574
2026-01-13 08:52:50.42	14.21	22.47	-41.6	-45.2	12.7	9.07e-05	0	58	0	734003200	54	5573
2026-01-13 08:52:51.43	14.01	22.37	-41.6	-45.1	12.8	4.88e-05	0	58	0	736100352	54	5479
2026-01-13 08:52:52.44	13.81	22.27	-41.5	-45.0	12.8	7.01e-05	0	58	0	738197504	54	5464
2026-01-13 08:52:53.45	13.62	22.17	-41.6	-45.2	12.7	8.31e-05	0	58	0	740294656	54	5532
2026-01-13 08:52:54.46	13.42	22.07	-41.6	-45.3	12.6	8.01e-05	0	58	0	741343232	54	5596
2026-01-13 08:52:55.47	13.23	21.97	-41.6	-45.3	12.6	1.03e-04	0	58	0	743440384	54	5597
2026-01-13 08:52:56.48	13.04	21.87	-41.7	-45.3	12.5	9.00e-05	0	58	0	745537536	54	5630
2026-01-13 08:52:57.49	12.85	21.77	-41.7	-45.5	12.3	1.20e-04	0	58	0	747634688	54	5744
2026-01-13 08:52:58.50	12.66	21.67	-41.8	-45.6	12.2	2.28e-04	0	58	0	749731840	54	5840
2026-01-13 08:52:59.51	12.47	21.57	-41.8	-45.6	12.2	2.29e-04	0	58	0	750780416	54	5828
2026-01-13 08:53:00.53	12.28	21.47	-41.9	-45.8	12.0	2.84e-04	0	58	0	752877568	54	5966
2026-01-13 08:53:01.53	12.10	21.37	-41.9	-45.7	12.0	3.81e-04	0	58	0	754974720	54	5903
2026-01-13 08:53:02.54	11.91	21.28	-41.8	-45.6	12.2	2.31e-04	0	58	0	757071872	54	5812
2026-01-13 08:53:03.55	11.73	21.18	-41.8	-45.6	12.2	2.14e-04	0	58	0	759169024	54	5821
2026-01-13 08:53:04.56	11.55	21.08	-41.9	-45.7	12.1	2.54e-04	0	58	0	760217600	54	5908
2026-01-13 08:53:05.57	11.36	20.98	-41.9	-45.7	12.0	3.37e-04	0	58	0	762314752	54	5908
2026-01-13 08:53:06.58	11.18	20.88	-41.8	-45.7	12.1	2.89e-04	0	58	0	764411904	54	5878
2026-01-13 08:53:07.59	11.01	20.78	-41.8	-45.7	12.0	2.96e-04	0	58	0	766509056	54	5912
2026-01-13 08:53:08.60	10.83	20.68	-41.9	-45.8	12.0	3.07e-04	0	58	0	768606208	54	5942
2026-01-13 08:53:09.61	10.65	20.59	-41.8	-45.7	12.1	3.26e-04	0	58	0	769654784	54	5870
2026-01-13 08:53:10.62	10.48	20.49	-41.9	-45.8	12.0	3.08e-04	0	58	0	771751936	54	5949
2026-01-13 08:53:11.63	10.30	20.39	-41.9	-45.9	11.9	3.75e-04	0	58	0	773849088	54	6011
2026-01-13 08:53:12.64	10.13	20.29	-41.9	-45.9	11.8	5.05e-04	0	58	0	775946240	54	5995
2026-01-13 08:53:13.65	9.96	20.19	-41.9	-45.9	11.9	4.36e-04	0	58	0	778043392	54	5998
2026-01-13 08:53:14.66	9.79	20.10	-41.9	-45.9	11.8	4.86e-04	0	58	0	779091968	54	6006
2026-01-13 08:53:15.67	9.62	20.00	-42.0	-46.0	11.7	5.67e-04	0	58	0	781189120	54	6100
2026-01-13 08:53:16.68	9.45	19.90	-42.0	-46.1	11.6	6.74e-04	0	58	0	783286272	54	6190
2026-01-13 08:53:17.69	9.28	19.80	-42.1	-46.4	11.3	9.63e-04	0	58	0	785383424	54	6353
2026-01-13 08:53:18.70	9.11	19.71	-42.1	-46.4	11.2	1.30e-03	0	58	0	787480576	54	6394
2026-01-13 08:53:19.71	8.95	19.61	-42.1	-46.4	11.2	1.29e-03	0	58	0	789577728	54	6375
2026-01-13 08:53:20.72	8.79	19.51	-42.1	-46.5	11.1	1.56e-03	0	58	0	790626304	54	6466
2026-01-13 08:53:21.73	8.62	19.41	-42.2	-46.7	10.9	1.95e-03	0	58	0	792723456	54	6601
2026-01-13 08:53:22.74	8.46	19.32	-42.3	-46.8	10.8	2.57e-03	0	58	0	794820608	55	6319
2026-01-13 08:53:23.75	8.30	19.22	-42.3	-46.9	10.6	3.16e-03	0	58	0	796917760	55	6402
2026-01-13 08:53:24.76	8.14	19.12	-42.4	-47.1	10.4	3.73e-03	0	58	0	799014912	55	6532
2026-01-13 08:53:25.76	7.98	19.03	-42.3	-47.1	10.4	4.91e-03	0	58	0	800063488	55	6521
2026-01-13 08:53:26.77	7.82	18.93	-42.3	-47.0	10.5	4.28e-03	0	58	0	802160640	55	6491
2026-01-13 08:53:27.78	7.67	18.84	-42.3	-47.1	10.4	4.29e-03	0	58	0	804257792	55	6497
2026-01-13 08:53:28.79	7.51	18.74	-42.3	-47.0	10.5	4.45e-03	0	58	0	806354944	55	6458
2026-01-13 08:53:29.80	7.36	18.65	-42.3	-47.0	10.5	3.92e-03	0	58	0	808452096	55	6451
2026-01-13 08:53:30.81	7.20	18.55	-42.3	-47.2	10.3	4.52e-03	0	58	0	809500672	55	6571
2026-01-13 08:53:31.82	7.05	18.45	-42.3	-47.2	10.2	6.78e-03	0	58	0	811597824	55	6609
2026-01-13 08:53:32.83	6.90	18.36	-42.4	-47.3	10.1	6.03e-03	0	58	0	813694976	55	6653
2026-01-13 08:53:33.84	6.75	18.26	-42.4	-47.3	10.0	6.97e-03	0	58	0	815792128	55	6716
2026-01-13 08:53:34.85	6.60	18.17	-42.3	-47.1	10.3	5.83e-03	0	58	0	817889280	55	6544
2026-01-13 08:53:35.85	6.45	18.08	-42.3	-47.1	10.3	5.38e-03	0	59	0	818937856	55	6528
2026-01-13 08:53:36.86	6.30	17.98	-42.3	-47.2	10.1	6.05e-03	0	58	0	821035008	55	6581
2026-01-13 08:53:37.87	6.15	17.89	-42.3	-47.2	10.0	7.43e-03	0	58	0	823132160	55	6633
2026-01-13 08:53:38.88	6.01	17.79	-42.3	-47.2	10.1	7.56e-03	0	58	0	825229312	55	6637
2026-01-13 08:53:39.89	5.86	17.70	-42.3	-47.2	10.0	7.37e-03	0	58	0	827326464	55	6644
2026-01-13 08:53:40.90	5.72	17.60	-42.2	-47.2	10.0	7.35e-03	0	59	0	828375040	55	6601
2026-01-13 08:53:41.91	5.57	17.51	-42.3	-47.3	9.9	8.39e-03	0	58	0	830472192	55	6647
2026-01-13 08:53:42.92	5.43	17.42	-42.2	-47.2	10.0	8.68e-03	0	58	0	832569344	55	6611
2026-01-13 08:53:43.93	5.29	17.32	-42.2	-47.3	9.8	8.96e-03	0	58	0	834666496	55	6717
2026-01-13 08:53:44.94	5.15	17.23	-42.2	-47.3	9.8	1.07e-02	0	59	0	836763648	55	6683
2026-01-13 08:53:45.95	5.01	17.14	-42.2	-47.2	9.8	1.01e-02	0	58	0	837812224	55	6637
2026-01-13 08:53:46.96	4.87	17.04	-42.2	-47.2	9.9	8.96e-03	0	58	0	839909376	55	6600
2026-01-13 08:53:47.97	4.73	16.95	-42.2	-47.2	9.8	1.09e-02	0	58	0	842006528	55	6624
2026-01-13 08:53:48.98	4.59	16.86	-42.2	-47.5	9.5	1.13e-02	0	58	0	844103680	55	6823
2026-01-13 08:53:49.99	4.46	16.77	-42.2	-47.5	9.5	1.51e-02	0	58	0	846200832	55	6812
2026-01-13 08:53:51.00	4.32	16.67	-42.2	-47.7	9.2	1.67e-02	0	58	0	847249408	55	6974
2026-01-13 08:53:52.01	4.19	16.58	-42.2	-47.6	9.3	2.00e-02	0	58	0	849346560	55	6927
2026-01-13 08:53:53.02	4.05	16.49	-42.2	-47.6	9.3	1.62e-02	0	59	0	851443712	55	6918
2026-01-13 08:53:54.03	3.92	16.40	-42.2	-47.6	9.2	1.94e-02	0	58	0	853540864	55	6938
2026-01-13 08:53:55.04	3.79	16.31	-42.1	-47.6	9.3	1.85e-02	0	59	0	855638016	55	6884
2026-01-13 08:53:56.05	3.66	16.22	-42.2	-47.7	9.1	1.99e-02	0	59	0	857735168	55	6962
2026-01-13 08:53:57.06	3.53	16.12	-42.2	-47.9	8.9	2.51e-02	0	58	0	858783744	55	7137
2026-01-13 08:53:58.07	3.40	16.03	-42.0	-47.4	9.4	2.23e-02	0	59	0	860880896	55	6758
2026-01-13 08:53:59.07	3.27	15.94	-42.1	-47.5	9.3	1.57e-02	0	58	0	862978048	55	6819
2026-01-13 08:54:00.08	3.14	15.85	-42.0	-47.3	9.4	1.67e-02	0	58	0	865075200	55	6719
2026-01-13 08:54:01.09	3.01	15.76	-42.1	-47.4	9.3	1.67e-02	0	58	0	867172352	55	6778
2026-01-13 08:54:02.10	2.89	15.67	-42.1	-47.7	9.1	1.98e-02	0	58	0	868220928	55	6970
2026-01-13 08:54:03.11	2.76	15.58	-42.1	-47.7	9.0	2.41e-02	0	58	0	870318080	55	7020
2026-01-13 08:54:04.12	2.63	15.49	-42.0	-47.5	9.3	2.02e-02	0	58	0	872415232	55	6823
2026-01-13 08:54:05.13	2.51	15.40	-42.1	-47.8	8.9	2.16e-02	0	58	0	874512384	55	7091
2026-01-13 08:54:06.14	2.39	15.31	-42.1	-47.9	8.7	3.67e-02	0	58	0	876609536	55	7152
2026-01-13 08:54:07.15	2.26	15.22	-41.9	-47.4	9.1	2.55e-02	0	58	0	877658112	55	6796
2026-01-13 08:54:08.16	2.14	15.14	-41.7	-47.2	9.2	2.00e-02	0	58	0	879755264	55	6605
2026-01-13 08:54:09.17	2.02	15.05	-41.8	-47.7	8.7	2.51e-02	0	58	0	881852416	55	6962
2026-01-13 08:54:10.18	1.90	14.96	-41.8	-47.8	8.4	4.38e-02	0	58	0	883949568	55	7075
2026-01-13 08:54:11.19	1.78	14.87	-41.7	-47.7	8.4	4.88e-02	0	58	0	886046720	55	7027
2026-01-13 08:54:12.20	1.66	14.78	-41.6	-47.6	8.5	4.64e-02	0	58	0	887095296	55	6901
2026-01-13 08:54:13.22	1.54	14.69	-41.6	-47.8	8.2	4.91e-02	0	58	0	889192448	55	7106
2026-01-13 08:54:14.22	1.43	14.61	-41.6	-48.0	8.0	6.37e-02	0	58	0	891289600	55	7212
2026-01-13 08:54:15.24	1.31	14.52	-41.6	-48.3	7.6	7.75e-02	0	58	0	893386752	55	7498
2026-01-13 08:54:16.24	1.19	14.43	-41.5	-48.2	7.7	9.61e-02	0	58	0	895483904	55	7434
2026-01-13 08:54:17.25	1.08	14.34	-41.5	-48.1	7.8	9.05e-02	0	58	0	896532480	55	7320
2026-01-13 08:54:18.26	0.96	14.26	-41.5	-48.0	7.9	7.68e-02	0	58	0	898629632	54	7711
2026-01-13 08:54:19.27	0.85	14.17	-41.4	-48.0	7.9	7.22e-02	0	59	0	900726784	54	7683
2026-01-13 08:54:20.28	0.74	14.08	-41.5	-48.0	7.8	7.52e-02	0	58	0	902823936	54	7713
2026-01-13 08:54:21.29	0.62	14.00	-41.4	-48.0	7.8	7.67e-02	0	58	0	904921088	54	7667
2026-01-13 08:54:22.30	0.51	13.91	-41.2	-47.6	8.1	6.67e-02	0	58	0	905969664	54	7311
2026-01-13 08:54:23.31	0.40	13.82	-41.1	-47.4	8.3	5.30e-02	0	58	0	908066816	54	7149
2026-01-13 08:54:24.32	0.29	13.74	-41.1	-47.7	7.9	5.83e-02	0	58	0	910163968	54	7430
2026-01-13 08:54:25.33	0.18	13.65	-41.1	-48.1	7.5	8.06e-02	0	58	0	912261120	54	7734
2026-01-13 08:54:26.34	0.07	13.57	-41.2	-48.7	6.9	1.43e-01	0	58	0	914358272	54	8349
2026-01-13 08:54:27.35	359.96	13.48	-41.3	-49.5	6.1	2.46e-01	0	58	0	915406848	54	9108
2026-01-13 08:54:28.36	359.85	13.40	-41.3	-50.1	5.7	3.44e-01	0	58	0	917504000	54	9732
2026-01-13 08:54:29.37	359.74	13.31	-41.4	-51.2	5.0	6.24e-01	0	58	0	919601152	54	11030
2026-01-13 08:54:30.38	359.64	13.23	-41.4	-52.1	4.5	9.37e-01	10	58	0	921698304	54	12335
2026-01-13 08:54:31.39	359.53	13.14	-41.4	-52.7	4.2	1.30e+00	0	58	0	922746880	54	13216
2026-01-13 08:54:32.40	359.43	13.06	-41.4	-53.2	4.1	1.41e+00	0	58	0	922746880	54	13925
2026-01-13 08:54:33.40	359.32	12.97	-41.4	-54.1	3.9	1.48e+00	0	58	104	922746880	54	15438
2026-01-13 08:54:34.41	359.22	12.89	-41.3	-54.3	3.8	1.49e+00	0	58	104	922746880	54	15819
2026-01-13 08:54:35.42	359.11	12.81	-41.3	-54.4	3.8	1.49e+00	0	58	104	922746880	54	16120
2026-01-13 08:54:36.43	359.01	12.72	-41.2	-54.8	3.8	1.49e+00	0	58	104	922746880	54	16705
2026-01-13 08:54:37.45	358.91	12.64	-41.1	-54.9	3.8	1.49e+00	0	59	104	922746880	54	17006
2026-01-13 08:54:38.45	358.81	12.56	-41.1	-55.2	3.8	1.49e+00	0	58	104	922746880	54	17483
2026-01-13 08:54:39.46	358.71	12.47	-41.0	-55.4	3.8	1.49e+00	0	58	104	922746880	54	17927
2026-01-13 08:54:40.47	358.60	12.39	-40.9	-55.4	3.8	1.49e+00	0	59	104	922746880	53	19145
2026-01-13 08:54:41.48	358.50	12.31	-40.8	-55.3	3.8	1.49e+00	0	59	104	922746880	53	18740
2026-01-13 08:54:42.49	358.40	12.23	-40.7	-55.2	3.8	1.49e+00	0	59	104	922746880	53	18630
2026-01-13 08:54:43.50	358.31	12.14	-40.5	-55.1	3.8	1.49e+00	0	58	104	922746880	53	18428
2026-01-13 08:54:44.51	358.21	12.06	-40.2	-55.1	3.8	1.49e+00	0	59	104	922746880	52	19512
2026-01-13 08:54:45.52	358.11	11.98	-40.3	-55.3	3.8	1.49e+00	0	58	104	922746880	51	21226
2026-01-13 08:54:46.53	358.01	11.90	-40.7	-55.5	3.8	1.49e+00	0	58	104	922746880	52	20477
2026-01-13 08:54:47.54	357.92	11.82	-40.0	-55.0	3.8	1.49e+00	0	58	104	922746880	52	19313
2026-01-13 08:54:48.55	357.82	11.74	-39.8	-54.8	3.8	1.49e+00	0	59	104	922746880	51	20005
2026-01-13 08:54:49.56	357.72	11.65	-39.7	-54.8	3.8	1.49e+00	0	58	104	922746880	51	19852
2026-01-13 08:54:50.56	357.63	11.57	-39.6	-54.7	3.8	1.49e+00	0	58	104	922746880	51	19752
2026-01-13 08:54:51.57	357.54	11.49	-39.5	-54.7	3.8	1.49e+00	0	58	104	922746880	51	19681
2026-01-13 08:54:52.58	357.44	11.41	-39.7	-54.7	3.8	1.49e+00	0	58	104	922746880	50	20984
2026-01-13 08:54:53.59	357.35	11.33	-40.2	-55.2	3.8	1.49e+00	0	59	104	922746880	50	22180
2026-01-13 08:54:54.60	357.25	11.25	-40.0	-54.9	3.8	1.49e+00	0	58	104	922746880	52	19005
2026-01-13 08:54:55.61	357.16	11.17	-39.8	-54.8	3.8	1.49e+00	0	58	104	922746880	51	20000
2026-01-13 08:54:56.62	357.07	11.09	-39.9	-54.8	3.8	1.49e+00	0	58	104	922746880	51	19999
2026-01-13 08:54:57.62	356.98	11.01	-39.6	-54.7	3.8	1.49e+00	0	59	104	922746880	51	19813
2026-01-13 08:54:58.63	356.89	10.93	-39.6	-54.7	3.8	1.49e+00	0	58	104	922746880	51	19779
2026-01-13 08:54:59.64	356.80	10.86	-39.5	-54.7	3.8	1.49e+00	0	59	104	922746880	51	19629
2026-01-13 08:55:00.66	356.71	10.78	-39.5	-54.7	3.8	1.49e+00	0	59	104	922746880	50	20825
2026-01-13 08:55:01.67	356.62	10.70	-40.2	-55.1	3.8	1.49e+00	0	58	104	922746880	50	21878
2026-01-13 08:55:02.68	356.53	10.62	-39.8	-54.8	3.8	1.49e+00	0	59	104	922746880	51	20028
2026-01-13 08:55:03.69	356.44	10.54	-39.7	-54.8	3.8	1.49e+00	0	58	104	922746880	51	19885
2026-01-13 08:55:04.69	356.35	10.46	-39.6	-54.7	3.8	1.49e+00	0	58	104	922746880	51	19821
2026-01-13 08:55:05.70	356.27	10.38	-39.5	-54.7	3.8	1.49e+00	0	58	104	922746880	51	19617
2026-01-13 08:55:06.71	356.18	10.31	-39.5	-54.7	3.8	1.49e+00	0	58	104	922746880	51	19617
2026-01-13 08:55:07.72	356.09	10.23	-39.5	-54.6	3.8	1.49e+00	0	58	104	922746880	51	19599
2026-01-13 08:55:08.73	356.01	10.15	-39.9	-54.7	3.8	1.49e+00	0	58	104	922746880	51	19824
2026-01-13 08:55:09.74	355.92	10.07	-39.9	-54.8	3.8	1.49e+00	0	58	104	922746880	51	20053
2026-01-13 08:55:10.75	355.84	10.00	-39.9	-55.1	3.8	1.49e+00	0	58	104	922746880	51	20662
2026-01-13 08:55:11.76	355.75	9.92	-39.6	-54.7	3.8	1.49e+00	0	58	104	922746880	51	19692
2026-01-13 08:55:12.77	355.67	9.84	-40.0	-55.0	3.8	1.49e+00	0	58	104	922746880	51	20517
2026-01-13 08:55:13.78	355.59	9.77	-39.6	-54.7	3.8	1.49e+00	0	58	104	922746880	51	19655
2026-01-13 08:55:14.79	355.50	9.69	-39.9	-54.7	3.8	1.49e+00	0	58	104	922746880	51	19839
2026-01-13 08:55:15.80	355.42	9.61	-39.9	-54.8	3.8	1.49e+00	0	59	104	922746880	51	19965
2026-01-13 08:55:16.81	355.34	9.54	-39.9	-54.8	3.8	1.49e+00	0	58	104	922746880	51	19853
2026-01-13 08:55:17.82	355.26	9.46	-39.9	-54.8	3.8	1.49e+00	0	58	104	922746880	51	19986
2026-01-13 08:55:18.82	355.18	9.39	-40.1	-55.0	3.8	1.49e+00	0	59	104	922746880	51	20456
2026-01-13 08:55:19.84	355.09	9.31	-39.6	-54.7	3.8	1.49e+00	0	58	104	922746880	51	19760
2026-01-13 08:55:20.85	355.01	9.23	-40.1	-55.0	3.8	1.49e+00	0	58	104	922746880	51	20379
2026-01-13 08:55:21.86	354.93	9.16	-39.7	-54.7	3.8	1.49e+00	0	58	104	922746880	51	19826
2026-01-13 08:55:22.87	354.85	9.08	-40.0	-54.8	3.8	1.49e+00	0	58	104	922746880	51	19961
2026-01-13 08:55:23.87	354.78	9.01	-39.9	-54.7	3.8	1.49e+00	0	58	104	922746880	51	19840
2026-01-13 08:55:24.88	354.70	8.93	-40.0	-54.8	3.8	1.49e+00	0	58	104	922746880	51	19930
2026-01-13 08:55:25.89	354.62	8.86	-39.9	-54.7	3.8	1.49e+00	0	58	104	922746880	51	19792
2026-01-13 08:55:26.90	354.54	8.78	-40.1	-54.9	3.8	1.49e+00	0	58	104	922746880	51	20117
2026-01-13 08:55:27.91	354.46	8.71	-39.9	-54.8	3.8	1.49e+00	0	58	104	922746880	51	19876
2026-01-13 08:55:28.92	354.39	8.64	-40.2	-54.9	3.8	1.49e+00	0	58	104	922746880	51	20149
2026-01-13 08:55:29.93	354.31	8.56	-40.0	-54.8	3.8	1.49e+00	0	59	104	922746880	51	19979
2026-01-13 08:55:30.94	354.23	8.49	-40.1	-54.8	3.8	1.49e+00	0	58	104	922746880	51	19929
2026-01-13 08:55:31.95	354.16	8.42	-39.9	-54.7	3.8	1.49e+00	0	59	104	922746880	51	19804
2026-01-13 08:55:32.96	354.08	8.34	-40.1	-54.8	3.8	1.49e+00	0	58	104	922746880	51	19869
2026-01-13 08:55:33.97	354.01	8.27	-39.9	-54.8	3.8	1.49e+00	0	58	104	922746880	51	19877
2026-01-13 08:55:34.98	353.93	8.20	-40.2	-54.9	3.8	1.49e+00	0	58	104	922746880	51	20080
