passes_logs/2026/01/13/R2.0S_Moscow/R2.0S_Moscow__20260113_121832_AQUA_rec.log

#Pass ID: 20260113_121832_AQUA
#Satellite: AQUA
#Configuration: AQUA
#almurnet v.1.7.20251203
#Start time: 2026-01-13 12:18:32

#Version: 2.2.20231116
#Station: R2.0S_Moscow
#Location: 37.707566 lon 55.798166 lat
#TLE: 1 27424U 02022A   26012.29577270  .00001027  00000+0  21555-3 0  9995
#TLE: 2 27424  98.4078 338.6778 0002034  81.5885  29.6294 14.61817302260499

#Time	Az	El	Level	Level2	SNR	BER	BlckErr	Temp	State	Recorded	gain1	gain2
2026-01-13 12:18:32.73	181.54	2.00	-44.8	-63.5	3.8	7.45e-01	0	50	0	0	61	30630
2026-01-13 12:18:33.75	181.58	2.06	-44.8	-63.5	3.8	7.48e-01	0	50	104	0	60	32493
2026-01-13 12:18:34.76	181.62	2.13	-44.8	-63.5	3.8	7.43e-01	0	50	104	0	60	32416
2026-01-13 12:18:35.77	181.66	2.20	-44.8	-63.5	3.8	7.46e-01	0	50	104	0	60	32422
2026-01-13 12:18:36.78	181.69	2.26	-44.8	-63.5	3.8	7.45e-01	0	50	104	0	60	32487
2026-01-13 12:18:37.79	181.73	2.33	-44.8	-63.5	3.8	7.45e-01	0	50	104	0	60	32370
2026-01-13 12:18:38.80	181.77	2.39	-44.8	-63.5	3.8	7.46e-01	0	50	104	0	60	32479
2026-01-13 12:18:39.81	181.81	2.46	-44.8	-63.5	3.8	7.49e-01	0	50	104	0	60	32401
2026-01-13 12:18:40.82	181.85	2.53	-44.8	-63.5	3.8	7.42e-01	0	51	104	0	60	32432
2026-01-13 12:18:41.83	181.89	2.59	-44.8	-63.5	3.8	7.46e-01	0	51	104	0	60	32478
2026-01-13 12:18:42.84	181.93	2.66	-44.8	-63.5	3.8	7.47e-01	0	51	104	0	60	32404
2026-01-13 12:18:43.85	181.97	2.73	-44.8	-63.5	3.8	7.47e-01	0	51	104	0	60	32430
2026-01-13 12:18:44.86	182.01	2.79	-44.8	-63.5	3.8	7.41e-01	0	51	104	0	60	32408
2026-01-13 12:18:45.87	182.05	2.86	-44.8	-63.5	3.8	7.47e-01	0	51	104	0	60	32469
2026-01-13 12:18:46.88	182.09	2.93	-44.8	-63.5	3.8	7.48e-01	0	51	104	0	60	32534
2026-01-13 12:18:47.90	182.13	3.00	-44.8	-63.5	3.8	7.44e-01	0	51	104	0	60	32395
2026-01-13 12:18:48.91	182.17	3.07	-44.8	-63.5	3.8	7.45e-01	0	51	104	0	60	32397
2026-01-13 12:18:49.92	182.22	3.13	-44.8	-63.5	3.8	7.47e-01	0	51	104	0	60	32407
2026-01-13 12:18:50.93	182.26	3.20	-44.8	-63.5	3.8	7.44e-01	0	51	104	0	60	32410
2026-01-13 12:18:51.94	182.30	3.27	-44.8	-63.5	3.8	7.46e-01	0	51	104	0	60	32441
2026-01-13 12:18:52.95	182.34	3.34	-44.8	-63.5	3.8	7.47e-01	0	51	104	0	60	32421
2026-01-13 12:18:53.96	182.38	3.41	-44.8	-63.5	3.8	7.47e-01	0	52	104	0	60	32393
2026-01-13 12:18:54.97	182.42	3.48	-44.8	-63.5	3.8	7.45e-01	0	51	104	0	60	32320
2026-01-13 12:18:55.98	182.47	3.55	-44.8	-63.5	3.8	7.44e-01	0	52	104	0	60	32357
2026-01-13 12:18:56.99	182.51	3.62	-44.8	-63.5	3.8	7.45e-01	0	52	104	0	60	32348
2026-01-13 12:18:58.00	182.55	3.69	-44.8	-63.5	3.8	7.45e-01	0	52	104	0	60	32339
2026-01-13 12:18:59.01	182.59	3.76	-44.8	-63.5	3.8	7.46e-01	0	52	104	0	60	32332
2026-01-13 12:19:00.02	182.64	3.83	-44.8	-63.5	3.8	7.43e-01	0	52	104	0	60	32219
2026-01-13 12:19:01.03	182.68	3.90	-44.8	-63.4	3.8	7.45e-01	0	52	104	0	60	32148
2026-01-13 12:19:02.04	182.72	3.97	-44.8	-63.4	3.8	7.46e-01	0	52	104	0	60	31938
2026-01-13 12:19:03.05	182.77	4.04	-44.8	-63.4	3.8	7.46e-01	0	52	104	0	60	32089
2026-01-13 12:19:04.06	182.81	4.11	-44.8	-63.4	3.8	7.44e-01	0	52	104	0	60	32108
2026-01-13 12:19:05.07	182.86	4.18	-44.8	-63.3	3.8	7.45e-01	0	52	104	0	60	31672
2026-01-13 12:19:06.08	182.90	4.25	-44.8	-63.2	3.8	7.44e-01	0	52	104	0	60	31138
2026-01-13 12:19:07.09	182.95	4.32	-44.8	-63.0	3.8	7.44e-01	0	52	104	0	60	30723
2026-01-13 12:19:08.10	182.99	4.39	-44.8	-62.9	3.8	7.42e-01	0	52	104	0	60	30051
2026-01-13 12:19:09.11	183.04	4.46	-44.8	-62.4	3.8	7.44e-01	0	53	104	0	60	28549
2026-01-13 12:19:10.12	183.08	4.54	-44.8	-62.6	3.8	7.48e-01	0	53	104	0	60	29126
2026-01-13 12:19:11.13	183.13	4.61	-44.8	-62.0	3.8	7.44e-01	0	53	104	0	60	27167
2026-01-13 12:19:12.15	183.17	4.68	-44.8	-61.9	3.8	7.43e-01	0	53	104	0	60	27001
2026-01-13 12:19:13.16	183.22	4.75	-44.8	-62.0	3.8	7.42e-01	0	53	104	0	60	27301
2026-01-13 12:19:14.17	183.27	4.83	-44.8	-61.3	3.9	7.46e-01	0	53	104	0	60	25241
2026-01-13 12:19:15.18	183.31	4.90	-44.8	-61.3	3.9	7.39e-01	0	53	104	0	60	25083
2026-01-13 12:19:16.19	183.36	4.97	-44.8	-60.6	4.0	7.36e-01	0	53	104	0	60	23184
2026-01-13 12:19:17.20	183.41	5.04	-44.7	-60.0	3.9	7.36e-01	0	53	104	0	60	21562
2026-01-13 12:19:18.21	183.45	5.12	-44.7	-59.2	4.4	7.25e-01	0	53	104	0	60	19794
2026-01-13 12:19:19.22	183.50	5.19	-44.7	-58.5	4.6	7.16e-01	0	53	104	0	60	18112
2026-01-13 12:19:20.23	183.55	5.27	-44.7	-59.3	4.3	7.40e-01	0	53	104	0	60	20048
2026-01-13 12:19:21.24	183.60	5.34	-44.7	-58.6	4.8	7.17e-01	0	53	104	0	60	18430
2026-01-13 12:19:22.25	183.64	5.41	-44.6	-57.6	5.2	7.02e-01	0	53	0	0	60	16495
2026-01-13 12:19:23.26	183.69	5.49	-44.6	-57.2	5.4	6.98e-01	7	53	0	0	60	15738
2026-01-13 12:19:24.27	183.74	5.56	-44.5	-56.5	6.0	6.82e-01	75	53	0	1048576	60	14393
2026-01-13 12:19:25.28	183.79	5.64	-44.5	-56.4	6.0	6.85e-01	92	54	0	2621440	60	14216
2026-01-13 12:19:26.29	183.84	5.71	-44.5	-56.0	6.3	6.75e-01	90	53	0	4718592	60	13615
2026-01-13 12:19:27.31	183.89	5.79	-44.4	-55.1	7.0	6.62e-01	92	53	0	6291456	60	12341
2026-01-13 12:19:28.32	183.94	5.87	-44.3	-54.4	7.8	6.48e-01	88	54	0	8388608	60	11299
2026-01-13 12:19:29.33	183.99	5.94	-44.3	-54.1	8.0	6.50e-01	81	54	0	9961472	60	11025
2026-01-13 12:19:30.34	184.04	6.02	-44.2	-53.1	9.1	6.30e-01	0	54	0	12058624	60	9720
2026-01-13 12:19:31.35	184.09	6.10	-44.1	-52.5	9.8	6.26e-01	0	54	0	14155776	60	9072
2026-01-13 12:19:32.36	184.14	6.17	-44.0	-52.2	10.0	6.21e-01	0	54	0	15728640	60	8789
2026-01-13 12:19:33.37	184.19	6.25	-44.1	-51.9	10.7	6.21e-01	0	54	0	17825792	59	9057
2026-01-13 12:19:34.38	184.24	6.33	-44.1	-51.9	10.7	6.21e-01	0	54	0	19922944	59	8971
2026-01-13 12:19:35.39	184.30	6.40	-44.1	-51.7	11.0	6.19e-01	0	54	0	21495808	59	8798
2026-01-13 12:19:36.40	184.35	6.48	-44.1	-51.5	11.2	6.19e-01	0	54	0	23592960	59	8595
2026-01-13 12:19:37.41	184.40	6.56	-44.0	-51.1	11.6	6.15e-01	0	54	0	25165824	59	8241
2026-01-13 12:19:38.43	184.45	6.64	-44.0	-51.3	11.5	6.15e-01	0	54	0	27262976	59	8396
2026-01-13 12:19:39.44	184.51	6.72	-44.0	-51.2	11.5	6.17e-01	0	54	0	29360128	59	8288
2026-01-13 12:19:40.45	184.56	6.80	-43.9	-51.0	11.7	6.13e-01	0	54	0	30932992	59	8161
2026-01-13 12:19:41.46	184.61	6.87	-43.9	-50.8	11.9	6.11e-01	0	54	0	33030144	59	7974
2026-01-13 12:19:42.47	184.67	6.95	-43.8	-50.5	12.1	6.12e-01	0	54	0	34603008	59	7700
2026-01-13 12:19:43.48	184.72	7.03	-43.8	-50.3	12.3	6.13e-01	0	54	0	36700160	59	7540
2026-01-13 12:19:44.49	184.78	7.11	-43.5	-49.6	13.2	6.08e-01	0	54	0	38797312	59	6918
2026-01-13 12:19:45.50	184.83	7.19	-43.4	-49.1	13.7	6.09e-01	0	54	0	40370176	58	6893
2026-01-13 12:19:46.51	184.89	7.27	-43.3	-48.8	13.9	6.10e-01	0	54	0	42467328	58	6721
2026-01-13 12:19:47.52	184.94	7.35	-43.0	-48.1	14.7	6.06e-01	0	55	0	44040192	58	6172
2026-01-13 12:19:48.52	185.00	7.43	-42.8	-47.6	15.3	6.08e-01	0	55	0	46137344	57	6136
2026-01-13 12:19:49.54	185.05	7.51	-42.6	-47.3	15.6	6.07e-01	0	55	0	48234496	57	5930
2026-01-13 12:19:50.55	185.11	7.60	-42.5	-47.0	15.5	6.07e-01	0	55	0	49807360	57	5732
2026-01-13 12:19:51.56	185.16	7.68	-42.6	-47.1	15.8	6.08e-01	0	55	0	51904512	56	6161
2026-01-13 12:19:52.57	185.22	7.76	-42.5	-46.9	16.0	6.04e-01	0	55	0	53477376	56	5996
2026-01-13 12:19:53.58	185.28	7.84	-42.5	-47.0	15.9	6.08e-01	0	55	0	55574528	56	6077
2026-01-13 12:19:54.59	185.34	7.92	-42.7	-47.3	15.5	6.05e-01	0	55	0	57671680	56	6327
2026-01-13 12:19:55.60	185.39	8.01	-42.7	-47.4	15.5	6.07e-01	0	55	0	59244544	56	6408
2026-01-13 12:19:56.61	185.45	8.09	-42.9	-47.7	15.3	6.06e-01	0	55	0	61341696	56	6589
2026-01-13 12:19:57.62	185.51	8.17	-43.1	-48.2	14.8	6.07e-01	0	55	0	63438848	56	6981
2026-01-13 12:19:58.62	185.57	8.25	-43.4	-49.0	14.6	6.08e-01	0	55	0	65011712	57	7276
2026-01-13 12:19:59.63	185.63	8.34	-44.6	-55.1	8.0	6.55e-01	88	55	0	67108864	59	12976
2026-01-13 12:20:00.64	185.69	8.42	-42.2	-46.2	16.7	6.08e-01	0	55	0	67108864	56	5536
2026-01-13 12:20:01.65	185.75	8.51	-42.6	-46.8	16.0	6.08e-01	0	55	0	69206016	57	5648
2026-01-13 12:20:02.66	185.81	8.59	-42.4	-46.4	16.6	6.07e-01	0	55	0	70778880	56	5695
2026-01-13 12:20:03.67	185.87	8.68	-42.2	-46.0	17.0	6.06e-01	0	55	0	72876032	56	5459
2026-01-13 12:20:04.68	185.93	8.76	-42.2	-46.1	17.0	6.08e-01	0	55	0	74448896	56	5493
2026-01-13 12:20:05.69	185.99	8.85	-42.3	-46.3	16.8	6.07e-01	0	55	0	76546048	56	5598
2026-01-13 12:20:06.70	186.05	8.93	-42.1	-46.0	17.1	6.06e-01	0	55	0	78643200	56	5422
2026-01-13 12:20:07.71	186.12	9.02	-42.1	-45.9	17.1	6.07e-01	0	55	0	80216064	56	5388
2026-01-13 12:20:08.72	186.18	9.11	-42.1	-45.9	17.2	6.08e-01	0	55	0	82313216	56	5386
2026-01-13 12:20:09.73	186.24	9.19	-42.1	-45.9	17.2	6.06e-01	0	55	0	84410368	56	5372
2026-01-13 12:20:10.74	186.31	9.28	-42.1	-45.9	17.2	6.08e-01	0	55	0	85983232	56	5380
2026-01-13 12:20:11.75	186.37	9.37	-42.1	-45.9	17.2	6.07e-01	0	55	0	88080384	56	5347
2026-01-13 12:20:12.76	186.43	9.45	-42.1	-45.9	17.1	6.08e-01	0	55	0	89653248	56	5397
2026-01-13 12:20:13.77	186.50	9.54	-42.1	-45.9	17.1	6.07e-01	0	55	0	91750400	56	5393
2026-01-13 12:20:14.78	186.56	9.63	-42.1	-45.8	17.3	6.06e-01	0	55	0	93847552	56	5310
2026-01-13 12:20:15.79	186.63	9.72	-42.1	-45.8	17.4	6.06e-01	0	55	0	95420416	56	5299
2026-01-13 12:20:16.80	186.69	9.81	-41.9	-45.5	17.6	6.07e-01	0	56	0	97517568	55	5425
2026-01-13 12:20:17.80	186.76	9.90	-41.9	-45.6	17.5	6.08e-01	0	55	0	99614720	55	5495
2026-01-13 12:20:18.81	186.83	9.99	-42.0	-45.7	17.3	6.09e-01	0	56	0	101187584	55	5588
2026-01-13 12:20:19.82	186.89	10.08	-42.0	-45.8	17.3	6.06e-01	0	56	0	103284736	55	5599
2026-01-13 12:20:20.83	186.96	10.17	-42.1	-45.9	17.2	6.07e-01	0	56	0	104857600	55	5659
2026-01-13 12:20:21.84	187.03	10.26	-42.1	-46.0	17.0	6.09e-01	0	56	0	106954752	55	5727
2026-01-13 12:20:22.85	187.10	10.35	-42.0	-45.6	17.5	6.07e-01	0	56	0	109051904	55	5520
2026-01-13 12:20:23.86	187.17	10.44	-41.9	-45.5	17.7	6.07e-01	0	56	0	110624768	55	5407
2026-01-13 12:20:24.87	187.23	10.53	-41.9	-45.5	17.6	6.07e-01	0	56	0	112721920	55	5441
2026-01-13 12:20:25.88	187.30	10.62	-41.8	-45.4	17.8	6.06e-01	0	56	0	114294784	55	5357
2026-01-13 12:20:26.89	187.37	10.72	-41.9	-45.4	17.7	6.05e-01	0	56	0	116391936	55	5396
2026-01-13 12:20:27.90	187.44	10.81	-41.8	-45.3	17.8	6.07e-01	0	56	0	118489088	55	5339
2026-01-13 12:20:28.91	187.52	10.90	-41.8	-45.2	17.9	6.06e-01	0	56	0	120061952	55	5278
2026-01-13 12:20:29.92	187.59	10.99	-41.8	-45.2	18.0	6.07e-01	0	56	0	122159104	55	5276
2026-01-13 12:20:30.93	187.66	11.09	-41.8	-45.3	17.9	6.07e-01	0	56	0	123731968	55	5319
2026-01-13 12:20:31.94	187.73	11.18	-41.8	-45.3	17.9	6.08e-01	0	56	0	125829120	55	5294
2026-01-13 12:20:32.95	187.80	11.28	-41.8	-45.3	17.9	6.08e-01	0	56	0	127926272	55	5329
2026-01-13 12:20:33.96	187.88	11.37	-41.9	-45.4	17.8	6.07e-01	0	56	0	129499136	55	5361
2026-01-13 12:20:34.97	187.95	11.47	-42.0	-45.6	17.7	6.10e-01	0	56	0	131596288	55	5467
2026-01-13 12:20:35.98	188.03	11.56	-41.9	-45.5	17.8	6.07e-01	0	56	0	133169152	55	5413
2026-01-13 12:20:36.99	188.10	11.66	-41.9	-45.4	17.9	6.06e-01	0	56	0	135266304	55	5356
2026-01-13 12:20:38.00	188.18	11.76	-41.9	-45.4	17.8	6.07e-01	0	56	0	137363456	55	5389
2026-01-13 12:20:39.01	188.25	11.85	-42.0	-45.5	17.8	6.07e-01	0	56	0	138936320	55	5414
2026-01-13 12:20:40.02	188.33	11.95	-42.0	-45.5	17.8	6.07e-01	0	56	0	141033472	55	5422
2026-01-13 12:20:41.03	188.41	12.05	-42.0	-45.5	17.8	6.06e-01	0	56	0	142606336	55	5450
2026-01-13 12:20:42.04	188.48	12.15	-42.0	-45.5	17.9	6.06e-01	0	56	0	144703488	55	5415
2026-01-13 12:20:43.05	188.56	12.24	-41.9	-45.3	18.0	6.06e-01	0	56	0	146800640	55	5316
2026-01-13 12:20:44.06	188.64	12.34	-41.8	-45.1	18.2	6.06e-01	0	56	0	148373504	55	5218
2026-01-13 12:20:45.07	188.72	12.44	-41.7	-45.1	18.2	6.07e-01	0	56	0	150470656	55	5181
2026-01-13 12:20:46.08	188.80	12.54	-41.7	-45.0	18.3	6.05e-01	0	56	0	152567808	55	5144
2026-01-13 12:20:47.08	188.88	12.64	-41.6	-44.9	18.4	6.07e-01	0	56	0	154140672	55	5080
2026-01-13 12:20:48.09	188.96	12.74	-41.6	-44.9	18.5	6.08e-01	0	56	0	156237824	55	5066
2026-01-13 12:20:49.10	189.04	12.84	-41.6	-44.8	18.5	6.06e-01	0	56	0	157810688	55	5018
2026-01-13 12:20:50.11	189.12	12.94	-41.6	-44.8	18.6	6.06e-01	0	56	0	159907840	55	4999
2026-01-13 12:20:51.12	189.20	13.04	-41.6	-44.7	18.6	6.06e-01	0	56	0	162004992	55	4978
2026-01-13 12:20:52.13	189.29	13.15	-41.6	-44.7	18.6	6.07e-01	0	56	0	163577856	55	4976
2026-01-13 12:20:53.14	189.37	13.25	-41.6	-44.8	18.6	6.06e-01	0	56	0	165675008	55	5008
2026-01-13 12:20:54.15	189.45	13.35	-41.6	-44.8	18.5	6.08e-01	0	56	0	167772160	55	5029
2026-01-13 12:20:55.16	189.54	13.46	-41.5	-44.7	18.7	6.06e-01	0	57	0	169345024	55	4953
2026-01-13 12:20:56.17	189.62	13.56	-41.6	-44.8	18.6	6.06e-01	0	56	0	171442176	55	4996
2026-01-13 12:20:57.18	189.71	13.66	-41.6	-44.8	18.6	6.07e-01	0	56	0	173015040	55	5022
2026-01-13 12:20:58.19	189.80	13.77	-41.5	-44.7	18.7	6.06e-01	0	57	0	175112192	55	4944
2026-01-13 12:20:59.20	189.88	13.87	-41.6	-44.7	18.7	6.05e-01	0	57	0	177209344	55	4955
2026-01-13 12:21:00.21	189.97	13.98	-41.5	-44.7	18.8	6.07e-01	0	57	0	178782208	55	4928
2026-01-13 12:21:01.22	190.06	14.08	-41.5	-44.6	18.8	6.08e-01	0	57	0	180879360	55	4915
2026-01-13 12:21:02.23	190.15	14.19	-41.6	-44.7	18.7	6.03e-01	0	57	0	182452224	55	4974
2026-01-13 12:21:03.24	190.24	14.30	-41.6	-44.7	18.7	6.10e-01	0	57	0	184549376	55	4959
2026-01-13 12:21:04.25	190.33	14.41	-41.6	-44.7	18.8	6.07e-01	0	56	0	186646528	55	4945
2026-01-13 12:21:05.26	190.42	14.51	-41.6	-44.7	18.8	6.06e-01	0	57	0	188219392	55	4959
2026-01-13 12:21:06.27	190.51	14.62	-41.6	-44.7	18.7	6.04e-01	0	57	0	190316544	55	4980
2026-01-13 12:21:07.28	190.61	14.73	-41.6	-44.7	18.7	6.07e-01	0	57	0	191889408	55	4967
2026-01-13 12:21:08.29	190.70	14.84	-41.6	-44.8	18.7	6.09e-01	0	57	0	193986560	55	4985
2026-01-13 12:21:09.30	190.79	14.95	-41.6	-44.8	18.7	6.06e-01	0	57	0	196083712	55	4985
2026-01-13 12:21:10.31	190.89	15.06	-41.5	-44.7	18.8	6.05e-01	0	57	0	197656576	54	5222
2026-01-13 12:21:11.32	190.98	15.17	-41.5	-44.6	18.9	6.06e-01	0	57	0	199753728	54	5202
2026-01-13 12:21:12.33	191.08	15.28	-41.5	-44.6	18.9	6.06e-01	0	57	0	201326592	54	5177
2026-01-13 12:21:13.34	191.18	15.39	-41.5	-44.5	18.9	6.07e-01	0	57	0	203423744	54	5155
2026-01-13 12:21:14.35	191.28	15.51	-41.5	-44.5	19.0	6.07e-01	0	57	0	205520896	54	5112
2026-01-13 12:21:15.35	191.37	15.62	-41.5	-44.5	19.0	6.06e-01	0	57	0	207093760	54	5128
2026-01-13 12:21:16.36	191.47	15.73	-41.5	-44.5	19.0	6.06e-01	0	57	0	209190912	54	5145
2026-01-13 12:21:17.37	191.57	15.84	-41.4	-44.4	19.1	6.07e-01	0	57	0	210763776	54	5072
2026-01-13 12:21:18.38	191.67	15.96	-41.5	-44.5	19.0	6.07e-01	0	57	0	212860928	54	5130
2026-01-13 12:21:19.39	191.77	16.07	-41.5	-44.5	19.1	6.06e-01	0	57	0	214958080	54	5110
2026-01-13 12:21:20.40	191.88	16.19	-41.4	-44.4	19.1	6.05e-01	0	57	0	216530944	54	5086
2026-01-13 12:21:21.41	191.98	16.30	-41.4	-44.4	19.1	6.06e-01	0	57	0	218628096	54	5086
2026-01-13 12:21:22.42	192.08	16.42	-41.4	-44.3	19.3	6.07e-01	0	57	0	220725248	54	5012
2026-01-13 12:21:23.43	192.19	16.54	-41.4	-44.4	19.1	6.06e-01	0	57	0	222298112	54	5085
2026-01-13 12:21:24.44	192.29	16.66	-41.4	-44.4	19.2	6.07e-01	0	57	0	224395264	54	5057
2026-01-13 12:21:25.44	192.40	16.77	-41.4	-44.4	19.2	6.07e-01	0	57	0	225968128	54	5078
2026-01-13 12:21:26.45	192.51	16.89	-41.4	-44.3	19.2	6.05e-01	0	57	0	228065280	54	5014
2026-01-13 12:21:27.46	192.62	17.01	-41.4	-44.3	19.3	6.07e-01	0	57	0	230162432	54	5020
2026-01-13 12:21:28.47	192.73	17.13	-41.4	-44.3	19.3	6.06e-01	0	57	0	231735296	54	5007
2026-01-13 12:21:29.48	192.84	17.25	-41.3	-44.2	19.3	6.04e-01	0	57	0	233832448	54	4980
2026-01-13 12:21:30.49	192.95	17.37	-41.4	-44.3	19.3	6.07e-01	0	57	0	235929600	54	5009
2026-01-13 12:21:31.50	193.06	17.49	-41.4	-44.3	19.3	6.05e-01	0	57	0	237502464	54	5018
2026-01-13 12:21:32.51	193.17	17.61	-41.4	-44.4	19.2	6.07e-01	0	57	0	239599616	54	5057
2026-01-13 12:21:33.52	193.28	17.74	-41.4	-44.4	19.2	6.06e-01	0	57	0	241172480	54	5057
2026-01-13 12:21:34.53	193.40	17.86	-41.5	-44.5	19.1	6.06e-01	0	57	0	243269632	54	5102
2026-01-13 12:21:35.54	193.52	17.98	-41.4	-44.4	19.2	6.06e-01	0	57	0	245366784	54	5079
2026-01-13 12:21:36.55	193.63	18.11	-41.4	-44.4	19.3	6.08e-01	0	57	0	246939648	54	5045
2026-01-13 12:21:37.56	193.75	18.23	-41.4	-44.3	19.3	6.06e-01	0	57	0	249036800	54	5026
2026-01-13 12:21:38.57	193.87	18.36	-41.3	-44.2	19.4	6.06e-01	0	58	0	250609664	54	4982
2026-01-13 12:21:39.58	193.99	18.48	-41.3	-44.3	19.4	6.05e-01	0	57	0	252706816	54	4987
2026-01-13 12:21:40.59	194.11	18.61	-41.4	-44.3	19.3	6.07e-01	0	57	0	254803968	54	5025
2026-01-13 12:21:41.60	194.23	18.74	-41.4	-44.4	19.3	6.07e-01	0	57	0	256376832	54	5048
2026-01-13 12:21:42.61	194.35	18.86	-41.5	-44.5	19.2	6.05e-01	0	57	0	258473984	54	5116
2026-01-13 12:21:43.61	194.48	18.99	-41.5	-44.5	19.2	6.07e-01	0	57	0	260046848	54	5108
2026-01-13 12:21:44.62	194.60	19.12	-41.5	-44.5	19.2	6.06e-01	0	57	0	262144000	54	5124
2026-01-13 12:21:45.63	194.73	19.25	-41.4	-44.4	19.3	6.05e-01	0	57	0	264241152	54	5046
2026-01-13 12:21:46.64	194.85	19.38	-41.4	-44.3	19.3	6.06e-01	0	57	0	265814016	54	5015
2026-01-13 12:21:47.65	194.98	19.51	-41.4	-44.3	19.4	6.07e-01	0	57	0	267911168	54	5010
2026-01-13 12:21:48.66	195.11	19.64	-41.4	-44.3	19.4	6.08e-01	0	57	0	269484032	54	5019
2026-01-13 12:21:49.67	195.24	19.77	-41.4	-44.4	19.3	6.08e-01	0	57	0	271581184	54	5046
2026-01-13 12:21:50.68	195.37	19.91	-41.5	-44.4	19.2	6.06e-01	0	57	0	273678336	54	5088
2026-01-13 12:21:51.69	195.51	20.04	-41.4	-44.4	19.3	6.10e-01	0	57	0	275251200	54	5051
2026-01-13 12:21:52.70	195.64	20.17	-41.5	-44.4	19.3	6.05e-01	0	58	0	277348352	54	5067
2026-01-13 12:21:53.71	195.77	20.31	-41.4	-44.3	19.3	6.05e-01	0	57	0	278921216	54	5038
2026-01-13 12:21:54.72	195.91	20.44	-41.4	-44.3	19.4	6.09e-01	0	58	0	281018368	54	5000
2026-01-13 12:21:55.73	196.05	20.58	-41.4	-44.3	19.4	6.07e-01	0	58	0	283115520	54	5037
2026-01-13 12:21:56.74	196.19	20.72	-41.5	-44.5	19.2	6.05e-01	0	58	0	284688384	54	5107
2026-01-13 12:21:57.75	196.33	20.85	-41.6	-44.6	19.1	6.06e-01	0	58	0	286785536	54	5203
2026-01-13 12:21:58.76	196.47	20.99	-41.6	-44.7	19.0	6.06e-01	0	58	0	288882688	54	5238
2026-01-13 12:21:59.77	196.61	21.13	-41.6	-44.7	19.0	6.06e-01	0	58	0	290455552	54	5236
2026-01-13 12:22:00.78	196.76	21.27	-41.6	-44.6	19.1	6.08e-01	0	58	0	292552704	54	5189
2026-01-13 12:22:01.79	196.90	21.41	-41.5	-44.4	19.3	6.06e-01	0	57	0	294125568	54	5092
2026-01-13 12:22:02.80	197.05	21.55	-41.5	-44.4	19.3	6.07e-01	0	58	0	296222720	54	5098
2026-01-13 12:22:03.81	197.20	21.69	-41.5	-44.5	19.3	6.04e-01	0	57	0	298319872	54	5111
2026-01-13 12:22:04.82	197.34	21.83	-41.6	-44.6	19.1	6.05e-01	0	58	0	299892736	54	5201
2026-01-13 12:22:05.83	197.50	21.97	-41.7	-44.7	19.0	6.06e-01	0	58	0	301989888	54	5266
2026-01-13 12:22:06.84	197.65	22.12	-41.7	-44.8	19.0	6.06e-01	0	57	0	304087040	54	5314
2026-01-13 12:22:07.85	197.80	22.26	-41.7	-44.8	19.0	6.06e-01	0	58	0	305659904	54	5282
2026-01-13 12:22:08.86	197.96	22.41	-41.6	-44.6	19.1	6.04e-01	0	58	0	307757056	54	5217
2026-01-13 12:22:09.87	198.11	22.55	-41.6	-44.6	19.2	6.09e-01	0	58	0	309329920	54	5196
2026-01-13 12:22:10.88	198.27	22.70	-41.6	-44.7	19.1	6.05e-01	0	58	0	311427072	54	5231
2026-01-13 12:22:11.89	198.43	22.84	-41.7	-44.8	19.0	6.06e-01	0	58	0	313524224	54	5281
2026-01-13 12:22:12.90	198.59	22.99	-41.8	-44.8	19.0	6.06e-01	0	58	0	315097088	54	5317
2026-01-13 12:22:13.91	198.76	23.14	-41.7	-44.8	19.0	6.06e-01	0	58	0	317194240	54	5301
2026-01-13 12:22:14.92	198.92	23.29	-41.7	-44.7	19.1	6.07e-01	0	58	0	318767104	54	5234
2026-01-13 12:22:15.93	199.09	23.44	-41.6	-44.6	19.2	6.05e-01	0	58	0	320864256	54	5200
2026-01-13 12:22:16.94	199.25	23.59	-41.6	-44.6	19.2	6.07e-01	0	58	0	322961408	54	5195
2026-01-13 12:22:17.95	199.42	23.74	-41.7	-44.7	19.1	6.07e-01	0	58	0	324534272	54	5245
2026-01-13 12:22:18.96	199.59	23.89	-41.8	-44.8	19.0	6.06e-01	0	58	0	326631424	54	5310
2026-01-13 12:22:19.97	199.77	24.04	-41.8	-44.9	18.9	6.06e-01	0	58	0	328204288	54	5363
2026-01-13 12:22:20.98	199.94	24.20	-41.8	-44.9	18.9	6.06e-01	0	58	0	330301440	54	5349
2026-01-13 12:22:21.99	200.12	24.35	-41.7	-44.8	19.0	6.08e-01	0	58	0	332398592	54	5303
2026-01-13 12:22:23.00	200.29	24.50	-41.7	-44.7	19.2	6.07e-01	0	58	0	333971456	54	5221
2026-01-13 12:22:24.00	200.47	24.66	-41.6	-44.6	19.2	6.07e-01	0	58	0	336068608	54	5176
2026-01-13 12:22:25.01	200.65	24.81	-41.6	-44.6	19.2	6.07e-01	0	58	0	337641472	54	5198
2026-01-13 12:22:26.02	200.84	24.97	-41.6	-44.6	19.2	6.05e-01	0	58	0	339738624	54	5194
2026-01-13 12:22:27.03	201.02	25.13	-41.6	-44.6	19.3	6.04e-01	0	58	0	341835776	54	5160
2026-01-13 12:22:28.04	201.21	25.28	-41.6	-44.5	19.4	6.04e-01	0	58	0	343408640	54	5123
2026-01-13 12:22:29.05	201.40	25.44	-41.6	-44.6	19.3	6.08e-01	0	58	0	345505792	54	5173
2026-01-13 12:22:30.06	201.59	25.60	-41.7	-44.6	19.2	6.05e-01	0	58	0	347078656	54	5192
2026-01-13 12:22:31.07	201.78	25.76	-41.7	-44.6	19.2	6.06e-01	0	58	0	349175808	54	5197
2026-01-13 12:22:32.08	201.98	25.92	-41.6	-44.6	19.2	6.08e-01	0	58	0	351272960	54	5195
2026-01-13 12:22:33.09	202.17	26.09	-41.7	-44.6	19.3	6.05e-01	0	58	0	352845824	54	5187
2026-01-13 12:22:34.10	202.37	26.25	-41.6	-44.5	19.3	6.07e-01	0	58	0	354942976	54	5156
2026-01-13 12:22:35.11	202.57	26.41	-41.6	-44.5	19.4	6.07e-01	0	58	0	357040128	54	5115
2026-01-13 12:22:36.12	202.78	26.57	-41.5	-44.4	19.5	6.06e-01	0	58	0	358612992	54	5061
2026-01-13 12:22:37.13	202.98	26.74	-41.5	-44.4	19.5	6.06e-01	0	58	0	360710144	54	5077
2026-01-13 12:22:38.14	203.19	26.90	-41.6	-44.5	19.4	6.05e-01	0	58	0	362283008	54	5106
2026-01-13 12:22:39.15	203.40	27.07	-41.6	-44.5	19.4	6.06e-01	0	58	0	364380160	54	5113
2026-01-13 12:22:40.16	203.61	27.24	-41.6	-44.5	19.5	6.08e-01	0	58	0	366477312	54	5103
2026-01-13 12:22:41.17	203.83	27.40	-41.6	-44.4	19.5	6.10e-01	0	58	0	368050176	54	5083
2026-01-13 12:22:42.17	204.04	27.57	-41.5	-44.3	19.6	6.06e-01	0	58	0	370147328	54	5036
2026-01-13 12:22:43.18	204.26	27.74	-41.5	-44.4	19.5	6.08e-01	0	58	0	372244480	54	5080
2026-01-13 12:22:44.19	204.48	27.91	-41.6	-44.6	19.4	6.07e-01	0	58	0	373817344	54	5169
2026-01-13 12:22:45.20	204.70	28.08	-41.6	-44.6	19.4	6.07e-01	0	58	0	375914496	54	5161
2026-01-13 12:22:46.21	204.93	28.25	-41.6	-44.4	19.4	6.06e-01	0	58	0	377487360	54	5097
2026-01-13 12:22:47.22	205.16	28.42	-41.5	-44.3	19.6	6.06e-01	0	58	0	379584512	54	4999
2026-01-13 12:22:48.23	205.39	28.59	-41.6	-44.4	19.5	6.07e-01	0	58	0	381157376	54	5082
2026-01-13 12:22:49.24	205.62	28.76	-41.6	-44.5	19.4	6.06e-01	0	58	0	383254528	54	5141
2026-01-13 12:22:50.25	205.86	28.94	-41.6	-44.5	19.5	6.07e-01	0	58	0	385351680	54	5107
2026-01-13 12:22:51.26	206.10	29.11	-41.5	-44.3	19.7	6.06e-01	0	58	0	386924544	54	4998
2026-01-13 12:22:52.26	206.33	29.28	-41.5	-44.3	19.6	6.06e-01	0	58	0	389021696	54	5035
2026-01-13 12:22:53.27	206.58	29.46	-41.6	-44.5	19.5	6.05e-01	0	58	0	390594560	54	5103
2026-01-13 12:22:54.29	206.83	29.64	-41.7	-44.6	19.4	6.07e-01	0	58	0	392691712	54	5199
2026-01-13 12:22:55.30	207.08	29.81	-41.6	-44.5	19.5	6.07e-01	0	58	0	394788864	54	5112
2026-01-13 12:22:56.31	207.33	29.99	-41.6	-44.5	19.4	6.09e-01	0	58	0	396361728	54	5144
2026-01-13 12:22:57.32	207.58	30.17	-41.7	-44.6	19.4	6.06e-01	0	58	0	398458880	54	5181
2026-01-13 12:22:58.33	207.84	30.35	-41.6	-44.4	19.5	6.07e-01	0	58	0	400556032	54	5087
2026-01-13 12:22:59.33	208.10	30.52	-41.5	-44.3	19.7	6.07e-01	0	58	0	402128896	54	5015
2026-01-13 12:23:00.34	208.36	30.70	-41.6	-44.4	19.6	6.05e-01	0	58	0	404226048	54	5096
2026-01-13 12:23:01.36	208.63	30.88	-41.7	-44.6	19.3	6.06e-01	0	58	0	405798912	54	5210
2026-01-13 12:23:02.37	208.90	31.06	-41.8	-44.7	19.3	6.06e-01	0	58	0	407896064	54	5253
2026-01-13 12:23:03.37	209.17	31.24	-41.7	-44.6	19.4	6.05e-01	0	58	0	409993216	54	5161
2026-01-13 12:23:04.38	209.45	31.42	-41.7	-44.6	19.4	6.08e-01	0	58	0	411566080	54	5161
2026-01-13 12:23:05.39	209.73	31.61	-41.8	-44.7	19.3	6.06e-01	0	58	0	413663232	54	5270
2026-01-13 12:23:06.40	210.01	31.79	-41.9	-44.9	19.1	6.07e-01	0	58	0	415236096	54	5372
2026-01-13 12:23:07.41	210.29	31.97	-41.8	-44.7	19.2	6.06e-01	0	58	0	417333248	54	5258
2026-01-13 12:23:08.42	210.58	32.16	-41.7	-44.6	19.4	6.07e-01	0	58	0	419430400	54	5161
2026-01-13 12:23:09.43	210.88	32.34	-41.9	-44.9	19.1	6.06e-01	0	58	0	421003264	54	5366
2026-01-13 12:23:10.44	211.17	32.52	-42.0	-45.1	19.0	6.06e-01	0	58	0	423100416	54	5471
2026-01-13 12:23:11.45	211.47	32.71	-41.9	-44.8	19.2	6.05e-01	0	58	0	425197568	54	5331
2026-01-13 12:23:12.46	211.77	32.89	-42.0	-45.0	19.0	6.05e-01	0	58	0	426770432	54	5443
2026-01-13 12:23:13.47	212.08	33.08	-42.0	-45.1	18.9	6.07e-01	0	58	0	428867584	54	5478
2026-01-13 12:23:14.48	212.39	33.26	-42.1	-45.2	18.8	6.07e-01	0	58	0	430440448	54	5555
2026-01-13 12:23:15.49	212.70	33.45	-42.0	-45.0	19.0	6.05e-01	0	58	0	432537600	54	5451
2026-01-13 12:23:16.50	213.02	33.64	-42.0	-45.0	19.0	6.08e-01	0	58	0	434634752	54	5429
2026-01-13 12:23:17.51	213.34	33.82	-42.1	-45.3	18.8	6.07e-01	0	58	0	436207616	54	5612
2026-01-13 12:23:18.52	213.66	34.01	-42.1	-45.3	18.8	6.06e-01	0	58	0	438304768	54	5612
2026-01-13 12:23:19.53	213.99	34.20	-42.1	-45.2	18.8	6.06e-01	0	58	0	439877632	54	5577
2026-01-13 12:23:20.54	214.32	34.38	-42.2	-45.4	18.7	6.09e-01	0	58	0	441974784	54	5678
2026-01-13 12:23:21.55	214.65	34.57	-42.3	-45.6	18.5	6.07e-01	0	58	0	444071936	55	5469
2026-01-13 12:23:22.56	214.99	34.76	-42.1	-45.2	18.8	6.06e-01	0	58	0	445644800	55	5263
2026-01-13 12:23:23.57	215.34	34.94	-41.9	-45.2	18.6	6.05e-01	0	58	0	447741952	55	5267
2026-01-13 12:23:24.58	215.68	35.13	-42.1	-45.2	18.8	6.08e-01	0	58	0	449839104	55	5267
2026-01-13 12:23:25.59	216.04	35.32	-42.2	-45.4	18.7	6.08e-01	0	58	0	451411968	55	5364
2026-01-13 12:23:26.60	216.39	35.51	-42.3	-45.6	18.4	6.05e-01	0	58	0	453509120	55	5508
2026-01-13 12:23:27.61	216.75	35.69	-41.9	-45.4	18.6	6.08e-01	0	58	0	455081984	55	5385
2026-01-13 12:23:28.62	217.11	35.88	-42.4	-45.7	18.3	6.09e-01	0	58	0	457179136	55	5550
2026-01-13 12:23:29.63	217.48	36.07	-42.3	-45.8	18.2	6.06e-01	0	58	0	459276288	55	5594
2026-01-13 12:23:30.64	217.85	36.26	-42.4	-45.7	18.4	6.07e-01	0	58	0	460849152	55	5530
2026-01-13 12:23:31.65	218.23	36.44	-42.6	-46.0	18.0	6.06e-01	0	58	0	462946304	55	5744
2026-01-13 12:23:32.66	218.61	36.63	-42.4	-45.8	18.1	6.07e-01	0	58	0	464519168	55	5647
2026-01-13 12:23:33.67	219.00	36.82	-42.6	-46.0	18.0	6.06e-01	0	58	0	466616320	55	5770
2026-01-13 12:23:34.69	219.39	37.00	-42.3	-45.9	18.1	6.06e-01	0	58	0	468713472	55	5691
2026-01-13 12:23:35.69	219.78	37.19	-42.2	-45.5	18.5	6.07e-01	0	58	0	470286336	55	5446
2026-01-13 12:23:36.70	220.18	37.37	-42.4	-45.8	18.2	6.08e-01	0	58	0	472383488	55	5615
2026-01-13 12:23:37.71	220.58	37.56	-42.3	-45.9	18.1	6.06e-01	0	58	0	473956352	55	5659
2026-01-13 12:23:38.72	220.99	37.74	-42.4	-45.7	18.3	6.07e-01	0	59	0	476053504	55	5545
2026-01-13 12:23:39.73	221.40	37.93	-42.3	-45.6	18.3	6.07e-01	0	59	0	478150656	55	5506
2026-01-13 12:23:40.74	221.82	38.11	-42.4	-45.7	18.3	6.06e-01	0	59	0	479723520	55	5566
2026-01-13 12:23:41.75	222.24	38.29	-42.3	-45.7	18.1	6.06e-01	0	59	0	481820672	55	5555
2026-01-13 12:23:42.76	222.67	38.48	-42.2	-45.5	18.5	6.06e-01	0	58	0	483393536	55	5413
2026-01-13 12:23:43.77	223.10	38.66	-42.2	-45.4	18.5	6.09e-01	0	58	0	485490688	55	5374
2026-01-13 12:23:44.78	223.54	38.84	-42.1	-45.3	18.7	6.06e-01	0	59	0	487587840	55	5308
2026-01-13 12:23:45.79	223.98	39.02	-42.1	-45.2	18.8	6.07e-01	0	59	0	489160704	55	5275
2026-01-13 12:23:46.80	224.43	39.20	-42.0	-45.0	19.0	6.07e-01	0	59	0	491257856	55	5155
2026-01-13 12:23:47.81	224.88	39.38	-42.2	-45.4	18.7	6.07e-01	0	59	0	493355008	55	5348
2026-01-13 12:23:48.82	225.34	39.55	-42.2	-45.3	18.7	6.07e-01	0	59	0	494927872	55	5313
2026-01-13 12:23:49.83	225.80	39.73	-42.0	-45.1	18.9	6.06e-01	0	59	0	497025024	55	5181
2026-01-13 12:23:50.84	226.27	39.90	-42.0	-45.1	19.0	6.06e-01	0	59	0	498597888	55	5168
2026-01-13 12:23:51.85	226.74	40.08	-42.0	-45.0	19.0	6.08e-01	0	59	0	500695040	55	5152
2026-01-13 12:23:52.86	227.21	40.25	-42.0	-45.0	19.1	6.05e-01	0	59	0	502792192	55	5119
2026-01-13 12:23:53.87	227.70	40.42	-42.0	-45.1	19.0	6.06e-01	0	59	0	504365056	55	5187
2026-01-13 12:23:54.88	228.18	40.59	-41.9	-44.9	19.1	6.06e-01	0	59	0	506462208	55	5069
2026-01-13 12:23:55.89	228.67	40.76	-41.8	-44.8	19.3	6.06e-01	0	58	0	508559360	55	5007
2026-01-13 12:23:56.90	229.17	40.93	-41.9	-44.9	19.1	6.07e-01	0	58	0	510132224	55	5079
2026-01-13 12:23:57.91	229.67	41.09	-41.8	-44.7	19.4	6.08e-01	0	58	0	512229376	55	4936
2026-01-13 12:23:58.92	230.18	41.26	-41.8	-44.7	19.3	6.08e-01	0	59	0	513802240	55	4940
2026-01-13 12:23:59.93	230.70	41.42	-41.7	-44.6	19.4	6.07e-01	0	58	0	515899392	55	4916
2026-01-13 12:24:00.94	231.21	41.58	-41.7	-44.5	19.5	6.08e-01	0	58	0	517996544	55	4854
2026-01-13 12:24:01.94	231.73	41.73	-41.7	-44.6	19.5	6.07e-01	0	59	0	519569408	55	4881
2026-01-13 12:24:02.96	232.26	41.89	-41.7	-44.6	19.4	6.05e-01	0	59	0	521666560	55	4901
2026-01-13 12:24:03.96	232.79	42.05	-41.6	-44.4	19.6	6.06e-01	0	59	0	523239424	55	4783
2026-01-13 12:24:04.97	233.33	42.20	-41.6	-44.5	19.6	6.06e-01	0	59	0	525336576	55	4833
2026-01-13 12:24:05.98	233.88	42.35	-41.6	-44.5	19.6	6.06e-01	0	59	0	527433728	55	4819
2026-01-13 12:24:06.99	234.42	42.50	-41.5	-44.3	19.8	6.08e-01	0	59	0	529006592	55	4717
2026-01-13 12:24:08.00	234.98	42.64	-41.4	-44.1	20.0	6.06e-01	0	58	0	531103744	53	5181
2026-01-13 12:24:09.01	235.54	42.79	-41.3	-44.0	20.0	6.05e-01	0	58	0	532676608	53	5150
2026-01-13 12:24:10.02	236.10	42.93	-41.4	-44.3	19.8	6.07e-01	0	59	0	534773760	53	5294
2026-01-13 12:24:11.03	236.67	43.07	-41.4	-44.1	19.9	6.05e-01	0	59	0	536870912	53	5218
2026-01-13 12:24:12.04	237.24	43.20	-41.3	-44.0	20.0	6.06e-01	0	59	0	538443776	53	5141
2026-01-13 12:24:13.05	237.82	43.34	-41.4	-44.2	19.9	6.08e-01	0	59	0	540540928	53	5232
2026-01-13 12:24:14.06	238.40	43.47	-41.3	-44.0	20.1	6.07e-01	0	59	0	542113792	53	5119
2026-01-13 12:24:15.06	238.99	43.59	-41.4	-44.2	19.9	6.06e-01	0	59	0	544210944	53	5231
2026-01-13 12:24:16.07	239.58	43.72	-41.4	-44.1	19.9	6.07e-01	0	59	0	546308096	53	5208
2026-01-13 12:24:17.09	240.18	43.84	-41.3	-44.0	20.1	6.08e-01	0	59	0	547880960	53	5135
2026-01-13 12:24:18.10	240.78	43.96	-41.4	-44.2	19.9	6.06e-01	0	59	0	549978112	53	5219
2026-01-13 12:24:19.11	241.39	44.08	-41.4	-44.1	19.9	6.06e-01	0	59	0	551550976	53	5189
2026-01-13 12:24:20.12	242.00	44.19	-41.4	-44.2	19.9	6.05e-01	0	59	0	553648128	53	5228
2026-01-13 12:24:21.13	242.62	44.30	-41.4	-44.1	20.0	6.07e-01	0	59	0	555745280	53	5206
2026-01-13 12:24:22.14	243.24	44.41	-41.5	-44.3	19.7	6.06e-01	0	59	0	557318144	53	5317
2026-01-13 12:24:23.15	243.86	44.51	-41.5	-44.2	19.9	6.06e-01	0	59	0	559415296	53	5270
2026-01-13 12:24:24.16	244.49	44.61	-41.4	-44.2	19.9	6.09e-01	0	59	0	561512448	53	5241
2026-01-13 12:24:25.16	245.11	44.71	-41.5	-44.3	19.8	6.06e-01	0	59	0	563085312	53	5315
2026-01-13 12:24:26.17	245.75	44.80	-41.4	-44.2	19.9	6.09e-01	0	59	0	565182464	53	5235
2026-01-13 12:24:27.19	246.39	44.89	-41.5	-44.2	19.8	6.06e-01	0	59	0	566755328	53	5270
2026-01-13 12:24:28.19	247.03	44.97	-41.4	-44.1	20.0	6.07e-01	0	58	0	568852480	53	5208
2026-01-13 12:24:29.20	247.67	45.06	-41.5	-44.4	19.7	6.06e-01	0	59	0	570949632	53	5360
2026-01-13 12:24:30.21	248.32	45.13	-41.3	-44.0	20.1	6.07e-01	0	58	0	572522496	53	5127
2026-01-13 12:24:31.22	248.97	45.21	-41.5	-44.3	19.8	6.09e-01	0	59	0	574619648	53	5308
2026-01-13 12:24:32.23	249.63	45.28	-41.3	-43.9	20.2	6.07e-01	0	59	0	576716800	53	5084
2026-01-13 12:24:33.24	250.29	45.35	-41.6	-44.4	19.7	6.06e-01	0	59	0	578289664	53	5345
2026-01-13 12:24:34.25	250.95	45.41	-41.5	-44.3	19.8	6.06e-01	0	59	0	580386816	53	5332
2026-01-13 12:24:35.26	251.61	45.47	-41.4	-44.2	19.9	6.07e-01	0	59	0	581959680	53	5237
2026-01-13 12:24:36.27	252.28	45.52	-41.5	-44.2	19.9	6.07e-01	0	59	0	584056832	53	5255
2026-01-13 12:24:37.28	252.94	45.57	-41.7	-44.6	19.5	6.07e-01	0	59	0	585629696	53	5480
2026-01-13 12:24:38.29	253.61	45.62	-41.6	-44.3	19.8	6.08e-01	0	59	0	587726848	53	5338
2026-01-13 12:24:39.30	254.29	45.66	-41.6	-44.4	19.7	6.05e-01	0	59	0	589824000	53	5346
2026-01-13 12:24:40.31	254.96	45.70	-41.6	-44.4	19.7	6.05e-01	0	59	0	591396864	53	5394
2026-01-13 12:24:41.32	255.63	45.73	-41.8	-44.7	19.4	6.07e-01	0	59	0	593494016	54	5234
2026-01-13 12:24:42.33	256.31	45.76	-41.6	-44.4	19.7	6.08e-01	0	59	0	595066880	54	5042
2026-01-13 12:24:43.33	256.98	45.79	-41.7	-44.5	19.6	6.05e-01	0	59	0	597164032	54	5158
2026-01-13 12:24:44.34	257.66	45.81	-41.6	-44.4	19.6	6.08e-01	0	59	0	599261184	54	5099
2026-01-13 12:24:45.35	258.34	45.83	-41.8	-44.7	19.4	6.08e-01	0	59	0	600834048	54	5231
2026-01-13 12:24:46.37	259.02	45.84	-41.5	-44.2	19.9	6.05e-01	0	59	0	602931200	54	4967
2026-01-13 12:24:47.37	259.70	45.85	-41.7	-44.5	19.6	6.07e-01	0	59	0	605028352	54	5130
2026-01-13 12:24:48.38	260.38	45.85	-41.6	-44.4	19.6	6.07e-01	0	59	0	606601216	54	5095
2026-01-13 12:24:49.39	261.06	45.85	-41.7	-44.5	19.6	6.05e-01	0	59	0	608698368	54	5138
2026-01-13 12:24:50.40	261.74	45.85	-41.7	-44.5	19.6	6.06e-01	0	58	0	610271232	54	5148
2026-01-13 12:24:51.41	262.42	45.84	-41.7	-44.5	19.6	6.06e-01	0	59	0	612368384	54	5126
2026-01-13 12:24:52.42	263.10	45.82	-41.9	-44.8	19.3	6.05e-01	0	59	0	614465536	54	5304
2026-01-13 12:24:53.43	263.78	45.81	-41.7	-44.6	19.5	6.06e-01	0	59	0	616038400	54	5174
2026-01-13 12:24:54.44	264.45	45.78	-41.9	-44.8	19.3	6.07e-01	0	59	0	618135552	54	5340
2026-01-13 12:24:55.45	265.13	45.76	-41.8	-44.7	19.3	6.07e-01	0	59	0	619708416	54	5278
2026-01-13 12:24:56.46	265.81	45.73	-41.7	-44.6	19.5	6.06e-01	0	59	0	621805568	54	5167
2026-01-13 12:24:57.47	266.48	45.69	-41.9	-44.8	19.3	6.05e-01	0	59	0	623902720	54	5339
2026-01-13 12:24:58.48	267.15	45.65	-41.8	-44.7	19.4	6.06e-01	0	59	0	625475584	54	5225
2026-01-13 12:24:59.49	267.82	45.61	-41.7	-44.5	19.6	6.07e-01	0	59	0	627572736	54	5156
2026-01-13 12:25:00.50	268.49	45.56	-41.9	-45.0	19.2	6.09e-01	0	59	0	629669888	54	5403
2026-01-13 12:25:01.51	269.16	45.51	-41.7	-44.6	19.5	6.06e-01	0	59	0	631242752	54	5184
2026-01-13 12:25:02.52	269.82	45.46	-41.9	-44.9	19.1	6.06e-01	0	59	0	633339904	54	5394
2026-01-13 12:25:03.53	270.49	45.40	-41.7	-44.6	19.4	6.05e-01	0	59	0	634912768	54	5208
2026-01-13 12:25:04.54	271.15	45.34	-41.9	-44.8	19.3	6.08e-01	0	59	0	637009920	54	5314
2026-01-13 12:25:05.55	271.80	45.27	-41.8	-44.7	19.4	6.07e-01	0	59	0	639107072	54	5242
2026-01-13 12:25:06.56	272.46	45.20	-41.9	-44.8	19.2	6.05e-01	0	59	0	640679936	54	5337
2026-01-13 12:25:07.57	273.11	45.12	-41.9	-44.8	19.3	6.06e-01	0	59	0	642777088	54	5332
2026-01-13 12:25:08.58	273.75	45.04	-41.8	-44.8	19.3	6.07e-01	0	59	0	644874240	54	5289
2026-01-13 12:25:09.59	274.40	44.96	-41.8	-44.8	19.4	6.08e-01	0	59	0	646447104	54	5281
2026-01-13 12:25:10.60	275.04	44.88	-41.8	-44.8	19.3	6.06e-01	0	59	0	648544256	54	5291
2026-01-13 12:25:11.62	275.68	44.79	-41.7	-44.6	19.5	6.09e-01	0	59	0	650117120	54	5198
2026-01-13 12:25:12.63	276.32	44.69	-41.9	-44.9	19.2	6.05e-01	0	59	0	652214272	54	5372
2026-01-13 12:25:13.64	276.95	44.60	-41.9	-44.9	19.2	6.04e-01	0	59	0	654311424	54	5349
2026-01-13 12:25:14.64	277.57	44.50	-41.8	-44.7	19.4	6.06e-01	0	59	0	655884288	54	5232
2026-01-13 12:25:15.66	278.19	44.39	-41.9	-44.9	19.1	6.06e-01	0	59	0	657981440	54	5391
2026-01-13 12:25:16.67	278.81	44.28	-41.8	-44.8	19.3	6.07e-01	0	59	0	659554304	54	5280
2026-01-13 12:25:17.68	279.42	44.17	-42.0	-45.0	19.1	6.06e-01	0	59	0	661651456	54	5416
2026-01-13 12:25:18.69	280.03	44.06	-41.8	-44.7	19.4	6.07e-01	0	59	0	663748608	54	5229
2026-01-13 12:25:19.70	280.64	43.94	-41.7	-44.6	19.5	6.07e-01	0	59	0	665321472	54	5164
2026-01-13 12:25:20.71	281.24	43.83	-42.0	-45.0	19.1	6.06e-01	0	59	0	667418624	54	5432
2026-01-13 12:25:21.72	281.83	43.70	-41.9	-44.9	19.2	6.05e-01	0	59	0	668991488	54	5343
2026-01-13 12:25:22.73	282.42	43.58	-41.8	-44.6	19.4	6.06e-01	0	59	0	671088640	54	5207
2026-01-13 12:25:23.74	283.01	43.45	-41.9	-44.9	19.2	6.06e-01	0	59	0	673185792	54	5371
2026-01-13 12:25:24.75	283.59	43.32	-41.8	-44.7	19.4	6.07e-01	0	59	0	674758656	54	5254
2026-01-13 12:25:25.76	284.17	43.19	-41.9	-44.9	19.2	6.07e-01	0	59	0	676855808	54	5393
2026-01-13 12:25:26.76	284.73	43.05	-42.0	-45.0	19.0	6.07e-01	0	59	0	678428672	54	5420
2026-01-13 12:25:27.77	285.30	42.91	-41.8	-44.7	19.3	6.05e-01	0	59	0	680525824	54	5279
2026-01-13 12:25:28.78	285.86	42.77	-41.9	-44.9	19.2	6.04e-01	0	59	0	682622976	54	5357
2026-01-13 12:25:29.79	286.42	42.63	-42.1	-45.1	18.9	6.06e-01	0	59	0	684195840	54	5515
2026-01-13 12:25:30.80	286.97	42.48	-41.9	-44.9	19.2	6.06e-01	0	59	0	686292992	54	5373
2026-01-13 12:25:31.81	287.52	42.33	-42.0	-45.0	19.0	6.04e-01	0	59	0	687865856	54	5461
2026-01-13 12:25:32.82	288.06	42.18	-42.0	-45.1	19.0	6.04e-01	0	59	0	689963008	54	5471
2026-01-13 12:25:33.83	288.59	42.03	-42.1	-45.2	18.8	6.07e-01	0	59	0	692060160	54	5586
2026-01-13 12:25:34.84	289.13	41.88	-42.0	-45.0	19.0	6.06e-01	0	59	0	693633024	54	5448
2026-01-13 12:25:35.84	289.65	41.72	-42.1	-45.2	18.9	6.07e-01	0	59	0	695730176	54	5537
2026-01-13 12:25:36.85	290.17	41.56	-42.1	-45.2	18.9	6.05e-01	0	59	0	697827328	54	5537
2026-01-13 12:25:37.86	290.68	41.40	-42.0	-45.1	19.0	6.05e-01	0	59	0	699400192	54	5485
2026-01-13 12:25:38.87	291.19	41.24	-42.1	-45.2	18.9	6.09e-01	0	59	0	701497344	54	5562
2026-01-13 12:25:39.88	291.70	41.08	-42.0	-45.1	18.9	6.05e-01	0	59	0	703070208	54	5500
2026-01-13 12:25:40.89	292.20	40.92	-41.9	-45.0	19.1	6.07e-01	0	59	0	705167360	54	5410
2026-01-13 12:25:41.90	292.69	40.75	-42.1	-45.2	18.9	6.09e-01	0	59	0	707264512	54	5541
2026-01-13 12:25:42.91	293.18	40.58	-42.2	-45.4	18.7	6.06e-01	0	59	0	708837376	54	5681
2026-01-13 12:25:43.92	293.67	40.41	-42.0	-45.1	18.9	6.07e-01	0	59	0	710934528	54	5507
2026-01-13 12:25:44.93	294.15	40.24	-42.1	-45.2	18.8	6.04e-01	0	59	0	712507392	54	5576
2026-01-13 12:25:45.94	294.62	40.07	-42.2	-45.4	18.7	6.06e-01	0	59	0	714604544	54	5679
2026-01-13 12:25:46.95	295.09	39.90	-42.1	-45.2	18.8	6.06e-01	0	59	0	716701696	55	5234
2026-01-13 12:25:47.96	295.56	39.72	-42.1	-45.3	18.8	6.08e-01	0	59	0	718274560	55	5283
2026-01-13 12:25:48.97	296.02	39.55	-42.3	-45.6	18.5	6.06e-01	0	59	0	720371712	55	5490
2026-01-13 12:25:49.98	296.47	39.37	-42.2	-45.3	18.7	6.08e-01	0	59	0	721944576	55	5336
2026-01-13 12:25:50.99	296.92	39.19	-42.1	-45.1	18.9	6.07e-01	0	59	0	724041728	55	5212
2026-01-13 12:25:52.00	297.37	39.01	-42.3	-45.5	18.6	6.06e-01	0	59	0	726138880	55	5424
2026-01-13 12:25:53.00	297.80	38.84	-42.3	-45.6	18.4	6.07e-01	0	59	0	727711744	55	5523
2026-01-13 12:25:54.01	298.24	38.66	-42.1	-45.2	18.8	6.08e-01	0	59	0	729808896	55	5253
2026-01-13 12:25:55.02	298.67	38.48	-42.1	-45.2	18.9	6.05e-01	0	59	0	731381760	55	5223
2026-01-13 12:25:56.03	299.09	38.30	-42.1	-45.2	18.8	6.06e-01	0	59	0	733478912	55	5251
2026-01-13 12:25:57.05	299.52	38.11	-41.9	-44.9	19.2	6.09e-01	0	59	0	735576064	55	5071
2026-01-13 12:25:58.05	299.93	37.93	-42.0	-45.1	19.0	6.06e-01	0	59	0	737148928	55	5161
2026-01-13 12:25:59.07	300.34	37.75	-42.0	-45.1	18.9	6.07e-01	0	59	0	739246080	55	5215
2026-01-13 12:26:00.08	300.75	37.56	-42.0	-45.0	19.0	6.05e-01	0	59	0	741343232	55	5133
2026-01-13 12:26:01.09	301.15	37.38	-41.9	-44.9	19.2	6.07e-01	0	59	0	742916096	55	5043
2026-01-13 12:26:02.10	301.55	37.19	-41.8	-44.7	19.3	6.06e-01	0	59	0	745013248	55	4980
2026-01-13 12:26:03.11	301.94	37.01	-41.8	-44.7	19.3	6.09e-01	0	59	0	746586112	55	4975
2026-01-13 12:26:04.12	302.33	36.82	-41.7	-44.6	19.5	6.05e-01	0	59	0	748683264	55	4878
2026-01-13 12:26:05.13	302.71	36.64	-41.7	-44.5	19.5	6.07e-01	0	59	0	750780416	55	4869
2026-01-13 12:26:06.14	303.09	36.45	-41.7	-44.6	19.4	6.06e-01	0	59	0	752353280	55	4906
2026-01-13 12:26:07.15	303.47	36.27	-41.8	-44.7	19.3	6.06e-01	0	59	0	754450432	55	4976
2026-01-13 12:26:08.16	303.84	36.08	-41.6	-44.5	19.5	6.07e-01	0	59	0	756023296	55	4842
2026-01-13 12:26:09.17	304.20	35.89	-41.5	-44.3	19.8	6.06e-01	0	59	0	758120448	55	4711
2026-01-13 12:26:10.18	304.57	35.71	-41.5	-44.3	19.7	6.06e-01	0	59	0	760217600	54	5029
2026-01-13 12:26:11.19	304.92	35.52	-41.5	-44.3	19.7	6.07e-01	0	59	0	761790464	54	5008
2026-01-13 12:26:12.20	305.28	35.34	-41.4	-44.1	19.9	6.07e-01	0	59	0	763887616	54	4882
2026-01-13 12:26:13.21	305.63	35.15	-41.3	-43.9	20.1	6.07e-01	0	59	0	765984768	54	4805
2026-01-13 12:26:14.22	305.97	34.96	-41.3	-44.0	20.0	6.06e-01	0	59	0	767557632	54	4841
2026-01-13 12:26:15.23	306.31	34.78	-41.4	-44.1	19.9	6.07e-01	0	59	0	769654784	54	4915
2026-01-13 12:26:16.24	306.65	34.59	-41.4	-44.1	20.0	6.06e-01	0	59	0	771227648	54	4884
2026-01-13 12:26:17.25	306.99	34.40	-41.2	-43.8	20.1	6.03e-01	0	59	0	773324800	54	4750
2026-01-13 12:26:18.26	307.32	34.22	-41.1	-43.7	20.3	6.06e-01	0	59	0	775421952	54	4680
2026-01-13 12:26:19.27	307.64	34.03	-41.1	-43.7	20.3	6.06e-01	0	59	0	776994816	54	4674
2026-01-13 12:26:20.28	307.96	33.85	-41.1	-43.8	20.2	6.05e-01	0	59	0	779091968	54	4710
2026-01-13 12:26:21.28	308.28	33.66	-41.1	-43.7	20.3	6.08e-01	0	59	0	781189120	54	4674
2026-01-13 12:26:22.29	308.60	33.48	-41.1	-43.7	20.3	6.07e-01	0	59	0	782761984	54	4661
2026-01-13 12:26:23.30	308.91	33.29	-41.1	-43.7	20.2	6.07e-01	0	59	0	784859136	54	4703
2026-01-13 12:26:24.31	309.21	33.11	-41.1	-43.7	20.3	6.07e-01	0	59	0	786432000	54	4677
2026-01-13 12:26:25.32	309.52	32.93	-41.1	-43.7	20.3	6.04e-01	0	59	0	788529152	54	4656
2026-01-13 12:26:26.33	309.82	32.74	-40.9	-43.5	20.5	6.08e-01	0	59	0	790102016	53	4840
2026-01-13 12:26:27.34	310.12	32.56	-40.7	-43.2	20.7	6.05e-01	0	59	0	792199168	53	4670
2026-01-13 12:26:28.35	310.41	32.38	-40.7	-43.2	20.7	6.08e-01	0	59	0	794296320	53	4674
2026-01-13 12:26:29.36	310.70	32.19	-40.9	-43.4	20.5	6.05e-01	0	59	0	795869184	53	4804
2026-01-13 12:26:30.37	310.99	32.01	-41.0	-43.6	20.4	6.07e-01	0	59	0	797966336	53	4880
2026-01-13 12:26:31.38	311.27	31.83	-41.0	-43.6	20.4	6.07e-01	0	59	0	799539200	53	4876
2026-01-13 12:26:32.39	311.56	31.65	-41.0	-43.6	20.3	6.06e-01	0	59	0	801636352	53	4906
2026-01-13 12:26:33.40	311.83	31.47	-41.0	-43.6	20.4	6.05e-01	0	59	0	803733504	53	4904
2026-01-13 12:26:34.40	312.11	31.29	-41.0	-43.6	20.3	6.06e-01	0	59	0	805306368	53	4917
2026-01-13 12:26:35.41	312.38	31.11	-40.9	-43.5	20.5	6.07e-01	0	59	0	807403520	53	4818
2026-01-13 12:26:36.42	312.65	30.93	-40.9	-43.5	20.5	6.06e-01	0	59	0	809500672	53	4821
2026-01-13 12:26:37.43	312.91	30.75	-40.9	-43.4	20.5	6.05e-01	0	59	0	811073536	53	4790
2026-01-13 12:26:38.44	313.17	30.57	-40.8	-43.3	20.6	6.08e-01	0	59	0	813170688	53	4725
2026-01-13 12:26:39.45	313.43	30.40	-40.9	-43.4	20.5	6.06e-01	0	59	0	814743552	53	4772
2026-01-13 12:26:40.46	313.69	30.22	-41.0	-43.6	20.3	6.07e-01	0	59	0	816840704	53	4912
2026-01-13 12:26:41.47	313.95	30.04	-41.1	-43.8	20.1	6.06e-01	0	59	0	818937856	53	5034
2026-01-13 12:26:42.48	314.20	29.87	-41.2	-43.9	20.0	6.07e-01	0	59	0	820510720	53	5062
2026-01-13 12:26:43.49	314.44	29.69	-41.2	-43.8	20.1	6.09e-01	0	59	0	822607872	53	5032
2026-01-13 12:26:44.50	314.69	29.52	-41.2	-43.9	20.0	6.07e-01	0	59	0	824180736	53	5055
2026-01-13 12:26:45.51	314.93	29.34	-41.1	-43.7	20.2	6.06e-01	0	59	0	826277888	53	4983
2026-01-13 12:26:46.52	315.17	29.17	-41.1	-43.7	20.2	6.06e-01	0	59	0	828375040	53	4966
2026-01-13 12:26:47.53	315.41	29.00	-41.1	-43.7	20.2	6.06e-01	0	59	0	829947904	53	4965
2026-01-13 12:26:48.54	315.65	28.82	-41.1	-43.7	20.2	6.05e-01	0	59	0	832045056	53	4966
2026-01-13 12:26:49.55	315.88	28.65	-41.2	-43.9	20.0	6.08e-01	0	59	0	834142208	53	5043
2026-01-13 12:26:50.56	316.11	28.48	-41.2	-43.9	20.0	6.07e-01	0	59	0	835715072	53	5074
2026-01-13 12:26:51.57	316.34	28.31	-41.3	-44.0	19.8	6.04e-01	0	59	0	837812224	53	5157
2026-01-13 12:26:52.58	316.56	28.14	-41.3	-44.1	19.8	6.06e-01	0	59	0	839385088	53	5188
2026-01-13 12:26:53.59	316.79	27.97	-41.3	-44.1	19.8	6.07e-01	0	59	0	841482240	53	5183
2026-01-13 12:26:54.60	317.01	27.81	-41.3	-44.0	19.9	6.06e-01	0	59	0	843579392	53	5131
2026-01-13 12:26:55.61	317.22	27.64	-41.3	-44.1	19.8	6.07e-01	0	59	0	845152256	53	5166
2026-01-13 12:26:56.62	317.44	27.47	-41.3	-44.1	19.8	6.06e-01	0	59	0	847249408	53	5168
2026-01-13 12:26:57.63	317.65	27.30	-41.3	-44.0	19.9	6.06e-01	0	59	0	848822272	53	5136
2026-01-13 12:26:58.64	317.87	27.14	-41.3	-44.0	19.9	6.07e-01	0	59	0	850919424	53	5122
2026-01-13 12:26:59.65	318.07	26.97	-41.3	-44.0	19.8	6.06e-01	0	59	0	853016576	53	5146
2026-01-13 12:27:00.65	318.28	26.81	-41.4	-44.2	19.7	6.04e-01	0	59	0	854589440	53	5221
2026-01-13 12:27:01.66	318.48	26.65	-41.4	-44.3	19.6	6.09e-01	0	59	0	856686592	53	5282
2026-01-13 12:27:02.68	318.69	26.48	-41.5	-44.4	19.5	6.06e-01	0	59	0	858259456	53	5362
2026-01-13 12:27:03.69	318.89	26.32	-41.6	-44.5	19.3	6.05e-01	0	59	0	860356608	53	5459
2026-01-13 12:27:04.69	319.09	26.16	-41.8	-44.8	19.1	6.08e-01	0	59	0	862453760	54	5298
2026-01-13 12:27:05.70	319.28	26.00	-41.8	-44.9	18.9	6.05e-01	0	59	0	864026624	54	5368
2026-01-13 12:27:06.71	319.48	25.84	-41.9	-45.0	18.9	6.08e-01	0	59	0	866123776	54	5409
2026-01-13 12:27:07.72	319.67	25.68	-41.9	-45.0	18.8	6.05e-01	0	59	0	867696640	54	5449
2026-01-13 12:27:08.73	319.86	25.53	-41.7	-44.7	19.1	6.07e-01	0	59	0	869793792	54	5236
2026-01-13 12:27:09.74	320.05	25.37	-41.5	-44.3	19.5	6.06e-01	0	59	0	871890944	54	5039
2026-01-13 12:27:10.75	320.23	25.21	-41.5	-44.4	19.5	6.07e-01	0	59	0	873463808	54	5046
2026-01-13 12:27:11.76	320.42	25.05	-41.5	-44.4	19.5	6.07e-01	0	59	0	875560960	54	5043
2026-01-13 12:27:12.77	320.60	24.90	-41.6	-44.5	19.3	6.07e-01	0	59	0	877133824	54	5143
2026-01-13 12:27:13.78	320.78	24.74	-41.6	-44.5	19.3	6.07e-01	0	59	0	879230976	54	5131
2026-01-13 12:27:14.79	320.96	24.59	-41.6	-44.5	19.3	6.07e-01	0	59	0	881328128	54	5121
2026-01-13 12:27:15.80	321.14	24.44	-41.6	-44.5	19.2	6.06e-01	0	59	0	882900992	54	5150
2026-01-13 12:27:16.81	321.32	24.28	-41.7	-44.6	19.1	6.07e-01	0	59	0	884998144	54	5215
2026-01-13 12:27:17.81	321.49	24.13	-41.6	-44.5	19.3	6.06e-01	0	59	0	887095296	54	5131
2026-01-13 12:27:18.82	321.66	23.98	-41.6	-44.6	19.2	6.07e-01	0	59	0	888668160	54	5169
2026-01-13 12:27:19.83	321.83	23.83	-41.7	-44.7	19.1	6.07e-01	0	59	0	890765312	54	5235
2026-01-13 12:27:20.84	322.00	23.68	-41.7	-44.8	19.0	6.06e-01	0	59	0	892338176	54	5282
2026-01-13 12:27:21.85	322.17	23.53	-41.8	-44.9	18.9	6.08e-01	0	59	0	894435328	54	5388
2026-01-13 12:27:22.86	322.33	23.38	-41.8	-44.9	18.9	6.07e-01	0	59	0	896532480	54	5346
2026-01-13 12:27:23.87	322.50	23.24	-41.7	-44.7	19.0	6.05e-01	0	59	0	898105344	54	5264
2026-01-13 12:27:24.88	322.66	23.09	-41.7	-44.8	19.0	6.08e-01	0	59	0	900202496	54	5295
2026-01-13 12:27:25.89	322.82	22.94	-41.7	-44.7	19.0	6.05e-01	0	59	0	902299648	54	5275
2026-01-13 12:27:26.90	322.98	22.80	-41.7	-44.7	19.0	6.07e-01	0	59	0	903872512	54	5241
2026-01-13 12:27:27.91	323.14	22.65	-41.6	-44.7	19.1	6.04e-01	0	59	0	905969664	54	5239
2026-01-13 12:27:28.92	323.30	22.51	-41.6	-44.6	19.2	6.06e-01	0	59	0	907542528	54	5174
2026-01-13 12:27:29.93	323.45	22.36	-41.6	-44.6	19.1	6.06e-01	0	59	0	909639680	54	5192
2026-01-13 12:27:30.94	323.60	22.22	-41.7	-44.8	19.0	6.05e-01	0	59	0	911736832	54	5296
2026-01-13 12:27:31.95	323.76	22.08	-41.7	-44.8	18.9	6.06e-01	0	59	0	913309696	54	5294
2026-01-13 12:27:32.96	323.91	21.94	-41.5	-44.4	19.3	6.06e-01	0	59	0	915406848	54	5086
2026-01-13 12:27:33.97	324.06	21.80	-41.5	-44.4	19.3	6.07e-01	0	59	0	916979712	54	5045
2026-01-13 12:27:34.98	324.20	21.66	-41.5	-44.4	19.3	6.06e-01	0	59	0	919076864	54	5090
2026-01-13 12:27:35.99	324.35	21.52	-41.4	-44.3	19.4	6.08e-01	0	59	0	921174016	54	5012
2026-01-13 12:27:37.00	324.50	21.38	-41.5	-44.4	19.3	6.06e-01	0	59	0	922746880	54	5063
2026-01-13 12:27:38.01	324.64	21.24	-41.5	-44.5	19.2	6.07e-01	0	59	0	924844032	54	5112
2026-01-13 12:27:39.02	324.78	21.10	-41.6	-44.5	19.2	6.08e-01	0	59	0	926416896	54	5149
2026-01-13 12:27:40.03	324.92	20.96	-41.6	-44.6	19.0	6.06e-01	0	59	0	928514048	54	5197
2026-01-13 12:27:41.04	325.06	20.83	-41.5	-44.5	19.1	6.07e-01	0	59	0	930611200	54	5147
2026-01-13 12:27:42.05	325.20	20.69	-41.5	-44.4	19.2	6.06e-01	0	59	0	932184064	54	5091
2026-01-13 12:27:43.05	325.34	20.56	-41.4	-44.4	19.3	6.06e-01	0	59	0	934281216	54	5054
2026-01-13 12:27:44.06	325.48	20.42	-41.5	-44.4	19.2	6.05e-01	0	59	0	935854080	54	5094
2026-01-13 12:27:45.07	325.61	20.29	-41.5	-44.5	19.2	6.06e-01	0	59	0	937951232	54	5101
2026-01-13 12:27:46.08	325.75	20.16	-41.4	-44.4	19.3	6.07e-01	0	59	0	940048384	54	5043
2026-01-13 12:27:47.10	325.88	20.02	-41.4	-44.4	19.3	6.05e-01	0	59	0	941621248	54	5056
2026-01-13 12:27:48.10	326.01	19.89	-41.4	-44.3	19.3	6.06e-01	0	59	0	943718400	54	5018
2026-01-13 12:27:49.11	326.14	19.76	-41.4	-44.3	19.3	6.07e-01	0	59	0	945291264	54	5019
2026-01-13 12:27:50.12	326.27	19.63	-41.4	-44.3	19.3	6.06e-01	0	59	0	947388416	54	5008
2026-01-13 12:27:51.13	326.40	19.50	-41.4	-44.3	19.3	6.07e-01	0	59	0	949485568	54	5006
2026-01-13 12:27:52.14	326.53	19.37	-41.4	-44.3	19.3	6.07e-01	0	59	0	951058432	54	5003
2026-01-13 12:27:53.15	326.65	19.24	-41.4	-44.3	19.3	6.07e-01	0	59	0	953155584	54	5034
2026-01-13 12:27:54.16	326.78	19.12	-41.5	-44.5	19.1	6.07e-01	0	59	0	955252736	54	5107
2026-01-13 12:27:55.17	326.90	18.99	-41.3	-44.3	19.3	6.07e-01	0	59	0	956825600	54	4995
2026-01-13 12:27:56.18	327.02	18.86	-41.3	-44.1	19.4	6.05e-01	0	59	0	958922752	54	4925
2026-01-13 12:27:57.19	327.15	18.74	-41.3	-44.2	19.4	6.06e-01	0	59	0	960495616	54	4962
2026-01-13 12:27:58.20	327.27	18.61	-41.3	-44.3	19.3	6.07e-01	0	59	0	962592768	54	5005
2026-01-13 12:27:59.21	327.39	18.48	-41.4	-44.4	19.1	6.04e-01	0	59	0	964689920	54	5060
2026-01-13 12:28:00.22	327.50	18.36	-41.4	-44.4	19.1	6.08e-01	0	59	0	966262784	54	5065
2026-01-13 12:28:01.22	327.62	18.24	-41.3	-44.2	19.3	6.04e-01	0	59	0	968359936	54	4974
2026-01-13 12:28:02.23	327.74	18.11	-41.2	-44.1	19.4	6.07e-01	0	59	0	970457088	54	4920
2026-01-13 12:28:03.24	327.85	17.99	-41.2	-44.2	19.4	6.07e-01	0	59	0	972029952	54	4930
2026-01-13 12:28:04.25	327.97	17.87	-41.2	-44.2	19.4	6.07e-01	0	59	0	974127104	54	4927
2026-01-13 12:28:05.26	328.08	17.75	-41.3	-44.2	19.4	6.06e-01	0	59	0	975699968	54	4937
2026-01-13 12:28:06.27	328.20	17.63	-41.2	-44.0	19.5	6.06e-01	0	59	0	977797120	54	4868
2026-01-13 12:28:07.28	328.31	17.51	-41.2	-44.1	19.4	6.06e-01	0	59	0	979894272	54	4893
2026-01-13 12:28:08.29	328.42	17.39	-41.2	-44.0	19.4	6.08e-01	0	59	0	981467136	54	4861
2026-01-13 12:28:09.30	328.53	17.27	-41.2	-44.0	19.4	6.06e-01	0	59	0	983564288	54	4868
2026-01-13 12:28:10.31	328.64	17.15	-41.2	-44.1	19.4	6.07e-01	0	59	0	985137152	54	4879
2026-01-13 12:28:11.32	328.75	17.03	-41.2	-44.2	19.3	6.07e-01	0	59	0	987234304	54	4931
2026-01-13 12:28:12.33	328.86	16.91	-41.3	-44.3	19.2	6.06e-01	0	59	0	989331456	54	4986
2026-01-13 12:28:13.34	328.96	16.79	-41.1	-44.0	19.4	6.07e-01	0	59	0	990904320	54	4849
2026-01-13 12:28:14.35	329.07	16.68	-41.1	-44.0	19.5	6.07e-01	0	59	0	993001472	54	4817
2026-01-13 12:28:15.36	329.17	16.56	-41.1	-44.0	19.4	6.06e-01	0	59	0	994574336	54	4819
2026-01-13 12:28:16.37	329.28	16.44	-41.2	-44.1	19.3	6.05e-01	0	59	0	996671488	54	4892
2026-01-13 12:28:17.38	329.38	16.33	-41.2	-44.1	19.3	6.06e-01	0	59	0	998768640	54	4891
2026-01-13 12:28:18.38	329.48	16.22	-41.2	-44.1	19.2	6.09e-01	0	59	0	1000341504	54	4917
2026-01-13 12:28:19.39	329.59	16.10	-41.3	-44.3	19.1	6.05e-01	0	59	0	1002438656	54	5010
2026-01-13 12:28:20.40	329.69	15.99	-41.1	-44.0	19.3	6.05e-01	0	59	0	1004011520	54	4848
2026-01-13 12:28:21.41	329.79	15.88	-41.1	-44.1	19.3	6.05e-01	0	59	0	1006108672	54	4879
2026-01-13 12:28:22.42	329.89	15.76	-41.3	-44.2	19.1	6.06e-01	0	59	0	1008205824	54	4978
2026-01-13 12:28:23.43	329.99	15.65	-41.3	-44.4	18.9	6.04e-01	0	59	0	1009778688	54	5067
2026-01-13 12:28:24.44	330.08	15.54	-41.3	-44.3	19.0	6.04e-01	0	59	0	1011875840	54	5015
2026-01-13 12:28:25.45	330.18	15.43	-41.3	-44.3	19.0	6.02e-01	0	59	0	1013448704	54	5013
2026-01-13 12:28:26.46	330.28	15.32	-41.2	-44.2	19.2	6.04e-01	0	59	0	1015545856	54	4928
2026-01-13 12:28:27.47	330.37	15.21	-41.2	-44.3	19.0	6.03e-01	0	59	0	1017643008	54	5002
2026-01-13 12:28:28.48	330.47	15.10	-41.3	-44.4	18.9	6.05e-01	0	60	0	1019215872	54	5056
2026-01-13 12:28:29.49	330.56	14.99	-41.2	-44.3	19.0	6.04e-01	0	59	0	1021313024	54	4987
2026-01-13 12:28:30.50	330.66	14.88	-41.2	-44.2	19.0	6.04e-01	0	59	0	1023410176	54	4977
2026-01-13 12:28:31.51	330.75	14.77	-41.2	-44.3	18.9	6.01e-01	0	59	0	1024983040	54	5020
2026-01-13 12:28:32.52	330.84	14.66	-41.3	-44.3	18.9	6.03e-01	0	59	0	1027080192	54	5026
2026-01-13 12:28:33.53	330.93	14.56	-41.2	-44.2	19.0	6.02e-01	0	59	0	1028653056	54	4965
2026-01-13 12:28:34.54	331.02	14.45	-41.2	-44.3	19.0	6.04e-01	0	59	0	1030750208	54	4990
2026-01-13 12:28:35.55	331.12	14.34	-41.2	-44.2	19.0	6.05e-01	0	59	0	1032847360	54	4972
2026-01-13 12:28:36.56	331.21	14.24	-41.2	-44.3	18.9	6.06e-01	0	59	0	1034420224	54	5026
2026-01-13 12:28:37.57	331.29	14.13	-41.2	-44.3	18.9	6.05e-01	0	59	0	1036517376	54	4999
2026-01-13 12:28:38.58	331.38	14.03	-41.2	-44.3	18.8	6.03e-01	0	59	0	1038090240	54	5041
2026-01-13 12:28:39.59	331.47	13.92	-41.2	-44.3	18.8	6.05e-01	0	59	0	1040187392	54	5004
2026-01-13 12:28:40.60	331.56	13.82	-41.3	-44.5	18.7	6.04e-01	0	59	0	1042284544	54	5106
2026-01-13 12:28:41.61	331.64	13.71	-41.3	-44.5	18.6	6.04e-01	0	59	0	1043857408	54	5119
2026-01-13 12:28:42.62	331.73	13.61	-41.3	-44.5	18.6	6.01e-01	0	59	0	1045954560	54	5140
2026-01-13 12:28:43.62	331.81	13.51	-41.3	-44.4	18.7	6.03e-01	0	60	0	1047527424	54	5094
2026-01-13 12:28:44.63	331.90	13.41	-41.3	-44.4	18.6	6.04e-01	0	59	0	1049624576	54	5093
2026-01-13 12:28:45.64	331.98	13.31	-41.3	-44.5	18.6	6.06e-01	0	59	0	1051721728	54	5149
2026-01-13 12:28:46.65	332.07	13.20	-41.4	-44.7	18.4	6.04e-01	0	59	0	1053294592	54	5245
2026-01-13 12:28:47.66	332.15	13.10	-41.3	-44.5	18.5	6.03e-01	0	59	0	1055391744	54	5146
2026-01-13 12:28:48.67	332.23	13.00	-41.4	-44.6	18.4	6.01e-01	0	59	0	1056964608	54	5193
2026-01-13 12:28:49.68	332.31	12.90	-41.2	-44.4	18.7	6.02e-01	0	59	0	1059061760	54	5059
2026-01-13 12:28:50.69	332.40	12.80	-41.4	-44.6	18.4	6.05e-01	0	59	0	1061158912	54	5196
2026-01-13 12:28:51.70	332.48	12.70	-41.3	-44.6	18.4	6.03e-01	0	59	0	1062731776	54	5185
2026-01-13 12:28:52.71	332.56	12.60	-41.4	-44.6	18.4	6.04e-01	0	59	0	1064828928	54	5196
2026-01-13 12:28:53.72	332.64	12.50	-41.3	-44.6	18.4	6.03e-01	0	59	0	1066926080	54	5166
2026-01-13 12:28:54.72	332.71	12.41	-41.4	-44.7	18.3	6.01e-01	0	59	0	1068498944	54	5260
2026-01-13 12:28:55.73	332.79	12.31	-41.3	-44.6	18.3	6.04e-01	0	59	0	1070596096	54	5194
2026-01-13 12:28:56.74	332.87	12.21	-41.3	-44.6	18.3	6.03e-01	0	60	0	1072168960	54	5217
2026-01-13 12:28:57.75	332.95	12.12	-41.4	-44.7	18.2	6.05e-01	0	59	0	1074266112	54	5240
2026-01-13 12:28:58.76	333.03	12.02	-41.4	-44.7	18.2	6.02e-01	0	59	0	1076363264	54	5250
2026-01-13 12:28:59.77	333.10	11.92	-41.4	-44.8	18.1	6.01e-01	0	59	0	1077936128	54	5302
2026-01-13 12:29:00.78	333.18	11.83	-41.4	-44.9	18.0	6.05e-01	0	59	0	1080033280	54	5343
2026-01-13 12:29:01.79	333.25	11.73	-41.4	-44.8	18.1	6.03e-01	0	59	0	1081606144	54	5307
2026-01-13 12:29:02.80	333.33	11.64	-41.4	-44.8	18.0	6.01e-01	0	59	0	1083703296	54	5317
2026-01-13 12:29:03.80	333.40	11.54	-41.4	-44.9	18.0	6.07e-01	0	59	0	1085800448	54	5343
2026-01-13 12:29:04.81	333.48	11.45	-41.6	-45.2	17.7	6.02e-01	0	59	0	1087373312	54	5529
2026-01-13 12:29:05.82	333.55	11.35	-41.5	-44.9	17.9	6.04e-01	0	59	0	1089470464	54	5385
2026-01-13 12:29:06.83	333.62	11.26	-41.5	-45.0	17.8	6.03e-01	0	59	0	1091567616	54	5409
2026-01-13 12:29:07.84	333.70	11.17	-41.5	-45.0	17.8	6.02e-01	0	59	0	1093140480	54	5408
2026-01-13 12:29:08.85	333.77	11.07	-41.5	-45.0	17.7	6.04e-01	0	59	0	1095237632	54	5456
2026-01-13 12:29:09.86	333.84	10.98	-41.5	-45.1	17.7	6.06e-01	0	59	0	1096810496	54	5468
2026-01-13 12:29:10.87	333.91	10.89	-41.5	-45.1	17.7	6.05e-01	0	59	0	1098907648	54	5494
2026-01-13 12:29:11.88	333.98	10.80	-41.6	-45.1	17.6	6.03e-01	0	59	0	1100480512	54	5518
2026-01-13 12:29:12.88	334.05	10.71	-41.5	-45.1	17.6	6.04e-01	0	59	0	1102577664	54	5497
2026-01-13 12:29:13.90	334.12	10.61	-41.5	-45.1	17.6	6.02e-01	0	59	0	1104674816	54	5525
2026-01-13 12:29:14.91	334.19	10.52	-41.5	-45.0	17.6	6.05e-01	0	59	0	1106247680	54	5459
2026-01-13 12:29:15.92	334.26	10.43	-41.6	-45.3	17.5	6.05e-01	0	59	0	1108344832	54	5597
2026-01-13 12:29:16.92	334.33	10.34	-41.5	-45.1	17.6	6.02e-01	0	59	0	1109917696	54	5492
2026-01-13 12:29:17.94	334.40	10.25	-41.6	-45.3	17.4	6.02e-01	0	59	0	1112014848	54	5623
2026-01-13 12:29:18.95	334.46	10.16	-41.4	-45.0	17.7	6.02e-01	0	59	0	1114112000	54	5419
2026-01-13 12:29:19.96	334.53	10.07	-41.5	-45.2	17.5	6.04e-01	0	59	0	1115684864	54	5535
2026-01-13 12:29:20.96	334.60	9.99	-41.6	-45.3	17.3	6.03e-01	0	59	0	1117782016	54	5627
2026-01-13 12:29:21.97	334.66	9.90	-41.6	-45.3	17.3	6.05e-01	0	59	0	1119879168	54	5629
2026-01-13 12:29:22.98	334.73	9.81	-41.7	-45.6	17.0	6.03e-01	0	59	0	1121452032	54	5804
2026-01-13 12:29:23.99	334.80	9.72	-41.5	-45.3	17.2	6.03e-01	0	59	0	1123549184	54	5629
2026-01-13 12:29:25.00	334.86	9.63	-41.6	-45.4	17.1	6.01e-01	0	59	0	1125122048	54	5712
2026-01-13 12:29:26.01	334.93	9.55	-41.6	-45.5	17.1	6.05e-01	0	59	0	1127219200	54	5739
2026-01-13 12:29:27.02	334.99	9.46	-41.6	-45.4	17.1	6.01e-01	0	59	0	1129316352	54	5688
2026-01-13 12:29:28.03	335.06	9.37	-41.6	-45.5	16.9	6.03e-01	0	59	0	1130889216	54	5785
2026-01-13 12:29:29.04	335.12	9.29	-41.7	-45.7	16.7	6.01e-01	0	59	0	1132986368	54	5886
2026-01-13 12:29:30.05	335.18	9.20	-41.7	-45.7	16.7	6.04e-01	0	59	0	1135083520	54	5915
2026-01-13 12:29:31.06	335.25	9.11	-41.7	-45.8	16.6	6.03e-01	0	59	0	1136656384	54	5942
2026-01-13 12:29:32.07	335.31	9.03	-41.6	-45.5	16.9	6.01e-01	0	59	0	1138753536	54	5756
2026-01-13 12:29:33.08	335.37	8.94	-41.7	-45.8	16.6	6.05e-01	0	60	0	1140326400	54	5937
2026-01-13 12:29:34.09	335.43	8.86	-41.6	-45.6	16.7	6.04e-01	0	59	0	1142423552	54	5849
2026-01-13 12:29:35.10	335.49	8.77	-41.7	-45.9	16.4	6.02e-01	0	59	0	1144520704	54	6004
2026-01-13 12:29:36.11	335.55	8.69	-41.7	-45.9	16.4	6.04e-01	0	59	0	1146093568	54	6040
2026-01-13 12:29:37.12	335.62	8.61	-41.7	-45.9	16.4	6.04e-01	0	59	0	1148190720	54	6014
2026-01-13 12:29:38.13	335.68	8.52	-41.7	-45.9	16.3	6.04e-01	0	59	0	1149763584	54	6033
2026-01-13 12:29:39.14	335.74	8.44	-41.6	-45.6	16.6	6.02e-01	0	59	0	1151860736	54	5849
2026-01-13 12:29:40.15	335.80	8.36	-41.7	-45.9	16.3	6.04e-01	0	59	0	1153957888	54	6000
2026-01-13 12:29:41.15	335.85	8.27	-41.7	-45.9	16.3	6.03e-01	0	59	0	1155530752	54	6006
2026-01-13 12:29:42.17	335.91	8.19	-41.7	-46.0	16.2	6.03e-01	0	59	0	1157627904	54	6086
2026-01-13 12:29:43.17	335.97	8.11	-41.6	-45.9	16.3	6.03e-01	0	59	0	1159200768	54	5995
2026-01-13 12:29:44.19	336.03	8.03	-41.6	-45.9	16.2	6.03e-01	0	59	0	1161297920	54	6007
2026-01-13 12:29:45.20	336.09	7.95	-44.9	-62.6	3.8	7.45e-01	0	60	104	1162346496	60	29141
2026-01-13 12:29:46.21	336.15	7.86	-45.4	-63.5	3.8	7.46e-01	0	59	104	1162346496	61	30519
2026-01-13 12:29:47.21	336.20	7.78	-45.7	-64.3	3.8	7.46e-01	0	60	104	1162346496	61	33452
2026-01-13 12:29:48.22	336.26	7.70	-45.9	-64.6	3.8	7.45e-01	0	59	104	1162346496	62	32617
2026-01-13 12:29:49.23	336.32	7.62	-46.1	-64.7	3.8	7.46e-01	0	60	104	1162346496	62	33230
2026-01-13 12:29:50.24	336.37	7.54	-46.2	-64.8	3.8	7.46e-01	0	59	104	1162346496	62	33542
2026-01-13 12:29:51.25	336.43	7.46	-46.2	-64.9	3.8	7.43e-01	0	59	104	1162346496	62	33901
2026-01-13 12:29:52.26	336.49	7.38	-46.2	-65.0	3.8	7.45e-01	0	60	104	1162346496	63	32243
2026-01-13 12:29:53.27	336.54	7.30	-46.1	-65.0	3.8	7.49e-01	0	59	104	1162346496	63	32338
2026-01-13 12:29:54.28	336.60	7.22	-45.4	-64.9	3.8	7.44e-01	0	59	104	1162346496	63	32038
2026-01-13 12:29:55.29	336.65	7.14	-46.2	-65.0	3.7	7.42e-01	0	60	104	1162346496	62	34199
2026-01-13 12:29:56.30	336.71	7.07	-46.2	-65.0	3.8	7.46e-01	0	59	104	1162346496	63	32273
2026-01-13 12:29:57.31	336.76	6.99	-46.2	-65.0	3.8	7.46e-01	0	60	104	1162346496	63	32214
2026-01-13 12:29:58.32	336.82	6.91	-46.2	-65.0	3.8	7.45e-01	0	60	104	1162346496	63	32254
2026-01-13 12:29:59.33	336.87	6.83	-46.2	-65.0	3.8	7.43e-01	0	59	104	1162346496	63	32257
2026-01-13 12:30:00.34	336.92	6.75	-46.1	-64.9	3.8	7.45e-01	0	59	104	1162346496	62	34008
2026-01-13 12:30:01.35	336.98	6.68	-46.1	-64.9	3.8	7.46e-01	0	59	104	1162346496	62	33966
2026-01-13 12:30:02.36	337.03	6.60	-46.2	-64.9	3.8	7.49e-01	0	59	104	1162346496	62	33962
2026-01-13 12:30:03.37	337.08	6.52	-46.1	-64.9	3.8	7.44e-01	0	59	104	1162346496	62	33976
2026-01-13 12:30:04.38	337.13	6.44	-46.2	-64.9	3.8	7.47e-01	0	60	104	1162346496	62	33984
2026-01-13 12:30:05.39	337.19	6.37	-46.1	-64.9	3.8	7.46e-01	0	59	104	1162346496	62	33943
2026-01-13 12:30:06.40	337.24	6.29	-46.1	-64.9	3.8	7.43e-01	0	59	104	1162346496	62	33952
