passes_logs/2026/01/13/R2.0S_Moscow/R2.0S_Moscow__20260113_024454_AQUA_rec.log

#Pass ID: 20260113_024454_AQUA
#Satellite: AQUA
#Configuration: AQUA
#almurnet v.1.7.20251203
#Start time: 2026-01-13 02:44:54

#Version: 2.2.20231116
#Station: R2.0S_Moscow
#Location: 37.707566 lon 55.798166 lat
#TLE: 1 27424U 02022A   26012.29577270  .00001027  00000+0  21555-3 0  9995
#TLE: 2 27424  98.4078 338.6778 0002034  81.5885  29.6294 14.61817302260499

#Time	Az	El	Level	Level2	SNR	BER	BlckErr	Temp	State	Recorded	gain1	gain2
2026-01-13 02:44:54.81	7.78	2.02	-39.8	-59.8	3.8	7.43e-01	0	50	0	0	51	35520
2026-01-13 02:44:55.82	7.71	2.08	-39.8	-59.8	3.8	7.47e-01	0	51	104	0	50	37605
2026-01-13 02:44:56.83	7.64	2.14	-39.8	-59.8	3.8	7.45e-01	0	51	104	0	50	37602
2026-01-13 02:44:57.84	7.57	2.20	-39.8	-59.8	3.8	7.44e-01	0	51	104	0	50	37593
2026-01-13 02:44:58.85	7.50	2.26	-39.8	-59.8	3.8	7.43e-01	0	51	104	0	50	37666
2026-01-13 02:44:59.86	7.43	2.32	-39.8	-59.8	3.8	7.41e-01	0	51	104	0	50	37609
2026-01-13 02:45:00.87	7.36	2.38	-39.8	-59.8	3.8	7.42e-01	0	51	104	0	50	37558
2026-01-13 02:45:01.88	7.29	2.44	-39.8	-59.8	3.8	7.44e-01	0	51	104	0	50	37596
2026-01-13 02:45:02.89	7.22	2.50	-39.8	-59.8	3.8	7.44e-01	0	51	104	0	50	37634
2026-01-13 02:45:03.90	7.15	2.56	-39.9	-59.8	3.8	7.46e-01	0	51	104	0	50	37558
2026-01-13 02:45:04.91	7.08	2.62	-39.9	-59.8	3.8	7.46e-01	0	51	104	0	50	37576
2026-01-13 02:45:05.92	7.01	2.69	-39.8	-59.8	3.8	7.47e-01	0	51	104	0	50	37589
2026-01-13 02:45:06.93	6.94	2.75	-39.8	-59.8	3.8	7.45e-01	0	51	104	0	50	37597
2026-01-13 02:45:07.94	6.86	2.81	-39.8	-59.8	3.8	7.49e-01	0	51	104	0	50	37556
2026-01-13 02:45:08.95	6.79	2.87	-39.9	-59.8	3.8	7.45e-01	0	52	104	0	50	37609
2026-01-13 02:45:09.96	6.72	2.93	-39.8	-59.8	3.8	7.46e-01	0	51	104	0	50	37569
2026-01-13 02:45:10.97	6.64	2.99	-39.8	-59.8	3.8	7.46e-01	0	52	104	0	50	37556
2026-01-13 02:45:11.98	6.57	3.05	-39.8	-59.8	3.8	7.47e-01	0	52	104	0	50	37520
2026-01-13 02:45:13.00	6.50	3.12	-39.8	-59.8	3.8	7.45e-01	0	52	104	0	50	37576
2026-01-13 02:45:14.01	6.42	3.18	-39.9	-59.8	3.8	7.46e-01	0	52	104	0	50	37563
2026-01-13 02:45:15.01	6.35	3.24	-39.8	-59.8	3.8	7.42e-01	0	52	104	0	50	37495
2026-01-13 02:45:16.03	6.27	3.30	-39.8	-59.8	3.8	7.44e-01	0	52	104	0	50	37524
2026-01-13 02:45:17.04	6.20	3.36	-39.8	-59.8	3.8	7.44e-01	0	52	104	0	50	37610
2026-01-13 02:45:18.05	6.12	3.43	-39.8	-59.8	3.8	7.44e-01	0	52	104	0	50	37583
2026-01-13 02:45:19.06	6.04	3.49	-39.8	-59.8	3.8	7.47e-01	0	52	104	0	50	37628
2026-01-13 02:45:20.07	5.97	3.55	-39.8	-59.8	3.8	7.48e-01	0	52	104	0	50	37479
2026-01-13 02:45:21.08	5.89	3.61	-39.8	-59.8	3.8	7.45e-01	0	52	104	0	50	37503
2026-01-13 02:45:22.09	5.81	3.68	-39.8	-59.8	3.8	7.47e-01	0	52	104	0	50	37514
2026-01-13 02:45:23.10	5.73	3.74	-39.8	-59.8	3.8	7.45e-01	0	52	104	0	50	37622
2026-01-13 02:45:24.11	5.66	3.80	-39.9	-59.8	3.8	7.45e-01	0	52	104	0	50	37544
2026-01-13 02:45:25.12	5.58	3.87	-39.8	-59.8	3.8	7.48e-01	0	53	104	0	50	37560
2026-01-13 02:45:26.13	5.50	3.93	-39.8	-59.8	3.8	7.48e-01	0	53	104	0	50	37613
2026-01-13 02:45:27.14	5.42	3.99	-39.8	-59.8	3.8	7.46e-01	0	53	104	0	50	37583
2026-01-13 02:45:28.16	5.34	4.06	-39.8	-59.8	3.8	7.45e-01	0	53	104	0	50	37534
2026-01-13 02:45:29.16	5.26	4.12	-39.9	-59.8	3.8	7.43e-01	0	53	104	0	50	37526
2026-01-13 02:45:30.18	5.18	4.18	-39.9	-59.8	3.8	7.48e-01	0	53	104	0	50	37515
2026-01-13 02:45:31.19	5.10	4.25	-39.8	-59.8	3.8	7.47e-01	0	53	104	0	50	37547
2026-01-13 02:45:32.20	5.02	4.31	-39.9	-59.8	3.8	7.43e-01	0	53	104	0	50	37592
2026-01-13 02:45:33.21	4.93	4.38	-39.9	-59.8	3.8	7.48e-01	0	53	104	0	50	37544
2026-01-13 02:45:34.22	4.85	4.44	-39.9	-59.8	3.8	7.43e-01	0	53	104	0	50	37553
2026-01-13 02:45:35.23	4.77	4.50	-39.9	-59.8	3.8	7.45e-01	0	53	104	0	50	37547
2026-01-13 02:45:36.24	4.69	4.57	-39.9	-59.8	3.8	7.47e-01	0	53	104	0	50	37503
2026-01-13 02:45:37.25	4.60	4.63	-39.8	-59.8	3.8	7.46e-01	0	53	104	0	50	37540
2026-01-13 02:45:38.26	4.52	4.70	-39.9	-59.8	3.8	7.47e-01	0	53	104	0	50	37504
2026-01-13 02:45:39.27	4.44	4.76	-39.9	-59.8	3.8	7.45e-01	0	54	104	0	50	37561
2026-01-13 02:45:40.28	4.35	4.83	-39.9	-59.8	3.8	7.48e-01	0	53	104	0	50	37522
2026-01-13 02:45:41.29	4.27	4.89	-39.9	-59.8	3.8	7.45e-01	0	53	104	0	50	37618
2026-01-13 02:45:42.30	4.18	4.96	-39.8	-59.8	3.8	7.46e-01	0	54	104	0	50	37493
2026-01-13 02:45:43.31	4.09	5.02	-39.9	-59.8	3.8	7.47e-01	0	54	104	0	50	37507
2026-01-13 02:45:44.32	4.01	5.09	-39.9	-59.8	3.8	7.46e-01	0	54	104	0	50	37597
2026-01-13 02:45:45.33	3.92	5.15	-39.9	-59.8	3.8	7.49e-01	0	54	104	0	50	37504
2026-01-13 02:45:46.34	3.83	5.22	-39.8	-59.8	3.8	7.43e-01	0	54	104	0	50	37519
2026-01-13 02:45:47.35	3.75	5.28	-39.9	-59.8	3.8	7.43e-01	0	54	104	0	50	37556
2026-01-13 02:45:48.36	3.66	5.35	-39.8	-59.8	3.8	7.43e-01	0	54	104	0	50	37603
2026-01-13 02:45:49.37	3.57	5.42	-39.9	-59.8	3.8	7.47e-01	0	54	104	0	50	37576
2026-01-13 02:45:50.38	3.48	5.48	-39.8	-59.8	3.8	7.42e-01	0	54	104	0	50	37583
2026-01-13 02:45:51.40	3.39	5.55	-39.9	-59.8	3.8	7.45e-01	0	54	104	0	50	37547
2026-01-13 02:45:52.40	3.30	5.61	-39.8	-59.8	3.8	7.46e-01	0	54	104	0	50	37547
2026-01-13 02:45:53.41	3.21	5.68	-39.8	-59.8	3.8	7.47e-01	0	54	104	0	50	37536
2026-01-13 02:45:54.43	3.12	5.75	-39.8	-59.8	3.8	7.44e-01	0	54	104	0	50	37464
2026-01-13 02:45:55.43	3.03	5.81	-39.9	-59.8	3.8	7.44e-01	0	54	104	0	50	37525
2026-01-13 02:45:56.45	2.93	5.88	-39.8	-59.8	3.8	7.48e-01	0	54	104	0	50	37508
2026-01-13 02:45:57.46	2.84	5.95	-39.8	-59.8	3.8	7.45e-01	0	54	104	0	50	37536
2026-01-13 02:45:58.47	2.75	6.02	-39.9	-59.8	3.8	7.49e-01	0	54	104	0	50	37524
2026-01-13 02:45:59.48	2.66	6.08	-39.9	-59.8	3.8	7.43e-01	0	54	104	0	50	37444
2026-01-13 02:46:00.49	2.56	6.15	-39.8	-59.8	3.8	7.45e-01	0	54	104	0	50	37498
2026-01-13 02:46:01.50	2.47	6.22	-39.9	-59.8	3.8	7.44e-01	0	54	104	0	50	37534
2026-01-13 02:46:02.51	2.37	6.28	-39.9	-59.8	3.8	7.48e-01	0	54	104	0	50	37555
2026-01-13 02:46:03.52	2.28	6.35	-39.8	-59.8	3.8	7.46e-01	0	54	104	0	50	37501
2026-01-13 02:46:04.53	2.18	6.42	-39.8	-59.8	3.8	7.44e-01	0	55	104	0	50	37535
2026-01-13 02:46:05.54	2.08	6.49	-39.9	-59.8	3.8	7.44e-01	0	54	104	0	50	37459
2026-01-13 02:46:06.55	1.99	6.56	-39.9	-59.8	3.8	7.44e-01	0	55	104	0	50	37462
2026-01-13 02:46:07.56	1.89	6.62	-39.9	-59.8	3.8	7.42e-01	0	55	104	0	50	37540
2026-01-13 02:46:08.57	1.79	6.69	-39.9	-59.8	3.8	7.45e-01	0	55	104	0	50	37415
2026-01-13 02:46:09.59	1.69	6.76	-39.9	-59.8	3.8	7.44e-01	0	55	104	0	50	37515
2026-01-13 02:46:10.59	1.60	6.83	-39.8	-59.8	3.8	7.45e-01	0	55	104	0	50	37502
2026-01-13 02:46:11.60	1.50	6.90	-39.9	-59.8	3.8	7.47e-01	0	55	104	0	50	37525
2026-01-13 02:46:12.61	1.40	6.97	-39.8	-59.8	3.8	7.44e-01	0	55	104	0	50	37528
2026-01-13 02:46:13.62	1.30	7.04	-39.9	-59.8	3.8	7.44e-01	0	55	104	0	50	37532
2026-01-13 02:46:14.64	1.19	7.11	-39.8	-59.8	3.8	7.45e-01	0	55	104	0	50	37617
2026-01-13 02:46:15.64	1.09	7.17	-39.8	-59.8	3.8	7.48e-01	0	55	104	0	50	37438
2026-01-13 02:46:16.66	0.99	7.24	-39.9	-59.8	3.8	7.45e-01	0	55	104	0	50	37524
2026-01-13 02:46:17.67	0.89	7.31	-39.9	-59.8	3.8	7.45e-01	0	55	104	0	50	37465
2026-01-13 02:46:18.68	0.78	7.38	-39.8	-59.8	3.8	7.45e-01	0	55	104	0	50	37557
2026-01-13 02:46:19.69	0.68	7.45	-39.8	-59.8	3.8	7.42e-01	0	55	104	0	50	37503
2026-01-13 02:46:20.70	0.57	7.52	-39.9	-59.8	3.8	7.47e-01	0	55	104	0	50	37520
2026-01-13 02:46:21.71	0.47	7.59	-39.9	-59.8	3.8	7.49e-01	0	55	104	0	50	37529
2026-01-13 02:46:22.72	0.36	7.66	-39.9	-59.8	3.8	7.44e-01	0	55	104	0	50	37573
2026-01-13 02:46:23.73	0.26	7.73	-39.8	-59.8	3.8	7.47e-01	0	56	104	0	50	37512
2026-01-13 02:46:24.74	0.15	7.80	-39.9	-59.8	3.8	7.49e-01	0	55	104	0	50	37521
2026-01-13 02:46:25.75	0.04	7.87	-39.8	-59.8	3.8	7.44e-01	0	55	104	0	50	37528
2026-01-13 02:46:26.76	359.94	7.94	-39.9	-59.8	3.8	7.47e-01	0	55	104	0	50	37533
2026-01-13 02:46:27.77	359.83	8.02	-39.8	-59.8	3.8	7.46e-01	0	56	104	0	50	37573
2026-01-13 02:46:28.79	359.72	8.09	-39.4	-59.8	3.8	7.42e-01	0	55	104	0	50	37390
2026-01-13 02:46:29.79	359.61	8.16	-39.7	-59.9	3.8	7.43e-01	0	55	104	0	50	37878
2026-01-13 02:46:30.80	359.50	8.23	-39.6	-59.9	3.8	7.43e-01	0	56	104	0	50	37833
2026-01-13 02:46:31.81	359.39	8.30	-39.8	-59.8	3.8	7.44e-01	0	56	104	0	50	37795
2026-01-13 02:46:32.82	359.28	8.37	-39.9	-59.9	3.8	7.45e-01	0	55	104	0	50	38056
2026-01-13 02:46:33.83	359.16	8.44	-40.0	-59.8	3.8	7.46e-01	0	56	104	0	50	37718
2026-01-13 02:46:34.84	359.05	8.51	-39.7	-59.9	3.8	7.44e-01	0	56	104	0	50	37964
2026-01-13 02:46:35.85	358.94	8.59	-39.5	-59.9	3.8	7.45e-01	0	56	104	0	50	37873
2026-01-13 02:46:36.86	358.82	8.66	-39.5	-59.8	3.8	7.43e-01	0	56	104	0	50	37486
2026-01-13 02:46:37.87	358.71	8.73	-39.7	-59.8	3.8	7.43e-01	0	56	104	0	50	37656
2026-01-13 02:46:38.88	358.59	8.80	-39.5	-59.8	3.8	7.48e-01	0	56	104	0	50	37399
2026-01-13 02:46:39.89	358.48	8.87	-40.2	-59.8	3.8	7.48e-01	0	56	104	0	50	37609
2026-01-13 02:46:40.90	358.36	8.95	-39.7	-59.8	3.8	7.48e-01	0	56	104	0	51	35671
2026-01-13 02:46:41.91	358.24	9.02	-40.0	-59.8	3.8	7.46e-01	0	56	104	0	51	35588
2026-01-13 02:46:42.92	358.13	9.09	-39.9	-59.8	3.8	7.46e-01	0	56	104	0	51	35538
2026-01-13 02:46:43.92	358.01	9.16	-40.4	-59.9	3.8	7.44e-01	0	56	104	0	51	35717
2026-01-13 02:46:44.94	357.89	9.24	-40.0	-59.8	3.8	7.46e-01	0	56	104	0	51	35498
2026-01-13 02:46:45.95	357.77	9.31	-40.4	-59.9	3.8	7.47e-01	0	56	104	0	51	35833
2026-01-13 02:46:46.95	357.65	9.38	-40.2	-59.8	3.8	7.48e-01	0	56	104	0	51	35389
2026-01-13 02:46:47.96	357.53	9.46	-39.9	-59.8	3.8	7.46e-01	0	56	104	0	51	35615
2026-01-13 02:46:48.97	357.41	9.53	-40.2	-59.8	3.8	7.46e-01	0	56	104	0	51	35403
2026-01-13 02:46:49.98	357.28	9.60	-40.2	-59.9	3.8	7.44e-01	0	56	104	0	51	35811
2026-01-13 02:46:50.99	357.16	9.68	-40.1	-59.8	3.8	7.47e-01	0	56	104	0	51	35436
2026-01-13 02:46:52.00	357.04	9.75	-41.2	-60.5	3.8	7.44e-01	0	56	104	0	52	36249
2026-01-13 02:46:53.01	356.91	9.82	-40.1	-59.7	3.8	7.43e-01	0	56	104	0	51	35264
2026-01-13 02:46:54.02	356.79	9.90	-40.8	-59.9	3.8	7.47e-01	0	56	104	0	52	34008
2026-01-13 02:46:55.03	356.66	9.97	-40.0	-59.8	3.8	7.43e-01	0	57	104	0	51	35299
2026-01-13 02:46:56.04	356.53	10.05	-40.4	-60.1	3.8	7.47e-01	0	56	104	0	51	36597
2026-01-13 02:46:57.05	356.41	10.12	-39.8	-59.8	3.8	7.48e-01	0	56	104	0	51	35546
2026-01-13 02:46:58.06	356.28	10.19	-40.3	-60.2	3.8	7.43e-01	0	56	104	0	51	36972
2026-01-13 02:46:59.06	356.15	10.27	-40.0	-59.8	3.8	7.46e-01	0	56	104	0	51	35583
2026-01-13 02:47:00.07	356.02	10.34	-40.6	-60.2	3.8	7.45e-01	0	56	104	0	52	35274
2026-01-13 02:47:01.09	355.89	10.42	-40.4	-59.7	3.8	7.43e-01	0	56	104	0	52	33301
2026-01-13 02:47:02.09	355.76	10.49	-40.5	-60.2	3.8	7.43e-01	0	57	104	0	52	35200
2026-01-13 02:47:03.10	355.63	10.57	-40.5	-59.8	3.8	7.46e-01	0	57	104	0	52	33497
2026-01-13 02:47:04.11	355.50	10.64	-40.8	-60.2	3.8	7.47e-01	0	57	104	0	52	35218
2026-01-13 02:47:05.12	355.36	10.72	-40.3	-59.9	3.8	7.44e-01	0	57	104	0	52	34083
2026-01-13 02:47:06.13	355.23	10.79	-41.1	-60.2	3.8	7.42e-01	0	57	104	0	52	35154
2026-01-13 02:47:07.14	355.09	10.87	-40.2	-60.0	3.8	7.42e-01	0	57	104	0	52	34399
2026-01-13 02:47:08.15	354.96	10.94	-41.1	-60.5	3.8	7.45e-01	0	57	104	0	52	36203
2026-01-13 02:47:09.16	354.82	11.02	-40.6	-60.0	3.8	7.44e-01	0	57	104	0	52	34412
2026-01-13 02:47:10.17	354.68	11.10	-41.3	-60.4	3.8	7.45e-01	0	57	104	0	53	34070
2026-01-13 02:47:11.18	354.55	11.17	-40.9	-60.0	3.8	7.45e-01	0	57	104	0	53	32508
2026-01-13 02:47:12.19	354.41	11.25	-40.8	-60.2	3.8	7.49e-01	0	57	104	0	53	33022
2026-01-13 02:47:13.20	354.27	11.32	-40.7	-60.2	3.8	7.46e-01	0	57	104	0	53	33183
2026-01-13 02:47:14.21	354.13	11.40	-40.7	-60.2	3.8	7.43e-01	0	57	104	0	53	33020
2026-01-13 02:47:15.22	353.99	11.48	-41.1	-60.2	3.8	7.46e-01	0	57	104	0	53	33288
2026-01-13 02:47:16.23	353.84	11.55	-41.3	-60.3	3.8	7.44e-01	0	57	104	0	53	33435
2026-01-13 02:47:17.24	353.70	11.63	-40.7	-60.0	3.8	7.43e-01	0	57	104	0	53	32478
2026-01-13 02:47:18.25	353.56	11.71	-41.3	-60.2	3.8	7.44e-01	0	57	104	0	53	33223
2026-01-13 02:47:19.26	353.41	11.78	-40.7	-60.1	3.8	7.48e-01	0	57	104	0	53	32891
2026-01-13 02:47:20.27	353.27	11.86	-41.3	-60.4	3.8	7.46e-01	0	57	104	0	53	33877
2026-01-13 02:47:21.27	353.12	11.94	-40.7	-60.2	3.8	7.45e-01	0	57	104	0	53	33047
2026-01-13 02:47:22.29	352.98	12.01	-41.4	-60.5	3.8	7.44e-01	0	57	104	0	53	34090
2026-01-13 02:47:23.30	352.83	12.09	-40.8	-60.2	3.8	7.46e-01	0	57	104	0	53	33036
2026-01-13 02:47:24.31	352.68	12.17	-41.4	-60.4	3.8	7.46e-01	0	57	104	0	53	33964
2026-01-13 02:47:25.32	352.53	12.24	-41.5	-60.5	3.8	7.44e-01	0	57	104	0	53	34253
2026-01-13 02:47:26.33	352.38	12.32	-41.2	-60.5	3.8	7.46e-01	0	57	104	0	53	34124
2026-01-13 02:47:27.33	352.23	12.40	-41.5	-60.4	3.8	7.46e-01	0	57	104	0	53	33979
2026-01-13 02:47:28.35	352.07	12.48	-41.1	-60.4	3.8	7.43e-01	0	57	104	0	53	34066
2026-01-13 02:47:29.36	351.92	12.55	-41.4	-60.4	3.8	7.47e-01	0	57	104	0	53	34003
2026-01-13 02:47:30.37	351.77	12.63	-41.3	-60.5	3.8	7.46e-01	0	57	104	0	53	34390
2026-01-13 02:47:31.38	351.61	12.71	-41.2	-60.4	3.8	7.46e-01	0	57	104	0	53	34046
2026-01-13 02:47:32.39	351.46	12.79	-41.3	-60.5	3.8	7.45e-01	0	57	104	0	53	34336
2026-01-13 02:47:33.40	351.30	12.87	-41.4	-60.4	3.8	7.45e-01	0	57	104	0	53	34039
2026-01-13 02:47:34.41	351.14	12.94	-41.7	-60.6	3.8	7.46e-01	0	57	104	0	53	34686
2026-01-13 02:47:35.42	350.98	13.02	-41.6	-60.5	3.8	7.46e-01	0	57	104	0	53	34264
2026-01-13 02:47:36.43	350.82	13.10	-42.0	-60.8	3.8	7.47e-01	0	57	104	0	54	33510
2026-01-13 02:47:37.44	350.66	13.18	-41.9	-60.7	3.8	7.45e-01	0	57	104	0	54	33298
2026-01-13 02:47:38.45	350.50	13.26	-41.9	-60.7	3.8	7.44e-01	0	57	104	0	54	33255
2026-01-13 02:47:39.46	350.34	13.34	-41.9	-60.8	3.8	7.50e-01	0	58	104	0	54	33400
2026-01-13 02:47:40.46	350.18	13.41	-41.7	-60.7	3.8	7.42e-01	0	58	104	0	54	33114
2026-01-13 02:47:41.47	350.02	13.49	-41.7	-60.6	3.8	7.48e-01	0	57	104	0	54	32878
2026-01-13 02:47:42.48	349.85	13.57	-41.6	-60.6	3.8	7.43e-01	0	58	104	0	53	34709
2026-01-13 02:47:43.50	349.68	13.65	-41.8	-60.8	3.9	7.44e-01	0	57	104	0	54	33592
2026-01-13 02:47:44.51	349.52	13.73	-41.8	-60.8	3.8	7.45e-01	0	57	104	0	54	33399
2026-01-13 02:47:45.52	349.35	13.81	-41.8	-60.8	3.8	7.46e-01	0	58	104	0	54	33325
2026-01-13 02:47:46.53	349.18	13.89	-41.8	-60.9	3.8	7.46e-01	0	58	104	0	54	33934
2026-01-13 02:47:47.54	349.01	13.96	-41.4	-60.7	3.8	7.44e-01	0	57	104	0	54	33236
2026-01-13 02:47:48.55	348.84	14.04	-42.0	-61.0	3.8	7.46e-01	0	57	104	0	54	34299
2026-01-13 02:47:49.55	348.67	14.12	-42.0	-61.0	3.8	7.44e-01	0	57	104	0	54	34347
2026-01-13 02:47:50.56	348.49	14.20	-41.9	-61.0	3.8	7.45e-01	0	57	104	0	54	34422
2026-01-13 02:47:51.57	348.32	14.28	-41.5	-61.1	3.8	7.45e-01	0	58	104	0	54	34676
2026-01-13 02:47:52.58	348.15	14.36	-41.9	-61.1	3.8	7.47e-01	0	58	104	0	54	34629
2026-01-13 02:47:53.59	347.97	14.44	-41.8	-61.1	3.8	7.46e-01	0	58	104	0	54	34867
2026-01-13 02:47:54.60	347.79	14.52	-41.8	-61.2	3.8	7.47e-01	0	58	104	0	54	35063
2026-01-13 02:47:55.61	347.61	14.60	-42.2	-61.5	3.8	7.43e-01	0	58	104	0	55	34258
2026-01-13 02:47:56.62	347.44	14.67	-41.7	-61.3	3.8	7.48e-01	0	58	104	0	55	33357
2026-01-13 02:47:57.63	347.26	14.75	-42.1	-61.4	3.8	7.48e-01	0	58	104	0	55	33835
2026-01-13 02:47:58.64	347.07	14.83	-42.0	-61.3	3.8	7.46e-01	0	58	104	0	55	33362
2026-01-13 02:47:59.65	346.89	14.91	-42.0	-61.1	3.8	7.49e-01	0	58	104	0	55	32555
2026-01-13 02:48:00.66	346.71	14.99	-42.1	-61.4	3.8	7.43e-01	0	58	104	0	55	33831
2026-01-13 02:48:01.67	346.52	15.07	-41.8	-61.0	3.8	7.44e-01	0	58	104	0	55	32361
2026-01-13 02:48:02.68	346.34	15.15	-42.1	-61.3	3.8	7.43e-01	0	58	104	0	54	35389
2026-01-13 02:48:03.69	346.15	15.23	-42.1	-61.1	3.8	7.50e-01	0	58	104	0	54	34550
2026-01-13 02:48:04.70	345.97	15.31	-41.4	-60.8	3.8	7.45e-01	0	58	104	0	54	33608
2026-01-13 02:48:05.71	345.78	15.39	-41.6	-60.8	3.8	7.48e-01	0	58	104	0	54	33444
2026-01-13 02:48:06.72	345.59	15.47	-41.2	-60.8	3.8	7.43e-01	0	58	104	0	54	33585
2026-01-13 02:48:07.73	345.40	15.54	-41.9	-61.0	3.8	7.46e-01	0	58	104	0	54	34227
2026-01-13 02:48:08.74	345.20	15.62	-41.4	-60.9	3.8	7.49e-01	0	58	104	0	54	33723
2026-01-13 02:48:09.75	345.01	15.70	-41.8	-60.8	3.8	7.49e-01	0	58	104	0	54	33583
2026-01-13 02:48:10.76	344.82	15.78	-41.4	-60.9	3.8	7.43e-01	0	58	104	0	54	33830
2026-01-13 02:48:11.77	344.62	15.86	-41.7	-60.7	3.8	7.45e-01	0	58	104	0	54	33068
2026-01-13 02:48:12.78	344.43	15.94	-41.7	-60.8	3.8	7.45e-01	0	58	104	0	54	33376
2026-01-13 02:48:13.79	344.23	16.02	-40.9	-60.6	3.7	7.45e-01	0	58	104	0	53	34551
2026-01-13 02:48:14.80	344.03	16.10	-41.6	-60.6	3.8	7.45e-01	0	58	104	0	53	34755
2026-01-13 02:48:15.81	343.83	16.18	-41.1	-60.6	3.8	7.44e-01	0	58	104	0	53	34768
2026-01-13 02:48:16.82	343.63	16.25	-41.3	-60.6	3.8	7.47e-01	0	58	104	0	53	34651
2026-01-13 02:48:17.83	343.43	16.33	-41.2	-60.6	3.8	7.43e-01	0	58	104	0	53	34587
2026-01-13 02:48:18.84	343.22	16.41	-40.7	-60.5	3.8	7.45e-01	0	58	104	0	53	34369
2026-01-13 02:48:19.85	343.02	16.49	-40.5	-60.6	3.8	7.45e-01	0	58	104	0	52	36840
2026-01-13 02:48:20.86	342.81	16.57	-41.6	-60.6	3.8	7.47e-01	0	58	104	0	53	34734
2026-01-13 02:48:21.87	342.61	16.65	-41.1	-60.7	3.8	7.44e-01	0	58	104	0	53	35001
2026-01-13 02:48:22.88	342.40	16.73	-41.6	-60.5	3.8	7.43e-01	0	58	104	0	53	34247
2026-01-13 02:48:23.88	342.19	16.80	-41.1	-60.4	3.8	7.44e-01	0	58	104	0	53	34033
2026-01-13 02:48:24.89	341.98	16.88	-41.3	-60.5	3.8	7.45e-01	0	58	104	0	53	34233
2026-01-13 02:48:25.90	341.77	16.96	-41.5	-60.6	3.8	7.45e-01	0	58	104	0	53	34782
2026-01-13 02:48:26.91	341.56	17.04	-41.2	-60.4	3.8	7.44e-01	0	58	104	0	53	33873
2026-01-13 02:48:27.92	341.35	17.11	-41.7	-60.7	3.8	7.46e-01	0	58	104	0	53	34976
2026-01-13 02:48:28.93	341.13	17.19	-41.1	-60.6	3.8	7.44e-01	0	58	104	0	54	32623
2026-01-13 02:48:29.94	340.92	17.27	-42.1	-60.9	3.8	7.43e-01	0	58	104	0	54	34066
2026-01-13 02:48:30.95	340.70	17.35	-41.4	-60.3	3.8	7.47e-01	0	58	104	0	54	31472
2026-01-13 02:48:31.96	340.48	17.42	-42.6	-60.5	3.8	7.39e-01	0	58	104	0	55	30579
2026-01-13 02:48:32.97	340.26	17.50	-41.2	-59.7	3.8	7.46e-01	0	58	104	0	54	29520
2026-01-13 02:48:33.97	340.04	17.58	-41.2	-59.2	3.8	7.47e-01	0	58	104	0	54	27763
2026-01-13 02:48:34.98	339.82	17.65	-41.4	-57.6	4.0	7.38e-01	0	58	104	0	54	23049
2026-01-13 02:48:35.99	339.60	17.73	-41.5	-56.7	3.9	7.39e-01	0	59	104	0	54	20795
2026-01-13 02:48:37.00	339.37	17.81	-41.7	-54.0	6.0	6.86e-01	92	58	0	524288	54	15342
2026-01-13 02:48:38.01	339.15	17.88	-42.1	-53.5	6.4	6.70e-01	91	58	0	1572864	54	14399
2026-01-13 02:48:39.02	338.92	17.96	-43.6	-53.6	8.2	6.43e-01	52	58	0	3670016	57	12238
2026-01-13 02:48:40.03	338.69	18.04	-43.9	-57.5	5.1	7.10e-01	0	59	0	5242880	58	18173
2026-01-13 02:48:41.04	338.46	18.11	-44.1	-61.7	3.8	7.44e-01	0	58	104	6815744	58	29395
2026-01-13 02:48:42.05	338.23	18.19	-40.3	-43.8	18.1	6.03e-01	0	58	0	7864320	52	5280
2026-01-13 02:48:43.06	338.00	18.26	-40.4	-43.8	18.5	6.04e-01	0	59	0	9437184	52	5297
2026-01-13 02:48:44.07	337.77	18.34	-40.9	-44.4	18.1	6.03e-01	0	59	0	11534336	52	5713
2026-01-13 02:48:45.08	337.53	18.41	-41.4	-45.2	17.4	6.03e-01	0	59	0	13631488	53	5861
2026-01-13 02:48:46.09	337.30	18.49	-41.0	-44.2	18.4	6.02e-01	0	59	0	15204352	53	5270
2026-01-13 02:48:47.11	337.06	18.56	-41.0	-44.2	18.6	6.01e-01	0	58	0	17301504	53	5240
2026-01-13 02:48:48.11	336.82	18.64	-41.3	-44.6	18.3	6.03e-01	0	58	0	18874368	53	5494
2026-01-13 02:48:49.12	336.58	18.71	-41.2	-44.5	18.4	6.05e-01	0	58	0	20971520	53	5425
2026-01-13 02:48:50.13	336.34	18.78	-41.3	-44.6	18.3	6.04e-01	0	59	0	23068672	53	5519
2026-01-13 02:48:51.14	336.10	18.86	-41.2	-44.4	18.5	6.02e-01	0	58	0	24641536	53	5388
2026-01-13 02:48:52.15	335.86	18.93	-41.2	-44.3	18.6	6.02e-01	0	59	0	26738688	53	5330
2026-01-13 02:48:53.16	335.61	19.00	-41.2	-44.4	18.6	6.03e-01	0	58	0	28311552	53	5344
2026-01-13 02:48:54.17	335.37	19.07	-41.2	-44.4	18.7	6.02e-01	0	59	0	30408704	53	5361
2026-01-13 02:48:55.18	335.12	19.15	-41.2	-44.4	18.7	6.02e-01	0	59	0	32505856	53	5373
2026-01-13 02:48:56.19	334.87	19.22	-41.3	-44.5	18.6	6.04e-01	0	59	0	34078720	53	5430
2026-01-13 02:48:57.20	334.62	19.29	-41.4	-44.6	18.5	6.03e-01	0	59	0	36175872	53	5506
2026-01-13 02:48:58.21	334.37	19.36	-41.4	-44.6	18.6	6.02e-01	0	58	0	37748736	53	5495
2026-01-13 02:48:59.22	334.12	19.43	-41.5	-44.7	18.5	6.02e-01	0	59	0	39845888	53	5586
2026-01-13 02:49:00.23	333.87	19.50	-41.4	-44.5	18.8	6.02e-01	0	58	0	41943040	53	5430
2026-01-13 02:49:01.24	333.61	19.57	-41.3	-44.3	18.9	6.02e-01	0	59	0	43515904	53	5338
2026-01-13 02:49:02.25	333.36	19.64	-41.4	-44.4	18.9	6.04e-01	0	59	0	45613056	53	5398
2026-01-13 02:49:03.26	333.10	19.71	-41.4	-44.6	18.8	6.02e-01	0	58	0	47185920	53	5469
2026-01-13 02:49:04.27	332.84	19.78	-41.4	-44.4	18.9	6.00e-01	0	59	0	49283072	53	5391
2026-01-13 02:49:05.28	332.58	19.85	-41.4	-44.5	18.9	6.04e-01	0	59	0	51380224	53	5410
2026-01-13 02:49:06.29	332.32	19.92	-41.5	-44.6	18.8	6.02e-01	0	59	0	52953088	53	5475
2026-01-13 02:49:07.30	332.06	19.99	-41.3	-44.4	19.0	6.02e-01	0	59	0	55050240	53	5368
2026-01-13 02:49:08.31	331.80	20.06	-41.4	-44.5	18.9	6.04e-01	0	59	0	56623104	53	5446
2026-01-13 02:49:09.32	331.53	20.12	-41.5	-44.5	18.9	6.03e-01	0	59	0	58720256	53	5447
2026-01-13 02:49:10.33	331.27	20.19	-41.4	-44.4	19.0	6.03e-01	0	59	0	60817408	53	5395
2026-01-13 02:49:11.34	331.00	20.26	-41.5	-44.6	18.9	6.03e-01	0	59	0	62390272	53	5469
2026-01-13 02:49:12.35	330.73	20.32	-41.5	-44.6	18.8	6.03e-01	0	58	0	64487424	53	5528
2026-01-13 02:49:13.36	330.46	20.39	-41.5	-44.6	18.9	6.02e-01	0	58	0	66584576	53	5523
2026-01-13 02:49:14.36	330.19	20.45	-41.6	-44.7	18.8	6.05e-01	0	59	0	68157440	53	5562
2026-01-13 02:49:15.37	329.92	20.52	-41.6	-44.7	18.8	6.06e-01	0	59	0	70254592	53	5551
2026-01-13 02:49:16.38	329.65	20.58	-41.6	-44.7	18.8	6.01e-01	0	59	0	71827456	53	5592
2026-01-13 02:49:17.39	329.38	20.65	-41.7	-44.9	18.6	6.02e-01	0	59	0	73924608	53	5667
2026-01-13 02:49:18.40	329.10	20.71	-41.7	-44.8	18.7	6.04e-01	0	59	0	76021760	54	5319
2026-01-13 02:49:19.41	328.82	20.77	-41.6	-44.8	18.8	6.00e-01	0	59	0	77594624	54	5290
2026-01-13 02:49:20.42	328.55	20.83	-41.6	-44.7	18.8	6.04e-01	0	59	0	79691776	54	5261
2026-01-13 02:49:21.43	328.27	20.90	-41.6	-44.6	18.9	6.03e-01	0	59	0	81788928	54	5214
2026-01-13 02:49:22.44	327.99	20.96	-41.6	-44.7	18.8	6.04e-01	0	59	0	83361792	54	5272
2026-01-13 02:49:23.45	327.71	21.02	-41.7	-44.8	18.8	6.04e-01	0	59	0	85458944	54	5310
2026-01-13 02:49:24.45	327.43	21.08	-41.7	-44.9	18.7	6.02e-01	0	59	0	87031808	54	5351
2026-01-13 02:49:25.46	327.14	21.14	-41.7	-44.9	18.7	6.03e-01	0	59	0	89128960	54	5370
2026-01-13 02:49:26.47	326.86	21.20	-41.7	-44.8	18.8	6.02e-01	0	59	0	91226112	54	5309
2026-01-13 02:49:27.48	326.57	21.25	-41.7	-44.8	18.8	6.02e-01	0	59	0	92798976	54	5308
2026-01-13 02:49:28.49	326.28	21.31	-41.6	-44.7	18.9	6.03e-01	0	59	0	94896128	54	5251
2026-01-13 02:49:29.50	326.00	21.37	-41.6	-44.7	18.8	6.02e-01	0	59	0	96468992	54	5266
2026-01-13 02:49:30.51	325.71	21.43	-41.7	-44.8	18.8	6.03e-01	0	59	0	98566144	54	5286
2026-01-13 02:49:31.52	325.42	21.48	-41.7	-44.9	18.7	6.01e-01	0	59	0	100663296	54	5370
2026-01-13 02:49:32.53	325.12	21.54	-41.7	-44.9	18.7	6.04e-01	0	59	0	102236160	54	5351
2026-01-13 02:49:33.54	324.83	21.59	-41.6	-44.6	19.0	6.02e-01	0	59	0	104333312	54	5211
2026-01-13 02:49:34.55	324.54	21.65	-41.6	-44.7	18.9	6.01e-01	0	59	0	105906176	54	5275
2026-01-13 02:49:35.56	324.24	21.70	-41.7	-44.8	18.8	6.03e-01	0	59	0	108003328	54	5293
2026-01-13 02:49:36.57	323.95	21.75	-41.8	-45.0	18.6	6.06e-01	0	59	0	110100480	54	5423
2026-01-13 02:49:37.58	323.65	21.80	-41.8	-45.0	18.6	6.05e-01	0	59	0	111673344	54	5446
2026-01-13 02:49:38.59	323.35	21.86	-41.8	-45.1	18.5	6.03e-01	0	59	0	113770496	54	5468
2026-01-13 02:49:39.60	323.05	21.91	-41.7	-44.9	18.7	6.01e-01	0	59	0	115343360	54	5351
2026-01-13 02:49:40.61	322.75	21.96	-41.6	-44.6	19.0	6.02e-01	0	59	0	117440512	54	5201
2026-01-13 02:49:41.61	322.45	22.01	-41.6	-44.7	18.9	6.04e-01	0	59	0	119537664	54	5269
2026-01-13 02:49:42.62	322.15	22.05	-41.8	-45.0	18.6	6.03e-01	0	59	0	121110528	54	5443
2026-01-13 02:49:43.63	321.85	22.10	-41.8	-45.0	18.6	6.03e-01	0	59	0	123207680	54	5429
2026-01-13 02:49:44.64	321.54	22.15	-41.8	-45.0	18.6	6.04e-01	0	59	0	124780544	54	5436
2026-01-13 02:49:45.65	321.24	22.20	-41.8	-45.0	18.6	6.03e-01	0	59	0	126877696	54	5412
2026-01-13 02:49:46.66	320.93	22.24	-41.7	-44.9	18.7	6.03e-01	0	59	0	128974848	54	5360
2026-01-13 02:49:47.67	320.63	22.29	-41.8	-44.9	18.7	6.00e-01	0	59	0	130547712	54	5384
2026-01-13 02:49:48.68	320.32	22.33	-41.8	-45.0	18.6	6.04e-01	0	59	0	132644864	54	5456
2026-01-13 02:49:49.69	320.01	22.37	-41.8	-45.1	18.6	6.02e-01	0	59	0	134742016	54	5465
2026-01-13 02:49:50.69	319.70	22.42	-41.8	-45.0	18.6	6.02e-01	0	59	0	136314880	54	5464
2026-01-13 02:49:51.70	319.39	22.46	-41.8	-45.0	18.6	6.02e-01	0	59	0	138412032	54	5432
2026-01-13 02:49:52.71	319.08	22.50	-41.8	-45.0	18.7	6.02e-01	0	59	0	139984896	54	5414
2026-01-13 02:49:53.72	318.77	22.54	-41.9	-45.2	18.4	6.03e-01	0	59	0	142082048	54	5576
2026-01-13 02:49:54.73	318.45	22.58	-41.8	-45.0	18.7	6.04e-01	0	59	0	144179200	54	5420
2026-01-13 02:49:55.74	318.14	22.62	-41.9	-45.2	18.5	6.02e-01	0	59	0	145752064	54	5535
2026-01-13 02:49:56.75	317.82	22.66	-41.8	-45.0	18.6	6.02e-01	0	59	0	147849216	54	5447
2026-01-13 02:49:57.76	317.51	22.69	-41.8	-44.9	18.7	6.04e-01	0	59	0	149422080	54	5394
2026-01-13 02:49:58.77	317.19	22.73	-41.8	-45.0	18.7	6.03e-01	0	59	0	151519232	54	5415
2026-01-13 02:49:59.78	316.87	22.77	-41.8	-45.0	18.6	6.03e-01	0	59	0	153616384	54	5453
2026-01-13 02:50:00.79	316.56	22.80	-41.8	-44.9	18.7	6.06e-01	0	59	0	155189248	54	5376
2026-01-13 02:50:01.80	316.24	22.83	-41.8	-44.9	18.7	6.03e-01	0	59	0	157286400	54	5371
2026-01-13 02:50:02.81	315.92	22.87	-41.8	-44.9	18.7	6.03e-01	0	59	0	158859264	54	5371
2026-01-13 02:50:03.82	315.60	22.90	-41.9	-45.1	18.6	6.04e-01	0	59	0	160956416	54	5483
2026-01-13 02:50:04.83	315.28	22.93	-41.8	-44.9	18.7	6.02e-01	0	59	0	163053568	54	5385
2026-01-13 02:50:05.84	314.95	22.96	-41.8	-45.1	18.6	6.02e-01	0	59	0	164626432	54	5475
2026-01-13 02:50:06.85	314.63	22.99	-41.7	-44.9	18.7	6.04e-01	0	59	0	166723584	54	5358
2026-01-13 02:50:07.86	314.31	23.02	-41.9	-45.1	18.5	6.03e-01	0	59	0	168296448	54	5485
2026-01-13 02:50:08.87	313.98	23.04	-41.9	-45.1	18.5	6.02e-01	0	59	0	170393600	54	5524
2026-01-13 02:50:09.88	313.66	23.07	-41.9	-45.1	18.5	6.04e-01	0	59	0	172490752	54	5518
2026-01-13 02:50:10.89	313.34	23.10	-42.1	-45.5	18.2	6.04e-01	0	59	0	174063616	54	5748
2026-01-13 02:50:11.90	313.01	23.12	-41.9	-45.2	18.5	6.03e-01	0	59	0	176160768	54	5540
2026-01-13 02:50:12.90	312.69	23.14	-42.2	-45.7	18.0	6.02e-01	0	59	0	178257920	54	5876
2026-01-13 02:50:13.91	312.36	23.17	-41.8	-45.0	18.6	6.06e-01	0	59	0	179830784	54	5464
2026-01-13 02:50:14.92	312.03	23.19	-41.8	-45.1	18.5	6.05e-01	0	59	0	181927936	54	5472
2026-01-13 02:50:15.93	311.71	23.21	-41.9	-45.1	18.6	6.03e-01	0	59	0	183500800	54	5488
2026-01-13 02:50:16.94	311.38	23.23	-41.7	-44.9	18.7	6.02e-01	0	59	0	185597952	54	5351
2026-01-13 02:50:17.95	311.05	23.25	-42.1	-45.5	18.2	6.02e-01	0	59	0	187695104	54	5758
2026-01-13 02:50:18.96	310.72	23.27	-41.7	-44.8	18.9	6.03e-01	0	59	0	189267968	54	5304
2026-01-13 02:50:19.97	310.39	23.28	-41.9	-45.2	18.4	6.03e-01	0	59	0	191365120	54	5572
2026-01-13 02:50:20.98	310.06	23.30	-41.9	-45.2	18.5	6.03e-01	0	59	0	192937984	54	5538
2026-01-13 02:50:21.99	309.73	23.32	-41.7	-44.8	18.8	6.03e-01	0	59	0	195035136	54	5282
2026-01-13 02:50:23.00	309.40	23.33	-42.3	-45.8	17.9	6.03e-01	0	59	0	197132288	55	5610
2026-01-13 02:50:24.01	309.07	23.34	-41.8	-45.0	18.7	6.03e-01	0	59	0	198705152	55	5103
2026-01-13 02:50:25.02	308.74	23.36	-41.9	-45.1	18.4	6.01e-01	0	59	0	200802304	55	5212
2026-01-13 02:50:26.03	308.41	23.37	-42.1	-45.5	18.2	6.06e-01	0	59	0	202899456	55	5459
2026-01-13 02:50:27.03	308.08	23.38	-42.0	-45.3	18.3	6.04e-01	0	59	0	204472320	55	5307
2026-01-13 02:50:28.04	307.75	23.39	-42.3	-45.8	17.9	6.03e-01	0	59	0	206569472	55	5628
2026-01-13 02:50:29.05	307.42	23.39	-42.3	-45.9	17.8	6.03e-01	0	59	0	208142336	55	5713
2026-01-13 02:50:30.06	307.09	23.40	-42.2	-45.7	17.9	6.04e-01	0	59	0	210239488	55	5570
2026-01-13 02:50:31.07	306.75	23.41	-42.0	-45.3	18.3	6.02e-01	0	59	0	212336640	55	5321
2026-01-13 02:50:32.08	306.42	23.41	-42.2	-45.7	18.0	6.03e-01	0	59	0	213909504	55	5532
2026-01-13 02:50:33.09	306.09	23.42	-42.1	-45.4	18.2	6.04e-01	0	59	0	216006656	55	5387
2026-01-13 02:50:34.10	305.76	23.42	-42.3	-45.8	17.9	6.01e-01	0	59	0	217579520	55	5599
2026-01-13 02:50:35.11	305.42	23.42	-42.4	-46.1	17.5	6.03e-01	0	59	0	219676672	55	5824
2026-01-13 02:50:36.12	305.09	23.42	-42.0	-45.3	18.2	6.01e-01	0	59	0	221773824	55	5332
2026-01-13 02:50:37.13	304.76	23.42	-42.4	-46.0	17.7	6.03e-01	0	59	0	223346688	55	5735
2026-01-13 02:50:38.14	304.43	23.42	-41.9	-45.0	18.6	6.03e-01	0	59	0	225443840	55	5157
2026-01-13 02:50:39.15	304.09	23.42	-42.2	-45.7	17.9	6.04e-01	0	59	0	227016704	55	5588
2026-01-13 02:50:40.16	303.76	23.42	-41.8	-45.0	18.6	6.00e-01	0	59	0	229113856	55	5103
2026-01-13 02:50:41.17	303.43	23.42	-42.4	-46.1	17.7	6.02e-01	0	59	0	231211008	55	5805
2026-01-13 02:50:42.18	303.10	23.41	-41.3	-44.2	19.5	6.01e-01	0	59	0	232783872	54	4939
2026-01-13 02:50:43.19	302.76	23.41	-42.6	-46.4	17.1	6.03e-01	0	59	0	234881024	55	6059
2026-01-13 02:50:44.20	302.43	23.40	-41.7	-44.8	18.9	6.05e-01	0	59	0	236453888	55	4995
2026-01-13 02:50:45.21	302.10	23.39	-42.5	-46.2	17.3	6.05e-01	0	59	0	238551040	55	5919
2026-01-13 02:50:46.22	301.77	23.38	-41.5	-44.5	19.2	6.02e-01	0	59	0	240648192	54	5132
2026-01-13 02:50:47.23	301.44	23.37	-42.1	-45.4	18.1	6.03e-01	0	59	0	242221056	55	5392
2026-01-13 02:50:48.24	301.11	23.36	-41.9	-45.1	18.6	6.03e-01	0	59	0	244318208	55	5176
2026-01-13 02:50:49.25	300.77	23.35	-42.4	-46.2	17.5	6.03e-01	0	59	0	246415360	55	5864
2026-01-13 02:50:50.26	300.44	23.34	-41.3	-44.1	19.6	6.05e-01	0	59	0	247988224	54	4875
2026-01-13 02:50:51.27	300.11	23.32	-42.3	-46.0	17.4	6.03e-01	0	59	0	250085376	55	5734
2026-01-13 02:50:52.28	299.78	23.31	-41.7	-44.7	19.0	6.03e-01	0	59	0	251658240	54	5261
2026-01-13 02:50:53.29	299.45	23.29	-42.2	-45.7	17.9	6.04e-01	0	59	0	253755392	55	5543
2026-01-13 02:50:54.30	299.12	23.28	-41.8	-44.9	18.8	6.03e-01	0	59	0	255852544	55	5073
2026-01-13 02:50:55.30	298.80	23.26	-42.2	-45.7	17.9	6.04e-01	0	59	0	257425408	55	5558
2026-01-13 02:50:56.31	298.47	23.24	-41.5	-44.5	19.1	6.03e-01	0	59	0	259522560	55	4861
2026-01-13 02:50:57.32	298.14	23.22	-42.6	-46.5	17.2	6.03e-01	0	59	0	261095424	55	6066
2026-01-13 02:50:58.33	297.81	23.20	-41.4	-44.4	19.3	6.03e-01	0	59	0	263192576	54	5043
2026-01-13 02:50:59.34	297.48	23.18	-42.9	-47.0	16.7	6.04e-01	0	59	0	265289728	56	6129
2026-01-13 02:51:00.35	297.16	23.16	-41.5	-44.4	19.3	6.05e-01	0	59	0	266862592	54	5051
2026-01-13 02:51:01.36	296.83	23.13	-42.6	-46.4	17.2	6.03e-01	0	59	0	268959744	55	6028
2026-01-13 02:51:02.37	296.50	23.11	-41.7	-44.8	18.9	6.01e-01	0	59	0	271056896	55	4988
2026-01-13 02:51:03.38	296.18	23.09	-42.4	-46.1	17.6	6.03e-01	0	59	0	272629760	55	5809
2026-01-13 02:51:04.39	295.85	23.06	-42.2	-45.6	18.0	6.04e-01	0	59	0	274726912	55	5512
2026-01-13 02:51:05.40	295.53	23.03	-42.0	-45.2	18.5	6.03e-01	0	59	0	276299776	55	5278
2026-01-13 02:51:06.41	295.20	23.00	-42.2	-45.7	17.8	6.04e-01	0	59	0	278396928	55	5564
2026-01-13 02:51:07.42	294.88	22.98	-42.2	-45.6	18.0	6.03e-01	0	59	0	280494080	55	5496
2026-01-13 02:51:08.43	294.56	22.95	-42.2	-45.6	18.0	6.04e-01	0	59	0	282066944	55	5514
2026-01-13 02:51:09.44	294.24	22.92	-42.2	-45.7	18.0	6.05e-01	0	59	0	284164096	55	5550
2026-01-13 02:51:10.45	293.91	22.88	-41.8	-44.9	18.8	6.03e-01	0	59	0	285736960	55	5064
2026-01-13 02:51:11.46	293.59	22.85	-42.2	-45.7	17.9	6.02e-01	0	59	0	287834112	55	5569
2026-01-13 02:51:12.47	293.27	22.82	-41.9	-45.1	18.6	6.05e-01	0	59	0	289931264	55	5163
2026-01-13 02:51:13.48	292.95	22.78	-42.2	-45.6	18.0	6.04e-01	0	59	0	291504128	55	5515
2026-01-13 02:51:14.49	292.64	22.75	-41.9	-45.0	18.6	6.01e-01	0	59	0	293601280	55	5154
2026-01-13 02:51:15.50	292.32	22.71	-42.2	-45.7	17.9	6.03e-01	0	59	0	295174144	55	5562
2026-01-13 02:51:16.51	292.00	22.68	-41.8	-45.0	18.7	6.05e-01	0	59	0	297271296	55	5106
2026-01-13 02:51:17.52	291.69	22.64	-42.1	-45.4	18.3	6.02e-01	0	59	0	299368448	55	5376
2026-01-13 02:51:18.53	291.37	22.60	-42.1	-45.4	18.2	6.03e-01	0	59	0	300941312	55	5368
2026-01-13 02:51:19.54	291.06	22.56	-42.0	-45.3	18.4	6.04e-01	0	59	0	303038464	55	5293
2026-01-13 02:51:20.55	290.74	22.52	-42.2	-45.7	17.9	6.02e-01	0	60	0	304611328	55	5578
2026-01-13 02:51:21.56	290.43	22.48	-42.2	-45.6	18.0	6.03e-01	0	59	0	306708480	55	5528
2026-01-13 02:51:22.57	290.12	22.44	-41.9	-45.1	18.5	6.03e-01	0	59	0	308805632	55	5210
2026-01-13 02:51:23.59	289.80	22.40	-42.2	-45.7	18.0	6.03e-01	0	59	0	310378496	55	5552
2026-01-13 02:51:24.59	289.50	22.35	-41.9	-45.1	18.5	6.03e-01	0	59	0	312475648	55	5197
2026-01-13 02:51:25.60	289.19	22.31	-42.2	-45.7	17.9	6.02e-01	0	59	0	314572800	55	5583
2026-01-13 02:51:26.61	288.88	22.27	-42.5	-46.3	17.3	6.05e-01	0	60	0	316145664	55	5941
2026-01-13 02:51:27.62	288.57	22.22	-41.8	-45.0	18.6	6.03e-01	0	60	0	318242816	55	5132
2026-01-13 02:51:28.63	288.26	22.17	-42.2	-45.6	18.0	6.02e-01	0	60	0	319815680	55	5503
2026-01-13 02:51:29.64	287.96	22.13	-41.7	-44.9	18.7	6.04e-01	0	59	0	321912832	55	5046
2026-01-13 02:51:30.65	287.65	22.08	-41.9	-45.2	18.4	6.03e-01	0	59	0	324009984	55	5267
2026-01-13 02:51:31.66	287.35	22.03	-42.0	-45.3	18.2	6.04e-01	0	59	0	325582848	55	5337
2026-01-13 02:51:32.67	287.05	21.98	-42.0	-45.3	18.4	6.03e-01	0	59	0	327680000	55	5297
2026-01-13 02:51:33.67	286.75	21.93	-42.4	-46.0	17.6	6.03e-01	0	59	0	329252864	55	5757
2026-01-13 02:51:34.68	286.45	21.88	-42.1	-45.4	18.2	6.02e-01	0	59	0	331350016	55	5385
2026-01-13 02:51:35.69	286.15	21.83	-42.5	-46.2	17.5	6.03e-01	0	59	0	333447168	55	5881
2026-01-13 02:51:36.70	285.85	21.78	-42.2	-45.6	18.0	6.03e-01	0	59	0	335020032	55	5480
2026-01-13 02:51:37.71	285.55	21.73	-42.2	-45.6	18.0	6.02e-01	0	59	0	337117184	55	5484
2026-01-13 02:51:38.72	285.26	21.67	-43.0	-47.2	16.5	6.03e-01	0	59	0	339214336	56	6246
2026-01-13 02:51:39.73	284.96	21.62	-42.1	-45.4	18.2	6.02e-01	0	59	0	340787200	56	5098
2026-01-13 02:51:40.74	284.67	21.56	-42.0	-45.4	18.3	6.01e-01	0	60	0	342884352	55	5341
2026-01-13 02:51:41.75	284.37	21.51	-42.5	-46.3	17.3	6.03e-01	0	59	0	344457216	55	5960
2026-01-13 02:51:42.76	284.08	21.45	-41.6	-44.6	18.9	6.01e-01	0	59	0	346554368	55	4922
2026-01-13 02:51:43.77	283.79	21.40	-42.1	-45.5	18.1	6.04e-01	0	59	0	348651520	55	5439
2026-01-13 02:51:44.78	283.50	21.34	-42.4	-46.1	17.5	6.02e-01	0	59	0	350224384	55	5799
2026-01-13 02:51:45.79	283.21	21.28	-41.6	-44.7	18.9	6.03e-01	0	59	0	352321536	55	4946
2026-01-13 02:51:46.80	282.92	21.22	-42.0	-45.4	18.2	6.03e-01	0	59	0	353894400	55	5393
2026-01-13 02:51:47.81	282.64	21.16	-42.0	-45.5	18.1	6.04e-01	0	60	0	355991552	55	5403
2026-01-13 02:51:48.82	282.35	21.10	-41.7	-44.7	18.9	6.02e-01	0	59	0	358088704	55	4982
2026-01-13 02:51:49.83	282.07	21.04	-42.0	-45.4	18.2	6.04e-01	0	59	0	359661568	55	5345
2026-01-13 02:51:50.84	281.79	20.98	-42.0	-45.4	18.2	6.04e-01	0	59	0	361758720	55	5352
2026-01-13 02:51:51.85	281.50	20.92	-41.9	-45.2	18.3	6.05e-01	0	59	0	363331584	55	5250
2026-01-13 02:51:52.86	281.22	20.86	-42.3	-45.9	17.7	6.02e-01	0	59	0	365428736	55	5666
2026-01-13 02:51:53.87	280.94	20.80	-42.1	-45.5	18.0	6.03e-01	0	59	0	367525888	55	5447
2026-01-13 02:51:54.88	280.67	20.74	-41.7	-44.8	18.8	6.04e-01	0	60	0	369098752	55	4996
2026-01-13 02:51:55.89	280.39	20.67	-41.9	-45.1	18.5	6.04e-01	0	59	0	371195904	55	5203
2026-01-13 02:51:56.90	280.11	20.61	-42.1	-45.5	18.0	6.03e-01	0	59	0	372768768	55	5457
2026-01-13 02:51:57.90	279.84	20.55	-41.8	-45.0	18.5	6.04e-01	0	60	0	374865920	55	5147
2026-01-13 02:51:58.91	279.57	20.48	-41.7	-44.9	18.7	6.02e-01	0	59	0	376963072	55	5072
2026-01-13 02:51:59.93	279.29	20.42	-42.1	-45.6	18.0	6.03e-01	0	59	0	378535936	55	5495
2026-01-13 02:52:00.94	279.02	20.35	-42.2	-45.7	17.8	6.02e-01	0	60	0	380633088	55	5558
2026-01-13 02:52:01.95	278.75	20.28	-42.0	-45.3	18.2	6.06e-01	0	60	0	382730240	55	5325
2026-01-13 02:52:02.96	278.48	20.22	-41.9	-45.2	18.3	6.04e-01	0	60	0	384303104	55	5257
2026-01-13 02:52:03.97	278.22	20.15	-42.1	-45.6	18.0	6.02e-01	0	59	0	386400256	55	5469
2026-01-13 02:52:04.98	277.95	20.08	-42.2	-45.7	17.8	6.03e-01	0	59	0	387973120	55	5585
2026-01-13 02:52:05.99	277.68	20.02	-42.1	-45.5	17.9	6.04e-01	0	59	0	390070272	55	5432
2026-01-13 02:52:07.00	277.42	19.95	-42.1	-45.5	18.0	6.03e-01	0	59	0	392167424	55	5439
2026-01-13 02:52:08.01	277.16	19.88	-42.1	-45.5	18.0	6.02e-01	0	60	0	393740288	55	5449
2026-01-13 02:52:09.02	276.90	19.81	-42.0	-45.4	18.1	6.02e-01	0	59	0	395837440	55	5364
2026-01-13 02:52:10.02	276.64	19.74	-42.0	-45.4	18.2	6.06e-01	0	60	0	397410304	55	5347
2026-01-13 02:52:11.03	276.38	19.67	-41.9	-45.2	18.3	6.04e-01	0	59	0	399507456	55	5257
2026-01-13 02:52:12.04	276.12	19.60	-41.8	-45.1	18.4	6.01e-01	0	59	0	401604608	55	5207
2026-01-13 02:52:13.05	275.87	19.53	-41.8	-45.0	18.6	6.01e-01	0	59	0	403177472	55	5121
2026-01-13 02:52:14.06	275.61	19.46	-41.9	-45.2	18.3	6.03e-01	0	59	0	405274624	55	5243
2026-01-13 02:52:15.07	275.36	19.39	-41.8	-45.0	18.5	6.04e-01	0	60	0	407371776	55	5156
2026-01-13 02:52:16.08	275.11	19.32	-41.9	-45.2	18.4	6.02e-01	0	59	0	408944640	55	5222
2026-01-13 02:52:17.09	274.86	19.25	-41.8	-45.1	18.5	6.03e-01	0	60	0	411041792	55	5177
2026-01-13 02:52:18.10	274.61	19.17	-41.8	-45.0	18.5	6.02e-01	0	60	0	412614656	55	5151
2026-01-13 02:52:19.11	274.36	19.10	-41.7	-44.9	18.6	6.04e-01	0	59	0	414711808	55	5090
2026-01-13 02:52:20.12	274.11	19.03	-41.7	-44.9	18.6	6.02e-01	0	60	0	416808960	55	5089
2026-01-13 02:52:21.13	273.86	18.96	-41.8	-45.0	18.5	6.03e-01	0	60	0	418381824	55	5134
2026-01-13 02:52:22.14	273.62	18.88	-41.7	-44.9	18.5	6.04e-01	0	60	0	420478976	55	5097
2026-01-13 02:52:23.15	273.38	18.81	-41.7	-44.9	18.6	6.04e-01	0	59	0	422051840	55	5079
2026-01-13 02:52:24.15	273.14	18.74	-41.7	-45.0	18.5	6.03e-01	0	59	0	424148992	55	5112
2026-01-13 02:52:25.16	272.89	18.66	-41.7	-45.0	18.5	6.03e-01	0	59	0	425721856	55	5116
2026-01-13 02:52:26.17	272.65	18.59	-41.7	-45.0	18.6	6.03e-01	0	59	0	427819008	55	5102
2026-01-13 02:52:27.18	272.42	18.51	-41.7	-44.8	18.6	6.03e-01	0	60	0	429916160	55	5041
2026-01-13 02:52:28.19	272.18	18.44	-41.7	-44.9	18.6	6.03e-01	0	60	0	431489024	55	5055
2026-01-13 02:52:29.20	271.94	18.36	-41.7	-44.9	18.6	6.05e-01	0	59	0	433586176	55	5059
2026-01-13 02:52:30.21	271.71	18.29	-41.7	-44.9	18.6	6.02e-01	0	60	0	435683328	55	5048
2026-01-13 02:52:31.22	271.47	18.21	-41.7	-44.9	18.6	6.02e-01	0	59	0	437256192	55	5070
2026-01-13 02:52:32.23	271.24	18.14	-41.8	-45.1	18.4	6.06e-01	0	59	0	439353344	55	5182
2026-01-13 02:52:33.24	271.01	18.06	-41.8	-45.2	18.3	6.02e-01	0	59	0	440926208	55	5223
2026-01-13 02:52:34.25	270.78	17.98	-41.7	-45.0	18.5	6.03e-01	0	60	0	443023360	55	5120
2026-01-13 02:52:35.26	270.55	17.91	-41.6	-44.8	18.7	6.02e-01	0	59	0	445120512	55	5011
2026-01-13 02:52:36.27	270.32	17.83	-41.7	-44.9	18.6	6.03e-01	0	60	0	446693376	55	5067
2026-01-13 02:52:37.28	270.10	17.75	-41.7	-44.9	18.5	6.02e-01	0	59	0	448790528	55	5083
2026-01-13 02:52:38.29	269.87	17.68	-41.7	-45.0	18.5	6.00e-01	0	60	0	450887680	55	5105
2026-01-13 02:52:39.30	269.65	17.60	-41.7	-44.9	18.5	6.01e-01	0	59	0	452460544	55	5079
2026-01-13 02:52:40.31	269.43	17.52	-41.7	-44.9	18.5	6.04e-01	0	60	0	454557696	55	5089
2026-01-13 02:52:41.32	269.20	17.45	-41.7	-44.9	18.6	6.02e-01	0	59	0	456130560	55	5073
2026-01-13 02:52:42.33	268.98	17.37	-41.8	-45.1	18.4	6.04e-01	0	60	0	458227712	55	5161
2026-01-13 02:52:43.34	268.76	17.29	-41.8	-45.1	18.3	6.03e-01	0	59	0	460324864	55	5191
2026-01-13 02:52:44.35	268.55	17.21	-41.8	-45.0	18.4	6.04e-01	0	60	0	461897728	55	5159
2026-01-13 02:52:45.36	268.33	17.14	-41.7	-44.9	18.5	6.04e-01	0	60	0	463994880	55	5091
2026-01-13 02:52:46.37	268.11	17.06	-41.7	-44.9	18.5	6.03e-01	0	60	0	465567744	55	5064
2026-01-13 02:52:47.38	267.90	16.98	-41.7	-45.0	18.5	6.03e-01	0	59	0	467664896	55	5104
2026-01-13 02:52:48.39	267.69	16.90	-41.7	-44.9	18.5	6.03e-01	0	60	0	469762048	55	5091
2026-01-13 02:52:49.40	267.48	16.82	-41.7	-44.9	18.5	6.00e-01	0	60	0	471334912	55	5091
2026-01-13 02:52:50.41	267.26	16.74	-41.6	-44.8	18.7	6.03e-01	0	60	0	473432064	55	4985
2026-01-13 02:52:51.42	267.06	16.67	-41.6	-44.8	18.6	6.01e-01	0	60	0	475529216	55	5022
2026-01-13 02:52:52.43	266.85	16.59	-41.7	-44.9	18.5	6.04e-01	0	60	0	477102080	55	5097
2026-01-13 02:52:53.44	266.64	16.51	-41.7	-45.0	18.4	6.03e-01	0	59	0	479199232	55	5114
2026-01-13 02:52:54.45	266.43	16.43	-41.7	-45.0	18.5	6.03e-01	0	60	0	480772096	55	5106
2026-01-13 02:52:55.46	266.23	16.35	-41.7	-44.9	18.5	6.04e-01	0	60	0	482869248	55	5088
2026-01-13 02:52:56.47	266.03	16.27	-41.6	-44.9	18.5	6.02e-01	0	60	0	484966400	55	5061
2026-01-13 02:52:57.48	265.82	16.19	-41.7	-44.9	18.5	6.03e-01	0	60	0	486539264	55	5088
2026-01-13 02:52:58.49	265.62	16.11	-41.7	-45.0	18.4	6.04e-01	0	60	0	488636416	55	5121
2026-01-13 02:52:59.50	265.42	16.03	-41.8	-45.1	18.3	6.01e-01	0	60	0	490209280	55	5168
2026-01-13 02:53:00.51	265.22	15.96	-41.7	-45.0	18.4	6.04e-01	0	60	0	492306432	55	5109
2026-01-13 02:53:01.52	265.02	15.88	-41.6	-44.8	18.5	6.05e-01	0	59	0	494403584	55	5033
2026-01-13 02:53:02.53	264.83	15.80	-41.6	-44.9	18.5	6.02e-01	0	60	0	495976448	55	5062
2026-01-13 02:53:03.54	264.63	15.72	-41.7	-45.0	18.3	6.03e-01	0	60	0	498073600	55	5154
2026-01-13 02:53:04.55	264.44	15.64	-41.7	-45.1	18.3	6.04e-01	0	60	0	499646464	55	5170
2026-01-13 02:53:05.56	264.24	15.56	-41.7	-45.0	18.4	6.02e-01	0	60	0	501743616	55	5123
2026-01-13 02:53:06.57	264.05	15.48	-41.6	-44.8	18.5	6.02e-01	0	59	0	503840768	55	5033
2026-01-13 02:53:07.58	263.86	15.40	-41.6	-44.9	18.5	6.01e-01	0	60	0	505413632	55	5066
2026-01-13 02:53:08.59	263.67	15.32	-41.6	-44.9	18.5	6.04e-01	0	60	0	507510784	55	5070
2026-01-13 02:53:09.60	263.48	15.24	-41.7	-45.0	18.3	6.04e-01	0	60	0	509083648	55	5142
2026-01-13 02:53:10.61	263.29	15.16	-41.7	-45.1	18.2	6.03e-01	0	60	0	511180800	55	5185
2026-01-13 02:53:11.62	263.10	15.08	-41.7	-45.0	18.4	6.02e-01	0	60	0	513277952	55	5111
2026-01-13 02:53:12.62	262.92	15.00	-41.6	-44.9	18.4	6.02e-01	0	60	0	514850816	55	5077
2026-01-13 02:53:13.63	262.73	14.92	-41.6	-44.9	18.4	6.03e-01	0	59	0	516947968	55	5068
2026-01-13 02:53:14.64	262.55	14.84	-41.7	-45.0	18.4	6.02e-01	0	60	0	519045120	55	5103
2026-01-13 02:53:15.65	262.37	14.76	-41.7	-45.1	18.2	6.03e-01	0	60	0	520617984	55	5193
2026-01-13 02:53:16.66	262.19	14.69	-41.8	-45.3	18.1	6.02e-01	0	60	0	522715136	55	5280
2026-01-13 02:53:17.67	262.01	14.61	-41.8	-45.1	18.2	6.03e-01	0	60	0	524288000	55	5197
2026-01-13 02:53:18.68	261.83	14.53	-41.7	-45.0	18.3	5.99e-01	0	60	0	526385152	55	5121
2026-01-13 02:53:19.69	261.65	14.45	-41.6	-44.9	18.4	6.03e-01	0	60	0	528482304	55	5074
2026-01-13 02:53:20.70	261.47	14.37	-41.6	-44.9	18.4	6.04e-01	0	60	0	530055168	55	5073
2026-01-13 02:53:21.71	261.29	14.29	-41.6	-45.0	18.4	6.04e-01	0	60	0	532152320	55	5103
2026-01-13 02:53:22.72	261.12	14.21	-41.7	-45.1	18.2	6.03e-01	0	60	0	533725184	55	5209
2026-01-13 02:53:23.73	260.94	14.13	-41.8	-45.2	18.1	6.01e-01	0	60	0	535822336	55	5262
2026-01-13 02:53:24.74	260.77	14.05	-41.8	-45.2	18.1	6.03e-01	0	60	0	537919488	55	5245
2026-01-13 02:53:25.75	260.60	13.97	-41.7	-45.1	18.2	6.02e-01	0	60	0	539492352	55	5161
2026-01-13 02:53:26.76	260.42	13.89	-41.7	-45.0	18.2	6.03e-01	0	60	0	541589504	55	5151
2026-01-13 02:53:27.77	260.25	13.81	-41.7	-45.0	18.2	6.03e-01	0	60	0	543686656	55	5141
2026-01-13 02:53:28.78	260.08	13.73	-41.7	-45.1	18.2	6.03e-01	0	60	0	545259520	55	5164
2026-01-13 02:53:29.79	259.92	13.65	-41.7	-45.1	18.2	6.02e-01	0	60	0	547356672	55	5172
2026-01-13 02:53:30.79	259.75	13.58	-41.7	-45.1	18.2	6.04e-01	0	60	0	548929536	55	5172
2026-01-13 02:53:31.80	259.58	13.50	-41.7	-45.1	18.1	6.04e-01	0	60	0	551026688	55	5209
2026-01-13 02:53:32.81	259.42	13.42	-41.8	-45.2	18.1	6.05e-01	0	60	0	552599552	55	5235
2026-01-13 02:53:33.82	259.25	13.34	-41.8	-45.2	18.1	6.04e-01	0	60	0	554696704	55	5251
2026-01-13 02:53:34.83	259.09	13.26	-41.8	-45.2	18.0	6.03e-01	0	60	0	556793856	55	5254
2026-01-13 02:53:35.84	258.93	13.18	-41.8	-45.2	18.1	6.03e-01	0	60	0	558366720	55	5230
2026-01-13 02:53:36.85	258.76	13.10	-41.7	-45.1	18.1	6.01e-01	0	60	0	560463872	55	5212
2026-01-13 02:53:37.86	258.60	13.03	-41.8	-45.2	18.0	6.03e-01	0	60	0	562036736	55	5248
2026-01-13 02:53:38.87	258.44	12.95	-41.8	-45.3	17.9	6.03e-01	0	60	0	564133888	55	5313
2026-01-13 02:53:39.88	258.28	12.87	-41.8	-45.4	17.9	6.02e-01	0	60	0	566231040	55	5348
2026-01-13 02:53:40.89	258.12	12.79	-41.9	-45.5	17.7	6.01e-01	0	60	0	567803904	55	5417
2026-01-13 02:53:41.90	257.97	12.71	-41.9	-45.4	17.8	6.05e-01	0	60	0	569901056	55	5386
2026-01-13 02:53:42.91	257.81	12.63	-41.8	-45.3	17.9	6.04e-01	0	60	0	571998208	55	5335
2026-01-13 02:53:43.92	257.66	12.56	-41.8	-45.2	18.0	6.00e-01	0	60	0	573571072	55	5258
2026-01-13 02:53:44.93	257.50	12.48	-41.8	-45.2	17.9	6.03e-01	0	60	0	575668224	55	5275
2026-01-13 02:53:45.94	257.35	12.40	-41.9	-45.4	17.8	6.03e-01	0	60	0	577241088	55	5377
2026-01-13 02:53:46.95	257.19	12.32	-41.9	-45.5	17.7	6.03e-01	0	60	0	579338240	55	5422
2026-01-13 02:53:47.96	257.04	12.24	-41.9	-45.5	17.7	6.03e-01	0	60	0	581435392	55	5405
2026-01-13 02:53:48.97	256.89	12.17	-41.9	-45.4	17.7	6.04e-01	0	60	0	583008256	55	5399
2026-01-13 02:53:49.98	256.74	12.09	-41.9	-45.4	17.7	6.04e-01	0	60	0	585105408	55	5383
2026-01-13 02:53:50.99	256.59	12.01	-41.8	-45.4	17.7	6.03e-01	0	60	0	586678272	55	5371
2026-01-13 02:53:52.00	256.44	11.93	-41.8	-45.2	17.9	6.03e-01	0	60	0	588775424	55	5277
2026-01-13 02:53:53.01	256.29	11.86	-41.8	-45.3	17.9	6.03e-01	0	60	0	590872576	55	5286
2026-01-13 02:53:54.02	256.15	11.78	-41.8	-45.4	17.8	6.00e-01	0	60	0	592445440	55	5341
2026-01-13 02:53:55.03	256.00	11.70	-41.9	-45.5	17.7	6.01e-01	0	60	0	594542592	55	5404
2026-01-13 02:53:56.03	255.86	11.63	-41.8	-45.4	17.7	6.03e-01	0	60	0	596639744	55	5387
2026-01-13 02:53:57.04	255.71	11.55	-41.9	-45.5	17.7	6.04e-01	0	60	0	598212608	55	5427
2026-01-13 02:53:58.05	255.57	11.47	-41.9	-45.6	17.6	6.03e-01	0	60	0	600309760	55	5477
2026-01-13 02:53:59.06	255.43	11.40	-41.9	-45.6	17.5	6.04e-01	0	60	0	601882624	55	5475
2026-01-13 02:54:00.07	255.28	11.32	-41.9	-45.5	17.7	6.05e-01	0	60	0	603979776	55	5408
2026-01-13 02:54:01.08	255.14	11.24	-41.9	-45.5	17.6	6.02e-01	0	60	0	606076928	55	5460
2026-01-13 02:54:02.09	255.00	11.17	-41.8	-45.4	17.7	6.01e-01	0	60	0	607649792	55	5399
2026-01-13 02:54:03.10	254.86	11.09	-41.9	-45.5	17.6	6.02e-01	0	60	0	609746944	55	5462
2026-01-13 02:54:04.11	254.73	11.01	-41.9	-45.6	17.5	6.02e-01	0	60	0	611319808	55	5490
2026-01-13 02:54:05.12	254.59	10.94	-42.0	-45.7	17.4	6.03e-01	0	60	0	613416960	55	5561
2026-01-13 02:54:06.13	254.45	10.86	-42.0	-45.7	17.4	6.02e-01	0	60	0	615514112	55	5574
2026-01-13 02:54:07.14	254.31	10.79	-42.0	-45.8	17.3	6.04e-01	0	60	0	617086976	55	5617
2026-01-13 02:54:08.15	254.18	10.71	-42.0	-45.8	17.3	6.04e-01	0	60	0	619184128	55	5607
2026-01-13 02:54:09.16	254.04	10.63	-42.0	-45.8	17.3	6.04e-01	0	60	0	620756992	55	5605
2026-01-13 02:54:10.17	253.91	10.56	-42.1	-45.9	17.1	6.03e-01	0	60	0	622854144	55	5708
2026-01-13 02:54:11.18	253.78	10.48	-42.0	-45.7	17.4	6.03e-01	0	60	0	624951296	55	5569
2026-01-13 02:54:12.19	253.64	10.41	-42.0	-45.7	17.3	6.05e-01	0	60	0	626524160	55	5576
2026-01-13 02:54:13.20	253.51	10.33	-42.0	-45.7	17.4	6.02e-01	0	60	0	628621312	55	5547
2026-01-13 02:54:14.21	253.38	10.26	-41.9	-45.7	17.4	6.03e-01	0	60	0	630194176	55	5539
2026-01-13 02:54:15.22	253.25	10.18	-42.1	-45.9	17.2	6.03e-01	0	60	0	632291328	55	5682
2026-01-13 02:54:16.23	253.12	10.11	-42.1	-45.9	17.1	6.04e-01	0	60	0	634388480	55	5721
2026-01-13 02:54:17.24	252.99	10.03	-42.1	-46.0	17.1	6.01e-01	0	60	0	635961344	55	5766
2026-01-13 02:54:18.25	252.86	9.96	-42.1	-46.0	17.1	6.04e-01	0	60	0	638058496	55	5754
2026-01-13 02:54:19.26	252.74	9.88	-42.1	-46.0	17.1	6.03e-01	0	60	0	640155648	55	5727
2026-01-13 02:54:20.27	252.61	9.81	-42.1	-45.9	17.1	6.03e-01	0	60	0	641728512	55	5707
2026-01-13 02:54:21.27	252.48	9.74	-42.0	-45.8	17.1	6.04e-01	0	60	0	643825664	55	5655
2026-01-13 02:54:22.28	252.36	9.66	-42.0	-45.7	17.3	6.05e-01	0	60	0	645398528	55	5565
2026-01-13 02:54:23.29	252.23	9.59	-41.9	-45.7	17.3	6.03e-01	0	60	0	647495680	55	5549
2026-01-13 02:54:24.31	252.11	9.51	-42.1	-46.0	17.0	6.03e-01	0	60	0	649592832	55	5777
2026-01-13 02:54:25.32	251.99	9.44	-42.1	-45.9	17.1	6.02e-01	0	60	0	651165696	55	5703
2026-01-13 02:54:26.33	251.86	9.37	-42.1	-45.9	17.1	6.05e-01	0	60	0	653262848	55	5713
2026-01-13 02:54:27.34	251.74	9.29	-42.1	-46.1	16.9	6.01e-01	0	60	0	654835712	55	5813
2026-01-13 02:54:28.35	251.62	9.22	-42.2	-46.2	16.8	6.01e-01	0	59	0	656932864	55	5901
2026-01-13 02:54:29.36	251.50	9.15	-42.3	-46.4	16.6	6.03e-01	0	60	0	659030016	55	6027
2026-01-13 02:54:30.37	251.38	9.07	-42.1	-46.1	16.8	6.01e-01	0	60	0	660602880	55	5839
2026-01-13 02:54:31.38	251.26	9.00	-42.2	-46.2	16.7	6.04e-01	0	60	0	662700032	55	5916
2026-01-13 02:54:32.38	251.14	8.93	-42.3	-46.4	16.5	6.05e-01	0	60	0	664797184	55	6061
2026-01-13 02:54:33.39	251.02	8.86	-42.1	-46.0	16.9	6.02e-01	0	60	0	666370048	55	5774
2026-01-13 02:54:34.40	250.91	8.78	-42.1	-46.0	16.9	6.04e-01	0	60	0	668467200	55	5762
2026-01-13 02:54:35.41	250.79	8.71	-42.2	-46.3	16.7	6.03e-01	0	60	0	670040064	55	5935
2026-01-13 02:54:36.42	250.67	8.64	-42.2	-46.2	16.7	6.04e-01	0	60	0	672137216	55	5872
2026-01-13 02:54:37.43	250.56	8.57	-42.0	-46.0	17.0	6.03e-01	0	60	0	674234368	55	5723
2026-01-13 02:54:38.44	250.44	8.49	-42.1	-46.1	16.9	6.03e-01	0	60	0	675807232	55	5805
2026-01-13 02:54:39.45	250.33	8.42	-42.2	-46.4	16.5	6.02e-01	0	60	0	677904384	55	6013
2026-01-13 02:54:40.46	250.22	8.35	-42.2	-46.3	16.5	6.02e-01	0	60	0	679477248	55	5991
2026-01-13 02:54:41.47	250.10	8.28	-42.3	-46.4	16.5	6.03e-01	0	60	0	681574400	55	6051
2026-01-13 02:54:42.48	249.99	8.21	-42.3	-46.5	16.4	6.03e-01	0	60	0	683671552	55	6063
2026-01-13 02:54:43.49	249.88	8.14	-42.3	-46.7	16.2	6.04e-01	0	60	0	685244416	55	6204
2026-01-13 02:54:44.50	249.77	8.06	-42.3	-46.5	16.3	6.03e-01	0	60	0	687341568	55	6082
2026-01-13 02:54:45.51	249.66	7.99	-42.8	-47.5	16.0	6.02e-01	0	60	0	688914432	55	6844
2026-01-13 02:54:46.52	249.55	7.92	-45.3	-63.9	3.8	7.45e-01	0	60	104	689963008	61	32018
2026-01-13 02:54:47.53	249.44	7.85	-45.6	-64.3	3.8	7.49e-01	0	60	104	689963008	61	33496
2026-01-13 02:54:48.54	249.33	7.78	-45.8	-64.4	3.8	7.45e-01	0	60	104	689963008	62	31902
2026-01-13 02:54:49.55	249.22	7.71	-46.0	-64.6	3.8	7.45e-01	0	60	104	689963008	62	32886
2026-01-13 02:54:50.56	249.11	7.64	-46.0	-64.7	3.8	7.41e-01	0	60	104	689963008	62	33224
2026-01-13 02:54:51.57	249.01	7.57	-46.1	-64.8	3.8	7.48e-01	0	60	104	689963008	62	33616
2026-01-13 02:54:52.58	248.90	7.50	-46.1	-64.9	3.8	7.47e-01	0	60	104	689963008	62	33817
2026-01-13 02:54:53.59	248.79	7.43	-46.2	-64.9	3.8	7.47e-01	0	60	104	689963008	62	33959
2026-01-13 02:54:54.60	248.69	7.36	-46.2	-65.0	3.8	7.46e-01	0	60	104	689963008	62	34091
2026-01-13 02:54:55.61	248.58	7.29	-46.2	-64.9	3.8	7.43e-01	0	60	104	689963008	62	33905
2026-01-13 02:54:56.62	248.48	7.22	-46.1	-64.9	3.8	7.46e-01	0	60	104	689963008	62	33861
2026-01-13 02:54:57.62	248.38	7.15	-46.1	-64.9	3.8	7.43e-01	0	60	104	689963008	62	33763
2026-01-13 02:54:58.63	248.27	7.08	-46.1	-64.9	3.8	7.43e-01	0	60	104	689963008	62	33735
2026-01-13 02:54:59.64	248.17	7.01	-46.1	-64.8	3.8	7.45e-01	0	60	104	689963008	62	33657
2026-01-13 02:55:00.65	248.07	6.94	-46.1	-64.9	3.8	7.45e-01	0	60	104	689963008	62	33701
2026-01-13 02:55:01.66	247.97	6.87	-46.1	-64.9	3.8	7.43e-01	0	60	104	689963008	62	33769
2026-01-13 02:55:02.67	247.87	6.80	-46.1	-64.8	3.8	7.48e-01	0	60	104	689963008	62	33539
2026-01-13 02:55:03.68	247.77	6.73	-46.1	-64.8	3.8	7.43e-01	0	60	104	689963008	62	33538
2026-01-13 02:55:04.69	247.67	6.67	-46.1	-64.8	3.8	7.48e-01	0	60	104	689963008	62	33496
2026-01-13 02:55:05.70	247.57	6.60	-46.1	-64.8	3.8	7.47e-01	0	60	104	689963008	62	33500
2026-01-13 02:55:06.71	247.47	6.53	-46.0	-64.8	3.8	7.44e-01	0	60	104	689963008	62	33469
2026-01-13 02:55:07.72	247.37	6.46	-46.1	-64.8	3.8	7.44e-01	0	60	104	689963008	62	33562
2026-01-13 02:55:08.73	247.27	6.39	-46.0	-64.8	3.8	7.48e-01	0	60	104	689963008	62	33521
2026-01-13 02:55:09.74	247.18	6.32	-46.0	-64.8	3.8	7.46e-01	0	60	104	689963008	62	33533
2026-01-13 02:55:10.75	247.08	6.26	-46.0	-64.8	3.8	7.46e-01	0	60	104	689963008	62	33486
2026-01-13 02:55:11.76	246.98	6.19	-46.0	-64.8	3.8	7.45e-01	0	60	104	689963008	62	33534
2026-01-13 02:55:12.77	246.89	6.12	-46.0	-64.8	3.8	7.47e-01	0	60	104	689963008	62	33435
2026-01-13 02:55:13.78	246.79	6.05	-46.0	-64.8	3.8	7.44e-01	0	60	104	689963008	62	33425
2026-01-13 02:55:14.79	246.70	5.99	-46.0	-64.8	3.8	7.48e-01	0	60	104	689963008	62	33386
2026-01-13 02:55:15.80	246.60	5.92	-46.0	-64.8	3.8	7.47e-01	0	60	104	689963008	62	33393
2026-01-13 02:55:16.81	246.51	5.85	-46.0	-64.7	3.8	7.46e-01	0	60	104	689963008	62	33283
2026-01-13 02:55:17.82	246.42	5.78	-46.0	-64.8	3.8	7.46e-01	0	60	104	689963008	62	33342
2026-01-13 02:55:18.83	246.32	5.72	-46.0	-64.7	3.8	7.48e-01	0	60	104	689963008	62	33308
2026-01-13 02:55:19.84	246.23	5.65	-46.0	-64.7	3.8	7.46e-01	0	60	104	689963008	62	33308
2026-01-13 02:55:20.85	246.14	5.58	-46.0	-64.8	3.8	7.46e-01	0	60	104	689963008	62	33384
2026-01-13 02:55:21.87	246.05	5.52	-46.0	-64.8	3.8	7.45e-01	0	60	104	689963008	62	33357
2026-01-13 02:55:22.88	245.96	5.45	-46.0	-64.8	3.8	7.46e-01	0	60	104	689963008	62	33321
2026-01-13 02:55:23.89	245.87	5.38	-46.0	-64.8	3.8	7.46e-01	0	60	104	689963008	62	33319
2026-01-13 02:55:24.90	245.78	5.32	-46.0	-64.8	3.8	7.45e-01	0	60	104	689963008	62	33354
2026-01-13 02:55:25.91	245.69	5.25	-46.0	-64.8	3.8	7.45e-01	0	60	104	689963008	62	33313
2026-01-13 02:55:26.92	245.60	5.19	-46.0	-64.8	3.8	7.47e-01	0	60	104	689963008	62	33327
2026-01-13 02:55:27.93	245.51	5.12	-46.0	-64.8	3.8	7.45e-01	0	60	104	689963008	62	33324
2026-01-13 02:55:28.94	245.42	5.05	-46.0	-64.8	3.8	7.47e-01	0	60	104	689963008	62	33346
2026-01-13 02:55:29.95	245.33	4.99	-46.0	-64.7	3.8	7.45e-01	0	60	104	689963008	62	33286
2026-01-13 02:55:30.96	245.24	4.92	-46.0	-64.8	3.8	7.46e-01	0	60	104	689963008	62	33316
2026-01-13 02:55:31.97	245.16	4.86	-46.0	-64.7	3.8	7.41e-01	0	60	104	689963008	62	33271
2026-01-13 02:55:32.98	245.07	4.79	-46.0	-64.8	3.8	7.44e-01	0	60	104	689963008	62	33329
2026-01-13 02:55:33.99	244.99	4.73	-46.0	-64.7	3.8	7.46e-01	0	60	104	689963008	62	33283
2026-01-13 02:55:35.00	244.90	4.66	-46.0	-64.7	3.8	7.43e-01	0	60	104	689963008	62	33307
2026-01-13 02:55:36.01	244.81	4.60	-46.0	-64.8	3.8	7.44e-01	0	60	104	689963008	62	33333
2026-01-13 02:55:37.02	244.73	4.53	-46.0	-64.7	3.8	7.47e-01	0	60	104	689963008	62	33289
2026-01-13 02:55:38.03	244.65	4.47	-46.0	-64.7	3.8	7.46e-01	0	60	104	689963008	62	33257
2026-01-13 02:55:39.04	244.56	4.40	-46.0	-64.7	3.8	7.45e-01	0	60	104	689963008	62	33235
2026-01-13 02:55:40.05	244.48	4.34	-46.0	-64.8	3.8	7.45e-01	0	60	104	689963008	62	33325
2026-01-13 02:55:41.06	244.39	4.27	-46.0	-64.7	3.8	7.48e-01	0	60	104	689963008	62	33293
2026-01-13 02:55:42.07	244.31	4.21	-46.0	-64.7	3.8	7.45e-01	0	60	104	689963008	62	33281
2026-01-13 02:55:43.08	244.23	4.15	-46.0	-64.8	3.8	7.44e-01	0	60	104	689963008	62	33339
2026-01-13 02:55:44.09	244.15	4.08	-46.0	-64.7	3.8	7.46e-01	0	60	104	689963008	62	33210
2026-01-13 02:55:45.10	244.07	4.02	-46.0	-64.7	3.8	7.46e-01	0	60	104	689963008	62	33261
2026-01-13 02:55:46.11	243.99	3.95	-46.0	-64.7	3.8	7.45e-01	0	60	104	689963008	62	33201
2026-01-13 02:55:47.12	243.90	3.89	-46.0	-64.7	3.8	7.41e-01	0	60	104	689963008	62	33197
2026-01-13 02:55:48.13	243.82	3.83	-46.0	-64.7	3.8	7.42e-01	0	60	104	689963008	62	33210
2026-01-13 02:55:49.15	243.74	3.76	-46.0	-64.7	3.8	7.45e-01	0	60	104	689963008	62	33224
2026-01-13 02:55:50.15	243.66	3.70	-46.0	-64.7	3.8	7.43e-01	0	60	104	689963008	62	33229
2026-01-13 02:55:51.16	243.59	3.64	-46.0	-64.7	3.8	7.44e-01	0	60	104	689963008	62	33287
2026-01-13 02:55:52.17	243.51	3.57	-46.0	-64.7	3.8	7.47e-01	0	60	104	689963008	62	33240
2026-01-13 02:55:53.19	243.43	3.51	-46.0	-64.7	3.8	7.42e-01	0	60	104	689963008	62	33200
2026-01-13 02:55:54.20	243.35	3.45	-46.0	-64.7	3.8	7.47e-01	0	60	104	689963008	62	33197
2026-01-13 02:55:55.20	243.27	3.39	-46.0	-64.7	3.8	7.45e-01	0	60	104	689963008	62	33085
2026-01-13 02:55:56.22	243.19	3.32	-46.0	-64.7	3.8	7.46e-01	0	60	104	689963008	62	33179
2026-01-13 02:55:57.22	243.12	3.26	-46.0	-64.7	3.8	7.45e-01	0	60	104	689963008	62	33183
2026-01-13 02:55:58.24	243.04	3.20	-46.0	-64.7	3.8	7.46e-01	0	60	104	689963008	62	33160
2026-01-13 02:55:59.25	242.97	3.14	-46.0	-64.7	3.8	7.47e-01	0	60	104	689963008	62	33176
2026-01-13 02:56:00.26	242.89	3.07	-46.0	-64.7	3.8	7.45e-01	0	60	104	689963008	62	33197
2026-01-13 02:56:01.27	242.81	3.01	-46.0	-64.7	3.8	7.43e-01	0	60	104	689963008	62	33224
2026-01-13 02:56:02.28	242.74	2.95	-46.0	-64.7	3.8	7.42e-01	0	60	104	689963008	62	33130
2026-01-13 02:56:03.29	242.66	2.89	-46.0	-64.7	3.8	7.45e-01	0	60	104	689963008	62	33132
2026-01-13 02:56:04.30	242.59	2.83	-46.0	-64.7	3.8	7.44e-01	0	60	104	689963008	62	33219
2026-01-13 02:56:05.31	242.52	2.77	-46.0	-64.7	3.8	7.46e-01	0	60	104	689963008	62	33178
2026-01-13 02:56:06.32	242.44	2.70	-46.0	-64.7	3.8	7.46e-01	0	60	104	689963008	62	33199
2026-01-13 02:56:07.33	242.37	2.64	-46.0	-64.7	3.8	7.47e-01	0	60	104	689963008	62	33162
2026-01-13 02:56:08.34	242.30	2.58	-46.0	-64.7	3.8	7.46e-01	0	60	104	689963008	62	33226
2026-01-13 02:56:09.35	242.22	2.52	-46.0	-64.7	3.8	7.48e-01	0	60	104	689963008	62	33156
2026-01-13 02:56:10.36	242.15	2.46	-46.0	-64.7	3.8	7.42e-01	0	60	104	689963008	62	33209
2026-01-13 02:56:11.37	242.08	2.40	-46.0	-64.7	3.8	7.46e-01	0	60	104	689963008	62	33184
2026-01-13 02:56:12.38	242.01	2.34	-46.0	-64.7	3.8	7.46e-01	0	60	104	689963008	62	33248
2026-01-13 02:56:13.39	241.94	2.28	-46.0	-64.7	3.8	7.45e-01	0	60	104	689963008	62	33141
2026-01-13 02:56:14.40	241.87	2.22	-46.0	-64.7	3.8	7.47e-01	0	60	104	689963008	62	33118
2026-01-13 02:56:15.41	241.80	2.16	-46.0	-64.7	3.8	7.42e-01	0	60	104	689963008	62	33123
2026-01-13 02:56:16.42	241.72	2.10	-46.0	-64.7	3.8	7.47e-01	0	60	104	689963008	62	33178
2026-01-13 02:56:17.43	241.65	2.04	-46.0	-64.7	3.8	7.42e-01	0	60	104	689963008	62	33185

#Closed at: 2026-01-13 02:56:18
#Recorded file [689 MB]: D:/lorett/data/31039_260113_054454.dat