passes_logs/2026/01/13/R2.0S_Moscow/R2.0S_Moscow__20260113_075452_NOAA_21_JPSS-2_rec.log

#Pass ID: 20260113_075452_NOAA 21 (JPSS-2)
#Satellite: NOAA 21 (JPSS-2)
#Configuration: NOAA-21
#almurnet v.1.7.20251203
#Start time: 2026-01-13 07:54:51

#Version: 2.2.20231116
#Station: R2.0S_Moscow
#Location: 37.707566 lon 55.798166 lat
#TLE: 1 54234U 22150A   26012.26378519  .00000063  00000+0  50547-4 0  9993
#TLE: 2 54234  98.7495 313.1967 0000726 309.1075  51.0036 14.19534275164425

#Time	Az	El	Level	Level2	SNR	BER	BlckErr	Temp	State	Recorded	gain1	gain2
2026-01-13 07:54:51.99	101.50	1.98	-40.1	-52.6	3.8	1.49e+00	0	49	0	0	51	15439
2026-01-13 07:54:53.00	101.43	2.03	-40.2	-52.6	3.8	1.49e+00	0	49	104	0	51	15463
2026-01-13 07:54:54.01	101.35	2.08	-40.2	-52.6	3.8	1.49e+00	0	49	104	0	51	15483
2026-01-13 07:54:55.02	101.27	2.14	-40.1	-52.6	3.8	1.49e+00	0	49	104	0	51	15479
2026-01-13 07:54:56.03	101.19	2.19	-40.2	-52.6	3.8	1.49e+00	0	49	104	0	51	15491
2026-01-13 07:54:57.04	101.10	2.24	-40.2	-52.6	3.8	1.49e+00	0	49	104	0	51	15463
2026-01-13 07:54:58.05	101.02	2.30	-40.2	-52.6	3.8	1.49e+00	0	49	104	0	51	15410
2026-01-13 07:54:59.06	100.94	2.35	-40.2	-52.6	3.8	1.49e+00	0	50	104	0	51	15471
2026-01-13 07:55:00.07	100.86	2.40	-40.1	-52.6	3.8	1.49e+00	0	50	104	0	51	15432
2026-01-13 07:55:01.09	100.78	2.46	-40.2	-52.6	3.8	1.49e+00	0	50	104	0	51	15446
2026-01-13 07:55:02.10	100.70	2.51	-40.2	-52.6	3.8	1.49e+00	0	50	104	0	51	15459
2026-01-13 07:55:03.11	100.61	2.57	-40.2	-52.6	3.8	1.49e+00	0	50	104	0	51	15479
2026-01-13 07:55:04.12	100.53	2.62	-40.1	-52.6	3.8	1.49e+00	0	50	104	0	51	15445
2026-01-13 07:55:05.13	100.45	2.67	-40.2	-52.6	3.8	1.49e+00	0	50	104	0	51	15443
2026-01-13 07:55:06.14	100.36	2.73	-40.2	-52.6	3.8	1.49e+00	0	50	104	0	51	15466
2026-01-13 07:55:07.15	100.28	2.78	-40.2	-52.6	3.8	1.49e+00	0	50	104	0	51	15465
2026-01-13 07:55:08.16	100.20	2.83	-40.1	-52.6	3.8	1.49e+00	0	50	104	0	51	15428
2026-01-13 07:55:09.17	100.11	2.89	-40.2	-52.6	3.8	1.49e+00	0	50	104	0	51	15517
2026-01-13 07:55:10.18	100.03	2.94	-40.2	-52.6	3.8	1.49e+00	0	50	104	0	51	15433
2026-01-13 07:55:11.19	99.94	3.00	-40.2	-52.6	3.8	1.49e+00	0	50	104	0	51	15463
2026-01-13 07:55:12.20	99.86	3.05	-40.2	-52.6	3.8	1.49e+00	0	50	104	0	51	15432
2026-01-13 07:55:13.21	99.77	3.10	-40.2	-52.6	3.8	1.49e+00	0	50	104	0	51	15420
2026-01-13 07:55:14.22	99.69	3.16	-40.2	-52.6	3.8	1.49e+00	0	51	104	0	51	15520
2026-01-13 07:55:15.24	99.60	3.21	-40.2	-52.6	3.8	1.49e+00	0	51	104	0	51	15452
2026-01-13 07:55:16.25	99.51	3.27	-40.1	-52.6	3.8	1.49e+00	0	51	104	0	51	15509
2026-01-13 07:55:17.26	99.42	3.32	-40.2	-52.6	3.8	1.49e+00	0	51	104	0	51	15426
2026-01-13 07:55:18.27	99.34	3.38	-40.2	-52.6	3.8	1.49e+00	0	51	104	0	51	15426
2026-01-13 07:55:19.28	99.25	3.43	-40.2	-52.6	3.8	1.49e+00	0	51	104	0	51	15466
2026-01-13 07:55:20.29	99.16	3.48	-40.2	-52.6	3.8	1.49e+00	0	51	104	0	51	15447
2026-01-13 07:55:21.30	99.07	3.54	-40.1	-52.6	3.8	1.49e+00	0	51	104	0	51	15468
2026-01-13 07:55:22.31	98.99	3.59	-40.2	-52.6	3.8	1.49e+00	0	51	104	0	51	15424
2026-01-13 07:55:23.32	98.90	3.65	-40.1	-52.5	3.8	1.49e+00	0	51	104	0	51	15366
2026-01-13 07:55:24.33	98.81	3.70	-40.2	-52.6	3.8	1.49e+00	0	51	104	0	51	15474
2026-01-13 07:55:25.34	98.72	3.76	-40.2	-52.6	3.8	1.49e+00	0	51	104	0	51	15439
2026-01-13 07:55:26.35	98.63	3.81	-40.2	-52.6	3.8	1.49e+00	0	51	104	0	51	15468
2026-01-13 07:55:27.36	98.54	3.87	-40.2	-52.6	3.8	1.49e+00	0	51	104	0	51	15460
2026-01-13 07:55:28.37	98.45	3.92	-40.2	-52.6	3.8	1.49e+00	0	51	104	0	51	15498
2026-01-13 07:55:29.38	98.36	3.98	-40.2	-52.6	3.8	1.49e+00	0	51	104	0	51	15456
2026-01-13 07:55:30.39	98.26	4.03	-40.2	-52.6	3.8	1.49e+00	0	52	104	0	51	15431
2026-01-13 07:55:31.40	98.17	4.09	-40.2	-52.6	3.8	1.49e+00	0	52	104	0	51	15449
2026-01-13 07:55:32.41	98.08	4.14	-40.2	-52.6	3.8	1.49e+00	0	52	104	0	51	15458
2026-01-13 07:55:33.42	97.99	4.20	-40.2	-52.6	3.8	1.49e+00	0	52	104	0	51	15433
2026-01-13 07:55:34.43	97.89	4.25	-40.2	-52.6	3.8	1.49e+00	0	52	104	0	51	15425
2026-01-13 07:55:35.44	97.80	4.31	-40.1	-52.6	3.8	1.49e+00	0	52	104	0	51	15457
2026-01-13 07:55:36.45	97.71	4.36	-40.2	-52.6	3.8	1.49e+00	0	52	104	0	51	15431
2026-01-13 07:55:37.46	97.61	4.42	-40.1	-52.5	3.8	1.49e+00	0	52	104	0	51	15384
2026-01-13 07:55:38.47	97.52	4.47	-40.1	-52.6	3.8	1.49e+00	0	52	104	0	51	15430
2026-01-13 07:55:39.48	97.43	4.53	-40.2	-52.6	3.8	1.49e+00	0	52	104	0	51	15449
2026-01-13 07:55:40.49	97.33	4.58	-40.1	-52.6	3.8	1.49e+00	0	52	104	0	51	15446
2026-01-13 07:55:41.50	97.24	4.64	-40.2	-52.6	3.8	1.49e+00	0	52	104	0	51	15427
2026-01-13 07:55:42.51	97.14	4.69	-40.1	-52.6	3.8	1.49e+00	0	52	104	0	51	15460
2026-01-13 07:55:43.52	97.04	4.75	-40.1	-52.5	3.8	1.49e+00	0	52	104	0	51	15390
2026-01-13 07:55:44.53	96.95	4.80	-40.2	-52.6	3.8	1.49e+00	0	52	104	0	51	15467
2026-01-13 07:55:45.55	96.85	4.86	-40.1	-52.5	3.8	1.49e+00	0	52	104	0	51	15393
2026-01-13 07:55:46.56	96.75	4.92	-40.1	-52.5	3.8	1.49e+00	0	52	104	0	51	15379
2026-01-13 07:55:47.56	96.66	4.97	-40.1	-52.6	3.8	1.49e+00	0	53	104	0	51	15451
2026-01-13 07:55:48.57	96.56	5.03	-40.1	-52.6	3.8	1.49e+00	0	53	104	0	51	15451
2026-01-13 07:55:49.58	96.46	5.08	-40.1	-52.6	3.8	1.49e+00	0	53	104	0	51	15405
2026-01-13 07:55:50.60	96.36	5.14	-40.2	-52.6	3.8	1.49e+00	0	53	104	0	51	15416
2026-01-13 07:55:51.61	96.26	5.19	-40.1	-52.6	3.8	1.49e+00	0	53	104	0	51	15414
2026-01-13 07:55:52.62	96.16	5.25	-40.1	-52.6	3.8	1.49e+00	0	53	104	0	51	15405
2026-01-13 07:55:53.63	96.06	5.31	-40.1	-52.6	3.8	1.49e+00	0	53	104	0	51	15459
2026-01-13 07:55:54.64	95.96	5.36	-40.2	-52.6	3.8	1.49e+00	0	53	104	0	51	15436
2026-01-13 07:55:55.65	95.86	5.42	-40.1	-52.6	3.8	1.49e+00	0	53	104	0	51	15425
2026-01-13 07:55:56.66	95.76	5.47	-40.2	-52.6	3.8	1.49e+00	0	53	104	0	51	15421
2026-01-13 07:55:57.67	95.66	5.53	-40.1	-52.6	3.8	1.49e+00	0	53	104	0	51	15415
2026-01-13 07:55:58.68	95.56	5.59	-40.2	-52.5	3.8	1.49e+00	0	53	104	0	51	15396
2026-01-13 07:55:59.69	95.45	5.64	-40.1	-52.6	3.8	1.49e+00	0	53	104	0	51	15416
2026-01-13 07:56:00.70	95.35	5.70	-40.1	-52.5	3.8	1.49e+00	0	53	104	0	51	15396
2026-01-13 07:56:01.71	95.25	5.75	-40.1	-52.6	3.8	1.49e+00	0	53	104	0	51	15469
2026-01-13 07:56:02.73	95.14	5.81	-40.1	-52.6	3.8	1.49e+00	0	53	104	0	51	15425
2026-01-13 07:56:03.74	95.04	5.87	-40.1	-52.6	3.8	1.49e+00	0	53	104	0	51	15408
2026-01-13 07:56:04.75	94.94	5.92	-40.1	-52.5	3.8	1.49e+00	0	53	104	0	51	15396
2026-01-13 07:56:05.76	94.83	5.98	-40.1	-52.6	3.8	1.49e+00	0	53	104	0	51	15435
2026-01-13 07:56:06.77	94.73	6.03	-40.1	-52.6	3.8	1.49e+00	0	53	104	0	51	15431
2026-01-13 07:56:07.78	94.62	6.09	-40.1	-52.5	3.8	1.49e+00	0	54	104	0	51	15390
2026-01-13 07:56:08.79	94.51	6.15	-40.1	-52.6	3.8	1.49e+00	0	54	104	0	51	15427
2026-01-13 07:56:09.80	94.41	6.20	-40.1	-52.5	3.8	1.49e+00	0	54	104	0	51	15399
2026-01-13 07:56:10.81	94.30	6.26	-40.1	-52.5	3.8	1.49e+00	0	54	104	0	51	15358
2026-01-13 07:56:11.82	94.19	6.32	-40.1	-52.6	3.8	1.49e+00	0	53	104	0	51	15415
2026-01-13 07:56:12.84	94.09	6.37	-40.2	-52.6	3.8	1.49e+00	0	54	104	0	51	15424
2026-01-13 07:56:13.84	93.98	6.43	-40.1	-52.6	3.8	1.49e+00	0	54	104	0	51	15446
2026-01-13 07:56:14.85	93.87	6.49	-40.2	-52.6	3.8	1.49e+00	0	54	104	0	51	15446
2026-01-13 07:56:15.86	93.76	6.54	-40.1	-52.6	3.8	1.49e+00	0	54	104	0	51	15429
2026-01-13 07:56:16.87	93.65	6.60	-40.1	-52.6	3.8	1.49e+00	0	54	104	0	51	15427
2026-01-13 07:56:17.88	93.54	6.66	-40.2	-52.6	3.8	1.49e+00	0	54	104	0	51	15423
2026-01-13 07:56:18.90	93.43	6.71	-40.2	-52.6	3.8	1.49e+00	0	54	104	0	51	15408
2026-01-13 07:56:19.90	93.32	6.77	-40.1	-52.5	3.8	1.49e+00	0	54	104	0	51	15391
2026-01-13 07:56:20.92	93.21	6.83	-40.1	-52.5	3.8	1.49e+00	0	54	104	0	51	15392
2026-01-13 07:56:21.93	93.10	6.88	-40.1	-52.5	3.8	1.49e+00	0	54	104	0	51	15400
2026-01-13 07:56:22.94	92.99	6.94	-40.2	-52.6	3.8	1.49e+00	0	54	104	0	51	15414
2026-01-13 07:56:23.95	92.87	7.00	-40.1	-52.6	3.8	1.49e+00	0	54	104	0	51	15419
2026-01-13 07:56:24.96	92.76	7.05	-40.1	-52.5	3.8	1.49e+00	0	54	104	0	51	15398
2026-01-13 07:56:25.97	92.65	7.11	-40.1	-52.6	3.8	1.49e+00	0	54	104	0	51	15422
2026-01-13 07:56:26.98	92.53	7.17	-40.2	-52.5	3.8	1.49e+00	0	54	104	0	51	15389
2026-01-13 07:56:27.99	92.42	7.22	-40.2	-52.6	3.8	1.49e+00	0	54	104	0	51	15414
2026-01-13 07:56:29.00	92.30	7.28	-40.1	-52.5	3.8	1.49e+00	0	54	104	0	51	15329
2026-01-13 07:56:30.01	92.19	7.34	-40.1	-52.5	3.8	1.49e+00	0	54	104	0	51	15363
2026-01-13 07:56:31.02	92.07	7.39	-40.2	-52.6	3.8	1.49e+00	0	55	104	0	51	15418
2026-01-13 07:56:32.03	91.96	7.45	-40.2	-52.6	3.8	1.49e+00	0	54	104	0	51	15441
2026-01-13 07:56:33.04	91.84	7.51	-40.1	-52.6	3.8	1.49e+00	0	54	104	0	51	15421
2026-01-13 07:56:34.06	91.72	7.56	-40.1	-52.6	3.8	1.49e+00	0	54	104	0	51	15457
2026-01-13 07:56:35.07	91.60	7.62	-40.1	-52.6	3.8	1.49e+00	0	55	104	0	51	15411
2026-01-13 07:56:36.08	91.49	7.68	-40.2	-52.6	3.8	1.49e+00	0	54	104	0	51	15448
2026-01-13 07:56:37.09	91.37	7.74	-40.1	-52.5	3.8	1.49e+00	0	55	104	0	51	15400
2026-01-13 07:56:38.10	91.25	7.79	-40.1	-52.6	3.8	1.49e+00	0	55	104	0	51	15444
2026-01-13 07:56:39.11	91.13	7.85	-40.1	-52.5	3.8	1.49e+00	0	55	104	0	51	15267
2026-01-13 07:56:40.12	91.01	7.91	-40.1	-52.2	3.8	1.49e+00	0	55	104	0	51	14830
2026-01-13 07:56:41.13	90.89	7.96	-40.1	-52.0	3.8	1.49e+00	0	55	104	0	51	14381
2026-01-13 07:56:42.13	90.77	8.02	-40.1	-51.8	3.8	1.49e+00	0	55	104	0	51	14133
2026-01-13 07:56:43.15	90.65	8.08	-40.4	-52.6	3.8	1.49e+00	0	55	104	0	51	15525
2026-01-13 07:56:44.15	90.53	8.13	-40.3	-52.7	3.8	1.49e+00	0	55	104	0	51	15634
2026-01-13 07:56:45.16	90.41	8.19	-40.1	-52.3	3.8	1.49e+00	0	55	104	0	51	15051
2026-01-13 07:56:46.17	90.28	8.25	-40.0	-52.4	3.8	1.49e+00	0	55	104	0	51	15090
2026-01-13 07:56:47.18	90.16	8.30	-40.1	-52.4	3.8	1.49e+00	0	55	104	0	51	15113
2026-01-13 07:56:48.19	90.04	8.36	-40.2	-52.5	3.8	1.49e+00	0	55	104	0	51	15251
2026-01-13 07:56:49.20	89.91	8.42	-40.2	-52.5	3.8	1.49e+00	0	55	104	0	51	15263
2026-01-13 07:56:50.21	89.79	8.48	-40.2	-52.5	3.8	1.49e+00	0	55	104	0	51	15327
2026-01-13 07:56:51.22	89.66	8.53	-40.1	-52.6	3.8	1.49e+00	0	55	104	0	50	16453
2026-01-13 07:56:52.23	89.54	8.59	-40.0	-52.5	3.8	1.49e+00	0	55	104	0	50	16275
2026-01-13 07:56:53.24	89.41	8.65	-40.2	-52.8	3.8	1.49e+00	0	55	104	0	51	15846
2026-01-13 07:56:54.25	89.28	8.70	-39.1	-52.3	3.8	1.49e+00	0	55	104	0	50	15930
2026-01-13 07:56:55.25	89.16	8.76	-40.3	-52.7	3.8	1.49e+00	0	55	104	0	51	15638
2026-01-13 07:56:56.26	89.03	8.82	-39.8	-52.6	3.8	1.49e+00	0	55	104	0	51	15578
2026-01-13 07:56:57.27	88.90	8.87	-40.2	-52.7	3.8	1.49e+00	0	55	104	0	51	15654
2026-01-13 07:56:58.28	88.77	8.93	-38.8	-52.2	3.8	1.49e+00	0	55	104	0	49	16618
2026-01-13 07:56:59.29	88.64	8.99	-40.2	-52.8	3.8	1.49e+00	0	55	104	0	50	16701
2026-01-13 07:57:00.30	88.51	9.04	-38.5	-52.3	3.9	1.49e+00	0	55	104	0	49	16785
2026-01-13 07:57:01.31	88.38	9.10	-40.3	-52.9	3.8	1.49e+00	0	55	104	0	50	17019
2026-01-13 07:57:02.32	88.25	9.16	-38.6	-52.1	3.8	1.49e+00	0	55	104	0	49	16421
2026-01-13 07:57:03.33	88.12	9.22	-40.0	-52.7	3.8	1.49e+00	0	55	104	0	50	16582
2026-01-13 07:57:04.34	87.99	9.27	-39.8	-52.5	3.8	1.49e+00	0	55	104	0	50	16201
2026-01-13 07:57:05.35	87.86	9.33	-40.3	-52.7	3.8	1.49e+00	0	56	104	0	51	15697
2026-01-13 07:57:06.36	87.73	9.39	-40.3	-52.7	3.8	1.49e+00	0	55	104	0	51	15739
2026-01-13 07:57:07.37	87.59	9.44	-40.2	-52.7	3.8	1.49e+00	0	55	104	0	51	15693
2026-01-13 07:57:08.38	87.46	9.50	-40.4	-52.8	3.8	1.49e+00	0	56	104	0	51	15885
2026-01-13 07:57:09.39	87.32	9.56	-40.4	-52.9	3.8	1.49e+00	0	56	104	0	51	15972
2026-01-13 07:57:10.40	87.19	9.61	-39.8	-52.7	3.8	1.49e+00	0	55	104	0	49	17637
2026-01-13 07:57:11.42	87.05	9.67	-39.8	-52.6	3.9	1.49e+00	0	56	104	0	50	16459
2026-01-13 07:57:12.43	86.92	9.73	-39.5	-52.8	3.8	1.49e+00	0	56	104	0	51	15794
2026-01-13 07:57:13.44	86.78	9.78	-40.2	-52.8	3.8	1.49e+00	0	56	104	0	51	15787
2026-01-13 07:57:14.45	86.64	9.84	-39.9	-52.8	3.8	1.49e+00	0	56	104	0	51	15800
2026-01-13 07:57:15.46	86.51	9.90	-40.4	-52.9	3.8	1.49e+00	0	56	104	0	51	15971
2026-01-13 07:57:16.47	86.37	9.95	-40.2	-52.8	3.8	1.49e+00	0	56	104	0	51	15905
2026-01-13 07:57:17.47	86.23	10.01	-40.3	-52.8	3.8	1.49e+00	0	56	104	0	51	15911
2026-01-13 07:57:18.48	86.09	10.07	-40.1	-52.8	3.8	1.49e+00	0	56	104	0	51	15867
2026-01-13 07:57:19.49	85.95	10.12	-40.3	-52.8	3.7	1.49e+00	0	56	104	0	51	15870
2026-01-13 07:57:20.50	85.81	10.18	-40.4	-52.8	3.8	1.49e+00	0	56	104	0	51	15895
2026-01-13 07:57:21.51	85.67	10.24	-40.1	-52.7	3.8	1.49e+00	0	56	104	0	50	16546
2026-01-13 07:57:22.52	85.53	10.29	-40.3	-52.7	3.8	1.49e+00	0	56	104	0	51	15710
2026-01-13 07:57:23.53	85.39	10.35	-40.1	-52.7	3.8	1.49e+00	0	56	104	0	51	15664
2026-01-13 07:57:24.54	85.24	10.41	-40.3	-52.7	3.8	1.49e+00	0	56	104	0	51	15644
2026-01-13 07:57:25.55	85.10	10.46	-39.6	-52.7	3.8	1.49e+00	0	56	104	0	51	15614
2026-01-13 07:57:26.56	84.96	10.52	-40.2	-52.7	3.8	1.49e+00	0	56	104	0	51	15673
2026-01-13 07:57:27.57	84.81	10.57	-40.1	-52.7	3.8	1.49e+00	0	56	104	0	51	15688
2026-01-13 07:57:28.58	84.67	10.63	-40.1	-52.7	3.8	1.49e+00	0	56	104	0	51	15621
2026-01-13 07:57:29.59	84.52	10.69	-40.2	-52.6	3.8	1.49e+00	0	56	104	0	51	15512
2026-01-13 07:57:30.60	84.38	10.74	-40.2	-52.7	3.8	1.49e+00	0	56	104	0	51	15658
2026-01-13 07:57:31.61	84.23	10.80	-40.1	-52.7	3.8	1.49e+00	0	56	104	0	51	15663
2026-01-13 07:57:32.62	84.08	10.85	-40.3	-52.6	3.8	1.49e+00	0	56	104	0	51	15549
2026-01-13 07:57:33.63	83.94	10.91	-40.3	-52.8	3.8	1.49e+00	0	56	104	0	51	15763
2026-01-13 07:57:34.64	83.79	10.97	-39.9	-52.6	3.8	1.49e+00	0	56	104	0	51	15564
2026-01-13 07:57:35.64	83.64	11.02	-40.4	-52.8	3.8	1.49e+00	0	56	104	0	51	15768
2026-01-13 07:57:36.65	83.49	11.08	-40.3	-52.7	3.8	1.49e+00	0	56	104	0	51	15637
2026-01-13 07:57:37.66	83.34	11.13	-40.3	-52.7	3.8	1.49e+00	0	56	104	0	51	15658
2026-01-13 07:57:38.67	83.19	11.19	-40.4	-52.7	3.8	1.49e+00	0	56	104	0	51	15689
2026-01-13 07:57:39.68	83.04	11.24	-40.3	-52.7	3.8	1.49e+00	0	56	104	0	51	15717
2026-01-13 07:57:40.69	82.89	11.30	-40.3	-52.7	3.8	1.49e+00	0	56	104	0	51	15674
2026-01-13 07:57:41.70	82.74	11.35	-40.4	-52.8	3.8	1.49e+00	0	56	104	0	51	15943
2026-01-13 07:57:42.71	82.58	11.41	-40.3	-52.7	3.8	1.49e+00	0	56	104	0	51	15593
2026-01-13 07:57:43.72	82.43	11.47	-40.4	-52.8	3.8	1.49e+00	0	56	104	0	51	15885
2026-01-13 07:57:44.73	82.28	11.52	-40.2	-52.6	3.8	1.49e+00	0	56	104	0	51	15579
2026-01-13 07:57:45.74	82.12	11.58	-40.4	-52.8	3.8	1.49e+00	0	56	104	0	51	15770
2026-01-13 07:57:46.75	81.97	11.63	-40.3	-52.7	3.8	1.49e+00	0	56	104	0	51	15738
2026-01-13 07:57:47.76	81.81	11.69	-40.4	-52.8	3.8	1.49e+00	0	56	104	0	51	15869
2026-01-13 07:57:48.77	81.65	11.74	-40.3	-52.7	3.8	1.49e+00	0	56	104	0	51	15751
2026-01-13 07:57:49.78	81.50	11.80	-40.6	-53.0	3.8	1.49e+00	0	56	104	0	51	16166
2026-01-13 07:57:50.79	81.34	11.85	-40.3	-52.7	3.8	1.49e+00	0	56	104	0	51	15669
2026-01-13 07:57:51.80	81.18	11.90	-40.5	-53.0	3.8	1.49e+00	0	56	104	0	51	16156
2026-01-13 07:57:52.81	81.02	11.96	-40.3	-52.7	3.8	1.49e+00	0	57	104	0	51	15743
2026-01-13 07:57:53.81	80.87	12.01	-40.5	-52.9	3.8	1.49e+00	0	57	104	0	51	16092
2026-01-13 07:57:54.82	80.71	12.07	-40.4	-52.8	3.8	1.49e+00	0	57	104	0	51	15913
2026-01-13 07:57:55.83	80.55	12.12	-40.5	-53.0	3.8	1.49e+00	0	57	104	0	51	16165
2026-01-13 07:57:56.84	80.38	12.18	-40.4	-52.8	3.8	1.49e+00	0	56	104	0	51	15831
2026-01-13 07:57:57.85	80.22	12.23	-40.7	-53.1	3.8	1.49e+00	0	57	104	0	51	16436
2026-01-13 07:57:58.86	80.06	12.28	-40.5	-52.9	3.8	1.49e+00	0	57	104	0	51	15995
2026-01-13 07:57:59.87	79.90	12.34	-40.7	-53.1	3.8	1.49e+00	0	57	104	0	51	16458
2026-01-13 07:58:00.88	79.73	12.39	-40.5	-52.9	3.8	1.49e+00	0	56	104	0	51	15966
2026-01-13 07:58:01.89	79.57	12.44	-40.6	-53.0	3.8	1.49e+00	0	57	104	0	51	16253
2026-01-13 07:58:02.90	79.41	12.50	-40.5	-53.0	3.8	1.49e+00	0	57	104	0	51	16178
2026-01-13 07:58:03.91	79.24	12.55	-40.7	-53.1	3.8	1.49e+00	0	57	104	0	51	16407
2026-01-13 07:58:04.92	79.07	12.60	-40.5	-52.9	3.8	1.49e+00	0	57	104	0	52	15127
2026-01-13 07:58:05.92	78.91	12.66	-40.7	-53.2	3.8	1.49e+00	0	56	104	0	52	15601
2026-01-13 07:58:06.93	78.74	12.71	-40.5	-52.9	3.8	1.49e+00	0	57	104	0	52	15124
2026-01-13 07:58:07.94	78.57	12.76	-40.8	-53.2	3.8	1.49e+00	0	57	104	0	52	15732
2026-01-13 07:58:08.95	78.41	12.82	-40.5	-53.0	3.8	1.49e+00	0	57	104	0	52	15273
2026-01-13 07:58:09.96	78.24	12.87	-40.7	-53.1	3.8	1.49e+00	0	57	104	0	52	15510
2026-01-13 07:58:10.97	78.07	12.92	-40.6	-53.0	3.8	1.49e+00	0	57	104	0	52	15253
2026-01-13 07:58:11.98	77.90	12.97	-40.7	-53.2	3.8	1.49e+00	0	57	104	0	52	15615
2026-01-13 07:58:12.99	77.73	13.02	-40.7	-53.0	3.8	1.49e+00	0	57	104	0	52	15371
2026-01-13 07:58:14.00	77.56	13.08	-41.1	-53.3	3.8	1.49e+00	0	57	104	0	52	15873
2026-01-13 07:58:15.01	77.38	13.13	-40.7	-53.1	3.8	1.49e+00	0	57	104	0	52	15424
2026-01-13 07:58:16.02	77.21	13.18	-41.2	-53.3	3.8	1.49e+00	0	57	104	0	52	15925
2026-01-13 07:58:17.03	77.04	13.23	-40.8	-53.1	3.8	1.49e+00	0	57	104	0	52	15405
2026-01-13 07:58:18.04	76.86	13.28	-41.0	-53.2	3.8	1.49e+00	0	57	104	0	52	15617
2026-01-13 07:58:19.04	76.69	13.33	-40.7	-53.1	3.8	1.49e+00	0	57	104	0	52	15564
2026-01-13 07:58:20.05	76.52	13.39	-41.1	-53.3	3.8	1.49e+00	0	57	104	0	52	15806
2026-01-13 07:58:21.06	76.34	13.44	-40.8	-53.2	3.8	1.49e+00	0	57	104	0	52	15618
2026-01-13 07:58:22.07	76.17	13.49	-41.3	-53.5	3.8	1.49e+00	0	57	104	0	53	15233
2026-01-13 07:58:23.08	75.99	13.54	-40.9	-53.2	3.8	1.49e+00	0	57	104	0	53	14753
2026-01-13 07:58:24.09	75.81	13.59	-41.0	-53.1	3.8	1.49e+00	0	57	104	0	53	14656
2026-01-13 07:58:25.10	75.63	13.64	-41.0	-53.0	3.8	1.49e+00	0	57	104	0	53	14525
2026-01-13 07:58:26.11	75.45	13.69	-41.0	-53.1	3.8	1.49e+00	0	57	104	0	53	14541
2026-01-13 07:58:27.12	75.28	13.74	-41.0	-52.6	3.8	1.49e+00	0	57	104	0	53	13824
2026-01-13 07:58:28.13	75.10	13.79	-41.0	-53.3	3.8	1.49e+00	0	57	104	0	53	14900
2026-01-13 07:58:29.14	74.92	13.84	-41.1	-53.0	3.8	1.49e+00	0	57	104	0	53	14457
2026-01-13 07:58:30.15	74.73	13.89	-41.2	-53.5	3.8	1.49e+00	0	57	104	0	53	15293
2026-01-13 07:58:31.16	74.55	13.94	-41.0	-53.1	3.8	1.49e+00	0	57	104	0	53	14543
2026-01-13 07:58:32.17	74.37	13.99	-41.0	-51.8	3.8	1.49e+00	0	57	104	0	53	12542
2026-01-13 07:58:33.18	74.19	14.03	-40.9	-51.4	3.8	1.48e+00	0	57	104	0	53	11961
2026-01-13 07:58:34.19	74.00	14.08	-40.9	-51.3	3.9	1.49e+00	0	57	104	0	53	11886
2026-01-13 07:58:35.20	73.82	14.13	-41.0	-51.3	3.8	1.48e+00	0	57	104	0	53	11946
2026-01-13 07:58:36.21	73.64	14.18	-40.9	-51.5	3.9	1.49e+00	0	57	104	0	53	12122
2026-01-13 07:58:37.22	73.45	14.23	-41.1	-52.4	3.8	1.49e+00	0	57	104	0	53	13520
2026-01-13 07:58:38.23	73.26	14.28	-41.2	-52.9	3.8	1.49e+00	0	57	104	0	53	14238
2026-01-13 07:58:39.24	73.08	14.32	-40.9	-52.7	3.8	1.49e+00	0	57	104	0	53	13923
2026-01-13 07:58:40.25	72.89	14.37	-40.8	-50.1	4.1	1.48e+00	0	57	104	0	53	10394
2026-01-13 07:58:41.26	72.70	14.42	-40.6	-49.5	4.3	1.46e+00	0	57	104	0	53	9689
2026-01-13 07:58:42.27	72.51	14.47	-40.5	-48.5	4.7	9.58e-01	0	57	104	0	53	8568
2026-01-13 07:58:43.28	72.33	14.51	-40.6	-49.1	4.5	1.46e+00	4	57	104	0	53	9193
2026-01-13 07:58:44.29	72.14	14.56	-40.6	-49.1	4.4	1.48e+00	0	57	104	0	52	9828
2026-01-13 07:58:45.30	71.95	14.61	-41.2	-53.0	3.8	1.49e+00	0	57	104	0	53	14444
2026-01-13 07:58:46.31	71.76	14.65	-40.9	-50.0	3.9	1.48e+00	0	57	104	0	53	10221
2026-01-13 07:58:47.32	71.56	14.70	-41.1	-52.9	3.8	1.49e+00	0	57	104	0	53	14242
2026-01-13 07:58:48.33	71.37	14.74	-40.7	-48.9	4.6	1.33e+00	0	57	104	0	53	8976
2026-01-13 07:58:49.34	71.18	14.79	-40.8	-49.7	4.0	1.24e+00	1	57	104	0	53	9882
2026-01-13 07:58:50.35	70.99	14.83	-40.7	-48.2	5.0	9.20e-01	0	57	104	0	53	8286
2026-01-13 07:58:51.36	70.79	14.88	-40.4	-46.7	6.1	4.83e-01	0	57	0	2097152	52	7377
2026-01-13 07:58:52.37	70.60	14.92	-40.6	-47.4	5.4	1.47e+00	0	57	104	3145728	52	8032
2026-01-13 07:58:53.38	70.40	14.97	-41.6	-51.8	3.8	1.49e+00	0	57	104	4194304	53	12639
2026-01-13 07:58:54.39	70.21	15.01	-40.8	-47.1	5.9	1.27e+00	2	57	104	4194304	53	7338
2026-01-13 07:58:55.40	70.01	15.06	-41.2	-50.0	4.3	1.47e+00	0	58	104	4194304	53	10282
2026-01-13 07:58:56.41	69.82	15.10	-40.6	-46.7	6.2	2.81e-01	0	57	0	5242880	53	7008
2026-01-13 07:58:57.42	69.62	15.14	-40.6	-46.5	6.5	2.44e-01	0	57	0	8388608	53	6844
2026-01-13 07:58:58.43	69.42	15.19	-40.7	-46.5	6.5	2.16e-01	0	57	0	11534336	53	6837
2026-01-13 07:58:59.44	69.22	15.23	-40.7	-46.4	6.6	2.16e-01	0	57	0	14680064	53	6771
2026-01-13 07:59:00.45	69.02	15.27	-40.6	-45.9	7.2	1.52e-01	0	57	0	17825792	53	6358
2026-01-13 07:59:01.45	68.83	15.31	-40.6	-45.8	7.4	1.13e-01	0	58	0	20971520	53	6287
2026-01-13 07:59:02.46	68.63	15.36	-40.4	-45.1	8.1	6.71e-02	0	57	0	24117248	52	6141
2026-01-13 07:59:03.47	68.43	15.40	-40.3	-44.9	8.3	5.10e-02	0	58	0	27262976	52	6032
2026-01-13 07:59:04.48	68.23	15.44	-40.4	-44.9	8.5	4.31e-02	0	57	0	30408704	52	5995
2026-01-13 07:59:05.49	68.02	15.48	-40.4	-44.7	8.8	3.43e-02	0	57	0	33554432	52	5868
2026-01-13 07:59:06.50	67.82	15.52	-40.3	-44.3	9.2	2.20e-02	0	57	0	36700160	52	5650
2026-01-13 07:59:07.52	67.62	15.56	-40.2	-44.1	9.5	1.51e-02	0	57	0	39845888	52	5488
2026-01-13 07:59:08.53	67.41	15.60	-40.1	-43.8	9.9	9.39e-03	0	57	0	42991616	52	5330
2026-01-13 07:59:09.54	67.21	15.64	-40.0	-43.6	10.2	6.18e-03	0	57	0	46137344	52	5215
2026-01-13 07:59:10.55	67.01	15.68	-40.1	-43.6	10.3	5.41e-03	0	57	0	49283072	52	5189
2026-01-13 07:59:11.56	66.80	15.72	-40.0	-43.3	10.7	3.67e-03	0	58	0	52428800	52	5028
2026-01-13 07:59:12.57	66.59	15.76	-40.0	-43.2	11.0	1.63e-03	0	57	0	55574528	51	5238
2026-01-13 07:59:13.58	66.39	15.80	-40.1	-43.3	11.0	2.15e-03	0	57	0	58720256	51	5325
2026-01-13 07:59:14.59	66.18	15.84	-40.2	-43.5	10.8	2.33e-03	0	57	0	61865984	51	5434
2026-01-13 07:59:15.60	65.98	15.88	-40.2	-43.3	11.1	1.73e-03	0	57	0	65011712	51	5318
2026-01-13 07:59:16.61	65.77	15.91	-40.2	-43.3	11.2	1.56e-03	0	57	0	68157440	51	5335
2026-01-13 07:59:17.62	65.56	15.95	-40.2	-43.3	11.2	1.36e-03	0	57	0	71303168	51	5327
2026-01-13 07:59:18.63	65.35	15.99	-40.3	-43.4	11.2	1.31e-03	0	57	0	74448896	51	5377
2026-01-13 07:59:19.64	65.14	16.03	-40.2	-43.2	11.5	1.06e-03	0	57	0	77594624	51	5252
2026-01-13 07:59:20.65	64.93	16.06	-40.1	-43.0	11.8	5.26e-04	0	57	0	80740352	51	5112
2026-01-13 07:59:21.66	64.72	16.10	-40.1	-43.0	11.8	4.17e-04	0	58	0	83886080	51	5103
2026-01-13 07:59:22.67	64.51	16.13	-40.0	-42.9	12.0	3.46e-04	0	57	0	87031808	51	5052
2026-01-13 07:59:23.68	64.30	16.17	-40.1	-42.9	12.0	3.23e-04	0	58	0	90177536	51	5100
2026-01-13 07:59:24.69	64.09	16.21	-40.1	-42.9	12.0	4.16e-04	0	58	0	93323264	51	5048
2026-01-13 07:59:25.70	63.88	16.24	-40.0	-42.7	12.2	2.36e-04	0	57	0	96468992	51	4978
2026-01-13 07:59:26.71	63.66	16.27	-40.1	-42.9	12.1	2.72e-04	0	58	0	99614720	51	5047
2026-01-13 07:59:27.72	63.45	16.31	-40.0	-42.8	12.1	2.08e-04	0	58	0	102760448	51	5018
2026-01-13 07:59:28.73	63.24	16.34	-40.1	-42.9	12.0	2.91e-04	0	57	0	105906176	51	5083
2026-01-13 07:59:29.74	63.02	16.38	-40.1	-42.8	12.1	2.83e-04	0	57	0	109051904	51	5039
2026-01-13 07:59:30.75	62.81	16.41	-40.0	-42.7	12.3	1.83e-04	0	58	0	112197632	51	4967
2026-01-13 07:59:31.76	62.59	16.44	-40.2	-43.0	12.0	2.52e-04	0	58	0	115343360	51	5116
2026-01-13 07:59:32.77	62.38	16.47	-40.2	-43.0	12.0	2.72e-04	0	57	0	118489088	51	5119
2026-01-13 07:59:33.78	62.16	16.51	-40.2	-43.1	12.0	3.25e-04	0	58	0	121634816	51	5168
2026-01-13 07:59:34.79	61.94	16.54	-40.2	-43.0	12.0	3.20e-04	0	58	0	124780544	51	5150
2026-01-13 07:59:35.80	61.73	16.57	-40.2	-43.0	12.1	2.92e-04	0	58	0	128974848	51	5121
2026-01-13 07:59:36.81	61.51	16.60	-40.2	-42.9	12.1	2.33e-04	0	58	0	132120576	51	5090
2026-01-13 07:59:37.82	61.29	16.63	-40.2	-43.0	12.1	2.77e-04	0	58	0	134217728	51	5118
2026-01-13 07:59:38.83	61.07	16.66	-40.3	-43.1	12.1	2.48e-04	0	58	0	137363456	51	5163
2026-01-13 07:59:39.84	60.85	16.69	-40.2	-43.0	12.2	2.30e-04	0	58	0	140509184	51	5101
2026-01-13 07:59:40.85	60.64	16.72	-40.2	-42.9	12.2	2.08e-04	0	58	0	144703488	51	5097
2026-01-13 07:59:41.86	60.42	16.75	-40.2	-42.9	12.3	2.27e-04	0	57	0	147849216	51	5067
2026-01-13 07:59:42.87	60.20	16.78	-40.1	-42.8	12.4	1.52e-04	0	58	0	150994944	51	5004
2026-01-13 07:59:43.88	59.98	16.81	-40.2	-42.9	12.3	1.89e-04	0	57	0	154140672	51	5063
2026-01-13 07:59:44.89	59.75	16.83	-40.2	-43.0	12.2	2.17e-04	0	58	0	157286400	51	5128
2026-01-13 07:59:45.90	59.53	16.86	-40.2	-42.9	12.2	2.41e-04	0	58	0	160432128	51	5083
2026-01-13 07:59:46.91	59.31	16.89	-40.2	-42.9	12.3	2.30e-04	0	57	0	163577856	51	5047
2026-01-13 07:59:47.92	59.09	16.91	-40.1	-42.8	12.4	1.56e-04	0	58	0	166723584	51	5021
2026-01-13 07:59:48.93	58.87	16.94	-40.1	-42.8	12.4	1.59e-04	0	58	0	169869312	51	4987
2026-01-13 07:59:49.94	58.64	16.97	-40.1	-42.7	12.5	1.01e-04	0	58	0	173015040	51	4946
2026-01-13 07:59:50.95	58.42	16.99	-40.0	-42.6	12.6	9.99e-05	0	58	0	176160768	51	4899
2026-01-13 07:59:51.96	58.20	17.02	-40.0	-42.7	12.6	1.01e-04	0	58	0	179306496	51	4933
2026-01-13 07:59:52.97	57.97	17.04	-40.1	-42.7	12.5	1.29e-04	0	58	0	182452224	51	4971
2026-01-13 07:59:53.98	57.75	17.06	-40.1	-42.7	12.5	1.21e-04	0	58	0	185597952	51	4972
2026-01-13 07:59:54.99	57.53	17.09	-40.1	-42.7	12.5	1.39e-04	0	58	0	188743680	51	4950
2026-01-13 07:59:56.00	57.30	17.11	-40.1	-42.7	12.5	1.17e-04	0	58	0	191889408	51	4972
2026-01-13 07:59:57.01	57.07	17.13	-40.0	-42.6	12.6	9.15e-05	0	58	0	195035136	51	4909
2026-01-13 07:59:58.02	56.85	17.16	-40.1	-42.7	12.5	1.11e-04	0	58	0	198180864	51	4966
2026-01-13 07:59:59.03	56.62	17.18	-40.1	-42.8	12.4	1.46e-04	0	58	0	201326592	51	5006
2026-01-13 08:00:00.04	56.40	17.20	-40.2	-42.9	12.3	1.46e-04	0	58	0	204472320	51	5071
2026-01-13 08:00:01.05	56.17	17.22	-40.2	-42.9	12.3	1.62e-04	0	58	0	207618048	51	5083
2026-01-13 08:00:02.06	55.94	17.24	-40.3	-43.0	12.3	1.97e-04	0	58	0	210763776	51	5129
2026-01-13 08:00:03.07	55.72	17.26	-40.3	-43.1	12.2	2.21e-04	0	58	0	213909504	51	5167
2026-01-13 08:00:04.08	55.49	17.28	-40.4	-43.1	12.1	2.55e-04	0	58	0	217055232	51	5207
2026-01-13 08:00:05.09	55.26	17.30	-40.3	-43.1	12.2	2.20e-04	0	58	0	220200960	51	5165
2026-01-13 08:00:06.10	55.03	17.32	-40.3	-43.0	12.3	2.28e-04	0	58	0	223346688	51	5126
2026-01-13 08:00:07.11	54.80	17.34	-40.2	-42.9	12.3	1.93e-04	0	58	0	226492416	51	5087
2026-01-13 08:00:08.12	54.58	17.35	-40.2	-42.8	12.4	1.27e-04	0	58	0	229638144	51	5026
2026-01-13 08:00:09.13	54.35	17.37	-40.1	-42.8	12.5	1.14e-04	0	58	0	232783872	51	5019
2026-01-13 08:00:10.14	54.12	17.39	-40.2	-42.8	12.4	1.28e-04	0	58	0	235929600	51	5028
2026-01-13 08:00:11.15	53.89	17.40	-40.1	-42.7	12.5	1.13e-04	0	58	0	239075328	51	4978
2026-01-13 08:00:12.16	53.66	17.42	-40.1	-42.7	12.6	9.91e-05	0	58	0	242221056	51	4927
2026-01-13 08:00:13.17	53.43	17.44	-40.0	-42.6	12.6	8.46e-05	0	58	0	245366784	51	4926
2026-01-13 08:00:14.18	53.20	17.45	-40.1	-42.8	12.5	1.03e-04	0	58	0	248512512	51	4992
2026-01-13 08:00:15.19	52.97	17.47	-40.1	-42.8	12.5	1.11e-04	0	58	0	251658240	51	4990
2026-01-13 08:00:16.20	52.74	17.48	-40.1	-42.7	12.6	6.48e-05	0	58	0	254803968	51	4936
2026-01-13 08:00:17.21	52.51	17.49	-40.1	-42.7	12.6	1.06e-04	0	58	0	257949696	51	4944
2026-01-13 08:00:18.22	52.28	17.51	-40.0	-42.6	12.7	7.17e-05	0	58	0	261095424	51	4913
2026-01-13 08:00:19.22	52.05	17.52	-40.2	-42.8	12.5	1.23e-04	0	58	0	264241152	51	5007
2026-01-13 08:00:20.23	51.82	17.53	-40.2	-42.8	12.5	1.33e-04	0	58	0	267386880	51	5038
2026-01-13 08:00:21.24	51.58	17.54	-40.2	-42.9	12.4	1.30e-04	0	58	0	270532608	51	5052
2026-01-13 08:00:22.25	51.35	17.56	-40.3	-43.0	12.3	1.46e-04	0	58	0	273678336	51	5132
2026-01-13 08:00:23.26	51.12	17.57	-40.2	-42.9	12.4	1.32e-04	0	58	0	276824064	51	5055
2026-01-13 08:00:24.27	50.89	17.58	-40.2	-42.9	12.4	1.48e-04	0	58	0	279969792	51	5092
2026-01-13 08:00:25.28	50.66	17.59	-40.2	-42.9	12.4	1.52e-04	0	58	0	283115520	51	5049
2026-01-13 08:00:26.29	50.42	17.60	-40.2	-42.9	12.4	1.52e-04	0	58	0	286261248	51	5070
2026-01-13 08:00:27.30	50.19	17.60	-40.3	-43.0	12.3	2.01e-04	0	58	0	289406976	51	5117
2026-01-13 08:00:28.31	49.96	17.61	-40.3	-43.1	12.2	2.06e-04	0	58	0	292552704	51	5170
2026-01-13 08:00:29.32	49.73	17.62	-40.4	-43.2	12.1	2.80e-04	0	58	0	295698432	51	5250
2026-01-13 08:00:30.33	49.49	17.63	-40.4	-43.2	12.1	2.58e-04	0	58	0	298844160	51	5250
2026-01-13 08:00:31.34	49.26	17.64	-40.4	-43.1	12.2	2.43e-04	0	58	0	301989888	51	5200
2026-01-13 08:00:32.35	49.03	17.64	-40.4	-43.1	12.2	2.35e-04	0	58	0	305135616	51	5206
2026-01-13 08:00:33.35	48.80	17.65	-40.3	-43.0	12.3	1.66e-04	0	58	0	308281344	51	5125
2026-01-13 08:00:34.36	48.56	17.65	-40.3	-42.9	12.4	1.79e-04	0	58	0	311427072	51	5090
2026-01-13 08:00:35.37	48.33	17.66	-40.0	-42.6	12.8	9.15e-05	0	58	0	314572800	51	4893
2026-01-13 08:00:36.38	48.10	17.66	-40.1	-42.6	12.7	6.71e-05	0	58	0	317718528	51	4907
2026-01-13 08:00:37.39	47.86	17.67	-40.0	-42.6	12.8	5.11e-05	0	58	0	320864256	51	4875
2026-01-13 08:00:38.40	47.63	17.67	-39.9	-42.4	12.9	4.04e-05	0	58	0	324009984	51	4790
2026-01-13 08:00:39.41	47.40	17.67	-40.0	-42.6	12.8	5.95e-05	0	58	0	327155712	51	4888
2026-01-13 08:00:40.42	47.16	17.68	-40.0	-42.6	12.8	4.42e-05	0	58	0	330301440	51	4894
2026-01-13 08:00:41.43	46.93	17.68	-40.1	-42.6	12.7	7.78e-05	0	58	0	333447168	51	4924
2026-01-13 08:00:42.44	46.70	17.68	-40.1	-42.6	12.7	8.08e-05	0	58	0	336592896	51	4921
2026-01-13 08:00:43.45	46.46	17.68	-40.1	-42.6	12.7	7.78e-05	0	58	0	339738624	51	4896
2026-01-13 08:00:44.46	46.23	17.68	-40.1	-42.7	12.7	8.39e-05	0	58	0	342884352	51	4930
2026-01-13 08:00:45.47	45.99	17.68	-40.1	-42.7	12.6	7.55e-05	0	58	0	346030080	51	4939
2026-01-13 08:00:46.48	45.76	17.68	-40.0	-42.6	12.8	8.46e-05	0	58	0	349175808	51	4892
2026-01-13 08:00:47.49	45.53	17.68	-40.0	-42.6	12.8	4.57e-05	0	58	0	352321536	51	4887
2026-01-13 08:00:48.50	45.29	17.68	-40.1	-42.7	12.7	7.78e-05	0	58	0	355467264	51	4934
2026-01-13 08:00:49.51	45.06	17.68	-40.1	-42.8	12.6	8.54e-05	0	58	0	358612992	51	4989
2026-01-13 08:00:50.52	44.83	17.68	-40.2	-42.8	12.5	1.01e-04	0	58	0	361758720	51	5002
2026-01-13 08:00:51.53	44.59	17.67	-40.2	-42.8	12.6	1.20e-04	0	58	0	364904448	51	4997
2026-01-13 08:00:52.54	44.36	17.67	-40.1	-42.7	12.6	9.53e-05	0	58	0	368050176	51	4965
2026-01-13 08:00:53.55	44.13	17.67	-40.0	-42.6	12.8	6.79e-05	0	58	0	371195904	51	4879
2026-01-13 08:00:54.57	43.89	17.66	-40.1	-42.6	12.7	6.25e-05	0	58	0	374341632	51	4919
2026-01-13 08:00:55.58	43.66	17.66	-40.1	-42.6	12.7	6.86e-05	0	58	0	377487360	51	4920
2026-01-13 08:00:56.59	43.42	17.65	-40.1	-42.6	12.7	6.94e-05	0	58	0	380633088	51	4914
2026-01-13 08:00:57.60	43.19	17.65	-40.0	-42.5	12.9	5.41e-05	0	58	0	383778816	51	4861
2026-01-13 08:00:58.61	42.96	17.64	-40.1	-42.7	12.7	6.63e-05	0	58	0	386924544	51	4928
2026-01-13 08:00:59.62	42.73	17.63	-40.1	-42.6	12.7	7.24e-05	0	58	0	390070272	51	4924
2026-01-13 08:01:00.63	42.49	17.63	-40.1	-42.8	12.6	8.85e-05	0	58	0	393216000	51	4988
2026-01-13 08:01:01.64	42.26	17.62	-40.1	-42.7	12.6	9.53e-05	0	58	0	396361728	51	4954
2026-01-13 08:01:02.65	42.03	17.61	-40.1	-42.7	12.7	7.40e-05	0	58	0	399507456	51	4930
2026-01-13 08:01:03.66	41.80	17.60	-40.0	-42.6	12.8	6.40e-05	0	58	0	402653184	51	4895
2026-01-13 08:01:04.67	41.56	17.59	-40.2	-42.8	12.6	7.62e-05	0	58	0	405798912	51	4993
2026-01-13 08:01:05.68	41.33	17.58	-40.1	-42.7	12.7	7.85e-05	0	58	0	408944640	51	4937
2026-01-13 08:01:06.69	41.10	17.57	-40.1	-42.7	12.7	7.47e-05	0	58	0	412090368	51	4934
2026-01-13 08:01:07.70	40.87	17.56	-40.2	-42.8	12.6	8.39e-05	0	58	0	415236096	51	5012
2026-01-13 08:01:08.71	40.64	17.55	-40.3	-43.0	12.3	1.55e-04	0	58	0	418381824	51	5125
2026-01-13 08:01:09.72	40.40	17.54	-40.3	-43.0	12.4	1.76e-04	0	58	0	421527552	51	5111
2026-01-13 08:01:10.73	40.17	17.53	-40.3	-42.9	12.4	1.46e-04	0	58	0	424673280	51	5086
2026-01-13 08:01:11.74	39.94	17.52	-40.3	-42.9	12.4	1.56e-04	0	58	0	427819008	51	5096
2026-01-13 08:01:12.75	39.71	17.50	-40.3	-43.0	12.4	1.49e-04	0	58	0	430964736	51	5108
2026-01-13 08:01:13.76	39.48	17.49	-40.2	-42.9	12.4	1.62e-04	0	58	0	434110464	51	5091
2026-01-13 08:01:14.77	39.25	17.48	-40.4	-43.1	12.2	2.01e-04	0	58	0	437256192	51	5215
2026-01-13 08:01:15.78	39.02	17.46	-40.4	-43.1	12.2	2.15e-04	0	58	0	440401920	51	5195
2026-01-13 08:01:16.79	38.79	17.45	-40.4	-43.2	12.1	2.66e-04	0	58	0	444596224	51	5251
2026-01-13 08:01:17.80	38.56	17.43	-40.3	-43.1	12.3	2.18e-04	0	58	0	447741952	51	5179
2026-01-13 08:01:18.81	38.33	17.42	-40.2	-42.9	12.5	1.28e-04	0	58	0	450887680	51	5054
2026-01-13 08:01:19.82	38.10	17.40	-40.1	-42.8	12.6	1.01e-04	0	58	0	452984832	51	5011
2026-01-13 08:01:20.83	37.87	17.38	-40.1	-42.7	12.6	8.77e-05	0	58	0	456130560	51	4959
2026-01-13 08:01:21.85	37.64	17.37	-40.1	-42.8	12.6	1.12e-04	0	58	0	460324864	51	4986
2026-01-13 08:01:22.85	37.41	17.35	-40.1	-42.8	12.6	7.01e-05	0	58	0	463470592	51	4987
2026-01-13 08:01:23.86	37.19	17.33	-40.1	-42.7	12.7	9.07e-05	0	58	0	466616320	51	4934
2026-01-13 08:01:24.87	36.96	17.31	-40.1	-42.8	12.6	9.00e-05	0	58	0	469762048	51	4986
2026-01-13 08:01:25.88	36.73	17.29	-40.2	-42.8	12.5	9.99e-05	0	59	0	472907776	51	5034
2026-01-13 08:01:26.89	36.50	17.27	-40.2	-42.8	12.5	1.06e-04	0	58	0	475004928	51	5009
2026-01-13 08:01:27.90	36.28	17.26	-40.2	-42.8	12.5	1.02e-04	0	58	0	479199232	51	5014
2026-01-13 08:01:28.91	36.05	17.23	-40.1	-42.8	12.6	1.27e-04	0	58	0	482344960	51	4996
2026-01-13 08:01:29.92	35.82	17.21	-40.1	-42.7	12.6	9.23e-05	0	58	0	485490688	51	4965
2026-01-13 08:01:30.93	35.60	17.19	-40.1	-42.7	12.6	8.08e-05	0	58	0	488636416	51	4977
2026-01-13 08:01:31.94	35.37	17.17	-40.1	-42.6	12.7	7.17e-05	0	58	0	491782144	51	4922
2026-01-13 08:01:32.95	35.15	17.15	-40.0	-42.5	12.8	6.63e-05	0	58	0	494927872	51	4853
2026-01-13 08:01:33.96	34.92	17.13	-40.0	-42.5	12.8	6.10e-05	0	58	0	498073600	51	4869
2026-01-13 08:01:34.97	34.70	17.10	-40.0	-42.6	12.7	7.32e-05	0	58	0	501219328	51	4891
2026-01-13 08:01:35.98	34.47	17.08	-40.1	-42.6	12.7	7.62e-05	0	58	0	504365056	51	4924
2026-01-13 08:01:36.99	34.25	17.06	-40.0	-42.6	12.7	8.77e-05	0	58	0	507510784	51	4908
2026-01-13 08:01:38.00	34.02	17.03	-40.0	-42.6	12.8	6.56e-05	0	58	0	510656512	51	4892
2026-01-13 08:01:39.01	33.80	17.01	-40.0	-42.6	12.7	6.63e-05	0	58	0	513802240	51	4906
2026-01-13 08:01:40.02	33.58	16.98	-40.1	-42.6	12.7	6.40e-05	0	58	0	516947968	51	4920
2026-01-13 08:01:41.03	33.35	16.96	-40.1	-42.7	12.7	7.32e-05	0	58	0	520093696	51	4952
2026-01-13 08:01:42.04	33.13	16.93	-40.1	-42.8	12.6	1.08e-04	0	58	0	523239424	51	5013
2026-01-13 08:01:43.05	32.91	16.91	-40.2	-42.8	12.5	1.14e-04	0	58	0	526385152	51	5021
2026-01-13 08:01:44.06	32.69	16.88	-40.1	-42.7	12.6	8.69e-05	0	58	0	529530880	51	4953
2026-01-13 08:01:45.07	32.47	16.85	-40.1	-42.8	12.6	8.77e-05	0	58	0	532676608	51	4992
2026-01-13 08:01:46.08	32.25	16.83	-40.1	-42.7	12.6	8.39e-05	0	58	0	535822336	51	4953
2026-01-13 08:01:47.09	32.03	16.80	-40.1	-42.7	12.7	8.08e-05	0	58	0	538968064	51	4944
2026-01-13 08:01:48.10	31.81	16.77	-40.0	-42.6	12.8	6.79e-05	0	58	0	542113792	51	4878
2026-01-13 08:01:49.11	31.59	16.74	-40.0	-42.5	12.8	7.70e-05	0	58	0	545259520	51	4850
2026-01-13 08:01:50.12	31.37	16.71	-40.0	-42.6	12.7	6.94e-05	0	58	0	548405248	51	4912
2026-01-13 08:01:51.13	31.15	16.68	-40.0	-42.6	12.7	6.33e-05	0	58	0	551550976	51	4922
2026-01-13 08:01:52.14	30.93	16.65	-40.1	-42.7	12.7	7.01e-05	0	58	0	554696704	51	4946
2026-01-13 08:01:53.15	30.72	16.62	-40.1	-42.7	12.6	6.86e-05	0	58	0	557842432	51	4952
2026-01-13 08:01:54.16	30.50	16.59	-39.9	-42.6	12.7	6.79e-05	0	58	0	560988160	51	4885
2026-01-13 08:01:55.16	30.28	16.56	-40.0	-42.6	12.7	6.56e-05	0	58	0	564133888	51	4897
2026-01-13 08:01:56.17	30.07	16.53	-40.0	-42.7	12.6	8.77e-05	0	58	0	567279616	51	4937
2026-01-13 08:01:57.18	29.85	16.50	-40.0	-42.7	12.7	9.38e-05	0	58	0	570425344	51	4939
2026-01-13 08:01:58.19	29.64	16.47	-40.0	-42.6	12.7	7.85e-05	0	58	0	573571072	51	4918
2026-01-13 08:01:59.20	29.42	16.44	-40.1	-42.7	12.6	9.99e-05	0	58	0	576716800	51	4946
2026-01-13 08:02:00.21	29.21	16.40	-40.2	-42.8	12.5	9.68e-05	0	58	0	579862528	51	5028
2026-01-13 08:02:01.22	28.99	16.37	-40.1	-42.8	12.6	9.91e-05	0	58	0	583008256	51	4994
2026-01-13 08:02:02.23	28.78	16.34	-40.1	-42.8	12.5	1.30e-04	0	58	0	586153984	51	4993
2026-01-13 08:02:03.24	28.57	16.30	-40.1	-42.8	12.5	1.17e-04	0	58	0	589299712	51	5004
2026-01-13 08:02:04.25	28.35	16.27	-40.2	-42.8	12.4	1.34e-04	0	58	0	592445440	51	5031
2026-01-13 08:02:05.26	28.14	16.23	-40.3	-43.0	12.3	1.58e-04	0	58	0	595591168	51	5129
2026-01-13 08:02:06.27	27.93	16.20	-40.2	-42.9	12.3	1.81e-04	0	58	0	598736896	51	5086
2026-01-13 08:02:07.28	27.72	16.16	-40.2	-43.0	12.3	1.98e-04	0	58	0	601882624	51	5121
2026-01-13 08:02:08.28	27.51	16.13	-40.3	-43.0	12.2	1.90e-04	0	58	0	605028352	51	5141
2026-01-13 08:02:09.29	27.30	16.09	-40.2	-42.9	12.4	1.52e-04	0	58	0	608174080	51	5044
2026-01-13 08:02:10.30	27.09	16.06	-40.1	-42.8	12.5	1.11e-04	0	58	0	611319808	51	5004
2026-01-13 08:02:11.31	26.88	16.02	-40.1	-42.7	12.6	1.04e-04	0	58	0	614465536	51	4961
2026-01-13 08:02:12.32	26.68	15.98	-40.0	-42.7	12.6	1.04e-04	0	59	0	617611264	51	4941
2026-01-13 08:02:13.33	26.47	15.95	-40.0	-42.6	12.7	8.23e-05	0	58	0	620756992	51	4897
2026-01-13 08:02:14.34	26.26	15.91	-40.0	-42.6	12.7	9.53e-05	0	58	0	623902720	51	4892
2026-01-13 08:02:15.36	26.05	15.87	-40.0	-42.7	12.6	9.61e-05	0	58	0	627048448	51	4951
2026-01-13 08:02:16.37	25.85	15.83	-40.1	-42.7	12.5	1.12e-04	0	58	0	630194176	51	4966
2026-01-13 08:02:17.37	25.64	15.79	-40.1	-42.8	12.4	1.12e-04	0	58	0	633339904	51	5031
2026-01-13 08:02:18.38	25.44	15.75	-40.2	-42.9	12.3	1.70e-04	0	58	0	636485632	51	5075
2026-01-13 08:02:19.40	25.23	15.71	-40.2	-43.0	12.2	1.50e-04	0	58	0	639631360	51	5122
2026-01-13 08:02:20.41	25.03	15.68	-40.2	-43.0	12.2	2.10e-04	0	58	0	642777088	51	5148
2026-01-13 08:02:21.41	24.82	15.64	-40.2	-43.0	12.3	1.81e-04	0	58	0	645922816	51	5105
2026-01-13 08:02:22.42	24.62	15.60	-40.2	-43.0	12.2	2.10e-04	0	58	0	649068544	51	5127
2026-01-13 08:02:23.44	24.42	15.56	-40.2	-42.9	12.3	1.67e-04	0	58	0	652214272	51	5089
2026-01-13 08:02:24.45	24.21	15.51	-40.1	-42.8	12.4	1.29e-04	0	58	0	655360000	51	5006
2026-01-13 08:02:25.46	24.01	15.47	-40.1	-42.8	12.4	1.53e-04	0	58	0	658505728	51	5027
2026-01-13 08:02:26.47	23.81	15.43	-40.1	-42.8	12.4	1.43e-04	0	58	0	661651456	51	5022
2026-01-13 08:02:27.48	23.61	15.39	-40.2	-42.9	12.3	1.54e-04	0	58	0	664797184	51	5079
2026-01-13 08:02:28.49	23.41	15.35	-40.2	-42.9	12.3	1.59e-04	0	58	0	667942912	51	5076
2026-01-13 08:02:29.50	23.21	15.31	-40.2	-43.0	12.2	1.62e-04	0	58	0	671088640	51	5104
2026-01-13 08:02:30.51	23.02	15.27	-40.3	-43.1	12.0	3.18e-04	0	58	0	674234368	51	5210
2026-01-13 08:02:31.52	22.82	15.22	-40.4	-43.3	11.9	3.23e-04	0	58	0	677380096	51	5283
2026-01-13 08:02:32.53	22.62	15.18	-40.4	-43.2	11.9	3.42e-04	0	58	0	680525824	51	5273
2026-01-13 08:02:33.54	22.42	15.14	-40.5	-43.4	11.8	5.03e-04	0	58	0	683671552	51	5358
2026-01-13 08:02:34.55	22.23	15.09	-40.4	-43.3	11.8	5.17e-04	0	58	0	686817280	51	5325
2026-01-13 08:02:35.56	22.03	15.05	-40.4	-43.3	11.9	4.42e-04	0	59	0	689963008	51	5295
2026-01-13 08:02:36.57	21.84	15.01	-40.4	-43.2	11.9	4.24e-04	0	58	0	693108736	51	5260
2026-01-13 08:02:37.58	21.64	14.96	-40.3	-43.2	12.0	3.91e-04	0	58	0	696254464	51	5252
2026-01-13 08:02:38.59	21.45	14.92	-40.4	-43.3	11.8	4.56e-04	0	58	0	699400192	51	5323
2026-01-13 08:02:39.60	21.25	14.87	-40.4	-43.4	11.7	5.04e-04	0	59	0	702545920	51	5349
2026-01-13 08:02:40.61	21.06	14.83	-40.5	-43.4	11.7	5.85e-04	0	58	0	705691648	51	5384
2026-01-13 08:02:41.62	20.87	14.78	-40.4	-43.3	11.7	5.48e-04	0	58	0	708837376	51	5335
2026-01-13 08:02:42.63	20.68	14.74	-40.5	-43.4	11.7	5.26e-04	0	58	0	711983104	51	5368
2026-01-13 08:02:43.63	20.49	14.69	-40.4	-43.4	11.7	5.87e-04	0	59	0	715128832	51	5344
2026-01-13 08:02:44.64	20.30	14.65	-40.4	-43.3	11.8	4.86e-04	0	58	0	718274560	51	5333
2026-01-13 08:02:45.65	20.11	14.60	-40.4	-43.3	11.8	5.23e-04	0	58	0	721420288	51	5292
2026-01-13 08:02:46.66	19.92	14.55	-40.4	-43.3	11.8	4.28e-04	0	58	0	724566016	51	5328
2026-01-13 08:02:47.67	19.73	14.51	-40.4	-43.3	11.8	4.39e-04	0	58	0	727711744	51	5309
2026-01-13 08:02:48.68	19.54	14.46	-40.3	-43.2	11.9	4.16e-04	0	58	0	730857472	51	5260
2026-01-13 08:02:49.69	19.36	14.41	-40.3	-43.1	12.0	3.39e-04	0	58	0	734003200	51	5211
2026-01-13 08:02:50.70	19.17	14.37	-40.3	-43.2	11.9	4.32e-04	0	58	0	737148928	51	5223
2026-01-13 08:02:51.71	18.98	14.32	-40.3	-43.1	12.0	3.65e-04	0	58	0	740294656	51	5201
2026-01-13 08:02:52.72	18.80	14.27	-40.3	-43.2	11.9	4.03e-04	0	59	0	743440384	51	5248
2026-01-13 08:02:53.73	18.61	14.22	-40.4	-43.3	11.8	5.16e-04	0	58	0	746586112	51	5284
2026-01-13 08:02:54.74	18.43	14.18	-40.4	-43.4	11.7	6.90e-04	0	58	0	749731840	51	5370
2026-01-13 08:02:55.75	18.25	14.13	-40.5	-43.5	11.5	9.16e-04	0	59	0	752877568	51	5458
2026-01-13 08:02:56.76	18.06	14.08	-40.5	-43.6	11.5	8.06e-04	0	58	0	756023296	51	5476
2026-01-13 08:02:57.76	17.88	14.03	-40.5	-43.6	11.4	9.97e-04	0	58	0	759169024	51	5497
2026-01-13 08:02:58.77	17.70	13.98	-40.6	-43.6	11.4	1.09e-03	0	58	0	762314752	51	5518
2026-01-13 08:02:59.79	17.52	13.93	-40.6	-43.7	11.3	1.16e-03	0	58	0	765460480	51	5557
2026-01-13 08:03:00.80	17.34	13.88	-40.6	-43.7	11.3	1.12e-03	0	58	0	768606208	51	5543
2026-01-13 08:03:01.80	17.16	13.84	-40.5	-43.6	11.4	9.86e-04	0	58	0	771751936	51	5492
2026-01-13 08:03:02.81	16.98	13.79	-40.5	-43.6	11.4	9.18e-04	0	58	0	774897664	51	5474
2026-01-13 08:03:03.82	16.80	13.74	-40.5	-43.6	11.4	9.92e-04	0	58	0	778043392	51	5484
2026-01-13 08:03:04.83	16.62	13.69	-40.4	-43.4	11.5	8.28e-04	0	58	0	781189120	51	5397
2026-01-13 08:03:05.84	16.44	13.64	-40.4	-43.5	11.5	9.04e-04	0	58	0	784334848	51	5418
2026-01-13 08:03:06.85	16.27	13.59	-40.4	-43.5	11.5	7.81e-04	0	58	0	788529152	51	5403
2026-01-13 08:03:07.86	16.09	13.54	-40.4	-43.4	11.5	7.86e-04	0	58	0	790626304	51	5391
2026-01-13 08:03:08.87	15.92	13.48	-40.4	-43.5	11.5	8.67e-04	0	59	0	793772032	51	5403
2026-01-13 08:03:09.88	15.74	13.43	-40.4	-43.5	11.5	9.23e-04	0	58	0	796917760	51	5408
2026-01-13 08:03:10.89	15.57	13.38	-40.4	-43.4	11.5	7.67e-04	0	58	0	800063488	51	5367
2026-01-13 08:03:11.90	15.39	13.33	-40.4	-43.5	11.4	9.34e-04	0	58	0	804257792	51	5415
2026-01-13 08:03:12.91	15.22	13.28	-40.4	-43.4	11.5	8.26e-04	0	58	0	807403520	51	5359
2026-01-13 08:03:13.92	15.05	13.23	-40.3	-43.3	11.6	7.78e-04	0	58	0	810549248	51	5303
2026-01-13 08:03:14.93	14.87	13.18	-40.3	-43.3	11.6	6.68e-04	0	58	0	813694976	51	5283
2026-01-13 08:03:15.94	14.70	13.13	-40.2	-43.2	11.7	6.21e-04	0	58	0	815792128	51	5243
2026-01-13 08:03:16.95	14.53	13.08	-40.2	-43.2	11.6	6.16e-04	0	58	0	819986432	51	5266
2026-01-13 08:03:17.96	14.36	13.02	-40.2	-43.2	11.6	6.77e-04	0	58	0	823132160	51	5242
2026-01-13 08:03:18.97	14.19	12.97	-40.2	-43.3	11.5	8.21e-04	0	58	0	826277888	51	5296
2026-01-13 08:03:19.98	14.02	12.92	-40.3	-43.3	11.5	8.44e-04	0	59	0	829423616	51	5299
2026-01-13 08:03:20.99	13.86	12.87	-40.2	-43.3	11.5	8.29e-04	0	58	0	832569344	51	5293
2026-01-13 08:03:22.00	13.69	12.81	-40.3	-43.3	11.4	9.57e-04	0	58	0	835715072	51	5335
2026-01-13 08:03:23.01	13.52	12.76	-40.3	-43.4	11.3	1.30e-03	0	58	0	838860800	51	5387
2026-01-13 08:03:24.01	13.36	12.71	-40.3	-43.4	11.3	1.08e-03	0	58	0	842006528	51	5368
2026-01-13 08:03:25.02	13.19	12.66	-40.3	-43.5	11.1	1.27e-03	0	58	0	845152256	51	5441
2026-01-13 08:03:26.03	13.02	12.60	-40.3	-43.5	11.1	1.48e-03	0	58	0	848297984	51	5413
2026-01-13 08:03:27.04	12.86	12.55	-40.4	-43.6	11.0	1.83e-03	0	58	0	851443712	51	5504
2026-01-13 08:03:28.05	12.70	12.50	-40.4	-43.8	10.8	2.62e-03	0	58	0	854589440	51	5596
2026-01-13 08:03:29.06	12.53	12.44	-40.4	-43.7	10.7	2.65e-03	0	59	0	857735168	51	5579
2026-01-13 08:03:30.07	12.37	12.39	-40.3	-43.7	10.7	2.57e-03	0	59	0	860880896	51	5567
2026-01-13 08:03:31.09	12.20	12.34	-40.4	-43.9	10.5	4.01e-03	0	58	0	864026624	51	5673
2026-01-13 08:03:32.10	12.04	12.28	-40.4	-43.9	10.3	4.51e-03	0	58	0	867172352	51	5715
2026-01-13 08:03:33.11	11.88	12.23	-40.4	-44.0	10.2	5.42e-03	0	58	0	870318080	51	5752
2026-01-13 08:03:34.12	11.72	12.18	-40.4	-44.1	10.0	7.80e-03	0	58	0	873463808	51	5844
2026-01-13 08:03:35.13	11.56	12.12	-40.4	-44.1	10.0	8.10e-03	0	58	0	876609536	51	5800
2026-01-13 08:03:36.14	11.40	12.07	-40.3	-44.0	9.9	8.08e-03	0	58	0	879755264	51	5763
2026-01-13 08:03:37.15	11.24	12.01	-40.2	-43.9	10.0	7.61e-03	0	58	0	882900992	51	5657
2026-01-13 08:03:38.16	11.09	11.96	-40.1	-43.7	10.1	7.52e-03	0	59	0	886046720	51	5577
2026-01-13 08:03:39.17	10.93	11.91	-40.0	-43.8	10.0	7.69e-03	0	58	0	889192448	51	5600
2026-01-13 08:03:40.18	10.77	11.85	-40.0	-43.8	9.9	9.04e-03	0	58	0	892338176	51	5614
2026-01-13 08:03:41.19	10.61	11.80	-40.2	-44.3	9.3	1.59e-02	0	58	0	895483904	51	5948
2026-01-13 08:03:42.20	10.46	11.74	-40.4	-44.8	8.6	3.23e-02	0	59	0	898629632	51	6322
2026-01-13 08:03:43.21	10.30	11.69	-40.5	-45.1	8.3	5.09e-02	0	59	0	901775360	51	6542
2026-01-13 08:03:44.22	10.15	11.63	-40.5	-45.4	7.9	6.29e-02	0	58	0	904921088	51	6772
2026-01-13 08:03:45.23	9.99	11.58	-40.7	-46.0	7.3	1.09e-01	0	58	0	908066816	51	7243
2026-01-13 08:03:46.25	9.84	11.52	-40.7	-46.4	6.7	1.68e-01	0	58	0	911212544	52	7179
2026-01-13 08:03:47.26	9.69	11.47	-40.7	-46.8	6.3	2.35e-01	0	58	0	914358272	52	7483
2026-01-13 08:03:48.27	9.54	11.41	-40.8	-47.2	5.9	3.31e-01	0	58	0	917504000	52	7876
2026-01-13 08:03:49.28	9.38	11.36	-40.8	-47.5	5.7	3.99e-01	0	59	0	920649728	52	8101
2026-01-13 08:03:50.29	9.23	11.30	-40.9	-48.4	5.0	6.20e-01	0	58	0	923795456	52	9055
2026-01-13 08:03:51.30	9.08	11.25	-40.9	-49.0	4.7	9.26e-01	0	58	104	924844032	52	9694
2026-01-13 08:03:52.30	8.93	11.19	-40.9	-49.2	4.6	9.71e-01	2	58	104	924844032	52	9941
2026-01-13 08:03:53.31	8.78	11.14	-41.0	-50.3	4.2	1.46e+00	0	58	104	924844032	52	11240
2026-01-13 08:03:54.32	8.64	11.08	-40.9	-51.2	4.0	1.47e+00	0	58	104	924844032	52	12503
2026-01-13 08:03:55.33	8.49	11.03	-40.8	-52.6	3.8	1.49e+00	0	59	104	924844032	52	14688
2026-01-13 08:03:56.34	8.34	10.97	-41.5	-53.0	3.8	1.49e+00	0	58	104	924844032	53	14517
2026-01-13 08:03:57.35	8.19	10.91	-41.4	-52.1	3.9	1.48e+00	0	58	104	924844032	54	12315
2026-01-13 08:03:58.36	8.05	10.86	-40.7	-53.1	3.8	1.49e+00	0	59	104	924844032	53	14620
2026-01-13 08:03:59.37	7.90	10.80	-41.4	-52.5	3.8	1.49e+00	0	59	104	924844032	53	13646
2026-01-13 08:04:00.38	7.76	10.75	-41.2	-52.3	3.8	1.49e+00	0	58	104	924844032	53	13407
2026-01-13 08:04:01.39	7.61	10.69	-41.2	-52.6	3.8	1.49e+00	0	59	104	924844032	53	13837
2026-01-13 08:04:02.40	7.47	10.63	-41.7	-53.9	3.8	1.49e+00	0	58	104	924844032	54	15224
2026-01-13 08:04:03.41	7.32	10.58	-40.8	-53.2	3.8	1.49e+00	0	58	104	924844032	53	14734
2026-01-13 08:04:04.42	7.18	10.52	-40.1	-52.5	3.8	1.49e+00	0	58	104	924844032	52	14435
2026-01-13 08:04:05.43	7.04	10.47	-40.1	-52.5	3.8	1.49e+00	0	58	104	924844032	51	15378
2026-01-13 08:04:06.44	6.89	10.41	-40.3	-52.7	3.8	1.49e+00	0	59	104	924844032	51	15708
2026-01-13 08:04:07.45	6.75	10.35	-40.1	-52.5	3.8	1.49e+00	0	59	104	924844032	51	15346
2026-01-13 08:04:08.46	6.61	10.30	-40.0	-52.5	3.8	1.49e+00	0	59	104	924844032	51	15233
2026-01-13 08:04:09.46	6.47	10.24	-40.0	-52.4	3.8	1.49e+00	0	59	104	924844032	51	15174
2026-01-13 08:04:10.48	6.33	10.19	-40.0	-52.5	3.8	1.49e+00	0	59	104	924844032	51	15280
2026-01-13 08:04:11.48	6.20	10.13	-40.3	-52.8	3.8	1.49e+00	0	59	104	924844032	51	15783
2026-01-13 08:04:12.49	6.06	10.07	-40.7	-53.2	3.8	1.49e+00	0	59	104	924844032	51	16555
2026-01-13 08:04:13.50	5.92	10.02	-40.3	-52.7	3.8	1.49e+00	0	59	104	924844032	52	14824
2026-01-13 08:04:14.51	5.78	9.96	-40.0	-52.4	3.8	1.49e+00	0	59	104	924844032	51	15162
2026-01-13 08:04:15.52	5.64	9.90	-39.9	-52.4	3.8	1.49e+00	0	59	104	924844032	51	15109
2026-01-13 08:04:16.53	5.51	9.85	-40.0	-52.3	3.8	1.49e+00	0	59	104	924844032	51	15044
2026-01-13 08:04:17.54	5.37	9.79	-39.9	-52.4	3.8	1.49e+00	0	58	104	924844032	51	15101
2026-01-13 08:04:18.55	5.24	9.73	-39.9	-52.3	3.8	1.49e+00	0	59	104	924844032	51	15015
2026-01-13 08:04:19.56	5.10	9.68	-40.2	-52.6	3.8	1.49e+00	0	59	104	924844032	51	15508
2026-01-13 08:04:20.57	4.97	9.62	-40.1	-52.5	3.8	1.49e+00	0	59	104	924844032	51	15347
2026-01-13 08:04:21.58	4.83	9.57	-39.9	-52.3	3.8	1.49e+00	0	59	104	924844032	51	15019
2026-01-13 08:04:22.59	4.70	9.51	-39.9	-52.4	3.8	1.49e+00	0	59	104	924844032	51	15090
2026-01-13 08:04:23.60	4.57	9.45	-39.9	-52.3	3.8	1.49e+00	0	58	104	924844032	51	15022
2026-01-13 08:04:24.60	4.44	9.40	-39.9	-52.3	3.8	1.49e+00	0	59	104	924844032	51	15000
2026-01-13 08:04:25.61	4.30	9.34	-39.9	-52.3	3.8	1.49e+00	0	59	104	924844032	51	15040
2026-01-13 08:04:26.62	4.17	9.28	-39.9	-52.4	3.8	1.49e+00	0	59	104	924844032	51	15122
2026-01-13 08:04:27.63	4.04	9.23	-40.0	-52.4	3.8	1.49e+00	0	59	104	924844032	51	15217
2026-01-13 08:04:28.64	3.91	9.17	-40.1	-52.6	3.8	1.49e+00	0	59	104	924844032	51	15578
2026-01-13 08:04:29.65	3.78	9.11	-39.9	-52.4	3.8	1.49e+00	0	59	104	924844032	51	15191
2026-01-13 08:04:30.66	3.65	9.06	-40.0	-52.5	3.8	1.49e+00	0	59	104	924844032	51	15311
2026-01-13 08:04:31.67	3.53	9.00	-39.9	-52.4	3.8	1.49e+00	0	59	104	924844032	51	15109
2026-01-13 08:04:32.68	3.40	8.94	-39.8	-52.3	3.8	1.49e+00	0	59	104	924844032	51	15010
2026-01-13 08:04:33.69	3.27	8.89	-39.9	-52.4	3.8	1.49e+00	0	58	104	924844032	51	15150
2026-01-13 08:04:34.70	3.14	8.83	-39.8	-52.3	3.8	1.49e+00	0	59	104	924844032	51	15006
2026-01-13 08:04:35.71	3.02	8.77	-39.8	-52.4	3.8	1.49e+00	0	59	104	924844032	51	15068
2026-01-13 08:04:36.71	2.89	8.72	-39.9	-52.5	3.8	1.49e+00	0	59	104	924844032	51	15272
2026-01-13 08:04:37.72	2.77	8.66	-39.8	-52.3	3.8	1.49e+00	0	59	104	924844032	51	15026
2026-01-13 08:04:38.73	2.64	8.60	-39.9	-52.4	3.8	1.49e+00	0	59	104	924844032	51	15146
2026-01-13 08:04:39.74	2.52	8.54	-39.9	-52.3	3.8	1.49e+00	0	59	104	924844032	51	14997
2026-01-13 08:04:40.75	2.39	8.49	-39.9	-52.4	3.8	1.49e+00	0	59	104	924844032	51	15148
2026-01-13 08:04:41.76	2.27	8.43	-39.9	-52.3	3.8	1.49e+00	0	59	104	924844032	51	15039
2026-01-13 08:04:42.77	2.15	8.37	-39.8	-52.4	3.8	1.49e+00	0	59	104	924844032	51	15075
2026-01-13 08:04:43.78	2.02	8.32	-39.9	-52.4	3.8	1.49e+00	0	59	104	924844032	51	15059
2026-01-13 08:04:44.79	1.90	8.26	-40.0	-52.4	3.8	1.49e+00	0	59	104	924844032	51	15202
2026-01-13 08:04:45.80	1.78	8.20	-39.8	-52.4	3.8	1.49e+00	0	59	104	924844032	51	15077
2026-01-13 08:04:46.81	1.66	8.15	-39.9	-52.4	3.8	1.49e+00	0	59	104	924844032	51	15122
2026-01-13 08:04:47.82	1.54	8.09	-39.8	-52.3	3.8	1.49e+00	0	59	104	924844032	51	15039
2026-01-13 08:04:48.83	1.42	8.03	-39.7	-52.3	3.8	1.49e+00	0	59	104	924844032	51	14995
2026-01-13 08:04:49.84	1.30	7.98	-40.0	-52.5	3.8	1.49e+00	0	59	104	924844032	51	15241
2026-01-13 08:04:50.85	1.18	7.92	-42.7	-55.0	3.8	1.49e+00	0	59	104	924844032	55	16229
2026-01-13 08:04:51.86	1.06	7.86	-44.6	-56.7	3.8	1.49e+00	0	58	104	924844032	59	15723
2026-01-13 08:04:52.87	0.94	7.81	-44.9	-57.2	3.8	1.49e+00	0	59	104	924844032	60	15749
2026-01-13 08:04:53.88	0.83	7.75	-45.1	-57.4	3.8	1.49e+00	0	59	104	924844032	60	16104
2026-01-13 08:04:54.89	0.71	7.69	-45.2	-57.6	3.8	1.49e+00	0	59	104	924844032	60	16350
2026-01-13 08:04:55.90	0.59	7.64	-45.2	-57.6	3.8	1.49e+00	0	59	104	924844032	61	15537
2026-01-13 08:04:56.91	0.48	7.58	-45.3	-57.7	3.8	1.49e+00	0	59	104	924844032	61	15645
2026-01-13 08:04:57.92	0.36	7.52	-45.2	-57.6	3.8	1.49e+00	0	59	104	924844032	61	15573
2026-01-13 08:04:58.93	0.24	7.47	-45.4	-57.7	3.8	1.49e+00	0	59	104	924844032	61	15737
2026-01-13 08:04:59.94	0.13	7.41	-45.3	-57.7	3.8	1.49e+00	0	59	104	924844032	61	15594
2026-01-13 08:05:00.95	0.01	7.35	-45.3	-57.6	3.8	1.49e+00	0	59	104	924844032	61	15507
2026-01-13 08:05:01.96	359.90	7.30	-45.3	-57.6	3.8	1.49e+00	0	59	104	924844032	61	15500
2026-01-13 08:05:02.96	359.79	7.24	-45.2	-57.6	3.8	1.49e+00	0	59	104	924844032	61	15461
2026-01-13 08:05:03.97	359.68	7.18	-45.2	-57.6	3.8	1.49e+00	0	59	104	924844032	61	15404
2026-01-13 08:05:04.98	359.56	7.13	-45.2	-57.5	3.8	1.49e+00	0	59	104	924844032	61	15316
2026-01-13 08:05:06.00	359.45	7.07	-45.2	-57.5	3.8	1.49e+00	0	59	104	924844032	61	15242
2026-01-13 08:05:07.01	359.34	7.01	-45.2	-57.5	3.8	1.49e+00	0	59	104	924844032	61	15238
2026-01-13 08:05:08.02	359.23	6.96	-45.1	-57.5	3.8	1.49e+00	0	59	104	924844032	61	15248
2026-01-13 08:05:09.02	359.12	6.90	-45.1	-57.4	3.8	1.49e+00	0	59	104	924844032	61	15209
2026-01-13 08:05:10.04	359.01	6.84	-45.2	-57.5	3.8	1.49e+00	0	59	104	924844032	61	15257
2026-01-13 08:05:11.04	358.90	6.79	-45.1	-57.5	3.8	1.49e+00	0	59	104	924844032	61	15246
2026-01-13 08:05:12.05	358.79	6.73	-45.1	-57.5	3.8	1.49e+00	0	59	104	924844032	61	15253
2026-01-13 08:05:13.07	358.68	6.67	-45.2	-57.4	3.8	1.49e+00	0	59	104	924844032	60	16116
2026-01-13 08:05:14.08	358.57	6.62	-45.1	-57.5	3.8	1.49e+00	0	59	104	924844032	60	16159
2026-01-13 08:05:15.08	358.46	6.56	-45.1	-57.4	3.8	1.49e+00	0	59	104	924844032	60	16119
2026-01-13 08:05:16.09	358.35	6.51	-45.1	-57.4	3.8	1.49e+00	0	59	104	924844032	60	16122
2026-01-13 08:05:17.10	358.25	6.45	-45.1	-57.4	3.8	1.49e+00	0	59	104	924844032	60	16091
2026-01-13 08:05:18.11	358.14	6.39	-45.1	-57.4	3.8	1.49e+00	0	59	104	924844032	60	16075
2026-01-13 08:05:19.12	358.03	6.34	-45.1	-57.4	3.8	1.49e+00	0	59	104	924844032	60	16122
2026-01-13 08:05:20.13	357.93	6.28	-45.1	-57.4	3.8	1.49e+00	0	59	104	924844032	60	16076
2026-01-13 08:05:21.14	357.82	6.23	-45.1	-57.4	3.8	1.49e+00	0	59	104	924844032	60	16102
2026-01-13 08:05:22.15	357.72	6.17	-45.1	-57.4	3.8	1.49e+00	0	59	104	924844032	60	16059
2026-01-13 08:05:23.16	357.61	6.11	-45.1	-57.4	3.8	1.49e+00	0	59	104	924844032	60	16096
2026-01-13 08:05:24.17	357.51	6.06	-45.1	-57.4	3.8	1.49e+00	0	59	104	924844032	60	16106
2026-01-13 08:05:25.18	357.40	6.00	-45.1	-57.4	3.8	1.49e+00	0	59	104	924844032	60	16123
2026-01-13 08:05:26.19	357.30	5.94	-45.1	-57.4	3.8	1.49e+00	0	59	104	924844032	60	16086
2026-01-13 08:05:27.20	357.20	5.89	-45.1	-57.4	3.8	1.49e+00	0	59	104	924844032	60	16083
2026-01-13 08:05:28.21	357.09	5.83	-45.1	-57.4	3.8	1.49e+00	0	59	104	924844032	60	16077
2026-01-13 08:05:29.22	356.99	5.78	-45.1	-57.4	3.8	1.49e+00	0	59	104	924844032	60	16065
2026-01-13 08:05:30.23	356.89	5.72	-45.1	-57.4	3.8	1.49e+00	0	59	104	924844032	60	16081
2026-01-13 08:05:31.24	356.79	5.66	-45.1	-57.4	3.8	1.49e+00	0	59	104	924844032	60	16074
2026-01-13 08:05:32.25	356.69	5.61	-45.0	-57.4	3.8	1.49e+00	0	59	104	924844032	60	16064
2026-01-13 08:05:33.26	356.59	5.55	-45.1	-57.4	3.8	1.49e+00	0	59	104	924844032	60	16051
2026-01-13 08:05:34.27	356.49	5.50	-45.1	-57.4	3.8	1.49e+00	0	59	104	924844032	60	16036
2026-01-13 08:05:35.28	356.39	5.44	-45.1	-57.4	3.8	1.49e+00	0	59	104	924844032	60	16086
2026-01-13 08:05:36.29	356.29	5.39	-45.1	-57.4	3.8	1.49e+00	0	59	104	924844032	60	16066
2026-01-13 08:05:37.30	356.19	5.33	-44.9	-57.4	3.8	1.49e+00	0	59	104	924844032	60	16104
2026-01-13 08:05:38.31	356.09	5.27	-45.1	-57.4	3.8	1.49e+00	0	59	104	924844032	60	16091
2026-01-13 08:05:39.32	355.99	5.22	-44.8	-57.4	3.8	1.49e+00	0	59	104	924844032	60	16030
2026-01-13 08:05:40.33	355.89	5.16	-45.0	-57.4	3.8	1.49e+00	0	59	104	924844032	60	15988
2026-01-13 08:05:41.34	355.79	5.11	-45.1	-57.4	3.8	1.49e+00	0	59	104	924844032	60	16056
2026-01-13 08:05:42.35	355.70	5.05	-45.1	-57.4	3.8	1.49e+00	0	59	104	924844032	60	16037
2026-01-13 08:05:43.36	355.60	5.00	-45.1	-57.4	3.8	1.49e+00	0	59	104	924844032	60	16047
2026-01-13 08:05:44.37	355.50	4.94	-45.1	-57.4	3.8	1.49e+00	0	59	104	924844032	60	16038
2026-01-13 08:05:45.38	355.41	4.89	-45.1	-57.4	3.8	1.49e+00	0	59	104	924844032	60	16067
2026-01-13 08:05:46.39	355.31	4.83	-45.1	-57.4	3.8	1.49e+00	0	59	104	924844032	60	15992
2026-01-13 08:05:47.40	355.22	4.78	-45.1	-57.4	3.8	1.49e+00	0	59	104	924844032	60	16047
2026-01-13 08:05:48.41	355.12	4.72	-45.1	-57.4	3.8	1.49e+00	0	59	104	924844032	60	16046
2026-01-13 08:05:49.41	355.03	4.67	-45.1	-57.4	3.8	1.49e+00	0	59	104	924844032	60	16076
2026-01-13 08:05:50.42	354.93	4.61	-45.1	-57.4	3.8	1.49e+00	0	59	104	924844032	60	16065
2026-01-13 08:05:51.43	354.84	4.56	-45.1	-57.4	3.8	1.49e+00	0	59	104	924844032	60	16058
2026-01-13 08:05:52.44	354.75	4.50	-45.1	-57.4	3.8	1.49e+00	0	59	104	924844032	60	16102
2026-01-13 08:05:53.45	354.65	4.45	-45.1	-57.4	3.8	1.49e+00	0	59	104	924844032	60	16034
2026-01-13 08:05:54.46	354.56	4.39	-45.1	-57.4	3.8	1.49e+00	0	59	104	924844032	60	16061
2026-01-13 08:05:55.47	354.47	4.34	-45.1	-57.4	3.8	1.49e+00	0	59	104	924844032	60	16022
2026-01-13 08:05:56.48	354.38	4.28	-45.1	-57.4	3.8	1.49e+00	0	59	104	924844032	60	16022
2026-01-13 08:05:57.49	354.29	4.23	-45.1	-57.4	3.8	1.49e+00	0	59	104	924844032	60	16021
2026-01-13 08:05:58.50	354.19	4.17	-45.1	-57.4	3.8	1.49e+00	0	59	104	924844032	60	16044
2026-01-13 08:05:59.51	354.10	4.12	-45.1	-57.4	3.8	1.49e+00	0	59	104	924844032	60	16069
2026-01-13 08:06:00.52	354.01	4.06	-45.1	-57.4	3.8	1.49e+00	0	59	104	924844032	60	16047
2026-01-13 08:06:01.52	353.92	4.01	-45.1	-57.4	3.8	1.49e+00	0	59	104	924844032	60	16028
2026-01-13 08:06:02.53	353.83	3.95	-45.1	-57.4	3.8	1.49e+00	0	59	104	924844032	60	16065
2026-01-13 08:06:03.54	353.74	3.90	-45.1	-57.4	3.8	1.49e+00	0	59	104	924844032	60	16059
2026-01-13 08:06:04.55	353.66	3.84	-45.1	-57.4	3.8	1.49e+00	0	59	104	924844032	60	16013
2026-01-13 08:06:05.56	353.57	3.79	-45.1	-57.4	3.8	1.49e+00	0	59	104	924844032	60	16014
2026-01-13 08:06:06.57	353.48	3.73	-45.1	-57.4	3.8	1.49e+00	0	59	104	924844032	60	16000
2026-01-13 08:06:07.59	353.39	3.68	-45.1	-57.4	3.8	1.49e+00	0	59	104	924844032	60	15992
2026-01-13 08:06:08.60	353.30	3.62	-45.0	-57.4	3.8	1.49e+00	0	59	104	924844032	60	16035
2026-01-13 08:06:09.61	353.21	3.57	-45.0	-57.4	3.8	1.49e+00	0	59	104	924844032	60	16058
2026-01-13 08:06:10.61	353.13	3.52	-45.1	-57.4	3.8	1.49e+00	0	59	104	924844032	60	16008
2026-01-13 08:06:11.63	353.04	3.46	-45.1	-57.4	3.8	1.49e+00	0	59	104	924844032	60	16012
2026-01-13 08:06:12.64	352.95	3.41	-45.1	-57.4	3.8	1.49e+00	0	59	104	924844032	60	15989
2026-01-13 08:06:13.64	352.87	3.35	-45.1	-57.4	3.8	1.49e+00	0	59	104	924844032	60	16034
2026-01-13 08:06:14.65	352.78	3.30	-45.1	-57.4	3.8	1.49e+00	0	59	104	924844032	60	15987
2026-01-13 08:06:15.66	352.70	3.25	-45.1	-57.4	3.8	1.49e+00	0	59	104	924844032	60	16014
2026-01-13 08:06:16.67	352.61	3.19	-45.1	-57.4	3.8	1.49e+00	0	59	104	924844032	60	15992
2026-01-13 08:06:17.68	352.53	3.14	-45.0	-57.4	3.8	1.49e+00	0	59	104	924844032	60	16004
2026-01-13 08:06:18.69	352.44	3.08	-45.1	-57.4	3.8	1.49e+00	0	59	104	924844032	60	16024
2026-01-13 08:06:19.71	352.36	3.03	-45.1	-57.4	3.8	1.49e+00	0	59	104	924844032	60	15998
2026-01-13 08:06:20.72	352.27	2.98	-45.0	-57.4	3.8	1.49e+00	0	59	104	924844032	60	15978
2026-01-13 08:06:21.73	352.19	2.92	-45.1	-57.4	3.8	1.49e+00	0	59	104	924844032	60	16007
2026-01-13 08:06:22.74	352.11	2.87	-45.1	-57.4	3.8	1.49e+00	0	59	104	924844032	60	15963
2026-01-13 08:06:23.75	352.02	2.81	-45.1	-57.4	3.8	1.49e+00	0	59	104	924844032	60	16041
2026-01-13 08:06:24.76	351.94	2.76	-45.1	-57.4	3.8	1.49e+00	0	59	104	924844032	60	15965
2026-01-13 08:06:25.77	351.86	2.71	-45.1	-57.4	3.8	1.49e+00	0	59	104	924844032	60	16011
2026-01-13 08:06:26.78	351.78	2.65	-45.1	-57.4	3.8	1.49e+00	0	59	104	924844032	60	16011
2026-01-13 08:06:27.79	351.70	2.60	-45.1	-57.4	3.8	1.49e+00	0	59	104	924844032	60	15989
2026-01-13 08:06:28.80	351.61	2.55	-45.1	-57.4	3.8	1.49e+00	0	59	104	924844032	60	15961
2026-01-13 08:06:29.81	351.53	2.49	-45.1	-57.4	3.8	1.49e+00	0	59	104	924844032	60	16017
2026-01-13 08:06:30.82	351.45	2.44	-45.1	-57.4	3.8	1.49e+00	0	59	104	924844032	60	16015
2026-01-13 08:06:31.83	351.37	2.39	-45.1	-57.4	3.8	1.49e+00	0	59	104	924844032	60	15968
2026-01-13 08:06:32.84	351.29	2.33	-45.1	-57.4	3.8	1.49e+00	0	59	104	924844032	60	15953
2026-01-13 08:06:33.85	351.21	2.28	-44.8	-57.3	3.8	1.49e+00	0	59	104	924844032	60	15936
2026-01-13 08:06:34.86	351.13	2.23	-45.1	-57.4	3.8	1.49e+00	0	59	104	924844032	60	15964
2026-01-13 08:06:35.87	351.05	2.17	-45.1	-57.4	3.8	1.49e+00	0	59	104	924844032	60	16000
2026-01-13 08:06:36.88	350.97	2.12	-45.1	-57.4	3.8	1.49e+00	0	59	104	924844032	60	16061
2026-01-13 08:06:37.89	350.90	2.07	-45.1	-57.4	3.8	1.49e+00	0	59	104	924844032	60	15988
2026-01-13 08:06:38.90	350.82	2.01	-45.1	-57.4	3.8	1.49e+00	0	59	104	924844032	60	15971

#Closed at: 2026-01-13 08:06:39
#Recorded file [924 MB]: D:/lorett/data/31039_260113_105451.dat