passes_logs/2026/01/13/R2.0S_Moscow/R2.0S_Moscow__20260113_142720_FENGYUN_3E_rec.log

#Pass ID: 20260113_142720_FENGYUN 3E
#Satellite: FENGYUN 3E
#Configuration: FENGYUN 3E
#almurnet v.1.7.20251203
#Start time: 2026-01-13 14:27:20

#Version: 2.2.20231116
#Station: R2.0S_Moscow
#Location: 37.707566 lon 55.798166 lat
#TLE: 1 49008U 21062A   26012.89166517 -.00000229  00000+0 -86979-4 0  9993
#TLE: 2 49008  98.7492  18.0449 0001954 141.1957 218.9360 14.19884302234542

#Time	Az	El	Level	Level2	SNR	BER	BlckErr	Temp	State	Recorded	gain1	gain2
2026-01-13 14:27:20.81	168.05	2.04	-44.2	-55.2	3.8	8.48e-01	0	50	0	0	59	12387
2026-01-13 14:27:21.81	168.06	2.10	-44.2	-55.2	3.8	8.46e-01	0	51	104	0	59	12431
2026-01-13 14:27:22.82	168.08	2.17	-44.2	-55.2	3.8	8.46e-01	0	51	104	0	59	12443
2026-01-13 14:27:23.83	168.09	2.23	-44.2	-55.2	3.8	8.46e-01	0	51	104	0	59	12420
2026-01-13 14:27:24.84	168.11	2.30	-44.2	-55.2	3.8	8.47e-01	0	51	104	0	59	12394
2026-01-13 14:27:25.85	168.12	2.36	-44.2	-55.1	3.8	8.47e-01	0	51	104	0	59	12338
2026-01-13 14:27:26.86	168.13	2.43	-44.2	-55.1	3.8	8.46e-01	0	51	104	0	59	12373
2026-01-13 14:27:27.87	168.15	2.49	-44.2	-55.2	3.8	8.46e-01	0	51	104	0	59	12400
2026-01-13 14:27:28.88	168.16	2.56	-44.2	-55.1	3.8	8.46e-01	0	51	104	0	59	12330
2026-01-13 14:27:29.89	168.18	2.62	-44.2	-55.2	3.8	8.47e-01	0	51	104	0	59	12430
2026-01-13 14:27:30.90	168.19	2.69	-44.2	-55.2	3.8	8.47e-01	0	51	104	0	59	12401
2026-01-13 14:27:31.91	168.21	2.76	-44.2	-55.1	3.8	8.47e-01	0	51	104	0	59	12357
2026-01-13 14:27:32.93	168.22	2.82	-44.2	-55.2	3.8	8.46e-01	0	51	104	0	59	12384
2026-01-13 14:27:33.94	168.24	2.89	-44.2	-55.2	3.8	8.45e-01	0	51	104	0	59	12425
2026-01-13 14:27:34.95	168.25	2.96	-44.2	-55.2	3.8	8.48e-01	0	52	104	0	59	12435
2026-01-13 14:27:35.96	168.27	3.02	-44.2	-55.2	3.8	8.45e-01	0	52	104	0	59	12445
2026-01-13 14:27:36.97	168.28	3.09	-44.2	-55.2	3.8	8.45e-01	0	52	104	0	59	12396
2026-01-13 14:27:37.98	168.29	3.16	-44.2	-55.1	3.8	8.47e-01	0	52	104	0	59	12346
2026-01-13 14:27:38.99	168.31	3.23	-44.2	-55.1	3.8	8.46e-01	0	52	104	0	59	12370
2026-01-13 14:27:40.00	168.32	3.29	-44.2	-55.1	3.8	8.46e-01	0	52	104	0	59	12368
2026-01-13 14:27:41.01	168.34	3.36	-44.2	-55.2	3.8	8.46e-01	0	52	104	0	59	12419
2026-01-13 14:27:42.02	168.35	3.43	-44.2	-55.2	3.8	8.46e-01	0	52	104	0	59	12431
2026-01-13 14:27:43.03	168.37	3.50	-44.2	-55.1	3.8	8.46e-01	0	52	104	0	59	12351
2026-01-13 14:27:44.04	168.39	3.57	-44.2	-55.1	3.8	8.46e-01	0	52	104	0	59	12367
2026-01-13 14:27:45.05	168.40	3.63	-44.2	-55.1	3.8	8.45e-01	0	52	104	0	59	12334
2026-01-13 14:27:46.06	168.42	3.70	-44.2	-55.1	3.8	8.45e-01	0	52	104	0	59	12339
2026-01-13 14:27:47.07	168.43	3.77	-44.2	-55.1	3.8	8.46e-01	0	52	104	0	59	12300
2026-01-13 14:27:48.08	168.45	3.84	-44.2	-55.1	3.8	8.45e-01	0	53	104	0	59	12356
2026-01-13 14:27:49.09	168.46	3.91	-44.2	-55.1	3.8	8.45e-01	0	53	104	0	59	12336
2026-01-13 14:27:50.10	168.48	3.98	-44.2	-55.1	3.8	8.47e-01	0	53	104	0	59	12355
2026-01-13 14:27:51.11	168.49	4.05	-44.2	-55.0	3.8	8.46e-01	0	53	104	0	59	12227
2026-01-13 14:27:52.12	168.51	4.12	-44.2	-55.0	3.8	8.46e-01	0	53	104	0	59	12179
2026-01-13 14:27:53.13	168.52	4.19	-44.2	-55.0	3.8	8.45e-01	0	53	104	0	59	12118
2026-01-13 14:27:54.14	168.54	4.26	-44.1	-54.9	3.8	8.46e-01	0	53	104	0	59	11977
2026-01-13 14:27:55.15	168.56	4.33	-44.1	-54.7	3.8	8.46e-01	0	53	104	0	59	11816
2026-01-13 14:27:56.16	168.57	4.40	-44.1	-54.6	3.8	8.45e-01	0	53	104	0	59	11566
2026-01-13 14:27:57.17	168.59	4.47	-44.1	-54.3	3.8	8.47e-01	0	53	104	0	59	11267
2026-01-13 14:27:58.18	168.60	4.54	-44.0	-53.9	3.8	8.47e-01	0	53	104	0	59	10713
2026-01-13 14:27:59.19	168.62	4.61	-44.0	-53.7	3.8	8.45e-01	0	53	104	0	58	11065
2026-01-13 14:28:00.20	168.64	4.68	-43.8	-52.9	3.9	8.45e-01	0	53	104	0	58	10124
2026-01-13 14:28:01.21	168.65	4.75	-43.8	-52.7	3.8	8.44e-01	0	53	104	0	58	9902
2026-01-13 14:28:02.22	168.67	4.83	-43.7	-52.0	4.1	8.44e-01	0	53	104	0	58	9137
2026-01-13 14:28:03.24	168.69	4.90	-43.6	-51.5	4.2	8.37e-01	0	53	0	0	58	8629
2026-01-13 14:28:04.25	168.70	4.97	-43.5	-51.0	4.3	8.33e-01	0	54	0	0	58	8167
2026-01-13 14:28:05.26	168.72	5.04	-43.4	-50.6	4.5	8.18e-01	0	54	0	0	57	8249
2026-01-13 14:28:06.27	168.74	5.11	-43.3	-50.5	4.6	8.15e-01	0	54	0	0	57	8085
2026-01-13 14:28:07.28	168.75	5.19	-43.2	-50.1	4.7	7.91e-01	0	54	0	0	57	7780
2026-01-13 14:28:08.29	168.77	5.26	-43.1	-49.6	5.0	7.83e-01	0	54	0	0	57	7290
2026-01-13 14:28:09.30	168.79	5.33	-43.0	-49.1	5.3	7.45e-01	0	54	0	0	57	6951
2026-01-13 14:28:10.31	168.80	5.41	-43.0	-49.2	5.2	7.54e-01	0	54	0	0	57	6964
2026-01-13 14:28:11.32	168.82	5.48	-42.8	-48.5	5.7	7.00e-01	0	54	0	0	56	6866
2026-01-13 14:28:12.33	168.84	5.55	-42.6	-48.2	5.9	3.96e-01	0	54	0	6291456	56	6572
2026-01-13 14:28:13.34	168.85	5.63	-42.8	-48.6	5.6	6.24e-01	0	54	0	10485760	56	6894
2026-01-13 14:28:14.35	168.87	5.70	-42.6	-48.0	6.1	4.75e-01	0	54	0	15728640	56	6444
2026-01-13 14:28:15.36	168.89	5.77	-42.6	-48.2	5.9	3.47e-01	0	54	0	24117248	56	6642
2026-01-13 14:28:16.37	168.91	5.85	-42.4	-47.7	6.2	3.01e-01	0	54	0	30408704	55	6611
2026-01-13 14:28:17.38	168.92	5.92	-42.6	-48.3	5.8	4.96e-01	0	54	0	36700160	55	7042
2026-01-13 14:28:18.39	168.94	6.00	-42.6	-48.4	5.7	4.87e-01	0	54	0	44040192	55	7178
2026-01-13 14:28:19.40	168.96	6.07	-42.7	-48.7	5.5	7.02e-01	0	54	0	47185920	55	7400
2026-01-13 14:28:20.42	168.98	6.15	-42.5	-48.1	5.9	3.74e-01	0	55	0	53477376	55	6926
2026-01-13 14:28:21.43	168.99	6.22	-42.8	-49.1	5.2	7.20e-01	0	55	0	56623104	55	7725
2026-01-13 14:28:22.44	169.01	6.30	-42.8	-49.2	5.1	7.48e-01	0	55	0	57671680	55	7860
2026-01-13 14:28:23.45	169.03	6.38	-43.0	-49.8	4.8	7.79e-01	0	55	0	57671680	55	8395
2026-01-13 14:28:24.46	169.05	6.45	-43.0	-49.9	4.8	7.95e-01	0	55	0	57671680	55	8531
2026-01-13 14:28:25.47	169.07	6.53	-43.2	-50.6	4.5	8.16e-01	0	55	0	58720256	55	9199
2026-01-13 14:28:26.48	169.08	6.61	-43.5	-51.6	4.2	8.35e-01	0	55	0	58720256	56	9723
2026-01-13 14:28:27.49	169.10	6.68	-43.6	-52.0	4.1	8.38e-01	0	55	0	58720256	56	10199
2026-01-13 14:28:28.50	169.12	6.76	-43.7	-52.6	4.0	8.43e-01	0	55	104	58720256	56	10942
2026-01-13 14:28:29.51	169.14	6.84	-43.7	-52.5	3.9	8.43e-01	0	55	104	58720256	56	10845
2026-01-13 14:28:30.52	169.16	6.91	-43.7	-52.2	4.0	8.44e-01	0	55	104	58720256	57	9921
2026-01-13 14:28:31.54	169.18	6.99	-43.6	-51.8	4.1	8.39e-01	0	55	0	58720256	57	9469
2026-01-13 14:28:32.54	169.19	7.07	-43.4	-50.9	4.4	8.30e-01	0	55	0	58720256	57	8483
2026-01-13 14:28:33.55	169.21	7.15	-43.1	-49.6	5.0	7.91e-01	0	55	0	58720256	57	7309
2026-01-13 14:28:34.57	169.23	7.23	-42.8	-48.6	5.6	7.06e-01	0	55	0	58720256	56	6941
2026-01-13 14:28:35.58	169.25	7.31	-42.3	-47.5	6.3	2.99e-01	0	55	0	65011712	55	6475
2026-01-13 14:28:36.59	169.27	7.38	-41.8	-46.4	7.3	1.77e-01	0	55	0	72351744	54	6042
2026-01-13 14:28:37.60	169.29	7.46	-41.2	-45.2	8.5	5.50e-02	0	55	0	79691776	53	5550
2026-01-13 14:28:38.61	169.31	7.54	-40.9	-44.7	8.9	4.36e-02	0	55	0	87031808	52	5580
2026-01-13 14:28:39.62	169.33	7.62	-40.5	-44.1	9.7	1.33e-02	0	55	0	94371840	51	5479
2026-01-13 14:28:40.63	169.35	7.70	-40.3	-43.6	10.1	8.55e-03	0	55	0	101711872	51	5188
2026-01-13 14:28:41.64	169.37	7.78	-39.8	-42.9	10.9	2.81e-03	0	55	0	108003328	50	5063
2026-01-13 14:28:42.65	169.39	7.86	-40.0	-43.1	10.7	2.76e-03	0	55	0	115343360	50	5217
2026-01-13 14:28:43.66	169.41	7.94	-39.8	-42.9	10.9	2.61e-03	0	55	0	123731968	50	5060
2026-01-13 14:28:44.67	169.43	8.02	-39.7	-42.7	11.1	2.02e-03	0	55	0	130023424	50	4979
2026-01-13 14:28:45.68	169.45	8.11	-41.8	-46.2	7.5	3.68e-03	0	56	0	137363456	53	6272
2026-01-13 14:28:46.69	169.47	8.19	-43.0	-49.0	5.3	4.11e-01	0	56	0	144703488	55	7705
2026-01-13 14:28:47.70	169.49	8.27	-41.8	-45.4	8.5	1.43e-02	0	56	0	148897792	52	6039
2026-01-13 14:28:48.71	169.51	8.35	-42.6	-48.2	6.0	6.11e-01	0	56	0	149946368	56	6575
2026-01-13 14:28:49.72	169.53	8.43	-38.8	-41.4	12.7	2.23e-02	0	56	0	156237824	48	4804
2026-01-13 14:28:50.73	169.55	8.51	-38.8	-41.4	12.7	9.38e-05	0	56	0	163577856	48	4774
2026-01-13 14:28:51.74	169.57	8.60	-38.6	-41.2	12.8	7.89e-05	0	56	0	170917888	48	4685
2026-01-13 14:28:52.75	169.59	8.68	-38.8	-41.5	12.6	7.55e-05	0	56	0	178257920	48	4841
2026-01-13 14:28:53.76	169.61	8.76	-38.4	-41.0	13.1	5.60e-05	0	56	0	185597952	48	4552
2026-01-13 14:28:54.77	169.63	8.85	-38.7	-41.3	12.6	6.40e-05	0	56	0	192937984	47	5009
2026-01-13 14:28:55.78	169.65	8.93	-38.5	-41.1	12.8	4.57e-05	0	56	0	200278016	47	4879
2026-01-13 14:28:56.79	169.67	9.02	-38.5	-41.1	12.8	4.92e-05	0	56	0	207618048	47	4921
2026-01-13 14:28:57.80	169.69	9.10	-38.7	-41.4	12.5	4.69e-05	0	56	0	214958080	47	5053
2026-01-13 14:28:58.81	169.71	9.18	-38.3	-40.8	13.1	2.51e-05	0	56	0	221249536	47	4756
2026-01-13 14:28:59.81	169.73	9.27	-38.3	-40.8	13.0	2.97e-05	0	56	0	229638144	47	4748
2026-01-13 14:29:00.83	169.75	9.35	-38.3	-40.8	13.1	2.40e-05	0	56	0	236978176	47	4754
2026-01-13 14:29:01.84	169.78	9.44	-38.4	-41.0	12.9	2.86e-05	0	56	0	244318208	47	4832
2026-01-13 14:29:02.85	169.80	9.53	-38.4	-40.9	13.1	3.66e-05	0	56	0	250609664	47	4776
2026-01-13 14:29:03.86	169.82	9.61	-38.3	-40.9	13.1	1.60e-05	0	56	0	258998272	47	4772
2026-01-13 14:29:04.87	169.84	9.70	-38.4	-40.9	13.0	2.63e-05	0	56	0	265289728	47	4805
2026-01-13 14:29:05.88	169.86	9.79	-38.4	-41.0	13.0	3.08e-05	0	56	0	272629760	47	4818
2026-01-13 14:29:06.89	169.88	9.87	-38.3	-40.8	13.2	2.28e-05	0	56	0	279969792	47	4737
2026-01-13 14:29:07.90	169.91	9.96	-38.2	-40.7	13.3	1.83e-05	0	56	0	287309824	47	4680
2026-01-13 14:29:08.91	169.93	10.05	-38.5	-41.0	12.9	2.40e-05	0	56	0	294649856	47	4863
2026-01-13 14:29:09.92	169.95	10.14	-38.4	-40.9	13.1	2.74e-05	0	56	0	301989888	47	4803
2026-01-13 14:29:10.93	169.97	10.22	-38.3	-40.8	13.2	1.94e-05	0	56	0	309329920	47	4752
2026-01-13 14:29:11.94	170.00	10.31	-38.3	-40.8	13.2	1.60e-05	0	57	0	316669952	47	4738
2026-01-13 14:29:12.95	170.02	10.40	-38.4	-40.9	13.1	1.60e-05	0	56	0	324009984	47	4780
2026-01-13 14:29:13.96	170.04	10.49	-38.5	-41.0	13.0	2.17e-05	0	56	0	331350016	47	4854
2026-01-13 14:29:14.97	170.06	10.58	-38.4	-40.9	13.1	1.94e-05	0	57	0	338690048	47	4796
2026-01-13 14:29:15.98	170.09	10.67	-38.1	-40.5	13.6	1.14e-05	0	57	0	346030080	47	4581
2026-01-13 14:29:17.00	170.11	10.76	-38.2	-40.6	13.5	5.70e-06	0	57	0	353370112	47	4615
2026-01-13 14:29:18.00	170.13	10.85	-38.1	-40.5	13.6	3.40e-06	0	57	0	360710144	47	4574
2026-01-13 14:29:19.01	170.16	10.94	-38.2	-40.7	13.4	4.50e-06	0	57	0	368050176	47	4658
2026-01-13 14:29:20.02	170.18	11.03	-38.4	-40.8	13.2	1.14e-05	0	57	0	375390208	47	4756
2026-01-13 14:29:21.03	170.21	11.12	-38.4	-40.8	13.3	5.70e-06	0	57	0	382730240	47	4733
2026-01-13 14:29:22.04	170.23	11.22	-38.2	-40.5	13.6	8.00e-06	0	57	0	390070272	47	4582
2026-01-13 14:29:23.05	170.25	11.31	-38.1	-40.5	13.6	6.80e-06	0	57	0	396361728	47	4572
2026-01-13 14:29:24.06	170.28	11.40	-38.3	-40.7	13.4	9.10e-06	0	57	0	404750336	47	4690
2026-01-13 14:29:25.07	170.30	11.49	-38.2	-40.5	13.6	4.50e-06	0	57	0	412090368	47	4578
2026-01-13 14:29:26.08	170.33	11.59	-38.1	-40.5	13.7	6.80e-06	0	57	0	418381824	46	4818
2026-01-13 14:29:27.10	170.35	11.68	-38.3	-40.7	13.5	3.40e-06	0	57	0	425721856	46	4932
2026-01-13 14:29:28.11	170.37	11.78	-38.2	-40.6	13.6	6.80e-06	0	57	0	433061888	46	4897
2026-01-13 14:29:29.12	170.40	11.87	-38.0	-40.3	14.0	5.70e-06	0	57	0	440401920	46	4716
2026-01-13 14:29:30.12	170.42	11.96	-38.0	-40.2	14.0	8.00e-06	0	57	0	447741952	46	4703
2026-01-13 14:29:31.13	170.45	12.06	-38.0	-40.2	14.0	3.40e-06	0	57	0	455081984	46	4685
2026-01-13 14:29:32.14	170.47	12.15	-38.0	-40.2	14.0	3.40e-06	0	57	0	462422016	46	4700
2026-01-13 14:29:33.15	170.50	12.25	-37.8	-40.1	14.1	2.20e-06	0	57	0	469762048	46	4603
2026-01-13 14:29:34.16	170.53	12.35	-37.8	-40.0	14.2	1.10e-06	0	57	0	477102080	46	4572
2026-01-13 14:29:35.17	170.55	12.44	-37.8	-40.1	14.2	1.10e-06	0	57	0	484442112	46	4599
2026-01-13 14:29:36.18	170.58	12.54	-38.1	-40.4	13.9	1.10e-06	0	57	0	491782144	46	4762
2026-01-13 14:29:37.19	170.60	12.64	-38.0	-40.3	14.0	2.20e-06	0	57	0	499122176	46	4713
2026-01-13 14:29:38.20	170.63	12.73	-37.9	-40.1	14.2	1.10e-06	0	57	0	506462208	46	4614
2026-01-13 14:29:39.22	170.66	12.83	-37.8	-40.0	14.3	1.10e-06	0	57	0	513802240	46	4568
2026-01-13 14:29:40.22	170.68	12.93	-37.9	-40.1	14.2	0.00e+00	0	57	0	521142272	46	4625
2026-01-13 14:29:41.23	170.71	13.03	-37.9	-40.1	14.2	3.40e-06	0	57	0	528482304	46	4614
2026-01-13 14:29:42.24	170.74	13.13	-37.7	-39.9	14.4	1.10e-06	0	57	0	535822336	46	4520
2026-01-13 14:29:43.25	170.76	13.23	-37.7	-39.9	14.4	1.10e-06	0	57	0	543162368	46	4520
2026-01-13 14:29:44.27	170.79	13.33	-37.7	-39.9	14.4	0.00e+00	0	57	0	550502400	46	4519
2026-01-13 14:29:45.27	170.82	13.43	-37.9	-40.1	14.3	1.10e-06	0	57	0	557842432	46	4604
2026-01-13 14:29:46.29	170.84	13.53	-37.8	-40.0	14.3	2.20e-06	0	57	0	565182464	46	4596
2026-01-13 14:29:47.30	170.87	13.63	-37.7	-39.8	14.5	1.10e-06	0	57	0	571473920	46	4488
2026-01-13 14:29:48.30	170.90	13.73	-37.6	-39.7	14.6	3.40e-06	0	57	0	578813952	46	4436
2026-01-13 14:29:49.31	170.93	13.84	-37.6	-39.8	14.5	1.10e-06	0	57	0	587202560	46	4450
2026-01-13 14:29:50.32	170.95	13.94	-37.7	-39.8	14.5	0.00e+00	0	58	0	593494016	46	4488
2026-01-13 14:29:51.33	170.98	14.04	-37.7	-39.8	14.5	0.00e+00	0	57	0	600834048	46	4473
2026-01-13 14:29:52.34	171.01	14.15	-37.6	-39.7	14.7	1.10e-06	0	57	0	608174080	46	4410
2026-01-13 14:29:53.35	171.04	14.25	-37.6	-39.7	14.6	1.10e-06	0	58	0	615514112	46	4436
2026-01-13 14:29:54.37	171.07	14.35	-37.5	-39.6	14.7	1.10e-06	0	57	0	622854144	46	4382
2026-01-13 14:29:55.38	171.10	14.46	-37.5	-39.6	14.8	1.10e-06	0	57	0	630194176	45	4616
2026-01-13 14:29:56.38	171.13	14.56	-37.6	-39.7	14.7	0.00e+00	0	57	0	637534208	45	4659
2026-01-13 14:29:57.39	171.16	14.67	-37.4	-39.5	14.9	0.00e+00	0	57	0	644874240	45	4572
2026-01-13 14:29:58.40	171.19	14.78	-37.5	-39.6	14.8	0.00e+00	0	58	0	652214272	45	4615
2026-01-13 14:29:59.41	171.22	14.88	-37.5	-39.6	14.8	0.00e+00	0	58	0	659554304	45	4608
2026-01-13 14:30:00.42	171.25	14.99	-37.5	-39.6	14.8	1.10e-06	0	58	0	666894336	45	4630
2026-01-13 14:30:01.43	171.28	15.10	-37.5	-39.7	14.7	0.00e+00	0	58	0	674234368	45	4660
2026-01-13 14:30:02.44	171.31	15.20	-37.5	-39.6	14.8	1.10e-06	0	58	0	681574400	45	4622
2026-01-13 14:30:03.45	171.34	15.31	-37.4	-39.5	14.9	0.00e+00	0	58	0	688914432	45	4570
2026-01-13 14:30:04.46	171.37	15.42	-37.6	-39.7	14.8	0.00e+00	0	58	0	696254464	45	4662
2026-01-13 14:30:05.47	171.40	15.53	-37.4	-39.5	14.8	1.10e-06	0	58	0	703594496	45	4591
2026-01-13 14:30:06.48	171.43	15.64	-37.5	-39.6	14.8	0.00e+00	0	58	0	710934528	45	4623
2026-01-13 14:30:07.49	171.46	15.75	-37.5	-39.5	14.9	0.00e+00	0	58	0	717225984	45	4590
2026-01-13 14:30:08.50	171.49	15.86	-37.4	-39.4	15.0	0.00e+00	0	58	0	724566016	45	4530
2026-01-13 14:30:09.51	171.52	15.97	-37.3	-39.4	15.0	0.00e+00	0	58	0	732954624	45	4512
2026-01-13 14:30:10.52	171.56	16.09	-37.3	-39.3	15.1	0.00e+00	0	58	0	739246080	45	4461
2026-01-13 14:30:11.53	171.59	16.20	-37.3	-39.3	15.1	0.00e+00	0	58	0	746586112	45	4492
2026-01-13 14:30:12.54	171.62	16.31	-37.2	-39.2	15.2	0.00e+00	0	58	0	753926144	45	4432
2026-01-13 14:30:13.55	171.65	16.43	-37.2	-39.3	15.2	0.00e+00	0	58	0	761266176	45	4448
2026-01-13 14:30:14.56	171.69	16.54	-37.2	-39.2	15.2	0.00e+00	0	58	0	768606208	45	4437
2026-01-13 14:30:15.57	171.72	16.65	-37.2	-39.2	15.2	0.00e+00	0	58	0	775946240	45	4422
2026-01-13 14:30:16.58	171.75	16.77	-37.1	-39.1	15.3	0.00e+00	0	58	0	783286272	45	4384
2026-01-13 14:30:17.59	171.79	16.88	-37.1	-39.1	15.3	0.00e+00	0	58	0	790626304	45	4362
2026-01-13 14:30:18.60	171.82	17.00	-37.0	-39.0	15.4	0.00e+00	0	58	0	797966336	44	4576
2026-01-13 14:30:19.61	171.85	17.12	-36.9	-38.8	15.6	0.00e+00	0	58	0	805306368	44	4483
2026-01-13 14:30:20.62	171.89	17.23	-37.2	-39.2	15.3	0.00e+00	0	58	0	812646400	44	4668
2026-01-13 14:30:21.63	171.92	17.35	-37.1	-39.2	15.3	0.00e+00	0	58	0	819986432	44	4666
2026-01-13 14:30:22.63	171.96	17.47	-36.9	-38.8	15.6	0.00e+00	0	58	0	827326464	44	4472
2026-01-13 14:30:23.65	171.99	17.59	-37.0	-39.0	15.5	0.00e+00	0	58	0	834666496	44	4558
2026-01-13 14:30:24.66	172.03	17.71	-36.9	-38.8	15.6	0.00e+00	0	58	0	842006528	44	4478
2026-01-13 14:30:25.67	172.06	17.83	-36.9	-38.9	15.6	0.00e+00	0	58	0	849346560	44	4510
2026-01-13 14:30:26.68	172.10	17.95	-36.8	-38.8	15.6	0.00e+00	0	58	0	856686592	44	4477
2026-01-13 14:30:27.69	172.13	18.07	-36.8	-38.8	15.6	0.00e+00	0	58	0	864026624	44	4478
2026-01-13 14:30:28.70	172.17	18.19	-36.9	-38.9	15.5	0.00e+00	0	58	0	870318080	44	4536
2026-01-13 14:30:29.70	172.21	18.31	-36.7	-38.7	15.7	0.00e+00	0	58	0	877658112	44	4423
2026-01-13 14:30:30.71	172.24	18.44	-36.6	-38.6	15.8	0.00e+00	0	58	0	886046720	44	4366
2026-01-13 14:30:31.72	172.28	18.56	-36.7	-38.6	15.8	0.00e+00	0	58	0	892338176	44	4389
2026-01-13 14:30:32.73	172.32	18.69	-36.5	-38.5	15.9	0.00e+00	0	58	0	899678208	44	4312
2026-01-13 14:30:33.74	172.36	18.81	-36.6	-38.5	15.9	0.00e+00	0	58	0	907018240	44	4328
2026-01-13 14:30:34.75	172.39	18.94	-36.7	-38.6	15.8	0.00e+00	0	58	0	914358272	44	4379
2026-01-13 14:30:35.76	172.43	19.06	-36.7	-38.6	15.8	0.00e+00	0	58	0	921698304	44	4382
2026-01-13 14:30:36.77	172.47	19.19	-36.7	-38.7	15.7	0.00e+00	0	58	0	929038336	44	4411
2026-01-13 14:30:37.78	172.51	19.32	-36.4	-38.3	15.9	0.00e+00	0	58	0	936378368	43	4492
2026-01-13 14:30:38.79	172.55	19.44	-36.4	-38.3	15.9	0.00e+00	0	58	0	943718400	43	4489
2026-01-13 14:30:39.80	172.59	19.57	-36.2	-38.1	16.1	0.00e+00	0	59	0	951058432	43	4374
2026-01-13 14:30:40.81	172.63	19.70	-36.3	-38.2	16.0	0.00e+00	0	58	0	958398464	43	4436
2026-01-13 14:30:41.82	172.67	19.83	-36.1	-38.0	16.2	0.00e+00	0	58	0	965738496	43	4314
2026-01-13 14:30:42.83	172.71	19.96	-36.1	-38.0	16.2	0.00e+00	0	59	0	973078528	43	4312
2026-01-13 14:30:43.84	172.75	20.09	-36.0	-37.9	16.3	0.00e+00	0	58	0	980418560	43	4268
2026-01-13 14:30:44.85	172.79	20.23	-36.0	-37.9	16.3	0.00e+00	0	59	0	987758592	42	4530
2026-01-13 14:30:45.86	172.83	20.36	-36.0	-37.9	16.3	0.00e+00	0	58	0	995098624	42	4528
2026-01-13 14:30:46.87	172.87	20.49	-35.9	-37.8	16.4	0.00e+00	0	58	0	1002438656	42	4491
2026-01-13 14:30:47.88	172.91	20.63	-36.0	-37.9	16.3	0.00e+00	0	58	0	1009778688	42	4532
2026-01-13 14:30:48.89	172.96	20.76	-35.9	-37.9	16.4	0.00e+00	0	59	0	1016070144	42	4495
2026-01-13 14:30:49.90	173.00	20.90	-35.9	-37.9	16.3	0.00e+00	0	59	0	1023410176	42	4533
2026-01-13 14:30:50.91	173.04	21.03	-35.9	-37.9	16.4	0.00e+00	0	58	0	1031798784	42	4501
2026-01-13 14:30:51.92	173.08	21.17	-35.9	-37.9	16.3	0.00e+00	0	59	0	1038090240	42	4525
2026-01-13 14:30:52.93	173.13	21.31	-35.8	-37.8	16.5	0.00e+00	0	58	0	1045430272	42	4469
2026-01-13 14:30:53.94	173.17	21.45	-35.9	-38.0	16.3	0.00e+00	0	58	0	1052770304	42	4547
2026-01-13 14:30:54.95	173.22	21.59	-35.9	-37.9	16.4	0.00e+00	0	58	0	1060110336	42	4516
2026-01-13 14:30:55.96	173.26	21.73	-35.9	-37.9	16.3	0.00e+00	0	58	0	1067450368	42	4529
2026-01-13 14:30:56.98	173.31	21.87	-35.9	-37.9	16.4	0.00e+00	0	59	0	1074790400	42	4509
2026-01-13 14:30:57.99	173.35	22.01	-35.9	-37.9	16.3	0.00e+00	0	59	0	1082130432	42	4541
2026-01-13 14:30:59.00	173.40	22.15	-35.8	-37.8	16.5	0.00e+00	0	59	0	1089470464	42	4453
2026-01-13 14:31:00.00	173.44	22.29	-35.9	-37.9	16.4	0.00e+00	0	59	0	1096810496	42	4505
2026-01-13 14:31:01.01	173.49	22.44	-35.9	-37.9	16.4	0.00e+00	0	59	0	1104150528	42	4517
2026-01-13 14:31:02.02	173.54	22.58	-35.8	-37.8	16.5	0.00e+00	0	59	0	1111490560	42	4474
2026-01-13 14:31:03.03	173.59	22.73	-35.9	-37.9	16.4	0.00e+00	0	59	0	1118830592	42	4517
2026-01-13 14:31:04.04	173.63	22.88	-35.8	-37.9	16.4	0.00e+00	0	59	0	1126170624	42	4515
2026-01-13 14:31:05.05	173.68	23.02	-35.8	-37.9	16.4	0.00e+00	0	59	0	1133510656	42	4511
2026-01-13 14:31:06.06	173.73	23.17	-35.8	-37.8	16.5	0.00e+00	0	59	0	1140850688	42	4477
2026-01-13 14:31:07.07	173.78	23.32	-35.8	-37.8	16.4	0.00e+00	0	59	0	1148190720	42	4493
2026-01-13 14:31:08.08	173.83	23.47	-35.8	-37.8	16.5	0.00e+00	0	59	0	1155530752	42	4468
2026-01-13 14:31:09.09	173.88	23.62	-35.8	-37.8	16.5	0.00e+00	0	59	0	1162870784	42	4475
2026-01-13 14:31:10.10	173.93	23.77	-35.8	-37.9	16.4	0.00e+00	0	59	0	1169162240	42	4502
2026-01-13 14:31:11.11	173.98	23.92	-35.8	-37.8	16.5	0.00e+00	0	59	0	1177550848	42	4462
2026-01-13 14:31:12.12	174.03	24.08	-35.8	-37.8	16.5	0.00e+00	0	59	0	1184890880	42	4469
2026-01-13 14:31:13.13	174.09	24.23	-35.8	-37.8	16.5	0.00e+00	0	59	0	1191182336	42	4484
2026-01-13 14:31:14.14	174.14	24.39	-35.9	-37.9	16.4	0.00e+00	0	59	0	1198522368	42	4540
2026-01-13 14:31:15.15	174.19	24.54	-35.7	-37.7	16.6	0.00e+00	0	59	0	1205862400	42	4421
2026-01-13 14:31:16.16	174.24	24.70	-35.9	-37.9	16.5	0.00e+00	0	59	0	1213202432	42	4511
2026-01-13 14:31:17.17	174.30	24.86	-35.8	-37.8	16.5	0.00e+00	0	59	0	1220542464	42	4476
2026-01-13 14:31:18.18	174.35	25.01	-35.7	-37.7	16.6	0.00e+00	0	59	0	1227882496	42	4424
2026-01-13 14:31:19.19	174.41	25.17	-35.9	-37.9	16.5	0.00e+00	0	59	0	1235222528	42	4528
2026-01-13 14:31:20.20	174.46	25.33	-35.8	-37.8	16.6	0.00e+00	0	59	0	1242562560	42	4447
2026-01-13 14:31:21.21	174.52	25.50	-35.8	-37.8	16.6	0.00e+00	0	59	0	1249902592	42	4457
2026-01-13 14:31:22.22	174.58	25.66	-35.8	-37.7	16.7	0.00e+00	0	59	0	1257242624	42	4428
2026-01-13 14:31:23.23	174.63	25.82	-35.7	-37.6	16.8	0.00e+00	0	59	0	1264582656	42	4357
2026-01-13 14:31:24.24	174.69	25.99	-35.6	-37.5	16.9	0.00e+00	0	59	0	1271922688	42	4339
2026-01-13 14:31:25.25	174.75	26.15	-35.6	-37.4	16.9	0.00e+00	0	59	0	1279262720	42	4291
2026-01-13 14:31:26.26	174.81	26.32	-35.5	-37.4	17.0	0.00e+00	0	59	0	1286602752	42	4261
2026-01-13 14:31:27.26	174.87	26.48	-35.5	-37.3	17.0	0.00e+00	0	59	0	1293942784	42	4241
2026-01-13 14:31:28.27	174.93	26.65	-35.5	-37.3	17.1	0.00e+00	0	59	0	1301282816	41	4463
2026-01-13 14:31:29.28	174.99	26.82	-35.5	-37.3	17.1	0.00e+00	0	59	0	1308622848	41	4454
2026-01-13 14:31:30.29	175.05	26.99	-35.5	-37.3	17.0	0.00e+00	0	59	0	1314914304	41	4492
2026-01-13 14:31:31.30	175.11	27.16	-35.3	-37.1	17.3	0.00e+00	0	59	0	1322254336	41	4342
2026-01-13 14:31:32.31	175.17	27.33	-35.3	-37.1	17.2	0.00e+00	0	59	0	1330642944	41	4381
2026-01-13 14:31:33.32	175.24	27.51	-35.4	-37.1	17.2	0.00e+00	0	59	0	1336934400	41	4380
2026-01-13 14:31:34.33	175.30	27.68	-35.4	-37.1	17.2	0.00e+00	0	59	0	1344274432	41	4375
2026-01-13 14:31:35.34	175.37	27.86	-35.4	-37.1	17.2	0.00e+00	0	59	0	1351614464	41	4386
2026-01-13 14:31:36.35	175.43	28.03	-35.2	-37.0	17.4	0.00e+00	0	59	0	1358954496	41	4304
2026-01-13 14:31:37.37	175.50	28.21	-35.3	-37.1	17.3	0.00e+00	0	59	0	1366294528	41	4349
2026-01-13 14:31:38.38	175.56	28.39	-35.3	-37.1	17.3	0.00e+00	0	59	0	1373634560	41	4360
2026-01-13 14:31:39.39	175.63	28.57	-35.3	-37.1	17.2	0.00e+00	0	59	0	1380974592	41	4384
2026-01-13 14:31:40.40	175.70	28.75	-35.4	-37.2	17.1	0.00e+00	0	59	0	1388314624	41	4423
2026-01-13 14:31:41.41	175.77	28.94	-35.3	-37.1	17.2	0.00e+00	0	59	0	1395654656	41	4378
2026-01-13 14:31:42.41	175.84	29.12	-35.3	-37.2	17.1	0.00e+00	0	59	0	1402994688	41	4395
2026-01-13 14:31:43.42	175.91	29.30	-35.3	-37.2	17.1	0.00e+00	0	59	0	1410334720	41	4403
2026-01-13 14:31:44.43	175.98	29.49	-35.3	-37.1	17.2	0.00e+00	0	59	0	1417674752	41	4379
2026-01-13 14:31:45.44	176.05	29.68	-35.3	-37.2	17.1	0.00e+00	0	59	0	1425014784	41	4414
2026-01-13 14:31:46.45	176.12	29.86	-35.1	-36.9	17.3	0.00e+00	0	59	0	1432354816	41	4289
2026-01-13 14:31:47.46	176.20	30.05	-35.2	-37.0	17.3	0.00e+00	0	59	0	1439694848	41	4313
2026-01-13 14:31:48.47	176.27	30.24	-35.2	-37.1	17.1	0.00e+00	0	59	0	1447034880	41	4372
2026-01-13 14:31:49.48	176.34	30.44	-35.2	-37.1	17.2	0.00e+00	0	59	0	1454374912	41	4342
2026-01-13 14:31:50.49	176.42	30.63	-35.2	-37.1	17.1	0.00e+00	0	59	0	1461714944	41	4385
2026-01-13 14:31:51.50	176.50	30.82	-35.1	-37.0	17.2	0.00e+00	0	59	0	1468006400	41	4313
2026-01-13 14:31:52.51	176.57	31.02	-35.2	-37.2	17.1	0.00e+00	0	59	0	1476395008	41	4407
2026-01-13 14:31:53.52	176.65	31.22	-35.2	-37.2	17.1	0.00e+00	0	59	0	1483735040	41	4412
2026-01-13 14:31:54.53	176.73	31.41	-35.3	-37.3	17.0	0.00e+00	0	59	0	1490026496	41	4452
2026-01-13 14:31:55.54	176.81	31.61	-35.3	-37.3	17.0	0.00e+00	0	59	0	1497366528	41	4461
2026-01-13 14:31:56.55	176.89	31.81	-35.4	-37.4	16.9	0.00e+00	0	59	0	1504706560	41	4530
2026-01-13 14:31:57.56	176.98	32.02	-35.5	-37.5	16.8	0.00e+00	0	59	0	1512046592	41	4554
2026-01-13 14:31:58.57	177.06	32.22	-35.5	-37.5	16.7	0.00e+00	0	59	0	1519386624	41	4598
2026-01-13 14:31:59.58	177.14	32.42	-35.5	-37.6	16.7	0.00e+00	0	59	0	1526726656	41	4607
2026-01-13 14:32:00.59	177.23	32.63	-35.5	-37.6	16.8	0.00e+00	0	59	0	1534066688	41	4601
2026-01-13 14:32:01.60	177.32	32.84	-35.5	-37.5	16.9	0.00e+00	0	59	0	1541406720	41	4567
2026-01-13 14:32:02.61	177.40	33.05	-35.5	-37.5	16.9	0.00e+00	0	59	0	1548746752	41	4547
2026-01-13 14:32:03.62	177.49	33.26	-35.4	-37.3	17.0	0.00e+00	0	59	0	1556086784	41	4486
2026-01-13 14:32:04.63	177.58	33.47	-35.5	-37.4	17.0	0.00e+00	0	59	0	1563426816	41	4511
2026-01-13 14:32:05.64	177.67	33.68	-35.3	-37.2	17.2	0.00e+00	0	60	0	1570766848	41	4425
2026-01-13 14:32:06.65	177.77	33.90	-35.4	-37.3	17.1	0.00e+00	0	59	0	1578106880	41	4454
2026-01-13 14:32:07.67	177.86	34.11	-35.4	-37.2	17.2	0.00e+00	0	59	0	1585446912	41	4409
2026-01-13 14:32:08.68	177.95	34.33	-35.4	-37.2	17.2	0.00e+00	0	59	0	1592786944	41	4424
2026-01-13 14:32:09.69	178.05	34.55	-35.3	-37.1	17.4	0.00e+00	0	59	0	1600126976	41	4344
2026-01-13 14:32:10.70	178.15	34.77	-35.2	-37.0	17.4	0.00e+00	0	59	0	1607467008	41	4338
2026-01-13 14:32:11.71	178.24	34.99	-35.3	-37.1	17.3	0.00e+00	0	59	0	1614807040	41	4368
2026-01-13 14:32:12.72	178.34	35.21	-35.2	-37.1	17.3	0.00e+00	0	60	0	1622147072	41	4342
2026-01-13 14:32:13.73	178.44	35.44	-35.2	-37.0	17.3	0.00e+00	0	59	0	1629487104	41	4334
2026-01-13 14:32:14.74	178.55	35.66	-35.0	-36.8	17.6	0.00e+00	0	59	0	1635778560	41	4199
2026-01-13 14:32:15.75	178.65	35.89	-35.1	-36.9	17.4	0.00e+00	0	60	0	1643118592	41	4265
2026-01-13 14:32:16.76	178.75	36.12	-35.0	-36.8	17.6	0.00e+00	0	59	0	1651507200	40	4450
2026-01-13 14:32:17.77	178.86	36.35	-35.0	-36.8	17.5	0.00e+00	0	59	0	1657798656	40	4459
2026-01-13 14:32:18.78	178.97	36.58	-35.2	-37.0	17.3	0.00e+00	0	59	0	1665138688	40	4562
2026-01-13 14:32:19.79	179.08	36.82	-35.3	-37.2	17.2	0.00e+00	0	59	0	1672478720	40	4654
2026-01-13 14:32:20.80	179.19	37.05	-35.3	-37.3	17.1	0.00e+00	0	60	0	1679818752	40	4706
2026-01-13 14:32:21.81	179.30	37.29	-35.4	-37.4	16.9	0.00e+00	0	59	0	1687158784	40	4787
2026-01-13 14:32:22.82	179.42	37.53	-35.6	-37.6	16.8	0.00e+00	0	59	0	1694498816	40	4893
2026-01-13 14:32:23.83	179.53	37.77	-35.6	-37.7	16.7	0.00e+00	0	60	0	1701838848	41	4660
2026-01-13 14:32:24.84	179.65	38.01	-35.7	-37.7	16.6	0.00e+00	0	60	0	1709178880	41	4677
2026-01-13 14:32:25.85	179.77	38.25	-35.7	-37.7	16.7	0.00e+00	0	59	0	1716518912	41	4686
2026-01-13 14:32:26.86	179.89	38.50	-35.6	-37.6	16.8	0.00e+00	0	59	0	1723858944	41	4632
2026-01-13 14:32:27.88	180.01	38.75	-35.5	-37.5	16.9	0.00e+00	0	59	0	1731198976	41	4555
2026-01-13 14:32:28.89	180.14	39.00	-35.7	-37.6	16.8	0.00e+00	0	60	0	1738539008	41	4649
2026-01-13 14:32:29.90	180.26	39.25	-35.7	-37.6	16.9	0.00e+00	0	59	0	1745879040	41	4617
2026-01-13 14:32:30.91	180.39	39.50	-35.8	-37.7	16.8	0.00e+00	0	59	0	1753219072	41	4660
2026-01-13 14:32:31.92	180.52	39.75	-35.8	-37.7	16.8	0.00e+00	0	59	0	1760559104	41	4697
2026-01-13 14:32:32.93	180.65	40.01	-35.8	-37.8	16.7	0.00e+00	0	59	0	1767899136	41	4711
2026-01-13 14:32:33.94	180.79	40.26	-35.7	-37.6	17.0	0.00e+00	0	60	0	1775239168	41	4621
2026-01-13 14:32:34.95	180.92	40.52	-35.8	-37.6	17.0	0.00e+00	0	59	0	1782579200	41	4632
2026-01-13 14:32:35.96	181.06	40.78	-35.8	-37.6	16.9	0.00e+00	0	59	0	1789919232	41	4625
2026-01-13 14:32:36.97	181.20	41.04	-35.7	-37.5	17.1	0.00e+00	0	60	0	1797259264	41	4556
2026-01-13 14:32:37.99	181.34	41.31	-35.5	-37.2	17.3	0.00e+00	0	59	0	1804599296	41	4440
2026-01-13 14:32:39.00	181.49	41.57	-35.5	-37.3	17.2	0.00e+00	0	60	0	1810890752	41	4469
2026-01-13 14:32:40.01	181.64	41.84	-35.5	-37.4	17.1	0.00e+00	0	59	0	1818230784	41	4495
2026-01-13 14:32:41.01	181.79	42.11	-35.5	-37.4	17.1	0.00e+00	0	59	0	1826619392	41	4496
2026-01-13 14:32:42.02	181.94	42.38	-35.7	-37.6	16.9	0.00e+00	0	59	0	1832910848	41	4615
2026-01-13 14:32:43.04	182.09	42.65	-35.6	-37.5	17.0	0.00e+00	0	60	0	1840250880	41	4572
2026-01-13 14:32:44.05	182.25	42.93	-35.7	-37.6	16.8	0.00e+00	0	60	0	1847590912	41	4648
2026-01-13 14:32:45.06	182.41	43.20	-35.7	-37.6	16.9	0.00e+00	0	60	0	1854930944	41	4629
2026-01-13 14:32:46.07	182.57	43.48	-35.7	-37.6	16.9	0.00e+00	0	59	0	1862270976	41	4626
2026-01-13 14:32:47.08	182.74	43.76	-35.7	-37.6	16.9	0.00e+00	0	60	0	1869611008	41	4615
2026-01-13 14:32:48.09	182.91	44.04	-35.8	-37.7	16.8	0.00e+00	0	60	0	1876951040	41	4673
2026-01-13 14:32:49.10	183.08	44.32	-36.0	-37.9	16.6	0.00e+00	0	60	0	1884291072	41	4766
2026-01-13 14:32:50.11	183.25	44.61	-36.0	-37.7	16.8	0.00e+00	0	60	0	1891631104	42	4439
2026-01-13 14:32:51.12	183.43	44.89	-36.0	-37.8	16.8	0.00e+00	0	60	0	1898971136	42	4465
2026-01-13 14:32:52.13	183.61	45.18	-36.5	-37.8	17.1	0.00e+00	0	60	0	1906311168	42	4492
2026-01-13 14:32:53.14	183.79	45.47	-36.6	-38.0	17.0	0.00e+00	0	60	0	1913651200	42	4547
2026-01-13 14:32:54.15	183.98	45.76	-36.7	-38.0	16.9	0.00e+00	0	59	0	1920991232	43	4320
2026-01-13 14:32:55.16	184.17	46.06	-36.7	-38.0	16.9	0.00e+00	0	59	0	1928331264	43	4332
2026-01-13 14:32:56.17	184.37	46.35	-36.7	-38.0	16.9	0.00e+00	0	59	0	1935671296	43	4328
2026-01-13 14:32:57.18	184.56	46.65	-37.0	-38.4	16.6	0.00e+00	0	59	0	1943011328	43	4519
2026-01-13 14:32:58.19	184.77	46.95	-37.1	-38.6	16.4	0.00e+00	0	60	0	1950351360	43	4606
2026-01-13 14:32:59.20	184.97	47.25	-37.5	-39.0	16.2	0.00e+00	0	59	0	1957691392	44	4546
2026-01-13 14:33:00.21	185.18	47.55	-37.4	-38.8	16.3	0.00e+00	0	60	0	1965031424	45	4225
2026-01-13 14:33:01.22	185.39	47.85	-37.4	-38.8	16.3	0.00e+00	0	60	0	1972371456	45	4208
2026-01-13 14:33:02.22	185.61	48.16	-37.5	-39.0	16.1	1.10e-06	0	60	0	1979711488	45	4307
2026-01-13 14:33:03.24	185.83	48.47	-37.7	-39.2	15.9	0.00e+00	0	60	0	1986002944	45	4424
2026-01-13 14:33:04.24	186.06	48.77	-37.9	-39.4	15.7	0.00e+00	0	60	0	1993342976	45	4537
2026-01-13 14:33:05.25	186.29	49.08	-37.8	-39.3	15.8	0.00e+00	0	60	0	2000683008	45	4446
2026-01-13 14:33:06.26	186.52	49.40	-37.5	-38.9	16.2	0.00e+00	0	60	0	2008023040	45	4270
2026-01-13 14:33:07.27	186.76	49.71	-37.3	-38.7	16.4	0.00e+00	0	60	0	2015363072	45	4173
2026-01-13 14:33:08.28	187.01	50.03	-37.2	-38.5	16.6	0.00e+00	0	59	0	2022703104	45	4097
2026-01-13 14:33:09.29	187.26	50.35	-37.4	-38.9	16.3	0.00e+00	0	60	0	2030043136	45	4256
2026-01-13 14:33:10.30	187.51	50.66	-37.2	-38.6	16.5	0.00e+00	0	59	0	2037383168	45	4136
2026-01-13 14:33:11.31	187.77	50.99	-37.6	-39.1	16.0	0.00e+00	0	60	0	2044723200	45	4370
2026-01-13 14:33:12.32	188.04	51.31	-37.7	-39.2	15.9	0.00e+00	0	60	0	2052063232	45	4430
2026-01-13 14:33:13.34	188.31	51.64	-37.7	-39.1	16.0	0.00e+00	0	60	0	2059403264	45	4378
2026-01-13 14:33:14.34	188.59	51.96	-37.7	-39.2	15.9	0.00e+00	0	60	0	2066743296	45	4413
2026-01-13 14:33:15.36	188.87	52.29	-38.3	-39.9	15.2	0.00e+00	0	60	0	2074083328	46	4527
2026-01-13 14:33:16.37	189.16	52.62	-37.7	-39.1	15.9	0.00e+00	0	60	0	2081423360	45	4386
2026-01-13 14:33:17.38	189.46	52.95	-37.7	-39.2	16.0	0.00e+00	0	60	0	2088763392	45	4433
2026-01-13 14:33:18.39	189.76	53.28	-37.5	-39.0	16.2	0.00e+00	0	60	0	2096103424	45	4308
2026-01-13 14:33:19.40	190.07	53.61	-37.4	-38.8	16.4	0.00e+00	0	60	0	2103443456	45	4210
2026-01-13 14:33:20.40	190.39	53.94	-38.0	-39.5	15.6	0.00e+00	0	60	0	2109734912	45	4596
2026-01-13 14:33:21.41	190.71	54.28	-37.6	-39.0	16.1	0.00e+00	0	60	0	2118123520	45	4316
2026-01-13 14:33:22.42	191.04	54.61	-37.5	-38.9	16.2	0.00e+00	0	60	0	2125463552	45	4280
2026-01-13 14:33:23.43	191.38	54.95	-37.6	-39.1	16.1	0.00e+00	0	60	0	2131755008	45	4367
2026-01-13 14:33:24.44	191.73	55.29	-37.6	-39.0	16.2	0.00e+00	0	60	0	2139095040	45	4328
2026-01-13 14:33:25.45	192.09	55.63	-37.5	-39.0	16.3	0.00e+00	0	60	0	2146435072	45	4301
2026-01-13 14:33:26.46	192.45	55.97	-37.9	-39.5	15.8	1.10e-06	0	60	0	2153775104	45	4548
2026-01-13 14:33:27.47	192.83	56.32	-37.9	-39.4	15.8	0.00e+00	0	60	0	2161115136	45	4504
2026-01-13 14:33:28.48	193.21	56.66	-37.9	-39.5	15.7	0.00e+00	0	60	0	2168455168	45	4546
2026-01-13 14:33:29.49	193.60	57.00	-37.9	-39.4	15.8	0.00e+00	0	60	0	2175795200	45	4530
2026-01-13 14:33:30.50	194.01	57.35	-37.8	-39.3	15.9	1.10e-06	0	60	0	2183135232	45	4448
2026-01-13 14:33:31.52	194.42	57.70	-38.2	-39.8	15.4	0.00e+00	0	60	0	2190475264	45	4730
2026-01-13 14:33:32.53	194.85	58.04	-37.7	-39.2	16.0	0.00e+00	0	60	0	2197815296	45	4426
2026-01-13 14:33:33.54	195.28	58.39	-37.7	-39.2	16.0	5.70e-06	0	60	0	2205155328	45	4419
2026-01-13 14:33:34.55	195.73	58.74	-37.7	-39.3	15.9	0.00e+00	0	60	0	2212495360	45	4447
2026-01-13 14:33:35.56	196.19	59.08	-37.6	-39.1	16.1	0.00e+00	0	60	0	2219835392	45	4344
2026-01-13 14:33:36.57	196.66	59.43	-36.7	-38.0	17.2	1.10e-06	0	60	0	2227175424	44	4074
2026-01-13 14:33:37.58	197.14	59.78	-37.7	-39.1	16.1	0.00e+00	0	60	0	2234515456	45	4347
2026-01-13 14:33:38.59	197.64	60.13	-37.6	-39.1	16.1	0.00e+00	0	60	0	2241855488	45	4363
2026-01-13 14:33:39.60	198.14	60.48	-37.6	-39.0	16.2	0.00e+00	0	60	0	2249195520	45	4326
2026-01-13 14:33:40.61	198.67	60.83	-37.4	-38.8	16.4	0.00e+00	0	60	0	2256535552	45	4212
2026-01-13 14:33:41.62	199.21	61.17	-36.9	-38.1	17.0	0.00e+00	0	60	0	2263875584	44	4140
2026-01-13 14:33:42.63	199.76	61.52	-37.0	-38.4	16.9	0.00e+00	0	60	0	2271215616	44	4250
2026-01-13 14:33:43.63	200.32	61.86	-37.2	-38.5	16.7	0.00e+00	0	60	0	2278555648	44	4332
2026-01-13 14:33:44.65	200.91	62.21	-37.2	-38.6	16.6	0.00e+00	0	60	0	2284847104	44	4378
2026-01-13 14:33:45.66	201.51	62.56	-37.1	-38.5	16.8	0.00e+00	0	60	0	2293235712	44	4299
2026-01-13 14:33:46.67	202.13	62.90	-36.7	-38.0	17.2	0.00e+00	0	60	0	2300575744	44	4090
2026-01-13 14:33:47.68	202.77	63.25	-36.9	-38.2	17.1	1.10e-06	0	60	0	2306867200	44	4160
2026-01-13 14:33:48.69	203.42	63.59	-36.9	-38.2	17.0	0.00e+00	0	60	0	2314207232	44	4162
2026-01-13 14:33:49.70	204.10	63.93	-37.0	-38.4	16.8	0.00e+00	0	60	0	2321547264	44	4254
2026-01-13 14:33:50.70	204.78	64.26	-37.0	-38.4	16.8	1.10e-06	0	60	0	2328887296	44	4244
2026-01-13 14:33:51.71	205.50	64.60	-36.7	-37.9	17.2	0.00e+00	0	60	0	2336227328	44	4048
2026-01-13 14:33:52.72	206.24	64.94	-36.3	-37.6	17.4	0.00e+00	0	60	0	2343567360	43	4114
2026-01-13 14:33:53.73	206.99	65.27	-36.2	-37.5	17.5	0.00e+00	0	60	0	2350907392	43	4055
2026-01-13 14:33:54.74	207.77	65.60	-36.1	-37.4	17.6	0.00e+00	0	60	0	2358247424	43	4011
2026-01-13 14:33:55.75	208.58	65.93	-36.3	-37.6	17.4	0.00e+00	0	60	0	2365587456	43	4127
2026-01-13 14:33:56.76	209.41	66.25	-36.1	-37.4	17.6	0.00e+00	0	60	0	2372927488	43	4014
2026-01-13 14:33:57.77	210.26	66.57	-35.9	-37.1	17.9	0.00e+00	0	60	0	2380267520	42	4110
2026-01-13 14:33:58.79	211.15	66.89	-36.0	-37.3	17.7	0.00e+00	0	60	0	2387607552	42	4200
2026-01-13 14:33:59.80	212.05	67.20	-36.1	-37.4	17.6	0.00e+00	0	60	0	2394947584	42	4245
2026-01-13 14:34:00.81	212.99	67.51	-36.0	-37.3	17.7	0.00e+00	0	60	0	2402287616	42	4194
2026-01-13 14:34:01.82	213.95	67.82	-36.2	-37.5	17.5	0.00e+00	0	60	0	2409627648	42	4292
2026-01-13 14:34:02.83	214.94	68.12	-36.3	-37.6	17.4	0.00e+00	0	60	0	2416967680	42	4350
2026-01-13 14:34:03.84	215.95	68.41	-36.4	-37.7	17.3	0.00e+00	0	60	0	2424307712	42	4412
2026-01-13 14:34:04.85	217.00	68.70	-36.4	-37.7	17.3	0.00e+00	0	60	0	2430599168	42	4411
2026-01-13 14:34:05.86	218.08	68.98	-36.2	-37.5	17.5	0.00e+00	0	60	0	2438987776	42	4302
2026-01-13 14:34:06.87	219.20	69.26	-36.2	-37.5	17.5	0.00e+00	0	60	0	2446327808	42	4309
2026-01-13 14:34:07.88	220.34	69.53	-36.0	-37.2	17.8	1.10e-06	0	60	0	2452619264	42	4166
2026-01-13 14:34:08.89	221.51	69.79	-36.1	-37.3	17.6	0.00e+00	0	60	0	2459959296	42	4238
2026-01-13 14:34:09.90	222.72	70.05	-36.6	-37.9	17.1	0.00e+00	0	60	0	2467299328	42	4517
2026-01-13 14:34:10.91	223.96	70.30	-36.5	-37.9	17.1	0.00e+00	0	60	0	2474639360	42	4500
2026-01-13 14:34:11.92	225.24	70.54	-36.4	-37.7	17.2	0.00e+00	0	60	0	2481979392	42	4436
2026-01-13 14:34:12.93	226.55	70.77	-36.3	-37.5	17.4	0.00e+00	0	60	0	2489319424	42	4338
2026-01-13 14:34:13.94	227.89	70.99	-36.2	-37.4	17.4	0.00e+00	0	60	0	2496659456	42	4281
2026-01-13 14:34:14.95	229.26	71.21	-36.3	-37.6	17.4	0.00e+00	0	60	0	2503999488	42	4373
2026-01-13 14:34:15.96	230.67	71.41	-36.3	-37.5	17.4	0.00e+00	0	60	0	2511339520	42	4338
2026-01-13 14:34:16.97	232.10	71.60	-36.2	-37.5	17.5	0.00e+00	0	60	0	2518679552	42	4312
2026-01-13 14:34:17.98	233.57	71.78	-36.3	-37.6	17.4	0.00e+00	0	60	0	2526019584	42	4369
2026-01-13 14:34:18.99	235.07	71.95	-36.4	-37.7	17.2	0.00e+00	0	60	0	2533359616	42	4428
2026-01-13 14:34:20.00	236.60	72.11	-36.3	-37.6	17.4	0.00e+00	0	60	0	2540699648	43	4118
2026-01-13 14:34:21.01	238.16	72.26	-36.4	-37.7	17.3	0.00e+00	0	60	0	2548039680	43	4155
2026-01-13 14:34:22.02	239.74	72.39	-36.4	-37.8	17.2	0.00e+00	0	60	0	2555379712	43	4196
2026-01-13 14:34:23.02	241.33	72.51	-36.2	-37.5	17.4	0.00e+00	0	60	0	2562719744	43	4076
2026-01-13 14:34:24.04	242.97	72.62	-36.0	-37.2	17.8	0.00e+00	0	60	0	2570059776	42	4169
2026-01-13 14:34:25.04	244.61	72.72	-36.0	-37.2	17.8	0.00e+00	0	60	0	2577399808	42	4170
2026-01-13 14:34:26.06	246.29	72.80	-36.1	-37.3	17.6	0.00e+00	0	60	0	2583691264	42	4228
2026-01-13 14:34:27.06	247.95	72.87	-36.2	-37.4	17.5	0.00e+00	0	60	0	2592079872	42	4268
2026-01-13 14:34:28.08	249.67	72.92	-36.2	-37.4	17.5	0.00e+00	0	60	0	2599419904	42	4279
2026-01-13 14:34:29.09	251.37	72.96	-36.2	-37.5	17.4	0.00e+00	0	60	0	2605711360	42	4310
2026-01-13 14:34:30.09	253.06	72.99	-36.3	-37.6	17.3	0.00e+00	0	60	0	2613051392	42	4374
2026-01-13 14:34:31.11	254.79	73.00	-36.4	-37.7	17.2	0.00e+00	0	60	0	2620391424	42	4394
2026-01-13 14:34:32.12	256.51	72.99	-36.3	-37.6	17.3	1.10e-06	0	60	0	2627731456	42	4357
2026-01-13 14:34:33.13	258.22	72.97	-36.3	-37.6	17.4	1.10e-06	0	60	0	2635071488	42	4369
2026-01-13 14:34:34.14	259.93	72.94	-36.3	-37.6	17.4	0.00e+00	0	60	0	2642411520	42	4343
2026-01-13 14:34:35.15	261.63	72.90	-36.2	-37.5	17.4	2.20e-06	0	60	0	2649751552	42	4294
2026-01-13 14:34:36.16	263.32	72.83	-36.4	-37.7	17.3	0.00e+00	0	60	0	2657091584	42	4396
2026-01-13 14:34:37.17	264.99	72.76	-36.4	-37.7	17.3	0.00e+00	0	60	0	2664431616	42	4409
2026-01-13 14:34:38.18	266.65	72.67	-36.3	-37.6	17.3	0.00e+00	0	60	0	2671771648	42	4375
2026-01-13 14:34:39.19	268.29	72.57	-36.1	-37.4	17.5	1.10e-06	0	60	0	2679111680	42	4255
2026-01-13 14:34:40.20	269.91	72.45	-36.1	-37.3	17.5	0.00e+00	0	60	0	2686451712	42	4229
2026-01-13 14:34:41.21	271.50	72.33	-36.1	-37.4	17.6	0.00e+00	0	60	0	2693791744	42	4259
2026-01-13 14:34:42.22	273.07	72.19	-36.1	-37.3	17.6	2.86e-05	0	60	0	2701131776	42	4219
2026-01-13 14:34:43.23	274.61	72.03	-36.2	-37.4	17.5	0.00e+00	0	60	0	2708471808	42	4277
2026-01-13 14:34:44.24	276.12	71.87	-36.4	-37.7	17.3	2.40e-05	0	60	0	2715811840	42	4400
2026-01-13 14:34:45.25	277.60	71.69	-36.5	-37.8	17.2	0.00e+00	0	60	0	2723151872	42	4451
2026-01-13 14:34:46.26	279.06	71.51	-36.4	-37.7	17.2	0.00e+00	0	60	0	2730491904	42	4429
2026-01-13 14:34:47.27	280.48	71.31	-36.3	-37.5	17.4	0.00e+00	0	60	0	2737831936	42	4321
2026-01-13 14:34:48.28	281.87	71.10	-36.1	-37.3	17.6	0.00e+00	0	60	0	2745171968	42	4238
2026-01-13 14:34:49.29	283.22	70.88	-36.2	-37.4	17.5	0.00e+00	0	60	0	2751463424	42	4277
2026-01-13 14:34:50.30	284.55	70.66	-36.3	-37.6	17.4	0.00e+00	0	60	0	2758803456	42	4343
2026-01-13 14:34:51.31	285.84	70.42	-36.6	-37.9	17.0	0.00e+00	0	60	0	2766143488	42	4518
2026-01-13 14:34:52.32	287.09	70.18	-36.7	-38.1	16.9	1.10e-06	0	60	0	2773483520	43	4347
2026-01-13 14:34:53.32	288.30	69.93	-36.5	-37.8	17.1	0.00e+00	0	60	0	2780823552	43	4228
2026-01-13 14:34:54.33	289.49	69.67	-36.3	-37.5	17.4	1.10e-06	0	60	0	2788163584	43	4094
2026-01-13 14:34:55.34	290.65	69.40	-36.4	-37.7	17.2	0.00e+00	0	60	0	2795503616	43	4149
2026-01-13 14:34:56.36	291.79	69.13	-36.2	-37.5	17.5	0.00e+00	0	60	0	2802843648	43	4054
2026-01-13 14:34:57.36	292.87	68.85	-36.2	-37.4	17.5	2.20e-06	0	60	0	2810183680	43	4045
2026-01-13 14:34:58.37	293.94	68.56	-36.1	-37.3	17.6	0.00e+00	0	60	0	2817523712	43	3980
2026-01-13 14:34:59.38	294.97	68.27	-36.1	-37.3	17.7	1.10e-06	0	60	0	2824863744	42	4215
2026-01-13 14:35:00.39	295.98	67.98	-36.0	-37.2	17.8	0.00e+00	0	60	0	2832203776	42	4167
2026-01-13 14:35:01.40	296.95	67.68	-36.0	-37.2	17.8	0.00e+00	0	60	0	2839543808	42	4172
2026-01-13 14:35:02.41	297.90	67.37	-35.9	-37.1	17.8	0.00e+00	0	60	0	2846883840	42	4101
2026-01-13 14:35:03.42	298.81	67.06	-36.1	-37.3	17.6	0.00e+00	0	60	0	2854223872	42	4228
2026-01-13 14:35:04.43	299.71	66.74	-36.2	-37.4	17.5	7.66e-05	0	60	0	2861563904	42	4277
2026-01-13 14:35:05.44	300.57	66.43	-36.3	-37.5	17.5	0.00e+00	0	60	0	2868903936	42	4335
2026-01-13 14:35:06.45	301.41	66.10	-36.2	-37.5	17.5	0.00e+00	0	60	0	2876243968	42	4311
2026-01-13 14:35:07.46	302.23	65.78	-36.2	-37.5	17.5	0.00e+00	0	60	0	2883584000	42	4301
2026-01-13 14:35:08.47	303.02	65.45	-36.2	-37.4	17.6	0.00e+00	0	60	0	2890924032	42	4279
2026-01-13 14:35:09.48	303.79	65.12	-36.3	-37.6	17.4	0.00e+00	0	60	0	2898264064	42	4348
2026-01-13 14:35:10.49	304.53	64.79	-36.1	-37.3	17.7	1.14e-05	0	60	0	2904555520	42	4218
2026-01-13 14:35:11.51	305.27	64.45	-36.1	-37.3	17.7	0.00e+00	0	60	0	2911895552	42	4213
2026-01-13 14:35:12.52	305.97	64.11	-36.2	-37.4	17.5	1.10e-06	0	60	0	2920284160	42	4284
2026-01-13 14:35:13.53	306.65	63.78	-36.5	-37.8	17.3	0.00e+00	0	60	0	2926575616	42	4458
2026-01-13 14:35:14.54	307.32	63.44	-36.6	-37.9	17.1	0.00e+00	0	60	0	2933915648	42	4499
2026-01-13 14:35:15.55	307.96	63.09	-36.7	-38.0	17.0	0.00e+00	0	60	0	2941255680	43	4319
2026-01-13 14:35:16.56	308.59	62.75	-36.6	-37.9	17.1	0.00e+00	0	60	0	2948595712	43	4266
2026-01-13 14:35:17.57	309.20	62.41	-36.7	-38.0	17.0	0.00e+00	0	60	0	2955935744	43	4338
2026-01-13 14:35:18.58	309.79	62.06	-36.9	-38.2	16.8	0.00e+00	0	60	0	2963275776	43	4439
2026-01-13 14:35:19.59	310.37	61.72	-36.8	-38.1	16.8	6.80e-06	0	60	0	2970615808	43	4377
2026-01-13 14:35:20.60	310.93	61.37	-37.0	-38.3	16.7	2.20e-06	0	60	0	2977955840	43	4488
2026-01-13 14:35:21.61	311.47	61.02	-37.1	-38.4	16.5	0.00e+00	0	60	0	2985295872	43	4537
2026-01-13 14:35:22.62	312.00	60.68	-37.4	-38.8	16.4	0.00e+00	0	60	0	2992635904	44	4444
2026-01-13 14:35:23.63	312.52	60.33	-37.3	-38.7	16.5	0.00e+00	0	60	0	2999975936	44	4394
2026-01-13 14:35:24.64	313.02	59.98	-37.4	-38.8	16.4	0.00e+00	0	60	0	3007315968	44	4477
2026-01-13 14:35:25.65	313.51	59.63	-37.6	-39.0	16.2	0.00e+00	0	60	0	3014656000	44	4553
2026-01-13 14:35:26.66	313.99	59.29	-37.6	-39.0	16.2	0.00e+00	0	60	0	3021996032	44	4570
2026-01-13 14:35:27.67	314.45	58.94	-37.8	-39.2	16.0	0.00e+00	0	60	0	3029336064	45	4421
2026-01-13 14:35:28.68	314.90	58.59	-37.8	-39.3	15.9	0.00e+00	0	60	0	3036676096	45	4445
2026-01-13 14:35:29.69	315.34	58.25	-37.8	-39.3	15.9	0.00e+00	0	60	0	3044016128	45	4457
2026-01-13 14:35:30.70	315.77	57.90	-37.9	-39.3	15.8	0.00e+00	0	60	0	3050307584	45	4493
2026-01-13 14:35:31.71	316.19	57.56	-37.9	-39.4	15.8	0.00e+00	0	60	0	3058696192	45	4527
2026-01-13 14:35:32.72	316.60	57.21	-38.0	-39.5	15.6	0.00e+00	0	60	0	3066036224	45	4584
2026-01-13 14:35:33.73	316.99	56.87	-38.0	-39.6	15.6	0.00e+00	0	60	0	3072327680	45	4608
2026-01-13 14:35:34.74	317.38	56.53	-37.9	-39.4	15.8	0.00e+00	0	60	0	3079667712	45	4512
2026-01-13 14:35:35.75	317.76	56.19	-37.7	-39.1	16.1	0.00e+00	0	60	0	3087007744	45	4384
2026-01-13 14:35:36.76	318.13	55.85	-37.5	-38.9	16.3	0.00e+00	0	60	0	3094347776	45	4271
2026-01-13 14:35:37.77	318.49	55.51	-37.4	-38.7	16.4	0.00e+00	0	60	0	3101687808	45	4182
2026-01-13 14:35:38.78	318.84	55.17	-37.4	-38.8	16.4	0.00e+00	0	60	0	3109027840	45	4241
2026-01-13 14:35:39.79	319.19	54.83	-37.4	-38.8	16.4	0.00e+00	0	60	0	3116367872	45	4210
2026-01-13 14:35:40.80	319.52	54.49	-37.3	-38.6	16.6	0.00e+00	0	60	0	3123707904	45	4136
2026-01-13 14:35:41.81	319.85	54.16	-37.2	-38.6	16.6	0.00e+00	0	60	0	3131047936	45	4108
2026-01-13 14:35:42.82	320.17	53.82	-37.2	-38.6	16.6	0.00e+00	0	60	0	3138387968	45	4119
2026-01-13 14:35:43.83	320.49	53.49	-37.3	-38.6	16.6	0.00e+00	0	60	0	3145728000	45	4141
2026-01-13 14:35:44.84	320.79	53.16	-37.2	-38.6	16.6	0.00e+00	0	60	0	3153068032	45	4109
2026-01-13 14:35:45.85	321.09	52.83	-37.3	-38.6	16.5	0.00e+00	0	60	0	3160408064	45	4125
2026-01-13 14:35:46.86	321.39	52.50	-37.3	-38.6	16.6	0.00e+00	0	60	0	3167748096	45	4139
2026-01-13 14:35:47.88	321.68	52.17	-37.4	-38.8	16.3	0.00e+00	0	60	0	3175088128	45	4196
2026-01-13 14:35:48.89	321.96	51.85	-37.4	-38.8	16.3	0.00e+00	0	60	0	3182428160	45	4214
2026-01-13 14:35:49.90	322.23	51.52	-37.6	-39.0	16.2	0.00e+00	0	60	0	3189768192	45	4302
2026-01-13 14:35:50.91	322.50	51.20	-37.5	-38.9	16.3	0.00e+00	0	60	0	3197108224	45	4252
2026-01-13 14:35:51.92	322.76	50.88	-37.5	-38.9	16.3	0.00e+00	0	60	0	3204448256	45	4282
2026-01-13 14:35:52.93	323.02	50.56	-37.6	-39.1	15.7	0.00e+00	0	60	0	3211788288	45	4348
2026-01-13 14:35:53.94	323.27	50.25	-37.4	-38.7	16.4	0.00e+00	0	60	0	3219128320	45	4190
2026-01-13 14:35:54.95	323.52	49.93	-37.4	-38.8	16.4	0.00e+00	0	60	0	3225419776	45	4196
2026-01-13 14:35:55.96	323.76	49.62	-37.5	-38.9	16.3	0.00e+00	0	60	0	3233808384	45	4284
2026-01-13 14:35:56.97	324.00	49.30	-37.6	-39.1	16.1	0.00e+00	0	60	0	3241148416	45	4350
2026-01-13 14:35:57.98	324.24	48.99	-37.7	-39.2	15.9	0.00e+00	0	60	0	3247439872	45	4425
2026-01-13 14:35:58.99	324.46	48.68	-37.6	-39.0	16.2	0.00e+00	0	60	0	3254779904	45	4308
2026-01-13 14:36:00.00	324.69	48.38	-37.5	-38.9	16.3	0.00e+00	0	60	0	3262119936	45	4271
2026-01-13 14:36:01.01	324.91	48.07	-37.4	-38.7	16.4	0.00e+00	0	60	0	3269459968	45	4191
2026-01-13 14:36:02.01	325.12	47.77	-37.1	-38.5	16.7	0.00e+00	0	60	0	3276800000	45	4064
2026-01-13 14:36:03.02	325.33	47.47	-37.0	-38.3	16.8	0.00e+00	0	60	0	3284140032	45	3989
2026-01-13 14:36:04.04	325.54	47.16	-37.1	-38.4	16.8	0.00e+00	0	60	0	3291480064	44	4276
2026-01-13 14:36:05.04	325.74	46.87	-37.2	-38.6	16.6	0.00e+00	0	60	0	3298820096	44	4352
2026-01-13 14:36:06.05	325.94	46.57	-37.2	-38.6	16.6	0.00e+00	0	60	0	3306160128	44	4345
2026-01-13 14:36:07.06	326.14	46.28	-37.3	-38.7	16.6	0.00e+00	0	60	0	3313500160	44	4394
2026-01-13 14:36:08.07	326.33	45.98	-37.0	-38.3	16.9	0.00e+00	0	60	0	3320840192	44	4223
2026-01-13 14:36:09.09	326.52	45.69	-36.9	-38.2	17.0	0.00e+00	0	60	0	3328180224	44	4187
2026-01-13 14:36:10.10	326.71	45.40	-36.7	-38.0	17.2	0.00e+00	0	60	0	3335520256	44	4089
2026-01-13 14:36:11.11	326.89	45.11	-36.6	-37.9	17.3	0.00e+00	0	60	0	3342860288	44	4015
2026-01-13 14:36:12.12	327.07	44.83	-36.3	-37.5	17.5	0.00e+00	0	60	0	3350200320	43	4075
2026-01-13 14:36:13.13	327.24	44.54	-36.1	-37.3	17.7	0.00e+00	0	60	0	3357540352	43	3982
2026-01-13 14:36:14.14	327.42	44.26	-36.2	-37.4	17.3	0.00e+00	0	60	0	3364880384	42	4255
2026-01-13 14:36:15.14	327.58	43.98	-36.1	-37.3	17.6	0.00e+00	0	60	0	3371171840	42	4229
2026-01-13 14:36:16.16	327.75	43.70	-36.2	-37.4	17.6	0.00e+00	0	60	0	3379560448	42	4258
2026-01-13 14:36:17.16	327.92	43.42	-36.2	-37.5	17.6	0.00e+00	0	60	0	3386900480	42	4295
2026-01-13 14:36:18.17	328.08	43.15	-36.3	-37.6	17.4	0.00e+00	0	60	0	3393191936	42	4361
2026-01-13 14:36:19.18	328.24	42.87	-36.2	-37.4	17.4	0.00e+00	0	60	0	3400531968	42	4271
2026-01-13 14:36:20.20	328.39	42.60	-36.2	-37.5	17.6	0.00e+00	0	60	0	3407872000	42	4306
2026-01-13 14:36:21.20	328.55	42.33	-36.2	-37.4	17.6	0.00e+00	0	60	0	3415212032	42	4267
2026-01-13 14:36:22.21	328.70	42.06	-36.1	-37.3	17.7	0.00e+00	0	60	0	3422552064	42	4241
2026-01-13 14:36:23.22	328.85	41.80	-36.0	-37.3	17.8	0.00e+00	0	60	0	3429892096	42	4196
2026-01-13 14:36:24.23	328.99	41.53	-36.0	-37.2	17.6	0.00e+00	0	60	0	3437232128	42	4177
2026-01-13 14:36:25.24	329.14	41.27	-35.9	-37.1	17.7	0.00e+00	0	60	0	3444572160	42	4115
2026-01-13 14:36:26.25	329.28	41.01	-35.9	-37.1	17.9	0.00e+00	0	60	0	3451912192	42	4102
2026-01-13 14:36:27.27	329.42	40.74	-35.9	-37.1	17.9	0.00e+00	0	60	0	3459252224	42	4102
2026-01-13 14:36:28.28	329.56	40.49	-35.9	-37.1	17.9	0.00e+00	0	60	0	3466592256	42	4125
2026-01-13 14:36:29.29	329.69	40.23	-35.9	-37.1	17.8	0.00e+00	0	60	0	3473932288	42	4136
2026-01-13 14:36:30.30	329.83	39.97	-36.0	-37.2	17.8	0.00e+00	0	60	0	3481272320	42	4176
2026-01-13 14:36:31.31	329.96	39.72	-36.0	-37.2	17.8	0.00e+00	0	60	0	3488612352	42	4163
2026-01-13 14:36:32.32	330.09	39.47	-35.9	-37.1	17.8	0.00e+00	0	60	0	3495952384	42	4145
2026-01-13 14:36:33.33	330.21	39.22	-36.0	-37.2	17.8	0.00e+00	0	60	0	3503292416	42	4177
2026-01-13 14:36:34.33	330.34	38.97	-35.9	-37.1	17.7	0.00e+00	0	60	0	3510632448	42	4125
2026-01-13 14:36:35.35	330.46	38.73	-35.9	-37.2	17.8	0.00e+00	0	60	0	3517972480	42	4151
2026-01-13 14:36:36.36	330.59	38.48	-36.0	-37.2	17.7	0.00e+00	0	60	0	3525312512	42	4192
2026-01-13 14:36:37.37	330.71	38.24	-36.1	-37.3	17.7	0.00e+00	0	60	0	3532652544	42	4227
2026-01-13 14:36:38.38	330.82	38.00	-36.2	-37.4	17.5	0.00e+00	0	60	0	3539992576	42	4275
2026-01-13 14:36:39.39	330.94	37.76	-36.3	-37.5	17.5	0.00e+00	0	60	0	3546284032	42	4318
2026-01-13 14:36:40.40	331.06	37.52	-36.3	-37.5	17.4	0.00e+00	0	60	0	3553624064	42	4335
2026-01-13 14:36:41.40	331.17	37.28	-36.3	-37.6	17.4	0.00e+00	0	60	0	3560964096	42	4341
2026-01-13 14:36:42.42	331.28	37.05	-36.3	-37.5	17.4	0.00e+00	0	60	0	3568304128	42	4314
2026-01-13 14:36:43.43	331.39	36.81	-36.2	-37.5	17.5	0.00e+00	0	60	0	3575644160	42	4296
2026-01-13 14:36:44.44	331.50	36.58	-36.1	-37.3	17.6	0.00e+00	0	60	0	3582984192	42	4224
2026-01-13 14:36:45.45	331.61	36.35	-36.1	-37.3	17.6	0.00e+00	0	60	0	3590324224	42	4230
2026-01-13 14:36:46.46	331.71	36.12	-36.0	-37.2	17.7	0.00e+00	0	60	0	3597664256	42	4160
2026-01-13 14:36:47.47	331.82	35.89	-35.9	-37.1	17.8	0.00e+00	0	60	0	3605004288	42	4101
2026-01-13 14:36:48.48	331.92	35.67	-35.8	-37.0	18.0	0.00e+00	0	60	0	3612344320	42	4058
2026-01-13 14:36:49.49	332.02	35.44	-35.6	-36.8	18.2	0.00e+00	0	60	0	3619684352	42	3964
2026-01-13 14:36:50.50	332.12	35.22	-35.6	-36.8	18.2	0.00e+00	0	60	0	3627024384	42	3962
2026-01-13 14:36:51.51	332.22	35.00	-35.6	-36.7	18.2	0.00e+00	0	60	0	3634364416	42	3957
2026-01-13 14:36:52.52	332.32	34.78	-35.6	-36.8	18.2	0.00e+00	0	60	0	3641704448	42	3962
2026-01-13 14:36:53.53	332.42	34.56	-35.6	-36.8	18.1	0.00e+00	0	60	0	3649044480	42	3994
2026-01-13 14:36:54.54	332.51	34.34	-35.6	-36.8	18.1	0.00e+00	0	60	0	3656384512	42	3999
2026-01-13 14:36:55.55	332.61	34.13	-35.6	-36.8	18.1	0.00e+00	0	60	0	3663724544	42	4001
2026-01-13 14:36:56.56	332.70	33.91	-35.7	-36.9	18.1	0.00e+00	0	60	0	3671064576	42	4012
2026-01-13 14:36:57.57	332.79	33.70	-35.7	-36.9	18.0	0.00e+00	0	60	0	3678404608	42	4027
2026-01-13 14:36:58.58	332.88	33.49	-35.7	-37.0	17.9	0.00e+00	0	60	0	3685744640	42	4056
2026-01-13 14:36:59.59	332.97	33.28	-35.7	-36.9	18.0	0.00e+00	0	60	0	3692036096	42	4034
2026-01-13 14:37:00.60	333.06	33.07	-35.7	-36.9	18.0	0.00e+00	0	60	0	3699376128	42	4027
2026-01-13 14:37:01.61	333.15	32.86	-35.7	-36.9	17.9	0.00e+00	0	60	0	3707764736	42	4043
2026-01-13 14:37:02.62	333.23	32.66	-35.7	-36.9	18.0	0.00e+00	0	60	0	3714056192	42	4010
2026-01-13 14:37:03.63	333.32	32.45	-35.7	-36.9	18.0	0.00e+00	0	60	0	3721396224	42	4022
2026-01-13 14:37:04.64	333.40	32.25	-35.7	-36.8	18.0	0.00e+00	0	60	0	3728736256	42	4003
2026-01-13 14:37:05.65	333.49	32.05	-35.7	-36.9	18.0	0.00e+00	0	60	0	3736076288	42	4005
2026-01-13 14:37:06.66	333.57	31.84	-35.6	-36.8	18.0	0.00e+00	0	60	0	3743416320	42	4002
2026-01-13 14:37:07.67	333.65	31.65	-35.7	-36.9	18.0	0.00e+00	0	60	0	3750756352	42	4021
2026-01-13 14:37:08.68	333.73	31.45	-35.7	-36.9	17.9	0.00e+00	0	60	0	3758096384	42	4039
2026-01-13 14:37:09.69	333.81	31.25	-35.7	-36.9	17.9	0.00e+00	0	60	0	3765436416	42	4051
2026-01-13 14:37:10.70	333.89	31.05	-35.8	-37.0	17.8	0.00e+00	0	60	0	3772776448	42	4076
2026-01-13 14:37:11.71	333.97	30.86	-35.8	-37.0	17.8	0.00e+00	0	60	0	3780116480	42	4077
2026-01-13 14:37:12.73	334.05	30.67	-35.8	-37.0	17.8	0.00e+00	0	60	0	3787456512	42	4094
2026-01-13 14:37:13.74	334.12	30.47	-35.9	-37.2	17.7	0.00e+00	0	60	0	3794796544	42	4156
2026-01-13 14:37:14.74	334.20	30.29	-35.9	-37.2	17.6	0.00e+00	0	60	0	3802136576	42	4163
2026-01-13 14:37:15.76	334.27	30.09	-36.0	-37.2	17.6	0.00e+00	0	60	0	3809476608	42	4172
2026-01-13 14:37:16.77	334.34	29.91	-36.0	-37.2	17.6	0.00e+00	0	60	0	3816816640	42	4191
2026-01-13 14:37:17.77	334.42	29.72	-36.0	-37.2	17.6	0.00e+00	0	60	0	3824156672	42	4189
2026-01-13 14:37:18.78	334.49	29.53	-36.0	-37.3	17.5	0.00e+00	0	60	0	3831496704	42	4217
2026-01-13 14:37:19.79	334.56	29.35	-36.1	-37.4	17.4	0.00e+00	0	60	0	3838836736	42	4265
2026-01-13 14:37:20.80	334.63	29.17	-36.1	-37.4	17.4	0.00e+00	0	60	0	3845128192	42	4264
2026-01-13 14:37:21.81	334.70	28.98	-36.2	-37.4	17.4	0.00e+00	0	60	0	3853516800	42	4288
2026-01-13 14:37:22.82	334.77	28.80	-36.1	-37.4	17.4	0.00e+00	0	60	0	3860856832	42	4252
2026-01-13 14:37:23.83	334.84	28.62	-36.2	-37.4	17.3	0.00e+00	0	60	0	3867148288	42	4290
2026-01-13 14:37:24.84	334.90	28.44	-36.2	-37.5	17.3	0.00e+00	0	60	0	3874488320	42	4301
2026-01-13 14:37:25.85	334.97	28.27	-36.2	-37.5	17.2	0.00e+00	0	60	0	3881828352	42	4332
2026-01-13 14:37:26.86	335.04	28.09	-36.3	-37.6	17.2	0.00e+00	0	60	0	3889168384	42	4353
2026-01-13 14:37:27.87	335.10	27.91	-36.3	-37.6	17.2	0.00e+00	0	60	0	3896508416	42	4360
2026-01-13 14:37:28.88	335.17	27.74	-36.3	-37.6	17.1	0.00e+00	0	60	0	3903848448	42	4381
2026-01-13 14:37:29.89	335.23	27.57	-36.4	-37.7	17.0	0.00e+00	0	60	0	3911188480	42	4436
2026-01-13 14:37:30.90	335.29	27.39	-36.4	-37.7	17.0	0.00e+00	0	60	0	3918528512	42	4429
2026-01-13 14:37:31.91	335.36	27.22	-36.4	-37.8	17.0	0.00e+00	0	60	0	3925868544	42	4446
2026-01-13 14:37:32.92	335.42	27.05	-36.4	-37.8	16.9	0.00e+00	0	60	0	3933208576	42	4454
2026-01-13 14:37:33.93	335.48	26.88	-36.4	-37.8	17.0	0.00e+00	0	60	0	3940548608	42	4446
2026-01-13 14:37:34.94	335.54	26.71	-36.5	-37.8	16.9	0.00e+00	0	60	0	3947888640	42	4466
2026-01-13 14:37:35.95	335.60	26.55	-36.4	-37.7	17.0	0.00e+00	0	60	0	3955228672	42	4435
2026-01-13 14:37:36.96	335.66	26.38	-36.4	-37.7	17.0	0.00e+00	0	60	0	3962568704	42	4401
2026-01-13 14:37:37.97	335.72	26.22	-36.3	-37.6	17.0	0.00e+00	0	60	0	3969908736	42	4391
2026-01-13 14:37:38.98	335.78	26.05	-36.3	-37.6	17.0	0.00e+00	0	60	0	3977248768	42	4379
2026-01-13 14:37:39.99	335.84	25.89	-36.2	-37.5	17.2	0.00e+00	0	60	0	3984588800	42	4310
2026-01-13 14:37:41.00	335.89	25.73	-36.2	-37.4	17.2	0.00e+00	0	60	0	3990880256	42	4291
2026-01-13 14:37:42.01	335.95	25.56	-36.1	-37.4	17.2	0.00e+00	0	60	0	3999268864	42	4268
2026-01-13 14:37:43.02	336.01	25.40	-36.1	-37.4	17.2	0.00e+00	0	60	0	4006608896	42	4270
2026-01-13 14:37:44.02	336.06	25.25	-36.0	-37.3	17.3	0.00e+00	0	60	0	4012900352	42	4214
2026-01-13 14:37:45.03	336.12	25.09	-36.0	-37.2	17.4	0.00e+00	0	60	0	4020240384	42	4182
2026-01-13 14:37:46.04	336.17	24.93	-36.0	-37.3	17.4	0.00e+00	0	60	0	4027580416	42	4196
2026-01-13 14:37:47.05	336.23	24.77	-35.9	-37.2	17.4	0.00e+00	0	60	0	4034920448	42	4164
2026-01-13 14:37:48.06	336.28	24.62	-35.9	-37.1	17.4	0.00e+00	0	60	0	4042260480	42	4144
2026-01-13 14:37:49.07	336.33	24.46	-35.9	-37.2	17.4	0.00e+00	0	60	0	4049600512	42	4148
2026-01-13 14:37:50.08	336.39	24.31	-35.9	-37.1	17.4	0.00e+00	0	60	0	4056940544	42	4132
2026-01-13 14:37:51.09	336.44	24.16	-35.9	-37.1	17.4	0.00e+00	0	60	0	4064280576	42	4130
2026-01-13 14:37:52.10	336.49	24.00	-35.9	-37.2	17.4	0.00e+00	0	60	0	4071620608	42	4148
2026-01-13 14:37:53.11	336.54	23.85	-35.9	-37.2	17.3	0.00e+00	0	60	0	4078960640	42	4157
2026-01-13 14:37:54.12	336.59	23.70	-36.0	-37.2	17.3	0.00e+00	0	60	0	4086300672	42	4187
2026-01-13 14:37:55.13	336.65	23.55	-36.0	-37.3	17.2	0.00e+00	0	60	0	4093640704	42	4221
2026-01-13 14:37:56.14	336.70	23.40	-36.1	-37.3	17.1	0.00e+00	0	61	0	4100980736	42	4236
2026-01-13 14:37:57.15	336.74	23.26	-36.1	-37.3	17.1	0.00e+00	0	60	0	4108320768	42	4238
2026-01-13 14:37:58.16	336.79	23.11	-36.2	-37.5	17.0	0.00e+00	0	60	0	4115660800	42	4297
2026-01-13 14:37:59.18	336.84	22.96	-36.2	-37.5	16.9	0.00e+00	0	60	0	4123000832	42	4321
2026-01-13 14:38:00.18	336.89	22.82	-36.2	-37.5	16.8	0.00e+00	0	60	0	4130340864	42	4340
2026-01-13 14:38:01.19	336.94	22.67	-36.2	-37.6	16.8	0.00e+00	0	60	0	4137680896	42	4352
2026-01-13 14:38:02.20	336.99	22.53	-36.4	-37.7	16.6	0.00e+00	0	60	0	4143972352	42	4418
2026-01-13 14:38:03.21	337.03	22.38	-36.4	-37.7	16.6	0.00e+00	0	61	0	4152360960	42	4436
2026-01-13 14:38:04.22	337.08	22.24	-36.4	-37.8	16.5	0.00e+00	0	60	0	4159700992	42	4474
2026-01-13 14:38:05.23	337.13	22.10	-36.5	-37.9	16.4	0.00e+00	0	60	0	4165992448	42	4512
2026-01-13 14:38:06.24	337.17	21.96	-36.5	-37.9	16.3	0.00e+00	0	60	0	4173332480	42	4539
2026-01-13 14:38:07.25	337.22	21.82	-36.5	-37.9	16.3	0.00e+00	0	60	0	4180672512	42	4537
2026-01-13 14:38:08.26	337.26	21.68	-36.5	-38.0	16.2	0.00e+00	0	60	0	4188012544	42	4556
2026-01-13 14:38:09.27	337.31	21.54	-36.7	-38.1	16.0	0.00e+00	0	60	0	4195352576	42	4645
2026-01-13 14:38:10.28	337.35	21.40	-36.8	-38.2	15.8	0.00e+00	0	60	0	4202692608	43	4441
2026-01-13 14:38:11.28	337.40	21.27	-36.6	-38.1	15.9	0.00e+00	0	60	0	4210032640	43	4372
2026-01-13 14:38:12.29	337.44	21.13	-36.6	-38.0	16.0	0.00e+00	0	60	0	4217372672	43	4325
2026-01-13 14:38:13.30	337.49	21.00	-36.6	-38.1	15.9	0.00e+00	0	60	0	4224712704	43	4369
2026-01-13 14:38:14.31	337.53	20.86	-36.7	-38.2	15.7	0.00e+00	0	60	0	4232052736	43	4407
2026-01-13 14:38:15.32	337.57	20.73	-36.8	-38.3	15.6	0.00e+00	0	60	0	4239392768	43	4459
2026-01-13 14:38:16.33	337.61	20.59	-36.8	-38.3	15.5	0.00e+00	0	60	0	4246732800	43	4478
2026-01-13 14:38:17.34	337.66	20.46	-36.8	-38.3	15.4	0.00e+00	0	60	0	4254072832	43	4477
2026-01-13 14:38:18.34	337.70	20.33	-36.9	-38.5	15.2	0.00e+00	0	60	0	4261412864	43	4557
2026-01-13 14:38:19.35	337.74	20.20	-36.8	-38.4	15.2	0.00e+00	0	61	0	4268752896	43	4506
2026-01-13 14:38:20.36	337.78	20.07	-36.6	-38.1	15.4	0.00e+00	0	60	0	4276092928	43	4377
2026-01-13 14:38:21.37	337.82	19.94	-36.5	-38.0	15.5	0.00e+00	0	61	0	4283432960	43	4325
2026-01-13 14:38:22.38	337.86	19.81	-36.4	-37.9	15.5	0.00e+00	0	61	0	4289724416	43	4263
2026-01-13 14:38:23.39	337.90	19.68	-36.4	-38.0	15.3	0.00e+00	0	60	0	4297064448	43	4307
2026-01-13 14:38:24.40	337.94	19.55	-36.3	-37.7	15.6	0.00e+00	0	60	0	4305453056	43	4189
2026-01-13 14:38:25.41	337.98	19.43	-36.1	-37.6	15.7	0.00e+00	0	60	0	4311744512	43	4119
2026-01-13 14:38:26.42	338.02	19.30	-36.0	-37.5	15.8	0.00e+00	0	61	0	4319084544	43	4071
2026-01-13 14:38:27.42	338.06	19.17	-35.9	-37.4	15.9	0.00e+00	0	60	0	4326424576	42	4252
2026-01-13 14:38:28.43	338.10	19.05	-35.8	-37.3	15.9	0.00e+00	0	60	0	4333764608	42	4196
2026-01-13 14:38:29.44	338.14	18.92	-35.8	-37.3	15.9	0.00e+00	0	61	0	4341104640	42	4202
2026-01-13 14:38:30.45	338.18	18.80	-35.9	-37.4	15.7	0.00e+00	0	61	0	4348444672	42	4262
2026-01-13 14:38:31.46	338.21	18.68	-35.9	-37.4	15.7	0.00e+00	0	61	0	4355784704	42	4254
2026-01-13 14:38:32.47	338.25	18.55	-35.9	-37.4	15.6	0.00e+00	0	61	0	4363124736	42	4266
2026-01-13 14:38:33.49	338.29	18.43	-36.0	-37.5	15.6	0.00e+00	0	61	0	4370464768	42	4306
2026-01-13 14:38:34.50	338.33	18.31	-36.0	-37.6	15.4	0.00e+00	0	60	0	4377804800	42	4349
2026-01-13 14:38:35.51	338.36	18.19	-36.2	-37.7	15.2	0.00e+00	0	60	0	4385144832	42	4427
2026-01-13 14:38:36.52	338.40	18.06	-36.2	-37.8	15.1	0.00e+00	0	61	0	4392484864	42	4460
2026-01-13 14:38:37.53	338.44	17.94	-36.3	-37.9	15.0	0.00e+00	0	60	0	4399824896	42	4505
2026-01-13 14:38:38.54	338.47	17.83	-36.4	-38.0	14.8	0.00e+00	0	61	0	4407164928	42	4571
2026-01-13 14:38:39.55	338.51	17.71	-36.5	-38.2	14.6	0.00e+00	0	61	0	4414504960	42	4682
2026-01-13 14:38:40.56	338.54	17.59	-36.7	-38.4	14.4	0.00e+00	0	60	0	4421844992	42	4785
2026-01-13 14:38:41.57	338.58	17.47	-36.8	-38.5	14.3	2.20e-06	0	60	0	4429185024	43	4569
2026-01-13 14:38:42.58	338.61	17.35	-36.9	-38.6	14.1	0.00e+00	0	61	0	4436525056	43	4639
2026-01-13 14:38:43.59	338.65	17.24	-37.0	-38.8	13.9	5.70e-06	0	60	0	4442816512	43	4747
2026-01-13 14:38:44.60	338.68	17.12	-37.2	-39.1	13.5	6.80e-06	0	61	0	4451205120	43	4901
2026-01-13 14:38:45.61	338.72	17.00	-37.4	-39.4	13.4	5.70e-06	0	60	0	4458545152	44	4775
2026-01-13 14:38:46.61	338.75	16.89	-37.6	-39.7	13.0	2.97e-05	0	60	0	4464836608	44	4927
2026-01-13 14:38:47.63	338.79	16.78	-37.7	-39.8	12.8	4.80e-05	0	60	0	4472176640	45	4733
2026-01-13 14:38:48.64	338.82	16.66	-37.9	-40.0	12.5	9.95e-05	0	60	0	4479516672	45	4845
2026-01-13 14:38:49.65	338.85	16.55	-38.1	-40.3	12.1	1.74e-04	0	61	0	4486856704	45	5040
2026-01-13 14:38:50.66	338.89	16.43	-38.2	-40.5	11.9	3.08e-04	0	60	0	4494196736	45	5135
