passes_logs/2026/01/13/R2.0S_Moscow/R2.0S_Moscow__20260113_010709_AQUA_rec.log

#Pass ID: 20260113_010709_AQUA
#Satellite: AQUA
#Configuration: AQUA
#almurnet v.1.7.20251203
#Start time: 2026-01-13 01:07:10

#Version: 2.2.20231116
#Station: R2.0S_Moscow
#Location: 37.707566 lon 55.798166 lat
#TLE: 1 27424U 02022A   26012.29577270  .00001027  00000+0  21555-3 0  9995
#TLE: 2 27424  98.4078 338.6778 0002034  81.5885  29.6294 14.61817302260499

#Time	Az	El	Level	Level2	SNR	BER	BlckErr	Temp	State	Recorded	gain1	gain2
2026-01-13 01:07:10.68	17.12	2.07	-41.6	-62.0	3.8	7.46e-01	0	51	0	0	55	36424
2026-01-13 01:07:11.69	17.13	2.13	-41.7	-62.0	3.8	7.45e-01	0	51	104	0	54	38504
2026-01-13 01:07:12.70	17.15	2.20	-41.6	-62.0	3.8	7.46e-01	0	51	104	0	54	38548
2026-01-13 01:07:13.71	17.17	2.27	-41.6	-62.0	3.8	7.44e-01	0	51	104	0	54	38541
2026-01-13 01:07:14.72	17.18	2.33	-41.6	-62.0	3.8	7.46e-01	0	51	104	0	54	38514
2026-01-13 01:07:15.74	17.20	2.40	-41.7	-62.0	3.8	7.46e-01	0	51	104	0	54	38534
2026-01-13 01:07:16.75	17.21	2.47	-41.6	-62.0	3.8	7.46e-01	0	51	104	0	54	38634
2026-01-13 01:07:17.76	17.23	2.54	-41.6	-62.0	3.8	7.49e-01	0	51	104	0	54	38556
2026-01-13 01:07:18.77	17.25	2.61	-41.6	-62.0	3.8	7.44e-01	0	51	104	0	54	38556
2026-01-13 01:07:19.78	17.26	2.67	-41.6	-62.0	3.8	7.44e-01	0	51	104	0	54	38496
2026-01-13 01:07:20.79	17.28	2.74	-41.6	-62.0	3.8	7.44e-01	0	51	104	0	54	38477
2026-01-13 01:07:21.80	17.30	2.81	-41.6	-62.0	3.8	7.45e-01	0	52	104	0	54	38500
2026-01-13 01:07:22.81	17.32	2.88	-41.6	-62.0	3.8	7.44e-01	0	52	104	0	54	38500
2026-01-13 01:07:23.82	17.33	2.95	-41.6	-62.0	3.8	7.43e-01	0	51	104	0	54	38499
2026-01-13 01:07:24.83	17.35	3.02	-41.6	-62.0	3.8	7.46e-01	0	52	104	0	54	38455
2026-01-13 01:07:25.84	17.37	3.09	-41.7	-62.0	3.8	7.44e-01	0	52	104	0	54	38556
2026-01-13 01:07:26.85	17.38	3.16	-41.6	-62.0	3.8	7.44e-01	0	52	104	0	54	38474
2026-01-13 01:07:27.86	17.40	3.22	-41.6	-62.0	3.8	7.43e-01	0	52	104	0	54	38472
2026-01-13 01:07:28.87	17.42	3.29	-41.7	-62.0	3.8	7.46e-01	0	52	104	0	54	38508
2026-01-13 01:07:29.88	17.43	3.36	-41.6	-62.0	3.8	7.47e-01	0	52	104	0	54	38529
2026-01-13 01:07:30.89	17.45	3.43	-41.7	-62.0	3.8	7.45e-01	0	52	104	0	54	38388
2026-01-13 01:07:31.90	17.47	3.50	-41.6	-61.9	3.8	7.46e-01	0	52	104	0	54	38234
2026-01-13 01:07:32.91	17.49	3.58	-41.6	-62.0	3.8	7.44e-01	0	52	104	0	54	38313
2026-01-13 01:07:33.92	17.50	3.65	-41.6	-62.0	3.8	7.43e-01	0	52	104	0	54	38482
2026-01-13 01:07:34.93	17.52	3.72	-41.6	-62.0	3.8	7.45e-01	0	52	104	0	54	38463
2026-01-13 01:07:35.94	17.54	3.79	-41.6	-62.0	3.8	7.44e-01	0	52	104	0	54	38440
2026-01-13 01:07:36.95	17.56	3.86	-41.7	-62.0	3.8	7.42e-01	0	52	104	0	54	38454
2026-01-13 01:07:37.96	17.58	3.93	-41.6	-62.0	3.8	7.44e-01	0	53	104	0	54	38282
2026-01-13 01:07:38.97	17.59	4.00	-41.6	-62.0	3.8	7.42e-01	0	53	104	0	54	38366
2026-01-13 01:07:39.98	17.61	4.07	-41.6	-62.0	3.8	7.47e-01	0	53	104	0	54	38329
2026-01-13 01:07:40.99	17.63	4.15	-41.6	-62.0	3.8	7.45e-01	0	53	104	0	54	38327
2026-01-13 01:07:42.00	17.65	4.22	-41.6	-62.0	3.8	7.43e-01	0	53	104	0	54	38363
2026-01-13 01:07:43.02	17.67	4.29	-41.6	-62.0	3.8	7.47e-01	0	53	104	0	54	38291
2026-01-13 01:07:44.03	17.68	4.37	-41.6	-61.9	3.8	7.48e-01	0	53	104	0	54	38122
2026-01-13 01:07:45.04	17.70	4.44	-41.6	-61.9	3.8	7.46e-01	0	53	104	0	54	38142
2026-01-13 01:07:46.05	17.72	4.51	-41.6	-62.0	3.8	7.44e-01	0	53	104	0	54	38312
2026-01-13 01:07:47.06	17.74	4.58	-41.6	-62.0	3.8	7.43e-01	0	53	104	0	54	38404
2026-01-13 01:07:48.07	17.76	4.66	-41.6	-62.0	3.8	7.44e-01	0	53	104	0	54	38342
2026-01-13 01:07:49.08	17.78	4.73	-41.7	-61.9	3.8	7.47e-01	0	53	104	0	54	38228
2026-01-13 01:07:50.09	17.80	4.81	-41.6	-62.0	3.8	7.46e-01	0	53	104	0	54	38261
2026-01-13 01:07:51.11	17.82	4.88	-41.6	-62.0	3.8	7.42e-01	0	53	104	0	54	38257
2026-01-13 01:07:52.11	17.83	4.96	-41.6	-61.8	3.8	7.46e-01	0	53	104	0	54	37800
2026-01-13 01:07:53.12	17.85	5.03	-41.6	-61.7	3.8	7.46e-01	0	53	104	0	54	37335
2026-01-13 01:07:54.13	17.87	5.11	-41.6	-61.5	3.8	7.51e-01	0	54	104	0	54	36289
2026-01-13 01:07:55.14	17.89	5.18	-41.6	-61.5	3.8	7.44e-01	0	54	104	0	54	36336
2026-01-13 01:07:56.15	17.91	5.26	-41.6	-61.8	3.8	7.45e-01	0	53	104	0	54	37427
2026-01-13 01:07:57.16	17.93	5.33	-41.6	-61.7	3.8	7.42e-01	0	53	104	0	54	36966
2026-01-13 01:07:58.17	17.95	5.41	-41.6	-61.6	3.8	7.43e-01	0	54	104	0	54	36936
2026-01-13 01:07:59.18	17.97	5.48	-41.6	-61.7	3.8	7.47e-01	0	54	104	0	54	37227
2026-01-13 01:08:00.19	17.99	5.56	-41.6	-61.8	3.8	7.42e-01	0	54	104	0	54	37474
2026-01-13 01:08:01.20	18.01	5.64	-41.6	-61.8	3.8	7.42e-01	0	54	104	0	54	37674
2026-01-13 01:08:02.21	18.03	5.71	-41.6	-61.8	3.8	7.47e-01	0	54	104	0	54	37557
2026-01-13 01:08:03.22	18.05	5.79	-41.6	-61.8	3.8	7.48e-01	0	54	104	0	54	37606
2026-01-13 01:08:04.23	18.07	5.87	-41.6	-61.8	3.8	7.48e-01	0	54	104	0	54	37416
2026-01-13 01:08:05.24	18.09	5.95	-41.6	-61.7	3.8	7.45e-01	0	54	104	0	54	37351
2026-01-13 01:08:06.25	18.11	6.03	-41.6	-61.7	3.8	7.43e-01	0	54	104	0	54	37287
2026-01-13 01:08:07.26	18.13	6.10	-41.6	-61.8	3.8	7.48e-01	0	54	104	0	54	37709
2026-01-13 01:08:08.27	18.15	6.18	-41.6	-61.9	3.8	7.46e-01	0	54	104	0	54	37832
2026-01-13 01:08:09.28	18.17	6.26	-41.6	-61.9	3.8	7.47e-01	0	54	104	0	54	37875
2026-01-13 01:08:10.28	18.19	6.34	-41.6	-61.8	3.8	7.44e-01	0	54	104	0	54	37648
2026-01-13 01:08:11.29	18.21	6.42	-41.6	-61.8	3.8	7.43e-01	0	54	104	0	54	37453
2026-01-13 01:08:12.30	18.23	6.50	-41.6	-61.7	3.8	7.45e-01	0	54	104	0	54	37371
2026-01-13 01:08:13.31	18.25	6.58	-41.6	-61.8	3.8	7.42e-01	0	54	104	0	54	37588
2026-01-13 01:08:14.32	18.27	6.66	-41.6	-61.9	3.8	7.46e-01	0	54	104	0	54	37911
2026-01-13 01:08:15.33	18.29	6.74	-41.6	-61.9	3.8	7.44e-01	0	55	104	0	54	38134
2026-01-13 01:08:16.34	18.31	6.82	-41.6	-61.8	3.8	7.49e-01	0	55	104	0	54	37429
2026-01-13 01:08:17.35	18.34	6.90	-41.6	-61.5	3.8	7.42e-01	0	55	104	0	54	36324
2026-01-13 01:08:18.36	18.36	6.98	-41.6	-61.5	3.8	7.45e-01	0	54	104	0	54	36234
2026-01-13 01:08:19.37	18.38	7.06	-41.6	-61.7	3.8	7.47e-01	0	55	104	0	54	37122
2026-01-13 01:08:20.38	18.40	7.15	-41.6	-61.9	3.8	7.47e-01	0	55	104	0	54	37931
2026-01-13 01:08:21.39	18.42	7.23	-41.6	-61.8	3.8	7.45e-01	0	55	104	0	54	37609
2026-01-13 01:08:22.41	18.44	7.31	-41.6	-61.3	3.8	7.44e-01	0	55	104	0	54	35517
2026-01-13 01:08:23.42	18.47	7.39	-41.6	-60.2	3.8	7.44e-01	0	55	104	0	54	31401
2026-01-13 01:08:24.43	18.49	7.48	-41.5	-59.1	4.0	7.34e-01	0	55	104	0	54	27392
2026-01-13 01:08:25.44	18.51	7.56	-41.5	-58.3	3.9	7.38e-01	0	55	104	0	54	25151
2026-01-13 01:08:26.45	18.53	7.64	-41.4	-56.4	5.0	7.09e-01	0	55	0	0	54	20291
2026-01-13 01:08:27.46	18.55	7.73	-41.5	-55.3	5.7	6.91e-01	81	55	0	0	54	17811
2026-01-13 01:08:28.47	18.58	7.81	-41.3	-53.8	6.9	6.63e-01	92	55	0	1572864	54	14924
2026-01-13 01:08:29.48	18.60	7.90	-41.2	-52.6	8.0	6.45e-01	82	55	0	3670016	54	13084
2026-01-13 01:08:30.50	18.62	7.98	-41.2	-51.5	9.0	6.33e-01	0	55	0	5242880	54	11545
2026-01-13 01:08:31.51	18.64	8.07	-41.3	-49.7	11.5	6.10e-01	0	55	0	7340032	54	9283
2026-01-13 01:08:32.52	18.67	8.15	-41.2	-49.4	12.1	6.08e-01	0	55	0	9437184	54	9045
2026-01-13 01:08:33.52	18.69	8.24	-40.4	-46.9	13.5	6.04e-01	0	55	0	9961472	52	7613
2026-01-13 01:08:34.53	18.71	8.32	-42.2	-49.8	12.1	6.08e-01	0	56	0	11534336	54	9450
2026-01-13 01:08:35.54	18.74	8.41	-40.7	-46.2	15.2	6.03e-01	0	55	0	13631488	53	6639
2026-01-13 01:08:36.55	18.76	8.50	-41.0	-48.9	11.4	6.12e-01	0	56	0	15728640	53	9066
2026-01-13 01:08:37.56	18.78	8.58	-40.9	-47.2	14.2	6.04e-01	0	55	0	17301504	53	7399
2026-01-13 01:08:38.57	18.81	8.67	-41.0	-46.8	14.8	6.04e-01	0	55	0	19398656	53	7081
2026-01-13 01:08:39.58	18.83	8.76	-41.1	-46.8	15.0	6.05e-01	0	55	0	20971520	53	7076
2026-01-13 01:08:40.59	18.85	8.85	-41.2	-46.8	15.0	6.02e-01	0	55	0	23068672	53	7045
2026-01-13 01:08:41.60	18.88	8.94	-41.1	-46.4	15.4	6.07e-01	0	56	0	25165824	53	6748
2026-01-13 01:08:42.61	18.90	9.03	-41.3	-46.4	15.6	6.02e-01	0	56	0	26738688	53	6726
2026-01-13 01:08:43.62	18.93	9.12	-41.3	-46.2	15.7	6.02e-01	0	56	0	28835840	53	6641
2026-01-13 01:08:44.63	18.95	9.20	-41.5	-46.5	15.5	6.05e-01	0	56	0	30932992	53	6831
2026-01-13 01:08:45.64	18.98	9.29	-41.5	-46.2	15.9	6.02e-01	0	56	0	32505856	53	6632
2026-01-13 01:08:46.65	19.00	9.39	-41.7	-46.6	15.5	6.04e-01	0	56	0	34603008	53	6928
2026-01-13 01:08:47.66	19.02	9.48	-41.8	-46.7	15.6	6.04e-01	0	56	0	36175872	54	6597
2026-01-13 01:08:48.67	19.05	9.57	-41.6	-46.0	16.3	6.04e-01	0	56	0	38273024	54	6063
2026-01-13 01:08:49.68	19.07	9.66	-41.7	-46.2	16.2	6.03e-01	0	56	0	40370176	54	6220
2026-01-13 01:08:50.69	19.10	9.75	-41.7	-46.1	16.2	6.04e-01	0	56	0	41943040	54	6166
2026-01-13 01:08:51.70	19.12	9.84	-41.5	-45.8	16.5	6.03e-01	0	56	0	44040192	54	5956
2026-01-13 01:08:52.71	19.15	9.93	-41.6	-45.9	16.4	6.03e-01	0	56	0	45613056	54	6036
2026-01-13 01:08:53.72	19.18	10.03	-41.6	-45.9	16.4	6.04e-01	0	56	0	47710208	54	6035
2026-01-13 01:08:54.73	19.20	10.12	-41.6	-45.9	16.4	6.05e-01	0	56	0	49807360	54	6060
2026-01-13 01:08:55.74	19.23	10.21	-41.5	-45.7	16.7	6.03e-01	0	56	0	51380224	54	5897
2026-01-13 01:08:56.75	19.25	10.31	-41.5	-45.7	16.7	6.01e-01	0	56	0	53477376	54	5918
2026-01-13 01:08:57.76	19.28	10.40	-41.6	-45.8	16.6	6.05e-01	0	56	0	55050240	54	5952
2026-01-13 01:08:58.77	19.31	10.50	-41.5	-45.6	16.8	6.03e-01	0	56	0	57147392	54	5828
2026-01-13 01:08:59.78	19.33	10.59	-41.5	-45.5	16.9	6.03e-01	0	56	0	59244544	54	5765
2026-01-13 01:09:00.79	19.36	10.69	-41.5	-45.6	16.8	6.02e-01	0	56	0	60817408	54	5816
2026-01-13 01:09:01.80	19.39	10.79	-41.5	-45.4	17.0	6.05e-01	0	56	0	62914560	54	5708
2026-01-13 01:09:02.80	19.41	10.88	-41.5	-45.4	17.0	6.02e-01	0	56	0	64487424	54	5714
2026-01-13 01:09:03.81	19.44	10.98	-41.5	-45.4	17.1	6.01e-01	0	56	0	66584576	54	5704
2026-01-13 01:09:04.82	19.47	11.08	-41.5	-45.3	17.1	6.01e-01	0	56	0	68681728	54	5645
2026-01-13 01:09:05.83	19.50	11.17	-41.5	-45.3	17.1	6.05e-01	0	56	0	70254592	54	5636
2026-01-13 01:09:06.84	19.52	11.27	-41.5	-45.2	17.1	6.01e-01	0	56	0	72351744	54	5592
2026-01-13 01:09:07.85	19.55	11.37	-41.5	-45.2	17.1	6.04e-01	0	56	0	73924608	54	5579
2026-01-13 01:09:08.86	19.58	11.47	-41.4	-45.1	17.3	6.04e-01	0	56	0	76021760	54	5514
2026-01-13 01:09:09.87	19.61	11.57	-41.4	-45.1	17.5	6.02e-01	0	56	0	78118912	54	5471
2026-01-13 01:09:10.88	19.64	11.67	-41.4	-45.0	17.6	6.03e-01	0	56	0	79691776	54	5437
2026-01-13 01:09:11.89	19.66	11.77	-41.4	-45.0	17.6	6.05e-01	0	57	0	81788928	54	5455
2026-01-13 01:09:12.90	19.69	11.87	-41.5	-45.2	17.5	6.01e-01	0	57	0	83886080	54	5550
2026-01-13 01:09:13.91	19.72	11.97	-41.4	-45.0	17.7	5.99e-01	0	57	0	85458944	54	5446
2026-01-13 01:09:14.92	19.75	12.07	-41.5	-45.1	17.7	6.03e-01	0	57	0	87556096	54	5501
2026-01-13 01:09:15.93	19.78	12.18	-41.5	-45.0	17.8	6.03e-01	0	57	0	89128960	54	5437
2026-01-13 01:09:16.93	19.81	12.28	-41.5	-45.1	17.8	6.05e-01	0	57	0	91226112	54	5494
2026-01-13 01:09:17.94	19.84	12.38	-41.5	-45.1	17.8	6.05e-01	0	57	0	93323264	54	5488
2026-01-13 01:09:18.95	19.87	12.49	-41.5	-45.0	17.8	6.06e-01	0	57	0	94896128	54	5427
2026-01-13 01:09:19.96	19.90	12.59	-41.5	-45.0	17.8	6.02e-01	0	57	0	96993280	54	5463
2026-01-13 01:09:20.97	19.93	12.69	-41.5	-45.0	17.9	6.06e-01	0	57	0	99090432	54	5426
2026-01-13 01:09:21.98	19.96	12.80	-41.5	-45.0	17.9	6.01e-01	0	57	0	100663296	54	5429
2026-01-13 01:09:22.99	19.99	12.91	-41.6	-45.1	17.8	6.00e-01	0	57	0	102760448	54	5511
2026-01-13 01:09:24.00	20.02	13.01	-41.7	-45.3	17.7	6.04e-01	0	57	0	104333312	54	5604
2026-01-13 01:09:25.01	20.05	13.12	-41.6	-45.2	17.8	6.01e-01	0	57	0	106430464	54	5544
2026-01-13 01:09:26.02	20.08	13.23	-41.7	-45.2	17.7	6.02e-01	0	57	0	108527616	54	5589
2026-01-13 01:09:27.03	20.11	13.33	-41.6	-45.1	17.9	6.03e-01	0	57	0	110100480	54	5479
2026-01-13 01:09:28.04	20.15	13.44	-41.6	-45.2	17.8	6.04e-01	0	57	0	112197632	54	5546
2026-01-13 01:09:29.05	20.18	13.55	-41.6	-45.1	17.8	6.04e-01	0	57	0	113770496	54	5522
2026-01-13 01:09:30.06	20.21	13.66	-41.5	-44.9	18.0	6.03e-01	0	57	0	115867648	54	5382
2026-01-13 01:09:31.06	20.24	13.77	-41.5	-45.0	18.0	6.03e-01	0	57	0	117964800	54	5407
2026-01-13 01:09:32.08	20.27	13.88	-41.4	-44.8	18.1	6.03e-01	0	57	0	119537664	54	5322
2026-01-13 01:09:33.09	20.31	13.99	-41.5	-44.9	18.1	6.02e-01	0	57	0	121634816	54	5342
2026-01-13 01:09:34.10	20.34	14.10	-41.4	-44.8	18.2	6.04e-01	0	57	0	123207680	54	5295
2026-01-13 01:09:35.11	20.37	14.22	-41.5	-44.9	18.1	6.02e-01	0	57	0	125304832	54	5350
2026-01-13 01:09:36.12	20.41	14.33	-41.4	-44.7	18.3	6.03e-01	0	57	0	127401984	54	5276
2026-01-13 01:09:37.13	20.44	14.44	-41.4	-44.8	18.2	6.04e-01	0	57	0	128974848	54	5308
2026-01-13 01:09:38.14	20.48	14.56	-41.3	-44.5	18.5	6.02e-01	0	57	0	131072000	54	5139
2026-01-13 01:09:39.15	20.51	14.67	-41.4	-44.8	18.3	6.03e-01	0	57	0	132644864	54	5290
2026-01-13 01:09:40.16	20.54	14.79	-41.4	-44.6	18.4	6.05e-01	0	57	0	134742016	54	5217
2026-01-13 01:09:41.17	20.58	14.90	-41.3	-44.6	18.5	6.04e-01	0	57	0	136839168	54	5180
2026-01-13 01:09:42.18	20.61	15.02	-41.4	-44.6	18.5	6.00e-01	0	57	0	138412032	54	5206
2026-01-13 01:09:43.19	20.65	15.14	-41.4	-44.6	18.5	6.01e-01	0	57	0	140509184	54	5175
2026-01-13 01:09:44.20	20.68	15.25	-41.4	-44.6	18.5	6.01e-01	0	57	0	142082048	54	5215
2026-01-13 01:09:45.21	20.72	15.37	-41.4	-44.7	18.5	6.02e-01	0	57	0	144179200	54	5238
2026-01-13 01:09:46.22	20.76	15.49	-41.4	-44.7	18.5	6.04e-01	0	57	0	146276352	54	5238
2026-01-13 01:09:47.22	20.79	15.61	-41.4	-44.7	18.5	6.03e-01	0	57	0	147849216	54	5252
2026-01-13 01:09:48.23	20.83	15.73	-41.4	-44.7	18.5	6.05e-01	0	57	0	149946368	54	5247
2026-01-13 01:09:49.24	20.87	15.85	-41.4	-44.6	18.6	6.01e-01	0	57	0	152043520	54	5185
2026-01-13 01:09:50.25	20.90	15.97	-41.4	-44.5	18.6	6.04e-01	0	57	0	153616384	54	5154
2026-01-13 01:09:51.26	20.94	16.09	-41.4	-44.6	18.6	6.02e-01	0	57	0	155713536	54	5193
2026-01-13 01:09:52.27	20.98	16.22	-41.4	-44.6	18.6	6.03e-01	0	58	0	157286400	54	5214
2026-01-13 01:09:53.28	21.02	16.34	-41.5	-44.7	18.5	6.02e-01	0	57	0	159383552	54	5249
2026-01-13 01:09:54.29	21.05	16.46	-41.4	-44.6	18.7	6.03e-01	0	58	0	161480704	54	5181
2026-01-13 01:09:55.30	21.09	16.59	-41.4	-44.6	18.7	6.04e-01	0	57	0	163053568	54	5182
2026-01-13 01:09:56.31	21.13	16.71	-41.4	-44.5	18.7	6.04e-01	0	57	0	165150720	54	5134
2026-01-13 01:09:57.32	21.17	16.84	-41.4	-44.5	18.7	6.01e-01	0	57	0	167247872	54	5152
2026-01-13 01:09:58.33	21.21	16.97	-41.3	-44.3	18.9	6.03e-01	0	58	0	168820736	54	5037
2026-01-13 01:09:59.34	21.25	17.10	-41.3	-44.4	18.9	6.03e-01	0	57	0	170917888	54	5087
2026-01-13 01:10:00.35	21.29	17.22	-41.3	-44.4	18.9	5.99e-01	0	58	0	172490752	54	5088
2026-01-13 01:10:01.36	21.33	17.35	-41.3	-44.3	19.0	6.02e-01	0	57	0	174587904	54	5033
2026-01-13 01:10:02.37	21.37	17.48	-41.2	-44.3	19.0	6.03e-01	0	57	0	176685056	54	4988
2026-01-13 01:10:03.37	21.41	17.61	-41.3	-44.4	18.9	6.02e-01	0	58	0	178257920	54	5092
2026-01-13 01:10:04.38	21.45	17.74	-41.3	-44.4	18.9	6.04e-01	0	58	0	180355072	54	5098
2026-01-13 01:10:05.39	21.50	17.88	-41.4	-44.5	18.8	6.04e-01	0	58	0	181927936	54	5138
2026-01-13 01:10:06.40	21.54	18.01	-41.4	-44.5	18.9	6.02e-01	0	57	0	184025088	54	5129
2026-01-13 01:10:07.41	21.58	18.14	-41.4	-44.5	18.9	6.04e-01	0	58	0	185597952	54	5111
2026-01-13 01:10:08.42	21.62	18.28	-41.4	-44.5	18.8	6.02e-01	0	58	0	187695104	54	5140
2026-01-13 01:10:09.43	21.67	18.41	-41.4	-44.5	18.9	6.04e-01	0	58	0	189792256	54	5128
2026-01-13 01:10:10.44	21.71	18.55	-41.4	-44.4	18.9	6.03e-01	0	58	0	191365120	54	5100
2026-01-13 01:10:11.45	21.75	18.69	-41.4	-44.5	18.9	6.03e-01	0	58	0	193462272	54	5118
2026-01-13 01:10:12.46	21.80	18.82	-41.4	-44.4	19.0	6.03e-01	0	58	0	195559424	54	5081
2026-01-13 01:10:13.46	21.84	18.96	-41.4	-44.4	19.0	6.01e-01	0	58	0	197132288	54	5084
2026-01-13 01:10:14.47	21.89	19.10	-41.4	-44.4	19.0	6.02e-01	0	58	0	199229440	54	5060
2026-01-13 01:10:15.48	21.93	19.24	-41.4	-44.3	19.1	6.03e-01	0	58	0	200802304	54	5038
2026-01-13 01:10:16.50	21.98	19.38	-41.4	-44.4	19.1	6.03e-01	0	58	0	202899456	54	5069
2026-01-13 01:10:17.51	22.03	19.53	-41.4	-44.4	19.1	6.02e-01	0	58	0	204996608	54	5059
2026-01-13 01:10:18.52	22.07	19.67	-41.5	-44.5	19.0	6.04e-01	0	58	0	206569472	54	5123
2026-01-13 01:10:19.53	22.12	19.81	-41.5	-44.5	19.0	6.02e-01	0	58	0	208666624	54	5129
2026-01-13 01:10:20.54	22.17	19.96	-41.5	-44.6	18.9	6.02e-01	0	58	0	210239488	54	5180
2026-01-13 01:10:21.55	22.22	20.10	-41.6	-44.6	18.9	6.04e-01	0	58	0	212336640	54	5210
2026-01-13 01:10:22.56	22.27	20.25	-41.5	-44.5	19.0	6.03e-01	0	58	0	214433792	54	5146
2026-01-13 01:10:23.57	22.32	20.40	-41.5	-44.5	19.0	6.04e-01	0	58	0	216006656	54	5130
2026-01-13 01:10:24.58	22.36	20.55	-41.4	-44.4	19.1	6.04e-01	0	58	0	218103808	54	5070
2026-01-13 01:10:25.59	22.41	20.70	-41.4	-44.4	19.2	6.04e-01	0	58	0	220200960	54	5046
2026-01-13 01:10:26.60	22.47	20.85	-41.3	-44.3	19.2	6.05e-01	0	58	0	221773824	54	5001
2026-01-13 01:10:27.61	22.52	21.00	-41.4	-44.3	19.3	6.01e-01	0	58	0	223870976	54	5011
2026-01-13 01:10:28.61	22.57	21.15	-41.3	-44.2	19.3	6.05e-01	0	58	0	225443840	54	4968
2026-01-13 01:10:29.62	22.62	21.30	-41.3	-44.2	19.3	6.02e-01	0	58	0	227540992	54	4980
2026-01-13 01:10:30.63	22.67	21.46	-41.3	-44.2	19.3	6.01e-01	0	58	0	229638144	54	4978
2026-01-13 01:10:31.64	22.72	21.61	-41.4	-44.4	19.2	6.04e-01	0	58	0	231211008	54	5055
2026-01-13 01:10:32.65	22.78	21.77	-41.4	-44.4	19.2	6.04e-01	0	58	0	233308160	54	5071
2026-01-13 01:10:33.66	22.83	21.92	-41.5	-44.5	19.1	6.03e-01	0	58	0	234881024	54	5111
2026-01-13 01:10:34.67	22.89	22.08	-41.5	-44.4	19.1	6.03e-01	0	58	0	236978176	54	5087
2026-01-13 01:10:35.68	22.94	22.24	-41.6	-44.6	19.0	6.02e-01	0	58	0	239075328	54	5181
2026-01-13 01:10:36.69	23.00	22.40	-41.5	-44.6	19.0	6.02e-01	0	58	0	240648192	54	5162
2026-01-13 01:10:37.70	23.05	22.57	-41.6	-44.6	18.9	6.03e-01	0	58	0	242745344	54	5217
2026-01-13 01:10:38.71	23.11	22.73	-41.6	-44.7	18.9	6.02e-01	0	58	0	244318208	54	5228
2026-01-13 01:10:39.72	23.17	22.89	-41.6	-44.6	19.0	6.04e-01	0	58	0	246415360	54	5208
2026-01-13 01:10:40.73	23.23	23.06	-41.6	-44.6	19.0	6.03e-01	0	58	0	248512512	54	5216
2026-01-13 01:10:41.74	23.28	23.22	-41.6	-44.6	19.0	6.03e-01	0	58	0	250085376	54	5206
2026-01-13 01:10:42.75	23.34	23.39	-41.6	-44.6	19.0	6.05e-01	0	58	0	252182528	54	5194
2026-01-13 01:10:43.76	23.40	23.56	-41.5	-44.5	19.1	6.02e-01	0	58	0	253755392	54	5146
2026-01-13 01:10:44.77	23.46	23.73	-41.6	-44.5	19.1	6.03e-01	0	58	0	255852544	54	5159
2026-01-13 01:10:45.78	23.52	23.90	-41.6	-44.6	19.1	6.03e-01	0	58	0	257949696	54	5207
2026-01-13 01:10:46.78	23.59	24.07	-41.7	-44.8	18.8	6.01e-01	0	58	0	259522560	54	5321
2026-01-13 01:10:47.79	23.65	24.24	-41.8	-44.9	18.8	6.04e-01	0	58	0	261619712	54	5364
2026-01-13 01:10:48.80	23.71	24.42	-41.8	-45.0	18.7	6.04e-01	0	58	0	263716864	54	5423
2026-01-13 01:10:49.81	23.77	24.59	-41.9	-45.0	18.6	6.05e-01	0	58	0	265289728	54	5458
2026-01-13 01:10:50.82	23.84	24.77	-41.8	-44.9	18.8	6.02e-01	0	58	0	267386880	54	5376
2026-01-13 01:10:51.83	23.90	24.95	-41.7	-44.7	19.0	6.03e-01	0	58	0	268959744	54	5260
2026-01-13 01:10:52.84	23.97	25.13	-41.6	-44.7	19.0	6.01e-01	0	58	0	271056896	54	5220
2026-01-13 01:10:53.85	24.04	25.31	-41.6	-44.6	19.1	6.04e-01	0	58	0	273154048	54	5164
2026-01-13 01:10:54.86	24.10	25.49	-41.5	-44.4	19.3	6.03e-01	0	58	0	274726912	54	5089
2026-01-13 01:10:55.87	24.17	25.68	-41.5	-44.3	19.3	6.02e-01	0	58	0	276824064	54	5041
2026-01-13 01:10:56.87	24.24	25.86	-41.5	-44.4	19.3	6.03e-01	0	58	0	278396928	54	5090
2026-01-13 01:10:57.88	24.31	26.05	-41.6	-44.6	19.2	6.04e-01	0	58	0	280494080	54	5164
2026-01-13 01:10:58.89	24.38	26.23	-41.7	-44.7	19.0	6.05e-01	0	58	0	282591232	54	5278
2026-01-13 01:10:59.91	24.45	26.42	-41.7	-44.7	19.0	6.01e-01	0	58	0	284164096	54	5242
2026-01-13 01:11:00.91	24.52	26.61	-41.7	-44.7	19.1	6.01e-01	0	58	0	286261248	54	5221
2026-01-13 01:11:01.92	24.60	26.80	-41.6	-44.5	19.2	6.02e-01	0	58	0	288358400	54	5125
2026-01-13 01:11:02.93	24.67	27.00	-41.5	-44.4	19.3	6.02e-01	0	58	0	289931264	54	5078
2026-01-13 01:11:03.95	24.75	27.19	-41.4	-44.3	19.5	6.04e-01	0	58	0	292028416	54	4994
2026-01-13 01:11:04.96	24.82	27.39	-41.4	-44.2	19.6	6.06e-01	0	58	0	293601280	54	4946
2026-01-13 01:11:05.96	24.90	27.59	-41.4	-44.2	19.5	6.05e-01	0	58	0	295698432	54	4974
2026-01-13 01:11:06.97	24.98	27.79	-41.5	-44.3	19.4	6.02e-01	0	58	0	297795584	54	5040
2026-01-13 01:11:07.98	25.05	27.99	-41.6	-44.5	19.3	6.03e-01	0	58	0	299368448	54	5125
2026-01-13 01:11:08.99	25.13	28.19	-41.6	-44.5	19.3	6.04e-01	0	58	0	301465600	54	5118
2026-01-13 01:11:10.00	25.21	28.39	-41.5	-44.4	19.4	6.05e-01	0	58	0	303038464	54	5049
2026-01-13 01:11:11.01	25.30	28.60	-41.4	-44.2	19.5	6.03e-01	0	58	0	305135616	54	4956
2026-01-13 01:11:12.02	25.38	28.80	-41.2	-44.0	19.8	6.05e-01	0	58	0	307232768	54	4830
2026-01-13 01:11:13.03	25.46	29.01	-41.1	-43.7	20.0	6.02e-01	0	58	0	308805632	54	4695
2026-01-13 01:11:14.04	25.55	29.22	-41.1	-43.7	20.1	6.03e-01	0	59	0	310902784	54	4686
2026-01-13 01:11:15.05	25.63	29.44	-41.2	-43.9	19.9	6.04e-01	0	58	0	312475648	54	4763
2026-01-13 01:11:16.06	25.72	29.65	-41.2	-43.9	19.9	6.05e-01	0	58	0	314572800	54	4771
2026-01-13 01:11:17.07	25.81	29.86	-41.2	-44.0	19.9	6.04e-01	0	58	0	316669952	54	4818
2026-01-13 01:11:18.08	25.90	30.08	-41.3	-44.0	19.9	6.04e-01	0	58	0	318242816	54	4832
2026-01-13 01:11:19.09	25.99	30.30	-41.2	-44.0	19.8	6.04e-01	0	59	0	320339968	54	4825
2026-01-13 01:11:20.10	26.08	30.52	-41.2	-44.0	19.8	6.03e-01	0	58	0	321912832	54	4826
2026-01-13 01:11:21.11	26.17	30.74	-41.2	-43.9	19.9	6.06e-01	0	58	0	324009984	54	4781
2026-01-13 01:11:22.12	26.27	30.97	-41.2	-43.8	20.0	6.03e-01	0	58	0	326107136	54	4756
2026-01-13 01:11:23.13	26.36	31.19	-41.2	-43.8	20.0	6.03e-01	0	59	0	327680000	54	4752
2026-01-13 01:11:24.14	26.46	31.42	-41.3	-44.1	19.8	6.03e-01	0	58	0	329777152	54	4892
2026-01-13 01:11:25.15	26.56	31.65	-41.5	-44.3	19.6	6.03e-01	0	59	0	331874304	54	5016
2026-01-13 01:11:26.16	26.66	31.88	-41.6	-44.5	19.4	6.03e-01	0	59	0	333447168	54	5121
2026-01-13 01:11:27.17	26.76	32.11	-41.5	-44.3	19.5	6.04e-01	0	59	0	335544320	54	5025
2026-01-13 01:11:28.18	26.86	32.35	-41.4	-44.2	19.7	6.01e-01	0	59	0	337117184	54	4932
2026-01-13 01:11:29.19	26.96	32.58	-41.3	-44.1	19.8	6.01e-01	0	58	0	339214336	54	4872
2026-01-13 01:11:30.20	27.07	32.82	-41.4	-44.2	19.7	6.05e-01	0	59	0	341311488	54	4966
2026-01-13 01:11:31.21	27.17	33.06	-41.5	-44.4	19.5	6.01e-01	0	59	0	342884352	54	5056
2026-01-13 01:11:32.22	27.28	33.30	-41.6	-44.6	19.3	6.03e-01	0	59	0	344981504	54	5163
2026-01-13 01:11:33.23	27.39	33.55	-41.7	-44.6	19.3	6.03e-01	0	59	0	346554368	54	5208
2026-01-13 01:11:34.23	27.50	33.79	-41.8	-44.8	19.1	6.03e-01	0	58	0	348651520	54	5298
2026-01-13 01:11:35.24	27.62	34.04	-41.9	-44.9	19.0	6.03e-01	0	59	0	350748672	54	5378
2026-01-13 01:11:36.26	27.73	34.30	-41.9	-45.0	18.9	6.05e-01	0	59	0	352321536	54	5425
2026-01-13 01:11:37.26	27.85	34.55	-41.9	-45.0	18.9	6.03e-01	0	59	0	354418688	54	5437
2026-01-13 01:11:38.27	27.97	34.80	-41.9	-45.0	18.9	6.04e-01	0	59	0	356515840	54	5422
2026-01-13 01:11:39.28	28.09	35.06	-42.1	-45.2	18.7	6.03e-01	0	58	0	358088704	54	5553
2026-01-13 01:11:40.29	28.21	35.32	-42.2	-45.4	18.6	6.03e-01	0	59	0	360185856	54	5666
2026-01-13 01:11:41.30	28.34	35.58	-42.3	-45.6	18.3	6.04e-01	0	59	0	361758720	55	5506
2026-01-13 01:11:42.31	28.46	35.84	-42.3	-45.6	18.3	6.04e-01	0	59	0	363855872	55	5498
2026-01-13 01:11:43.32	28.59	36.11	-42.2	-45.5	18.4	6.01e-01	0	59	0	365953024	55	5406
2026-01-13 01:11:44.33	28.72	36.37	-42.3	-45.5	18.4	6.05e-01	0	59	0	367525888	55	5442
2026-01-13 01:11:45.34	28.86	36.64	-42.4	-45.8	18.2	6.04e-01	0	59	0	369623040	55	5607
2026-01-13 01:11:46.35	28.99	36.91	-42.7	-46.3	17.7	6.05e-01	0	59	0	371195904	55	5941
2026-01-13 01:11:47.36	29.13	37.19	-42.9	-46.5	17.5	6.03e-01	0	59	0	373293056	56	5750
2026-01-13 01:11:48.37	29.27	37.47	-42.8	-46.4	17.7	6.04e-01	0	59	0	375390208	56	5660
2026-01-13 01:11:49.38	29.41	37.74	-42.7	-46.2	17.9	6.03e-01	0	59	0	376963072	56	5529
2026-01-13 01:11:50.39	29.55	38.03	-42.7	-46.2	17.8	6.04e-01	0	59	0	379060224	56	5575
2026-01-13 01:11:51.39	29.70	38.31	-42.9	-46.5	17.6	6.02e-01	0	59	0	380633088	56	5749
2026-01-13 01:11:52.40	29.85	38.59	-43.1	-46.8	17.2	6.04e-01	0	59	0	382730240	56	5979
2026-01-13 01:11:53.41	30.00	38.88	-42.9	-46.6	17.4	6.03e-01	0	59	0	384827392	56	5827
2026-01-13 01:11:54.42	30.16	39.17	-42.9	-46.5	17.5	6.04e-01	0	58	0	386400256	56	5780
2026-01-13 01:11:55.43	30.31	39.46	-42.9	-46.5	17.5	6.03e-01	0	59	0	388497408	56	5770
2026-01-13 01:11:56.44	30.48	39.76	-42.9	-46.6	17.4	6.03e-01	0	59	0	390070272	56	5835
2026-01-13 01:11:57.45	30.64	40.06	-42.9	-46.4	17.6	6.02e-01	0	59	0	392167424	56	5712
2026-01-13 01:11:58.46	30.81	40.36	-42.8	-46.3	17.8	6.04e-01	0	59	0	394264576	56	5616
2026-01-13 01:11:59.47	30.98	40.66	-42.7	-46.1	18.0	6.05e-01	0	59	0	395837440	56	5510
2026-01-13 01:12:00.48	31.15	40.96	-42.5	-45.8	18.2	6.03e-01	0	59	0	397934592	56	5324
2026-01-13 01:12:01.49	31.32	41.27	-42.4	-45.7	18.4	6.03e-01	0	59	0	400031744	56	5230
2026-01-13 01:12:02.50	31.50	41.58	-42.3	-45.5	18.6	6.02e-01	0	59	0	401604608	56	5129
2026-01-13 01:12:03.51	31.69	41.89	-42.2	-45.3	18.8	6.02e-01	0	59	0	403701760	56	4998
2026-01-13 01:12:04.52	31.87	42.21	-42.1	-45.1	19.0	6.01e-01	0	59	0	405274624	56	4903
2026-01-13 01:12:05.53	32.06	42.53	-41.8	-44.7	19.3	6.06e-01	0	59	0	407371776	55	4968
2026-01-13 01:12:06.54	32.26	42.85	-41.8	-44.8	19.2	6.01e-01	0	59	0	409468928	55	4987
2026-01-13 01:12:07.55	32.46	43.17	-41.7	-44.5	19.4	6.04e-01	0	59	0	411041792	55	4869
2026-01-13 01:12:08.56	32.66	43.49	-41.7	-44.5	19.5	6.04e-01	0	59	0	413138944	55	4844
2026-01-13 01:12:09.57	32.86	43.82	-41.5	-44.3	19.7	6.03e-01	0	59	0	414711808	55	4750
2026-01-13 01:12:10.58	33.07	44.15	-41.3	-44.0	20.0	6.02e-01	0	59	0	416808960	54	4821
2026-01-13 01:12:11.59	33.29	44.49	-41.4	-44.1	19.8	6.01e-01	0	59	0	418906112	54	4926
2026-01-13 01:12:12.59	33.51	44.82	-41.6	-44.4	19.6	6.03e-01	0	59	0	420478976	54	5068
2026-01-13 01:12:13.60	33.73	45.16	-41.3	-44.0	19.9	6.03e-01	0	59	0	422576128	54	4864
2026-01-13 01:12:14.61	33.96	45.50	-41.4	-44.1	19.9	6.02e-01	0	59	0	424148992	54	4894
2026-01-13 01:12:15.62	34.19	45.84	-41.4	-44.1	19.9	6.03e-01	0	59	0	426246144	54	4909
2026-01-13 01:12:16.63	34.43	46.19	-41.4	-44.1	20.0	6.04e-01	0	59	0	428343296	54	4871
2026-01-13 01:12:17.64	34.68	46.53	-41.3	-44.0	20.0	6.02e-01	0	59	0	429916160	54	4857
2026-01-13 01:12:18.65	34.93	46.88	-41.4	-44.1	19.9	6.06e-01	0	59	0	432013312	54	4883
2026-01-13 01:12:19.66	35.18	47.24	-41.5	-44.3	19.7	6.04e-01	0	59	0	433586176	54	5028
2026-01-13 01:12:20.67	35.44	47.59	-41.5	-44.2	19.7	6.02e-01	0	59	0	435683328	54	4983
2026-01-13 01:12:21.68	35.71	47.95	-41.3	-43.9	20.1	6.03e-01	0	59	0	437780480	54	4792
2026-01-13 01:12:22.69	35.98	48.31	-41.5	-44.3	19.7	6.01e-01	0	59	0	439353344	54	5009
2026-01-13 01:12:23.70	36.26	48.68	-41.5	-44.2	19.8	6.01e-01	0	59	0	441450496	54	4962
2026-01-13 01:12:24.71	36.55	49.04	-41.3	-44.0	20.1	6.03e-01	0	59	0	443547648	54	4822
2026-01-13 01:12:25.72	36.85	49.41	-41.4	-44.1	20.0	6.03e-01	0	59	0	445120512	54	4881
2026-01-13 01:12:26.73	37.15	49.78	-41.3	-44.0	20.1	6.03e-01	0	59	0	447217664	54	4835
2026-01-13 01:12:27.74	37.45	50.15	-41.4	-44.0	20.0	6.02e-01	0	59	0	448790528	54	4862
2026-01-13 01:12:28.75	37.77	50.53	-41.3	-44.0	20.0	6.03e-01	0	59	0	450887680	54	4837
2026-01-13 01:12:29.76	38.10	50.91	-41.0	-43.5	20.5	6.05e-01	0	59	0	452984832	54	4583
2026-01-13 01:12:30.76	38.42	51.28	-41.1	-43.7	20.3	6.00e-01	0	59	0	454557696	53	4979
2026-01-13 01:12:31.77	38.76	51.67	-41.3	-43.9	20.1	6.01e-01	0	59	0	456654848	53	5064
2026-01-13 01:12:32.78	39.11	52.05	-40.9	-43.3	20.7	6.02e-01	0	59	0	458227712	53	4743
2026-01-13 01:12:33.79	39.47	52.44	-41.0	-43.5	20.5	6.05e-01	0	59	0	460324864	53	4866
2026-01-13 01:12:34.80	39.84	52.82	-40.9	-43.4	20.6	6.04e-01	0	59	0	462422016	53	4775
2026-01-13 01:12:35.81	40.22	53.21	-41.1	-43.6	20.4	6.02e-01	0	59	0	463994880	53	4901
2026-01-13 01:12:36.82	40.61	53.61	-41.1	-43.7	20.4	6.00e-01	0	59	0	466092032	53	4929
2026-01-13 01:12:37.83	41.01	54.00	-41.1	-43.7	20.3	6.03e-01	0	59	0	468189184	53	4950
2026-01-13 01:12:38.84	41.42	54.40	-41.0	-43.6	20.5	6.05e-01	0	59	0	469762048	53	4871
2026-01-13 01:12:39.85	41.84	54.80	-41.3	-44.0	20.0	6.04e-01	0	59	0	471859200	53	5140
2026-01-13 01:12:40.86	42.27	55.19	-41.4	-44.1	20.0	6.03e-01	0	59	0	473432064	53	5188
2026-01-13 01:12:41.87	42.72	55.60	-41.4	-44.2	19.9	6.04e-01	0	59	0	475529216	53	5228
2026-01-13 01:12:42.88	43.18	56.00	-41.4	-44.1	20.0	6.02e-01	0	59	0	477626368	53	5188
2026-01-13 01:12:43.89	43.65	56.40	-41.8	-44.6	19.4	6.03e-01	0	59	0	479199232	54	5218
2026-01-13 01:12:44.90	44.14	56.81	-41.8	-44.7	19.4	6.02e-01	0	59	0	481296384	54	5274
2026-01-13 01:12:45.91	44.64	57.21	-42.0	-45.0	19.0	6.03e-01	0	59	0	482869248	54	5464
2026-01-13 01:12:46.92	45.16	57.62	-42.1	-45.1	19.0	6.03e-01	0	59	0	484966400	54	5492
2026-01-13 01:12:47.92	45.68	58.02	-42.1	-45.2	18.9	6.03e-01	0	59	0	487063552	54	5529
2026-01-13 01:12:48.93	46.23	58.43	-42.5	-45.9	18.2	6.02e-01	0	59	0	488636416	55	5706
2026-01-13 01:12:49.94	46.80	58.84	-42.4	-45.6	18.4	6.04e-01	0	59	0	490733568	55	5502
2026-01-13 01:12:50.95	47.38	59.25	-42.6	-45.9	18.1	6.04e-01	0	59	0	492306432	55	5702
2026-01-13 01:12:51.96	47.98	59.66	-42.9	-46.4	17.8	6.00e-01	0	59	0	494403584	56	5674
2026-01-13 01:12:52.98	48.61	60.07	-43.1	-46.8	17.3	6.03e-01	0	59	0	496500736	56	5978
2026-01-13 01:12:53.99	49.25	60.48	-43.1	-46.8	17.3	6.01e-01	0	59	0	498073600	56	5983
2026-01-13 01:12:55.00	49.91	60.89	-43.1	-46.8	17.4	6.05e-01	0	59	0	500170752	56	5988
2026-01-13 01:12:56.00	50.59	61.29	-43.4	-47.4	16.7	6.02e-01	0	59	0	501743616	57	6060
2026-01-13 01:12:57.01	51.30	61.70	-43.3	-47.3	16.9	6.05e-01	0	59	0	503840768	57	5927
2026-01-13 01:12:58.02	52.03	62.10	-43.5	-47.7	16.5	6.04e-01	0	59	0	505937920	57	6207
2026-01-13 01:12:59.03	52.78	62.51	-43.4	-47.4	16.8	6.05e-01	0	59	0	507510784	57	6036
2026-01-13 01:13:00.04	53.56	62.91	-43.7	-48.0	16.2	6.04e-01	0	59	0	509607936	57	6440
2026-01-13 01:13:01.05	54.37	63.31	-43.7	-47.9	16.2	6.02e-01	0	59	0	511180800	58	6014
2026-01-13 01:13:02.06	55.20	63.70	-43.7	-47.9	16.3	6.04e-01	0	59	0	513277952	58	6045
2026-01-13 01:13:03.07	56.07	64.10	-43.8	-48.1	16.1	6.02e-01	0	59	0	515375104	58	6177
2026-01-13 01:13:04.08	56.96	64.49	-43.9	-48.4	15.7	6.02e-01	0	59	0	516947968	58	6402
2026-01-13 01:13:05.09	57.89	64.88	-44.0	-48.7	15.5	6.02e-01	0	59	0	519045120	58	6573
2026-01-13 01:13:06.10	58.84	65.26	-44.1	-49.0	15.2	6.04e-01	0	59	0	521142272	58	6831
2026-01-13 01:13:07.11	59.83	65.64	-44.3	-49.3	14.8	6.05e-01	0	59	0	522715136	59	6689
2026-01-13 01:13:08.12	60.86	66.02	-44.5	-49.9	14.3	6.05e-01	0	59	0	524812288	59	7136
2026-01-13 01:13:09.13	61.92	66.38	-44.4	-49.8	14.3	6.06e-01	0	59	0	526385152	59	7057
2026-01-13 01:13:10.14	63.01	66.75	-44.5	-50.1	14.0	6.06e-01	0	59	0	528482304	59	7308
2026-01-13 01:13:11.15	64.15	67.10	-44.7	-50.5	13.6	6.05e-01	0	59	0	530579456	59	7646
2026-01-13 01:13:12.16	65.32	67.46	-44.5	-50.1	14.0	6.04e-01	0	59	0	532152320	59	7290
2026-01-13 01:13:13.17	66.53	67.80	-44.6	-50.4	13.7	6.05e-01	0	59	0	534249472	59	7572
2026-01-13 01:13:14.17	67.78	68.13	-44.4	-49.7	14.4	6.03e-01	0	59	0	536346624	59	6974
2026-01-13 01:13:15.18	69.07	68.46	-44.4	-49.7	14.4	6.05e-01	0	59	0	537919488	59	6982
2026-01-13 01:13:16.19	70.41	68.77	-44.3	-49.6	14.5	6.05e-01	0	59	0	540016640	59	6917
2026-01-13 01:13:17.20	71.79	69.08	-44.3	-49.4	14.7	6.03e-01	0	59	0	541589504	59	6772
2026-01-13 01:13:18.21	73.22	69.38	-44.3	-49.5	14.6	6.01e-01	0	59	0	543686656	59	6816
2026-01-13 01:13:19.22	74.69	69.66	-44.2	-49.3	14.8	6.03e-01	0	59	0	545783808	59	6674
2026-01-13 01:13:20.23	76.20	69.94	-44.2	-49.1	14.9	6.02e-01	0	59	0	547356672	59	6566
2026-01-13 01:13:21.24	77.76	70.20	-44.1	-49.1	15.1	6.04e-01	0	59	0	549453824	59	6515
2026-01-13 01:13:22.25	79.36	70.44	-44.3	-49.5	14.5	6.05e-01	0	59	0	551026688	59	6876
2026-01-13 01:13:23.25	80.99	70.68	-44.0	-48.7	15.4	6.04e-01	0	59	0	553123840	59	6271
2026-01-13 01:13:24.27	82.69	70.90	-44.0	-48.6	15.5	6.02e-01	0	59	0	555220992	59	6196
2026-01-13 01:13:25.28	84.41	71.10	-44.2	-49.3	14.8	6.05e-01	0	59	0	556793856	59	6651
2026-01-13 01:13:26.29	86.18	71.29	-43.7	-48.1	16.1	6.04e-01	0	59	0	558891008	59	5801
2026-01-13 01:13:27.29	87.96	71.46	-43.9	-48.4	15.8	6.02e-01	0	59	0	560463872	59	6040
2026-01-13 01:13:28.30	89.79	71.61	-43.8	-48.3	15.8	6.02e-01	0	59	0	562561024	59	5932
2026-01-13 01:13:29.31	91.66	71.75	-43.5	-47.6	16.5	6.02e-01	0	59	0	564658176	58	5843
2026-01-13 01:13:30.32	93.55	71.87	-43.3	-47.2	16.9	6.03e-01	0	59	0	566231040	58	5582
2026-01-13 01:13:31.33	95.47	71.97	-43.7	-48.1	16.0	6.03e-01	0	59	0	568328192	58	6185
2026-01-13 01:13:32.34	97.40	72.05	-43.3	-47.3	16.8	6.04e-01	0	59	0	569901056	58	5647
2026-01-13 01:13:33.35	99.36	72.11	-43.4	-47.4	16.7	6.04e-01	0	59	0	571998208	58	5695
2026-01-13 01:13:34.36	101.32	72.15	-43.7	-48.2	15.9	6.02e-01	0	59	0	574095360	58	6253
2026-01-13 01:13:35.37	103.29	72.17	-43.5	-47.7	16.4	6.04e-01	0	59	0	575668224	58	5901
2026-01-13 01:13:36.38	105.27	72.17	-43.4	-47.4	16.6	6.07e-01	0	59	0	577765376	58	5719
2026-01-13 01:13:37.39	107.24	72.15	-43.7	-48.1	16.0	6.02e-01	0	59	0	579338240	58	6188
2026-01-13 01:13:38.40	109.21	72.12	-43.6	-48.0	16.1	6.04e-01	0	59	0	581435392	58	6082
2026-01-13 01:13:39.41	111.16	72.06	-43.3	-47.2	16.8	6.04e-01	0	59	0	583532544	58	5582
2026-01-13 01:13:40.42	113.10	71.98	-43.5	-47.8	16.3	6.03e-01	0	59	0	585105408	58	5936
2026-01-13 01:13:41.43	115.02	71.88	-43.6	-48.0	16.1	6.04e-01	0	59	0	587202560	58	6102
2026-01-13 01:13:42.43	116.90	71.77	-43.3	-47.2	16.9	6.04e-01	0	59	0	589299712	58	5580
2026-01-13 01:13:43.45	118.79	71.63	-43.4	-47.4	16.7	6.04e-01	0	59	0	590872576	58	5704
2026-01-13 01:13:44.45	120.61	71.48	-43.4	-47.5	16.6	6.00e-01	0	59	0	592969728	58	5743
2026-01-13 01:13:45.46	122.42	71.31	-43.3	-47.3	16.7	6.04e-01	0	59	0	594542592	58	5631
2026-01-13 01:13:46.47	124.19	71.13	-43.2	-47.2	16.9	6.03e-01	0	59	0	596639744	58	5544
2026-01-13 01:13:47.48	125.92	70.93	-43.5	-47.8	16.3	6.02e-01	0	59	0	598736896	58	5942
2026-01-13 01:13:48.49	127.61	70.71	-43.7	-48.1	16.0	6.04e-01	0	59	0	600309760	58	6160
2026-01-13 01:13:49.50	129.26	70.48	-43.5	-47.8	16.3	6.05e-01	0	59	0	602406912	58	5948
2026-01-13 01:13:50.51	130.87	70.23	-43.6	-47.9	16.3	6.02e-01	0	60	0	603979776	58	6014
2026-01-13 01:13:51.52	132.44	69.97	-43.9	-48.5	15.6	6.05e-01	0	59	0	606076928	58	6440
2026-01-13 01:13:52.53	133.96	69.70	-43.8	-48.3	15.8	6.05e-01	0	59	0	608174080	58	6281
2026-01-13 01:13:53.54	135.43	69.42	-43.6	-48.0	16.2	6.03e-01	0	59	0	609746944	58	6075
2026-01-13 01:13:54.55	136.87	69.12	-43.7	-48.2	15.9	6.04e-01	0	59	0	611844096	58	6265
2026-01-13 01:13:55.56	138.26	68.81	-43.8	-48.3	15.9	6.02e-01	0	60	0	613416960	58	6284
2026-01-13 01:13:56.57	139.60	68.50	-43.6	-47.8	16.2	6.01e-01	0	59	0	615514112	58	5972
2026-01-13 01:13:57.58	140.91	68.17	-43.5	-47.7	16.4	6.01e-01	0	59	0	617611264	58	5893
2026-01-13 01:13:58.59	142.17	67.84	-43.7	-48.2	16.0	6.04e-01	0	59	0	619184128	58	6206
2026-01-13 01:13:59.60	143.39	67.49	-43.8	-48.3	15.8	6.04e-01	0	59	0	621281280	58	6280
2026-01-13 01:14:00.59	144.54	67.15	-43.4	-47.4	16.7	6.03e-01	0	59	0	622854144	58	5698
2026-01-13 01:14:01.60	145.69	66.79	-43.6	-47.8	16.4	6.03e-01	0	59	0	624951296	58	5966
2026-01-13 01:14:02.60	146.78	66.43	-43.7	-48.1	16.0	6.02e-01	0	59	0	627048448	58	6158
2026-01-13 01:14:03.61	147.85	66.07	-43.8	-48.3	15.8	6.02e-01	0	59	0	628621312	58	6297
2026-01-13 01:14:04.62	148.88	65.69	-43.3	-47.3	16.8	6.04e-01	0	59	0	630718464	58	5626
2026-01-13 01:14:05.63	149.87	65.31	-43.4	-47.5	16.7	6.04e-01	0	60	0	632815616	58	5760
2026-01-13 01:14:06.64	150.84	64.93	-43.6	-47.8	16.4	6.02e-01	0	59	0	634388480	58	5960
2026-01-13 01:14:07.65	151.77	64.54	-43.4	-47.6	16.6	6.03e-01	0	59	0	636485632	58	5790
2026-01-13 01:14:08.66	152.67	64.15	-43.2	-47.1	17.1	6.05e-01	0	59	0	638058496	58	5467
2026-01-13 01:14:09.67	153.53	63.75	-43.2	-47.0	17.1	6.05e-01	0	60	0	640155648	58	5452
2026-01-13 01:14:10.68	154.37	63.35	-42.9	-46.6	17.6	6.04e-01	0	59	0	642252800	57	5473
2026-01-13 01:14:11.69	155.19	62.95	-43.2	-47.0	17.1	6.01e-01	0	59	0	643825664	57	5784
2026-01-13 01:14:12.70	155.97	62.55	-42.6	-45.9	18.2	6.02e-01	0	59	0	645922816	57	5061
2026-01-13 01:14:13.71	156.73	62.15	-42.3	-45.4	18.8	6.05e-01	0	59	0	647495680	56	5064
2026-01-13 01:14:14.72	157.47	61.74	-42.5	-45.9	18.3	6.04e-01	0	59	0	649592832	56	5359
2026-01-13 01:14:15.73	158.18	61.33	-42.6	-46.0	18.1	6.04e-01	0	59	0	651689984	56	5460
2026-01-13 01:14:16.74	158.87	60.93	-42.5	-45.9	18.3	6.04e-01	0	59	0	653262848	56	5345
2026-01-13 01:14:17.75	159.53	60.52	-42.4	-45.7	18.5	6.04e-01	0	59	0	655360000	56	5276
2026-01-13 01:14:18.76	160.18	60.11	-42.5	-45.7	18.4	6.04e-01	0	59	0	656932864	56	5263
2026-01-13 01:14:19.77	160.80	59.70	-42.5	-45.8	18.4	6.00e-01	0	59	0	659030016	56	5306
2026-01-13 01:14:20.78	161.41	59.29	-42.5	-45.9	18.3	6.03e-01	0	59	0	661127168	56	5342
2026-01-13 01:14:21.79	161.99	58.88	-42.4	-45.6	18.6	6.01e-01	0	59	0	662700032	56	5170
2026-01-13 01:14:22.80	162.56	58.47	-42.6	-45.9	18.3	6.05e-01	0	60	0	664797184	56	5377
2026-01-13 01:14:23.81	163.11	58.06	-42.5	-45.8	18.3	6.05e-01	0	60	0	666370048	56	5335
2026-01-13 01:14:24.82	163.65	57.65	-42.0	-45.0	19.2	6.02e-01	0	59	0	668467200	56	4850
2026-01-13 01:14:25.83	164.17	57.24	-41.8	-44.7	19.4	6.04e-01	0	59	0	670564352	55	4949
2026-01-13 01:14:26.83	164.67	56.83	-41.8	-44.7	19.4	6.03e-01	0	59	0	672137216	55	4932
2026-01-13 01:14:27.84	165.16	56.43	-41.7	-44.6	19.6	6.05e-01	0	59	0	674234368	55	4873
2026-01-13 01:14:28.85	165.63	56.02	-41.7	-44.6	19.5	6.02e-01	0	60	0	675807232	55	4912
2026-01-13 01:14:29.86	166.09	55.62	-41.4	-44.1	20.0	6.04e-01	0	59	0	677904384	54	4898
2026-01-13 01:14:30.88	166.55	55.21	-41.3	-44.0	20.1	6.02e-01	0	59	0	680001536	54	4852
2026-01-13 01:14:31.88	166.98	54.82	-41.1	-43.7	20.3	6.03e-01	0	60	0	681574400	54	4705
2026-01-13 01:14:32.89	167.40	54.42	-41.1	-43.8	20.3	6.02e-01	0	59	0	683671552	54	4709
2026-01-13 01:14:33.90	167.81	54.02	-41.1	-43.7	20.4	6.03e-01	0	59	0	685768704	54	4683
2026-01-13 01:14:34.91	168.22	53.62	-41.2	-43.9	20.2	6.04e-01	0	59	0	687341568	54	4769
2026-01-13 01:14:35.92	168.61	53.23	-41.3	-44.1	20.0	6.01e-01	0	59	0	689438720	54	4874
2026-01-13 01:14:36.93	168.99	52.84	-41.3	-44.0	20.1	6.04e-01	0	60	0	691011584	54	4819
2026-01-13 01:14:37.94	169.36	52.45	-41.2	-43.8	20.3	6.02e-01	0	59	0	693108736	54	4752
2026-01-13 01:14:38.95	169.72	52.06	-41.4	-44.1	20.0	6.03e-01	0	59	0	695205888	54	4907
2026-01-13 01:14:39.96	170.07	51.67	-41.8	-44.7	19.4	6.02e-01	0	60	0	696778752	54	5255
2026-01-13 01:14:40.97	170.41	51.29	-41.6	-44.5	19.6	6.04e-01	0	59	0	698875904	54	5109
2026-01-13 01:14:41.98	170.74	50.91	-41.6	-44.4	19.6	6.03e-01	0	59	0	700973056	54	5099
2026-01-13 01:14:42.99	171.07	50.53	-41.6	-44.4	19.7	6.04e-01	0	60	0	702545920	54	5072
2026-01-13 01:14:44.00	171.39	50.15	-41.8	-44.7	19.4	6.03e-01	0	60	0	704643072	54	5263
2026-01-13 01:14:45.01	171.70	49.78	-41.9	-44.8	19.2	6.04e-01	0	60	0	706215936	54	5339
2026-01-13 01:14:46.01	172.00	49.41	-42.0	-45.0	19.1	6.04e-01	0	60	0	708313088	54	5419
2026-01-13 01:14:47.02	172.29	49.04	-42.1	-45.2	18.9	6.04e-01	0	59	0	710410240	54	5574
2026-01-13 01:14:48.03	172.58	48.67	-42.0	-45.2	18.9	6.05e-01	0	59	0	711983104	54	5535
2026-01-13 01:14:49.04	172.86	48.30	-41.9	-44.9	19.1	6.02e-01	0	59	0	714080256	54	5369
2026-01-13 01:14:50.05	173.13	47.94	-41.9	-44.9	19.2	6.04e-01	0	60	0	715653120	54	5359
2026-01-13 01:14:51.06	173.40	47.58	-41.9	-44.9	19.2	6.03e-01	0	60	0	717750272	54	5366
2026-01-13 01:14:52.07	173.66	47.22	-42.1	-45.2	18.9	6.03e-01	0	60	0	719847424	54	5553
2026-01-13 01:14:53.08	173.92	46.87	-41.8	-44.8	19.2	6.04e-01	0	60	0	721420288	54	5310
2026-01-13 01:14:54.09	174.17	46.52	-41.7	-44.6	19.4	6.03e-01	0	60	0	723517440	54	5216
2026-01-13 01:14:55.09	174.41	46.17	-41.7	-44.6	19.4	6.05e-01	0	60	0	725090304	54	5199
2026-01-13 01:14:56.10	174.65	45.82	-41.8	-44.7	19.3	6.03e-01	0	59	0	727187456	54	5277
2026-01-13 01:14:57.11	174.89	45.48	-41.9	-45.0	19.0	6.02e-01	0	60	0	729284608	54	5433
2026-01-13 01:14:58.12	175.12	45.13	-42.0	-45.2	18.9	6.02e-01	0	60	0	730857472	54	5534
2026-01-13 01:14:59.13	175.34	44.80	-41.9	-45.0	19.1	6.03e-01	0	60	0	732954624	54	5417
2026-01-13 01:15:00.14	175.56	44.46	-41.7	-44.6	19.5	6.05e-01	0	59	0	734527488	54	5173
2026-01-13 01:15:01.15	175.78	44.12	-41.7	-44.5	19.5	6.03e-01	0	59	0	736624640	54	5143
2026-01-13 01:15:02.16	175.99	43.79	-41.6	-44.4	19.6	6.02e-01	0	59	0	738721792	54	5094
2026-01-13 01:15:03.17	176.20	43.46	-41.6	-44.5	19.5	6.03e-01	0	60	0	740294656	54	5130
2026-01-13 01:15:04.18	176.40	43.13	-41.9	-44.9	19.1	6.03e-01	0	59	0	742391808	54	5392
2026-01-13 01:15:05.19	176.60	42.81	-41.9	-45.0	19.0	6.02e-01	0	60	0	743964672	54	5451
2026-01-13 01:15:06.20	176.79	42.49	-41.9	-44.9	19.1	6.03e-01	0	60	0	746061824	54	5395
2026-01-13 01:15:07.21	176.98	42.17	-42.1	-45.2	18.8	6.01e-01	0	60	0	748158976	54	5570
2026-01-13 01:15:08.22	177.17	41.85	-42.3	-45.6	18.4	6.01e-01	0	60	0	749731840	55	5523
2026-01-13 01:15:09.23	177.35	41.54	-42.4	-45.8	18.2	6.02e-01	0	59	0	751828992	55	5636
2026-01-13 01:15:10.24	177.53	41.23	-42.4	-45.8	18.2	6.02e-01	0	60	0	753926144	55	5598
2026-01-13 01:15:11.25	177.71	40.92	-42.4	-45.8	18.2	6.03e-01	0	60	0	755499008	55	5604
2026-01-13 01:15:12.26	177.88	40.61	-42.4	-45.8	18.1	6.06e-01	0	60	0	757596160	55	5634
2026-01-13 01:15:13.26	178.05	40.31	-42.3	-45.7	18.3	6.03e-01	0	60	0	759169024	55	5537
2026-01-13 01:15:14.27	178.22	40.01	-42.3	-45.7	18.3	6.03e-01	0	60	0	761266176	55	5540
2026-01-13 01:15:15.28	178.38	39.71	-42.3	-45.6	18.4	6.03e-01	0	59	0	763363328	55	5501
2026-01-13 01:15:16.29	178.54	39.41	-42.4	-45.8	18.1	6.02e-01	0	60	0	764936192	55	5626
2026-01-13 01:15:17.30	178.70	39.12	-42.3	-45.7	18.2	6.06e-01	0	59	0	767033344	55	5565
2026-01-13 01:15:18.31	178.86	38.83	-42.4	-45.8	18.2	6.02e-01	0	60	0	768606208	55	5604
2026-01-13 01:15:19.32	179.01	38.54	-42.3	-45.6	18.3	6.05e-01	0	59	0	770703360	55	5518
2026-01-13 01:15:20.33	179.16	38.25	-42.3	-45.7	18.2	6.03e-01	0	59	0	772800512	55	5568
2026-01-13 01:15:21.34	179.31	37.96	-42.3	-45.7	18.3	6.02e-01	0	59	0	774373376	55	5535
2026-01-13 01:15:22.35	179.45	37.68	-42.2	-45.6	18.4	6.04e-01	0	60	0	776470528	55	5468
2026-01-13 01:15:23.36	179.59	37.40	-42.2	-45.5	18.4	6.01e-01	0	60	0	778043392	55	5420
2026-01-13 01:15:24.37	179.73	37.12	-42.1	-45.3	18.6	6.03e-01	0	60	0	780140544	55	5311
2026-01-13 01:15:25.38	179.87	36.85	-42.1	-45.2	18.7	6.02e-01	0	60	0	782237696	55	5278
2026-01-13 01:15:26.39	180.00	36.57	-42.0	-45.2	18.7	6.03e-01	0	59	0	783810560	55	5241
2026-01-13 01:15:27.40	180.14	36.30	-42.0	-45.2	18.7	6.03e-01	0	60	0	785907712	55	5259
2026-01-13 01:15:28.41	180.27	36.03	-41.9	-45.1	18.9	6.04e-01	0	59	0	787480576	55	5166
2026-01-13 01:15:29.41	180.40	35.77	-41.8	-44.9	19.0	6.02e-01	0	60	0	789577728	55	5057
2026-01-13 01:15:30.43	180.52	35.50	-41.6	-44.6	19.3	6.02e-01	0	59	0	791674880	55	4896
2026-01-13 01:15:31.43	180.65	35.24	-41.5	-44.3	19.5	6.05e-01	0	59	0	793247744	55	4758
2026-01-13 01:15:32.44	180.77	34.98	-41.4	-44.3	19.6	6.02e-01	0	60	0	795344896	54	4987
2026-01-13 01:15:33.45	180.89	34.72	-41.3	-44.1	19.8	6.04e-01	0	59	0	797442048	54	4909
2026-01-13 01:15:34.46	181.01	34.47	-41.3	-44.1	19.8	6.06e-01	0	60	0	799014912	54	4889
2026-01-13 01:15:35.47	181.13	34.21	-41.2	-44.0	19.9	6.04e-01	0	60	0	801112064	54	4841
2026-01-13 01:15:36.48	181.24	33.96	-41.2	-44.0	19.9	6.04e-01	0	59	0	802684928	54	4822
2026-01-13 01:15:37.49	181.36	33.71	-41.2	-43.9	20.0	6.03e-01	0	59	0	804782080	54	4785
2026-01-13 01:15:38.50	181.47	33.47	-41.2	-43.9	20.0	6.03e-01	0	60	0	806879232	54	4777
2026-01-13 01:15:39.51	181.58	33.22	-41.1	-43.7	20.1	6.02e-01	0	60	0	808452096	54	4698
2026-01-13 01:15:40.52	181.69	32.98	-41.0	-43.6	20.2	6.02e-01	0	60	0	810549248	54	4641
2026-01-13 01:15:41.53	181.79	32.73	-40.9	-43.5	20.4	6.03e-01	0	59	0	812122112	53	4834
2026-01-13 01:15:42.54	181.90	32.49	-40.9	-43.4	20.4	6.04e-01	0	60	0	814219264	53	4804
2026-01-13 01:15:43.55	182.00	32.26	-40.9	-43.5	20.3	6.04e-01	0	59	0	816316416	53	4862
2026-01-13 01:15:44.56	182.10	32.02	-40.9	-43.5	20.3	6.04e-01	0	59	0	817889280	53	4854
2026-01-13 01:15:45.57	182.20	31.79	-40.9	-43.6	20.2	6.01e-01	0	59	0	819986432	53	4895
2026-01-13 01:15:46.58	182.30	31.55	-40.8	-43.4	20.4	6.03e-01	0	60	0	822083584	53	4795
2026-01-13 01:15:47.59	182.40	31.32	-40.8	-43.3	20.5	6.02e-01	0	60	0	823656448	53	4726
2026-01-13 01:15:48.60	182.50	31.10	-40.7	-43.2	20.6	6.04e-01	0	59	0	825753600	53	4691
2026-01-13 01:15:49.61	182.59	30.87	-40.6	-43.1	20.6	6.02e-01	0	60	0	827326464	53	4635
2026-01-13 01:15:50.62	182.69	30.64	-40.6	-43.1	20.7	6.02e-01	0	59	0	829423616	53	4632
2026-01-13 01:15:51.63	182.78	30.42	-40.7	-43.2	20.6	6.01e-01	0	60	0	831520768	53	4680
2026-01-13 01:15:52.64	182.87	30.20	-40.8	-43.3	20.5	6.03e-01	0	60	0	833093632	53	4734
2026-01-13 01:15:53.65	182.96	29.98	-40.7	-43.3	20.5	6.01e-01	0	60	0	835190784	53	4722
2026-01-13 01:15:54.66	183.05	29.76	-40.9	-43.4	20.3	6.04e-01	0	60	0	836763648	53	4813
2026-01-13 01:15:55.67	183.14	29.55	-40.9	-43.5	20.3	6.02e-01	0	60	0	838860800	53	4828
2026-01-13 01:15:56.68	183.23	29.33	-40.9	-43.6	20.2	6.04e-01	0	60	0	840957952	53	4884
2026-01-13 01:15:57.69	183.31	29.12	-41.0	-43.6	20.1	6.06e-01	0	60	0	842530816	53	4905
2026-01-13 01:15:58.70	183.40	28.91	-41.0	-43.7	20.1	6.02e-01	0	60	0	844627968	53	4933
2026-01-13 01:15:59.71	183.48	28.70	-41.0	-43.7	20.0	6.04e-01	0	60	0	846200832	53	4964
2026-01-13 01:16:00.71	183.56	28.49	-41.1	-43.8	20.0	6.03e-01	0	60	0	848297984	53	4991
2026-01-13 01:16:01.72	183.64	28.28	-41.1	-43.8	19.9	6.03e-01	0	60	0	850395136	53	5005
2026-01-13 01:16:02.73	183.72	28.08	-41.1	-43.8	19.9	6.03e-01	0	60	0	851968000	53	5021
2026-01-13 01:16:03.74	183.80	27.88	-41.1	-43.8	20.0	6.03e-01	0	60	0	854065152	53	4999
2026-01-13 01:16:04.75	183.88	27.68	-41.1	-43.8	19.9	6.02e-01	0	60	0	855638016	53	5030
2026-01-13 01:16:05.75	183.96	27.48	-41.1	-43.8	19.9	6.04e-01	0	60	0	857735168	53	5032
2026-01-13 01:16:06.76	184.03	27.28	-41.1	-43.9	19.8	6.03e-01	0	60	0	859832320	53	5072
2026-01-13 01:16:07.77	184.11	27.08	-41.2	-44.0	19.7	6.02e-01	0	60	0	861405184	53	5123
2026-01-13 01:16:08.78	184.18	26.89	-41.2	-44.1	19.6	6.04e-01	0	60	0	863502336	53	5164
2026-01-13 01:16:09.79	184.26	26.69	-41.3	-44.1	19.5	6.04e-01	0	60	0	865599488	53	5216
2026-01-13 01:16:10.80	184.33	26.50	-41.3	-44.2	19.5	6.05e-01	0	60	0	867172352	53	5239
2026-01-13 01:16:11.81	184.40	26.31	-41.4	-44.3	19.4	6.01e-01	0	60	0	869269504	53	5282
2026-01-13 01:16:12.82	184.47	26.12	-41.4	-44.3	19.3	6.00e-01	0	60	0	870842368	53	5318
2026-01-13 01:16:13.83	184.54	25.93	-41.4	-44.3	19.3	6.04e-01	0	60	0	872939520	53	5323
2026-01-13 01:16:14.84	184.61	25.74	-41.4	-44.4	19.3	6.04e-01	0	60	0	875036672	53	5359
2026-01-13 01:16:15.85	184.68	25.56	-41.4	-44.4	19.3	6.03e-01	0	60	0	876609536	53	5365
2026-01-13 01:16:16.86	184.75	25.37	-41.5	-44.5	19.1	6.03e-01	0	59	0	878706688	53	5423
2026-01-13 01:16:17.87	184.81	25.19	-41.4	-44.4	19.3	6.04e-01	0	60	0	880279552	53	5365
2026-01-13 01:16:18.88	184.88	25.01	-41.4	-44.4	19.2	6.03e-01	0	60	0	882376704	53	5363
2026-01-13 01:16:19.89	184.95	24.83	-41.4	-44.4	19.3	6.01e-01	0	59	0	884473856	53	5342
2026-01-13 01:16:20.90	185.01	24.65	-41.4	-44.4	19.3	6.02e-01	0	60	0	886046720	53	5346
2026-01-13 01:16:21.91	185.07	24.47	-41.4	-44.4	19.0	6.04e-01	0	60	0	888143872	53	5373
2026-01-13 01:16:22.92	185.14	24.29	-41.4	-44.4	19.2	6.01e-01	0	60	0	890241024	53	5382
2026-01-13 01:16:23.93	185.20	24.12	-41.5	-44.4	19.2	5.99e-01	0	60	0	891813888	53	5382
2026-01-13 01:16:24.94	185.26	23.94	-41.5	-44.5	19.1	6.04e-01	0	60	0	893911040	53	5424
2026-01-13 01:16:25.96	185.32	23.77	-41.5	-44.5	19.1	6.04e-01	0	60	0	895483904	53	5457
2026-01-13 01:16:26.97	185.38	23.60	-41.6	-44.7	19.0	6.04e-01	0	60	0	897581056	53	5532
2026-01-13 01:16:27.97	185.44	23.43	-41.6	-44.7	19.0	6.03e-01	0	60	0	899678208	53	5529
2026-01-13 01:16:28.98	185.50	23.26	-41.6	-44.7	18.9	6.05e-01	0	60	0	901251072	53	5569
2026-01-13 01:16:29.99	185.56	23.09	-41.6	-44.7	19.0	6.05e-01	0	60	0	903348224	53	5533
2026-01-13 01:16:31.00	185.62	22.92	-41.6	-44.7	18.9	6.03e-01	0	59	0	904921088	53	5552
2026-01-13 01:16:32.01	185.68	22.76	-41.6	-44.7	18.9	6.02e-01	0	59	0	907018240	53	5531
2026-01-13 01:16:33.02	185.73	22.59	-41.6	-44.7	18.9	6.02e-01	0	59	0	909115392	53	5564
2026-01-13 01:16:34.03	185.79	22.43	-41.6	-44.7	18.9	6.06e-01	0	59	0	910688256	53	5552
2026-01-13 01:16:35.04	185.85	22.27	-41.6	-44.7	18.8	6.04e-01	0	60	0	912785408	53	5586
2026-01-13 01:16:36.05	185.90	22.11	-41.6	-44.6	18.9	6.02e-01	0	60	0	914358272	53	5517
2026-01-13 01:16:37.06	185.96	21.95	-41.5	-44.6	19.0	6.01e-01	0	60	0	916455424	53	5480
2026-01-13 01:16:38.07	186.01	21.79	-41.5	-44.5	19.0	6.02e-01	0	60	0	918552576	53	5451
2026-01-13 01:16:39.07	186.06	21.63	-41.5	-44.5	19.0	6.01e-01	0	59	0	920125440	53	5453
2026-01-13 01:16:40.09	186.12	21.47	-41.5	-44.5	19.1	6.03e-01	0	60	0	922222592	53	5414
2026-01-13 01:16:41.09	186.17	21.32	-41.4	-44.4	19.1	6.04e-01	0	60	0	923795456	53	5369
2026-01-13 01:16:42.11	186.22	21.16	-41.4	-44.4	19.2	6.05e-01	0	60	0	925892608	53	5344
2026-01-13 01:16:43.12	186.27	21.01	-41.4	-44.4	19.1	6.04e-01	0	60	0	927989760	53	5376
2026-01-13 01:16:44.12	186.32	20.86	-41.4	-44.4	19.1	6.03e-01	0	60	0	929562624	53	5370
2026-01-13 01:16:45.13	186.37	20.70	-41.4	-44.4	19.1	6.02e-01	0	60	0	931659776	53	5355
2026-01-13 01:16:46.14	186.42	20.55	-41.4	-44.3	19.2	6.03e-01	0	60	0	933756928	53	5332
2026-01-13 01:16:47.15	186.47	20.40	-41.4	-44.4	19.1	6.01e-01	0	60	0	935329792	53	5361
2026-01-13 01:16:48.16	186.52	20.25	-41.4	-44.4	19.1	6.00e-01	0	60	0	937426944	53	5359
2026-01-13 01:16:49.17	186.57	20.10	-41.4	-44.3	19.2	6.02e-01	0	60	0	938999808	53	5318
2026-01-13 01:16:50.18	186.62	19.96	-41.4	-44.3	19.2	6.04e-01	0	60	0	941096960	53	5329
2026-01-13 01:16:51.19	186.67	19.81	-41.3	-44.3	19.2	6.04e-01	0	60	0	943194112	53	5294
2026-01-13 01:16:52.20	186.71	19.67	-41.4	-44.3	19.2	6.01e-01	0	60	0	944766976	53	5332
2026-01-13 01:16:53.21	186.76	19.52	-41.4	-44.3	19.2	6.03e-01	0	60	0	946864128	53	5319
2026-01-13 01:16:54.22	186.81	19.38	-41.3	-44.3	19.2	6.01e-01	0	59	0	948436992	53	5308
2026-01-13 01:16:55.23	186.85	19.24	-41.3	-44.2	19.2	6.02e-01	0	60	0	950534144	53	5279
2026-01-13 01:16:56.23	186.90	19.09	-41.3	-44.3	19.2	6.03e-01	0	60	0	952631296	53	5300
2026-01-13 01:16:57.25	186.94	18.95	-41.3	-44.3	19.2	6.05e-01	0	60	0	954204160	53	5298
2026-01-13 01:16:58.26	186.99	18.81	-41.3	-44.3	19.2	6.05e-01	0	60	0	956301312	53	5289
2026-01-13 01:16:59.27	187.03	18.67	-41.3	-44.3	19.2	6.02e-01	0	60	0	958398464	53	5287
2026-01-13 01:17:00.28	187.08	18.53	-41.3	-44.2	19.3	6.02e-01	0	60	0	959971328	53	5242
2026-01-13 01:17:01.29	187.12	18.40	-41.2	-44.1	19.3	6.04e-01	0	60	0	962068480	53	5209
2026-01-13 01:17:02.30	187.16	18.26	-41.3	-44.2	19.3	6.02e-01	0	60	0	963641344	53	5234
2026-01-13 01:17:03.31	187.20	18.12	-41.2	-44.1	19.4	6.00e-01	0	60	0	965738496	53	5177
2026-01-13 01:17:04.32	187.25	17.99	-41.2	-44.1	19.4	6.03e-01	0	60	0	967835648	53	5182
2026-01-13 01:17:05.33	187.29	17.86	-41.2	-44.2	19.3	6.02e-01	0	60	0	969408512	53	5225
2026-01-13 01:17:06.34	187.33	17.72	-41.2	-44.1	19.3	6.02e-01	0	60	0	971505664	53	5196
2026-01-13 01:17:07.35	187.37	17.59	-41.2	-44.0	19.4	6.03e-01	0	60	0	973078528	53	5153
2026-01-13 01:17:08.36	187.41	17.46	-41.2	-44.0	19.4	6.02e-01	0	60	0	975175680	53	5154
2026-01-13 01:17:09.37	187.45	17.33	-41.2	-44.1	19.4	6.03e-01	0	60	0	977272832	53	5187
2026-01-13 01:17:10.38	187.49	17.20	-41.2	-44.1	19.4	6.01e-01	0	60	0	978845696	53	5193
2026-01-13 01:17:11.38	187.53	17.07	-41.2	-44.1	19.3	6.03e-01	0	60	0	980942848	53	5216
2026-01-13 01:17:12.39	187.57	16.94	-41.2	-44.2	19.3	6.01e-01	0	60	0	982515712	53	5232
2026-01-13 01:17:13.40	187.61	16.81	-41.3	-44.2	19.2	6.01e-01	0	60	0	984612864	53	5250
2026-01-13 01:17:14.41	187.65	16.68	-41.3	-44.2	19.2	6.04e-01	0	60	0	986710016	53	5274
2026-01-13 01:17:15.43	187.69	16.55	-41.3	-44.3	19.2	6.02e-01	0	60	0	988282880	53	5282
2026-01-13 01:17:16.44	187.73	16.43	-41.3	-44.3	19.1	6.04e-01	0	60	0	990380032	53	5319
2026-01-13 01:17:17.45	187.77	16.30	-41.4	-44.4	19.1	6.02e-01	0	60	0	991952896	53	5360
2026-01-13 01:17:18.46	187.80	16.18	-41.3	-44.3	19.1	6.04e-01	0	60	0	994050048	53	5337
2026-01-13 01:17:19.47	187.84	16.05	-41.4	-44.4	19.0	6.03e-01	0	60	0	996147200	53	5384
2026-01-13 01:17:20.48	187.88	15.93	-41.4	-44.5	19.0	6.02e-01	0	60	0	997720064	53	5406
2026-01-13 01:17:21.49	187.91	15.81	-41.4	-44.4	19.0	6.03e-01	0	60	0	999817216	53	5372
2026-01-13 01:17:22.50	187.95	15.69	-41.3	-44.3	19.0	6.03e-01	0	60	0	1001914368	53	5330
2026-01-13 01:17:23.51	187.99	15.57	-41.4	-44.4	19.0	6.04e-01	0	60	0	1003487232	53	5368
2026-01-13 01:17:24.52	188.02	15.45	-41.4	-44.4	19.0	6.01e-01	0	60	0	1005584384	53	5371
2026-01-13 01:17:25.53	188.06	15.33	-41.3	-44.4	19.0	6.04e-01	0	60	0	1007157248	53	5356
2026-01-13 01:17:26.54	188.09	15.21	-41.3	-44.4	19.0	6.00e-01	0	60	0	1009254400	53	5356
2026-01-13 01:17:27.55	188.13	15.09	-41.3	-44.4	19.0	6.02e-01	0	60	0	1011351552	53	5351
2026-01-13 01:17:28.56	188.16	14.97	-41.4	-44.4	19.0	6.03e-01	0	60	0	1012924416	53	5370
2026-01-13 01:17:29.57	188.20	14.85	-41.3	-44.3	19.0	6.03e-01	0	60	0	1015021568	53	5340
2026-01-13 01:17:30.58	188.23	14.74	-41.3	-44.4	19.0	6.06e-01	0	60	0	1016594432	53	5373
2026-01-13 01:17:31.59	188.27	14.62	-41.3	-44.4	18.9	6.03e-01	0	59	0	1018691584	53	5369
2026-01-13 01:17:32.60	188.30	14.50	-41.3	-44.4	19.0	6.01e-01	0	60	0	1020788736	53	5365
2026-01-13 01:17:33.61	188.33	14.39	-41.3	-44.3	19.0	6.04e-01	0	60	0	1022361600	53	5324
2026-01-13 01:17:34.62	188.37	14.27	-41.2	-44.2	19.1	6.01e-01	0	59	0	1024458752	53	5276
2026-01-13 01:17:35.63	188.40	14.16	-41.2	-44.2	19.1	6.02e-01	0	60	0	1026555904	53	5241
2026-01-13 01:17:36.64	188.43	14.05	-41.3	-44.3	19.0	6.05e-01	0	60	0	1028128768	53	5290
2026-01-13 01:17:37.65	188.47	13.93	-41.2	-44.2	19.1	6.04e-01	0	60	0	1030225920	53	5242
2026-01-13 01:17:38.66	188.50	13.82	-41.3	-44.3	19.0	6.03e-01	0	60	0	1031798784	53	5312
2026-01-13 01:17:39.67	188.53	13.71	-41.2	-44.2	19.1	6.04e-01	0	60	0	1033895936	53	5256
2026-01-13 01:17:40.68	188.56	13.60	-41.3	-44.3	19.0	6.02e-01	0	60	0	1035993088	53	5312
2026-01-13 01:17:41.69	188.59	13.49	-41.3	-44.3	19.0	6.03e-01	0	60	0	1037565952	53	5295
2026-01-13 01:17:42.70	188.62	13.38	-41.2	-44.3	19.0	6.02e-01	0	60	0	1039663104	53	5291
2026-01-13 01:17:43.71	188.66	13.27	-41.3	-44.3	19.0	6.00e-01	0	60	0	1041235968	53	5311
2026-01-13 01:17:44.72	188.69	13.16	-41.3	-44.4	18.9	6.04e-01	0	60	0	1043333120	53	5345
2026-01-13 01:17:45.73	188.72	13.05	-41.3	-44.4	18.9	6.07e-01	0	60	0	1045430272	53	5371
2026-01-13 01:17:46.74	188.75	12.95	-41.3	-44.4	18.9	6.01e-01	0	60	0	1047003136	53	5371
2026-01-13 01:17:47.75	188.78	12.84	-41.3	-44.4	18.8	6.03e-01	0	60	0	1049100288	53	5379
2026-01-13 01:17:48.76	188.81	12.73	-41.4	-44.5	18.8	6.03e-01	0	60	0	1050673152	53	5408
2026-01-13 01:17:49.77	188.84	12.63	-41.4	-44.5	18.7	6.02e-01	0	60	0	1052770304	53	5458
2026-01-13 01:17:50.78	188.87	12.52	-41.4	-44.5	18.7	6.02e-01	0	60	0	1054867456	53	5442
2026-01-13 01:17:51.78	188.90	12.42	-41.4	-44.6	18.7	6.03e-01	0	60	0	1056440320	53	5474
2026-01-13 01:17:52.79	188.93	12.31	-41.4	-44.6	18.7	6.02e-01	0	60	0	1058537472	53	5495
2026-01-13 01:17:53.80	188.95	12.21	-41.4	-44.6	18.7	6.03e-01	0	60	0	1060110336	53	5468
2026-01-13 01:17:54.81	188.98	12.10	-41.4	-44.6	18.6	6.02e-01	0	60	0	1062207488	53	5526
2026-01-13 01:17:55.82	189.01	12.00	-41.4	-44.6	18.6	6.03e-01	0	60	0	1064304640	53	5517
2026-01-13 01:17:56.83	189.04	11.90	-41.4	-44.6	18.6	6.02e-01	0	60	0	1065877504	53	5516
2026-01-13 01:17:57.84	189.07	11.80	-41.5	-44.7	18.4	6.04e-01	0	60	0	1067974656	53	5563
2026-01-13 01:17:58.85	189.10	11.69	-41.5	-44.8	18.4	6.05e-01	0	60	0	1069547520	53	5596
2026-01-13 01:17:59.86	189.12	11.59	-41.5	-44.8	18.4	6.04e-01	0	60	0	1071644672	53	5618
2026-01-13 01:18:00.87	189.15	11.49	-41.5	-44.7	18.5	6.02e-01	0	60	0	1073741824	53	5575
2026-01-13 01:18:01.88	189.18	11.39	-41.6	-44.8	18.3	6.03e-01	0	60	0	1075314688	53	5656
2026-01-13 01:18:02.89	189.21	11.29	-41.4	-44.7	18.5	6.03e-01	0	60	0	1077411840	53	5553
2026-01-13 01:18:03.90	189.23	11.19	-41.5	-44.8	18.4	6.03e-01	0	60	0	1079508992	53	5598
2026-01-13 01:18:04.91	189.26	11.09	-41.5	-44.8	18.4	6.05e-01	0	60	0	1081081856	53	5618
2026-01-13 01:18:05.92	189.29	10.99	-41.5	-44.9	18.3	6.04e-01	0	60	0	1083179008	53	5663
2026-01-13 01:18:06.93	189.31	10.90	-41.5	-44.9	18.3	6.03e-01	0	60	0	1084751872	53	5663
2026-01-13 01:18:07.93	189.34	10.80	-41.5	-44.9	18.2	6.01e-01	0	60	0	1086849024	53	5684
2026-01-13 01:18:08.94	189.37	10.70	-41.5	-44.9	18.2	6.01e-01	0	59	0	1088946176	53	5682
2026-01-13 01:18:09.95	189.39	10.61	-41.6	-44.9	18.2	6.03e-01	0	60	0	1090519040	53	5675
2026-01-13 01:18:10.96	189.42	10.51	-41.6	-44.9	18.2	6.02e-01	0	60	0	1092616192	53	5714
2026-01-13 01:18:11.97	189.45	10.41	-41.6	-45.0	18.1	6.06e-01	0	60	0	1094713344	53	5762
2026-01-13 01:18:12.98	189.47	10.32	-41.6	-45.1	18.0	6.04e-01	0	60	0	1096286208	53	5793
2026-01-13 01:18:13.99	189.50	10.22	-41.6	-44.9	18.1	6.02e-01	0	60	0	1098383360	53	5708
2026-01-13 01:18:15.00	189.52	10.13	-41.7	-45.1	18.0	6.01e-01	0	60	0	1099956224	53	5835
2026-01-13 01:18:16.01	189.55	10.03	-41.7	-45.2	17.8	6.03e-01	0	60	0	1102053376	54	5568
2026-01-13 01:18:17.02	189.57	9.94	-41.7	-45.3	17.8	6.04e-01	0	60	0	1104150528	54	5607
2026-01-13 01:18:18.03	189.60	9.85	-41.8	-45.4	17.6	6.05e-01	0	60	0	1105723392	54	5678
2026-01-13 01:18:19.03	189.62	9.75	-41.9	-45.6	17.4	6.04e-01	0	60	0	1107820544	54	5806
2026-01-13 01:18:20.05	189.65	9.66	-41.9	-45.6	17.4	6.03e-01	0	60	0	1109393408	54	5831
2026-01-13 01:18:21.05	189.67	9.57	-42.0	-45.8	17.1	6.05e-01	0	60	0	1111490560	54	5992
2026-01-13 01:18:22.06	189.69	9.48	-42.0	-45.8	17.2	6.04e-01	0	60	0	1113063424	54	5936
2026-01-13 01:18:23.07	189.72	9.38	-41.8	-45.4	17.5	6.05e-01	0	60	0	1115160576	54	5711
2026-01-13 01:18:24.08	189.74	9.29	-41.8	-45.4	17.6	6.03e-01	0	60	0	1117257728	54	5670
2026-01-13 01:18:25.09	189.77	9.20	-41.7	-45.3	17.7	6.02e-01	0	60	0	1118830592	54	5620
2026-01-13 01:18:26.10	189.79	9.11	-41.8	-45.4	17.5	6.01e-01	0	60	0	1120927744	54	5716
2026-01-13 01:18:27.11	189.81	9.02	-41.8	-45.4	17.5	6.02e-01	0	60	0	1123024896	54	5706
2026-01-13 01:18:28.12	189.84	8.93	-41.8	-45.5	17.4	6.02e-01	0	60	0	1124597760	54	5763
2026-01-13 01:18:29.13	189.86	8.84	-41.8	-45.4	17.5	6.02e-01	0	60	0	1126694912	54	5684
2026-01-13 01:18:30.14	189.88	8.75	-41.9	-45.6	17.3	6.05e-01	0	60	0	1128267776	54	5796
2026-01-13 01:18:31.15	189.91	8.66	-41.9	-45.6	17.2	6.07e-01	0	60	0	1130364928	54	5854
2026-01-13 01:18:32.16	189.93	8.57	-41.8	-45.6	17.3	6.03e-01	0	60	0	1132462080	54	5806
2026-01-13 01:18:33.17	189.95	8.49	-41.9	-45.6	17.3	6.03e-01	0	60	0	1134034944	54	5820
2026-01-13 01:18:34.18	189.97	8.40	-41.9	-45.7	17.1	6.06e-01	0	60	0	1136132096	54	5861
2026-01-13 01:18:35.19	190.00	8.31	-41.8	-45.5	17.3	6.02e-01	0	60	0	1137704960	54	5767
2026-01-13 01:18:36.19	190.02	8.22	-41.9	-45.7	17.1	6.02e-01	0	60	0	1139802112	54	5893
2026-01-13 01:18:37.20	190.04	8.14	-41.8	-45.6	17.2	6.02e-01	0	60	0	1141899264	54	5820
2026-01-13 01:18:38.21	190.06	8.05	-41.8	-45.6	17.2	6.02e-01	0	60	0	1143472128	54	5837
2026-01-13 01:18:39.22	190.09	7.97	-45.2	-63.2	3.8	7.50e-01	0	60	104	1145044992	61	29392
2026-01-13 01:18:40.23	190.11	7.88	-45.6	-64.2	3.8	7.45e-01	0	60	104	1145044992	61	33218
2026-01-13 01:18:41.24	190.13	7.79	-45.8	-64.4	3.8	7.46e-01	0	60	104	1145044992	62	31986
2026-01-13 01:18:42.25	190.15	7.71	-45.9	-64.6	3.8	7.47e-01	0	60	104	1145044992	62	32716
2026-01-13 01:18:43.26	190.17	7.62	-46.0	-64.7	3.8	7.40e-01	0	60	104	1145044992	62	33165
2026-01-13 01:18:44.27	190.19	7.54	-46.1	-64.8	3.8	7.45e-01	0	60	104	1145044992	62	33368
2026-01-13 01:18:45.28	190.22	7.46	-46.1	-64.8	3.8	7.44e-01	0	60	104	1145044992	62	33621
2026-01-13 01:18:46.29	190.24	7.37	-46.2	-64.9	3.8	7.46e-01	0	60	104	1145044992	62	33835
2026-01-13 01:18:47.30	190.26	7.29	-46.2	-64.9	3.8	7.44e-01	0	60	104	1145044992	63	32131
2026-01-13 01:18:48.31	190.28	7.20	-46.2	-65.0	3.8	7.45e-01	0	60	104	1145044992	63	32192
2026-01-13 01:18:49.32	190.30	7.12	-46.2	-64.9	3.8	7.49e-01	0	60	104	1145044992	63	31928
2026-01-13 01:18:50.33	190.32	7.04	-46.1	-64.9	3.8	7.47e-01	0	60	104	1145044992	63	31941
2026-01-13 01:18:51.33	190.34	6.96	-46.2	-64.9	3.8	7.45e-01	0	60	104	1145044992	63	31913
