passes_logs/2026/01/13/R2.0S_Moscow/R2.0S_Moscow__20260113_102316_NOAA_20_JPSS-1_rec.log

#Pass ID: 20260113_102316_NOAA 20 (JPSS-1)
#Satellite: NOAA 20 (JPSS-1)
#Configuration: NOAA 20
#almurnet v.1.7.20251203
#Start time: 2026-01-13 10:23:18

#Version: 2.2.20231116
#Station: R2.0S_Moscow
#Location: 37.707566 lon 55.798166 lat
#TLE: 1 43013U 17073A   26012.29914746  .00000087  00000+0  62270-4 0  9997
#TLE: 2 43013  98.7632 313.2670 0001616  43.2193 316.9110 14.19535514422351

#Time	Az	El	Level	Level2	SNR	BER	BlckErr	Temp	State	Recorded	gain1	gain2
2026-01-13 10:23:18.85	174.35	2.15	-42.9	-57.1	3.8	1.49e+00	0	50	0	0	57	18471
2026-01-13 10:23:19.86	174.37	2.21	-42.9	-57.1	3.8	1.49e+00	0	51	104	0	57	18475
2026-01-13 10:23:20.87	174.40	2.28	-42.9	-57.1	3.8	1.49e+00	0	51	104	0	57	18445
2026-01-13 10:23:21.88	174.42	2.34	-42.9	-57.1	3.8	1.49e+00	0	50	104	0	57	18491
2026-01-13 10:23:22.89	174.44	2.41	-42.9	-57.1	3.8	1.49e+00	0	51	104	0	57	18453
2026-01-13 10:23:23.90	174.47	2.47	-42.9	-57.1	3.8	1.49e+00	0	51	104	0	57	18502
2026-01-13 10:23:24.91	174.49	2.54	-42.9	-57.1	3.8	1.49e+00	0	51	104	0	57	18487
2026-01-13 10:23:25.92	174.52	2.60	-42.9	-57.1	3.8	1.49e+00	0	51	104	0	57	18464
2026-01-13 10:23:26.93	174.54	2.67	-42.9	-57.1	3.8	1.49e+00	0	51	104	0	57	18458
2026-01-13 10:23:27.94	174.57	2.74	-42.9	-57.1	3.8	1.49e+00	0	51	104	0	57	18379
2026-01-13 10:23:28.95	174.59	2.80	-42.9	-57.1	3.8	1.49e+00	0	51	104	0	57	18468
2026-01-13 10:23:29.96	174.62	2.87	-42.9	-57.1	3.8	1.49e+00	0	51	104	0	57	18495
2026-01-13 10:23:30.96	174.64	2.93	-42.9	-57.1	3.8	1.49e+00	0	51	104	0	57	18417
2026-01-13 10:23:31.97	174.67	3.00	-42.9	-57.1	3.8	1.49e+00	0	51	104	0	57	18493
2026-01-13 10:23:32.98	174.69	3.07	-42.9	-57.1	3.8	1.49e+00	0	51	104	0	57	18450
2026-01-13 10:23:33.99	174.72	3.13	-42.9	-57.1	3.8	1.49e+00	0	52	104	0	57	18476
2026-01-13 10:23:35.00	174.74	3.20	-42.9	-57.1	3.8	1.49e+00	0	52	104	0	57	18452
2026-01-13 10:23:36.01	174.77	3.27	-42.9	-57.1	3.8	1.49e+00	0	52	104	0	57	18424
2026-01-13 10:23:37.02	174.79	3.33	-42.9	-57.1	3.8	1.49e+00	0	52	104	0	57	18445
2026-01-13 10:23:38.03	174.82	3.40	-42.9	-57.1	3.8	1.49e+00	0	52	104	0	57	18460
2026-01-13 10:23:39.04	174.85	3.47	-42.9	-57.1	3.8	1.49e+00	0	52	104	0	57	18440
2026-01-13 10:23:40.05	174.87	3.53	-42.9	-57.1	3.8	1.49e+00	0	51	104	0	57	18448
2026-01-13 10:23:41.06	174.90	3.60	-42.9	-57.1	3.8	1.49e+00	0	52	104	0	57	18499
2026-01-13 10:23:42.07	174.92	3.67	-42.9	-57.1	3.8	1.49e+00	0	52	104	0	57	18415
2026-01-13 10:23:43.08	174.95	3.74	-42.9	-57.1	3.8	1.49e+00	0	52	104	0	57	18426
2026-01-13 10:23:44.09	174.98	3.81	-42.9	-57.1	3.8	1.49e+00	0	52	104	0	57	18473
2026-01-13 10:23:45.10	175.00	3.88	-42.9	-57.1	3.8	1.49e+00	0	52	104	0	57	18413
2026-01-13 10:23:46.11	175.03	3.94	-42.9	-57.1	3.8	1.49e+00	0	52	104	0	57	18371
2026-01-13 10:23:47.12	175.06	4.01	-42.9	-57.1	3.8	1.49e+00	0	52	104	0	57	18441
2026-01-13 10:23:48.13	175.08	4.08	-42.9	-57.1	3.8	1.49e+00	0	52	104	0	57	18427
2026-01-13 10:23:49.14	175.11	4.15	-42.9	-57.1	3.8	1.49e+00	0	53	104	0	57	18443
2026-01-13 10:23:50.15	175.14	4.22	-42.9	-57.1	3.8	1.49e+00	0	53	104	0	57	18380
2026-01-13 10:23:51.16	175.17	4.29	-42.9	-57.1	3.8	1.49e+00	0	52	104	0	57	18473
2026-01-13 10:23:52.17	175.19	4.36	-42.9	-57.1	3.8	1.49e+00	0	53	104	0	57	18389
2026-01-13 10:23:53.18	175.22	4.43	-42.9	-57.1	3.8	1.49e+00	0	53	104	0	57	18348
2026-01-13 10:23:54.19	175.25	4.50	-42.9	-57.1	3.8	1.49e+00	0	53	104	0	57	18359
2026-01-13 10:23:55.20	175.28	4.57	-42.9	-57.1	3.8	1.49e+00	0	53	104	0	57	18306
2026-01-13 10:23:56.21	175.30	4.64	-42.9	-57.0	3.8	1.49e+00	0	53	104	0	57	18257
2026-01-13 10:23:57.22	175.33	4.71	-42.9	-57.0	3.8	1.49e+00	0	53	104	0	57	18201
2026-01-13 10:23:58.24	175.36	4.78	-42.9	-57.0	3.8	1.49e+00	0	53	104	0	57	18170
2026-01-13 10:23:59.25	175.39	4.85	-42.9	-57.0	3.8	1.49e+00	0	53	104	0	57	18144
2026-01-13 10:24:00.26	175.42	4.92	-42.9	-56.9	3.8	1.49e+00	0	53	104	0	57	18059
2026-01-13 10:24:01.26	175.44	4.99	-42.9	-56.9	3.8	1.49e+00	0	53	104	0	57	18002
2026-01-13 10:24:02.27	175.47	5.06	-42.9	-56.8	3.8	1.49e+00	0	53	104	0	57	17838
2026-01-13 10:24:03.28	175.50	5.14	-42.9	-56.7	3.8	1.49e+00	0	53	104	0	57	17657
2026-01-13 10:24:04.29	175.53	5.21	-42.8	-56.6	3.8	1.49e+00	0	53	104	0	57	17305
2026-01-13 10:24:05.30	175.56	5.28	-42.8	-56.4	3.8	1.49e+00	0	53	104	0	57	17054
2026-01-13 10:24:06.31	175.59	5.35	-42.8	-56.3	3.8	1.49e+00	0	53	104	0	57	16831
2026-01-13 10:24:07.32	175.62	5.42	-42.8	-56.2	3.8	1.49e+00	0	53	104	0	57	16630
2026-01-13 10:24:08.33	175.65	5.50	-42.8	-56.2	3.8	1.49e+00	0	53	104	0	57	16690
2026-01-13 10:24:09.35	175.68	5.57	-42.8	-56.3	3.8	1.49e+00	0	53	104	0	57	16761
2026-01-13 10:24:10.36	175.71	5.64	-42.8	-56.2	3.8	1.49e+00	0	53	104	0	57	16611
2026-01-13 10:24:11.37	175.74	5.72	-42.8	-55.9	3.8	1.49e+00	0	54	104	0	57	15985
2026-01-13 10:24:12.38	175.77	5.79	-42.8	-55.5	3.8	1.49e+00	0	54	104	0	57	15322
2026-01-13 10:24:13.39	175.79	5.86	-42.7	-54.8	3.9	1.49e+00	0	53	104	0	57	14201
2026-01-13 10:24:14.39	175.82	5.94	-42.7	-54.6	3.9	1.48e+00	0	54	104	0	57	13745
2026-01-13 10:24:15.40	175.86	6.01	-42.7	-54.4	4.0	1.48e+00	0	54	104	0	57	13488
2026-01-13 10:24:16.41	175.89	6.08	-42.7	-54.3	3.9	1.46e+00	0	54	104	0	57	13300
2026-01-13 10:24:17.43	175.92	6.16	-42.7	-53.8	4.1	1.43e+00	0	54	0	0	57	12619
2026-01-13 10:24:18.44	175.95	6.23	-42.6	-53.5	4.2	1.40e+00	0	54	0	0	57	12151
2026-01-13 10:24:19.45	175.98	6.31	-42.6	-53.5	4.2	1.38e+00	0	54	0	0	57	12226
2026-01-13 10:24:20.46	176.01	6.38	-42.6	-53.4	4.2	1.38e+00	0	54	0	0	57	12076
2026-01-13 10:24:21.47	176.04	6.46	-42.6	-53.6	4.2	1.38e+00	0	54	0	0	57	12286
2026-01-13 10:24:22.48	176.07	6.53	-42.7	-54.0	4.1	1.42e+00	0	54	0	0	57	12914
2026-01-13 10:24:23.49	176.10	6.61	-42.7	-53.8	4.1	1.43e+00	0	54	0	0	57	12664
2026-01-13 10:24:24.50	176.13	6.69	-42.6	-53.7	4.1	1.42e+00	0	54	0	0	57	12514
2026-01-13 10:24:25.51	176.17	6.76	-42.6	-53.7	4.2	1.41e+00	0	54	0	0	57	12399
2026-01-13 10:24:26.52	176.20	6.84	-42.6	-53.0	4.3	1.34e+00	80	54	0	0	57	11516
2026-01-13 10:24:27.53	176.23	6.91	-42.5	-52.4	4.6	1.08e+00	0	54	0	2097152	57	10681
2026-01-13 10:24:28.54	176.26	6.99	-42.4	-51.6	5.0	7.74e-01	0	54	0	3145728	56	10303
2026-01-13 10:24:29.55	176.29	7.07	-42.3	-50.9	5.4	6.04e-01	0	54	0	5242880	56	9587
2026-01-13 10:24:30.57	176.33	7.15	-42.2	-50.5	5.7	4.89e-01	0	54	0	7340032	56	9079
2026-01-13 10:24:31.58	176.36	7.22	-42.1	-49.8	6.2	3.08e-01	0	54	0	9437184	56	8423
2026-01-13 10:24:32.59	176.39	7.30	-42.1	-49.5	6.4	2.39e-01	0	54	0	11534336	56	8152
2026-01-13 10:24:33.60	176.43	7.38	-41.8	-49.1	6.7	2.01e-01	0	54	0	12582912	55	8179
2026-01-13 10:24:34.61	176.46	7.46	-41.8	-49.0	6.7	2.04e-01	0	54	0	14680064	55	8091
2026-01-13 10:24:35.62	176.49	7.54	-41.8	-49.0	6.8	1.71e-01	0	54	0	16777216	55	8089
2026-01-13 10:24:36.63	176.53	7.61	-41.8	-48.7	7.0	1.82e-01	0	55	0	18874368	55	7830
2026-01-13 10:24:37.64	176.56	7.69	-41.7	-48.5	7.2	1.53e-01	0	55	0	20971520	55	7683
2026-01-13 10:24:38.65	176.59	7.77	-41.7	-48.4	7.3	1.63e-01	0	55	0	22020096	55	7604
2026-01-13 10:24:39.66	176.63	7.85	-41.8	-48.7	7.0	1.61e-01	0	55	0	24117248	55	7861
2026-01-13 10:24:40.67	176.66	7.93	-41.7	-48.4	7.2	1.37e-01	0	55	0	26214400	55	7628
2026-01-13 10:24:41.68	176.70	8.01	-41.7	-48.3	7.3	1.30e-01	0	55	0	28311552	55	7540
2026-01-13 10:24:42.69	176.73	8.09	-42.4	-49.3	7.1	1.10e-01	0	55	0	30408704	55	8420
2026-01-13 10:24:43.70	176.76	8.17	-42.6	-52.9	4.5	3.25e-01	19	55	0	31457280	56	12084
2026-01-13 10:24:44.71	176.80	8.25	-41.7	-47.7	8.2	6.35e-01	0	55	0	32505856	55	7039
2026-01-13 10:24:45.72	176.83	8.33	-42.3	-49.0	7.2	1.36e-01	0	55	0	34603008	55	8125
2026-01-13 10:24:46.73	176.87	8.41	-42.3	-51.3	5.4	1.41e-01	0	55	0	36700160	55	10546
2026-01-13 10:24:47.74	176.90	8.49	-42.0	-48.9	6.8	1.22e+00	0	55	104	36700160	55	8046
2026-01-13 10:24:48.75	176.94	8.58	-41.8	-47.7	8.3	5.77e-02	0	55	0	37748736	55	6993
2026-01-13 10:24:49.76	176.98	8.66	-41.8	-47.7	8.4	4.87e-02	0	55	0	39845888	55	7023
2026-01-13 10:24:50.77	177.01	8.74	-41.8	-47.4	8.7	3.79e-02	0	55	0	41943040	55	6768
2026-01-13 10:24:51.78	177.05	8.82	-41.7	-47.2	8.9	2.81e-02	0	55	0	42991616	55	6629
2026-01-13 10:24:52.79	177.08	8.90	-41.7	-47.2	9.0	3.30e-02	0	55	0	45088768	55	6584
2026-01-13 10:24:53.80	177.12	8.99	-41.8	-47.3	8.9	2.69e-02	0	55	0	47185920	55	6715
2026-01-13 10:24:54.81	177.16	9.07	-41.7	-47.1	9.1	2.79e-02	0	55	0	49283072	55	6554
2026-01-13 10:24:55.82	177.19	9.15	-41.7	-47.1	9.2	1.93e-02	0	55	0	51380224	55	6529
2026-01-13 10:24:56.83	177.23	9.24	-41.8	-47.0	9.3	1.94e-02	0	55	0	52428800	55	6466
2026-01-13 10:24:57.84	177.27	9.32	-41.8	-47.0	9.4	1.60e-02	0	55	0	54525952	55	6425
2026-01-13 10:24:58.85	177.31	9.41	-41.8	-47.0	9.5	1.71e-02	0	55	0	56623104	55	6425
2026-01-13 10:24:59.86	177.34	9.49	-41.7	-46.8	9.7	1.42e-02	0	55	0	58720256	55	6291
2026-01-13 10:25:00.87	177.38	9.57	-41.8	-46.9	9.7	1.13e-02	0	55	0	60817408	55	6350
2026-01-13 10:25:01.88	177.42	9.66	-41.8	-46.7	9.9	1.01e-02	0	55	0	62914560	55	6269
2026-01-13 10:25:02.89	177.46	9.75	-41.8	-46.7	10.0	9.32e-03	0	55	0	63963136	55	6203
2026-01-13 10:25:03.90	177.50	9.83	-41.8	-46.7	9.9	7.82e-03	0	55	0	66060288	55	6244
2026-01-13 10:25:04.91	177.54	9.92	-41.9	-46.9	9.8	8.46e-03	0	55	0	68157440	55	6384
2026-01-13 10:25:05.91	177.57	10.00	-41.8	-46.7	10.0	9.66e-03	0	55	0	70254592	55	6226
2026-01-13 10:25:06.92	177.61	10.09	-41.9	-46.8	10.0	8.27e-03	0	55	0	72351744	55	6286
2026-01-13 10:25:07.93	177.65	10.18	-41.8	-46.7	10.1	7.35e-03	0	55	0	73400320	55	6218
2026-01-13 10:25:08.94	177.69	10.26	-41.8	-46.5	10.2	6.35e-03	0	55	0	75497472	55	6124
2026-01-13 10:25:09.95	177.73	10.35	-41.8	-46.6	10.2	5.75e-03	0	55	0	77594624	55	6147
2026-01-13 10:25:10.96	177.77	10.44	-41.8	-46.6	10.3	5.08e-03	0	56	0	79691776	55	6154
2026-01-13 10:25:11.97	177.81	10.53	-41.8	-46.5	10.3	6.48e-03	0	55	0	81788928	55	6126
2026-01-13 10:25:12.98	177.85	10.61	-41.8	-46.5	10.4	4.39e-03	0	56	0	82837504	55	6082
2026-01-13 10:25:13.99	177.89	10.70	-41.9	-46.5	10.3	5.25e-03	0	56	0	84934656	55	6124
2026-01-13 10:25:15.00	177.93	10.79	-41.8	-46.5	10.4	4.83e-03	0	56	0	87031808	55	6122
2026-01-13 10:25:16.01	177.97	10.88	-41.9	-46.6	10.3	4.51e-03	0	55	0	89128960	55	6145
2026-01-13 10:25:17.02	178.02	10.97	-41.8	-46.5	10.4	4.90e-03	0	56	0	91226112	55	6079
2026-01-13 10:25:18.03	178.06	11.06	-41.9	-46.5	10.4	4.51e-03	0	56	0	92274688	55	6118
2026-01-13 10:25:19.04	178.10	11.15	-41.9	-46.6	10.3	5.09e-03	0	56	0	94371840	55	6156
2026-01-13 10:25:20.04	178.14	11.24	-41.9	-46.5	10.4	4.53e-03	0	56	0	96468992	55	6099
2026-01-13 10:25:21.05	178.18	11.33	-41.9	-46.6	10.4	4.76e-03	0	56	0	98566144	55	6146
2026-01-13 10:25:22.06	178.23	11.42	-41.9	-46.5	10.4	4.30e-03	0	56	0	100663296	55	6119
2026-01-13 10:25:23.07	178.27	11.51	-41.9	-46.6	10.3	4.90e-03	0	56	0	101711872	55	6178
2026-01-13 10:25:24.08	178.31	11.60	-41.8	-46.5	10.5	4.18e-03	0	56	0	103809024	55	6066
2026-01-13 10:25:25.09	178.35	11.70	-41.9	-46.5	10.5	3.84e-03	0	56	0	105906176	55	6070
2026-01-13 10:25:26.10	178.40	11.79	-41.9	-46.5	10.5	3.64e-03	0	56	0	108003328	55	6084
2026-01-13 10:25:27.11	178.44	11.88	-41.9	-46.4	10.6	4.32e-03	0	56	0	110100480	55	6045
2026-01-13 10:25:28.13	178.49	11.98	-41.9	-46.4	10.6	3.47e-03	0	56	0	111149056	55	6059
2026-01-13 10:25:29.13	178.53	12.07	-41.9	-46.5	10.5	3.97e-03	0	56	0	113246208	55	6094
2026-01-13 10:25:30.14	178.58	12.16	-41.8	-46.4	10.6	3.32e-03	0	56	0	115343360	55	5999
2026-01-13 10:25:31.15	178.62	12.26	-41.9	-46.5	10.5	3.90e-03	0	56	0	117440512	55	6090
2026-01-13 10:25:32.16	178.67	12.35	-41.9	-46.4	10.6	3.61e-03	0	56	0	119537664	55	6033
2026-01-13 10:25:33.17	178.71	12.45	-41.8	-46.3	10.7	2.95e-03	0	56	0	120586240	55	5962
2026-01-13 10:25:34.18	178.76	12.54	-41.8	-46.2	10.8	2.72e-03	0	56	0	122683392	55	5915
2026-01-13 10:25:35.19	178.80	12.64	-41.8	-46.2	10.9	2.64e-03	0	56	0	124780544	55	5888
2026-01-13 10:25:36.20	178.85	12.73	-41.8	-46.2	10.9	2.08e-03	0	56	0	126877696	55	5882
2026-01-13 10:25:37.21	178.89	12.83	-41.8	-46.2	10.8	2.47e-03	0	56	0	128974848	55	5923
2026-01-13 10:25:38.21	178.94	12.92	-41.9	-46.4	10.7	2.79e-03	0	56	0	131072000	55	6036
2026-01-13 10:25:39.22	178.99	13.02	-41.9	-46.4	10.7	2.79e-03	0	56	0	132120576	55	6013
2026-01-13 10:25:40.23	179.04	13.12	-41.9	-46.5	10.6	2.98e-03	0	56	0	134217728	55	6069
2026-01-13 10:25:41.24	179.08	13.22	-41.9	-46.3	10.9	2.79e-03	0	56	0	136314880	55	5926
2026-01-13 10:25:42.25	179.13	13.31	-41.9	-46.4	10.8	2.45e-03	0	56	0	138412032	55	5994
2026-01-13 10:25:43.26	179.18	13.41	-41.9	-46.3	10.8	2.81e-03	0	56	0	140509184	55	5961
2026-01-13 10:25:44.27	179.23	13.51	-41.9	-46.4	10.8	2.44e-03	0	56	0	141557760	55	5995
2026-01-13 10:25:45.28	179.28	13.61	-42.0	-46.4	10.7	2.71e-03	0	56	0	143654912	55	6059
2026-01-13 10:25:46.29	179.33	13.71	-41.9	-46.3	10.9	2.58e-03	0	56	0	145752064	55	5951
2026-01-13 10:25:47.30	179.38	13.81	-42.0	-46.4	10.7	2.81e-03	0	56	0	147849216	55	6053
2026-01-13 10:25:48.31	179.43	13.91	-42.0	-46.5	10.7	2.99e-03	0	56	0	149946368	55	6074
2026-01-13 10:25:49.32	179.48	14.01	-42.0	-46.4	10.8	2.91e-03	0	56	0	150994944	55	6043
2026-01-13 10:25:50.33	179.53	14.11	-41.9	-46.4	10.8	2.71e-03	0	56	0	153092096	55	6016
2026-01-13 10:25:51.34	179.58	14.22	-42.1	-46.6	10.6	2.90e-03	0	56	0	155189248	55	6186
2026-01-13 10:25:52.35	179.63	14.32	-42.0	-46.6	10.6	3.48e-03	0	56	0	157286400	55	6134
2026-01-13 10:25:53.36	179.68	14.42	-42.1	-46.6	10.6	3.22e-03	0	56	0	159383552	55	6182
2026-01-13 10:25:54.36	179.73	14.52	-42.0	-46.5	10.7	2.65e-03	0	57	0	160432128	55	6131
2026-01-13 10:25:55.37	179.78	14.63	-42.0	-46.5	10.7	2.83e-03	0	57	0	162529280	55	6118
2026-01-13 10:25:56.38	179.83	14.73	-42.0	-46.5	10.7	2.75e-03	0	56	0	164626432	55	6119
2026-01-13 10:25:57.39	179.89	14.83	-42.0	-46.5	10.8	3.48e-03	0	57	0	166723584	55	6086
2026-01-13 10:25:58.40	179.94	14.94	-42.0	-46.5	10.7	3.07e-03	0	57	0	168820736	55	6130
2026-01-13 10:25:59.41	179.99	15.04	-42.0	-46.5	10.8	2.47e-03	0	56	0	169869312	55	6081
2026-01-13 10:26:00.42	180.05	15.15	-42.0	-46.4	10.9	2.05e-03	0	57	0	171966464	55	6015
2026-01-13 10:26:01.43	180.10	15.25	-42.0	-46.4	10.9	2.64e-03	0	57	0	174063616	55	6023
2026-01-13 10:26:02.44	180.16	15.36	-42.0	-46.4	10.8	2.40e-03	0	57	0	176160768	55	6040
2026-01-13 10:26:03.45	180.21	15.47	-42.0	-46.4	10.9	2.25e-03	0	57	0	178257920	55	6040
2026-01-13 10:26:04.46	180.27	15.58	-42.0	-46.5	10.8	2.54e-03	0	57	0	179306496	55	6078
2026-01-13 10:26:05.47	180.32	15.68	-42.0	-46.4	10.9	2.45e-03	0	57	0	181403648	55	6032
2026-01-13 10:26:06.48	180.38	15.79	-42.1	-46.6	10.7	2.82e-03	0	57	0	183500800	55	6134
2026-01-13 10:26:07.50	180.44	15.90	-42.0	-46.4	10.9	2.43e-03	0	57	0	185597952	55	6025
2026-01-13 10:26:08.50	180.49	16.01	-42.0	-46.4	10.9	2.14e-03	0	57	0	187695104	55	6041
2026-01-13 10:26:09.51	180.55	16.12	-42.0	-46.4	10.9	2.22e-03	0	57	0	188743680	55	6049
2026-01-13 10:26:10.52	180.61	16.23	-42.0	-46.4	10.9	1.96e-03	0	57	0	190840832	55	6020
2026-01-13 10:26:11.54	180.66	16.34	-42.0	-46.4	10.9	1.93e-03	0	57	0	192937984	55	6005
2026-01-13 10:26:12.55	180.72	16.45	-42.0	-46.5	10.9	2.15e-03	0	57	0	195035136	55	6073
2026-01-13 10:26:13.56	180.78	16.56	-42.0	-46.5	10.9	2.22e-03	0	57	0	197132288	55	6071
2026-01-13 10:26:14.57	180.84	16.67	-42.1	-46.6	10.8	2.60e-03	0	57	0	199229440	55	6156
2026-01-13 10:26:15.58	180.90	16.79	-42.1	-46.5	10.9	2.57e-03	0	57	0	200278016	55	6095
2026-01-13 10:26:16.59	180.96	16.90	-42.1	-46.5	10.9	2.42e-03	0	57	0	202375168	55	6092
2026-01-13 10:26:17.60	181.02	17.01	-42.1	-46.4	10.9	2.18e-03	0	57	0	204472320	55	6043
2026-01-13 10:26:18.60	181.08	17.13	-42.1	-46.4	10.9	2.36e-03	0	57	0	206569472	55	6059
2026-01-13 10:26:19.61	181.14	17.24	-42.0	-46.3	11.0	2.13e-03	0	57	0	208666624	55	5982
2026-01-13 10:26:20.62	181.21	17.36	-42.1	-46.4	10.9	1.82e-03	0	57	0	209715200	55	6042
2026-01-13 10:26:21.63	181.27	17.47	-42.1	-46.5	10.9	2.29e-03	0	57	0	211812352	55	6102
2026-01-13 10:26:22.64	181.33	17.59	-42.1	-46.4	11.0	1.89e-03	0	57	0	213909504	55	6009
2026-01-13 10:26:23.65	181.39	17.70	-42.0	-46.4	11.0	1.87e-03	0	57	0	216006656	55	5995
2026-01-13 10:26:24.66	181.46	17.82	-42.1	-46.4	11.0	1.80e-03	0	57	0	218103808	55	6009
2026-01-13 10:26:25.67	181.52	17.94	-42.1	-46.4	11.0	1.93e-03	0	57	0	219152384	55	6023
2026-01-13 10:26:26.68	181.59	18.06	-42.1	-46.4	11.0	1.77e-03	0	57	0	221249536	55	6021
2026-01-13 10:26:27.69	181.65	18.17	-42.0	-46.3	11.1	2.15e-03	0	57	0	223346688	55	5969
2026-01-13 10:26:28.70	181.72	18.29	-42.1	-46.5	10.9	2.21e-03	0	57	0	225443840	55	6087
2026-01-13 10:26:29.71	181.78	18.41	-42.1	-46.5	11.0	2.10e-03	0	57	0	227540992	55	6070
2026-01-13 10:26:30.72	181.85	18.53	-42.1	-46.4	11.0	1.85e-03	0	57	0	228589568	55	6002
2026-01-13 10:26:31.73	181.92	18.65	-42.1	-46.5	10.9	1.96e-03	0	57	0	230686720	55	6095
2026-01-13 10:26:32.74	181.98	18.78	-42.1	-46.5	10.9	2.24e-03	0	57	0	232783872	55	6130
2026-01-13 10:26:33.75	182.05	18.90	-42.1	-46.5	11.0	1.92e-03	0	57	0	234881024	55	6063
2026-01-13 10:26:34.76	182.12	19.02	-42.2	-46.6	10.9	2.12e-03	0	57	0	236978176	55	6148
2026-01-13 10:26:35.77	182.19	19.14	-42.1	-46.5	10.9	2.20e-03	0	57	0	238026752	55	6098
2026-01-13 10:26:36.77	182.26	19.27	-42.1	-46.5	10.9	1.82e-03	0	57	0	240123904	55	6100
2026-01-13 10:26:37.78	182.33	19.39	-42.1	-46.5	11.0	2.08e-03	0	57	0	242221056	55	6085
2026-01-13 10:26:38.79	182.40	19.52	-42.1	-46.5	11.0	1.99e-03	0	57	0	244318208	55	6091
2026-01-13 10:26:39.80	182.47	19.64	-42.2	-46.6	10.9	2.21e-03	0	57	0	246415360	55	6134
2026-01-13 10:26:40.81	182.54	19.77	-42.2	-46.6	10.9	2.20e-03	0	57	0	247463936	55	6165
2026-01-13 10:26:41.82	182.61	19.89	-42.2	-46.7	10.8	2.44e-03	0	57	0	249561088	55	6212
2026-01-13 10:26:42.83	182.69	20.02	-42.3	-46.7	10.7	2.72e-03	0	57	0	251658240	55	6273
2026-01-13 10:26:43.84	182.76	20.15	-42.2	-46.7	10.7	2.75e-03	0	57	0	253755392	55	6267
2026-01-13 10:26:44.85	182.83	20.28	-42.3	-46.8	10.7	3.22e-03	0	57	0	255852544	55	6292
2026-01-13 10:26:45.86	182.91	20.41	-42.3	-46.8	10.7	2.75e-03	0	57	0	256901120	55	6314
2026-01-13 10:26:46.87	182.99	20.54	-42.3	-46.8	10.7	3.27e-03	0	57	0	258998272	55	6303
2026-01-13 10:26:47.88	183.06	20.67	-42.3	-46.8	10.7	3.16e-03	0	57	0	261095424	55	6316
2026-01-13 10:26:48.89	183.14	20.80	-42.3	-46.9	10.6	3.04e-03	0	57	0	263192576	55	6360
2026-01-13 10:26:49.89	183.21	20.93	-42.3	-46.7	10.7	3.00e-03	0	57	0	265289728	55	6270
2026-01-13 10:26:50.90	183.29	21.06	-42.2	-46.7	10.8	2.61e-03	0	57	0	267386880	55	6207
2026-01-13 10:26:51.91	183.37	21.19	-42.2	-46.6	10.9	2.31e-03	0	57	0	268435456	55	6197
2026-01-13 10:26:52.92	183.45	21.33	-42.2	-46.6	10.9	2.34e-03	0	57	0	270532608	55	6194
2026-01-13 10:26:53.93	183.53	21.46	-42.2	-46.6	10.9	2.08e-03	0	57	0	272629760	55	6157
2026-01-13 10:26:54.94	183.61	21.59	-42.1	-46.5	11.0	2.00e-03	0	57	0	274726912	55	6066
2026-01-13 10:26:55.95	183.69	21.73	-42.1	-46.4	11.1	1.81e-03	0	57	0	276824064	55	6029
2026-01-13 10:26:56.96	183.77	21.87	-42.1	-46.3	11.2	1.51e-03	0	57	0	277872640	55	5975
2026-01-13 10:26:57.97	183.85	22.00	-42.1	-46.3	11.2	1.45e-03	0	57	0	279969792	55	5948
2026-01-13 10:26:58.98	183.94	22.14	-42.1	-46.3	11.2	1.38e-03	0	58	0	282066944	55	5948
2026-01-13 10:26:59.99	184.02	22.28	-42.0	-46.2	11.4	1.21e-03	0	57	0	284164096	55	5872
2026-01-13 10:27:01.00	184.11	22.42	-42.0	-46.1	11.5	9.22e-04	0	57	0	286261248	55	5819
2026-01-13 10:27:02.01	184.19	22.56	-42.0	-46.1	11.5	9.25e-04	0	57	0	287309824	55	5808
2026-01-13 10:27:03.01	184.28	22.70	-42.0	-46.1	11.5	7.51e-04	0	57	0	289406976	55	5791
2026-01-13 10:27:04.03	184.36	22.84	-42.0	-46.0	11.6	7.19e-04	0	57	0	291504128	55	5740
2026-01-13 10:27:05.04	184.45	22.98	-41.9	-45.9	11.7	5.47e-04	0	57	0	293601280	55	5671
2026-01-13 10:27:06.05	184.54	23.12	-41.9	-45.8	11.7	5.95e-04	0	57	0	295698432	55	5647
2026-01-13 10:27:07.06	184.63	23.27	-41.9	-45.8	11.8	5.18e-04	0	57	0	296747008	55	5643
2026-01-13 10:27:08.07	184.72	23.41	-41.9	-45.8	11.8	4.79e-04	0	57	0	298844160	55	5627
2026-01-13 10:27:09.08	184.81	23.55	-41.8	-45.7	11.9	4.19e-04	0	57	0	300941312	55	5573
2026-01-13 10:27:10.09	184.90	23.70	-41.9	-45.8	11.9	3.82e-04	0	57	0	303038464	55	5601
2026-01-13 10:27:11.10	184.99	23.85	-41.9	-45.7	11.9	4.79e-04	0	57	0	305135616	55	5589
2026-01-13 10:27:12.11	185.09	23.99	-41.8	-45.6	12.0	3.13e-04	0	58	0	306184192	55	5510
2026-01-13 10:27:13.12	185.18	24.14	-41.8	-45.6	12.0	3.33e-04	0	57	0	308281344	55	5521
2026-01-13 10:27:14.13	185.28	24.29	-41.8	-45.6	12.1	3.09e-04	0	57	0	310378496	55	5496
2026-01-13 10:27:15.14	185.37	24.44	-41.7	-45.4	12.2	2.33e-04	0	57	0	312475648	55	5374
2026-01-13 10:27:16.15	185.47	24.59	-41.7	-45.5	12.2	2.61e-04	0	57	0	314572800	55	5410
2026-01-13 10:27:17.16	185.57	24.74	-41.7	-45.4	12.2	1.87e-04	0	57	0	315621376	55	5393
2026-01-13 10:27:18.17	185.66	24.89	-41.7	-45.4	12.3	2.01e-04	0	57	0	317718528	55	5375
2026-01-13 10:27:19.17	185.76	25.04	-41.7	-45.4	12.3	2.01e-04	0	58	0	319815680	55	5389
2026-01-13 10:27:20.18	185.86	25.19	-41.6	-45.3	12.4	1.56e-04	0	58	0	321912832	55	5282
2026-01-13 10:27:21.19	185.96	25.35	-41.6	-45.3	12.4	1.75e-04	0	57	0	324009984	55	5329
2026-01-13 10:27:22.20	186.07	25.50	-41.6	-45.2	12.5	1.27e-04	0	58	0	325058560	55	5254
2026-01-13 10:27:23.21	186.17	25.66	-41.5	-45.1	12.6	1.38e-04	0	58	0	327155712	55	5189
2026-01-13 10:27:24.22	186.27	25.82	-41.5	-45.0	12.7	8.77e-05	0	57	0	329252864	55	5142
2026-01-13 10:27:25.23	186.38	25.97	-41.5	-45.0	12.7	6.40e-05	0	58	0	331350016	54	5452
2026-01-13 10:27:26.24	186.48	26.13	-41.4	-44.8	12.9	8.08e-05	0	57	0	333447168	54	5325
2026-01-13 10:27:27.25	186.59	26.29	-41.5	-45.0	12.8	6.63e-05	0	58	0	335544320	54	5410
2026-01-13 10:27:28.26	186.70	26.45	-41.5	-45.0	12.7	6.10e-05	0	58	0	336592896	54	5431
2026-01-13 10:27:29.26	186.81	26.61	-41.5	-45.0	12.8	8.69e-05	0	57	0	338690048	54	5409
2026-01-13 10:27:30.27	186.92	26.77	-41.6	-45.1	12.7	8.01e-05	0	57	0	340787200	54	5491
2026-01-13 10:27:31.28	187.03	26.93	-41.6	-45.1	12.7	8.31e-05	0	57	0	342884352	54	5473
2026-01-13 10:27:32.30	187.14	27.10	-41.6	-45.2	12.6	8.85e-05	0	58	0	344981504	54	5549
2026-01-13 10:27:33.31	187.26	27.26	-41.7	-45.3	12.4	1.17e-04	0	57	0	346030080	54	5628
2026-01-13 10:27:34.32	187.37	27.42	-41.7	-45.4	12.4	1.31e-04	0	58	0	348127232	54	5677
2026-01-13 10:27:35.33	187.49	27.59	-41.8	-45.5	12.2	1.95e-04	0	57	0	350224384	54	5774
2026-01-13 10:27:36.34	187.60	27.76	-41.9	-45.7	12.0	2.16e-04	0	58	0	352321536	54	5907
2026-01-13 10:27:37.35	187.72	27.92	-42.0	-45.8	11.9	4.29e-04	0	57	0	354418688	54	5975
2026-01-13 10:27:38.36	187.84	28.09	-42.0	-46.0	11.8	4.78e-04	0	58	0	355467264	54	6074
2026-01-13 10:27:39.37	187.96	28.26	-42.1	-46.2	11.6	5.18e-04	0	58	0	357564416	54	6215
2026-01-13 10:27:40.38	188.09	28.43	-42.1	-46.2	11.5	7.92e-04	0	58	0	359661568	54	6250
2026-01-13 10:27:41.39	188.21	28.60	-42.2	-46.3	11.4	9.08e-04	0	58	0	361758720	54	6326
2026-01-13 10:27:42.40	188.33	28.78	-42.2	-46.3	11.4	1.04e-03	0	58	0	363855872	54	6284
2026-01-13 10:27:43.41	188.46	28.95	-42.2	-46.4	11.3	9.69e-04	0	58	0	364904448	54	6372
2026-01-13 10:27:44.41	188.58	29.12	-42.2	-46.4	11.4	1.11e-03	0	58	0	367001600	55	5994
2026-01-13 10:27:45.42	188.71	29.30	-42.3	-46.5	11.3	1.14e-03	0	58	0	369098752	55	6069
2026-01-13 10:27:46.43	188.84	29.47	-42.3	-46.5	11.2	1.34e-03	0	57	0	371195904	55	6124
2026-01-13 10:27:47.44	188.97	29.65	-42.3	-46.6	11.1	1.74e-03	0	58	0	373293056	55	6149
2026-01-13 10:27:48.45	189.11	29.83	-42.4	-46.7	11.0	1.65e-03	0	58	0	374341632	55	6265
2026-01-13 10:27:49.46	189.24	30.00	-42.5	-47.0	10.8	2.49e-03	0	58	0	376438784	55	6431
2026-01-13 10:27:50.47	189.38	30.18	-42.5	-47.1	10.7	3.03e-03	0	58	0	378535936	55	6510
2026-01-13 10:27:51.48	189.51	30.36	-42.6	-47.3	10.4	3.88e-03	0	58	0	380633088	55	6662
2026-01-13 10:27:52.49	189.65	30.55	-42.7	-47.4	10.3	4.89e-03	0	58	0	382730240	55	6775
2026-01-13 10:27:53.50	189.79	30.73	-42.9	-47.8	10.0	6.63e-03	0	58	0	383778816	56	6712
2026-01-13 10:27:54.51	189.93	30.91	-43.0	-48.1	9.8	8.77e-03	0	58	0	385875968	56	6892
2026-01-13 10:27:55.52	190.08	31.10	-43.1	-48.3	9.5	1.11e-02	0	58	0	387973120	56	7071
2026-01-13 10:27:56.53	190.22	31.28	-43.1	-48.3	9.5	1.46e-02	0	58	0	390070272	56	7103
2026-01-13 10:27:57.54	190.37	31.47	-43.2	-48.6	9.3	1.70e-02	0	58	0	392167424	57	6919
2026-01-13 10:27:58.54	190.51	31.65	-43.3	-48.9	9.0	2.52e-02	0	58	0	393216000	57	7155
2026-01-13 10:27:59.55	190.66	31.84	-43.4	-49.1	8.8	2.96e-02	0	58	0	395313152	57	7308
2026-01-13 10:28:00.56	190.81	32.03	-43.4	-49.0	8.8	3.15e-02	0	58	0	397410304	57	7262
2026-01-13 10:28:01.57	190.97	32.22	-43.4	-49.1	8.8	3.23e-02	0	58	0	399507456	57	7296
2026-01-13 10:28:02.58	191.12	32.41	-43.4	-49.1	8.7	3.44e-02	0	58	0	401604608	57	7347
2026-01-13 10:28:03.59	191.28	32.60	-43.4	-49.1	8.7	3.60e-02	0	58	0	403701760	57	7339
2026-01-13 10:28:04.60	191.44	32.80	-43.4	-49.1	8.7	3.36e-02	0	58	0	404750336	57	7362
2026-01-13 10:28:05.61	191.60	32.99	-43.4	-49.1	8.7	3.35e-02	0	58	0	406847488	57	7318
2026-01-13 10:28:06.62	191.76	33.19	-43.4	-49.1	8.7	3.56e-02	0	58	0	408944640	57	7334
2026-01-13 10:28:07.63	191.92	33.38	-43.4	-49.2	8.7	3.58e-02	0	58	0	411041792	57	7377
2026-01-13 10:28:08.64	192.09	33.58	-43.5	-49.2	8.6	3.59e-02	0	58	0	412090368	57	7418
2026-01-13 10:28:09.65	192.26	33.78	-43.5	-49.3	8.5	3.96e-02	0	58	0	414187520	57	7528
2026-01-13 10:28:10.66	192.43	33.98	-43.5	-49.4	8.4	4.45e-02	0	58	0	416284672	57	7614
2026-01-13 10:28:11.67	192.60	34.18	-43.4	-49.0	8.8	4.13e-02	0	58	0	418381824	57	7252
2026-01-13 10:28:12.68	192.77	34.38	-43.4	-49.0	8.9	3.02e-02	0	58	0	420478976	57	7208
2026-01-13 10:28:13.69	192.95	34.58	-43.4	-49.0	8.9	2.79e-02	0	58	0	422576128	57	7222
2026-01-13 10:28:14.70	193.13	34.79	-43.4	-49.0	8.8	3.00e-02	0	58	0	423624704	57	7285
2026-01-13 10:28:15.71	193.31	34.99	-43.4	-49.1	8.9	3.13e-02	0	58	0	425721856	57	7288
2026-01-13 10:28:16.72	193.49	35.20	-43.4	-49.0	8.8	2.93e-02	0	58	0	427819008	57	7284
2026-01-13 10:28:17.73	193.68	35.40	-43.4	-49.1	8.8	3.21e-02	0	58	0	429916160	57	7317
2026-01-13 10:28:18.74	193.87	35.61	-43.5	-49.2	8.7	3.44e-02	0	58	0	432013312	57	7395
2026-01-13 10:28:19.75	194.06	35.82	-43.5	-49.3	8.6	3.85e-02	0	58	0	433061888	57	7491
2026-01-13 10:28:20.76	194.25	36.03	-43.5	-49.3	8.5	3.79e-02	0	58	0	435159040	57	7498
2026-01-13 10:28:21.77	194.44	36.24	-43.5	-49.1	8.8	3.74e-02	0	58	0	437256192	57	7352
2026-01-13 10:28:22.78	194.64	36.45	-43.5	-49.2	8.7	3.18e-02	0	58	0	439353344	57	7435
2026-01-13 10:28:23.79	194.84	36.66	-43.5	-49.2	8.6	3.65e-02	0	58	0	441450496	57	7447
2026-01-13 10:28:24.79	195.04	36.87	-43.5	-49.2	8.6	3.55e-02	0	58	0	442499072	57	7449
2026-01-13 10:28:25.80	195.24	37.09	-43.5	-49.2	8.6	3.61e-02	0	58	0	444596224	57	7450
2026-01-13 10:28:26.81	195.45	37.30	-43.5	-49.3	8.6	3.79e-02	0	58	0	446693376	57	7514
2026-01-13 10:28:27.82	195.66	37.52	-43.6	-49.4	8.5	3.99e-02	0	58	0	448790528	57	7572
2026-01-13 10:28:28.83	195.87	37.74	-43.5	-49.3	8.7	3.89e-02	0	58	0	450887680	57	7486
2026-01-13 10:28:29.84	196.09	37.96	-43.4	-48.8	9.1	2.96e-02	0	58	0	451936256	57	7092
2026-01-13 10:28:30.85	196.31	38.18	-43.3	-48.7	9.2	2.38e-02	0	58	0	454033408	57	6995
2026-01-13 10:28:31.86	196.53	38.40	-43.3	-48.7	9.3	1.96e-02	0	58	0	456130560	57	6991
2026-01-13 10:28:32.87	196.75	38.62	-43.3	-48.7	9.3	1.90e-02	0	58	0	458227712	57	6962
2026-01-13 10:28:33.88	196.98	38.84	-43.4	-48.8	9.1	2.24e-02	0	58	0	460324864	57	7105
2026-01-13 10:28:34.89	197.21	39.07	-43.3	-48.6	9.3	2.19e-02	0	58	0	461373440	57	6911
2026-01-13 10:28:35.90	197.45	39.29	-43.3	-48.7	9.2	2.02e-02	0	58	0	463470592	57	7023
2026-01-13 10:28:36.91	197.68	39.51	-43.3	-48.7	9.2	2.30e-02	0	58	0	465567744	57	7039
2026-01-13 10:28:37.92	197.92	39.74	-43.3	-48.5	9.4	2.06e-02	0	58	0	467664896	57	6856
2026-01-13 10:28:38.93	198.17	39.97	-43.3	-48.5	9.5	1.45e-02	0	58	0	469762048	57	6805
2026-01-13 10:28:39.94	198.41	40.20	-43.1	-48.1	9.8	1.11e-02	0	58	0	470810624	57	6558
2026-01-13 10:28:40.95	198.66	40.43	-43.1	-47.9	10.1	8.90e-03	0	58	0	472907776	57	6363
2026-01-13 10:28:41.96	198.92	40.65	-43.0	-47.7	10.2	6.12e-03	0	58	0	475004928	57	6247
2026-01-13 10:28:42.97	199.18	40.89	-42.8	-47.4	10.7	3.75e-03	0	58	0	477102080	57	6027
2026-01-13 10:28:43.98	199.44	41.12	-42.8	-47.3	10.7	2.81e-03	0	58	0	479199232	57	5959
2026-01-13 10:28:44.99	199.70	41.35	-42.7	-47.0	11.0	2.04e-03	0	58	0	480247808	57	5739
2026-01-13 10:28:45.99	199.97	41.58	-42.6	-46.8	11.3	1.40e-03	0	58	0	482344960	57	5596
2026-01-13 10:28:47.00	200.24	41.81	-42.6	-46.7	11.3	1.17e-03	0	58	0	484442112	57	5587
2026-01-13 10:28:48.01	200.52	42.05	-42.7	-46.9	11.2	1.28e-03	0	58	0	486539264	57	5717
2026-01-13 10:28:49.02	200.80	42.28	-42.8	-47.4	10.7	2.61e-03	0	58	0	488636416	57	5994
2026-01-13 10:28:50.03	201.08	42.52	-42.9	-47.6	10.5	4.10e-03	0	58	0	489684992	57	6164
2026-01-13 10:28:51.04	201.37	42.76	-42.8	-47.3	10.7	4.19e-03	0	58	0	491782144	57	5980
2026-01-13 10:28:52.05	201.66	42.99	-42.8	-47.3	10.8	3.00e-03	0	58	0	493879296	57	5973
2026-01-13 10:28:53.06	201.96	43.23	-42.7	-47.0	11.1	2.24e-03	0	58	0	495976448	57	5741
2026-01-13 10:28:54.07	202.26	43.47	-42.7	-47.0	11.1	1.55e-03	0	58	0	498073600	57	5747
2026-01-13 10:28:55.08	202.56	43.71	-42.8	-47.2	10.9	2.01e-03	0	58	0	500170752	57	5861
2026-01-13 10:28:56.09	202.88	43.95	-42.9	-47.5	10.6	2.53e-03	0	58	0	501219328	57	6092
2026-01-13 10:28:57.10	203.19	44.19	-43.2	-48.1	9.9	5.31e-03	0	58	0	503316480	57	6526
2026-01-13 10:28:58.11	203.51	44.43	-43.2	-48.4	9.7	1.15e-02	0	58	0	505413632	57	6745
2026-01-13 10:28:59.12	203.83	44.68	-43.2	-48.4	9.7	1.32e-02	0	58	0	507510784	57	6728
2026-01-13 10:29:00.13	204.16	44.92	-43.3	-48.5	9.5	1.20e-02	0	58	0	509607936	57	6834
2026-01-13 10:29:01.14	204.50	45.16	-43.2	-48.4	9.6	1.31e-02	0	58	0	510656512	57	6729
2026-01-13 10:29:02.15	204.84	45.40	-43.3	-48.6	9.4	1.48e-02	0	58	0	512753664	57	6955
2026-01-13 10:29:03.16	205.18	45.65	-43.4	-48.7	9.3	1.83e-02	0	58	0	514850816	57	6964
2026-01-13 10:29:04.16	205.53	45.89	-43.3	-48.5	9.6	1.42e-02	0	58	0	516947968	57	6807
2026-01-13 10:29:05.17	205.88	46.13	-43.3	-48.6	9.4	1.36e-02	0	58	0	519045120	57	6911
2026-01-13 10:29:06.18	206.25	46.38	-43.3	-48.5	9.5	1.48e-02	0	58	0	520093696	57	6834
2026-01-13 10:29:07.19	206.61	46.62	-43.4	-48.8	9.2	1.94e-02	0	58	0	522190848	57	7043
2026-01-13 10:29:08.20	206.98	46.87	-43.6	-49.5	8.5	3.42e-02	0	58	0	524288000	57	7661
2026-01-13 10:29:09.21	207.36	47.11	-43.7	-49.6	8.4	4.97e-02	0	58	0	526385152	58	7300
2026-01-13 10:29:10.22	207.75	47.36	-43.6	-49.4	8.6	4.72e-02	0	58	0	528482304	58	7183
2026-01-13 10:29:11.23	208.13	47.60	-43.5	-49.0	9.0	3.26e-02	0	58	0	529530880	58	6862
2026-01-13 10:29:12.23	208.53	47.84	-43.5	-48.9	9.1	2.00e-02	0	58	0	531628032	58	6756
2026-01-13 10:29:13.24	208.93	48.09	-43.4	-48.7	9.3	1.72e-02	0	58	0	533725184	58	6624
2026-01-13 10:29:14.25	209.34	48.33	-43.4	-48.8	9.2	1.72e-02	0	58	0	535822336	58	6703
2026-01-13 10:29:15.27	209.76	48.58	-43.6	-49.4	8.7	2.99e-02	0	58	0	537919488	58	7130
2026-01-13 10:29:16.27	210.17	48.82	-43.8	-49.8	8.2	4.59e-02	0	58	0	538968064	58	7475
2026-01-13 10:29:17.28	210.60	49.07	-43.8	-49.7	8.3	5.83e-02	0	58	0	541065216	58	7451
2026-01-13 10:29:18.29	211.04	49.31	-43.8	-49.7	8.2	5.56e-02	0	58	0	543162368	58	7451
2026-01-13 10:29:19.30	211.48	49.55	-43.7	-49.5	8.4	4.86e-02	0	58	0	545259520	58	7262
2026-01-13 10:29:20.31	211.93	49.80	-43.6	-49.1	8.8	3.85e-02	0	58	0	547356672	58	6951
2026-01-13 10:29:21.32	212.38	50.04	-43.4	-48.8	9.2	2.43e-02	0	58	0	548405248	58	6719
2026-01-13 10:29:22.33	212.85	50.28	-43.4	-48.6	9.5	1.80e-02	0	58	0	550502400	58	6517
2026-01-13 10:29:23.34	213.32	50.52	-43.3	-48.6	9.4	1.49e-02	0	58	0	552599552	58	6551
2026-01-13 10:29:24.35	213.79	50.76	-43.3	-48.4	9.7	1.47e-02	0	58	0	554696704	58	6368
2026-01-13 10:29:25.36	214.28	51.00	-43.1	-47.9	10.2	8.38e-03	0	58	0	556793856	58	5995
2026-01-13 10:29:26.37	214.77	51.24	-42.9	-47.5	10.6	4.50e-03	0	58	0	557842432	57	6088
2026-01-13 10:29:27.38	215.27	51.47	-42.9	-47.3	10.7	3.02e-03	0	58	0	559939584	57	5990
2026-01-13 10:29:28.39	215.78	51.71	-42.7	-47.1	11.0	1.92e-03	0	58	0	562036736	57	5825
2026-01-13 10:29:29.40	216.30	51.95	-42.7	-47.0	11.1	1.87e-03	0	58	0	564133888	57	5760
2026-01-13 10:29:30.41	216.82	52.18	-42.7	-46.9	11.2	1.31e-03	0	58	0	566231040	57	5690
2026-01-13 10:29:31.42	217.36	52.41	-42.6	-46.8	11.3	1.38e-03	0	58	0	568328192	56	5953
2026-01-13 10:29:32.43	217.90	52.64	-42.5	-46.5	11.6	9.87e-04	0	58	0	569376768	56	5784
2026-01-13 10:29:33.44	218.45	52.87	-42.2	-46.0	12.1	3.80e-04	0	58	0	571473920	56	5422
2026-01-13 10:29:34.45	219.01	53.10	-42.1	-45.8	12.4	1.61e-04	0	58	0	573571072	56	5301
2026-01-13 10:29:35.46	219.57	53.33	-41.8	-45.5	12.5	9.15e-05	0	58	0	575668224	55	5427
2026-01-13 10:29:36.47	220.15	53.55	-42.0	-45.7	12.3	1.40e-04	0	58	0	577765376	55	5573
2026-01-13 10:29:37.48	220.74	53.77	-42.2	-46.0	11.9	3.49e-04	0	58	0	578813952	55	5770
2026-01-13 10:29:38.49	221.33	53.99	-42.2	-46.0	11.9	4.45e-04	0	58	0	580911104	55	5783
2026-01-13 10:29:39.49	221.93	54.21	-42.0	-45.7	12.3	3.16e-04	0	59	0	583008256	55	5566
2026-01-13 10:29:40.51	222.54	54.43	-41.8	-45.3	12.6	9.15e-05	0	58	0	585105408	55	5330
2026-01-13 10:29:41.52	223.17	54.64	-41.7	-45.1	12.9	4.65e-05	0	58	0	587202560	55	5165
2026-01-13 10:29:42.53	223.80	54.85	-41.8	-45.4	12.6	5.95e-05	0	58	0	588251136	54	5696
2026-01-13 10:29:43.54	224.44	55.06	-41.9	-45.9	12.1	2.42e-04	0	58	0	590348288	54	6033
2026-01-13 10:29:44.55	225.08	55.26	-42.2	-46.1	11.9	4.23e-04	0	58	0	592445440	55	5839
2026-01-13 10:29:45.56	225.74	55.46	-42.1	-45.9	12.1	4.26e-04	0	58	0	594542592	55	5698
2026-01-13 10:29:46.56	226.40	55.66	-42.1	-45.9	12.1	2.84e-04	0	58	0	596639744	55	5719
2026-01-13 10:29:47.57	227.08	55.86	-42.2	-46.1	11.9	3.50e-04	0	58	0	597688320	55	5819
2026-01-13 10:29:48.58	227.77	56.05	-42.3	-46.4	11.6	5.70e-04	0	58	0	599785472	55	6005
2026-01-13 10:29:49.59	228.46	56.24	-42.3	-46.6	11.3	1.03e-03	0	58	0	601882624	55	6138
2026-01-13 10:29:50.60	229.17	56.43	-42.5	-46.8	11.0	1.55e-03	0	58	0	603979776	55	6339
2026-01-13 10:29:51.62	229.89	56.61	-42.5	-46.7	11.2	1.62e-03	0	58	0	606076928	55	6273
2026-01-13 10:29:52.63	230.61	56.79	-42.5	-46.7	11.2	1.49e-03	0	58	0	607125504	55	6265
2026-01-13 10:29:53.64	231.35	56.97	-42.3	-46.7	11.2	1.08e-03	0	58	0	609222656	55	6217
2026-01-13 10:29:54.64	232.08	57.14	-42.6	-47.0	11.0	1.72e-03	0	58	0	611319808	55	6424
2026-01-13 10:29:55.65	232.83	57.31	-42.8	-47.6	10.5	3.01e-03	0	59	0	613416960	56	6520
2026-01-13 10:29:56.66	233.59	57.47	-42.7	-47.7	10.3	4.89e-03	0	58	0	615514112	56	6618
2026-01-13 10:29:57.67	234.36	57.63	-42.9	-47.4	10.6	3.63e-03	0	59	0	616562688	56	6411
2026-01-13 10:29:58.68	235.14	57.78	-42.8	-47.2	10.9	2.77e-03	0	58	0	618659840	56	6234
2026-01-13 10:29:59.69	235.93	57.93	-42.9	-47.5	10.5	3.95e-03	0	58	0	620756992	56	6490
2026-01-13 10:30:00.70	236.73	58.08	-43.0	-47.7	10.4	4.45e-03	0	59	0	622854144	56	6608
2026-01-13 10:30:01.71	237.53	58.22	-42.9	-47.6	10.5	4.38e-03	0	58	0	624951296	56	6508
2026-01-13 10:30:02.72	238.34	58.35	-42.5	-47.4	10.7	3.11e-03	0	58	0	625999872	56	6375
2026-01-13 10:30:03.74	239.17	58.48	-42.4	-47.1	10.9	2.84e-03	0	58	0	628097024	56	6177
2026-01-13 10:30:04.74	239.99	58.61	-42.7	-47.1	11.1	1.48e-03	0	58	0	630194176	56	6134
2026-01-13 10:30:05.75	240.83	58.73	-42.5	-46.9	11.1	1.56e-03	0	58	0	632291328	55	6351
2026-01-13 10:30:06.76	241.67	58.84	-42.5	-46.9	11.0	1.80e-03	0	58	0	634388480	55	6416
2026-01-13 10:30:07.77	242.52	58.95	-42.4	-46.4	11.5	1.32e-03	0	59	0	636485632	55	6025
2026-01-13 10:30:08.78	243.38	59.05	-42.2	-46.1	11.9	7.03e-04	0	58	0	637534208	55	5795
2026-01-13 10:30:09.79	244.25	59.15	-42.3	-46.3	11.6	5.07e-04	0	59	0	639631360	55	5985
2026-01-13 10:30:10.80	245.12	59.24	-42.4	-46.9	11.0	1.07e-03	0	58	0	641728512	55	6355
2026-01-13 10:30:11.81	245.99	59.33	-42.9	-47.8	10.3	2.82e-03	0	58	0	643825664	56	6659
2026-01-13 10:30:12.82	246.87	59.41	-43.1	-47.9	10.1	7.08e-03	0	58	0	645922816	56	6779
2026-01-13 10:30:13.83	247.76	59.48	-42.9	-47.5	10.5	4.65e-03	0	58	0	646971392	56	6429
2026-01-13 10:30:14.84	248.65	59.55	-42.8	-47.2	10.8	2.39e-03	0	58	0	649068544	56	6216
2026-01-13 10:30:15.85	249.55	59.61	-43.0	-47.7	10.3	3.48e-03	0	58	0	651165696	56	6640
2026-01-13 10:30:16.86	250.45	59.67	-43.5	-49.1	8.9	1.54e-02	0	59	0	653262848	57	7318
2026-01-13 10:30:17.87	251.35	59.72	-43.7	-49.6	8.4	4.65e-02	0	58	0	655360000	57	7808
2026-01-13 10:30:18.88	252.26	59.76	-43.5	-49.1	8.9	3.35e-02	0	58	0	656408576	57	7329
2026-01-13 10:30:19.89	253.17	59.79	-43.3	-48.9	9.1	2.17e-02	0	59	0	658505728	57	7146
2026-01-13 10:30:20.90	254.08	59.82	-43.2	-48.3	9.6	1.87e-02	0	58	0	660602880	57	6719
2026-01-13 10:30:21.91	254.99	59.85	-43.4	-48.9	9.0	1.66e-02	0	58	0	662700032	57	7153
2026-01-13 10:30:22.92	255.91	59.86	-43.5	-49.2	8.7	3.67e-02	0	58	0	664797184	57	7439
2026-01-13 10:30:23.93	256.82	59.87	-43.5	-49.0	9.0	3.35e-02	0	59	0	665845760	57	7239
2026-01-13 10:30:24.94	257.74	59.88	-43.0	-47.9	10.1	1.28e-02	0	58	0	667942912	57	6383
2026-01-13 10:30:25.95	258.66	59.88	-43.0	-47.6	10.5	4.28e-03	0	59	0	670040064	57	6185
2026-01-13 10:30:26.96	259.57	59.87	-43.1	-48.0	10.0	4.75e-03	0	58	0	672137216	57	6485
2026-01-13 10:30:27.97	260.49	59.85	-42.9	-47.6	10.4	6.17e-03	0	58	0	674234368	57	6138
2026-01-13 10:30:28.98	261.40	59.83	-42.8	-47.3	10.7	3.09e-03	0	58	0	675282944	57	5972
2026-01-13 10:30:29.99	262.31	59.80	-42.6	-46.8	11.3	2.03e-03	0	59	0	677380096	57	5627
2026-01-13 10:30:31.00	263.22	59.76	-42.5	-46.7	11.4	9.02e-04	0	58	0	679477248	56	5907
2026-01-13 10:30:32.01	264.13	59.72	-42.7	-46.9	11.1	1.27e-03	0	58	0	681574400	56	6036
2026-01-13 10:30:33.02	265.03	59.68	-42.7	-47.1	11.0	2.06e-03	0	58	0	683671552	56	6150
2026-01-13 10:30:34.03	265.93	59.62	-42.6	-46.8	11.4	1.31e-03	0	58	0	684720128	56	5931
2026-01-13 10:30:35.03	266.82	59.56	-42.5	-46.6	11.5	9.06e-04	0	58	0	686817280	56	5844
2026-01-13 10:30:36.05	267.72	59.49	-42.8	-47.1	11.0	1.45e-03	0	58	0	688914432	56	6177
2026-01-13 10:30:37.06	268.61	59.42	-43.2	-48.2	9.8	5.23e-03	0	58	0	691011584	56	7015
2026-01-13 10:30:38.07	269.49	59.34	-43.3	-48.4	9.6	1.05e-02	0	58	0	693108736	57	6790
2026-01-13 10:30:39.08	270.37	59.26	-43.4	-48.7	9.3	1.49e-02	0	58	0	694157312	57	6999
2026-01-13 10:30:40.09	271.24	59.17	-43.5	-49.0	9.0	2.44e-02	0	58	0	696254464	57	7209
2026-01-13 10:30:41.10	272.10	59.07	-43.5	-49.0	9.0	2.66e-02	0	58	0	698351616	57	7258
2026-01-13 10:30:42.11	272.96	58.97	-43.5	-49.1	8.9	2.65e-02	0	58	0	700448768	57	7300
2026-01-13 10:30:43.12	273.81	58.86	-43.5	-49.1	8.9	3.29e-02	0	58	0	702545920	57	7297
2026-01-13 10:30:44.13	274.65	58.75	-43.5	-49.0	9.0	2.35e-02	0	58	0	704643072	57	7217
2026-01-13 10:30:45.14	275.49	58.63	-43.6	-49.3	8.7	2.79e-02	0	58	0	705691648	57	7463
2026-01-13 10:30:46.15	276.32	58.50	-44.1	-50.9	7.1	9.39e-02	0	58	0	707788800	58	8539
2026-01-13 10:30:47.16	277.14	58.37	-44.2	-51.4	6.6	1.99e-01	0	58	0	709885952	58	9060
2026-01-13 10:30:48.17	277.95	58.24	-44.0	-50.6	7.4	1.33e-01	0	58	0	711983104	58	8216
2026-01-13 10:30:49.18	278.76	58.10	-44.0	-50.6	7.4	9.97e-02	0	58	0	714080256	58	8238
2026-01-13 10:30:50.19	279.55	57.96	-44.0	-50.8	7.3	1.14e-01	0	58	0	715128832	58	8433
2026-01-13 10:30:51.20	280.34	57.81	-44.1	-51.0	7.0	1.64e-01	0	58	0	717225984	58	8634
2026-01-13 10:30:52.21	281.12	57.66	-44.0	-50.6	7.4	1.31e-01	0	58	0	719323136	58	8237
2026-01-13 10:30:53.22	281.89	57.50	-43.8	-49.9	8.1	8.54e-02	0	59	0	721420288	58	7624
2026-01-13 10:30:54.23	282.65	57.34	-43.7	-49.4	8.6	5.33e-02	0	58	0	723517440	58	7176
2026-01-13 10:30:55.24	283.40	57.17	-43.5	-48.9	9.0	3.07e-02	0	58	0	724566016	58	6775
2026-01-13 10:30:56.25	284.15	57.00	-43.3	-48.4	9.7	1.52e-02	0	59	0	726663168	58	6396
2026-01-13 10:30:57.26	284.88	56.82	-43.1	-48.0	10.1	1.10e-02	0	58	0	728760320	58	6073
2026-01-13 10:30:58.27	285.61	56.65	-42.9	-47.5	10.6	4.22e-03	0	58	0	730857472	57	6118
2026-01-13 10:30:59.28	286.32	56.47	-43.0	-47.6	10.5	3.33e-03	0	58	0	732954624	57	6161
2026-01-13 10:31:00.28	287.02	56.28	-43.1	-48.0	10.1	4.82e-03	0	58	0	734003200	57	6448
2026-01-13 10:31:01.29	287.72	56.09	-43.0	-47.7	10.3	7.04e-03	0	58	0	736100352	57	6235
2026-01-13 10:31:02.30	288.40	55.90	-42.5	-46.6	11.5	1.36e-03	0	58	0	738197504	57	5500
2026-01-13 10:31:03.31	289.08	55.71	-42.3	-46.1	12.0	6.10e-04	0	58	0	740294656	56	5523
2026-01-13 10:31:04.33	289.75	55.50	-42.2	-46.0	12.2	1.89e-04	0	58	0	742391808	56	5428
2026-01-13 10:31:05.34	290.41	55.30	-41.8	-45.3	12.7	1.15e-04	0	59	0	743440384	55	5313
2026-01-13 10:31:06.34	291.05	55.10	-41.4	-44.6	13.4	2.05e-05	0	59	0	745537536	54	5194
2026-01-13 10:31:07.35	291.69	54.89	-41.2	-44.3	13.8	6.10e-06	0	58	0	747634688	54	5003
2026-01-13 10:31:08.36	292.33	54.68	-40.9	-43.8	14.3	4.50e-06	0	58	0	749731840	53	4997
2026-01-13 10:31:09.37	292.95	54.47	-41.1	-44.1	13.9	2.20e-06	0	58	0	751828992	53	5199
2026-01-13 10:31:10.38	293.56	54.26	-41.4	-44.6	13.4	1.06e-05	0	59	0	752877568	53	5503
2026-01-13 10:31:11.39	294.16	54.04	-41.2	-44.3	13.7	9.10e-06	0	59	0	754974720	53	5323
2026-01-13 10:31:12.40	294.76	53.82	-41.0	-43.9	14.1	4.50e-06	0	58	0	757071872	53	5088
2026-01-13 10:31:13.42	295.35	53.60	-41.0	-44.0	14.1	7.00e-07	0	58	0	759169024	53	5114
2026-01-13 10:31:14.42	295.92	53.38	-41.4	-44.6	13.5	7.60e-06	0	58	0	761266176	53	5492
2026-01-13 10:31:15.43	296.49	53.15	-42.0	-45.6	12.4	6.86e-05	0	59	0	762314752	54	5827
2026-01-13 10:31:16.44	297.04	52.93	-42.1	-45.9	12.0	2.58e-04	0	59	0	764411904	54	6033
2026-01-13 10:31:17.45	297.60	52.70	-41.8	-45.4	12.6	1.57e-04	0	59	0	766509056	54	5697
2026-01-13 10:31:18.46	298.14	52.47	-41.4	-44.6	13.5	2.59e-05	0	58	0	768606208	54	5172
2026-01-13 10:31:19.47	298.67	52.24	-41.2	-44.2	13.9	5.30e-06	0	58	0	770703360	54	4940
2026-01-13 10:31:20.48	299.20	52.01	-41.5	-44.8	13.2	5.30e-06	0	59	0	772800512	54	5329
2026-01-13 10:31:21.49	299.71	51.77	-42.1	-45.9	12.1	1.17e-04	0	58	0	773849088	54	6044
2026-01-13 10:31:22.50	300.22	51.54	-42.4	-46.7	11.3	7.90e-04	0	58	0	775946240	55	6207
2026-01-13 10:31:23.51	300.72	51.30	-42.1	-46.0	12.0	9.31e-04	0	59	0	778043392	55	5750
2026-01-13 10:31:24.52	301.22	51.06	-41.9	-45.5	12.4	1.64e-04	0	58	0	780140544	55	5454
2026-01-13 10:31:25.53	301.70	50.83	-42.2	-46.0	12.0	2.13e-04	0	58	0	782237696	55	5756
2026-01-13 10:31:26.54	302.18	50.59	-42.7	-47.2	10.8	7.05e-04	0	59	0	783286272	55	6591
2026-01-13 10:31:27.55	302.65	50.35	-43.2	-48.1	10.0	5.97e-03	0	59	0	785383424	56	6890
2026-01-13 10:31:28.56	303.12	50.11	-43.2	-48.1	10.0	8.41e-03	0	58	0	787480576	56	6902
2026-01-13 10:31:29.57	303.57	49.87	-43.0	-47.7	10.4	6.87e-03	0	58	0	789577728	56	6646
2026-01-13 10:31:30.58	304.02	49.63	-42.9	-47.4	10.7	3.09e-03	0	58	0	791674880	56	6402
2026-01-13 10:31:31.59	304.46	49.38	-43.1	-47.9	10.2	3.53e-03	0	58	0	792723456	56	6732
2026-01-13 10:31:32.60	304.90	49.14	-43.8	-50.1	8.0	1.62e-02	0	59	0	794820608	58	7754
2026-01-13 10:31:33.61	305.33	48.90	-44.3	-52.2	6.0	2.75e-01	0	59	0	796917760	59	9353
2026-01-13 10:31:34.62	305.75	48.66	-44.1	-51.3	6.8	2.79e-01	0	58	0	799014912	59	8422
2026-01-13 10:31:35.63	306.16	48.41	-43.5	-48.9	9.0	7.19e-02	0	59	0	801112064	59	6405
2026-01-13 10:31:36.64	306.57	48.17	-43.2	-48.2	9.9	1.31e-02	0	59	0	802160640	58	6249
2026-01-13 10:31:37.65	306.97	47.92	-43.5	-48.9	9.1	1.67e-02	0	58	0	804257792	58	6766
2026-01-13 10:31:38.66	307.37	47.68	-43.7	-49.7	8.3	3.51e-02	0	59	0	806354944	58	7407
2026-01-13 10:31:39.66	307.76	47.44	-43.8	-50.0	8.0	6.13e-02	0	58	0	808452096	58	7698
2026-01-13 10:31:40.67	308.14	47.20	-43.9	-50.5	7.6	7.99e-02	0	59	0	810549248	58	8123
2026-01-13 10:31:41.68	308.52	46.95	-44.1	-51.2	6.8	1.53e-01	0	59	0	811597824	58	8821
2026-01-13 10:31:42.69	308.89	46.71	-44.0	-51.0	7.0	1.83e-01	0	59	0	813694976	58	8584
2026-01-13 10:31:43.70	309.26	46.47	-43.7	-49.6	8.3	7.59e-02	0	58	0	815792128	58	7371
2026-01-13 10:31:44.71	309.62	46.22	-43.3	-48.5	9.5	2.16e-02	0	59	0	817889280	58	6457
2026-01-13 10:31:45.72	309.98	45.98	-43.3	-48.5	9.5	1.20e-02	0	58	0	819986432	58	6454
2026-01-13 10:31:46.73	310.33	45.74	-43.6	-49.4	8.6	2.95e-02	0	59	0	821035008	58	7181
2026-01-13 10:31:47.74	310.67	45.49	-44.1	-50.9	7.1	9.43e-02	0	58	0	823132160	58	8525
2026-01-13 10:31:48.75	311.01	45.25	-43.9	-50.3	7.7	1.24e-01	0	58	0	825229312	58	7984
2026-01-13 10:31:49.76	311.35	45.01	-43.7	-49.6	8.4	5.00e-02	0	59	0	827326464	58	7321
2026-01-13 10:31:50.77	311.67	44.77	-43.6	-49.2	8.8	3.25e-02	0	58	0	829423616	58	7023
2026-01-13 10:31:51.78	312.00	44.53	-43.5	-49.0	9.0	2.74e-02	0	58	0	830472192	58	6847
2026-01-13 10:31:52.79	312.32	44.29	-43.4	-48.8	9.1	2.32e-02	0	59	0	832569344	58	6697
2026-01-13 10:31:53.80	312.63	44.05	-43.4	-48.7	9.3	1.73e-02	0	58	0	834666496	58	6634
2026-01-13 10:31:54.81	312.95	43.81	-43.5	-49.2	8.8	2.24e-02	0	59	0	836763648	58	6984
2026-01-13 10:31:55.82	313.25	43.57	-43.9	-50.4	7.6	3.99e-02	0	58	0	838860800	58	8046
2026-01-13 10:31:56.82	313.55	43.34	-44.1	-51.4	6.7	1.71e-01	0	59	0	840957952	58	9014
2026-01-13 10:31:57.83	313.85	43.10	-43.9	-50.4	7.5	1.64e-01	0	59	0	842006528	58	8033
2026-01-13 10:31:58.84	314.14	42.86	-43.3	-48.3	9.7	4.07e-02	0	59	0	844103680	58	6334
2026-01-13 10:31:59.85	314.43	42.63	-42.8	-47.3	10.8	3.51e-03	0	59	0	846200832	57	5941
2026-01-13 10:32:00.86	314.71	42.39	-42.8	-47.3	10.7	2.75e-03	0	58	0	848297984	57	5972
2026-01-13 10:32:01.87	314.99	42.16	-43.2	-48.1	9.9	4.45e-03	0	59	0	850395136	57	6545
2026-01-13 10:32:02.88	315.27	41.92	-43.5	-49.0	9.0	2.02e-02	0	58	0	851443712	57	7218
2026-01-13 10:32:03.89	315.54	41.69	-43.6	-49.4	8.6	3.54e-02	0	59	0	853540864	57	7613
2026-01-13 10:32:04.90	315.81	41.46	-43.5	-49.2	8.8	3.32e-02	0	59	0	855638016	57	7383
2026-01-13 10:32:05.91	316.08	41.23	-43.3	-48.6	9.4	1.84e-02	0	58	0	857735168	57	6892
2026-01-13 10:32:06.92	316.34	41.00	-43.3	-48.4	9.6	1.41e-02	0	58	0	859832320	57	6773
2026-01-13 10:32:07.93	316.60	40.77	-43.1	-48.0	10.0	1.05e-02	0	59	0	860880896	57	6472
2026-01-13 10:32:08.94	316.85	40.54	-43.0	-47.8	10.2	6.38e-03	0	58	0	862978048	57	6310
2026-01-13 10:32:09.95	317.10	40.31	-43.0	-47.7	10.4	3.86e-03	0	59	0	865075200	57	6218
2026-01-13 10:32:10.96	317.35	40.08	-43.2	-48.3	9.7	6.58e-03	0	59	0	867172352	57	6695
2026-01-13 10:32:11.97	317.59	39.86	-43.6	-49.4	8.6	1.76e-02	0	59	0	869269504	57	7564
2026-01-13 10:32:12.98	317.83	39.63	-43.7	-49.7	8.2	5.70e-02	0	59	0	870318080	57	7872
2026-01-13 10:32:13.99	318.07	39.41	-43.4	-48.9	9.1	3.51e-02	0	59	0	872415232	57	7172
2026-01-13 10:32:15.00	318.31	39.18	-42.8	-47.3	10.8	9.22e-03	0	59	0	874512384	57	5955
2026-01-13 10:32:16.01	318.54	38.96	-42.5	-46.6	11.5	9.61e-04	0	59	0	876609536	57	5497
2026-01-13 10:32:17.02	318.76	38.74	-42.3	-46.2	11.9	7.25e-04	0	59	0	878706688	56	5549
2026-01-13 10:32:18.02	318.99	38.52	-42.7	-46.9	11.2	7.19e-04	0	59	0	879755264	56	6036
2026-01-13 10:32:19.03	319.21	38.30	-43.3	-48.5	9.6	8.91e-03	0	59	0	881852416	57	6817
2026-01-13 10:32:20.04	319.43	38.08	-43.8	-50.1	7.9	4.70e-02	0	59	0	883949568	58	7757
2026-01-13 10:32:21.05	319.64	37.87	-43.9	-50.4	7.6	1.03e-01	0	58	0	886046720	58	8076
2026-01-13 10:32:22.06	319.86	37.65	-43.5	-49.2	8.7	7.89e-02	0	58	0	888143872	58	7004
2026-01-13 10:32:23.07	320.07	37.43	-43.1	-48.0	10.0	1.25e-02	0	59	0	889192448	58	6105
2026-01-13 10:32:24.08	320.28	37.22	-42.8	-47.3	10.8	4.35e-03	0	58	0	891289600	57	5928
2026-01-13 10:32:25.09	320.48	37.01	-42.7	-46.9	11.2	1.98e-03	0	59	0	893386752	57	5714
2026-01-13 10:32:26.10	320.68	36.79	-42.5	-46.6	11.5	9.61e-04	0	59	0	895483904	57	5497
2026-01-13 10:32:27.11	320.88	36.58	-42.6	-46.9	11.2	9.06e-04	0	59	0	897581056	57	5657
2026-01-13 10:32:28.12	321.08	36.37	-42.7	-47.1	10.9	1.74e-03	0	59	0	898629632	57	5838
2026-01-13 10:32:29.13	321.28	36.16	-42.8	-47.4	10.7	2.44e-03	0	59	0	900726784	57	5996
2026-01-13 10:32:30.14	321.47	35.95	-43.0	-47.7	10.3	3.73e-03	0	59	0	902823936	57	6230
2026-01-13 10:32:31.15	321.66	35.75	-43.0	-47.9	10.1	5.51e-03	0	59	0	904921088	57	6373
2026-01-13 10:32:32.16	321.85	35.54	-43.1	-48.1	9.9	8.85e-03	0	59	0	907018240	57	6560
2026-01-13 10:32:33.17	322.03	35.33	-43.1	-48.2	9.8	1.06e-02	0	59	0	909115392	57	6615
2026-01-13 10:32:34.19	322.22	35.13	-43.1	-48.0	10.0	8.55e-03	0	59	0	910163968	57	6459
2026-01-13 10:32:35.19	322.40	34.92	-42.9	-47.6	10.4	5.29e-03	0	58	0	912261120	57	6156
2026-01-13 10:32:36.20	322.58	34.72	-42.8	-47.2	10.8	3.13e-03	0	59	0	914358272	57	5919
2026-01-13 10:32:37.21	322.75	34.52	-42.8	-47.2	10.8	2.88e-03	0	59	0	916455424	57	5914
2026-01-13 10:32:38.22	322.93	34.32	-42.7	-47.1	10.9	2.15e-03	0	59	0	918552576	57	5832
2026-01-13 10:32:39.23	323.10	34.12	-42.9	-47.5	10.5	3.27e-03	0	59	0	919601152	57	6112
2026-01-13 10:32:40.24	323.27	33.92	-43.0	-47.9	10.1	5.32e-03	0	59	0	921698304	57	6378
2026-01-13 10:32:41.25	323.44	33.72	-43.2	-48.4	9.6	7.94e-03	0	59	0	923795456	57	6726
2026-01-13 10:32:42.26	323.61	33.53	-43.3	-48.7	9.2	1.79e-02	0	59	0	925892608	57	7014
2026-01-13 10:32:43.27	323.77	33.33	-43.5	-49.1	8.8	2.57e-02	0	59	0	927989760	57	7364
2026-01-13 10:32:44.28	323.93	33.14	-43.6	-49.5	8.4	3.79e-02	0	59	0	929038336	57	7708
2026-01-13 10:32:45.28	324.09	32.95	-43.5	-49.3	8.6	3.76e-02	0	59	0	931135488	57	7489
2026-01-13 10:32:46.30	324.25	32.75	-43.6	-49.6	8.4	4.74e-02	0	59	0	933232640	57	7752
2026-01-13 10:32:47.31	324.41	32.56	-43.4	-49.1	8.8	4.50e-02	0	59	0	935329792	57	7346
2026-01-13 10:32:48.31	324.56	32.37	-43.4	-48.9	9.0	2.37e-02	0	59	0	937426944	57	7177
2026-01-13 10:32:49.32	324.72	32.18	-43.3	-48.8	9.1	2.30e-02	0	59	0	938475520	57	7075
2026-01-13 10:32:50.33	324.87	31.99	-43.1	-48.2	9.7	1.45e-02	0	59	0	940572672	57	6612
2026-01-13 10:32:51.34	325.02	31.81	-43.1	-48.2	9.7	1.06e-02	0	59	0	942669824	57	6637
2026-01-13 10:32:52.35	325.17	31.62	-43.1	-48.1	9.9	9.51e-03	0	59	0	944766976	57	6516
2026-01-13 10:32:53.36	325.31	31.44	-43.1	-48.1	9.9	8.58e-03	0	59	0	946864128	57	6511
2026-01-13 10:32:54.37	325.46	31.25	-43.1	-48.2	9.7	9.19e-03	0	59	0	947912704	57	6627
2026-01-13 10:32:55.38	325.60	31.07	-43.2	-48.4	9.5	1.22e-02	0	59	0	950009856	57	6741
2026-01-13 10:32:56.39	325.74	30.88	-43.3	-48.6	9.3	1.96e-02	0	59	0	952107008	57	6925
2026-01-13 10:32:57.40	325.88	30.70	-43.4	-48.9	9.0	2.29e-02	0	58	0	954204160	57	7193
2026-01-13 10:32:58.40	326.02	30.52	-43.5	-49.5	8.4	4.14e-02	0	59	0	956301312	57	7698
2026-01-13 10:32:59.41	326.16	30.34	-43.6	-49.7	8.2	5.35e-02	0	59	0	957349888	57	7831
2026-01-13 10:33:00.42	326.30	30.17	-43.7	-50.0	7.9	6.14e-02	0	59	0	959447040	57	8123
2026-01-13 10:33:01.43	326.43	29.99	-43.7	-50.1	7.8	8.44e-02	0	59	0	961544192	57	8197
2026-01-13 10:33:02.44	326.56	29.81	-43.6	-49.6	8.2	5.95e-02	0	59	0	963641344	57	7794
2026-01-13 10:33:03.45	326.70	29.63	-43.5	-49.5	8.4	5.58e-02	0	59	0	965738496	57	7632
2026-01-13 10:33:04.46	326.83	29.46	-43.4	-49.2	8.7	3.72e-02	0	59	0	966787072	57	7375
2026-01-13 10:33:05.47	326.95	29.29	-43.4	-49.0	8.9	2.85e-02	0	59	0	968884224	57	7241
2026-01-13 10:33:06.48	327.08	29.11	-43.2	-48.6	9.3	2.22e-02	0	59	0	970981376	57	6898
2026-01-13 10:33:07.49	327.21	28.94	-43.2	-48.5	9.4	1.84e-02	0	59	0	973078528	57	6815
2026-01-13 10:33:08.50	327.33	28.77	-43.2	-48.5	9.4	1.80e-02	0	59	0	975175680	57	6863
2026-01-13 10:33:09.51	327.46	28.60	-43.2	-48.5	9.3	1.71e-02	0	59	0	977272832	57	6854
2026-01-13 10:33:10.52	327.58	28.43	-43.2	-48.6	9.2	2.00e-02	0	59	0	978321408	57	6932
2026-01-13 10:33:11.53	327.70	28.26	-43.3	-48.7	9.2	1.99e-02	0	59	0	980418560	57	6994
2026-01-13 10:33:12.54	327.82	28.09	-43.3	-48.9	9.0	2.06e-02	0	59	0	982515712	57	7143
2026-01-13 10:33:13.55	327.94	27.93	-43.3	-49.0	8.8	2.52e-02	0	59	0	984612864	57	7242
2026-01-13 10:33:14.56	328.06	27.76	-43.2	-48.7	9.1	2.20e-02	0	59	0	986710016	57	7032
2026-01-13 10:33:15.57	328.17	27.59	-43.3	-48.9	9.0	2.69e-02	0	59	0	987758592	57	7144
2026-01-13 10:33:16.58	328.29	27.43	-43.2	-48.7	9.2	2.74e-02	0	59	0	989855744	57	6984
2026-01-13 10:33:17.59	328.40	27.27	-43.2	-48.6	9.2	1.90e-02	0	59	0	991952896	57	6923
2026-01-13 10:33:18.60	328.52	27.11	-43.3	-48.7	9.0	2.35e-02	0	59	0	994050048	57	7040
2026-01-13 10:33:19.61	328.63	26.94	-43.2	-48.8	9.1	2.07e-02	0	59	0	996147200	57	7047
2026-01-13 10:33:20.62	328.74	26.78	-43.3	-48.9	9.0	2.38e-02	0	59	0	997195776	57	7133
2026-01-13 10:33:21.63	328.85	26.62	-43.2	-48.8	9.0	2.48e-02	0	59	0	999292928	57	7053
2026-01-13 10:33:22.64	328.96	26.46	-43.2	-48.6	9.2	2.01e-02	0	59	0	1001390080	57	6894
2026-01-13 10:33:23.65	329.07	26.31	-43.2	-48.5	9.3	1.75e-02	0	59	0	1003487232	57	6847
2026-01-13 10:33:24.66	329.17	26.15	-43.1	-48.3	9.6	1.55e-02	0	59	0	1005584384	57	6658
2026-01-13 10:33:25.67	329.28	25.99	-42.9	-47.9	10.0	1.11e-02	0	59	0	1006632960	57	6359
2026-01-13 10:33:26.67	329.38	25.84	-42.9	-47.7	10.1	8.46e-03	0	59	0	1008730112	57	6258
2026-01-13 10:33:27.68	329.49	25.68	-42.8	-47.6	10.2	6.26e-03	0	59	0	1010827264	57	6161
2026-01-13 10:33:28.69	329.59	25.53	-42.6	-47.2	10.7	3.59e-03	0	59	0	1012924416	57	5866
2026-01-13 10:33:29.70	329.69	25.38	-42.6	-47.1	10.8	2.72e-03	0	59	0	1015021568	57	5791
2026-01-13 10:33:30.71	329.79	25.22	-42.5	-47.0	10.9	2.36e-03	0	59	0	1016070144	57	5739
2026-01-13 10:33:31.72	329.89	25.07	-42.5	-46.9	11.0	1.94e-03	0	59	0	1018167296	56	6030
2026-01-13 10:33:32.73	329.99	24.92	-42.5	-46.9	10.9	1.91e-03	0	59	0	1020264448	56	6047
2026-01-13 10:33:33.74	330.09	24.77	-42.6	-47.1	10.8	2.64e-03	0	59	0	1022361600	56	6139
2026-01-13 10:33:34.75	330.19	24.62	-42.6	-47.1	10.8	2.63e-03	0	59	0	1024458752	56	6143
2026-01-13 10:33:35.76	330.28	24.47	-42.6	-47.2	10.6	3.13e-03	0	59	0	1025507328	56	6252
2026-01-13 10:33:36.77	330.38	24.32	-42.7	-47.4	10.4	3.92e-03	0	59	0	1027604480	56	6384
2026-01-13 10:33:37.78	330.47	24.18	-42.8	-47.7	10.1	5.82e-03	0	59	0	1029701632	56	6586
2026-01-13 10:33:38.79	330.57	24.03	-42.8	-47.7	10.0	7.02e-03	0	59	0	1031798784	56	6624
2026-01-13 10:33:39.80	330.66	23.88	-42.9	-47.9	9.8	8.11e-03	0	59	0	1033895936	56	6749
2026-01-13 10:33:40.81	330.75	23.74	-42.9	-48.0	9.7	1.03e-02	0	59	0	1034944512	56	6865
2026-01-13 10:33:41.82	330.84	23.60	-42.9	-47.9	9.8	1.13e-02	0	59	0	1037041664	56	6785
2026-01-13 10:33:42.83	330.93	23.45	-42.9	-47.9	9.8	1.02e-02	0	59	0	1039138816	56	6765
2026-01-13 10:33:43.84	331.02	23.31	-42.8	-47.8	9.9	9.09e-03	0	59	0	1041235968	56	6702
2026-01-13 10:33:44.85	331.11	23.17	-42.7	-47.6	10.1	7.42e-03	0	59	0	1043333120	56	6539
2026-01-13 10:33:45.86	331.20	23.03	-42.7	-47.4	10.3	6.17e-03	0	59	0	1045430272	56	6373
2026-01-13 10:33:46.87	331.29	22.89	-42.6	-47.2	10.6	4.17e-03	0	59	0	1046478848	56	6230
2026-01-13 10:33:47.88	331.37	22.75	-42.5	-47.0	10.7	2.86e-03	0	59	0	1048576000	56	6096
2026-01-13 10:33:48.89	331.46	22.61	-42.4	-46.8	11.0	2.49e-03	0	59	0	1050673152	56	5933
2026-01-13 10:33:49.90	331.55	22.47	-42.3	-46.6	11.1	1.61e-03	0	59	0	1052770304	56	5827
2026-01-13 10:33:50.91	331.63	22.33	-42.3	-46.5	11.2	1.28e-03	0	59	0	1054867456	56	5739
2026-01-13 10:33:51.91	331.71	22.20	-42.2	-46.5	11.3	1.07e-03	0	59	0	1055916032	56	5727
2026-01-13 10:33:52.92	331.80	22.06	-42.2	-46.5	11.2	1.28e-03	0	59	0	1058013184	56	5744
2026-01-13 10:33:53.93	331.88	21.92	-42.3	-46.5	11.2	1.41e-03	0	59	0	1060110336	56	5785
2026-01-13 10:33:54.94	331.96	21.79	-42.2	-46.5	11.2	1.33e-03	0	59	0	1062207488	56	5774
2026-01-13 10:33:55.95	332.04	21.65	-42.2	-46.6	11.1	1.45e-03	0	58	0	1064304640	56	5794
2026-01-13 10:33:56.96	332.12	21.52	-42.2	-46.5	11.1	1.54e-03	0	59	0	1065353216	56	5781
2026-01-13 10:33:57.97	332.20	21.39	-42.3	-46.7	11.0	1.76e-03	0	59	0	1067450368	56	5860
2026-01-13 10:33:58.98	332.28	21.26	-42.3	-46.7	10.9	2.09e-03	0	59	0	1069547520	56	5888
2026-01-13 10:33:59.99	332.36	21.12	-42.3	-46.7	10.9	1.93e-03	0	59	0	1071644672	56	5876
2026-01-13 10:34:01.00	332.44	20.99	-42.3	-46.8	10.8	2.55e-03	0	59	0	1073741824	56	5961
2026-01-13 10:34:02.01	332.51	20.86	-42.3	-46.8	10.8	2.64e-03	0	59	0	1074790400	56	5992
2026-01-13 10:34:03.02	332.59	20.73	-42.3	-46.7	10.9	2.31e-03	0	59	0	1076887552	56	5920
2026-01-13 10:34:04.03	332.67	20.60	-42.2	-46.7	10.9	2.26e-03	0	59	0	1078984704	56	5875
2026-01-13 10:34:05.04	332.74	20.47	-42.2	-46.6	11.0	1.99e-03	0	58	0	1081081856	56	5836
2026-01-13 10:34:06.05	332.82	20.35	-42.2	-46.6	11.0	2.04e-03	0	59	0	1083179008	56	5814
2026-01-13 10:34:07.06	332.89	20.22	-42.1	-46.5	11.1	1.77e-03	0	59	0	1084227584	56	5734
2026-01-13 10:34:08.07	332.97	20.09	-42.1	-46.4	11.1	1.54e-03	0	59	0	1086324736	56	5702
2026-01-13 10:34:09.08	333.04	19.97	-42.1	-46.3	11.2	1.37e-03	0	59	0	1088421888	56	5656
2026-01-13 10:34:10.09	333.11	19.84	-42.0	-46.2	11.3	1.26e-03	0	59	0	1090519040	56	5575
2026-01-13 10:34:11.10	333.18	19.72	-42.0	-46.1	11.4	9.48e-04	0	59	0	1092616192	56	5517
2026-01-13 10:34:12.11	333.25	19.59	-41.7	-45.8	11.6	8.49e-04	0	59	0	1093664768	55	5630
2026-01-13 10:34:13.12	333.33	19.47	-41.8	-45.9	11.5	8.65e-04	0	59	0	1095761920	55	5693
2026-01-13 10:34:14.12	333.39	19.35	-41.8	-45.9	11.5	8.62e-04	0	59	0	1097859072	55	5669
2026-01-13 10:34:15.13	333.46	19.22	-41.7	-45.7	11.6	7.39e-04	0	59	0	1099956224	55	5591
2026-01-13 10:34:16.14	333.53	19.10	-41.7	-45.7	11.7	6.30e-04	0	59	0	1102053376	55	5533
2026-01-13 10:34:17.15	333.60	18.98	-41.7	-45.6	11.7	6.62e-04	0	58	0	1103101952	55	5525
2026-01-13 10:34:18.16	333.67	18.86	-41.7	-45.8	11.5	7.05e-04	0	59	0	1105199104	55	5625
2026-01-13 10:34:19.17	333.74	18.74	-41.7	-45.8	11.5	7.05e-04	0	58	0	1107296256	55	5594
2026-01-13 10:34:20.18	333.81	18.62	-41.7	-45.8	11.5	8.16e-04	0	59	0	1109393408	55	5607
2026-01-13 10:34:21.19	333.87	18.50	-41.7	-45.8	11.5	8.73e-04	0	59	0	1111490560	55	5606
2026-01-13 10:34:22.20	333.94	18.38	-41.7	-45.8	11.5	7.65e-04	0	59	0	1113587712	55	5619
2026-01-13 10:34:23.20	334.00	18.26	-41.7	-45.8	11.4	9.31e-04	0	59	0	1114636288	55	5642
2026-01-13 10:34:24.22	334.07	18.14	-41.7	-45.9	11.3	1.08e-03	0	58	0	1116733440	55	5680
2026-01-13 10:34:25.22	334.13	18.03	-41.7	-45.9	11.3	1.21e-03	0	59	0	1118830592	55	5667
2026-01-13 10:34:26.23	334.20	17.91	-41.8	-46.0	11.2	1.33e-03	0	59	0	1120927744	55	5785
2026-01-13 10:34:27.25	334.26	17.79	-41.8	-46.1	11.1	1.47e-03	0	59	0	1123024896	55	5813
2026-01-13 10:34:28.25	334.33	17.68	-41.9	-46.2	10.9	1.90e-03	0	59	0	1124073472	55	5922
2026-01-13 10:34:29.26	334.39	17.56	-41.9	-46.3	10.8	2.56e-03	0	59	0	1126170624	55	5980
2026-01-13 10:34:30.27	334.45	17.45	-41.8	-46.2	10.9	2.18e-03	0	59	0	1128267776	55	5906
2026-01-13 10:34:31.28	334.51	17.34	-41.9	-46.4	10.7	2.66e-03	0	59	0	1130364928	55	6030
2026-01-13 10:34:32.29	334.58	17.22	-41.9	-46.5	10.6	3.64e-03	0	59	0	1132462080	55	6122
2026-01-13 10:34:33.30	334.64	17.11	-41.9	-46.6	10.5	4.05e-03	0	59	0	1133510656	55	6138
2026-01-13 10:34:34.31	334.70	17.00	-41.9	-46.6	10.5	3.85e-03	0	59	0	1135607808	55	6139
2026-01-13 10:34:35.32	334.76	16.88	-41.9	-46.5	10.5	3.83e-03	0	59	0	1137704960	55	6123
2026-01-13 10:34:36.33	334.82	16.77	-41.9	-46.4	10.7	3.19e-03	0	59	0	1139802112	55	6043
2026-01-13 10:34:37.34	334.88	16.66	-41.9	-46.6	10.4	3.94e-03	0	59	0	1141899264	55	6167
2026-01-13 10:34:38.35	334.94	16.55	-41.9	-46.7	10.4	4.27e-03	0	59	0	1142947840	55	6203
2026-01-13 10:34:39.36	335.00	16.44	-41.9	-46.6	10.4	4.57e-03	0	58	0	1145044992	55	6193
2026-01-13 10:34:40.37	335.06	16.33	-41.9	-46.5	10.5	4.79e-03	0	58	0	1147142144	55	6088
2026-01-13 10:34:41.38	335.11	16.22	-41.8	-46.4	10.6	3.51e-03	0	58	0	1149239296	55	6006
2026-01-13 10:34:42.38	335.17	16.11	-41.8	-46.3	10.7	2.99e-03	0	59	0	1151336448	55	5946
2026-01-13 10:34:43.40	335.23	16.01	-41.8	-46.4	10.6	3.17e-03	0	59	0	1152385024	55	6011
2026-01-13 10:34:44.41	335.28	15.90	-41.8	-46.4	10.6	3.70e-03	0	59	0	1154482176	55	6003
2026-01-13 10:34:45.41	335.34	15.79	-41.8	-46.3	10.6	3.92e-03	0	59	0	1156579328	55	5967
2026-01-13 10:34:46.42	335.40	15.68	-41.7	-46.2	10.7	2.91e-03	0	59	0	1158676480	55	5859
2026-01-13 10:34:47.43	335.45	15.58	-41.6	-46.0	10.9	2.49e-03	0	59	0	1160773632	55	5731
2026-01-13 10:34:48.44	335.51	15.47	-41.6	-45.9	10.9	2.04e-03	0	59	0	1161822208	55	5706
2026-01-13 10:34:49.45	335.56	15.37	-41.5	-45.9	11.0	1.90e-03	0	59	0	1163919360	55	5668
2026-01-13 10:34:50.46	335.62	15.26	-41.6	-46.0	10.8	2.13e-03	0	58	0	1166016512	55	5759
2026-01-13 10:34:51.47	335.67	15.16	-41.5	-46.0	10.8	2.48e-03	0	59	0	1168113664	55	5750
2026-01-13 10:34:52.48	335.73	15.05	-41.6	-46.1	10.7	2.88e-03	0	59	0	1170210816	55	5823
2026-01-13 10:34:53.49	335.78	14.95	-41.6	-46.2	10.6	2.86e-03	0	59	0	1171259392	55	5867
2026-01-13 10:34:54.50	335.83	14.84	-41.6	-46.2	10.6	3.25e-03	0	59	0	1173356544	55	5882
2026-01-13 10:34:55.51	335.89	14.74	-41.6	-46.1	10.6	3.87e-03	0	58	0	1175453696	55	5821
2026-01-13 10:34:56.52	335.94	14.64	-41.6	-46.2	10.6	3.61e-03	0	59	0	1177550848	55	5864
