passes_logs/2026/01/13/R2.0S_Moscow/R2.0S_Moscow__20260113_012251_NOAA_21_JPSS-2_rec.log

#Pass ID: 20260113_012251_NOAA 21 (JPSS-2)
#Satellite: NOAA 21 (JPSS-2)
#Configuration: NOAA-21
#almurnet v.1.7.20251203
#Start time: 2026-01-13 01:25:46

#Version: 2.2.20231116
#Station: R2.0S_Moscow
#Location: 37.707566 lon 55.798166 lat
#TLE: 1 54234U 22150A   26012.26378519  .00000063  00000+0  50547-4 0  9993
#TLE: 2 54234  98.7495 313.1967 0000726 309.1075  51.0036 14.19534275164425

#Time	Az	El	Level	Level2	SNR	BER	BlckErr	Temp	State	Recorded	gain1	gain2
2026-01-13 01:25:46.95	352.91	12.93	-45.0	-56.5	3.8	8.47e-01	0	60	0	0	61	13631
2026-01-13 01:25:47.95	352.77	12.99	-45.3	-57.5	3.8	1.49e+00	0	61	104	0	62	14432
2026-01-13 01:25:48.96	352.63	13.06	-45.3	-57.5	3.8	1.49e+00	0	60	104	0	62	14519
2026-01-13 01:25:49.97	352.48	13.13	-45.3	-57.5	3.8	1.49e+00	0	61	104	0	62	14505
2026-01-13 01:25:50.98	352.33	13.20	-45.3	-57.5	3.8	1.49e+00	0	61	104	0	62	14515
2026-01-13 01:25:51.99	352.19	13.27	-45.3	-57.5	3.8	1.49e+00	0	60	104	0	62	14515
2026-01-13 01:25:53.00	352.04	13.33	-45.2	-57.5	3.8	1.49e+00	0	61	104	0	62	14421
2026-01-13 01:25:54.01	351.89	13.40	-45.1	-57.4	3.8	1.49e+00	0	60	104	0	62	14296
2026-01-13 01:25:55.02	351.74	13.47	-45.0	-57.3	3.8	1.49e+00	0	60	104	0	62	14068
2026-01-13 01:25:56.03	351.59	13.54	-44.5	-56.9	3.8	1.49e+00	0	60	104	0	61	14277
2026-01-13 01:25:57.04	351.44	13.61	-41.6	-54.1	3.8	1.49e+00	0	61	104	0	55	14571
2026-01-13 01:25:58.05	351.29	13.67	-40.4	-53.2	3.8	1.49e+00	0	60	104	0	52	15731
2026-01-13 01:25:59.06	351.14	13.74	-40.4	-53.2	3.8	1.49e+00	0	60	104	0	52	15715
2026-01-13 01:26:00.07	350.99	13.81	-40.4	-53.2	3.8	1.49e+00	0	60	104	0	52	15676
2026-01-13 01:26:01.08	350.83	13.88	-40.3	-53.2	3.8	1.49e+00	0	60	104	0	52	15671
2026-01-13 01:26:02.09	350.68	13.95	-40.3	-53.2	3.8	1.49e+00	0	60	104	0	52	15671
2026-01-13 01:26:03.10	350.52	14.01	-40.3	-53.2	3.8	1.49e+00	0	60	104	0	52	15709
2026-01-13 01:26:04.11	350.37	14.08	-40.3	-53.2	3.8	1.49e+00	0	60	104	0	52	15683
2026-01-13 01:26:05.12	350.21	14.15	-40.3	-53.2	3.8	1.49e+00	0	60	104	0	52	15687
2026-01-13 01:26:06.13	350.06	14.22	-40.3	-53.2	3.8	1.49e+00	0	60	104	0	52	15670
2026-01-13 01:26:07.14	349.90	14.29	-40.3	-53.2	3.8	1.49e+00	0	60	104	0	52	15663
2026-01-13 01:26:08.15	349.74	14.35	-40.3	-53.2	3.8	1.49e+00	0	61	104	0	52	15597
2026-01-13 01:26:09.16	349.58	14.42	-40.3	-53.2	3.8	1.49e+00	0	61	104	0	52	15666
2026-01-13 01:26:10.17	349.42	14.49	-40.3	-53.2	3.8	1.49e+00	0	60	104	0	52	15654
2026-01-13 01:26:11.18	349.26	14.56	-40.3	-53.2	3.8	1.49e+00	0	61	104	0	52	15672
2026-01-13 01:26:12.19	349.10	14.62	-40.3	-53.2	3.8	1.49e+00	0	60	104	0	52	15631
2026-01-13 01:26:13.20	348.94	14.69	-40.3	-53.2	3.8	1.49e+00	0	61	104	0	52	15624
2026-01-13 01:26:14.21	348.77	14.76	-40.3	-53.2	3.8	1.49e+00	0	60	104	0	52	15684
2026-01-13 01:26:15.22	348.61	14.83	-40.3	-53.2	3.8	1.49e+00	0	60	104	0	52	15689
2026-01-13 01:26:16.23	348.44	14.89	-40.3	-53.2	3.8	1.49e+00	0	60	104	0	52	15665
2026-01-13 01:26:17.25	348.28	14.96	-40.3	-53.2	3.8	1.49e+00	0	61	104	0	52	15676
2026-01-13 01:26:18.25	348.11	15.03	-40.3	-53.2	3.8	1.49e+00	0	60	104	0	52	15669
2026-01-13 01:26:19.27	347.95	15.10	-40.3	-53.2	3.8	1.49e+00	0	60	104	0	52	15641
2026-01-13 01:26:20.28	347.78	15.16	-40.3	-53.2	3.8	1.49e+00	0	60	104	0	52	15657
2026-01-13 01:26:21.29	347.61	15.23	-40.3	-53.2	3.8	1.49e+00	0	61	104	0	52	15636
2026-01-13 01:26:22.30	347.44	15.30	-40.3	-53.2	3.8	1.49e+00	0	60	104	0	52	15637
2026-01-13 01:26:23.31	347.27	15.37	-40.3	-53.2	3.8	1.49e+00	0	60	104	0	52	15617
2026-01-13 01:26:24.32	347.10	15.43	-40.3	-53.2	3.8	1.49e+00	0	61	104	0	52	15625
2026-01-13 01:26:25.33	346.93	15.50	-40.3	-53.2	3.8	1.49e+00	0	60	104	0	52	15655
2026-01-13 01:26:26.34	346.76	15.57	-40.3	-53.2	3.8	1.49e+00	0	61	104	0	52	15659
2026-01-13 01:26:27.35	346.58	15.63	-40.3	-53.2	3.8	1.49e+00	0	60	104	0	52	15610
2026-01-13 01:26:28.36	346.41	15.70	-40.3	-53.2	3.8	1.49e+00	0	60	104	0	52	15675
2026-01-13 01:26:29.37	346.23	15.77	-40.3	-53.1	3.8	1.49e+00	0	60	104	0	52	15568
2026-01-13 01:26:30.38	346.06	15.83	-40.3	-53.2	3.8	1.49e+00	0	60	104	0	52	15626
2026-01-13 01:26:31.39	345.88	15.90	-40.3	-53.2	3.8	1.49e+00	0	60	104	0	52	15639
2026-01-13 01:26:32.40	345.71	15.97	-40.3	-53.2	3.8	1.49e+00	0	60	104	0	52	15684
2026-01-13 01:26:33.42	345.53	16.03	-40.3	-53.2	3.8	1.49e+00	0	61	104	0	52	15656
2026-01-13 01:26:34.43	345.35	16.10	-40.3	-53.2	3.8	1.49e+00	0	60	104	0	52	15643
2026-01-13 01:26:35.44	345.17	16.16	-40.3	-53.2	3.8	1.49e+00	0	60	104	0	52	15623
2026-01-13 01:26:36.45	344.99	16.23	-40.3	-53.2	3.8	1.49e+00	0	60	104	0	52	15622
2026-01-13 01:26:37.46	344.81	16.30	-40.3	-53.2	3.8	1.49e+00	0	60	104	0	52	15607
2026-01-13 01:26:38.47	344.63	16.36	-40.3	-53.2	3.8	1.49e+00	0	60	104	0	52	15616
2026-01-13 01:26:39.48	344.44	16.43	-40.3	-53.2	3.8	1.49e+00	0	60	104	0	52	15635
2026-01-13 01:26:40.49	344.26	16.49	-40.3	-53.2	3.8	1.49e+00	0	61	104	0	52	15636
2026-01-13 01:26:41.50	344.08	16.56	-40.2	-53.2	3.8	1.49e+00	0	60	104	0	52	15597
2026-01-13 01:26:42.51	343.89	16.62	-40.3	-53.3	3.8	1.49e+00	0	60	104	0	52	15763
2026-01-13 01:26:43.52	343.71	16.69	-40.1	-53.2	3.8	1.49e+00	0	61	104	0	52	15646
2026-01-13 01:26:44.53	343.52	16.75	-40.6	-53.2	3.8	1.49e+00	0	60	104	0	52	15702
2026-01-13 01:26:45.54	343.33	16.82	-40.3	-53.2	3.8	1.49e+00	0	60	104	0	52	15733
2026-01-13 01:26:46.55	343.14	16.88	-40.4	-53.3	3.8	1.49e+00	0	61	104	0	52	15763
2026-01-13 01:26:47.56	342.95	16.95	-40.4	-53.2	3.8	1.49e+00	0	60	104	0	52	15751
2026-01-13 01:26:48.57	342.76	17.01	-40.4	-53.3	3.8	1.49e+00	0	60	104	0	52	15831
2026-01-13 01:26:49.58	342.57	17.08	-40.6	-53.2	3.8	1.49e+00	0	60	104	0	52	15677
2026-01-13 01:26:50.59	342.38	17.14	-40.6	-53.2	3.8	1.49e+00	0	60	104	0	52	15675
2026-01-13 01:26:51.60	342.19	17.20	-40.5	-53.1	3.8	1.49e+00	0	60	104	0	52	15472
2026-01-13 01:26:52.61	342.00	17.27	-40.6	-53.2	3.8	1.49e+00	0	60	104	0	52	15729
2026-01-13 01:26:53.62	341.80	17.33	-40.5	-53.2	3.8	1.49e+00	0	60	104	0	52	15637
2026-01-13 01:26:54.63	341.61	17.39	-40.8	-53.3	3.8	1.49e+00	0	60	104	0	52	15908
2026-01-13 01:26:55.64	341.41	17.46	-40.6	-53.3	3.8	1.49e+00	0	61	104	0	52	15813
2026-01-13 01:26:56.65	341.21	17.52	-40.7	-53.3	3.8	1.49e+00	0	60	104	0	52	15929
2026-01-13 01:26:57.66	341.02	17.58	-40.5	-53.2	3.8	1.49e+00	0	61	104	0	52	15594
2026-01-13 01:26:58.67	340.82	17.64	-40.5	-53.1	3.8	1.49e+00	0	60	104	0	52	15556
2026-01-13 01:26:59.68	340.62	17.71	-40.8	-53.2	3.8	1.49e+00	0	60	104	0	52	15757
2026-01-13 01:27:00.69	340.42	17.77	-40.9	-53.3	3.8	1.49e+00	0	60	104	0	52	15919
2026-01-13 01:27:01.70	340.22	17.83	-41.3	-53.6	3.8	1.49e+00	0	61	104	0	53	15498
2026-01-13 01:27:02.71	340.02	17.89	-41.2	-53.6	3.8	1.49e+00	0	61	104	0	53	15458
2026-01-13 01:27:03.73	339.81	17.95	-41.9	-51.9	3.9	1.49e+00	0	60	104	0	54	12019
2026-01-13 01:27:04.74	339.61	18.02	-42.6	-54.5	3.8	1.48e+00	0	60	104	0	55	15251
2026-01-13 01:27:05.74	339.41	18.08	-42.6	-52.7	3.9	1.10e+00	0	60	104	0	55	12412
2026-01-13 01:27:06.76	339.20	18.14	-42.3	-50.0	4.9	1.36e+00	0	60	104	0	56	8581
2026-01-13 01:27:07.77	339.00	18.20	-42.4	-49.8	5.1	6.41e-01	0	60	0	2097152	56	8442
2026-01-13 01:27:08.78	338.79	18.26	-42.2	-48.6	6.0	4.40e-01	0	60	0	5242880	56	7300
2026-01-13 01:27:09.78	338.58	18.32	-41.7	-47.2	6.9	2.06e-01	0	60	0	8388608	55	6645
2026-01-13 01:27:10.79	338.38	18.38	-41.3	-46.0	8.2	7.35e-02	0	60	0	11534336	54	6130
2026-01-13 01:27:11.80	338.17	18.44	-40.8	-44.8	9.5	2.04e-02	0	60	0	14680064	53	5641
2026-01-13 01:27:12.81	337.96	18.50	-40.6	-44.3	10.1	8.41e-03	0	60	0	17825792	53	5317
2026-01-13 01:27:13.82	337.75	18.56	-40.8	-44.5	10.0	7.94e-03	0	60	0	20971520	53	5426
2026-01-13 01:27:14.83	337.53	18.62	-41.3	-45.2	9.4	1.52e-02	0	60	0	24117248	53	5917
2026-01-13 01:27:15.84	337.32	18.67	-41.1	-44.8	9.9	1.37e-02	0	60	0	27262976	53	5610
2026-01-13 01:27:16.85	337.11	18.73	-40.5	-43.7	11.2	1.91e-03	0	60	0	30408704	53	4940
2026-01-13 01:27:17.86	336.89	18.79	-40.6	-43.6	11.2	1.35e-03	0	61	0	33554432	53	4919
2026-01-13 01:27:18.87	336.68	18.85	-40.5	-43.5	11.5	1.04e-03	0	60	0	36700160	52	5114
2026-01-13 01:27:19.88	336.46	18.91	-40.3	-43.1	11.8	4.77e-04	0	61	0	39845888	52	4926
2026-01-13 01:27:20.89	336.25	18.96	-40.4	-43.4	11.6	6.18e-04	0	60	0	42991616	52	5064
2026-01-13 01:27:21.90	336.03	19.02	-40.3	-43.1	11.9	6.11e-04	0	60	0	46137344	52	4912
2026-01-13 01:27:22.91	335.81	19.08	-40.3	-43.1	11.9	3.84e-04	0	61	0	49283072	52	4925
2026-01-13 01:27:23.92	335.59	19.13	-40.3	-43.2	11.9	4.36e-04	0	60	0	52428800	52	4956
2026-01-13 01:27:24.93	335.37	19.19	-40.3	-43.1	12.1	2.82e-04	0	60	0	55574528	52	4876
2026-01-13 01:27:25.94	335.15	19.24	-40.3	-43.1	12.0	3.69e-04	0	60	0	58720256	52	4900
2026-01-13 01:27:26.95	334.93	19.30	-40.2	-43.0	12.2	1.95e-04	0	60	0	62914560	52	4827
2026-01-13 01:27:27.97	334.71	19.36	-40.2	-42.9	12.4	1.71e-04	0	60	0	66060288	52	4775
2026-01-13 01:27:28.97	334.48	19.41	-40.3	-43.0	12.2	2.10e-04	0	60	0	68157440	52	4858
2026-01-13 01:27:29.98	334.26	19.46	-40.3	-43.0	12.2	1.92e-04	0	61	0	71303168	52	4859
2026-01-13 01:27:31.00	334.03	19.52	-40.2	-42.8	12.4	1.22e-04	0	61	0	74448896	52	4749
2026-01-13 01:27:32.01	333.81	19.57	-40.2	-42.8	12.5	1.04e-04	0	60	0	78643200	52	4711
2026-01-13 01:27:33.01	333.58	19.62	-40.2	-42.8	12.5	1.04e-04	0	61	0	81788928	52	4742
2026-01-13 01:27:34.03	333.35	19.68	-40.2	-42.8	12.6	1.04e-04	0	61	0	84934656	52	4725
2026-01-13 01:27:35.04	333.13	19.73	-40.2	-42.8	12.5	9.46e-05	0	61	0	88080384	52	4748
2026-01-13 01:27:36.05	332.90	19.78	-40.2	-42.9	12.5	1.04e-04	0	61	0	91226112	52	4763
2026-01-13 01:27:37.06	332.67	19.83	-40.2	-42.8	12.6	1.23e-04	0	60	0	94371840	52	4734
2026-01-13 01:27:38.07	332.44	19.89	-40.2	-42.8	12.6	9.61e-05	0	60	0	97517568	52	4745
2026-01-13 01:27:39.08	332.21	19.94	-40.2	-42.7	12.7	8.62e-05	0	60	0	100663296	52	4697
2026-01-13 01:27:40.09	331.98	19.99	-40.2	-42.7	12.7	7.85e-05	0	61	0	103809024	52	4705
2026-01-13 01:27:41.10	331.74	20.04	-40.1	-42.7	12.8	6.48e-05	0	60	0	106954752	52	4667
2026-01-13 01:27:42.11	331.51	20.09	-40.1	-42.6	12.8	5.95e-05	0	60	0	110100480	52	4636
2026-01-13 01:27:43.12	331.27	20.14	-40.1	-42.6	12.9	6.71e-05	0	61	0	113246208	52	4636
2026-01-13 01:27:44.13	331.04	20.19	-40.1	-42.6	12.8	5.49e-05	0	60	0	116391936	52	4623
2026-01-13 01:27:45.14	330.80	20.24	-40.1	-42.6	12.9	4.11e-05	0	60	0	119537664	52	4625
2026-01-13 01:27:46.16	330.57	20.28	-40.1	-42.6	12.9	5.26e-05	0	60	0	122683392	52	4602
2026-01-13 01:27:47.17	330.33	20.33	-40.1	-42.6	12.9	4.34e-05	0	60	0	125829120	52	4617
2026-01-13 01:27:48.18	330.09	20.38	-40.0	-42.5	13.0	3.89e-05	0	60	0	128974848	52	4556
2026-01-13 01:27:49.19	329.85	20.43	-40.0	-42.5	13.1	3.35e-05	0	60	0	132120576	51	4829
2026-01-13 01:27:50.20	329.61	20.47	-40.0	-42.4	13.2	2.89e-05	0	60	0	135266304	51	4775
2026-01-13 01:27:51.21	329.37	20.52	-40.0	-42.4	13.2	2.51e-05	0	60	0	138412032	51	4770
2026-01-13 01:27:52.22	329.13	20.56	-40.0	-42.4	13.1	2.51e-05	0	60	0	141557760	51	4805
2026-01-13 01:27:53.23	328.89	20.61	-40.1	-42.5	13.0	3.66e-05	0	60	0	144703488	51	4864
2026-01-13 01:27:54.23	328.65	20.65	-40.1	-42.6	13.0	3.50e-05	0	61	0	147849216	51	4883
2026-01-13 01:27:55.24	328.41	20.70	-40.1	-42.6	13.0	3.73e-05	0	61	0	150994944	51	4886
2026-01-13 01:27:56.25	328.16	20.74	-40.0	-42.5	13.1	2.36e-05	0	60	0	154140672	51	4817
2026-01-13 01:27:57.26	327.92	20.79	-40.0	-42.4	13.2	2.05e-05	0	60	0	157286400	51	4771
2026-01-13 01:27:58.27	327.67	20.83	-39.9	-42.3	13.3	2.59e-05	0	60	0	160432128	51	4746
2026-01-13 01:27:59.28	327.43	20.87	-39.9	-42.2	13.4	1.44e-05	0	60	0	163577856	51	4678
2026-01-13 01:28:00.29	327.18	20.91	-39.8	-42.1	13.5	1.60e-05	0	60	0	166723584	51	4648
2026-01-13 01:28:01.31	326.93	20.95	-39.7	-42.0	13.6	9.10e-06	0	60	0	169869312	51	4563
2026-01-13 01:28:02.31	326.68	20.99	-39.7	-42.0	13.6	4.50e-06	0	60	0	173015040	51	4560
2026-01-13 01:28:03.32	326.44	21.04	-39.7	-42.0	13.6	6.10e-06	0	60	0	176160768	51	4582
2026-01-13 01:28:04.34	326.18	21.08	-39.8	-42.0	13.6	6.10e-06	0	60	0	179306496	51	4592
2026-01-13 01:28:05.35	325.93	21.11	-39.7	-42.0	13.6	6.80e-06	0	61	0	182452224	51	4583
2026-01-13 01:28:06.36	325.68	21.15	-39.9	-42.2	13.4	1.37e-05	0	60	0	185597952	51	4683
2026-01-13 01:28:07.37	325.43	21.19	-39.9	-42.3	13.3	1.52e-05	0	60	0	188743680	51	4730
2026-01-13 01:28:08.38	325.18	21.23	-40.0	-42.3	13.3	1.75e-05	0	60	0	191889408	51	4756
2026-01-13 01:28:09.39	324.93	21.27	-40.0	-42.4	13.2	1.90e-05	0	60	0	195035136	51	4801
2026-01-13 01:28:10.39	324.68	21.30	-40.0	-42.5	13.2	1.75e-05	0	60	0	198180864	51	4818
2026-01-13 01:28:11.40	324.42	21.34	-40.0	-42.4	13.2	2.74e-05	0	60	0	201326592	51	4795
2026-01-13 01:28:12.41	324.17	21.38	-39.9	-42.2	13.4	1.29e-05	0	60	0	204472320	51	4691
2026-01-13 01:28:13.42	323.92	21.41	-39.9	-42.3	13.3	2.13e-05	0	60	0	207618048	51	4730
2026-01-13 01:28:14.43	323.66	21.44	-39.9	-42.3	13.3	2.51e-05	0	60	0	210763776	51	4743
2026-01-13 01:28:15.44	323.40	21.48	-40.0	-42.3	13.3	1.98e-05	0	60	0	213909504	51	4733
2026-01-13 01:28:16.45	323.15	21.51	-39.9	-42.2	13.4	1.83e-05	0	60	0	217055232	51	4696
2026-01-13 01:28:17.46	322.89	21.55	-40.0	-42.3	13.3	1.52e-05	0	60	0	220200960	51	4753
2026-01-13 01:28:18.47	322.63	21.58	-40.0	-42.4	13.3	1.75e-05	0	60	0	223346688	51	4774
2026-01-13 01:28:19.48	322.37	21.61	-40.0	-42.4	13.2	1.83e-05	0	61	0	226492416	51	4803
2026-01-13 01:28:20.49	322.12	21.64	-40.0	-42.4	13.2	2.67e-05	0	60	0	229638144	51	4792
2026-01-13 01:28:21.50	321.86	21.67	-40.0	-42.4	13.2	2.44e-05	0	60	0	232783872	51	4809
2026-01-13 01:28:22.51	321.60	21.70	-40.0	-42.5	13.2	2.51e-05	0	60	0	235929600	51	4817
2026-01-13 01:28:23.52	321.34	21.73	-40.0	-42.4	13.2	1.83e-05	0	60	0	239075328	51	4797
2026-01-13 01:28:24.53	321.08	21.76	-40.0	-42.3	13.3	1.75e-05	0	60	0	242221056	51	4752
2026-01-13 01:28:25.54	320.81	21.79	-40.0	-42.4	13.3	1.98e-05	0	60	0	245366784	51	4769
2026-01-13 01:28:26.55	320.55	21.81	-40.0	-42.3	13.3	1.52e-05	0	60	0	248512512	51	4749
2026-01-13 01:28:27.56	320.29	21.84	-39.9	-42.3	13.3	1.75e-05	0	60	0	251658240	51	4723
2026-01-13 01:28:28.57	320.03	21.87	-40.0	-42.3	13.3	1.75e-05	0	60	0	254803968	51	4758
2026-01-13 01:28:29.58	319.76	21.89	-40.0	-42.4	13.3	2.21e-05	0	60	0	257949696	51	4773
2026-01-13 01:28:30.59	319.50	21.92	-40.1	-42.5	13.1	2.51e-05	0	60	0	261095424	51	4839
2026-01-13 01:28:31.60	319.24	21.94	-40.2	-42.6	13.0	3.50e-05	0	60	0	264241152	51	4922
2026-01-13 01:28:32.61	318.97	21.97	-40.2	-42.7	12.9	4.95e-05	0	60	0	267386880	51	4957
2026-01-13 01:28:33.62	318.71	21.99	-40.2	-42.7	13.0	4.27e-05	0	60	0	270532608	51	4927
2026-01-13 01:28:34.63	318.44	22.01	-40.1	-42.6	13.1	2.97e-05	0	60	0	273678336	51	4880
2026-01-13 01:28:35.63	318.18	22.03	-40.1	-42.5	13.2	3.05e-05	0	60	0	276824064	51	4817
2026-01-13 01:28:36.64	317.91	22.06	-40.0	-42.4	13.3	2.13e-05	0	60	0	279969792	51	4764
2026-01-13 01:28:37.65	317.65	22.08	-40.0	-42.3	13.3	2.13e-05	0	61	0	283115520	51	4757
2026-01-13 01:28:38.66	317.38	22.10	-40.0	-42.4	13.3	1.52e-05	0	60	0	286261248	51	4764
2026-01-13 01:28:39.67	317.11	22.12	-40.0	-42.4	13.2	2.51e-05	0	60	0	289406976	51	4785
2026-01-13 01:28:40.68	316.85	22.13	-40.0	-42.4	13.2	3.20e-05	0	60	0	292552704	51	4799
2026-01-13 01:28:41.69	316.58	22.15	-40.0	-42.4	13.3	1.83e-05	0	61	0	295698432	51	4775
2026-01-13 01:28:42.70	316.31	22.17	-40.0	-42.3	13.3	1.52e-05	0	60	0	298844160	51	4758
2026-01-13 01:28:43.71	316.04	22.19	-39.9	-42.3	13.3	1.75e-05	0	60	0	301989888	51	4734
2026-01-13 01:28:44.72	315.77	22.20	-39.9	-42.3	13.4	1.44e-05	0	60	0	305135616	51	4730
2026-01-13 01:28:45.73	315.50	22.22	-40.0	-42.4	13.3	2.13e-05	0	60	0	308281344	51	4764
2026-01-13 01:28:46.74	315.23	22.23	-40.0	-42.4	13.2	1.83e-05	0	60	0	311427072	51	4793
2026-01-13 01:28:47.75	314.96	22.25	-40.0	-42.5	13.2	2.67e-05	0	60	0	314572800	51	4822
2026-01-13 01:28:48.76	314.70	22.26	-40.1	-42.6	13.1	4.04e-05	0	60	0	317718528	51	4876
2026-01-13 01:28:49.76	314.43	22.27	-40.1	-42.6	13.0	3.20e-05	0	60	0	320864256	51	4887
2026-01-13 01:28:50.77	314.16	22.28	-40.1	-42.5	13.1	3.05e-05	0	60	0	324009984	51	4868
2026-01-13 01:28:51.79	313.88	22.30	-40.1	-42.5	13.1	2.74e-05	0	60	0	327155712	51	4831
2026-01-13 01:28:52.80	313.61	22.31	-40.1	-42.5	13.1	2.74e-05	0	60	0	330301440	51	4822
2026-01-13 01:28:53.80	313.35	22.32	-40.1	-42.6	13.0	2.13e-05	0	60	0	333447168	51	4896
2026-01-13 01:28:54.81	313.08	22.33	-40.2	-42.6	13.0	3.73e-05	0	60	0	336592896	51	4906
2026-01-13 01:28:55.82	312.80	22.34	-40.1	-42.6	13.0	2.82e-05	0	60	0	339738624	51	4875
2026-01-13 01:28:56.83	312.53	22.34	-40.1	-42.5	13.1	3.66e-05	0	60	0	342884352	51	4825
2026-01-13 01:28:57.84	312.26	22.35	-40.0	-42.4	13.2	2.05e-05	0	60	0	346030080	51	4791
2026-01-13 01:28:58.86	311.99	22.36	-40.0	-42.4	13.2	2.59e-05	0	60	0	349175808	51	4796
2026-01-13 01:28:59.87	311.72	22.36	-39.9	-42.3	13.3	1.75e-05	0	60	0	352321536	51	4726
2026-01-13 01:29:00.87	311.45	22.37	-39.9	-42.2	13.4	1.22e-05	0	60	0	355467264	51	4681
2026-01-13 01:29:01.88	311.17	22.37	-39.8	-42.1	13.5	7.60e-06	0	60	0	358612992	51	4624
2026-01-13 01:29:02.89	310.90	22.38	-39.8	-42.1	13.5	5.30e-06	0	60	0	361758720	51	4623
2026-01-13 01:29:03.90	310.63	22.38	-39.8	-42.1	13.5	6.80e-06	0	60	0	364904448	51	4620
2026-01-13 01:29:04.91	310.36	22.38	-39.8	-42.1	13.5	8.30e-06	0	60	0	368050176	51	4645
2026-01-13 01:29:05.92	310.09	22.38	-39.9	-42.2	13.4	2.13e-05	0	60	0	371195904	51	4697
2026-01-13 01:29:06.93	309.81	22.39	-40.1	-42.4	13.2	2.89e-05	0	60	0	374341632	51	4813
2026-01-13 01:29:07.95	309.54	22.39	-40.1	-42.5	13.1	3.73e-05	0	60	0	377487360	51	4868
2026-01-13 01:29:08.96	309.27	22.39	-40.1	-42.6	13.0	3.05e-05	0	60	0	381681664	51	4890
2026-01-13 01:29:09.97	309.00	22.38	-40.2	-42.8	12.9	5.34e-05	0	60	0	383778816	51	4984
2026-01-13 01:29:10.98	308.72	22.38	-40.2	-42.7	12.9	6.10e-05	0	60	0	386924544	51	4960
2026-01-13 01:29:11.98	308.45	22.38	-40.2	-42.6	13.0	4.73e-05	0	60	0	390070272	51	4914
2026-01-13 01:29:12.99	308.18	22.38	-40.1	-42.5	13.1	2.82e-05	0	60	0	393216000	51	4846
2026-01-13 01:29:14.01	307.91	22.37	-39.9	-42.2	13.4	1.67e-05	0	60	0	397410304	51	4688
2026-01-13 01:29:15.02	307.64	22.37	-39.9	-42.3	13.4	1.60e-05	0	60	0	400556032	51	4711
2026-01-13 01:29:16.02	307.37	22.36	-40.0	-42.4	13.2	1.60e-05	0	60	0	403701760	51	4765
2026-01-13 01:29:17.03	307.09	22.36	-39.9	-42.2	13.4	9.10e-06	0	60	0	406847488	51	4676
2026-01-13 01:29:18.04	306.82	22.35	-39.8	-42.1	13.5	1.14e-05	0	60	0	408944640	51	4620
2026-01-13 01:29:19.05	306.55	22.35	-39.8	-42.1	13.5	4.50e-06	0	60	0	413138944	51	4638
2026-01-13 01:29:20.06	306.28	22.34	-40.0	-42.3	13.3	1.22e-05	0	60	0	416284672	51	4741
2026-01-13 01:29:21.07	306.01	22.33	-40.0	-42.3	13.3	1.67e-05	0	60	0	419430400	51	4757
2026-01-13 01:29:22.08	305.74	22.32	-40.0	-42.4	13.2	2.89e-05	0	60	0	422576128	51	4789
2026-01-13 01:29:23.09	305.47	22.31	-40.0	-42.3	13.3	2.36e-05	0	60	0	425721856	51	4759
2026-01-13 01:29:24.10	305.20	22.30	-40.0	-42.4	13.2	3.50e-05	0	60	0	428867584	51	4784
2026-01-13 01:29:25.11	304.92	22.29	-40.0	-42.4	13.3	1.98e-05	0	60	0	432013312	51	4774
2026-01-13 01:29:26.12	304.65	22.28	-39.9	-42.3	13.4	1.83e-05	0	60	0	435159040	51	4712
2026-01-13 01:29:27.13	304.38	22.26	-40.0	-42.4	13.2	2.44e-05	0	60	0	438304768	51	4766
2026-01-13 01:29:28.14	304.11	22.25	-40.1	-42.5	13.1	2.44e-05	0	60	0	441450496	51	4845
2026-01-13 01:29:29.15	303.84	22.24	-40.3	-42.8	12.8	4.11e-05	0	60	0	444596224	51	5006
2026-01-13 01:29:30.16	303.57	22.22	-40.3	-42.9	12.7	8.77e-05	0	60	0	447741952	51	5076
2026-01-13 01:29:31.17	303.31	22.21	-40.3	-42.9	12.7	7.32e-05	0	60	0	450887680	51	5051
2026-01-13 01:29:32.18	303.04	22.19	-40.3	-42.8	12.8	6.40e-05	0	60	0	454033408	51	5036
2026-01-13 01:29:33.19	302.77	22.17	-40.3	-42.8	12.9	6.79e-05	0	60	0	457179136	51	4992
2026-01-13 01:29:34.20	302.50	22.16	-40.2	-42.7	12.9	4.34e-05	0	60	0	460324864	51	4943
2026-01-13 01:29:35.21	302.23	22.14	-40.1	-42.5	13.1	2.44e-05	0	60	0	463470592	51	4859
2026-01-13 01:29:36.22	301.96	22.12	-40.1	-42.5	13.1	3.05e-05	0	60	0	466616320	51	4821
2026-01-13 01:29:37.23	301.70	22.10	-40.1	-42.5	13.1	2.89e-05	0	60	0	469762048	51	4828
2026-01-13 01:29:38.24	301.43	22.08	-40.1	-42.5	13.2	2.44e-05	0	60	0	472907776	51	4823
2026-01-13 01:29:39.25	301.16	22.06	-40.0	-42.3	13.3	1.67e-05	0	60	0	476053504	51	4755
2026-01-13 01:29:40.26	300.90	22.04	-39.8	-42.2	13.5	8.30e-06	0	60	0	479199232	51	4656
2026-01-13 01:29:41.26	300.63	22.02	-39.8	-42.1	13.5	8.30e-06	0	60	0	482344960	51	4618
2026-01-13 01:29:42.27	300.37	22.00	-39.9	-42.2	13.4	1.29e-05	0	60	0	485490688	51	4695
2026-01-13 01:29:43.28	300.10	21.97	-39.9	-42.3	13.3	1.37e-05	0	60	0	488636416	51	4728
2026-01-13 01:29:44.29	299.84	21.95	-40.0	-42.4	13.2	1.98e-05	0	60	0	491782144	51	4763
2026-01-13 01:29:45.30	299.57	21.92	-40.0	-42.4	13.2	2.36e-05	0	60	0	494927872	51	4800
2026-01-13 01:29:46.31	299.31	21.90	-40.2	-42.7	12.9	3.58e-05	0	60	0	498073600	51	4928
2026-01-13 01:29:47.32	299.04	21.87	-40.3	-42.9	12.7	6.33e-05	0	60	0	501219328	51	5051
2026-01-13 01:29:48.33	298.78	21.85	-40.3	-42.9	12.7	9.23e-05	0	60	0	504365056	51	5070
2026-01-13 01:29:49.34	298.52	21.82	-40.3	-42.8	12.8	6.79e-05	0	60	0	507510784	51	5015
2026-01-13 01:29:50.35	298.26	21.79	-40.2	-42.7	12.9	5.79e-05	0	60	0	510656512	51	4927
2026-01-13 01:29:51.36	297.99	21.77	-40.1	-42.5	13.1	2.67e-05	0	60	0	513802240	51	4828
2026-01-13 01:29:52.37	297.73	21.74	-40.0	-42.4	13.2	1.67e-05	0	60	0	516947968	51	4766
2026-01-13 01:29:53.38	297.47	21.71	-40.0	-42.4	13.3	1.98e-05	0	60	0	520093696	51	4767
2026-01-13 01:29:54.39	297.21	21.68	-40.0	-42.3	13.2	1.98e-05	0	60	0	523239424	51	4757
2026-01-13 01:29:55.40	296.95	21.65	-40.0	-42.3	13.3	2.36e-05	0	60	0	526385152	51	4740
2026-01-13 01:29:56.41	296.69	21.62	-39.9	-42.2	13.4	1.29e-05	0	60	0	529530880	51	4689
2026-01-13 01:29:57.42	296.43	21.58	-39.8	-42.1	13.5	8.30e-06	0	60	0	532676608	51	4625
2026-01-13 01:29:58.43	296.17	21.55	-39.8	-42.1	13.6	8.30e-06	0	60	0	535822336	51	4611
2026-01-13 01:29:59.43	295.92	21.52	-39.8	-42.1	13.5	1.52e-05	0	60	0	538968064	51	4643
2026-01-13 01:30:00.44	295.66	21.49	-39.9	-42.2	13.4	1.44e-05	0	60	0	542113792	51	4684
2026-01-13 01:30:01.46	295.40	21.45	-39.9	-42.3	13.3	1.44e-05	0	60	0	545259520	51	4732
2026-01-13 01:30:02.46	295.15	21.42	-40.0	-42.4	13.2	2.05e-05	0	60	0	548405248	51	4763
2026-01-13 01:30:03.48	294.89	21.38	-40.0	-42.4	13.2	2.21e-05	0	60	0	551550976	51	4810
2026-01-13 01:30:04.49	294.64	21.35	-40.1	-42.5	13.1	1.90e-05	0	60	0	554696704	51	4830
2026-01-13 01:30:05.50	294.38	21.31	-40.1	-42.5	13.1	2.28e-05	0	60	0	557842432	51	4857
2026-01-13 01:30:06.51	294.13	21.27	-40.1	-42.5	13.1	3.66e-05	0	60	0	560988160	51	4836
2026-01-13 01:30:07.52	293.87	21.24	-40.1	-42.5	13.1	2.28e-05	0	60	0	564133888	51	4842
2026-01-13 01:30:08.53	293.62	21.20	-40.1	-42.5	13.1	2.89e-05	0	60	0	567279616	51	4851
2026-01-13 01:30:09.54	293.37	21.16	-40.1	-42.5	13.0	2.67e-05	0	60	0	570425344	51	4861
2026-01-13 01:30:10.55	293.12	21.12	-40.1	-42.6	13.0	3.05e-05	0	60	0	573571072	51	4882
2026-01-13 01:30:11.56	292.87	21.08	-40.2	-42.6	12.9	4.19e-05	0	60	0	576716800	51	4922
2026-01-13 01:30:12.57	292.62	21.04	-40.2	-42.7	12.9	6.25e-05	0	60	0	579862528	51	4962
2026-01-13 01:30:13.58	292.37	21.00	-40.3	-42.8	12.8	6.17e-05	0	60	0	583008256	51	5000
2026-01-13 01:30:14.59	292.12	20.96	-40.2	-42.7	12.9	5.11e-05	0	60	0	586153984	51	4957
2026-01-13 01:30:15.60	291.87	20.92	-40.1	-42.6	13.0	4.50e-05	0	60	0	589299712	51	4895
2026-01-13 01:30:16.61	291.62	20.88	-40.1	-42.5	13.1	2.82e-05	0	60	0	592445440	51	4827
2026-01-13 01:30:17.62	291.38	20.84	-40.0	-42.4	13.2	2.44e-05	0	60	0	595591168	51	4765
2026-01-13 01:30:18.63	291.13	20.79	-40.0	-42.4	13.1	2.28e-05	0	60	0	598736896	51	4809
2026-01-13 01:30:19.64	290.89	20.75	-40.1	-42.5	13.1	3.43e-05	0	60	0	601882624	51	4827
2026-01-13 01:30:20.65	290.64	20.71	-40.1	-42.5	13.1	3.58e-05	0	60	0	605028352	51	4855
2026-01-13 01:30:21.66	290.40	20.66	-40.1	-42.6	13.0	4.04e-05	0	60	0	608174080	51	4872
2026-01-13 01:30:22.66	290.16	20.62	-40.1	-42.6	12.9	4.04e-05	0	60	0	611319808	51	4896
2026-01-13 01:30:23.68	289.91	20.57	-40.2	-42.7	12.8	5.34e-05	0	60	0	614465536	51	4959
2026-01-13 01:30:24.69	289.67	20.53	-40.3	-42.8	12.7	7.24e-05	0	60	0	617611264	51	5025
2026-01-13 01:30:25.70	289.43	20.48	-40.2	-42.7	12.8	7.85e-05	0	60	0	620756992	51	4979
2026-01-13 01:30:26.71	289.19	20.43	-40.2	-42.7	12.8	5.87e-05	0	60	0	623902720	51	4959
2026-01-13 01:30:27.72	288.95	20.39	-40.1	-42.6	12.9	3.81e-05	0	60	0	627048448	51	4913
2026-01-13 01:30:28.73	288.71	20.34	-40.1	-42.6	12.9	4.57e-05	0	60	0	630194176	51	4899
2026-01-13 01:30:29.74	288.47	20.29	-40.0	-42.5	13.1	3.43e-05	0	60	0	633339904	51	4818
2026-01-13 01:30:30.75	288.23	20.24	-39.9	-42.3	13.2	2.97e-05	0	60	0	636485632	51	4736
2026-01-13 01:30:31.76	288.00	20.19	-39.9	-42.3	13.2	1.98e-05	0	60	0	639631360	51	4732
2026-01-13 01:30:32.77	287.76	20.15	-40.0	-42.4	13.2	2.28e-05	0	60	0	642777088	51	4761
2026-01-13 01:30:33.78	287.53	20.10	-39.9	-42.3	13.2	2.28e-05	0	60	0	645922816	51	4739
2026-01-13 01:30:34.79	287.29	20.05	-39.8	-42.2	13.3	2.28e-05	0	60	0	649068544	51	4670
2026-01-13 01:30:35.80	287.06	20.00	-39.8	-42.1	13.4	1.60e-05	0	60	0	652214272	51	4619
2026-01-13 01:30:36.81	286.82	19.94	-39.7	-41.9	13.6	9.90e-06	0	60	0	655360000	51	4531
2026-01-13 01:30:37.82	286.59	19.89	-39.6	-41.9	13.7	5.30e-06	0	60	0	658505728	51	4505
2026-01-13 01:30:38.82	286.36	19.84	-39.6	-41.8	13.7	7.60e-06	0	60	0	661651456	51	4474
2026-01-13 01:30:39.83	286.13	19.79	-39.7	-41.9	13.6	5.30e-06	0	60	0	664797184	51	4522
2026-01-13 01:30:40.84	285.90	19.74	-39.7	-42.0	13.5	6.80e-06	0	60	0	667942912	51	4565
2026-01-13 01:30:41.85	285.67	19.69	-39.8	-42.1	13.4	8.30e-06	0	60	0	671088640	51	4631
2026-01-13 01:30:42.86	285.45	19.63	-39.9	-42.2	13.3	2.05e-05	0	60	0	674234368	51	4690
2026-01-13 01:30:43.87	285.22	19.58	-39.9	-42.4	13.1	2.36e-05	0	60	0	677380096	51	4765
2026-01-13 01:30:44.88	284.99	19.53	-40.1	-42.6	12.9	4.42e-05	0	60	0	680525824	51	4891
2026-01-13 01:30:45.89	284.77	19.47	-40.2	-42.8	12.7	6.86e-05	0	60	0	683671552	51	5018
2026-01-13 01:30:46.90	284.54	19.42	-40.3	-43.0	12.5	9.99e-05	0	60	0	686817280	51	5102
2026-01-13 01:30:47.91	284.32	19.36	-40.4	-43.0	12.4	1.28e-04	0	60	0	689963008	51	5140
2026-01-13 01:30:48.92	284.09	19.31	-40.5	-43.2	12.3	1.85e-04	0	60	0	693108736	51	5231
2026-01-13 01:30:49.93	283.87	19.25	-40.5	-43.2	12.2	1.82e-04	0	60	0	696254464	51	5244
2026-01-13 01:30:50.94	283.65	19.20	-40.5	-43.2	12.2	2.13e-04	0	60	0	699400192	51	5252
2026-01-13 01:30:51.95	283.43	19.14	-40.5	-43.2	12.3	1.88e-04	0	60	0	702545920	51	5221
2026-01-13 01:30:52.96	283.21	19.08	-40.5	-43.3	12.2	2.30e-04	0	60	0	705691648	51	5286
2026-01-13 01:30:53.97	282.99	19.03	-40.6	-43.3	12.1	2.37e-04	0	60	0	708837376	51	5322
2026-01-13 01:30:54.98	282.77	18.97	-40.5	-43.2	12.2	2.61e-04	0	60	0	711983104	51	5274
2026-01-13 01:30:56.00	282.55	18.91	-40.4	-43.0	12.4	1.40e-04	0	60	0	715128832	51	5134
2026-01-13 01:30:57.01	282.33	18.85	-40.2	-42.8	12.7	7.93e-05	0	60	0	719323136	51	5000
2026-01-13 01:30:58.01	282.12	18.80	-40.2	-42.8	12.7	7.93e-05	0	60	0	722468864	51	4986
2026-01-13 01:30:59.02	281.90	18.74	-40.2	-42.8	12.7	7.62e-05	0	60	0	724566016	51	4993
2026-01-13 01:31:00.03	281.69	18.68	-40.3	-42.9	12.5	9.46e-05	0	60	0	727711744	51	5060
2026-01-13 01:31:01.04	281.48	18.62	-40.4	-43.1	12.3	1.40e-04	0	60	0	730857472	51	5176
2026-01-13 01:31:02.05	281.26	18.56	-40.5	-43.2	12.2	2.39e-04	0	60	0	735051776	51	5277
2026-01-13 01:31:03.06	281.05	18.50	-40.5	-43.2	12.2	2.68e-04	0	60	0	738197504	51	5275
2026-01-13 01:31:04.07	280.84	18.44	-40.4	-43.1	12.3	2.50e-04	0	60	0	741343232	51	5203
2026-01-13 01:31:05.08	280.63	18.38	-40.4	-43.1	12.2	2.28e-04	0	60	0	744488960	51	5216
2026-01-13 01:31:06.09	280.42	18.32	-40.3	-42.9	12.5	1.33e-04	0	60	0	746586112	51	5069
2026-01-13 01:31:07.11	280.21	18.26	-40.4	-43.0	12.4	1.55e-04	0	60	0	750780416	51	5138
2026-01-13 01:31:08.12	280.00	18.20	-40.2	-42.8	12.6	1.20e-04	0	60	0	753926144	51	5015
2026-01-13 01:31:09.13	279.80	18.14	-40.2	-42.7	12.7	1.05e-04	0	60	0	757071872	51	4969
2026-01-13 01:31:10.14	279.59	18.08	-40.1	-42.6	12.8	7.17e-05	0	60	0	760217600	51	4874
2026-01-13 01:31:11.15	279.38	18.02	-40.1	-42.6	12.8	7.24e-05	0	60	0	763363328	51	4885
2026-01-13 01:31:12.16	279.18	17.96	-40.0	-42.5	12.9	4.95e-05	0	60	0	766509056	51	4844
2026-01-13 01:31:13.16	278.98	17.90	-40.1	-42.6	12.7	6.33e-05	0	60	0	769654784	51	4918
2026-01-13 01:31:14.17	278.78	17.84	-40.1	-42.6	12.8	6.63e-05	0	60	0	772800512	51	4881
2026-01-13 01:31:15.19	278.57	17.77	-40.2	-42.8	12.6	8.62e-05	0	60	0	775946240	51	5023
2026-01-13 01:31:16.19	278.37	17.71	-40.1	-42.7	12.7	8.62e-05	0	60	0	779091968	51	4941
2026-01-13 01:31:17.20	278.17	17.65	-40.1	-42.6	12.7	8.85e-05	0	60	0	782237696	51	4922
2026-01-13 01:31:18.21	277.97	17.59	-40.1	-42.7	12.7	8.16e-05	0	60	0	785383424	51	4943
2026-01-13 01:31:19.22	277.77	17.52	-40.2	-42.8	12.6	9.61e-05	0	60	0	788529152	51	4994
2026-01-13 01:31:20.23	277.58	17.46	-40.2	-42.7	12.7	8.54e-05	0	60	0	791674880	51	4961
2026-01-13 01:31:21.24	277.38	17.40	-40.1	-42.6	12.7	5.72e-05	0	60	0	794820608	51	4901
2026-01-13 01:31:22.25	277.18	17.33	-40.2	-42.7	12.6	7.32e-05	0	60	0	797966336	51	4954
2026-01-13 01:31:23.26	276.99	17.27	-40.3	-42.9	12.5	8.23e-05	0	60	0	801112064	51	5048
2026-01-13 01:31:24.27	276.79	17.21	-40.3	-43.0	12.3	1.50e-04	0	60	0	804257792	51	5138
2026-01-13 01:31:25.28	276.60	17.14	-40.4	-43.1	12.2	2.01e-04	0	60	0	807403520	51	5194
2026-01-13 01:31:26.29	276.41	17.08	-40.5	-43.3	12.0	2.64e-04	0	60	0	810549248	51	5309
2026-01-13 01:31:27.30	276.22	17.01	-40.5	-43.2	12.1	2.94e-04	0	60	0	813694976	51	5250
2026-01-13 01:31:28.31	276.02	16.95	-40.3	-43.0	12.3	1.68e-04	0	60	0	816840704	51	5138
2026-01-13 01:31:29.32	275.83	16.88	-40.4	-43.0	12.3	1.87e-04	0	60	0	819986432	51	5149
2026-01-13 01:31:30.33	275.64	16.82	-40.4	-43.0	12.3	2.01e-04	0	60	0	823132160	51	5151
2026-01-13 01:31:31.35	275.45	16.75	-40.3	-42.9	12.4	1.27e-04	0	60	0	826277888	51	5058
2026-01-13 01:31:32.36	275.27	16.69	-40.2	-42.8	12.5	1.26e-04	0	60	0	829423616	51	5033
2026-01-13 01:31:33.36	275.08	16.62	-40.2	-42.8	12.5	1.46e-04	0	60	0	832569344	51	5032
2026-01-13 01:31:34.37	274.90	16.56	-40.2	-42.8	12.6	1.14e-04	0	60	0	835715072	51	4993
2026-01-13 01:31:35.38	274.71	16.49	-40.2	-42.9	12.4	1.40e-04	0	60	0	838860800	51	5051
2026-01-13 01:31:36.39	274.53	16.43	-40.4	-43.0	12.3	1.81e-04	0	60	0	842006528	51	5157
2026-01-13 01:31:37.40	274.34	16.36	-40.5	-43.2	12.1	2.76e-04	0	60	0	845152256	51	5270
2026-01-13 01:31:38.41	274.16	16.30	-40.6	-43.4	11.9	4.57e-04	0	60	0	848297984	51	5382
2026-01-13 01:31:39.42	273.98	16.23	-40.6	-43.5	11.8	5.23e-04	0	60	0	851443712	51	5423
2026-01-13 01:31:40.43	273.79	16.16	-40.7	-43.6	11.7	6.00e-04	0	60	0	854589440	51	5482
2026-01-13 01:31:41.44	273.61	16.10	-40.6	-43.6	11.6	6.31e-04	0	60	0	857735168	52	5167
2026-01-13 01:31:42.45	273.43	16.03	-40.6	-43.6	11.6	6.93e-04	0	60	0	860880896	52	5180
2026-01-13 01:31:43.46	273.26	15.96	-40.7	-43.7	11.5	8.46e-04	0	60	0	864026624	52	5246
2026-01-13 01:31:44.47	273.08	15.90	-40.7	-43.6	11.6	7.54e-04	0	60	0	867172352	52	5203
2026-01-13 01:31:45.48	272.90	15.83	-40.5	-43.4	11.8	6.04e-04	0	60	0	870318080	52	5065
2026-01-13 01:31:46.49	272.72	15.76	-40.4	-43.2	12.0	3.22e-04	0	60	0	873463808	52	4930
2026-01-13 01:31:47.51	272.55	15.70	-40.3	-43.0	12.2	2.30e-04	0	60	0	876609536	52	4819
2026-01-13 01:31:48.52	272.37	15.63	-40.2	-42.8	12.3	1.81e-04	0	60	0	879755264	52	4740
2026-01-13 01:31:49.53	272.20	15.56	-40.2	-42.8	12.3	1.76e-04	0	60	0	882900992	52	4739
2026-01-13 01:31:50.54	272.02	15.50	-40.2	-42.8	12.3	1.74e-04	0	60	0	886046720	52	4742
2026-01-13 01:31:51.55	271.85	15.43	-40.2	-42.9	12.3	1.58e-04	0	60	0	889192448	52	4784
2026-01-13 01:31:52.56	271.68	15.36	-40.1	-42.7	12.4	1.37e-04	0	61	0	892338176	52	4684
2026-01-13 01:31:53.57	271.51	15.29	-40.0	-42.6	12.5	9.84e-05	0	60	0	895483904	52	4638
2026-01-13 01:31:54.58	271.34	15.23	-40.1	-42.7	12.4	1.38e-04	0	60	0	898629632	52	4676
2026-01-13 01:31:55.59	271.17	15.16	-40.2	-42.8	12.3	1.53e-04	0	60	0	901775360	52	4745
2026-01-13 01:31:56.60	271.00	15.09	-40.2	-42.8	12.3	1.52e-04	0	60	0	904921088	52	4751
2026-01-13 01:31:57.61	270.83	15.03	-40.3	-43.0	12.2	2.21e-04	0	60	0	908066816	52	4817
2026-01-13 01:31:58.62	270.66	14.96	-40.4	-43.2	12.0	3.14e-04	0	60	0	911212544	52	4943
2026-01-13 01:31:59.63	270.50	14.89	-40.5	-43.4	11.7	5.06e-04	0	60	0	914358272	52	5075
2026-01-13 01:32:00.64	270.33	14.82	-40.6	-43.6	11.6	7.60e-04	0	60	0	917504000	52	5170
2026-01-13 01:32:01.65	270.17	14.75	-40.7	-43.7	11.4	8.97e-04	0	60	0	920649728	52	5233
2026-01-13 01:32:02.66	270.00	14.69	-40.7	-43.7	11.4	1.02e-03	0	60	0	923795456	52	5250
2026-01-13 01:32:03.67	269.84	14.62	-40.6	-43.5	11.6	8.38e-04	0	60	0	926941184	52	5154
2026-01-13 01:32:04.68	269.68	14.55	-40.5	-43.4	11.7	6.38e-04	0	60	0	930086912	52	5057
2026-01-13 01:32:05.69	269.52	14.48	-40.5	-43.3	11.8	5.12e-04	0	60	0	933232640	52	5011
2026-01-13 01:32:06.70	269.35	14.41	-40.3	-43.1	12.0	4.34e-04	0	60	0	936378368	52	4910
2026-01-13 01:32:07.71	269.19	14.35	-40.1	-42.8	12.3	2.03e-04	0	60	0	939524096	52	4743
2026-01-13 01:32:08.72	269.03	14.28	-40.1	-42.8	12.3	1.76e-04	0	60	0	942669824	52	4734
2026-01-13 01:32:09.73	268.88	14.21	-40.2	-42.9	12.2	2.11e-04	0	60	0	945815552	52	4790
2026-01-13 01:32:10.74	268.72	14.14	-40.3	-43.1	12.0	2.75e-04	0	60	0	948961280	52	4877
2026-01-13 01:32:11.75	268.56	14.07	-40.5	-43.4	11.7	4.24e-04	0	60	0	952107008	52	5047
2026-01-13 01:32:12.76	268.40	14.01	-40.6	-43.6	11.5	6.87e-04	0	60	0	955252736	52	5195
2026-01-13 01:32:13.77	268.25	13.94	-40.8	-43.8	11.3	1.13e-03	0	60	0	958398464	52	5321
2026-01-13 01:32:14.78	268.09	13.87	-40.8	-43.9	11.2	1.40e-03	0	60	0	961544192	52	5365
2026-01-13 01:32:15.79	267.94	13.80	-40.8	-44.0	11.1	1.64e-03	0	60	0	964689920	52	5408
2026-01-13 01:32:16.80	267.78	13.73	-40.9	-44.0	11.0	1.79e-03	0	60	0	967835648	52	5457
2026-01-13 01:32:17.81	267.63	13.67	-40.8	-44.0	11.1	1.78e-03	0	60	0	970981376	52	5414
2026-01-13 01:32:18.82	267.48	13.60	-40.8	-43.9	11.2	1.54e-03	0	61	0	974127104	52	5350
2026-01-13 01:32:19.82	267.33	13.53	-40.7	-43.8	11.3	1.28e-03	0	60	0	977272832	52	5286
2026-01-13 01:32:20.83	267.18	13.46	-40.6	-43.6	11.4	1.25e-03	0	60	0	980418560	52	5213
2026-01-13 01:32:21.84	267.03	13.39	-40.4	-43.3	11.8	4.62e-04	0	60	0	983564288	52	4986
2026-01-13 01:32:22.85	266.88	13.32	-40.4	-43.3	11.8	5.17e-04	0	61	0	986710016	52	5001
2026-01-13 01:32:23.86	266.73	13.26	-40.3	-43.1	11.9	3.83e-04	0	61	0	989855744	52	4913
2026-01-13 01:32:24.87	266.58	13.19	-40.4	-43.2	11.8	4.35e-04	0	60	0	993001472	52	4947
2026-01-13 01:32:25.88	266.43	13.12	-40.3	-43.1	11.9	4.29e-04	0	60	0	996147200	52	4911
2026-01-13 01:32:26.89	266.28	13.05	-40.4	-43.3	11.7	5.37e-04	0	61	0	999292928	52	4999
2026-01-13 01:32:27.90	266.14	12.98	-40.5	-43.4	11.5	6.84e-04	0	60	0	1002438656	52	5099
2026-01-13 01:32:28.91	265.99	12.91	-40.6	-43.6	11.4	1.05e-03	0	60	0	1005584384	52	5190
2026-01-13 01:32:29.92	265.85	12.85	-40.6	-43.6	11.3	1.06e-03	0	60	0	1008730112	52	5204
2026-01-13 01:32:30.93	265.70	12.78	-40.7	-43.8	11.1	1.46e-03	0	60	0	1011875840	52	5325
2026-01-13 01:32:31.94	265.56	12.71	-40.8	-44.0	11.0	1.84e-03	0	60	0	1015021568	52	5451
2026-01-13 01:32:32.96	265.42	12.64	-40.9	-44.2	10.8	2.35e-03	0	60	0	1018167296	52	5544
2026-01-13 01:32:33.97	265.27	12.57	-40.9	-44.2	10.8	2.67e-03	0	60	0	1021313024	52	5536
2026-01-13 01:32:34.98	265.13	12.50	-40.9	-44.1	10.8	2.76e-03	0	60	0	1024458752	52	5514
2026-01-13 01:32:35.98	264.99	12.44	-40.9	-44.2	10.7	2.66e-03	0	60	0	1027604480	52	5538
2026-01-13 01:32:36.99	264.85	12.37	-40.9	-44.2	10.8	2.36e-03	0	60	0	1030750208	52	5531
2026-01-13 01:32:38.00	264.71	12.30	-40.8	-44.0	11.0	2.08e-03	0	60	0	1034944512	52	5403
2026-01-13 01:32:39.01	264.58	12.23	-40.8	-43.9	11.0	1.70e-03	0	60	0	1038090240	52	5384
2026-01-13 01:32:40.02	264.44	12.16	-40.8	-43.9	11.0	1.92e-03	0	60	0	1040187392	52	5385
2026-01-13 01:32:41.03	264.30	12.10	-40.7	-43.8	11.1	1.55e-03	0	60	0	1043333120	52	5289
2026-01-13 01:32:42.04	264.16	12.03	-40.6	-43.6	11.3	1.22e-03	0	60	0	1046478848	52	5206
2026-01-13 01:32:43.05	264.03	11.96	-40.6	-43.6	11.4	1.03e-03	0	60	0	1049624576	52	5176
2026-01-13 01:32:44.06	263.89	11.89	-40.6	-43.6	11.3	1.12e-03	0	60	0	1053818880	52	5195
2026-01-13 01:32:45.06	263.76	11.83	-40.7	-43.8	11.1	1.36e-03	0	60	0	1056964608	52	5292
2026-01-13 01:32:46.07	263.62	11.76	-40.7	-43.8	11.1	1.73e-03	0	60	0	1060110336	52	5294
2026-01-13 01:32:47.08	263.49	11.69	-40.6	-43.7	11.2	1.42e-03	0	60	0	1062207488	52	5254
2026-01-13 01:32:48.09	263.36	11.62	-40.6	-43.7	11.2	1.35e-03	0	60	0	1065353216	52	5241
2026-01-13 01:32:49.10	263.22	11.55	-40.7	-43.7	11.1	1.54e-03	0	60	0	1069547520	52	5279
2026-01-13 01:32:50.11	263.09	11.49	-40.8	-43.9	10.9	1.73e-03	0	60	0	1072693248	52	5388
2026-01-13 01:32:51.12	262.96	11.42	-40.9	-44.1	10.8	2.51e-03	0	60	0	1075838976	52	5509
2026-01-13 01:32:52.13	262.83	11.35	-41.0	-44.3	10.5	3.41e-03	0	60	0	1078984704	52	5636
2026-01-13 01:32:53.14	262.70	11.28	-41.1	-44.5	10.3	5.15e-03	0	60	0	1082130432	52	5762
2026-01-13 01:32:54.15	262.57	11.22	-41.1	-44.6	10.2	6.56e-03	0	60	0	1085276160	52	5814
2026-01-13 01:32:55.16	262.44	11.15	-41.1	-44.7	10.1	6.65e-03	0	60	0	1088421888	52	5860
2026-01-13 01:32:56.17	262.31	11.08	-41.2	-44.7	10.0	7.10e-03	0	60	0	1091567616	52	5911
2026-01-13 01:32:57.18	262.19	11.01	-41.1	-44.7	10.1	6.91e-03	0	60	0	1094713344	52	5888
2026-01-13 01:32:58.19	262.06	10.95	-41.2	-44.9	9.9	7.49e-03	0	60	0	1097859072	53	5669
2026-01-13 01:32:59.20	261.93	10.88	-41.2	-44.7	10.1	7.86e-03	0	60	0	1101004800	53	5568
2026-01-13 01:33:00.21	261.81	10.81	-41.1	-44.6	10.1	6.24e-03	0	60	0	1104150528	53	5527
2026-01-13 01:33:01.22	261.68	10.74	-41.0	-44.4	10.4	5.08e-03	0	60	0	1107296256	53	5401
2026-01-13 01:33:02.23	261.56	10.68	-41.0	-44.4	10.4	4.82e-03	0	60	0	1110441984	53	5349
2026-01-13 01:33:03.24	261.43	10.61	-40.9	-44.4	10.4	4.34e-03	0	60	0	1113587712	53	5346
2026-01-13 01:33:04.25	261.31	10.54	-41.0	-44.4	10.3	5.29e-03	0	60	0	1116733440	53	5393
2026-01-13 01:33:05.26	261.19	10.48	-41.0	-44.5	10.2	5.93e-03	0	60	0	1119879168	53	5462
2026-01-13 01:33:06.27	261.06	10.41	-41.1	-44.6	10.1	6.00e-03	0	60	0	1123024896	53	5496
2026-01-13 01:33:07.27	260.94	10.34	-41.0	-44.5	10.2	5.82e-03	0	60	0	1126170624	53	5434
2026-01-13 01:33:08.28	260.82	10.28	-41.1	-44.6	10.1	6.38e-03	0	60	0	1129316352	53	5524
2026-01-13 01:33:09.30	260.70	10.21	-41.2	-44.8	9.9	8.58e-03	0	60	0	1132462080	53	5649
2026-01-13 01:33:10.31	260.58	10.14	-41.2	-44.9	9.8	1.05e-02	0	60	0	1135607808	53	5704
2026-01-13 01:33:11.31	260.46	10.07	-41.3	-45.1	9.6	1.17e-02	0	60	0	1138753536	53	5827
2026-01-13 01:33:12.32	260.34	10.01	-41.4	-45.3	9.4	1.54e-02	0	60	0	1141899264	53	5942
2026-01-13 01:33:13.33	260.22	9.94	-41.4	-45.4	9.3	1.84e-02	0	60	0	1145044992	53	5999
2026-01-13 01:33:14.34	260.11	9.87	-41.4	-45.3	9.4	1.68e-02	0	60	0	1148190720	53	5966
2026-01-13 01:33:15.35	259.99	9.81	-41.4	-45.4	9.3	1.79e-02	0	60	0	1151336448	53	5999
2026-01-13 01:33:16.36	259.87	9.74	-41.4	-45.3	9.4	1.62e-02	0	60	0	1154482176	53	5979
2026-01-13 01:33:17.37	259.76	9.68	-41.3	-45.1	9.6	1.46e-02	0	60	0	1157627904	53	5815
2026-01-13 01:33:18.38	259.64	9.61	-41.2	-44.8	9.9	1.12e-02	0	60	0	1160773632	53	5631
2026-01-13 01:33:19.39	259.52	9.54	-41.1	-44.6	10.0	7.17e-03	0	60	0	1163919360	53	5526
2026-01-13 01:33:20.40	259.41	9.48	-41.0	-44.6	10.1	7.45e-03	0	60	0	1167065088	53	5492
2026-01-13 01:33:21.41	259.30	9.41	-41.1	-44.7	10.0	7.93e-03	0	60	0	1170210816	53	5539
2026-01-13 01:33:22.42	259.18	9.35	-41.0	-44.5	10.1	6.55e-03	0	60	0	1173356544	53	5454
2026-01-13 01:33:23.43	259.07	9.28	-41.0	-44.5	10.1	6.01e-03	0	60	0	1176502272	53	5456
2026-01-13 01:33:24.44	258.96	9.21	-41.0	-44.6	10.0	6.92e-03	0	60	0	1179648000	53	5500
2026-01-13 01:33:25.45	258.84	9.15	-41.1	-44.6	10.0	7.65e-03	0	60	0	1182793728	53	5513
2026-01-13 01:33:26.46	258.73	9.08	-41.1	-44.8	9.8	8.78e-03	0	60	0	1185939456	53	5596
2026-01-13 01:33:27.47	258.62	9.02	-41.1	-44.7	9.9	8.45e-03	0	60	0	1189085184	53	5557
2026-01-13 01:33:28.48	258.51	8.95	-41.2	-44.8	9.8	1.02e-02	0	60	0	1192230912	53	5653
2026-01-13 01:33:29.49	258.40	8.88	-41.2	-44.9	9.7	1.08e-02	0	60	0	1195376640	53	5701
2026-01-13 01:33:30.50	258.29	8.82	-41.2	-45.0	9.6	1.23e-02	0	60	0	1198522368	53	5769
2026-01-13 01:33:31.50	258.18	8.75	-41.3	-45.1	9.5	1.35e-02	0	60	0	1201668096	53	5824
2026-01-13 01:33:32.51	258.08	8.69	-41.3	-45.2	9.4	1.38e-02	0	60	0	1204813824	53	5884
2026-01-13 01:33:33.52	257.97	8.62	-41.3	-45.1	9.5	1.53e-02	0	60	0	1207959552	53	5838
2026-01-13 01:33:34.53	257.86	8.56	-41.3	-45.2	9.4	1.57e-02	0	60	0	1211105280	53	5909
2026-01-13 01:33:35.54	257.75	8.49	-41.4	-45.4	9.2	1.95e-02	0	60	0	1214251008	53	6014
2026-01-13 01:33:36.55	257.65	8.43	-41.4	-45.4	9.2	1.98e-02	0	60	0	1217396736	53	6016
2026-01-13 01:33:37.56	257.54	8.36	-41.4	-45.3	9.3	1.95e-02	0	60	0	1220542464	53	5958
2026-01-13 01:33:38.57	257.43	8.30	-41.3	-45.2	9.4	1.68e-02	0	60	0	1223688192	53	5881
2026-01-13 01:33:39.58	257.33	8.23	-41.2	-45.0	9.6	1.41e-02	0	60	0	1226833920	53	5774
2026-01-13 01:33:40.59	257.22	8.17	-41.2	-44.9	9.7	1.25e-02	0	60	0	1229979648	53	5679
2026-01-13 01:33:41.60	257.12	8.10	-41.2	-44.9	9.6	1.24e-02	0	60	0	1233125376	53	5716
2026-01-13 01:33:42.61	257.02	8.04	-41.2	-45.1	9.5	1.43e-02	0	60	0	1236271104	53	5796
2026-01-13 01:33:43.62	256.91	7.98	-43.5	-51.4	4.6	2.48e-01	0	60	0	1239416832	57	9523
2026-01-13 01:33:44.63	256.81	7.91	-44.5	-56.5	3.8	1.49e+00	0	60	104	1239416832	59	15338
2026-01-13 01:33:45.64	256.71	7.85	-44.7	-56.9	3.8	1.49e+00	0	60	104	1239416832	60	15073
2026-01-13 01:33:46.65	256.61	7.78	-44.9	-57.0	3.8	1.49e+00	0	60	104	1239416832	60	15387
2026-01-13 01:33:47.66	256.50	7.72	-45.0	-57.2	3.8	1.49e+00	0	60	104	1239416832	60	15640
2026-01-13 01:33:48.67	256.40	7.65	-45.0	-57.3	3.8	1.49e+00	0	60	104	1239416832	60	15792
2026-01-13 01:33:49.68	256.30	7.59	-45.1	-57.3	3.8	1.49e+00	0	60	104	1239416832	60	15917
2026-01-13 01:33:50.69	256.20	7.53	-45.2	-57.4	3.8	1.49e+00	0	60	104	1239416832	60	15979
2026-01-13 01:33:51.70	256.10	7.46	-45.2	-57.4	3.8	1.49e+00	0	60	104	1239416832	60	16126
2026-01-13 01:33:52.71	256.00	7.40	-45.2	-57.4	3.8	1.49e+00	0	60	104	1239416832	61	15155
2026-01-13 01:33:53.72	255.91	7.33	-45.2	-57.4	3.8	1.49e+00	0	61	104	1239416832	61	15188
2026-01-13 01:33:54.73	255.81	7.27	-45.2	-57.4	3.8	1.49e+00	0	60	104	1239416832	61	15102
2026-01-13 01:33:55.74	255.71	7.21	-45.2	-57.4	3.8	1.49e+00	0	60	104	1239416832	61	15101
2026-01-13 01:33:56.75	255.61	7.14	-45.1	-57.4	3.8	1.49e+00	0	60	104	1239416832	61	15112
2026-01-13 01:33:57.76	255.52	7.08	-45.2	-57.4	3.8	1.49e+00	0	60	104	1239416832	61	15091
2026-01-13 01:33:58.77	255.42	7.02	-45.2	-57.4	3.8	1.49e+00	0	60	104	1239416832	61	15100
2026-01-13 01:33:59.78	255.32	6.95	-45.2	-57.4	3.8	1.49e+00	0	60	104	1239416832	61	15148
2026-01-13 01:34:00.79	255.23	6.89	-45.1	-57.4	3.8	1.49e+00	0	60	104	1239416832	61	15054
2026-01-13 01:34:01.80	255.13	6.83	-45.1	-57.4	3.8	1.49e+00	0	60	104	1239416832	61	15104
2026-01-13 01:34:02.81	255.04	6.76	-45.1	-57.4	3.8	1.49e+00	0	61	104	1239416832	61	15102
2026-01-13 01:34:03.82	254.94	6.70	-45.1	-57.4	3.8	1.49e+00	0	60	104	1239416832	61	15064
2026-01-13 01:34:04.83	254.85	6.64	-45.1	-57.3	3.8	1.49e+00	0	60	104	1239416832	61	15033
2026-01-13 01:34:05.84	254.75	6.58	-45.1	-57.4	3.8	1.49e+00	0	61	104	1239416832	61	15052
2026-01-13 01:34:06.85	254.66	6.51	-45.1	-57.3	3.8	1.49e+00	0	60	104	1239416832	61	15048
2026-01-13 01:34:07.86	254.57	6.45	-45.1	-57.4	3.8	1.49e+00	0	60	104	1239416832	61	15060
2026-01-13 01:34:08.87	254.48	6.39	-45.1	-57.3	3.8	1.49e+00	0	60	104	1239416832	61	15005
2026-01-13 01:34:09.88	254.38	6.33	-45.1	-57.3	3.8	1.49e+00	0	60	104	1239416832	61	15034
2026-01-13 01:34:10.90	254.29	6.26	-45.1	-57.3	3.8	1.49e+00	0	60	104	1239416832	61	15003
2026-01-13 01:34:11.91	254.20	6.20	-45.1	-57.3	3.8	1.49e+00	0	60	104	1239416832	61	15039
2026-01-13 01:34:12.92	254.11	6.14	-45.1	-57.4	3.8	1.49e+00	0	60	104	1239416832	61	15058
2026-01-13 01:34:13.93	254.02	6.08	-45.1	-57.3	3.8	1.49e+00	0	60	104	1239416832	61	15007
2026-01-13 01:34:14.94	253.93	6.01	-45.1	-57.3	3.8	1.49e+00	0	61	104	1239416832	61	15049
2026-01-13 01:34:15.95	253.84	5.95	-45.1	-57.3	3.8	1.49e+00	0	61	104	1239416832	61	15048
2026-01-13 01:34:16.96	253.75	5.89	-45.1	-57.3	3.8	1.49e+00	0	60	104	1239416832	61	15037
2026-01-13 01:34:17.97	253.66	5.83	-45.1	-57.3	3.8	1.49e+00	0	61	104	1239416832	61	14999
2026-01-13 01:34:18.98	253.57	5.77	-45.1	-57.3	3.8	1.49e+00	0	60	104	1239416832	61	14989
2026-01-13 01:34:19.99	253.49	5.71	-45.1	-57.3	3.8	1.49e+00	0	60	104	1239416832	61	15014
2026-01-13 01:34:21.00	253.40	5.64	-45.1	-57.3	3.8	1.49e+00	0	60	104	1239416832	61	15024
2026-01-13 01:34:22.01	253.31	5.58	-45.1	-57.3	3.8	1.49e+00	0	60	104	1239416832	61	15025
2026-01-13 01:34:23.02	253.22	5.52	-45.1	-57.3	3.8	1.49e+00	0	60	104	1239416832	61	15008
2026-01-13 01:34:24.03	253.14	5.46	-45.1	-57.3	3.8	1.49e+00	0	61	104	1239416832	61	15023
2026-01-13 01:34:25.04	253.05	5.40	-45.1	-57.3	3.8	1.49e+00	0	60	104	1239416832	61	15032
2026-01-13 01:34:26.06	252.96	5.34	-45.1	-57.3	3.8	1.49e+00	0	60	104	1239416832	61	15034
2026-01-13 01:34:27.07	252.88	5.28	-45.1	-57.3	3.8	1.49e+00	0	60	104	1239416832	61	14967
2026-01-13 01:34:28.07	252.80	5.22	-45.1	-57.3	3.8	1.49e+00	0	60	104	1239416832	61	15007
2026-01-13 01:34:29.09	252.71	5.15	-45.1	-57.3	3.8	1.49e+00	0	60	104	1239416832	61	15022
2026-01-13 01:34:30.10	252.63	5.09	-45.1	-57.3	3.8	1.49e+00	0	61	104	1239416832	61	15008
2026-01-13 01:34:31.10	252.54	5.03	-45.1	-57.3	3.8	1.49e+00	0	60	104	1239416832	61	15009
2026-01-13 01:34:32.11	252.46	4.97	-45.1	-57.3	3.8	1.49e+00	0	60	104	1239416832	61	15029
2026-01-13 01:34:33.12	252.38	4.91	-45.1	-57.3	3.8	1.49e+00	0	60	104	1239416832	61	15040
2026-01-13 01:34:34.13	252.29	4.85	-45.1	-57.3	3.8	1.49e+00	0	60	104	1239416832	61	15026
2026-01-13 01:34:35.15	252.21	4.79	-45.1	-57.3	3.8	1.49e+00	0	60	104	1239416832	61	15013
2026-01-13 01:34:36.16	252.13	4.73	-45.1	-57.3	3.8	1.49e+00	0	61	104	1239416832	61	14994
2026-01-13 01:34:37.17	252.04	4.67	-45.1	-57.3	3.8	1.49e+00	0	60	104	1239416832	61	14970
2026-01-13 01:34:38.18	251.96	4.61	-45.1	-57.3	3.8	1.49e+00	0	61	104	1239416832	61	14944
2026-01-13 01:34:39.19	251.88	4.55	-45.1	-57.3	3.8	1.49e+00	0	60	104	1239416832	61	15013
2026-01-13 01:34:40.20	251.80	4.49	-45.1	-57.3	3.8	1.49e+00	0	60	104	1239416832	61	15022
2026-01-13 01:34:41.21	251.72	4.43	-45.1	-57.3	3.8	1.49e+00	0	61	104	1239416832	61	14980
2026-01-13 01:34:42.22	251.64	4.37	-45.1	-57.3	3.8	1.49e+00	0	60	104	1239416832	61	14992
2026-01-13 01:34:43.23	251.56	4.31	-45.1	-57.3	3.8	1.49e+00	0	60	104	1239416832	61	14998
2026-01-13 01:34:44.24	251.48	4.25	-45.1	-57.3	3.8	1.49e+00	0	60	104	1239416832	61	14935
2026-01-13 01:34:45.25	251.40	4.19	-45.1	-57.3	3.8	1.49e+00	0	61	104	1239416832	61	14959
2026-01-13 01:34:46.26	251.32	4.13	-45.1	-57.3	3.8	1.49e+00	0	60	104	1239416832	61	14955
2026-01-13 01:34:47.28	251.24	4.07	-45.1	-57.3	3.8	1.49e+00	0	61	104	1239416832	61	14983
2026-01-13 01:34:48.29	251.17	4.01	-45.1	-57.3	3.8	1.49e+00	0	61	104	1239416832	61	14950
2026-01-13 01:34:49.30	251.09	3.95	-45.1	-57.3	3.8	1.49e+00	0	61	104	1239416832	61	14979
2026-01-13 01:34:50.31	251.01	3.89	-45.1	-57.3	3.8	1.49e+00	0	61	104	1239416832	61	14942
2026-01-13 01:34:51.31	250.93	3.83	-45.1	-57.3	3.8	1.49e+00	0	60	104	1239416832	61	14998
2026-01-13 01:34:52.33	250.86	3.77	-45.1	-57.3	3.8	1.49e+00	0	61	104	1239416832	61	15007
2026-01-13 01:34:53.34	250.78	3.72	-45.1	-57.3	3.8	1.49e+00	0	61	104	1239416832	61	14973
2026-01-13 01:34:54.35	250.70	3.66	-45.1	-57.3	3.8	1.49e+00	0	61	104	1239416832	61	14949
2026-01-13 01:34:55.35	250.63	3.60	-45.1	-57.3	3.8	1.49e+00	0	61	104	1239416832	61	14963
2026-01-13 01:34:56.36	250.55	3.54	-45.1	-57.3	3.8	1.49e+00	0	60	104	1239416832	61	14976
2026-01-13 01:34:57.38	250.48	3.48	-45.1	-57.3	3.8	1.49e+00	0	61	104	1239416832	61	14940
2026-01-13 01:34:58.38	250.40	3.42	-45.1	-57.3	3.8	1.49e+00	0	60	104	1239416832	61	14994
2026-01-13 01:34:59.40	250.33	3.36	-45.1	-57.3	3.8	1.49e+00	0	61	104	1239416832	61	14978
2026-01-13 01:35:00.41	250.25	3.31	-45.1	-57.3	3.8	1.49e+00	0	60	104	1239416832	61	14970
2026-01-13 01:35:01.42	250.18	3.25	-45.1	-57.3	3.8	1.49e+00	0	61	104	1239416832	61	14959
2026-01-13 01:35:02.43	250.11	3.19	-45.1	-57.3	3.8	1.49e+00	0	61	104	1239416832	61	14981
2026-01-13 01:35:03.44	250.03	3.13	-45.1	-57.3	3.8	1.49e+00	0	60	104	1239416832	61	15002
2026-01-13 01:35:04.45	249.96	3.07	-45.1	-57.3	3.8	1.49e+00	0	60	104	1239416832	61	14968
2026-01-13 01:35:05.46	249.89	3.01	-45.1	-57.3	3.8	1.49e+00	0	60	104	1239416832	61	14945
2026-01-13 01:35:06.47	249.81	2.96	-45.1	-57.3	3.8	1.49e+00	0	61	104	1239416832	61	14976
2026-01-13 01:35:07.47	249.74	2.90	-45.1	-57.3	3.8	1.49e+00	0	61	104	1239416832	61	14986
2026-01-13 01:35:08.49	249.67	2.84	-45.1	-57.3	3.8	1.49e+00	0	60	104	1239416832	61	14960
2026-01-13 01:35:09.50	249.60	2.78	-45.1	-57.3	3.8	1.49e+00	0	61	104	1239416832	61	14947
2026-01-13 01:35:10.51	249.53	2.73	-45.1	-57.3	3.8	1.49e+00	0	61	104	1239416832	61	14958
2026-01-13 01:35:11.52	249.45	2.67	-45.1	-57.3	3.8	1.49e+00	0	60	104	1239416832	61	14983
2026-01-13 01:35:12.53	249.38	2.61	-45.1	-57.3	3.8	1.49e+00	0	61	104	1239416832	61	14999
2026-01-13 01:35:13.54	249.31	2.55	-45.1	-57.3	3.8	1.49e+00	0	60	104	1239416832	61	14945
2026-01-13 01:35:14.55	249.24	2.50	-45.1	-57.3	3.8	1.49e+00	0	61	104	1239416832	61	14948
2026-01-13 01:35:15.56	249.17	2.44	-45.1	-57.3	3.8	1.49e+00	0	60	104	1239416832	61	14964
2026-01-13 01:35:16.57	249.10	2.38	-45.1	-57.3	3.8	1.49e+00	0	61	104	1239416832	61	14983
2026-01-13 01:35:17.58	249.03	2.32	-45.1	-57.3	3.8	1.49e+00	0	61	104	1239416832	61	14952
2026-01-13 01:35:18.59	248.96	2.27	-45.1	-57.3	3.8	1.49e+00	0	60	104	1239416832	61	14948
2026-01-13 01:35:19.60	248.90	2.21	-45.1	-57.3	3.8	1.49e+00	0	61	104	1239416832	61	14978
2026-01-13 01:35:20.61	248.83	2.15	-45.1	-57.3	3.8	1.49e+00	0	61	104	1239416832	61	14953
2026-01-13 01:35:21.62	248.76	2.10	-45.1	-57.3	3.8	1.49e+00	0	61	104	1239416832	61	14983
2026-01-13 01:35:22.63	248.69	2.04	-45.1	-57.3	3.8	1.49e+00	0	61	104	1239416832	61	14940
2026-01-13 01:35:23.64	248.62	1.98	-45.1	-57.3	3.8	1.49e+00	0	60	104	1239416832	61	14956
2026-01-13 01:35:24.65	248.56	1.93	-45.0	-57.3	3.8	1.49e+00	0	61	104	1239416832	61	14968

#Closed at: 2026-01-13 01:35:24
#Recorded file [1239 MB]: D:/lorett/data/31039_260113_042546.dat