passes_logs/2026/01/13/R2.0S_Moscow/R2.0S_Moscow__20260113_110223_FENGYUN_3D_rec.log

#Pass ID: 20260113_110223_FENGYUN 3D
#Satellite: FENGYUN 3D
#Configuration: FENGYUN 3D
#almurnet v.1.7.20251203
#Start time: 2026-01-13 11:02:23

#Version: 2.2.20231116
#Station: R2.0S_Moscow
#Location: 37.707566 lon 55.798166 lat
#TLE: 1 43010U 17072A   26012.32543542  .00000598  00000+0  30457-3 0  9997
#TLE: 2 43010  98.9935 344.1005 0002233 112.6136 247.5276 14.19696644422876

#Time	Az	El	Level	Level2	SNR	BER	BlckErr	Temp	State	Recorded	gain1	gain2
2026-01-13 11:02:23.99	133.63	2.02	-15.8	-27.4	3.8	8.40e-01	0	49	0	0	2	14296
2026-01-13 11:02:24.99	133.59	2.08	-13.5	-22.8	3.8	8.36e-01	0	50	104	0	0	9480
2026-01-13 11:02:26.00	133.56	2.14	-12.0	-22.7	3.8	8.41e-01	0	50	104	0	0	9305
2026-01-13 11:02:27.01	133.52	2.20	-16.7	-26.2	3.7	8.33e-01	0	50	104	0	2	12512
2026-01-13 11:02:28.02	133.48	2.27	-14.6	-23.6	3.7	8.34e-01	0	50	104	0	0	10334
2026-01-13 11:02:29.03	133.44	2.33	-14.4	-23.0	3.7	8.41e-01	0	50	104	0	0	9613
2026-01-13 11:02:30.04	133.40	2.39	-13.6	-25.1	3.8	8.44e-01	0	50	104	0	0	12337
2026-01-13 11:02:31.05	133.37	2.46	-12.5	-24.9	3.8	8.41e-01	0	50	104	0	0	12077
2026-01-13 11:02:32.06	133.33	2.52	-13.6	-23.3	3.7	8.39e-01	0	50	104	0	0	9989
2026-01-13 11:02:33.07	133.29	2.58	-11.7	-21.7	3.6	8.39e-01	0	50	104	0	1	7864
2026-01-13 11:02:34.08	133.25	2.65	-20.6	-29.8	3.6	8.41e-01	0	50	104	0	3	17726
2026-01-13 11:02:35.09	133.21	2.71	-15.2	-24.3	3.7	8.41e-01	0	50	104	0	0	11162
2026-01-13 11:02:36.11	133.17	2.78	-14.7	-24.8	3.7	8.42e-01	0	51	104	0	0	11879
2026-01-13 11:02:37.12	133.13	2.84	-14.3	-25.4	3.8	8.43e-01	0	51	104	0	0	12743
2026-01-13 11:02:38.13	133.09	2.90	-11.5	-20.9	3.9	8.38e-01	0	51	104	0	0	7564
2026-01-13 11:02:39.14	133.05	2.97	-13.0	-23.4	3.6	8.37e-01	0	51	104	0	0	10171
2026-01-13 11:02:40.15	133.01	3.03	-13.3	-23.6	3.8	8.33e-01	0	51	104	0	0	10381
2026-01-13 11:02:41.16	132.97	3.10	-12.6	-24.7	3.9	8.26e-01	0	51	104	0	0	11754
2026-01-13 11:02:42.17	132.93	3.16	-13.8	-26.4	3.7	8.37e-01	0	51	104	0	0	14229
2026-01-13 11:02:43.18	132.89	3.23	-18.1	-28.6	3.7	8.38e-01	0	51	0	0	2	16428
2026-01-13 11:02:44.19	132.85	3.29	-16.0	-26.8	3.7	8.39e-01	0	51	104	0	0	14913
2026-01-13 11:02:45.20	132.81	3.36	-13.9	-23.3	3.8	8.41e-01	0	51	104	0	0	10004
2026-01-13 11:02:46.21	132.77	3.42	-13.3	-21.6	3.6	8.44e-01	0	51	104	0	0	8265
2026-01-13 11:02:47.22	132.72	3.49	-12.5	-26.7	3.6	8.41e-01	0	51	104	0	3	12463
2026-01-13 11:02:48.23	132.68	3.56	-13.2	-24.0	3.6	8.40e-01	0	51	104	0	0	10888
2026-01-13 11:02:49.24	132.64	3.62	-18.0	-26.5	3.9	8.42e-01	0	52	104	0	1	13592
2026-01-13 11:02:50.25	132.60	3.69	-16.2	-25.1	3.9	8.43e-01	0	51	104	0	2	11026
2026-01-13 11:02:51.27	132.56	3.75	-18.1	-28.8	3.7	8.40e-01	0	52	104	0	4	14892
2026-01-13 11:02:52.28	132.51	3.82	-21.1	-30.6	3.5	8.42e-01	0	52	104	0	3	19592
2026-01-13 11:02:53.29	132.47	3.89	-18.1	-27.9	3.7	8.33e-01	0	52	104	0	2	15128
2026-01-13 11:02:54.30	132.43	3.95	-15.5	-26.2	3.7	8.32e-01	0	52	104	0	1	13161
2026-01-13 11:02:55.31	132.38	4.02	-16.2	-25.7	3.6	8.43e-01	0	52	104	0	1	12492
2026-01-13 11:02:56.32	132.34	4.09	-12.3	-20.6	3.7	8.39e-01	0	52	104	0	0	7300
2026-01-13 11:02:57.33	132.30	4.15	-13.1	-25.3	3.6	8.37e-01	0	52	104	0	2	11217
2026-01-13 11:02:58.34	132.25	4.22	-18.5	-28.9	3.6	8.35e-01	0	52	104	0	6	13443
2026-01-13 11:02:59.35	132.21	4.29	-12.8	-23.4	3.8	8.39e-01	0	52	104	0	0	10114
2026-01-13 11:03:00.36	132.16	4.36	-12.3	-22.4	3.8	8.41e-01	0	52	104	0	0	8978
2026-01-13 11:03:01.37	132.12	4.42	-12.5	-24.7	3.7	8.39e-01	0	52	104	0	0	11754
2026-01-13 11:03:02.38	132.08	4.49	-13.3	-24.3	3.9	8.39e-01	0	52	104	0	0	11192
2026-01-13 11:03:03.39	132.03	4.56	-15.5	-25.7	3.8	8.42e-01	0	52	104	0	0	13196
2026-01-13 11:03:04.40	131.99	4.63	-13.3	-22.3	3.8	8.42e-01	0	52	104	0	0	8912
2026-01-13 11:03:05.41	131.94	4.70	-17.0	-25.8	3.7	8.40e-01	0	52	104	0	0	13364
2026-01-13 11:03:06.43	131.89	4.77	-14.3	-24.9	3.8	8.37e-01	0	53	104	0	0	12055
2026-01-13 11:03:07.44	131.85	4.83	-11.7	-22.7	3.6	8.38e-01	0	52	104	0	0	9388
2026-01-13 11:03:08.45	131.80	4.90	-15.4	-27.3	3.8	8.38e-01	0	53	104	0	0	15860
2026-01-13 11:03:09.46	131.76	4.97	-16.5	-26.5	3.6	8.37e-01	0	53	104	0	2	12846
2026-01-13 11:03:10.47	131.71	5.04	-11.9	-19.6	3.9	8.38e-01	0	53	104	0	0	6536
2026-01-13 11:03:11.48	131.66	5.11	-14.7	-27.0	3.6	8.32e-01	0	53	104	0	1	14470
2026-01-13 11:03:12.49	131.62	5.18	-12.7	-24.0	3.7	8.35e-01	0	53	104	0	0	10869
2026-01-13 11:03:13.50	131.57	5.25	-15.8	-25.6	3.8	8.26e-01	0	53	104	0	0	13090
2026-01-13 11:03:14.51	131.52	5.32	-12.6	-27.5	3.5	8.32e-01	0	53	104	0	2	14539
2026-01-13 11:03:15.52	131.47	5.39	-17.1	-28.4	3.6	8.32e-01	0	53	104	0	0	17918
2026-01-13 11:03:16.53	131.43	5.46	-13.3	-21.2	3.6	8.39e-01	0	53	104	0	0	7852
2026-01-13 11:03:17.54	131.38	5.53	-16.2	-27.6	3.8	8.36e-01	0	53	104	0	0	16335
2026-01-13 11:03:18.55	131.33	5.60	-13.3	-24.4	3.7	8.41e-01	0	53	104	0	0	11306
2026-01-13 11:03:19.56	131.28	5.67	-17.2	-27.7	3.8	8.33e-01	0	53	104	0	2	14826
2026-01-13 11:03:20.57	131.23	5.74	-13.5	-24.4	3.6	8.33e-01	0	53	104	0	1	10725
2026-01-13 11:03:21.58	131.18	5.81	-15.2	-26.2	3.9	8.32e-01	0	53	104	0	0	13957
2026-01-13 11:03:22.59	131.13	5.88	-13.3	-24.7	3.7	8.34e-01	0	53	104	0	1	11064
2026-01-13 11:03:23.61	131.08	5.96	-11.4	-22.6	3.8	8.30e-01	0	53	104	0	0	9202
2026-01-13 11:03:24.62	131.03	6.03	-12.9	-23.1	3.7	8.34e-01	0	53	104	0	0	9745
2026-01-13 11:03:25.63	130.98	6.10	-14.6	-25.5	3.7	8.34e-01	0	53	104	0	0	12947
2026-01-13 11:03:26.64	130.93	6.17	-11.5	-26.0	3.7	8.42e-01	0	54	104	0	0	13713
2026-01-13 11:03:27.65	130.88	6.24	-11.9	-22.3	3.6	8.39e-01	0	53	104	0	0	8920
2026-01-13 11:03:28.66	130.83	6.32	-11.2	-19.9	3.7	8.43e-01	0	54	104	0	0	6725
2026-01-13 11:03:29.67	130.78	6.39	-15.3	-24.4	3.9	8.46e-01	0	54	0	0	1	10750
2026-01-13 11:03:30.68	130.73	6.46	-11.4	-19.8	3.8	8.43e-01	0	54	104	0	0	6712
2026-01-13 11:03:31.69	130.68	6.53	-14.3	-24.3	3.7	8.42e-01	0	54	104	0	0	11243
2026-01-13 11:03:32.70	130.63	6.61	-12.8	-23.0	3.8	8.41e-01	0	54	104	0	2	8616
2026-01-13 11:03:33.71	130.57	6.68	-11.9	-25.0	3.5	8.37e-01	0	54	104	0	1	11425
2026-01-13 11:03:34.72	130.52	6.75	-13.4	-22.5	3.7	8.40e-01	0	54	104	0	0	9162
2026-01-13 11:03:35.73	130.47	6.83	-12.8	-23.9	3.6	8.36e-01	0	54	104	0	2	9515
2026-01-13 11:03:36.74	130.42	6.90	-14.5	-24.4	3.8	8.38e-01	0	54	104	0	1	10725
2026-01-13 11:03:37.75	130.36	6.97	-13.3	-25.7	3.7	8.35e-01	0	54	104	0	0	13153
2026-01-13 11:03:38.76	130.31	7.05	-16.7	-27.3	3.7	8.42e-01	0	54	104	0	3	13372
2026-01-13 11:03:39.77	130.25	7.12	-14.9	-26.3	3.8	8.30e-01	0	54	104	0	0	14079
2026-01-13 11:03:40.78	130.20	7.20	-13.2	-24.6	3.9	8.30e-01	0	54	0	0	0	11579
2026-01-13 11:03:41.79	130.15	7.27	-14.5	-24.6	3.8	8.36e-01	0	54	104	0	0	11567
2026-01-13 11:03:42.80	130.09	7.35	-13.9	-23.7	3.8	8.35e-01	0	54	104	0	0	10498
2026-01-13 11:03:43.81	130.04	7.42	-16.5	-27.5	3.7	8.38e-01	0	54	104	0	1	15313
2026-01-13 11:03:44.82	129.98	7.50	-16.2	-24.5	3.7	8.32e-01	0	55	104	0	0	11486
2026-01-13 11:03:45.83	129.93	7.57	-12.9	-22.3	3.6	8.40e-01	0	54	104	0	0	8929
2026-01-13 11:03:46.85	129.87	7.65	-12.2	-22.5	3.8	8.36e-01	0	54	104	0	0	9082
2026-01-13 11:03:47.86	129.81	7.72	-14.6	-26.0	3.6	8.34e-01	0	54	104	0	1	12887
2026-01-13 11:03:48.87	129.76	7.80	-14.8	-25.2	3.7	8.36e-01	0	55	104	0	0	12381
2026-01-13 11:03:49.88	129.70	7.88	-16.3	-29.0	3.6	8.32e-01	0	54	104	0	1	18274
2026-01-13 11:03:50.89	129.64	7.95	-11.7	-25.6	3.7	8.31e-01	0	54	104	0	0	13041
2026-01-13 11:03:51.90	129.58	8.03	-12.7	-20.8	3.7	8.39e-01	0	55	104	0	0	7537
2026-01-13 11:03:52.91	129.53	8.10	-20.8	-34.2	3.6	8.23e-01	0	54	0	0	15	14724
2026-01-13 11:03:53.92	129.47	8.18	-15.5	-25.7	3.6	8.24e-01	0	54	104	0	1	12412
2026-01-13 11:03:54.93	129.41	8.26	-12.7	-22.1	3.7	8.40e-01	0	55	104	0	0	8749
2026-01-13 11:03:55.94	129.35	8.34	-13.5	-22.7	3.7	8.41e-01	0	55	104	0	0	9342
2026-01-13 11:03:56.95	129.29	8.41	-14.2	-23.3	3.8	8.38e-01	0	55	104	0	0	10045
2026-01-13 11:03:57.96	129.23	8.49	-11.8	-21.5	3.8	8.33e-01	0	55	0	0	0	8171
2026-01-13 11:03:58.97	129.17	8.57	-12.8	-23.8	3.7	8.34e-01	0	55	104	0	0	10578
2026-01-13 11:03:59.98	129.11	8.65	-14.5	-25.7	3.9	8.38e-01	0	55	104	0	0	13125
2026-01-13 11:04:00.99	129.05	8.73	-12.2	-24.1	3.8	8.32e-01	0	55	104	0	0	11001
2026-01-13 11:04:02.00	128.99	8.81	-14.4	-27.0	3.7	8.32e-01	0	55	104	0	0	15247
2026-01-13 11:04:03.01	128.93	8.88	-19.3	-29.8	3.6	8.32e-01	0	55	104	0	5	15805
2026-01-13 11:04:04.02	128.87	8.96	-19.2	-30.4	3.7	8.33e-01	0	55	104	0	6	15977
2026-01-13 11:04:05.02	128.81	9.04	-13.9	-26.6	3.6	8.31e-01	0	55	104	0	1	13846
2026-01-13 11:04:06.03	128.74	9.12	-16.0	-26.6	3.8	8.35e-01	0	55	104	0	3	12282
2026-01-13 11:04:07.04	128.68	9.20	-16.6	-27.9	3.6	8.34e-01	0	55	104	0	2	15192
2026-01-13 11:04:08.05	128.62	9.28	-18.0	-29.4	3.7	8.30e-01	0	55	104	0	5	15065
2026-01-13 11:04:09.06	128.56	9.36	-18.0	-27.9	3.7	8.10e-01	0	55	104	0	5	12744
2026-01-13 11:04:10.07	128.49	9.44	-19.3	-29.8	3.5	8.25e-01	0	55	0	0	7	14047
2026-01-13 11:04:11.08	128.43	9.52	-17.9	-28.9	3.8	8.41e-01	0	55	104	0	1	17945
2026-01-13 11:04:12.09	128.36	9.60	-18.0	-28.5	3.6	8.41e-01	0	55	104	0	5	13626
2026-01-13 11:04:13.10	128.30	9.69	-12.3	-19.8	3.6	8.42e-01	0	55	104	0	0	6698
2026-01-13 11:04:14.11	128.23	9.77	-12.3	-20.9	3.8	8.44e-01	0	56	104	0	0	7582
2026-01-13 11:04:15.12	128.17	9.85	-13.0	-21.3	3.7	8.46e-01	0	55	104	0	0	7917
2026-01-13 11:04:16.13	128.10	9.93	-13.4	-24.4	3.6	8.47e-01	0	55	104	0	1	10675
2026-01-13 11:04:17.14	128.04	10.01	-15.2	-26.0	3.6	8.43e-01	0	56	104	0	0	13652
2026-01-13 11:04:18.16	127.97	10.10	-14.4	-22.8	3.9	8.45e-01	0	56	104	0	0	9490
2026-01-13 11:04:19.17	127.90	10.18	-19.1	-27.9	3.8	8.44e-01	0	56	104	0	1	16017
2026-01-13 11:04:20.18	127.83	10.26	-15.5	-28.2	3.8	8.27e-01	0	56	104	0	2	15632
2026-01-13 11:04:21.19	127.77	10.34	-14.6	-24.2	3.9	8.34e-01	0	56	104	0	1	10510
2026-01-13 11:04:22.20	127.70	10.43	-16.2	-27.7	3.6	8.41e-01	0	56	104	0	2	14742
2026-01-13 11:04:23.21	127.63	10.51	-15.9	-24.8	3.8	8.39e-01	0	56	104	0	0	11835
2026-01-13 11:04:24.22	127.56	10.59	-18.6	-28.7	3.7	8.36e-01	0	56	104	0	5	14005
2026-01-13 11:04:25.23	127.49	10.68	-12.9	-22.3	3.7	8.43e-01	0	56	104	0	0	8873
2026-01-13 11:04:26.24	127.42	10.76	-17.8	-26.5	3.7	8.44e-01	0	56	104	0	1	13693
2026-01-13 11:04:27.25	127.35	10.85	-20.7	-30.1	3.7	8.44e-01	0	56	104	0	8	13881
2026-01-13 11:04:28.26	127.28	10.93	-16.2	-26.9	3.8	8.40e-01	0	56	104	0	2	13426
2026-01-13 11:04:29.27	127.21	11.02	-18.4	-27.1	3.7	8.42e-01	0	56	104	0	5	11553
2026-01-13 11:04:30.28	127.14	11.10	-16.4	-27.7	3.7	8.34e-01	0	56	104	0	4	13188
2026-01-13 11:04:31.29	127.07	11.19	-19.0	-28.7	3.7	8.43e-01	0	56	104	0	8	11704
2026-01-13 11:04:32.30	126.99	11.27	-19.7	-29.2	3.8	8.30e-01	0	56	104	0	9	11795
2026-01-13 11:04:33.30	126.92	11.36	-14.8	-27.5	4.0	8.32e-01	0	56	104	0	3	13719
2026-01-13 11:04:34.32	126.85	11.45	-19.0	-28.2	3.8	8.35e-01	0	56	104	0	9	10528
2026-01-13 11:04:35.33	126.77	11.53	-25.2	-40.4	3.8	8.38e-01	0	56	104	0	15	30357
2026-01-13 11:04:36.34	126.70	11.62	-17.8	-31.8	3.7	8.43e-01	0	56	104	0	14	11858
2026-01-13 11:04:37.34	126.63	11.70	-22.4	-32.1	3.9	8.34e-01	0	56	104	0	9	16481
2026-01-13 11:04:38.35	126.55	11.79	-16.6	-28.2	3.8	8.44e-01	0	56	104	0	9	10459
2026-01-13 11:04:39.37	126.47	11.88	-19.7	-31.6	3.8	8.41e-01	0	56	104	0	10	14563
2026-01-13 11:04:40.37	126.40	11.97	-19.1	-32.4	3.9	8.42e-01	0	56	104	0	8	17937
2026-01-13 11:04:41.38	126.32	12.06	-20.3	-31.6	3.8	8.36e-01	0	56	104	0	11	13833
2026-01-13 11:04:42.39	126.25	12.14	-19.6	-30.8	3.8	8.34e-01	0	56	104	0	9	14049
2026-01-13 11:04:43.41	126.17	12.23	-20.6	-30.9	3.7	8.46e-01	0	56	104	0	7	16032
2026-01-13 11:04:44.42	126.09	12.32	-20.3	-30.9	3.7	8.44e-01	0	56	104	0	10	13490
2026-01-13 11:04:45.43	126.01	12.41	-19.6	-31.8	3.8	8.45e-01	0	56	104	0	10	14981
2026-01-13 11:04:46.44	125.93	12.50	-21.0	-34.2	4.1	8.42e-01	0	56	104	0	15	14729
2026-01-13 11:04:47.45	125.85	12.59	-26.3	-37.5	4.3	8.39e-01	0	56	104	0	14	22964
2026-01-13 11:04:48.46	125.77	12.68	-20.7	-33.9	4.0	8.43e-01	0	56	104	0	14	15075
2026-01-13 11:04:49.47	125.69	12.77	-24.9	-36.5	4.1	8.37e-01	0	56	104	0	14	20412
2026-01-13 11:04:50.47	125.61	12.86	-22.0	-35.0	4.0	8.45e-01	0	56	104	0	16	15372
2026-01-13 11:04:51.48	125.53	12.95	-23.5	-35.2	4.1	8.41e-01	0	56	104	0	15	16529
2026-01-13 11:04:52.49	125.45	13.04	-23.0	-35.5	3.9	8.41e-01	0	56	104	0	14	18138
2026-01-13 11:04:53.50	125.37	13.13	-21.1	-33.6	4.3	8.38e-01	0	56	104	0	16	12989
2026-01-13 11:04:54.51	125.28	13.23	-24.0	-36.2	4.3	8.34e-01	0	56	104	0	20	13909
2026-01-13 11:04:55.52	125.20	13.32	-25.6	-38.3	4.7	8.35e-01	0	57	104	0	22	15888
2026-01-13 11:04:56.53	125.12	13.41	-23.2	-36.7	4.6	8.37e-01	0	56	104	0	22	13173
2026-01-13 11:04:57.54	125.03	13.50	-27.9	-38.3	4.8	8.28e-01	0	57	104	0	27	11948
2026-01-13 11:04:58.56	124.95	13.60	-29.4	-40.5	5.3	8.15e-01	0	57	104	0	27	15277
2026-01-13 11:04:59.57	124.86	13.69	-35.1	-41.0	5.9	6.74e-01	0	57	0	0	28	15360
2026-01-13 11:05:00.57	124.77	13.78	-30.6	-40.6	8.1	7.81e-01	0	57	0	2097152	28	14705
2026-01-13 11:05:01.58	124.69	13.88	-32.3	-39.7	5.7	4.17e-01	0	56	0	4194304	28	13194
2026-01-13 11:05:02.59	124.60	13.97	-21.9	-39.6	4.9	6.45e-01	0	57	0	6291456	25	15537
2026-01-13 11:05:03.60	124.51	14.06	-29.6	-39.6	6.1	5.57e-01	0	57	0	8388608	29	12265
2026-01-13 11:05:04.61	124.42	14.16	-28.9	-40.5	7.4	5.82e-01	0	56	0	10485760	28	14465
2026-01-13 11:05:05.62	124.33	14.25	-25.4	-37.4	4.5	6.99e-01	0	57	0	11534336	22	14318
2026-01-13 11:05:06.63	124.24	14.35	-27.9	-39.8	6.0	6.23e-01	0	57	0	13631488	26	15010
2026-01-13 11:05:07.64	124.15	14.44	-30.4	-40.4	5.4	4.02e-01	0	57	0	16777216	26	16000
2026-01-13 11:05:08.65	124.06	14.54	-30.0	-41.4	9.3	6.62e-02	0	57	0	23068672	38	9020
2026-01-13 11:05:09.66	123.97	14.64	-32.5	-41.4	9.8	1.20e-01	0	57	0	28311552	41	7623
2026-01-13 11:05:10.67	123.88	14.73	-33.8	-41.4	11.4	6.68e-02	0	57	0	33554432	41	7623
2026-01-13 11:05:11.68	123.79	14.83	-37.8	-41.8	11.4	2.13e-02	0	57	0	38797312	46	5989
2026-01-13 11:05:12.69	123.69	14.93	-36.7	-41.3	9.7	8.90e-02	0	57	0	44040192	36	10059
2026-01-13 11:05:13.70	123.60	15.02	-35.9	-41.3	10.1	4.56e-02	0	57	0	49283072	42	7041
2026-01-13 11:05:14.71	123.50	15.12	-36.8	-41.4	11.6	3.07e-02	0	57	0	55574528	45	6053
2026-01-13 11:05:15.72	123.41	15.22	-34.8	-41.0	12.4	4.49e-02	0	57	0	60817408	42	6859
2026-01-13 11:05:16.73	123.31	15.32	-33.3	-41.0	11.6	6.30e-02	0	57	0	66060288	45	5733
2026-01-13 11:05:17.74	123.22	15.42	-38.6	-41.2	12.7	2.66e-02	0	57	0	72351744	47	5228
2026-01-13 11:05:18.75	123.12	15.52	-36.2	-41.1	11.7	5.06e-02	0	57	0	77594624	46	5509
2026-01-13 11:05:19.76	123.02	15.61	-38.6	-41.1	13.0	6.72e-03	0	57	0	83886080	47	5188
2026-01-13 11:05:20.77	122.92	15.71	-38.5	-41.0	13.0	1.51e-02	0	57	0	89128960	47	5136
2026-01-13 11:05:21.78	122.82	15.81	-36.4	-40.9	12.7	2.89e-03	0	57	0	94371840	45	5667
2026-01-13 11:05:22.79	122.72	15.91	-39.1	-41.4	12.7	6.66e-03	0	57	0	100663296	47	5394
2026-01-13 11:05:23.80	122.62	16.02	-38.4	-40.9	13.3	4.00e-03	0	57	0	105906176	47	5061
2026-01-13 11:05:24.81	122.52	16.12	-38.0	-40.9	12.6	5.61e-03	0	57	0	112197632	47	5093
2026-01-13 11:05:25.82	122.42	16.22	-38.5	-40.9	13.2	1.58e-03	0	57	0	117440512	47	5089
2026-01-13 11:05:26.83	122.32	16.32	-38.5	-40.8	13.4	2.00e-03	0	57	0	122683392	47	5034
2026-01-13 11:05:27.84	122.21	16.42	-38.0	-40.9	12.3	6.64e-03	0	57	0	128974848	47	5058
2026-01-13 11:05:28.85	122.11	16.52	-38.4	-40.8	13.6	8.29e-03	0	57	0	134217728	47	4988
2026-01-13 11:05:29.86	122.01	16.63	-37.9	-40.7	13.6	8.37e-03	0	57	0	140509184	47	4935
2026-01-13 11:05:30.87	121.90	16.73	-38.4	-40.7	13.7	1.30e-03	0	57	0	145752064	47	4977
2026-01-13 11:05:31.88	121.79	16.83	-38.4	-40.7	13.7	1.00e-03	0	57	0	152043520	47	4934
2026-01-13 11:05:32.89	121.69	16.93	-36.9	-40.4	12.1	4.58e-04	0	57	0	157286400	47	4766
2026-01-13 11:05:33.90	121.58	17.04	-38.4	-40.7	13.6	9.72e-04	0	57	0	163577856	47	4966
2026-01-13 11:05:34.91	121.47	17.14	-38.4	-40.8	13.6	1.00e-03	0	57	0	168820736	47	5013
2026-01-13 11:05:35.92	121.36	17.25	-38.5	-40.7	13.6	8.43e-04	0	57	0	174063616	47	4981
2026-01-13 11:05:36.93	121.25	17.35	-38.4	-40.7	13.8	5.22e-03	0	57	0	180355072	47	4959
2026-01-13 11:05:37.94	121.14	17.46	-38.4	-40.6	12.4	2.23e-03	0	57	0	185597952	47	4921
2026-01-13 11:05:38.95	121.03	17.56	-38.2	-40.6	13.3	1.22e-02	0	57	0	191889408	46	5191
2026-01-13 11:05:39.96	120.92	17.67	-37.7	-40.3	12.8	1.31e-02	0	57	0	197132288	46	5029
2026-01-13 11:05:40.97	120.80	17.77	-36.5	-39.9	10.2	1.42e-02	0	57	0	202375168	43	5657
2026-01-13 11:05:41.98	120.69	17.88	-37.7	-40.2	12.4	5.29e-02	0	57	0	208666624	45	5240
2026-01-13 11:05:42.99	120.57	17.99	-37.9	-40.4	13.9	2.13e-02	0	57	0	213909504	47	4800
2026-01-13 11:05:44.00	120.46	18.10	-37.7	-40.4	12.6	4.87e-03	0	57	0	220200960	46	5088
2026-01-13 11:05:45.00	120.34	18.20	-37.5	-40.5	12.4	3.33e-02	0	57	0	225443840	46	5112
2026-01-13 11:05:46.01	120.23	18.31	-38.1	-40.8	12.5	5.87e-03	0	57	0	230686720	46	5289
2026-01-13 11:05:47.02	120.11	18.42	-38.1	-40.5	13.5	8.65e-03	0	57	0	236978176	46	5156
2026-01-13 11:05:48.03	119.99	18.53	-38.2	-40.5	13.8	4.59e-03	0	57	0	242221056	46	5103
2026-01-13 11:05:49.04	119.87	18.64	-37.7	-40.4	13.8	1.08e-02	0	57	0	248512512	46	5096
2026-01-13 11:05:50.05	119.75	18.75	-38.1	-40.4	14.1	2.93e-03	0	58	0	253755392	46	5086
2026-01-13 11:05:51.06	119.63	18.86	-38.1	-40.3	14.1	1.96e-04	0	57	0	258998272	46	5020
2026-01-13 11:05:52.07	119.50	18.97	-38.0	-40.3	14.1	5.65e-04	0	57	0	265289728	46	4999
2026-01-13 11:05:53.08	119.38	19.08	-38.0	-40.0	14.6	5.37e-05	0	58	0	270532608	46	4870
2026-01-13 11:05:54.09	119.25	19.19	-37.9	-40.0	14.6	6.80e-06	0	57	0	276824064	46	4842
2026-01-13 11:05:55.10	119.13	19.30	-37.9	-39.9	14.7	0.00e+00	0	58	0	282066944	46	4792
2026-01-13 11:05:56.11	119.00	19.41	-37.8	-39.8	14.8	0.00e+00	0	57	0	288358400	46	4756
2026-01-13 11:05:57.12	118.88	19.52	-37.8	-39.8	14.9	3.13e-04	0	57	0	293601280	46	4749
2026-01-13 11:05:58.13	118.75	19.63	-37.6	-39.6	15.1	0.00e+00	0	57	0	298844160	46	4626
2026-01-13 11:05:59.15	118.62	19.75	-37.7	-39.7	14.8	2.68e-04	0	57	0	305135616	46	4662
2026-01-13 11:06:00.16	118.49	19.86	-37.6	-39.6	14.9	2.63e-05	0	57	0	310378496	46	4648
2026-01-13 11:06:01.16	118.36	19.97	-37.6	-39.6	15.0	6.80e-06	0	58	0	316669952	46	4646
2026-01-13 11:06:02.18	118.22	20.09	-37.7	-39.7	14.9	5.70e-06	0	58	0	321912832	46	4681
2026-01-13 11:06:03.19	118.09	20.20	-37.7	-39.7	14.9	2.20e-06	0	58	0	327155712	46	4690
2026-01-13 11:06:04.19	117.96	20.31	-37.7	-39.7	14.9	4.50e-06	0	58	0	333447168	46	4696
2026-01-13 11:06:05.20	117.82	20.43	-37.8	-39.8	14.8	0.00e+00	0	58	0	338690048	46	4742
2026-01-13 11:06:06.21	117.69	20.54	-37.8	-39.8	14.9	1.10e-06	0	58	0	344981504	46	4750
2026-01-13 11:06:07.22	117.55	20.66	-37.8	-39.8	14.9	0.00e+00	0	58	0	350224384	46	4738
2026-01-13 11:06:08.23	117.41	20.77	-37.8	-39.8	14.9	0.00e+00	0	57	0	355467264	46	4755
2026-01-13 11:06:09.24	117.27	20.89	-37.8	-39.8	15.0	0.00e+00	0	58	0	361758720	46	4726
2026-01-13 11:06:10.25	117.13	21.01	-37.7	-39.7	15.0	0.00e+00	0	57	0	367001600	46	4673
2026-01-13 11:06:11.26	116.99	21.12	-37.6	-39.6	15.1	0.00e+00	0	58	0	373293056	46	4633
2026-01-13 11:06:12.27	116.85	21.24	-37.5	-39.5	15.2	1.10e-06	0	57	0	378535936	46	4552
2026-01-13 11:06:13.28	116.70	21.36	-37.4	-39.3	15.3	9.10e-06	0	57	0	384827392	46	4493
2026-01-13 11:06:14.29	116.56	21.48	-37.3	-39.3	15.4	4.50e-06	0	58	0	390070272	46	4458
2026-01-13 11:06:15.30	116.41	21.59	-37.2	-39.1	15.5	1.10e-06	0	58	0	396361728	46	4385
2026-01-13 11:06:16.31	116.26	21.71	-37.2	-39.1	15.5	1.10e-06	0	58	0	401604608	46	4372
2026-01-13 11:06:17.32	116.12	21.83	-37.2	-39.1	15.6	2.20e-06	0	58	0	406847488	46	4371
2026-01-13 11:06:18.33	115.97	21.95	-37.2	-39.1	15.6	0.00e+00	0	58	0	413138944	46	4355
2026-01-13 11:06:19.34	115.82	22.07	-37.2	-39.1	15.6	0.00e+00	0	57	0	418381824	46	4345
2026-01-13 11:06:20.35	115.66	22.19	-37.2	-39.1	15.6	4.50e-06	0	58	0	424673280	46	4364
2026-01-13 11:06:21.36	115.51	22.31	-37.2	-39.0	15.7	0.00e+00	0	58	0	429916160	46	4323
2026-01-13 11:06:22.37	115.36	22.43	-37.2	-39.1	15.7	0.00e+00	0	58	0	435159040	46	4365
2026-01-13 11:06:23.38	115.20	22.55	-37.1	-39.0	15.8	0.00e+00	0	58	0	441450496	46	4308
2026-01-13 11:06:24.39	115.05	22.67	-37.1	-39.0	15.8	0.00e+00	0	58	0	446693376	46	4292
2026-01-13 11:06:25.40	114.89	22.79	-37.1	-38.9	15.9	1.10e-06	0	58	0	452984832	46	4277
2026-01-13 11:06:26.41	114.73	22.92	-37.1	-38.9	15.9	0.00e+00	0	58	0	458227712	46	4272
2026-01-13 11:06:27.41	114.57	23.04	-37.1	-39.0	15.9	0.00e+00	0	58	0	463470592	46	4298
2026-01-13 11:06:28.42	114.41	23.16	-37.2	-39.0	15.8	0.00e+00	0	58	0	469762048	46	4312
2026-01-13 11:06:29.43	114.25	23.28	-37.2	-39.0	15.8	0.00e+00	0	58	0	475004928	46	4317
2026-01-13 11:06:30.44	114.08	23.41	-37.2	-39.0	15.8	0.00e+00	0	58	0	481296384	46	4333
2026-01-13 11:06:31.45	113.92	23.53	-37.1	-39.0	15.8	0.00e+00	0	58	0	486539264	46	4311
2026-01-13 11:06:32.46	113.75	23.65	-37.1	-39.0	15.8	0.00e+00	0	58	0	492830720	46	4316
2026-01-13 11:06:33.47	113.58	23.78	-37.1	-39.0	15.8	0.00e+00	0	58	0	498073600	46	4316
2026-01-13 11:06:34.48	113.41	23.90	-37.1	-39.0	15.9	0.00e+00	0	58	0	503316480	46	4302
2026-01-13 11:06:35.49	113.24	24.03	-37.1	-38.9	15.9	0.00e+00	0	58	0	509607936	46	4282
2026-01-13 11:06:36.50	113.07	24.15	-37.1	-38.9	15.9	0.00e+00	0	58	0	514850816	46	4284
2026-01-13 11:06:37.51	112.89	24.28	-37.1	-38.9	15.9	0.00e+00	0	58	0	521142272	46	4278
2026-01-13 11:06:38.52	112.72	24.41	-37.1	-38.9	15.9	0.00e+00	0	58	0	526385152	46	4283
2026-01-13 11:06:39.53	112.54	24.53	-37.0	-38.9	16.0	0.00e+00	0	58	0	531628032	46	4253
2026-01-13 11:06:40.54	112.36	24.66	-37.0	-38.8	16.0	0.00e+00	0	58	0	537919488	46	4240
2026-01-13 11:06:41.55	112.18	24.78	-37.0	-38.8	16.1	0.00e+00	0	58	0	543162368	46	4212
2026-01-13 11:06:42.57	112.00	24.91	-36.9	-38.8	16.1	0.00e+00	0	58	0	549453824	45	4454
2026-01-13 11:06:43.58	111.82	25.04	-36.9	-38.7	16.1	0.00e+00	0	58	0	554696704	45	4435
2026-01-13 11:06:44.59	111.64	25.17	-37.0	-38.8	16.0	0.00e+00	0	58	0	559939584	45	4464
2026-01-13 11:06:45.60	111.45	25.30	-37.0	-38.8	16.1	0.00e+00	0	58	0	566231040	45	4459
2026-01-13 11:06:46.61	111.26	25.42	-36.9	-38.8	16.1	0.00e+00	0	58	0	571473920	45	4446
2026-01-13 11:06:47.62	111.08	25.55	-36.9	-38.8	16.1	0.00e+00	0	58	0	577765376	45	4452
2026-01-13 11:06:48.63	110.89	25.68	-36.9	-38.7	16.1	0.00e+00	0	58	0	583008256	45	4438
2026-01-13 11:06:49.64	110.69	25.81	-36.9	-38.7	16.2	0.00e+00	0	58	0	589299712	45	4393
2026-01-13 11:06:50.65	110.50	25.94	-36.8	-38.6	16.3	0.00e+00	0	58	0	594542592	45	4342
2026-01-13 11:06:51.66	110.31	26.07	-36.8	-38.5	16.3	0.00e+00	0	58	0	600834048	45	4328
2026-01-13 11:06:52.67	110.11	26.20	-36.8	-38.5	16.3	0.00e+00	0	58	0	606076928	45	4339
2026-01-13 11:06:53.68	109.91	26.33	-36.8	-38.6	16.2	0.00e+00	0	58	0	611319808	45	4370
2026-01-13 11:06:54.69	109.71	26.46	-36.8	-38.6	16.2	0.00e+00	0	58	0	617611264	45	4380
2026-01-13 11:06:55.70	109.51	26.59	-36.9	-38.7	16.2	0.00e+00	0	58	0	622854144	45	4395
2026-01-13 11:06:56.71	109.31	26.72	-36.9	-38.7	16.2	0.00e+00	0	58	0	629145600	45	4395
2026-01-13 11:06:57.72	109.10	26.85	-36.9	-38.8	16.1	0.00e+00	0	58	0	634388480	45	4447
2026-01-13 11:06:58.73	108.90	26.99	-37.0	-38.8	16.1	0.00e+00	0	58	0	639631360	45	4454
2026-01-13 11:06:59.74	108.69	27.12	-36.9	-38.7	16.1	0.00e+00	0	58	0	645922816	45	4423
2026-01-13 11:07:00.75	108.48	27.25	-36.9	-38.6	16.2	0.00e+00	0	58	0	651165696	45	4391
2026-01-13 11:07:01.77	108.26	27.38	-36.8	-38.5	16.3	0.00e+00	0	58	0	657457152	45	4340
2026-01-13 11:07:02.78	108.05	27.51	-36.8	-38.5	16.3	0.00e+00	0	58	0	662700032	45	4326
2026-01-13 11:07:03.79	107.84	27.65	-36.7	-38.5	16.4	0.00e+00	0	58	0	667942912	45	4302
2026-01-13 11:07:04.80	107.62	27.78	-36.7	-38.5	16.4	0.00e+00	0	58	0	674234368	45	4312
2026-01-13 11:07:05.81	107.40	27.91	-36.8	-38.5	16.4	0.00e+00	0	58	0	679477248	45	4319
2026-01-13 11:07:06.81	107.18	28.04	-36.8	-38.5	16.4	0.00e+00	0	58	0	685768704	45	4323
2026-01-13 11:07:07.82	106.96	28.18	-36.8	-38.6	16.3	0.00e+00	0	58	0	691011584	45	4366
2026-01-13 11:07:08.83	106.73	28.31	-36.9	-38.7	16.2	0.00e+00	0	58	0	697303040	45	4405
2026-01-13 11:07:09.84	106.51	28.44	-36.9	-38.7	16.2	0.00e+00	0	58	0	702545920	45	4408
2026-01-13 11:07:10.85	106.28	28.58	-36.9	-38.7	16.2	0.00e+00	0	58	0	708837376	45	4402
2026-01-13 11:07:11.86	106.05	28.71	-36.9	-38.7	16.2	0.00e+00	0	58	0	714080256	45	4410
2026-01-13 11:07:12.87	105.82	28.84	-36.8	-38.5	16.4	0.00e+00	0	58	0	719323136	45	4338
2026-01-13 11:07:13.88	105.58	28.98	-36.7	-38.4	16.5	0.00e+00	0	58	0	725614592	45	4279
2026-01-13 11:07:14.89	105.35	29.11	-36.6	-38.4	16.5	0.00e+00	0	58	0	730857472	45	4258
2026-01-13 11:07:15.90	105.11	29.25	-36.5	-38.3	16.7	0.00e+00	0	58	0	737148928	45	4197
2026-01-13 11:07:16.91	104.87	29.38	-36.5	-38.2	16.7	0.00e+00	0	58	0	742391808	45	4182
2026-01-13 11:07:17.92	104.63	29.52	-36.5	-38.2	16.7	0.00e+00	0	58	0	747634688	45	4166
2026-01-13 11:07:18.93	104.38	29.65	-36.5	-38.2	16.7	0.00e+00	0	58	0	753926144	45	4188
2026-01-13 11:07:19.94	104.14	29.78	-36.6	-38.3	16.6	0.00e+00	0	58	0	759169024	45	4208
2026-01-13 11:07:20.95	103.89	29.92	-36.7	-38.4	16.5	0.00e+00	0	58	0	765460480	45	4265
2026-01-13 11:07:21.96	103.64	30.05	-36.7	-38.4	16.5	0.00e+00	0	58	0	770703360	45	4269
2026-01-13 11:07:22.97	103.39	30.19	-36.7	-38.4	16.5	0.00e+00	0	58	0	775946240	45	4263
2026-01-13 11:07:23.97	103.14	30.32	-36.6	-38.3	16.7	0.00e+00	0	58	0	782237696	45	4199
2026-01-13 11:07:24.98	102.88	30.45	-36.5	-38.2	16.7	0.00e+00	0	58	0	787480576	45	4172
2026-01-13 11:07:25.99	102.62	30.59	-36.5	-38.2	16.8	0.00e+00	0	58	0	793772032	45	4162
2026-01-13 11:07:27.00	102.36	30.72	-36.5	-38.1	16.8	0.00e+00	0	58	0	799014912	44	4387
2026-01-13 11:07:28.01	102.10	30.86	-36.4	-38.1	16.8	0.00e+00	0	58	0	805306368	44	4389
2026-01-13 11:07:29.02	101.83	30.99	-36.5	-38.1	16.8	0.00e+00	0	58	0	810549248	44	4384
2026-01-13 11:07:30.03	101.56	31.13	-36.5	-38.2	16.8	0.00e+00	0	58	0	815792128	44	4402
2026-01-13 11:07:31.04	101.29	31.26	-36.5	-38.3	16.7	0.00e+00	0	58	0	822083584	44	4442
2026-01-13 11:07:32.05	101.02	31.39	-36.6	-38.3	16.7	0.00e+00	0	58	0	827326464	44	4453
2026-01-13 11:07:33.06	100.75	31.53	-36.5	-38.2	16.7	0.00e+00	0	58	0	833617920	44	4435
2026-01-13 11:07:34.07	100.47	31.66	-36.5	-38.2	16.7	0.00e+00	0	58	0	838860800	44	4435
2026-01-13 11:07:35.08	100.19	31.79	-36.5	-38.2	16.8	0.00e+00	0	58	0	844103680	44	4394
2026-01-13 11:07:36.09	99.91	31.93	-36.4	-38.1	16.9	0.00e+00	0	58	0	850395136	44	4362
2026-01-13 11:07:37.10	99.63	32.06	-36.5	-38.2	16.8	0.00e+00	0	59	0	855638016	44	4405
2026-01-13 11:07:38.10	99.34	32.19	-36.6	-38.3	16.7	0.00e+00	0	58	0	861929472	44	4467
2026-01-13 11:07:39.11	99.06	32.32	-36.5	-38.2	16.7	0.00e+00	0	58	0	867172352	44	4432
2026-01-13 11:07:40.12	98.77	32.46	-36.5	-38.1	16.8	0.00e+00	0	58	0	872415232	44	4387
2026-01-13 11:07:41.13	98.47	32.59	-36.3	-38.0	17.0	0.00e+00	0	58	0	878706688	44	4312
2026-01-13 11:07:42.14	98.18	32.72	-36.3	-37.9	17.0	0.00e+00	0	58	0	883949568	44	4280
2026-01-13 11:07:43.15	97.88	32.85	-36.3	-37.9	17.0	0.00e+00	0	58	0	890241024	44	4283
2026-01-13 11:07:44.16	97.58	32.98	-36.3	-37.9	17.0	0.00e+00	0	58	0	895483904	44	4279
2026-01-13 11:07:45.17	97.28	33.11	-36.2	-37.9	17.1	0.00e+00	0	58	0	901775360	44	4258
2026-01-13 11:07:46.18	96.97	33.25	-36.2	-37.9	17.1	0.00e+00	0	58	0	907018240	44	4257
2026-01-13 11:07:47.19	96.66	33.38	-36.2	-37.9	17.1	0.00e+00	0	58	0	913309696	44	4252
2026-01-13 11:07:48.20	96.35	33.51	-36.1	-37.7	17.2	0.00e+00	0	58	0	918552576	44	4179
2026-01-13 11:07:49.21	96.04	33.63	-36.0	-37.6	17.3	0.00e+00	0	58	0	923795456	44	4131
2026-01-13 11:07:50.22	95.73	33.76	-36.1	-37.7	17.3	0.00e+00	0	58	0	930086912	44	4155
2026-01-13 11:07:51.23	95.41	33.89	-36.2	-37.8	17.1	0.00e+00	0	59	0	935329792	44	4231
2026-01-13 11:07:52.24	95.09	34.02	-36.3	-37.9	17.0	0.00e+00	0	58	0	940572672	44	4277
2026-01-13 11:07:53.25	94.77	34.15	-36.2	-37.9	17.0	0.00e+00	0	58	0	946864128	44	4266
2026-01-13 11:07:54.26	94.44	34.27	-36.2	-37.9	17.1	0.00e+00	0	59	0	952107008	44	4247
2026-01-13 11:07:55.26	94.12	34.40	-36.1	-37.8	17.2	0.00e+00	0	59	0	958398464	44	4200
2026-01-13 11:07:56.27	93.79	34.53	-36.2	-37.8	17.2	0.00e+00	0	59	0	963641344	44	4233
2026-01-13 11:07:57.28	93.45	34.65	-36.2	-37.9	17.1	0.00e+00	0	59	0	968884224	44	4250
2026-01-13 11:07:58.29	93.12	34.78	-36.2	-37.8	17.1	0.00e+00	0	58	0	975175680	44	4240
2026-01-13 11:07:59.30	92.78	34.90	-36.3	-37.9	17.1	0.00e+00	0	59	0	980418560	44	4278
2026-01-13 11:08:00.31	92.44	35.02	-36.4	-38.1	16.9	0.00e+00	0	59	0	986710016	44	4363
2026-01-13 11:08:01.32	92.10	35.15	-36.5	-38.2	16.8	0.00e+00	0	59	0	991952896	44	4418
2026-01-13 11:08:02.33	91.75	35.27	-36.7	-38.4	16.5	0.00e+00	0	59	0	998244352	44	4536
2026-01-13 11:08:03.34	91.40	35.39	-36.6	-38.3	16.6	0.00e+00	0	58	0	1003487232	44	4487
2026-01-13 11:08:04.35	91.05	35.51	-36.5	-38.2	16.8	0.00e+00	0	58	0	1009778688	44	4410
2026-01-13 11:08:05.36	90.70	35.63	-36.4	-38.1	16.9	0.00e+00	0	58	0	1015021568	44	4346
2026-01-13 11:08:06.37	90.34	35.75	-36.4	-38.0	17.0	0.00e+00	0	58	0	1020264448	44	4337
2026-01-13 11:08:07.38	89.98	35.87	-36.3	-38.0	17.0	0.00e+00	0	58	0	1026555904	44	4315
2026-01-13 11:08:08.39	89.62	35.98	-36.3	-38.0	17.0	0.00e+00	0	58	0	1031798784	44	4299
2026-01-13 11:08:09.40	89.26	36.10	-36.2	-37.8	17.1	0.00e+00	0	58	0	1038090240	44	4240
2026-01-13 11:08:10.40	88.90	36.21	-36.2	-37.8	17.2	0.00e+00	0	59	0	1043333120	44	4203
2026-01-13 11:08:11.40	88.53	36.33	-36.2	-37.8	17.2	0.00e+00	0	59	0	1048576000	44	4217
2026-01-13 11:08:12.42	88.15	36.44	-36.2	-37.8	17.2	0.00e+00	0	59	0	1054867456	44	4203
2026-01-13 11:08:13.43	87.78	36.56	-36.4	-38.0	17.0	0.00e+00	0	59	0	1060110336	44	4313
2026-01-13 11:08:14.44	87.40	36.67	-36.5	-38.1	16.9	0.00e+00	0	59	0	1066401792	44	4384
2026-01-13 11:08:15.45	87.02	36.78	-36.4	-38.1	17.0	0.00e+00	0	59	0	1071644672	44	4345
2026-01-13 11:08:16.46	86.64	36.89	-36.3	-37.9	17.1	0.00e+00	0	59	0	1076887552	44	4289
2026-01-13 11:08:17.47	86.26	37.00	-36.3	-37.9	17.1	0.00e+00	0	59	0	1083179008	44	4272
2026-01-13 11:08:18.48	85.87	37.10	-36.3	-37.9	17.1	0.00e+00	0	59	0	1088421888	44	4277
2026-01-13 11:08:19.49	85.48	37.21	-36.3	-38.0	17.0	0.00e+00	0	59	0	1094713344	44	4302
2026-01-13 11:08:20.50	85.09	37.31	-36.4	-38.1	16.9	0.00e+00	0	59	0	1099956224	44	4363
2026-01-13 11:08:21.51	84.69	37.42	-36.5	-38.3	16.8	0.00e+00	0	59	0	1106247680	44	4442
2026-01-13 11:08:22.52	84.30	37.52	-36.6	-38.3	16.7	0.00e+00	0	59	0	1111490560	44	4489
2026-01-13 11:08:23.53	83.90	37.62	-36.5	-38.2	16.9	0.00e+00	0	59	0	1116733440	44	4407
2026-01-13 11:08:24.54	83.49	37.72	-36.4	-38.1	17.0	0.00e+00	0	59	0	1123024896	44	4355
2026-01-13 11:08:25.55	83.09	37.82	-36.3	-38.0	17.1	0.00e+00	0	59	0	1128267776	44	4294
2026-01-13 11:08:26.56	82.68	37.92	-36.3	-37.9	17.1	0.00e+00	0	58	0	1134559232	44	4278
2026-01-13 11:08:27.56	82.28	38.01	-36.2	-37.8	17.2	0.00e+00	0	59	0	1139802112	44	4228
2026-01-13 11:08:28.57	81.87	38.11	-36.2	-37.8	17.3	0.00e+00	0	59	0	1145044992	44	4212
2026-01-13 11:08:29.58	81.45	38.20	-36.1	-37.8	17.3	0.00e+00	0	59	0	1151336448	44	4199
2026-01-13 11:08:30.60	81.03	38.29	-36.2	-37.8	17.2	0.00e+00	0	59	0	1156579328	44	4240
2026-01-13 11:08:31.60	80.62	38.38	-36.3	-37.9	17.2	0.00e+00	0	59	0	1162870784	44	4267
2026-01-13 11:08:32.61	80.19	38.47	-36.4	-38.0	17.1	0.00e+00	0	59	0	1168113664	44	4309
2026-01-13 11:08:33.62	79.77	38.56	-36.4	-38.1	17.0	0.00e+00	0	59	0	1173356544	44	4354
2026-01-13 11:08:34.63	79.35	38.64	-36.5	-38.2	16.9	0.00e+00	0	58	0	1179648000	44	4394
2026-01-13 11:08:35.64	78.92	38.72	-36.4	-38.0	17.0	0.00e+00	0	59	0	1184890880	44	4337
2026-01-13 11:08:36.65	78.49	38.81	-36.3	-37.9	17.2	0.00e+00	0	58	0	1191182336	44	4271
2026-01-13 11:08:37.66	78.05	38.89	-36.3	-37.9	17.2	0.00e+00	0	58	0	1196425216	44	4266
2026-01-13 11:08:38.67	77.62	38.97	-36.4	-38.0	17.0	0.00e+00	0	59	0	1202716672	44	4338
2026-01-13 11:08:39.68	77.18	39.04	-36.4	-38.1	17.1	0.00e+00	0	59	0	1207959552	44	4345
2026-01-13 11:08:40.69	76.74	39.12	-36.2	-37.8	17.2	0.00e+00	0	59	0	1214251008	44	4234
2026-01-13 11:08:41.70	76.30	39.19	-36.1	-37.7	17.3	0.00e+00	0	59	0	1219493888	44	4192
2026-01-13 11:08:42.71	75.86	39.26	-36.3	-37.9	17.2	0.00e+00	0	59	0	1224736768	44	4259
2026-01-13 11:08:43.72	75.42	39.33	-36.5	-38.1	17.0	0.00e+00	0	59	0	1231028224	44	4387
2026-01-13 11:08:44.73	74.97	39.40	-36.5	-38.2	16.9	0.00e+00	0	59	0	1236271104	44	4412
2026-01-13 11:08:45.73	74.53	39.47	-36.4	-38.0	17.1	0.00e+00	0	58	0	1242562560	44	4322
2026-01-13 11:08:46.74	74.08	39.53	-36.2	-37.8	17.3	0.00e+00	0	59	0	1247805440	44	4239
2026-01-13 11:08:47.75	73.63	39.59	-36.3	-37.9	17.3	0.00e+00	0	59	0	1253048320	44	4245
2026-01-13 11:08:48.76	73.17	39.65	-36.2	-37.8	17.3	0.00e+00	0	59	0	1259339776	44	4225
2026-01-13 11:08:49.77	72.72	39.71	-36.0	-37.6	17.5	0.00e+00	0	59	0	1264582656	44	4124
2026-01-13 11:08:50.78	72.26	39.77	-35.8	-37.3	17.6	0.00e+00	0	59	0	1269825536	43	4227
2026-01-13 11:08:51.79	71.80	39.82	-35.9	-37.5	17.4	0.00e+00	0	59	0	1276116992	43	4317
2026-01-13 11:08:52.80	71.34	39.88	-36.2	-37.8	17.1	0.00e+00	0	59	0	1281359872	43	4482
2026-01-13 11:08:53.81	70.88	39.93	-36.3	-38.0	17.0	0.00e+00	0	59	0	1287651328	43	4571
2026-01-13 11:08:54.82	70.42	39.98	-36.3	-38.0	17.0	0.00e+00	0	59	0	1292894208	43	4566
2026-01-13 11:08:55.83	69.95	40.02	-36.3	-37.9	17.1	0.00e+00	0	59	0	1299185664	43	4515
2026-01-13 11:08:56.84	69.49	40.07	-36.2	-37.8	17.2	0.00e+00	0	59	0	1304428544	43	4487
2026-01-13 11:08:57.85	69.02	40.11	-36.3	-38.0	17.0	0.00e+00	0	59	0	1310720000	43	4559
2026-01-13 11:08:58.86	68.55	40.15	-36.3	-38.0	17.0	0.00e+00	0	59	0	1315962880	43	4555
2026-01-13 11:08:59.86	68.09	40.19	-36.2	-37.8	17.2	0.00e+00	0	59	0	1321205760	43	4442
2026-01-13 11:09:00.87	67.62	40.22	-36.2	-37.8	17.2	0.00e+00	0	59	0	1327497216	43	4443
2026-01-13 11:09:01.88	67.15	40.26	-36.2	-37.8	17.2	0.00e+00	0	59	0	1332740096	43	4483
2026-01-13 11:09:02.89	66.68	40.29	-36.3	-37.9	17.1	0.00e+00	0	59	0	1339031552	43	4525
2026-01-13 11:09:03.90	66.20	40.32	-36.3	-37.9	17.0	0.00e+00	0	59	0	1344274432	43	4537
2026-01-13 11:09:04.91	65.73	40.35	-36.2	-37.8	17.1	0.00e+00	0	59	0	1349517312	43	4490
2026-01-13 11:09:05.92	65.25	40.37	-36.2	-37.8	17.2	0.00e+00	0	59	0	1355808768	43	4466
2026-01-13 11:09:06.93	64.78	40.39	-36.3	-38.0	17.0	0.00e+00	0	59	0	1361051648	43	4565
2026-01-13 11:09:07.94	64.30	40.42	-36.3	-38.0	17.0	0.00e+00	0	59	0	1367343104	43	4548
2026-01-13 11:09:08.94	63.83	40.43	-36.2	-37.7	17.2	0.00e+00	0	59	0	1372585984	43	4440
2026-01-13 11:09:09.95	63.36	40.45	-36.2	-37.8	17.2	0.00e+00	0	59	0	1377828864	43	4461
2026-01-13 11:09:10.96	62.88	40.46	-36.2	-37.8	17.2	0.00e+00	0	59	0	1384120320	43	4468
2026-01-13 11:09:11.97	62.40	40.48	-36.0	-37.6	17.4	0.00e+00	0	59	0	1389363200	43	4363
2026-01-13 11:09:12.98	61.92	40.49	-35.9	-37.4	17.6	0.00e+00	0	59	0	1395654656	43	4285
2026-01-13 11:09:13.99	61.44	40.49	-36.1	-37.7	17.4	0.00e+00	0	59	0	1400897536	43	4397
2026-01-13 11:09:15.00	60.97	40.50	-36.3	-37.9	17.1	0.00e+00	0	59	0	1407188992	43	4524
2026-01-13 11:09:16.01	60.49	40.50	-36.2	-37.9	17.2	0.00e+00	0	59	0	1412431872	43	4496
2026-01-13 11:09:17.02	60.01	40.50	-36.1	-37.6	17.4	0.00e+00	0	59	0	1417674752	43	4370
2026-01-13 11:09:18.02	59.54	40.50	-35.8	-37.3	17.7	0.00e+00	0	59	0	1423966208	43	4211
2026-01-13 11:09:19.03	59.06	40.49	-36.0	-37.5	17.4	0.00e+00	0	59	0	1429209088	43	4334
2026-01-13 11:09:20.04	58.58	40.49	-36.2	-37.8	17.2	0.00e+00	0	59	0	1435500544	43	4459
2026-01-13 11:09:21.05	58.10	40.48	-36.2	-37.8	17.2	0.00e+00	0	59	0	1440743424	43	4456
2026-01-13 11:09:22.06	57.62	40.47	-36.1	-37.7	17.3	0.00e+00	0	59	0	1445986304	43	4423
2026-01-13 11:09:23.07	57.15	40.46	-36.1	-37.7	17.3	0.00e+00	0	59	0	1452277760	43	4401
2026-01-13 11:09:24.08	56.67	40.44	-36.2	-37.8	17.2	0.00e+00	0	59	0	1457520640	43	4443
2026-01-13 11:09:25.09	56.19	40.42	-36.2	-37.8	17.2	0.00e+00	0	59	0	1463812096	43	4474
2026-01-13 11:09:26.10	55.72	40.40	-36.2	-37.8	17.2	0.00e+00	0	59	0	1469054976	43	4473
2026-01-13 11:09:27.11	55.24	40.38	-36.2	-37.8	17.2	0.00e+00	0	59	0	1474297856	43	4455
2026-01-13 11:09:28.11	54.77	40.36	-36.1	-37.7	17.3	0.00e+00	0	59	0	1480589312	43	4393
2026-01-13 11:09:29.12	54.30	40.33	-36.1	-37.7	17.3	0.00e+00	0	59	0	1485832192	43	4430
2026-01-13 11:09:30.13	53.83	40.30	-36.1	-37.7	17.3	0.00e+00	0	59	0	1492123648	43	4434
2026-01-13 11:09:31.14	53.35	40.27	-36.0	-37.6	17.4	0.00e+00	0	59	0	1497366528	43	4353
2026-01-13 11:09:32.15	52.88	40.24	-35.8	-37.3	17.7	0.00e+00	0	59	0	1503657984	43	4205
2026-01-13 11:09:33.16	52.41	40.20	-35.8	-37.3	17.7	0.00e+00	0	59	0	1508900864	43	4218
2026-01-13 11:09:34.17	51.94	40.17	-35.9	-37.4	17.5	0.00e+00	0	59	0	1514143744	43	4284
2026-01-13 11:09:35.18	51.48	40.13	-35.9	-37.5	17.5	0.00e+00	0	59	0	1520435200	43	4310
2026-01-13 11:09:36.18	51.01	40.08	-35.9	-37.5	17.5	0.00e+00	0	59	0	1525678080	43	4316
2026-01-13 11:09:37.20	50.54	40.04	-35.9	-37.4	17.5	0.00e+00	0	59	0	1531969536	43	4284
2026-01-13 11:09:38.21	50.08	39.99	-36.0	-37.6	17.3	0.00e+00	0	59	0	1537212416	43	4364
2026-01-13 11:09:39.21	49.62	39.95	-36.2	-37.8	17.1	0.00e+00	0	59	0	1542455296	43	4487
2026-01-13 11:09:40.22	49.16	39.90	-36.3	-37.9	17.1	0.00e+00	0	59	0	1548746752	43	4536
2026-01-13 11:09:41.23	48.70	39.85	-36.3	-37.9	17.1	0.00e+00	0	59	0	1553989632	43	4523
2026-01-13 11:09:42.24	48.24	39.79	-36.1	-37.7	17.3	0.00e+00	0	59	0	1560281088	43	4414
2026-01-13 11:09:43.25	47.79	39.74	-35.9	-37.4	17.5	0.00e+00	0	59	0	1565523968	43	4291
2026-01-13 11:09:44.26	47.33	39.68	-35.9	-37.4	17.6	0.00e+00	0	59	0	1570766848	43	4276
2026-01-13 11:09:45.27	46.88	39.62	-35.9	-37.5	17.5	0.00e+00	0	59	0	1577058304	43	4311
2026-01-13 11:09:46.28	46.42	39.56	-35.8	-37.3	17.6	0.00e+00	0	59	0	1582301184	43	4231
2026-01-13 11:09:47.29	45.97	39.49	-35.6	-37.1	17.8	0.00e+00	0	59	0	1588592640	43	4128
2026-01-13 11:09:48.30	45.53	39.43	-35.6	-37.1	17.8	0.00e+00	0	59	0	1593835520	43	4117
2026-01-13 11:09:49.31	45.08	39.36	-35.7	-37.3	17.7	0.00e+00	0	59	0	1600126976	43	4195
2026-01-13 11:09:50.32	44.64	39.29	-35.9	-37.4	17.5	0.00e+00	0	59	0	1605369856	43	4287
2026-01-13 11:09:51.33	44.19	39.22	-36.0	-37.5	17.4	0.00e+00	0	59	0	1610612736	43	4335
2026-01-13 11:09:52.34	43.75	39.15	-36.1	-37.6	17.3	0.00e+00	0	59	0	1616904192	43	4389
2026-01-13 11:09:53.35	43.31	39.07	-36.1	-37.7	17.2	0.00e+00	0	59	0	1622147072	43	4425
2026-01-13 11:09:54.36	42.88	39.00	-36.1	-37.7	17.2	0.00e+00	0	59	0	1628438528	43	4438
2026-01-13 11:09:55.37	42.44	38.92	-36.0	-37.6	17.3	0.00e+00	0	59	0	1633681408	43	4380
2026-01-13 11:09:56.37	42.01	38.84	-35.9	-37.5	17.4	0.00e+00	0	59	0	1638924288	43	4317
2026-01-13 11:09:57.38	41.58	38.76	-35.7	-37.2	17.7	0.00e+00	0	59	0	1645215744	43	4185
2026-01-13 11:09:58.39	41.16	38.68	-35.6	-37.1	17.9	0.00e+00	0	59	0	1650458624	43	4105
2026-01-13 11:09:59.40	40.73	38.59	-35.6	-37.1	17.8	0.00e+00	0	59	0	1656750080	43	4112
2026-01-13 11:10:00.41	40.31	38.50	-35.7	-37.3	17.6	0.00e+00	0	59	0	1661992960	43	4210
2026-01-13 11:10:01.42	39.89	38.42	-35.8	-37.4	17.5	0.00e+00	0	59	0	1667235840	43	4267
2026-01-13 11:10:02.43	39.47	38.33	-35.9	-37.4	17.5	0.00e+00	0	59	0	1673527296	43	4271
2026-01-13 11:10:03.44	39.05	38.24	-35.8	-37.3	17.6	0.00e+00	0	59	0	1678770176	43	4214
2026-01-13 11:10:04.45	38.64	38.14	-35.7	-37.3	17.7	0.00e+00	0	59	0	1685061632	43	4202
2026-01-13 11:10:05.46	38.22	38.05	-35.8	-37.4	17.6	0.00e+00	0	59	0	1690304512	43	4247
2026-01-13 11:10:06.47	37.81	37.96	-35.9	-37.5	17.4	0.00e+00	0	59	0	1696595968	43	4296
2026-01-13 11:10:07.48	37.41	37.86	-36.0	-37.5	17.4	0.00e+00	0	59	0	1701838848	43	4332
2026-01-13 11:10:08.49	37.00	37.76	-36.0	-37.6	17.4	0.00e+00	0	59	0	1708130304	43	4342
2026-01-13 11:10:09.50	36.60	37.66	-36.0	-37.5	17.4	0.00e+00	0	59	0	1713373184	43	4331
2026-01-13 11:10:10.51	36.20	37.56	-35.9	-37.5	17.4	0.00e+00	0	59	0	1718616064	43	4305
2026-01-13 11:10:11.52	35.80	37.46	-35.8	-37.3	17.5	0.00e+00	0	59	0	1724907520	43	4242
2026-01-13 11:10:12.53	35.41	37.36	-35.7	-37.3	17.6	0.00e+00	0	59	0	1730150400	43	4198
2026-01-13 11:10:13.54	35.02	37.25	-35.7	-37.2	17.6	0.00e+00	0	59	0	1736441856	43	4191
2026-01-13 11:10:14.55	34.63	37.15	-35.8	-37.3	17.6	0.00e+00	0	59	0	1741684736	43	4241
2026-01-13 11:10:15.56	34.24	37.04	-35.8	-37.4	17.5	0.00e+00	0	59	0	1746927616	43	4243
2026-01-13 11:10:16.57	33.85	36.93	-35.8	-37.4	17.5	0.00e+00	0	59	0	1753219072	43	4266
2026-01-13 11:10:17.58	33.47	36.83	-36.0	-37.6	17.3	0.00e+00	0	59	0	1758461952	43	4346
2026-01-13 11:10:18.59	33.09	36.72	-36.1	-37.6	17.6	0.00e+00	0	59	0	1764753408	43	4350
2026-01-13 11:10:19.60	32.72	36.61	-36.1	-37.5	17.6	0.00e+00	0	59	0	1769996288	43	4325
2026-01-13 11:10:20.61	32.34	36.49	-36.1	-37.5	17.6	0.00e+00	0	59	0	1775239168	43	4339
2026-01-13 11:10:21.62	31.97	36.38	-36.1	-37.5	17.7	0.00e+00	0	59	0	1781530624	43	4328
2026-01-13 11:10:22.63	31.60	36.27	-36.1	-37.6	17.6	0.00e+00	0	59	0	1786773504	43	4367
2026-01-13 11:10:23.64	31.23	36.15	-36.1	-37.6	17.6	0.00e+00	0	59	0	1793064960	43	4365
2026-01-13 11:10:24.65	30.87	36.04	-36.1	-37.5	17.6	0.00e+00	0	59	0	1798307840	43	4333
2026-01-13 11:10:25.66	30.51	35.92	-36.2	-37.6	17.6	0.00e+00	0	59	0	1804599296	43	4371
2026-01-13 11:10:26.67	30.15	35.80	-36.2	-37.7	17.5	0.00e+00	0	59	0	1809842176	43	4421
2026-01-13 11:10:27.68	29.79	35.68	-36.3	-37.8	17.4	0.00e+00	0	59	0	1816133632	43	4471
2026-01-13 11:10:28.69	29.44	35.57	-36.2	-37.7	17.5	0.00e+00	0	59	0	1821376512	43	4418
2026-01-13 11:10:29.70	29.09	35.45	-36.1	-37.5	17.7	0.00e+00	0	59	0	1826619392	43	4316
2026-01-13 11:10:30.71	28.74	35.32	-36.0	-37.4	17.8	0.00e+00	0	59	0	1832910848	43	4259
2026-01-13 11:10:31.72	28.40	35.20	-36.0	-37.5	17.7	0.00e+00	0	59	0	1838153728	43	4295
2026-01-13 11:10:32.73	28.05	35.08	-36.1	-37.5	17.7	0.00e+00	0	59	0	1844445184	43	4316
2026-01-13 11:10:33.74	27.71	34.96	-36.0	-37.5	17.7	0.00e+00	0	59	0	1849688064	43	4299
2026-01-13 11:10:34.75	27.38	34.84	-36.0	-37.4	17.7	0.00e+00	0	59	0	1854930944	43	4273
2026-01-13 11:10:35.76	27.04	34.71	-36.0	-37.4	17.8	0.00e+00	0	59	0	1861222400	43	4271
2026-01-13 11:10:36.77	26.71	34.59	-36.1	-37.6	17.6	0.00e+00	0	59	0	1866465280	43	4347
2026-01-13 11:10:37.78	26.38	34.46	-36.1	-37.6	17.6	0.00e+00	0	59	0	1872756736	43	4345
2026-01-13 11:10:38.79	26.05	34.34	-36.1	-37.5	17.7	0.00e+00	0	59	0	1877999616	43	4318
2026-01-13 11:10:39.80	25.73	34.21	-36.0	-37.4	17.8	0.00e+00	0	59	0	1883242496	43	4244
2026-01-13 11:10:40.81	25.40	34.08	-35.9	-37.4	17.8	0.00e+00	0	59	0	1889533952	43	4247
2026-01-13 11:10:41.82	25.08	33.95	-36.0	-37.4	17.7	0.00e+00	0	59	0	1894776832	43	4288
2026-01-13 11:10:42.83	24.77	33.83	-36.0	-37.5	17.7	0.00e+00	0	59	0	1901068288	43	4305
2026-01-13 11:10:43.84	24.45	33.70	-36.0	-37.4	17.7	0.00e+00	0	59	0	1906311168	43	4287
2026-01-13 11:10:44.85	24.14	33.57	-35.9	-37.4	17.8	0.00e+00	0	59	0	1912602624	43	4251
2026-01-13 11:10:45.86	23.83	33.44	-35.9	-37.4	17.8	0.00e+00	0	59	0	1917845504	43	4246
2026-01-13 11:10:46.87	23.52	33.31	-36.0	-37.5	17.7	0.00e+00	0	59	0	1923088384	43	4294
2026-01-13 11:10:47.88	23.22	33.18	-36.0	-37.5	17.7	0.00e+00	0	59	0	1929379840	43	4313
2026-01-13 11:10:48.89	22.91	33.05	-36.0	-37.5	17.7	0.00e+00	0	59	0	1934622720	43	4309
2026-01-13 11:10:49.89	22.62	32.92	-36.1	-37.5	17.6	0.00e+00	0	59	0	1940914176	43	4317
2026-01-13 11:10:50.91	22.32	32.79	-36.2	-37.6	17.5	0.00e+00	0	59	0	1946157056	43	4374
2026-01-13 11:10:51.92	22.02	32.66	-36.3	-37.8	17.4	0.00e+00	0	59	0	1951399936	43	4454
2026-01-13 11:10:52.93	21.73	32.53	-36.3	-37.8	17.3	0.00e+00	0	59	0	1957691392	43	4473
2026-01-13 11:10:53.94	21.44	32.39	-36.3	-37.8	17.3	0.00e+00	0	59	0	1962934272	43	4466
2026-01-13 11:10:54.95	21.15	32.26	-36.2	-37.7	17.5	0.00e+00	0	59	0	1969225728	43	4403
2026-01-13 11:10:55.96	20.86	32.13	-36.2	-37.6	17.5	0.00e+00	0	59	0	1974468608	43	4389
2026-01-13 11:10:56.97	20.58	32.00	-36.1	-37.6	17.6	0.00e+00	0	59	0	1979711488	43	4354
2026-01-13 11:10:57.98	20.30	31.86	-36.2	-37.6	17.5	0.00e+00	0	59	0	1986002944	43	4379
2026-01-13 11:10:58.99	20.02	31.73	-36.3	-37.7	17.4	0.00e+00	0	59	0	1991245824	43	4440
2026-01-13 11:10:59.99	19.75	31.60	-36.3	-37.8	17.3	0.00e+00	0	59	0	1997537280	43	4472
2026-01-13 11:11:01.00	19.47	31.47	-36.4	-37.9	17.2	0.00e+00	0	59	0	2002780160	43	4498
2026-01-13 11:11:02.01	19.20	31.33	-36.4	-37.9	17.2	0.00e+00	0	59	0	2009071616	43	4530
2026-01-13 11:11:03.02	18.93	31.20	-36.5	-38.0	17.1	0.00e+00	0	59	0	2014314496	43	4574
2026-01-13 11:11:04.03	18.66	31.07	-36.6	-38.1	17.1	0.00e+00	0	59	0	2020605952	43	4614
2026-01-13 11:11:05.04	18.40	30.93	-36.6	-38.1	17.0	0.00e+00	0	59	0	2025848832	43	4645
2026-01-13 11:11:06.05	18.14	30.80	-36.7	-38.2	16.9	0.00e+00	0	59	0	2031091712	43	4690
2026-01-13 11:11:07.06	17.88	30.67	-36.7	-38.2	16.9	0.00e+00	0	59	0	2037383168	43	4691
2026-01-13 11:11:08.07	17.62	30.53	-36.7	-38.2	16.9	0.00e+00	0	59	0	2042626048	43	4688
2026-01-13 11:11:09.08	17.36	30.40	-36.7	-38.2	16.9	0.00e+00	0	59	0	2048917504	43	4693
2026-01-13 11:11:10.09	17.11	30.26	-36.7	-38.2	16.9	0.00e+00	0	59	0	2054160384	43	4697
2026-01-13 11:11:11.10	16.85	30.13	-36.7	-38.2	16.9	0.00e+00	0	59	0	2059403264	43	4688
2026-01-13 11:11:12.11	16.60	30.00	-36.7	-38.2	16.8	0.00e+00	0	59	0	2065694720	43	4704
2026-01-13 11:11:13.12	16.36	29.86	-36.7	-38.2	16.9	0.00e+00	0	59	0	2070937600	43	4683
2026-01-13 11:11:14.13	16.11	29.73	-36.6	-38.1	17.0	0.00e+00	0	59	0	2077229056	43	4625
2026-01-13 11:11:15.14	15.87	29.60	-36.6	-38.1	17.0	0.00e+00	0	59	0	2082471936	43	4617
2026-01-13 11:11:16.15	15.63	29.46	-36.5	-38.0	17.1	0.00e+00	0	59	0	2087714816	43	4590
2026-01-13 11:11:17.16	15.39	29.33	-36.5	-38.0	17.1	0.00e+00	0	59	0	2094006272	43	4593
2026-01-13 11:11:18.17	15.15	29.19	-36.5	-38.0	17.1	0.00e+00	0	59	0	2099249152	43	4581
2026-01-13 11:11:19.17	14.91	29.06	-36.5	-38.0	17.1	0.00e+00	0	59	0	2105540608	43	4559
2026-01-13 11:11:20.18	14.68	28.93	-36.5	-38.0	17.1	0.00e+00	0	59	0	2110783488	43	4565
2026-01-13 11:11:21.19	14.45	28.80	-36.5	-38.1	17.0	0.00e+00	0	59	0	2117074944	43	4607
2026-01-13 11:11:22.20	14.22	28.66	-36.7	-38.2	16.9	0.00e+00	0	59	0	2122317824	43	4688
2026-01-13 11:11:23.21	13.99	28.53	-36.9	-38.5	16.7	0.00e+00	0	59	0	2127560704	44	4571
2026-01-13 11:11:24.22	13.77	28.40	-37.0	-38.6	16.6	0.00e+00	0	59	0	2133852160	44	4637
2026-01-13 11:11:25.23	13.54	28.26	-37.0	-38.7	16.6	0.00e+00	0	59	0	2139095040	44	4654
2026-01-13 11:11:26.24	13.32	28.13	-37.0	-38.6	16.6	0.00e+00	0	59	0	2145386496	44	4642
2026-01-13 11:11:27.25	13.10	28.00	-37.0	-38.6	16.6	0.00e+00	0	59	0	2150629376	44	4635
2026-01-13 11:11:28.26	12.88	27.87	-37.0	-38.6	16.7	0.00e+00	0	59	0	2155872256	44	4614
2026-01-13 11:11:29.27	12.66	27.73	-36.9	-38.5	16.8	0.00e+00	0	59	0	2162163712	44	4550
2026-01-13 11:11:30.28	12.45	27.60	-36.9	-38.5	16.7	0.00e+00	0	60	0	2167406592	44	4577
2026-01-13 11:11:31.29	12.24	27.47	-36.9	-38.5	16.8	0.00e+00	0	59	0	2173698048	44	4554
2026-01-13 11:11:32.30	12.02	27.34	-37.0	-38.6	16.7	0.00e+00	0	59	0	2178940928	44	4599
2026-01-13 11:11:33.31	11.81	27.21	-37.0	-38.5	16.7	0.00e+00	0	59	0	2184183808	44	4591
2026-01-13 11:11:34.32	11.61	27.08	-36.9	-38.5	16.7	0.00e+00	0	59	0	2190475264	44	4568
2026-01-13 11:11:35.33	11.40	26.95	-37.0	-38.6	16.6	0.00e+00	0	59	0	2195718144	44	4614
2026-01-13 11:11:36.34	11.20	26.82	-37.1	-38.8	16.5	0.00e+00	0	59	0	2202009600	44	4710
2026-01-13 11:11:37.35	10.99	26.68	-37.2	-38.8	16.4	0.00e+00	0	59	0	2207252480	44	4742
2026-01-13 11:11:38.36	10.79	26.55	-37.2	-38.8	16.3	0.00e+00	0	59	0	2213543936	44	4756
2026-01-13 11:11:39.37	10.59	26.42	-37.2	-38.8	16.4	0.00e+00	0	59	0	2218786816	44	4738
2026-01-13 11:11:40.38	10.40	26.29	-37.1	-38.8	16.4	0.00e+00	0	59	0	2225078272	44	4712
2026-01-13 11:11:41.39	10.20	26.17	-37.2	-38.8	16.4	0.00e+00	0	59	0	2230321152	44	4719
2026-01-13 11:11:42.40	10.01	26.04	-37.1	-38.7	16.5	0.00e+00	0	59	0	2235564032	44	4689
2026-01-13 11:11:43.41	9.81	25.91	-37.1	-38.7	16.5	0.00e+00	0	59	0	2241855488	44	4687
2026-01-13 11:11:44.42	9.62	25.78	-37.2	-38.8	16.4	0.00e+00	0	59	0	2247098368	44	4716
2026-01-13 11:11:45.43	9.43	25.65	-37.3	-38.9	16.2	0.00e+00	0	59	0	2253389824	45	4526
2026-01-13 11:11:46.44	9.24	25.52	-37.3	-38.9	16.2	0.00e+00	0	59	0	2258632704	45	4531
2026-01-13 11:11:47.45	9.06	25.39	-37.3	-38.9	16.3	0.00e+00	0	59	0	2263875584	45	4519
2026-01-13 11:11:48.46	8.87	25.27	-37.3	-38.9	16.2	0.00e+00	0	59	0	2270167040	45	4522
2026-01-13 11:11:49.47	8.69	25.14	-37.2	-38.9	16.2	0.00e+00	0	59	0	2275409920	45	4512
2026-01-13 11:11:50.48	8.51	25.01	-37.2	-38.9	16.3	0.00e+00	0	59	0	2280652800	45	4503
2026-01-13 11:11:51.49	8.33	24.88	-37.2	-38.8	16.3	0.00e+00	0	59	0	2286944256	45	4488
2026-01-13 11:11:52.49	8.15	24.76	-37.2	-38.9	16.2	0.00e+00	0	59	0	2292187136	45	4500
2026-01-13 11:11:53.51	7.97	24.63	-37.2	-38.8	16.3	0.00e+00	0	59	0	2298478592	45	4479
2026-01-13 11:11:54.51	7.79	24.51	-37.2	-38.8	16.3	0.00e+00	0	59	0	2303721472	45	4480
2026-01-13 11:11:55.52	7.62	24.38	-37.2	-38.8	16.3	0.00e+00	0	59	0	2310012928	45	4485
2026-01-13 11:11:56.54	7.44	24.26	-37.2	-38.9	16.2	0.00e+00	0	59	0	2315255808	45	4506
2026-01-13 11:11:57.55	7.27	24.13	-37.1	-38.8	16.3	0.00e+00	0	59	0	2321547264	45	4449
2026-01-13 11:11:58.56	7.10	24.01	-37.1	-38.8	16.3	0.00e+00	0	59	0	2326790144	45	4448
2026-01-13 11:11:59.56	6.93	23.88	-37.1	-38.7	16.3	0.00e+00	0	59	0	2332033024	45	4421
2026-01-13 11:12:00.57	6.77	23.76	-37.2	-38.8	16.2	0.00e+00	0	59	0	2338324480	45	4474
2026-01-13 11:12:01.58	6.60	23.64	-37.2	-38.8	16.2	0.00e+00	0	59	0	2343567360	45	4489
2026-01-13 11:12:02.59	6.44	23.51	-37.2	-38.9	16.2	0.00e+00	0	59	0	2349858816	45	4495
2026-01-13 11:12:03.60	6.27	23.39	-37.2	-38.9	16.2	0.00e+00	0	59	0	2355101696	45	4504
2026-01-13 11:12:04.61	6.11	23.27	-37.2	-38.9	16.1	0.00e+00	0	59	0	2360344576	45	4516
2026-01-13 11:12:05.62	5.95	23.14	-37.3	-38.9	16.1	0.00e+00	0	59	0	2366636032	45	4542
2026-01-13 11:12:06.63	5.79	23.02	-37.3	-39.0	16.0	0.00e+00	0	59	0	2371878912	45	4563
2026-01-13 11:12:07.64	5.63	22.90	-37.2	-38.9	16.1	0.00e+00	0	59	0	2378170368	45	4510
2026-01-13 11:12:08.65	5.47	22.78	-37.2	-38.9	16.1	0.00e+00	0	59	0	2383413248	45	4520
2026-01-13 11:12:09.65	5.32	22.66	-37.3	-38.9	16.0	0.00e+00	0	59	0	2388656128	45	4531
2026-01-13 11:12:10.67	5.16	22.54	-37.2	-38.9	16.1	0.00e+00	0	59	0	2394947584	45	4515
2026-01-13 11:12:11.68	5.01	22.42	-37.3	-39.0	16.0	0.00e+00	0	59	0	2400190464	45	4549
2026-01-13 11:12:12.69	4.85	22.30	-37.3	-38.9	16.0	0.00e+00	0	59	0	2406481920	45	4532
2026-01-13 11:12:13.70	4.70	22.18	-37.3	-39.0	15.9	0.00e+00	0	59	0	2411724800	45	4575
2026-01-13 11:12:14.71	4.55	22.06	-37.4	-39.1	15.8	0.00e+00	0	59	0	2418016256	45	4647
2026-01-13 11:12:15.71	4.41	21.94	-37.4	-39.2	15.8	0.00e+00	0	59	0	2423259136	45	4656
2026-01-13 11:12:16.72	4.26	21.82	-37.5	-39.2	15.7	0.00e+00	0	59	0	2428502016	45	4686
2026-01-13 11:12:17.73	4.11	21.70	-37.5	-39.3	15.7	0.00e+00	0	59	0	2434793472	45	4706
2026-01-13 11:12:18.74	3.97	21.59	-37.6	-39.3	15.6	1.10e-06	0	59	0	2440036352	45	4737
2026-01-13 11:12:19.75	3.82	21.47	-37.6	-39.4	15.5	0.00e+00	0	59	0	2446327808	45	4776
2026-01-13 11:12:20.76	3.68	21.35	-37.6	-39.4	15.5	0.00e+00	0	59	0	2451570688	45	4786
2026-01-13 11:12:21.77	3.54	21.24	-37.6	-39.4	15.4	0.00e+00	0	60	0	2456813568	45	4801
2026-01-13 11:12:22.78	3.39	21.12	-37.6	-39.4	15.4	0.00e+00	0	59	0	2463105024	45	4793
2026-01-13 11:12:23.79	3.25	21.00	-37.6	-39.4	15.4	0.00e+00	0	59	0	2468347904	45	4807
2026-01-13 11:12:24.80	3.12	20.89	-37.6	-39.4	15.4	0.00e+00	0	59	0	2474639360	45	4799
2026-01-13 11:12:25.81	2.98	20.77	-37.6	-39.5	15.4	0.00e+00	0	59	0	2479882240	45	4819
2026-01-13 11:12:26.81	2.84	20.66	-37.6	-39.4	15.4	0.00e+00	0	60	0	2485125120	45	4790
2026-01-13 11:12:27.82	2.71	20.54	-37.6	-39.4	15.4	0.00e+00	0	59	0	2491416576	45	4788
2026-01-13 11:12:28.83	2.57	20.43	-37.5	-39.3	15.5	0.00e+00	0	59	0	2496659456	45	4740
2026-01-13 11:12:29.84	2.44	20.31	-37.5	-39.2	15.5	0.00e+00	0	59	0	2502950912	45	4693
2026-01-13 11:12:30.85	2.31	20.20	-37.5	-39.3	15.5	0.00e+00	0	59	0	2508193792	45	4729
2026-01-13 11:12:31.86	2.17	20.09	-37.5	-39.2	15.5	0.00e+00	0	59	0	2514485248	45	4704
2026-01-13 11:12:32.87	2.04	19.97	-37.5	-39.3	15.4	0.00e+00	0	59	0	2519728128	45	4717
2026-01-13 11:12:33.88	1.91	19.86	-37.6	-39.4	15.3	1.10e-06	0	59	0	2526019584	45	4786
2026-01-13 11:12:34.89	1.78	19.75	-37.8	-39.6	15.1	0.00e+00	0	59	0	2531262464	46	4628
2026-01-13 11:12:35.90	1.66	19.64	-37.8	-39.7	15.0	0.00e+00	0	59	0	2536505344	46	4666
2026-01-13 11:12:36.91	1.53	19.53	-37.9	-39.9	14.8	0.00e+00	0	59	0	2542796800	46	4764
2026-01-13 11:12:37.92	1.40	19.42	-38.0	-40.0	14.7	1.10e-06	0	59	0	2548039680	46	4824
2026-01-13 11:12:38.93	1.28	19.30	-38.1	-40.0	14.6	2.20e-06	0	59	0	2553282560	46	4846
2026-01-13 11:12:39.93	1.16	19.20	-38.0	-40.0	14.6	0.00e+00	0	59	0	2559574016	46	4827
2026-01-13 11:12:40.94	1.03	19.09	-38.1	-40.0	14.6	0.00e+00	0	59	0	2564816896	46	4857
2026-01-13 11:12:41.95	0.91	18.98	-38.1	-40.1	14.5	0.00e+00	0	59	0	2571108352	46	4898
2026-01-13 11:12:42.96	0.79	18.87	-38.1	-40.0	14.5	2.20e-06	0	59	0	2576351232	46	4865
2026-01-13 11:12:43.97	0.67	18.76	-38.0	-40.0	14.5	0.00e+00	0	59	0	2581594112	46	4839
2026-01-13 11:12:44.98	0.55	18.65	-38.0	-39.9	14.7	1.10e-06	0	59	0	2587885568	46	4787
2026-01-13 11:12:45.99	0.43	18.54	-38.1	-40.1	14.5	0.00e+00	0	59	0	2593128448	46	4874
2026-01-13 11:12:47.00	0.31	18.43	-38.2	-40.2	14.3	2.20e-06	0	59	0	2599419904	46	4938
2026-01-13 11:12:48.01	0.20	18.32	-38.1	-40.1	14.4	0.00e+00	0	59	0	2604662784	46	4903
2026-01-13 11:12:49.02	0.08	18.22	-38.2	-40.2	14.3	2.20e-06	0	59	0	2610954240	46	4945
2026-01-13 11:12:50.03	359.97	18.11	-38.1	-40.2	14.3	2.20e-06	0	59	0	2616197120	47	4662
2026-01-13 11:12:51.04	359.85	18.00	-38.2	-40.2	14.2	3.40e-06	0	59	0	2622488576	47	4681
2026-01-13 11:12:52.05	359.74	17.90	-38.2	-40.2	14.1	4.50e-06	0	59	0	2627731456	47	4698
2026-01-13 11:12:53.06	359.63	17.79	-38.2	-40.2	14.1	3.40e-06	0	59	0	2632974336	47	4692
2026-01-13 11:12:54.07	359.51	17.69	-38.3	-40.4	13.9	4.50e-06	0	59	0	2639265792	47	4782
2026-01-13 11:12:55.08	359.40	17.58	-38.4	-40.6	13.7	9.10e-06	0	59	0	2644508672	47	4874
2026-01-13 11:12:56.09	359.29	17.47	-38.4	-40.6	13.6	1.14e-05	0	59	0	2650800128	47	4884
2026-01-13 11:12:57.10	359.18	17.37	-38.4	-40.6	13.6	1.71e-05	0	59	0	2656043008	47	4877
2026-01-13 11:12:58.11	359.07	17.27	-38.4	-40.7	13.5	1.14e-05	0	59	0	2661285888	47	4943
2026-01-13 11:12:59.12	358.97	17.16	-38.4	-40.6	13.5	1.83e-05	0	59	0	2667577344	47	4925
2026-01-13 11:13:00.13	358.86	17.06	-38.1	-40.3	13.8	1.25e-05	0	59	0	2672820224	47	4707
2026-01-13 11:13:01.14	358.75	16.96	-38.2	-40.4	13.7	1.25e-05	0	59	0	2679111680	47	4760
2026-01-13 11:13:02.15	358.65	16.85	-38.1	-40.3	13.7	1.48e-05	0	59	0	2684354560	47	4732
2026-01-13 11:13:03.15	358.54	16.75	-38.4	-40.7	13.2	2.97e-05	0	59	0	2689597440	47	4951
2026-01-13 11:13:04.17	358.44	16.65	-38.4	-40.7	13.2	4.11e-05	0	59	0	2695888896	47	4950
2026-01-13 11:13:05.18	358.33	16.55	-38.3	-40.6	13.2	3.08e-05	0	59	0	2701131776	47	4887
2026-01-13 11:13:06.18	358.23	16.44	-38.2	-40.4	13.4	4.00e-05	0	59	0	2707423232	47	4805
2026-01-13 11:13:07.19	358.13	16.34	-38.3	-40.6	13.1	4.11e-05	0	59	0	2712666112	47	4890
2026-01-13 11:13:08.20	358.03	16.24	-38.3	-40.7	13.0	5.37e-05	0	59	0	2718957568	47	4929
2026-01-13 11:13:09.21	357.93	16.14	-38.6	-41.1	12.5	1.64e-04	0	59	0	2724200448	47	5198
2026-01-13 11:13:10.22	357.83	16.04	-38.9	-41.5	12.1	3.78e-04	0	59	0	2729443328	48	5120
2026-01-13 11:13:11.23	357.73	15.94	-38.9	-41.6	11.9	4.84e-04	0	59	0	2735734784	48	5183
2026-01-13 11:13:12.24	357.63	15.84	-38.5	-41.0	12.5	2.67e-04	0	59	0	2740977664	48	4844
2026-01-13 11:13:13.25	357.53	15.74	-38.3	-40.7	12.7	1.35e-04	0	59	0	2747269120	48	4680
2026-01-13 11:13:14.26	357.43	15.64	-38.2	-40.5	12.9	5.37e-05	0	59	0	2752512000	48	4594
2026-01-13 11:13:15.27	357.34	15.54	-38.2	-40.6	12.7	1.23e-04	0	59	0	2757754880	48	4638
2026-01-13 11:13:16.28	357.24	15.45	-38.4	-40.9	12.4	2.17e-04	0	59	0	2764046336	48	4775
2026-01-13 11:13:17.29	357.15	15.35	-38.5	-41.1	12.1	2.85e-04	0	59	0	2769289216	48	4873
2026-01-13 11:13:18.30	357.05	15.25	-38.4	-41.1	12.1	4.27e-04	0	59	0	2775580672	48	4888
2026-01-13 11:13:19.31	356.96	15.15	-38.3	-40.9	12.2	3.52e-04	0	59	0	2780823552	48	4781
2026-01-13 11:13:20.32	356.87	15.06	-38.5	-41.2	11.8	5.94e-04	0	59	0	2786066432	48	4936
2026-01-13 11:13:21.33	356.77	14.96	-38.5	-41.2	11.8	8.32e-04	0	59	0	2792357888	48	4957
2026-01-13 11:13:22.34	356.68	14.86	-38.6	-41.5	11.4	1.34e-03	0	59	0	2797600768	48	5143
2026-01-13 11:13:23.34	356.59	14.77	-38.8	-41.8	11.0	2.13e-03	0	59	0	2803892224	48	5335
2026-01-13 11:13:24.35	356.50	14.67	-38.8	-41.9	10.8	3.15e-03	0	59	0	2809135104	48	5394
2026-01-13 11:13:25.36	356.41	14.58	-39.1	-42.4	10.2	6.17e-03	0	60	0	2815426560	48	5715
2026-01-13 11:13:26.37	356.32	14.48	-39.3	-42.9	9.6	1.21e-02	0	59	0	2820669440	49	5702
2026-01-13 11:13:27.38	356.23	14.39	-39.5	-43.5	8.9	2.74e-02	0	59	0	2826960896	49	6078
2026-01-13 11:13:28.39	356.14	14.29	-39.9	-44.4	8.0	5.83e-02	0	59	0	2832203776	50	6383
2026-01-13 11:13:29.40	356.05	14.20	-40.1	-45.0	7.3	1.25e-01	0	59	0	2837446656	50	6813
2026-01-13 11:13:30.41	355.97	14.10	-40.2	-45.4	6.9	1.73e-01	0	59	0	2843738112	50	7151
2026-01-13 11:13:31.42	355.88	14.01	-40.4	-46.3	6.0	3.16e-01	0	59	0	2848980992	51	7491
2026-01-13 11:13:32.43	355.79	13.91	-40.6	-47.3	5.2	7.01e-01	0	59	0	2852126720	51	8460
2026-01-13 11:13:33.44	355.71	13.82	-40.7	-48.2	4.7	7.97e-01	0	59	0	2853175296	52	8770
2026-01-13 11:13:34.45	355.62	13.73	-40.7	-48.6	4.5	8.21e-01	0	60	0	2853175296	52	9278
2026-01-13 11:13:35.46	355.54	13.64	-40.7	-49.3	4.2	8.35e-01	0	60	0	2853175296	52	10007
2026-01-13 11:13:36.47	355.45	13.54	-40.8	-50.2	3.9	8.41e-01	0	59	104	2853175296	52	11041
2026-01-13 11:13:37.48	355.37	13.45	-40.8	-50.9	3.8	8.44e-01	0	59	104	2853175296	52	12076
2026-01-13 11:13:38.49	355.29	13.36	-40.8	-51.5	3.8	8.47e-01	0	59	104	2853175296	52	12856
2026-01-13 11:13:39.49	355.21	13.27	-40.8	-51.7	3.8	8.47e-01	0	59	104	2853175296	52	13258
2026-01-13 11:13:40.50	355.12	13.18	-40.7	-52.0	3.8	8.45e-01	0	59	104	2853175296	52	13659
2026-01-13 11:13:41.51	355.04	13.09	-40.6	-52.1	3.8	8.46e-01	0	59	104	2853175296	52	13855
2026-01-13 11:13:42.52	354.96	13.00	-40.6	-52.1	3.8	8.47e-01	0	59	104	2853175296	52	13859
2026-01-13 11:13:43.53	354.88	12.91	-40.7	-51.9	3.8	8.46e-01	0	59	104	2853175296	52	13546
2026-01-13 11:13:44.54	354.80	12.82	-40.5	-52.3	3.8	8.47e-01	0	59	104	2853175296	52	14085
2026-01-13 11:13:45.54	354.72	12.73	-40.4	-52.1	3.8	8.46e-01	0	59	104	2853175296	52	13827
2026-01-13 11:13:46.55	354.65	12.64	-40.6	-52.4	3.8	8.46e-01	0	59	104	2853175296	52	14275
2026-01-13 11:13:47.56	354.57	12.55	-40.5	-52.3	3.8	8.46e-01	0	59	104	2853175296	52	14171
2026-01-13 11:13:48.57	354.49	12.46	-40.6	-52.4	3.8	8.46e-01	0	60	104	2853175296	52	14293
2026-01-13 11:13:49.58	354.41	12.37	-40.5	-52.2	3.8	8.47e-01	0	59	104	2853175296	52	13997
2026-01-13 11:13:50.59	354.34	12.28	-40.5	-52.4	3.8	8.46e-01	0	60	104	2853175296	52	14237
2026-01-13 11:13:51.60	354.26	12.19	-40.4	-52.2	3.8	8.46e-01	0	59	104	2853175296	52	14045
2026-01-13 11:13:52.61	354.18	12.10	-40.5	-52.3	3.8	8.46e-01	0	59	104	2853175296	52	14099
2026-01-13 11:13:53.62	354.11	12.02	-40.4	-52.2	3.8	8.46e-01	0	60	104	2853175296	52	13989
2026-01-13 11:13:54.62	354.03	11.93	-40.5	-52.3	3.8	8.46e-01	0	60	104	2853175296	52	14053
2026-01-13 11:13:55.63	353.96	11.84	-40.4	-52.2	3.8	8.47e-01	0	60	104	2853175296	52	13913
2026-01-13 11:13:56.64	353.89	11.76	-40.4	-52.2	3.8	8.45e-01	0	59	104	2853175296	52	13898
2026-01-13 11:13:57.65	353.81	11.67	-40.2	-52.0	3.8	8.47e-01	0	60	104	2853175296	52	13690
2026-01-13 11:13:58.66	353.74	11.58	-40.4	-52.1	3.8	8.46e-01	0	60	104	2853175296	52	13884
2026-01-13 11:13:59.66	353.67	11.50	-40.2	-52.0	3.8	8.47e-01	0	59	104	2853175296	52	13677
2026-01-13 11:14:00.66	353.60	11.41	-40.2	-52.1	3.8	8.46e-01	0	60	104	2853175296	52	13838
2026-01-13 11:14:01.67	353.53	11.33	-40.4	-52.1	3.8	8.46e-01	0	60	104	2853175296	52	13825
2026-01-13 11:14:02.68	353.45	11.24	-40.2	-52.0	3.8	8.45e-01	0	59	104	2853175296	52	13669
2026-01-13 11:14:03.69	353.38	11.16	-40.3	-52.2	3.8	8.46e-01	0	59	104	2853175296	52	13935
2026-01-13 11:14:04.70	353.31	11.07	-40.2	-52.0	3.8	8.46e-01	0	60	104	2853175296	52	13707
2026-01-13 11:14:05.71	353.24	10.99	-40.3	-52.1	3.8	8.45e-01	0	60	104	2853175296	52	13812
2026-01-13 11:14:06.72	353.17	10.90	-40.1	-52.0	3.8	8.47e-01	0	59	104	2853175296	52	13686
2026-01-13 11:14:07.73	353.10	10.82	-40.3	-52.1	3.8	8.45e-01	0	60	104	2853175296	52	13809
