passes_logs/2026/01/13/R2.0S_Moscow/R2.0S_Moscow__20260113_003242_NOAA_20_JPSS-1_rec.log

#Pass ID: 20260113_003242_NOAA 20 (JPSS-1)
#Satellite: NOAA 20 (JPSS-1)
#Configuration: NOAA 20
#almurnet v.1.7.20251203
#Start time: 2026-01-13 00:32:42

#Version: 2.2.20231116
#Station: R2.0S_Moscow
#Location: 37.707566 lon 55.798166 lat
#TLE: 1 43013U 17073A   26012.29914746  .00000087  00000+0  62270-4 0  9997
#TLE: 2 43013  98.7632 313.2670 0001616  43.2193 316.9110 14.19535514422351

#Time	Az	El	Level	Level2	SNR	BER	BlckErr	Temp	State	Recorded	gain1	gain2
2026-01-13 00:32:42.29	12.74	2.01	-40.3	-55.1	3.8	1.49e+00	0	51	0	0	52	19466
2026-01-13 00:32:43.30	12.71	2.08	-40.3	-55.1	3.8	1.49e+00	0	51	104	0	52	19435
2026-01-13 00:32:44.31	12.67	2.14	-40.3	-55.1	3.8	1.49e+00	0	52	104	0	52	19463
2026-01-13 00:32:45.32	12.64	2.20	-40.3	-55.1	3.8	1.49e+00	0	52	104	0	52	19511
2026-01-13 00:32:46.33	12.60	2.26	-40.3	-55.1	3.8	1.49e+00	0	52	104	0	52	19428
2026-01-13 00:32:47.35	12.57	2.33	-40.3	-55.1	3.8	1.49e+00	0	52	104	0	52	19512
2026-01-13 00:32:48.35	12.53	2.39	-40.3	-55.1	3.8	1.49e+00	0	52	104	0	52	19438
2026-01-13 00:32:49.37	12.50	2.45	-40.3	-55.1	3.8	1.49e+00	0	52	104	0	52	19470
2026-01-13 00:32:50.37	12.46	2.52	-40.3	-55.1	3.8	1.49e+00	0	52	104	0	52	19460
2026-01-13 00:32:51.38	12.43	2.58	-40.3	-55.1	3.8	1.49e+00	0	52	104	0	52	19523
2026-01-13 00:32:52.40	12.39	2.64	-40.3	-55.1	3.8	1.49e+00	0	52	104	0	52	19430
2026-01-13 00:32:53.40	12.36	2.71	-40.3	-55.1	3.8	1.49e+00	0	52	104	0	52	19457
2026-01-13 00:32:54.41	12.32	2.77	-40.3	-55.1	3.8	1.49e+00	0	52	104	0	52	19418
2026-01-13 00:32:55.42	12.29	2.84	-40.3	-55.1	3.8	1.49e+00	0	52	104	0	52	19466
2026-01-13 00:32:56.43	12.25	2.90	-40.3	-55.1	3.8	1.49e+00	0	52	104	0	52	19437
2026-01-13 00:32:57.44	12.21	2.96	-40.3	-55.1	3.8	1.49e+00	0	52	104	0	52	19430
2026-01-13 00:32:58.45	12.18	3.03	-40.3	-55.1	3.8	1.49e+00	0	52	104	0	52	19480
2026-01-13 00:32:59.46	12.14	3.09	-40.3	-55.1	3.8	1.49e+00	0	53	104	0	52	19446
2026-01-13 00:33:00.47	12.11	3.16	-40.3	-55.1	3.8	1.49e+00	0	53	104	0	52	19418
2026-01-13 00:33:01.48	12.07	3.22	-40.3	-55.1	3.8	1.49e+00	0	53	104	0	52	19478
2026-01-13 00:33:02.49	12.03	3.29	-40.3	-55.1	3.8	1.49e+00	0	53	104	0	52	19406
2026-01-13 00:33:03.51	11.99	3.35	-40.3	-55.1	3.8	1.49e+00	0	53	104	0	52	19450
2026-01-13 00:33:04.52	11.96	3.42	-40.3	-55.1	3.8	1.49e+00	0	53	104	0	52	19475
2026-01-13 00:33:05.53	11.92	3.49	-40.3	-55.1	3.8	1.49e+00	0	53	104	0	52	19421
2026-01-13 00:33:06.53	11.88	3.55	-40.3	-55.0	3.8	1.49e+00	0	53	104	0	52	19373
2026-01-13 00:33:07.55	11.84	3.62	-40.3	-55.0	3.8	1.49e+00	0	53	104	0	52	19376
2026-01-13 00:33:08.56	11.80	3.68	-40.3	-55.0	3.8	1.49e+00	0	53	104	0	52	19271
2026-01-13 00:33:09.57	11.77	3.75	-40.3	-55.0	3.8	1.49e+00	0	53	104	0	52	19185
2026-01-13 00:33:10.58	11.73	3.81	-40.3	-54.9	3.8	1.49e+00	0	53	104	0	52	19075
2026-01-13 00:33:11.59	11.69	3.88	-40.3	-54.8	3.8	1.49e+00	0	53	104	0	52	18882
2026-01-13 00:33:12.60	11.65	3.95	-40.3	-54.8	3.8	1.49e+00	0	53	104	0	52	18875
2026-01-13 00:33:13.61	11.61	4.01	-40.3	-54.8	3.8	1.49e+00	0	53	104	0	52	18852
2026-01-13 00:33:14.62	11.57	4.08	-40.3	-54.7	3.8	1.49e+00	0	54	104	0	52	18668
2026-01-13 00:33:15.63	11.53	4.15	-40.3	-54.7	3.8	1.49e+00	0	54	104	0	52	18680
2026-01-13 00:33:16.64	11.49	4.22	-40.3	-54.7	3.8	1.49e+00	0	54	104	0	52	18695
2026-01-13 00:33:17.65	11.45	4.28	-40.2	-54.6	3.8	1.49e+00	0	54	104	0	52	18497
2026-01-13 00:33:18.66	11.41	4.35	-40.3	-54.7	3.8	1.49e+00	0	54	104	0	52	18705
2026-01-13 00:33:19.67	11.37	4.42	-40.2	-54.8	3.8	1.49e+00	0	54	104	0	52	18821
2026-01-13 00:33:20.69	11.33	4.49	-40.3	-54.8	3.8	1.49e+00	0	54	104	0	52	18788
2026-01-13 00:33:21.70	11.29	4.55	-40.3	-54.8	3.8	1.49e+00	0	54	104	0	52	18831
2026-01-13 00:33:22.71	11.25	4.62	-40.3	-54.8	3.8	1.49e+00	0	54	104	0	52	18925
2026-01-13 00:33:23.72	11.21	4.69	-40.3	-54.9	3.8	1.49e+00	0	54	104	0	52	19012
2026-01-13 00:33:24.73	11.17	4.76	-40.3	-54.9	3.8	1.49e+00	0	54	104	0	52	19007
2026-01-13 00:33:25.74	11.12	4.83	-40.2	-54.9	3.8	1.49e+00	0	54	104	0	52	19160
2026-01-13 00:33:26.75	11.08	4.90	-40.3	-54.9	3.8	1.49e+00	0	54	104	0	52	19158
2026-01-13 00:33:27.76	11.04	4.96	-40.3	-55.0	3.8	1.49e+00	0	54	104	0	52	19214
2026-01-13 00:33:28.77	11.00	5.03	-40.3	-55.0	3.8	1.49e+00	0	54	104	0	52	19326
2026-01-13 00:33:29.78	10.96	5.10	-40.3	-55.0	3.8	1.49e+00	0	54	104	0	52	19310
2026-01-13 00:33:30.79	10.91	5.17	-40.3	-55.0	3.8	1.49e+00	0	54	104	0	52	19376
2026-01-13 00:33:31.80	10.87	5.24	-40.3	-55.1	3.8	1.49e+00	0	55	104	0	52	19408
2026-01-13 00:33:32.81	10.83	5.31	-40.3	-55.0	3.8	1.49e+00	0	55	104	0	52	19338
2026-01-13 00:33:33.82	10.78	5.38	-40.3	-55.1	3.8	1.49e+00	0	55	104	0	52	19404
2026-01-13 00:33:34.83	10.74	5.45	-40.3	-55.0	3.8	1.49e+00	0	55	104	0	52	19381
2026-01-13 00:33:35.84	10.70	5.52	-40.3	-55.0	3.8	1.49e+00	0	55	104	0	52	19327
2026-01-13 00:33:36.85	10.65	5.59	-40.3	-55.0	3.8	1.49e+00	0	55	104	0	52	19389
2026-01-13 00:33:37.86	10.61	5.66	-40.3	-55.0	3.8	1.49e+00	0	55	104	0	52	19352
2026-01-13 00:33:38.87	10.56	5.73	-40.2	-55.0	3.8	1.49e+00	0	55	104	0	52	19314
2026-01-13 00:33:39.88	10.52	5.80	-40.2	-55.0	3.8	1.49e+00	0	55	104	0	52	19323
2026-01-13 00:33:40.90	10.47	5.88	-40.3	-55.0	3.8	1.49e+00	0	55	104	0	52	19338
2026-01-13 00:33:41.90	10.43	5.95	-40.2	-55.0	3.8	1.49e+00	0	55	104	0	52	19375
2026-01-13 00:33:42.91	10.38	6.02	-40.3	-55.0	3.8	1.49e+00	0	55	104	0	52	19300
2026-01-13 00:33:43.93	10.34	6.09	-40.2	-55.0	3.8	1.49e+00	0	55	104	0	52	19317
2026-01-13 00:33:44.94	10.29	6.16	-40.3	-55.0	3.8	1.49e+00	0	55	104	0	52	19332
2026-01-13 00:33:45.95	10.24	6.23	-40.2	-55.0	3.8	1.49e+00	0	55	104	0	52	19264
2026-01-13 00:33:46.96	10.20	6.30	-40.3	-55.0	3.8	1.49e+00	0	55	104	0	52	19250
2026-01-13 00:33:47.97	10.15	6.38	-40.3	-55.0	3.8	1.49e+00	0	55	104	0	52	19293
2026-01-13 00:33:48.98	10.10	6.45	-40.3	-55.0	3.8	1.49e+00	0	55	104	0	52	19268
2026-01-13 00:33:49.99	10.06	6.52	-40.2	-55.0	3.8	1.49e+00	0	55	104	0	52	19363
2026-01-13 00:33:51.00	10.01	6.60	-40.2	-55.0	3.8	1.49e+00	0	55	104	0	52	19310
2026-01-13 00:33:52.01	9.96	6.67	-40.3	-55.0	3.8	1.49e+00	0	55	104	0	52	19285
2026-01-13 00:33:53.02	9.91	6.74	-40.2	-55.0	3.8	1.49e+00	0	55	104	0	52	19272
2026-01-13 00:33:54.03	9.87	6.81	-40.3	-55.0	3.8	1.49e+00	0	55	104	0	52	19370
2026-01-13 00:33:55.04	9.82	6.89	-40.3	-55.0	3.8	1.49e+00	0	55	104	0	52	19312
2026-01-13 00:33:56.06	9.77	6.96	-40.2	-55.0	3.8	1.49e+00	0	55	104	0	52	19294
2026-01-13 00:33:57.07	9.72	7.04	-40.3	-55.0	3.8	1.49e+00	0	56	104	0	52	19351
2026-01-13 00:33:58.08	9.67	7.11	-40.2	-55.0	3.8	1.49e+00	0	56	104	0	52	19295
2026-01-13 00:33:59.09	9.62	7.19	-40.2	-55.0	3.8	1.49e+00	0	56	104	0	52	19282
2026-01-13 00:34:00.10	9.57	7.26	-40.2	-55.0	3.8	1.49e+00	0	56	104	0	52	19263
2026-01-13 00:34:01.11	9.52	7.33	-40.3	-55.0	3.8	1.49e+00	0	56	104	0	52	19389
2026-01-13 00:34:02.12	9.47	7.41	-40.2	-55.0	3.8	1.49e+00	0	56	104	0	52	19357
2026-01-13 00:34:03.13	9.42	7.48	-40.3	-55.0	3.8	1.49e+00	0	56	104	0	52	19363
2026-01-13 00:34:04.13	9.37	7.56	-40.3	-55.0	3.8	1.49e+00	0	56	104	0	52	19381
2026-01-13 00:34:05.15	9.32	7.64	-40.2	-55.0	3.8	1.49e+00	0	56	104	0	52	19317
2026-01-13 00:34:06.16	9.26	7.71	-40.2	-55.0	3.8	1.49e+00	0	56	104	0	52	19321
2026-01-13 00:34:07.16	9.21	7.79	-40.2	-55.0	3.8	1.49e+00	0	56	104	0	52	19305
2026-01-13 00:34:08.18	9.16	7.86	-40.3	-55.0	3.8	1.49e+00	0	56	104	0	52	19268
2026-01-13 00:34:09.19	9.11	7.94	-40.2	-55.0	3.8	1.49e+00	0	56	104	0	52	19279
2026-01-13 00:34:10.20	9.05	8.02	-40.2	-55.0	3.8	1.49e+00	0	56	104	0	52	19306
2026-01-13 00:34:11.21	9.00	8.09	-40.2	-54.9	3.8	1.49e+00	0	56	104	0	52	19004
2026-01-13 00:34:12.22	8.95	8.17	-40.5	-55.2	3.8	1.49e+00	0	56	104	0	52	19741
2026-01-13 00:34:13.23	8.89	8.25	-40.1	-54.8	3.8	1.49e+00	0	56	104	0	52	18738
2026-01-13 00:34:14.24	8.84	8.32	-40.3	-55.0	3.8	1.49e+00	0	56	104	0	52	19190
2026-01-13 00:34:15.25	8.79	8.40	-40.3	-55.1	3.8	1.49e+00	0	56	104	0	52	19423
2026-01-13 00:34:16.26	8.73	8.48	-40.3	-54.9	3.8	1.49e+00	0	56	104	0	52	19082
2026-01-13 00:34:17.27	8.68	8.56	-40.3	-55.1	3.8	1.49e+00	0	56	104	0	52	19493
2026-01-13 00:34:18.28	8.62	8.64	-40.5	-55.2	3.8	1.49e+00	0	56	104	0	52	19773
2026-01-13 00:34:19.29	8.57	8.71	-40.0	-54.7	3.8	1.49e+00	0	56	104	0	52	18565
2026-01-13 00:34:20.30	8.51	8.79	-40.0	-54.7	3.8	1.49e+00	0	56	104	0	52	18574
2026-01-13 00:34:21.31	8.45	8.87	-40.0	-54.7	3.8	1.49e+00	0	56	104	0	52	18546
2026-01-13 00:34:22.32	8.40	8.95	-40.0	-54.6	3.8	1.49e+00	0	56	104	0	52	18473
2026-01-13 00:34:23.33	8.34	9.03	-40.0	-54.6	3.8	1.49e+00	0	56	104	0	52	18455
2026-01-13 00:34:24.34	8.28	9.11	-40.1	-54.8	3.8	1.49e+00	0	56	104	0	51	19846
2026-01-13 00:34:25.35	8.23	9.19	-40.5	-55.2	3.8	1.49e+00	0	56	104	0	51	20929
2026-01-13 00:34:26.36	8.17	9.27	-40.1	-54.8	3.8	1.49e+00	0	57	104	0	51	19884
2026-01-13 00:34:27.37	8.11	9.35	-40.1	-54.7	3.8	1.49e+00	0	56	104	0	51	19819
2026-01-13 00:34:28.38	8.05	9.43	-40.1	-54.7	3.8	1.49e+00	0	56	104	0	51	19740
2026-01-13 00:34:29.39	7.99	9.51	-40.0	-54.6	3.8	1.49e+00	0	57	104	0	51	19590
2026-01-13 00:34:30.40	7.93	9.59	-40.0	-54.7	3.8	1.49e+00	0	57	104	0	51	19688
2026-01-13 00:34:31.41	7.87	9.67	-40.1	-54.7	3.8	1.49e+00	0	57	104	0	51	19761
2026-01-13 00:34:32.42	7.81	9.75	-40.3	-55.0	3.8	1.49e+00	0	57	104	0	51	20450
2026-01-13 00:34:33.43	7.75	9.84	-40.7	-55.4	3.8	1.49e+00	0	57	104	0	51	21398
2026-01-13 00:34:34.44	7.69	9.92	-40.5	-55.2	3.8	1.49e+00	0	57	104	0	52	19734
2026-01-13 00:34:35.44	7.63	10.00	-40.0	-54.6	3.8	1.49e+00	0	57	104	0	52	18464
2026-01-13 00:34:36.45	7.57	10.08	-40.0	-54.7	3.8	1.49e+00	0	57	104	0	52	18562
2026-01-13 00:34:37.46	7.51	10.16	-40.1	-54.7	3.8	1.49e+00	0	57	104	0	52	18565
2026-01-13 00:34:38.48	7.45	10.25	-40.1	-54.7	3.8	1.49e+00	0	57	104	0	52	18623
2026-01-13 00:34:39.49	7.38	10.33	-40.1	-54.8	3.8	1.49e+00	0	57	104	0	52	18819
2026-01-13 00:34:40.50	7.32	10.41	-40.4	-55.1	3.8	1.49e+00	0	57	104	0	52	19536
2026-01-13 00:34:41.51	7.26	10.50	-40.8	-55.5	3.8	1.49e+00	0	57	104	0	52	20459
2026-01-13 00:34:42.51	7.19	10.58	-40.3	-54.9	3.8	1.49e+00	0	57	104	0	52	19148
2026-01-13 00:34:43.52	7.13	10.66	-40.0	-54.7	3.8	1.49e+00	0	57	104	0	52	18626
2026-01-13 00:34:44.53	7.07	10.75	-40.0	-54.7	3.8	1.49e+00	0	57	104	0	52	18584
2026-01-13 00:34:45.54	7.00	10.83	-40.0	-54.7	3.8	1.49e+00	0	57	104	0	52	18554
2026-01-13 00:34:46.55	6.94	10.92	-40.0	-54.6	3.8	1.49e+00	0	57	104	0	52	18446
2026-01-13 00:34:47.56	6.87	11.00	-40.2	-54.8	3.8	1.49e+00	0	57	104	0	52	18895
2026-01-13 00:34:48.57	6.80	11.09	-40.9	-55.3	3.8	1.49e+00	0	57	104	0	52	20053
2026-01-13 00:34:49.57	6.74	11.17	-41.6	-54.8	3.8	1.49e+00	0	57	104	0	54	16773
2026-01-13 00:34:50.59	6.67	11.26	-41.0	-55.0	3.8	1.49e+00	0	57	104	0	54	17220
2026-01-13 00:34:51.59	6.60	11.35	-40.9	-55.2	3.8	1.49e+00	0	57	104	0	53	18659
2026-01-13 00:34:52.60	6.54	11.43	-41.0	-54.1	3.8	1.49e+00	0	57	104	0	53	16458
2026-01-13 00:34:53.61	6.47	11.52	-41.1	-54.1	3.8	1.49e+00	0	57	104	0	53	16362
2026-01-13 00:34:54.63	6.40	11.61	-41.1	-54.0	3.8	1.49e+00	0	57	104	0	53	16298
2026-01-13 00:34:55.63	6.33	11.69	-41.1	-53.9	3.8	1.49e+00	0	57	104	0	53	16117
2026-01-13 00:34:56.64	6.26	11.78	-41.2	-52.7	3.9	1.49e+00	0	58	104	0	53	13980
2026-01-13 00:34:57.65	6.19	11.87	-40.8	-54.2	3.8	1.39e+00	0	58	104	0	53	16628
2026-01-13 00:34:58.66	6.12	11.96	-41.4	-50.7	5.2	1.49e+00	0	58	104	0	53	11131
2026-01-13 00:34:59.67	6.05	12.04	-42.2	-53.5	4.2	1.36e+00	0	58	0	0	55	13573
2026-01-13 00:35:00.68	5.98	12.13	-41.7	-52.4	4.6	1.07e+00	11	57	0	0	55	11982
2026-01-13 00:35:01.69	5.91	12.22	-41.6	-50.9	5.0	1.49e+00	0	57	104	0	55	10164
2026-01-13 00:35:02.70	5.84	12.31	-41.5	-49.2	6.5	2.73e-01	0	57	0	1048576	54	8769
2026-01-13 00:35:03.71	5.76	12.40	-41.3	-48.4	7.2	1.59e-01	0	58	0	3145728	54	8001
2026-01-13 00:35:04.72	5.69	12.49	-41.3	-48.0	7.6	1.03e-01	0	57	0	5242880	54	7644
2026-01-13 00:35:05.73	5.62	12.58	-41.2	-47.5	8.1	8.09e-02	0	57	0	6291456	54	7271
2026-01-13 00:35:06.74	5.54	12.67	-41.1	-47.2	8.4	5.91e-02	0	58	0	8388608	54	7012
2026-01-13 00:35:07.75	5.47	12.76	-41.1	-47.3	8.3	4.54e-02	0	58	0	10485760	54	7105
2026-01-13 00:35:08.76	5.39	12.85	-41.2	-47.4	8.3	5.73e-02	0	58	0	12582912	54	7160
2026-01-13 00:35:09.77	5.32	12.94	-41.1	-47.0	8.7	3.67e-02	0	58	0	14680064	54	6809
2026-01-13 00:35:10.78	5.24	13.03	-41.1	-47.0	8.7	3.59e-02	0	58	0	15728640	54	6847
2026-01-13 00:35:11.79	5.17	13.12	-41.2	-47.3	8.4	4.10e-02	0	58	0	17825792	54	7060
2026-01-13 00:35:12.80	5.09	13.22	-41.1	-47.1	8.7	3.44e-02	0	58	0	19922944	54	6891
2026-01-13 00:35:13.81	5.01	13.31	-41.2	-47.4	8.4	4.20e-02	0	58	0	22020096	54	7165
2026-01-13 00:35:14.82	4.93	13.40	-41.3	-47.3	8.5	4.37e-02	0	58	0	24117248	54	7057
2026-01-13 00:35:15.83	4.86	13.49	-41.3	-47.1	8.8	3.18e-02	0	58	0	26214400	54	6946
2026-01-13 00:35:16.84	4.78	13.59	-41.3	-47.2	8.8	3.38e-02	0	58	0	27262976	54	7010
2026-01-13 00:35:17.85	4.70	13.68	-41.1	-46.6	9.4	1.93e-02	0	58	0	29360128	54	6532
2026-01-13 00:35:18.86	4.62	13.77	-41.2	-46.7	9.3	1.78e-02	0	58	0	31457280	54	6640
2026-01-13 00:35:19.87	4.54	13.87	-41.2	-46.7	9.3	1.79e-02	0	58	0	33554432	54	6616
2026-01-13 00:35:20.87	4.46	13.96	-41.2	-46.6	9.5	1.91e-02	0	58	0	35651584	54	6535
2026-01-13 00:35:21.88	4.37	14.06	-41.1	-46.3	9.8	1.02e-02	0	58	0	36700160	54	6338
2026-01-13 00:35:22.89	4.29	14.15	-41.3	-46.8	9.3	1.33e-02	0	58	0	38797312	54	6680
2026-01-13 00:35:23.90	4.21	14.25	-41.4	-47.0	9.2	1.84e-02	0	58	0	40894464	54	6833
2026-01-13 00:35:24.91	4.13	14.34	-41.4	-46.9	9.3	1.88e-02	0	58	0	42991616	54	6727
2026-01-13 00:35:25.92	4.04	14.44	-41.3	-46.7	9.6	1.46e-02	0	58	0	45088768	54	6589
2026-01-13 00:35:26.94	3.96	14.54	-41.2	-46.3	9.9	1.13e-02	0	58	0	46137344	54	6342
2026-01-13 00:35:27.94	3.87	14.63	-41.1	-46.2	10.1	7.47e-03	0	58	0	48234496	54	6206
2026-01-13 00:35:28.95	3.79	14.73	-41.2	-46.2	10.1	7.12e-03	0	58	0	50331648	54	6252
2026-01-13 00:35:29.96	3.70	14.82	-41.5	-47.0	9.2	1.43e-02	0	58	0	52428800	54	6860
2026-01-13 00:35:30.97	3.61	14.92	-41.5	-46.9	9.4	2.00e-02	0	58	0	54525952	54	6801
2026-01-13 00:35:31.98	3.53	15.02	-41.3	-46.2	10.1	8.68e-03	0	58	0	55574528	54	6249
2026-01-13 00:35:32.99	3.44	15.12	-41.3	-46.2	10.2	5.90e-03	0	58	0	57671680	54	6273
2026-01-13 00:35:33.99	3.35	15.22	-41.5	-46.8	9.6	8.60e-03	0	58	0	59768832	54	6671
2026-01-13 00:35:35.00	3.26	15.31	-41.6	-46.8	9.7	1.39e-02	0	58	0	61865984	54	6669
2026-01-13 00:35:36.01	3.17	15.41	-41.5	-46.2	10.4	6.14e-03	0	58	0	63963136	54	6262
2026-01-13 00:35:37.02	3.08	15.51	-41.5	-46.2	10.5	4.06e-03	0	58	0	65011712	54	6260
2026-01-13 00:35:38.03	2.99	15.61	-41.7	-46.7	10.0	6.02e-03	0	58	0	67108864	54	6628
2026-01-13 00:35:39.04	2.90	15.71	-41.6	-46.5	10.2	6.99e-03	0	58	0	69206016	54	6458
2026-01-13 00:35:40.05	2.81	15.81	-41.6	-46.4	10.3	4.79e-03	0	58	0	71303168	54	6415
2026-01-13 00:35:41.06	2.72	15.91	-41.8	-46.9	9.8	7.14e-03	0	58	0	73400320	54	6777
2026-01-13 00:35:42.07	2.62	16.02	-41.8	-46.8	10.0	9.02e-03	0	58	0	74448896	54	6667
2026-01-13 00:35:43.08	2.53	16.12	-41.7	-46.6	10.1	6.10e-03	0	58	0	76546048	54	6567
2026-01-13 00:35:44.09	2.43	16.22	-41.8	-46.8	10.0	7.23e-03	0	59	0	78643200	54	6681
2026-01-13 00:35:45.10	2.34	16.32	-41.8	-46.7	10.1	6.92e-03	0	59	0	80740352	54	6577
2026-01-13 00:35:46.10	2.24	16.42	-41.7	-46.5	10.4	6.22e-03	0	58	0	82837504	54	6446
2026-01-13 00:35:47.12	2.14	16.53	-41.8	-46.7	10.1	5.13e-03	0	58	0	83886080	54	6630
2026-01-13 00:35:48.13	2.05	16.63	-41.8	-46.6	10.2	6.53e-03	0	58	0	85983232	54	6546
2026-01-13 00:35:49.14	1.95	16.73	-41.8	-46.5	10.3	5.14e-03	0	59	0	88080384	54	6492
2026-01-13 00:35:50.14	1.85	16.84	-41.9	-46.7	10.2	5.67e-03	0	59	0	90177536	54	6613
2026-01-13 00:35:51.15	1.75	16.94	-41.8	-46.6	10.3	5.46e-03	0	58	0	92274688	54	6532
2026-01-13 00:35:52.16	1.65	17.04	-41.9	-46.7	10.2	5.50e-03	0	59	0	94371840	54	6628
2026-01-13 00:35:53.17	1.55	17.15	-41.8	-46.6	10.3	5.90e-03	0	58	0	95420416	54	6562
2026-01-13 00:35:54.18	1.45	17.25	-42.0	-47.0	10.0	6.58e-03	0	58	0	97517568	54	6833
2026-01-13 00:35:55.19	1.34	17.36	-42.0	-46.9	10.1	6.91e-03	0	58	0	99614720	54	6735
2026-01-13 00:35:56.20	1.24	17.47	-42.0	-47.0	10.0	6.92e-03	0	59	0	101711872	54	6879
2026-01-13 00:35:57.21	1.14	17.57	-42.0	-46.9	10.1	8.62e-03	0	59	0	103809024	54	6787
2026-01-13 00:35:58.22	1.03	17.68	-42.1	-47.2	9.8	9.79e-03	0	59	0	104857600	54	6996
2026-01-13 00:35:59.23	0.93	17.79	-42.1	-47.2	9.9	8.42e-03	0	59	0	106954752	54	6961
2026-01-13 00:36:00.24	0.82	17.89	-42.2	-47.3	9.7	9.35e-03	0	58	0	109051904	54	7120
2026-01-13 00:36:01.25	0.71	18.00	-42.1	-47.1	10.0	7.66e-03	0	59	0	111149056	54	6917
2026-01-13 00:36:02.26	0.60	18.11	-42.1	-47.0	10.1	7.81e-03	0	59	0	113246208	54	6858
2026-01-13 00:36:03.27	0.50	18.22	-42.1	-47.2	9.9	7.42e-03	0	59	0	114294784	54	6988
2026-01-13 00:36:04.28	0.39	18.33	-42.2	-47.2	9.9	7.97e-03	0	58	0	116391936	54	7000
2026-01-13 00:36:05.29	0.28	18.44	-42.1	-47.1	10.0	7.30e-03	0	59	0	118489088	54	6922
2026-01-13 00:36:06.30	0.16	18.55	-42.1	-47.1	10.1	7.91e-03	0	59	0	120586240	54	6881
2026-01-13 00:36:07.31	0.05	18.66	-42.1	-47.0	10.1	7.57e-03	0	59	0	122683392	54	6878
2026-01-13 00:36:08.31	359.94	18.77	-42.1	-47.0	10.1	6.51e-03	0	59	0	123731968	54	6857
2026-01-13 00:36:09.32	359.83	18.88	-42.1	-47.0	10.1	6.18e-03	0	59	0	125829120	54	6813
2026-01-13 00:36:10.33	359.71	18.99	-42.1	-46.9	10.3	6.51e-03	0	59	0	127926272	54	6764
2026-01-13 00:36:11.34	359.60	19.10	-42.1	-46.9	10.2	6.38e-03	0	59	0	130023424	54	6779
2026-01-13 00:36:12.35	359.48	19.21	-42.2	-47.2	10.0	6.90e-03	0	59	0	132120576	54	6984
2026-01-13 00:36:13.36	359.36	19.32	-42.1	-47.0	10.2	6.85e-03	0	59	0	133169152	54	6868
2026-01-13 00:36:14.37	359.24	19.44	-42.1	-47.0	10.2	5.67e-03	0	58	0	135266304	54	6835
2026-01-13 00:36:15.38	359.13	19.55	-42.1	-47.0	10.2	5.91e-03	0	59	0	137363456	54	6828
2026-01-13 00:36:16.39	359.01	19.66	-42.2	-47.1	10.1	6.75e-03	0	59	0	139460608	54	6921
2026-01-13 00:36:17.40	358.89	19.78	-42.1	-46.9	10.3	5.84e-03	0	59	0	141557760	54	6763
2026-01-13 00:36:18.40	358.76	19.89	-42.1	-47.1	10.0	6.53e-03	0	59	0	142606336	54	6927
2026-01-13 00:36:19.42	358.64	20.01	-42.2	-47.2	10.0	8.61e-03	0	59	0	144703488	54	6988
2026-01-13 00:36:20.43	358.52	20.12	-42.2	-47.2	9.9	8.33e-03	0	59	0	146800640	54	6999
2026-01-13 00:36:21.44	358.39	20.24	-42.1	-47.2	9.8	9.27e-03	0	59	0	148897792	54	7025
2026-01-13 00:36:22.45	358.27	20.35	-42.1	-47.2	9.9	9.54e-03	0	59	0	150994944	54	6981
2026-01-13 00:36:23.46	358.14	20.47	-42.1	-47.1	9.9	8.61e-03	0	59	0	152043520	54	6938
2026-01-13 00:36:24.47	358.01	20.59	-42.1	-47.3	9.7	1.02e-02	0	59	0	154140672	54	7087
2026-01-13 00:36:25.48	357.88	20.70	-42.1	-47.3	9.7	1.13e-02	0	59	0	156237824	54	7096
2026-01-13 00:36:26.49	357.75	20.82	-42.1	-47.4	9.7	1.22e-02	0	59	0	158334976	54	7127
2026-01-13 00:36:27.49	357.62	20.94	-42.2	-47.5	9.5	1.40e-02	0	59	0	160432128	54	7220
2026-01-13 00:36:28.50	357.49	21.05	-42.1	-47.4	9.6	1.16e-02	0	59	0	162529280	54	7141
2026-01-13 00:36:29.51	357.36	21.17	-42.1	-47.4	9.6	1.23e-02	0	59	0	163577856	54	7178
2026-01-13 00:36:30.52	357.23	21.29	-42.1	-47.3	9.7	1.15e-02	0	59	0	165675008	54	7063
2026-01-13 00:36:31.53	357.09	21.41	-42.0	-47.3	9.6	1.15e-02	0	59	0	167772160	54	7041
2026-01-13 00:36:32.54	356.96	21.53	-42.0	-47.3	9.6	1.09e-02	0	59	0	169869312	54	7049
2026-01-13 00:36:33.55	356.82	21.65	-42.0	-47.2	9.8	1.08e-02	0	59	0	171966464	54	6999
2026-01-13 00:36:34.56	356.68	21.77	-42.0	-47.2	9.8	9.99e-03	0	59	0	173015040	54	6976
2026-01-13 00:36:35.57	356.54	21.89	-42.0	-47.2	9.8	1.02e-02	0	59	0	175112192	54	6981
2026-01-13 00:36:36.58	356.40	22.01	-42.0	-47.1	10.0	8.61e-03	0	59	0	177209344	54	6901
2026-01-13 00:36:37.59	356.26	22.13	-42.1	-47.1	10.0	7.84e-03	0	59	0	179306496	54	6942
2026-01-13 00:36:38.60	356.12	22.26	-42.0	-47.0	10.1	7.05e-03	0	59	0	181403648	54	6863
2026-01-13 00:36:39.61	355.97	22.38	-42.1	-47.1	10.0	7.30e-03	0	59	0	182452224	54	6940
2026-01-13 00:36:40.62	355.83	22.50	-42.2	-47.4	9.7	9.51e-03	0	59	0	184549376	55	6760
2026-01-13 00:36:41.63	355.68	22.63	-42.3	-47.6	9.6	1.18e-02	0	59	0	186646528	55	6894
2026-01-13 00:36:42.64	355.54	22.75	-42.2	-47.3	9.9	1.18e-02	0	59	0	188743680	55	6716
2026-01-13 00:36:43.65	355.39	22.87	-42.2	-47.2	10.0	7.54e-03	0	59	0	190840832	55	6637
2026-01-13 00:36:44.65	355.24	23.00	-42.3	-47.3	10.0	6.98e-03	0	59	0	191889408	55	6671
2026-01-13 00:36:45.66	355.09	23.12	-42.3	-47.4	9.9	8.68e-03	0	59	0	193986560	55	6745
2026-01-13 00:36:46.67	354.94	23.25	-42.2	-47.2	10.1	8.24e-03	0	59	0	196083712	55	6596
2026-01-13 00:36:47.68	354.78	23.37	-42.1	-46.9	10.4	4.43e-03	0	59	0	198180864	55	6389
2026-01-13 00:36:48.69	354.63	23.50	-42.2	-47.0	10.3	4.80e-03	0	59	0	200278016	55	6460
2026-01-13 00:36:49.70	354.47	23.62	-42.2	-47.0	10.3	5.55e-03	0	59	0	201326592	55	6488
2026-01-13 00:36:50.71	354.32	23.75	-42.3	-47.2	10.1	6.44e-03	0	59	0	203423744	55	6589
2026-01-13 00:36:51.72	354.16	23.88	-42.3	-47.2	10.1	7.27e-03	0	59	0	205520896	55	6629
2026-01-13 00:36:52.73	354.00	24.01	-42.3	-47.3	10.1	6.31e-03	0	59	0	207618048	55	6648
2026-01-13 00:36:53.74	353.84	24.13	-42.4	-47.4	10.0	6.59e-03	0	59	0	209715200	55	6742
2026-01-13 00:36:54.75	353.67	24.26	-42.3	-47.2	10.2	8.00e-03	0	59	0	210763776	55	6622
2026-01-13 00:36:55.76	353.51	24.39	-42.4	-47.4	10.0	6.61e-03	0	59	0	212860928	55	6735
2026-01-13 00:36:56.77	353.34	24.52	-42.3	-47.3	10.1	7.06e-03	0	59	0	214958080	55	6672
2026-01-13 00:36:57.78	353.18	24.65	-42.4	-47.4	10.1	6.73e-03	0	59	0	217055232	55	6733
2026-01-13 00:36:58.79	353.01	24.78	-42.4	-47.4	10.0	7.58e-03	0	59	0	219152384	55	6760
2026-01-13 00:36:59.80	352.84	24.91	-42.4	-47.4	10.0	8.31e-03	0	59	0	220200960	55	6795
2026-01-13 00:37:00.81	352.67	25.04	-42.4	-47.3	10.1	7.93e-03	0	59	0	222298112	55	6694
2026-01-13 00:37:01.82	352.50	25.17	-42.3	-47.2	10.2	5.94e-03	0	59	0	224395264	55	6636
2026-01-13 00:37:02.83	352.32	25.30	-42.3	-47.2	10.3	5.60e-03	0	59	0	226492416	55	6573
2026-01-13 00:37:03.84	352.15	25.43	-42.3	-47.1	10.4	4.74e-03	0	59	0	228589568	55	6549
2026-01-13 00:37:04.85	351.97	25.56	-42.3	-47.0	10.5	4.49e-03	0	59	0	230686720	55	6448
2026-01-13 00:37:05.86	351.79	25.70	-42.3	-47.1	10.4	4.04e-03	0	60	0	231735296	55	6496
2026-01-13 00:37:06.87	351.61	25.83	-42.3	-47.0	10.5	4.85e-03	0	59	0	233832448	55	6450
2026-01-13 00:37:07.88	351.43	25.96	-42.4	-47.2	10.3	4.38e-03	0	60	0	235929600	55	6590
2026-01-13 00:37:08.89	351.25	26.10	-42.4	-47.1	10.4	4.85e-03	0	59	0	238026752	55	6555
2026-01-13 00:37:09.90	351.07	26.23	-42.5	-47.4	10.2	6.14e-03	0	59	0	240123904	55	6731
2026-01-13 00:37:10.91	350.88	26.36	-42.5	-47.4	10.1	6.61e-03	0	59	0	241172480	55	6741
2026-01-13 00:37:11.92	350.69	26.50	-42.5	-47.4	10.2	6.70e-03	0	60	0	243269632	55	6764
2026-01-13 00:37:12.93	350.50	26.63	-42.4	-47.2	10.4	4.74e-03	0	59	0	245366784	55	6584
2026-01-13 00:37:13.94	350.31	26.77	-42.4	-47.2	10.4	4.94e-03	0	59	0	247463936	55	6613
2026-01-13 00:37:14.95	350.12	26.90	-42.5	-47.2	10.4	4.75e-03	0	59	0	249561088	55	6634
2026-01-13 00:37:15.96	349.92	27.04	-42.5	-47.2	10.4	4.91e-03	0	59	0	250609664	55	6618
2026-01-13 00:37:16.97	349.73	27.17	-42.5	-47.4	10.3	5.11e-03	0	59	0	252706816	55	6732
2026-01-13 00:37:17.98	349.53	27.31	-42.6	-47.4	10.2	5.63e-03	0	60	0	254803968	55	6763
2026-01-13 00:37:18.99	349.33	27.45	-42.6	-47.4	10.3	5.24e-03	0	59	0	256901120	55	6748
2026-01-13 00:37:20.00	349.13	27.58	-42.6	-47.4	10.3	5.42e-03	0	60	0	258998272	55	6751
2026-01-13 00:37:21.01	348.93	27.72	-42.6	-47.5	10.2	6.15e-03	0	59	0	260046848	55	6856
2026-01-13 00:37:22.02	348.72	27.86	-42.7	-47.7	9.9	7.37e-03	0	60	0	262144000	55	7039
2026-01-13 00:37:23.03	348.52	28.00	-42.9	-48.0	9.9	9.14e-03	0	59	0	264241152	56	6818
2026-01-13 00:37:24.04	348.31	28.13	-43.0	-48.1	9.8	8.88e-03	0	60	0	266338304	56	6885
2026-01-13 00:37:25.05	348.10	28.27	-43.0	-48.2	9.7	1.11e-02	0	60	0	268435456	56	6971
2026-01-13 00:37:26.06	347.89	28.41	-43.0	-48.3	9.6	1.40e-02	0	60	0	269484032	56	7043
2026-01-13 00:37:27.07	347.67	28.55	-43.1	-48.5	9.4	1.52e-02	0	59	0	271581184	56	7213
2026-01-13 00:37:28.08	347.46	28.69	-43.2	-48.5	9.3	1.84e-02	0	59	0	273678336	56	7287
2026-01-13 00:37:29.08	347.24	28.83	-43.3	-48.9	9.0	2.49e-02	0	60	0	275775488	57	7126
2026-01-13 00:37:30.09	347.02	28.96	-43.3	-48.9	8.9	2.49e-02	0	59	0	277872640	57	7159
2026-01-13 00:37:31.10	346.80	29.10	-43.4	-49.2	8.7	2.87e-02	0	59	0	278921216	57	7383
2026-01-13 00:37:32.11	346.58	29.24	-43.4	-49.3	8.6	3.77e-02	0	59	0	281018368	57	7490
2026-01-13 00:37:33.12	346.35	29.38	-43.5	-49.4	8.5	3.94e-02	0	60	0	283115520	57	7625
2026-01-13 00:37:34.13	346.12	29.52	-43.6	-49.9	8.0	5.51e-02	0	60	0	285212672	57	8027
2026-01-13 00:37:35.14	345.90	29.66	-43.7	-50.0	7.9	7.26e-02	0	60	0	287309824	57	8144
2026-01-13 00:37:36.15	345.66	29.81	-43.7	-50.3	7.6	9.06e-02	0	60	0	288358400	58	7978
2026-01-13 00:37:37.16	345.43	29.95	-43.8	-50.6	7.3	1.16e-01	0	60	0	290455552	58	8216
2026-01-13 00:37:38.17	345.20	30.09	-43.9	-50.8	7.2	1.23e-01	0	60	0	292552704	58	8384
2026-01-13 00:37:39.18	344.96	30.23	-44.0	-51.2	6.8	1.55e-01	0	60	0	294649856	58	8816
2026-01-13 00:37:40.19	344.72	30.37	-43.9	-51.1	6.9	1.57e-01	0	60	0	296747008	58	8675
2026-01-13 00:37:41.20	344.48	30.51	-44.0	-51.2	6.8	1.66e-01	0	60	0	298844160	58	8801
2026-01-13 00:37:42.21	344.23	30.65	-43.9	-50.9	7.1	1.58e-01	0	60	0	299892736	58	8493
2026-01-13 00:37:43.22	343.99	30.79	-43.9	-50.9	7.1	1.42e-01	0	60	0	301989888	58	8499
2026-01-13 00:37:44.23	343.74	30.93	-43.9	-50.8	7.1	1.41e-01	0	60	0	304087040	58	8463
2026-01-13 00:37:45.24	343.49	31.08	-43.9	-50.7	7.3	1.29e-01	0	59	0	306184192	58	8342
2026-01-13 00:37:46.25	343.23	31.22	-43.9	-50.7	7.3	1.25e-01	0	60	0	308281344	58	8326
2026-01-13 00:37:47.26	342.98	31.36	-43.8	-50.5	7.5	1.15e-01	0	60	0	309329920	58	8152
2026-01-13 00:37:48.27	342.72	31.50	-43.8	-50.4	7.5	9.49e-02	0	60	0	311427072	58	8056
2026-01-13 00:37:49.28	342.46	31.64	-43.8	-50.4	7.6	9.65e-02	0	60	0	313524224	58	8019
2026-01-13 00:37:50.29	342.20	31.78	-43.8	-50.2	7.8	9.56e-02	0	59	0	315621376	58	7890
2026-01-13 00:37:51.30	341.94	31.93	-43.8	-50.2	7.7	8.96e-02	0	60	0	317718528	58	7895
2026-01-13 00:37:52.31	341.67	32.07	-43.8	-50.3	7.7	8.78e-02	0	60	0	318767104	58	7977
2026-01-13 00:37:53.32	341.40	32.21	-43.8	-50.3	7.7	8.19e-02	0	60	0	320864256	58	7933
2026-01-13 00:37:54.33	341.13	32.35	-43.9	-50.4	7.6	9.15e-02	0	60	0	322961408	58	8075
2026-01-13 00:37:55.34	340.85	32.49	-43.9	-50.6	7.5	1.03e-01	0	60	0	325058560	58	8195
2026-01-13 00:37:56.35	340.58	32.63	-44.0	-50.8	7.3	1.22e-01	0	60	0	327155712	58	8388
2026-01-13 00:37:57.36	340.30	32.78	-43.9	-50.7	7.4	1.19e-01	0	60	0	328204288	58	8280
2026-01-13 00:37:58.37	340.02	32.92	-43.9	-50.6	7.5	1.08e-01	0	60	0	330301440	58	8186
2026-01-13 00:37:59.38	339.74	33.06	-43.9	-50.4	7.6	9.29e-02	0	60	0	332398592	58	8057
2026-01-13 00:38:00.39	339.45	33.20	-43.8	-50.2	7.8	8.63e-02	0	60	0	334495744	58	7887
2026-01-13 00:38:01.40	339.16	33.34	-43.8	-50.2	7.9	7.93e-02	0	60	0	336592896	58	7863
2026-01-13 00:38:02.41	338.87	33.48	-43.8	-50.1	8.0	7.19e-02	0	60	0	337641472	58	7753
2026-01-13 00:38:03.42	338.58	33.62	-43.8	-50.2	7.9	6.98e-02	0	60	0	339738624	58	7827
2026-01-13 00:38:04.43	338.28	33.76	-43.7	-49.7	8.4	5.99e-02	0	60	0	341835776	58	7372
2026-01-13 00:38:05.44	337.98	33.90	-43.6	-49.4	8.7	3.80e-02	0	60	0	343932928	58	7204
2026-01-13 00:38:06.45	337.68	34.04	-43.6	-49.3	8.8	3.41e-02	0	60	0	346030080	58	7090
2026-01-13 00:38:07.46	337.37	34.18	-43.5	-49.1	8.9	3.30e-02	0	60	0	347078656	58	6946
2026-01-13 00:38:08.47	337.07	34.32	-43.5	-49.0	9.1	2.77e-02	0	60	0	349175808	58	6830
2026-01-13 00:38:09.48	336.76	34.46	-43.5	-49.0	9.2	2.31e-02	0	60	0	351272960	58	6804
2026-01-13 00:38:10.48	336.45	34.60	-43.4	-48.9	9.3	2.04e-02	0	60	0	353370112	58	6729
2026-01-13 00:38:11.49	336.13	34.73	-43.4	-48.6	9.5	1.47e-02	0	60	0	355467264	58	6530
2026-01-13 00:38:12.50	335.82	34.87	-43.3	-48.5	9.6	1.56e-02	0	60	0	356515840	58	6486
2026-01-13 00:38:13.51	335.50	35.01	-43.2	-48.2	10.0	1.02e-02	0	60	0	358612992	58	6240
2026-01-13 00:38:14.52	335.17	35.15	-43.2	-48.1	10.0	7.37e-03	0	60	0	360710144	58	6175
2026-01-13 00:38:15.53	334.85	35.28	-43.2	-48.2	10.0	7.55e-03	0	60	0	362807296	58	6254
2026-01-13 00:38:16.54	334.52	35.42	-43.3	-48.4	9.7	8.81e-03	0	60	0	364904448	58	6389
2026-01-13 00:38:17.55	334.19	35.55	-43.3	-48.5	9.7	1.19e-02	0	60	0	367001600	58	6466
2026-01-13 00:38:18.56	333.86	35.69	-43.4	-48.6	9.6	1.31e-02	0	60	0	368050176	58	6524
2026-01-13 00:38:19.57	333.52	35.82	-43.4	-48.9	9.3	1.59e-02	0	60	0	370147328	58	6730
2026-01-13 00:38:20.59	333.18	35.96	-43.4	-48.7	9.4	1.57e-02	0	60	0	372244480	58	6629
2026-01-13 00:38:21.60	332.83	36.09	-43.4	-48.8	9.3	1.75e-02	0	60	0	374341632	58	6695
2026-01-13 00:38:22.61	332.49	36.23	-43.5	-48.9	9.2	1.99e-02	0	60	0	376438784	58	6765
2026-01-13 00:38:23.62	332.14	36.36	-43.5	-49.0	9.2	2.01e-02	0	60	0	377487360	58	6812
2026-01-13 00:38:24.63	331.79	36.49	-43.5	-49.0	9.2	2.16e-02	0	60	0	379584512	58	6820
2026-01-13 00:38:25.64	331.43	36.62	-43.5	-49.0	9.1	2.07e-02	0	60	0	381681664	58	6872
2026-01-13 00:38:26.65	331.08	36.75	-43.5	-49.0	9.1	2.21e-02	0	60	0	383778816	58	6841
2026-01-13 00:38:27.65	330.72	36.88	-43.5	-48.9	9.2	1.83e-02	0	60	0	385875968	58	6758
2026-01-13 00:38:28.66	330.36	37.00	-43.5	-48.8	9.3	1.95e-02	0	60	0	386924544	58	6720
2026-01-13 00:38:29.67	329.99	37.13	-43.4	-48.8	9.3	1.95e-02	0	60	0	389021696	58	6696
2026-01-13 00:38:30.68	329.63	37.26	-43.5	-49.0	9.2	1.91e-02	0	60	0	391118848	58	6803
2026-01-13 00:38:31.69	329.26	37.38	-43.5	-49.0	9.1	2.03e-02	0	60	0	393216000	58	6838
2026-01-13 00:38:32.70	328.88	37.51	-43.6	-49.3	8.8	2.23e-02	0	60	0	395313152	58	7102
2026-01-13 00:38:33.71	328.50	37.63	-43.7	-49.4	8.7	3.36e-02	0	60	0	396361728	58	7182
2026-01-13 00:38:34.72	328.12	37.76	-43.7	-49.6	8.6	3.70e-02	0	60	0	398458880	58	7312
2026-01-13 00:38:35.73	327.74	37.88	-43.8	-49.8	8.4	5.15e-02	0	60	0	400556032	58	7476
2026-01-13 00:38:36.74	327.36	38.00	-43.7	-49.6	8.5	4.27e-02	0	60	0	402653184	58	7370
2026-01-13 00:38:37.75	326.97	38.12	-43.7	-49.5	8.6	3.82e-02	0	60	0	404750336	58	7266
2026-01-13 00:38:38.76	326.58	38.24	-43.6	-49.4	8.8	3.29e-02	0	60	0	405798912	58	7142
2026-01-13 00:38:39.77	326.18	38.36	-43.7	-49.6	8.5	3.42e-02	0	60	0	407896064	58	7302
2026-01-13 00:38:40.78	325.79	38.47	-43.7	-49.7	8.4	4.91e-02	0	60	0	409993216	58	7406
2026-01-13 00:38:41.79	325.39	38.59	-43.7	-49.7	8.4	4.54e-02	0	60	0	412090368	58	7379
2026-01-13 00:38:42.80	324.98	38.70	-43.6	-49.3	8.9	4.22e-02	0	60	0	414187520	58	7069
2026-01-13 00:38:43.81	324.58	38.81	-43.6	-49.3	8.9	2.80e-02	0	60	0	415236096	58	7054
2026-01-13 00:38:44.82	324.17	38.93	-43.6	-49.1	9.0	2.90e-02	0	60	0	417333248	58	6927
2026-01-13 00:38:45.83	323.76	39.04	-43.5	-49.0	9.1	2.32e-02	0	60	0	419430400	58	6855
2026-01-13 00:38:46.84	323.34	39.15	-43.5	-48.9	9.2	2.18e-02	0	60	0	421527552	58	6755
2026-01-13 00:38:47.85	322.93	39.25	-43.4	-48.7	9.5	1.64e-02	0	60	0	423624704	58	6584
2026-01-13 00:38:48.86	322.51	39.36	-43.3	-48.3	9.9	1.15e-02	0	60	0	424673280	58	6337
2026-01-13 00:38:49.87	322.09	39.46	-43.1	-47.9	10.3	8.15e-03	0	60	0	426770432	58	6059
2026-01-13 00:38:50.88	321.66	39.57	-43.1	-47.8	10.4	4.26e-03	0	60	0	428867584	58	5977
2026-01-13 00:38:51.89	321.23	39.67	-43.1	-47.8	10.4	4.89e-03	0	60	0	430964736	58	5963
2026-01-13 00:38:52.90	320.80	39.77	-43.0	-47.5	10.7	3.65e-03	0	60	0	433061888	58	5782
2026-01-13 00:38:53.91	320.37	39.87	-42.9	-47.3	10.9	2.45e-03	0	60	0	435159040	57	5967
2026-01-13 00:38:54.92	319.93	39.96	-42.9	-47.3	11.0	1.94e-03	0	60	0	436207616	57	5931
2026-01-13 00:38:55.93	319.49	40.06	-42.9	-47.3	11.0	1.85e-03	0	60	0	438304768	57	5946
2026-01-13 00:38:56.94	319.05	40.15	-42.9	-47.4	10.8	2.28e-03	0	60	0	440401920	57	6019
2026-01-13 00:38:57.95	318.61	40.25	-43.0	-47.6	10.6	2.94e-03	0	60	0	442499072	57	6191
2026-01-13 00:38:58.96	318.16	40.34	-43.1	-47.8	10.4	3.66e-03	0	60	0	444596224	57	6282
2026-01-13 00:38:59.97	317.72	40.42	-43.1	-48.0	10.2	5.30e-03	0	60	0	445644800	57	6456
2026-01-13 00:39:00.98	317.26	40.51	-43.1	-47.9	10.3	5.96e-03	0	60	0	447741952	57	6386
2026-01-13 00:39:01.98	316.82	40.60	-43.2	-48.1	10.1	5.71e-03	0	60	0	449839104	57	6500
2026-01-13 00:39:02.99	316.36	40.68	-43.1	-48.0	10.2	6.59e-03	0	60	0	451936256	57	6426
2026-01-13 00:39:04.00	315.90	40.76	-43.1	-47.8	10.4	4.98e-03	0	60	0	454033408	57	6334
2026-01-13 00:39:05.01	315.44	40.84	-43.0	-47.6	10.7	4.00e-03	0	60	0	455081984	57	6134
2026-01-13 00:39:06.02	314.98	40.92	-42.9	-47.3	10.9	2.50e-03	0	60	0	457179136	57	5958
2026-01-13 00:39:07.03	314.51	40.99	-42.8	-47.1	11.1	1.69e-03	0	60	0	459276288	57	5827
2026-01-13 00:39:08.04	314.05	41.07	-42.7	-46.9	11.3	1.14e-03	0	60	0	461373440	57	5690
2026-01-13 00:39:09.05	313.58	41.14	-42.7	-47.0	11.3	1.32e-03	0	60	0	463470592	57	5733
2026-01-13 00:39:10.06	313.11	41.21	-42.7	-46.8	11.5	1.09e-03	0	60	0	464519168	57	5632
2026-01-13 00:39:11.07	312.63	41.27	-42.6	-46.6	11.6	7.61e-04	0	60	0	466616320	57	5496
2026-01-13 00:39:12.08	312.16	41.34	-42.5	-46.6	11.7	6.92e-04	0	60	0	468713472	57	5471
2026-01-13 00:39:13.09	311.68	41.40	-42.5	-46.5	11.7	6.49e-04	0	60	0	470810624	57	5461
2026-01-13 00:39:14.10	311.20	41.46	-42.6	-46.8	11.5	8.00e-04	0	60	0	472907776	57	5611
2026-01-13 00:39:15.11	310.72	41.52	-42.6	-46.8	11.4	1.07e-03	0	60	0	473956352	57	5621
2026-01-13 00:39:16.12	310.24	41.58	-42.6	-46.8	11.4	9.66e-04	0	60	0	476053504	57	5624
2026-01-13 00:39:17.13	309.75	41.63	-42.5	-46.4	11.9	5.41e-04	0	60	0	478150656	56	5718
2026-01-13 00:39:18.14	309.27	41.68	-42.4	-46.2	12.1	3.58e-04	0	60	0	480247808	56	5556
2026-01-13 00:39:19.14	308.79	41.73	-42.4	-46.3	12.0	2.83e-04	0	60	0	482344960	56	5614
2026-01-13 00:39:20.15	308.30	41.78	-42.3	-46.2	12.1	3.13e-04	0	60	0	483393536	56	5533
2026-01-13 00:39:21.16	307.81	41.83	-42.3	-46.1	12.2	3.06e-04	0	60	0	485490688	56	5471
2026-01-13 00:39:22.17	307.32	41.87	-42.3	-46.1	12.2	1.98e-04	0	60	0	487587840	56	5486
2026-01-13 00:39:23.18	306.82	41.91	-42.4	-46.3	12.0	2.53e-04	0	60	0	489684992	56	5595
2026-01-13 00:39:24.19	306.33	41.95	-42.5	-46.5	11.7	4.55e-04	0	60	0	491782144	56	5764
2026-01-13 00:39:25.20	305.83	41.98	-42.6	-46.6	11.7	6.06e-04	0	60	0	492830720	56	5844
2026-01-13 00:39:26.21	305.34	42.02	-42.5	-46.5	11.8	6.36e-04	0	60	0	494927872	56	5746
2026-01-13 00:39:27.22	304.84	42.05	-42.4	-46.2	12.0	3.39e-04	0	60	0	497025024	56	5551
2026-01-13 00:39:28.23	304.34	42.08	-42.4	-46.3	11.9	2.91e-04	0	60	0	499122176	56	5626
2026-01-13 00:39:29.24	303.84	42.10	-42.4	-46.3	12.0	3.74e-04	0	60	0	501219328	56	5598
2026-01-13 00:39:30.25	303.34	42.13	-42.5	-46.5	11.7	4.42e-04	0	60	0	503316480	56	5736
2026-01-13 00:39:31.26	302.84	42.15	-42.6	-46.8	11.4	7.09e-04	0	60	0	504365056	56	5961
2026-01-13 00:39:32.27	302.34	42.17	-42.7	-46.9	11.3	1.07e-03	0	60	0	506462208	56	6039
2026-01-13 00:39:33.28	301.84	42.18	-42.7	-47.0	11.2	1.24e-03	0	60	0	508559360	56	6129
2026-01-13 00:39:34.29	301.33	42.20	-42.7	-47.0	11.3	1.25e-03	0	60	0	510656512	56	6064
2026-01-13 00:39:35.29	300.84	42.21	-42.7	-47.0	11.2	1.33e-03	0	60	0	512753664	56	6100
2026-01-13 00:39:36.30	300.33	42.22	-42.7	-47.0	11.2	1.54e-03	0	60	0	513802240	56	6095
2026-01-13 00:39:37.31	299.83	42.23	-42.7	-47.0	11.2	1.39e-03	0	60	0	515899392	56	6106
2026-01-13 00:39:38.32	299.33	42.23	-42.8	-47.2	11.0	1.65e-03	0	60	0	517996544	56	6230
2026-01-13 00:39:39.33	298.82	42.23	-43.0	-47.7	10.5	3.14e-03	0	60	0	520093696	56	6587
2026-01-13 00:39:40.34	298.32	42.23	-43.1	-48.0	10.1	5.17e-03	0	60	0	522190848	56	6846
2026-01-13 00:39:41.35	297.82	42.23	-43.2	-48.1	10.0	7.52e-03	0	60	0	523239424	56	6916
2026-01-13 00:39:42.36	297.31	42.22	-43.2	-48.1	10.1	6.81e-03	0	60	0	525336576	56	6886
2026-01-13 00:39:43.37	296.81	42.21	-43.2	-48.1	10.0	7.34e-03	0	60	0	527433728	56	6954
2026-01-13 00:39:44.38	296.31	42.20	-43.2	-48.2	9.9	9.41e-03	0	60	0	529530880	57	6601
2026-01-13 00:39:45.39	295.80	42.19	-43.3	-48.3	9.8	1.03e-02	0	60	0	531628032	57	6709
2026-01-13 00:39:46.40	295.30	42.17	-43.3	-48.3	9.8	1.03e-02	0	60	0	532676608	57	6689
2026-01-13 00:39:47.41	294.80	42.15	-43.2	-48.2	9.9	1.03e-02	0	60	0	534773760	57	6636
2026-01-13 00:39:48.42	294.30	42.13	-43.3	-48.4	9.7	9.76e-03	0	60	0	536870912	57	6758
2026-01-13 00:39:49.43	293.80	42.11	-43.3	-48.6	9.5	1.23e-02	0	60	0	538968064	57	6910
2026-01-13 00:39:50.43	293.30	42.08	-43.4	-48.8	9.3	1.54e-02	0	60	0	541065216	57	7087
2026-01-13 00:39:51.44	292.80	42.06	-43.6	-49.2	8.8	2.23e-02	0	60	0	542113792	57	7443
2026-01-13 00:39:52.45	292.31	42.02	-43.6	-49.4	8.7	3.64e-02	0	60	0	544210944	57	7556
2026-01-13 00:39:53.46	291.81	41.99	-43.6	-49.3	8.8	3.99e-02	0	60	0	546308096	57	7506
2026-01-13 00:39:54.47	291.31	41.96	-43.6	-49.2	8.8	3.13e-02	0	60	0	548405248	57	7454
2026-01-13 00:39:55.48	290.82	41.92	-43.6	-49.2	8.8	3.02e-02	0	60	0	550502400	57	7425
2026-01-13 00:39:56.49	290.32	41.88	-43.7	-49.5	8.6	3.47e-02	0	60	0	551550976	57	7676
2026-01-13 00:39:57.50	289.83	41.84	-43.7	-49.6	8.5	3.89e-02	0	60	0	553648128	57	7771
2026-01-13 00:39:58.51	289.34	41.79	-43.8	-49.9	8.1	5.77e-02	0	60	0	555745280	58	7607
2026-01-13 00:39:59.52	288.85	41.74	-44.0	-50.4	7.7	7.98e-02	0	60	0	557842432	58	8062
2026-01-13 00:40:00.53	288.36	41.69	-44.1	-51.0	7.1	1.08e-01	0	60	0	559939584	58	8573
2026-01-13 00:40:01.54	287.88	41.64	-44.1	-51.1	7.0	1.56e-01	0	60	0	560988160	58	8699
2026-01-13 00:40:02.55	287.39	41.59	-44.1	-51.1	7.0	1.55e-01	0	60	0	563085312	58	8710
2026-01-13 00:40:03.56	286.91	41.53	-44.1	-50.9	7.1	1.36e-01	0	60	0	565182464	58	8538
2026-01-13 00:40:04.56	286.43	41.48	-44.0	-50.7	7.4	1.30e-01	0	60	0	567279616	58	8330
2026-01-13 00:40:05.57	285.95	41.41	-44.1	-50.9	7.2	1.22e-01	0	60	0	569376768	58	8493
2026-01-13 00:40:06.58	285.47	41.35	-44.1	-51.2	6.9	1.40e-01	0	60	0	571473920	58	8804
2026-01-13 00:40:07.59	285.00	41.29	-44.2	-51.4	6.7	1.92e-01	0	60	0	572522496	58	9058
2026-01-13 00:40:08.60	284.52	41.22	-44.2	-51.5	6.6	2.02e-01	0	60	0	574619648	58	9120
2026-01-13 00:40:09.61	284.05	41.15	-44.0	-50.8	7.3	1.46e-01	0	60	0	576716800	58	8386
2026-01-13 00:40:10.62	283.58	41.08	-43.9	-50.2	7.9	9.93e-02	0	60	0	578813952	58	7819
2026-01-13 00:40:11.63	283.11	41.01	-43.8	-49.9	8.0	6.75e-02	0	60	0	580911104	58	7625
2026-01-13 00:40:12.64	282.65	40.93	-43.6	-49.3	8.7	4.52e-02	0	60	0	581959680	58	7084
2026-01-13 00:40:13.65	282.18	40.85	-43.4	-48.8	9.3	2.90e-02	0	60	0	584056832	58	6647
2026-01-13 00:40:14.66	281.72	40.78	-43.3	-48.4	9.7	1.30e-02	0	60	0	586153984	58	6377
2026-01-13 00:40:15.67	281.26	40.69	-43.2	-48.1	10.0	8.14e-03	0	60	0	588251136	58	6150
2026-01-13 00:40:16.68	280.80	40.61	-43.2	-48.2	9.9	8.27e-03	0	60	0	589299712	58	6231
2026-01-13 00:40:17.69	280.35	40.53	-43.3	-48.3	9.8	9.32e-03	0	60	0	591396864	58	6284
2026-01-13 00:40:18.70	279.90	40.44	-43.3	-48.4	9.7	1.10e-02	0	60	0	593494016	58	6359
2026-01-13 00:40:19.71	279.45	40.35	-43.3	-48.3	9.8	1.13e-02	0	60	0	595591168	58	6313
2026-01-13 00:40:20.72	279.00	40.26	-43.0	-47.7	10.4	7.61e-03	0	60	0	597688320	58	5880
2026-01-13 00:40:21.72	278.56	40.17	-42.8	-47.2	10.9	2.80e-03	0	60	0	599785472	57	5894
2026-01-13 00:40:22.73	278.12	40.08	-42.7	-47.0	11.1	2.03e-03	0	60	0	600834048	57	5753
2026-01-13 00:40:23.74	277.68	39.98	-42.6	-46.8	11.3	1.21e-03	0	60	0	602931200	57	5619
2026-01-13 00:40:24.75	277.24	39.88	-42.5	-46.5	11.6	8.73e-04	0	60	0	605028352	57	5438
2026-01-13 00:40:25.76	276.80	39.79	-42.7	-46.9	11.2	9.94e-04	0	60	0	607125504	57	5706
2026-01-13 00:40:26.77	276.37	39.69	-42.9	-47.3	10.6	2.12e-03	0	60	0	609222656	57	5991
2026-01-13 00:40:27.78	275.94	39.58	-42.9	-47.5	10.5	4.82e-03	0	60	0	610271232	57	6089
2026-01-13 00:40:28.79	275.52	39.48	-42.7	-47.1	11.0	2.50e-03	0	60	0	612368384	57	5791
2026-01-13 00:40:29.80	275.09	39.38	-42.4	-46.4	11.8	9.60e-04	0	60	0	614465536	56	5661
2026-01-13 00:40:30.81	274.67	39.27	-42.0	-45.6	12.5	1.47e-04	0	60	0	616562688	56	5203
2026-01-13 00:40:31.82	274.25	39.16	-41.6	-45.0	13.0	5.26e-05	0	60	0	618659840	55	5116
2026-01-13 00:40:32.83	273.84	39.05	-41.5	-44.7	13.4	2.05e-05	0	60	0	619708416	54	5244
2026-01-13 00:40:33.84	273.42	38.94	-41.5	-44.8	13.3	1.60e-05	0	60	0	621805568	54	5298
2026-01-13 00:40:34.85	273.01	38.83	-41.7	-45.2	12.9	4.19e-05	0	60	0	623902720	54	5540
2026-01-13 00:40:35.86	272.61	38.72	-42.0	-45.6	12.3	1.17e-04	0	60	0	625999872	54	5846
2026-01-13 00:40:36.87	272.20	38.61	-42.1	-45.9	12.1	1.98e-04	0	60	0	628097024	54	6000
2026-01-13 00:40:37.88	271.80	38.49	-42.0	-45.8	12.2	2.31e-04	0	60	0	629145600	54	5965
2026-01-13 00:40:38.89	271.40	38.37	-42.0	-45.7	12.3	2.17e-04	0	60	0	631242752	54	5865
2026-01-13 00:40:39.90	271.01	38.26	-41.9	-45.4	12.5	1.55e-04	0	60	0	633339904	54	5716
2026-01-13 00:40:40.91	270.61	38.14	-41.7	-45.2	12.8	7.17e-05	0	60	0	635437056	54	5552
2026-01-13 00:40:41.92	270.22	38.02	-41.7	-45.1	12.9	5.64e-05	0	60	0	637534208	54	5528
2026-01-13 00:40:42.93	269.84	37.90	-41.7	-45.2	12.9	5.03e-05	0	60	0	638582784	54	5533
2026-01-13 00:40:43.94	269.45	37.77	-41.8	-45.4	12.6	8.77e-05	0	60	0	640679936	54	5667
2026-01-13 00:40:44.95	269.07	37.65	-41.8	-45.4	12.6	8.31e-05	0	60	0	642777088	54	5681
2026-01-13 00:40:45.96	268.69	37.53	-42.0	-45.7	12.2	1.47e-04	0	60	0	644874240	54	5916
2026-01-13 00:40:46.96	268.32	37.40	-42.2	-46.2	11.8	2.84e-04	0	60	0	646971392	55	5866
2026-01-13 00:40:47.97	267.95	37.28	-42.3	-46.3	11.6	7.32e-04	0	60	0	648019968	55	5961
2026-01-13 00:40:48.98	267.58	37.15	-42.2	-46.1	11.9	5.03e-04	0	60	0	650117120	55	5806
2026-01-13 00:40:49.99	267.21	37.02	-42.2	-46.0	11.9	4.00e-04	0	60	0	652214272	55	5773
2026-01-13 00:40:51.00	266.85	36.89	-42.1	-46.0	11.9	4.07e-04	0	60	0	654311424	55	5753
2026-01-13 00:40:52.01	266.49	36.76	-42.0	-45.8	12.2	2.51e-04	0	60	0	656408576	55	5596
2026-01-13 00:40:53.02	266.13	36.63	-42.0	-45.8	12.2	2.05e-04	0	60	0	657457152	55	5607
2026-01-13 00:40:54.03	265.77	36.50	-42.0	-45.7	12.2	2.27e-04	0	60	0	659554304	55	5579
2026-01-13 00:40:55.04	265.42	36.37	-42.1	-45.9	12.0	2.68e-04	0	60	0	661651456	55	5702
2026-01-13 00:40:56.05	265.07	36.24	-42.3	-46.3	11.6	5.01e-04	0	60	0	663748608	55	5972
2026-01-13 00:40:57.06	264.72	36.11	-42.4	-46.7	11.2	1.02e-03	0	60	0	665845760	55	6213
2026-01-13 00:40:58.07	264.38	35.97	-42.5	-46.7	11.2	1.21e-03	0	60	0	667942912	55	6225
2026-01-13 00:40:59.08	264.04	35.84	-42.4	-46.5	11.3	1.19e-03	0	60	0	668991488	55	6123
2026-01-13 00:41:00.09	263.70	35.70	-42.3	-46.4	11.5	9.38e-04	0	60	0	671088640	55	6052
2026-01-13 00:41:01.10	263.36	35.57	-42.1	-46.0	12.0	4.59e-04	0	60	0	673185792	55	5730
2026-01-13 00:41:02.11	263.03	35.43	-42.1	-45.9	12.0	3.64e-04	0	60	0	675282944	55	5710
2026-01-13 00:41:03.12	262.70	35.30	-42.2	-46.1	11.9	3.72e-04	0	60	0	677380096	55	5806
2026-01-13 00:41:04.13	262.37	35.16	-42.4	-46.5	11.5	7.67e-04	0	60	0	678428672	55	6072
2026-01-13 00:41:05.14	262.05	35.02	-42.6	-47.0	10.9	1.26e-03	0	60	0	680525824	55	6435
2026-01-13 00:41:06.15	261.73	34.88	-42.7	-47.2	10.6	2.65e-03	0	60	0	682622976	55	6644
2026-01-13 00:41:07.16	261.41	34.75	-42.9	-47.5	10.5	3.48e-03	0	60	0	684720128	56	6434
2026-01-13 00:41:08.17	261.09	34.61	-42.9	-47.5	10.6	4.00e-03	0	60	0	686817280	56	6426
2026-01-13 00:41:09.18	260.78	34.47	-42.9	-47.6	10.4	3.98e-03	0	60	0	687865856	56	6501
2026-01-13 00:41:10.19	260.47	34.33	-43.0	-47.8	10.2	5.34e-03	0	60	0	689963008	56	6659
2026-01-13 00:41:11.20	260.16	34.19	-43.1	-48.1	9.9	7.57e-03	0	60	0	692060160	56	6887
2026-01-13 00:41:12.21	259.85	34.05	-43.1	-48.2	9.7	1.00e-02	0	60	0	694157312	56	6960
2026-01-13 00:41:13.22	259.55	33.91	-43.2	-48.3	9.6	1.17e-02	0	60	0	696254464	56	7111
2026-01-13 00:41:14.23	259.25	33.77	-43.3	-48.5	9.5	1.48e-02	0	60	0	697303040	57	6826
2026-01-13 00:41:15.24	258.95	33.63	-43.3	-48.7	9.3	1.60e-02	0	60	0	699400192	57	6972
2026-01-13 00:41:16.25	258.66	33.49	-43.4	-48.7	9.2	1.96e-02	0	60	0	701497344	57	7039
2026-01-13 00:41:17.26	258.36	33.35	-43.4	-49.0	8.9	2.29e-02	0	60	0	703594496	57	7240
2026-01-13 00:41:18.27	258.07	33.20	-43.5	-49.0	8.9	2.55e-02	0	60	0	705691648	57	7284
2026-01-13 00:41:19.28	257.79	33.06	-43.5	-49.2	8.7	3.35e-02	0	60	0	707788800	57	7422
2026-01-13 00:41:20.29	257.50	32.92	-43.5	-49.0	8.8	3.22e-02	0	60	0	708837376	57	7281
2026-01-13 00:41:21.30	257.22	32.78	-43.4	-49.0	8.9	3.14e-02	0	60	0	710934528	57	7273
2026-01-13 00:41:22.31	256.94	32.64	-43.5	-49.2	8.8	3.15e-02	0	60	0	713031680	57	7377
2026-01-13 00:41:23.32	256.66	32.49	-43.6	-49.4	8.4	3.86e-02	0	60	0	715128832	57	7616
2026-01-13 00:41:24.33	256.39	32.35	-43.7	-49.7	8.2	4.47e-02	0	60	0	716177408	57	7878
2026-01-13 00:41:25.34	256.11	32.21	-43.8	-50.2	7.7	7.09e-02	0	60	0	718274560	58	7847
2026-01-13 00:41:26.35	255.84	32.07	-43.8	-50.2	7.7	8.45e-02	0	60	0	720371712	58	7827
2026-01-13 00:41:27.36	255.57	31.93	-43.8	-50.1	7.8	9.40e-02	0	60	0	722468864	58	7789
2026-01-13 00:41:28.36	255.31	31.78	-43.7	-49.8	8.1	7.48e-02	0	60	0	724566016	58	7492
2026-01-13 00:41:29.37	255.05	31.64	-43.6	-49.5	8.4	5.25e-02	0	60	0	725614592	58	7227
2026-01-13 00:41:30.38	254.79	31.50	-43.5	-49.2	8.8	3.31e-02	0	60	0	727711744	58	6964
2026-01-13 00:41:31.39	254.53	31.36	-43.5	-49.3	8.6	3.63e-02	0	60	0	729808896	58	7054
2026-01-13 00:41:32.40	254.27	31.22	-43.6	-49.5	8.4	4.24e-02	0	60	0	731906048	58	7228
2026-01-13 00:41:33.41	254.02	31.07	-43.7	-49.8	8.0	6.02e-02	0	60	0	734003200	58	7513
2026-01-13 00:41:34.42	253.76	30.93	-43.7	-49.8	8.1	6.81e-02	0	60	0	736100352	58	7529
2026-01-13 00:41:35.43	253.51	30.79	-43.7	-49.9	8.0	7.46e-02	0	60	0	737148928	58	7596
2026-01-13 00:41:36.44	253.27	30.65	-43.7	-49.7	8.2	5.91e-02	0	60	0	739246080	58	7413
2026-01-13 00:41:37.45	253.02	30.50	-43.6	-49.6	8.3	5.24e-02	0	60	0	741343232	58	7297
2026-01-13 00:41:38.46	252.78	30.36	-43.5	-49.3	8.6	4.81e-02	0	60	0	743440384	58	7073
2026-01-13 00:41:39.47	252.54	30.22	-43.5	-49.1	8.8	3.76e-02	0	60	0	745537536	58	6936
2026-01-13 00:41:40.48	252.30	30.08	-43.5	-49.1	8.8	2.90e-02	0	60	0	746586112	58	6898
2026-01-13 00:41:41.49	252.06	29.94	-43.5	-49.1	8.8	2.87e-02	0	60	0	748683264	58	6892
2026-01-13 00:41:42.50	251.83	29.80	-43.5	-49.1	8.7	3.43e-02	0	60	0	750780416	58	6952
2026-01-13 00:41:43.51	251.59	29.66	-43.5	-49.3	8.5	3.77e-02	0	60	0	752877568	58	7102
2026-01-13 00:41:44.52	251.36	29.51	-43.4	-48.8	9.0	3.34e-02	0	60	0	754974720	58	6721
2026-01-13 00:41:45.52	251.14	29.38	-43.3	-48.6	9.3	2.02e-02	0	60	0	756023296	58	6560
2026-01-13 00:41:46.53	250.91	29.23	-43.2	-48.4	9.5	1.61e-02	0	60	0	758120448	58	6375
2026-01-13 00:41:47.55	250.68	29.09	-43.2	-48.5	9.4	1.69e-02	0	60	0	760217600	58	6451
2026-01-13 00:41:48.55	250.46	28.95	-43.2	-48.2	9.7	1.38e-02	0	60	0	762314752	58	6268
2026-01-13 00:41:49.56	250.24	28.81	-43.1	-48.2	9.7	9.73e-03	0	60	0	764411904	58	6234
2026-01-13 00:41:50.57	250.02	28.67	-43.0	-47.9	10.0	9.78e-03	0	60	0	765460480	58	6042
2026-01-13 00:41:51.58	249.80	28.53	-43.0	-47.9	10.0	7.59e-03	0	60	0	767557632	58	6031
2026-01-13 00:41:52.59	249.59	28.40	-43.0	-47.9	9.9	7.74e-03	0	60	0	769654784	58	6049
2026-01-13 00:41:53.60	249.38	28.26	-43.0	-47.9	10.0	7.03e-03	0	60	0	771751936	58	6005
2026-01-13 00:41:54.61	249.16	28.12	-43.0	-47.9	10.0	7.99e-03	0	60	0	773849088	58	6061
2026-01-13 00:41:55.62	248.96	27.98	-43.0	-47.9	10.0	7.72e-03	0	60	0	774897664	58	6030
2026-01-13 00:41:56.63	248.75	27.84	-43.0	-47.9	10.0	8.59e-03	0	60	0	776994816	58	6052
2026-01-13 00:41:57.64	248.54	27.70	-43.0	-48.0	9.9	7.47e-03	0	60	0	779091968	58	6090
2026-01-13 00:41:58.65	248.34	27.56	-43.0	-47.8	10.1	7.72e-03	0	60	0	781189120	58	5957
2026-01-13 00:41:59.66	248.14	27.43	-42.9	-47.8	10.1	6.75e-03	0	60	0	783286272	57	6286
2026-01-13 00:42:00.67	247.93	27.29	-43.0	-47.9	10.0	7.56e-03	0	60	0	784334848	57	6365
2026-01-13 00:42:01.68	247.74	27.15	-42.9	-47.7	10.2	7.52e-03	0	60	0	786432000	57	6256
2026-01-13 00:42:02.69	247.54	27.02	-42.9	-47.8	10.1	6.42e-03	0	60	0	788529152	57	6313
2026-01-13 00:42:03.70	247.34	26.88	-42.8	-47.4	10.4	4.68e-03	0	60	0	790626304	57	6052
2026-01-13 00:42:04.71	247.15	26.74	-42.8	-47.4	10.5	4.33e-03	0	60	0	792723456	57	6061
2026-01-13 00:42:05.71	246.96	26.61	-42.8	-47.3	10.6	4.07e-03	0	60	0	793772032	57	5982
2026-01-13 00:42:06.72	246.77	26.48	-42.8	-47.4	10.5	3.98e-03	0	60	0	795869184	57	6016
2026-01-13 00:42:07.73	246.58	26.34	-42.8	-47.4	10.5	3.76e-03	0	60	0	797966336	57	6030
2026-01-13 00:42:08.75	246.39	26.20	-42.8	-47.4	10.5	3.64e-03	0	60	0	800063488	57	6008
2026-01-13 00:42:09.75	246.21	26.07	-42.7	-47.3	10.6	3.47e-03	0	60	0	802160640	57	5947
2026-01-13 00:42:10.76	246.02	25.94	-42.8	-47.4	10.6	3.60e-03	0	60	0	804257792	57	6003
2026-01-13 00:42:11.77	245.84	25.80	-42.8	-47.5	10.4	4.45e-03	0	60	0	805306368	57	6090
2026-01-13 00:42:12.78	245.66	25.67	-42.8	-47.6	10.3	5.47e-03	0	60	0	807403520	57	6157
2026-01-13 00:42:13.79	245.48	25.54	-42.8	-47.6	10.3	5.15e-03	0	60	0	809500672	57	6157
2026-01-13 00:42:14.80	245.30	25.41	-42.9	-47.7	10.2	5.68e-03	0	60	0	811597824	57	6243
2026-01-13 00:42:15.81	245.12	25.27	-42.9	-47.7	10.2	5.88e-03	0	60	0	813694976	57	6210
2026-01-13 00:42:16.82	244.95	25.14	-42.9	-47.6	10.2	5.62e-03	0	60	0	814743552	57	6179
2026-01-13 00:42:17.83	244.78	25.01	-42.9	-47.7	10.2	6.36e-03	0	60	0	816840704	57	6210
2026-01-13 00:42:18.84	244.60	24.88	-42.8	-47.5	10.4	5.37e-03	0	60	0	818937856	57	6088
2026-01-13 00:42:19.85	244.43	24.75	-42.8	-47.5	10.3	4.46e-03	0	60	0	821035008	57	6119
2026-01-13 00:42:20.87	244.26	24.62	-42.8	-47.6	10.3	5.10e-03	0	60	0	823132160	57	6144
2026-01-13 00:42:21.88	244.09	24.49	-42.9	-47.7	10.2	6.30e-03	0	60	0	824180736	57	6234
2026-01-13 00:42:22.88	243.93	24.36	-42.9	-47.6	10.2	7.10e-03	0	60	0	826277888	57	6192
2026-01-13 00:42:23.89	243.76	24.23	-42.8	-47.5	10.3	5.42e-03	0	60	0	828375040	57	6122
2026-01-13 00:42:24.91	243.60	24.10	-42.8	-47.5	10.3	5.69e-03	0	60	0	830472192	57	6125
2026-01-13 00:42:25.92	243.44	23.97	-42.8	-47.6	10.2	5.28e-03	0	60	0	832569344	57	6158
2026-01-13 00:42:26.92	243.28	23.84	-42.8	-47.5	10.4	5.06e-03	0	60	0	833617920	57	6084
2026-01-13 00:42:27.93	243.12	23.72	-42.8	-47.5	10.4	4.48e-03	0	60	0	835715072	57	6068
2026-01-13 00:42:28.94	242.96	23.59	-42.9	-47.6	10.2	5.53e-03	0	60	0	837812224	57	6188
2026-01-13 00:42:29.95	242.80	23.46	-42.8	-47.5	10.3	6.35e-03	0	60	0	839909376	57	6120
2026-01-13 00:42:30.96	242.65	23.33	-42.8	-47.6	10.3	5.68e-03	0	60	0	842006528	57	6149
2026-01-13 00:42:31.97	242.49	23.21	-42.9	-47.7	10.1	6.23e-03	0	60	0	843055104	57	6210
2026-01-13 00:42:32.98	242.34	23.08	-42.9	-47.8	10.0	7.19e-03	0	60	0	845152256	57	6343
2026-01-13 00:42:33.99	242.19	22.96	-42.9	-47.8	10.0	7.53e-03	0	60	0	847249408	57	6296
2026-01-13 00:42:35.00	242.04	22.83	-43.0	-47.9	9.9	7.64e-03	0	60	0	849346560	57	6397
2026-01-13 00:42:36.00	241.89	22.71	-43.0	-47.9	9.9	9.43e-03	0	60	0	851443712	57	6390
2026-01-13 00:42:37.02	241.74	22.58	-42.9	-47.8	10.0	8.77e-03	0	60	0	852492288	57	6322
2026-01-13 00:42:38.03	241.59	22.46	-42.9	-47.8	9.9	8.42e-03	0	60	0	854589440	57	6346
2026-01-13 00:42:39.04	241.45	22.34	-42.9	-47.7	10.1	6.88e-03	0	60	0	856686592	57	6253
2026-01-13 00:42:40.05	241.30	22.21	-42.9	-47.6	10.2	7.03e-03	0	60	0	858783744	57	6200
2026-01-13 00:42:41.05	241.16	22.09	-42.8	-47.5	10.3	5.22e-03	0	60	0	860880896	57	6071
2026-01-13 00:42:42.06	241.02	21.97	-42.8	-47.5	10.4	4.88e-03	0	60	0	861929472	57	6080
2026-01-13 00:42:43.08	240.87	21.85	-42.7	-47.4	10.4	4.75e-03	0	60	0	864026624	57	6000
2026-01-13 00:42:44.08	240.73	21.73	-42.8	-47.5	10.3	5.10e-03	0	60	0	866123776	57	6108
2026-01-13 00:42:45.09	240.60	21.61	-42.7	-47.4	10.4	4.77e-03	0	60	0	868220928	57	6021
2026-01-13 00:42:46.10	240.46	21.48	-42.8	-47.7	10.1	5.15e-03	0	60	0	870318080	57	6209
2026-01-13 00:42:47.11	240.32	21.36	-42.8	-47.6	10.2	6.59e-03	0	60	0	872415232	57	6165
2026-01-13 00:42:48.12	240.18	21.24	-42.8	-47.6	10.1	6.42e-03	0	60	0	873463808	57	6192
2026-01-13 00:42:49.13	240.05	21.13	-42.9	-47.8	10.0	8.08e-03	0	60	0	875560960	57	6310
2026-01-13 00:42:50.14	239.92	21.01	-42.9	-47.9	9.8	8.74e-03	0	60	0	877658112	57	6391
2026-01-13 00:42:51.15	239.78	20.89	-42.9	-47.9	9.9	9.34e-03	0	60	0	879755264	57	6398
2026-01-13 00:42:52.16	239.65	20.77	-42.9	-48.0	9.8	9.72e-03	0	60	0	881852416	57	6425
2026-01-13 00:42:53.17	239.52	20.65	-42.9	-47.9	9.9	9.53e-03	0	60	0	882900992	57	6401
2026-01-13 00:42:54.18	239.39	20.53	-43.0	-48.0	9.8	1.01e-02	0	60	0	884998144	57	6468
2026-01-13 00:42:55.19	239.26	20.42	-43.0	-48.0	9.7	1.08e-02	0	60	0	887095296	57	6480
2026-01-13 00:42:56.20	239.13	20.30	-42.9	-47.8	9.9	1.11e-02	0	60	0	889192448	57	6335
2026-01-13 00:42:57.21	239.01	20.18	-42.9	-47.8	9.9	7.91e-03	0	60	0	891289600	57	6316
2026-01-13 00:42:58.22	238.88	20.07	-42.9	-47.8	10.0	7.90e-03	0	60	0	892338176	57	6288
2026-01-13 00:42:59.23	238.76	19.95	-42.9	-47.8	10.0	8.41e-03	0	60	0	894435328	57	6284
2026-01-13 00:43:00.24	238.63	19.84	-42.9	-47.9	9.8	9.78e-03	0	60	0	896532480	57	6403
2026-01-13 00:43:01.24	238.51	19.72	-42.8	-47.7	10.0	8.11e-03	0	60	0	898629632	57	6259
2026-01-13 00:43:02.25	238.39	19.61	-42.9	-47.8	9.9	8.13e-03	0	60	0	900726784	57	6275
2026-01-13 00:43:03.27	238.27	19.49	-42.9	-47.8	9.9	8.32e-03	0	60	0	901775360	57	6308
2026-01-13 00:43:04.28	238.15	19.38	-42.9	-47.8	9.9	8.60e-03	0	60	0	903872512	57	6343
2026-01-13 00:43:05.29	238.03	19.27	-42.8	-47.8	9.9	9.34e-03	0	60	0	905969664	57	6283
2026-01-13 00:43:06.30	237.91	19.15	-42.8	-47.6	10.2	7.31e-03	0	60	0	908066816	57	6148
2026-01-13 00:43:07.30	237.79	19.04	-42.7	-47.5	10.3	5.46e-03	0	61	0	910163968	57	6077
2026-01-13 00:43:08.31	237.68	18.93	-42.8	-47.6	10.1	5.74e-03	0	60	0	911212544	57	6174
2026-01-13 00:43:09.32	237.56	18.82	-42.8	-47.7	10.1	6.88e-03	0	60	0	913309696	57	6204
2026-01-13 00:43:10.33	237.45	18.71	-42.8	-47.6	10.1	6.88e-03	0	60	0	915406848	57	6165
2026-01-13 00:43:11.34	237.33	18.60	-42.8	-47.7	10.0	7.74e-03	0	60	0	917504000	57	6259
2026-01-13 00:43:12.35	237.22	18.49	-42.9	-47.9	9.8	9.09e-03	0	60	0	919601152	57	6357
2026-01-13 00:43:13.36	237.11	18.38	-42.9	-48.1	9.6	1.22e-02	0	60	0	920649728	57	6515
2026-01-13 00:43:14.37	237.00	18.27	-43.0	-48.1	9.5	1.29e-02	0	60	0	922746880	57	6554
2026-01-13 00:43:15.38	236.89	18.16	-43.0	-48.2	9.4	1.40e-02	0	60	0	924844032	57	6637
2026-01-13 00:43:16.39	236.78	18.05	-43.0	-48.1	9.5	1.46e-02	0	60	0	926941184	57	6561
2026-01-13 00:43:17.40	236.67	17.94	-42.9	-47.9	9.8	1.10e-02	0	60	0	929038336	57	6361
2026-01-13 00:43:18.41	236.56	17.83	-42.9	-47.8	9.8	9.43e-03	0	60	0	930086912	57	6345
2026-01-13 00:43:19.42	236.45	17.72	-42.9	-47.8	9.8	9.18e-03	0	60	0	932184064	57	6341
2026-01-13 00:43:20.43	236.34	17.62	-42.8	-47.8	9.9	8.88e-03	0	60	0	934281216	57	6288
2026-01-13 00:43:21.44	236.24	17.51	-42.8	-47.6	10.0	7.97e-03	0	61	0	936378368	57	6197
2026-01-13 00:43:22.45	236.13	17.40	-42.8	-47.7	10.0	7.38e-03	0	61	0	938475520	57	6233
2026-01-13 00:43:23.46	236.03	17.29	-42.7	-47.6	10.1	7.18e-03	0	60	0	940572672	57	6134
2026-01-13 00:43:24.47	235.93	17.19	-42.8	-47.7	10.0	7.26e-03	0	60	0	941621248	57	6214
2026-01-13 00:43:25.48	235.82	17.08	-42.7	-47.6	10.0	7.34e-03	0	60	0	943718400	57	6190
2026-01-13 00:43:26.49	235.72	16.98	-42.8	-47.8	9.9	8.41e-03	0	60	0	945815552	57	6276
2026-01-13 00:43:27.50	235.62	16.87	-42.8	-47.8	9.8	9.69e-03	0	61	0	947912704	57	6324
2026-01-13 00:43:28.51	235.52	16.77	-42.8	-47.7	9.9	9.10e-03	0	60	0	950009856	57	6218
2026-01-13 00:43:29.52	235.42	16.66	-42.7	-47.6	10.0	7.01e-03	0	60	0	951058432	57	6150
2026-01-13 00:43:30.52	235.32	16.56	-42.7	-47.6	10.0	7.11e-03	0	60	0	953155584	57	6173
2026-01-13 00:43:31.53	235.22	16.46	-42.7	-47.4	10.2	6.40e-03	0	60	0	955252736	57	6060
2026-01-13 00:43:32.54	235.12	16.35	-42.7	-47.5	10.1	6.39e-03	0	60	0	957349888	57	6115
2026-01-13 00:43:33.55	235.03	16.25	-42.7	-47.5	10.0	6.79e-03	0	60	0	959447040	57	6129
2026-01-13 00:43:34.56	234.93	16.15	-42.7	-47.4	10.2	6.30e-03	0	60	0	960495616	57	6042
2026-01-13 00:43:35.57	234.83	16.05	-42.7	-47.5	10.2	5.80e-03	0	60	0	962592768	57	6064
2026-01-13 00:43:36.58	234.74	15.94	-42.7	-47.7	9.9	7.63e-03	0	60	0	964689920	57	6228
2026-01-13 00:43:37.59	234.64	15.84	-42.7	-47.7	9.9	9.03e-03	0	60	0	966787072	57	6240
2026-01-13 00:43:38.60	234.55	15.74	-42.7	-47.6	10.0	8.26e-03	0	60	0	968884224	57	6153
2026-01-13 00:43:39.61	234.46	15.64	-42.7	-47.6	10.0	7.38e-03	0	60	0	969932800	57	6146
2026-01-13 00:43:40.62	234.36	15.54	-42.8	-47.7	9.9	8.63e-03	0	60	0	972029952	57	6251
2026-01-13 00:43:41.63	234.27	15.44	-42.8	-47.8	9.7	1.02e-02	0	60	0	974127104	57	6347
2026-01-13 00:43:42.64	234.18	15.34	-42.9	-48.0	9.5	1.31e-02	0	60	0	976224256	57	6466
2026-01-13 00:43:43.65	234.09	15.24	-42.9	-48.1	9.4	1.37e-02	0	61	0	978321408	57	6526
2026-01-13 00:43:44.66	234.00	15.14	-42.9	-48.1	9.4	1.62e-02	0	60	0	979369984	57	6566
2026-01-13 00:43:45.67	233.91	15.04	-43.0	-48.4	9.2	1.92e-02	0	60	0	981467136	57	6725
2026-01-13 00:43:46.68	233.82	14.94	-42.9	-48.3	9.2	2.14e-02	0	61	0	983564288	57	6714
2026-01-13 00:43:47.69	233.73	14.85	-42.9	-48.1	9.4	1.68e-02	0	60	0	985661440	57	6533
2026-01-13 00:43:48.70	233.64	14.75	-42.9	-48.2	9.3	1.79e-02	0	61	0	987758592	57	6645
2026-01-13 00:43:49.71	233.56	14.65	-42.9	-48.1	9.4	1.59e-02	0	61	0	988807168	57	6562
2026-01-13 00:43:50.72	233.47	14.55	-42.9	-48.2	9.4	1.67e-02	0	60	0	990904320	57	6583
2026-01-13 00:43:51.73	233.39	14.46	-42.8	-48.1	9.5	1.52e-02	0	60	0	993001472	57	6500
2026-01-13 00:43:52.74	233.30	14.36	-42.8	-48.0	9.5	1.50e-02	0	60	0	995098624	57	6477
2026-01-13 00:43:53.75	233.21	14.26	-42.8	-48.0	9.5	1.43e-02	0	61	0	997195776	57	6472
2026-01-13 00:43:54.76	233.13	14.17	-42.9	-48.2	9.3	1.55e-02	0	60	0	998244352	57	6604
2026-01-13 00:43:55.77	233.05	14.07	-42.8	-48.1	9.3	1.93e-02	0	61	0	1000341504	57	6567
2026-01-13 00:43:56.78	232.96	13.98	-42.8	-47.9	9.6	1.43e-02	0	60	0	1002438656	57	6392
2026-01-13 00:43:57.79	232.88	13.88	-42.8	-48.0	9.5	1.24e-02	0	60	0	1004535808	57	6439
2026-01-13 00:43:58.80	232.80	13.79	-42.8	-48.0	9.5	1.45e-02	0	60	0	1006632960	57	6451
2026-01-13 00:43:59.81	232.72	13.69	-42.8	-48.0	9.4	1.42e-02	0	60	0	1008730112	57	6484
2026-01-13 00:44:00.82	232.64	13.60	-42.8	-48.1	9.4	1.68e-02	0	60	0	1009778688	57	6538
2026-01-13 00:44:01.83	232.56	13.50	-42.9	-48.2	9.2	1.96e-02	0	60	0	1011875840	57	6614
2026-01-13 00:44:02.84	232.48	13.41	-42.9	-48.3	9.1	2.15e-02	0	61	0	1013972992	57	6712
2026-01-13 00:44:03.85	232.40	13.32	-42.9	-48.5	9.0	2.49e-02	0	60	0	1016070144	57	6830
2026-01-13 00:44:04.86	232.32	13.22	-43.0	-48.6	8.8	3.05e-02	0	61	0	1018167296	57	6954
2026-01-13 00:44:05.87	232.24	13.13	-43.0	-48.7	8.7	3.45e-02	0	61	0	1019215872	57	6996
2026-01-13 00:44:06.88	232.16	13.04	-43.1	-48.9	8.5	3.73e-02	0	60	0	1021313024	57	7157
2026-01-13 00:44:07.89	232.08	12.95	-43.1	-49.0	8.4	4.26e-02	0	60	0	1023410176	57	7273
2026-01-13 00:44:08.90	232.01	12.86	-43.1	-49.0	8.4	4.62e-02	0	60	0	1025507328	57	7248
2026-01-13 00:44:09.91	231.93	12.77	-43.1	-49.1	8.3	4.89e-02	0	60	0	1027604480	57	7307
2026-01-13 00:44:10.92	231.85	12.67	-43.1	-49.0	8.3	5.09e-02	0	60	0	1028653056	57	7274
2026-01-13 00:44:11.93	231.78	12.58	-43.1	-49.1	8.3	4.76e-02	0	61	0	1030750208	57	7290
2026-01-13 00:44:12.94	231.70	12.49	-43.1	-49.2	8.2	5.27e-02	0	60	0	1032847360	57	7387
2026-01-13 00:44:13.95	231.63	12.40	-43.1	-49.0	8.3	5.33e-02	0	60	0	1034944512	57	7259
2026-01-13 00:44:14.96	231.56	12.31	-43.1	-49.1	8.3	5.28e-02	0	60	0	1037041664	57	7335
2026-01-13 00:44:15.97	231.48	12.22	-43.1	-49.2	8.2	5.55e-02	0	60	0	1038090240	57	7390
2026-01-13 00:44:16.98	231.41	12.13	-43.1	-49.2	8.2	6.19e-02	0	61	0	1040187392	57	7374
2026-01-13 00:44:17.99	231.34	12.04	-43.1	-49.2	8.2	5.88e-02	0	60	0	1042284544	57	7375
2026-01-13 00:44:19.00	231.26	11.96	-43.1	-49.3	8.0	6.16e-02	0	60	0	1044381696	57	7470
2026-01-13 00:44:20.01	231.19	11.87	-43.2	-49.4	7.9	7.16e-02	0	60	0	1046478848	57	7582
2026-01-13 00:44:21.02	231.12	11.78	-43.2	-49.7	7.6	7.78e-02	0	60	0	1047527424	57	7815
2026-01-13 00:44:22.03	231.05	11.69	-43.2	-49.5	7.8	8.54e-02	0	61	0	1049624576	57	7650
2026-01-13 00:44:23.04	230.98	11.60	-43.1	-49.2	8.2	6.39e-02	0	60	0	1051721728	57	7377
2026-01-13 00:44:24.05	230.91	11.52	-43.1	-49.3	8.1	6.10e-02	0	60	0	1053818880	57	7465
2026-01-13 00:44:25.06	230.84	11.43	-43.2	-49.4	7.9	7.14e-02	0	60	0	1055916032	57	7626
2026-01-13 00:44:26.07	230.77	11.34	-43.2	-49.5	7.8	7.53e-02	0	60	0	1056964608	57	7694
2026-01-13 00:44:27.08	230.70	11.25	-43.2	-49.8	7.5	8.71e-02	0	60	0	1059061760	57	7970
2026-01-13 00:44:28.09	230.63	11.17	-43.2	-49.9	7.4	1.11e-01	0	60	0	1061158912	57	8029
2026-01-13 00:44:29.10	230.57	11.08	-43.3	-50.0	7.3	1.19e-01	0	61	0	1063256064	57	8085
2026-01-13 00:44:30.11	230.50	11.00	-43.2	-49.8	7.4	1.14e-01	0	61	0	1065353216	57	7980
