passes_logs/2026/01/30/T1/T1__20260130_132238_AQUA_rec.log

#Pass ID: 20260130_132238_AQUA
#Satellite: AQUA
#Configuration: AQUA
#almurnet v.1.7.20251203
#Start time: 2026-01-30 13:22:38

#Version: 2.0.20230620
#Station: T1
#Location: 37.570604 lon 55.790049 lat
#TLE: 1 27424U 02022A   26029.54575153  .00001738  00000+0  35736-3 0  9994
#TLE: 2 27424  98.4104 356.2197 0001804  61.7823  56.0643 14.61874165263019

#Time	Az	El	Level	Level2	SNR	BER	BlckErr	Temp	State	Recorded	gain1	gain2
2026-01-30 13:22:38.54	221.05	4.98	-51.8	-71.7	3.8	7.47e-01	0	36	0	0	75	35020
2026-01-30 13:22:39.54	221.17	5.04	-52.9	-71.8	3.8	7.47e-01	0	36	104	0	76	33508
2026-01-30 13:22:40.55	221.29	5.09	-52.9	-71.8	3.8	7.48e-01	0	36	104	0	76	33616
2026-01-30 13:22:41.55	221.40	5.15	-52.3	-71.8	3.8	7.47e-01	0	36	104	0	76	33618
2026-01-30 13:22:42.55	221.52	5.21	-52.4	-71.8	3.8	7.46e-01	0	36	104	0	76	33617
2026-01-30 13:22:43.56	221.64	5.26	-52.8	-71.8	3.8	7.45e-01	0	36	104	0	76	33578
2026-01-30 13:22:44.56	221.75	5.32	-52.1	-71.8	3.8	7.49e-01	0	37	104	0	76	33452
2026-01-30 13:22:45.56	221.87	5.38	-52.6	-71.8	3.8	7.45e-01	0	37	104	0	75	35361
2026-01-30 13:22:46.57	221.99	5.43	-52.7	-71.8	3.8	7.43e-01	0	37	104	0	76	33391
2026-01-30 13:22:47.57	222.11	5.49	-52.1	-71.8	3.8	7.44e-01	0	37	104	0	76	33356
2026-01-30 13:22:48.58	222.23	5.55	-52.5	-71.8	3.8	7.46e-01	0	37	104	0	76	33467
2026-01-30 13:22:49.58	222.35	5.60	-52.5	-71.8	3.8	7.46e-01	0	37	104	0	76	33313
2026-01-30 13:22:50.58	222.47	5.66	-52.3	-71.7	3.8	7.45e-01	0	37	104	0	76	33007
2026-01-30 13:22:51.59	222.59	5.72	-52.1	-71.7	3.8	7.51e-01	0	37	104	0	76	32970
2026-01-30 13:22:52.59	222.71	5.78	-52.3	-71.6	3.8	7.46e-01	0	37	104	0	76	32806
2026-01-30 13:22:53.60	222.83	5.83	-52.3	-71.6	3.8	7.46e-01	0	37	104	0	76	32644
2026-01-30 13:22:54.60	222.95	5.89	-52.0	-71.5	3.8	7.45e-01	0	37	104	0	76	32391
2026-01-30 13:22:55.60	223.08	5.95	-52.0	-71.4	3.8	7.45e-01	0	37	104	0	76	32172
2026-01-30 13:22:56.61	223.20	6.00	-51.9	-71.3	3.8	7.45e-01	0	37	104	0	75	33536
2026-01-30 13:22:57.61	223.33	6.06	-51.6	-71.1	3.8	7.45e-01	0	37	104	0	74	34707
2026-01-30 13:22:58.62	223.45	6.12	-51.6	-71.0	3.8	7.46e-01	0	37	104	0	74	34370
2026-01-30 13:22:59.62	223.58	6.18	-51.6	-71.0	3.8	7.43e-01	0	37	104	0	74	34410
2026-01-30 13:23:00.62	223.70	6.23	-51.7	-71.0	3.8	7.45e-01	0	37	104	0	74	34235
2026-01-30 13:23:01.63	223.83	6.29	-51.6	-71.0	3.8	7.46e-01	0	37	104	0	74	34262
2026-01-30 13:23:02.63	223.95	6.35	-51.6	-71.0	3.8	7.45e-01	0	37	104	0	74	34205
2026-01-30 13:23:03.64	224.08	6.41	-51.6	-71.0	3.8	7.48e-01	0	37	104	0	74	34127
2026-01-30 13:23:04.64	224.21	6.46	-51.6	-70.9	3.8	7.46e-01	0	37	104	0	74	33971
2026-01-30 13:23:05.65	224.34	6.52	-51.6	-70.8	3.8	7.46e-01	0	37	104	0	74	33557
2026-01-30 13:23:06.65	224.47	6.58	-51.6	-70.7	3.8	7.46e-01	0	37	104	0	74	33227
2026-01-30 13:23:07.65	224.59	6.63	-51.6	-70.7	3.8	7.46e-01	0	37	104	0	74	32962
2026-01-30 13:23:08.66	224.72	6.69	-51.6	-70.6	3.8	7.51e-01	0	38	104	0	74	32647
2026-01-30 13:23:09.66	224.85	6.75	-51.5	-70.5	3.8	7.45e-01	0	37	104	0	74	32331
2026-01-30 13:23:10.66	224.99	6.81	-51.5	-70.5	3.8	7.46e-01	0	38	104	0	74	32254
2026-01-30 13:23:11.67	225.12	6.87	-51.5	-70.4	3.8	7.48e-01	0	37	104	0	74	31949
2026-01-30 13:23:12.67	225.25	6.92	-51.5	-70.2	3.8	7.43e-01	0	38	104	0	74	31411
2026-01-30 13:23:13.67	225.38	6.98	-51.5	-70.2	3.8	7.47e-01	0	38	104	0	74	31397
2026-01-30 13:23:14.68	225.51	7.04	-51.6	-70.1	3.8	7.48e-01	0	38	104	0	74	30829
2026-01-30 13:23:15.68	225.65	7.10	-51.5	-70.0	3.8	7.46e-01	0	38	104	0	74	30520
2026-01-30 13:23:16.69	225.78	7.15	-51.6	-70.1	3.8	7.46e-01	0	38	104	0	74	30815
2026-01-30 13:23:17.69	225.92	7.21	-51.6	-70.5	3.8	7.44e-01	0	38	104	0	74	32259
2026-01-30 13:23:18.70	226.05	7.27	-51.6	-70.9	3.8	7.45e-01	0	38	104	0	74	33711
2026-01-30 13:23:19.70	226.19	7.33	-51.6	-71.0	3.8	7.49e-01	0	38	104	0	74	34173
2026-01-30 13:23:20.71	226.33	7.38	-51.6	-70.7	3.8	7.43e-01	0	38	104	0	74	32967
2026-01-30 13:23:21.71	226.46	7.44	-51.6	-70.3	3.8	7.45e-01	0	38	104	0	74	31521
2026-01-30 13:23:22.71	226.60	7.50	-51.6	-70.1	3.8	7.48e-01	0	38	104	0	74	30822
2026-01-30 13:23:23.72	226.74	7.56	-51.6	-70.2	3.8	7.48e-01	0	38	104	0	74	31229
2026-01-30 13:23:24.72	226.88	7.62	-51.6	-70.5	3.8	7.45e-01	0	38	104	0	74	32428
2026-01-30 13:23:25.73	227.02	7.67	-51.6	-70.7	3.8	7.45e-01	0	38	104	0	74	33282
2026-01-30 13:23:26.73	227.16	7.73	-51.6	-70.8	3.8	7.46e-01	0	38	104	0	74	33577
2026-01-30 13:23:27.73	227.30	7.79	-51.5	-70.7	3.8	7.47e-01	0	38	104	0	74	33145
2026-01-30 13:23:28.74	227.44	7.85	-51.6	-70.5	3.8	7.48e-01	0	38	104	0	74	32327
2026-01-30 13:23:29.74	227.58	7.90	-51.6	-70.5	3.8	7.44e-01	0	38	104	0	74	32229
2026-01-30 13:23:30.75	227.72	7.96	-51.6	-70.8	3.8	7.47e-01	0	38	104	0	74	33406
2026-01-30 13:23:31.75	227.87	8.02	-51.6	-70.4	3.8	7.46e-01	0	38	104	0	74	32081
2026-01-30 13:23:32.76	228.01	8.08	-51.5	-68.1	3.9	7.40e-01	0	38	104	0	74	24573
2026-01-30 13:23:33.76	228.15	8.14	-51.4	-65.8	4.0	7.38e-01	0	38	104	0	74	18766
2026-01-30 13:23:34.77	228.30	8.19	-51.4	-64.3	5.7	6.93e-01	0	38	0	0	74	15886
2026-01-30 13:23:35.77	228.44	8.25	-51.4	-65.5	5.0	7.13e-01	0	38	0	524288	74	18119
2026-01-30 13:23:36.77	228.59	8.31	-51.5	-70.0	3.8	7.51e-01	0	38	104	524288	74	30512
2026-01-30 13:23:37.78	228.74	8.37	-51.4	-65.7	4.7	7.16e-01	0	38	104	524288	74	18685
2026-01-30 13:23:38.78	228.88	8.43	-50.5	-58.0	11.5	6.15e-01	0	38	0	1572864	73	8091
2026-01-30 13:23:39.79	229.03	8.48	-49.0	-53.2	16.5	6.07e-01	0	38	0	3670016	70	5592
2026-01-30 13:23:40.79	229.18	8.54	-47.3	-50.2	19.5	6.08e-01	0	38	0	5242880	66	4938
2026-01-30 13:23:41.80	229.33	8.60	-46.2	-48.5	21.2	6.07e-01	0	38	0	7340032	64	4547
2026-01-30 13:23:42.80	229.48	8.66	-45.8	-47.9	21.8	6.07e-01	0	38	0	9437184	63	4495
2026-01-30 13:23:43.80	229.63	8.72	-45.8	-47.9	21.8	6.06e-01	0	38	0	11010048	63	4545
2026-01-30 13:23:44.81	229.78	8.77	-46.3	-48.6	21.2	6.07e-01	0	38	0	13107200	63	4900
2026-01-30 13:23:45.81	229.93	8.83	-47.1	-49.8	20.0	6.07e-01	0	38	0	15204352	64	5299
2026-01-30 13:23:46.82	230.08	8.89	-48.2	-51.7	18.2	6.07e-01	0	38	0	16777216	66	5887
2026-01-30 13:23:47.82	230.24	8.95	-49.4	-54.2	15.8	6.08e-01	0	38	0	18874368	69	6617
2026-01-30 13:23:48.82	230.39	9.00	-50.3	-57.0	13.0	6.11e-01	0	38	0	20447232	71	8089
2026-01-30 13:23:49.83	230.54	9.06	-51.4	-70.9	3.5	7.42e-01	0	38	104	22020096	73	36080
2026-01-30 13:23:50.96	230.72	9.13	-48.0	-51.3	18.8	6.08e-01	0	38	0	22544384	66	5597
2026-01-30 13:23:51.85	230.86	9.18	-51.2	-61.4	8.7	6.41e-01	0	38	0	24117248	73	11982
2026-01-30 13:23:53.00	231.04	9.24	-51.0	-60.0	9.7	6.29e-01	0	38	0	26214400	73	10208
2026-01-30 13:23:53.86	231.17	9.29	-48.4	-51.8	18.2	6.06e-01	0	38	0	27787264	68	5329
2026-01-30 13:23:55.00	231.35	9.36	-48.0	-51.2	18.7	6.06e-01	0	38	0	29884416	67	5276
2026-01-30 13:23:55.86	231.48	9.41	-47.9	-51.1	18.8	6.08e-01	0	38	0	31457280	67	5187
2026-01-30 13:23:57.01	231.67	9.47	-47.7	-50.8	19.1	6.06e-01	0	39	0	33554432	67	5032
2026-01-30 13:23:57.87	231.80	9.52	-47.6	-50.7	19.3	6.09e-01	0	38	0	35127296	66	5258
2026-01-30 13:23:59.01	231.98	9.59	-47.4	-50.3	19.5	6.06e-01	0	38	0	37224448	66	5030
2026-01-30 13:23:59.87	232.12	9.64	-47.3	-50.1	19.7	6.07e-01	0	38	0	39321600	66	4921
2026-01-30 13:24:01.02	232.31	9.70	-47.1	-49.8	20.0	6.05e-01	0	38	0	41418752	66	4759
2026-01-30 13:24:01.88	232.44	9.75	-47.0	-49.6	20.3	6.07e-01	0	38	0	42991616	66	4639
2026-01-30 13:24:03.02	232.63	9.82	-47.0	-49.6	20.2	6.07e-01	0	38	0	45088768	65	4887
2026-01-30 13:24:03.88	232.77	9.87	-47.3	-49.9	19.9	6.06e-01	0	38	0	46661632	65	5098
2026-01-30 13:24:05.03	232.96	9.93	-46.9	-49.5	20.2	6.08e-01	0	38	0	48758784	65	4853
2026-01-30 13:24:05.89	233.10	9.98	-46.3	-48.6	21.2	6.06e-01	0	38	0	50331648	64	4614
2026-01-30 13:24:07.04	233.29	10.05	-46.0	-48.1	21.7	6.05e-01	0	38	0	52428800	63	4650
2026-01-30 13:24:07.90	233.43	10.10	-45.9	-48.0	21.8	6.08e-01	0	38	0	54001664	63	4571
2026-01-30 13:24:09.05	233.62	10.16	-45.6	-47.6	22.3	6.06e-01	0	38	0	56098816	63	4343
2026-01-30 13:24:09.91	233.76	10.21	-45.4	-47.2	22.6	6.06e-01	0	38	0	57671680	62	4439
2026-01-30 13:24:11.05	233.95	10.27	-45.3	-47.1	22.7	6.07e-01	0	38	0	60293120	62	4390
2026-01-30 13:24:11.92	234.10	10.32	-45.2	-47.0	22.8	6.07e-01	0	38	0	61865984	62	4323
2026-01-30 13:24:13.06	234.29	10.39	-45.0	-46.8	22.9	6.09e-01	0	38	0	63963136	62	4240
2026-01-30 13:24:13.92	234.44	10.44	-44.9	-46.8	23.0	6.06e-01	0	38	0	65536000	61	4442
2026-01-30 13:24:15.08	234.64	10.50	-44.9	-46.8	23.0	6.06e-01	0	38	0	67633152	61	4472
2026-01-30 13:24:15.94	234.78	10.55	-44.8	-46.7	23.1	6.08e-01	0	39	0	69206016	61	4410
2026-01-30 13:24:17.09	234.98	10.62	-44.8	-46.7	23.1	6.10e-01	0	38	0	71303168	61	4392
2026-01-30 13:24:17.95	235.13	10.66	-44.8	-46.7	23.1	6.08e-01	0	38	0	72876032	61	4432
2026-01-30 13:24:19.10	235.33	10.73	-44.8	-46.6	23.2	6.05e-01	0	38	0	74973184	61	4366
2026-01-30 13:24:19.96	235.48	10.78	-44.9	-46.6	23.2	6.06e-01	0	38	0	76546048	61	4371
2026-01-30 13:24:21.10	235.68	10.84	-44.8	-46.6	23.3	6.06e-01	0	38	0	79167488	61	4345
2026-01-30 13:24:21.97	235.83	10.89	-44.8	-46.5	23.4	6.06e-01	0	38	0	80740352	61	4295
2026-01-30 13:24:23.11	236.03	10.95	-44.9	-46.6	23.2	6.06e-01	0	39	0	82837504	61	4366
2026-01-30 13:24:23.97	236.18	11.00	-45.0	-46.7	23.1	6.06e-01	0	39	0	84410368	61	4415
2026-01-30 13:24:25.12	236.38	11.06	-44.9	-46.6	23.2	6.05e-01	0	38	0	86507520	61	4383
2026-01-30 13:24:25.98	236.54	11.11	-44.8	-46.5	23.3	6.10e-01	0	38	0	88080384	61	4325
2026-01-30 13:24:27.12	236.74	11.18	-44.8	-46.5	23.4	6.06e-01	0	39	0	90177536	61	4302
2026-01-30 13:24:27.98	236.90	11.22	-44.8	-46.5	23.3	6.08e-01	0	39	0	91750400	61	4311
2026-01-30 13:24:29.13	237.10	11.29	-44.8	-46.5	23.3	6.07e-01	0	38	0	93847552	61	4312
2026-01-30 13:24:29.99	237.26	11.33	-44.9	-46.6	23.3	6.06e-01	0	38	0	95420416	61	4365
2026-01-30 13:24:31.14	237.47	11.40	-44.7	-46.4	23.5	6.07e-01	0	39	0	97517568	61	4245
2026-01-30 13:24:31.99	237.62	11.44	-44.6	-46.3	23.5	6.07e-01	0	39	0	99614720	61	4217
2026-01-30 13:24:33.14	237.83	11.51	-44.7	-46.4	23.5	6.08e-01	0	39	0	101187584	61	4252
2026-01-30 13:24:34.01	237.99	11.55	-44.7	-46.4	23.4	6.08e-01	0	39	0	103284736	61	4271
2026-01-30 13:24:35.16	238.20	11.62	-44.8	-46.4	23.4	6.08e-01	0	39	0	105381888	61	4289
2026-01-30 13:24:36.11	238.38	11.67	-44.8	-46.4	23.4	6.07e-01	0	39	0	106954752	61	4269
2026-01-30 13:24:37.29	238.60	11.73	-44.7	-46.4	23.3	6.07e-01	0	39	0	109051904	61	4244
2026-01-30 13:24:38.15	238.76	11.78	-44.8	-46.4	23.5	6.06e-01	0	39	0	111149056	61	4269
2026-01-30 13:24:39.50	239.01	11.85	-44.8	-46.5	23.4	6.07e-01	0	39	0	113246208	61	4293
2026-01-30 13:24:40.22	239.15	11.89	-44.9	-46.6	23.3	6.06e-01	0	39	0	114819072	61	4343
2026-01-30 13:24:41.51	239.39	11.96	-44.7	-46.4	23.5	6.07e-01	0	39	0	116916224	61	4249
2026-01-30 13:24:42.23	239.53	12.00	-44.7	-46.3	23.5	6.06e-01	0	38	0	118489088	61	4233
2026-01-30 13:24:43.79	239.82	12.08	-44.7	-46.3	23.5	6.06e-01	0	39	0	121634816	61	4240
2026-01-30 13:24:44.50	239.96	12.12	-44.7	-46.3	23.6	6.07e-01	0	39	0	122683392	61	4224
2026-01-30 13:24:45.85	240.22	12.19	-44.6	-46.2	23.6	6.06e-01	0	38	0	125304832	61	4187
2026-01-30 13:24:46.57	240.36	12.23	-44.6	-46.3	23.6	6.07e-01	0	39	0	126877696	61	4207
2026-01-30 13:24:47.86	240.61	12.30	-44.6	-46.3	23.6	6.08e-01	0	39	0	128974848	61	4202
2026-01-30 13:24:48.57	240.74	12.34	-44.5	-46.1	23.7	6.08e-01	0	39	0	130547712	60	4365
2026-01-30 13:24:49.86	241.00	12.40	-44.6	-46.2	23.6	6.06e-01	0	39	0	132644864	60	4435
2026-01-30 13:24:50.58	241.14	12.44	-44.5	-46.1	23.7	6.08e-01	0	39	0	134217728	60	4386
2026-01-30 13:24:51.86	241.39	12.51	-44.4	-46.1	23.8	6.07e-01	0	39	0	136839168	60	4343
2026-01-30 13:24:52.58	241.53	12.55	-44.5	-46.1	23.8	6.07e-01	0	39	0	137887744	60	4359
2026-01-30 13:24:54.17	241.84	12.63	-44.6	-46.3	23.6	6.04e-01	0	39	0	141033472	60	4448
2026-01-30 13:24:55.02	242.01	12.67	-44.5	-46.2	23.6	6.05e-01	0	38	0	142606336	60	4431
2026-01-30 13:24:56.16	242.24	12.73	-44.5	-46.2	23.6	6.06e-01	0	39	0	144703488	60	4418
2026-01-30 13:24:57.02	242.41	12.77	-44.6	-46.2	23.6	6.06e-01	0	39	0	146276352	60	4441
2026-01-30 13:24:58.17	242.64	12.83	-44.4	-46.1	23.8	6.09e-01	0	39	0	148373504	60	4345
2026-01-30 13:24:59.03	242.82	12.88	-44.5	-46.1	23.7	6.08e-01	0	39	0	149946368	60	4361
2026-01-30 13:25:00.17	243.05	12.94	-44.6	-46.2	23.7	6.08e-01	0	38	0	152043520	60	4396
2026-01-30 13:25:01.03	243.22	12.98	-44.5	-46.0	23.8	6.06e-01	0	39	0	153616384	60	4338
2026-01-30 13:25:02.18	243.46	13.04	-44.4	-45.9	23.9	6.04e-01	0	39	0	155713536	60	4283
2026-01-30 13:25:03.04	243.63	13.08	-44.5	-46.1	23.8	6.06e-01	0	39	0	157286400	60	4345
2026-01-30 13:25:04.18	243.87	13.14	-44.3	-45.9	24.0	6.07e-01	0	39	0	159383552	60	4244
2026-01-30 13:25:05.04	244.04	13.18	-44.3	-45.8	24.0	6.08e-01	0	39	0	161480704	60	4229
2026-01-30 13:25:06.19	244.28	13.24	-44.3	-45.9	24.0	6.07e-01	0	39	0	163577856	60	4250
2026-01-30 13:25:07.05	244.46	13.28	-44.4	-46.0	23.9	6.09e-01	0	39	0	165150720	60	4293
2026-01-30 13:25:08.20	244.70	13.33	-44.3	-45.9	23.9	6.07e-01	0	39	0	167247872	60	4269
2026-01-30 13:25:09.06	244.88	13.38	-44.4	-46.0	23.9	6.07e-01	0	39	0	168820736	60	4297
2026-01-30 13:25:10.20	245.12	13.43	-44.3	-45.9	23.9	6.09e-01	0	39	0	170917888	60	4270
2026-01-30 13:25:11.06	245.30	13.47	-44.3	-46.0	23.8	6.05e-01	0	39	0	172490752	60	4320
2026-01-30 13:25:12.21	245.54	13.53	-44.2	-45.9	24.0	6.08e-01	0	39	0	174587904	60	4243
2026-01-30 13:25:13.07	245.73	13.57	-44.2	-46.0	23.9	6.06e-01	0	39	0	176160768	60	4294
2026-01-30 13:25:14.22	245.97	13.63	-44.2	-45.9	24.0	6.06e-01	0	39	0	178257920	60	4250
2026-01-30 13:25:15.07	246.15	13.67	-44.4	-46.0	23.9	6.07e-01	0	39	0	179830784	60	4309
2026-01-30 13:25:16.31	246.42	13.72	-44.3	-45.9	24.0	6.07e-01	0	39	0	182452224	60	4254
2026-01-30 13:25:17.17	246.60	13.76	-44.3	-45.9	23.9	6.06e-01	0	38	0	184025088	60	4259
2026-01-30 13:25:18.32	246.85	13.82	-44.3	-45.9	24.0	6.06e-01	0	39	0	186122240	60	4247
2026-01-30 13:25:19.18	247.03	13.86	-44.2	-45.8	24.0	6.06e-01	0	39	0	187695104	60	4223
2026-01-30 13:25:20.33	247.28	13.91	-44.3	-45.9	24.0	6.09e-01	0	39	0	189792256	60	4259
2026-01-30 13:25:21.20	247.47	13.95	-44.2	-45.8	24.0	6.08e-01	0	39	0	191365120	60	4221
2026-01-30 13:25:22.52	247.76	14.01	-44.2	-45.8	24.0	6.07e-01	0	39	0	193986560	60	4211
2026-01-30 13:25:23.24	247.92	14.04	-44.2	-45.8	24.1	6.09e-01	0	39	0	195559424	60	4214
2026-01-30 13:25:24.53	248.20	14.10	-44.3	-45.9	23.9	6.09e-01	0	39	0	197656576	60	4258
2026-01-30 13:25:25.24	248.36	14.13	-44.4	-46.0	23.9	6.07e-01	0	39	0	199229440	60	4296
2026-01-30 13:25:26.53	248.64	14.19	-44.3	-45.9	23.8	6.06e-01	0	39	0	201326592	60	4259
2026-01-30 13:25:27.25	248.80	14.22	-44.2	-45.7	24.1	6.08e-01	0	39	0	202899456	60	4172
2026-01-30 13:25:28.54	249.09	14.28	-44.3	-45.9	23.9	6.06e-01	0	38	0	205520896	60	4253
2026-01-30 13:25:29.25	249.25	14.31	-44.2	-45.8	24.0	6.08e-01	0	39	0	206569472	60	4206
2026-01-30 13:25:30.54	249.54	14.37	-44.2	-45.8	24.0	6.06e-01	0	39	0	209190912	60	4229
2026-01-30 13:25:31.26	249.70	14.40	-44.3	-45.9	24.0	6.04e-01	0	39	0	210239488	60	4253
2026-01-30 13:25:32.55	249.99	14.45	-44.1	-45.7	24.1	6.06e-01	0	39	0	212860928	60	4186
2026-01-30 13:25:33.26	250.15	14.48	-44.1	-45.7	24.1	6.08e-01	0	39	0	214433792	60	4192
2026-01-30 13:25:34.55	250.44	14.54	-44.2	-45.8	24.0	6.06e-01	0	39	0	216530944	60	4236
2026-01-30 13:25:35.27	250.61	14.57	-44.2	-45.8	24.0	6.08e-01	0	39	0	218103808	60	4234
2026-01-30 13:25:36.55	250.90	14.62	-44.2	-45.8	24.0	6.07e-01	0	39	0	220200960	60	4207
2026-01-30 13:25:37.27	251.06	14.65	-44.2	-45.7	24.1	6.06e-01	0	39	0	221773824	60	4184
2026-01-30 13:25:38.56	251.36	14.70	-44.2	-45.8	24.1	6.08e-01	0	39	0	224395264	60	4220
2026-01-30 13:25:39.28	251.52	14.73	-44.2	-45.7	24.1	6.08e-01	0	39	0	225443840	60	4184
2026-01-30 13:25:40.57	251.82	14.78	-44.2	-45.8	24.0	6.07e-01	0	39	0	228065280	60	4236
2026-01-30 13:25:41.28	251.99	14.81	-44.1	-45.7	24.1	6.06e-01	0	38	0	229113856	60	4157
2026-01-30 13:25:42.57	252.28	14.86	-44.1	-45.6	24.2	6.06e-01	0	39	0	231735296	60	4130
2026-01-30 13:25:43.29	252.45	14.89	-44.1	-45.6	24.2	6.08e-01	0	39	0	232783872	60	4142
2026-01-30 13:25:44.57	252.75	14.94	-44.1	-45.6	24.2	6.05e-01	0	39	0	235405312	60	4132
2026-01-30 13:25:45.29	252.92	14.97	-44.1	-45.7	24.1	6.04e-01	0	39	0	236978176	60	4156
2026-01-30 13:25:46.58	253.22	15.01	-44.2	-45.8	24.1	6.08e-01	0	39	0	239075328	60	4213
2026-01-30 13:25:47.49	253.43	15.05	-44.1	-45.6	24.1	6.08e-01	0	39	0	240648192	60	4145
2026-01-30 13:25:48.52	253.68	15.09	-44.1	-45.6	24.2	6.07e-01	0	39	0	242745344	60	4134
2026-01-30 13:25:49.52	253.91	15.12	-44.1	-45.6	24.2	6.08e-01	0	39	0	244842496	60	4138
2026-01-30 13:25:50.53	254.15	15.16	-44.1	-45.7	24.1	6.08e-01	0	39	0	246415360	60	4186
2026-01-30 13:25:51.53	254.39	15.20	-44.1	-45.7	24.1	6.07e-01	0	39	0	248512512	60	4158
2026-01-30 13:25:52.53	254.63	15.23	-44.2	-45.7	24.1	6.07e-01	0	39	0	250085376	59	4435
2026-01-30 13:25:53.54	254.87	15.27	-44.2	-45.7	24.2	6.06e-01	0	39	0	252182528	59	4428
2026-01-30 13:25:54.54	255.11	15.30	-44.4	-46.0	24.0	6.05e-01	0	39	0	254279680	59	4549
2026-01-30 13:25:55.55	255.35	15.34	-44.4	-46.0	23.9	6.06e-01	0	39	0	255852544	59	4577
2026-01-30 13:25:56.55	255.59	15.37	-44.4	-46.0	23.8	6.06e-01	0	39	0	257949696	59	4578
2026-01-30 13:25:57.55	255.83	15.40	-44.4	-45.9	23.9	6.06e-01	0	39	0	259522560	59	4539
2026-01-30 13:25:58.56	256.07	15.44	-44.5	-46.0	23.8	6.06e-01	0	39	0	261619712	59	4587
2026-01-30 13:25:59.56	256.32	15.47	-44.6	-46.2	23.6	6.08e-01	0	39	0	263716864	59	4671
2026-01-30 13:26:00.57	256.56	15.50	-44.5	-46.1	23.6	6.08e-01	0	39	0	265289728	59	4647
2026-01-30 13:26:01.57	256.80	15.54	-44.4	-46.0	23.7	6.06e-01	0	39	0	267386880	59	4564
2026-01-30 13:26:02.57	257.05	15.57	-44.5	-46.1	23.6	6.06e-01	0	39	0	268959744	59	4628
2026-01-30 13:26:03.57	257.29	15.60	-44.6	-46.2	23.5	6.07e-01	0	39	0	271056896	59	4666
2026-01-30 13:26:04.57	257.54	15.63	-44.6	-46.1	23.5	6.05e-01	0	39	0	272629760	59	4650
2026-01-30 13:26:05.58	257.78	15.66	-44.7	-46.2	23.5	6.05e-01	0	39	0	274726912	59	4686
2026-01-30 13:26:06.58	258.03	15.69	-44.5	-46.1	23.5	6.04e-01	0	39	0	276824064	60	4366
2026-01-30 13:26:07.58	258.27	15.72	-44.5	-46.1	23.4	6.08e-01	0	38	0	278396928	60	4383
2026-01-30 13:26:08.59	258.52	15.75	-44.4	-46.0	23.5	6.07e-01	0	39	0	280494080	60	4328
2026-01-30 13:26:09.59	258.77	15.78	-44.5	-46.2	23.4	6.05e-01	0	39	0	282066944	60	4404
2026-01-30 13:26:10.59	259.02	15.81	-44.5	-46.1	23.4	6.08e-01	0	39	0	284164096	60	4380
2026-01-30 13:26:11.60	259.27	15.83	-44.4	-46.0	23.5	6.04e-01	0	39	0	286261248	60	4323
2026-01-30 13:26:12.69	259.54	15.86	-44.4	-46.0	23.5	6.07e-01	0	39	0	288358400	60	4331
2026-01-30 13:26:13.55	259.75	15.89	-44.4	-46.1	23.5	6.06e-01	0	39	0	289931264	60	4347
2026-01-30 13:26:14.70	260.04	15.92	-44.4	-46.1	23.4	6.04e-01	0	39	0	292028416	60	4351
2026-01-30 13:26:15.65	260.28	15.94	-44.4	-46.0	23.5	6.07e-01	0	39	0	293601280	60	4311
2026-01-30 13:26:16.83	260.57	15.97	-44.4	-46.1	23.5	6.06e-01	0	39	0	295698432	60	4350
2026-01-30 13:26:17.69	260.79	15.99	-44.4	-46.0	23.5	6.05e-01	0	39	0	297795584	60	4319
2026-01-30 13:26:19.05	261.13	16.02	-44.3	-46.0	23.5	6.08e-01	0	39	0	299892736	60	4305
2026-01-30 13:26:19.76	261.31	16.04	-44.3	-46.0	23.5	6.07e-01	0	39	0	301465600	60	4295
2026-01-30 13:26:21.05	261.64	16.07	-44.5	-46.1	23.4	6.05e-01	0	39	0	304087040	60	4372
2026-01-30 13:26:21.77	261.82	16.09	-44.5	-46.1	23.5	6.06e-01	0	39	0	305135616	60	4358
2026-01-30 13:26:23.06	262.14	16.12	-44.3	-45.8	23.7	6.10e-01	0	39	0	307757056	60	4230
2026-01-30 13:26:23.78	262.33	16.13	-44.3	-45.9	23.7	6.05e-01	0	39	0	308805632	60	4250
2026-01-30 13:26:25.06	262.65	16.16	-44.4	-46.1	23.4	6.06e-01	0	39	0	311427072	60	4364
2026-01-30 13:26:25.78	262.83	16.17	-44.3	-45.9	23.6	6.07e-01	0	39	0	312475648	60	4286
2026-01-30 13:26:27.07	263.16	16.20	-44.4	-46.0	23.5	6.07e-01	0	39	0	315097088	60	4336
2026-01-30 13:26:27.79	263.35	16.22	-44.4	-46.1	23.5	6.09e-01	0	39	0	316145664	60	4350
2026-01-30 13:26:29.08	263.67	16.24	-44.5	-46.2	23.4	6.06e-01	0	39	0	318767104	60	4409
2026-01-30 13:26:29.79	263.86	16.25	-44.4	-46.1	23.4	6.07e-01	0	39	0	320339968	60	4361
2026-01-30 13:26:31.20	264.22	16.28	-44.5	-46.1	23.4	6.06e-01	0	39	0	322961408	60	4388
2026-01-30 13:26:31.91	264.40	16.29	-44.6	-46.1	23.4	6.05e-01	0	39	0	324009984	60	4385
2026-01-30 13:26:33.26	264.74	16.32	-44.5	-46.0	23.5	6.05e-01	0	39	0	326631424	60	4324
2026-01-30 13:26:33.98	264.93	16.33	-44.5	-46.0	23.5	6.05e-01	0	39	0	328204288	60	4331
2026-01-30 13:26:35.27	265.26	16.35	-45.1	-46.8	23.4	6.06e-01	0	38	0	330301440	60	4711
2026-01-30 13:26:35.98	265.44	16.36	-45.2	-46.9	23.0	6.05e-01	0	39	0	331874304	61	4533
2026-01-30 13:26:37.27	265.78	16.38	-44.6	-46.2	23.3	6.09e-01	0	39	0	333971456	61	4176
2026-01-30 13:26:37.99	265.96	16.39	-44.5	-46.1	23.5	6.07e-01	0	39	0	335544320	60	4367
2026-01-30 13:26:39.28	266.29	16.41	-44.3	-45.9	23.6	6.07e-01	0	39	0	338165760	60	4249
2026-01-30 13:26:39.99	266.48	16.42	-44.4	-46.0	23.5	6.07e-01	0	39	0	339214336	60	4307
2026-01-30 13:26:41.28	266.81	16.43	-44.5	-46.0	23.5	6.05e-01	0	39	0	341835776	60	4334
2026-01-30 13:26:42.07	267.02	16.44	-44.5	-46.0	23.5	6.08e-01	0	39	0	343408640	60	4335
2026-01-30 13:26:43.59	267.41	16.46	-44.3	-45.9	23.6	6.06e-01	0	39	0	346030080	60	4252
2026-01-30 13:26:44.31	267.60	16.47	-44.5	-46.0	23.5	6.07e-01	0	39	0	347602944	60	4330
2026-01-30 13:26:45.74	267.97	16.49	-44.5	-46.0	23.5	6.06e-01	0	39	0	350224384	60	4329
2026-01-30 13:26:46.46	268.15	16.49	-44.4	-46.0	23.5	6.04e-01	0	39	0	351272960	60	4313
2026-01-30 13:26:47.75	268.49	16.51	-44.5	-46.1	23.4	6.06e-01	0	39	0	353894400	60	4352
2026-01-30 13:26:48.46	268.67	16.51	-44.4	-46.0	23.5	6.06e-01	0	39	0	354942976	60	4315
2026-01-30 13:26:49.75	269.01	16.52	-44.4	-46.0	23.5	6.06e-01	0	39	0	357564416	60	4319
2026-01-30 13:26:50.47	269.20	16.53	-44.5	-46.0	23.5	6.07e-01	0	39	0	359137280	60	4336
2026-01-30 13:26:51.75	269.53	16.54	-44.4	-45.9	23.6	6.08e-01	0	39	0	361234432	60	4276
2026-01-30 13:26:52.47	269.72	16.54	-44.4	-45.9	23.5	6.07e-01	0	39	0	362807296	60	4286
2026-01-30 13:26:53.76	270.05	16.55	-44.4	-45.9	23.6	6.07e-01	0	39	0	364904448	60	4290
2026-01-30 13:26:54.48	270.24	16.56	-44.5	-46.1	23.4	6.07e-01	0	39	0	366477312	60	4359
2026-01-30 13:26:55.76	270.58	16.56	-44.4	-46.0	23.5	6.05e-01	0	39	0	369098752	60	4316
2026-01-30 13:26:56.51	270.77	16.57	-44.4	-46.0	23.5	6.06e-01	0	39	0	370147328	60	4309
2026-01-30 13:26:57.80	271.11	16.57	-44.6	-46.1	23.4	6.06e-01	0	39	0	372768768	60	4376
2026-01-30 13:26:58.58	271.31	16.58	-44.6	-46.2	23.4	6.06e-01	0	39	0	374341632	60	4410
2026-01-30 13:27:00.08	271.70	16.58	-44.6	-46.2	23.3	6.04e-01	0	39	0	376963072	60	4423
2026-01-30 13:27:00.77	271.88	16.58	-44.5	-46.0	23.5	6.07e-01	0	39	0	378011648	60	4319
2026-01-30 13:27:02.20	272.26	16.59	-44.4	-45.9	23.6	6.06e-01	0	39	0	381157376	60	4284
2026-01-30 13:27:02.91	272.44	16.59	-44.4	-46.0	23.5	6.09e-01	0	39	0	382205952	60	4298
2026-01-30 13:27:04.20	272.78	16.59	-44.5	-46.2	23.3	6.09e-01	0	39	0	384827392	60	4406
2026-01-30 13:27:04.92	272.97	16.59	-44.5	-46.2	23.3	6.06e-01	0	39	0	385875968	60	4415
2026-01-30 13:27:06.20	273.30	16.59	-44.5	-46.1	23.3	6.09e-01	0	39	0	388497408	60	4389
2026-01-30 13:27:06.94	273.49	16.59	-44.4	-46.1	23.4	6.07e-01	0	39	0	389545984	60	4349
2026-01-30 13:27:08.23	273.83	16.58	-44.5	-46.2	23.3	6.08e-01	0	39	0	392167424	60	4395
2026-01-30 13:27:08.94	274.02	16.58	-44.5	-46.1	23.3	6.05e-01	0	39	0	393740288	60	4369
2026-01-30 13:27:10.23	274.35	16.58	-44.5	-46.0	23.4	6.05e-01	0	39	0	395837440	60	4322
2026-01-30 13:27:11.10	274.58	16.58	-44.5	-46.1	23.4	6.06e-01	0	39	0	397410304	60	4361
2026-01-30 13:27:12.59	274.97	16.57	-44.6	-46.2	23.2	6.07e-01	0	39	0	400556032	60	4438
2026-01-30 13:27:13.30	275.16	16.57	-44.6	-46.2	23.3	6.09e-01	0	39	0	401604608	60	4394
2026-01-30 13:27:14.80	275.55	16.56	-44.4	-45.9	23.5	6.07e-01	0	39	0	404750336	60	4286
2026-01-30 13:27:15.52	275.73	16.56	-44.4	-45.9	23.5	6.05e-01	0	39	0	405798912	60	4284
2026-01-30 13:27:16.80	276.07	16.55	-44.5	-46.1	23.3	6.06e-01	0	39	0	408420352	60	4355
2026-01-30 13:27:17.52	276.26	16.55	-44.5	-46.0	23.4	6.09e-01	0	39	0	409468928	60	4320
2026-01-30 13:27:18.81	276.59	16.54	-44.6	-46.2	23.3	6.05e-01	0	39	0	412090368	60	4411
2026-01-30 13:27:19.53	276.78	16.53	-44.7	-46.3	23.1	6.07e-01	0	39	0	413663232	60	4477
2026-01-30 13:27:20.82	277.11	16.52	-44.5	-46.0	23.4	6.08e-01	0	39	0	415760384	60	4336
2026-01-30 13:27:21.53	277.30	16.51	-44.4	-46.0	23.4	6.06e-01	0	39	0	417333248	60	4319
2026-01-30 13:27:22.82	277.63	16.50	-44.5	-46.1	23.4	6.08e-01	0	39	0	419430400	60	4352
2026-01-30 13:27:23.54	277.82	16.50	-44.4	-46.0	23.4	6.06e-01	0	39	0	421003264	60	4320
2026-01-30 13:27:24.83	278.15	16.48	-44.4	-46.1	23.3	6.06e-01	0	39	0	423100416	60	4350
2026-01-30 13:27:25.67	278.37	16.47	-44.4	-46.0	23.4	6.05e-01	0	39	0	425197568	60	4326
2026-01-30 13:27:27.14	278.75	16.46	-44.5	-46.0	23.4	6.06e-01	0	39	0	427819008	60	4338
2026-01-30 13:27:27.85	278.94	16.45	-44.6	-46.2	23.3	6.09e-01	0	39	0	428867584	60	4404
2026-01-30 13:27:29.14	279.27	16.43	-44.6	-46.2	23.3	6.05e-01	0	39	0	431489024	60	4416
2026-01-30 13:27:29.86	279.46	16.42	-44.6	-46.1	23.3	6.07e-01	0	39	0	433061888	60	4367
2026-01-30 13:27:31.15	279.79	16.40	-44.6	-46.2	23.3	6.08e-01	0	39	0	435159040	60	4404
2026-01-30 13:27:31.88	279.98	16.39	-44.7	-46.3	23.2	6.04e-01	0	39	0	436731904	60	4448
2026-01-30 13:27:33.17	280.31	16.37	-44.6	-46.3	23.2	6.06e-01	0	39	0	438829056	60	4442
2026-01-30 13:27:33.98	280.52	16.36	-44.8	-46.4	23.1	6.07e-01	0	39	0	440401920	60	4528
2026-01-30 13:27:35.13	280.81	16.34	-44.6	-46.1	23.3	6.08e-01	0	39	0	442499072	60	4371
2026-01-30 13:27:36.23	281.09	16.33	-44.5	-46.0	23.4	6.05e-01	0	39	0	444596224	60	4309
2026-01-30 13:27:37.26	281.36	16.31	-44.5	-46.1	23.4	6.07e-01	0	39	0	446693376	60	4354
2026-01-30 13:27:38.26	281.61	16.29	-44.5	-46.0	23.4	6.07e-01	0	39	0	448790528	60	4331
2026-01-30 13:27:39.27	281.87	16.27	-44.5	-46.1	23.3	6.07e-01	0	39	0	450363392	60	4349
2026-01-30 13:27:40.27	282.13	16.26	-44.5	-46.0	23.4	6.06e-01	0	39	0	452460544	60	4338
2026-01-30 13:27:41.27	282.38	16.24	-44.6	-46.1	23.3	6.07e-01	0	39	0	454033408	60	4370
2026-01-30 13:27:42.28	282.64	16.22	-44.5	-46.0	23.4	6.06e-01	0	39	0	456130560	60	4340
2026-01-30 13:27:43.28	282.89	16.20	-44.6	-46.1	23.3	6.09e-01	0	39	0	457703424	60	4368
2026-01-30 13:27:44.28	283.15	16.18	-44.6	-46.2	23.3	6.06e-01	0	39	0	459800576	60	4415
2026-01-30 13:27:45.28	283.40	16.16	-44.6	-46.2	23.3	6.07e-01	0	39	0	461897728	60	4406
2026-01-30 13:27:46.29	283.66	16.13	-44.7	-46.3	23.1	6.08e-01	0	39	0	463470592	60	4443
2026-01-30 13:27:47.29	283.91	16.11	-44.7	-46.2	23.3	6.07e-01	0	39	0	465567744	60	4429
2026-01-30 13:27:48.29	284.16	16.09	-44.7	-46.2	23.2	6.06e-01	0	39	0	467664896	60	4438
2026-01-30 13:27:49.30	284.41	16.07	-44.6	-46.2	23.1	6.06e-01	0	39	0	469237760	60	4434
2026-01-30 13:27:50.30	284.67	16.04	-44.5	-46.1	23.3	6.05e-01	0	39	0	471334912	60	4363
2026-01-30 13:27:51.37	284.93	16.02	-44.5	-46.0	23.4	6.07e-01	0	39	0	472907776	60	4323
2026-01-30 13:27:52.26	285.16	16.00	-44.5	-46.0	23.4	6.07e-01	0	39	0	475004928	60	4339
2026-01-30 13:27:53.40	285.44	15.97	-44.6	-46.1	23.3	6.08e-01	0	39	0	477102080	60	4379
2026-01-30 13:27:54.27	285.66	15.95	-44.6	-46.2	23.3	6.07e-01	0	39	0	478674944	60	4405
2026-01-30 13:27:55.41	285.94	15.92	-44.6	-46.2	23.2	6.06e-01	0	39	0	480772096	60	4414
2026-01-30 13:27:56.40	286.19	15.89	-44.6	-46.2	23.2	6.05e-01	0	39	0	482344960	60	4426
2026-01-30 13:27:57.56	286.48	15.86	-44.7	-46.3	23.1	6.04e-01	0	39	0	484966400	60	4477
2026-01-30 13:27:58.44	286.70	15.84	-44.5	-46.1	23.3	6.05e-01	0	39	0	486539264	60	4371
2026-01-30 13:27:59.58	286.98	15.81	-44.6	-46.1	23.3	6.04e-01	0	39	0	488636416	60	4368
2026-01-30 13:28:00.44	287.19	15.78	-44.7	-46.3	23.2	6.07e-01	0	39	0	490209280	60	4449
2026-01-30 13:28:01.59	287.47	15.75	-44.6	-46.1	23.3	6.07e-01	0	39	0	492306432	60	4380
2026-01-30 13:28:02.45	287.69	15.73	-44.6	-46.1	23.3	6.06e-01	0	39	0	493879296	60	4375
2026-01-30 13:28:03.59	287.97	15.69	-44.6	-46.1	23.3	6.06e-01	0	39	0	495976448	60	4357
2026-01-30 13:28:04.45	288.18	15.67	-44.6	-46.1	23.3	6.08e-01	0	39	0	497549312	60	4385
2026-01-30 13:28:05.60	288.46	15.63	-44.5	-46.1	23.3	6.08e-01	0	39	0	499646464	60	4390
2026-01-30 13:28:06.73	288.73	15.60	-44.5	-46.2	23.3	6.09e-01	0	39	0	501743616	60	4394
2026-01-30 13:28:07.76	288.98	15.56	-44.4	-46.1	23.3	6.08e-01	0	39	0	503840768	60	4370
2026-01-30 13:28:08.76	289.22	15.53	-44.6	-46.3	23.2	6.06e-01	0	39	0	505937920	60	4455
2026-01-30 13:28:09.77	289.47	15.50	-44.5	-46.1	23.3	6.06e-01	0	39	0	507510784	60	4372
2026-01-30 13:28:10.77	289.71	15.47	-44.5	-46.1	23.3	6.08e-01	0	39	0	509607936	60	4358
2026-01-30 13:28:11.77	289.95	15.44	-44.7	-46.3	23.2	6.06e-01	0	39	0	511180800	60	4453
2026-01-30 13:28:12.77	290.19	15.40	-44.7	-46.3	23.1	6.09e-01	0	39	0	513277952	60	4487
2026-01-30 13:28:13.77	290.43	15.37	-44.6	-46.2	23.2	6.07e-01	0	39	0	515375104	60	4419
2026-01-30 13:28:14.78	290.67	15.34	-44.6	-46.2	23.2	6.08e-01	0	39	0	516947968	60	4406
2026-01-30 13:28:15.78	290.91	15.30	-44.6	-46.2	23.2	6.06e-01	0	39	0	519045120	60	4403
2026-01-30 13:28:16.78	291.15	15.27	-44.6	-46.1	23.3	6.07e-01	0	39	0	520617984	60	4390
2026-01-30 13:28:17.78	291.39	15.23	-44.6	-46.2	23.2	6.07e-01	0	39	0	522715136	60	4414
2026-01-30 13:28:18.79	291.63	15.20	-44.7	-46.2	23.2	6.06e-01	0	39	0	524288000	60	4434
2026-01-30 13:28:19.79	291.86	15.16	-44.6	-46.2	23.2	6.04e-01	0	39	0	526385152	60	4422
2026-01-30 13:28:20.79	292.10	15.12	-44.6	-46.2	23.3	6.08e-01	0	39	0	528482304	60	4407
2026-01-30 13:28:21.80	292.34	15.09	-44.7	-46.3	23.2	6.06e-01	0	39	0	530055168	60	4459
2026-01-30 13:28:22.80	292.57	15.05	-44.7	-46.3	23.1	6.03e-01	0	39	0	532152320	60	4490
2026-01-30 13:28:23.80	292.80	15.01	-45.6	-47.3	11.0	6.14e-01	0	39	0	533725184	61	4713
2026-01-30 13:28:24.81	293.04	14.97	-45.7	-47.4	10.7	6.14e-01	0	39	0	535822336	62	4528
2026-01-30 13:28:25.81	293.27	14.94	-45.7	-47.4	10.5	6.13e-01	0	39	0	537919488	62	4523
2026-01-30 13:28:26.81	293.50	14.90	-45.7	-47.4	10.4	6.15e-01	0	39	0	539492352	62	4512
2026-01-30 13:28:27.82	293.74	14.86	-45.7	-47.4	10.4	6.13e-01	0	39	0	541589504	62	4533
2026-01-30 13:28:28.82	293.97	14.82	-45.7	-47.5	10.6	6.16e-01	0	39	0	543162368	62	4560
2026-01-30 13:28:29.82	294.20	14.78	-45.9	-47.6	10.7	6.12e-01	0	39	0	545259520	62	4617
2026-01-30 13:28:30.83	294.43	14.74	-46.0	-47.7	10.9	6.12e-01	0	39	0	547356672	62	4698
2026-01-30 13:28:31.83	294.66	14.70	-45.9	-47.6	11.0	6.10e-01	0	39	0	548929536	62	4606
2026-01-30 13:28:32.83	294.89	14.66	-45.8	-47.5	11.3	6.12e-01	0	39	0	551026688	62	4568
2026-01-30 13:28:33.87	295.12	14.62	-45.7	-47.4	11.5	6.12e-01	0	39	0	552599552	62	4516
2026-01-30 13:28:34.90	295.36	14.57	-45.6	-47.3	11.7	6.13e-01	0	39	0	554696704	62	4484
2026-01-30 13:28:35.95	295.59	14.53	-45.6	-47.3	11.9	6.12e-01	0	39	0	556793856	62	4456
2026-01-30 13:28:36.88	295.80	14.49	-45.5	-47.2	12.0	6.13e-01	0	39	0	558366720	62	4436
2026-01-30 13:28:38.00	296.06	14.45	-45.4	-47.0	12.1	6.14e-01	0	39	0	560463872	62	4323
2026-01-30 13:28:38.86	296.25	14.41	-45.4	-47.0	12.1	6.14e-01	0	39	0	562036736	62	4316
2026-01-30 13:28:40.00	296.50	14.36	-45.3	-46.9	12.2	6.13e-01	0	39	0	564133888	62	4274
2026-01-30 13:28:40.86	296.69	14.32	-45.4	-47.0	12.2	6.14e-01	0	39	0	565706752	62	4304
2026-01-30 13:28:42.01	296.95	14.27	-45.4	-47.0	12.2	6.13e-01	0	39	0	568328192	62	4307
2026-01-30 13:28:42.87	297.14	14.24	-45.4	-47.0	12.2	6.13e-01	0	39	0	569901056	62	4339
2026-01-30 13:28:44.01	297.39	14.19	-45.3	-46.9	12.2	6.14e-01	0	39	0	571998208	62	4284
2026-01-30 13:28:44.87	297.58	14.15	-45.2	-46.8	12.3	6.15e-01	0	39	0	573571072	62	4223
2026-01-30 13:28:46.02	297.83	14.10	-45.2	-46.8	12.2	6.13e-01	0	39	0	575668224	62	4234
2026-01-30 13:28:46.88	298.02	14.06	-45.3	-46.9	12.3	6.15e-01	0	39	0	577241088	62	4289
2026-01-30 13:28:48.03	298.27	14.01	-45.9	-56.6	3.8	7.49e-01	0	39	104	577765376	62	13015
2026-01-30 13:28:48.89	298.46	13.97	-45.9	-56.7	3.9	7.40e-01	0	39	104	577765376	62	13151
2026-01-30 13:28:50.04	298.71	13.92	-46.0	-56.8	3.8	7.45e-01	0	39	104	577765376	62	13324
2026-01-30 13:28:50.90	298.89	13.88	-46.0	-56.8	3.8	7.47e-01	0	39	104	577765376	62	13334
2026-01-30 13:28:52.04	299.14	13.82	-47.5	-58.5	3.7	7.48e-01	0	39	104	577765376	65	13704
2026-01-30 13:28:52.90	299.32	13.78	-52.6	-68.5	3.7	7.50e-01	0	39	104	577765376	75	24346
2026-01-30 13:28:54.05	299.57	13.73	-50.6	-63.0	3.8	7.43e-01	0	39	104	577765376	72	15323
2026-01-30 13:28:54.91	299.75	13.69	-48.7	-60.1	3.8	7.46e-01	0	39	104	577765376	67	14665
2026-01-30 13:28:56.05	299.99	13.64	-47.8	-59.0	3.7	7.48e-01	0	39	104	577765376	67	12876
2026-01-30 13:28:56.91	300.17	13.60	-47.8	-59.0	3.9	7.45e-01	0	39	104	577765376	67	12869
2026-01-30 13:28:58.06	300.42	13.54	-47.8	-59.0	3.8	7.49e-01	0	39	104	577765376	67	12827
2026-01-30 13:28:58.92	300.60	13.50	-47.7	-58.8	3.8	7.48e-01	0	39	104	577765376	67	12567
2026-01-30 13:29:00.07	300.84	13.45	-47.1	-58.2	3.7	7.49e-01	0	39	104	577765376	66	12426
2026-01-30 13:29:00.93	301.02	13.40	-47.7	-58.9	3.8	7.53e-01	0	39	104	577765376	66	13539
2026-01-30 13:29:02.07	301.25	13.35	-52.9	-69.1	3.8	7.50e-01	0	39	104	577765376	76	24610
2026-01-30 13:29:02.96	301.44	13.31	-50.4	-62.9	3.7	7.51e-01	0	39	104	577765376	72	15055
2026-01-30 13:29:04.10	301.67	13.25	-49.2	-60.8	3.9	7.42e-01	0	39	104	577765376	69	14112
2026-01-30 13:29:05.01	301.86	13.21	-47.8	-58.9	3.5	7.53e-01	0	39	104	577765376	67	12739
2026-01-30 13:29:06.01	302.07	13.16	-47.8	-58.8	3.5	7.59e-01	0	39	104	577765376	67	12586
2026-01-30 13:29:07.02	302.27	13.11	-47.2	-58.1	3.8	7.59e-01	0	39	104	577765376	66	12282
2026-01-30 13:29:08.02	302.48	13.06	-47.2	-58.1	3.9	7.40e-01	0	39	104	577765376	66	12285
2026-01-30 13:29:09.02	302.68	13.01	-46.7	-57.6	3.9	7.47e-01	0	39	104	577765376	65	12267
2026-01-30 13:29:10.02	302.88	12.96	-47.4	-58.6	3.8	7.47e-01	0	39	104	577765376	65	13795
2026-01-30 13:29:11.03	303.08	12.91	-52.8	-68.9	3.9	7.44e-01	0	39	104	577765376	76	24041
2026-01-30 13:29:12.03	303.28	12.86	-52.1	-66.9	3.8	7.42e-01	0	39	104	577765376	76	18989
2026-01-30 13:29:13.04	303.49	12.80	-53.1	-69.8	3.8	7.44e-01	0	39	104	577765376	76	26637
2026-01-30 13:29:14.04	303.69	12.75	-52.6	-68.5	3.8	7.48e-01	0	39	104	577765376	76	22916
2026-01-30 13:29:15.04	303.88	12.70	-52.6	-68.5	3.8	7.45e-01	0	39	104	577765376	76	22840
2026-01-30 13:29:16.04	304.08	12.65	-52.3	-67.4	3.8	7.44e-01	0	39	104	577765376	76	20295
2026-01-30 13:29:17.04	304.28	12.60	-51.9	-66.6	3.8	7.44e-01	0	39	104	577765376	75	19533
2026-01-30 13:29:18.05	304.48	12.55	-51.7	-66.0	3.8	7.46e-01	0	39	104	577765376	75	18243
2026-01-30 13:29:19.05	304.67	12.50	-52.6	-69.1	3.8	7.48e-01	0	39	104	577765376	75	26066
2026-01-30 13:29:20.05	304.87	12.44	-47.7	-59.0	3.8	7.47e-01	0	39	104	577765376	67	12822
2026-01-30 13:29:21.05	305.06	12.39	-50.4	-62.8	3.8	7.50e-01	0	39	104	577765376	71	15914
2026-01-30 13:29:22.06	305.26	12.34	-49.1	-60.8	3.8	7.46e-01	0	39	104	577765376	68	14882
2026-01-30 13:29:23.06	305.45	12.29	-48.2	-59.4	3.8	7.50e-01	0	39	104	577765376	68	12771
2026-01-30 13:29:24.06	305.64	12.24	-47.9	-59.1	3.8	7.44e-01	0	39	104	577765376	67	13016
2026-01-30 13:29:25.06	305.83	12.18	-47.4	-58.4	3.8	7.49e-01	0	39	104	577765376	66	12735
2026-01-30 13:29:26.07	306.03	12.13	-47.2	-58.2	3.8	7.47e-01	0	39	104	577765376	66	12416
2026-01-30 13:29:27.07	306.22	12.08	-46.8	-57.8	3.8	7.45e-01	0	39	104	577765376	65	12640
2026-01-30 13:29:28.08	306.41	12.02	-47.8	-59.0	3.8	7.45e-01	0	39	104	577765376	66	13704
2026-01-30 13:29:29.08	306.59	11.97	-52.9	-69.0	3.8	7.49e-01	0	39	104	577765376	76	24343
2026-01-30 13:29:30.08	306.78	11.92	-50.2	-63.0	3.8	7.47e-01	0	39	104	577765376	72	15226
2026-01-30 13:29:31.16	306.98	11.86	-49.0	-61.0	3.8	7.47e-01	0	39	104	577765376	68	15287
2026-01-30 13:29:32.06	307.15	11.81	-47.7	-59.1	3.8	7.46e-01	0	39	104	577765376	67	12960
2026-01-30 13:29:33.20	307.36	11.75	-47.8	-59.0	3.8	7.47e-01	0	39	104	577765376	67	12904
2026-01-30 13:29:34.06	307.52	11.70	-47.6	-58.7	3.8	7.47e-01	0	39	104	577765376	67	12512
2026-01-30 13:29:35.21	307.73	11.64	-47.5	-58.6	3.8	7.48e-01	0	39	104	577765376	66	13106
2026-01-30 13:29:36.07	307.89	11.60	-47.7	-58.8	3.8	7.48e-01	0	39	104	577765376	66	13325
2026-01-30 13:29:37.22	308.10	11.53	-47.9	-59.1	3.8	7.43e-01	0	39	104	577765376	66	13883
2026-01-30 13:29:38.31	308.30	11.47	-52.4	-68.1	3.8	7.43e-01	0	39	104	577765376	75	23227
2026-01-30 13:29:39.35	308.49	11.42	-49.0	-60.7	3.8	7.45e-01	0	39	104	577765376	70	13200
2026-01-30 13:29:40.35	308.67	11.36	-49.3	-61.2	3.8	7.41e-01	0	39	104	577765376	69	14836
2026-01-30 13:29:41.56	308.89	11.30	-48.0	-59.5	3.8	7.49e-01	0	39	104	577765376	67	13696
2026-01-30 13:29:42.42	309.04	11.25	-47.9	-59.4	3.8	7.45e-01	0	39	104	577765376	67	13508
2026-01-30 13:29:43.56	309.24	11.19	-48.1	-59.7	3.8	7.45e-01	0	39	104	577765376	67	13941
2026-01-30 13:29:44.42	309.39	11.14	-47.7	-59.0	3.8	7.44e-01	0	39	104	577765376	67	12929
2026-01-30 13:29:45.57	309.60	11.08	-47.1	-58.3	3.8	7.46e-01	0	39	104	577765376	66	12533
2026-01-30 13:29:46.43	309.75	11.03	-48.6	-60.3	3.8	7.45e-01	0	39	104	577765376	67	15046
2026-01-30 13:29:47.57	309.95	10.97	-50.0	-62.7	3.9	7.46e-01	0	39	104	577765376	72	14810
2026-01-30 13:29:48.43	310.10	10.92	-48.2	-59.7	3.8	7.50e-01	0	39	104	577765376	68	13165
2026-01-30 13:29:49.58	310.30	10.86	-47.4	-58.6	3.8	7.49e-01	0	39	104	577765376	66	13102
2026-01-30 13:29:50.44	310.45	10.81	-49.9	-62.5	3.8	7.45e-01	0	39	104	577765376	70	16140
2026-01-30 13:29:51.58	310.65	10.74	-49.4	-61.4	3.8	7.48e-01	0	39	104	577765376	70	14318
2026-01-30 13:29:52.44	310.79	10.70	-49.0	-60.7	3.8	7.43e-01	0	39	104	577765376	69	14030
2026-01-30 13:29:53.59	310.99	10.63	-49.1	-60.9	3.8	7.47e-01	0	39	104	577765376	69	14217
2026-01-30 13:29:54.45	311.14	10.58	-49.4	-61.4	3.8	7.45e-01	0	39	104	577765376	69	15166
2026-01-30 13:29:55.66	311.34	10.52	-50.5	-63.3	3.8	7.47e-01	0	39	104	577765376	71	16828
2026-01-30 13:29:56.52	311.49	10.47	-51.1	-64.6	3.8	7.45e-01	0	39	104	577765376	72	18462
2026-01-30 13:29:57.74	311.69	10.40	-51.9	-66.5	3.8	7.51e-01	0	39	104	577765376	74	20343
2026-01-30 13:29:58.60	311.84	10.35	-52.2	-67.5	3.9	7.44e-01	0	39	104	577765376	75	21545
2026-01-30 13:29:59.83	312.04	10.28	-52.5	-68.4	3.8	7.45e-01	0	39	104	577765376	75	24036
2026-01-30 13:30:00.69	312.18	10.24	-52.6	-68.9	3.8	7.47e-01	0	39	104	577765376	75	25321
2026-01-30 13:30:01.83	312.37	10.17	-52.7	-69.3	3.8	7.48e-01	0	39	104	577765376	76	25198
2026-01-30 13:30:02.69	312.52	10.12	-52.8	-69.5	3.8	7.48e-01	0	39	104	577765376	76	25809
2026-01-30 13:30:03.84	312.70	10.06	-52.8	-69.6	3.8	7.49e-01	0	39	104	577765376	76	26023
2026-01-30 13:30:04.70	312.84	10.01	-52.8	-69.6	3.8	7.47e-01	0	39	104	577765376	76	26103
2026-01-30 13:30:05.85	313.03	9.95	-52.8	-69.6	3.8	7.49e-01	0	39	104	577765376	76	26108
2026-01-30 13:30:06.71	313.17	9.90	-52.8	-69.6	3.8	7.46e-01	0	39	104	577765376	76	26042
2026-01-30 13:30:07.86	313.36	9.83	-52.8	-69.6	3.8	7.46e-01	0	39	104	577765376	76	26020
2026-01-30 13:30:08.72	313.50	9.78	-52.6	-69.6	3.8	7.48e-01	0	39	104	577765376	76	26019
2026-01-30 13:30:09.87	313.68	9.72	-52.8	-69.6	3.8	7.46e-01	0	39	104	577765376	76	25999
2026-01-30 13:30:10.73	313.82	9.67	-52.8	-69.6	3.8	7.47e-01	0	39	104	577765376	76	26118
2026-01-30 13:30:11.88	314.00	9.60	-52.8	-69.6	3.8	7.47e-01	0	39	104	577765376	76	26061
2026-01-30 13:30:12.74	314.14	9.56	-52.8	-69.7	3.8	7.45e-01	0	39	104	577765376	76	26162
2026-01-30 13:30:13.89	314.32	9.49	-52.9	-69.7	3.8	7.46e-01	0	39	104	577765376	76	26433
2026-01-30 13:30:14.75	314.45	9.44	-53.0	-70.0	3.8	7.46e-01	0	39	104	577765376	76	27353
2026-01-30 13:30:15.90	314.63	9.38	-53.0	-70.3	3.8	7.44e-01	0	39	104	577765376	76	28321
2026-01-30 13:30:16.76	314.77	9.33	-53.0	-70.5	3.8	7.45e-01	0	39	104	577765376	76	28796
2026-01-30 13:30:17.91	314.94	9.26	-53.0	-70.6	3.8	7.45e-01	0	39	104	577765376	76	29310
2026-01-30 13:30:18.77	315.08	9.21	-52.9	-70.7	3.8	7.42e-01	0	39	104	577765376	76	29639
2026-01-30 13:30:19.91	315.25	9.15	-52.7	-70.7	3.8	7.45e-01	0	39	104	577765376	76	29682
2026-01-30 13:30:20.78	315.39	9.10	-52.5	-70.8	3.8	7.44e-01	0	39	104	577765376	76	29715
2026-01-30 13:30:21.92	315.56	9.04	-51.8	-71.1	3.8	7.43e-01	0	39	104	577765376	75	32612
2026-01-30 13:30:22.78	315.69	8.99	-51.7	-71.1	3.8	7.47e-01	0	39	104	577765376	75	32582
2026-01-30 13:30:23.93	315.86	8.92	-51.6	-71.0	3.8	7.45e-01	0	39	104	577765376	75	32432
2026-01-30 13:30:24.79	315.99	8.87	-51.5	-71.0	3.8	7.46e-01	0	39	104	577765376	75	32282
2026-01-30 13:30:25.94	316.17	8.81	-51.5	-71.0	3.8	7.46e-01	0	39	104	577765376	74	34131
2026-01-30 13:30:26.80	316.30	8.76	-51.5	-70.9	3.8	7.47e-01	0	39	104	577765376	74	34083
2026-01-30 13:30:27.95	316.47	8.69	-51.5	-70.9	3.8	7.41e-01	0	39	104	577765376	74	34015
2026-01-30 13:30:28.81	316.59	8.64	-51.5	-70.9	3.8	7.46e-01	0	39	104	577765376	74	34007
2026-01-30 13:30:29.95	316.76	8.58	-51.5	-70.9	3.8	7.48e-01	0	39	104	577765376	74	34066
2026-01-30 13:30:30.82	316.89	8.53	-51.5	-70.9	3.8	7.47e-01	0	39	104	577765376	74	34043
2026-01-30 13:30:31.96	317.06	8.46	-51.5	-70.9	3.8	7.45e-01	0	39	104	577765376	74	34007
2026-01-30 13:30:32.82	317.18	8.41	-51.5	-70.9	3.8	7.43e-01	0	39	104	577765376	74	33983
2026-01-30 13:30:33.97	317.35	8.35	-51.6	-71.0	3.8	7.46e-01	0	39	104	577765376	74	34268
2026-01-30 13:30:34.83	317.47	8.30	-51.7	-71.0	3.8	7.47e-01	0	39	104	577765376	74	34310
2026-01-30 13:30:35.98	317.64	8.23	-49.4	-71.0	3.8	7.48e-01	0	39	104	577765376	69	45760
2026-01-30 13:30:36.84	317.76	8.19	-48.8	-71.0	3.8	7.48e-01	0	39	104	577765376	69	45689
2026-01-30 13:30:37.99	317.93	8.12	-50.2	-71.0	3.8	7.49e-01	0	39	104	577765376	71	40899
2026-01-30 13:30:38.85	318.05	8.07	-50.2	-71.1	3.8	7.46e-01	0	39	104	577765376	71	41025
2026-01-30 13:30:40.00	318.21	8.00	-49.7	-71.0	3.8	7.45e-01	0	39	104	577765376	70	43241
2026-01-30 13:30:40.86	318.33	7.96	-48.5	-71.0	3.8	7.45e-01	0	39	104	577765376	69	45785
2026-01-30 13:30:42.01	318.49	7.89	-49.4	-71.0	3.8	7.43e-01	0	39	104	577765376	69	45886
2026-01-30 13:30:42.87	318.61	7.84	-48.8	-71.0	3.8	7.47e-01	0	39	104	577765376	69	45609
2026-01-30 13:30:44.01	318.77	7.78	-48.8	-70.9	3.8	7.47e-01	0	39	104	577765376	69	45433
2026-01-30 13:30:44.87	318.89	7.73	-48.9	-70.9	3.8	7.43e-01	0	39	104	577765376	69	45369
2026-01-30 13:30:46.02	319.05	7.66	-49.2	-70.9	3.8	7.49e-01	0	39	104	577765376	70	42843
2026-01-30 13:30:46.88	319.17	7.61	-49.3	-70.9	3.8	7.47e-01	0	39	104	577765376	70	42668
2026-01-30 13:30:48.03	319.33	7.55	-48.4	-70.6	3.8	7.43e-01	0	39	104	577765376	68	46491
2026-01-30 13:30:48.89	319.44	7.50	-49.4	-70.9	3.8	7.46e-01	0	39	104	577765376	69	45168
2026-01-30 13:30:50.04	319.60	7.43	-50.3	-70.9	3.8	7.44e-01	0	39	104	577765376	71	40228
2026-01-30 13:30:50.90	319.72	7.38	-49.9	-70.9	3.8	7.46e-01	0	39	104	577765376	71	40258
2026-01-30 13:30:52.05	319.87	7.32	-51.4	-70.9	3.8	7.45e-01	0	39	104	577765376	73	35915
2026-01-30 13:30:52.91	319.99	7.27	-51.4	-70.9	3.8	7.44e-01	0	39	104	577765376	73	35907
2026-01-30 13:30:54.05	320.14	7.21	-51.4	-70.9	3.8	7.45e-01	0	39	104	577765376	73	35845
2026-01-30 13:30:54.92	320.26	7.16	-51.4	-70.9	3.8	7.49e-01	0	39	104	577765376	73	35780
2026-01-30 13:30:56.06	320.41	7.09	-51.4	-70.9	3.8	7.43e-01	0	39	104	577765376	73	35843
2026-01-30 13:30:56.92	320.52	7.04	-51.4	-70.9	3.8	7.45e-01	0	39	104	577765376	73	35778
2026-01-30 13:30:58.07	320.67	6.98	-51.4	-70.9	3.8	7.46e-01	0	39	104	577765376	73	35842
2026-01-30 13:30:58.93	320.78	6.93	-51.4	-70.9	3.8	7.45e-01	0	39	104	577765376	73	35859
2026-01-30 13:31:00.08	320.93	6.86	-51.4	-70.9	3.8	7.40e-01	0	39	104	577765376	73	35847
2026-01-30 13:31:00.94	321.04	6.81	-51.4	-70.9	3.8	7.46e-01	0	39	104	577765376	73	35974
2026-01-30 13:31:02.09	321.19	6.75	-51.4	-70.
