passes_logs/2026/01/30/T1/T1__20260130_055351_FENGYUN_3E_rec.log

#Pass ID: 20260130_055351_FENGYUN 3E
#Satellite: FENGYUN 3E
#Configuration: FENGYUN 3E
#almurnet v.1.7.20251203
#Start time: 2026-01-30 05:53:53

#Version: 2.0.20230620
#Station: T1
#Location: 37.570604 lon 55.790049 lat
#TLE: 1 49008U 21062A   26029.52207456 -.00000035  00000+0  41692-5 0  9997
#TLE: 2 49008  98.7499  34.4814 0002557 110.8023 249.3427 14.19887743236900

#Time	Az	El	Level	Level2	SNR	BER	BlckErr	Temp	State	Recorded	gain1	gain2
2026-01-30 05:53:53.32	4.87	5.11	-51.0	-60.7	3.8	8.46e-01	0	41	0	0	71	11682
2026-01-30 05:53:54.32	4.78	5.16	-51.0	-60.7	3.8	8.47e-01	0	41	104	0	72	10979
2026-01-30 05:53:55.33	4.69	5.22	-50.9	-60.7	3.8	8.47e-01	0	41	104	0	72	10990
2026-01-30 05:53:56.33	4.60	5.28	-50.7	-60.8	3.8	8.47e-01	0	41	104	0	72	11107
2026-01-30 05:53:57.33	4.50	5.33	-50.9	-60.7	3.8	8.46e-01	0	41	104	0	72	10916
2026-01-30 05:53:58.34	4.41	5.39	-50.6	-60.8	3.8	8.46e-01	0	41	104	0	71	11698
2026-01-30 05:53:59.34	4.31	5.45	-51.0	-60.7	3.8	8.46e-01	0	41	104	0	71	11666
2026-01-30 05:54:00.34	4.22	5.51	-50.8	-60.7	3.8	8.47e-01	0	41	104	0	71	11672
2026-01-30 05:54:01.35	4.13	5.56	-50.6	-60.7	3.8	8.46e-01	0	41	104	0	71	11639
2026-01-30 05:54:02.35	4.03	5.62	-50.5	-60.7	3.8	8.47e-01	0	41	104	0	71	11630
2026-01-30 05:54:03.36	3.94	5.68	-50.5	-60.7	3.8	8.46e-01	0	41	104	0	71	11646
2026-01-30 05:54:04.36	3.84	5.74	-50.8	-60.7	3.8	8.47e-01	0	41	104	0	71	11682
2026-01-30 05:54:05.37	3.74	5.80	-50.5	-60.6	3.8	8.47e-01	0	42	104	0	71	11505
2026-01-30 05:54:06.37	3.65	5.85	-50.7	-60.7	3.8	8.47e-01	0	42	104	0	71	11655
2026-01-30 05:54:07.37	3.55	5.91	-50.8	-60.6	3.8	8.46e-01	0	42	104	0	71	11537
2026-01-30 05:54:08.38	3.45	5.97	-50.0	-60.6	3.8	8.47e-01	0	42	104	0	70	12229
2026-01-30 05:54:09.38	3.35	6.03	-50.4	-60.6	3.8	8.46e-01	0	42	104	0	70	12116
2026-01-30 05:54:10.39	3.26	6.09	-50.0	-60.5	3.8	8.46e-01	0	42	104	0	70	12022
2026-01-30 05:54:11.39	3.16	6.14	-50.1	-60.5	3.8	8.46e-01	0	42	104	0	70	11959
2026-01-30 05:54:12.39	3.06	6.20	-50.1	-60.3	3.8	8.46e-01	0	42	104	0	69	12514
2026-01-30 05:54:13.40	2.96	6.26	-48.9	-60.1	3.8	8.47e-01	0	42	104	0	68	12920
2026-01-30 05:54:14.40	2.86	6.32	-48.7	-60.1	3.8	8.46e-01	0	42	104	0	68	12928
2026-01-30 05:54:15.41	2.76	6.38	-48.7	-60.2	3.8	8.47e-01	0	42	104	0	68	13001
2026-01-30 05:54:16.41	2.66	6.43	-48.7	-60.2	3.8	8.46e-01	0	42	104	0	68	13018
2026-01-30 05:54:17.42	2.56	6.49	-48.7	-60.2	3.8	8.47e-01	0	42	104	0	68	13045
2026-01-30 05:54:18.42	2.46	6.55	-48.7	-60.2	3.8	8.45e-01	0	42	104	0	68	13063
2026-01-30 05:54:19.42	2.35	6.61	-48.6	-60.2	3.8	8.47e-01	0	42	104	0	68	13051
2026-01-30 05:54:20.43	2.25	6.67	-48.6	-60.1	3.8	8.47e-01	0	42	104	0	68	12902
2026-01-30 05:54:21.43	2.15	6.73	-48.7	-60.1	3.8	8.48e-01	0	42	104	0	68	12898
2026-01-30 05:54:22.44	2.04	6.79	-48.6	-60.0	3.8	8.47e-01	0	42	104	0	68	12782
2026-01-30 05:54:23.44	1.94	6.84	-48.6	-60.1	3.8	8.46e-01	0	42	104	0	68	12836
2026-01-30 05:54:24.45	1.84	6.90	-48.6	-60.1	3.8	8.49e-01	0	42	104	0	68	12851
2026-01-30 05:54:25.45	1.73	6.96	-48.6	-60.0	3.8	8.47e-01	0	42	104	0	68	12708
2026-01-30 05:54:26.46	1.63	7.02	-48.7	-59.9	3.8	8.47e-01	0	42	104	0	68	12658
2026-01-30 05:54:27.46	1.52	7.08	-48.7	-60.0	3.8	8.47e-01	0	42	104	0	68	12710
2026-01-30 05:54:28.46	1.42	7.14	-48.6	-59.9	3.8	8.48e-01	0	42	104	0	68	12623
2026-01-30 05:54:29.47	1.31	7.20	-48.6	-59.9	3.8	8.46e-01	0	42	104	0	68	12606
2026-01-30 05:54:30.47	1.20	7.26	-48.4	-59.8	3.8	8.46e-01	0	42	104	0	67	13150
2026-01-30 05:54:31.48	1.10	7.32	-48.5	-59.8	3.8	8.48e-01	0	42	104	0	67	13137
2026-01-30 05:54:32.48	0.99	7.37	-48.7	-59.7	3.8	8.46e-01	0	42	104	0	67	13105
2026-01-30 05:54:33.48	0.88	7.43	-48.6	-59.8	3.8	8.47e-01	0	42	104	0	67	13239
2026-01-30 05:54:34.49	0.77	7.49	-48.6	-59.8	3.8	8.48e-01	0	42	104	0	67	13204
2026-01-30 05:54:35.49	0.66	7.55	-48.5	-59.9	3.8	8.46e-01	0	42	104	0	67	13309
2026-01-30 05:54:36.50	0.55	7.61	-48.5	-59.9	3.8	8.47e-01	0	42	104	0	67	13317
2026-01-30 05:54:37.50	0.44	7.67	-48.6	-59.9	3.8	8.47e-01	0	42	104	0	67	13412
2026-01-30 05:54:38.51	0.33	7.73	-48.5	-60.0	3.8	8.47e-01	0	42	104	0	67	13486
2026-01-30 05:54:39.51	0.22	7.79	-48.5	-60.0	3.8	8.47e-01	0	42	104	0	67	13462
2026-01-30 05:54:40.51	0.11	7.85	-48.6	-59.9	3.8	8.47e-01	0	42	104	0	67	13397
2026-01-30 05:54:41.52	360.00	7.91	-48.5	-59.5	3.8	8.48e-01	0	42	104	0	67	12805
2026-01-30 05:54:42.52	359.89	7.97	-48.4	-59.1	3.8	8.47e-01	0	42	104	0	67	12097
2026-01-30 05:54:43.53	359.77	8.03	-48.4	-58.4	3.8	8.47e-01	0	42	104	0	67	11173
2026-01-30 05:54:44.53	359.66	8.09	-48.3	-57.9	3.8	8.46e-01	0	43	104	0	67	10606
2026-01-30 05:54:45.54	359.55	8.15	-48.3	-57.5	3.8	8.45e-01	0	42	104	0	67	10067
2026-01-30 05:54:46.54	359.43	8.21	-48.2	-57.0	4.1	8.43e-01	0	42	104	0	67	9599
2026-01-30 05:54:47.55	359.32	8.27	-48.1	-56.9	4.1	8.41e-01	0	43	0	0	67	9444
2026-01-30 05:54:48.55	359.20	8.32	-48.1	-56.8	4.1	8.42e-01	0	43	0	0	66	9845
2026-01-30 05:54:49.56	359.09	8.38	-48.1	-56.4	4.2	8.38e-01	0	43	0	0	66	9452
2026-01-30 05:54:50.56	358.97	8.44	-48.0	-55.8	4.4	8.33e-01	0	43	0	0	66	8806
2026-01-30 05:54:51.56	358.85	8.50	-47.8	-54.6	4.9	7.90e-01	0	43	0	0	66	7668
2026-01-30 05:54:52.57	358.74	8.56	-47.4	-53.1	5.9	5.48e-01	0	43	0	1048576	65	6830
2026-01-30 05:54:53.57	358.62	8.62	-46.8	-51.1	7.6	1.65e-01	0	43	0	8388608	64	5779
2026-01-30 05:54:54.58	358.50	8.68	-46.3	-49.7	9.1	3.14e-02	0	43	0	15728640	63	5178
2026-01-30 05:54:55.58	358.38	8.74	-45.5	-48.1	10.8	4.92e-03	0	43	0	23068672	61	4817
2026-01-30 05:54:56.58	358.26	8.80	-44.9	-46.9	12.1	4.08e-04	0	43	0	30408704	60	4469
2026-01-30 05:54:57.59	358.14	8.86	-44.3	-45.8	13.1	5.72e-05	0	43	0	37748736	59	4147
2026-01-30 05:54:58.59	358.02	8.92	-44.0	-45.4	13.6	1.02e-05	0	43	0	45088768	58	4209
2026-01-30 05:54:59.59	357.90	8.98	-43.9	-45.2	13.8	6.80e-06	0	43	0	51380224	58	4100
2026-01-30 05:55:00.60	357.78	9.04	-44.2	-45.6	13.3	8.00e-06	0	43	0	58720256	58	4331
2026-01-30 05:55:01.60	357.66	9.10	-44.3	-45.9	13.1	6.29e-05	0	43	0	66060288	58	4489
2026-01-30 05:55:02.60	357.54	9.16	-44.1	-45.6	13.4	2.86e-05	0	43	0	73400320	58	4298
2026-01-30 05:55:03.60	357.42	9.22	-47.7	-52.6	6.5	6.53e-02	0	43	0	80740352	64	6806
2026-01-30 05:55:04.61	357.29	9.28	-43.1	-44.2	14.6	3.24e-01	0	43	0	80740352	57	3904
2026-01-30 05:55:05.61	357.17	9.34	-40.2	-40.6	18.3	0.00e+00	0	43	0	88080384	51	3624
2026-01-30 05:55:06.61	357.04	9.40	-40.2	-40.6	18.3	0.00e+00	0	43	0	95420416	51	3622
2026-01-30 05:55:07.61	356.92	9.46	-40.1	-40.4	18.5	0.00e+00	0	43	0	101711872	50	3778
2026-01-30 05:55:08.62	356.79	9.52	-40.1	-40.5	18.4	0.00e+00	0	43	0	109051904	50	3795
2026-01-30 05:55:09.62	356.67	9.58	-40.1	-40.5	18.4	0.00e+00	0	43	0	116391936	50	3797
2026-01-30 05:55:10.62	356.54	9.64	-40.2	-40.6	18.3	0.00e+00	0	43	0	123731968	50	3868
2026-01-30 05:55:11.63	356.41	9.70	-40.2	-40.7	18.3	0.00e+00	0	43	0	131072000	50	3882
2026-01-30 05:55:12.63	356.29	9.76	-40.1	-40.6	18.3	0.00e+00	0	43	0	138412032	50	3831
2026-01-30 05:55:13.70	356.15	9.83	-40.1	-40.6	18.3	0.00e+00	0	43	0	145752064	50	3837
2026-01-30 05:55:14.56	356.04	9.88	-40.1	-40.6	18.4	0.00e+00	0	43	0	152043520	50	3836
2026-01-30 05:55:15.70	355.89	9.95	-40.1	-40.5	18.4	0.00e+00	0	43	0	160432128	50	3791
2026-01-30 05:55:16.66	355.77	10.00	-40.0	-40.4	18.6	0.00e+00	0	43	0	167772160	50	3753
2026-01-30 05:55:17.66	355.64	10.06	-39.7	-40.1	18.8	0.00e+00	0	43	0	175112192	50	3650
2026-01-30 05:55:18.66	355.51	10.12	-39.7	-40.1	18.8	0.00e+00	0	43	0	181403648	50	3634
2026-01-30 05:55:19.66	355.38	10.18	-39.7	-40.1	18.8	0.00e+00	0	43	0	188743680	49	3848
2026-01-30 05:55:20.97	355.21	10.26	-39.6	-40.2	18.7	0.00e+00	0	43	0	198180864	49	3885
2026-01-30 05:55:21.72	355.11	10.31	-39.4	-40.0	18.9	0.00e+00	0	43	0	203423744	49	3794
2026-01-30 05:55:23.01	354.94	10.38	-39.3	-39.8	19.1	0.00e+00	0	43	0	212860928	49	3717
2026-01-30 05:55:23.72	354.84	10.43	-39.2	-39.7	19.2	0.00e+00	0	43	0	218103808	49	3656
2026-01-30 05:55:25.01	354.67	10.50	-39.1	-39.7	19.2	0.00e+00	0	43	0	227540992	48	3874
2026-01-30 05:55:25.73	354.57	10.55	-39.1	-39.7	19.2	0.00e+00	0	43	0	232783872	48	3912
2026-01-30 05:55:27.02	354.40	10.62	-38.9	-39.5	19.3	0.00e+00	0	43	0	242221056	48	3822
2026-01-30 05:55:27.73	354.30	10.67	-38.8	-39.4	19.5	0.00e+00	0	43	0	247463936	48	3766
2026-01-30 05:55:29.02	354.13	10.74	-38.9	-39.5	19.4	0.00e+00	0	43	0	256901120	48	3823
2026-01-30 05:55:29.74	354.03	10.79	-38.8	-39.5	19.5	0.00e+00	0	43	0	262144000	48	3788
2026-01-30 05:55:31.02	353.85	10.86	-39.1	-39.7	19.2	0.00e+00	0	43	0	271581184	48	3893
2026-01-30 05:55:31.74	353.76	10.90	-39.0	-39.7	19.2	0.00e+00	0	43	0	276824064	48	3882
2026-01-30 05:55:33.03	353.58	10.98	-39.2	-39.8	19.1	0.00e+00	0	43	0	286261248	48	3948
2026-01-30 05:55:33.75	353.48	11.03	-39.2	-39.9	19.0	0.00e+00	0	43	0	290455552	48	3968
2026-01-30 05:55:35.04	353.30	11.10	-39.2	-39.8	19.2	0.00e+00	0	43	0	299892736	48	3924
2026-01-30 05:55:35.75	353.20	11.14	-39.4	-39.9	19.1	0.00e+00	0	43	0	305135616	48	3985
2026-01-30 05:55:37.04	353.02	11.22	-39.5	-40.0	19.0	0.00e+00	0	43	0	314572800	48	4030
2026-01-30 05:55:37.76	352.91	11.26	-39.5	-39.9	19.1	0.00e+00	0	43	0	319815680	48	3988
2026-01-30 05:55:39.05	352.73	11.34	-39.5	-39.9	19.1	0.00e+00	0	43	0	329252864	48	3973
2026-01-30 05:55:39.76	352.63	11.38	-39.5	-39.8	19.2	0.00e+00	0	43	0	334495744	48	3942
2026-01-30 05:55:41.05	352.45	11.46	-39.4	-39.6	19.3	0.00e+00	0	43	0	343932928	48	3854
2026-01-30 05:55:41.77	352.34	11.50	-39.3	-39.5	19.4	0.00e+00	0	43	0	349175808	48	3819
2026-01-30 05:55:43.06	352.16	11.58	-39.3	-39.5	19.4	0.00e+00	0	43	0	357564416	48	3805
2026-01-30 05:55:44.08	352.01	11.64	-39.2	-39.3	19.6	0.00e+00	0	43	0	365953024	48	3732
2026-01-30 05:55:45.40	351.82	11.72	-39.1	-39.3	19.7	0.00e+00	0	43	0	375390208	48	3703
2026-01-30 05:55:46.11	351.71	11.76	-39.0	-39.1	19.8	0.00e+00	0	43	0	379584512	48	3636
2026-01-30 05:55:47.75	351.47	11.86	-39.0	-39.1	19.9	0.00e+00	0	43	0	392167424	48	3629
2026-01-30 05:55:48.32	351.39	11.89	-39.0	-39.1	19.9	0.00e+00	0	43	0	396361728	48	3627
2026-01-30 05:55:49.93	351.15	11.99	-38.8	-38.9	20.0	0.00e+00	0	43	0	407896064	48	3549
2026-01-30 05:55:50.51	351.06	12.02	-38.7	-38.7	20.2	0.00e+00	0	43	0	412090368	48	3487
2026-01-30 05:55:52.10	350.82	12.12	-38.6	-38.7	20.2	0.00e+00	0	43	0	423624704	48	3483
2026-01-30 05:55:52.67	350.74	12.15	-38.5	-38.6	20.1	0.00e+00	0	43	0	427819008	47	3628
2026-01-30 05:55:54.25	350.50	12.24	-38.5	-38.7	20.0	0.00e+00	0	43	0	439353344	47	3657
2026-01-30 05:55:54.88	350.41	12.28	-38.5	-38.6	20.1	0.00e+00	0	43	0	443547648	47	3644
2026-01-30 05:55:56.32	350.19	12.37	-38.5	-38.7	20.0	0.00e+00	0	43	0	454033408	47	3673
2026-01-30 05:55:57.03	350.08	12.41	-38.5	-38.7	20.0	0.00e+00	0	43	0	459276288	47	3665
2026-01-30 05:55:58.67	349.83	12.50	-38.6	-38.8	19.9	0.00e+00	0	44	0	470810624	47	3730
2026-01-30 05:55:59.25	349.74	12.54	-38.6	-38.9	19.9	0.00e+00	0	44	0	475004928	47	3741
2026-01-30 05:56:00.85	349.49	12.63	-38.8	-39.0	19.8	0.00e+00	0	43	0	486539264	47	3797
2026-01-30 05:56:01.62	349.37	12.68	-38.8	-39.0	19.8	0.00e+00	0	43	0	491782144	47	3786
2026-01-30 05:56:02.91	349.17	12.75	-38.9	-39.1	19.6	0.00e+00	0	43	0	501219328	47	3844
2026-01-30 05:56:03.62	349.05	12.79	-38.9	-39.1	19.6	0.00e+00	0	43	0	506462208	47	3857
2026-01-30 05:56:04.91	348.85	12.87	-39.0	-39.2	19.6	0.00e+00	0	43	0	515899392	47	3888
2026-01-30 05:56:05.62	348.74	12.91	-39.0	-39.1	19.6	0.00e+00	0	43	0	521142272	47	3866
2026-01-30 05:56:06.91	348.53	12.99	-38.8	-39.0	19.8	0.00e+00	0	43	0	530579456	47	3796
2026-01-30 05:56:07.63	348.42	13.03	-38.9	-39.0	19.7	0.00e+00	0	43	0	535822336	47	3810
2026-01-30 05:56:08.92	348.21	13.10	-38.9	-39.0	19.7	0.00e+00	0	44	0	544210944	47	3817
2026-01-30 05:56:09.64	348.10	13.14	-38.8	-39.0	19.7	0.00e+00	0	43	0	550502400	47	3803
2026-01-30 05:56:10.93	347.89	13.22	-38.7	-38.9	19.9	0.00e+00	0	43	0	559939584	47	3750
2026-01-30 05:56:11.65	347.77	13.26	-38.6	-38.8	19.9	0.00e+00	0	43	0	564133888	47	3727
2026-01-30 05:56:13.29	347.50	13.35	-38.5	-38.7	20.0	0.00e+00	0	43	0	576716800	47	3690
2026-01-30 05:56:13.86	347.41	13.39	-38.6	-38.8	19.9	0.00e+00	0	43	0	580911104	47	3707
2026-01-30 05:56:15.43	347.15	13.48	-38.6	-38.9	19.9	0.00e+00	0	43	0	592445440	47	3741
2026-01-30 05:56:16.02	347.05	13.51	-38.6	-38.8	19.9	0.00e+00	0	43	0	595591168	47	3733
2026-01-30 05:56:17.76	346.77	13.61	-38.6	-38.8	20.0	0.00e+00	0	44	0	608174080	47	3718
2026-01-30 05:56:18.33	346.67	13.64	-38.5	-38.7	20.0	0.00e+00	0	43	0	612368384	47	3676
2026-01-30 05:56:19.92	346.40	13.73	-38.5	-38.7	20.1	0.00e+00	0	43	0	623902720	47	3666
2026-01-30 05:56:20.50	346.31	13.77	-38.6	-38.7	20.0	0.00e+00	0	43	0	628097024	47	3674
2026-01-30 05:56:22.09	346.04	13.86	-38.6	-38.8	20.0	0.00e+00	0	44	0	639631360	47	3712
2026-01-30 05:56:22.66	345.94	13.89	-38.6	-38.8	20.0	0.00e+00	0	43	0	643825664	47	3701
2026-01-30 05:56:24.49	345.63	13.99	-38.6	-38.8	20.0	0.00e+00	0	43	0	657457152	47	3715
2026-01-30 05:56:25.06	345.53	14.02	-38.7	-38.8	19.9	0.00e+00	0	44	0	661651456	47	3732
2026-01-30 05:56:27.08	345.19	14.14	-38.5	-38.7	20.1	0.00e+00	0	43	0	676331520	47	3679
2026-01-30 05:56:27.66	345.09	14.17	-38.4	-38.5	20.2	0.00e+00	0	43	0	680525824	47	3605
2026-01-30 05:56:29.32	344.80	14.26	-38.3	-38.5	20.3	0.00e+00	0	43	0	692060160	47	3582
2026-01-30 05:56:29.90	344.70	14.30	-38.2	-38.4	20.3	0.00e+00	0	43	0	696254464	47	3551
2026-01-30 05:56:31.47	344.42	14.38	-38.2	-38.3	20.4	0.00e+00	0	44	0	707788800	47	3513
2026-01-30 05:56:32.10	344.31	14.42	-38.2	-38.3	20.4	0.00e+00	0	43	0	711983104	47	3515
2026-01-30 05:56:33.56	344.05	14.50	-38.2	-38.3	20.5	0.00e+00	0	43	0	722468864	47	3506
2026-01-30 05:56:34.28	343.93	14.54	-38.3	-38.3	20.4	0.00e+00	0	43	0	727711744	47	3525
2026-01-30 05:56:35.57	343.70	14.61	-38.2	-38.3	20.5	0.00e+00	0	43	0	737148928	47	3506
2026-01-30 05:56:36.29	343.57	14.65	-38.2	-38.2	20.5	0.00e+00	0	43	0	742391808	47	3481
2026-01-30 05:56:37.58	343.34	14.72	-38.2	-38.3	20.4	0.00e+00	0	43	0	751828992	47	3514
2026-01-30 05:56:38.29	343.21	14.76	-38.2	-38.2	20.5	0.00e+00	0	44	0	757071872	47	3482
2026-01-30 05:56:39.58	342.98	14.83	-38.1	-38.2	20.6	0.00e+00	0	43	0	766509056	47	3454
2026-01-30 05:56:40.30	342.84	14.87	-38.1	-38.2	20.6	0.00e+00	0	44	0	771751936	47	3464
2026-01-30 05:56:41.59	342.61	14.94	-38.1	-38.2	20.6	0.00e+00	0	43	0	781189120	46	3653
2026-01-30 05:56:42.30	342.48	14.97	-38.0	-38.0	20.6	0.00e+00	0	44	0	785383424	46	3597
2026-01-30 05:56:43.60	342.24	15.04	-38.0	-38.0	20.7	0.00e+00	0	44	0	794820608	46	3606
2026-01-30 05:56:44.31	342.11	15.08	-37.9	-37.9	20.8	0.00e+00	0	43	0	800063488	46	3563
2026-01-30 05:56:45.60	341.87	15.15	-37.8	-37.8	21.0	0.00e+00	0	44	0	809500672	46	3502
2026-01-30 05:56:46.32	341.74	15.19	-37.8	-37.7	21.0	0.00e+00	0	44	0	814743552	46	3479
2026-01-30 05:56:47.61	341.50	15.26	-37.8	-37.8	21.0	0.00e+00	0	44	0	824180736	46	3488
2026-01-30 05:56:48.56	341.32	15.31	-37.7	-37.6	21.1	0.00e+00	0	43	0	830472192	46	3445
2026-01-30 05:56:49.57	341.13	15.36	-37.8	-37.8	21.0	0.00e+00	0	43	0	837812224	46	3508
2026-01-30 05:56:50.57	340.95	15.41	-37.8	-37.8	21.0	0.00e+00	0	43	0	845152256	46	3503
2026-01-30 05:56:51.57	340.76	15.46	-37.8	-37.8	20.9	0.00e+00	0	44	0	852492288	46	3510
2026-01-30 05:56:52.57	340.57	15.52	-37.8	-37.8	21.0	0.00e+00	0	43	0	859832320	46	3502
2026-01-30 05:56:53.58	340.38	15.57	-37.8	-37.8	21.0	0.00e+00	0	43	0	867172352	46	3499
2026-01-30 05:56:54.58	340.18	15.62	-37.7	-37.7	21.0	0.00e+00	0	43	0	874512384	46	3480
2026-01-30 05:56:55.58	339.99	15.67	-37.7	-37.7	21.1	0.00e+00	0	43	0	881852416	46	3460
2026-01-30 05:56:56.58	339.80	15.72	-37.8	-37.8	21.0	0.00e+00	0	44	0	889192448	46	3503
2026-01-30 05:56:57.59	339.61	15.77	-37.7	-37.6	21.1	0.00e+00	0	43	0	896532480	46	3436
2026-01-30 05:56:58.59	339.41	15.82	-37.7	-37.6	21.1	0.00e+00	0	44	0	903872512	46	3438
2026-01-30 05:56:59.77	339.18	15.88	-37.6	-37.6	21.1	0.00e+00	0	44	0	911212544	46	3441
2026-01-30 05:57:00.66	339.01	15.93	-37.7	-37.7	21.1	0.00e+00	0	43	0	918552576	46	3460
2026-01-30 05:57:02.00	338.75	15.99	-37.6	-37.6	21.1	0.00e+00	0	44	0	927989760	46	3446
2026-01-30 05:57:02.72	338.61	16.03	-37.7	-37.7	21.1	0.00e+00	0	44	0	933232640	46	3464
2026-01-30 05:57:04.01	338.35	16.09	-37.6	-37.6	21.2	0.00e+00	0	43	0	942669824	46	3434
2026-01-30 05:57:04.72	338.21	16.13	-37.7	-37.7	21.1	0.00e+00	0	44	0	947912704	46	3449
2026-01-30 05:57:06.01	337.96	16.19	-37.7	-37.6	21.1	0.00e+00	0	44	0	957349888	46	3447
2026-01-30 05:57:06.79	337.80	16.23	-37.7	-37.6	21.1	0.00e+00	0	44	0	962592768	46	3446
2026-01-30 05:57:08.08	337.54	16.29	-37.6	-37.6	21.1	0.00e+00	0	44	0	972029952	46	3422
2026-01-30 05:57:08.86	337.39	16.33	-37.7	-37.6	21.1	0.00e+00	0	43	0	977272832	46	3426
2026-01-30 05:57:10.15	337.13	16.39	-37.6	-37.5	21.2	0.00e+00	0	44	0	986710016	45	3607
2026-01-30 05:57:10.87	336.98	16.43	-37.6	-37.5	21.2	0.00e+00	0	44	0	991952896	45	3609
2026-01-30 05:57:12.16	336.72	16.49	-37.6	-37.5	21.2	0.00e+00	0	43	0	1001390080	45	3599
2026-01-30 05:57:12.87	336.58	16.52	-37.5	-37.5	21.2	0.00e+00	0	44	0	1006632960	45	3591
2026-01-30 05:57:14.17	336.31	16.58	-37.6	-37.6	21.2	0.00e+00	0	44	0	1016070144	45	3612
2026-01-30 05:57:14.88	336.17	16.61	-37.5	-37.5	21.3	0.00e+00	0	44	0	1021313024	45	3577
2026-01-30 05:57:16.17	335.91	16.67	-37.6	-37.5	21.2	0.00e+00	0	43	0	1030750208	45	3592
2026-01-30 05:57:16.89	335.76	16.71	-37.6	-37.6	21.2	0.00e+00	0	43	0	1035993088	45	3628
2026-01-30 05:57:18.18	335.49	16.76	-37.6	-37.6	21.2	0.00e+00	0	44	0	1045430272	45	3622
2026-01-30 05:57:18.90	335.34	16.80	-37.7	-37.6	21.1	0.00e+00	0	43	0	1049624576	45	3635
2026-01-30 05:57:20.18	335.08	16.85	-37.6	-37.6	21.1	0.00e+00	0	44	0	1059061760	45	3629
2026-01-30 05:57:20.90	334.93	16.89	-37.6	-37.6	21.2	0.00e+00	0	44	0	1064304640	45	3613
2026-01-30 05:57:22.19	334.66	16.94	-37.7	-37.6	21.1	0.00e+00	0	44	0	1073741824	45	3650
2026-01-30 05:57:22.90	334.51	16.97	-37.6	-37.6	21.2	0.00e+00	0	43	0	1078984704	45	3617
2026-01-30 05:57:24.19	334.24	17.03	-37.6	-37.5	21.2	0.00e+00	0	43	0	1088421888	45	3598
2026-01-30 05:57:24.97	334.07	17.06	-37.6	-37.5	21.2	0.00e+00	0	44	0	1093664768	45	3600
2026-01-30 05:57:26.26	333.80	17.12	-37.5	-37.5	21.2	0.00e+00	0	43	0	1103101952	45	3583
2026-01-30 05:57:26.98	333.65	17.15	-37.5	-37.5	21.3	0.00e+00	0	43	0	1108344832	45	3575
2026-01-30 05:57:28.27	333.38	17.21	-37.5	-37.4	21.3	0.00e+00	0	44	0	1117782016	45	3555
2026-01-30 05:57:28.99	333.22	17.24	-37.5	-37.4	21.3	0.00e+00	0	44	0	1123024896	45	3565
2026-01-30 05:57:30.28	332.95	17.29	-37.4	-37.4	21.3	0.00e+00	0	43	0	1132462080	45	3532
2026-01-30 05:57:31.00	332.79	17.32	-37.5	-37.5	21.3	0.00e+00	0	43	0	1137704960	45	3570
2026-01-30 05:57:32.29	332.52	17.37	-37.3	-37.3	21.4	0.00e+00	0	44	0	1147142144	45	3515
2026-01-30 05:57:33.00	332.36	17.40	-37.3	-37.3	21.4	0.00e+00	0	44	0	1151336448	45	3496
2026-01-30 05:57:34.30	332.08	17.45	-37.2	-37.2	21.6	0.00e+00	0	43	0	1160773632	45	3453
2026-01-30 05:57:35.01	331.93	17.48	-37.1	-37.1	21.6	0.00e+00	0	44	0	1166016512	45	3427
2026-01-30 05:57:36.40	331.63	17.54	-37.1	-37.0	21.7	0.00e+00	0	44	0	1176502272	44	3601
2026-01-30 05:57:37.11	331.47	17.57	-37.0	-37.0	21.7	0.00e+00	0	44	0	1181745152	44	3570
2026-01-30 05:57:38.44	331.18	17.62	-37.0	-36.9	21.8	0.00e+00	0	44	0	1191182336	44	3557
2026-01-30 05:57:39.15	331.03	17.64	-37.0	-37.0	21.7	0.00e+00	0	43	0	1196425216	44	3576
2026-01-30 05:57:40.47	330.74	17.69	-37.1	-37.1	21.7	0.00e+00	0	44	0	1205862400	44	3617
2026-01-30 05:57:41.19	330.58	17.72	-37.1	-37.0	21.7	0.00e+00	0	44	0	1211105280	44	3606
2026-01-30 05:57:42.48	330.29	17.77	-37.2	-37.1	21.6	0.00e+00	0	44	0	1220542464	44	3622
2026-01-30 05:57:43.19	330.14	17.80	-37.1	-37.0	21.7	0.00e+00	0	43	0	1225785344	44	3602
2026-01-30 05:57:44.58	329.83	17.85	-37.1	-37.0	21.7	0.00e+00	0	43	0	1235222528	44	3584
2026-01-30 05:57:45.30	329.67	17.87	-37.0	-37.0	21.7	0.00e+00	0	43	0	1240465408	44	3576
2026-01-30 05:57:46.59	329.38	17.92	-37.0	-37.0	21.7	0.00e+00	0	44	0	1249902592	44	3588
2026-01-30 05:57:47.30	329.22	17.94	-37.1	-37.1	21.6	0.00e+00	0	43	0	1255145472	44	3635
2026-01-30 05:57:48.74	328.90	17.99	-37.1	-37.1	21.6	0.00e+00	0	44	0	1265631232	44	3615
2026-01-30 05:57:49.45	328.74	18.02	-37.0	-37.0	21.7	0.00e+00	0	44	0	1270874112	44	3599
2026-01-30 05:57:50.74	328.45	18.06	-37.1	-37.1	21.6	0.00e+00	0	44	0	1280311296	44	3633
2026-01-30 05:57:51.46	328.29	18.09	-37.1	-37.1	21.7	0.00e+00	0	43	0	1284505600	44	3619
2026-01-30 05:57:52.74	328.00	18.13	-37.0	-37.0	21.7	0.00e+00	0	44	0	1293942784	44	3600
2026-01-30 05:57:53.46	327.83	18.15	-37.0	-36.9	21.8	0.00e+00	0	44	0	1299185664	44	3561
2026-01-30 05:57:54.75	327.54	18.20	-36.9	-36.8	21.9	0.00e+00	0	44	0	1308622848	44	3513
2026-01-30 05:57:55.46	327.38	18.22	-36.9	-36.8	21.9	0.00e+00	0	44	0	1313865728	44	3518
2026-01-30 05:57:56.75	327.08	18.26	-36.8	-36.8	21.9	0.00e+00	0	44	0	1323302912	44	3508
2026-01-30 05:57:57.47	326.92	18.28	-36.8	-36.7	21.9	0.00e+00	0	43	0	1328545792	44	3485
2026-01-30 05:57:58.76	326.62	18.32	-36.8	-36.8	21.9	0.00e+00	0	44	0	1337982976	44	3506
2026-01-30 05:57:59.57	326.44	18.35	-36.9	-36.8	21.9	0.00e+00	0	44	0	1343225856	44	3520
2026-01-30 05:58:00.71	326.18	18.38	-36.9	-36.8	21.8	0.00e+00	0	44	0	1351614464	44	3526
2026-01-30 05:58:01.57	325.98	18.40	-36.9	-36.9	21.9	0.00e+00	0	44	0	1357905920	44	3532
2026-01-30 05:58:02.72	325.71	18.44	-37.0	-36.9	21.8	0.00e+00	0	43	0	1366294528	44	3555
2026-01-30 05:58:03.58	325.51	18.46	-37.0	-36.9	21.8	0.00e+00	0	44	0	1372585984	44	3562
2026-01-30 05:58:04.73	325.25	18.49	-37.1	-37.1	21.7	0.00e+00	0	44	0	1380974592	44	3611
2026-01-30 05:58:05.59	325.05	18.52	-37.1	-37.0	21.7	0.00e+00	0	44	0	1387266048	44	3590
2026-01-30 05:58:06.73	324.78	18.55	-37.1	-37.0	21.7	0.00e+00	0	44	0	1395654656	44	3610
2026-01-30 05:58:07.60	324.58	18.57	-37.1	-37.0	21.7	0.00e+00	0	44	0	1401946112	44	3598
2026-01-30 05:58:08.74	324.31	18.60	-37.1	-37.0	21.7	0.00e+00	0	44	0	1410334720	44	3601
2026-01-30 05:58:09.60	324.11	18.62	-37.1	-37.0	21.7	0.00e+00	0	44	0	1415577600	44	3603
2026-01-30 05:58:10.91	323.80	18.66	-36.9	-36.9	21.8	0.00e+00	0	43	0	1425014784	44	3535
2026-01-30 05:58:11.62	323.64	18.68	-37.0	-36.9	21.8	0.00e+00	0	44	0	1430257664	44	3558
2026-01-30 05:58:13.13	323.28	18.71	-36.9	-36.9	21.8	0.00e+00	0	44	0	1441792000	44	3541
2026-01-30 05:58:13.85	323.11	18.73	-36.9	-36.8	21.8	0.00e+00	0	44	0	1447034880	44	3528
2026-01-30 05:58:15.14	322.81	18.76	-36.8	-36.8	21.9	0.00e+00	0	44	0	1456472064	44	3492
2026-01-30 05:58:15.86	322.64	18.77	-36.9	-36.8	21.8	0.00e+00	0	44	0	1460666368	44	3525
2026-01-30 05:58:17.14	322.33	18.80	-36.8	-36.8	21.5	0.00e+00	0	44	0	1470103552	44	3503
2026-01-30 05:58:18.26	322.07	18.83	-36.7	-36.6	22.0	0.00e+00	0	44	0	1478492160	44	3443
2026-01-30 05:58:19.12	321.87	18.85	-36.7	-36.6	22.1	0.00e+00	0	44	0	1484783616	44	3430
2026-01-30 05:58:20.26	321.59	18.87	-36.7	-36.6	22.1	0.00e+00	0	44	0	1493172224	44	3416
2026-01-30 05:58:21.12	321.39	18.89	-36.7	-36.6	22.1	0.00e+00	0	43	0	1499463680	44	3412
2026-01-30 05:58:22.29	321.11	18.91	-36.7	-36.6	22.1	0.00e+00	0	44	0	1507852288	44	3415
2026-01-30 05:58:23.15	320.90	18.93	-36.7	-36.6	22.0	0.00e+00	0	44	0	1514143744	44	3447
2026-01-30 05:58:24.40	320.61	18.95	-36.7	-36.7	22.0	0.00e+00	0	44	0	1522532352	44	3451
2026-01-30 05:58:25.25	320.40	18.96	-36.8	-36.7	22.0	0.00e+00	0	44	0	1528823808	44	3460
2026-01-30 05:58:26.40	320.13	18.98	-36.8	-36.7	22.0	0.00e+00	0	44	0	1537212416	44	3459
2026-01-30 05:58:27.26	319.92	19.00	-36.8	-36.8	21.9	0.00e+00	0	43	0	1543503872	44	3502
2026-01-30 05:58:28.40	319.65	19.02	-36.8	-36.7	22.0	0.00e+00	0	44	0	1551892480	44	3484
2026-01-30 05:58:29.31	319.43	19.03	-36.8	-36.7	21.9	0.00e+00	0	44	0	1558183936	44	3475
2026-01-30 05:58:30.49	319.14	19.05	-36.7	-36.7	22.0	0.00e+00	0	44	0	1566572544	44	3454
2026-01-30 05:58:31.35	318.94	19.06	-36.7	-36.6	22.1	0.00e+00	0	44	0	1572864000	44	3445
2026-01-30 05:58:32.49	318.66	19.08	-36.8	-36.8	22.0	0.00e+00	0	44	0	1581252608	44	3488
2026-01-30 05:58:33.35	318.45	19.09	-36.7	-36.7	22.0	0.00e+00	0	43	0	1587544064	44	3478
2026-01-30 05:58:34.50	318.18	19.11	-36.7	-36.7	22.0	0.00e+00	0	44	0	1595932672	44	3468
2026-01-30 05:58:35.36	317.97	19.12	-36.7	-36.6	22.1	0.00e+00	0	44	0	1602224128	44	3443
2026-01-30 05:58:36.50	317.69	19.13	-36.7	-36.6	22.0	0.00e+00	0	44	0	1610612736	44	3442
2026-01-30 05:58:37.36	317.48	19.14	-36.7	-36.6	22.1	0.00e+00	0	44	0	1615855616	44	3433
2026-01-30 05:58:38.50	317.21	19.16	-36.7	-36.6	22.1	0.00e+00	0	44	0	1624244224	44	3445
2026-01-30 05:58:39.37	317.00	19.17	-36.7	-36.6	22.1	0.00e+00	0	44	0	1630535680	44	3417
2026-01-30 05:58:40.51	316.72	19.18	-36.7	-36.6	22.1	0.00e+00	0	44	0	1638924288	44	3440
2026-01-30 05:58:41.37	316.51	19.19	-36.7	-36.6	22.1	0.00e+00	0	44	0	1645215744	44	3425
2026-01-30 05:58:42.52	316.23	19.20	-36.7	-36.6	22.1	0.00e+00	0	43	0	1653604352	44	3411
2026-01-30 05:58:43.38	316.02	19.20	-36.8	-36.7	22.0	0.00e+00	0	44	0	1659895808	44	3469
2026-01-30 05:58:44.53	315.74	19.21	-36.7	-36.6	22.1	0.00e+00	0	44	0	1668284416	44	3416
2026-01-30 05:58:45.39	315.53	19.22	-36.4	-36.3	22.2	0.00e+00	0	44	0	1674575872	43	3522
2026-01-30 05:58:46.67	315.22	19.23	-36.4	-36.3	22.2	0.00e+00	0	44	0	1684013056	43	3505
2026-01-30 05:58:47.39	315.04	19.23	-36.5	-36.4	22.2	0.00e+00	0	44	0	1689255936	43	3531
2026-01-30 05:58:48.68	314.73	19.24	-36.4	-36.3	22.2	0.00e+00	0	44	0	1698693120	43	3514
2026-01-30 05:58:49.40	314.55	19.24	-36.4	-36.3	22.2	0.00e+00	0	44	0	1702887424	43	3524
2026-01-30 05:58:50.69	314.24	19.25	-36.4	-36.3	22.2	0.00e+00	0	44	0	1712324608	43	3517
2026-01-30 05:58:51.41	314.06	19.25	-36.4	-36.3	22.2	0.00e+00	0	44	0	1717567488	43	3491
2026-01-30 05:58:52.70	313.75	19.26	-36.4	-36.3	22.2	0.00e+00	0	44	0	1727004672	43	3509
2026-01-30 05:58:53.52	313.55	19.26	-36.4	-36.4	22.2	0.00e+00	0	43	0	1733296128	43	3531
2026-01-30 05:58:54.67	313.27	19.26	-36.4	-36.3	22.2	0.00e+00	0	44	0	1740636160	43	3510
2026-01-30 05:58:55.73	313.01	19.27	-36.4	-36.3	22.3	0.00e+00	0	44	0	1749024768	43	3493
2026-01-30 05:58:56.59	312.80	19.27	-36.4	-36.3	22.2	0.00e+00	0	44	0	1755316224	43	3517
2026-01-30 05:58:57.74	312.51	19.27	-36.5	-36.4	22.1	0.00e+00	0	44	0	1763704832	43	3560
2026-01-30 05:58:58.60	312.30	19.27	-36.4	-36.3	22.2	0.00e+00	0	44	0	1769996288	43	3511
2026-01-30 05:58:59.74	312.03	19.27	-36.4	-36.3	22.2	0.00e+00	0	44	0	1778384896	43	3528
2026-01-30 05:59:00.60	311.81	19.27	-36.4	-36.3	22.2	0.00e+00	0	44	0	1783627776	43	3508
2026-01-30 05:59:01.74	311.54	19.27	-36.4	-36.3	22.2	0.00e+00	0	44	0	1792016384	43	3516
2026-01-30 05:59:02.61	311.32	19.27	-36.4	-36.3	22.2	0.00e+00	0	44	0	1798307840	43	3501
2026-01-30 05:59:03.75	311.04	19.26	-36.4	-36.4	22.1	0.00e+00	0	44	0	1806696448	43	3530
2026-01-30 05:59:04.61	310.83	19.26	-36.5	-36.4	22.1	0.00e+00	0	44	0	1812987904	43	3544
2026-01-30 05:59:05.88	310.52	19.26	-36.6	-36.5	22.0	0.00e+00	0	44	0	1822425088	43	3609
2026-01-30 05:59:06.60	310.35	19.25	-36.5	-36.4	22.1	0.00e+00	0	44	0	1827667968	43	3566
2026-01-30 05:59:08.14	309.97	19.25	-36.5	-36.4	22.1	0.00e+00	0	44	0	1838153728	43	3555
2026-01-30 05:59:08.85	309.80	19.24	-36.5	-36.4	22.1	0.00e+00	0	44	0	1843396608	43	3554
2026-01-30 05:59:10.14	309.48	19.24	-36.5	-36.4	22.1	0.00e+00	0	44	0	1852833792	43	3556
2026-01-30 05:59:10.86	309.31	19.23	-36.5	-36.4	22.2	0.00e+00	0	44	0	1858076672	43	3532
2026-01-30 05:59:12.15	308.99	19.22	-36.4	-36.3	22.2	0.00e+00	0	44	0	1867513856	43	3498
2026-01-30 05:59:12.87	308.82	19.22	-36.5	-36.4	22.1	0.00e+00	0	44	0	1872756736	43	3542
2026-01-30 05:59:14.15	308.51	19.21	-36.5	-36.4	22.1	0.00e+00	0	44	0	1882193920	43	3556
2026-01-30 05:59:14.87	308.33	19.20	-36.7	-36.6	21.9	0.00e+00	0	44	0	1887436800	43	3619
2026-01-30 05:59:16.16	308.02	19.19	-36.6	-36.5	22.1	0.00e+00	0	44	0	1896873984	43	3581
2026-01-30 05:59:16.92	307.83	19.18	-36.6	-36.5	22.0	0.00e+00	0	44	0	1902116864	43	3584
2026-01-30 05:59:18.21	307.52	19.17	-36.6	-36.5	22.0	0.00e+00	0	44	0	1911554048	43	3582
2026-01-30 05:59:18.93	307.34	19.16	-36.5	-36.3	22.1	0.00e+00	0	44	0	1916796928	43	3527
2026-01-30 05:59:20.22	307.03	19.15	-36.3	-36.1	22.3	0.00e+00	0	44	0	1925185536	43	3439
2026-01-30 05:59:21.06	306.83	19.14	-36.4	-36.3	22.2	0.00e+00	0	44	0	1931476992	43	3491
2026-01-30 05:59:22.20	306.55	19.12	-36.3	-36.2	22.3	0.00e+00	0	44	0	1939865600	43	3460
2026-01-30 05:59:23.30	306.28	19.11	-36.3	-36.2	22.3	0.00e+00	0	44	0	1948254208	43	3478
2026-01-30 05:59:24.34	306.03	19.10	-36.4	-36.3	22.2	0.00e+00	0	44	0	1955594240	43	3502
2026-01-30 05:59:25.34	305.79	19.08	-36.5	-36.4	22.1	0.00e+00	0	44	0	1962934272	43	3543
2026-01-30 05:59:26.34	305.55	19.07	-36.5	-36.4	22.1	0.00e+00	0	44	0	1970274304	43	3558
2026-01-30 05:59:27.58	305.25	19.05	-36.7	-36.6	22.0	0.00e+00	0	44	0	1978662912	43	3613
2026-01-30 05:59:28.44	305.04	19.03	-36.5	-36.4	22.1	0.00e+00	0	44	0	1984954368	43	3554
2026-01-30 05:59:29.58	304.77	19.02	-36.6	-36.5	22.0	0.00e+00	0	44	0	1993342976	43	3583
2026-01-30 05:59:30.44	304.56	19.00	-36.6	-36.5	22.0	0.00e+00	0	44	0	1999634432	43	3583
2026-01-30 05:59:31.58	304.29	18.98	-36.5	-36.4	22.1	0.00e+00	0	43	0	2008023040	43	3549
2026-01-30 05:59:32.45	304.08	18.97	-36.5	-36.4	22.1	0.00e+00	0	44	0	2014314496	43	3546
2026-01-30 05:59:33.59	303.80	18.95	-36.4	-36.3	22.2	0.00e+00	0	44	0	2022703104	43	3496
2026-01-30 05:59:34.45	303.60	18.93	-36.3	-36.2	22.3	0.00e+00	0	44	0	2027945984	43	3473
2026-01-30 05:59:35.60	303.32	18.91	-36.5	-36.4	22.1	0.00e+00	0	44	0	2036334592	43	3552
2026-01-30 05:59:36.75	303.05	18.89	-36.5	-36.4	22.1	0.00e+00	0	44	0	2044723200	43	3543
2026-01-30 05:59:37.60	302.85	18.87	-36.6	-36.5	22.0	0.00e+00	0	44	0	2051014656	43	3576
2026-01-30 05:59:39.10	302.49	18.84	-36.7	-36.6	21.9	0.00e+00	0	44	0	2061500416	43	3650
2026-01-30 05:59:39.81	302.32	18.82	-36.6	-36.5	22.0	0.00e+00	0	44	0	2066743296	43	3580
2026-01-30 05:59:41.10	302.01	18.79	-36.5	-36.4	22.1	0.00e+00	0	43	0	2076180480	43	3568
2026-01-30 05:59:42.26	301.74	18.77	-36.5	-36.4	22.0	0.00e+00	0	44	0	2084569088	43	3565
2026-01-30 05:59:43.12	301.54	18.75	-36.6	-36.5	22.0	0.00e+00	0	44	0	2090860544	43	3573
2026-01-30 05:59:44.27	301.26	18.72	-36.4	-36.3	22.2	0.00e+00	0	44	0	2099249152	43	3495
2026-01-30 05:59:45.13	301.06	18.70	-36.4	-36.3	22.2	0.00e+00	0	44	0	2105540608	43	3503
2026-01-30 05:59:46.27	300.79	18.67	-36.4	-36.3	21.9	0.00e+00	0	44	0	2113929216	43	3525
2026-01-30 05:59:47.14	300.59	18.65	-36.5	-36.3	22.2	0.00e+00	0	44	0	2120220672	43	3525
2026-01-30 05:59:48.28	300.32	18.62	-36.5	-36.4	22.1	0.00e+00	0	44	0	2128609280	43	3554
2026-01-30 05:59:49.14	300.12	18.60	-36.6	-36.5	21.9	0.00e+00	0	44	0	2134900736	43	3578
2026-01-30 05:59:50.40	299.82	18.57	-36.6	-36.5	22.0	0.00e+00	0	44	0	2143289344	43	3597
2026-01-30 05:59:51.16	299.65	18.55	-36.6	-36.5	21.9	0.00e+00	0	43	0	2148532224	43	3606
2026-01-30 05:59:52.66	299.30	18.51	-36.6	-36.5	22.0	0.00e+00	0	44	0	2160066560	43	3575
2026-01-30 05:59:53.38	299.13	18.49	-36.6	-36.5	22.0	0.00e+00	0	44	0	2165309440	43	3579
2026-01-30 05:59:54.67	298.83	18.45	-36.5	-36.4	22.0	0.00e+00	0	44	0	2174746624	43	3541
2026-01-30 05:59:55.38	298.66	18.43	-36.5	-36.4	22.1	0.00e+00	0	44	0	2179989504	43	3530
2026-01-30 05:59:56.82	298.33	18.39	-36.6	-36.5	22.0	0.00e+00	0	43	0	2189426688	43	3580
2026-01-30 05:59:57.53	298.17	18.37	-36.6	-36.5	21.9	0.00e+00	0	43	0	2195718144	43	3601
2026-01-30 05:59:58.82	297.87	18.33	-36.6	-36.4	22.0	0.00e+00	0	44	0	2204106752	43	3567
2026-01-30 05:59:59.54	297.71	18.31	-36.5	-36.4	22.1	0.00e+00	0	44	0	2209349632	43	3544
2026-01-30 06:00:00.83	297.41	18.27	-36.6	-36.5	22.0	0.00e+00	0	44	0	2218786816	43	3573
2026-01-30 06:00:01.54	297.25	18.24	-36.6	-36.4	22.0	0.00e+00	0	44	0	2224029696	43	3566
2026-01-30 06:00:02.83	296.95	18.20	-36.7	-36.6	21.9	0.00e+00	0	44	0	2233466880	43	3631
2026-01-30 06:00:03.55	296.79	18.18	-36.6	-36.5	21.9	0.00e+00	0	44	0	2238709760	43	3606
2026-01-30 06:00:04.84	296.49	18.14	-36.6	-36.5	22.0	0.00e+00	0	44	0	2248146944	43	3596
2026-01-30 06:00:05.60	296.32	18.11	-36.6	-36.5	22.0	0.00e+00	0	44	0	2253389824	43	3588
2026-01-30 06:00:06.89	296.03	18.07	-36.6	-36.4	22.0	0.00e+00	0	44	0	2262827008	43	3565
2026-01-30 06:00:07.61	295.87	18.04	-36.6	-36.5	21.9	0.00e+00	0	44	0	2268069888	43	3602
2026-01-30 06:00:08.90	295.58	18.00	-36.7	-36.5	21.9	0.00e+00	0	44	0	2277507072	43	3610
2026-01-30 06:00:09.61	295.42	17.98	-36.7	-36.6	21.9	0.00e+00	0	44	0	2281701376	43	3619
2026-01-30 06:00:10.90	295.13	17.93	-36.8	-36.8	21.7	0.00e+00	0	44	0	2291138560	43	3696
2026-01-30 06:00:11.62	294.97	17.90	-36.9	-36.8	21.7	0.00e+00	0	44	0	2296381440	43	3714
2026-01-30 06:00:12.91	294.68	17.86	-37.1	-37.0	21.5	0.00e+00	0	44	0	2305818624	43	3807
2026-01-30 06:00:13.62	294.52	17.83	-37.1	-37.0	21.5	0.00e+00	0	43	0	2311061504	43	3822
2026-01-30 06:00:14.91	294.23	17.79	-37.1	-37.0	21.5	0.00e+00	0	44	0	2320498688	43	3811
2026-01-30 06:00:15.63	294.07	17.76	-37.2	-37.1	21.4	0.00e+00	0	44	0	2325741568	43	3846
2026-01-30 06:00:17.08	293.75	17.70	-37.1	-37.1	21.4	0.00e+00	0	44	0	2336227328	43	3840
2026-01-30 06:00:17.79	293.60	17.68	-37.1	-37.0	21.5	0.00e+00	0	44	0	2341470208	43	3821
2026-01-30 06:00:19.15	293.30	17.62	-37.0	-36.9	21.6	0.00e+00	0	43	0	2350907392	43	3752
2026-01-30 06:00:19.86	293.14	17.60	-36.9	-36.8	21.6	0.00e+00	0	44	0	2356150272	43	3733
2026-01-30 06:00:21.15	292.86	17.55	-36.9	-36.8	21.7	0.00e+00	0	44	0	2365587456	43	3728
2026-01-30 06:00:22.22	292.63	17.50	-37.0	-36.9	21.6	0.00e+00	0	44	0	2372927488	43	3744
2026-01-30 06:00:23.08	292.44	17.47	-37.0	-36.9	21.6	0.00e+00	0	44	0	2379218944	43	3762
2026-01-30 06:00:24.22	292.19	17.42	-37.2	-37.1	21.4	0.00e+00	0	44	0	2387607552	43	3841
2026-01-30 06:00:25.08	292.00	17.39	-37.2	-37.1	21.4	0.00e+00	0	44	0	2393899008	43	3845
2026-01-30 06:00:26.23	291.76	17.34	-37.3	-37.2	21.3	0.00e+00	0	44	0	2402287616	43	3891
2026-01-30 06:00:27.09	291.57	17.31	-37.5	-37.4	21.3	0.00e+00	0	44	0	2408579072	44	3754
2026-01-30 06:00:28.23	291.33	17.26	-37.4	-37.3	21.3	0.00e+00	0	44	0	2416967680	44	3717
2026-01-30 06:00:29.12	291.14	17.22	-37.4	-37.3	21.3	0.00e+00	0	44	0	2423259136	44	3736
2026-01-30 06:00:30.27	290.89	17.17	-37.4	-37.3	21.3	0.00e+00	0	44	0	2431647744	44	3726
2026-01-30 06:00:31.13	290.71	17.14	-37.4	-37.3	21.3	0.00e+00	0	44	0	2437939200	44	3717
2026-01-30 06:00:32.28	290.46	17.09	-37.4	-37.4	21.3	0.00e+00	0	44	0	2446327808	44	3738
2026-01-30 06:00:33.13	290.28	17.05	-37.3	-37.2	21.4	0.00e+00	0	44	0	2452619264	44	3669
2026-01-30 06:00:34.28	290.04	17.00	-37.4	-37.4	21.3	0.00e+00	0	44	0	2461007872	44	3741
2026-01-30 06:00:35.44	289.80	16.95	-37.3	-37.3	21.3	0.00e+00	0	44	0	2468347904	44	3703
2026-01-30 06:00:36.30	289.62	16.91	-37.2	-37.1	21.5	0.00e+00	0	44	0	2474639360	44	3652
2026-01-30 06:00:37.44	289.38	16.86	-37.2	-37.1	21.5	0.00e+00	0	44	0	2483027968	44	3652
2026-01-30 06:00:38.30	289.20	16.82	-37.2	-37.2	21.5	0.00e+00	0	44	0	2489319424	44	3656
2026-01-30 06:00:39.45	288.96	16.77	-37.3	-37.2	21.4	0.00e+00	0	44	0	2497708032	44	3689
2026-01-30 06:00:40.31	288.78	16.73	-37.3	-37.2	21.4	0.00e+00	0	44	0	2503999488	44	3688
2026-01-30 06:00:41.46	288.54	16.68	-37.4	-37.3	21.3	0.00e+00	0	44	0	2512388096	44	3725
2026-01-30 06:00:42.32	288.37	16.64	-37.4	-37.3	21.3	0.00e+00	0	44	0	2518679552	44	3729
2026-01-30 06:00:43.46	288.13	16.59	-37.5	-37.4	21.1	0.00e+00	0	44	0	2526019584	44	3764
2026-01-30 06:00:44.32	287.96	16.55	-37.4	-37.3	21.4	0.00e+00	0	44	0	2533359616	44	3713
2026-01-30 06:00:45.60	287.70	16.48	-37.4	-37.3	21.3	0.00e+00	0	44	0	2541748224	44	3727
2026-01-30 06:00:46.32	287.55	16.45	-37.4	-37.3	21.3	0.00e+00	0	44	0	2546991104	44	3721
2026-01-30 06:00:47.60	287.29	16.39	-37.3	-37.3	21.4	0.00e+00	0	44	0	2556428288	44	3698
2026-01-30 06:00:48.32	287.15	16.36	-37.3	-37.3	21.4	0.00e+00	0	43	0	2561671168	44	3695
2026-01-30 06:00:49.61	286.89	16.29	-37.3	-37.2	21.4	0.00e+00	0	44	0	2571108352	44	3683
2026-01-30 06:00:50.32	286.74	16.26	-37.3	-37.2	21.5	0.00e+00	0	44	0	2576351232	44	3673
2026-01-30 06:00:51.61	286.48	16.20	-37.3	-37.3	21.4	0.00e+00	0	44	0	2585788416	44	3696
2026-01-30 06:00:52.33	286.34	16.16	-37.4	-37.4	21.3	0.00e+00	0	44	0	2591031296	44	3742
2026-01-30 06:00:53.62	286.09	16.10	-37.3	-37.2	21.3	0.00e+00	0	44	0	2599419904	44	3693
2026-01-30 06:00:54.48	285.91	16.06	-37.4	-37.4	21.3	0.00e+00	0	44	0	2606759936	44	3742
2026-01-30 06:00:55.62	285.69	16.00	-37.4	-37.3	21.3	0.00e+00	0	44	0	2614099968	44	3733
2026-01-30 06:00:56.48	285.52	15.96	-37.4	-37.3	21.3	0.00e+00	0	44	0	2620391424	44	3711
2026-01-30 06:00:57.63	285.30	15.90	-37.4	-37.4	21.3	0.00e+00	0	44	0	2628780032	44	3739
2026-01-30 06:00:58.76	285.07	15.84	-37.3	-37.3	21.3	0.00e+00	0	44	0	2637168640	44	3712
2026-01-30 06:00:59.62	284.91	15.80	-37.3	-37.3	21.4	0.00e+00	0	44	0	2643460096	44	3700
2026-01-30 06:01:01.12	284.62	15.72	-37.4	-37.3	21.3	0.00e+00	0	44	0	2653945856	44	3711
2026-01-30 06:01:01.83	284.48	15.69	-37.4	-37.3	21.3	0.00e+00	0	44	0	2659188736	44	3719
2026-01-30 06:01:03.12	284.23	15.62	-37.3	-37.2	21.4	0.00e+00	0	44	0	2668625920	44	3667
2026-01-30 06:01:03.83	284.09	15.58	-37.3	-37.2	21.4	0.00e+00	0	44	0	2673868800	44	3694
2026-01-30 06:01:05.12	283.85	15.52	-37.4	-37.3	21.3	0.00e+00	0	44	0	2683305984	44	3724
2026-01-30 06:01:05.90	283.70	15.48	-37.4	-37.3	21.3	0.00e+00	0	44	0	2688548864	44	3732
2026-01-30 06:01:07.19	283.45	15.41	-37.4	-37.4	21.3	0.00e+00	0	44	0	2697986048	44	3743
2026-01-30 06:01:07.91	283.32	15.37	-37.5	-37.4	21.2	0.00e+00	0	44	0	2703228928	44	3780
2026-01-30 06:01:09.20	283.08	15.30	-37.6	-37.6	21.1	0.00e+00	0	43	0	2712666112	44	3832
2026-01-30 06:01:09.92	282.94	15.26	-37.6	-37.5	21.1	0.00e+00	0	43	0	2717908992	44	3817
2026-01-30 06:01:11.21	282.70	15.20	-37.6	-37.6	21.1	0.00e+00	0	44	0	2727346176	44	3842
2026-01-30 06:01:11.93	282.56	15.16	-37.7	-37.7	21.0	0.00e+00	0	44	0	2732589056	44	3879
2026-01-30 06:01:13.21	282.33	15.09	-37.8	-37.7	21.0	0.00e+00	0	44	0	2740977664	44	3897
2026-01-30 06:01:13.93	282.19	15.05	-37.8	-37.8	20.9	0.00e+00	0	44	0	2746220544	45	3696
2026-01-30 06:01:15.21	281.96	14.98	-37.6	-37.6	21.1	0.00e+00	0	44	0	2755657728	45	3628
2026-01-30 06:01:15.93	281.83	14.94	-37.7	-37.6	21.0	0.00e+00	0	44	0	2760900608	45	3630
2026-01-30 06:01:17.22	281.59	14.87	-37.7	-37.6	21.0	0.00e+00	0	44	0	2770337792	45	3645
2026-01-30 06:01:17.94	281.46	14.83	-37.6	-37.6	21.0	0.00e+00	0	44	0	2775580672	45	3623
2026-01-30 06:01:19.23	281.22	14.76	-37.7	-37.7	21.0	0.00e+00	0	44	0	2785017856	45	3655
2026-01-30 06:01:19.94	281.10	14.73	-37.7	-37.6	21.0	0.00e+00	0	44	0	2790260736	45	3637
2026-01-30 06:01:21.23	280.86	14.66	-37.8	-37.7	20.9	0.00e+00	0	43	0	2799697920	45	3686
2026-01-30 06:01:21.95	280.73	14.62	-37.8	-37.7	20.9	0.00e+00	0	44	0	2804940800	45	3693
2026-01-30 06:01:23.24	280.50	14.54	-37.8	-37.8	20.8	0.00e+00	0	44	0	2813329408	45	3710
2026-01-30 06:01:23.96	280.37	14.51	-37.8	-37.8	20.9	0.00e+00	0	44	0	2818572288	45	3697
2026-01-30 06:01:25.25	280.14	14.43	-38.0	-37.9	20.7	0.00e+00	0	44	0	2828009472	45	3779
2026-01-30 06:01:25.96	280.02	14.39	-38.1	-38.0	20.6	0.00e+00	0	44	0	2833252352	45	3819
2026-01-30 06:01:27.25	279.79	14.32	-38.0	-38.0	20.7	0.00e+00	0	44	0	2842689536	45	3793
2026-01-30 06:01:27.97	279.67	14.28	-38.1	-38.0	20.6	0.00e+00	0	44	0	2847932416	45	3821
2026-01-30 06:01:29.25	279.44	14.21	-38.1	-38.1	20.6	0.00e+00	0	44	0	2857369600	45	3846
2026-01-30 06:01:29.97	279.32	14.17	-38.2	-38.2	20.5	0.00e+00	0	44	0	2862612480	45	3879
2026-01-30 06:01:31.25	279.09	14.10	-38.1	-38.1	20.5	0.00e+00	0	44	0	2872049664	45	3858
2026-01-30 06:01:31.97	278.97	14.06	-38.1	-38.1	20.5	0.00e+00	0	44	0	2876243968	45	3854
2026-01-30 06:01:33.26	278.75	13.99	-38.2	-38.1	20.5	0.00e+00	0	44	0	2885681152	45	3864
2026-01-30 06:01:33.97	278.62	13.94	-38.1	-38.1	20.6	0.00e+00	0	44	0	2890924032	45	3834
2026-01-30 06:01:35.26	278.40	13.87	-37.9	-37.9	20.7	0.00e+00	0	44	0	2900361216	45	3755
2026-01-30 06:01:35.98	278.28	13.83	-37.9	-37.8	20.8	0.00e+00	0	44	0	2905604096	45	3734
2026-01-30 06:01:37.27	278.06	13.76	-37.9	-37.9	20.7	0.00e+00	0	44	0	2915041280	45	3761
2026-01-30 06:01:38.00	277.94	13.72	-37.9	-37.9	20.8	0.00e+00	0	44	0	2920284160	45	3741
2026-01-30 06:01:39.29	277.72	13.64	-37.9	-37.9	20.8	0.00e+00	0	44	0	2929721344	45	3752
2026-01-30 06:01:40.01	277.60	13.60	-37.9	-37.9	20.7	0.00e+00	0	44	0	2934964224	45	3754
2026-01-30 06:01:41.30	277.39	13.53	-38.0	-38.0	20.7	0.00e+00	0	44	0	2944401408	45	3786
2026-01-30 06:01:42.14	277.25	13.48	-38.0	-37.9	20.7	0.00e+00	0	44	0	2950692864	45	3778
2026-01-30 06:01:43.62	277.00	13.39	-38.0	-37.9	20.7	0.00e+00	0	44	0	2961178624	45	3778
2026-01-30 06:01:44.34	276.88	13.35	-38.0	-38.0	20.6	0.00e+00	0	44	0	2966421504	45	3804
2026-01-30 06:01:45.63	276.67	13.28	-38.0	-38.0	20.6	0.00e+00	0	44	0	2975858688	45	3791
2026-01-30 06:01:46.34	276.55	13.24	-38.0	-38.0	20.7	0.00e+00	0	44	0	2980052992	45	3805
2026-01-30 06:01:47.63	276.34	13.16	-38.0	-38.0	20.6	0.00e+00	0	44	0	2989490176	45	3792
2026-01-30 06:01:48.35	276.23	13.12	-38.1	-38.1	20.5	0.00e+00	0	44	0	2994733056	45	3851
2026-01-30 06:01:49.99	275.96	13.02	-38.1	-38.0	20.6	0.00e+00	0	44	0	3007315968	45	3816
2026-01-30 06:01:50.56	275.87	12.99	-38.0	-37.9	20.7	0.00e+00	0	44	0	3010461696	45	3773
2026-01-30 06:01:52.17	275.61	12.90	-38.1	-38.0	20.6	0.00e+00	0	44	0	3021996032	45	3817
2026-01-30 06:01:52.74	275.52	12.86	-38.1	-38.0	20.6	0.00e+00	0	44	0	3027238912	45	3821
2026-01-30 06:01:54.49	275.24	12.76	-38.1	-38.1	20.5	0.00e+00	0	44	0	3039821824	45	3831
2026-01-30 06:01:55.06	275.15	12.73	-38.1	-38.1	20.6	0.00e+00	0	44	0	3042967552	45	3843
2026-01-30 06:01:56.68	274.90	12.63	-38.2	-38.2	20.4	0.00e+00	0	44	0	3055550464	45	3892
2026-01-30 06:01:57.26	274.81	12.60	-38.2	-38.1	20.4	0.00e+00	0	44	0	3059744768	45	3866
2026-01-30 06:01:59.13	274.52	12.49	-38.3	-38.2	20.4	0.00e+00	0	44	0	3073376256	46	3692
2026-01-30 06:01:59.70	274.43	12.45	-38.2	-38.2	20.4	0.00e+00	0	44	0	3076521984	46	3673
2026-01-30 06:02:01.30	274.18	12.36	-38.3	-38.3	20.3	0.00e+00	0	44	0	3088056320	46	3728
2026-01-30 06:02:01.87	274.10	12.33	-38.3	-38.3	20.3	0.00e+00	0	44	0	3092250624	46	3719
2026-01-30 06:02:03.45	273.85	12.23	-38.4	-38.4	20.2	0.00e+00	0	44	0	3103784960	46	3770
2026-01-30 06:02:04.05	273.76	12.20	-38.5	-38.4	20.2	0.00e+00	0	44	0	3107979264	46	3779
2026-01-30 06:02:05.63	273.52	12.10	-38.4	-38.4	20.2	0.00e+00	0	44	0	3119513600	46	3775
2026-01-30 06:02:06.20	273.44	12.07	-38.5	-38.5	20.1	0.00e+00	0	44	0	3123707904	46	3811
2026-01-30 06:02:07.78	273.20	11.98	-38.6	-38.6	20.1	0.00e+00	0	44	0	3135242240	46	3838
2026-01-30 06:02:08.35	273.11	11.94	-38.6	-38.6	20.0	0.00e+00	0	44	0	3139436544	46	3858
2026-01-30 06:02:10.04	272.86	11.84	-38.7	-38.7	19.9	0.00e+00	0	44	0	3152019456	46	3887
2026-01-30 06:02:10.61	272.78	11.81	-38.7	-38.7	19.9	0.00e+00	0	44	0	3155165184	46	3899
2026-01-30 06:02:12.22	272.54	11.71	-38.8	-38.8	19.8	0.00e+00	0	44	0	3166699520	47	3724
2026-01-30 06:02:12.79	272.46	11.68	-38.8	-38.8	19.8	0.00e+00	0	44	0	3171942400	47	3736
2026-01-30 06:02:14.38	272.22	11.58	-38.7	-38.7	19.9	0.00e+00	0	44	0	3183476736	47	3681
2026-01-30 06:02:14.96	272.14	11.55	-38.7	-38.8	19.9	0.00e+00	0	44	0	3186622464	47	3704
2026-01-30 06:02:16.53	271.91	11.45	-38.5	-38.5	20.0	0.00e+00	0	44	0	3198156800	47	3591
2026-01-30 06:02:17.17	271.82	11.42	-38.4	-38.4	20.2	0.00e+00	0	44	0	3203399680	47	3557
2026-01-30 06:02:18.60	271.61	11.33	-38.2	-38.2	20.3	0.00e+00	0	44	0	3213885440	47	3485
2026-01-30 06:02:19.32	271.51	11.29	-38.2	-38.2	20.4	0.00e+00	0	44	0	3218079744	47	3458
2026-01-30 06:02:20.65	271.32	11.21	-38.2	-38.2	20.3	0.00e+00	0	44	0	3228565504	47	3479
2026-01-30 06:02:21.37	271.22	11.17	-38.2	-38.2	20.3	0.00e+00	0	44	0	3232759808	47	3475
2026-01-30 06:02:22.74	271.03	11.08	-38.3	-38.3	20.3	0.00e+00	0	44	0	3243245568	47	3509
2026-01-30 06:02:23.45	270.93	11.04	-38.3	-38.3	20.3	0.00e+00	0	44	0	3248488448	47	3511
2026-01-30 06:02:24.74	270.74	10.96	-38.5	-38.5	20.1	0.00e+00	0	44	0	3257925632	47	3584
2026-01-30 06:02:25.46	270.64	10.92	-38.6	-38.6	20.0	0.00e+00	0	44	0	3263168512	47	3623
2026-01-30 06:02:26.74	270.47	10.84	-38.7	-38.7	19.9	0.00e+00	0	44	0	3272605696	47	3685
2026-01-30 06:02:27.46	270.37	10.80	-38.7	-38.7	19.8	0.00e+00	0	44	0	3276800000	47	3686
2026-01-30 06:02:28.75	270.19	10.72	-38.8	-38.8	19.8	0.00e+00	0	44	0	3286237184	47	3728
2026-01-30 06:02:29.47	270.09	10.68	-38.9	-38.9	19.7	0.00e+00	0	44	0	3291480064	47	3769
2026-01-30 06:02:30.76	269.91	10.60	-38.9	-38.9	19.6	0.00e+00	0	44	0	3300917248	47	3773
2026-01-30 06:02:31.47	269.82	10.56	-38.9	-39.0	19.6	0.00e+00	0	44	0	3306160128	47	3794
2026-01-30 06:02:32.76	269.64	10.48	-38.9	-39.0	19.6	0.00e+00	0	44	0	3315597312	47	3788
2026-01-30 06:02:33.48	269.55	10.44	-38.9	-39.0	19.6	0.00e+00	0	44	0	3320840192	47	3789
2026-01-30 06:02:34.77	269.37	10.36	-38.8	-38.9	19.7	0.00e+00	0	44	0	3330277376	47	3738
2026-01-30 06:02:35.67	269.25	10.31	-38.9	-38.9	19.7	0.00e+00	0	44	0	3336568832	47	3758
2026-01-30 06:02:37.01	269.07	10.23	-38.8	-38.9	19.7	0.00e+00	0	44	0	3346006016	47	3748
2026-01-30 06:02:37.72	268.98	10.18	-38.8	-38.9	19.7	0.00e+00	0	44	0	3351248896	47	3746
2026-01-30 06:02:39.02	268.81	10.11	-38.9	-38.9	19.6	0.00e+00	0	44	0	3360686080	47	3763
2026-01-30 06:02:39.73	268.72	10.06	-38.9	-39.0	19.6	0.00e+00	0	44	0	3365928960	47	3781
2026-01-30 06:02:41.02	268.55	9.99	-39.0	-39.1	19.5	0.00e+00	0	44	0	3375366144	47	3827
2026-01-30 06:02:41.93	268.43	9.93	-39.0	-39.1	19.5	0.00e+00	0	44	0	3381657600	47	3840
2026-01-30 06:02:42.93	268.30	9.87	-38.9	-39.0	19.6	0.00e+00	0	44	0	3388997632	47	3787
2026-01-30 06:02:44.29	268.12	9.79	-38.8	-38.9	19.7	0.00e+00	0	44	0	3398434816	47	3750
2026-01-30 06:02:45.00	268.03	9.75	-38.8	-38.9	19.7	0.00e+00	0	44	0	3403677696	47	3751
2026-01-30 06:02:46.29	267.87	9.67	-38.8	-38.9	19.7	0.00e+00	0	44	0	3413114880	47	3753
2026-01-30 06:02:47.00	267.78	9.63	-38.8	-38.9	19.7	0.00e+00	0	44	0	3418357760	47	3746
2026-01-30 06:02:48.29	267.61	9.55	-38.8	-38.8	19.7	0.00e+00	0	44	0	3427794944	47	3732
2026-01-30 06:02:49.22	267.49	9.49	-38.8	-38.9	19.7	0.00e+00	0	43	0	3434086400	47	3746
2026-01-30 06:02:50.56	267.33	9.41	-38.8	-38.9	19.6	0.00e+00	0	44	0	3443523584	47	3746
2026-01-30 06:02:51.27	267.24	9.37	-38.8	-38.9	19.7	0.00e+00	0	44	0	3449815040	47	3740
2026-01-30 06:02:52.56	267.08	9.29	-39.0	-39.0	19.5	0.00e+00	0	44	0	3458203648	47	3807
2026-01-30 06:02:53.28	266.99	9.25	-39.0	-39.0	19.5	0.00e+00	0	44	0	3463446528	47	3816
2026-01-30 06:02:54.57	266.83	9.17	-39.1	-39.2	19.4	0.00e+00	0	44	0	3472883712	47	3879
2026-01-30 06:02:55.29	266.74	9.13	-39.1	-39.2	19.4	0.00e+00	0	44	0	3478126592	47	3878
2026-01-30 06:02:56.57	266.58	9.05	-39.2	-39.2	19.3	0.00e+00	0	44	0	3487563776	47	3911
2026-01-30 06:02:57.29	266.49	9.01	-39.2	-39.3	19.2	0.00e+00	0	44	0	3492806656	47	3946
2026-01-30 06:02:58.65	266.33	8.93	-50.3	-59.6	3.8	8.47e-01	0	44	104	3497000960	69	11485
2026-01-30 06:02:59.36	266.24	8.89	-49.6	-59.8	3.8	8.48e-01	0	44	104	3497000960	69	11784
2026-01-30 06:03:00.65	266.09	8.81	-49.9	-60.1	3.8	8.46e-01	0	44	104	3497000960	69	12173
2026-01-30 06:03:01.37	266.00	8.77	-50.2	-60.1	3.8	8.47e-01	0	44	104	3497000960	70	11479
2026-01-30 06:03:02.66	265.85	8.69	-50.4	-60.1	3.8	8.45e-01	0	44	104	3497000960	70	11482
2026-01-30 06:03:03.38	265.76	8.65	-50.4	-60.1	3.8	8.46e-01	0	44	104	3497000960	70	11543
2026-01-30 06:03:04.67	265.61	8.57	-50.2	-60.1	3.8	8.47e-01	0	44	104	3497000960	70	11440
2026-01-30 06:03:05.39	265.52	8.53	-50.2	-60.0	3.8	8.46e-01	0	44	104	3497000960	70	11353
2026-01-30 06:03:06.68	265.37	8.45	-50.2	-60.0	3.8	8.47e-01	0	44	104	3497000960	70	11365
2026-01-30 06:03:07.40	265.29	8.41	-50.2	-60.1	3.8	8.47e-01	0	44	104	3497000960	70	11483
2026-01-30 06:03:08.69	265.14	8.33	-50.2	-60.0	3.8	8.47e-01	0	44	104	3497000960	70	11393
2026-01-30 06:03:09.41	265.05	8.29	-50.2	-60.0	3.8	8.47e-01	0	44	104	3497000960	70	11414
2026-01-30 06:03:10.70	264.90	8.21	-50.2	-60.1	3.8	8.48e-01	0	44	104	3497000960	70	11426
2026-01-30 06:03:11.41	264.82	8.17	-50.2	-60.0	3.8	8.47e-01	0	44	104	3497000960	70	11401
2026-01-30 06:03:12.71	264.67	8.09	-50.2	-60.1	3.8	8.47e-01	0	44	104	3497000960	70	11427
2026-01-30 06:03:13.43	264.59	8.05	-50.2	-60.0	3.8	8.46e-01	0	44	104	3497000960	70	11338
2026-01-30 06:03:14.72	264.44	7.97	-50.2	-60.0	3.8	8.48e-01	0	44	104	3497000960	70	11393
2026-01-30 06:03:15.43	264.36	7.93	-50.2	-60.1	3.8	8.47e-01	0	44	104	3497000960	70	11464
2026-01-30 06:03:16.73	264.22	7.85	-50.2	-60.1	3.8	8.46e-01	0	44	104	3497000960	70	11432
2026-01-30 06:03:17.44	264.14	7.81	-50.2	-60.0	3.8	8.46e-01	0	44	104	3497000960	70	11396
2026-01-30 06:03:18.73	263.99	7.73	-50.2	-60.0	3.8	8.46e-01	0	44	104	3497000960	70	11405
2026-01-30 06:03:19.45	263.91	7.69	-50.2	-60.1	3.8	8.47e-01	0	44	104	3497000960	70	11471
2026-01-30 06:03:20.74	263.77	7.61	-50.2	-60.0	3.8	8.47e-01	0	44	104	3497000960	70	11324
2026-01-30 06:03:21.46	263.69	7.57	-50.2	-60.0	3.8	8.47e-01	0	44	104	3497000960	70	11381
2026-01-30 06:03:22.75	263.55	7.49	-50.2	-60.0	3.8	8.48e-01	0	44	104	3497000960	70	11412
2026-01-30 06:03:23.47	263.47	7.45	-50.2	-60.0	3.8	8.46e-01	0	44	104	3497000960	70	11376
2026-01-30 06:03:24.76	263.33	7.37	-50.2	-60.0	3.8	8.47e-01	0	44	104	3497000960	70	11412
2026-01-30 06:03:25.48	263.25	7.33	-50.2	-60.0	3.8	8.47e-01	0	44	104	3497000960	70	11414
2026-01-30 06:03:26.77	263.11	7.26	-50.2	-60.0	3.8	8.47e-01	0	44	104	3497000960	70	11380
2026-01-30 06:03:27.49	263.03	7.21	-50.2	-60.0	3.8	8.48e-01	0	44	104	3497000960	70	11307
2026-01-30 06:03:28.78	262.89	7.14	-50.2	-60.0	3.8	8.48e-01	0	44	104	3497000960	70	11415
2026-01-30 06:03:29.49	262.82	7.10	-50.2	-60.0	3.8	8.47e-01	0	44	104	3497000960	70	11374
2026-01-30 06:03:30.79	262.68	7.02	-50.2	-60.0	3.8	8.48e-01	0	44	104	3497000960	70	11399
2026-01-30 06:03:31.50	262.61	6.98	-50.2	-60.0	3.8	8.46e-01	0	44	104	3497000960	70	11368
2026-01-30 06:03:32.79	262.47	6.90	-50.2	-60.1	3.8	8.46e-01	0	44	104	3497000960	70	11454
2026-01-30 06:03:33.51	262.39	6.86	-50.2	-60.0	3.8	8.46e-01	0	44	104	3497000960	70	11407
2026-01-30 06:03:34.80	262.26	6.78	-50.2	-60.0	3.8	8.47e-01	0	44	104	3497000960	70	11394
2026-01-30 06:03:35.52	262.18	6.74	-50.2	-60.1	3.8	8.48e-01	0	44	104	3497000960	70	11505
2026-01-30 06:03:36.81	262.05	6.67	-50.2	-60.1	3.8	8.47e-01	0	44	104	3497000960	70	11485
2026-01-30 06:03:37.53	261.98	6.62	-50.2	-60.1	3.8	8.47e-01	0	44	104	3497000960	70	11453
2026-01-30 06:03:38.82	261.84	6.55	-50.2	-60.0	3.8	8.46e-01	0	44	104	3497000960	70	11382
2026-01-30 06:03:39.54	261.77	6.51	-50.2	-60.0	3.8	8.47e-01	0	44	104	3497000960	70	11407
2026-01-30 06:03:40.83	261.64	6.43	-50.2	-60.0	3.8	8.47e-01	0	44	104	3497000960	70	11343
2026-01-30 06:03:41.55	261.56	6.39	-50.2	-60.1	3.8	8.47e-01	0	44	104	3497000960	70	11462
2026-01-30 06:03:42.84	261.43	6.31	-50.2	-60.0	3.8	8.47e-01	0	44	104	3497000960	70	11397
2026-01-30 06:03:43.56	261.36	6.27	-50.2	-60.1	3.8	8.47e-01	0	44	104	3497000960	70	11459
2026-01-30 06:03:44.85	261.23	6.20	-50.2	-60.1	3.8	8.47e-01	0	44	104	3497000960	70	11432
2026-01-30 06:03:45.57	261.16	6.16	-50.2	-60.1	3.8	8.47e-01	0	44	104	3497000960	70	11418
2026-01-30 06:03:46.86	261.03	6.08	-50.2	-60.0	3.8	8.48e-01	0	44	104	3497000960	70	11314
2026-01-30 06:03:47.57	260.96	6.04	-50.2	-60.1	3.8	8.47e-01	0	44	104	3497000960	70	11443
2026-01-30 06:03:48.87	260.83	5.96	-50.2	-60.0	3.8	8.47e-01	0	44	104	3497000960	70	11403
2026-01-30 06:03:49.58	260.76	5.92	-50.2	-60.1	3.8	8.46e-01	0	44	104	3497000960	70	11454
2026-01-30 06:03:50.88	260.63	5.85	-50.2	-60.1	3.8	8.47e-01	0	44	104	3497000960	70	11459
2026-01-30 06:03:51.59	260.57	5.81	-50.2	-60.0	3.8	8.46e-01	0	44	104	3497000960	70	11400
2026-01-30 06:03:52.89	260.44	5.73	-50.2	-60.0	3.8	8.47e-01	0	44	104	3497000960	70	11406
2026-01-30 06:03:53.60	260.37	5.69	-50.2	-60.1	3.8	8.46e-01	0	44	104	3497000960	70	11437
2026-01-30 06:03:54.89	260.25	5.62	-50.2	-60.0	3.8	8.47e-01	0	44	104	3497000960	70	11396
2026-01-30 06:03:55.61	260.18	5.57	-50.2	-60.0	3.8	8.47e-01	0	44	104	3497000960	70	11406
2026-01-30 06:03:56.90	260.05	5.50	-50.2	-60.1	3.8	8.46e-01	0	44	104	3497000960	70	11461
2026-01-30 06:03:57.62	259.99	5.46	-50.2	-60.0	3.8	8.46e-01	0	44	104	3497000960	70	11342
2026-01-30 06:03:58.91	259.86	5.39	-50.2	-60.1	3.8	8.47e-01	0	44	104	3497000960	70	11475
2026-01-30 06:03:59.63	259.79	5.34	-50.2	-60.0	3.8	8.48e-01	0	44	104	3497000960	70	11384
2026-01-30 06:04:00.92	259.67	5.27	-50.2	-60.1	3.8	8.46e-01	0	44	104	3497000960	70	11418
2026-01-30 06:04:01.64	259.61	5.23	-50.2	-60.1	3.8	8.47e-01	0	44	104	3497000960	70	11452
2026-01-30 06:04:02.93	259.49	5.15	-50.3	-60.1	3.8	8.48e-01	0	44	104	3497000960	70	11473
2026-01-30 06:04:03.65	259.42	5.11	-50.3	-60.1	3.8	8.47e-01	0	44	104	3497000960	70	11536
2026-01-30 06:04:04.94	259.30	5.04	-50.3	-60.2	3.8	8.46e-01	0	44	104	3497000960	70	11630
2026-01-30 06:04:05.65	259.23	5.00	-50.3	-60.1	3.8	8.48e-01	0	44	104	3497000960	70	11478

#Closed at: 2026-01-30 06:04:06
#Recorded file [3497 MB]: D:/Data/31040_260130_085353.dat