passes_logs/2026/01/30/T1/T1__20260130_140332_FENGYUN_3E_rec.log

#Pass ID: 20260130_140332_FENGYUN 3E
#Satellite: FENGYUN 3E
#Configuration: FENGYUN 3E
#almurnet v.1.7.20251203
#Start time: 2026-01-30 14:03:34

#Version: 2.0.20230620
#Station: T1
#Location: 37.570604 lon 55.790049 lat
#TLE: 1 49008U 21062A   26030.15628484 -.00000231  00000+0 -88238-4 0  9991
#TLE: 2 49008  98.7496  35.1082 0002567 110.3408 249.8045 14.19886954236998

#Time	Az	El	Level	Level2	SNR	BER	BlckErr	Temp	State	Recorded	gain1	gain2
2026-01-30 14:03:34.30	155.48	5.14	-50.0	-60.0	3.8	8.47e-01	0	36	0	0	70	11321
2026-01-30 14:03:35.29	155.47	5.21	-49.9	-59.8	3.8	8.46e-01	0	36	104	0	70	11057
2026-01-30 14:03:36.30	155.46	5.28	-50.0	-59.8	3.8	8.47e-01	0	36	104	0	69	11762
2026-01-30 14:03:37.30	155.45	5.36	-49.5	-59.7	3.8	8.47e-01	0	37	104	0	69	11654
2026-01-30 14:03:38.31	155.45	5.43	-49.5	-59.6	3.8	8.47e-01	0	37	104	0	69	11428
2026-01-30 14:03:39.31	155.44	5.50	-49.0	-59.5	3.8	8.46e-01	0	37	104	0	68	11970
2026-01-30 14:03:40.32	155.43	5.58	-49.4	-59.2	3.8	8.47e-01	0	37	104	0	68	11631
2026-01-30 14:03:41.32	155.43	5.65	-48.8	-59.1	3.8	8.46e-01	0	37	104	0	68	11482
2026-01-30 14:03:42.32	155.42	5.72	-49.1	-59.2	3.8	8.46e-01	0	37	104	0	68	11576
2026-01-30 14:03:43.33	155.41	5.80	-49.2	-58.6	3.8	8.47e-01	0	37	104	0	68	10839
2026-01-30 14:03:44.33	155.40	5.87	-49.1	-58.0	3.8	8.46e-01	0	37	104	0	68	10150
2026-01-30 14:03:45.33	155.40	5.95	-49.0	-57.6	3.8	8.47e-01	0	37	104	0	68	9630
2026-01-30 14:03:46.34	155.39	6.02	-48.9	-56.9	3.8	8.45e-01	0	37	104	0	68	8954
2026-01-30 14:03:47.34	155.38	6.10	-48.8	-56.4	4.0	8.45e-01	0	37	104	0	68	8394
2026-01-30 14:03:48.35	155.37	6.17	-48.8	-56.1	4.1	8.41e-01	0	37	0	0	68	8095
2026-01-30 14:03:49.35	155.37	6.25	-48.7	-55.9	4.2	8.40e-01	0	37	0	0	68	7902
2026-01-30 14:03:50.35	155.36	6.32	-48.7	-55.8	4.2	8.39e-01	0	37	0	0	68	7866
2026-01-30 14:03:51.36	155.35	6.40	-48.7	-56.0	4.1	8.40e-01	0	37	0	0	68	8022
2026-01-30 14:03:52.36	155.34	6.47	-48.8	-56.2	4.1	8.42e-01	0	37	0	0	68	8230
2026-01-30 14:03:53.37	155.34	6.55	-48.9	-56.9	3.8	8.44e-01	0	37	104	0	68	8890
2026-01-30 14:03:54.37	155.33	6.63	-48.9	-57.4	3.8	8.46e-01	0	37	104	0	68	9412
2026-01-30 14:03:55.37	155.32	6.70	-49.0	-57.9	3.8	8.46e-01	0	37	104	0	68	9986
2026-01-30 14:03:56.38	155.31	6.78	-49.1	-58.4	3.8	8.48e-01	0	37	104	0	68	10598
2026-01-30 14:03:57.38	155.30	6.86	-49.2	-58.8	3.8	8.46e-01	0	37	104	0	68	11119
2026-01-30 14:03:58.38	155.30	6.93	-49.2	-59.1	3.8	8.47e-01	0	37	104	0	68	11455
2026-01-30 14:03:59.38	155.29	7.01	-49.2	-59.1	3.8	8.47e-01	0	37	104	0	68	11492
2026-01-30 14:04:00.39	155.28	7.09	-49.2	-59.1	3.8	8.47e-01	0	37	104	0	68	11543
2026-01-30 14:04:01.39	155.27	7.17	-49.2	-58.9	3.8	8.48e-01	0	38	104	0	68	11257
2026-01-30 14:04:02.39	155.26	7.25	-49.1	-58.4	3.8	8.47e-01	0	37	104	0	68	10613
2026-01-30 14:04:03.40	155.26	7.33	-49.0	-57.4	3.9	8.46e-01	0	37	104	0	68	9486
2026-01-30 14:04:04.40	155.25	7.40	-48.7	-56.0	4.1	8.42e-01	0	38	0	0	68	8021
2026-01-30 14:04:05.40	155.24	7.48	-48.2	-54.0	4.7	8.18e-01	0	38	0	0	67	6780
2026-01-30 14:04:06.41	155.23	7.56	-47.6	-52.2	5.9	5.48e-01	0	38	0	0	66	5810
2026-01-30 14:04:07.41	155.22	7.64	-47.0	-50.6	7.2	1.76e-01	0	38	0	7340032	64	5440
2026-01-30 14:04:08.41	155.21	7.72	-46.4	-49.4	8.5	5.78e-02	0	38	0	14680064	63	4988
2026-01-30 14:04:09.42	155.20	7.80	-45.5	-47.8	10.2	9.50e-03	0	38	0	22020096	61	4671
2026-01-30 14:04:10.43	155.20	7.88	-44.9	-46.8	11.1	2.78e-03	0	38	0	29360128	60	4433
2026-01-30 14:04:11.43	155.19	7.96	-44.1	-45.7	12.2	3.31e-04	0	38	0	36700160	59	4117
2026-01-30 14:04:12.43	155.18	8.04	-43.5	-44.9	13.0	2.13e-04	0	38	0	44040192	57	4216
2026-01-30 14:04:13.44	155.17	8.13	-43.2	-44.5	13.5	1.25e-05	0	38	0	51380224	57	4006
2026-01-30 14:04:14.44	155.16	8.21	-42.8	-44.0	14.0	1.10e-06	0	38	0	58720256	56	4017
2026-01-30 14:04:15.44	155.15	8.29	-42.7	-43.8	14.1	4.57e-05	0	38	0	65011712	56	3953
2026-01-30 14:04:16.45	155.14	8.37	-42.3	-43.4	14.4	0.00e+00	0	38	0	72351744	55	3975
2026-01-30 14:04:17.45	155.13	8.45	-42.5	-43.6	14.2	1.10e-06	0	38	0	80740352	55	4071
2026-01-30 14:04:18.45	155.12	8.53	-42.8	-44.0	13.8	2.20e-06	0	38	0	87031808	55	4289
2026-01-30 14:04:19.46	155.11	8.62	-43.2	-44.6	13.2	1.37e-05	0	38	0	94371840	55	4547
2026-01-30 14:04:20.46	155.10	8.70	-43.9	-45.4	12.5	1.26e-04	0	38	0	101711872	57	4477
2026-01-30 14:04:21.46	155.09	8.78	-44.6	-46.3	11.6	6.27e-04	0	38	0	109051904	58	4696
2026-01-30 14:04:22.47	155.09	8.87	-45.3	-47.5	10.4	3.20e-03	0	38	0	116391936	60	4805
2026-01-30 14:04:23.47	155.08	8.95	-46.2	-48.9	9.0	2.38e-02	0	38	0	123731968	61	5312
2026-01-30 14:04:24.48	155.07	9.04	-47.1	-50.7	7.2	9.50e-02	0	38	0	131072000	63	5834
2026-01-30 14:04:25.48	155.06	9.12	-46.5	-49.4	8.4	1.34e-01	0	38	0	138412032	63	5020
2026-01-30 14:04:26.48	155.05	9.20	-47.2	-50.8	7.3	1.30e-02	0	38	0	144703488	63	5901
2026-01-30 14:04:27.49	155.04	9.29	-47.8	-52.7	5.4	8.40e-01	0	38	0	145752064	66	6181
2026-01-30 14:04:28.49	155.03	9.38	-42.6	-43.8	14.2	3.26e-04	0	38	0	153092096	56	3916
2026-01-30 14:04:29.49	155.02	9.46	-43.2	-44.5	13.3	0.00e+00	0	38	0	160432128	55	4534
2026-01-30 14:04:30.49	155.01	9.55	-47.1	-51.4	4.7	8.38e-01	0	38	104	162529280	65	5618
2026-01-30 14:04:31.50	155.00	9.63	-40.9	-41.7	16.2	0.00e+00	0	38	0	166723584	52	3882
2026-01-30 14:04:32.50	154.99	9.72	-40.9	-41.7	16.1	9.10e-06	0	38	0	174063616	52	3888
2026-01-30 14:04:33.50	154.98	9.81	-40.2	-40.9	16.9	0.00e+00	0	38	0	181403648	51	3774
2026-01-30 14:04:34.51	154.97	9.89	-39.4	-40.1	17.7	0.00e+00	0	38	0	188743680	49	3844
2026-01-30 14:04:35.51	154.95	9.98	-39.4	-40.1	17.8	2.04e-03	0	38	0	196083712	49	3826
2026-01-30 14:04:36.51	154.94	10.07	-39.1	-39.7	18.0	0.00e+00	0	38	0	203423744	48	3904
2026-01-30 14:04:37.52	154.93	10.16	-38.9	-39.6	18.3	0.00e+00	0	38	0	210763776	48	3825
2026-01-30 14:04:38.52	154.92	10.24	-38.9	-39.5	18.3	0.00e+00	0	38	0	218103808	48	3792
2026-01-30 14:04:39.52	154.91	10.33	-38.1	-38.7	18.8	0.00e+00	0	38	0	225443840	47	3684
2026-01-30 14:04:40.53	154.90	10.42	-38.1	-38.7	18.8	0.00e+00	0	38	0	232783872	46	3910
2026-01-30 14:04:41.53	154.89	10.51	-37.9	-38.4	19.1	0.00e+00	0	38	0	239075328	46	3766
2026-01-30 14:04:42.53	154.88	10.60	-37.8	-38.4	19.1	0.00e+00	0	38	0	246415360	46	3761
2026-01-30 14:04:43.53	154.87	10.69	-37.4	-38.0	19.5	0.00e+00	0	38	0	253755392	45	3782
2026-01-30 14:04:44.53	154.86	10.78	-37.5	-38.1	19.3	0.00e+00	0	38	0	261095424	45	3832
2026-01-30 14:04:45.54	154.85	10.87	-37.2	-37.7	19.6	0.00e+00	0	38	0	268435456	45	3693
2026-01-30 14:04:46.54	154.83	10.96	-37.2	-37.7	19.7	0.00e+00	0	38	0	275775488	45	3676
2026-01-30 14:04:47.54	154.82	11.05	-37.0	-37.5	19.8	0.00e+00	0	38	0	283115520	44	3804
2026-01-30 14:04:48.55	154.81	11.14	-37.1	-37.6	19.8	0.00e+00	0	38	0	290455552	44	3856
2026-01-30 14:04:49.55	154.80	11.24	-37.0	-37.5	19.9	0.00e+00	0	38	0	297795584	44	3794
2026-01-30 14:04:50.55	154.79	11.33	-37.1	-37.6	19.7	0.00e+00	0	38	0	305135616	44	3866
2026-01-30 14:04:51.55	154.78	11.42	-37.1	-37.6	19.7	0.00e+00	0	38	0	312475648	44	3860
2026-01-30 14:04:52.56	154.76	11.51	-36.9	-37.4	19.9	0.00e+00	0	38	0	318767104	44	3762
2026-01-30 14:04:53.56	154.75	11.61	-36.9	-37.5	19.9	0.00e+00	0	38	0	326107136	44	3789
2026-01-30 14:04:54.56	154.74	11.70	-36.9	-37.5	19.8	0.00e+00	0	39	0	333447168	44	3802
2026-01-30 14:04:55.57	154.73	11.79	-37.0	-37.6	19.8	0.00e+00	0	38	0	340787200	44	3846
2026-01-30 14:04:56.56	154.71	11.89	-37.2	-37.7	19.6	0.00e+00	0	38	0	348127232	44	3906
2026-01-30 14:04:57.57	154.70	11.98	-36.9	-37.5	19.8	0.00e+00	0	38	0	355467264	44	3811
2026-01-30 14:04:58.57	154.69	12.08	-37.1	-37.6	19.7	0.00e+00	0	39	0	362807296	44	3867
2026-01-30 14:04:59.58	154.68	12.17	-36.8	-37.3	20.0	0.00e+00	0	39	0	370147328	44	3727
2026-01-30 14:05:00.58	154.66	12.27	-36.9	-37.5	19.9	0.00e+00	0	38	0	377487360	44	3782
2026-01-30 14:05:01.58	154.65	12.37	-36.9	-37.4	19.9	0.00e+00	0	39	0	383778816	44	3769
2026-01-30 14:05:02.58	154.64	12.46	-36.9	-37.5	19.8	0.00e+00	0	38	0	391118848	44	3792
2026-01-30 14:05:03.59	154.63	12.56	-36.8	-37.4	20.0	0.00e+00	0	38	0	398458880	44	3745
2026-01-30 14:05:04.59	154.61	12.66	-36.8	-37.4	20.0	0.00e+00	0	39	0	405798912	44	3752
2026-01-30 14:05:05.59	154.60	12.75	-36.8	-37.3	20.1	0.00e+00	0	39	0	413138944	44	3709
2026-01-30 14:05:06.60	154.59	12.85	-36.9	-37.4	19.9	0.00e+00	0	39	0	420478976	44	3761
2026-01-30 14:05:07.60	154.57	12.95	-36.9	-37.4	19.9	0.00e+00	0	39	0	427819008	44	3767
2026-01-30 14:05:08.60	154.56	13.05	-36.8	-37.3	20.0	0.00e+00	0	39	0	435159040	44	3724
2026-01-30 14:05:09.70	154.54	13.16	-36.7	-37.2	20.1	0.00e+00	0	39	0	442499072	44	3685
2026-01-30 14:05:10.55	154.53	13.24	-36.8	-37.3	20.0	0.00e+00	0	39	0	448790528	44	3708
2026-01-30 14:05:11.70	154.52	13.36	-36.7	-37.2	20.1	0.00e+00	0	39	0	457179136	44	3673
2026-01-30 14:05:12.56	154.50	13.44	-36.8	-37.3	20.1	0.00e+00	0	39	0	463470592	44	3709
2026-01-30 14:05:13.71	154.49	13.56	-36.8	-37.3	20.1	0.00e+00	0	39	0	471859200	44	3710
2026-01-30 14:05:14.57	154.48	13.65	-36.7	-37.2	20.1	0.00e+00	0	39	0	478150656	44	3686
2026-01-30 14:05:15.71	154.46	13.76	-36.7	-37.2	20.1	0.00e+00	0	39	0	486539264	44	3691
2026-01-30 14:05:16.57	154.45	13.85	-36.7	-37.2	20.1	0.00e+00	0	39	0	492830720	44	3663
2026-01-30 14:05:17.72	154.43	13.97	-36.6	-37.1	20.2	0.00e+00	0	39	0	501219328	44	3647
2026-01-30 14:05:18.58	154.42	14.06	-36.4	-36.9	20.3	0.00e+00	0	39	0	506462208	43	3765
2026-01-30 14:05:19.72	154.40	14.17	-36.4	-36.9	20.3	0.00e+00	0	39	0	514850816	43	3757
2026-01-30 14:05:20.58	154.39	14.26	-36.3	-36.9	20.3	0.00e+00	0	39	0	521142272	43	3741
2026-01-30 14:05:21.79	154.37	14.39	-36.3	-36.8	20.3	0.00e+00	0	38	0	530579456	43	3721
2026-01-30 14:05:22.66	154.36	14.48	-36.4	-36.9	20.2	0.00e+00	0	38	0	536870912	43	3761
2026-01-30 14:05:23.80	154.34	14.60	-36.3	-36.8	20.4	0.00e+00	0	39	0	545259520	43	3698
2026-01-30 14:05:24.66	154.33	14.69	-36.2	-36.7	20.4	0.00e+00	0	39	0	550502400	43	3680
2026-01-30 14:05:25.80	154.31	14.81	-36.2	-36.7	20.4	0.00e+00	0	39	0	558891008	43	3668
2026-01-30 14:05:26.66	154.29	14.90	-36.2	-36.6	20.5	0.00e+00	0	39	0	565182464	43	3648
2026-01-30 14:05:28.00	154.27	15.05	-36.3	-36.8	20.4	0.00e+00	0	39	0	575668224	43	3714
2026-01-30 14:05:28.72	154.26	15.12	-36.3	-36.8	20.4	0.00e+00	0	39	0	579862528	43	3696
2026-01-30 14:05:30.01	154.24	15.26	-36.2	-36.7	20.4	0.00e+00	0	39	0	589299712	43	3676
2026-01-30 14:05:30.72	154.23	15.34	-36.1	-36.6	20.5	0.00e+00	0	39	0	594542592	43	3643
2026-01-30 14:05:32.01	154.21	15.48	-36.1	-36.5	20.6	0.00e+00	0	39	0	603979776	42	3809
2026-01-30 14:05:32.73	154.20	15.56	-36.1	-36.6	20.6	0.00e+00	0	39	0	609222656	42	3840
2026-01-30 14:05:34.02	154.18	15.70	-36.2	-36.7	20.5	0.00e+00	0	39	0	618659840	42	3888
2026-01-30 14:05:34.74	154.16	15.78	-36.1	-36.5	20.7	0.00e+00	0	39	0	623902720	42	3802
2026-01-30 14:05:36.02	154.14	15.92	-36.0	-36.5	20.7	0.00e+00	0	39	0	633339904	42	3781
2026-01-30 14:05:36.74	154.13	16.00	-36.0	-36.5	20.7	0.00e+00	0	39	0	637534208	42	3788
2026-01-30 14:05:38.04	154.11	16.15	-36.0	-36.4	20.7	0.00e+00	0	39	0	646971392	42	3775
2026-01-30 14:05:38.76	154.09	16.23	-36.0	-36.4	20.8	0.00e+00	0	39	0	653262848	42	3743
2026-01-30 14:05:40.05	154.07	16.38	-36.1	-36.5	20.7	0.00e+00	0	39	0	662700032	42	3792
2026-01-30 14:05:40.77	154.06	16.46	-36.0	-36.4	20.7	0.00e+00	0	39	0	666894336	42	3774
2026-01-30 14:05:42.15	154.03	16.61	-35.9	-36.3	20.9	0.00e+00	0	39	0	677380096	42	3715
2026-01-30 14:05:42.87	154.02	16.70	-35.9	-36.3	20.9	0.00e+00	0	39	0	682622976	42	3699
2026-01-30 14:05:44.16	154.00	16.85	-35.8	-36.2	21.0	0.00e+00	0	39	0	692060160	42	3672
2026-01-30 14:05:45.21	153.98	16.97	-35.8	-36.2	21.0	0.00e+00	0	39	0	699400192	42	3680
2026-01-30 14:05:46.08	153.96	17.07	-35.7	-36.1	21.1	0.00e+00	0	39	0	705691648	42	3624
2026-01-30 14:05:47.22	153.94	17.20	-35.5	-35.8	21.3	0.00e+00	0	39	0	714080256	41	3719
2026-01-30 14:05:48.08	153.92	17.30	-35.4	-35.8	21.3	0.00e+00	0	39	0	720371712	41	3712
2026-01-30 14:05:49.23	153.90	17.44	-35.5	-35.9	21.3	0.00e+00	0	39	0	727711744	41	3746
2026-01-30 14:05:50.09	153.89	17.54	-35.3	-35.6	21.5	0.00e+00	0	39	0	734003200	41	3618
2026-01-30 14:05:51.35	153.86	17.69	-35.3	-35.7	21.4	0.00e+00	0	39	0	743440384	41	3656
2026-01-30 14:05:52.07	153.85	17.78	-35.3	-35.6	21.5	0.00e+00	0	39	0	748683264	41	3620
2026-01-30 14:05:53.36	153.82	17.93	-35.2	-35.6	21.5	0.00e+00	0	39	0	758120448	41	3613
2026-01-30 14:05:54.08	153.81	18.02	-35.3	-35.6	21.5	0.00e+00	0	39	0	763363328	41	3636
2026-01-30 14:05:55.64	153.78	18.21	-35.2	-35.4	21.6	0.00e+00	0	39	0	774897664	41	3568
2026-01-30 14:05:56.27	153.76	18.29	-35.2	-35.5	21.6	0.00e+00	0	39	0	779091968	41	3591
2026-01-30 14:05:57.72	153.73	18.46	-35.0	-35.3	21.7	0.00e+00	0	39	0	789577728	40	3730
2026-01-30 14:05:58.69	153.71	18.58	-35.1	-35.4	20.6	0.00e+00	0	39	0	796917760	40	3750
2026-01-30 14:05:59.69	153.69	18.71	-34.9	-35.1	21.9	0.00e+00	0	39	0	803209216	40	3648
2026-01-30 14:06:00.69	153.67	18.83	-34.8	-35.1	21.9	0.00e+00	0	39	0	810549248	40	3642
2026-01-30 14:06:01.70	153.65	18.96	-34.9	-35.2	21.9	0.00e+00	0	39	0	818937856	40	3660
2026-01-30 14:06:02.70	153.63	19.08	-34.8	-35.1	21.9	0.00e+00	0	39	0	825229312	40	3628
2026-01-30 14:06:03.71	153.61	19.21	-34.8	-35.1	22.0	0.00e+00	0	39	0	832569344	40	3617
2026-01-30 14:06:04.71	153.58	19.34	-34.8	-35.1	21.9	0.00e+00	0	39	0	839909376	40	3621
2026-01-30 14:06:05.76	153.56	19.47	-34.7	-35.0	22.0	0.00e+00	0	39	0	847249408	40	3586
2026-01-30 14:06:06.70	153.54	19.60	-34.7	-35.0	22.0	0.00e+00	0	39	0	854589440	40	3582
2026-01-30 14:06:07.70	153.52	19.73	-34.7	-34.9	22.0	0.00e+00	0	39	0	861929472	40	3564
2026-01-30 14:06:08.70	153.49	19.86	-34.7	-34.9	22.0	0.00e+00	0	39	0	869269504	40	3561
2026-01-30 14:06:09.71	153.47	19.99	-34.8	-35.2	21.8	0.00e+00	0	39	0	876609536	40	3653
2026-01-30 14:06:10.71	153.45	20.12	-34.8	-35.1	21.9	0.00e+00	0	39	0	883949568	40	3632
2026-01-30 14:06:11.71	153.42	20.25	-34.9	-35.2	21.8	0.00e+00	0	39	0	890241024	40	3681
2026-01-30 14:06:12.72	153.40	20.39	-34.7	-35.0	21.9	0.00e+00	0	39	0	897581056	40	3606
2026-01-30 14:06:13.72	153.38	20.52	-34.7	-35.0	22.0	0.00e+00	0	39	0	904921088	40	3578
2026-01-30 14:06:14.72	153.35	20.65	-34.6	-34.9	22.0	0.00e+00	0	39	0	912261120	40	3558
2026-01-30 14:06:15.72	153.33	20.79	-34.7	-35.0	22.0	0.00e+00	0	39	0	919601152	39	3809
2026-01-30 14:06:16.73	153.30	20.92	-34.8	-35.1	21.9	0.00e+00	0	39	0	926941184	39	3834
2026-01-30 14:06:17.73	153.28	21.06	-34.8	-35.1	22.0	0.00e+00	0	39	0	934281216	39	3836
2026-01-30 14:06:18.73	153.25	21.20	-34.7	-35.1	22.0	0.00e+00	0	39	0	941621248	39	3826
2026-01-30 14:06:19.78	153.23	21.34	-34.8	-35.1	21.9	0.00e+00	0	39	0	948961280	39	3850
2026-01-30 14:06:20.66	153.20	21.47	-34.7	-35.1	21.9	0.00e+00	0	39	0	955252736	39	3842
2026-01-30 14:06:22.01	153.17	21.65	-34.7	-35.1	21.9	0.00e+00	0	39	0	964689920	39	3843
2026-01-30 14:06:22.73	153.15	21.75	-34.7	-35.1	21.9	0.00e+00	0	39	0	969932800	39	3837
2026-01-30 14:06:24.26	153.11	21.97	-34.8	-35.2	21.7	0.00e+00	0	39	0	981467136	39	3870
2026-01-30 14:06:24.97	153.09	22.07	-34.9	-35.3	21.7	0.00e+00	0	39	0	986710016	39	3919
2026-01-30 14:06:26.26	153.06	22.26	-34.9	-35.2	21.8	0.00e+00	0	39	0	996147200	39	3905
2026-01-30 14:06:26.98	153.04	22.36	-34.8	-35.2	21.8	0.00e+00	0	39	0	1000341504	39	3899
2026-01-30 14:06:28.26	153.00	22.54	-34.9	-35.3	21.7	0.00e+00	0	39	0	1009778688	39	3929
2026-01-30 14:06:28.98	152.98	22.65	-34.9	-35.3	21.7	0.00e+00	0	39	0	1015021568	39	3957
2026-01-30 14:06:30.27	152.94	22.84	-34.9	-35.3	21.0	0.00e+00	0	39	0	1024458752	39	3940
2026-01-30 14:06:30.99	152.92	22.94	-34.9	-35.3	21.7	0.00e+00	0	39	0	1029701632	39	3927
2026-01-30 14:06:32.27	152.89	23.13	-35.0	-35.4	21.6	0.00e+00	0	39	0	1039138816	39	3997
2026-01-30 14:06:33.04	152.87	23.25	-34.9	-35.4	21.6	0.00e+00	0	39	0	1044381696	39	3964
2026-01-30 14:06:34.33	152.83	23.44	-35.0	-35.5	21.5	0.00e+00	0	39	0	1053818880	39	4017
2026-01-30 14:06:35.17	152.80	23.57	-35.0	-35.4	21.6	0.00e+00	0	39	0	1060110336	39	3995
2026-01-30 14:06:36.64	152.76	23.79	-35.0	-35.4	21.5	0.00e+00	0	39	0	1070596096	39	3991
2026-01-30 14:06:37.36	152.74	23.90	-34.8	-35.2	21.8	0.00e+00	0	39	0	1075838976	39	3891
2026-01-30 14:06:38.64	152.70	24.09	-34.8	-35.3	21.7	0.00e+00	0	39	0	1085276160	39	3928
2026-01-30 14:06:39.36	152.67	24.20	-34.7	-35.1	21.9	0.00e+00	0	39	0	1090519040	39	3839
2026-01-30 14:06:40.65	152.63	24.40	-34.7	-35.2	21.8	0.00e+00	0	39	0	1099956224	39	3880
2026-01-30 14:06:41.37	152.61	24.52	-34.5	-34.9	22.0	0.00e+00	0	39	0	1105199104	39	3779
2026-01-30 14:06:42.66	152.57	24.72	-34.6	-35.1	21.9	0.00e+00	0	39	0	1113587712	39	3841
2026-01-30 14:06:43.38	152.55	24.83	-34.6	-35.0	21.9	0.00e+00	0	39	0	1118830592	39	3820
2026-01-30 14:06:44.67	152.50	25.04	-34.6	-35.0	21.9	0.00e+00	0	39	0	1128267776	39	3795
2026-01-30 14:06:45.49	152.48	25.17	-34.5	-34.9	22.0	0.00e+00	0	39	0	1134559232	39	3772
2026-01-30 14:06:46.64	152.44	25.35	-34.6	-35.0	21.9	0.00e+00	0	39	0	1142947840	39	3802
2026-01-30 14:06:47.75	152.40	25.53	-34.4	-34.8	22.1	0.00e+00	0	39	0	1151336448	39	3713
2026-01-30 14:06:48.62	152.37	25.67	-34.3	-34.8	22.2	0.00e+00	0	39	0	1156579328	39	3698
2026-01-30 14:06:49.76	152.33	25.86	-34.3	-34.7	22.2	0.00e+00	0	39	0	1164967936	39	3669
2026-01-30 14:06:50.62	152.30	26.00	-34.2	-34.6	22.2	0.00e+00	0	39	0	1171259392	39	3652
2026-01-30 14:06:51.76	152.26	26.19	-34.1	-34.5	22.3	0.00e+00	0	39	0	1179648000	39	3598
2026-01-30 14:06:52.63	152.23	26.34	-34.1	-34.5	22.3	0.00e+00	0	39	0	1185939456	38	3818
2026-01-30 14:06:53.77	152.19	26.53	-34.1	-34.5	22.3	0.00e+00	0	39	0	1194328064	38	3815
2026-01-30 14:06:54.63	152.16	26.67	-34.1	-34.5	22.3	0.00e+00	0	39	0	1200619520	38	3806
2026-01-30 14:06:55.78	152.11	26.87	-34.1	-34.5	22.4	0.00e+00	0	39	0	1209008128	38	3797
2026-01-30 14:06:56.64	152.08	27.02	-34.0	-34.4	22.4	0.00e+00	0	39	0	1215299584	38	3769
2026-01-30 14:06:57.95	152.03	27.24	-34.1	-34.5	22.3	0.00e+00	0	39	0	1223688192	38	3804
2026-01-30 14:06:58.66	152.00	27.36	-34.0	-34.4	22.4	0.00e+00	0	39	0	1229979648	38	3752
2026-01-30 14:06:59.95	151.95	27.59	-33.9	-34.3	22.5	0.00e+00	0	39	0	1239416832	38	3723
2026-01-30 14:07:00.66	151.92	27.71	-34.0	-34.4	22.5	0.00e+00	0	39	0	1243611136	38	3765
2026-01-30 14:07:01.96	151.87	27.94	-34.0	-34.4	22.5	0.00e+00	0	39	0	1253048320	38	3750
2026-01-30 14:07:02.67	151.84	28.07	-33.9	-34.3	22.6	0.00e+00	0	39	0	1258291200	38	3704
2026-01-30 14:07:03.96	151.79	28.30	-33.9	-34.3	22.5	0.00e+00	0	39	0	1267728384	38	3695
2026-01-30 14:07:04.68	151.76	28.43	-33.9	-34.3	22.5	0.00e+00	0	39	0	1272971264	38	3700
2026-01-30 14:07:05.97	151.71	28.66	-33.9	-34.3	22.5	0.00e+00	0	39	0	1282408448	38	3717
2026-01-30 14:07:06.69	151.68	28.79	-33.8	-34.2	22.6	0.00e+00	0	39	0	1287651328	38	3678
2026-01-30 14:07:07.98	151.62	29.03	-33.9	-34.2	22.6	0.00e+00	0	39	0	1297088512	38	3668
2026-01-30 14:07:08.69	151.59	29.16	-33.8	-34.2	22.6	0.00e+00	0	39	0	1301282816	38	3666
2026-01-30 14:07:09.98	151.53	29.40	-33.8	-34.2	22.7	0.00e+00	0	39	0	1310720000	38	3663
2026-01-30 14:07:10.70	151.50	29.54	-33.8	-34.1	22.7	0.00e+00	0	39	0	1315962880	38	3640
2026-01-30 14:07:11.98	151.44	29.78	-33.8	-34.1	22.7	0.00e+00	0	39	0	1325400064	38	3651
2026-01-30 14:07:12.70	151.41	29.91	-33.7	-34.1	22.8	0.00e+00	0	39	0	1330642944	38	3616
2026-01-30 14:07:13.99	151.35	30.16	-33.9	-34.2	22.7	0.00e+00	0	39	0	1340080128	38	3682
2026-01-30 14:07:14.71	151.32	30.30	-33.8	-34.2	22.7	0.00e+00	0	39	0	1345323008	38	3654
2026-01-30 14:07:16.00	151.26	30.55	-33.9	-34.2	22.7	0.00e+00	0	39	0	1354760192	38	3663
2026-01-30 14:07:16.72	151.22	30.69	-33.9	-34.2	22.7	0.00e+00	0	39	0	1360003072	38	3684
2026-01-30 14:07:18.00	151.16	30.94	-33.7	-34.0	22.8	0.00e+00	0	39	0	1369440256	38	3606
2026-01-30 14:07:18.72	151.12	31.08	-33.8	-34.1	22.8	0.00e+00	0	39	0	1374683136	38	3635
2026-01-30 14:07:20.01	151.06	31.34	-33.8	-34.1	22.8	0.00e+00	0	39	0	1384120320	38	3637
2026-01-30 14:07:20.73	151.02	31.48	-33.9	-34.2	22.7	0.00e+00	0	39	0	1388314624	38	3670
2026-01-30 14:07:22.07	150.96	31.75	-33.8	-34.1	22.5	0.00e+00	0	39	0	1398800384	38	3629
2026-01-30 14:07:22.78	150.92	31.89	-33.9	-34.2	22.7	0.00e+00	0	39	0	1404043264	38	3683
2026-01-30 14:07:24.15	150.85	32.17	-33.8	-34.2	22.7	0.00e+00	0	39	0	1413480448	38	3659
2026-01-30 14:07:24.87	150.81	32.32	-33.8	-34.2	22.7	0.00e+00	0	39	0	1418723328	38	3654
2026-01-30 14:07:26.16	150.74	32.59	-33.9	-34.2	22.6	0.00e+00	0	39	0	1428160512	38	3681
2026-01-30 14:07:26.87	150.70	32.74	-34.0	-34.3	22.5	0.00e+00	0	39	0	1433403392	38	3712
2026-01-30 14:07:28.26	150.62	33.03	-34.0	-34.3	22.5	0.00e+00	0	39	0	1442840576	38	3715
2026-01-30 14:07:28.97	150.58	33.18	-34.0	-34.4	22.5	0.00e+00	0	39	0	1448083456	38	3746
2026-01-30 14:07:30.26	150.51	33.45	-33.9	-34.2	22.6	0.00e+00	0	39	0	1457520640	38	3688
2026-01-30 14:07:30.98	150.47	33.61	-33.9	-34.3	22.5	0.00e+00	0	39	0	1462763520	38	3698
2026-01-30 14:07:32.27	150.39	33.88	-33.8	-34.1	22.7	0.00e+00	0	39	0	1472200704	38	3629
2026-01-30 14:07:32.98	150.35	34.04	-33.9	-34.3	22.5	0.00e+00	0	39	0	1477443584	38	3698
2026-01-30 14:07:34.27	150.27	34.32	-34.0	-34.3	22.5	0.00e+00	0	39	0	1486880768	38	3735
2026-01-30 14:07:34.99	150.23	34.48	-33.8	-34.1	22.6	0.00e+00	0	39	0	1492123648	38	3630
2026-01-30 14:07:36.28	150.15	34.77	-33.9	-34.3	22.5	0.00e+00	0	39	0	1500512256	38	3706
2026-01-30 14:07:37.09	150.09	34.95	-33.9	-34.2	22.5	0.00e+00	0	39	0	1506803712	38	3691
2026-01-30 14:07:38.55	150.00	35.27	-33.8	-34.1	22.6	0.00e+00	0	39	0	1517289472	38	3636
2026-01-30 14:07:39.27	149.95	35.44	-33.8	-34.1	22.7	0.00e+00	0	39	0	1522532352	38	3633
2026-01-30 14:07:40.56	149.87	35.73	-33.7	-34.1	22.8	0.00e+00	0	39	0	1531969536	38	3612
2026-01-30 14:07:41.28	149.82	35.90	-33.8	-34.2	22.7	0.00e+00	0	39	0	1537212416	38	3657
2026-01-30 14:07:42.57	149.73	36.20	-34.0	-34.3	22.6	0.00e+00	0	39	0	1546649600	38	3707
2026-01-30 14:07:43.29	149.68	36.36	-33.9	-34.2	22.7	0.00e+00	0	39	0	1551892480	38	3682
2026-01-30 14:07:44.58	149.59	36.67	-34.1	-34.4	22.6	0.00e+00	0	39	0	1561329664	38	3758
2026-01-30 14:07:45.29	149.54	36.84	-34.1	-34.4	22.5	0.00e+00	0	39	0	1565523968	38	3771
2026-01-30 14:07:46.59	149.45	37.15	-34.1	-34.5	22.5	0.00e+00	0	39	0	1574961152	38	3800
2026-01-30 14:07:47.30	149.39	37.32	-34.1	-34.4	22.5	0.00e+00	0	39	0	1581252608	38	3753
2026-01-30 14:07:48.59	149.30	37.63	-34.0	-34.4	22.6	0.00e+00	0	39	0	1589641216	38	3740
2026-01-30 14:07:49.31	149.24	37.80	-34.2	-34.6	22.4	0.00e+00	0	39	0	1594884096	38	3832
2026-01-30 14:07:50.60	149.14	38.12	-34.1	-34.4	22.6	0.00e+00	0	39	0	1604321280	38	3757
2026-01-30 14:07:51.68	149.06	38.39	-33.9	-34.3	22.7	0.00e+00	0	39	0	1611661312	38	3700
2026-01-30 14:07:52.86	148.97	38.68	-33.8	-34.1	22.8	0.00e+00	0	39	0	1621098496	38	3639
2026-01-30 14:07:53.72	148.90	38.89	-33.9	-34.2	22.8	0.00e+00	0	39	0	1627389952	38	3661
2026-01-30 14:07:54.87	148.80	39.19	-33.9	-34.2	22.8	0.00e+00	0	39	0	1635778560	38	3657
2026-01-30 14:07:55.73	148.73	39.40	-33.7	-34.0	22.9	0.00e+00	0	39	0	1641021440	38	3586
2026-01-30 14:07:56.87	148.63	39.70	-33.8	-34.1	22.9	0.00e+00	0	39	0	1649410048	38	3637
2026-01-30 14:07:57.73	148.56	39.92	-33.9	-34.3	22.7	0.00e+00	0	39	0	1655701504	38	3696
2026-01-30 14:07:58.89	148.45	40.22	-34.2	-34.5	22.6	0.00e+00	0	39	0	1664090112	38	3802
2026-01-30 14:07:59.75	148.38	40.44	-34.1	-34.4	22.6	0.00e+00	0	39	0	1670381568	38	3776
2026-01-30 14:08:01.01	148.26	40.78	-34.2	-34.5	22.5	0.00e+00	0	39	0	1679818752	38	3822
2026-01-30 14:08:01.74	148.20	40.97	-34.5	-34.9	22.1	0.00e+00	0	39	0	1685061632	38	3976
2026-01-30 14:08:03.03	148.07	41.32	-34.4	-34.8	22.2	0.00e+00	0	39	0	1694498816	38	3923
2026-01-30 14:08:03.75	148.00	41.51	-34.9	-34.8	23.0	0.00e+00	0	39	0	1698693120	39	3727
2026-01-30 14:08:05.03	147.88	41.86	-34.9	-34.8	23.1	0.00e+00	0	39	0	1708130304	39	3715
2026-01-30 14:08:05.75	147.81	42.05	-35.0	-34.9	23.0	0.00e+00	0	39	0	1714421760	39	3752
2026-01-30 14:08:07.04	147.68	42.41	-34.7	-34.6	23.3	0.00e+00	0	39	0	1722810368	39	3613
2026-01-30 14:08:07.76	147.60	42.61	-34.6	-34.5	23.4	0.00e+00	0	39	0	1728053248	39	3588
2026-01-30 14:08:09.05	147.47	42.97	-34.5	-34.4	23.5	0.00e+00	0	39	0	1737490432	39	3529
2026-01-30 14:08:09.76	147.39	43.17	-34.6	-34.5	23.4	0.00e+00	0	39	0	1742733312	39	3591
2026-01-30 14:08:11.06	147.25	43.54	-34.5	-34.4	23.5	0.00e+00	0	39	0	1752170496	39	3548
2026-01-30 14:08:11.77	147.17	43.74	-34.9	-34.8	23.2	0.00e+00	0	39	0	1757413376	39	3703
2026-01-30 14:08:13.06	147.03	44.11	-34.7	-34.6	23.3	0.00e+00	0	39	0	1766850560	39	3630
2026-01-30 14:08:14.08	146.91	44.40	-34.9	-34.8	23.1	0.00e+00	0	39	0	1774190592	39	3723
2026-01-30 14:08:15.40	146.76	44.79	-35.0	-34.9	23.0	0.00e+00	0	39	0	1783627776	39	3764
2026-01-30 14:08:16.17	146.66	45.01	-35.1	-35.0	23.0	0.00e+00	0	39	0	1788870656	39	3808
2026-01-30 14:08:17.78	146.47	45.49	-35.2	-35.1	22.9	0.00e+00	0	39	0	1800404992	39	3825
2026-01-30 14:08:18.35	146.39	45.66	-35.2	-35.1	22.9	0.00e+00	0	39	0	1804599296	39	3833
2026-01-30 14:08:19.93	146.19	46.14	-35.2	-35.0	22.9	0.00e+00	0	39	0	1816133632	40	3610
2026-01-30 14:08:20.54	146.11	46.32	-35.3	-35.2	22.7	0.00e+00	0	39	0	1820327936	40	3674
2026-01-30 14:08:22.12	145.90	46.80	-35.1	-35.0	22.9	0.00e+00	0	39	0	1831862272	40	3599
2026-01-30 14:08:22.79	145.81	47.01	-35.3	-35.2	22.7	0.00e+00	0	39	0	1837105152	40	3685
2026-01-30 14:08:24.22	145.61	47.45	-35.3	-35.2	22.7	0.00e+00	0	39	0	1847590912	40	3688
2026-01-30 14:08:24.98	145.50	47.69	-35.4	-35.3	22.6	0.00e+00	0	39	0	1852833792	40	3726
2026-01-30 14:08:26.27	145.31	48.09	-35.3	-35.2	22.8	0.00e+00	0	39	0	1862270976	40	3658
2026-01-30 14:08:27.07	145.20	48.35	-35.4	-35.2	22.7	0.00e+00	0	39	0	1867513856	40	3692
2026-01-30 14:08:28.55	144.97	48.82	-35.6	-35.6	22.4	0.00e+00	0	39	0	1879048192	40	3825
2026-01-30 14:08:29.27	144.86	49.05	-35.7	-35.6	22.4	0.00e+00	0	39	0	1883242496	40	3859
2026-01-30 14:08:30.56	144.65	49.47	-35.9	-35.8	22.2	0.00e+00	0	39	0	1892679680	41	3712
2026-01-30 14:08:31.28	144.53	49.70	-35.8	-35.6	22.3	0.00e+00	0	39	0	1897922560	41	3652
2026-01-30 14:08:32.84	144.27	50.21	-36.1	-36.0	22.0	0.00e+00	0	39	0	1909456896	42	3591
2026-01-30 14:08:33.55	144.15	50.44	-36.1	-36.0	22.0	0.00e+00	0	39	0	1914699776	42	3603
2026-01-30 14:08:34.83	143.93	50.87	-36.0	-35.9	22.1	0.00e+00	0	39	0	1924136960	42	3557
2026-01-30 14:08:35.55	143.80	51.11	-35.7	-35.6	22.3	0.00e+00	0	39	0	1929379840	42	3438
2026-01-30 14:08:36.84	143.56	51.54	-35.5	-35.3	22.5	0.00e+00	0	39	0	1937768448	41	3521
2026-01-30 14:08:37.56	143.43	51.79	-35.9	-35.8	22.2	0.00e+00	0	39	0	1943011328	41	3714
2026-01-30 14:08:38.85	143.18	52.23	-35.4	-35.3	22.6	0.00e+00	0	39	0	1952448512	41	3519
2026-01-30 14:08:39.57	143.04	52.47	-35.3	-35.2	22.7	0.00e+00	0	39	0	1957691392	41	3467
2026-01-30 14:08:40.86	142.78	52.92	-35.5	-35.4	22.6	0.00e+00	0	39	0	1967128576	41	3555
2026-01-30 14:08:41.57	142.63	53.16	-35.9	-35.8	22.2	0.00e+00	0	39	0	1972371456	41	3704
2026-01-30 14:08:42.86	142.36	53.61	-36.2	-36.2	21.9	0.00e+00	0	39	0	1981808640	42	3656
2026-01-30 14:08:43.58	142.21	53.86	-36.6	-36.5	21.6	0.00e+00	0	39	0	1987051520	42	3807
2026-01-30 14:08:44.87	141.92	54.32	-36.3	-36.3	21.8	0.00e+00	0	39	0	1996488704	42	3700
2026-01-30 14:08:45.58	141.76	54.57	-36.2	-36.1	22.0	0.00e+00	0	39	0	2001731584	42	3621
2026-01-30 14:08:46.87	141.46	55.03	-36.1	-36.0	22.0	0.00e+00	0	39	0	2010120192	42	3582
2026-01-30 14:08:47.59	141.29	55.29	-36.1	-36.1	22.0	0.00e+00	0	39	0	2015363072	42	3615
2026-01-30 14:08:48.88	140.97	55.75	-36.1	-36.0	22.0	0.00e+00	0	39	0	2024800256	41	3801
2026-01-30 14:08:49.59	140.79	56.01	-35.9	-35.8	22.2	0.00e+00	0	39	0	2030043136	41	3712
2026-01-30 14:08:50.88	140.46	56.48	-36.1	-36.1	22.0	0.00e+00	0	39	0	2039480320	41	3832
2026-01-30 14:08:51.60	140.27	56.74	-36.4	-36.3	21.7	0.00e+00	0	39	0	2044723200	42	3733
2026-01-30 14:08:52.89	139.91	57.21	-36.2	-36.1	21.9	0.00e+00	0	39	0	2054160384	42	3636
2026-01-30 14:08:53.60	139.72	57.48	-36.1	-36.0	22.0	0.00e+00	0	39	0	2059403264	42	3598
2026-01-30 14:08:54.89	139.34	57.95	-35.8	-35.7	22.3	0.00e+00	0	39	0	2068840448	42	3457
2026-01-30 14:08:55.67	139.11	58.24	-35.9	-35.8	22.2	0.00e+00	0	39	0	2074083328	42	3508
2026-01-30 14:08:57.28	138.62	58.85	-35.7	-35.6	22.3	0.00e+00	0	39	0	2085617664	42	3445
2026-01-30 14:08:57.85	138.44	59.06	-36.0	-36.0	22.1	0.00e+00	0	39	0	2089811968	42	3581
2026-01-30 14:08:59.44	137.92	59.66	-36.0	-35.9	22.2	0.00e+00	0	39	0	2101346304	42	3537
2026-01-30 14:09:00.02	137.72	59.88	-35.8	-35.7	22.3	0.00e+00	0	39	0	2105540608	42	3479
2026-01-30 14:09:01.67	137.15	60.51	-35.6	-35.5	22.5	0.00e+00	0	39	0	2117074944	41	3574
2026-01-30 14:09:02.24	136.94	60.73	-35.5	-35.4	22.5	0.00e+00	0	39	0	2121269248	41	3557
2026-01-30 14:09:03.87	136.33	61.35	-35.5	-35.4	22.6	0.00e+00	0	39	0	2133852160	41	3554
2026-01-30 14:09:04.44	136.12	61.57	-35.7	-35.6	22.4	0.00e+00	0	39	0	2136997888	41	3644
2026-01-30 14:09:06.06	135.47	62.20	-35.4	-35.3	22.6	0.00e+00	0	39	0	2149580800	41	3512
2026-01-30 14:09:06.97	135.09	62.55	-35.1	-35.0	22.9	0.00e+00	0	39	0	2155872256	41	3401
2026-01-30 14:09:07.97	134.66	62.94	-34.5	-34.3	23.5	0.00e+00	0	39	0	2163212288	39	3519
2026-01-30 14:09:08.97	134.22	63.32	-34.2	-34.0	23.8	0.00e+00	0	39	0	2170552320	39	3397
2026-01-30 14:09:09.98	133.76	63.72	-34.5	-34.3	23.6	0.00e+00	0	39	0	2177892352	39	3527
2026-01-30 14:09:10.98	133.28	64.11	-34.7	-34.6	23.4	0.00e+00	0	39	0	2184183808	39	3618
2026-01-30 14:09:11.98	132.79	64.50	-34.7	-34.5	23.4	0.00e+00	0	39	0	2191523840	39	3593
2026-01-30 14:09:12.99	132.28	64.89	-34.5	-34.3	23.6	0.00e+00	0	39	0	2198863872	39	3511
2026-01-30 14:09:13.99	131.76	65.28	-34.8	-34.7	22.7	0.00e+00	0	39	0	2206203904	39	3691
2026-01-30 14:09:14.99	131.21	65.67	-34.1	-34.0	23.9	0.00e+00	0	39	0	2213543936	38	3578
2026-01-30 14:09:15.99	130.65	66.06	-34.3	-34.1	23.8	0.00e+00	0	39	0	2220883968	38	3640
2026-01-30 14:09:17.00	130.06	66.46	-34.4	-34.2	23.7	0.00e+00	0	39	0	2228224000	38	3666
2026-01-30 14:09:18.00	129.45	66.85	-34.3	-34.2	23.7	0.00e+00	0	39	0	2235564032	38	3656
2026-01-30 14:09:19.00	128.82	67.24	-34.5	-34.3	23.5	0.00e+00	0	39	0	2242904064	38	3721
2026-01-30 14:09:20.00	128.17	67.62	-34.3	-34.1	23.8	0.00e+00	0	39	0	2250244096	38	3649
2026-01-30 14:09:21.01	127.48	68.01	-34.4	-34.2	23.7	0.00e+00	0	39	0	2257584128	38	3683
2026-01-30 14:09:22.01	126.78	68.40	-34.6	-34.5	23.5	0.00e+00	0	39	0	2263875584	38	3786
2026-01-30 14:09:23.02	126.04	68.79	-34.8	-34.6	23.3	0.00e+00	0	39	0	2271215616	39	3646
2026-01-30 14:09:24.01	125.28	69.17	-34.8	-34.7	23.0	0.00e+00	0	39	0	2278555648	40	3474
2026-01-30 14:09:25.02	124.48	69.55	-34.8	-34.6	23.2	0.00e+00	0	39	0	2285895680	40	3441
2026-01-30 14:09:26.02	123.66	69.93	-35.0	-34.9	23.0	0.00e+00	0	39	0	2293235712	40	3554
2026-01-30 14:09:27.02	122.80	70.30	-35.3	-35.2	22.7	0.00e+00	0	39	0	2300575744	40	3673
2026-01-30 14:09:28.03	121.89	70.68	-35.2	-35.1	22.8	0.00e+00	0	39	0	2307915776	40	3640
2026-01-30 14:09:29.03	120.96	71.05	-35.1	-35.0	22.9	0.00e+00	0	39	0	2315255808	40	3593
2026-01-30 14:09:30.03	119.99	71.42	-34.5	-34.3	23.6	0.00e+00	0	39	0	2322595840	39	3513
2026-01-30 14:09:31.03	118.97	71.78	-34.4	-34.2	23.7	0.00e+00	0	39	0	2328887296	39	3461
2026-01-30 14:09:32.04	117.91	72.14	-34.3	-34.1	23.7	0.00e+00	0	39	0	2336227328	39	3437
2026-01-30 14:09:33.04	116.80	72.49	-34.5	-34.4	23.5	0.00e+00	0	39	0	2343567360	39	3558
2026-01-30 14:09:34.04	115.65	72.84	-34.3	-34.2	23.7	0.00e+00	0	39	0	2350907392	39	3469
2026-01-30 14:09:35.05	114.44	73.18	-34.0	-33.8	24.0	0.00e+00	0	39	0	2358247424	38	3525
2026-01-30 14:09:36.05	113.19	73.52	-34.1	-34.0	23.9	0.00e+00	0	39	0	2365587456	38	3571
2026-01-30 14:09:37.05	111.88	73.84	-34.1	-34.0	23.9	0.00e+00	0	40	0	2372927488	38	3581
2026-01-30 14:09:38.05	110.52	74.16	-34.1	-33.9	23.9	0.00e+00	0	39	0	2380267520	38	3549
2026-01-30 14:09:39.05	109.10	74.47	-33.8	-33.6	24.2	0.00e+00	0	39	0	2387607552	38	3420
2026-01-30 14:09:40.05	107.62	74.78	-33.9	-33.7	24.1	0.00e+00	0	39	0	2394947584	38	3460
2026-01-30 14:09:41.06	106.06	75.07	-34.0	-33.9	23.9	0.00e+00	0	39	0	2402287616	38	3532
2026-01-30 14:09:42.06	104.46	75.36	-33.9	-33.8	24.0	0.00e+00	0	39	0	2409627648	38	3499
2026-01-30 14:09:43.07	102.77	75.63	-34.1	-33.9	23.9	0.00e+00	0	39	0	2415919104	38	3553
2026-01-30 14:09:44.47	100.32	75.99	-33.9	-33.7	24.1	0.00e+00	0	40	0	2426404864	38	3467
2026-01-30 14:09:45.21	98.97	76.17	-33.6	-33.4	24.3	0.00e+00	0	39	0	2431647744	38	3340
2026-01-30 14:09:46.50	96.54	76.47	-33.8	-33.7	24.1	0.00e+00	0	39	0	2441084928	37	3664
2026-01-30 14:09:47.21	95.15	76.62	-33.8	-33.6	24.2	0.00e+00	0	39	0	2446327808	37	3635
2026-01-30 14:09:48.50	92.55	76.88	-33.3	-33.2	24.6	0.00e+00	0	39	0	2455764992	37	3458
2026-01-30 14:09:49.22	91.06	77.01	-33.4	-33.3	24.5	0.00e+00	0	39	0	2461007872	37	3511
2026-01-30 14:09:50.51	88.30	77.23	-33.4	-33.3	24.5	0.00e+00	0	39	0	2470445056	37	3493
2026-01-30 14:09:51.22	86.75	77.34	-33.2	-33.1	24.6	0.00e+00	0	39	0	2474639360	37	3410
2026-01-30 14:09:52.51	83.85	77.51	-33.1	-32.9	24.8	0.00e+00	0	39	0	2484076544	37	3347
2026-01-30 14:09:53.23	82.21	77.59	-32.9	-32.7	24.9	0.00e+00	0	39	0	2489319424	36	3486
2026-01-30 14:09:54.52	79.20	77.71	-33.3	-33.1	24.5	0.00e+00	0	39	0	2498756608	36	3629
2026-01-30 14:09:55.24	77.50	77.76	-33.5	-33.3	24.4	0.00e+00	0	39	0	2503999488	36	3731
2026-01-30 14:09:56.74	73.93	77.83	-33.3	-33.1	24.6	0.00e+00	0	39	0	2514485248	37	3417
2026-01-30 14:09:57.45	72.22	77.85	-33.1	-32.9	24.8	0.00e+00	0	39	0	2520776704	37	3348
2026-01-30 14:09:58.74	69.11	77.86	-33.0	-32.8	24.9	0.00e+00	0	39	0	2529165312	36	3527
2026-01-30 14:09:59.46	67.38	77.85	-33.1	-32.9	24.8	0.00e+00	0	39	0	2534408192	36	3560
2026-01-30 14:10:00.74	64.31	77.80	-33.1	-32.9	24.8	0.00e+00	0	40	0	2543845376	36	3557
2026-01-30 14:10:01.46	62.60	77.76	-33.1	-32.9	24.8	0.00e+00	0	40	0	2549088256	36	3560
2026-01-30 14:10:02.75	59.56	77.66	-33.3	-33.1	24.5	0.00e+00	0	39	0	2558525440	36	3649
2026-01-30 14:10:03.46	57.92	77.59	-33.3	-33.1	24.7	0.00e+00	0	39	0	2563768320	36	3630
2026-01-30 14:10:04.75	54.98	77.44	-33.1	-32.9	24.8	0.00e+00	0	39	0	2573205504	36	3542
2026-01-30 14:10:05.47	53.38	77.34	-32.9	-32.7	24.9	0.00e+00	0	39	0	2578448384	36	3470
2026-01-30 14:10:06.76	50.57	77.14	-33.2	-33.0	24.7	0.00e+00	0	39	0	2587885568	36	3583
2026-01-30 14:10:07.55	48.89	77.01	-33.3	-33.1	24.6	0.00e+00	0	39	0	2593128448	36	3647
2026-01-30 14:10:08.70	46.52	76.79	-33.7	-33.5	24.3	0.00e+00	0	39	0	2601517056	36	3804
2026-01-30 14:10:09.75	44.43	76.57	-33.2	-33.0	24.6	0.00e+00	0	39	0	2608857088	36	3597
2026-01-30 14:10:10.61	42.77	76.38	-33.2	-33.0	24.7	0.00e+00	0	39	0	2615148544	36	3586
2026-01-30 14:10:11.76	40.63	76.12	-33.6	-33.4	24.4	0.00e+00	0	39	0	2623537152	36	3758
2026-01-30 14:10:12.61	39.10	75.90	-33.8	-33.6	24.2	0.00e+00	0	39	0	2629828608	37	3642
2026-01-30 14:10:13.76	37.10	75.61	-33.8	-33.6	24.2	0.00e+00	0	39	0	2638217216	37	3649
2026-01-30 14:10:14.62	35.67	75.37	-33.9	-33.7	23.6	0.00e+00	0	39	0	2644508672	37	3687
2026-01-30 14:10:15.76	33.84	75.05	-33.8	-33.7	24.2	0.00e+00	0	39	0	2652897280	37	3654
2026-01-30 14:10:16.62	32.52	74.80	-33.6	-33.4	24.4	0.00e+00	0	39	0	2658140160	37	3542
2026-01-30 14:10:17.77	30.82	74.45	-33.7	-33.5	24.3	0.00e+00	0	39	0	2666528768	37	3582
2026-01-30 14:10:18.62	29.61	74.18	-33.8	-33.6	24.3	0.00e+00	0	39	0	2672820224	37	3630
2026-01-30 14:10:19.91	27.86	73.77	-34.3	-34.2	23.7	0.00e+00	0	39	0	2682257408	38	3655
2026-01-30 14:10:20.63	26.93	73.53	-34.5	-34.4	23.5	0.00e+00	0	39	0	2687500288	38	3747
2026-01-30 14:10:21.92	25.32	73.10	-34.5	-34.4	23.6	0.00e+00	0	39	0	2696937472	38	3748
2026-01-30 14:10:22.63	24.47	72.86	-34.4	-34.3	23.6	0.00e+00	0	39	0	2702180352	38	3699
2026-01-30 14:10:23.92	22.99	72.41	-34.7	-34.6	23.4	0.00e+00	0	40	0	2711617536	38	3842
2026-01-30 14:10:24.64	22.20	72.16	-35.0	-34.8	23.2	0.00e+00	0	39	0	2715811840	39	3735
2026-01-30 14:10:25.93	20.85	71.70	-35.1	-34.9	23.1	0.00e+00	0	39	0	2725249024	39	3771
2026-01-30 14:10:26.64	20.13	71.44	-34.8	-34.7	23.2	0.00e+00	0	39	0	2730491904	39	3659
2026-01-30 14:10:27.93	18.88	70.97	-34.7	-34.5	23.5	0.00e+00	0	40	0	2739929088	39	3600
2026-01-30 14:10:28.65	18.21	70.71	-34.7	-34.6	23.4	0.00e+00	0	39	0	2745171968	39	3624
2026-01-30 14:10:29.94	17.06	70.23	-34.8	-34.7	23.3	0.00e+00	0	39	0	2754609152	39	3682
2026-01-30 14:10:30.65	16.45	69.96	-34.9	-34.8	23.2	0.00e+00	0	39	0	2759852032	39	3724
2026-01-30 14:10:32.04	15.31	69.44	-35.0	-34.9	23.1	0.00e+00	0	39	0	2769289216	39	3748
2026-01-30 14:10:32.76	14.75	69.16	-34.9	-34.8	23.3	0.00e+00	0	39	0	2775580672	39	3696
2026-01-30 14:10:34.13	13.71	68.64	-34.9	-34.7	23.1	0.00e+00	0	39	0	2785017856	39	3678
2026-01-30 14:10:34.85	13.19	68.36	-34.8	-34.7	23.3	0.00e+00	0	39	0	2790260736	39	3675
2026-01-30 14:10:36.17	12.27	67.85	-34.7	-34.6	23.5	0.00e+00	0	39	0	2799697920	39	3619
2026-01-30 14:10:37.17	11.61	67.47	-34.7	-34.6	23.4	0.00e+00	0	39	0	2807037952	39	3635
2026-01-30 14:10:38.49	10.76	66.95	-34.7	-34.5	23.4	0.00e+00	0	39	0	2816475136	39	3598
2026-01-30 14:10:39.21	10.32	66.67	-34.7	-34.6	23.4	0.00e+00	0	39	0	2821718016	39	3630
2026-01-30 14:10:40.50	9.56	66.17	-34.6	-34.5	23.5	0.00e+00	0	39	0	2831155200	39	3581
2026-01-30 14:10:41.22	9.15	65.89	-34.5	-34.3	23.6	0.00e+00	0	39	0	2836398080	39	3528
2026-01-30 14:10:42.51	8.44	65.39	-34.5	-34.4	23.6	0.00e+00	0	39	0	2845835264	39	3538
2026-01-30 14:10:43.22	8.06	65.11	-34.5	-34.4	23.6	0.00e+00	0	39	0	2850029568	39	3530
2026-01-30 14:10:44.51	7.40	64.61	-34.7	-34.6	23.3	0.00e+00	0	39	0	2859466752	39	3616
2026-01-30 14:10:45.23	7.04	64.33	-34.7	-34.6	23.4	0.00e+00	0	39	0	2864709632	39	3614
2026-01-30 14:10:46.55	6.41	63.82	-34.8	-34.6	23.4	0.00e+00	0	39	0	2875195392	39	3638
2026-01-30 14:10:47.27	6.07	63.54	-34.8	-34.7	23.3	0.00e+00	0	40	0	2879389696	39	3665
2026-01-30 14:10:48.56	5.50	63.04	-35.1	-35.0	23.0	0.00e+00	0	39	0	2888826880	39	3800
2026-01-30 14:10:49.27	5.19	62.76	-35.3	-35.2	22.8	0.00e+00	0	39	0	2894069760	40	3675
2026-01-30 14:10:50.56	4.65	62.26	-35.5	-35.4	22.6	0.00e+00	0	39	0	2903506944	40	3773
2026-01-30 14:10:51.28	4.36	61.99	-35.5	-35.4	22.6	0.00e+00	0	39	0	2908749824	40	3755
2026-01-30 14:10:52.74	3.78	61.43	-35.6	-35.5	22.4	0.00e+00	0	39	0	2919235584	40	3799
2026-01-30 14:10:53.46	3.51	61.15	-35.8	-35.7	22.3	0.00e+00	0	40	0	2924478464	41	3677
2026-01-30 14:10:54.80	3.02	60.64	-36.2	-36.1	22.0	0.00e+00	0	39	0	2933915648	41	3860
2026-01-30 14:10:55.51	2.77	60.37	-36.2	-36.1	21.9	0.00e+00	0	40	0	2939158528	42	3645
2026-01-30 14:10:56.80	2.32	59.88	-35.8	-35.7	22.3	0.00e+00	0	40	0	2948595712	42	3481
2026-01-30 14:10:57.52	2.08	59.61	-35.6	-35.5	22.6	0.00e+00	0	39	0	2953838592	42	3372
2026-01-30 14:10:58.81	1.66	59.12	-35.6	-35.5	22.5	0.00e+00	0	40	0	2963275776	41	3607
2026-01-30 14:10:59.53	1.43	58.85	-35.6	-35.5	22.5	0.00e+00	0	39	0	2968518656	41	3597
2026-01-30 14:11:00.82	1.04	58.37	-35.8	-35.7	22.3	0.00e+00	0	40	0	2977955840	41	3680
2026-01-30 14:11:01.53	0.82	58.11	-35.6	-35.5	22.5	0.00e+00	0	40	0	2982150144	41	3595
2026-01-30 14:11:02.82	0.45	57.63	-35.4	-35.3	22.7	0.00e+00	0	39	0	2991587328	41	3517
2026-01-30 14:11:03.53	0.25	57.37	-35.4	-35.3	22.5	0.00e+00	0	40	0	2996830208	41	3506
2026-01-30 14:11:04.82	359.89	56.89	-35.6	-35.5	22.6	0.00e+00	0	40	0	3006267392	41	3579
2026-01-30 14:11:05.68	359.66	56.58	-35.8	-35.7	22.3	0.00e+00	0	39	0	3012558848	41	3664
2026-01-30 14:11:06.83	359.37	56.16	-35.9	-35.8	22.3	0.00e+00	0	40	0	3020947456	41	3723
2026-01-30 14:11:07.69	359.15	55.85	-35.9	-35.8	22.2	0.00e+00	0	40	0	3027238912	41	3726
2026-01-30 14:11:08.83	358.87	55.44	-36.0	-35.9	22.1	0.00e+00	0	39	0	3035627520	41	3770
2026-01-30 14:11:09.69	358.66	55.13	-35.8	-35.7	22.3	0.00e+00	0	40	0	3041918976	41	3687
2026-01-30 14:11:10.83	358.39	54.73	-36.0	-35.9	22.2	0.00e+00	0	40	0	3049259008	41	3776
2026-01-30 14:11:11.69	358.20	54.43	-36.1	-36.1	22.0	0.00e+00	0	40	0	3055550464	41	3835
2026-01-30 14:11:12.84	357.94	54.02	-36.3	-36.2	21.9	0.00e+00	0	40	0	3063939072	42	3687
2026-01-30 14:11:13.71	357.75	53.72	-36.2	-36.1	22.0	0.00e+00	0	40	0	3070230528	42	3642
2026-01-30 14:11:15.04	357.47	53.25	-36.1	-36.0	22.1	0.00e+00	0	39	0	3079667712	42	3580
2026-01-30 14:11:15.75	357.33	53.01	-36.0	-35.9	22.0	0.00e+00	0	39	0	3085959168	42	3547
2026-01-30 14:11:17.25	357.02	52.49	-35.9	-35.8	22.2	0.00e+00	0	40	0	3096444928	42	3512
2026-01-30 14:11:17.97	356.88	52.25	-36.0	-35.9	22.2	0.00e+00	0	40	0	3101687808	42	3566
2026-01-30 14:11:19.25	356.64	51.81	-36.2	-36.1	21.9	0.00e+00	0	40	0	3111124992	42	3637
2026-01-30 14:11:19.97	356.50	51.57	-36.1	-36.1	22.0	0.00e+00	0	40	0	3115319296	42	3615
2026-01-30 14:11:21.26	356.27	51.14	-36.1	-36.0	22.0	0.00e+00	0	39	0	3124756480	42	3599
2026-01-30 14:11:21.98	356.14	50.90	-36.0	-35.9	22.2	0.00e+00	0	39	0	3129999360	42	3551
2026-01-30 14:11:23.27	355.92	50.47	-36.1	-36.0	22.1	0.00e+00	0	39	0	3139436544	42	3607
2026-01-30 14:11:23.99	355.79	50.24	-36.2	-36.1	22.0	0.00e+00	0	39	0	3144679424	42	3646
2026-01-30 14:11:25.28	355.58	49.82	-36.2	-36.2	21.9	0.00e+00	0	39	0	3154116608	42	3662
2026-01-30 14:11:25.99	355.46	49.59	-36.1	-36.0	22.1	0.00e+00	0	40	0	3159359488	42	3582
2026-01-30 14:11:27.28	355.26	49.17	-36.1	-36.0	22.0	0.00e+00	0	40	0	3168796672	42	3589
2026-01-30 14:11:28.19	355.11	48.88	-35.8	-35.7	22.3	0.00e+00	0	40	0	3175088128	42	3482
2026-01-30 14:11:29.51	354.91	48.46	-35.6	-35.4	22.6	0.00e+00	0	40	0	3184525312	41	3564
2026-01-30 14:11:30.23	354.81	48.23	-35.5	-35.4	22.6	0.00e+00	0	40	0	3189768192	41	3555
2026-01-30 14:11:31.52	354.62	47.83	-35.5	-35.4	22.6	0.00e+00	0	40	0	3199205376	41	3561
2026-01-30 14:11:32.23	354.52	47.61	-35.4	-35.3	22.6	0.00e+00	0	39	0	3204448256	41	3516
2026-01-30 14:11:33.52	354.33	47.21	-35.3	-35.2	22.7	0.00e+00	0	40	0	3213885440	41	3476
2026-01-30 14:11:34.24	354.24	46.99	-35.3	-35.2	22.6	0.00e+00	0	39	0	3219128320	41	3465
2026-01-30 14:11:35.54	354.06	46.59	-35.0	-34.9	23.0	0.00e+00	0	40	0	3228565504	40	3540
2026-01-30 14:11:36.26	353.97	46.37	-34.9	-34.8	23.1	0.00e+00	0	39	0	3233808384	40	3507
2026-01-30 14:11:37.55	353.80	45.98	-34.8	-34.7	23.2	0.00e+00	0	39	0	3243245568	40	3471
2026-01-30 14:11:38.27	353.71	45.77	-34.8	-34.7	23.2	0.00e+00	0	39	0	3247439872	40	3458
2026-01-30 14:11:39.68	353.53	45.35	-34.8	-34.7	23.2	0.00e+00	0	39	0	3257925632	40	3463
2026-01-30 14:11:40.67	353.41	45.06	-34.7	-34.6	23.2	0.00e+00	0	40	0	3265265664	40	3419
2026-01-30 14:11:41.99	353.26	44.67	-34.6	-34.4	23.5	0.00e+00	0	40	0	3274702848	39	3566
2026-01-30 14:11:42.70	353.17	44.47	-34.5	-34.4	23.6	0.00e+00	0	40	0	3279945728	39	3530
2026-01-30 14:11:43.99	353.03	44.10	-34.5	-34.4	23.6	0.00e+00	0	40	0	3289382912	39	3538
2026-01-30 14:11:44.70	352.95	43.89	-34.4	-34.3	23.7	0.00e+00	0	40	0	3294625792	39	3504
2026-01-30 14:11:45.99	352.80	43.53	-34.6	-34.4	23.5	0.00e+00	0	40	0	3303014400	39	3564
2026-01-30 14:11:46.71	352.73	43.32	-34.6	-34.5	23.4	0.00e+00	0	40	0	3309305856	39	3601
2026-01-30 14:11:48.00	352.59	42.96	-34.7	-34.5	23.4	0.00e+00	0	40	0	3318743040	39	3610
2026-01-30 14:11:48.72	352.51	42.76	-34.7	-34.6	23.2	0.00e+00	0	40	0	3322937344	39	3636
2026-01-30 14:11:50.01	352.38	42.41	-34.5	-34.3	23.6	0.00e+00	0	40	0	3332374528	39	3521
2026-01-30 14:11:50.73	352.31	42.21	-34.5	-34.3	23.6	0.00e+00	0	40	0	3337617408	39	3509
2026-01-30 14:11:52.19	352.17	41.81	-34.4	-34.3	23.6	0.00e+00	0	40	0	3348103168	39	3493
2026-01-30 14:11:52.91	352.10	41.62	-34.3	-34.2	23.7	0.00e+00	0	39	0	3353346048	39	3457
2026-01-30 14:11:54.26	351.97	41.26	-34.3	-34.2	23.8	0.00e+00	0	40	0	3363831808	39	3450
2026-01-30 14:11:54.98	351.90	41.06	-34.4	-34.2	23.6	0.00e+00	0	40	0	3368026112	39	3484
2026-01-30 14:11:56.27	351.78	40.72	-34.4	-34.3	23.5	0.00e+00	0	40	0	3377463296	39	3491
2026-01-30 14:11:56.99	351.72	40.53	-34.5	-34.3	23.6	0.00e+00	0	40	0	3382706176	39	3524
2026-01-30 14:11:58.28	351.60	40.20	-34.6	-34.4	23.5	0.00e+00	0	40	0	3392143360	39	3559
2026-01-30 14:11:59.00	351.54	40.01	-34.6	-34.4	23.5	0.00e+00	0	40	0	3397386240	39	3565
2026-01-30 14:12:00.28	351.43	39.68	-34.7	-34.5	23.4	0.00e+00	0	40	0	3406823424	39	3604
2026-01-30 14:12:01.00	351.37	39.50	-34.6	-34.5	22.2	0.00e+00	0	39	0	3412066304	39	3588
2026-01-30 14:12:02.29	351.26	39.17	-34.6	-34.5	23.4	0.00e+00	0	40	0	3421503488	39	3591
2026-01-30 14:12:03.09	351.20	38.97	-34.7	-34.6	23.4	0.00e+00	0	40	0	3426746368	39	3625
2026-01-30 14:12:04.55	351.08	38.61	-34.7	-34.5	23.4	0.00e+00	0	40	0	3437232128	39	3608
2026-01-30 14:12:05.27	351.02	38.43	-34.6	-34.5	23.4	0.00e+00	0	39	0	3442475008	39	3590
2026-01-30 14:12:06.76	350.91	38.06	-34.6	-34.4	22.1	0.00e+00	0	40	0	3454009344	39	3555
2026-01-30 14:12:07.48	350.85	37.89	-34.5	-34.4	23.5	0.00e+00	0	40	0	3458203648	39	3543
2026-01-30 14:12:08.77	350.75	37.58	-34.3	-34.2	23.7	0.00e+00	0	40	0	3467640832	39	3460
2026-01-30 14:12:09.48	350.70	37.41	-34.4	-34.2	23.7	0.00e+00	0	40	0	3472883712	39	3475
2026-01-30 14:12:10.77	350.61	37.10	-34.4	-34.3	23.6	0.00e+00	0	40	0	3482320896	39	3503
2026-01-30 14:12:11.49	350.56	36.93	-34.4	-34.3	23.6	0.00e+00	0	40	0	3487563776	39	3495
2026-01-30 14:12:12.77	350.47	36.63	-34.5	-34.3	23.5	0.00e+00	0	40	0	3497000960	39	3527
2026-01-30 14:12:13.49	350.42	36.46	-34.5	-34.4	23.5	0.00e+00	0	40	0	3502243840	39	3555
2026-01-30 14:12:14.78	350.33	36.16	-34.7	-34.5	23.4	0.00e+00	0	40	0	3511681024	39	3607
2026-01-30 14:12:15.50	350.28	35.99	-34.6	-34.5	23.5	0.00e+00	0	39	0	3516923904	39	3573
2026-01-30 14:12:16.78	350.20	35.70	-34.6	-34.4	23.5	0.00e+00	0	39	0	3525312512	39	3565
2026-01-30 14:12:17.50	350.15	35.54	-34.5	-34.3	23.5	0.00e+00	0	40	0	3531603968	39	3520
2026-01-30 14:12:18.79	350.06	35.25	-34.3	-34.2	23.7	0.00e+00	0	39	0	3539992576	39	3476
2026-01-30 14:12:19.51	350.02	35.08	-34.4	-34.2	23.7	0.00e+00	0	40	0	3545235456	39	3480
2026-01-30 14:12:20.80	349.94	34.80	-34.0	-33.9	24.0	0.00e+00	0	40	0	3554672640	38	3545
2026-01-30 14:12:21.52	349.89	34.64	-34.0	-33.9	24.0	0.00e+00	0	40	0	3559915520	38	3533
2026-01-30 14:12:22.81	349.82	34.36	-34.0	-33.8	24.0	0.00e+00	0	40	0	3569352704	38	3510
2026-01-30 14:12:23.52	349.77	34.20	-34.0	-33.8	24.1	0.00e+00	0	40	0	3574595584	38	3513
2026-01-30 14:12:24.81	349.70	33.92	-33.8	-33.7	24.2	0.00e+00	0	40	0	3584032768	38	3455
2026-01-30 14:12:25.53	349.65	33.77	-33.8	-33.7	24.1	0.00e+00	0	40	0	3589275648	38	3462
2026-01-30 14:12:26.82	349.58	33.49	-34.0	-33.8	24.0	0.00e+00	0	40	0	3598712832	38	3524
2026-01-30 14:12:27.53	349.54	33.34	-34.0	-33.8	24.0	0.00e+00	0	40	0	3602907136	38	3512
2026-01-30 14:12:28.82	349.47	33.07	-34.1	-34.0	23.9	0.00e+00	0	40	0	3612344320	38	3595
2026-01-30 14:12:29.54	349.43	32.92	-34.1	-34.0	23.9	0.00e+00	0	40	0	3617587200	38	3583
2026-01-30 14:12:30.83	349.36	32.65	-34.2	-34.0	23.8	0.00e+00	0	40	0	3627024384	38	3605
2026-01-30 14:12:31.55	349.32	32.50	-34.2	-34.1	23.8	0.00e+00	0	40	0	3632267264	38	3624
2026-01-30 14:12:32.83	349.25	32.24	-34.3	-34.2	23.7	0.00e+00	0	40	0	3641704448	38	3662
2026-01-30 14:12:33.55	349.21	32.09	-34.3	-34.1	23.7	0.00e+00	0	40	0	3646947328	38	3649
2026-01-30 14:12:34.86	349.15	31.83	-34.3	-34.2	23.7	0.00e+00	0	40	0	3656384512	38	3655
2026-01-30 14:12:35.57	349.11	31.69	-34.3	-34.1	23.7	0.00e+00	0	40	0	3661627392	38	3645
2026-01-30 14:12:36.86	349.05	31.43	-34.3	-34.2	23.7	0.00e+00	0	40	0	3671064576	38	3655
2026-01-30 14:12:37.58	349.01	31.29	-34.3	-34.2	23.7	0.00e+00	0	40	0	3676307456	38	3671
2026-01-30 14:12:38.87	348.95	31.03	-34.4	-34.3	23.6	0.00e+00	0	40	0	3685744640	38	3702
2026-01-30 14:12:39.59	348.91	30.89	-34.5	-34.4	23.5	0.00e+00	0	40	0	3689938944	38	3741
2026-01-30 14:12:40.87	348.85	30.64	-34.5	-34.4	23.5	0.00e+00	0	40	0	3699376128	38	3760
2026-01-30 14:12:41.59	348.82	30.50	-34.6	-34.4	23.5	0.00e+00	0	39	0	3704619008	38	3778
2026-01-30 14:12:42.88	348.76	30.26	-34.6	-34.4	23.4	0.00e+00	0	40	0	3714056192	38	3770
2026-01-30 14:12:43.60	348.72	30.12	-34.7	-34.5	23.4	0.00e+00	0	40	0	3719299072	38	3818
2026-01-30 14:12:44.89	348.67	29.88	-34.6	-34.5	23.4	0.00e+00	0	40	0	3728736256	38	3811
2026-01-30 14:12:45.60	348.63	29.74	-34.6	-34.5	23.3	0.00e+00	0	40	0	3733979136	38	3815
2026-01-30 14:12:46.90	348.58	29.50	-34.7	-34.6	23.3	0.00e+00	0	39	0	3743416320	38	3828
2026-01-30 14:12:47.61	348.55	29.37	-34.7	-34.6	22.7	0.00e+00	0	40	0	3748659200	39	3632
2026-01-30 14:12:48.90	348.49	29.13	-34.7	-34.6	23.3	0.00e+00	0	40	0	3758096384	39	3611
2026-01-30 14:12:49.62	348.46	29.00	-34.7	-34.6	23.4	0.00e+00	0	40	0	3763339264	39	3617
2026-01-30 14:12:50.91	348.41	28.76	-34.7	-34.6	23.3	0.00e+00	0	40	0	3772776448	39	3635
2026-01-30 14:12:51.62	348.38	28.64	-34.8	-34.7	23.2	0.00e+00	0	40	0	3776970752	39	3667
2026-01-30 14:12:52.91	348.32	28.40	-34.7	-34.6	23.3	0.00e+00	0	40	0	3786407936	39	3630
2026-01-30 14:12:53.63	348.30	28.28	-34.8	-34.6	23.1	0.00e+00	0	40	0	3791650816	39	3641
2026-01-30 14:12:54.92	348.24	28.05	-34.7	-34.6	23.3	0.00e+00	0	40	0	3801088000	39	3641
2026-01-30 14:12:55.63	348.22	27.92	-34.8	-34.6	23.3	0.00e+00	0	40	0	3806330880	39	3648
2026-01-30 14:12:57.26	348.15	27.64	-34.7	-34.6	23.3	0.00e+00	0	40	0	3817865216	39	3632
2026-01-30 14:12:57.83	348.13	27.54	-34.7	-34.6	23.0	0.00e+00	0	40	0	3822059520	39	3619
2026-01-30 14:12:59.41	348.07	27.27	-34.8	-34.7	23.2	0.00e+00	0	40	0	3833593856	39	3680
2026-01-30 14:13:00.00	348.05	27.16	-34.9	-34.8	23.2	0.00e+00	0	40	0	3837788160	39	3710
2026-01-30 14:13:01.57	347.99	26.90	-34.8	-34.7	23.3	0.00e+00	0	39	0	3849322496	39	3665
2026-01-30 14:13:02.16	347.97	26.80	-34.8	-34.7	23.3	0.00e+00	0	39	0	3853516800	39	3658
2026-01-30 14:13:03.73	347.91	26.53	-35.0	-34.8	23.0	0.00e+00	0	40	0	3865051136	39	3731
2026-01-30 14:13:04.32	347.89	26.43	-34.9	-34.8	23.1	0.00e+00	0	40	0	3869245440	39	3724
2026-01-30 14:13:05.90	347.84	26.17	-34.9	-34.8	23.2	0.00e+00	0	40	0	3879731200	39	3714
2026-01-30 14:13:06.49	347.82	26.08	-34.9	-34.8	23.1	0.00e+00	0	40	0	3884974080	39	3723
2026-01-30 14:13:08.07	347.76	25.82	-35.0	-34.9	23.0	0.00e+00	0	40	0	3896508416	39	3774
2026-01-30 14:13:08.64	347.74	25.72	-35.1	-34.9	23.0	0.00e+00	0	40	0	3899654144	39	3778
2026-01-30 14:13:10.49	347.68	25.43	-35.2	-35.1	22.8	0.00e+00	0	40	0	3913285632	39	3841
2026-01-30 14:13:11.06	347.66	25.33	-35.3	-35.2	22.8	0.00e+00	0	40	0	3917479936	39	3874
2026-01-30 14:13:12.65	347.61	25.08	-35.2	-35.1	22.9	0.00e+00	0	40	0	3929014272	39	3848
2026-01-30 14:13:13.22	347.59	24.99	-35.3	-35.2	22.8	0.00e+00	0	40	0	3933208576	39	3883
2026-01-30 14:13:14.85	347.54	24.74	-35.1	-35.0	22.8	0.00e+00	0	40	0	3944742912	40	3583
2026-01-30 14:13:15.42	347.52	24.65	-35.1	-35.0	22.8	0.00e+00	0	40	0	3948937216	40	3579
2026-01-30 14:13:17.03	347.47	24.40	-35.1	-35.0	22.9	0.00e+00	0	40	0	3960471552	40	3574
2026-01-30 14:13:17.60	347.45	24.31	-35.0	-34.9	22.8	0.00e+00	0	40	0	3964665856	40	3539
2026-01-30 14:13:19.19	347.41	24.07	-35.0	-34.9	22.9	0.00e+00	0	40	0	3976200192	40	3561
2026-01-30 14:13:19.86	347.39	23.96	-35.0	-34.9	22.9	0.00e+00	0	40	0	3981443072	40	3546
2026-01-30 14:13:21.29	347.34	23.75	-34.9	-34.8	23.0	0.00e+00	0	40	0	3991928832	40	3519
2026-01-30 14:13:22.01	347.32	23.64	-34.9	-34.8	23.0	0.00e+00	0	40	0	3997171712	40	3525
2026-01-30 14:13:23.30	347.29	23.45	-34.9	-34.8	23.1	0.00e+00	0	40	0	4005560320	40	3501
2026-01-30 14:13:24.17	347.26	23.32	-34.9	-34.8	23.0	0.00e+00	0	40	0	4011851776	40	3523
2026-01-30 14:13:25.64	347.22	23.10	-34.9	-34.8	23.0	0.00e+00	0	40	0	4022337536	40	3513
2026-01-30 14:13:26.35	347.20	23.00	-34.9	-34.8	23.0	0.00e+00	0	40	0	4028628992	40	3516
2026-01-30 14:13:27.64	347.16	22.81	-34.9	-34.8	23.0	0.00e+00	0	40	0	4037017600	40	3519
2026-01-30 14:13:28.36	347.14	22.70	-34.9	-34.8	23.0	0.00e+00	0	40	0	4042260480	40	3513
2026-01-30 14:13:29.65	347.11	22.52	-34.9	-34.8	23.0	0.00e+00	0	40	0	4051697664	40	3508
2026-01-30 14:13:30.37	347.09	22.41	-34.9	-34.8	23.0	0.00e+00	0	40	0	4056940544	40	3512
2026-01-30 14:13:31.66	347.06	22.23	-35.0	-34.9	22.9	0.00e+00	0	40	0	4066377728	40	3545
2026-01-30 14:13:32.37	347.04	22.13	-35.1	-35.0	22.9	0.00e+00	0	40	0	4071620608	40	3577
2026-01-30 14:13:33.66	347.00	21.95	-35.1	-34.9	22.9	0.00e+00	0	40	0	4081057792	40	3559
2026-01-30 14:13:34.38	346.99	21.85	-35.1	-34.9	22.9	0.00e+00	0	40	0	4086300672	40	3568
2026-01-30 14:13:35.67	346.95	21.67	-35.1	-34.9	22.9	0.00e+00	0	40	0	4095737856	40	3568
2026-01-30 14:13:36.39	346.94	21.57	-35.1	-35.0	22.8	0.00e+00	0	40	0	4099932160	40	3602
2026-01-30 14:13:37.68	346.90	21.39	-35.1	-35.0	22.9	0.00e+00	0	40	0	4109369344	40	3586
2026-01-30 14:13:38.39	346.89	21.29	-35.1	-35.0	22.8	0.00e+00	0	40	0	4114612224	40	3586
2026-01-30 14:13:39.79	346.85	21.10	-35.1	-35.0	22.8	0.00e+00	0	40	0	4125097984	40	3600
2026-01-30 14:13:40.51	346.83	21.00	-35.2	-35.1	22.7	0.00e+00	0	40	0	4130340864	40	3630
2026-01-30 14:13:41.85	346.80	20.82	-35.2	-35.1	22.8	0.00e+00	0	40	0	4139778048	40	3624
2026-01-30 14:13:42.57	346.79	20.73	-35.2	-35.1	22.7	0.00e+00	0	40	0	4145020928	40	3633
2026-01-30 14:13:43.85	346.76	20.56	-35.2	-35.1	22.7	0.00e+00	0	40	0	4154458112	40	3638
2026-01-30 14:13:44.57	346.74	20.46	-35.3	-35.2	22.7	0.00e+00	0	40	0	4159700992	40	3653
2026-01-30 14:13:45.86	346.71	20.29	-35.2	-35.1	22.7	0.00e+00	0	40	0	4169138176	40	3631
2026-01-30 14:13:46.57	346.69	20.20	-35.3	-35.1	22.7	0.00e+00	0	40	0	4174381056	40	3650
2026-01-30 14:13:47.86	346.66	20.03	-35.3	-35.2	22.7	0.00e+00	0	40	0	4183818240	40	3663
2026-01-30 14:13:48.58	346.65	19.94	-35.3	-35.2	22.7	0.00e+00	0	40	0	4188012544	40	3661
2026-01-30 14:13:49.87	346.62	19.77	-35.4	-35.3	22.6	0.00e+00	0	40	0	4197449728	40	3709
2026-01-30 14:13:50.70	346.60	19.66	-35.5	-35.4	22.5	0.00e+00	0	40	0	4203741184	40	3757
2026-01-30 14:13:52.16	346.57	19.48	-35.4	-35.3	22.6	0.00e+00	0	40	0	4214226944	40	3712
2026-01-30 14:13:52.88	346.56	19.38	-35.4	-35.3	22.5	0.00e+00	0	40	0	4219469824	40	3730
2026-01-30 14:13:54.16	346.53	19.22	-35.4	-35.3	22.6	0.00e+00	0	40	0	4228907008	40	3711
2026-01-30 14:13:54.89	346.51	19.13	-35.4	-35.3	22.5	0.00e+00	0	40	0	4234149888	40	3734
2026-01-30 14:13:56.19	346.49	18.97	-35.4	-35.4	22.5	0.00e+00	0	40	0	4243587072	40	3740
2026-01-30 14:13:56.90	346.47	18.88	-35.4	-35.3	22.5	0.00e+00	0	40	0	4248829952	40	3720
2026-01-30 14:13:58.19	346.45	18.72	-35.5	-35.4	22.4	0.00e+00	0	40	0	4258267136	40	3756
2026-01-30 14:13:58.91	346.43	18.63	-35.5	-35.4	22.4	0.00e+00	0	40	0	4263510016	40	3765
2026-01-30 14:14:00.20	346.41	18.47	-35.5	-35.4	22.4	0.00e+00	0	40	0	4272947200	40	3774
2026-01-30 14:14:00.91	346.39	18.39	-35.6	-35.5	22.4	0.00e+00	0	40	0	4277141504	40	3791
2026-01-30 14:14:02.20	346.37	18.23	-35.6	-35.5	22.4	0.00e+00	0	40	0	4286578688	40	3802
2026-01-30 14:14:02.92	346.35	18.14	-35.6	-35.5	22.4	0.00e+00	0	40	0	4291821568	40	3803
2026-01-30 14:14:04.21	346.33	17.99	-35.7	-35.6	22.3	0.00e+00	0	40	0	4301258752	40	3843
2026-01-30 14:14:04.92	346.32	17.90	-35.7	-35.6	22.2	0.00e+00	0	40	0	4306501632	40	3860
2026-01-30 14:14:06.22	346.29	17.75	-35.7	-35.6	22.2	0.00e+00	0	40	0	4315938816	40	3853
2026-01-30 14:14:06.93	346.28	17.66	-35.7	-35.6	22.1	0.00e+00	0	40	0	4321181696	40	3868
2026-01-30 14:14:08.22	346.25	17.51	-35.7	-35.7	22.2	0.00e+00	0	40	0	4330618880	40	3869
2026-01-30 14:14:08.99	346.24	17.42	-35.7	-35.7	22.1	0.00e+00	0	40	0	4335861760	40	3911
2026-01-30 14:14:10.27	346.22	17.27	-35.8	-35.8	22.0	0.00e+00	0	40	0	4345298944	41	3725
2026-01-30 14:14:11.09	346.20	17.17	-35.8	-35.8	21.8	0.00e+00	0	40	0	4350541824	41	3729
2026-01-30 14:14:12.55	346.18	17.01	-35.8	-35.8	22.1	0.00e+00	0	40	0	4362076160	41	3710
2026-01-30 14:14:13.26	346.16	16.92	-35.8	-35.9	22.0	0.00e+00	0	40	0	4366270464	41	3739
2026-01-30 14:14:14.76	346.14	16.75	-36.0	-36.0	21.9	0.00e+00	0	40	0	4377804800	41	3790
2026-01-30 14:14:15.48	346.13	16.67	-35.9	-35.9	21.9	0.00e+00	0	40	0	4383047680	41	3774
2026-01-30 14:14:16.76	346.10	16.53	-36.0	-36.0	21.9	0.00e+00	0	40	0	4392484864	41	3785
2026-01-30 14:14:17.48	346.09	16.44	-36.0	-36.0	21.8	0.00e+00	0	40	0	4396679168	41	3800
2026-01-30 14:14:18.77	346.07	16.30	-36.1	-36.0	21.8	0.00e+00	0	40	0	4406116352	41	3814
2026-01-30 14:14:19.49	346.06	16.22	-36.2	-36.2	21.7	0.00e+00	0	40	0	4411359232	41	3871
2026-01-30 14:14:20.78	346.04	16.08	-36.2	-36.2	21.7	0.00e+00	0	40	0	4420796416	41	3880
2026-01-30 14:14:21.49	346.03	16.00	-36.3	-36.2	21.6	0.00e+00	0	40	0	4426039296	41	3900
2026-01-30 14:14:22.78	346.01	15.85	-36.3	-36.2	21.6	0.00e+00	0	40	0	4435476480	42	3690
2026-01-30 14:14:23.50	345.99	15.78	-36.4	-36.4	21.5	0.00e+00	0	40	0	4440719360	42	3756
2026-01-30 14:14:24.79	345.97	15.64	-36.4	-36.4	21.5	0.00e+00	0	40	0	4450156544	42	3758
2026-01-30 14:14:25.51	345.96	15.56	-36.3	-36.3	21.5	0.00e+00	0	40	0	4455399424	42	3729
2026-01-30 14:14:26.80	345.94	15.42	-36.5	-36.5	21.4	0.00e+00	0	40	0	4463788032	42	3794
2026-01-30 14:14:27.67	345.93	15.32	-36.5	-36.6	21.3	0.00e+00	0	40	0	4471128064	42	3844
2026-01-30 14:14:29.14	345.91	15.17	-36.4	-36.5	21.4	0.00e+00	0	40	0	4481613824	42	3791
2026-01-30 14:14:30.25	345.89	15.05	-36.4	-36.5	21.3	0.00e+00	0	40	0	4490002432	42	3816
2026-01-30 14:14:31.45	345.87	14.92	-36.5	-36.6	21.3	0.00e+00	0	40	0	4497342464	42	3841
2026-01-30 14:14:32.31	345.86	14.83	-36.6	-36.7	21.2	0.00e+00	0	40	0	4504682496	42	3881
2026-01-30 14:14:33.45	345.84	14.71	-36.6	-36.7	21.2	0.00e+00	0	40	0	4513071104	42	3893
2026-01-30 14:14:34.31	345.83	14.62	-36.6	-36.7	21.2	0.00e+00	0	40	0	4518313984	42	3895
2026-01-30 14:14:35.46	345.82	14.50	-36.7	-36.8	21.1	0.00e+00	0	40	0	4526702592	42	3915
2026-01-30 14:14:36.32	345.80	14.41	-36.7	-36.8	21.1	0.00e+00	0	40	0	4532994048	42	3933
2026-01-30 14:14:37.46	345.79	14.29	-36.7	-36.8	21.1	0.00e+00	0	40	0	4541382656	42	3933
2026-01-30 14:14:38.32	345.78	14.20	-36.8	-36.9	21.0	0.00e+00	0	40	0	4547674112	43	3755
2026-01-30 14:14:39.47	345.76	14.09	-36.8	-36.9	21.0	0.00e+00	0	40	0	4556062720	43	3746
2026-01-30 14:14:40.33	345.75	14.00	-36.9	-37.0	20.9	0.00e+00	0	40	0	4562354176	43	3789
2026-01-30 14:14:41.48	345.73	13.88	-36.9	-37.0	20.9	0.00e+00	0	40	0	4570742784	43	3784
2026-01-30 14:14:42.34	345.72	13.79	-37.0	-37.1	20.7	0.00e+00	0	40	0	4575985664	43	3854
2026-01-30 14:14:43.48	345.71	13.68	-36.9	-37.0	20.8	0.00e+00	0	40	0	4584374272	43	3806
2026-01-30 14:14:44.34	345.69	13.59	-37.0	-37.1	20.8	0.00e+00	0	40	0	4590665728	43	3832
2026-01-30 14:14:45.49	345.68	13.48	-37.0	-37.1	20.8	0.00e+00	0	40	0	4599054336	43	3840
2026-01-30 14:14:46.35	345.67	13.39	-37.0	-37.2	20.7	0.00e+00	0	40	0	4605345792	43	3875
2026-01-30 14:14:47.49	345.65	13.28	-37.1	-37.2	20.7	0.00e+00	0	40	0	4613734400	43	3892
2026-01-30 14:14:48.36	345.64	13.19	-37.0	-37.1	20.8	0.00e+00	0	40	0	4620025856	43	3855
2026-01-30 14:14:49.50	345.63	13.08	-37.1	-37.2	20.7	0.00e+00	0	40	0	4628414464	43	3891
2026-01-30 14:14:50.36	345.62	13.00	-37.1	-37.2	20.7	0.00e+00	0	40	0	4634705920	43	3890
2026-01-30 14:14:51.51	345.60	12.89	-37.0	-37.2	20.7	0.00e+00	0	40	0	4643094528	43	3877
2026-01-30 14:14:52.37	345.59	12.80	-37.2	-37.3	20.6	0.00e+00	0	40	0	4649385984	43	3931
2026-01-30 14:14:53.51	345.58	12.69	-37.2	-37.3	20.5	0.00e+00	0	40	0	4657774592	43	3939
2026-01-30 14:14:54.37	345.57	12.61	-37.1	-37.2	20.6	0.00e+00	0	40	0	4663017472	43	3912
2026-01-30 14:14:55.52	345.55	12.50	-37.2	-37.3	20.6	0.00e+00	0	40	0	4671406080	43	3916
2026-01-30 14:14:56.38	345.54	12.42	-37.4	-37.5	20.5	0.00e+00	0	40	0	4677697536	44	3816
2026-01-30 14:14:57.69	345.53	12.29	-37.3	-37.4	20.5	0.00e+00	0	40	0	4687134720	44	3780
2026-01-30 14:14:58.40	345.52	12.22	-37.4	-37.5	20.5	0.00e+00	0	40	0	4692377600	44	3791
2026-01-30 14:14:59.69	345.51	12.10	-37.4	-37.5	20.5	0.00e+00	0	40	0	4701814784	44	3807
2026-01-30 14:15:00.41	345.50	12.03	-37.4	-37.5	20.5	0.00e+00	0	40	0	4707057664	44	3799
2026-01-30 14:15:01.70	345.48	11.91	-37.5	-37.6	20.4	0.00e+00	0	40	0	4716494848	44	3832
2026-01-30 14:15:02.42	345.48	11.85	-37.4	-37.5	20.5	0.00e+00	0	40	0	4721737728	44	3817
2026-01-30 14:15:03.71	345.46	11.73	-37.4	-37.6	20.4	0.00e+00	0	40	0	4731174912	44	3841
2026-01-30 14:15:04.42	345.45	11.66	-37.5	-37.7	20.2	0.00e+00	0	40	0	4736417792	44	3896
2026-01-30 14:15:05.71	345.44	11.54	-37.3	-37.6	20.3	0.00e+00	0	40	0	4745854976	44	3836
2026-01-30 14:15:06.43	345.43	11.48	-37.3	-37.6	20.4	0.00e+00	0	40	0	4750049280	44	3856
2026-01-30 14:15:07.78	345.42	11.35	-37.3	-37.7	20.3	0.00e+00	0	40	0	4760535040	44	3869
2026-01-30 14:15:08.50	345.41	11.29	-37.4	-37.8	20.2	0.00e+00	0	40	0	4764729344	44	3917
2026-01-30 14:15:09.79	345.40	11.17	-37.3	-37.7	20.3	0.00e+00	0	40	0	4774166528	44	3891
2026-01-30 14:15:10.50	345.39	11.10	-37.3	-37.8	20.2	0.00e+00	0	40	0	4780457984	44	3930
2026-01-30 14:15:11.80	345.37	10.99	-37.3	-37.7	20.3	0.00e+00	0	40	0	4788846592	44	3906
