passes_logs/2026/01/30/T1/T1__20260130_013455_SUOMI_NPP_rec.log

#Pass ID: 20260130_013455_SUOMI NPP
#Satellite: SUOMI NPP
#Configuration: NPP
#almurnet v.1.7.20251203
#Start time: 2026-01-30 01:34:56

#Version: 2.0.20230620
#Station: T1
#Location: 37.570604 lon 55.790049 lat
#TLE: 1 37849U 11061A   26028.91916408  .00000155  00000+0  94467-4 0  9990
#TLE: 2 37849  98.7824 330.8488 0002045  39.4457 320.6868 14.19531289738686

#Time	Az	El	Level	Level2	SNR	BER	BlckErr	Temp	State	Recorded	gain1	gain2
2026-01-30 01:34:56.89	5.75	5.06	-49.5	-63.7	3.8	1.49e+00	0	40	0	0	69	19792
2026-01-30 01:34:57.89	5.67	5.12	-49.6	-63.8	3.8	1.49e+00	0	40	104	0	71	17768
2026-01-30 01:34:58.89	5.58	5.18	-49.6	-63.7	3.8	1.49e+00	0	40	104	0	71	17642
2026-01-30 01:34:59.90	5.49	5.24	-49.6	-63.8	3.8	1.49e+00	0	40	104	0	70	18757
2026-01-30 01:35:00.90	5.41	5.30	-49.5	-63.7	3.8	1.49e+00	0	41	104	0	70	18722
2026-01-30 01:35:01.91	5.32	5.36	-49.5	-63.8	3.8	1.49e+00	0	41	104	0	70	18791
2026-01-30 01:35:02.91	5.23	5.42	-49.4	-63.8	3.8	1.49e+00	0	41	104	0	70	18746
2026-01-30 01:35:03.91	5.14	5.48	-49.4	-63.7	3.8	1.49e+00	0	41	104	0	70	18698
2026-01-30 01:35:04.92	5.05	5.54	-49.5	-63.8	3.8	1.49e+00	0	41	104	0	70	18844
2026-01-30 01:35:05.92	4.96	5.59	-49.5	-63.8	3.8	1.49e+00	0	41	104	0	70	18777
2026-01-30 01:35:06.92	4.88	5.65	-49.5	-63.7	3.8	1.49e+00	0	41	104	0	70	18714
2026-01-30 01:35:07.93	4.78	5.71	-49.2	-63.8	3.8	1.49e+00	0	41	104	0	70	18775
2026-01-30 01:35:08.93	4.69	5.77	-49.3	-63.7	3.8	1.49e+00	0	41	104	0	70	18683
2026-01-30 01:35:09.94	4.60	5.83	-49.4	-63.8	3.8	1.49e+00	0	41	104	0	70	18737
2026-01-30 01:35:10.94	4.51	5.89	-48.8	-63.7	3.8	1.49e+00	0	41	104	0	69	19725
2026-01-30 01:35:11.95	4.42	5.95	-49.3	-63.7	3.8	1.49e+00	0	41	104	0	69	19681
2026-01-30 01:35:12.95	4.33	6.01	-49.3	-63.6	3.8	1.49e+00	0	41	104	0	69	19613
2026-01-30 01:35:13.95	4.24	6.07	-49.2	-63.6	3.8	1.49e+00	0	41	104	0	69	19563
2026-01-30 01:35:14.96	4.14	6.13	-49.0	-63.6	3.8	1.49e+00	0	41	104	0	69	19510
2026-01-30 01:35:15.96	4.05	6.19	-48.9	-63.6	3.8	1.49e+00	0	41	104	0	69	19473
2026-01-30 01:35:16.97	3.96	6.25	-48.9	-63.5	3.8	1.49e+00	0	41	104	0	69	19344
2026-01-30 01:35:17.97	3.86	6.31	-48.0	-63.5	3.8	1.49e+00	0	41	104	0	68	20374
2026-01-30 01:35:18.98	3.77	6.37	-48.5	-63.3	3.8	1.49e+00	0	41	104	0	68	20045
2026-01-30 01:35:19.98	3.67	6.43	-47.4	-63.1	3.8	1.49e+00	0	41	104	0	66	21888
2026-01-30 01:35:20.99	3.58	6.50	-47.5	-63.0	3.8	1.49e+00	0	41	104	0	66	21695
2026-01-30 01:35:21.99	3.48	6.56	-47.6	-63.0	3.8	1.49e+00	0	41	104	0	66	21626
2026-01-30 01:35:23.00	3.39	6.62	-47.5	-63.0	3.8	1.49e+00	0	41	104	0	66	21589
2026-01-30 01:35:24.00	3.29	6.68	-47.4	-62.9	3.8	1.49e+00	0	41	104	0	66	21488
2026-01-30 01:35:25.00	3.19	6.74	-47.5	-62.9	3.8	1.49e+00	0	41	104	0	66	21440
2026-01-30 01:35:26.01	3.09	6.80	-47.5	-62.8	3.8	1.49e+00	0	42	104	0	66	21249
2026-01-30 01:35:27.01	3.00	6.86	-47.4	-62.8	3.8	1.49e+00	0	42	104	0	66	21046
2026-01-30 01:35:28.01	2.90	6.92	-47.4	-62.8	3.8	1.49e+00	0	42	104	0	66	21182
2026-01-30 01:35:29.02	2.80	6.98	-47.4	-62.8	3.8	1.49e+00	0	42	104	0	66	21186
2026-01-30 01:35:30.02	2.70	7.04	-47.5	-62.9	3.8	1.49e+00	0	41	104	0	66	21354
2026-01-30 01:35:31.03	2.60	7.10	-47.4	-63.0	3.8	1.49e+00	0	42	104	0	66	21534
2026-01-30 01:35:32.03	2.50	7.16	-47.5	-63.0	3.8	1.49e+00	0	42	104	0	66	21538
2026-01-30 01:35:33.04	2.40	7.23	-47.5	-63.0	3.8	1.49e+00	0	42	104	0	66	21622
2026-01-30 01:35:34.04	2.30	7.29	-47.6	-63.0	3.8	1.49e+00	0	42	104	0	66	21653
2026-01-30 01:35:35.04	2.20	7.35	-47.5	-63.0	3.8	1.49e+00	0	42	104	0	66	21684
2026-01-30 01:35:36.05	2.10	7.41	-47.6	-63.0	3.8	1.49e+00	0	42	104	0	66	21705
2026-01-30 01:35:37.05	2.00	7.47	-47.6	-63.0	3.8	1.49e+00	0	42	104	0	66	21533
2026-01-30 01:35:38.06	1.89	7.53	-47.6	-63.0	3.8	1.49e+00	0	42	104	0	66	21606
2026-01-30 01:35:39.06	1.79	7.59	-47.6	-63.0	3.8	1.49e+00	0	42	104	0	66	21593
2026-01-30 01:35:40.06	1.69	7.66	-47.6	-63.0	3.8	1.49e+00	0	42	104	0	66	21632
2026-01-30 01:35:41.07	1.58	7.72	-47.5	-62.9	3.8	1.49e+00	0	42	104	0	66	21389
2026-01-30 01:35:42.07	1.48	7.78	-47.6	-62.8	3.8	1.49e+00	0	42	104	0	66	21059
2026-01-30 01:35:43.08	1.37	7.84	-47.5	-62.6	3.8	1.49e+00	0	42	104	0	66	20544
2026-01-30 01:35:44.08	1.27	7.90	-47.4	-62.3	3.8	1.49e+00	0	42	104	0	66	19928
2026-01-30 01:35:45.09	1.16	7.97	-47.4	-62.0	3.8	1.49e+00	0	42	104	0	66	19304
2026-01-30 01:35:46.09	1.06	8.03	-47.4	-61.7	3.8	1.49e+00	0	42	104	0	66	18609
2026-01-30 01:35:47.10	0.95	8.09	-47.5	-61.4	3.8	1.49e+00	0	42	104	0	66	18062
2026-01-30 01:35:48.10	0.84	8.15	-47.4	-61.5	3.8	1.49e+00	0	42	104	0	66	18097
2026-01-30 01:35:49.10	0.74	8.21	-47.4	-61.6	3.8	1.49e+00	0	42	104	0	66	18335
2026-01-30 01:35:50.11	0.63	8.28	-47.5	-61.5	3.8	1.49e+00	0	42	104	0	66	18243
2026-01-30 01:35:51.11	0.52	8.34	-47.4	-61.4	3.8	1.49e+00	0	42	104	0	66	18008
2026-01-30 01:35:52.12	0.41	8.40	-47.4	-61.1	3.8	1.49e+00	0	42	104	0	66	17476
2026-01-30 01:35:53.12	0.30	8.46	-47.4	-60.2	4.0	1.49e+00	0	42	104	0	66	15750
2026-01-30 01:35:54.13	0.19	8.53	-47.2	-59.1	4.3	1.45e+00	0	42	0	0	66	13752
2026-01-30 01:35:55.13	0.08	8.59	-47.1	-57.6	4.9	8.02e-01	0	42	0	1048576	66	11683
2026-01-30 01:35:56.13	359.97	8.65	-46.9	-56.0	5.9	4.29e-01	0	42	0	3145728	65	10238
2026-01-30 01:35:57.14	359.86	8.71	-46.7	-54.5	7.0	2.12e-01	0	42	0	5242880	65	8596
2026-01-30 01:35:58.14	359.74	8.78	-46.3	-52.8	8.7	3.50e-02	0	42	0	7340032	64	7493
2026-01-30 01:35:59.14	359.63	8.84	-46.1	-51.9	10.0	1.71e-02	0	42	0	9437184	63	7135
2026-01-30 01:36:00.15	359.52	8.90	-46.0	-51.7	10.0	1.32e-02	0	42	0	10485760	63	7005
2026-01-30 01:36:01.15	359.41	8.97	-46.0	-51.8	9.8	9.24e-03	0	42	0	12582912	63	7092
2026-01-30 01:36:02.16	359.29	9.03	-46.1	-52.0	9.7	8.73e-03	0	42	0	14680064	63	7208
2026-01-30 01:36:03.16	359.18	9.09	-46.8	-57.7	4.9	3.12e-01	0	42	0	16777216	64	13189
2026-01-30 01:36:04.16	359.06	9.15	-47.1	-59.7	3.9	1.33e+00	0	42	104	16777216	64	16627
2026-01-30 01:36:05.17	358.95	9.22	-44.2	-47.1	14.6	1.50e-06	0	42	0	17825792	60	4906
2026-01-30 01:36:06.18	358.83	9.28	-44.5	-47.6	14.2	7.00e-07	0	42	0	18874368	60	5185
2026-01-30 01:36:07.19	358.71	9.34	-45.9	-50.2	11.6	9.90e-06	0	42	0	20971520	62	6225
2026-01-30 01:36:08.24	358.59	9.41	-44.0	-46.7	15.1	0.00e+00	0	42	0	23068672	59	4968
2026-01-30 01:36:09.11	358.49	9.46	-44.0	-46.6	15.1	0.00e+00	0	42	0	25165824	59	4918
2026-01-30 01:36:10.26	358.35	9.54	-44.1	-46.9	15.0	0.00e+00	0	42	0	27262976	59	5070
2026-01-30 01:36:11.12	358.25	9.59	-43.7	-46.5	15.3	0.00e+00	0	42	0	28311552	59	4815
2026-01-30 01:36:12.27	358.11	9.66	-43.8	-46.5	15.3	0.00e+00	0	42	0	30408704	59	4852
2026-01-30 01:36:13.12	358.01	9.72	-43.7	-46.4	15.3	0.00e+00	0	42	0	32505856	59	4788
2026-01-30 01:36:14.27	357.88	9.79	-43.7	-46.5	15.3	0.00e+00	0	42	0	34603008	59	4825
2026-01-30 01:36:15.13	357.77	9.84	-43.6	-46.5	15.3	0.00e+00	0	43	0	35651584	59	4832
2026-01-30 01:36:16.27	357.63	9.92	-43.6	-46.5	15.4	7.00e-07	0	43	0	37748736	59	4817
2026-01-30 01:36:17.13	357.53	9.97	-43.7	-46.7	15.1	0.00e+00	0	43	0	39845888	59	4940
2026-01-30 01:36:18.28	357.39	10.04	-43.9	-47.1	14.7	0.00e+00	0	42	0	41943040	59	5211
2026-01-30 01:36:19.14	357.28	10.10	-43.7	-46.8	15.1	0.00e+00	0	42	0	44040192	59	5003
2026-01-30 01:36:20.28	357.14	10.17	-43.6	-46.8	15.1	0.00e+00	0	42	0	46137344	58	5294
2026-01-30 01:36:21.14	357.04	10.23	-43.6	-46.8	15.0	0.00e+00	0	43	0	47185920	58	5312
2026-01-30 01:36:22.28	356.90	10.30	-43.3	-46.4	15.4	0.00e+00	0	42	0	49283072	58	5055
2026-01-30 01:36:23.15	356.79	10.35	-43.2	-46.3	15.5	0.00e+00	0	42	0	51380224	58	5019
2026-01-30 01:36:24.48	356.62	10.44	-43.2	-46.4	15.4	0.00e+00	0	43	0	53477376	58	5069
2026-01-30 01:36:25.20	356.53	10.48	-43.2	-46.5	15.3	0.00e+00	0	42	0	54525952	58	5123
2026-01-30 01:36:26.48	356.37	10.56	-43.4	-46.7	15.2	0.00e+00	0	42	0	57671680	58	5224
2026-01-30 01:36:27.20	356.28	10.61	-43.2	-46.4	15.5	0.00e+00	0	42	0	58720256	58	5066
2026-01-30 01:36:28.76	356.08	10.71	-43.2	-46.2	15.7	0.00e+00	0	43	0	61865984	58	4957
2026-01-30 01:36:29.73	355.95	10.77	-43.2	-46.2	15.7	0.00e+00	0	43	0	63963136	58	4939
2026-01-30 01:36:30.73	355.82	10.83	-43.1	-45.9	15.9	0.00e+00	0	43	0	65011712	58	4810
2026-01-30 01:36:31.73	355.69	10.90	-43.2	-46.1	15.7	0.00e+00	0	43	0	67108864	57	5206
2026-01-30 01:36:32.74	355.56	10.96	-43.0	-45.9	15.9	0.00e+00	0	43	0	69206016	57	5053
2026-01-30 01:36:33.74	355.43	11.03	-42.8	-45.7	16.1	0.00e+00	0	42	0	71303168	57	4934
2026-01-30 01:36:34.74	355.30	11.09	-42.8	-45.7	16.1	0.00e+00	0	43	0	72351744	57	4969
2026-01-30 01:36:35.75	355.17	11.15	-43.0	-46.0	15.9	0.00e+00	0	43	0	74448896	57	5106
2026-01-30 01:36:36.75	355.04	11.22	-43.3	-46.2	15.7	0.00e+00	0	43	0	76546048	57	5259
2026-01-30 01:36:37.75	354.90	11.28	-43.0	-45.8	16.0	0.00e+00	0	43	0	78643200	57	5041
2026-01-30 01:36:38.75	354.77	11.35	-43.3	-46.1	15.9	0.00e+00	0	43	0	80740352	57	5185
2026-01-30 01:36:39.76	354.63	11.41	-43.2	-46.0	15.9	0.00e+00	0	43	0	82837504	57	5101
2026-01-30 01:36:40.76	354.50	11.47	-43.2	-45.8	16.1	0.00e+00	0	43	0	83886080	57	5006
2026-01-30 01:36:41.76	354.36	11.54	-43.3	-46.0	15.9	0.00e+00	0	43	0	85983232	57	5116
2026-01-30 01:36:42.76	354.23	11.60	-43.4	-46.0	15.9	0.00e+00	0	43	0	88080384	57	5132
2026-01-30 01:36:43.77	354.09	11.67	-43.2	-45.8	16.1	0.00e+00	0	42	0	90177536	57	4995
2026-01-30 01:36:44.77	353.95	11.73	-43.1	-45.5	16.3	0.00e+00	0	43	0	91226112	57	4848
2026-01-30 01:36:45.77	353.81	11.79	-43.0	-45.4	16.5	0.00e+00	0	43	0	93323264	57	4766
2026-01-30 01:36:46.78	353.67	11.86	-42.9	-45.3	16.5	0.00e+00	0	43	0	95420416	57	4731
2026-01-30 01:36:47.78	353.53	11.92	-43.3	-45.9	16.0	0.00e+00	0	43	0	97517568	57	5057
2026-01-30 01:36:48.78	353.39	11.99	-43.2	-45.7	16.1	0.00e+00	0	43	0	99614720	57	4962
2026-01-30 01:36:49.85	353.24	12.05	-43.3	-45.9	16.0	0.00e+00	0	43	0	101711872	57	5046
2026-01-30 01:36:50.74	353.12	12.11	-43.3	-45.9	16.0	0.00e+00	0	43	0	102760448	57	5075
2026-01-30 01:36:51.89	352.96	12.18	-43.4	-46.1	15.8	0.00e+00	0	43	0	104857600	57	5196
2026-01-30 01:36:52.74	352.84	12.24	-43.3	-46.0	15.9	0.00e+00	0	43	0	106954752	57	5112
2026-01-30 01:36:53.89	352.67	12.31	-43.4	-46.1	15.8	0.00e+00	0	43	0	109051904	57	5164
2026-01-30 01:36:54.75	352.55	12.37	-43.3	-45.9	15.9	0.00e+00	0	43	0	110100480	57	5086
2026-01-30 01:36:55.89	352.38	12.44	-42.9	-45.4	16.4	0.00e+00	0	43	0	112197632	57	4809
2026-01-30 01:36:56.75	352.26	12.49	-42.9	-45.5	16.3	0.00e+00	0	43	0	114294784	57	4847
2026-01-30 01:36:57.89	352.09	12.57	-42.8	-45.2	16.6	0.00e+00	0	43	0	116391936	57	4702
2026-01-30 01:36:58.75	351.97	12.62	-42.8	-45.3	16.6	0.00e+00	0	43	0	117440512	57	4713
2026-01-30 01:36:59.90	351.80	12.70	-42.9	-45.5	16.4	0.00e+00	0	43	0	120586240	57	4838
2026-01-30 01:37:00.75	351.67	12.75	-43.0	-45.7	16.2	0.00e+00	0	43	0	121634816	57	4951
2026-01-30 01:37:01.90	351.50	12.82	-43.0	-45.7	16.2	0.00e+00	0	43	0	123731968	57	4930
2026-01-30 01:37:02.76	351.37	12.88	-42.9	-45.5	16.4	0.00e+00	0	43	0	125829120	57	4840
2026-01-30 01:37:03.91	351.20	12.95	-42.7	-45.1	16.7	0.00e+00	0	43	0	127926272	57	4650
2026-01-30 01:37:04.77	351.07	13.01	-42.8	-45.3	16.6	0.00e+00	0	43	0	128974848	57	4712
2026-01-30 01:37:06.02	350.89	13.09	-43.0	-45.2	16.7	0.00e+00	0	43	0	131072000	57	4695
2026-01-30 01:37:06.78	350.77	13.13	-42.9	-45.1	16.8	0.00e+00	0	43	0	133169152	57	4629
2026-01-30 01:37:08.23	350.55	13.23	-42.8	-44.9	16.9	0.00e+00	0	43	0	135266304	57	4536
2026-01-30 01:37:08.95	350.44	13.27	-43.1	-45.3	16.6	0.00e+00	0	43	0	137363456	57	4749
2026-01-30 01:37:10.24	350.24	13.35	-43.0	-45.1	16.8	0.00e+00	0	43	0	139460608	57	4643
2026-01-30 01:37:10.96	350.13	13.40	-43.1	-45.4	16.5	0.00e+00	0	43	0	140509184	57	4766
2026-01-30 01:37:12.25	349.93	13.48	-43.4	-45.9	16.0	0.00e+00	0	43	0	143654912	57	5055
2026-01-30 01:37:12.96	349.82	13.53	-43.3	-45.9	16.0	0.00e+00	0	43	0	144703488	57	5070
2026-01-30 01:37:14.25	349.62	13.61	-43.7	-46.5	15.3	0.00e+00	0	43	0	146800640	57	5451
2026-01-30 01:37:14.97	349.51	13.65	-43.4	-46.1	15.8	0.00e+00	0	43	0	147849216	57	5196
2026-01-30 01:37:16.26	349.30	13.73	-43.3	-46.1	15.8	0.00e+00	0	43	0	150994944	57	5182
2026-01-30 01:37:16.99	349.19	13.78	-43.3	-46.2	15.7	0.00e+00	0	43	0	152043520	57	5248
2026-01-30 01:37:18.29	348.98	13.86	-43.0	-45.7	16.2	0.00e+00	0	43	0	154140672	57	4973
2026-01-30 01:37:19.10	348.85	13.91	-42.8	-45.5	16.3	0.00e+00	0	43	0	156237824	57	4857
2026-01-30 01:37:20.24	348.67	13.99	-42.9	-45.7	16.2	0.00e+00	0	43	0	158334976	57	4952
2026-01-30 01:37:21.34	348.49	14.05	-42.8	-45.6	16.3	0.00e+00	0	43	0	160432128	57	4903
2026-01-30 01:37:22.20	348.35	14.11	-43.0	-45.9	16.1	0.00e+00	0	43	0	161480704	57	5094
2026-01-30 01:37:23.71	348.10	14.20	-43.1	-46.0	15.9	0.00e+00	0	43	0	164626432	57	5128
2026-01-30 01:37:24.43	347.99	14.25	-43.1	-45.8	16.1	0.00e+00	0	43	0	165675008	57	5033
2026-01-30 01:37:25.72	347.77	14.33	-43.3	-46.0	16.0	0.00e+00	0	43	0	168820736	57	5120
2026-01-30 01:37:26.43	347.66	14.37	-43.3	-45.9	16.0	0.00e+00	0	43	0	169869312	57	5094
2026-01-30 01:37:27.72	347.44	14.45	-43.3	-45.9	16.1	0.00e+00	0	43	0	171966464	57	5046
2026-01-30 01:37:28.43	347.33	14.50	-43.2	-45.6	16.3	0.00e+00	0	43	0	174063616	57	4913
2026-01-30 01:37:29.73	347.11	14.58	-43.2	-45.8	16.1	0.00e+00	0	43	0	176160768	57	5003
2026-01-30 01:37:30.44	346.99	14.62	-43.2	-45.7	16.3	0.00e+00	0	43	0	177209344	57	4945
2026-01-30 01:37:31.73	346.77	14.70	-43.2	-45.8	16.2	0.00e+00	0	43	0	179306496	57	4991
2026-01-30 01:37:32.58	346.63	14.76	-43.1	-45.8	16.1	0.00e+00	0	43	0	181403648	57	5041
2026-01-30 01:37:33.73	346.43	14.83	-43.2	-46.0	16.0	0.00e+00	0	43	0	183500800	57	5105
2026-01-30 01:37:34.78	346.25	14.89	-43.2	-46.0	15.9	0.00e+00	0	43	0	185597952	57	5138
2026-01-30 01:37:35.86	346.07	14.96	-43.0	-45.8	16.1	0.00e+00	0	43	0	187695104	57	5023
2026-01-30 01:37:36.86	345.90	15.02	-42.8	-45.4	16.5	0.00e+00	0	43	0	189792256	57	4801
2026-01-30 01:37:37.87	345.72	15.08	-42.8	-45.3	16.6	0.00e+00	0	43	0	190840832	57	4737
2026-01-30 01:37:38.87	345.55	15.14	-42.9	-45.4	16.5	0.00e+00	0	43	0	192937984	57	4778
2026-01-30 01:37:39.87	345.37	15.20	-43.0	-45.4	16.5	0.00e+00	0	43	0	195035136	57	4793
2026-01-30 01:37:40.87	345.20	15.27	-43.1	-45.4	16.5	0.00e+00	0	43	0	197132288	57	4791
2026-01-30 01:37:41.87	345.02	15.33	-43.5	-45.9	16.1	0.00e+00	0	43	0	199229440	57	5046
2026-01-30 01:37:42.87	344.84	15.39	-43.8	-46.3	15.7	0.00e+00	0	43	0	200278016	58	4988
2026-01-30 01:37:43.88	344.67	15.45	-43.9	-46.5	15.5	0.00e+00	0	43	0	202375168	58	5119
2026-01-30 01:37:44.88	344.49	15.51	-44.0	-46.6	15.4	0.00e+00	0	43	0	204472320	58	5200
2026-01-30 01:37:45.88	344.31	15.57	-43.8	-46.4	15.6	0.00e+00	0	43	0	206569472	58	5073
2026-01-30 01:37:46.89	344.13	15.63	-43.7	-46.4	15.6	0.00e+00	0	43	0	207618048	58	5057
2026-01-30 01:37:47.89	343.95	15.69	-43.4	-45.9	16.0	0.00e+00	0	43	0	209715200	58	4797
2026-01-30 01:37:48.89	343.76	15.75	-43.2	-45.7	16.2	0.00e+00	0	43	0	211812352	58	4687
2026-01-30 01:37:49.96	343.57	15.81	-43.3	-45.8	16.1	0.00e+00	0	43	0	213909504	58	4741
2026-01-30 01:37:50.85	343.41	15.87	-43.1	-45.6	16.3	0.00e+00	0	43	0	216006656	58	4611
2026-01-30 01:37:52.00	343.20	15.94	-43.2	-45.8	16.2	0.00e+00	0	43	0	218103808	58	4712
2026-01-30 01:37:52.86	343.04	15.99	-43.2	-45.5	16.4	0.00e+00	0	43	0	219152384	58	4579
2026-01-30 01:37:54.00	342.83	16.06	-43.2	-45.4	16.6	0.00e+00	0	43	0	221249536	58	4508
2026-01-30 01:37:54.86	342.67	16.11	-43.1	-45.3	16.7	0.00e+00	0	43	0	223346688	58	4444
2026-01-30 01:37:56.01	342.45	16.17	-43.0	-45.0	16.9	0.00e+00	0	43	0	225443840	57	4569
2026-01-30 01:37:56.87	342.29	16.22	-42.7	-44.7	17.1	0.00e+00	0	43	0	226492416	57	4432
2026-01-30 01:37:58.01	342.08	16.29	-42.3	-44.2	17.7	0.00e+00	0	43	0	228589568	56	4421
2026-01-30 01:37:59.21	341.85	16.36	-42.1	-44.1	17.8	0.00e+00	0	43	0	231735296	56	4341
2026-01-30 01:38:00.24	341.66	16.42	-42.2	-44.1	17.8	0.00e+00	0	43	0	232783872	56	4377
2026-01-30 01:38:01.24	341.47	16.48	-42.3	-44.3	17.5	0.00e+00	0	43	0	234881024	56	4483
2026-01-30 01:38:02.24	341.28	16.54	-42.4	-44.4	17.4	0.00e+00	0	43	0	236978176	56	4515
2026-01-30 01:38:03.24	341.08	16.59	-42.5	-44.6	17.3	0.00e+00	0	43	0	239075328	56	4618
2026-01-30 01:38:04.24	340.89	16.65	-42.5	-44.5	17.4	0.00e+00	0	43	0	241172480	56	4577
2026-01-30 01:38:05.25	340.70	16.71	-42.3	-44.1	17.7	0.00e+00	0	43	0	242221056	56	4391
2026-01-30 01:38:06.25	340.50	16.77	-42.1	-44.0	17.8	0.00e+00	0	43	0	244318208	56	4320
2026-01-30 01:38:07.25	340.31	16.82	-42.1	-44.0	17.9	0.00e+00	0	43	0	246415360	56	4292
2026-01-30 01:38:08.25	340.11	16.88	-41.8	-43.6	18.1	0.00e+00	0	43	0	248512512	55	4353
2026-01-30 01:38:09.26	339.91	16.94	-41.8	-43.6	18.1	0.00e+00	0	43	0	250609664	55	4373
2026-01-30 01:38:10.26	339.72	16.99	-41.8	-43.6	18.1	0.00e+00	0	43	0	251658240	55	4363
2026-01-30 01:38:11.26	339.52	17.05	-41.9	-43.7	18.0	0.00e+00	0	43	0	253755392	55	4415
2026-01-30 01:38:12.26	339.32	17.11	-41.7	-43.5	18.2	0.00e+00	0	43	0	255852544	55	4304
2026-01-30 01:38:13.34	339.10	17.17	-41.8	-43.5	18.2	0.00e+00	0	43	0	257949696	55	4328
2026-01-30 01:38:14.23	338.93	17.21	-41.7	-43.4	18.3	0.00e+00	0	43	0	258998272	55	4251
2026-01-30 01:38:15.27	338.72	17.27	-41.6	-43.2	18.5	0.00e+00	0	43	0	261095424	55	4155
2026-01-30 01:38:16.42	338.48	17.33	-41.4	-43.0	18.7	0.00e+00	0	43	0	263192576	54	4312
2026-01-30 01:38:17.35	338.30	17.39	-41.3	-42.9	18.8	0.00e+00	0	43	0	265289728	54	4261
2026-01-30 01:38:18.35	338.09	17.44	-41.3	-42.9	18.0	0.00e+00	0	43	0	267386880	54	4245
2026-01-30 01:38:19.58	337.84	17.51	-41.2	-42.7	18.9	0.00e+00	0	43	0	269484032	54	4191
2026-01-30 01:38:20.44	337.67	17.55	-41.2	-42.7	18.9	0.00e+00	0	43	0	270532608	54	4179
2026-01-30 01:38:21.58	337.43	17.61	-41.4	-42.9	18.7	0.00e+00	0	43	0	273678336	54	4291
2026-01-30 01:38:22.44	337.25	17.66	-41.4	-43.0	18.6	0.00e+00	0	43	0	274726912	54	4337
2026-01-30 01:38:23.59	337.02	17.72	-41.6	-43.2	18.4	0.00e+00	0	43	0	276824064	54	4416
2026-01-30 01:38:24.45	336.84	17.77	-41.4	-43.0	18.7	0.00e+00	0	43	0	278921216	54	4296
2026-01-30 01:38:25.59	336.60	17.83	-41.3	-42.9	18.8	0.00e+00	0	43	0	281018368	54	4249
2026-01-30 01:38:26.45	336.42	17.87	-41.2	-42.8	18.9	0.00e+00	0	43	0	282066944	54	4207
2026-01-30 01:38:27.60	336.18	17.93	-41.3	-42.9	18.8	0.00e+00	0	43	0	284164096	54	4249
2026-01-30 01:38:28.75	335.94	17.99	-41.5	-43.2	18.5	0.00e+00	0	43	0	286261248	54	4424
2026-01-30 01:38:29.60	335.76	18.03	-41.6	-43.3	18.4	0.00e+00	0	43	0	288358400	54	4477
2026-01-30 01:38:31.10	335.44	18.11	-41.9	-43.8	18.0	0.00e+00	0	43	0	291504128	54	4722
2026-01-30 01:38:31.82	335.28	18.15	-41.9	-43.8	18.0	0.00e+00	0	43	0	292552704	54	4738
2026-01-30 01:38:33.11	335.01	18.21	-41.8	-43.7	18.1	0.00e+00	0	43	0	294649856	54	4670
2026-01-30 01:38:33.83	334.85	18.25	-41.7	-43.5	18.1	0.00e+00	0	43	0	295698432	54	4585
2026-01-30 01:38:35.11	334.58	18.31	-41.5	-43.3	18.4	0.00e+00	0	43	0	298844160	54	4469
2026-01-30 01:38:35.83	334.42	18.35	-41.3	-43.0	18.7	0.00e+00	0	43	0	299892736	54	4316
2026-01-30 01:38:37.12	334.14	18.41	-41.4	-43.1	18.6	0.00e+00	0	43	0	301989888	54	4363
2026-01-30 01:38:37.88	333.98	18.45	-41.3	-43.1	18.6	0.00e+00	0	43	0	304087040	54	4354
2026-01-30 01:38:39.17	333.70	18.51	-41.4	-43.2	18.5	0.00e+00	0	43	0	306184192	54	4431
2026-01-30 01:38:39.92	333.53	18.54	-41.6	-43.4	18.4	0.00e+00	0	43	0	307232768	54	4518
2026-01-30 01:38:41.20	333.25	18.60	-41.4	-43.1	18.6	0.00e+00	0	43	0	310378496	54	4378
2026-01-30 01:38:41.92	333.09	18.64	-41.3	-42.9	18.7	0.00e+00	0	43	0	311427072	54	4288
2026-01-30 01:38:43.21	332.81	18.70	-41.0	-42.6	19.1	0.00e+00	0	43	0	313524224	53	4344
2026-01-30 01:38:44.08	332.62	18.74	-40.8	-42.3	19.3	0.00e+00	0	43	0	315621376	53	4212
2026-01-30 01:38:45.55	332.29	18.81	-40.6	-41.9	19.6	0.00e+00	0	43	0	317718528	53	4050
2026-01-30 01:38:46.26	332.13	18.84	-40.7	-42.1	19.5	0.00e+00	0	43	0	319815680	53	4143
2026-01-30 01:38:47.55	331.84	18.90	-40.7	-42.1	19.5	0.00e+00	0	43	0	321912832	53	4137
2026-01-30 01:38:48.27	331.68	18.93	-40.6	-42.0	19.6	0.00e+00	0	43	0	322961408	53	4074
2026-01-30 01:38:49.85	331.32	19.00	-40.6	-41.9	19.7	0.00e+00	0	43	0	326107136	53	4017
2026-01-30 01:38:50.46	331.18	19.03	-40.7	-42.1	19.6	0.00e+00	0	43	0	327155712	53	4103
2026-01-30 01:38:52.04	330.83	19.10	-40.6	-41.9	19.7	0.00e+00	0	43	0	330301440	53	4035
2026-01-30 01:38:52.82	330.65	19.13	-40.5	-41.8	19.7	0.00e+00	0	43	0	331350016	53	3971
2026-01-30 01:38:54.11	330.35	19.19	-40.7	-42.0	19.5	0.00e+00	0	43	0	334495744	53	4095
2026-01-30 01:38:54.83	330.19	19.22	-40.9	-42.4	19.3	0.00e+00	0	43	0	335544320	53	4252
2026-01-30 01:38:56.11	329.90	19.27	-41.2	-42.9	18.8	0.00e+00	0	43	0	337641472	53	4518
2026-01-30 01:38:56.83	329.73	19.30	-41.3	-43.0	18.7	0.00e+00	0	43	0	339738624	53	4597
2026-01-30 01:38:58.14	329.43	19.35	-41.2	-42.9	18.8	0.00e+00	0	43	0	341835776	53	4510
2026-01-30 01:38:58.85	329.26	19.38	-41.1	-42.8	18.9	0.00e+00	0	43	0	342884352	53	4480
2026-01-30 01:39:00.14	328.96	19.43	-41.0	-42.6	19.1	0.00e+00	0	43	0	344981504	53	4354
2026-01-30 01:39:00.86	328.80	19.46	-40.8	-42.4	19.3	0.00e+00	0	43	0	347078656	53	4261
2026-01-30 01:39:02.15	328.49	19.51	-40.9	-42.4	19.3	0.00e+00	0	43	0	349175808	53	4291
2026-01-30 01:39:02.86	328.33	19.54	-40.8	-42.4	19.3	0.00e+00	0	43	0	350224384	53	4251
2026-01-30 01:39:04.15	328.03	19.59	-40.9	-42.6	19.1	0.00e+00	0	43	0	353370112	53	4341
2026-01-30 01:39:04.87	327.86	19.62	-41.1	-42.8	18.9	0.00e+00	0	43	0	354418688	53	4453
2026-01-30 01:39:06.16	327.55	19.67	-41.1	-42.7	19.0	0.00e+00	0	43	0	356515840	53	4430
2026-01-30 01:39:06.87	327.38	19.69	-40.9	-42.5	19.1	0.00e+00	0	43	0	358612992	53	4337
2026-01-30 01:39:08.16	327.08	19.74	-40.9	-42.4	19.2	0.00e+00	0	43	0	360710144	53	4278
2026-01-30 01:39:08.88	326.91	19.77	-40.8	-42.2	19.4	0.00e+00	0	43	0	361758720	53	4178
2026-01-30 01:39:10.17	326.60	19.81	-40.6	-41.9	19.7	0.00e+00	0	43	0	363855872	53	4035
2026-01-30 01:39:10.88	326.43	19.84	-40.6	-41.8	19.7	0.00e+00	0	43	0	365953024	53	4002
2026-01-30 01:39:12.17	326.12	19.88	-40.5	-41.7	19.8	0.00e+00	0	43	0	368050176	52	4192
2026-01-30 01:39:12.89	325.95	19.91	-40.6	-41.9	19.8	0.00e+00	0	43	0	369098752	52	4253
2026-01-30 01:39:14.18	325.64	19.95	-40.8	-42.2	19.4	0.00e+00	0	43	0	372244480	52	4414
2026-01-30 01:39:14.90	325.47	19.98	-41.0	-42.5	19.3	0.00e+00	0	43	0	373293056	52	4550
2026-01-30 01:39:16.18	325.16	20.02	-41.2	-42.8	19.0	0.00e+00	0	43	0	375390208	53	4466
2026-01-30 01:39:16.90	324.98	20.04	-40.7	-42.1	19.5	0.00e+00	0	43	0	377487360	53	4138
2026-01-30 01:39:18.19	324.67	20.08	-40.7	-42.2	19.4	0.00e+00	0	43	0	379584512	53	4177
2026-01-30 01:39:18.91	324.50	20.10	-40.4	-41.8	19.9	0.00e+00	0	43	0	380633088	52	4203
2026-01-30 01:39:20.20	324.18	20.14	-40.2	-41.6	20.0	0.00e+00	0	43	0	382730240	52	4116
2026-01-30 01:39:20.91	324.01	20.17	-40.3	-41.7	19.9	0.00e+00	0	43	0	384827392	52	4165
2026-01-30 01:39:22.20	323.69	20.21	-40.6	-42.1	19.5	0.00e+00	0	43	0	386924544	52	4372
2026-01-30 01:39:23.00	323.50	20.23	-40.9	-42.4	19.3	0.00e+00	0	43	0	387973120	52	4529
2026-01-30 01:39:24.16	323.21	20.26	-41.3	-42.9	18.8	0.00e+00	0	43	0	390070272	53	4508
2026-01-30 01:39:25.02	323.00	20.29	-41.7	-43.4	18.4	0.00e+00	0	43	0	392167424	54	4524
2026-01-30 01:39:26.16	322.72	20.32	-41.7	-43.4	18.4	0.00e+00	0	43	0	394264576	54	4501
2026-01-30 01:39:27.02	322.51	20.34	-41.7	-43.3	18.5	0.00e+00	0	43	0	396361728	54	4478
2026-01-30 01:39:28.16	322.23	20.37	-41.6	-43.2	18.6	0.00e+00	0	43	0	398458880	54	4403
2026-01-30 01:39:29.02	322.01	20.39	-41.7	-43.3	18.5	0.00e+00	0	43	0	399507456	54	4443
2026-01-30 01:39:30.16	321.73	20.42	-41.7	-43.2	18.5	0.00e+00	0	43	0	401604608	54	4416
2026-01-30 01:39:31.03	321.51	20.45	-41.7	-43.3	18.5	0.00e+00	0	43	0	403701760	54	4460
2026-01-30 01:39:32.17	321.23	20.47	-41.9	-43.7	18.1	0.00e+00	0	43	0	405798912	54	4655
2026-01-30 01:39:33.03	321.02	20.49	-42.1	-43.9	17.9	0.00e+00	0	43	0	406847488	54	4777
2026-01-30 01:39:34.18	320.73	20.52	-42.5	-44.4	17.4	0.00e+00	0	43	0	408944640	55	4813
2026-01-30 01:39:35.03	320.52	20.54	-42.6	-44.5	17.3	0.00e+00	0	43	0	411041792	55	4856
2026-01-30 01:39:36.18	320.23	20.57	-42.7	-44.6	17.4	0.00e+00	0	43	0	413138944	56	4628
2026-01-30 01:39:37.22	319.97	20.59	-42.4	-44.3	17.6	0.00e+00	0	43	0	415236096	56	4458
2026-01-30 01:39:38.39	319.67	20.61	-42.1	-43.9	18.0	0.00e+00	0	43	0	417333248	56	4257
2026-01-30 01:39:39.25	319.46	20.63	-41.5	-43.3	18.5	0.00e+00	0	43	0	418381824	54	4467
2026-01-30 01:39:40.40	319.17	20.65	-41.4	-43.2	18.6	0.00e+00	0	43	0	421527552	54	4406
2026-01-30 01:39:41.25	318.95	20.67	-41.5	-43.3	18.5	0.00e+00	0	43	0	422576128	54	4445
2026-01-30 01:39:42.70	318.59	20.70	-42.0	-43.9	17.9	0.00e+00	0	43	0	425721856	54	4791
2026-01-30 01:39:43.41	318.41	20.71	-42.2	-44.1	17.6	0.00e+00	0	43	0	426770432	55	4651
2026-01-30 01:39:44.70	318.08	20.73	-43.0	-45.2	16.9	0.00e+00	0	43	0	428867584	56	4936
2026-01-30 01:39:45.42	317.90	20.75	-43.3	-45.4	16.6	0.00e+00	0	43	0	429916160	57	4812
2026-01-30 01:39:46.71	317.57	20.77	-43.4	-45.7	16.4	0.00e+00	0	43	0	433061888	57	4932
2026-01-30 01:39:47.42	317.39	20.78	-43.0	-45.1	17.0	0.00e+00	0	43	0	434110464	57	4613
2026-01-30 01:39:48.71	317.06	20.80	-42.6	-44.4	17.6	0.00e+00	0	43	0	436207616	57	4275
2026-01-30 01:39:49.43	316.88	20.81	-42.3	-44.1	17.8	0.00e+00	0	43	0	438304768	56	4373
2026-01-30 01:39:50.71	316.55	20.83	-42.2	-43.9	18.1	0.00e+00	0	43	0	440401920	56	4262
2026-01-30 01:39:51.43	316.37	20.84	-42.3	-44.0	17.9	0.00e+00	0	43	0	441450496	56	4334
2026-01-30 01:39:52.73	316.04	20.85	-42.7	-44.5	17.5	0.00e+00	0	43	0	444596224	56	4559
2026-01-30 01:39:53.45	315.85	20.86	-42.8	-44.6	17.4	0.00e+00	0	43	0	445644800	56	4634
2026-01-30 01:39:54.74	315.52	20.88	-42.9	-44.9	17.1	0.00e+00	0	43	0	447741952	56	4782
2026-01-30 01:39:55.46	315.34	20.89	-42.9	-44.9	17.0	0.00e+00	0	43	0	448790528	56	4791
2026-01-30 01:39:56.75	315.01	20.90	-42.6	-44.5	17.5	0.00e+00	0	43	0	451936256	56	4565
2026-01-30 01:39:57.46	314.82	20.91	-42.4	-44.2	17.7	0.00e+00	0	43	0	452984832	56	4428
2026-01-30 01:39:58.75	314.49	20.92	-42.1	-43.8	18.1	0.00e+00	0	43	0	455081984	56	4241
2026-01-30 01:39:59.46	314.31	20.92	-41.7	-43.3	18.4	0.00e+00	0	43	0	457179136	55	4232
2026-01-30 01:40:00.75	313.98	20.93	-41.6	-43.3	18.4	0.00e+00	0	43	0	459276288	55	4206
2026-01-30 01:40:01.47	313.79	20.94	-41.9	-43.6	18.1	0.00e+00	0	43	0	460324864	55	4379
2026-01-30 01:40:02.76	313.46	20.95	-42.2	-44.0	17.7	0.00e+00	0	43	0	463470592	55	4590
2026-01-30 01:40:03.48	313.28	20.95	-42.5	-44.4	17.4	0.00e+00	0	43	0	464519168	55	4765
2026-01-30 01:40:04.76	312.95	20.96	-43.0	-45.1	16.8	0.00e+00	0	43	0	466616320	56	4923
2026-01-30 01:40:05.70	312.71	20.97	-43.2	-45.3	16.6	0.00e+00	0	43	0	468713472	57	4752
2026-01-30 01:40:06.70	312.45	20.97	-43.2	-45.5	16.5	0.00e+00	0	43	0	470810624	57	4819
2026-01-30 01:40:07.70	312.19	20.97	-43.3	-45.5	16.5	0.00e+00	0	43	0	471859200	57	4818
2026-01-30 01:40:08.71	311.93	20.98	-43.2	-45.4	16.6	0.00e+00	0	43	0	473956352	57	4792
2026-01-30 01:40:09.71	311.67	20.98	-43.2	-45.3	16.7	0.00e+00	0	43	0	476053504	57	4722
2026-01-30 01:40:10.71	311.42	20.98	-42.7	-44.7	17.2	0.00e+00	0	43	0	478150656	57	4434
2026-01-30 01:40:11.71	311.16	20.98	-42.7	-44.7	17.3	0.00e+00	0	43	0	480247808	57	4417
2026-01-30 01:40:12.72	310.90	20.98	-42.5	-44.5	17.5	0.00e+00	0	43	0	481296384	57	4305
2026-01-30 01:40:13.77	310.63	20.98	-42.4	-44.3	17.7	0.00e+00	0	43	0	483393536	56	4461
2026-01-30 01:40:14.70	310.39	20.98	-42.4	-44.3	17.6	0.00e+00	0	43	0	485490688	56	4457
2026-01-30 01:40:15.71	310.13	20.98	-42.2	-44.1	17.8	0.00e+00	0	43	0	487587840	56	4367
2026-01-30 01:40:16.96	309.80	20.98	-42.0	-43.7	18.1	0.00e+00	0	43	0	489684992	56	4190
2026-01-30 01:40:17.77	309.60	20.98	-41.8	-43.5	18.2	0.00e+00	0	43	0	490733568	55	4296
2026-01-30 01:40:18.92	309.30	20.97	-41.8	-43.4	18.3	0.00e+00	0	43	0	492830720	55	4274
2026-01-30 01:40:19.78	309.08	20.97	-41.8	-43.4	18.2	0.00e+00	0	43	0	494927872	55	4289
2026-01-30 01:40:20.92	308.78	20.97	-41.7	-43.3	18.4	0.00e+00	0	43	0	497025024	55	4230
2026-01-30 01:40:21.78	308.56	20.96	-41.7	-43.3	18.4	0.00e+00	0	43	0	498073600	55	4210
2026-01-30 01:40:22.93	308.27	20.95	-41.5	-43.1	18.6	0.00e+00	0	43	0	501219328	55	4113
2026-01-30 01:40:23.79	308.05	20.95	-41.5	-43.0	18.7	0.00e+00	0	43	0	502267904	54	4307
2026-01-30 01:40:25.35	307.64	20.94	-41.7	-43.3	18.4	0.00e+00	0	43	0	505413632	54	4490
2026-01-30 01:40:26.06	307.46	20.93	-41.8	-43.5	18.3	0.00e+00	0	43	0	506462208	54	4552
2026-01-30 01:40:27.35	307.13	20.92	-42.1	-43.9	17.9	0.00e+00	0	43	0	508559360	54	4780
2026-01-30 01:40:28.07	306.95	20.92	-42.3	-44.1	17.7	0.00e+00	0	43	0	510656512	55	4621
2026-01-30 01:40:29.35	306.62	20.90	-42.5	-44.4	17.5	0.00e+00	0	43	0	512753664	55	4770
2026-01-30 01:40:30.07	306.43	20.90	-42.6	-44.6	17.2	0.00e+00	0	43	0	513802240	55	4898
2026-01-30 01:40:31.36	306.10	20.88	-43.1	-45.2	16.8	0.00e+00	0	43	0	516947968	56	4949
2026-01-30 01:40:32.07	305.92	20.88	-42.9	-44.9	17.1	0.00e+00	0	43	0	517996544	56	4780
2026-01-30 01:40:33.37	305.59	20.86	-42.7	-44.6	17.4	0.00e+00	0	43	0	520093696	56	4615
2026-01-30 01:40:34.08	305.41	20.85	-42.6	-44.3	17.6	0.00e+00	0	43	0	521142272	56	4487
2026-01-30 01:40:35.37	305.08	20.83	-41.7	-43.2	18.5	0.00e+00	0	43	0	524288000	55	4169
2026-01-30 01:40:36.09	304.89	20.82	-41.4	-42.8	18.9	0.00e+00	0	43	0	525336576	54	4221
2026-01-30 01:40:37.37	304.57	20.81	-41.2	-42.6	19.1	0.00e+00	0	43	0	527433728	54	4110
2026-01-30 01:40:38.09	304.38	20.80	-41.2	-42.5	19.2	0.00e+00	0	43	0	529530880	54	4090
2026-01-30 01:40:39.54	304.01	20.77	-40.9	-42.2	19.4	0.00e+00	0	43	0	531628032	53	4172
2026-01-30 01:40:40.26	303.83	20.76	-40.9	-42.2	19.4	0.00e+00	0	43	0	533725184	53	4161
2026-01-30 01:40:41.54	303.50	20.74	-41.0	-42.3	19.3	0.00e+00	0	43	0	535822336	53	4238
2026-01-30 01:40:42.26	303.32	20.73	-40.9	-42.2	19.5	0.00e+00	0	43	0	536870912	53	4162
2026-01-30 01:40:43.68	302.96	20.70	-41.0	-42.3	19.3	0.00e+00	0	43	0	540016640	53	4238
2026-01-30 01:40:44.39	302.78	20.69	-40.9	-42.2	19.4	0.00e+00	0	43	0	541065216	53	4177
2026-01-30 01:40:45.73	302.44	20.66	-40.9	-42.2	19.4	0.00e+00	0	43	0	543162368	53	4173
2026-01-30 01:40:46.45	302.26	20.65	-41.1	-42.4	19.4	0.00e+00	0	43	0	545259520	53	4255
2026-01-30 01:40:47.73	301.94	20.62	-41.5	-42.8	19.0	0.00e+00	0	43	0	547356672	53	4455
2026-01-30 01:40:48.45	301.76	20.61	-41.3	-42.6	19.1	0.00e+00	0	43	0	548405248	53	4372
2026-01-30 01:40:49.74	301.43	20.58	-41.5	-42.8	19.0	0.00e+00	0	43	0	550502400	53	4450
2026-01-30 01:40:50.45	301.25	20.57	-41.5	-42.8	18.9	0.00e+00	0	43	0	552599552	54	4233
2026-01-30 01:40:51.74	300.93	20.54	-41.1	-42.3	19.4	0.00e+00	0	43	0	554696704	54	3998
2026-01-30 01:40:52.46	300.75	20.52	-41.1	-42.3	19.4	0.00e+00	0	43	0	555745280	54	3989
2026-01-30 01:40:53.75	300.43	20.49	-40.8	-42.0	19.6	0.00e+00	0	43	0	558891008	53	4091
2026-01-30 01:40:54.46	300.25	20.47	-40.8	-42.0	19.7	0.00e+00	0	43	0	559939584	53	4091
2026-01-30 01:40:55.76	299.93	20.44	-40.6	-41.8	19.9	0.00e+00	0	43	0	562036736	53	3989
2026-01-30 01:40:56.49	299.75	20.42	-40.7	-41.8	19.8	0.00e+00	0	43	0	564133888	53	3997
2026-01-30 01:40:57.78	299.42	20.39	-40.7	-41.9	19.7	0.00e+00	0	43	0	566231040	53	4044
2026-01-30 01:40:58.50	299.25	20.37	-40.8	-42.0	19.6	0.00e+00	0	43	0	567279616	53	4083
2026-01-30 01:40:59.78	298.93	20.34	-40.9	-42.1	19.5	0.00e+00	0	43	0	569376768	53	4144
2026-01-30 01:41:00.50	298.75	20.32	-41.0	-42.3	19.4	0.00e+00	0	43	0	571473920	53	4213
2026-01-30 01:41:01.79	298.43	20.28	-41.1	-42.5	19.3	0.00e+00	0	43	0	573571072	53	4292
2026-01-30 01:41:02.50	298.26	20.26	-41.3	-42.6	19.1	0.00e+00	0	43	0	574619648	53	4369
2026-01-30 01:41:03.79	297.94	20.22	-41.2	-42.5	19.2	0.00e+00	0	43	0	577765376	53	4299
2026-01-30 01:41:04.51	297.76	20.20	-41.3	-42.6	19.1	0.00e+00	0	43	0	578813952	53	4389
2026-01-30 01:41:05.80	297.45	20.16	-41.1	-42.4	19.2	0.00e+00	0	43	0	580911104	53	4281
2026-01-30 01:41:06.51	297.27	20.14	-41.3	-42.6	19.1	0.00e+00	0	43	0	581959680	53	4356
2026-01-30 01:41:07.80	296.96	20.10	-41.4	-42.7	19.0	0.00e+00	0	43	0	585105408	53	4404
2026-01-30 01:41:08.52	296.78	20.08	-41.4	-42.7	19.0	0.00e+00	0	43	0	586153984	53	4413
2026-01-30 01:41:09.81	296.47	20.04	-41.2	-42.5	19.3	0.00e+00	0	43	0	588251136	53	4292
2026-01-30 01:41:10.53	296.30	20.01	-41.4	-42.7	19.0	0.00e+00	0	43	0	590348288	53	4417
2026-01-30 01:41:11.81	295.99	19.97	-41.5	-42.9	18.9	0.00e+00	0	43	0	592445440	53	4501
2026-01-30 01:41:12.53	295.81	19.95	-41.7	-43.1	18.7	0.00e+00	0	43	0	593494016	54	4382
2026-01-30 01:41:13.82	295.50	19.90	-42.1	-43.6	18.2	0.00e+00	0	43	0	596639744	54	4637
2026-01-30 01:41:14.68	295.30	19.87	-42.5	-44.2	17.7	0.00e+00	0	43	0	597688320	55	4667
2026-01-30 01:41:16.13	294.95	19.82	-42.5	-44.1	17.7	0.00e+00	0	43	0	600834048	55	4645
2026-01-30 01:41:16.84	294.78	19.80	-42.8	-44.5	17.5	0.00e+00	0	43	0	601882624	56	4582
2026-01-30 01:41:18.13	294.47	19.75	-42.6	-44.1	17.8	0.00e+00	0	43	0	603979776	56	4387
2026-01-30 01:41:18.85	294.30	19.73	-42.6	-44.2	17.8	0.00e+00	0	43	0	606076928	56	4409
2026-01-30 01:41:20.14	293.99	19.68	-42.4	-43.9	18.0	0.00e+00	0	43	0	608174080	56	4283
2026-01-30 01:41:20.90	293.81	19.65	-42.4	-43.9	18.1	0.00e+00	0	43	0	609222656	56	4282
2026-01-30 01:41:22.18	293.51	19.60	-42.2	-43.7	18.2	0.00e+00	0	43	0	611319808	56	4186
2026-01-30 01:41:22.90	293.34	19.57	-42.4	-43.9	18.0	0.00e+00	0	43	0	613416960	56	4283
2026-01-30 01:41:24.19	293.04	19.52	-42.4	-43.9	18.0	0.00e+00	0	43	0	615514112	56	4288
2026-01-30 01:41:24.91	292.87	19.50	-42.7	-44.3	17.7	0.00e+00	0	43	0	616562688	56	4458
2026-01-30 01:41:26.20	292.57	19.44	-42.7	-44.3	17.7	0.00e+00	0	43	0	619708416	56	4456
2026-01-30 01:41:26.91	292.40	19.42	-42.7	-44.3	17.7	0.00e+00	0	43	0	620756992	56	4471
2026-01-30 01:41:28.20	292.10	19.36	-43.0	-44.7	17.3	0.00e+00	0	43	0	622854144	56	4662
2026-01-30 01:41:28.92	291.94	19.33	-42.9	-44.5	17.5	0.00e+00	0	43	0	624951296	56	4590
2026-01-30 01:41:30.21	291.64	19.28	-42.9	-44.6	17.4	0.00e+00	0	43	0	627048448	56	4621
2026-01-30 01:41:30.92	291.48	19.25	-43.1	-44.8	17.2	0.00e+00	0	43	0	628097024	56	4742
2026-01-30 01:41:32.21	291.18	19.20	-43.0	-44.8	17.3	0.00e+00	0	43	0	630194176	56	4707
2026-01-30 01:41:32.93	291.01	19.17	-42.8	-44.4	17.5	0.00e+00	0	43	0	632291328	56	4528
2026-01-30 01:41:34.22	290.72	19.11	-42.7	-44.3	17.7	0.00e+00	0	43	0	634388480	56	4454
2026-01-30 01:41:35.00	290.54	19.08	-42.5	-44.1	17.9	0.00e+00	0	43	0	635437056	56	4359
2026-01-30 01:41:36.61	290.17	19.01	-42.3	-43.8	18.2	0.00e+00	0	43	0	638582784	56	4214
2026-01-30 01:41:37.45	289.98	18.97	-42.3	-43.8	18.2	0.00e+00	0	43	0	640679936	56	4210
2026-01-30 01:41:38.59	289.73	18.92	-42.5	-44.0	18.0	0.00e+00	0	43	0	642777088	56	4299
2026-01-30 01:41:39.80	289.45	18.86	-42.6	-44.1	17.9	0.00e+00	0	43	0	644874240	56	4363
2026-01-30 01:41:40.84	289.22	18.82	-42.4	-43.9	18.0	0.00e+00	0	43	0	646971392	56	4288
2026-01-30 01:41:42.01	288.96	18.76	-42.5	-44.0	18.0	0.00e+00	0	43	0	649068544	56	4332
2026-01-30 01:41:42.87	288.77	18.72	-42.4	-43.9	18.1	0.00e+00	0	43	0	650117120	56	4263
2026-01-30 01:41:44.02	288.51	18.67	-42.2	-43.7	18.3	0.00e+00	0	43	0	653262848	56	4156
2026-01-30 01:41:44.88	288.32	18.63	-42.3	-43.7	18.2	0.00e+00	0	43	0	654311424	56	4182
2026-01-30 01:41:46.02	288.07	18.57	-42.1	-43.5	18.4	0.00e+00	0	43	0	656408576	56	4073
2026-01-30 01:41:46.88	287.88	18.53	-41.9	-43.3	18.5	0.00e+00	0	43	0	658505728	55	4210
2026-01-30 01:41:48.03	287.63	18.48	-41.5	-42.9	18.8	0.00e+00	0	43	0	660602880	55	4006
2026-01-30 01:41:48.88	287.44	18.44	-41.4	-42.6	19.0	0.00e+00	0	43	0	661651456	54	4127
2026-01-30 01:41:50.03	287.19	18.38	-41.2	-42.4	19.3	0.00e+00	0	43	0	663748608	54	4030
2026-01-30 01:41:50.89	287.01	18.34	-41.3	-42.5	19.2	0.00e+00	0	43	0	665845760	54	4077
2026-01-30 01:41:52.04	286.76	18.28	-41.2	-42.5	19.2	0.00e+00	0	43	0	667942912	54	4059
2026-01-30 01:41:52.90	286.57	18.24	-41.2	-42.4	19.2	0.00e+00	0	43	0	668991488	54	4049
2026-01-30 01:41:54.04	286.33	18.18	-41.1	-42.3	19.3	0.00e+00	0	43	0	671088640	54	3977
2026-01-30 01:41:54.90	286.14	18.14	-41.2	-42.5	19.2	0.00e+00	0	43	0	673185792	54	4065
2026-01-30 01:41:56.05	285.90	18.08	-41.4	-42.7	19.0	0.00e+00	0	43	0	675282944	54	4154
2026-01-30 01:41:56.90	285.72	18.03	-41.9	-43.4	18.5	0.00e+00	0	43	0	677380096	54	4495
2026-01-30 01:41:58.05	285.47	17.98	-42.4	-44.0	17.9	0.00e+00	0	43	0	679477248	55	4554
2026-01-30 01:41:59.12	285.25	17.92	-43.0	-44.8	17.2	0.00e+00	0	43	0	681574400	56	4714
2026-01-30 01:42:00.15	285.03	17.87	-43.3	-45.1	16.9	0.00e+00	0	43	0	682622976	57	4649
2026-01-30 01:42:01.32	284.78	17.81	-43.5	-45.3	16.6	0.00e+00	0	43	0	684720128	57	4745
2026-01-30 01:42:02.23	284.59	17.76	-43.3	-45.1	16.9	0.00e+00	0	43	0	686817280	57	4607
2026-01-30 01:42:03.44	284.34	17.69	-43.1	-44.9	17.1	0.00e+00	0	43	0	688914432	57	4510
2026-01-30 01:42:04.30	284.16	17.65	-43.2	-44.9	17.0	0.00e+00	0	43	0	691011584	57	4532
2026-01-30 01:42:05.62	283.89	17.58	-43.2	-45.0	17.0	0.00e+00	0	43	0	693108736	57	4569
2026-01-30 01:42:06.34	283.74	17.54	-43.3	-45.1	16.9	0.00e+00	0	43	0	694157312	57	4625
2026-01-30 01:42:07.63	283.48	17.47	-44.0	-46.0	16.0	0.00e+00	0	43	0	697303040	58	4853
2026-01-30 01:42:08.35	283.33	17.43	-44.1	-46.2	15.8	0.00e+00	0	43	0	698351616	58	4959
2026-01-30 01:42:09.64	283.07	17.36	-44.2	-46.4	15.5	0.00e+00	0	43	0	700448768	59	4797
2026-01-30 01:42:10.35	282.92	17.32	-44.3	-46.5	15.7	0.00e+00	0	43	0	702545920	59	4818
2026-01-30 01:42:12.01	282.59	17.23	-44.3	-46.5	15.6	0.00e+00	0	43	0	705691648	59	4825
2026-01-30 01:42:12.58	282.47	17.20	-44.1	-46.3	15.8	0.00e+00	0	43	0	706740224	59	4712
2026-01-30 01:42:14.17	282.15	17.11	-43.3	-45.0	16.9	0.00e+00	0	43	0	708837376	58	4332
2026-01-30 01:42:14.95	282.00	17.07	-42.8	-44.5	17.4	0.00e+00	0	43	0	710934528	57	4307
2026-01-30 01:42:16.24	281.74	16.99	-42.4	-44.0	17.9	0.00e+00	0	43	0	713031680	56	4316
2026-01-30 01:42:16.96	281.60	16.95	-42.1	-43.5	18.3	0.00e+00	0	43	0	714080256	56	4098
2026-01-30 01:42:18.24	281.35	16.88	-42.0	-43.4	18.4	0.00e+00	0	43	0	717225984	55	4280
2026-01-30 01:42:18.96	281.20	16.84	-41.7	-43.1	18.6	0.00e+00	0	43	0	718274560	55	4128
2026-01-30 01:42:20.25	280.95	16.77	-41.6	-43.0	18.6	0.00e+00	0	43	0	720371712	55	4079
2026-01-30 01:42:20.97	280.81	16.73	-41.9	-43.3	18.4	0.00e+00	0	43	0	722468864	55	4237
2026-01-30 01:42:22.26	280.56	16.65	-41.7	-43.1	18.6	0.00e+00	0	43	0	724566016	55	4139
2026-01-30 01:42:22.97	280.42	16.61	-41.9	-43.3	18.4	0.00e+00	0	43	0	725614592	55	4217
2026-01-30 01:42:24.26	280.17	16.54	-42.1	-43.6	18.1	0.00e+00	0	43	0	728760320	55	4363
2026-01-30 01:42:24.98	280.03	16.49	-42.2	-43.8	18.0	0.00e+00	0	43	0	729808896	55	4445
2026-01-30 01:42:26.27	279.79	16.42	-42.7	-44.3	17.6	0.00e+00	0	43	0	731906048	56	4457
2026-01-30 01:42:26.98	279.65	16.38	-42.9	-44.5	17.4	0.00e+00	0	43	0	732954624	56	4591
2026-01-30 01:42:28.27	279.41	16.30	-43.1	-44.9	17.0	0.00e+00	0	43	0	736100352	57	4509
2026-01-30 01:42:28.99	279.27	16.26	-42.9	-44.6	17.4	0.00e+00	0	43	0	737148928	57	4341
2026-01-30 01:42:30.28	279.03	16.18	-42.6	-44.2	17.7	0.00e+00	0	43	0	739246080	56	4397
2026-01-30 01:42:31.00	278.89	16.14	-42.2	-43.6	18.2	0.00e+00	0	43	0	741343232	56	4141
2026-01-30 01:42:32.29	278.65	16.07	-41.8	-43.2	18.4	0.00e+00	0	43	0	743440384	55	4183
2026-01-30 01:42:33.00	278.52	16.02	-41.7	-43.2	18.5	0.00e+00	0	43	0	744488960	55	4157
2026-01-30 01:42:34.29	278.28	15.95	-41.8	-43.3	18.3	0.00e+00	0	43	0	746586112	55	4228
2026-01-30 01:42:35.28	278.10	15.89	-42.1	-43.7	18.0	0.00e+00	0	43	0	748683264	55	4392
2026-01-30 01:42:36.28	277.91	15.83	-42.4	-44.0	17.7	0.00e+00	0	43	0	750780416	55	4571
2026-01-30 01:42:37.28	277.73	15.77	-42.9	-44.6	17.3	0.00e+00	0	43	0	752877568	56	4613
2026-01-30 01:42:38.29	277.55	15.71	-43.4	-45.3	16.6	0.00e+00	0	43	0	754974720	57	4755
2026-01-30 01:42:39.29	277.37	15.65	-43.7	-45.7	16.2	0.00e+00	0	43	0	756023296	58	4689
2026-01-30 01:42:40.29	277.18	15.59	-43.8	-45.8	16.1	0.00e+00	0	43	0	758120448	58	4739
2026-01-30 01:42:41.30	277.00	15.52	-43.8	-45.8	16.2	0.00e+00	0	43	0	760217600	58	4710
2026-01-30 01:42:42.30	276.82	15.46	-43.8	-45.8	16.1	0.00e+00	0	43	0	762314752	58	4748
2026-01-30 01:42:43.30	276.64	15.40	-43.7	-45.6	16.3	0.00e+00	0	43	0	764411904	58	4637
2026-01-30 01:42:44.33	276.46	15.34	-43.6	-45.5	16.4	0.00e+00	0	43	0	765460480	58	4587
2026-01-30 01:42:45.36	276.28	15.28	-43.4	-45.3	16.6	0.00e+00	0	43	0	767557632	58	4464
2026-01-30 01:42:46.40	276.10	15.21	-43.3	-45.1	16.8	0.00e+00	0	43	0	769654784	58	4377
2026-01-30 01:42:47.29	275.94	15.16	-43.3	-45.0	16.9	0.00e+00	0	43	0	771751936	58	4332
2026-01-30 01:42:48.63	275.70	15.08	-43.3	-45.1	16.8	0.00e+00	0	43	0	773849088	58	4391
2026-01-30 01:42:49.35	275.58	15.03	-43.3	-45.1	16.8	0.00e+00	0	43	0	774897664	58	4361
2026-01-30 01:42:50.64	275.36	14.95	-43.2	-45.0	17.0	0.00e+00	0	43	0	778043392	58	4309
2026-01-30 01:42:51.35	275.23	14.91	-43.2	-44.9	17.0	0.00e+00	0	43	0	779091968	58	4274
2026-01-30 01:42:52.64	275.01	14.83	-43.0	-44.7	17.2	0.00e+00	0	43	0	781189120	58	4190
2026-01-30 01:42:53.36	274.89	14.78	-42.9	-44.7	17.2	0.00e+00	0	43	0	783286272	57	4393
2026-01-30 01:42:54.65	274.67	14.70	-42.8	-44.5	17.4	0.00e+00	0	43	0	785383424	57	4312
2026-01-30 01:42:55.46	274.53	14.65	-42.9	-44.6	17.3	0.00e+00	0	43	0	786432000	57	4357
2026-01-30 01:42:56.61	274.34	14.58	-43.0	-44.7	17.2	0.00e+00	0	43	0	788529152	57	4424
2026-01-30 01:42:57.69	274.15	14.51	-43.3	-45.1	16.8	0.00e+00	0	43	0	790626304	57	4623
2026-01-30 01:42:58.76	273.98	14.45	-43.6	-45.6	16.3	0.00e+00	0	43	0	792723456	57	4913
2026-01-30 01:42:59.81	273.80	14.38	-43.8	-45.8	16.1	0.00e+00	0	43	0	794820608	58	4739
2026-01-30 01:43:00.88	273.62	14.32	-43.8	-45.9	16.0	0.00e+00	0	43	0	796917760	58	4805
2026-01-30 01:43:01.74	273.48	14.26	-43.7	-45.8	16.1	0.00e+00	0	43	0	797966336	58	4719
2026-01-30 01:43:02.89	273.29	14.19	-43.6	-45.5	16.4	0.00e+00	0	43	0	801112064	58	4598
2026-01-30 01:43:03.74	273.15	14.14	-43.3	-45.1	16.7	0.00e+00	0	43	0	802160640	58	4381
2026-01-30 01:43:04.89	272.96	14.06	-42.9	-44.6	17.2	0.00e+00	0	43	0	804257792	57	4377
2026-01-30 01:43:05.75	272.82	14.01	-42.8	-44.5	17.4	0.00e+00	0	43	0	806354944	57	4316
2026-01-30 01:43:06.90	272.64	13.94	-42.7	-44.4	17.4	0.00e+00	0	43	0	808452096	57	4265
2026-01-30 01:43:07.76	272.50	13.88	-42.7	-44.3	17.5	0.00e+00	0	43	0	809500672	57	4226
2026-01-30 01:43:08.90	272.32	13.81	-42.8	-44.4	17.4	0.00e+00	0	43	0	811597824	57	4280
2026-01-30 01:43:09.76	272.18	13.76	-42.9	-44.6	17.2	0.00e+00	0	43	0	813694976	57	4368
2026-01-30 01:43:10.91	272.00	13.68	-43.1	-44.8	17.1	0.00e+00	0	43	0	815792128	57	4483
2026-01-30 01:43:11.77	271.86	13.63	-43.0	-44.7	17.1	0.00e+00	0	43	0	816840704	57	4425
2026-01-30 01:43:13.12	271.65	13.54	-43.2	-45.0	16.9	0.00e+00	0	43	0	819986432	57	4586
2026-01-30 01:43:13.83	271.54	13.50	-43.3	-45.0	16.8	0.00e+00	0	43	0	821035008	57	4595
2026-01-30 01:43:15.12	271.33	13.42	-43.3	-45.1	16.7	0.00e+00	0	43	0	823132160	57	4642
2026-01-30 01:43:15.84	271.22	13.37	-43.2	-45.0	16.8	0.00e+00	0	43	0	825229312	57	4565
2026-01-30 01:43:17.13	271.02	13.29	-43.2	-45.0	16.8	0.00e+00	0	43	0	827326464	57	4590
2026-01-30 01:43:17.91	270.90	13.24	-43.1	-44.9	16.9	0.00e+00	0	43	0	828375040	57	4543
2026-01-30 01:43:19.20	270.70	13.16	-42.9	-44.7	17.2	0.00e+00	0	43	0	831520768	57	4393
2026-01-30 01:43:19.99	270.58	13.11	-42.7	-44.4	17.4	0.00e+00	0	43	0	832569344	57	4274
2026-01-30 01:43:21.15	270.41	13.03	-42.5	-44.2	17.6	0.00e+00	0	43	0	834666496	57	4178
2026-01-30 01:43:22.23	270.24	12.96	-42.4	-44.0	17.8	0.00e+00	0	43	0	836763648	56	4327
2026-01-30 01:43:23.26	270.09	12.90	-42.5	-44.1	17.7	0.00e+00	0	43	0	838860800	56	4365
2026-01-30 01:43:24.45	269.91	12.82	-42.5	-44.1	17.7	0.00e+00	0	43	0	840957952	56	4370
2026-01-30 01:43:25.35	269.78	12.76	-42.2	-43.8	18.0	0.00e+00	0	43	0	843055104	56	4210
2026-01-30 01:43:26.37	269.62	12.70	-42.1	-43.6	18.1	0.00e+00	0	43	0	845152256	56	4137
2026-01-30 01:43:27.37	269.48	12.63	-42.1	-43.6	18.2	0.00e+00	0	43	0	846200832	56	4119
2026-01-30 01:43:28.37	269.33	12.57	-41.6	-43.0	18.5	0.00e+00	0	43	0	848297984	55	4064
2026-01-30 01:43:29.37	269.18	12.51	-41.7	-43.1	18.5	0.00e+00	0	43	0	850395136	55	4127
2026-01-30 01:43:30.38	269.03	12.44	-41.6	-43.0	18.6	0.00e+00	0	43	0	852492288	55	4058
2026-01-30 01:43:31.38	268.89	12.38	-41.4	-42.8	18.8	0.00e+00	0	43	0	853540864	54	4209
2026-01-30 01:43:32.38	268.74	12.31	-41.5	-42.9	18.7	0.00e+00	0	43	0	855638016	54	4262
2026-01-30 01:43:33.38	268.60	12.25	-41.4	-42.7	18.8	0.00e+00	0	43	0	857735168	54	4180
2026-01-30 01:43:34.39	268.46	12.19	-41.3	-42.6	18.9	0.00e+00	0	43	0	859832320	54	4118
2026-01-30 01:43:35.39	268.31	12.12	-41.3	-42.7	18.8	0.00e+00	0	43	0	861929472	54	4172
2026-01-30 01:43:36.39	268.17	12.06	-41.6	-43.0	18.5	0.00e+00	0	43	0	862978048	54	4319
2026-01-30 01:43:37.47	268.02	11.99	-41.7	-43.2	18.3	0.00e+00	0	43	0	865075200	54	4420
2026-01-30 01:43:38.36	267.89	11.93	-41.8	-43.3	18.3	0.00e+00	0	43	0	867172352	54	4462
2026-01-30 01:43:39.50	267.73	11.86	-42.2	-43.7	17.9	0.00e+00	0	43	0	869269504	54	4695
2026-01-30 01:43:40.36	267.61	11.80	-42.2	-43.8	17.8	0.00e+00	0	43	0	871366656	55	4478
2026-01-30 01:43:41.51	267.45	11.73	-42.3	-43.9	17.7	0.00e+00	0	43	0	873463808	55	4527
2026-01-30 01:43:42.37	267.33	11.67	-42.2	-43.8	17.8	0.00e+00	0	43	0	874512384	55	4480
2026-01-30 01:43:43.51	267.18	11.60	-42.4	-44.0	17.5	0.00e+00	0	43	0	876609536	55	4583
2026-01-30 01:43:44.37	267.06	11.55	-41.9	-43.5	18.1	0.00e+00	0	43	0	878706688	55	4294
2026-01-30 01:43:45.52	266.90	11.47	-42.1	-43.6	17.9	0.00e+00	0	43	0	880803840	55	4389
2026-01-30 01:43:46.38	266.78	11.42	-41.9	-43.4	18.1	0.00e+00	0	43	0	881852416	55	4261
2026-01-30 01:43:47.52	266.63	11.34	-41.5	-43.0	18.5	0.00e+00	0	43	0	883949568	55	4063
2026-01-30 01:43:48.38	266.51	11.29	-41.5	-42.9	18.6	0.00e+00	0	43	0	886046720	54	4288
2026-01-30 01:43:49.53	266.36	11.22	-41.6	-43.0	18.5	0.00e+00	0	43	0	888143872	54	4312
2026-01-30 01:43:50.39	266.24	11.16	-41.4	-42.8	18.7	0.00e+00	0	43	0	889192448	54	4214
2026-01-30 01:43:51.53	266.09	11.09	-41.5	-42.9	18.6	0.00e+00	0	43	0	892338176	54	4277
2026-01-30 01:43:52.39	265.98	11.03	-41.6	-43.0	18.5	0.00e+00	0	43	0	893386752	54	4325
2026-01-30 01:43:53.54	265.83	10.96	-41.6	-43.0	18.5	0.00e+00	0	43	0	895483904	54	4323
2026-01-30 01:43:54.40	265.71	10.90	-41.8	-43.3	18.2	0.00e+00	0	43	0	897581056	54	4455
2026-01-30 01:43:55.54	265.56	10.83	-41.8	-43.3	18.3	0.00e+00	0	43	0	899678208	54	4460
2026-01-30 01:43:56.41	265.45	10.78	-41.9	-43.4	18.2	0.00e+00	0	43	0	900726784	54	4522
2026-01-30 01:43:57.55	265.30	10.70	-42.1	-43.7	17.9	0.00e+00	0	43	0	902823936	54	4657
2026-01-30 01:43:58.41	265.19	10.65	-42.3	-43.9	17.7	0.00e+00	0	43	0	904921088	55	4494
2026-01-30 01:43:59.56	265.05	10.58	-42.3	-43.9	17.6	0.00e+00	0	43	0	907018240	55	4521
2026-01-30 01:44:00.42	264.94	10.52	-42.4	-44.1	17.5	0.00e+00	0	43	0	908066816	55	4627
2026-01-30 01:44:01.56	264.79	10.45	-42.6	-44.4	17.2	0.00e+00	0	43	0	910163968	55	4780
2026-01-30 01:44:02.43	264.68	10.39	-42.8	-44.5	17.2	0.00e+00	0	43	0	912261120	56	4562
2026-01-30 01:44:03.57	264.54	10.32	-43.0	-44.8	16.9	0.00e+00	0	43	0	914358272	56	4742
2026-01-30 01:44:04.43	264.43	10.26	-43.0	-44.8	16.9	0.00e+00	0	43	0	916455424	56	4745
2026-01-30 01:44:05.57	264.29	10.19	-43.0	-44.9	16.8	0.00e+00	0	43	0	918552576	56	4808
2026-01-30 01:44:06.43	264.18	10.14	-43.0	-44.9	16.8	0.00e+00	0	43	0	919601152	56	4806
2026-01-30 01:44:07.58	264.04	10.06	-43.0	-45.0	16.8	0.00e+00	0	43	0	921698304	56	4829
2026-01-30 01:44:08.44	263.93	10.01	-42.9	-44.8	16.9	0.00e+00	0	43	0	923795456	56	4730
2026-01-30 01:44:09.58	263.79	9.94	-42.4	-44.2	17.5	0.00e+00	0	43	0	925892608	56	4409
2026-01-30 01:44:10.44	263.68	9.88	-42.4	-44.2	17.5	0.00e+00	0	43	0	926941184	56	4415
2026-01-30 01:44:11.63	263.54	9.81	-41.8	-43.4	18.1	0.00e+00	0	43	0	929038336	55	4289
2026-01-30 01:44:12.49	263.44	9.75	-41.8	-43.4	18.0	0.00e+00	0	43	0	931135488	55	4287
2026-01-30 01:44:13.64	263.30	9.68	-41.6	-43.2	18.3	0.00e+00	0	43	0	933232640	55	4155
2026-01-30 01:44:14.50	263.19	9.63	-41.7	-43.2	18.2	0.00e+00	0	43	0	935329792	55	4185
2026-01-30 01:44:15.64	263.06	9.55	-41.7	-43.2	18.3	0.00e+00	0	43	0	937426944	55	4189
2026-01-30 01:44:16.50	262.95	9.50	-41.6	-43.2	18.3	0.00e+00	0	43	0	938475520	55	4149
2026-01-30 01:44:17.65	262.82	9.43	-41.9	-43.5	18.0	0.00e+00	0	43	0	940572672	55	4318
2026-01-30 01:44:18.51	262.72	9.37	-41.9	-43.5	18.0	0.00e+00	0	43	0	942669824	55	4292
2026-01-30 01:44:19.91	262.55	9.28	-42.5	-44.2	17.3	0.00e+00	0	43	0	944766976	55	4672
2026-01-30 01:44:20.63	262.47	9.24	-42.6	-44.3	17.2	0.00e+00	0	43	0	946864128	55	4741
2026-01-30 01:44:21.91	262.32	9.16	-43.0	-44.8	16.9	0.00e+00	0	43	0	948961280	56	4725
2026-01-30 01:44:22.63	262.24	9.11	-43.0	-44.9	16.7	0.00e+00	0	43	0	950009856	56	4798
2026-01-30 01:44:23.92	262.09	9.03	-43.1	-45.0	16.6	0.00e+00	0	43	0	952107008	57	4584
2026-01-30 01:44:24.63	262.01	8.99	-45.6	-49.1	13.1	0.00e+00	0	43	0	954204160	61	5794
2026-01-30 01:44:25.92	261.86	8.91	-48.5	-62.9	3.8	1.49e+00	0	43	104	954204160	67	20096
2026-01-30 01:44:26.64	261.78	8.86	-48.5	-62.7	3.8	1.49e+00	0	43	104	954204160	67	19693
2026-01-30 01:44:27.93	261.63	8.78	-48.1	-62.9	3.8	1.49e+00	0	43	104	954204160	67	20218
2026-01-30 01:44:28.65	261.55	8.74	-48.5	-62.9	3.8	1.49e+00	0	43	104	954204160	67	20212
2026-01-30 01:44:29.94	261.40	8.65	-48.7	-63.1	3.8	1.49e+00	0	43	104	954204160	68	19472
2026-01-30 01:44:30.66	261.32	8.61	-48.8	-63.1	3.8	1.49e+00	0	43	104	954204160	68	19524
2026-01-30 01:44:31.95	261.18	8.53	-48.9	-63.1	3.8	1.49e+00	0	43	104	954204160	68	19482
2026-01-30 01:44:32.67	261.10	8.48	-48.8	-63.1	3.8	1.49e+00	0	43	104	954204160	68	19464
2026-01-30 01:44:33.96	260.96	8.40	-48.7	-63.0	3.8	1.49e+00	0	43	104	954204160	68	19337
2026-01-30 01:44:34.67	260.88	8.36	-48.7	-63.0	3.8	1.49e+00	0	43	104	954204160	68	19380
2026-01-30 01:44:35.97	260.74	8.28	-48.7	-63.0	3.8	1.49e+00	0	43	104	954204160	68	19241
2026-01-30 01:44:36.68	260.66	8.23	-48.7	-63.1	3.8	1.49e+00	0	43	104	954204160	68	19415
2026-01-30 01:44:37.97	260.52	8.15	-48.7	-63.0	3.8	1.49e+00	0	43	104	954204160	68	19244
2026-01-30 01:44:38.69	260.44	8.11	-48.7	-63.0	3.8	1.49e+00	0	43	104	954204160	68	19341
2026-01-30 01:44:39.98	260.30	8.03	-48.7	-63.0	3.8	1.49e+00	0	43	104	954204160	68	19372
2026-01-30 01:44:40.70	260.23	7.98	-48.7	-63.0	3.8	1.49e+00	0	43	104	954204160	68	19232
2026-01-30 01:44:41.99	260.09	7.90	-48.7	-63.0	3.8	1.49e+00	0	43	104	954204160	68	19312
2026-01-30 01:44:42.70	260.01	7.86	-48.7	-63.0	3.8	1.49e+00	0	43	104	954204160	68	19323
2026-01-30 01:44:44.00	259.88	7.78	-48.7	-63.0	3.8	1.49e+00	0	43	104	954204160	68	19367
2026-01-30 01:44:44.71	259.80	7.74	-48.7	-63.0	3.8	1.49e+00	0	43	104	954204160	68	19321
2026-01-30 01:44:46.00	259.67	7.66	-48.7	-63.0	3.8	1.49e+00	0	43	104	954204160	68	19221
2026-01-30 01:44:46.72	259.59	7.61	-48.7	-63.0	3.8	1.49e+00	0	43	104	954204160	68	19316
2026-01-30 01:44:48.01	259.46	7.53	-48.7	-63.0	3.8	1.49e+00	0	43	104	954204160	68	19308
2026-01-30 01:44:48.73	259.38	7.49	-48.7	-63.0	3.8	1.49e+00	0	43	104	954204160	68	19303
2026-01-30 01:44:50.02	259.25	7.41	-48.7	-63.0	3.8	1.49e+00	0	43	104	954204160	68	19321
2026-01-30 01:44:50.74	259.18	7.37	-48.7	-63.0	3.8	1.49e+00	0	43	104	954204160	68	19234
2026-01-30 01:44:52.03	259.04	7.29	-48.7	-63.0	3.8	1.49e+00	0	43	104	954204160	68	19285
2026-01-30 01:44:52.75	258.97	7.24	-48.7	-63.1	3.8	1.49e+00	0	43	104	954204160	68	19398
2026-01-30 01:44:54.04	258.84	7.16	-48.7	-63.0	3.8	1.49e+00	0	43	104	954204160	68	19330
2026-01-30 01:44:54.75	258.77	7.12	-48.7	-63.0	3.8	1.49e+00	0	43	104	954204160	68	19203
2026-01-30 01:44:56.05	258.64	7.04	-48.7	-63.0	3.8	1.49e+00	0	43	104	954204160	68	19294
2026-01-30 01:44:56.76	258.57	7.00	-48.7	-63.0	3.8	1.49e+00	0	43	104	954204160	68	19305
2026-01-30 01:44:58.05	258.44	6.92	-48.7	-63.0	3.8	1.49e+00	0	43	104	954204160	68	19276
2026-01-30 01:44:58.77	258.37	6.87	-48.7	-63.0	3.8	1.49e+00	0	43	104	954204160	68	19341
2026-01-30 01:45:00.07	258.24	6.80	-48.7	-63.0	3.8	1.49e+00	0	43	104	954204160	68	19268
2026-01-30 01:45:00.78	258.17	6.75	-48.7	-63.0	3.8	1.49e+00	0	43	104	954204160	68	19296
2026-01-30 01:45:02.07	258.04	6.67	-48.7	-63.0	3.8	1.49e+00	0	43	104	954204160	68	19314
2026-01-30 01:45:02.79	257.97	6.63	-48.7	-63.0	3.8	1.49e+00	0	43	104	954204160	68	19299
2026-01-30 01:45:04.08	257.85	6.55	-48.7	-63.0	3.8	1.49e+00	0	43	104	954204160	68	19354
2026-01-30 01:45:04.80	257.78	6.51	-48.7	-63.0	3.8	1.49e+00	0	43	104	954204160	68	19280
2026-01-30 01:45:06.09	257.65	6.43	-48.7	-63.0	3.8	1.49e+00	0	43	104	954204160	68	19358
2026-01-30 01:45:06.81	257.59	6.39	-48.7	-63.0	3.8	1.49e+00	0	43	104	954204160	68	19300
2026-01-30 01:45:08.10	257.46	6.31	-48.7	-63.0	3.8	1.49e+00	0	43	104	954204160	68	19263
2026-01-30 01:45:08.82	257.39	6.27	-48.7	-63.0	3.8	1.49e+00	0	43	104	954204160	68	19345
2026-01-30 01:45:10.11	257.27	6.19	-48.7	-63.0	3.8	1.49e+00	0	43	104	954204160	68	19278
2026-01-30 01:45:10.83	257.20	6.15	-48.7	-63.0	3.8	1.49e+00	0	43	104	954204160	68	19232
2026-01-30 01:45:12.12	257.08	6.07	-48.7	-63.0	3.8	1.49e+00	0	43	104	954204160	68	19213
2026-01-30 01:45:12.83	257.02	6.03	-48.7	-63.0	3.8	1.49e+00	0	43	104	954204160	68	19341
2026-01-30 01:45:14.12	256.90	5.95	-48.7	-63.0	3.8	1.49e+00	0	43	104	954204160	68	19323
2026-01-30 01:45:14.84	256.83	5.90	-48.7	-63.0	3.8	1.49e+00	0	43	104	954204160	68	19267
2026-01-30 01:45:16.13	256.71	5.83	-48.7	-63.0	3.8	1.49e+00	0	43	104	954204160	68	19316
2026-01-30 01:45:16.85	256.65	5.78	-48.7	-63.0	3.8	1.49e+00	0	43	104	954204160	68	19312
2026-01-30 01:45:18.14	256.53	5.71	-48.7	-63.0	3.8	1.49e+00	0	44	104	954204160	68	19232
2026-01-30 01:45:18.86	256.46	5.67	-48.7	-63.0	3.8	1.49e+00	0	43	104	954204160	68	19310
2026-01-30 01:45:20.15	256.35	5.59	-48.7	-63.0	3.8	1.49e+00	0	43	104	954204160	68	19284
2026-01-30 01:45:20.87	256.28	5.55	-48.7	-63.0	3.8	1.49e+00	0	43	104	954204160	68	19264
2026-01-30 01:45:22.16	256.16	5.47	-48.7	-63.0	3.8	1.49e+00	0	43	104	954204160	68	19246
2026-01-30 01:45:22.88	256.10	5.43	-48.7	-63.0	3.8	1.49e+00	0	43	104	954204160	68	19339
2026-01-30 01:45:24.17	255.98	5.35	-48.7	-63.0	3.8	1.49e+00	0	43	104	954204160	68	19205
2026-01-30 01:45:24.88	255.92	5.31	-48.7	-63.0	3.8	1.49e+00	0	43	104	954204160	68	19262
2026-01-30 01:45:26.18	255.81	5.23	-48.7	-63.0	3.8	1.49e+00	0	43	104	954204160	68	19210
2026-01-30 01:45:26.89	255.74	5.19	-48.7	-63.0	3.8	1.49e+00	0	43	104	954204160	68	19299
2026-01-30 01:45:28.18	255.63	5.11	-48.7	-63.0	3.8	1.49e+00	0	43	104	954204160	68	19281
2026-01-30 01:45:28.90	255.57	5.07	-48.7	-63.0	3.8	1.49e+00	0	43	104	954204160	68	19236
2026-01-30 01:45:30.19	255.46	4.99	-48.7	-63.0	3.8	1.49e+00	0	43	104	954204160	68	19278

#Closed at: 2026-01-30 01:45:30
#Recorded file [954 MB]: D:/Data/31040_260130_043456.dat