passes_logs/2026/01/30/T1/T1__20260130_114318_AQUA_rec.log

#Pass ID: 20260130_114318_AQUA
#Satellite: AQUA
#Configuration: AQUA
#almurnet v.1.7.20251203
#Start time: 2026-01-30 11:43:18

#Version: 2.0.20230620
#Station: T1
#Location: 37.570604 lon 55.790049 lat
#TLE: 1 27424U 02022A   26029.54575153  .00001738  00000+0  35736-3 0  9994
#TLE: 2 27424  98.4104 356.2197 0001804  61.7823  56.0643 14.61874165263019

#Time	Az	El	Level	Level2	SNR	BER	BlckErr	Temp	State	Recorded	gain1	gain2
2026-01-30 11:43:18.84	161.46	5.03	-52.4	-72.1	3.8	7.44e-01	0	41	0	0	76	34669
2026-01-30 11:43:19.84	161.47	5.10	-53.1	-72.2	3.8	7.47e-01	0	41	104	0	76	35110
2026-01-30 11:43:20.85	161.47	5.18	-52.3	-72.2	3.7	7.44e-01	0	41	104	0	76	35121
2026-01-30 11:43:21.85	161.47	5.25	-53.2	-72.2	3.8	7.47e-01	0	41	104	0	77	33190
2026-01-30 11:43:22.85	161.47	5.33	-53.2	-72.2	3.8	7.43e-01	0	41	104	0	77	33084
2026-01-30 11:43:23.86	161.47	5.41	-52.8	-72.2	3.8	7.49e-01	0	41	104	0	77	33172
2026-01-30 11:43:24.86	161.48	5.49	-53.0	-72.2	3.8	7.46e-01	0	41	104	0	76	35077
2026-01-30 11:43:25.86	161.48	5.56	-52.7	-72.2	3.8	7.44e-01	0	41	104	0	76	34927
2026-01-30 11:43:26.87	161.48	5.64	-52.7	-72.2	3.8	7.45e-01	0	41	104	0	76	34889
2026-01-30 11:43:27.87	161.48	5.72	-52.8	-72.1	3.8	7.46e-01	0	41	104	0	76	34768
2026-01-30 11:43:28.88	161.49	5.80	-52.9	-72.1	3.8	7.47e-01	0	41	104	0	76	34670
2026-01-30 11:43:29.88	161.49	5.87	-52.3	-72.1	3.8	7.45e-01	0	41	104	0	76	34510
2026-01-30 11:43:30.89	161.49	5.95	-52.5	-72.0	3.8	7.48e-01	0	41	104	0	76	34244
2026-01-30 11:43:31.89	161.49	6.03	-52.1	-72.0	3.8	7.44e-01	0	41	104	0	76	34190
2026-01-30 11:43:32.89	161.49	6.11	-52.7	-72.0	3.8	7.47e-01	0	41	104	0	76	34124
2026-01-30 11:43:33.90	161.50	6.19	-52.3	-71.9	3.8	7.46e-01	0	42	104	0	75	35808
2026-01-30 11:43:34.90	161.50	6.27	-52.0	-71.9	3.8	7.45e-01	0	41	104	0	76	33898
2026-01-30 11:43:35.91	161.50	6.35	-52.7	-71.8	3.8	7.46e-01	0	42	104	0	75	35342
2026-01-30 11:43:36.91	161.50	6.43	-51.1	-71.8	3.8	7.43e-01	0	42	104	0	74	37596
2026-01-30 11:43:37.91	161.51	6.51	-52.4	-71.7	3.8	7.47e-01	0	41	104	0	75	35215
2026-01-30 11:43:38.92	161.51	6.59	-51.7	-71.6	3.8	7.45e-01	0	42	104	0	75	34765
2026-01-30 11:43:39.92	161.51	6.67	-52.2	-71.6	3.9	7.48e-01	0	42	104	0	75	34617
2026-01-30 11:43:40.93	161.51	6.76	-52.0	-71.2	3.8	7.45e-01	0	42	104	0	75	33018
2026-01-30 11:43:41.93	161.51	6.84	-52.1	-70.3	3.8	7.47e-01	0	42	104	0	75	29924
2026-01-30 11:43:42.93	161.52	6.92	-51.8	-68.7	3.8	7.43e-01	0	42	104	0	75	24768
2026-01-30 11:43:43.94	161.52	7.00	-51.8	-69.5	3.9	7.47e-01	0	42	104	0	75	27388
2026-01-30 11:43:44.94	161.52	7.08	-51.9	-70.3	3.8	7.48e-01	0	42	104	0	75	29755
2026-01-30 11:43:45.94	161.52	7.17	-51.9	-70.8	3.8	7.46e-01	0	42	104	0	75	31595
2026-01-30 11:43:46.94	161.53	7.25	-51.9	-71.2	3.8	7.47e-01	0	42	104	0	75	33140
2026-01-30 11:43:47.95	161.53	7.33	-51.8	-71.2	3.8	7.49e-01	0	42	104	0	75	32959
2026-01-30 11:43:48.95	161.53	7.42	-51.8	-70.2	3.8	7.45e-01	0	42	104	0	75	29601
2026-01-30 11:43:49.96	161.53	7.50	-51.8	-67.9	3.9	7.42e-01	0	42	104	0	75	22728
2026-01-30 11:43:50.96	161.53	7.59	-51.7	-65.0	5.4	7.00e-01	0	42	0	0	75	16179
2026-01-30 11:43:51.97	161.54	7.67	-51.5	-62.4	7.7	6.53e-01	0	42	0	1572864	75	12038
2026-01-30 11:43:52.97	161.54	7.76	-51.2	-60.2	9.9	6.25e-01	0	42	0	3145728	74	9866
2026-01-30 11:43:53.98	161.54	7.84	-50.8	-58.3	11.8	6.14e-01	0	42	0	5242880	73	8403
2026-01-30 11:43:54.98	161.54	7.93	-50.5	-56.9	13.4	6.09e-01	0	42	0	6815744	73	7126
2026-01-30 11:43:55.98	161.55	8.01	-50.1	-55.6	14.7	6.07e-01	0	42	0	8912896	72	6514
2026-01-30 11:43:56.99	161.55	8.10	-49.8	-54.6	15.7	6.09e-01	0	42	0	11010048	71	6172
2026-01-30 11:43:58.00	161.55	8.19	-49.5	-54.0	16.4	6.07e-01	0	42	0	12582912	71	5766
2026-01-30 11:43:59.00	161.55	8.27	-49.3	-53.5	16.9	6.10e-01	0	42	0	14680064	70	5727
2026-01-30 11:44:00.00	161.55	8.36	-49.2	-53.3	17.1	6.07e-01	0	42	0	16777216	70	5624
2026-01-30 11:44:01.01	161.56	8.45	-49.3	-53.6	16.8	6.07e-01	0	42	0	18350080	70	5789
2026-01-30 11:44:02.01	161.56	8.54	-49.4	-53.8	16.6	6.07e-01	0	42	0	20447232	70	5974
2026-01-30 11:44:03.02	161.56	8.63	-49.7	-54.5	15.8	6.07e-01	0	43	0	22020096	70	6471
2026-01-30 11:44:04.02	161.56	8.71	-50.0	-55.4	11.0	6.10e-01	0	42	0	24117248	71	6725
2026-01-30 11:44:05.02	161.56	8.80	-50.4	-56.7	13.7	6.07e-01	0	42	0	25690112	71	7822
2026-01-30 11:44:06.03	161.57	8.89	-50.8	-58.3	12.0	6.15e-01	0	42	0	27787264	72	8887
2026-01-30 11:44:07.03	161.57	8.98	-51.1	-60.1	10.1	6.24e-01	0	42	0	29884416	73	10350
2026-01-30 11:44:08.04	161.57	9.07	-51.4	-62.9	7.3	6.62e-01	0	43	0	31457280	73	14241
2026-01-30 11:44:09.04	161.57	9.16	-47.5	-50.2	20.1	6.06e-01	0	42	0	33554432	66	4949
2026-01-30 11:44:10.08	161.58	9.26	-49.5	-54.0	16.6	6.07e-01	0	42	0	35127296	69	6428
2026-01-30 11:44:11.16	161.58	9.36	-51.9	-69.0	4.0	7.39e-01	0	42	104	36175872	74	27171
2026-01-30 11:44:12.05	161.58	9.44	-51.0	-60.3	9.8	6.26e-01	0	42	0	36700160	74	10027
2026-01-30 11:44:13.19	161.58	9.54	-46.9	-49.4	20.7	6.07e-01	0	42	0	38797312	65	4781
2026-01-30 11:44:14.05	161.58	9.62	-46.9	-49.3	20.9	6.08e-01	0	43	0	40370176	65	4757
2026-01-30 11:44:15.42	161.59	9.75	-46.3	-48.5	21.6	6.08e-01	0	43	0	42991616	64	4592
2026-01-30 11:44:16.14	161.59	9.81	-46.1	-48.2	22.0	6.08e-01	0	42	0	44564480	64	4393
2026-01-30 11:44:17.65	161.59	9.96	-46.0	-48.1	22.1	6.08e-01	0	42	0	47185920	64	4369
2026-01-30 11:44:18.37	161.59	10.02	-46.2	-48.3	21.7	6.07e-01	0	43	0	48758784	64	4476
2026-01-30 11:44:19.71	161.60	10.15	-46.3	-48.5	21.8	6.08e-01	0	42	0	50855936	64	4548
2026-01-30 11:44:20.43	161.60	10.22	-45.9	-47.9	22.4	6.07e-01	0	43	0	52428800	63	4505
2026-01-30 11:44:21.71	161.60	10.34	-45.3	-47.1	23.1	6.07e-01	0	43	0	55050240	62	4370
2026-01-30 11:44:22.43	161.60	10.41	-45.1	-47.0	23.2	6.07e-01	0	43	0	56098816	62	4310
2026-01-30 11:44:23.72	161.60	10.53	-45.0	-46.7	23.5	6.06e-01	0	43	0	58720256	61	4413
2026-01-30 11:44:24.44	161.60	10.60	-44.9	-46.6	23.6	6.06e-01	0	43	0	59768832	61	4389
2026-01-30 11:44:25.72	161.61	10.72	-44.7	-46.5	23.7	6.07e-01	0	43	0	62390272	61	4292
2026-01-30 11:44:26.44	161.61	10.79	-44.7	-46.4	23.7	6.06e-01	0	43	0	63438848	61	4283
2026-01-30 11:44:27.73	161.61	10.92	-44.7	-46.5	23.6	6.04e-01	0	43	0	66060288	61	4308
2026-01-30 11:44:28.54	161.61	11.00	-44.6	-46.3	23.7	6.06e-01	0	43	0	67633152	61	4241
2026-01-30 11:44:29.69	161.62	11.11	-44.7	-46.4	23.8	6.07e-01	0	43	0	69730304	61	4266
2026-01-30 11:44:30.80	161.62	11.22	-44.8	-46.4	23.7	6.06e-01	0	43	0	71827456	61	4273
2026-01-30 11:44:31.84	161.62	11.33	-44.7	-46.3	23.9	6.06e-01	0	43	0	73924608	61	4230
2026-01-30 11:44:32.84	161.62	11.43	-44.6	-46.3	23.9	6.07e-01	0	43	0	75497472	61	4198
2026-01-30 11:44:33.84	161.62	11.53	-44.6	-46.2	24.0	6.06e-01	0	43	0	77594624	61	4167
2026-01-30 11:44:34.84	161.63	11.63	-44.6	-46.2	24.0	6.06e-01	0	43	0	79167488	61	4159
2026-01-30 11:44:35.84	161.63	11.73	-44.5	-46.1	24.0	6.06e-01	0	43	0	81264640	61	4135
2026-01-30 11:44:36.84	161.63	11.83	-44.4	-46.1	24.1	6.08e-01	0	43	0	83361792	60	4357
2026-01-30 11:44:37.85	161.63	11.93	-44.4	-46.0	24.1	6.06e-01	0	43	0	84934656	60	4340
2026-01-30 11:44:38.85	161.63	12.04	-44.4	-46.0	24.1	6.07e-01	0	43	0	87031808	60	4330
2026-01-30 11:44:39.85	161.64	12.14	-44.3	-46.0	24.2	6.06e-01	0	43	0	88604672	60	4298
2026-01-30 11:44:40.85	161.64	12.24	-44.3	-45.9	24.2	6.06e-01	0	43	0	90701824	60	4289
2026-01-30 11:44:41.86	161.64	12.35	-44.2	-45.8	24.4	6.07e-01	0	43	0	92798976	60	4204
2026-01-30 11:44:42.91	161.64	12.46	-44.2	-45.8	24.4	6.08e-01	0	43	0	94371840	60	4194
2026-01-30 11:44:43.82	161.64	12.55	-44.2	-45.8	24.3	6.07e-01	0	43	0	96468992	60	4222
2026-01-30 11:44:44.96	161.64	12.68	-44.2	-45.8	24.4	6.07e-01	0	43	0	98566144	60	4202
2026-01-30 11:44:45.85	161.65	12.77	-44.2	-45.7	24.4	6.07e-01	0	43	0	100139008	60	4193
2026-01-30 11:44:46.99	161.65	12.89	-44.1	-45.7	24.4	6.06e-01	0	43	0	102236160	60	4170
2026-01-30 11:44:47.85	161.65	12.98	-44.1	-45.8	24.4	6.07e-01	0	43	0	103809024	60	4194
2026-01-30 11:44:49.00	161.65	13.11	-44.0	-45.6	24.6	6.07e-01	0	43	0	105906176	60	4107
2026-01-30 11:44:49.86	161.65	13.20	-44.1	-45.7	24.4	6.07e-01	0	43	0	107479040	60	4178
2026-01-30 11:44:51.00	161.66	13.33	-44.2	-45.8	24.4	6.08e-01	0	43	0	109576192	60	4208
2026-01-30 11:44:51.86	161.66	13.42	-44.2	-45.8	24.3	6.07e-01	0	43	0	111149056	60	4218
2026-01-30 11:44:53.01	161.66	13.55	-44.2	-45.8	24.4	6.04e-01	0	43	0	113770496	60	4205
2026-01-30 11:44:53.87	161.66	13.64	-44.1	-45.7	24.4	6.07e-01	0	43	0	115343360	60	4186
2026-01-30 11:44:55.01	161.66	13.77	-44.1	-45.7	24.5	6.06e-01	0	43	0	117440512	60	4150
2026-01-30 11:44:55.87	161.67	13.86	-44.0	-45.6	24.5	6.06e-01	0	43	0	119013376	60	4138
2026-01-30 11:44:57.02	161.67	13.99	-44.1	-45.8	24.5	6.06e-01	0	43	0	121110528	59	4445
2026-01-30 11:44:57.88	161.67	14.09	-44.2	-45.8	24.4	6.08e-01	0	43	0	122683392	59	4481
2026-01-30 11:44:59.02	161.67	14.22	-44.2	-45.8	24.4	6.07e-01	0	43	0	124780544	59	4489
2026-01-30 11:44:59.88	161.67	14.32	-44.2	-45.8	24.5	6.07e-01	0	43	0	126353408	59	4493
2026-01-30 11:45:01.03	161.67	14.45	-44.2	-45.8	24.5	6.07e-01	0	43	0	128450560	59	4483
2026-01-30 11:45:01.88	161.68	14.55	-44.3	-46.0	24.3	6.08e-01	0	43	0	130023424	59	4554
2026-01-30 11:45:03.03	161.68	14.68	-44.3	-45.8	24.4	6.07e-01	0	43	0	132120576	59	4491
2026-01-30 11:45:03.89	161.68	14.78	-44.3	-45.9	24.4	6.06e-01	0	43	0	133693440	59	4498
2026-01-30 11:45:05.03	161.68	14.91	-44.3	-45.9	24.4	6.07e-01	0	43	0	135790592	59	4523
2026-01-30 11:45:05.89	161.68	15.02	-44.4	-46.0	24.3	6.05e-01	0	43	0	137363456	59	4551
2026-01-30 11:45:07.04	161.68	15.15	-44.4	-46.0	24.3	6.05e-01	0	43	0	139984896	59	4565
2026-01-30 11:45:07.90	161.69	15.25	-44.3	-45.9	24.4	6.06e-01	0	43	0	141557760	59	4511
2026-01-30 11:45:09.04	161.69	15.39	-44.2	-45.7	24.6	6.07e-01	0	43	0	143654912	59	4422
2026-01-30 11:45:09.90	161.69	15.49	-44.1	-45.7	24.5	6.07e-01	0	43	0	145227776	59	4414
2026-01-30 11:45:11.05	161.69	15.63	-44.1	-45.7	24.5	6.08e-01	0	43	0	147324928	59	4417
2026-01-30 11:45:11.91	161.69	15.74	-44.1	-45.7	24.6	6.08e-01	0	43	0	148897792	59	4418
2026-01-30 11:45:13.06	161.69	15.88	-44.1	-45.7	24.4	6.05e-01	0	43	0	150994944	59	4401
2026-01-30 11:45:13.92	161.70	15.98	-44.0	-45.6	24.6	6.07e-01	0	43	0	152567808	59	4358
2026-01-30 11:45:15.07	161.70	16.13	-44.0	-45.6	24.6	6.07e-01	0	43	0	154664960	59	4357
2026-01-30 11:45:16.01	161.70	16.24	-44.0	-45.5	24.7	6.08e-01	0	43	0	156762112	59	4329
2026-01-30 11:45:17.01	161.70	16.37	-44.0	-45.5	24.8	6.09e-01	0	43	0	158334976	59	4307
2026-01-30 11:45:18.01	161.70	16.49	-44.0	-45.5	24.8	6.06e-01	0	43	0	160432128	59	4333
2026-01-30 11:45:19.02	161.70	16.62	-44.1	-45.6	24.7	6.07e-01	0	43	0	162004992	59	4346
2026-01-30 11:45:20.02	161.71	16.75	-44.0	-45.5	24.8	6.07e-01	0	43	0	164102144	59	4315
2026-01-30 11:45:21.02	161.71	16.88	-44.1	-45.6	24.7	6.06e-01	0	43	0	166199296	59	4346
2026-01-30 11:45:22.02	161.71	17.01	-44.1	-45.5	24.7	6.07e-01	0	43	0	167772160	59	4331
2026-01-30 11:45:23.03	161.71	17.14	-44.1	-45.6	24.7	6.06e-01	0	43	0	169869312	59	4361
2026-01-30 11:45:24.03	161.71	17.27	-44.1	-45.6	24.7	6.08e-01	0	43	0	171442176	59	4363
2026-01-30 11:45:25.03	161.71	17.40	-44.1	-45.7	24.7	6.06e-01	0	43	0	173539328	59	4392
2026-01-30 11:45:26.03	161.72	17.53	-44.2	-45.8	24.6	6.06e-01	0	43	0	175636480	59	4449
2026-01-30 11:45:27.03	161.72	17.66	-44.2	-45.7	24.6	6.07e-01	0	43	0	177209344	59	4426
2026-01-30 11:45:28.04	161.72	17.80	-44.2	-45.8	24.5	6.04e-01	0	43	0	179306496	59	4449
2026-01-30 11:45:29.04	161.72	17.93	-44.3	-45.9	24.4	6.07e-01	0	43	0	180879360	59	4511
2026-01-30 11:45:30.04	161.72	18.07	-44.3	-45.9	24.4	6.07e-01	0	43	0	182976512	59	4512
2026-01-30 11:45:31.05	161.72	18.20	-44.3	-45.8	24.5	6.08e-01	0	43	0	184549376	59	4488
2026-01-30 11:45:32.05	161.72	18.34	-44.3	-45.9	24.4	6.05e-01	0	43	0	186646528	59	4515
2026-01-30 11:45:33.05	161.73	18.48	-44.4	-45.9	24.4	6.08e-01	0	43	0	188743680	59	4537
2026-01-30 11:45:34.05	161.73	18.62	-44.3	-45.9	24.5	6.07e-01	0	43	0	190316544	59	4506
2026-01-30 11:45:35.05	161.73	18.76	-44.4	-45.9	24.4	6.06e-01	0	43	0	192413696	59	4543
2026-01-30 11:45:36.06	161.73	18.90	-44.4	-45.9	21.0	6.07e-01	0	43	0	193986560	59	4527
2026-01-30 11:45:37.06	161.73	19.04	-44.3	-45.8	24.5	6.06e-01	0	43	0	196083712	59	4465
2026-01-30 11:45:38.06	161.73	19.18	-44.3	-45.9	24.5	6.10e-01	0	43	0	198180864	59	4505
2026-01-30 11:45:39.07	161.73	19.32	-44.2	-45.7	24.6	6.09e-01	0	43	0	199753728	59	4436
2026-01-30 11:45:40.07	161.73	19.47	-44.3	-45.8	24.5	6.08e-01	0	43	0	201850880	59	4459
2026-01-30 11:45:41.15	161.74	19.62	-44.2	-45.8	24.5	6.07e-01	0	43	0	203948032	59	4451
2026-01-30 11:45:42.03	161.74	19.75	-44.3	-45.9	24.5	6.06e-01	0	43	0	205520896	59	4497
2026-01-30 11:45:43.17	161.74	19.92	-44.3	-45.8	24.5	6.08e-01	0	43	0	207618048	59	4463
2026-01-30 11:45:44.03	161.74	20.05	-44.4	-45.9	24.4	6.07e-01	0	43	0	209190912	59	4514
2026-01-30 11:45:45.18	161.74	20.22	-44.5	-46.0	24.3	6.07e-01	0	43	0	211288064	59	4588
2026-01-30 11:45:46.04	161.74	20.34	-44.5	-46.0	24.3	6.07e-01	0	43	0	212860928	59	4587
2026-01-30 11:45:47.19	161.74	20.52	-44.6	-46.1	24.2	6.06e-01	0	43	0	214958080	59	4647
2026-01-30 11:45:48.05	161.74	20.65	-44.5	-46.0	24.2	6.06e-01	0	43	0	216530944	60	4322
2026-01-30 11:45:49.19	161.75	20.82	-44.5	-45.9	24.3	6.06e-01	0	43	0	218628096	60	4286
2026-01-30 11:45:50.05	161.75	20.95	-44.4	-45.9	24.3	6.07e-01	0	43	0	220725248	60	4273
2026-01-30 11:45:51.20	161.75	21.13	-44.4	-45.9	24.3	6.07e-01	0	43	0	222822400	60	4277
2026-01-30 11:45:52.06	161.75	21.27	-44.4	-45.9	24.3	6.06e-01	0	43	0	224395264	60	4286
2026-01-30 11:45:53.21	161.75	21.45	-44.5	-46.0	24.2	6.07e-01	0	43	0	226492416	60	4339
2026-01-30 11:45:54.07	161.75	21.58	-44.5	-46.1	24.2	6.08e-01	0	43	0	228065280	60	4379
2026-01-30 11:45:55.22	161.75	21.76	-44.5	-46.2	24.1	6.07e-01	0	43	0	230162432	60	4417
2026-01-30 11:45:56.07	161.75	21.90	-44.5	-46.2	24.1	6.07e-01	0	43	0	231735296	60	4424
2026-01-30 11:45:57.32	161.75	22.10	-44.4	-46.1	24.1	6.08e-01	0	43	0	233832448	60	4360
2026-01-30 11:45:58.17	161.76	22.24	-44.4	-46.0	24.2	6.06e-01	0	43	0	235929600	60	4325
2026-01-30 11:45:59.32	161.76	22.43	-44.4	-46.1	24.2	6.07e-01	0	43	0	238026752	60	4342
2026-01-30 11:46:00.18	161.76	22.57	-44.4	-46.0	24.2	6.07e-01	0	43	0	239599616	60	4329
2026-01-30 11:46:01.33	161.76	22.76	-44.3	-45.9	24.4	6.08e-01	0	44	0	241696768	60	4254
2026-01-30 11:46:02.19	161.76	22.90	-44.4	-45.9	24.4	6.08e-01	0	43	0	243269632	60	4283
2026-01-30 11:46:03.52	161.76	23.12	-44.4	-45.9	24.3	6.06e-01	0	43	0	245891072	60	4281
2026-01-30 11:46:04.24	161.76	23.25	-44.3	-45.8	24.4	6.06e-01	0	43	0	246939648	60	4242
2026-01-30 11:46:05.53	161.76	23.47	-44.4	-46.0	24.3	6.08e-01	0	43	0	249561088	60	4305
2026-01-30 11:46:06.24	161.76	23.59	-44.4	-45.9	24.3	6.06e-01	0	43	0	250609664	60	4276
2026-01-30 11:46:07.53	161.76	23.81	-44.4	-45.9	24.4	6.07e-01	0	43	0	253231104	60	4243
2026-01-30 11:46:08.25	161.76	23.94	-44.4	-45.8	24.4	6.08e-01	0	43	0	254803968	60	4240
2026-01-30 11:46:09.54	161.76	24.16	-44.5	-46.0	24.3	6.07e-01	0	43	0	256901120	60	4317
2026-01-30 11:46:10.26	161.76	24.29	-44.5	-46.0	24.2	6.07e-01	0	43	0	258473984	60	4339
2026-01-30 11:46:11.55	161.77	24.52	-44.5	-46.1	24.2	6.07e-01	0	43	0	260571136	60	4342
2026-01-30 11:46:12.26	161.77	24.65	-44.4	-46.0	24.4	6.08e-01	0	43	0	262144000	60	4302
2026-01-30 11:46:13.57	161.77	24.88	-44.3	-45.9	24.3	6.06e-01	0	43	0	264765440	60	4265
2026-01-30 11:46:14.28	161.77	25.01	-44.4	-45.9	24.3	6.05e-01	0	43	0	265814016	60	4281
2026-01-30 11:46:15.64	161.77	25.26	-44.3	-45.8	24.5	6.07e-01	0	43	0	268435456	60	4212
2026-01-30 11:46:16.35	161.77	25.40	-44.4	-45.9	24.2	6.05e-01	0	43	0	270008320	60	4271
2026-01-30 11:46:17.64	161.77	25.64	-44.2	-45.6	24.6	6.05e-01	0	43	0	272105472	60	4140
2026-01-30 11:46:18.36	161.77	25.77	-44.2	-45.7	24.6	6.07e-01	0	43	0	273678336	60	4165
2026-01-30 11:46:19.78	161.77	26.04	-44.2	-45.7	24.6	6.06e-01	0	43	0	276299776	60	4188
2026-01-30 11:46:20.49	161.77	26.18	-44.1	-45.7	24.6	6.04e-01	0	43	0	277348352	60	4152
2026-01-30 11:46:21.78	161.77	26.42	-44.2	-45.7	24.5	6.08e-01	0	43	0	279969792	60	4180
2026-01-30 11:46:22.50	161.77	26.56	-44.2	-45.7	24.5	6.07e-01	0	43	0	281542656	60	4168
2026-01-30 11:46:23.79	161.77	26.82	-44.1	-45.6	24.7	6.06e-01	0	43	0	283639808	60	4130
2026-01-30 11:46:24.51	161.77	26.96	-44.1	-45.6	24.6	6.09e-01	0	43	0	285212672	60	4137
2026-01-30 11:46:25.79	161.77	27.21	-44.0	-45.6	24.7	6.08e-01	0	43	0	287309824	60	4100
2026-01-30 11:46:26.51	161.77	27.36	-44.1	-45.6	24.7	6.07e-01	0	43	0	288882688	60	4129
2026-01-30 11:46:27.80	161.77	27.62	-44.2	-45.7	24.6	6.08e-01	0	43	0	291504128	60	4152
2026-01-30 11:46:28.52	161.77	27.76	-44.1	-45.5	24.7	6.08e-01	0	43	0	292552704	60	4077
2026-01-30 11:46:29.81	161.77	28.03	-44.0	-45.4	23.5	6.07e-01	0	43	0	295174144	59	4289
2026-01-30 11:46:30.68	161.77	28.21	-43.9	-45.3	24.8	6.06e-01	0	43	0	296747008	59	4235
2026-01-30 11:46:32.15	161.77	28.51	-44.0	-45.5	24.9	6.07e-01	0	43	0	299368448	59	4300
2026-01-30 11:46:32.87	161.77	28.67	-43.9	-45.3	25.0	6.05e-01	0	43	0	300941312	59	4230
2026-01-30 11:46:34.37	161.77	28.98	-44.0	-45.5	24.9	6.08e-01	0	43	0	303562752	59	4300
2026-01-30 11:46:35.08	161.77	29.14	-44.1	-45.6	24.8	6.09e-01	0	44	0	304611328	59	4363
2026-01-30 11:46:36.45	161.77	29.43	-44.1	-45.6	24.3	6.05e-01	0	44	0	307232768	59	4355
2026-01-30 11:46:37.17	161.77	29.59	-44.1	-45.5	24.9	6.08e-01	0	44	0	308805632	59	4319
2026-01-30 11:46:38.46	161.77	29.87	-44.1	-45.5	24.9	6.07e-01	0	43	0	311427072	59	4332
2026-01-30 11:46:39.18	161.77	30.03	-44.0	-45.5	24.9	6.07e-01	0	43	0	312475648	59	4294
2026-01-30 11:46:40.47	161.77	30.32	-44.0	-45.4	25.0	6.07e-01	0	43	0	315097088	59	4259
2026-01-30 11:46:41.19	161.77	30.48	-43.9	-45.3	25.0	6.07e-01	0	43	0	316145664	59	4232
2026-01-30 11:46:42.67	161.77	30.82	-44.0	-45.4	24.9	6.08e-01	0	43	0	319291392	59	4283
2026-01-30 11:46:43.65	161.77	31.05	-44.1	-45.6	24.8	6.06e-01	0	44	0	320864256	59	4349
2026-01-30 11:46:44.98	161.76	31.36	-44.2	-45.7	24.7	6.07e-01	0	43	0	323485696	59	4400
2026-01-30 11:46:45.69	161.76	31.52	-44.1	-45.6	24.7	6.08e-01	0	43	0	324534272	59	4359
2026-01-30 11:46:46.98	161.76	31.83	-44.1	-45.6	24.8	6.06e-01	0	43	0	327155712	59	4358
2026-01-30 11:46:47.70	161.76	32.00	-44.0	-45.4	24.9	6.07e-01	0	43	0	328728576	59	4291
2026-01-30 11:46:48.99	161.76	32.31	-44.0	-45.4	25.0	6.07e-01	0	43	0	330825728	59	4291
2026-01-30 11:46:49.71	161.76	32.48	-44.0	-45.4	25.0	6.08e-01	0	43	0	332398592	59	4284
2026-01-30 11:46:51.00	161.76	32.80	-44.1	-45.6	24.9	6.06e-01	0	43	0	335020032	59	4357
2026-01-30 11:46:51.71	161.76	32.97	-44.1	-45.6	24.8	6.07e-01	0	44	0	336068608	59	4341
2026-01-30 11:46:53.08	161.76	33.31	-44.3	-45.8	24.7	6.07e-01	0	43	0	338690048	59	4478
2026-01-30 11:46:54.07	161.75	33.56	-44.4	-45.9	24.5	6.08e-01	0	43	0	340262912	59	4543
2026-01-30 11:46:55.07	161.75	33.82	-44.6	-46.1	24.4	6.06e-01	0	43	0	342360064	59	4616
2026-01-30 11:46:56.46	161.75	34.17	-44.7	-46.2	24.3	6.06e-01	0	43	0	344981504	59	4656
2026-01-30 11:46:57.21	161.75	34.37	-44.7	-46.2	24.3	6.06e-01	0	43	0	346554368	59	4671
2026-01-30 11:46:58.50	161.75	34.71	-44.7	-46.3	24.1	6.05e-01	0	43	0	348651520	60	4450
2026-01-30 11:46:59.21	161.75	34.89	-44.8	-46.4	24.0	6.06e-01	0	43	0	350224384	60	4531
2026-01-30 11:47:00.50	161.74	35.24	-45.0	-46.7	23.7	6.07e-01	0	43	0	352321536	60	4687
2026-01-30 11:47:01.21	161.74	35.43	-45.0	-46.8	23.6	6.07e-01	0	43	0	353894400	60	4725
2026-01-30 11:47:02.50	161.74	35.78	-45.0	-46.9	23.5	6.08e-01	0	43	0	356515840	60	4786
2026-01-30 11:47:03.22	161.74	35.97	-45.0	-46.9	23.5	6.08e-01	0	43	0	357564416	60	4802
2026-01-30 11:47:04.51	161.74	36.33	-45.1	-47.1	23.4	6.06e-01	0	43	0	360185856	60	4918
2026-01-30 11:47:05.22	161.73	36.53	-45.2	-47.1	23.3	6.07e-01	0	43	0	361234432	61	4643
2026-01-30 11:47:06.52	161.73	36.89	-45.6	-47.4	23.1	6.06e-01	0	43	0	363855872	61	4800
2026-01-30 11:47:07.23	161.73	37.09	-45.8	-47.6	23.0	6.07e-01	0	43	0	364904448	62	4621
2026-01-30 11:47:08.66	161.73	37.50	-46.1	-47.9	22.7	6.08e-01	0	43	0	368050176	62	4785
2026-01-30 11:47:09.65	161.72	37.79	-46.1	-47.9	22.6	6.08e-01	0	44	0	369623040	62	4793
2026-01-30 11:47:10.99	161.72	38.18	-45.9	-47.8	22.8	6.07e-01	0	43	0	372244480	62	4708
2026-01-30 11:47:11.70	161.72	38.39	-46.0	-47.8	22.7	6.08e-01	0	44	0	373817344	62	4747
2026-01-30 11:47:12.99	161.71	38.77	-46.0	-47.9	22.7	6.07e-01	0	43	0	375914496	62	4769
2026-01-30 11:47:13.71	161.71	38.99	-46.1	-48.0	22.5	6.09e-01	0	43	0	377487360	62	4866
2026-01-30 11:47:14.99	161.71	39.38	-45.9	-47.7	22.8	6.07e-01	0	43	0	379584512	62	4702
2026-01-30 11:47:15.71	161.70	39.60	-45.8	-47.6	23.0	6.07e-01	0	43	0	381157376	62	4605
2026-01-30 11:47:17.00	161.70	40.00	-45.7	-47.4	23.1	6.09e-01	0	43	0	383254528	62	4506
2026-01-30 11:47:17.71	161.70	40.22	-45.6	-47.2	23.3	6.08e-01	0	43	0	384827392	62	4431
2026-01-30 11:47:19.08	161.69	40.65	-45.5	-47.1	23.4	6.08e-01	0	43	0	387448832	62	4386
2026-01-30 11:47:19.80	161.69	40.88	-45.7	-47.4	23.1	6.07e-01	0	43	0	389021696	62	4541
2026-01-30 11:47:21.08	161.68	41.29	-45.6	-47.3	23.2	6.06e-01	0	43	0	391118848	62	4464
2026-01-30 11:47:21.80	161.68	41.53	-45.5	-47.1	23.4	6.06e-01	0	43	0	392691712	62	4361
2026-01-30 11:47:23.26	161.67	42.01	-44.9	-46.4	23.9	6.06e-01	0	43	0	395313152	61	4272
2026-01-30 11:47:23.98	161.67	42.24	-44.9	-46.4	24.1	6.08e-01	0	44	0	396361728	61	4256
2026-01-30 11:47:25.27	161.66	42.68	-44.8	-46.4	24.1	6.08e-01	0	43	0	398983168	61	4245
2026-01-30 11:47:25.99	161.66	42.92	-44.8	-46.4	24.0	6.06e-01	0	43	0	400556032	61	4268
2026-01-30 11:47:27.28	161.65	43.36	-44.8	-46.3	24.1	6.07e-01	0	43	0	402653184	61	4209
2026-01-30 11:47:27.99	161.65	43.60	-44.5	-46.2	24.0	6.06e-01	0	43	0	404226048	61	4181
2026-01-30 11:47:29.28	161.64	44.05	-44.4	-45.9	24.5	6.06e-01	0	43	0	406323200	60	4262
2026-01-30 11:47:30.01	161.64	44.31	-44.5	-45.9	24.5	6.05e-01	0	43	0	407896064	60	4285
2026-01-30 11:47:31.30	161.63	44.76	-44.6	-46.0	24.4	6.09e-01	0	43	0	410517504	60	4333
2026-01-30 11:47:32.01	161.63	45.02	-44.4	-45.9	24.5	6.09e-01	0	43	0	411566080	60	4254
2026-01-30 11:47:33.30	161.62	45.48	-44.4	-45.8	24.6	6.07e-01	0	43	0	414187520	60	4205
2026-01-30 11:47:34.17	161.61	45.80	-44.4	-45.8	24.5	6.06e-01	0	43	0	415760384	60	4215
2026-01-30 11:47:35.63	161.60	46.33	-44.2	-45.6	24.8	6.08e-01	0	44	0	418381824	60	4099
2026-01-30 11:47:36.35	161.60	46.60	-44.2	-45.6	24.7	6.08e-01	0	43	0	419954688	60	4138
2026-01-30 11:47:37.85	161.59	47.17	-44.5	-45.9	24.5	6.07e-01	0	43	0	422576128	60	4264
2026-01-30 11:47:38.56	161.58	47.44	-44.3	-45.7	24.6	6.07e-01	0	43	0	424148992	60	4188
2026-01-30 11:47:39.85	161.57	47.93	-44.1	-45.5	24.9	6.07e-01	0	43	0	426246144	60	4066
2026-01-30 11:47:40.57	161.57	48.21	-44.2	-45.6	24.8	6.07e-01	0	43	0	427819008	60	4101
2026-01-30 11:47:41.86	161.56	48.71	-44.5	-45.9	24.6	6.08e-01	0	43	0	429916160	59	4534
2026-01-30 11:47:42.58	161.55	49.00	-44.6	-46.0	24.4	6.08e-01	0	44	0	431489024	60	4324
2026-01-30 11:47:43.87	161.54	49.51	-44.2	-45.6	24.7	6.07e-01	0	43	0	434110464	60	4115
2026-01-30 11:47:44.58	161.53	49.80	-44.1	-45.5	24.9	6.07e-01	0	43	0	435159040	59	4316
2026-01-30 11:47:45.87	161.52	50.32	-44.5	-45.9	24.5	6.06e-01	0	43	0	437780480	59	4504
2026-01-30 11:47:46.66	161.51	50.64	-44.5	-45.9	24.5	6.07e-01	0	43	0	439353344	59	4537
2026-01-30 11:47:48.13	161.49	51.25	-44.2	-45.6	24.8	6.07e-01	0	43	0	441974784	59	4372
2026-01-30 11:47:49.26	161.48	51.72	-43.7	-45.0	25.3	6.08e-01	0	44	0	444071936	59	4068
2026-01-30 11:47:50.11	161.47	52.08	-43.5	-44.8	25.6	6.08e-01	0	44	0	445644800	59	3967
2026-01-30 11:47:51.26	161.46	52.57	-43.6	-44.9	25.4	6.05e-01	0	43	0	447741952	58	4252
2026-01-30 11:47:52.12	161.45	52.94	-43.6	-44.8	25.4	6.08e-01	0	43	0	449314816	58	4242
2026-01-30 11:47:53.26	161.43	53.44	-43.6	-44.9	25.5	6.05e-01	0	43	0	451411968	58	4254
2026-01-30 11:47:54.12	161.42	53.81	-43.5	-44.8	25.5	6.04e-01	0	43	0	452984832	58	4225
2026-01-30 11:47:55.43	161.40	54.39	-43.7	-45.1	25.3	6.07e-01	0	43	0	455606272	58	4370
2026-01-30 11:47:56.15	161.39	54.72	-43.7	-45.1	25.3	6.07e-01	0	43	0	457179136	58	4364
2026-01-30 11:47:57.43	161.37	55.29	-43.9	-45.2	25.2	6.06e-01	0	43	0	459276288	58	4425
2026-01-30 11:47:58.15	161.36	55.62	-44.5	-45.9	24.7	6.06e-01	0	44	0	460849152	59	4510
2026-01-30 11:47:59.74	161.33	56.35	-44.1	-45.5	25.0	6.08e-01	0	43	0	463470592	59	4301
2026-01-30 11:48:00.32	161.32	56.62	-44.5	-45.9	24.6	6.06e-01	0	43	0	464519168	59	4527
2026-01-30 11:48:01.89	161.30	57.35	-44.5	-46.0	24.6	6.08e-01	0	43	0	467664896	59	4546
2026-01-30 11:48:02.50	161.29	57.64	-44.5	-46.0	24.4	6.04e-01	0	43	0	468713472	60	4302
2026-01-30 11:48:04.07	161.25	58.39	-44.8	-46.3	24.2	6.07e-01	0	43	0	471859200	60	4459
2026-01-30 11:48:04.65	161.24	58.66	-44.8	-46.3	24.1	6.07e-01	0	44	0	472907776	60	4474
2026-01-30 11:48:06.22	161.21	59.43	-45.0	-46.6	23.9	6.05e-01	0	43	0	475529216	60	4609
2026-01-30 11:48:06.80	161.20	59.71	-45.3	-46.9	22.2	6.08e-01	0	43	0	477102080	61	4545
2026-01-30 11:48:08.39	161.16	60.49	-45.5	-47.1	23.4	6.06e-01	0	43	0	479723520	61	4641
2026-01-30 11:48:08.96	161.14	60.78	-45.2	-46.8	23.7	6.07e-01	0	43	0	480772096	61	4458
2026-01-30 11:48:10.54	161.10	61.57	-45.8	-47.7	22.8	6.04e-01	0	43	0	483917824	62	4669
2026-01-30 11:48:11.14	161.09	61.87	-45.9	-47.7	22.9	6.08e-01	0	43	0	484966400	62	4653
2026-01-30 11:48:12.72	161.04	62.68	-45.9	-47.6	23.0	6.08e-01	0	43	0	488112128	62	4609
2026-01-30 11:48:13.29	161.02	62.97	-46.3	-48.1	22.6	6.07e-01	0	43	0	489160704	63	4629
2026-01-30 11:48:15.07	160.97	63.90	-46.4	-48.5	22.1	6.08e-01	0	43	0	492306432	63	4865
2026-01-30 11:48:15.64	160.95	64.20	-46.4	-48.5	22.1	6.07e-01	0	43	0	493355008	63	4853
2026-01-30 11:48:17.23	160.89	65.04	-47.4	-49.8	20.8	6.07e-01	0	43	0	496500736	65	5038
2026-01-30 11:48:17.80	160.87	65.34	-47.6	-50.1	20.6	6.08e-01	0	44	0	497549312	65	5168
2026-01-30 11:48:19.40	160.80	66.20	-47.4	-49.9	20.8	6.08e-01	0	43	0	500695040	65	5066
2026-01-30 11:48:19.97	160.78	66.51	-48.1	-50.9	19.9	6.06e-01	0	43	0	501743616	66	5346
2026-01-30 11:48:21.64	160.71	67.42	-47.9	-50.5	20.1	6.08e-01	0	43	0	504889344	67	4842
2026-01-30 11:48:22.21	160.68	67.73	-47.9	-50.6	20.0	6.05e-01	0	44	0	505937920	67	4912
2026-01-30 11:48:23.83	160.59	68.62	-48.5	-51.3	19.4	6.09e-01	0	44	0	508559360	67	5283
2026-01-30 11:48:24.45	160.56	68.97	-48.6	-51.4	19.3	6.07e-01	0	43	0	510132224	67	5378
2026-01-30 11:48:26.02	160.47	69.85	-48.3	-50.9	19.8	6.08e-01	0	44	0	512753664	67	5059
2026-01-30 11:48:26.63	160.43	70.19	-48.5	-51.4	19.3	6.06e-01	0	44	0	513802240	67	5350
2026-01-30 11:48:28.55	160.30	71.28	-47.9	-50.4	20.3	6.07e-01	0	44	0	517472256	67	4767
2026-01-30 11:48:29.12	160.26	71.61	-47.8	-50.2	20.4	6.08e-01	0	43	0	518520832	67	4689
2026-01-30 11:48:30.73	160.13	72.53	-47.5	-49.7	20.9	6.06e-01	0	43	0	521666560	66	4677
2026-01-30 11:48:31.30	160.08	72.86	-47.4	-49.6	21.1	6.08e-01	0	43	0	522715136	66	4631
2026-01-30 11:48:32.88	159.93	73.78	-47.3	-49.7	21.0	6.08e-01	0	44	0	525860864	66	4655
2026-01-30 11:48:33.48	159.87	74.13	-47.3	-49.5	21.0	6.07e-01	0	43	0	526909440	66	4591
2026-01-30 11:48:35.06	159.69	75.06	-46.6	-48.9	21.7	6.08e-01	0	44	0	530055168	65	4513
2026-01-30 11:48:35.66	159.62	75.42	-47.0	-49.5	21.2	6.06e-01	0	43	0	531103744	65	4836
2026-01-30 11:48:37.43	159.38	76.47	-46.7	-48.8	21.8	6.05e-01	0	43	0	534249472	64	4721
2026-01-30 11:48:38.00	159.30	76.81	-46.8	-48.9	21.8	6.06e-01	0	44	0	535298048	64	4785
2026-01-30 11:48:39.62	159.03	77.78	-46.2	-48.1	22.5	6.06e-01	0	43	0	538443776	64	4349
2026-01-30 11:48:40.19	158.92	78.12	-46.0	-47.9	22.7	6.06e-01	0	43	0	539492352	64	4291
2026-01-30 11:48:42.20	158.49	79.34	-45.8	-47.6	23.1	6.07e-01	0	43	0	543162368	63	4359
2026-01-30 11:48:43.13	158.25	79.90	-45.4	-47.2	23.3	6.05e-01	0	43	0	544735232	62	4406
2026-01-30 11:48:44.13	157.96	80.51	-45.2	-46.8	23.7	6.06e-01	0	44	0	546832384	62	4221
2026-01-30 11:48:45.13	157.63	81.12	-45.0	-46.6	23.9	6.07e-01	0	44	0	548929536	62	4103
2026-01-30 11:48:46.17	157.24	81.76	-44.8	-46.3	24.3	6.08e-01	0	44	0	550502400	61	4212
2026-01-30 11:48:47.19	156.79	82.38	-44.7	-46.2	24.3	6.07e-01	0	43	0	552599552	61	4181
2026-01-30 11:48:48.19	156.27	83.00	-44.8	-46.4	24.1	6.06e-01	0	43	0	554172416	61	4260
2026-01-30 11:48:49.24	155.61	83.64	-44.8	-46.4	24.1	6.05e-01	0	43	0	556269568	61	4256
2026-01-30 11:48:50.17	154.90	84.21	-45.0	-46.6	23.9	6.07e-01	0	44	0	558366720	61	4365
2026-01-30 11:48:51.17	153.96	84.83	-44.9	-46.6	23.9	6.06e-01	0	44	0	559939584	61	4366
2026-01-30 11:48:52.34	152.53	85.55	-45.0	-46.6	23.8	6.07e-01	0	44	0	562036736	61	4370
2026-01-30 11:48:53.23	151.09	86.09	-44.5	-46.2	23.6	6.06e-01	0	43	0	564133888	60	4425
2026-01-30 11:48:54.38	148.50	86.79	-44.7	-46.2	24.2	6.08e-01	0	43	0	566231040	60	4428
2026-01-30 11:48:55.23	145.72	87.30	-44.5	-46.1	24.4	6.06e-01	0	44	0	567803904	60	4347
2026-01-30 11:48:56.60	138.11	88.11	-44.3	-45.8	24.6	6.07e-01	0	43	0	570425344	59	4443
2026-01-30 11:48:57.30	131.15	88.49	-44.7	-46.3	23.2	6.05e-01	0	43	0	571473920	61	4228
2026-01-30 11:48:58.65	101.78	89.10	-43.4	-44.7	25.4	6.07e-01	0	43	0	574095360	58	4193
2026-01-30 11:48:59.36	72.27	89.21	-43.7	-45.1	24.7	6.05e-01	0	43	0	575668224	59	4113
2026-01-30 11:49:00.65	26.85	88.87	-43.9	-45.3	24.8	6.07e-01	0	43	0	577765376	59	4202
2026-01-30 11:49:01.37	14.70	88.51	-43.9	-45.2	24.7	6.08e-01	0	43	0	579338240	59	4189
2026-01-30 11:49:02.65	3.65	87.79	-44.3	-45.9	24.2	6.08e-01	0	43	0	581435392	60	4245
2026-01-30 11:49:03.37	0.16	87.36	-44.5	-46.1	24.2	6.06e-01	0	43	0	583008256	60	4389
2026-01-30 11:49:04.66	356.11	86.59	-44.9	-46.6	23.9	6.07e-01	0	43	0	585105408	60	4604
2026-01-30 11:49:05.55	354.26	86.04	-45.4	-47.1	23.5	6.09e-01	0	43	0	587202560	61	4633
2026-01-30 11:49:06.69	352.51	85.35	-45.2	-46.9	23.6	6.06e-01	0	43	0	589299712	61	4524
2026-01-30 11:49:07.55	351.51	84.82	-45.2	-47.0	23.5	6.07e-01	0	43	0	590872576	61	4547
2026-01-30 11:49:08.70	350.45	84.11	-45.3	-47.0	23.5	6.08e-01	0	43	0	592969728	61	4583
2026-01-30 11:49:09.83	349.64	83.42	-45.4	-47.1	23.4	6.07e-01	0	44	0	595066880	61	4630
2026-01-30 11:49:10.69	349.13	82.89	-44.9	-46.4	23.7	6.05e-01	0	43	0	596639744	61	4263
2026-01-30 11:49:11.83	348.55	82.19	-44.6	-46.0	24.3	6.07e-01	0	44	0	598736896	61	4096
2026-01-30 11:49:12.69	348.19	81.66	-44.6	-46.0	24.4	6.06e-01	0	43	0	600309760	60	4336
2026-01-30 11:49:13.84	347.77	80.96	-44.7	-46.1	24.3	6.08e-01	0	44	0	602406912	60	4377
2026-01-30 11:49:14.69	347.50	80.44	-44.5	-45.9	24.0	6.08e-01	0	43	0	603979776	60	4260
2026-01-30 11:49:15.84	347.17	79.74	-46.0	-47.8	22.9	6.07e-01	0	43	0	606601216	62	4731
2026-01-30 11:49:16.70	346.96	79.22	-45.0	-46.5	23.9	6.08e-01	0	43	0	608174080	62	4083
2026-01-30 11:49:17.84	346.71	78.53	-45.8	-47.6	23.0	6.07e-01	0	44	0	610271232	62	4630
2026-01-30 11:49:18.70	346.54	78.02	-46.9	-49.1	21.7	6.06e-01	0	44	0	611844096	64	4914
2026-01-30 11:49:19.99	346.31	77.24	-46.2	-48.0	22.5	6.07e-01	0	44	0	613941248	64	4314
2026-01-30 11:49:20.71	346.20	76.81	-46.8	-48.7	21.9	6.07e-01	0	43	0	615514112	64	4693
2026-01-30 11:49:22.00	346.01	76.04	-47.4	-49.6	20.9	6.05e-01	0	44	0	618135552	65	4924
2026-01-30 11:49:22.72	345.91	75.62	-47.0	-49.1	21.5	6.06e-01	0	44	0	619184128	65	4613
2026-01-30 11:49:24.01	345.76	74.86	-47.3	-49.4	21.3	6.07e-01	0	43	0	621805568	65	4797
2026-01-30 11:49:24.72	345.68	74.44	-47.0	-49.1	21.5	6.07e-01	0	43	0	622854144	65	4644
2026-01-30 11:49:26.01	345.54	73.69	-46.8	-48.8	21.8	6.08e-01	0	44	0	625475584	65	4476
2026-01-30 11:49:26.73	345.48	73.27	-47.0	-49.1	21.5	6.05e-01	0	44	0	627048448	65	4619
2026-01-30 11:49:28.02	345.36	72.52	-46.7	-48.7	21.9	6.07e-01	0	43	0	629145600	65	4393
2026-01-30 11:49:28.73	345.30	72.11	-47.1	-49.1	21.6	6.07e-01	0	43	0	630718464	65	4651
2026-01-30 11:49:30.07	345.20	71.35	-47.7	-50.1	20.6	6.09e-01	0	43	0	632815616	66	4887
2026-01-30 11:49:31.04	345.13	70.79	-47.5	-50.2	20.4	6.07e-01	0	44	0	634912768	66	4961
2026-01-30 11:49:32.36	345.05	70.05	-47.6	-50.1	20.7	6.09e-01	0	43	0	637534208	66	4879
2026-01-30 11:49:33.07	345.00	69.65	-48.3	-51.1	19.8	6.07e-01	0	44	0	638582784	67	5160
2026-01-30 11:49:34.71	344.91	68.74	-47.6	-49.8	20.8	6.07e-01	0	43	0	641728512	67	4492
2026-01-30 11:49:35.29	344.88	68.42	-47.4	-49.8	20.7	6.06e-01	0	43	0	642777088	66	4758
2026-01-30 11:49:36.86	344.80	67.55	-47.8	-50.2	20.5	6.06e-01	0	43	0	645922816	66	4931
2026-01-30 11:49:37.44	344.77	67.24	-47.4	-49.7	21.0	6.06e-01	0	44	0	646971392	66	4666
2026-01-30 11:49:39.01	344.70	66.39	-47.4	-49.8	20.8	6.07e-01	0	44	0	649592832	66	4742
2026-01-30 11:49:39.59	344.68	66.07	-46.7	-48.8	21.7	6.06e-01	0	44	0	650641408	65	4474
2026-01-30 11:49:41.23	344.61	65.20	-46.8	-49.1	21.5	6.09e-01	0	43	0	653787136	64	4896
2026-01-30 11:49:41.80	344.59	64.90	-46.9	-49.1	21.6	6.08e-01	0	44	0	654835712	64	4885
2026-01-30 11:49:43.41	344.54	64.05	-46.0	-47.7	22.8	6.05e-01	0	44	0	657981440	64	4181
2026-01-30 11:49:43.98	344.52	63.75	-45.9	-47.7	22.9	6.08e-01	0	44	0	659030016	63	4417
2026-01-30 11:49:45.58	344.47	62.93	-45.2	-46.9	23.6	6.09e-01	0	43	0	662175744	62	4290
2026-01-30 11:49:46.41	344.44	62.50	-45.3	-47.1	23.5	6.05e-01	0	44	0	663748608	62	4390
2026-01-30 11:49:47.56	344.41	61.92	-45.6	-47.3	23.3	6.08e-01	0	44	0	665845760	62	4450
2026-01-30 11:49:48.42	344.39	61.48	-45.4	-47.1	23.5	6.07e-01	0	44	0	667418624	62	4346
2026-01-30 11:49:49.56	344.36	60.91	-45.0	-46.6	23.9	6.06e-01	0	44	0	669515776	62	4124
2026-01-30 11:49:50.42	344.34	60.49	-45.0	-46.7	23.8	6.05e-01	0	44	0	671088640	61	4430
2026-01-30 11:49:51.57	344.31	59.92	-45.3	-47.2	23.4	6.08e-01	0	44	0	673185792	61	4678
2026-01-30 11:49:52.42	344.29	59.51	-44.9	-46.6	23.9	6.07e-01	0	43	0	674758656	61	4353
2026-01-30 11:49:53.57	344.27	58.95	-44.7	-46.3	24.2	6.06e-01	0	43	0	676855808	61	4222
2026-01-30 11:49:54.43	344.25	58.54	-44.6	-46.4	24.1	6.06e-01	0	43	0	678952960	61	4271
2026-01-30 11:49:55.57	344.23	57.99	-44.4	-46.1	24.4	6.05e-01	0	44	0	681050112	60	4364
2026-01-30 11:49:56.61	344.21	57.50	-44.6	-46.3	24.2	6.08e-01	0	43	0	682622976	60	4470
2026-01-30 11:49:57.78	344.18	56.96	-44.1	-45.6	24.8	6.05e-01	0	43	0	685244416	60	4128
2026-01-30 11:49:58.64	344.17	56.56	-44.2	-45.7	24.8	6.05e-01	0	43	0	686817280	59	4413
2026-01-30 11:49:59.99	344.15	55.94	-43.6	-45.0	25.4	6.07e-01	0	44	0	688914432	59	4087
2026-01-30 11:50:00.71	344.14	55.61	-43.5	-44.8	25.6	6.07e-01	0	43	0	690487296	59	3998
2026-01-30 11:50:02.21	344.11	54.93	-43.5	-44.8	25.7	6.06e-01	0	44	0	693108736	58	4221
2026-01-30 11:50:02.92	344.10	54.62	-43.7	-45.0	25.5	6.04e-01	0	43	0	694681600	58	4325
2026-01-30 11:50:04.21	344.08	54.05	-43.6	-44.9	25.5	6.07e-01	0	43	0	696778752	58	4279
2026-01-30 11:50:04.93	344.08	53.73	-43.4	-44.7	25.6	6.07e-01	0	43	0	698351616	58	4176
2026-01-30 11:50:06.21	344.06	53.17	-43.5	-44.7	25.7	6.06e-01	0	43	0	700973056	58	4192
2026-01-30 11:50:06.93	344.05	52.86	-43.5	-44.8	25.6	6.06e-01	0	43	0	702021632	58	4232
2026-01-30 11:50:08.22	344.03	52.31	-43.8	-45.3	25.2	6.07e-01	0	43	0	704643072	58	4443
2026-01-30 11:50:08.94	344.03	52.01	-43.5	-44.9	25.4	6.06e-01	0	44	0	705691648	58	4285
2026-01-30 11:50:10.23	344.01	51.47	-43.7	-45.1	25.4	6.07e-01	0	43	0	708313088	58	4358
2026-01-30 11:50:10.94	344.00	51.18	-44.1	-45.5	25.0	6.07e-01	0	44	0	709885952	58	4589
2026-01-30 11:50:12.23	343.99	50.64	-44.4	-45.9	24.7	6.05e-01	0	43	0	711983104	59	4495
2026-01-30 11:50:13.14	343.98	50.27	-44.5	-45.9	24.6	6.07e-01	0	44	0	713555968	59	4521
2026-01-30 11:50:14.48	343.97	49.73	-44.4	-45.9	24.7	6.06e-01	0	44	0	716177408	59	4498
2026-01-30 11:50:15.19	343.96	49.45	-44.5	-45.9	24.6	6.08e-01	0	44	0	717750272	59	4535
2026-01-30 11:50:16.48	343.95	48.94	-44.5	-46.1	24.5	6.08e-01	0	43	0	719847424	59	4603
2026-01-30 11:50:17.20	343.95	48.66	-44.5	-46.0	24.6	6.05e-01	0	44	0	721420288	59	4561
2026-01-30 11:50:18.49	343.93	48.16	-44.4	-45.8	24.7	6.06e-01	0	44	0	724041728	59	4487
2026-01-30 11:50:19.21	343.93	47.88	-44.5	-46.0	24.6	6.07e-01	0	43	0	725090304	59	4567
2026-01-30 11:50:20.50	343.92	47.39	-44.7	-55.7	3.8	7.49e-01	0	43	104	727187456	60	13187
2026-01-30 11:50:21.21	343.91	47.12	-44.7	-55.6	3.9	7.48e-01	0	44	104	727187456	60	13038
2026-01-30 11:50:22.50	343.90	46.64	-44.9	-55.7	3.7	7.49e-01	0	44	104	727187456	60	13129
2026-01-30 11:50:23.22	343.90	46.37	-44.9	-55.6	3.9	7.41e-01	0	43	104	727187456	60	13105
2026-01-30 11:50:24.51	343.89	45.90	-44.9	-55.9	3.8	7.50e-01	0	44	104	727187456	60	13544
2026-01-30 11:50:25.23	343.89	45.64	-46.2	-57.2	3.9	7.48e-01	0	44	104	727187456	62	13953
2026-01-30 11:50:26.52	343.88	45.18	-52.7	-71.1	3.8	7.46e-01	0	43	104	727187456	76	31042
2026-01-30 11:50:27.23	343.87	44.92	-52.6	-70.5	3.8	7.46e-01	0	44	104	727187456	76	28725
2026-01-30 11:50:28.52	343.87	44.47	-52.2	-70.5	3.8	7.47e-01	0	43	104	727187456	76	28776
2026-01-30 11:50:29.24	343.86	44.22	-51.9	-70.3	3.8	7.50e-01	0	44	104	727187456	75	29721
2026-01-30 11:50:30.53	343.86	43.77	-51.6	-70.5	3.8	7.45e-01	0	43	104	727187456	75	30664
2026-01-30 11:50:31.25	343.85	43.52	-51.5	-70.4	3.8	7.44e-01	0	44	104	727187456	75	30257
2026-01-30 11:50:32.54	343.85	43.08	-51.6	-70.1	3.8	7.46e-01	0	43	104	727187456	74	31030
2026-01-30 11:50:33.25	343.84	42.84	-51.7	-70.8	3.8	7.47e-01	0	44	104	727187456	74	33380
2026-01-30 11:50:34.54	343.84	42.41	-49.3	-62.0	3.9	7.47e-01	0	43	104	727187456	70	15310
2026-01-30 11:50:35.26	343.83	42.18	-45.7	-56.5	4.0	7.48e-01	0	43	104	727187456	62	12915
2026-01-30 11:50:36.55	343.83	41.75	-45.5	-56.7	3.7	7.47e-01	0	44	104	727187456	63	12468
2026-01-30 11:50:37.26	343.83	41.52	-46.5	-58.3	3.9	7.39e-01	0	44	104	727187456	64	14135
2026-01-30 11:50:38.55	343.82	41.11	-46.9	-59.3	3.8	7.49e-01	0	43	104	727187456	64	15869
2026-01-30 11:50:39.27	343.82	40.88	-46.6	-58.8	3.8	7.44e-01	0	44	104	727187456	64	14893
2026-01-30 11:50:40.56	343.81	40.47	-46.1	-57.6	3.8	7.42e-01	0	43	104	727187456	64	13021
2026-01-30 11:50:41.28	343.81	40.25	-46.2	-57.5	3.8	7.46e-01	0	44	104	727187456	64	12882
2026-01-30 11:50:42.76	343.81	39.79	-46.0	-56.9	3.8	7.47e-01	0	43	104	727187456	63	12679
2026-01-30 11:50:43.47	343.80	39.57	-48.6	-60.7	3.8	7.45e-01	0	44	104	727187456	67	15750
2026-01-30 11:50:44.76	343.80	39.18	-48.8	-61.0	3.8	7.42e-01	0	44	104	727187456	69	14383
2026-01-30 11:50:45.48	343.80	38.97	-46.3	-57.6	3.8	7.45e-01	0	43	104	727187456	64	13009
2026-01-30 11:50:46.78	343.80	38.58	-46.4	-57.7	3.8	7.42e-01	0	44	104	727187456	64	13201
2026-01-30 11:50:47.49	343.79	38.37	-46.4	-57.9	3.8	7.44e-01	0	44	104	727187456	64	13519
2026-01-30 11:50:48.78	343.79	37.99	-46.0	-57.4	3.8	7.49e-01	0	43	104	727187456	63	13520
2026-01-30 11:50:49.50	343.79	37.78	-45.9	-57.3	3.8	7.46e-01	0	44	104	727187456	63	13287
2026-01-30 11:50:50.79	343.79	37.41	-46.1	-57.4	3.8	7.47e-01	0	44	104	727187456	63	13517
2026-01-30 11:50:51.50	343.78	37.21	-45.6	-56.8	3.8	7.44e-01	0	44	104	727187456	63	12537
2026-01-30 11:50:52.80	343.78	36.85	-51.6	-69.7	3.8	7.49e-01	0	44	104	727187456	73	31225
2026-01-30 11:50:53.66	343.78	36.61	-51.7	-70.8	3.8	7.46e-01	0	44	104	727187456	74	33457
2026-01-30 11:50:55.12	343.78	36.20	-51.1	-70.5	3.8	7.46e-01	0	43	104	727187456	74	32339
2026-01-30 11:50:55.84	343.78	36.01	-50.9	-70.3	3.8	7.47e-01	0	43	104	727187456	73	33318
2026-01-30 11:50:57.13	343.77	35.66	-50.8	-70.6	3.8	7.47e-01	0	43	104	727187456	73	34642
2026-01-30 11:50:57.85	343.77	35.46	-50.8	-70.6	3.8	7.48e-01	0	44	104	727187456	73	34780
2026-01-30 11:50:59.14	343.77	35.12	-51.0	-69.9	3.8	7.43e-01	0	44	104	727187456	73	32076
2026-01-30 11:50:59.85	343.77	34.93	-51.1	-69.1	3.8	7.43e-01	0	43	104	727187456	73	29067
2026-01-30 11:51:01.14	343.77	34.60	-51.7	-71.1	3.8	7.47e-01	0	44	104	727187456	73	36592
2026-01-30 11:51:01.91	343.77	34.40	-44.7	-55.7	3.8	7.45e-01	0	43	104	727187456	61	12491
2026-01-30 11:51:03.19	343.77	34.07	-46.9	-58.6	3.8	7.45e-01	0	43	104	727187456	65	13813
2026-01-30 11:51:04.00	343.76	33.86	-45.1	-56.0	3.8	7.48e-01	0	43	104	727187456	60	13682
2026-01-30 11:51:05.15	343.76	33.57	-44.2	-55.1	3.8	7.44e-01	0	43	104	727187456	60	12317
2026-01-30 11:51:06.01	343.76	33.36	-44.2	-55.1	3.8	7.44e-01	0	43	104	727187456	59	12975
2026-01-30 11:51:07.16	343.76	33.07	-44.0	-54.8	3.8	7.47e-01	0	43	104	727187456	59	12631
2026-01-30 11:51:08.02	343.76	32.86	-43.9	-54.8	3.8	7.45e-01	0	44	104	727187456	59	12624
2026-01-30 11:51:09.17	343.76	32.58	-43.9	-55.0	3.8	7.46e-01	0	43	104	727187456	59	12823
2026-01-30 11:51:10.03	343.76	32.38	-44.0	-55.0	3.8	7.46e-01	0	44	104	727187456	59	12917
2026-01-30 11:51:11.18	343.76	32.10	-50.6	-70.8	3.8	7.45e-01	0	43	104	727187456	72	37510
2026-01-30 11:51:12.42	343.76	31.81	-47.4	-60.8	3.8	7.44e-01	0	43	104	727187456	67	15923
2026-01-30 11:51:13.28	343.76	31.61	-48.0	-61.1	3.8	7.45e-01	0	43	104	727187456	66	17313
2026-01-30 11:51:14.42	343.76	31.34	-48.0	-60.7	3.8	7.45e-01	0	44	104	727187456	66	16536
2026-01-30 11:51:15.28	343.76	31.14	-48.1	-60.8	3.8	7.47e-01	0	43	104	727187456	67	15867
2026-01-30 11:51:16.43	343.76	30.88	-46.4	-58.0	3.8	7.46e-01	0	43	104	727187456	64	13688
2026-01-30 11:51:17.29	343.76	30.68	-46.4	-58.0	3.8	7.46e-01	0	43	104	727187456	63	14401
2026-01-30 11:51:18.43	343.76	30.43	-48.1	-60.6	3.8	7.44e-01	0	44	104	727187456	66	16459
2026-01-30 11:51:19.29	343.76	30.24	-49.0	-62.3	3.8	7.42e-01	0	44	104	727187456	69	16831
2026-01-30 11:51:20.51	343.76	29.97	-46.2	-57.8	3.8	7.47e-01	0	44	104	727187456	64	13364
2026-01-30 11:51:21.36	343.76	29.78	-45.5	-56.8	3.8	7.47e-01	0	43	104	727187456	61	14064
2026-01-30 11:51:22.51	343.76	29.53	-49.1	-62.5	3.9	7.44e-01	0	43	104	727187456	70	16214
2026-01-30 11:51:23.37	343.76	29.34	-44.1	-55.2	3.8	7.45e-01	0	43	104	727187456	60	12473
2026-01-30 11:51:24.52	343.76	29.10	-44.0	-55.1	3.8	7.42e-01	0	43	104	727187456	59	13027
2026-01-30 11:51:25.38	343.76	28.92	-44.1	-55.2	3.8	7.48e-01	0	43	104	727187456	59	13207
2026-01-30 11:51:26.53	343.76	28.67	-45.0	-56.3	3.8	7.44e-01	0	43	104	727187456	60	14143
2026-01-30 11:51:27.38	343.76	28.50	-45.9	-57.4	3.8	7.43e-01	0	43	104	727187456	63	13489
2026-01-30 11:51:28.53	343.76	28.26	-48.1	-61.5	3.8	7.47e-01	0	43	104	727187456	66	18227
2026-01-30 11:51:29.39	343.76	28.08	-50.7	-70.6	3.8	7.45e-01	0	43	104	727187456	72	36547
2026-01-30 11:51:30.54	343.76	27.85	-49.9	-67.8	3.8	7.44e-01	0	43	104	727187456	71	28207
2026-01-30 11:51:31.40	343.76	27.67	-50.2	-67.8	3.8	7.45e-01	0	43	104	727187456	71	28091
2026-01-30 11:51:32.55	343.76	27.44	-50.0	-66.8	3.8	7.47e-01	0	43	104	727187456	71	25264
2026-01-30 11:51:33.41	343.76	27.27	-50.2	-66.2	3.8	7.47e-01	0	44	104	727187456	71	23322
2026-01-30 11:51:34.55	343.76	27.05	-50.9	-67.1	3.8	7.47e-01	0	43	104	727187456	72	24639
2026-01-30 11:51:35.41	343.76	26.88	-51.0	-65.5	3.8	7.46e-01	0	43	104	727187456	72	20439
2026-01-30 11:51:36.59	343.76	26.65	-49.2	-61.7	3.8	7.45e-01	0	43	104	727187456	70	14756
2026-01-30 11:51:37.45	343.76	26.48	-48.5	-60.8	3.8	7.43e-01	0	43	104	727187456	69	14068
2026-01-30 11:51:38.60	343.76	26.26	-45.9	-57.5	3.8	7.43e-01	0	43	104	727187456	63	13614
2026-01-30 11:51:39.46	343.77	26.10	-46.8	-59.1	3.8	7.44e-01	0	43	104	727187456	64	15416
2026-01-30 11:51:40.60	343.77	25.89	-46.5	-59.0	3.9	7.41e-01	0	43	104	727187456	65	14466
2026-01-30 11:51:41.51	343.77	25.72	-44.5	-55.8	3.8	7.46e-01	0	43	104	727187456	60	13283
2026-01-30 11:51:42.52	343.77	25.53	-44.6	-55.9	3.8	7.46e-01	0	44	104	727187456	60	13448
2026-01-30 11:51:43.52	343.77	25.35	-44.4	-55.5	3.8	7.46e-01	0	43	104	727187456	60	12945
2026-01-30 11:51:44.52	343.77	25.16	-44.6	-55.6	3.8	7.45e-01	0	43	104	727187456	60	13106
2026-01-30 11:51:45.52	343.77	24.98	-44.6	-55.7	3.8	7.42e-01	0	43	104	727187456	60	13252
2026-01-30 11:51:46.53	343.77	24.80	-49.0	-62.4	3.8	7.46e-01	0	43	104	727187456	68	18007
2026-01-30 11:51:47.53	343.77	24.62	-49.0	-62.4	3.9	7.42e-01	0	44	104	727187456	70	16114
2026-01-30 11:51:48.53	343.77	24.44	-45.0	-56.4	3.9	7.43e-01	0	43	104	727187456	62	12730
2026-01-30 11:51:49.54	343.78	24.27	-44.4	-55.8	3.8	7.43e-01	0	43	104	727187456	60	13362
2026-01-30 11:51:50.54	343.78	24.09	-44.5	-55.9	3.8	7.43e-01	0	43	104	727187456	60	13547
2026-01-30 11:51:51.54	343.78	23.92	-44.4	-55.9	3.8	7.46e-01	0	43	104	727187456	60	13420
2026-01-30 11:51:52.54	343.78	23.75	-44.2	-55.7	3.8	7.44e-01	0	43	104	727187456	60	13115
2026-01-30 11:51:53.55	343.78	23.57	-44.3	-55.7	3.8	7.45e-01	0	43	104	727187456	60	13174
2026-01-30 11:51:54.55	343.78	23.40	-44.6	-56.0	3.8	7.45e-01	0	44	104	727187456	60	13723
2026-01-30 11:51:55.55	343.78	23.23	-48.0	-61.9	3.8	7.48e-01	0	43	104	727187456	66	19002
2026-01-30 11:51:56.56	343.79	23.07	-48.4	-62.8	3.9	7.42e-01	0	43	104	727187456	68	18762
2026-01-30 11:51:57.56	343.79	22.90	-45.1	-56.4	3.9	7.45e-01	0	43	104	727187456	62	12727
2026-01-30 11:51:58.56	343.79	22.73	-45.0	-56.1	3.8	7.46e-01	0	43	104	727187456	61	13095
2026-01-30 11:51:59.57	343.79	22.57	-44.9	-56.1	3.8	7.46e-01	0	43	104	727187456	61	13089
2026-01-30 11:52:00.57	343.79	22.41	-44.6	-55.8	3.8	7.41e-01	0	44	104	727187456	61	12573
2026-01-30 11:52:01.94	343.79	22.19	-44.3	-55.6	3.8	7.43e-01	0	43	104	727187456	60	12974
2026-01-30 11:52:02.69	343.79	22.07	-44.2	-55.5	3.8	7.46e-01	0	43	104	727187456	60	12950
2026-01-30 11:52:03.98	343.80	21.86	-44.6	-56.1	3.8	7.45e-01	0	43	104	727187456	60	13777
2026-01-30 11:52:04.70	343.80	21.75	-50.4	-66.6	3.8	7.50e-01	0	43	104	727187456	71	24442
2026-01-30 11:52:05.98	343.80	21.55	-47.6	-61.0	3.8	7.45e-01	0	43	104	727187456	66	17250
2026-01-30 11:52:06.70	343.80	21.43	-44.0	-55.0	3.8	7.43e-01	0	44	104	727187456	60	12218
2026-01-30 11:52:07.99	343.80	21.23	-44.3	-55.1	3.8	7.46e-01	0	43	104	727187456	60	12354
2026-01-30 11:52:08.70	343.80	21.12	-44.4	-55.1	3.8	7.43e-01	0	43	104	727187456	60	12257
2026-01-30 11:52:09.99	343.81	20.93	-44.3	-54.9	3.8	7.45e-01	0	43	104	727187456	60	12026
2026-01-30 11:52:10.71	343.81	20.82	-44.3	-54.9	3.8	7.47e-01	0	43	104	727187456	60	12020
2026-01-30 11:52:12.06	343.81	20.62	-44.3	-55.1	3.8	7.46e-01	0	43	104	727187456	60	12375
2026-01-30 11:52:12.78	343.81	20.51	-44.9	-55.8	3.8	7.44e-01	0	43	104	727187456	60	13271
2026-01-30 11:52:14.15	343.81	20.30	-50.4	-70.6	3.8	7.44e-01	0	43	104	727187456	71	38918
2026-01-30 11:52:14.87	343.82	20.20	-48.5	-60.9	3.8	7.45e-01	0	43	104	727187456	68	15119
2026-01-30 11:52:16.15	343.82	20.01	-44.1	-55.2	3.8	7.47e-01	0	43	104	727187456	60	12447
2026-01-30 11:52:17.21	343.82	19.86	-44.0	-55.1	3.8	7.43e-01	0	43	104	727187456	60	12315
2026-01-30 11:52:18.08	343.82	19.73	-44.2	-55.3	3.8	7.46e-01	0	43	104	727187456	59	13301
2026-01-30 11:52:19.23	343.82	19.56	-44.1	-55.2	3.8	7.45e-01	0	43	104	727187456	59	13226
2026-01-30 11:52:20.09	343.83	19.44	-44.2	-55.3	3.8	7.44e-01	0	43	104	727187456	59	13317
2026-01-30 11:52:21.30	343.83	19.27	-44.3	-55.3	3.8	7.46e-01	0	43	104	727187456	59	13315
2026-01-30 11:52:22.16	343.83	19.15	-45.0	-56.3	3.8	7.48e-01	0	43	104	727187456	60	14176
2026-01-30 11:52:23.31	343.83	18.99	-50.0	-68.3	3.9	7.41e-01	0	43	104	727187456	71	29937
2026-01-30 11:52:24.17	343.83	18.87	-48.0	-61.1	3.8	7.43e-01	0	43	104	727187456	67	16421
2026-01-30 11:52:25.32	343.84	18.71	-44.0	-54.9	3.8	7.48e-01	0	43	104	727187456	60	12055
2026-01-30 11:52:26.19	343.84	18.59	-44.2	-55.1	3.8	7.42e-01	0	43	104	727187456	59	13057
2026-01-30 11:52:27.51	343.84	18.41	-44.0	-55.2	3.8	7.47e-01	0	43	104	727187456	59	13116
2026-01-30 11:52:28.23	343.84	18.31	-43.9	-55.1	3.8	7.46e-01	0	43	104	727187456	59	13042
2026-01-30 11:52:29.52	343.84	18.14	-43.8	-55.0	3.8	7.43e-01	0	44	104	727187456	59	12953
2026-01-30 11:52:30.24	343.85	18.04	-43.8	-55.1	3.8	7.43e-01	0	43	104	727187456	59	13066
2026-01-30 11:52:31.53	343.85	17.87	-48.2	-61.2	3.8	7.50e-01	0	43	104	727187456	66	17582
2026-01-30 11:52:32.25	343.85	17.77	-50.9	-69.1	3.9	7.42e-01	0	43	104	727187456	72	30797
2026-01-30 11:52:33.53	343.85	17.60	-44.2	-56.2	3.8	7.45e-01	0	43	104	727187456	60	14037
2026-01-30 11:52:34.25	343.85	17.51	-43.8	-55.2	3.8	7.42e-01	0	43	104	727187456	59	13176
2026-01-30 11:52:35.54	343.86	17.34	-44.0	-55.2	3.8	7.44e-01	0	43	104	727187456	59	13180
2026-01-30 11:52:36.25	343.86	17.25	-44.0	-55.1	3.8	7.42e-01	0	43	104	727187456	59	13043
2026-01-30 11:52:37.54	343.86	17.08	-44.2	-55.3	3.8	7.48e-01	0	43	104	727187456	59	13322
2026-01-30 11:52:38.26	343.86	16.99	-44.2	-55.3	3.8	7.46e-01	0	43	104	727187456	59	13397
2026-01-30 11:52:39.56	343.87	16.83	-44.4	-55.6	3.8	7.44e-01	0	43	104	727187456	59	13748
2026-01-30 11:52:40.28	343.87	16.74	-45.4	-57.0	3.8	7.43e-01	0	43	104	727187456	61	14517
2026-01-30 11:52:41.64	343.87	16.56	-47.7	-62.0	3.9	7.46e-01	0	44	104	727187456	67	18127
2026-01-30 11:52:42.35	343.87	16.48	-47.1	-59.6	3.8	7.46e-01	0	43	104	727187456	66	14649
2026-01-30 11:52:43.65	343.88	16.31	-44.1	-55.4	3.8	7.42e-01	0	43	104	727187456	60	12760
2026-01-30 11:52:44.67	343.88	16.19	-44.0	-55.5	3.8	7.45e-01	0	43	104	727187456	60	12844
2026-01-30 11:52:45.97	343.88	16.03	-44.0	-55.5	3.8	7.45e-01	0	43	104	727187456	59	13642
2026-01-30 11:52:46.70	343.88	15.94	-43.9	-55.4	3.8	7.45e-01	0	43	104	727187456	59	13501
2026-01-30 11:52:48.30	343.89	15.75	-43.9	-55.5	3.8	7.43e-01	0	44	104	727187456	59	13693
2026-01-30 11:52:48.87	343.89	15.68	-43.7	-55.1	3.8	7.43e-01	0	43	104	727187456	59	13080
2026-01-30 11:52:50.46	343.89	15.49	-46.4	-59.4	3.9	7.44e-01	0	43	104	727187456	63	16908
2026-01-30 11:52:51.04	343.89	15.42	-48.9	-63.9	3.8	7.46e-01	0	43	104	727187456	68	21383
2026-01-30 11:52:52.66	343.90	15.23	-47.2	-61.5	3.8	7.50e-01	0	44	104	727187456	64	20386
2026-01-30 11:52:53.23	343.90	15.16	-48.7	-67.0	3.9	7.41e-01	0	43	104	727187456	69	29007
2026-01-30 11:52:54.81	343.90	14.97	-43.9	-54.8	3.8	7.43e-01	0	43	104	727187456	59	12641
2026-01-30 11:52:55.39	343.90	14.91	-43.9	-54.8	3.8	7.50e-01	0	43	104	727187456	59	12659
2026-01-30 11:52:56.97	343.91	14.72	-43.9	-54.8	3.8	7.46e-01	0	43	104	727187456	59	12641
2026-01-30 11:52:57.57	343.91	14.66	-43.9	-54.8	3.8	7.45e-01	0	43	104	727187456	59	12618
2026-01-30 11:52:59.14	343.91	14.48	-46.4	-58.3	3.9	7.41e-01	0	43	104	727187456	63	15008
2026-01-30 11:52:59.72	343.92	14.41	-47.7	-61.7	3.8	7.47e-01	0	43	104	727187456	65	19719
2026-01-30 11:53:01.57	343.92	14.20	-48.5	-64.1	3.8	7.49e-01	0	43	104	727187456	67	23113
2026-01-30 11:53:02.14	343.92	14.14	-49.3	-70.4	3.8	7.44e-01	0	43	104	727187456	69	42698
2026-01-30 11:53:03.72	343.93	13.96	-48.2	-62.0	3.8	7.42e-01	0	43	104	727187456	68	17092
2026-01-30 11:53:04.30	343.93	13.90	-47.8	-61.2	3.8	7.48e-01	0	43	104	727187456	67	16619
2026-01-30 11:53:05.88	343.93	13.72	-47.1	-60.3	3.8	7.47e-01	0	43	104	727187456	65	16845
2026-01-30 11:53:06.51	343.93	13.65	-46.8	-60.0	3.9	7.46e-01	0	43	104	727187456	65	16182
2026-01-30 11:53:07.95	343.94	13.50	-48.5	-63.5	3.8	7.46e-01	0	43	104	727187456	67	21525
2026-01-30 11:53:08.66	343.94	13.42	-45.9	-58.9	3.9	7.46e-01	0	43	104	727187456	63	16032
2026-01-30 11:53:10.13	343.94	13.26	-43.6	-54.9	3.8	7.44e-01	0	43	104	727187456	59	12751
2026-01-30 11:53:10.84	343.94	13.18	-48.4	-66.4	3.7	7.49e-01	0	43	104	727187456	67	30129
2026-01-30 11:53:12.13	343.95	13.05	-43.7	-55.1	3.8	7.44e-01	0	43	104	727187456	59	13009
2026-01-30 11:53:12.85	343.95	12.97	-43.6	-55.0	3.8	7.45e-01	0	43	104	727187456	59	12820
2026-01-30 11:53:14.14	343.95	12.83	-43.7	-54.9	3.8	7.43e-01	0	43	104	727187456	59	12800
2026-01-30 11:53:14.86	343.96	12.76	-43.8	-55.1	3.8	7.44e-01	0	43	104	727187456	59	13049
2026-01-30 11:53:16.15	343.96	12.62	-45.4	-58.7	3.8	7.42e-01	0	43	104	727187456	62	16514
2026-01-30 11:53:16.87	343.96	12.55	-44.9	-56.8	3.9	7.45e-01	0	43	104	727187456	60	14990
2026-01-30 11:53:18.16	343.96	12.41	-47.7	-63.7	3.8	7.46e-01	0	43	104	727187456	66	23470
2026-01-30 11:53:18.87	343.97	12.34	-44.0	-55.8	3.8	7.45e-01	0	43	104	727187456	60	13327
2026-01-30 11:53:20.16	343.97	12.21	-48.4	-67.7	3.8	7.44e-01	0	43	104	727187456	67	35256
2026-01-30 11:53:20.88	343.97	12.13	-44.2	-55.9	3.9	7.46e-01	0	43	104	727187456	59	14322
2026-01-30 11:53:22.17	343.98	12.00	-43.9	-55.7	3.8	7.43e-01	0	43	104	727187456	59	13923
2026-01-30 11:53:22.89	343.98	11.93	-43.8	-55.5	3.8	7.45e-01	0	43	104	727187456	59	13610
2026-01-30 11:53:24.18	343.98	11.80	-43.7	-55.5	3.8	7.46e-01	0	43	104	727187456	59	13635
2026-01-30 11:53:25.17	343.98	11.70	-43.8	-55.6	3.8	7.43e-01	0	43	104	727187456	59	13846
2026-01-30 11:53:26.17	343.99	11.60	-45.0	-57.8	3.8	7.48e-01	0	43	104	727187456	60	16820
2026-01-30 11:53:27.17	343.99	11.50	-47.2	-64.0	3.8	7.45e-01	0	43	104	727187456	65	25758
2026-01-30 11:53:28.17	343.99	11.40	-43.7	-55.6	3.8	7.48e-01	0	43	104	727187456	59	13727
2026-01-30 11:53:29.18	344.00	11.30	-47.6	-66.4	3.8	7.43e-01	0	43	104	727187456	66	31814
2026-01-30 11:53:30.18	344.00	11.20	-43.7	-55.5	3.8	7.45e-01	0	43	104	727187456	59	13632
2026-01-30 11:53:31.18	344.00	11.10	-43.6	-55.3	3.8	7.48e-01	0	43	104	727187456	59	13407
2026-01-30 11:53:32.19	344.00	11.01	-43.6	-55.4	3.8	7.46e-01	0	43	104	727187456	59	13466
2026-01-30 11:53:33.19	344.01	10.91	-43.5	-55.4	3.8	7.46e-01	0	43	104	727187456	59	13476
2026-01-30 11:53:34.19	344.01	10.81	-44.0	-57.2	3.8	7.41e-01	0	43	104	727187456	59	16569
2026-01-30 11:53:35.20	344.01	10.71	-45.1	-58.2	3.8	7.45e-01	0	43	104	727187456	60	17662
2026-01-30 11:53:36.20	344.02	10.62	-46.6	-64.3	3.8	7.47e-01	0	43	104	727187456	64	28315
2026-01-30 11:53:37.21	344.02	10.52	-46.1	-62.9	3.9	7.45e-01	0	43	104	727187456	64	24021
2026-01-30 11:53:38.21	344.02	10.43	-47.4	-70.1	3.8	7.45e-01	0	43	104	727187456	65	51943
2026-01-30 11:53:39.22	344.02	10.33	-46.0	-62.4	3.8	7.44e-01	0	43	104	727187456	64	22762
2026-01-30 11:53:40.22	344.03	10.24	-46.0	-62.1	3.8	7.50e-01	0	43	104	727187456	63	23185
2026-01-30 11:53:41.22	344.03	10.15	-45.6	-61.1	3.8	7.46e-01	0	43	104	727187456	63	20547
2026-01-30 11:53:42.22	344.03	10.05	-45.0	-60.1	3.8	7.48e-01	0	44	104	727187456	62	19531
2026-01-30 11:53:43.22	344.04	9.96	-44.3	-60.5	3.8	7.47e-01	0	43	104	727187456	60	22856
2026-01-30 11:53:44.23	344.04	9.87	-44.2	-59.5	3.8	7.44e-01	0	43	104	727187456	59	21743
2026-01-30 11:53:45.25	344.04	9.77	-47.0	-68.8	3.9	7.43e-01	0	43	104	727187456	64	47269
2026-01-30 11:53:46.28	344.05	9.68	-44.9	-62.3	3.9	7.45e-01	0	43	104	727187456	61	26684
2026-01-30 11:53:47.28	344.05	9.59	-42.8	-56.5	3.8	7.49e-01	0	43	104	727187456	57	17103
2026-01-30 11:53:48.35	344.05	9.49	-42.7	-56.5	3.8	7.43e-01	0	43	104	727187456	57	17232
2026-01-30 11:53:49.24	344.05	9.41	-42.5	-56.0	3.8	7.49e-01	0	43	104	727187456	57	16278
2026-01-30 11:53:50.38	344.06	9.31	-42.6	-56.0	3.8	7.44e-01	0	43	104	727187456	57	16164
2026-01-30 11:53:51.31	344.06	9.22	-42.5	-55.8	3.8	7.44e-01	0	43	104	727187456	56	16735
2026-01-30 11:53:52.48	344.06	9.12	-42.5	-55.8	3.8	7.45e-01	0	43	104	727187456	56	16878
2026-01-30 11:53:53.34	344.07	9.04	-42.5	-55.8	3.8	7.44e-01	0	43	104	727187456	56	16758
2026-01-30 11:53:54.49	344.07	8.94	-47.2	-70.8	3.8	7.49e-01	0	43	104	727187456	64	59581
2026-01-30 11:53:55.35	344.07	8.86	-50.4	-70.9	3.8	7.46e-01	0	43	104	727187456	72	37985
2026-01-30 11:53:56.50	344.08	8.76	-50.7	-71.1	3.9	7.46e-01	0	43	104	727187456	71	41149
2026-01-30 11:53:57.36	344.08	8.69	-50.5	-71.0	3.8	7.47e-01	0	43	104	727187456	72	38642
2026-01-30 11:53:58.50	344.08	8.59	-51.0	-70.9	3.8	7.44e-01	0	43	104	727187456	72	38146
2026-01-30 11:53:59.37	344.09	8.51	-49.8	-70.8	3.8	7.52e-01	0	43	104	727187456	71	39738
2026-01-30 11:54:00.51	344.09	8.41	-50.9	-70.8	3.8	7.47e-01	0	43	104	727187456	72	37470
2026-01-30 11:54:01.37	344.09	8.34	-49.1	-70.6	3.8	7.47e-01	0	43	104	727187456	69	43799
2026-01-30 11:54:02.52	344.10	8.24	-50.5	-70.6	3.8	7.45e-01	0	43	104	727187456	72	36602
2026-01-30 11:54:03.38	344.10	8.17	-50.7	-70.6	3.8	7.48e-01	0	43	104	727187456	71	39132
2026-01-30 11:54:04.53	344.10	8.07	-50.3	-70.6	3.8	7.45e-01	0	43	104	727187456	72	36926
2026-01-30 11:54:05.39	344.10	7.99	-50.9	-70.4	3.8	7.48e-01	0	43	104	727187456	72	35926
2026-01-30 11:54:06.63	344.11	7.89	-50.9	-70.6	3.8	7.47e-01	0	43	104	727187456	72	36926
2026-01-30 11:54:07.49	344.11	7.82	-51.0	-70.7	3.8	7.45e-01	0	43	104	727187456	73	34962
2026-01-30 11:54:08.70	344.11	7.72	-51.5	-70.7	3.8	7.46e-01	0	43	104	727187456	73	35014
2026-01-30 11:54:09.56	344.12	7.64	-51.2	-70.7	3.8	7.45e-01	0	43	104	727187456	73	35095
2026-01-30 11:54:10.71	344.12	7.55	-51.4	-70.8	3.8	7.49e-01	0	43	104	727187456	73	35316
2026-01-30 11:54:11.57	344.12	7.48	-51.2	-70.8	3.8	7.46e-01	0	43	104	727187456	73	35304
2026-01-30 11:54:12.72	344.13	7.38	-50.8	-70.8	3.8	7.44e-01	0	43	104	727187456	73	35420
2026-01-30 11:54:13.58	344.13	7.31	-50.8	-70.8	3.8	7.49e-01	0	43	104	727187456	73	35494
2026-01-30 11:54:14.73	344.13	7.22	-50.8	-70.8	3.8	7.47e-01	0	43	104	727187456	73	35433
2026-01-30 11:54:15.59	344.14	7.15	-50.9	-70.8	3.8	7.48e-01	0	43	104	727187456	73	35346
2026-01-30 11:54:16.73	344.14	7.05	-50.8	-70.8	3.8	7.47e-01	0	43	104	727187456	73	35388
2026-01-30 11:54:17.59	344.14	6.98	-50.8	-70.8	3.8	7.44e-01	0	43	104	727187456	73	35362
2026-01-30 11:54:18.74	344.15	6.89	-50.8	-70.8	3.8	7.46e-01	0	43	104	727187456	73	35308
2026-01-30 11:54:19.60	344.15	6.82	-50.8	-70.8	3.8	7.46e-01	0	43	104	727187456	73	35369
2026-01-30 11:54:20.75	344.15	6.73	-50.8	-70.8	3.8	7.48e-01	0	43	104	727187456	73	35422
2026-01-30 11:54:21.61	344.16	6.66	-50.8	-70.8	3.8	7.48e-01	0	43	104	727187456	73	35385
2026-01-30 11:54:22.76	344.16	6.57	-50.8	-70.8	3.8	7.47e-01	0	43	104	727187456	73	35288
2026-01-30 11:54:23.62	344.16	6.50	-50.8	-70.8	3.8	7.50e-01	0	43	104	727187456	73	35355
2026-01-30 11:54:24.77	344.17	6.41	-50.8	-70.8	3.8	7.47e-01	0	43	104	727187456	73	35312
2026-01-30 11:54:25.63	344.17	6.34	-50.8	-70.7	3.8	7.49e-01	0	43	104	727187456	73	35276
2026-01-30 11:54:26.78	344.17	6.25	-50.8	-70.7	3.8	7.49e-01	0	43	104	727187456	73	35207
2026-01-30 11:54:27.64	344.18	6.18	-50.8	-70.7	3.8	7.44e-01	0	43	104	727187456	73	35274
2026-01-30 11:54:28.79	344.18	6.09	-50.8	-70.8	3.8	7.45e-01	0	43	104	727187456	73	35314
2026-01-30 11:54:29.65	344.18	6.02	-50.8	-70.8	3.8	7.47e-01	0	43	104	727187456	73	35322
2026-01-30 11:54:30.79	344.19	5.94	-50.8	-70.7	3.8	7.48e-01	0	43	104	727187456	73	35277
2026-01-30 11:54:31.65	344.19	5.87	-50.8	-70.8	3.8	7.47e-01	0	43	104	727187456	73	35356
2026-01-30 11:54:32.80	344.19	5.78	-50.8	-70.7	3.8	7.44e-01	0	43	104	727187456	73	35213
2026-01-30 11:54:33.66	344.20	5.71	-50.8	-70.7	3.8	7.45e-01	0	43	104	727187456	73	35178
2026-01-30 11:54:34.81	344.20	5.63	-50.8	-70.7	3.8	7.43e-01	0	43	104	727187456	73	35145
2026-01-30 11:54:35.67	344.20	5.56	-50.8	-70.7	3.8	7.44e-01	0	43	104	727187456	73	35216
2026-01-30 11:54:36.82	344.21	5.47	-50.8	-70.7	3.8	7.49e-01	0	43	104	727187456	73	35212
2026-01-30 11:54:37.68	344.21	5.41	-50.8	-70.7	3.8	7.45e-01	0	43	104	727187456	73	35151
2026-01-30 11:54:38.83	344.21	5.32	-50.8	-70.7	3.8	7.47e-01	0	43	104	727187456	73	35111
2026-01-30 11:54:39.69	344.22	5.25	-50.8	-70.7	3.8	7.48e-01	0	43	104	727187456	73	35151
2026-01-30 11:54:40.83	344.22	5.17	-50.8	-70.7	3.8	7.46e-01	0	43	104	727187456	73	35078
2026-01-30 11:54:41.69	344.22	5.10	-50.8	-70.7	3.8	7.42e-01	0	43	104	727187456	73	35113
2026-01-30 11:54:42.84	344.23	5.02	-50.8	-70.7	3.8	7.43e-01	0	43	104	727187456	73	35141
2026-01-30 11:54:43.70	344.23	4.95	-50.8	-70.7	3.8	7.45e-01	0	43	104	727187456	73	35045

#Closed at: 2026-01-30 11:54:44
#Recorded file [727 MB]: D:/Data/31040_260130_144318.dat