passes_logs/2026/01/30/T1/T1__20260130_154514_FENGYUN_3E_rec.log

#Pass ID: 20260130_154514_FENGYUN 3E
#Satellite: FENGYUN 3E
#Configuration: FENGYUN 3E
#almurnet v.1.7.20251203
#Start time: 2026-01-30 15:45:16

#Version: 2.0.20230620
#Station: T1
#Location: 37.570604 lon 55.790049 lat
#TLE: 1 49008U 21062A   26030.15628484 -.00000231  00000+0 -88238-4 0  9991
#TLE: 2 49008  98.7496  35.1082 0002567 110.3408 249.8045 14.19886954236998

#Time	Az	El	Level	Level2	SNR	BER	BlckErr	Temp	State	Recorded	gain1	gain2
2026-01-30 15:45:16.01	211.12	5.08	-50.5	-60.4	3.8	8.47e-01	0	41	0	0	70	11926
2026-01-30 15:45:17.00	211.21	5.14	-50.7	-60.6	3.8	8.46e-01	0	41	104	0	71	11513
2026-01-30 15:45:18.00	211.30	5.20	-50.8	-60.5	3.8	8.47e-01	0	41	104	0	71	11378
2026-01-30 15:45:19.01	211.38	5.26	-50.9	-60.5	3.8	8.47e-01	0	41	104	0	71	11342
2026-01-30 15:45:20.00	211.47	5.32	-50.5	-60.6	3.8	8.47e-01	0	41	104	0	71	11430
2026-01-30 15:45:21.00	211.56	5.38	-50.8	-60.5	3.8	8.47e-01	0	41	104	0	71	11379
2026-01-30 15:45:22.00	211.65	5.44	-50.8	-60.5	3.8	8.47e-01	0	41	104	0	71	11395
2026-01-30 15:45:23.00	211.74	5.49	-50.5	-60.5	3.8	8.47e-01	0	41	104	0	71	11331
2026-01-30 15:45:24.00	211.83	5.55	-50.6	-60.5	3.8	8.46e-01	0	42	104	0	71	11364
2026-01-30 15:45:25.00	211.92	5.61	-50.4	-60.5	3.8	8.46e-01	0	42	104	0	71	11347
2026-01-30 15:45:26.00	212.01	5.67	-50.4	-60.3	3.8	8.47e-01	0	41	104	0	71	11111
2026-01-30 15:45:27.00	212.10	5.73	-50.5	-60.4	3.8	8.46e-01	0	41	104	0	71	11163
2026-01-30 15:45:28.01	212.19	5.80	-50.1	-60.2	3.8	8.48e-01	0	41	104	0	70	11664
2026-01-30 15:45:29.01	212.28	5.86	-50.2	-60.2	3.8	8.47e-01	0	42	104	0	70	11609
2026-01-30 15:45:30.01	212.37	5.92	-50.1	-60.1	3.8	8.46e-01	0	42	104	0	70	11420
2026-01-30 15:45:31.01	212.46	5.98	-49.9	-59.9	3.8	8.47e-01	0	42	104	0	70	11195
2026-01-30 15:45:32.01	212.55	6.04	-49.3	-59.7	3.8	8.47e-01	0	42	104	0	69	11665
2026-01-30 15:45:33.01	212.65	6.10	-49.2	-59.6	3.8	8.47e-01	0	42	104	0	69	11496
2026-01-30 15:45:34.01	212.74	6.16	-49.2	-59.6	3.8	8.46e-01	0	42	104	0	69	11531
2026-01-30 15:45:35.01	212.83	6.22	-49.2	-59.7	3.8	8.46e-01	0	42	104	0	69	11630
2026-01-30 15:45:36.01	212.93	6.28	-49.1	-59.7	3.8	8.46e-01	0	42	104	0	69	11603
2026-01-30 15:45:37.01	213.02	6.34	-49.2	-59.7	3.8	8.48e-01	0	42	104	0	69	11580
2026-01-30 15:45:38.01	213.12	6.40	-49.2	-59.7	3.8	8.47e-01	0	42	104	0	69	11663
2026-01-30 15:45:39.01	213.21	6.46	-49.1	-59.7	3.8	8.47e-01	0	42	104	0	69	11592
2026-01-30 15:45:40.01	213.31	6.52	-49.1	-59.6	3.8	8.47e-01	0	42	104	0	69	11445
2026-01-30 15:45:41.01	213.40	6.59	-49.1	-59.5	3.8	8.46e-01	0	42	104	0	68	11957
2026-01-30 15:45:42.01	213.50	6.65	-49.1	-59.3	3.8	8.47e-01	0	42	104	0	68	11758
2026-01-30 15:45:43.01	213.59	6.71	-49.1	-59.2	3.8	8.47e-01	0	42	104	0	68	11560
2026-01-30 15:45:44.01	213.69	6.77	-49.1	-59.0	3.8	8.47e-01	0	42	104	0	68	11386
2026-01-30 15:45:45.01	213.79	6.83	-49.1	-59.1	3.8	8.48e-01	0	42	104	0	68	11464
2026-01-30 15:45:46.01	213.89	6.89	-49.1	-59.1	3.8	8.47e-01	0	42	104	0	68	11431
2026-01-30 15:45:47.01	213.98	6.96	-49.0	-58.9	3.8	8.46e-01	0	42	104	0	68	11248
2026-01-30 15:45:48.01	214.08	7.02	-49.0	-58.9	3.8	8.47e-01	0	42	104	0	68	11170
2026-01-30 15:45:49.01	214.18	7.08	-49.0	-58.8	3.8	8.47e-01	0	42	104	0	68	11053
2026-01-30 15:45:50.01	214.28	7.14	-49.0	-58.7	3.8	8.46e-01	0	42	104	0	68	10909
2026-01-30 15:45:51.01	214.38	7.20	-49.0	-58.6	3.8	8.47e-01	0	42	104	0	68	10781
2026-01-30 15:45:52.01	214.48	7.27	-49.0	-58.5	3.8	8.45e-01	0	42	104	0	68	10717
2026-01-30 15:45:53.01	214.58	7.33	-49.1	-58.5	3.8	8.48e-01	0	42	104	0	68	10690
2026-01-30 15:45:54.01	214.68	7.39	-49.1	-58.8	3.8	8.45e-01	0	42	104	0	68	11150
2026-01-30 15:45:55.01	214.78	7.45	-49.1	-59.1	3.8	8.47e-01	0	42	104	0	68	11455
2026-01-30 15:45:56.01	214.88	7.51	-49.1	-59.3	3.8	8.47e-01	0	43	104	0	68	11748
2026-01-30 15:45:57.01	214.99	7.58	-49.1	-59.2	3.8	8.48e-01	0	42	104	0	68	11602
2026-01-30 15:45:58.01	215.09	7.64	-49.0	-58.4	3.8	8.47e-01	0	42	104	0	68	10637
2026-01-30 15:45:59.01	215.19	7.70	-48.8	-57.1	4.0	8.46e-01	0	42	104	0	68	9151
2026-01-30 15:46:00.01	215.30	7.76	-48.7	-56.0	4.3	8.37e-01	0	43	0	0	68	8021
2026-01-30 15:46:01.01	215.40	7.83	-48.6	-55.4	4.4	8.28e-01	0	43	0	0	68	7538
2026-01-30 15:46:02.01	215.50	7.89	-48.6	-55.9	4.2	8.33e-01	0	43	0	0	67	8399
2026-01-30 15:46:03.01	215.61	7.95	-48.8	-58.0	3.8	8.46e-01	0	43	104	0	67	10712
2026-01-30 15:46:04.01	215.71	8.02	-49.0	-59.5	3.8	8.47e-01	0	43	104	0	67	12788
2026-01-30 15:46:05.01	215.82	8.08	-48.5	-55.8	4.2	8.46e-01	0	43	104	0	67	8363
2026-01-30 15:46:06.02	215.93	8.14	-47.1	-50.7	7.6	1.60e-01	0	43	0	3145728	65	5182
2026-01-30 15:46:07.02	216.03	8.21	-45.2	-47.0	11.6	2.64e-03	0	43	0	9437184	61	4255
2026-01-30 15:46:08.02	216.14	8.27	-43.1	-43.9	14.6	6.80e-06	0	43	0	16777216	57	3771
2026-01-30 15:46:09.02	216.25	8.33	-41.3	-41.8	16.6	0.00e+00	0	43	0	24117248	53	3710
2026-01-30 15:46:10.02	216.35	8.40	-40.2	-40.5	18.0	0.00e+00	0	43	0	31457280	51	3572
2026-01-30 15:46:11.02	216.46	8.46	-39.4	-39.6	18.9	0.00e+00	0	43	0	38797312	49	3622
2026-01-30 15:46:12.02	216.57	8.52	-39.1	-39.2	19.2	0.00e+00	0	43	0	46137344	48	3667
2026-01-30 15:46:13.03	216.68	8.59	-39.2	-39.4	19.0	0.00e+00	0	43	0	53477376	48	3758
2026-01-30 15:46:14.02	216.79	8.65	-39.7	-39.8	18.6	0.00e+00	0	43	0	60817408	48	3953
2026-01-30 15:46:15.02	216.90	8.72	-40.4	-40.6	17.8	0.00e+00	0	43	0	68157440	50	3860
2026-01-30 15:46:16.02	217.01	8.78	-41.4	-41.9	16.6	0.00e+00	0	43	0	74448896	52	3959
2026-01-30 15:46:17.02	217.12	8.84	-42.7	-43.5	15.0	0.00e+00	0	43	0	81788928	54	4249
2026-01-30 15:46:18.02	217.23	8.91	-44.2	-45.4	13.1	6.80e-06	0	43	0	89128960	57	4463
2026-01-30 15:46:19.02	217.35	8.97	-45.5	-47.4	11.2	8.82e-04	0	43	0	96468992	60	4719
2026-01-30 15:46:20.02	217.46	9.04	-46.4	-49.0	9.4	9.59e-03	0	43	0	103809024	62	5091
2026-01-30 15:46:21.02	217.57	9.10	-44.7	-46.0	12.7	8.23e-05	0	43	0	111149056	60	4017
2026-01-30 15:46:22.02	217.68	9.16	-42.9	-43.5	15.1	0.00e+00	0	43	0	118489088	56	3806
2026-01-30 15:46:23.02	217.80	9.23	-47.7	-52.3	6.2	1.26e-01	0	43	0	125829120	64	6574
2026-01-30 15:46:24.02	217.91	9.29	-47.0	-49.7	8.7	3.35e-02	0	43	0	132120576	64	4887
2026-01-30 15:46:25.02	218.03	9.36	-43.2	-44.0	14.6	0.00e+00	0	43	0	139460608	55	4273
2026-01-30 15:46:26.02	218.14	9.42	-42.5	-43.1	15.4	0.00e+00	0	43	0	146800640	55	3848
2026-01-30 15:46:27.02	218.26	9.49	-42.1	-42.6	15.9	0.00e+00	0	43	0	154140672	55	3648
2026-01-30 15:46:28.03	218.38	9.55	-41.0	-41.4	17.1	0.00e+00	0	43	0	161480704	52	3763
2026-01-30 15:46:29.02	218.49	9.62	-40.3	-40.6	18.0	0.00e+00	0	43	0	168820736	51	3611
2026-01-30 15:46:30.03	218.61	9.68	-40.0	-40.2	18.4	0.00e+00	0	43	0	176160768	50	3692
2026-01-30 15:46:31.03	218.73	9.75	-40.1	-40.3	18.3	0.00e+00	0	43	0	183500800	50	3711
2026-01-30 15:46:32.03	218.85	9.81	-39.6	-39.7	18.9	0.00e+00	0	43	0	190840832	50	3467
2026-01-30 15:46:33.04	218.97	9.88	-39.5	-39.7	18.9	0.00e+00	0	43	0	197132288	49	3671
2026-01-30 15:46:34.04	219.09	9.94	-39.0	-39.1	19.4	0.00e+00	0	43	0	204472320	48	3652
2026-01-30 15:46:35.04	219.21	10.01	-38.8	-38.9	19.6	0.00e+00	0	43	0	211812352	48	3552
2026-01-30 15:46:36.04	219.33	10.07	-38.9	-39.0	19.5	0.00e+00	0	43	0	219152384	48	3595
2026-01-30 15:46:37.04	219.45	10.14	-38.9	-39.0	19.5	0.00e+00	0	43	0	226492416	48	3604
2026-01-30 15:46:38.04	219.57	10.21	-38.8	-38.9	19.7	0.00e+00	0	43	0	233832448	48	3546
2026-01-30 15:46:39.04	219.69	10.27	-39.0	-39.1	19.5	0.00e+00	0	43	0	241172480	48	3624
2026-01-30 15:46:40.04	219.81	10.34	-38.8	-38.9	19.6	0.00e+00	0	43	0	248512512	48	3539
2026-01-30 15:46:41.04	219.94	10.40	-38.9	-39.0	19.6	0.00e+00	0	43	0	255852544	48	3582
2026-01-30 15:46:42.04	220.06	10.47	-38.9	-39.0	19.6	0.00e+00	0	43	0	262144000	48	3594
2026-01-30 15:46:43.04	220.18	10.53	-39.0	-39.1	19.5	0.00e+00	0	43	0	269484032	48	3635
2026-01-30 15:46:44.04	220.31	10.60	-39.0	-39.0	19.5	0.00e+00	0	43	0	276824064	48	3610
2026-01-30 15:46:45.04	220.43	10.67	-39.0	-39.1	19.5	0.00e+00	0	43	0	284164096	48	3621
2026-01-30 15:46:46.04	220.56	10.73	-38.9	-39.0	19.6	0.00e+00	0	43	0	291504128	48	3574
2026-01-30 15:46:47.04	220.69	10.80	-38.8	-38.9	19.7	0.00e+00	0	43	0	298844160	48	3548
2026-01-30 15:46:48.04	220.81	10.86	-38.7	-38.8	19.9	0.00e+00	0	43	0	306184192	48	3493
2026-01-30 15:46:49.04	220.94	10.93	-38.7	-38.7	19.9	0.00e+00	0	43	0	313524224	48	3476
2026-01-30 15:46:50.04	221.07	11.00	-38.7	-38.8	19.9	0.00e+00	0	43	0	319815680	48	3489
2026-01-30 15:46:51.04	221.20	11.06	-38.6	-38.6	19.7	0.00e+00	0	43	0	327155712	47	3652
2026-01-30 15:46:52.04	221.33	11.13	-38.6	-38.6	19.8	0.00e+00	0	43	0	334495744	47	3638
2026-01-30 15:46:53.04	221.46	11.19	-38.5	-38.6	19.8	0.00e+00	0	43	0	341835776	47	3611
2026-01-30 15:46:54.05	221.59	11.26	-38.5	-38.6	19.8	0.00e+00	0	43	0	349175808	47	3622
2026-01-30 15:46:55.05	221.72	11.33	-38.4	-38.4	20.0	0.00e+00	0	43	0	356515840	47	3563
2026-01-30 15:46:56.04	221.85	11.39	-38.4	-38.5	19.9	0.00e+00	0	43	0	363855872	47	3571
2026-01-30 15:46:57.04	221.98	11.46	-38.3	-38.3	20.1	0.00e+00	0	43	0	371195904	47	3505
2026-01-30 15:46:58.05	222.12	11.53	-38.3	-38.3	20.1	0.00e+00	0	43	0	378535936	47	3514
2026-01-30 15:46:59.04	222.25	11.59	-38.3	-38.3	20.1	0.00e+00	0	43	0	384827392	47	3494
2026-01-30 15:47:00.04	222.38	11.66	-38.2	-38.2	20.2	0.00e+00	0	43	0	392167424	47	3468
2026-01-30 15:47:01.04	222.52	11.73	-38.3	-38.3	20.1	0.00e+00	0	43	0	399507456	47	3518
2026-01-30 15:47:02.04	222.65	11.79	-38.3	-38.3	20.1	0.00e+00	0	43	0	406847488	47	3502
2026-01-30 15:47:03.05	222.79	11.86	-38.3	-38.3	20.1	0.00e+00	0	43	0	414187520	47	3512
2026-01-30 15:47:04.05	222.92	11.93	-38.4	-38.4	20.0	0.00e+00	0	43	0	421527552	47	3560
2026-01-30 15:47:05.05	223.06	11.99	-38.3	-38.3	20.1	0.00e+00	0	43	0	428867584	47	3505
2026-01-30 15:47:06.05	223.20	12.06	-38.2	-38.2	20.2	0.00e+00	0	43	0	436207616	47	3481
2026-01-30 15:47:07.05	223.34	12.13	-38.2	-38.2	20.2	0.00e+00	0	44	0	443547648	47	3469
2026-01-30 15:47:08.06	223.48	12.19	-38.1	-38.1	20.3	0.00e+00	0	44	0	449839104	47	3433
2026-01-30 15:47:09.06	223.61	12.26	-38.3	-38.3	20.1	0.00e+00	0	43	0	458227712	47	3499
2026-01-30 15:47:10.06	223.75	12.33	-38.0	-38.0	20.3	0.00e+00	0	43	0	465567744	46	3602
2026-01-30 15:47:11.06	223.90	12.40	-38.0	-38.0	20.4	0.00e+00	0	44	0	471859200	46	3596
2026-01-30 15:47:12.06	224.04	12.46	-38.0	-38.0	20.3	0.00e+00	0	44	0	479199232	46	3588
2026-01-30 15:47:13.06	224.18	12.53	-38.0	-38.0	20.4	0.00e+00	0	43	0	486539264	46	3589
2026-01-30 15:47:14.06	224.32	12.60	-38.0	-38.0	20.4	0.00e+00	0	43	0	493879296	46	3586
2026-01-30 15:47:15.07	224.46	12.66	-38.0	-38.0	20.4	0.00e+00	0	43	0	501219328	46	3596
2026-01-30 15:47:16.06	224.61	12.73	-38.1	-38.1	20.4	0.00e+00	0	43	0	508559360	46	3613
2026-01-30 15:47:17.07	224.75	12.80	-38.1	-38.1	20.3	0.00e+00	0	43	0	515899392	46	3645
2026-01-30 15:47:18.07	224.90	12.87	-38.2	-38.3	20.2	0.00e+00	0	44	0	523239424	46	3704
2026-01-30 15:47:19.07	225.04	12.93	-38.2	-38.2	20.3	0.00e+00	0	44	0	529530880	46	3660
2026-01-30 15:47:20.07	225.19	13.00	-38.0	-38.0	20.4	0.00e+00	0	43	0	536870912	46	3606
2026-01-30 15:47:21.07	225.34	13.07	-38.0	-38.0	20.4	0.00e+00	0	43	0	544210944	46	3586
2026-01-30 15:47:22.07	225.48	13.13	-37.9	-37.8	20.6	0.00e+00	0	44	0	551550976	46	3527
2026-01-30 15:47:23.06	225.63	13.20	-37.9	-37.9	20.6	0.00e+00	0	43	0	558891008	46	3530
2026-01-30 15:47:24.07	225.78	13.27	-37.9	-37.8	20.6	0.00e+00	0	43	0	566231040	46	3520
2026-01-30 15:47:25.07	225.93	13.34	-37.9	-37.9	20.6	0.00e+00	0	43	0	573571072	46	3530
2026-01-30 15:47:26.07	226.08	13.40	-37.7	-37.6	20.8	0.00e+00	0	43	0	580911104	46	3445
2026-01-30 15:47:27.07	226.23	13.47	-37.5	-37.5	20.9	0.00e+00	0	44	0	588251136	45	3593
2026-01-30 15:47:28.07	226.38	13.54	-37.7	-37.6	20.8	0.00e+00	0	43	0	594542592	45	3645
2026-01-30 15:47:29.08	226.54	13.61	-37.6	-37.6	20.8	0.00e+00	0	43	0	601882624	45	3632
2026-01-30 15:47:30.08	226.69	13.67	-37.6	-37.6	20.8	0.00e+00	0	43	0	609222656	45	3620
2026-01-30 15:47:31.08	226.84	13.74	-37.6	-37.6	20.8	0.00e+00	0	43	0	616562688	45	3614
2026-01-30 15:47:32.08	227.00	13.81	-37.4	-37.4	21.0	0.00e+00	0	43	0	623902720	45	3547
2026-01-30 15:47:33.08	227.15	13.88	-37.5	-37.4	21.0	0.00e+00	0	43	0	631242752	45	3557
2026-01-30 15:47:34.09	227.31	13.94	-37.5	-37.4	21.0	0.00e+00	0	43	0	638582784	45	3564
2026-01-30 15:47:35.09	227.46	14.01	-37.3	-37.2	21.1	0.00e+00	0	44	0	645922816	45	3481
2026-01-30 15:47:36.09	227.62	14.08	-37.2	-37.1	21.3	0.00e+00	0	44	0	652214272	45	3432
2026-01-30 15:47:37.09	227.78	14.15	-37.2	-37.1	21.3	0.00e+00	0	43	0	659554304	45	3441
2026-01-30 15:47:38.09	227.94	14.21	-37.1	-37.1	21.3	0.00e+00	0	44	0	666894336	44	3615
2026-01-30 15:47:39.09	228.09	14.28	-37.3	-37.3	21.2	0.00e+00	0	44	0	674234368	44	3697
2026-01-30 15:47:40.09	228.25	14.35	-37.2	-37.2	21.2	0.00e+00	0	43	0	681574400	44	3661
2026-01-30 15:47:41.09	228.41	14.41	-37.3	-37.3	21.2	0.00e+00	0	44	0	688914432	44	3701
2026-01-30 15:47:42.09	228.58	14.48	-37.3	-37.3	21.1	0.00e+00	0	43	0	696254464	44	3714
2026-01-30 15:47:43.10	228.74	14.55	-37.4	-37.4	21.1	0.00e+00	0	44	0	703594496	44	3741
2026-01-30 15:47:44.10	228.90	14.62	-37.4	-37.4	21.0	0.00e+00	0	43	0	710934528	44	3763
2026-01-30 15:47:45.10	229.06	14.68	-37.5	-37.5	21.0	0.00e+00	0	43	0	717225984	44	3786
2026-01-30 15:47:46.10	229.23	14.75	-37.5	-37.5	21.0	0.00e+00	0	43	0	724566016	44	3793
2026-01-30 15:47:47.10	229.39	14.82	-37.5	-37.4	21.0	0.00e+00	0	44	0	731906048	44	3770
2026-01-30 15:47:48.10	229.56	14.88	-37.3	-37.2	21.2	0.00e+00	0	44	0	739246080	44	3678
2026-01-30 15:47:49.11	229.73	14.95	-37.4	-37.3	21.1	0.00e+00	0	44	0	746586112	44	3737
2026-01-30 15:47:50.11	229.89	15.02	-37.3	-37.3	21.1	0.00e+00	0	43	0	753926144	44	3710
2026-01-30 15:47:51.11	230.06	15.09	-37.1	-37.0	21.3	0.00e+00	0	43	0	761266176	44	3610
2026-01-30 15:47:52.11	230.23	15.15	-37.1	-37.0	21.4	0.00e+00	0	43	0	768606208	44	3585
2026-01-30 15:47:53.10	230.40	15.22	-37.0	-36.9	21.5	0.00e+00	0	43	0	775946240	44	3554
2026-01-30 15:47:54.10	230.57	15.29	-37.0	-36.9	21.5	0.00e+00	0	43	0	782237696	44	3547
2026-01-30 15:47:55.11	230.74	15.35	-36.9	-36.9	21.6	0.00e+00	0	44	0	790626304	44	3530
2026-01-30 15:47:56.11	230.91	15.42	-37.0	-37.0	21.5	0.00e+00	0	44	0	796917760	44	3572
2026-01-30 15:47:57.10	231.08	15.49	-37.0	-37.0	21.4	0.00e+00	0	44	0	804257792	44	3576
2026-01-30 15:47:58.10	231.25	15.55	-37.0	-36.9	21.4	0.00e+00	0	44	0	811597824	44	3569
2026-01-30 15:47:59.10	231.43	15.62	-36.9	-36.9	21.5	0.00e+00	0	43	0	818937856	44	3541
2026-01-30 15:48:00.10	231.60	15.69	-37.0	-36.9	21.5	0.00e+00	0	44	0	826277888	44	3567
2026-01-30 15:48:01.10	231.77	15.75	-37.0	-36.9	21.5	0.00e+00	0	44	0	833617920	44	3547
2026-01-30 15:48:02.10	231.95	15.82	-36.8	-36.8	21.6	0.00e+00	0	44	0	839909376	44	3495
2026-01-30 15:48:03.11	232.13	15.88	-36.8	-36.7	21.7	0.00e+00	0	44	0	847249408	44	3480
2026-01-30 15:48:04.10	232.30	15.95	-36.8	-36.7	21.7	0.00e+00	0	44	0	854589440	44	3486
2026-01-30 15:48:05.10	232.48	16.02	-36.9	-36.8	21.6	0.00e+00	0	43	0	861929472	44	3519
2026-01-30 15:48:06.11	232.66	16.08	-36.9	-36.8	21.6	0.00e+00	0	44	0	869269504	44	3521
2026-01-30 15:48:07.11	232.84	16.15	-36.9	-36.8	21.6	0.00e+00	0	44	0	876609536	44	3523
2026-01-30 15:48:08.11	233.02	16.21	-36.8	-36.8	21.6	0.00e+00	0	44	0	883949568	44	3503
2026-01-30 15:48:09.11	233.20	16.28	-36.7	-36.7	21.8	0.00e+00	0	44	0	891289600	44	3449
2026-01-30 15:48:10.11	233.39	16.35	-36.7	-36.7	21.7	0.00e+00	0	44	0	898629632	44	3462
2026-01-30 15:48:11.11	233.57	16.41	-36.8	-36.7	21.7	0.00e+00	0	43	0	905969664	44	3486
2026-01-30 15:48:12.11	233.75	16.48	-36.8	-36.8	21.6	0.00e+00	0	43	0	913309696	44	3502
2026-01-30 15:48:13.12	233.94	16.54	-36.8	-36.7	21.7	0.00e+00	0	44	0	920649728	44	3471
2026-01-30 15:48:14.11	234.12	16.61	-36.7	-36.6	21.8	0.00e+00	0	43	0	926941184	44	3435
2026-01-30 15:48:15.12	234.31	16.67	-36.8	-36.8	21.6	0.00e+00	0	43	0	934281216	44	3491
2026-01-30 15:48:16.12	234.49	16.74	-36.8	-36.7	21.7	0.00e+00	0	43	0	941621248	44	3483
2026-01-30 15:48:17.13	234.68	16.80	-36.7	-36.6	21.8	0.00e+00	0	44	0	948961280	44	3422
2026-01-30 15:48:18.13	234.87	16.87	-36.7	-36.7	21.7	0.00e+00	0	44	0	956301312	44	3459
2026-01-30 15:48:19.13	235.06	16.93	-36.8	-36.7	21.7	0.00e+00	0	43	0	963641344	44	3480
2026-01-30 15:48:20.13	235.25	17.00	-36.6	-36.6	21.7	0.00e+00	0	44	0	970981376	43	3619
2026-01-30 15:48:21.13	235.44	17.06	-36.6	-36.5	21.8	0.00e+00	0	44	0	978321408	43	3585
2026-01-30 15:48:22.14	235.63	17.13	-36.5	-36.4	21.8	0.00e+00	0	44	0	985661440	43	3558
2026-01-30 15:48:23.14	235.83	17.19	-36.4	-36.4	21.9	0.00e+00	0	44	0	991952896	43	3532
2026-01-30 15:48:24.14	236.02	17.25	-36.5	-36.4	21.8	0.00e+00	0	43	0	999292928	43	3556
2026-01-30 15:48:25.14	236.21	17.32	-36.4	-36.3	21.9	0.00e+00	0	44	0	1006632960	43	3512
2026-01-30 15:48:26.13	236.41	17.38	-36.4	-36.3	21.9	0.00e+00	0	44	0	1013972992	43	3500
2026-01-30 15:48:27.13	236.60	17.44	-36.2	-36.1	22.1	0.00e+00	0	44	0	1021313024	43	3442
2026-01-30 15:48:28.13	236.80	17.51	-36.4	-36.3	22.0	0.00e+00	0	43	0	1028653056	43	3509
2026-01-30 15:48:29.13	236.99	17.57	-36.3	-36.2	22.0	0.00e+00	0	44	0	1035993088	43	3476
2026-01-30 15:48:30.13	237.19	17.63	-36.4	-36.3	21.9	0.00e+00	0	44	0	1043333120	43	3521
2026-01-30 15:48:31.13	237.39	17.70	-36.3	-36.2	22.0	0.00e+00	0	43	0	1049624576	43	3468
2026-01-30 15:48:32.14	237.59	17.76	-36.3	-36.2	22.1	0.00e+00	0	44	0	1056964608	43	3457
2026-01-30 15:48:33.14	237.79	17.82	-36.2	-36.1	22.2	0.00e+00	0	44	0	1064304640	43	3426
2026-01-30 15:48:34.13	237.99	17.88	-36.2	-36.1	22.1	0.00e+00	0	44	0	1071644672	43	3442
2026-01-30 15:48:35.13	238.19	17.95	-36.3	-36.2	22.1	0.00e+00	0	44	0	1078984704	43	3467
2026-01-30 15:48:36.13	238.39	18.01	-36.2	-36.1	22.1	0.00e+00	0	44	0	1086324736	43	3429
2026-01-30 15:48:37.14	238.60	18.07	-36.2	-36.2	22.1	0.00e+00	0	44	0	1093664768	43	3449
2026-01-30 15:48:38.14	238.80	18.13	-36.2	-36.1	22.1	0.00e+00	0	44	0	1101004800	43	3413
2026-01-30 15:48:39.14	239.01	18.19	-36.3	-36.2	22.1	0.00e+00	0	44	0	1108344832	43	3461
2026-01-30 15:48:40.14	239.21	18.25	-36.3	-36.2	22.0	0.00e+00	0	44	0	1114636288	43	3467
2026-01-30 15:48:41.14	239.42	18.31	-36.2	-36.1	22.1	0.00e+00	0	44	0	1121976320	43	3441
2026-01-30 15:48:42.13	239.62	18.37	-36.2	-36.1	22.1	0.00e+00	0	44	0	1129316352	43	3443
2026-01-30 15:48:43.13	239.83	18.44	-36.2	-36.1	22.1	0.00e+00	0	44	0	1136656384	43	3443
2026-01-30 15:48:44.13	240.04	18.50	-36.3	-36.2	22.1	0.00e+00	0	44	0	1143996416	43	3455
2026-01-30 15:48:45.13	240.25	18.56	-36.1	-36.0	22.2	0.00e+00	0	44	0	1151336448	43	3381
2026-01-30 15:48:46.14	240.46	18.62	-35.9	-35.7	22.5	0.00e+00	0	44	0	1158676480	42	3477
2026-01-30 15:48:47.13	240.67	18.67	-35.8	-35.7	22.5	0.00e+00	0	44	0	1166016512	42	3467
2026-01-30 15:48:48.13	240.89	18.73	-35.9	-35.7	22.5	0.00e+00	0	44	0	1173356544	42	3484
2026-01-30 15:48:49.13	241.10	18.79	-35.8	-35.7	22.5	0.00e+00	0	44	0	1179648000	42	3470
2026-01-30 15:48:50.13	241.31	18.85	-35.9	-35.8	22.5	0.00e+00	0	44	0	1186988032	42	3499
2026-01-30 15:48:51.13	241.53	18.91	-36.0	-35.9	22.3	0.00e+00	0	44	0	1194328064	42	3555
2026-01-30 15:48:52.12	241.74	18.97	-36.0	-35.9	22.3	0.00e+00	0	44	0	1201668096	42	3553
2026-01-30 15:48:53.12	241.96	19.03	-36.0	-35.9	22.3	0.00e+00	0	44	0	1209008128	42	3564
2026-01-30 15:48:54.11	242.17	19.08	-35.9	-35.8	22.4	0.00e+00	0	44	0	1216348160	42	3519
2026-01-30 15:48:55.11	242.39	19.14	-36.0	-35.9	22.4	0.00e+00	0	44	0	1223688192	42	3540
2026-01-30 15:48:56.10	242.60	19.20	-35.9	-35.7	22.5	0.00e+00	0	44	0	1229979648	42	3487
2026-01-30 15:48:57.07	242.82	19.25	-36.0	-35.8	22.4	0.00e+00	0	44	0	1237319680	42	3528
2026-01-30 15:48:58.07	243.04	19.31	-35.8	-35.7	22.5	0.00e+00	0	44	0	1244659712	42	3477
2026-01-30 15:48:59.07	243.26	19.37	-35.9	-35.8	22.4	0.00e+00	0	44	0	1251999744	42	3502
2026-01-30 15:49:00.07	243.48	19.42	-35.9	-35.8	22.4	0.00e+00	0	43	0	1259339776	42	3516
2026-01-30 15:49:01.07	243.70	19.48	-36.0	-35.9	22.3	0.00e+00	0	43	0	1266679808	42	3549
2026-01-30 15:49:02.06	243.92	19.53	-36.1	-36.0	22.3	0.00e+00	0	44	0	1274019840	42	3570
2026-01-30 15:49:03.06	244.15	19.59	-36.0	-35.9	22.3	0.00e+00	0	44	0	1280311296	42	3556
2026-01-30 15:49:04.06	244.37	19.64	-35.9	-35.8	22.4	0.00e+00	0	44	0	1287651328	42	3519
2026-01-30 15:49:05.05	244.60	19.70	-35.9	-35.8	22.4	0.00e+00	0	44	0	1294991360	42	3519
2026-01-30 15:49:06.04	244.82	19.75	-35.9	-35.8	22.4	0.00e+00	0	44	0	1302331392	42	3511
2026-01-30 15:49:07.04	245.05	19.81	-36.0	-35.9	22.4	0.00e+00	0	44	0	1309671424	42	3549
2026-01-30 15:49:08.03	245.27	19.86	-36.0	-35.9	22.3	0.00e+00	0	44	0	1317011456	42	3566
2026-01-30 15:49:09.02	245.50	19.91	-36.2	-36.1	22.2	0.00e+00	0	44	0	1323302912	42	3633
2026-01-30 15:49:10.01	245.73	19.96	-36.1	-36.0	22.2	0.00e+00	0	44	0	1330642944	42	3603
2026-01-30 15:49:11.00	245.95	20.02	-36.1	-36.0	22.2	0.00e+00	0	44	0	1337982976	42	3606
2026-01-30 15:49:12.01	246.19	20.07	-36.1	-36.0	22.3	0.00e+00	0	44	0	1345323008	42	3586
2026-01-30 15:49:12.99	246.41	20.12	-36.0	-35.9	22.3	0.00e+00	0	44	0	1352663040	42	3547
2026-01-30 15:49:13.99	246.65	20.17	-35.9	-35.8	22.4	0.00e+00	0	44	0	1360003072	42	3524
2026-01-30 15:49:14.97	246.88	20.22	-35.8	-35.7	22.5	0.00e+00	0	44	0	1366294528	42	3457
2026-01-30 15:49:15.97	247.11	20.27	-35.8	-35.7	22.6	0.00e+00	0	44	0	1373634560	42	3450
2026-01-30 15:49:16.96	247.34	20.32	-35.9	-35.7	22.5	0.00e+00	0	44	0	1380974592	42	3475
2026-01-30 15:49:17.96	247.58	20.37	-35.7	-35.6	22.6	0.00e+00	0	44	0	1388314624	42	3433
2026-01-30 15:49:18.96	247.81	20.42	-35.6	-35.5	22.7	0.00e+00	0	44	0	1395654656	41	3589
2026-01-30 15:49:19.96	248.05	20.47	-35.8	-35.7	22.6	0.00e+00	0	44	0	1402994688	41	3657
2026-01-30 15:49:20.95	248.29	20.52	-35.8	-35.7	22.5	0.00e+00	0	44	0	1410334720	41	3688
2026-01-30 15:49:21.94	248.52	20.57	-35.8	-35.8	22.5	0.00e+00	0	44	0	1417674752	41	3696
2026-01-30 15:49:22.94	248.76	20.62	-35.9	-35.9	22.4	0.00e+00	0	44	0	1423966208	41	3745
2026-01-30 15:49:23.93	249.00	20.66	-35.9	-35.8	22.4	0.00e+00	0	44	0	1431306240	41	3725
2026-01-30 15:49:24.93	249.24	20.71	-35.8	-35.7	22.5	0.00e+00	0	44	0	1438646272	41	3666
2026-01-30 15:49:25.92	249.48	20.76	-35.8	-35.7	22.5	0.00e+00	0	44	0	1445986304	41	3688
2026-01-30 15:49:26.92	249.72	20.80	-35.7	-35.6	22.6	0.00e+00	0	44	0	1453326336	41	3618
2026-01-30 15:49:27.91	249.96	20.85	-35.8	-35.7	22.6	0.00e+00	0	44	0	1460666368	41	3659
2026-01-30 15:49:28.91	250.21	20.90	-35.7	-35.7	22.6	0.00e+00	0	44	0	1466957824	41	3653
2026-01-30 15:49:29.90	250.45	20.94	-35.8	-35.7	22.5	0.00e+00	0	44	0	1474297856	41	3687
2026-01-30 15:49:30.89	250.69	20.99	-35.8	-35.7	22.5	0.00e+00	0	44	0	1481637888	41	3694
2026-01-30 15:49:31.89	250.93	21.03	-36.0	-35.9	22.3	0.00e+00	0	44	0	1488977920	41	3773
2026-01-30 15:49:32.88	251.18	21.07	-35.8	-35.7	22.5	0.00e+00	0	44	0	1496317952	41	3693
2026-01-30 15:49:33.88	251.43	21.12	-35.8	-35.7	22.5	0.00e+00	0	44	0	1503657984	41	3669
2026-01-30 15:49:34.88	251.67	21.16	-35.8	-35.7	22.6	0.00e+00	0	44	0	1509949440	41	3662
2026-01-30 15:49:35.87	251.92	21.20	-35.9	-35.8	22.4	0.00e+00	0	44	0	1517289472	41	3718
2026-01-30 15:49:36.86	252.17	21.24	-36.0	-35.9	22.3	0.00e+00	0	44	0	1524629504	41	3769
2026-01-30 15:49:37.86	252.41	21.28	-36.0	-35.9	22.4	0.00e+00	0	44	0	1531969536	41	3749
2026-01-30 15:49:38.85	252.66	21.33	-35.9	-35.8	22.5	0.00e+00	0	44	0	1539309568	41	3704
2026-01-30 15:49:39.85	252.91	21.37	-35.8	-35.7	22.5	0.00e+00	0	44	0	1546649600	41	3668
2026-01-30 15:49:40.84	253.16	21.41	-35.8	-35.8	22.5	0.00e+00	0	44	0	1553989632	41	3703
2026-01-30 15:49:41.84	253.41	21.45	-35.8	-35.8	22.5	0.00e+00	0	44	0	1561329664	41	3701
2026-01-30 15:49:42.83	253.66	21.48	-35.8	-35.8	22.5	0.00e+00	0	44	0	1567621120	41	3699
2026-01-30 15:49:43.83	253.92	21.52	-35.7	-35.7	22.5	0.00e+00	0	44	0	1574961152	41	3655
2026-01-30 15:49:44.83	254.17	21.56	-35.7	-35.7	22.6	0.00e+00	0	44	0	1582301184	41	3655
2026-01-30 15:49:45.83	254.43	21.60	-35.7	-35.6	22.6	0.00e+00	0	44	0	1589641216	41	3650
2026-01-30 15:49:46.83	254.68	21.64	-35.7	-35.6	22.6	0.00e+00	0	44	0	1596981248	41	3641
2026-01-30 15:49:47.83	254.94	21.67	-35.7	-35.6	22.7	0.00e+00	0	44	0	1603272704	41	3612
2026-01-30 15:49:48.83	255.19	21.71	-35.6	-35.5	22.7	0.00e+00	0	44	0	1611661312	41	3600
2026-01-30 15:49:49.83	255.45	21.74	-35.6	-35.4	22.8	0.00e+00	0	44	0	1617952768	41	3566
2026-01-30 15:49:50.83	255.71	21.78	-35.5	-35.4	22.8	0.00e+00	0	44	0	1625292800	41	3555
2026-01-30 15:49:51.83	255.97	21.81	-35.5	-35.4	22.8	0.00e+00	0	44	0	1632632832	41	3547
2026-01-30 15:49:52.83	256.23	21.85	-35.6	-35.5	22.7	0.00e+00	0	44	0	1639972864	41	3596
2026-01-30 15:49:53.83	256.48	21.88	-35.6	-35.5	22.7	0.00e+00	0	44	0	1647312896	41	3598
2026-01-30 15:49:54.83	256.74	21.91	-35.5	-35.4	22.8	0.00e+00	0	44	0	1654652928	41	3542
2026-01-30 15:49:55.83	257.00	21.95	-35.5	-35.3	22.8	0.00e+00	0	44	0	1661992960	41	3522
2026-01-30 15:49:56.83	257.26	21.98	-35.3	-35.2	23.0	0.00e+00	0	44	0	1668284416	41	3475
2026-01-30 15:49:57.83	257.53	22.01	-35.3	-35.1	23.1	0.00e+00	0	44	0	1676673024	41	3442
2026-01-30 15:49:58.83	257.79	22.04	-35.3	-35.2	23.1	0.00e+00	0	44	0	1684013056	41	3451
2026-01-30 15:49:59.83	258.05	22.07	-35.3	-35.2	23.0	0.00e+00	0	44	0	1690304512	41	3455
2026-01-30 15:50:00.84	258.32	22.10	-35.4	-35.3	23.0	0.00e+00	0	44	0	1697644544	41	3497
2026-01-30 15:50:01.83	258.58	22.13	-35.5	-35.4	22.8	0.00e+00	0	44	0	1704984576	41	3540
2026-01-30 15:50:02.84	258.84	22.16	-35.4	-35.3	23.0	0.00e+00	0	44	0	1712324608	41	3497
2026-01-30 15:50:03.84	259.11	22.19	-35.3	-35.1	23.1	0.00e+00	0	44	0	1719664640	41	3445
2026-01-30 15:50:04.84	259.37	22.21	-35.2	-35.0	23.1	0.00e+00	0	44	0	1727004672	41	3391
2026-01-30 15:50:05.84	259.64	22.24	-35.1	-35.0	23.2	0.00e+00	0	44	0	1734344704	41	3389
2026-01-30 15:50:06.84	259.90	22.27	-35.1	-34.9	23.2	0.00e+00	0	44	0	1741684736	40	3566
2026-01-30 15:50:07.84	260.17	22.29	-35.3	-35.1	23.1	0.00e+00	0	44	0	1749024768	40	3635
2026-01-30 15:50:08.85	260.44	22.32	-35.3	-35.2	23.0	0.00e+00	0	44	0	1755316224	40	3675
2026-01-30 15:50:09.85	260.70	22.34	-35.5	-35.4	22.9	0.00e+00	0	44	0	1762656256	40	3741
2026-01-30 15:50:10.86	260.97	22.36	-35.6	-35.4	22.8	0.00e+00	0	44	0	1769996288	40	3780
2026-01-30 15:50:11.86	261.24	22.39	-35.6	-35.5	22.7	0.00e+00	0	44	0	1777336320	40	3803
2026-01-30 15:50:12.86	261.51	22.41	-35.6	-35.4	22.8	0.00e+00	0	44	0	1784676352	40	3777
2026-01-30 15:50:13.86	261.78	22.43	-35.5	-35.3	22.9	0.00e+00	0	44	0	1792016384	40	3732
2026-01-30 15:50:14.86	262.05	22.45	-35.3	-35.1	23.0	0.00e+00	0	44	0	1799356416	40	3645
2026-01-30 15:50:15.86	262.31	22.47	-35.4	-35.3	23.0	0.00e+00	0	44	0	1806696448	40	3699
2026-01-30 15:50:16.86	262.58	22.49	-35.3	-35.2	23.0	0.00e+00	0	44	0	1812987904	40	3668
2026-01-30 15:50:17.86	262.85	22.51	-35.4	-35.2	23.0	0.00e+00	0	44	0	1820327936	40	3688
2026-01-30 15:50:18.86	263.12	22.53	-35.4	-35.3	22.9	0.00e+00	0	44	0	1827667968	40	3723
2026-01-30 15:50:19.87	263.40	22.55	-35.5	-35.4	22.8	0.00e+00	0	44	0	1835008000	40	3763
2026-01-30 15:50:20.86	263.66	22.57	-35.4	-35.3	22.9	0.00e+00	0	44	0	1842348032	40	3727
2026-01-30 15:50:21.87	263.94	22.58	-35.4	-35.3	22.8	0.00e+00	0	44	0	1849688064	40	3726
2026-01-30 15:50:22.86	264.21	22.60	-35.5	-35.4	22.9	0.00e+00	0	44	0	1857028096	40	3741
2026-01-30 15:50:23.86	264.48	22.61	-35.5	-35.4	22.9	0.00e+00	0	44	0	1864368128	40	3739
2026-01-30 15:50:24.86	264.75	22.63	-35.5	-35.4	22.9	0.00e+00	0	44	0	1871708160	40	3738
2026-01-30 15:50:25.87	265.02	22.64	-35.5	-35.3	22.9	0.00e+00	0	44	0	1877999616	40	3736
2026-01-30 15:50:26.86	265.29	22.66	-35.4	-35.3	22.9	0.00e+00	0	44	0	1885339648	40	3724
2026-01-30 15:50:27.87	265.57	22.67	-35.5	-35.4	22.9	0.00e+00	0	44	0	1892679680	40	3744
2026-01-30 15:50:28.87	265.84	22.68	-35.4	-35.3	22.9	0.00e+00	0	44	0	1900019712	40	3717
2026-01-30 15:50:29.87	266.11	22.69	-35.4	-35.3	22.9	0.00e+00	0	44	0	1907359744	40	3711
2026-01-30 15:50:30.87	266.39	22.70	-35.6	-35.5	22.8	0.00e+00	0	44	0	1914699776	40	3787
2026-01-30 15:50:31.87	266.66	22.71	-35.6	-35.5	22.8	0.00e+00	0	44	0	1922039808	40	3787
2026-01-30 15:50:32.88	266.94	22.72	-35.7	-35.5	22.7	0.00e+00	0	44	0	1929379840	40	3824
2026-01-30 15:50:33.87	267.21	22.73	-35.8	-35.7	22.6	0.00e+00	0	44	0	1936719872	41	3663
2026-01-30 15:50:34.87	267.48	22.74	-35.7	-35.6	22.6	0.00e+00	0	44	0	1943011328	41	3642
2026-01-30 15:50:35.88	267.76	22.75	-35.6	-35.5	22.7	0.00e+00	0	44	0	1950351360	41	3602
2026-01-30 15:50:36.88	268.03	22.76	-35.4	-35.3	22.9	0.00e+00	0	44	0	1957691392	41	3504
2026-01-30 15:50:37.88	268.30	22.76	-35.5	-35.3	22.9	0.00e+00	0	44	0	1965031424	41	3527
2026-01-30 15:50:38.88	268.58	22.77	-35.5	-35.3	22.9	0.00e+00	0	44	0	1972371456	41	3525
2026-01-30 15:50:39.88	268.85	22.77	-35.4	-35.2	23.0	0.00e+00	0	44	0	1979711488	41	3481
2026-01-30 15:50:40.88	269.13	22.78	-35.3	-35.2	23.0	0.00e+00	0	44	0	1987051520	41	3472
2026-01-30 15:50:41.89	269.40	22.78	-35.3	-35.1	23.0	0.00e+00	0	44	0	1994391552	41	3444
2026-01-30 15:50:42.89	269.68	22.78	-35.2	-35.1	23.1	0.00e+00	0	44	0	2001731584	41	3421
2026-01-30 15:50:43.89	269.95	22.79	-35.4	-35.2	23.0	0.00e+00	0	44	0	2009071616	41	3476
2026-01-30 15:50:44.88	270.22	22.79	-35.5	-35.3	22.8	0.00e+00	0	44	0	2016411648	41	3527
2026-01-30 15:50:45.88	270.50	22.79	-35.4	-35.2	23.0	0.00e+00	0	44	0	2022703104	41	3478
2026-01-30 15:50:46.88	270.77	22.79	-35.4	-35.3	22.9	0.00e+00	0	44	0	2030043136	41	3512
2026-01-30 15:50:47.88	271.05	22.79	-35.4	-35.3	22.9	0.00e+00	0	44	0	2037383168	41	3510
2026-01-30 15:50:48.88	271.32	22.79	-35.4	-35.3	22.9	0.00e+00	0	44	0	2044723200	41	3497
2026-01-30 15:50:49.88	271.60	22.79	-35.4	-35.3	22.9	0.00e+00	0	44	0	2052063232	41	3504
2026-01-30 15:50:50.88	271.87	22.78	-35.4	-35.2	23.0	0.00e+00	0	44	0	2059403264	41	3481
2026-01-30 15:50:51.88	272.14	22.78	-35.4	-35.3	22.9	0.00e+00	0	44	0	2065694720	41	3516
2026-01-30 15:50:52.88	272.42	22.78	-35.4	-35.3	22.9	0.00e+00	0	44	0	2074083328	41	3513
2026-01-30 15:50:53.88	272.69	22.77	-35.4	-35.3	22.9	0.00e+00	0	44	0	2080374784	41	3520
2026-01-30 15:50:54.88	272.97	22.77	-35.5	-35.4	22.8	0.00e+00	0	44	0	2087714816	41	3566
2026-01-30 15:50:55.88	273.24	22.76	-35.6	-35.5	22.7	0.00e+00	0	44	0	2095054848	41	3586
2026-01-30 15:50:56.88	273.51	22.75	-35.6	-35.5	22.7	0.00e+00	0	44	0	2102394880	41	3587
2026-01-30 15:50:57.88	273.79	22.75	-35.6	-35.5	22.8	0.00e+00	0	44	0	2109734912	41	3577
2026-01-30 15:50:58.88	274.06	22.74	-35.8	-35.7	22.6	0.00e+00	0	44	0	2117074944	41	3667
2026-01-30 15:50:59.88	274.33	22.73	-35.6	-35.5	22.7	0.00e+00	0	44	0	2124414976	41	3597
2026-01-30 15:51:00.88	274.61	22.72	-35.6	-35.5	22.7	0.00e+00	0	44	0	2131755008	41	3594
2026-01-30 15:51:01.88	274.88	22.71	-35.7	-35.6	22.6	0.00e+00	0	44	0	2139095040	41	3630
2026-01-30 15:51:02.88	275.15	22.70	-35.7	-35.6	22.6	0.00e+00	0	44	0	2146435072	41	3634
2026-01-30 15:51:03.89	275.43	22.69	-35.6	-35.5	22.8	0.00e+00	0	44	0	2152726528	41	3583
2026-01-30 15:51:04.89	275.70	22.68	-35.6	-35.5	22.8	0.00e+00	0	44	0	2160066560	41	3573
2026-01-30 15:51:05.89	275.97	22.67	-35.5	-35.3	22.9	0.00e+00	0	44	0	2167406592	41	3511
2026-01-30 15:51:06.89	276.25	22.65	-35.4	-35.3	22.9	0.00e+00	0	44	0	2174746624	41	3505
2026-01-30 15:51:07.89	276.52	22.64	-35.5	-35.4	22.9	0.00e+00	0	44	0	2182086656	41	3529
2026-01-30 15:51:08.89	276.79	22.63	-35.5	-35.4	22.8	0.00e+00	0	44	0	2189426688	41	3544
2026-01-30 15:51:09.89	277.06	22.61	-35.6	-35.5	22.8	0.00e+00	0	44	0	2196766720	41	3589
2026-01-30 15:51:10.89	277.33	22.60	-35.6	-35.5	22.7	0.00e+00	0	44	0	2204106752	41	3576
2026-01-30 15:51:11.89	277.60	22.58	-35.5	-35.3	22.9	0.00e+00	0	44	0	2210398208	41	3522
2026-01-30 15:51:12.89	277.87	22.56	-35.5	-35.4	22.9	0.00e+00	0	44	0	2217738240	41	3532
2026-01-30 15:51:13.89	278.14	22.55	-35.4	-35.3	23.0	0.00e+00	0	44	0	2225078272	41	3488
2026-01-30 15:51:14.89	278.41	22.53	-35.4	-35.2	23.0	0.00e+00	0	44	0	2232418304	41	3487
2026-01-30 15:51:15.89	278.68	22.51	-35.3	-35.2	23.0	0.00e+00	0	44	0	2239758336	41	3458
2026-01-30 15:51:16.89	278.95	22.49	-35.3	-35.2	23.0	0.00e+00	0	44	0	2247098368	41	3455
2026-01-30 15:51:17.89	279.22	22.47	-35.4	-35.3	23.0	0.00e+00	0	44	0	2254438400	41	3489
2026-01-30 15:51:18.89	279.49	22.45	-35.6	-35.5	22.8	0.00e+00	0	44	0	2261778432	41	3573
2026-01-30 15:51:19.90	279.76	22.43	-35.5	-35.4	22.8	0.00e+00	0	44	0	2269118464	41	3551
2026-01-30 15:51:20.90	280.03	22.41	-35.6	-35.5	22.7	0.00e+00	0	44	0	2275409920	41	3598
2026-01-30 15:51:21.90	280.30	22.38	-35.6	-35.5	22.7	0.00e+00	0	44	0	2282749952	41	3598
2026-01-30 15:51:22.90	280.56	22.36	-35.8	-35.7	22.6	0.00e+00	0	44	0	2290089984	41	3660
2026-01-30 15:51:23.90	280.83	22.34	-35.7	-35.6	22.7	0.00e+00	0	44	0	2297430016	41	3611
2026-01-30 15:51:24.90	281.10	22.31	-35.6	-35.5	22.7	0.00e+00	0	44	0	2304770048	41	3585
2026-01-30 15:51:25.90	281.36	22.29	-35.6	-35.5	22.8	0.00e+00	0	44	0	2312110080	41	3586
2026-01-30 15:51:26.90	281.63	22.26	-35.6	-35.4	22.8	0.00e+00	0	44	0	2319450112	41	3561
2026-01-30 15:51:27.90	281.89	22.24	-35.6	-35.5	22.7	0.00e+00	0	44	0	2326790144	41	3583
2026-01-30 15:51:28.90	282.16	22.21	-35.6	-35.5	22.7	0.00e+00	0	44	0	2333081600	41	3596
2026-01-30 15:51:29.90	282.42	22.18	-35.8	-35.6	22.6	0.00e+00	0	44	0	2340421632	41	3646
2026-01-30 15:51:30.91	282.69	22.15	-35.7	-35.6	22.7	0.00e+00	0	44	0	2347761664	41	3625
2026-01-30 15:51:31.91	282.95	22.13	-35.8	-35.7	22.5	0.00e+00	0	44	0	2355101696	41	3686
2026-01-30 15:51:32.91	283.21	22.10	-35.7	-35.6	22.7	0.00e+00	0	44	0	2362441728	41	3619
2026-01-30 15:51:33.91	283.47	22.07	-35.7	-35.6	22.6	0.00e+00	0	44	0	2369781760	41	3637
2026-01-30 15:51:34.91	283.74	22.04	-35.6	-35.5	22.7	0.00e+00	0	44	0	2377121792	41	3595
2026-01-30 15:51:35.91	284.00	22.01	-35.6	-35.5	22.8	0.00e+00	0	44	0	2384461824	41	3572
2026-01-30 15:51:36.91	284.26	21.98	-35.6	-35.5	22.8	0.00e+00	0	44	0	2391801856	41	3573
2026-01-30 15:51:37.92	284.52	21.94	-35.5	-35.4	22.9	0.00e+00	0	44	0	2398093312	41	3545
2026-01-30 15:51:38.92	284.78	21.91	-35.6	-35.5	22.8	0.00e+00	0	44	0	2405433344	41	3592
2026-01-30 15:51:39.92	285.04	21.88	-35.8	-35.6	22.6	0.00e+00	0	44	0	2412773376	41	3644
2026-01-30 15:51:40.92	285.30	21.84	-35.8	-35.7	22.5	0.00e+00	0	44	0	2420113408	41	3653
2026-01-30 15:51:41.93	285.56	21.81	-35.8	-35.7	22.6	0.00e+00	0	44	0	2427453440	41	3666
2026-01-30 15:51:42.93	285.81	21.78	-35.8	-35.6	22.6	0.00e+00	0	44	0	2434793472	41	3649
2026-01-30 15:51:43.93	286.07	21.74	-35.7	-35.6	22.7	0.00e+00	0	44	0	2442133504	41	3612
2026-01-30 15:51:44.93	286.33	21.70	-35.6	-35.5	22.7	0.00e+00	0	44	0	2449473536	41	3585
2026-01-30 15:51:45.93	286.58	21.67	-35.5	-35.4	22.7	0.00e+00	0	44	0	2456813568	41	3559
2026-01-30 15:51:46.93	286.84	21.63	-35.6	-35.5	22.7	0.00e+00	0	44	0	2464153600	41	3593
2026-01-30 15:51:47.93	287.09	21.60	-35.8	-35.7	22.6	0.00e+00	0	44	0	2471493632	41	3659
2026-01-30 15:51:48.94	287.35	21.56	-35.6	-35.5	22.7	0.00e+00	0	44	0	2478833664	41	3598
2026-01-30 15:51:49.94	287.60	21.52	-35.7	-35.6	22.6	0.00e+00	0	44	0	2485125120	41	3646
2026-01-30 15:51:50.94	287.85	21.48	-35.8	-35.6	22.6	0.00e+00	0	44	0	2492465152	41	3648
2026-01-30 15:51:51.93	288.10	21.44	-35.8	-35.7	22.6	0.00e+00	0	44	0	2499805184	41	3664
2026-01-30 15:51:52.94	288.36	21.40	-35.8	-35.7	22.6	0.00e+00	0	44	0	2507145216	41	3672
2026-01-30 15:51:53.93	288.61	21.36	-35.9	-35.7	22.5	0.00e+00	0	44	0	2514485248	41	3692
2026-01-30 15:51:54.93	288.86	21.32	-35.9	-35.8	22.5	0.00e+00	0	44	0	2521825280	41	3732
2026-01-30 15:51:55.93	289.10	21.28	-36.0	-35.9	22.4	0.00e+00	0	44	0	2529165312	41	3764
2026-01-30 15:51:56.93	289.35	21.24	-36.1	-36.0	22.3	0.00e+00	0	44	0	2535456768	41	3813
2026-01-30 15:51:57.93	289.60	21.20	-36.1	-36.0	22.3	0.00e+00	0	44	0	2542796800	41	3789
2026-01-30 15:51:58.93	289.85	21.15	-36.0	-35.9	22.4	0.00e+00	0	44	0	2550136832	41	3767
2026-01-30 15:51:59.93	290.10	21.11	-36.1	-36.0	22.3	0.00e+00	0	44	0	2557476864	41	3809
2026-01-30 15:52:00.93	290.34	21.07	-36.1	-36.0	22.3	0.00e+00	0	44	0	2564816896	41	3797
2026-01-30 15:52:01.93	290.59	21.02	-36.0	-35.9	22.4	0.00e+00	0	44	0	2572156928	41	3772
2026-01-30 15:52:02.93	290.83	20.98	-35.8	-35.7	22.6	0.00e+00	0	44	0	2579496960	41	3666
2026-01-30 15:52:03.93	291.08	20.94	-35.9	-35.8	22.5	0.00e+00	0	44	0	2586836992	41	3721
2026-01-30 15:52:04.94	291.32	20.89	-35.8	-35.7	22.6	0.00e+00	0	44	0	2594177024	41	3670
2026-01-30 15:52:05.94	291.56	20.84	-35.9	-35.8	22.5	0.00e+00	0	44	0	2601517056	41	3707
2026-01-30 15:52:06.94	291.81	20.80	-35.8	-35.6	22.4	0.00e+00	0	44	0	2607808512	41	3648
2026-01-30 15:52:07.94	292.05	20.75	-36.0	-35.9	22.4	0.00e+00	0	44	0	2615148544	41	3739
2026-01-30 15:52:08.94	292.29	20.70	-36.0	-35.9	22.3	0.00e+00	0	44	0	2622488576	41	3776
2026-01-30 15:52:09.94	292.53	20.66	-36.1	-36.0	22.3	0.00e+00	0	44	0	2629828608	41	3781
2026-01-30 15:52:10.95	292.77	20.61	-36.2	-36.1	22.2	0.00e+00	0	44	0	2637168640	41	3846
2026-01-30 15:52:11.95	293.01	20.56	-36.2	-36.1	22.1	0.00e+00	0	44	0	2644508672	42	3651
2026-01-30 15:52:12.95	293.24	20.51	-36.3	-36.3	22.0	0.00e+00	0	44	0	2651848704	42	3697
2026-01-30 15:52:13.96	293.48	20.46	-36.2	-36.1	22.2	0.00e+00	0	44	0	2659188736	42	3628
2026-01-30 15:52:14.96	293.72	20.41	-36.2	-36.0	22.2	0.00e+00	0	44	0	2666528768	42	3604
2026-01-30 15:52:15.95	293.95	20.37	-36.1	-36.0	22.3	0.00e+00	0	44	0	2672820224	42	3577
2026-01-30 15:52:16.96	294.19	20.32	-36.0	-35.9	22.4	0.00e+00	0	44	0	2680160256	42	3548
2026-01-30 15:52:17.96	294.42	20.26	-36.1	-36.0	22.3	0.00e+00	0	44	0	2687500288	42	3579
2026-01-30 15:52:18.96	294.65	20.21	-36.1	-36.0	22.3	0.00e+00	0	44	0	2694840320	42	3586
2026-01-30 15:52:19.96	294.89	20.16	-36.2	-36.1	22.2	0.00e+00	0	44	0	2702180352	42	3622
2026-01-30 15:52:20.96	295.12	20.11	-36.2	-36.1	22.2	0.00e+00	0	44	0	2709520384	42	3640
2026-01-30 15:52:21.96	295.35	20.06	-36.2	-36.1	22.2	0.00e+00	0	44	0	2716860416	42	3643
2026-01-30 15:52:22.96	295.58	20.01	-36.2	-36.1	22.2	0.00e+00	0	44	0	2724200448	42	3627
2026-01-30 15:52:23.96	295.81	19.96	-36.1	-36.0	22.3	0.00e+00	0	44	0	2730491904	42	3600
2026-01-30 15:52:24.96	296.04	19.90	-36.1	-36.0	22.3	0.00e+00	0	44	0	2737831936	42	3601
2026-01-30 15:52:25.97	296.27	19.85	-36.1	-35.9	22.3	0.00e+00	0	44	0	2745171968	42	3568
2026-01-30 15:52:26.97	296.49	19.80	-36.1	-35.9	22.4	0.00e+00	0	44	0	2752512000	42	3564
2026-01-30 15:52:27.97	296.72	19.74	-36.1	-36.0	22.3	0.00e+00	0	44	0	2759852032	42	3583
2026-01-30 15:52:28.97	296.94	19.69	-36.0	-35.9	22.3	0.00e+00	0	44	0	2767192064	42	3552
2026-01-30 15:52:29.97	297.17	19.63	-36.1	-36.0	22.3	0.00e+00	0	44	0	2774532096	42	3598
2026-01-30 15:52:30.97	297.39	19.58	-36.2	-36.1	22.2	0.00e+00	0	44	0	2781872128	42	3630
2026-01-30 15:52:31.97	297.62	19.52	-36.3	-36.2	22.1	0.00e+00	0	44	0	2789212160	42	3666
2026-01-30 15:52:32.97	297.84	19.47	-36.4	-36.3	22.0	0.00e+00	0	44	0	2795503616	42	3702
2026-01-30 15:52:33.98	298.06	19.41	-36.4	-36.3	22.0	0.00e+00	0	44	0	2802843648	42	3730
2026-01-30 15:52:34.98	298.28	19.36	-36.6	-36.5	21.8	0.00e+00	0	44	0	2811232256	42	3797
2026-01-30 15:52:35.98	298.50	19.30	-36.7	-36.6	21.7	0.00e+00	0	44	0	2817523712	42	3845
2026-01-30 15:52:36.98	298.72	19.24	-36.7	-36.6	21.4	0.00e+00	0	44	0	2824863744	42	3862
2026-01-30 15:52:37.98	298.94	19.19	-36.7	-36.7	21.7	0.00e+00	0	44	0	2832203776	42	3874
2026-01-30 15:52:38.98	299.16	19.13	-36.8	-36.7	21.7	0.00e+00	0	44	0	2839543808	42	3890
2026-01-30 15:52:39.98	299.37	19.07	-36.7	-36.7	21.7	0.00e+00	0	44	0	2846883840	42	3873
2026-01-30 15:52:40.98	299.59	19.01	-36.7	-36.6	21.7	0.00e+00	0	44	0	2854223872	42	3849
2026-01-30 15:52:41.98	299.80	18.96	-36.7	-36.6	21.8	0.00e+00	0	44	0	2861563904	42	3831
2026-01-30 15:52:42.99	300.02	18.90	-36.5	-36.4	21.9	0.00e+00	0	44	0	2868903936	42	3771
2026-01-30 15:52:43.98	300.23	18.84	-36.5	-36.4	21.9	0.00e+00	0	44	0	2875195392	42	3770
2026-01-30 15:52:44.99	300.44	18.78	-36.6	-36.5	21.9	0.00e+00	0	44	0	2882535424	42	3792
2026-01-30 15:52:45.99	300.66	18.72	-36.6	-36.5	21.8	0.00e+00	0	44	0	2889875456	42	3801
2026-01-30 15:52:46.99	300.87	18.66	-36.6	-36.5	21.8	0.00e+00	0	44	0	2897215488	42	3791
2026-01-30 15:52:47.99	301.08	18.60	-36.6	-36.5	21.8	0.00e+00	0	44	0	2904555520	42	3805
2026-01-30 15:52:48.99	301.29	18.55	-36.6	-36.5	21.7	0.00e+00	0	44	0	2911895552	42	3819
2026-01-30 15:52:49.99	301.49	18.49	-36.7	-36.6	21.8	0.00e+00	0	44	0	2919235584	42	3834
2026-01-30 15:52:50.99	301.70	18.43	-36.7	-36.6	21.7	0.00e+00	0	44	0	2926575616	42	3848
2026-01-30 15:52:52.00	301.91	18.36	-36.6	-36.5	21.8	0.00e+00	0	44	0	2933915648	42	3804
2026-01-30 15:52:53.00	302.12	18.30	-36.6	-36.5	21.8	0.00e+00	0	44	0	2940207104	42	3797
2026-01-30 15:52:54.00	302.32	18.24	-36.6	-36.5	21.8	0.00e+00	0	44	0	2947547136	42	3818
2026-01-30 15:52:55.00	302.53	18.18	-36.6	-36.5	21.8	0.00e+00	0	44	0	2954887168	42	3801
2026-01-30 15:52:56.00	302.73	18.12	-36.7	-36.7	21.7	0.00e+00	0	44	0	2962227200	42	3872
2026-01-30 15:52:57.00	302.93	18.06	-36.8	-36.7	21.6	0.00e+00	0	44	0	2969567232	42	3890
2026-01-30 15:52:58.01	303.14	18.00	-36.8	-36.7	21.6	0.00e+00	0	44	0	2976907264	43	3693
2026-01-30 15:52:59.00	303.34	17.94	-36.9	-36.8	21.5	0.00e+00	0	44	0	2984247296	43	3726
2026-01-30 15:53:00.01	303.54	17.88	-36.9	-36.8	20.9	0.00e+00	0	44	0	2991587328	43	3734
2026-01-30 15:53:01.00	303.74	17.81	-37.0	-36.9	21.4	0.00e+00	0	44	0	2998927360	43	3769
2026-01-30 15:53:02.00	303.94	17.75	-36.9	-36.9	21.5	0.00e+00	0	44	0	3005218816	43	3751
2026-01-30 15:53:03.00	304.13	17.69	-37.0	-37.0	21.4	0.00e+00	0	44	0	3012558848	43	3785
2026-01-30 15:53:04.00	304.33	17.63	-37.0	-36.9	21.4	0.00e+00	0	44	0	3019898880	43	3774
2026-01-30 15:53:05.00	304.53	17.57	-37.0	-36.9	21.4	0.00e+00	0	44	0	3027238912	43	3775
2026-01-30 15:53:06.00	304.72	17.50	-37.0	-36.9	21.4	0.00e+00	0	44	0	3034578944	43	3776
2026-01-30 15:53:07.01	304.92	17.44	-37.0	-36.9	21.4	0.00e+00	0	44	0	3041918976	43	3775
2026-01-30 15:53:08.01	305.11	17.38	-36.9	-36.9	21.5	0.00e+00	0	44	0	3049259008	43	3749
2026-01-30 15:53:09.01	305.31	17.31	-37.0	-36.9	21.4	0.00e+00	0	44	0	3056599040	43	3767
2026-01-30 15:53:10.01	305.50	17.25	-37.0	-36.9	21.4	0.00e+00	0	44	0	3062890496	43	3777
2026-01-30 15:53:11.01	305.69	17.19	-37.0	-36.9	21.4	0.00e+00	0	44	0	3070230528	43	3771
2026-01-30 15:53:12.00	305.88	17.12	-36.9	-36.8	21.5	0.00e+00	0	44	0	3077570560	43	3730
2026-01-30 15:53:13.01	306.07	17.06	-36.9	-36.8	21.5	0.00e+00	0	44	0	3084910592	43	3714
2026-01-30 15:53:14.01	306.26	17.00	-36.9	-36.9	21.5	0.00e+00	0	44	0	3092250624	43	3739
2026-01-30 15:53:15.01	306.45	16.93	-36.9	-36.8	21.5	0.00e+00	0	44	0	3099590656	43	3732
2026-01-30 15:53:16.00	306.64	16.87	-36.9	-36.8	21.5	0.00e+00	0	44	0	3106930688	43	3707
2026-01-30 15:53:17.00	306.82	16.80	-37.0	-37.0	21.4	0.00e+00	0	44	0	3114270720	43	3781
2026-01-30 15:53:18.00	307.01	16.74	-37.0	-36.9	21.4	0.00e+00	0	44	0	3121610752	43	3772
2026-01-30 15:53:19.00	307.19	16.67	-37.1	-37.1	21.3	0.00e+00	0	44	0	3127902208	43	3829
2026-01-30 15:53:20.01	307.38	16.61	-37.2	-37.1	21.2	0.00e+00	0	44	0	3135242240	43	3854
2026-01-30 15:53:21.01	307.56	16.55	-37.2	-37.2	21.2	0.00e+00	0	44	0	3142582272	43	3870
2026-01-30 15:53:22.01	307.75	16.48	-37.5	-37.4	21.1	0.00e+00	0	44	0	3149922304	44	3764
2026-01-30 15:53:23.01	307.93	16.42	-37.5	-37.5	21.0	0.00e+00	0	44	0	3157262336	44	3808
2026-01-30 15:53:24.01	308.11	16.35	-37.6	-37.5	21.0	0.00e+00	0	44	0	3164602368	44	3822
2026-01-30 15:53:25.01	308.29	16.29	-37.6	-37.6	21.0	0.00e+00	0	44	0	3171942400	44	3826
2026-01-30 15:53:26.01	308.47	16.22	-37.5	-37.5	21.1	0.00e+00	0	44	0	3179282432	44	3781
2026-01-30 15:53:27.01	308.65	16.16	-37.5	-37.5	21.0	0.00e+00	0	44	0	3186622464	44	3788
2026-01-30 15:53:28.01	308.83	16.09	-37.6	-37.5	21.0	0.00e+00	0	44	0	3192913920	44	3808
2026-01-30 15:53:29.01	309.01	16.02	-37.6	-37.6	20.9	0.00e+00	0	44	0	3200253952	44	3832
2026-01-30 15:53:30.01	309.19	15.96	-37.5	-37.5	20.9	0.00e+00	0	44	0	3207593984	44	3808
2026-01-30 15:53:31.01	309.36	15.89	-37.6	-37.6	20.9	0.00e+00	0	44	0	3214934016	44	3837
2026-01-30 15:53:32.01	309.54	15.83	-37.7	-37.7	20.8	0.00e+00	0	44	0	3222274048	44	3891
2026-01-30 15:53:33.01	309.71	15.76	-37.6	-37.6	20.9	0.00e+00	0	44	0	3229614080	44	3854
2026-01-30 15:53:34.01	309.89	15.70	-37.5	-37.5	21.0	0.00e+00	0	44	0	3236954112	44	3784
2026-01-30 15:53:35.01	310.06	15.63	-37.6	-37.6	21.0	0.00e+00	0	44	0	3244294144	44	3838
2026-01-30 15:53:36.01	310.23	15.56	-37.5	-37.5	21.1	0.00e+00	0	44	0	3250585600	44	3783
2026-01-30 15:53:37.01	310.40	15.50	-37.4	-37.4	21.2	0.00e+00	0	44	0	3257925632	44	3741
2026-01-30 15:53:38.01	310.57	15.43	-37.4	-37.4	21.1	0.00e+00	0	44	0	3265265664	44	3754
2026-01-30 15:53:39.00	310.74	15.37	-37.5	-37.5	21.0	0.00e+00	0	44	0	3272605696	44	3812
2026-01-30 15:53:40.01	310.91	15.30	-37.5	-37.5	21.0	0.00e+00	0	44	0	3279945728	44	3796
2026-01-30 15:53:41.01	311.08	15.23	-37.6	-37.6	20.9	0.00e+00	0	44	0	3287285760	44	3845
2026-01-30 15:53:42.00	311.25	15.17	-37.7	-37.7	20.8	0.00e+00	0	44	0	3294625792	44	3889
2026-01-30 15:53:43.00	311.42	15.10	-37.8	-37.8	20.7	0.00e+00	0	44	0	3301965824	45	3719
2026-01-30 15:53:44.00	311.58	15.04	-37.9	-37.9	20.6	0.00e+00	0	44	0	3309305856	45	3765
2026-01-30 15:53:45.00	311.75	14.97	-38.0	-38.0	20.5	0.00e+00	0	44	0	3315597312	45	3819
2026-01-30 15:53:46.01	311.92	14.90	-38.1	-38.1	20.4	0.00e+00	0	44	0	3322937344	45	3866
2026-01-30 15:53:47.01	312.08	14.84	-38.1	-38.1	20.4	0.00e+00	0	44	0	3330277376	45	3852
2026-01-30 15:53:48.01	312.24	14.77	-38.1	-38.2	20.3	0.00e+00	0	44	0	3337617408	45	3869
2026-01-30 15:53:49.01	312.41	14.70	-38.2	-38.2	20.3	0.00e+00	0	44	0	3344957440	45	3913
2026-01-30 15:53:50.02	312.57	14.64	-38.2	-38.2	20.3	0.00e+00	0	44	0	3352297472	45	3885
2026-01-30 15:53:51.02	312.73	14.57	-38.3	-38.3	20.2	0.00e+00	0	44	0	3359637504	46	3734
2026-01-30 15:53:52.02	312.89	14.50	-38.1	-38.1	20.4	0.00e+00	0	44	0	3366977536	46	3644
2026-01-30 15:53:53.02	313.05	14.44	-38.1	-38.2	20.4	0.00e+00	0	44	0	3373268992	46	3656
2026-01-30 15:53:54.02	313.21	14.37	-37.9	-37.9	20.6	0.00e+00	0	44	0	3380609024	46	3556
2026-01-30 15:53:55.02	313.37	14.30	-37.6	-37.6	20.9	0.00e+00	0	44	0	3387949056	46	3427
2026-01-30 15:53:56.02	313.53	14.24	-37.5	-37.4	21.0	0.00e+00	0	44	0	3395289088	45	3555
2026-01-30 15:53:57.03	313.69	14.17	-37.5	-37.4	21.0	0.00e+00	0	44	0	3402629120	45	3554
2026-01-30 15:53:58.03	313.85	14.10	-37.4	-37.4	21.1	0.00e+00	0	44	0	3409969152	45	3532
2026-01-30 15:53:59.03	314.00	14.04	-37.4	-37.4	21.1	0.00e+00	0	44	0	3417309184	45	3533
2026-01-30 15:54:00.03	314.16	13.97	-37.5	-37.5	20.9	0.00e+00	0	44	0	3424649216	45	3590
2026-01-30 15:54:01.03	314.31	13.90	-37.5	-37.5	20.9	0.00e+00	0	44	0	3431989248	45	3594
2026-01-30 15:54:02.04	314.47	13.84	-37.6	-37.6	20.8	0.00e+00	0	44	0	3439329280	45	3635
2026-01-30 15:54:03.04	314.62	13.77	-37.7	-37.7	20.8	0.00e+00	0	44	0	3446669312	45	3657
2026-01-30 15:54:04.04	314.77	13.70	-37.6	-37.6	20.9	0.00e+00	0	44	0	3454009344	45	3626
2026-01-30 15:54:05.05	314.93	13.64	-37.7	-37.6	20.8	0.00e+00	0	44	0	3460300800	45	3643
2026-01-30 15:54:06.05	315.08	13.57	-37.7	-37.6	20.8	0.00e+00	0	44	0	3467640832	45	3649
2026-01-30 15:54:07.05	315.23	13.50	-37.8	-37.8	20.7	0.00e+00	0	44	0	3474980864	45	3723
2026-01-30 15:54:08.05	315.38	13.44	-37.9	-37.9	20.6	0.00e+00	0	44	0	3482320896	45	3753
2026-01-30 15:54:09.05	315.53	13.37	-38.0	-38.0	20.5	0.00e+00	0	44	0	3489660928	45	3811
2026-01-30 15:54:10.05	315.68	13.30	-38.2	-38.2	20.3	0.00e+00	0	44	0	3497000960	45	3901
2026-01-30 15:54:11.06	315.83	13.23	-38.2	-38.2	20.3	0.00e+00	0	44	0	3504340992	45	3890
2026-01-30 15:54:12.05	315.97	13.17	-38.3	-38.3	20.2	0.00e+00	0	44	0	3511681024	45	3940
2026-01-30 15:54:13.06	316.12	13.10	-38.3	-38.3	20.2	0.00e+00	0	44	0	3519021056	46	3736
2026-01-30 15:54:14.06	316.27	13.03	-38.2	-38.3	20.2	0.00e+00	0	44	0	3525312512	46	3698
2026-01-30 15:54:15.06	316.41	12.97	-38.4	-38.4	20.1	0.00e+00	0	44	0	3532652544	46	3765
2026-01-30 15:54:16.06	316.56	12.90	-38.3	-38.3	20.2	0.00e+00	0	44	0	3539992576	46	3720
2026-01-30 15:54:17.06	316.70	12.83	-38.2	-38.2	20.3	0.00e+00	0	44	0	3547332608	46	3683
2026-01-30 15:54:18.06	316.85	12.77	-38.2	-38.2	20.3	0.00e+00	0	44	0	3554672640	46	3668
2026-01-30 15:54:19.06	316.99	12.70	-38.2	-38.2	20.3	0.00e+00	0	44	0	3562012672	46	3679
2026-01-30 15:54:20.06	317.13	12.64	-38.3	-38.3	20.2	0.00e+00	0	44	0	3569352704	46	3717
2026-01-30 15:54:21.06	317.27	12.57	-38.1	-38.1	20.4	0.00e+00	0	44	0	3576692736	46	3640
2026-01-30 15:54:22.06	317.41	12.50	-38.2	-38.2	20.3	0.00e+00	0	44	0	3582984192	46	3656
2026-01-30 15:54:23.07	317.56	12.44	-38.1	-38.1	20.4	0.00e+00	0	44	0	3590324224	46	3623
2026-01-30 15:54:24.07	317.70	12.37	-38.2	-38.2	20.3	0.00e+00	0	44	0	3597664256	46	3683
2026-01-30 15:54:25.07	317.84	12.30	-38.2	-38.2	20.3	0.00e+00	0	44	0	3605004288	46	3653
2026-01-30 15:54:26.07	317.97	12.24	-38.0	-38.0	20.5	0.00e+00	0	44	0	3612344320	46	3600
2026-01-30 15:54:27.07	318.11	12.17	-38.1	-38.1	20.4	0.00e+00	0	44	0	3619684352	46	3618
2026-01-30 15:54:28.08	318.25	12.10	-38.1	-38.1	20.3	0.00e+00	0	44	0	3627024384	46	3640
2026-01-30 15:54:29.08	318.39	12.04	-38.1	-38.1	20.4	0.00e+00	0	44	0	3634364416	46	3634
2026-01-30 15:54:30.08	318.52	11.97	-38.2	-38.2	20.2	0.00e+00	0	44	0	3641704448	46	3693
2026-01-30 15:54:31.08	318.66	11.91	-38.4	-38.4	20.1	0.00e+00	0	44	0	3647995904	46	3750
2026-01-30 15:54:32.08	318.79	11.84	-38.4	-38.5	20.0	0.00e+00	0	44	0	3656384512	46	3793
2026-01-30 15:54:33.08	318.93	11.77	-38.4	-38.5	20.0	0.00e+00	0	44	0	3662675968	46	3793
2026-01-30 15:54:34.08	319.06	11.71	-38.5	-38.6	19.9	0.00e+00	0	44	0	3670016000	46	3842
2026-01-30 15:54:35.09	319.20	11.64	-38.5	-38.6	19.8	0.00e+00	0	44	0	3677356032	46	3863
2026-01-30 15:54:36.09	319.33	11.57	-38.6	-38.7	19.7	0.00e+00	0	44	0	3684696064	46	3912
2026-01-30 15:54:37.09	319.46	11.51	-38.8	-38.9	19.6	0.00e+00	0	44	0	3692036096	46	3995
2026-01-30 15:54:38.09	319.59	11.44	-38.7	-38.9	19.6	0.00e+00	0	44	0	3699376128	47	3753
2026-01-30 15:54:39.09	319.73	11.38	-38.7	-38.8	19.6	0.00e+00	0	44	0	3706716160	47	3729
2026-01-30 15:54:40.08	319.85	11.31	-38.6	-38.8	19.7	0.00e+00	0	44	0	3714056192	47	3704
2026-01-30 15:54:41.09	319.99	11.25	-38.6	-38.7	19.8	0.00e+00	0	44	0	3721396224	47	3671
2026-01-30 15:54:42.09	320.12	11.18	-38.6	-38.7	19.7	0.00e+00	0	44	0	3728736256	47	3685
2026-01-30 15:54:43.09	320.24	11.11	-38.7	-38.8	19.7	0.00e+00	0	44	0	3735027712	47	3715
2026-01-30 15:54:44.09	320.37	11.05	-38.6	-38.7	19.8	0.00e+00	0	44	0	3742367744	47	3679
2026-01-30 15:54:45.09	320.50	10.98	-38.6	-38.7	19.8	0.00e+00	0	44	0	3749707776	47	3657
2026-01-30 15:54:46.10	320.63	10.92	-38.4	-38.5	19.9	0.00e+00	0	44	0	3757047808	47	3591
2026-01-30 15:54:47.10	320.76	10.85	-38.5	-38.5	19.9	0.00e+00	0	44	0	3764387840	47	3602
2026-01-30 15:54:48.10	320.88	10.79	-38.5	-38.6	19.8	0.00e+00	0	44	0	3771727872	47	3638
2026-01-30 15:54:49.10	321.01	10.72	-38.4	-38.5	19.9	0.00e+00	0	44	0	3779067904	47	3588
2026-01-30 15:54:50.11	321.13	10.66	-38.5	-38.6	19.9	0.00e+00	0	44	0	3786407936	47	3621
2026-01-30 15:54:51.11	321.26	10.59	-38.5	-38.6	19.8	0.00e+00	0	44	0	3792699392	47	3629
2026-01-30 15:54:52.11	321.38	10.53	-38.5	-38.6	19.8	0.00e+00	0	44	0	3800039424	47	3642
2026-01-30 15:54:53.11	321.50	10.46	-38.5	-38.6	19.8	0.00e+00	0	44	0	3807379456	47	3621
2026-01-30 15:54:54.11	321.63	10.40	-38.4	-38.5	20.0	0.00e+00	0	44	0	3814719488	47	3577
2026-01-30 15:54:55.11	321.75	10.33	-38.3	-38.4	20.0	0.00e+00	0	44	0	3822059520	47	3551
2026-01-30 15:54:56.11	321.87	10.27	-38.5	-38.5	19.9	0.00e+00	0	44	0	3829399552	47	3597
2026-01-30 15:54:57.11	321.99	10.20	-38.5	-38.5	19.9	0.00e+00	0	44	0	3836739584	47	3592
2026-01-30 15:54:58.11	322.11	10.14	-38.4	-38.5	19.9	0.00e+00	0	44	0	3844079616	47	3575
2026-01-30 15:54:59.11	322.23	10.07	-38.5	-38.5	19.9	0.00e+00	0	44	0	3851419648	47	3595
2026-01-30 15:55:00.12	322.35	10.01	-38.5	-38.5	19.8	0.00e+00	0	44	0	3857711104	47	3608
2026-01-30 15:55:01.12	322.47	9.94	-38.6	-38.6	19.8	0.00e+00	0	44	0	3865051136	47	3646
2026-01-30 15:55:02.12	322.59	9.88	-38.6	-38.6	19.8	0.00e+00	0	44	0	3872391168	47	3649
2026-01-30 15:55:03.12	322.71	9.81	-38.6	-38.7	19.7	0.00e+00	0	44	0	3879731200	47	3676
2026-01-30 15:55:04.12	322.83	9.75	-38.7	-38.8	19.6	0.00e+00	0	44	0	3887071232	47	3715
2026-01-30 15:55:05.12	322.95	9.68	-38.7	-38.8	19.6	0.00e+00	0	44	0	3894411264	47	3709
2026-01-30 15:55:06.12	323.06	9.62	-38.8	-38.9	19.5	0.00e+00	0	44	0	3901751296	47	3754
2026-01-30 15:55:07.13	323.18	9.56	-38.8	-38.9	19.5	0.00e+00	0	44	0	3909091328	47	3765
2026-01-30 15:55:08.13	323.30	9.49	-38.9	-39.0	19.4	0.00e+00	0	44	0	3915382784	47	3817
2026-01-30 15:55:09.13	323.41	9.43	-38.8	-39.0	19.4	0.00e+00	0	44	0	3923771392	47	3809
2026-01-30 15:55:10.13	323.53	9.36	-38.9	-39.1	19.3	0.00e+00	0	44	0	3931111424	47	3825
2026-01-30 15:55:11.13	323.64	9.30	-39.0	-39.2	19.2	0.00e+00	0	44	0	3937402880	47	3892
2026-01-30 15:55:12.13	323.75	9.24	-39.0	-39.2	19.2	0.00e+00	0	44	0	3944742912	47	3902
2026-01-30 15:55:13.14	323.87	9.17	-38.9	-39.2	19.2	0.00e+00	0	44	0	3952082944	47	3891
2026-01-30 15:55:14.14	323.98	9.11	-39.0	-39.3	19.1	0.00e+00	0	44	0	3959422976	47	3931
2026-01-30 15:55:15.14	324.09	9.04	-39.0	-39.3	19.1	0.00e+00	0	44	0	3966763008	47	3938
2026-01-30 15:55:16.14	324.21	8.98	-48.6	-56.6	4.1	2.23e-01	0	44	0	3973054464	66	9616
2026-01-30 15:55:17.14	324.32	8.92	-48.7	-59.5	3.8	8.47e-01	0	44	104	3973054464	67	12747
2026-01-30 15:55:18.14	324.43	8.85	-49.5	-59.7	3.8	8.46e-01	0	44	104	3973054464	68	12249
2026-01-30 15:55:19.14	324.54	8.79	-49.8	-59.6	3.8	8.46e-01	0	44	104	3973054464	69	11548
2026-01-30 15:55:20.15	324.65	8.73	-49.2	-59.7	3.8	8.47e-01	0	44	104	3973054464	69	11587
2026-01-30 15:55:21.15	324.76	8.66	-49.4	-59.7	3.8	8.47e-01	0	44	104	3973054464	69	11596
2026-01-30 15:55:22.16	324.87	8.60	-49.7	-59.7	3.8	8.46e-01	0	44	104	3973054464	69	11648
2026-01-30 15:55:23.16	324.98	8.54	-49.7	-59.8	3.8	8.47e-01	0	44	104	3973054464	69	11700
2026-01-30 15:55:24.16	325.09	8.47	-50.0	-59.8	3.8	8.46e-01	0	44	104	3973054464	69	11714
2026-01-30 15:55:25.17	325.20	8.41	-49.9	-59.8	3.8	8.47e-01	0	44	104	3973054464	69	11719
2026-01-30 15:55:26.17	325.30	8.35	-50.0	-59.9	3.8	8.47e-01	0	44	104	3973054464	69	11898
2026-01-30 15:55:27.17	325.41	8.28	-49.9	-59.9	3.8	8.47e-01	0	44	104	3973054464	69	11841
2026-01-30 15:55:28.18	325.52	8.22	-49.9	-59.8	3.8	8.48e-01	0	44	104	3973054464	69	11792
2026-01-30 15:55:29.18	325.62	8.16	-49.9	-59.9	3.8	8.47e-01	0	44	104	3973054464	69	11924
2026-01-30 15:55:30.18	325.73	8.10	-49.9	-59.9	3.8	8.47e-01	0	44	104	3973054464	69	11880
2026-01-30 15:55:31.19	325.83	8.03	-49.9	-59.9	3.8	8.46e-01	0	44	104	3973054464	69	11822
2026-01-30 15:55:32.19	325.94	7.97	-49.9	-59.9	3.8	8.46e-01	0	44	104	3973054464	69	11830
2026-01-30 15:55:33.20	326.04	7.91	-49.9	-59.9	3.8	8.47e-01	0	44	104	3973054464	69	11882
2026-01-30 15:55:34.20	326.15	7.85	-49.9	-59.8	3.8	8.47e-01	0	44	104	3973054464	69	11792
2026-01-30 15:55:35.21	326.25	7.78	-49.9	-59.9	3.8	8.48e-01	0	44	104	3973054464	69	11870
2026-01-30 15:55:36.21	326.36	7.72	-49.9	-59.9	3.8	8.47e-01	0	44	104	3973054464	69	11840
2026-01-30 15:55:37.21	326.46	7.66	-49.9	-59.9	3.8	8.47e-01	0	44	104	3973054464	69	11844
2026-01-30 15:55:38.22	326.56	7.60	-49.9	-59.9	3.8	8.46e-01	0	44	104	3973054464	69	11824
2026-01-30 15:55:39.22	326.66	7.54	-49.9	-59.9	3.8	8.48e-01	0	44	104	3973054464	69	11837
2026-01-30 15:55:40.23	326.77	7.47	-49.9	-59.8	3.8	8.47e-01	0	44	104	3973054464	69	11753
2026-01-30 15:55:41.23	326.87	7.41	-49.9	-59.9	3.8	8.46e-01	0	44	104	3973054464	69	11835
2026-01-30 15:55:42.23	326.97	7.35	-49.9	-59.9	3.8	8.46e-01	0	44	104	3973054464	69	11844
2026-01-30 15:55:43.23	327.07	7.29	-49.9	-59.8	3.8	8.48e-01	0	44	104	3973054464	69	11810
2026-01-30 15:55:44.24	327.17	7.23	-49.8	-59.9	3.8	8.47e-01	0	44	104	3973054464	69	11822
2026-01-30 15:55:45.23	327.27	7.17	-49.9	-59.8	3.8	8.47e-01	0	44	104	3973054464	69	11794
2026-01-30 15:55:46.24	327.37	7.10	-49.9	-59.8	3.8	8.46e-01	0	44	104	3973054464	69	11810
2026-01-30 15:55:47.24	327.47	7.04	-49.9	-59.9	3.8	8.45e-01	0	44	104	3973054464	69	11820
2026-01-30 15:55:48.24	327.56	6.98	-49.9	-59.8	3.8	8.46e-01	0	44	104	3973054464	69	11811
2026-01-30 15:55:49.25	327.66	6.92	-49.9	-59.8	3.8	8.48e-01	0	44	104	3973054464	69	11790
2026-01-30 15:55:50.25	327.76	6.86	-49.9	-59.8	3.8	8.46e-01	0	44	104	3973054464	69	11754
2026-01-30 15:55:51.25	327.86	6.80	-49.9	-59.9	3.8	8.47e-01	0	44	104	3973054464	69	11877
2026-01-30 15:55:52.26	327.95	6.74	-49.9	-59.9	3.8	8.47e-01	0	44	104	3973054464	69	11839
2026-01-30 15:55:53.26	328.05	6.68	-49.9	-59.8	3.8	8.46e-01	0	44	104	3973054464	69	11793
2026-01-30 15:55:54.26	328.15	6.61	-49.9	-59.8	3.8	8.48e-01	0	44	104	3973054464	69	11784
2026-01-30 15:55:55.27	328.24	6.55	-49.9	-59.8	3.8	8.48e-01	0	44	104	3973054464	69	11774
2026-01-30 15:55:56.27	328.34	6.49	-49.9	-59.9	3.8	8.47e-01	0	44	104	3973054464	69	11895
2026-01-30 15:55:57.28	328.43	6.43	-49.9	-59.8	3.8	8.46e-01	0	44	104	3973054464	69	11812
2026-01-30 15:55:58.28	328.53	6.37	-49.9	-59.9	3.8	8.46e-01	0	44	104	3973054464	69	11840
2026-01-30 15:55:59.28	328.62	6.31	-49.9	-59.9	3.8	8.46e-01	0	44	104	3973054464	69	11873
2026-01-30 15:56:00.29	328.72	6.25	-49.9	-59.9	3.8	8.47e-01	0	44	104	3973054464	69	11833
2026-01-30 15:56:01.29	328.81	6.19	-49.9	-59.8	3.8	8.45e-01	0	44	104	3973054464	69	11785
2026-01-30 15:56:02.29	328.90	6.13	-49.9	-59.9	3.8	8.48e-01	0	44	104	3973054464	69	11826
2026-01-30 15:56:03.29	328.99	6.07	-49.9	-59.8	3.8	8.46e-01	0	44	104	3973054464	69	11753
2026-01-30 15:56:04.30	329.09	6.01	-49.9	-59.9	3.8	8.45e-01	0	44	104	3973054464	69	11917
2026-01-30 15:56:05.30	329.18	5.95	-49.9	-59.8	3.8	8.48e-01	0	44	104	3973054464	69	11804
2026-01-30 15:56:06.30	329.27	5.89	-49.9	-59.9	3.8	8.47e-01	0	44	104	3973054464	69	11875
2026-01-30 15:56:07.31	329.36	5.83	-49.9	-59.8	3.8	8.47e-01	0	44	104	3973054464	69	11816
2026-01-30 15:56:08.31	329.45	5.77	-49.9	-59.9	3.8	8.46e-01	0	44	104	3973054464	69	11835
2026-01-30 15:56:09.32	329.54	5.71	-49.9	-59.9	3.8	8.46e-01	0	44	104	3973054464	69	11827
2026-01-30 15:56:10.32	329.63	5.65	-49.9	-59.9	3.8	8.46e-01	0	44	104	3973054464	69	11867
2026-01-30 15:56:11.32	329.72	5.59	-49.9	-59.9	3.8	8.47e-01	0	44	104	3973054464	69	11822
2026-01-30 15:56:12.33	329.81	5.53	-49.9	-59.9	3.8	8.46e-01	0	44	104	3973054464	69	11827
2026-01-30 15:56:13.33	329.90	5.47	-49.9	-59.9	3.8	8.46e-01	0	44	104	3973054464	69	11820
2026-01-30 15:56:14.33	329.99	5.41	-49.9	-59.8	3.8	8.45e-01	0	44	104	3973054464	69	11782
2026-01-30 15:56:15.33	330.08	5.36	-49.9	-59.9	3.8	8.47e-01	0	44	104	3973054464	69	11824
2026-01-30 15:56:16.34	330.17	5.30	-49.9	-59.9	3.8	8.47e-01	0	44	104	3973054464	69	11839
2026-01-30 15:56:17.34	330.26	5.24	-49.9	-59.9	3.8	8.46e-01	0	44	104	3973054464	69	11844
2026-01-30 15:56:18.34	330.34	5.18	-49.9	-59.9	3.8	8.47e-01	0	44	104	3973054464	69	11889
2026-01-30 15:56:19.34	330.43	5.12	-49.9	-59.8	3.8	8.48e-01	0	44	104	3973054464	69	11782
2026-01-30 15:56:20.35	330.52	5.06	-49.9	-59.9	3.8	8.46e-01	0	44	104	3973054464	69	11949
2026-01-30 15:56:21.35	330.60	5.00	-49.9	-59.9	3.8	8.47e-01	0	44	104	3973054464	69	11907

#Closed at: 2026-01-30 15:56:22
#Recorded file [3973 MB]: D:/Data/31040_260130_184515.dat