passes_logs/2026/01/30/T1/T1__20260130_105550_NOAA_21_JPSS-2_rec.log

#Pass ID: 20260130_105550_NOAA 21 (JPSS-2)
#Satellite: NOAA 21 (JPSS-2)
#Configuration: NOAA 21
#almurnet v.1.7.20251203
#Start time: 2026-01-30 10:55:50

#Version: 2.0.20230620
#Station: T1
#Location: 37.570604 lon 55.790049 lat
#TLE: 1 54234U 22150A   26029.46216196  .00000141  00000+0  87503-4 0  9994
#TLE: 2 54234  98.7512 330.1880 0000955 196.3413 163.7732 14.19540905166865

#Time	Az	El	Level	Level2	SNR	BER	BlckErr	Temp	State	Recorded	gain1	gain2
2026-01-30 10:55:50.82	192.34	5.02	-50.9	-63.3	3.8	1.49e+00	0	41	0	0	72	15796
2026-01-30 10:55:51.81	192.40	5.09	-51.2	-63.3	3.8	1.49e+00	0	41	104	0	73	14983
2026-01-30 10:55:52.81	192.46	5.16	-51.2	-63.3	3.8	1.49e+00	0	41	104	0	73	15041
2026-01-30 10:55:53.82	192.51	5.22	-51.0	-63.3	3.8	1.49e+00	0	42	104	0	73	15003
2026-01-30 10:55:54.82	192.57	5.29	-51.2	-63.3	3.8	1.49e+00	0	41	104	0	73	15012
2026-01-30 10:55:55.82	192.63	5.36	-51.3	-63.4	3.8	1.49e+00	0	42	104	0	73	15063
2026-01-30 10:55:56.83	192.69	5.43	-51.0	-63.3	3.8	1.49e+00	0	42	104	0	73	14971
2026-01-30 10:55:57.83	192.75	5.49	-51.2	-63.3	3.8	1.49e+00	0	41	104	0	73	14940
2026-01-30 10:55:58.83	192.81	5.56	-51.2	-63.3	3.8	1.49e+00	0	41	104	0	73	14901
2026-01-30 10:55:59.84	192.87	5.63	-51.0	-63.2	3.8	1.49e+00	0	42	104	0	73	14832
2026-01-30 10:56:00.83	192.93	5.70	-50.9	-63.2	3.8	1.49e+00	0	42	104	0	73	14768
2026-01-30 10:56:01.84	192.99	5.77	-51.0	-63.2	3.8	1.49e+00	0	42	104	0	73	14787
2026-01-30 10:56:02.84	193.05	5.84	-50.8	-63.1	3.8	1.49e+00	0	42	104	0	73	14679
2026-01-30 10:56:03.84	193.11	5.90	-50.9	-63.1	3.8	1.49e+00	0	42	104	0	72	15497
2026-01-30 10:56:04.85	193.17	5.97	-50.8	-63.2	3.8	1.49e+00	0	42	104	0	72	15687
2026-01-30 10:56:05.85	193.23	6.04	-51.2	-63.3	3.8	1.49e+00	0	42	104	0	73	15041
2026-01-30 10:56:06.85	193.29	6.11	-51.3	-63.5	3.8	1.49e+00	0	42	104	0	73	15342
2026-01-30 10:56:07.85	193.35	6.18	-52.3	-64.7	3.9	1.49e+00	0	42	104	0	75	15726
2026-01-30 10:56:08.86	193.41	6.25	-52.5	-65.4	3.9	1.49e+00	0	42	104	0	75	16966
2026-01-30 10:56:09.86	193.47	6.32	-52.6	-65.8	3.9	1.49e+00	0	42	104	0	75	17837
2026-01-30 10:56:10.86	193.53	6.39	-53.0	-66.2	3.9	1.50e+00	0	42	104	0	76	17547
2026-01-30 10:56:11.87	193.60	6.46	-53.1	-66.4	3.9	1.50e+00	0	42	104	0	76	18037
2026-01-30 10:56:12.87	193.66	6.53	-52.9	-66.2	3.9	1.50e+00	0	42	104	0	76	17536
2026-01-30 10:56:13.87	193.72	6.60	-52.8	-66.4	3.9	1.50e+00	0	42	104	0	76	17940
2026-01-30 10:56:14.87	193.79	6.67	-52.9	-66.5	3.9	1.50e+00	0	42	104	0	76	18188
2026-01-30 10:56:15.87	193.85	6.74	-52.9	-66.5	3.9	1.50e+00	0	42	104	0	76	18119
2026-01-30 10:56:16.88	193.91	6.81	-52.7	-66.0	3.9	1.50e+00	0	42	104	0	76	17274
2026-01-30 10:56:17.88	193.98	6.88	-51.9	-65.3	3.9	1.50e+00	0	42	104	0	75	16741
2026-01-30 10:56:18.88	194.04	6.95	-52.1	-64.4	3.9	1.49e+00	0	42	104	0	75	15136
2026-01-30 10:56:19.89	194.11	7.03	-51.4	-63.0	3.9	1.49e+00	0	42	104	0	74	13605
2026-01-30 10:56:20.89	194.17	7.10	-50.0	-60.7	3.9	1.48e+00	0	42	104	0	71	12511
2026-01-30 10:56:21.89	194.24	7.17	-49.8	-59.7	4.2	1.47e+00	0	42	104	0	71	11050
2026-01-30 10:56:22.89	194.30	7.24	-51.0	-61.4	4.1	1.47e+00	0	42	104	0	72	12774
2026-01-30 10:56:23.90	194.37	7.31	-52.1	-63.5	3.9	1.49e+00	0	42	104	0	74	14438
2026-01-30 10:56:24.89	194.44	7.38	-52.6	-65.2	3.9	1.49e+00	0	42	104	0	75	16632
2026-01-30 10:56:25.90	194.50	7.46	-52.9	-66.8	4.0	1.50e+00	0	42	104	0	76	18914
2026-01-30 10:56:26.90	194.57	7.53	-52.8	-67.5	4.0	1.50e+00	0	42	104	0	76	20417
2026-01-30 10:56:27.90	194.64	7.60	-52.5	-65.8	4.1	1.50e+00	0	42	104	0	76	16781
2026-01-30 10:56:28.90	194.70	7.67	-52.1	-62.8	4.5	1.48e+00	0	42	104	0	76	11907
2026-01-30 10:56:29.90	194.77	7.75	-51.6	-59.5	5.7	1.41e+00	0	43	104	0	74	9156
2026-01-30 10:56:30.90	194.84	7.82	-50.9	-57.3	5.5	1.37e+00	0	43	104	0	73	7500
2026-01-30 10:56:31.91	194.91	7.89	-50.0	-54.8	5.6	1.31e+00	0	43	104	0	72	5974
2026-01-30 10:56:32.91	194.98	7.97	-49.2	-52.8	6.2	1.24e+00	0	42	104	0	70	5324
2026-01-30 10:56:33.91	195.05	8.04	-48.3	-50.7	6.0	9.22e-01	0	42	0	0	68	4687
2026-01-30 10:56:34.91	195.12	8.11	-47.3	-49.5	5.7	1.28e+00	0	42	104	0	66	4594
2026-01-30 10:56:35.91	195.19	8.19	-46.8	-49.3	5.5	1.28e+00	0	43	104	0	65	4748
2026-01-30 10:56:36.91	195.26	8.26	-46.3	-48.6	5.6	1.27e+00	0	42	104	0	64	4648
2026-01-30 10:56:37.92	195.33	8.34	-46.0	-48.5	5.2	1.24e+00	0	42	104	0	64	4563
2026-01-30 10:56:38.92	195.40	8.41	-45.9	-48.4	5.4	1.29e+00	0	42	104	0	63	4761
2026-01-30 10:56:39.92	195.47	8.49	-46.2	-48.8	5.2	1.34e+00	0	42	104	0	63	5038
2026-01-30 10:56:40.92	195.54	8.56	-45.0	-46.8	14.7	1.30e+00	0	42	104	0	61	4489
2026-01-30 10:56:41.92	195.61	8.64	-45.6	-47.7	14.1	0.00e+00	0	43	0	0	61	4956
2026-01-30 10:56:42.92	195.69	8.71	-46.2	-48.8	12.9	1.22e-05	0	43	0	0	62	5295
2026-01-30 10:56:43.93	195.76	8.79	-46.7	-50.0	11.3	5.30e-04	0	43	0	0	64	5408
2026-01-30 10:56:44.93	195.83	8.86	-47.3	-51.3	9.8	5.61e-03	0	43	0	0	65	5980
2026-01-30 10:56:45.93	195.91	8.94	-47.9	-52.9	8.2	4.01e-02	0	43	0	0	66	6749
2026-01-30 10:56:46.93	195.98	9.02	-48.4	-54.6	6.6	1.70e-01	0	43	0	0	67	7747
2026-01-30 10:56:47.93	196.05	9.09	-45.5	-47.8	13.6	4.57e-05	0	43	0	0	63	4455
2026-01-30 10:56:48.93	196.13	9.17	-49.3	-57.7	4.7	1.69e-01	0	43	0	0	69	9929
2026-01-30 10:56:49.93	196.20	9.24	-48.9	-56.2	5.7	1.74e-01	0	43	0	0	68	8794
2026-01-30 10:56:50.93	196.28	9.32	-45.8	-48.3	13.1	2.36e-03	0	43	0	0	63	4709
2026-01-30 10:56:51.93	196.35	9.40	-49.2	-58.8	3.9	8.29e-01	0	43	104	0	68	11854
2026-01-30 10:56:52.93	196.43	9.48	-46.0	-48.5	12.7	3.56e-03	0	43	0	0	64	4587
2026-01-30 10:56:53.93	196.51	9.55	-44.5	-46.2	15.1	1.50e-06	0	43	0	0	61	4186
2026-01-30 10:56:54.93	196.58	9.63	-43.3	-44.6	16.8	0.00e+00	0	43	0	0	58	4110
2026-01-30 10:56:55.94	196.66	9.71	-42.6	-43.7	17.6	0.00e+00	0	43	0	0	57	3932
2026-01-30 10:56:56.94	196.74	9.79	-42.2	-43.3	18.0	0.00e+00	0	43	0	0	56	3961
2026-01-30 10:56:57.93	196.81	9.86	-42.1	-43.2	18.0	0.00e+00	0	43	0	0	56	3927
2026-01-30 10:56:58.94	196.89	9.94	-42.0	-43.1	18.1	0.00e+00	0	43	0	0	56	3872
2026-01-30 10:56:59.94	196.97	10.02	-42.1	-43.1	18.1	0.00e+00	0	43	0	0	56	3896
2026-01-30 10:57:00.94	197.05	10.10	-42.0	-43.1	18.1	0.00e+00	0	43	0	0	56	3879
2026-01-30 10:57:01.94	197.13	10.18	-42.0	-43.0	18.2	0.00e+00	0	43	0	0	56	3863
2026-01-30 10:57:02.95	197.21	10.26	-41.9	-42.9	18.1	1.65e-04	0	43	0	0	55	4048
2026-01-30 10:57:03.95	197.29	10.34	-41.8	-42.8	18.2	0.00e+00	0	43	0	0	55	3982
2026-01-30 10:57:04.95	197.37	10.42	-41.5	-42.6	18.4	0.00e+00	0	43	0	0	55	3886
2026-01-30 10:57:05.95	197.45	10.50	-41.6	-42.6	18.4	0.00e+00	0	43	0	0	54	4127
2026-01-30 10:57:06.95	197.53	10.58	-41.7	-42.7	18.3	0.00e+00	0	43	0	0	54	4156
2026-01-30 10:57:07.96	197.62	10.66	-41.5	-42.5	18.5	0.00e+00	0	43	0	0	54	4081
2026-01-30 10:57:08.96	197.70	10.74	-41.6	-42.5	18.5	0.00e+00	0	43	0	0	54	4090
2026-01-30 10:57:09.96	197.78	10.82	-41.6	-42.5	18.5	0.00e+00	0	43	0	0	54	4094
2026-01-30 10:57:10.96	197.87	10.90	-41.5	-42.5	18.5	0.00e+00	0	43	0	0	54	4070
2026-01-30 10:57:11.97	197.95	10.98	-41.5	-42.5	18.6	0.00e+00	0	43	0	0	54	4056
2026-01-30 10:57:12.97	198.04	11.07	-41.5	-42.5	18.6	0.00e+00	0	43	0	0	54	4058
2026-01-30 10:57:13.97	198.12	11.15	-41.5	-42.5	18.6	0.00e+00	0	43	0	0	54	4054
2026-01-30 10:57:14.97	198.20	11.23	-41.5	-42.4	18.6	0.00e+00	0	43	0	0	54	4049
2026-01-30 10:57:15.97	198.29	11.31	-41.5	-42.5	18.5	0.00e+00	0	43	0	0	54	4057
2026-01-30 10:57:16.98	198.38	11.39	-41.4	-42.4	18.6	2.84e-04	0	43	0	0	54	4029
2026-01-30 10:57:17.98	198.46	11.48	-41.4	-42.4	18.6	0.00e+00	0	43	0	0	54	4034
2026-01-30 10:57:18.98	198.55	11.56	-41.3	-42.3	18.7	0.00e+00	0	43	0	0	54	3977
2026-01-30 10:57:19.98	198.64	11.64	-41.4	-42.4	18.6	0.00e+00	0	43	0	0	54	4007
2026-01-30 10:57:20.98	198.73	11.72	-41.3	-42.2	18.7	0.00e+00	0	43	0	0	54	3948
2026-01-30 10:57:21.98	198.81	11.81	-41.3	-42.3	18.5	0.00e+00	0	43	0	0	54	3996
2026-01-30 10:57:22.99	198.90	11.89	-41.3	-42.3	18.6	0.00e+00	0	43	0	0	54	3967
2026-01-30 10:57:23.99	198.99	11.98	-41.2	-42.2	18.6	0.00e+00	0	43	0	0	54	3923
2026-01-30 10:57:24.99	199.08	12.06	-41.3	-42.3	18.5	0.00e+00	0	43	0	0	54	3961
2026-01-30 10:57:25.99	199.17	12.14	-41.1	-42.1	18.6	8.48e-04	0	43	0	0	54	3884
2026-01-30 10:57:26.99	199.26	12.23	-41.1	-42.1	18.6	0.00e+00	0	43	0	0	54	3873
2026-01-30 10:57:27.99	199.36	12.31	-41.1	-42.0	18.6	0.00e+00	0	43	0	0	54	3846
2026-01-30 10:57:28.99	199.45	12.40	-41.1	-42.1	18.5	0.00e+00	0	43	0	0	53	4100
2026-01-30 10:57:29.99	199.54	12.48	-41.0	-42.0	18.7	0.00e+00	0	43	0	0	53	4061
2026-01-30 10:57:30.99	199.63	12.57	-41.1	-42.0	18.7	0.00e+00	0	43	0	0	53	4083
2026-01-30 10:57:31.99	199.73	12.65	-41.1	-42.1	18.7	0.00e+00	0	43	0	0	53	4109
2026-01-30 10:57:33.00	199.82	12.74	-41.0	-41.9	18.8	0.00e+00	0	43	0	0	53	4046
2026-01-30 10:57:33.99	199.92	12.83	-41.0	-41.9	18.8	0.00e+00	0	43	0	0	53	4051
2026-01-30 10:57:34.99	200.01	12.91	-41.1	-42.0	18.9	0.00e+00	0	43	0	0	53	4080
2026-01-30 10:57:36.00	200.11	13.00	-41.1	-42.0	18.9	0.00e+00	0	43	0	0	53	4078
2026-01-30 10:57:36.99	200.20	13.09	-41.1	-41.9	18.9	0.00e+00	0	43	0	0	53	4051
2026-01-30 10:57:37.99	200.30	13.17	-41.1	-42.0	18.8	0.00e+00	0	43	0	0	53	4053
2026-01-30 10:57:39.00	200.40	13.26	-41.1	-42.0	18.7	0.00e+00	0	43	0	0	53	4072
2026-01-30 10:57:40.00	200.49	13.35	-41.1	-42.0	18.6	0.00e+00	0	43	0	0	53	4090
2026-01-30 10:57:41.00	200.59	13.44	-41.1	-42.0	18.6	0.00e+00	0	43	0	0	53	4073
2026-01-30 10:57:42.01	200.69	13.52	-40.9	-41.8	18.7	0.00e+00	0	43	0	0	53	3996
2026-01-30 10:57:43.01	200.79	13.61	-41.0	-41.9	18.6	0.00e+00	0	43	0	0	53	4017
2026-01-30 10:57:44.01	200.89	13.70	-41.1	-41.9	18.7	0.00e+00	0	43	0	0	53	4046
2026-01-30 10:57:45.01	200.99	13.79	-40.9	-41.8	18.9	0.00e+00	0	43	0	0	53	3982
2026-01-30 10:57:46.01	201.09	13.88	-41.0	-41.8	19.0	0.00e+00	0	43	0	0	53	4004
2026-01-30 10:57:47.02	201.20	13.97	-40.9	-41.8	19.1	0.00e+00	0	43	0	0	53	3970
2026-01-30 10:57:48.02	201.30	14.06	-40.9	-41.8	19.2	0.00e+00	0	43	0	0	53	3960
2026-01-30 10:57:49.02	201.40	14.15	-40.9	-41.8	19.2	0.00e+00	0	43	0	0	53	3968
2026-01-30 10:57:50.02	201.51	14.24	-41.0	-41.9	19.1	0.00e+00	0	43	0	0	53	4010
2026-01-30 10:57:51.02	201.61	14.33	-41.0	-41.9	19.1	0.00e+00	0	43	0	0	53	4006
2026-01-30 10:57:52.02	201.71	14.42	-40.9	-41.8	19.2	1.27e-04	0	43	0	0	53	3978
2026-01-30 10:57:53.02	201.82	14.51	-40.9	-41.8	19.2	0.00e+00	0	43	0	0	53	3973
2026-01-30 10:57:54.02	201.93	14.60	-41.0	-41.8	19.2	0.00e+00	0	43	0	0	53	3989
2026-01-30 10:57:55.02	202.03	14.69	-41.0	-41.8	19.2	0.00e+00	0	43	0	0	53	3988
2026-01-30 10:57:56.03	202.14	14.78	-41.0	-41.8	19.2	0.00e+00	0	43	0	0	53	3988
2026-01-30 10:57:57.03	202.25	14.88	-41.1	-42.0	19.1	0.00e+00	0	43	0	0	53	4052
2026-01-30 10:57:58.03	202.36	14.97	-41.0	-41.9	19.1	0.00e+00	0	43	0	0	53	4036
2026-01-30 10:57:59.03	202.47	15.06	-41.0	-41.9	19.1	0.00e+00	0	43	0	0	53	4041
2026-01-30 10:58:00.03	202.58	15.15	-41.0	-41.8	19.2	0.00e+00	0	43	0	0	53	3993
2026-01-30 10:58:01.03	202.69	15.24	-41.0	-41.9	19.1	0.00e+00	0	43	0	0	53	4014
2026-01-30 10:58:02.03	202.80	15.34	-41.0	-41.8	19.2	0.00e+00	0	43	0	0	53	3996
2026-01-30 10:58:03.03	202.91	15.43	-41.0	-41.9	19.1	0.00e+00	0	43	0	0	53	4014
2026-01-30 10:58:04.03	203.02	15.52	-40.9	-41.8	19.2	0.00e+00	0	43	0	0	53	3965
2026-01-30 10:58:05.03	203.14	15.62	-41.0	-41.9	19.2	0.00e+00	0	43	0	0	53	4016
2026-01-30 10:58:06.03	203.25	15.71	-40.9	-41.8	19.3	0.00e+00	0	43	0	0	53	3960
2026-01-30 10:58:07.03	203.36	15.81	-41.1	-41.9	19.2	0.00e+00	0	43	0	0	53	4034
2026-01-30 10:58:08.03	203.48	15.90	-41.1	-41.9	19.2	0.00e+00	0	43	0	0	53	4027
2026-01-30 10:58:09.03	203.60	16.00	-41.0	-41.8	19.3	0.00e+00	0	43	0	0	53	3998
2026-01-30 10:58:10.03	203.71	16.09	-41.0	-41.8	19.2	0.00e+00	0	43	0	0	53	3994
2026-01-30 10:58:11.04	203.83	16.19	-41.0	-41.8	19.2	0.00e+00	0	43	0	0	53	4003
2026-01-30 10:58:12.04	203.95	16.28	-41.0	-41.9	19.2	0.00e+00	0	43	0	0	53	4009
2026-01-30 10:58:13.03	204.07	16.38	-41.1	-42.0	19.0	0.00e+00	0	43	0	0	53	4065
2026-01-30 10:58:14.04	204.19	16.47	-41.2	-42.1	18.9	0.00e+00	0	43	0	0	53	4108
2026-01-30 10:58:15.04	204.31	16.57	-41.2	-42.1	18.9	0.00e+00	0	43	0	0	53	4113
2026-01-30 10:58:16.04	204.43	16.67	-41.2	-42.0	18.9	0.00e+00	0	43	0	0	53	4066
2026-01-30 10:58:17.04	204.55	16.76	-41.2	-42.0	18.9	0.00e+00	0	43	0	0	53	4097
2026-01-30 10:58:18.04	204.67	16.86	-41.2	-42.0	19.0	0.00e+00	0	43	0	0	53	4061
2026-01-30 10:58:19.04	204.80	16.96	-41.3	-42.1	18.9	0.00e+00	0	43	0	0	53	4119
2026-01-30 10:58:20.04	204.92	17.06	-41.4	-42.2	18.9	0.00e+00	0	43	0	0	53	4163
2026-01-30 10:58:21.04	205.05	17.15	-41.3	-42.1	19.0	0.00e+00	0	43	0	0	53	4113
2026-01-30 10:58:22.04	205.17	17.25	-41.3	-42.2	18.9	0.00e+00	0	43	0	0	53	4149
2026-01-30 10:58:23.04	205.30	17.35	-41.3	-42.1	19.0	0.00e+00	0	43	0	0	53	4140
2026-01-30 10:58:24.04	205.43	17.45	-41.2	-42.0	19.1	0.00e+00	0	43	0	0	53	4085
2026-01-30 10:58:25.04	205.55	17.55	-41.2	-42.0	19.1	1.26e-04	0	43	0	0	53	4095
2026-01-30 10:58:26.05	205.68	17.65	-41.3	-42.2	19.0	0.00e+00	0	43	0	0	53	4153
2026-01-30 10:58:27.05	205.81	17.75	-41.3	-42.2	19.0	0.00e+00	0	43	0	0	53	4155
2026-01-30 10:58:28.05	205.94	17.85	-41.4	-42.3	18.9	0.00e+00	0	43	0	0	53	4195
2026-01-30 10:58:29.05	206.08	17.95	-41.5	-42.3	18.8	0.00e+00	0	43	0	0	53	4228
2026-01-30 10:58:30.05	206.21	18.05	-41.4	-42.3	18.8	0.00e+00	0	43	0	0	53	4217
2026-01-30 10:58:31.05	206.34	18.15	-41.5	-42.3	18.8	0.00e+00	0	43	0	0	53	4239
2026-01-30 10:58:32.05	206.48	18.25	-41.4	-42.3	18.8	0.00e+00	0	43	0	0	53	4197
2026-01-30 10:58:33.05	206.61	18.35	-41.4	-42.3	18.8	0.00e+00	0	43	0	0	53	4203
2026-01-30 10:58:34.05	206.75	18.45	-41.4	-42.3	18.8	0.00e+00	0	43	0	0	53	4208
2026-01-30 10:58:35.06	206.88	18.56	-41.5	-42.4	18.7	0.00e+00	0	43	0	0	53	4272
2026-01-30 10:58:36.06	207.02	18.66	-41.6	-42.4	18.7	0.00e+00	0	43	0	0	53	4271
2026-01-30 10:58:37.06	207.16	18.76	-41.4	-42.3	18.9	0.00e+00	0	43	0	0	53	4194
2026-01-30 10:58:38.06	207.30	18.86	-41.4	-42.3	18.9	0.00e+00	0	43	0	0	53	4199
2026-01-30 10:58:39.06	207.44	18.96	-41.4	-42.3	18.9	0.00e+00	0	43	0	0	53	4202
2026-01-30 10:58:40.06	207.58	19.07	-41.4	-42.2	19.0	0.00e+00	0	43	0	0	53	4186
2026-01-30 10:58:41.07	207.72	19.17	-41.4	-42.2	19.0	0.00e+00	0	43	0	0	53	4176
2026-01-30 10:58:42.06	207.87	19.27	-41.4	-42.2	18.9	0.00e+00	0	43	0	0	53	4193
2026-01-30 10:58:43.06	208.01	19.38	-41.3	-42.2	19.0	0.00e+00	0	43	0	0	53	4147
2026-01-30 10:58:44.06	208.15	19.48	-41.3	-42.1	19.0	0.00e+00	0	43	0	0	53	4139
2026-01-30 10:58:45.07	208.30	19.59	-41.3	-42.1	19.0	0.00e+00	0	43	0	0	53	4145
2026-01-30 10:58:46.06	208.45	19.69	-41.2	-42.0	19.2	0.00e+00	0	43	0	0	53	4064
2026-01-30 10:58:47.07	208.60	19.80	-41.1	-41.9	19.3	0.00e+00	0	43	0	0	53	4008
2026-01-30 10:58:48.07	208.75	19.90	-41.2	-42.0	19.2	0.00e+00	0	43	0	0	53	4067
2026-01-30 10:58:49.07	208.90	20.01	-41.1	-41.9	19.3	0.00e+00	0	43	0	0	53	4011
2026-01-30 10:58:50.07	209.05	20.11	-41.1	-41.9	19.2	0.00e+00	0	43	0	0	53	4019
2026-01-30 10:58:51.07	209.20	20.22	-41.0	-41.7	19.4	0.00e+00	0	43	0	0	53	3958
2026-01-30 10:58:52.07	209.35	20.32	-41.0	-41.8	19.3	0.00e+00	0	43	0	0	53	3969
2026-01-30 10:58:53.07	209.51	20.43	-40.9	-41.7	19.4	0.00e+00	0	43	0	0	53	3951
2026-01-30 10:58:54.06	209.66	20.54	-40.9	-41.7	19.4	0.00e+00	0	43	0	0	53	3947
2026-01-30 10:58:55.06	209.81	20.64	-41.0	-41.8	19.4	0.00e+00	0	43	0	0	53	3961
2026-01-30 10:58:56.07	209.97	20.75	-40.9	-41.7	19.4	0.00e+00	0	43	0	0	53	3919
2026-01-30 10:58:57.07	210.13	20.86	-40.9	-41.7	19.4	0.00e+00	0	43	0	0	53	3928
2026-01-30 10:58:58.07	210.29	20.96	-40.8	-41.6	19.4	0.00e+00	0	43	0	0	53	3903
2026-01-30 10:58:59.07	210.45	21.07	-40.7	-41.5	19.5	0.00e+00	0	43	0	0	53	3848
2026-01-30 10:59:00.07	210.61	21.18	-40.7	-41.5	19.6	0.00e+00	0	43	0	0	53	3839
2026-01-30 10:59:01.07	210.77	21.29	-40.8	-41.5	19.5	0.00e+00	0	43	0	0	53	3866
2026-01-30 10:59:02.08	210.94	21.40	-40.7	-41.5	19.6	0.00e+00	0	43	0	0	53	3841
2026-01-30 10:59:03.08	211.10	21.51	-40.6	-41.4	19.7	0.00e+00	0	43	0	0	53	3793
2026-01-30 10:59:04.08	211.27	21.62	-40.7	-41.4	19.7	0.00e+00	0	43	0	0	53	3822
2026-01-30 10:59:05.08	211.44	21.72	-40.5	-41.3	19.8	0.00e+00	0	43	0	0	53	3758
2026-01-30 10:59:06.09	211.61	21.83	-40.6	-41.4	19.7	0.00e+00	0	43	0	0	53	3781
2026-01-30 10:59:07.09	211.78	21.94	-40.6	-41.3	19.8	0.00e+00	0	43	0	0	53	3770
2026-01-30 10:59:08.09	211.95	22.05	-40.4	-41.1	19.9	0.00e+00	0	43	0	0	52	3903
2026-01-30 10:59:09.09	212.12	22.16	-40.4	-41.1	19.9	0.00e+00	0	43	0	0	52	3890
2026-01-30 10:59:10.09	212.29	22.27	-40.5	-41.2	19.9	0.00e+00	0	43	0	0	52	3939
2026-01-30 10:59:11.09	212.47	22.38	-40.5	-41.3	19.8	0.00e+00	0	43	0	0	52	3966
2026-01-30 10:59:12.10	212.64	22.50	-40.3	-41.0	20.0	0.00e+00	0	43	0	0	52	3864
2026-01-30 10:59:13.09	212.82	22.61	-40.3	-41.0	20.0	0.00e+00	0	43	0	0	52	3838
2026-01-30 10:59:14.10	213.00	22.72	-40.2	-40.9	20.1	5.11e-05	0	43	0	0	52	3814
2026-01-30 10:59:15.10	213.18	22.83	-40.2	-40.9	20.1	0.00e+00	0	43	0	0	52	3819
2026-01-30 10:59:16.10	213.36	22.94	-40.2	-40.9	20.1	0.00e+00	0	43	0	0	52	3800
2026-01-30 10:59:17.11	213.54	23.05	-40.1	-40.8	20.2	0.00e+00	0	43	0	0	52	3778
2026-01-30 10:59:18.11	213.72	23.17	-40.1	-40.8	20.2	0.00e+00	0	43	0	0	52	3759
2026-01-30 10:59:19.11	213.91	23.28	-40.0	-40.7	20.3	0.00e+00	0	43	0	0	51	3955
2026-01-30 10:59:20.11	214.09	23.39	-40.0	-40.7	20.4	0.00e+00	0	43	0	0	51	3937
2026-01-30 10:59:21.11	214.28	23.50	-40.0	-40.7	20.4	0.00e+00	0	43	0	0	51	3946
2026-01-30 10:59:22.11	214.47	23.62	-40.1	-40.8	20.3	0.00e+00	0	43	0	0	51	3964
2026-01-30 10:59:23.12	214.66	23.73	-40.1	-40.8	20.3	0.00e+00	0	43	0	0	51	3974
2026-01-30 10:59:24.12	214.85	23.84	-40.2	-40.9	20.2	0.00e+00	0	43	0	0	51	4034
2026-01-30 10:59:25.12	215.04	23.95	-40.2	-40.9	20.2	0.00e+00	0	43	0	0	51	4038
2026-01-30 10:59:26.12	215.23	24.07	-40.2	-40.9	20.2	0.00e+00	0	43	0	0	51	4042
2026-01-30 10:59:27.11	215.43	24.18	-40.1	-40.9	20.2	0.00e+00	0	43	0	0	51	4016
2026-01-30 10:59:28.11	215.62	24.29	-40.2	-40.9	20.2	0.00e+00	0	43	0	0	51	4032
2026-01-30 10:59:29.11	215.82	24.41	-40.1	-40.8	20.3	0.00e+00	0	43	0	0	51	3996
2026-01-30 10:59:30.11	216.02	24.52	-40.1	-40.8	20.3	0.00e+00	0	43	0	0	51	3994
2026-01-30 10:59:31.11	216.22	24.64	-40.1	-40.8	20.3	0.00e+00	0	43	0	0	51	3993
2026-01-30 10:59:32.11	216.42	24.75	-40.2	-40.9	20.2	0.00e+00	0	43	0	0	51	4015
2026-01-30 10:59:33.12	216.62	24.87	-40.3	-41.0	20.1	0.00e+00	0	43	0	0	51	4089
2026-01-30 10:59:34.12	216.83	24.98	-40.3	-41.1	20.0	0.00e+00	0	43	0	0	51	4107
2026-01-30 10:59:35.12	217.04	25.09	-40.4	-41.2	19.9	0.00e+00	0	43	0	0	51	4160
2026-01-30 10:59:36.12	217.24	25.21	-40.4	-41.2	19.9	0.00e+00	0	43	0	0	51	4161
2026-01-30 10:59:37.12	217.45	25.32	-40.4	-41.1	20.0	0.00e+00	0	43	0	0	51	4126
2026-01-30 10:59:38.13	217.66	25.44	-40.3	-41.1	20.1	0.00e+00	0	43	0	0	51	4103
2026-01-30 10:59:39.13	217.88	25.55	-40.3	-41.1	20.1	0.00e+00	0	43	0	0	51	4104
2026-01-30 10:59:40.13	218.09	25.67	-40.4	-41.1	20.1	0.00e+00	0	43	0	0	51	4115
2026-01-30 10:59:41.13	218.30	25.78	-40.3	-41.0	20.1	0.00e+00	0	43	0	0	51	4089
2026-01-30 10:59:42.12	218.52	25.90	-40.4	-41.2	20.0	0.00e+00	0	43	0	0	51	4150
2026-01-30 10:59:43.12	218.74	26.01	-40.4	-41.1	20.1	0.00e+00	0	43	0	0	51	4121
2026-01-30 10:59:44.13	218.96	26.13	-40.5	-41.2	19.9	0.00e+00	0	43	0	0	51	4174
2026-01-30 10:59:45.13	219.18	26.24	-40.4	-41.2	19.9	0.00e+00	0	43	0	0	51	4165
2026-01-30 10:59:46.13	219.40	26.36	-40.4	-41.2	20.0	0.00e+00	0	43	0	0	51	4160
2026-01-30 10:59:47.13	219.63	26.48	-40.5	-41.3	19.9	0.00e+00	0	43	0	0	51	4195
2026-01-30 10:59:48.13	219.85	26.59	-40.5	-41.2	19.9	0.00e+00	0	43	0	0	51	4187
2026-01-30 10:59:49.13	220.08	26.71	-40.6	-41.4	19.8	0.00e+00	0	43	0	0	51	4249
2026-01-30 10:59:50.13	220.31	26.82	-40.7	-41.4	19.8	0.00e+00	0	43	0	0	51	4278
2026-01-30 10:59:51.13	220.54	26.94	-40.7	-41.5	19.7	7.00e-07	0	43	0	0	52	4063
2026-01-30 10:59:52.12	220.77	27.05	-40.8	-41.5	19.6	0.00e+00	0	43	0	0	52	4089
2026-01-30 10:59:53.13	221.01	27.17	-40.8	-41.6	19.5	0.00e+00	0	43	0	0	52	4119
2026-01-30 10:59:54.13	221.24	27.28	-40.8	-41.6	19.5	0.00e+00	0	43	0	0	52	4111
2026-01-30 10:59:55.13	221.48	27.40	-40.9	-41.7	19.4	0.00e+00	0	43	0	0	52	4188
2026-01-30 10:59:56.13	221.72	27.51	-40.9	-41.7	19.3	0.00e+00	0	43	0	0	52	4179
2026-01-30 10:59:57.13	221.96	27.63	-40.9	-41.7	19.4	0.00e+00	0	43	0	0	52	4172
2026-01-30 10:59:58.13	222.20	27.75	-40.9	-41.7	19.4	0.00e+00	0	43	0	0	52	4153
2026-01-30 10:59:59.13	222.45	27.86	-40.9	-41.7	19.3	0.00e+00	0	43	0	0	52	4162
2026-01-30 11:00:00.13	222.69	27.98	-40.8	-41.5	19.5	1.22e-05	0	43	0	0	52	4098
2026-01-30 11:00:01.13	222.94	28.09	-40.6	-41.4	19.6	0.00e+00	0	43	0	0	52	4028
2026-01-30 11:00:02.13	223.19	28.21	-40.7	-41.4	19.5	0.00e+00	0	43	0	0	52	4027
2026-01-30 11:00:03.13	223.44	28.32	-40.7	-41.4	19.6	0.00e+00	0	43	0	0	52	4033
2026-01-30 11:00:04.13	223.69	28.44	-40.7	-41.4	19.6	0.00e+00	0	43	0	0	52	4042
2026-01-30 11:00:05.14	223.95	28.55	-40.6	-41.3	19.7	0.00e+00	0	43	0	0	52	4000
2026-01-30 11:00:06.14	224.21	28.67	-40.7	-41.4	19.6	0.00e+00	0	43	0	0	52	4047
2026-01-30 11:00:07.14	224.46	28.78	-40.7	-41.5	19.6	0.00e+00	0	43	0	0	52	4061
2026-01-30 11:00:08.14	224.72	28.89	-40.4	-41.1	19.9	0.00e+00	0	43	0	0	52	3891
2026-01-30 11:00:09.15	224.99	29.01	-40.3	-41.0	19.9	0.00e+00	0	43	0	0	52	3861
2026-01-30 11:00:10.15	225.25	29.12	-40.4	-41.1	19.8	0.00e+00	0	43	0	0	52	3906
2026-01-30 11:00:11.15	225.52	29.24	-40.4	-41.1	19.8	0.00e+00	0	43	0	0	52	3910
2026-01-30 11:00:12.15	225.79	29.35	-40.4	-41.1	19.8	0.00e+00	0	43	0	0	52	3912
2026-01-30 11:00:13.15	226.06	29.46	-40.4	-41.1	19.8	3.81e-05	0	43	0	0	52	3911
2026-01-30 11:00:14.15	226.33	29.58	-40.5	-41.2	19.7	0.00e+00	0	43	0	0	52	3952
2026-01-30 11:00:15.16	226.60	29.69	-40.3	-41.0	19.9	0.00e+00	0	43	0	0	52	3860
2026-01-30 11:00:16.16	226.88	29.80	-40.3	-41.0	19.9	0.00e+00	0	43	0	0	52	3865
2026-01-30 11:00:17.16	227.15	29.91	-40.2	-40.9	20.1	0.00e+00	0	44	0	0	52	3791
2026-01-30 11:00:18.16	227.43	30.03	-40.2	-41.0	20.0	0.00e+00	0	43	0	0	52	3828
2026-01-30 11:00:19.16	227.71	30.14	-40.3	-41.0	20.0	0.00e+00	0	43	0	0	52	3846
2026-01-30 11:00:20.16	228.00	30.25	-40.2	-41.0	20.0	0.00e+00	0	43	0	0	52	3842
2026-01-30 11:00:21.16	228.28	30.36	-40.3	-41.0	19.9	0.00e+00	0	43	0	0	52	3864
2026-01-30 11:00:22.16	228.57	30.47	-40.4	-41.1	19.9	0.00e+00	0	43	0	0	52	3901
2026-01-30 11:00:23.16	228.85	30.58	-40.4	-41.1	19.9	0.00e+00	0	43	0	0	52	3900
2026-01-30 11:00:24.16	229.14	30.69	-40.4	-41.1	19.9	3.00e-06	0	43	0	0	52	3888
2026-01-30 11:00:25.16	229.44	30.80	-40.4	-41.2	19.8	1.50e-06	0	43	0	0	52	3926
2026-01-30 11:00:26.16	229.73	30.91	-40.4	-41.2	19.7	0.00e+00	0	43	0	0	52	3933
2026-01-30 11:00:27.17	230.03	31.02	-40.5	-41.3	19.6	0.00e+00	0	43	0	0	52	3982
2026-01-30 11:00:28.17	230.33	31.13	-40.6	-41.4	19.6	7.00e-07	0	43	0	0	52	4027
2026-01-30 11:00:29.17	230.63	31.24	-40.6	-41.4	19.6	0.00e+00	0	43	0	0	52	4021
2026-01-30 11:00:30.17	230.93	31.34	-40.7	-41.5	19.5	0.00e+00	0	43	0	0	52	4091
2026-01-30 11:00:31.17	231.23	31.45	-40.8	-41.6	19.4	0.00e+00	0	43	0	0	52	4131
2026-01-30 11:00:32.17	231.54	31.56	-40.7	-41.5	19.6	0.00e+00	0	43	0	0	52	4058
2026-01-30 11:00:33.18	231.85	31.66	-40.8	-41.6	19.4	4.19e-05	0	43	0	0	52	4137
2026-01-30 11:00:34.17	232.16	31.77	-40.8	-41.7	19.4	0.00e+00	0	43	0	0	52	4147
2026-01-30 11:00:35.17	232.47	31.87	-40.8	-41.8	19.3	0.00e+00	0	43	0	0	52	4200
2026-01-30 11:00:36.18	232.79	31.98	-40.9	-41.7	19.4	0.00e+00	0	43	0	0	52	4167
2026-01-30 11:00:37.18	233.10	32.08	-40.9	-41.7	19.4	0.00e+00	0	43	0	0	52	4185
2026-01-30 11:00:38.18	233.42	32.19	-40.9	-41.8	19.3	0.00e+00	0	43	0	0	52	4203
2026-01-30 11:00:39.18	233.74	32.29	-41.1	-42.0	19.2	0.00e+00	0	43	0	0	52	4294
2026-01-30 11:00:40.18	234.06	32.39	-41.3	-42.1	19.0	0.00e+00	0	44	0	0	53	4145
2026-01-30 11:00:41.18	234.38	32.49	-41.2	-42.1	19.0	0.00e+00	0	43	0	0	53	4123
2026-01-30 11:00:42.18	234.71	32.59	-41.4	-42.3	18.8	0.00e+00	0	43	0	0	53	4221
2026-01-30 11:00:43.19	235.04	32.69	-41.4	-42.3	18.8	6.80e-06	0	43	0	0	53	4220
2026-01-30 11:00:44.19	235.37	32.79	-41.4	-42.2	18.9	0.00e+00	0	43	0	0	53	4193
2026-01-30 11:00:45.19	235.70	32.89	-41.4	-42.3	18.9	0.00e+00	0	43	0	0	53	4200
2026-01-30 11:00:46.19	236.04	32.99	-41.5	-42.4	18.8	0.00e+00	0	43	0	0	53	4259
2026-01-30 11:00:47.19	236.37	33.09	-41.6	-42.5	18.7	5.42e-04	0	43	0	0	53	4310
2026-01-30 11:00:48.20	236.71	33.18	-41.7	-42.6	18.6	0.00e+00	0	43	0	0	54	4144
2026-01-30 11:00:49.20	237.05	33.28	-41.9	-42.8	18.4	0.00e+00	0	43	0	0	54	4229
2026-01-30 11:00:50.20	237.39	33.37	-41.7	-42.5	18.7	0.00e+00	0	43	0	0	54	4087
2026-01-30 11:00:51.20	237.74	33.47	-41.8	-42.7	18.6	0.00e+00	0	43	0	0	54	4155
2026-01-30 11:00:52.20	238.08	33.56	-42.0	-42.9	18.3	0.00e+00	0	43	0	0	54	4275
2026-01-30 11:00:53.20	238.43	33.65	-41.8	-42.7	18.5	0.00e+00	0	43	0	0	54	4188
2026-01-30 11:00:54.21	238.78	33.74	-41.8	-42.7	18.5	0.00e+00	0	44	0	0	54	4178
2026-01-30 11:00:55.21	239.13	33.83	-41.7	-42.6	18.5	0.00e+00	0	43	0	0	54	4141
2026-01-30 11:00:56.21	239.48	33.92	-41.8	-42.7	18.5	0.00e+00	0	43	0	0	54	4160
2026-01-30 11:00:57.21	239.84	34.01	-41.8	-42.7	18.5	3.80e-06	0	43	0	0	54	4178
2026-01-30 11:00:58.21	240.20	34.10	-41.9	-42.8	18.5	0.00e+00	0	43	0	0	54	4201
2026-01-30 11:00:59.21	240.56	34.19	-41.9	-42.7	18.5	0.00e+00	0	43	0	0	54	4185
2026-01-30 11:01:00.21	240.92	34.27	-41.8	-42.7	18.5	0.00e+00	0	43	0	0	54	4180
2026-01-30 11:01:01.22	241.28	34.36	-41.8	-42.7	18.5	0.00e+00	0	43	0	0	54	4154
2026-01-30 11:01:02.22	241.65	34.44	-41.7	-42.6	18.5	3.81e-05	0	43	0	0	54	4105
2026-01-30 11:01:03.22	242.01	34.52	-41.7	-42.6	18.5	0.00e+00	0	43	0	0	54	4118
2026-01-30 11:01:04.22	242.38	34.60	-41.7	-42.5	18.6	0.00e+00	0	43	0	0	54	4096
2026-01-30 11:01:05.22	242.75	34.68	-41.6	-42.4	18.8	0.00e+00	0	43	0	0	54	4044
2026-01-30 11:01:06.22	243.12	34.76	-41.5	-42.3	18.9	1.90e-05	0	43	0	0	54	3980
2026-01-30 11:01:07.22	243.49	34.84	-41.3	-42.1	19.1	0.00e+00	0	43	0	0	54	3887
2026-01-30 11:01:08.22	243.87	34.92	-41.3	-42.2	18.9	0.00e+00	0	43	0	0	54	3921
2026-01-30 11:01:09.23	244.25	34.99	-41.5	-42.4	18.7	0.00e+00	0	43	0	0	54	4006
2026-01-30 11:01:10.23	244.63	35.07	-41.7	-42.6	18.5	0.00e+00	0	43	0	0	54	4103
2026-01-30 11:01:11.23	245.01	35.14	-41.6	-42.5	18.6	7.00e-04	0	43	0	0	54	4083
2026-01-30 11:01:12.23	245.39	35.21	-41.6	-42.5	18.6	0.00e+00	0	43	0	0	54	4081
2026-01-30 11:01:13.23	245.77	35.28	-41.5	-42.3	18.9	0.00e+00	0	43	0	0	54	3981
2026-01-30 11:01:14.24	246.16	35.35	-41.4	-42.2	19.0	0.00e+00	0	43	0	0	54	3925
2026-01-30 11:01:15.24	246.55	35.42	-41.3	-42.1	19.0	0.00e+00	0	43	0	0	54	3893
2026-01-30 11:01:16.24	246.94	35.49	-41.5	-42.4	18.8	1.98e-05	0	43	0	0	54	4010
2026-01-30 11:01:17.24	247.33	35.56	-41.8	-42.7	18.4	0.00e+00	0	43	0	0	54	4189
2026-01-30 11:01:18.24	247.72	35.62	-42.0	-42.9	18.2	0.00e+00	0	43	0	0	54	4279
2026-01-30 11:01:19.24	248.11	35.68	-42.0	-42.9	18.3	0.00e+00	0	43	0	0	54	4265
2026-01-30 11:01:20.24	248.50	35.74	-41.9	-42.8	18.4	0.00e+00	0	43	0	0	54	4206
2026-01-30 11:01:21.25	248.90	35.80	-41.7	-42.6	18.6	0.00e+00	0	43	0	0	54	4106
2026-01-30 11:01:22.25	249.30	35.86	-41.5	-42.4	18.7	0.00e+00	0	43	0	0	54	4012
2026-01-30 11:01:23.25	249.70	35.92	-41.7	-42.6	18.5	2.04e-04	0	43	0	0	54	4143
2026-01-30 11:01:24.25	250.10	35.98	-41.6	-42.7	18.5	2.05e-05	0	43	0	0	54	4152
2026-01-30 11:01:25.25	250.50	36.03	-41.6	-42.5	18.8	1.44e-05	0	43	0	0	54	4065
2026-01-30 11:01:26.25	250.90	36.08	-41.5	-42.4	18.8	0.00e+00	0	43	0	0	54	4021
2026-01-30 11:01:27.25	251.31	36.14	-41.4	-42.3	19.0	0.00e+00	0	43	0	0	54	3962
2026-01-30 11:01:28.25	251.71	36.19	-41.5	-42.4	18.7	0.00e+00	0	43	0	0	54	4024
2026-01-30 11:01:29.26	252.12	36.23	-41.7	-42.6	18.5	0.00e+00	0	43	0	0	54	4138
2026-01-30 11:01:30.26	252.53	36.28	-41.8	-42.8	18.3	0.00e+00	0	43	0	0	54	4204
2026-01-30 11:01:31.26	252.94	36.33	-41.8	-42.7	18.4	0.00e+00	0	43	0	0	54	4187
2026-01-30 11:01:32.26	253.35	36.37	-41.7	-42.6	18.6	0.00e+00	0	43	0	0	54	4120
2026-01-30 11:01:33.26	253.76	36.41	-41.6	-42.4	18.8	0.00e+00	0	43	0	0	54	4028
2026-01-30 11:01:34.26	254.17	36.45	-41.6	-42.5	18.8	0.00e+00	0	43	0	0	54	4065
2026-01-30 11:01:35.26	254.58	36.49	-41.9	-42.8	18.4	2.20e-06	0	43	0	0	54	4239
2026-01-30 11:01:36.27	255.00	36.53	-42.2	-43.2	18.1	4.40e-04	0	43	0	0	55	4153
2026-01-30 11:01:37.27	255.41	36.57	-42.3	-43.3	18.0	0.00e+00	0	43	0	0	55	4216
2026-01-30 11:01:38.27	255.83	36.60	-42.2	-43.2	18.1	0.00e+00	0	43	0	0	55	4152
2026-01-30 11:01:39.27	256.25	36.63	-42.1	-43.1	18.1	0.00e+00	0	43	0	0	55	4121
2026-01-30 11:01:40.26	256.66	36.67	-42.0	-43.0	18.2	0.00e+00	0	43	0	0	55	4063
2026-01-30 11:01:41.26	257.08	36.69	-42.0	-43.0	18.2	0.00e+00	0	43	0	0	55	4054
2026-01-30 11:01:42.26	257.49	36.72	-42.0	-42.9	18.1	0.00e+00	0	44	0	0	55	4041
2026-01-30 11:01:43.26	257.91	36.75	-41.9	-42.9	18.2	0.00e+00	0	43	0	0	55	4007
2026-01-30 11:01:44.26	258.33	36.77	-42.0	-43.0	18.2	2.20e-06	0	43	0	0	55	4055
2026-01-30 11:01:45.26	258.75	36.80	-42.1	-43.1	18.2	0.00e+00	0	43	0	0	55	4106
2026-01-30 11:01:46.26	259.17	36.82	-42.1	-43.1	18.1	0.00e+00	0	43	0	0	55	4109
2026-01-30 11:01:47.26	259.60	36.84	-42.0	-43.0	18.2	0.00e+00	0	43	0	0	55	4055
2026-01-30 11:01:48.26	260.02	36.85	-42.0	-43.0	18.2	0.00e+00	0	43	0	0	55	4059
2026-01-30 11:01:49.26	260.44	36.87	-42.0	-43.0	18.2	0.00e+00	0	43	0	0	55	4069
2026-01-30 11:01:50.26	260.86	36.88	-41.9	-42.9	18.3	0.00e+00	0	43	0	0	55	4020
2026-01-30 11:01:51.27	261.29	36.90	-41.9	-42.9	18.2	0.00e+00	0	43	0	0	55	4026
2026-01-30 11:01:52.27	261.71	36.91	-41.9	-42.8	18.3	0.00e+00	0	43	0	0	55	3990
2026-01-30 11:01:53.27	262.14	36.92	-41.8	-42.8	18.4	0.00e+00	0	43	0	0	55	3963
2026-01-30 11:01:54.27	262.56	36.92	-41.7	-42.6	18.4	0.00e+00	0	43	0	0	55	3882
2026-01-30 11:01:55.27	262.98	36.93	-41.6	-42.5	18.6	0.00e+00	0	43	0	0	55	3845
2026-01-30 11:01:56.28	263.41	36.93	-41.6	-42.5	18.6	0.00e+00	0	43	0	0	54	4083
2026-01-30 11:01:57.28	263.84	36.94	-41.6	-42.5	18.6	0.00e+00	0	43	0	0	54	4094
2026-01-30 11:01:58.28	264.26	36.94	-41.7	-42.6	18.5	3.00e-06	0	43	0	0	54	4142
2026-01-30 11:01:59.28	264.68	36.94	-41.7	-42.6	18.7	0.00e+00	0	43	0	0	54	4104
2026-01-30 11:02:00.28	265.11	36.93	-41.7	-42.6	18.5	0.00e+00	0	43	0	0	54	4136
2026-01-30 11:02:01.28	265.53	36.93	-41.8	-42.7	18.5	0.00e+00	0	43	0	0	54	4169
2026-01-30 11:02:02.28	265.96	36.92	-41.8	-42.7	18.5	0.00e+00	0	43	0	0	54	4191
2026-01-30 11:02:03.29	266.38	36.91	-41.6	-42.5	18.7	0.00e+00	0	43	0	0	54	4085
2026-01-30 11:02:04.28	266.80	36.90	-41.5	-42.4	18.8	0.00e+00	0	43	0	0	54	4036
2026-01-30 11:02:05.29	267.23	36.89	-41.6	-42.5	18.7	0.00e+00	0	43	0	0	54	4057
2026-01-30 11:02:06.29	267.65	36.88	-41.6	-42.4	18.7	0.00e+00	0	43	0	0	54	4050
2026-01-30 11:02:07.29	268.08	36.86	-41.8	-42.7	18.5	0.00e+00	0	43	0	0	54	4151
2026-01-30 11:02:08.29	268.50	36.85	-41.7	-42.6	18.6	0.00e+00	0	43	0	0	54	4132
2026-01-30 11:02:09.29	268.92	36.83	-41.6	-42.5	18.7	0.00e+00	0	43	0	0	54	4072
2026-01-30 11:02:10.29	269.34	36.81	-41.8	-42.7	18.5	1.59e-04	0	43	0	0	54	4146
2026-01-30 11:02:11.29	269.76	36.79	-41.8	-42.8	18.4	0.00e+00	0	43	0	0	54	4202
2026-01-30 11:02:12.29	270.18	36.76	-42.1	-43.0	18.2	0.00e+00	0	44	0	0	54	4322
2026-01-30 11:02:13.29	270.60	36.74	-42.1	-43.1	18.2	4.27e-05	0	43	0	0	54	4341
2026-01-30 11:02:14.29	271.02	36.71	-42.1	-43.0	18.2	0.00e+00	0	43	0	0	54	4320
2026-01-30 11:02:15.30	271.44	36.68	-41.9	-42.9	18.3	0.00e+00	0	43	0	0	54	4255
2026-01-30 11:02:16.30	271.86	36.65	-42.0	-42.9	18.2	0.00e+00	0	43	0	0	54	4282
2026-01-30 11:02:17.30	272.27	36.62	-42.1	-43.1	18.1	0.00e+00	0	43	0	0	54	4351
2026-01-30 11:02:18.30	272.69	36.59	-42.2	-43.1	18.1	0.00e+00	0	43	0	0	55	4142
2026-01-30 11:02:19.30	273.10	36.55	-42.2	-43.2	18.1	0.00e+00	0	43	0	0	55	4149
2026-01-30 11:02:20.30	273.52	36.52	-42.0	-42.9	18.3	0.00e+00	0	43	0	0	55	4038
2026-01-30 11:02:21.30	273.93	36.48	-42.1	-43.0	18.3	0.00e+00	0	43	0	0	55	4071
2026-01-30 11:02:22.30	274.34	36.44	-42.2	-43.2	18.1	0.00e+00	0	43	0	0	55	4146
2026-01-30 11:02:23.30	274.75	36.40	-42.1	-43.1	18.1	0.00e+00	0	44	0	0	55	4112
2026-01-30 11:02:24.31	275.16	36.35	-42.1	-43.0	18.2	0.00e+00	0	43	0	0	55	4082
2026-01-30 11:02:25.31	275.57	36.31	-42.1	-43.0	18.2	0.00e+00	0	44	0	0	55	4097
2026-01-30 11:02:26.31	275.98	36.26	-42.1	-43.0	18.3	0.00e+00	0	43	0	0	55	4073
2026-01-30 11:02:27.32	276.39	36.21	-42.1	-43.0	18.1	0.00e+00	0	43	0	0	55	4091
2026-01-30 11:02:28.32	276.79	36.16	-42.3	-43.3	18.0	0.00e+00	0	43	0	0	55	4199
2026-01-30 11:02:29.32	277.20	36.11	-42.3	-43.3	18.0	0.00e+00	0	43	0	0	55	4242
2026-01-30 11:02:30.33	277.60	36.06	-42.3	-43.3	18.0	0.00e+00	0	43	0	0	55	4206
2026-01-30 11:02:31.33	278.01	36.01	-42.2	-43.2	18.0	0.00e+00	0	43	0	0	55	4182
2026-01-30 11:02:32.33	278.41	35.95	-42.2	-43.1	18.1	0.00e+00	0	43	0	0	55	4145
2026-01-30 11:02:33.34	278.81	35.90	-42.0	-42.9	18.4	0.00e+00	0	43	0	0	55	4012
2026-01-30 11:02:34.33	279.20	35.84	-41.9	-42.8	18.4	0.00e+00	0	43	0	0	55	3961
2026-01-30 11:02:35.34	279.60	35.78	-41.9	-42.8	18.4	0.00e+00	0	43	0	0	55	3981
2026-01-30 11:02:36.34	280.00	35.72	-42.0	-42.9	18.3	1.22e-05	0	43	0	0	55	4049
2026-01-30 11:02:37.34	280.39	35.66	-42.0	-43.0	18.3	0.00e+00	0	43	0	0	55	4060
2026-01-30 11:02:38.34	280.78	35.59	-42.1	-43.0	18.3	0.00e+00	0	43	0	0	55	4072
2026-01-30 11:02:39.34	281.17	35.53	-42.2	-43.1	18.1	0.00e+00	0	43	0	0	55	4136
2026-01-30 11:02:40.34	281.56	35.46	-42.2	-43.1	18.2	0.00e+00	0	43	0	0	55	4127
2026-01-30 11:02:41.34	281.94	35.40	-42.1	-43.2	18.0	0.00e+00	0	43	0	0	55	4149
2026-01-30 11:02:42.34	282.33	35.33	-42.3	-43.3	17.9	0.00e+00	0	43	0	0	55	4222
2026-01-30 11:02:43.34	282.71	35.26	-42.2	-43.2	18.0	0.00e+00	0	43	0	0	55	4169
2026-01-30 11:02:44.34	283.09	35.19	-42.2	-43.1	18.1	0.00e+00	0	43	0	0	55	4140
2026-01-30 11:02:45.34	283.47	35.11	-42.0	-42.9	18.3	0.00e+00	0	43	0	0	55	4032
2026-01-30 11:02:46.35	283.86	35.04	-41.8	-42.7	18.5	4.50e-06	0	43	0	0	55	3943
2026-01-30 11:02:47.35	284.23	34.96	-41.8	-42.7	18.5	0.00e+00	0	43	0	0	55	3941
2026-01-30 11:02:48.35	284.61	34.89	-42.0	-42.9	18.4	0.00e+00	0	43	0	0	55	4042
2026-01-30 11:02:49.35	284.98	34.81	-42.0	-42.9	18.4	0.00e+00	0	43	0	0	55	4039
2026-01-30 11:02:50.35	285.35	34.73	-41.7	-42.7	18.6	0.00e+00	0	43	0	0	55	3927
2026-01-30 11:02:51.35	285.72	34.65	-41.6	-42.4	18.7	0.00e+00	0	43	0	0	55	3818
2026-01-30 11:02:52.35	286.09	34.57	-41.6	-42.4	18.8	0.00e+00	0	43	0	0	55	3809
2026-01-30 11:02:53.35	286.46	34.49	-41.5	-42.3	18.9	0.00e+00	0	43	0	0	55	3774
2026-01-30 11:02:54.36	286.82	34.41	-41.4	-42.2	19.1	0.00e+00	0	43	0	0	54	3919
2026-01-30 11:02:55.36	287.19	34.33	-41.3	-42.1	19.1	5.56e-05	0	43	0	0	54	3911
2026-01-30 11:02:56.36	287.55	34.24	-41.3	-42.1	19.2	0.00e+00	0	43	0	0	54	3881
2026-01-30 11:02:57.36	287.90	34.16	-41.4	-42.3	18.9	0.00e+00	0	43	0	0	54	3967
2026-01-30 11:02:58.37	288.27	34.07	-41.7	-42.6	18.6	2.46e-04	0	43	0	0	54	4124
2026-01-30 11:02:59.37	288.62	33.98	-41.8	-42.7	18.5	0.00e+00	0	43	0	0	54	4168
2026-01-30 11:03:00.37	288.97	33.89	-41.8	-42.7	18.5	1.06e-05	0	43	0	0	54	4146
2026-01-30 11:03:01.37	289.32	33.80	-41.6	-42.5	18.6	0.00e+00	0	43	0	0	54	4073
2026-01-30 11:03:02.37	289.67	33.71	-41.5	-42.3	18.7	0.00e+00	0	43	0	0	54	3978
2026-01-30 11:03:03.38	290.02	33.62	-41.4	-42.3	18.8	0.00e+00	0	43	0	0	54	3964
2026-01-30 11:03:04.37	290.37	33.53	-41.4	-42.3	18.9	0.00e+00	0	44	0	0	54	3973
2026-01-30 11:03:05.38	290.71	33.44	-41.4	-42.3	19.0	0.00e+00	0	43	0	0	54	3969
2026-01-30 11:03:06.38	291.05	33.34	-41.4	-42.2	19.0	0.00e+00	0	43	0	0	54	3952
2026-01-30 11:03:07.38	291.39	33.25	-41.4	-42.2	19.0	0.00e+00	0	43	0	0	54	3941
2026-01-30 11:03:08.38	291.73	33.15	-41.5	-42.3	18.9	0.00e+00	0	43	0	0	54	3989
2026-01-30 11:03:09.39	292.07	33.06	-41.3	-42.2	19.1	2.05e-05	0	43	0	0	54	3927
2026-01-30 11:03:10.39	292.40	32.96	-41.1	-41.9	19.4	5.35e-04	0	43	0	0	53	4017
2026-01-30 11:03:11.39	292.74	32.86	-41.1	-41.9	19.3	6.29e-04	0	43	0	0	53	4039
2026-01-30 11:03:12.39	293.07	32.76	-40.9	-41.8	19.5	0.00e+00	0	43	0	0	53	3963
2026-01-30 11:03:13.39	293.39	32.66	-40.9	-41.7	19.5	0.00e+00	0	44	0	0	53	3947
2026-01-30 11:03:14.40	293.72	32.56	-40.8	-41.7	19.5	1.06e-05	0	43	0	0	53	3929
2026-01-30 11:03:15.40	294.05	32.46	-41.0	-41.8	19.4	0.00e+00	0	43	0	0	53	3965
2026-01-30 11:03:16.40	294.37	32.36	-41.0	-41.8	19.4	0.00e+00	0	43	0	0	53	3989
2026-01-30 11:03:17.40	294.69	32.26	-41.1	-41.9	19.3	0.00e+00	0	43	0	0	53	4037
2026-01-30 11:03:18.41	295.01	32.16	-41.2	-42.0	19.2	0.00e+00	0	43	0	0	53	4070
2026-01-30 11:03:19.40	295.32	32.06	-41.1	-41.9	19.4	7.00e-07	0	43	0	0	53	4029
2026-01-30 11:03:20.40	295.63	31.95	-41.0	-41.8	19.5	0.00e+00	0	43	0	0	53	3966
2026-01-30 11:03:21.40	295.95	31.85	-41.0	-41.8	19.5	0.00e+00	0	44	0	0	53	3973
2026-01-30 11:03:22.40	296.26	31.74	-40.8	-41.6	19.6	0.00e+00	0	43	0	0	53	3899
2026-01-30 11:03:23.41	296.57	31.64	-40.9	-41.7	19.6	9.84e-05	0	43	0	0	53	3918
2026-01-30 11:03:24.41	296.87	31.53	-40.9	-41.7	19.6	1.90e-05	0	43	0	0	53	3933
2026-01-30 11:03:25.41	297.18	31.43	-40.7	-41.4	19.8	0.00e+00	0	43	0	0	53	3818
2026-01-30 11:03:26.42	297.48	31.32	-40.5	-41.3	19.9	0.00e+00	0	43	0	0	53	3747
2026-01-30 11:03:27.42	297.78	31.21	-40.6	-41.4	19.8	0.00e+00	0	43	0	0	53	3788
2026-01-30 11:03:28.42	298.08	31.10	-40.7	-41.5	19.7	2.28e-05	0	43	0	0	53	3857
2026-01-30 11:03:29.42	298.38	31.00	-40.9	-41.7	19.6	0.00e+00	0	43	0	0	53	3918
2026-01-30 11:03:30.42	298.67	30.89	-41.0	-41.8	19.5	0.00e+00	0	43	0	0	53	3967
2026-01-30 11:03:31.42	298.96	30.78	-40.8	-41.6	19.6	0.00e+00	0	43	0	0	53	3913
2026-01-30 11:03:32.42	299.25	30.67	-40.7	-41.5	19.8	0.00e+00	0	43	0	0	53	3847
2026-01-30 11:03:33.43	299.54	30.56	-40.6	-41.4	19.8	7.00e-07	0	43	0	0	53	3805
2026-01-30 11:03:34.42	299.83	30.45	-40.6	-41.4	19.9	0.00e+00	0	43	0	0	53	3781
2026-01-30 11:03:35.43	300.11	30.34	-40.5	-41.3	19.9	0.00e+00	0	43	0	0	53	3768
2026-01-30 11:03:36.43	300.40	30.23	-40.6	-41.4	19.8	0.00e+00	0	43	0	0	53	3783
2026-01-30 11:03:37.43	300.68	30.12	-40.7	-41.5	19.8	0.00e+00	0	43	0	0	53	3831
2026-01-30 11:03:38.43	300.96	30.01	-40.8	-41.6	19.6	0.00e+00	0	43	0	0	53	3897
2026-01-30 11:03:39.43	301.23	29.90	-40.9	-41.8	19.5	0.00e+00	0	43	0	0	53	3970
2026-01-30 11:03:40.43	301.51	29.79	-41.0	-41.8	19.5	0.00e+00	0	43	0	0	53	3982
2026-01-30 11:03:41.43	301.78	29.67	-41.0	-41.8	19.5	0.00e+00	0	43	0	0	53	3984
2026-01-30 11:03:42.43	302.05	29.56	-40.9	-41.6	19.6	0.00e+00	0	43	0	0	53	3909
2026-01-30 11:03:43.44	302.33	29.45	-40.8	-41.5	19.7	0.00e+00	0	43	0	0	53	3859
2026-01-30 11:03:44.43	302.59	29.34	-40.7	-41.5	19.7	0.00e+00	0	43	0	0	53	3825
2026-01-30 11:03:45.44	302.86	29.22	-40.4	-41.1	19.9	0.00e+00	0	43	0	0	52	3913
2026-01-30 11:03:46.43	303.12	29.11	-40.3	-41.0	20.0	0.00e+00	0	43	0	0	52	3855
2026-01-30 11:03:47.44	303.38	29.00	-40.3	-41.0	20.0	0.00e+00	0	44	0	0	52	3844
2026-01-30 11:03:48.44	303.65	28.88	-40.3	-41.0	20.0	0.00e+00	0	43	0	0	52	3865
2026-01-30 11:03:49.44	303.90	28.77	-40.2	-40.9	20.1	0.00e+00	0	43	0	0	52	3796
2026-01-30 11:03:50.44	304.16	28.66	-40.1	-40.8	20.3	0.00e+00	0	43	0	0	52	3746
2026-01-30 11:03:51.45	304.42	28.54	-40.1	-40.8	20.3	0.00e+00	0	43	0	0	52	3752
2026-01-30 11:03:52.45	304.67	28.43	-40.1	-40.8	20.3	0.00e+00	0	43	0	0	52	3752
2026-01-30 11:03:53.45	304.92	28.31	-40.2	-40.9	20.2	0.00e+00	0	43	0	0	52	3801
2026-01-30 11:03:54.45	305.17	28.20	-40.2	-40.9	20.2	0.00e+00	0	43	0	0	52	3808
2026-01-30 11:03:55.45	305.42	28.09	-40.2	-40.9	20.1	0.00e+00	0	43	0	0	52	3824
2026-01-30 11:03:56.45	305.67	27.97	-40.5	-41.2	19.7	0.00e+00	0	44	0	0	52	3952
2026-01-30 11:03:57.46	305.91	27.86	-40.6	-41.3	19.7	0.00e+00	0	44	0	0	52	3991
2026-01-30 11:03:58.46	306.16	27.74	-40.6	-41.4	19.7	0.00e+00	0	43	0	0	52	4041
2026-01-30 11:03:59.46	306.40	27.63	-40.7	-41.5	19.7	0.00e+00	0	43	0	0	52	4055
2026-01-30 11:04:00.46	306.64	27.51	-40.4	-41.2	20.0	0.00e+00	0	43	0	0	52	3935
2026-01-30 11:04:01.46	306.87	27.40	-40.3	-41.0	20.1	0.00e+00	0	43	0	0	52	3858
2026-01-30 11:04:02.46	307.11	27.28	-40.3	-41.1	20.0	0.00e+00	0	43	0	0	52	3884
2026-01-30 11:04:03.46	307.34	27.17	-40.3	-41.0	20.0	0.00e+00	0	43	0	0	52	3867
2026-01-30 11:04:04.47	307.58	27.05	-40.3	-41.0	20.0	0.00e+00	0	43	0	0	52	3862
2026-01-30 11:04:05.47	307.81	26.94	-40.3	-41.0	20.1	0.00e+00	0	43	0	0	52	3861
2026-01-30 11:04:06.47	308.04	26.82	-40.3	-41.0	20.1	0.00e+00	0	43	0	0	52	3858
2026-01-30 11:04:07.47	308.27	26.71	-40.3	-41.0	20.1	0.00e+00	0	43	0	0	52	3868
2026-01-30 11:04:08.47	308.49	26.59	-40.3	-41.0	20.1	0.00e+00	0	43	0	0	52	3851
2026-01-30 11:04:09.47	308.72	26.48	-40.3	-41.1	20.1	0.00e+00	0	43	0	0	52	3871
2026-01-30 11:04:10.47	308.94	26.36	-40.4	-41.2	19.9	0.00e+00	0	43	0	0	52	3932
2026-01-30 11:04:11.47	309.16	26.25	-40.4	-41.2	19.9	0.00e+00	0	43	0	0	52	3921
2026-01-30 11:04:12.47	309.38	26.14	-40.4	-41.1	19.9	0.00e+00	0	43	0	0	52	3911
2026-01-30 11:04:13.47	309.60	26.02	-40.4	-41.1	20.0	0.00e+00	0	43	0	0	52	3895
2026-01-30 11:04:14.47	309.82	25.91	-40.3	-41.0	20.1	0.00e+00	0	43	0	0	52	3850
2026-01-30 11:04:15.47	310.03	25.79	-40.2	-40.9	20.2	0.00e+00	0	43	0	0	52	3808
2026-01-30 11:04:16.47	310.25	25.68	-40.2	-40.9	20.1	0.00e+00	0	43	0	0	52	3812
2026-01-30 11:04:17.48	310.46	25.56	-40.3	-41.0	20.0	0.00e+00	0	43	0	0	52	3857
2026-01-30 11:04:18.48	310.67	25.45	-40.3	-41.1	20.0	0.00e+00	0	43	0	0	52	3877
2026-01-30 11:04:19.48	310.88	25.34	-40.5	-41.2	19.9	0.00e+00	0	43	0	0	52	3954
2026-01-30 11:04:20.48	311.09	25.22	-40.5	-41.3	19.9	0.00e+00	0	43	0	0	52	3962
2026-01-30 11:04:21.48	311.29	25.11	-40.4	-41.2	20.0	0.00e+00	0	43	0	0	52	3928
2026-01-30 11:04:22.48	311.50	24.99	-40.4	-41.2	20.0	0.00e+00	0	43	0	0	52	3929
2026-01-30 11:04:23.49	311.70	24.88	-40.5	-41.2	20.0	0.00e+00	0	43	0	0	52	3944
2026-01-30 11:04:24.49	311.91	24.77	-40.4	-41.2	20.0	0.00e+00	0	43	0	0	52	3934
2026-01-30 11:04:25.49	312.11	24.65	-40.4	-41.2	20.0	0.00e+00	0	43	0	0	52	3915
2026-01-30 11:04:26.49	312.31	24.54	-40.3	-41.1	20.1	0.00e+00	0	43	0	0	52	3872
2026-01-30 11:04:27.50	312.50	24.43	-40.1	-40.8	20.2	0.00e+00	0	43	0	0	52	3778
2026-01-30 11:04:28.50	312.70	24.31	-40.1	-40.8	20.2	0.00e+00	0	43	0	0	52	3778
2026-01-30 11:04:29.50	312.90	24.20	-40.1	-40.8	20.2	0.00e+00	0	43	0	0	52	3775
2026-01-30 11:04:30.50	313.09	24.09	-40.1	-40.8	20.2	0.00e+00	0	44	0	0	52	3777
2026-01-30 11:04:31.50	313.28	23.98	-40.2	-40.9	20.2	0.00e+00	0	43	0	0	52	3813
2026-01-30 11:04:32.50	313.47	23.86	-40.1	-40.9	20.2	0.00e+00	0	43	0	0	52	3786
2026-01-30 11:04:33.50	313.66	23.75	-40.3	-41.0	20.1	0.00e+00	0	43	0	0	52	3841
2026-01-30 11:04:34.50	313.85	23.64	-40.3	-41.0	20.1	0.00e+00	0	43	0	0	52	3842
2026-01-30 11:04:35.50	314.04	23.53	-40.3	-41.1	20.0	0.00e+00	0	43	0	0	52	3882
2026-01-30 11:04:36.50	314.22	23.42	-40.3	-41.0	20.0	0.00e+00	0	43	0	0	52	3852
2026-01-30 11:04:37.50	314.41	23.31	-40.4	-41.1	20.0	0.00e+00	0	43	0	0	52	3885
2026-01-30 11:04:38.50	314.59	23.19	-40.4	-41.1	19.9	0.00e+00	0	43	0	0	52	3907
2026-01-30 11:04:39.51	314.77	23.08	-40.4	-41.1	19.9	0.00e+00	0	43	0	0	52	3911
2026-01-30 11:04:40.51	314.96	22.97	-40.5	-41.2	19.9	0.00e+00	0	43	0	0	52	3944
2026-01-30 11:04:41.51	315.13	22.86	-40.5	-41.2	19.8	0.00e+00	0	43	0	0	52	3933
2026-01-30 11:04:42.52	315.31	22.75	-40.5	-41.3	19.8	0.00e+00	0	43	0	0	52	3971
2026-01-30 11:04:43.52	315.49	22.64	-40.6	-41.3	19.7	0.00e+00	0	43	0	0	52	4004
2026-01-30 11:04:44.52	315.67	22.53	-40.6	-41.4	19.7	0.00e+00	0	43	0	0	52	4010
2026-01-30 11:04:45.52	315.84	22.42	-40.6	-41.4	19.7	0.00e+00	0	43	0	0	52	4027
2026-01-30 11:04:46.53	316.02	22.31	-40.6	-41.4	19.7	0.00e+00	0	43	0	0	52	4019
2026-01-30 11:04:47.53	316.19	22.20	-40.5	-41.3	19.8	0.00e+00	0	43	0	0	52	3992
2026-01-30 11:04:48.53	316.36	22.09	-40.5	-41.3	19.8	0.00e+00	0	43	0	0	52	3979
2026-01-30 11:04:49.53	316.53	21.98	-40.6	-41.4	19.7	0.00e+00	0	43	0	0	52	4039
2026-01-30 11:04:50.53	316.70	21.87	-40.7	-41.5	19.6	0.00e+00	0	43	0	0	52	4083
2026-01-30 11:04:51.53	316.86	21.77	-40.7	-41.6	19.6	0.00e+00	0	43	0	0	52	4104
2026-01-30 11:04:52.53	317.03	21.66	-40.8	-41.7	19.5	0.00e+00	0	44	0	0	52	4151
2026-01-30 11:04:53.53	317.20	21.55	-40.7	-41.5	19.7	0.00e+00	0	43	0	0	52	4077
2026-01-30 11:04:54.53	317.36	21.44	-40.7	-41.6	19.6	0.00e+00	0	43	0	0	52	4105
2026-01-30 11:04:55.53	317.52	21.33	-40.7	-41.5	19.6	0.00e+00	0	43	0	0	52	4086
2026-01-30 11:04:56.52	317.68	21.23	-40.7	-41.5	19.7	0.00e+00	0	43	0	0	52	4059
2026-01-30 11:04:57.52	317.84	21.12	-40.7	-41.6	19.6	0.00e+00	0	43	0	0	52	4100
2026-01-30 11:04:58.52	318.00	21.01	-40.7	-41.6	19.6	0.00e+00	0	43	0	0	52	4102
2026-01-30 11:04:59.53	318.16	20.91	-40.7	-41.6	19.6	0.00e+00	0	43	0	0	52	4101
2026-01-30 11:05:00.53	318.32	20.80	-40.6	-41.4	19.7	0.00e+00	0	43	0	0	52	4027
2026-01-30 11:05:01.53	318.48	20.69	-40.5	-41.3	19.8	0.00e+00	0	43	0	0	52	3988
2026-01-30 11:05:02.53	318.63	20.59	-40.4	-41.2	19.9	0.00e+00	0	43	0	0	52	3947
2026-01-30 11:05:03.53	318.79	20.48	-40.4	-41.2	19.8	0.00e+00	0	43	0	0	52	3953
2026-01-30 11:05:04.53	318.94	20.38	-40.3	-41.2	19.9	0.00e+00	0	43	0	0	52	3916
2026-01-30 11:05:05.53	319.09	20.27	-40.4	-41.3	19.7	0.00e+00	0	43	0	0	52	3965
2026-01-30 11:05:06.54	319.25	20.17	-40.3	-41.2	19.8	0.00e+00	0	43	0	0	52	3914
2026-01-30 11:05:07.54	319.40	20.06	-40.4	-41.2	19.7	0.00e+00	0	43	0	0	52	3932
2026-01-30 11:05:08.54	319.55	19.96	-40.4	-41.2	19.7	0.00e+00	0	43	0	0	52	3931
2026-01-30 11:05:09.55	319.70	19.85	-40.4	-41.3	19.6	0.00e+00	0	43	0	0	52	3963
2026-01-30 11:05:10.55	319.84	19.75	-40.4	-41.2	19.8	0.00e+00	0	43	0	0	52	3920
2026-01-30 11:05:11.55	319.99	19.64	-40.4	-41.3	19.7	0.00e+00	0	44	0	0	52	3963
2026-01-30 11:05:12.55	320.14	19.54	-40.3	-41.1	19.8	0.00e+00	0	43	0	0	52	3894
2026-01-30 11:05:13.55	320.28	19.44	-40.4	-41.1	19.8	0.00e+00	0	43	0	0	52	3909
2026-01-30 11:05:14.55	320.42	19.34	-40.3	-41.0	19.9	0.00e+00	0	43	0	0	52	3856
2026-01-30 11:05:15.55	320.57	19.23	-40.3	-41.1	19.8	0.00e+00	0	43	0	0	52	3890
2026-01-30 11:05:16.55	320.71	19.13	-40.2	-41.0	19.9	0.00e+00	0	43	0	0	52	3850
2026-01-30 11:05:17.56	320.85	19.03	-40.3	-41.1	19.8	0.00e+00	0	43	0	0	52	3879
2026-01-30 11:05:18.56	320.99	18.93	-40.4	-41.2	19.8	0.00e+00	0	44	0	0	52	3916
2026-01-30 11:05:19.56	321.13	18.82	-40.5	-41.2	19.7	0.00e+00	0	43	0	0	52	3954
2026-01-30 11:05:20.55	321.27	18.72	-40.5	-41.3	19.7	0.00e+00	0	43	0	0	52	3973
2026-01-30 11:05:21.56	321.40	18.62	-40.6	-41.4	19.5	0.00e+00	0	43	0	0	52	4034
2026-01-30 11:05:22.56	321.54	18.52	-40.6	-41.4	19.6	0.00e+00	0	43	0	0	52	4026
2026-01-30 11:05:23.56	321.68	18.42	-40.6	-41.4	19.6	0.00e+00	0	43	0	0	52	4031
2026-01-30 11:05:24.56	321.81	18.32	-40.5	-41.3	19.7	0.00e+00	0	43	0	0	52	3963
2026-01-30 11:05:25.56	321.94	18.22	-40.5	-41.3	19.7	0.00e+00	0	44	0	0	52	3978
2026-01-30 11:05:26.57	322.08	18.12	-40.6	-41.4	19.6	0.00e+00	0	43	0	0	52	4015
2026-01-30 11:05:27.57	322.21	18.02	-40.7	-41.5	19.5	0.00e+00	0	43	0	0	52	4072
2026-01-30 11:05:28.57	322.34	17.92	-40.6	-41.4	19.6	0.00e+00	0	43	0	0	52	4037
2026-01-30 11:05:29.57	322.47	17.82	-40.6	-41.4	19.6	0.00e+00	0	43	0	0	52	4007
2026-01-30 11:05:30.57	322.60	17.72	-40.6	-41.4	19.5	0.00e+00	0	44	0	0	52	4050
2026-01-30 11:05:31.57	322.73	17.63	-40.7	-41.5	19.5	0.00e+00	0	44	0	0	52	4053
2026-01-30 11:05:32.57	322.86	17.53	-40.4	-41.2	19.8	0.00e+00	0	43	0	0	52	3939
2026-01-30 11:05:33.57	322.99	17.43	-40.5	-41.3	19.7	0.00e+00	0	43	0	0	52	3960
2026-01-30 11:05:34.57	323.11	17.33	-40.4	-41.2	19.7	0.00e+00	0	43	0	0	52	3954
2026-01-30 11:05:35.57	323.24	17.23	-40.4	-41.2	19.7	0.00e+00	0	43	0	0	52	3946
2026-01-30 11:05:36.58	323.36	17.14	-40.4	-41.2	19.7	0.00e+00	0	43	0	0	52	3954
2026-01-30 11:05:37.58	323.49	17.04	-40.5	-41.3	19.6	0.00e+00	0	43	0	0	52	3965
2026-01-30 11:05:38.58	323.61	16.94	-40.5	-41.3	19.6	0.00e+00	0	43	0	0	52	3990
2026-01-30 11:05:39.58	323.73	16.85	-40.6	-41.4	19.5	0.00e+00	0	43	0	0	52	4013
2026-01-30 11:05:40.58	323.85	16.75	-40.7	-41.5	19.4	0.00e+00	0	43	0	0	52	4072
2026-01-30 11:05:41.58	323.98	16.65	-40.8	-41.6	19.3	0.00e+00	0	43	0	0	52	4136
2026-01-30 11:05:42.59	324.10	16.56	-41.0	-41.8	19.2	0.00e+00	0	43	0	0	52	4203
2026-01-30 11:05:43.58	324.22	16.46	-41.1	-41.9	19.1	0.00e+00	0	43	0	0	52	4253
2026-01-30 11:05:44.59	324.34	16.37	-41.0	-41.9	19.1	0.00e+00	0	43	0	0	52	4247
2026-01-30 11:05:45.59	324.45	16.27	-41.1	-41.9	19.0	0.00e+00	0	43	0	0	52	4289
2026-01-30 11:05:46.59	324.57	16.18	-41.1	-42.0	19.0	0.00e+00	0	43	0	0	52	4292
2026-01-30 11:05:47.59	324.69	16.08	-41.2	-42.1	18.9	0.00e+00	0	43	0	0	52	4343
2026-01-30 11:05:48.59	324.80	15.99	-41.2	-42.1	18.9	0.00e+00	0	43	0	0	52	4364
2026-01-30 11:05:49.59	324.92	15.90	-41.2	-42.2	18.8	0.00e+00	0	43	0	0	53	4162
2026-01-30 11:05:50.59	325.03	15.80	-41.2	-42.2	18.8	0.00e+00	0	43	0	0	53	4149
2026-01-30 11:05:51.60	325.15	15.71	-41.2	-42.1	18.8	0.00e+00	0	43	0	0	53	4145
2026-01-30 11:05:52.60	325.26	15.62	-41.2	-42.2	18.7	0.00e+00	0	43	0	0	53	4164
2026-01-30 11:05:53.60	325.37	15.52	-41.2	-42.3	18.6	0.00e+00	0	43	0	0	53	4197
2026-01-30 11:05:54.60	325.49	15.43	-41.3	-42.4	18.5	0.00e+00	0	44	0	0	53	4274
2026-01-30 11:05:55.60	325.60	15.34	-41.3	-42.3	18.6	0.00e+00	0	43	0	0	53	4231
2026-01-30 11:05:56.61	325.71	15.25	-41.3	-42.3	18.6	0.00e+00	0	44	0	0	53	4225
2026-01-30 11:05:57.61	325.82	15.15	-41.3	-42.4	18.6	0.00e+00	0	43	0	0	53	4243
2026-01-30 11:05:58.61	325.93	15.06	-41.3	-42.3	18.6	0.00e+00	0	43	0	0	53	4231
2026-01-30 11:05:59.61	326.04	14.97	-41.3	-42.3	18.6	0.00e+00	0	43	0	0	53	4214
2026-01-30 11:06:00.61	326.14	14.88	-41.2	-42.2	18.7	0.00e+00	0	44	0	0	53	4180
2026-01-30 11:06:01.61	326.25	14.79	-41.3	-42.3	18.7	0.00e+00	0	43	0	0	53	4196
2026-01-30 11:06:02.62	326.36	14.70	-41.2	-42.2	18.7	0.00e+00	0	43	0	0	53	4174
2026-01-30 11:06:03.62	326.47	14.61	-41.2	-42.2	18.7	0.00e+00	0	44	0	0	53	4191
2026-01-30 11:06:04.62	326.57	14.52	-41.2	-42.2	18.7	0.00e+00	0	44	0	0	53	4180
2026-01-30 11:06:05.62	326.68	14.43	-41.1	-42.2	18.7	0.00e+00	0	44	0	0	53	4168
2026-01-30 11:06:06.62	326.78	14.34	-41.2	-42.3	18.6	0.00e+00	0	43	0	0	53	4208
2026-01-30 11:06:07.62	326.88	14.25	-41.2	-42.3	18.6	0.00e+00	0	43	0	0	53	4225
2026-01-30 11:06:08.62	326.99	14.16	-41.2	-42.3	18.6	0.00e+00	0	44	0	0	53	4211
2026-01-30 11:06:09.62	327.09	14.07	-41.2	-42.3	18.6	0.00e+00	0	44	0	0	53	4230
2026-01-30 11:06:10.62	327.19	13.98	-41.2	-42.3	18.6	0.00e+00	0	43	0	0	53	4231
2026-01-30 11:06:11.62	327.29	13.90	-41.3	-42.4	18.5	0.00e+00	0	44	0	0	53	4277
2026-01-30 11:06:12.63	327.39	13.81	-41.4	-42.4	18.5	0.00e+00	0	43	0	0	53	4290
2026-01-30 11:06:13.62	327.49	13.72	-41.4	-42.4	18.5	0.00e+00	0	43	0	0	53	4289
2026-01-30 11:06:14.63	327.59	13.63	-41.5	-42.5	18.4	0.00e+00	0	43	0	0	53	4318
2026-01-30 11:06:15.63	327.69	13.54	-41.6	-42.6	18.3	0.00e+00	0	43	0	0	53	4389
2026-01-30 11:06:16.63	327.79	13.46	-41.5	-42.5	18.4	0.00e+00	0	43	0	0	53	4317
2026-01-30 11:06:17.63	327.89	13.37	-41.5	-42.5	18.4	0.00e+00	0	43	0	0	53	4310
2026-01-30 11:06:18.63	327.99	13.28	-41.6	-42.6	18.3	0.00e+00	0	43	0	0	53	4350
2026-01-30 11:06:19.63	328.08	13.20	-41.6	-42.5	18.4	0.00e+00	0	44	0	0	53	4332
2026-01-30 11:06:20.63	328.18	13.11	-41.6	-42.6	18.3	0.00e+00	0	44	0	0	53	4343
2026-01-30 11:06:21.64	328.28	13.03	-41.5	-42.5	18.4	0.00e+00	0	44	0	0	53	4301
2026-01-30 11:06:22.64	328.37	12.94	-41.6	-42.6	18.3	0.00e+00	0	44	0	0	53	4361
2026-01-30 11:06:23.64	328.47	12.85	-41.6	-42.6	18.2	0.00e+00	0	43	0	0	53	4370
2026-01-30 11:06:24.64	328.56	12.77	-41.5	-42.5	18.4	0.00e+00	0	44	0	0	53	4293
2026-01-30 11:06:25.65	328.66	12.68	-41.5	-42.5	18.4	0.00e+00	0	43	0	0	53	4297
2026-01-30 11:06:26.65	328.75	12.60	-41.5	-42.5	18.3	0.00e+00	0	44	0	0	53	4305
2026-01-30 11:06:27.65	328.84	12.51	-41.4	-42.4	18.4	0.00e+00	0	44	0	0	53	4264
2026-01-30 11:06:28.65	328.93	12.43	-41.5	-42.5	18.3	0.00e+00	0	43	0	0	53	4336
2026-01-30 11:06:29.65	329.03	12.35	-41.5	-42.5	18.3	0.00e+00	0	43	0	0	53	4308
2026-01-30 11:06:30.66	329.12	12.26	-41.5	-42.4	18.4	0.00e+00	0	43	0	0	53	4277
2026-01-30 11:06:31.66	329.21	12.18	-41.5	-42.4	18.4	0.00e+00	0	43	0	0	53	4290
2026-01-30 11:06:32.66	329.30	12.10	-41.4	-42.3	18.5	0.00e+00	0	43	0	0	53	4216
2026-01-30 11:06:33.66	329.39	12.01	-41.4	-42.4	18.5	0.00e+00	0	43	0	0	53	4243
2026-01-30 11:06:34.66	329.48	11.93	-41.4	-42.4	18.5	0.00e+00	0	43	0	0	53	4246
2026-01-30 11:06:35.66	329.57	11.85	-41.4	-42.4	18.5	0.00e+00	0	43	0	0	53	4247
2026-01-30 11:06:36.67	329.66	11.76	-41.4	-42.3	18.5	0.00e+00	0	43	0	0	53	4229
2026-01-30 11:06:37.67	329.74	11.68	-41.3	-42.3	18.6	0.00e+00	0	43	0	0	53	4211
2026-01-30 11:06:38.66	329.83	11.60	-41.3	-42.2	18.6	0.00e+00	0	43	0	0	53	4172
2026-01-30 11:06:39.66	329.92	11.52	-41.4	-42.3	18.5	0.00e+00	0	44	0	0	53	4234
2026-01-30 11:06:40.66	330.00	11.44	-41.3	-42.2	18.6	0.00e+00	0	44	0	0	53	4192
2026-01-30 11:06:41.66	330.09	11.36	-41.3	-42.2	18.6	0.00e+00	0	44	0	0	53	4174
2026-01-30 11:06:42.67	330.18	11.27	-41.3	-42.3	18.6	0.00e+00	0	43	0	0	53	4210
2026-01-30 11:06:43.66	330.26	11.19	-41.4	-42.3	18.5	0.00e+00	0	44	0	0	53	4242
2026-01-30 11:06:44.67	330.35	11.11	-41.2	-42.2	18.6	0.00e+00	0	44	0	0	53	4159
2026-01-30 11:06:45.67	330.43	11.03	-41.2	-42.1	18.7	0.00e+00	0	43	0	0	53	4133
2026-01-30 11:06:46.67	330.51	10.95	-41.2	-42.1	18.7	0.00e+00	0	43	0	0	53	4118
2026-01-30 11:06:47.68	330.60	10.87	-41.3	-42.2	18.6	0.00e+00	0	43	0	0	53	4174
2026-01-30 11:06:48.68	330.68	10.79	-41.3	-42.3	18.5	0.00e+00	0	44	0	0	53	4198
2026-01-30 11:06:49.68	330.76	10.71	-41.3	-42.3	18.5	0.00e+00	0	43	0	0	53	4205
2026-01-30 11:06:50.68	330.84	10.63	-41.4	-42.4	18.4	0.00e+00	0	43	0	0	53	4254
2026-01-30 11:06:51.68	330.93	10.55	-41.5	-42.4	18.2	0.00e+00	0	43	0	0	53	4287
2026-01-30 11:06:52.68	331.01	10.47	-41.5	-42.5	18.2	0.00e+00	0	43	0	0	53	4325
2026-01-30 11:06:53.68	331.09	10.39	-41.6	-42.6	18.1	0.00e+00	0	44	0	0	53	4375
2026-01-30 11:06:54.68	331.17	10.32	-41.8	-42.8	17.8	0.00e+00	0	44	0	0	54	4231
2026-01-30 11:06:55.69	331.25	10.24	-41.8	-42.9	17.8	0.00e+00	0	43	0	0	54	4275
2026-01-30 11:06:56.69	331.33	10.16	-41.9	-43.0	17.6	0.00e+00	0	44	0	0	54	4337
2026-01-30 11:06:57.69	331.41	10.08	-42.0	-43.1	17.6	0.00e+00	0	44	0	0	54	4367
2026-01-30 11:06:58.69	331.49	10.00	-42.0	-43.2	17.5	0.00e+00	0	44	0	0	54	4396
2026-01-30 11:06:59.70	331.57	9.92	-42.0	-43.1	17.6	0.00e+00	0	43	0	0	54	4378
2026-01-30 11:07:00.69	331.64	9.85	-41.9	-43.1	17.6	0.00e+00	0	44	0	0	54	4360
2026-01-30 11:07:01.69	331.72	9.77	-42.0	-43.2	17.6	0.00e+00	0	44	0	0	54	4400
2026-01-30 11:07:02.70	331.80	9.69	-41.8	-43.0	17.7	0.00e+00	0	43	0	0	54	4317
2026-01-30 11:07:03.70	331.88	9.62	-41.9	-43.1	17.6	0.00e+00	0	44	0	0	54	4372
2026-01-30 11:07:04.70	331.95	9.54	-42.0	-43.2	17.6	0.00e+00	0	43	0	0	54	4400
2026-01-30 11:07:05.70	332.03	9.46	-42.0	-43.2	17.5	0.00e+00	0	43	0	0	54	4434
2026-01-30 11:07:06.70	332.10	9.39	-42.0	-43.2	17.6	0.00e+00	0	43	0	0	54	4405
2026-01-30 11:07:07.70	332.18	9.31	-41.8	-43.0	17.7	0.00e+00	0	43	0	0	54	4309
2026-01-30 11:07:08.71	332.26	9.23	-42.0	-43.2	17.5	0.00e+00	0	43	0	0	54	4396
2026-01-30 11:07:09.71	332.33	9.16	-41.9	-43.0	17.7	0.00e+00	0	43	0	0	54	4318
2026-01-30 11:07:10.71	332.40	9.08	-41.8	-42.9	17.7	0.00e+00	0	43	0	0	54	4282
2026-01-30 11:07:11.71	332.48	9.01	-44.3	-46.1	15.0	0.00e+00	0	43	0	0	59	4647
2026-01-30 11:07:12.72	332.55	8.93	-49.6	-62.0	3.8	1.49e+00	0	43	104	0	69	16150
2026-01-30 11:07:13.72	332.63	8.86	-49.0	-62.2	3.8	1.49e+00	0	43	104	0	69	16538
2026-01-30 11:07:14.72	332.70	8.78	-49.6	-62.0	3.8	1.49e+00	0	43	104	0	69	16311
2026-01-30 11:07:15.72	332.77	8.71	-48.9	-62.1	3.8	1.49e+00	0	43	104	0	68	17293
2026-01-30 11:07:16.73	332.84	8.63	-49.9	-62.1	3.8	1.49e+00	0	43	104	0	70	15456
2026-01-30 11:07:17.73	332.92	8.56	-49.8	-62.2	3.8	1.49e+00	0	43	104	0	70	15609
2026-01-30 11:07:18.73	332.99	8.49	-49.7	-62.2	3.8	1.49e+00	0	43	104	0	70	15658
2026-01-30 11:07:19.74	333.06	8.41	-50.0	-62.2	3.8	1.49e+00	0	43	104	0	70	15626
2026-01-30 11:07:20.74	333.13	8.34	-50.0	-62.2	3.8	1.49e+00	0	43	104	0	70	15712
2026-01-30 11:07:21.74	333.20	8.26	-49.9	-62.2	3.8	1.49e+00	0	43	104	0	70	15633
2026-01-30 11:07:22.74	333.27	8.19	-50.1	-62.2	3.8	1.49e+00	0	44	104	0	70	15706
2026-01-30 11:07:23.75	333.34	8.12	-50.1	-62.2	3.8	1.49e+00	0	43	104	0	70	15661
2026-01-30 11:07:24.75	333.41	8.04	-50.1	-62.3	3.8	1.49e+00	0	43	104	0	70	15765
2026-01-30 11:07:25.75	333.48	7.97	-50.2	-62.3	3.8	1.49e+00	0	43	104	0	71	14940
2026-01-30 11:07:26.76	333.55	7.90	-50.2	-62.3	3.8	1.49e+00	0	43	104	0	71	14910
2026-01-30 11:07:27.76	333.62	7.83	-50.1	-62.3	3.8	1.49e+00	0	43	104	0	71	14980
2026-01-30 11:07:28.76	333.69	7.75	-50.1	-62.3	3.8	1.49e+00	0	43	104	0	71	14922
2026-01-30 11:07:29.76	333.75	7.68	-50.1	-62.3	3.8	1.49e+00	0	43	104	0	71	14930
2026-01-30 11:07:30.77	333.82	7.61	-50.1	-62.3	3.8	1.49e+00	0	43	104	0	71	15018
2026-01-30 11:07:31.77	333.89	7.54	-50.1	-62.3	3.8	1.49e+00	0	44	104	0	71	14896
2026-01-30 11:07:32.77	333.96	7.47	-50.1	-62.3	3.8	1.49e+00	0	44	104	0	71	14996
2026-01-30 11:07:33.78	334.02	7.39	-50.1	-62.3	3.8	1.49e+00	0	44	104	0	71	14909
2026-01-30 11:07:34.78	334.09	7.32	-50.1	-62.3	3.8	1.49e+00	0	43	104	0	71	14945
2026-01-30 11:07:35.78	334.16	7.25	-50.1	-62.3	3.8	1.49e+00	0	43	104	0	71	14959
2026-01-30 11:07:36.78	334.22	7.18	-50.1	-62.3	3.8	1.49e+00	0	44	104	0	71	14958
2026-01-30 11:07:37.79	334.29	7.11	-50.1	-62.3	3.8	1.49e+00	0	44	104	0	71	14973
2026-01-30 11:07:38.79	334.35	7.04	-50.1	-62.3	3.8	1.49e+00	0	44	104	0	71	14986
2026-01-30 11:07:39.79	334.42	6.97	-50.1	-62.3	3.8	1.49e+00	0	43	104	0	71	14969
2026-01-30 11:07:40.79	334.48	6.90	-50.1	-62.3	3.8	1.49e+00	0	43	104	0	71	14925
2026-01-30 11:07:41.80	334.55	6.83	-50.1	-62.3	3.8	1.49e+00	0	44	104	0	71	14934
2026-01-30 11:07:42.80	334.61	6.76	-50.1	-62.3	3.8	1.49e+00	0	43	104	0	71	14943
2026-01-30 11:07:43.80	334.67	6.69	-50.1	-62.3	3.8	1.49e+00	0	43	104	0	71	14935
2026-01-30 11:07:44.80	334.74	6.62	-50.1	-62.3	3.8	1.49e+00	0	44	104	0	71	14899
2026-01-30 11:07:45.81	334.80	6.55	-50.1	-62.3	3.8	1.49e+00	0	44	104	0	71	15001
2026-01-30 11:07:46.81	334.86	6.48	-50.1	-62.3	3.8	1.49e+00	0	44	104	0	71	14925
2026-01-30 11:07:47.81	334.93	6.41	-50.1	-62.3	3.8	1.49e+00	0	44	104	0	71	14910
2026-01-30 11:07:48.81	334.99	6.34	-50.1	-62.3	3.8	1.49e+00	0	43	104	0	71	14952
2026-01-30 11:07:49.81	335.05	6.27	-50.1	-62.3	3.8	1.49e+00	0	44	104	0	71	14904
2026-01-30 11:07:50.82	335.11	6.21	-50.1	-62.3	3.8	1.49e+00	0	43	104	0	71	14902
2026-01-30 11:07:51.82	335.18	6.14	-50.1	-62.2	3.8	1.49e+00	0	44	104	0	71	14842
2026-01-30 11:07:52.82	335.24	6.07	-50.1	-62.2	3.8	1.49e+00	0	44	104	0	71	14853
2026-01-30 11:07:53.83	335.30	6.00	-50.1	-62.3	3.8	1.49e+00	0	44	104	0	71	14933
2026-01-30 11:07:54.83	335.36	5.93	-50.1	-62.3	3.8	1.49e+00	0	44	104	0	71	14909
2026-01-30 11:07:55.83	335.42	5.86	-50.1	-62.3	3.8	1.49e+00	0	43	104	0	71	14910
2026-01-30 11:07:56.84	335.48	5.80	-50.1	-62.3	3.8	1.49e+00	0	44	104	0	71	14935
2026-01-30 11:07:57.84	335.54	5.73	-50.1	-62.2	3.8	1.49e+00	0	44	104	0	71	14853
2026-01-30 11:07:58.84	335.60	5.66	-50.1	-62.2	3.8	1.49e+00	0	44	104	0	71	14866
2026-01-30 11:07:59.84	335.66	5.59	-50.1	-62.2	3.8	1.49e+00	0	43	104	0	71	14872
2026-01-30 11:08:00.84	335.72	5.53	-50.1	-62.2	3.8	1.49e+00	0	44	104	0	71	14872
2026-01-30 11:08:01.84	335.78	5.46	-50.1	-62.3	3.8	1.49e+00	0	44	104	0	71	14900
2026-01-30 11:08:02.85	335.84	5.39	-50.1	-62.3	3.8	1.49e+00	0	44	104	0	71	14914
2026-01-30 11:08:03.85	335.89	5.33	-50.1	-62.3	3.8	1.49e+00	0	44	104	0	71	14907
2026-01-30 11:08:04.85	335.95	5.26	-50.1	-62.3	3.8	1.49e+00	0	43	104	0	71	14908
2026-01-30 11:08:05.85	336.01	5.19	-50.1	-62.3	3.8	1.49e+00	0	44	104	0	71	14983
2026-01-30 11:08:06.86	336.07	5.13	-50.1	-62.3	3.8	1.49e+00	0	43	104	0	71	14923
2026-01-30 11:08:07.86	336.13	5.06	-50.1	-62.3	3.8	1.49e+00	0	44	104	0	71	14932
2026-01-30 11:08:08.86	336.18	5.00	-50.1	-62.3	3.8	1.49e+00	0	44	104	0	71	14919

#Closed at: 2026-01-30 11:08:09
#Recorded file [0 MB]: D:/Data/31040_260130_135550.dat