passes_logs/2026/01/30/T1/T1__20260130_003217_AQUA_rec.log

#Pass ID: 20260130_003217_AQUA
#Satellite: AQUA
#Configuration: AQUA
#almurnet v.1.7.20251203
#Start time: 2026-01-30 00:32:19

#Version: 2.0.20230620
#Station: T1
#Location: 37.570604 lon 55.790049 lat
#TLE: 1 27424U 02022A   26028.91948147  .00001781  00000+0  36607-3 0  9997
#TLE: 2 27424  98.4103 355.5827 0001815  62.4290   1.4641 14.61871847262923

#Time	Az	El	Level	Level2	SNR	BER	BlckErr	Temp	State	Recorded	gain1	gain2
2026-01-30 00:32:19.62	24.52	5.13	-51.6	-70.7	3.8	7.50e-01	0	39	0	0	73	35251
2026-01-30 00:32:20.61	24.59	5.20	-51.6	-70.8	3.8	7.42e-01	0	39	104	0	73	35543
2026-01-30 00:32:21.62	24.65	5.27	-51.7	-70.8	3.8	7.44e-01	0	39	104	0	73	35548
2026-01-30 00:32:22.62	24.71	5.34	-51.5	-70.8	3.8	7.45e-01	0	40	104	0	74	33657
2026-01-30 00:32:23.63	24.78	5.42	-51.0	-70.8	3.8	7.44e-01	0	39	104	0	74	33532
2026-01-30 00:32:24.63	24.84	5.49	-50.9	-70.8	3.8	7.49e-01	0	39	104	0	73	35413
2026-01-30 00:32:25.63	24.91	5.56	-51.5	-70.8	3.8	7.47e-01	0	40	104	0	73	35448
2026-01-30 00:32:26.64	24.97	5.63	-51.1	-70.7	3.8	7.48e-01	0	39	104	0	73	35283
2026-01-30 00:32:27.64	25.04	5.70	-51.2	-70.7	3.8	7.45e-01	0	39	104	0	73	35265
2026-01-30 00:32:28.64	25.11	5.77	-51.4	-70.7	3.8	7.44e-01	0	39	104	0	73	35238
2026-01-30 00:32:29.65	25.17	5.84	-50.5	-70.7	3.8	7.45e-01	0	39	104	0	73	34929
2026-01-30 00:32:30.65	25.24	5.91	-50.4	-70.6	3.8	7.43e-01	0	40	104	0	72	36865
2026-01-30 00:32:31.66	25.31	5.99	-50.6	-70.5	3.8	7.47e-01	0	40	104	0	72	36325
2026-01-30 00:32:32.66	25.37	6.06	-50.6	-70.4	3.8	7.46e-01	0	40	104	0	72	35745
2026-01-30 00:32:33.67	25.44	6.13	-49.4	-70.3	3.8	7.45e-01	0	40	104	0	70	39634
2026-01-30 00:32:34.67	25.51	6.21	-49.5	-70.1	3.8	7.46e-01	0	40	104	0	70	38770
2026-01-30 00:32:35.67	25.58	6.28	-49.3	-69.6	3.8	7.44e-01	0	40	104	0	70	36897
2026-01-30 00:32:36.68	25.65	6.35	-49.3	-69.8	3.8	7.45e-01	0	40	104	0	70	37491
2026-01-30 00:32:37.68	25.72	6.42	-49.3	-69.8	3.8	7.47e-01	0	40	104	0	70	37807
2026-01-30 00:32:38.69	25.79	6.50	-49.3	-69.9	3.8	7.47e-01	0	40	104	0	70	38089
2026-01-30 00:32:39.69	25.86	6.57	-49.2	-69.9	3.8	7.45e-01	0	40	104	0	70	38191
2026-01-30 00:32:40.69	25.93	6.65	-49.2	-69.9	3.8	7.45e-01	0	40	104	0	70	38191
2026-01-30 00:32:41.70	26.00	6.72	-49.2	-69.9	3.8	7.48e-01	0	40	104	0	70	38035
2026-01-30 00:32:42.70	26.07	6.79	-49.2	-69.9	3.8	7.48e-01	0	40	104	0	70	37928
2026-01-30 00:32:43.70	26.14	6.87	-49.2	-69.7	3.8	7.46e-01	0	40	104	0	70	37033
2026-01-30 00:32:44.71	26.21	6.94	-49.2	-69.5	3.8	7.45e-01	0	40	104	0	70	36225
2026-01-30 00:32:45.71	26.28	7.02	-49.3	-69.1	3.8	7.43e-01	0	40	104	0	70	34830
2026-01-30 00:32:46.72	26.35	7.09	-49.2	-68.8	3.8	7.47e-01	0	40	104	0	70	33588
2026-01-30 00:32:47.72	26.43	7.17	-49.2	-68.4	3.8	7.47e-01	0	40	104	0	70	32170
2026-01-30 00:32:48.72	26.50	7.24	-49.2	-68.6	3.8	7.42e-01	0	40	104	0	70	32821
2026-01-30 00:32:49.73	26.57	7.32	-49.2	-68.9	3.8	7.47e-01	0	40	104	0	70	33873
2026-01-30 00:32:50.73	26.65	7.40	-49.2	-69.3	3.8	7.48e-01	0	40	104	0	70	35618
2026-01-30 00:32:51.74	26.72	7.47	-49.2	-69.8	3.8	7.46e-01	0	40	104	0	70	37670
2026-01-30 00:32:52.74	26.80	7.55	-49.2	-70.1	3.8	7.48e-01	0	40	104	0	70	38804
2026-01-30 00:32:53.74	26.87	7.63	-49.2	-69.9	3.8	7.45e-01	0	40	104	0	70	37926
2026-01-30 00:32:54.75	26.95	7.70	-49.2	-69.3	3.8	7.44e-01	0	40	104	0	70	35358
2026-01-30 00:32:55.75	27.02	7.78	-49.2	-68.2	3.9	7.47e-01	0	40	104	0	70	31116
2026-01-30 00:32:56.75	27.10	7.86	-49.1	-67.2	3.9	7.42e-01	0	40	104	0	70	27777
2026-01-30 00:32:57.76	27.18	7.94	-49.1	-66.8	3.8	7.40e-01	0	41	104	0	70	26595
2026-01-30 00:32:58.76	27.25	8.01	-49.1	-66.3	4.2	7.41e-01	0	40	104	0	70	25075
2026-01-30 00:32:59.76	27.33	8.09	-49.1	-65.4	4.6	7.21e-01	0	40	104	0	70	22756
2026-01-30 00:33:00.77	27.41	8.17	-49.1	-65.8	4.4	7.27e-01	0	41	104	0	70	23636
2026-01-30 00:33:01.77	27.49	8.25	-49.1	-66.4	3.9	7.42e-01	0	40	104	0	70	25505
2026-01-30 00:33:02.77	27.57	8.33	-49.2	-67.1	3.8	7.43e-01	0	40	104	0	70	27536
2026-01-30 00:33:03.78	27.65	8.41	-49.2	-67.8	3.8	7.43e-01	0	41	104	0	70	29867
2026-01-30 00:33:04.78	27.73	8.48	-49.2	-68.7	3.8	7.46e-01	0	41	104	0	70	33046
2026-01-30 00:33:05.78	27.81	8.56	-49.2	-68.7	3.8	7.44e-01	0	41	104	0	70	33229
2026-01-30 00:33:06.79	27.89	8.64	-49.2	-68.9	3.8	7.43e-01	0	41	104	0	70	33844
2026-01-30 00:33:07.79	27.97	8.72	-49.1	-67.9	3.9	7.42e-01	0	41	104	0	70	30181
2026-01-30 00:33:08.79	28.05	8.80	-49.1	-65.4	4.5	7.20e-01	0	41	104	0	70	22732
2026-01-30 00:33:09.79	28.13	8.88	-49.0	-63.3	5.7	6.90e-01	0	41	0	0	70	17864
2026-01-30 00:33:10.80	28.21	8.96	-48.8	-60.3	8.2	6.39e-01	0	41	0	1572864	69	13279
2026-01-30 00:33:11.80	28.30	9.05	-48.6	-58.3	10.5	6.13e-01	0	41	0	3670016	69	10543
2026-01-30 00:33:12.80	28.38	9.13	-48.1	-55.0	13.9	6.03e-01	0	41	0	5242880	68	7719
2026-01-30 00:33:13.80	28.46	9.21	-49.1	-65.9	4.4	7.43e-01	0	41	104	6815744	68	26789
2026-01-30 00:33:14.85	28.55	9.29	-47.1	-52.1	16.8	6.06e-01	0	41	0	7340032	66	6170
2026-01-30 00:33:15.78	28.63	9.37	-48.6	-57.6	11.4	6.15e-01	0	41	0	9437184	67	11000
2026-01-30 00:33:16.92	28.73	9.46	-44.8	-47.6	21.2	6.01e-01	0	41	0	11534336	61	4872
2026-01-30 00:33:17.82	28.80	9.54	-45.9	-49.3	19.9	6.02e-01	0	41	0	13107200	62	5613
2026-01-30 00:33:19.00	28.91	9.63	-46.3	-49.9	19.1	6.03e-01	0	41	0	15204352	63	5690
2026-01-30 00:33:19.86	28.98	9.70	-46.1	-49.6	19.4	6.03e-01	0	41	0	16777216	63	5514
2026-01-30 00:33:21.01	29.08	9.80	-45.7	-49.0	20.0	6.02e-01	0	41	0	18874368	63	5103
2026-01-30 00:33:21.87	29.16	9.87	-45.3	-48.3	20.7	6.01e-01	0	41	0	20447232	62	4996
2026-01-30 00:33:23.01	29.26	9.97	-44.9	-47.6	21.3	6.02e-01	0	41	0	22544384	61	4914
2026-01-30 00:33:24.10	29.35	10.06	-44.4	-46.7	22.2	6.04e-01	0	41	0	24641536	60	4702
2026-01-30 00:33:25.13	29.45	10.14	-44.3	-46.6	22.4	6.01e-01	0	41	0	26738688	60	4647
2026-01-30 00:33:26.13	29.54	10.23	-44.2	-46.4	22.5	6.05e-01	0	41	0	28835840	60	4542
2026-01-30 00:33:27.13	29.63	10.31	-44.3	-46.4	22.7	6.01e-01	0	41	0	30408704	59	4798
2026-01-30 00:33:28.13	29.72	10.40	-44.3	-46.4	22.8	6.02e-01	0	41	0	32505856	59	4773
2026-01-30 00:33:29.13	29.81	10.48	-44.1	-46.1	23.1	6.04e-01	0	41	0	34078720	59	4624
2026-01-30 00:33:30.42	29.93	10.59	-44.2	-46.1	23.0	6.03e-01	0	41	0	36700160	59	4622
2026-01-30 00:33:31.20	30.00	10.66	-44.1	-46.0	23.1	6.03e-01	0	41	0	38273024	59	4554
2026-01-30 00:33:32.48	30.12	10.77	-43.7	-45.5	23.5	6.03e-01	0	41	0	40370176	59	4327
2026-01-30 00:33:33.20	30.19	10.83	-43.7	-45.6	23.5	6.02e-01	0	41	0	41943040	59	4344
2026-01-30 00:33:34.49	30.31	10.94	-43.7	-45.6	23.5	6.00e-01	0	41	0	44564480	59	4349
2026-01-30 00:33:35.21	30.38	11.01	-43.6	-45.4	23.6	6.00e-01	0	41	0	45613056	59	4289
2026-01-30 00:33:36.50	30.50	11.12	-43.6	-45.5	23.6	6.06e-01	0	41	0	48234496	59	4309
2026-01-30 00:33:37.21	30.57	11.18	-43.7	-45.5	23.5	6.03e-01	0	41	0	49283072	59	4329
2026-01-30 00:33:38.56	30.70	11.30	-43.7	-45.5	23.5	6.01e-01	0	41	0	51904512	59	4325
2026-01-30 00:33:39.56	30.80	11.39	-43.7	-45.5	23.6	6.02e-01	0	41	0	54001664	59	4337
2026-01-30 00:33:40.57	30.90	11.48	-43.5	-45.3	23.8	6.02e-01	0	41	0	55574528	59	4213
2026-01-30 00:33:41.57	30.99	11.56	-43.7	-45.5	23.6	6.01e-01	0	41	0	57671680	59	4301
2026-01-30 00:33:42.57	31.09	11.65	-43.4	-45.2	23.8	6.03e-01	0	41	0	59244544	58	4439
2026-01-30 00:33:43.58	31.19	11.74	-43.4	-45.2	23.9	6.05e-01	0	41	0	61341696	58	4395
2026-01-30 00:33:44.58	31.29	11.83	-43.3	-45.1	24.0	6.04e-01	0	41	0	63438848	58	4353
2026-01-30 00:33:45.58	31.40	11.92	-43.2	-45.1	24.0	6.00e-01	0	41	0	65011712	58	4369
2026-01-30 00:33:46.58	31.50	12.01	-43.1	-45.0	24.1	6.04e-01	0	41	0	67108864	58	4307
2026-01-30 00:33:47.58	31.60	12.10	-43.1	-44.9	24.2	6.01e-01	0	41	0	68681728	58	4290
2026-01-30 00:33:48.59	31.70	12.19	-43.0	-44.9	24.2	6.01e-01	0	41	0	70778880	57	4521
2026-01-30 00:33:49.59	31.81	12.28	-43.0	-44.9	24.2	6.02e-01	0	41	0	72876032	57	4500
2026-01-30 00:33:50.58	31.91	12.37	-42.9	-44.7	24.3	6.03e-01	0	41	0	74448896	57	4441
2026-01-30 00:33:51.59	32.02	12.47	-43.0	-44.8	24.3	6.04e-01	0	41	0	76546048	57	4481
2026-01-30 00:33:52.59	32.12	12.56	-43.1	-44.9	24.1	6.05e-01	0	41	0	78118912	57	4512
2026-01-30 00:33:53.59	32.23	12.65	-43.1	-44.9	24.3	6.01e-01	0	41	0	80216064	57	4509
2026-01-30 00:33:54.59	32.34	12.74	-43.0	-44.8	24.3	6.04e-01	0	41	0	81788928	57	4444
2026-01-30 00:33:55.59	32.45	12.84	-43.0	-44.8	24.3	6.02e-01	0	41	0	83886080	57	4472
2026-01-30 00:33:56.59	32.55	12.93	-43.1	-44.8	24.3	6.02e-01	0	41	0	85983232	57	4463
2026-01-30 00:33:57.60	32.66	13.02	-43.2	-44.9	24.2	6.06e-01	0	41	0	87556096	57	4509
2026-01-30 00:33:58.60	32.77	13.12	-43.2	-44.9	24.3	6.03e-01	0	41	0	89653248	57	4496
2026-01-30 00:33:59.60	32.88	13.21	-43.2	-44.9	24.2	6.04e-01	0	41	0	91226112	57	4497
2026-01-30 00:34:00.60	33.00	13.31	-43.1	-44.6	24.4	6.05e-01	0	41	0	93323264	57	4386
2026-01-30 00:34:01.60	33.11	13.40	-43.1	-44.7	24.5	6.02e-01	0	41	0	94896128	57	4394
2026-01-30 00:34:02.60	33.22	13.49	-43.2	-44.7	24.4	6.05e-01	0	41	0	96993280	57	4439
2026-01-30 00:34:03.60	33.33	13.59	-43.1	-44.7	24.3	6.01e-01	0	41	0	99090432	57	4428
2026-01-30 00:34:04.61	33.45	13.69	-43.1	-44.6	24.5	6.08e-01	0	41	0	100663296	57	4391
2026-01-30 00:34:05.69	33.58	13.79	-43.0	-44.6	24.5	6.04e-01	0	41	0	102760448	57	4350
2026-01-30 00:34:06.55	33.67	13.87	-43.1	-44.7	24.5	6.00e-01	0	41	0	104333312	57	4413
2026-01-30 00:34:07.69	33.81	13.98	-43.0	-44.5	24.7	6.05e-01	0	41	0	106430464	57	4310
2026-01-30 00:34:08.65	33.92	14.08	-43.0	-44.6	24.5	6.03e-01	0	41	0	108527616	57	4349
2026-01-30 00:34:09.64	34.04	14.17	-43.1	-44.7	24.5	6.04e-01	0	41	0	110100480	57	4411
2026-01-30 00:34:10.64	34.16	14.27	-43.0	-44.5	24.6	6.04e-01	0	41	0	112197632	57	4336
2026-01-30 00:34:11.65	34.28	14.37	-42.9	-44.5	24.7	6.02e-01	0	41	0	113770496	57	4300
2026-01-30 00:34:12.65	34.40	14.47	-43.0	-44.5	24.6	6.03e-01	0	41	0	115867648	57	4327
2026-01-30 00:34:13.65	34.52	14.57	-42.9	-44.4	24.7	6.00e-01	0	42	0	117964800	57	4268
2026-01-30 00:34:14.65	34.64	14.66	-42.9	-44.4	24.7	6.04e-01	0	41	0	119537664	57	4288
2026-01-30 00:34:15.65	34.77	14.76	-42.8	-44.4	24.7	6.03e-01	0	41	0	121634816	57	4273
2026-01-30 00:34:16.65	34.89	14.86	-42.8	-44.5	24.7	6.04e-01	0	41	0	123207680	57	4301
2026-01-30 00:34:17.65	35.02	14.96	-42.8	-44.5	24.7	6.04e-01	0	41	0	125304832	57	4300
2026-01-30 00:34:18.65	35.14	15.06	-42.9	-44.6	24.6	6.06e-01	0	42	0	126877696	57	4359
2026-01-30 00:34:19.65	35.27	15.16	-42.8	-44.5	24.7	6.03e-01	0	41	0	128974848	57	4334
2026-01-30 00:34:20.65	35.40	15.26	-42.7	-44.5	24.6	6.01e-01	0	41	0	131072000	57	4331
2026-01-30 00:34:21.66	35.53	15.37	-42.7	-44.5	24.7	6.07e-01	0	41	0	132644864	57	4316
2026-01-30 00:34:22.74	35.67	15.48	-42.6	-44.5	24.7	6.02e-01	0	41	0	134742016	57	4308
2026-01-30 00:34:23.62	35.78	15.57	-42.7	-44.6	24.6	6.04e-01	0	41	0	136314880	57	4358
2026-01-30 00:34:24.94	35.95	15.70	-42.7	-44.5	24.7	6.03e-01	0	42	0	138936320	57	4310
2026-01-30 00:34:25.66	36.05	15.78	-42.7	-44.5	24.6	6.03e-01	0	42	0	139984896	57	4323
2026-01-30 00:34:27.15	36.25	15.93	-42.7	-44.3	24.8	6.05e-01	0	41	0	143130624	57	4218
2026-01-30 00:34:27.86	36.34	16.00	-42.7	-44.3	24.8	6.03e-01	0	41	0	144179200	57	4234
2026-01-30 00:34:29.15	36.52	16.14	-42.7	-44.3	24.8	6.03e-01	0	41	0	146800640	57	4197
2026-01-30 00:34:29.87	36.62	16.21	-42.7	-44.3	24.9	6.03e-01	0	41	0	148373504	57	4205
2026-01-30 00:34:31.16	36.79	16.35	-42.8	-44.3	24.8	6.02e-01	0	42	0	150470656	57	4234
2026-01-30 00:34:32.29	36.95	16.46	-42.7	-44.3	24.8	6.07e-01	0	41	0	152567808	57	4220
2026-01-30 00:34:33.15	37.07	16.56	-42.6	-44.2	25.0	6.05e-01	0	42	0	154140672	57	4175
2026-01-30 00:34:34.29	37.23	16.68	-42.7	-44.4	24.8	6.03e-01	0	42	0	156237824	57	4245
2026-01-30 00:34:35.15	37.35	16.77	-42.7	-44.3	24.9	6.02e-01	0	42	0	157810688	57	4229
2026-01-30 00:34:36.30	37.52	16.89	-42.8	-44.4	24.7	6.01e-01	0	42	0	160432128	57	4276
2026-01-30 00:34:37.16	37.64	16.98	-42.9	-44.5	24.8	6.02e-01	0	41	0	162004992	57	4303
2026-01-30 00:34:38.30	37.80	17.10	-42.7	-44.3	24.9	6.04e-01	0	41	0	164102144	57	4212
2026-01-30 00:34:39.16	37.93	17.20	-42.7	-44.3	24.9	6.04e-01	0	41	0	165675008	57	4220
2026-01-30 00:34:40.50	38.13	17.34	-42.7	-44.2	24.9	6.02e-01	0	41	0	168296448	57	4182
2026-01-30 00:34:41.21	38.23	17.42	-42.7	-44.3	24.9	6.04e-01	0	42	0	169345024	57	4217
2026-01-30 00:34:42.50	38.42	17.56	-42.7	-44.4	24.9	6.02e-01	0	41	0	171966464	57	4252
2026-01-30 00:34:43.21	38.53	17.63	-42.7	-44.4	24.8	6.05e-01	0	41	0	173015040	57	4256
2026-01-30 00:34:44.50	38.73	17.77	-42.7	-44.4	24.8	6.06e-01	0	41	0	175636480	57	4253
2026-01-30 00:34:45.22	38.84	17.85	-42.7	-44.3	24.9	6.03e-01	0	42	0	177209344	57	4226
2026-01-30 00:34:46.51	39.03	18.00	-42.7	-44.3	25.0	6.02e-01	0	42	0	179306496	57	4199
2026-01-30 00:34:47.22	39.14	18.07	-42.8	-44.3	24.9	6.03e-01	0	41	0	180879360	57	4222
2026-01-30 00:34:48.51	39.35	18.22	-42.8	-44.3	24.9	6.01e-01	0	41	0	182976512	57	4215
2026-01-30 00:34:49.23	39.46	18.30	-42.9	-44.3	24.9	6.03e-01	0	42	0	184549376	57	4237
2026-01-30 00:34:50.52	39.66	18.44	-42.8	-44.3	24.9	6.02e-01	0	41	0	186646528	57	4218
2026-01-30 00:34:51.23	39.78	18.52	-42.7	-44.2	25.0	6.01e-01	0	42	0	188219392	57	4180
2026-01-30 00:34:52.52	39.98	18.66	-42.7	-44.2	25.0	6.03e-01	0	41	0	190840832	57	4155
2026-01-30 00:34:53.24	40.10	18.74	-42.7	-44.2	25.0	6.04e-01	0	42	0	191889408	57	4181
2026-01-30 00:34:54.58	40.32	18.90	-42.7	-44.3	24.8	6.03e-01	0	41	0	194510848	57	4224
2026-01-30 00:34:55.29	40.44	18.98	-42.7	-44.3	24.9	6.04e-01	0	42	0	195559424	57	4199
2026-01-30 00:34:56.58	40.65	19.12	-42.7	-44.2	25.0	6.01e-01	0	42	0	198180864	57	4188
2026-01-30 00:34:57.61	40.82	19.24	-42.7	-44.2	24.9	6.05e-01	0	41	0	200278016	57	4191
2026-01-30 00:34:58.61	40.99	19.35	-42.7	-44.2	25.0	6.01e-01	0	41	0	201850880	57	4159
2026-01-30 00:34:59.61	41.16	19.47	-42.7	-44.3	24.9	6.05e-01	0	42	0	203948032	57	4199
2026-01-30 00:35:00.62	41.33	19.59	-42.7	-44.2	25.0	6.03e-01	0	41	0	206045184	57	4170
2026-01-30 00:35:01.62	41.51	19.70	-42.6	-44.1	25.1	6.03e-01	0	42	0	207618048	57	4121
2026-01-30 00:35:02.62	41.68	19.82	-42.7	-44.1	25.1	6.02e-01	0	42	0	209715200	57	4139
2026-01-30 00:35:03.64	41.86	19.93	-42.7	-44.2	25.0	6.01e-01	0	42	0	211288064	57	4163
2026-01-30 00:35:04.64	42.04	20.05	-42.8	-44.3	24.9	6.02e-01	0	41	0	213385216	57	4219
2026-01-30 00:35:05.71	42.23	20.18	-42.8	-44.3	24.9	6.03e-01	0	42	0	215482368	57	4224
2026-01-30 00:35:06.60	42.39	20.28	-42.8	-44.3	25.0	6.05e-01	0	42	0	217055232	57	4208
2026-01-30 00:35:07.92	42.63	20.43	-42.8	-44.2	25.0	6.03e-01	0	42	0	219676672	57	4182
2026-01-30 00:35:08.64	42.76	20.52	-42.8	-44.2	25.0	6.06e-01	0	42	0	220725248	57	4185
2026-01-30 00:35:10.12	43.03	20.69	-42.7	-44.1	25.1	6.02e-01	0	41	0	223870976	57	4123
2026-01-30 00:35:10.83	43.16	20.78	-42.8	-44.3	24.9	6.02e-01	0	41	0	224919552	57	4200
2026-01-30 00:35:12.12	43.40	20.93	-43.0	-44.5	24.8	6.04e-01	0	42	0	227540992	57	4292
2026-01-30 00:35:12.84	43.54	21.02	-42.9	-44.4	24.8	6.04e-01	0	42	0	228589568	57	4272
2026-01-30 00:35:14.13	43.79	21.17	-42.9	-44.4	24.9	6.04e-01	0	41	0	231211008	57	4273
2026-01-30 00:35:14.84	43.92	21.26	-42.9	-44.3	24.9	6.04e-01	0	42	0	232259584	57	4232
2026-01-30 00:35:16.13	44.17	21.41	-42.8	-44.3	25.0	6.03e-01	0	42	0	234881024	57	4208
2026-01-30 00:35:16.86	44.31	21.50	-42.8	-44.2	25.0	6.05e-01	0	41	0	236453888	57	4170
2026-01-30 00:35:18.15	44.57	21.66	-42.8	-44.3	24.9	6.03e-01	0	42	0	238551040	57	4209
2026-01-30 00:35:18.87	44.71	21.74	-42.9	-44.3	24.9	6.03e-01	0	42	0	240123904	57	4241
2026-01-30 00:35:20.15	44.96	21.90	-42.7	-44.2	25.0	6.02e-01	0	42	0	242221056	57	4164
2026-01-30 00:35:20.87	45.11	21.99	-42.7	-44.2	25.1	6.02e-01	0	42	0	243793920	57	4154
2026-01-30 00:35:22.16	45.37	22.14	-42.8	-44.3	24.9	6.02e-01	0	42	0	245891072	57	4216
2026-01-30 00:35:22.88	45.52	22.23	-42.9	-44.4	24.8	6.04e-01	0	42	0	247463936	57	4271
2026-01-30 00:35:24.18	45.79	22.39	-43.0	-44.5	24.7	6.01e-01	0	42	0	250085376	57	4304
2026-01-30 00:35:24.90	45.94	22.48	-43.0	-44.5	24.7	6.02e-01	0	42	0	251133952	57	4328
2026-01-30 00:35:26.19	46.21	22.64	-43.1	-44.5	24.7	6.04e-01	0	42	0	253755392	57	4320
2026-01-30 00:35:26.90	46.36	22.73	-43.0	-44.5	24.7	6.04e-01	0	42	0	254803968	57	4309
2026-01-30 00:35:28.19	46.63	22.88	-43.0	-44.4	24.8	6.04e-01	0	42	0	257425408	57	4287
2026-01-30 00:35:28.91	46.79	22.97	-43.1	-44.6	24.7	6.02e-01	0	42	0	258998272	57	4346
2026-01-30 00:35:30.19	47.06	23.13	-43.0	-44.4	24.8	6.00e-01	0	42	0	261095424	57	4268
2026-01-30 00:35:30.91	47.22	23.22	-42.9	-44.3	24.3	6.05e-01	0	42	0	262668288	57	4235
2026-01-30 00:35:32.20	47.51	23.38	-43.0	-44.4	24.8	6.02e-01	0	42	0	264765440	57	4287
2026-01-30 00:35:32.92	47.67	23.47	-43.1	-44.5	24.7	6.06e-01	0	42	0	266338304	57	4336
2026-01-30 00:35:34.20	47.95	23.63	-43.1	-44.6	24.6	6.03e-01	0	42	0	268959744	57	4386
2026-01-30 00:35:34.92	48.11	23.72	-43.0	-44.5	24.7	6.04e-01	0	42	0	270008320	57	4329
2026-01-30 00:35:36.21	48.41	23.89	-43.0	-44.5	24.7	6.05e-01	0	42	0	272629760	57	4331
2026-01-30 00:35:36.92	48.57	23.98	-43.1	-44.7	24.6	6.04e-01	0	42	0	273678336	57	4404
2026-01-30 00:35:38.21	48.87	24.14	-43.0	-44.6	24.6	6.05e-01	0	42	0	276299776	57	4356
2026-01-30 00:35:38.93	49.04	24.23	-43.2	-44.8	24.5	6.03e-01	0	42	0	277872640	57	4442
2026-01-30 00:35:40.22	49.34	24.39	-43.0	-44.5	24.8	6.05e-01	0	42	0	279969792	57	4302
2026-01-30 00:35:40.94	49.51	24.48	-42.9	-44.3	24.9	6.03e-01	0	42	0	281542656	57	4234
2026-01-30 00:35:42.23	49.82	24.65	-43.0	-44.5	24.8	6.07e-01	0	42	0	283639808	57	4319
2026-01-30 00:35:42.94	49.99	24.74	-43.2	-44.7	24.6	6.03e-01	0	42	0	285212672	57	4413
2026-01-30 00:35:44.23	50.30	24.90	-43.3	-44.8	24.5	6.02e-01	0	42	0	287834112	57	4455
2026-01-30 00:35:44.95	50.48	24.99	-43.1	-44.6	24.7	6.02e-01	0	42	0	288882688	57	4346
2026-01-30 00:35:46.24	50.80	25.16	-43.2	-44.7	24.6	6.04e-01	0	42	0	291504128	57	4394
2026-01-30 00:35:46.95	50.98	25.25	-43.3	-44.8	24.5	6.06e-01	0	42	0	292552704	57	4453
2026-01-30 00:35:48.24	51.30	25.41	-43.3	-44.7	24.6	6.01e-01	0	42	0	295174144	57	4437
2026-01-30 00:35:48.95	51.48	25.50	-43.1	-44.5	24.7	6.03e-01	0	42	0	296222720	57	4325
2026-01-30 00:35:50.25	51.81	25.67	-43.1	-44.5	24.7	6.02e-01	0	42	0	298844160	57	4333
2026-01-30 00:35:50.96	52.00	25.76	-43.1	-44.6	24.7	6.03e-01	0	42	0	299892736	57	4349
2026-01-30 00:35:52.25	52.33	25.93	-43.2	-44.7	24.6	6.03e-01	0	42	0	302514176	57	4402
2026-01-30 00:35:52.97	52.52	26.02	-43.1	-44.6	24.7	6.05e-01	0	42	0	304087040	57	4359
2026-01-30 00:35:54.26	52.86	26.18	-43.1	-44.6	24.7	6.05e-01	0	42	0	306184192	57	4364
2026-01-30 00:35:54.98	53.05	26.27	-43.2	-44.7	24.6	6.00e-01	0	42	0	307757056	57	4401
2026-01-30 00:35:56.27	53.40	26.44	-43.1	-44.6	24.7	6.04e-01	0	42	0	310378496	57	4370
2026-01-30 00:35:56.98	53.59	26.53	-43.1	-44.6	24.7	6.03e-01	0	42	0	311427072	57	4373
2026-01-30 00:35:58.27	53.94	26.70	-43.1	-44.5	24.8	6.02e-01	0	42	0	314048512	57	4337
2026-01-30 00:35:58.99	54.14	26.79	-43.1	-44.5	24.8	6.03e-01	0	42	0	315097088	57	4330
2026-01-30 00:36:00.28	54.50	26.95	-43.1	-44.6	24.8	5.99e-01	0	42	0	317718528	57	4345
2026-01-30 00:36:00.99	54.70	27.05	-43.1	-44.5	24.7	6.02e-01	0	42	0	318767104	57	4319
2026-01-30 00:36:02.28	55.06	27.21	-43.1	-44.6	24.7	6.05e-01	0	42	0	321388544	57	4344
2026-01-30 00:36:03.00	55.27	27.30	-43.1	-44.5	24.8	6.06e-01	0	42	0	322961408	57	4321
2026-01-30 00:36:04.28	55.63	27.47	-43.0	-44.5	24.8	6.04e-01	0	42	0	325058560	57	4306
2026-01-30 00:36:05.17	55.89	27.58	-43.0	-44.5	24.8	6.03e-01	0	42	0	326631424	57	4315
2026-01-30 00:36:06.64	56.32	27.77	-43.1	-44.6	24.7	6.02e-01	0	42	0	329777152	57	4364
2026-01-30 00:36:07.36	56.53	27.86	-43.1	-44.5	24.8	6.01e-01	0	42	0	330825728	57	4323
2026-01-30 00:36:08.83	56.97	28.05	-43.1	-44.5	24.8	6.02e-01	0	42	0	333971456	57	4334
2026-01-30 00:36:09.55	57.19	28.14	-43.0	-44.4	24.8	6.01e-01	0	42	0	335020032	57	4289
2026-01-30 00:36:10.84	57.58	28.30	-43.3	-44.7	24.5	6.02e-01	0	42	0	337641472	57	4436
2026-01-30 00:36:11.56	57.80	28.40	-43.2	-44.7	24.6	6.02e-01	0	42	0	338690048	57	4395
2026-01-30 00:36:12.84	58.19	28.56	-42.9	-44.4	24.9	6.02e-01	0	42	0	341311488	57	4253
2026-01-30 00:36:13.56	58.42	28.65	-42.9	-44.4	25.0	6.04e-01	0	42	0	342360064	57	4249
2026-01-30 00:36:14.85	58.82	28.81	-43.1	-44.6	24.7	6.07e-01	0	42	0	344981504	57	4371
2026-01-30 00:36:15.56	59.04	28.90	-43.2	-44.7	24.6	6.03e-01	0	42	0	346030080	57	4393
2026-01-30 00:36:16.85	59.45	29.06	-43.1	-44.6	24.8	6.03e-01	0	42	0	348651520	57	4341
2026-01-30 00:36:17.57	59.68	29.15	-43.1	-44.5	24.8	6.02e-01	0	42	0	350224384	57	4335
2026-01-30 00:36:18.86	60.10	29.31	-43.0	-44.4	25.0	6.05e-01	0	42	0	352321536	57	4248
2026-01-30 00:36:19.57	60.33	29.40	-43.0	-44.4	24.9	6.02e-01	0	42	0	353894400	57	4290
2026-01-30 00:36:20.86	60.75	29.56	-43.1	-44.6	24.6	6.04e-01	0	42	0	355991552	57	4362
2026-01-30 00:36:21.58	60.99	29.65	-43.1	-44.6	24.8	6.04e-01	0	42	0	357564416	57	4363
2026-01-30 00:36:22.87	61.42	29.81	-42.9	-44.3	25.0	6.02e-01	0	42	0	360185856	57	4242
2026-01-30 00:36:23.59	61.66	29.90	-42.8	-44.3	25.0	6.02e-01	0	42	0	361234432	57	4199
2026-01-30 00:36:24.87	62.10	30.06	-43.0	-44.4	24.9	6.02e-01	0	42	0	363855872	57	4277
2026-01-30 00:36:25.59	62.34	30.14	-43.1	-44.6	24.8	6.03e-01	0	42	0	364904448	57	4341
2026-01-30 00:36:26.88	62.79	30.30	-42.9	-44.3	25.0	6.03e-01	0	42	0	367525888	57	4226
2026-01-30 00:36:27.60	63.04	30.39	-43.0	-44.4	24.9	6.02e-01	0	42	0	369098752	57	4284
2026-01-30 00:36:28.89	63.49	30.54	-43.1	-44.5	24.8	6.05e-01	0	42	0	371195904	57	4324
2026-01-30 00:36:29.60	63.74	30.63	-42.9	-44.3	25.0	6.04e-01	0	42	0	372768768	57	4229
2026-01-30 00:36:30.89	64.19	30.78	-42.8	-44.2	25.1	6.03e-01	0	42	0	374865920	57	4166
2026-01-30 00:36:31.67	64.47	30.87	-42.9	-44.3	25.0	6.04e-01	0	42	0	376438784	57	4229
2026-01-30 00:36:33.28	65.05	31.06	-43.1	-44.5	24.8	6.07e-01	0	42	0	379584512	57	4331
2026-01-30 00:36:33.85	65.26	31.13	-43.0	-44.4	24.9	6.04e-01	0	42	0	380633088	57	4250
2026-01-30 00:36:35.46	65.85	31.32	-42.8	-44.2	25.1	6.04e-01	0	42	0	383778816	57	4193
2026-01-30 00:36:36.04	66.06	31.38	-42.9	-44.3	24.9	6.02e-01	0	42	0	384827392	57	4223
2026-01-30 00:36:37.62	66.65	31.57	-43.0	-44.4	24.9	6.04e-01	0	42	0	387973120	57	4278
2026-01-30 00:36:38.22	66.87	31.63	-43.0	-44.4	24.9	6.05e-01	0	42	0	389021696	57	4262
2026-01-30 00:36:39.79	67.47	31.81	-43.0	-44.5	24.9	6.03e-01	0	42	0	391643136	57	4293
2026-01-30 00:36:40.38	67.69	31.88	-43.1	-44.5	24.8	6.02e-01	0	42	0	392691712	57	4335
2026-01-30 00:36:41.96	68.30	32.05	-43.1	-44.6	24.8	6.00e-01	0	42	0	395837440	57	4353
2026-01-30 00:36:42.57	68.53	32.12	-43.0	-44.4	24.9	6.02e-01	0	42	0	396886016	57	4273
2026-01-30 00:36:44.15	69.15	32.29	-42.9	-44.4	24.9	6.05e-01	0	42	0	400031744	57	4254
2026-01-30 00:36:44.72	69.37	32.35	-42.9	-44.3	25.0	6.06e-01	0	42	0	401080320	57	4200
2026-01-30 00:36:46.31	70.00	32.52	-42.9	-44.3	25.1	6.04e-01	0	42	0	403701760	57	4204
2026-01-30 00:36:46.89	70.23	32.58	-42.8	-44.2	25.0	6.04e-01	0	42	0	405274624	57	4189
2026-01-30 00:36:48.49	70.87	32.75	-42.8	-44.2	25.1	6.01e-01	0	42	0	407896064	57	4192
2026-01-30 00:36:49.06	71.11	32.81	-42.7	-44.1	25.2	6.04e-01	0	42	0	408944640	57	4137
2026-01-30 00:36:50.66	71.76	32.97	-42.7	-44.1	25.2	6.00e-01	0	42	0	412090368	57	4137
2026-01-30 00:36:51.24	71.99	33.03	-42.8	-44.2	25.1	6.04e-01	0	42	0	413138944	57	4154
2026-01-30 00:36:52.82	72.64	33.18	-42.7	-44.0	25.3	6.02e-01	0	42	0	416284672	57	4080
2026-01-30 00:36:53.44	72.90	33.24	-42.7	-44.1	25.2	6.03e-01	0	42	0	417333248	57	4106
2026-01-30 00:36:55.01	73.56	33.40	-42.6	-43.9	25.3	6.05e-01	0	42	0	420478976	57	4048
2026-01-30 00:36:55.60	73.81	33.45	-42.5	-43.9	25.4	6.03e-01	0	42	0	421527552	57	4027
2026-01-30 00:36:57.46	74.59	33.63	-42.7	-44.1	25.1	6.03e-01	0	42	0	424673280	57	4114
2026-01-30 00:36:58.03	74.84	33.68	-42.5	-43.8	25.4	6.04e-01	0	42	0	425721856	56	4205
2026-01-30 00:36:59.61	75.52	33.82	-42.6	-44.0	25.3	6.02e-01	0	42	0	428867584	56	4308
2026-01-30 00:37:00.24	75.79	33.88	-42.8	-44.2	25.1	6.03e-01	0	42	0	429916160	56	4400
2026-01-30 00:37:01.67	76.41	34.00	-42.7	-44.1	25.2	6.01e-01	0	42	0	433061888	56	4361
2026-01-30 00:37:02.39	76.72	34.06	-42.6	-44.0	25.4	6.03e-01	0	42	0	434110464	56	4297
2026-01-30 00:37:03.68	77.29	34.17	-42.6	-44.0	25.3	6.04e-01	0	42	0	436731904	56	4298
2026-01-30 00:37:04.40	77.61	34.23	-42.5	-43.8	25.4	6.03e-01	0	42	0	437780480	56	4239
2026-01-30 00:37:05.69	78.18	34.33	-42.7	-44.0	25.3	6.07e-01	0	42	0	440401920	56	4340
2026-01-30 00:37:06.40	78.50	34.39	-42.7	-44.2	25.2	6.03e-01	0	42	0	441450496	56	4396
2026-01-30 00:37:07.69	79.07	34.49	-42.4	-43.8	25.4	6.02e-01	0	42	0	444071936	56	4218
2026-01-30 00:37:08.41	79.40	34.54	-42.4	-43.7	25.5	6.06e-01	0	42	0	445120512	56	4189
2026-01-30 00:37:09.69	79.98	34.64	-42.7	-44.1	25.2	6.03e-01	0	42	0	447741952	56	4369
2026-01-30 00:37:10.41	80.30	34.69	-42.7	-44.1	25.2	6.02e-01	0	42	0	449314816	56	4379
2026-01-30 00:37:11.70	80.89	34.78	-42.4	-43.8	25.4	6.02e-01	0	42	0	451411968	56	4222
2026-01-30 00:37:12.41	81.22	34.83	-42.5	-43.9	25.3	6.02e-01	0	42	0	452984832	56	4288
2026-01-30 00:37:13.80	81.86	34.92	-42.5	-43.8	25.4	6.03e-01	0	42	0	455606272	56	4241
2026-01-30 00:37:14.51	82.19	34.96	-42.5	-43.9	25.4	6.03e-01	0	42	0	456654848	56	4272
2026-01-30 00:37:15.80	82.79	35.05	-42.5	-44.0	25.3	6.01e-01	0	42	0	459276288	56	4321
2026-01-30 00:37:16.52	83.12	35.09	-42.5	-43.9	25.3	6.01e-01	0	42	0	460849152	56	4286
2026-01-30 00:37:17.81	83.73	35.16	-42.4	-43.8	25.5	6.00e-01	0	42	0	462946304	56	4226
2026-01-30 00:37:18.52	84.06	35.20	-42.7	-44.2	25.1	6.01e-01	0	42	0	464519168	56	4399
2026-01-30 00:37:19.81	84.67	35.28	-42.5	-43.9	25.3	6.06e-01	0	42	0	466616320	56	4276
2026-01-30 00:37:20.56	85.02	35.32	-42.4	-43.9	25.4	6.05e-01	0	42	0	468189184	56	4255
2026-01-30 00:37:21.85	85.63	35.38	-42.2	-43.7	25.6	6.02e-01	0	42	0	470810624	56	4154
2026-01-30 00:37:22.56	85.97	35.42	-42.4	-43.9	25.4	6.03e-01	0	42	0	471859200	56	4263
2026-01-30 00:37:23.85	86.59	35.48	-42.4	-43.9	25.4	6.02e-01	0	42	0	474480640	56	4249
2026-01-30 00:37:24.69	86.99	35.51	-42.4	-43.8	25.4	6.04e-01	0	42	0	476053504	56	4237
2026-01-30 00:37:25.84	87.54	35.56	-42.5	-43.9	25.3	6.05e-01	0	42	0	478150656	56	4288
2026-01-30 00:37:26.70	87.96	35.60	-42.4	-43.9	25.4	6.03e-01	0	42	0	479723520	56	4246
2026-01-30 00:37:27.85	88.51	35.64	-42.4	-43.9	25.4	6.02e-01	0	42	0	481820672	56	4258
2026-01-30 00:37:28.71	88.93	35.67	-42.6	-44.0	25.2	6.02e-01	0	42	0	483393536	56	4338
2026-01-30 00:37:29.85	89.48	35.71	-42.5	-43.8	25.5	6.06e-01	0	42	0	485490688	56	4232
2026-01-30 00:37:30.71	89.90	35.74	-42.5	-43.8	25.4	6.04e-01	0	42	0	487063552	56	4235
2026-01-30 00:37:31.86	90.46	35.77	-42.4	-43.8	25.4	6.03e-01	0	42	0	489160704	56	4226
2026-01-30 00:37:32.72	90.88	35.79	-42.6	-44.0	25.2	6.04e-01	0	42	0	491257856	56	4335
2026-01-30 00:37:33.86	91.43	35.82	-42.4	-43.8	25.5	6.02e-01	0	42	0	492830720	56	4212
2026-01-30 00:37:34.73	91.86	35.84	-42.5	-43.8	25.3	6.02e-01	0	42	0	494927872	56	4239
2026-01-30 00:37:36.09	92.53	35.87	-42.3	-43.7	25.6	6.06e-01	0	42	0	497549312	56	4147
2026-01-30 00:37:36.81	92.88	35.88	-42.2	-43.6	25.6	6.02e-01	0	42	0	498597888	56	4113
2026-01-30 00:37:38.10	93.51	35.90	-42.5	-43.9	25.4	6.03e-01	0	42	0	501219328	56	4270
2026-01-30 00:37:38.81	93.86	35.91	-42.6	-44.0	25.3	6.03e-01	0	42	0	502267904	56	4306
2026-01-30 00:37:40.10	94.50	35.92	-42.4	-43.7	25.5	6.04e-01	0	42	0	504889344	56	4180
2026-01-30 00:37:40.87	94.87	35.93	-42.3	-43.6	25.6	6.05e-01	0	42	0	506462208	56	4138
2026-01-30 00:37:42.16	95.51	35.94	-42.6	-44.0	25.2	6.01e-01	0	42	0	508559360	56	4313
2026-01-30 00:37:42.88	95.86	35.94	-42.6	-44.0	25.2	6.03e-01	0	42	0	510132224	56	4336
2026-01-30 00:37:44.17	96.50	35.94	-42.6	-43.9	25.3	6.00e-01	0	42	0	512753664	56	4273
2026-01-30 00:37:44.89	96.85	35.94	-42.4	-43.8	25.4	6.02e-01	0	42	0	513802240	56	4194
2026-01-30 00:37:46.17	97.48	35.94	-42.4	-43.8	25.4	6.05e-01	0	42	0	516423680	56	4198
2026-01-30 00:37:46.89	97.84	35.93	-42.6	-44.0	25.3	6.03e-01	0	42	0	517472256	56	4293
2026-01-30 00:37:48.18	98.47	35.92	-42.5	-43.9	25.3	6.04e-01	0	42	0	520093696	56	4264
2026-01-30 00:37:48.90	98.83	35.92	-42.5	-43.9	25.4	6.06e-01	0	42	0	521142272	56	4280
2026-01-30 00:37:50.19	99.46	35.90	-42.5	-43.8	25.4	6.04e-01	0	42	0	523763712	56	4231
2026-01-30 00:37:50.90	99.81	35.89	-42.6	-44.0	25.3	6.04e-01	0	42	0	524812288	56	4292
2026-01-30 00:37:52.27	100.48	35.87	-42.5	-43.8	25.4	6.01e-01	0	42	0	527433728	56	4236
2026-01-30 00:37:53.23	100.96	35.85	-42.2	-43.5	25.8	6.02e-01	0	42	0	529530880	56	4053
2026-01-30 00:37:54.57	101.61	35.82	-42.3	-43.6	25.7	6.03e-01	0	42	0	532152320	56	4119
2026-01-30 00:37:55.28	101.96	35.80	-42.4	-43.8	25.4	6.02e-01	0	42	0	533200896	56	4239
2026-01-30 00:37:56.57	102.59	35.77	-42.4	-43.8	25.5	6.05e-01	0	42	0	535822336	56	4217
2026-01-30 00:37:57.29	102.94	35.75	-42.6	-44.0	25.2	6.03e-01	0	42	0	536870912	56	4321
2026-01-30 00:37:58.58	103.57	35.71	-42.3	-43.6	25.7	6.03e-01	0	42	0	539492352	56	4125
2026-01-30 00:37:59.29	103.91	35.68	-42.3	-43.6	25.6	6.03e-01	0	42	0	541065216	56	4106
2026-01-30 00:38:00.59	104.54	35.64	-42.4	-43.7	25.5	6.01e-01	0	42	0	543162368	56	4175
2026-01-30 00:38:01.31	104.89	35.61	-42.4	-43.7	25.5	6.01e-01	0	42	0	544735232	56	4171
2026-01-30 00:38:02.65	105.54	35.56	-42.2	-43.5	25.7	6.05e-01	0	42	0	546832384	56	4092
2026-01-30 00:38:03.66	106.02	35.51	-42.2	-43.5	25.7	6.03e-01	0	42	0	548929536	56	4064
2026-01-30 00:38:04.99	106.66	35.45	-42.5	-43.9	25.4	6.05e-01	0	42	0	551550976	56	4260
2026-01-30 00:38:05.70	107.00	35.42	-42.4	-43.7	25.5	6.03e-01	0	42	0	552599552	56	4185
2026-01-30 00:38:06.99	107.61	35.36	-42.1	-43.3	25.9	6.05e-01	0	42	0	555220992	56	3996
2026-01-30 00:38:07.71	107.95	35.32	-42.3	-43.7	25.6	6.06e-01	0	42	0	556793856	56	4158
2026-01-30 00:38:08.99	108.56	35.25	-42.4	-43.8	25.4	6.05e-01	0	42	0	558891008	56	4209
2026-01-30 00:38:09.90	108.99	35.20	-42.4	-43.7	25.5	6.00e-01	0	42	0	560463872	56	4187
2026-01-30 00:38:10.90	109.46	35.14	-42.3	-43.6	25.7	6.05e-01	0	42	0	562561024	56	4114
2026-01-30 00:38:11.90	109.93	35.09	-42.0	-43.3	25.9	6.01e-01	0	42	0	564658176	56	3991
2026-01-30 00:38:12.90	110.39	35.02	-41.8	-43.1	26.0	6.02e-01	0	42	0	566231040	55	4113
2026-01-30 00:38:13.91	110.86	34.96	-42.0	-43.4	25.7	6.02e-01	0	42	0	568328192	55	4259
2026-01-30 00:38:14.91	111.33	34.90	-42.2	-43.5	25.6	6.02e-01	0	42	0	569901056	55	4315
2026-01-30 00:38:15.91	111.79	34.83	-42.0	-43.3	25.8	6.06e-01	0	42	0	571998208	55	4213
2026-01-30 00:38:16.96	112.27	34.76	-42.0	-43.2	25.9	6.04e-01	0	42	0	574095360	55	4183
2026-01-30 00:38:17.86	112.68	34.69	-41.9	-43.2	26.0	6.05e-01	0	42	0	575668224	55	4162
2026-01-30 00:38:19.00	113.20	34.61	-42.0	-43.3	25.8	6.05e-01	0	42	0	577765376	55	4221
2026-01-30 00:38:19.85	113.59	34.55	-41.8	-43.2	25.9	6.03e-01	0	42	0	579338240	55	4168
2026-01-30 00:38:21.00	114.10	34.46	-41.8	-43.2	26.0	6.04e-01	0	42	0	581435392	55	4147
2026-01-30 00:38:21.86	114.49	34.39	-41.9	-43.3	25.8	6.07e-01	0	42	0	583008256	55	4194
2026-01-30 00:38:23.00	115.00	34.30	-42.1	-43.4	25.7	6.03e-01	0	42	0	585105408	55	4255
2026-01-30 00:38:24.07	115.48	34.22	-41.9	-43.3	25.9	6.02e-01	0	42	0	587202560	55	4197
2026-01-30 00:38:24.93	115.86	34.15	-41.9	-43.2	25.8	6.02e-01	0	42	0	588775424	55	4180
2026-01-30 00:38:26.08	116.36	34.05	-41.8	-43.1	25.9	6.03e-01	0	42	0	590872576	55	4138
2026-01-30 00:38:26.94	116.74	33.97	-41.9	-43.1	26.0	6.06e-01	0	42	0	592445440	55	4145
2026-01-30 00:38:28.08	117.23	33.87	-41.7	-43.0	26.1	6.02e-01	0	42	0	595066880	55	4072
2026-01-30 00:38:28.94	117.61	33.80	-41.9	-43.1	25.9	6.03e-01	0	42	0	596639744	55	4134
2026-01-30 00:38:30.09	118.10	33.69	-41.7	-43.0	26.0	6.04e-01	0	42	0	598736896	55	4073
2026-01-30 00:38:30.94	118.46	33.62	-41.8	-43.1	26.0	6.05e-01	0	42	0	600309760	55	4120
2026-01-30 00:38:32.14	118.98	33.51	-41.7	-43.0	26.0	6.02e-01	0	42	0	602406912	55	4073
2026-01-30 00:38:33.00	119.34	33.42	-41.6	-42.9	26.1	6.03e-01	0	42	0	603979776	55	4008
2026-01-30 00:38:34.15	119.82	33.31	-41.6	-42.8	26.2	6.03e-01	0	42	0	606076928	55	3983
2026-01-30 00:38:35.01	120.18	33.23	-41.5	-42.8	26.1	6.02e-01	0	42	0	607649792	54	4210
2026-01-30 00:38:36.31	120.72	33.10	-41.5	-42.8	26.1	6.02e-01	0	42	0	610271232	54	4231
2026-01-30 00:38:37.03	121.02	33.03	-41.6	-42.9	26.1	6.05e-01	0	42	0	611844096	54	4267
2026-01-30 00:38:38.31	121.54	32.90	-41.6	-43.0	26.0	6.03e-01	0	42	0	613941248	54	4312
2026-01-30 00:38:39.03	121.84	32.83	-41.5	-42.8	26.1	6.02e-01	0	42	0	615514112	54	4240
2026-01-30 00:38:40.63	122.48	32.66	-41.3	-42.6	26.3	6.02e-01	0	42	0	618135552	54	4123
2026-01-30 00:38:41.22	122.72	32.60	-41.4	-42.7	26.3	6.03e-01	0	42	0	619708416	54	4155
2026-01-30 00:38:42.79	123.35	32.43	-41.6	-42.8	26.0	6.07e-01	0	42	0	622329856	54	4225
2026-01-30 00:38:43.40	123.59	32.37	-41.6	-42.8	26.2	6.04e-01	0	42	0	623378432	54	4222
2026-01-30 00:38:45.08	124.25	32.18	-41.4	-42.6	26.4	6.03e-01	0	42	0	626524160	54	4110
2026-01-30 00:38:45.65	124.47	32.12	-41.3	-42.5	26.4	6.02e-01	0	42	0	627572736	54	4064
2026-01-30 00:38:47.30	125.11	31.94	-41.4	-42.6	26.3	6.06e-01	0	42	0	630718464	54	4132
2026-01-30 00:38:47.88	125.33	31.87	-41.5	-42.7	26.2	6.04e-01	0	42	0	631767040	54	4181
2026-01-30 00:38:49.47	125.94	31.70	-41.5	-42.8	26.2	6.05e-01	0	42	0	634912768	54	4198
2026-01-30 00:38:50.04	126.15	31.63	-41.5	-42.7	26.2	6.04e-01	0	42	0	635961344	54	4173
2026-01-30 00:38:51.79	126.81	31.43	-41.3	-42.5	26.4	6.03e-01	0	42	0	639107072	54	4097
2026-01-30 00:38:52.37	127.02	31.36	-41.3	-42.6	26.4	6.05e-01	0	42	0	640155648	54	4104
2026-01-30 00:38:53.94	127.60	31.18	-41.4	-42.7	26.3	6.05e-01	0	42	0	643301376	54	4159
2026-01-30 00:38:54.52	127.82	31.11	-41.4	-42.7	26.3	6.02e-01	0	42	0	644349952	54	4149
2026-01-30 00:38:56.11	128.39	30.92	-41.4	-42.7	26.3	6.06e-01	0	42	0	647495680	54	4164
2026-01-30 00:38:57.04	128.73	30.81	-41.4	-42.7	26.2	6.00e-01	0	42	0	649068544	54	4177
2026-01-30 00:38:58.04	129.08	30.69	-41.5	-42.7	26.2	6.02e-01	0	42	0	651165696	54	4192
2026-01-30 00:38:59.04	129.44	30.57	-41.4	-42.6	26.3	6.04e-01	0	42	0	652738560	54	4143
2026-01-30 00:39:00.04	129.79	30.45	-41.4	-42.6	26.4	6.05e-01	0	42	0	654835712	54	4127
2026-01-30 00:39:01.04	130.14	30.33	-41.3	-42.6	26.3	6.01e-01	0	42	0	656408576	54	4106
2026-01-30 00:39:02.05	130.49	30.21	-41.4	-42.7	26.2	6.02e-01	0	42	0	658505728	54	4158
2026-01-30 00:39:03.05	130.83	30.09	-41.5	-42.8	26.2	6.03e-01	0	42	0	660078592	54	4228
2026-01-30 00:39:04.05	131.18	29.96	-41.5	-42.9	26.1	6.03e-01	0	42	0	662175744	54	4256
2026-01-30 00:39:05.06	131.52	29.84	-41.6	-42.9	26.0	6.02e-01	0	42	0	664272896	54	4289
2026-01-30 00:39:06.06	131.85	29.72	-41.4	-42.7	26.2	6.06e-01	0	42	0	665845760	54	4189
2026-01-30 00:39:07.06	132.19	29.59	-41.5	-42.8	26.2	6.02e-01	0	42	0	667942912	54	4201
2026-01-30 00:39:08.06	132.52	29.47	-41.6	-42.9	26.1	6.02e-01	0	42	0	669515776	54	4249
2026-01-30 00:39:09.48	132.98	29.29	-41.6	-42.9	26.0	6.03e-01	0	42	0	672661504	54	4256
2026-01-30 00:39:10.20	133.22	29.20	-41.6	-42.8	26.2	6.05e-01	0	42	0	673710080	54	4220
2026-01-30 00:39:11.48	133.63	29.04	-41.5	-42.8	26.2	6.03e-01	0	42	0	676331520	54	4211
2026-01-30 00:39:12.30	133.89	28.93	-41.8	-43.1	24.7	6.03e-01	0	42	0	677904384	54	4360
2026-01-30 00:39:13.44	134.25	28.79	-41.7	-43.0	26.0	6.03e-01	0	42	0	680001536	54	4323
2026-01-30 00:39:14.30	134.52	28.68	-41.8	-43.1	25.8	6.02e-01	0	42	0	681574400	54	4361
2026-01-30 00:39:15.45	134.88	28.53	-41.9	-43.2	25.8	6.03e-01	0	42	0	683671552	54	4408
2026-01-30 00:39:16.30	135.14	28.42	-41.8	-43.1	25.9	6.04e-01	0	42	0	685244416	54	4382
2026-01-30 00:39:17.45	135.50	28.28	-41.7	-43.0	25.9	6.02e-01	0	42	0	687341568	54	4330
2026-01-30 00:39:18.31	135.76	28.17	-41.8	-43.1	25.9	6.05e-01	0	42	0	688914432	54	4360
2026-01-30 00:39:19.46	136.11	28.02	-41.8	-43.1	25.9	6.02e-01	0	42	0	691011584	54	4364
2026-01-30 00:39:20.32	136.36	27.91	-41.7	-43.0	26.0	6.05e-01	0	42	0	692584448	54	4329
2026-01-30 00:39:21.46	136.70	27.76	-41.8	-43.0	26.0	6.02e-01	0	42	0	694681600	54	4332
2026-01-30 00:39:22.32	136.96	27.65	-41.9	-43.2	25.8	6.03e-01	0	42	0	696778752	54	4416
2026-01-30 00:39:23.64	137.34	27.48	-41.9	-43.3	25.8	6.02e-01	0	42	0	698875904	54	4447
2026-01-30 00:39:24.35	137.55	27.39	-41.9	-43.2	25.7	6.06e-01	0	42	0	700448768	54	4428
2026-01-30 00:39:25.84	137.97	27.20	-41.9	-43.2	25.8	6.01e-01	0	42	0	703070208	54	4413
2026-01-30 00:39:26.55	138.18	27.11	-41.8	-43.1	25.8	6.02e-01	0	42	0	704643072	54	4385
2026-01-30 00:39:27.84	138.54	26.94	-42.0	-43.4	25.6	6.03e-01	0	42	0	706740224	54	4508
2026-01-30 00:39:28.56	138.74	26.85	-42.1	-43.5	25.6	6.03e-01	0	42	0	708313088	54	4546
2026-01-30 00:39:29.85	139.10	26.68	-42.1	-43.4	25.6	6.03e-01	0	42	0	710410240	54	4523
2026-01-30 00:39:30.56	139.29	26.59	-42.1	-43.4	25.5	6.04e-01	0	42	0	711983104	54	4535
2026-01-30 00:39:31.85	139.65	26.42	-42.1	-43.5	25.5	6.03e-01	0	42	0	714080256	55	4301
2026-01-30 00:39:32.57	139.84	26.33	-42.3	-43.6	25.4	6.04e-01	0	42	0	715653120	55	4371
2026-01-30 00:39:33.85	140.19	26.17	-42.3	-43.7	25.3	6.06e-01	0	42	0	718274560	55	4414
2026-01-30 00:39:34.57	140.38	26.07	-42.2	-43.5	25.4	6.02e-01	0	42	0	719323136	55	4330
2026-01-30 00:39:35.86	140.72	25.91	-41.9	-43.3	25.7	6.07e-01	0	42	0	721944576	55	4204
2026-01-30 00:39:36.58	140.91	25.81	-41.8	-43.1	25.8	6.05e-01	0	42	0	722993152	55	4138
2026-01-30 00:39:37.86	141.24	25.65	-41.8	-43.2	25.8	6.04e-01	0	42	0	725614592	55	4164
2026-01-30 00:39:38.58	141.42	25.56	-42.0	-43.3	25.6	6.03e-01	0	42	0	727187456	55	4240
2026-01-30 00:39:39.87	141.75	25.39	-42.1	-43.5	25.5	6.01e-01	0	42	0	729284608	55	4309
2026-01-30 00:39:40.58	141.93	25.30	-42.1	-43.5	25.5	6.04e-01	0	42	0	730857472	55	4323
2026-01-30 00:39:41.87	142.26	25.13	-42.2	-43.6	25.5	6.04e-01	0	42	0	732954624	55	4348
2026-01-30 00:39:42.59	142.44	25.04	-42.0	-43.5	25.5	6.07e-01	0	42	0	734527488	55	4304
2026-01-30 00:39:43.87	142.75	24.88	-42.0	-43.4	25.5	6.05e-01	0	42	0	737148928	55	4268
2026-01-30 00:39:44.59	142.93	24.78	-42.0	-43.4	25.6	6.00e-01	0	42	0	738197504	55	4262
2026-01-30 00:39:45.88	143.24	24.62	-42.0	-43.4	25.6	6.03e-01	0	42	0	740818944	55	4259
2026-01-30 00:39:46.61	143.42	24.52	-42.0	-43.4	25.5	6.04e-01	0	42	0	741867520	55	4283
2026-01-30 00:39:48.08	143.77	24.34	-42.0	-43.5	25.5	6.03e-01	0	42	0	745013248	55	4333
2026-01-30 00:39:49.06	144.00	24.21	-42.2	-43.7	25.3	6.03e-01	0	42	0	746586112	55	4420
2026-01-30 00:39:50.06	144.23	24.09	-42.2	-43.6	25.3	6.04e-01	0	42	0	748683264	55	4375
2026-01-30 00:39:51.06	144.47	23.96	-42.2	-43.6	25.4	6.06e-01	0	42	0	750256128	55	4370
2026-01-30 00:39:52.06	144.70	23.83	-42.2	-43.5	25.5	6.06e-01	0	42	0	752353280	55	4339
2026-01-30 00:39:53.07	144.93	23.70	-42.2	-43.6	25.4	6.03e-01	0	42	0	753926144	55	4363
2026-01-30 00:39:54.07	145.15	23.58	-42.4	-43.7	25.3	6.04e-01	0	42	0	756023296	55	4437
2026-01-30 00:39:55.08	145.38	23.45	-42.3	-43.7	25.3	6.04e-01	0	42	0	758120448	55	4398
2026-01-30 00:39:56.08	145.60	23.32	-42.3	-43.7	25.2	6.03e-01	0	42	0	759693312	55	4440
2026-01-30 00:39:57.17	145.85	23.19	-42.3	-43.8	25.2	6.04e-01	0	42	0	761790464	55	4465
2026-01-30 00:39:58.06	146.04	23.08	-42.1	-43.6	25.3	6.03e-01	0	42	0	763363328	55	4361
2026-01-30 00:39:59.20	146.29	22.93	-42.1	-43.6	25.3	6.03e-01	0	42	0	765460480	55	4383
2026-01-30 00:40:00.06	146.47	22.83	-42.1	-43.6	25.4	6.05e-01	0	42	0	767033344	55	4344
2026-01-30 00:40:01.21	146.72	22.68	-42.1	-43.6	25.2	6.01e-01	0	42	0	769130496	55	4369
2026-01-30 00:40:02.07	146.90	22.58	-42.0	-43.6	25.3	6.04e-01	0	42	0	771227648	55	4386
2026-01-30 00:40:03.22	147.14	22.43	-41.9	-43.6	25.4	6.03e-01	0	42	0	773324800	55	4343
2026-01-30 00:40:04.08	147.32	22.33	-42.0	-43.6	22.4	6.02e-01	0	42	0	774897664	55	4348
2026-01-30 00:40:05.22	147.56	22.19	-42.0	-43.5	25.4	6.03e-01	0	42	0	776994816	55	4331
2026-01-30 00:40:06.08	147.74	22.08	-42.1	-43.5	25.4	6.02e-01	0	42	0	778567680	55	4339
2026-01-30 00:40:07.22	147.97	21.94	-42.1	-43.6	25.4	6.01e-01	0	42	0	780664832	55	4365
2026-01-30 00:40:08.09	148.14	21.83	-42.2	-43.6	25.4	6.04e-01	0	42	0	782237696	55	4365
2026-01-30 00:40:09.23	148.37	21.69	-42.1	-43.5	25.5	6.04e-01	0	42	0	784334848	55	4296
2026-01-30 00:40:10.09	148.54	21.59	-42.0	-43.3	25.6	6.04e-01	0	42	0	785907712	55	4238
2026-01-30 00:40:11.25	148.77	21.45	-42.0	-43.3	25.6	6.00e-01	0	42	0	788004864	55	4237
2026-01-30 00:40:12.11	148.94	21.34	-42.0	-43.4	25.6	6.05e-01	0	42	0	789577728	55	4246
2026-01-30 00:40:13.26	149.16	21.20	-42.1	-43.4	25.5	6.01e-01	0	42	0	792199168	55	4286
2026-01-30 00:40:14.12	149.33	21.10	-42.1	-43.5	25.4	6.01e-01	0	42	0	793772032	55	4325
2026-01-30 00:40:15.34	149.56	20.95	-42.1	-43.5	25.4	6.01e-01	0	42	0	795869184	55	4318
2026-01-30 00:40:16.20	149.72	20.85	-42.1	-43.5	25.4	6.02e-01	0	42	0	797442048	55	4336
2026-01-30 00:40:17.35	149.94	20.71	-42.0	-43.4	25.6	6.02e-01	0	42	0	799539200	55	4261
2026-01-30 00:40:18.21	150.10	20.61	-42.1	-43.5	25.5	6.05e-01	0	42	0	801112064	55	4310
2026-01-30 00:40:19.43	150.33	20.46	-42.1	-43.5	25.5	6.04e-01	0	42	0	803733504	55	4316
2026-01-30 00:40:20.29	150.48	20.36	-42.1	-43.5	25.5	6.04e-01	0	42	0	805306368	55	4313
2026-01-30 00:40:21.53	150.71	20.22	-42.2	-43.6	25.3	6.02e-01	0	42	0	807403520	55	4382
2026-01-30 00:40:22.39	150.86	20.11	-42.0	-43.5	25.4	6.05e-01	0	42	0	808976384	55	4322
2026-01-30 00:40:23.53	151.07	19.98	-41.9	-43.4	25.6	6.02e-01	0	42	0	811073536	55	4256
2026-01-30 00:40:24.39	151.22	19.88	-41.9	-43.3	25.6	6.04e-01	0	42	0	812646400	55	4230
2026-01-30 00:40:25.54	151.42	19.74	-41.9	-43.4	25.5	6.03e-01	0	42	0	815267840	55	4249
2026-01-30 00:40:26.39	151.57	19.65	-42.1	-43.5	25.4	6.05e-01	0	42	0	816840704	55	4312
2026-01-30 00:40:27.54	151.77	19.51	-42.1	-43.5	25.5	6.07e-01	0	42	0	818937856	55	4316
2026-01-30 00:40:28.40	151.92	19.41	-42.1	-43.5	25.4	6.04e-01	0	42	0	820510720	55	4320
2026-01-30 00:40:29.54	152.11	19.28	-42.1	-43.5	25.4	6.04e-01	0	42	0	822607872	55	4301
2026-01-30 00:40:30.40	152.26	19.18	-42.0	-43.4	25.4	6.02e-01	0	42	0	824180736	55	4263
2026-01-30 00:40:31.54	152.45	19.05	-42.0	-43.5	25.4	6.03e-01	0	42	0	826277888	55	4292
2026-01-30 00:40:32.40	152.59	18.95	-42.0	-43.5	25.5	6.03e-01	0	42	0	827850752	55	4306
2026-01-30 00:40:33.55	152.78	18.82	-42.0	-43.4	25.5	6.05e-01	0	42	0	829947904	55	4291
2026-01-30 00:40:34.41	152.92	18.72	-42.0	-43.5	25.4	6.01e-01	0	42	0	831520768	55	4308
2026-01-30 00:40:35.55	153.11	18.59	-42.1	-43.5	25.3	6.02e-01	0	42	0	833617920	55	4340
2026-01-30 00:40:36.41	153.25	18.50	-42.1	-43.5	25.4	6.04e-01	0	42	0	835190784	55	4326
2026-01-30 00:40:37.55	153.43	18.37	-42.0	-43.4	25.5	6.02e-01	0	42	0	837287936	55	4264
2026-01-30 00:40:38.41	153.57	18.27	-42.0	-43.3	25.5	6.03e-01	0	42	0	838860800	55	4228
2026-01-30 00:40:39.65	153.76	18.13	-42.1	-43.5	25.4	6.01e-01	0	42	0	841482240	55	4301
2026-01-30 00:40:40.50	153.90	18.04	-41.9	-43.3	25.6	6.04e-01	0	42	0	843055104	55	4204
2026-01-30 00:40:41.65	154.07	17.91	-41.8	-43.2	25.7	6.06e-01	0	42	0	845152256	55	4152
2026-01-30 00:40:42.51	154.21	17.81	-41.8	-43.2	25.7	6.02e-01	0	42	0	846725120	55	4160
2026-01-30 00:40:43.65	154.38	17.69	-41.9	-43.3	25.6	6.04e-01	0	42	0	848822272	55	4218
2026-01-30 00:40:44.51	154.51	17.59	-41.8	-43.3	25.6	6.02e-01	0	42	0	850395136	55	4194
2026-01-30 00:40:45.66	154.69	17.47	-41.7	-43.1	25.7	6.06e-01	0	42	0	852492288	55	4142
2026-01-30 00:40:46.51	154.81	17.37	-41.9	-43.3	25.6	6.04e-01	0	42	0	854065152	55	4218
2026-01-30 00:40:47.66	154.98	17.25	-42.0	-43.4	25.5	6.05e-01	0	42	0	856686592	55	4262
2026-01-30 00:40:48.61	155.12	17.15	-41.8	-43.2	25.6	6.03e-01	0	42	0	858259456	55	4181
2026-01-30 00:40:49.79	155.30	17.02	-41.9	-43.3	25.5	6.06e-01	0	42	0	860356608	55	4208
2026-01-30 00:40:50.65	155.42	16.93	-41.9	-43.4	25.4	6.07e-01	0	42	0	861929472	55	4271
2026-01-30 00:40:52.00	155.62	16.78	-42.0	-43.5	25.4	6.03e-01	0	42	0	864550912	55	4320
2026-01-30 00:40:52.72	155.72	16.70	-41.9	-43.4	25.4	6.04e-01	0	42	0	866123776	55	4284
2026-01-30 00:40:54.01	155.90	16.57	-41.8	-43.4	25.5	6.03e-01	0	42	0	868220928	55	4248
2026-01-30 00:40:54.72	156.00	16.49	-41.8	-43.4	25.5	6.06e-01	0	42	0	869793792	55	4261
2026-01-30 00:40:56.01	156.18	16.35	-41.8	-43.4	25.5	6.06e-01	0	42	0	871890944	55	4255
2026-01-30 00:40:56.72	156.28	16.28	-41.9	-43.4	25.5	6.00e-01	0	42	0	873463808	55	4282
2026-01-30 00:40:58.01	156.46	16.14	-41.9	-43.5	25.4	6.05e-01	0	42	0	876085248	55	4316
2026-01-30 00:40:58.72	156.56	16.07	-42.0	-43.5	21.5	6.01e-01	0	42	0	877133824	55	4334
2026-01-30 00:41:00.01	156.73	15.93	-41.9	-43.4	25.5	6.07e-01	0	42	0	879755264	55	4265
2026-01-30 00:41:00.73	156.83	15.86	-41.9	-43.4	25.5	6.03e-01	0	42	0	880803840	55	4265
2026-01-30 00:41:02.01	157.00	15.72	-41.9	-43.4	25.5	6.04e-01	0	42	0	883425280	55	4254
2026-01-30 00:41:02.73	157.09	15.65	-41.8	-43.3	25.5	6.01e-01	0	42	0	884998144	55	4235
2026-01-30 00:41:04.11	157.28	15.51	-41.8	-43.3	25.5	6.05e-01	0	42	0	887095296	55	4213
2026-01-30 00:41:04.83	157.37	15.43	-41.8	-43.3	25.5	6.02e-01	0	42	0	888668160	55	4208
2026-01-30 00:41:06.17	157.54	15.30	-41.9	-43.4	25.4	6.05e-01	0	42	0	891289600	55	4272
2026-01-30 00:41:06.88	157.64	15.22	-41.9	-43.4	25.4	6.06e-01	0	42	0	892338176	55	4256
2026-01-30 00:41:08.17	157.80	15.09	-41.9	-43.4	25.4	6.05e-01	0	42	0	894959616	55	4275
2026-01-30 00:41:08.88	157.89	15.02	-42.0	-43.5	25.3	6.03e-01	0	42	0	896532480	55	4319
2026-01-30 00:41:10.16	158.05	14.89	-41.9	-43.4	25.4	6.04e-01	0	42	0	898629632	55	4257
2026-01-30 00:41:11.29	158.19	14.78	-42.0	-43.5	25.3	6.06e-01	0	42	0	900726784	55	4298
2026-01-30 00:41:12.15	158.30	14.69	-42.0	-43.4	25.4	6.02e-01	0	42	0	902299648	55	4289
2026-01-30 00:41:13.29	158.44	14.58	-42.1	-43.6	25.3	6.03e-01	0	42	0	904396800	55	4348
2026-01-30 00:41:14.15	158.55	14.49	-42.1	-43.6	25.2	6.04e-01	0	42	0	905969664	55	4369
2026-01-30 00:41:15.30	158.69	14.38	-42.1	-43.6	25.1	6.03e-01	0	42	0	908066816	55	4376
2026-01-30 00:41:16.16	158.79	14.29	-42.1	-43.5	25.3	6.01e-01	0	42	0	909639680	55	4340
2026-01-30 00:41:17.30	158.93	14.18	-42.1	-43.6	25.2	6.01e-01	0	42	0	912261120	55	4348
2026-01-30 00:41:18.16	159.03	14.09	-42.1	-43.5	25.3	6.09e-01	0	42	0	913833984	55	4323
2026-01-30 00:41:19.30	159.17	13.98	-42.1	-43.5	25.3	6.01e-01	0	42	0	915931136	55	4319
2026-01-30 00:41:20.16	159.27	13.90	-42.1	-43.6	25.2	6.02e-01	0	42	0	917504000	55	4354
2026-01-30 00:41:21.31	159.40	13.79	-42.2	-43.6	25.2	6.03e-01	0	42	0	919601152	55	4351
2026-01-30 00:41:22.17	159.50	13.70	-42.2	-43.6	25.2	6.04e-01	0	42	0	921174016	55	4371
2026-01-30 00:41:23.62	159.67	13.56	-42.2	-43.6	25.2	6.03e-01	0	42	0	923795456	55	4373
2026-01-30 00:41:24.33	159.75	13.49	-42.2	-43.6	25.2	6.02e-01	0	42	0	925368320	55	4368
2026-01-30 00:41:25.62	159.90	13.37	-42.1	-43.6	25.2	6.02e-01	0	42	0	927465472	55	4373
2026-01-30 00:41:26.34	159.98	13.30	-42.1	-43.6	25.2	6.06e-01	0	42	0	929038336	55	4368
2026-01-30 00:41:27.63	160.12	13.18	-42.1	-43.7	25.1	6.02e-01	0	42	0	931659776	55	4401
2026-01-30 00:41:28.35	160.20	13.11	-42.1	-43.6	25.2	6.04e-01	0	42	0	932708352	55	4361
2026-01-30 00:41:29.64	160.34	12.99	-42.1	-43.7	25.1	6.04e-01	0	42	0	935329792	55	4400
2026-01-30 00:41:30.36	160.42	12.92	-42.2	-43.7	24.8	6.06e-01	0	42	0	936378368	55	4393
2026-01-30 00:41:31.65	160.56	12.80	-42.2	-43.7	25.1	6.02e-01	0	42	0	938999808	55	4419
2026-01-30 00:41:32.57	160.66	12.71	-42.2	-43.7	25.1	6.03e-01	0	42	0	940572672	55	4418
2026-01-30 00:41:33.57	160.77	12.62	-42.1	-43.6	25.1	6.05e-01	0	42	0	942669824	55	4377
2026-01-30 00:41:34.57	160.88	12.53	-42.3	-43.8	25.0	6.01e-01	0	42	0	944242688	55	4461
2026-01-30 00:41:35.58	160.99	12.43	-42.3	-43.8	25.0	6.06e-01	0	42	0	946339840	55	4465
2026-01-30 00:41:36.58	161.09	12.34	-42.2	-43.8	25.0	6.02e-01	0	42	0	948436992	55	4448
2026-01-30 00:41:37.58	161.20	12.25	-42.3	-43.8	25.0	6.00e-01	0	42	0	950009856	55	4452
2026-01-30 00:41:38.59	161.30	12.16	-42.3	-43.8	24.9	6.02e-01	0	42	0	952107008	55	4463
2026-01-30 00:41:39.59	161.41	12.06	-42.3	-43.8	24.9	5.98e-01	0	42	0	953679872	55	4472
2026-01-30 00:41:40.59	161.51	11.97	-42.3	-43.8	25.0	5.99e-01	0	42	0	955777024	55	4484
2026-01-30 00:41:41.59	161.61	11.88	-42.3	-43.8	24.9	6.03e-01	0	42	0	957349888	55	4461
2026-01-30 00:41:42.71	161.72	11.78	-42.4	-43.9	24.9	6.00e-01	0	42	0	959447040	55	4503
2026-01-30 00:41:43.58	161.81	11.70	-42.4	-43.9	24.9	6.04e-01	0	42	0	961544192	55	4496
2026-01-30 00:41:44.73	161.93	11.60	-42.5	-44.0	24.2	6.02e-01	0	42	0	963641344	55	4568
2026-01-30 00:41:45.63	162.02	11.52	-42.5	-44.0	24.7	6.03e-01	0	42	0	965214208	55	4583
2026-01-30 00:41:46.80	162.13	11.41	-42.4	-43.9	24.8	6.02e-01	0	42	0	967311360	55	4522
2026-01-30 00:41:47.67	162.22	11.34	-42.4	-43.9	24.8	6.06e-01	0	42	0	968884224	55	4510
2026-01-30 00:41:48.82	162.33	11.23	-42.5	-44.0	24.7	6.04e-01	0	42	0	970981376	55	4589
2026-01-30 00:41:49.68	162.41	11.16	-42.5	-44.0	24.7	6.04e-01	0	42	0	972554240	55	4597
2026-01-30 00:41:50.82	162.52	11.06	-42.5	-44.0	24.7	6.04e-01	0	42	0	975175680	55	4597
2026-01-30 00:41:51.68	162.61	10.98	-42.5	-44.1	24.6	6.03e-01	0	42	0	976748544	55	4627
2026-01-30 00:41:52.83	162.71	10.88	-42.5	-44.1	24.6	6.03e-01	0	42	0	978845696	55	4649
2026-01-30 00:41:53.69	162.80	10.81	-42.5	-44.1	24.6	6.05e-01	0	42	0	980418560	55	4631
2026-01-30 00:41:54.83	162.90	10.71	-42.5	-44.1	24.5	6.05e-01	0	42	0	982515712	55	4647
2026-01-30 00:41:55.69	162.98	10.63	-42.5	-44.2	24.5	6.04e-01	0	42	0	984088576	55	4665
2026-01-30 00:41:56.84	163.09	10.53	-42.6	-44.3	24.5	6.03e-01	0	42	0	986185728	55	4707
2026-01-30 00:41:57.69	163.17	10.46	-42.6	-44.3	24.4	6.03e-01	0	42	0	987758592	55	4732
2026-01-30 00:41:58.83	163.27	10.36	-42.6	-44.2	24.5	6.02e-01	0	42	0	989855744	55	4692
2026-01-30 00:41:59.71	163.35	10.28	-42.7	-44.3	24.5	6.03e-01	0	42	0	991428608	56	4485
2026-01-30 00:42:01.03	163.47	10.17	-42.8	-44.5	24.3	6.04e-01	0	42	0	994050048	56	4549
2026-01-30 00:42:01.75	163.54	10.11	-42.8	-44.4	24.4	6.03e-01	0	42	0	995622912	56	4513
2026-01-30 00:42:03.24	163.67	9.98	-42.8	-44.4	24.4	6.03e-01	0	42	0	998244352	56	4522
2026-01-30 00:42:03.96	163.74	9.92	-42.9	-44.5	24.3	6.02e-01	0	42	0	999292928	56	4592
2026-01-30 00:42:05.24	163.85	9.82	-43.0	-44.6	24.2	6.01e-01	0	42	0	1001914368	57	4378
2026-01-30 00:42:05.96	163.91	9.76	-43.0	-44.7	24.1	6.04e-01	0	42	0	1003487232	57	4420
2026-01-30 00:42:07.25	164.02	9.65	-43.0	-44.7	24.1	6.02e-01	0	42	0	1005584384	57	4430
2026-01-30 00:42:07.97	164.09	9.59	-43.0	-44.8	24.1	6.03e-01	0	42	0	1007157248	57	4450
2026-01-30 00:42:09.26	164.20	9.48	-42.9	-44.7	24.1	6.03e-01	0	42	0	1009254400	57	4427
2026-01-30 00:42:09.98	164.26	9.42	-42.9	-44.9	23.9	6.03e-01	0	42	0	1010827264	57	4510
2026-01-30 00:42:11.27	164.37	9.31	-42.7	-44.8	24.0	6.02e-01	0	42	0	1013448704	57	4450
2026-01-30 00:42:11.98	164.43	9.25	-42.6	-44.8	24.0	6.04e-01	0	42	0	1014497280	57	4475
2026-01-30 00:42:13.27	164.54	9.15	-42.5	-44.9	23.8	6.04e-01	0	42	0	1017118720	57	4538
2026-01-30 00:42:13.98	164.60	9.09	-42.4	-45.0	23.8	6.02e-01	0	42	0	1018167296	56	4839
2026-01-30 00:42:15.27	164.70	8.99	-42.3	-45.0	23.7	6.02e-01	0	42	0	1020788736	56	4833
2026-01-30 00:42:15.99	164.76	8.93	-49.7	-68.7	4.6	7.70e-01	0	42	104	1021837312	69	35220
2026-01-30 00:42:17.28	164.87	8.82	-50.2	-70.0	3.8	7.46e-01	0	42	104	1021837312	71	36175
2026-01-30 00:42:18.00	164.93	8.76	-50.4	-70.2	3.8	7.49e-01	0	42	104	1021837312	71	37063
2026-01-30 00:42:19.29	165.03	8.66	-50.7	-70.3	3.8	7.46e-01	0	42	104	1021837312	72	35307
2026-01-30 00:42:20.00	165.09	8.60	-50.6	-70.4	3.8	7.45e-01	0	42	104	1021837312	72	36028
2026-01-30 00:42:21.30	165.20	8.50	-51.0	-70.6	3.8	7.44e-01	0	42	104	1021837312	73	34535
2026-01-30 00:42:22.01	165.25	8.44	-51.0	-70.6	3.8	7.46e-01	0	42	104	1021837312	73	34546
2026-01-30 00:42:23.30	165.36	8.34	-50.5	-70.6	3.7	7.46e-01	0	42	104	1021837312	72	36870
2026-01-30 00:42:24.01	165.41	8.28	-51.1	-70.7	3.8	7.48e-01	0	42	104	1021837312	73	34925
2026-01-30 00:42:25.30	165.51	8.18	-51.3	-70.7	3.8	7.45e-01	0	42	104	1021837312	73	34970
2026-01-30 00:42:26.02	165.57	8.12	-51.5	-70.6	3.8	7.46e-01	0	42	104	1021837312	73	34861
2026-01-30 00:42:27.31	165.67	8.02	-51.5	-70.7	3.8	7.46e-01	0	42	104	1021837312	73	35215
2026-01-30 00:42:28.03	165.72	7.96	-51.1	-70.7	3.8	7.47e-01	0	42	104	1021837312	73	35227
2026-01-30 00:42:29.32	165.82	7.86	-51.4	-70.7	3.8	7.43e-01	0	42	104	1021837312	73	35140
2026-01-30 00:42:30.04	165.88	7.81	-50.5	-70.7	3.8	7.44e-01	0	42	104	1021837312	72	37315
2026-01-30 00:42:31.33	165.98	7.71	-51.6	-70.8	3.8	7.48e-01	0	42	104	1021837312	74	33324
2026-01-30 00:42:32.04	166.03	7.65	-51.0	-70.8	3.8	7.43e-01	0	42	104	1021837312	73	35372
2026-01-30 00:42:33.33	166.13	7.55	-51.2	-70.7	3.8	7.44e-01	0	42	104	1021837312	73	35254
2026-01-30 00:42:34.05	166.18	7.50	-50.4	-70.5	3.8	7.49e-01	0	42	104	1021837312	72	36451
2026-01-30 00:42:35.34	166.28	7.40	-51.5	-70.5	3.8	7.45e-01	0	42	104	1021837312	73	34333
2026-01-30 00:42:36.06	166.33	7.34	-51.0	-70.7	3.8	7.47e-01	0	42	104	1021837312	73	35138
2026-01-30 00:42:37.35	166.43	7.24	-51.2	-70.8	3.8	7.44e-01	0	42	104	1021837312	73	35297
2026-01-30 00:42:38.07	166.48	7.19	-51.1	-70.7	3.8	7.46e-01	0	42	104	1021837312	74	33199
2026-01-30 00:42:39.36	166.57	7.09	-51.6	-70.7	3.8	7.45e-01	0	42	104	1021837312	74	33203
2026-01-30 00:42:40.08	166.62	7.04	-51.4	-70.7	3.8	7.45e-01	0	42	104	1021837312	74	33164
2026-01-30 00:42:41.36	166.72	6.94	-51.3	-70.7	3.8	7.45e-01	0	42	104	1021837312	73	35031
2026-01-30 00:42:42.08	166.77	6.88	-51.1	-70.7	3.8	7.44e-01	0	42	104	1021837312	72	36976
2026-01-30 00:42:43.37	166.86	6.79	-50.9	-70.7	3.8	7.45e-01	0	42	104	1021837312	73	34892
2026-01-30 00:42:44.09	166.91	6.73	-51.1	-70.6	3.8	7.48e-01	0	42	104	1021837312	73	34660
2026-01-30 00:42:45.38	167.00	6.64	-51.2	-70.6	3.8	7.47e-01	0	42	104	1021837312	73	34662
2026-01-30 00:42:46.10	167.05	6.58	-51.2	-70.6	3.8	7.44e-01	0	42	104	1021837312	73	34491
2026-01-30 00:42:47.39	167.14	6.49	-51.1	-70.4	3.8	7.45e-01	0	42	104	1021837312	73	34075
2026-01-30 00:42:48.11	167.19	6.43	-51.0	-70.4	3.8	7.47e-01	0	42	104	1021837312	73	34021
2026-01-30 00:42:49.40	167.28	6.34	-50.7	-70.3	3.8	7.45e-01	0	42	104	1021837312	73	33352
2026-01-30 00:42:50.12	167.33	6.29	-50.6	-70.1	3.8	7.46e-01	0	42	104	1021837312	73	32744
2026-01-30 00:42:51.40	167.42	6.19	-50.1	-70.0	3.8	7.48e-01	0	42	104	1021837312	72	34235
2026-01-30 00:42:52.12	167.46	6.14	-50.1	-70.0	3.8	7.49e-01	0	42	104	1021837312	72	34158
2026-01-30 00:42:53.41	167.55	6.04	-50.1	-70.0	3.8	7.41e-01	0	42	104	1021837312	72	34132
2026-01-30 00:42:54.13	167.60	5.99	-50.1	-69.9	3.8	7.46e-01	0	42	104	1021837312	72	34052
2026-01-30 00:42:55.42	167.69	5.90	-50.1	-69.9	3.8	7.45e-01	0	42	104	1021837312	72	34076
2026-01-30 00:42:56.14	167.73	5.85	-50.1	-69.9	3.8	7.50e-01	0	42	104	1021837312	72	34040
2026-01-30 00:42:57.43	167.82	5.75	-50.1	-69.9	3.8	7.44e-01	0	42	104	1021837312	72	34034
2026-01-30 00:42:58.15	167.87	5.70	-50.1	-69.9	3.8	7.45e-01	0	42	104	1021837312	72	33938
2026-01-30 00:42:59.43	167.95	5.61	-50.0	-69.9	3.8	7.44e-01	0	42	104	1021837312	72	33989
2026-01-30 00:43:00.15	168.00	5.56	-50.1	-69.9	3.8	7.45e-01	0	42	104	1021837312	72	34004
2026-01-30 00:43:01.44	168.08	5.46	-50.1	-69.9	3.8	7.44e-01	0	43	104	1021837312	72	33952
2026-01-30 00:43:02.16	168.13	5.41	-50.1	-69.9	3.8	7.45e-01	0	42	104	1021837312	72	34073
2026-01-30 00:43:03.45	168.21	5.32	-50.1	-69.9	3.8	7.46e-01	0	42	104	1021837312	72	33999
2026-01-30 00:43:04.17	168.25	5.27	-50.0	-69.9	3.8	7.49e-01	0	42	104	1021837312	72	33985
2026-01-30 00:43:05.46	168.34	5.18	-50.0	-69.9	3.8	7.48e-01	0	42	104	1021837312	72	34003
2026-01-30 00:43:06.18	168.38	5.13	-50.0	-69.9	3.8	7.47e-01	0	42	104	1021837312	72	34017
2026-01-30 00:43:07.47	168.46	5.04	-50.1	-69.9	3.8	7.45e-01	0	42	104	1021837312	72	33977
2026-01-30 00:43:08.18	168.51	4.99	-50.0	-69.9	3.8	7.47e-01	0	42	104	1021837312	72	33974

#Closed at: 2026-01-30 00:43:09
#Recorded file [1021 MB]: D:/Data/31040_260130_033219.dat