passes_logs/2026/01/30/T1/T1__20260130_112618_SUOMI_NPP_rec.log

#Pass ID: 20260130_112618_SUOMI NPP
#Satellite: SUOMI NPP
#Configuration: NPP
#almurnet v.1.7.20251203
#Start time: 2026-01-30 11:26:18

#Version: 2.0.20230620
#Station: T1
#Location: 37.570604 lon 55.790049 lat
#TLE: 1 37849U 11061A   26029.48304708  .00000140  00000+0  87283-4 0  9999
#TLE: 2 37849  98.7824 331.4079 0002024  38.4342 321.6978 14.19531488738761

#Time	Az	El	Level	Level2	SNR	BER	BlckErr	Temp	State	Recorded	gain1	gain2
2026-01-30 11:26:18.64	207.05	5.03	-51.0	-65.6	3.8	1.49e+00	0	40	0	0	73	19439
2026-01-30 11:26:19.63	207.13	5.09	-51.5	-65.7	3.8	1.49e+00	0	41	104	0	74	18601
2026-01-30 11:26:20.64	207.21	5.15	-51.5	-65.7	3.8	1.49e+00	0	41	104	0	74	18612
2026-01-30 11:26:21.64	207.29	5.22	-51.1	-65.7	3.8	1.49e+00	0	41	104	0	74	18585
2026-01-30 11:26:22.64	207.38	5.28	-51.3	-65.7	3.8	1.49e+00	0	41	104	0	74	18720
2026-01-30 11:26:23.65	207.46	5.34	-51.5	-65.7	3.8	1.49e+00	0	41	104	0	74	18707
2026-01-30 11:26:24.65	207.54	5.40	-51.2	-65.7	3.8	1.49e+00	0	41	104	0	74	18698
2026-01-30 11:26:25.65	207.62	5.46	-51.4	-65.7	3.8	1.49e+00	0	41	104	0	74	18578
2026-01-30 11:26:26.66	207.71	5.53	-51.4	-65.7	3.8	1.49e+00	0	41	104	0	74	18578
2026-01-30 11:26:27.66	207.79	5.59	-51.2	-65.6	3.8	1.49e+00	0	41	104	0	74	18477
2026-01-30 11:26:28.66	207.87	5.65	-51.1	-65.6	3.8	1.49e+00	0	41	104	0	74	18481
2026-01-30 11:26:29.67	207.96	5.71	-51.3	-65.6	3.8	1.49e+00	0	41	104	0	74	18420
2026-01-30 11:26:30.67	208.04	5.77	-51.0	-65.6	3.8	1.49e+00	0	41	104	0	73	19404
2026-01-30 11:26:31.68	208.13	5.84	-51.2	-65.5	3.8	1.49e+00	0	41	104	0	73	19366
2026-01-30 11:26:32.68	208.21	5.90	-50.9	-65.4	3.8	1.49e+00	0	41	104	0	73	19162
2026-01-30 11:26:33.68	208.30	5.96	-51.0	-65.4	3.8	1.49e+00	0	41	104	0	73	19046
2026-01-30 11:26:34.69	208.39	6.03	-50.5	-65.2	3.8	1.49e+00	0	41	104	0	73	18634
2026-01-30 11:26:35.69	208.47	6.09	-50.3	-65.0	3.8	1.49e+00	0	41	104	0	72	19378
2026-01-30 11:26:36.70	208.56	6.15	-50.6	-64.9	3.8	1.49e+00	0	41	104	0	72	19083
2026-01-30 11:26:37.70	208.65	6.21	-50.6	-64.8	3.8	1.49e+00	0	42	104	0	72	18889
2026-01-30 11:26:38.70	208.73	6.28	-50.6	-64.6	3.8	1.49e+00	0	42	104	0	72	18372
2026-01-30 11:26:39.71	208.82	6.34	-50.6	-64.4	3.8	1.49e+00	0	42	104	0	72	18045
2026-01-30 11:26:40.71	208.91	6.40	-50.6	-64.2	3.8	1.49e+00	0	41	104	0	72	17603
2026-01-30 11:26:41.72	209.00	6.47	-50.5	-64.0	3.8	1.49e+00	0	42	104	0	72	17126
2026-01-30 11:26:42.72	209.09	6.53	-50.5	-63.9	3.8	1.49e+00	0	42	104	0	72	16940
2026-01-30 11:26:43.72	209.18	6.60	-50.5	-63.9	3.8	1.49e+00	0	42	104	0	72	16907
2026-01-30 11:26:44.73	209.27	6.66	-50.6	-64.1	3.8	1.49e+00	0	42	104	0	72	17297
2026-01-30 11:26:45.73	209.36	6.72	-50.6	-64.3	3.8	1.49e+00	0	41	104	0	72	17717
2026-01-30 11:26:46.74	209.45	6.79	-50.6	-64.5	3.8	1.49e+00	0	42	104	0	72	18134
2026-01-30 11:26:47.74	209.54	6.85	-50.6	-64.6	3.8	1.49e+00	0	42	104	0	72	18501
2026-01-30 11:26:48.75	209.63	6.92	-50.6	-64.6	3.8	1.49e+00	0	42	104	0	72	18499
2026-01-30 11:26:49.75	209.72	6.98	-50.6	-64.6	3.8	1.49e+00	0	42	104	0	72	18440
2026-01-30 11:26:50.75	209.82	7.04	-50.6	-64.6	3.8	1.49e+00	0	42	104	0	72	18462
2026-01-30 11:26:51.76	209.91	7.11	-50.6	-64.7	3.8	1.49e+00	0	42	104	0	72	18568
2026-01-30 11:26:52.76	210.00	7.17	-50.6	-64.7	3.8	1.49e+00	0	42	104	0	72	18614
2026-01-30 11:26:53.76	210.09	7.24	-50.6	-64.7	3.8	1.49e+00	0	42	104	0	72	18688
2026-01-30 11:26:54.77	210.19	7.30	-50.6	-64.8	3.8	1.49e+00	0	42	104	0	72	18786
2026-01-30 11:26:55.77	210.28	7.37	-50.6	-64.7	3.8	1.49e+00	0	42	104	0	72	18675
2026-01-30 11:26:56.78	210.38	7.43	-50.6	-64.5	3.8	1.49e+00	0	42	104	0	72	18150
2026-01-30 11:26:57.78	210.47	7.50	-50.5	-64.0	3.8	1.49e+00	0	42	104	0	72	17149
2026-01-30 11:26:58.79	210.57	7.56	-50.5	-63.0	3.8	1.49e+00	0	42	104	0	72	15344
2026-01-30 11:26:59.79	210.66	7.63	-50.4	-62.3	3.9	1.48e+00	0	42	104	0	72	14056
2026-01-30 11:27:00.76	210.76	7.69	-50.4	-61.7	4.1	1.43e+00	0	42	0	0	72	13201
2026-01-30 11:27:01.77	210.85	7.76	-50.4	-61.9	4.1	1.43e+00	0	42	0	0	72	13531
2026-01-30 11:27:02.77	210.95	7.82	-50.4	-63.0	3.8	1.47e+00	0	42	104	0	72	15265
2026-01-30 11:27:03.77	211.05	7.89	-50.5	-64.4	3.8	1.49e+00	0	42	104	0	72	17903
2026-01-30 11:27:04.78	211.15	7.96	-50.6	-64.8	3.8	1.49e+00	0	42	104	0	72	18833
2026-01-30 11:27:05.78	211.24	8.02	-50.3	-61.7	3.9	1.49e+00	0	42	104	0	72	13160
2026-01-30 11:27:06.79	211.34	8.09	-49.8	-57.1	6.6	4.08e-01	0	42	0	1048576	71	8236
2026-01-30 11:27:07.79	211.44	8.15	-48.9	-53.8	9.8	3.76e-02	0	42	0	3145728	69	6332
2026-01-30 11:27:08.80	211.54	8.22	-47.7	-51.3	12.3	1.59e-03	0	42	0	4194304	67	5286
2026-01-30 11:27:09.80	211.64	8.29	-46.7	-49.5	14.0	3.00e-06	0	42	0	6291456	65	4855
2026-01-30 11:27:10.80	211.74	8.35	-46.0	-48.3	15.4	0.00e+00	0	42	0	8388608	63	4735
2026-01-30 11:27:11.81	211.84	8.42	-45.4	-47.4	16.3	0.00e+00	0	42	0	10485760	62	4516
2026-01-30 11:27:12.81	211.94	8.49	-45.3	-47.3	16.4	0.00e+00	0	42	0	12582912	62	4449
2026-01-30 11:27:13.82	212.05	8.55	-45.2	-47.2	16.5	0.00e+00	0	42	0	13631488	62	4421
2026-01-30 11:27:14.82	212.15	8.62	-45.5	-47.7	16.0	0.00e+00	0	42	0	15728640	62	4660
2026-01-30 11:27:15.83	212.25	8.69	-46.1	-48.5	15.2	0.00e+00	0	42	0	17825792	62	5108
2026-01-30 11:27:16.83	212.35	8.75	-46.7	-49.4	14.3	7.00e-07	0	42	0	19922944	63	5394
2026-01-30 11:27:17.83	212.46	8.82	-47.4	-50.8	12.8	1.98e-05	0	42	0	22020096	65	5630
2026-01-30 11:27:18.84	212.56	8.89	-48.3	-52.7	10.9	3.26e-04	0	42	0	23068672	67	6205
2026-01-30 11:27:19.84	212.67	8.96	-49.1	-54.5	9.1	1.37e-02	0	43	0	25165824	68	7257
2026-01-30 11:27:20.85	212.77	9.02	-49.6	-56.3	7.4	6.92e-02	0	42	0	27262976	69	8406
2026-01-30 11:27:21.85	212.88	9.09	-46.2	-48.8	14.8	5.68e-02	0	42	0	29360128	64	4712
2026-01-30 11:27:22.85	212.98	9.16	-50.2	-60.0	4.8	8.77e-05	0	42	0	31457280	70	12108
2026-01-30 11:27:23.86	213.09	9.23	-49.8	-57.6	6.3	1.99e-01	0	43	0	32505856	71	8750
2026-01-30 11:27:24.86	213.20	9.29	-47.2	-50.5	13.1	9.98e-02	0	43	0	34603008	66	5156
2026-01-30 11:27:25.86	213.30	9.36	-50.2	-60.6	4.5	9.42e-03	0	43	0	36700160	71	12349
2026-01-30 11:27:26.86	213.41	9.43	-47.4	-51.0	12.5	1.30e-01	0	43	0	37748736	66	5444
2026-01-30 11:27:27.87	213.52	9.50	-47.1	-50.4	13.2	5.41e-05	0	42	0	39845888	66	5054
2026-01-30 11:27:28.87	213.63	9.57	-46.0	-48.6	15.0	0.00e+00	0	43	0	41943040	64	4630
2026-01-30 11:27:29.87	213.74	9.63	-45.4	-47.6	16.2	0.00e+00	0	43	0	44040192	62	4617
2026-01-30 11:27:30.87	213.85	9.70	-45.4	-47.6	16.1	0.00e+00	0	43	0	45088768	62	4644
2026-01-30 11:27:31.88	213.96	9.77	-45.3	-47.4	16.2	0.00e+00	0	42	0	47185920	62	4543
2026-01-30 11:27:32.88	214.07	9.84	-45.5	-47.7	16.1	0.00e+00	0	43	0	49283072	62	4658
2026-01-30 11:27:33.88	214.18	9.91	-45.7	-48.0	15.7	0.00e+00	0	43	0	51380224	62	4834
2026-01-30 11:27:34.88	214.29	9.98	-45.8	-48.2	15.5	0.00e+00	0	43	0	52428800	62	4955
2026-01-30 11:27:35.88	214.40	10.05	-45.5	-47.6	16.2	0.00e+00	0	43	0	54525952	62	4609
2026-01-30 11:27:36.89	214.52	10.12	-45.6	-47.7	16.0	0.00e+00	0	43	0	56623104	62	4693
2026-01-30 11:27:37.89	214.63	10.18	-45.6	-47.8	16.0	0.00e+00	0	43	0	58720256	62	4733
2026-01-30 11:27:38.89	214.74	10.25	-45.8	-48.0	15.7	0.00e+00	0	43	0	60817408	62	4866
2026-01-30 11:27:39.89	214.86	10.32	-45.8	-48.0	15.7	0.00e+00	0	43	0	62914560	62	4845
2026-01-30 11:27:40.94	214.98	10.40	-45.6	-47.8	16.0	0.00e+00	0	43	0	63963136	62	4735
2026-01-30 11:27:41.88	215.08	10.46	-45.5	-47.5	16.2	0.00e+00	0	43	0	66060288	62	4582
2026-01-30 11:27:42.88	215.20	10.53	-45.4	-47.5	16.3	0.00e+00	0	43	0	68157440	62	4548
2026-01-30 11:27:43.88	215.32	10.60	-45.3	-47.4	16.4	0.00e+00	0	43	0	70254592	62	4500
2026-01-30 11:27:44.88	215.43	10.67	-45.3	-47.3	16.4	0.00e+00	0	42	0	71303168	62	4487
2026-01-30 11:27:45.89	215.55	10.74	-45.2	-47.2	16.6	0.00e+00	0	43	0	73400320	62	4407
2026-01-30 11:27:46.89	215.67	10.81	-44.9	-46.8	16.9	0.00e+00	0	43	0	75497472	61	4475
2026-01-30 11:27:47.89	215.79	10.88	-45.0	-47.0	16.8	0.00e+00	0	43	0	77594624	61	4551
2026-01-30 11:27:48.89	215.91	10.95	-45.0	-47.0	16.7	0.00e+00	0	43	0	79691776	61	4563
2026-01-30 11:27:49.89	216.02	11.02	-45.1	-47.0	16.6	0.00e+00	0	43	0	80740352	61	4595
2026-01-30 11:27:50.89	216.14	11.09	-45.1	-47.0	16.8	0.00e+00	0	43	0	82837504	61	4548
2026-01-30 11:27:51.90	216.27	11.16	-44.9	-46.7	17.0	0.00e+00	0	43	0	84934656	61	4423
2026-01-30 11:27:52.96	216.39	11.23	-44.9	-46.7	17.0	0.00e+00	0	43	0	87031808	61	4413
2026-01-30 11:27:53.82	216.50	11.29	-44.7	-46.4	17.3	0.00e+00	0	43	0	88080384	61	4269
2026-01-30 11:27:54.97	216.64	11.38	-44.8	-46.5	17.2	0.00e+00	0	43	0	90177536	61	4329
2026-01-30 11:27:55.82	216.74	11.44	-44.5	-46.2	17.4	0.00e+00	0	43	0	92274688	61	4185
2026-01-30 11:27:56.97	216.89	11.52	-44.7	-46.4	17.2	0.00e+00	0	43	0	94371840	61	4285
2026-01-30 11:27:57.83	216.99	11.58	-44.7	-46.4	17.2	0.00e+00	0	43	0	96468992	61	4269
2026-01-30 11:27:58.98	217.14	11.66	-44.9	-46.7	17.1	0.00e+00	0	43	0	98566144	61	4404
2026-01-30 11:27:59.83	217.24	11.72	-44.7	-46.5	17.2	0.00e+00	0	43	0	99614720	61	4302
2026-01-30 11:28:00.98	217.39	11.80	-44.8	-46.6	17.2	0.00e+00	0	43	0	101711872	61	4345
2026-01-30 11:28:01.84	217.49	11.86	-44.6	-46.3	17.4	0.00e+00	0	43	0	103809024	61	4237
2026-01-30 11:28:03.00	217.64	11.94	-44.5	-46.2	17.5	0.00e+00	0	43	0	105906176	61	4185
2026-01-30 11:28:03.86	217.75	12.01	-44.8	-46.5	17.2	0.00e+00	0	43	0	106954752	61	4338
2026-01-30 11:28:05.08	217.91	12.09	-44.8	-46.6	17.1	0.00e+00	0	43	0	109051904	61	4359
2026-01-30 11:28:05.94	218.02	12.15	-44.6	-46.3	17.4	0.00e+00	0	43	0	111149056	61	4226
2026-01-30 11:28:07.09	218.17	12.24	-44.6	-46.3	17.5	0.00e+00	0	43	0	113246208	61	4207
2026-01-30 11:28:07.95	218.28	12.30	-44.6	-46.3	17.4	0.00e+00	0	43	0	115343360	61	4221
2026-01-30 11:28:09.10	218.43	12.38	-44.7	-46.4	17.3	0.00e+00	0	43	0	117440512	61	4275
2026-01-30 11:28:10.02	218.55	12.45	-44.6	-46.4	17.4	0.00e+00	0	43	0	118489088	61	4247
2026-01-30 11:28:11.02	218.68	12.52	-44.8	-46.6	17.2	0.00e+00	0	43	0	120586240	61	4378
2026-01-30 11:28:12.03	218.81	12.59	-44.8	-46.6	17.2	0.00e+00	0	42	0	122683392	61	4366
2026-01-30 11:28:13.03	218.95	12.66	-44.8	-46.6	17.2	0.00e+00	0	43	0	124780544	61	4362
2026-01-30 11:28:14.04	219.08	12.74	-45.0	-46.8	17.0	0.00e+00	0	43	0	126877696	61	4458
2026-01-30 11:28:15.04	219.22	12.81	-45.1	-46.9	16.9	0.00e+00	0	43	0	127926272	61	4530
2026-01-30 11:28:16.04	219.35	12.88	-45.0	-46.8	16.9	0.00e+00	0	43	0	130023424	61	4493
2026-01-30 11:28:17.05	219.49	12.95	-45.2	-47.0	16.8	0.00e+00	0	43	0	132120576	61	4589
2026-01-30 11:28:18.05	219.62	13.03	-45.2	-47.1	16.7	0.00e+00	0	43	0	134217728	61	4630
2026-01-30 11:28:19.05	219.76	13.10	-45.1	-46.9	16.9	0.00e+00	0	43	0	136314880	61	4537
2026-01-30 11:28:20.05	219.90	13.17	-45.1	-47.0	16.7	0.00e+00	0	43	0	137363456	61	4591
2026-01-30 11:28:21.05	220.04	13.24	-45.2	-47.1	16.7	0.00e+00	0	43	0	139460608	61	4616
2026-01-30 11:28:22.05	220.18	13.32	-45.0	-46.9	16.9	0.00e+00	0	43	0	141557760	61	4530
2026-01-30 11:28:23.05	220.32	13.39	-45.1	-47.0	16.8	0.00e+00	0	43	0	143654912	61	4562
2026-01-30 11:28:24.34	220.50	13.48	-45.1	-46.9	16.9	0.00e+00	0	43	0	145752064	61	4544
2026-01-30 11:28:25.09	220.60	13.54	-45.0	-46.8	17.0	0.00e+00	0	43	0	146800640	61	4487
2026-01-30 11:28:26.38	220.78	13.63	-44.9	-46.7	17.1	0.00e+00	0	43	0	149946368	61	4406
2026-01-30 11:28:27.18	220.90	13.69	-44.9	-46.7	17.2	0.00e+00	0	43	0	150994944	61	4396
2026-01-30 11:28:28.62	221.10	13.79	-44.6	-46.3	17.5	0.00e+00	0	43	0	154140672	61	4226
2026-01-30 11:28:29.34	221.21	13.85	-44.5	-46.2	17.6	0.00e+00	0	43	0	155189248	60	4419
2026-01-30 11:28:30.84	221.42	13.96	-44.5	-46.2	17.6	0.00e+00	0	43	0	158334976	60	4410
2026-01-30 11:28:31.55	221.53	14.01	-44.5	-46.2	17.5	0.00e+00	0	43	0	159383552	60	4406
2026-01-30 11:28:32.84	221.72	14.10	-44.3	-46.0	17.8	0.00e+00	0	43	0	161480704	60	4304
2026-01-30 11:28:33.55	221.82	14.15	-44.3	-45.9	17.8	0.00e+00	0	43	0	162529280	60	4276
2026-01-30 11:28:34.85	222.01	14.25	-44.1	-45.7	18.0	0.00e+00	0	43	0	165675008	60	4178
2026-01-30 11:28:35.56	222.12	14.30	-44.1	-45.7	18.1	0.00e+00	0	43	0	166723584	60	4155
2026-01-30 11:28:36.85	222.31	14.40	-44.0	-45.4	18.2	0.00e+00	0	43	0	168820736	59	4289
2026-01-30 11:28:37.56	222.42	14.45	-43.9	-45.3	18.3	0.00e+00	0	43	0	170917888	59	4237
2026-01-30 11:28:38.86	222.61	14.54	-43.9	-45.4	18.3	0.00e+00	0	43	0	173015040	59	4268
2026-01-30 11:28:39.65	222.73	14.60	-44.0	-45.5	18.2	0.00e+00	0	43	0	174063616	59	4312
2026-01-30 11:28:41.13	222.95	14.71	-43.9	-45.3	18.3	0.00e+00	0	43	0	177209344	59	4240
2026-01-30 11:28:41.85	223.06	14.76	-43.9	-45.3	18.3	0.00e+00	0	43	0	178257920	59	4238
2026-01-30 11:28:43.14	223.26	14.86	-43.9	-45.4	18.2	0.00e+00	0	43	0	181403648	59	4286
2026-01-30 11:28:43.85	223.37	14.91	-44.1	-45.6	18.1	0.00e+00	0	43	0	182452224	59	4364
2026-01-30 11:28:45.15	223.57	15.01	-44.2	-45.8	18.0	0.00e+00	0	43	0	184549376	59	4447
2026-01-30 11:28:45.89	223.69	15.06	-44.2	-45.8	17.9	0.00e+00	0	43	0	186646528	59	4467
2026-01-30 11:28:47.18	223.89	15.16	-44.4	-46.0	17.7	0.00e+00	0	43	0	188743680	59	4594
2026-01-30 11:28:47.90	224.00	15.21	-44.5	-46.1	17.6	0.00e+00	0	43	0	189792256	59	4649
2026-01-30 11:28:49.19	224.21	15.30	-44.4	-46.0	17.8	0.00e+00	0	43	0	191889408	59	4561
2026-01-30 11:28:49.92	224.32	15.36	-44.6	-46.2	17.5	0.00e+00	0	43	0	193986560	59	4693
2026-01-30 11:28:51.21	224.53	15.45	-44.5	-46.2	17.5	0.00e+00	0	43	0	196083712	59	4660
2026-01-30 11:28:51.93	224.64	15.51	-44.6	-46.3	17.5	0.00e+00	0	43	0	197132288	59	4706
2026-01-30 11:28:53.22	224.85	15.60	-44.6	-46.3	17.5	0.00e+00	0	43	0	200278016	60	4471
2026-01-30 11:28:53.93	224.97	15.65	-44.6	-46.3	17.5	0.00e+00	0	43	0	201326592	60	4477
2026-01-30 11:28:55.22	225.18	15.75	-44.6	-46.3	17.5	0.00e+00	0	43	0	203423744	60	4477
2026-01-30 11:28:55.94	225.29	15.80	-44.6	-46.3	17.5	0.00e+00	0	43	0	205520896	60	4465
2026-01-30 11:28:57.23	225.51	15.90	-44.4	-46.1	17.7	0.00e+00	0	43	0	207618048	60	4343
2026-01-30 11:28:57.97	225.63	15.95	-44.4	-46.0	17.8	0.00e+00	0	43	0	208666624	60	4307
2026-01-30 11:28:59.26	225.84	16.05	-44.0	-45.5	18.2	0.00e+00	0	43	0	210763776	60	4063
2026-01-30 11:29:00.07	225.98	16.11	-43.9	-45.3	18.4	0.00e+00	0	43	0	212860928	59	4219
2026-01-30 11:29:01.53	226.22	16.22	-43.7	-45.1	18.6	0.00e+00	0	43	0	214958080	59	4125
2026-01-30 11:29:02.25	226.34	16.27	-43.8	-45.3	18.4	0.00e+00	0	43	0	217055232	59	4212
2026-01-30 11:29:03.84	226.61	16.39	-43.5	-44.9	18.8	0.00e+00	0	43	0	220200960	58	4261
2026-01-30 11:29:04.41	226.71	16.43	-43.8	-45.2	18.4	0.00e+00	0	43	0	221249536	58	4441
2026-01-30 11:29:06.00	226.98	16.55	-43.5	-44.9	18.7	0.00e+00	0	43	0	223346688	58	4266
2026-01-30 11:29:06.58	227.08	16.59	-43.5	-44.9	18.8	0.00e+00	0	43	0	224395264	58	4261
2026-01-30 11:29:08.21	227.36	16.71	-43.3	-44.6	19.1	0.00e+00	0	43	0	227540992	58	4101
2026-01-30 11:29:08.78	227.46	16.75	-43.3	-44.6	19.0	0.00e+00	0	43	0	228589568	58	4128
2026-01-30 11:29:10.41	227.75	16.87	-43.4	-44.7	18.9	0.00e+00	0	43	0	231735296	58	4176
2026-01-30 11:29:10.98	227.85	16.91	-43.2	-44.5	19.1	0.00e+00	0	43	0	232783872	58	4090
2026-01-30 11:29:12.58	228.13	17.03	-43.2	-44.6	19.1	0.00e+00	0	43	0	235929600	58	4101
2026-01-30 11:29:13.15	228.23	17.07	-43.5	-44.9	18.8	0.00e+00	0	43	0	236978176	58	4253
2026-01-30 11:29:14.79	228.52	17.19	-43.6	-45.0	18.7	0.00e+00	0	43	0	240123904	58	4294
2026-01-30 11:29:15.36	228.62	17.24	-43.6	-45.0	18.6	0.00e+00	0	43	0	241172480	58	4326
2026-01-30 11:29:16.96	228.91	17.35	-43.8	-45.3	18.4	0.00e+00	0	43	0	244318208	58	4446
2026-01-30 11:29:17.53	229.02	17.39	-43.8	-45.3	18.4	0.00e+00	0	43	0	245366784	58	4463
2026-01-30 11:29:19.11	229.30	17.51	-43.9	-45.3	18.4	0.00e+00	0	43	0	248512512	58	4492
2026-01-30 11:29:19.73	229.42	17.56	-43.8	-45.2	18.5	0.00e+00	0	43	0	249561088	58	4435
2026-01-30 11:29:21.35	229.71	17.67	-43.9	-45.4	18.3	0.00e+00	0	43	0	252706816	58	4521
2026-01-30 11:29:21.92	229.82	17.72	-43.9	-45.4	18.3	0.00e+00	0	43	0	253755392	58	4496
2026-01-30 11:29:23.53	230.12	17.83	-44.0	-45.5	18.2	0.00e+00	0	43	0	256901120	58	4573
2026-01-30 11:29:24.10	230.23	17.88	-44.1	-45.7	18.0	0.00e+00	0	43	0	257949696	58	4685
2026-01-30 11:29:25.71	230.53	17.99	-44.0	-45.6	18.1	0.00e+00	0	43	0	261095424	59	4365
2026-01-30 11:29:26.28	230.64	18.03	-44.0	-45.5	18.1	0.00e+00	0	43	0	262144000	59	4328
2026-01-30 11:29:27.87	230.94	18.15	-44.0	-45.5	18.2	0.00e+00	0	43	0	265289728	59	4330
2026-01-30 11:29:28.44	231.05	18.19	-44.0	-45.5	18.2	0.00e+00	0	43	0	266338304	59	4330
2026-01-30 11:29:30.07	231.36	18.31	-43.7	-45.1	18.5	0.00e+00	0	43	0	268435456	59	4133
2026-01-30 11:29:30.75	231.49	18.36	-43.5	-44.9	18.7	0.00e+00	0	43	0	270532608	59	4043
2026-01-30 11:29:32.18	231.77	18.46	-43.3	-44.6	19.0	0.00e+00	0	43	0	272629760	58	4125
2026-01-30 11:29:32.96	231.92	18.52	-43.3	-44.6	19.0	0.00e+00	0	43	0	274726912	58	4123
2026-01-30 11:29:34.25	232.17	18.61	-43.0	-44.3	19.2	0.00e+00	0	43	0	276824064	58	3989
2026-01-30 11:29:35.06	232.33	18.67	-43.0	-44.3	19.3	0.00e+00	0	43	0	277872640	58	3974
2026-01-30 11:29:36.21	232.56	18.75	-43.0	-44.3	19.3	0.00e+00	0	43	0	279969792	58	3963
2026-01-30 11:29:37.07	232.73	18.81	-42.9	-44.1	19.4	0.00e+00	0	43	0	282066944	57	4139
2026-01-30 11:29:38.22	232.96	18.90	-42.6	-43.8	19.7	0.00e+00	0	43	0	284164096	57	3996
2026-01-30 11:29:39.08	233.13	18.96	-42.5	-43.7	19.8	0.00e+00	0	43	0	286261248	56	4183
2026-01-30 11:29:40.23	233.36	19.04	-42.6	-43.8	19.7	0.00e+00	0	43	0	288358400	56	4238
2026-01-30 11:29:41.09	233.53	19.10	-42.3	-43.5	20.0	0.00e+00	0	43	0	289406976	56	4067
2026-01-30 11:29:42.23	233.76	19.18	-42.5	-43.7	19.8	0.00e+00	0	43	0	291504128	56	4169
2026-01-30 11:29:43.09	233.94	19.24	-42.6	-43.8	19.7	0.00e+00	0	43	0	293601280	56	4234
2026-01-30 11:29:44.24	234.17	19.32	-42.5	-43.8	19.8	0.00e+00	0	43	0	295698432	56	4197
2026-01-30 11:29:45.10	234.35	19.38	-42.5	-43.7	19.8	0.00e+00	0	43	0	296747008	56	4162
2026-01-30 11:29:46.24	234.59	19.46	-42.3	-43.4	20.1	0.00e+00	0	43	0	298844160	56	4036
2026-01-30 11:29:47.10	234.77	19.52	-42.3	-43.4	20.0	0.00e+00	0	43	0	300941312	56	4040
2026-01-30 11:29:48.25	235.01	19.61	-42.2	-43.4	20.1	0.00e+00	0	43	0	303038464	56	4016
2026-01-30 11:29:49.11	235.19	19.67	-42.2	-43.3	20.1	0.00e+00	0	43	0	305135616	56	3993
2026-01-30 11:29:50.26	235.43	19.75	-42.2	-43.3	20.1	0.00e+00	0	43	0	307232768	56	4002
2026-01-30 11:29:51.12	235.61	19.80	-42.2	-43.4	20.0	0.00e+00	0	43	0	308281344	56	4033
2026-01-30 11:29:52.27	235.85	19.88	-42.2	-43.4	20.1	0.00e+00	0	43	0	310378496	56	4013
2026-01-30 11:29:53.13	236.04	19.94	-42.3	-43.5	19.9	0.00e+00	0	43	0	312475648	56	4080
2026-01-30 11:29:54.28	236.28	20.02	-42.4	-43.6	19.9	0.00e+00	0	43	0	314572800	56	4120
2026-01-30 11:29:55.13	236.47	20.08	-42.4	-43.6	19.9	0.00e+00	0	43	0	315621376	56	4125
2026-01-30 11:29:56.27	236.71	20.16	-42.6	-43.8	19.7	0.00e+00	0	43	0	317718528	56	4226
2026-01-30 11:29:57.13	236.90	20.22	-42.6	-43.8	19.7	0.00e+00	0	43	0	319815680	56	4206
2026-01-30 11:29:58.28	237.15	20.30	-42.7	-44.0	19.6	0.00e+00	0	43	0	321912832	56	4298
2026-01-30 11:29:59.14	237.34	20.35	-42.7	-44.0	19.5	0.00e+00	0	43	0	324009984	56	4310
2026-01-30 11:30:00.28	237.59	20.43	-42.6	-43.8	19.6	0.00e+00	0	43	0	325058560	56	4241
2026-01-30 11:30:01.15	237.78	20.49	-42.6	-43.8	19.7	0.00e+00	0	43	0	327155712	56	4237
2026-01-30 11:30:02.50	238.08	20.58	-42.6	-43.9	19.6	0.00e+00	0	43	0	330301440	56	4255
2026-01-30 11:30:03.22	238.24	20.63	-42.4	-43.7	19.8	0.00e+00	0	43	0	331350016	56	4158
2026-01-30 11:30:04.73	238.58	20.73	-42.4	-43.6	19.8	0.00e+00	0	43	0	333447168	56	4145
2026-01-30 11:30:05.44	238.74	20.78	-42.3	-43.5	19.9	0.00e+00	0	43	0	335544320	56	4094
2026-01-30 11:30:06.73	239.03	20.86	-42.2	-43.5	20.0	0.00e+00	0	43	0	337641472	56	4056
2026-01-30 11:30:07.45	239.19	20.91	-42.6	-43.8	19.6	0.00e+00	0	43	0	338690048	56	4233
2026-01-30 11:30:08.74	239.48	20.99	-42.9	-44.2	19.4	0.00e+00	0	43	0	341835776	56	4407
2026-01-30 11:30:09.46	239.65	21.04	-43.1	-44.4	19.1	0.00e+00	0	43	0	342884352	56	4525
2026-01-30 11:30:10.75	239.94	21.12	-43.1	-44.4	19.2	0.00e+00	0	43	0	344981504	57	4245
2026-01-30 11:30:11.46	240.11	21.17	-43.1	-44.4	19.1	0.00e+00	0	43	0	347078656	57	4264
2026-01-30 11:30:12.75	240.41	21.25	-43.1	-44.4	19.1	0.00e+00	0	43	0	349175808	57	4275
2026-01-30 11:30:13.47	240.57	21.30	-43.1	-44.3	19.2	0.00e+00	0	43	0	350224384	57	4238
2026-01-30 11:30:14.76	240.87	21.38	-43.1	-44.3	19.2	0.00e+00	0	43	0	352321536	57	4229
2026-01-30 11:30:15.57	241.06	21.43	-43.2	-44.5	19.1	0.00e+00	0	43	0	354418688	57	4337
2026-01-30 11:30:16.71	241.33	21.50	-43.2	-44.5	19.0	0.00e+00	0	43	0	356515840	57	4327
2026-01-30 11:30:17.56	241.53	21.56	-43.3	-44.6	18.9	0.00e+00	0	43	0	357564416	57	4381
2026-01-30 11:30:18.70	241.80	21.63	-43.3	-44.6	18.9	0.00e+00	0	43	0	359661568	57	4373
2026-01-30 11:30:19.56	242.01	21.68	-43.1	-44.4	19.1	0.00e+00	0	43	0	361758720	57	4276
2026-01-30 11:30:20.71	242.28	21.75	-42.9	-44.1	19.4	0.00e+00	0	43	0	363855872	57	4145
2026-01-30 11:30:21.57	242.49	21.80	-43.0	-44.3	19.3	0.00e+00	0	43	0	365953024	57	4228
2026-01-30 11:30:22.71	242.76	21.87	-42.9	-44.1	19.4	0.00e+00	0	43	0	368050176	57	4124
2026-01-30 11:30:23.57	242.97	21.93	-43.3	-44.6	18.9	0.00e+00	0	43	0	369098752	57	4382
2026-01-30 11:30:24.72	243.25	22.00	-43.7	-45.2	18.5	0.00e+00	0	44	0	371195904	58	4400
2026-01-30 11:30:25.63	243.47	22.05	-43.9	-45.4	18.3	0.00e+00	0	43	0	373293056	58	4506
2026-01-30 11:30:26.63	243.71	22.11	-44.1	-45.7	18.0	0.00e+00	0	43	0	375390208	58	4665
2026-01-30 11:30:27.63	243.96	22.17	-43.6	-45.0	18.5	0.00e+00	0	43	0	376438784	59	4093
2026-01-30 11:30:28.63	244.21	22.23	-43.4	-44.7	18.8	0.00e+00	0	43	0	378535936	58	4191
2026-01-30 11:30:29.64	244.46	22.29	-43.1	-44.4	19.2	5.30e-06	0	43	0	380633088	58	4026
2026-01-30 11:30:30.64	244.70	22.34	-42.9	-44.2	19.3	9.10e-06	0	43	0	382730240	57	4168
2026-01-30 11:30:31.65	244.96	22.40	-43.1	-44.5	19.1	0.00e+00	0	43	0	384827392	57	4297
2026-01-30 11:30:32.65	245.20	22.46	-43.2	-44.5	19.0	0.00e+00	0	43	0	385875968	57	4338
2026-01-30 11:30:33.65	245.46	22.51	-43.3	-44.7	18.9	0.00e+00	0	43	0	387973120	57	4401
2026-01-30 11:30:34.65	245.71	22.57	-43.2	-44.5	19.0	3.80e-06	0	43	0	390070272	57	4322
2026-01-30 11:30:35.65	245.96	22.63	-43.2	-44.5	19.0	0.00e+00	0	43	0	392167424	57	4307
2026-01-30 11:30:36.75	246.24	22.69	-43.1	-44.4	19.2	0.00e+00	0	43	0	394264576	57	4250
2026-01-30 11:30:37.64	246.46	22.74	-43.2	-44.5	19.1	0.00e+00	0	43	0	395313152	57	4297
2026-01-30 11:30:38.79	246.76	22.80	-43.4	-44.7	18.8	0.00e+00	0	43	0	397410304	57	4441
2026-01-30 11:30:39.65	246.98	22.84	-43.6	-45.0	18.6	3.80e-06	0	43	0	399507456	57	4557
2026-01-30 11:30:40.79	247.27	22.90	-43.9	-45.4	18.2	0.00e+00	0	43	0	401604608	58	4494
2026-01-30 11:30:41.65	247.49	22.95	-43.7	-45.1	18.4	0.00e+00	0	43	0	403701760	58	4377
2026-01-30 11:30:42.80	247.79	23.01	-43.5	-44.9	18.7	0.00e+00	0	43	0	405798912	58	4279
2026-01-30 11:30:43.66	248.01	23.06	-43.3	-44.7	18.9	0.00e+00	0	43	0	406847488	58	4156
2026-01-30 11:30:44.81	248.31	23.11	-43.3	-44.8	18.8	7.00e-07	0	43	0	408944640	58	4196
2026-01-30 11:30:45.66	248.53	23.16	-43.4	-44.9	18.7	0.00e+00	0	43	0	411041792	58	4248
2026-01-30 11:30:46.81	248.83	23.22	-43.6	-45.1	18.5	0.00e+00	0	43	0	413138944	58	4382
2026-01-30 11:30:47.67	249.06	23.26	-43.8	-45.4	18.3	0.00e+00	0	43	0	414187520	58	4496
2026-01-30 11:30:48.91	249.39	23.32	-44.1	-45.8	17.9	0.00e+00	0	43	0	416284672	59	4465
2026-01-30 11:30:49.77	249.61	23.36	-44.2	-45.8	17.9	0.00e+00	0	43	0	418381824	59	4463
2026-01-30 11:30:50.91	249.92	23.42	-44.6	-46.2	17.5	0.00e+00	0	43	0	420478976	59	4704
2026-01-30 11:30:51.77	250.15	23.46	-44.8	-46.5	17.3	0.00e+00	0	43	0	422576128	60	4570
2026-01-30 11:30:52.92	250.45	23.51	-44.8	-46.6	17.2	0.00e+00	0	43	0	424673280	60	4626
2026-01-30 11:30:53.77	250.68	23.55	-44.8	-46.6	17.1	0.00e+00	0	43	0	425721856	60	4632
2026-01-30 11:30:54.92	250.99	23.60	-44.3	-45.9	17.8	0.00e+00	0	43	0	427819008	60	4264
2026-01-30 11:30:55.78	251.22	23.64	-44.0	-45.6	18.1	0.00e+00	0	43	0	429916160	60	4144
2026-01-30 11:30:56.92	251.53	23.69	-43.9	-45.5	18.2	0.00e+00	0	43	0	432013312	59	4298
2026-01-30 11:30:57.79	251.76	23.73	-43.8	-45.4	18.3	0.00e+00	0	43	0	433061888	59	4289
2026-01-30 11:30:58.93	252.07	23.78	-44.1	-45.7	17.9	7.00e-07	0	43	0	435159040	59	4406
2026-01-30 11:30:59.79	252.31	23.82	-44.7	-46.5	17.3	0.00e+00	0	44	0	437256192	59	4828
2026-01-30 11:31:00.94	252.62	23.87	-45.1	-47.1	16.7	0.00e+00	0	43	0	439353344	60	4893
2026-01-30 11:31:01.79	252.85	23.90	-45.6	-47.8	16.1	0.00e+00	0	43	0	441450496	61	4987
2026-01-30 11:31:02.94	253.17	23.95	-45.4	-47.6	16.3	7.00e-07	0	43	0	443547648	61	4873
2026-01-30 11:31:03.80	253.40	23.99	-45.4	-47.5	16.3	0.00e+00	0	43	0	444596224	61	4827
2026-01-30 11:31:04.95	253.72	24.03	-45.3	-47.4	16.5	0.00e+00	0	43	0	446693376	61	4766
2026-01-30 11:31:05.80	253.96	24.07	-45.2	-47.3	16.5	0.00e+00	0	43	0	448790528	61	4719
2026-01-30 11:31:06.95	254.27	24.11	-45.4	-47.5	16.3	0.00e+00	0	43	0	450887680	61	4850
2026-01-30 11:31:07.81	254.51	24.14	-45.5	-47.7	16.1	4.50e-06	0	43	0	451936256	61	4928
2026-01-30 11:31:08.96	254.83	24.19	-45.3	-47.4	16.4	0.00e+00	0	43	0	454033408	61	4771
2026-01-30 11:31:09.82	255.07	24.22	-45.1	-47.1	16.6	0.00e+00	0	43	0	456130560	61	4628
2026-01-30 11:31:11.01	255.41	24.26	-45.1	-47.0	16.8	0.00e+00	0	43	0	458227712	61	4561
2026-01-30 11:31:11.87	255.65	24.29	-45.3	-47.3	16.6	0.00e+00	0	43	0	460324864	61	4710
2026-01-30 11:31:13.02	255.97	24.33	-46.1	-48.5	15.3	5.30e-06	0	43	0	462422016	62	5120
2026-01-30 11:31:13.87	256.21	24.36	-46.5	-49.2	14.7	0.00e+00	0	43	0	463470592	63	5225
2026-01-30 11:31:15.01	256.53	24.40	-47.2	-50.4	13.3	2.20e-06	0	43	0	465567744	64	5666
2026-01-30 11:31:15.88	256.78	24.43	-47.2	-50.4	13.4	2.36e-05	0	43	0	467664896	65	5362
2026-01-30 11:31:17.02	257.10	24.46	-46.6	-49.4	14.3	2.44e-05	0	43	0	469762048	65	4810
2026-01-30 11:31:17.88	257.34	24.49	-46.2	-48.7	15.1	1.67e-05	0	43	0	470810624	64	4655
2026-01-30 11:31:19.03	257.67	24.53	-46.1	-48.4	15.4	0.00e+00	0	43	0	472907776	63	4803
2026-01-30 11:31:19.89	257.91	24.55	-46.2	-48.4	15.4	0.00e+00	0	43	0	475004928	63	4809
2026-01-30 11:31:21.03	258.24	24.59	-46.4	-48.8	15.1	0.00e+00	0	43	0	477102080	63	4992
2026-01-30 11:31:21.89	258.49	24.61	-46.3	-48.7	15.2	1.90e-05	0	43	0	478150656	63	4957
2026-01-30 11:31:23.10	258.83	24.64	-46.1	-48.5	15.4	0.00e+00	0	43	0	481296384	63	4866
2026-01-30 11:31:23.96	259.08	24.67	-45.8	-48.1	15.7	0.00e+00	0	43	0	482344960	63	4610
2026-01-30 11:31:25.11	259.41	24.70	-45.5	-47.6	16.2	0.00e+00	0	43	0	484442112	62	4615
2026-01-30 11:31:25.96	259.65	24.72	-45.5	-47.6	16.3	0.00e+00	0	43	0	486539264	62	4624
2026-01-30 11:31:27.11	259.98	24.75	-45.4	-47.4	16.5	6.40e-05	0	43	0	488636416	62	4502
2026-01-30 11:31:28.06	260.26	24.77	-45.6	-47.6	16.2	0.00e+00	0	43	0	489684992	62	4649
2026-01-30 11:31:29.07	260.55	24.80	-45.7	-47.7	16.1	0.00e+00	0	43	0	491782144	62	4703
2026-01-30 11:31:30.07	260.84	24.82	-45.9	-48.1	15.7	0.00e+00	0	43	0	493879296	62	4916
2026-01-30 11:31:31.07	261.13	24.84	-46.2	-48.5	15.3	0.00e+00	0	43	0	495976448	63	4864
2026-01-30 11:31:32.36	261.50	24.87	-46.4	-48.8	15.1	0.00e+00	0	43	0	498073600	63	5034
2026-01-30 11:31:33.08	261.71	24.88	-46.2	-48.5	15.3	0.00e+00	0	43	0	499122176	63	4839
2026-01-30 11:31:34.37	262.09	24.91	-45.7	-47.8	16.1	0.00e+00	0	44	0	502267904	63	4447
2026-01-30 11:31:35.09	262.30	24.92	-45.3	-47.3	16.6	0.00e+00	0	43	0	503316480	62	4445
2026-01-30 11:31:36.38	262.68	24.95	-45.2	-47.2	16.7	9.53e-05	0	43	0	505413632	62	4396
2026-01-30 11:31:37.09	262.88	24.96	-45.0	-46.9	16.9	0.00e+00	0	43	0	507510784	62	4279
2026-01-30 11:31:38.38	263.26	24.98	-44.5	-46.3	17.5	0.00e+00	0	43	0	509607936	61	4198
2026-01-30 11:31:39.10	263.47	24.99	-44.3	-46.0	17.8	0.00e+00	0	44	0	510656512	60	4305
2026-01-30 11:31:40.39	263.85	25.01	-43.9	-45.3	18.2	0.00e+00	0	43	0	512753664	59	4233
2026-01-30 11:31:41.10	264.06	25.02	-43.7	-45.2	18.4	7.32e-05	0	43	0	514850816	59	4149
2026-01-30 11:31:42.39	264.43	25.04	-43.9	-45.4	18.3	0.00e+00	0	43	0	516947968	59	4283
2026-01-30 11:31:43.11	264.65	25.05	-44.2	-45.8	17.9	0.00e+00	0	44	0	517996544	59	4483
2026-01-30 11:31:44.57	265.08	25.07	-45.0	-46.9	17.0	0.00e+00	0	44	0	521142272	60	4768
2026-01-30 11:31:45.29	265.29	25.07	-45.3	-47.3	16.6	1.06e-05	0	44	0	522190848	61	4723
2026-01-30 11:31:46.58	265.67	25.09	-45.1	-46.9	17.0	0.00e+00	0	43	0	525336576	61	4531
2026-01-30 11:31:47.29	265.88	25.09	-44.7	-46.4	17.4	0.00e+00	0	43	0	526385152	61	4261
2026-01-30 11:31:48.59	266.26	25.10	-44.3	-46.0	17.8	0.00e+00	0	44	0	528482304	60	4294
2026-01-30 11:31:49.30	266.47	25.11	-44.2	-45.8	17.9	0.00e+00	0	43	0	529530880	60	4222
2026-01-30 11:31:50.59	266.85	25.12	-44.6	-46.3	17.5	0.00e+00	0	43	0	532676608	60	4456
2026-01-30 11:31:51.30	267.06	25.12	-44.9	-46.7	17.1	0.00e+00	0	43	0	533725184	60	4656
2026-01-30 11:31:52.59	267.44	25.13	-45.1	-46.9	16.9	0.00e+00	0	43	0	535822336	60	4802
2026-01-30 11:31:53.31	267.65	25.14	-44.9	-46.6	17.1	0.00e+00	0	43	0	537919488	60	4641
2026-01-30 11:31:54.60	268.03	25.14	-44.6	-46.3	17.5	0.00e+00	0	43	0	540016640	60	4450
2026-01-30 11:31:55.41	268.27	25.14	-44.5	-46.1	17.7	2.67e-05	0	43	0	541065216	60	4366
2026-01-30 11:31:56.56	268.61	25.15	-44.5	-46.3	17.5	0.00e+00	0	43	0	543162368	60	4445
2026-01-30 11:31:57.42	268.87	25.15	-44.5	-46.2	17.6	0.00e+00	0	43	0	545259520	60	4406
2026-01-30 11:31:58.57	269.20	25.15	-44.5	-46.2	17.6	0.00e+00	0	43	0	547356672	60	4419
2026-01-30 11:31:59.42	269.46	25.15	-44.1	-45.8	18.0	0.00e+00	0	44	0	549453824	60	4194
2026-01-30 11:32:00.57	269.80	25.15	-43.5	-44.9	18.8	0.00e+00	0	43	0	551550976	58	4255
2026-01-30 11:32:01.43	270.05	25.15	-43.1	-44.4	19.1	0.00e+00	0	43	0	552599552	58	4042
2026-01-30 11:32:02.61	270.40	25.14	-43.0	-44.2	19.4	0.00e+00	0	43	0	554696704	57	4176
2026-01-30 11:32:03.47	270.65	25.14	-43.3	-44.6	19.0	0.00e+00	0	43	0	556793856	57	4386
2026-01-30 11:32:04.61	270.99	25.14	-43.7	-45.1	18.5	1.27e-04	0	43	0	558891008	58	4382
2026-01-30 11:32:05.47	271.24	25.13	-43.9	-45.4	18.3	0.00e+00	0	44	0	559939584	58	4522
2026-01-30 11:32:06.61	271.58	25.13	-44.0	-45.6	18.2	0.00e+00	0	43	0	562036736	58	4601
2026-01-30 11:32:07.47	271.83	25.12	-43.9	-45.4	18.3	0.00e+00	0	43	0	564133888	58	4526
2026-01-30 11:32:08.62	272.17	25.11	-43.6	-45.0	18.7	0.00e+00	0	44	0	566231040	58	4299
2026-01-30 11:32:09.48	272.42	25.11	-43.6	-44.9	18.7	2.82e-05	0	43	0	568328192	58	4269
2026-01-30 11:32:10.62	272.76	25.10	-43.5	-44.8	18.8	0.00e+00	0	43	0	570425344	58	4232
2026-01-30 11:32:11.48	273.01	25.09	-43.6	-44.9	18.8	0.00e+00	0	44	0	571473920	58	4285
2026-01-30 11:32:12.63	273.35	25.08	-43.6	-45.0	18.7	0.00e+00	0	44	0	573571072	58	4300
2026-01-30 11:32:13.49	273.60	25.07	-43.7	-45.3	18.4	0.00e+00	0	43	0	575668224	58	4443
2026-01-30 11:32:14.63	273.94	25.05	-43.9	-45.3	18.4	0.00e+00	0	43	0	577765376	58	4479
2026-01-30 11:32:15.81	274.29	25.04	-44.0	-45.5	18.2	0.00e+00	0	44	0	579862528	58	4574
2026-01-30 11:32:16.85	274.59	25.02	-44.2	-45.7	18.0	0.00e+00	0	43	0	581959680	59	4428
2026-01-30 11:32:17.84	274.88	25.01	-44.3	-45.9	17.8	0.00e+00	0	43	0	584056832	59	4498
2026-01-30 11:32:18.85	275.18	25.00	-44.4	-46.0	17.7	3.00e-06	0	44	0	585105408	59	4571
2026-01-30 11:32:19.85	275.47	24.98	-44.4	-46.0	17.8	0.00e+00	0	43	0	587202560	59	4578
2026-01-30 11:32:20.85	275.76	24.96	-44.2	-45.7	18.1	0.00e+00	0	43	0	589299712	59	4397
2026-01-30 11:32:21.85	276.05	24.95	-43.9	-45.4	18.3	0.00e+00	0	44	0	591396864	59	4254
2026-01-30 11:32:22.86	276.35	24.93	-44.0	-45.5	18.2	0.00e+00	0	44	0	592445440	59	4324
2026-01-30 11:32:23.86	276.64	24.91	-43.8	-45.2	18.5	9.07e-05	0	43	0	594542592	59	4184
2026-01-30 11:32:24.87	276.93	24.89	-44.0	-45.4	18.3	0.00e+00	0	43	0	596639744	59	4290
2026-01-30 11:32:25.87	277.22	24.87	-43.9	-45.4	18.3	0.00e+00	0	43	0	598736896	59	4259
2026-01-30 11:32:26.94	277.53	24.85	-43.7	-45.1	18.6	0.00e+00	0	43	0	600834048	59	4122
2026-01-30 11:32:27.86	277.80	24.83	-43.8	-45.3	18.5	0.00e+00	0	44	0	601882624	59	4200
2026-01-30 11:32:28.86	278.09	24.80	-43.7	-45.1	18.6	9.30e-05	0	43	0	603979776	59	4114
2026-01-30 11:32:29.86	278.38	24.78	-44.0	-45.4	18.3	0.00e+00	0	44	0	606076928	59	4276
2026-01-30 11:32:30.87	278.67	24.76	-43.9	-45.3	18.4	0.00e+00	0	43	0	608174080	59	4228
2026-01-30 11:32:31.87	278.95	24.73	-44.0	-45.5	18.3	0.00e+00	0	44	0	610271232	59	4299
2026-01-30 11:32:32.87	279.24	24.70	-43.8	-45.2	18.5	3.05e-05	0	43	0	611319808	59	4167
2026-01-30 11:32:33.87	279.53	24.68	-43.7	-45.0	18.6	0.00e+00	0	44	0	613416960	59	4096
2026-01-30 11:32:34.88	279.82	24.65	-43.5	-44.9	18.8	0.00e+00	0	44	0	615514112	59	4010
2026-01-30 11:32:35.88	280.10	24.62	-43.5	-44.8	18.9	0.00e+00	0	44	0	617611264	58	4238
2026-01-30 11:32:36.88	280.39	24.60	-43.4	-44.7	19.0	0.00e+00	0	44	0	619708416	58	4183
2026-01-30 11:32:37.88	280.67	24.57	-43.1	-44.4	19.3	6.10e-06	0	44	0	620756992	58	4020
2026-01-30 11:32:38.89	280.96	24.54	-43.2	-44.5	19.3	0.00e+00	0	43	0	622854144	58	4056
2026-01-30 11:32:39.89	281.24	24.51	-43.0	-44.2	19.4	0.00e+00	0	43	0	624951296	57	4169
2026-01-30 11:32:40.89	281.53	24.47	-43.1	-44.4	19.3	0.00e+00	0	43	0	627048448	57	4271
2026-01-30 11:32:41.89	281.81	24.44	-43.2	-44.4	19.2	0.00e+00	0	43	0	629145600	57	4289
2026-01-30 11:32:42.90	282.10	24.41	-43.2	-44.5	19.2	3.00e-06	0	43	0	630194176	57	4296
2026-01-30 11:32:43.90	282.38	24.38	-43.0	-44.2	19.4	0.00e+00	0	44	0	632291328	57	4187
2026-01-30 11:32:44.91	282.66	24.34	-42.9	-44.1	19.5	0.00e+00	0	43	0	634388480	57	4128
2026-01-30 11:32:45.91	282.94	24.31	-43.2	-44.5	19.2	0.00e+00	0	43	0	636485632	57	4316
2026-01-30 11:32:46.91	283.22	24.27	-43.2	-44.5	19.2	3.80e-06	0	43	0	637534208	57	4312
2026-01-30 11:32:47.92	283.50	24.24	-43.2	-44.5	19.2	2.20e-06	0	44	0	639631360	57	4307
2026-01-30 11:32:48.92	283.78	24.20	-43.2	-44.5	19.2	0.00e+00	0	43	0	641728512	57	4313
2026-01-30 11:32:49.96	284.07	24.16	-43.2	-44.4	19.3	0.00e+00	0	44	0	643825664	57	4276
2026-01-30 11:32:50.99	284.35	24.12	-43.0	-44.2	19.4	0.00e+00	0	43	0	645922816	57	4186
2026-01-30 11:32:51.99	284.63	24.08	-42.8	-44.0	19.5	0.00e+00	0	44	0	648019968	57	4087
2026-01-30 11:32:53.00	284.91	24.05	-42.6	-43.7	19.9	0.00e+00	0	43	0	649068544	57	3937
2026-01-30 11:32:54.00	285.18	24.01	-42.6	-43.8	19.8	0.00e+00	0	43	0	651165696	57	3992
2026-01-30 11:32:55.00	285.46	23.97	-42.7	-43.9	19.7	0.00e+00	0	44	0	653262848	57	4050
2026-01-30 11:32:56.00	285.73	23.92	-42.7	-43.9	19.7	0.00e+00	0	43	0	655360000	57	4050
2026-01-30 11:32:57.01	286.01	23.88	-42.9	-44.1	19.5	7.60e-06	0	44	0	657457152	57	4144
2026-01-30 11:32:58.01	286.28	23.84	-43.2	-44.5	19.2	0.00e+00	0	44	0	658505728	57	4308
2026-01-30 11:32:59.01	286.55	23.80	-43.5	-44.8	18.9	0.00e+00	0	44	0	660602880	57	4490
2026-01-30 11:33:00.01	286.82	23.75	-43.4	-44.8	18.9	0.00e+00	0	43	0	662700032	57	4460
2026-01-30 11:33:01.02	287.10	23.71	-43.3	-44.7	19.0	0.00e+00	0	44	0	664797184	57	4416
2026-01-30 11:33:02.02	287.36	23.67	-43.2	-44.5	19.2	3.80e-06	0	43	0	665845760	57	4334
2026-01-30 11:33:03.02	287.63	23.62	-42.8	-44.1	19.5	0.00e+00	0	43	0	667942912	57	4105
2026-01-30 11:33:04.02	287.90	23.58	-42.7	-43.9	19.7	0.00e+00	0	43	0	670040064	57	4042
2026-01-30 11:33:05.02	288.17	23.53	-42.6	-43.8	19.8	0.00e+00	0	43	0	672137216	57	3985
2026-01-30 11:33:06.03	288.44	23.48	-42.5	-43.7	19.9	0.00e+00	0	43	0	674234368	56	4163
2026-01-30 11:33:07.03	288.70	23.44	-42.5	-43.7	19.9	0.00e+00	0	44	0	675282944	56	4161
2026-01-30 11:33:08.03	288.97	23.39	-42.5	-43.6	20.0	0.00e+00	0	43	0	677380096	56	4142
2026-01-30 11:33:09.04	289.23	23.34	-42.4	-43.5	20.1	0.00e+00	0	44	0	679477248	56	4077
2026-01-30 11:33:10.04	289.50	23.29	-42.1	-43.3	20.3	0.00e+00	0	43	0	681574400	56	3962
2026-01-30 11:33:11.04	289.76	23.24	-41.6	-42.7	20.7	3.00e-06	0	43	0	683671552	55	3919
2026-01-30 11:33:12.04	290.02	23.19	-41.4	-42.5	20.8	0.00e+00	0	43	0	684720128	54	4069
2026-01-30 11:33:13.04	290.28	23.14	-41.3	-42.3	20.9	0.00e+00	0	43	0	686817280	54	4000
2026-01-30 11:33:14.05	290.54	23.09	-41.6	-42.7	20.7	0.00e+00	0	44	0	688914432	54	4149
2026-01-30 11:33:15.05	290.80	23.04	-41.9	-43.0	20.4	0.00e+00	0	43	0	691011584	54	4292
2026-01-30 11:33:16.05	291.06	22.99	-42.3	-43.5	20.0	2.20e-06	0	44	0	693108736	55	4292
2026-01-30 11:33:17.05	291.31	22.93	-42.6	-43.8	19.7	0.00e+00	0	43	0	694157312	55	4461
2026-01-30 11:33:18.05	291.57	22.88	-42.6	-43.8	19.7	0.00e+00	0	44	0	696254464	55	4473
2026-01-30 11:33:19.06	291.83	22.83	-42.3	-43.5	20.0	0.00e+00	0	43	0	698351616	55	4307
2026-01-30 11:33:20.06	292.08	22.77	-41.8	-42.9	20.4	1.67e-05	0	43	0	700448768	55	4034
2026-01-30 11:33:21.06	292.34	22.72	-41.8	-42.9	20.4	0.00e+00	0	43	0	702545920	55	4033
2026-01-30 11:33:22.18	292.62	22.66	-41.6	-42.6	20.7	0.00e+00	0	43	0	704643072	55	3911
2026-01-30 11:33:23.04	292.84	22.61	-42.0	-43.1	20.3	0.00e+00	0	43	0	705691648	55	4102
2026-01-30 11:33:24.18	293.12	22.55	-42.1	-43.2	20.2	0.00e+00	0	44	0	707788800	55	4176
2026-01-30 11:33:25.14	293.36	22.49	-42.4	-43.6	19.9	7.00e-07	0	43	0	709885952	55	4351
2026-01-30 11:33:26.35	293.66	22.43	-42.5	-43.7	19.8	0.00e+00	0	43	0	711983104	55	4412
2026-01-30 11:33:27.24	293.88	22.37	-42.8	-44.1	19.6	0.00e+00	0	43	0	714080256	56	4350
2026-01-30 11:33:28.38	294.17	22.31	-42.7	-43.9	19.8	0.00e+00	0	43	0	716177408	56	4257
2026-01-30 11:33:29.31	294.40	22.26	-42.5	-43.7	19.9	0.00e+00	0	43	0	717225984	56	4175
2026-01-30 11:33:30.31	294.64	22.20	-42.3	-43.5	20.1	6.10e-06	0	43	0	719323136	56	4068
2026-01-30 11:33:31.31	294.89	22.14	-42.3	-43.4	20.2	0.00e+00	0	44	0	721420288	56	4039
2026-01-30 11:33:32.32	295.13	22.08	-42.4	-43.6	20.0	0.00e+00	0	43	0	723517440	56	4114
2026-01-30 11:33:33.32	295.37	22.02	-42.6	-43.8	19.8	0.00e+00	0	44	0	724566016	56	4240
2026-01-30 11:33:34.32	295.62	21.96	-42.8	-44.0	19.7	0.00e+00	0	43	0	726663168	56	4311
2026-01-30 11:33:35.32	295.86	21.90	-42.9	-44.1	19.5	5.30e-06	0	44	0	728760320	56	4391
2026-01-30 11:33:36.32	296.10	21.84	-42.9	-44.2	19.5	0.00e+00	0	43	0	730857472	56	4392
2026-01-30 11:33:37.33	296.34	21.78	-42.8	-44.0	19.7	0.00e+00	0	43	0	732954624	56	4307
2026-01-30 11:33:38.33	296.58	21.72	-42.8	-44.0	19.7	0.00e+00	0	44	0	734003200	56	4298
2026-01-30 11:33:39.33	296.81	21.66	-42.7	-43.9	19.8	3.66e-05	0	43	0	736100352	56	4255
2026-01-30 11:33:40.34	297.05	21.59	-42.8	-44.0	19.7	0.00e+00	0	43	0	738197504	56	4306
2026-01-30 11:33:41.34	297.29	21.53	-42.8	-44.0	19.6	0.00e+00	0	43	0	740294656	56	4330
2026-01-30 11:33:42.34	297.52	21.47	-43.0	-44.2	19.5	0.00e+00	0	43	0	742391808	56	4437
2026-01-30 11:33:43.34	297.75	21.41	-43.0	-44.2	19.5	0.00e+00	0	43	0	743440384	56	4436
2026-01-30 11:33:44.34	297.99	21.34	-43.2	-44.5	19.3	0.00e+00	0	43	0	745537536	56	4556
2026-01-30 11:33:45.35	298.22	21.28	-43.5	-44.9	18.9	0.00e+00	0	44	0	747634688	57	4505
2026-01-30 11:33:46.35	298.45	21.22	-43.8	-45.3	18.5	0.00e+00	0	43	0	749731840	58	4445
2026-01-30 11:33:47.35	298.68	21.15	-44.0	-45.5	18.3	0.00e+00	0	44	0	751828992	58	4585
2026-01-30 11:33:48.36	298.91	21.09	-44.2	-45.7	18.1	0.00e+00	0	43	0	752877568	58	4690
2026-01-30 11:33:49.36	299.14	21.02	-44.1	-45.6	18.2	0.00e+00	0	43	0	754974720	59	4361
2026-01-30 11:33:50.36	299.37	20.96	-43.9	-45.4	18.4	0.00e+00	0	43	0	757071872	59	4267
2026-01-30 11:33:51.37	299.60	20.89	-43.4	-44.8	19.0	0.00e+00	0	43	0	759169024	58	4203
2026-01-30 11:33:52.37	299.82	20.83	-43.3	-44.6	19.1	0.00e+00	0	44	0	761266176	58	4144
2026-01-30 11:33:53.37	300.04	20.76	-43.1	-44.4	19.3	0.00e+00	0	43	0	762314752	58	4021
2026-01-30 11:33:54.38	300.27	20.70	-43.2	-44.5	19.3	0.00e+00	0	43	0	764411904	58	4057
2026-01-30 11:33:55.38	300.49	20.63	-43.2	-44.4	19.3	0.00e+00	0	43	0	766509056	58	4049
2026-01-30 11:33:56.38	300.71	20.56	-43.6	-44.9	18.8	0.00e+00	0	44	0	768606208	58	4266
2026-01-30 11:33:57.38	300.93	20.50	-43.8	-45.1	18.6	0.00e+00	0	43	0	769654784	58	4378
2026-01-30 11:33:58.39	301.15	20.43	-43.9	-45.3	18.6	0.00e+00	0	44	0	771751936	58	4449
2026-01-30 11:33:59.39	301.37	20.36	-44.1	-45.6	18.2	0.00e+00	0	43	0	773849088	58	4629
2026-01-30 11:34:00.39	301.59	20.29	-44.3	-45.8	18.0	0.00e+00	0	43	0	775946240	59	4475
2026-01-30 11:34:01.39	301.81	20.23	-44.2	-45.7	18.1	0.00e+00	0	44	0	778043392	59	4432
2026-01-30 11:34:02.39	302.02	20.16	-44.4	-46.0	17.9	0.00e+00	0	43	0	779091968	59	4561
2026-01-30 11:34:03.40	302.24	20.09	-44.5	-46.1	17.8	0.00e+00	0	44	0	781189120	59	4611
2026-01-30 11:34:04.40	302.45	20.02	-44.3	-45.8	18.0	0.00e+00	0	43	0	783286272	59	4481
2026-01-30 11:34:05.40	302.67	19.95	-44.4	-45.9	17.9	0.00e+00	0	43	0	785383424	59	4544
2026-01-30 11:34:06.40	302.88	19.89	-44.1	-45.6	18.2	0.00e+00	0	43	0	787480576	59	4385
2026-01-30 11:34:07.41	303.09	19.82	-44.0	-45.5	18.3	0.00e+00	0	43	0	788529152	59	4317
2026-01-30 11:34:08.41	303.30	19.75	-44.0	-45.5	18.3	0.00e+00	0	44	0	790626304	59	4314
2026-01-30 11:34:09.41	303.51	19.68	-43.8	-45.2	18.6	0.00e+00	0	43	0	792723456	59	4183
2026-01-30 11:34:10.41	303.72	19.61	-44.0	-45.5	18.3	0.00e+00	0	43	0	794820608	59	4316
2026-01-30 11:34:11.42	303.93	19.54	-44.1	-45.5	18.3	0.00e+00	0	44	0	796917760	59	4325
2026-01-30 11:34:12.42	304.13	19.47	-44.4	-45.9	17.8	0.00e+00	0	43	0	797966336	59	4544
2026-01-30 11:34:13.42	304.34	19.40	-44.5	-46.1	17.8	0.00e+00	0	43	0	800063488	59	4632
2026-01-30 11:34:14.46	304.55	19.33	-44.7	-46.3	17.5	0.00e+00	0	43	0	802160640	59	4723
2026-01-30 11:34:15.47	304.76	19.26	-44.7	-46.3	17.6	0.00e+00	0	43	0	804257792	60	4488
2026-01-30 11:34:16.51	304.97	19.18	-44.5	-46.1	17.8	0.00e+00	0	43	0	806354944	60	4383
2026-01-30 11:34:17.51	305.17	19.11	-44.5	-46.1	17.7	0.00e+00	0	43	0	807403520	60	4389
2026-01-30 11:34:18.57	305.38	19.04	-44.3	-45.9	18.0	0.00e+00	0	43	0	809500672	60	4246
2026-01-30 11:34:19.43	305.55	18.98	-44.2	-45.8	18.1	0.00e+00	0	43	0	811597824	60	4219
2026-01-30 11:34:20.58	305.78	18.90	-44.5	-46.1	17.8	0.00e+00	0	43	0	813694976	60	4370
2026-01-30 11:34:21.44	305.95	18.83	-44.5	-46.1	17.7	0.00e+00	0	43	0	815792128	60	4391
2026-01-30 11:34:22.58	306.18	18.75	-44.9	-46.7	17.2	0.00e+00	0	43	0	817889280	60	4656
2026-01-30 11:34:23.44	306.35	18.69	-44.8	-46.6	17.3	0.00e+00	0	43	0	818937856	60	4602
2026-01-30 11:34:24.59	306.57	18.61	-44.8	-46.5	17.4	0.00e+00	0	43	0	821035008	60	4565
2026-01-30 11:34:25.45	306.74	18.55	-44.7	-46.5	17.4	0.00e+00	0	44	0	823132160	60	4549
2026-01-30 11:34:26.59	306.96	18.47	-44.6	-46.3	17.6	0.00e+00	0	43	0	825229312	60	4448
2026-01-30 11:34:27.45	307.12	18.41	-44.6	-46.2	17.6	0.00e+00	0	43	0	826277888	60	4440
2026-01-30 11:34:28.60	307.34	18.32	-44.4	-46.1	17.8	0.00e+00	0	43	0	828375040	60	4342
2026-01-30 11:34:29.81	307.57	18.24	-44.7	-46.4	17.5	0.00e+00	0	43	0	830472192	60	4534
2026-01-30 11:34:30.85	307.77	18.16	-44.5	-46.2	17.7	0.00e+00	0	43	0	832569344	60	4419
2026-01-30 11:34:31.85	307.96	18.09	-44.7	-46.4	17.5	0.00e+00	0	43	0	834666496	60	4539
2026-01-30 11:34:32.85	308.15	18.02	-44.6	-46.3	17.5	0.00e+00	0	44	0	836763648	60	4480
2026-01-30 11:34:33.85	308.34	17.95	-44.2	-45.8	18.0	0.00e+00	0	43	0	838860800	60	4228
2026-01-30 11:34:34.85	308.52	17.87	-44.1	-45.6	18.2	0.00e+00	0	43	0	840957952	60	4127
2026-01-30 11:34:35.86	308.71	17.80	-43.7	-45.1	18.6	0.00e+00	0	43	0	842006528	59	4144
2026-01-30 11:34:36.86	308.89	17.73	-43.7	-45.2	18.6	0.00e+00	0	44	0	844103680	59	4155
2026-01-30 11:34:37.87	309.08	17.65	-43.8	-45.3	18.5	0.00e+00	0	43	0	846200832	59	4208
2026-01-30 11:34:38.87	309.26	17.58	-43.9	-45.4	18.4	0.00e+00	0	44	0	848297984	59	4261
2026-01-30 11:34:39.89	309.45	17.51	-44.1	-45.6	18.2	0.00e+00	0	44	0	850395136	59	4377
2026-01-30 11:34:40.89	309.63	17.44	-44.2	-45.7	18.0	0.00e+00	0	43	0	851443712	59	4423
2026-01-30 11:34:41.95	309.82	17.36	-44.4	-46.0	17.8	0.00e+00	0	43	0	853540864	59	4566
2026-01-30 11:34:42.86	309.98	17.29	-44.5	-46.1	17.7	0.00e+00	0	44	0	855638016	59	4628
2026-01-30 11:34:43.86	310.16	17.22	-44.5	-46.1	17.6	0.00e+00	0	43	0	857735168	59	4647
2026-01-30 11:34:44.86	310.34	17.15	-44.4	-46.0	17.7	0.00e+00	0	44	0	858783744	59	4596
2026-01-30 11:34:45.87	310.52	17.07	-44.4	-46.0	17.8	0.00e+00	0	43	0	860880896	59	4579
2026-01-30 11:34:46.87	310.69	17.00	-44.4	-46.1	17.7	0.00e+00	0	44	0	862978048	59	4630
2026-01-30 11:34:47.87	310.87	16.93	-44.6	-46.3	17.5	0.00e+00	0	43	0	865075200	59	4742
2026-01-30 11:34:48.88	311.04	16.85	-45.0	-46.8	17.1	0.00e+00	0	43	0	867172352	60	4746
2026-01-30 11:34:49.88	311.22	16.78	-45.3	-47.3	16.7	0.00e+00	0	43	0	868220928	61	4747
2026-01-30 11:34:50.88	311.39	16.71	-45.6	-47.7	16.2	0.00e+00	0	43	0	870318080	61	4967
2026-01-30 11:34:51.89	311.56	16.63	-45.7	-47.9	16.0	0.00e+00	0	43	0	872415232	62	4777
2026-01-30 11:34:52.96	311.74	16.56	-45.6	-47.7	16.2	0.00e+00	0	43	0	874512384	62	4666
2026-01-30 11:34:53.83	311.89	16.49	-45.4	-47.5	16.5	0.00e+00	0	44	0	875560960	62	4555
2026-01-30 11:34:55.15	312.12	16.40	-44.8	-46.6	17.3	0.00e+00	0	43	0	878706688	61	4351
2026-01-30 11:34:56.29	312.31	16.31	-44.3	-46.0	17.9	0.00e+00	0	43	0	880803840	60	4294
2026-01-30 11:34:57.14	312.45	16.25	-44.1	-45.6	18.2	0.00e+00	0	44	0	881852416	60	4142
2026-01-30 11:34:58.29	312.64	16.17	-44.0	-45.5	18.2	0.00e+00	0	43	0	883949568	59	4330
2026-01-30 11:34:59.15	312.78	16.10	-43.9	-45.4	18.4	0.00e+00	0	44	0	886046720	59	4279
2026-01-30 11:35:00.30	312.97	16.02	-44.2	-45.8	18.0	0.00e+00	0	43	0	888143872	59	4447
2026-01-30 11:35:01.16	313.12	15.96	-44.4	-46.1	17.7	0.00e+00	0	43	0	890241024	59	4607
2026-01-30 11:35:02.43	313.32	15.86	-44.6	-46.3	17.5	0.00e+00	0	43	0	892338176	59	4719
2026-01-30 11:35:03.16	313.44	15.81	-44.8	-46.6	17.3	0.00e+00	0	43	0	893386752	60	4623
2026-01-30 11:35:04.64	313.68	15.70	-44.5	-46.3	17.6	0.00e+00	0	43	0	896532480	60	4442
2026-01-30 11:35:05.36	313.80	15.65	-44.4	-46.2	17.6	0.00e+00	0	44	0	897581056	60	4404
2026-01-30 11:35:06.65	314.00	15.55	-44.3	-46.0	17.8	0.00e+00	0	43	0	899678208	60	4316
2026-01-30 11:35:07.36	314.12	15.50	-44.2	-45.8	18.0	0.00e+00	0	43	0	901775360	60	4230
2026-01-30 11:35:08.65	314.32	15.41	-43.9	-45.4	18.3	0.00e+00	0	43	0	903872512	59	4270
2026-01-30 11:35:09.37	314.44	15.36	-44.1	-45.6	18.1	0.00e+00	0	43	0	904921088	59	4369
2026-01-30 11:35:10.66	314.64	15.26	-44.0	-45.6	18.1	0.00e+00	0	43	0	908066816	59	4356
2026-01-30 11:35:11.37	314.75	15.21	-44.2	-45.8	17.9	0.00e+00	0	44	0	909115392	59	4471
2026-01-30 11:35:12.66	314.95	15.12	-44.3	-45.9	17.8	0.00e+00	0	43	0	911212544	59	4535
2026-01-30 11:35:13.38	315.06	15.06	-44.5	-46.1	17.7	0.00e+00	0	43	0	912261120	59	4633
2026-01-30 11:35:14.67	315.26	14.97	-44.8	-46.6	17.3	0.00e+00	0	43	0	915406848	60	4605
2026-01-30 11:35:15.39	315.37	14.92	-44.7	-46.5	17.4	0.00e+00	0	43	0	916455424	60	4559
2026-01-30 11:35:16.68	315.57	14.82	-44.6	-46.4	17.4	0.00e+00	0	44	0	918552576	60	4514
2026-01-30 11:35:17.39	315.68	14.77	-44.5	-46.3	17.5	0.00e+00	0	44	0	920649728	60	4447
2026-01-30 11:35:18.68	315.87	14.68	-44.4	-46.1	17.7	0.00e+00	0	43	0	922746880	60	4373
2026-01-30 11:35:19.40	315.98	14.62	-44.4	-46.1	17.7	0.00e+00	0	43	0	923795456	60	4348
2026-01-30 11:35:20.78	316.19	14.52	-44.6	-46.3	17.5	0.00e+00	0	44	0	926941184	60	4482
2026-01-30 11:35:21.50	316.30	14.47	-44.6	-46.4	17.4	0.00e+00	0	43	0	927989760	60	4531
2026-01-30 11:35:22.85	316.50	14.37	-44.9	-46.8	17.1	0.00e+00	0	44	0	930086912	60	4742
2026-01-30 11:35:23.57	316.60	14.32	-45.1	-47.1	16.8	0.00e+00	0	43	0	932184064	60	4889
2026-01-30 11:35:24.86	316.79	14.23	-45.2	-47.3	16.6	0.00e+00	0	44	0	934281216	61	4724
2026-01-30 11:35:25.58	316.90	14.18	-45.2	-47.3	16.6	0.00e+00	0	43	0	935329792	61	4729
2026-01-30 11:35:26.87	317.08	14.08	-45.1	-47.2	16.7	0.00e+00	0	43	0	937426944	61	4657
2026-01-30 11:35:27.59	317.19	14.03	-45.2	-47.3	16.6	0.00e+00	0	43	0	939524096	61	4733
2026-01-30 11:35:28.88	317.37	13.94	-44.8	-46.6	17.3	0.00e+00	0	44	0	941621248	61	4360
2026-01-30 11:35:29.61	317.48	13.88	-44.7	-46.5	17.3	0.00e+00	0	44	0	942669824	61	4314
2026-01-30 11:35:30.90	317.66	13.79	-44.6	-46.2	17.5	0.00e+00	0	43	0	945815552	61	4193
2026-01-30 11:35:31.61	317.76	13.74	-44.7	-46.4	17.5	0.00e+00	0	43	0	946864128	60	4494
2026-01-30 11:35:32.90	317.95	13.65	-44.8	-46.5	17.3	0.00e+00	0	43	0	948961280	60	4590
2026-01-30 11:35:33.62	318.05	13.59	-44.7	-46.4	17.5	0.00e+00	0	43	0	951058432	60	4504
2026-01-30 11:35:34.91	318.23	13.50	-44.9	-46.6	17.2	0.00e+00	0	44	0	953155584	60	4650
2026-01-30 11:35:35.62	318.33	13.45	-44.9	-46.7	17.1	0.00e+00	0	44	0	954204160	60	4680
2026-01-30 11:35:36.91	318.51	13.36	-45.2	-47.1	16.8	0.00e+00	0	44	0	956301312	61	4616
2026-01-30 11:35:37.63	318.61	13.31	-45.3	-47.4	16.5	0.00e+00	0	43	0	958398464	61	4760
2026-01-30 11:35:38.92	318.78	13.21	-45.4	-47.5	16.4	0.00e+00	0	44	0	960495616	61	4832
2026-01-30 11:35:39.63	318.88	13.16	-45.3	-47.3	16.5	0.00e+00	0	43	0	961544192	61	4753
2026-01-30 11:35:41.15	319.09	13.05	-45.3	-47.4	16.4	0.00e+00	0	43	0	964689920	61	4779
2026-01-30 11:35:41.86	319.18	13.00	-45.0	-47.0	16.8	0.00e+00	0	43	0	965738496	61	4575
2026-01-30 11:35:43.15	319.36	12.91	-44.9	-46.8	17.0	0.00e+00	0	44	0	968884224	61	4484
2026-01-30 11:35:43.87	319.45	12.86	-44.9	-46.9	17.0	0.00e+00	0	43	0	969932800	61	4500
2026-01-30 11:35:45.16	319.63	12.77	-44.8	-46.9	16.9	0.00e+00	0	43	0	972029952	61	4511
2026-01-30 11:35:45.87	319.72	12.72	-44.9	-46.9	16.9	0.00e+00	0	43	0	973078528	61	4532
2026-01-30 11:35:47.16	319.89	12.63	-44.9	-47.0	16.8	0.00e+00	0	44	0	976224256	61	4593
2026-01-30 11:35:47.88	319.99	12.57	-45.1	-47.3	16.5	0.00e+00	0	43	0	977272832	61	4736
2026-01-30 11:35:49.17	320.16	12.48	-45.1	-47.2	16.6	0.00e+00	0	43	0	979369984	61	4698
2026-01-30 11:35:49.98	320.26	12.42	-45.2	-47.4	16.5	0.00e+00	0	43	0	981467136	61	4774
2026-01-30 11:35:51.13	320.41	12.34	-45.3	-47.3	16.5	0.00e+00	0	43	0	983564288	61	4755
2026-01-30 11:35:52.22	320.55	12.27	-45.2	-47.2	16.7	0.00e+00	0	43	0	985661440	61	4657
2026-01-30 11:35:53.26	320.69	12.19	-45.1	-47.1	16.8	0.00e+00	0	44	0	987758592	61	4617
2026-01-30 11:35:54.26	320.81	12.12	-44.9	-46.8	17.0	0.00e+00	0	44	0	988807168	61	4459
2026-01-30 11:35:55.26	320.94	12.05	-44.6	-46.5	17.2	0.00e+00	0	43	0	990904320	61	4339
2026-01-30 11:35:56.26	321.07	11.98	-44.6	-46.6	17.3	0.00e+00	0	43	0	993001472	60	4600
2026-01-30 11:35:57.26	321.19	11.91	-44.5	-46.4	17.4	0.00e+00	0	44	0	995098624	60	4540
2026-01-30 11:35:58.27	321.32	11.84	-44.4	-46.4	17.3	0.00e+00	0	43	0	997195776	60	4530
2026-01-30 11:35:59.27	321.45	11.77	-44.2	-46.2	17.6	0.00e+00	0	43	0	998244352	60	4398
2026-01-30 11:36:00.27	321.57	11.70	-44.2	-46.0	17.7	0.00e+00	0	43	0	1000341504	60	4339
2026-01-30 11:36:01.27	321.69	11.63	-44.2	-46.1	17.7	0.00e+00	0	44	0	1002438656	60	4364
2026-01-30 11:36:02.28	321.82	11.56	-44.4	-46.3	17.5	0.00e+00	0	44	0	1004535808	60	4468
2026-01-30 11:36:03.27	321.94	11.49	-44.4	-46.2	17.5	0.00e+00	0	43	0	1006632960	60	4438
2026-01-30 11:36:04.28	322.06	11.42	-44.6	-46.6	17.2	0.00e+00	0	43	0	1007681536	60	4600
2026-01-30 11:36:05.28	322.18	11.35	-44.7	-46.6	17.2	0.00e+00	0	44	0	1009778688	60	4612
2026-01-30 11:36:06.47	322.33	11.27	-44.8	-46.6	17.2	0.00e+00	0	43	0	1011875840	60	4632
2026-01-30 11:36:07.36	322.44	11.20	-44.9	-46.7	17.1	0.00e+00	0	44	0	1013972992	60	4692
2026-01-30 11:36:08.51	322.57	11.13	-44.8	-46.7	17.1	0.00e+00	0	44	0	1016070144	60	4667
2026-01-30 11:36:09.37	322.68	11.07	-44.7	-46.6	17.2	0.00e+00	0	43	0	1017118720	60	4605
2026-01-30 11:36:10.51	322.81	10.99	-44.7	-46.5	17.2	0.00e+00	0	43	0	1020264448	60	4580
2026-01-30 11:36:11.38	322.91	10.93	-44.5	-46.3	17.4	0.00e+00	0	43	0	1021313024	60	4492
2026-01-30 11:36:12.52	323.05	10.85	-44.5	-46.4	17.3	0.00e+00	0	44	0	1023410176	60	4539
2026-01-30 11:36:13.38	323.15	10.79	-44.5	-46.4	17.4	0.00e+00	0	44	0	1025507328	60	4517
2026-01-30 11:36:14.53	323.28	10.71	-44.5	-46.5	17.2	0.00e+00	0	44	0	1027604480	60	4591
2026-01-30 11:36:15.39	323.38	10.65	-44.4	-46.5	17.3	0.00e+00	0	44	0	1028653056	60	4554
2026-01-30 11:36:16.53	323.52	10.57	-44.5	-46.7	17.1	0.00e+00	0	43	0	1030750208	60	4664
2026-01-30 11:36:17.39	323.61	10.51	-44.6	-46.8	16.9	0.00e+00	0	44	0	1032847360	60	4759
2026-01-30 11:36:18.54	323.75	10.43	-44.8	-47.2	16.6	0.00e+00	0	44	0	1034944512	60	4949
2026-01-30 11:36:19.40	323.84	10.38	-44.8	-47.2	16.6	0.00e+00	0	43	0	1035993088	60	4938
2026-01-30 11:36:20.55	323.97	10.30	-44.8	-47.2	16.6	0.00e+00	0	43	0	1039138816	60	4949
2026-01-30 11:36:21.40	324.07	10.24	-44.9	-47.2	16.5	0.00e+00	0	44	0	1040187392	60	4976
2026-01-30 11:36:22.55	324.20	10.16	-44.8	-47.2	16.6	0.00e+00	0	43	0	1042284544	60	4938
2026-01-30 11:36:23.41	324.30	10.10	-44.9	-47.3	16.4	0.00e+00	0	43	0	1044381696	60	5013
2026-01-30 11:36:24.55	324.42	10.02	-44.9	-47.2	16.5	0.00e+00	0	44	0	1046478848	60	4979
2026-01-30 11:36:25.41	324.52	9.97	-44.9	-47.3	16.5	0.00e+00	0	43	0	1047527424	60	4989
2026-01-30 11:36:26.56	324.65	9.89	-44.8	-47.1	16.6	0.00e+00	0	44	0	1049624576	60	4899
2026-01-30 11:36:27.42	324.74	9.83	-44.6	-46.9	16.8	0.00e+00	0	44	0	1051721728	60	4784
2026-01-30 11:36:28.56	324.87	9.75	-44.6	-46.8	16.9	0.00e+00	0	44	0	1053818880	60	4744
2026-01-30 11:36:29.42	324.96	9.70	-44.6	-46.9	16.8	0.00e+00	0	44	0	1054867456	60	4812
2026-01-30 11:36:30.57	325.08	9.62	-44.7	-47.0	16.7	0.00e+00	0	44	0	1056964608	60	4851
2026-01-30 11:36:31.43	325.18	9.56	-44.6	-47.0	16.7	0.00e+00	0	44	0	1059061760	60	4815
2026-01-30 11:36:32.61	325.30	9.48	-44.6	-47.1	16.7	0.00e+00	0	44	0	1061158912	60	4872
2026-01-30 11:36:33.47	325.40	9.42	-44.7	-47.1	16.6	0.00e+00	0	44	0	1063256064	60	4902
2026-01-30 11:36:34.73	325.53	9.34	-44.9	-47.5	16.2	0.00e+00	0	44	0	1065353216	60	5117
2026-01-30 11:36:35.47	325.61	9.29	-44.9	-47.5	16.3	0.00e+00	0	43	0	1066401792	60	5115
2026-01-30 11:36:36.76	325.75	9.20	-44.9	-47.5	16.2	0.00e+00	0	44	0	1068498944	60	5136
2026-01-30 11:36:37.48	325.82	9.16	-45.0	-47.6	16.1	0.00e+00	0	44	0	1070596096	60	5176
2026-01-30 11:36:38.77	325.96	9.07	-45.0	-47.5	16.2	0.00e+00	0	44	0	1072693248	60	5159
2026-01-30 11:36:39.48	326.03	9.02	-45.2	-47.9	15.9	0.00e+00	0	43	0	1073741824	60	5356
2026-01-30 11:36:40.77	326.16	8.94	-50.2	-64.9	3.8	1.49e+00	0	44	104	1074790400	71	20128
2026-01-30 11:36:41.49	326.24	8.89	-49.5	-64.8	3.8	1.49e+00	0	44	104	1074790400	70	21249
2026-01-30 11:36:42.78	326.37	8.80	-50.2	-64.8	3.8	1.49e+00	0	44	104	1074790400	71	19888
2026-01-30 11:36:43.50	326.45	8.76	-50.2	-64.8	3.8	1.49e+00	0	43	104	1074790400	71	20021
2026-01-30 11:36:44.79	326.58	8.67	-50.1	-64.9	3.8	1.49e+00	0	43	104	1074790400	71	20074
2026-01-30 11:36:45.51	326.65	8.62	-50.3	-64.8	3.8	1.49e+00	0	44	104	1074790400	71	20054
2026-01-30 11:36:46.82	326.78	8.54	-50.5	-64.9	3.8	1.49e+00	0	44	104	1074790400	71	20128
2026-01-30 11:36:47.53	326.85	8.49	-50.4	-64.8	3.8	1.49e+00	0	44	104	1074790400	71	20060
2026-01-30 11:36:48.82	326.98	8.41	-50.6	-64.9	3.8	1.49e+00	0	43	104	1074790400	71	20137
2026-01-30 11:36:49.54	327.06	8.36	-50.6	-64.9	3.8	1.49e+00	0	43	104	1074790400	71	20145
2026-01-30 11:36:50.83	327.18	8.27	-50.6	-64.9	3.8	1.49e+00	0	44	104	1074790400	72	19055
2026-01-30 11:36:51.55	327.25	8.23	-50.6	-64.9	3.8	1.49e+00	0	44	104	1074790400	72	19103
2026-01-30 11:36:52.84	327.38	8.14	-50.6	-65.0	3.8	1.49e+00	0	44	104	1074790400	72	19176
2026-01-30 11:36:53.56	327.45	8.10	-50.6	-64.9	3.8	1.49e+00	0	44	104	1074790400	72	19117
2026-01-30 11:36:54.85	327.58	8.01	-50.6	-65.0	3.8	1.49e+00	0	44	104	1074790400	72	19207
2026-01-30 11:36:55.57	327.65	7.97	-50.6	-64.9	3.8	1.49e+00	0	44	104	1074790400	72	19149
2026-01-30 11:36:56.86	327.77	7.88	-50.5	-65.0	3.8	1.49e+00	0	43	104	1074790400	72	19191
2026-01-30 11:36:57.57	327.84	7.84	-50.5	-64.9	3.8	1.49e+00	0	44	104	1074790400	72	19156
2026-01-30 11:36:58.87	327.97	7.75	-50.5	-65.0	3.8	1.49e+00	0	43	104	1074790400	72	19207
2026-01-30 11:36:59.59	328.04	7.71	-50.6	-65.0	3.8	1.49e+00	0	43	104	1074790400	72	19207
2026-01-30 11:37:00.88	328.16	7.62	-50.5	-65.0	3.8	1.49e+00	0	44	104	1074790400	72	19186
2026-01-30 11:37:01.59	328.23	7.58	-50.5	-64.9	3.8	1.49e+00	0	44	104	1074790400	72	19069
2026-01-30 11:37:02.88	328.35	7.50	-50.5	-64.9	3.8	1.49e+00	0	44	104	1074790400	72	19110
2026-01-30 11:37:03.60	328.42	7.45	-50.5	-64.9	3.8	1.49e+00	0	43	104	1074790400	72	19154
2026-01-30 11:37:04.89	328.54	7.37	-50.5	-65.0	3.8	1.49e+00	0	44	104	1074790400	72	19173
2026-01-30 11:37:05.61	328.60	7.32	-50.5	-65.0	3.8	1.49e+00	0	44	104	1074790400	72	19187
2026-01-30 11:37:06.90	328.72	7.24	-50.6	-64.9	3.8	1.49e+00	0	43	104	1074790400	72	19095
2026-01-30 11:37:07.62	328.79	7.19	-50.5	-64.9	3.8	1.49e+00	0	44	104	1074790400	72	19161
2026-01-30 11:37:08.91	328.91	7.11	-50.6	-64.9	3.8	1.49e+00	0	44	104	1074790400	72	19135
2026-01-30 11:37:09.63	328.98	7.07	-50.5	-64.9	3.8	1.49e+00	0	44	104	1074790400	72	19086
2026-01-30 11:37:10.92	329.09	6.98	-50.5	-65.0	3.8	1.49e+00	0	43	104	1074790400	72	19174
2026-01-30 11:37:11.64	329.16	6.94	-50.5	-65.0	3.8	1.49e+00	0	43	104	1074790400	72	19202
2026-01-30 11:37:12.93	329.28	6.86	-50.5	-64.9	3.8	1.49e+00	0	44	104	1074790400	72	19086
2026-01-30 11:37:13.65	329.34	6.81	-50.5	-64.9	3.8	1.49e+00	0	43	104	1074790400	72	19099
2026-01-30 11:37:14.94	329.46	6.73	-50.5	-64.9	3.8	1.49e+00	0	43	104	1074790400	72	19124
2026-01-30 11:37:15.65	329.52	6.69	-50.5	-64.9	3.8	1.49e+00	0	43	104	1074790400	72	19128
2026-01-30 11:37:16.95	329.64	6.60	-50.5	-64.9	3.8	1.49e+00	0	43	104	1074790400	72	19110
2026-01-30 11:37:17.66	329.70	6.56	-50.5	-64.9	3.8	1.49e+00	0	44	104	1074790400	72	19076
2026-01-30 11:37:18.96	329.81	6.48	-50.5	-64.9	3.8	1.49e+00	0	44	104	1074790400	72	19120
2026-01-30 11:37:19.67	329.88	6.43	-50.5	-64.9	3.8	1.49e+00	0	44	104	1074790400	72	19113
2026-01-30 11:37:20.96	329.99	6.35	-50.5	-64.9	3.8	1.49e+00	0	43	104	1074790400	72	19025
2026-01-30 11:37:21.68	330.05	6.31	-50.5	-64.9	3.8	1.49e+00	0	44	104	1074790400	72	19153
2026-01-30 11:37:22.97	330.16	6.23	-50.5	-64.9	3.8	1.49e+00	0	44	104	1074790400	72	19157
2026-01-30 11:37:23.69	330.23	6.18	-50.5	-64.9	3.8	1.49e+00	0	43	104	1074790400	72	19166
2026-01-30 11:37:24.98	330.34	6.10	-50.5	-64.9	3.8	1.49e+00	0	44	104	1074790400	72	19133
2026-01-30 11:37:25.70	330.40	6.06	-50.5	-64.9	3.8	1.49e+00	0	43	104	1074790400	72	19150
2026-01-30 11:37:26.99	330.51	5.98	-50.5	-64.9	3.8	1.49e+00	0	44	104	1074790400	72	19104
2026-01-30 11:37:27.71	330.57	5.93	-50.5	-64.9	3.8	1.49e+00	0	44	104	1074790400	72	19132
2026-01-30 11:37:29.00	330.68	5.85	-50.5	-64.9	3.8	1.49e+00	0	44	104	1074790400	72	19121
2026-01-30 11:37:29.72	330.74	5.81	-50.5	-65.0	3.8	1.49e+00	0	44	104	1074790400	72	19194
2026-01-30 11:37:31.01	330.85	5.73	-50.5	-64.9	3.8	1.49e+00	0	43	104	1074790400	72	19098
2026-01-30 11:37:31.72	330.91	5.69	-50.5	-64.9	3.8	1.49e+00	0	44	104	1074790400	72	19059
2026-01-30 11:37:33.01	331.02	5.61	-50.5	-64.9	3.8	1.49e+00	0	44	104	1074790400	72	19057
2026-01-30 11:37:33.73	331.08	5.57	-50.5	-64.9	3.8	1.49e+00	0	44	104	1074790400	72	19086
2026-01-30 11:37:35.02	331.19	5.49	-50.5	-64.9	3.8	1.49e+00	0	44	104	1074790400	72	19062
2026-01-30 11:37:35.74	331.24	5.44	-50.5	-64.9	3.8	1.49e+00	0	44	104	1074790400	72	19107
2026-01-30 11:37:37.03	331.35	5.36	-50.5	-64.9	3.8	1.49e+00	0	44	104	1074790400	72	19157
2026-01-30 11:37:37.75	331.41	5.32	-50.5	-64.9	3.8	1.49e+00	0	43	104	1074790400	72	19070
2026-01-30 11:37:39.04	331.52	5.24	-50.5	-64.9	3.8	1.49e+00	0	44	104	1074790400	72	19105
2026-01-30 11:37:39.76	331.57	5.20	-50.5	-64.9	3.8	1.49e+00	0	44	104	1074790400	72	19166
2026-01-30 11:37:41.05	331.68	5.12	-50.5	-64.9	3.8	1.49e+00	0	44	104	1074790400	72	19119
2026-01-30 11:37:41.77	331.74	5.08	-50.5	-64.9	3.8	1.49e+00	0	44	104	1074790400	72	19110
2026-01-30 11:37:43.06	331.84	5.00	-50.5	-64.9	3.8	1.49e+00	0	44	104	1074790400	72	19127

#Closed at: 2026-01-30 11:37:43
#Recorded file [1074 MB]: D:/Data/31040_260130_142618.dat