passes_logs/2026/01/30/T1/T1__20260130_034810_AQUA_rec.log

#Pass ID: 20260130_034810_AQUA
#Satellite: AQUA
#Configuration: AQUA
#almurnet v.1.7.20251203
#Start time: 2026-01-30 03:48:11

#Version: 2.0.20230620
#Station: T1
#Location: 37.570604 lon 55.790049 lat
#TLE: 1 27424U 02022A   26028.91948147  .00001781  00000+0  36607-3 0  9997
#TLE: 2 27424  98.4103 355.5827 0001815  62.4290   1.4641 14.61871847262923

#Time	Az	El	Level	Level2	SNR	BER	BlckErr	Temp	State	Recorded	gain1	gain2
2026-01-30 03:48:11.14	354.28	5.01	-52.4	-71.3	3.8	7.46e-01	0	36	0	0	75	33672
2026-01-30 03:48:12.14	354.14	5.06	-52.4	-71.4	3.8	7.45e-01	0	36	104	0	75	33770
2026-01-30 03:48:13.15	354.00	5.10	-52.3	-71.4	3.8	7.43e-01	0	36	104	0	75	33808
2026-01-30 03:48:14.15	353.86	5.14	-52.4	-71.4	3.8	7.46e-01	0	36	104	0	75	33815
2026-01-30 03:48:15.16	353.72	5.19	-52.0	-71.4	3.8	7.45e-01	0	36	104	0	75	33710
2026-01-30 03:48:16.16	353.58	5.23	-52.3	-71.4	3.8	7.46e-01	0	36	104	0	75	33707
2026-01-30 03:48:17.17	353.44	5.28	-52.2	-71.3	3.8	7.47e-01	0	36	104	0	75	33649
2026-01-30 03:48:18.17	353.30	5.32	-51.9	-71.3	3.8	7.43e-01	0	36	104	0	75	33550
2026-01-30 03:48:19.17	353.16	5.36	-52.0	-71.3	3.8	7.43e-01	0	36	104	0	75	33545
2026-01-30 03:48:20.18	353.02	5.41	-52.1	-71.3	3.8	7.42e-01	0	36	104	0	75	33448
2026-01-30 03:48:21.18	352.87	5.45	-51.8	-71.3	3.8	7.47e-01	0	36	104	0	74	35305
2026-01-30 03:48:22.19	352.73	5.49	-51.9	-71.2	3.8	7.46e-01	0	36	104	0	74	35281
2026-01-30 03:48:23.19	352.59	5.54	-52.0	-71.2	3.8	7.48e-01	0	36	104	0	74	34904
2026-01-30 03:48:24.20	352.44	5.58	-50.1	-71.2	3.7	7.46e-01	0	36	104	0	72	39146
2026-01-30 03:48:25.20	352.30	5.62	-51.5	-71.1	3.8	7.48e-01	0	36	104	0	73	36726
2026-01-30 03:48:26.21	352.15	5.67	-51.5	-71.0	3.8	7.46e-01	0	36	104	0	73	36273
2026-01-30 03:48:27.21	352.01	5.71	-50.7	-71.1	3.8	7.47e-01	0	36	104	0	71	41247
2026-01-30 03:48:28.21	351.86	5.75	-51.0	-70.9	3.8	7.46e-01	0	37	104	0	73	35990
2026-01-30 03:48:29.22	351.72	5.80	-51.7	-70.9	3.8	7.45e-01	0	37	104	0	74	33887
2026-01-30 03:48:30.22	351.57	5.84	-49.5	-70.9	3.8	7.47e-01	0	37	104	0	69	45085
2026-01-30 03:48:31.23	351.42	5.88	-50.2	-70.8	3.8	7.47e-01	0	37	104	0	72	37700
2026-01-30 03:48:32.23	351.27	5.93	-51.1	-70.0	3.8	7.44e-01	0	37	104	0	72	34430
2026-01-30 03:48:33.24	351.12	5.97	-49.9	-69.2	3.8	7.48e-01	0	37	104	0	71	33106
2026-01-30 03:48:34.24	350.98	6.01	-42.4	-56.5	3.8	7.45e-01	0	37	104	0	56	18242
2026-01-30 03:48:35.25	350.83	6.05	-43.3	-57.9	3.8	7.46e-01	0	37	104	0	57	20076
2026-01-30 03:48:36.25	350.68	6.10	-44.7	-60.1	3.8	7.46e-01	0	37	104	0	60	21757
2026-01-30 03:48:37.25	350.53	6.14	-46.1	-62.7	3.8	7.47e-01	0	37	104	0	62	26355
2026-01-30 03:48:38.26	350.38	6.18	-46.9	-65.2	3.8	7.45e-01	0	37	104	0	64	31218
2026-01-30 03:48:39.26	350.23	6.22	-47.4	-66.9	3.8	7.47e-01	0	37	104	0	65	36075
2026-01-30 03:48:40.27	350.07	6.26	-47.6	-68.4	3.8	7.45e-01	0	37	104	0	65	42449
2026-01-30 03:48:41.27	349.92	6.31	-47.8	-69.5	3.8	7.48e-01	0	37	104	0	66	45683
2026-01-30 03:48:42.27	349.77	6.35	-48.0	-70.3	3.8	7.46e-01	0	37	104	0	66	50070
2026-01-30 03:48:43.28	349.62	6.39	-48.0	-70.3	3.8	7.46e-01	0	37	104	0	66	50087
2026-01-30 03:48:44.28	349.46	6.43	-47.9	-69.7	3.8	7.48e-01	0	37	104	0	66	46806
2026-01-30 03:48:45.29	349.31	6.47	-47.8	-69.0	3.8	7.45e-01	0	37	104	0	66	43193
2026-01-30 03:48:46.29	349.15	6.51	-47.8	-68.7	3.8	7.44e-01	0	37	104	0	66	41811
2026-01-30 03:48:47.30	349.00	6.56	-47.8	-68.6	3.8	7.45e-01	0	37	104	0	66	41402
2026-01-30 03:48:48.30	348.84	6.60	-47.8	-69.1	3.8	7.45e-01	0	37	104	0	66	43641
2026-01-30 03:48:49.30	348.69	6.64	-47.9	-69.6	3.8	7.47e-01	0	37	104	0	66	46200
2026-01-30 03:48:50.31	348.53	6.68	-47.9	-70.1	3.8	7.46e-01	0	37	104	0	66	49260
2026-01-30 03:48:51.31	348.37	6.72	-48.0	-70.3	3.8	7.46e-01	0	37	104	0	66	50295
2026-01-30 03:48:52.32	348.21	6.76	-47.9	-70.1	3.8	7.45e-01	0	37	104	0	66	48784
2026-01-30 03:48:53.32	348.06	6.80	-47.9	-69.6	3.8	7.44e-01	0	37	104	0	66	46120
2026-01-30 03:48:54.33	347.90	6.84	-47.8	-69.0	3.8	7.46e-01	0	37	104	0	66	43313
2026-01-30 03:48:55.33	347.74	6.88	-47.7	-68.6	3.8	7.46e-01	0	37	104	0	66	41315
2026-01-30 03:48:56.32	347.58	6.92	-47.7	-68.4	3.8	7.42e-01	0	37	104	0	66	40196
2026-01-30 03:48:57.32	347.42	6.96	-47.7	-68.4	3.8	7.46e-01	0	37	104	0	66	40110
2026-01-30 03:48:58.32	347.26	7.00	-47.7	-68.5	3.8	7.44e-01	0	37	104	0	66	40921
2026-01-30 03:48:59.33	347.10	7.04	-47.7	-68.8	3.8	7.46e-01	0	37	104	0	66	42025
2026-01-30 03:49:00.33	346.94	7.08	-47.8	-69.2	3.8	7.48e-01	0	37	104	0	66	44238
2026-01-30 03:49:01.34	346.78	7.12	-47.9	-69.7	3.8	7.47e-01	0	37	104	0	66	46904
2026-01-30 03:49:02.34	346.62	7.16	-47.9	-70.2	3.8	7.45e-01	0	37	104	0	66	49555
2026-01-30 03:49:03.34	346.45	7.20	-48.0	-70.5	3.8	7.45e-01	0	38	104	0	66	51377
2026-01-30 03:49:04.35	346.29	7.24	-48.0	-70.6	3.8	7.46e-01	0	37	104	0	66	52152
2026-01-30 03:49:05.35	346.13	7.28	-48.0	-70.6	3.8	7.43e-01	0	38	104	0	66	51704
2026-01-30 03:49:06.36	345.96	7.32	-47.9	-70.4	3.8	7.46e-01	0	37	104	0	66	50657
2026-01-30 03:49:07.36	345.80	7.35	-47.9	-70.2	3.8	7.48e-01	0	37	104	0	66	49564
2026-01-30 03:49:08.37	345.63	7.39	-47.9	-70.1	3.8	7.44e-01	0	37	104	0	66	49088
2026-01-30 03:49:09.37	345.46	7.43	-47.9	-70.1	3.8	7.46e-01	0	38	104	0	66	48879
2026-01-30 03:49:10.37	345.30	7.47	-47.9	-70.1	3.8	7.43e-01	0	38	104	0	66	49180
2026-01-30 03:49:11.38	345.13	7.51	-47.9	-70.2	3.8	7.48e-01	0	38	104	0	66	49462
2026-01-30 03:49:12.38	344.96	7.54	-47.9	-70.3	3.8	7.43e-01	0	38	104	0	66	49951
2026-01-30 03:49:13.38	344.80	7.58	-48.0	-70.3	3.8	7.47e-01	0	38	104	0	66	50367
2026-01-30 03:49:14.39	344.63	7.62	-48.0	-70.4	3.8	7.47e-01	0	38	104	0	66	50719
2026-01-30 03:49:15.39	344.46	7.66	-48.0	-70.5	3.8	7.44e-01	0	38	104	0	66	51084
2026-01-30 03:49:16.40	344.29	7.70	-48.0	-70.5	3.8	7.43e-01	0	38	104	0	66	51323
2026-01-30 03:49:17.40	344.12	7.73	-48.0	-70.5	3.8	7.44e-01	0	38	104	0	66	51356
2026-01-30 03:49:18.41	343.95	7.77	-48.0	-70.7	3.8	7.47e-01	0	38	104	0	66	52307
2026-01-30 03:49:19.41	343.78	7.81	-48.0	-70.7	3.8	7.47e-01	0	38	104	0	66	52300
2026-01-30 03:49:20.42	343.61	7.84	-48.0	-70.7	3.8	7.47e-01	0	38	104	0	66	52220
2026-01-30 03:49:21.42	343.44	7.88	-48.0	-70.6	3.8	7.45e-01	0	38	104	0	66	52172
2026-01-30 03:49:22.42	343.26	7.92	-48.0	-70.7	3.8	7.44e-01	0	38	104	0	66	52341
2026-01-30 03:49:23.43	343.09	7.95	-48.0	-70.7	3.8	7.44e-01	0	38	104	0	66	52262
2026-01-30 03:49:24.43	342.92	7.99	-48.0	-70.6	3.8	7.48e-01	0	38	104	0	66	51788
2026-01-30 03:49:25.43	342.75	8.02	-47.9	-70.5	3.8	7.46e-01	0	38	104	0	66	51327
2026-01-30 03:49:26.44	342.57	8.06	-48.0	-70.4	3.8	7.46e-01	0	38	104	0	66	50726
2026-01-30 03:49:27.44	342.40	8.09	-48.0	-70.3	3.8	7.46e-01	0	38	104	0	66	50396
2026-01-30 03:49:28.45	342.22	8.13	-48.0	-70.3	3.8	7.43e-01	0	38	104	0	66	50114
2026-01-30 03:49:29.45	342.05	8.17	-48.0	-70.3	3.8	7.43e-01	0	38	104	0	66	50061
2026-01-30 03:49:30.45	341.87	8.20	-48.0	-70.2	3.8	7.47e-01	0	38	104	0	66	49705
2026-01-30 03:49:31.46	341.69	8.23	-48.0	-70.2	3.8	7.48e-01	0	38	104	0	66	49784
2026-01-30 03:49:32.46	341.52	8.27	-48.0	-70.3	3.8	7.47e-01	0	38	104	0	66	50076
2026-01-30 03:49:33.47	341.34	8.30	-48.0	-70.4	3.8	7.41e-01	0	38	104	0	66	50535
2026-01-30 03:49:34.47	341.16	8.34	-48.0	-70.4	3.8	7.45e-01	0	38	104	0	66	50443
2026-01-30 03:49:35.48	340.98	8.37	-48.0	-70.2	3.8	7.47e-01	0	38	104	0	66	49510
2026-01-30 03:49:36.48	340.81	8.41	-47.9	-69.9	3.8	7.48e-01	0	38	104	0	66	47850
2026-01-30 03:49:37.48	340.63	8.44	-48.0	-69.6	3.8	7.44e-01	0	38	104	0	66	46155
2026-01-30 03:49:38.49	340.45	8.47	-48.0	-69.6	3.8	7.47e-01	0	38	104	0	66	46433
2026-01-30 03:49:39.49	340.27	8.51	-48.0	-70.1	3.8	7.46e-01	0	38	104	0	66	48820
2026-01-30 03:49:40.50	340.09	8.54	-48.0	-70.4	3.8	7.49e-01	0	38	104	0	66	50778
2026-01-30 03:49:41.50	339.91	8.57	-48.0	-70.1	3.8	7.45e-01	0	38	104	0	66	49110
2026-01-30 03:49:42.50	339.72	8.60	-48.0	-69.7	3.8	7.43e-01	0	38	104	0	66	46542
2026-01-30 03:49:43.51	339.54	8.64	-48.0	-69.5	3.8	7.43e-01	0	38	104	0	66	45822
2026-01-30 03:49:44.51	339.36	8.67	-48.0	-70.1	3.8	7.45e-01	0	38	104	0	66	49216
2026-01-30 03:49:45.51	339.18	8.70	-48.0	-70.4	3.8	7.45e-01	0	38	104	0	66	50784
2026-01-30 03:49:46.52	338.99	8.73	-48.0	-69.4	3.8	7.46e-01	0	38	104	0	66	45158
2026-01-30 03:49:47.52	338.81	8.76	-48.0	-67.1	4.2	7.32e-01	0	38	104	0	66	34622
2026-01-30 03:49:48.53	338.63	8.79	-48.0	-65.9	4.0	7.40e-01	0	38	104	0	66	30273
2026-01-30 03:49:49.53	338.44	8.83	-47.9	-64.5	5.4	7.00e-01	0	38	0	0	66	25683
2026-01-30 03:49:50.54	338.26	8.86	-47.9	-64.0	5.7	6.92e-01	0	38	0	524288	66	24322
2026-01-30 03:49:51.54	338.07	8.89	-47.9	-63.9	5.8	6.92e-01	0	38	0	1572864	66	23924
2026-01-30 03:49:52.55	337.88	8.92	-47.9	-63.3	6.2	6.79e-01	0	38	0	3145728	66	22273
2026-01-30 03:49:53.55	337.70	8.95	-47.8	-61.2	8.0	6.44e-01	0	38	0	5242880	66	17631
2026-01-30 03:49:54.55	337.51	8.98	-47.5	-57.9	11.4	6.10e-01	0	38	0	6815744	66	12066
2026-01-30 03:49:55.56	337.32	9.01	-46.9	-54.1	15.1	6.03e-01	0	38	0	8912896	65	8271
2026-01-30 03:49:56.56	337.14	9.04	-46.0	-51.2	18.3	6.01e-01	0	38	0	11010048	64	6228
2026-01-30 03:49:57.57	336.95	9.07	-47.2	-56.0	14.2	6.08e-01	0	38	0	12582912	64	10788
2026-01-30 03:49:58.57	336.76	9.09	-46.2	-51.9	16.8	6.02e-01	0	38	0	14680064	64	6730
2026-01-30 03:49:59.57	336.57	9.12	-46.2	-52.1	18.2	6.05e-01	0	38	0	16252928	63	7310
2026-01-30 03:50:00.96	336.31	9.16	-45.6	-49.8	19.7	6.03e-01	0	38	0	18874368	61	6294
2026-01-30 03:50:01.71	336.17	9.18	-44.8	-48.0	21.4	6.05e-01	0	38	0	20447232	61	5158
2026-01-30 03:50:03.00	335.93	9.22	-44.8	-47.7	21.7	6.03e-01	0	38	0	23068672	61	4979
2026-01-30 03:50:03.72	335.79	9.24	-44.7	-47.4	22.0	6.02e-01	0	38	0	24117248	61	4791
2026-01-30 03:50:05.01	335.54	9.27	-44.8	-47.5	21.9	6.04e-01	0	38	0	26738688	61	4867
2026-01-30 03:50:05.72	335.41	9.29	-44.9	-47.5	22.0	6.03e-01	0	38	0	27787264	61	4848
2026-01-30 03:50:07.01	335.16	9.33	-44.9	-47.6	21.9	6.04e-01	0	38	0	30408704	61	4886
2026-01-30 03:50:07.73	335.03	9.35	-44.9	-47.4	22.0	6.01e-01	0	38	0	31981568	61	4802
2026-01-30 03:50:09.02	334.78	9.38	-44.8	-47.1	22.2	6.04e-01	0	38	0	34078720	61	4651
2026-01-30 03:50:09.73	334.64	9.40	-45.0	-47.4	22.1	6.04e-01	0	38	0	35651584	61	4811
2026-01-30 03:50:11.02	334.39	9.43	-44.7	-46.9	22.5	6.03e-01	0	38	0	37748736	61	4537
2026-01-30 03:50:11.74	334.25	9.45	-44.7	-46.9	22.6	6.02e-01	0	38	0	39321600	61	4501
2026-01-30 03:50:13.03	334.01	9.48	-44.5	-46.6	22.8	6.03e-01	0	38	0	41943040	61	4356
2026-01-30 03:50:13.75	333.87	9.50	-44.4	-46.5	22.9	6.03e-01	0	38	0	42991616	60	4555
2026-01-30 03:50:15.04	333.62	9.53	-44.4	-46.5	22.9	6.03e-01	0	38	0	45613056	60	4579
2026-01-30 03:50:15.75	333.48	9.55	-44.5	-46.6	22.8	6.05e-01	0	38	0	46661632	60	4603
2026-01-30 03:50:17.04	333.23	9.58	-44.5	-46.5	22.9	6.03e-01	0	38	0	49283072	60	4592
2026-01-30 03:50:17.76	333.09	9.60	-44.6	-46.6	22.8	6.02e-01	0	38	0	50855936	60	4642
2026-01-30 03:50:19.05	332.83	9.63	-44.4	-46.3	23.1	6.04e-01	0	38	0	52953088	60	4468
2026-01-30 03:50:19.95	332.66	9.65	-44.4	-46.2	23.1	6.04e-01	0	38	0	54525952	60	4440
2026-01-30 03:50:20.96	332.46	9.67	-44.5	-46.3	23.1	6.03e-01	0	39	0	56623104	60	4491
2026-01-30 03:50:21.95	332.27	9.70	-44.5	-46.4	23.0	6.03e-01	0	38	0	58195968	60	4513
2026-01-30 03:50:22.95	332.07	9.72	-44.4	-46.4	23.0	6.04e-01	0	38	0	60293120	60	4529
2026-01-30 03:50:23.96	331.87	9.74	-44.5	-46.5	23.0	6.02e-01	0	38	0	62390272	60	4557
2026-01-30 03:50:24.96	331.67	9.76	-44.4	-46.4	23.0	6.05e-01	0	38	0	63963136	60	4507
2026-01-30 03:50:25.96	331.48	9.79	-44.5	-46.4	23.0	6.02e-01	0	38	0	66060288	60	4528
2026-01-30 03:50:26.96	331.28	9.81	-44.5	-46.4	23.0	6.02e-01	0	38	0	67633152	60	4531
2026-01-30 03:50:27.97	331.08	9.83	-44.5	-46.4	23.0	6.03e-01	0	38	0	69730304	60	4522
2026-01-30 03:50:28.97	330.88	9.85	-44.5	-46.3	23.1	6.04e-01	0	38	0	71827456	60	4473
2026-01-30 03:50:29.98	330.68	9.87	-44.5	-46.3	23.1	6.03e-01	0	38	0	73400320	60	4483
2026-01-30 03:50:30.98	330.48	9.89	-44.4	-46.3	23.1	6.04e-01	0	38	0	75497472	60	4447
2026-01-30 03:50:31.98	330.28	9.91	-44.4	-46.4	23.1	6.05e-01	0	38	0	77070336	60	4502
2026-01-30 03:50:32.98	330.08	9.93	-44.3	-46.3	23.1	6.04e-01	0	38	0	79167488	60	4489
2026-01-30 03:50:33.98	329.88	9.95	-44.3	-46.3	23.1	6.04e-01	0	38	0	80740352	60	4483
2026-01-30 03:50:34.98	329.68	9.97	-44.4	-46.5	23.0	6.03e-01	0	38	0	82837504	60	4563
2026-01-30 03:50:35.99	329.48	9.99	-44.4	-46.4	23.0	6.03e-01	0	38	0	84934656	60	4512
2026-01-30 03:50:36.99	329.27	10.01	-44.4	-46.4	23.0	6.06e-01	0	38	0	86507520	60	4533
2026-01-30 03:50:37.99	329.07	10.02	-44.4	-46.4	23.0	6.06e-01	0	38	0	88604672	60	4530
2026-01-30 03:50:39.00	328.87	10.04	-44.3	-46.3	23.1	6.01e-01	0	38	0	90177536	60	4448
2026-01-30 03:50:40.00	328.67	10.06	-44.1	-46.2	23.2	6.03e-01	0	38	0	92274688	60	4403
2026-01-30 03:50:41.00	328.47	10.08	-44.2	-46.3	23.2	6.05e-01	0	38	0	94371840	59	4727
2026-01-30 03:50:42.00	328.26	10.09	-44.3	-46.5	23.1	6.03e-01	0	38	0	95944704	59	4853
2026-01-30 03:50:43.00	328.06	10.11	-44.3	-46.6	23.0	6.04e-01	0	38	0	98041856	59	4891
2026-01-30 03:50:44.01	327.86	10.13	-44.4	-46.6	23.0	6.02e-01	0	38	0	99614720	59	4879
2026-01-30 03:50:45.01	327.65	10.14	-44.6	-46.7	22.9	6.03e-01	0	38	0	101711872	59	4940
2026-01-30 03:50:46.01	327.45	10.16	-44.7	-46.6	21.4	6.03e-01	0	38	0	103809024	59	4917
2026-01-30 03:50:47.02	327.24	10.17	-44.5	-46.4	23.1	6.05e-01	0	38	0	105381888	60	4503
2026-01-30 03:50:48.02	327.04	10.19	-44.6	-46.4	23.0	6.05e-01	0	38	0	107479040	60	4527
2026-01-30 03:50:49.02	326.84	10.20	-44.6	-46.3	23.2	6.07e-01	0	38	0	109051904	60	4476
2026-01-30 03:50:50.03	326.63	10.22	-44.3	-46.2	23.2	6.03e-01	0	38	0	111149056	60	4414
2026-01-30 03:50:51.03	326.42	10.23	-44.1	-46.2	23.3	6.02e-01	0	38	0	112721920	60	4410
2026-01-30 03:50:52.03	326.22	10.24	-44.0	-46.4	23.0	6.03e-01	0	38	0	114819072	60	4508
2026-01-30 03:50:53.04	326.01	10.26	-44.1	-46.5	23.0	6.05e-01	0	38	0	116916224	59	4852
2026-01-30 03:50:54.04	325.81	10.27	-44.1	-46.6	23.0	6.04e-01	0	38	0	118489088	59	4900
2026-01-30 03:50:55.04	325.60	10.28	-44.1	-46.6	22.9	6.03e-01	0	38	0	120586240	59	4914
2026-01-30 03:50:56.17	325.37	10.30	-44.1	-46.5	23.0	6.05e-01	0	38	0	122683392	59	4866
2026-01-30 03:50:57.03	325.19	10.31	-44.2	-46.6	23.0	6.02e-01	0	38	0	124256256	59	4876
2026-01-30 03:50:58.37	324.92	10.32	-44.2	-46.5	23.1	6.00e-01	0	38	0	126877696	59	4828
2026-01-30 03:50:59.08	324.77	10.33	-44.2	-46.6	23.0	6.02e-01	0	38	0	127926272	59	4887
2026-01-30 03:51:00.37	324.50	10.35	-44.0	-46.4	23.1	6.01e-01	0	38	0	130547712	59	4783
2026-01-30 03:51:01.09	324.36	10.35	-44.1	-46.5	23.0	6.05e-01	0	38	0	131596288	59	4857
2026-01-30 03:51:02.38	324.09	10.37	-44.0	-46.6	23.0	6.02e-01	0	38	0	134217728	59	4873
2026-01-30 03:51:03.10	323.94	10.37	-43.9	-46.4	23.0	6.04e-01	0	38	0	135790592	59	4805
2026-01-30 03:51:04.39	323.67	10.39	-44.0	-46.6	22.9	6.04e-01	0	38	0	137887744	59	4910
2026-01-30 03:51:05.10	323.53	10.39	-44.1	-46.5	23.0	6.02e-01	0	38	0	139460608	59	4869
2026-01-30 03:51:06.39	323.26	10.41	-44.3	-46.6	23.0	6.03e-01	0	38	0	141557760	59	4889
2026-01-30 03:51:07.14	323.10	10.41	-44.5	-46.7	22.9	6.04e-01	0	38	0	143130624	59	4945
2026-01-30 03:51:08.75	322.77	10.43	-44.5	-46.5	22.9	6.03e-01	0	38	0	146276352	60	4578
2026-01-30 03:51:09.33	322.65	10.43	-44.6	-46.5	22.9	6.05e-01	0	38	0	147324928	60	4579
2026-01-30 03:51:10.90	322.32	10.44	-44.6	-46.4	23.1	6.02e-01	0	38	0	149946368	60	4516
2026-01-30 03:51:11.49	322.20	10.45	-44.6	-46.5	23.0	6.05e-01	0	38	0	151519232	60	4556
2026-01-30 03:51:13.07	321.87	10.46	-44.5	-46.4	23.0	6.03e-01	0	38	0	154140672	60	4534
2026-01-30 03:51:13.64	321.75	10.46	-44.4	-46.5	22.9	6.05e-01	0	38	0	155189248	60	4548
2026-01-30 03:51:15.33	321.40	10.47	-44.3	-46.3	23.1	6.05e-01	0	38	0	158334976	60	4477
2026-01-30 03:51:15.91	321.28	10.47	-44.4	-46.4	23.0	6.07e-01	0	39	0	159383552	60	4537
2026-01-30 03:51:17.48	320.95	10.48	-44.4	-46.4	23.1	6.04e-01	0	38	0	162529280	60	4510
2026-01-30 03:51:18.06	320.83	10.49	-44.5	-46.4	22.3	6.05e-01	0	39	0	163577856	60	4539
2026-01-30 03:51:19.68	320.49	10.49	-44.4	-46.3	23.1	6.03e-01	0	38	0	166723584	60	4481
2026-01-30 03:51:20.25	320.37	10.50	-44.4	-46.3	23.1	6.04e-01	0	38	0	167772160	60	4476
2026-01-30 03:51:21.83	320.04	10.50	-44.3	-46.4	23.0	6.01e-01	0	38	0	170917888	60	4536
2026-01-30 03:51:22.46	319.91	10.50	-44.4	-46.6	22.9	6.05e-01	0	38	0	171966464	60	4615
2026-01-30 03:51:23.92	319.61	10.51	-44.3	-46.4	23.0	6.03e-01	0	38	0	174587904	60	4524
2026-01-30 03:51:24.64	319.46	10.51	-44.3	-46.3	23.1	6.03e-01	0	39	0	176160768	60	4482
2026-01-30 03:51:25.92	319.19	10.51	-44.5	-46.5	22.9	6.04e-01	0	38	0	178257920	60	4577
2026-01-30 03:51:26.64	319.04	10.51	-44.5	-46.4	23.0	6.01e-01	0	38	0	179830784	60	4522
2026-01-30 03:51:27.93	318.77	10.52	-44.7	-46.6	22.9	6.04e-01	0	39	0	181927936	60	4612
2026-01-30 03:51:28.64	318.62	10.52	-44.7	-46.5	22.9	6.03e-01	0	38	0	183500800	60	4583
2026-01-30 03:51:29.93	318.35	10.52	-44.6	-46.4	23.1	6.04e-01	0	38	0	186122240	60	4513
2026-01-30 03:51:30.65	318.20	10.52	-44.7	-46.4	23.0	6.04e-01	0	38	0	187170816	60	4537
2026-01-30 03:51:31.93	317.93	10.52	-44.7	-46.5	23.0	6.03e-01	0	38	0	189792256	60	4562
2026-01-30 03:51:32.65	317.78	10.52	-44.9	-46.7	22.7	6.04e-01	0	39	0	190840832	60	4671
2026-01-30 03:51:33.94	317.51	10.52	-44.7	-46.5	22.9	6.04e-01	0	39	0	193462272	60	4570
2026-01-30 03:51:34.74	317.34	10.52	-44.7	-46.5	22.9	6.04e-01	0	39	0	195035136	60	4580
2026-01-30 03:51:35.88	317.10	10.52	-44.7	-46.5	22.9	6.02e-01	0	38	0	197132288	60	4560
2026-01-30 03:51:36.75	316.92	10.52	-44.8	-46.7	22.7	6.04e-01	0	38	0	198705152	60	4660
2026-01-30 03:51:37.89	316.68	10.51	-44.7	-46.6	22.8	6.04e-01	0	39	0	200802304	60	4602
2026-01-30 03:51:38.75	316.50	10.51	-44.9	-47.0	22.4	6.04e-01	0	38	0	202375168	60	4865
2026-01-30 03:51:39.90	316.26	10.51	-44.5	-46.4	22.9	6.05e-01	0	38	0	204472320	60	4540
2026-01-30 03:51:40.76	316.08	10.51	-44.6	-46.5	22.9	6.03e-01	0	38	0	206045184	60	4579
2026-01-30 03:51:41.90	315.85	10.50	-44.6	-46.5	22.9	6.04e-01	0	38	0	208142336	60	4567
2026-01-30 03:51:42.76	315.67	10.50	-44.6	-46.4	23.0	6.06e-01	0	39	0	210239488	60	4527
2026-01-30 03:51:43.91	315.43	10.50	-44.8	-46.7	22.7	6.03e-01	0	38	0	212336640	60	4665
2026-01-30 03:51:44.77	315.25	10.49	-44.6	-46.4	23.0	6.05e-01	0	38	0	213909504	60	4528
2026-01-30 03:51:45.92	315.01	10.49	-45.0	-47.0	22.5	6.05e-01	0	38	0	216006656	60	4825
2026-01-30 03:51:46.78	314.83	10.48	-44.8	-46.6	22.7	6.02e-01	0	38	0	217579520	60	4650
2026-01-30 03:51:48.12	314.55	10.48	-45.2	-47.0	22.4	6.02e-01	0	38	0	220200960	61	4568
2026-01-30 03:51:48.83	314.40	10.47	-45.0	-46.8	22.6	6.01e-01	0	38	0	221249536	61	4473
2026-01-30 03:51:50.12	314.13	10.46	-45.3	-47.3	22.2	6.04e-01	0	38	0	223870976	61	4708
2026-01-30 03:51:50.84	313.98	10.46	-44.8	-46.7	22.8	6.04e-01	0	39	0	224919552	61	4393
2026-01-30 03:51:52.13	313.71	10.45	-45.3	-47.4	22.1	6.03e-01	0	38	0	227540992	61	4765
2026-01-30 03:51:52.88	313.55	10.45	-44.6	-46.4	23.0	6.02e-01	0	39	0	229113856	61	4264
2026-01-30 03:51:54.17	313.29	10.44	-45.0	-47.2	22.3	6.03e-01	0	39	0	231211008	60	4935
2026-01-30 03:51:54.95	313.12	10.43	-44.5	-46.7	22.7	6.03e-01	0	38	0	232783872	60	4696
2026-01-30 03:51:56.23	312.86	10.42	-44.8	-47.2	22.3	6.05e-01	0	38	0	235405312	60	4962
2026-01-30 03:51:56.95	312.71	10.41	-44.8	-47.1	22.3	6.02e-01	0	38	0	236453888	60	4883
2026-01-30 03:51:58.24	312.44	10.40	-45.0	-47.1	22.4	6.04e-01	0	39	0	239075328	60	4879
2026-01-30 03:51:58.95	312.29	10.40	-45.0	-47.2	22.2	6.05e-01	0	39	0	240123904	60	4947
2026-01-30 03:52:00.25	312.02	10.38	-44.7	-46.9	22.5	6.03e-01	0	38	0	242745344	60	4797
2026-01-30 03:52:00.96	311.88	10.38	-45.1	-47.4	22.0	6.05e-01	0	38	0	244318208	60	5093
2026-01-30 03:52:02.25	311.61	10.36	-44.7	-46.6	22.8	6.03e-01	0	39	0	246415360	60	4638
2026-01-30 03:52:02.97	311.46	10.36	-45.3	-47.3	22.1	6.04e-01	0	39	0	247988224	61	4757
2026-01-30 03:52:04.26	311.19	10.34	-44.8	-46.7	22.6	6.03e-01	0	39	0	250085376	61	4424
2026-01-30 03:52:04.97	311.05	10.34	-45.3	-47.4	22.0	6.04e-01	0	39	0	251658240	61	4780
2026-01-30 03:52:06.26	310.78	10.32	-44.9	-46.8	22.5	6.02e-01	0	38	0	254279680	61	4471
2026-01-30 03:52:06.97	310.63	10.31	-45.1	-47.0	22.3	6.04e-01	0	39	0	255328256	61	4597
2026-01-30 03:52:08.26	310.37	10.30	-45.2	-47.1	22.2	6.03e-01	0	39	0	257949696	61	4620
2026-01-30 03:52:08.98	310.22	10.29	-45.0	-46.9	22.4	6.04e-01	0	39	0	258998272	61	4518
2026-01-30 03:52:10.27	309.96	10.27	-45.2	-47.4	22.0	6.04e-01	0	39	0	261619712	61	4790
2026-01-30 03:52:10.98	309.81	10.26	-44.8	-46.8	22.4	6.02e-01	0	39	0	262668288	61	4491
2026-01-30 03:52:12.27	309.54	10.25	-45.3	-47.5	21.9	6.03e-01	0	39	0	265289728	61	4865
2026-01-30 03:52:13.05	309.38	10.23	-45.0	-47.0	22.3	6.04e-01	0	38	0	266862592	61	4592
2026-01-30 03:52:14.66	309.06	10.21	-45.5	-47.6	21.8	6.04e-01	0	39	0	270008320	61	4903
2026-01-30 03:52:15.23	308.94	10.20	-45.3	-47.2	22.1	6.05e-01	0	39	0	271056896	61	4703
2026-01-30 03:52:17.03	308.57	10.18	-45.7	-47.7	21.6	6.03e-01	0	39	0	274202624	62	4694
2026-01-30 03:52:17.61	308.45	10.17	-45.3	-47.2	22.1	6.03e-01	0	39	0	275251200	62	4438
2026-01-30 03:52:19.18	308.13	10.14	-45.5	-47.6	21.7	6.06e-01	0	38	0	278396928	62	4602
2026-01-30 03:52:19.80	308.01	10.13	-45.0	-46.9	22.5	6.04e-01	0	39	0	279445504	62	4245
2026-01-30 03:52:21.38	307.69	10.11	-45.3	-47.3	21.9	6.05e-01	0	39	0	282591232	62	4469
2026-01-30 03:52:21.95	307.57	10.10	-45.3	-47.3	21.7	6.02e-01	0	38	0	283639808	62	4488
2026-01-30 03:52:23.53	307.25	10.07	-45.3	-47.2	22.2	6.05e-01	0	38	0	286261248	62	4412
2026-01-30 03:52:24.12	307.13	10.06	-45.6	-47.6	21.8	6.03e-01	0	39	0	287309824	62	4641
2026-01-30 03:52:25.69	306.81	10.03	-45.4	-47.6	21.8	6.03e-01	0	38	0	290455552	61	4890
2026-01-30 03:52:26.27	306.70	10.02	-45.3	-47.4	21.9	6.03e-01	0	39	0	291504128	61	4769
2026-01-30 03:52:27.94	306.36	9.99	-45.5	-47.7	21.7	6.04e-01	0	38	0	294649856	61	4945
2026-01-30 03:52:28.51	306.24	9.98	-45.3	-47.3	22.0	6.04e-01	0	39	0	295698432	61	4759
2026-01-30 03:52:30.10	305.92	9.95	-45.3	-47.4	22.0	6.02e-01	0	38	0	298844160	61	4779
2026-01-30 03:52:31.11	305.72	9.93	-45.3	-47.2	22.1	6.05e-01	0	39	0	300417024	61	4704
2026-01-30 03:52:32.11	305.52	9.91	-45.4	-47.4	22.0	6.05e-01	0	38	0	302514176	61	4769
2026-01-30 03:52:33.11	305.32	9.89	-45.4	-47.4	22.0	6.04e-01	0	38	0	304611328	61	4782
2026-01-30 03:52:34.12	305.12	9.87	-45.7	-47.8	21.5	6.04e-01	0	38	0	306184192	62	4756
2026-01-30 03:52:35.12	304.92	9.85	-45.4	-47.4	21.9	6.04e-01	0	38	0	308281344	62	4543
2026-01-30 03:52:36.12	304.72	9.83	-46.0	-48.3	21.2	6.04e-01	0	38	0	309854208	62	4987
2026-01-30 03:52:37.13	304.52	9.81	-45.5	-47.5	21.9	6.04e-01	0	38	0	311951360	62	4549
2026-01-30 03:52:38.24	304.30	9.79	-45.9	-48.1	21.2	6.04e-01	0	38	0	314048512	62	4887
2026-01-30 03:52:39.13	304.12	9.77	-45.5	-47.5	21.9	6.04e-01	0	38	0	315621376	62	4558
2026-01-30 03:52:40.28	303.90	9.74	-45.8	-47.9	21.4	6.05e-01	0	39	0	317718528	62	4786
2026-01-30 03:52:41.14	303.73	9.72	-45.7	-47.8	21.5	6.03e-01	0	39	0	319291392	62	4759
2026-01-30 03:52:42.50	303.46	9.69	-45.8	-48.0	21.3	6.03e-01	0	38	0	321912832	62	4850
2026-01-30 03:52:43.22	303.32	9.68	-46.0	-48.2	21.2	6.04e-01	0	39	0	323485696	62	4954
2026-01-30 03:52:44.73	303.02	9.64	-46.0	-48.3	21.1	6.03e-01	0	38	0	326107136	63	4724
2026-01-30 03:52:45.45	302.88	9.63	-45.7	-47.8	21.5	6.03e-01	0	38	0	327680000	63	4492
2026-01-30 03:52:46.74	302.63	9.59	-45.6	-47.6	21.7	6.02e-01	0	39	0	329777152	63	4385
2026-01-30 03:52:47.46	302.48	9.58	-45.7	-47.8	21.6	6.06e-01	0	39	0	331350016	63	4455
2026-01-30 03:52:48.74	302.24	9.55	-45.6	-47.6	21.7	6.04e-01	0	39	0	333447168	63	4384
2026-01-30 03:52:49.46	302.10	9.53	-45.5	-47.5	21.8	6.02e-01	0	38	0	335020032	63	4332
2026-01-30 03:52:50.74	301.85	9.50	-46.1	-48.3	21.1	6.03e-01	0	38	0	337641472	63	4709
2026-01-30 03:52:51.46	301.71	9.48	-45.4	-47.4	21.8	6.05e-01	0	38	0	338690048	62	4509
2026-01-30 03:52:52.75	301.46	9.45	-45.6	-47.7	21.6	6.03e-01	0	39	0	341311488	62	4664
2026-01-30 03:52:53.47	301.32	9.43	-45.8	-48.0	21.4	6.02e-01	0	39	0	342360064	62	4841
2026-01-30 03:52:54.76	301.07	9.39	-45.3	-47.2	22.1	6.05e-01	0	38	0	344981504	62	4405
2026-01-30 03:52:55.47	300.93	9.38	-45.8	-47.9	21.5	6.03e-01	0	38	0	346554368	62	4769
2026-01-30 03:52:56.76	300.68	9.34	-46.0	-48.2	21.0	6.03e-01	0	39	0	348651520	63	4675
2026-01-30 03:52:57.64	300.52	9.32	-45.7	-47.8	21.6	6.03e-01	0	39	0	350224384	63	4449
2026-01-30 03:52:59.11	300.23	9.28	-46.1	-48.3	21.0	6.03e-01	0	38	0	352845824	63	4747
2026-01-30 03:52:59.82	300.10	9.26	-46.0	-48.2	21.2	6.04e-01	0	38	0	354418688	63	4682
2026-01-30 03:53:01.11	299.85	9.22	-45.7	-47.6	21.6	6.04e-01	0	39	0	357040128	63	4389
2026-01-30 03:53:01.85	299.71	9.20	-46.0	-48.2	21.3	6.06e-01	0	39	0	358088704	63	4666
2026-01-30 03:53:03.14	299.47	9.17	-46.5	-48.8	20.4	6.03e-01	0	38	0	360710144	63	5032
2026-01-30 03:53:03.85	299.33	9.15	-46.0	-48.1	21.2	6.04e-01	0	38	0	361758720	63	4608
2026-01-30 03:53:05.14	299.09	9.11	-46.8	-49.4	19.9	6.03e-01	0	39	0	364380160	64	5050
2026-01-30 03:53:05.86	298.95	9.09	-46.9	-49.6	19.7	6.04e-01	0	39	0	365953024	64	5173
2026-01-30 03:53:07.15	298.71	9.05	-46.1	-48.2	21.0	6.04e-01	0	38	0	368050176	64	4433
2026-01-30 03:53:08.09	298.54	9.03	-46.8	-49.3	20.0	6.02e-01	0	38	0	370147328	64	5026
2026-01-30 03:53:09.09	298.35	9.00	-50.9	-61.7	8.1	6.52e-01	0	39	0	371720192	72	13111
2026-01-30 03:53:10.09	298.16	8.97	-51.1	-70.4	3.7	7.47e-01	0	39	104	372768768	72	35846
2026-01-30 03:53:11.10	297.97	8.94	-51.4	-70.2	3.8	7.48e-01	0	39	104	372768768	73	32942
2026-01-30 03:53:12.10	297.79	8.91	-51.1	-70.5	3.8	7.46e-01	0	39	104	372768768	73	34255
2026-01-30 03:53:13.11	297.60	8.88	-51.0	-70.6	3.8	7.46e-01	0	38	104	372768768	73	34719
2026-01-30 03:53:14.11	297.42	8.84	-51.0	-70.6	3.8	7.45e-01	0	39	104	372768768	73	34596
2026-01-30 03:53:15.11	297.23	8.81	-51.0	-70.6	3.8	7.48e-01	0	39	104	372768768	73	34632
2026-01-30 03:53:16.12	297.04	8.78	-51.0	-70.6	3.8	7.45e-01	0	39	104	372768768	73	34595
2026-01-30 03:53:17.12	296.86	8.75	-51.0	-70.6	3.8	7.49e-01	0	39	104	372768768	73	34543
2026-01-30 03:53:18.12	296.68	8.72	-51.0	-70.5	3.8	7.46e-01	0	39	104	372768768	73	34252
2026-01-30 03:53:19.13	296.49	8.69	-51.0	-70.5	3.8	7.44e-01	0	39	104	372768768	73	34203
2026-01-30 03:53:20.13	296.31	8.66	-51.0	-70.4	3.8	7.46e-01	0	38	104	372768768	73	33744
2026-01-30 03:53:21.14	296.13	8.62	-51.0	-70.3	3.8	7.43e-01	0	39	104	372768768	73	33611
2026-01-30 03:53:22.14	295.94	8.59	-51.0	-70.3	3.8	7.43e-01	0	39	104	372768768	73	33496
2026-01-30 03:53:23.14	295.76	8.56	-51.0	-70.2	3.8	7.46e-01	0	39	104	372768768	73	33294
2026-01-30 03:53:24.15	295.58	8.53	-51.0	-70.1	3.8	7.47e-01	0	39	104	372768768	73	32895
2026-01-30 03:53:25.15	295.40	8.49	-51.0	-70.0	3.8	7.48e-01	0	39	104	372768768	73	32495
2026-01-30 03:53:26.16	295.22	8.46	-51.0	-70.1	3.8	7.45e-01	0	39	104	372768768	73	32698
2026-01-30 03:53:27.16	295.04	8.43	-51.0	-70.0	3.8	7.44e-01	0	39	104	372768768	73	32381
2026-01-30 03:53:28.16	294.86	8.39	-51.0	-70.0	3.8	7.47e-01	0	39	104	372768768	73	32294
2026-01-30 03:53:29.16	294.68	8.36	-51.0	-70.2	3.8	7.46e-01	0	39	104	372768768	73	33078
2026-01-30 03:53:30.17	294.50	8.32	-51.0	-70.3	3.8	7.48e-01	0	39	104	372768768	73	33627
2026-01-30 03:53:31.17	294.32	8.29	-51.0	-70.4	3.8	7.43e-01	0	39	104	372768768	73	33898
2026-01-30 03:53:32.18	294.15	8.26	-51.0	-70.5	3.8	7.46e-01	0	39	104	372768768	73	34118
2026-01-30 03:53:33.18	293.97	8.22	-51.0	-70.4	3.8	7.46e-01	0	39	104	372768768	73	33907
2026-01-30 03:53:34.19	293.79	8.19	-51.0	-70.4	3.8	7.47e-01	0	39	104	372768768	73	33852
2026-01-30 03:53:35.19	293.62	8.15	-51.0	-70.4	3.8	7.46e-01	0	39	104	372768768	73	33969
2026-01-30 03:53:36.19	293.44	8.12	-51.0	-70.4	3.8	7.46e-01	0	39	104	372768768	73	34051
2026-01-30 03:53:37.20	293.26	8.08	-51.0	-70.5	3.8	7.45e-01	0	39	104	372768768	73	34295
2026-01-30 03:53:38.20	293.09	8.04	-51.0	-70.5	3.8	7.47e-01	0	39	104	372768768	73	34358
2026-01-30 03:53:39.21	292.91	8.01	-51.0	-70.5	3.8	7.48e-01	0	39	104	372768768	73	34251
2026-01-30 03:53:40.21	292.74	7.97	-51.0	-70.5	3.8	7.45e-01	0	38	104	372768768	73	34172
2026-01-30 03:53:41.21	292.57	7.94	-51.0	-70.5	3.8	7.49e-01	0	39	104	372768768	73	34256
2026-01-30 03:53:42.22	292.39	7.90	-51.0	-70.5	3.8	7.45e-01	0	39	104	372768768	73	34138
2026-01-30 03:53:43.22	292.22	7.86	-51.0	-70.4	3.8	7.47e-01	0	39	104	372768768	73	33948
2026-01-30 03:53:44.23	292.05	7.83	-51.0	-70.4	3.8	7.44e-01	0	39	104	372768768	73	34028
2026-01-30 03:53:45.23	291.88	7.79	-51.0	-70.5	3.8	7.47e-01	0	39	104	372768768	73	34134
2026-01-30 03:53:46.23	291.71	7.75	-51.0	-70.5	3.8	7.47e-01	0	39	104	372768768	73	34250
2026-01-30 03:53:47.23	291.54	7.72	-51.0	-70.4	3.8	7.41e-01	0	39	104	372768768	73	33999
2026-01-30 03:53:48.24	291.37	7.68	-51.0	-70.3	3.8	7.47e-01	0	39	104	372768768	73	33671
2026-01-30 03:53:49.24	291.20	7.64	-51.0	-70.2	3.8	7.48e-01	0	39	104	372768768	73	33221
2026-01-30 03:53:50.25	291.03	7.60	-51.0	-70.1	3.8	7.43e-01	0	39	104	372768768	73	32863
2026-01-30 03:53:51.25	290.86	7.57	-51.0	-70.1	3.8	7.47e-01	0	38	104	372768768	73	32732
2026-01-30 03:53:52.26	290.69	7.53	-51.0	-70.1	3.8	7.43e-01	0	39	104	372768768	73	32578
2026-01-30 03:53:53.26	290.52	7.49	-51.0	-70.2	3.8	7.46e-01	0	39	104	372768768	73	32994
2026-01-30 03:53:54.26	290.35	7.45	-51.0	-70.2	3.8	7.47e-01	0	39	104	372768768	73	33282
2026-01-30 03:53:55.26	290.19	7.41	-51.0	-70.3	3.8	7.43e-01	0	39	104	372768768	73	33655
2026-01-30 03:53:56.27	290.02	7.38	-51.0	-70.4	3.8	7.45e-01	0	38	104	372768768	73	33808
2026-01-30 03:53:57.27	289.85	7.34	-51.0	-70.3	3.8	7.46e-01	0	39	104	372768768	73	33458
2026-01-30 03:53:58.27	289.69	7.30	-51.0	-70.2	3.8	7.45e-01	0	39	104	372768768	73	32940
2026-01-30 03:53:59.28	289.52	7.26	-51.0	-69.9	3.8	7.45e-01	0	39	104	372768768	73	32178
2026-01-30 03:54:00.28	289.36	7.22	-51.0	-69.8	3.8	7.48e-01	0	39	104	372768768	73	31609
2026-01-30 03:54:01.28	289.20	7.18	-51.0	-69.7	3.8	7.48e-01	0	39	104	372768768	73	31366
2026-01-30 03:54:02.29	289.03	7.14	-51.0	-69.7	3.8	7.45e-01	0	39	104	372768768	73	31105
2026-01-30 03:54:03.29	288.87	7.10	-51.0	-69.5	3.8	7.43e-01	0	39	104	372768768	73	30454
2026-01-30 03:54:04.30	288.71	7.06	-51.0	-69.1	3.8	7.42e-01	0	39	104	372768768	73	29311
2026-01-30 03:54:05.30	288.54	7.02	-51.0	-69.0	3.8	7.43e-01	0	39	104	372768768	73	28707
2026-01-30 03:54:06.30	288.38	6.98	-51.0	-68.1	4.0	7.42e-01	0	39	104	372768768	73	26013
2026-01-30 03:54:07.30	288.22	6.94	-50.9	-67.2	4.0	7.35e-01	0	38	104	372768768	73	23325
2026-01-30 03:54:08.31	288.06	6.90	-50.9	-66.9	4.2	7.40e-01	0	39	104	372768768	73	22716
2026-01-30 03:54:09.31	287.90	6.86	-50.9	-67.1	4.1	7.40e-01	0	38	104	372768768	73	23190
2026-01-30 03:54:10.32	287.74	6.82	-50.9	-67.2	4.2	7.36e-01	0	39	104	372768768	73	23359
2026-01-30 03:54:11.32	287.58	6.78	-50.9	-67.6	4.1	7.37e-01	0	39	104	372768768	73	24449
2026-01-30 03:54:12.32	287.43	6.74	-51.0	-68.6	3.9	7.42e-01	0	39	104	372768768	73	27685
2026-01-30 03:54:13.33	287.27	6.70	-51.0	-69.3	3.8	7.47e-01	0	39	104	372768768	73	29710
2026-01-30 03:54:14.33	287.11	6.66	-51.0	-69.4	3.8	7.45e-01	0	39	104	372768768	73	30356
2026-01-30 03:54:15.33	286.95	6.62	-51.0	-69.1	3.8	7.43e-01	0	38	104	372768768	73	29069
2026-01-30 03:54:16.34	286.79	6.58	-51.0	-68.5	3.8	7.46e-01	0	39	104	372768768	73	27119
2026-01-30 03:54:17.34	286.64	6.54	-50.9	-68.0	3.9	7.43e-01	0	39	104	372768768	73	25780
2026-01-30 03:54:18.34	286.48	6.49	-51.0	-68.0	4.0	7.43e-01	0	39	104	372768768	73	25771
2026-01-30 03:54:19.35	286.33	6.45	-51.0	-68.8	3.8	7.43e-01	0	39	104	372768768	73	28110
2026-01-30 03:54:20.35	286.17	6.41	-50.9	-69.1	3.8	7.43e-01	0	39	104	372768768	73	29169
2026-01-30 03:54:21.35	286.02	6.37	-51.0	-69.4	3.8	7.45e-01	0	39	104	372768768	73	30351
2026-01-30 03:54:22.35	285.87	6.33	-51.0	-69.7	3.8	7.49e-01	0	38	104	372768768	73	31319
2026-01-30 03:54:23.36	285.71	6.29	-51.0	-70.0	3.8	7.42e-01	0	39	104	372768768	73	32458
2026-01-30 03:54:24.36	285.56	6.24	-51.0	-70.2	3.8	7.45e-01	0	39	104	372768768	73	33174
2026-01-30 03:54:25.37	285.41	6.20	-51.0	-70.2	3.8	7.45e-01	0	39	104	372768768	73	32966
2026-01-30 03:54:26.37	285.26	6.16	-51.0	-70.1	3.8	7.47e-01	0	39	104	372768768	73	32730
2026-01-30 03:54:27.38	285.10	6.12	-51.0	-70.1	3.8	7.47e-01	0	39	104	372768768	73	32615
2026-01-30 03:54:28.38	284.95	6.07	-51.0	-70.1	3.8	7.49e-01	0	39	104	372768768	73	32862
2026-01-30 03:54:29.38	284.80	6.03	-51.0	-70.2	3.8	7.47e-01	0	39	104	372768768	73	33158
2026-01-30 03:54:30.39	284.65	5.99	-51.0	-70.3	3.8	7.46e-01	0	39	104	372768768	73	33426
2026-01-30 03:54:31.39	284.50	5.95	-51.0	-70.4	3.8	7.47e-01	0	39	104	372768768	73	33717
2026-01-30 03:54:32.39	284.36	5.90	-51.0	-70.4	3.8	7.44e-01	0	39	104	372768768	73	33701
2026-01-30 03:54:33.40	284.21	5.86	-51.0	-70.4	3.8	7.46e-01	0	39	104	372768768	73	33841
2026-01-30 03:54:34.40	284.06	5.82	-51.0	-70.3	3.8	7.43e-01	0	39	104	372768768	73	33635
2026-01-30 03:54:35.40	283.91	5.78	-51.0	-70.3	3.8	7.46e-01	0	39	104	372768768	73	33511
2026-01-30 03:54:36.41	283.76	5.73	-51.0	-70.3	3.8	7.43e-01	0	39	104	372768768	73	33477
2026-01-30 03:54:37.41	283.62	5.69	-51.0	-70.3	3.8	7.45e-01	0	39	104	372768768	73	33359
2026-01-30 03:54:38.41	283.47	5.65	-51.0	-70.4	3.8	7.46e-01	0	39	104	372768768	73	33755
2026-01-30 03:54:39.42	283.33	5.60	-51.0	-70.4	3.8	7.48e-01	0	39	104	372768768	73	34078
2026-01-30 03:54:40.42	283.18	5.56	-51.0	-70.5	3.8	7.47e-01	0	39	104	372768768	73	34250
2026-01-30 03:54:41.43	283.04	5.52	-51.0	-70.5	3.8	7.46e-01	0	39	104	372768768	73	34431
2026-01-30 03:54:42.43	282.89	5.47	-51.0	-70.6	3.8	7.49e-01	0	39	104	372768768	73	34495
2026-01-30 03:54:43.44	282.75	5.43	-51.0	-70.6	3.8	7.48e-01	0	39	104	372768768	73	34573
2026-01-30 03:54:44.44	282.60	5.38	-51.0	-70.6	3.8	7.44e-01	0	39	104	372768768	73	34495
2026-01-30 03:54:45.44	282.46	5.34	-51.0	-70.6	3.8	7.47e-01	0	39	104	372768768	73	34555
2026-01-30 03:54:46.45	282.32	5.30	-51.0	-70.5	3.8	7.48e-01	0	39	104	372768768	73	34469
2026-01-30 03:54:47.45	282.18	5.25	-51.0	-70.6	3.8	7.44e-01	0	39	104	372768768	73	34618
2026-01-30 03:54:48.46	282.04	5.21	-51.0	-70.5	3.8	7.45e-01	0	39	104	372768768	73	34468
2026-01-30 03:54:49.46	281.90	5.16	-51.0	-70.5	3.8	7.47e-01	0	39	104	372768768	73	34349
2026-01-30 03:54:50.46	281.76	5.12	-51.0	-70.4	3.8	7.44e-01	0	39	104	372768768	73	34041
2026-01-30 03:54:51.47	281.62	5.08	-51.0	-70.4	3.8	7.47e-01	0	39	104	372768768	73	34022
2026-01-30 03:54:52.46	281.48	5.03	-51.0	-70.4	3.8	7.41e-01	0	39	104	372768768	73	34031
2026-01-30 03:54:53.46	281.34	4.99	-51.0	-70.5	3.8	7.48e-01	0	39	104	372768768	73	34156

#Closed at: 2026-01-30 03:54:54
#Recorded file [372 MB]: D:/Data/31040_260130_064811.dat