passes_logs/2026/01/30/T1/T1__20260130_094450_SUOMI_NPP_rec.log

#Pass ID: 20260130_094450_SUOMI NPP
#Satellite: SUOMI NPP
#Configuration: NPP
#almurnet v.1.7.20251203
#Start time: 2026-01-30 09:44:52

#Version: 2.0.20230620
#Station: T1
#Location: 37.570604 lon 55.790049 lat
#TLE: 1 37849U 11061A   26029.48304708  .00000140  00000+0  87283-4 0  9999
#TLE: 2 37849  98.7824 331.4079 0002024  38.4342 321.6978 14.19531488738761

#Time	Az	El	Level	Level2	SNR	BER	BlckErr	Temp	State	Recorded	gain1	gain2
2026-01-30 09:44:52.19	152.08	5.15	-51.1	-65.4	3.8	1.49e+00	0	39	104	0	73	19055
2026-01-30 09:44:53.19	152.07	5.23	-51.2	-65.4	3.8	1.49e+00	0	39	104	0	73	19081
2026-01-30 09:44:54.20	152.06	5.30	-51.1	-65.4	3.8	1.49e+00	0	39	104	0	73	19107
2026-01-30 09:44:55.20	152.05	5.37	-51.0	-65.4	3.8	1.49e+00	0	39	104	0	73	18976
2026-01-30 09:44:56.20	152.03	5.44	-51.1	-65.3	3.8	1.49e+00	0	39	104	0	73	18899
2026-01-30 09:44:57.21	152.02	5.52	-51.1	-65.3	3.8	1.49e+00	0	39	104	0	73	18820
2026-01-30 09:44:58.21	152.01	5.59	-51.1	-65.3	3.8	1.49e+00	0	39	104	0	73	18780
2026-01-30 09:44:59.22	151.99	5.67	-51.0	-65.2	3.8	1.49e+00	0	39	104	0	73	18691
2026-01-30 09:45:00.22	151.98	5.74	-50.8	-65.1	3.8	1.49e+00	0	39	104	0	73	18440
2026-01-30 09:45:01.23	151.97	5.81	-50.6	-64.8	3.8	1.49e+00	0	39	104	0	72	18889
2026-01-30 09:45:02.23	151.95	5.89	-50.2	-64.5	3.8	1.49e+00	0	39	104	0	72	18268
2026-01-30 09:45:03.23	151.94	5.96	-50.0	-64.2	3.8	1.49e+00	0	39	104	0	71	18628
2026-01-30 09:45:04.24	151.93	6.04	-49.4	-64.1	3.8	1.49e+00	0	40	104	0	70	19412
2026-01-30 09:45:05.24	151.91	6.11	-49.7	-64.0	3.8	1.49e+00	0	39	104	0	70	19203
2026-01-30 09:45:06.24	151.90	6.19	-49.3	-63.9	3.8	1.49e+00	0	40	104	0	70	18964
2026-01-30 09:45:07.25	151.88	6.26	-49.2	-63.8	3.8	1.49e+00	0	39	104	0	70	18806
2026-01-30 09:45:08.25	151.87	6.34	-49.4	-63.5	3.8	1.49e+00	0	40	104	0	69	19314
2026-01-30 09:45:09.26	151.86	6.41	-49.0	-63.7	3.8	1.49e+00	0	40	104	0	69	19696
2026-01-30 09:45:10.26	151.84	6.49	-49.2	-62.4	3.8	1.49e+00	0	40	104	0	69	16899
2026-01-30 09:45:11.26	151.83	6.56	-49.2	-62.7	3.8	1.49e+00	0	40	104	0	69	17568
2026-01-30 09:45:12.27	151.81	6.64	-49.2	-63.0	3.8	1.49e+00	0	40	104	0	69	18236
2026-01-30 09:45:13.27	151.80	6.72	-49.2	-63.3	3.8	1.49e+00	0	40	104	0	69	18757
2026-01-30 09:45:14.27	151.79	6.79	-49.2	-63.5	3.8	1.49e+00	0	40	104	0	69	19179
2026-01-30 09:45:15.28	151.77	6.87	-49.2	-63.5	3.8	1.49e+00	0	40	104	0	69	19347
2026-01-30 09:45:16.28	151.76	6.95	-49.2	-63.6	3.8	1.49e+00	0	40	104	0	69	19445
2026-01-30 09:45:17.28	151.74	7.03	-49.2	-63.6	3.8	1.49e+00	0	40	104	0	69	19418
2026-01-30 09:45:18.29	151.73	7.10	-49.2	-63.4	3.8	1.49e+00	0	40	104	0	69	19149
2026-01-30 09:45:19.29	151.71	7.18	-49.2	-63.1	3.8	1.49e+00	0	40	104	0	69	18471
2026-01-30 09:45:20.30	151.70	7.26	-49.2	-62.6	3.8	1.49e+00	0	40	104	0	69	17330
2026-01-30 09:45:21.30	151.68	7.34	-49.1	-61.6	3.8	1.49e+00	0	40	104	0	69	15451
2026-01-30 09:45:22.31	151.67	7.42	-49.0	-60.2	4.1	1.44e+00	0	40	0	0	69	13166
2026-01-30 09:45:23.31	151.65	7.50	-48.9	-58.6	4.7	1.12e+00	0	40	0	1048576	69	10935
2026-01-30 09:45:24.31	151.64	7.58	-48.6	-57.1	5.5	6.53e-01	0	40	0	2097152	69	9209
2026-01-30 09:45:25.31	151.62	7.65	-48.4	-55.7	6.6	3.57e-01	0	40	0	4194304	68	8279
2026-01-30 09:45:26.31	151.60	7.73	-48.1	-54.2	8.0	9.20e-02	0	40	0	6291456	68	7032
2026-01-30 09:45:27.32	151.59	7.81	-47.6	-52.9	9.1	3.86e-02	0	40	0	8388608	67	6395
2026-01-30 09:45:28.32	151.57	7.89	-47.3	-52.1	10.0	1.48e-02	0	40	0	10485760	66	6181
2026-01-30 09:45:29.32	151.56	7.97	-47.2	-51.5	10.9	3.26e-03	0	40	0	12582912	66	5762
2026-01-30 09:45:30.33	151.54	8.06	-47.1	-51.0	11.6	1.40e-03	0	40	0	13631488	66	5460
2026-01-30 09:45:31.33	151.53	8.14	-46.9	-50.7	11.9	5.55e-04	0	40	0	15728640	65	5550
2026-01-30 09:45:32.33	151.51	8.22	-46.8	-50.4	12.3	2.20e-04	0	40	0	17825792	65	5346
2026-01-30 09:45:33.34	151.49	8.30	-46.7	-50.2	12.4	2.29e-04	0	40	0	19922944	65	5269
2026-01-30 09:45:34.34	151.48	8.38	-46.7	-50.4	12.2	1.94e-04	0	40	0	20971520	65	5355
2026-01-30 09:45:35.34	151.46	8.46	-46.6	-50.3	12.1	2.50e-04	0	40	0	23068672	65	5282
2026-01-30 09:45:36.35	151.44	8.55	-46.7	-50.5	11.8	4.38e-04	0	40	0	25165824	65	5443
2026-01-30 09:45:37.35	151.43	8.63	-47.0	-51.2	11.0	1.05e-03	0	40	0	27262976	65	5884
2026-01-30 09:45:38.35	151.41	8.71	-47.2	-51.8	10.3	2.80e-03	0	40	0	29360128	65	6345
2026-01-30 09:45:39.36	151.39	8.79	-47.6	-52.8	9.4	1.35e-02	0	41	0	30408704	65	7090
2026-01-30 09:45:40.36	151.38	8.88	-48.0	-54.1	8.1	4.01e-02	0	40	0	32505856	66	7756
2026-01-30 09:45:41.36	151.36	8.96	-48.3	-55.4	6.8	1.06e-01	0	40	0	34603008	67	8466
2026-01-30 09:45:42.37	151.34	9.04	-48.5	-56.5	5.8	3.63e-01	0	40	0	36700160	67	9713
2026-01-30 09:45:43.51	151.32	9.14	-48.7	-58.1	4.9	3.13e-01	0	40	0	38797312	67	11609
2026-01-30 09:45:44.37	151.31	9.21	-48.9	-58.7	4.5	1.37e+00	0	40	0	38797312	68	11781
2026-01-30 09:45:45.51	151.29	9.31	-46.1	-49.3	12.6	1.04e-02	0	41	0	40894464	64	5035
2026-01-30 09:45:46.37	151.27	9.38	-46.1	-49.3	13.4	0.00e+00	0	41	0	42991616	62	5594
2026-01-30 09:45:47.52	151.25	9.48	-48.2	-54.5	7.0	1.48e+00	0	41	104	44040192	68	7283
2026-01-30 09:45:48.38	151.24	9.55	-45.5	-48.3	14.1	1.58e-03	0	40	0	45088768	62	4993
2026-01-30 09:45:49.52	151.21	9.65	-45.3	-47.9	14.5	0.00e+00	0	41	0	47185920	62	4812
2026-01-30 09:45:50.38	151.20	9.72	-44.5	-47.3	14.9	1.38e-02	0	41	0	48234496	61	4714
2026-01-30 09:45:51.52	151.18	9.82	-44.6	-47.0	15.3	0.00e+00	0	40	0	50331648	61	4556
2026-01-30 09:45:52.38	151.16	9.90	-44.5	-46.8	15.6	0.00e+00	0	41	0	52428800	61	4459
2026-01-30 09:45:53.53	151.14	10.00	-44.4	-46.6	15.7	1.17e-02	0	41	0	54525952	60	4647
2026-01-30 09:45:54.38	151.12	10.07	-44.0	-46.0	16.3	0.00e+00	0	40	0	55574528	59	4585
2026-01-30 09:45:55.53	151.10	10.17	-44.0	-46.0	16.3	0.00e+00	0	41	0	58720256	59	4575
2026-01-30 09:45:56.39	151.09	10.25	-43.6	-45.4	16.9	5.24e-03	0	41	0	59768832	59	4274
2026-01-30 09:45:57.53	151.07	10.35	-43.4	-45.1	17.2	0.00e+00	0	41	0	61865984	58	4362
2026-01-30 09:45:58.39	151.05	10.42	-43.5	-45.2	17.1	0.00e+00	0	41	0	63963136	58	4418
2026-01-30 09:45:59.54	151.03	10.53	-43.2	-44.8	17.5	0.00e+00	0	41	0	66060288	58	4238
2026-01-30 09:46:00.40	151.01	10.60	-43.0	-44.7	17.7	0.00e+00	0	41	0	67108864	58	4150
2026-01-30 09:46:01.54	150.99	10.70	-43.0	-44.6	17.7	0.00e+00	0	41	0	69206016	57	4377
2026-01-30 09:46:02.40	150.97	10.78	-43.0	-44.7	17.7	1.51e-03	0	41	0	71303168	57	4396
2026-01-30 09:46:03.55	150.95	10.88	-42.8	-44.4	18.0	0.00e+00	0	41	0	73400320	57	4246
2026-01-30 09:46:04.41	150.93	10.96	-42.8	-44.3	18.0	0.00e+00	0	41	0	74448896	57	4232
2026-01-30 09:46:05.55	150.91	11.07	-42.8	-44.4	18.0	0.00e+00	0	41	0	76546048	57	4252
2026-01-30 09:46:06.41	150.89	11.14	-42.7	-44.3	18.0	0.00e+00	0	41	0	78643200	57	4221
2026-01-30 09:46:07.55	150.87	11.25	-42.6	-44.2	18.1	0.00e+00	0	41	0	80740352	57	4172
2026-01-30 09:46:08.41	150.85	11.33	-42.6	-44.2	18.1	0.00e+00	0	41	0	81788928	57	4167
2026-01-30 09:46:09.56	150.83	11.43	-42.6	-44.2	18.1	0.00e+00	0	41	0	84934656	57	4180
2026-01-30 09:46:10.42	150.81	11.51	-42.7	-44.3	18.1	0.00e+00	0	41	0	85983232	57	4194
2026-01-30 09:46:11.63	150.78	11.62	-42.5	-44.0	18.3	0.00e+00	0	41	0	88080384	56	4338
2026-01-30 09:46:12.48	150.76	11.70	-42.4	-43.9	18.4	0.00e+00	0	41	0	90177536	56	4277
2026-01-30 09:46:13.63	150.74	11.81	-42.3	-43.8	18.5	0.00e+00	0	41	0	92274688	56	4228
2026-01-30 09:46:14.49	150.72	11.89	-42.4	-43.9	18.5	0.00e+00	0	41	0	93323264	56	4247
2026-01-30 09:46:15.64	150.70	12.00	-42.2	-43.6	18.7	0.00e+00	0	41	0	95420416	56	4129
2026-01-30 09:46:16.50	150.68	12.08	-42.2	-43.6	18.7	0.00e+00	0	41	0	97517568	56	4116
2026-01-30 09:46:17.64	150.65	12.19	-42.0	-43.4	18.9	0.00e+00	0	41	0	99614720	56	4041
2026-01-30 09:46:18.69	150.63	12.29	-42.3	-43.7	18.7	0.00e+00	0	41	0	101711872	56	4152
2026-01-30 09:46:19.59	150.61	12.37	-41.8	-43.2	18.9	0.00e+00	0	41	0	103809024	55	4165
2026-01-30 09:46:21.08	150.58	12.52	-41.9	-43.3	18.8	0.00e+00	0	41	0	105906176	55	4221
2026-01-30 09:46:21.79	150.56	12.59	-41.9	-43.2	18.9	0.00e+00	0	41	0	106954752	55	4172
2026-01-30 09:46:23.08	150.53	12.71	-41.7	-43.0	19.1	0.00e+00	0	41	0	110100480	55	4096
2026-01-30 09:46:23.80	150.51	12.78	-41.7	-43.0	19.1	0.00e+00	0	41	0	111149056	55	4068
2026-01-30 09:46:25.09	150.48	12.91	-41.8	-43.1	19.0	0.00e+00	0	41	0	113246208	55	4118
2026-01-30 09:46:25.85	150.47	12.98	-41.8	-43.1	19.1	0.00e+00	0	41	0	115343360	55	4139
2026-01-30 09:46:27.14	150.44	13.11	-41.7	-43.0	19.2	0.00e+00	0	41	0	117440512	55	4060
2026-01-30 09:46:27.86	150.42	13.18	-41.7	-43.0	19.2	0.00e+00	0	41	0	118489088	55	4068
2026-01-30 09:46:29.14	150.39	13.31	-41.8	-43.1	19.1	0.00e+00	0	41	0	121634816	55	4112
2026-01-30 09:46:29.86	150.37	13.38	-41.7	-42.9	19.2	0.00e+00	0	41	0	122683392	55	4040
2026-01-30 09:46:31.15	150.34	13.51	-41.6	-42.9	19.2	0.00e+00	0	41	0	124780544	55	4017
2026-01-30 09:46:31.86	150.32	13.58	-41.8	-43.0	19.1	0.00e+00	0	41	0	125829120	55	4096
2026-01-30 09:46:33.23	150.29	13.72	-41.7	-43.0	19.2	0.00e+00	0	41	0	128974848	55	4055
2026-01-30 09:46:33.95	150.27	13.79	-41.7	-43.0	19.2	0.00e+00	0	41	0	130023424	55	4065
2026-01-30 09:46:35.24	150.24	13.92	-41.8	-43.2	19.0	0.00e+00	0	41	0	133169152	55	4148
2026-01-30 09:46:35.95	150.22	13.99	-41.9	-43.3	18.9	0.00e+00	0	41	0	134217728	55	4204
2026-01-30 09:46:37.24	150.19	14.12	-42.0	-43.4	18.8	0.00e+00	0	41	0	136314880	55	4261
2026-01-30 09:46:37.95	150.17	14.20	-41.9	-43.3	18.9	0.00e+00	0	41	0	137363456	55	4237
2026-01-30 09:46:39.24	150.14	14.33	-42.0	-43.5	18.7	0.00e+00	0	41	0	140509184	55	4297
2026-01-30 09:46:39.96	150.12	14.41	-42.0	-43.5	18.7	0.00e+00	0	41	0	141557760	55	4297
2026-01-30 09:46:41.25	150.08	14.54	-42.0	-43.4	18.8	0.00e+00	0	41	0	143654912	55	4270
2026-01-30 09:46:41.96	150.06	14.61	-42.0	-43.4	18.7	0.00e+00	0	41	0	144703488	55	4268
2026-01-30 09:46:43.25	150.03	14.75	-41.9	-43.3	18.9	0.00e+00	0	41	0	147849216	55	4222
2026-01-30 09:46:44.10	150.01	14.84	-41.9	-43.3	18.9	0.00e+00	0	41	0	148897792	55	4216
2026-01-30 09:46:45.24	149.98	14.96	-42.0	-43.4	18.8	0.00e+00	0	41	0	150994944	55	4271
2026-01-30 09:46:46.10	149.95	15.05	-41.8	-43.2	19.0	0.00e+00	0	41	0	153092096	55	4156
2026-01-30 09:46:47.25	149.92	15.18	-41.8	-43.1	19.1	0.00e+00	0	41	0	155189248	55	4128
2026-01-30 09:46:48.39	149.89	15.30	-41.7	-43.1	19.1	0.00e+00	0	41	0	157286400	55	4122
2026-01-30 09:46:49.43	149.86	15.41	-41.8	-43.2	19.0	0.00e+00	0	41	0	159383552	55	4168
2026-01-30 09:46:50.42	149.83	15.52	-41.8	-43.1	19.1	0.00e+00	0	41	0	161480704	55	4131
2026-01-30 09:46:51.43	149.81	15.63	-41.8	-43.1	19.1	0.00e+00	0	41	0	162529280	55	4112
2026-01-30 09:46:52.43	149.78	15.74	-41.7	-43.0	19.2	0.00e+00	0	41	0	164626432	55	4058
2026-01-30 09:46:53.43	149.75	15.85	-41.7	-43.0	19.2	0.00e+00	0	41	0	166723584	55	4065
2026-01-30 09:46:54.43	149.72	15.96	-41.7	-42.9	19.3	0.00e+00	0	42	0	168820736	55	4038
2026-01-30 09:46:55.44	149.69	16.07	-41.6	-42.9	19.3	0.00e+00	0	41	0	170917888	55	4038
2026-01-30 09:46:56.44	149.66	16.18	-41.5	-42.8	19.4	0.00e+00	0	41	0	171966464	55	3975
2026-01-30 09:46:57.44	149.63	16.29	-41.8	-43.1	19.1	0.00e+00	0	41	0	174063616	55	4109
2026-01-30 09:46:58.44	149.60	16.41	-41.9	-43.2	19.0	0.00e+00	0	41	0	176160768	55	4187
2026-01-30 09:46:59.45	149.57	16.52	-42.0	-43.3	18.9	0.00e+00	0	41	0	178257920	55	4237
2026-01-30 09:47:00.48	149.54	16.64	-42.0	-43.4	18.9	0.00e+00	0	41	0	180355072	55	4263
2026-01-30 09:47:01.48	149.51	16.75	-42.2	-43.6	18.6	0.00e+00	0	41	0	181403648	55	4389
2026-01-30 09:47:02.48	149.48	16.87	-42.2	-43.7	18.5	0.00e+00	0	41	0	183500800	55	4433
2026-01-30 09:47:03.48	149.44	16.98	-42.2	-43.7	18.6	0.00e+00	0	41	0	185597952	55	4429
2026-01-30 09:47:04.48	149.41	17.10	-42.2	-43.8	18.5	0.00e+00	0	41	0	187695104	55	4443
2026-01-30 09:47:05.49	149.38	17.21	-42.4	-44.0	18.3	0.00e+00	0	41	0	189792256	55	4558
2026-01-30 09:47:06.49	149.35	17.33	-42.4	-44.0	18.3	0.00e+00	0	41	0	190840832	55	4572
2026-01-30 09:47:07.49	149.32	17.45	-42.2	-43.7	18.6	0.00e+00	0	41	0	192937984	55	4431
2026-01-30 09:47:08.49	149.28	17.57	-42.1	-43.6	18.7	0.00e+00	0	41	0	195035136	55	4377
2026-01-30 09:47:09.50	149.25	17.69	-42.0	-43.6	18.7	0.00e+00	0	41	0	197132288	55	4347
2026-01-30 09:47:10.50	149.22	17.80	-41.9	-43.4	18.9	0.00e+00	0	41	0	199229440	55	4246
2026-01-30 09:47:11.50	149.18	17.92	-41.7	-43.1	19.1	0.00e+00	0	41	0	200278016	55	4131
2026-01-30 09:47:12.50	149.15	18.04	-41.4	-42.7	19.4	0.00e+00	0	41	0	202375168	54	4187
2026-01-30 09:47:13.50	149.12	18.16	-41.4	-42.7	19.5	0.00e+00	0	41	0	204472320	54	4152
2026-01-30 09:47:14.51	149.08	18.29	-41.5	-42.8	19.4	0.00e+00	0	41	0	206569472	54	4204
2026-01-30 09:47:15.54	149.05	18.41	-41.2	-42.5	19.7	0.00e+00	0	41	0	208666624	54	4057
2026-01-30 09:47:16.54	149.01	18.54	-41.5	-42.8	19.4	0.00e+00	0	41	0	209715200	54	4201
2026-01-30 09:47:17.54	148.98	18.66	-41.5	-42.7	19.4	0.00e+00	0	42	0	211812352	54	4188
2026-01-30 09:47:18.54	148.94	18.78	-41.4	-42.7	19.5	0.00e+00	0	41	0	213909504	54	4164
2026-01-30 09:47:19.55	148.90	18.91	-41.6	-42.8	19.4	0.00e+00	0	42	0	216006656	54	4228
2026-01-30 09:47:20.55	148.87	19.03	-41.6	-42.8	19.4	0.00e+00	0	42	0	218103808	54	4236
2026-01-30 09:47:21.55	148.83	19.16	-41.7	-43.0	19.3	0.00e+00	0	41	0	219152384	54	4324
2026-01-30 09:47:22.55	148.79	19.28	-41.9	-43.2	19.1	0.00e+00	0	41	0	221249536	54	4413
2026-01-30 09:47:23.56	148.76	19.41	-41.7	-43.0	19.2	0.00e+00	0	41	0	223346688	54	4318
2026-01-30 09:47:24.56	148.72	19.54	-41.5	-42.8	19.4	0.00e+00	0	41	0	225443840	54	4204
2026-01-30 09:47:25.56	148.68	19.67	-41.5	-42.7	19.5	0.00e+00	0	41	0	226492416	54	4188
2026-01-30 09:47:26.56	148.64	19.80	-41.4	-42.6	19.6	0.00e+00	0	41	0	228589568	54	4137
2026-01-30 09:47:27.57	148.60	19.93	-41.4	-42.6	19.7	0.00e+00	0	42	0	230686720	54	4104
2026-01-30 09:47:28.57	148.57	20.06	-41.3	-42.5	19.8	0.00e+00	0	42	0	232783872	54	4062
2026-01-30 09:47:29.57	148.53	20.19	-41.1	-42.2	20.0	0.00e+00	0	41	0	234881024	54	3943
2026-01-30 09:47:30.57	148.49	20.32	-41.2	-42.4	19.8	0.00e+00	0	41	0	235929600	54	4031
2026-01-30 09:47:31.58	148.45	20.45	-41.0	-42.2	20.0	0.00e+00	0	42	0	238026752	53	4150
2026-01-30 09:47:32.58	148.41	20.59	-41.2	-42.3	19.8	0.00e+00	0	41	0	240123904	53	4239
2026-01-30 09:47:33.74	148.36	20.74	-41.2	-42.4	19.6	0.00e+00	0	41	0	242221056	53	4257
2026-01-30 09:47:34.63	148.32	20.86	-41.3	-42.5	19.8	0.00e+00	0	42	0	244318208	53	4326
2026-01-30 09:47:35.78	148.27	21.02	-41.6	-42.9	19.5	0.00e+00	0	41	0	246415360	53	4503
2026-01-30 09:47:36.70	148.24	21.14	-41.5	-42.8	19.5	0.00e+00	0	41	0	247463936	54	4207
2026-01-30 09:47:37.88	148.19	21.30	-41.5	-42.7	19.6	0.00e+00	0	42	0	250609664	54	4178
2026-01-30 09:47:38.74	148.15	21.42	-41.5	-42.8	19.5	0.00e+00	0	41	0	251658240	54	4217
2026-01-30 09:47:40.09	148.09	21.61	-41.4	-42.6	19.7	0.00e+00	0	41	0	253755392	54	4135
2026-01-30 09:47:40.81	148.06	21.71	-41.3	-42.5	19.8	0.00e+00	0	41	0	255852544	54	4080
2026-01-30 09:47:42.10	148.00	21.89	-41.3	-42.5	19.8	0.00e+00	0	41	0	257949696	54	4075
2026-01-30 09:47:42.81	147.97	21.99	-41.3	-42.5	19.8	0.00e+00	0	41	0	258998272	54	4063
2026-01-30 09:47:44.11	147.91	22.17	-41.7	-43.0	19.4	0.00e+00	0	41	0	262144000	54	4306
2026-01-30 09:47:44.88	147.88	22.28	-41.5	-42.8	19.6	0.00e+00	0	41	0	263192576	54	4201
2026-01-30 09:47:46.17	147.82	22.46	-41.8	-43.1	19.2	0.00e+00	0	42	0	265289728	54	4352
2026-01-30 09:47:46.88	147.79	22.56	-41.9	-43.3	19.1	0.00e+00	0	42	0	267386880	54	4460
2026-01-30 09:47:48.17	147.73	22.75	-42.0	-43.4	19.0	0.00e+00	0	41	0	269484032	54	4532
2026-01-30 09:47:48.89	147.69	22.85	-42.1	-43.6	19.0	0.00e+00	0	42	0	270532608	54	4608
2026-01-30 09:47:50.17	147.63	23.04	-42.1	-43.5	19.0	0.00e+00	0	42	0	273678336	55	4313
2026-01-30 09:47:50.89	147.60	23.15	-42.0	-43.4	19.1	0.00e+00	0	41	0	274726912	55	4252
2026-01-30 09:47:52.18	147.53	23.34	-42.0	-43.4	19.1	0.00e+00	0	41	0	276824064	55	4245
2026-01-30 09:47:52.90	147.50	23.44	-41.8	-43.1	19.4	0.00e+00	0	41	0	277872640	55	4126
2026-01-30 09:47:54.25	147.43	23.64	-41.8	-43.1	19.4	0.00e+00	0	41	0	281018368	55	4107
2026-01-30 09:47:54.96	147.40	23.75	-41.5	-42.8	19.7	0.00e+00	0	41	0	282066944	54	4199
2026-01-30 09:47:56.25	147.33	23.95	-41.5	-42.7	19.7	0.00e+00	0	41	0	284164096	54	4192
2026-01-30 09:47:56.97	147.29	24.05	-41.9	-43.2	19.4	0.00e+00	0	41	0	286261248	54	4407
2026-01-30 09:47:58.26	147.23	24.25	-42.1	-43.4	19.1	0.00e+00	0	41	0	288358400	54	4541
2026-01-30 09:47:58.98	147.19	24.36	-42.2	-43.7	18.9	0.00e+00	0	41	0	289406976	55	4397
2026-01-30 09:48:00.26	147.12	24.56	-42.9	-44.5	18.3	0.00e+00	0	41	0	291504128	56	4569
2026-01-30 09:48:00.98	147.08	24.67	-43.2	-44.8	18.1	0.00e+00	0	42	0	293601280	56	4724
2026-01-30 09:48:02.27	147.02	24.87	-43.4	-45.1	17.8	0.00e+00	0	41	0	295698432	57	4635
2026-01-30 09:48:02.98	146.98	24.98	-43.6	-45.3	17.6	0.00e+00	0	41	0	296747008	58	4451
2026-01-30 09:48:04.27	146.91	25.19	-43.5	-45.2	17.7	0.00e+00	0	41	0	299892736	58	4409
2026-01-30 09:48:04.99	146.87	25.30	-43.7	-45.4	17.5	0.00e+00	0	41	0	300941312	58	4530
2026-01-30 09:48:06.28	146.79	25.51	-43.4	-45.0	17.9	0.00e+00	0	42	0	303038464	58	4311
2026-01-30 09:48:07.16	146.74	25.65	-43.3	-44.9	18.1	0.00e+00	0	41	0	305135616	58	4243
2026-01-30 09:48:08.62	146.66	25.89	-43.5	-45.1	17.8	0.00e+00	0	41	0	308281344	58	4368
2026-01-30 09:48:09.33	146.62	26.00	-43.3	-44.8	18.2	0.00e+00	0	42	0	309329920	58	4207
2026-01-30 09:48:10.63	146.54	26.21	-44.0	-45.8	17.3	0.00e+00	0	42	0	311427072	58	4715
2026-01-30 09:48:11.34	146.50	26.33	-43.7	-45.4	17.7	0.00e+00	0	41	0	312475648	58	4507
2026-01-30 09:48:12.63	146.42	26.54	-43.7	-45.4	17.6	0.00e+00	0	41	0	315621376	58	4540
2026-01-30 09:48:13.34	146.38	26.66	-44.2	-46.1	17.0	0.00e+00	0	41	0	316669952	59	4616
2026-01-30 09:48:14.63	146.30	26.88	-44.0	-45.9	17.2	0.00e+00	0	42	0	318767104	59	4502
2026-01-30 09:48:15.35	146.26	27.00	-44.2	-46.2	17.0	0.00e+00	0	41	0	319815680	59	4653
2026-01-30 09:48:16.64	146.17	27.22	-44.2	-46.2	16.9	0.00e+00	0	42	0	322961408	59	4659
2026-01-30 09:48:17.55	146.12	27.38	-44.2	-46.2	16.9	0.00e+00	0	41	0	324009984	59	4669
2026-01-30 09:48:18.55	146.05	27.55	-44.3	-46.2	16.9	0.00e+00	0	42	0	326107136	59	4666
2026-01-30 09:48:19.56	145.99	27.72	-44.1	-45.9	17.2	0.00e+00	0	42	0	328204288	59	4520
2026-01-30 09:48:20.56	145.92	27.90	-44.1	-45.9	17.1	0.00e+00	0	42	0	330301440	59	4544
2026-01-30 09:48:21.56	145.85	28.07	-44.4	-46.3	16.7	0.00e+00	0	41	0	332398592	59	4738
2026-01-30 09:48:22.56	145.79	28.25	-44.3	-46.2	16.9	0.00e+00	0	42	0	333447168	59	4665
2026-01-30 09:48:23.56	145.72	28.42	-44.2	-46.0	17.1	0.00e+00	0	42	0	335544320	59	4589
2026-01-30 09:48:24.57	145.65	28.60	-44.2	-46.0	17.0	0.00e+00	0	42	0	337641472	59	4585
2026-01-30 09:48:25.57	145.58	28.78	-44.2	-46.0	17.0	0.00e+00	0	42	0	339738624	59	4587
2026-01-30 09:48:26.57	145.51	28.96	-44.4	-46.3	16.8	0.00e+00	0	41	0	341835776	59	4710
2026-01-30 09:48:27.58	145.44	29.15	-44.4	-46.3	16.8	0.00e+00	0	41	0	342884352	59	4711
2026-01-30 09:48:28.58	145.37	29.33	-44.5	-46.4	16.6	0.00e+00	0	41	0	344981504	59	4807
2026-01-30 09:48:29.58	145.29	29.51	-44.7	-46.7	16.4	0.00e+00	0	41	0	347078656	60	4666
2026-01-30 09:48:30.59	145.22	29.70	-44.8	-46.8	16.3	0.00e+00	0	42	0	349175808	60	4742
2026-01-30 09:48:31.76	145.13	29.92	-44.9	-46.9	16.3	0.00e+00	0	41	0	351272960	60	4792
2026-01-30 09:48:32.65	145.06	30.09	-44.9	-47.0	16.1	0.00e+00	0	42	0	352321536	60	4815
2026-01-30 09:48:33.80	144.98	30.30	-45.0	-47.2	16.0	0.00e+00	0	42	0	354418688	61	4666
2026-01-30 09:48:34.66	144.91	30.47	-45.2	-47.4	15.8	0.00e+00	0	42	0	356515840	61	4763
2026-01-30 09:48:35.80	144.82	30.68	-45.2	-47.5	15.6	0.00e+00	0	42	0	358612992	61	4830
2026-01-30 09:48:36.81	144.74	30.88	-45.0	-47.0	16.1	0.00e+00	0	42	0	360710144	61	4592
2026-01-30 09:48:37.98	144.65	31.11	-44.6	-46.6	16.5	0.00e+00	0	42	0	362807296	61	4358
2026-01-30 09:48:38.84	144.57	31.27	-44.8	-46.8	16.3	0.00e+00	0	42	0	364904448	61	4449
2026-01-30 09:48:39.99	144.48	31.50	-45.0	-47.1	15.9	0.00e+00	0	42	0	367001600	61	4616
2026-01-30 09:48:40.85	144.41	31.67	-44.8	-46.8	16.3	0.00e+00	0	42	0	368050176	61	4461
2026-01-30 09:48:41.99	144.31	31.89	-45.2	-47.3	15.8	0.00e+00	0	41	0	370147328	61	4739
2026-01-30 09:48:42.85	144.24	32.07	-45.5	-47.7	15.4	0.00e+00	0	42	0	372244480	62	4655
2026-01-30 09:48:43.99	144.14	32.30	-45.5	-47.7	15.4	0.00e+00	0	41	0	374341632	62	4685
2026-01-30 09:48:44.85	144.06	32.47	-45.8	-48.2	14.8	0.00e+00	0	42	0	375390208	62	4970
2026-01-30 09:48:46.00	143.96	32.70	-46.1	-48.6	14.5	7.00e-07	0	42	0	377487360	63	4913
2026-01-30 09:48:46.85	143.88	32.88	-45.9	-48.4	14.7	0.00e+00	0	42	0	379584512	63	4801
2026-01-30 09:48:48.00	143.78	33.12	-46.3	-49.2	14.0	0.00e+00	0	42	0	381681664	63	5221
2026-01-30 09:48:48.86	143.70	33.30	-45.8	-48.2	14.9	0.00e+00	0	42	0	382730240	63	4675
2026-01-30 09:48:50.00	143.59	33.53	-45.9	-48.3	14.8	0.00e+00	0	42	0	384827392	63	4745
2026-01-30 09:48:50.86	143.51	33.71	-46.0	-48.5	14.6	1.50e-06	0	42	0	386924544	63	4861
2026-01-30 09:48:52.01	143.40	33.96	-45.8	-48.2	15.0	0.00e+00	0	41	0	389021696	63	4677
2026-01-30 09:48:52.87	143.31	34.14	-46.0	-48.6	14.6	7.00e-07	0	42	0	391118848	63	4900
2026-01-30 09:48:54.01	143.20	34.39	-45.9	-48.3	14.7	0.00e+00	0	42	0	393216000	63	4729
2026-01-30 09:48:54.87	143.11	34.57	-46.0	-48.4	14.6	0.00e+00	0	42	0	394264576	63	4809
2026-01-30 09:48:56.02	143.00	34.82	-46.1	-48.7	14.4	2.20e-06	0	42	0	396361728	63	4948
2026-01-30 09:48:56.86	142.91	35.01	-45.8	-48.3	14.8	0.00e+00	0	42	0	398458880	63	4724
2026-01-30 09:48:58.00	142.79	35.26	-45.9	-48.3	14.8	0.00e+00	0	42	0	400556032	63	4733
2026-01-30 09:48:58.86	142.70	35.45	-45.6	-47.9	15.2	0.00e+00	0	42	0	401604608	63	4545
2026-01-30 09:49:00.01	142.58	35.70	-45.6	-48.0	15.1	0.00e+00	0	42	0	403701760	62	4823
2026-01-30 09:49:00.87	142.48	35.90	-45.9	-48.4	15.0	0.00e+00	0	42	0	405798912	62	5068
2026-01-30 09:49:02.01	142.36	36.15	-46.3	-49.1	14.1	7.00e-07	0	42	0	407896064	63	5184
2026-01-30 09:49:02.87	142.26	36.35	-46.7	-49.9	13.0	7.00e-07	0	42	0	409993216	64	5369
2026-01-30 09:49:04.02	142.13	36.61	-46.8	-50.1	13.1	8.23e-05	0	42	0	412090368	64	5473
2026-01-30 09:49:04.88	142.03	36.81	-47.2	-50.9	12.2	1.01e-04	0	41	0	413138944	65	5682
2026-01-30 09:49:06.21	141.87	37.12	-46.7	-49.9	13.2	8.54e-05	0	42	0	416284672	65	5053
2026-01-30 09:49:06.93	141.79	37.29	-46.6	-49.6	13.5	6.80e-06	0	42	0	417333248	64	5204
2026-01-30 09:49:08.22	141.63	37.59	-46.2	-49.0	14.1	7.00e-07	0	42	0	419430400	64	4836
2026-01-30 09:49:08.94	141.54	37.76	-45.6	-47.9	15.3	0.00e+00	0	41	0	420478976	63	4524
2026-01-30 09:49:10.23	141.38	38.07	-45.4	-47.6	15.5	0.00e+00	0	41	0	423624704	62	4640
2026-01-30 09:49:10.94	141.29	38.24	-45.5	-47.7	15.5	0.00e+00	0	42	0	424673280	62	4679
2026-01-30 09:49:12.23	141.12	38.55	-45.6	-47.9	15.3	0.00e+00	0	42	0	426770432	62	4775
2026-01-30 09:49:12.95	141.03	38.72	-45.6	-48.0	15.1	0.00e+00	0	42	0	428867584	62	4818
2026-01-30 09:49:14.24	140.86	39.04	-45.5	-47.9	15.4	0.00e+00	0	42	0	430964736	62	4766
2026-01-30 09:49:14.95	140.76	39.21	-45.8	-48.3	14.8	0.00e+00	0	42	0	432013312	62	5024
2026-01-30 09:49:16.24	140.59	39.53	-45.5	-47.8	15.3	0.00e+00	0	42	0	434110464	62	4758
2026-01-30 09:49:16.96	140.49	39.71	-45.7	-48.1	15.0	0.00e+00	0	42	0	436207616	62	4910
2026-01-30 09:49:18.25	140.31	40.04	-45.9	-48.4	14.7	7.00e-07	0	42	0	438304768	63	4811
2026-01-30 09:49:18.97	140.20	40.22	-46.0	-48.6	14.6	0.00e+00	0	42	0	439353344	63	4903
2026-01-30 09:49:20.26	140.02	40.55	-46.0	-48.5	14.8	7.00e-07	0	42	0	442499072	63	4829
2026-01-30 09:49:20.97	139.91	40.73	-45.8	-48.2	15.1	0.00e+00	0	42	0	443547648	63	4681
2026-01-30 09:49:22.27	139.72	41.06	-45.7	-48.0	15.3	0.00e+00	0	42	0	445644800	62	4847
2026-01-30 09:49:23.05	139.60	41.26	-45.3	-47.4	15.9	0.00e+00	0	42	0	447741952	62	4514
2026-01-30 09:49:24.65	139.35	41.68	-45.2	-47.4	15.9	0.00e+00	0	42	0	450887680	61	4771
2026-01-30 09:49:25.23	139.25	41.83	-45.2	-47.3	15.9	0.00e+00	0	42	0	450887680	61	4753
2026-01-30 09:49:27.01	138.97	42.30	-44.5	-46.2	16.9	0.00e+00	0	42	0	455081984	60	4413
2026-01-30 09:49:27.58	138.87	42.45	-44.2	-45.8	17.2	0.00e+00	0	41	0	456130560	60	4225
2026-01-30 09:49:29.20	138.60	42.89	-44.8	-46.7	16.5	0.00e+00	0	42	0	459276288	60	4661
2026-01-30 09:49:29.77	138.50	43.04	-44.7	-46.5	16.7	0.00e+00	0	42	0	460324864	60	4568
2026-01-30 09:49:31.35	138.23	43.47	-44.8	-46.7	16.4	0.00e+00	0	42	0	462422016	60	4666
2026-01-30 09:49:31.94	138.12	43.63	-44.6	-46.4	16.7	0.00e+00	0	41	0	463470592	60	4539
2026-01-30 09:49:33.52	137.84	44.07	-44.4	-46.1	17.0	0.00e+00	0	42	0	466616320	60	4388
2026-01-30 09:49:34.11	137.73	44.23	-44.2	-45.9	17.4	0.00e+00	0	42	0	467664896	60	4243
2026-01-30 09:49:35.68	137.43	44.67	-44.6	-46.4	16.9	0.00e+00	0	42	0	470810624	60	4542
2026-01-30 09:49:36.38	137.30	44.86	-44.2	-45.9	17.4	0.00e+00	0	42	0	471859200	60	4250
2026-01-30 09:49:37.67	137.04	45.23	-44.1	-45.7	17.4	0.00e+00	0	42	0	475004928	59	4441
2026-01-30 09:49:38.39	136.90	45.43	-44.0	-45.6	17.6	0.00e+00	0	42	0	476053504	59	4356
2026-01-30 09:49:39.68	136.64	45.80	-44.4	-46.1	17.1	0.00e+00	0	42	0	478150656	59	4624
2026-01-30 09:49:40.65	136.44	46.08	-44.8	-46.7	16.6	0.00e+00	0	42	0	480247808	60	4688
2026-01-30 09:49:41.96	136.16	46.46	-44.7	-46.7	16.7	0.00e+00	0	42	0	482344960	60	4664
2026-01-30 09:49:42.67	136.01	46.66	-44.5	-46.3	16.9	0.00e+00	0	42	0	484442112	60	4480
2026-01-30 09:49:43.96	135.73	47.04	-43.4	-44.9	18.2	0.00e+00	0	42	0	486539264	58	4270
2026-01-30 09:49:44.68	135.57	47.25	-43.8	-45.3	17.9	0.00e+00	0	42	0	487587840	58	4482
2026-01-30 09:49:45.97	135.27	47.63	-43.9	-45.6	17.6	0.00e+00	0	42	0	490733568	58	4608
2026-01-30 09:49:46.68	135.11	47.84	-44.4	-46.2	17.0	0.00e+00	0	42	0	491782144	59	4665
2026-01-30 09:49:47.97	134.80	48.23	-44.5	-46.3	17.0	0.00e+00	0	42	0	493879296	59	4721
2026-01-30 09:49:48.69	134.63	48.44	-44.0	-45.6	17.6	0.00e+00	0	42	0	494927872	59	4360
2026-01-30 09:49:49.98	134.31	48.83	-43.5	-45.0	18.2	0.00e+00	0	41	0	498073600	59	4065
2026-01-30 09:49:50.70	134.13	49.05	-43.6	-45.2	18.0	0.00e+00	0	42	0	499122176	58	4406
2026-01-30 09:49:51.99	133.80	49.44	-43.4	-44.8	18.3	0.00e+00	0	42	0	501219328	58	4216
2026-01-30 09:49:52.70	133.61	49.66	-43.1	-44.5	18.6	0.00e+00	0	42	0	503316480	58	4064
2026-01-30 09:49:54.25	133.20	50.14	-42.8	-44.0	19.1	0.00e+00	0	42	0	505413632	57	4093
2026-01-30 09:49:54.96	133.00	50.35	-42.9	-44.2	18.7	0.00e+00	0	42	0	507510784	57	4158
2026-01-30 09:49:56.25	132.64	50.75	-42.6	-43.9	19.1	0.00e+00	0	42	0	509607936	56	4283
2026-01-30 09:49:56.96	132.44	50.98	-42.6	-43.9	19.2	0.00e+00	0	42	0	510656512	56	4267
2026-01-30 09:49:58.25	132.06	51.38	-43.1	-44.5	18.6	0.00e+00	0	42	0	513802240	56	4587
2026-01-30 09:49:58.97	131.85	51.61	-43.6	-45.2	18.0	0.00e+00	0	41	0	514850816	58	4430
2026-01-30 09:50:00.26	131.45	52.01	-44.2	-46.0	17.0	0.00e+00	0	42	0	516947968	59	4592
2026-01-30 09:50:00.98	131.23	52.24	-43.7	-45.3	17.9	0.00e+00	0	42	0	517996544	59	4222
2026-01-30 09:50:02.27	130.82	52.65	-42.7	-43.9	19.1	0.00e+00	0	42	0	521142272	57	4026
2026-01-30 09:50:03.05	130.57	52.90	-43.0	-44.3	18.9	0.00e+00	0	42	0	522190848	57	4207
2026-01-30 09:50:04.66	130.03	53.41	-43.7	-45.3	17.9	0.00e+00	0	42	0	525336576	58	4472
2026-01-30 09:50:05.23	129.83	53.60	-43.9	-45.6	17.7	0.00e+00	0	42	0	526385152	58	4606
2026-01-30 09:50:07.03	129.20	54.18	-43.3	-44.9	18.3	0.00e+00	0	42	0	529530880	58	4245
2026-01-30 09:50:07.60	129.00	54.36	-43.5	-45.1	18.2	0.00e+00	0	42	0	530579456	58	4343
2026-01-30 09:50:09.19	128.41	54.88	-43.1	-44.5	18.7	0.00e+00	0	42	0	533725184	57	4304
2026-01-30 09:50:09.77	128.19	55.07	-42.6	-43.9	19.3	0.00e+00	0	42	0	534773760	57	4012
2026-01-30 09:50:11.36	127.57	55.58	-43.5	-45.0	18.2	0.00e+00	0	42	0	537919488	57	4579
2026-01-30 09:50:11.94	127.34	55.77	-43.6	-45.2	18.1	0.00e+00	0	42	0	538968064	58	4406
2026-01-30 09:50:13.52	126.69	56.29	-44.0	-45.6	17.8	0.00e+00	0	42	0	542113792	59	4361
2026-01-30 09:50:14.09	126.45	56.48	-43.8	-45.4	17.9	0.00e+00	0	42	0	543162368	59	4246
2026-01-30 09:50:15.90	125.67	57.07	-44.4	-46.2	17.2	0.00e+00	0	42	0	546308096	59	4656
2026-01-30 09:50:16.48	125.41	57.26	-44.8	-46.7	16.7	0.00e+00	0	42	0	547356672	60	4683
2026-01-30 09:50:18.07	124.69	57.78	-45.9	-48.3	15.1	0.00e+00	0	42	0	550502400	62	5002
2026-01-30 09:50:18.65	124.42	57.97	-45.9	-48.3	15.1	0.00e+00	0	42	0	551550976	62	4996
2026-01-30 09:50:20.55	123.50	58.60	-45.8	-48.1	15.3	0.00e+00	0	42	0	554696704	62	4903
2026-01-30 09:50:21.12	123.22	58.79	-45.3	-47.4	16.0	0.00e+00	0	42	0	555745280	62	4527
2026-01-30 09:50:22.76	122.38	59.32	-44.6	-46.4	17.0	0.00e+00	0	42	0	558891008	61	4290
2026-01-30 09:50:23.34	122.07	59.51	-44.1	-45.7	17.6	0.00e+00	0	42	0	559939584	60	4176
2026-01-30 09:50:24.92	121.22	60.03	-44.1	-45.7	17.6	0.00e+00	0	42	0	563085312	59	4404
2026-01-30 09:50:25.50	120.90	60.22	-44.4	-46.1	17.1	0.00e+00	0	42	0	564133888	59	4644
2026-01-30 09:50:27.09	119.99	60.74	-43.8	-45.3	18.0	0.00e+00	0	42	0	567279616	59	4232
2026-01-30 09:50:27.90	119.51	61.00	-43.5	-44.9	18.3	0.00e+00	0	42	0	569376768	58	4266
2026-01-30 09:50:29.04	118.82	61.37	-43.1	-44.4	18.7	0.00e+00	0	42	0	571473920	57	4289
2026-01-30 09:50:30.28	118.05	61.77	-43.8	-45.3	17.9	0.00e+00	0	42	0	573571072	58	4480
2026-01-30 09:50:31.32	117.38	62.10	-43.3	-44.8	18.5	0.00e+00	0	42	0	575668224	58	4194
2026-01-30 09:50:32.32	116.72	62.42	-42.8	-44.1	18.9	0.00e+00	0	42	0	576716800	57	4111
2026-01-30 09:50:33.32	116.04	62.73	-43.2	-44.6	18.6	0.00e+00	0	42	0	578813952	57	4357
2026-01-30 09:50:34.32	115.35	63.05	-44.3	-46.0	17.2	0.00e+00	0	42	0	580911104	59	4588
2026-01-30 09:50:35.33	114.62	63.36	-44.6	-46.6	16.6	0.00e+00	0	42	0	583008256	59	4894
2026-01-30 09:50:36.33	113.89	63.67	-43.2	-45.0	17.9	0.00e+00	0	42	0	585105408	58	4295
2026-01-30 09:50:37.33	113.14	63.98	-42.4	-43.8	19.1	0.00e+00	0	42	0	586153984	56	4212
2026-01-30 09:50:38.33	112.37	64.28	-41.8	-43.1	19.5	0.00e+00	0	42	0	588251136	54	4371
2026-01-30 09:50:39.34	111.56	64.59	-42.0	-43.4	19.3	0.00e+00	0	42	0	590348288	54	4514
2026-01-30 09:50:40.34	110.75	64.89	-41.9	-43.3	19.3	0.00e+00	0	42	0	592445440	54	4480
2026-01-30 09:50:41.34	109.91	65.18	-42.0	-43.5	19.2	0.00e+00	0	42	0	594542592	54	4567
2026-01-30 09:50:42.34	109.05	65.47	-42.0	-43.4	19.1	0.00e+00	0	42	0	595591168	55	4251
2026-01-30 09:50:43.34	108.17	65.76	-42.3	-43.8	18.8	0.00e+00	0	42	0	597688320	55	4467
2026-01-30 09:50:44.38	107.23	66.05	-43.0	-44.6	18.2	0.00e+00	0	42	0	599785472	56	4631
2026-01-30 09:50:45.38	106.30	66.32	-44.0	-46.0	17.0	0.00e+00	0	42	0	601882624	58	4825
2026-01-30 09:50:46.44	105.29	66.61	-44.5	-46.8	16.2	0.00e+00	0	42	0	603979776	59	5023
2026-01-30 09:50:47.33	104.42	66.85	-44.1	-46.2	16.6	0.00e+00	0	42	0	605028352	60	4408
2026-01-30 09:50:48.48	103.26	67.15	-42.8	-44.3	18.5	0.00e+00	0	42	0	607125504	57	4233
2026-01-30 09:50:49.34	102.38	67.37	-42.4	-43.9	18.8	0.00e+00	0	42	0	609222656	56	4243
2026-01-30 09:50:50.48	101.18	67.65	-42.3	-43.7	19.0	0.00e+00	0	42	0	611319808	56	4192
2026-01-30 09:50:51.34	100.25	67.86	-42.1	-43.4	19.3	0.00e+00	0	42	0	612368384	56	4050
2026-01-30 09:50:52.48	98.99	68.13	-42.1	-43.4	19.2	0.00e+00	0	42	0	615514112	55	4274
2026-01-30 09:50:53.34	98.02	68.33	-43.5	-45.2	17.8	0.00e+00	0	42	0	616562688	57	4695
2026-01-30 09:50:54.49	96.69	68.58	-44.2	-46.2	16.8	0.00e+00	0	42	0	618659840	59	4679
2026-01-30 09:50:55.35	95.67	68.77	-43.8	-45.7	17.3	0.00e+00	0	42	0	620756992	59	4423
2026-01-30 09:50:56.50	94.28	69.00	-43.8	-45.6	17.4	0.00e+00	0	42	0	622854144	59	4384
2026-01-30 09:50:57.35	93.23	69.17	-43.8	-45.7	17.3	0.00e+00	0	42	0	623902720	59	4396
2026-01-30 09:50:58.50	91.78	69.39	-43.9	-45.7	17.4	0.00e+00	0	42	0	625999872	59	4406
2026-01-30 09:50:59.36	90.68	69.54	-44.7	-46.8	16.4	0.00e+00	0	42	0	628097024	60	4721
2026-01-30 09:51:00.50	89.19	69.73	-45.0	-47.2	15.8	0.00e+00	0	42	0	630194176	60	4972
2026-01-30 09:51:01.36	88.05	69.87	-44.9	-47.1	16.1	0.00e+00	0	42	0	631242752	61	4611
2026-01-30 09:51:02.60	86.37	70.06	-44.9	-47.1	16.0	0.00e+00	0	42	0	634388480	61	4649
2026-01-30 09:51:03.45	85.20	70.17	-45.1	-47.4	15.9	0.00e+00	0	42	0	635437056	61	4782
2026-01-30 09:51:04.60	83.60	70.32	-46.0	-48.8	14.2	0.00e+00	0	42	0	637534208	63	5033
2026-01-30 09:51:05.46	82.38	70.42	-46.4	-49.6	13.4	5.30e-06	0	42	0	639631360	63	5489
2026-01-30 09:51:06.60	80.75	70.54	-46.4	-49.5	13.4	3.43e-05	0	42	0	641728512	64	5157
2026-01-30 09:51:07.46	79.51	70.62	-46.3	-49.4	13.7	1.90e-05	0	42	0	642777088	64	5073
2026-01-30 09:51:08.61	77.83	70.71	-44.1	-45.9	17.1	0.00e+00	0	42	0	644874240	60	4260
2026-01-30 09:51:09.60	76.37	70.78	-44.4	-46.3	16.8	0.00e+00	0	42	0	646971392	59	4739
2026-01-30 09:51:10.78	74.62	70.85	-45.6	-48.4	14.8	0.00e+00	0	42	0	649068544	62	5052
2026-01-30 09:51:11.64	73.34	70.89	-45.1	-47.6	15.6	0.00e+00	0	42	0	651165696	61	4908
2026-01-30 09:51:12.99	71.31	70.93	-44.2	-46.1	16.7	0.00e+00	0	42	0	653262848	59	4651
2026-01-30 09:51:13.71	70.23	70.94	-45.4	-47.9	15.2	0.00e+00	0	42	0	655360000	61	5093
2026-01-30 09:51:15.19	68.00	70.95	-45.3	-47.9	15.4	0.00e+00	0	42	0	657457152	62	4762
2026-01-30 09:51:15.90	66.93	70.94	-45.6	-48.3	14.9	0.00e+00	0	42	0	658505728	62	5016
2026-01-30 09:51:17.27	64.87	70.91	-45.7	-48.4	14.8	0.00e+00	0	42	0	661651456	62	5075
2026-01-30 09:51:18.26	63.39	70.87	-44.7	-46.9	16.2	0.00e+00	0	42	0	663748608	61	4512
2026-01-30 09:51:19.26	61.90	70.82	-45.4	-47.9	15.3	0.00e+00	0	42	0	664797184	61	5053
2026-01-30 09:51:20.27	60.41	70.76	-45.4	-47.7	15.4	0.00e+00	0	42	0	666894336	61	4982
2026-01-30 09:51:21.26	58.95	70.69	-45.2	-47.4	15.8	0.00e+00	0	42	0	668991488	61	4797
2026-01-30 09:51:22.27	57.48	70.60	-45.0	-47.2	16.1	0.00e+00	0	42	0	671088640	61	4662
2026-01-30 09:51:23.27	56.04	70.51	-45.7	-48.2	14.9	0.00e+00	0	42	0	673185792	62	4977
2026-01-30 09:51:24.27	54.62	70.40	-46.2	-49.1	14.3	2.20e-06	0	42	0	674234368	63	5188
2026-01-30 09:51:25.28	53.20	70.28	-44.9	-46.9	16.1	0.00e+00	0	42	0	676331520	61	4535
2026-01-30 09:51:26.33	51.74	70.14	-44.7	-46.7	16.5	0.00e+00	0	42	0	678428672	61	4408
2026-01-30 09:51:27.25	50.48	70.01	-45.1	-47.3	15.9	0.00e+00	0	42	0	680525824	61	4731
2026-01-30 09:51:28.26	49.12	69.86	-44.9	-47.1	16.0	0.00e+00	0	42	0	682622976	61	4604
2026-01-30 09:51:29.26	47.79	69.70	-45.1	-47.4	15.7	0.00e+00	0	42	0	683671552	61	4783
2026-01-30 09:51:30.26	46.49	69.53	-45.0	-47.2	15.7	0.00e+00	0	42	0	685768704	61	4703
2026-01-30 09:51:31.26	45.21	69.35	-45.3	-47.7	15.5	0.00e+00	0	42	0	687865856	61	4962
2026-01-30 09:51:32.26	43.96	69.16	-45.7	-48.2	15.1	0.00e+00	0	42	0	689963008	61	5266
2026-01-30 09:51:33.27	42.72	68.96	-46.0	-48.6	14.5	0.00e+00	0	42	0	691011584	62	5197
2026-01-30 09:51:34.27	41.52	68.75	-45.1	-47.2	15.9	0.00e+00	0	42	0	693108736	61	4687
2026-01-30 09:51:35.27	40.34	68.54	-45.0	-47.2	16.1	0.00e+00	0	42	0	695205888	61	4661
2026-01-30 09:51:36.27	39.19	68.32	-44.5	-46.4	16.6	0.00e+00	0	42	0	697303040	60	4529
2026-01-30 09:51:37.28	38.05	68.08	-44.0	-45.6	17.4	0.00e+00	0	42	0	699400192	59	4380
2026-01-30 09:51:38.28	36.95	67.85	-44.4	-46.3	16.9	0.00e+00	0	42	0	700448768	59	4712
2026-01-30 09:51:39.28	35.87	67.60	-44.9	-47.0	16.3	0.00e+00	0	42	0	702545920	60	4870
2026-01-30 09:51:40.32	34.78	67.34	-45.1	-47.3	15.9	0.00e+00	0	42	0	704643072	60	5027
2026-01-30 09:51:41.32	33.76	67.09	-44.1	-46.0	17.2	0.00e+00	0	42	0	706740224	60	4297
2026-01-30 09:51:42.43	32.66	66.80	-44.1	-46.0	17.1	0.00e+00	0	42	0	708837376	60	4300
2026-01-30 09:51:43.32	31.79	66.56	-43.5	-45.1	17.9	0.00e+00	0	42	0	709885952	59	4103
2026-01-30 09:51:44.47	30.70	66.25	-43.7	-45.4	17.5	0.00e+00	0	42	0	711983104	58	4522
2026-01-30 09:51:45.39	29.85	65.99	-44.1	-46.0	17.0	0.00e+00	0	42	0	714080256	58	4818
2026-01-30 09:51:46.57	28.80	65.66	-43.8	-45.6	17.5	0.00e+00	0	42	0	716177408	59	4362
2026-01-30 09:51:47.42	28.05	65.41	-43.5	-45.2	17.9	0.00e+00	0	42	0	718274560	58	4404
2026-01-30 09:51:48.57	27.07	65.08	-43.1	-44.6	18.3	0.00e+00	0	42	0	720371712	58	4140
2026-01-30 09:51:49.42	26.37	64.83	-43.5	-45.2	17.7	0.00e+00	0	42	0	721420288	57	4696
2026-01-30 09:51:50.57	25.44	64.49	-43.4	-45.0	18.0	0.00e+00	0	42	0	723517440	58	4323
2026-01-30 09:51:51.60	24.63	64.18	-42.6	-44.0	18.9	0.00e+00	0	42	0	725614592	56	4336
2026-01-30 09:51:52.77	23.74	63.82	-42.3	-43.7	19.2	0.00e+00	0	42	0	727711744	56	4180
2026-01-30 09:51:53.63	23.10	63.56	-42.6	-44.1	18.8	0.00e+00	0	42	0	729808896	56	4350
2026-01-30 09:51:55.00	22.11	63.13	-42.1	-43.4	19.5	0.00e+00	0	42	0	731906048	56	4035
2026-01-30 09:51:55.71	21.62	62.91	-42.3	-43.7	19.2	0.00e+00	0	42	0	734003200	56	4165
2026-01-30 09:51:57.00	20.73	62.50	-42.4	-43.9	19.0	0.00e+00	0	42	0	736100352	56	4251
2026-01-30 09:51:57.72	20.26	62.28	-42.4	-43.8	19.0	0.00e+00	0	42	0	737148928	56	4230
2026-01-30 09:51:59.01	19.42	61.87	-42.4	-43.9	19.0	0.00e+00	0	42	0	740294656	56	4253
2026-01-30 09:51:59.72	18.97	61.64	-41.9	-43.3	19.5	0.00e+00	0	42	0	741343232	55	4222
2026-01-30 09:52:01.01	18.18	61.22	-42.5	-44.0	18.8	0.00e+00	0	42	0	743440384	55	4554
2026-01-30 09:52:01.73	17.75	60.99	-43.0	-44.6	18.4	0.00e+00	0	42	0	744488960	56	4651
2026-01-30 09:52:03.01	17.00	60.58	-43.9	-45.8	17.4	0.00e+00	0	42	0	747634688	58	4725
2026-01-30 09:52:03.73	16.59	60.34	-43.9	-45.8	17.1	0.00e+00	0	42	0	748683264	58	4757
2026-01-30 09:52:05.02	15.88	59.92	-43.8	-45.7	17.3	0.00e+00	0	42	0	750780416	59	4406
2026-01-30 09:52:05.73	15.49	59.69	-43.8	-45.6	17.3	0.00e+00	0	42	0	751828992	59	4352
2026-01-30 09:52:07.13	14.75	59.24	-44.5	-46.8	16.4	0.00e+00	0	42	0	754974720	60	4714
2026-01-30 09:52:07.85	14.39	59.00	-45.0	-47.4	15.6	0.00e+00	0	42	0	756023296	60	5099
2026-01-30 09:52:09.14	13.74	58.58	-43.8	-45.7	17.2	0.00e+00	0	42	0	759169024	59	4422
2026-01-30 09:52:09.85	13.39	58.35	-43.0	-44.7	18.2	0.00e+00	0	42	0	760217600	58	4190
2026-01-30 09:52:11.15	12.78	57.92	-42.7	-44.3	18.6	0.00e+00	0	42	0	762314752	57	4214
2026-01-30 09:52:11.86	12.45	57.69	-42.6	-44.1	18.7	0.00e+00	0	42	0	763363328	57	4130
2026-01-30 09:52:13.15	11.86	57.26	-43.0	-44.7	18.3	0.00e+00	0	42	0	766509056	57	4404
2026-01-30 09:52:13.87	11.55	57.03	-43.4	-45.2	17.8	0.00e+00	0	42	0	767557632	57	4666
2026-01-30 09:52:15.16	10.99	56.61	-43.1	-44.8	18.0	0.00e+00	0	42	0	769654784	57	4492
2026-01-30 09:52:15.91	10.67	56.36	-42.5	-44.0	18.9	0.00e+00	0	42	0	771751936	56	4307
2026-01-30 09:52:17.19	10.15	55.95	-40.4	-41.5	20.9	0.00e+00	0	42	0	773849088	52	4089
2026-01-30 09:52:17.91	9.86	55.71	-40.2	-41.3	21.0	0.00e+00	0	42	0	774897664	52	3999
2026-01-30 09:52:19.19	9.36	55.29	-41.1	-42.4	20.2	0.00e+00	0	42	0	778043392	53	4252
2026-01-30 09:52:19.91	9.08	55.06	-41.8	-43.1	19.4	0.00e+00	0	42	0	779091968	54	4389
2026-01-30 09:52:21.20	8.60	54.64	-41.8	-43.2	19.4	0.00e+00	0	42	0	781189120	54	4417
2026-01-30 09:52:22.15	8.25	54.34	-42.6	-44.1	18.7	0.00e+00	0	42	0	783286272	55	4629
2026-01-30 09:52:23.48	7.78	53.91	-43.5	-45.4	17.6	0.00e+00	0	42	0	785383424	57	4767
2026-01-30 09:52:24.19	7.53	53.68	-43.8	-45.8	17.2	0.00e+00	0	42	0	786432000	58	4720
2026-01-30 09:52:25.84	6.97	53.15	-44.5	-47.0	16.2	0.00e+00	0	42	0	789577728	60	4844
2026-01-30 09:52:26.41	6.79	52.97	-44.3	-46.6	16.4	0.00e+00	0	42	0	790626304	60	4637
2026-01-30 09:52:28.00	6.27	52.47	-43.5	-45.4	17.5	0.00e+00	0	42	0	793772032	59	4263
2026-01-30 09:52:28.57	6.09	52.29	-43.5	-45.3	17.6	0.00e+00	0	42	0	794820608	58	4467
2026-01-30 09:52:30.18	5.60	51.78	-43.5	-45.4	17.5	0.00e+00	0	42	0	797966336	58	4529
2026-01-30 09:52:30.75	5.43	51.60	-43.4	-45.3	17.7	0.00e+00	0	42	0	799014912	58	4458
2026-01-30 09:52:32.38	4.95	51.09	-43.1	-44.8	18.2	0.00e+00	0	42	0	802160640	57	4457
2026-01-30 09:52:32.95	4.79	50.92	-42.9	-44.4	18.4	0.00e+00	0	42	0	803209216	57	4287
2026-01-30 09:52:34.54	4.34	50.43	-43.0	-44.6	18.2	0.00e+00	0	42	0	806354944	57	4380
2026-01-30 09:52:35.11	4.18	50.25	-42.7	-44.2	18.7	0.00e+00	0	42	0	807403520	57	4152
2026-01-30 09:52:37.05	3.67	49.66	-43.3	-45.1	17.9	0.00e+00	0	42	0	811597824	57	4607
2026-01-30 09:52:37.62	3.52	49.48	-44.0	-46.0	17.0	0.00e+00	0	42	0	812646400	58	4854
2026-01-30 09:52:39.23	3.11	49.00	-43.7	-45.7	17.5	0.00e+00	0	42	0	814743552	59	4396
2026-01-30 09:52:39.81	2.96	48.82	-43.4	-45.2	17.8	0.00e+00	0	42	0	815792128	58	4415
2026-01-30 09:52:41.41	2.57	48.34	-44.4	-46.5	16.7	0.00e+00	0	42	0	818937856	59	4820
2026-01-30 09:52:41.98	2.43	48.17	-44.8	-47.1	16.1	0.00e+00	0	42	0	819986432	60	4909
2026-01-30 09:52:43.58	2.06	47.70	-44.8	-47.1	16.0	0.00e+00	0	42	0	823132160	61	4617
2026-01-30 09:52:44.15	1.93	47.53	-44.3	-46.3	16.9	0.00e+00	0	42	0	824180736	60	4472
2026-01-30 09:52:45.93	1.53	47.01	-45.9	-49.0	14.3	2.20e-06	0	42	0	827326464	62	5435
2026-01-30 09:52:46.50	1.41	46.84	-47.0	-51.2	11.9	9.90e-06	0	42	0	828375040	64	6234
2026-01-30 09:52:48.08	1.07	46.39	-45.6	-48.3	14.9	8.01e-05	0	42	0	831520768	63	4752
2026-01-30 09:52:49.08	0.86	46.10	-44.5	-46.6	16.6	0.00e+00	0	42	0	833617920	60	4644
2026-01-30 09:52:50.09	0.65	45.81	-44.4	-46.5	16.8	0.00e+00	0	42	0	835715072	60	4592
2026-01-30 09:52:51.09	0.45	45.53	-44.9	-47.4	15.8	0.00e+00	0	42	0	837812224	61	4773
2026-01-30 09:52:52.09	0.25	45.24	-44.8	-47.2	16.0	0.00e+00	0	42	0	838860800	61	4678
2026-01-30 09:52:53.09	0.06	44.96	-44.4	-46.5	16.6	0.00e+00	0	42	0	840957952	60	4565
2026-01-30 09:52:54.14	359.85	44.67	-44.1	-46.0	17.1	0.00e+00	0	42	0	843055104	59	4580
2026-01-30 09:52:55.08	359.68	44.41	-44.7	-47.0	16.2	0.00e+00	0	42	0	845152256	60	4844
2026-01-30 09:52:56.24	359.46	44.09	-45.4	-48.1	15.1	0.00e+00	0	42	0	847249408	61	5215
2026-01-30 09:52:57.13	359.30	43.85	-46.1	-49.1	14.1	7.00e-07	0	42	0	848297984	63	5190
2026-01-30 09:52:58.27	359.10	43.53	-45.4	-48.0	15.4	2.20e-06	0	42	0	850395136	62	4815
2026-01-30 09:52:59.13	358.95	43.30	-44.6	-46.8	16.4	0.00e+00	0	42	0	852492288	61	4455
2026-01-30 09:53:00.50	358.71	42.93	-44.5	-46.7	16.6	0.00e+00	0	42	0	854589440	60	4669
2026-01-30 09:53:01.21	358.60	42.74	-45.0	-47.5	15.8	0.00e+00	0	42	0	856686592	60	5141
2026-01-30 09:53:02.50	358.38	42.40	-45.3	-47.9	15.4	0.00e+00	0	42	0	858783744	61	5096
2026-01-30 09:53:03.22	358.26	42.21	-45.3	-47.8	15.4	0.00e+00	0	42	0	859832320	61	5032
2026-01-30 09:53:04.51	358.06	41.87	-45.1	-47.6	15.7	0.00e+00	0	42	0	862978048	61	4871
2026-01-30 09:53:05.24	357.94	41.68	-45.4	-48.1	15.2	0.00e+00	0	42	0	864026624	61	5185
2026-01-30 09:53:06.53	357.74	41.35	-45.4	-48.0	15.3	0.00e+00	0	42	0	866123776	62	4842
2026-01-30 09:53:07.25	357.63	41.16	-45.4	-48.0	15.3	0.00e+00	0	42	0	868220928	62	4842
2026-01-30 09:53:08.54	357.44	40.83	-45.2	-47.6	15.7	0.00e+00	0	42	0	870318080	62	4617
2026-01-30 09:53:09.25	357.33	40.65	-45.5	-48.1	15.2	0.00e+00	0	42	0	871366656	62	4894
2026-01-30 09:53:10.54	357.15	40.32	-45.6	-48.2	15.2	0.00e+00	0	42	0	873463808	62	4961
2026-01-30 09:53:11.26	357.04	40.14	-46.1	-49.2	14.0	2.20e-06	0	42	0	875560960	62	5555
2026-01-30 09:53:12.55	356.86	39.82	-46.8	-50.7	12.5	1.50e-04	0	42	0	877658112	64	5874
2026-01-30 09:53:13.27	356.76	39.64	-47.4	-51.9	11.1	8.11e-04	0	42	0	878706688	65	6369
2026-01-30 09:53:14.65	356.58	39.30	-46.6	-50.1	13.1	7.67e-04	0	42	0	881852416	65	5180
2026-01-30 09:53:15.36	356.48	39.13	-46.5	-49.8	13.2	3.66e-05	0	42	0	882900992	65	5017
2026-01-30 09:53:16.72	356.30	38.80	-45.3	-47.6	15.5	7.00e-07	0	42	0	884998144	62	4648
2026-01-30 09:53:17.43	356.21	38.63	-44.6	-46.8	16.4	0.00e+00	0	42	0	887095296	61	4445
2026-01-30 09:53:18.72	356.04	38.32	-43.4	-45.0	18.1	0.00e+00	0	42	0	889192448	58	4336
2026-01-30 09:53:19.43	355.95	38.15	-42.9	-44.4	18.5	0.00e+00	0	42	0	890241024	57	4287
2026-01-30 09:53:20.72	355.79	37.84	-42.9	-44.5	18.5	0.00e+00	0	42	0	893386752	57	4340
2026-01-30 09:53:21.44	355.71	37.67	-42.6	-44.2	18.9	0.00e+00	0	42	0	894435328	57	4175
2026-01-30 09:53:22.73	355.55	37.37	-43.1	-44.9	18.2	0.00e+00	0	42	0	896532480	57	4503
2026-01-30 09:53:23.45	355.47	37.20	-43.6	-45.4	17.7	0.00e+00	0	42	0	898629632	57	4803
2026-01-30 09:53:24.73	355.32	36.91	-44.6	-46.9	16.4	0.00e+00	0	42	0	900726784	59	5054
2026-01-30 09:53:25.45	355.23	36.74	-45.0	-47.5	15.7	0.00e+00	0	42	0	901775360	60	5159
2026-01-30 09:53:26.74	355.09	36.45	-46.0	-49.0	14.3	2.20e-06	0	42	0	903872512	62	5462
2026-01-30 09:53:27.55	355.00	36.26	-46.2	-49.2	13.7	4.50e-06	0	42	0	905969664	63	5279
2026-01-30 09:53:28.70	354.87	36.01	-45.9	-48.8	14.5	1.50e-06	0	42	0	908066816	63	4987
2026-01-30 09:53:29.56	354.78	35.81	-45.7	-48.5	14.8	0.00e+00	0	42	0	909115392	63	4829
2026-01-30 09:53:30.70	354.65	35.56	-45.8	-48.8	14.5	7.00e-07	0	42	0	911212544	62	5290
2026-01-30 09:53:31.83	354.53	35.31	-45.7	-48.6	14.7	0.00e+00	0	42	0	913309696	62	5208
2026-01-30 09:53:32.69	354.45	35.12	-45.6	-48.4	14.9	0.00e+00	0	42	0	915406848	62	5090
2026-01-30 09:53:33.84	354.33	34.87	-45.7	-48.5	14.7	7.00e-07	0	42	0	917504000	62	5152
2026-01-30 09:53:34.70	354.24	34.69	-45.7	-48.6	14.7	0.00e+00	0	42	0	919601152	62	5175
2026-01-30 09:53:35.84	354.13	34.44	-45.8	-48.8	14.6	1.50e-06	0	42	0	921698304	63	5007
2026-01-30 09:53:36.70	354.04	34.26	-45.9	-49.1	14.2	0.00e+00	0	42	0	922746880	63	5216
2026-01-30 09:53:37.85	353.93	34.01	-45.5	-48.6	14.7	0.00e+00	0	42	0	924844032	62	5187
2026-01-30 09:53:38.71	353.85	33.83	-45.1	-47.9	15.4	0.00e+00	0	42	0	926941184	61	5086
2026-01-30 09:53:39.85	353.74	33.59	-44.7	-47.4	15.9	0.00e+00	0	42	0	929038336	61	4765
2026-01-30 09:53:40.72	353.66	33.41	-44.5	-46.9	16.3	0.00e+00	0	42	0	930086912	61	4533
2026-01-30 09:53:41.86	353.55	33.18	-44.5	-46.8	16.5	0.00e+00	0	42	0	932184064	60	4736
2026-01-30 09:53:42.72	353.48	33.00	-44.4	-46.7	16.7	0.00e+00	0	42	0	934281216	60	4655
2026-01-30 09:53:44.07	353.35	32.72	-44.3	-46.4	16.9	0.00e+00	0	42	0	936378368	60	4539
2026-01-30 09:53:44.79	353.29	32.58	-44.3	-46.4	16.9	0.00e+00	0	42	0	938475520	60	4526
2026-01-30 09:53:46.08	353.18	32.32	-44.4	-46.5	16.8	0.00e+00	0	42	0	940572672	60	4581
2026-01-30 09:53:46.79	353.12	32.18	-44.7	-46.9	16.5	0.00e+00	0	42	0	941621248	60	4778
2026-01-30 09:53:48.08	353.01	31.92	-45.1	-47.4	16.0	0.00e+00	0	42	0	943718400	60	5083
2026-01-30 09:53:48.88	352.94	31.76	-45.1	-47.4	15.8	0.00e+00	0	42	0	945815552	61	4808
2026-01-30 09:53:50.03	352.85	31.54	-46.0	-48.8	14.6	0.00e+00	0	42	0	947912704	62	5324
2026-01-30 09:53:50.88	352.78	31.37	-46.6	-50.1	13.1	6.80e-06	0	42	0	950009856	64	5497
2026-01-30 09:53:52.03	352.68	31.15	-47.2	-51.2	12.2	2.81e-04	0	42	0	952107008	65	5888
2026-01-30 09:53:52.89	352.61	30.98	-47.4	-51.7	11.5	7.61e-04	0	42	0	953155584	65	6221
2026-01-30 09:53:54.04	352.52	30.76	-46.9	-50.5	12.8	3.00e-04	0	42	0	955252736	65	5417
2026-01-30 09:53:54.90	352.46	30.60	-46.4	-49.5	13.8	3.43e-05	0	42	0	957349888	64	5128
2026-01-30 09:53:56.04	352.37	30.38	-46.1	-49.0	14.4	2.20e-06	0	42	0	959447040	63	5135
2026-01-30 09:53:56.90	352.30	30.22	-45.8	-48.6	14.8	0.00e+00	0	42	0	960495616	63	4911
2026-01-30 09:53:58.05	352.22	30.01	-45.3	-47.7	15.6	0.00e+00	0	42	0	962592768	62	4702
2026-01-30 09:53:58.91	352.15	29.85	-45.4	-48.0	15.5	0.00e+00	0	42	0	964689920	62	4833
2026-01-30 09:54:00.05	352.07	29.64	-45.4	-47.9	15.5	0.00e+00	0	42	0	966787072	61	5051
2026-01-30 09:54:00.91	352.01	29.48	-45.2	-47.5	15.8	0.00e+00	0	42	0	967835648	61	4870
2026-01-30 09:54:02.06	351.93	29.27	-45.1	-47.4	16.0	0.00e+00	0	42	0	970981376	61	4773
2026-01-30 09:54:02.92	351.87	29.11	-45.0	-47.2	16.1	0.00e+00	0	42	0	972029952	61	4699
2026-01-30 09:54:04.06	351.79	28.91	-44.9	-47.0	16.5	0.00e+00	0	42	0	974127104	61	4552
2026-01-30 09:54:05.15	351.71	28.71	-44.6	-46.6	16.8	0.00e+00	0	42	0	976224256	61	4357
2026-01-30 09:54:06.01	351.65	28.56	-44.6	-46.5	16.8	0.00e+00	0	42	0	978321408	61	4326
2026-01-30 09:54:07.15	351.58	28.36	-44.5	-46.5	16.9	0.00e+00	0	42	0	980418560	60	4553
2026-01-30 09:54:08.01	351.52	28.21	-44.3	-46.2	17.2	0.00e+00	0	42	0	981467136	60	4395
2026-01-30 09:54:09.16	351.44	28.01	-43.6	-45.2	18.1	0.00e+00	0	42	0	983564288	59	4164
2026-01-30 09:54:10.35	351.37	27.80	-43.3	-44.9	18.4	0.00e+00	0	42	0	985661440	58	4259
2026-01-30 09:54:11.21	351.31	27.66	-43.7	-45.3	17.9	0.00e+00	0	42	0	987758592	58	4475
2026-01-30 09:54:12.36	351.24	27.46	-44.0	-45.8	17.4	0.00e+00	0	42	0	989855744	58	4755
2026-01-30 09:54:13.22	351.18	27.31	-44.4	-46.3	17.1	0.00e+00	0	42	0	990904320	59	4708
2026-01-30 09:54:14.36	351.11	27.12	-45.2	-47.5	15.8	0.00e+00	0	42	0	994050048	61	4854
2026-01-30 09:54:15.22	351.06	26.98	-45.6	-48.1	15.4	0.00e+00	0	42	0	995098624	61	5186
2026-01-30 09:54:16.40	350.99	26.78	-45.9	-48.6	14.9	0.00e+00	0	42	0	997195776	62	5181
2026-01-30 09:54:17.26	350.94	26.64	-46.2	-49.3	14.0	5.30e-06	0	42	0	999292928	63	5298
2026-01-30 09:54:18.41	350.87	26.45	-46.0	-48.9	14.6	0.00e+00	0	42	0	1001390080	63	5063
2026-01-30 09:54:19.27	350.82	26.31	-45.6	-48.2	15.2	0.00e+00	0	42	0	1002438656	63	4677
2026-01-30 09:54:20.41	350.75	26.12	-45.0	-47.3	16.0	0.00e+00	0	42	0	1004535808	62	4488
2026-01-30 09:54:21.28	350.70	25.98	-44.7	-46.9	16.5	0.00e+00	0	42	0	1006632960	61	4501
2026-01-30 09:54:22.42	350.64	25.79	-44.2	-46.2	17.1	0.00e+00	0	42	0	1008730112	60	4422
2026-01-30 09:54:23.28	350.59	25.66	-44.1	-46.0	17.3	0.00e+00	0	42	0	1009778688	60	4340
2026-01-30 09:54:24.42	350.53	25.48	-44.1	-46.0	17.2	0.00e+00	0	42	0	1011875840	59	4590
2026-01-30 09:54:25.28	350.48	25.34	-43.7	-45.4	17.8	0.00e+00	0	42	0	1013972992	59	4286
2026-01-30 09:54:26.43	350.42	25.16	-43.6	-45.3	17.9	0.00e+00	0	42	0	1016070144	59	4234
2026-01-30 09:54:27.29	350.37	25.02	-43.4	-45.1	18.1	0.00e+00	0	42	0	1018167296	58	4366
2026-01-30 09:54:28.43	350.31	24.85	-43.5	-45.2	18.1	0.00e+00	0	42	0	1020264448	58	4396
2026-01-30 09:54:29.29	350.26	24.71	-43.6	-45.3	17.9	0.00e+00	0	42	0	1021313024	58	4488
2026-01-30 09:54:30.48	350.20	24.53	-43.7	-45.4	17.9	0.00e+00	0	42	0	1023410176	58	4517
2026-01-30 09:54:31.34	350.16	24.40	-43.6	-45.3	17.9	0.00e+00	0	42	0	1025507328	58	4475
2026-01-30 09:54:32.48	350.10	24.23	-43.7	-45.5	17.8	0.00e+00	0	42	0	1027604480	58	4588
2026-01-30 09:54:33.34	350.06	24.10	-43.6	-45.5	17.7	0.00e+00	0	42	0	1028653056	58	4581
2026-01-30 09:54:34.61	349.99	23.90	-43.6	-45.5	17.7	0.00e+00	0	42	0	1031798784	58	4570
2026-01-30 09:54:35.33	349.96	23.80	-43.6	-45.6	17.7	0.00e+00	0	42	0	1032847360	58	4603
2026-01-30 09:54:36.62	349.89	23.61	-43.5	-45.5	17.7	0.00e+00	0	42	0	1034944512	58	4576
2026-01-30 09:54:37.33	349.86	23.50	-43.6	-45.6	17.6	0.00e+00	0	42	0	1037041664	58	4625
2026-01-30 09:54:38.62	349.80	23.31	-43.8	-45.8	17.4	0.00e+00	0	42	0	1039138816	58	4753
2026-01-30 09:54:39.34	349.76	23.21	-43.8	-45.8	17.5	0.00e+00	0	42	0	1040187392	58	4751
2026-01-30 09:54:40.63	349.70	23.02	-44.0	-46.0	17.3	0.00e+00	0	42	0	1042284544	58	4856
2026-01-30 09:54:41.34	349.67	22.92	-44.1	-46.1	17.2	0.00e+00	0	42	0	1044381696	59	4632
2026-01-30 09:54:42.63	349.61	22.73	-44.2	-46.1	17.1	0.00e+00	0	42	0	1046478848	59	4637
2026-01-30 09:54:43.34	349.58	22.63	-44.2	-46.1	17.2	0.00e+00	0	42	0	1047527424	59	4633
2026-01-30 09:54:44.64	349.52	22.44	-44.2	-46.1	17.2	0.00e+00	0	42	0	1050673152	59	4646
2026-01-30 09:54:45.35	349.49	22.34	-44.4	-46.4	17.0	0.00e+00	0	42	0	1051721728	59	4765
2026-01-30 09:54:46.67	349.43	22.16	-44.5	-46.6	16.8	0.00e+00	0	42	0	1053818880	59	4872
2026-01-30 09:54:47.65	349.39	22.02	-44.5	-46.7	16.6	0.00e+00	0	42	0	1055916032	59	4968
2026-01-30 09:54:48.97	349.33	21.84	-44.2	-46.3	17.0	0.00e+00	0	42	0	1058013184	59	4729
2026-01-30 09:54:49.68	349.30	21.74	-44.2	-46.3	17.0	0.00e+00	0	42	0	1060110336	59	4751
2026-01-30 09:54:50.97	349.24	21.56	-44.5	-46.8	16.5	0.00e+00	0	42	0	1062207488	59	5009
2026-01-30 09:54:51.69	349.21	21.46	-44.4	-46.6	16.7	0.00e+00	0	42	0	1063256064	59	4871
2026-01-30 09:54:52.98	349.16	21.29	-44.4	-46.6	16.7	0.00e+00	0	42	0	1066401792	59	4908
2026-01-30 09:54:53.70	349.13	21.19	-44.7	-47.1	16.3	0.00e+00	0	42	0	1067450368	60	4876
2026-01-30 09:54:55.01	349.08	21.01	-44.7	-47.0	16.4	0.00e+00	0	42	0	1069547520	60	4823
2026-01-30 09:54:55.73	349.05	20.92	-44.7	-47.0	16.4	0.00e+00	0	42	0	1070596096	60	4819
2026-01-30 09:54:57.02	349.00	20.75	-44.8	-47.0	16.2	0.00e+00	0	42	0	1073741824	60	4862
2026-01-30 09:54:57.73	348.97	20.65	-44.9	-47.2	16.1	0.00e+00	0	42	0	1074790400	60	4983
2026-01-30 09:54:59.02	348.92	20.48	-44.8	-47.0	16.3	0.00e+00	0	42	0	1076887552	60	4870
2026-01-30 09:54:59.74	348.89	20.39	-44.8	-47.1	16.2	0.00e+00	0	42	0	1078984704	60	4911
2026-01-30 09:55:01.26	348.83	20.19	-44.8	-47.1	16.2	0.00e+00	0	42	0	1081081856	60	4894
2026-01-30 09:55:01.98	348.80	20.10	-44.5	-46.8	16.6	0.00e+00	0	42	0	1083179008	60	4706
2026-01-30 09:55:03.27	348.76	19.93	-44.6	-46.9	16.4	0.00e+00	0	42	0	1085276160	60	4802
2026-01-30 09:55:03.98	348.73	19.84	-44.3	-46.6	16.8	0.00e+00	0	42	0	1086324736	60	4614
2026-01-30 09:55:05.27	348.68	19.67	-44.2	-46.4	16.8	0.00e+00	0	42	0	1089470464	60	4537
2026-01-30 09:55:05.99	348.65	19.58	-44.0	-46.1	17.2	0.00e+00	0	42	0	1090519040	60	4390
2026-01-30 09:55:07.27	348.61	19.42	-43.8	-45.7	17.5	0.00e+00	0	42	0	1092616192	59	4426
2026-01-30 09:55:07.99	348.58	19.33	-43.8	-45.8	17.4	0.00e+00	0	42	0	1093664768	59	4445
2026-01-30 09:55:09.28	348.54	19.17	-43.7	-45.6	17.6	0.00e+00	0	42	0	1096810496	59	4364
2026-01-30 09:55:10.01	348.51	19.08	-43.7	-45.6	17.6	0.00e+00	0	42	0	1097859072	59	4344
2026-01-30 09:55:11.30	348.46	18.92	-43.7	-45.5	17.7	0.00e+00	0	42	0	1099956224	58	4587
2026-01-30 09:55:12.02	348.44	18.83	-43.6	-45.5	17.7	0.00e+00	0	42	0	1102053376	58	4573
2026-01-30 09:55:13.30	348.40	18.67	-43.4	-45.1	18.1	0.00e+00	0	42	0	1104150528	58	4385
2026-01-30 09:55:14.16	348.37	18.57	-43.3	-45.1	18.0	0.00e+00	0	42	0	1105199104	58	4368
2026-01-30 09:55:15.63	348.32	18.39	-43.7	-45.6	17.6	0.00e+00	0	42	0	1108344832	58	4632
2026-01-30 09:55:16.34	348.29	18.30	-43.7	-45.7	17.5	0.00e+00	0	42	0	1109393408	58	4660
2026-01-30 09:55:17.84	348.24	18.12	-44.0	-46.2	17.0	0.00e+00	0	42	0	1112539136	58	4944
2026-01-30 09:55:18.55	348.22	18.04	-43.9	-46.1	17.0	0.00e+00	0	42	0	1113587712	58	4908
2026-01-30 09:55:19.84	348.18	17.89	-44.0	-46.2	17.0	0.00e+00	0	42	0	1116733440	58	4964
2026-01-30 09:55:20.56	348.15	17.80	-44.2	-46.5	16.7	0.00e+00	0	42	0	1117782016	58	5141
2026-01-30 09:55:21.85	348.11	17.65	-44.5	-47.1	16.2	0.00e+00	0	42	0	1119879168	59	5161
2026-01-30 09:55:22.56	348.09	17.57	-44.7	-47.4	15.9	0.00e+00	0	42	0	1120927744	60	5100
2026-01-30 09:55:23.85	348.05	17.42	-44.6	-47.4	15.9	0.00e+00	0	42	0	1124073472	60	5045
2026-01-30 09:55:24.57	348.03	17.33	-44.9	-47.7	15.6	0.00e+00	0	42	0	1125122048	60	5252
2026-01-30 09:55:25.86	347.99	17.18	-45.1	-47.9	15.4	7.00e-07	0	42	0	1127219200	60	5384
2026-01-30 09:55:26.57	347.97	17.10	-45.1	-47.9	15.4	0.00e+00	0	42	0	1129316352	60	5361
2026-01-30 09:55:27.86	347.93	16.95	-45.4	-48.4	15.0	0.00e+00	0	42	0	1131413504	61	5346
2026-01-30 09:55:28.57	347.91	16.87	-45.3	-48.1	15.1	0.00e+00	0	42	0	1132462080	61	5203
2026-01-30 09:55:29.86	347.87	16.73	-45.5	-48.4	15.1	0.00e+00	0	42	0	1135607808	61	5349
2026-01-30 09:55:30.58	347.85	16.65	-45.5	-48.3	15.0	0.00e+00	0	42	0	1136656384	61	5333
2026-01-30 09:55:31.86	347.81	16.50	-45.5	-48.5	14.9	0.00e+00	0	42	0	1138753536	61	5412
2026-01-30 09:55:32.58	347.79	16.42	-45.5	-48.4	14.9	0.00e+00	0	42	0	1139802112	61	5357
2026-01-30 09:55:33.87	347.75	16.28	-45.5	-48.5	14.8	7.00e-07	0	42	0	1142947840	61	5405
2026-01-30 09:55:34.59	347.73	16.20	-45.5	-48.6	14.8	0.00e+00	0	42	0	1143996416	61	5466
2026-01-30 09:55:35.88	347.69	16.05	-45.2	-48.2	15.2	0.00e+00	0	42	0	1146093568	61	5243
2026-01-30 09:55:36.59	347.67	15.98	-45.3	-48.5	14.7	0.00e+00	0	42	0	1148190720	61	5422
2026-01-30 09:55:37.88	347.64	15.84	-45.1	-48.4	14.9	7.00e-07	0	42	0	1150287872	61	5346
2026-01-30 09:55:38.60	347.62	15.76	-45.1	-48.4	14.8	1.50e-06	0	42	0	1151336448	61	5391
2026-01-30 09:55:39.89	347.58	15.62	-45.1	-48.6	14.7	0.00e+00	0	42	0	1153433600	61	5468
2026-01-30 09:55:40.60	347.56	15.54	-45.2	-48.7	14.6	7.00e-07	0	42	0	1155530752	61	5558
2026-01-30 09:55:41.89	347.53	15.40	-45.1	-48.6	14.7	0.00e+00	0	42	0	1157627904	61	5478
2026-01-30 09:55:42.61	347.51	15.33	-45.1	-48.7	14.6	0.00e+00	0	42	0	1158676480	61	5559
2026-01-30 09:55:43.90	347.48	15.19	-45.2	-48.7	14.6	0.00e+00	0	42	0	1161822208	61	5542
2026-01-30 09:55:44.61	347.46	15.11	-45.3	-48.9	14.4	0.00e+00	0	42	0	1162870784	61	5670
2026-01-30 09:55:45.93	347.42	14.97	-45.6	-49.3	14.0	0.00e+00	0	42	0	1164967936	61	5953
2026-01-30 09:55:46.65	347.40	14.90	-45.6	-49.2	14.0	3.00e-06	0	42	0	1167065088	61	5915
2026-01-30 09:55:47.94	347.37	14.76	-45.6	-49.3	14.0	7.00e-07	0	42	0	1169162240	61	5978
2026-01-30 09:55:48.66	347.35	14.69	-45.7	-49.3	14.0	7.00e-07	0	42	0	1170210816	61	5981
2026-01-30 09:55:49.94	347.32	14.55	-45.8	-49.6	13.7	2.20e-06	0	42	0	1172307968	62	5790
2026-01-30 09:55:50.66	347.30	14.48	-45.7	-49.3	14.0	2.20e-06	0	42	0	1174405120	62	5634
2026-01-30 09:55:52.11	347.27	14.33	-45.6	-49.2	14.1	4.50e-06	0	42	0	1176502272	62	5585
2026-01-30 09:55:53.09	347.24	14.23	-45.7	-49.4	13.9	3.00e-06	0	42	0	1178599424	62	5681
2026-01-30 09:55:54.10	347.22	14.13	-45.5	-49.2	14.2	3.80e-06	0	42	0	1180696576	62	5530
2026-01-30 09:55:55.10	347.19	14.03	-45.3	-48.9	14.3	1.50e-06	0	42	0	1182793728	62	5395
2026-01-30 09:55:56.11	347.17	13.92	-45.2	-48.7	14.6	0.00e+00	0	42	0	1183842304	62	5238
2026-01-30 09:55:57.11	347.14	13.82	-45.1	-48.7	14.5	0.00e+00	0	42	0	1185939456	61	5549
2026-01-30 09:55:58.11	347.12	13.72	-44.8	-48.2	15.0	0.00e+00	0	42	0	1188036608	61	5271
2026-01-30 09:55:59.12	347.10	13.62	-44.8	-48.3	15.0	0.00e+00	0	42	0	1190133760	61	5286
2026-01-30 09:56:00.17	347.07	13.52	-44.8	-48.2	15.0	0.00e+00	0	42	0	1192230912	61	5272
2026-01-30 09:56:01.07	347.05	13.43	-44.9	-48.0	15.2	0.00e+00	0	42	0	1193279488	61	5133
2026-01-30 09:56:02.25	347.03	13.31	-44.9	-48.0	15.2	0.00e+00	0	42	0	1195376640	61	5138
2026-01-30 09:56:03.13	347.01	13.22	-44.9	-48.0	15.3	0.00e+00	0	42	0	1197473792	61	5104
2026-01-30 09:56:04.27	346.98	13.11	-44.7	-47.5	15.7	0.00e+00	0	42	0	1199570944	61	4862
2026-01-30 09:56:05.13	346.96	13.03	-44.8	-47.5	15.7	0.00e+00	0	42	0	1201668096	61	4867
2026-01-30 09:56:06.28	346.93	12.92	-44.7	-47.4	15.8	0.00e+00	0	42	0	1203765248	61	4778
2026-01-30 09:56:07.13	346.92	12.84	-44.5	-47.1	16.0	0.00e+00	0	42	0	1204813824	61	4635
2026-01-30 09:56:08.28	346.89	12.72	-44.6	-47.2	16.0	0.00e+00	0	42	0	1206910976	60	4950
2026-01-30 09:56:09.14	346.87	12.64	-44.6	-47.1	16.0	0.00e+00	0	42	0	1209008128	60	4913
2026-01-30 09:56:10.29	346.85	12.53	-44.7	-47.2	15.9	0.00e+00	0	42	0	1211105280	60	4971
2026-01-30 09:56:11.15	346.83	12.45	-44.4	-46.9	16.2	0.00e+00	0	42	0	1212153856	60	4802
2026-01-30 09:56:12.29	346.81	12.34	-44.3	-46.8	16.3	0.00e+00	0	42	0	1214251008	60	4755
2026-01-30 09:56:13.15	346.79	12.26	-44.2	-46.9	16.3	0.00e+00	0	42	0	1216348160	60	4764
2026-01-30 09:56:14.32	346.76	12.15	-44.1	-46.9	16.2	0.00e+00	0	42	0	1218445312	60	4798
2026-01-30 09:56:15.17	346.75	12.07	-44.0	-47.0	16.1	0.00e+00	0	42	0	1220542464	60	4845
2026-01-30 09:56:16.38	346.72	11.96	-44.0	-47.0	16.0	0.00e+00	0	42	0	1222639616	59	5126
2026-01-30 09:56:17.24	346.70	11.88	-43.9	-47.0	16.1	0.00e+00	0	42	0	1223688192	59	5118
2026-01-30 09:56:18.38	346.68	11.77	-43.8	-46.9	16.2	0.00e+00	0	42	0	1225785344	59	5057
2026-01-30 09:56:19.24	346.66	11.69	-43.8	-46.9	16.2	0.00e+00	0	42	0	1227882496	59	5052
2026-01-30 09:56:20.39	346.64	11.59	-43.8	-47.0	16.1	0.00e+00	0	42	0	1229979648	59	5127
2026-01-30 09:56:21.25	346.62	11.51	-43.8	-47.0	16.1	0.00e+00	0	42	0	1231028224	59	5158
2026-01-30 09:56:22.39	346.60	11.40	-43.9	-47.4	15.7	0.00e+00	0	42	0	1233125376	59	5361
2026-01-30 09:56:23.25	346.58	11.33	-43.9	-47.4	15.7	0.00e+00	0	42	0	1235222528	59	5370
2026-01-30 09:56:24.40	346.56	11.22	-43.8	-47.0	16.0	0.00e+00	0	42	0	1237319680	59	5153
2026-01-30 09:56:25.26	346.55	11.14	-43.8	-47.1	15.9	0.00e+00	0	42	0	1239416832	59	5195
2026-01-30 09:56:26.40	346.52	11.04	-43.8	-47.1	16.0	0.00e+00	0	42	0	1241513984	59	5173
2026-01-30 09:56:27.26	346.51	10.96	-43.7	-47.1	16.0	0.00e+00	0	42	0	1242562560	59	5170
2026-01-30 09:56:28.41	346.49	10.86	-43.8	-47.2	15.8	0.00e+00	0	42	0	1244659712	59	5274
2026-01-30 09:56:29.27	346.47	10.79	-43.8	-47.3	15.7	0.00e+00	0	42	0	1246756864	59	5320
2026-01-30 09:56:30.41	346.45	10.68	-43.8	-47.5	15.5	0.00e+00	0	42	0	1248854016	59	5461
2026-01-30 09:56:31.27	346.43	10.61	-43.7	-47.4	15.6	0.00e+00	0	42	0	1249902592	59	5359
2026-01-30 09:56:32.41	346.41	10.51	-43.6	-47.2	15.8	0.00e+00	0	42	0	1251999744	59	5236
2026-01-30 09:56:33.29	346.40	10.43	-43.7	-47.4	15.6	0.00e+00	0	42	0	1254096896	59	5369
2026-01-30 09:56:34.61	346.37	10.32	-43.5	-47.2	15.8	0.00e+00	0	42	0	1256194048	58	5551
2026-01-30 09:56:35.72	346.35	10.22	-43.6	-47.5	15.5	0.00e+00	0	42	0	1258291200	58	5763
