passes_logs/2026/01/30/T1/T1__20260130_091518_NOAA_21_JPSS-2_rec.log

#Pass ID: 20260130_091518_NOAA 21 (JPSS-2)
#Satellite: NOAA 21 (JPSS-2)
#Configuration: NOAA 21
#almurnet v.1.7.20251203
#Start time: 2026-01-30 09:15:20

#Version: 2.0.20230620
#Station: T1
#Location: 37.570604 lon 55.790049 lat
#TLE: 1 54234U 22150A   26029.46216196  .00000141  00000+0  87503-4 0  9994
#TLE: 2 54234  98.7512 330.1880 0000955 196.3413 163.7732 14.19540905166865

#Time	Az	El	Level	Level2	SNR	BER	BlckErr	Temp	State	Recorded	gain1	gain2
2026-01-30 09:15:20.90	139.12	5.15	-49.6	-61.8	3.8	1.49e+00	0	36	0	0	70	14990
2026-01-30 09:15:21.90	139.08	5.22	-49.8	-61.8	3.8	1.49e+00	0	37	104	0	71	14094
2026-01-30 09:15:22.90	139.05	5.29	-49.6	-61.7	3.8	1.49e+00	0	36	104	0	71	14038
2026-01-30 09:15:23.91	139.01	5.36	-49.8	-61.8	3.8	1.49e+00	0	37	104	0	70	14907
2026-01-30 09:15:24.91	138.98	5.43	-49.7	-61.8	3.8	1.49e+00	0	37	104	0	70	14880
2026-01-30 09:15:25.91	138.94	5.50	-49.6	-61.7	3.8	1.49e+00	0	37	104	0	70	14800
2026-01-30 09:15:26.92	138.90	5.58	-49.7	-61.7	3.8	1.49e+00	0	37	104	0	70	14800
2026-01-30 09:15:27.92	138.87	5.65	-49.6	-61.7	3.8	1.49e+00	0	37	104	0	70	14779
2026-01-30 09:15:28.93	138.83	5.72	-49.4	-61.6	3.8	1.49e+00	0	37	104	0	70	14698
2026-01-30 09:15:29.93	138.80	5.79	-49.5	-61.6	3.8	1.49e+00	0	37	104	0	70	14613
2026-01-30 09:15:30.93	138.76	5.86	-49.3	-61.5	3.8	1.49e+00	0	37	104	0	70	14474
2026-01-30 09:15:31.94	138.72	5.94	-49.4	-61.5	3.8	1.49e+00	0	37	104	0	70	14423
2026-01-30 09:15:32.94	138.68	6.01	-49.3	-61.4	3.8	1.49e+00	0	37	104	0	69	15179
2026-01-30 09:15:33.95	138.65	6.08	-49.3	-61.2	3.8	1.49e+00	0	37	104	0	69	14863
2026-01-30 09:15:34.95	138.61	6.16	-49.2	-61.0	3.8	1.49e+00	0	37	104	0	69	14495
2026-01-30 09:15:35.96	138.57	6.23	-48.7	-59.4	3.8	1.49e+00	0	37	104	0	69	12034
2026-01-30 09:15:36.96	138.53	6.30	-48.8	-59.4	3.8	1.49e+00	0	37	104	0	69	12042
2026-01-30 09:15:37.96	138.50	6.38	-48.8	-59.5	3.8	1.49e+00	0	37	104	0	69	12199
2026-01-30 09:15:38.97	138.46	6.45	-48.8	-59.7	3.8	1.49e+00	0	37	104	0	69	12501
2026-01-30 09:15:39.97	138.42	6.52	-48.8	-60.0	3.8	1.49e+00	0	37	104	0	69	12947
2026-01-30 09:15:40.98	138.38	6.60	-48.8	-60.3	3.8	1.49e+00	0	37	104	0	69	13387
2026-01-30 09:15:41.98	138.34	6.67	-48.9	-60.7	3.8	1.49e+00	0	37	104	0	69	13891
2026-01-30 09:15:42.99	138.30	6.75	-48.9	-60.9	3.8	1.49e+00	0	37	104	0	69	14212
2026-01-30 09:15:43.99	138.26	6.82	-48.9	-60.9	3.8	1.49e+00	0	38	104	0	69	14366
2026-01-30 09:15:45.00	138.22	6.90	-48.9	-60.8	3.8	1.49e+00	0	38	104	0	69	14201
2026-01-30 09:15:46.00	138.18	6.97	-48.9	-60.6	3.8	1.49e+00	0	38	104	0	69	13728
2026-01-30 09:15:47.01	138.14	7.05	-48.8	-60.2	3.8	1.49e+00	0	38	104	0	69	13215
2026-01-30 09:15:48.01	138.10	7.12	-48.8	-59.8	3.8	1.49e+00	0	38	104	0	69	12606
2026-01-30 09:15:49.01	138.06	7.20	-48.7	-59.4	3.8	1.49e+00	0	38	104	0	69	11980
2026-01-30 09:15:50.02	138.02	7.28	-48.7	-58.9	3.9	1.49e+00	0	38	104	0	69	11378
2026-01-30 09:15:51.03	137.98	7.35	-48.6	-58.2	3.9	1.47e+00	0	38	104	0	69	10462
2026-01-30 09:15:52.03	137.94	7.43	-48.4	-56.5	4.5	1.45e+00	0	38	104	0	68	9119
2026-01-30 09:15:53.03	137.90	7.51	-48.1	-55.1	5.2	7.28e-01	0	38	0	0	68	7732
2026-01-30 09:15:54.04	137.86	7.58	-47.6	-53.2	6.4	3.18e-01	0	38	0	0	67	6613
2026-01-30 09:15:55.04	137.81	7.66	-46.9	-51.4	8.1	8.74e-02	0	38	0	0	65	6009
2026-01-30 09:15:56.05	137.77	7.74	-46.3	-49.9	9.6	1.63e-02	0	38	0	0	64	5362
2026-01-30 09:15:57.05	137.73	7.81	-45.6	-48.4	11.3	1.98e-03	0	38	0	0	63	4780
2026-01-30 09:15:58.05	137.69	7.89	-44.8	-47.1	12.6	2.72e-04	0	38	0	0	61	4627
2026-01-30 09:15:59.06	137.64	7.97	-44.1	-46.0	13.7	1.67e-05	0	38	0	0	60	4337
2026-01-30 09:16:00.06	137.60	8.05	-43.5	-45.2	14.5	7.00e-07	0	38	0	0	59	4154
2026-01-30 09:16:01.07	137.56	8.13	-43.1	-44.6	15.1	0.00e+00	0	38	0	0	58	4107
2026-01-30 09:16:02.07	137.51	8.21	-42.8	-44.3	15.4	0.00e+00	0	38	0	0	57	4210
2026-01-30 09:16:03.08	137.47	8.29	-42.7	-44.1	15.7	0.00e+00	0	38	0	0	57	4101
2026-01-30 09:16:04.08	137.43	8.36	-42.8	-44.1	15.8	0.00e+00	0	38	0	0	57	4134
2026-01-30 09:16:05.08	137.38	8.44	-43.0	-44.4	15.6	0.00e+00	0	38	0	0	57	4252
2026-01-30 09:16:06.09	137.34	8.52	-43.2	-44.7	15.3	0.00e+00	0	38	0	0	57	4409
2026-01-30 09:16:07.09	137.29	8.60	-43.7	-45.3	14.8	0.00e+00	0	38	0	0	57	4730
2026-01-30 09:16:08.10	137.25	8.68	-44.2	-46.0	14.0	3.00e-06	0	38	0	0	59	4589
2026-01-30 09:16:09.10	137.20	8.76	-45.1	-47.3	12.9	3.50e-05	0	38	0	0	60	5026
2026-01-30 09:16:10.10	137.16	8.84	-46.3	-49.0	11.5	2.88e-04	0	38	0	0	63	5129
2026-01-30 09:16:11.11	137.11	8.93	-47.3	-50.8	9.9	4.21e-03	0	38	0	0	65	5602
2026-01-30 09:16:12.12	137.06	9.01	-48.3	-52.8	8.2	3.49e-02	0	38	0	0	67	6277
2026-01-30 09:16:13.12	137.02	9.09	-49.2	-55.0	6.3	1.97e-01	0	38	0	0	69	7242
2026-01-30 09:16:14.12	136.97	9.17	-44.6	-46.2	15.0	0.00e+00	0	38	0	0	61	4178
2026-01-30 09:16:15.13	136.92	9.25	-45.7	-47.6	13.7	0.00e+00	0	38	0	0	61	4907
2026-01-30 09:16:16.13	136.88	9.33	-50.5	-62.3	3.8	1.45e+00	0	38	104	0	71	14895
2026-01-30 09:16:17.14	136.83	9.42	-50.6	-62.1	3.8	1.49e+00	0	38	104	0	71	14699
2026-01-30 09:16:18.36	136.77	9.52	-50.8	-62.5	3.8	1.49e+00	0	39	104	0	72	14514
2026-01-30 09:16:19.25	136.73	9.59	-50.9	-62.4	3.8	1.49e+00	0	39	104	0	72	14271
2026-01-30 09:16:20.30	136.68	9.68	-50.9	-61.9	3.9	1.49e+00	0	38	104	0	72	13561
2026-01-30 09:16:21.16	136.64	9.75	-50.9	-62.2	3.9	1.49e+00	0	39	104	0	73	13164
2026-01-30 09:16:22.31	136.58	9.84	-51.2	-62.3	3.9	1.49e+00	0	38	104	0	73	13352
2026-01-30 09:16:23.17	136.54	9.92	-50.7	-61.8	3.8	1.49e+00	0	38	104	0	73	12640
2026-01-30 09:16:24.32	136.48	10.01	-50.5	-61.6	3.8	1.49e+00	0	38	104	0	73	12301
2026-01-30 09:16:25.17	136.44	10.08	-45.8	-47.6	10.4	8.12e-03	0	38	0	0	63	4386
2026-01-30 09:16:26.32	136.38	10.18	-47.5	-50.2	8.0	7.02e-02	0	38	0	0	66	4964
2026-01-30 09:16:27.18	136.34	10.25	-46.6	-48.7	7.6	1.35e-02	0	38	0	0	64	4690
2026-01-30 09:16:28.39	136.28	10.36	-46.2	-48.0	7.5	1.73e-02	0	38	0	0	64	4335
2026-01-30 09:16:29.25	136.23	10.43	-45.8	-47.4	7.5	1.49e-02	0	38	0	0	63	4263
2026-01-30 09:16:30.40	136.17	10.53	-45.8	-47.4	7.5	1.28e-02	0	38	0	0	63	4271
2026-01-30 09:16:31.26	136.13	10.60	-45.1	-46.6	7.7	8.37e-03	0	38	0	0	62	4102
2026-01-30 09:16:32.41	136.07	10.70	-45.1	-46.5	7.7	6.81e-03	0	39	0	0	61	4334
2026-01-30 09:16:33.27	136.02	10.77	-46.6	-48.9	8.9	3.83e-02	0	38	0	0	64	4806
2026-01-30 09:16:34.64	135.95	10.89	-49.0	-54.1	4.5	1.48e+00	0	38	104	0	70	6181
2026-01-30 09:16:35.35	135.92	10.95	-46.4	-48.5	12.8	1.12e-03	0	38	0	0	64	4598
2026-01-30 09:16:36.64	135.85	11.07	-44.9	-46.5	14.9	2.20e-06	0	39	0	0	61	4328
2026-01-30 09:16:37.35	135.81	11.13	-44.8	-46.3	15.1	0.00e+00	0	38	0	0	61	4232
2026-01-30 09:16:38.64	135.74	11.24	-44.7	-46.2	15.2	0.00e+00	0	39	0	0	61	4165
2026-01-30 09:16:39.36	135.70	11.31	-44.6	-46.1	15.3	0.00e+00	0	39	0	0	61	4105
2026-01-30 09:16:40.65	135.63	11.42	-43.7	-44.9	16.4	0.00e+00	0	39	0	0	59	4020
2026-01-30 09:16:41.36	135.59	11.48	-43.2	-44.4	16.8	0.00e+00	0	39	0	0	58	4020
2026-01-30 09:16:42.65	135.52	11.60	-42.2	-43.2	17.6	0.00e+00	0	39	0	0	56	3936
2026-01-30 09:16:43.56	135.47	11.68	-41.1	-42.0	18.1	0.00e+00	0	39	0	0	54	3868
2026-01-30 09:16:44.57	135.41	11.77	-40.7	-41.6	18.3	0.00e+00	0	39	0	0	53	3884
2026-01-30 09:16:45.57	135.36	11.86	-41.3	-42.2	18.3	0.00e+00	0	39	0	0	53	4154
2026-01-30 09:16:46.57	135.30	11.95	-41.4	-42.3	18.4	0.00e+00	0	39	0	0	53	4199
2026-01-30 09:16:47.58	135.24	12.04	-41.2	-42.1	18.5	0.00e+00	0	38	0	0	53	4120
2026-01-30 09:16:48.58	135.18	12.13	-40.9	-41.8	18.7	0.00e+00	0	39	0	0	53	3988
2026-01-30 09:16:49.58	135.13	12.22	-40.9	-41.7	18.7	0.00e+00	0	39	0	0	53	3948
2026-01-30 09:16:50.59	135.07	12.31	-40.9	-41.8	18.6	0.00e+00	0	39	0	0	53	3985
2026-01-30 09:16:51.59	135.01	12.41	-40.7	-41.6	18.7	0.00e+00	0	39	0	0	53	3894
2026-01-30 09:16:52.59	134.95	12.50	-40.6	-41.5	18.7	0.00e+00	0	39	0	0	53	3849
2026-01-30 09:16:53.59	134.89	12.59	-40.5	-41.4	18.9	0.00e+00	0	39	0	0	53	3792
2026-01-30 09:16:54.60	134.83	12.68	-40.3	-41.2	19.0	0.00e+00	0	39	0	0	52	3920
2026-01-30 09:16:55.60	134.77	12.78	-40.4	-41.2	18.9	0.00e+00	0	39	0	0	52	3931
2026-01-30 09:16:56.60	134.71	12.87	-40.3	-41.1	18.9	0.00e+00	0	39	0	0	52	3897
2026-01-30 09:16:57.60	134.65	12.96	-40.1	-41.0	19.0	0.00e+00	0	39	0	0	52	3827
2026-01-30 09:16:58.94	134.57	13.09	-40.1	-40.9	19.1	0.00e+00	0	39	0	0	51	4019
2026-01-30 09:16:59.69	134.52	13.16	-40.0	-40.8	19.2	0.00e+00	0	39	0	0	51	3979
2026-01-30 09:17:00.98	134.44	13.28	-39.9	-40.8	19.1	0.00e+00	0	39	0	0	51	3963
2026-01-30 09:17:01.69	134.40	13.35	-39.9	-40.7	19.1	0.00e+00	0	39	0	0	51	3944
2026-01-30 09:17:02.98	134.31	13.47	-39.8	-40.6	19.2	0.00e+00	0	39	0	0	51	3906
2026-01-30 09:17:03.70	134.27	13.54	-39.8	-40.6	19.2	0.00e+00	0	39	0	0	51	3877
2026-01-30 09:17:04.99	134.19	13.67	-39.9	-40.7	19.1	0.00e+00	0	39	0	0	51	3923
2026-01-30 09:17:05.71	134.14	13.74	-39.8	-40.6	19.2	0.00e+00	0	39	0	0	51	3912
2026-01-30 09:17:07.00	134.06	13.86	-39.7	-40.5	19.4	0.00e+00	0	39	0	0	51	3834
2026-01-30 09:17:07.71	134.01	13.93	-39.6	-40.4	19.4	0.00e+00	0	39	0	0	51	3815
2026-01-30 09:17:09.09	133.92	14.06	-39.6	-40.4	19.4	0.00e+00	0	39	0	0	51	3802
2026-01-30 09:17:09.80	133.87	14.13	-39.6	-40.5	19.4	0.00e+00	0	39	0	0	51	3825
2026-01-30 09:17:11.17	133.78	14.27	-39.5	-40.3	19.5	0.00e+00	0	39	0	0	51	3761
2026-01-30 09:17:11.89	133.73	14.34	-39.5	-40.3	19.5	0.00e+00	0	39	0	0	51	3768
2026-01-30 09:17:13.24	133.64	14.47	-39.6	-40.4	19.5	0.00e+00	0	39	0	0	51	3793
2026-01-30 09:17:13.96	133.59	14.54	-39.6	-40.3	19.5	0.00e+00	0	39	0	0	51	3772
2026-01-30 09:17:15.25	133.50	14.67	-39.5	-40.3	19.6	0.00e+00	0	39	0	0	51	3755
2026-01-30 09:17:15.96	133.45	14.74	-39.5	-40.3	19.5	0.00e+00	0	39	0	0	51	3759
2026-01-30 09:17:17.25	133.36	14.87	-39.6	-40.4	19.4	0.00e+00	0	39	0	0	51	3807
2026-01-30 09:17:17.97	133.31	14.95	-39.6	-40.4	19.5	0.00e+00	0	39	0	0	51	3782
2026-01-30 09:17:19.26	133.22	15.08	-39.7	-40.4	19.4	0.00e+00	0	39	0	0	51	3823
2026-01-30 09:17:19.98	133.17	15.15	-39.6	-40.4	19.4	0.00e+00	0	39	0	0	51	3818
2026-01-30 09:17:21.27	133.08	15.28	-39.6	-40.4	19.4	0.00e+00	0	39	0	0	51	3812
2026-01-30 09:17:21.98	133.03	15.35	-39.7	-40.4	19.4	0.00e+00	0	39	0	0	51	3822
2026-01-30 09:17:23.27	132.94	15.49	-39.7	-40.5	19.3	0.00e+00	0	39	0	0	51	3867
2026-01-30 09:17:23.99	132.88	15.56	-39.8	-40.6	19.3	0.00e+00	0	39	0	0	51	3888
2026-01-30 09:17:25.28	132.79	15.69	-39.9	-40.7	19.2	0.00e+00	0	39	0	0	51	3931
2026-01-30 09:17:26.00	132.73	15.77	-39.9	-40.8	19.1	0.00e+00	0	39	0	0	51	3965
2026-01-30 09:17:27.29	132.64	15.90	-39.8	-40.7	19.2	0.00e+00	0	39	0	0	51	3915
2026-01-30 09:17:28.26	132.56	16.00	-39.9	-40.7	19.2	0.00e+00	0	39	0	0	51	3944
2026-01-30 09:17:29.26	132.49	16.11	-40.0	-40.8	19.3	0.00e+00	0	39	0	0	51	3988
2026-01-30 09:17:30.26	132.41	16.22	-39.9	-40.7	19.3	0.00e+00	0	39	0	0	51	3926
2026-01-30 09:17:31.27	132.34	16.32	-40.0	-40.8	19.2	0.00e+00	0	39	0	0	51	3977
2026-01-30 09:17:32.27	132.26	16.43	-39.8	-40.7	19.3	0.00e+00	0	39	0	0	51	3914
2026-01-30 09:17:33.27	132.18	16.54	-39.9	-40.8	19.1	0.00e+00	0	39	0	0	51	3973
2026-01-30 09:17:34.28	132.10	16.64	-39.9	-40.7	19.2	0.00e+00	0	39	0	0	51	3940
2026-01-30 09:17:35.28	132.02	16.75	-39.8	-40.6	19.3	0.00e+00	0	39	0	0	51	3911
2026-01-30 09:17:36.28	131.94	16.86	-39.7	-40.6	19.4	0.00e+00	0	39	0	0	51	3875
2026-01-30 09:17:37.28	131.86	16.97	-39.8	-40.6	19.3	0.00e+00	0	39	0	0	51	3911
2026-01-30 09:17:38.29	131.78	17.08	-39.7	-40.4	19.5	0.00e+00	0	39	0	0	51	3824
2026-01-30 09:17:39.43	131.69	17.20	-39.7	-40.5	19.5	0.00e+00	0	39	0	0	51	3830
2026-01-30 09:17:40.36	131.61	17.30	-39.6	-40.4	19.5	0.00e+00	0	39	0	0	51	3814
2026-01-30 09:17:41.36	131.53	17.41	-39.6	-40.4	19.5	0.00e+00	0	39	0	0	51	3810
2026-01-30 09:17:42.36	131.44	17.53	-39.6	-40.4	19.5	0.00e+00	0	39	0	0	51	3806
2026-01-30 09:17:43.37	131.36	17.64	-39.7	-40.5	19.4	0.00e+00	0	39	0	0	51	3831
2026-01-30 09:17:44.37	131.27	17.75	-39.7	-40.4	19.5	0.00e+00	0	39	0	0	51	3814
2026-01-30 09:17:45.37	131.19	17.86	-39.7	-40.4	19.5	0.00e+00	0	39	0	0	51	3818
2026-01-30 09:17:46.37	131.10	17.97	-39.7	-40.4	19.5	0.00e+00	0	39	0	0	51	3815
2026-01-30 09:17:47.38	131.01	18.09	-39.8	-40.5	19.4	0.00e+00	0	39	0	0	51	3865
2026-01-30 09:17:48.38	130.93	18.20	-39.7	-40.5	19.4	0.00e+00	0	39	0	0	51	3864
2026-01-30 09:17:49.38	130.84	18.31	-39.8	-40.6	19.3	0.00e+00	0	39	0	0	51	3897
2026-01-30 09:17:50.39	130.75	18.43	-39.9	-40.7	19.2	0.00e+00	0	39	0	0	51	3918
2026-01-30 09:17:51.41	130.66	18.55	-39.9	-40.7	19.2	0.00e+00	0	39	0	0	51	3916
2026-01-30 09:17:52.46	130.56	18.67	-39.9	-40.7	19.2	0.00e+00	0	39	0	0	51	3918
2026-01-30 09:17:53.41	130.48	18.78	-39.9	-40.7	19.2	0.00e+00	0	39	0	0	51	3928
2026-01-30 09:17:54.41	130.39	18.89	-39.8	-40.6	19.3	0.00e+00	0	39	0	0	51	3884
2026-01-30 09:17:55.42	130.29	19.01	-39.8	-40.6	19.3	0.00e+00	0	39	0	0	51	3904
2026-01-30 09:17:56.42	130.20	19.13	-39.8	-40.6	19.2	0.00e+00	0	39	0	0	51	3903
2026-01-30 09:17:57.42	130.11	19.24	-39.8	-40.6	19.3	0.00e+00	0	39	0	0	51	3881
2026-01-30 09:17:58.43	130.01	19.36	-39.8	-40.6	19.3	0.00e+00	0	39	0	0	51	3876
2026-01-30 09:17:59.43	129.92	19.48	-39.8	-40.6	19.3	0.00e+00	0	39	0	0	51	3870
2026-01-30 09:18:00.43	129.82	19.60	-39.7	-40.5	19.4	0.00e+00	0	39	0	0	51	3843
2026-01-30 09:18:01.44	129.72	19.72	-39.6	-40.4	19.5	0.00e+00	0	39	0	0	51	3797
2026-01-30 09:18:02.44	129.62	19.84	-39.6	-40.3	19.6	0.00e+00	0	39	0	0	51	3767
2026-01-30 09:18:03.45	129.52	19.96	-39.6	-40.4	19.5	0.00e+00	0	39	0	0	51	3793
2026-01-30 09:18:04.45	129.43	20.08	-39.7	-40.4	19.4	0.00e+00	0	39	0	0	51	3818
2026-01-30 09:18:05.45	129.33	20.20	-39.6	-40.3	19.6	0.00e+00	0	39	0	0	51	3773
2026-01-30 09:18:06.47	129.22	20.33	-39.4	-40.2	19.6	0.00e+00	0	39	0	0	50	3930
2026-01-30 09:18:07.50	129.12	20.46	-39.4	-40.1	19.8	0.00e+00	0	39	0	0	50	3893
2026-01-30 09:18:08.50	129.02	20.58	-39.4	-40.1	19.7	0.00e+00	0	39	0	0	50	3907
2026-01-30 09:18:09.50	128.91	20.70	-39.3	-40.1	19.7	0.00e+00	0	39	0	0	50	3880
2026-01-30 09:18:10.50	128.81	20.83	-39.2	-39.9	19.9	0.00e+00	0	39	0	0	50	3807
2026-01-30 09:18:11.50	128.70	20.95	-39.3	-40.0	19.8	0.00e+00	0	39	0	0	50	3845
2026-01-30 09:18:12.51	128.60	21.08	-39.0	-39.7	20.0	0.00e+00	0	39	0	0	50	3731
2026-01-30 09:18:13.51	128.49	21.20	-38.9	-39.6	20.1	0.00e+00	0	39	0	0	49	3900
2026-01-30 09:18:14.51	128.38	21.33	-38.9	-39.7	20.0	0.00e+00	0	40	0	0	49	3916
2026-01-30 09:18:15.52	128.27	21.45	-38.8	-39.5	20.1	0.00e+00	0	39	0	0	49	3863
2026-01-30 09:18:16.52	128.16	21.58	-38.8	-39.5	20.1	0.00e+00	0	39	0	0	49	3853
2026-01-30 09:18:17.52	128.05	21.71	-38.8	-39.5	20.1	0.00e+00	0	39	0	0	49	3855
2026-01-30 09:18:18.52	127.94	21.84	-38.8	-39.5	20.1	0.00e+00	0	39	0	0	49	3849
2026-01-30 09:18:19.52	127.83	21.97	-38.8	-39.5	20.1	0.00e+00	0	40	0	0	49	3868
2026-01-30 09:18:20.52	127.72	22.09	-38.8	-39.5	20.2	0.00e+00	0	40	0	0	49	3838
2026-01-30 09:18:21.52	127.60	22.22	-38.8	-39.5	20.2	0.00e+00	0	39	0	0	49	3842
2026-01-30 09:18:22.52	127.49	22.35	-38.7	-39.5	20.2	0.00e+00	0	39	0	0	49	3827
2026-01-30 09:18:23.52	127.37	22.49	-38.5	-39.2	20.4	0.00e+00	0	39	0	0	49	3713
2026-01-30 09:18:24.53	127.25	22.62	-38.4	-39.1	20.5	0.00e+00	0	39	0	0	48	3887
2026-01-30 09:18:25.56	127.13	22.75	-38.2	-38.9	20.7	0.00e+00	0	39	0	0	48	3807
2026-01-30 09:18:26.56	127.01	22.89	-38.2	-38.9	20.7	0.00e+00	0	39	0	0	48	3806
2026-01-30 09:18:27.56	126.89	23.02	-38.1	-38.8	20.8	0.00e+00	0	40	0	0	48	3762
2026-01-30 09:18:28.56	126.77	23.15	-38.2	-38.8	20.8	0.00e+00	0	39	0	0	48	3777
2026-01-30 09:18:29.57	126.65	23.29	-38.2	-38.8	20.8	0.00e+00	0	39	0	0	48	3767
2026-01-30 09:18:30.57	126.52	23.42	-38.2	-38.8	20.8	0.00e+00	0	39	0	0	48	3771
2026-01-30 09:18:31.57	126.40	23.56	-38.2	-38.8	20.8	0.00e+00	0	40	0	0	48	3771
2026-01-30 09:18:32.57	126.27	23.69	-38.1	-38.8	20.9	0.00e+00	0	39	0	0	48	3739
2026-01-30 09:18:33.58	126.15	23.83	-38.1	-38.8	20.8	0.00e+00	0	39	0	0	48	3750
2026-01-30 09:18:34.58	126.02	23.97	-38.1	-38.7	20.9	0.00e+00	0	39	0	0	48	3719
2026-01-30 09:18:35.58	125.89	24.10	-38.2	-38.8	20.8	0.00e+00	0	39	0	0	48	3770
2026-01-30 09:18:37.00	125.70	24.30	-38.1	-38.7	20.9	0.00e+00	0	39	0	0	48	3731
2026-01-30 09:18:37.72	125.61	24.40	-38.2	-38.9	20.8	0.00e+00	0	40	0	0	48	3786
2026-01-30 09:18:39.00	125.44	24.58	-38.2	-38.9	20.8	0.00e+00	0	39	0	0	48	3782
2026-01-30 09:18:39.72	125.34	24.68	-38.2	-38.9	20.8	0.00e+00	0	40	0	0	48	3782
2026-01-30 09:18:41.01	125.17	24.86	-38.3	-39.0	20.7	0.00e+00	0	40	0	0	48	3834
2026-01-30 09:18:41.72	125.07	24.96	-38.4	-39.1	20.6	0.00e+00	0	39	0	0	48	3877
2026-01-30 09:18:43.01	124.89	25.14	-38.4	-39.1	20.6	0.00e+00	0	39	0	0	48	3882
2026-01-30 09:18:43.73	124.79	25.24	-38.4	-39.1	20.5	0.00e+00	0	40	0	0	48	3904
2026-01-30 09:18:45.02	124.61	25.43	-38.5	-39.2	20.5	0.00e+00	0	39	0	0	48	3944
2026-01-30 09:18:45.73	124.51	25.53	-38.6	-39.3	20.4	0.00e+00	0	40	0	0	48	3969
2026-01-30 09:18:47.02	124.33	25.72	-38.7	-39.4	20.3	0.00e+00	0	40	0	0	48	4040
2026-01-30 09:18:47.74	124.22	25.82	-38.7	-39.4	20.3	0.00e+00	0	39	0	0	48	4045
2026-01-30 09:18:49.03	124.04	26.01	-38.7	-39.4	20.3	0.00e+00	0	39	0	0	48	4047
2026-01-30 09:18:49.76	123.93	26.11	-38.7	-39.4	20.4	0.00e+00	0	39	0	0	48	4026
2026-01-30 09:18:51.05	123.74	26.30	-38.7	-39.4	20.4	0.00e+00	0	40	0	0	48	4019
2026-01-30 09:18:51.76	123.63	26.40	-38.8	-39.5	20.3	0.00e+00	0	40	0	0	48	4071
2026-01-30 09:18:53.05	123.44	26.59	-38.8	-39.5	20.2	0.00e+00	0	39	0	0	48	4097
2026-01-30 09:18:53.76	123.33	26.70	-38.8	-39.5	20.2	0.00e+00	0	39	0	0	48	4087
2026-01-30 09:18:55.05	123.13	26.89	-38.8	-39.5	20.2	0.00e+00	0	39	0	0	48	4080
2026-01-30 09:18:55.77	123.02	27.00	-38.9	-39.6	20.2	0.00e+00	0	39	0	0	48	4106
2026-01-30 09:18:57.03	122.82	27.19	-39.0	-39.7	20.1	0.00e+00	0	39	0	0	48	4146
2026-01-30 09:18:57.79	122.70	27.30	-38.9	-39.5	20.2	0.00e+00	0	39	0	0	48	4098
2026-01-30 09:18:59.15	122.48	27.51	-38.9	-39.6	20.1	0.00e+00	0	39	0	0	48	4127
2026-01-30 09:19:00.15	122.32	27.66	-39.1	-39.8	19.8	0.00e+00	0	39	0	0	48	4240
2026-01-30 09:19:01.49	122.10	27.86	-39.2	-39.9	19.7	0.00e+00	0	39	0	0	49	4046
2026-01-30 09:19:02.25	121.97	27.98	-39.2	-40.0	19.7	0.00e+00	0	40	0	0	49	4063
2026-01-30 09:19:03.54	121.76	28.18	-39.3	-40.1	19.6	0.00e+00	0	40	0	0	49	4118
2026-01-30 09:19:04.25	121.64	28.28	-39.3	-40.1	19.7	0.00e+00	0	40	0	0	49	4101
2026-01-30 09:19:05.54	121.42	28.48	-39.2	-39.9	19.9	0.00e+00	0	40	0	0	49	4022
2026-01-30 09:19:06.26	121.30	28.60	-39.2	-40.0	19.8	0.00e+00	0	39	0	0	49	4061
2026-01-30 09:19:07.54	121.07	28.79	-39.1	-39.9	19.9	0.00e+00	0	39	0	0	49	4018
2026-01-30 09:19:08.26	120.95	28.91	-39.1	-39.9	19.9	0.00e+00	0	39	0	0	49	4006
2026-01-30 09:19:09.55	120.72	29.11	-39.0	-39.7	20.1	0.00e+00	0	40	0	0	49	3942
2026-01-30 09:19:10.27	120.59	29.22	-39.0	-39.7	20.0	0.00e+00	0	39	0	0	49	3943
2026-01-30 09:19:11.56	120.36	29.43	-39.0	-39.7	20.0	0.00e+00	0	39	0	0	49	3950
2026-01-30 09:19:12.28	120.23	29.54	-39.2	-39.9	19.8	0.00e+00	0	40	0	0	49	4027
2026-01-30 09:19:13.64	119.97	29.76	-39.2	-40.0	19.6	0.00e+00	0	40	0	0	49	4059
2026-01-30 09:19:14.63	119.79	29.91	-39.3	-40.1	19.5	0.00e+00	0	39	0	0	49	4113
2026-01-30 09:19:15.95	119.54	30.13	-39.4	-40.2	19.4	0.00e+00	0	40	0	0	49	4167
2026-01-30 09:19:16.66	119.41	30.24	-39.4	-40.2	19.5	0.00e+00	0	40	0	0	49	4178
2026-01-30 09:19:17.95	119.16	30.45	-39.4	-40.2	19.6	0.00e+00	0	40	0	0	49	4156
2026-01-30 09:19:18.67	119.02	30.56	-39.4	-40.2	19.6	0.00e+00	0	40	0	0	49	4177
2026-01-30 09:19:19.95	118.77	30.77	-39.5	-40.3	19.6	0.00e+00	0	40	0	0	49	4198
2026-01-30 09:19:20.67	118.62	30.89	-39.4	-40.1	19.7	0.00e+00	0	40	0	0	49	4144
2026-01-30 09:19:21.96	118.36	31.10	-39.3	-40.0	19.8	0.00e+00	0	40	0	0	49	4080
2026-01-30 09:19:22.67	118.22	31.22	-39.4	-40.1	19.7	0.00e+00	0	40	0	0	49	4130
2026-01-30 09:19:24.02	117.94	31.44	-39.4	-40.2	19.6	0.00e+00	0	40	0	0	49	4156
2026-01-30 09:19:24.73	117.80	31.56	-39.4	-40.2	19.6	0.00e+00	0	40	0	0	49	4165
2026-01-30 09:19:26.02	117.53	31.77	-39.4	-40.2	19.6	0.00e+00	0	40	0	0	49	4158
2026-01-30 09:19:26.74	117.38	31.89	-39.4	-40.2	19.6	0.00e+00	0	39	0	0	49	4146
2026-01-30 09:19:28.03	117.10	32.10	-39.4	-40.2	19.6	0.00e+00	0	40	0	0	49	4179
2026-01-30 09:19:28.74	116.95	32.22	-39.5	-40.3	19.6	0.00e+00	0	40	0	0	49	4207
2026-01-30 09:19:30.03	116.67	32.44	-39.6	-40.4	19.5	0.00e+00	0	39	0	0	49	4261
2026-01-30 09:19:30.74	116.51	32.56	-39.6	-40.4	19.5	0.00e+00	0	40	0	0	49	4243
2026-01-30 09:19:32.03	116.22	32.78	-39.7	-40.5	19.4	0.00e+00	0	39	0	0	49	4306
2026-01-30 09:19:32.75	116.06	32.90	-39.5	-40.3	19.6	0.00e+00	0	39	0	0	49	4216
2026-01-30 09:19:34.03	115.77	33.11	-39.5	-40.3	19.5	0.00e+00	0	40	0	0	49	4194
2026-01-30 09:19:34.75	115.60	33.24	-39.7	-40.5	19.3	0.00e+00	0	39	0	0	49	4297
2026-01-30 09:19:36.04	115.30	33.45	-39.7	-40.5	19.3	0.00e+00	0	40	0	0	50	4076
2026-01-30 09:19:36.90	115.10	33.60	-39.8	-40.6	19.3	0.00e+00	0	39	0	0	50	4108
2026-01-30 09:19:38.04	114.83	33.80	-39.9	-40.7	19.1	0.00e+00	0	40	0	0	50	4169
2026-01-30 09:19:38.90	114.63	33.94	-39.9	-40.7	19.2	0.00e+00	0	40	0	0	50	4181
2026-01-30 09:19:40.05	114.35	34.14	-40.0	-40.9	19.0	0.00e+00	0	40	0	0	50	4247
2026-01-30 09:19:40.91	114.14	34.29	-40.1	-40.9	19.0	0.00e+00	0	40	0	0	50	4285
2026-01-30 09:19:42.05	113.85	34.49	-40.2	-41.1	18.9	0.00e+00	0	40	0	0	51	4118
2026-01-30 09:19:42.91	113.64	34.63	-40.3	-41.2	18.7	0.00e+00	0	40	0	0	51	4164
2026-01-30 09:19:44.06	113.35	34.83	-40.3	-41.2	18.7	0.00e+00	0	40	0	0	51	4166
2026-01-30 09:19:44.92	113.13	34.98	-40.2	-41.0	18.8	0.00e+00	0	40	0	0	51	4091
2026-01-30 09:19:46.06	112.83	35.18	-40.4	-41.3	18.5	0.00e+00	0	40	0	0	51	4194
2026-01-30 09:19:46.92	112.61	35.33	-40.5	-41.3	18.5	0.00e+00	0	40	0	0	51	4224
2026-01-30 09:19:48.07	112.31	35.53	-40.6	-41.4	18.4	0.00e+00	0	40	0	0	51	4284
2026-01-30 09:19:48.92	112.08	35.68	-40.7	-41.6	18.2	0.00e+00	0	40	0	0	52	4111
2026-01-30 09:19:50.07	111.77	35.88	-40.8	-41.7	18.1	0.00e+00	0	40	0	0	52	4180
2026-01-30 09:19:51.06	111.50	36.05	-40.9	-41.8	18.1	0.00e+00	0	40	0	0	52	4219
2026-01-30 09:19:52.24	111.17	36.26	-40.9	-41.8	18.1	0.00e+00	0	40	0	0	52	4230
2026-01-30 09:19:53.16	110.92	36.42	-40.8	-41.7	18.2	0.00e+00	0	40	0	0	52	4189
2026-01-30 09:19:54.35	110.58	36.63	-40.7	-41.7	18.3	0.00e+00	0	40	0	0	52	4160
2026-01-30 09:19:55.20	110.34	36.78	-40.7	-41.6	18.3	0.00e+00	0	40	0	0	52	4142
2026-01-30 09:19:56.57	109.94	37.02	-40.6	-41.5	18.5	0.00e+00	0	40	0	0	52	4053
2026-01-30 09:19:57.29	109.73	37.14	-40.6	-41.5	18.5	0.00e+00	0	40	0	0	52	4075
2026-01-30 09:19:58.58	109.35	37.37	-40.7	-41.6	18.5	0.00e+00	0	40	0	0	52	4104
2026-01-30 09:19:59.29	109.14	37.50	-40.6	-41.5	18.5	0.00e+00	0	40	0	0	52	4089
2026-01-30 09:20:00.58	108.75	37.72	-40.6	-41.5	18.4	0.00e+00	0	40	0	0	52	4084
2026-01-30 09:20:01.35	108.51	37.86	-40.6	-41.5	18.4	0.00e+00	0	40	0	0	52	4073
2026-01-30 09:20:02.63	108.12	38.08	-40.7	-41.6	18.4	0.00e+00	0	40	0	0	52	4110
2026-01-30 09:20:03.35	107.89	38.21	-40.7	-41.6	18.4	0.00e+00	0	40	0	0	52	4120
2026-01-30 09:20:04.64	107.49	38.44	-40.6	-41.5	18.5	0.00e+00	0	40	0	0	52	4092
2026-01-30 09:20:05.35	107.26	38.56	-40.6	-41.5	18.5	0.00e+00	0	40	0	0	52	4092
2026-01-30 09:20:06.64	106.84	38.79	-40.7	-41.6	18.4	0.00e+00	0	40	0	0	52	4114
2026-01-30 09:20:07.58	106.54	38.95	-40.6	-41.5	18.5	0.00e+00	0	40	0	0	52	4075
2026-01-30 09:20:08.91	106.10	39.19	-40.6	-41.5	18.5	0.00e+00	0	40	0	0	52	4061
2026-01-30 09:20:09.65	105.85	39.32	-40.5	-41.4	18.5	0.00e+00	0	40	0	0	52	4040
2026-01-30 09:20:11.24	105.31	39.59	-40.7	-41.5	18.4	0.00e+00	0	40	0	0	52	4092
2026-01-30 09:20:11.81	105.12	39.69	-40.7	-41.6	18.4	0.00e+00	0	40	0	0	52	4129
2026-01-30 09:20:13.39	104.57	39.97	-40.8	-41.7	18.4	0.00e+00	0	40	0	0	52	4158
2026-01-30 09:20:14.00	104.36	40.07	-40.8	-41.8	18.2	0.00e+00	0	40	0	0	52	4204
2026-01-30 09:20:15.58	103.80	40.35	-41.1	-42.1	17.9	0.00e+00	0	40	0	0	52	4374
2026-01-30 09:20:16.25	103.56	40.46	-41.2	-42.2	17.8	0.00e+00	0	40	0	0	53	4192
2026-01-30 09:20:17.68	103.04	40.71	-41.4	-42.5	17.6	0.00e+00	0	40	0	0	53	4297
2026-01-30 09:20:18.40	102.77	40.83	-41.4	-42.5	17.6	0.00e+00	0	40	0	0	53	4313
2026-01-30 09:20:19.69	102.29	41.05	-41.7	-42.8	17.3	0.00e+00	0	39	0	0	54	4197
2026-01-30 09:20:20.50	101.99	41.19	-41.8	-42.9	17.1	0.00e+00	0	40	0	0	54	4284
2026-01-30 09:20:21.64	101.56	41.39	-42.0	-43.1	17.0	0.00e+00	0	40	0	0	54	4380
2026-01-30 09:20:22.50	101.23	41.53	-42.0	-43.2	16.9	0.00e+00	0	40	0	0	54	4394
2026-01-30 09:20:23.64	100.79	41.72	-42.1	-43.3	16.9	0.00e+00	0	40	0	0	54	4448
2026-01-30 09:20:24.75	100.35	41.91	-41.9	-43.1	17.1	0.00e+00	0	40	0	0	54	4362
2026-01-30 09:20:25.79	99.94	42.08	-42.0	-43.1	17.1	0.00e+00	0	40	0	0	54	4375
2026-01-30 09:20:26.96	99.47	42.28	-42.2	-43.4	16.9	0.00e+00	0	40	0	0	54	4505
2026-01-30 09:20:27.82	99.12	42.42	-42.2	-43.4	16.8	0.00e+00	0	40	0	0	55	4251
2026-01-30 09:20:28.96	98.66	42.61	-42.3	-43.5	16.7	0.00e+00	0	40	0	0	55	4298
2026-01-30 09:20:29.82	98.30	42.75	-42.2	-43.4	16.8	0.00e+00	0	40	0	0	55	4256
2026-01-30 09:20:30.96	97.83	42.93	-42.1	-43.3	16.9	0.00e+00	0	40	0	0	55	4204
2026-01-30 09:20:31.82	97.46	43.07	-41.9	-43.0	17.2	0.00e+00	0	40	0	0	55	4080
2026-01-30 09:20:32.97	96.97	43.26	-41.7	-42.8	17.3	0.00e+00	0	40	0	0	55	3982
2026-01-30 09:20:33.83	96.60	43.39	-41.4	-42.4	17.7	0.00e+00	0	40	0	0	54	4039
2026-01-30 09:20:34.97	96.11	43.57	-41.2	-42.2	17.8	0.00e+00	0	40	0	0	54	3942
2026-01-30 09:20:35.83	95.73	43.71	-41.3	-42.3	17.8	0.00e+00	0	40	0	0	54	3983
2026-01-30 09:20:36.98	95.22	43.89	-41.6	-42.7	17.4	0.00e+00	0	40	0	0	54	4178
2026-01-30 09:20:37.83	94.84	44.02	-41.7	-42.8	17.3	0.00e+00	0	40	0	0	54	4226
2026-01-30 09:20:39.11	94.26	44.21	-42.0	-43.1	17.0	0.00e+00	0	40	0	0	54	4373
2026-01-30 09:20:39.82	93.94	44.32	-42.1	-43.3	16.7	0.00e+00	0	40	0	0	54	4465
2026-01-30 09:20:41.11	93.34	44.51	-42.1	-43.2	16.8	0.00e+00	0	40	0	0	54	4441
2026-01-30 09:20:41.83	93.01	44.62	-42.0	-43.2	16.9	0.00e+00	0	40	0	0	54	4423
2026-01-30 09:20:43.12	92.40	44.81	-41.7	-42.8	17.2	0.00e+00	0	40	0	0	54	4239
2026-01-30 09:20:43.85	92.05	44.92	-41.6	-42.7	17.5	0.00e+00	0	40	0	0	54	4162
2026-01-30 09:20:45.14	91.44	45.10	-41.2	-42.2	17.9	0.00e+00	0	40	0	0	54	3936
2026-01-30 09:20:45.85	91.10	45.20	-41.1	-42.1	18.0	0.00e+00	0	40	0	0	54	3882
2026-01-30 09:20:47.14	90.47	45.38	-41.4	-42.4	17.6	0.00e+00	0	40	0	0	54	4039
2026-01-30 09:20:47.99	90.05	45.50	-41.5	-42.6	17.5	0.00e+00	0	40	0	0	54	4116
2026-01-30 09:20:49.14	89.48	45.65	-41.4	-42.5	17.6	0.00e+00	0	40	0	0	54	4081
2026-01-30 09:20:50.00	89.05	45.77	-41.0	-42.0	18.1	0.00e+00	0	40	0	0	54	3863
2026-01-30 09:20:51.14	88.47	45.92	-41.0	-42.0	18.0	0.00e+00	0	40	0	0	53	4067
2026-01-30 09:20:52.00	88.04	46.03	-41.2	-42.2	17.6	0.00e+00	0	40	0	0	53	4189
2026-01-30 09:20:53.14	87.45	46.18	-41.8	-43.0	17.0	0.00e+00	0	40	0	0	54	4303
2026-01-30 09:20:54.00	87.01	46.29	-41.9	-43.0	17.0	0.00e+00	0	40	0	0	54	4324
2026-01-30 09:20:55.15	86.41	46.43	-41.8	-43.0	17.0	0.00e+00	0	40	0	0	54	4303
2026-01-30 09:20:56.01	85.96	46.53	-41.7	-42.8	17.1	0.00e+00	0	40	0	0	54	4216
2026-01-30 09:20:57.16	85.35	46.67	-41.8	-43.0	17.1	0.00e+00	0	40	0	0	54	4304
2026-01-30 09:20:58.02	84.89	46.77	-42.1	-43.3	16.9	0.00e+00	0	40	0	0	54	4442
2026-01-30 09:20:59.16	84.28	46.90	-42.3	-43.5	16.7	0.00e+00	0	40	0	0	55	4338
2026-01-30 09:21:00.02	83.81	46.99	-41.9	-43.0	17.2	0.00e+00	0	40	0	0	55	4075
2026-01-30 09:21:01.17	83.19	47.12	-41.7	-42.8	17.3	0.00e+00	0	40	0	0	55	3998
2026-01-30 09:21:02.03	82.71	47.21	-41.9	-43.1	16.9	0.00e+00	0	40	0	0	55	4108
2026-01-30 09:21:03.17	82.08	47.33	-42.0	-43.2	17.1	0.00e+00	0	40	0	0	55	4149
2026-01-30 09:21:04.02	81.61	47.41	-42.0	-43.1	17.1	0.00e+00	0	40	0	0	55	4143
2026-01-30 09:21:05.17	80.97	47.53	-41.8	-42.9	17.4	0.00e+00	0	40	0	0	55	4016
2026-01-30 09:21:06.03	80.48	47.61	-41.4	-42.3	17.9	0.00e+00	0	40	0	0	54	3998
2026-01-30 09:21:07.17	79.84	47.72	-41.3	-42.3	17.9	0.00e+00	0	40	0	0	54	3978
2026-01-30 09:21:08.03	79.35	47.79	-41.4	-42.3	17.9	0.00e+00	0	40	0	0	54	4004
2026-01-30 09:21:09.18	78.69	47.89	-41.1	-42.0	18.2	0.00e+00	0	40	0	0	54	3843
2026-01-30 09:21:10.04	78.19	47.96	-40.9	-41.8	18.4	0.00e+00	0	40	0	0	53	3963
2026-01-30 09:21:11.18	77.53	48.06	-40.6	-41.5	18.7	0.00e+00	0	40	0	0	53	3834
2026-01-30 09:21:12.04	77.03	48.12	-40.7	-41.6	18.6	0.00e+00	0	40	0	0	53	3896
2026-01-30 09:21:13.19	76.36	48.21	-41.2	-42.1	18.0	0.00e+00	0	40	0	0	53	4133
2026-01-30 09:21:14.04	75.86	48.27	-41.1	-42.0	18.2	0.00e+00	0	40	0	0	53	4077
2026-01-30 09:21:15.40	75.06	48.36	-40.9	-41.8	18.3	0.00e+00	0	40	0	0	53	3963
2026-01-30 09:21:16.11	74.64	48.41	-41.0	-41.9	18.2	0.00e+00	0	40	0	0	53	4032
2026-01-30 09:21:17.62	73.73	48.50	-41.5	-42.6	17.6	0.00e+00	0	40	0	0	53	4346
2026-01-30 09:21:18.34	73.30	48.54	-41.9	-43.0	17.3	0.00e+00	0	40	0	0	54	4304
2026-01-30 09:21:19.63	72.53	48.61	-41.9	-43.1	17.2	0.00e+00	0	40	0	0	54	4346
2026-01-30 09:21:20.35	72.09	48.65	-41.8	-42.9	17.2	0.00e+00	0	40	0	0	54	4281
2026-01-30 09:21:21.76	71.24	48.71	-41.6	-42.6	17.6	0.00e+00	0	40	0	0	54	4127
2026-01-30 09:21:22.48	70.80	48.75	-41.6	-42.6	17.5	0.00e+00	0	40	0	0	54	4137
2026-01-30 09:21:23.77	70.02	48.80	-41.8	-42.9	17.2	0.00e+00	0	40	0	0	54	4268
2026-01-30 09:21:24.49	69.58	48.82	-41.8	-42.9	17.3	0.00e+00	0	40	0	0	54	4267
2026-01-30 09:21:25.77	68.80	48.87	-41.6	-42.6	17.5	0.00e+00	0	40	0	0	54	4114
2026-01-30 09:21:26.50	68.35	48.89	-41.5	-42.5	17.5	0.00e+00	0	40	0	0	54	4092
2026-01-30 09:21:27.79	67.56	48.92	-41.4	-42.4	17.6	0.00e+00	0	40	0	0	54	4014
2026-01-30 09:21:28.51	67.12	48.94	-41.2	-42.2	17.7	0.00e+00	0	40	0	0	54	3929
2026-01-30 09:21:29.80	66.32	48.96	-41.0	-41.9	18.0	0.00e+00	0	40	0	0	53	4028
2026-01-30 09:21:30.51	65.89	48.97	-41.0	-41.9	18.0	0.00e+00	0	40	0	0	53	4020
2026-01-30 09:21:31.80	65.09	48.99	-41.4	-42.4	17.6	0.00e+00	0	40	0	0	53	4277
2026-01-30 09:21:32.51	64.65	48.99	-41.6	-42.6	17.5	0.00e+00	0	40	0	0	53	4361
2026-01-30 09:21:33.80	63.86	49.00	-40.9	-41.8	18.3	0.00e+00	0	40	0	0	53	3997
2026-01-30 09:21:34.62	63.35	49.00	-40.8	-41.7	18.4	0.00e+00	0	40	0	0	53	3916
2026-01-30 09:21:36.09	62.44	49.00	-40.5	-41.3	18.7	0.00e+00	0	40	0	0	52	3994
2026-01-30 09:21:37.22	61.75	48.99	-40.7	-41.5	18.5	0.00e+00	0	40	0	0	52	4093
2026-01-30 09:21:38.08	61.21	48.98	-40.6	-41.5	18.7	0.00e+00	0	40	0	0	52	4073
2026-01-30 09:21:39.23	60.51	48.96	-40.7	-41.6	18.6	0.00e+00	0	40	0	0	52	4105
2026-01-30 09:21:40.09	59.98	48.94	-41.0	-41.9	18.3	0.00e+00	0	40	0	0	52	4266
2026-01-30 09:21:41.24	59.27	48.92	-41.3	-42.2	17.9	0.00e+00	0	40	0	0	53	4180
2026-01-30 09:21:42.09	58.75	48.90	-41.5	-42.6	17.6	0.00e+00	0	40	0	0	53	4345
2026-01-30 09:21:43.40	57.95	48.86	-41.4	-42.4	17.7	0.00e+00	0	40	0	0	53	4291
2026-01-30 09:21:44.11	57.51	48.83	-41.5	-42.5	17.7	0.00e+00	0	40	0	0	53	4318
2026-01-30 09:21:45.40	56.73	48.79	-41.7	-42.7	17.4	0.00e+00	0	40	0	0	53	4421
2026-01-30 09:21:46.12	56.29	48.76	-41.7	-42.8	17.5	0.00e+00	0	40	0	0	54	4194
2026-01-30 09:21:47.72	55.32	48.69	-42.0	-43.1	17.2	0.00e+00	0	40	0	0	54	4367
2026-01-30 09:21:48.30	54.97	48.66	-42.0	-43.1	17.2	0.00e+00	0	40	0	0	54	4345
2026-01-30 09:21:49.92	53.99	48.58	-41.5	-42.5	17.7	0.00e+00	0	40	0	0	54	4062
2026-01-30 09:21:50.49	53.65	48.54	-41.2	-42.2	17.9	0.00e+00	0	40	0	0	54	3943
2026-01-30 09:21:52.14	52.67	48.45	-41.1	-42.0	18.2	0.00e+00	0	40	0	0	54	3857
2026-01-30 09:21:52.72	52.32	48.41	-41.1	-42.1	18.2	0.00e+00	0	40	0	0	54	3873
2026-01-30 09:21:54.30	51.39	48.31	-41.2	-42.1	18.1	0.00e+00	0	40	0	0	54	3902
2026-01-30 09:21:54.89	51.04	48.27	-41.2	-42.1	18.1	0.00e+00	0	40	0	0	54	3900
2026-01-30 09:21:56.46	50.12	48.15	-41.8	-42.9	17.2	0.00e+00	0	40	0	0	54	4258
2026-01-30 09:21:57.05	49.77	48.11	-41.9	-43.0	17.0	0.00e+00	0	40	0	0	54	4306
2026-01-30 09:21:58.63	48.86	47.98	-41.7	-42.8	17.1	0.00e+00	0	40	0	0	54	4199
2026-01-30 09:21:59.50	48.36	47.91	-41.4	-42.4	17.5	0.00e+00	0	40	0	0	54	4022
2026-01-30 09:22:00.65	47.70	47.81	-41.1	-42.0	18.0	0.00e+00	0	40	0	0	54	3862
2026-01-30 09:22:01.81	47.04	47.71	-40.9	-41.8	18.3	0.00e+00	0	40	0	0	53	3982
2026-01-30 09:22:02.84	46.46	47.61	-40.8	-41.7	18.5	0.00e+00	0	40	0	0	53	3925
2026-01-30 09:22:03.84	45.89	47.52	-41.2	-42.1	18.0	0.00e+00	0	40	0	0	53	4131
2026-01-30 09:22:04.84	45.34	47.42	-41.3	-42.3	17.9	0.00e+00	0	40	0	0	53	4209
2026-01-30 09:22:05.84	44.78	47.32	-41.3	-42.3	17.7	0.00e+00	0	40	0	0	53	4214
2026-01-30 09:22:06.84	44.23	47.21	-41.4	-42.5	17.3	0.00e+00	0	40	0	0	53	4296
2026-01-30 09:22:07.84	43.68	47.11	-41.5	-42.6	17.3	0.00e+00	0	40	0	0	53	4353
2026-01-30 09:22:08.84	43.14	47.00	-41.3	-42.3	17.8	0.00e+00	0	40	0	0	53	4210
2026-01-30 09:22:09.85	42.59	46.89	-41.5	-42.5	17.8	0.00e+00	0	40	0	0	53	4302
2026-01-30 09:22:10.85	42.06	46.77	-41.9	-43.0	17.3	0.00e+00	0	40	0	0	54	4301
2026-01-30 09:22:11.85	41.53	46.66	-42.1	-43.2	17.1	0.00e+00	0	40	0	0	54	4428
2026-01-30 09:22:12.85	41.00	46.54	-42.0	-43.2	17.1	0.00e+00	0	40	0	0	55	4146
2026-01-30 09:22:13.85	40.47	46.42	-41.6	-42.6	17.5	0.00e+00	0	40	0	0	55	3904
2026-01-30 09:22:14.85	39.95	46.29	-41.0	-42.0	18.0	0.00e+00	0	40	0	0	54	3836
2026-01-30 09:22:15.94	39.39	46.16	-41.0	-41.9	18.2	0.00e+00	0	40	0	0	53	4005
2026-01-30 09:22:16.83	38.94	46.04	-41.3	-42.3	17.9	0.00e+00	0	40	0	0	53	4199
2026-01-30 09:22:17.97	38.36	45.90	-42.3	-43.5	16.8	0.00e+00	0	40	0	0	55	4301
2026-01-30 09:22:18.83	37.93	45.78	-43.0	-44.4	16.0	0.00e+00	0	40	0	0	56	4532
2026-01-30 09:22:19.98	37.35	45.63	-42.6	-43.8	16.3	0.00e+00	0	40	0	0	56	4227
2026-01-30 09:22:20.84	36.93	45.51	-41.7	-42.7	17.2	0.00e+00	0	40	0	0	55	3955
2026-01-30 09:22:21.99	36.36	45.35	-41.0	-41.9	18.2	0.00e+00	0	40	0	0	54	3821
2026-01-30 09:22:22.85	35.95	45.23	-40.9	-41.8	18.4	0.00e+00	0	40	0	0	53	3974
2026-01-30 09:22:23.99	35.40	45.07	-41.8	-42.9	17.4	0.00e+00	0	40	0	0	54	4245
2026-01-30 09:22:24.85	34.99	44.95	-42.9	-44.2	16.3	0.00e+00	0	40	0	0	56	4433
2026-01-30 09:22:26.01	34.44	44.78	-43.4	-44.9	15.4	0.00e+00	0	40	0	0	57	4517
2026-01-30 09:22:26.87	34.04	44.66	-42.7	-43.9	16.1	0.00e+00	0	40	0	0	57	4044
2026-01-30 09:22:28.08	33.47	44.48	-41.2	-42.1	17.5	0.00e+00	0	40	0	0	54	3894
2026-01-30 09:22:28.94	33.08	44.35	-40.9	-41.8	18.0	0.00e+00	0	40	0	0	53	3980
2026-01-30 09:22:30.09	32.56	44.18	-40.9	-41.8	18.2	0.00e+00	0	40	0	0	53	3968
2026-01-30 09:22:30.95	32.17	44.04	-40.8	-41.6	18.5	0.00e+00	0	40	0	0	53	3906
2026-01-30 09:22:32.09	31.66	43.87	-41.8	-42.9	17.5	0.00e+00	0	40	0	0	54	4249
2026-01-30 09:22:32.95	31.28	43.74	-43.3	-44.7	15.8	0.00e+00	0	40	0	0	57	4429
2026-01-30 09:22:34.09	30.78	43.56	-43.7	-45.4	14.9	0.00e+00	0	40	0	0	58	4496
2026-01-30 09:22:34.94	30.41	43.42	-43.1	-44.6	15.2	0.00e+00	0	40	0	0	58	4117
2026-01-30 09:22:36.09	29.92	43.24	-42.3	-43.5	16.2	0.00e+00	0	40	0	0	56	4098
2026-01-30 09:22:36.95	29.55	43.10	-42.1	-43.2	16.7	0.00e+00	0	40	0	0	56	3922
2026-01-30 09:22:38.10	29.07	42.92	-41.9	-43.0	17.1	0.00e+00	0	40	0	0	55	4083
2026-01-30 09:22:38.96	28.71	42.78	-42.1	-43.3	16.9	0.00e+00	0	40	0	0	55	4212
2026-01-30 09:22:40.10	28.24	42.59	-42.0	-43.2	17.1	0.00e+00	0	40	0	0	55	4149
2026-01-30 09:22:40.96	27.89	42.45	-42.3	-43.6	16.7	0.00e+00	0	40	0	0	55	4360
2026-01-30 09:22:42.11	27.43	42.26	-42.4	-43.7	16.5	0.00e+00	0	40	0	0	55	4421
2026-01-30 09:22:42.97	27.08	42.12	-42.3	-43.5	16.6	0.00e+00	0	40	0	0	55	4335
2026-01-30 09:22:44.11	26.63	41.93	-42.1	-43.2	16.9	0.00e+00	0	40	0	0	55	4176
2026-01-30 09:22:44.97	26.30	41.79	-41.8	-42.8	17.3	0.00e+00	0	40	0	0	55	3975
2026-01-30 09:22:46.12	25.85	41.60	-41.5	-42.4	17.8	0.00e+00	0	40	0	0	54	4044
2026-01-30 09:22:46.98	25.52	41.45	-41.9	-43.0	17.3	0.00e+00	0	40	0	0	54	4294
2026-01-30 09:22:48.12	25.09	41.26	-43.1	-44.5	16.1	0.00e+00	0	40	0	0	56	4547
2026-01-30 09:22:48.98	24.77	41.11	-43.5	-45.0	15.5	0.00e+00	0	40	0	0	57	4553
2026-01-30 09:22:50.13	24.34	40.92	-43.1	-44.5	15.6	0.00e+00	0	40	0	0	57	4332
2026-01-30 09:22:50.99	24.02	40.77	-42.5	-43.7	16.3	0.00e+00	0	40	0	0	57	3951
2026-01-30 09:22:52.14	23.61	40.57	-41.6	-42.6	17.3	0.00e+00	0	40	0	0	55	3899
2026-01-30 09:22:53.00	23.30	40.42	-41.4	-42.4	17.7	0.00e+00	0	40	0	0	54	4027
2026-01-30 09:22:54.14	22.89	40.23	-41.2	-42.2	18.0	0.00e+00	0	40	0	0	54	3917
2026-01-30 09:22:55.34	22.47	40.02	-41.2	-42.2	18.1	0.00e+00	0	40	0	0	54	3931
2026-01-30 09:22:56.19	22.18	39.87	-41.5	-42.6	17.7	0.00e+00	0	40	0	0	54	4115
2026-01-30 09:22:57.34	21.78	39.67	-42.2	-43.4	16.9	0.00e+00	0	40	0	0	54	4503
2026-01-30 09:22:58.20	21.49	39.52	-42.6	-43.9	16.4	0.00e+00	0	40	0	0	55	4529
2026-01-30 09:22:59.34	21.11	39.33	-43.0	-44.4	16.2	0.00e+00	0	40	0	0	56	4503
2026-01-30 09:23:00.20	20.82	39.18	-42.5	-43.8	16.5	0.00e+00	0	40	0	0	56	4234
2026-01-30 09:23:01.35	20.44	38.97	-41.7	-42.8	17.3	0.00e+00	0	40	0	0	55	3987
2026-01-30 09:23:02.21	20.16	38.82	-41.5	-42.6	17.6	0.00e+00	0	40	0	0	55	3874
2026-01-30 09:23:03.35	19.79	38.63	-40.7	-41.7	18.5	0.00e+00	0	40	0	0	53	3914
2026-01-30 09:23:04.21	19.52	38.47	-40.6	-41.5	18.6	0.00e+00	0	40	0	0	53	3867
2026-01-30 09:23:05.36	19.16	38.27	-41.1	-42.1	18.1	0.00e+00	0	40	0	0	53	4142
2026-01-30 09:23:06.22	18.89	38.12	-41.4	-42.5	17.7	0.00e+00	0	40	0	0	53	4323
2026-01-30 09:23:07.50	18.50	37.90	-41.6	-42.7	17.5	0.00e+00	0	40	0	0	53	4433
2026-01-30 09:23:08.21	18.28	37.77	-41.4	-42.5	17.7	0.00e+00	0	40	0	0	53	4301
2026-01-30 09:23:09.50	17.89	37.55	-41.3	-42.4	17.7	0.00e+00	0	40	0	0	53	4261
2026-01-30 09:23:10.22	17.68	37.42	-41.4	-42.5	17.7	0.00e+00	0	40	0	0	53	4301
2026-01-30 09:23:11.83	17.20	37.14	-41.3	-42.3	17.8	0.00e+00	0	40	0	0	53	4235
2026-01-30 09:23:12.41	17.04	37.04	-41.2	-42.2	18.0	0.00e+00	0	40	0	0	53	4168
2026-01-30 09:23:14.02	16.57	36.76	-40.4	-41.3	18.9	0.00e+00	0	40	0	0	52	3962
2026-01-30 09:23:14.60	16.41	36.66	-40.1	-40.9	19.2	0.00e+00	0	40	0	0	52	3803
2026-01-30 09:23:16.26	15.94	36.37	-40.1	-40.9	19.3	0.00e+00	0	40	0	0	51	4038
2026-01-30 09:23:16.83	15.78	36.27	-40.2	-41.0	19.2	0.00e+00	0	40	0	0	51	4081
2026-01-30 09:23:18.44	15.34	35.99	-40.4	-41.3	19.0	0.00e+00	0	40	0	0	51	4200
2026-01-30 09:23:19.01	15.19	35.89	-40.4	-41.3	19.0	0.00e+00	0	40	0	0	51	4198
2026-01-30 09:23:20.60	14.76	35.61	-40.0	-40.8	19.2	0.00e+00	0	40	0	0	51	3986
2026-01-30 09:23:21.45	14.54	35.46	-39.9	-40.7	19.4	0.00e+00	0	40	0	0	51	3926
2026-01-30 09:23:22.59	14.24	35.27	-39.8	-40.6	19.5	0.00e+00	0	40	0	0	51	3869
2026-01-30 09:23:23.79	13.93	35.06	-39.7	-40.5	19.7	0.00e+00	0	40	0	0	51	3825
2026-01-30 09:23:24.82	13.67	34.88	-39.9	-40.7	19.5	0.00e+00	0	40	0	0	51	3924
2026-01-30 09:23:25.82	13.42	34.71	-39.8	-40.6	19.5	0.00e+00	0	40	0	0	51	3891
2026-01-30 09:23:26.83	13.16	34.53	-39.9	-40.6	19.4	0.00e+00	0	40	0	0	51	3908
2026-01-30 09:23:27.83	12.92	34.36	-39.8	-40.5	19.4	0.00e+00	0	40	0	0	51	3862
2026-01-30 09:23:28.83	12.67	34.19	-39.8	-40.5	19.4	0.00e+00	0	40	0	0	51	3864
2026-01-30 09:23:29.83	12.43	34.02	-39.8	-40.6	19.3	0.00e+00	0	40	0	0	51	3900
2026-01-30 09:23:30.84	12.19	33.85	-40.1	-40.9	19.1	0.00e+00	0	40	0	0	51	4043
2026-01-30 09:23:31.84	11.95	33.68	-40.3	-41.2	18.7	0.00e+00	0	40	0	0	51	4179
2026-01-30 09:23:32.84	11.72	33.51	-40.4	-41.3	18.7	0.00e+00	0	40	0	0	51	4202
2026-01-30 09:23:33.85	11.49	33.34	-40.2	-41.1	18.7	0.00e+00	0	40	0	0	51	4134
2026-01-30 09:23:34.85	11.26	33.17	-40.0	-40.9	19.0	0.00e+00	0	40	0	0	51	4017
2026-01-30 09:23:35.85	11.03	33.00	-40.0	-40.8	19.2	0.00e+00	0	40	0	0	51	3994
2026-01-30 09:23:36.86	10.80	32.83	-39.9	-40.8	19.3	0.00e+00	0	40	0	0	51	3959
2026-01-30 09:23:37.86	10.58	32.66	-39.9	-40.8	19.3	0.00e+00	0	40	0	0	51	3970
2026-01-30 09:23:38.86	10.36	32.49	-40.2	-41.1	19.1	0.00e+00	0	40	0	0	51	4122
2026-01-30 09:23:39.87	10.14	32.33	-40.1	-41.0	19.2	0.00e+00	0	40	0	0	51	4075
2026-01-30 09:23:40.87	9.93	32.16	-40.2	-41.0	19.1	0.00e+00	0	40	0	0	51	4093
2026-01-30 09:23:41.87	9.71	31.99	-40.2	-41.1	19.0	0.00e+00	0	40	0	0	51	4116
2026-01-30 09:23:42.88	9.50	31.83	-40.1	-41.0	19.1	0.00e+00	0	40	0	0	51	4060
2026-01-30 09:23:43.88	9.29	31.66	-40.0	-40.8	19.2	0.00e+00	0	40	0	0	51	3998
2026-01-30 09:23:44.88	9.09	31.50	-40.0	-40.8	19.3	0.00e+00	0	40	0	0	51	3964
2026-01-30 09:23:45.88	8.88	31.33	-39.7	-40.5	19.6	0.00e+00	0	40	0	0	51	3835
2026-01-30 09:23:46.89	8.68	31.17	-39.6	-40.4	19.8	0.00e+00	0	40	0	0	51	3792
2026-01-30 09:23:47.89	8.48	31.01	-39.7	-40.5	19.7	0.00e+00	0	40	0	0	51	3825
2026-01-30 09:23:48.96	8.27	30.83	-39.7	-40.5	19.7	0.00e+00	0	40	0	0	51	3851
2026-01-30 09:23:49.85	8.09	30.69	-39.8	-40.6	19.6	0.00e+00	0	40	0	0	51	3897
2026-01-30 09:23:50.99	7.87	30.50	-39.7	-40.6	19.6	0.00e+00	0	40	0	0	51	3882
2026-01-30 09:23:51.85	7.71	30.37	-39.8	-40.7	19.5	0.00e+00	0	40	0	0	51	3925
2026-01-30 09:23:53.00	7.49	30.18	-39.8	-40.6	19.5	0.00e+00	0	40	0	0	51	3898
2026-01-30 09:23:53.86	7.33	30.05	-39.7	-40.6	19.5	0.00e+00	0	40	0	0	51	3870
2026-01-30 09:23:55.01	7.11	29.86	-39.7	-40.5	19.5	0.00e+00	0	40	0	0	51	3862
2026-01-30 09:23:55.86	6.95	29.73	-39.7	-40.6	19.5	0.00e+00	0	40	0	0	51	3875
2026-01-30 09:23:57.01	6.74	29.55	-39.7	-40.6	19.5	0.00e+00	0	40	0	0	51	3871
2026-01-30 09:23:57.87	6.59	29.41	-39.8	-40.7	19.4	0.00e+00	0	40	0	0	51	3914
2026-01-30 09:23:59.02	6.38	29.23	-39.8	-40.7	19.4	0.00e+00	0	40	0	0	51	3915
2026-01-30 09:23:59.88	6.23	29.10	-39.8	-40.6	19.4	0.00e+00	0	40	0	0	51	3906
2026-01-30 09:24:01.02	6.03	28.92	-39.9	-40.7	19.4	0.00e+00	0	40	0	0	51	3939
2026-01-30 09:24:01.89	5.88	28.78	-39.8	-40.6	19.4	0.00e+00	0	40	0	0	51	3913
2026-01-30 09:24:03.03	5.68	28.61	-39.6	-40.4	19.7	0.00e+00	0	40	0	0	51	3797
2026-01-30 09:24:03.89	5.54	28.47	-39.4	-40.2	19.9	0.00e+00	0	40	0	0	50	3927
2026-01-30 09:24:05.04	5.34	28.30	-39.4	-40.2	19.8	0.00e+00	0	40	0	0	50	3941
2026-01-30 09:24:06.04	5.18	28.14	-39.4	-40.2	19.8	0.00e+00	0	40	0	0	50	3926
2026-01-30 09:24:07.24	4.98	27.96	-39.3	-40.0	20.0	0.00e+00	0	40	0	0	50	3868
2026-01-30 09:24:08.13	4.83	27.83	-39.3	-40.0	20.0	0.00e+00	0	40	0	0	50	3866
2026-01-30 09:24:09.18	4.66	27.67	-39.2	-40.0	20.0	0.00e+00	0	40	0	0	50	3842
2026-01-30 09:24:10.30	4.48	27.50	-39.3	-40.1	20.0	0.00e+00	0	40	0	0	50	3877
2026-01-30 09:24:11.30	4.32	27.35	-39.3	-40.0	20.0	0.00e+00	0	40	0	0	50	3860
2026-01-30 09:24:12.48	4.14	27.17	-39.2	-39.9	20.1	0.00e+00	0	40	0	0	50	3799
2026-01-30 09:24:13.34	4.01	27.05	-39.1	-39.9	20.1	0.00e+00	0	40	0	0	50	3786
2026-01-30 09:24:14.69	3.80	26.85	-39.1	-39.8	20.1	0.00e+00	0	40	0	0	50	3765
2026-01-30 09:24:15.41	3.69	26.74	-39.1	-39.8	20.1	0.00e+00	0	40	0	0	50	3767
2026-01-30 09:24:16.70	3.49	26.55	-39.1	-39.8	20.1	0.00e+00	0	40	0	0	50	3762
2026-01-30 09:24:17.42	3.39	26.44	-39.1	-39.9	20.1	0.00e+00	0	40	0	0	50	3781
2026-01-30 09:24:18.71	3.19	26.26	-38.9	-39.6	20.3	0.00e+00	0	40	0	0	49	3913
2026-01-30 09:24:19.42	3.09	26.15	-38.9	-39.6	20.3	0.00e+00	0	40	0	0	49	3892
2026-01-30 09:24:20.71	2.90	25.97	-38.7	-39.4	20.5	0.00e+00	0	40	0	0	49	3809
2026-01-30 09:24:21.54	2.78	25.85	-38.8	-39.5	20.4	0.00e+00	0	40	0	0	49	3851
2026-01-30 09:24:22.69	2.62	25.68	-38.8	-39.5	20.4	0.00e+00	0	40	0	0	49	3853
2026-01-30 09:24:23.80	2.46	25.52	-38.9	-39.6	20.4	0.00e+00	0	40	0	0	49	3889
2026-01-30 09:24:24.66	2.34	25.40	-38.9	-39.7	20.3	0.00e+00	0	40	0	0	49	3915
2026-01-30 09:24:25.81	2.18	25.24	-39.0	-39.7	20.3	0.00e+00	0	40	0	0	49	3953
2026-01-30 09:24:26.67	2.07	25.12	-39.0	-39.7	20.3	0.00e+00	0	40	0	0	49	3956
2026-01-30 09:24:27.81	1.91	24.96	-39.0	-39.7	20.3	0.00e+00	0	40	0	0	49	3941
2026-01-30 09:24:28.67	1.79	24.84	-39.1	-39.8	20.2	0.00e+00	0	40	0	0	49	4004
2026-01-30 09:24:29.82	1.64	24.68	-39.2	-40.0	20.0	0.00e+00	0	40	0	0	49	4063
2026-01-30 09:24:30.68	1.53	24.56	-39.3	-40.0	19.9	0.00e+00	0	40	0	0	49	4075
2026-01-30 09:24:31.92	1.36	24.39	-39.3	-40.1	19.9	0.00e+00	0	40	0	0	49	4108
2026-01-30 09:24:32.78	1.25	24.27	-39.5	-40.3	19.7	0.00e+00	0	40	0	0	49	4218
2026-01-30 09:24:34.02	1.09	24.10	-39.5	-40.3	19.7	0.00e+00	0	40	0	0	49	4224
2026-01-30 09:24:34.87	0.98	23.98	-39.6	-40.4	19.6	0.00e+00	0	40	0	0	49	4264
2026-01-30 09:24:36.02	0.84	23.83	-39.6	-40.5	19.6	0.00e+00	0	40	0	0	49	4300
2026-01-30 09:24:36.88	0.73	23.71	-39.6	-40.4	19.6	0.00e+00	0	40	0	0	49	4286
2026-01-30 09:24:38.02	0.59	23.56	-39.7	-40.6	19.5	0.00e+00	0	40	0	0	50	4113
2026-01-30 09:24:38.88	0.48	23.44	-39.7	-40.6	19.5	0.00e+00	0	40	0	0	50	4101
2026-01-30 09:24:40.03	0.34	23.29	-39.8	-40.7	19.3	0.00e+00	0	40	0	0	50	4164
2026-01-30 09:24:40.89	0.24	23.17	-39.8	-40.7	19.3	0.00e+00	0	40	0	0	50	4164
2026-01-30 09:24:42.03	0.10	23.02	-39.7	-40.5	19.5	0.00e+00	0	40	0	0	50	4096
2026-01-30 09:24:42.89	0.00	22.91	-39.6	-40.4	19.5	0.00e+00	0	40	0	0	50	4030
2026-01-30 09:24:44.04	359.87	22.76	-39.5	-40.3	19.7	0.00e+00	0	40	0	0	50	3964
2026-01-30 09:24:44.90	359.77	22.64	-39.5	-40.3	19.6	0.00e+00	0	40	0	0	50	3994
2026-01-30 09:24:46.04	359.63	22.50	-39.4	-40.2	19.8	0.00e+00	0	40	0	0	50	3939
2026-01-30 09:24:46.90	359.53	22.38	-39.3	-40.1	19.9	0.00e+00	0	40	0	0	50	3888
2026-01-30 09:24:48.13	359.39	22.22	-39.3	-40.0	20.0	0.00e+00	0	40	0	0	50	3861
2026-01-30 09:24:49.39	359.25	22.06	-39.3	-40.1	20.0	0.00e+00	0	40	0	0	50	3878
2026-01-30 09:24:50.14	359.17	21.97	-39.2	-40.0	20.0	0.00e+00	0	40	0	0	50	3841
2026-01-30 09:24:51.43	359.03	21.80	-39.3	-40.0	20.0	0.00e+00	0	40	0	0	50	3855
2026-01-30 09:24:52.16	358.95	21.71	-39.3	-40.1	20.0	0.00e+00	0	40	0	0	50	3883
2026-01-30 09:24:53.45	358.81	21.55	-39.3	-40.1	20.0	0.00e+00	0	40	0	0	50	3904
2026-01-30 09:24:54.16	358.73	21.46	-39.4	-40.2	19.9	0.00e+00	0	40	0	0	50	3922
2026-01-30 09:24:55.58	358.58	21.28	-39.4	-40.2	19.9	0.00e+00	0	40	0	0	50	3917
2026-01-30 09:24:56.57	358.47	21.16	-39.3	-40.1	20.0	0.00e+00	0	40	0	0	50	3887
2026-01-30 09:24:57.89	358.34	20.99	-39.4	-40.2	19.9	0.00e+00	0	40	0	0	50	3923
2026-01-30 09:24:58.60	358.26	20.90	-39.4	-40.1	19.9	0.00e+00	0	40	0	0	50	3907
2026-01-30 09:24:59.89	358.13	20.74	-39.3	-40.1	19.9	0.00e+00	0	40	0	0	50	3872
2026-01-30 09:25:00.61	358.05	20.66	-39.2	-40.0	19.9	0.00e+00	0	40	0	0	50	3853
2026-01-30 09:25:02.30	357.88	20.45	-39.3	-40.1	19.9	0.00e+00	0	40	0	0	50	3882
2026-01-30 09:25:02.87	357.83	20.38	-39.2	-40.0	19.9	0.00e+00	0	40	0	0	50	3833
2026-01-30 09:25:04.46	357.67	20.19	-39.2	-40.0	19.9	0.00e+00	0	40	0	0	50	3839
2026-01-30 09:25:05.04	357.61	20.12	-39.2	-40.0	19.9	0.00e+00	0	40	0	0	50	3833
2026-01-30 09:25:06.64	357.46	19.93	-39.1	-39.8	20.0	0.00e+00	0	40	0	0	50	3772
2026-01-30 09:25:07.21	357.40	19.86	-39.1	-39.8	20.0	0.00e+00	0	40	0	0	50	3766
2026-01-30 09:25:08.81	357.25	19.67	-39.1	-39.8	20.0	0.00e+00	0	40	0	0	50	3756
2026-01-30 09:25:09.39	357.19	19.60	-39.1	-39.8	20.0	0.00e+00	0	40	0	0	50	3780
2026-01-30 09:25:10.97	357.04	19.41	-39.1	-39.8	20.0	0.00e+00	0	40	0	0	50	3772
2026-01-30 09:25:11.56	356.99	19.34	-39.1	-39.8	20.0	0.00e+00	0	40	0	0	50	3769
2026-01-30 09:25:13.13	356.84	19.16	-39.1	-39.9	19.9	0.00e+00	0	40	0	0	50	3801
2026-01-30 09:25:14.07	356.76	19.05	-39.1	-39.9	20.0	0.00e+00	0	40	0	0	50	3784
2026-01-30 09:25:15.07	356.67	18.94	-38.9	-39.7	20.1	0.00e+00	0	40	0	0	49	3932
2026-01-30 09:25:16.08	356.57	18.82	-38.9	-39.7	20.1	0.00e+00	0	40	0	0	49	3923
2026-01-30 09:25:17.08	356.48	18.70	-39.0	-39.7	20.1	0.00e+00	0	40	0	0	49	3942
2026-01-30 09:25:18.09	356.39	18.59	-39.0	-39.7	20.1	0.00e+00	0	40	0	0	49	3957
2026-01-30 09:25:19.15	356.30	18.47	-39.1	-39.9	20.1	0.00e+00	0	40	0	0	49	4016
2026-01-30 09:25:20.04	356.22	18.37	-39.2	-39.9	20.1	0.00e+00	0	40	0	0	49	4044
2026-01-30 09:25:21.19	356.12	18.24	-39.3	-40.0	20.1	0.00e+00	0	40	0	0	49	4076
2026-01-30 09:25:22.05	356.05	18.14	-39.4	-40.1	20.0	0.00e+00	0	40	0	0	49	4134
2026-01-30 09:25:23.45	355.93	17.98	-39.5	-40.2	19.9	0.00e+00	0	40	0	0	49	4189
2026-01-30 09:25:24.17	355.87	17.90	-39.5	-40.3	19.9	0.00e+00	0	40	0	0	49	4206
2026-01-30 09:25:25.68	355.74	17.74	-39.7	-40.5	19.8	0.00e+00	0	40	0	0	49	4318
2026-01-30 09:25:26.65	355.66	17.63	-39.6	-40.5	19.8	0.00e+00	0	40	0	0	50	4055
2026-01-30 09:25:27.66	355.58	17.52	-39.5	-40.4	19.7	0.00e+00	0	40	0	0	50	4045
2026-01-30 09:25:28.66	355.50	17.41	-39.5	-40.4	19.6	0.00e+00	0	40	0	0	50	4036
2026-01-30 09:25:29.67	355.41	17.30	-39.6	-40.5	19.6	0.00e+00	0	40	0	0	50	4068
2026-01-30 09:25:30.67	355.33	17.19	-39.8	-40.7	19.4	0.00e+00	0	40	0	0	50	4146
2026-01-30 09:25:31.67	355.25	17.08	-39.7	-40.6	19.5	0.00e+00	0	40	0	0	50	4115
2026-01-30 09:25:32.68	355.17	16.97	-39.8	-40.7	19.4	0.00e+00	0	40	0	0	50	4155
2026-01-30 09:25:33.68	355.09	16.86	-39.9	-40.8	19.3	0.00e+00	0	40	0	0	50	4215
2026-01-30 09:25:34.81	355.01	16.74	-40.0	-40.9	19.3	0.00e+00	0	40	0	0	50	4244
2026-01-30 09:25:35.72	354.93	16.64	-40.0	-40.9	19.2	0.00e+00	0	40	0	0	50	4261
2026-01-30 09:25:36.73	354.86	16.54	-40.1	-41.0	19.1	0.00e+00	0	40	0	0	50	4306
2026-01-30 09:25:37.91	354.77	16.41	-40.1	-41.0	19.1	0.00e+00	0	40	0	0	50	4312
2026-01-30 09:25:38.81	354.70	16.32	-40.1	-41.1	19.0	0.00e+00	0	40	0	0	50	4346
2026-01-30 09:25:39.86	354.62	16.21	-40.2	-41.1	19.0	0.00e+00	0	40	0	0	50	4391
2026-01-30 09:25:40.77	354.55	16.11	-40.2	-41.2	18.9	0.00e+00	0	41	0	0	51	4184
2026-01-30 09:25:41.78	354.48	16.01	-40.3	-41.3	18.9	0.00e+00	0	40	0	0	51	4236
2026-01-30 09:25:42.78	354.40	15.90	-40.4	-41.4	18.9	0.00e+00	0	40	0	0	51	4276
2026-01-30 09:25:43.78	354.33	15.80	-40.5	-41.5	18.8	0.00e+00	0	40	0	0	51	4311
2026-01-30 09:25:44.79	354.26	15.69	-40.5	-41.5	18.8	0.00e+00	0	40	0	0	51	4324
2026-01-30 09:25:45.79	354.18	15.59	-40.5	-41.5	18.8	0.00e+00	0	40	0	0	51	4335
2026-01-30 09:25:46.84	354.11	15.48	-40.6	-41.6	18.8	0.00e+00	0	40	0	0	51	4354
2026-01-30 09:25:47.77	354.04	15.39	-40.6	-41.5	18.8	0.00e+00	0	40	0	0	51	4330
2026-01-30 09:25:48.90	353.96	15.27	-40.3	-41.3	19.0	0.00e+00	0	40	0	0	51	4204
2026-01-30 09:25:49.78	353.90	15.19	-40.3	-41.2	19.0	0.00e+00	0	40	0	0	51	4174
2026-01-30 09:25:50.93	353.82	15.07	-40.2	-41.1	19.0	0.00e+00	0	40	0	0	51	4125
2026-01-30 09:25:51.79	353.76	14.98	-40.1	-41.0	19.1	0.00e+00	0	40	0	0	51	4069
2026-01-30 09:25:52.93	353.68	14.87	-40.0	-40.9	19.0	0.00e+00	0	40	0	0	51	4034
2026-01-30 09:25:53.79	353.62	14.78	-39.9	-40.8	19.1	0.00e+00	0	40	0	0	51	3990
2026-01-30 09:25:54.93	353.55	14.67	-39.9	-40.8	19.1	0.00e+00	0	40	0	0	51	3980
2026-01-30 09:25:55.80	353.49	14.58	-39.9	-40.9	19.0	0.00e+00	0	40	0	0	51	4010
2026-01-30 09:25:56.94	353.41	14.47	-39.8	-40.7	19.2	0.00e+00	0	41	0	0	51	3925
2026-01-30 09:25:57.80	353.36	14.39	-39.8	-40.7	19.2	0.00e+00	0	40	0	0	51	3940
2026-01-30 09:25:58.95	353.28	14.27	-39.9	-40.8	19.1	0.00e+00	0	40	0	0	51	3992
2026-01-30 09:25:59.81	353.22	14.19	-39.8	-40.7	19.1	0.00e+00	0	40	0	0	51	3954
2026-01-30 09:26:00.95	353.15	14.08	-39.8	-40.7	19.2	0.00e+00	0	40	0	0	51	3932
2026-01-30 09:26:01.81	353.09	14.00	-39.8	-40.8	19.1	0.00e+00	0	40	0	0	51	3975
2026-01-30 09:26:03.10	353.01	13.87	-39.8	-40.7	19.1	0.00e+00	0	40	0	0	51	3954
2026-01-30 09:26:03.82	352.97	13.80	-39.7	-40.7	19.2	0.00e+00	0	40	0	0	51	3918
2026-01-30 09:26:05.30	352.87	13.66	-39.8	-40.8	19.1	0.00e+00	0	40	0	0	51	3970
2026-01-30 09:26:06.02	352.83	13.59	-39.9	-40.8	19.0	0.00e+00	0	40	0	0	51	4004
2026-01-30 09:26:07.30	352.75	13.47	-39.9	-40.8	19.1	0.00e+00	0	40	0	0	51	3975
2026-01-30 09:26:08.02	352.70	13.40	-39.9	-40.9	19.0	0.00e+00	0	40	0	0	51	4019
2026-01-30 09:26:09.31	352.62	13.28	-39.9	-40.8	19.1	0.00e+00	0	40	0	0	51	3992
2026-01-30 09:26:10.02	352.58	13.21	-39.8	-40.9	19.0	0.00e+00	0	41	0	0	51	4007
2026-01-30 09:26:11.31	352.50	13.09	-39.8	-40.8	19.1	0.00e+00	0	40	0	0	51	3989
2026-01-30 09:26:12.02	352.46	13.03	-39.8	-40.9	19.0	0.00e+00	0	40	0	0	51	4011
2026-01-30 09:26:13.31	352.38	12.91	-39.9	-41.0	18.9	0.00e+00	0	40	0	0	51	4073
2026-01-30 09:26:14.02	352.34	12.84	-39.7	-40.9	19.0	0.00e+00	0	41	0	0	51	4026
2026-01-30 09:26:15.31	352.27	12.72	-39.8	-40.9	19.0	0.00e+00	0	40	0	0	51	4042
2026-01-30 09:26:16.16	352.22	12.64	-39.8	-41.0	18.9	0.00e+00	0	40	0	0	51	4061
2026-01-30 09:26:17.62	352.13	12.51	-39.9	-41.0	18.9	0.00e+00	0	40	0	0	51	4097
2026-01-30 09:26:18.34	352.09	12.44	-39.8	-41.0	18.9	0.00e+00	0	40	0	0	51	4069
2026-01-30 09:26:19.63	352.02	12.33	-39.9	-41.1	18.9	0.00e+00	0	41	0	0	51	4105
2026-01-30 09:26:20.34	351.98	12.26	-39.9	-41.1	18.8	0.00e+00	0	40	0	0	51	4121
2026-01-30 09:26:21.63	351.90	12.15	-40.0	-41.1	18.7	0.00e+00	0	40	0	0	51	4140
2026-01-30 09:26:22.44	351.86	12.07	-39.9	-41.1	18.8	0.00e+00	0	40	0	0	51	4118
2026-01-30 09:26:23.59	351.79	11.97	-40.0	-41.2	18.6	0.00e+00	0	40	0	0	51	4179
2026-01-30 09:26:24.64	351.74	11.87	-40.0	-41.1	18.7	0.00e+00	0	40	0	0	51	4138
2026-01-30 09:26:25.50	351.69	11.80	-40.0	-41.2	18.7	0.00e+00	0	40	0	0	51	4155
2026-01-30 09:26:26.65	351.62	11.70	-40.0	-41.2	18.6	0.00e+00	0	40	0	0	51	4193
2026-01-30 09:26:27.51	351.58	11.62	-40.0	-41.2	18.7	0.00e+00	0	41	0	0	51	4147
2026-01-30 09:26:28.65	351.52	11.52	-39.9	-41.2	18.7	0.00e+00	0	41	0	0	51	4159
2026-01-30 09:26:29.52	351.47	11.44	-39.9	-41.2	18.7	0.00e+00	0	40	0	0	51	4172
2026-01-30 09:26:30.66	351.41	11.34	-39.9	-41.2	18.7	0.00e+00	0	40	0	0	51	4176
2026-01-30 09:26:31.52	351.36	11.27	-40.0	-41.4	18.6	0.00e+00	0	40	0	0	51	4252
2026-01-30 09:26:32.67	351.30	11.17	-39.8	-41.4	18.6	0.00e+00	0	40	0	0	51	4273
2026-01-30 09:26:33.53	351.26	11.09	-39.7	-41.5	18.5	0.00e+00	0	40	0	0	51	4321
2026-01-30 09:26:34.68	351.20	10.99	-39.5	-41.4	18.5	0.00e+00	0	41	0	0	50	4515
2026-01-30 09:26:35.54	351.15	10.92	-39.4	-41.3	18.6	0.00e+00	0	40	0	0	50	4465
2026-01-30 09:26:36.68	351.10	10.82	-39.3	-41.3	18.5	0.00e+00	0	40	0	0	50	4482
2026-01-30 09:26:37.54	351.05	10.75	-39.3	-41.3	18.6	0.00e+00	0	40	0	0	50	4474
2026-01-30 09:26:38.69	350.99	10.65	-39.3	-41.4	18.5	0.00e+00	0	41	0	0	50	4513
2026-01-30 09:26:39.55	350.95	10.57	-39.4	-41.5	18.4	0.00e+00	0	40	0	0	50	4558
2026-01-30 09:26:40.69	350.89	10.48	-39.4	-41.6	18.3	0.00e+00	0	40	0	0	50	4605
2026-01-30 09:26:41.65	350.85	10.40	-39.3	-41.4	18.4	0.00e+00	0	40	0	0	50	4535
2026-01-30 09:26:42.65	350.80	10.31	-39.4	-41.4	18.4	0.00e+00	0	41	0	0	50	4529
2026-01-30 09:26:43.65	350.75	10.23	-39.5	-41.4	18.4	0.00e+00	0	40	0	0	50	4508
2026-01-30 09:26:44.66	350.70	10.14	-39.5	-41.4	18.4	0.00e+00	0	41	0	0	50	4541
2026-01-30 09:26:45.66	350.65	10.06	-39.7	-41.5	18.3	0.00e+00	0	41	0	0	50	4595
2026-01-30 09:26:46.66	350.60	9.98	-39.8	-41.5	18.4	0.00e+00	0	40	0	0	50	4559
2026-01-30 09:26:47.66	350.55	9.89	-40.0	-41.5	18.3	0.00e+00	0	40	0	0	50	4592
2026-01-30 09:26:48.66	350.51	9.81	-40.1	-41.6	18.2	0.00e+00	0	40	0	0	50	4636
2026-01-30 09:26:49.67	350.46	9.73	-40.3	-41.6	18.2	0.00e+00	0	40	0	0	51	4386
2026-01-30 09:26:50.67	350.41	9.64	-40.3	-41.5	18.3	0.00e+00	0	40	0	0	51	4334
2026-01-30 09:26:51.68	350.37	9.56	-40.3	-41.5	18.3	0.00e+00	0	41	0	0	51	4338
2026-01-30 09:26:52.76	350.32	9.47	-40.5	-41.6	18.2	0.00e+00	0	41	0	0	51	4382
2026-01-30 09:26:53.62	350.28	9.40	-40.5	-41.6	18.2	0.00e+00	0	40	0	0	51	4372
2026-01-30 09:26:54.99	350.21	9.29	-40.6	-41.7	18.1	0.00e+00	0	41	0	0	51	4438
2026-01-30 09:26:55.70	350.18	9.23	-40.6	-41.7	18.1	0.00e+00	0	41	0	0	51	4425
2026-01-30 09:26:56.99	350.12	9.13	-40.5	-41.7	18.1	0.00e+00	0	41	0	0	51	4441
2026-01-30 09:26:57.71	350.09	9.07	-40.5	-41.8	18.1	0.00e+00	0	41	0	0	51	4444
2026-01-30 09:26:59.27	350.02	8.95	-44.9	-59.6	3.8	1.29e+00	0	41	104	0	61	19447
2026-01-30 09:26:59.85	349.99	8.90	-46.2	-60.9	3.8	1.49e+00	0	41	104	0	63	20212
2026-01-30 09:27:01.44	349.92	8.77	-47.7	-61.4	3.8	1.49e+00	0	40	104	0	66	17997
2026-01-30 09:27:02.01	349.90	8.73	-48.0	-61.4	3.8	1.49e+00	0	40	104	0	66	18051
2026-01-30 09:27:03.60	349.83	8.60	-49.0	-61.6	3.8	1.49e+00	0	41	104	0	69	15480
2026-01-30 09:27:04.18	349.81	8.56	-48.8	-61.6	3.8	1.49e+00	0	41	104	0	69	15484
2026-01-30 09:27:05.80	349.74	8.43	-49.3	-61.5	3.8	1.49e+00	0	41	104	0	69	15390
2026-01-30 09:27:06.38	349.71	8.38	-48.1	-61.4	3.8	1.49e+00	0	40	104	0	67	16981
2026-01-30 09:27:07.96	349.64	8.26	-48.9	-61.5	3.8	1.49e+00	0	41	104	0	69	15267
2026-01-30 09:27:08.53	349.62	8.22	-48.9	-61.5	3.8	1.49e+00	0	40	104	0	69	15274
2026-01-30 09:27:10.12	349.55	8.09	-49.0	-61.2	3.8	1.49e+00	0	40	104	0	69	14875
2026-01-30 09:27:10.70	349.53	8.05	-48.8	-61.1	3.8	1.49e+00	0	41	104	0	68	15570
2026-01-30 09:27:12.28	349.46	7.92	-48.5	-61.1	3.8	1.49e+00	0	40	104	0	68	15409
2026-01-30 09:27:12.99	349.44	7.87	-48.9	-61.0	3.8	1.49e+00	0	41	104	0	68	15391
2026-01-30 09:27:14.28	349.38	7.77	-49.0	-61.0	3.8	1.49e+00	0	41	104	0	68	15344
2026-01-30 09:27:15.16	349.35	7.70	-49.0	-61.0	3.8	1.49e+00	0	41	104	0	68	15376
2026-01-30 09:27:16.61	349.29	7.59	-48.9	-61.1	3.8	1.49e+00	0	40	104	0	68	15534
2026-01-30 09:27:17.33	349.26	7.54	-49.0	-61.1	3.8	1.49e+00	0	41	104	0	68	15488
2026-01-30 09:27:18.80	349.20	7.43	-49.1	-61.2	3.8	1.49e+00	0	41	104	0	68	15602
2026-01-30 09:27:19.51	349.17	7.37	-49.0	-61.1	3.8	1.49e+00	0	41	104	0	68	15551
2026-01-30 09:27:20.82	349.12	7.27	-49.0	-61.1	3.8	1.49e+00	0	41	104	0	68	15552
2026-01-30 09:27:21.54	349.09	7.22	-49.0	-61.1	3.8	1.49e+00	0	40	104	0	68	15502
2026-01-30 09:27:22.83	349.04	7.12	-49.0	-61.2	3.8	1.49e+00	0	41	104	0	68	15618
2026-01-30 09:27:23.55	349.02	7.07	-49.0	-61.2	3.8	1.49e+00	0	41	104	0	68	15591
2026-01-30 09:27:24.84	348.97	6.97	-49.0	-61.1	3.8	1.49e+00	0	41	104	0	68	15546
2026-01-30 09:27:25.56	348.94	6.92	-49.0	-61.1	3.8	1.49e+00	0	41	104	0	68	15526
2026-01-30 09:27:26.85	348.89	6.82	-49.0	-61.1	3.8	1.49e+00	0	41	104	0	68	15523
2026-01-30 09:27:27.57	348.86	6.77	-49.0	-61.1	3.8	1.49e+00	0	41	104	0	68	15518
2026-01-30 09:27:28.86	348.81	6.68	-49.0	-61.1	3.8	1.49e+00	0	41	104	0	68	15524
2026-01-30 09:27:29.57	348.79	6.62	-49.0	-61.1	3.8	1.49e+00	0	41	104	0	68	15551
2026-01-30 09:27:30.86	348.74	6.53	-49.0	-61.1	3.8	1.49e+00	0	41	104	0	68	15508
2026-01-30 09:27:31.58	348.71	6.48	-49.0	-61.1	3.8	1.49e+00	0	41	104	0	68	15511
2026-01-30 09:27:32.87	348.67	6.38	-49.0	-61.1	3.8	1.49e+00	0	41	104	0	68	15468
2026-01-30 09:27:33.59	348.64	6.33	-49.0	-61.1	3.8	1.49e+00	0	41	104	0	68	15578
2026-01-30 09:27:34.88	348.59	6.24	-49.0	-61.1	3.8	1.49e+00	0	40	104	0	68	15495
2026-01-30 09:27:35.60	348.57	6.18	-49.0	-61.1	3.8	1.49e+00	0	40	104	0	68	15502
2026-01-30 09:27:36.89	348.52	6.09	-49.0	-61.1	3.8	1.49e+00	0	41	104	0	68	15527
2026-01-30 09:27:37.60	348.49	6.04	-49.0	-61.1	3.8	1.49e+00	0	41	104	0	68	15502
2026-01-30 09:27:38.89	348.45	5.95	-49.0	-61.1	3.8	1.49e+00	0	41	104	0	68	15534
2026-01-30 09:27:39.61	348.42	5.89	-49.0	-61.1	3.8	1.49e+00	0	41	104	0	68	15574
2026-01-30 09:27:40.90	348.38	5.80	-49.0	-61.1	3.8	1.49e+00	0	41	104	0	68	15469
2026-01-30 09:27:41.62	348.35	5.75	-49.0	-61.1	3.8	1.49e+00	0	41	104	0	68	15478
2026-01-30 09:27:42.91	348.31	5.66	-49.0	-61.1	3.8	1.49e+00	0	41	104	0	68	15546
2026-01-30 09:27:43.63	348.28	5.61	-49.0	-61.1	3.8	1.49e+00	0	41	104	0	68	15430
2026-01-30 09:27:44.92	348.24	5.52	-49.0	-61.1	3.8	1.49e+00	0	41	104	0	68	15469
2026-01-30 09:27:45.64	348.21	5.47	-49.0	-61.1	3.8	1.49e+00	0	41	104	0	68	15519
2026-01-30 09:27:46.93	348.17	5.37	-49.0	-61.1	3.8	1.49e+00	0	41	104	0	68	15506
2026-01-30 09:27:47.65	348.15	5.32	-49.0	-61.1	3.8	1.49e+00	0	41	104	0	68	15457
2026-01-30 09:27:48.94	348.10	5.23	-49.0	-61.1	3.8	1.49e+00	0	41	104	0	68	15495
2026-01-30 09:27:49.66	348.08	5.18	-49.0	-61.1	3.8	1.49e+00	0	41	104	0	68	15513
2026-01-30 09:27:50.95	348.04	5.09	-49.0	-61.1	3.8	1.49e+00	0	41	104	0	68	15463
2026-01-30 09:27:51.67	348.01	5.04	-49.0	-61.1	3.8	1.49e+00	0	41	104	0	68	15488
2026-01-30 09:27:52.96	347.97	4.95	-49.0	-61.1	3.8	1.49e+00	0	41	104	0	68	15485

#Closed at: 2026-01-30 09:27:53
#Recorded file [0 MB]: D:/Data/31040_260130_121520.dat