passes_logs/2026/01/30/T1/T1__20260130_074222_KHAYYAM_rec.log

#Pass ID: 20260130_074222_KHAYYAM
#Satellite: KHAYYAM
#Configuration: KHAYYAM_480M
#almurnet v.1.7.20251203
#Start time: 2026-01-30 07:42:22

#Version: 2.0.20230620
#Station: T1
#Location: 37.570604 lon 55.790049 lat
#TLE: 1 53370U 22096A   26029.52643722  .00009049  00000+0  36723-3 0  9992
#TLE: 2 53370  97.3554 296.2755 0002205 105.6855 254.4626 15.24827760193451

#Time	Az	El	Level	Level2	SNR	BER	BlckErr	Temp	State	Recorded	gain1	gain2
2026-01-30 07:42:22.79	158.03	5.00	-53.1	-56.8	3.6	0.00e+00	0	43	0	0	78	21272
2026-01-30 07:42:23.78	158.02	5.08	-53.8	-57.4	3.7	0.00e+00	0	43	104	0	78	22757
2026-01-30 07:42:24.79	158.00	5.16	-52.9	-56.9	3.7	0.00e+00	0	43	104	0	77	22800
2026-01-30 07:42:25.79	157.99	5.24	-53.9	-57.3	3.7	0.00e+00	0	43	104	0	78	22558
2026-01-30 07:42:26.80	157.98	5.33	-53.9	-57.3	3.7	0.00e+00	0	43	104	0	78	22599
2026-01-30 07:42:27.80	157.96	5.41	-53.6	-57.2	3.7	0.00e+00	0	43	104	0	78	22148
2026-01-30 07:42:28.81	157.95	5.49	-53.4	-57.1	3.7	0.00e+00	0	43	104	0	77	23326
2026-01-30 07:42:29.81	157.94	5.58	-53.4	-57.1	3.7	0.00e+00	0	43	104	0	78	22015
2026-01-30 07:42:30.82	157.92	5.66	-53.4	-57.1	3.7	0.00e+00	0	44	104	0	78	22091
2026-01-30 07:42:31.82	157.91	5.75	-53.7	-57.3	3.7	0.00e+00	0	43	104	0	78	22431
2026-01-30 07:42:32.82	157.89	5.83	-53.4	-57.0	3.7	0.00e+00	0	44	104	0	78	21696
2026-01-30 07:42:33.83	157.88	5.92	-52.9	-56.8	3.7	0.00e+00	0	44	104	0	77	22442
2026-01-30 07:42:34.83	157.87	6.00	-53.4	-57.0	3.7	0.00e+00	0	44	104	0	77	22923
2026-01-30 07:42:35.84	157.85	6.09	-52.7	-56.5	3.7	0.00e+00	0	44	104	0	77	21852
2026-01-30 07:42:36.84	157.84	6.18	-53.2	-56.7	3.7	0.00e+00	0	44	104	0	77	22348
2026-01-30 07:42:37.85	157.82	6.27	-52.8	-56.4	3.7	0.00e+00	0	44	104	0	76	22633
2026-01-30 07:42:38.85	157.81	6.35	-52.1	-55.9	3.7	0.00e+00	0	44	104	0	76	21494
2026-01-30 07:42:39.86	157.79	6.44	-52.5	-56.1	3.7	0.00e+00	0	44	104	0	75	23220
2026-01-30 07:42:40.86	157.78	6.53	-50.0	-54.2	3.7	0.00e+00	0	44	104	0	72	22145
2026-01-30 07:42:41.86	157.76	6.62	-50.2	-53.7	3.7	0.00e+00	0	44	104	0	71	22216
2026-01-30 07:42:42.87	157.75	6.71	-51.0	-54.8	3.7	0.00e+00	0	44	104	0	73	22482
2026-01-30 07:42:43.87	157.73	6.80	-51.2	-55.1	3.7	0.00e+00	0	45	104	0	73	23214
2026-01-30 07:42:44.88	157.72	6.89	-51.9	-55.6	3.7	0.00e+00	0	45	104	0	75	21982
2026-01-30 07:42:45.88	157.70	6.98	-51.6	-55.2	3.7	0.00e+00	0	45	104	0	75	21096
2026-01-30 07:42:46.89	157.69	7.07	-51.5	-55.2	3.7	0.00e+00	0	45	104	0	75	20974
2026-01-30 07:42:47.89	157.67	7.16	-51.5	-55.2	3.7	0.00e+00	0	45	104	0	74	22193
2026-01-30 07:42:48.89	157.65	7.25	-51.5	-55.2	3.7	0.00e+00	0	45	104	0	74	22156
2026-01-30 07:42:49.90	157.64	7.34	-51.5	-55.2	3.7	0.00e+00	0	45	104	0	74	22214
2026-01-30 07:42:50.90	157.62	7.44	-51.5	-55.2	3.7	0.00e+00	0	45	104	0	74	22225
2026-01-30 07:42:51.91	157.60	7.53	-51.5	-55.2	3.7	0.00e+00	0	45	104	0	74	22228
2026-01-30 07:42:52.91	157.59	7.62	-51.5	-55.2	3.7	0.00e+00	0	45	104	0	74	22172
2026-01-30 07:42:53.92	157.57	7.72	-51.5	-55.2	3.7	0.00e+00	0	45	104	0	74	22199
2026-01-30 07:42:54.92	157.55	7.81	-51.7	-55.4	3.7	0.00e+00	0	45	104	0	74	22744
2026-01-30 07:42:55.93	157.54	7.91	-51.9	-55.5	3.7	0.00e+00	0	45	104	0	74	23124
2026-01-30 07:42:56.93	157.52	8.00	-52.1	-55.8	3.7	0.00e+00	0	45	104	0	74	23698
2026-01-30 07:42:57.93	157.50	8.10	-52.2	-55.9	3.7	0.00e+00	0	45	104	0	75	22655
2026-01-30 07:42:58.94	157.48	8.20	-52.3	-56.0	3.7	0.00e+00	0	46	104	0	75	22977
2026-01-30 07:42:59.94	157.47	8.29	-52.4	-56.0	3.7	0.00e+00	0	46	104	0	75	23005
2026-01-30 07:43:00.95	157.45	8.39	-52.4	-56.0	3.6	0.00e+00	0	45	104	0	75	23139
2026-01-30 07:43:01.95	157.43	8.49	-52.4	-56.0	3.7	0.00e+00	0	46	104	0	75	23027
2026-01-30 07:43:02.96	157.41	8.59	-52.4	-56.0	3.7	0.00e+00	0	46	104	0	75	23038
2026-01-30 07:43:03.96	157.39	8.69	-52.4	-56.0	3.7	0.00e+00	0	46	104	0	75	23146
2026-01-30 07:43:04.97	157.37	8.79	-52.5	-56.1	3.7	0.00e+00	0	46	104	0	75	23280
2026-01-30 07:43:05.97	157.35	8.89	-52.6	-56.2	3.7	0.00e+00	0	46	104	0	75	23487
2026-01-30 07:43:06.97	157.33	8.99	-52.7	-56.3	3.7	0.00e+00	0	46	104	0	75	23811
2026-01-30 07:43:07.98	157.32	9.09	-52.7	-56.4	3.7	0.00e+00	0	46	104	0	76	22646
2026-01-30 07:43:08.98	157.30	9.19	-52.6	-56.3	3.7	0.00e+00	0	46	104	0	76	22489
2026-01-30 07:43:09.98	157.28	9.29	-52.7	-56.4	3.7	0.00e+00	0	46	104	0	76	22762
2026-01-30 07:43:10.99	157.26	9.40	-53.1	-56.7	3.7	0.00e+00	0	46	104	0	76	23656
2026-01-30 07:43:11.99	157.24	9.50	-53.3	-56.8	3.7	0.00e+00	0	46	104	0	77	22623
2026-01-30 07:43:13.00	157.22	9.60	-52.8	-56.4	3.7	0.00e+00	0	46	104	0	77	21575
2026-01-30 07:43:14.00	157.19	9.71	-53.0	-56.7	3.7	0.00e+00	0	46	104	0	77	22190
2026-01-30 07:43:15.00	157.17	9.81	-53.0	-56.6	3.7	0.00e+00	0	46	104	0	77	22028
2026-01-30 07:43:16.00	157.15	9.92	-52.9	-56.5	3.7	0.00e+00	0	46	104	0	77	21798
2026-01-30 07:43:17.01	157.13	10.03	-52.7	-56.3	3.7	0.00e+00	0	46	104	0	77	21348
2026-01-30 07:43:18.01	157.11	10.13	-52.8	-56.4	3.7	0.00e+00	0	46	104	0	77	21465
2026-01-30 07:43:19.01	157.09	10.24	-52.8	-56.5	3.7	0.00e+00	0	46	104	0	77	21630
2026-01-30 07:43:20.02	157.07	10.35	-52.5	-56.2	3.7	0.00e+00	0	46	104	0	76	22365
2026-01-30 07:43:21.02	157.05	10.46	-52.8	-56.3	3.7	0.00e+00	0	46	104	0	76	22623
2026-01-30 07:43:22.02	157.02	10.57	-52.5	-56.2	3.7	0.00e+00	0	46	104	0	76	22198
2026-01-30 07:43:23.03	157.00	10.68	-52.4	-56.1	3.7	0.00e+00	0	46	104	0	76	21902
2026-01-30 07:43:24.03	156.98	10.79	-52.7	-56.4	3.7	0.00e+00	0	47	104	0	76	22680
2026-01-30 07:43:25.03	156.95	10.90	-52.4	-56.0	3.7	0.00e+00	0	47	104	0	76	21841
2026-01-30 07:43:26.04	156.93	11.01	-52.5	-56.2	3.7	0.00e+00	0	47	104	0	76	22201
2026-01-30 07:43:27.04	156.91	11.13	-52.5	-56.2	3.7	0.00e+00	0	47	104	0	76	22166
2026-01-30 07:43:28.04	156.88	11.24	-52.6	-56.3	3.7	0.00e+00	0	47	104	0	76	22438
2026-01-30 07:43:29.04	156.86	11.35	-52.3	-56.1	3.7	0.00e+00	0	47	104	0	76	21965
2026-01-30 07:43:30.04	156.84	11.47	-52.2	-56.1	3.7	0.00e+00	0	47	104	0	76	21909
2026-01-30 07:43:31.04	156.81	11.58	-53.2	-56.8	3.7	0.00e+00	0	47	104	0	77	22554
2026-01-30 07:43:32.05	156.79	11.70	-53.4	-56.9	3.7	0.00e+00	0	47	104	0	77	22787
2026-01-30 07:43:33.05	156.76	11.82	-52.9	-56.6	3.7	0.00e+00	0	47	104	0	77	22097
2026-01-30 07:43:34.05	156.74	11.94	-53.4	-57.0	3.7	0.00e+00	0	47	104	0	77	22977
2026-01-30 07:43:35.06	156.71	12.06	-53.5	-57.0	3.7	0.00e+00	0	47	104	0	77	22977
2026-01-30 07:43:36.30	156.68	12.20	-53.6	-57.1	3.7	0.00e+00	0	47	104	0	77	23240
2026-01-30 07:43:37.20	156.65	12.31	-53.6	-57.1	3.7	0.00e+00	0	47	104	0	77	23340
2026-01-30 07:43:38.38	156.62	12.45	-53.6	-57.1	3.7	0.00e+00	0	47	104	0	77	23315
2026-01-30 07:43:39.24	156.60	12.56	-53.6	-57.1	3.7	0.00e+00	0	47	104	0	77	23248
2026-01-30 07:43:40.58	156.56	12.72	-53.0	-56.7	3.7	0.00e+00	0	47	104	0	77	22198
2026-01-30 07:43:41.29	156.54	12.81	-53.2	-56.8	3.7	0.00e+00	0	47	104	0	77	22479
2026-01-30 07:43:42.58	156.51	12.97	-53.5	-57.0	3.7	0.00e+00	0	47	104	0	77	22943
2026-01-30 07:43:43.30	156.49	13.06	-53.5	-57.0	3.7	0.00e+00	0	47	104	0	77	23067
2026-01-30 07:43:44.59	156.45	13.22	-53.1	-56.7	3.7	0.00e+00	0	47	104	0	77	22224
2026-01-30 07:43:45.31	156.43	13.32	-53.1	-56.7	3.7	0.00e+00	0	47	104	0	77	22275
2026-01-30 07:43:46.60	156.39	13.48	-52.8	-56.5	3.7	0.00e+00	0	47	104	0	77	21734
2026-01-30 07:43:47.31	156.37	13.57	-52.8	-56.5	3.7	0.00e+00	0	47	104	0	77	21789
2026-01-30 07:43:48.60	156.33	13.74	-52.9	-56.6	3.7	0.00e+00	0	47	104	0	77	21894
2026-01-30 07:43:49.32	156.31	13.83	-53.0	-56.7	3.7	0.00e+00	0	47	104	0	77	22178
2026-01-30 07:43:50.61	156.27	14.00	-52.9	-56.6	3.7	0.00e+00	0	47	104	0	77	21919
2026-01-30 07:43:51.33	156.25	14.10	-52.8	-56.5	3.7	0.00e+00	0	47	104	0	77	21734
2026-01-30 07:43:52.65	156.21	14.27	-52.9	-56.6	3.7	0.00e+00	0	47	104	0	77	21981
2026-01-30 07:43:53.36	156.19	14.37	-52.8	-56.6	3.7	0.00e+00	0	47	104	0	77	21907
2026-01-30 07:43:54.65	156.15	14.54	-52.9	-56.6	3.7	0.00e+00	0	47	104	0	76	23321
2026-01-30 07:43:55.72	156.11	14.69	-52.7	-56.5	3.7	0.00e+00	0	47	104	0	76	23016
2026-01-30 07:43:56.58	156.08	14.81	-52.3	-56.2	3.7	0.00e+00	0	47	104	0	76	22272
2026-01-30 07:43:57.73	156.05	14.97	-52.0	-55.9	3.7	0.00e+00	0	47	104	0	76	21424
2026-01-30 07:43:58.59	156.02	15.09	-52.0	-55.9	3.7	0.00e+00	0	47	104	0	75	22799
2026-01-30 07:43:59.73	155.98	15.25	-51.2	-55.3	3.7	0.00e+00	0	47	104	0	74	22498
2026-01-30 07:44:00.59	155.95	15.37	-50.9	-54.9	3.7	0.00e+00	0	47	104	0	73	22646
2026-01-30 07:44:01.74	155.91	15.53	-51.3	-55.2	3.7	0.00e+00	0	48	104	0	73	23436
2026-01-30 07:44:02.59	155.88	15.66	-50.8	-54.9	3.7	0.00e+00	0	47	104	0	73	22645
2026-01-30 07:44:03.74	155.84	15.82	-51.1	-55.0	3.7	0.00e+00	0	47	104	0	73	23094
2026-01-30 07:44:04.60	155.81	15.95	-51.3	-55.2	3.7	0.00e+00	0	47	104	0	73	23483
2026-01-30 07:44:05.75	155.77	16.12	-51.5	-55.3	3.7	0.00e+00	0	48	104	0	73	23770
2026-01-30 07:44:06.61	155.73	16.25	-51.6	-55.5	3.7	0.00e+00	0	47	104	0	73	24273
2026-01-30 07:44:08.12	155.68	16.47	-52.0	-55.7	3.7	0.00e+00	0	48	104	0	74	23587
2026-01-30 07:44:08.84	155.65	16.58	-51.5	-55.4	3.7	0.00e+00	0	48	104	0	74	22732
2026-01-30 07:44:10.13	155.60	16.78	-51.4	-55.2	3.7	0.00e+00	0	47	104	0	74	22329
2026-01-30 07:44:10.84	155.57	16.89	-51.7	-55.5	3.7	0.00e+00	0	47	104	0	74	23083
2026-01-30 07:44:12.14	155.52	17.09	-51.6	-55.6	3.7	0.00e+00	0	47	104	0	74	23167
2026-01-30 07:44:12.90	155.49	17.21	-51.6	-55.3	3.7	0.00e+00	0	48	104	0	74	22608
2026-01-30 07:44:14.19	155.44	17.41	-51.9	-55.6	3.7	0.00e+00	0	48	104	0	74	23408
2026-01-30 07:44:14.97	155.41	17.53	-51.5	-55.4	3.7	0.00e+00	0	48	104	0	74	22627
2026-01-30 07:44:16.26	155.35	17.74	-51.8	-55.6	3.7	0.00e+00	0	48	104	0	74	23417
2026-01-30 07:44:16.98	155.32	17.86	-52.2	-55.8	3.7	0.00e+00	0	48	104	0	74	23909
2026-01-30 07:44:18.26	155.27	18.07	-52.2	-56.0	3.7	0.00e+00	0	48	104	0	75	23011
2026-01-30 07:44:18.98	155.24	18.18	-52.1	-55.8	3.7	0.00e+00	0	48	104	0	75	22489
2026-01-30 07:44:20.27	155.18	18.40	-52.3	-56.1	3.7	0.00e+00	0	48	104	0	75	23309
2026-01-30 07:44:21.16	155.14	18.55	-52.4	-56.1	3.6	0.00e+00	0	48	104	0	75	23267
2026-01-30 07:44:22.31	155.09	18.74	-52.4	-56.2	3.7	0.00e+00	0	48	104	0	75	23470
2026-01-30 07:44:23.17	155.05	18.89	-52.2	-56.0	3.7	0.00e+00	0	48	104	0	75	22974
2026-01-30 07:44:24.31	154.99	19.08	-52.3	-56.1	3.7	0.00e+00	0	48	104	0	75	23392
2026-01-30 07:44:25.17	154.95	19.23	-52.2	-56.0	3.7	0.00e+00	0	48	104	0	75	23015
2026-01-30 07:44:26.32	154.90	19.43	-52.2	-55.9	3.7	0.00e+00	0	48	104	0	75	22771
2026-01-30 07:44:27.17	154.86	19.58	-52.1	-55.9	3.7	0.00e+00	0	48	104	0	75	22651
2026-01-30 07:44:28.32	154.80	19.79	-52.0	-55.8	3.7	0.00e+00	0	48	104	0	75	22445
2026-01-30 07:44:29.18	154.76	19.94	-52.1	-55.9	3.7	0.00e+00	0	48	104	0	75	22675
2026-01-30 07:44:30.42	154.69	20.17	-52.3	-56.0	3.6	0.00e+00	0	48	104	0	75	22993
2026-01-30 07:44:31.28	154.65	20.32	-52.1	-55.8	3.7	0.00e+00	0	48	104	0	75	22603
2026-01-30 07:44:32.43	154.59	20.54	-52.6	-56.3	3.7	0.00e+00	0	48	104	0	75	23761
2026-01-30 07:44:33.32	154.54	20.70	-52.5	-56.3	3.7	0.00e+00	0	48	104	0	75	23847
2026-01-30 07:44:34.46	154.48	20.92	-52.4	-56.2	3.7	0.00e+00	0	48	104	0	75	23549
2026-01-30 07:44:35.32	154.43	21.08	-52.5	-56.2	3.7	0.00e+00	0	48	104	0	75	23601
2026-01-30 07:44:36.47	154.37	21.30	-52.0	-55.9	3.7	0.00e+00	0	48	104	0	75	22721
2026-01-30 07:44:37.33	154.32	21.47	-51.6	-55.5	3.7	0.00e+00	0	48	104	0	75	21845
2026-01-30 07:44:38.48	154.26	21.69	-51.9	-55.8	3.7	0.00e+00	0	48	104	0	75	22516
2026-01-30 07:44:39.33	154.21	21.86	-51.9	-55.9	3.7	0.00e+00	0	48	104	0	75	22779
2026-01-30 07:44:40.48	154.14	22.09	-52.7	-56.5	3.7	0.00e+00	0	48	104	0	76	23026
2026-01-30 07:44:41.34	154.09	22.26	-53.1	-56.8	3.7	0.00e+00	0	48	104	0	76	23820
2026-01-30 07:44:42.49	154.02	22.50	-53.1	-56.8	3.7	0.00e+00	0	48	104	0	76	23937
2026-01-30 07:44:43.35	153.97	22.67	-53.1	-56.8	3.7	0.00e+00	0	48	104	0	76	23964
2026-01-30 07:44:44.49	153.89	22.91	-53.1	-56.8	3.7	0.00e+00	0	48	104	0	76	23865
2026-01-30 07:44:45.35	153.84	23.09	-53.0	-56.8	3.7	0.00e+00	0	48	104	0	76	23722
2026-01-30 07:44:46.50	153.76	23.33	-52.5	-56.5	3.7	0.00e+00	0	48	104	0	76	22931
2026-01-30 07:44:47.36	153.71	23.52	-52.3	-56.3	3.7	0.00e+00	0	48	104	0	76	22370
2026-01-30 07:44:48.50	153.63	23.76	-52.3	-56.2	3.7	0.00e+00	0	48	104	0	76	22312
2026-01-30 07:44:49.40	153.57	23.96	-51.8	-55.8	3.7	0.00e+00	0	48	104	0	75	22539
2026-01-30 07:44:50.68	153.48	24.24	-52.1	-55.8	3.7	0.00e+00	0	48	104	0	75	22473
2026-01-30 07:44:51.40	153.43	24.40	-52.0	-55.8	3.7	0.00e+00	0	48	104	0	75	22575
2026-01-30 07:44:52.69	153.34	24.69	-52.1	-55.8	3.7	0.00e+00	0	48	104	0	75	22581
2026-01-30 07:44:53.41	153.29	24.86	-52.1	-55.9	3.7	0.00e+00	0	48	104	0	75	22750
2026-01-30 07:44:54.69	153.19	25.15	-52.0	-55.8	3.7	0.00e+00	0	48	104	0	75	22539
2026-01-30 07:44:55.41	153.14	25.32	-51.9	-55.8	3.7	0.00e+00	0	48	104	0	75	22404
2026-01-30 07:44:56.70	153.04	25.62	-51.9	-55.7	3.7	0.00e+00	0	48	104	0	75	22343
2026-01-30 07:44:57.48	152.98	25.81	-52.0	-55.9	3.7	0.00e+00	0	48	104	0	75	22662
2026-01-30 07:44:58.77	152.88	26.12	-51.9	-55.9	3.7	0.00e+00	0	48	104	0	75	22789
2026-01-30 07:44:59.49	152.82	26.29	-52.2	-56.1	3.6	0.00e+00	0	48	104	0	75	23200
2026-01-30 07:45:00.77	152.71	26.60	-52.2	-56.1	3.7	0.00e+00	0	48	104	0	75	23170
2026-01-30 07:45:01.62	152.64	26.81	-52.4	-56.2	3.7	0.00e+00	0	48	104	0	75	23666
2026-01-30 07:45:03.11	152.52	27.19	-52.1	-56.0	3.7	0.00e+00	0	48	104	0	75	23040
2026-01-30 07:45:03.83	152.45	27.37	-52.1	-55.8	3.7	0.00e+00	0	48	104	0	75	22582
2026-01-30 07:45:05.12	152.34	27.70	-52.5	-56.3	3.7	0.00e+00	0	48	104	0	75	23715
2026-01-30 07:45:05.83	152.27	27.89	-52.5	-56.3	3.7	0.00e+00	0	48	104	0	75	23775
2026-01-30 07:45:07.12	152.16	28.23	-52.1	-56.2	3.7	0.00e+00	0	48	104	0	75	23503
2026-01-30 07:45:07.89	152.08	28.43	-52.1	-56.0	3.7	0.00e+00	0	48	104	0	75	23089
2026-01-30 07:45:09.50	151.93	28.87	-52.2	-56.4	3.7	0.00e+00	0	48	104	0	75	24108
2026-01-30 07:45:10.07	151.87	29.02	-52.4	-56.5	3.7	0.00e+00	0	48	104	0	75	24358
2026-01-30 07:45:11.85	151.69	29.51	-52.3	-55.8	3.7	0.00e+00	0	48	104	0	75	22425
2026-01-30 07:45:12.43	151.63	29.68	-52.5	-56.4	3.7	0.00e+00	0	48	104	0	75	24009
2026-01-30 07:45:14.00	151.47	30.12	-52.6	-56.6	3.7	0.00e+00	0	48	104	0	75	24652
2026-01-30 07:45:14.59	151.41	30.29	-53.0	-56.8	3.7	0.00e+00	0	48	104	0	76	23914
2026-01-30 07:45:16.17	151.23	30.75	-53.2	-56.7	3.7	0.00e+00	0	48	104	0	77	22235
2026-01-30 07:45:16.76	151.17	30.93	-53.2	-57.0	3.7	0.00e+00	0	48	104	0	77	23147
2026-01-30 07:45:18.33	150.99	31.39	-53.3	-56.9	3.7	0.00e+00	0	48	104	0	77	22861
2026-01-30 07:45:18.92	150.92	31.57	-53.1	-56.8	3.7	0.00e+00	0	48	104	0	77	22475
2026-01-30 07:45:20.50	150.73	32.06	-52.8	-56.5	3.7	0.00e+00	0	48	104	0	77	21712
2026-01-30 07:45:21.10	150.66	32.24	-52.8	-56.4	3.7	0.00e+00	0	48	104	0	77	21489
2026-01-30 07:45:22.68	150.46	32.74	-52.8	-56.5	3.7	0.00e+00	0	48	104	0	77	21768
2026-01-30 07:45:23.25	150.39	32.92	-52.9	-56.6	3.7	0.00e+00	0	48	104	0	77	22069
2026-01-30 07:45:24.83	150.18	33.43	-52.9	-56.1	3.7	0.00e+00	0	48	104	0	77	20835
2026-01-30 07:45:25.50	150.09	33.65	-53.2	-56.8	3.7	0.00e+00	0	48	104	0	77	22472
2026-01-30 07:45:26.93	149.90	34.12	-52.9	-56.7	3.7	0.00e+00	0	48	104	0	77	22149
2026-01-30 07:45:27.68	149.79	34.37	-52.8	-56.6	3.7	0.00e+00	0	48	104	0	77	22004
2026-01-30 07:45:29.29	149.56	34.92	-52.9	-56.7	3.7	0.00e+00	0	48	104	0	77	22316
2026-01-30 07:45:30.13	149.43	35.21	-53.1	-56.9	3.7	0.00e+00	0	48	104	0	77	22780
2026-01-30 07:45:31.28	149.26	35.61	-53.3	-57.0	3.7	0.00e+00	0	48	104	0	77	23129
2026-01-30 07:45:32.14	149.12	35.92	-53.5	-57.2	3.7	0.00e+00	0	48	104	0	77	23496
2026-01-30 07:45:33.32	148.94	36.34	-53.4	-57.1	3.7	0.00e+00	0	48	104	0	77	23295
2026-01-30 07:45:34.18	148.80	36.65	-53.7	-57.3	3.7	0.00e+00	0	48	104	0	77	23903
2026-01-30 07:45:35.33	148.60	37.07	-53.8	-57.4	3.7	0.00e+00	0	48	104	0	78	22798
2026-01-30 07:45:36.19	148.46	37.39	-53.9	-57.5	3.7	0.00e+00	0	48	104	0	78	22925
2026-01-30 07:45:37.33	148.26	37.82	-53.9	-57.5	3.7	0.00e+00	0	48	104	0	78	23001
2026-01-30 07:45:38.23	148.09	38.16	-53.8	-57.5	3.7	0.00e+00	0	48	104	0	78	22930
2026-01-30 07:45:39.54	147.85	38.67	-53.9	-57.5	3.7	0.00e+00	0	48	104	0	78	22972
2026-01-30 07:45:40.26	147.71	38.95	-53.9	-57.4	3.7	0.00e+00	0	48	104	0	78	22884
2026-01-30 07:45:41.55	147.46	39.46	-53.8	-57.4	3.7	0.00e+00	0	48	104	0	78	22791
2026-01-30 07:45:42.27	147.32	39.75	-53.8	-57.4	3.7	0.00e+00	0	48	104	0	78	22673
2026-01-30 07:45:43.56	147.05	40.27	-53.5	-57.2	3.7	0.00e+00	0	48	104	0	78	22184
2026-01-30 07:45:44.27	146.90	40.56	-53.5	-57.2	3.7	0.00e+00	0	48	104	0	78	22163
2026-01-30 07:45:45.56	146.62	41.10	-53.6	-57.3	3.7	0.00e+00	0	48	104	0	78	22423
2026-01-30 07:45:46.28	146.46	41.40	-53.7	-57.3	3.7	0.00e+00	0	48	104	0	78	22507
2026-01-30 07:45:47.57	146.17	41.95	-54.0	-57.5	3.7	0.00e+00	0	48	104	0	78	23132
2026-01-30 07:45:48.29	146.00	42.26	-54.1	-57.5	3.7	0.00e+00	0	48	104	0	78	23146
2026-01-30 07:45:49.58	145.68	42.82	-54.1	-57.6	3.7	0.00e+00	0	49	104	0	78	23180
2026-01-30 07:45:50.29	145.51	43.13	-54.0	-57.5	3.7	0.00e+00	0	48	104	0	78	22994
2026-01-30 07:45:51.58	145.17	43.71	-54.0	-57.5	3.7	0.00e+00	0	48	104	0	78	23140
2026-01-30 07:45:52.30	144.98	44.03	-54.1	-57.6	3.7	0.00e+00	0	48	104	0	78	23176
2026-01-30 07:45:53.69	144.60	44.67	-54.0	-57.5	3.7	0.00e+00	0	48	104	0	78	23106
2026-01-30 07:45:54.41	144.40	45.00	-53.8	-57.4	3.7	0.00e+00	0	48	104	0	78	22759
2026-01-30 07:45:55.77	144.00	45.64	-53.8	-57.3	3.7	0.00e+00	0	48	104	0	78	22366
2026-01-30 07:45:56.49	143.79	45.98	-53.8	-57.3	3.7	0.00e+00	0	48	104	0	78	22389
2026-01-30 07:45:57.85	143.37	46.63	-53.9	-57.4	3.7	0.00e+00	0	48	104	0	78	22699
2026-01-30 07:45:58.56	143.14	46.97	-54.0	-57.4	3.7	0.00e+00	0	48	104	0	78	22830
2026-01-30 07:45:59.86	142.71	47.61	-54.0	-57.5	3.7	0.00e+00	0	48	104	0	78	22911
2026-01-30 07:46:00.57	142.46	47.96	-53.9	-57.4	3.7	0.00e+00	0	48	104	0	78	22816
2026-01-30 07:46:01.86	142.00	48.61	-53.8	-57.4	3.7	0.00e+00	0	48	104	0	78	22783
2026-01-30 07:46:02.58	141.74	48.97	-53.9	-57.4	3.7	0.00e+00	0	48	104	0	78	22820
2026-01-30 07:46:03.87	141.25	49.63	-54.0	-57.5	3.7	0.00e+00	0	48	104	0	78	23061
2026-01-30 07:46:04.59	140.97	50.00	-53.9	-57.5	3.7	0.00e+00	0	48	104	0	78	22962
2026-01-30 07:46:05.88	140.44	50.68	-53.9	-57.4	3.7	0.00e+00	0	48	104	0	78	22815
2026-01-30 07:46:06.59	140.14	51.05	-54.0	-57.4	3.7	0.00e+00	0	48	104	0	78	22876
2026-01-30 07:46:08.23	139.42	51.92	-53.9	-57.3	3.7	0.00e+00	0	48	104	0	78	22583
2026-01-30 07:46:08.81	139.15	52.23	-53.8	-57.3	3.7	0.00e+00	0	48	104	0	78	22446
2026-01-30 07:46:10.41	138.39	53.10	-53.8	-57.3	3.7	0.00e+00	0	48	104	0	78	22403
2026-01-30 07:46:10.99	138.10	53.42	-54.0	-57.4	3.7	0.00e+00	0	48	104	0	78	22872
2026-01-30 07:46:12.58	137.27	54.30	-53.8	-57.4	3.7	0.00e+00	0	48	104	0	78	22728
2026-01-30 07:46:13.15	136.96	54.61	-53.9	-57.5	3.7	0.00e+00	0	48	104	0	78	22903
2026-01-30 07:46:14.74	136.06	55.50	-53.8	-57.2	3.7	0.00e+00	0	48	104	0	78	22171
2026-01-30 07:46:15.35	135.69	55.85	-53.7	-57.2	3.7	0.00e+00	0	48	104	0	78	22237
2026-01-30 07:46:16.93	134.71	56.75	-53.8	-57.3	3.7	0.00e+00	0	48	104	0	78	22423
2026-01-30 07:46:17.51	134.34	57.08	-53.8	-57.3	3.7	0.00e+00	0	48	104	0	78	22414
2026-01-30 07:46:19.09	133.26	57.98	-52.9	-57.0	3.7	0.00e+00	0	48	104	0	77	22920
2026-01-30 07:46:19.69	132.83	58.33	-53.6	-57.3	3.7	0.00e+00	0	48	104	0	77	23906
2026-01-30 07:46:21.27	131.65	59.24	-53.6	-57.3	3.7	0.00e+00	0	48	104	0	77	23943
2026-01-30 07:46:21.87	131.18	59.59	-53.7	-57.4	3.7	0.00e+00	0	48	104	0	78	22647
2026-01-30 07:46:23.45	129.87	60.51	-53.7	-57.5	3.7	0.00e+00	0	48	104	0	78	23029
2026-01-30 07:46:24.02	129.38	60.84	-53.6	-57.4	3.7	0.00e+00	0	48	104	0	78	22773
2026-01-30 07:46:25.60	127.93	61.76	-54.1	-57.7	3.7	0.00e+00	0	48	104	0	78	23436
2026-01-30 07:46:26.29	127.27	62.16	-54.3	-57.8	3.7	0.00e+00	0	48	104	0	79	22527
2026-01-30 07:46:27.63	125.91	62.93	-54.3	-57.7	3.7	0.00e+00	0	48	104	0	79	22218
2026-01-30 07:46:28.35	125.15	63.35	-54.3	-57.7	3.7	0.00e+00	0	48	104	0	79	22170
2026-01-30 07:46:29.64	123.70	64.08	-54.2	-57.7	3.7	0.00e+00	0	48	104	0	79	22126
2026-01-30 07:46:30.36	122.86	64.49	-54.2	-57.6	3.7	0.00e+00	0	48	104	0	79	22049
2026-01-30 07:46:31.64	121.27	65.21	-53.8	-57.5	3.7	0.00e+00	0	48	104	0	79	21609
2026-01-30 07:46:32.58	120.05	65.73	-54.0	-57.5	3.7	0.00e+00	0	48	104	0	79	21766
2026-01-30 07:46:33.89	118.23	66.44	-53.6	-57.3	3.7	0.00e+00	0	48	104	0	79	21321
2026-01-30 07:46:34.61	117.18	66.83	-53.5	-57.2	3.7	0.00e+00	0	48	104	0	78	22348
2026-01-30 07:46:36.25	114.65	67.69	-54.2	-57.7	3.7	0.00e+00	0	49	104	0	79	22209
2026-01-30 07:46:36.82	113.72	67.98	-54.2	-57.7	3.7	0.00e+00	0	49	104	0	79	22254
2026-01-30 07:46:38.41	110.97	68.76	-54.2	-57.6	3.7	0.00e+00	0	48	104	0	79	22021
2026-01-30 07:46:39.00	109.90	69.04	-54.1	-57.6	3.7	0.00e+00	0	48	104	0	79	21872
2026-01-30 07:46:40.67	106.68	69.80	-54.0	-57.5	3.7	0.00e+00	0	48	104	0	79	21850
2026-01-30 07:46:41.24	105.52	70.05	-54.1	-57.6	3.7	0.00e+00	0	48	104	0	79	21907
2026-01-30 07:46:42.82	102.16	70.70	-53.5	-57.2	3.7	0.00e+00	0	48	104	0	78	22298
2026-01-30 07:46:43.40	100.86	70.92	-53.8	-57.5	3.7	0.00e+00	0	48	104	0	78	22928
2026-01-30 07:46:44.97	97.20	71.47	-54.1	-57.6	3.7	0.00e+00	0	48	104	0	78	23220
2026-01-30 07:46:45.59	95.69	71.67	-53.5	-57.3	3.7	0.00e+00	0	48	104	0	78	22431
2026-01-30 07:46:47.42	91.03	72.19	-53.8	-57.5	3.7	0.00e+00	0	48	104	0	78	23011
2026-01-30 07:46:48.00	89.50	72.33	-53.8	-57.5	3.7	0.00e+00	0	48	104	0	78	23065
2026-01-30 07:46:49.57	85.23	72.65	-53.8	-57.5	3.7	0.00e+00	0	48	104	0	78	23083
2026-01-30 07:46:50.14	83.65	72.74	-53.7	-57.5	3.7	0.00e+00	0	48	104	0	78	22903
2026-01-30 07:46:52.10	78.08	72.96	-54.1	-57.7	3.7	0.00e+00	0	48	104	0	78	23457
2026-01-30 07:46:52.68	76.41	73.00	-54.1	-57.6	3.7	0.00e+00	0	49	104	0	78	23415
2026-01-30 07:46:54.26	71.83	73.02	-54.1	-57.6	3.7	0.00e+00	0	48	104	0	79	22044
2026-01-30 07:46:54.86	70.09	73.01	-53.8	-57.5	3.6	0.00e+00	0	48	104	0	79	21700
2026-01-30 07:46:56.44	65.55	72.89	-54.3	-57.8	3.7	0.00e+00	0	48	104	0	79	22391
2026-01-30 07:46:57.01	63.93	72.83	-54.3	-57.8	3.7	0.00e+00	0	48	104	0	79	22385
2026-01-30 07:46:58.59	59.53	72.58	-54.1	-57.7	3.7	0.00e+00	0	48	104	0	79	22198
2026-01-30 07:46:59.19	57.90	72.46	-54.2	-57.7	3.7	0.00e+00	0	48	104	0	79	22361
2026-01-30 07:47:00.96	53.23	72.03	-54.3	-57.7	3.7	0.00e+00	0	48	104	0	79	22335
2026-01-30 07:47:01.54	51.75	71.87	-54.0	-57.6	3.7	0.00e+00	0	48	104	0	79	22021
2026-01-30 07:47:03.12	47.88	71.37	-54.4	-57.8	3.7	0.00e+00	0	48	104	0	79	22589
2026-01-30 07:47:03.70	46.52	71.17	-54.1	-57.7	3.7	0.00e+00	0	48	104	0	79	22114
2026-01-30 07:47:05.28	42.97	70.57	-54.0	-57.6	3.7	0.00e+00	0	48	104	0	79	21966
2026-01-30 07:47:05.85	41.74	70.34	-54.1	-57.6	3.7	0.00e+00	0	48	104	0	79	22083
2026-01-30 07:47:07.45	38.48	69.65	-54.1	-57.7	3.7	0.00e+00	0	48	104	0	79	22206
2026-01-30 07:47:08.02	37.37	69.40	-54.2	-57.7	3.7	0.00e+00	0	48	104	0	79	22249
2026-01-30 07:47:09.61	34.44	68.65	-54.3	-57.7	3.7	0.00e+00	0	48	104	0	79	22330
2026-01-30 07:47:10.20	33.41	68.36	-54.3	-57.7	3.7	0.00e+00	0	48	104	0	79	22178
2026-01-30 07:47:11.78	30.79	67.56	-54.1	-57.7	3.7	0.00e+00	0	48	104	0	79	22195
2026-01-30 07:47:12.38	29.86	67.25	-54.2	-57.7	3.7	0.00e+00	0	48	104	0	79	22193
2026-01-30 07:47:13.95	27.53	66.42	-54.3	-57.8	3.7	0.00e+00	0	48	104	0	79	22400
2026-01-30 07:47:14.56	26.67	66.09	-53.9	-57.5	3.7	0.00e+00	0	48	104	0	79	21711
2026-01-30 07:47:16.13	24.59	65.22	-54.2	-57.7	3.7	0.00e+00	0	48	104	0	79	22259
2026-01-30 07:47:16.75	23.81	64.88	-54.2	-57.7	3.7	0.00e+00	0	48	104	0	79	22187
2026-01-30 07:47:18.33	21.93	63.99	-54.1	-57.6	3.7	0.00e+00	0	48	104	0	79	22002
2026-01-30 07:47:18.93	21.26	63.64	-54.0	-57.5	3.7	0.00e+00	0	48	104	0	79	21852
2026-01-30 07:47:20.51	19.57	62.74	-53.9	-57.6	3.7	0.00e+00	0	48	104	0	79	21906
2026-01-30 07:47:21.11	18.97	62.39	-53.9	-57.5	3.7	0.00e+00	0	48	104	0	79	21848
2026-01-30 07:47:22.69	17.45	61.48	-53.9	-57.6	3.7	0.00e+00	0	48	104	0	79	21859
2026-01-30 07:47:23.28	16.91	61.14	-54.0	-57.5	3.7	0.00e+00	0	48	104	0	79	21815
2026-01-30 07:47:24.85	15.55	60.23	-54.2	-57.7	3.7	0.00e+00	0	49	104	0	79	22214
2026-01-30 07:47:25.43	15.07	59.89	-54.1	-57.6	3.7	0.00e+00	0	49	104	0	79	22031
2026-01-30 07:47:27.00	13.84	58.99	-54.2	-57.8	3.7	0.00e+00	0	48	104	0	79	22399
2026-01-30 07:47:27.58	13.41	58.65	-54.1	-57.7	3.7	0.00e+00	0	48	104	0	79	22309
2026-01-30 07:47:29.18	12.27	57.73	-54.0	-57.6	3.7	0.00e+00	0	48	104	0	79	21896
2026-01-30 07:47:29.75	11.88	57.41	-53.7	-57.4	3.7	0.00e+00	0	48	104	0	79	21488
2026-01-30 07:47:31.35	10.84	56.49	-53.3	-57.2	3.7	0.00e+00	0	48	104	0	78	22212
2026-01-30 07:47:31.92	10.49	56.17	-53.6	-57.4	3.7	0.00e+00	0	48	104	0	78	22723
2026-01-30 07:47:33.50	9.55	55.28	-53.5	-57.4	3.7	0.00e+00	0	48	104	0	78	22713
2026-01-30 07:47:34.09	9.21	54.95	-53.6	-57.4	3.7	0.00e+00	0	48	104	0	78	22810
2026-01-30 07:47:35.74	8.32	54.04	-54.1	-57.6	3.7	0.00e+00	0	48	104	0	78	23312
2026-01-30 07:47:36.32	8.02	53.72	-54.1	-57.6	3.7	0.00e+00	0	48	104	0	78	23321
2026-01-30 07:47:37.89	7.24	52.86	-53.8	-57.4	3.7	0.00e+00	0	49	104	0	78	22802
2026-01-30 07:47:38.48	6.95	52.54	-53.8	-57.4	3.7	0.00e+00	0	48	104	0	78	22855
2026-01-30 07:47:40.06	6.23	51.70	-53.6	-57.3	3.7	0.00e+00	0	48	104	0	78	22577
2026-01-30 07:47:40.63	5.98	51.40	-53.7	-57.4	3.7	0.00e+00	0	48	104	0	78	22755
2026-01-30 07:47:42.21	5.31	50.57	-53.6	-57.4	3.7	0.00e+00	0	48	104	0	78	22649
2026-01-30 07:47:43.12	4.94	50.10	-53.8	-57.4	3.7	0.00e+00	0	48	104	0	78	22846
2026-01-30 07:47:44.13	4.54	49.58	-53.5	-57.2	3.7	0.00e+00	0	48	104	0	78	22332
2026-01-30 07:47:45.56	4.01	48.85	-53.4	-57.2	3.7	0.00e+00	0	48	104	0	78	22188
2026-01-30 07:47:46.28	3.75	48.49	-53.3	-57.1	3.7	0.00e+00	0	49	104	0	78	22071
2026-01-30 07:47:47.57	3.29	47.85	-54.1	-57.6	3.7	0.00e+00	0	48	104	0	78	23287
2026-01-30 07:47:48.28	3.05	47.50	-54.0	-57.5	3.7	0.00e+00	0	48	104	0	78	23095
2026-01-30 07:47:49.57	2.63	46.87	-54.0	-57.5	3.7	0.00e+00	0	48	104	0	78	23067
2026-01-30 07:47:50.29	2.40	46.53	-53.7	-57.3	3.7	0.00e+00	0	48	104	0	78	22615
2026-01-30 07:47:51.58	2.01	45.91	-53.5	-57.3	3.7	0.00e+00	0	48	104	0	78	22443
2026-01-30 07:47:52.30	1.79	45.57	-53.3	-57.2	3.7	0.00e+00	0	48	104	0	78	22144
2026-01-30 07:47:53.64	1.41	44.95	-53.2	-57.2	3.7	0.00e+00	0	48	104	0	78	22254
2026-01-30 07:47:54.35	1.21	44.62	-53.1	-57.1	3.7	0.00e+00	0	49	104	0	78	22055
2026-01-30 07:47:55.64	0.86	44.04	-53.8	-57.6	3.7	0.00e+00	0	49	104	0	78	23173
2026-01-30 07:47:56.36	0.67	43.72	-53.8	-57.5	3.7	0.00e+00	0	48	104	0	78	23107
2026-01-30 07:47:57.78	0.31	43.09	-53.4	-57.3	3.7	0.00e+00	0	48	104	0	78	22465
2026-01-30 07:47:58.49	0.13	42.78	-53.1	-57.1	3.7	0.00e+00	0	48	104	0	77	23172
2026-01-30 07:47:59.79	359.82	42.21	-53.5	-57.2	3.7	0.00e+00	0	48	104	0	77	23617
2026-01-30 07:48:00.50	359.65	41.91	-53.5	-57.2	3.7	0.00e+00	0	49	104	0	77	23540
2026-01-30 07:48:01.79	359.36	41.36	-53.6	-57.2	3.7	0.00e+00	0	48	104	0	77	23560
2026-01-30 07:48:02.50	359.20	41.07	-53.5	-57.2	3.7	0.00e+00	0	49	104	0	77	23581
2026-01-30 07:48:03.79	358.93	40.54	-53.7	-57.4	3.7	0.00e+00	0	49	104	0	78	22804
2026-01-30 07:48:04.51	358.78	40.24	-53.7	-57.3	3.7	0.00e+00	0	48	104	0	78	22586
2026-01-30 07:48:05.80	358.51	39.72	-53.8	-57.4	3.7	0.00e+00	0	48	104	0	78	22650
2026-01-30 07:48:06.57	358.36	39.42	-53.8	-57.4	3.7	0.00e+00	0	49	104	0	78	22863
2026-01-30 07:48:07.85	358.11	38.92	-54.1	-57.7	3.7	0.00e+00	0	48	104	0	78	23528
2026-01-30 07:48:08.57	357.98	38.64	-54.1	-57.7	3.7	0.00e+00	0	48	104	0	78	23430
2026-01-30 07:48:09.86	357.74	38.14	-54.1	-57.7	3.7	0.00e+00	0	49	104	0	78	23450
2026-01-30 07:48:10.71	357.59	37.82	-53.5	-57.3	3.7	0.00e+00	0	48	104	0	78	22560
2026-01-30 07:48:11.85	357.39	37.40	-52.4	-56.7	3.7	0.00e+00	0	49	104	0	76	23451
2026-01-30 07:48:12.71	357.24	37.08	-52.8	-56.9	3.7	0.00e+00	0	48	104	0	76	24095
2026-01-30 07:48:13.86	357.05	36.66	-52.2	-56.6	3.7	0.00e+00	0	48	104	0	76	23395
2026-01-30 07:48:14.72	356.91	36.35	-52.5	-56.8	3.7	0.00e+00	0	48	104	0	76	23902
2026-01-30 07:48:15.87	356.73	35.94	-53.5	-57.4	3.7	0.00e+00	0	48	104	0	77	23978
2026-01-30 07:48:16.73	356.60	35.64	-53.1	-57.1	3.7	0.00e+00	0	48	104	0	77	23356
2026-01-30 07:48:17.87	356.43	35.24	-53.7	-57.4	3.7	0.00e+00	0	48	104	0	77	24073
2026-01-30 07:48:18.74	356.30	34.95	-53.5	-57.3	3.7	0.00e+00	0	48	104	0	78	22415
2026-01-30 07:48:19.88	356.14	34.56	-53.7	-57.3	3.7	0.00e+00	0	48	104	0	78	22608
2026-01-30 07:48:20.74	356.01	34.27	-53.6	-57.3	3.7	0.00e+00	0	48	104	0	78	22374
2026-01-30 07:48:21.89	355.86	33.89	-53.6	-57.3	3.6	0.00e+00	0	48	104	0	78	22603
2026-01-30 07:48:22.75	355.74	33.61	-53.0	-57.0	3.7	0.00e+00	0	48	104	0	78	21791
2026-01-30 07:48:23.90	355.59	33.24	-51.9	-56.3	3.7	0.00e+00	0	48	104	0	75	23905
2026-01-30 07:48:24.76	355.48	32.97	-52.5	-56.7	3.7	0.00e+00	0	48	104	0	75	24981
2026-01-30 07:48:25.90	355.33	32.61	-51.9	-56.4	3.7	0.00e+00	0	48	104	0	75	24045
2026-01-30 07:48:26.77	355.23	32.34	-52.4	-56.6	3.7	0.00e+00	0	49	104	0	75	24776
2026-01-30 07:48:28.14	355.06	31.91	-53.3	-57.0	3.7	0.00e+00	0	48	104	0	77	23097
2026-01-30 07:48:28.85	354.98	31.70	-52.7	-56.8	3.7	0.00e+00	0	48	104	0	77	22512
2026-01-30 07:48:30.14	354.83	31.31	-53.3	-57.1	3.7	0.00e+00	0	49	104	0	77	23297
2026-01-30 07:48:30.85	354.75	31.10	-53.2	-57.1	3.7	0.00e+00	0	48	104	0	77	23183
2026-01-30 07:48:32.14	354.61	30.72	-53.6	-57.2	3.7	0.00e+00	0	48	104	0	77	23560
2026-01-30 07:48:32.93	354.52	30.49	-53.2	-57.0	3.7	0.00e+00	0	48	104	0	77	23143
2026-01-30 07:48:34.12	354.39	30.15	-53.7	-57.3	3.7	0.00e+00	0	48	104	0	77	23964
2026-01-30 07:48:34.98	354.30	29.91	-53.6	-57.3	3.7	0.00e+00	0	48	104	0	78	22534
2026-01-30 07:48:36.12	354.19	29.59	-53.8	-57.4	3.7	0.00e+00	0	48	104	0	78	22640
2026-01-30 07:48:37.21	354.08	29.29	-53.6	-57.3	3.7	0.00e+00	0	48	104	0	78	22397
2026-01-30 07:48:38.24	353.98	29.01	-53.8	-57.4	3.7	0.00e+00	0	48	104	0	78	22827
2026-01-30 07:48:39.24	353.88	28.74	-54.2	-57.7	3.7	0.00e+00	0	48	104	0	78	23481
2026-01-30 07:48:40.45	353.77	28.42	-54.0	-57.5	3.7	0.00e+00	0	48	104	0	78	23074
2026-01-30 07:48:41.34	353.68	28.18	-54.1	-57.6	3.7	0.00e+00	0	48	104	0	78	23181
2026-01-30 07:48:42.35	353.59	27.92	-53.1	-57.0	3.7	0.00e+00	0	49	104	0	78	21639
2026-01-30 07:48:43.35	353.50	27.66	-52.7	-56.8	3.7	0.00e+00	0	48	104	0	77	22465
2026-01-30 07:48:44.35	353.42	27.41	-52.9	-56.9	3.7	0.00e+00	0	48	104	0	77	22720
2026-01-30 07:48:45.36	353.33	27.15	-52.5	-56.6	3.7	0.00e+00	0	48	104	0	77	21961
2026-01-30 07:48:46.36	353.25	26.90	-53.1	-57.0	3.7	0.00e+00	0	48	104	0	76	24302
2026-01-30 07:48:47.36	353.16	26.66	-53.7	-57.4	3.7	0.00e+00	0	48	104	0	77	24000
2026-01-30 07:48:48.36	353.08	26.41	-53.5	-57.2	3.7	0.00e+00	0	48	104	0	77	23633
2026-01-30 07:48:49.37	353.00	26.17	-53.6	-57.3	3.7	0.00e+00	0	48	104	0	78	22495
2026-01-30 07:48:50.37	352.92	25.93	-53.4	-57.1	3.7	0.00e+00	0	48	104	0	78	22075
2026-01-30 07:48:51.37	352.84	25.69	-52.5	-56.7	3.7	0.00e+00	0	48	104	0	76	23546
2026-01-30 07:48:52.38	352.77	25.46	-52.4	-56.6	3.7	0.00e+00	0	48	104	0	76	23258
2026-01-30 07:48:53.38	352.69	25.23	-52.8	-56.8	3.7	0.00e+00	0	48	104	0	76	23840
2026-01-30 07:48:54.38	352.62	25.00	-52.4	-56.6	3.7	0.00e+00	0	48	104	0	76	23216
2026-01-30 07:48:55.39	352.55	24.77	-53.0	-57.1	3.7	0.00e+00	0	49	104	0	76	24541
2026-01-30 07:48:56.49	352.47	24.52	-53.0	-57.0	3.7	0.00e+00	0	48	104	0	76	24398
2026-01-30 07:48:57.40	352.41	24.32	-52.7	-56.8	3.7	0.00e+00	0	48	104	0	76	23770
2026-01-30 07:48:58.40	352.34	24.10	-53.0	-57.0	3.7	0.00e+00	0	48	104	0	76	24338
2026-01-30 07:48:59.41	352.27	23.88	-52.1	-56.5	3.7	0.00e+00	0	49	104	0	76	22960
2026-01-30 07:49:00.41	352.20	23.67	-51.6	-56.2	3.7	0.00e+00	0	48	104	0	74	24888
2026-01-30 07:49:01.42	352.14	23.45	-52.1	-56.4	3.7	0.00e+00	0	48	104	0	76	22780
2026-01-30 07:49:02.42	352.07	23.24	-51.5	-56.0	3.7	0.00e+00	0	48	104	0	74	24482
2026-01-30 07:49:03.43	352.01	23.03	-52.4	-56.7	3.7	0.00e+00	0	48	104	0	75	25076
2026-01-30 07:49:04.43	351.95	22.82	-52.2	-56.5	3.7	0.00e+00	0	48	104	0	75	24397
2026-01-30 07:49:05.43	351.89	22.62	-53.0	-57.0	3.7	0.00e+00	0	48	104	0	76	24522
2026-01-30 07:49:06.43	351.83	22.42	-53.6	-57.3	3.7	0.00e+00	0	48	104	0	77	23916
2026-01-30 07:49:07.44	351.77	22.21	-53.9	-57.5	3.7	0.00e+00	0	48	104	0	78	22935
2026-01-30 07:49:08.44	351.71	22.02	-53.7	-57.3	3.7	0.00e+00	0	48	104	0	78	22544
2026-01-30 07:49:09.44	351.65	21.82	-53.6	-57.4	3.7	0.00e+00	0	49	104	0	78	22631
2026-01-30 07:49:10.45	351.59	21.62	-53.9	-57.5	3.7	0.00e+00	0	48	104	0	78	22956
2026-01-30 07:49:11.53	351.53	21.41	-53.5	-57.2	3.7	0.00e+00	0	49	104	0	78	22327
2026-01-30 07:49:12.39	351.49	21.25	-53.5	-57.3	3.7	0.00e+00	0	48	104	0	78	22541
2026-01-30 07:49:13.53	351.42	21.03	-53.4	-57.1	3.7	0.00e+00	0	49	104	0	78	22063
2026-01-30 07:49:14.39	351.38	20.87	-53.3	-57.1	3.7	0.00e+00	0	48	104	0	78	22102
2026-01-30 07:49:15.54	351.32	20.66	-53.7	-57.3	3.7	0.00e+00	0	48	104	0	78	22470
2026-01-30 07:49:16.40	351.27	20.50	-54.0	-57.5	3.7	0.00e+00	0	48	104	0	78	22945
2026-01-30 07:49:17.55	351.21	20.29	-53.9	-57.4	3.7	0.00e+00	0	48	104	0	78	22697
2026-01-30 07:49:18.41	351.17	20.13	-53.7	-57.3	3.7	0.00e+00	0	48	104	0	78	22474
2026-01-30 07:49:19.56	351.11	19.93	-53.8	-57.2	3.7	0.00e+00	0	49	104	0	78	22349
2026-01-30 07:49:20.42	351.07	19.78	-53.5	-57.2	3.7	0.00e+00	0	48	104	0	78	22268
2026-01-30 07:49:21.56	351.02	19.58	-53.5	-57.1	3.7	0.00e+00	0	48	104	0	77	23326
2026-01-30 07:49:22.42	350.98	19.43	-53.7	-57.2	3.7	0.00e+00	0	48	104	0	78	22350
2026-01-30 07:49:23.57	350.92	19.23	-53.1	-56.9	3.7	0.00e+00	0	48	104	0	77	22873
2026-01-30 07:49:24.43	350.88	19.08	-52.2	-56.4	3.7	0.00e+00	0	48	104	0	76	22830
2026-01-30 07:49:25.69	350.83	18.86	-53.0	-56.9	3.7	0.00e+00	0	48	104	0	76	23977
2026-01-30 07:49:26.42	350.79	18.74	-52.8	-56.8	3.7	0.00e+00	0	48	104	0	77	22458
2026-01-30 07:49:27.71	350.74	18.53	-51.1	-55.6	3.7	0.00e+00	0	49	104	0	74	23406
2026-01-30 07:49:28.43	350.70	18.41	-51.0	-55.6	3.7	0.00e+00	0	48	104	0	73	24587
2026-01-30 07:49:29.72	350.65	18.20	-50.8	-55.5	3.7	0.00e+00	0	48	104	0	73	24419
2026-01-30 07:49:30.43	350.62	18.08	-50.7	-55.5	3.7	0.00e+00	0	48	104	0	73	24331
2026-01-30 07:49:31.73	350.56	17.87	-50.6	-55.4	3.7	0.00e+00	0	48	104	0	73	24068
2026-01-30 07:49:32.44	350.54	17.76	-50.8	-55.5	3.7	0.00e+00	0	48	104	0	73	24374
2026-01-30 07:49:33.73	350.48	17.55	-50.8	-55.5	3.7	0.00e+00	0	48	104	0	73	24443
2026-01-30 07:49:34.44	350.45	17.44	-50.5	-55.4	3.7	0.00e+00	0	48	104	0	73	24030
2026-01-30 07:49:35.73	350.40	17.24	-50.7	-55.4	3.7	0.00e+00	0	48	104	0	73	24237
2026-01-30 07:49:36.45	350.38	17.13	-50.6	-55.5	3.7	0.00e+00	0	48	104	0	73	24299
2026-01-30 07:49:37.74	350.33	16.93	-50.8	-55.6	3.7	0.00e+00	0	49	104	0	73	24619
2026-01-30 07:49:38.45	350.30	16.82	-50.8	-55.6	3.7	0.00e+00	0	48	104	0	73	24585
2026-01-30 07:49:39.74	350.25	16.63	-51.5	-56.0	3.7	0.00e+00	0	48	104	0	73	25850
2026-01-30 07:49:40.46	350.22	16.52	-51.8	-56.2	3.7	0.00e+00	0	48	104	0	74	25034
2026-01-30 07:49:41.75	350.18	16.33	-52.3	-56.6	3.7	0.00e+00	0	48	104	0	75	24802
2026-01-30 07:49:42.47	350.15	16.22	-52.2	-56.6	3.7	0.00e+00	0	48	104	0	75	24639
2026-01-30 07:49:43.76	350.10	16.03	-52.3	-56.8	3.7	0.00e+00	0	49	104	0	75	25136
2026-01-30 07:49:44.47	350.08	15.93	-52.2	-56.7	3.7	0.00e+00	0	48	104	0	75	24986
2026-01-30 07:49:45.76	350.03	15.74	-52.0	-56.6	3.7	0.00e+00	0	48	104	0	75	24621
2026-01-30 07:49:46.52	350.01	15.64	-51.8	-56.6	3.7	0.00e+00	0	48	104	0	75	24664
2026-01-30 07:49:47.81	349.96	15.45	-52.4	-56.8	3.7	0.00e+00	0	48	104	0	75	25278
2026-01-30 07:49:48.59	349.94	15.34	-51.9	-56.6	3.7	0.00e+00	0	48	104	0	75	24566
2026-01-30 07:49:50.22	349.88	15.12	-52.3	-57.0	3.7	0.00e+00	0	48	104	0	75	25868
2026-01-30 07:49:50.79	349.87	15.04	-51.9	-56.7	3.7	0.00e+00	0	48	104	0	75	25000
2026-01-30 07:49:52.37	349.81	14.82	-52.1	-56.9	3.7	0.00e+00	0	48	104	0	75	25604
2026-01-30 07:49:52.98	349.80	14.74	-52.1	-56.9	3.7	0.00e+00	0	48	104	0	75	25609
2026-01-30 07:49:54.65	349.74	14.51	-52.5	-57.3	3.7	0.00e+00	0	48	104	0	75	26626
2026-01-30 07:49:55.22	349.73	14.43	-52.6	-57.3	3.7	0.00e+00	0	48	104	0	75	26751
2026-01-30 07:49:56.81	349.68	14.22	-51.7	-56.5	3.7	0.00e+00	0	49	104	0	75	24326
2026-01-30 07:49:57.38	349.66	14.15	-50.9	-55.9	3.7	0.00e+00	0	48	104	0	73	25585
2026-01-30 07:49:58.99	349.61	13.94	-52.1	-56.8	3.7	0.00e+00	0	48	104	0	74	26751
2026-01-30 07:49:59.56	349.60	13.86	-51.0	-56.0	3.7	0.00e+00	0	48	104	0	74	24466
2026-01-30 07:50:01.15	349.55	13.66	-51.0	-56.0	3.7	0.00e+00	0	48	104	0	73	25709
2026-01-30 07:50:01.72	349.53	13.59	-50.9	-55.9	3.7	0.00e+00	0	48	104	0	73	25538
2026-01-30 07:50:03.48	349.48	13.36	-50.9	-55.9	3.7	0.00e+00	0	48	104	0	73	25542
2026-01-30 07:50:04.05	349.47	13.29	-50.8	-55.9	3.7	0.00e+00	0	48	104	0	73	25552
2026-01-30 07:50:06.06	349.41	13.04	-50.5	-55.6	3.7	0.00e+00	0	48	104	0	73	24661
2026-01-30 07:50:06.63	349.40	12.97	-51.8	-56.5	3.7	0.00e+00	0	49	104	0	74	25922
2026-01-30 07:50:08.22	349.36	12.77	-50.7	-55.8	3.7	0.00e+00	0	48	104	0	73	25180
2026-01-30 07:50:08.80	349.34	12.70	-52.9	-56.9	3.7	0.00e+00	0	48	104	0	76	24208
2026-01-30 07:50:10.39	349.30	12.51	-51.3	-55.8	3.7	0.00e+00	0	48	104	0	74	23716
2026-01-30 07:50:10.96	349.29	12.44	-51.1	-55.7	3.7	0.00e+00	0	48	104	0	74	23534
2026-01-30 07:50:12.55	349.24	12.25	-51.3	-55.8	3.7	0.00e+00	0	49	104	0	74	23722
2026-01-30 07:50:13.12	349.23	12.18	-51.2	-55.7	3.7	0.00e+00	0	48	104	0	74	23625
2026-01-30 07:50:14.89	349.19	11.98	-53.0	-57.0	3.7	0.00e+00	0	49	104	0	76	24396
2026-01-30 07:50:15.46	349.17	11.91	-52.9	-57.0	3.7	0.00e+00	0	48	104	0	76	24276
2026-01-30 07:50:17.05	349.13	11.73	-51.6	-56.1	3.7	0.00e+00	0	48	104	0	75	23394
2026-01-30 07:50:17.64	349.12	11.66	-51.5	-56.1	3.7	0.00e+00	0	48	104	0	75	23346
2026-01-30 07:50:19.21	349.08	11.48	-51.2	-55.9	3.7	0.00e+00	0	48	104	0	74	24232
2026-01-30 07:50:19.79	349.07	11.41	-51.2	-56.0	3.7	0.00e+00	0	48	104	0	74	24272
2026-01-30 07:50:21.37	349.03	11.23	-51.4	-56.1	3.7	0.00e+00	0	48	104	0	74	24537
2026-01-30 07:50:21.94	349.02	11.17	-51.4	-56.0	3.7	0.00e+00	0	48	104	0	74	24435
2026-01-30 07:50:23.52	348.99	10.99	-51.2	-55.7	3.7	0.00e+00	0	49	104	0	74	23435
2026-01-30 07:50:24.12	348.97	10.93	-51.3	-56.0	3.7	0.00e+00	0	48	104	0	74	24370
2026-01-30 07:50:25.81	348.94	10.74	-51.3	-55.7	3.7	0.00e+00	0	48	104	0	73	25089
2026-01-30 07:50:26.38	348.92	10.68	-51.1	-55.5	3.6	0.00e+00	0	48	104	0	73	24523
2026-01-30 07:50:27.97	348.89	10.51	-50.3	-55.2	3.7	0.00e+00	0	48	104	0	71	26309
2026-01-30 07:50:28.55	348.88	10.44	-50.3	-55.2	3.7	0.00e+00	0	48	104	0	71	26426
2026-01-30 07:50:30.16	348.84	10.27	-50.2	-55.2	3.7	0.00e+00	0	48	104	0	71	26352
2026-01-30 07:50:31.04	348.83	10.18	-49.9	-55.0	3.7	0.00e+00	0	49	104	0	71	25923
2026-01-30 07:50:32.19	348.80	10.06	-49.3	-54.6	3.7	0.00e+00	0	49	104	0	70	26059
2026-01-30 07:50:33.05	348.79	9.97	-48.3	-53.8	3.8	0.00e+00	0	48	104	0	68	26860
2026-01-30 07:50:34.23	348.76	9.84	-50.4	-55.3	3.7	0.00e+00	0	49	104	0	71	26833
2026-01-30 07:50:35.09	348.75	9.75	-48.9	-54.3	3.8	0.00e+00	0	49	104	0	69	26864
2026-01-30 07:50:36.23	348.72	9.64	-48.7	-54.2	3.8	0.00e+00	0	48	104	0	68	27930
2026-01-30 07:50:37.10	348.71	9.55	-48.5	-54.0	3.8	0.00e+00	0	48	104	0	68	27409
2026-01-30 07:50:38.24	348.68	9.43	-49.0	-54.4	3.7	0.00e+00	0	48	104	0	68	28558
2026-01-30 07:50:39.10	348.67	9.34	-49.1	-54.5	3.7	0.00e+00	0	49	104	0	68	29008
2026-01-30 07:50:40.25	348.65	9.23	-49.4	-54.7	3.7	0.00e+00	0	49	104	0	69	28012
2026-01-30 07:50:41.19	348.63	9.13	-49.6	-54.8	3.7	0.00e+00	0	48	104	0	69	28260
2026-01-30 07:50:42.36	348.61	9.02	-50.0	-55.1	3.7	0.00e+00	0	48	104	0	70	27582
2026-01-30 07:50:43.23	348.59	8.93	-49.4	-54.7	3.7	0.00e+00	0	48	104	0	70	26548
2026-01-30 07:50:44.52	348.57	8.80	-49.5	-54.8	3.7	0.00e+00	0	48	104	0	69	28178
2026-01-30 07:50:45.24	348.56	8.73	-52.2	-56.7	3.7	0.00e+00	0	48	104	0	74	26538
2026-01-30 07:50:46.53	348.53	8.60	-51.5	-56.1	3.7	0.00e+00	0	48	104	0	73	26254
2026-01-30 07:50:47.25	348.52	8.53	-52.2	-56.5	3.7	0.00e+00	0	49	104	0	76	23113
2026-01-30 07:50:48.54	348.50	8.41	-53.2	-56.9	3.7	0.00e+00	0	48	104	0	77	22755
2026-01-30 07:50:49.26	348.49	8.34	-53.3	-57.2	3.7	0.00e+00	0	49	104	0	77	23663
2026-01-30 07:50:50.55	348.47	8.22	-51.8	-56.2	3.7	0.00e+00	0	48	104	0	74	25080
2026-01-30 07:50:51.27	348.45	8.15	-52.1	-56.4	3.7	0.00e+00	0	48	104	0	76	22820
2026-01-30 07:50:52.56	348.43	8.03	-53.0	-56.7	3.7	0.00e+00	0	48	104	0	76	23551
2026-01-30 07:50:53.27	348.42	7.96	-52.7	-56.2	3.7	0.00e+00	0	48	104	0	76	22350
2026-01-30 07:50:54.57	348.40	7.84	-52.0	-55.8	3.7	0.00e+00	0	48	104	0	75	22585
2026-01-30 07:50:55.28	348.39	7.77	-52.4	-56.2	3.7	0.00e+00	0	48	104	0	76	22130
2026-01-30 07:50:56.57	348.37	7.65	-52.5	-55.7	3.7	0.00e+00	0	48	104	0	76	20963
2026-01-30 07:50:57.29	348.36	7.58	-52.9	-56.5	3.7	0.00e+00	0	48	104	0	77	21746
2026-01-30 07:50:58.58	348.34	7.47	-53.3	-56.7	3.7	0.00e+00	0	48	104	0	77	22234
2026-01-30 07:50:59.30	348.33	7.40	-53.0	-56.3	3.7	0.00e+00	0	48	104	0	77	21212
2026-01-30 07:51:00.59	348.31	7.28	-53.2	-56.5	3.7	0.00e+00	0	48	104	0	77	21608
2026-01-30 07:51:01.31	348.30	7.22	-53.1	-56.7	3.7	0.00e+00	0	48	104	0	77	22153
2026-01-30 07:51:02.60	348.28	7.10	-52.4	-55.3	3.7	0.00e+00	0	48	104	0	76	20035
2026-01-30 07:51:03.32	348.27	7.04	-52.4	-55.4	3.7	0.00e+00	0	48	104	0	76	20203
2026-01-30 07:51:04.61	348.25	6.92	-52.2	-55.1	3.7	0.00e+00	0	48	104	0	76	19700
2026-01-30 07:51:05.33	348.24	6.86	-52.0	-55.0	3.7	0.00e+00	0	48	104	0	76	19340
2026-01-30 07:51:06.62	348.22	6.74	-51.7	-54.7	3.7	0.00e+00	0	48	104	0	75	19732
2026-01-30 07:51:07.34	348.21	6.68	-51.6	-54.6	3.7	0.00e+00	0	48	104	0	75	19653
2026-01-30 07:51:08.63	348.19	6.57	-51.5	-54.5	3.7	0.00e+00	0	48	104	0	75	19417
2026-01-30 07:51:09.34	348.18	6.50	-51.5	-54.5	3.7	0.00e+00	0	48	104	0	75	19353
2026-01-30 07:51:10.64	348.16	6.39	-51.5	-54.5	3.7	0.00e+00	0	49	104	0	74	20479
2026-01-30 07:51:11.35	348.15	6.33	-51.5	-54.5	3.7	0.00e+00	0	49	104	0	74	20471
2026-01-30 07:51:12.64	348.14	6.22	-51.5	-54.5	3.7	0.00e+00	0	48	104	0	74	20502
2026-01-30 07:51:13.36	348.13	6.16	-51.5	-54.5	3.7	0.00e+00	0	48	104	0	74	20510
2026-01-30 07:51:14.65	348.11	6.05	-51.6	-54.5	3.7	0.00e+00	0	48	104	0	74	20623
2026-01-30 07:51:15.37	348.10	5.99	-51.6	-54.5	3.7	0.00e+00	0	48	104	0	74	20613
2026-01-30 07:51:16.66	348.08	5.88	-51.6	-54.6	3.7	0.00e+00	0	48	104	0	74	20781
2026-01-30 07:51:17.38	348.07	5.82	-51.7	-54.6	3.7	0.00e+00	0	48	104	0	74	20782
2026-01-30 07:51:18.67	348.06	5.71	-51.7	-54.7	3.7	0.00e+00	0	48	104	0	74	21028
2026-01-30 07:51:19.39	348.05	5.65	-51.8	-54.8	3.7	0.00e+00	0	48	104	0	74	21152
2026-01-30 07:51:20.68	348.03	5.54	-51.9	-54.8	3.7	0.00e+00	0	48	104	0	74	21345
2026-01-30 07:51:21.40	348.02	5.48	-51.9	-54.9	3.7	0.00e+00	0	49	104	0	74	21458
2026-01-30 07:51:22.69	348.01	5.37	-52.0	-55.0	3.7	0.00e+00	0	48	104	0	74	21733
2026-01-30 07:51:23.41	348.00	5.32	-52.0	-55.0	3.7	0.00e+00	0	48	104	0	74	21764
2026-01-30 07:51:24.70	347.98	5.21	-52.1	-55.1	3.7	0.00e+00	0	48	104	0	74	21963
2026-01-30 07:51:25.42	347.97	5.15	-52.1	-55.1	3.7	0.00e+00	0	48	104	0	74	21982
2026-01-30 07:51:26.71	347.96	5.05	-52.1	-55.1	3.7	0.00e+00	0	48	104	0	74	21920
2026-01-30 07:51:27.42	347.95	4.99	-52.1	-55.1	3.7	0.00e+00	0	48	104	0	74	22017

#Closed at: 2026-01-30 07:51:28
#Recorded file [0 MB]: D:/Data/31040_260130_104222.dat