passes_logs/2026/01/30/T1/T1__20260130_082625_NOAA_20_JPSS-1_rec.log

#Pass ID: 20260130_082625_NOAA 20 (JPSS-1)
#Satellite: NOAA 20 (JPSS-1)
#Configuration: NOAA 20
#almurnet v.1.7.20251203
#Start time: 2026-01-30 08:26:26

#Version: 2.0.20230620
#Station: T1
#Location: 37.570604 lon 55.790049 lat
#TLE: 1 43013U 17073A   26029.42702672  .00000137  00000+0  85918-4 0  9993
#TLE: 2 43013  98.7646 330.2153 0000804  19.9045 340.2162 14.19525092424781

#Time	Az	El	Level	Level2	SNR	BER	BlckErr	Temp	State	Recorded	gain1	gain2
2026-01-30 08:26:26.93	113.08	4.99	-49.3	-63.8	3.8	1.49e+00	0	37	0	0	69	19898
2026-01-30 08:26:27.93	113.00	5.06	-49.7	-63.8	3.8	1.49e+00	0	37	104	0	70	18889
2026-01-30 08:26:28.94	112.93	5.12	-49.7	-63.8	3.8	1.49e+00	0	37	104	0	70	18829
2026-01-30 08:26:29.94	112.85	5.18	-49.5	-63.8	3.8	1.49e+00	0	37	104	0	70	18871
2026-01-30 08:26:30.94	112.78	5.25	-49.5	-63.8	3.8	1.49e+00	0	37	104	0	70	18784
2026-01-30 08:26:31.94	112.70	5.31	-49.5	-63.8	3.8	1.49e+00	0	37	104	0	70	18792
2026-01-30 08:26:32.94	112.62	5.37	-49.5	-63.8	3.8	1.49e+00	0	37	104	0	70	18761
2026-01-30 08:26:33.95	112.54	5.43	-49.5	-63.8	3.8	1.49e+00	0	37	104	0	70	18777
2026-01-30 08:26:34.95	112.47	5.50	-49.4	-63.7	3.8	1.49e+00	0	37	104	0	70	18720
2026-01-30 08:26:35.95	112.39	5.56	-49.4	-63.7	3.8	1.49e+00	0	37	104	0	70	18692
2026-01-30 08:26:36.95	112.31	5.62	-49.3	-63.7	3.8	1.49e+00	0	37	104	0	70	18696
2026-01-30 08:26:37.96	112.23	5.69	-49.2	-63.7	3.8	1.49e+00	0	37	104	0	70	18591
2026-01-30 08:26:38.96	112.15	5.75	-49.3	-63.7	3.8	1.49e+00	0	37	104	0	70	18527
2026-01-30 08:26:39.96	112.07	5.82	-49.3	-63.6	3.8	1.49e+00	0	37	104	0	70	18493
2026-01-30 08:26:40.96	111.99	5.88	-49.4	-63.6	3.8	1.49e+00	0	37	104	0	70	18375
2026-01-30 08:26:41.96	111.91	5.94	-49.2	-63.5	3.8	1.49e+00	0	37	104	0	70	18131
2026-01-30 08:26:42.96	111.83	6.01	-49.2	-63.3	3.8	1.49e+00	0	37	104	0	70	17856
2026-01-30 08:26:43.97	111.75	6.07	-48.9	-63.1	3.8	1.49e+00	0	37	104	0	69	18432
2026-01-30 08:26:44.97	111.67	6.14	-48.8	-63.0	3.8	1.49e+00	0	37	104	0	69	18182
2026-01-30 08:26:45.97	111.59	6.20	-48.8	-63.0	3.8	1.49e+00	0	37	104	0	69	18291
2026-01-30 08:26:46.97	111.51	6.26	-48.8	-63.0	3.8	1.49e+00	0	37	104	0	69	18225
2026-01-30 08:26:47.97	111.42	6.33	-48.8	-63.0	3.8	1.49e+00	0	37	104	0	69	18245
2026-01-30 08:26:48.97	111.34	6.39	-48.8	-63.0	3.8	1.49e+00	0	37	104	0	69	18288
2026-01-30 08:26:49.97	111.26	6.46	-48.8	-63.0	3.8	1.49e+00	0	38	104	0	69	18190
2026-01-30 08:26:50.98	111.18	6.52	-48.8	-63.0	3.8	1.49e+00	0	37	104	0	69	18135
2026-01-30 08:26:51.98	111.09	6.59	-48.8	-62.9	3.8	1.49e+00	0	37	104	0	69	18000
2026-01-30 08:26:52.98	111.01	6.65	-48.8	-62.8	3.8	1.49e+00	0	37	104	0	69	17821
2026-01-30 08:26:53.98	110.92	6.72	-48.7	-62.7	3.8	1.49e+00	0	38	104	0	69	17593
2026-01-30 08:26:54.98	110.84	6.78	-48.7	-62.7	3.8	1.49e+00	0	37	104	0	69	17540
2026-01-30 08:26:55.98	110.75	6.85	-48.7	-62.6	3.8	1.49e+00	0	37	104	0	69	17345
2026-01-30 08:26:56.98	110.67	6.91	-48.7	-62.6	3.8	1.49e+00	0	38	104	0	69	17369
2026-01-30 08:26:57.98	110.58	6.98	-48.7	-62.6	3.8	1.49e+00	0	38	104	0	69	17376
2026-01-30 08:26:58.99	110.49	7.05	-48.8	-62.6	3.8	1.49e+00	0	37	104	0	69	17395
2026-01-30 08:26:59.99	110.41	7.11	-48.7	-62.6	3.8	1.49e+00	0	38	104	0	69	17300
2026-01-30 08:27:00.94	110.32	7.17	-48.7	-62.5	3.8	1.49e+00	0	37	104	0	69	17280
2026-01-30 08:27:01.94	110.24	7.24	-48.7	-62.5	3.8	1.49e+00	0	38	104	0	69	17249
2026-01-30 08:27:02.94	110.15	7.31	-48.7	-62.5	3.8	1.49e+00	0	38	104	0	69	17119
2026-01-30 08:27:03.94	110.06	7.37	-48.7	-62.4	3.8	1.49e+00	0	38	104	0	69	16902
2026-01-30 08:27:04.94	109.97	7.44	-48.7	-62.3	3.8	1.49e+00	0	38	104	0	69	16709
2026-01-30 08:27:05.94	109.88	7.51	-48.7	-62.1	3.8	1.49e+00	0	38	104	0	69	16470
2026-01-30 08:27:06.94	109.79	7.57	-48.7	-61.9	3.8	1.49e+00	0	38	104	0	69	16074
2026-01-30 08:27:07.95	109.70	7.64	-48.7	-61.7	3.8	1.49e+00	0	38	104	0	69	15702
2026-01-30 08:27:08.95	109.61	7.71	-48.7	-61.7	3.8	1.49e+00	0	38	104	0	69	15710
2026-01-30 08:27:09.95	109.52	7.77	-48.7	-61.9	3.8	1.49e+00	0	38	104	0	69	16105
2026-01-30 08:27:10.95	109.43	7.84	-48.8	-62.4	3.8	1.49e+00	0	38	104	0	69	17052
2026-01-30 08:27:11.95	109.34	7.91	-48.8	-62.4	3.8	1.49e+00	0	38	104	0	69	17061
2026-01-30 08:27:12.95	109.24	7.97	-48.7	-61.0	3.8	1.49e+00	0	38	104	0	69	14531
2026-01-30 08:27:13.95	109.15	8.04	-48.5	-58.3	4.6	1.39e+00	0	38	0	0	69	10588
2026-01-30 08:27:14.95	109.06	8.11	-48.1	-55.6	6.3	5.81e-01	0	38	0	2097152	68	8262
2026-01-30 08:27:15.95	108.96	8.18	-47.4	-53.0	8.6	7.13e-02	0	38	0	4194304	66	6849
2026-01-30 08:27:16.96	108.87	8.24	-46.5	-50.7	11.0	7.76e-03	0	38	0	5242880	65	5573
2026-01-30 08:27:17.96	108.77	8.31	-45.7	-49.0	12.8	3.20e-04	0	38	0	7340032	63	5123
2026-01-30 08:27:18.96	108.68	8.38	-45.0	-47.7	14.2	1.52e-05	0	38	0	9437184	62	4661
2026-01-30 08:27:19.96	108.58	8.45	-44.5	-47.0	14.8	0.00e+00	0	38	0	11534336	61	4584
2026-01-30 08:27:20.96	108.49	8.51	-44.5	-47.0	14.8	0.00e+00	0	38	0	12582912	60	4838
2026-01-30 08:27:21.96	108.39	8.58	-44.6	-47.2	14.6	7.00e-07	0	38	0	14680064	60	4943
2026-01-30 08:27:22.97	108.29	8.65	-45.0	-47.8	14.0	7.00e-07	0	38	0	16777216	60	5285
2026-01-30 08:27:23.97	108.20	8.72	-45.4	-48.5	13.3	1.37e-05	0	38	0	18874368	61	5433
2026-01-30 08:27:24.97	108.10	8.79	-45.9	-49.5	12.3	5.49e-05	0	38	0	20971520	62	5731
2026-01-30 08:27:25.97	108.00	8.86	-46.5	-50.8	10.9	1.31e-03	0	38	0	22020096	63	6326
2026-01-30 08:27:26.97	107.90	8.93	-47.0	-52.3	9.2	1.02e-02	0	38	0	24117248	64	7117
2026-01-30 08:27:27.97	107.80	8.99	-47.7	-54.6	7.0	6.25e-02	0	38	0	26214400	65	8675
2026-01-30 08:27:28.97	107.70	9.06	-48.2	-57.3	5.0	3.28e-01	0	38	0	28311552	66	11241
2026-01-30 08:27:29.97	107.60	9.13	-48.1	-56.2	5.8	4.35e-01	0	38	0	30408704	67	9318
2026-01-30 08:27:30.97	107.50	9.20	-48.3	-56.9	5.4	5.02e-01	0	38	0	31457280	67	10100
2026-01-30 08:27:31.97	107.40	9.27	-48.9	-61.6	3.8	6.62e-01	0	38	104	33554432	68	16492
2026-01-30 08:27:32.97	107.30	9.34	-46.8	-50.9	11.1	3.46e-02	0	38	0	33554432	65	5675
2026-01-30 08:27:33.97	107.20	9.41	-49.1	-62.6	3.8	8.46e-01	0	38	104	34603008	68	18495
2026-01-30 08:27:34.96	107.10	9.48	-46.6	-50.7	11.2	9.25e-01	0	38	0	34603008	65	5549
2026-01-30 08:27:35.97	106.99	9.55	-45.8	-48.9	13.1	4.11e-04	0	38	0	36700160	63	5075
2026-01-30 08:27:36.97	106.89	9.62	-44.9	-47.5	14.6	7.00e-07	0	38	0	38797312	61	4826
2026-01-30 08:27:37.97	106.78	9.69	-44.6	-47.1	15.0	0.00e+00	0	38	0	39845888	61	4613
2026-01-30 08:27:38.97	106.68	9.76	-44.7	-47.1	15.0	0.00e+00	0	38	0	41943040	61	4640
2026-01-30 08:27:39.97	106.57	9.83	-44.7	-47.2	15.0	0.00e+00	0	38	0	44040192	61	4653
2026-01-30 08:27:40.97	106.47	9.90	-44.7	-47.1	15.1	0.00e+00	0	38	0	46137344	61	4606
2026-01-30 08:27:41.97	106.36	9.97	-44.6	-47.0	15.1	0.00e+00	0	38	0	48234496	61	4585
2026-01-30 08:27:42.96	106.26	10.04	-44.7	-47.0	15.1	0.00e+00	0	38	0	49283072	61	4587
2026-01-30 08:27:43.97	106.15	10.11	-44.6	-47.0	15.2	0.00e+00	0	39	0	51380224	61	4567
2026-01-30 08:27:44.97	106.04	10.18	-44.8	-47.1	15.3	0.00e+00	0	38	0	53477376	61	4639
2026-01-30 08:27:45.97	105.93	10.25	-45.1	-47.5	15.2	0.00e+00	0	38	0	55574528	61	4819
2026-01-30 08:27:46.97	105.82	10.32	-45.3	-47.7	15.1	0.00e+00	0	38	0	56623104	61	4971
2026-01-30 08:27:47.97	105.71	10.39	-45.5	-47.9	15.0	0.00e+00	0	38	0	58720256	61	5065
2026-01-30 08:27:48.97	105.60	10.46	-45.6	-48.0	14.9	0.00e+00	0	38	0	60817408	61	5156
2026-01-30 08:27:49.97	105.49	10.53	-45.6	-48.1	14.9	7.00e-07	0	38	0	62914560	61	5171
2026-01-30 08:27:50.97	105.38	10.60	-45.5	-47.9	15.1	0.00e+00	0	38	0	65011712	61	5050
2026-01-30 08:27:51.97	105.27	10.67	-45.4	-47.7	15.3	0.00e+00	0	39	0	66060288	61	4983
2026-01-30 08:27:52.97	105.16	10.75	-45.4	-47.7	15.3	0.00e+00	0	38	0	68157440	61	4927
2026-01-30 08:27:53.97	105.05	10.82	-45.3	-47.5	15.5	0.00e+00	0	38	0	70254592	61	4828
2026-01-30 08:27:54.97	104.93	10.89	-45.4	-47.7	15.3	0.00e+00	0	38	0	72351744	61	4972
2026-01-30 08:27:55.98	104.82	10.96	-45.3	-47.6	15.3	0.00e+00	0	38	0	74448896	61	4918
2026-01-30 08:27:56.97	104.71	11.03	-45.3	-47.6	15.3	0.00e+00	0	38	0	75497472	61	4914
2026-01-30 08:27:57.98	104.59	11.10	-45.2	-47.5	15.5	0.00e+00	0	39	0	77594624	61	4837
2026-01-30 08:27:58.98	104.47	11.18	-45.3	-47.5	15.4	0.00e+00	0	39	0	79691776	61	4845
2026-01-30 08:27:59.98	104.36	11.25	-45.1	-47.3	15.6	0.00e+00	0	39	0	81788928	61	4759
2026-01-30 08:28:00.98	104.24	11.32	-45.2	-47.5	15.5	0.00e+00	0	39	0	83886080	61	4828
2026-01-30 08:28:01.98	104.12	11.39	-45.2	-47.5	15.5	0.00e+00	0	39	0	84934656	61	4825
2026-01-30 08:28:02.99	104.01	11.47	-45.1	-47.3	15.7	0.00e+00	0	39	0	87031808	61	4716
2026-01-30 08:28:03.99	103.89	11.54	-45.1	-47.1	15.9	0.00e+00	0	39	0	89128960	61	4648
2026-01-30 08:28:04.99	103.77	11.61	-45.2	-47.3	15.9	0.00e+00	0	39	0	91226112	61	4709
2026-01-30 08:28:06.00	103.65	11.68	-45.2	-47.4	15.9	0.00e+00	0	38	0	93323264	61	4764
2026-01-30 08:28:07.00	103.53	11.76	-45.3	-47.4	15.9	0.00e+00	0	39	0	94371840	61	4797
2026-01-30 08:28:08.00	103.41	11.83	-45.5	-47.7	15.7	0.00e+00	0	39	0	96468992	61	4929
2026-01-30 08:28:09.00	103.28	11.90	-45.6	-47.8	15.7	0.00e+00	0	39	0	98566144	61	5017
2026-01-30 08:28:10.00	103.16	11.97	-45.7	-47.9	15.7	0.00e+00	0	39	0	100663296	62	4782
2026-01-30 08:28:11.01	103.04	12.05	-45.7	-47.9	15.7	0.00e+00	0	39	0	101711872	62	4781
2026-01-30 08:28:12.01	102.92	12.12	-45.5	-47.6	16.0	0.00e+00	0	39	0	103809024	62	4622
2026-01-30 08:28:13.01	102.79	12.19	-45.5	-47.5	16.1	0.00e+00	0	39	0	105906176	62	4558
2026-01-30 08:28:14.01	102.67	12.27	-45.5	-47.6	16.1	0.00e+00	0	39	0	108003328	62	4599
2026-01-30 08:28:15.02	102.54	12.34	-45.6	-47.6	16.1	0.00e+00	0	39	0	110100480	62	4613
2026-01-30 08:28:16.02	102.42	12.42	-45.6	-47.7	16.0	0.00e+00	0	39	0	111149056	62	4654
2026-01-30 08:28:17.02	102.29	12.49	-45.6	-47.5	16.2	0.00e+00	0	39	0	113246208	62	4598
2026-01-30 08:28:18.02	102.16	12.56	-45.5	-47.5	16.2	0.00e+00	0	39	0	115343360	62	4559
2026-01-30 08:28:19.02	102.03	12.64	-45.5	-47.5	16.2	0.00e+00	0	39	0	117440512	62	4589
2026-01-30 08:28:20.03	101.90	12.71	-45.6	-47.6	16.1	0.00e+00	0	39	0	119537664	62	4620
2026-01-30 08:28:21.03	101.78	12.78	-45.5	-47.5	16.2	0.00e+00	0	39	0	120586240	62	4576
2026-01-30 08:28:22.03	101.65	12.86	-45.5	-47.5	16.2	0.00e+00	0	39	0	122683392	62	4597
2026-01-30 08:28:23.03	101.52	12.93	-45.5	-47.6	16.1	0.00e+00	0	39	0	124780544	62	4604
2026-01-30 08:28:24.03	101.38	13.01	-45.6	-47.7	16.0	0.00e+00	0	39	0	126877696	62	4666
2026-01-30 08:28:25.03	101.25	13.08	-45.4	-47.4	16.2	0.00e+00	0	39	0	128974848	62	4528
2026-01-30 08:28:26.04	101.12	13.16	-45.2	-47.1	16.4	0.00e+00	0	39	0	130023424	62	4378
2026-01-30 08:28:27.04	100.99	13.23	-45.1	-47.0	16.4	0.00e+00	0	39	0	132120576	62	4329
2026-01-30 08:28:28.05	100.85	13.31	-45.1	-47.1	16.4	0.00e+00	0	39	0	134217728	62	4354
2026-01-30 08:28:29.05	100.72	13.38	-45.1	-47.1	16.3	0.00e+00	0	39	0	136314880	62	4368
2026-01-30 08:28:30.05	100.58	13.45	-45.0	-47.0	16.4	0.00e+00	0	39	0	138412032	62	4308
2026-01-30 08:28:31.05	100.45	13.53	-44.9	-46.8	16.6	0.00e+00	0	39	0	139460608	61	4448
2026-01-30 08:28:32.05	100.31	13.60	-44.6	-46.4	16.8	0.00e+00	0	39	0	141557760	61	4278
2026-01-30 08:28:33.06	100.17	13.68	-44.2	-46.0	17.0	0.00e+00	0	39	0	143654912	60	4313
2026-01-30 08:28:34.06	100.03	13.75	-43.7	-45.4	16.9	0.00e+00	0	39	0	145752064	59	4291
2026-01-30 08:28:35.07	99.89	13.83	-43.5	-45.3	16.9	0.00e+00	0	39	0	146800640	58	4456
2026-01-30 08:28:36.16	99.74	13.91	-43.4	-45.1	17.1	0.00e+00	0	39	0	148897792	58	4377
2026-01-30 08:28:37.05	99.62	13.98	-43.4	-45.1	17.2	0.00e+00	0	39	0	150994944	58	4352
2026-01-30 08:28:38.20	99.45	14.06	-43.4	-45.1	17.2	0.00e+00	0	39	0	153092096	58	4391
2026-01-30 08:28:39.06	99.33	14.13	-43.3	-45.0	17.5	0.00e+00	0	38	0	155189248	58	4296
2026-01-30 08:28:40.21	99.17	14.22	-43.4	-45.1	17.5	0.00e+00	0	39	0	157286400	58	4360
2026-01-30 08:28:41.07	99.05	14.28	-43.6	-45.2	17.4	0.00e+00	0	39	0	158334976	58	4429
2026-01-30 08:28:42.21	98.88	14.37	-43.8	-45.6	17.1	0.00e+00	0	39	0	160432128	58	4627
2026-01-30 08:28:43.07	98.76	14.43	-43.9	-45.6	17.0	0.00e+00	0	39	0	162529280	58	4640
2026-01-30 08:28:44.22	98.59	14.52	-43.8	-45.6	17.0	0.00e+00	0	39	0	164626432	58	4604
2026-01-30 08:28:45.08	98.47	14.58	-43.7	-45.5	17.0	0.00e+00	0	39	0	165675008	58	4551
2026-01-30 08:28:46.22	98.30	14.67	-43.7	-45.5	16.8	0.00e+00	0	39	0	167772160	58	4592
2026-01-30 08:28:47.08	98.17	14.73	-43.6	-45.4	16.9	0.00e+00	0	39	0	169869312	58	4527
2026-01-30 08:28:48.23	98.00	14.82	-43.5	-45.2	17.1	0.00e+00	0	39	0	171966464	58	4440
2026-01-30 08:28:49.09	97.87	14.89	-43.7	-45.5	16.8	0.00e+00	0	39	0	174063616	58	4580
2026-01-30 08:28:50.24	97.70	14.97	-43.6	-45.5	16.8	0.00e+00	0	39	0	176160768	58	4550
2026-01-30 08:28:51.10	97.57	15.04	-43.5	-45.4	16.9	0.00e+00	0	39	0	177209344	58	4497
2026-01-30 08:28:52.39	97.38	15.14	-43.6	-45.4	16.8	0.00e+00	0	39	0	180355072	58	4512
2026-01-30 08:28:53.10	97.27	15.19	-43.6	-45.4	16.8	0.00e+00	0	39	0	181403648	58	4516
2026-01-30 08:28:54.60	97.04	15.30	-43.6	-45.4	16.8	0.00e+00	0	39	0	183500800	58	4525
2026-01-30 08:28:55.31	96.93	15.36	-43.5	-45.3	16.8	0.00e+00	0	39	0	185597952	58	4483
2026-01-30 08:28:56.68	96.72	15.46	-43.5	-45.3	16.9	0.00e+00	0	39	0	187695104	58	4484
2026-01-30 08:28:57.65	96.57	15.53	-43.6	-45.5	16.7	0.00e+00	0	39	0	189792256	58	4580
2026-01-30 08:28:59.00	96.35	15.64	-43.4	-45.2	16.9	0.00e+00	0	39	0	191889408	58	4436
2026-01-30 08:28:59.72	96.24	15.69	-43.5	-45.2	17.0	0.00e+00	0	39	0	193986560	58	4432
2026-01-30 08:29:01.01	96.04	15.79	-43.5	-45.3	16.8	0.00e+00	0	39	0	196083712	58	4478
2026-01-30 08:29:01.74	95.92	15.84	-43.6	-45.4	16.8	0.00e+00	0	39	0	197132288	58	4497
2026-01-30 08:29:03.03	95.71	15.94	-43.7	-45.6	16.6	0.00e+00	0	39	0	199229440	58	4610
2026-01-30 08:29:03.74	95.60	16.00	-43.8	-45.6	16.6	0.00e+00	0	39	0	201326592	58	4648
2026-01-30 08:29:05.05	95.39	16.10	-43.8	-45.7	16.5	0.00e+00	0	39	0	203423744	58	4663
2026-01-30 08:29:05.76	95.27	16.15	-43.7	-45.6	16.6	0.00e+00	0	39	0	204472320	58	4613
2026-01-30 08:29:07.15	95.05	16.26	-43.6	-45.5	16.7	0.00e+00	0	39	0	207618048	58	4558
2026-01-30 08:29:07.87	94.93	16.31	-43.6	-45.4	16.8	0.00e+00	0	39	0	208666624	58	4531
2026-01-30 08:29:09.16	94.72	16.41	-43.7	-45.5	16.7	0.00e+00	0	39	0	210763776	58	4594
2026-01-30 08:29:09.88	94.60	16.46	-43.8	-45.7	16.5	0.00e+00	0	39	0	212860928	58	4674
2026-01-30 08:29:11.29	94.36	16.57	-43.8	-45.8	16.5	0.00e+00	0	39	0	214958080	58	4708
2026-01-30 08:29:12.01	94.24	16.63	-43.7	-45.6	16.6	0.00e+00	0	39	0	217055232	58	4616
2026-01-30 08:29:13.30	94.02	16.72	-43.7	-45.6	16.6	0.00e+00	0	39	0	219152384	58	4615
2026-01-30 08:29:14.02	93.90	16.78	-43.8	-45.7	16.6	0.00e+00	0	39	0	220200960	58	4658
2026-01-30 08:29:15.31	93.68	16.88	-44.0	-45.9	16.3	0.00e+00	0	39	0	222298112	58	4800
2026-01-30 08:29:16.03	93.56	16.93	-44.0	-46.0	16.3	0.00e+00	0	39	0	224395264	58	4830
2026-01-30 08:29:17.31	93.34	17.03	-44.0	-46.0	16.2	0.00e+00	0	39	0	226492416	58	4841
2026-01-30 08:29:18.03	93.21	17.08	-44.0	-45.9	16.3	0.00e+00	0	39	0	227540992	58	4791
2026-01-30 08:29:19.32	92.99	17.18	-43.8	-45.8	16.5	0.00e+00	0	39	0	230686720	58	4706
2026-01-30 08:29:20.04	92.86	17.23	-43.9	-45.8	16.4	0.00e+00	0	39	0	231735296	58	4723
2026-01-30 08:29:21.33	92.64	17.33	-43.9	-45.9	16.4	0.00e+00	0	39	0	233832448	58	4769
2026-01-30 08:29:22.04	92.51	17.39	-43.8	-45.8	16.4	0.00e+00	0	39	0	235929600	58	4722
2026-01-30 08:29:23.33	92.28	17.48	-43.8	-45.8	16.4	0.00e+00	0	39	0	238026752	58	4722
2026-01-30 08:29:24.05	92.16	17.54	-43.8	-45.7	16.5	0.00e+00	0	39	0	239075328	58	4674
2026-01-30 08:29:25.34	91.92	17.63	-43.6	-45.4	16.8	0.00e+00	0	39	0	241172480	58	4541
2026-01-30 08:29:26.05	91.80	17.69	-43.7	-45.5	16.7	0.00e+00	0	39	0	243269632	58	4590
2026-01-30 08:29:27.47	91.54	17.80	-43.7	-45.6	16.6	0.00e+00	0	39	0	245366784	58	4621
2026-01-30 08:29:28.19	91.41	17.85	-43.8	-45.7	16.6	0.00e+00	0	39	0	247463936	58	4663
2026-01-30 08:29:29.54	91.16	17.95	-43.7	-45.6	16.7	0.00e+00	0	39	0	249561088	58	4601
2026-01-30 08:29:30.26	91.03	18.01	-43.7	-45.5	16.7	0.00e+00	0	39	0	250609664	58	4596
2026-01-30 08:29:31.55	90.79	18.10	-43.7	-45.6	16.7	0.00e+00	0	39	0	253755392	58	4599
2026-01-30 08:29:32.27	90.66	18.16	-43.5	-45.4	16.9	0.00e+00	0	39	0	254803968	58	4502
2026-01-30 08:29:33.55	90.42	18.25	-43.5	-45.4	16.9	0.00e+00	0	39	0	256901120	58	4498
2026-01-30 08:29:34.27	90.28	18.31	-43.5	-45.3	17.0	0.00e+00	0	39	0	257949696	58	4456
2026-01-30 08:29:35.56	90.04	18.40	-43.4	-45.2	17.1	0.00e+00	0	39	0	261095424	58	4408
2026-01-30 08:29:36.28	89.90	18.46	-43.4	-45.2	17.0	0.00e+00	0	39	0	262144000	58	4424
2026-01-30 08:29:37.56	89.66	18.55	-43.2	-45.0	17.2	0.00e+00	0	39	0	264241152	58	4315
2026-01-30 08:29:38.28	89.52	18.60	-43.2	-45.0	17.2	0.00e+00	0	39	0	265289728	58	4314
2026-01-30 08:29:39.57	89.28	18.70	-43.1	-44.8	17.4	0.00e+00	0	39	0	268435456	58	4240
2026-01-30 08:29:40.29	89.14	18.75	-43.0	-44.7	17.5	0.00e+00	0	39	0	269484032	58	4173
2026-01-30 08:29:41.58	88.89	18.85	-43.0	-44.6	17.6	0.00e+00	0	39	0	271581184	57	4380
2026-01-30 08:29:42.30	88.75	18.90	-42.9	-44.6	17.6	0.00e+00	0	39	0	273678336	57	4351
2026-01-30 08:29:43.58	88.49	19.00	-42.8	-44.5	17.7	0.00e+00	0	39	0	275775488	57	4302
2026-01-30 08:29:44.30	88.35	19.05	-42.7	-44.3	17.9	0.00e+00	0	39	0	276824064	57	4226
2026-01-30 08:29:45.66	88.08	19.15	-42.6	-44.1	18.1	0.00e+00	0	39	0	279969792	57	4118
2026-01-30 08:29:46.37	87.94	19.20	-42.4	-43.9	18.3	0.00e+00	0	39	0	281018368	56	4281
2026-01-30 08:29:47.66	87.68	19.30	-42.2	-43.6	18.6	0.00e+00	0	39	0	283115520	56	4140
2026-01-30 08:29:48.38	87.54	19.35	-42.1	-43.6	18.6	0.00e+00	0	39	0	285212672	56	4104
2026-01-30 08:29:49.78	87.26	19.45	-42.0	-43.5	18.7	0.00e+00	0	39	0	287309824	56	4077
2026-01-30 08:29:50.50	87.11	19.50	-41.7	-43.2	18.8	0.00e+00	0	39	0	288358400	55	4158
2026-01-30 08:29:51.78	86.85	19.60	-41.7	-43.1	18.9	0.00e+00	0	39	0	291504128	55	4123
2026-01-30 08:29:52.50	86.70	19.65	-41.6	-43.0	19.0	0.00e+00	0	39	0	292552704	55	4080
2026-01-30 08:29:53.79	86.44	19.74	-41.6	-43.0	19.0	0.00e+00	0	39	0	294649856	55	4054
2026-01-30 08:29:54.51	86.29	19.79	-41.5	-42.9	19.1	0.00e+00	0	39	0	296747008	55	4020
2026-01-30 08:29:55.80	86.02	19.89	-41.5	-42.9	19.1	0.00e+00	0	39	0	298844160	54	4256
2026-01-30 08:29:56.52	85.87	19.94	-41.6	-43.0	19.1	0.00e+00	0	39	0	299892736	54	4300
2026-01-30 08:29:57.81	85.60	20.03	-41.5	-42.9	19.1	0.00e+00	0	39	0	301989888	54	4276
2026-01-30 08:29:58.60	85.43	20.09	-41.5	-42.9	19.1	0.00e+00	0	39	0	304087040	54	4266
2026-01-30 08:29:59.74	85.19	20.17	-41.5	-42.9	19.1	0.00e+00	0	39	0	306184192	54	4273
2026-01-30 08:30:00.60	85.01	20.23	-41.6	-43.0	19.0	0.00e+00	0	39	0	307232768	54	4334
2026-01-30 08:30:01.75	84.76	20.31	-41.5	-42.9	19.2	0.00e+00	0	39	0	310378496	54	4255
2026-01-30 08:30:02.61	84.58	20.37	-41.4	-42.8	19.2	0.00e+00	0	39	0	311427072	54	4198
2026-01-30 08:30:03.75	84.33	20.45	-41.3	-42.7	19.3	0.00e+00	0	39	0	313524224	54	4152
2026-01-30 08:30:04.61	84.14	20.51	-41.3	-42.6	19.4	0.00e+00	0	39	0	315621376	54	4137
2026-01-30 08:30:05.76	83.89	20.59	-41.2	-42.5	19.5	0.00e+00	0	39	0	317718528	54	4059
2026-01-30 08:30:06.62	83.70	20.65	-41.3	-42.6	19.4	0.00e+00	0	39	0	318767104	54	4126
2026-01-30 08:30:07.76	83.45	20.73	-41.3	-42.6	19.4	0.00e+00	0	39	0	320864256	54	4133
2026-01-30 08:30:08.62	83.26	20.79	-41.2	-42.4	19.6	0.00e+00	0	38	0	322961408	54	4048
2026-01-30 08:30:09.77	83.01	20.87	-41.1	-42.3	19.7	0.00e+00	0	39	0	325058560	54	4000
2026-01-30 08:30:10.70	82.80	20.93	-41.1	-42.3	19.6	0.00e+00	0	39	0	327155712	54	4003
2026-01-30 08:30:11.87	82.54	21.01	-41.0	-42.3	19.7	0.00e+00	0	39	0	329252864	54	3965
2026-01-30 08:30:12.74	82.34	21.07	-40.9	-42.2	19.8	0.00e+00	0	39	0	330301440	53	4159
2026-01-30 08:30:13.89	82.08	21.15	-41.1	-42.4	19.6	0.00e+00	0	39	0	332398592	53	4259
2026-01-30 08:30:14.81	81.88	21.21	-41.1	-42.4	19.6	0.00e+00	0	39	0	334495744	53	4253
2026-01-30 08:30:15.82	81.65	21.28	-41.1	-42.4	19.6	0.00e+00	0	39	0	336592896	53	4283
2026-01-30 08:30:16.82	81.42	21.35	-41.2	-42.5	19.5	0.00e+00	0	39	0	337641472	53	4306
2026-01-30 08:30:17.82	81.19	21.41	-41.1	-42.4	19.6	0.00e+00	0	39	0	339738624	53	4279
2026-01-30 08:30:18.82	80.96	21.48	-41.1	-42.4	19.6	0.00e+00	0	39	0	341835776	53	4263
2026-01-30 08:30:19.82	80.72	21.54	-41.1	-42.4	19.7	0.00e+00	0	39	0	343932928	53	4249
2026-01-30 08:30:20.83	80.49	21.61	-41.3	-42.5	19.5	0.00e+00	0	39	0	346030080	53	4322
2026-01-30 08:30:21.83	80.26	21.67	-41.3	-42.6	19.5	0.00e+00	0	39	0	347078656	53	4349
2026-01-30 08:30:22.83	80.02	21.74	-41.4	-42.7	19.4	0.00e+00	0	39	0	349175808	53	4416
2026-01-30 08:30:23.88	79.77	21.81	-41.6	-42.9	19.3	0.00e+00	0	39	0	351272960	53	4514
2026-01-30 08:30:24.74	79.57	21.86	-41.6	-42.9	19.3	0.00e+00	0	39	0	353370112	53	4505
2026-01-30 08:30:26.08	79.25	21.95	-41.5	-42.8	19.4	0.00e+00	0	39	0	355467264	53	4467
2026-01-30 08:30:26.80	79.08	21.99	-41.6	-42.9	19.3	0.00e+00	0	39	0	356515840	53	4533
2026-01-30 08:30:28.09	78.77	22.07	-41.6	-42.9	19.3	0.00e+00	0	39	0	359661568	53	4529
2026-01-30 08:30:28.80	78.60	22.12	-41.7	-43.0	19.2	0.00e+00	0	39	0	360710144	53	4550
2026-01-30 08:30:30.09	78.29	22.20	-41.8	-43.1	19.2	0.00e+00	0	39	0	362807296	54	4362
2026-01-30 08:30:30.87	78.10	22.25	-41.7	-43.0	19.2	0.00e+00	0	39	0	364904448	54	4331
2026-01-30 08:30:32.16	77.78	22.33	-41.7	-43.0	19.3	0.00e+00	0	39	0	367001600	54	4306
2026-01-30 08:30:32.97	77.59	22.37	-41.6	-42.9	19.4	0.00e+00	0	39	0	368050176	54	4267
2026-01-30 08:30:34.12	77.30	22.44	-41.5	-42.8	19.4	0.00e+00	0	39	0	370147328	54	4227
2026-01-30 08:30:35.20	77.04	22.51	-41.6	-43.0	19.3	0.00e+00	0	39	0	372244480	54	4292
2026-01-30 08:30:36.25	76.78	22.57	-41.4	-42.6	19.6	0.00e+00	0	39	0	374341632	54	4130
2026-01-30 08:30:37.13	76.56	22.62	-41.4	-42.6	19.6	0.00e+00	0	39	0	376438784	54	4131
2026-01-30 08:30:38.27	76.27	22.69	-41.4	-42.6	19.6	0.00e+00	0	39	0	378535936	54	4135
2026-01-30 08:30:39.13	76.06	22.74	-41.4	-42.7	19.5	0.00e+00	0	39	0	379584512	54	4151
2026-01-30 08:30:40.27	75.77	22.81	-41.5	-42.8	19.4	0.00e+00	0	39	0	381681664	54	4226
2026-01-30 08:30:41.13	75.55	22.85	-41.5	-42.8	19.3	0.00e+00	0	39	0	383778816	54	4238
2026-01-30 08:30:42.28	75.26	22.92	-41.3	-42.6	19.5	0.00e+00	0	39	0	385875968	54	4100
2026-01-30 08:30:43.14	75.04	22.97	-41.3	-42.6	19.6	0.00e+00	0	39	0	387973120	54	4105
2026-01-30 08:30:44.30	74.75	23.03	-41.1	-42.3	19.8	0.00e+00	0	39	0	390070272	54	4001
2026-01-30 08:30:45.16	74.53	23.08	-41.1	-42.3	19.8	0.00e+00	0	39	0	391118848	54	3992
2026-01-30 08:30:46.40	74.21	23.15	-41.0	-42.2	19.9	0.00e+00	0	39	0	393216000	54	3938
2026-01-30 08:30:47.26	73.99	23.19	-40.9	-42.1	20.0	0.00e+00	0	39	0	395313152	53	4116
2026-01-30 08:30:48.40	73.69	23.26	-41.0	-42.2	19.9	0.00e+00	0	39	0	397410304	53	4175
2026-01-30 08:30:49.26	73.47	23.30	-40.9	-42.1	20.0	0.00e+00	0	39	0	398458880	53	4110
2026-01-30 08:30:50.41	73.17	23.36	-40.9	-42.0	20.0	0.00e+00	0	39	0	401604608	53	4087
2026-01-30 08:30:51.27	72.94	23.41	-40.7	-41.9	20.2	0.00e+00	0	39	0	402653184	53	4013
2026-01-30 08:30:52.41	72.64	23.47	-40.8	-41.9	20.2	0.00e+00	0	39	0	404750336	53	4039
2026-01-30 08:30:53.27	72.42	23.51	-40.8	-41.9	20.2	0.00e+00	0	39	0	406847488	53	4046
2026-01-30 08:30:54.67	72.05	23.58	-41.0	-42.2	19.9	0.00e+00	0	39	0	408944640	53	4158
2026-01-30 08:30:55.39	71.86	23.62	-41.1	-42.3	19.8	0.00e+00	0	39	0	409993216	53	4236
2026-01-30 08:30:56.68	71.51	23.68	-41.2	-42.4	19.7	0.00e+00	0	39	0	413138944	53	4256
2026-01-30 08:30:57.39	71.32	23.71	-41.3	-42.5	19.7	0.00e+00	0	39	0	414187520	53	4316
2026-01-30 08:30:58.68	70.98	23.78	-41.5	-42.8	19.3	0.00e+00	0	39	0	416284672	53	4492
2026-01-30 08:30:59.46	70.77	23.81	-41.6	-42.9	19.2	0.00e+00	0	39	0	418381824	53	4538
2026-01-30 08:31:00.75	70.42	23.87	-41.5	-42.8	19.4	0.00e+00	0	39	0	420478976	53	4453
2026-01-30 08:31:01.47	70.23	23.91	-41.5	-42.8	19.4	0.00e+00	0	39	0	421527552	53	4460
2026-01-30 08:31:02.75	69.88	23.96	-41.5	-42.8	19.4	0.00e+00	0	39	0	424673280	53	4452
2026-01-30 08:31:03.47	69.68	24.00	-41.5	-42.8	19.4	0.00e+00	0	39	0	425721856	53	4463
2026-01-30 08:31:04.76	69.33	24.05	-41.6	-42.9	19.3	0.00e+00	0	39	0	427819008	53	4494
2026-01-30 08:31:05.68	69.08	24.09	-41.6	-42.9	19.3	0.00e+00	0	39	0	429916160	53	4516
2026-01-30 08:31:06.69	68.81	24.14	-41.7	-43.0	19.2	0.00e+00	0	39	0	432013312	54	4330
2026-01-30 08:31:07.69	68.53	24.18	-41.9	-43.3	18.9	0.00e+00	0	39	0	433061888	54	4459
2026-01-30 08:31:08.69	68.25	24.22	-41.9	-43.2	19.0	0.00e+00	0	39	0	435159040	54	4421
2026-01-30 08:31:09.69	67.98	24.26	-41.9	-43.3	19.0	0.00e+00	0	39	0	437256192	54	4445
2026-01-30 08:31:10.69	67.70	24.30	-41.9	-43.3	18.9	0.00e+00	0	39	0	439353344	54	4459
2026-01-30 08:31:11.76	67.40	24.35	-42.1	-43.5	18.7	0.00e+00	0	39	0	441450496	54	4570
2026-01-30 08:31:12.65	67.16	24.38	-42.3	-43.7	18.5	0.00e+00	0	39	0	442499072	55	4431
2026-01-30 08:31:13.70	66.86	24.42	-42.3	-43.8	18.5	0.00e+00	0	39	0	444596224	55	4451
2026-01-30 08:31:14.59	66.61	24.45	-42.4	-43.8	18.4	0.00e+00	0	39	0	446693376	55	4483
2026-01-30 08:31:15.74	66.29	24.50	-42.4	-43.9	18.4	0.00e+00	0	39	0	448790528	55	4494
2026-01-30 08:31:16.79	66.00	24.54	-42.6	-44.1	18.1	0.00e+00	0	39	0	450887680	55	4615
2026-01-30 08:31:17.86	65.70	24.57	-42.6	-44.0	18.2	0.00e+00	0	39	0	452984832	55	4593
2026-01-30 08:31:18.88	65.41	24.61	-42.6	-44.1	18.1	0.00e+00	0	39	0	454033408	55	4631
2026-01-30 08:31:19.88	65.12	24.64	-42.9	-44.5	17.9	0.00e+00	0	39	0	456130560	56	4560
2026-01-30 08:31:20.88	64.84	24.68	-43.0	-44.6	17.8	0.00e+00	0	39	0	458227712	56	4630
2026-01-30 08:31:21.88	64.56	24.71	-43.0	-44.6	17.8	0.00e+00	0	39	0	460324864	56	4624
2026-01-30 08:31:22.88	64.27	24.74	-42.9	-44.4	18.0	0.00e+00	0	39	0	462422016	56	4514
2026-01-30 08:31:23.88	63.99	24.77	-42.9	-44.4	18.1	0.00e+00	0	39	0	463470592	56	4516
2026-01-30 08:31:24.89	63.70	24.80	-43.0	-44.5	17.9	0.00e+00	0	39	0	465567744	56	4571
2026-01-30 08:31:25.89	63.41	24.83	-43.0	-44.6	17.8	0.00e+00	0	39	0	467664896	56	4628
2026-01-30 08:31:26.89	63.12	24.86	-43.0	-44.6	17.8	0.00e+00	0	39	0	469762048	56	4636
2026-01-30 08:31:27.89	62.84	24.89	-43.0	-44.6	17.8	0.00e+00	0	39	0	471859200	56	4634
2026-01-30 08:31:28.89	62.55	24.92	-43.1	-44.7	17.7	0.00e+00	0	39	0	472907776	56	4684
2026-01-30 08:31:29.90	62.26	24.94	-43.1	-44.8	17.7	0.00e+00	0	39	0	475004928	56	4708
2026-01-30 08:31:30.90	61.97	24.97	-43.3	-45.0	17.5	0.00e+00	0	39	0	477102080	57	4549
2026-01-30 08:31:31.90	61.68	25.00	-43.3	-45.0	17.5	0.00e+00	0	39	0	479199232	57	4557
2026-01-30 08:31:32.90	61.39	25.02	-43.3	-45.0	17.4	0.00e+00	0	39	0	481296384	57	4584
2026-01-30 08:31:33.91	61.09	25.04	-43.4	-45.1	17.4	0.00e+00	0	39	0	482344960	57	4641
2026-01-30 08:31:34.91	60.80	25.07	-43.4	-45.0	17.4	0.00e+00	0	39	0	484442112	57	4587
2026-01-30 08:31:35.91	60.51	25.09	-43.3	-45.0	17.4	0.00e+00	0	39	0	486539264	57	4567
2026-01-30 08:31:36.91	60.22	25.11	-43.4	-45.0	17.4	0.00e+00	0	39	0	488636416	57	4579
2026-01-30 08:31:37.91	59.93	25.13	-43.1	-44.7	17.7	0.00e+00	0	39	0	489684992	57	4401
2026-01-30 08:31:38.92	59.63	25.15	-43.1	-44.7	17.7	0.00e+00	0	39	0	491782144	57	4413
2026-01-30 08:31:39.92	59.34	25.17	-43.1	-44.8	17.7	0.00e+00	0	39	0	493879296	57	4448
2026-01-30 08:31:40.92	59.05	25.19	-43.1	-44.7	17.7	0.00e+00	0	39	0	495976448	57	4409
2026-01-30 08:31:41.93	58.75	25.20	-43.1	-44.8	17.7	0.00e+00	0	39	0	498073600	57	4445
2026-01-30 08:31:42.93	58.46	25.22	-43.2	-44.8	17.6	0.00e+00	0	39	0	499122176	57	4481
2026-01-30 08:31:43.93	58.16	25.24	-43.3	-44.9	17.5	0.00e+00	0	39	0	501219328	57	4525
2026-01-30 08:31:44.94	57.87	25.25	-43.3	-45.0	17.5	0.00e+00	0	39	0	503316480	57	4568
2026-01-30 08:31:45.94	57.57	25.26	-43.3	-45.0	17.4	0.00e+00	0	39	0	505413632	57	4562
2026-01-30 08:31:46.94	57.28	25.28	-43.4	-45.0	17.5	0.00e+00	0	39	0	507510784	57	4589
2026-01-30 08:31:47.94	56.98	25.29	-43.4	-45.0	17.4	0.00e+00	0	39	0	508559360	57	4582
2026-01-30 08:31:48.94	56.69	25.30	-43.3	-45.0	17.4	0.00e+00	0	39	0	510656512	57	4577
2026-01-30 08:31:49.94	56.39	25.31	-43.2	-44.8	17.6	0.00e+00	0	39	0	512753664	57	4475
2026-01-30 08:31:50.95	56.09	25.32	-42.9	-44.5	18.0	0.00e+00	0	39	0	514850816	57	4299
2026-01-30 08:31:51.95	55.80	25.33	-42.8	-44.2	18.2	0.00e+00	0	39	0	516947968	57	4187
2026-01-30 08:31:52.95	55.50	25.34	-42.7	-44.2	18.2	0.00e+00	0	39	0	517996544	57	4170
2026-01-30 08:31:53.96	55.20	25.35	-42.8	-44.3	18.1	0.00e+00	0	39	0	520093696	57	4240
2026-01-30 08:31:55.01	54.89	25.35	-42.9	-44.5	18.0	0.00e+00	0	39	0	522190848	57	4292
2026-01-30 08:31:55.90	54.63	25.36	-42.7	-44.2	18.2	0.00e+00	0	39	0	524288000	57	4182
2026-01-30 08:31:57.04	54.29	25.36	-42.7	-44.2	18.2	0.00e+00	0	39	0	526385152	57	4169
2026-01-30 08:31:57.90	54.04	25.37	-42.5	-44.0	18.4	0.00e+00	0	39	0	527433728	57	4059
2026-01-30 08:31:59.05	53.69	25.37	-42.5	-43.9	18.5	0.00e+00	0	39	0	529530880	56	4279
2026-01-30 08:31:59.91	53.44	25.37	-42.5	-43.9	18.5	0.00e+00	0	39	0	531628032	56	4284
2026-01-30 08:32:01.05	53.10	25.37	-42.4	-43.9	18.6	0.00e+00	0	39	0	533725184	56	4247
2026-01-30 08:32:01.91	52.85	25.37	-42.4	-43.9	18.6	0.00e+00	0	39	0	534773760	56	4247
2026-01-30 08:32:03.06	52.50	25.37	-42.3	-43.6	18.8	0.00e+00	0	39	0	536870912	56	4143
2026-01-30 08:32:03.91	52.25	25.37	-42.3	-43.7	18.7	0.00e+00	0	39	0	538968064	56	4161
2026-01-30 08:32:05.06	51.91	25.37	-42.3	-43.7	18.7	0.00e+00	0	39	0	541065216	56	4179
2026-01-30 08:32:05.92	51.66	25.37	-42.2	-43.6	18.8	0.00e+00	0	39	0	543162368	56	4118
2026-01-30 08:32:07.06	51.32	25.36	-41.8	-43.1	19.2	0.00e+00	0	39	0	545259520	55	4103
2026-01-30 08:32:07.92	51.06	25.36	-41.7	-43.0	19.3	0.00e+00	0	39	0	546308096	55	4054
2026-01-30 08:32:09.07	50.72	25.35	-41.5	-42.7	19.5	0.00e+00	0	39	0	548405248	54	4180
2026-01-30 08:32:09.93	50.47	25.35	-41.4	-42.6	19.6	0.00e+00	0	39	0	550502400	54	4129
2026-01-30 08:32:11.07	50.13	25.34	-41.5	-42.7	19.5	0.00e+00	0	39	0	552599552	54	4190
2026-01-30 08:32:12.05	49.84	25.33	-41.5	-42.7	19.5	0.00e+00	0	39	0	554696704	54	4189
2026-01-30 08:32:13.05	49.55	25.32	-41.5	-42.7	19.5	0.00e+00	0	39	0	555745280	54	4182
2026-01-30 08:32:14.05	49.25	25.32	-41.3	-42.5	19.8	0.00e+00	0	39	0	557842432	54	4061
2026-01-30 08:32:15.05	48.95	25.30	-41.3	-42.5	19.8	0.00e+00	0	39	0	559939584	54	4053
2026-01-30 08:32:16.06	48.66	25.29	-41.0	-42.2	20.0	0.00e+00	0	39	0	562036736	54	3923
2026-01-30 08:32:17.06	48.36	25.28	-41.0	-42.2	20.0	0.00e+00	0	39	0	563085312	53	4164
2026-01-30 08:32:18.06	48.07	25.27	-41.1	-42.3	19.8	0.00e+00	0	39	0	565182464	53	4234
2026-01-30 08:32:19.06	47.77	25.26	-41.0	-42.2	20.0	0.00e+00	0	39	0	567279616	53	4165
2026-01-30 08:32:20.06	47.48	25.24	-40.9	-42.1	20.1	0.00e+00	0	39	0	569376768	53	4116
2026-01-30 08:32:21.07	47.18	25.23	-40.9	-42.1	20.1	0.00e+00	0	39	0	571473920	53	4107
2026-01-30 08:32:22.07	46.89	25.21	-40.9	-42.0	20.2	0.00e+00	0	39	0	572522496	53	4092
2026-01-30 08:32:23.07	46.60	25.19	-41.0	-42.2	20.0	0.00e+00	0	39	0	574619648	53	4156
2026-01-30 08:32:24.14	46.28	25.17	-41.1	-42.2	19.9	0.00e+00	0	39	0	576716800	53	4190
2026-01-30 08:32:25.02	46.02	25.16	-41.0	-42.2	20.0	0.00e+00	0	39	0	578813952	53	4177
2026-01-30 08:32:26.16	45.69	25.13	-40.9	-42.0	20.1	0.00e+00	0	39	0	580911104	53	4087
2026-01-30 08:32:27.12	45.41	25.12	-40.9	-42.1	20.1	0.00e+00	0	39	0	581959680	53	4106
2026-01-30 08:32:28.30	45.07	25.09	-40.9	-42.1	20.1	0.00e+00	0	39	0	585105408	53	4135
2026-01-30 08:32:29.15	44.82	25.07	-41.1	-42.3	20.0	0.00e+00	0	39	0	586153984	53	4201
2026-01-30 08:32:30.51	44.43	25.04	-41.2	-42.4	19.8	0.00e+00	0	39	0	589299712	53	4257
2026-01-30 08:32:31.22	44.22	25.02	-41.2	-42.5	19.7	0.00e+00	0	39	0	590348288	53	4296
2026-01-30 08:32:32.51	43.85	24.99	-41.2	-42.4	19.8	0.00e+00	0	39	0	592445440	53	4281
2026-01-30 08:32:33.23	43.64	24.98	-41.2	-42.4	19.8	0.00e+00	0	39	0	593494016	53	4286
2026-01-30 08:32:34.52	43.27	24.94	-41.3	-42.5	19.7	0.00e+00	0	39	0	596639744	53	4323
2026-01-30 08:32:35.23	43.06	24.92	-41.3	-42.5	19.7	0.00e+00	0	39	0	597688320	53	4322
2026-01-30 08:32:36.52	42.69	24.89	-41.3	-42.5	19.7	0.00e+00	0	39	0	599785472	53	4340
2026-01-30 08:32:37.24	42.48	24.87	-41.3	-42.5	19.7	0.00e+00	0	39	0	601882624	53	4334
2026-01-30 08:32:38.52	42.12	24.83	-41.4	-42.7	19.6	0.00e+00	0	39	0	603979776	53	4412
2026-01-30 08:32:39.24	41.91	24.81	-41.4	-42.7	19.6	0.00e+00	0	39	0	605028352	53	4399
2026-01-30 08:32:40.53	41.54	24.77	-41.6	-42.9	19.4	0.00e+00	0	39	0	607125504	53	4500
2026-01-30 08:32:41.24	41.34	24.75	-41.7	-43.0	19.3	0.00e+00	0	39	0	609222656	53	4561
2026-01-30 08:32:42.53	40.97	24.71	-41.8	-43.1	19.1	0.00e+00	0	39	0	611319808	54	4367
2026-01-30 08:32:43.25	40.77	24.68	-41.7	-43.1	19.2	0.00e+00	0	39	0	612368384	54	4341
2026-01-30 08:32:44.68	40.36	24.64	-41.9	-43.2	19.0	0.00e+00	0	39	0	615514112	54	4439
2026-01-30 08:32:45.65	40.09	24.60	-42.0	-43.4	18.9	0.00e+00	0	39	0	617611264	54	4508
2026-01-30 08:32:46.99	39.71	24.56	-42.0	-43.4	18.9	0.00e+00	0	39	0	619708416	54	4516
2026-01-30 08:32:47.71	39.51	24.53	-42.0	-43.3	19.0	0.00e+00	0	39	0	620756992	54	4459
2026-01-30 08:32:49.00	39.15	24.48	-41.9	-43.3	19.0	0.00e+00	0	39	0	623902720	54	4465
2026-01-30 08:32:49.71	38.95	24.46	-42.0	-43.4	18.9	0.00e+00	0	39	0	624951296	54	4513
2026-01-30 08:32:51.00	38.59	24.41	-42.1	-43.4	18.8	0.00e+00	0	39	0	627048448	54	4534
2026-01-30 08:32:51.72	38.39	24.38	-42.2	-43.6	18.7	0.00e+00	0	39	0	628097024	54	4601
2026-01-30 08:32:53.01	38.03	24.33	-42.3	-43.7	18.6	0.00e+00	0	39	0	631242752	55	4431
2026-01-30 08:32:53.72	37.83	24.30	-42.3	-43.7	18.5	0.00e+00	0	39	0	632291328	55	4440
2026-01-30 08:32:55.09	37.46	24.25	-42.5	-44.0	18.3	0.00e+00	0	39	0	634388480	55	4558
2026-01-30 08:32:56.07	37.19	24.21	-42.5	-44.0	18.3	0.00e+00	0	39	0	636485632	55	4567
2026-01-30 08:32:57.39	36.82	24.15	-42.6	-44.1	18.2	0.00e+00	0	39	0	639631360	55	4605
2026-01-30 08:32:58.11	36.63	24.12	-42.6	-44.0	18.3	0.00e+00	0	39	0	640679936	55	4595
2026-01-30 08:32:59.39	36.28	24.06	-42.8	-44.3	18.2	0.00e+00	0	39	0	642777088	56	4464
2026-01-30 08:33:00.11	36.08	24.03	-42.8	-44.3	18.2	0.00e+00	0	39	0	643825664	56	4475
2026-01-30 08:33:01.41	35.73	23.97	-42.9	-44.4	18.1	0.00e+00	0	39	0	646971392	56	4508
2026-01-30 08:33:02.12	35.54	23.94	-42.9	-44.4	18.1	0.00e+00	0	39	0	648019968	56	4496
2026-01-30 08:33:03.40	35.19	23.88	-42.8	-44.3	18.2	0.00e+00	0	39	0	650117120	56	4480
2026-01-30 08:33:04.14	34.99	23.85	-42.9	-44.4	18.1	0.00e+00	0	39	0	652214272	56	4506
2026-01-30 08:33:05.42	34.65	23.79	-42.9	-44.5	18.0	0.00e+00	0	39	0	654311424	56	4583
2026-01-30 08:33:06.17	34.45	23.75	-43.0	-44.7	17.9	0.00e+00	0	39	0	655360000	56	4660
2026-01-30 08:33:07.45	34.11	23.69	-43.2	-44.8	17.7	0.00e+00	0	39	0	658505728	56	4730
2026-01-30 08:33:08.20	33.91	23.66	-43.3	-44.9	17.6	0.00e+00	0	39	0	659554304	57	4537
2026-01-30 08:33:09.48	33.57	23.59	-43.3	-44.9	17.6	0.00e+00	0	39	0	661651456	57	4508
2026-01-30 08:33:10.22	33.37	23.56	-43.2	-44.8	17.8	0.00e+00	0	39	0	662700032	57	4450
2026-01-30 08:33:11.50	33.04	23.49	-43.1	-44.6	17.9	0.00e+00	0	39	0	665845760	57	4384
2026-01-30 08:33:12.28	32.83	23.45	-43.1	-44.7	17.9	0.00e+00	0	39	0	666894336	57	4405
2026-01-30 08:33:13.54	32.50	23.39	-43.0	-44.6	18.0	0.00e+00	0	39	0	668991488	57	4365
2026-01-30 08:33:14.32	32.30	23.35	-43.0	-44.6	18.1	0.00e+00	0	39	0	671088640	57	4358
2026-01-30 08:33:15.56	31.98	23.28	-43.1	-44.6	18.1	0.00e+00	0	39	0	673185792	57	4385
2026-01-30 08:33:16.41	31.76	23.23	-43.2	-44.8	18.0	0.00e+00	0	39	0	675282944	57	4462
2026-01-30 08:33:17.55	31.47	23.17	-43.3	-44.9	17.8	0.00e+00	0	39	0	677380096	57	4529
2026-01-30 08:33:18.41	31.25	23.13	-43.5	-45.2	17.6	0.00e+00	0	39	0	678428672	57	4676
2026-01-30 08:33:19.55	30.95	23.06	-43.8	-45.5	17.3	0.00e+00	0	39	0	680525824	58	4577
2026-01-30 08:33:20.40	30.74	23.02	-43.8	-45.5	17.3	0.00e+00	0	39	0	682622976	58	4584
2026-01-30 08:33:21.54	30.45	22.95	-43.7	-45.4	17.4	0.00e+00	0	39	0	684720128	58	4516
2026-01-30 08:33:22.39	30.23	22.91	-43.7	-45.3	17.5	0.00e+00	0	39	0	685768704	58	4483
2026-01-30 08:33:23.52	29.95	22.84	-43.5	-45.2	17.7	0.00e+00	0	39	0	687865856	58	4395
2026-01-30 08:33:24.37	29.73	22.79	-43.5	-45.0	17.8	0.00e+00	0	39	0	689963008	58	4338
2026-01-30 08:33:25.51	29.45	22.73	-43.4	-45.0	17.9	0.00e+00	0	39	0	692060160	58	4316
2026-01-30 08:33:26.36	29.24	22.68	-43.5	-45.1	17.8	0.00e+00	0	39	0	693108736	58	4371
2026-01-30 08:33:27.50	28.95	22.61	-43.5	-45.2	17.7	0.00e+00	0	39	0	695205888	58	4394
2026-01-30 08:33:28.35	28.74	22.56	-43.5	-45.1	17.8	0.00e+00	0	39	0	697303040	58	4367
2026-01-30 08:33:29.49	28.46	22.49	-43.6	-45.3	17.7	0.00e+00	0	39	0	699400192	58	4442
2026-01-30 08:33:30.35	28.25	22.44	-43.7	-45.3	17.6	0.00e+00	0	39	0	701497344	58	4483
2026-01-30 08:33:31.48	27.97	22.37	-43.6	-45.2	17.9	0.00e+00	0	39	0	703594496	58	4402
2026-01-30 08:33:32.34	27.77	22.32	-43.5	-45.1	17.9	0.00e+00	0	39	0	704643072	58	4354
2026-01-30 08:33:33.47	27.49	22.25	-43.4	-45.0	18.1	0.00e+00	0	39	0	706740224	58	4304
2026-01-30 08:33:34.32	27.29	22.20	-43.2	-44.6	18.4	0.00e+00	0	39	0	708837376	58	4139
2026-01-30 08:33:35.46	27.01	22.13	-43.2	-44.6	18.5	0.00e+00	0	39	0	710934528	58	4136
2026-01-30 08:33:36.32	26.80	22.08	-43.2	-44.6	18.4	0.00e+00	0	39	0	711983104	58	4141
2026-01-30 08:33:37.46	26.53	22.01	-43.2	-44.7	18.4	0.00e+00	0	39	0	714080256	58	4178
2026-01-30 08:33:38.31	26.33	21.95	-43.1	-44.6	18.5	0.00e+00	0	39	0	716177408	58	4113
2026-01-30 08:33:39.45	26.06	21.88	-43.0	-44.5	18.6	0.00e+00	0	39	0	718274560	58	4057
2026-01-30 08:33:40.31	25.86	21.83	-43.0	-44.5	18.5	0.00e+00	0	39	0	719323136	58	4093
2026-01-30 08:33:41.45	25.59	21.75	-42.9	-44.3	18.7	0.00e+00	0	39	0	721420288	57	4242
2026-01-30 08:33:42.30	25.39	21.70	-42.9	-44.4	18.7	0.00e+00	0	39	0	723517440	57	4278
2026-01-30 08:33:43.44	25.12	21.62	-42.7	-44.2	18.9	0.00e+00	0	39	0	725614592	57	4167
2026-01-30 08:33:44.29	24.93	21.57	-42.7	-44.1	18.9	0.00e+00	0	39	0	726663168	57	4128
2026-01-30 08:33:45.43	24.66	21.49	-42.7	-44.1	18.7	0.00e+00	0	39	0	728760320	57	4138
2026-01-30 08:33:46.29	24.47	21.44	-42.6	-44.2	18.6	0.00e+00	0	39	0	730857472	57	4149
2026-01-30 08:33:47.43	24.21	21.36	-42.4	-43.9	18.9	0.00e+00	0	39	0	732954624	56	4243
2026-01-30 08:33:48.29	24.01	21.30	-42.4	-44.0	18.8	0.00e+00	0	39	0	735051776	56	4292
2026-01-30 08:33:49.42	23.75	21.23	-42.3	-43.7	18.9	0.00e+00	0	39	0	737148928	56	4192
2026-01-30 08:33:50.28	23.56	21.17	-42.2	-43.7	19.0	0.00e+00	0	39	0	738197504	56	4172
2026-01-30 08:33:51.42	23.30	21.10	-42.3	-43.8	18.8	0.00e+00	0	39	0	740294656	56	4231
2026-01-30 08:33:52.28	23.11	21.04	-42.4	-43.8	18.8	0.00e+00	0	39	0	742391808	56	4231
2026-01-30 08:33:53.41	22.86	20.96	-42.3	-43.8	18.9	0.00e+00	0	39	0	744488960	56	4197
2026-01-30 08:33:54.27	22.67	20.90	-42.3	-43.7	18.9	0.00e+00	0	39	0	745537536	56	4150
2026-01-30 08:33:55.41	22.41	20.82	-42.3	-43.7	18.9	0.00e+00	0	39	0	747634688	56	4173
2026-01-30 08:33:56.26	22.23	20.77	-42.4	-43.7	18.8	0.00e+00	0	39	0	749731840	56	4188
2026-01-30 08:33:57.41	21.98	20.69	-42.4	-43.8	18.8	0.00e+00	0	39	0	751828992	56	4206
2026-01-30 08:33:58.26	21.79	20.63	-42.4	-43.8	18.8	0.00e+00	0	39	0	752877568	56	4221
2026-01-30 08:33:59.40	21.54	20.55	-42.4	-43.8	18.8	0.00e+00	0	39	0	754974720	56	4218
2026-01-30 08:34:00.25	21.36	20.49	-42.4	-43.9	18.7	0.00e+00	0	39	0	757071872	56	4245
2026-01-30 08:34:01.39	21.11	20.41	-42.4	-43.8	18.8	0.00e+00	0	39	0	759169024	56	4213
2026-01-30 08:34:02.24	20.93	20.35	-42.2	-43.6	18.9	0.00e+00	0	39	0	761266176	56	4122
2026-01-30 08:34:03.38	20.69	20.27	-42.1	-43.4	19.0	0.00e+00	0	39	0	763363328	56	4041
2026-01-30 08:34:04.24	20.51	20.21	-41.8	-43.2	19.0	0.00e+00	0	39	0	764411904	55	4177
2026-01-30 08:34:05.37	20.27	20.13	-41.7	-43.1	19.0	0.00e+00	0	39	0	766509056	55	4131
2026-01-30 08:34:06.22	20.09	20.07	-41.5	-42.9	19.2	0.00e+00	0	39	0	768606208	55	4035
2026-01-30 08:34:07.36	19.85	19.99	-41.5	-42.9	19.2	0.00e+00	0	39	0	770703360	55	4042
2026-01-30 08:34:08.22	19.67	19.93	-41.4	-42.8	19.3	0.00e+00	0	39	0	771751936	54	4231
2026-01-30 08:34:09.35	19.44	19.85	-41.4	-42.8	19.3	0.00e+00	0	39	0	773849088	54	4222
2026-01-30 08:34:10.21	19.26	19.78	-41.4	-42.8	19.3	0.00e+00	0	39	0	775946240	54	4233
2026-01-30 08:34:11.35	19.03	19.70	-41.4	-42.8	19.3	0.00e+00	0	39	0	778043392	54	4214
2026-01-30 08:34:12.20	18.85	19.64	-41.4	-42.8	19.4	0.00e+00	0	39	0	779091968	54	4197
2026-01-30 08:34:13.34	18.62	19.56	-41.4	-42.7	18.5	0.00e+00	0	39	0	781189120	54	4184
2026-01-30 08:34:14.19	18.45	19.50	-41.3	-42.6	19.5	0.00e+00	0	39	0	783286272	54	4129
2026-01-30 08:34:15.33	18.22	19.41	-41.2	-42.5	19.6	0.00e+00	0	39	0	785383424	54	4057
2026-01-30 08:34:16.18	18.05	19.35	-41.2	-42.5	19.6	0.00e+00	0	39	0	786432000	54	4086
2026-01-30 08:34:17.32	17.82	19.27	-41.3	-42.6	19.6	0.00e+00	0	39	0	788529152	54	4102
2026-01-30 08:34:18.17	17.65	19.21	-41.4	-42.7	19.6	0.00e+00	0	39	0	790626304	54	4149
2026-01-30 08:34:19.32	17.43	19.12	-41.4	-42.7	19.6	0.00e+00	0	39	0	792723456	54	4148
2026-01-30 08:34:20.17	17.26	19.06	-41.4	-42.7	19.7	0.00e+00	0	39	0	794820608	54	4163
2026-01-30 08:34:21.32	17.03	18.98	-41.4	-42.7	19.8	0.00e+00	0	39	0	796917760	54	4149
2026-01-30 08:34:22.17	16.87	18.91	-41.5	-42.7	19.7	0.00e+00	0	39	0	797966336	54	4192
2026-01-30 08:34:23.30	16.65	18.83	-41.3	-42.5	20.0	0.00e+00	0	39	0	800063488	54	4097
2026-01-30 08:34:24.15	16.49	18.77	-41.3	-42.6	20.0	0.00e+00	0	39	0	802160640	54	4099
2026-01-30 08:34:25.29	16.27	18.68	-41.4	-42.6	20.0	0.00e+00	0	39	0	804257792	54	4131
2026-01-30 08:34:26.14	16.10	18.62	-41.5	-42.7	19.9	0.00e+00	0	39	0	805306368	54	4164
2026-01-30 08:34:27.28	15.89	18.54	-41.6	-42.8	19.8	0.00e+00	0	39	0	807403520	54	4233
2026-01-30 08:34:28.13	15.73	18.47	-41.7	-42.9	19.7	0.00e+00	0	39	0	809500672	54	4281
2026-01-30 08:34:29.27	15.51	18.39	-41.7	-42.9	19.7	0.00e+00	0	39	0	811597824	54	4266
2026-01-30 08:34:30.13	15.35	18.32	-41.7	-42.9	19.7	0.00e+00	0	39	0	812646400	54	4264
2026-01-30 08:34:31.27	15.14	18.24	-41.7	-42.9	19.7	0.00e+00	0	39	0	814743552	54	4273
2026-01-30 08:34:32.12	14.98	18.18	-41.6	-42.8	19.8	0.00e+00	0	39	0	816840704	54	4238
2026-01-30 08:34:33.25	14.77	18.09	-41.5	-42.7	19.9	0.00e+00	0	39	0	818937856	54	4184
2026-01-30 08:34:34.11	14.62	18.03	-41.4	-42.6	20.0	0.00e+00	0	39	0	821035008	54	4121
2026-01-30 08:34:35.25	14.41	17.94	-41.5	-42.7	19.9	0.00e+00	0	39	0	823132160	54	4190
2026-01-30 08:34:36.10	14.25	17.88	-41.4	-42.7	20.0	0.00e+00	0	39	0	824180736	54	4149
2026-01-30 08:34:37.25	14.05	17.79	-41.3	-42.6	20.0	0.00e+00	0	39	0	826277888	54	4143
2026-01-30 08:34:38.10	13.89	17.73	-41.3	-42.6	20.0	0.00e+00	0	39	0	828375040	54	4138
2026-01-30 08:34:39.24	13.69	17.64	-41.3	-42.7	19.8	0.00e+00	0	39	0	830472192	54	4180
2026-01-30 08:34:40.10	13.54	17.58	-41.2	-42.6	19.8	0.00e+00	0	39	0	831520768	54	4142
2026-01-30 08:34:41.24	13.33	17.49	-41.3	-42.7	19.7	0.00e+00	0	39	0	833617920	54	4168
2026-01-30 08:34:42.10	13.18	17.43	-41.2	-42.6	19.2	0.00e+00	0	39	0	835715072	54	4139
2026-01-30 08:34:43.24	12.98	17.34	-41.1	-42.5	19.8	0.00e+00	0	39	0	837812224	54	4087
2026-01-30 08:34:44.10	12.83	17.28	-41.2	-42.6	19.8	0.00e+00	0	39	0	838860800	54	4105
2026-01-30 08:34:45.24	12.63	17.19	-41.1	-42.4	19.9	0.00e+00	0	39	0	840957952	54	4040
2026-01-30 08:34:46.10	12.49	17.13	-41.1	-42.5	19.8	0.00e+00	0	39	0	843055104	54	4052
2026-01-30 08:34:47.24	12.29	17.04	-41.1	-42.4	19.9	0.00e+00	0	39	0	845152256	54	4035
2026-01-30 08:34:48.09	12.15	16.98	-41.1	-42.5	19.8	0.00e+00	0	39	0	847249408	54	4060
2026-01-30 08:34:49.23	11.95	16.89	-41.2	-42.6	19.7	0.00e+00	0	39	0	849346560	54	4130
2026-01-30 08:34:50.09	11.81	16.83	-41.2	-42.7	19.6	0.00e+00	0	39	0	850395136	54	4172
2026-01-30 08:34:51.22	11.62	16.74	-41.2	-42.7	19.6	0.00e+00	0	39	0	852492288	54	4164
2026-01-30 08:34:52.08	11.47	16.68	-41.3	-42.8	19.5	0.00e+00	0	39	0	854589440	54	4201
2026-01-30 08:34:53.22	11.28	16.59	-41.3	-42.7	19.5	0.00e+00	0	39	0	856686592	54	4192
2026-01-30 08:34:54.07	11.14	16.52	-41.3	-42.7	19.6	0.00e+00	0	39	0	857735168	54	4175
2026-01-30 08:34:55.21	10.95	16.44	-41.4	-42.8	19.5	0.00e+00	0	39	0	859832320	54	4213
2026-01-30 08:34:56.07	10.81	16.37	-41.4	-42.8	19.5	0.00e+00	0	39	0	861929472	54	4213
2026-01-30 08:34:57.21	10.63	16.29	-41.4	-42.8	19.5	0.00e+00	0	39	0	864026624	54	4238
2026-01-30 08:34:58.06	10.49	16.22	-41.5	-43.0	19.3	0.00e+00	0	39	0	865075200	54	4305
2026-01-30 08:34:59.20	10.30	16.14	-41.6	-43.1	19.2	0.00e+00	0	39	0	867172352	54	4391
2026-01-30 08:35:00.05	10.17	16.07	-41.7	-43.2	19.1	0.00e+00	0	39	0	869269504	54	4439
2026-01-30 08:35:01.20	9.98	15.99	-41.8	-43.4	18.9	0.00e+00	0	39	0	871366656	54	4519
2026-01-30 08:35:02.05	9.85	15.92	-41.9	-43.6	18.7	0.00e+00	0	39	0	872415232	54	4601
2026-01-30 08:35:03.19	9.67	15.83	-42.0	-43.7	18.7	0.00e+00	0	39	0	875560960	54	4655
2026-01-30 08:35:04.05	9.53	15.77	-42.0	-43.6	18.7	0.00e+00	0	39	0	876609536	54	4612
2026-01-30 08:35:05.19	9.35	15.68	-42.0	-43.6	18.5	0.00e+00	0	39	0	878706688	54	4630
2026-01-30 08:35:06.04	9.22	15.62	-41.9	-43.5	18.6	0.00e+00	0	39	0	880803840	54	4569
2026-01-30 08:35:07.18	9.04	15.53	-42.0	-43.6	18.6	0.00e+00	0	39	0	882900992	54	4603
2026-01-30 08:35:08.04	8.91	15.47	-41.9	-43.5	18.6	0.00e+00	0	39	0	883949568	54	4593
2026-01-30 08:35:09.18	8.74	15.38	-41.8	-43.4	18.7	0.00e+00	0	39	0	886046720	54	4521
2026-01-30 08:35:10.03	8.61	15.32	-41.7	-43.3	18.8	0.00e+00	0	39	0	888143872	54	4476
2026-01-30 08:35:11.17	8.43	15.23	-41.8	-43.4	18.7	0.00e+00	0	39	0	890241024	54	4503
2026-01-30 08:35:12.02	8.31	15.17	-41.9	-43.5	18.6	0.00e+00	0	39	0	891289600	54	4564
2026-01-30 08:35:13.16	8.13	15.08	-42.0	-43.5	18.6	0.00e+00	0	39	0	893386752	54	4595
2026-01-30 08:35:14.01	8.01	15.02	-42.1	-43.6	18.5	0.00e+00	0	39	0	895483904	54	4647
2026-01-30 08:35:15.16	7.84	14.93	-42.2	-43.8	18.4	0.00e+00	0	39	0	897581056	55	4475
2026-01-30 08:35:16.02	7.71	14.87	-42.3	-43.9	18.4	0.00e+00	0	39	0	898629632	55	4506
2026-01-30 08:35:17.16	7.54	14.78	-42.3	-44.0	18.3	0.00e+00	0	39	0	900726784	55	4573
2026-01-30 08:35:18.01	7.42	14.72	-42.4	-44.1	18.2	0.00e+00	0	39	0	902823936	55	4629
2026-01-30 08:35:19.15	7.25	14.63	-42.2	-43.9	18.5	0.00e+00	0	39	0	904921088	55	4514
2026-01-30 08:35:20.00	7.13	14.57	-42.2	-43.8	18.5	0.00e+00	0	39	0	907018240	55	4489
2026-01-30 08:35:21.14	6.96	14.48	-42.2	-43.9	18.5	0.00e+00	0	39	0	909115392	55	4522
2026-01-30 08:35:22.00	6.84	14.42	-42.3	-44.0	18.4	0.00e+00	0	39	0	910163968	55	4558
2026-01-30 08:35:23.14	6.68	14.33	-42.3	-43.9	18.4	0.00e+00	0	39	0	912261120	55	4536
2026-01-30 08:35:23.99	6.56	14.27	-42.4	-44.1	18.3	0.00e+00	0	39	0	914358272	55	4620
2026-01-30 08:35:25.14	6.39	14.18	-42.5	-44.2	18.2	0.00e+00	0	39	0	916455424	55	4697
2026-01-30 08:35:26.00	6.27	14.12	-42.5	-44.3	18.2	0.00e+00	0	39	0	917504000	55	4710
2026-01-30 08:35:27.14	6.11	14.03	-42.6	-44.5	18.0	0.00e+00	0	39	0	919601152	55	4860
2026-01-30 08:35:27.99	5.99	13.97	-42.9	-44.9	17.9	0.00e+00	0	39	0	921698304	56	4793
2026-01-30 08:35:29.13	5.84	13.88	-43.0	-44.9	17.9	0.00e+00	0	39	0	923795456	56	4800
2026-01-30 08:35:29.99	5.72	13.82	-43.0	-45.0	17.9	0.00e+00	0	39	0	924844032	56	4835
2026-01-30 08:35:31.13	5.56	13.74	-43.2	-45.1	17.9	0.00e+00	0	39	0	926941184	57	4631
2026-01-30 08:35:31.98	5.45	13.67	-43.4	-45.3	17.8	0.00e+00	0	39	0	929038336	57	4725
2026-01-30 08:35:33.12	5.29	13.59	-43.4	-45.1	17.9	0.00e+00	0	39	0	931135488	57	4639
2026-01-30 08:35:33.97	5.18	13.52	-43.4	-45.1	17.9	0.00e+00	0	39	0	933232640	57	4644
2026-01-30 08:35:35.12	5.02	13.44	-43.4	-45.2	17.9	0.00e+00	0	39	0	935329792	57	4657
2026-01-30 08:35:35.96	4.91	13.38	-43.6	-45.4	17.7	0.00e+00	0	39	0	936378368	57	4765
2026-01-30 08:35:37.11	4.76	13.29	-43.7	-45.6	17.5	0.00e+00	0	39	0	938475520	57	4887
2026-01-30 08:35:37.96	4.65	13.23	-43.6	-45.6	17.5	0.00e+00	0	39	0	940572672	58	4630
2026-01-30 08:35:39.10	4.50	13.14	-43.6	-45.7	17.5	0.00e+00	0	39	0	942669824	58	4668
2026-01-30 08:35:39.96	4.38	13.08	-43.7	-45.8	17.4	0.00e+00	0	39	0	943718400	58	4722
2026-01-30 08:35:41.10	4.24	13.00	-43.7	-45.7	17.5	0.00e+00	0	39	0	945815552	58	4704
2026-01-30 08:35:41.95	4.13	12.93	-43.7	-45.7	17.5	0.00e+00	0	39	0	947912704	58	4653
2026-01-30 08:35:43.09	3.98	12.85	-43.8	-45.7	17.5	0.00e+00	0	39	0	950009856	58	4673
2026-01-30 08:35:43.95	3.87	12.79	-43.8	-45.7	17.5	0.00e+00	0	39	0	951058432	58	4690
2026-01-30 08:35:45.09	3.72	12.70	-43.9	-45.7	17.5	0.00e+00	0	39	0	953155584	58	4696
2026-01-30 08:35:45.94	3.61	12.64	-44.0	-45.8	17.5	0.00e+00	0	39	0	955252736	58	4707
2026-01-30 08:35:47.08	3.47	12.56	-44.1	-45.8	17.4	0.00e+00	0	39	0	957349888	58	4733
2026-01-30 08:35:47.94	3.36	12.49	-44.0	-45.8	17.5	0.00e+00	0	39	0	959447040	58	4729
2026-01-30 08:35:49.08	3.22	12.41	-44.1	-46.0	17.3	0.00e+00	0	39	0	961544192	58	4839
2026-01-30 08:35:49.93	3.11	12.35	-44.1	-46.0	17.2	0.00e+00	0	39	0	962592768	58	4845
2026-01-30 08:35:51.07	2.97	12.26	-44.1	-46.1	17.1	0.00e+00	0	39	0	964689920	58	4888
2026-01-30 08:35:51.93	2.87	12.20	-44.1	-46.2	17.0	0.00e+00	0	39	0	966787072	58	4948
2026-01-30 08:35:53.06	2.73	12.12	-44.1	-46.3	16.9	0.00e+00	0	39	0	968884224	58	4993
2026-01-30 08:35:53.92	2.63	12.06	-44.0	-46.2	16.9	0.00e+00	0	39	0	969932800	58	4934
2026-01-30 08:35:55.06	2.49	11.97	-44.0	-46.2	16.9	0.00e+00	0	39	0	972029952	58	4937
2026-01-30 08:35:55.91	2.38	11.91	-44.0	-46.2	16.8	0.00e+00	0	39	0	974127104	58	4938
2026-01-30 08:35:57.05	2.25	11.83	-44.0	-46.2	16.7	0.00e+00	0	39	0	976224256	58	4930
2026-01-30 08:35:57.91	2.15	11.77	-44.0	-46.1	16.8	0.00e+00	0	39	0	977272832	58	4909
2026-01-30 08:35:59.05	2.01	11.69	-44.1	-46.2	16.7	0.00e+00	0	39	0	979369984	58	4951
2026-01-30 08:35:59.90	1.91	11.62	-44.2	-46.2	16.6	0.00e+00	0	39	0	981467136	59	4696
2026-01-30 08:36:01.03	1.78	11.54	-44.0	-46.1	16.6	0.00e+00	0	39	0	983564288	59	4636
2026-01-30 08:36:01.89	1.68	11.48	-44.0	-46.2	16.5	0.00e+00	0	39	0	985661440	59	4665
2026-01-30 08:36:03.03	1.54	11.40	-43.9	-46.1	16.5	0.00e+00	0	39	0	986710016	59	4649
2026-01-30 08:36:03.88	1.44	11.34	-43.9	-46.3	16.3	0.00e+00	0	39	0	988807168	59	4712
2026-01-30 08:36:05.02	1.31	11.26	-44.0	-46.2	16.3	0.00e+00	0	39	0	990904320	59	4698
2026-01-30 08:36:05.88	1.21	11.19	-44.1	-46.4	16.3	0.00e+00	0	39	0	993001472	59	4761
2026-01-30 08:36:07.01	1.09	11.11	-44.2	-46.3	16.2	0.00e+00	0	39	0	995098624	59	4753
2026-01-30 08:36:07.86	0.99	11.05	-44.3	-46.4	16.1	0.00e+00	0	39	0	996147200	59	4804
2026-01-30 08:36:09.00	0.86	10.97	-44.2	-46.3	16.2	0.00e+00	0	39	0	998244352	59	4733
2026-01-30 08:36:09.85	0.77	10.91	-44.1	-46.3	16.2	0.00e+00	0	39	0	1000341504	59	4712
2026-01-30 08:36:11.00	0.64	10.83	-44.2	-46.4	16.1	0.00e+00	0	39	0	1002438656	59	4761
2026-01-30 08:36:11.86	0.54	10.77	-44.0	-46.2	16.1	0.00e+00	0	39	0	1003487232	59	4669
2026-01-30 08:36:13.00	0.41	10.69	-43.8	-46.0	16.3	0.00e+00	0	39	0	1005584384	59	4565
2026-01-30 08:36:13.85	0.32	10.63	-43.9	-46.0	16.2	0.00e+00	0	39	0	1007681536	59	4580
2026-01-30 08:36:15.00	0.20	10.55	-43.8	-46.0	16.3	0.00e+00	0	39	0	1009778688	59	4556
2026-01-30 08:36:15.85	0.10	10.49	-43.8	-45.9	16.3	0.00e+00	0	39	0	1010827264	59	4545
2026-01-30 08:36:16.99	359.98	10.40	-43.9	-46.1	16.2	0.00e+00	0	39	0	1013972992	59	4619
2026-01-30 08:36:17.84	359.89	10.34	-43.9	-46.1	16.3	0.00e+00	0	39	0	1015021568	59	4625
2026-01-30 08:36:18.98	359.76	10.26	-43.9	-46.2	16.2	0.00e+00	0	39	0	1017118720	59	4667
2026-01-30 08:36:19.83	359.67	10.20	-44.0	-46.3	16.2	0.00e+00	0	39	0	1019215872	59	4743
2026-01-30 08:36:20.98	359.55	10.12	-43.9	-46.2	16.2	0.00e+00	0	39	0	1021313024	59	4694
2026-01-30 08:36:21.83	359.46	10.06	-44.0	-46.4	16.1	0.00e+00	0	39	0	1022361600	59	4785
2026-01-30 08:36:22.98	359.34	9.98	-44.0	-46.4	16.2	0.00e+00	0	39	0	1024458752	59	4763
2026-01-30 08:36:23.83	359.25	9.92	-44.1	-46.5	16.1	0.00e+00	0	39	0	1026555904	59	4819
2026-01-30 08:36:24.97	359.13	9.85	-44.0	-46.4	16.1	0.00e+00	0	39	0	1028653056	59	4799
2026-01-30 08:36:25.83	359.04	9.79	-44.0	-46.4	16.1	0.00e+00	0	39	0	1029701632	59	4813
2026-01-30 08:36:26.97	358.93	9.71	-44.0	-46.4	16.2	0.00e+00	0	39	0	1031798784	59	4801
2026-01-30 08:36:27.82	358.84	9.65	-44.0	-46.5	16.1	0.00e+00	0	39	0	1033895936	59	4835
2026-01-30 08:36:28.96	358.72	9.57	-44.0	-46.5	16.2	0.00e+00	0	39	0	1035993088	59	4818
2026-01-30 08:36:29.82	358.63	9.51	-44.0	-46.6	16.1	0.00e+00	0	39	0	1037041664	59	4878
2026-01-30 08:36:30.96	358.52	9.43	-44.0	-46.7	16.1	0.00e+00	0	39	0	1039138816	59	4936
2026-01-30 08:36:31.81	358.43	9.37	-44.0	-46.8	15.9	0.00e+00	0	39	0	1041235968	59	5026
2026-01-30 08:36:32.95	358.32	9.29	-44.0	-46.9	15.9	0.00e+00	0	39	0	1043333120	59	5080
2026-01-30 08:36:33.80	358.23	9.23	-44.1	-47.1	15.7	0.00e+00	0	39	0	1045430272	59	5182
2026-01-30 08:36:34.94	358.12	9.16	-44.1	-47.3	15.6	0.00e+00	0	39	0	1047527424	59	5303
2026-01-30 08:36:35.79	358.04	9.10	-44.2	-47.4	15.5	0.00e+00	0	39	0	1048576000	59	5374
2026-01-30 08:36:36.94	357.92	9.02	-44.2	-47.6	15.4	0.00e+00	0	39	0	1050673152	59	5465
2026-01-30 08:36:37.79	357.84	8.96	-46.3	-52.8	10.8	0.00e+00	0	39	0	1052770304	63	7959
2026-01-30 08:36:38.93	357.73	8.88	-49.8	-64.4	3.8	1.49e+00	0	39	104	1052770304	70	20241
2026-01-30 08:36:39.78	357.65	8.82	-49.7	-64.7	3.8	1.49e+00	0	39	104	1052770304	70	20965
2026-01-30 08:36:40.93	357.54	8.75	-50.2	-64.8	3.8	1.49e+00	0	39	104	1052770304	71	20037
2026-01-30 08:36:41.78	357.45	8.69	-50.5	-64.9	3.8	1.49e+00	0	39	104	1052770304	71	20135
2026-01-30 08:36:42.92	357.35	8.61	-49.6	-65.0	3.8	1.49e+00	0	39	104	1052770304	71	20413
2026-01-30 08:36:43.78	357.26	8.55	-50.4	-65.0	3.8	1.49e+00	0	39	104	1052770304	71	20522
2026-01-30 08:36:44.92	357.16	8.48	-50.8	-65.1	3.8	1.49e+00	0	39	104	1052770304	72	19467
2026-01-30 08:36:45.78	357.08	8.42	-50.6	-65.1	3.8	1.49e+00	0	39	104	1052770304	72	19489
2026-01-30 08:36:46.92	356.97	8.34	-49.5	-65.1	3.8	1.49e+00	0	39	104	1052770304	71	20735
2026-01-30 08:36:47.77	356.89	8.28	-50.6	-65.1	3.8	1.49e+00	0	39	104	1052770304	72	19490
2026-01-30 08:36:48.91	356.78	8.21	-50.5	-65.2	3.8	1.49e+00	0	39	104	1052770304	71	20871
2026-01-30 08:36:49.77	356.70	8.15	-50.7	-65.2	3.8	1.49e+00	0	39	104	1052770304	72	19796
2026-01-30 08:36:50.91	356.60	8.07	-50.9	-65.3	3.8	1.49e+00	0	39	104	1052770304	72	19949
2026-01-30 08:36:51.77	356.52	8.02	-50.4	-65.4	3.8	1.49e+00	0	39	104	1052770304	71	21340
2026-01-30 08:36:52.92	356.42	7.94	-50.9	-65.4	3.8	1.49e+00	0	39	104	1052770304	72	20133
2026-01-30 08:36:53.77	356.34	7.88	-51.0	-65.3	3.8	1.49e+00	0	39	104	1052770304	72	20043
2026-01-30 08:36:54.92	356.23	7.81	-50.9	-65.4	3.8	1.49e+00	0	39	104	1052770304	72	20078
2026-01-30 08:36:55.77	356.16	7.75	-50.7	-65.3	3.8	1.49e+00	0	39	104	1052770304	72	19971
2026-01-30 08:36:56.92	356.06	7.67	-50.9	-65.3	3.8	1.49e+00	0	39	104	1052770304	72	19924
2026-01-30 08:36:57.78	355.98	7.62	-50.9	-65.2	3.8	1.49e+00	0	39	104	1052770304	72	19824
2026-01-30 08:36:58.92	355.88	7.54	-50.8	-65.2	3.8	1.49e+00	0	39	104	1052770304	72	19718
2026-01-30 08:36:59.78	355.80	7.48	-50.6	-65.1	3.8	1.49e+00	0	39	104	1052770304	72	19491
2026-01-30 08:37:00.92	355.70	7.41	-50.6	-64.9	3.8	1.49e+00	0	39	104	1052770304	72	19066
2026-01-30 08:37:01.78	355.63	7.35	-50.4	-64.8	3.8	1.49e+00	0	39	104	1052770304	72	18798
2026-01-30 08:37:02.92	355.53	7.28	-50.4	-64.7	3.8	1.49e+00	0	39	104	1052770304	72	18701
2026-01-30 08:37:03.78	355.45	7.22	-50.4	-64.7	3.8	1.49e+00	0	39	104	1052770304	72	18678
2026-01-30 08:37:04.92	355.36	7.14	-50.4	-64.7	3.8	1.49e+00	0	39	104	1052770304	72	18675
2026-01-30 08:37:05.78	355.28	7.09	-50.3	-64.7	3.8	1.49e+00	0	39	104	1052770304	72	18556
2026-01-30 08:37:06.92	355.19	7.01	-50.3	-64.7	3.8	1.49e+00	0	39	104	1052770304	72	18527
2026-01-30 08:37:07.78	355.11	6.96	-50.3	-64.6	3.8	1.49e+00	0	39	104	1052770304	72	18481
2026-01-30 08:37:08.93	355.02	6.88	-50.3	-64.6	3.8	1.49e+00	0	39	104	1052770304	72	18430
2026-01-30 08:37:09.79	354.94	6.83	-50.2	-64.6	3.8	1.49e+00	0	39	104	1052770304	72	18402
2026-01-30 08:37:10.93	354.85	6.75	-50.2	-64.5	3.8	1.49e+00	0	39	104	1052770304	72	18288
2026-01-30 08:37:11.79	354.78	6.70	-50.2	-64.5	3.8	1.49e+00	0	39	104	1052770304	72	18268
2026-01-30 08:37:12.94	354.68	6.62	-50.2	-64.6	3.8	1.49e+00	0	39	104	1052770304	72	18406
2026-01-30 08:37:13.79	354.61	6.57	-50.2	-64.6	3.8	1.49e+00	0	39	104	1052770304	72	18474
2026-01-30 08:37:14.94	354.52	6.49	-50.3	-64.6	3.8	1.49e+00	0	39	104	1052770304	72	18460
2026-01-30 08:37:15.79	354.45	6.44	-50.3	-64.6	3.8	1.49e+00	0	39	104	1052770304	72	18493
2026-01-30 08:37:16.94	354.35	6.37	-50.3	-64.6	3.8	1.49e+00	0	39	104	1052770304	72	18433
2026-01-30 08:37:17.79	354.29	6.31	-50.3	-64.7	3.8	1.49e+00	0	39	104	1052770304	72	18540
2026-01-30 08:37:18.94	354.19	6.24	-50.3	-64.7	3.8	1.49e+00	0	39	104	1052770304	72	18542
2026-01-30 08:37:19.79	354.12	6.18	-50.3	-64.7	3.8	1.49e+00	0	39	104	1052770304	72	18564
2026-01-30 08:37:20.94	354.03	6.11	-50.3	-64.6	3.8	1.49e+00	0	39	104	1052770304	72	18477
2026-01-30 08:37:21.79	353.96	6.06	-50.2	-64.6	3.8	1.49e+00	0	39	104	1052770304	72	18492
2026-01-30 08:37:22.93	353.87	5.98	-50.2	-64.6	3.8	1.49e+00	0	39	104	1052770304	72	18448
2026-01-30 08:37:23.78	353.81	5.93	-50.3	-64.6	3.8	1.49e+00	0	39	104	1052770304	72	18488
2026-01-30 08:37:24.93	353.72	5.86	-50.3	-64.7	3.8	1.49e+00	0	39	104	1052770304	72	18617
2026-01-30 08:37:25.79	353.65	5.80	-50.4	-64.7	3.8	1.49e+00	0	39	104	1052770304	72	18619
2026-01-30 08:37:26.93	353.56	5.73	-50.4	-64.7	3.8	1.49e+00	0	39	104	1052770304	72	18731
2026-01-30 08:37:27.78	353.50	5.68	-50.4	-64.8	3.8	1.49e+00	0	39	104	1052770304	72	18754
2026-01-30 08:37:28.93	353.41	5.60	-50.4	-64.8	3.8	1.49e+00	0	39	104	1052770304	72	18760
2026-01-30 08:37:29.78	353.34	5.55	-50.4	-64.7	3.8	1.49e+00	0	39	104	1052770304	72	18728
2026-01-30 08:37:30.93	353.25	5.48	-50.3	-64.7	3.8	1.49e+00	0	39	104	1052770304	72	18710
2026-01-30 08:37:31.78	353.19	5.42	-50.4	-64.8	3.8	1.49e+00	0	39	104	1052770304	72	18764
2026-01-30 08:37:32.93	353.10	5.35	-50.4	-64.7	3.8	1.49e+00	0	39	104	1052770304	72	18654
2026-01-30 08:37:33.78	353.04	5.30	-50.3	-64.7	3.8	1.49e+00	0	39	104	1052770304	72	18666
2026-01-30 08:37:34.92	352.95	5.23	-50.3	-64.7	3.8	1.49e+00	0	39	104	1052770304	72	18694
2026-01-30 08:37:35.78	352.89	5.17	-50.4	-64.7	3.8	1.49e+00	0	39	104	1052770304	72	18650
2026-01-30 08:37:36.92	352.81	5.10	-50.4	-64.7	3.8	1.49e+00	0	39	104	1052770304	72	18668

#Closed at: 2026-01-30 08:37:37
#Recorded file [1052 MB]: D:/Data/31040_260130_112626.dat