passes_logs/2026/01/30/T1/T1__20260130_015538_NOAA_20_JPSS-1_rec.log

#Pass ID: 20260130_015538_NOAA 20 (JPSS-1)
#Satellite: NOAA 20 (JPSS-1)
#Configuration: NOAA 20
#almurnet v.1.7.20251203
#Start time: 2026-01-30 01:55:40

#Version: 2.0.20230620
#Station: T1
#Location: 37.570604 lon 55.790049 lat
#TLE: 1 43013U 17073A   26028.86313978  .00000144  00000+0  89200-4 0  9993
#TLE: 2 43013  98.7648 329.6571 0000891  20.0014 340.1197 14.19541559424709

#Time	Az	El	Level	Level2	SNR	BER	BlckErr	Temp	State	Recorded	gain1	gain2
2026-01-30 01:55:40.45	3.20	5.09	-49.5	-63.8	3.8	1.49e+00	0	41	104	0	70	18745
2026-01-30 01:55:41.44	3.10	5.14	-49.6	-63.8	3.8	1.49e+00	0	41	104	0	70	18817
2026-01-30 01:55:42.45	2.99	5.19	-49.5	-63.8	3.8	1.49e+00	0	41	104	0	70	18861
2026-01-30 01:55:43.46	2.89	5.24	-49.6	-63.8	3.8	1.49e+00	0	41	104	0	70	18783
2026-01-30 01:55:44.46	2.78	5.29	-49.6	-63.8	3.8	1.49e+00	0	41	104	0	70	18762
2026-01-30 01:55:45.46	2.68	5.35	-49.6	-63.8	3.8	1.49e+00	0	41	104	0	70	18837
2026-01-30 01:55:46.47	2.57	5.40	-49.7	-63.8	3.8	1.49e+00	0	41	104	0	70	18772
2026-01-30 01:55:47.47	2.46	5.45	-49.2	-63.8	3.8	1.49e+00	0	41	104	0	70	18804
2026-01-30 01:55:48.48	2.36	5.50	-49.4	-63.8	3.8	1.49e+00	0	41	104	0	70	18762
2026-01-30 01:55:49.48	2.25	5.56	-49.4	-63.7	3.8	1.49e+00	0	41	104	0	70	18716
2026-01-30 01:55:50.49	2.14	5.61	-49.5	-63.8	3.8	1.49e+00	0	41	104	0	70	18794
2026-01-30 01:55:51.49	2.04	5.66	-49.6	-63.7	3.8	1.49e+00	0	41	104	0	70	18715
2026-01-30 01:55:52.50	1.93	5.71	-48.9	-63.8	3.8	1.49e+00	0	41	104	0	69	19857
2026-01-30 01:55:53.50	1.82	5.77	-49.1	-63.7	3.8	1.49e+00	0	41	104	0	69	19819
2026-01-30 01:55:54.50	1.71	5.82	-49.6	-63.7	3.8	1.49e+00	0	41	104	0	69	19777
2026-01-30 01:55:55.51	1.60	5.87	-49.2	-63.8	3.8	1.49e+00	0	41	104	0	69	19903
2026-01-30 01:55:56.51	1.49	5.92	-48.7	-63.8	3.8	1.49e+00	0	41	104	0	69	19874
2026-01-30 01:55:57.51	1.38	5.98	-49.3	-63.7	3.8	1.49e+00	0	41	104	0	69	19710
2026-01-30 01:55:58.52	1.27	6.03	-49.1	-63.7	3.8	1.49e+00	0	41	104	0	69	19685
2026-01-30 01:55:59.52	1.16	6.08	-49.2	-63.7	3.8	1.49e+00	0	41	104	0	69	19626
2026-01-30 01:56:00.53	1.05	6.13	-49.2	-63.7	3.8	1.49e+00	0	41	104	0	68	20787
2026-01-30 01:56:01.53	0.93	6.19	-49.2	-63.6	3.8	1.49e+00	0	42	104	0	69	19452
2026-01-30 01:56:02.53	0.82	6.24	-48.9	-63.5	3.8	1.49e+00	0	42	104	0	68	20516
2026-01-30 01:56:03.54	0.71	6.29	-47.9	-63.3	3.8	1.49e+00	0	41	104	0	67	21244
2026-01-30 01:56:04.54	0.60	6.34	-47.5	-63.2	3.8	1.49e+00	0	42	104	0	66	22190
2026-01-30 01:56:05.55	0.48	6.40	-45.8	-63.2	3.8	1.49e+00	0	42	104	0	63	26296
2026-01-30 01:56:06.55	0.37	6.45	-45.7	-63.2	3.8	1.49e+00	0	42	104	0	63	26238
2026-01-30 01:56:07.56	0.25	6.50	-45.7	-63.2	3.8	1.49e+00	0	42	104	0	63	26278
2026-01-30 01:56:08.56	0.14	6.55	-45.6	-63.2	3.8	1.49e+00	0	42	104	0	63	26183
2026-01-30 01:56:09.56	0.02	6.60	-45.7	-63.2	3.8	1.49e+00	0	42	104	0	63	26220
2026-01-30 01:56:10.57	359.91	6.66	-45.7	-63.1	3.8	1.49e+00	0	42	104	0	63	26138
2026-01-30 01:56:11.57	359.79	6.71	-45.7	-63.2	3.8	1.49e+00	0	42	104	0	63	26245
2026-01-30 01:56:12.58	359.67	6.76	-45.7	-63.1	3.8	1.49e+00	0	42	104	0	63	26138
2026-01-30 01:56:13.58	359.56	6.81	-45.7	-63.1	3.8	1.49e+00	0	42	104	0	63	26156
2026-01-30 01:56:14.58	359.44	6.87	-45.7	-63.1	3.8	1.49e+00	0	42	104	0	63	26104
2026-01-30 01:56:15.59	359.32	6.92	-45.7	-63.1	3.8	1.49e+00	0	42	104	0	63	26116
2026-01-30 01:56:16.60	359.20	6.97	-45.7	-63.1	3.8	1.49e+00	0	42	104	0	63	26121
2026-01-30 01:56:17.60	359.08	7.02	-45.7	-63.2	3.8	1.49e+00	0	42	104	0	63	26195
2026-01-30 01:56:18.60	358.97	7.08	-45.7	-63.2	3.8	1.49e+00	0	42	104	0	63	26233
2026-01-30 01:56:19.61	358.85	7.13	-45.7	-63.2	3.8	1.49e+00	0	42	104	0	63	26294
2026-01-30 01:56:20.61	358.73	7.18	-45.7	-63.1	3.8	1.49e+00	0	42	104	0	63	26119
2026-01-30 01:56:21.62	358.60	7.23	-45.7	-63.1	3.8	1.49e+00	0	42	104	0	63	26135
2026-01-30 01:56:22.62	358.48	7.29	-45.7	-63.1	3.8	1.49e+00	0	42	104	0	63	26130
2026-01-30 01:56:23.62	358.36	7.34	-45.8	-63.1	3.8	1.49e+00	0	42	104	0	63	26116
2026-01-30 01:56:24.63	358.24	7.39	-45.7	-63.1	3.8	1.49e+00	0	42	104	0	63	26106
2026-01-30 01:56:25.63	358.12	7.44	-45.7	-63.2	3.8	1.49e+00	0	42	104	0	63	26187
2026-01-30 01:56:26.64	358.00	7.50	-45.7	-63.2	3.8	1.49e+00	0	42	104	0	63	26238
2026-01-30 01:56:27.64	357.87	7.55	-45.9	-63.2	3.8	1.49e+00	0	42	104	0	63	26194
2026-01-30 01:56:28.65	357.75	7.60	-45.8	-63.2	3.8	1.49e+00	0	42	104	0	63	26193
2026-01-30 01:56:29.65	357.62	7.65	-45.9	-63.2	3.8	1.49e+00	0	42	104	0	63	26270
2026-01-30 01:56:30.65	357.50	7.70	-45.8	-63.2	3.8	1.49e+00	0	42	104	0	63	26288
2026-01-30 01:56:31.66	357.37	7.76	-45.9	-63.2	3.8	1.49e+00	0	42	104	0	63	26205
2026-01-30 01:56:32.66	357.25	7.81	-45.8	-63.2	3.8	1.49e+00	0	42	104	0	63	26188
2026-01-30 01:56:33.67	357.12	7.86	-45.8	-63.2	3.8	1.49e+00	0	42	104	0	63	26209
2026-01-30 01:56:34.67	357.00	7.91	-45.8	-63.1	3.8	1.49e+00	0	42	104	0	63	26044
2026-01-30 01:56:35.68	356.87	7.96	-45.9	-63.1	3.8	1.49e+00	0	42	104	0	63	25893
2026-01-30 01:56:36.68	356.74	8.02	-45.8	-63.1	3.8	1.49e+00	0	42	104	0	63	25879
2026-01-30 01:56:37.69	356.61	8.07	-45.9	-63.1	3.8	1.49e+00	0	42	104	0	63	25891
2026-01-30 01:56:38.69	356.49	8.12	-45.8	-63.1	3.8	1.49e+00	0	42	104	0	63	25972
2026-01-30 01:56:39.70	356.36	8.17	-45.8	-63.0	3.8	1.49e+00	0	42	104	0	63	25852
2026-01-30 01:56:40.70	356.23	8.22	-45.9	-62.9	3.8	1.49e+00	0	42	104	0	63	25338
2026-01-30 01:56:41.70	356.10	8.28	-45.9	-62.6	3.8	1.49e+00	0	43	104	0	63	24539
2026-01-30 01:56:42.71	355.97	8.33	-45.8	-62.1	3.8	1.49e+00	0	42	104	0	63	23081
2026-01-30 01:56:43.71	355.84	8.38	-45.9	-61.6	3.8	1.49e+00	0	43	104	0	63	21810
2026-01-30 01:56:44.72	355.70	8.43	-45.8	-61.0	3.8	1.49e+00	0	43	104	0	63	20507
2026-01-30 01:56:45.72	355.57	8.48	-45.8	-60.5	3.8	1.48e+00	0	43	104	0	63	19375
2026-01-30 01:56:46.73	355.44	8.54	-45.9	-60.1	4.1	1.46e+00	0	42	0	0	63	18322
2026-01-30 01:56:47.73	355.31	8.59	-45.8	-59.9	3.9	1.43e+00	0	43	104	0	63	18030
2026-01-30 01:56:48.73	355.18	8.64	-45.7	-59.7	4.2	1.41e+00	0	43	0	0	63	17645
2026-01-30 01:56:49.74	355.04	8.69	-45.7	-59.3	4.3	1.39e+00	0	43	0	0	63	16720
2026-01-30 01:56:50.74	354.91	8.74	-45.7	-58.8	4.5	1.23e+00	0	43	0	1048576	63	15824
2026-01-30 01:56:51.75	354.77	8.79	-45.6	-57.8	4.9	8.73e-01	0	43	0	3145728	63	14068
2026-01-30 01:56:52.75	354.64	8.84	-45.6	-56.7	5.5	6.11e-01	0	43	0	4194304	63	12512
2026-01-30 01:56:53.75	354.50	8.90	-45.4	-55.2	6.7	3.41e-01	0	43	0	6291456	62	11105
2026-01-30 01:56:54.76	354.37	8.95	-45.2	-53.6	8.1	8.60e-02	0	43	0	8388608	62	9228
2026-01-30 01:56:55.76	354.23	9.00	-44.8	-52.1	9.7	2.75e-02	0	43	0	10485760	61	8192
2026-01-30 01:56:56.77	354.09	9.05	-45.2	-53.2	8.7	7.87e-03	0	43	0	12582912	61	9338
2026-01-30 01:56:57.77	353.96	9.10	-46.0	-60.0	4.1	4.63e-01	0	43	0	13631488	63	18239
2026-01-30 01:56:58.81	353.81	9.15	-44.0	-49.2	12.6	5.79e-01	0	43	0	13631488	59	6604
2026-01-30 01:56:59.84	353.67	9.21	-44.8	-53.5	8.4	1.62e-04	0	43	0	15728640	60	10257
2026-01-30 01:57:00.87	353.53	9.26	-43.1	-47.0	14.9	2.75e-04	0	43	0	17825792	58	5438
2026-01-30 01:57:01.87	353.39	9.31	-43.0	-46.9	15.1	0.00e+00	0	43	0	19922944	57	5662
2026-01-30 01:57:02.96	353.24	9.36	-42.9	-46.7	15.2	0.00e+00	0	43	0	22020096	57	5530
2026-01-30 01:57:03.83	353.11	9.41	-42.9	-46.7	15.2	0.00e+00	0	43	0	23068672	57	5535
2026-01-30 01:57:04.97	352.95	9.47	-43.0	-46.8	15.1	7.00e-07	0	43	0	25165824	57	5655
2026-01-30 01:57:05.84	352.83	9.51	-43.2	-46.8	15.1	0.00e+00	0	43	0	27262976	57	5654
2026-01-30 01:57:06.98	352.67	9.57	-43.2	-46.8	15.2	0.00e+00	0	43	0	29360128	57	5625
2026-01-30 01:57:07.85	352.55	9.61	-43.2	-46.9	15.1	0.00e+00	0	43	0	30408704	57	5661
2026-01-30 01:57:08.99	352.38	9.67	-43.4	-46.8	15.2	0.00e+00	0	43	0	32505856	57	5606
2026-01-30 01:57:09.85	352.26	9.71	-43.6	-46.7	15.2	0.00e+00	0	43	0	34603008	57	5563
2026-01-30 01:57:11.00	352.10	9.77	-43.6	-46.6	15.3	0.00e+00	0	43	0	36700160	57	5523
2026-01-30 01:57:11.86	351.97	9.81	-43.8	-46.7	15.3	0.00e+00	0	43	0	37748736	58	5262
2026-01-30 01:57:13.00	351.81	9.87	-43.8	-46.7	15.3	0.00e+00	0	43	0	39845888	58	5270
2026-01-30 01:57:13.86	351.68	9.91	-43.9	-46.9	15.1	0.00e+00	0	43	0	41943040	58	5345
2026-01-30 01:57:15.01	351.52	9.97	-43.8	-46.8	15.2	0.00e+00	0	43	0	44040192	58	5297
2026-01-30 01:57:15.87	351.39	10.01	-43.7	-46.8	15.2	0.00e+00	0	43	0	46137344	58	5307
2026-01-30 01:57:17.01	351.22	10.07	-43.5	-46.6	15.4	0.00e+00	0	43	0	48234496	58	5164
2026-01-30 01:57:17.87	351.10	10.11	-43.3	-46.5	15.5	0.00e+00	0	43	0	49283072	58	5147
2026-01-30 01:57:19.02	350.93	10.17	-43.3	-46.6	15.4	0.00e+00	0	43	0	51380224	58	5177
2026-01-30 01:57:19.88	350.80	10.21	-43.2	-46.6	15.4	0.00e+00	0	43	0	53477376	58	5191
2026-01-30 01:57:21.02	350.63	10.27	-42.8	-46.5	15.5	0.00e+00	0	43	0	55574528	57	5428
2026-01-30 01:57:21.88	350.50	10.31	-42.8	-46.7	15.3	0.00e+00	0	43	0	56623104	57	5538
2026-01-30 01:57:23.03	350.33	10.37	-42.7	-46.8	15.2	0.00e+00	0	43	0	58720256	57	5634
2026-01-30 01:57:23.89	350.20	10.41	-42.8	-46.9	15.1	0.00e+00	0	43	0	60817408	57	5688
2026-01-30 01:57:25.04	350.03	10.46	-42.7	-46.8	15.2	0.00e+00	0	43	0	62914560	57	5626
2026-01-30 01:57:26.13	349.86	10.52	-42.7	-46.8	15.2	0.00e+00	0	43	0	65011712	57	5620
2026-01-30 01:57:27.00	349.73	10.56	-42.7	-46.7	15.3	0.00e+00	0	43	0	67108864	57	5579
2026-01-30 01:57:28.14	349.56	10.61	-42.8	-46.7	15.3	0.00e+00	0	43	0	69206016	57	5559
2026-01-30 01:57:29.01	349.42	10.66	-42.9	-46.7	15.3	0.00e+00	0	43	0	70254592	57	5570
2026-01-30 01:57:30.15	349.25	10.71	-43.2	-46.6	15.4	0.00e+00	0	43	0	72351744	57	5502
2026-01-30 01:57:31.01	349.12	10.75	-43.3	-46.5	15.6	0.00e+00	0	43	0	74448896	57	5427
2026-01-30 01:57:32.16	348.94	10.81	-43.4	-46.5	15.5	0.00e+00	0	43	0	76546048	57	5417
2026-01-30 01:57:33.02	348.81	10.85	-43.4	-46.4	15.6	0.00e+00	0	43	0	77594624	57	5376
2026-01-30 01:57:34.16	348.63	10.91	-43.5	-46.6	15.5	0.00e+00	0	43	0	79691776	57	5471
2026-01-30 01:57:35.02	348.50	10.95	-43.5	-46.4	15.6	0.00e+00	0	43	0	81788928	57	5396
2026-01-30 01:57:36.16	348.32	11.00	-43.4	-46.4	15.6	0.00e+00	0	43	0	83886080	57	5363
2026-01-30 01:57:37.02	348.18	11.04	-43.4	-46.4	15.6	0.00e+00	0	43	0	84934656	57	5385
2026-01-30 01:57:38.17	348.00	11.10	-43.4	-46.3	15.6	0.00e+00	0	43	0	87031808	57	5338
2026-01-30 01:57:39.11	347.85	11.14	-43.2	-46.0	16.0	0.00e+00	0	43	0	89128960	57	5139
2026-01-30 01:57:40.29	347.66	11.20	-43.2	-46.0	16.0	0.00e+00	0	43	0	91226112	57	5110
2026-01-30 01:57:41.15	347.53	11.24	-43.1	-45.9	16.1	0.00e+00	0	43	0	93323264	57	5073
2026-01-30 01:57:42.29	347.35	11.29	-43.2	-46.0	16.0	0.00e+00	0	43	0	95420416	57	5113
2026-01-30 01:57:43.15	347.21	11.33	-43.1	-45.8	16.2	0.00e+00	0	43	0	96468992	57	5024
2026-01-30 01:57:44.30	347.02	11.39	-43.0	-45.7	16.3	0.00e+00	0	43	0	98566144	57	4968
2026-01-30 01:57:45.16	346.88	11.43	-42.9	-45.6	16.5	0.00e+00	0	43	0	100663296	57	4885
2026-01-30 01:57:46.31	346.70	11.48	-42.6	-45.3	16.7	0.00e+00	0	43	0	102760448	57	4742
2026-01-30 01:57:47.37	346.53	11.53	-42.6	-45.3	16.7	0.00e+00	0	43	0	104857600	57	4739
2026-01-30 01:57:48.25	346.38	11.57	-42.4	-45.1	17.0	0.00e+00	0	43	0	106954752	56	4897
2026-01-30 01:57:49.39	346.20	11.62	-42.3	-45.1	16.9	0.00e+00	0	43	0	109051904	56	4888
2026-01-30 01:57:50.25	346.06	11.66	-42.4	-45.2	16.9	0.00e+00	0	43	0	110100480	56	4936
2026-01-30 01:57:51.40	345.87	11.71	-42.4	-45.0	17.1	0.00e+00	0	43	0	112197632	56	4819
2026-01-30 01:57:52.26	345.73	11.75	-42.5	-45.0	17.0	0.00e+00	0	43	0	114294784	56	4857
2026-01-30 01:57:53.40	345.54	11.80	-42.6	-45.1	16.9	0.00e+00	0	43	0	116391936	56	4921
2026-01-30 01:57:54.26	345.39	11.84	-42.7	-45.0	17.0	0.00e+00	0	43	0	117440512	56	4866
2026-01-30 01:57:55.47	345.19	11.90	-42.8	-45.0	17.0	0.00e+00	0	43	0	119537664	56	4851
2026-01-30 01:57:56.33	345.05	11.94	-42.8	-45.1	17.0	0.00e+00	0	43	0	121634816	56	4884
2026-01-30 01:57:57.54	344.85	11.99	-42.7	-45.0	17.1	0.00e+00	0	43	0	123731968	56	4848
2026-01-30 01:57:58.40	344.70	12.03	-42.6	-44.9	17.2	0.00e+00	0	43	0	125829120	56	4789
2026-01-30 01:57:59.55	344.51	12.08	-42.5	-44.8	17.2	0.00e+00	0	43	0	127926272	56	4756
2026-01-30 01:58:00.41	344.36	12.12	-42.5	-44.9	17.1	0.00e+00	0	43	0	128974848	56	4807
2026-01-30 01:58:01.66	344.15	12.17	-42.5	-45.0	17.1	0.00e+00	0	43	0	131072000	56	4843
2026-01-30 01:58:02.40	344.02	12.21	-42.5	-45.0	17.1	0.00e+00	0	43	0	133169152	56	4865
2026-01-30 01:58:03.69	343.80	12.26	-42.4	-44.9	17.2	0.00e+00	0	43	0	135266304	56	4776
2026-01-30 01:58:04.41	343.68	12.30	-42.4	-44.8	17.3	0.00e+00	0	43	0	136314880	56	4708
2026-01-30 01:58:05.70	343.46	12.35	-42.4	-44.8	17.3	0.00e+00	0	43	0	139460608	56	4721
2026-01-30 01:58:06.41	343.34	12.38	-42.4	-44.6	17.5	0.00e+00	0	43	0	140509184	56	4624
2026-01-30 01:58:07.70	343.11	12.44	-42.3	-44.4	17.7	0.00e+00	0	43	0	142606336	56	4530
2026-01-30 01:58:08.42	342.99	12.47	-42.3	-44.4	17.7	0.00e+00	0	43	0	144703488	56	4513
2026-01-30 01:58:09.71	342.76	12.52	-42.4	-44.5	17.6	0.00e+00	0	43	0	146800640	56	4574
2026-01-30 01:58:10.43	342.64	12.55	-42.4	-44.5	17.6	0.00e+00	0	43	0	147849216	56	4576
2026-01-30 01:58:11.72	342.41	12.61	-42.3	-44.5	17.6	0.00e+00	0	43	0	149946368	56	4568
2026-01-30 01:58:12.44	342.29	12.64	-42.3	-44.5	17.7	0.00e+00	0	43	0	152043520	56	4550
2026-01-30 01:58:13.78	342.05	12.70	-42.1	-44.2	17.9	0.00e+00	0	43	0	154140672	56	4432
2026-01-30 01:58:14.49	341.92	12.73	-42.1	-44.2	17.9	0.00e+00	0	43	0	155189248	56	4415
2026-01-30 01:58:15.78	341.70	12.78	-42.1	-44.1	18.0	0.00e+00	0	43	0	158334976	56	4358
2026-01-30 01:58:16.50	341.57	12.81	-42.1	-44.0	18.1	0.00e+00	0	43	0	159383552	56	4305
2026-01-30 01:58:17.79	341.34	12.86	-42.1	-43.9	18.1	0.00e+00	0	43	0	161480704	56	4272
2026-01-30 01:58:18.50	341.21	12.89	-42.1	-44.0	18.1	0.00e+00	0	43	0	163577856	56	4301
2026-01-30 01:58:19.79	340.98	12.94	-42.1	-44.1	18.0	0.00e+00	0	43	0	165675008	56	4360
2026-01-30 01:58:20.51	340.85	12.97	-42.1	-44.1	18.0	0.00e+00	0	43	0	166723584	56	4363
2026-01-30 01:58:21.80	340.62	13.03	-41.8	-43.9	18.0	0.00e+00	0	43	0	169869312	55	4544
2026-01-30 01:58:22.52	340.49	13.05	-41.9	-44.0	18.0	0.00e+00	0	43	0	170917888	55	4550
2026-01-30 01:58:23.80	340.26	13.11	-42.1	-44.1	17.9	0.00e+00	0	43	0	173015040	55	4612
2026-01-30 01:58:24.62	340.11	13.14	-42.1	-44.1	17.9	0.00e+00	0	43	0	175112192	55	4603
2026-01-30 01:58:25.76	339.90	13.18	-42.2	-44.1	17.9	0.00e+00	0	43	0	177209344	55	4610
2026-01-30 01:58:26.62	339.74	13.22	-42.3	-44.1	17.8	0.00e+00	0	43	0	178257920	55	4639
2026-01-30 01:58:27.77	339.53	13.26	-42.5	-44.3	17.6	0.00e+00	0	43	0	180355072	55	4718
2026-01-30 01:58:28.63	339.38	13.30	-42.5	-44.3	17.6	0.00e+00	0	43	0	182452224	55	4716
2026-01-30 01:58:29.77	339.17	13.34	-42.7	-44.5	17.4	0.00e+00	0	43	0	184549376	55	4867
2026-01-30 01:58:30.63	339.01	13.37	-42.6	-44.6	17.5	0.00e+00	0	43	0	185597952	56	4607
2026-01-30 01:58:31.77	338.80	13.42	-42.6	-44.7	17.4	0.00e+00	0	43	0	187695104	56	4670
2026-01-30 01:58:32.63	338.64	13.45	-42.6	-44.7	17.4	0.00e+00	0	43	0	189792256	56	4659
2026-01-30 01:58:33.78	338.42	13.49	-42.3	-44.3	17.8	0.00e+00	0	43	0	191889408	56	4482
2026-01-30 01:58:34.64	338.26	13.52	-42.4	-44.3	17.8	0.00e+00	0	43	0	192937984	56	4473
2026-01-30 01:58:35.78	338.05	13.57	-42.4	-44.2	17.8	0.00e+00	0	43	0	195035136	56	4440
2026-01-30 01:58:36.65	337.89	13.60	-42.5	-44.4	17.7	0.00e+00	0	43	0	197132288	56	4498
2026-01-30 01:58:37.79	337.67	13.64	-42.6	-44.4	17.7	0.00e+00	0	43	0	199229440	56	4533
2026-01-30 01:58:38.78	337.49	13.68	-42.7	-44.5	17.6	0.00e+00	0	43	0	201326592	56	4571
2026-01-30 01:58:39.96	337.26	13.72	-42.7	-44.5	17.6	0.00e+00	0	43	0	203423744	56	4556
2026-01-30 01:58:40.85	337.09	13.75	-42.7	-44.5	17.6	0.00e+00	0	43	0	205520896	56	4579
2026-01-30 01:58:41.90	336.89	13.79	-42.6	-44.3	17.7	0.00e+00	0	43	0	206569472	56	4492
2026-01-30 01:58:42.76	336.73	13.82	-42.4	-44.1	18.0	0.00e+00	0	43	0	208666624	56	4373
2026-01-30 01:58:43.91	336.51	13.86	-42.4	-44.1	18.0	0.00e+00	0	43	0	210763776	56	4366
2026-01-30 01:58:44.77	336.35	13.89	-42.5	-44.1	17.9	0.00e+00	0	43	0	212860928	56	4379
2026-01-30 01:58:45.92	336.13	13.93	-42.5	-44.1	18.0	0.00e+00	0	43	0	214958080	56	4375
2026-01-30 01:58:46.78	335.96	13.96	-42.6	-44.2	17.9	0.00e+00	0	43	0	216006656	56	4438
2026-01-30 01:58:47.92	335.74	14.00	-42.5	-44.1	18.0	0.00e+00	0	43	0	218103808	56	4367
2026-01-30 01:58:48.78	335.58	14.03	-42.5	-44.1	18.0	0.00e+00	0	43	0	220200960	56	4368
2026-01-30 01:58:50.04	335.33	14.07	-42.4	-44.0	18.1	0.00e+00	0	43	0	222298112	56	4310
2026-01-30 01:58:50.80	335.18	14.09	-42.3	-43.9	18.1	0.00e+00	0	43	0	223346688	56	4282
2026-01-30 01:58:52.09	334.93	14.14	-42.4	-44.0	18.1	0.00e+00	0	43	0	226492416	56	4304
2026-01-30 01:58:52.81	334.79	14.16	-42.4	-44.1	18.0	0.00e+00	0	43	0	227540992	56	4353
2026-01-30 01:58:54.10	334.54	14.20	-42.3	-43.9	18.1	0.00e+00	0	43	0	229638144	56	4271
2026-01-30 01:58:54.81	334.40	14.22	-42.2	-43.7	18.4	0.00e+00	0	43	0	231735296	56	4169
2026-01-30 01:58:56.10	334.15	14.26	-42.1	-43.6	18.5	0.00e+00	0	43	0	233832448	56	4123
2026-01-30 01:58:56.84	334.00	14.29	-42.1	-43.6	18.5	0.00e+00	0	43	0	234881024	56	4144
2026-01-30 01:58:58.43	333.69	14.34	-42.1	-43.6	18.5	0.00e+00	0	43	0	238026752	56	4131
2026-01-30 01:58:59.01	333.58	14.36	-42.1	-43.5	18.5	0.00e+00	0	43	0	239075328	56	4098
2026-01-30 01:59:00.77	333.23	14.41	-42.0	-43.5	18.5	0.00e+00	0	43	0	242221056	56	4083
2026-01-30 01:59:01.35	333.11	14.43	-42.1	-43.5	18.5	0.00e+00	0	43	0	243269632	56	4090
2026-01-30 01:59:02.94	332.80	14.47	-41.8	-43.2	18.7	0.00e+00	0	43	0	246415360	55	4186
2026-01-30 01:59:03.51	332.68	14.49	-41.8	-43.2	18.7	0.00e+00	0	43	0	247463936	55	4183
2026-01-30 01:59:05.09	332.37	14.54	-41.8	-43.2	18.7	0.00e+00	0	43	0	250609664	55	4192
2026-01-30 01:59:05.69	332.25	14.55	-41.8	-43.3	18.6	0.00e+00	0	43	0	251658240	55	4222
2026-01-30 01:59:07.27	331.93	14.60	-41.8	-43.2	18.7	0.00e+00	0	43	0	254803968	55	4179
2026-01-30 01:59:07.97	331.79	14.62	-41.8	-43.2	18.7	0.00e+00	0	43	0	255852544	55	4178
2026-01-30 01:59:09.29	331.52	14.65	-41.7	-43.2	18.7	0.00e+00	0	43	0	257949696	55	4158
2026-01-30 01:59:10.01	331.38	14.67	-41.8	-43.2	18.7	0.00e+00	0	43	0	260046848	55	4183
2026-01-30 01:59:11.30	331.12	14.71	-41.7	-43.1	18.8	0.00e+00	0	43	0	262144000	55	4132
2026-01-30 01:59:12.01	330.97	14.73	-41.6	-43.1	18.9	0.00e+00	0	43	0	263192576	55	4114
2026-01-30 01:59:13.30	330.71	14.76	-41.8	-43.3	18.6	0.00e+00	0	43	0	266338304	55	4216
2026-01-30 01:59:14.02	330.56	14.78	-41.8	-43.4	18.5	0.00e+00	0	43	0	267386880	55	4258
2026-01-30 01:59:15.31	330.30	14.81	-42.0	-43.6	18.4	0.00e+00	0	43	0	269484032	55	4342
2026-01-30 01:59:16.03	330.15	14.83	-42.0	-43.6	18.4	0.00e+00	0	43	0	270532608	55	4348
2026-01-30 01:59:17.54	329.85	14.87	-41.9	-43.4	18.5	0.00e+00	0	43	0	273678336	55	4284
2026-01-30 01:59:18.26	329.70	14.89	-41.9	-43.4	18.5	0.00e+00	0	43	0	274726912	55	4268
2026-01-30 01:59:19.55	329.43	14.92	-41.8	-43.3	18.6	0.00e+00	0	43	0	277872640	55	4230
2026-01-30 01:59:20.27	329.28	14.94	-41.8	-43.3	18.7	0.00e+00	0	43	0	278921216	55	4214
2026-01-30 01:59:21.55	329.02	14.97	-41.9	-43.4	18.6	0.00e+00	0	43	0	281018368	55	4251
2026-01-30 01:59:22.27	328.87	14.98	-42.0	-43.5	18.5	0.00e+00	0	43	0	283115520	55	4296
2026-01-30 01:59:23.56	328.61	15.01	-42.1	-43.6	18.4	0.00e+00	0	43	0	285212672	55	4352
2026-01-30 01:59:24.28	328.46	15.03	-42.2	-43.7	18.3	0.00e+00	0	43	0	286261248	55	4422
2026-01-30 01:59:25.57	328.19	15.06	-42.2	-43.8	18.2	0.00e+00	0	43	0	289406976	55	4453
2026-01-30 01:59:26.29	328.04	15.07	-42.3	-43.8	18.1	0.00e+00	0	43	0	290455552	55	4483
2026-01-30 01:59:27.58	327.77	15.10	-42.2	-43.8	18.1	0.00e+00	0	43	0	292552704	55	4479
2026-01-30 01:59:28.29	327.62	15.11	-42.2	-43.8	18.1	0.00e+00	0	43	0	293601280	55	4463
2026-01-30 01:59:29.58	327.36	15.14	-42.1	-43.7	18.2	0.00e+00	0	43	0	296747008	55	4441
2026-01-30 01:59:30.30	327.21	15.16	-42.0	-43.8	18.2	0.00e+00	0	43	0	297795584	55	4443
2026-01-30 01:59:31.59	326.94	15.18	-42.0	-43.7	18.2	0.00e+00	0	43	0	299892736	55	4440
2026-01-30 01:59:32.31	326.79	15.20	-41.9	-43.7	18.2	0.00e+00	0	43	0	301989888	55	4440
2026-01-30 01:59:33.60	326.51	15.22	-42.1	-43.9	18.0	0.00e+00	0	43	0	304087040	55	4526
2026-01-30 01:59:34.49	326.33	15.24	-42.2	-44.0	17.9	0.00e+00	0	43	0	306184192	55	4594
2026-01-30 01:59:35.51	326.11	15.26	-42.4	-44.2	17.8	0.00e+00	0	43	0	307232768	55	4672
2026-01-30 01:59:36.51	325.90	15.27	-42.3	-44.2	17.8	0.00e+00	0	43	0	309329920	55	4667
2026-01-30 01:59:37.52	325.69	15.29	-42.4	-44.2	17.7	0.00e+00	0	43	0	311427072	55	4690
2026-01-30 01:59:38.52	325.48	15.31	-42.3	-44.2	17.7	0.00e+00	0	43	0	313524224	55	4688
2026-01-30 01:59:39.52	325.27	15.33	-42.3	-44.4	17.6	0.00e+00	0	43	0	314572800	55	4767
2026-01-30 01:59:40.53	325.05	15.34	-42.2	-44.3	17.6	0.00e+00	0	43	0	316669952	55	4745
2026-01-30 01:59:41.53	324.84	15.36	-42.2	-44.2	17.7	0.00e+00	0	43	0	318767104	55	4693
2026-01-30 01:59:42.53	324.63	15.37	-42.2	-44.1	17.8	0.00e+00	0	43	0	320864256	55	4647
2026-01-30 01:59:43.53	324.42	15.39	-42.2	-44.1	17.8	0.00e+00	0	43	0	322961408	55	4627
2026-01-30 01:59:44.54	324.20	15.41	-42.3	-44.1	17.8	0.00e+00	0	43	0	324009984	55	4645
2026-01-30 01:59:45.54	323.99	15.42	-42.4	-44.1	17.8	0.00e+00	0	43	0	326107136	55	4645
2026-01-30 01:59:46.54	323.78	15.43	-42.4	-44.0	17.9	0.00e+00	0	43	0	328204288	55	4573
2026-01-30 01:59:47.54	323.57	15.45	-42.3	-43.9	18.1	0.00e+00	0	43	0	330301440	55	4501
2026-01-30 01:59:48.55	323.35	15.46	-42.2	-43.7	18.2	0.00e+00	0	43	0	332398592	55	4434
2026-01-30 01:59:49.55	323.14	15.47	-42.1	-43.6	18.3	0.00e+00	0	43	0	333447168	55	4367
2026-01-30 01:59:50.56	322.92	15.49	-42.1	-43.5	18.4	0.00e+00	0	43	0	335544320	55	4329
2026-01-30 01:59:51.56	322.71	15.50	-42.0	-43.5	18.5	0.00e+00	0	43	0	337641472	55	4305
2026-01-30 01:59:52.56	322.49	15.51	-42.0	-43.5	18.4	0.00e+00	0	43	0	339738624	55	4321
2026-01-30 01:59:53.57	322.28	15.52	-42.1	-43.6	18.4	0.00e+00	0	43	0	341835776	55	4361
2026-01-30 01:59:54.57	322.06	15.53	-42.1	-43.7	18.3	0.00e+00	0	43	0	342884352	55	4398
2026-01-30 01:59:55.57	321.85	15.54	-42.0	-43.7	18.3	0.00e+00	0	43	0	344981504	55	4395
2026-01-30 01:59:56.58	321.63	15.56	-42.2	-43.9	18.1	0.00e+00	0	43	0	347078656	55	4519
2026-01-30 01:59:57.58	321.42	15.57	-42.2	-44.0	18.0	0.00e+00	0	43	0	349175808	55	4548
2026-01-30 01:59:58.59	321.20	15.57	-42.3	-44.0	17.9	0.00e+00	0	43	0	351272960	55	4573
2026-01-30 01:59:59.59	320.99	15.58	-42.3	-44.1	17.9	0.00e+00	0	43	0	352321536	55	4612
2026-01-30 02:00:00.59	320.77	15.59	-42.3	-44.0	17.9	0.00e+00	0	43	0	354418688	55	4591
2026-01-30 02:00:01.75	320.52	15.60	-42.4	-44.0	17.9	0.00e+00	0	43	0	356515840	55	4587
2026-01-30 02:00:02.65	320.33	15.61	-42.4	-44.0	17.9	0.00e+00	0	44	0	358612992	55	4591
2026-01-30 02:00:03.86	320.07	15.62	-42.4	-44.1	17.9	0.00e+00	0	43	0	360710144	55	4603
2026-01-30 02:00:04.72	319.88	15.62	-42.5	-44.1	17.9	0.00e+00	0	43	0	362807296	55	4623
2026-01-30 02:00:06.04	319.60	15.63	-42.6	-44.2	17.7	0.00e+00	0	43	0	364904448	55	4679
2026-01-30 02:00:06.76	319.44	15.64	-42.6	-44.2	17.7	0.00e+00	0	43	0	365953024	55	4694
2026-01-30 02:00:08.05	319.16	15.64	-42.8	-44.5	17.6	0.00e+00	0	43	0	369098752	56	4586
2026-01-30 02:00:08.77	319.01	15.65	-42.8	-44.5	17.7	0.00e+00	0	43	0	370147328	56	4551
2026-01-30 02:00:10.05	318.73	15.65	-42.8	-44.4	17.7	0.00e+00	0	43	0	372244480	56	4528
2026-01-30 02:00:10.77	318.57	15.66	-42.7	-44.3	17.8	0.00e+00	0	43	0	373293056	56	4487
2026-01-30 02:00:12.06	318.30	15.66	-42.7	-44.3	17.8	0.00e+00	0	43	0	376438784	56	4473
2026-01-30 02:00:12.77	318.14	15.67	-42.6	-44.3	17.9	0.00e+00	0	43	0	377487360	56	4455
2026-01-30 02:00:14.06	317.86	15.67	-42.6	-44.2	17.9	0.00e+00	0	43	0	379584512	56	4426
2026-01-30 02:00:14.78	317.71	15.67	-42.6	-44.2	17.9	0.00e+00	0	43	0	380633088	56	4438
2026-01-30 02:00:16.07	317.43	15.67	-42.5	-44.2	17.9	0.00e+00	0	43	0	383778816	56	4429
2026-01-30 02:00:16.78	317.27	15.68	-42.5	-44.3	17.9	0.00e+00	0	43	0	384827392	56	4447
2026-01-30 02:00:18.25	316.96	15.68	-42.4	-44.1	18.0	0.00e+00	0	43	0	387973120	56	4390
2026-01-30 02:00:19.24	316.74	15.68	-42.3	-44.1	18.0	0.00e+00	0	43	0	389021696	56	4367
2026-01-30 02:00:20.24	316.53	15.68	-42.4	-44.2	17.9	0.00e+00	0	43	0	391118848	56	4405
2026-01-30 02:00:21.24	316.31	15.68	-42.4	-44.3	17.9	0.00e+00	0	43	0	393216000	56	4452
2026-01-30 02:00:22.24	316.09	15.68	-42.4	-44.2	17.9	0.00e+00	0	43	0	395313152	56	4410
2026-01-30 02:00:23.25	315.87	15.68	-42.5	-44.2	17.9	0.00e+00	0	43	0	397410304	56	4418
2026-01-30 02:00:24.25	315.66	15.68	-42.5	-44.1	17.9	0.00e+00	0	43	0	398458880	56	4378
2026-01-30 02:00:25.25	315.44	15.68	-42.5	-44.1	18.0	0.00e+00	0	43	0	400556032	56	4384
2026-01-30 02:00:26.29	315.22	15.67	-42.6	-44.1	18.0	0.00e+00	0	43	0	402653184	56	4388
2026-01-30 02:00:27.29	315.00	15.67	-42.6	-44.2	17.9	0.00e+00	0	43	0	404750336	56	4432
2026-01-30 02:00:28.36	314.77	15.67	-42.7	-44.3	17.8	0.00e+00	0	43	0	406847488	56	4462
2026-01-30 02:00:29.25	314.57	15.67	-42.8	-44.4	17.7	0.00e+00	0	43	0	407896064	56	4538
2026-01-30 02:00:30.39	314.33	15.66	-42.8	-44.5	17.6	0.00e+00	0	43	0	409993216	56	4565
2026-01-30 02:00:31.25	314.14	15.66	-42.8	-44.5	17.6	0.00e+00	0	43	0	412090368	56	4582
2026-01-30 02:00:32.40	313.89	15.65	-42.9	-44.5	17.5	0.00e+00	0	43	0	414187520	56	4596
2026-01-30 02:00:33.26	313.71	15.65	-42.8	-44.5	17.6	0.00e+00	0	43	0	416284672	56	4563
2026-01-30 02:00:34.41	313.46	15.64	-42.7	-44.4	17.7	0.00e+00	0	43	0	418381824	56	4497
2026-01-30 02:00:35.27	313.27	15.64	-42.7	-44.3	17.8	0.00e+00	0	43	0	419430400	56	4485
2026-01-30 02:00:36.41	313.03	15.63	-42.6	-44.3	17.8	0.00e+00	0	43	0	421527552	56	4467
2026-01-30 02:00:37.27	312.84	15.63	-42.7	-44.4	17.7	0.00e+00	0	43	0	423624704	56	4520
2026-01-30 02:00:38.42	312.59	15.62	-42.6	-44.3	17.8	0.00e+00	0	43	0	425721856	56	4469
2026-01-30 02:00:39.28	312.41	15.61	-42.6	-44.4	17.8	0.00e+00	0	43	0	426770432	56	4495
2026-01-30 02:00:40.44	312.16	15.60	-42.7	-44.4	17.7	0.00e+00	0	43	0	428867584	56	4530
2026-01-30 02:00:41.31	311.97	15.60	-42.7	-44.4	17.7	0.00e+00	0	43	0	430964736	56	4506
2026-01-30 02:00:42.45	311.72	15.59	-42.8	-44.5	17.6	0.00e+00	0	43	0	433061888	56	4586
2026-01-30 02:00:43.31	311.54	15.58	-42.8	-44.5	17.6	0.00e+00	0	43	0	435159040	56	4554
2026-01-30 02:00:44.46	311.29	15.57	-42.7	-44.4	17.7	0.00e+00	0	43	0	437256192	56	4510
2026-01-30 02:00:45.32	311.11	15.56	-42.7	-44.4	17.8	0.00e+00	0	43	0	438304768	56	4494
2026-01-30 02:00:46.64	310.82	15.55	-42.8	-44.4	17.7	0.00e+00	0	43	0	441450496	56	4526
2026-01-30 02:00:47.36	310.67	15.54	-42.8	-44.4	17.6	0.00e+00	0	43	0	442499072	56	4533
2026-01-30 02:00:48.64	310.39	15.53	-42.8	-44.5	17.6	0.00e+00	0	43	0	444596224	56	4578
2026-01-30 02:00:49.36	310.24	15.52	-42.8	-44.6	17.6	0.00e+00	0	43	0	445644800	56	4602
2026-01-30 02:00:50.65	309.96	15.50	-42.8	-44.5	17.6	0.00e+00	0	43	0	448790528	56	4567
2026-01-30 02:00:51.36	309.81	15.49	-42.8	-44.4	17.7	0.00e+00	0	43	0	449839104	56	4536
2026-01-30 02:00:52.65	309.54	15.48	-42.7	-44.4	17.7	0.00e+00	0	43	0	451936256	56	4514
2026-01-30 02:00:53.46	309.36	15.47	-42.7	-44.3	17.7	0.00e+00	0	43	0	454033408	56	4491
2026-01-30 02:00:54.61	309.12	15.45	-42.7	-44.3	17.7	0.00e+00	0	43	0	456130560	56	4487
2026-01-30 02:00:55.47	308.93	15.44	-42.7	-44.4	17.7	0.00e+00	0	43	0	457179136	56	4497
2026-01-30 02:00:56.62	308.69	15.42	-42.8	-44.5	17.6	0.00e+00	0	43	0	459276288	56	4548
2026-01-30 02:00:57.48	308.51	15.41	-42.8	-44.5	17.6	0.00e+00	0	43	0	461373440	56	4552
2026-01-30 02:00:58.62	308.26	15.39	-42.9	-44.6	16.9	0.00e+00	0	43	0	463470592	56	4624
2026-01-30 02:00:59.48	308.08	15.38	-42.9	-44.6	17.5	0.00e+00	0	43	0	464519168	56	4613
2026-01-30 02:01:00.63	307.84	15.36	-43.0	-44.7	17.4	0.00e+00	0	43	0	466616320	56	4669
2026-01-30 02:01:01.49	307.65	15.35	-43.0	-44.7	17.4	0.00e+00	0	43	0	468713472	56	4677
2026-01-30 02:01:02.64	307.41	15.33	-43.0	-44.6	17.5	0.00e+00	0	43	0	470810624	56	4646
2026-01-30 02:01:03.50	307.23	15.32	-42.9	-44.5	17.6	0.00e+00	0	43	0	472907776	56	4571
2026-01-30 02:01:04.65	306.99	15.30	-42.7	-44.3	17.8	0.00e+00	0	43	0	475004928	56	4483
2026-01-30 02:01:05.51	306.80	15.28	-42.6	-44.2	17.8	0.00e+00	0	43	0	476053504	56	4430
2026-01-30 02:01:06.65	306.56	15.26	-42.6	-44.2	17.8	0.00e+00	0	43	0	478150656	56	4425
2026-01-30 02:01:07.51	306.38	15.24	-42.7	-44.3	17.8	0.00e+00	0	43	0	480247808	56	4445
2026-01-30 02:01:08.66	306.14	15.22	-42.5	-44.0	18.0	0.00e+00	0	43	0	482344960	56	4338
2026-01-30 02:01:09.52	305.96	15.21	-42.5	-44.0	18.0	0.00e+00	0	43	0	483393536	56	4329
2026-01-30 02:01:10.66	305.72	15.18	-42.6	-44.2	17.9	0.00e+00	0	43	0	485490688	56	4403
2026-01-30 02:01:11.52	305.54	15.17	-42.6	-44.2	17.9	0.00e+00	0	43	0	487587840	56	4393
2026-01-30 02:01:12.67	305.30	15.14	-42.6	-44.2	17.9	0.00e+00	0	43	0	489684992	56	4419
2026-01-30 02:01:13.53	305.12	15.13	-42.7	-44.3	17.8	0.00e+00	0	43	0	491782144	56	4469
2026-01-30 02:01:14.67	304.88	15.10	-42.7	-44.3	17.8	0.00e+00	0	43	0	493879296	56	4473
2026-01-30 02:01:15.53	304.70	15.08	-42.6	-44.2	17.8	0.00e+00	0	43	0	494927872	56	4440
2026-01-30 02:01:16.69	304.46	15.06	-42.5	-44.1	18.0	0.00e+00	0	43	0	497025024	56	4366
2026-01-30 02:01:17.56	304.28	15.04	-42.5	-44.1	18.0	0.00e+00	0	43	0	499122176	56	4350
2026-01-30 02:01:18.71	304.04	15.01	-42.5	-44.1	17.9	0.00e+00	0	44	0	501219328	56	4367
2026-01-30 02:01:19.56	303.87	14.99	-42.5	-44.1	17.9	0.00e+00	0	43	0	502267904	56	4384
2026-01-30 02:01:20.71	303.63	14.97	-42.6	-44.2	17.9	0.00e+00	0	43	0	504365056	56	4397
2026-01-30 02:01:21.57	303.45	14.95	-42.6	-44.1	17.9	0.00e+00	0	43	0	506462208	56	4390
2026-01-30 02:01:22.72	303.22	14.92	-42.7	-44.3	17.8	0.00e+00	0	43	0	508559360	56	4453
2026-01-30 02:01:23.58	303.04	14.90	-42.7	-44.3	17.7	0.00e+00	0	43	0	510656512	56	4469
2026-01-30 02:01:24.91	302.77	14.87	-42.7	-44.3	17.7	0.00e+00	0	43	0	512753664	56	4482
2026-01-30 02:01:25.63	302.62	14.85	-42.6	-44.2	17.8	0.00e+00	0	43	0	513802240	56	4431
2026-01-30 02:01:27.10	302.32	14.81	-42.6	-44.1	17.9	0.00e+00	0	43	0	516947968	56	4385
2026-01-30 02:01:28.05	302.12	14.79	-42.6	-44.1	17.9	0.00e+00	0	43	0	519045120	56	4383
2026-01-30 02:01:29.06	301.92	14.76	-42.6	-44.2	17.9	0.00e+00	0	43	0	520093696	56	4396
2026-01-30 02:01:30.06	301.71	14.74	-42.6	-44.2	17.8	0.00e+00	0	43	0	522190848	56	4410
2026-01-30 02:01:31.06	301.51	14.71	-42.7	-44.3	17.7	0.00e+00	0	43	0	524288000	56	4492
2026-01-30 02:01:32.06	301.31	14.68	-42.8	-44.4	17.6	0.00e+00	0	43	0	526385152	56	4526
2026-01-30 02:01:33.55	301.01	14.64	-43.0	-44.7	17.3	0.00e+00	0	43	0	528482304	56	4679
2026-01-30 02:01:34.26	300.86	14.62	-43.0	-44.6	17.4	0.00e+00	0	43	0	530579456	56	4645
2026-01-30 02:01:35.55	300.60	14.59	-43.0	-44.7	17.3	0.00e+00	0	43	0	532676608	56	4661
2026-01-30 02:01:36.27	300.46	14.56	-43.0	-44.6	17.4	0.00e+00	0	43	0	533725184	56	4635
2026-01-30 02:01:37.56	300.20	14.53	-42.9	-44.6	17.4	0.00e+00	0	44	0	536870912	56	4626
2026-01-30 02:01:38.27	300.06	14.51	-43.0	-44.6	17.4	0.00e+00	0	44	0	537919488	56	4647
2026-01-30 02:01:39.57	299.80	14.47	-42.8	-44.5	17.5	0.00e+00	0	44	0	540016640	56	4551
2026-01-30 02:01:40.28	299.65	14.45	-42.9	-44.6	17.5	0.00e+00	0	43	0	541065216	56	4605
2026-01-30 02:01:41.57	299.40	14.41	-43.0	-44.7	17.3	0.00e+00	0	43	0	544210944	56	4674
2026-01-30 02:01:42.29	299.25	14.39	-43.0	-44.7	17.3	0.00e+00	0	43	0	545259520	56	4705
2026-01-30 02:01:43.69	298.98	14.34	-43.0	-44.7	17.3	0.00e+00	0	43	0	548405248	56	4693
2026-01-30 02:01:44.68	298.78	14.31	-43.0	-44.7	17.3	0.00e+00	0	43	0	549453824	56	4664
2026-01-30 02:01:46.00	298.52	14.27	-43.0	-44.7	17.2	0.00e+00	0	43	0	552599552	56	4686
2026-01-30 02:01:46.72	298.38	14.25	-43.0	-44.8	17.0	0.00e+00	0	43	0	553648128	56	4722
2026-01-30 02:01:48.01	298.12	14.21	-42.8	-44.7	16.6	0.00e+00	0	43	0	555745280	56	4672
2026-01-30 02:01:48.72	297.99	14.19	-42.8	-44.7	16.4	0.00e+00	0	43	0	556793856	56	4701
2026-01-30 02:01:50.01	297.73	14.14	-42.8	-44.9	16.2	0.00e+00	0	43	0	559939584	56	4770
2026-01-30 02:01:50.73	297.59	14.12	-42.9	-44.9	16.3	0.00e+00	0	43	0	560988160	56	4768
2026-01-30 02:01:52.02	297.34	14.08	-43.0	-45.0	16.3	0.00e+00	0	43	0	563085312	56	4861
2026-01-30 02:01:52.73	297.20	14.05	-43.1	-45.1	16.5	0.00e+00	0	43	0	565182464	56	4872
2026-01-30 02:01:54.02	296.95	14.01	-43.1	-44.9	17.0	0.00e+00	0	43	0	567279616	56	4786
2026-01-30 02:01:54.74	296.81	13.99	-43.1	-44.8	17.1	0.00e+00	0	44	0	568328192	56	4759
2026-01-30 02:01:56.09	296.55	13.94	-43.0	-44.8	17.2	0.00e+00	0	44	0	571473920	56	4712
2026-01-30 02:01:56.81	296.41	13.92	-43.0	-44.7	17.3	0.00e+00	0	43	0	572522496	56	4658
2026-01-30 02:01:58.16	296.15	13.87	-42.8	-44.5	17.5	0.00e+00	0	43	0	574619648	56	4568
2026-01-30 02:01:58.88	296.02	13.84	-42.7	-44.3	17.7	0.00e+00	0	43	0	576716800	56	4459
2026-01-30 02:02:00.17	295.77	13.80	-42.6	-44.2	17.8	0.00e+00	0	44	0	578813952	56	4403
2026-01-30 02:02:00.89	295.63	13.77	-42.6	-44.3	17.7	0.00e+00	0	44	0	579862528	56	4443
2026-01-30 02:02:02.18	295.39	13.73	-42.6	-44.3	17.7	0.00e+00	0	43	0	583008256	56	4445
2026-01-30 02:02:02.89	295.25	13.70	-42.7	-44.3	17.6	0.00e+00	0	43	0	584056832	56	4481
2026-01-30 02:02:04.18	295.01	13.65	-42.8	-44.5	17.5	0.00e+00	0	43	0	586153984	56	4555
2026-01-30 02:02:04.90	294.87	13.63	-43.0	-44.7	17.3	0.00e+00	0	43	0	587202560	56	4672
2026-01-30 02:02:06.19	294.63	13.58	-42.9	-44.6	17.4	0.00e+00	0	43	0	590348288	56	4648
2026-01-30 02:02:06.90	294.50	13.55	-42.9	-44.6	17.4	0.00e+00	0	44	0	591396864	56	4632
2026-01-30 02:02:08.19	294.25	13.51	-42.9	-44.6	17.4	0.00e+00	0	43	0	593494016	56	4611
2026-01-30 02:02:08.91	294.12	13.48	-42.8	-44.4	17.5	0.00e+00	0	44	0	595591168	56	4539
2026-01-30 02:02:10.20	293.88	13.43	-42.6	-44.2	17.8	0.00e+00	0	43	0	597688320	56	4416
2026-01-30 02:02:10.92	293.75	13.40	-42.6	-44.2	17.8	0.00e+00	0	43	0	598736896	56	4395
2026-01-30 02:02:12.20	293.51	13.35	-42.5	-44.1	17.9	0.00e+00	0	43	0	601882624	56	4341
2026-01-30 02:02:12.92	293.37	13.33	-42.5	-44.0	17.9	0.00e+00	0	43	0	602931200	56	4331
2026-01-30 02:02:14.21	293.14	13.28	-42.5	-44.0	17.9	0.00e+00	0	43	0	605028352	56	4308
2026-01-30 02:02:14.92	293.01	13.25	-42.5	-44.1	17.9	0.00e+00	0	43	0	606076928	56	4362
2026-01-30 02:02:16.21	292.77	13.20	-42.5	-44.0	17.9	0.00e+00	0	43	0	609222656	56	4333
2026-01-30 02:02:16.93	292.64	13.17	-42.5	-44.1	17.8	0.00e+00	0	44	0	610271232	56	4378
2026-01-30 02:02:18.22	292.40	13.12	-42.6	-44.2	17.7	0.00e+00	0	43	0	612368384	56	4420
2026-01-30 02:02:18.93	292.27	13.09	-42.6	-44.2	17.7	0.00e+00	0	43	0	613416960	56	4418
2026-01-30 02:02:20.22	292.04	13.04	-42.6	-44.2	17.7	0.00e+00	0	44	0	616562688	56	4425
2026-01-30 02:02:20.94	291.91	13.01	-42.6	-44.2	17.7	0.00e+00	0	44	0	617611264	56	4430
2026-01-30 02:02:22.23	291.67	12.96	-42.7	-44.3	17.7	0.00e+00	0	43	0	619708416	56	4457
2026-01-30 02:02:22.94	291.55	12.93	-42.7	-44.3	17.7	0.00e+00	0	43	0	621805568	56	4453
2026-01-30 02:02:24.23	291.32	12.87	-42.7	-44.3	17.6	0.00e+00	0	43	0	623902720	56	4484
2026-01-30 02:02:24.95	291.19	12.84	-42.6	-44.2	17.7	0.00e+00	0	44	0	624951296	56	4426
2026-01-30 02:02:26.24	290.96	12.79	-42.5	-44.1	17.8	0.00e+00	0	44	0	628097024	56	4347
2026-01-30 02:02:27.18	290.79	12.75	-42.5	-44.1	17.9	0.00e+00	0	43	0	629145600	56	4356
2026-01-30 02:02:28.50	290.55	12.70	-42.5	-44.0	17.9	0.00e+00	0	43	0	632291328	56	4306
2026-01-30 02:02:29.21	290.43	12.67	-42.5	-44.0	17.9	0.00e+00	0	43	0	633339904	56	4303
2026-01-30 02:02:30.87	290.14	12.60	-42.5	-44.0	17.9	0.00e+00	0	43	0	636485632	56	4325
2026-01-30 02:02:31.45	290.03	12.57	-42.5	-44.1	17.8	0.00e+00	0	43	0	637534208	56	4357
2026-01-30 02:02:33.04	289.76	12.50	-42.6	-44.2	17.7	0.00e+00	0	43	0	640679936	56	4417
2026-01-30 02:02:33.63	289.65	12.48	-42.6	-44.2	17.7	0.00e+00	0	44	0	641728512	56	4415
2026-01-30 02:02:35.20	289.38	12.41	-42.8	-44.4	17.5	0.00e+00	0	43	0	644874240	56	4543
2026-01-30 02:02:35.80	289.28	12.38	-42.9	-44.6	17.3	0.00e+00	0	43	0	645922816	56	4604
2026-01-30 02:02:37.38	289.00	12.32	-43.0	-44.7	17.2	0.00e+00	0	44	0	648019968	56	4672
2026-01-30 02:02:37.98	288.90	12.29	-43.1	-44.8	17.1	0.00e+00	0	43	0	650117120	56	4731
2026-01-30 02:02:39.55	288.63	12.22	-43.1	-44.9	17.1	0.00e+00	0	44	0	652214272	56	4760
2026-01-30 02:02:40.13	288.53	12.20	-43.1	-44.9	17.0	0.00e+00	0	43	0	653262848	56	4797
2026-01-30 02:02:42.06	288.20	12.11	-43.1	-44.9	17.0	0.00e+00	0	44	0	657457152	56	4780
2026-01-30 02:02:42.63	288.10	12.08	-43.2	-45.0	17.0	0.00e+00	0	44	0	658505728	57	4558
2026-01-30 02:02:44.22	287.83	12.01	-43.2	-45.0	16.9	0.00e+00	0	43	0	661651456	57	4564
2026-01-30 02:02:44.80	287.74	11.99	-43.3	-45.1	16.8	0.00e+00	0	43	0	662700032	57	4607
2026-01-30 02:02:46.38	287.47	11.92	-43.3	-45.2	16.7	0.00e+00	0	43	0	665845760	57	4656
2026-01-30 02:02:46.96	287.37	11.89	-43.5	-45.3	16.6	0.00e+00	0	43	0	666894336	57	4757
2026-01-30 02:02:48.54	287.11	11.82	-43.7	-45.6	16.3	0.00e+00	0	43	0	670040064	57	4902
2026-01-30 02:02:49.14	287.01	11.79	-43.7	-45.7	16.3	0.00e+00	0	43	0	671088640	58	4657
2026-01-30 02:02:50.86	286.72	11.71	-43.7	-45.7	16.2	0.00e+00	0	43	0	674234368	58	4684
2026-01-30 02:02:51.44	286.63	11.69	-43.8	-45.8	16.1	0.00e+00	0	43	0	675282944	58	4719
2026-01-30 02:02:53.03	286.37	11.61	-43.8	-45.8	16.1	0.00e+00	0	43	0	677380096	58	4721
2026-01-30 02:02:53.60	286.27	11.59	-43.8	-45.8	16.1	0.00e+00	0	43	0	679477248	58	4741
2026-01-30 02:02:55.18	286.01	11.51	-43.8	-45.9	16.1	0.00e+00	0	43	0	681574400	58	4773
2026-01-30 02:02:56.17	285.85	11.47	-43.9	-45.9	16.0	0.00e+00	0	43	0	683671552	58	4807
2026-01-30 02:02:57.17	285.69	11.42	-43.9	-45.9	16.0	0.00e+00	0	44	0	685768704	58	4806
2026-01-30 02:02:58.17	285.53	11.37	-44.0	-46.1	15.8	0.00e+00	0	43	0	687865856	58	4922
2026-01-30 02:02:59.18	285.36	11.33	-44.0	-46.0	15.9	0.00e+00	0	43	0	688914432	58	4860
2026-01-30 02:03:00.18	285.20	11.28	-44.1	-46.2	15.7	0.00e+00	0	43	0	691011584	58	4954
2026-01-30 02:03:01.18	285.04	11.23	-44.2	-46.4	15.6	0.00e+00	0	43	0	693108736	58	5050
2026-01-30 02:03:02.18	284.88	11.19	-44.2	-46.4	15.5	0.00e+00	0	43	0	695205888	59	4807
2026-01-30 02:03:03.19	284.72	11.14	-44.3	-46.5	15.4	0.00e+00	0	43	0	697303040	59	4852
2026-01-30 02:03:04.19	284.56	11.09	-44.4	-46.6	15.3	0.00e+00	0	43	0	698351616	59	4902
2026-01-30 02:03:05.37	284.38	11.03	-44.3	-46.6	15.3	0.00e+00	0	43	0	701497344	59	4904
2026-01-30 02:03:06.22	284.24	10.99	-44.3	-46.6	15.3	0.00e+00	0	43	0	702545920	59	4900
2026-01-30 02:03:07.37	284.06	10.94	-44.3	-46.6	15.3	0.00e+00	0	43	0	704643072	59	4908
2026-01-30 02:03:08.23	283.93	10.90	-44.2	-46.4	15.5	0.00e+00	0	44	0	706740224	59	4811
2026-01-30 02:03:09.66	283.70	10.83	-44.4	-46.7	15.2	0.00e+00	0	43	0	708837376	59	4942
2026-01-30 02:03:10.38	283.59	10.79	-44.3	-46.5	15.4	0.00e+00	0	43	0	709885952	59	4868
2026-01-30 02:03:11.67	283.39	10.73	-44.4	-46.8	15.1	0.00e+00	0	43	0	713031680	59	5007
2026-01-30 02:03:12.38	283.28	10.70	-44.5	-46.9	15.0	0.00e+00	0	43	0	714080256	59	5052
2026-01-30 02:03:13.68	283.08	10.63	-44.6	-47.1	14.8	0.00e+00	0	43	0	716177408	59	5171
2026-01-30 02:03:14.39	282.97	10.60	-44.6	-47.1	14.8	0.00e+00	0	43	0	718274560	59	5184
2026-01-30 02:03:15.68	282.77	10.54	-44.7	-47.2	14.7	0.00e+00	0	44	0	720371712	60	4975
2026-01-30 02:03:16.40	282.66	10.50	-44.7	-47.2	14.7	0.00e+00	0	43	0	721420288	60	4965
2026-01-30 02:03:17.69	282.47	10.44	-44.8	-47.3	14.6	0.00e+00	0	43	0	724566016	60	5023
2026-01-30 02:03:18.57	282.34	10.39	-44.8	-47.4	14.6	7.00e-07	0	43	0	725614592	60	5047
2026-01-30 02:03:19.71	282.16	10.34	-44.8	-47.3	14.6	0.00e+00	0	43	0	727711744	60	5024
2026-01-30 02:03:20.57	282.03	10.30	-44.7	-47.3	14.6	7.00e-07	0	43	0	729808896	60	4997
2026-01-30 02:03:21.72	281.86	10.24	-44.7	-47.3	14.7	1.50e-06	0	43	0	731906048	60	4984
2026-01-30 02:03:22.85	281.69	10.18	-44.7	-47.2	14.7	0.00e+00	0	43	0	734003200	60	4967
2026-01-30 02:03:23.71	281.56	10.14	-44.7	-47.2	14.7	0.00e+00	0	43	0	735051776	60	4949
2026-01-30 02:03:24.86	281.39	10.08	-44.5	-47.0	14.9	0.00e+00	0	43	0	737148928	60	4855
2026-01-30 02:03:25.72	281.27	10.04	-44.5	-47.0	14.9	0.00e+00	0	43	0	739246080	60	4854
2026-01-30 02:03:26.86	281.10	9.98	-44.6	-47.1	14.8	0.00e+00	0	44	0	741343232	60	4879
2026-01-30 02:03:27.72	280.97	9.94	-44.5	-47.0	14.9	0.00e+00	0	43	0	743440384	60	4841
2026-01-30 02:03:28.87	280.81	9.88	-44.6	-47.1	14.8	0.00e+00	0	43	0	745537536	60	4904
2026-01-30 02:03:29.73	280.68	9.84	-44.6	-47.2	14.7	0.00e+00	0	43	0	746586112	60	4935
2026-01-30 02:03:30.87	280.51	9.78	-44.7	-47.3	14.6	0.00e+00	0	43	0	748683264	60	5015
2026-01-30 02:03:31.73	280.39	9.74	-44.7	-47.3	14.5	0.00e+00	0	43	0	750780416	60	5017
2026-01-30 02:03:33.00	280.21	9.68	-44.7	-47.3	14.5	0.00e+00	0	43	0	752877568	60	5028
2026-01-30 02:03:33.72	280.10	9.64	-44.7	-47.3	14.5	7.00e-07	0	43	0	753926144	60	5008
2026-01-30 02:03:35.20	279.89	9.57	-44.6	-47.2	14.7	7.00e-07	0	43	0	757071872	60	4972
2026-01-30 02:03:36.17	279.75	9.52	-44.6	-47.2	14.7	1.50e-06	0	43	0	759169024	60	4957
2026-01-30 02:03:37.17	279.61	9.47	-44.5	-47.1	14.7	0.00e+00	0	43	0	760217600	60	4913
2026-01-30 02:03:38.17	279.47	9.42	-44.6	-47.2	14.6	0.00e+00	0	43	0	762314752	60	4972
2026-01-30 02:03:39.18	279.33	9.36	-44.5	-47.0	14.9	0.00e+00	0	43	0	764411904	60	4837
2026-01-30 02:03:40.18	279.19	9.31	-44.6	-47.2	14.6	0.00e+00	0	43	0	766509056	60	4932
2026-01-30 02:03:41.18	279.05	9.26	-44.6	-47.1	14.8	0.00e+00	0	44	0	768606208	60	4901
2026-01-30 02:03:42.19	278.91	9.21	-44.5	-47.0	14.8	0.00e+00	0	43	0	769654784	60	4841
2026-01-30 02:03:43.26	278.76	9.16	-44.5	-46.9	14.9	0.00e+00	0	43	0	771751936	60	4810
2026-01-30 02:03:44.15	278.63	9.11	-44.5	-46.9	14.9	0.00e+00	0	43	0	773849088	60	4804
2026-01-30 02:03:45.29	278.48	9.05	-44.3	-46.7	15.1	0.00e+00	0	44	0	775946240	60	4688
2026-01-30 02:03:46.16	278.36	9.01	-44.3	-46.8	15.1	0.00e+00	0	43	0	778043392	60	4720
2026-01-30 02:03:47.30	278.20	8.95	-48.6	-62.9	3.8	8.48e-02	0	43	104	779091968	67	20103
2026-01-30 02:03:48.16	278.08	8.91	-48.8	-63.0	3.8	1.49e+00	0	43	104	779091968	68	19369
2026-01-30 02:03:49.31	277.93	8.85	-48.8	-63.0	3.8	1.49e+00	0	43	104	779091968	68	19349
2026-01-30 02:03:50.17	277.81	8.80	-48.7	-63.0	3.8	1.49e+00	0	43	104	779091968	68	19294
2026-01-30 02:03:51.32	277.65	8.74	-48.7	-63.0	3.8	1.49e+00	0	43	104	779091968	68	19261
2026-01-30 02:03:52.18	277.54	8.70	-48.7	-63.0	3.8	1.49e+00	0	43	104	779091968	68	19268
2026-01-30 02:03:53.33	277.38	8.64	-48.7	-63.0	3.8	1.49e+00	0	43	104	779091968	68	19289
2026-01-30 02:03:54.19	277.27	8.60	-48.7	-63.0	3.8	1.49e+00	0	44	104	779091968	68	19241
2026-01-30 02:03:55.34	277.12	8.54	-48.7	-63.0	3.8	1.49e+00	0	44	104	779091968	68	19260
2026-01-30 02:03:56.20	277.00	8.49	-48.7	-63.0	3.8	1.49e+00	0	43	104	779091968	68	19287
2026-01-30 02:03:57.35	276.85	8.43	-48.7	-63.0	3.8	1.49e+00	0	43	104	779091968	68	19241
2026-01-30 02:03:58.21	276.74	8.39	-48.7	-63.0	3.8	1.49e+00	0	43	104	779091968	68	19284
2026-01-30 02:03:59.36	276.59	8.33	-48.7	-63.0	3.8	1.49e+00	0	43	104	779091968	68	19333
2026-01-30 02:04:00.22	276.47	8.28	-48.7	-63.0	3.8	1.49e+00	0	43	104	779091968	68	19242
2026-01-30 02:04:01.37	276.32	8.23	-48.7	-63.0	3.8	1.49e+00	0	43	104	779091968	68	19197
2026-01-30 02:04:02.23	276.21	8.18	-48.7	-63.0	3.8	1.49e+00	0	43	104	779091968	68	19240
2026-01-30 02:04:03.38	276.06	8.12	-48.7	-63.0	3.8	1.49e+00	0	44	104	779091968	68	19200
2026-01-30 02:04:04.24	275.95	8.08	-48.7	-63.0	3.8	1.49e+00	0	43	104	779091968	68	19279
2026-01-30 02:04:05.38	275.81	8.02	-48.7	-63.0	3.8	1.49e+00	0	43	104	779091968	68	19278
2026-01-30 02:04:06.25	275.69	7.97	-48.7	-63.0	3.8	1.49e+00	0	43	104	779091968	68	19294
2026-01-30 02:04:07.39	275.55	7.91	-48.7	-63.0	3.8	1.49e+00	0	43	104	779091968	68	19219
2026-01-30 02:04:08.25	275.44	7.87	-48.7	-63.0	3.8	1.49e+00	0	44	104	779091968	68	19308
2026-01-30 02:04:09.40	275.29	7.81	-48.7	-63.0	3.8	1.49e+00	0	43	104	779091968	68	19296
2026-01-30 02:04:10.26	275.19	7.76	-48.7	-63.0	3.8	1.49e+00	0	43	104	779091968	68	19196
2026-01-30 02:04:11.41	275.04	7.70	-48.7	-63.0	3.8	1.49e+00	0	43	104	779091968	68	19267
2026-01-30 02:04:12.27	274.93	7.66	-48.7	-63.0	3.8	1.49e+00	0	44	104	779091968	68	19238
2026-01-30 02:04:13.42	274.79	7.60	-48.7	-63.0	3.8	1.49e+00	0	44	104	779091968	68	19236
2026-01-30 02:04:14.28	274.68	7.55	-48.7	-63.0	3.8	1.49e+00	0	43	104	779091968	68	19298
2026-01-30 02:04:15.43	274.54	7.49	-48.7	-63.0	3.8	1.49e+00	0	43	104	779091968	68	19342
2026-01-30 02:04:16.29	274.43	7.45	-48.7	-63.0	3.8	1.49e+00	0	44	104	779091968	68	19360
2026-01-30 02:04:17.44	274.29	7.39	-48.7	-63.0	3.8	1.49e+00	0	44	104	779091968	68	19283
2026-01-30 02:04:18.30	274.19	7.34	-48.7	-63.0	3.8	1.49e+00	0	43	104	779091968	68	19306
2026-01-30 02:04:19.45	274.05	7.28	-48.7	-63.0	3.8	1.49e+00	0	44	104	779091968	68	19282
2026-01-30 02:04:20.31	273.94	7.24	-48.7	-63.0	3.8	1.49e+00	0	44	104	779091968	68	19291
2026-01-30 02:04:21.46	273.80	7.18	-48.7	-63.0	3.8	1.49e+00	0	44	104	779091968	68	19253
2026-01-30 02:04:22.32	273.70	7.14	-48.7	-63.0	3.8	1.49e+00	0	44	104	779091968	68	19316
2026-01-30 02:04:23.47	273.56	7.07	-48.7	-63.0	3.8	1.49e+00	0	43	104	779091968	68	19326
2026-01-30 02:04:24.33	273.46	7.03	-48.7	-63.0	3.8	1.49e+00	0	43	104	779091968	68	19295
2026-01-30 02:04:25.48	273.32	6.97	-48.7	-63.0	3.8	1.49e+00	0	43	104	779091968	68	19260
2026-01-30 02:04:26.34	273.22	6.92	-48.7	-63.0	3.8	1.49e+00	0	44	104	779091968	68	19385
2026-01-30 02:04:27.48	273.08	6.87	-48.7	-63.0	3.8	1.49e+00	0	44	104	779091968	68	19205
2026-01-30 02:04:28.35	272.98	6.82	-48.7	-63.0	3.8	1.49e+00	0	44	104	779091968	68	19318
2026-01-30 02:04:29.49	272.85	6.76	-48.7	-63.0	3.8	1.49e+00	0	43	104	779091968	68	19298
2026-01-30 02:04:30.35	272.75	6.72	-48.7	-63.0	3.8	1.49e+00	0	43	104	779091968	68	19242
2026-01-30 02:04:31.50	272.61	6.65	-48.7	-63.0	3.8	1.49e+00	0	43	104	779091968	68	19314
2026-01-30 02:04:32.36	272.51	6.61	-48.7	-63.0	3.8	1.49e+00	0	43	104	779091968	68	19333
2026-01-30 02:04:33.51	272.38	6.55	-48.7	-63.0	3.8	1.49e+00	0	43	104	779091968	68	19306
2026-01-30 02:04:34.37	272.28	6.50	-48.7	-63.0	3.8	1.49e+00	0	43	104	779091968	68	19278
2026-01-30 02:04:35.52	272.15	6.44	-48.7	-63.0	3.8	1.49e+00	0	43	104	779091968	68	19231
2026-01-30 02:04:36.38	272.05	6.40	-48.7	-63.0	3.8	1.49e+00	0	43	104	779091968	68	19313
2026-01-30 02:04:37.53	271.92	6.34	-48.7	-63.0	3.8	1.49e+00	0	43	104	779091968	68	19235
2026-01-30 02:04:38.39	271.82	6.29	-48.7	-63.0	3.8	1.49e+00	0	43	104	779091968	68	19245
2026-01-30 02:04:39.53	271.69	6.23	-48.7	-63.0	3.8	1.49e+00	0	43	104	779091968	68	19263
2026-01-30 02:04:40.40	271.59	6.19	-48.7	-63.0	3.8	1.49e+00	0	44	104	779091968	68	19294
2026-01-30 02:04:41.54	271.46	6.13	-48.7	-63.0	3.8	1.49e+00	0	43	104	779091968	68	19266
2026-01-30 02:04:42.40	271.37	6.08	-48.7	-63.0	3.8	1.49e+00	0	43	104	779091968	68	19237
2026-01-30 02:04:43.55	271.24	6.02	-48.7	-63.0	3.8	1.49e+00	0	44	104	779091968	68	19303
2026-01-30 02:04:44.41	271.14	5.98	-48.7	-63.0	3.8	1.49e+00	0	44	104	779091968	68	19245
2026-01-30 02:04:45.56	271.01	5.92	-48.7	-63.0	3.8	1.49e+00	0	44	104	779091968	68	19355
2026-01-30 02:04:46.42	270.92	5.87	-48.7	-63.0	3.8	1.49e+00	0	43	104	779091968	68	19368
2026-01-30 02:04:47.57	270.79	5.81	-48.7	-63.0	3.8	1.49e+00	0	43	104	779091968	68	19342
2026-01-30 02:04:48.43	270.70	5.77	-48.7	-63.1	3.8	1.49e+00	0	44	104	779091968	68	19393
2026-01-30 02:04:49.58	270.57	5.71	-48.7	-63.0	3.8	1.49e+00	0	44	104	779091968	68	19308
2026-01-30 02:04:50.44	270.48	5.66	-48.7	-63.0	3.8	1.49e+00	0	44	104	779091968	68	19331
2026-01-30 02:04:51.59	270.35	5.60	-48.7	-63.0	3.8	1.49e+00	0	43	104	779091968	68	19355
2026-01-30 02:04:52.45	270.26	5.56	-48.7	-63.0	3.8	1.49e+00	0	43	104	779091968	68	19349
2026-01-30 02:04:53.60	270.14	5.50	-48.7	-63.0	3.8	1.49e+00	0	44	104	779091968	68	19258
2026-01-30 02:04:54.46	270.05	5.45	-48.7	-63.0	3.8	1.49e+00	0	43	104	779091968	68	19255
2026-01-30 02:04:55.61	269.92	5.39	-48.7	-63.0	3.8	1.49e+00	0	43	104	779091968	68	19252
2026-01-30 02:04:56.47	269.83	5.35	-48.7	-63.0	3.8	1.49e+00	0	43	104	779091968	68	19315
2026-01-30 02:04:57.62	269.71	5.29	-48.7	-63.0	3.8	1.49e+00	0	44	104	779091968	68	19257
2026-01-30 02:04:58.48	269.62	5.24	-48.7	-62.9	3.8	1.49e+00	0	44	104	779091968	68	19141
2026-01-30 02:04:59.62	269.50	5.18	-48.7	-62.9	3.8	1.49e+00	0	43	104	779091968	68	19161
2026-01-30 02:05:00.48	269.41	5.14	-48.7	-63.0	3.8	1.49e+00	0	44	104	779091968	68	19255
2026-01-30 02:05:01.63	269.29	5.08	-48.7	-63.0	3.8	1.49e+00	0	43	104	779091968	68	19213
2026-01-30 02:05:02.49	269.20	5.03	-48.7	-63.0	3.8	1.49e+00	0	44	104	779091968	68	19215
2026-01-30 02:05:03.64	269.08	4.97	-48.7	-63.0	3.8	1.49e+00	0	44	104	779091968	68	19248

#Closed at: 2026-01-30 02:05:04
#Recorded file [779 MB]: D:/Data/31040_260130_045540.dat