passes_logs/2026/01/30/T1/T1__20260130_122130_FENGYUN_3D_rec.log

#Pass ID: 20260130_122130_FENGYUN 3D
#Satellite: FENGYUN 3D
#Configuration: FENGYUN 3D
#almurnet v.1.7.20251203
#Start time: 2026-01-30 12:21:30

#Version: 2.0.20230620
#Station: T1
#Location: 37.570604 lon 55.790049 lat
#TLE: 1 43010U 17072A   26029.52179110  .00000394  00000+0  20818-3 0  9997
#TLE: 2 43010  98.9957   1.5649 0002507  83.7772 276.3689 14.19703315425310

#Time	Az	El	Level	Level2	SNR	BER	BlckErr	Temp	State	Recorded	gain1	gain2
2026-01-30 12:21:30.35	171.30	5.02	-50.8	-62.2	3.8	8.46e-01	0	38	104	0	73	13183
2026-01-30 12:21:31.35	171.32	5.09	-50.9	-62.1	3.8	8.46e-01	0	38	104	0	72	13871
2026-01-30 12:21:32.36	171.34	5.16	-51.1	-62.2	3.8	8.46e-01	0	38	104	0	72	13900
2026-01-30 12:21:33.36	171.36	5.23	-50.9	-62.2	3.8	8.48e-01	0	38	104	0	72	13960
2026-01-30 12:21:34.36	171.38	5.31	-51.1	-62.2	3.8	8.47e-01	0	38	104	0	72	13966
2026-01-30 12:21:35.37	171.41	5.38	-50.8	-62.1	3.8	8.47e-01	0	38	104	0	72	13874
2026-01-30 12:21:36.37	171.43	5.45	-50.7	-62.2	3.8	8.45e-01	0	38	104	0	72	13906
2026-01-30 12:21:37.38	171.45	5.52	-51.0	-62.2	3.8	8.46e-01	0	38	104	0	72	13892
2026-01-30 12:21:38.38	171.47	5.60	-51.0	-62.1	3.8	8.46e-01	0	38	104	0	72	13850
2026-01-30 12:21:39.39	171.50	5.67	-51.0	-62.1	3.8	8.47e-01	0	38	104	0	72	13879
2026-01-30 12:21:40.39	171.52	5.74	-50.7	-62.1	3.8	8.46e-01	0	38	104	0	72	13794
2026-01-30 12:21:41.39	171.54	5.82	-51.0	-62.1	3.8	8.47e-01	0	38	104	0	72	13854
2026-01-30 12:21:42.40	171.56	5.89	-50.9	-62.1	3.8	8.47e-01	0	39	104	0	72	13808
2026-01-30 12:21:43.40	171.59	5.97	-51.0	-62.1	3.8	8.47e-01	0	38	104	0	72	13789
2026-01-30 12:21:44.41	171.61	6.04	-51.0	-62.1	3.8	8.45e-01	0	38	104	0	72	13758
2026-01-30 12:21:45.41	171.63	6.11	-50.7	-62.1	3.8	8.48e-01	0	38	104	0	72	13812
2026-01-30 12:21:46.42	171.66	6.19	-50.5	-62.1	3.8	8.47e-01	0	38	104	0	72	13774
2026-01-30 12:21:47.42	171.68	6.26	-50.5	-62.1	3.8	8.47e-01	0	39	104	0	72	13749
2026-01-30 12:21:48.43	171.70	6.34	-50.7	-62.0	3.8	8.47e-01	0	39	104	0	72	13710
2026-01-30 12:21:49.43	171.73	6.41	-50.2	-62.0	3.8	8.46e-01	0	39	104	0	72	13642
2026-01-30 12:21:50.43	171.75	6.49	-50.5	-62.0	3.8	8.48e-01	0	39	104	0	72	13645
2026-01-30 12:21:51.44	171.77	6.57	-50.7	-62.0	3.8	8.47e-01	0	39	104	0	72	13593
2026-01-30 12:21:52.44	171.80	6.64	-50.3	-61.9	3.8	8.47e-01	0	38	104	0	72	13525
2026-01-30 12:21:53.45	171.82	6.72	-50.1	-61.8	3.8	8.47e-01	0	39	104	0	72	13343
2026-01-30 12:21:54.45	171.85	6.79	-49.7	-61.9	3.8	8.47e-01	0	39	104	0	71	14216
2026-01-30 12:21:55.46	171.87	6.87	-49.6	-61.5	3.8	8.47e-01	0	39	104	0	71	13707
2026-01-30 12:21:56.46	171.90	6.95	-47.5	-61.1	3.8	8.46e-01	0	39	104	0	66	17362
2026-01-30 12:21:57.47	171.92	7.02	-46.4	-60.3	3.8	8.47e-01	0	39	104	0	64	17875
2026-01-30 12:21:58.47	171.95	7.10	-46.5	-60.0	3.8	8.47e-01	0	39	104	0	64	17190
2026-01-30 12:21:59.47	171.97	7.18	-46.5	-59.6	3.8	8.47e-01	0	39	104	0	64	16365
2026-01-30 12:22:00.48	172.00	7.26	-46.5	-58.8	4.0	8.45e-01	0	39	104	0	64	15050
2026-01-30 12:22:01.48	172.02	7.33	-46.2	-57.8	4.2	8.40e-01	0	39	0	0	64	13347
2026-01-30 12:22:02.48	172.05	7.41	-46.2	-56.4	4.7	8.26e-01	0	39	0	0	64	11408
2026-01-30 12:22:03.49	172.07	7.49	-46.1	-55.1	5.5	7.44e-01	0	39	0	0	63	10319
2026-01-30 12:22:04.49	172.10	7.57	-45.9	-53.6	6.6	3.11e-01	0	39	0	4194304	63	8744
2026-01-30 12:22:05.50	172.12	7.65	-45.5	-52.0	8.0	9.44e-02	0	39	0	10485760	63	7253
2026-01-30 12:22:06.50	172.15	7.73	-45.0	-50.4	9.7	2.76e-02	0	39	0	15728640	62	6368
2026-01-30 12:22:07.50	172.17	7.81	-44.7	-49.5	10.6	5.07e-03	0	39	0	22020096	61	6113
2026-01-30 12:22:08.51	172.20	7.89	-44.3	-48.6	11.6	2.95e-03	0	39	0	27262976	60	5823
2026-01-30 12:22:09.51	172.22	7.97	-44.1	-47.7	12.4	2.25e-04	0	39	0	32505856	59	5567
2026-01-30 12:22:10.52	172.25	8.05	-43.7	-47.1	13.1	5.49e-05	0	39	0	38797312	59	5166
2026-01-30 12:22:11.52	172.28	8.13	-43.6	-46.9	13.3	6.68e-04	0	39	0	44040192	59	5048
2026-01-30 12:22:12.53	172.30	8.21	-43.3	-46.4	13.8	0.00e+00	0	39	0	50331648	58	5074
2026-01-30 12:22:13.53	172.33	8.29	-43.4	-46.5	13.7	8.00e-06	0	39	0	55574528	58	5142
2026-01-30 12:22:14.53	172.36	8.37	-43.4	-46.6	13.6	9.10e-06	0	39	0	60817408	58	5163
2026-01-30 12:22:15.54	172.38	8.45	-43.6	-46.9	13.3	2.17e-05	0	39	0	67108864	58	5342
2026-01-30 12:22:16.54	172.41	8.53	-43.8	-47.4	12.8	7.66e-05	0	40	0	72351744	58	5662
2026-01-30 12:22:17.55	172.44	8.61	-44.5	-48.5	11.7	5.29e-04	0	39	0	78643200	59	6076
2026-01-30 12:22:18.55	172.46	8.70	-44.8	-49.6	10.5	3.52e-03	0	39	0	83886080	60	6545
2026-01-30 12:22:19.55	172.49	8.78	-45.3	-51.1	8.9	2.53e-02	0	39	0	89128960	61	7368
2026-01-30 12:22:20.55	172.52	8.86	-45.7	-53.0	7.2	8.70e-02	0	39	0	95420416	62	8574
2026-01-30 12:22:21.56	172.55	8.94	-46.0	-54.8	5.7	3.74e-01	0	39	0	100663296	62	10564
2026-01-30 12:22:22.56	172.57	9.03	-46.3	-57.2	4.4	8.00e-01	0	40	0	101711872	63	13151
2026-01-30 12:22:23.57	172.60	9.11	-46.4	-58.6	3.9	8.44e-01	0	40	104	101711872	63	15524
2026-01-30 12:22:24.57	172.63	9.20	-46.4	-59.6	3.8	8.45e-01	0	39	104	101711872	63	17308
2026-01-30 12:22:25.57	172.66	9.28	-46.1	-57.9	3.9	8.46e-01	0	39	104	101711872	63	14276
2026-01-30 12:22:26.57	172.69	9.36	-43.3	-46.0	14.0	4.58e-02	0	39	0	103809024	58	4854
2026-01-30 12:22:27.58	172.72	9.45	-46.0	-53.8	6.9	2.39e-02	0	39	0	109051904	62	9426
2026-01-30 12:22:28.58	172.74	9.53	-45.3	-50.3	9.5	8.38e-01	0	40	0	110100480	62	6302
2026-01-30 12:22:29.58	172.77	9.62	-41.3	-42.9	17.0	0.00e+00	0	40	0	115343360	54	4290
2026-01-30 12:22:30.59	172.80	9.70	-41.0	-42.6	17.4	0.00e+00	0	40	0	121634816	53	4355
2026-01-30 12:22:31.59	172.83	9.79	-40.7	-42.2	17.8	0.00e+00	0	40	0	126877696	53	4175
2026-01-30 12:22:32.59	172.86	9.87	-40.9	-42.4	17.6	0.00e+00	0	40	0	132120576	53	4274
2026-01-30 12:22:33.60	172.89	9.96	-40.3	-41.8	18.2	0.00e+00	0	39	0	138412032	52	4217
2026-01-30 12:22:34.60	172.92	10.05	-40.3	-41.8	18.2	0.00e+00	0	40	0	143654912	52	4197
2026-01-30 12:22:35.70	172.95	10.14	-40.0	-41.5	18.4	0.00e+00	0	40	0	149946368	52	4075
2026-01-30 12:22:36.55	172.98	10.22	-40.4	-41.9	18.2	0.00e+00	0	39	0	155189248	51	4525
2026-01-30 12:22:37.70	173.01	10.32	-40.4	-41.9	18.2	5.70e-06	0	40	0	161480704	51	4542
2026-01-30 12:22:38.66	173.04	10.40	-40.2	-41.7	18.4	0.00e+00	0	40	0	166723584	51	4409
2026-01-30 12:22:39.66	173.07	10.49	-40.3	-41.8	18.3	0.00e+00	0	40	0	171966464	51	4462
2026-01-30 12:22:40.87	173.11	10.60	-40.0	-41.4	18.7	0.00e+00	0	40	0	179306496	51	4253
2026-01-30 12:22:41.73	173.13	10.67	-39.9	-41.3	18.7	0.00e+00	0	40	0	183500800	51	4239
2026-01-30 12:22:42.88	173.17	10.77	-39.7	-41.1	19.0	0.00e+00	0	40	0	190840832	51	4100
2026-01-30 12:22:43.74	173.20	10.85	-39.8	-41.1	18.9	0.00e+00	0	40	0	195035136	51	4137
2026-01-30 12:22:44.88	173.23	10.95	-39.8	-41.2	18.8	0.00e+00	0	40	0	201326592	51	4160
2026-01-30 12:22:45.74	173.26	11.03	-39.6	-41.0	19.0	0.00e+00	0	40	0	206569472	51	4067
2026-01-30 12:22:46.89	173.29	11.13	-39.5	-40.9	19.1	6.80e-06	0	40	0	212860928	50	4276
2026-01-30 12:22:47.74	173.32	11.21	-39.6	-40.9	19.1	0.00e+00	0	40	0	218103808	50	4265
2026-01-30 12:22:48.89	173.36	11.32	-39.8	-41.2	18.8	0.00e+00	0	40	0	224395264	50	4417
2026-01-30 12:22:49.75	173.39	11.39	-39.6	-41.0	19.1	0.00e+00	0	40	0	229638144	50	4295
2026-01-30 12:22:50.89	173.42	11.50	-39.5	-40.7	19.3	0.00e+00	0	40	0	235929600	50	4185
2026-01-30 12:22:51.75	173.45	11.58	-39.3	-40.5	19.5	0.00e+00	0	40	0	240123904	50	4083
2026-01-30 12:22:52.90	173.49	11.68	-39.4	-40.5	19.4	0.00e+00	0	40	0	247463936	50	4094
2026-01-30 12:22:53.76	173.52	11.76	-39.6	-40.8	19.3	0.00e+00	0	40	0	251658240	50	4209
2026-01-30 12:22:54.90	173.55	11.87	-39.4	-40.5	19.5	0.00e+00	0	40	0	257949696	50	4093
2026-01-30 12:22:55.76	173.58	11.95	-39.5	-40.6	19.5	0.00e+00	0	40	0	263192576	50	4114
2026-01-30 12:22:56.91	173.62	12.06	-39.6	-40.7	19.4	0.00e+00	0	40	0	269484032	50	4152
2026-01-30 12:22:57.77	173.65	12.14	-39.6	-40.7	19.4	0.00e+00	0	40	0	274726912	50	4155
2026-01-30 12:22:59.14	173.70	12.27	-39.5	-40.5	19.5	0.00e+00	0	40	0	282066944	50	4097
2026-01-30 12:22:59.85	173.72	12.33	-39.6	-40.7	19.4	0.00e+00	0	40	0	286261248	50	4150
2026-01-30 12:23:01.14	173.76	12.46	-39.5	-40.5	19.5	0.00e+00	0	40	0	293601280	50	4087
2026-01-30 12:23:01.86	173.79	12.53	-39.6	-40.7	19.3	0.00e+00	0	40	0	297795584	50	4164
2026-01-30 12:23:03.15	173.83	12.65	-39.7	-40.7	19.3	0.00e+00	0	40	0	305135616	50	4162
2026-01-30 12:23:03.93	173.86	12.72	-39.5	-40.5	19.5	0.00e+00	0	40	0	309329920	50	4059
2026-01-30 12:23:05.22	173.91	12.85	-39.4	-40.4	19.6	0.00e+00	0	40	0	316669952	50	4024
2026-01-30 12:23:06.03	173.93	12.93	-39.4	-40.4	19.6	0.00e+00	0	40	0	320864256	50	4009
2026-01-30 12:23:07.17	173.97	13.04	-39.3	-40.3	19.7	0.00e+00	0	40	0	327155712	50	3972
2026-01-30 12:23:08.03	174.00	13.12	-39.3	-40.3	19.7	0.00e+00	0	40	0	332398592	50	3972
2026-01-30 12:23:09.18	174.05	13.23	-39.3	-40.3	19.7	0.00e+00	0	40	0	338690048	50	3962
2026-01-30 12:23:10.04	174.08	13.32	-39.1	-40.1	19.9	0.00e+00	0	40	0	342884352	50	3880
2026-01-30 12:23:11.18	174.12	13.43	-39.2	-40.2	19.8	0.00e+00	0	40	0	349175808	50	3917
2026-01-30 12:23:12.04	174.15	13.52	-39.1	-40.0	20.0	0.00e+00	0	40	0	354418688	50	3858
2026-01-30 12:23:13.19	174.19	13.63	-39.1	-40.1	19.9	0.00e+00	0	40	0	360710144	50	3890
2026-01-30 12:23:14.05	174.22	13.72	-39.0	-40.0	20.0	0.00e+00	0	40	0	365953024	50	3858
2026-01-30 12:23:15.19	174.27	13.83	-38.9	-39.9	20.1	0.00e+00	0	40	0	372244480	49	4023
2026-01-30 12:23:16.05	174.30	13.92	-39.0	-40.0	20.0	0.00e+00	0	40	0	377487360	49	4053
2026-01-30 12:23:17.20	174.34	14.04	-39.0	-40.0	20.0	0.00e+00	0	40	0	383778816	49	4083
2026-01-30 12:23:18.06	174.37	14.12	-38.9	-39.9	20.1	0.00e+00	0	40	0	387973120	49	4010
2026-01-30 12:23:19.20	174.42	14.24	-38.7	-39.7	20.2	0.00e+00	0	40	0	395313152	49	3943
2026-01-30 12:23:20.07	174.45	14.33	-38.6	-39.6	20.3	0.00e+00	0	40	0	399507456	49	3903
2026-01-30 12:23:21.21	174.50	14.45	-38.7	-39.6	20.3	0.00e+00	0	40	0	405798912	49	3908
2026-01-30 12:23:22.07	174.53	14.54	-38.6	-39.5	20.4	0.00e+00	0	40	0	411041792	49	3862
2026-01-30 12:23:23.22	174.57	14.65	-38.6	-39.5	20.4	0.00e+00	0	40	0	417333248	49	3857
2026-01-30 12:23:24.08	174.61	14.74	-38.5	-39.4	20.5	0.00e+00	0	40	0	422576128	49	3821
2026-01-30 12:23:25.22	174.65	14.86	-38.4	-39.4	20.6	0.00e+00	0	40	0	428867584	48	4012
2026-01-30 12:23:26.08	174.69	14.95	-38.4	-39.4	20.6	0.00e+00	0	40	0	433061888	48	4006
2026-01-30 12:23:27.33	174.74	15.09	-38.5	-39.5	20.5	0.00e+00	0	40	0	440401920	48	4054
2026-01-30 12:23:28.18	174.77	15.18	-38.3	-39.2	20.8	0.00e+00	0	40	0	445644800	48	3930
2026-01-30 12:23:29.33	174.82	15.30	-38.2	-39.1	20.8	0.00e+00	0	40	0	451936256	48	3911
2026-01-30 12:23:30.19	174.85	15.39	-38.2	-39.1	20.8	0.00e+00	0	40	0	456130560	48	3907
2026-01-30 12:23:31.49	174.91	15.53	-38.2	-39.1	20.8	0.00e+00	0	40	0	463470592	48	3884
2026-01-30 12:23:32.21	174.94	15.61	-38.1	-39.0	20.9	0.00e+00	0	40	0	467664896	48	3851
2026-01-30 12:23:33.50	174.99	15.75	-38.1	-38.9	21.0	0.00e+00	0	40	0	475004928	48	3815
2026-01-30 12:23:34.22	175.02	15.83	-37.9	-38.8	20.9	0.00e+00	0	40	0	479199232	47	3961
2026-01-30 12:23:35.51	175.08	15.97	-37.9	-38.9	20.8	0.00e+00	0	40	0	486539264	47	4005
2026-01-30 12:23:36.25	175.11	16.05	-37.9	-38.8	20.9	0.00e+00	0	40	0	490733568	47	3974
2026-01-30 12:23:37.54	175.16	16.19	-37.8	-38.7	20.9	0.00e+00	0	40	0	498073600	47	3935
2026-01-30 12:23:38.26	175.20	16.27	-37.8	-38.7	20.9	0.00e+00	0	40	0	502267904	47	3946
2026-01-30 12:23:39.55	175.25	16.42	-37.8	-38.7	21.0	0.00e+00	0	40	0	509607936	47	3927
2026-01-30 12:23:40.27	175.28	16.50	-37.9	-38.8	20.9	0.00e+00	0	40	0	513802240	47	3993
2026-01-30 12:23:41.56	175.34	16.64	-37.7	-38.6	21.0	0.00e+00	0	40	0	521142272	47	3895
2026-01-30 12:23:42.27	175.37	16.72	-37.7	-38.6	21.1	0.00e+00	0	40	0	524288000	47	3876
2026-01-30 12:23:43.56	175.43	16.87	-37.8	-38.7	21.0	0.00e+00	0	40	0	531628032	47	3919
2026-01-30 12:23:44.28	175.46	16.95	-37.7	-38.5	21.1	0.00e+00	0	40	0	535822336	47	3857
2026-01-30 12:23:45.57	175.52	17.10	-37.6	-38.5	21.2	0.00e+00	0	40	0	543162368	47	3826
2026-01-30 12:23:46.28	175.55	17.18	-37.7	-38.6	21.1	0.00e+00	0	40	0	547356672	47	3878
2026-01-30 12:23:47.57	175.61	17.33	-37.7	-38.6	21.1	0.00e+00	0	40	0	554696704	47	3876
2026-01-30 12:23:48.29	175.65	17.41	-37.6	-38.5	21.1	0.00e+00	0	40	0	557842432	47	3852
2026-01-30 12:23:49.58	175.71	17.56	-37.6	-38.4	21.2	0.00e+00	0	40	0	565182464	47	3810
2026-01-30 12:23:50.29	175.74	17.64	-37.6	-38.4	21.2	0.00e+00	0	40	0	569376768	47	3815
2026-01-30 12:23:51.58	175.80	17.80	-37.5	-38.3	21.3	0.00e+00	0	40	0	576716800	46	3987
2026-01-30 12:23:52.30	175.84	17.88	-37.5	-38.3	21.3	0.00e+00	0	40	0	580911104	46	3988
2026-01-30 12:23:53.59	175.90	18.03	-37.5	-38.4	21.2	0.00e+00	0	40	0	588251136	46	4022
2026-01-30 12:23:54.31	175.93	18.12	-37.6	-38.4	21.2	0.00e+00	0	40	0	592445440	46	4044
2026-01-30 12:23:55.60	176.00	18.28	-37.5	-38.4	21.2	0.00e+00	0	40	0	599785472	46	4036
2026-01-30 12:23:56.31	176.03	18.36	-37.5	-38.4	21.2	0.00e+00	0	40	0	603979776	46	4027
2026-01-30 12:23:57.60	176.10	18.52	-37.5	-38.4	21.2	0.00e+00	0	40	0	611319808	46	4031
2026-01-30 12:23:58.59	176.15	18.64	-37.6	-38.5	21.2	0.00e+00	0	40	0	616562688	46	4065
2026-01-30 12:23:59.59	176.20	18.76	-37.7	-38.5	21.1	0.00e+00	0	40	0	621805568	46	4089
2026-01-30 12:24:00.95	176.27	18.93	-37.7	-38.6	21.1	0.00e+00	0	40	0	630194176	46	4103
2026-01-30 12:24:01.69	176.30	19.02	-37.6	-38.4	21.1	0.00e+00	0	40	0	633339904	46	4048
2026-01-30 12:24:02.98	176.37	19.18	-37.5	-38.4	21.2	0.00e+00	0	40	0	640679936	46	4033
2026-01-30 12:24:03.70	176.41	19.27	-37.5	-38.4	21.2	0.00e+00	0	40	0	644874240	46	4034
2026-01-30 12:24:04.99	176.48	19.43	-37.6	-38.4	21.1	0.00e+00	0	40	0	652214272	46	4045
2026-01-30 12:24:05.70	176.51	19.52	-37.5	-38.4	21.2	0.00e+00	0	40	0	656408576	46	4025
2026-01-30 12:24:06.99	176.58	19.68	-37.3	-38.1	21.4	0.00e+00	0	40	0	663748608	46	3895
2026-01-30 12:24:07.71	176.62	19.78	-37.2	-38.0	21.5	0.00e+00	0	40	0	667942912	46	3854
2026-01-30 12:24:09.00	176.69	19.94	-37.2	-38.0	21.5	0.00e+00	0	40	0	675282944	46	3845
2026-01-30 12:24:09.71	176.73	20.03	-37.3	-38.1	21.4	0.00e+00	0	40	0	679477248	46	3907
2026-01-30 12:24:11.17	176.81	20.22	-37.1	-38.0	21.6	0.00e+00	0	40	0	686817280	46	3833
2026-01-30 12:24:11.89	176.85	20.31	-37.1	-37.9	21.6	0.00e+00	0	40	0	691011584	46	3793
2026-01-30 12:24:13.24	176.93	20.49	-36.9	-37.8	21.7	0.00e+00	0	40	0	698351616	45	3962
2026-01-30 12:24:13.96	176.97	20.59	-37.0	-37.8	21.7	0.00e+00	0	40	0	702545920	45	3971
2026-01-30 12:24:15.25	177.04	20.76	-37.1	-38.0	21.6	0.00e+00	0	40	0	709885952	45	4056
2026-01-30 12:24:15.97	177.08	20.85	-37.1	-37.9	21.6	0.00e+00	0	40	0	714080256	45	4032
2026-01-30 12:24:17.26	177.16	21.02	-37.1	-37.9	21.6	0.00e+00	0	40	0	721420288	45	4048
2026-01-30 12:24:17.97	177.20	21.12	-37.0	-37.9	21.6	0.00e+00	0	40	0	725614592	45	4016
2026-01-30 12:24:19.26	177.27	21.29	-37.1	-37.9	21.6	0.00e+00	0	40	0	732954624	45	4038
2026-01-30 12:24:19.98	177.32	21.39	-37.1	-37.9	21.6	0.00e+00	0	40	0	737148928	45	4040
2026-01-30 12:24:21.27	177.39	21.57	-37.1	-37.9	21.6	0.00e+00	0	40	0	743440384	45	4026
2026-01-30 12:24:22.08	177.44	21.68	-37.1	-37.9	21.6	0.00e+00	0	40	0	748683264	45	4048
2026-01-30 12:24:23.55	177.53	21.88	-37.0	-37.9	21.7	0.00e+00	0	40	0	757071872	45	4006
2026-01-30 12:24:24.26	177.57	21.98	-37.0	-37.9	21.6	0.00e+00	0	40	0	761266176	45	4009
2026-01-30 12:24:25.74	177.67	22.18	-37.1	-37.9	21.6	0.00e+00	0	40	0	768606208	45	4023
2026-01-30 12:24:26.46	177.71	22.28	-37.1	-37.9	21.6	0.00e+00	0	40	0	772800512	45	4024
2026-01-30 12:24:27.75	177.79	22.47	-36.9	-37.7	21.8	0.00e+00	0	40	0	780140544	45	3943
2026-01-30 12:24:28.47	177.84	22.57	-36.8	-37.6	21.9	0.00e+00	0	40	0	784334848	45	3903
2026-01-30 12:24:29.75	177.92	22.75	-36.8	-37.6	21.9	0.00e+00	0	40	0	791674880	45	3883
2026-01-30 12:24:30.47	177.97	22.85	-36.7	-37.5	22.0	0.00e+00	0	40	0	795869184	45	3842
2026-01-30 12:24:31.76	178.05	23.04	-36.7	-37.5	21.9	0.00e+00	0	40	0	803209216	45	3860
2026-01-30 12:24:32.47	178.10	23.14	-36.7	-37.5	22.0	0.00e+00	0	40	0	807403520	45	3848
2026-01-30 12:24:33.76	178.19	23.33	-36.6	-37.4	22.1	0.00e+00	0	40	0	814743552	45	3785
2026-01-30 12:24:34.56	178.24	23.45	-36.5	-37.3	22.1	0.00e+00	0	40	0	818937856	45	3780
2026-01-30 12:24:35.70	178.32	23.61	-36.5	-37.3	22.2	0.00e+00	0	40	0	825229312	44	3983
2026-01-30 12:24:36.80	178.39	23.78	-36.4	-37.2	22.2	0.00e+00	0	40	0	831520768	44	3955
2026-01-30 12:24:37.84	178.46	23.93	-36.4	-37.2	22.2	0.00e+00	0	40	0	836763648	44	3953
2026-01-30 12:24:38.84	178.53	24.08	-36.5	-37.3	22.2	0.00e+00	0	40	0	843055104	44	3990
2026-01-30 12:24:39.84	178.60	24.23	-36.5	-37.3	22.2	0.00e+00	0	40	0	848297984	44	3978
2026-01-30 12:24:40.84	178.68	24.38	-36.6	-37.4	22.1	0.00e+00	0	40	0	854589440	44	4015
2026-01-30 12:24:41.85	178.75	24.54	-36.6	-37.4	22.1	0.00e+00	0	40	0	859832320	44	4028
2026-01-30 12:24:42.85	178.82	24.69	-36.5	-37.3	22.2	0.00e+00	0	40	0	865075200	44	3964
2026-01-30 12:24:43.85	178.89	24.84	-36.5	-37.2	22.2	0.00e+00	0	40	0	871366656	44	3951
2026-01-30 12:24:44.86	178.97	25.00	-36.4	-37.2	22.3	0.00e+00	0	40	0	876609536	44	3922
2026-01-30 12:24:45.86	179.04	25.16	-36.4	-37.2	22.3	0.00e+00	0	40	0	881852416	44	3924
2026-01-30 12:24:46.87	179.12	25.31	-36.4	-37.2	22.3	0.00e+00	0	40	0	888143872	44	3941
2026-01-30 12:24:47.95	179.20	25.48	-36.5	-37.3	22.2	0.00e+00	0	40	0	894435328	44	3966
2026-01-30 12:24:48.82	179.27	25.62	-36.4	-37.2	22.3	0.00e+00	0	40	0	898629632	44	3915
2026-01-30 12:24:49.97	179.36	25.80	-36.4	-37.2	22.3	0.00e+00	0	40	0	904921088	44	3924
2026-01-30 12:24:50.83	179.42	25.94	-36.4	-37.2	22.3	0.00e+00	0	40	0	910163968	44	3924
2026-01-30 12:24:51.98	179.51	26.13	-36.4	-37.2	22.3	0.00e+00	0	40	0	916455424	44	3932
2026-01-30 12:24:52.84	179.58	26.27	-36.3	-37.1	22.3	0.00e+00	0	40	0	921698304	44	3892
2026-01-30 12:24:53.99	179.67	26.45	-36.3	-37.0	22.4	0.00e+00	0	40	0	927989760	44	3862
2026-01-30 12:24:54.84	179.74	26.59	-36.2	-37.0	22.4	0.00e+00	0	40	0	932184064	44	3831
2026-01-30 12:24:55.99	179.84	26.78	-36.3	-37.1	22.4	0.00e+00	0	40	0	939524096	44	3878
2026-01-30 12:24:56.85	179.91	26.93	-36.2	-36.9	22.4	0.00e+00	0	40	0	943718400	44	3820
2026-01-30 12:24:58.00	180.01	27.12	-36.0	-36.8	22.6	0.00e+00	0	40	0	951058432	44	3754
2026-01-30 12:24:58.86	180.08	27.26	-35.8	-36.6	22.6	0.00e+00	0	40	0	955252736	43	3877
2026-01-30 12:25:00.11	180.18	27.47	-35.9	-36.6	22.6	0.00e+00	0	40	0	962592768	43	3907
2026-01-30 12:25:00.88	180.25	27.60	-35.9	-36.6	22.6	0.00e+00	0	40	0	966787072	43	3898
2026-01-30 12:25:02.16	180.36	27.82	-35.9	-36.7	22.5	0.00e+00	0	40	0	974127104	43	3932
2026-01-30 12:25:02.88	180.43	27.94	-36.0	-36.7	22.5	0.00e+00	0	40	0	978321408	43	3956
2026-01-30 12:25:04.17	180.54	28.17	-36.0	-36.8	22.5	0.00e+00	0	40	0	985661440	43	3967
2026-01-30 12:25:04.90	180.61	28.29	-36.0	-36.8	22.4	0.00e+00	0	40	0	989855744	43	3990
2026-01-30 12:25:06.19	180.72	28.52	-36.1	-36.9	22.3	0.00e+00	0	40	0	996147200	43	4033
2026-01-30 12:25:07.01	180.80	28.66	-36.1	-36.9	22.4	0.00e+00	0	41	0	1001390080	43	4029
2026-01-30 12:25:08.15	180.91	28.87	-36.1	-36.9	22.3	0.00e+00	0	40	0	1007681536	43	4042
2026-01-30 12:25:09.25	181.01	29.06	-36.2	-37.0	22.3	0.00e+00	0	40	0	1013972992	43	4078
2026-01-30 12:25:10.11	181.09	29.21	-36.1	-36.9	22.4	0.00e+00	0	41	0	1019215872	43	4010
2026-01-30 12:25:11.25	181.20	29.42	-35.9	-36.7	22.5	0.00e+00	0	40	0	1025507328	43	3936
2026-01-30 12:25:12.11	181.28	29.58	-35.8	-36.6	22.6	0.00e+00	0	41	0	1029701632	43	3885
2026-01-30 12:25:13.26	181.40	29.79	-35.9	-36.6	22.6	0.00e+00	0	40	0	1035993088	43	3910
2026-01-30 12:25:14.12	181.48	29.94	-35.8	-36.6	22.6	0.00e+00	0	40	0	1041235968	43	3892
2026-01-30 12:25:15.26	181.60	30.15	-35.8	-36.5	22.7	0.00e+00	0	40	0	1047527424	43	3865
2026-01-30 12:25:16.12	181.68	30.31	-35.9	-36.6	22.6	0.00e+00	0	40	0	1052770304	43	3903
2026-01-30 12:25:17.33	181.81	30.54	-35.9	-36.6	22.6	0.00e+00	0	40	0	1059061760	43	3902
2026-01-30 12:25:18.19	181.90	30.70	-35.9	-36.6	22.5	0.00e+00	0	40	0	1064304640	43	3906
2026-01-30 12:25:19.40	182.02	30.93	-35.8	-36.6	22.6	0.00e+00	0	41	0	1070596096	43	3880
2026-01-30 12:25:20.26	182.12	31.09	-35.8	-36.5	22.7	0.00e+00	0	40	0	1075838976	43	3851
2026-01-30 12:25:21.41	182.24	31.31	-35.7	-36.5	22.7	0.00e+00	0	40	0	1082130432	43	3844
2026-01-30 12:25:22.27	182.33	31.48	-35.9	-36.6	22.5	0.00e+00	0	40	0	1087373312	43	3909
2026-01-30 12:25:23.42	182.46	31.70	-35.9	-36.7	22.5	0.00e+00	0	40	0	1093664768	43	3956
2026-01-30 12:25:24.28	182.56	31.87	-36.1	-36.9	22.3	0.00e+00	0	40	0	1097859072	43	4017
2026-01-30 12:25:25.58	182.70	32.12	-36.1	-36.9	22.3	0.00e+00	0	40	0	1105199104	43	4042
2026-01-30 12:25:26.30	182.78	32.27	-36.1	-36.9	22.4	0.00e+00	0	40	0	1109393408	43	4012
2026-01-30 12:25:27.80	182.96	32.56	-35.9	-36.7	22.5	0.00e+00	0	41	0	1117782016	43	3939
2026-01-30 12:25:28.51	183.04	32.71	-35.9	-36.7	22.6	0.00e+00	0	41	0	1121976320	43	3933
2026-01-30 12:25:29.80	183.19	32.96	-35.6	-36.4	22.8	0.00e+00	0	40	0	1129316352	43	3797
2026-01-30 12:25:30.52	183.28	33.11	-35.7	-36.4	22.8	0.00e+00	0	40	0	1133510656	43	3808
2026-01-30 12:25:31.81	183.44	33.37	-35.7	-36.4	22.7	0.00e+00	0	40	0	1140850688	43	3813
2026-01-30 12:25:32.52	183.52	33.52	-35.7	-36.5	22.7	0.00e+00	0	40	0	1145044992	43	3828
2026-01-30 12:25:33.81	183.68	33.78	-35.8	-36.6	22.6	0.00e+00	0	40	0	1152385024	43	3899
2026-01-30 12:25:34.53	183.77	33.93	-35.8	-36.6	22.6	0.00e+00	0	40	0	1155530752	43	3889
2026-01-30 12:25:35.82	183.94	34.20	-35.8	-36.5	22.6	0.00e+00	0	40	0	1162870784	43	3861
2026-01-30 12:25:36.53	184.03	34.35	-35.7	-36.4	22.7	0.00e+00	0	40	0	1167065088	43	3823
2026-01-30 12:25:37.82	184.20	34.62	-35.7	-36.5	22.7	0.00e+00	0	40	0	1174405120	43	3832
2026-01-30 12:25:38.67	184.31	34.80	-35.8	-36.5	22.7	0.00e+00	0	40	0	1179648000	43	3854
2026-01-30 12:25:40.13	184.51	35.12	-35.7	-36.5	22.7	0.00e+00	0	40	0	1186988032	43	3842
2026-01-30 12:25:40.85	184.61	35.27	-35.6	-36.4	22.7	0.00e+00	0	40	0	1191182336	43	3808
2026-01-30 12:25:42.14	184.79	35.55	-35.6	-36.4	22.8	0.00e+00	0	40	0	1198522368	43	3785
2026-01-30 12:25:42.86	184.89	35.71	-35.4	-36.2	22.9	0.00e+00	0	40	0	1202716672	42	3931
2026-01-30 12:25:44.15	185.07	35.99	-35.2	-36.0	23.1	0.00e+00	0	40	0	1210056704	42	3828
2026-01-30 12:25:44.91	185.18	36.16	-35.1	-35.9	23.2	0.00e+00	0	40	0	1214251008	42	3786
2026-01-30 12:25:46.20	185.37	36.45	-35.2	-35.9	23.1	0.00e+00	0	40	0	1221591040	42	3821
2026-01-30 12:25:47.01	185.49	36.63	-35.4	-36.1	23.0	0.00e+00	0	40	0	1225785344	42	3902
2026-01-30 12:25:48.16	185.66	36.88	-35.5	-36.2	22.9	0.00e+00	0	40	0	1233125376	42	3949
2026-01-30 12:25:49.02	185.79	37.08	-35.4	-36.1	23.0	0.00e+00	0	40	0	1237319680	42	3902
2026-01-30 12:25:50.16	185.96	37.34	-35.5	-36.3	22.9	0.00e+00	0	40	0	1243611136	42	3967
2026-01-30 12:25:51.31	186.14	37.60	-35.6	-36.4	22.9	0.00e+00	0	40	0	1250951168	42	4008
2026-01-30 12:25:52.35	186.31	37.84	-35.7	-36.4	22.8	0.00e+00	0	40	0	1256194048	42	4050
2026-01-30 12:25:53.34	186.47	38.07	-35.7	-36.4	22.8	0.00e+00	0	40	0	1261436928	42	4039
2026-01-30 12:25:54.55	186.67	38.35	-35.7	-36.4	22.8	0.00e+00	0	40	0	1268776960	42	4042
2026-01-30 12:25:55.41	186.81	38.55	-35.7	-36.5	22.8	0.00e+00	0	40	0	1274019840	42	4064
2026-01-30 12:25:56.56	187.00	38.83	-35.7	-36.4	22.8	0.00e+00	0	40	0	1280311296	42	4042
2026-01-30 12:25:57.42	187.15	39.03	-35.7	-36.5	22.8	0.00e+00	0	40	0	1284505600	42	4056
2026-01-30 12:25:58.56	187.34	39.30	-35.7	-36.4	22.8	0.00e+00	0	40	0	1290797056	42	4020
2026-01-30 12:25:59.42	187.50	39.51	-35.7	-36.4	22.8	0.00e+00	0	40	0	1296039936	42	4036
2026-01-30 12:26:00.57	187.70	39.79	-35.8	-36.6	22.7	0.00e+00	0	40	0	1302331392	42	4100
2026-01-30 12:26:01.42	187.85	39.99	-35.9	-36.7	22.6	0.00e+00	0	40	0	1307574272	42	4172
2026-01-30 12:26:02.57	188.06	40.27	-35.9	-36.7	22.6	0.00e+00	0	40	0	1313865728	42	4155
2026-01-30 12:26:03.43	188.22	40.49	-35.9	-36.6	22.7	0.00e+00	0	40	0	1318060032	42	4130
2026-01-30 12:26:04.57	188.44	40.77	-35.7	-36.4	22.9	0.00e+00	0	40	0	1325400064	42	4029
2026-01-30 12:26:05.43	188.61	40.98	-35.6	-36.3	23.0	0.00e+00	0	40	0	1329594368	42	4001
2026-01-30 12:26:06.61	188.83	41.28	-35.7	-36.5	22.9	0.00e+00	0	40	0	1336934400	42	4054
2026-01-30 12:26:07.47	189.00	41.49	-35.5	-36.2	23.1	0.00e+00	0	40	0	1341128704	42	3928
2026-01-30 12:26:08.62	189.24	41.78	-35.5	-36.2	23.1	0.00e+00	0	40	0	1347420160	42	3939
2026-01-30 12:26:09.48	189.41	42.00	-35.7	-36.4	22.9	0.00e+00	0	40	0	1352663040	42	4029
2026-01-30 12:26:10.62	189.65	42.29	-35.8	-36.6	22.7	0.00e+00	0	40	0	1358954496	42	4110
2026-01-30 12:26:11.48	189.83	42.51	-36.0	-36.8	22.6	0.00e+00	0	40	0	1364197376	42	4208
2026-01-30 12:26:12.63	190.07	42.81	-36.2	-37.0	22.4	0.00e+00	0	40	0	1370488832	43	4067
2026-01-30 12:26:13.61	190.29	43.06	-36.2	-37.0	22.3	0.00e+00	0	40	0	1375731712	43	4074
2026-01-30 12:26:14.79	190.55	43.37	-36.3	-37.1	22.3	0.00e+00	0	40	0	1382023168	43	4118
2026-01-30 12:26:15.65	190.74	43.60	-35.9	-36.7	22.6	0.00e+00	0	40	0	1387266048	43	3917
2026-01-30 12:26:17.00	191.05	43.95	-35.9	-36.7	22.6	0.00e+00	0	41	0	1394606080	43	3922
2026-01-30 12:26:17.72	191.22	44.14	-36.1	-36.9	22.5	0.00e+00	0	40	0	1398800384	43	4012
2026-01-30 12:26:19.01	191.52	44.49	-36.5	-37.3	22.1	0.00e+00	0	40	0	1406140416	43	4234
2026-01-30 12:26:19.72	191.69	44.68	-36.6	-37.4	22.0	0.00e+00	0	40	0	1410334720	43	4273
2026-01-30 12:26:21.01	192.01	45.02	-36.3	-37.1	22.3	0.00e+00	0	40	0	1417674752	43	4106
2026-01-30 12:26:21.72	192.19	45.22	-36.0	-36.8	22.5	0.00e+00	0	40	0	1421869056	43	3985
2026-01-30 12:26:23.01	192.51	45.57	-36.0	-36.8	22.6	0.00e+00	0	40	0	1429209088	43	3973
2026-01-30 12:26:23.73	192.70	45.76	-36.1	-36.9	22.6	0.00e+00	0	40	0	1432354816	43	4021
2026-01-30 12:26:25.02	193.03	46.12	-36.3	-37.1	22.4	0.00e+00	0	40	0	1439694848	43	4114
2026-01-30 12:26:25.73	193.22	46.31	-36.3	-37.1	22.4	0.00e+00	0	40	0	1443889152	43	4101
2026-01-30 12:26:27.02	193.57	46.67	-36.3	-37.1	22.4	0.00e+00	0	40	0	1451229184	43	4119
2026-01-30 12:26:27.74	193.77	46.87	-36.3	-37.0	22.4	0.00e+00	0	40	0	1455423488	43	4092
2026-01-30 12:26:29.03	194.13	47.23	-36.2	-37.0	22.5	0.00e+00	0	40	0	1462763520	43	4073
2026-01-30 12:26:29.74	194.33	47.42	-36.2	-37.0	22.5	0.00e+00	0	40	0	1466957824	43	4061
2026-01-30 12:26:31.03	194.71	47.79	-36.0	-36.7	22.7	0.00e+00	0	40	0	1474297856	43	3955
2026-01-30 12:26:31.75	194.92	47.99	-36.0	-36.7	22.8	0.00e+00	0	40	0	1478492160	43	3926
2026-01-30 12:26:33.04	195.31	48.35	-36.0	-36.8	22.7	0.00e+00	0	40	0	1484783616	43	3970
2026-01-30 12:26:33.75	195.53	48.56	-36.3	-37.0	22.5	0.00e+00	0	40	0	1488977920	43	4084
2026-01-30 12:26:35.04	195.93	48.92	-36.2	-36.9	22.5	0.00e+00	0	40	0	1496317952	43	4046
2026-01-30 12:26:35.76	196.16	49.13	-36.3	-37.0	22.4	0.00e+00	0	40	0	1500512256	43	4097
2026-01-30 12:26:37.05	196.58	49.50	-36.3	-37.0	22.4	0.00e+00	0	40	0	1507852288	43	4089
2026-01-30 12:26:37.77	196.82	49.70	-36.3	-37.0	22.5	0.00e+00	0	40	0	1512046592	43	4091
2026-01-30 12:26:39.06	197.25	50.08	-36.3	-37.1	22.4	0.00e+00	0	40	0	1519386624	43	4134
2026-01-30 12:26:39.77	197.49	50.28	-36.4	-37.2	22.3	0.00e+00	0	40	0	1522532352	43	4157
2026-01-30 12:26:41.06	197.94	50.66	-36.3	-37.0	22.4	0.00e+00	0	40	0	1529872384	43	4090
2026-01-30 12:26:42.23	198.36	51.00	-36.4	-37.1	22.4	0.00e+00	0	40	0	1537212416	43	4135
2026-01-30 12:26:43.09	198.67	51.25	-36.6	-37.5	22.1	0.00e+00	0	40	0	1541406720	43	4295
2026-01-30 12:26:44.23	199.10	51.58	-36.9	-37.7	22.1	0.00e+00	0	40	0	1547698176	44	4156
2026-01-30 12:26:45.09	199.42	51.83	-36.9	-37.7	22.1	0.00e+00	0	40	0	1552941056	44	4170
2026-01-30 12:26:46.23	199.86	52.16	-36.9	-37.6	22.2	0.00e+00	0	40	0	1559232512	44	4120
2026-01-30 12:26:47.09	200.20	52.42	-37.0	-37.8	22.0	0.00e+00	0	40	0	1564475392	44	4205
2026-01-30 12:26:48.24	200.67	52.75	-37.4	-38.2	21.7	0.00e+00	0	40	0	1570766848	45	4156
2026-01-30 12:26:49.10	201.02	53.01	-37.4	-38.2	21.7	0.00e+00	0	40	0	1576009728	45	4158
2026-01-30 12:26:50.25	201.50	53.35	-37.4	-38.2	21.6	0.00e+00	0	40	0	1582301184	45	4190
2026-01-30 12:26:51.11	201.87	53.60	-37.3	-38.1	21.8	0.00e+00	0	40	0	1586495488	45	4099
2026-01-30 12:26:52.45	202.45	53.99	-37.1	-37.9	21.9	0.00e+00	0	40	0	1594884096	45	4033
2026-01-30 12:26:53.16	202.77	54.20	-37.1	-37.9	21.8	0.00e+00	0	40	0	1598029824	45	4024
2026-01-30 12:26:54.68	203.46	54.65	-36.8	-37.5	22.1	0.00e+00	0	40	0	1606418432	45	3853
2026-01-30 12:26:55.67	203.92	54.94	-36.9	-37.7	21.9	0.00e+00	0	40	0	1612709888	45	3944
2026-01-30 12:26:56.98	204.55	55.33	-37.0	-37.8	21.9	0.00e+00	0	40	0	1620049920	45	3960
2026-01-30 12:26:57.70	204.90	55.54	-37.1	-37.9	21.8	0.00e+00	0	40	0	1624244224	45	4036
2026-01-30 12:26:58.99	205.54	55.92	-37.1	-38.0	21.7	0.00e+00	0	40	0	1630535680	45	4061
2026-01-30 12:26:59.71	205.91	56.13	-37.0	-37.8	21.8	0.00e+00	0	40	0	1634729984	45	4004
2026-01-30 12:27:01.02	206.59	56.51	-36.9	-37.7	22.0	0.00e+00	0	40	0	1642070016	45	3916
2026-01-30 12:27:01.74	206.97	56.72	-36.6	-37.3	22.3	0.00e+00	0	40	0	1646264320	45	3780
2026-01-30 12:27:03.03	207.67	57.09	-36.8	-37.6	22.0	0.00e+00	0	40	0	1653604352	45	3885
2026-01-30 12:27:03.74	208.07	57.30	-36.9	-37.7	21.9	0.00e+00	0	40	0	1657798656	45	3953
2026-01-30 12:27:05.03	208.80	57.67	-36.9	-37.7	22.0	0.00e+00	0	40	0	1665138688	45	3924
2026-01-30 12:27:05.75	209.21	57.88	-36.8	-37.6	22.1	0.00e+00	0	40	0	1669332992	45	3872
2026-01-30 12:27:07.08	210.00	58.26	-36.7	-37.5	22.2	0.00e+00	0	40	0	1676673024	45	3839
2026-01-30 12:27:07.80	210.44	58.46	-36.6	-37.4	22.3	0.00e+00	0	40	0	1680867328	45	3792
2026-01-30 12:27:09.15	211.27	58.84	-36.5	-37.2	22.5	0.00e+00	0	40	0	1688207360	44	3951
2026-01-30 12:27:09.87	211.72	59.04	-36.4	-37.2	22.5	0.00e+00	0	40	0	1692401664	44	3934
2026-01-30 12:27:11.23	212.60	59.42	-36.5	-37.2	22.5	0.00e+00	0	40	0	1699741696	44	3952
2026-01-30 12:27:11.95	213.07	59.62	-36.3	-37.0	22.7	0.00e+00	0	40	0	1703936000	44	3844
2026-01-30 12:27:13.26	213.96	59.98	-36.2	-36.9	22.7	0.00e+00	0	40	0	1711276032	44	3821
2026-01-30 12:27:13.98	214.45	60.18	-36.2	-37.0	22.7	0.00e+00	0	40	0	1715470336	44	3853
2026-01-30 12:27:15.27	215.36	60.52	-36.2	-36.9	22.8	0.00e+00	0	40	0	1722810368	44	3798
2026-01-30 12:27:15.98	215.87	60.71	-36.2	-36.9	22.7	0.00e+00	0	40	0	1727004672	44	3824
2026-01-30 12:27:17.27	216.81	61.05	-35.7	-36.4	22.9	0.00e+00	0	40	0	1734344704	43	3813
2026-01-30 12:27:17.99	217.35	61.24	-35.5	-36.2	23.1	0.00e+00	0	40	0	1737490432	42	3934
2026-01-30 12:27:19.28	218.33	61.57	-35.4	-36.1	23.2	0.00e+00	0	40	0	1744830464	42	3911
2026-01-30 12:27:20.01	218.90	61.76	-35.3	-36.0	23.3	0.00e+00	0	40	0	1749024768	42	3838
2026-01-30 12:27:21.30	219.93	62.08	-35.4	-36.1	23.2	0.00e+00	0	40	0	1756364800	42	3877
2026-01-30 12:27:22.01	220.51	62.25	-35.5	-36.3	23.0	0.00e+00	0	40	0	1760559104	42	3964
2026-01-30 12:27:23.30	221.57	62.56	-35.7	-36.4	22.9	0.00e+00	0	40	0	1767899136	42	4038
2026-01-30 12:27:24.21	222.34	62.78	-35.4	-36.1	23.1	0.00e+00	0	40	0	1773142016	42	3895
2026-01-30 12:27:25.23	223.22	63.02	-35.2	-35.9	23.4	0.00e+00	0	40	0	1778384896	42	3798
2026-01-30 12:27:26.23	224.10	63.25	-35.4	-36.2	23.1	0.00e+00	0	41	0	1784676352	42	3917
2026-01-30 12:27:27.23	225.00	63.47	-35.7	-36.4	22.9	0.00e+00	0	40	0	1789919232	42	4047
2026-01-30 12:27:28.24	225.92	63.69	-35.5	-36.3	23.0	0.00e+00	0	40	0	1795162112	42	3982
2026-01-30 12:27:29.24	226.85	63.90	-35.5	-36.2	23.1	0.00e+00	0	40	0	1801453568	42	3941
2026-01-30 12:27:30.24	227.80	64.11	-35.4	-36.1	23.2	0.00e+00	0	40	0	1806696448	42	3885
2026-01-30 12:27:31.26	228.78	64.31	-35.6	-36.3	23.0	0.00e+00	0	40	0	1812987904	42	3990
2026-01-30 12:27:32.30	229.80	64.52	-35.3	-36.1	23.2	0.00e+00	0	40	0	1818230784	42	3876
2026-01-30 12:27:33.30	230.80	64.70	-35.1	-35.8	23.4	0.00e+00	0	40	0	1824522240	42	3752
2026-01-30 12:27:34.35	231.86	64.90	-35.3	-36.0	23.3	0.00e+00	0	40	0	1829765120	42	3845
2026-01-30 12:27:35.27	232.81	65.06	-35.3	-36.0	23.2	0.00e+00	0	40	0	1835008000	42	3865
2026-01-30 12:27:36.40	233.99	65.25	-35.1	-35.8	23.4	0.00e+00	0	40	0	1841299456	42	3766
2026-01-30 12:27:37.26	234.91	65.39	-35.2	-35.9	23.4	0.00e+00	0	41	0	1846542336	42	3820
2026-01-30 12:27:38.62	236.37	65.59	-35.3	-36.0	23.3	0.00e+00	0	40	0	1853882368	42	3854
2026-01-30 12:27:39.33	237.15	65.70	-35.2	-35.9	23.4	0.00e+00	0	40	0	1858076672	42	3794
2026-01-30 12:27:40.62	238.58	65.87	-35.1	-35.9	23.4	0.00e+00	0	40	0	1865416704	42	3788
2026-01-30 12:27:41.34	239.38	65.97	-35.1	-35.8	23.4	0.00e+00	0	40	0	1869611008	42	3762
2026-01-30 12:27:42.63	240.85	66.12	-35.0	-35.7	23.5	0.00e+00	0	40	0	1876951040	41	3952
2026-01-30 12:27:43.35	241.67	66.20	-35.1	-35.8	23.4	0.00e+00	0	40	0	1881145344	41	4004
2026-01-30 12:27:44.63	243.15	66.34	-35.1	-35.8	23.4	0.00e+00	0	40	0	1887436800	41	3973
2026-01-30 12:27:45.46	244.13	66.42	-35.1	-35.8	23.4	0.00e+00	0	40	0	1892679680	41	3969
2026-01-30 12:27:46.61	245.48	66.51	-35.0	-35.7	23.5	0.00e+00	0	40	0	1898971136	41	3949
2026-01-30 12:27:47.67	246.74	66.60	-35.3	-36.0	23.3	0.00e+00	0	40	0	1905262592	41	4092
2026-01-30 12:27:48.53	247.77	66.65	-35.3	-36.0	23.3	0.00e+00	0	40	0	1909456896	41	4098
2026-01-30 12:27:49.68	249.15	66.72	-35.3	-36.1	23.3	0.00e+00	0	40	0	1915748352	41	4106
2026-01-30 12:27:50.54	250.19	66.76	-35.3	-36.0	23.3	0.00e+00	0	40	0	1920991232	41	4081
2026-01-30 12:27:51.69	251.59	66.81	-35.0	-35.7	23.5	0.00e+00	0	40	0	1927282688	41	3957
2026-01-30 12:27:52.87	253.03	66.84	-34.6	-35.3	23.8	0.00e+00	0	40	0	1934622720	41	3774
2026-01-30 12:27:53.73	254.08	66.86	-34.7	-35.4	23.8	0.00e+00	0	40	0	1938817024	41	3805
2026-01-30 12:27:54.87	255.48	66.87	-35.0	-35.7	23.4	0.00e+00	0	40	0	1945108480	41	3957
2026-01-30 12:27:55.73	256.53	66.87	-35.0	-35.7	23.5	0.00e+00	0	40	0	1950351360	41	3947
2026-01-30 12:27:56.88	257.93	66.86	-35.0	-35.8	23.4	0.00e+00	0	40	0	1956642816	41	3966
2026-01-30 12:27:57.74	258.98	66.84	-35.1	-35.8	23.4	0.00e+00	0	40	0	1961885696	41	3973
2026-01-30 12:27:58.88	260.37	66.81	-34.9	-35.6	23.6	0.00e+00	0	40	0	1968177152	41	3910
2026-01-30 12:27:59.74	261.42	66.77	-35.1	-35.8	23.4	0.00e+00	0	40	0	1973420032	41	3975
2026-01-30 12:28:00.89	262.81	66.72	-35.1	-35.8	23.4	0.00e+00	0	40	0	1979711488	41	4000
2026-01-30 12:28:01.75	263.85	66.67	-35.2	-35.9	23.3	0.00e+00	0	40	0	1983905792	41	4040
2026-01-30 12:28:02.90	265.22	66.59	-35.3	-36.1	23.2	0.00e+00	0	40	0	1991245824	41	4104
2026-01-30 12:28:03.76	266.24	66.53	-35.4	-36.1	23.2	0.00e+00	0	40	0	1995440128	41	4123
2026-01-30 12:28:04.91	267.60	66.43	-35.0	-35.7	23.5	0.00e+00	0	41	0	2001731584	41	3933
2026-01-30 12:28:05.77	268.61	66.35	-35.0	-35.7	23.6	0.00e+00	0	40	0	2006974464	41	3930
2026-01-30 12:28:06.91	269.93	66.23	-35.0	-35.7	23.5	0.00e+00	0	41	0	2013265920	41	3922
2026-01-30 12:28:07.78	270.93	66.14	-35.0	-35.7	23.5	0.00e+00	0	40	0	2018508800	41	3948
2026-01-30 12:28:08.92	272.22	66.00	-35.5	-36.2	23.0	0.00e+00	0	40	0	2024800256	41	4191
2026-01-30 12:28:09.78	273.19	65.89	-35.3	-36.0	23.3	0.00e+00	0	40	0	2028994560	41	4071
2026-01-30 12:28:10.93	274.46	65.73	-34.9	-35.6	23.6	0.00e+00	0	40	0	2035286016	41	3888
2026-01-30 12:28:11.79	275.40	65.61	-35.1	-35.8	23.4	0.00e+00	0	40	0	2040528896	41	4004
2026-01-30 12:28:12.94	276.65	65.44	-35.4	-36.2	23.0	0.00e+00	0	40	0	2046820352	41	4168
2026-01-30 12:28:13.80	277.56	65.30	-35.4	-36.1	23.1	0.00e+00	0	40	0	2052063232	41	4134
2026-01-30 12:28:14.94	278.76	65.11	-35.3	-36.0	23.2	0.00e+00	0	40	0	2058354688	41	4084
2026-01-30 12:28:15.80	279.65	64.96	-35.4	-36.1	23.1	0.00e+00	0	40	0	2063597568	41	4119
2026-01-30 12:28:16.95	280.82	64.76	-35.5	-36.3	23.0	0.00e+00	0	40	0	2069889024	41	4203
2026-01-30 12:28:17.81	281.68	64.60	-35.4	-36.1	23.1	0.00e+00	0	40	0	2074083328	41	4126
2026-01-30 12:28:18.95	282.81	64.38	-35.2	-35.9	23.3	0.00e+00	0	40	0	2081423360	41	4050
2026-01-30 12:28:19.81	283.64	64.21	-35.2	-35.9	23.3	0.00e+00	0	40	0	2085617664	41	4051
2026-01-30 12:28:20.96	284.74	63.97	-35.4	-36.1	23.1	0.00e+00	0	40	0	2091909120	41	4131
2026-01-30 12:28:21.82	285.54	63.79	-35.4	-36.1	23.2	0.00e+00	0	40	0	2097152000	41	4126
2026-01-30 12:28:22.96	286.59	63.55	-35.4	-36.1	23.2	0.00e+00	0	40	0	2103443456	41	4112
2026-01-30 12:28:23.82	287.36	63.36	-35.3	-36.1	23.3	0.00e+00	0	40	0	2108686336	41	4100
2026-01-30 12:28:24.97	288.38	63.10	-35.3	-36.1	23.2	0.00e+00	0	40	0	2114977792	41	4108
2026-01-30 12:28:25.83	289.13	62.90	-35.4	-36.1	23.2	0.00e+00	0	40	0	2119172096	41	4124
2026-01-30 12:28:26.97	290.10	62.63	-35.4	-36.1	23.3	0.00e+00	0	40	0	2126512128	41	4099
2026-01-30 12:28:27.83	290.81	62.43	-35.5	-36.3	23.1	0.00e+00	0	40	0	2130706432	41	4199
2026-01-30 12:28:28.98	291.76	62.15	-35.5	-36.2	23.1	0.00e+00	0	40	0	2136997888	41	4164
2026-01-30 12:28:29.84	292.45	61.93	-35.5	-36.2	23.1	0.00e+00	0	40	0	2142240768	41	4191
2026-01-30 12:28:30.98	293.34	61.65	-35.6	-36.4	23.0	0.00e+00	0	40	0	2148532224	41	4248
2026-01-30 12:28:31.84	294.00	61.43	-35.5	-36.2	23.1	0.00e+00	0	40	0	2153775104	41	4169
2026-01-30 12:28:32.99	294.87	61.13	-35.4	-36.1	23.3	0.00e+00	0	41	0	2160066560	41	4116
2026-01-30 12:28:33.85	295.51	60.91	-35.7	-36.4	23.1	0.00e+00	0	40	0	2165309440	41	4267
2026-01-30 12:28:34.99	296.33	60.61	-35.9	-36.6	22.9	0.00e+00	0	40	0	2170552320	42	4133
2026-01-30 12:28:35.85	296.94	60.38	-36.0	-36.7	22.8	0.00e+00	0	40	0	2175795200	42	4169
2026-01-30 12:28:37.00	297.74	60.07	-36.1	-36.8	22.7	0.00e+00	0	40	0	2182086656	42	4233
2026-01-30 12:28:37.86	298.32	59.83	-36.0	-36.7	22.8	0.00e+00	0	40	0	2187329536	42	4180
2026-01-30 12:28:39.00	299.08	59.52	-35.7	-36.4	23.1	0.00e+00	0	40	0	2193620992	42	4039
2026-01-30 12:28:39.86	299.64	59.28	-35.7	-36.4	23.1	0.00e+00	0	40	0	2198863872	42	4044
2026-01-30 12:28:41.01	300.37	58.96	-36.3	-37.0	22.6	0.00e+00	0	40	0	2205155328	43	4092
2026-01-30 12:28:41.87	300.91	58.72	-36.5	-37.3	22.3	0.00e+00	0	40	0	2209349632	43	4236
2026-01-30 12:28:43.01	301.61	58.40	-36.4	-37.1	22.5	0.00e+00	0	40	0	2216689664	43	4128
2026-01-30 12:28:43.87	302.12	58.16	-36.3	-37.0	22.6	0.00e+00	0	40	0	2220883968	43	4068
2026-01-30 12:28:45.02	302.80	57.83	-36.4	-37.2	22.4	0.00e+00	0	40	0	2227175424	43	4148
2026-01-30 12:28:45.88	303.29	57.58	-36.8	-37.6	22.2	0.00e+00	0	40	0	2232418304	44	4131
2026-01-30 12:28:47.03	303.94	57.25	-37.1	-37.9	21.9	0.00e+00	0	40	0	2238709760	44	4259
2026-01-30 12:28:47.88	304.40	57.01	-36.9	-37.7	22.0	0.00e+00	0	40	0	2243952640	44	4183
2026-01-30 12:28:49.03	305.02	56.67	-36.8	-37.6	22.2	0.00e+00	0	40	0	2250244096	44	4123
2026-01-30 12:28:49.89	305.48	56.42	-36.9	-37.7	22.1	0.00e+00	0	40	0	2254438400	44	4158
2026-01-30 12:28:51.04	306.07	56.09	-36.9	-37.7	22.1	0.00e+00	0	40	0	2261778432	44	4156
2026-01-30 12:28:51.90	306.50	55.84	-36.9	-37.7	22.1	0.00e+00	0	40	0	2265972736	44	4150
2026-01-30 12:28:53.12	307.11	55.48	-37.0	-37.8	22.0	0.00e+00	0	40	0	2273312768	44	4200
2026-01-30 12:28:53.98	307.53	55.23	-37.1	-37.9	21.9	0.00e+00	0	40	0	2277507072	44	4247
2026-01-30 12:28:55.12	308.07	54.90	-37.1	-37.9	21.9	0.00e+00	0	40	0	2284847104	44	4270
2026-01-30 12:28:55.98	308.47	54.64	-37.0	-37.8	22.0	0.00e+00	0	40	0	2289041408	44	4221
2026-01-30 12:28:57.13	308.99	54.31	-37.1	-37.9	22.0	0.00e+00	0	40	0	2295332864	44	4248
2026-01-30 12:28:57.99	309.37	54.05	-37.0	-37.8	22.0	0.00e+00	0	40	0	2300575744	44	4204
2026-01-30 12:28:59.13	309.87	53.72	-37.0	-37.8	21.9	0.00e+00	0	40	0	2306867200	44	4231
2026-01-30 12:29:00.06	310.27	53.45	-37.0	-37.7	22.5	0.00e+00	0	40	0	2312110080	44	4165
2026-01-30 12:29:01.07	310.70	53.15	-36.8	-37.6	22.6	0.00e+00	0	40	0	2317352960	44	4105
2026-01-30 12:29:02.07	311.11	52.86	-36.8	-37.6	22.7	0.00e+00	0	40	0	2323644416	44	4109
2026-01-30 12:29:03.08	311.51	52.56	-36.7	-37.4	22.8	0.00e+00	0	40	0	2328887296	44	4033
2026-01-30 12:29:04.08	311.91	52.27	-36.6	-37.3	22.9	0.00e+00	0	40	0	2335178752	44	3971
2026-01-30 12:29:05.09	312.30	51.97	-36.4	-37.0	23.1	0.00e+00	0	40	0	2340421632	44	3864
2026-01-30 12:29:06.45	312.82	51.58	-36.4	-37.1	23.0	0.00e+00	0	40	0	2347761664	44	3899
2026-01-30 12:29:07.20	313.10	51.36	-36.6	-37.3	22.9	0.00e+00	0	40	0	2351955968	44	3977
2026-01-30 12:29:08.49	313.57	50.99	-36.5	-37.2	23.0	0.00e+00	0	40	0	2359296000	44	3923
2026-01-30 12:29:09.20	313.82	50.78	-36.4	-37.1	23.0	0.00e+00	0	40	0	2363490304	44	3896
2026-01-30 12:29:10.49	314.27	50.41	-36.4	-37.1	23.0	0.00e+00	0	40	0	2370830336	44	3901
2026-01-30 12:29:11.21	314.52	50.20	-36.3	-37.0	23.1	0.00e+00	0	40	0	2375024640	44	3844
2026-01-30 12:29:12.50	314.96	49.83	-36.3	-37.0	23.2	0.00e+00	0	40	0	2382364672	44	3837
2026-01-30 12:29:13.22	315.20	49.62	-36.3	-37.0	23.1	0.00e+00	0	40	0	2386558976	44	3856
2026-01-30 12:29:14.50	315.61	49.26	-36.3	-36.9	23.2	0.00e+00	0	40	0	2393899008	44	3823
2026-01-30 12:29:15.22	315.84	49.05	-36.3	-36.9	23.2	0.00e+00	0	40	0	2397044736	44	3819
2026-01-30 12:29:16.51	316.25	48.69	-36.3	-37.0	23.1	0.00e+00	0	40	0	2404384768	44	3845
2026-01-30 12:29:17.23	316.47	48.48	-36.2	-36.9	23.3	0.00e+00	0	40	0	2408579072	44	3791
2026-01-30 12:29:18.65	316.90	48.08	-36.3	-37.0	23.1	0.00e+00	0	40	0	2416967680	44	3836
2026-01-30 12:29:19.36	317.11	47.88	-36.3	-37.0	23.2	0.00e+00	0	40	0	2421161984	44	3830
2026-01-30 12:29:20.65	317.48	47.52	-36.1	-36.8	23.3	0.00e+00	0	40	0	2428502016	44	3759
2026-01-30 12:29:21.68	317.78	47.24	-36.2	-36.8	23.3	0.00e+00	0	40	0	2433744896	44	3776
2026-01-30 12:29:23.00	318.15	46.87	-36.3	-37.0	23.2	0.00e+00	0	40	0	2441084928	44	3845
2026-01-30 12:29:23.71	318.34	46.67	-36.4	-37.1	23.0	0.00e+00	0	40	0	2445279232	44	3909
2026-01-30 12:29:25.00	318.69	46.32	-36.3	-37.1	23.1	0.00e+00	0	40	0	2452619264	44	3883
2026-01-30 12:29:25.72	318.88	46.12	-36.2	-37.0	23.2	0.00e+00	0	40	0	2456813568	44	3828
2026-01-30 12:29:27.01	319.21	45.77	-36.3	-37.0	23.1	0.00e+00	0	40	0	2464153600	44	3841
2026-01-30 12:29:27.72	319.40	45.58	-36.2	-36.8	23.3	0.00e+00	0	40	0	2467299328	44	3762
2026-01-30 12:29:29.01	319.72	45.23	-36.1	-36.8	23.4	0.00e+00	0	40	0	2474639360	44	3742
2026-01-30 12:29:29.73	319.90	45.04	-36.1	-36.8	23.4	0.00e+00	0	40	0	2478833664	44	3740
2026-01-30 12:29:31.02	320.21	44.69	-36.3	-37.0	23.2	0.00e+00	0	40	0	2486173696	44	3840
2026-01-30 12:29:31.73	320.38	44.50	-36.4	-37.1	23.0	0.00e+00	0	40	0	2490368000	44	3888
2026-01-30 12:29:33.02	320.69	44.16	-36.5	-37.3	23.0	0.00e+00	0	40	0	2497708032	44	3959
2026-01-30 12:29:33.74	320.86	43.97	-36.5	-37.2	22.9	0.00e+00	0	40	0	2501902336	44	3943
2026-01-30 12:29:35.03	321.15	43.63	-36.1	-36.8	23.3	0.00e+00	0	40	0	2509242368	44	3760
2026-01-30 12:29:35.74	321.31	43.45	-36.0	-36.6	23.4	0.00e+00	0	40	0	2512388096	44	3685
2026-01-30 12:29:37.03	321.59	43.11	-35.7	-36.4	23.5	0.00e+00	0	40	0	2519728128	43	3790
2026-01-30 12:29:37.75	321.75	42.93	-35.6	-36.3	23.6	0.00e+00	0	40	0	2523922432	43	3744
2026-01-30 12:29:39.04	322.03	42.60	-35.7	-36.4	23.6	0.00e+00	0	40	0	2531262464	43	3787
2026-01-30 12:29:39.75	322.18	42.41	-35.7	-36.3	23.6	0.00e+00	0	40	0	2535456768	43	3770
2026-01-30 12:29:41.05	322.45	42.08	-35.6	-36.3	23.6	0.00e+00	0	40	0	2542796800	43	3755
2026-01-30 12:29:41.76	322.59	41.90	-35.6	-36.3	23.6	0.00e+00	0	40	0	2546991104	43	3771
2026-01-30 12:29:43.14	322.87	41.56	-35.7	-36.4	23.5	0.00e+00	0	40	0	2554331136	43	3795
2026-01-30 12:29:43.86	323.01	41.38	-35.8	-36.5	23.4	0.00e+00	0	40	0	2558525440	43	3856
2026-01-30 12:29:45.15	323.26	41.06	-35.5	-36.2	23.7	0.00e+00	0	40	0	2565865472	43	3695
2026-01-30 12:29:46.20	323.46	40.80	-35.4	-36.1	23.8	0.00e+00	0	40	0	2572156928	42	3896
2026-01-30 12:29:47.06	323.63	40.58	-35.5	-36.1	23.7	0.00e+00	0	40	0	2576351232	42	3908
2026-01-30 12:29:48.21	323.84	40.30	-35.6	-36.2	23.6	0.00e+00	0	40	0	2582642688	42	3954
2026-01-30 12:29:49.07	324.00	40.09	-35.6	-36.3	23.6	0.00e+00	0	40	0	2587885568	42	3961
2026-01-30 12:29:50.21	324.20	39.82	-35.6	-36.3	23.7	0.00e+00	0	40	0	2594177024	42	3964
2026-01-30 12:29:51.07	324.36	39.61	-35.7	-36.4	23.6	0.00e+00	0	40	0	2599419904	42	4018
2026-01-30 12:29:52.35	324.58	39.31	-35.6	-36.3	23.6	0.00e+00	0	40	0	2606759936	42	4000
2026-01-30 12:29:53.06	324.70	39.14	-35.6	-36.3	23.6	0.00e+00	0	40	0	2609905664	42	3990
2026-01-30 12:29:54.35	324.92	38.83	-35.6	-36.3	23.6	0.00e+00	0	40	0	2617245696	42	3970
2026-01-30 12:29:55.07	325.04	38.66	-35.6	-36.3	23.6	0.00e+00	0	40	0	2621440000	42	3971
2026-01-30 12:29:56.36	325.26	38.36	-35.6	-36.3	23.6	0.00e+00	0	40	0	2628780032	42	3966
2026-01-30 12:29:57.08	325.37	38.20	-35.5	-36.2	23.7	0.00e+00	0	40	0	2632974336	42	3937
2026-01-30 12:29:58.69	325.63	37.82	-35.3	-35.9	23.9	0.00e+00	0	40	0	2641362944	42	3818
2026-01-30 12:29:59.26	325.72	37.69	-35.2	-35.9	24.0	0.00e+00	0	40	0	2645557248	42	3785
2026-01-30 12:30:01.03	326.00	37.29	-35.1	-35.7	24.1	0.00e+00	0	40	0	2654994432	42	3727
2026-01-30 12:30:01.60	326.09	37.16	-35.2	-35.8	24.0	0.00e+00	0	40	0	2658140160	42	3765
2026-01-30 12:30:03.24	326.33	36.79	-35.2	-35.8	24.0	0.00e+00	0	40	0	2667577344	42	3759
2026-01-30 12:30:03.81	326.42	36.67	-35.2	-35.9	24.0	0.00e+00	0	40	0	2670723072	42	3781
2026-01-30 12:30:05.43	326.66	36.31	-35.3	-36.0	23.9	0.00e+00	0	40	0	2680160256	42	3838
2026-01-30 12:30:06.01	326.74	36.18	-35.4	-36.1	23.8	0.00e+00	0	40	0	2683305984	42	3880
2026-01-30 12:30:07.58	326.96	35.84	-35.5	-36.1	23.7	0.00e+00	0	40	0	2691694592	42	3910
2026-01-30 12:30:08.17	327.05	35.71	-35.5	-36.2	23.7	0.00e+00	0	40	0	2694840320	42	3921
2026-01-30 12:30:09.86	327.28	35.34	-35.5	-36.2	23.6	0.00e+00	0	40	0	2705326080	42	3952
2026-01-30 12:30:10.43	327.36	35.22	-35.5	-36.2	23.7	0.00e+00	0	40	0	2707423232	42	3940
2026-01-30 12:30:12.01	327.57	34.89	-35.4	-36.1	23.7	0.00e+00	0	40	0	2716860416	42	3898
2026-01-30 12:30:12.60	327.65	34.76	-35.5	-36.2	23.7	0.00e+00	0	40	0	2720006144	42	3919
2026-01-30 12:30:14.55	327.90	34.35	-35.5	-36.2	23.7	0.00e+00	0	40	0	2731540480	42	3932
2026-01-30 12:30:15.12	327.98	34.23	-35.6	-36.3	23.6	0.00e+00	0	40	0	2734686208	42	3966
2026-01-30 12:30:16.70	328.18	33.91	-35.8	-36.5	23.5	0.00e+00	0	41	0	2743074816	42	4054
2026-01-30 12:30:17.29	328.25	33.78	-35.7	-36.4	23.5	0.00e+00	0	40	0	2746220544	42	4042
2026-01-30 12:30:18.86	328.45	33.46	-35.8	-36.5	23.5	0.00e+00	0	40	0	2755657728	42	4064
2026-01-30 12:30:19.48	328.52	33.34	-35.8	-36.5	23.5	0.00e+00	0	40	0	2758803456	42	4056
2026-01-30 12:30:21.05	328.71	33.02	-35.9	-36.6	23.3	0.00e+00	0	40	0	2768240640	42	4133
2026-01-30 12:30:21.64	328.78	32.90	-35.9	-36.6	23.3	0.00e+00	0	40	0	2771386368	42	4121
2026-01-30 12:30:23.22	328.97	32.59	-35.8	-36.5	23.4	0.00e+00	0	40	0	2779774976	42	4081
2026-01-30 12:30:24.03	329.06	32.43	-35.9	-36.6	23.3	0.00e+00	0	40	0	2783969280	42	4106
2026-01-30 12:30:25.18	329.19	32.20	-35.8	-36.5	23.4	0.00e+00	0	40	0	2791309312	42	4071
2026-01-30 12:30:26.33	329.32	31.98	-35.8	-36.5	23.4	0.00e+00	0	40	0	2797600768	42	4077
2026-01-30 12:30:27.36	329.44	31.78	-35.8	-36.5	23.4	0.00e+00	0	40	0	2802843648	42	4058
2026-01-30 12:30:28.36	329.55	31.59	-35.7	-36.4	23.5	0.00e+00	0	40	0	2809135104	42	4019
2026-01-30 12:30:29.36	329.66	31.39	-35.7	-36.4	23.5	0.00e+00	0	40	0	2814377984	42	4007
2026-01-30 12:30:30.37	329.76	31.20	-35.7	-36.4	23.5	0.00e+00	0	40	0	2819620864	42	4014
2026-01-30 12:30:31.37	329.87	31.01	-35.8	-36.4	23.4	0.00e+00	0	40	0	2825912320	42	4049
2026-01-30 12:30:32.38	329.98	30.82	-35.7	-36.4	23.4	0.00e+00	0	40	0	2831155200	42	4043
2026-01-30 12:30:33.38	330.08	30.64	-35.9	-36.6	23.3	0.00e+00	0	40	0	2837446656	42	4122
2026-01-30 12:30:34.38	330.18	30.45	-35.9	-36.7	23.2	0.00e+00	0	40	0	2842689536	42	4154
2026-01-30 12:30:35.39	330.29	30.26	-35.9	-36.6	23.3	0.00e+00	0	40	0	2847932416	42	4136
2026-01-30 12:30:36.39	330.39	30.08	-35.9	-36.6	23.3	0.00e+00	0	40	0	2854223872	42	4141
2026-01-30 12:30:37.39	330.49	29.90	-35.9	-36.6	23.3	0.00e+00	0	40	0	2859466752	42	4119
2026-01-30 12:30:38.41	330.59	29.71	-35.8	-36.5	23.4	0.00e+00	0	40	0	2865758208	42	4084
2026-01-30 12:30:39.41	330.69	29.53	-35.8	-36.5	23.4	0.00e+00	0	40	0	2871001088	42	4065
2026-01-30 12:30:40.48	330.79	29.34	-35.7	-36.4	23.5	0.00e+00	0	40	0	2877292544	42	4013
2026-01-30 12:30:41.37	330.87	29.18	-35.6	-36.3	23.5	0.00e+00	0	40	0	2881486848	42	3990
2026-01-30 12:30:42.51	330.98	28.98	-35.7	-36.4	23.5	0.00e+00	0	40	0	2888826880	42	4019
2026-01-30 12:30:43.37	331.06	28.83	-35.8	-36.5	23.4	0.00e+00	0	40	0	2893021184	42	4060
2026-01-30 12:30:44.52	331.17	28.63	-35.6	-36.3	23.6	0.00e+00	0	40	0	2899312640	42	3985
2026-01-30 12:30:45.37	331.25	28.48	-35.7	-36.3	23.5	0.00e+00	0	40	0	2904555520	42	4001
2026-01-30 12:30:46.52	331.35	28.28	-35.8	-36.5	23.4	0.00e+00	0	40	0	2910846976	42	4053
2026-01-30 12:30:47.38	331.43	28.13	-35.8	-36.5	23.4	0.00e+00	0	40	0	2916089856	42	4056
2026-01-30 12:30:48.53	331.53	27.94	-36.0	-36.7	23.2	0.00e+00	0	40	0	2922381312	42	4170
2026-01-30 12:30:49.39	331.60	27.79	-35.9	-36.6	23.3	0.00e+00	0	40	0	2926575616	42	4132
2026-01-30 12:30:50.53	331.70	27.60	-35.9	-36.6	23.3	0.00e+00	0	40	0	2933915648	42	4134
2026-01-30 12:30:51.39	331.78	27.45	-36.0	-36.7	23.2	0.00e+00	0	40	0	2938109952	42	4192
2026-01-30 12:30:52.54	331.88	27.26	-35.9	-36.6	23.2	0.00e+00	0	40	0	2944401408	42	4142
2026-01-30 12:30:53.40	331.95	27.12	-35.9	-36.6	23.3	0.00e+00	0	40	0	2949644288	42	4128
2026-01-30 12:30:54.65	332.05	26.91	-35.8	-36.5	23.3	0.00e+00	0	40	0	2956984320	42	4083
2026-01-30 12:30:55.50	332.12	26.77	-35.7	-36.4	23.5	0.00e+00	0	40	0	2961178624	42	4016
2026-01-30 12:30:56.65	332.22	26.58	-35.6	-36.3	23.5	0.00e+00	0	40	0	2968518656	42	3984
2026-01-30 12:30:57.50	332.29	26.45	-35.6	-36.3	23.5	0.00e+00	0	40	0	2972712960	42	3982
2026-01-30 12:30:58.65	332.38	26.26	-35.5	-36.2	23.6	0.00e+00	0	40	0	2979004416	42	3928
2026-01-30 12:30:59.51	332.45	26.12	-35.6	-36.3	23.6	0.00e+00	0	40	0	2984247296	42	3962
2026-01-30 12:31:00.66	332.54	25.94	-35.5	-36.2	23.6	0.00e+00	0	40	0	2990538752	42	3926
2026-01-30 12:31:01.63	332.61	25.78	-35.6	-36.2	23.6	0.00e+00	0	40	0	2995781632	42	3958
2026-01-30 12:31:02.80	332.70	25.60	-35.6	-36.3	23.6	0.00e+00	0	40	0	3003121664	42	3970
2026-01-30 12:31:03.66	332.77	25.47	-35.7	-36.3	23.5	0.00e+00	0	40	0	3007315968	42	4004
2026-01-30 12:31:05.02	332.87	25.25	-35.7	-36.4	23.5	0.00e+00	0	41	0	3014656000	42	4012
2026-01-30 12:31:05.73	332.92	25.14	-35.8	-36.4	23.4	0.00e+00	0	40	0	3018850304	42	4036
2026-01-30 12:31:07.02	333.02	24.95	-35.9	-36.6	23.3	0.00e+00	0	40	0	3026190336	42	4111
2026-01-30 12:31:07.74	333.07	24.83	-35.9	-36.6	23.3	0.00e+00	0	40	0	3030384640	42	4137
2026-01-30 12:31:09.03	333.17	24.64	-36.0	-36.7	23.2	0.00e+00	0	40	0	3037724672	42	4154
2026-01-30 12:31:09.74	333.22	24.53	-36.0	-36.7	23.2	0.00e+00	0	40	0	3041918976	42	4163
2026-01-30 12:31:11.03	333.31	24.34	-36.1	-36.8	23.1	0.00e+00	0	40	0	3049259008	42	4200
2026-01-30 12:31:11.75	333.36	24.23	-36.0	-36.8	23.1	0.00e+00	0	40	0	3053453312	42	4198
2026-01-30 12:31:13.04	333.45	24.04	-36.2	-36.9	23.0	0.00e+00	0	40	0	3059744768	43	4030
2026-01-30 12:31:13.76	333.50	23.93	-36.2	-36.9	23.0	0.00e+00	0	40	0	3063939072	43	4036
2026-01-30 12:31:15.06	333.59	23.74	-36.2	-36.9	23.0	0.00e+00	0	41	0	3071279104	43	4047
2026-01-30 12:31:15.78	333.64	23.63	-36.2	-36.9	23.0	0.00e+00	0	40	0	3075473408	43	4050
2026-01-30 12:31:17.07	333.73	23.44	-36.3	-37.1	22.9	0.00e+00	0	40	0	3082813440	43	4100
2026-01-30 12:31:17.78	333.78	23.34	-36.4	-37.1	22.8	0.00e+00	0	40	0	3087007744	43	4134
2026-01-30 12:31:19.20	333.87	23.14	-36.4	-37.1	22.8	0.00e+00	0	40	0	3095396352	43	4127
2026-01-30 12:31:19.91	333.92	23.04	-36.4	-37.1	22.8	0.00e+00	0	40	0	3098542080	43	4133
2026-01-30 12:31:21.27	334.01	22.84	-36.4	-37.1	22.8	0.00e+00	0	40	0	3106930688	43	4136
2026-01-30 12:31:21.98	334.05	22.74	-36.4	-37.2	22.8	0.00e+00	0	40	0	3110076416	43	4155
2026-01-30 12:31:23.27	334.13	22.56	-36.5	-37.2	22.7	0.00e+00	0	40	0	3117416448	43	4189
2026-01-30 12:31:23.98	334.18	22.46	-36.6	-37.3	22.6	0.00e+00	0	40	0	3121610752	43	4222
2026-01-30 12:31:25.27	334.26	22.28	-36.6	-37.3	22.6	0.00e+00	0	40	0	3128950784	43	4241
2026-01-30 12:31:25.99	334.31	22.18	-36.6	-37.3	22.7	0.00e+00	0	40	0	3133145088	43	4219
2026-01-30 12:31:27.28	334.39	22.00	-36.7	-37.4	22.6	0.00e+00	0	40	0	3140485120	43	4248
2026-01-30 12:31:27.99	334.43	21.90	-36.6	-37.3	22.6	0.00e+00	0	40	0	3144679424	43	4242
2026-01-30 12:31:29.28	334.51	21.73	-36.9	-37.6	22.5	0.00e+00	0	40	0	3150970880	44	4122
2026-01-30 12:31:30.00	334.55	21.63	-36.9	-37.7	22.5	0.00e+00	0	40	0	3155165184	44	4158
2026-01-30 12:31:31.29	334.63	21.46	-37.0	-37.8	22.4	0.00e+00	0	40	0	3162505216	44	4211
2026-01-30 12:31:32.21	334.69	21.33	-37.1	-37.8	22.3	0.00e+00	0	40	0	3167748096	44	4232
2026-01-30 12:31:33.22	334.75	21.20	-37.2	-37.9	22.2	0.00e+00	0	40	0	3174039552	44	4290
2026-01-30 12:31:34.22	334.80	21.06	-37.1	-37.9	22.2	0.00e+00	0	40	0	3179282432	44	4280
2026-01-30 12:31:35.22	334.86	20.93	-37.2	-38.0	22.2	0.00e+00	0	40	0	3184525312	44	4302
2026-01-30 12:31:36.22	334.92	20.80	-37.2	-38.0	22.2	0.00e+00	0	40	0	3190816768	45	4081
2026-01-30 12:31:37.23	334.98	20.67	-37.3	-38.2	22.0	0.00e+00	0	40	0	3196059648	45	4149
2026-01-30 12:31:38.23	335.03	20.54	-37.3	-38.1	22.0	0.00e+00	0	40	0	3201302528	45	4133
2026-01-30 12:31:39.23	335.09	20.41	-37.3	-38.1	22.1	0.00e+00	0	40	0	3207593984	45	4125
2026-01-30 12:31:40.27	335.15	20.27	-37.3	-38.1	22.1	0.00e+00	0	40	0	3212836864	45	4119
2026-01-30 12:31:41.30	335.21	20.14	-37.3	-38.2	22.0	0.00e+00	0	41	0	3219128320	45	4153
2026-01-30 12:31:42.30	335.26	20.01	-37.4	-38.2	22.0	0.00e+00	0	40	0	3224371200	45	4176
2026-01-30 12:31:43.30	335.32	19.89	-37.4	-38.2	22.0	0.00e+00	0	40	0	3230662656	45	4164
2026-01-30 12:31:44.39	335.37	19.75	-37.4	-38.2	22.0	0.00e+00	0	40	0	3235905536	45	4159
2026-01-30 12:31:45.24	335.42	19.64	-37.4	-38.2	22.0	0.00e+00	0	40	0	3241148416	45	4148
2026-01-30 12:31:46.39	335.48	19.50	-37.3	-38.1	22.1	0.00e+00	0	40	0	3247439872	45	4117
2026-01-30 12:31:47.25	335.53	19.39	-37.4	-38.1	22.0	0.00e+00	0	40	0	3252682752	45	4134
2026-01-30 12:31:48.40	335.59	19.25	-37.3	-38.1	22.1	0.00e+00	0	40	0	3258974208	45	4126
2026-01-30 12:31:49.26	335.63	19.14	-37.3	-38.1	22.0	0.00e+00	0	40	0	3264217088	45	4119
2026-01-30 12:31:50.40	335.69	19.00	-37.3	-38.1	22.1	0.00e+00	0	40	0	3270508544	45	4113
2026-01-30 12:31:51.26	335.74	18.90	-37.2	-38.0	22.1	0.00e+00	0	40	0	3274702848	45	4085
2026-01-30 12:31:52.41	335.79	18.76	-37.4	-38.2	22.0	0.00e+00	0	40	0	3282042880	45	4156
2026-01-30 12:31:53.27	335.84	18.65	-37.3	-38.1	22.0	0.00e+00	0	41	0	3286237184	45	4126
2026-01-30 12:31:54.42	335.90	18.51	-37.4	-38.2	22.0	0.00e+00	0	40	0	3292528640	45	4155
2026-01-30 12:31:55.28	335.94	18.41	-37.3	-38.1	22.0	0.00e+00	0	40	0	3297771520	45	4140
2026-01-30 12:31:56.42	336.00	18.27	-37.5	-38.3	21.9	0.00e+00	0	40	0	3304062976	45	4196
2026-01-30 12:31:57.28	336.04	18.17	-37.5	-38.3	21.9	0.00e+00	0	40	0	3309305856	45	4214
2026-01-30 12:31:58.54	336.10	18.02	-37.6	-38.4	21.8	0.00e+00	0	40	0	3315597312	45	4263
2026-01-30 12:31:59.26	336.13	17.94	-37.6	-38.4	21.7	0.00e+00	0	40	0	3319791616	45	4279
2026-01-30 12:32:00.54	336.20	17.79	-37.7	-38.4	21.7	0.00e+00	0	40	0	3327131648	46	4045
2026-01-30 12:32:01.26	336.23	17.70	-37.6	-38.4	21.8	0.00e+00	0	40	0	3331325952	46	4023
2026-01-30 12:32:02.55	336.29	17.55	-37.7	-38.5	21.7	0.00e+00	0	40	0	3338665984	46	4060
2026-01-30 12:32:03.26	336.33	17.47	-37.8	-38.6	21.6	0.00e+00	0	40	0	3342860288	46	4136
2026-01-30 12:32:04.56	336.39	17.32	-37.8	-38.6	21.6	0.00e+00	0	40	0	3350200320	46	4128
2026-01-30 12:32:05.27	336.42	17.24	-37.8	-38.6	21.6	0.00e+00	0	40	0	3354394624	46	4125
2026-01-30 12:32:06.56	336.48	17.10	-37.9	-38.7	21.5	0.00e+00	0	40	0	3361734656	46	4167
2026-01-30 12:32:07.28	336.51	17.01	-38.0	-38.8	21.4	0.00e+00	0	40	0	3364880384	46	4214
2026-01-30 12:32:08.60	336.57	16.86	-38.0	-38.8	21.4	0.00e+00	0	40	0	3373268992	46	4225
2026-01-30 12:32:09.32	336.60	16.78	-38.0	-38.8	21.4	0.00e+00	0	40	0	3376414720	46	4238
2026-01-30 12:32:10.70	336.67	16.63	-38.1	-38.9	21.3	0.00e+00	0	40	0	3384803328	46	4264
2026-01-30 12:32:11.42	336.70	16.55	-38.2	-39.0	21.2	0.00e+00	0	40	0	3388997632	47	4077
2026-01-30 12:32:12.77	336.76	16.40	-38.2	-39.0	21.2	0.00e+00	0	40	0	3396337664	47	4083
2026-01-30 12:32:13.49	336.79	16.32	-38.3	-39.1	21.1	0.00e+00	0	40	0	3400531968	47	4115
2026-01-30 12:32:14.78	336.85	16.18	-38.2	-39.1	21.2	0.00e+00	0	40	0	3407872000	47	4100
2026-01-30 12:32:15.49	336.88	16.10	-38.3	-39.1	21.1	0.00e+00	0	40	0	3411017728	47	4127
2026-01-30 12:32:16.78	336.93	15.96	-38.3	-39.1	21.1	0.00e+00	0	40	0	3418357760	47	4136
2026-01-30 12:32:17.50	336.96	15.88	-38.4	-39.2	21.0	0.00e+00	0	40	0	3422552064	47	4183
2026-01-30 12:32:18.78	337.02	15.74	-38.4	-39.2	21.0	0.00e+00	0	40	0	3429892096	47	4159
2026-01-30 12:32:19.50	337.05	15.67	-38.4	-39.2	21.0	0.00e+00	0	40	0	3434086400	47	4162
2026-01-30 12:32:20.79	337.10	15.53	-38.5	-39.3	20.9	0.00e+00	0	40	0	3441426432	47	4219
2026-01-30 12:32:21.50	337.13	15.45	-38.5	-39.3	20.9	0.00e+00	0	40	0	3445620736	47	4236
2026-01-30 12:32:22.80	337.19	15.32	-38.5	-39.3	20.9	0.00e+00	0	40	0	3452960768	47	4228
2026-01-30 12:32:23.51	337.22	15.24	-38.5	-39.3	20.9	0.00e+00	0	40	0	3456106496	47	4206
2026-01-30 12:32:24.80	337.27	15.11	-38.6	-39.4	20.8	0.00e+00	0	40	0	3463446528	47	4287
2026-01-30 12:32:25.52	337.30	15.03	-38.6	-39.4	20.8	0.00e+00	0	40	0	3467640832	47	4264
2026-01-30 12:32:26.86	337.35	14.89	-38.4	-39.3	20.9	0.00e+00	0	40	0	3474980864	47	4209
2026-01-30 12:32:27.58	337.38	14.82	-38.5	-39.3	20.9	0.00e+00	0	40	0	3479175168	47	4229
2026-01-30 12:32:28.87	337.43	14.68	-38.6	-39.4	20.8	0.00e+00	0	40	0	3486515200	47	4276
2026-01-30 12:32:29.58	337.46	14.61	-38.5	-39.4	20.8	0.00e+00	0	40	0	3490709504	47	4274
2026-01-30 12:32:30.87	337.51	14.48	-38.5	-39.4	20.8	0.00e+00	0	40	0	3498049536	47	4256
2026-01-30 12:32:31.59	337.54	14.40	-38.4	-39.3	20.9	0.00e+00	0	40	0	3502243840	47	4221
2026-01-30 12:32:32.88	337.59	14.27	-38.4	-39.3	20.9	0.00e+00	0	40	0	3509583872	47	4219
2026-01-30 12:32:33.60	337.62	14.20	-38.5	-39.3	20.9	0.00e+00	0	40	0	3513778176	47	4233
2026-01-30 12:32:34.88	337.67	14.07	-38.5	-39.4	20.8	0.00e+00	0	40	0	3520069632	47	4246
2026-01-30 12:32:35.60	337.69	14.00	-38.5	-39.4	20.8	0.00e+00	0	40	0	3524263936	47	4279
2026-01-30 12:32:37.26	337.76	13.83	-38.6	-39.5	20.7	0.00e+00	0	40	0	3533701120	47	4324
2026-01-30 12:32:37.83	337.78	13.77	-38.6	-39.5	20.7	0.00e+00	0	40	0	3536846848	47	4321
2026-01-30 12:32:39.42	337.84	13.62	-38.5	-39.5	20.7	0.00e+00	0	40	0	3546284032	47	4303
2026-01-30 12:32:40.00	337.86	13.56	-38.6	-39.5	20.6	0.00e+00	0	40	0	3549429760	47	4339
2026-01-30 12:32:41.57	337.92	13.41	-38.8	-39.7	20.7	0.00e+00	0	40	0	3557818368	48	4178
2026-01-30 12:32:42.17	337.94	13.35	-38.7	-39.7	20.7	0.00e+00	0	40	0	3560964096	48	4159
2026-01-30 12:32:43.78	338.00	13.19	-38.8	-39.8	20.6	0.00e+00	0	40	0	3570401280	48	4229
2026-01-30 12:32:44.36	338.02	13.13	-38.9	-39.8	20.5	0.00e+00	0	40	0	3573547008	48	4238
2026-01-30 12:32:45.95	338.08	12.98	-39.0	-40.0	20.4	0.00e+00	0	40	0	3582984192	48	4308
2026-01-30 12:32:46.52	338.10	12.93	-38.8	-39.9	20.5	0.00e+00	0	40	0	3586129920	48	4246
2026-01-30 12:32:48.11	338.15	12.77	-38.8	-39.8	20.5	0.00e+00	0	40	0	3594518528	48	4240
2026-01-30 12:32:48.70	338.18	12.72	-38.8	-39.9	20.5	0.00e+00	0	40	0	3598712832	48	4271
2026-01-30 12:32:50.28	338.23	12.57	-38.8	-39.9	20.5	0.00e+00	0	40	0	3607101440	48	4264
2026-01-30 12:32:51.07	338.26	12.49	-38.9	-39.9	20.4	0.00e+00	0	40	0	3611295744	48	4291
2026-01-30 12:32:52.65	338.31	12.34	-39.0	-40.0	20.4	0.00e+00	0	40	0	3620732928	48	4326
2026-01-30 12:32:53.24	338.33	12.29	-39.0	-40.0	20.3	0.00e+00	0	40	0	3623878656	48	4338
2026-01-30 12:32:55.15	338.40	12.11	-39.1	-40.1	20.3	0.00e+00	0	40	0	3634364416	48	4358
2026-01-30 12:32:55.72	338.42	12.06	-39.2	-40.2	20.2	0.00e+00	0	40	0	3637510144	49	4156
2026-01-30 12:32:57.30	338.47	11.91	-39.3	-40.2	20.2	0.00e+00	0	40	0	3646947328	49	4190
2026-01-30 12:32:57.89	338.49	11.86	-39.3	-40.2	20.2	0.00e+00	0	40	0	3650093056	49	4164
2026-01-30 12:32:59.46	338.54	11.71	-39.3	-40.2	20.1	0.00e+00	0	40	0	3658481664	49	4193
2026-01-30 12:33:00.05	338.56	11.66	-39.3	-40.2	20.1	0.00e+00	0	40	0	3662675968	49	4192
2026-01-30 12:33:01.63	338.62	11.52	-39.4	-40.4	20.0	0.00e+00	0	40	0	3671064576	49	4246
2026-01-30 12:33:02.22	338.64	11.46	-39.4	-40.4	20.0	0.00e+00	0	40	0	3674210304	49	4249
2026-01-30 12:33:03.79	338.69	11.32	-39.4	-40.4	20.0	0.00e+00	0	40	0	3682598912	49	4263
2026-01-30 12:33:04.36	338.71	11.27	-39.5	-40.4	19.9	0.00e+00	0	40	0	3686793216	49	4282
2026-01-30 12:33:05.94	338.76	11.13	-39.5	-40.5	19.8	0.00e+00	0	40	0	3695181824	49	4326
2026-01-30 12:33:06.56	338.78	11.07	-39.5	-40.5	19.9	0.00e+00	0	40	0	3698327552	49	4317
