passes_logs/2026/01/30/T1/T1__20260130_104216_FENGYUN_3D_rec.log

#Pass ID: 20260130_104216_FENGYUN 3D
#Satellite: FENGYUN 3D
#Configuration: FENGYUN 3D
#almurnet v.1.7.20251203
#Start time: 2026-01-30 10:42:17

#Version: 2.0.20230620
#Station: T1
#Location: 37.570604 lon 55.790049 lat
#TLE: 1 43010U 17072A   26029.52179110  .00000394  00000+0  20818-3 0  9997
#TLE: 2 43010  98.9957   1.5649 0002507  83.7772 276.3689 14.19703315425310

#Time	Az	El	Level	Level2	SNR	BER	BlckErr	Temp	State	Recorded	gain1	gain2
2026-01-30 10:42:17.72	119.21	5.06	-50.8	-62.2	3.8	8.46e-01	0	41	0	0	72	14022
2026-01-30 10:42:18.71	119.14	5.13	-51.2	-62.3	3.8	8.47e-01	0	41	104	0	73	13324
2026-01-30 10:42:19.70	119.08	5.19	-51.2	-62.3	3.8	8.47e-01	0	41	104	0	73	13333
2026-01-30 10:42:20.70	119.01	5.26	-51.1	-62.3	3.8	8.47e-01	0	41	104	0	73	13266
2026-01-30 10:42:21.70	118.94	5.32	-50.9	-62.3	3.8	8.48e-01	0	41	104	0	73	13283
2026-01-30 10:42:22.70	118.88	5.39	-51.0	-62.2	3.8	8.47e-01	0	41	104	0	73	13227
2026-01-30 10:42:23.70	118.81	5.45	-51.0	-62.2	3.8	8.47e-01	0	41	104	0	72	13982
2026-01-30 10:42:24.70	118.74	5.52	-50.9	-62.2	3.8	8.47e-01	0	41	104	0	72	13983
2026-01-30 10:42:25.70	118.67	5.59	-51.0	-62.2	3.8	8.45e-01	0	41	104	0	72	13965
2026-01-30 10:42:26.70	118.60	5.65	-50.8	-62.2	3.8	8.47e-01	0	41	104	0	72	13908
2026-01-30 10:42:27.69	118.54	5.72	-50.7	-62.2	3.8	8.47e-01	0	41	104	0	72	13891
2026-01-30 10:42:28.69	118.47	5.78	-50.8	-62.2	3.8	8.47e-01	0	41	104	0	72	13908
2026-01-30 10:42:29.69	118.40	5.85	-50.8	-62.1	3.8	8.47e-01	0	41	104	0	72	13755
2026-01-30 10:42:30.69	118.33	5.92	-50.9	-62.1	3.8	8.46e-01	0	41	104	0	72	13730
2026-01-30 10:42:31.68	118.26	5.98	-50.9	-62.0	3.8	8.46e-01	0	41	104	0	72	13643
2026-01-30 10:42:32.68	118.19	6.05	-50.8	-62.0	3.8	8.48e-01	0	41	104	0	72	13593
2026-01-30 10:42:33.68	118.12	6.12	-50.7	-61.8	3.8	8.48e-01	0	41	104	0	72	13367
2026-01-30 10:42:34.68	118.05	6.18	-50.1	-61.4	3.8	8.48e-01	0	41	104	0	71	13562
2026-01-30 10:42:35.68	117.98	6.25	-50.4	-61.6	3.8	8.46e-01	0	41	104	0	71	13729
2026-01-30 10:42:36.68	117.90	6.32	-50.5	-61.5	3.8	8.47e-01	0	41	104	0	71	13571
2026-01-30 10:42:37.68	117.83	6.39	-50.4	-61.4	3.8	8.47e-01	0	41	104	0	71	13491
2026-01-30 10:42:38.67	117.76	6.45	-50.4	-61.4	3.8	8.47e-01	0	41	104	0	71	13419
2026-01-30 10:42:39.67	117.69	6.52	-50.4	-61.3	3.8	8.47e-01	0	41	104	0	71	13300
2026-01-30 10:42:40.67	117.62	6.59	-50.4	-61.2	3.8	8.47e-01	0	42	104	0	71	13204
2026-01-30 10:42:41.66	117.54	6.65	-50.4	-61.2	3.8	8.46e-01	0	41	104	0	71	13156
2026-01-30 10:42:42.66	117.47	6.72	-50.4	-61.1	3.8	8.46e-01	0	42	104	0	71	13084
2026-01-30 10:42:43.67	117.39	6.79	-50.4	-61.1	3.8	8.46e-01	0	42	104	0	71	13082
2026-01-30 10:42:44.66	117.32	6.86	-50.4	-61.1	3.8	8.46e-01	0	42	104	0	71	13050
2026-01-30 10:42:45.66	117.25	6.93	-50.4	-61.2	3.8	8.46e-01	0	42	104	0	71	13206
2026-01-30 10:42:46.66	117.17	7.00	-50.3	-61.1	3.8	8.48e-01	0	42	104	0	71	13090
2026-01-30 10:42:47.65	117.10	7.06	-50.4	-61.1	3.8	8.47e-01	0	42	104	0	71	13042
2026-01-30 10:42:48.65	117.02	7.13	-50.4	-61.0	3.8	8.46e-01	0	42	104	0	71	12831
2026-01-30 10:42:49.64	116.94	7.20	-50.3	-60.7	3.8	8.47e-01	0	42	104	0	71	12475
2026-01-30 10:42:50.64	116.87	7.27	-50.3	-60.3	3.8	8.47e-01	0	42	104	0	71	11917
2026-01-30 10:42:51.64	116.79	7.34	-50.2	-59.9	3.8	8.46e-01	0	42	104	0	71	11322
2026-01-30 10:42:52.64	116.71	7.41	-50.2	-59.5	3.8	8.45e-01	0	42	104	0	71	10790
2026-01-30 10:42:53.63	116.64	7.48	-50.1	-59.2	3.8	8.45e-01	0	42	104	0	71	10522
2026-01-30 10:42:54.63	116.56	7.55	-50.2	-59.4	3.8	8.46e-01	0	42	104	0	71	10663
2026-01-30 10:42:55.63	116.48	7.62	-50.2	-59.5	3.8	8.45e-01	0	42	104	0	71	10898
2026-01-30 10:42:56.63	116.40	7.69	-50.1	-59.0	4.0	8.46e-01	0	42	104	0	71	10237
2026-01-30 10:42:57.62	116.32	7.76	-49.8	-57.3	4.4	8.36e-01	0	42	0	0	71	8378
2026-01-30 10:42:58.62	116.24	7.83	-49.1	-54.8	5.7	7.44e-01	0	42	0	0	69	7046
2026-01-30 10:42:59.62	116.16	7.90	-48.0	-51.9	8.3	9.34e-02	0	42	0	5242880	68	5347
2026-01-30 10:43:00.62	116.08	7.97	-46.5	-49.2	10.9	8.81e-03	0	42	0	11534336	65	4685
2026-01-30 10:43:01.62	116.00	8.04	-45.1	-47.2	13.1	9.26e-05	0	42	0	16777216	62	4393
2026-01-30 10:43:02.62	115.92	8.11	-43.9	-45.6	14.5	4.50e-06	0	42	0	23068672	59	4351
2026-01-30 10:43:03.62	115.84	8.18	-42.7	-44.2	15.6	1.10e-06	0	42	0	28311552	57	4184
2026-01-30 10:43:04.63	115.76	8.25	-41.6	-43.1	16.2	0.00e+00	0	42	0	33554432	55	4104
2026-01-30 10:43:05.63	115.67	8.32	-40.9	-42.4	16.6	0.00e+00	0	42	0	39845888	53	4256
2026-01-30 10:43:06.63	115.59	8.40	-40.6	-42.0	16.9	0.00e+00	0	42	0	45088768	53	4080
2026-01-30 10:43:07.63	115.51	8.47	-40.7	-42.0	17.1	0.00e+00	0	42	0	50331648	53	4087
2026-01-30 10:43:08.63	115.42	8.54	-41.1	-42.4	17.1	0.00e+00	0	42	0	56623104	53	4266
2026-01-30 10:43:09.63	115.34	8.61	-41.7	-43.0	16.8	0.00e+00	0	42	0	61865984	54	4335
2026-01-30 10:43:10.64	115.25	8.68	-42.5	-43.9	16.2	5.69e-04	0	42	0	67108864	55	4500
2026-01-30 10:43:11.64	115.17	8.76	-44.2	-45.4	15.0	0.00e+00	0	42	0	73400320	58	4494
2026-01-30 10:43:12.64	115.08	8.83	-45.0	-47.0	13.2	3.40e-06	0	42	0	78643200	60	4852
2026-01-30 10:43:13.65	115.00	8.90	-46.4	-48.9	11.3	7.85e-04	0	42	0	84934656	63	5084
2026-01-30 10:43:14.65	114.91	8.97	-47.6	-51.1	9.0	1.47e-02	0	42	0	90177536	65	5801
2026-01-30 10:43:15.65	114.82	9.05	-47.8	-51.6	8.5	7.60e-02	0	42	0	95420416	67	5469
2026-01-30 10:43:16.65	114.73	9.12	-47.9	-51.7	8.4	6.42e-02	0	42	0	101711872	67	5559
2026-01-30 10:43:17.65	114.65	9.19	-48.4	-53.0	7.2	8.54e-02	0	42	0	106954752	67	6432
2026-01-30 10:43:18.65	114.56	9.27	-45.1	-47.1	13.1	2.01e-01	0	43	0	110100480	62	4367
2026-01-30 10:43:19.65	114.47	9.34	-48.7	-53.9	6.5	1.30e-04	0	43	0	115343360	67	7170
2026-01-30 10:43:20.65	114.38	9.41	-46.5	-49.3	10.5	8.06e-01	0	42	104	116391936	65	4709
2026-01-30 10:43:21.66	114.29	9.49	-42.9	-44.3	16.0	3.77e-05	0	42	0	120586240	57	4196
2026-01-30 10:43:22.65	114.20	9.56	-41.6	-42.8	17.3	0.00e+00	0	42	0	125829120	55	3968
2026-01-30 10:43:23.65	114.11	9.64	-41.1	-42.2	17.8	0.00e+00	0	42	0	132120576	54	3944
2026-01-30 10:43:24.65	114.02	9.71	-41.1	-42.3	17.8	0.00e+00	0	42	0	137363456	54	3968
2026-01-30 10:43:25.65	113.93	9.78	-40.7	-41.8	18.2	0.00e+00	0	42	0	142606336	53	3985
2026-01-30 10:43:26.65	113.84	9.86	-40.5	-41.5	18.5	0.00e+00	0	43	0	148897792	53	3863
2026-01-30 10:43:27.65	113.74	9.93	-40.4	-41.5	18.6	0.00e+00	0	42	0	154140672	52	4054
2026-01-30 10:43:28.65	113.65	10.01	-40.3	-41.4	18.6	0.00e+00	0	43	0	160432128	52	4012
2026-01-30 10:43:29.66	113.56	10.08	-40.4	-41.4	18.6	0.00e+00	0	43	0	165675008	52	4030
2026-01-30 10:43:30.66	113.46	10.16	-40.2	-41.3	18.7	0.00e+00	0	42	0	170917888	52	3965
2026-01-30 10:43:31.66	113.37	10.23	-40.2	-41.2	18.7	0.00e+00	0	42	0	177209344	52	3957
2026-01-30 10:43:32.66	113.27	10.31	-40.1	-41.2	18.8	0.00e+00	0	42	0	182452224	52	3914
2026-01-30 10:43:33.66	113.18	10.38	-40.1	-41.1	18.9	2.39e-04	0	43	0	187695104	52	3878
2026-01-30 10:43:34.66	113.08	10.46	-40.1	-41.1	18.9	0.00e+00	0	43	0	193986560	51	4132
2026-01-30 10:43:35.66	112.99	10.54	-40.1	-41.1	19.0	0.00e+00	0	42	0	199229440	51	4122
2026-01-30 10:43:36.66	112.89	10.61	-40.2	-41.2	18.9	0.00e+00	0	43	0	204472320	51	4147
2026-01-30 10:43:37.66	112.79	10.69	-40.0	-41.0	19.1	0.00e+00	0	42	0	210763776	51	4094
2026-01-30 10:43:38.66	112.69	10.76	-39.9	-40.9	19.2	0.00e+00	0	42	0	216006656	51	4040
2026-01-30 10:43:39.67	112.59	10.84	-40.0	-40.9	19.1	0.00e+00	0	42	0	222298112	51	4045
2026-01-30 10:43:40.67	112.49	10.92	-40.0	-41.0	19.1	0.00e+00	0	43	0	227540992	51	4081
2026-01-30 10:43:41.67	112.40	10.99	-40.1	-41.0	19.1	0.00e+00	0	43	0	233832448	51	4094
2026-01-30 10:43:42.67	112.30	11.07	-40.1	-41.0	19.1	0.00e+00	0	42	0	239075328	51	4093
2026-01-30 10:43:43.67	112.19	11.15	-40.0	-40.9	19.2	0.00e+00	0	43	0	244318208	51	4045
2026-01-30 10:43:44.67	112.09	11.23	-40.0	-41.0	19.1	0.00e+00	0	43	0	250609664	51	4075
2026-01-30 10:43:45.68	111.99	11.30	-40.1	-41.1	19.1	6.27e-04	0	43	0	255852544	51	4116
2026-01-30 10:43:46.68	111.89	11.38	-40.1	-41.1	19.1	0.00e+00	0	43	0	261095424	51	4106
2026-01-30 10:43:47.68	111.79	11.46	-40.0	-41.0	19.1	0.00e+00	0	43	0	267386880	51	4073
2026-01-30 10:43:48.68	111.68	11.54	-40.0	-41.0	19.1	0.00e+00	0	43	0	272629760	51	4074
2026-01-30 10:43:49.68	111.58	11.62	-40.0	-41.0	19.1	0.00e+00	0	43	0	277872640	51	4074
2026-01-30 10:43:50.67	111.47	11.69	-40.0	-41.0	19.2	0.00e+00	0	43	0	284164096	51	4052
2026-01-30 10:43:51.67	111.37	11.77	-40.1	-41.1	19.1	0.00e+00	0	43	0	289406976	51	4126
2026-01-30 10:43:52.67	111.26	11.85	-40.1	-41.1	19.0	0.00e+00	0	43	0	295698432	51	4140
2026-01-30 10:43:53.68	111.16	11.93	-39.9	-40.9	19.3	0.00e+00	0	43	0	300941312	51	4021
2026-01-30 10:43:54.68	111.05	12.01	-39.9	-40.9	19.2	0.00e+00	0	43	0	306184192	51	4048
2026-01-30 10:43:55.68	110.94	12.09	-39.9	-40.9	19.2	0.00e+00	0	43	0	312475648	51	4041
2026-01-30 10:43:56.68	110.83	12.17	-39.9	-40.9	19.2	0.00e+00	0	43	0	317718528	51	4027
2026-01-30 10:43:57.68	110.73	12.24	-39.8	-40.8	19.4	0.00e+00	0	43	0	322961408	51	3978
2026-01-30 10:43:58.68	110.62	12.32	-39.9	-40.9	19.2	0.00e+00	0	43	0	329252864	51	4022
2026-01-30 10:43:59.68	110.51	12.40	-39.8	-40.8	19.3	0.00e+00	0	43	0	334495744	51	3993
2026-01-30 10:44:00.68	110.40	12.48	-39.8	-40.8	19.4	0.00e+00	0	43	0	339738624	51	3965
2026-01-30 10:44:01.68	110.29	12.56	-39.8	-40.8	19.3	0.00e+00	0	43	0	346030080	51	3996
2026-01-30 10:44:02.68	110.17	12.64	-39.8	-40.8	19.3	0.00e+00	0	43	0	351272960	51	3987
2026-01-30 10:44:03.69	110.06	12.72	-39.7	-40.7	19.5	0.00e+00	0	43	0	357564416	51	3927
2026-01-30 10:44:04.69	109.95	12.80	-39.7	-40.6	19.5	0.00e+00	0	43	0	362807296	51	3910
2026-01-30 10:44:05.69	109.83	12.89	-39.7	-40.6	19.5	0.00e+00	0	43	0	368050176	51	3905
2026-01-30 10:44:06.69	109.72	12.97	-39.6	-40.6	19.6	0.00e+00	0	43	0	374341632	51	3871
2026-01-30 10:44:07.69	109.61	13.05	-39.5	-40.5	19.7	0.00e+00	0	43	0	379584512	51	3830
2026-01-30 10:44:08.69	109.49	13.13	-39.4	-40.4	19.8	0.00e+00	0	43	0	384827392	50	4007
2026-01-30 10:44:09.69	109.37	13.21	-39.5	-40.5	19.7	0.00e+00	0	43	0	391118848	50	4071
2026-01-30 10:44:10.70	109.26	13.29	-39.4	-40.4	19.8	0.00e+00	0	43	0	396361728	50	4017
2026-01-30 10:44:11.70	109.14	13.37	-39.4	-40.4	19.8	0.00e+00	0	43	0	401604608	50	4012
2026-01-30 10:44:12.70	109.02	13.45	-39.5	-40.5	19.7	0.00e+00	0	43	0	407896064	50	4058
2026-01-30 10:44:13.70	108.90	13.54	-39.5	-40.5	19.7	0.00e+00	0	43	0	413138944	50	4070
2026-01-30 10:44:14.70	108.78	13.62	-39.5	-40.4	19.7	0.00e+00	0	43	0	419430400	50	4051
2026-01-30 10:44:15.70	108.66	13.70	-39.3	-40.3	19.9	0.00e+00	0	43	0	424673280	50	3960
2026-01-30 10:44:16.70	108.54	13.78	-39.4	-40.3	19.8	0.00e+00	0	43	0	429916160	50	3995
2026-01-30 10:44:17.70	108.42	13.86	-39.4	-40.3	19.9	0.00e+00	0	43	0	436207616	50	3981
2026-01-30 10:44:18.71	108.30	13.95	-39.2	-40.2	20.0	0.00e+00	0	43	0	441450496	50	3915
2026-01-30 10:44:19.71	108.17	14.03	-39.3	-40.2	19.9	0.00e+00	0	43	0	446693376	50	3954
2026-01-30 10:44:20.71	108.05	14.11	-39.2	-40.3	19.8	5.24e-04	0	43	0	452984832	50	3966
2026-01-30 10:44:21.71	107.93	14.20	-39.1	-40.0	20.1	0.00e+00	0	43	0	458227712	50	3854
2026-01-30 10:44:22.71	107.80	14.28	-39.1	-40.0	20.2	0.00e+00	0	43	0	463470592	50	3844
2026-01-30 10:44:23.71	107.68	14.36	-39.1	-40.0	20.2	0.00e+00	0	43	0	469762048	50	3837
2026-01-30 10:44:24.71	107.55	14.45	-39.0	-40.0	20.2	0.00e+00	0	43	0	475004928	50	3825
2026-01-30 10:44:25.71	107.42	14.53	-39.0	-39.9	20.2	0.00e+00	0	43	0	481296384	50	3800
2026-01-30 10:44:26.71	107.29	14.61	-39.1	-40.0	20.2	0.00e+00	0	43	0	486539264	49	4069
2026-01-30 10:44:27.71	107.17	14.70	-38.9	-39.8	20.3	0.00e+00	0	43	0	491782144	49	3980
2026-01-30 10:44:28.71	107.04	14.78	-38.8	-39.7	20.4	0.00e+00	0	43	0	498073600	49	3935
2026-01-30 10:44:29.71	106.91	14.86	-38.8	-39.7	20.4	0.00e+00	0	43	0	503316480	49	3943
2026-01-30 10:44:30.71	106.78	14.95	-38.8	-39.7	20.4	0.00e+00	0	43	0	508559360	49	3923
2026-01-30 10:44:31.71	106.64	15.03	-38.7	-39.6	20.5	0.00e+00	0	43	0	514850816	49	3885
2026-01-30 10:44:32.71	106.51	15.12	-38.6	-39.5	20.6	6.52e-05	0	43	0	520093696	49	3838
2026-01-30 10:44:33.71	106.38	15.20	-38.6	-39.5	20.6	0.00e+00	0	43	0	526385152	49	3852
2026-01-30 10:44:34.71	106.25	15.29	-38.6	-39.5	20.6	0.00e+00	0	43	0	531628032	49	3852
2026-01-30 10:44:35.72	106.11	15.37	-38.7	-39.6	20.6	0.00e+00	0	43	0	536870912	49	3882
2026-01-30 10:44:36.72	105.97	15.46	-38.6	-39.5	20.6	0.00e+00	0	43	0	543162368	49	3850
2026-01-30 10:44:37.72	105.84	15.54	-38.7	-39.5	20.6	0.00e+00	0	43	0	548405248	49	3867
2026-01-30 10:44:38.72	105.70	15.63	-38.7	-39.5	20.6	0.00e+00	0	43	0	554696704	49	3858
2026-01-30 10:44:39.72	105.56	15.71	-38.6	-39.5	20.6	0.00e+00	0	43	0	559939584	49	3851
2026-01-30 10:44:40.73	105.42	15.80	-38.7	-39.6	20.6	0.00e+00	0	43	0	565182464	49	3874
2026-01-30 10:44:41.73	105.28	15.89	-38.6	-39.5	20.6	0.00e+00	0	43	0	571473920	49	3864
2026-01-30 10:44:42.73	105.14	15.97	-38.6	-39.5	20.6	0.00e+00	0	43	0	576716800	49	3857
2026-01-30 10:44:43.73	105.00	16.06	-38.5	-39.3	20.8	0.00e+00	0	43	0	581959680	49	3777
2026-01-30 10:44:44.73	104.86	16.14	-38.5	-39.4	20.8	0.00e+00	0	43	0	588251136	48	4005
2026-01-30 10:44:45.74	104.72	16.23	-38.5	-39.3	20.8	0.00e+00	0	43	0	593494016	48	3991
2026-01-30 10:44:46.74	104.57	16.32	-38.5	-39.3	20.8	0.00e+00	0	43	0	599785472	48	3996
2026-01-30 10:44:47.74	104.43	16.40	-38.5	-39.3	20.8	0.00e+00	0	43	0	605028352	48	3997
2026-01-30 10:44:48.74	104.28	16.49	-38.6	-39.4	20.7	0.00e+00	0	43	0	610271232	48	4033
2026-01-30 10:44:49.74	104.14	16.58	-38.4	-39.3	20.8	0.00e+00	0	43	0	616562688	48	3965
2026-01-30 10:44:50.75	103.99	16.67	-38.4	-39.3	20.8	0.00e+00	0	43	0	621805568	48	3975
2026-01-30 10:44:51.74	103.84	16.75	-38.5	-39.4	20.7	0.00e+00	0	43	0	627048448	48	4023
2026-01-30 10:44:52.75	103.69	16.84	-38.5	-39.3	20.8	0.00e+00	0	43	0	633339904	48	3997
2026-01-30 10:44:53.75	103.54	16.93	-38.4	-39.3	20.8	0.00e+00	0	43	0	638582784	48	3975
2026-01-30 10:44:54.75	103.39	17.01	-38.5	-39.3	20.8	0.00e+00	0	43	0	643825664	48	4000
2026-01-30 10:44:55.76	103.24	17.10	-38.4	-39.3	20.7	0.00e+00	0	43	0	650117120	48	3986
2026-01-30 10:44:56.76	103.09	17.19	-38.3	-39.2	20.9	0.00e+00	0	43	0	655360000	48	3941
2026-01-30 10:44:57.76	102.94	17.28	-38.4	-39.2	20.9	0.00e+00	0	43	0	661651456	48	3948
2026-01-30 10:44:58.76	102.78	17.37	-38.3	-39.2	20.9	0.00e+00	0	43	0	666894336	48	3935
2026-01-30 10:44:59.76	102.63	17.45	-38.3	-39.2	20.9	0.00e+00	0	43	0	672137216	48	3919
2026-01-30 10:45:00.76	102.47	17.54	-38.2	-39.0	21.0	0.00e+00	0	43	0	678428672	48	3868
2026-01-30 10:45:01.76	102.31	17.63	-38.2	-39.0	21.1	0.00e+00	0	43	0	683671552	48	3854
2026-01-30 10:45:02.76	102.16	17.72	-38.2	-39.0	21.1	0.00e+00	0	43	0	688914432	48	3854
2026-01-30 10:45:03.76	102.00	17.81	-38.0	-38.9	21.2	0.00e+00	0	43	0	695205888	48	3787
2026-01-30 10:45:04.76	101.84	17.89	-38.0	-38.9	21.2	0.00e+00	0	43	0	700448768	48	3785
2026-01-30 10:45:05.76	101.68	17.98	-37.9	-38.7	21.1	0.00e+00	0	43	0	705691648	47	3947
2026-01-30 10:45:06.77	101.52	18.07	-37.9	-38.7	21.2	0.00e+00	0	43	0	711983104	47	3930
2026-01-30 10:45:07.77	101.35	18.16	-37.9	-38.7	21.1	0.00e+00	0	43	0	717225984	47	3955
2026-01-30 10:45:08.77	101.19	18.25	-37.9	-38.8	21.1	0.00e+00	0	43	0	723517440	47	3964
2026-01-30 10:45:09.77	101.03	18.34	-37.9	-38.8	21.1	0.00e+00	0	44	0	728760320	47	3986
2026-01-30 10:45:10.77	100.86	18.43	-37.9	-38.8	21.1	0.00e+00	0	43	0	735051776	47	3983
2026-01-30 10:45:11.78	100.69	18.52	-38.0	-38.8	21.0	0.00e+00	0	43	0	740294656	47	3992
2026-01-30 10:45:12.78	100.52	18.60	-38.0	-38.8	21.1	0.00e+00	0	43	0	745537536	47	3983
2026-01-30 10:45:13.78	100.36	18.69	-37.9	-38.8	21.1	0.00e+00	0	43	0	751828992	47	3981
2026-01-30 10:45:14.78	100.19	18.78	-37.9	-38.8	21.1	0.00e+00	0	43	0	757071872	47	3964
2026-01-30 10:45:15.78	100.02	18.87	-38.0	-38.8	21.0	0.00e+00	0	43	0	762314752	47	4000
2026-01-30 10:45:16.78	99.85	18.96	-37.7	-38.5	21.3	0.00e+00	0	43	0	768606208	47	3836
2026-01-30 10:45:17.79	99.67	19.05	-37.5	-38.3	21.5	0.00e+00	0	43	0	773849088	47	3760
2026-01-30 10:45:18.79	99.50	19.14	-37.5	-38.3	21.5	0.00e+00	0	43	0	779091968	47	3776
2026-01-30 10:45:19.79	99.32	19.23	-37.5	-38.3	21.5	0.00e+00	0	43	0	785383424	47	3777
2026-01-30 10:45:20.79	99.15	19.32	-37.6	-38.5	21.3	0.00e+00	0	43	0	790626304	47	3838
2026-01-30 10:45:21.80	98.97	19.41	-37.7	-38.5	21.3	0.00e+00	0	43	0	796917760	47	3856
2026-01-30 10:45:22.80	98.79	19.50	-37.7	-38.6	21.2	0.00e+00	0	43	0	802160640	47	3877
2026-01-30 10:45:23.80	98.62	19.59	-37.8	-38.7	21.2	0.00e+00	0	43	0	807403520	47	3933
2026-01-30 10:45:24.80	98.44	19.68	-37.8	-38.6	21.2	0.00e+00	0	43	0	813694976	47	3907
2026-01-30 10:45:25.80	98.26	19.77	-37.8	-38.6	21.2	0.00e+00	0	43	0	818937856	47	3912
2026-01-30 10:45:26.80	98.07	19.86	-37.8	-38.6	21.2	0.00e+00	0	43	0	824180736	47	3909
2026-01-30 10:45:27.80	97.89	19.95	-37.8	-38.6	21.2	0.00e+00	0	43	0	830472192	47	3902
2026-01-30 10:45:28.81	97.71	20.04	-37.7	-38.6	21.2	0.00e+00	0	43	0	835715072	47	3884
2026-01-30 10:45:29.81	97.52	20.13	-37.8	-38.6	21.2	0.00e+00	0	43	0	840957952	47	3912
2026-01-30 10:45:30.80	97.34	20.21	-37.8	-38.6	21.2	0.00e+00	0	43	0	847249408	47	3912
2026-01-30 10:45:31.81	97.15	20.31	-37.7	-38.5	21.3	0.00e+00	0	43	0	852492288	47	3867
2026-01-30 10:45:32.81	96.96	20.39	-37.7	-38.5	21.3	0.00e+00	0	43	0	858783744	47	3866
2026-01-30 10:45:33.81	96.77	20.48	-37.8	-38.6	21.2	0.00e+00	0	43	0	864026624	47	3904
2026-01-30 10:45:34.81	96.58	20.57	-37.7	-38.5	21.3	0.00e+00	0	43	0	869269504	47	3864
2026-01-30 10:45:35.82	96.39	20.66	-37.7	-38.6	21.3	0.00e+00	0	43	0	875560960	47	3869
2026-01-30 10:45:36.82	96.19	20.75	-37.6	-38.5	21.3	0.00e+00	0	43	0	880803840	47	3843
2026-01-30 10:45:37.82	96.00	20.84	-37.7	-38.5	21.3	0.00e+00	0	43	0	887095296	47	3853
2026-01-30 10:45:38.82	95.80	20.93	-37.6	-38.5	21.4	0.00e+00	0	43	0	892338176	47	3828
2026-01-30 10:45:39.82	95.61	21.02	-37.6	-38.4	21.3	0.00e+00	0	43	0	897581056	47	3823
2026-01-30 10:45:40.82	95.41	21.11	-37.6	-38.4	21.4	0.00e+00	0	43	0	903872512	47	3809
2026-01-30 10:45:41.82	95.21	21.20	-37.5	-38.3	21.4	0.00e+00	0	43	0	909115392	47	3779
2026-01-30 10:45:42.82	95.01	21.29	-37.5	-38.3	21.5	0.00e+00	0	43	0	914358272	46	3990
2026-01-30 10:45:43.82	94.81	21.38	-37.3	-38.1	21.6	0.00e+00	0	43	0	920649728	46	3908
2026-01-30 10:45:44.82	94.61	21.47	-37.4	-38.2	21.6	0.00e+00	0	43	0	925892608	46	3938
2026-01-30 10:45:45.82	94.41	21.56	-37.3	-38.2	21.6	0.00e+00	0	43	0	932184064	46	3915
2026-01-30 10:45:46.83	94.20	21.65	-37.2	-38.0	21.7	0.00e+00	0	43	0	937426944	46	3862
2026-01-30 10:45:47.83	94.00	21.74	-37.3	-38.1	21.7	0.00e+00	0	43	0	942669824	46	3879
2026-01-30 10:45:48.83	93.79	21.83	-37.2	-38.0	21.7	0.00e+00	0	43	0	948961280	46	3858
2026-01-30 10:45:49.83	93.58	21.91	-37.2	-38.0	21.7	0.00e+00	0	43	0	954204160	46	3854
2026-01-30 10:45:50.83	93.37	22.00	-37.2	-38.0	21.7	0.00e+00	0	43	0	959447040	46	3847
2026-01-30 10:45:51.83	93.16	22.09	-37.0	-37.8	21.9	0.00e+00	0	43	0	965738496	46	3762
2026-01-30 10:45:52.83	92.95	22.18	-37.0	-37.8	21.9	0.00e+00	0	43	0	970981376	45	3964
2026-01-30 10:45:53.84	92.74	22.27	-37.1	-37.9	21.8	0.00e+00	0	43	0	976224256	45	4013
2026-01-30 10:45:54.84	92.52	22.36	-37.1	-37.9	21.8	0.00e+00	0	43	0	982515712	45	4017
2026-01-30 10:45:55.84	92.31	22.45	-37.0	-37.8	21.9	0.00e+00	0	43	0	987758592	45	3983
2026-01-30 10:45:56.85	92.09	22.53	-37.0	-37.8	21.9	0.00e+00	0	43	0	994050048	45	3966
2026-01-30 10:45:57.85	91.87	22.62	-37.0	-37.8	21.9	0.00e+00	0	43	0	999292928	45	3962
2026-01-30 10:45:58.85	91.65	22.71	-37.1	-37.9	21.8	0.00e+00	0	43	0	1004535808	45	4011
2026-01-30 10:45:59.85	91.43	22.80	-37.0	-37.8	21.9	0.00e+00	0	43	0	1010827264	45	3968
2026-01-30 10:46:00.85	91.21	22.88	-37.0	-37.9	21.8	0.00e+00	0	43	0	1016070144	45	4008
2026-01-30 10:46:01.86	90.98	22.97	-37.0	-37.9	21.8	0.00e+00	0	43	0	1021313024	45	4013
2026-01-30 10:46:02.86	90.76	23.06	-37.1	-37.9	21.8	0.00e+00	0	43	0	1027604480	45	4027
2026-01-30 10:46:03.86	90.54	23.15	-37.1	-37.9	21.8	0.00e+00	0	43	0	1032847360	45	4048
2026-01-30 10:46:04.86	90.31	23.23	-37.0	-37.8	21.9	0.00e+00	0	43	0	1038090240	45	4003
2026-01-30 10:46:05.86	90.08	23.32	-37.0	-37.8	21.9	0.00e+00	0	43	0	1044381696	45	3995
2026-01-30 10:46:06.86	89.85	23.41	-36.9	-37.7	21.9	0.00e+00	0	43	0	1049624576	45	3952
2026-01-30 10:46:07.86	89.62	23.49	-36.9	-37.8	21.9	0.00e+00	0	43	0	1055916032	45	3961
2026-01-30 10:46:08.86	89.39	23.58	-36.8	-37.6	22.0	0.00e+00	0	43	0	1061158912	45	3879
2026-01-30 10:46:09.86	89.16	23.66	-36.8	-37.6	22.0	0.00e+00	0	43	0	1066401792	45	3907
2026-01-30 10:46:10.86	88.92	23.75	-36.8	-37.6	22.0	0.00e+00	0	43	0	1072693248	45	3903
2026-01-30 10:46:11.87	88.69	23.84	-36.9	-37.7	21.9	0.00e+00	0	43	0	1077936128	45	3929
2026-01-30 10:46:12.86	88.45	23.92	-37.1	-37.9	21.8	0.00e+00	0	43	0	1083179008	45	4021
2026-01-30 10:46:13.87	88.21	24.00	-37.0	-37.8	21.8	0.00e+00	0	43	0	1089470464	45	3988
2026-01-30 10:46:14.87	87.97	24.09	-37.0	-37.9	21.8	0.00e+00	0	43	0	1094713344	45	4012
2026-01-30 10:46:15.87	87.73	24.17	-37.0	-37.8	21.8	0.00e+00	0	43	0	1099956224	45	3982
2026-01-30 10:46:16.87	87.49	24.26	-37.0	-37.8	21.9	0.00e+00	0	43	0	1106247680	45	3970
2026-01-30 10:46:17.87	87.25	24.34	-36.8	-37.6	22.0	0.00e+00	0	43	0	1111490560	45	3881
2026-01-30 10:46:18.87	87.00	24.42	-36.7	-37.5	22.0	0.00e+00	0	43	0	1117782016	45	3847
2026-01-30 10:46:19.87	86.76	24.51	-36.7	-37.6	22.0	0.00e+00	0	43	0	1123024896	45	3878
2026-01-30 10:46:20.87	86.51	24.59	-36.8	-37.6	22.0	0.00e+00	0	43	0	1129316352	45	3900
2026-01-30 10:46:21.87	86.26	24.67	-36.7	-37.5	22.0	0.00e+00	0	43	0	1134559232	45	3867
2026-01-30 10:46:22.88	86.01	24.75	-36.6	-37.4	22.1	0.00e+00	0	43	0	1139802112	45	3812
2026-01-30 10:46:23.88	85.76	24.84	-36.6	-37.4	22.2	0.00e+00	0	43	0	1146093568	45	3806
2026-01-30 10:46:24.88	85.51	24.92	-36.6	-37.4	22.2	0.00e+00	0	43	0	1151336448	45	3807
2026-01-30 10:46:25.88	85.25	25.00	-36.7	-37.6	22.0	0.00e+00	0	43	0	1156579328	45	3871
2026-01-30 10:46:26.88	85.00	25.08	-36.6	-37.4	22.1	0.00e+00	0	43	0	1162870784	45	3804
2026-01-30 10:46:27.88	84.74	25.16	-36.6	-37.4	22.1	0.00e+00	0	43	0	1168113664	45	3823
2026-01-30 10:46:28.88	84.49	25.24	-36.6	-37.4	22.2	0.00e+00	0	43	0	1173356544	45	3795
2026-01-30 10:46:29.89	84.22	25.32	-36.6	-37.4	22.2	0.00e+00	0	43	0	1179648000	45	3795
2026-01-30 10:46:30.89	83.96	25.40	-36.6	-37.4	22.2	0.00e+00	0	43	0	1184890880	45	3797
2026-01-30 10:46:31.89	83.70	25.48	-36.6	-37.4	22.2	0.00e+00	0	43	0	1191182336	45	3798
2026-01-30 10:46:32.89	83.44	25.55	-36.7	-37.5	22.1	0.00e+00	0	43	0	1196425216	45	3835
2026-01-30 10:46:33.89	83.18	25.63	-36.6	-37.4	22.2	0.00e+00	0	43	0	1201668096	45	3785
2026-01-30 10:46:34.90	82.91	25.71	-36.5	-37.3	22.2	0.00e+00	0	43	0	1207959552	45	3778
2026-01-30 10:46:35.90	82.64	25.79	-36.6	-37.4	22.2	0.00e+00	0	43	0	1213202432	45	3811
2026-01-30 10:46:36.90	82.37	25.86	-36.5	-37.3	22.2	0.00e+00	0	43	0	1218445312	45	3769
2026-01-30 10:46:37.90	82.10	25.94	-36.4	-37.2	22.3	0.00e+00	0	43	0	1224736768	44	3943
2026-01-30 10:46:38.90	81.83	26.01	-36.5	-37.3	22.3	0.00e+00	0	43	0	1229979648	44	3969
2026-01-30 10:46:39.90	81.56	26.09	-36.3	-37.1	22.4	0.00e+00	0	43	0	1235222528	44	3908
2026-01-30 10:46:40.90	81.29	26.16	-36.4	-37.2	22.3	0.00e+00	0	43	0	1241513984	44	3917
2026-01-30 10:46:41.91	81.01	26.24	-36.3	-37.1	22.4	0.00e+00	0	43	0	1246756864	44	3889
2026-01-30 10:46:42.91	80.74	26.31	-36.4	-37.2	22.3	0.00e+00	0	43	0	1253048320	44	3918
2026-01-30 10:46:43.91	80.46	26.38	-36.4	-37.1	22.3	0.00e+00	0	43	0	1258291200	44	3906
2026-01-30 10:46:44.91	80.18	26.46	-36.5	-37.3	22.2	0.00e+00	0	43	0	1263534080	44	3977
2026-01-30 10:46:45.91	79.90	26.53	-36.6	-37.5	22.1	0.00e+00	0	43	0	1269825536	44	4060
2026-01-30 10:46:46.91	79.62	26.60	-36.7	-37.6	22.0	0.00e+00	0	43	0	1275068416	44	4102
2026-01-30 10:46:47.91	79.34	26.67	-36.7	-37.5	22.0	0.00e+00	0	43	0	1280311296	44	4079
2026-01-30 10:46:48.90	79.06	26.74	-36.7	-37.5	22.1	0.00e+00	0	43	0	1286602752	44	4078
2026-01-30 10:46:49.90	78.78	26.81	-36.6	-37.3	22.2	0.00e+00	0	43	0	1291845632	44	3999
2026-01-30 10:46:50.91	78.49	26.88	-36.4	-37.2	22.3	0.00e+00	0	43	0	1298137088	44	3916
2026-01-30 10:46:51.91	78.20	26.95	-36.6	-37.4	22.2	0.00e+00	0	43	0	1303379968	44	4015
2026-01-30 10:46:52.91	77.91	27.01	-36.4	-37.2	22.3	0.00e+00	0	43	0	1308622848	44	3943
2026-01-30 10:46:53.91	77.62	27.08	-36.4	-37.1	22.4	0.00e+00	0	43	0	1314914304	44	3911
2026-01-30 10:46:54.92	77.33	27.15	-36.3	-37.1	22.4	0.00e+00	0	43	0	1320157184	44	3899
2026-01-30 10:46:55.92	77.04	27.21	-36.4	-37.2	22.3	0.00e+00	0	43	0	1325400064	44	3958
2026-01-30 10:46:56.92	76.74	27.28	-36.4	-37.2	22.3	0.00e+00	0	43	0	1331691520	44	3946
2026-01-30 10:46:57.92	76.45	27.34	-36.3	-37.1	22.5	0.00e+00	0	43	0	1336934400	44	3871
2026-01-30 10:46:58.92	76.16	27.41	-36.1	-36.9	22.6	0.00e+00	0	43	0	1343225856	44	3790
2026-01-30 10:46:59.92	75.86	27.47	-36.1	-36.8	22.7	0.00e+00	0	43	0	1348468736	44	3768
2026-01-30 10:47:00.92	75.56	27.53	-36.1	-36.9	22.6	0.00e+00	0	43	0	1353711616	44	3784
2026-01-30 10:47:01.92	75.26	27.59	-36.2	-37.0	22.6	0.00e+00	0	43	0	1360003072	44	3828
2026-01-30 10:47:02.93	74.96	27.65	-36.1	-36.9	22.6	0.00e+00	0	43	0	1365245952	44	3787
2026-01-30 10:47:03.93	74.66	27.71	-36.1	-36.9	22.6	0.00e+00	0	43	0	1371537408	44	3811
2026-01-30 10:47:04.93	74.36	27.77	-36.1	-36.8	22.6	0.00e+00	0	43	0	1376780288	44	3779
2026-01-30 10:47:05.94	74.05	27.83	-36.0	-36.8	22.7	0.00e+00	0	43	0	1382023168	44	3761
2026-01-30 10:47:06.94	73.75	27.89	-36.1	-36.8	22.7	0.00e+00	0	43	0	1388314624	44	3768
2026-01-30 10:47:07.94	73.44	27.95	-36.1	-36.8	22.7	0.00e+00	0	43	0	1393557504	44	3774
2026-01-30 10:47:08.95	73.13	28.00	-36.1	-36.9	22.6	0.00e+00	0	43	0	1398800384	44	3793
2026-01-30 10:47:09.95	72.82	28.06	-36.2	-36.9	22.6	0.00e+00	0	43	0	1405091840	44	3822
2026-01-30 10:47:10.95	72.51	28.11	-36.1	-36.9	22.6	0.00e+00	0	43	0	1410334720	44	3792
2026-01-30 10:47:11.95	72.20	28.17	-36.0	-36.8	22.7	0.00e+00	0	43	0	1415577600	44	3748
2026-01-30 10:47:12.96	71.89	28.22	-36.1	-36.8	22.7	0.00e+00	0	43	0	1421869056	44	3774
2026-01-30 10:47:13.96	71.58	28.27	-35.8	-36.5	22.8	0.00e+00	0	43	0	1427111936	43	3858
2026-01-30 10:47:14.96	71.27	28.32	-35.7	-36.5	22.8	0.00e+00	0	43	0	1433403392	43	3832
2026-01-30 10:47:15.96	70.95	28.37	-35.6	-36.4	22.9	0.00e+00	0	43	0	1438646272	43	3793
2026-01-30 10:47:16.96	70.64	28.42	-35.7	-36.5	22.8	0.00e+00	0	43	0	1443889152	43	3828
2026-01-30 10:47:17.96	70.32	28.47	-35.7	-36.5	22.8	0.00e+00	0	43	0	1450180608	43	3829
2026-01-30 10:47:18.96	70.00	28.52	-35.7	-36.5	22.8	0.00e+00	0	43	0	1455423488	43	3847
2026-01-30 10:47:19.96	69.69	28.56	-35.9	-36.6	22.7	0.00e+00	0	43	0	1460666368	43	3898
2026-01-30 10:47:20.96	69.37	28.61	-35.8	-36.6	22.8	0.00e+00	0	43	0	1466957824	43	3882
2026-01-30 10:47:21.96	69.05	28.66	-35.8	-36.5	22.8	0.00e+00	0	43	0	1472200704	43	3865
2026-01-30 10:47:22.96	68.73	28.70	-35.6	-36.3	23.0	0.00e+00	0	43	0	1477443584	43	3771
2026-01-30 10:47:23.97	68.40	28.74	-35.6	-36.4	22.9	0.00e+00	0	43	0	1483735040	43	3795
2026-01-30 10:47:24.97	68.08	28.78	-35.7	-36.4	22.9	0.00e+00	0	43	0	1488977920	43	3815
2026-01-30 10:47:25.97	67.76	28.83	-35.6	-36.4	22.9	0.00e+00	0	43	0	1495269376	43	3788
2026-01-30 10:47:26.98	67.43	28.87	-35.6	-36.4	23.0	0.00e+00	0	43	0	1500512256	43	3783
2026-01-30 10:47:27.98	67.11	28.91	-35.6	-36.3	22.9	0.00e+00	0	43	0	1506803712	43	3780
2026-01-30 10:47:28.98	66.78	28.94	-35.6	-36.3	22.9	0.00e+00	0	43	0	1512046592	43	3769
2026-01-30 10:47:29.98	66.46	28.98	-35.7	-36.4	22.9	0.00e+00	0	43	0	1517289472	43	3811
2026-01-30 10:47:30.98	66.13	29.02	-35.8	-36.5	22.8	0.00e+00	0	43	0	1523580928	43	3865
2026-01-30 10:47:31.98	65.80	29.05	-35.6	-36.4	22.9	0.00e+00	0	43	0	1528823808	43	3805
2026-01-30 10:47:32.99	65.47	29.09	-35.6	-36.3	23.0	0.00e+00	0	43	0	1534066688	43	3776
2026-01-30 10:47:33.99	65.14	29.12	-35.5	-36.2	23.1	0.00e+00	0	43	0	1540358144	43	3730
2026-01-30 10:47:35.00	64.81	29.15	-35.5	-36.2	23.1	0.00e+00	0	43	0	1545601024	42	3937
2026-01-30 10:47:36.00	64.48	29.18	-35.5	-36.2	23.1	0.00e+00	0	43	0	1550843904	42	3941
2026-01-30 10:47:37.00	64.15	29.21	-35.5	-36.2	23.1	0.00e+00	0	43	0	1557135360	42	3951
2026-01-30 10:47:38.00	63.81	29.24	-35.6	-36.3	23.0	0.00e+00	0	43	0	1562378240	42	4003
2026-01-30 10:47:39.01	63.48	29.27	-35.5	-36.3	23.0	0.00e+00	0	43	0	1568669696	42	3974
2026-01-30 10:47:40.01	63.15	29.30	-35.5	-36.3	23.0	0.00e+00	0	43	0	1573912576	42	3959
2026-01-30 10:47:41.01	62.81	29.32	-35.4	-36.1	23.2	0.00e+00	0	43	0	1579155456	42	3902
2026-01-30 10:47:42.01	62.48	29.35	-35.3	-36.0	23.3	0.00e+00	0	43	0	1585446912	42	3839
2026-01-30 10:47:43.01	62.15	29.37	-35.3	-36.0	23.3	0.00e+00	0	43	0	1590689792	42	3860
2026-01-30 10:47:44.01	61.81	29.40	-35.3	-36.0	23.2	0.00e+00	0	43	0	1595932672	42	3856
2026-01-30 10:47:45.02	61.47	29.42	-35.3	-36.1	23.2	0.00e+00	0	43	0	1602224128	42	3889
2026-01-30 10:47:46.02	61.14	29.44	-35.5	-36.2	23.0	0.00e+00	0	43	0	1607467008	42	3956
2026-01-30 10:47:47.02	60.80	29.46	-35.5	-36.3	23.0	0.00e+00	0	43	0	1613758464	42	3970
2026-01-30 10:47:48.02	60.46	29.48	-35.5	-36.3	22.9	0.00e+00	0	43	0	1619001344	42	3989
2026-01-30 10:47:49.02	60.13	29.49	-35.6	-36.4	22.9	0.00e+00	0	43	0	1624244224	42	4010
2026-01-30 10:47:50.02	59.79	29.51	-35.5	-36.3	23.0	0.00e+00	0	43	0	1630535680	42	3977
2026-01-30 10:47:51.01	59.46	29.52	-35.4	-36.1	23.2	0.00e+00	0	43	0	1635778560	42	3889
2026-01-30 10:47:52.01	59.12	29.54	-35.4	-36.2	23.1	0.00e+00	0	43	0	1641021440	42	3918
2026-01-30 10:47:53.02	58.78	29.55	-35.4	-36.2	23.1	0.00e+00	0	43	0	1647312896	42	3916
2026-01-30 10:47:54.02	58.44	29.56	-35.4	-36.1	23.2	0.00e+00	0	43	0	1652555776	42	3889
2026-01-30 10:47:55.02	58.10	29.57	-35.4	-36.2	23.1	0.00e+00	0	43	0	1657798656	42	3926
2026-01-30 10:47:56.01	57.77	29.58	-35.3	-36.0	23.3	0.00e+00	0	43	0	1664090112	42	3846
2026-01-30 10:47:57.01	57.43	29.59	-35.4	-36.1	23.2	0.00e+00	0	43	0	1669332992	42	3890
2026-01-30 10:47:58.01	57.09	29.60	-35.2	-35.9	23.4	0.00e+00	0	43	0	1674575872	42	3797
2026-01-30 10:47:59.01	56.75	29.60	-35.2	-35.9	23.3	0.00e+00	0	43	0	1680867328	42	3822
2026-01-30 10:48:00.01	56.41	29.61	-35.2	-36.0	23.3	0.00e+00	0	43	0	1686110208	42	3837
2026-01-30 10:48:01.01	56.07	29.61	-35.2	-36.0	23.2	0.00e+00	0	43	0	1692401664	42	3825
2026-01-30 10:48:02.01	55.73	29.62	-35.4	-36.2	23.1	0.00e+00	0	43	0	1697644544	42	3919
2026-01-30 10:48:03.01	55.39	29.62	-35.4	-36.1	23.1	0.00e+00	0	43	0	1702887424	42	3898
2026-01-30 10:48:04.01	55.05	29.62	-35.4	-36.1	23.1	0.00e+00	0	43	0	1709178880	42	3889
2026-01-30 10:48:05.01	54.71	29.62	-35.4	-36.1	23.1	0.00e+00	0	43	0	1714421760	42	3903
2026-01-30 10:48:06.01	54.37	29.62	-35.3	-36.1	23.2	0.00e+00	0	43	0	1719664640	42	3869
2026-01-30 10:48:07.01	54.03	29.61	-35.3	-36.0	23.3	0.00e+00	0	43	0	1725956096	42	3852
2026-01-30 10:48:08.02	53.69	29.61	-35.3	-36.0	23.3	0.00e+00	0	43	0	1731198976	42	3841
2026-01-30 10:48:09.02	53.35	29.60	-35.3	-36.1	23.2	0.00e+00	0	43	0	1737490432	42	3874
2026-01-30 10:48:10.02	53.01	29.60	-35.4	-36.1	23.2	0.00e+00	0	44	0	1742733312	42	3911
2026-01-30 10:48:11.02	52.67	29.59	-35.4	-36.2	23.1	0.00e+00	0	43	0	1747976192	42	3926
2026-01-30 10:48:12.03	52.33	29.58	-35.5	-36.2	23.1	0.00e+00	0	43	0	1754267648	42	3945
2026-01-30 10:48:13.03	51.99	29.57	-35.5	-36.3	23.0	0.00e+00	0	43	0	1759510528	42	3978
2026-01-30 10:48:14.03	51.65	29.56	-35.6	-36.3	23.0	0.00e+00	0	43	0	1765801984	42	3997
2026-01-30 10:48:15.03	51.32	29.55	-35.6	-36.3	23.0	0.00e+00	0	43	0	1771044864	42	3982
2026-01-30 10:48:16.03	50.98	29.54	-35.6	-36.4	23.0	0.00e+00	0	43	0	1776287744	42	4011
2026-01-30 10:48:17.04	50.64	29.52	-35.7	-36.5	22.9	0.00e+00	0	43	0	1782579200	42	4075
2026-01-30 10:48:18.04	50.30	29.51	-35.6	-36.3	23.0	0.00e+00	0	43	0	1787822080	42	3986
2026-01-30 10:48:19.04	49.96	29.49	-35.5	-36.3	23.0	0.00e+00	0	43	0	1793064960	42	3981
2026-01-30 10:48:20.04	49.63	29.47	-35.6	-36.3	23.0	0.00e+00	0	43	0	1799356416	42	3998
2026-01-30 10:48:21.05	49.29	29.46	-35.4	-36.2	23.1	0.00e+00	0	43	0	1804599296	42	3919
2026-01-30 10:48:22.05	48.95	29.44	-35.4	-36.2	23.1	0.00e+00	0	43	0	1809842176	42	3916
2026-01-30 10:48:23.05	48.62	29.42	-35.2	-36.0	23.3	0.00e+00	0	43	0	1816133632	42	3825
2026-01-30 10:48:24.05	48.28	29.39	-35.2	-36.0	23.3	0.00e+00	0	43	0	1821376512	42	3826
2026-01-30 10:48:25.05	47.95	29.37	-35.3	-36.1	23.2	0.00e+00	0	43	0	1827667968	42	3875
2026-01-30 10:48:26.05	47.61	29.35	-35.3	-36.0	23.2	0.00e+00	0	44	0	1832910848	42	3868
2026-01-30 10:48:27.06	47.28	29.32	-35.4	-36.2	23.1	0.00e+00	0	43	0	1838153728	42	3919
2026-01-30 10:48:28.06	46.94	29.30	-35.3	-36.1	23.2	0.00e+00	0	44	0	1844445184	42	3880
2026-01-30 10:48:29.06	46.61	29.27	-35.4	-36.2	23.1	0.00e+00	0	43	0	1849688064	42	3929
2026-01-30 10:48:30.06	46.28	29.24	-35.5	-36.3	23.0	0.00e+00	0	43	0	1854930944	42	3967
2026-01-30 10:48:31.06	45.95	29.21	-35.5	-36.3	23.0	0.00e+00	0	43	0	1861222400	42	3979
2026-01-30 10:48:32.06	45.62	29.18	-35.6	-36.4	22.9	0.00e+00	0	44	0	1866465280	42	4014
2026-01-30 10:48:33.07	45.29	29.15	-35.7	-36.4	22.9	0.00e+00	0	43	0	1871708160	42	4040
2026-01-30 10:48:34.06	44.96	29.12	-35.7	-36.4	22.9	0.00e+00	0	43	0	1877999616	42	4038
2026-01-30 10:48:35.07	44.63	29.09	-35.7	-36.4	23.5	0.00e+00	0	43	0	1883242496	42	4028
2026-01-30 10:48:36.06	44.30	29.05	-35.8	-36.5	23.5	0.00e+00	0	43	0	1889533952	42	4055
2026-01-30 10:48:37.07	43.97	29.02	-35.9	-36.6	23.3	0.00e+00	0	43	0	1894776832	42	4132
2026-01-30 10:48:38.07	43.65	28.98	-35.9	-36.5	23.4	0.00e+00	0	43	0	1901068288	42	4089
2026-01-30 10:48:39.07	43.32	28.94	-35.8	-36.5	23.5	0.00e+00	0	43	0	1906311168	42	4054
2026-01-30 10:48:40.07	43.00	28.90	-35.8	-36.4	23.5	0.00e+00	0	43	0	1911554048	42	4035
2026-01-30 10:48:41.07	42.67	28.87	-35.8	-36.5	23.5	0.00e+00	0	43	0	1917845504	42	4060
2026-01-30 10:48:42.07	42.35	28.83	-35.8	-36.4	23.5	0.00e+00	0	43	0	1923088384	42	4038
2026-01-30 10:48:43.07	42.03	28.78	-35.8	-36.5	23.4	0.00e+00	0	43	0	1928331264	42	4079
2026-01-30 10:48:44.07	41.71	28.74	-35.9	-36.6	23.4	0.00e+00	0	43	0	1934622720	42	4122
2026-01-30 10:48:45.07	41.38	28.70	-36.0	-36.6	23.3	0.00e+00	0	43	0	1939865600	42	4131
2026-01-30 10:48:46.07	41.07	28.66	-35.8	-36.5	23.4	0.00e+00	0	43	0	1945108480	42	4059
2026-01-30 10:48:47.07	40.75	28.61	-35.9	-36.6	23.4	0.00e+00	0	43	0	1951399936	42	4110
2026-01-30 10:48:48.07	40.43	28.56	-36.0	-36.7	23.3	0.00e+00	0	43	0	1956642816	42	4153
2026-01-30 10:48:49.07	40.11	28.52	-35.8	-36.5	23.5	0.00e+00	0	43	0	1962934272	42	4056
2026-01-30 10:48:50.07	39.80	28.47	-35.9	-36.6	23.4	0.00e+00	0	43	0	1968177152	42	4102
2026-01-30 10:48:51.08	39.48	28.42	-35.7	-36.4	23.6	0.00e+00	0	43	0	1973420032	42	4006
2026-01-30 10:48:52.08	39.16	28.37	-35.6	-36.3	23.7	0.00e+00	0	43	0	1979711488	42	3962
2026-01-30 10:48:53.08	38.85	28.32	-35.7	-36.3	23.6	0.00e+00	0	43	0	1984954368	42	3998
2026-01-30 10:48:54.09	38.53	28.27	-35.8	-36.5	23.5	0.00e+00	0	43	0	1990197248	42	4064
2026-01-30 10:48:55.09	38.22	28.22	-36.0	-36.7	23.4	0.00e+00	0	43	0	1996488704	42	4151
2026-01-30 10:48:56.09	37.91	28.17	-36.2	-36.8	23.3	0.00e+00	0	43	0	2001731584	42	4230
2026-01-30 10:48:57.07	37.61	28.11	-36.2	-36.8	23.2	0.00e+00	0	43	0	2006974464	42	4235
2026-01-30 10:48:58.07	37.30	28.06	-36.1	-36.8	23.3	0.00e+00	0	43	0	2013265920	42	4217
2026-01-30 10:48:59.08	36.99	28.00	-36.2	-36.8	23.3	0.00e+00	0	43	0	2018508800	43	3985
2026-01-30 10:49:00.08	36.69	27.95	-36.0	-36.7	23.4	0.00e+00	0	43	0	2024800256	43	3927
2026-01-30 10:49:01.08	36.38	27.89	-36.1	-36.8	23.3	0.00e+00	0	43	0	2030043136	43	3974
2026-01-30 10:49:02.09	36.07	27.83	-36.2	-36.9	23.3	0.00e+00	0	43	0	2035286016	43	4011
2026-01-30 10:49:03.09	35.77	27.78	-36.1	-36.8	23.3	0.00e+00	0	43	0	2041577472	43	3977
2026-01-30 10:49:04.09	35.47	27.72	-36.1	-36.8	23.4	0.00e+00	0	43	0	2046820352	43	3960
2026-01-30 10:49:05.10	35.17	27.66	-36.2	-36.9	23.3	0.00e+00	0	43	0	2052063232	43	4007
2026-01-30 10:49:06.10	34.87	27.60	-36.0	-36.6	23.4	0.00e+00	0	43	0	2058354688	43	3911
2026-01-30 10:49:07.10	34.57	27.53	-35.9	-36.6	23.5	0.00e+00	0	43	0	2063597568	43	3888
2026-01-30 10:49:08.10	34.27	27.47	-36.0	-36.7	23.4	0.00e+00	0	43	0	2069889024	43	3933
2026-01-30 10:49:09.10	33.98	27.41	-36.1	-36.7	23.4	0.00e+00	0	43	0	2075131904	43	3949
2026-01-30 10:49:10.10	33.68	27.35	-36.2	-36.9	23.3	0.00e+00	0	43	0	2080374784	43	4024
2026-01-30 10:49:11.10	33.39	27.28	-36.3	-37.0	23.2	0.00e+00	0	43	0	2086666240	43	4054
2026-01-30 10:49:12.10	33.10	27.22	-36.2	-36.9	23.2	0.00e+00	0	43	0	2091909120	43	4025
2026-01-30 10:49:13.10	32.81	27.15	-36.4	-37.1	23.1	0.00e+00	0	43	0	2098200576	43	4103
2026-01-30 10:49:14.10	32.52	27.09	-36.3	-37.0	23.1	0.00e+00	0	44	0	2103443456	43	4092
2026-01-30 10:49:15.10	32.23	27.02	-36.2	-36.8	23.3	0.00e+00	0	43	0	2108686336	43	4000
2026-01-30 10:49:16.10	31.94	26.95	-36.2	-36.8	23.3	0.00e+00	0	43	0	2114977792	43	4000
2026-01-30 10:49:17.10	31.66	26.88	-36.2	-36.8	23.3	0.00e+00	0	43	0	2120220672	43	3999
2026-01-30 10:49:18.11	31.37	26.81	-36.2	-36.9	23.3	0.00e+00	0	43	0	2125463552	43	4013
2026-01-30 10:49:19.11	31.08	26.75	-36.4	-37.0	23.1	0.00e+00	0	43	0	2131755008	43	4096
2026-01-30 10:49:20.11	30.80	26.68	-36.5	-37.2	23.0	0.00e+00	0	43	0	2136997888	43	4147
2026-01-30 10:49:21.12	30.52	26.60	-36.5	-37.2	22.9	0.00e+00	0	43	0	2143289344	43	4184
2026-01-30 10:49:22.12	30.24	26.53	-36.5	-37.2	22.9	0.00e+00	0	44	0	2148532224	43	4190
2026-01-30 10:49:23.12	29.96	26.46	-36.6	-37.3	22.9	0.00e+00	0	43	0	2153775104	43	4194
2026-01-30 10:49:24.13	29.68	26.39	-36.6	-37.3	22.9	0.00e+00	0	43	0	2160066560	43	4199
2026-01-30 10:49:25.12	29.41	26.32	-36.7	-37.4	22.8	0.00e+00	0	43	0	2165309440	43	4260
2026-01-30 10:49:26.13	29.13	26.24	-36.9	-37.6	22.7	0.00e+00	0	43	0	2170552320	44	4120
2026-01-30 10:49:27.13	28.86	26.17	-37.1	-37.8	22.6	0.00e+00	0	43	0	2176843776	44	4214
2026-01-30 10:49:28.13	28.58	26.10	-37.2	-37.9	22.5	0.00e+00	0	43	0	2182086656	44	4255
2026-01-30 10:49:29.13	28.31	26.02	-37.0	-37.7	22.5	0.00e+00	0	43	0	2187329536	44	4186
2026-01-30 10:49:30.13	28.04	25.95	-37.1	-37.8	22.4	0.00e+00	0	43	0	2193620992	44	4217
2026-01-30 10:49:31.13	27.78	25.87	-37.2	-37.9	22.3	0.00e+00	0	43	0	2198863872	45	4020
2026-01-30 10:49:32.13	27.51	25.79	-37.1	-37.8	22.3	0.00e+00	0	43	0	2205155328	45	3988
2026-01-30 10:49:33.13	27.24	25.72	-37.0	-37.6	22.5	0.00e+00	0	43	0	2210398208	45	3905
2026-01-30 10:49:34.13	26.98	25.64	-36.9	-37.6	22.5	0.00e+00	0	43	0	2215641088	45	3874
2026-01-30 10:49:35.14	26.71	25.56	-36.9	-37.6	22.6	0.00e+00	0	43	0	2221932544	45	3871
2026-01-30 10:49:36.14	26.45	25.49	-37.0	-37.7	22.6	0.00e+00	0	43	0	2227175424	45	3951
2026-01-30 10:49:37.14	26.19	25.41	-36.9	-37.6	22.7	0.00e+00	0	43	0	2232418304	45	3910
2026-01-30 10:49:38.14	25.93	25.33	-36.7	-37.4	22.9	0.00e+00	0	43	0	2238709760	45	3822
2026-01-30 10:49:39.14	25.67	25.25	-36.6	-37.3	22.9	0.00e+00	0	43	0	2243952640	45	3755
2026-01-30 10:49:40.14	25.42	25.17	-36.5	-37.2	23.0	0.00e+00	0	43	0	2249195520	45	3712
2026-01-30 10:49:41.14	25.16	25.09	-36.4	-37.0	23.1	0.00e+00	0	43	0	2255486976	44	3866
2026-01-30 10:49:42.15	24.91	25.01	-36.3	-36.9	23.2	0.00e+00	0	43	0	2260729856	44	3812
2026-01-30 10:49:43.15	24.65	24.93	-36.2	-36.9	23.3	0.00e+00	0	43	0	2267021312	44	3782
2026-01-30 10:49:44.15	24.40	24.85	-36.2	-36.9	23.3	0.00e+00	0	43	0	2272264192	44	3781
2026-01-30 10:49:45.16	24.15	24.76	-36.3	-37.0	23.2	0.00e+00	0	43	0	2278555648	44	3841
2026-01-30 10:49:46.16	23.90	24.68	-36.3	-37.0	23.2	0.00e+00	0	43	0	2283798528	44	3845
2026-01-30 10:49:47.16	23.65	24.60	-36.3	-37.1	23.1	0.00e+00	0	43	0	2289041408	44	3871
2026-01-30 10:49:48.16	23.41	24.52	-36.4	-37.1	23.0	0.00e+00	0	43	0	2295332864	44	3892
2026-01-30 10:49:49.16	23.16	24.44	-36.4	-37.1	23.0	0.00e+00	0	43	0	2300575744	44	3901
2026-01-30 10:49:50.16	22.92	24.35	-36.4	-37.1	23.1	0.00e+00	0	43	0	2305818624	44	3881
2026-01-30 10:49:51.17	22.68	24.27	-36.3	-37.0	23.2	0.00e+00	0	43	0	2312110080	44	3827
2026-01-30 10:49:52.17	22.44	24.19	-36.2	-36.9	23.2	0.00e+00	0	43	0	2317352960	44	3817
2026-01-30 10:49:53.17	22.20	24.10	-36.3	-37.0	23.1	0.00e+00	0	43	0	2322595840	44	3851
2026-01-30 10:49:54.17	21.96	24.02	-36.5	-37.2	23.0	0.00e+00	0	43	0	2328887296	44	3916
2026-01-30 10:49:55.18	21.72	23.93	-36.5	-37.2	22.9	0.00e+00	0	43	0	2334130176	44	3940
2026-01-30 10:49:56.18	21.48	23.85	-36.6	-37.3	22.8	0.00e+00	0	43	0	2340421632	44	4003
2026-01-30 10:49:57.18	21.25	23.76	-36.6	-37.3	22.9	0.00e+00	0	43	0	2345664512	44	3991
2026-01-30 10:49:58.18	21.02	23.68	-36.7	-37.4	22.8	0.00e+00	0	43	0	2350907392	44	4005
2026-01-30 10:49:59.19	20.78	23.59	-36.8	-37.5	22.7	0.00e+00	0	43	0	2357198848	44	4096
2026-01-30 10:50:00.19	20.55	23.51	-36.8	-37.5	22.7	0.00e+00	0	43	0	2362441728	44	4060
2026-01-30 10:50:01.18	20.33	23.42	-36.7	-37.4	22.8	0.00e+00	0	43	0	2367684608	44	4020
2026-01-30 10:50:02.18	20.10	23.34	-36.6	-37.3	22.9	0.00e+00	0	43	0	2373976064	44	3965
2026-01-30 10:50:03.19	19.87	23.25	-36.7	-37.4	22.8	0.00e+00	0	43	0	2379218944	44	4043
2026-01-30 10:50:04.18	19.65	23.16	-36.8	-37.5	22.7	0.00e+00	0	43	0	2384461824	44	4075
2026-01-30 10:50:05.19	19.42	23.08	-37.0	-37.7	22.6	0.00e+00	0	43	0	2390753280	44	4162
2026-01-30 10:50:06.19	19.20	22.99	-36.9	-37.7	22.6	0.00e+00	0	43	0	2395996160	44	4157
2026-01-30 10:50:07.18	18.98	22.90	-37.0	-37.7	22.5	0.00e+00	0	43	0	2402287616	44	4177
2026-01-30 10:50:08.19	18.75	22.82	-36.9	-37.7	22.6	0.00e+00	0	43	0	2407530496	44	4146
2026-01-30 10:50:09.18	18.54	22.73	-36.9	-37.6	22.6	0.00e+00	0	43	0	2412773376	44	4130
2026-01-30 10:50:10.19	18.32	22.64	-36.9	-37.6	22.6	0.00e+00	0	43	0	2419064832	44	4118
2026-01-30 10:50:11.19	18.10	22.55	-36.9	-37.7	22.6	0.00e+00	0	43	0	2424307712	44	4152
2026-01-30 10:50:12.19	17.89	22.47	-36.9	-37.6	22.6	0.00e+00	0	43	0	2429550592	44	4139
2026-01-30 10:50:13.19	17.67	22.38	-36.9	-37.6	22.6	0.00e+00	0	43	0	2435842048	44	4140
2026-01-30 10:50:14.19	17.46	22.29	-36.8	-37.6	22.7	0.00e+00	0	43	0	2441084928	44	4100
2026-01-30 10:50:15.19	17.25	22.20	-36.8	-37.5	22.7	0.00e+00	0	44	0	2446327808	44	4079
2026-01-30 10:50:16.20	17.03	22.11	-37.0	-37.7	22.3	0.00e+00	0	43	0	2452619264	44	4159
2026-01-30 10:50:17.20	16.83	22.03	-37.1	-37.8	22.5	0.00e+00	0	43	0	2457862144	44	4222
2026-01-30 10:50:18.20	16.62	21.94	-37.2	-37.9	22.4	0.00e+00	0	43	0	2464153600	45	4051
2026-01-30 10:50:19.20	16.41	21.85	-37.3	-38.0	22.3	0.00e+00	0	43	0	2469396480	45	4072
2026-01-30 10:50:20.21	16.20	21.76	-37.3	-38.0	22.3	0.00e+00	0	43	0	2475687936	45	4083
2026-01-30 10:50:21.21	16.00	21.67	-37.1	-37.8	22.5	0.00e+00	0	43	0	2480930816	45	4004
2026-01-30 10:50:22.21	15.80	21.58	-37.1	-37.8	22.6	3.09e-04	0	43	0	2486173696	45	3970
2026-01-30 10:50:23.21	15.59	21.49	-37.1	-37.9	22.5	0.00e+00	0	43	0	2492465152	45	4006
2026-01-30 10:50:24.21	15.39	21.40	-37.2	-37.9	22.5	0.00e+00	0	43	0	2497708032	45	4038
2026-01-30 10:50:25.21	15.19	21.32	-37.3	-38.0	22.4	3.33e-04	0	43	0	2502950912	45	4077
2026-01-30 10:50:26.22	14.99	21.23	-37.3	-38.1	22.3	0.00e+00	0	43	0	2509242368	45	4121
2026-01-30 10:50:27.22	14.79	21.14	-37.4	-38.1	22.3	0.00e+00	0	43	0	2514485248	45	4139
2026-01-30 10:50:28.22	14.60	21.05	-37.4	-38.2	22.3	0.00e+00	0	43	0	2519728128	45	4146
2026-01-30 10:50:29.22	14.40	20.96	-37.5	-38.3	22.2	0.00e+00	0	43	0	2526019584	45	4205
2026-01-30 10:50:30.22	14.21	20.87	-37.6	-38.3	22.1	0.00e+00	0	43	0	2531262464	45	4241
2026-01-30 10:50:31.23	14.01	20.78	-37.7	-38.5	22.1	0.00e+00	0	43	0	2537553920	46	4062
2026-01-30 10:50:32.23	13.82	20.69	-37.8	-38.6	22.0	0.00e+00	0	43	0	2542796800	46	4101
2026-01-30 10:50:33.23	13.63	20.60	-37.9	-38.6	21.9	0.00e+00	0	43	0	2548039680	46	4136
2026-01-30 10:50:34.23	13.44	20.51	-37.8	-38.6	21.9	0.00e+00	0	43	0	2554331136	46	4102
2026-01-30 10:50:35.23	13.25	20.42	-37.9	-38.6	21.8	0.00e+00	0	43	0	2559574016	46	4124
2026-01-30 10:50:36.24	13.07	20.33	-37.9	-38.7	21.8	0.00e+00	0	43	0	2564816896	46	4146
2026-01-30 10:50:37.24	12.88	20.24	-37.9	-38.6	21.8	0.00e+00	0	43	0	2571108352	46	4145
2026-01-30 10:50:38.25	12.69	20.15	-37.9	-38.7	21.8	0.00e+00	0	43	0	2576351232	46	4152
2026-01-30 10:50:39.25	12.51	20.06	-38.0	-38.7	21.7	0.00e+00	0	43	0	2581594112	46	4181
2026-01-30 10:50:40.25	12.33	19.98	-37.9	-38.7	21.8	0.00e+00	0	43	0	2587885568	46	4166
2026-01-30 10:50:41.25	12.14	19.89	-38.0	-38.8	21.7	0.00e+00	0	43	0	2593128448	46	4194
2026-01-30 10:50:42.25	11.96	19.80	-37.8	-38.6	21.8	0.00e+00	0	43	0	2599419904	46	4128
2026-01-30 10:50:43.25	11.78	19.71	-37.8	-38.6	21.8	0.00e+00	0	43	0	2604662784	46	4126
2026-01-30 10:50:44.26	11.60	19.62	-37.9	-38.7	21.8	0.00e+00	0	43	0	2610954240	46	4160
2026-01-30 10:50:45.26	11.43	19.53	-37.9	-38.7	21.7	3.44e-04	0	43	0	2616197120	46	4165
2026-01-30 10:50:46.26	11.25	19.44	-38.1	-38.8	21.6	0.00e+00	0	43	0	2621440000	46	4235
2026-01-30 10:50:47.26	11.08	19.35	-38.1	-38.9	21.6	0.00e+00	0	43	0	2627731456	46	4258
2026-01-30 10:50:48.26	10.90	19.26	-38.2	-39.1	21.3	0.00e+00	0	43	0	2632974336	47	4101
2026-01-30 10:50:49.26	10.73	19.17	-38.3	-39.1	21.4	0.00e+00	0	43	0	2638217216	47	4102
2026-01-30 10:50:50.26	10.56	19.08	-38.4	-39.2	21.3	0.00e+00	0	43	0	2644508672	47	4155
2026-01-30 10:50:51.26	10.38	19.00	-38.4	-39.2	21.3	0.00e+00	0	43	0	2649751552	47	4169
2026-01-30 10:50:52.26	10.21	18.91	-38.5	-39.3	21.3	0.00e+00	0	43	0	2654994432	47	4210
2026-01-30 10:50:53.26	10.04	18.82	-38.4	-39.2	21.3	0.00e+00	0	43	0	2661285888	47	4183
2026-01-30 10:50:54.27	9.87	18.73	-38.5	-39.4	21.2	0.00e+00	0	43	0	2666528768	47	4245
2026-01-30 10:50:55.27	9.71	18.64	-38.6	-39.4	21.1	0.00e+00	0	43	0	2672820224	47	4270
2026-01-30 10:50:56.27	9.54	18.55	-38.5	-39.3	21.2	0.00e+00	0	43	0	2678063104	47	4239
2026-01-30 10:50:57.27	9.38	18.46	-38.5	-39.3	21.2	1.90e-04	0	43	0	2683305984	47	4226
2026-01-30 10:50:58.27	9.21	18.37	-38.5	-39.3	21.2	0.00e+00	0	44	0	2689597440	47	4242
2026-01-30 10:50:59.27	9.05	18.29	-38.5	-39.3	21.2	0.00e+00	0	43	0	2694840320	47	4233
2026-01-30 10:51:00.28	8.88	18.20	-38.6	-39.5	21.1	1.17e-04	0	43	0	2700083200	47	4304
2026-01-30 10:51:01.28	8.72	18.11	-38.6	-39.4	21.1	0.00e+00	0	43	0	2706374656	47	4283
2026-01-30 10:51:02.28	8.56	18.02	-38.6	-39.5	21.1	0.00e+00	0	43	0	2711617536	47	4294
2026-01-30 10:51:03.28	8.40	17.93	-38.6	-39.5	21.0	0.00e+00	0	43	0	2716860416	47	4301
2026-01-30 10:51:04.28	8.25	17.84	-38.6	-39.5	21.0	0.00e+00	0	43	0	2723151872	47	4302
2026-01-30 10:51:05.29	8.09	17.76	-38.8	-39.6	21.1	0.00e+00	0	43	0	2728394752	48	4144
2026-01-30 10:51:06.29	7.93	17.67	-38.8	-39.6	21.1	0.00e+00	0	43	0	2734686208	48	4129
2026-01-30 10:51:07.29	7.77	17.58	-38.9	-39.7	21.1	0.00e+00	0	43	0	2739929088	48	4165
2026-01-30 10:51:08.29	7.62	17.49	-39.0	-39.8	21.0	0.00e+00	0	43	0	2745171968	48	4197
2026-01-30 10:51:09.29	7.47	17.41	-39.1	-39.9	20.9	0.00e+00	0	43	0	2751463424	48	4247
2026-01-30 10:51:10.29	7.31	17.32	-39.1	-39.9	20.8	0.00e+00	0	44	0	2756706304	48	4285
2026-01-30 10:51:11.30	7.16	17.23	-39.1	-39.9	20.8	0.00e+00	0	43	0	2761949184	48	4277
2026-01-30 10:51:12.30	7.01	17.14	-39.2	-40.0	20.8	1.06e-04	0	43	0	2768240640	48	4317
2026-01-30 10:51:13.30	6.86	17.06	-39.1	-39.9	20.8	0.00e+00	0	44	0	2773483520	49	4045
2026-01-30 10:51:14.29	6.71	16.97	-39.0	-39.8	20.9	0.00e+00	0	44	0	2778726400	49	3988
2026-01-30 10:51:15.30	6.56	16.88	-39.0	-39.8	20.9	0.00e+00	0	44	0	2785017856	49	3985
2026-01-30 10:51:16.29	6.41	16.80	-39.1	-39.9	20.9	0.00e+00	0	43	0	2790260736	49	4018
2026-01-30 10:51:17.29	6.27	16.71	-39.0	-39.8	20.9	0.00e+00	0	44	0	2796552192	49	3984
2026-01-30 10:51:18.30	6.12	16.62	-39.1	-39.9	20.9	0.00e+00	0	43	0	2801795072	49	4011
2026-01-30 10:51:19.30	5.97	16.54	-39.1	-40.0	20.8	0.00e+00	0	43	0	2807037952	49	4069
2026-01-30 10:51:20.30	5.83	16.45	-39.2	-40.1	20.7	0.00e+00	0	43	0	2813329408	49	4115
2026-01-30 10:51:21.30	5.69	16.36	-39.3	-40.2	20.6	0.00e+00	0	43	0	2818572288	49	4159
2026-01-30 10:51:22.30	5.54	16.28	-39.4	-40.3	20.5	0.00e+00	0	43	0	2824863744	49	4227
2026-01-30 10:51:23.31	5.40	16.19	-39.3	-40.2	20.6	0.00e+00	0	43	0	2830106624	49	4149
2026-01-30 10:51:24.31	5.26	16.10	-39.4	-40.3	20.5	0.00e+00	0	43	0	2835349504	49	4226
2026-01-30 10:51:25.31	5.12	16.02	-39.4	-40.3	20.5	0.00e+00	0	44	0	2841640960	49	4205
2026-01-30 10:51:26.31	4.98	15.93	-39.4	-40.3	20.5	0.00e+00	0	43	0	2846883840	49	4206
2026-01-30 10:51:27.32	4.84	15.85	-39.4	-40.2	20.6	0.00e+00	0	43	0	2852126720	49	4175
2026-01-30 10:51:28.32	4.70	15.76	-39.5	-40.3	20.5	0.00e+00	0	43	0	2858418176	49	4220
2026-01-30 10:51:29.32	4.57	15.68	-39.6	-40.5	20.4	0.00e+00	0	43	0	2863661056	49	4300
2026-01-30 10:51:30.32	4.43	15.59	-39.7	-40.7	20.2	0.00e+00	0	43	0	2869952512	50	4148
2026-01-30 10:51:31.32	4.30	15.51	-39.7	-40.6	20.2	0.00e+00	0	44	0	2875195392	50	4113
2026-01-30 10:51:32.32	4.16	15.42	-39.8	-40.7	20.2	0.00e+00	0	44	0	2880438272	50	4152
2026-01-30 10:51:33.32	4.03	15.34	-39.7	-40.6	20.3	0.00e+00	0	44	0	2886729728	50	4123
2026-01-30 10:51:34.33	3.89	15.25	-39.8	-40.7	20.2	0.00e+00	0	43	0	2891972608	50	4147
2026-01-30 10:51:35.33	3.76	15.17	-39.7	-40.6	20.1	0.00e+00	0	43	0	2897215488	50	4119
2026-01-30 10:51:36.33	3.63	15.08	-39.8	-40.6	20.2	0.00e+00	0	43	0	2903506944	50	4136
2026-01-30 10:51:37.34	3.50	15.00	-39.8	-40.6	20.2	0.00e+00	0	43	0	2908749824	50	4140
2026-01-30 10:51:38.34	3.37	14.92	-39.8	-40.6	20.2	0.00e+00	0	43	0	2913992704	50	4143
2026-01-30 10:51:39.34	3.24	14.83	-39.9	-40.7	20.2	0.00e+00	0	43	0	2920284160	50	4173
2026-01-30 10:51:40.34	3.11	14.75	-40.0	-40.8	20.1	0.00e+00	0	43	0	2925527040	50	4242
2026-01-30 10:51:41.34	2.99	14.66	-39.9	-40.8	20.1	0.00e+00	0	43	0	2931818496	50	4194
2026-01-30 10:51:42.35	2.86	14.58	-39.8	-40.7	20.1	0.00e+00	0	44	0	2937061376	50	4192
2026-01-30 10:51:43.35	2.73	14.50	-39.9	-40.8	20.1	0.00e+00	0	43	0	2942304256	50	4211
2026-01-30 10:51:44.35	2.61	14.41	-39.9	-40.8	20.1	2.35e-04	0	43	0	2948595712	50	4213
2026-01-30 10:51:45.36	2.48	14.33	-39.9	-40.8	20.0	0.00e+00	0	43	0	2953838592	50	4229
2026-01-30 10:51:46.36	2.36	14.25	-39.9	-40.7	20.1	0.00e+00	0	44	0	2960130048	50	4189
2026-01-30 10:51:47.36	2.23	14.17	-39.9	-40.8	20.1	9.84e-05	0	43	0	2965372928	50	4201
2026-01-30 10:51:48.35	2.11	14.08	-40.0	-40.8	20.0	0.00e+00	0	44	0	2970615808	50	4242
2026-01-30 10:51:49.35	1.99	14.00	-40.0	-40.8	20.0	0.00e+00	0	43	0	2976907264	50	4237
2026-01-30 10:51:50.35	1.87	13.92	-40.1	-40.9	20.0	0.00e+00	0	43	0	2982150144	50	4263
2026-01-30 10:51:51.35	1.75	13.84	-40.2	-41.1	19.8	1.10e-06	0	43	0	2987393024	51	4112
2026-01-30 10:51:52.35	1.63	13.76	-40.2	-41.1	19.8	0.00e+00	0	43	0	2993684480	51	4125
2026-01-30 10:51:53.36	1.51	13.67	-40.3	-41.2	19.7	0.00e+00	0	43	0	2998927360	51	4154
2026-01-30 10:51:54.36	1.39	13.59	-40.2	-41.1	19.8	0.00e+00	0	44	0	3005218816	51	4129
2026-01-30 10:51:55.36	1.27	13.51	-40.3	-41.2	19.7	0.00e+00	0	44	0	3010461696	51	4173
2026-01-30 10:51:56.36	1.16	13.43	-40.3	-41.3	19.7	0.00e+00	0	43	0	3015704576	51	4197
2026-01-30 10:51:57.36	1.04	13.35	-40.3	-41.3	19.6	0.00e+00	0	44	0	3021996032	51	4210
2026-01-30 10:51:58.37	0.92	13.27	-40.5	-41.4	19.5	0.00e+00	0	44	0	3027238912	51	4286
2026-01-30 10:51:59.37	0.81	13.18	-40.5	-41.5	19.5	0.00e+00	0	43	0	3032481792	51	4297
2026-01-30 10:52:00.37	0.69	13.10	-40.4	-41.3	19.5	0.00e+00	0	43	0	3038773248	52	3979
2026-01-30 10:52:01.38	0.58	13.02	-40.4	-41.3	8.2	0.00e+00	0	43	0	3044016128	53	3772
2026-01-30 10:52:02.38	0.46	12.94	-41.7	-42.7	8.1	0.00e+00	0	44	0	3050307584	53	4409
2026-01-30 10:52:03.37	0.35	12.86	-41.8	-42.9	8.1	0.00e+00	0	43	0	3055550464	54	4283
2026-01-30 10:52:04.37	0.24	12.78	-41.9	-43.0	8.1	0.00e+00	0	43	0	3060793344	54	4326
2026-01-30 10:52:05.37	0.13	12.70	-42.1	-43.3	8.1	0.00e+00	0	43	0	3067084800	54	4476
2026-01-30 10:52:06.37	0.02	12.62	-42.1	-43.4	8.2	0.00e+00	0	43	0	3072327680	54	4528
2026-01-30 10:52:07.38	359.91	12.54	-42.1	-43.4	8.1	1.10e-06	0	43	0	3077570560	54	4535
2026-01-30 10:52:08.38	359.80	12.46	-42.0	-43.2	8.1	0.00e+00	0	43	0	3083862016	54	4435
2026-01-30 10:52:09.38	359.69	12.38	-41.9	-43.1	8.1	0.00e+00	0	43	0	3089104896	54	4363
2026-01-30 10:52:10.38	359.58	12.31	-40.6	-41.6	19.3	3.71e-04	0	43	0	3094347776	52	4121
2026-01-30 10:52:11.39	359.47	12.23	-40.6	-41.6	19.3	0.00e+00	0	44	0	3100639232	52	4116
2026-01-30 10:52:12.39	359.37	12.15	-40.7	-41.7	19.2	0.00e+00	0	43	0	3105882112	52	4155
2026-01-30 10:52:13.39	359.26	12.07	-40.5	-41.5	19.4	0.00e+00	0	43	0	3112173568	52	4068
2026-01-30 10:52:14.39	359.15	11.99	-40.6	-41.6	19.3	0.00e+00	0	43	0	3117416448	52	4115
2026-01-30 10:52:15.40	359.05	11.91	-40.5	-41.4	19.5	0.00e+00	0	43	0	3122659328	52	4033
2026-01-30 10:52:16.40	358.94	11.83	-40.5	-41.4	19.4	0.00e+00	0	43	0	3128950784	52	4051
2026-01-30 10:52:17.40	358.84	11.75	-40.3	-41.2	19.7	0.00e+00	0	43	0	3134193664	52	3941
2026-01-30 10:52:18.40	358.74	11.68	-40.2	-41.2	19.7	0.00e+00	0	43	0	3140485120	52	3925
2026-01-30 10:52:19.40	358.63	11.60	-40.3	-41.3	19.7	1.51e-04	0	43	0	3145728000	51	4196
2026-01-30 10:52:20.41	358.53	11.52	-40.3	-41.3	19.6	0.00e+00	0	43	0	3150970880	51	4228
2026-01-30 10:52:21.41	358.43	11.44	-40.3	-41.4	19.5	0.00e+00	0	43	0	3157262336	51	4251
2026-01-30 10:52:22.41	358.33	11.37	-40.3	-41.4	19.5	3.08e-05	0	43	0	3162505216	51	4254
2026-01-30 10:52:23.41	358.23	11.29	-40.2	-41.3	19.6	0.00e+00	0	43	0	3167748096	51	4204
2026-01-30 10:52:24.41	358.13	11.21	-40.2	-41.2	19.6	0.00e+00	0	43	0	3174039552	51	4191
2026-01-30 10:52:25.41	358.03	11.13	-40.2	-41.3	19.6	0.00e+00	0	43	0	3179282432	51	4201
2026-01-30 10:52:26.41	357.93	11.06	-40.2	-41.3	19.5	0.00e+00	0	43	0	3185573888	51	4228
2026-01-30 10:52:27.41	357.83	10.98	-40.2	-41.3	19.5	0.00e+00	0	43	0	3190816768	51	4204
2026-01-30 10:52:28.41	357.73	10.91	-40.3	-41.3	19.4	0.00e+00	0	43	0	3196059648	51	4236
2026-01-30 10:52:29.41	357.63	10.83	-40.3	-41.3	19.4	0.00e+00	0	44	0	3202351104	51	4236
2026-01-30 10:52:30.42	357.54	10.75	-40.2	-41.2	19.5	0.00e+00	0	43	0	3207593984	51	4186
2026-01-30 10:52:31.42	357.44	10.68	-40.1	-41.2	19.6	0.00e+00	0	43	0	3212836864	51	4149
2026-01-30 10:52:32.42	357.34	10.60	-40.1	-41.1	19.6	0.00e+00	0	43	0	3219128320	51	4140
2026-01-30 10:52:33.42	357.25	10.53	-40.1	-41.2	19.5	0.00e+00	0	43	0	3224371200	51	4184
2026-01-30 10:52:34.42	357.15	10.45	-40.2	-41.3	19.4	0.00e+00	0	43	0	3229614080	51	4241
2026-01-30 10:52:35.42	357.06	10.37	-40.3	-41.4	19.2	0.00e+00	0	43	0	3235905536	51	4288
2026-01-30 10:52:36.42	356.96	10.30	-40.1	-41.3	19.3	0.00e+00	0	43	0	3241148416	51	4240
2026-01-30 10:52:37.43	356.87	10.22	-40.0	-41.3	19.3	0.00e+00	0	43	0	3247439872	51	4237
2026-01-30 10:52:38.43	356.78	10.15	-40.1	-41.5	19.2	0.00e+00	0	43	0	3252682752	51	4318
2026-01-30 10:52:39.43	356.68	10.07	-40.0	-41.4	19.3	0.00e+00	0	43	0	3257925632	51	4259
2026-01-30 10:52:40.43	356.59	10.00	-40.0	-41.4	19.3	0.00e+00	0	43	0	3264217088	51	4249
2026-01-30 10:52:41.43	356.50	9.93	-40.1	-41.5	19.2	0.00e+00	0	43	0	3269459968	51	4295
2026-01-30 10:52:42.43	356.41	9.85	-40.0	-41.4	19.0	9.04e-05	0	44	0	3274702848	51	4277
2026-01-30 10:52:43.43	356.32	9.78	-40.0	-41.4	19.2	0.00e+00	0	43	0	3280994304	51	4277
2026-01-30 10:52:44.44	356.23	9.70	-40.1	-41.5	19.1	0.00e+00	0	43	0	3286237184	51	4338
2026-01-30 10:52:45.44	356.14	9.63	-40.0	-41.5	19.1	1.64e-04	0	43	0	3291480064	51	4305
2026-01-30 10:52:46.44	356.05	9.56	-39.9	-41.4	19.1	0.00e+00	0	43	0	3297771520	51	4280
2026-01-30 10:52:47.44	355.96	9.48	-39.9	-41.4	19.2	0.00e+00	0	43	0	3303014400	51	4259
2026-01-30 10:52:48.45	355.87	9.41	-39.9	-41.4	19.1	0.00e+00	0	43	0	3309305856	51	4269
2026-01-30 10:52:49.45	355.79	9.33	-39.9	-41.4	19.1	0.00e+00	0	43	0	3314548736	51	4255
2026-01-30 10:52:50.45	355.70	9.26	-40.0	-41.5	19.0	0.00e+00	0	43	0	3320840192	51	4323
2026-01-30 10:52:51.46	355.61	9.19	-39.9	-41.4	19.1	0.00e+00	0	43	0	3326083072	51	4264
2026-01-30 10:52:52.46	355.52	9.12	-40.0	-41.4	19.1	0.00e+00	0	43	0	3331325952	51	4256
2026-01-30 10:52:53.46	355.44	9.04	-40.2	-41.5	19.0	0.00e+00	0	43	0	3337617408	51	4337
2026-01-30 10:52:54.46	355.35	8.97	-40.1	-41.6	18.9	6.32e-04	0	43	0	3342860288	51	4375
2026-01-30 10:52:55.46	355.27	8.90	-47.3	-61.6	3.8	7.00e-01	0	44	104	3346006016	65	19545
2026-01-30 10:52:56.47	355.18	8.83	-50.1	-61.8	3.8	8.46e-01	0	43	104	3346006016	71	14197
2026-01-30 10:52:57.47	355.10	8.75	-50.0	-62.2	3.8	8.47e-01	0	43	104	3346006016	70	15688
2026-01-30 10:52:58.47	355.02	8.68	-50.3	-62.3	3.8	8.47e-01	0	44	104	3346006016	72	14076
2026-01-30 10:52:59.47	354.93	8.61	-50.2	-62.3	3.8	8.48e-01	0	43	104	3346006016	72	14051
2026-01-30 10:53:00.47	354.85	8.54	-50.4	-62.3	3.8	8.47e-01	0	43	104	3346006016	71	15014
2026-01-30 10:53:01.48	354.77	8.47	-50.4	-62.4	3.8	8.47e-01	0	43	104	3346006016	72	14242
2026-01-30 10:53:02.48	354.68	8.40	-50.0	-62.3	3.8	8.46e-01	0	44	104	3346006016	72	14198
2026-01-30 10:53:03.48	354.60	8.32	-50.9	-62.3	3.8	8.47e-01	0	43	104	3346006016	72	14182
2026-01-30 10:53:04.48	354.52	8.25	-50.4	-62.4	3.8	8.47e-01	0	44	104	3346006016	71	15063
2026-01-30 10:53:05.49	354.44	8.18	-50.2	-62.4	3.8	8.47e-01	0	44	104	3346006016	71	15109
2026-01-30 10:53:06.49	354.36	8.11	-50.5	-62.4	3.8	8.48e-01	0	43	104	3346006016	71	15122
2026-01-30 10:53:07.49	354.28	8.04	-50.7	-62.3	3.8	8.47e-01	0	44	104	3346006016	72	14183
2026-01-30 10:53:08.49	354.20	7.97	-50.5	-62.3	3.8	8.46e-01	0	43	104	3346006016	72	14127
2026-01-30 10:53:09.50	354.12	7.90	-51.0	-62.3	3.8	8.47e-01	0	43	104	3346006016	72	14080
2026-01-30 10:53:10.50	354.04	7.83	-50.9	-62.2	3.8	8.48e-01	0	44	104	3346006016	72	13955
2026-01-30 10:53:11.50	353.96	7.76	-50.8	-62.2	3.8	8.47e-01	0	44	104	3346006016	72	13910
2026-01-30 10:53:12.50	353.89	7.69	-50.8	-62.0	3.8	8.46e-01	0	43	104	3346006016	72	13708
2026-01-30 10:53:13.50	353.81	7.62	-50.9	-62.0	3.8	8.47e-01	0	44	104	3346006016	72	13679
2026-01-30 10:53:14.51	353.73	7.55	-50.6	-61.7	3.8	8.47e-01	0	44	104	3346006016	72	13236
2026-01-30 10:53:15.51	353.65	7.48	-50.5	-61.7	3.8	8.47e-01	0	44	104	3346006016	72	13191
2026-01-30 10:53:16.51	353.58	7.41	-50.4	-61.7	3.8	8.46e-01	0	44	104	3346006016	72	13199
2026-01-30 10:53:17.51	353.50	7.34	-50.4	-61.7	3.8	8.47e-01	0	44	104	3346006016	72	13157
2026-01-30 10:53:18.52	353.43	7.27	-50.5	-61.7	3.8	8.47e-01	0	44	104	3346006016	71	13992
2026-01-30 10:53:19.52	353.35	7.20	-50.4	-61.7	3.8	8.48e-01	0	43	104	3346006016	71	13914
2026-01-30 10:53:20.52	353.28	7.13	-50.4	-61.7	3.8	8.46e-01	0	44	104	3346006016	71	13973
2026-01-30 10:53:21.53	353.20	7.07	-50.4	-61.7	3.8	8.47e-01	0	43	104	3346006016	71	13942
2026-01-30 10:53:22.53	353.13	7.00	-50.4	-61.7	3.8	8.47e-01	0	43	104	3346006016	71	13942
2026-01-30 10:53:23.53	353.05	6.93	-50.4	-61.6	3.8	8.48e-01	0	44	104	3346006016	71	13830
2026-01-30 10:53:24.53	352.98	6.86	-50.4	-61.7	3.8	8.48e-01	0	44	104	3346006016	71	13889
2026-01-30 10:53:25.53	352.91	6.79	-50.4	-61.7	3.8	8.46e-01	0	43	104	3346006016	71	13891
2026-01-30 10:53:26.54	352.83	6.72	-50.4	-61.6	3.8	8.47e-01	0	44	104	3346006016	71	13878
2026-01-30 10:53:27.54	352.76	6.66	-50.4	-61.6	3.8	8.46e-01	0	44	104	3346006016	71	13873
2026-01-30 10:53:28.54	352.69	6.59	-50.4	-61.7	3.8	8.48e-01	0	44	104	3346006016	71	13895
2026-01-30 10:53:29.54	352.62	6.52	-50.4	-61.6	3.8	8.47e-01	0	44	104	3346006016	71	13884
2026-01-30 10:53:30.55	352.55	6.45	-50.4	-61.6	3.8	8.48e-01	0	44	104	3346006016	71	13875
2026-01-30 10:53:31.55	352.48	6.39	-50.4	-61.7	3.8	8.46e-01	0	43	104	3346006016	71	13915
2026-01-30 10:53:32.55	352.41	6.32	-49.4	-61.6	3.8	8.47e-01	0	44	104	3346006016	71	13830
2026-01-30 10:53:33.55	352.34	6.25	-50.4	-61.6	3.8	8.49e-01	0	44	104	3346006016	71	13859
2026-01-30 10:53:34.56	352.26	6.18	-50.4	-61.7	3.8	8.46e-01	0	44	104	3346006016	71	13891
2026-01-30 10:53:35.56	352.20	6.12	-50.4	-61.6	3.8	8.48e-01	0	44	104	3346006016	71	13834
2026-01-30 10:53:36.56	352.13	6.05	-50.4	-61.6	3.8	8.48e-01	0	43	104	3346006016	71	13795
2026-01-30 10:53:37.57	352.06	5.98	-50.4	-61.6	3.8	8.45e-01	0	44	104	3346006016	71	13852
2026-01-30 10:53:38.57	351.99	5.92	-50.3	-61.6	3.8	8.48e-01	0	44	104	3346006016	71	13865
2026-01-30 10:53:39.57	351.92	5.85	-50.4	-61.6	3.8	8.47e-01	0	44	104	3346006016	71	13850
2026-01-30 10:53:40.57	351.85	5.79	-50.4	-61.7	3.8	8.47e-01	0	44	104	3346006016	71	13886
2026-01-30 10:53:41.58	351.78	5.72	-50.4	-61.6	3.8	8.48e-01	0	44	104	3346006016	71	13858
2026-01-30 10:53:42.58	351.72	5.65	-50.4	-61.6	3.8	8.46e-01	0	44	104	3346006016	71	13830
2026-01-30 10:53:43.58	351.65	5.59	-50.4	-61.6	3.8	8.47e-01	0	43	104	3346006016	71	13844
2026-01-30 10:53:44.58	351.58	5.52	-50.4	-61.6	3.8	8.48e-01	0	44	104	3346006016	71	13837
2026-01-30 10:53:45.59	351.52	5.46	-50.4	-61.6	3.8	8.46e-01	0	44	104	3346006016	71	13851
