passes_logs/2026/01/30/T1/T1__20260130_145200_FENGYUN_3G_rec.log

#Pass ID: 20260130_145200_FENGYUN 3G
#Satellite: FENGYUN 3G
#Configuration: FENGYUN 3G
#almurnet v.1.7.20251203
#Start time: 2026-01-30 14:52:00

#Version: 2.0.20230620
#Station: T1
#Location: 37.570604 lon 55.790049 lat
#TLE: 1 56232U 23055A   26027.33093889  .00044881  00000+0  67100-3 0  9994
#TLE: 2 56232  49.9947 352.2708 0004101  93.7831 266.3606 15.54500775158110

#Time	Az	El	Level	Level2	SNR	BER	BlckErr	Temp	State	Recorded	gain1	gain2
2026-01-30 14:52:00.21	203.56	4.99	-49.3	-67.6	3.8	8.46e-01	0	39	0	0	70	29243
2026-01-30 14:52:01.21	203.41	5.05	-49.6	-67.7	3.8	8.39e-01	0	39	104	0	70	29425
2026-01-30 14:52:02.21	203.26	5.11	-49.8	-67.7	3.8	8.47e-01	0	39	104	0	70	29442
2026-01-30 14:52:03.22	203.11	5.18	-49.7	-67.7	3.8	8.47e-01	0	39	104	0	70	29512
2026-01-30 14:52:04.22	202.96	5.24	-49.7	-67.7	3.8	8.47e-01	0	39	104	0	70	29531
2026-01-30 14:52:05.22	202.80	5.30	-49.8	-67.7	3.8	8.47e-01	0	39	104	0	70	29559
2026-01-30 14:52:06.23	202.65	5.37	-49.7	-67.7	3.8	8.46e-01	0	39	104	0	70	29414
2026-01-30 14:52:07.23	202.49	5.43	-49.7	-67.7	3.8	8.46e-01	0	39	104	0	70	29434
2026-01-30 14:52:08.23	202.34	5.49	-49.7	-67.6	3.8	8.46e-01	0	39	104	0	70	29308
2026-01-30 14:52:09.23	202.18	5.56	-49.8	-67.9	3.8	8.48e-01	0	39	104	0	70	30196
2026-01-30 14:52:10.23	202.02	5.62	-49.6	-67.6	3.8	8.48e-01	0	39	104	0	70	29326
2026-01-30 14:52:11.24	201.86	5.68	-49.7	-67.6	3.8	8.46e-01	0	39	104	0	70	29122
2026-01-30 14:52:12.24	201.70	5.75	-49.5	-67.5	3.8	8.47e-01	0	39	104	0	70	29009
2026-01-30 14:52:13.24	201.54	5.81	-49.5	-67.5	3.8	8.47e-01	0	39	104	0	70	28849
2026-01-30 14:52:14.25	201.38	5.88	-49.3	-67.4	3.8	8.48e-01	0	39	104	0	70	28628
2026-01-30 14:52:15.25	201.22	5.94	-49.2	-67.4	3.8	8.47e-01	0	40	104	0	70	28472
2026-01-30 14:52:16.25	201.06	6.00	-49.2	-67.3	3.8	8.47e-01	0	40	104	0	70	28295
2026-01-30 14:52:17.26	200.89	6.07	-49.4	-67.3	3.8	8.47e-01	0	40	104	0	70	28327
2026-01-30 14:52:18.26	200.72	6.13	-49.3	-67.3	3.8	8.46e-01	0	40	104	0	70	28160
2026-01-30 14:52:19.27	200.56	6.20	-48.8	-67.2	3.8	8.45e-01	0	40	104	0	69	29667
2026-01-30 14:52:20.27	200.39	6.26	-48.9	-67.2	3.8	8.45e-01	0	40	104	0	68	31364
2026-01-30 14:52:21.28	200.22	6.33	-48.1	-67.2	3.8	8.48e-01	0	40	104	0	68	31168
2026-01-30 14:52:22.28	200.05	6.39	-48.3	-67.1	3.8	8.47e-01	0	40	104	0	68	31035
2026-01-30 14:52:23.28	199.88	6.46	-48.2	-67.1	3.8	8.47e-01	0	40	104	0	68	30824
2026-01-30 14:52:24.28	199.71	6.52	-47.6	-66.8	3.8	8.47e-01	0	40	104	0	66	33552
2026-01-30 14:52:25.29	199.53	6.59	-47.6	-66.8	3.8	8.46e-01	0	40	104	0	66	33570
2026-01-30 14:52:26.29	199.36	6.65	-47.6	-66.8	3.8	8.46e-01	0	40	104	0	66	33601
2026-01-30 14:52:27.29	199.18	6.71	-47.6	-66.8	3.8	8.47e-01	0	40	104	0	66	33528
2026-01-30 14:52:28.30	199.01	6.78	-47.6	-66.8	3.8	8.47e-01	0	40	104	0	66	33489
2026-01-30 14:52:29.30	198.83	6.85	-47.6	-66.8	3.8	8.47e-01	0	40	104	0	66	33504
2026-01-30 14:52:30.31	198.65	6.91	-47.5	-66.8	3.8	8.47e-01	0	40	104	0	66	33432
2026-01-30 14:52:31.31	198.47	6.98	-47.5	-66.8	3.8	8.47e-01	0	40	104	0	66	33485
2026-01-30 14:52:32.31	198.29	7.04	-47.5	-66.8	3.8	8.48e-01	0	40	104	0	66	33411
2026-01-30 14:52:33.32	198.10	7.11	-47.3	-66.8	3.8	8.48e-01	0	40	104	0	66	33359
2026-01-30 14:52:34.32	197.92	7.17	-47.5	-66.8	3.8	8.46e-01	0	40	104	0	66	33374
2026-01-30 14:52:35.32	197.74	7.24	-47.6	-66.8	3.8	8.47e-01	0	40	104	0	66	33476
2026-01-30 14:52:36.33	197.55	7.30	-47.5	-66.8	3.8	8.47e-01	0	40	104	0	66	33419
2026-01-30 14:52:37.33	197.36	7.37	-47.6	-66.8	3.8	8.47e-01	0	40	104	0	66	33474
2026-01-30 14:52:38.33	197.18	7.43	-47.5	-66.8	3.8	8.48e-01	0	40	104	0	66	33492
2026-01-30 14:52:39.33	196.99	7.50	-47.6	-66.8	3.8	8.48e-01	0	40	104	0	66	33422
2026-01-30 14:52:40.33	196.80	7.56	-47.5	-66.8	3.8	8.48e-01	0	40	104	0	66	33345
2026-01-30 14:52:41.34	196.60	7.63	-47.6	-66.8	3.8	8.47e-01	0	40	104	0	66	33399
2026-01-30 14:52:42.34	196.41	7.70	-47.6	-66.8	3.8	8.47e-01	0	40	104	0	66	33402
2026-01-30 14:52:43.34	196.22	7.76	-47.6	-66.8	3.8	8.46e-01	0	40	104	0	66	33391
2026-01-30 14:52:44.34	196.02	7.83	-47.6	-66.8	3.8	8.48e-01	0	41	104	0	66	33371
2026-01-30 14:52:45.34	195.83	7.89	-47.6	-66.8	3.8	8.47e-01	0	41	104	0	66	33390
2026-01-30 14:52:46.34	195.63	7.96	-47.6	-66.8	3.8	8.47e-01	0	40	104	0	66	33371
2026-01-30 14:52:47.35	195.43	8.02	-47.5	-66.8	3.8	8.46e-01	0	40	104	0	66	33344
2026-01-30 14:52:48.35	195.23	8.09	-47.3	-66.8	3.8	8.47e-01	0	40	104	0	66	33445
2026-01-30 14:52:49.35	195.03	8.15	-47.5	-66.8	3.8	8.47e-01	0	40	104	0	66	33389
2026-01-30 14:52:50.35	194.83	8.22	-47.5	-66.8	3.8	8.46e-01	0	41	104	0	66	33337
2026-01-30 14:52:51.36	194.62	8.29	-47.6	-66.8	3.8	8.47e-01	0	40	104	0	66	33343
2026-01-30 14:52:52.36	194.42	8.35	-47.5	-66.7	3.8	8.47e-01	0	40	104	0	66	33288
2026-01-30 14:52:53.36	194.21	8.42	-47.5	-66.8	3.8	8.46e-01	0	41	104	0	66	33373
2026-01-30 14:52:54.37	194.00	8.48	-47.5	-66.7	3.8	8.47e-01	0	41	104	0	66	33232
2026-01-30 14:52:55.37	193.79	8.55	-47.5	-66.7	3.8	8.47e-01	0	41	104	0	66	33285
2026-01-30 14:52:56.37	193.58	8.61	-47.5	-66.7	3.8	8.47e-01	0	41	104	0	66	33238
2026-01-30 14:52:57.37	193.37	8.68	-47.5	-66.8	3.8	8.47e-01	0	41	104	0	66	33330
2026-01-30 14:52:58.37	193.16	8.74	-47.5	-66.7	3.8	8.47e-01	0	41	104	0	66	33205
2026-01-30 14:52:59.37	192.95	8.81	-47.5	-66.7	3.8	8.46e-01	0	41	104	0	66	33276
2026-01-30 14:53:00.38	192.73	8.88	-47.5	-66.7	3.8	8.47e-01	0	41	104	0	66	33277
2026-01-30 14:53:01.38	192.51	8.94	-47.5	-66.7	3.8	8.46e-01	0	41	104	0	66	33288
2026-01-30 14:53:02.38	192.30	9.01	-47.5	-66.7	3.8	8.46e-01	0	41	104	0	66	33263
2026-01-30 14:53:03.38	192.08	9.07	-47.6	-66.8	3.8	8.47e-01	0	41	104	0	66	33415
2026-01-30 14:53:04.38	191.86	9.14	-47.6	-66.8	3.8	8.47e-01	0	41	104	0	66	33566
2026-01-30 14:53:05.38	191.63	9.20	-47.6	-66.8	3.8	8.47e-01	0	41	104	0	66	33554
2026-01-30 14:53:06.39	191.41	9.27	-47.6	-66.8	3.8	8.47e-01	0	41	104	0	66	33424
2026-01-30 14:53:07.39	191.18	9.33	-47.6	-66.8	3.8	8.46e-01	0	41	104	0	66	33525
2026-01-30 14:53:08.39	190.96	9.40	-47.5	-66.8	3.8	8.46e-01	0	41	104	0	66	33494
2026-01-30 14:53:09.39	190.73	9.46	-47.6	-66.8	3.8	8.46e-01	0	41	104	0	66	33558
2026-01-30 14:53:10.39	190.50	9.53	-47.7	-66.8	3.8	8.47e-01	0	41	104	0	66	33439
2026-01-30 14:53:11.39	190.27	9.59	-47.9	-66.8	3.8	8.47e-01	0	41	104	0	66	33638
2026-01-30 14:53:12.39	190.04	9.66	-47.8	-66.8	3.8	8.47e-01	0	41	104	0	66	33580
2026-01-30 14:53:13.39	189.81	9.72	-47.9	-66.9	3.8	8.47e-01	0	41	104	0	66	33796
2026-01-30 14:53:14.39	189.57	9.79	-47.6	-66.8	3.8	8.47e-01	0	41	104	0	66	33507
2026-01-30 14:53:15.39	189.34	9.85	-47.6	-66.9	3.8	8.46e-01	0	41	104	0	66	33703
2026-01-30 14:53:16.39	189.10	9.91	-47.7	-66.8	3.8	8.47e-01	0	41	104	0	66	33666
2026-01-30 14:53:17.39	188.86	9.98	-47.6	-66.9	3.8	8.47e-01	0	41	104	0	66	33727
2026-01-30 14:53:18.40	188.62	10.04	-47.6	-66.8	3.8	8.46e-01	0	41	104	0	66	33586
2026-01-30 14:53:19.40	188.38	10.11	-47.7	-66.8	3.8	8.47e-01	0	41	104	0	66	33588
2026-01-30 14:53:20.40	188.14	10.17	-47.6	-66.9	3.8	8.46e-01	0	41	104	0	66	33770
2026-01-30 14:53:21.40	187.89	10.23	-47.9	-66.9	3.8	8.46e-01	0	41	104	0	66	33729
2026-01-30 14:53:22.40	187.65	10.30	-47.9	-66.9	3.8	8.47e-01	0	41	104	0	66	33730
2026-01-30 14:53:23.41	187.40	10.36	-48.0	-66.9	3.8	8.48e-01	0	41	104	0	66	33721
2026-01-30 14:53:24.41	187.15	10.42	-48.0	-66.8	3.8	8.48e-01	0	41	104	0	66	33669
2026-01-30 14:53:25.41	186.90	10.49	-48.1	-66.9	3.8	8.47e-01	0	41	104	0	66	33798
2026-01-30 14:53:26.41	186.65	10.55	-48.0	-66.8	3.8	8.47e-01	0	41	104	0	66	33604
2026-01-30 14:53:27.41	186.39	10.61	-48.0	-66.9	3.8	8.47e-01	0	41	104	0	66	33746
2026-01-30 14:53:28.41	186.14	10.67	-48.1	-66.9	3.8	8.46e-01	0	41	104	0	66	33770
2026-01-30 14:53:29.41	185.88	10.74	-48.0	-66.9	3.8	8.46e-01	0	41	104	0	66	33812
2026-01-30 14:53:30.41	185.63	10.80	-47.7	-66.9	3.8	8.46e-01	0	41	104	0	66	33713
2026-01-30 14:53:31.41	185.37	10.86	-47.8	-66.9	3.8	8.46e-01	0	41	104	0	66	33890
2026-01-30 14:53:32.42	185.11	10.92	-48.0	-66.9	3.8	8.48e-01	0	41	104	0	66	33779
2026-01-30 14:53:33.42	184.84	10.98	-47.8	-66.9	3.8	8.47e-01	0	41	104	0	66	33924
2026-01-30 14:53:34.42	184.58	11.05	-47.9	-66.9	3.8	8.47e-01	0	41	104	0	66	33718
2026-01-30 14:53:35.42	184.32	11.11	-47.9	-66.9	3.8	8.46e-01	0	41	104	0	66	33929
2026-01-30 14:53:36.42	184.05	11.17	-47.9	-66.9	3.8	8.48e-01	0	41	104	0	66	33924
2026-01-30 14:53:37.42	183.78	11.23	-48.0	-66.9	3.8	8.48e-01	0	41	104	0	66	33962
2026-01-30 14:53:38.42	183.51	11.29	-48.4	-66.9	3.8	8.48e-01	0	41	104	0	67	31886
2026-01-30 14:53:39.43	183.24	11.35	-48.3	-66.9	3.8	8.48e-01	0	41	104	0	67	32011
2026-01-30 14:53:40.43	182.97	11.41	-48.1	-66.9	3.8	8.48e-01	0	41	104	0	67	32050
2026-01-30 14:53:41.43	182.69	11.47	-48.5	-66.9	3.8	8.47e-01	0	41	104	0	67	32107
2026-01-30 14:53:42.43	182.42	11.53	-48.5	-66.9	3.8	8.47e-01	0	41	104	0	67	31926
2026-01-30 14:53:43.43	182.14	11.59	-48.6	-66.9	3.8	8.47e-01	0	41	104	0	67	31977
2026-01-30 14:53:44.43	181.87	11.64	-48.5	-66.9	3.8	8.48e-01	0	41	104	0	67	32014
2026-01-30 14:53:45.43	181.59	11.70	-48.6	-66.9	3.8	8.48e-01	0	41	104	0	67	32014
2026-01-30 14:53:46.43	181.31	11.76	-48.6	-66.9	3.8	8.48e-01	0	41	104	0	67	31968
2026-01-30 14:53:47.44	181.02	11.82	-48.9	-67.1	3.8	8.46e-01	0	41	104	0	68	30917
2026-01-30 14:53:48.44	180.74	11.88	-48.8	-67.1	3.8	8.47e-01	0	41	104	0	68	30899
2026-01-30 14:53:49.44	180.45	11.93	-48.9	-67.1	3.8	8.47e-01	0	41	104	0	68	30995
2026-01-30 14:53:50.44	180.17	11.99	-48.8	-67.1	3.8	8.47e-01	0	41	104	0	68	30825
2026-01-30 14:53:51.45	179.87	12.05	-49.0	-67.1	3.8	8.47e-01	0	41	104	0	68	31026
2026-01-30 14:53:52.45	179.58	12.10	-49.0	-67.1	3.8	8.46e-01	0	41	104	0	68	30862
2026-01-30 14:53:53.45	179.29	12.16	-49.0	-67.1	3.8	8.46e-01	0	41	104	0	68	30897
2026-01-30 14:53:54.45	179.00	12.21	-48.8	-67.1	3.8	8.46e-01	0	41	104	0	68	31023
2026-01-30 14:53:55.45	178.71	12.27	-48.9	-67.1	3.8	8.46e-01	0	41	104	0	68	31072
2026-01-30 14:53:56.45	178.41	12.32	-49.0	-67.2	3.8	8.46e-01	0	42	104	0	68	31119
2026-01-30 14:53:57.45	178.12	12.37	-48.9	-67.1	3.8	8.48e-01	0	42	104	0	68	31035
2026-01-30 14:53:58.45	177.82	12.43	-48.1	-67.0	3.8	8.46e-01	0	41	104	0	67	32284
2026-01-30 14:53:59.46	177.51	12.48	-48.6	-67.0	3.8	8.46e-01	0	41	104	0	67	32376
2026-01-30 14:54:00.46	177.21	12.53	-48.9	-67.2	3.8	8.47e-01	0	41	104	0	68	31389
2026-01-30 14:54:01.46	176.91	12.59	-48.8	-67.1	3.8	8.46e-01	0	41	104	0	68	31025
2026-01-30 14:54:02.46	176.61	12.64	-47.5	-67.0	3.8	8.46e-01	0	42	104	0	66	34194
2026-01-30 14:54:03.46	176.30	12.69	-48.3	-67.0	3.8	8.47e-01	0	42	104	0	67	32422
2026-01-30 14:54:04.46	176.00	12.74	-48.4	-67.0	3.8	8.46e-01	0	41	104	0	67	32242
2026-01-30 14:54:05.46	175.69	12.79	-48.4	-67.2	3.8	8.48e-01	0	41	104	0	68	31192
2026-01-30 14:54:06.46	175.38	12.84	-47.2	-67.0	3.8	8.48e-01	0	41	104	0	65	36226
2026-01-30 14:54:07.47	175.06	12.89	-48.1	-67.0	3.8	8.46e-01	0	42	104	0	66	34315
2026-01-30 14:54:08.47	174.75	12.94	-48.4	-67.0	3.8	8.47e-01	0	41	104	0	67	32394
2026-01-30 14:54:09.47	174.44	12.99	-48.3	-67.0	3.8	8.47e-01	0	41	104	0	67	32349
2026-01-30 14:54:10.48	174.12	13.03	-47.3	-67.0	3.8	8.47e-01	0	41	104	0	65	36229
2026-01-30 14:54:11.48	173.81	13.08	-48.2	-67.0	3.8	8.46e-01	0	41	104	0	67	32364
2026-01-30 14:54:12.48	173.49	13.13	-48.5	-67.0	3.8	8.46e-01	0	42	104	0	67	32305
2026-01-30 14:54:13.48	173.17	13.17	-48.4	-67.0	3.8	8.46e-01	0	42	104	0	67	32232
2026-01-30 14:54:14.48	172.85	13.22	-48.0	-67.0	3.8	8.48e-01	0	42	104	0	66	34243
2026-01-30 14:54:15.48	172.53	13.26	-48.4	-67.0	3.8	8.48e-01	0	42	104	0	67	32304
2026-01-30 14:54:16.48	172.21	13.31	-48.6	-67.0	3.8	8.48e-01	0	41	104	0	67	32280
2026-01-30 14:54:17.48	171.88	13.35	-48.7	-67.2	3.8	8.48e-01	0	42	104	0	68	31231
2026-01-30 14:54:18.48	171.56	13.39	-48.5	-67.0	3.8	8.48e-01	0	41	104	0	67	32374
2026-01-30 14:54:19.48	171.23	13.44	-48.7	-67.0	3.8	8.46e-01	0	41	104	0	67	32351
2026-01-30 14:54:20.48	170.90	13.48	-48.9	-67.1	3.8	8.48e-01	0	41	104	0	68	31083
2026-01-30 14:54:21.48	170.58	13.52	-48.9	-67.2	3.8	8.48e-01	0	42	104	0	68	31197
2026-01-30 14:54:22.48	170.25	13.56	-48.7	-67.1	3.8	8.47e-01	0	41	104	0	68	31073
2026-01-30 14:54:23.48	169.91	13.60	-48.7	-67.2	3.8	8.46e-01	0	41	104	0	68	31108
2026-01-30 14:54:24.48	169.58	13.64	-48.9	-67.1	3.8	8.47e-01	0	42	104	0	68	31013
2026-01-30 14:54:25.48	169.25	13.68	-49.0	-67.1	3.8	8.47e-01	0	41	104	0	68	31073
2026-01-30 14:54:26.48	168.92	13.71	-48.9	-67.1	3.8	8.47e-01	0	41	104	0	68	31046
2026-01-30 14:54:27.48	168.58	13.75	-48.8	-67.1	3.8	8.46e-01	0	41	104	0	68	31017
2026-01-30 14:54:28.48	168.24	13.79	-48.7	-67.1	3.8	8.46e-01	0	42	104	0	68	31078
2026-01-30 14:54:29.47	167.91	13.82	-48.5	-67.2	3.8	8.47e-01	0	42	104	0	68	31106
2026-01-30 14:54:30.47	167.57	13.86	-48.6	-67.1	3.8	8.48e-01	0	42	104	0	68	31024
2026-01-30 14:54:31.47	167.23	13.89	-48.2	-67.1	3.8	8.48e-01	0	42	104	0	68	31040
2026-01-30 14:54:32.48	166.89	13.93	-48.0	-67.1	3.8	8.45e-01	0	42	104	0	68	30921
2026-01-30 14:54:33.47	166.55	13.96	-48.1	-67.2	3.8	8.47e-01	0	41	104	0	68	31117
2026-01-30 14:54:34.47	166.21	13.99	-48.1	-67.1	3.8	8.47e-01	0	42	104	0	68	31035
2026-01-30 14:54:35.47	165.86	14.02	-48.2	-67.2	3.8	8.47e-01	0	42	104	0	68	31109
2026-01-30 14:54:36.47	165.52	14.05	-48.4	-67.1	3.8	8.46e-01	0	42	104	0	68	31003
2026-01-30 14:54:37.48	165.17	14.08	-48.6	-67.1	3.8	8.46e-01	0	41	104	0	68	31040
2026-01-30 14:54:38.48	164.82	14.11	-48.5	-67.1	3.8	8.48e-01	0	42	104	0	68	30992
2026-01-30 14:54:39.48	164.48	14.14	-48.6	-67.1	3.8	8.47e-01	0	42	104	0	68	31072
2026-01-30 14:54:40.48	164.13	14.17	-48.7	-67.2	3.8	8.46e-01	0	42	104	0	68	31124
2026-01-30 14:54:41.48	163.78	14.19	-49.0	-67.1	3.8	8.46e-01	0	41	104	0	68	31063
2026-01-30 14:54:42.48	163.43	14.22	-48.9	-67.1	3.8	8.47e-01	0	41	104	0	68	31040
2026-01-30 14:54:43.49	163.08	14.24	-49.0	-67.1	3.8	8.47e-01	0	42	104	0	68	30950
2026-01-30 14:54:44.49	162.73	14.27	-49.1	-67.1	3.8	8.47e-01	0	42	104	0	68	30998
2026-01-30 14:54:45.49	162.38	14.29	-49.1	-67.1	3.8	8.48e-01	0	42	104	0	68	30976
2026-01-30 14:54:46.50	162.02	14.31	-49.0	-67.1	3.8	8.47e-01	0	41	104	0	68	30960
2026-01-30 14:54:47.50	161.67	14.34	-49.0	-67.1	3.8	8.47e-01	0	42	104	0	68	31000
2026-01-30 14:54:48.50	161.31	14.36	-49.0	-67.1	3.8	8.47e-01	0	42	104	0	68	30961
2026-01-30 14:54:49.50	160.96	14.38	-49.0	-67.2	3.8	8.47e-01	0	42	104	0	68	31135
2026-01-30 14:54:50.50	160.60	14.40	-49.0	-67.1	3.8	8.47e-01	0	42	104	0	68	30976
2026-01-30 14:54:51.50	160.25	14.41	-48.8	-67.1	3.8	8.49e-01	0	42	104	0	68	30997
2026-01-30 14:54:52.50	159.89	14.43	-48.9	-67.1	3.8	8.47e-01	0	42	104	0	68	30959
2026-01-30 14:54:53.51	159.53	14.45	-49.0	-67.1	3.8	8.47e-01	0	41	104	0	68	31019
2026-01-30 14:54:54.51	159.18	14.46	-49.1	-67.1	3.8	8.47e-01	0	42	104	0	68	30920
2026-01-30 14:54:55.51	158.82	14.48	-49.2	-67.1	3.8	8.47e-01	0	42	104	0	69	29238
2026-01-30 14:54:56.51	158.46	14.49	-49.1	-67.1	3.8	8.47e-01	0	42	104	0	69	29225
2026-01-30 14:54:57.52	158.10	14.50	-49.2	-67.1	3.8	8.47e-01	0	42	104	0	69	29218
2026-01-30 14:54:58.52	157.74	14.52	-49.2	-67.1	3.8	8.47e-01	0	41	104	0	69	29238
2026-01-30 14:54:59.52	157.38	14.53	-49.2	-67.1	3.8	8.47e-01	0	41	104	0	69	29276
2026-01-30 14:55:00.52	157.02	14.54	-49.2	-67.1	3.8	8.47e-01	0	41	104	0	69	29220
2026-01-30 14:55:01.52	156.66	14.55	-49.1	-67.2	3.8	8.47e-01	0	42	104	0	69	29365
2026-01-30 14:55:02.52	156.30	14.56	-49.1	-67.1	3.8	8.45e-01	0	42	104	0	69	29259
2026-01-30 14:55:03.52	155.94	14.56	-48.9	-67.1	3.8	8.45e-01	0	42	104	0	69	29333
2026-01-30 14:55:04.52	155.58	14.57	-48.7	-67.1	3.8	8.47e-01	0	42	104	0	69	29254
2026-01-30 14:55:05.52	155.22	14.58	-48.6	-67.1	3.8	8.47e-01	0	42	104	0	69	29305
2026-01-30 14:55:06.52	154.86	14.58	-48.8	-67.1	3.8	8.47e-01	0	42	104	0	68	31026
2026-01-30 14:55:07.52	154.50	14.58	-49.0	-67.2	3.8	8.47e-01	0	42	104	0	68	31096
2026-01-30 14:55:08.52	154.14	14.59	-49.0	-67.1	3.8	8.48e-01	0	42	104	0	68	30961
2026-01-30 14:55:09.52	153.78	14.59	-48.9	-67.2	3.8	8.48e-01	0	42	104	0	68	31148
2026-01-30 14:55:10.52	153.42	14.59	-48.6	-67.1	3.8	8.47e-01	0	42	104	0	68	30989
2026-01-30 14:55:11.52	153.06	14.59	-48.7	-67.1	3.8	8.47e-01	0	42	104	0	68	31055
2026-01-30 14:55:12.52	152.69	14.59	-48.7	-67.1	3.8	8.48e-01	0	42	104	0	68	30991
2026-01-30 14:55:13.52	152.33	14.59	-48.9	-67.2	3.8	8.48e-01	0	42	104	0	68	31139
2026-01-30 14:55:14.52	151.97	14.59	-49.0	-67.1	3.8	8.47e-01	0	42	104	0	68	31010
2026-01-30 14:55:15.53	151.61	14.58	-49.0	-67.1	3.8	8.48e-01	0	42	104	0	68	31066
2026-01-30 14:55:16.53	151.25	14.58	-48.9	-67.1	3.8	8.48e-01	0	42	104	0	68	31045
2026-01-30 14:55:17.53	150.89	14.57	-48.9	-67.1	3.8	8.47e-01	0	42	104	0	68	31084
2026-01-30 14:55:18.54	150.52	14.57	-49.0	-67.1	3.8	8.48e-01	0	42	104	0	68	30908
2026-01-30 14:55:19.54	150.16	14.56	-49.1	-67.1	3.8	8.48e-01	0	41	104	0	68	30965
2026-01-30 14:55:20.54	149.80	14.55	-49.1	-67.1	3.8	8.48e-01	0	42	104	0	68	30961
2026-01-30 14:55:21.54	149.44	14.54	-49.1	-67.2	3.8	8.47e-01	0	42	104	0	68	31095
2026-01-30 14:55:22.54	149.08	14.53	-48.8	-67.2	3.8	8.47e-01	0	42	104	0	68	31101
2026-01-30 14:55:23.55	148.72	14.52	-48.8	-67.1	3.8	8.47e-01	0	42	104	0	68	30976
2026-01-30 14:55:24.55	148.36	14.51	-48.8	-67.1	3.8	8.47e-01	0	42	104	0	68	31046
2026-01-30 14:55:25.55	148.01	14.50	-48.9	-67.1	3.8	8.47e-01	0	42	104	0	68	31071
2026-01-30 14:55:26.55	147.65	14.48	-49.1	-67.1	3.8	8.46e-01	0	42	104	0	68	30937
2026-01-30 14:55:27.55	147.29	14.47	-49.0	-67.2	3.8	8.46e-01	0	42	104	0	68	31116
2026-01-30 14:55:28.55	146.93	14.45	-48.8	-67.1	3.8	8.46e-01	0	42	104	0	68	30978
2026-01-30 14:55:29.56	146.57	14.44	-48.5	-67.1	3.8	8.47e-01	0	42	104	0	68	31029
2026-01-30 14:55:30.56	146.22	14.42	-48.4	-67.1	3.8	8.46e-01	0	42	104	0	68	30994
2026-01-30 14:55:31.56	145.86	14.40	-48.6	-67.1	3.8	8.47e-01	0	42	104	0	68	31077
2026-01-30 14:55:32.57	145.50	14.38	-49.0	-67.1	3.8	8.47e-01	0	42	104	0	68	31042
2026-01-30 14:55:33.57	145.15	14.36	-49.1	-67.1	3.8	8.48e-01	0	42	104	0	68	31079
2026-01-30 14:55:34.57	144.80	14.34	-49.2	-67.1	3.8	8.47e-01	0	42	104	0	68	31025
2026-01-30 14:55:35.57	144.44	14.32	-49.1	-67.1	3.8	8.47e-01	0	42	104	0	68	30933
2026-01-30 14:55:36.57	144.09	14.30	-49.1	-67.1	3.8	8.46e-01	0	42	104	0	68	30932
2026-01-30 14:55:37.57	143.74	14.28	-49.1	-67.1	3.8	8.47e-01	0	42	104	0	68	30969
2026-01-30 14:55:38.57	143.39	14.25	-49.2	-67.1	3.9	8.47e-01	0	42	104	0	69	29168
2026-01-30 14:55:39.58	143.03	14.23	-49.2	-67.1	3.8	8.46e-01	0	42	104	0	69	29257
2026-01-30 14:55:40.57	142.69	14.20	-49.0	-67.1	3.8	8.47e-01	0	42	104	0	69	29170
2026-01-30 14:55:41.57	142.34	14.18	-48.9	-67.1	3.8	8.47e-01	0	42	104	0	69	29206
2026-01-30 14:55:42.58	141.99	14.15	-48.7	-67.1	3.8	8.47e-01	0	42	104	0	69	29169
2026-01-30 14:55:43.58	141.64	14.12	-48.7	-67.1	3.8	8.47e-01	0	42	104	0	69	29111
2026-01-30 14:55:44.57	141.30	14.10	-48.9	-67.1	3.8	8.46e-01	0	42	104	0	68	30926
2026-01-30 14:55:45.58	140.95	14.07	-49.0	-67.1	3.8	8.46e-01	0	42	104	0	68	30973
2026-01-30 14:55:46.57	140.61	14.04	-49.0	-67.1	3.8	8.47e-01	0	42	104	0	68	30928
2026-01-30 14:55:47.58	140.26	14.00	-49.1	-67.1	3.8	8.47e-01	0	42	104	0	68	30918
2026-01-30 14:55:48.58	139.92	13.97	-49.1	-67.1	3.8	8.47e-01	0	42	104	0	68	30932
2026-01-30 14:55:49.58	139.58	13.94	-49.1	-67.1	3.8	8.46e-01	0	42	104	0	68	31022
2026-01-30 14:55:50.58	139.24	13.91	-49.2	-67.1	3.9	8.47e-01	0	42	104	0	69	29083
2026-01-30 14:55:51.58	138.90	13.87	-49.2	-67.1	3.8	8.47e-01	0	42	104	0	69	29111
2026-01-30 14:55:52.58	138.56	13.84	-49.2	-67.1	3.8	8.47e-01	0	42	104	0	69	29094
2026-01-30 14:55:53.59	138.22	13.80	-49.3	-67.1	3.8	8.46e-01	0	42	104	0	69	29163
2026-01-30 14:55:54.59	137.88	13.77	-49.2	-67.1	3.8	8.46e-01	0	42	104	0	69	29144
2026-01-30 14:55:55.59	137.55	13.73	-49.2	-67.1	3.8	8.47e-01	0	42	104	0	69	29162
2026-01-30 14:55:56.60	137.21	13.69	-49.2	-67.1	3.8	8.46e-01	0	42	104	0	69	29200
2026-01-30 14:55:57.60	136.88	13.65	-49.2	-67.1	3.8	8.46e-01	0	42	104	0	69	29118
2026-01-30 14:55:58.60	136.55	13.62	-49.2	-67.0	3.8	8.47e-01	0	42	104	0	69	29008
2026-01-30 14:55:59.60	136.21	13.58	-49.2	-67.1	3.8	8.46e-01	0	42	104	0	69	29174
2026-01-30 14:56:00.60	135.89	13.54	-49.1	-67.1	3.8	8.46e-01	0	42	104	0	69	29127
2026-01-30 14:56:01.60	135.56	13.50	-49.1	-67.1	3.8	8.46e-01	0	42	104	0	69	29147
2026-01-30 14:56:02.60	135.23	13.45	-49.1	-67.1	3.8	8.47e-01	0	42	104	0	69	29107
2026-01-30 14:56:03.60	134.90	13.41	-49.0	-67.1	3.8	8.47e-01	0	42	104	0	69	29075
2026-01-30 14:56:04.61	134.58	13.37	-49.1	-67.1	3.8	8.47e-01	0	42	104	0	69	29064
2026-01-30 14:56:05.61	134.25	13.33	-49.2	-67.1	3.8	8.48e-01	0	42	104	0	69	29092
2026-01-30 14:56:06.61	133.93	13.28	-49.2	-67.1	3.8	8.47e-01	0	42	104	0	69	29104
2026-01-30 14:56:07.61	133.61	13.24	-49.2	-67.1	3.8	8.47e-01	0	42	104	0	69	29125
2026-01-30 14:56:08.61	133.29	13.19	-49.2	-67.1	3.8	8.47e-01	0	42	104	0	69	29165
2026-01-30 14:56:09.61	132.97	13.15	-49.1	-67.1	3.8	8.46e-01	0	42	104	0	69	29089
2026-01-30 14:56:10.61	132.65	13.10	-49.1	-67.0	3.8	8.46e-01	0	42	104	0	69	29007
2026-01-30 14:56:11.61	132.34	13.05	-49.1	-67.0	3.8	8.47e-01	0	42	104	0	69	29007
2026-01-30 14:56:12.62	132.02	13.01	-49.0	-67.1	3.8	8.47e-01	0	42	104	0	69	29044
2026-01-30 14:56:13.62	131.71	12.96	-49.0	-67.1	3.8	8.47e-01	0	42	104	0	69	29118
2026-01-30 14:56:14.62	131.39	12.91	-49.0	-67.1	3.8	8.47e-01	0	42	104	0	69	29040
2026-01-30 14:56:15.62	131.08	12.86	-49.0	-67.0	3.8	8.46e-01	0	42	104	0	69	28980
2026-01-30 14:56:16.62	130.77	12.81	-49.1	-67.1	3.8	8.47e-01	0	42	104	0	69	29018
2026-01-30 14:56:17.62	130.47	12.76	-49.0	-67.1	3.8	8.47e-01	0	42	104	0	69	29070
2026-01-30 14:56:18.62	130.16	12.71	-49.0	-67.0	3.8	8.48e-01	0	42	104	0	69	28985
2026-01-30 14:56:19.61	129.86	12.66	-49.0	-67.0	3.8	8.47e-01	0	42	104	0	69	28960
2026-01-30 14:56:20.62	129.55	12.61	-49.0	-67.1	3.8	8.47e-01	0	42	104	0	69	29013
2026-01-30 14:56:21.62	129.25	12.56	-49.1	-67.1	3.8	8.48e-01	0	42	104	0	69	29054
2026-01-30 14:56:22.62	128.95	12.51	-49.0	-67.0	3.8	8.48e-01	0	42	104	0	69	28994
2026-01-30 14:56:23.63	128.65	12.45	-49.0	-67.0	3.8	8.48e-01	0	42	104	0	69	28890
2026-01-30 14:56:24.63	128.35	12.40	-48.8	-67.0	3.8	8.47e-01	0	42	104	0	69	28980
2026-01-30 14:56:25.63	128.05	12.35	-48.8	-67.0	3.8	8.46e-01	0	42	104	0	69	28888
2026-01-30 14:56:26.63	127.76	12.29	-48.8	-67.0	3.8	8.46e-01	0	42	104	0	69	28790
2026-01-30 14:56:27.63	127.46	12.24	-48.8	-67.0	3.8	8.46e-01	0	42	104	0	69	28839
2026-01-30 14:56:28.64	127.17	12.18	-48.9	-67.0	3.8	8.47e-01	0	42	104	0	69	28934
2026-01-30 14:56:29.64	126.88	12.13	-48.9	-67.0	3.8	8.47e-01	0	42	104	0	69	28803
2026-01-30 14:56:30.64	126.59	12.07	-49.0	-66.9	3.8	8.47e-01	0	42	104	0	69	28665
2026-01-30 14:56:31.64	126.30	12.02	-49.0	-67.0	3.8	8.45e-01	0	42	104	0	69	28807
2026-01-30 14:56:32.64	126.01	11.96	-49.1	-67.0	3.8	8.45e-01	0	42	104	0	69	28824
2026-01-30 14:56:33.64	125.73	11.90	-49.1	-67.0	3.8	8.47e-01	0	42	104	0	69	28870
2026-01-30 14:56:34.64	125.44	11.85	-49.0	-67.0	3.8	8.46e-01	0	42	104	0	69	28769
2026-01-30 14:56:35.64	125.16	11.79	-49.0	-67.0	3.8	8.47e-01	0	42	104	0	69	28851
2026-01-30 14:56:36.65	124.88	11.73	-49.0	-67.0	3.8	8.47e-01	0	42	104	0	69	28917
2026-01-30 14:56:37.65	124.60	11.67	-49.0	-67.0	3.8	8.47e-01	0	42	104	0	69	28704
2026-01-30 14:56:38.65	124.32	11.61	-49.0	-66.9	3.8	8.48e-01	0	42	104	0	69	28605
2026-01-30 14:56:39.65	124.04	11.56	-49.0	-66.9	3.8	8.48e-01	0	42	104	0	69	28574
2026-01-30 14:56:40.65	123.77	11.50	-49.0	-67.0	3.8	8.47e-01	0	42	104	0	69	28736
2026-01-30 14:56:41.65	123.50	11.44	-49.0	-66.9	3.8	8.47e-01	0	42	104	0	69	28627
2026-01-30 14:56:42.66	123.22	11.38	-49.0	-66.9	3.8	8.47e-01	0	42	104	0	69	28636
2026-01-30 14:56:43.66	122.95	11.32	-49.1	-66.9	3.8	8.47e-01	0	42	104	0	69	28565
2026-01-30 14:56:44.66	122.68	11.26	-49.1	-67.0	3.8	8.45e-01	0	42	104	0	69	28733
2026-01-30 14:56:45.66	122.42	11.20	-49.0	-67.0	3.8	8.45e-01	0	42	104	0	69	28688
2026-01-30 14:56:46.66	122.15	11.14	-49.0	-67.0	3.8	8.46e-01	0	42	104	0	69	28693
2026-01-30 14:56:47.66	121.89	11.08	-49.0	-66.9	3.8	8.46e-01	0	42	104	0	69	28596
2026-01-30 14:56:48.66	121.62	11.02	-49.0	-66.9	3.8	8.46e-01	0	42	104	0	69	28581
2026-01-30 14:56:49.66	121.36	10.96	-49.0	-66.9	3.8	8.46e-01	0	42	104	0	69	28567
2026-01-30 14:56:50.66	121.10	10.89	-49.0	-66.9	3.8	8.48e-01	0	42	104	0	69	28499
2026-01-30 14:56:51.66	120.84	10.83	-48.9	-66.9	3.8	8.46e-01	0	42	104	0	69	28574
2026-01-30 14:56:52.66	120.59	10.77	-48.8	-66.9	3.8	8.46e-01	0	42	104	0	69	28660
2026-01-30 14:56:53.67	120.33	10.71	-48.9	-66.9	3.8	8.48e-01	0	42	104	0	69	28378
2026-01-30 14:56:54.67	120.07	10.65	-48.9	-66.9	3.8	8.47e-01	0	42	104	0	69	28538
2026-01-30 14:56:55.67	119.82	10.58	-49.0	-66.9	3.8	8.47e-01	0	42	104	0	69	28421
2026-01-30 14:56:56.67	119.57	10.52	-49.0	-66.9	3.8	8.47e-01	0	42	104	0	69	28540
2026-01-30 14:56:57.68	119.32	10.46	-48.9	-66.9	3.8	8.47e-01	0	42	104	0	69	28420
2026-01-30 14:56:58.68	119.07	10.39	-49.0	-66.8	3.8	8.47e-01	0	42	104	0	69	28312
2026-01-30 14:56:59.68	118.82	10.33	-49.0	-66.9	3.8	8.47e-01	0	42	104	0	69	28371
2026-01-30 14:57:00.68	118.58	10.27	-49.0	-66.9	3.8	8.48e-01	0	42	104	0	69	28464
2026-01-30 14:57:01.68	118.33	10.20	-49.0	-66.8	3.8	8.48e-01	0	42	104	0	69	28307
2026-01-30 14:57:02.68	118.09	10.14	-48.9	-66.8	3.8	8.46e-01	0	42	104	0	69	28305
2026-01-30 14:57:03.68	117.85	10.08	-49.0	-66.8	3.8	8.47e-01	0	42	104	0	69	28292
2026-01-30 14:57:04.68	117.61	10.01	-48.9	-66.9	3.8	8.47e-01	0	42	104	0	69	28425
2026-01-30 14:57:05.69	117.37	9.95	-48.9	-66.8	3.8	8.46e-01	0	42	104	0	69	28252
2026-01-30 14:57:06.68	117.13	9.89	-48.8	-66.8	3.8	8.47e-01	0	42	104	0	69	28264
2026-01-30 14:57:07.68	116.90	9.82	-48.8	-66.8	3.8	8.47e-01	0	42	104	0	69	28296
2026-01-30 14:57:08.69	116.66	9.76	-48.9	-66.8	3.8	8.47e-01	0	42	104	0	69	28317
2026-01-30 14:57:09.69	116.43	9.69	-48.9	-66.8	3.8	8.47e-01	0	42	104	0	69	28232
2026-01-30 14:57:10.69	116.20	9.63	-48.9	-66.8	3.8	8.47e-01	0	42	104	0	69	28208
2026-01-30 14:57:11.69	115.97	9.56	-48.9	-66.8	3.8	8.47e-01	0	42	104	0	69	28242
2026-01-30 14:57:12.69	115.74	9.50	-49.0	-66.9	3.8	8.47e-01	0	42	104	0	69	28379
2026-01-30 14:57:13.70	115.51	9.43	-48.9	-66.8	3.8	8.48e-01	0	42	104	0	69	28177
2026-01-30 14:57:14.70	115.28	9.37	-48.9	-66.8	3.8	8.48e-01	0	42	104	0	69	28051
2026-01-30 14:57:15.70	115.06	9.30	-48.9	-66.8	3.8	8.48e-01	0	42	104	0	69	28173
2026-01-30 14:57:16.70	114.84	9.24	-48.9	-66.8	3.8	8.47e-01	0	42	104	0	69	28134
2026-01-30 14:57:17.70	114.62	9.18	-48.8	-66.8	3.8	8.47e-01	0	42	104	0	69	28078
2026-01-30 14:57:18.70	114.40	9.11	-48.8	-66.8	3.8	8.46e-01	0	42	104	0	69	28162
2026-01-30 14:57:19.70	114.18	9.05	-48.8	-66.8	3.8	8.47e-01	0	42	104	0	69	28161
2026-01-30 14:57:20.70	113.96	8.98	-48.7	-66.8	3.8	8.47e-01	0	42	104	0	69	28327
2026-01-30 14:57:21.70	113.74	8.91	-49.0	-67.1	3.8	8.46e-01	0	42	104	0	69	29029
2026-01-30 14:57:22.71	113.53	8.85	-49.2	-67.2	3.8	8.46e-01	0	42	104	0	69	29486
2026-01-30 14:57:23.71	113.31	8.78	-49.3	-67.3	3.8	8.47e-01	0	42	104	0	69	29844
2026-01-30 14:57:24.71	113.10	8.72	-49.5	-67.4	3.8	8.47e-01	0	42	104	0	69	30096
2026-01-30 14:57:25.71	112.89	8.65	-49.5	-67.4	3.8	8.47e-01	0	42	104	0	69	30255
2026-01-30 14:57:26.71	112.68	8.59	-49.5	-67.4	3.8	8.47e-01	0	42	104	0	69	30340
2026-01-30 14:57:27.72	112.47	8.52	-49.5	-67.4	3.8	8.47e-01	0	42	104	0	69	30330
2026-01-30 14:57:28.72	112.26	8.46	-49.5	-67.5	3.8	8.47e-01	0	42	104	0	69	30462
2026-01-30 14:57:29.73	112.05	8.39	-49.6	-67.5	3.8	8.46e-01	0	42	104	0	69	30611
2026-01-30 14:57:30.73	111.85	8.33	-49.3	-67.5	3.8	8.46e-01	0	42	104	0	69	30666
2026-01-30 14:57:31.73	111.65	8.26	-49.4	-67.6	3.8	8.47e-01	0	42	104	0	69	30766
2026-01-30 14:57:32.74	111.44	8.19	-49.7	-67.6	3.8	8.47e-01	0	42	104	0	70	29127
2026-01-30 14:57:33.74	111.24	8.13	-49.7	-67.6	3.8	8.47e-01	0	42	104	0	70	29234
2026-01-30 14:57:34.75	111.04	8.06	-49.8	-67.6	3.8	8.48e-01	0	42	104	0	70	29254
2026-01-30 14:57:35.75	110.84	8.00	-49.8	-67.6	3.8	8.47e-01	0	42	104	0	70	29323
2026-01-30 14:57:36.76	110.64	7.93	-49.8	-67.7	3.8	8.47e-01	0	42	104	0	70	29373
2026-01-30 14:57:37.76	110.45	7.87	-49.8	-67.6	3.8	8.47e-01	0	42	104	0	70	29323
2026-01-30 14:57:38.77	110.25	7.80	-49.7	-67.6	3.8	8.47e-01	0	42	104	0	70	29320
2026-01-30 14:57:39.77	110.06	7.74	-49.7	-67.6	3.8	8.47e-01	0	42	104	0	70	29324
2026-01-30 14:57:40.77	109.87	7.67	-49.7	-67.7	3.8	8.47e-01	0	42	104	0	70	29475
2026-01-30 14:57:41.78	109.67	7.60	-49.7	-67.7	3.8	8.47e-01	0	42	104	0	70	29441
2026-01-30 14:57:42.78	109.48	7.54	-49.8	-67.7	3.8	8.47e-01	0	42	104	0	70	29455
2026-01-30 14:57:43.78	109.29	7.47	-49.8	-67.7	3.8	8.47e-01	0	42	104	0	70	29479
2026-01-30 14:57:44.79	109.11	7.41	-49.8	-67.7	3.8	8.47e-01	0	42	104	0	70	29574
2026-01-30 14:57:45.79	108.92	7.34	-49.6	-67.7	3.8	8.46e-01	0	42	104	0	70	29530
2026-01-30 14:57:46.80	108.73	7.28	-49.7	-67.7	3.8	8.46e-01	0	42	104	0	70	29490
2026-01-30 14:57:47.80	108.55	7.21	-49.6	-67.7	3.8	8.46e-01	0	42	104	0	70	29568
2026-01-30 14:57:48.81	108.36	7.15	-49.6	-67.7	3.8	8.47e-01	0	42	104	0	70	29540
2026-01-30 14:57:49.81	108.18	7.08	-49.5	-67.7	3.8	8.47e-01	0	42	104	0	70	29579
2026-01-30 14:57:50.81	108.00	7.02	-49.6	-67.7	3.8	8.47e-01	0	42	104	0	70	29550
2026-01-30 14:57:51.82	107.82	6.95	-49.7	-67.7	3.8	8.46e-01	0	42	104	0	70	29590
2026-01-30 14:57:52.82	107.64	6.89	-49.8	-67.7	3.8	8.47e-01	0	42	104	0	70	29490
2026-01-30 14:57:53.83	107.47	6.82	-49.8	-67.7	3.8	8.47e-01	0	42	104	0	70	29593
2026-01-30 14:57:54.83	107.29	6.76	-49.6	-67.7	3.8	8.46e-01	0	42	104	0	70	29366
2026-01-30 14:57:55.83	107.11	6.69	-49.6	-67.6	3.8	8.46e-01	0	42	104	0	70	29277
2026-01-30 14:57:56.84	106.94	6.63	-49.5	-67.6	3.8	8.46e-01	0	42	104	0	70	29252
2026-01-30 14:57:57.84	106.77	6.56	-49.4	-67.6	3.8	8.47e-01	0	42	104	0	70	29127
2026-01-30 14:57:58.84	106.60	6.50	-49.3	-67.5	3.8	8.47e-01	0	42	104	0	70	28975
2026-01-30 14:57:59.85	106.42	6.43	-49.3	-67.5	3.8	8.47e-01	0	42	104	0	70	28744
2026-01-30 14:58:00.85	106.25	6.37	-49.4	-67.4	3.8	8.47e-01	0	42	104	0	70	28606
2026-01-30 14:58:01.85	106.09	6.30	-49.2	-67.3	3.8	8.47e-01	0	42	104	0	70	28135
2026-01-30 14:58:02.86	105.92	6.24	-49.1	-67.1	3.8	8.47e-01	0	42	104	0	70	27589
2026-01-30 14:58:03.86	105.75	6.18	-49.0	-67.0	3.8	8.46e-01	0	42	104	0	70	27276
2026-01-30 14:58:04.87	105.58	6.11	-49.0	-67.0	3.8	8.47e-01	0	42	104	0	70	27138
2026-01-30 14:58:05.87	105.42	6.05	-49.0	-67.0	3.8	8.47e-01	0	42	104	0	70	27254
2026-01-30 14:58:06.88	105.26	5.98	-49.0	-67.0	3.8	8.47e-01	0	42	104	0	70	27257
2026-01-30 14:58:07.88	105.09	5.92	-49.0	-67.0	3.8	8.47e-01	0	42	104	0	70	27154
2026-01-30 14:58:08.88	104.93	5.86	-49.0	-67.0	3.8	8.48e-01	0	42	104	0	69	28718
2026-01-30 14:58:09.89	104.77	5.79	-49.0	-67.0	3.8	8.48e-01	0	42	104	0	69	28766
2026-01-30 14:58:10.89	104.61	5.73	-49.0	-67.0	3.8	8.48e-01	0	42	104	0	69	28724
2026-01-30 14:58:11.90	104.45	5.66	-49.0	-66.9	3.8	8.46e-01	0	42	104	0	69	28655
2026-01-30 14:58:12.90	104.29	5.60	-49.0	-67.0	3.8	8.46e-01	0	42	104	0	69	28754
2026-01-30 14:58:13.90	104.14	5.54	-49.0	-67.0	3.8	8.47e-01	0	42	104	0	69	28747
2026-01-30 14:58:14.91	103.98	5.47	-48.9	-67.0	3.8	8.46e-01	0	42	104	0	69	28723
2026-01-30 14:58:15.91	103.83	5.41	-48.9	-66.9	3.8	8.46e-01	0	42	104	0	69	28666
2026-01-30 14:58:16.91	103.68	5.35	-49.0	-66.9	3.8	8.47e-01	0	42	104	0	69	28670
2026-01-30 14:58:17.92	103.52	5.28	-48.9	-66.9	3.8	8.46e-01	0	42	104	0	69	28631
2026-01-30 14:58:18.92	103.37	5.22	-48.9	-67.0	3.8	8.46e-01	0	42	104	0	69	28721
2026-01-30 14:58:19.93	103.22	5.16	-48.9	-67.0	3.8	8.47e-01	0	42	104	0	69	28741
2026-01-30 14:58:20.93	103.07	5.09	-48.9	-67.0	3.8	8.47e-01	0	42	104	0	69	28729
2026-01-30 14:58:21.94	102.92	5.03	-48.9	-66.9	3.8	8.47e-01	0	42	104	0	69	28643
2026-01-30 14:58:22.94	102.77	4.97	-48.9	-66.9	3.8	8.47e-01	0	42	104	0	69	28678

#Closed at: 2026-01-30 14:58:23
#Recorded file [0 MB]: D:/Data/31040_260130_175200.dat