passes_logs/2026/01/30/T1/T1__20260130_001446_NOAA_20_JPSS-1_rec.log

#Pass ID: 20260130_001446_NOAA 20 (JPSS-1)
#Satellite: NOAA 20 (JPSS-1)
#Configuration: NOAA 20
#almurnet v.1.7.20251203
#Start time: 2026-01-30 00:14:45

#Version: 2.0.20230620
#Station: T1
#Location: 37.570604 lon 55.790049 lat
#TLE: 1 43013U 17073A   26028.86313978  .00000144  00000+0  89200-4 0  9993
#TLE: 2 43013  98.7648 329.6571 0000891  20.0014 340.1197 14.19541559424709

#Time	Az	El	Level	Level2	SNR	BER	BlckErr	Temp	State	Recorded	gain1	gain2
2026-01-30 00:14:45.85	12.92	4.96	-49.3	-63.8	3.8	1.49e+00	0	38	0	0	70	18861
2026-01-30 00:14:46.85	12.90	5.03	-49.6	-63.8	3.8	1.49e+00	0	38	104	0	71	17855
2026-01-30 00:14:47.85	12.87	5.10	-49.7	-63.9	3.8	1.49e+00	0	38	104	0	71	17937
2026-01-30 00:14:48.86	12.84	5.17	-49.8	-63.9	3.8	1.49e+00	0	38	104	0	71	18000
2026-01-30 00:14:49.86	12.82	5.24	-49.7	-63.9	3.8	1.49e+00	0	38	104	0	71	17915
2026-01-30 00:14:50.86	12.79	5.31	-49.8	-63.9	3.8	1.49e+00	0	38	104	0	71	17967
2026-01-30 00:14:51.87	12.77	5.38	-49.8	-63.9	3.8	1.49e+00	0	38	104	0	71	17987
2026-01-30 00:14:52.87	12.74	5.45	-49.7	-63.9	3.8	1.49e+00	0	38	104	0	71	17956
2026-01-30 00:14:53.88	12.71	5.53	-49.5	-63.9	3.8	1.49e+00	0	38	104	0	70	18987
2026-01-30 00:14:54.88	12.69	5.60	-49.7	-63.8	3.8	1.49e+00	0	38	104	0	70	18919
2026-01-30 00:14:55.89	12.66	5.67	-49.5	-63.8	3.8	1.49e+00	0	38	104	0	70	18937
2026-01-30 00:14:56.89	12.63	5.74	-49.6	-63.8	3.8	1.49e+00	0	38	104	0	70	18850
2026-01-30 00:14:57.89	12.61	5.81	-49.6	-63.8	3.8	1.49e+00	0	39	104	0	70	18783
2026-01-30 00:14:58.90	12.58	5.89	-49.4	-63.7	3.8	1.49e+00	0	38	104	0	70	18702
2026-01-30 00:14:59.90	12.55	5.96	-49.4	-63.7	3.8	1.49e+00	0	39	104	0	70	18635
2026-01-30 00:15:00.91	12.52	6.03	-49.3	-63.7	3.8	1.49e+00	0	38	104	0	70	18535
2026-01-30 00:15:01.91	12.50	6.11	-49.4	-63.7	3.8	1.49e+00	0	39	104	0	70	18535
2026-01-30 00:15:02.92	12.47	6.18	-48.9	-63.6	3.8	1.49e+00	0	38	104	0	69	19532
2026-01-30 00:15:03.92	12.44	6.25	-49.0	-63.6	3.8	1.49e+00	0	39	104	0	68	20712
2026-01-30 00:15:04.92	12.41	6.33	-48.8	-63.5	3.8	1.49e+00	0	39	104	0	69	19378
2026-01-30 00:15:05.93	12.39	6.40	-48.1	-63.5	3.8	1.49e+00	0	39	104	0	68	20530
2026-01-30 00:15:06.93	12.36	6.48	-49.2	-63.5	3.8	1.49e+00	0	39	104	0	68	20373
2026-01-30 00:15:07.93	12.33	6.55	-47.7	-63.2	3.8	1.49e+00	0	39	104	0	67	20811
2026-01-30 00:15:08.94	12.30	6.62	-48.4	-63.1	3.8	1.49e+00	0	39	104	0	67	20540
2026-01-30 00:15:09.95	12.27	6.70	-48.0	-62.5	3.8	1.49e+00	0	39	104	0	67	19179
2026-01-30 00:15:10.95	12.24	6.77	-48.0	-62.4	3.8	1.49e+00	0	39	104	0	67	18980
2026-01-30 00:15:11.95	12.21	6.85	-48.0	-62.0	3.8	1.49e+00	0	39	104	0	67	18280
2026-01-30 00:15:12.96	12.18	6.93	-47.9	-61.8	3.8	1.49e+00	0	39	104	0	67	17688
2026-01-30 00:15:13.96	12.15	7.00	-47.9	-61.6	3.8	1.49e+00	0	39	104	0	67	17335
2026-01-30 00:15:14.97	12.12	7.08	-47.9	-61.4	3.8	1.49e+00	0	39	104	0	67	16930
2026-01-30 00:15:15.97	12.09	7.15	-47.9	-61.3	3.8	1.49e+00	0	39	104	0	67	16710
2026-01-30 00:15:16.98	12.06	7.23	-47.9	-61.2	3.8	1.49e+00	0	39	104	0	67	16560
2026-01-30 00:15:17.98	12.03	7.31	-47.9	-61.1	3.8	1.49e+00	0	39	104	0	67	16465
2026-01-30 00:15:18.99	12.00	7.38	-47.9	-61.0	3.9	1.49e+00	0	39	104	0	67	16303
2026-01-30 00:15:19.99	11.97	7.46	-47.9	-61.1	3.8	1.49e+00	0	39	104	0	67	16423
2026-01-30 00:15:21.00	11.94	7.54	-47.9	-61.0	3.9	1.48e+00	0	39	104	0	67	16144
2026-01-30 00:15:22.00	11.91	7.61	-47.9	-60.8	3.8	1.48e+00	0	39	104	0	67	15864
2026-01-30 00:15:23.00	11.88	7.69	-47.9	-60.7	3.8	1.48e+00	0	39	104	0	67	15620
2026-01-30 00:15:24.01	11.85	7.77	-47.8	-59.9	4.1	1.48e+00	0	39	104	0	67	14357
2026-01-30 00:15:25.01	11.81	7.85	-47.8	-59.7	4.1	1.41e+00	0	39	0	0	67	13983
2026-01-30 00:15:26.02	11.78	7.93	-47.8	-58.7	4.5	1.36e+00	0	39	0	0	67	12432
2026-01-30 00:15:27.02	11.75	8.00	-47.7	-57.9	4.8	8.50e-01	0	39	0	2097152	67	11375
2026-01-30 00:15:28.03	11.72	8.08	-47.5	-56.8	5.5	5.49e-01	0	40	0	4194304	67	9980
2026-01-30 00:15:29.03	11.69	8.16	-47.3	-55.4	6.5	3.30e-01	0	40	0	5242880	66	8972
2026-01-30 00:15:30.04	11.65	8.24	-47.1	-54.3	7.5	1.44e-01	0	40	0	7340032	66	7941
2026-01-30 00:15:31.04	11.62	8.32	-46.9	-53.4	8.4	5.80e-02	0	39	0	9437184	65	7552
2026-01-30 00:15:32.04	11.59	8.40	-46.6	-52.4	9.4	2.39e-02	0	40	0	11534336	65	6755
2026-01-30 00:15:33.05	11.55	8.48	-46.5	-51.9	9.9	1.26e-02	0	40	0	12582912	64	6740
2026-01-30 00:15:34.05	11.52	8.56	-46.2	-51.2	10.8	3.66e-03	0	40	0	14680064	64	6206
2026-01-30 00:15:35.06	11.49	8.64	-46.1	-50.7	11.2	1.63e-03	0	40	0	16777216	64	5905
2026-01-30 00:15:36.06	11.45	8.72	-46.1	-50.7	11.4	1.09e-03	0	40	0	18874368	63	6212
2026-01-30 00:15:37.07	11.42	8.80	-45.9	-50.2	11.8	5.84e-04	0	40	0	20971520	63	5894
2026-01-30 00:15:38.07	11.38	8.89	-46.0	-50.4	11.6	7.17e-04	0	40	0	23068672	63	6005
2026-01-30 00:15:39.07	11.35	8.97	-46.0	-50.6	11.5	9.31e-04	0	40	0	24117248	63	6142
2026-01-30 00:15:40.08	11.31	9.05	-46.2	-51.1	10.9	1.93e-03	0	40	0	26214400	63	6495
2026-01-30 00:15:41.08	11.28	9.13	-46.9	-53.0	8.9	1.61e-02	0	40	0	28311552	64	7655
2026-01-30 00:15:42.08	11.24	9.21	-46.0	-50.7	11.2	4.70e-03	0	40	0	30408704	64	5869
2026-01-30 00:15:43.09	11.21	9.30	-47.4	-56.1	6.0	5.36e-03	0	40	0	31457280	65	10310
2026-01-30 00:15:44.09	11.17	9.38	-47.8	-56.9	5.4	4.45e-01	0	40	0	33554432	66	10716
2026-01-30 00:15:45.09	11.14	9.46	-42.9	-45.0	17.0	2.69e-03	0	40	0	35651584	57	4547
2026-01-30 00:15:46.16	11.10	9.55	-42.9	-45.1	17.0	0.00e+00	0	40	0	37748736	57	4607
2026-01-30 00:15:47.02	11.07	9.62	-42.8	-44.9	17.1	0.00e+00	0	40	0	39845888	57	4509
2026-01-30 00:15:48.16	11.03	9.72	-42.6	-44.6	17.5	0.00e+00	0	40	0	41943040	57	4371
2026-01-30 00:15:49.03	11.00	9.79	-42.6	-44.7	17.4	0.00e+00	0	40	0	42991616	57	4392
2026-01-30 00:15:50.17	10.95	9.89	-42.5	-44.4	17.7	0.00e+00	0	40	0	45088768	56	4515
2026-01-30 00:15:51.22	10.91	9.97	-42.2	-44.1	18.0	0.00e+00	0	40	0	47185920	56	4352
2026-01-30 00:15:52.08	10.88	10.05	-42.3	-44.1	17.9	0.00e+00	0	40	0	49283072	56	4383
2026-01-30 00:15:53.23	10.84	10.14	-42.1	-43.9	18.1	0.00e+00	0	40	0	51380224	56	4286
2026-01-30 00:15:54.09	10.81	10.22	-42.1	-44.0	18.1	0.00e+00	0	40	0	52428800	56	4303
2026-01-30 00:15:55.23	10.76	10.31	-41.7	-43.5	18.4	0.00e+00	0	40	0	54525952	55	4317
2026-01-30 00:15:56.09	10.73	10.39	-41.8	-43.5	18.4	0.00e+00	0	40	0	56623104	55	4333
2026-01-30 00:15:57.29	10.68	10.49	-41.6	-43.4	18.5	0.00e+00	0	40	0	58720256	55	4246
2026-01-30 00:15:58.15	10.65	10.57	-41.7	-43.5	18.4	0.00e+00	0	40	0	59768832	55	4297
2026-01-30 00:15:59.29	10.61	10.66	-41.6	-43.4	18.5	0.00e+00	0	40	0	61865984	55	4261
2026-01-30 00:16:00.15	10.57	10.74	-41.5	-43.2	18.7	0.00e+00	0	40	0	63963136	55	4160
2026-01-30 00:16:01.43	10.52	10.85	-41.6	-43.3	18.6	0.00e+00	0	40	0	66060288	55	4235
2026-01-30 00:16:02.14	10.49	10.91	-41.5	-43.1	18.8	0.00e+00	0	40	0	68157440	55	4139
2026-01-30 00:16:03.43	10.44	11.03	-41.6	-43.3	18.7	0.00e+00	0	40	0	70254592	55	4196
2026-01-30 00:16:04.15	10.41	11.09	-41.5	-43.1	18.9	0.00e+00	0	40	0	71303168	54	4353
2026-01-30 00:16:05.77	10.35	11.23	-41.6	-43.3	18.6	0.00e+00	0	40	0	74448896	54	4479
2026-01-30 00:16:06.35	10.32	11.28	-41.4	-43.1	18.9	0.00e+00	0	40	0	75497472	54	4351
2026-01-30 00:16:08.16	10.25	11.45	-41.6	-43.2	18.7	0.00e+00	0	40	0	78643200	54	4440
2026-01-30 00:16:08.74	10.22	11.50	-41.8	-43.4	18.6	0.00e+00	0	40	0	79691776	54	4543
2026-01-30 00:16:10.34	10.16	11.64	-41.5	-43.1	18.9	0.00e+00	0	40	0	82837504	54	4362
2026-01-30 00:16:10.92	10.13	11.69	-41.6	-43.2	18.8	0.00e+00	0	40	0	83886080	54	4416
2026-01-30 00:16:12.51	10.06	11.84	-41.4	-42.9	19.0	0.00e+00	0	40	0	87031808	54	4290
2026-01-30 00:16:13.08	10.04	11.89	-41.5	-43.0	19.0	0.00e+00	0	40	0	88080384	54	4304
2026-01-30 00:16:14.99	9.96	12.06	-41.8	-43.4	18.6	0.00e+00	0	40	0	92274688	54	4534
2026-01-30 00:16:15.57	9.93	12.12	-41.7	-43.3	18.7	0.00e+00	0	40	0	93323264	54	4478
2026-01-30 00:16:17.16	9.86	12.26	-41.6	-43.1	18.8	0.00e+00	0	40	0	95420416	54	4385
2026-01-30 00:16:17.73	9.84	12.32	-41.4	-43.0	19.0	0.00e+00	0	40	0	96468992	54	4300
2026-01-30 00:16:19.31	9.77	12.46	-41.4	-42.9	19.1	0.00e+00	0	40	0	99614720	54	4261
2026-01-30 00:16:19.91	9.74	12.52	-41.4	-42.8	19.1	0.00e+00	0	40	0	100663296	54	4229
2026-01-30 00:16:21.49	9.67	12.67	-41.4	-42.8	19.2	0.00e+00	0	40	0	103809024	54	4233
2026-01-30 00:16:22.08	9.64	12.72	-41.4	-42.9	19.1	0.00e+00	0	40	0	104857600	54	4259
2026-01-30 00:16:23.66	9.57	12.87	-41.5	-43.0	19.0	0.00e+00	0	40	0	108003328	54	4317
2026-01-30 00:16:24.26	9.54	12.93	-41.6	-43.1	18.8	0.00e+00	0	40	0	109051904	54	4372
2026-01-30 00:16:25.83	9.47	13.08	-41.5	-43.0	19.0	0.00e+00	0	40	0	112197632	54	4322
2026-01-30 00:16:26.42	9.44	13.13	-41.5	-43.0	19.0	0.00e+00	0	40	0	113246208	54	4294
2026-01-30 00:16:28.00	9.36	13.29	-41.5	-42.9	19.1	0.00e+00	0	40	0	116391936	54	4277
2026-01-30 00:16:28.60	9.34	13.34	-41.4	-42.9	19.1	0.00e+00	0	40	0	117440512	54	4277
2026-01-30 00:16:30.18	9.26	13.50	-41.5	-42.9	19.1	0.00e+00	0	40	0	120586240	54	4270
2026-01-30 00:16:30.80	9.23	13.56	-41.3	-42.8	19.2	0.00e+00	0	40	0	121634816	54	4195
2026-01-30 00:16:32.37	9.15	13.71	-41.4	-42.8	19.2	0.00e+00	0	40	0	124780544	54	4230
2026-01-30 00:16:32.99	9.12	13.77	-41.4	-42.8	19.2	0.00e+00	0	40	0	125829120	54	4217
2026-01-30 00:16:34.56	9.04	13.92	-41.3	-42.8	19.2	0.00e+00	0	40	0	128974848	54	4195
2026-01-30 00:16:35.15	9.01	13.98	-41.3	-42.7	19.3	0.00e+00	0	40	0	130023424	54	4166
2026-01-30 00:16:36.73	8.93	14.14	-41.5	-42.9	19.2	0.00e+00	0	40	0	132120576	54	4245
2026-01-30 00:16:37.31	8.91	14.20	-41.3	-42.7	19.3	0.00e+00	0	41	0	133169152	54	4184
2026-01-30 00:16:38.89	8.82	14.35	-41.4	-42.8	19.2	0.00e+00	0	40	0	136314880	54	4219
2026-01-30 00:16:39.48	8.79	14.41	-41.4	-42.9	19.2	0.00e+00	0	41	0	137363456	54	4243
2026-01-30 00:16:41.05	8.71	14.57	-41.4	-42.8	19.2	0.00e+00	0	40	0	140509184	54	4222
2026-01-30 00:16:41.63	8.68	14.63	-41.4	-42.8	19.2	0.00e+00	0	41	0	141557760	54	4219
2026-01-30 00:16:43.21	8.60	14.79	-41.4	-42.8	19.2	0.00e+00	0	40	0	144703488	54	4237
2026-01-30 00:16:44.11	8.55	14.88	-41.4	-42.8	19.2	0.00e+00	0	40	0	146800640	54	4221
2026-01-30 00:16:45.12	8.50	14.99	-41.3	-42.7	19.3	0.00e+00	0	40	0	147849216	54	4186
2026-01-30 00:16:46.57	8.42	15.13	-41.5	-43.0	19.1	0.00e+00	0	40	0	150994944	54	4307
2026-01-30 00:16:47.28	8.38	15.21	-41.6	-43.0	19.1	0.00e+00	0	40	0	152043520	54	4322
2026-01-30 00:16:48.57	8.31	15.34	-41.4	-42.9	19.2	0.00e+00	0	40	0	155189248	54	4247
2026-01-30 00:16:49.29	8.27	15.42	-41.5	-42.9	19.1	0.00e+00	0	40	0	156237824	54	4286
2026-01-30 00:16:50.58	8.20	15.55	-41.4	-42.8	19.2	0.00e+00	0	40	0	158334976	54	4234
2026-01-30 00:16:51.29	8.16	15.63	-41.5	-43.0	19.1	0.00e+00	0	40	0	159383552	54	4299
2026-01-30 00:16:52.59	8.08	15.76	-41.4	-42.8	19.2	0.00e+00	0	41	0	162529280	54	4242
2026-01-30 00:16:53.30	8.04	15.84	-41.4	-42.8	19.2	0.00e+00	0	41	0	163577856	54	4229
2026-01-30 00:16:54.59	7.97	15.98	-41.4	-42.8	19.3	0.00e+00	0	41	0	165675008	54	4211
2026-01-30 00:16:55.31	7.93	16.05	-41.4	-42.8	19.3	0.00e+00	0	40	0	167772160	54	4217
2026-01-30 00:16:56.60	7.85	16.19	-41.5	-42.9	19.2	0.00e+00	0	41	0	169869312	54	4254
2026-01-30 00:16:57.67	7.79	16.31	-41.4	-42.8	19.3	0.00e+00	0	41	0	171966464	54	4207
2026-01-30 00:16:58.85	7.72	16.43	-41.4	-42.8	19.3	0.00e+00	0	41	0	174063616	54	4205
2026-01-30 00:16:59.71	7.66	16.53	-41.4	-42.8	19.3	0.00e+00	0	40	0	176160768	54	4212
2026-01-30 00:17:00.86	7.60	16.65	-41.4	-42.8	19.3	0.00e+00	0	40	0	178257920	54	4208
2026-01-30 00:17:01.71	7.54	16.75	-41.4	-42.7	19.3	0.00e+00	0	40	0	179306496	54	4185
2026-01-30 00:17:02.86	7.47	16.87	-41.3	-42.6	19.4	0.00e+00	0	41	0	181403648	54	4136
2026-01-30 00:17:03.72	7.42	16.97	-41.4	-42.8	19.3	0.00e+00	0	40	0	183500800	54	4199
2026-01-30 00:17:04.89	7.35	17.10	-41.4	-42.8	19.3	0.00e+00	0	40	0	185597952	54	4199
2026-01-30 00:17:05.75	7.29	17.19	-41.4	-42.8	19.3	0.00e+00	0	41	0	186646528	54	4195
2026-01-30 00:17:06.90	7.22	17.32	-41.5	-42.9	19.2	0.00e+00	0	41	0	188743680	54	4258
2026-01-30 00:17:07.76	7.17	17.42	-41.4	-42.8	19.3	0.00e+00	0	40	0	190840832	54	4201
2026-01-30 00:17:09.03	7.08	17.56	-41.4	-42.8	19.3	0.00e+00	0	41	0	192937984	54	4213
2026-01-30 00:17:09.75	7.04	17.64	-41.6	-42.9	19.2	0.00e+00	0	41	0	195035136	54	4281
2026-01-30 00:17:11.04	6.95	17.79	-41.4	-42.7	19.4	0.00e+00	0	41	0	197132288	54	4160
2026-01-30 00:17:11.76	6.90	17.87	-41.4	-42.7	19.4	0.00e+00	0	40	0	198180864	54	4178
2026-01-30 00:17:13.05	6.82	18.02	-41.4	-42.7	19.4	0.00e+00	0	40	0	200278016	54	4180
2026-01-30 00:17:13.76	6.77	18.10	-41.4	-42.8	19.3	0.00e+00	0	40	0	202375168	54	4204
2026-01-30 00:17:15.05	6.68	18.25	-41.6	-42.9	19.2	0.00e+00	0	40	0	204472320	54	4271
2026-01-30 00:17:15.77	6.64	18.34	-41.5	-42.8	19.3	0.00e+00	0	40	0	205520896	54	4214
2026-01-30 00:17:17.06	6.55	18.49	-41.4	-42.7	19.4	0.00e+00	0	40	0	208666624	54	4157
2026-01-30 00:17:17.89	6.49	18.58	-41.5	-42.8	19.3	0.00e+00	0	40	0	209715200	54	4211
2026-01-30 00:17:19.33	6.39	18.75	-41.4	-42.7	19.4	0.00e+00	0	41	0	212860928	54	4178
2026-01-30 00:17:20.05	6.34	18.84	-41.5	-42.8	19.3	0.00e+00	0	41	0	213909504	54	4237
2026-01-30 00:17:21.34	6.25	18.99	-41.6	-42.9	19.2	0.00e+00	0	40	0	216006656	54	4276
2026-01-30 00:17:22.05	6.20	19.08	-41.4	-42.7	19.4	0.00e+00	0	41	0	217055232	54	4187
2026-01-30 00:17:23.34	6.10	19.23	-41.4	-42.7	19.4	0.00e+00	0	41	0	220200960	54	4187
2026-01-30 00:17:24.06	6.05	19.32	-41.3	-42.7	19.4	0.00e+00	0	41	0	221249536	54	4158
2026-01-30 00:17:25.35	5.95	19.48	-41.3	-42.6	19.5	0.00e+00	0	41	0	223346688	54	4122
2026-01-30 00:17:26.06	5.90	19.56	-41.3	-42.7	19.4	0.00e+00	0	41	0	225443840	54	4170
2026-01-30 00:17:27.35	5.81	19.72	-41.4	-42.7	19.4	0.00e+00	0	41	0	227540992	54	4189
2026-01-30 00:17:28.07	5.75	19.81	-41.3	-42.6	19.5	0.00e+00	0	41	0	228589568	54	4145
2026-01-30 00:17:29.35	5.65	19.97	-41.3	-42.7	19.5	0.00e+00	0	41	0	231735296	54	4156
2026-01-30 00:17:30.07	5.60	20.06	-41.3	-42.7	19.4	0.00e+00	0	41	0	232783872	54	4182
2026-01-30 00:17:31.47	5.49	20.23	-41.3	-42.7	19.5	0.00e+00	0	41	0	234881024	54	4154
2026-01-30 00:17:32.46	5.41	20.36	-41.3	-42.6	19.5	0.00e+00	0	41	0	236978176	54	4140
2026-01-30 00:17:33.47	5.33	20.48	-41.3	-42.8	19.4	0.00e+00	0	41	0	239075328	54	4196
2026-01-30 00:17:34.47	5.25	20.61	-41.3	-42.7	19.4	0.00e+00	0	41	0	241172480	54	4179
2026-01-30 00:17:35.47	5.17	20.74	-41.2	-42.6	19.6	0.00e+00	0	41	0	242221056	54	4117
2026-01-30 00:17:36.47	5.09	20.86	-41.2	-42.6	19.6	0.00e+00	0	41	0	244318208	54	4102
2026-01-30 00:17:37.48	5.01	20.99	-41.1	-42.5	19.7	0.00e+00	0	41	0	246415360	54	4071
2026-01-30 00:17:38.48	4.93	21.12	-41.2	-42.6	19.6	0.00e+00	0	41	0	248512512	54	4112
2026-01-30 00:17:39.50	4.84	21.25	-41.1	-42.4	19.7	0.00e+00	0	41	0	250609664	54	4028
2026-01-30 00:17:40.50	4.76	21.38	-41.2	-42.5	19.6	0.00e+00	0	41	0	251658240	54	4085
2026-01-30 00:17:41.50	4.68	21.51	-41.2	-42.5	19.7	0.00e+00	0	41	0	253755392	54	4070
2026-01-30 00:17:42.51	4.59	21.65	-41.1	-42.4	19.7	0.00e+00	0	41	0	255852544	54	4026
2026-01-30 00:17:43.51	4.50	21.78	-41.2	-42.5	19.7	0.00e+00	0	41	0	257949696	54	4068
2026-01-30 00:17:44.51	4.42	21.91	-41.2	-42.6	19.6	0.00e+00	0	41	0	260046848	54	4099
2026-01-30 00:17:45.75	4.31	22.08	-41.2	-42.5	19.7	0.00e+00	0	41	0	262144000	54	4075
2026-01-30 00:17:46.64	4.23	22.20	-41.3	-42.5	19.6	0.00e+00	0	41	0	263192576	54	4093
2026-01-30 00:17:47.78	4.13	22.35	-41.3	-42.6	19.6	0.00e+00	0	41	0	265289728	54	4130
2026-01-30 00:17:48.64	4.05	22.47	-41.4	-42.7	19.6	0.00e+00	0	41	0	267386880	54	4146
2026-01-30 00:17:49.79	3.95	22.62	-41.4	-42.7	19.5	0.00e+00	0	41	0	269484032	54	4154
2026-01-30 00:17:50.65	3.87	22.74	-41.4	-42.7	19.4	0.00e+00	0	41	0	271581184	54	4193
2026-01-30 00:17:51.80	3.76	22.90	-41.5	-42.8	19.4	0.00e+00	0	41	0	273678336	54	4221
2026-01-30 00:17:52.66	3.68	23.01	-41.5	-42.9	19.3	0.00e+00	0	41	0	274726912	54	4243
2026-01-30 00:17:53.80	3.57	23.17	-41.6	-42.9	19.2	0.00e+00	0	41	0	276824064	54	4269
2026-01-30 00:17:54.66	3.49	23.29	-41.6	-42.9	19.2	0.00e+00	0	41	0	278921216	54	4291
2026-01-30 00:17:55.81	3.38	23.45	-41.8	-43.1	19.1	0.00e+00	0	41	0	281018368	54	4373
2026-01-30 00:17:56.67	3.30	23.57	-41.8	-43.2	19.0	0.00e+00	0	41	0	282066944	54	4404
2026-01-30 00:17:57.81	3.18	23.73	-41.7	-43.0	19.2	0.00e+00	0	41	0	284164096	54	4334
2026-01-30 00:17:58.68	3.10	23.86	-41.7	-43.1	19.0	0.00e+00	0	41	0	286261248	54	4356
2026-01-30 00:17:59.82	2.98	24.02	-41.8	-43.2	19.1	0.00e+00	0	41	0	288358400	54	4394
2026-01-30 00:18:00.68	2.90	24.14	-41.8	-43.1	19.1	0.00e+00	0	41	0	290455552	54	4377
2026-01-30 00:18:01.83	2.78	24.31	-41.8	-43.2	19.0	0.00e+00	0	41	0	292552704	54	4412
2026-01-30 00:18:02.68	2.69	24.43	-41.9	-43.3	19.0	0.00e+00	0	41	0	293601280	54	4450
2026-01-30 00:18:04.02	2.56	24.63	-41.9	-43.3	18.9	0.00e+00	0	41	0	296747008	54	4475
2026-01-30 00:18:04.74	2.48	24.73	-42.0	-43.4	18.8	0.00e+00	0	41	0	297795584	54	4535
2026-01-30 00:18:06.23	2.32	24.95	-42.1	-43.6	18.7	0.00e+00	0	41	0	299892736	54	4603
2026-01-30 00:18:06.95	2.24	25.06	-42.2	-43.7	18.6	0.00e+00	0	41	0	301989888	55	4399
2026-01-30 00:18:08.24	2.11	25.25	-42.3	-43.8	18.5	0.00e+00	0	41	0	304087040	55	4466
2026-01-30 00:18:08.95	2.03	25.35	-42.3	-43.8	18.4	0.00e+00	0	41	0	305135616	55	4491
2026-01-30 00:18:10.24	1.89	25.55	-42.6	-44.2	18.1	0.00e+00	0	41	0	308281344	55	4655
2026-01-30 00:18:10.96	1.81	25.65	-42.7	-44.2	18.0	0.00e+00	0	41	0	309329920	55	4683
2026-01-30 00:18:12.25	1.66	25.85	-42.9	-44.5	18.0	0.00e+00	0	41	0	311427072	56	4549
2026-01-30 00:18:12.96	1.58	25.96	-43.1	-44.7	17.7	0.00e+00	0	41	0	313524224	56	4704
2026-01-30 00:18:14.25	1.43	26.15	-43.2	-44.9	17.6	0.00e+00	0	41	0	315621376	57	4507
2026-01-30 00:18:15.00	1.35	26.27	-43.3	-45.0	17.4	0.00e+00	0	41	0	316669952	57	4589
2026-01-30 00:18:16.29	1.20	26.47	-43.4	-45.1	17.4	0.00e+00	0	41	0	318767104	57	4607
2026-01-30 00:18:17.01	1.11	26.58	-43.4	-45.1	17.3	0.00e+00	0	41	0	320864256	57	4651
2026-01-30 00:18:18.30	0.96	26.78	-43.5	-45.2	17.2	0.00e+00	0	41	0	322961408	57	4693
2026-01-30 00:18:19.02	0.87	26.89	-43.5	-45.3	17.2	0.00e+00	0	41	0	324009984	57	4727
2026-01-30 00:18:20.30	0.71	27.09	-43.6	-45.4	17.1	0.00e+00	0	41	0	327155712	57	4792
2026-01-30 00:18:21.02	0.62	27.21	-43.7	-45.6	16.9	0.00e+00	0	41	0	328204288	58	4608
2026-01-30 00:18:22.39	0.45	27.42	-43.7	-45.5	16.9	0.00e+00	0	41	0	330301440	58	4594
2026-01-30 00:18:23.11	0.36	27.54	-43.8	-45.6	16.9	0.00e+00	0	41	0	332398592	58	4629
2026-01-30 00:18:24.40	0.20	27.75	-43.8	-45.6	16.8	0.00e+00	0	41	0	334495744	58	4648
2026-01-30 00:18:25.12	0.11	27.86	-43.9	-45.8	16.7	0.00e+00	0	41	0	335544320	58	4728
2026-01-30 00:18:26.41	359.94	28.07	-44.0	-45.9	16.6	0.00e+00	0	41	0	338690048	58	4771
2026-01-30 00:18:27.12	359.85	28.19	-43.9	-45.7	16.8	0.00e+00	0	41	0	339738624	58	4686
2026-01-30 00:18:28.65	359.65	28.44	-44.2	-46.1	16.3	0.00e+00	0	41	0	342884352	59	4644
2026-01-30 00:18:29.37	359.55	28.55	-44.3	-46.2	16.3	0.00e+00	0	41	0	343932928	59	4690
2026-01-30 00:18:30.76	359.36	28.78	-44.5	-46.5	16.0	0.00e+00	0	41	0	346030080	59	4850
2026-01-30 00:18:31.47	359.26	28.90	-44.5	-46.6	15.9	0.00e+00	0	41	0	348127232	59	4900
2026-01-30 00:18:32.76	359.08	29.12	-44.4	-46.5	16.0	0.00e+00	0	41	0	350224384	59	4815
2026-01-30 00:18:33.48	358.98	29.24	-44.6	-46.8	15.7	0.00e+00	0	41	0	351272960	59	5006
2026-01-30 00:18:34.77	358.80	29.46	-44.4	-46.6	15.9	0.00e+00	0	41	0	353370112	59	4891
2026-01-30 00:18:35.49	358.70	29.58	-44.5	-46.7	15.9	0.00e+00	0	41	0	355467264	59	4929
2026-01-30 00:18:36.78	358.51	29.80	-44.3	-46.4	16.1	0.00e+00	0	41	0	357564416	59	4810
2026-01-30 00:18:37.50	358.41	29.92	-44.3	-46.4	16.1	0.00e+00	0	41	0	358612992	59	4784
2026-01-30 00:18:38.78	358.22	30.14	-44.3	-46.4	16.1	0.00e+00	0	41	0	361758720	59	4801
2026-01-30 00:18:39.50	358.11	30.26	-44.3	-46.5	16.1	0.00e+00	0	41	0	362807296	59	4824
2026-01-30 00:18:40.79	357.91	30.49	-44.3	-46.4	16.2	0.00e+00	0	41	0	364904448	59	4775
2026-01-30 00:18:41.60	357.79	30.63	-44.3	-46.4	16.2	0.00e+00	0	41	0	367001600	59	4762
2026-01-30 00:18:42.75	357.61	30.83	-44.4	-46.4	16.1	0.00e+00	0	41	0	369098752	59	4798
2026-01-30 00:18:43.60	357.48	30.98	-44.3	-46.4	16.2	0.00e+00	0	41	0	370147328	59	4771
2026-01-30 00:18:44.75	357.30	31.18	-44.2	-46.1	16.4	0.00e+00	0	41	0	372244480	59	4649
2026-01-30 00:18:45.61	357.16	31.34	-44.1	-46.1	16.5	0.00e+00	0	41	0	374341632	59	4610
2026-01-30 00:18:46.76	356.97	31.54	-44.0	-45.9	16.6	0.00e+00	0	41	0	376438784	59	4510
2026-01-30 00:18:47.62	356.83	31.70	-43.9	-45.8	16.7	0.00e+00	0	41	0	377487360	59	4474
2026-01-30 00:18:48.80	356.64	31.91	-44.0	-45.9	16.7	0.00e+00	0	41	0	380633088	59	4507
2026-01-30 00:18:49.66	356.49	32.06	-44.0	-45.8	16.7	0.00e+00	0	41	0	381681664	59	4482
2026-01-30 00:18:50.80	356.30	32.27	-44.0	-45.8	16.7	0.00e+00	0	41	0	383778816	59	4486
2026-01-30 00:18:51.66	356.15	32.43	-44.0	-45.8	16.7	0.00e+00	0	41	0	385875968	59	4492
2026-01-30 00:18:52.81	355.96	32.64	-44.0	-45.9	16.7	0.00e+00	0	41	0	387973120	59	4497
2026-01-30 00:18:53.67	355.80	32.80	-44.0	-45.9	16.6	0.00e+00	0	41	0	389021696	59	4536
2026-01-30 00:18:55.01	355.57	33.05	-44.1	-46.1	16.4	0.00e+00	0	41	0	392167424	59	4639
2026-01-30 00:18:55.73	355.44	33.18	-44.0	-46.1	16.5	0.00e+00	0	41	0	393216000	59	4614
2026-01-30 00:18:57.17	355.18	33.45	-44.1	-46.2	16.3	0.00e+00	0	41	0	396361728	59	4696
2026-01-30 00:18:57.89	355.04	33.58	-43.9	-46.0	16.5	0.00e+00	0	41	0	397410304	59	4555
2026-01-30 00:18:59.18	354.80	33.83	-43.7	-45.8	16.7	0.00e+00	0	41	0	399507456	59	4464
2026-01-30 00:18:59.89	354.67	33.96	-43.6	-45.6	16.9	0.00e+00	0	41	0	400556032	59	4387
2026-01-30 00:19:01.18	354.42	34.21	-43.7	-45.7	16.8	0.00e+00	0	41	0	403701760	59	4432
2026-01-30 00:19:01.90	354.28	34.34	-43.8	-45.7	16.9	0.00e+00	0	41	0	404750336	59	4414
2026-01-30 00:19:03.19	354.03	34.59	-44.0	-46.0	16.6	0.00e+00	0	41	0	406847488	59	4554
2026-01-30 00:19:03.91	353.89	34.73	-44.1	-46.1	16.5	0.00e+00	0	41	0	408944640	59	4611
2026-01-30 00:19:05.19	353.63	34.98	-44.2	-46.2	16.4	0.00e+00	0	41	0	411041792	59	4677
2026-01-30 00:19:05.99	353.47	35.13	-44.3	-46.4	16.2	0.00e+00	0	41	0	412090368	59	4763
2026-01-30 00:19:07.14	353.24	35.36	-44.5	-46.6	16.0	0.00e+00	0	41	0	414187520	59	4875
2026-01-30 00:19:08.00	353.06	35.53	-44.7	-46.8	15.8	0.00e+00	0	41	0	416284672	59	5041
2026-01-30 00:19:09.14	352.82	35.75	-44.8	-47.1	15.5	0.00e+00	0	41	0	418381824	60	4892
2026-01-30 00:19:10.00	352.63	35.92	-44.8	-47.1	15.5	0.00e+00	0	41	0	420478976	60	4914
2026-01-30 00:19:11.15	352.39	36.15	-45.1	-47.6	15.0	0.00e+00	0	41	0	422576128	60	5173
2026-01-30 00:19:12.01	352.20	36.32	-45.2	-47.7	14.9	0.00e+00	0	41	0	423624704	60	5249
2026-01-30 00:19:13.22	351.93	36.56	-45.1	-47.6	15.0	0.00e+00	0	41	0	425721856	60	5207
2026-01-30 00:19:14.07	351.74	36.73	-45.1	-47.6	15.0	7.00e-07	0	41	0	427819008	60	5166
2026-01-30 00:19:15.22	351.48	36.96	-45.0	-47.5	15.1	0.00e+00	0	41	0	429916160	60	5148
2026-01-30 00:19:16.08	351.28	37.14	-45.1	-47.7	15.0	0.00e+00	0	41	0	430964736	60	5221
2026-01-30 00:19:17.40	350.98	37.40	-45.1	-47.8	14.8	0.00e+00	0	41	0	434110464	61	5007
2026-01-30 00:19:18.11	350.81	37.55	-45.1	-47.8	14.8	0.00e+00	0	41	0	435159040	61	5028
2026-01-30 00:19:19.61	350.45	37.85	-44.8	-47.5	15.1	0.00e+00	0	41	0	438304768	61	4828
2026-01-30 00:19:20.33	350.28	38.00	-44.7	-47.3	15.2	0.00e+00	0	41	0	439353344	61	4756
2026-01-30 00:19:21.62	349.96	38.27	-44.5	-47.0	15.4	0.00e+00	0	41	0	441450496	61	4548
2026-01-30 00:19:22.33	349.78	38.41	-44.5	-47.0	15.6	0.00e+00	0	41	0	443547648	60	4826
2026-01-30 00:19:23.75	349.42	38.70	-44.8	-47.4	15.2	0.00e+00	0	41	0	445644800	60	5049
2026-01-30 00:19:24.47	349.24	38.85	-45.0	-47.6	15.0	0.00e+00	0	41	0	446693376	60	5163
2026-01-30 00:19:25.76	348.91	39.12	-45.3	-47.8	14.8	0.00e+00	0	41	0	449839104	61	5004
2026-01-30 00:19:26.47	348.72	39.27	-45.3	-47.8	14.7	0.00e+00	0	41	0	450887680	61	4999
2026-01-30 00:19:27.76	348.38	39.54	-45.3	-47.7	14.9	0.00e+00	0	41	0	452984832	61	4948
2026-01-30 00:19:28.48	348.18	39.69	-45.3	-47.7	14.9	7.00e-07	0	41	0	455081984	61	4941
2026-01-30 00:19:29.77	347.83	39.96	-45.4	-47.8	14.8	0.00e+00	0	41	0	457179136	61	5027
2026-01-30 00:19:30.48	347.64	40.11	-45.5	-48.0	14.5	7.00e-07	0	41	0	458227712	61	5156
2026-01-30 00:19:31.77	347.27	40.38	-45.5	-48.1	14.4	7.00e-07	0	41	0	460324864	61	5198
2026-01-30 00:19:32.55	347.05	40.55	-45.6	-48.2	14.4	0.00e+00	0	41	0	462422016	61	5262
2026-01-30 00:19:33.84	346.68	40.82	-45.6	-48.3	14.3	1.50e-06	0	41	0	464519168	62	5013
2026-01-30 00:19:34.64	346.45	40.99	-45.4	-48.1	14.5	0.00e+00	0	41	0	466616320	62	4888
2026-01-30 00:19:36.09	346.02	41.30	-45.3	-48.1	14.5	0.00e+00	0	41	0	468713472	62	4888
2026-01-30 00:19:36.81	345.80	41.46	-45.2	-48.0	14.6	0.00e+00	0	41	0	469762048	62	4848
2026-01-30 00:19:38.10	345.41	41.73	-45.0	-47.7	14.9	0.00e+00	0	41	0	472907776	62	4661
2026-01-30 00:19:38.81	345.19	41.88	-44.8	-47.3	15.3	0.00e+00	0	41	0	473956352	61	4719
2026-01-30 00:19:40.10	344.79	42.16	-44.3	-46.4	16.2	0.00e+00	0	41	0	476053504	60	4506
2026-01-30 00:19:40.90	344.53	42.33	-44.3	-46.3	16.3	0.00e+00	0	41	0	478150656	60	4481
2026-01-30 00:19:42.07	344.16	42.58	-44.3	-46.3	16.3	0.00e+00	0	41	0	480247808	60	4488
2026-01-30 00:19:42.93	343.88	42.77	-44.4	-46.4	16.2	0.00e+00	0	41	0	481296384	60	4524
2026-01-30 00:19:44.08	343.50	43.02	-44.2	-46.2	16.4	0.00e+00	0	41	0	484442112	60	4416
2026-01-30 00:19:45.18	343.13	43.25	-44.1	-46.0	16.5	0.00e+00	0	41	0	485490688	60	4338
2026-01-30 00:19:46.21	342.78	43.48	-44.0	-45.9	16.7	0.00e+00	0	41	0	487587840	59	4498
2026-01-30 00:19:47.22	342.43	43.69	-43.9	-45.8	16.7	0.00e+00	0	41	0	489684992	59	4463
2026-01-30 00:19:48.22	342.08	43.91	-43.8	-45.7	16.8	0.00e+00	0	41	0	491782144	59	4424
2026-01-30 00:19:49.45	341.64	44.17	-43.7	-45.7	16.9	0.00e+00	0	41	0	493879296	59	4426
2026-01-30 00:19:50.31	341.33	44.36	-43.6	-45.6	16.8	0.00e+00	0	41	0	495976448	59	4349
2026-01-30 00:19:51.45	340.91	44.61	-43.8	-45.8	16.8	0.00e+00	0	41	0	498073600	59	4465
2026-01-30 00:19:52.31	340.59	44.79	-43.9	-45.9	16.6	0.00e+00	0	41	0	499122176	59	4540
2026-01-30 00:19:53.45	340.17	45.04	-44.1	-46.2	16.4	0.00e+00	0	41	0	501219328	59	4689
2026-01-30 00:19:54.31	339.84	45.22	-44.2	-46.3	16.2	0.00e+00	0	41	0	503316480	59	4729
2026-01-30 00:19:55.46	339.39	45.47	-44.4	-46.6	16.0	0.00e+00	0	41	0	505413632	59	4884
2026-01-30 00:19:56.32	339.06	45.65	-44.5	-46.7	15.8	0.00e+00	0	41	0	506462208	59	4953
2026-01-30 00:19:57.47	338.60	45.90	-44.6	-46.7	15.8	0.00e+00	0	41	0	508559360	59	4976
2026-01-30 00:19:58.32	338.26	46.08	-44.6	-46.8	15.9	0.00e+00	0	41	0	510656512	60	4711
2026-01-30 00:19:59.47	337.79	46.32	-44.6	-46.7	15.9	0.00e+00	0	41	0	512753664	60	4678
2026-01-30 00:20:00.33	337.44	46.51	-44.7	-46.8	15.7	0.00e+00	0	41	0	514850816	60	4758
2026-01-30 00:20:01.47	336.96	46.75	-44.6	-46.8	15.8	0.00e+00	0	41	0	516947968	60	4744
2026-01-30 00:20:02.33	336.59	46.93	-44.6	-46.7	15.9	0.00e+00	0	41	0	517996544	60	4697
2026-01-30 00:20:03.48	336.10	47.17	-44.6	-46.7	15.9	0.00e+00	0	41	0	520093696	60	4683
2026-01-30 00:20:04.34	335.72	47.35	-44.5	-46.7	16.0	0.00e+00	0	41	0	522190848	60	4675
2026-01-30 00:20:05.65	335.14	47.63	-44.8	-47.1	15.4	0.00e+00	0	41	0	524288000	60	4915
2026-01-30 00:20:06.37	334.82	47.78	-44.9	-47.2	15.4	0.00e+00	0	41	0	525336576	60	4960
2026-01-30 00:20:07.66	334.23	48.04	-44.9	-47.3	15.3	0.00e+00	0	41	0	528482304	60	5000
2026-01-30 00:20:08.38	333.90	48.19	-45.0	-47.4	15.2	0.00e+00	0	41	0	529530880	60	5070
2026-01-30 00:20:09.67	333.29	48.46	-45.2	-47.7	14.9	0.00e+00	0	41	0	531628032	61	4937
2026-01-30 00:20:10.38	332.96	48.60	-45.2	-47.7	14.9	7.00e-07	0	41	0	533725184	61	4977
2026-01-30 00:20:12.04	332.16	48.94	-44.9	-47.3	15.3	0.00e+00	0	41	0	535822336	61	4726
2026-01-30 00:20:12.61	331.88	49.05	-44.7	-47.1	15.6	0.00e+00	0	41	0	536870912	61	4615
2026-01-30 00:20:14.19	331.10	49.37	-44.4	-46.6	16.1	0.00e+00	0	41	0	540016640	60	4607
2026-01-30 00:20:15.00	330.69	49.53	-44.1	-46.2	16.4	0.00e+00	0	41	0	542113792	60	4426
2026-01-30 00:20:16.14	330.11	49.75	-43.9	-45.8	16.7	0.00e+00	0	41	0	544210944	59	4470
2026-01-30 00:20:17.31	329.50	49.98	-43.8	-45.7	16.8	0.00e+00	0	41	0	546308096	59	4426
2026-01-30 00:20:18.34	328.96	50.18	-43.8	-45.6	17.0	0.00e+00	0	41	0	548405248	59	4377
2026-01-30 00:20:19.35	328.42	50.37	-43.7	-45.4	17.2	0.00e+00	0	41	0	550502400	59	4265
2026-01-30 00:20:20.56	327.77	50.60	-43.4	-45.1	17.5	0.00e+00	0	41	0	552599552	58	4345
2026-01-30 00:20:21.41	327.31	50.76	-43.1	-44.7	17.9	0.00e+00	0	41	0	553648128	58	4155
2026-01-30 00:20:22.56	326.67	50.97	-42.8	-44.3	18.2	0.00e+00	0	41	0	555745280	57	4237
2026-01-30 00:20:23.42	326.19	51.13	-42.5	-43.9	18.6	0.00e+00	0	41	0	557842432	57	4030
2026-01-30 00:20:24.57	325.54	51.33	-42.0	-43.4	19.1	0.00e+00	0	41	0	559939584	56	4017
2026-01-30 00:20:25.43	325.04	51.49	-41.6	-42.9	19.4	0.00e+00	0	41	0	560988160	55	4045
2026-01-30 00:20:26.57	324.38	51.69	-41.7	-43.0	19.3	0.00e+00	0	41	0	563085312	55	4069
2026-01-30 00:20:27.43	323.88	51.84	-41.6	-42.9	19.4	0.00e+00	0	41	0	565182464	54	4249
2026-01-30 00:20:28.58	323.19	52.03	-41.5	-42.8	19.5	0.00e+00	0	41	0	567279616	54	4209
2026-01-30 00:20:29.72	322.51	52.22	-41.4	-42.6	19.6	0.00e+00	0	41	0	569376768	54	4128
2026-01-30 00:20:30.58	321.98	52.37	-41.4	-42.7	19.7	0.00e+00	0	41	0	571473920	54	4151
2026-01-30 00:20:31.73	321.27	52.55	-41.5	-42.7	19.6	0.00e+00	0	41	0	573571072	54	4190
2026-01-30 00:20:32.59	320.74	52.69	-41.6	-42.9	19.5	0.00e+00	0	41	0	574619648	54	4250
2026-01-30 00:20:33.73	320.02	52.87	-41.1	-42.3	20.0	0.00e+00	0	41	0	576716800	54	3985
2026-01-30 00:20:34.59	319.47	53.00	-41.1	-42.2	20.0	0.00e+00	0	41	0	578813952	54	3958
2026-01-30 00:20:35.74	318.73	53.17	-41.4	-42.6	19.7	0.00e+00	0	41	0	580911104	53	4388
2026-01-30 00:20:36.60	318.18	53.30	-41.5	-42.7	19.6	0.00e+00	0	41	0	581959680	53	4439
2026-01-30 00:20:37.74	317.43	53.46	-41.7	-43.0	19.4	0.00e+00	0	41	0	584056832	53	4546
2026-01-30 00:20:38.60	316.86	53.58	-41.7	-43.0	19.3	0.00e+00	0	41	0	586153984	54	4325
2026-01-30 00:20:39.75	316.09	53.73	-42.1	-43.5	18.9	0.00e+00	0	41	0	588251136	54	4557
2026-01-30 00:20:40.61	315.51	53.85	-42.4	-43.8	18.5	0.00e+00	0	41	0	590348288	55	4476
2026-01-30 00:20:41.75	314.73	53.99	-42.9	-44.4	18.2	0.00e+00	0	41	0	592445440	56	4522
2026-01-30 00:20:42.61	314.14	54.10	-43.0	-44.6	17.9	0.00e+00	0	41	0	593494016	56	4636
2026-01-30 00:20:43.75	313.35	54.24	-42.9	-44.5	18.1	0.00e+00	0	41	0	595591168	56	4546
2026-01-30 00:20:44.62	312.74	54.34	-42.6	-44.2	18.4	0.00e+00	0	41	0	597688320	56	4393
2026-01-30 00:20:45.76	311.94	54.47	-42.3	-43.8	18.7	0.00e+00	0	41	0	599785472	56	4194
2026-01-30 00:20:46.62	311.33	54.56	-42.4	-43.8	18.7	0.00e+00	0	41	0	600834048	56	4216
2026-01-30 00:20:47.77	310.50	54.68	-42.1	-43.4	19.2	0.00e+00	0	41	0	602931200	56	4022
2026-01-30 00:20:48.62	309.89	54.77	-41.8	-43.0	19.3	0.00e+00	0	41	0	605028352	55	4089
2026-01-30 00:20:49.79	309.04	54.88	-41.1	-42.3	20.0	0.00e+00	0	41	0	607125504	54	3981
2026-01-30 00:20:50.65	308.41	54.96	-41.3	-42.5	19.8	0.00e+00	0	41	0	609222656	54	4076
2026-01-30 00:20:51.79	307.57	55.06	-41.5	-42.8	19.5	0.00e+00	0	41	0	611319808	54	4216
2026-01-30 00:20:52.65	306.94	55.13	-41.6	-42.8	19.6	0.00e+00	0	41	0	612368384	54	4230
2026-01-30 00:20:53.93	305.98	55.22	-41.3	-42.5	19.8	0.00e+00	0	41	0	614465536	54	4080
2026-01-30 00:20:54.64	305.45	55.28	-41.2	-42.4	19.9	0.00e+00	0	41	0	616562688	54	4039
2026-01-30 00:20:56.14	304.32	55.38	-40.9	-42.1	20.2	0.00e+00	0	41	0	618659840	53	4125
2026-01-30 00:20:56.86	303.78	55.42	-41.0	-42.1	20.1	0.00e+00	0	41	0	620756992	53	4136
2026-01-30 00:20:58.14	302.81	55.49	-40.9	-42.0	20.3	0.00e+00	0	41	0	622854144	53	4071
2026-01-30 00:20:58.86	302.26	55.53	-40.7	-41.8	20.5	0.00e+00	0	41	0	623902720	53	3992
2026-01-30 00:21:00.15	301.27	55.59	-40.3	-41.3	20.9	0.00e+00	0	41	0	625999872	52	3996
2026-01-30 00:21:00.86	300.72	55.62	-40.3	-41.3	20.9	0.00e+00	0	41	0	628097024	52	3992
2026-01-30 00:21:02.15	299.73	55.67	-40.3	-41.3	20.9	0.00e+00	0	41	0	630194176	52	3988
2026-01-30 00:21:02.87	299.18	55.69	-40.3	-41.4	20.8	0.00e+00	0	41	0	631242752	52	4012
2026-01-30 00:21:04.16	298.18	55.72	-40.1	-41.2	21.0	0.00e+00	0	41	0	634388480	52	3935
2026-01-30 00:21:04.87	297.63	55.74	-40.3	-41.4	20.9	0.00e+00	0	41	0	635437056	52	4017
2026-01-30 00:21:06.16	296.63	55.76	-40.0	-41.0	21.2	0.00e+00	0	41	0	637534208	51	4073
2026-01-30 00:21:06.88	296.07	55.77	-40.0	-41.1	21.3	0.00e+00	0	41	0	639631360	51	4100
2026-01-30 00:21:08.17	295.07	55.77	-40.1	-41.1	21.2	0.00e+00	0	41	0	641728512	51	4137
2026-01-30 00:21:08.88	294.51	55.78	-40.2	-41.2	21.1	0.00e+00	0	41	0	642777088	51	4186
2026-01-30 00:21:10.17	293.51	55.77	-40.2	-41.2	21.1	0.00e+00	0	41	0	644874240	51	4161
2026-01-30 00:21:10.89	292.95	55.76	-40.2	-41.2	21.0	0.00e+00	0	41	0	646971392	51	4160
2026-01-30 00:21:12.18	291.95	55.74	-40.3	-41.4	20.9	0.00e+00	0	41	0	649068544	51	4262
2026-01-30 00:21:12.90	291.39	55.73	-40.5	-41.6	20.8	0.00e+00	0	41	0	650117120	51	4344
2026-01-30 00:21:14.19	290.39	55.70	-40.5	-41.6	20.7	0.00e+00	0	41	0	653262848	51	4380
2026-01-30 00:21:14.90	289.85	55.67	-40.7	-41.9	20.4	0.00e+00	0	41	0	654311424	52	4262
2026-01-30 00:21:16.43	288.67	55.62	-41.0	-42.1	20.1	0.00e+00	0	41	0	657457152	52	4378
2026-01-30 00:21:17.15	288.11	55.59	-41.0	-42.2	20.1	0.00e+00	0	41	0	658505728	52	4418
2026-01-30 00:21:18.47	287.10	55.53	-40.8	-42.0	20.3	0.00e+00	0	41	0	660602880	52	4293
2026-01-30 00:21:19.18	286.56	55.49	-40.6	-41.7	20.5	0.00e+00	0	41	0	662700032	52	4190
2026-01-30 00:21:20.52	285.54	55.41	-40.3	-41.4	20.9	0.00e+00	0	41	0	664797184	52	4009
2026-01-30 00:21:21.23	285.01	55.37	-40.0	-41.0	21.2	0.00e+00	0	41	0	665845760	52	3866
2026-01-30 00:21:22.56	284.00	55.28	-40.0	-41.0	21.2	0.00e+00	0	41	0	668991488	52	3853
2026-01-30 00:21:23.27	283.47	55.23	-39.8	-40.7	21.5	0.00e+00	0	41	0	670040064	51	3951
2026-01-30 00:21:24.59	282.49	55.13	-39.2	-40.2	22.0	0.00e+00	0	41	0	672137216	50	3914
2026-01-30 00:21:25.31	281.96	55.07	-39.2	-40.2	22.0	0.00e+00	0	41	0	673185792	50	3918
2026-01-30 00:21:26.69	280.94	54.95	-39.0	-39.9	22.2	0.00e+00	0	41	0	676331520	49	4039
2026-01-30 00:21:27.41	280.41	54.88	-39.1	-40.0	22.1	0.00e+00	0	41	0	677380096	49	4085
2026-01-30 00:21:28.75	279.44	54.76	-39.0	-39.9	22.3	0.00e+00	0	41	0	680525824	49	4021
2026-01-30 00:21:29.46	278.93	54.68	-39.1	-39.9	22.2	0.00e+00	0	41	0	681574400	49	4050
2026-01-30 00:21:30.75	278.00	54.55	-39.0	-39.9	22.3	0.00e+00	0	41	0	683671552	49	4031
2026-01-30 00:21:31.47	277.49	54.47	-39.1	-40.0	22.2	0.00e+00	0	41	0	684720128	49	4069
2026-01-30 00:21:32.76	276.58	54.33	-38.8	-39.7	22.4	0.00e+00	0	41	0	687865856	49	3932
2026-01-30 00:21:33.48	276.08	54.24	-39.0	-39.9	22.2	0.00e+00	0	41	0	688914432	49	4024
2026-01-30 00:21:34.77	275.18	54.09	-39.4	-40.3	21.8	0.00e+00	0	41	0	691011584	49	4242
2026-01-30 00:21:35.48	274.69	54.00	-39.6	-40.6	21.7	0.00e+00	0	41	0	693108736	49	4350
2026-01-30 00:21:36.77	273.81	53.83	-39.7	-40.7	21.6	0.00e+00	0	41	0	695205888	49	4397
2026-01-30 00:21:37.49	273.32	53.73	-39.8	-40.8	21.5	0.00e+00	0	41	0	696254464	50	4203
2026-01-30 00:21:38.78	272.46	53.56	-40.3	-41.4	20.9	0.00e+00	0	41	0	699400192	51	4246
2026-01-30 00:21:39.59	271.92	53.45	-40.6	-41.7	20.6	0.00e+00	0	41	0	700448768	51	4411
2026-01-30 00:21:40.74	271.17	53.28	-40.7	-41.8	20.4	0.00e+00	0	41	0	702545920	52	4242
2026-01-30 00:21:41.60	270.61	53.15	-40.7	-41.8	20.4	0.00e+00	0	41	0	704643072	52	4234
2026-01-30 00:21:42.75	269.87	52.98	-41.2	-42.4	19.8	0.00e+00	0	41	0	706740224	53	4275
2026-01-30 00:21:43.60	269.33	52.85	-41.5	-42.8	19.5	0.00e+00	0	41	0	707788800	53	4471
2026-01-30 00:21:44.75	268.60	52.67	-41.6	-42.9	19.4	0.00e+00	0	41	0	709885952	54	4251
2026-01-30 00:21:45.61	268.07	52.53	-41.4	-42.7	19.6	0.00e+00	0	41	0	711983104	54	4160
2026-01-30 00:21:46.76	267.36	52.35	-41.5	-42.8	19.5	0.00e+00	0	41	0	714080256	54	4215
2026-01-30 00:21:47.62	266.83	52.21	-41.3	-42.6	19.7	0.00e+00	0	41	0	715128832	54	4109
2026-01-30 00:21:48.76	266.15	52.01	-41.4	-42.6	19.7	0.00e+00	0	41	0	717225984	54	4117
2026-01-30 00:21:49.62	265.63	51.87	-41.4	-42.6	19.7	0.00e+00	0	41	0	719323136	54	4138
2026-01-30 00:21:50.77	264.96	51.67	-41.9	-43.2	19.2	0.00e+00	0	41	0	721420288	54	4392
2026-01-30 00:21:51.63	264.45	51.52	-42.0	-43.3	19.0	0.00e+00	0	41	0	722468864	54	4471
2026-01-30 00:21:52.77	263.80	51.31	-42.0	-43.4	19.0	0.00e+00	0	41	0	725614592	54	4498
2026-01-30 00:21:53.63	263.31	51.16	-41.7	-43.0	19.3	0.00e+00	0	41	0	726663168	54	4315
2026-01-30 00:21:54.78	262.66	50.95	-41.7	-43.0	19.4	0.00e+00	0	41	0	728760320	54	4295
2026-01-30 00:21:55.64	262.19	50.79	-41.7	-43.0	19.3	0.00e+00	0	41	0	730857472	54	4339
2026-01-30 00:21:57.15	261.36	50.50	-42.0	-43.4	19.0	0.00e+00	0	41	0	732954624	54	4510
2026-01-30 00:21:57.86	260.98	50.37	-42.4	-43.9	18.4	0.00e+00	0	42	0	735051776	55	4518
2026-01-30 00:21:59.15	260.29	50.12	-43.3	-44.9	17.6	0.00e+00	0	41	0	737148928	57	4541
2026-01-30 00:21:59.88	259.91	49.98	-43.4	-45.1	17.4	0.00e+00	0	42	0	738197504	57	4642
2026-01-30 00:22:01.17	259.24	49.73	-43.4	-45.2	17.4	0.00e+00	0	41	0	741343232	57	4680
2026-01-30 00:22:01.89	258.87	49.59	-43.1	-44.8	17.8	0.00e+00	0	42	0	742391808	57	4445
2026-01-30 00:22:03.18	258.22	49.33	-43.3	-44.9	17.6	0.00e+00	0	41	0	744488960	57	4536
2026-01-30 00:22:03.89	257.86	49.19	-43.2	-44.7	17.8	0.00e+00	0	41	0	745537536	57	4435
2026-01-30 00:22:05.18	257.23	48.93	-43.7	-45.4	17.1	0.00e+00	0	41	0	748683264	58	4528
2026-01-30 00:22:05.90	256.88	48.79	-43.8	-45.6	16.9	0.00e+00	0	41	0	749731840	58	4643
2026-01-30 00:22:07.19	256.26	48.52	-44.9	-47.2	15.4	0.00e+00	0	41	0	751828992	60	4931
2026-01-30 00:22:07.91	255.92	48.37	-45.0	-47.4	15.1	0.00e+00	0	41	0	753926144	60	5074
2026-01-30 00:22:09.19	255.32	48.11	-45.3	-47.8	14.8	0.00e+00	0	41	0	756023296	61	4997
2026-01-30 00:22:09.91	254.99	47.96	-45.5	-48.1	14.5	7.00e-07	0	41	0	757071872	61	5211
2026-01-30 00:22:11.20	254.41	47.69	-45.7	-48.5	14.2	1.50e-06	0	41	0	760217600	62	5113
2026-01-30 00:22:11.91	254.09	47.54	-45.6	-48.4	14.2	0.00e+00	0	41	0	761266176	62	5071
2026-01-30 00:22:13.20	253.52	47.27	-45.9	-48.8	13.8	2.20e-06	0	41	0	763363328	62	5325
2026-01-30 00:22:13.92	253.20	47.12	-45.8	-48.7	13.9	5.30e-06	0	41	0	764411904	62	5264
2026-01-30 00:22:15.21	252.65	46.85	-45.6	-48.2	14.3	1.50e-06	0	41	0	767557632	62	4978
2026-01-30 00:22:15.99	252.32	46.68	-45.5	-48.1	14.5	7.00e-07	0	42	0	768606208	62	4899
2026-01-30 00:22:17.28	251.78	46.41	-45.8	-48.7	13.9	1.50e-06	0	41	0	770703360	62	5256
2026-01-30 00:22:18.00	251.48	46.26	-46.0	-49.0	13.6	7.60e-06	0	41	0	772800512	62	5407
2026-01-30 00:22:19.28	250.96	45.98	-45.6	-48.4	14.2	1.06e-05	0	41	0	774897664	62	5055
2026-01-30 00:22:20.16	250.60	45.79	-45.4	-48.0	14.6	7.00e-07	0	41	0	776994816	62	4836
2026-01-30 00:22:21.62	250.03	45.48	-45.2	-47.7	14.9	7.00e-07	0	41	0	779091968	62	4666
2026-01-30 00:22:22.34	249.75	45.32	-45.1	-47.5	15.0	0.00e+00	0	41	0	780140544	62	4583
2026-01-30 00:22:23.63	249.25	45.05	-45.0	-47.3	15.3	0.00e+00	0	41	0	783286272	61	4723
2026-01-30 00:22:24.35	248.98	44.89	-45.0	-47.3	15.4	0.00e+00	0	41	0	784334848	61	4712
2026-01-30 00:22:25.64	248.50	44.61	-44.9	-47.1	15.4	0.00e+00	0	41	0	786432000	61	4640
2026-01-30 00:22:26.35	248.24	44.46	-44.7	-46.9	15.7	0.00e+00	0	41	0	788529152	61	4536
2026-01-30 00:22:27.64	247.77	44.18	-44.4	-46.5	16.1	0.00e+00	0	41	0	790626304	60	4550
2026-01-30 00:22:28.36	247.51	44.02	-44.1	-46.0	16.5	0.00e+00	0	41	0	791674880	60	4320
2026-01-30 00:22:29.65	247.05	43.74	-44.1	-46.0	16.6	0.00e+00	0	41	0	794820608	60	4331
2026-01-30 00:22:30.37	246.80	43.59	-44.0	-45.9	16.7	0.00e+00	0	41	0	795869184	60	4263
2026-01-30 00:22:31.66	246.36	43.31	-44.1	-46.0	16.6	0.00e+00	0	41	0	797966336	60	4335
2026-01-30 00:22:32.37	246.12	43.16	-44.3	-46.2	16.4	0.00e+00	0	41	0	799014912	60	4420
2026-01-30 00:22:33.66	245.69	42.88	-44.4	-46.4	16.2	0.00e+00	0	41	0	802160640	60	4543
2026-01-30 00:22:34.38	245.45	42.72	-44.4	-46.4	16.2	0.00e+00	0	41	0	803209216	60	4519
2026-01-30 00:22:35.67	245.03	42.44	-44.4	-46.4	16.2	0.00e+00	0	41	0	805306368	60	4529
2026-01-30 00:22:36.38	244.80	42.29	-44.3	-46.3	16.3	0.00e+00	0	41	0	807403520	60	4451
2026-01-30 00:22:37.75	244.37	41.99	-44.5	-46.6	16.0	0.00e+00	0	41	0	809500672	60	4627
2026-01-30 00:22:38.72	244.06	41.78	-44.6	-46.7	15.9	0.00e+00	0	41	0	811597824	60	4684
2026-01-30 00:22:39.72	243.75	41.57	-44.7	-46.9	15.7	0.00e+00	0	41	0	813694976	60	4798
2026-01-30 00:22:40.73	243.45	41.35	-45.0	-47.3	15.2	0.00e+00	0	41	0	814743552	60	5012
2026-01-30 00:22:41.73	243.15	41.14	-45.1	-47.6	15.0	0.00e+00	0	41	0	816840704	60	5172
2026-01-30 00:22:42.74	242.85	40.92	-45.2	-47.7	14.8	7.00e-07	0	41	0	818937856	61	4976
2026-01-30 00:22:43.74	242.56	40.71	-45.2	-47.8	14.8	0.00e+00	0	41	0	821035008	61	4998
2026-01-30 00:22:44.75	242.27	40.49	-45.3	-47.9	14.6	0.00e+00	0	41	0	823132160	61	5063
2026-01-30 00:22:45.75	241.98	40.28	-45.7	-48.6	13.9	7.00e-07	0	41	0	824180736	62	5179
2026-01-30 00:22:46.75	241.70	40.07	-45.7	-48.4	14.1	7.00e-07	0	41	0	826277888	62	5092
2026-01-30 00:22:47.75	241.43	39.86	-45.5	-48.0	14.5	0.00e+00	0	41	0	828375040	62	4869
2026-01-30 00:22:48.76	241.15	39.65	-45.3	-47.8	14.8	7.00e-07	0	41	0	830472192	62	4718
2026-01-30 00:22:49.76	240.88	39.44	-45.1	-47.6	15.0	0.00e+00	0	41	0	831520768	62	4601
2026-01-30 00:22:50.76	240.61	39.23	-45.1	-47.4	15.1	0.00e+00	0	41	0	833617920	62	4531
2026-01-30 00:22:51.76	240.35	39.02	-45.1	-47.5	15.0	0.00e+00	0	41	0	835715072	61	4830
2026-01-30 00:22:52.76	240.09	38.81	-45.1	-47.4	15.1	0.00e+00	0	41	0	837812224	61	4814
2026-01-30 00:22:53.77	239.83	38.60	-45.4	-47.9	14.6	0.00e+00	0	41	0	839909376	61	5086
2026-01-30 00:22:54.77	239.58	38.39	-45.5	-48.2	14.4	0.00e+00	0	41	0	840957952	61	5232
2026-01-30 00:22:55.77	239.33	38.18	-45.4	-48.1	14.4	1.50e-06	0	41	0	843055104	61	5167
2026-01-30 00:22:56.78	239.08	37.97	-45.1	-47.6	14.8	7.00e-07	0	41	0	845152256	61	4884
2026-01-30 00:22:57.78	238.84	37.77	-45.0	-47.3	15.1	0.00e+00	0	41	0	847249408	61	4749
2026-01-30 00:22:58.78	238.60	37.56	-44.6	-46.8	15.6	0.00e+00	0	41	0	849346560	61	4481
2026-01-30 00:22:59.85	238.35	37.35	-44.8	-47.1	15.5	0.00e+00	0	42	0	851443712	61	4612
2026-01-30 00:23:00.75	238.13	37.16	-44.7	-46.9	15.7	0.00e+00	0	41	0	852492288	61	4505
2026-01-30 00:23:01.80	237.89	36.95	-44.5	-46.6	15.9	0.00e+00	0	41	0	854589440	61	4375
2026-01-30 00:23:02.85	237.65	36.74	-44.5	-46.6	15.9	0.00e+00	0	41	0	856686592	60	4629
2026-01-30 00:23:03.85	237.43	36.54	-44.5	-46.6	16.0	0.00e+00	0	41	0	858783744	60	4608
2026-01-30 00:23:04.98	237.18	36.31	-44.5	-46.6	15.9	0.00e+00	0	41	0	860880896	60	4641
2026-01-30 00:23:05.85	236.98	36.14	-44.8	-47.1	15.5	0.00e+00	0	41	0	861929472	60	4880
2026-01-30 00:23:07.00	236.74	35.91	-44.8	-47.1	15.4	0.00e+00	0	41	0	864026624	60	4884
2026-01-30 00:23:07.86	236.55	35.74	-44.9	-47.2	15.3	0.00e+00	0	41	0	866123776	60	4959
2026-01-30 00:23:09.01	236.31	35.51	-44.4	-46.5	16.0	0.00e+00	0	41	0	868220928	60	4570
2026-01-30 00:23:09.86	236.13	35.34	-44.3	-46.3	16.1	0.00e+00	0	41	0	869269504	60	4487
2026-01-30 00:23:11.01	235.89	35.12	-44.2	-46.2	16.2	0.00e+00	0	41	0	871366656	60	4432
2026-01-30 00:23:11.87	235.72	34.95	-44.2	-46.3	16.2	0.00e+00	0	41	0	873463808	60	4462
2026-01-30 00:23:13.02	235.49	34.72	-44.1	-46.1	16.3	0.00e+00	0	41	0	875560960	60	4364
2026-01-30 00:23:13.87	235.32	34.56	-44.1	-46.2	16.3	0.00e+00	0	41	0	877658112	60	4402
2026-01-30 00:23:15.02	235.09	34.34	-44.2	-46.4	16.1	0.00e+00	0	41	0	879755264	60	4496
2026-01-30 00:23:15.88	234.92	34.17	-44.6	-47.0	15.5	0.00e+00	0	41	0	880803840	60	4819
2026-01-30 00:23:17.03	234.70	33.95	-44.8	-47.3	15.2	0.00e+00	0	42	0	882900992	60	4988
2026-01-30 00:23:17.89	234.54	33.79	-44.8	-47.2	15.2	0.00e+00	0	41	0	884998144	60	4973
2026-01-30 00:23:19.19	234.29	33.54	-44.8	-47.2	15.3	0.00e+00	0	41	0	887095296	60	4958
2026-01-30 00:23:19.90	234.16	33.41	-44.7	-47.1	15.4	0.00e+00	0	41	0	888143872	60	4888
2026-01-30 00:23:21.19	233.93	33.17	-44.7	-47.2	15.2	0.00e+00	0	41	0	891289600	60	4952
2026-01-30 00:23:21.91	233.80	33.03	-44.8	-47.3	15.1	0.00e+00	0	41	0	892338176	60	5034
2026-01-30 00:23:23.20	233.57	32.79	-44.8	-47.4	15.0	0.00e+00	0	41	0	894435328	60	5077
2026-01-30 00:23:23.95	233.43	32.65	-44.6	-47.0	15.4	0.00e+00	0	41	0	896532480	60	4870
2026-01-30 00:23:25.24	233.21	32.42	-44.6	-47.0	15.5	0.00e+00	0	41	0	898629632	60	4826
2026-01-30 00:23:25.95	233.09	32.28	-44.4	-46.6	15.8	0.00e+00	0	41	0	899678208	60	4641
2026-01-30 00:23:27.24	232.87	32.05	-44.2	-46.4	16.0	0.00e+00	0	41	0	902823936	60	4533
2026-01-30 00:23:28.15	232.71	31.88	-44.0	-46.2	16.3	0.00e+00	0	41	0	903872512	60	4396
2026-01-30 00:23:29.47	232.49	31.64	-44.0	-46.1	16.3	0.00e+00	0	41	0	905969664	60	4375
2026-01-30 00:23:30.19	232.37	31.51	-44.1	-46.2	16.3	0.00e+00	0	41	0	908066816	59	4656
2026-01-30 00:23:31.81	232.11	31.22	-44.1	-46.3	16.1	0.00e+00	0	42	0	911212544	59	4710
2026-01-30 00:23:32.38	232.02	31.12	-44.3	-46.4	16.0	0.00e+00	0	41	0	912261120	59	4801
2026-01-30 00:23:34.02	231.76	30.83	-44.3	-46.4	15.9	0.00e+00	0	41	0	915406848	59	4811
2026-01-30 00:23:34.59	231.67	30.73	-44.4	-46.6	15.8	0.00e+00	0	42	0	916455424	59	4907
2026-01-30 00:23:36.17	231.43	30.45	-44.5	-46.7	15.7	0.00e+00	0	41	0	918552576	59	4978
2026-01-30 00:23:36.89	231.32	30.33	-44.3	-46.4	16.0	0.00e+00	0	41	0	920649728	59	4804
2026-01-30 00:23:38.18	231.12	30.10	-44.1	-46.1	16.3	0.00e+00	0	41	0	922746880	59	4641
2026-01-30 00:23:39.07	230.99	29.95	-44.1	-46.2	16.2	0.00e+00	0	41	0	924844032	59	4674
2026-01-30 00:23:40.44	230.79	29.71	-44.0	-46.0	16.4	0.00e+00	0	41	0	926941184	59	4553
2026-01-30 00:23:41.16	230.68	29.59	-44.0	-46.0	16.4	0.00e+00	0	42	0	927989760	59	4567
2026-01-30 00:23:42.45	230.49	29.37	-44.0	-45.9	16.5	0.00e+00	0	41	0	931135488	59	4521
2026-01-30 00:23:43.16	230.39	29.25	-43.9	-45.8	16.5	0.00e+00	0	42	0	932184064	59	4476
2026-01-30 00:23:44.45	230.21	29.03	-43.9	-45.8	16.6	0.00e+00	0	42	0	934281216	59	4462
2026-01-30 00:23:45.17	230.11	28.91	-43.7	-45.6	16.8	0.00e+00	0	42	0	936378368	59	4343
2026-01-30 00:23:46.46	229.93	28.70	-43.5	-45.3	17.0	0.00e+00	0	42	0	938475520	59	4209
2026-01-30 00:23:47.45	229.80	28.53	-43.5	-45.2	17.2	0.00e+00	0	41	0	940572672	58	4407
2026-01-30 00:23:48.45	229.66	28.37	-43.4	-45.2	17.2	0.00e+00	0	41	0	941621248	58	4395
2026-01-30 00:23:49.45	229.53	28.20	-43.4	-45.1	17.3	0.00e+00	0	42	0	943718400	58	4354
2026-01-30 00:23:50.46	229.39	28.04	-43.5	-45.2	17.1	0.00e+00	0	42	0	945815552	58	4433
2026-01-30 00:23:51.46	229.26	27.87	-43.3	-45.0	17.3	0.00e+00	0	41	0	947912704	58	4321
2026-01-30 00:23:52.46	229.13	27.71	-43.3	-45.0	17.4	0.00e+00	0	41	0	950009856	58	4302
2026-01-30 00:23:53.47	229.00	27.55	-43.2	-44.9	17.5	0.00e+00	0	41	0	951058432	58	4256
2026-01-30 00:23:54.47	228.88	27.39	-43.2	-44.9	17.4	0.00e+00	0	42	0	953155584	58	4291
2026-01-30 00:23:55.48	228.75	27.23	-43.3	-45.1	17.3	0.00e+00	0	42	0	955252736	58	4343
2026-01-30 00:23:56.48	228.62	27.07	-43.4	-45.1	17.2	0.00e+00	0	42	0	957349888	58	4386
2026-01-30 00:23:57.49	228.50	26.91	-43.4	-45.2	17.1	0.00e+00	0	41	0	959447040	58	4434
2026-01-30 00:23:58.49	228.38	26.75	-43.5	-45.3	17.1	0.00e+00	0	41	0	960495616	58	4448
2026-01-30 00:23:59.49	228.26	26.59	-43.4	-45.2	17.2	0.00e+00	0	42	0	962592768	58	4394
2026-01-30 00:24:00.50	228.14	26.44	-43.4	-45.1	17.2	0.00e+00	0	42	0	964689920	58	4389
2026-01-30 00:24:01.50	228.02	26.28	-43.3	-45.0	17.3	0.00e+00	0	41	0	966787072	58	4322
2026-01-30 00:24:02.50	227.90	26.13	-43.3	-45.0	17.3	0.00e+00	0	42	0	968884224	58	4318
2026-01-30 00:24:03.51	227.78	25.97	-43.3	-45.0	17.3	0.00e+00	0	41	0	969932800	58	4317
2026-01-30 00:24:04.51	227.67	25.82	-43.2	-45.0	17.4	0.00e+00	0	42	0	972029952	58	4298
2026-01-30 00:24:05.51	227.56	25.67	-43.3	-45.0	17.1	0.00e+00	0	42	0	974127104	58	4326
2026-01-30 00:24:06.52	227.44	25.51	-43.4	-45.2	17.2	0.00e+00	0	42	0	976224256	58	4406
2026-01-30 00:24:07.53	227.33	25.36	-43.4	-45.2	17.1	0.00e+00	0	42	0	978321408	58	4424
2026-01-30 00:24:08.54	227.22	25.21	-43.4	-45.2	17.2	0.00e+00	0	42	0	979369984	58	4404
2026-01-30 00:24:09.54	227.11	25.06	-43.5	-45.3	17.1	0.00e+00	0	42	0	981467136	58	4445
2026-01-30 00:24:10.54	227.00	24.91	-43.4	-45.2	17.1	0.00e+00	0	42	0	983564288	58	4414
2026-01-30 00:24:11.55	226.89	24.76	-43.5	-45.2	17.1	0.00e+00	0	42	0	985661440	58	4431
2026-01-30 00:24:12.76	226.76	24.59	-43.4	-45.2	17.1	0.00e+00	0	42	0	987758592	58	4415
2026-01-30 00:24:13.65	226.67	24.46	-43.4	-45.2	17.2	0.00e+00	0	42	0	989855744	58	4394
2026-01-30 00:24:14.95	226.53	24.27	-43.3	-45.0	17.3	0.00e+00	0	42	0	991952896	58	4336
2026-01-30 00:24:15.67	226.46	24.16	-43.2	-44.8	17.5	0.00e+00	0	41	0	993001472	58	4227
2026-01-30 00:24:17.18	226.31	23.95	-43.1	-44.7	17.6	0.00e+00	0	41	0	996147200	58	4183
2026-01-30 00:24:17.90	226.23	23.84	-43.0	-44.7	17.6	0.00e+00	0	42	0	997195776	58	4169
2026-01-30 00:24:19.19	226.11	23.66	-42.9	-44.6	17.7	0.00e+00	0	42	0	999292928	57	4358
2026-01-30 00:24:19.90	226.03	23.56	-42.8	-44.3	17.9	0.00e+00	0	41	0	1001390080	57	4241
2026-01-30 00:24:21.19	225.91	23.38	-42.7	-44.2	18.1	0.00e+00	0	42	0	1003487232	57	4173
2026-01-30 00:24:21.91	225.84	23.27	-42.7	-44.2	18.1	0.00e+00	0	41	0	1004535808	57	4167
2026-01-30 00:24:23.20	225.71	23.09	-42.7	-44.2	18.0	0.00e+00	0	41	0	1007681536	57	4184
2026-01-30 00:24:23.92	225.65	22.99	-42.8	-44.3	17.9	0.00e+00	0	41	0	1008730112	57	4235
2026-01-30 00:24:25.20	225.52	22.82	-42.9	-44.5	17.8	0.00e+00	0	41	0	1010827264	57	4292
2026-01-30 00:24:25.92	225.46	22.72	-42.9	-44.5	17.7	0.00e+00	0	42	0	1011875840	57	4331
2026-01-30 00:24:27.21	225.34	22.54	-43.1	-44.8	17.5	0.00e+00	0	41	0	1015021568	57	4454
2026-01-30 00:24:27.99	225.27	22.43	-43.1	-44.8	17.5	0.00e+00	0	42	0	1016070144	57	4448
2026-01-30 00:24:29.28	225.15	22.26	-43.1	-44.8	17.5	0.00e+00	0	42	0	1018167296	57	4463
2026-01-30 00:24:30.00	225.08	22.16	-43.1	-44.8	17.5	0.00e+00	0	41	0	1020264448	57	4451
2026-01-30 00:24:31.28	224.97	21.99	-43.1	-44.8	17.5	0.00e+00	0	41	0	1022361600	57	4457
2026-01-30 00:24:32.00	224.90	21.89	-43.1	-44.8	17.5	0.00e+00	0	42	0	1023410176	57	4472
2026-01-30 00:24:33.29	224.79	21.72	-43.0	-44.6	17.7	0.00e+00	0	42	0	1026555904	57	4353
2026-01-30 00:24:34.01	224.73	21.63	-42.9	-44.5	17.8	0.00e+00	0	42	0	1027604480	57	4304
2026-01-30 00:24:35.38	224.61	21.44	-43.0	-44.6	17.7	0.00e+00	0	41	0	1029701632	57	4349
2026-01-30 00:24:36.09	224.55	21.35	-42.8	-44.4	17.8	0.00e+00	0	42	0	1031798784	57	4270
2026-01-30 00:24:37.46	224.43	21.17	-42.9	-44.5	17.8	0.00e+00	0	41	0	1033895936	57	4310
2026-01-30 00:24:38.18	224.37	21.08	-42.9	-44.4	17.8	0.00e+00	0	42	0	1034944512	57	4289
2026-01-30 00:24:39.54	224.26	20.90	-43.0	-44.6	17.7	0.00e+00	0	41	0	1038090240	57	4346
2026-01-30 00:24:40.25	224.20	20.81	-43.0	-44.6	17.7	0.00e+00	0	42	0	1039138816	57	4354
2026-01-30 00:24:41.54	224.09	20.65	-43.1	-44.8	17.5	0.00e+00	0	42	0	1041235968	57	4467
2026-01-30 00:24:42.26	224.04	20.55	-43.2	-44.9	17.4	0.00e+00	0	41	0	1043333120	57	4499
2026-01-30 00:24:43.54	223.93	20.39	-43.4	-45.1	17.1	0.00e+00	0	41	0	1045430272	57	4627
2026-01-30 00:24:44.26	223.88	20.30	-43.4	-45.2	17.1	0.00e+00	0	41	0	1046478848	57	4663
2026-01-30 00:24:45.77	223.76	20.11	-43.4	-45.2	17.1	0.00e+00	0	41	0	1049624576	57	4653
2026-01-30 00:24:46.49	223.70	20.02	-43.5	-45.3	17.0	0.00e+00	0	42	0	1050673152	57	4719
2026-01-30 00:24:47.78	223.60	19.86	-43.5	-45.2	17.0	0.00e+00	0	41	0	1053818880	57	4703
2026-01-30 00:24:48.50	223.54	19.77	-43.4	-45.1	17.1	0.00e+00	0	41	0	1054867456	57	4641
2026-01-30 00:24:49.79	223.45	19.61	-43.2	-45.0	17.3	0.00e+00	0	42	0	1056964608	57	4555
2026-01-30 00:24:50.50	223.39	19.52	-43.2	-44.9	17.3	0.00e+00	0	41	0	1058013184	57	4528
2026-01-30 00:24:51.79	223.29	19.36	-43.1	-44.8	17.4	0.00e+00	0	41	0	1061158912	57	4473
2026-01-30 00:24:52.51	223.24	19.28	-43.0	-44.6	17.6	0.00e+00	0	41	0	1062207488	57	4387
2026-01-30 00:24:53.80	223.15	19.12	-42.7	-44.3	18.0	0.00e+00	0	42	0	1064304640	57	4196
2026-01-30 00:24:54.55	223.09	19.03	-42.6	-44.2	18.0	0.00e+00	0	42	0	1066401792	57	4166
2026-01-30 00:24:55.84	223.00	18.87	-42.6	-44.2	18.0	0.00e+00	0	41	0	1068498944	57	4158
2026-01-30 00:24:56.55	222.95	18.79	-42.5	-44.0	18.1	0.00e+00	0	42	0	1069547520	57	4088
2026-01-30 00:24:57.84	222.85	18.64	-42.4	-43.9	18.3	0.00e+00	0	41	0	1072693248	56	4245
2026-01-30 00:24:58.69	222.79	18.54	-42.4	-43.9	18.3	0.00e+00	0	42	0	1073741824	56	4261
2026-01-30 00:24:59.83	222.71	18.40	-42.4	-43.9	18.3	0.00e+00	0	41	0	1075838976	56	4279
2026-01-30 00:25:00.70	222.65	18.30	-42.5	-44.0	18.2	0.00e+00	0	42	0	1077936128	56	4331
2026-01-30 00:25:01.84	222.57	18.16	-42.6	-44.1	18.1	0.00e+00	0	42	0	1080033280	56	4372
2026-01-30 00:25:02.70	222.51	18.06	-42.7	-44.2	18.0	0.00e+00	0	42	0	1081081856	56	4431
2026-01-30 00:25:03.85	222.44	17.93	-42.8	-44.4	17.8	0.00e+00	0	41	0	1083179008	56	4500
2026-01-30 00:25:04.71	222.38	17.83	-42.9	-44.5	17.7	0.00e+00	0	41	0	1085276160	56	4572
2026-01-30 00:25:05.86	222.30	17.70	-43.0	-44.6	17.6	0.00e+00	0	41	0	1087373312	56	4629
2026-01-30 00:25:06.72	222.24	17.60	-43.0	-44.7	17.5	0.00e+00	0	41	0	1088421888	56	4684
2026-01-30 00:25:07.87	222.17	17.47	-43.1	-44.8	17.4	0.00e+00	0	42	0	1090519040	56	4724
2026-01-30 00:25:08.73	222.11	17.37	-43.1	-44.8	17.3	0.00e+00	0	42	0	1092616192	56	4757
2026-01-30 00:25:10.02	222.03	17.23	-43.1	-44.8	17.3	0.00e+00	0	42	0	1094713344	57	4482
2026-01-30 00:25:10.73	221.98	17.15	-43.2	-44.9	17.3	0.00e+00	0	42	0	1096810496	57	4510
2026-01-30 00:25:12.23	221.89	16.98	-43.1	-44.8	17.4	0.00e+00	0	42	0	1098907648	57	4462
2026-01-30 00:25:12.95	221.84	16.90	-43.1	-44.8	17.4	0.00e+00	0	41	0	1101004800	57	4467
2026-01-30 00:25:14.24	221.76	16.76	-43.1	-44.8	17.3	0.00e+00	0	42	0	1103101952	57	4462
2026-01-30 00:25:14.95	221.72	16.68	-43.1	-44.9	17.3	0.00e+00	0	42	0	1104150528	57	4507
2026-01-30 00:25:16.24	221.64	16.53	-43.2	-44.9	17.3	0.00e+00	0	41	0	1106247680	57	4511
2026-01-30 00:25:16.96	221.59	16.46	-43.1	-44.9	17.3	0.00e+00	0	41	0	1108344832	57	4506
2026-01-30 00:25:18.25	221.51	16.31	-43.2	-44.9	17.3	0.00e+00	0	42	0	1110441984	57	4526
2026-01-30 00:25:18.96	221.47	16.24	-43.2	-45.0	17.2	0.00e+00	0	42	0	1111490560	57	4570
2026-01-30 00:25:20.46	221.38	16.08	-43.4	-45.2	17.0	0.00e+00	0	42	0	1114636288	57	4679
2026-01-30 00:25:21.18	221.34	16.00	-43.3	-45.1	17.1	0.00e+00	0	41	0	1115684864	57	4607
2026-01-30 00:25:22.47	221.26	15.86	-43.3	-45.2	17.0	0.00e+00	0	41	0	1118830592	57	4653
2026-01-30 00:25:23.18	221.22	15.78	-43.4	-45.2	16.9	0.00e+00	0	42	0	1119879168	57	4687
2026-01-30 00:25:24.55	221.14	15.64	-43.4	-45.2	16.9	0.00e+00	0	42	0	1121976320	57	4667
2026-01-30 00:25:25.27	221.10	15.56	-43.4	-45.3	16.9	0.00e+00	0	42	0	1124073472	57	4706
2026-01-30 00:25:26.56	221.02	15.43	-43.5	-45.4	16.8	0.00e+00	0	41	0	1126170624	57	4760
2026-01-30 00:25:27.28	220.98	15.35	-43.5	-45.4	16.7	0.00e+00	0	41	0	1127219200	57	4803
2026-01-30 00:25:28.56	220.91	15.22	-43.6	-45.5	16.6	0.00e+00	0	41	0	1129316352	57	4841
2026-01-30 00:25:29.28	220.87	15.14	-43.6	-45.5	16.7	0.00e+00	0	41	0	1131413504	57	4815
2026-01-30 00:25:30.57	220.80	15.01	-43.6	-45.6	16.6	0.00e+00	0	41	0	1133510656	57	4878
2026-01-30 00:25:31.29	220.76	14.93	-43.6	-45.5	16.6	0.00e+00	0	41	0	1134559232	57	4850
2026-01-30 00:25:32.58	220.69	14.80	-43.7	-45.6	16.5	0.00e+00	0	41	0	1137704960	57	4903
2026-01-30 00:25:33.29	220.65	14.73	-43.7	-45.6	16.5	0.00e+00	0	42	0	1138753536	57	4898
2026-01-30 00:25:34.58	220.58	14.59	-43.6	-45.6	16.5	0.00e+00	0	41	0	1140850688	57	4886
2026-01-30 00:25:35.30	220.54	14.52	-43.7	-45.7	16.4	0.00e+00	0	41	0	1142947840	58	4670
2026-01-30 00:25:36.59	220.47	14.39	-43.5	-45.4	16.7	0.00e+00	0	42	0	1145044992	58	4541
2026-01-30 00:25:37.31	220.43	14.32	-43.5	-45.5	16.7	0.00e+00	0	42	0	1146093568	58	4547
2026-01-30 00:25:38.60	220.37	14.19	-43.6	-45.5	16.6	0.00e+00	0	42	0	1148190720	58	4590
2026-01-30 00:25:39.32	220.33	14.12	-43.5	-45.4	16.7	0.00e+00	0	41	0	1150287872	58	4545
2026-01-30 00:25:40.60	220.26	13.99	-43.5	-45.4	16.7	0.00e+00	0	41	0	1152385024	58	4534
2026-01-30 00:25:41.68	220.21	13.88	-43.5	-45.4	16.7	0.00e+00	0	41	0	1154482176	58	4500
2026-01-30 00:25:42.55	220.16	13.80	-43.6	-45.5	16.6	0.00e+00	0	41	0	1155530752	58	4567
2026-01-30 00:25:43.69	220.11	13.68	-43.6	-45.4	16.7	0.00e+00	0	42	0	1158676480	58	4545
2026-01-30 00:25:44.55	220.06	13.60	-43.5	-45.4	16.7	0.00e+00	0	41	0	1159725056	58	4505
2026-01-30 00:25:45.70	220.00	13.49	-43.5	-45.3	16.8	0.00e+00	0	41	0	1161822208	58	4469
2026-01-30 00:25:46.56	219.96	13.40	-43.5	-45.4	16.7	0.00e+00	0	41	0	1163919360	58	4528
2026-01-30 00:25:47.70	219.91	13.29	-43.7	-45.7	16.4	0.00e+00	0	41	0	1166016512	58	4653
2026-01-30 00:25:48.56	219.86	13.21	-43.7	-45.6	16.4	0.00e+00	0	42	0	1167065088	58	4628
2026-01-30 00:25:49.71	219.81	13.10	-43.6	-45.5	16.5	0.00e+00	0	41	0	1169162240	58	4595
2026-01-30 00:25:50.65	219.76	13.01	-43.6	-45.5	16.6	0.00e+00	0	42	0	1171259392	58	4558
2026-01-30 00:25:51.65	219.71	12.91	-43.6	-45.5	16.6	0.00e+00	0	42	0	1173356544	58	4574
2026-01-30 00:25:52.65	219.67	12.82	-43.6	-45.5	16.6	0.00e+00	0	41	0	1175453696	58	4558
2026-01-30 00:25:53.66	219.62	12.72	-43.5	-45.3	16.7	0.00e+00	0	42	0	1176502272	58	4493
2026-01-30 00:25:54.66	219.57	12.63	-43.7	-45.6	16.5	0.00e+00	0	41	0	1178599424	58	4626
2026-01-30 00:25:55.66	219.53	12.53	-43.7	-45.7	16.3	0.00e+00	0	42	0	1180696576	58	4677
2026-01-30 00:25:56.66	219.48	12.44	-43.6	-45.6	16.5	0.00e+00	0	41	0	1182793728	58	4604
2026-01-30 00:25:57.67	219.43	12.34	-43.8	-45.7	16.3	0.00e+00	0	42	0	1183842304	58	4689
2026-01-30 00:25:58.67	219.39	12.25	-43.7	-45.6	16.4	0.00e+00	0	42	0	1185939456	58	4636
2026-01-30 00:25:59.67	219.34	12.16	-43.7	-45.7	16.4	0.00e+00	0	42	0	1188036608	58	4678
2026-01-30 00:26:00.68	219.30	12.06	-43.8	-45.7	16.3	0.00e+00	0	41	0	1190133760	58	4696
2026-01-30 00:26:01.68	219.25	11.97	-43.7	-45.7	16.4	0.00e+00	0	42	0	1192230912	58	4670
2026-01-30 00:26:02.68	219.21	11.88	-43.7	-45.6	16.4	0.00e+00	0	42	0	1193279488	58	4647
2026-01-30 00:26:03.76	219.16	11.78	-43.8	-45.7	16.3	0.00e+00	0	42	0	1195376640	58	4692
2026-01-30 00:26:04.65	219.12	11.70	-43.6	-45.6	16.5	0.00e+00	0	41	0	1197473792	58	4603
2026-01-30 00:26:05.80	219.07	11.59	-43.7	-45.7	16.3	0.00e+00	0	42	0	1199570944	58	4664
2026-01-30 00:26:06.66	219.03	11.52	-43.7	-45.7	16.3	0.00e+00	0	42	0	1201668096	58	4670
2026-01-30 00:26:07.80	218.98	11.41	-43.7	-45.7	16.3	0.00e+00	0	42	0	1203765248	58	4677
2026-01-30 00:26:08.79	218.94	11.32	-43.8	-45.8	16.2	0.00e+00	0	42	0	1204813824	58	4739
2026-01-30 00:26:09.97	218.89	11.22	-43.7	-45.7	16.4	0.00e+00	0	41	0	1206910976	58	4660
2026-01-30 00:26:10.83	218.85	11.14	-43.8	-45.7	16.2	0.00e+00	0	42	0	1209008128	58	4700
2026-01-30 00:26:11.98	218.81	11.04	-43.8	-45.9	16.2	0.00e+00	0	42	0	1211105280	58	4762
2026-01-30 00:26:12.84	218.77	10.96	-43.9	-46.0	16.0	0.00e+00	0	41	0	1213202432	58	4821
2026-01-30 00:26:13.98	218.72	10.86	-43.8	-45.9	16.1	0.00e+00	0	41	0	1215299584	58	4776
2026-01-30 00:26:14.84	218.69	10.79	-43.9	-46.1	15.9	0.00e+00	0	42	0	1216348160	58	4883
2026-01-30 00:26:15.99	218.64	10.69	-43.9	-46.1	15.9	0.00e+00	0	41	0	1218445312	58	4875
2026-01-30 00:26:16.85	218.61	10.61	-43.9	-46.0	15.9	0.00e+00	0	41	0	1220542464	58	4869
2026-01-30 00:26:17.99	218.56	10.51	-44.0	-46.2	15.8	0.00e+00	0	42	0	1222639616	58	4939
2026-01-30 00:26:18.85	218.53	10.44	-43.9	-46.0	15.9	0.00e+00	0	41	0	1223688192	58	4850
2026-01-30 00:26:20.00	218.48	10.34	-43.9	-46.2	15.8	0.00e+00	0	42	0	1225785344	58	4930
2026-01-30 00:26:20.86	218.45	10.26	-43.9	-46.1	15.9	0.00e+00	0	42	0	1227882496	58	4903
2026-01-30 00:26:22.00	218.40	10.16	-44.0	-46.2	15.7	0.00e+00	0	41	0	1229979648	58	4983
2026-01-30 00:26:22.86	218.37	10.09	-44.0	-46.3	15.6	0.00e+00	0	42	0	1232076800	58	5036
2026-01-30 00:26:24.01	218.32	9.99	-44.0	-46.3	15.6	0.00e+00	0	42	0	1234173952	58	5018
2026-01-30 00:26:24.86	218.29	9.92	-43.9	-46.3	15.6	0.00e+00	0	42	0	1235222528	58	5020
2026-01-30 00:26:26.01	218.25	9.82	-44.0	-46.5	15.4	0.00e+00	0	42	0	1237319680	58	5114
2026-01-30 00:26:26.87	218.21	9.75	-44.0	-46.3	15.6	0.00e+00	0	42	0	1239416832	58	5035
2026-01-30 00:26:28.02	218.17	9.65	-44.0	-46.5	15.5	0.00e+00	0	42	0	1241513984	58	5113
2026-01-30 00:26:28.87	218.14	9.58	-44.1	-46.5	15.4	0.00e+00	0	41	0	1242562560	58	5154
2026-01-30 00:26:30.02	218.09	9.49	-44.1	-46.6	15.3	0.00e+00	0	41	0	1244659712	58	5182
2026-01-30 00:26:30.88	218.06	9.41	-44.1	-46.5	15.4	0.00e+00	0	42	0	1246756864	59	4849
2026-01-30 00:26:32.03	218.02	9.32	-44.1	-46.6	15.3	7.00e-07	0	41	0	1248854016	59	4877
