passes_logs/2026/01/30/T1/T1__20260130_100516_NOAA_20_JPSS-1_rec.log

#Pass ID: 20260130_100516_NOAA 20 (JPSS-1)
#Satellite: NOAA 20 (JPSS-1)
#Configuration: NOAA 20
#almurnet v.1.7.20251203
#Start time: 2026-01-30 10:05:19

#Version: 2.0.20230620
#Station: T1
#Location: 37.570604 lon 55.790049 lat
#TLE: 1 43013U 17073A   26029.42702672  .00000137  00000+0  85918-4 0  9993
#TLE: 2 43013  98.7646 330.2153 0000804  19.9045 340.2162 14.19525092424781

#Time	Az	El	Level	Level2	SNR	BER	BlckErr	Temp	State	Recorded	gain1	gain2
2026-01-30 10:05:19.17	165.16	5.05	-50.7	-64.8	3.8	1.49e+00	0	40	0	0	73	17875
2026-01-30 10:05:20.17	165.17	5.12	-50.6	-64.9	3.8	1.49e+00	0	40	104	0	73	17900
2026-01-30 10:05:21.17	165.18	5.19	-50.5	-64.8	3.8	1.49e+00	0	40	104	0	72	18847
2026-01-30 10:05:22.18	165.19	5.26	-50.6	-64.8	3.8	1.49e+00	0	40	104	0	72	18921
2026-01-30 10:05:23.18	165.20	5.34	-50.6	-64.8	3.8	1.49e+00	0	40	104	0	72	18881
2026-01-30 10:05:24.18	165.21	5.41	-50.6	-64.8	3.8	1.49e+00	0	40	104	0	72	18839
2026-01-30 10:05:25.19	165.22	5.48	-50.6	-64.8	3.8	1.49e+00	0	40	104	0	72	18809
2026-01-30 10:05:26.19	165.23	5.56	-50.5	-64.7	3.8	1.49e+00	0	40	104	0	72	18628
2026-01-30 10:05:27.20	165.24	5.63	-50.5	-64.7	3.8	1.49e+00	0	40	104	0	72	18721
2026-01-30 10:05:28.20	165.25	5.70	-50.4	-64.7	3.8	1.49e+00	0	40	104	0	72	18624
2026-01-30 10:05:29.20	165.26	5.78	-50.5	-64.7	3.8	1.49e+00	0	40	104	0	72	18680
2026-01-30 10:05:30.21	165.27	5.85	-50.3	-64.7	3.8	1.49e+00	0	40	104	0	72	18591
2026-01-30 10:05:31.21	165.28	5.93	-50.0	-64.7	3.8	1.49e+00	0	40	104	0	71	19734
2026-01-30 10:05:32.22	165.29	6.00	-50.0	-64.7	3.8	1.49e+00	0	40	104	0	71	19760
2026-01-30 10:05:33.22	165.30	6.08	-50.3	-64.7	3.8	1.49e+00	0	40	104	0	71	19635
2026-01-30 10:05:34.23	165.31	6.15	-50.1	-64.6	3.8	1.49e+00	0	40	104	0	71	19528
2026-01-30 10:05:35.23	165.33	6.23	-50.3	-64.6	3.8	1.49e+00	0	40	104	0	71	19518
2026-01-30 10:05:36.23	165.34	6.30	-49.9	-64.6	3.8	1.49e+00	0	40	104	0	71	19412
2026-01-30 10:05:37.24	165.35	6.38	-50.2	-64.5	3.8	1.49e+00	0	41	104	0	71	19351
2026-01-30 10:05:38.24	165.36	6.45	-50.0	-64.4	3.8	1.49e+00	0	41	104	0	71	19133
2026-01-30 10:05:39.25	165.37	6.53	-49.6	-64.4	3.8	1.49e+00	0	41	104	0	71	19026
2026-01-30 10:05:40.25	165.38	6.61	-47.0	-63.4	3.8	1.49e+00	0	41	104	0	65	24028
2026-01-30 10:05:41.25	165.39	6.68	-48.6	-63.4	3.8	1.49e+00	0	41	104	0	68	20282
2026-01-30 10:05:42.26	165.40	6.76	-48.6	-63.5	3.8	1.49e+00	0	40	104	0	68	20532
2026-01-30 10:05:43.26	165.41	6.84	-48.6	-63.7	3.8	1.49e+00	0	41	104	0	68	20833
2026-01-30 10:05:44.26	165.43	6.91	-48.7	-63.8	3.8	1.49e+00	0	40	104	0	68	21044
2026-01-30 10:05:45.27	165.44	6.99	-48.7	-63.9	3.8	1.49e+00	0	41	104	0	68	21325
2026-01-30 10:05:46.27	165.45	7.07	-48.7	-64.0	3.8	1.49e+00	0	41	104	0	68	21520
2026-01-30 10:05:47.27	165.46	7.15	-48.7	-64.0	3.8	1.49e+00	0	41	104	0	68	21708
2026-01-30 10:05:48.28	165.47	7.23	-48.6	-64.0	3.8	1.49e+00	0	41	104	0	68	21701
2026-01-30 10:05:49.29	165.48	7.30	-48.7	-64.0	3.8	1.49e+00	0	41	104	0	68	21567
2026-01-30 10:05:50.29	165.49	7.38	-48.6	-63.9	3.8	1.49e+00	0	41	104	0	68	21376
2026-01-30 10:05:51.29	165.51	7.46	-48.7	-63.5	3.8	1.49e+00	0	41	104	0	68	20360
2026-01-30 10:05:52.29	165.52	7.54	-48.6	-62.8	3.8	1.49e+00	0	41	104	0	68	18937
2026-01-30 10:05:53.30	165.53	7.62	-48.6	-61.9	3.9	1.49e+00	0	41	104	0	68	17060
2026-01-30 10:05:54.30	165.54	7.70	-48.5	-60.7	4.2	1.45e+00	0	41	0	0	68	14810
2026-01-30 10:05:55.31	165.55	7.78	-48.6	-59.8	4.5	1.30e+00	0	41	0	1048576	68	13262
2026-01-30 10:05:56.31	165.56	7.86	-48.3	-58.3	5.2	6.53e-01	0	41	0	3145728	68	11163
2026-01-30 10:05:57.31	165.58	7.94	-48.1	-57.1	6.0	4.28e-01	0	41	0	4194304	68	9807
2026-01-30 10:05:58.32	165.59	8.02	-48.0	-56.2	6.7	2.65e-01	0	41	0	6291456	68	8854
2026-01-30 10:05:59.31	165.60	8.10	-47.7	-55.4	7.3	1.31e-01	0	41	0	8388608	67	8534
2026-01-30 10:06:00.32	165.61	8.18	-47.7	-54.9	7.8	9.25e-02	0	41	0	10485760	67	8035
2026-01-30 10:06:01.32	165.62	8.26	-47.6	-54.5	8.2	6.51e-02	0	41	0	11534336	67	7667
2026-01-30 10:06:02.32	165.64	8.35	-47.6	-54.4	8.3	5.14e-02	0	41	0	13631488	67	7575
2026-01-30 10:06:03.33	165.65	8.43	-47.5	-54.5	8.2	5.24e-02	0	41	0	15728640	67	7640
2026-01-30 10:06:04.33	165.66	8.51	-47.6	-54.6	8.1	9.99e-02	0	41	0	17825792	67	7738
2026-01-30 10:06:05.33	165.67	8.59	-47.6	-55.1	7.6	7.35e-02	0	41	0	19922944	67	8248
2026-01-30 10:06:06.34	165.69	8.68	-47.8	-55.8	7.0	1.49e-01	0	41	0	20971520	67	8897
2026-01-30 10:06:07.35	165.70	8.76	-47.9	-56.8	6.1	2.67e-01	0	41	0	23068672	67	9998
2026-01-30 10:06:08.35	165.71	8.84	-48.1	-57.8	5.4	4.08e-01	0	41	0	25165824	67	11221
2026-01-30 10:06:09.35	165.72	8.93	-48.2	-59.1	4.7	6.99e-01	0	41	0	27262976	67	13102
2026-01-30 10:06:10.36	165.74	9.01	-48.3	-60.8	4.1	1.44e+00	0	41	0	27262976	67	15841
2026-01-30 10:06:11.36	165.75	9.10	-48.1	-60.3	4.2	1.48e+00	0	41	104	27262976	67	15004
2026-01-30 10:06:12.36	165.76	9.18	-47.4	-57.6	5.8	1.03e-01	0	41	0	28311552	65	12289
2026-01-30 10:06:13.37	165.77	9.26	-48.3	-63.3	3.8	1.49e+00	0	41	104	28311552	67	21170
2026-01-30 10:06:14.45	165.79	9.36	-46.8	-56.0	6.9	1.77e-01	0	41	0	28311552	65	10284
2026-01-30 10:06:15.34	165.80	9.43	-47.8	-61.0	4.1	7.08e-01	0	41	0	30408704	66	17129
2026-01-30 10:06:16.34	165.81	9.52	-48.6	-63.9	3.8	1.49e+00	0	41	104	30408704	68	21323
2026-01-30 10:06:17.35	165.83	9.60	-47.0	-58.9	4.8	9.22e-01	0	41	0	30408704	65	14349
2026-01-30 10:06:18.35	165.84	9.69	-46.8	-58.9	4.8	8.20e-01	0	42	0	32505856	65	14302
2026-01-30 10:06:19.35	165.85	9.78	-46.8	-59.0	4.7	8.87e-01	0	42	0	34603008	65	14456
2026-01-30 10:06:20.35	165.87	9.86	-46.6	-57.9	5.4	5.83e-01	0	42	0	35651584	65	12787
2026-01-30 10:06:21.36	165.88	9.95	-46.5	-56.1	6.7	2.61e-01	0	41	0	37748736	65	10323
2026-01-30 10:06:22.37	165.89	10.04	-46.6	-57.4	6.0	5.07e-02	0	41	0	39845888	64	12789
2026-01-30 10:06:23.37	165.91	10.13	-47.3	-63.7	3.8	1.49e+00	0	42	104	39845888	65	24711
2026-01-30 10:06:24.37	165.92	10.21	-46.9	-59.0	4.8	1.42e+00	0	41	0	39845888	65	14416
2026-01-30 10:06:25.37	165.93	10.30	-46.1	-51.4	11.8	3.16e-03	0	42	0	40894464	63	6784
2026-01-30 10:06:26.38	165.95	10.39	-45.8	-50.7	12.4	3.42e-04	0	42	0	42991616	63	6265
2026-01-30 10:06:27.38	165.96	10.48	-45.5	-49.8	13.2	6.25e-05	0	42	0	45088768	62	5962
2026-01-30 10:06:28.45	165.97	10.58	-45.5	-49.5	13.6	5.30e-06	0	42	0	47185920	62	5739
2026-01-30 10:06:29.37	165.99	10.66	-45.5	-49.2	13.9	4.50e-06	0	42	0	49283072	62	5543
2026-01-30 10:06:30.37	166.00	10.75	-45.6	-48.9	14.2	1.50e-06	0	42	0	50331648	62	5379
2026-01-30 10:06:31.37	166.01	10.84	-45.3	-48.1	15.0	7.00e-07	0	41	0	52428800	62	4908
2026-01-30 10:06:32.38	166.03	10.93	-45.1	-47.6	15.5	0.00e+00	0	42	0	54525952	62	4611
2026-01-30 10:06:33.38	166.04	11.02	-45.0	-47.5	15.7	2.00e-02	0	41	0	56623104	61	4825
2026-01-30 10:06:34.38	166.06	11.11	-45.2	-47.5	15.9	0.00e+00	0	42	0	58720256	61	4860
2026-01-30 10:06:35.39	166.07	11.20	-45.4	-47.7	15.9	0.00e+00	0	42	0	59768832	61	4966
2026-01-30 10:06:36.39	166.09	11.29	-45.3	-47.6	16.0	1.96e-03	0	42	0	61865984	61	4922
2026-01-30 10:06:37.39	166.10	11.39	-45.2	-47.4	16.1	0.00e+00	0	42	0	63963136	61	4797
2026-01-30 10:06:38.39	166.11	11.48	-45.0	-47.1	16.2	0.00e+00	0	42	0	66060288	61	4645
2026-01-30 10:06:39.40	166.13	11.57	-44.9	-47.2	16.0	0.00e+00	0	42	0	67108864	61	4652
2026-01-30 10:06:40.40	166.14	11.67	-44.9	-47.1	16.1	0.00e+00	0	42	0	69206016	61	4604
2026-01-30 10:06:41.47	166.16	11.77	-44.8	-47.0	16.2	0.00e+00	0	42	0	71303168	61	4585
2026-01-30 10:06:42.36	166.17	11.85	-44.8	-47.0	16.1	0.00e+00	0	42	0	73400320	61	4595
2026-01-30 10:06:43.50	166.19	11.96	-44.6	-46.8	16.4	0.00e+00	0	42	0	75497472	61	4445
2026-01-30 10:06:44.36	166.20	12.04	-44.7	-46.8	16.4	0.00e+00	0	42	0	76546048	61	4467
2026-01-30 10:06:45.50	166.22	12.15	-44.7	-46.9	16.3	0.00e+00	0	42	0	78643200	61	4508
2026-01-30 10:06:46.36	166.23	12.23	-44.7	-46.8	16.4	0.00e+00	0	42	0	80740352	61	4467
2026-01-30 10:06:47.51	166.25	12.34	-44.5	-46.7	16.5	0.00e+00	0	42	0	82837504	61	4427
2026-01-30 10:06:48.37	166.26	12.42	-44.5	-46.7	16.5	0.00e+00	0	42	0	84934656	61	4435
2026-01-30 10:06:49.51	166.28	12.53	-44.6	-46.8	16.5	0.00e+00	0	42	0	87031808	60	4714
2026-01-30 10:06:50.37	166.29	12.61	-44.5	-46.7	16.5	0.00e+00	0	42	0	88080384	60	4685
2026-01-30 10:06:51.51	166.31	12.73	-44.5	-46.6	16.7	0.00e+00	0	42	0	90177536	60	4632
2026-01-30 10:06:52.37	166.32	12.81	-44.6	-46.8	16.6	0.00e+00	0	42	0	92274688	60	4716
2026-01-30 10:06:53.52	166.34	12.92	-44.7	-46.9	16.6	0.00e+00	0	42	0	94371840	60	4783
2026-01-30 10:06:54.38	166.35	13.01	-44.8	-46.9	16.7	0.00e+00	0	42	0	95420416	60	4796
2026-01-30 10:06:55.57	166.37	13.12	-44.8	-46.9	16.7	0.00e+00	0	42	0	97517568	60	4809
2026-01-30 10:06:56.43	166.39	13.21	-44.8	-46.9	16.8	0.00e+00	0	42	0	99614720	60	4791
2026-01-30 10:06:57.62	166.41	13.33	-44.8	-46.8	16.8	0.00e+00	0	42	0	101711872	60	4740
2026-01-30 10:06:58.48	166.42	13.41	-44.7	-46.7	16.8	0.00e+00	0	42	0	103809024	60	4673
2026-01-30 10:06:59.69	166.44	13.54	-44.6	-46.6	16.7	0.00e+00	0	42	0	105906176	60	4637
2026-01-30 10:07:00.55	166.45	13.62	-44.7	-46.7	16.7	0.00e+00	0	42	0	106954752	60	4691
2026-01-30 10:07:01.69	166.47	13.74	-44.8	-46.8	16.6	0.00e+00	0	42	0	109051904	60	4741
2026-01-30 10:07:02.55	166.49	13.83	-44.6	-46.6	16.8	0.00e+00	0	42	0	111149056	60	4637
2026-01-30 10:07:03.70	166.50	13.94	-44.5	-46.5	16.9	0.00e+00	0	42	0	113246208	60	4563
2026-01-30 10:07:04.56	166.52	14.03	-44.5	-46.4	17.0	1.58e-04	0	42	0	115343360	60	4538
2026-01-30 10:07:05.70	166.54	14.15	-44.2	-46.1	17.2	0.00e+00	0	42	0	117440512	60	4380
2026-01-30 10:07:06.64	166.55	14.25	-44.1	-45.9	17.3	0.00e+00	0	42	0	118489088	60	4277
2026-01-30 10:07:07.65	166.57	14.35	-44.0	-45.9	17.4	2.20e-06	0	42	0	120586240	60	4249
2026-01-30 10:07:08.86	166.59	14.48	-43.9	-45.7	17.6	0.00e+00	0	42	0	122683392	59	4406
2026-01-30 10:07:09.75	166.61	14.57	-43.9	-45.7	17.5	0.00e+00	0	42	0	124780544	59	4418
2026-01-30 10:07:10.90	166.63	14.69	-44.0	-45.7	17.5	0.00e+00	0	42	0	126877696	59	4434
2026-01-30 10:07:11.80	166.64	14.79	-43.9	-45.7	17.6	0.00e+00	0	42	0	127926272	59	4396
2026-01-30 10:07:12.81	166.66	14.90	-43.9	-45.6	17.6	0.00e+00	0	42	0	130023424	59	4348
2026-01-30 10:07:13.81	166.68	15.00	-43.9	-45.6	17.6	0.00e+00	0	42	0	132120576	59	4380
2026-01-30 10:07:14.81	166.69	15.11	-43.9	-45.6	17.6	0.00e+00	0	42	0	134217728	59	4373
2026-01-30 10:07:15.81	166.71	15.22	-44.0	-45.7	17.5	0.00e+00	0	42	0	136314880	59	4427
2026-01-30 10:07:16.82	166.73	15.33	-43.8	-45.6	17.7	0.00e+00	0	42	0	137363456	59	4347
2026-01-30 10:07:17.82	166.75	15.43	-43.9	-45.6	17.7	0.00e+00	0	42	0	139460608	59	4355
2026-01-30 10:07:18.82	166.77	15.54	-44.0	-45.7	17.6	0.00e+00	0	42	0	141557760	59	4408
2026-01-30 10:07:19.82	166.78	15.65	-44.0	-45.7	17.5	0.00e+00	0	42	0	143654912	59	4429
2026-01-30 10:07:20.89	166.80	15.77	-44.1	-45.8	17.4	0.00e+00	0	42	0	145752064	59	4490
2026-01-30 10:07:21.80	166.82	15.87	-44.0	-45.7	17.5	0.00e+00	0	42	0	146800640	59	4425
2026-01-30 10:07:23.00	166.84	16.01	-44.0	-45.7	17.6	0.00e+00	0	42	0	149946368	59	4403
2026-01-30 10:07:23.87	166.86	16.10	-43.9	-45.6	17.6	0.00e+00	0	42	0	150994944	59	4378
2026-01-30 10:07:25.01	166.88	16.23	-43.9	-45.6	17.7	0.00e+00	0	42	0	153092096	59	4341
2026-01-30 10:07:25.87	166.90	16.33	-43.8	-45.5	17.8	0.00e+00	0	42	0	155189248	59	4310
2026-01-30 10:07:27.02	166.92	16.46	-43.7	-45.4	17.8	0.00e+00	0	42	0	157286400	59	4271
2026-01-30 10:07:27.88	166.93	16.56	-43.7	-45.4	17.8	0.00e+00	0	42	0	158334976	59	4285
2026-01-30 10:07:29.03	166.96	16.69	-43.7	-45.4	17.9	0.00e+00	0	42	0	160432128	59	4276
2026-01-30 10:07:29.89	166.97	16.79	-43.8	-45.5	17.8	0.00e+00	0	42	0	162529280	59	4311
2026-01-30 10:07:31.03	166.99	16.92	-43.8	-45.5	17.8	0.00e+00	0	42	0	164626432	59	4308
2026-01-30 10:07:31.89	167.01	17.02	-43.8	-45.6	17.7	0.00e+00	0	42	0	165675008	59	4345
2026-01-30 10:07:33.08	167.03	17.16	-43.9	-45.7	17.6	0.00e+00	0	42	0	168820736	59	4412
2026-01-30 10:07:33.94	167.05	17.26	-43.8	-45.5	17.8	0.00e+00	0	42	0	169869312	59	4335
2026-01-30 10:07:35.13	167.08	17.40	-43.7	-45.4	17.9	0.00e+00	0	42	0	171966464	59	4263
2026-01-30 10:07:36.41	167.10	17.55	-43.7	-45.4	17.9	0.00e+00	0	42	0	174063616	59	4279
2026-01-30 10:07:37.13	167.12	17.63	-43.7	-45.4	17.9	0.00e+00	0	42	0	176160768	59	4278
2026-01-30 10:07:38.41	167.14	17.79	-43.6	-45.3	18.0	0.00e+00	0	42	0	178257920	59	4209
2026-01-30 10:07:39.13	167.16	17.87	-43.6	-45.2	18.1	0.00e+00	0	42	0	179306496	59	4184
2026-01-30 10:07:40.42	167.18	18.03	-43.6	-45.2	18.1	0.00e+00	0	42	0	182452224	59	4159
2026-01-30 10:07:41.13	167.20	18.12	-43.5	-45.2	18.1	0.00e+00	0	42	0	183500800	59	4150
2026-01-30 10:07:42.42	167.23	18.27	-43.5	-45.1	18.2	0.00e+00	0	42	0	185597952	59	4133
2026-01-30 10:07:43.14	167.24	18.36	-43.5	-45.1	18.2	0.00e+00	0	42	0	186646528	59	4126
2026-01-30 10:07:44.43	167.27	18.52	-43.5	-45.1	18.2	0.00e+00	0	42	0	189792256	59	4117
2026-01-30 10:07:45.14	167.28	18.61	-43.5	-45.1	18.2	0.00e+00	0	42	0	190840832	58	4356
2026-01-30 10:07:46.43	167.31	18.77	-43.6	-45.2	18.1	0.00e+00	0	42	0	192937984	58	4434
2026-01-30 10:07:47.15	167.33	18.86	-43.5	-45.1	18.2	0.00e+00	0	42	0	195035136	58	4367
2026-01-30 10:07:48.77	167.36	19.06	-43.5	-45.0	18.3	0.00e+00	0	42	0	198180864	58	4324
2026-01-30 10:07:49.34	167.37	19.13	-43.4	-44.9	18.4	0.00e+00	0	42	0	199229440	58	4277
2026-01-30 10:07:50.93	167.41	19.34	-43.5	-45.0	18.3	0.00e+00	0	42	0	201326592	58	4310
2026-01-30 10:07:51.51	167.42	19.41	-43.5	-45.0	18.3	0.00e+00	0	42	0	202375168	58	4336
2026-01-30 10:07:53.11	167.46	19.62	-43.4	-45.0	18.3	0.00e+00	0	42	0	205520896	58	4296
2026-01-30 10:07:53.69	167.47	19.69	-43.5	-45.0	18.3	0.00e+00	0	42	0	206569472	58	4317
2026-01-30 10:07:55.28	167.51	19.90	-43.3	-44.8	18.5	0.00e+00	0	42	0	209715200	58	4214
2026-01-30 10:07:55.85	167.52	19.97	-43.3	-44.7	18.5	0.00e+00	0	42	0	210763776	58	4190
2026-01-30 10:07:57.43	167.56	20.18	-43.3	-44.8	18.5	0.00e+00	0	42	0	213909504	58	4233
2026-01-30 10:07:58.03	167.57	20.26	-43.3	-44.8	18.5	0.00e+00	0	42	0	214958080	58	4212
2026-01-30 10:07:59.60	167.61	20.47	-43.3	-44.8	18.4	0.00e+00	0	42	0	218103808	58	4227
2026-01-30 10:08:00.54	167.63	20.59	-43.4	-44.9	18.3	0.00e+00	0	42	0	220200960	58	4278
2026-01-30 10:08:01.54	167.66	20.73	-43.3	-44.9	18.4	0.00e+00	0	42	0	221249536	58	4259
2026-01-30 10:08:02.54	167.68	20.86	-43.4	-44.9	18.3	0.00e+00	0	42	0	223346688	58	4279
2026-01-30 10:08:03.55	167.71	21.00	-43.4	-44.9	18.3	0.00e+00	0	42	0	225443840	58	4277
2026-01-30 10:08:04.56	167.73	21.14	-43.4	-45.0	18.3	0.00e+00	0	42	0	227540992	58	4305
2026-01-30 10:08:05.56	167.76	21.28	-43.4	-45.0	18.3	0.00e+00	0	42	0	229638144	58	4301
2026-01-30 10:08:06.56	167.78	21.41	-43.3	-44.9	18.4	0.00e+00	0	42	0	230686720	58	4255
2026-01-30 10:08:07.57	167.81	21.56	-43.4	-44.9	18.4	0.00e+00	0	42	0	232783872	58	4262
2026-01-30 10:08:08.57	167.83	21.70	-43.4	-44.9	18.3	0.00e+00	0	42	0	234881024	58	4286
2026-01-30 10:08:09.57	167.86	21.84	-43.4	-44.9	18.4	0.00e+00	0	42	0	236978176	58	4264
2026-01-30 10:08:10.57	167.88	21.98	-43.4	-45.0	18.3	0.00e+00	0	42	0	239075328	58	4306
2026-01-30 10:08:11.58	167.91	22.12	-43.5	-45.0	18.3	0.00e+00	0	42	0	240123904	58	4313
2026-01-30 10:08:12.58	167.94	22.26	-43.6	-45.2	18.1	0.00e+00	0	42	0	242221056	58	4406
2026-01-30 10:08:13.58	167.96	22.41	-43.5	-45.1	18.2	0.00e+00	0	42	0	244318208	58	4343
2026-01-30 10:08:14.58	167.99	22.55	-43.6	-45.1	18.2	0.00e+00	0	42	0	246415360	58	4359
2026-01-30 10:08:15.59	168.02	22.70	-43.6	-45.1	18.1	0.00e+00	0	42	0	248512512	58	4387
2026-01-30 10:08:16.96	168.05	22.90	-43.6	-45.1	18.1	0.00e+00	0	42	0	250609664	58	4385
2026-01-30 10:08:17.70	168.07	23.01	-43.6	-45.2	18.1	0.00e+00	0	42	0	251658240	58	4398
2026-01-30 10:08:19.00	168.11	23.20	-43.6	-45.1	18.2	0.00e+00	0	42	0	254803968	58	4382
2026-01-30 10:08:19.71	168.13	23.31	-43.7	-45.3	18.0	0.00e+00	0	42	0	255852544	58	4450
2026-01-30 10:08:21.00	168.17	23.50	-43.8	-45.4	17.9	0.00e+00	0	42	0	257949696	58	4510
2026-01-30 10:08:21.72	168.19	23.61	-43.7	-45.2	18.1	0.00e+00	0	42	0	258998272	58	4431
2026-01-30 10:08:23.00	168.22	23.80	-43.7	-45.3	17.9	0.00e+00	0	42	0	262144000	58	4489
2026-01-30 10:08:23.72	168.24	23.91	-43.7	-45.4	17.9	0.00e+00	0	42	0	263192576	58	4511
2026-01-30 10:08:25.01	168.28	24.11	-43.7	-45.3	18.0	0.00e+00	0	42	0	265289728	58	4489
2026-01-30 10:08:25.73	168.30	24.22	-43.8	-45.5	17.9	0.00e+00	0	42	0	267386880	58	4549
2026-01-30 10:08:27.17	168.35	24.44	-43.7	-45.3	17.9	0.00e+00	0	42	0	269484032	58	4488
2026-01-30 10:08:28.16	168.37	24.60	-44.0	-45.6	17.7	0.00e+00	0	42	0	271581184	58	4632
2026-01-30 10:08:29.48	168.41	24.81	-44.0	-45.6	17.7	0.00e+00	0	42	0	273678336	58	4637
2026-01-30 10:08:30.20	168.44	24.92	-43.8	-45.5	17.8	0.00e+00	0	42	0	275775488	58	4550
2026-01-30 10:08:31.49	168.48	25.13	-44.0	-45.7	17.6	0.00e+00	0	42	0	277872640	58	4665
2026-01-30 10:08:32.20	168.50	25.24	-44.0	-45.7	17.6	0.00e+00	0	42	0	278921216	58	4656
2026-01-30 10:08:33.49	168.54	25.45	-44.1	-45.8	17.5	0.00e+00	0	42	0	282066944	58	4729
2026-01-30 10:08:34.21	168.56	25.56	-44.1	-45.8	17.6	0.00e+00	0	42	0	283115520	58	4709
2026-01-30 10:08:35.50	168.60	25.78	-43.9	-45.5	17.8	0.00e+00	0	42	0	285212672	58	4564
2026-01-30 10:08:36.22	168.63	25.89	-44.0	-45.7	17.6	0.00e+00	0	42	0	286261248	58	4656
2026-01-30 10:08:37.52	168.67	26.11	-44.0	-45.6	17.7	0.00e+00	0	42	0	289406976	58	4631
2026-01-30 10:08:38.24	168.69	26.23	-44.0	-45.6	17.7	0.00e+00	0	42	0	290455552	58	4633
2026-01-30 10:08:39.58	168.74	26.45	-44.1	-45.7	17.6	0.00e+00	0	42	0	292552704	58	4689
2026-01-30 10:08:40.30	168.76	26.57	-44.1	-45.7	17.6	0.00e+00	0	42	0	294649856	58	4699
2026-01-30 10:08:41.59	168.81	26.79	-44.1	-45.8	17.5	0.00e+00	0	42	0	296747008	58	4717
2026-01-30 10:08:42.30	168.83	26.91	-44.1	-45.8	17.5	0.00e+00	0	42	0	297795584	58	4728
2026-01-30 10:08:43.74	168.88	27.16	-44.2	-45.9	17.4	0.00e+00	0	42	0	300941312	59	4538
2026-01-30 10:08:44.45	168.90	27.28	-44.4	-46.1	17.2	0.00e+00	0	42	0	301989888	59	4637
2026-01-30 10:08:45.74	168.95	27.51	-44.4	-46.2	17.1	0.00e+00	0	42	0	304087040	59	4668
2026-01-30 10:08:46.46	168.98	27.63	-44.3	-46.1	17.2	0.00e+00	0	42	0	306184192	59	4610
2026-01-30 10:08:47.75	169.02	27.86	-44.5	-46.3	17.0	0.00e+00	0	42	0	308281344	59	4747
2026-01-30 10:08:48.47	169.05	27.99	-44.6	-46.5	16.8	0.00e+00	0	42	0	309329920	59	4850
2026-01-30 10:08:49.76	169.10	28.22	-44.7	-46.6	16.8	0.00e+00	0	42	0	312475648	60	4649
2026-01-30 10:08:50.47	169.12	28.35	-44.8	-46.7	16.7	0.00e+00	0	42	0	313524224	60	4700
2026-01-30 10:08:51.77	169.17	28.58	-45.0	-47.0	16.4	0.00e+00	0	42	0	315621376	60	4833
2026-01-30 10:08:52.48	169.20	28.71	-45.1	-47.1	16.2	0.00e+00	0	42	0	316669952	60	4926
2026-01-30 10:08:53.77	169.25	28.95	-45.1	-47.2	16.2	0.00e+00	0	42	0	319815680	60	4951
2026-01-30 10:08:54.59	169.28	29.10	-45.1	-47.2	16.2	0.00e+00	0	42	0	320864256	60	4945
2026-01-30 10:08:55.73	169.32	29.31	-45.2	-47.3	16.2	0.00e+00	0	42	0	322961408	60	4994
2026-01-30 10:08:56.59	169.36	29.47	-45.3	-47.4	15.9	0.00e+00	0	42	0	325058560	61	4785
2026-01-30 10:08:57.74	169.40	29.69	-45.3	-47.5	15.9	0.00e+00	0	42	0	327155712	61	4838
2026-01-30 10:08:58.60	169.44	29.85	-45.4	-47.5	15.9	0.00e+00	0	42	0	328204288	61	4851
2026-01-30 10:08:59.74	169.49	30.06	-45.5	-47.7	15.7	0.00e+00	0	42	0	330301440	61	4938
2026-01-30 10:09:00.60	169.52	30.23	-45.6	-47.9	15.5	0.00e+00	0	42	0	332398592	61	5054
2026-01-30 10:09:01.75	169.57	30.45	-45.5	-47.7	15.7	0.00e+00	0	42	0	334495744	61	4972
2026-01-30 10:09:02.61	169.61	30.62	-45.4	-47.6	15.8	0.00e+00	0	42	0	336592896	61	4899
2026-01-30 10:09:03.76	169.65	30.84	-45.4	-47.6	15.8	0.00e+00	0	42	0	338690048	61	4887
2026-01-30 10:09:04.62	169.69	31.01	-45.4	-47.5	15.9	0.00e+00	0	42	0	339738624	61	4835
2026-01-30 10:09:05.92	169.75	31.27	-45.3	-47.4	15.9	0.00e+00	0	42	0	342884352	61	4793
2026-01-30 10:09:06.64	169.78	31.41	-45.3	-47.4	16.0	0.00e+00	0	42	0	343932928	61	4786
2026-01-30 10:09:07.93	169.84	31.67	-45.4	-47.5	15.9	0.00e+00	0	42	0	346030080	61	4826
2026-01-30 10:09:08.64	169.87	31.82	-45.4	-47.5	15.9	0.00e+00	0	42	0	347078656	61	4841
2026-01-30 10:09:10.23	169.94	32.14	-45.2	-47.4	16.1	0.00e+00	0	42	0	350224384	61	4760
2026-01-30 10:09:10.81	169.97	32.26	-45.3	-47.4	16.0	0.00e+00	0	42	0	351272960	61	4793
2026-01-30 10:09:12.40	170.05	32.59	-45.3	-47.4	16.0	0.00e+00	0	42	0	354418688	61	4813
2026-01-30 10:09:12.97	170.07	32.71	-45.2	-47.4	16.0	0.00e+00	0	42	0	355467264	61	4763
2026-01-30 10:09:14.56	170.15	33.04	-45.4	-47.6	15.8	0.00e+00	0	42	0	358612992	61	4896
2026-01-30 10:09:15.13	170.18	33.16	-45.4	-47.6	15.8	0.00e+00	0	42	0	359661568	61	4919
2026-01-30 10:09:16.77	170.26	33.51	-45.2	-47.3	16.1	0.00e+00	0	42	0	362807296	61	4727
2026-01-30 10:09:17.34	170.29	33.64	-45.1	-47.2	16.3	0.00e+00	0	42	0	363855872	61	4660
2026-01-30 10:09:18.94	170.37	33.98	-44.9	-46.8	16.7	0.00e+00	0	42	0	367001600	61	4468
2026-01-30 10:09:19.51	170.40	34.11	-44.7	-46.6	16.8	0.00e+00	0	42	0	368050176	61	4370
2026-01-30 10:09:21.11	170.48	34.46	-44.6	-46.4	17.1	0.00e+00	0	42	0	371195904	60	4503
2026-01-30 10:09:21.69	170.51	34.59	-44.4	-46.1	17.3	0.00e+00	0	42	0	372244480	60	4382
2026-01-30 10:09:23.52	170.61	35.00	-44.0	-45.5	17.8	0.00e+00	0	42	0	375390208	59	4331
2026-01-30 10:09:24.09	170.64	35.12	-43.8	-45.3	18.0	0.00e+00	0	42	0	376438784	59	4237
2026-01-30 10:09:26.13	170.76	35.59	-43.6	-45.0	18.3	0.00e+00	0	42	0	380633088	59	4096
2026-01-30 10:09:26.70	170.79	35.72	-43.6	-45.1	18.3	0.00e+00	0	42	0	381681664	59	4099
2026-01-30 10:09:28.34	170.88	36.10	-43.4	-44.8	18.5	0.00e+00	0	42	0	384827392	58	4229
2026-01-30 10:09:28.91	170.92	36.23	-43.3	-44.8	18.6	0.00e+00	0	42	0	385875968	58	4209
2026-01-30 10:09:30.50	171.01	36.60	-43.3	-44.8	18.5	0.00e+00	0	42	0	387973120	58	4219
2026-01-30 10:09:31.07	171.04	36.74	-43.3	-44.7	18.6	0.00e+00	0	42	0	390070272	58	4192
2026-01-30 10:09:32.68	171.14	37.12	-43.0	-44.4	18.9	0.00e+00	0	42	0	392167424	58	4050
2026-01-30 10:09:33.41	171.19	37.30	-43.0	-44.4	18.9	0.00e+00	0	42	0	394264576	58	4034
2026-01-30 10:09:34.70	171.27	37.61	-42.9	-44.3	19.0	0.00e+00	0	42	0	396361728	57	4215
2026-01-30 10:09:35.42	171.31	37.79	-42.9	-44.3	19.0	0.00e+00	0	42	0	397410304	57	4234
2026-01-30 10:09:36.73	171.40	38.11	-42.8	-44.2	19.1	0.00e+00	0	42	0	400556032	57	4156
2026-01-30 10:09:37.45	171.45	38.29	-42.9	-44.2	19.1	0.00e+00	0	42	0	401604608	57	4167
2026-01-30 10:09:38.74	171.53	38.61	-42.9	-44.2	19.1	0.00e+00	0	42	0	403701760	57	4179
2026-01-30 10:09:39.45	171.58	38.79	-42.8	-44.1	19.2	0.00e+00	0	42	0	404750336	57	4103
2026-01-30 10:09:40.74	171.67	39.11	-42.9	-44.3	19.1	0.00e+00	0	42	0	407896064	57	4198
2026-01-30 10:09:41.45	171.72	39.29	-43.0	-44.4	18.9	0.00e+00	0	42	0	408944640	57	4261
2026-01-30 10:09:42.75	171.81	39.63	-43.3	-44.7	18.6	0.00e+00	0	42	0	411041792	57	4435
2026-01-30 10:09:43.46	171.86	39.81	-43.4	-44.8	18.5	0.00e+00	0	42	0	413138944	57	4489
2026-01-30 10:09:44.75	171.96	40.15	-43.4	-44.8	18.5	0.00e+00	0	42	0	415236096	57	4487
2026-01-30 10:09:45.47	172.01	40.33	-43.6	-45.1	18.2	0.00e+00	0	42	0	416284672	57	4626
2026-01-30 10:09:46.76	172.11	40.68	-43.5	-45.0	18.4	0.00e+00	0	42	0	419430400	57	4565
2026-01-30 10:09:47.47	172.16	40.86	-43.7	-45.2	18.2	0.00e+00	0	42	0	420478976	58	4436
2026-01-30 10:09:48.76	172.26	41.21	-43.8	-45.3	18.1	0.00e+00	0	42	0	422576128	58	4459
2026-01-30 10:09:49.67	172.33	41.46	-43.8	-45.3	18.1	0.00e+00	0	42	0	424673280	58	4447
2026-01-30 10:09:51.00	172.44	41.82	-44.1	-45.6	17.7	0.00e+00	0	42	0	426770432	58	4647
2026-01-30 10:09:51.71	172.50	42.01	-44.2	-45.8	17.6	0.00e+00	0	42	0	427819008	59	4465
2026-01-30 10:09:53.00	172.60	42.37	-44.3	-46.0	17.4	0.00e+00	0	42	0	430964736	59	4548
2026-01-30 10:09:53.72	172.66	42.57	-44.4	-46.0	17.3	0.00e+00	0	42	0	432013312	59	4598
2026-01-30 10:09:55.00	172.77	42.93	-44.5	-46.2	17.2	0.00e+00	0	42	0	434110464	59	4678
2026-01-30 10:09:55.72	172.84	43.13	-44.3	-46.0	17.4	0.00e+00	0	42	0	436207616	59	4559
2026-01-30 10:09:57.01	172.95	43.50	-44.1	-45.7	17.7	0.00e+00	0	42	0	438304768	59	4418
2026-01-30 10:09:57.73	173.02	43.70	-44.1	-45.7	17.7	0.00e+00	0	42	0	439353344	59	4422
2026-01-30 10:09:59.02	173.13	44.08	-44.0	-45.5	17.9	0.00e+00	0	42	0	441450496	59	4322
2026-01-30 10:09:59.73	173.20	44.28	-44.0	-45.5	17.9	0.00e+00	0	42	0	443547648	59	4335
2026-01-30 10:10:01.02	173.32	44.66	-44.1	-45.6	17.7	0.00e+00	0	42	0	445644800	59	4388
2026-01-30 10:10:01.74	173.39	44.87	-44.4	-46.0	17.4	0.00e+00	0	42	0	446693376	59	4584
2026-01-30 10:10:03.14	173.53	45.29	-44.6	-46.3	17.1	0.00e+00	0	42	0	449839104	59	4747
2026-01-30 10:10:04.16	173.64	45.59	-45.1	-47.1	16.4	0.00e+00	0	42	0	451936256	60	4892
2026-01-30 10:10:05.48	173.77	45.99	-45.2	-47.2	16.2	0.00e+00	0	42	0	454033408	61	4684
2026-01-30 10:10:06.19	173.85	46.21	-45.4	-47.4	16.0	0.00e+00	0	42	0	455081984	61	4802
2026-01-30 10:10:07.84	174.02	46.72	-45.4	-47.5	16.0	0.00e+00	0	42	0	458227712	61	4834
2026-01-30 10:10:08.41	174.09	46.89	-45.4	-47.4	16.0	0.00e+00	0	42	0	459276288	61	4801
2026-01-30 10:10:10.03	174.27	47.40	-45.6	-47.7	15.8	0.00e+00	0	42	0	462422016	61	4930
2026-01-30 10:10:10.60	174.33	47.58	-45.6	-47.7	15.7	0.00e+00	0	42	0	463470592	61	4965
2026-01-30 10:10:12.20	174.52	48.08	-45.9	-48.2	15.3	0.00e+00	0	42	0	466616320	62	4964
2026-01-30 10:10:12.85	174.60	48.29	-45.8	-48.1	15.4	0.00e+00	0	42	0	467664896	62	4889
2026-01-30 10:10:14.28	174.77	48.75	-45.3	-47.3	16.2	0.00e+00	0	42	0	470810624	62	4469
2026-01-30 10:10:15.06	174.87	49.00	-45.2	-47.2	16.3	0.00e+00	0	42	0	471859200	62	4420
2026-01-30 10:10:16.67	175.08	49.53	-44.6	-46.4	17.0	0.00e+00	0	42	0	475004928	61	4267
2026-01-30 10:10:17.24	175.15	49.71	-44.6	-46.4	17.0	0.00e+00	0	42	0	476053504	61	4271
2026-01-30 10:10:19.11	175.40	50.33	-44.4	-46.1	17.4	0.00e+00	0	42	0	479199232	60	4344
2026-01-30 10:10:19.69	175.48	50.53	-44.2	-45.9	17.5	0.00e+00	0	42	0	480247808	60	4265
2026-01-30 10:10:21.26	175.70	51.06	-43.8	-45.2	18.1	0.00e+00	0	42	0	483393536	59	4190
2026-01-30 10:10:21.89	175.79	51.27	-43.5	-44.9	18.4	0.00e+00	0	43	0	484442112	59	4051
2026-01-30 10:10:23.33	176.01	51.76	-42.6	-43.8	19.5	0.00e+00	0	42	0	487587840	57	3988
2026-01-30 10:10:24.04	176.11	52.01	-42.5	-43.7	19.6	0.00e+00	0	42	0	488636416	57	3933
2026-01-30 10:10:25.33	176.31	52.45	-42.3	-43.6	19.7	0.00e+00	0	42	0	491782144	56	4101
2026-01-30 10:10:26.05	176.43	52.70	-42.1	-43.3	20.0	0.00e+00	0	42	0	492830720	56	3989
2026-01-30 10:10:27.33	176.64	53.15	-41.7	-42.8	20.3	0.00e+00	0	42	0	494927872	55	3971
2026-01-30 10:10:28.07	176.76	53.42	-41.6	-42.7	20.4	0.00e+00	0	43	0	495976448	55	3929
2026-01-30 10:10:29.68	177.04	53.99	-41.6	-42.8	20.3	0.00e+00	0	42	0	499122176	55	3980
2026-01-30 10:10:30.25	177.14	54.19	-41.6	-42.7	20.4	0.00e+00	0	42	0	500170752	55	3940
2026-01-30 10:10:32.04	177.46	54.84	-41.1	-42.2	20.9	0.00e+00	0	43	0	503316480	54	3923
2026-01-30 10:10:32.61	177.57	55.04	-41.0	-42.0	21.0	0.00e+00	0	42	0	505413632	53	4091
2026-01-30 10:10:34.62	177.95	55.78	-40.9	-41.9	21.1	0.00e+00	0	42	0	508559360	53	4038
2026-01-30 10:10:35.19	178.07	55.99	-41.1	-42.2	20.9	0.00e+00	0	42	0	509607936	53	4169
2026-01-30 10:10:36.81	178.40	56.59	-41.8	-42.9	20.3	0.00e+00	0	43	0	512753664	54	4284
2026-01-30 10:10:37.38	178.52	56.81	-42.1	-43.3	19.9	0.00e+00	0	42	0	513802240	54	4445
2026-01-30 10:10:38.98	178.86	57.41	-42.3	-43.6	19.6	0.00e+00	0	42	0	516947968	55	4351
2026-01-30 10:10:39.55	178.99	57.62	-42.3	-43.6	19.6	0.00e+00	0	42	0	517996544	55	4345
2026-01-30 10:10:41.13	179.36	58.22	-41.8	-42.9	20.3	0.00e+00	0	42	0	521142272	55	4015
2026-01-30 10:10:41.72	179.50	58.45	-41.8	-42.9	20.2	0.00e+00	0	42	0	522190848	55	4042
2026-01-30 10:10:43.45	179.92	59.12	-42.2	-43.4	19.8	0.00e+00	0	42	0	525336576	55	4280
2026-01-30 10:10:44.03	180.07	59.34	-42.2	-43.4	19.7	0.00e+00	0	42	0	526385152	55	4290
2026-01-30 10:10:45.63	180.49	59.96	-42.1	-43.3	19.9	0.00e+00	0	42	0	529530880	55	4201
2026-01-30 10:10:46.20	180.64	60.19	-42.0	-43.1	20.0	0.00e+00	0	42	0	530579456	55	4144
2026-01-30 10:10:48.13	181.18	60.95	-41.7	-42.9	20.2	0.00e+00	0	42	0	533725184	55	4016
2026-01-30 10:10:48.70	181.35	61.17	-41.5	-42.6	20.5	0.00e+00	0	42	0	534773760	55	3894
2026-01-30 10:10:50.29	181.83	61.80	-41.2	-42.3	20.8	0.00e+00	0	42	0	537919488	54	3964
2026-01-30 10:10:50.87	182.01	62.04	-41.1	-42.2	20.9	0.00e+00	0	43	0	538968064	54	3925
2026-01-30 10:10:52.44	182.52	62.67	-41.3	-42.4	20.8	0.00e+00	0	42	0	542113792	54	4014
2026-01-30 10:10:53.06	182.72	62.92	-41.3	-42.3	20.8	0.00e+00	0	42	0	543162368	54	3988
2026-01-30 10:10:54.92	183.38	63.67	-41.7	-42.8	20.3	0.00e+00	0	42	0	546308096	54	4234
2026-01-30 10:10:55.49	183.58	63.90	-42.1	-43.3	19.9	0.00e+00	0	42	0	547356672	54	4492
2026-01-30 10:10:57.09	184.19	64.55	-43.6	-45.1	18.4	0.00e+00	0	42	0	550502400	57	4605
2026-01-30 10:10:57.66	184.41	64.79	-43.8	-45.4	18.1	0.00e+00	0	42	0	551550976	58	4497
2026-01-30 10:10:59.24	185.06	65.44	-43.6	-45.0	18.4	0.00e+00	0	42	0	554696704	58	4333
2026-01-30 10:10:59.88	185.33	65.70	-43.6	-45.0	18.4	0.00e+00	0	42	0	555745280	58	4336
2026-01-30 10:11:01.32	185.97	66.29	-43.7	-45.2	18.3	0.00e+00	0	42	0	558891008	58	4392
2026-01-30 10:11:02.03	186.30	66.59	-44.0	-45.5	18.0	0.00e+00	0	42	0	559939584	58	4578
2026-01-30 10:11:03.32	186.92	67.12	-44.3	-45.9	17.5	0.00e+00	0	42	0	562036736	59	4541
2026-01-30 10:11:04.04	187.27	67.42	-44.4	-46.2	17.3	0.00e+00	0	42	0	564133888	59	4662
2026-01-30 10:11:05.32	187.94	67.95	-44.6	-46.4	17.2	0.00e+00	0	42	0	566231040	60	4502
2026-01-30 10:11:06.04	188.33	68.25	-44.0	-45.6	17.9	0.00e+00	0	42	0	567279616	60	4119
2026-01-30 10:11:07.33	189.05	68.79	-43.5	-44.9	18.6	0.00e+00	0	43	0	570425344	58	4255
2026-01-30 10:11:08.05	189.48	69.08	-43.4	-44.7	18.7	0.00e+00	0	43	0	571473920	58	4183
2026-01-30 10:11:09.33	190.26	69.62	-43.5	-44.9	18.5	0.00e+00	0	42	0	573571072	58	4280
2026-01-30 10:11:10.05	190.72	69.91	-43.9	-45.4	18.1	0.00e+00	0	43	0	574619648	58	4501
2026-01-30 10:11:11.34	191.59	70.45	-44.1	-45.6	17.9	0.00e+00	0	42	0	577765376	59	4385
2026-01-30 10:11:12.23	192.21	70.82	-44.0	-45.5	18.0	0.00e+00	0	42	0	578813952	59	4307
2026-01-30 10:11:13.71	193.31	71.43	-43.8	-45.2	18.2	0.00e+00	0	42	0	581959680	59	4176
2026-01-30 10:11:14.43	193.87	71.72	-44.3	-45.9	17.7	0.00e+00	0	42	0	583008256	59	4497
2026-01-30 10:11:15.72	194.92	72.25	-44.8	-46.6	17.0	0.00e+00	0	42	0	586153984	60	4634
2026-01-30 10:11:16.44	195.54	72.54	-44.6	-46.4	17.2	0.00e+00	0	42	0	587202560	60	4540
2026-01-30 10:11:17.73	196.71	73.06	-44.9	-46.8	16.9	0.00e+00	0	42	0	589299712	60	4710
2026-01-30 10:11:18.44	197.38	73.35	-45.0	-46.9	16.7	0.00e+00	0	42	0	590348288	60	4806
2026-01-30 10:11:19.73	198.66	73.86	-45.3	-47.4	16.1	0.00e+00	0	43	0	593494016	61	4796
2026-01-30 10:11:20.56	199.54	74.19	-45.3	-47.5	16.1	0.00e+00	0	42	0	594542592	61	4819
2026-01-30 10:11:21.71	200.81	74.63	-45.5	-47.6	15.9	0.00e+00	0	42	0	596639744	61	4917
2026-01-30 10:11:22.57	201.81	74.97	-45.3	-47.3	16.1	0.00e+00	0	43	0	598736896	61	4756
2026-01-30 10:11:23.72	203.23	75.40	-45.3	-47.3	16.3	0.00e+00	0	43	0	600834048	61	4707
2026-01-30 10:11:24.85	204.71	75.82	-45.4	-47.4	16.2	0.00e+00	0	42	0	602931200	61	4788
2026-01-30 10:11:25.71	205.89	76.14	-45.8	-48.0	15.6	0.00e+00	0	42	0	605028352	62	4837
2026-01-30 10:11:26.85	207.55	76.55	-46.2	-48.6	14.9	0.00e+00	0	42	0	606076928	63	4913
2026-01-30 10:11:27.71	208.87	76.85	-46.6	-49.4	14.2	7.00e-07	0	42	0	608174080	64	5048
2026-01-30 10:11:28.86	210.74	77.25	-46.7	-49.5	14.0	5.30e-06	0	43	0	610271232	64	5101
2026-01-30 10:11:29.72	212.21	77.53	-46.4	-49.0	14.6	0.00e+00	0	42	0	612368384	64	4831
2026-01-30 10:11:30.86	214.28	77.90	-46.0	-48.3	15.2	0.00e+00	0	42	0	614465536	63	4722
2026-01-30 10:11:31.72	215.92	78.17	-45.4	-47.3	16.2	0.00e+00	0	42	0	615514112	62	4454
2026-01-30 10:11:32.86	218.21	78.51	-44.6	-46.3	17.2	0.00e+00	0	42	0	617611264	61	4221
2026-01-30 10:11:33.72	220.03	78.75	-44.1	-45.7	17.9	0.00e+00	0	42	0	619708416	60	4167
2026-01-30 10:11:34.87	222.60	79.06	-44.4	-46.1	17.4	0.00e+00	0	42	0	621805568	59	4634
2026-01-30 10:11:35.73	224.61	79.28	-44.4	-46.0	17.5	0.00e+00	0	42	0	622854144	59	4592
2026-01-30 10:11:36.87	227.40	79.54	-43.6	-45.0	18.4	0.00e+00	0	43	0	624951296	59	4098
2026-01-30 10:11:37.73	229.60	79.73	-43.5	-44.9	18.6	0.00e+00	0	43	0	627048448	58	4255
2026-01-30 10:11:38.88	232.66	79.95	-43.3	-44.8	18.7	0.00e+00	0	42	0	629145600	58	4218
2026-01-30 10:11:39.73	235.01	80.10	-43.6	-45.1	18.4	0.00e+00	0	43	0	631242752	58	4369
2026-01-30 10:11:40.88	238.29	80.27	-44.3	-45.9	17.6	0.00e+00	0	43	0	633339904	59	4529
2026-01-30 10:11:41.74	240.82	80.37	-44.5	-46.3	17.3	0.00e+00	0	42	0	634388480	60	4471
2026-01-30 10:11:42.88	244.25	80.49	-44.0	-45.6	17.9	0.00e+00	0	42	0	636485632	60	4145
2026-01-30 10:11:43.74	246.88	80.55	-43.8	-45.4	18.0	0.00e+00	0	43	0	638582784	59	4254
2026-01-30 10:11:44.89	250.45	80.60	-43.8	-45.3	18.2	0.00e+00	0	43	0	640679936	59	4218
2026-01-30 10:11:45.74	253.10	80.62	-43.9	-45.5	18.0	0.00e+00	0	43	0	641728512	59	4303
2026-01-30 10:11:46.89	256.70	80.60	-44.6	-46.4	17.3	0.00e+00	0	42	0	643825664	59	4764
2026-01-30 10:11:47.75	259.37	80.57	-44.5	-46.3	17.3	0.00e+00	0	42	0	645922816	59	4745
2026-01-30 10:11:49.02	263.27	80.49	-43.9	-45.5	18.1	0.00e+00	0	42	0	648019968	59	4326
2026-01-30 10:11:49.74	265.45	80.42	-43.8	-45.3	18.3	0.00e+00	0	42	0	649068544	59	4205
2026-01-30 10:11:51.03	269.26	80.27	-43.7	-45.2	18.3	0.00e+00	0	42	0	652214272	59	4161
2026-01-30 10:11:51.75	271.33	80.17	-43.9	-45.4	18.2	0.00e+00	0	42	0	653262848	59	4263
2026-01-30 10:11:53.04	274.92	79.95	-44.1	-45.8	17.8	0.00e+00	0	42	0	655360000	59	4454
2026-01-30 10:11:53.75	276.83	79.82	-44.0	-45.6	18.0	0.00e+00	0	42	0	657457152	59	4341
2026-01-30 10:11:55.04	280.16	79.55	-43.0	-44.3	19.2	0.00e+00	0	43	0	659554304	58	3979
2026-01-30 10:11:55.75	281.92	79.39	-42.8	-44.0	19.4	0.00e+00	0	43	0	660602880	57	4098
2026-01-30 10:11:57.04	284.97	79.07	-43.1	-44.5	19.1	0.00e+00	0	42	0	662700032	57	4295
2026-01-30 10:11:57.76	286.59	78.88	-43.0	-44.3	19.0	0.00e+00	0	42	0	664797184	57	4204
2026-01-30 10:11:59.05	289.35	78.52	-43.6	-45.0	18.6	0.00e+00	0	42	0	666894336	57	4566
2026-01-30 10:11:59.76	290.80	78.31	-44.1	-45.6	18.0	0.00e+00	0	42	0	667942912	58	4641
2026-01-30 10:12:01.05	293.29	77.91	-44.6	-46.3	17.3	0.00e+00	0	42	0	671088640	59	4750
2026-01-30 10:12:01.77	294.61	77.68	-45.3	-47.4	16.3	0.00e+00	0	43	0	672137216	61	4781
2026-01-30 10:12:03.06	296.85	77.26	-45.9	-48.2	15.4	0.00e+00	0	43	0	674234368	63	4676
2026-01-30 10:12:03.77	298.02	77.02	-45.6	-47.7	15.9	7.00e-07	0	43	0	676331520	63	4440
2026-01-30 10:12:05.06	300.02	76.57	-45.9	-48.1	15.6	0.00e+00	0	42	0	678428672	62	4919
2026-01-30 10:12:05.78	301.09	76.31	-46.3	-48.8	14.9	0.00e+00	0	42	0	679477248	63	5000
2026-01-30 10:12:07.07	302.89	75.84	-46.3	-48.7	14.9	0.00e+00	0	42	0	681574400	63	4953
2026-01-30 10:12:07.90	303.98	75.53	-46.1	-48.6	15.0	0.00e+00	0	42	0	683671552	63	4876
2026-01-30 10:12:09.04	305.41	75.10	-45.4	-47.5	16.1	0.00e+00	0	42	0	685768704	62	4555
2026-01-30 10:12:09.90	306.43	74.77	-44.7	-46.5	17.1	0.00e+00	0	43	0	686817280	61	4297
2026-01-30 10:12:11.05	307.72	74.32	-44.7	-46.5	17.1	0.00e+00	0	43	0	689963008	61	4339
2026-01-30 10:12:11.91	308.64	73.99	-45.5	-47.6	16.1	0.00e+00	0	42	0	691011584	61	4925
2026-01-30 10:12:13.05	309.80	73.53	-44.8	-46.5	17.2	0.00e+00	0	42	0	693108736	61	4331
2026-01-30 10:12:13.91	310.63	73.19	-45.1	-47.0	16.7	0.00e+00	0	42	0	695205888	61	4577
2026-01-30 10:12:15.06	311.68	72.73	-45.6	-47.7	16.0	0.00e+00	0	42	0	697303040	61	4952
2026-01-30 10:12:15.92	312.43	72.38	-45.1	-47.0	16.7	0.00e+00	0	42	0	698351616	61	4562
2026-01-30 10:12:17.06	313.38	71.92	-45.0	-46.9	16.8	0.00e+00	0	43	0	700448768	61	4498
2026-01-30 10:12:17.92	314.07	71.57	-44.7	-46.5	17.2	0.00e+00	0	43	0	702545920	61	4298
2026-01-30 10:12:19.07	314.94	71.09	-44.2	-45.8	17.8	0.00e+00	0	42	0	704643072	60	4231
2026-01-30 10:12:19.93	315.56	70.74	-43.9	-45.4	18.1	0.00e+00	0	42	0	705691648	59	4271
2026-01-30 10:12:21.07	316.35	70.27	-44.9	-46.7	17.0	0.00e+00	0	42	0	707788800	60	4679
2026-01-30 10:12:21.93	316.92	69.91	-45.1	-47.1	16.6	0.00e+00	0	43	0	709885952	61	4610
2026-01-30 10:12:23.08	317.64	69.44	-44.8	-46.5	17.1	0.00e+00	0	42	0	711983104	61	4340
2026-01-30 10:12:23.94	318.16	69.08	-45.1	-47.0	16.7	0.00e+00	0	43	0	714080256	61	4548
2026-01-30 10:12:25.08	318.83	68.61	-45.5	-47.5	16.1	0.00e+00	0	43	0	716177408	61	4868
2026-01-30 10:12:25.94	319.30	68.25	-45.8	-47.9	15.9	0.00e+00	0	43	0	717225984	62	4807
2026-01-30 10:12:27.17	319.96	67.74	-46.5	-49.1	14.5	0.00e+00	0	42	0	719323136	63	5208
2026-01-30 10:12:28.03	320.40	67.39	-46.1	-48.5	15.2	0.00e+00	0	42	0	721420288	63	4835
2026-01-30 10:12:29.17	320.96	66.92	-44.7	-46.4	17.2	0.00e+00	0	42	0	723517440	61	4290
2026-01-30 10:12:30.03	321.37	66.56	-44.4	-46.0	17.6	0.00e+00	0	42	0	725614592	60	4302
2026-01-30 10:12:31.17	321.89	66.09	-44.7	-46.5	17.2	0.00e+00	0	42	0	727711744	60	4567
2026-01-30 10:12:32.03	322.26	65.74	-44.8	-46.5	17.1	0.00e+00	0	43	0	728760320	60	4590
2026-01-30 10:12:33.18	322.75	65.27	-44.3	-45.9	17.7	0.00e+00	0	42	0	730857472	60	4264
2026-01-30 10:12:34.04	323.10	64.92	-44.0	-45.6	18.0	0.00e+00	0	42	0	732954624	60	4117
2026-01-30 10:12:35.18	323.55	64.45	-42.9	-44.2	19.3	0.00e+00	0	43	0	735051776	57	4162
2026-01-30 10:12:36.04	323.87	64.10	-41.5	-42.6	20.6	0.00e+00	0	42	0	736100352	55	3907
2026-01-30 10:12:37.19	324.30	63.63	-41.6	-42.7	20.6	0.00e+00	0	42	0	738197504	54	4164
2026-01-30 10:12:38.05	324.60	63.29	-42.0	-43.2	20.1	0.00e+00	0	42	0	740294656	54	4430
2026-01-30 10:12:39.19	324.99	62.83	-41.7	-42.8	20.5	0.00e+00	0	42	0	742391808	55	3971
2026-01-30 10:12:40.05	325.27	62.48	-40.9	-42.0	21.2	0.00e+00	0	43	0	743440384	53	4055
2026-01-30 10:12:41.20	325.64	62.02	-41.1	-42.1	21.1	0.00e+00	0	43	0	745537536	53	4142
2026-01-30 10:12:42.05	325.91	61.68	-41.4	-42.4	20.8	0.00e+00	0	43	0	747634688	53	4279
2026-01-30 10:12:43.20	326.25	61.23	-42.0	-43.1	20.2	0.00e+00	0	42	0	749731840	54	4364
2026-01-30 10:12:44.06	326.50	60.89	-42.6	-43.9	19.5	0.00e+00	0	42	0	751828992	55	4508
2026-01-30 10:12:45.20	326.82	60.44	-44.1	-45.7	17.9	0.00e+00	0	42	0	753926144	58	4683
2026-01-30 10:12:46.12	327.07	60.08	-43.9	-45.5	18.1	0.00e+00	0	42	0	754974720	59	4296
2026-01-30 10:12:47.30	327.39	59.62	-43.2	-44.5	19.0	0.00e+00	0	42	0	757071872	58	4072
2026-01-30 10:12:48.16	327.61	59.29	-43.4	-44.8	18.7	0.00e+00	0	42	0	759169024	58	4198
2026-01-30 10:12:49.53	327.95	58.76	-45.2	-47.1	16.6	0.00e+00	0	43	0	761266176	60	4890
2026-01-30 10:12:50.25	328.12	58.49	-45.5	-47.7	16.0	0.00e+00	0	43	0	763363328	61	4970
2026-01-30 10:12:51.54	328.43	58.00	-45.1	-47.2	16.4	0.00e+00	0	42	0	765460480	62	4415
2026-01-30 10:12:52.25	328.59	57.73	-44.7	-46.6	17.0	0.00e+00	0	42	0	766509056	61	4380
2026-01-30 10:12:53.54	328.87	57.24	-44.5	-46.2	17.5	0.00e+00	0	43	0	769654784	60	4422
2026-01-30 10:12:54.29	329.04	56.96	-43.8	-45.3	18.2	0.00e+00	0	42	0	770703360	59	4239
2026-01-30 10:12:55.58	329.31	56.48	-43.3	-44.7	18.9	0.00e+00	0	42	0	772800512	58	4181
2026-01-30 10:12:56.29	329.45	56.22	-43.3	-44.8	18.8	0.00e+00	0	42	0	773849088	58	4199
2026-01-30 10:12:57.58	329.71	55.75	-43.4	-44.9	18.7	0.00e+00	0	42	0	776994816	58	4272
2026-01-30 10:12:58.30	329.85	55.48	-43.2	-44.6	19.0	0.00e+00	0	42	0	778043392	58	4126
2026-01-30 10:12:59.59	330.09	55.01	-42.1	-43.3	20.2	0.00e+00	0	42	0	780140544	56	3976
2026-01-30 10:13:00.30	330.23	54.76	-41.4	-42.5	20.8	0.00e+00	0	42	0	782237696	54	4078
2026-01-30 10:13:01.59	330.46	54.29	-41.6	-42.7	20.6	0.00e+00	0	42	0	784334848	54	4166
2026-01-30 10:13:02.30	330.58	54.04	-42.0	-43.2	20.2	0.00e+00	0	43	0	785383424	54	4418
2026-01-30 10:13:03.59	330.81	53.58	-42.5	-43.9	19.5	0.00e+00	0	42	0	787480576	55	4496
2026-01-30 10:13:04.30	330.92	53.33	-42.6	-44.0	19.4	0.00e+00	0	42	0	789577728	55	4555
2026-01-30 10:13:05.77	331.16	52.82	-43.1	-44.5	19.1	0.00e+00	0	43	0	791674880	56	4567
2026-01-30 10:13:06.48	331.28	52.57	-43.7	-45.1	18.5	0.00e+00	0	42	0	793772032	57	4644
2026-01-30 10:13:07.77	331.48	52.13	-44.7	-46.6	17.2	0.00e+00	0	43	0	795869184	60	4604
2026-01-30 10:13:08.49	331.59	51.88	-44.9	-46.8	16.8	0.00e+00	0	42	0	796917760	60	4725
2026-01-30 10:13:09.78	331.78	51.44	-45.3	-47.2	16.4	0.00e+00	0	42	0	800063488	61	4700
2026-01-30 10:13:10.49	331.88	51.20	-45.8	-48.0	15.8	0.00e+00	0	42	0	801112064	62	4821
2026-01-30 10:13:11.78	332.07	50.76	-46.8	-49.6	14.0	0.00e+00	0	43	0	803209216	64	5192
2026-01-30 10:13:12.49	332.17	50.53	-47.4	-50.8	12.8	5.30e-06	0	42	0	804257792	65	5618
2026-01-30 10:13:13.78	332.34	50.10	-47.4	-50.9	12.6	2.02e-04	0	43	0	807403520	65	5721
2026-01-30 10:13:14.50	332.44	49.86	-47.1	-50.4	13.2	5.26e-05	0	43	0	808452096	65	5358
2026-01-30 10:13:15.79	332.61	49.44	-47.0	-50.1	13.4	1.52e-05	0	42	0	810549248	65	5174
2026-01-30 10:13:16.66	332.72	49.16	-47.3	-50.6	12.9	2.13e-05	0	42	0	812646400	65	5466
2026-01-30 10:13:18.11	332.90	48.69	-46.9	-49.8	13.8	2.05e-05	0	42	0	815792128	65	5005
2026-01-30 10:13:18.83	332.99	48.46	-46.6	-49.3	14.4	1.50e-06	0	43	0	816840704	65	4706
2026-01-30 10:13:20.12	333.14	48.05	-45.7	-47.8	15.9	0.00e+00	0	43	0	818937856	63	4463
2026-01-30 10:13:20.83	333.23	47.83	-45.4	-47.4	16.3	0.00e+00	0	42	0	819986432	62	4504
2026-01-30 10:13:22.12	333.37	47.42	-44.9	-46.7	17.0	0.00e+00	0	42	0	823132160	61	4437
2026-01-30 10:13:22.84	333.45	47.20	-45.2	-47.1	16.5	0.00e+00	0	43	0	824180736	61	4626
2026-01-30 10:13:24.13	333.60	46.80	-45.9	-48.3	15.5	0.00e+00	0	42	0	826277888	62	4986
2026-01-30 10:13:24.89	333.68	46.57	-45.9	-48.2	15.5	0.00e+00	0	43	0	828375040	62	4982
2026-01-30 10:13:26.18	333.82	46.17	-45.3	-47.4	16.3	0.00e+00	0	42	0	830472192	62	4507
2026-01-30 10:13:27.00	333.90	45.93	-44.8	-46.6	17.0	0.00e+00	0	43	0	831520768	61	4381
2026-01-30 10:13:28.14	334.02	45.58	-44.3	-46.0	17.6	0.00e+00	0	43	0	833617920	60	4312
2026-01-30 10:13:29.24	334.13	45.26	-44.1	-45.6	18.0	0.00e+00	0	42	0	835715072	59	4377
2026-01-30 10:13:30.09	334.21	45.01	-43.8	-45.2	18.3	0.00e+00	0	43	0	837812224	59	4193
2026-01-30 10:13:31.59	334.36	44.57	-43.7	-45.1	18.5	0.00e+00	0	43	0	840957952	59	4115
2026-01-30 10:13:32.31	334.43	44.36	-43.5	-44.8	18.7	0.00e+00	0	43	0	842006528	59	4004
2026-01-30 10:13:33.60	334.55	43.98	-43.7	-45.1	18.5	0.00e+00	0	43	0	844103680	58	4358
2026-01-30 10:13:34.32	334.61	43.78	-43.9	-45.4	18.2	0.00e+00	0	43	0	845152256	58	4533
2026-01-30 10:13:35.61	334.73	43.41	-44.2	-45.9	17.7	0.00e+00	0	43	0	848297984	59	4513
2026-01-30 10:13:36.32	334.79	43.21	-44.7	-46.5	17.2	0.00e+00	0	43	0	849346560	59	4828
2026-01-30 10:13:37.61	334.91	42.85	-45.0	-47.1	16.7	0.00e+00	0	43	0	851443712	60	4877
2026-01-30 10:13:38.47	334.98	42.61	-44.7	-46.7	17.0	0.00e+00	0	43	0	853540864	60	4660
2026-01-30 10:13:39.61	335.07	42.29	-43.9	-45.6	18.1	0.00e+00	0	43	0	855638016	59	4346
2026-01-30 10:13:40.47	335.15	42.06	-43.4	-44.9	18.7	0.00e+00	0	43	0	856686592	58	4267
2026-01-30 10:13:41.62	335.24	41.75	-42.7	-44.0	19.5	0.00e+00	0	42	0	859832320	57	4083
2026-01-30 10:13:42.48	335.31	41.51	-42.5	-43.7	19.8	0.00e+00	0	43	0	860880896	56	4179
2026-01-30 10:13:43.62	335.40	41.21	-42.5	-43.7	19.8	0.00e+00	0	42	0	862978048	56	4174
2026-01-30 10:13:44.48	335.46	40.98	-43.1	-44.4	19.1	0.00e+00	0	43	0	865075200	56	4524
2026-01-30 10:13:45.63	335.55	40.67	-43.5	-45.0	18.6	0.00e+00	0	43	0	867172352	57	4554
2026-01-30 10:13:46.49	335.62	40.45	-44.1	-45.7	17.9	0.00e+00	0	43	0	868220928	58	4669
2026-01-30 10:13:47.63	335.70	40.15	-44.8	-46.7	17.0	0.00e+00	0	43	0	870318080	60	4665
2026-01-30 10:13:48.49	335.76	39.93	-45.0	-47.0	16.7	0.00e+00	0	42	0	872415232	60	4834
2026-01-30 10:13:49.64	335.85	39.63	-44.9	-46.9	16.8	0.00e+00	0	43	0	874512384	60	4775
2026-01-30 10:13:50.55	335.91	39.40	-44.7	-46.7	17.0	0.00e+00	0	43	0	875560960	60	4672
2026-01-30 10:13:51.55	335.98	39.15	-44.3	-46.2	17.5	0.00e+00	0	43	0	877658112	60	4398
2026-01-30 10:13:52.55	336.05	38.89	-44.0	-45.8	17.9	0.00e+00	0	43	0	879755264	60	4205
2026-01-30 10:13:53.56	336.12	38.64	-44.1	-45.8	17.9	0.00e+00	0	43	0	881852416	60	4238
2026-01-30 10:13:54.56	336.19	38.39	-44.2	-45.9	17.8	0.00e+00	0	43	0	883949568	60	4247
2026-01-30 10:13:55.56	336.25	38.15	-43.9	-45.4	18.3	0.00e+00	0	43	0	884998144	59	4261
2026-01-30 10:13:56.56	336.32	37.90	-44.0	-45.5	18.1	0.00e+00	0	43	0	887095296	59	4320
2026-01-30 10:13:57.57	336.38	37.66	-44.6	-46.2	17.4	0.00e+00	0	43	0	889192448	59	4698
2026-01-30 10:13:58.56	336.44	37.42	-45.1	-47.0	16.6	0.00e+00	0	43	0	891289600	60	4843
2026-01-30 10:13:59.57	336.51	37.18	-45.6	-47.7	16.0	0.00e+00	0	43	0	893386752	61	4939
2026-01-30 10:14:00.57	336.57	36.94	-46.1	-48.5	15.2	0.00e+00	0	43	0	894435328	62	5124
2026-01-30 10:14:01.57	336.63	36.71	-46.2	-48.6	15.1	7.00e-07	0	43	0	896532480	63	4925
2026-01-30 10:14:02.57	336.69	36.47	-45.9	-48.2	15.5	0.00e+00	0	43	0	898629632	63	4705
2026-01-30 10:14:03.57	336.75	36.24	-45.6	-47.8	15.9	0.00e+00	0	43	0	900726784	63	4454
2026-01-30 10:14:04.57	336.80	36.01	-45.1	-47.2	16.5	0.00e+00	0	42	0	902823936	62	4407
2026-01-30 10:14:05.57	336.86	35.78	-45.0	-46.9	16.8	0.00e+00	0	42	0	903872512	61	4543
2026-01-30 10:14:06.58	336.92	35.55	-44.9	-46.9	16.8	0.00e+00	0	43	0	905969664	61	4524
2026-01-30 10:14:07.58	336.98	35.32	-44.6	-46.4	17.2	0.00e+00	0	43	0	908066816	61	4289
2026-01-30 10:14:08.59	337.03	35.10	-44.3	-46.1	17.6	0.00e+00	0	43	0	910163968	60	4378
2026-01-30 10:14:09.59	337.09	34.87	-44.3	-46.0	17.7	0.00e+00	0	43	0	912261120	60	4322
2026-01-30 10:14:10.59	337.14	34.65	-44.3	-46.1	17.6	0.00e+00	0	43	0	913309696	60	4382
2026-01-30 10:14:11.85	337.21	34.37	-44.3	-46.0	17.6	0.00e+00	0	43	0	916455424	60	4336
2026-01-30 10:14:12.68	337.25	34.19	-44.5	-46.4	17.3	0.00e+00	0	43	0	917504000	60	4540
2026-01-30 10:14:13.82	337.31	33.95	-44.9	-46.9	16.8	0.00e+00	0	43	0	919601152	60	4810
2026-01-30 10:14:14.81	337.36	33.73	-45.4	-47.6	16.1	0.00e+00	0	43	0	921698304	61	4894
2026-01-30 10:14:15.99	337.42	33.48	-45.9	-48.3	15.5	0.00e+00	0	42	0	923795456	62	4993
2026-01-30 10:14:16.85	337.46	33.30	-46.1	-48.6	15.1	0.00e+00	0	42	0	924844032	62	5192
2026-01-30 10:14:18.00	337.52	33.06	-46.3	-48.9	14.9	0.00e+00	0	43	0	927989760	63	5051
2026-01-30 10:14:18.85	337.56	32.88	-46.3	-48.9	14.9	0.00e+00	0	42	0	929038336	63	5074
2026-01-30 10:14:20.00	337.62	32.64	-46.2	-48.8	15.0	0.00e+00	0	43	0	931135488	63	5015
2026-01-30 10:14:20.86	337.66	32.46	-46.3	-48.8	14.9	0.00e+00	0	43	0	933232640	63	5035
2026-01-30 10:14:22.01	337.71	32.23	-46.1	-48.5	15.2	0.00e+00	0	42	0	935329792	63	4842
2026-01-30 10:14:22.87	337.75	32.05	-46.0	-48.4	15.4	0.00e+00	0	43	0	936378368	63	4762
2026-01-30 10:14:24.02	337.80	31.82	-45.9	-48.4	15.4	0.00e+00	0	43	0	938475520	63	4766
2026-01-30 10:14:24.88	337.84	31.65	-45.8	-48.3	15.5	0.00e+00	0	43	0	940572672	63	4749
2026-01-30 10:14:26.02	337.89	31.42	-45.5	-48.2	15.5	0.00e+00	0	43	0	942669824	63	4683
2026-01-30 10:14:26.89	337.93	31.25	-45.4	-48.2	15.4	0.00e+00	0	43	0	943718400	62	4969
2026-01-30 10:14:28.03	337.98	31.03	-45.2	-48.0	15.8	0.00e+00	0	43	0	945815552	62	4822
2026-01-30 10:14:28.89	338.02	30.86	-45.2	-47.9	15.8	0.00e+00	0	42	0	947912704	62	4811
2026-01-30 10:14:30.15	338.07	30.61	-45.1	-47.7	16.1	0.00e+00	0	43	0	950009856	62	4665
2026-01-30 10:14:31.29	338.12	30.40	-45.0	-47.4	16.3	0.00e+00	0	43	0	952107008	62	4511
2026-01-30 10:14:32.15	338.16	30.23	-45.1	-47.3	16.4	0.00e+00	0	43	0	954204160	62	4474
2026-01-30 10:14:33.30	338.20	30.01	-44.8	-46.7	17.0	0.00e+00	0	43	0	956301312	61	4430
2026-01-30 10:14:34.16	338.24	29.85	-44.5	-46.3	17.4	0.00e+00	0	42	0	957349888	61	4214
2026-01-30 10:14:35.35	338.29	29.63	-44.4	-46.2	17.6	0.00e+00	0	42	0	960495616	60	4393
2026-01-30 10:14:36.21	338.32	29.47	-44.3	-46.0	17.7	0.00e+00	0	43	0	961544192	60	4308
2026-01-30 10:14:37.36	338.37	29.26	-44.3	-46.0	17.7	0.00e+00	0	43	0	963641344	60	4333
2026-01-30 10:14:38.21	338.40	29.10	-44.2	-46.0	17.7	0.00e+00	0	43	0	965738496	60	4295
2026-01-30 10:14:39.36	338.45	28.89	-44.3	-46.0	17.7	0.00e+00	0	43	0	967835648	60	4330
2026-01-30 10:14:40.22	338.48	28.73	-44.3	-46.0	17.7	0.00e+00	0	43	0	968884224	60	4314
2026-01-30 10:14:41.37	338.52	28.53	-44.1	-45.8	17.8	0.00e+00	0	43	0	970981376	60	4223
2026-01-30 10:14:42.31	338.56	28.36	-44.1	-45.8	17.9	0.00e+00	0	42	0	973078528	60	4223
2026-01-30 10:14:43.48	338.60	28.15	-44.1	-45.7	17.9	0.00e+00	0	43	0	975175680	60	4189
2026-01-30 10:14:44.34	338.63	28.00	-44.2	-45.9	17.8	0.00e+00	0	43	0	977272832	60	4244
2026-01-30 10:14:45.48	338.68	27.80	-43.9	-45.6	18.1	0.00e+00	0	42	0	979369984	59	4344
2026-01-30 10:14:46.34	338.71	27.65	-43.8	-45.5	18.1	0.00e+00	0	43	0	980418560	59	4322
2026-01-30 10:14:47.48	338.75	27.45	-43.8	-45.5	17.8	0.00e+00	0	43	0	982515712	59	4326
2026-01-30 10:14:48.34	338.78	27.30	-43.6	-45.3	18.3	0.00e+00	0	42	0	984612864	59	4223
2026-01-30 10:14:49.49	338.82	27.11	-43.5	-45.2	18.5	0.00e+00	0	43	0	986710016	58	4402
2026-01-30 10:14:50.35	338.85	26.96	-43.6	-45.3	18.4	0.00e+00	0	43	0	987758592	58	4475
2026-01-30 10:14:51.50	338.89	26.77	-43.3	-45.0	18.6	0.00e+00	0	43	0	989855744	58	4301
2026-01-30 10:14:52.36	338.92	26.62	-43.3	-45.0	18.6	0.00e+00	0	43	0	991952896	58	4306
2026-01-30 10:14:53.51	338.96	26.43	-43.3	-44.9	18.7	0.00e+00	0	43	0	994050048	58	4272
2026-01-30 10:14:54.37	338.99	26.29	-43.3	-44.9	18.6	0.00e+00	0	43	0	996147200	58	4290
2026-01-30 10:14:55.51	339.02	26.10	-43.4	-44.9	18.7	0.00e+00	0	43	0	998244352	58	4281
2026-01-30 10:14:56.37	339.05	25.96	-43.4	-45.0	18.6	0.00e+00	0	43	0	999292928	58	4317
2026-01-30 10:14:57.52	339.09	25.77	-43.5	-45.0	18.6	0.00e+00	0	43	0	1001390080	58	4313
2026-01-30 10:14:58.37	339.12	25.63	-43.5	-44.9	18.7	0.00e+00	0	43	0	1003487232	58	4283
2026-01-30 10:14:59.70	339.16	25.42	-43.5	-44.9	18.7	0.00e+00	0	43	0	1005584384	58	4291
2026-01-30 10:15:00.41	339.18	25.31	-43.4	-44.9	18.7	0.00e+00	0	43	0	1006632960	58	4255
2026-01-30 10:15:01.70	339.22	25.10	-43.5	-45.0	18.6	0.00e+00	0	42	0	1009778688	58	4310
2026-01-30 10:15:02.42	339.25	24.99	-43.4	-44.9	18.7	0.00e+00	0	43	0	1010827264	58	4272
2026-01-30 10:15:03.70	339.29	24.79	-43.2	-44.7	18.9	0.00e+00	0	43	0	1012924416	58	4163
2026-01-30 10:15:04.42	339.31	24.67	-43.1	-44.7	18.9	0.00e+00	0	43	0	1015021568	58	4154
2026-01-30 10:15:05.71	339.35	24.47	-43.1	-44.6	19.0	0.00e+00	0	43	0	1017118720	58	4115
2026-01-30 10:15:06.62	339.37	24.33	-43.0	-44.6	19.1	0.00e+00	0	42	0	1019215872	58	4114
2026-01-30 10:15:07.98	339.41	24.13	-42.9	-44.5	19.1	0.00e+00	0	43	0	1021313024	57	4294
2026-01-30 10:15:08.70	339.44	24.02	-42.9	-44.4	19.1	0.00e+00	0	43	0	1022361600	57	4290
2026-01-30 10:15:10.29	339.48	23.78	-42.8	-44.3	19.2	0.00e+00	0	43	0	1025507328	57	4231
2026-01-30 10:15:10.86	339.50	23.69	-42.8	-44.3	19.3	0.00e+00	0	43	0	1026555904	57	4195
2026-01-30 10:15:12.44	339.54	23.45	-42.8	-44.2	19.3	0.00e+00	0	43	0	1029701632	57	4189
2026-01-30 10:15:13.07	339.56	23.36	-42.7	-44.1	19.4	0.00e+00	0	43	0	1030750208	57	4135
2026-01-30 10:15:14.52	339.60	23.15	-42.7	-44.0	19.5	0.00e+00	0	43	0	1033895936	57	4097
2026-01-30 10:15:15.24	339.62	23.04	-42.6	-43.9	19.6	0.00e+00	0	43	0	1034944512	57	4040
2026-01-30 10:15:16.53	339.66	22.85	-42.5	-43.9	19.7	0.00e+00	0	43	0	1037041664	57	4006
2026-01-30 10:15:17.24	339.68	22.75	-42.5	-43.8	19.7	0.00e+00	0	43	0	1038090240	57	3988
2026-01-30 10:15:18.53	339.71	22.57	-42.4	-43.7	19.8	0.00e+00	0	43	0	1041235968	56	4181
2026-01-30 10:15:19.24	339.73	22.46	-42.4	-43.7	19.8	0.00e+00	0	43	0	1042284544	56	4176
2026-01-30 10:15:20.53	339.77	22.28	-42.4	-43.8	19.7	0.00e+00	0	42	0	1044381696	56	4220
2026-01-30 10:15:21.25	339.79	22.18	-42.4	-43.9	19.6	0.00e+00	0	43	0	1046478848	56	4255
2026-01-30 10:15:22.54	339.82	22.00	-42.3	-43.8	19.7	0.00e+00	0	42	0	1048576000	56	4220
2026-01-30 10:15:23.26	339.84	21.90	-42.3	-43.8	19.7	0.00e+00	0	43	0	1049624576	56	4211
2026-01-30 10:15:24.55	339.87	21.72	-42.3	-43.8	19.8	0.00e+00	0	43	0	1052770304	56	4195
2026-01-30 10:15:25.26	339.89	21.62	-42.4	-43.9	19.6	0.00e+00	0	42	0	1053818880	56	4252
2026-01-30 10:15:26.55	339.93	21.44	-42.4	-43.9	19.6	0.00e+00	0	43	0	1055916032	56	4270
2026-01-30 10:15:27.27	339.94	21.34	-42.5	-44.0	19.5	0.00e+00	0	42	0	1056964608	56	4303
2026-01-30 10:15:28.55	339.98	21.17	-42.6	-44.0	19.5	0.00e+00	0	43	0	1060110336	56	4303
2026-01-30 10:15:29.27	340.00	21.07	-42.7	-44.0	19.5	0.00e+00	0	43	0	1061158912	56	4322
2026-01-30 10:15:30.56	340.03	20.89	-42.8	-44.2	19.4	0.00e+00	0	43	0	1063256064	56	4398
2026-01-30 10:15:31.28	340.05	20.80	-42.8	-44.2	19.3	0.00e+00	0	43	0	1065353216	56	4412
2026-01-30 10:15:32.57	340.08	20.63	-42.9	-44.3	19.3	0.00e+00	0	43	0	1067450368	56	4451
2026-01-30 10:15:33.29	340.09	20.53	-42.9	-44.3	19.2	0.00e+00	0	43	0	1068498944	56	4460
2026-01-30 10:15:34.58	340.13	20.36	-42.9	-44.3	19.2	0.00e+00	0	43	0	1070596096	56	4484
2026-01-30 10:15:35.30	340.14	20.27	-42.9	-44.4	19.1	0.00e+00	0	43	0	1072693248	56	4506
2026-01-30 10:15:36.59	340.17	20.10	-43.0	-44.5	19.0	0.00e+00	0	43	0	1074790400	56	4588
2026-01-30 10:15:37.30	340.19	20.00	-43.0	-44.5	19.0	0.00e+00	0	43	0	1075838976	56	4589
2026-01-30 10:15:38.59	340.22	19.84	-43.0	-44.5	19.0	0.00e+00	0	43	0	1078984704	56	4591
2026-01-30 10:15:39.31	340.24	19.75	-43.1	-44.6	18.9	0.00e+00	0	43	0	1080033280	56	4650
2026-01-30 10:15:40.85	340.27	19.55	-43.2	-44.7	18.8	0.00e+00	0	43	0	1083179008	56	4694
2026-01-30 10:15:41.56	340.29	19.46	-43.3	-44.9	18.7	0.00e+00	0	43	0	1084227584	57	4500
2026-01-30 10:15:42.85	340.32	19.30	-43.3	-44.8	18.8	0.00e+00	0	42	0	1086324736	57	4465
2026-01-30 10:15:43.56	340.34	19.21	-43.3	-44.8	18.7	0.00e+00	0	43	0	1088421888	57	4479
2026-01-30 10:15:44.85	340.37	19.04	-43.4	-44.9	18.7	0.00e+00	0	43	0	1090519040	57	4496
2026-01-30 10:15:45.57	340.38	18.95	-43.4	-44.9	18.7	0.00e+00	0	43	0	1091567616	57	4514
2026-01-30 10:15:46.86	340.41	18.79	-43.5	-45.0	18.5	0.00e+00	0	43	0	1093664768	57	4598
2026-01-30 10:15:47.58	340.43	18.71	-43.6	-45.1	18.4	0.00e+00	0	43	0	1095761920	57	4620
2026-01-30 10:15:48.87	340.45	18.55	-43.5	-45.0	18.6	0.00e+00	0	43	0	1097859072	57	4556
2026-01-30 10:15:49.58	340.47	18.46	-43.5	-45.0	18.5	0.00e+00	0	43	0	1098907648	57	4590
2026-01-30 10:15:50.87	340.50	18.30	-43.5	-45.0	18.6	0.00e+00	0	43	0	1102053376	57	4577
2026-01-30 10:15:51.58	340.51	18.22	-43.5	-45.0	18.5	0.00e+00	0	43	0	1103101952	57	4594
2026-01-30 10:15:52.87	340.54	18.06	-43.5	-45.1	18.5	0.00e+00	0	43	0	1105199104	57	4627
2026-01-30 10:15:53.58	340.56	17.98	-43.5	-45.1	18.5	0.00e+00	0	42	0	1106247680	57	4633
2026-01-30 10:15:54.87	340.58	17.82	-43.5	-45.2	18.3	0.00e+00	0	43	0	1109393408	57	4679
2026-01-30 10:15:55.58	340.60	17.74	-43.4	-45.1	18.4	0.00e+00	0	43	0	1110441984	57	4645
2026-01-30 10:15:56.87	340.63	17.59	-43.5	-45.2	18.3	0.00e+00	0	43	0	1112539136	57	4697
2026-01-30 10:15:57.59	340.64	17.50	-43.4	-45.2	18.4	0.00e+00	0	43	0	1114636288	57	4667
2026-01-30 10:15:58.88	340.67	17.35	-43.5	-45.3	18.3	0.00e+00	0	43	0	1116733440	57	4714
2026-01-30 10:15:59.60	340.68	17.27	-43.5	-45.3	18.3	0.00e+00	0	43	0	1117782016	57	4722
2026-01-30 10:16:00.88	340.71	17.12	-43.6	-45.3	18.2	0.00e+00	0	43	0	1120927744	57	4758
2026-01-30 10:16:01.60	340.72	17.04	-43.6	-45.4	18.2	0.00e+00	0	43	0	1121976320	57	4767
2026-01-30 10:16:03.26	340.76	16.85	-43.6	-45.4	18.2	0.00e+00	0	43	0	1125122048	57	4776
2026-01-30 10:16:03.83	340.77	16.78	-43.7	-45.5	18.1	0.00e+00	0	43	0	1126170624	57	4817
2026-01-30 10:16:05.51	340.80	16.59	-43.7	-45.5	18.1	0.00e+00	0	43	0	1129316352	58	4564
2026-01-30 10:16:06.08	340.81	16.53	-43.7	-45.5	18.0	0.00e+00	0	43	0	1130364928	58	4573
2026-01-30 10:16:07.75	340.84	16.34	-43.6	-45.5	18.1	0.00e+00	0	43	0	1133510656	58	4551
2026-01-30 10:16:08.32	340.86	16.28	-43.6	-45.5	18.0	0.00e+00	0	43	0	1134559232	58	4580
2026-01-30 10:16:09.93	340.89	16.10	-43.6	-45.6	18.0	0.00e+00	0	42	0	1137704960	58	4615
2026-01-30 10:16:10.51	340.90	16.03	-43.5	-45.6	18.0	0.00e+00	0	43	0	1138753536	58	4599
2026-01-30 10:16:12.09	340.93	15.86	-43.5	-45.5	18.0	0.00e+00	0	43	0	1141899264	58	4575
2026-01-30 10:16:12.96	340.94	15.76	-43.6	-45.6	17.9	0.00e+00	0	43	0	1142947840	58	4615
2026-01-30 10:16:14.11	340.97	15.64	-43.6	-45.6	18.0	0.00e+00	0	43	0	1145044992	58	4613
2026-01-30 10:16:14.97	340.98	15.55	-43.6	-45.6	18.0	0.00e+00	0	43	0	1147142144	58	4625
2026-01-30 10:16:16.11	341.00	15.42	-43.6	-45.6	18.0	0.00e+00	0	43	0	1149239296	58	4622
2026-01-30 10:16:16.97	341.02	15.33	-43.6	-45.6	18.0	0.00e+00	0	43	0	1150287872	58	4607
2026-01-30 10:16:18.13	341.04	15.21	-43.7	-45.6	18.0	0.00e+00	0	42	0	1152385024	58	4614
2026-01-30 10:16:18.99	341.06	15.12	-43.8	-45.7	17.9	0.00e+00	0	42	0	1154482176	58	4671
2026-01-30 10:16:20.14	341.08	14.99	-43.8	-45.7	17.9	0.00e+00	0	43	0	1156579328	58	4683
2026-01-30 10:16:21.00	341.09	14.90	-43.9	-45.7	17.9	0.00e+00	0	43	0	1157627904	58	4699
2026-01-30 10:16:22.14	341.11	14.78	-44.0	-45.8	17.9	0.00e+00	0	43	0	1160773632	58	4719
2026-01-30 10:16:23.08	341.13	14.68	-44.1	-45.9	17.8	0.00e+00	0	43	0	1161822208	58	4778
2026-01-30 10:16:24.08	341.15	14.58	-44.1	-45.9	17.8	0.00e+00	0	43	0	1163919360	58	4790
2026-01-30 10:16:25.08	341.17	14.48	-44.2	-46.0	17.8	0.00e+00	0	43	0	1166016512	58	4823
2026-01-30 10:16:26.09	341.18	14.37	-44.1	-46.0	17.8	0.00e+00	0	43	0	1168113664	58	4821
2026-01-30 10:16:27.36	341.21	14.24	-44.0	-45.8	17.9	0.00e+00	0	43	0	1170210816	58	4752
2026-01-30 10:16:28.11	341.22	14.16	-44.1	-46.0	17.8	0.00e+00	0	43	0	1171259392	58	4818
2026-01-30 10:16:29.39	341.24	14.03	-44.1	-46.0	17.7	0.00e+00	0	43	0	1173356544	58	4855
2026-01-30 10:16:30.11	341.25	13.96	-44.1	-46.0	17.7	0.00e+00	0	42	0	1175453696	58	4863
2026-01-30 10:16:31.40	341.28	13.83	-44.1	-46.1	17.6	0.00e+00	0	43	0	1177550848	58	4917
2026-01-30 10:16:32.12	341.29	13.76	-44.1	-46.1	17.7	0.00e+00	0	43	0	1178599424	58	4885
2026-01-30 10:16:33.41	341.31	13.63	-44.0	-46.0	17.7	0.00e+00	0	43	0	1181745152	58	4869
2026-01-30 10:16:34.12	341.32	13.56	-44.0	-46.1	17.7	0.00e+00	0	43	0	1182793728	58	4871
2026-01-30 10:16:35.44	341.34	13.43	-43.9	-46.0	17.8	0.00e+00	0	43	0	1184890880	58	4821
2026-01-30 10:16:36.16	341.36	13.36	-43.9	-46.0	17.8	0.00e+00	0	43	0	1186988032	58	4815
2026-01-30 10:16:37.45	341.38	13.23	-43.9	-46.1	17.7	0.00e+00	0	43	0	1189085184	58	4888
2026-01-30 10:16:38.16	341.39	13.16	-43.9	-46.0	17.7	0.00e+00	0	43	0	1190133760	58	4855
2026-01-30 10:16:39.57	341.41	13.02	-44.0	-46.0	17.7	0.00e+00	0	43	0	1193279488	58	4863
2026-01-30 10:16:40.29	341.43	12.95	-43.9	-46.0	17.8	0.00e+00	0	43	0	1194328064	58	4826
2026-01-30 10:16:41.58	341.45	12.83	-44.1	-46.1	17.7	0.00e+00	0	43	0	1196425216	58	4883
2026-01-30 10:16:42.30	341.46	12.76	-44.0	-46.0	17.8	0.00e+00	0	43	0	1198522368	58	4827
2026-01-30 10:16:43.59	341.48	12.63	-44.1	-46.0	17.7	0.00e+00	0	43	0	1200619520	58	4852
2026-01-30 10:16:44.30	341.49	12.56	-44.2	-46.1	17.7	0.00e+00	0	43	0	1201668096	58	4886
2026-01-30 10:16:45.59	341.51	12.44	-44.0	-45.9	17.8	0.00e+00	0	43	0	1203765248	59	4530
2026-01-30 10:16:46.31	341.52	12.37	-44.0	-45.9	17.8	0.00e+00	0	43	0	1205862400	59	4502
2026-01-30 10:16:47.60	341.54	12.25	-44.0	-45.9	17.8	0.00e+00	0	43	0	1207959552	59	4542
2026-01-30 10:16:48.32	341.55	12.18	-43.9	-45.8	17.8	0.00e+00	0	43	0	1209008128	59	4486
2026-01-30 10:16:49.60	341.57	12.06	-44.0	-45.9	17.8	0.00e+00	0	43	0	1212153856	59	4501
2026-01-30 10:16:50.47	341.59	11.98	-43.9	-45.8	17.8	0.00e+00	0	43	0	1213202432	59	4488
2026-01-30 10:16:51.62	341.61	11.87	-43.7	-45.7	17.8	0.00e+00	0	43	0	1215299584	59	4396
2026-01-30 10:16:52.67	341.62	11.78	-43.8	-45.8	17.7	0.00e+00	0	43	0	1217396736	59	4465
2026-01-30 10:16:53.56	341.64	11.69	-43.7	-45.7	17.7	0.00e+00	0	43	0	1219493888	59	4413
2026-01-30 10:16:54.70	341.65	11.59	-43.7	-45.8	17.7	0.00e+00	0	43	0	1221591040	59	4444
2026-01-30 10:16:55.77	341.67	11.49	-43.6	-45.6	17.8	0.00e+00	0	43	0	1223688192	59	4381
2026-01-30 10:16:56.63	341.68	11.41	-43.5	-45.6	17.8	0.00e+00	0	43	0	1224736768	58	4618
2026-01-30 10:16:57.77	341.70	11.31	-43.6	-45.7	17.7	0.00e+00	0	43	0	1226833920	58	4697
2026-01-30 10:16:58.63	341.71	11.23	-43.6	-45.7	17.7	0.00e+00	0	43	0	1228931072	58	4696
2026-01-30 10:16:59.77	341.73	11.13	-43.6	-45.7	17.7	0.00e+00	0	43	0	1231028224	58	4676
2026-01-30 10:17:00.63	341.74	11.05	-43.6	-45.7	17.7	0.00e+00	0	43	0	1232076800	58	4677
2026-01-30 10:17:01.78	341.76	10.95	-43.7	-45.8	17.5	0.00e+00	0	43	0	1234173952	58	4759
2026-01-30 10:17:02.64	341.77	10.87	-43.7	-45.9	17.5	0.00e+00	0	43	0	1236271104	58	4774
2026-01-30 10:17:03.83	341.79	10.76	-43.7	-45.9	17.5	0.00e+00	0	43	0	1238368256	58	4762
2026-01-30 10:17:04.69	341.80	10.69	-43.6	-45.8	17.6	0.00e+00	0	43	0	1240465408	58	4752
