passes_logs/2026/01/30/T1/T1__20260130_020946_AQUA_rec.log

#Pass ID: 20260130_020946_AQUA
#Satellite: AQUA
#Configuration: AQUA
#almurnet v.1.7.20251203
#Start time: 2026-01-30 02:09:47

#Version: 2.0.20230620
#Station: T1
#Location: 37.570604 lon 55.790049 lat
#TLE: 1 27424U 02022A   26028.91948147  .00001781  00000+0  36607-3 0  9997
#TLE: 2 27424  98.4103 355.5827 0001815  62.4290   1.4641 14.61871847262923

#Time	Az	El	Level	Level2	SNR	BER	BlckErr	Temp	State	Recorded	gain1	gain2
2026-01-30 02:09:47.00	9.36	5.07	-51.2	-70.6	3.8	7.47e-01	0	41	0	0	73	34832
2026-01-30 02:09:48.00	9.32	5.14	-51.5	-70.7	3.8	7.48e-01	0	41	104	0	73	35054
2026-01-30 02:09:49.01	9.27	5.21	-51.3	-70.7	3.8	7.49e-01	0	41	104	0	73	35071
2026-01-30 02:09:50.01	9.22	5.29	-51.4	-70.7	3.8	7.49e-01	0	41	104	0	73	35026
2026-01-30 02:09:51.02	9.17	5.36	-51.5	-70.7	3.8	7.47e-01	0	41	104	0	73	34975
2026-01-30 02:09:52.02	9.13	5.43	-51.1	-70.7	3.8	7.44e-01	0	41	104	0	73	34939
2026-01-30 02:09:53.02	9.08	5.51	-51.3	-70.6	3.8	7.46e-01	0	41	104	0	73	34820
2026-01-30 02:09:54.03	9.03	5.58	-51.0	-70.6	3.8	7.46e-01	0	41	104	0	73	34684
2026-01-30 02:09:55.03	8.98	5.65	-51.3	-70.6	3.8	7.46e-01	0	41	104	0	73	34522
2026-01-30 02:09:56.04	8.93	5.73	-50.8	-70.6	3.8	7.48e-01	0	41	104	0	73	34593
2026-01-30 02:09:57.04	8.88	5.80	-50.9	-70.5	3.8	7.46e-01	0	41	104	0	72	36414
2026-01-30 02:09:58.05	8.83	5.88	-50.3	-70.5	3.8	7.49e-01	0	41	104	0	72	36431
2026-01-30 02:09:59.05	8.78	5.95	-50.8	-70.5	3.8	7.46e-01	0	41	104	0	72	36376
2026-01-30 02:10:00.06	8.73	6.03	-51.2	-70.5	3.8	7.46e-01	0	41	104	0	73	34332
2026-01-30 02:10:01.06	8.68	6.10	-48.6	-70.5	3.8	7.45e-01	0	42	104	0	69	43198
2026-01-30 02:10:02.07	8.63	6.18	-50.6	-70.5	3.8	7.46e-01	0	41	104	0	71	38420
2026-01-30 02:10:03.07	8.58	6.25	-50.2	-70.5	3.8	7.45e-01	0	42	104	0	71	38262
2026-01-30 02:10:04.07	8.53	6.33	-49.9	-70.4	3.8	7.44e-01	0	42	104	0	71	38125
2026-01-30 02:10:05.08	8.48	6.40	-49.2	-70.2	3.8	7.51e-01	0	41	104	0	70	39573
2026-01-30 02:10:06.08	8.43	6.48	-49.8	-70.4	3.8	7.44e-01	0	42	104	0	70	40192
2026-01-30 02:10:07.08	8.37	6.56	-48.2	-70.2	3.8	7.48e-01	0	42	104	0	68	44302
2026-01-30 02:10:08.09	8.32	6.63	-47.1	-69.9	3.8	7.48e-01	0	42	104	0	64	53884
2026-01-30 02:10:09.09	8.27	6.71	-49.2	-69.8	3.8	7.47e-01	0	42	104	0	69	39744
2026-01-30 02:10:10.10	8.21	6.79	-49.2	-69.9	3.8	7.45e-01	0	42	104	0	69	40111
2026-01-30 02:10:11.10	8.16	6.86	-49.2	-69.6	3.8	7.41e-01	0	42	104	0	69	39069
2026-01-30 02:10:12.11	8.11	6.94	-49.2	-68.9	3.9	7.41e-01	0	42	104	0	69	35695
2026-01-30 02:10:13.11	8.05	7.02	-49.1	-67.2	4.1	7.39e-01	0	42	104	0	69	29602
2026-01-30 02:10:14.12	8.00	7.10	-49.1	-66.4	4.2	7.30e-01	0	42	104	0	69	26885
2026-01-30 02:10:15.12	7.94	7.18	-49.0	-64.7	4.9	7.12e-01	0	42	0	0	69	22262
2026-01-30 02:10:16.12	7.89	7.26	-49.0	-64.0	5.3	7.01e-01	0	42	0	0	69	20447
2026-01-30 02:10:17.13	7.83	7.33	-49.0	-63.3	5.8	6.89e-01	0	42	0	524288	69	18790
2026-01-30 02:10:18.13	7.77	7.41	-49.0	-62.8	6.1	6.84e-01	0	42	0	2097152	69	17802
2026-01-30 02:10:19.14	7.72	7.49	-49.0	-62.8	6.1	6.81e-01	0	42	0	3670016	69	17725
2026-01-30 02:10:20.14	7.66	7.57	-49.0	-63.0	6.0	6.84e-01	0	42	0	5767168	69	18161
2026-01-30 02:10:21.14	7.60	7.65	-49.0	-63.1	5.9	6.88e-01	0	42	0	6815744	69	18395
2026-01-30 02:10:22.15	7.55	7.73	-49.0	-63.4	5.7	6.91e-01	0	42	0	8388608	69	19094
2026-01-30 02:10:23.15	7.49	7.81	-49.0	-63.6	5.6	6.98e-01	0	42	0	9437184	69	19516
2026-01-30 02:10:24.15	7.43	7.89	-49.0	-63.2	5.9	6.89e-01	0	42	0	10485760	69	18531
2026-01-30 02:10:25.16	7.37	7.97	-49.0	-62.3	6.5	6.75e-01	0	42	0	12058624	69	16840
2026-01-30 02:10:26.16	7.31	8.05	-48.9	-61.0	7.7	6.51e-01	0	42	0	14155776	69	14404
2026-01-30 02:10:27.16	7.25	8.14	-48.7	-59.1	9.7	6.27e-01	0	42	0	15728640	69	11560
2026-01-30 02:10:28.17	7.19	8.22	-48.5	-57.1	11.6	6.09e-01	0	42	0	17825792	69	9279
2026-01-30 02:10:29.17	7.13	8.30	-48.2	-55.5	13.4	6.05e-01	0	42	0	19398656	68	8155
2026-01-30 02:10:30.18	7.07	8.38	-47.6	-53.8	15.0	6.06e-01	0	42	0	21495808	67	7116
2026-01-30 02:10:31.18	7.01	8.46	-47.3	-52.6	16.3	6.02e-01	0	42	0	23592960	66	6547
2026-01-30 02:10:32.19	6.95	8.55	-46.8	-51.4	17.4	6.02e-01	0	42	0	25165824	65	6019
2026-01-30 02:10:33.19	6.89	8.63	-46.5	-50.8	18.1	6.03e-01	0	42	0	27262976	65	5625
2026-01-30 02:10:34.19	6.82	8.71	-46.4	-50.6	18.2	6.04e-01	0	42	0	28835840	64	5832
2026-01-30 02:10:35.20	6.76	8.80	-46.5	-50.7	18.3	6.04e-01	0	42	0	30932992	64	5859
2026-01-30 02:10:36.20	6.70	8.88	-46.6	-51.0	17.9	6.04e-01	0	42	0	33030144	64	6063
2026-01-30 02:10:37.21	6.63	8.97	-46.7	-51.4	17.5	6.03e-01	0	42	0	34603008	64	6364
2026-01-30 02:10:38.21	6.57	9.05	-47.1	-52.3	16.7	6.05e-01	0	42	0	36700160	64	7067
2026-01-30 02:10:39.21	6.51	9.13	-47.6	-53.1	15.6	6.03e-01	0	42	0	38273024	65	7364
2026-01-30 02:10:40.22	6.44	9.22	-46.3	-50.5	18.5	6.03e-01	0	43	0	40370176	64	5744
2026-01-30 02:10:41.27	6.37	9.31	-48.5	-57.9	11.3	6.14e-01	0	43	0	42467328	67	11338
2026-01-30 02:10:42.21	6.31	9.39	-48.9	-59.5	8.7	6.30e-01	0	43	0	44040192	68	12864
2026-01-30 02:10:43.21	6.25	9.47	-43.5	-46.2	22.7	6.05e-01	0	42	0	46137344	58	4946
2026-01-30 02:10:44.21	6.18	9.56	-43.2	-45.9	23.0	6.04e-01	0	42	0	47710208	58	4761
2026-01-30 02:10:45.21	6.11	9.65	-42.7	-45.6	23.3	6.03e-01	0	43	0	49807360	57	4878
2026-01-30 02:10:46.44	6.03	9.75	-42.5	-45.1	23.7	6.06e-01	0	42	0	51904512	56	4893
2026-01-30 02:10:47.33	5.97	9.83	-42.5	-45.1	23.7	6.03e-01	0	42	0	53477376	56	4926
2026-01-30 02:10:48.48	5.89	9.93	-42.3	-45.0	23.9	6.03e-01	0	43	0	56098816	56	4846
2026-01-30 02:10:49.34	5.83	10.00	-42.3	-44.9	23.9	6.05e-01	0	43	0	57671680	56	4790
2026-01-30 02:10:50.49	5.75	10.11	-42.3	-44.9	24.0	6.02e-01	0	43	0	59768832	56	4768
2026-01-30 02:10:51.35	5.69	10.18	-42.2	-44.8	24.0	6.04e-01	0	43	0	61341696	56	4720
2026-01-30 02:10:52.49	5.61	10.28	-42.2	-44.8	24.0	6.04e-01	0	43	0	63438848	56	4732
2026-01-30 02:10:53.35	5.55	10.36	-42.2	-44.8	24.1	6.04e-01	0	43	0	65011712	56	4738
2026-01-30 02:10:54.50	5.47	10.46	-42.3	-44.9	24.0	6.02e-01	0	43	0	67108864	56	4785
2026-01-30 02:10:55.36	5.41	10.54	-42.4	-44.9	24.0	6.04e-01	0	43	0	68681728	56	4813
2026-01-30 02:10:56.51	5.33	10.64	-42.4	-44.8	24.1	6.05e-01	0	43	0	70778880	56	4719
2026-01-30 02:10:57.37	5.26	10.72	-42.4	-44.7	24.2	6.03e-01	0	43	0	72351744	56	4684
2026-01-30 02:10:58.51	5.18	10.82	-42.4	-44.7	24.2	6.05e-01	0	43	0	74448896	56	4653
2026-01-30 02:10:59.37	5.12	10.90	-42.6	-44.7	24.2	6.04e-01	0	42	0	76546048	56	4692
2026-01-30 02:11:00.65	5.02	11.01	-42.7	-44.8	24.1	6.02e-01	0	43	0	78643200	56	4752
2026-01-30 02:11:01.36	4.97	11.08	-42.5	-44.6	24.3	6.04e-01	0	43	0	80216064	56	4600
2026-01-30 02:11:02.65	4.87	11.20	-42.5	-44.5	24.4	6.05e-01	0	43	0	82313216	56	4554
2026-01-30 02:11:03.36	4.82	11.26	-42.6	-44.5	24.4	6.03e-01	0	43	0	83886080	56	4555
2026-01-30 02:11:04.65	4.72	11.38	-42.6	-44.5	24.4	6.04e-01	0	43	0	85983232	56	4570
2026-01-30 02:11:05.37	4.67	11.45	-42.6	-44.4	24.4	6.05e-01	0	43	0	87556096	56	4544
2026-01-30 02:11:06.66	4.57	11.57	-42.6	-44.4	24.5	6.03e-01	0	43	0	90177536	56	4515
2026-01-30 02:11:07.47	4.50	11.64	-42.6	-44.3	24.6	6.04e-01	0	43	0	91226112	56	4474
2026-01-30 02:11:08.62	4.41	11.75	-42.6	-44.3	24.7	6.05e-01	0	43	0	93847552	56	4446
2026-01-30 02:11:09.71	4.33	11.85	-42.5	-44.2	24.7	6.03e-01	0	43	0	95944704	56	4429
2026-01-30 02:11:10.75	4.24	11.95	-42.6	-44.2	24.7	6.03e-01	0	43	0	97517568	56	4406
2026-01-30 02:11:11.92	4.15	12.06	-42.6	-44.1	24.8	6.04e-01	0	43	0	99614720	56	4372
2026-01-30 02:11:12.80	4.08	12.14	-42.6	-44.1	24.8	6.04e-01	0	43	0	101187584	56	4390
2026-01-30 02:11:13.95	3.98	12.25	-42.6	-44.2	24.8	6.06e-01	0	43	0	103809024	56	4402
2026-01-30 02:11:14.81	3.91	12.34	-42.6	-44.1	24.8	6.05e-01	0	43	0	105381888	56	4355
2026-01-30 02:11:15.95	3.82	12.45	-42.6	-44.1	24.8	6.04e-01	0	43	0	107479040	56	4384
2026-01-30 02:11:16.81	3.75	12.53	-42.6	-44.0	24.9	6.05e-01	0	43	0	109051904	56	4338
2026-01-30 02:11:17.96	3.65	12.64	-42.6	-44.1	24.8	6.04e-01	0	43	0	111149056	56	4379
2026-01-30 02:11:19.06	3.56	12.75	-42.6	-44.0	25.0	6.07e-01	0	43	0	113246208	56	4329
2026-01-30 02:11:19.92	3.48	12.83	-42.5	-44.0	25.0	6.07e-01	0	43	0	114819072	56	4303
2026-01-30 02:11:21.06	3.39	12.94	-42.6	-44.0	24.9	6.04e-01	0	43	0	116916224	56	4327
2026-01-30 02:11:21.92	3.31	13.03	-42.6	-44.1	24.9	6.04e-01	0	43	0	118489088	56	4356
2026-01-30 02:11:23.07	3.21	13.14	-42.5	-44.0	24.9	6.03e-01	0	43	0	120586240	56	4306
2026-01-30 02:11:23.92	3.14	13.23	-42.4	-43.9	25.0	6.05e-01	0	43	0	122159104	56	4253
2026-01-30 02:11:25.07	3.03	13.34	-42.5	-43.9	25.0	6.04e-01	0	43	0	124256256	56	4285
2026-01-30 02:11:25.93	2.96	13.43	-42.5	-44.0	24.9	6.05e-01	0	43	0	125829120	56	4304
2026-01-30 02:11:27.08	2.85	13.54	-42.3	-43.8	25.0	6.05e-01	0	43	0	128450560	56	4201
2026-01-30 02:11:27.94	2.78	13.63	-42.3	-43.7	25.1	6.05e-01	0	43	0	130023424	56	4173
2026-01-30 02:11:29.09	2.67	13.74	-42.2	-43.7	25.2	6.05e-01	0	43	0	132120576	56	4168
2026-01-30 02:11:29.94	2.59	13.83	-42.2	-43.7	25.2	6.03e-01	0	43	0	133693440	56	4180
2026-01-30 02:11:31.09	2.49	13.95	-42.1	-43.7	25.2	6.01e-01	0	43	0	135790592	56	4147
2026-01-30 02:11:31.95	2.41	14.04	-42.1	-43.6	25.3	6.03e-01	0	43	0	137363456	56	4132
2026-01-30 02:11:33.10	2.30	14.15	-42.1	-43.7	25.2	6.03e-01	0	43	0	139460608	56	4171
2026-01-30 02:11:34.10	2.20	14.26	-42.1	-43.6	23.5	6.04e-01	0	43	0	141557760	56	4106
2026-01-30 02:11:35.29	2.09	14.38	-42.2	-43.7	25.2	6.03e-01	0	43	0	143654912	56	4151
2026-01-30 02:11:36.15	2.01	14.47	-42.1	-43.6	25.3	6.04e-01	0	43	0	145227776	56	4141
2026-01-30 02:11:37.51	1.87	14.61	-42.1	-43.6	25.3	6.05e-01	0	43	0	147849216	56	4135
2026-01-30 02:11:38.22	1.80	14.69	-42.2	-43.8	25.2	6.01e-01	0	43	0	148897792	56	4194
2026-01-30 02:11:39.51	1.68	14.82	-42.0	-43.7	25.3	6.05e-01	0	43	0	151519232	56	4157
2026-01-30 02:11:40.23	1.60	14.90	-42.0	-43.7	25.2	6.05e-01	0	43	0	153092096	56	4155
2026-01-30 02:11:41.52	1.48	15.04	-42.1	-43.8	25.1	6.02e-01	0	43	0	155189248	55	4457
2026-01-30 02:11:42.23	1.40	15.11	-41.9	-43.7	25.2	6.04e-01	0	43	0	156762112	55	4394
2026-01-30 02:11:43.86	1.24	15.29	-41.8	-43.6	25.3	6.06e-01	0	43	0	159907840	55	4358
2026-01-30 02:11:44.43	1.18	15.35	-41.7	-43.6	25.4	6.03e-01	0	43	0	160956416	55	4341
2026-01-30 02:11:46.02	1.01	15.52	-41.8	-43.6	25.2	6.02e-01	0	43	0	163577856	55	4389
2026-01-30 02:11:46.59	0.95	15.58	-41.7	-43.6	25.4	6.03e-01	0	43	0	164626432	55	4343
2026-01-30 02:11:48.18	0.78	15.75	-41.7	-43.6	25.2	6.04e-01	0	43	0	167772160	55	4383
2026-01-30 02:11:48.76	0.72	15.82	-41.7	-43.6	25.3	6.03e-01	0	43	0	168820736	55	4346
2026-01-30 02:11:50.34	0.55	15.99	-41.6	-43.5	25.4	6.06e-01	0	43	0	171966464	55	4312
2026-01-30 02:11:50.95	0.49	16.06	-41.7	-43.5	25.4	6.05e-01	0	43	0	173015040	55	4322
2026-01-30 02:11:52.53	0.31	16.23	-41.6	-43.4	25.5	6.02e-01	0	43	0	176160768	55	4269
2026-01-30 02:11:53.12	0.25	16.30	-41.6	-43.4	25.4	6.04e-01	0	43	0	177209344	55	4282
2026-01-30 02:11:54.70	0.07	16.48	-41.7	-43.4	25.5	6.02e-01	0	43	0	179830784	55	4245
2026-01-30 02:11:55.57	359.97	16.58	-41.8	-43.4	25.4	6.02e-01	0	43	0	181403648	55	4291
2026-01-30 02:11:56.72	359.84	16.71	-41.8	-43.4	25.5	6.03e-01	0	43	0	184025088	55	4250
2026-01-30 02:11:57.86	359.71	16.83	-41.8	-43.3	25.6	6.05e-01	0	43	0	186122240	55	4233
2026-01-30 02:11:58.72	359.61	16.93	-41.9	-43.4	25.5	6.02e-01	0	43	0	187695104	55	4243
2026-01-30 02:11:59.87	359.48	17.06	-41.9	-43.4	25.5	6.05e-01	0	43	0	189792256	55	4276
2026-01-30 02:12:00.73	359.38	17.16	-42.0	-43.4	25.5	6.06e-01	0	43	0	191365120	55	4282
2026-01-30 02:12:01.88	359.24	17.30	-42.0	-43.4	25.5	6.03e-01	0	43	0	193462272	55	4265
2026-01-30 02:12:02.74	359.14	17.40	-42.0	-43.4	25.5	6.03e-01	0	43	0	195035136	55	4255
2026-01-30 02:12:03.88	359.00	17.53	-42.0	-43.4	25.4	6.03e-01	0	43	0	197132288	55	4290
2026-01-30 02:12:04.75	358.89	17.63	-41.9	-43.4	25.6	6.02e-01	0	43	0	198705152	55	4243
2026-01-30 02:12:05.98	358.74	17.77	-41.9	-43.4	25.2	6.06e-01	0	43	0	201326592	55	4277
2026-01-30 02:12:06.84	358.64	17.88	-41.9	-43.5	25.4	6.02e-01	0	43	0	202899456	55	4328
2026-01-30 02:12:07.99	358.49	18.01	-41.9	-43.5	25.5	6.04e-01	0	43	0	204996608	55	4327
2026-01-30 02:12:08.85	358.38	18.11	-41.8	-43.5	25.3	6.05e-01	0	43	0	206569472	55	4331
2026-01-30 02:12:10.00	358.24	18.25	-41.8	-43.4	25.5	6.04e-01	0	43	0	208666624	55	4287
2026-01-30 02:12:10.86	358.13	18.36	-41.8	-43.5	25.5	6.04e-01	0	43	0	210239488	55	4295
2026-01-30 02:12:12.00	357.98	18.49	-41.8	-43.6	25.4	6.03e-01	0	43	0	212336640	55	4357
2026-01-30 02:12:12.86	357.87	18.60	-41.8	-43.5	25.5	6.02e-01	0	43	0	213909504	55	4306
2026-01-30 02:12:14.01	357.72	18.74	-41.9	-43.6	25.4	6.06e-01	0	43	0	216006656	55	4359
2026-01-30 02:12:15.04	357.58	18.86	-41.8	-43.5	25.4	6.04e-01	0	43	0	218103808	55	4311
2026-01-30 02:12:16.04	357.45	18.98	-41.9	-43.6	25.3	6.03e-01	0	43	0	220200960	55	4375
2026-01-30 02:12:17.05	357.31	19.11	-41.8	-43.5	25.5	6.04e-01	0	43	0	221773824	55	4316
2026-01-30 02:12:18.04	357.18	19.23	-42.0	-43.6	25.4	6.06e-01	0	43	0	223870976	55	4358
2026-01-30 02:12:19.04	357.04	19.35	-42.1	-43.6	25.4	6.04e-01	0	43	0	225443840	55	4358
2026-01-30 02:12:20.05	356.90	19.48	-42.1	-43.6	25.4	6.03e-01	0	43	0	227540992	55	4365
2026-01-30 02:12:21.05	356.76	19.61	-42.2	-43.6	25.4	6.04e-01	0	43	0	229638144	55	4377
2026-01-30 02:12:22.06	356.62	19.73	-42.3	-43.7	25.3	6.04e-01	0	43	0	231211008	55	4399
2026-01-30 02:12:23.06	356.47	19.86	-42.1	-43.5	25.2	6.05e-01	0	43	0	233308160	55	4315
2026-01-30 02:12:24.06	356.33	19.98	-42.2	-43.5	25.4	6.05e-01	0	43	0	234881024	55	4334
2026-01-30 02:12:25.06	356.18	20.11	-42.1	-43.5	25.5	6.03e-01	0	43	0	236978176	55	4317
2026-01-30 02:12:26.07	356.04	20.24	-42.1	-43.5	25.5	6.05e-01	0	43	0	239075328	55	4303
2026-01-30 02:12:27.09	355.89	20.37	-42.1	-43.5	25.5	6.04e-01	0	43	0	240648192	55	4297
2026-01-30 02:12:28.10	355.73	20.50	-42.1	-43.4	25.5	6.04e-01	0	43	0	242745344	55	4287
2026-01-30 02:12:29.11	355.58	20.63	-42.0	-43.4	25.5	6.03e-01	0	43	0	244318208	55	4278
2026-01-30 02:12:30.14	355.43	20.77	-42.0	-43.4	25.5	6.05e-01	0	43	0	246415360	55	4282
2026-01-30 02:12:31.16	355.27	20.90	-42.0	-43.4	25.6	6.06e-01	0	43	0	248512512	55	4269
2026-01-30 02:12:32.19	355.11	21.03	-42.0	-43.4	25.6	6.07e-01	0	43	0	250085376	55	4252
2026-01-30 02:12:33.24	354.95	21.17	-41.9	-43.3	25.7	6.04e-01	0	43	0	252182528	55	4234
2026-01-30 02:12:34.16	354.80	21.29	-42.0	-43.3	25.7	6.03e-01	0	43	0	254279680	55	4237
2026-01-30 02:12:35.31	354.62	21.45	-42.1	-43.4	25.5	6.05e-01	0	43	0	256376832	55	4290
2026-01-30 02:12:36.20	354.48	21.56	-42.0	-43.4	25.6	6.06e-01	0	43	0	257949696	55	4273
2026-01-30 02:12:37.52	354.26	21.74	-41.9	-43.3	25.7	6.05e-01	0	43	0	260571136	55	4236
2026-01-30 02:12:38.24	354.14	21.84	-42.1	-43.5	25.5	6.05e-01	0	43	0	261619712	55	4318
2026-01-30 02:12:39.52	353.93	22.01	-42.2	-43.7	25.3	6.03e-01	0	43	0	264241152	55	4412
2026-01-30 02:12:40.24	353.81	22.11	-42.2	-43.7	25.3	6.04e-01	0	43	0	265289728	55	4420
2026-01-30 02:12:41.53	353.60	22.28	-42.3	-43.8	25.3	6.02e-01	0	43	0	267911168	55	4452
2026-01-30 02:12:42.25	353.47	22.38	-42.4	-43.8	25.2	6.05e-01	0	43	0	268959744	55	4491
2026-01-30 02:12:43.54	353.25	22.56	-42.4	-43.9	25.1	6.05e-01	0	43	0	271581184	55	4513
2026-01-30 02:12:44.26	353.13	22.66	-42.5	-43.9	25.1	6.03e-01	0	43	0	273154048	55	4539
2026-01-30 02:12:45.54	352.90	22.83	-42.4	-43.9	25.1	6.04e-01	0	43	0	275251200	55	4514
2026-01-30 02:12:46.26	352.78	22.93	-42.4	-43.9	25.1	6.04e-01	0	43	0	276824064	55	4523
2026-01-30 02:12:47.55	352.55	23.11	-42.2	-43.8	25.3	6.03e-01	0	43	0	278921216	55	4446
2026-01-30 02:12:48.26	352.42	23.21	-42.1	-43.7	25.4	6.01e-01	0	43	0	280494080	55	4400
2026-01-30 02:12:49.55	352.18	23.39	-42.0	-43.7	25.4	6.04e-01	0	43	0	282591232	55	4409
2026-01-30 02:12:50.27	352.05	23.49	-41.9	-43.6	25.4	6.04e-01	0	43	0	284164096	55	4355
2026-01-30 02:12:51.56	351.81	23.67	-41.8	-43.5	25.5	6.03e-01	0	43	0	286785536	55	4317
2026-01-30 02:12:52.27	351.68	23.77	-41.9	-43.6	25.5	6.04e-01	0	43	0	287834112	55	4345
2026-01-30 02:12:53.56	351.44	23.96	-41.7	-43.4	25.6	6.06e-01	0	43	0	290455552	55	4263
2026-01-30 02:12:54.28	351.30	24.06	-41.8	-43.4	25.6	6.03e-01	0	43	0	291504128	55	4278
2026-01-30 02:12:55.56	351.05	24.24	-42.0	-43.6	25.5	6.05e-01	0	43	0	294125568	55	4354
2026-01-30 02:12:56.28	350.91	24.35	-42.2	-43.8	25.3	6.06e-01	0	43	0	295698432	55	4460
2026-01-30 02:12:57.57	350.66	24.53	-42.2	-43.7	25.3	6.04e-01	0	43	0	297795584	55	4403
2026-01-30 02:12:58.29	350.52	24.64	-42.3	-43.8	25.3	6.01e-01	0	43	0	299368448	55	4464
2026-01-30 02:12:59.58	350.26	24.82	-42.3	-43.7	25.3	6.04e-01	0	43	0	301465600	55	4436
2026-01-30 02:13:00.29	350.11	24.93	-42.2	-43.6	25.4	6.04e-01	0	43	0	303038464	55	4379
2026-01-30 02:13:01.58	349.85	25.12	-42.2	-43.6	25.4	6.04e-01	0	43	0	305659904	55	4378
2026-01-30 02:13:02.30	349.70	25.22	-42.3	-43.7	25.4	6.04e-01	0	43	0	306708480	55	4418
2026-01-30 02:13:03.59	349.43	25.41	-42.2	-43.7	25.3	6.03e-01	0	43	0	309329920	55	4416
2026-01-30 02:13:04.30	349.29	25.52	-42.2	-43.6	25.4	6.07e-01	0	43	0	310378496	55	4378
2026-01-30 02:13:05.71	348.99	25.72	-42.1	-43.6	25.4	6.05e-01	0	43	0	312999936	55	4384
2026-01-30 02:13:06.42	348.83	25.83	-42.1	-43.6	25.5	6.05e-01	0	43	0	314572800	55	4361
2026-01-30 02:13:07.79	348.54	26.03	-42.0	-43.5	25.6	6.05e-01	0	43	0	317194240	55	4301
2026-01-30 02:13:08.51	348.38	26.14	-42.0	-43.4	25.6	6.07e-01	0	43	0	318242816	55	4276
2026-01-30 02:13:09.80	348.09	26.34	-41.9	-43.3	25.7	6.02e-01	0	43	0	320864256	55	4221
2026-01-30 02:13:10.51	347.93	26.44	-42.0	-43.3	25.7	6.05e-01	0	43	0	322437120	55	4227
2026-01-30 02:13:11.81	347.64	26.64	-42.0	-43.3	25.7	6.03e-01	0	43	0	324534272	55	4238
2026-01-30 02:13:12.52	347.48	26.75	-41.9	-43.2	25.7	6.03e-01	0	43	0	326107136	55	4191
2026-01-30 02:13:13.81	347.18	26.94	-41.8	-43.2	25.8	6.05e-01	0	43	0	328204288	55	4169
2026-01-30 02:13:14.53	347.01	27.05	-41.9	-43.3	25.7	6.03e-01	0	43	0	329777152	55	4202
2026-01-30 02:13:15.82	346.71	27.25	-42.0	-43.4	25.7	6.04e-01	0	43	0	331874304	55	4291
2026-01-30 02:13:16.53	346.54	27.36	-41.9	-43.4	25.6	6.04e-01	0	43	0	333447168	55	4278
2026-01-30 02:13:17.83	346.23	27.56	-41.9	-43.4	25.7	6.04e-01	0	43	0	336068608	55	4265
2026-01-30 02:13:18.67	346.03	27.69	-42.0	-43.5	25.6	6.03e-01	0	43	0	337641472	55	4310
2026-01-30 02:13:20.13	345.67	27.91	-42.0	-43.4	25.7	6.05e-01	0	43	0	340262912	55	4254
2026-01-30 02:13:20.85	345.49	28.02	-41.9	-43.2	25.8	6.04e-01	0	43	0	341311488	55	4158
2026-01-30 02:13:22.14	345.16	28.22	-41.8	-43.1	26.0	6.03e-01	0	43	0	343932928	55	4111
2026-01-30 02:13:22.86	344.98	28.33	-41.6	-43.0	26.0	6.06e-01	0	43	0	345505792	55	4083
2026-01-30 02:13:24.15	344.65	28.53	-41.4	-42.8	26.1	6.06e-01	0	43	0	347602944	54	4230
2026-01-30 02:13:24.91	344.46	28.65	-41.4	-42.9	26.1	6.02e-01	0	43	0	349175808	54	4245
2026-01-30 02:13:26.20	344.12	28.85	-41.4	-42.9	26.1	6.03e-01	0	43	0	351797248	54	4285
2026-01-30 02:13:27.01	343.91	28.98	-41.4	-43.0	26.1	6.03e-01	0	43	0	353370112	54	4297
2026-01-30 02:13:28.15	343.60	29.16	-41.5	-43.1	26.0	6.03e-01	0	43	0	354942976	54	4357
2026-01-30 02:13:29.22	343.31	29.33	-41.5	-43.1	25.5	6.03e-01	0	43	0	357040128	54	4365
2026-01-30 02:13:30.25	343.03	29.49	-41.6	-43.0	26.0	6.03e-01	0	43	0	359137280	54	4339
2026-01-30 02:13:31.25	342.76	29.65	-41.5	-42.8	26.2	6.05e-01	0	43	0	361234432	54	4242
2026-01-30 02:13:32.46	342.42	29.84	-41.6	-42.9	26.1	6.04e-01	0	43	0	363331584	54	4278
2026-01-30 02:13:33.32	342.18	29.97	-41.6	-42.9	26.1	6.03e-01	0	43	0	364904448	54	4274
2026-01-30 02:13:34.69	341.79	30.19	-41.4	-42.7	26.2	6.05e-01	0	43	0	367525888	54	4184
2026-01-30 02:13:35.40	341.58	30.30	-41.4	-42.7	26.2	6.05e-01	0	43	0	368574464	54	4188
2026-01-30 02:13:36.69	341.21	30.51	-41.6	-42.9	26.2	6.03e-01	0	43	0	371195904	54	4251
2026-01-30 02:13:37.41	340.99	30.62	-41.7	-43.0	26.0	6.06e-01	0	43	0	372768768	54	4298
2026-01-30 02:13:38.70	340.61	30.83	-41.5	-42.9	26.1	6.03e-01	0	43	0	374865920	54	4255
2026-01-30 02:13:39.41	340.40	30.94	-41.3	-42.7	26.3	6.06e-01	0	43	0	376438784	54	4169
2026-01-30 02:13:40.70	340.01	31.14	-41.2	-42.7	26.3	6.04e-01	0	43	0	378535936	54	4177
2026-01-30 02:13:41.50	339.76	31.27	-41.2	-42.8	26.2	6.03e-01	0	43	0	380108800	54	4228
2026-01-30 02:13:42.64	339.41	31.45	-41.1	-42.8	26.2	6.04e-01	0	43	0	382205952	54	4198
2026-01-30 02:13:43.50	339.14	31.59	-41.0	-42.7	26.3	6.04e-01	0	43	0	383778816	54	4152
2026-01-30 02:13:44.65	338.78	31.77	-41.2	-42.8	26.1	6.03e-01	0	43	0	385875968	54	4204
2026-01-30 02:13:45.51	338.50	31.91	-41.5	-42.9	26.0	6.03e-01	0	43	0	387973120	54	4289
2026-01-30 02:13:46.65	338.14	32.09	-41.7	-43.1	26.0	6.06e-01	0	43	0	390070272	54	4350
2026-01-30 02:13:47.51	337.86	32.23	-41.7	-43.0	26.0	6.04e-01	0	43	0	391643136	54	4331
2026-01-30 02:13:48.66	337.48	32.41	-41.5	-42.8	26.2	6.04e-01	0	43	0	393740288	54	4215
2026-01-30 02:13:49.52	337.19	32.54	-41.9	-43.2	25.8	6.02e-01	0	43	0	395313152	54	4408
2026-01-30 02:13:50.66	336.81	32.72	-41.9	-43.2	25.8	6.05e-01	0	43	0	397410304	54	4432
2026-01-30 02:13:51.52	336.52	32.86	-41.7	-43.0	25.9	6.04e-01	0	43	0	398983168	54	4326
2026-01-30 02:13:52.67	336.12	33.04	-41.6	-43.0	26.0	6.04e-01	0	43	0	401080320	54	4316
2026-01-30 02:13:53.61	335.80	33.19	-41.5	-43.0	25.9	6.01e-01	0	43	0	403177472	54	4314
2026-01-30 02:13:54.79	335.39	33.37	-41.6	-43.2	25.9	6.04e-01	0	43	0	405274624	54	4407
2026-01-30 02:13:55.65	335.08	33.51	-41.7	-43.4	25.6	6.04e-01	0	43	0	406847488	54	4536
2026-01-30 02:13:57.01	334.60	33.72	-41.8	-43.5	25.5	6.03e-01	0	43	0	409468928	54	4591
2026-01-30 02:13:57.72	334.34	33.83	-41.7	-43.3	25.6	6.02e-01	0	43	0	410517504	54	4483
2026-01-30 02:13:59.01	333.87	34.03	-41.7	-43.3	25.8	6.06e-01	0	43	0	413138944	54	4456
2026-01-30 02:13:59.72	333.61	34.14	-41.8	-43.2	25.8	6.06e-01	0	43	0	414187520	54	4416
2026-01-30 02:14:01.01	333.13	34.34	-42.1	-43.5	25.6	6.03e-01	0	43	0	416808960	54	4573
2026-01-30 02:14:01.73	332.86	34.45	-42.1	-43.5	25.5	6.03e-01	0	43	0	418381824	54	4598
2026-01-30 02:14:03.02	332.37	34.65	-42.4	-43.9	25.2	6.06e-01	0	43	0	420478976	55	4533
2026-01-30 02:14:03.75	332.09	34.76	-42.3	-43.7	25.3	6.03e-01	0	43	0	422051840	55	4438
2026-01-30 02:14:05.04	331.59	34.96	-42.4	-43.8	25.3	6.02e-01	0	43	0	424148992	55	4475
2026-01-30 02:14:05.76	331.31	35.07	-42.4	-43.8	25.3	6.04e-01	0	43	0	425721856	55	4461
2026-01-30 02:14:07.04	330.80	35.26	-42.4	-44.0	25.1	6.04e-01	0	43	0	428343296	55	4546
2026-01-30 02:14:07.76	330.52	35.37	-42.5	-44.0	25.0	6.04e-01	0	43	0	429391872	55	4587
2026-01-30 02:14:09.05	330.00	35.56	-42.4	-44.0	25.1	6.07e-01	0	43	0	432013312	55	4592
2026-01-30 02:14:09.77	329.71	35.67	-42.5	-44.1	25.0	6.04e-01	0	43	0	433061888	55	4631
2026-01-30 02:14:11.06	329.18	35.86	-42.9	-44.6	24.7	6.04e-01	0	43	0	435683328	56	4599
2026-01-30 02:14:11.77	328.88	35.96	-42.9	-44.5	24.8	6.06e-01	0	43	0	437256192	56	4555
2026-01-30 02:14:13.27	328.26	36.18	-43.1	-44.7	24.6	6.06e-01	0	43	0	439877632	56	4694
2026-01-30 02:14:13.99	327.95	36.28	-42.8	-44.4	24.2	6.05e-01	0	43	0	440926208	56	4516
2026-01-30 02:14:15.28	327.41	36.47	-43.0	-44.6	24.6	6.05e-01	0	43	0	443547648	56	4617
2026-01-30 02:14:15.99	327.10	36.57	-43.0	-44.5	24.8	6.05e-01	0	43	0	445120512	56	4598
2026-01-30 02:14:17.28	326.54	36.75	-43.2	-44.8	24.5	6.03e-01	0	43	0	447217664	57	4463
2026-01-30 02:14:18.00	326.23	36.85	-43.2	-44.9	24.4	6.04e-01	0	43	0	448790528	57	4497
2026-01-30 02:14:19.29	325.66	37.03	-43.0	-44.7	24.5	6.06e-01	0	43	0	450887680	57	4441
2026-01-30 02:14:20.01	325.34	37.13	-42.9	-44.6	24.7	6.02e-01	0	43	0	452460544	57	4363
2026-01-30 02:14:21.29	324.76	37.30	-42.9	-44.8	24.4	6.05e-01	0	43	0	455081984	57	4452
2026-01-30 02:14:22.06	324.41	37.40	-42.8	-44.8	24.4	6.04e-01	0	43	0	456130560	57	4477
2026-01-30 02:14:23.35	323.82	37.57	-42.9	-45.1	24.1	6.05e-01	0	43	0	458752000	57	4636
2026-01-30 02:14:24.17	323.45	37.68	-42.8	-44.9	24.4	6.05e-01	0	43	0	460324864	57	4516
2026-01-30 02:14:25.64	322.76	37.87	-42.8	-44.7	24.5	6.04e-01	0	43	0	462946304	57	4393
2026-01-30 02:14:26.35	322.43	37.96	-43.0	-44.7	24.5	6.04e-01	0	43	0	464519168	57	4406
2026-01-30 02:14:27.64	321.82	38.12	-43.2	-44.8	24.5	6.04e-01	0	43	0	466616320	57	4454
2026-01-30 02:14:28.36	321.47	38.21	-43.4	-45.0	24.3	6.04e-01	0	43	0	468189184	57	4552
2026-01-30 02:14:29.65	320.85	38.37	-43.6	-45.1	23.3	6.03e-01	0	43	0	470286336	57	4648
2026-01-30 02:14:30.37	320.51	38.46	-43.4	-44.9	24.3	6.03e-01	0	43	0	471859200	57	4540
2026-01-30 02:14:31.66	319.88	38.61	-43.5	-45.0	24.3	6.01e-01	0	43	0	474480640	57	4570
2026-01-30 02:14:32.37	319.53	38.70	-43.4	-44.9	24.3	6.02e-01	0	43	0	475529216	57	4540
2026-01-30 02:14:33.66	318.89	38.84	-43.5	-45.1	24.1	6.01e-01	0	43	0	478150656	57	4642
2026-01-30 02:14:34.38	318.53	38.92	-43.5	-45.1	24.1	6.04e-01	0	43	0	479199232	57	4647
2026-01-30 02:14:35.67	317.88	39.07	-43.6	-45.4	23.9	6.07e-01	0	43	0	481820672	57	4776
2026-01-30 02:14:36.38	317.52	39.14	-43.8	-45.6	23.7	6.05e-01	0	43	0	483393536	58	4624
2026-01-30 02:14:37.69	316.85	39.28	-43.6	-45.3	23.9	6.05e-01	0	43	0	485490688	58	4481
2026-01-30 02:14:38.40	316.49	39.36	-43.4	-45.2	24.1	6.04e-01	0	43	0	487063552	58	4400
2026-01-30 02:14:39.76	315.79	39.50	-43.2	-44.9	24.3	6.03e-01	0	43	0	489684992	58	4280
2026-01-30 02:14:40.47	315.42	39.57	-43.3	-45.1	24.2	6.06e-01	0	43	0	490733568	58	4351
2026-01-30 02:14:41.77	314.74	39.69	-43.5	-45.3	24.0	6.05e-01	0	43	0	493355008	58	4453
2026-01-30 02:14:42.48	314.36	39.76	-43.4	-45.0	24.2	6.04e-01	0	43	0	494403584	58	4330
2026-01-30 02:14:43.77	313.68	39.88	-43.2	-44.8	24.5	6.08e-01	0	43	0	497025024	58	4194
2026-01-30 02:14:44.49	313.30	39.95	-43.4	-45.0	24.3	6.04e-01	0	43	0	498597888	58	4299
2026-01-30 02:14:45.78	312.61	40.06	-43.4	-45.0	23.8	6.05e-01	0	43	0	500695040	58	4298
2026-01-30 02:14:46.49	312.22	40.12	-43.4	-45.0	24.3	6.06e-01	0	43	0	502267904	58	4305
2026-01-30 02:14:47.78	311.53	40.22	-43.5	-45.1	24.1	6.04e-01	0	43	0	504365056	58	4373
2026-01-30 02:14:48.50	311.13	40.28	-43.4	-45.1	24.2	6.04e-01	0	43	0	505937920	58	4363
2026-01-30 02:14:49.79	310.43	40.38	-43.3	-44.9	23.7	6.04e-01	0	43	0	508035072	58	4281
2026-01-30 02:14:50.68	309.94	40.45	-43.3	-44.9	24.4	6.04e-01	0	43	0	510132224	58	4266
2026-01-30 02:14:51.70	309.38	40.52	-43.1	-44.7	24.6	6.03e-01	0	43	0	511705088	58	4167
2026-01-30 02:14:52.71	308.82	40.59	-43.1	-44.7	24.6	6.08e-01	0	43	0	513802240	58	4162
2026-01-30 02:14:53.70	308.26	40.65	-43.2	-44.8	24.5	6.02e-01	0	43	0	515899392	58	4232
2026-01-30 02:14:54.71	307.70	40.71	-43.0	-44.6	24.7	6.03e-01	0	43	0	517472256	58	4107
2026-01-30 02:14:55.71	307.14	40.77	-42.9	-44.4	24.8	6.04e-01	0	43	0	519569408	57	4283
2026-01-30 02:14:56.71	306.57	40.83	-43.2	-44.8	24.4	6.07e-01	0	43	0	521142272	57	4455
2026-01-30 02:14:57.71	306.01	40.88	-43.1	-44.6	24.6	6.04e-01	0	43	0	523239424	57	4382
2026-01-30 02:14:58.76	305.41	40.94	-43.2	-44.7	24.5	6.03e-01	0	44	0	525336576	57	4414
2026-01-30 02:14:59.69	304.88	40.98	-43.3	-44.9	24.3	6.06e-01	0	43	0	526909440	57	4534
2026-01-30 02:15:00.85	304.22	41.03	-43.2	-44.9	24.4	6.03e-01	0	43	0	529006592	57	4512
2026-01-30 02:15:01.74	303.71	41.07	-43.1	-44.8	24.5	6.02e-01	0	43	0	530579456	57	4442
2026-01-30 02:15:03.06	302.95	41.12	-43.4	-45.1	24.1	6.03e-01	0	43	0	533200896	57	4605
2026-01-30 02:15:03.78	302.54	41.14	-43.0	-44.5	24.8	6.03e-01	0	43	0	534773760	57	4320
2026-01-30 02:15:05.07	301.80	41.18	-43.4	-45.0	24.2	6.03e-01	0	43	0	536870912	57	4577
2026-01-30 02:15:05.80	301.37	41.20	-43.1	-44.6	24.7	6.04e-01	0	43	0	538443776	57	4363
2026-01-30 02:15:07.09	300.63	41.23	-43.2	-44.8	24.4	6.03e-01	0	43	0	540540928	57	4491
2026-01-30 02:15:07.80	300.22	41.25	-42.7	-44.3	24.9	6.04e-01	0	43	0	542113792	57	4196
2026-01-30 02:15:09.11	299.46	41.27	-43.7	-45.5	23.9	6.02e-01	0	43	0	544735232	58	4559
2026-01-30 02:15:09.92	298.99	41.28	-43.2	-44.7	24.5	6.07e-01	0	43	0	546308096	58	4174
2026-01-30 02:15:11.06	298.32	41.29	-43.4	-45.0	24.3	6.05e-01	0	43	0	548405248	57	4583
2026-01-30 02:15:11.92	297.82	41.30	-42.9	-44.4	24.8	6.05e-01	0	43	0	549978112	57	4271
2026-01-30 02:15:13.07	297.15	41.31	-42.9	-44.5	24.7	6.05e-01	0	43	0	552075264	56	4594
2026-01-30 02:15:13.93	296.65	41.31	-42.6	-44.1	25.2	6.04e-01	0	43	0	553648128	56	4353
2026-01-30 02:15:15.07	295.99	41.31	-42.9	-44.4	24.8	6.06e-01	0	43	0	555745280	56	4541
2026-01-30 02:15:15.93	295.49	41.30	-42.9	-44.4	24.9	6.04e-01	0	43	0	557318144	57	4245
2026-01-30 02:15:17.08	294.82	41.29	-43.3	-44.9	24.4	6.04e-01	0	43	0	559415296	57	4498
2026-01-30 02:15:17.94	294.32	41.28	-43.4	-44.9	24.3	6.05e-01	0	43	0	560988160	57	4544
2026-01-30 02:15:19.09	293.65	41.26	-44.1	-45.9	23.6	6.04e-01	0	43	0	563085312	58	4773
2026-01-30 02:15:19.95	293.15	41.25	-42.8	-44.3	24.9	6.03e-01	0	43	0	564658176	56	4447
2026-01-30 02:15:21.09	292.49	41.22	-43.4	-45.0	24.3	6.04e-01	0	43	0	566755328	57	4546
2026-01-30 02:15:21.95	291.99	41.20	-43.6	-45.1	24.3	6.04e-01	0	43	0	568328192	57	4641
2026-01-30 02:15:23.09	291.34	41.17	-44.4	-46.2	23.0	6.06e-01	0	43	0	570949632	59	4680
2026-01-30 02:15:23.96	290.83	41.14	-44.8	-46.7	22.6	6.05e-01	0	43	0	572522496	60	4704
2026-01-30 02:15:25.10	290.18	41.10	-45.5	-47.7	21.7	6.04e-01	0	43	0	574619648	61	4960
2026-01-30 02:15:25.96	289.68	41.07	-44.4	-46.1	23.2	6.03e-01	0	43	0	576192512	59	4642
2026-01-30 02:15:27.10	289.03	41.02	-44.1	-45.7	23.6	6.03e-01	0	43	0	578289664	59	4414
2026-01-30 02:15:27.96	288.54	40.98	-43.8	-45.4	23.7	6.05e-01	0	43	0	579862528	59	4287
2026-01-30 02:15:29.11	287.88	40.93	-44.0	-45.6	23.3	6.05e-01	0	43	0	581959680	59	4378
2026-01-30 02:15:30.26	287.23	40.87	-44.6	-46.5	22.7	6.02e-01	0	43	0	584056832	60	4589
2026-01-30 02:15:31.31	286.64	40.82	-45.0	-47.0	22.3	6.04e-01	0	43	0	586153984	60	4854
2026-01-30 02:15:32.39	286.03	40.75	-45.3	-47.3	22.0	6.04e-01	0	43	0	588251136	61	4748
2026-01-30 02:15:33.25	285.55	40.70	-44.2	-45.9	23.3	6.03e-01	0	43	0	589824000	60	4246
2026-01-30 02:15:34.40	284.90	40.63	-43.5	-45.0	24.3	6.04e-01	0	43	0	591921152	59	4060
2026-01-30 02:15:35.25	284.43	40.57	-44.2	-45.9	23.2	6.05e-01	0	43	0	593494016	59	4520
2026-01-30 02:15:36.40	283.79	40.49	-44.0	-45.8	23.5	6.04e-01	0	43	0	595591168	59	4459
2026-01-30 02:15:37.26	283.32	40.43	-43.6	-45.2	24.0	6.05e-01	0	43	0	597164032	58	4433
2026-01-30 02:15:38.40	282.69	40.35	-43.7	-45.3	23.9	6.04e-01	0	43	0	599261184	58	4487
2026-01-30 02:15:39.26	282.22	40.28	-44.0	-45.7	23.7	6.04e-01	0	43	0	601358336	58	4671
2026-01-30 02:15:40.41	281.59	40.19	-43.4	-44.9	24.3	6.04e-01	0	43	0	603455488	58	4284
2026-01-30 02:15:41.26	281.13	40.12	-44.0	-45.8	23.5	6.04e-01	0	43	0	605028352	58	4717
2026-01-30 02:15:42.41	280.51	40.02	-43.7	-45.3	24.0	6.02e-01	0	43	0	607125504	58	4481
2026-01-30 02:15:43.27	280.05	39.94	-42.7	-44.1	25.0	6.04e-01	0	43	0	608698368	57	4105
2026-01-30 02:15:44.42	279.44	39.84	-43.8	-45.5	23.6	6.04e-01	0	43	0	610795520	58	4551
2026-01-30 02:15:45.28	278.98	39.76	-43.7	-45.4	23.7	6.06e-01	0	43	0	612368384	58	4519
2026-01-30 02:15:46.42	278.38	39.65	-43.1	-44.5	24.5	6.03e-01	0	43	0	614465536	58	4083
2026-01-30 02:15:47.28	277.93	39.57	-44.1	-45.9	23.1	6.04e-01	0	43	0	616038400	59	4512
2026-01-30 02:15:48.43	277.33	39.45	-44.1	-46.0	23.3	6.07e-01	0	43	0	618135552	58	4824
2026-01-30 02:15:49.29	276.89	39.36	-43.3	-44.8	24.2	6.04e-01	0	43	0	619708416	58	4230
2026-01-30 02:15:50.43	276.30	39.24	-43.5	-45.2	23.9	6.03e-01	0	43	0	621805568	58	4392
2026-01-30 02:15:51.29	275.87	39.15	-43.0	-44.5	24.5	6.04e-01	0	43	0	623378432	57	4337
2026-01-30 02:15:52.44	275.28	39.03	-42.8	-44.2	24.9	6.03e-01	0	43	0	625999872	57	4154
2026-01-30 02:15:53.30	274.85	38.93	-44.1	-45.8	23.5	6.04e-01	0	43	0	627572736	58	4735
2026-01-30 02:15:54.44	274.28	38.80	-42.7	-44.0	24.9	6.01e-01	0	43	0	629669888	56	4321
2026-01-30 02:15:55.30	273.85	38.70	-43.7	-45.3	23.4	6.05e-01	0	43	0	631242752	58	4488
2026-01-30 02:15:56.45	273.29	38.57	-43.7	-45.4	23.7	6.06e-01	0	43	0	633339904	58	4521
2026-01-30 02:15:57.31	272.87	38.46	-42.7	-44.1	24.7	6.04e-01	0	43	0	634912768	57	4106
2026-01-30 02:15:58.45	272.31	38.33	-44.3	-46.3	23.0	6.05e-01	0	43	0	637009920	59	4746
2026-01-30 02:15:59.31	271.90	38.22	-42.3	-43.6	25.3	6.04e-01	0	43	0	638582784	56	4124
2026-01-30 02:16:00.57	271.30	38.06	-43.6	-45.4	22.9	6.04e-01	0	43	0	641204224	59	4258
2026-01-30 02:16:01.28	270.96	37.97	-42.5	-43.9	25.1	6.01e-01	0	43	0	642252800	56	4246
2026-01-30 02:16:02.78	270.26	37.78	-42.6	-44.0	24.7	6.03e-01	0	43	0	645398528	57	4064
2026-01-30 02:16:03.50	269.92	37.69	-43.3	-44.9	23.9	6.04e-01	0	43	0	646447104	57	4506
2026-01-30 02:16:04.79	269.33	37.52	-42.7	-44.1	24.7	6.06e-01	0	43	0	649068544	57	4122
2026-01-30 02:16:05.50	269.00	37.42	-42.9	-44.4	24.4	6.05e-01	0	43	0	650117120	56	4506
2026-01-30 02:16:06.79	268.42	37.25	-43.2	-44.7	23.9	6.02e-01	0	43	0	652738560	58	4170
2026-01-30 02:16:07.51	268.09	37.15	-43.3	-44.9	24.0	6.05e-01	0	43	0	654311424	57	4506
2026-01-30 02:16:08.79	267.52	36.97	-42.9	-44.3	24.0	6.04e-01	0	43	0	656408576	57	4242
2026-01-30 02:16:09.51	267.20	36.87	-42.4	-43.7	25.1	6.04e-01	0	43	0	657981440	56	4164
2026-01-30 02:16:10.80	266.64	36.69	-44.1	-46.0	22.8	6.04e-01	0	43	0	660078592	59	4598
2026-01-30 02:16:11.61	266.28	36.58	-42.8	-44.2	24.8	6.04e-01	0	43	0	661651456	57	4187
2026-01-30 02:16:12.76	265.79	36.42	-44.1	-46.0	23.2	6.04e-01	0	43	0	663748608	58	4821
2026-01-30 02:16:13.82	265.34	36.26	-42.9	-44.4	24.6	6.03e-01	0	43	0	665845760	57	4261
2026-01-30 02:16:14.86	264.90	36.11	-44.0	-45.9	23.2	6.04e-01	0	43	0	667942912	58	4778
2026-01-30 02:16:15.86	264.48	35.97	-43.8	-45.6	23.2	6.01e-01	0	43	0	669515776	59	4389
2026-01-30 02:16:16.86	264.07	35.82	-42.7	-44.3	24.8	6.04e-01	0	43	0	671612928	57	4196
2026-01-30 02:16:17.87	263.65	35.67	-43.5	-45.4	23.9	6.05e-01	0	43	0	673710080	57	4765
2026-01-30 02:16:18.87	263.24	35.52	-42.9	-44.6	24.4	6.05e-01	0	43	0	675282944	57	4356
2026-01-30 02:16:19.87	262.84	35.37	-42.9	-44.6	24.5	6.03e-01	0	43	0	677380096	57	4349
2026-01-30 02:16:20.87	262.44	35.22	-43.5	-45.3	23.8	6.05e-01	0	43	0	678952960	57	4738
2026-01-30 02:16:21.88	262.04	35.07	-43.2	-44.8	24.3	6.03e-01	0	43	0	681050112	57	4457
2026-01-30 02:16:22.88	261.65	34.92	-43.1	-44.7	24.5	6.06e-01	0	43	0	682622976	57	4397
2026-01-30 02:16:23.88	261.26	34.76	-43.4	-45.0	24.2	6.07e-01	0	43	0	684720128	57	4579
2026-01-30 02:16:24.89	260.87	34.61	-42.8	-44.3	24.7	6.03e-01	0	43	0	686817280	57	4234
2026-01-30 02:16:25.89	260.49	34.45	-42.8	-44.4	24.7	6.05e-01	0	43	0	688390144	57	4243
2026-01-30 02:16:26.90	260.11	34.30	-43.3	-45.0	24.2	6.05e-01	0	43	0	690487296	57	4579
2026-01-30 02:16:27.90	259.74	34.14	-43.1	-44.7	24.3	6.06e-01	0	43	0	692060160	57	4424
2026-01-30 02:16:28.90	259.37	33.99	-42.7	-44.1	25.0	6.05e-01	0	43	0	694157312	57	4117
2026-01-30 02:16:29.91	259.00	33.83	-42.8	-44.3	24.8	6.03e-01	0	43	0	696254464	57	4235
2026-01-30 02:16:30.91	258.64	33.67	-43.1	-44.7	24.5	6.04e-01	0	43	0	697827328	57	4430
2026-01-30 02:16:31.91	258.28	33.52	-42.9	-44.5	24.7	6.04e-01	0	43	0	699924480	57	4297
2026-01-30 02:16:32.91	257.92	33.36	-42.9	-44.4	24.7	6.05e-01	0	43	0	701497344	57	4263
2026-01-30 02:16:34.25	257.45	33.15	-43.0	-44.5	24.6	6.04e-01	0	43	0	704118784	57	4337
2026-01-30 02:16:35.00	257.19	33.03	-43.2	-44.8	24.3	6.04e-01	0	43	0	705691648	57	4484
2026-01-30 02:16:36.29	256.75	32.83	-42.9	-44.5	24.6	6.04e-01	0	43	0	707788800	57	4313
2026-01-30 02:16:37.01	256.50	32.71	-43.0	-44.5	24.5	6.04e-01	0	43	0	709361664	57	4324
2026-01-30 02:16:38.30	256.07	32.51	-42.9	-44.3	24.8	6.03e-01	0	43	0	711983104	57	4238
2026-01-30 02:16:39.02	255.83	32.39	-43.0	-44.5	24.6	6.05e-01	0	43	0	713031680	57	4308
2026-01-30 02:16:40.30	255.41	32.19	-43.3	-44.8	24.3	6.05e-01	0	43	0	715653120	57	4486
2026-01-30 02:16:41.02	255.17	32.07	-43.4	-45.0	24.2	6.02e-01	0	43	0	716701696	57	4546
2026-01-30 02:16:42.31	254.75	31.87	-43.3	-44.8	24.3	6.05e-01	0	43	0	719323136	57	4485
2026-01-30 02:16:43.02	254.53	31.76	-43.0	-44.5	24.5	6.03e-01	0	43	0	720371712	57	4313
2026-01-30 02:16:44.31	254.12	31.55	-42.4	-43.8	25.3	6.07e-01	0	43	0	722993152	56	4210
2026-01-30 02:16:45.03	253.89	31.43	-42.4	-43.7	25.3	6.05e-01	0	43	0	724566016	56	4179
2026-01-30 02:16:46.48	253.44	31.20	-42.9	-44.3	24.9	6.02e-01	0	43	0	727187456	56	4472
2026-01-30 02:16:47.20	253.22	31.09	-43.1	-44.6	24.6	6.03e-01	0	43	0	728236032	56	4606
2026-01-30 02:16:48.55	252.81	30.87	-43.0	-44.5	24.6	6.04e-01	0	43	0	730857472	57	4329
2026-01-30 02:16:49.27	252.59	30.76	-42.8	-44.3	24.9	6.04e-01	0	43	0	732430336	57	4198
2026-01-30 02:16:50.56	252.21	30.55	-42.4	-43.7	25.3	6.04e-01	0	43	0	734527488	56	4177
2026-01-30 02:16:51.27	252.00	30.44	-42.4	-43.8	25.3	6.04e-01	0	43	0	736100352	56	4213
2026-01-30 02:16:52.76	251.57	30.20	-42.8	-44.3	24.9	6.04e-01	0	43	0	738721792	56	4448
2026-01-30 02:16:53.47	251.36	30.09	-42.8	-44.2	24.8	6.05e-01	0	43	0	740294656	56	4437
2026-01-30 02:16:54.76	251.00	29.88	-42.7	-44.2	24.9	6.05e-01	0	43	0	742916096	56	4409
2026-01-30 02:16:55.48	250.79	29.77	-42.9	-44.3	24.8	6.04e-01	0	43	0	743964672	56	4485
2026-01-30 02:16:56.77	250.43	29.57	-42.7	-44.1	24.9	6.03e-01	0	43	0	746586112	56	4386
2026-01-30 02:16:57.49	250.23	29.45	-42.7	-44.1	25.1	6.03e-01	0	43	0	747634688	56	4343
2026-01-30 02:16:58.78	249.88	29.25	-42.6	-43.9	25.2	6.03e-01	0	43	0	750256128	56	4287
2026-01-30 02:16:59.49	249.69	29.14	-42.9	-44.4	24.7	6.05e-01	0	43	0	751304704	56	4515
2026-01-30 02:17:00.78	249.34	28.93	-43.0	-44.5	24.5	6.04e-01	0	43	0	753926144	56	4582
2026-01-30 02:17:01.50	249.15	28.82	-43.0	-44.5	24.7	6.06e-01	0	43	0	754974720	56	4548
2026-01-30 02:17:02.79	248.81	28.62	-42.4	-43.8	25.3	6.04e-01	0	43	0	757596160	56	4197
2026-01-30 02:17:03.58	248.61	28.49	-42.4	-43.8	25.3	6.04e-01	0	43	0	759169024	56	4224
2026-01-30 02:17:04.73	248.31	28.31	-42.8	-44.3	24.8	6.01e-01	0	43	0	761266176	56	4489
2026-01-30 02:17:05.81	248.04	28.15	-42.8	-44.3	24.8	6.03e-01	0	43	0	763363328	56	4452
2026-01-30 02:17:06.84	247.78	27.98	-42.4	-43.9	25.2	6.06e-01	0	43	0	765460480	56	4247
2026-01-30 02:17:07.85	247.53	27.83	-42.5	-43.9	25.2	6.02e-01	0	43	0	767033344	56	4251
2026-01-30 02:17:08.85	247.28	27.67	-42.7	-44.2	24.9	6.05e-01	0	43	0	769130496	56	4400
2026-01-30 02:17:09.86	247.03	27.52	-43.1	-44.7	24.4	6.05e-01	0	43	0	771227648	56	4675
2026-01-30 02:17:10.86	246.79	27.36	-43.0	-44.5	24.5	6.05e-01	0	43	0	772800512	56	4585
2026-01-30 02:17:11.86	246.55	27.21	-42.8	-44.3	24.8	6.03e-01	0	43	0	774897664	56	4442
2026-01-30 02:17:12.87	246.31	27.05	-42.8	-44.2	24.8	6.04e-01	0	43	0	776470528	56	4424
2026-01-30 02:17:13.87	246.08	26.90	-42.7	-44.2	24.9	6.04e-01	0	43	0	778567680	56	4398
2026-01-30 02:17:14.87	245.85	26.75	-42.8	-44.3	24.8	6.03e-01	0	43	0	780140544	56	4443
2026-01-30 02:17:15.87	245.62	26.60	-42.9	-44.4	24.7	6.04e-01	0	43	0	782237696	56	4514
2026-01-30 02:17:16.88	245.39	26.44	-42.8	-44.3	24.7	6.02e-01	0	43	0	784334848	56	4472
2026-01-30 02:17:17.88	245.16	26.29	-42.9	-44.4	24.7	6.08e-01	0	43	0	785907712	56	4495
2026-01-30 02:17:18.88	244.94	26.14	-43.1	-44.6	24.5	6.04e-01	0	43	0	788004864	56	4608
2026-01-30 02:17:19.97	244.70	25.98	-43.1	-44.6	24.5	6.06e-01	0	43	0	790102016	56	4607
2026-01-30 02:17:20.86	244.51	25.84	-43.0	-44.5	24.5	6.04e-01	0	43	0	791674880	56	4578
2026-01-30 02:17:22.00	244.26	25.67	-43.0	-44.5	24.5	6.02e-01	0	43	0	793772032	56	4557
2026-01-30 02:17:22.86	244.08	25.55	-42.9	-44.4	24.5	6.04e-01	0	43	0	795344896	56	4539
2026-01-30 02:17:24.00	243.83	25.38	-42.8	-44.3	24.7	6.03e-01	0	43	0	797442048	56	4480
2026-01-30 02:17:24.86	243.65	25.25	-43.0	-44.5	24.4	6.04e-01	0	43	0	799014912	56	4593
2026-01-30 02:17:26.01	243.41	25.08	-43.1	-44.6	24.4	6.04e-01	0	43	0	801112064	56	4636
2026-01-30 02:17:26.87	243.24	24.95	-43.1	-44.6	24.4	6.05e-01	0	44	0	802684928	57	4374
2026-01-30 02:17:28.01	243.00	24.79	-43.1	-44.5	24.5	6.07e-01	0	43	0	804782080	57	4336
2026-01-30 02:17:28.87	242.83	24.66	-43.0	-44.5	24.6	6.05e-01	0	43	0	806354944	57	4301
2026-01-30 02:17:30.02	242.60	24.49	-43.0	-44.5	24.5	6.02e-01	0	43	0	808976384	57	4301
2026-01-30 02:17:30.88	242.43	24.37	-43.1	-44.5	24.5	6.05e-01	0	43	0	810549248	57	4329
2026-01-30 02:17:32.03	242.21	24.20	-43.2	-44.7	24.3	6.03e-01	0	43	0	812646400	57	4425
2026-01-30 02:17:32.89	242.04	24.08	-43.2	-44.7	24.3	6.05e-01	0	43	0	814219264	57	4421
2026-01-30 02:17:34.03	241.82	23.91	-43.1	-44.7	24.3	6.05e-01	0	43	0	816316416	57	4411
2026-01-30 02:17:34.89	241.66	23.79	-43.3	-44.9	24.2	6.06e-01	0	43	0	817889280	57	4510
2026-01-30 02:17:36.04	241.44	23.63	-43.0	-44.5	24.5	6.06e-01	0	43	0	819986432	57	4306
2026-01-30 02:17:36.89	241.28	23.51	-42.8	-44.3	24.7	6.03e-01	0	43	0	821559296	57	4233
2026-01-30 02:17:38.04	241.07	23.34	-42.9	-44.3	24.6	6.03e-01	0	43	0	823656448	57	4234
2026-01-30 02:17:38.90	240.91	23.22	-42.9	-44.3	24.6	6.04e-01	0	43	0	825229312	57	4240
2026-01-30 02:17:40.05	240.70	23.06	-43.0	-44.5	24.5	6.03e-01	0	43	0	827326464	57	4307
2026-01-30 02:17:41.15	240.50	22.91	-43.2	-44.7	24.4	6.02e-01	0	43	0	829423616	57	4412
2026-01-30 02:17:42.01	240.35	22.79	-43.2	-44.8	24.2	6.04e-01	0	43	0	830996480	57	4449
2026-01-30 02:17:43.16	240.15	22.63	-43.1	-44.6	24.4	6.04e-01	0	43	0	833617920	57	4362
2026-01-30 02:17:44.02	240.00	22.51	-43.1	-44.6	24.4	6.05e-01	0	43	0	835190784	57	4373
2026-01-30 02:17:45.58	239.73	22.30	-43.1	-44.6	24.5	6.05e-01	0	43	0	837812224	57	4368
2026-01-30 02:17:46.29	239.61	22.20	-43.1	-44.6	24.4	6.02e-01	0	43	0	839385088	57	4378
2026-01-30 02:17:47.78	239.35	22.00	-43.1	-44.6	24.5	6.03e-01	0	43	0	842006528	57	4347
2026-01-30 02:17:48.50	239.23	21.90	-43.1	-44.6	24.5	6.06e-01	0	43	0	843579392	57	4355
2026-01-30 02:17:49.79	239.02	21.72	-43.2	-44.8	24.3	6.04e-01	0	43	0	845676544	57	4445
2026-01-30 02:17:50.50	238.90	21.63	-43.0	-44.5	24.5	6.05e-01	0	43	0	847249408	57	4337
2026-01-30 02:17:51.79	238.69	21.46	-43.0	-44.6	24.5	6.04e-01	0	43	0	849346560	57	4341
2026-01-30 02:17:52.51	238.58	21.36	-42.6	-44.1	24.8	6.05e-01	0	43	0	850919424	57	4143
2026-01-30 02:17:53.80	238.37	21.19	-42.6	-44.1	24.9	6.04e-01	0	43	0	853540864	57	4107
2026-01-30 02:17:54.52	238.26	21.09	-42.7	-44.2	24.8	6.03e-01	0	44	0	854589440	57	4168
2026-01-30 02:17:55.81	238.05	20.92	-42.9	-44.4	24.6	6.03e-01	0	43	0	857210880	57	4267
2026-01-30 02:17:56.52	237.94	20.83	-43.1	-44.6	24.5	6.04e-01	0	43	0	858259456	57	4377
2026-01-30 02:17:57.81	237.75	20.66	-43.1	-44.7	24.5	6.04e-01	0	44	0	860880896	57	4412
2026-01-30 02:17:58.61	237.62	20.56	-43.2	-44.8	24.3	6.06e-01	0	43	0	862453760	57	4462
2026-01-30 02:18:00.07	237.40	20.37	-43.2	-44.8	24.2	6.05e-01	0	43	0	865075200	57	4465
2026-01-30 02:18:00.79	237.30	20.27	-43.0	-44.6	24.5	6.02e-01	0	43	0	866648064	57	4343
2026-01-30 02:18:02.08	237.10	20.11	-43.2	-44.7	24.3	6.03e-01	0	43	0	868745216	57	4437
2026-01-30 02:18:02.79	237.00	20.02	-43.1	-44.7	24.3	6.03e-01	0	43	0	870318080	57	4399
2026-01-30 02:18:04.08	236.81	19.85	-43.0	-44.5	24.5	6.03e-01	0	43	0	872415232	57	4325
2026-01-30 02:18:04.80	236.71	19.76	-42.8	-44.3	24.6	6.02e-01	0	43	0	873988096	57	4230
2026-01-30 02:18:06.08	236.52	19.60	-42.6	-44.0	24.9	6.03e-01	0	43	0	876085248	57	4098
2026-01-30 02:18:06.80	236.42	19.51	-42.6	-44.0	24.9	6.04e-01	0	43	0	877658112	57	4089
2026-01-30 02:18:08.09	236.24	19.35	-42.7	-44.2	24.8	6.04e-01	0	43	0	880279552	57	4152
2026-01-30 02:18:08.81	236.14	19.26	-42.8	-44.3	24.7	6.06e-01	0	43	0	881328128	57	4202
2026-01-30 02:18:10.10	235.96	19.10	-42.9	-44.5	24.5	6.07e-01	0	43	0	883949568	57	4302
2026-01-30 02:18:11.07	235.83	18.98	-43.0	-44.5	24.5	6.03e-01	0	43	0	885522432	57	4320
2026-01-30 02:18:12.39	235.65	18.81	-42.8	-44.3	24.6	6.05e-01	0	43	0	888143872	57	4240
2026-01-30 02:18:13.10	235.56	18.73	-42.8	-44.3	24.7	6.05e-01	0	43	0	889716736	57	4212
2026-01-30 02:18:14.39	235.38	18.57	-42.8	-44.3	24.6	6.03e-01	0	43	0	891813888	57	4228
2026-01-30 02:18:15.10	235.29	18.48	-42.9	-44.4	24.6	6.02e-01	0	43	0	893386752	57	4243
2026-01-30 02:18:16.40	235.12	18.32	-43.0	-44.5	24.3	6.04e-01	0	43	0	895483904	57	4328
2026-01-30 02:18:17.11	235.03	18.24	-43.1	-44.6	24.3	6.05e-01	0	43	0	897056768	57	4377
2026-01-30 02:18:18.40	234.86	18.08	-42.9	-44.5	24.4	6.02e-01	0	43	0	899153920	57	4311
2026-01-30 02:18:19.11	234.77	18.00	-42.9	-44.5	24.5	6.04e-01	0	43	0	900726784	57	4304
2026-01-30 02:18:20.40	234.61	17.84	-42.9	-44.4	24.5	6.06e-01	0	43	0	903348224	57	4271
2026-01-30 02:18:21.12	234.52	17.76	-42.8	-44.4	24.5	6.03e-01	0	43	0	904396800	57	4243
2026-01-30 02:18:22.49	234.35	17.60	-42.6	-44.1	24.8	6.03e-01	0	44	0	907018240	57	4130
2026-01-30 02:18:23.20	234.26	17.51	-42.6	-44.1	24.8	6.06e-01	0	44	0	908591104	57	4130
2026-01-30 02:18:24.49	234.10	17.36	-42.7	-44.1	24.7	6.05e-01	0	43	0	910688256	57	4141
2026-01-30 02:18:25.21	234.02	17.28	-42.8	-44.3	24.6	6.04e-01	0	43	0	912261120	57	4219
2026-01-30 02:18:26.65	233.84	17.11	-43.0	-44.5	24.4	6.02e-01	0	43	0	914882560	57	4320
2026-01-30 02:18:27.36	233.76	17.03	-43.0	-44.6	24.4	6.03e-01	0	44	0	916455424	57	4360
2026-01-30 02:18:28.65	233.61	16.88	-43.0	-44.6	24.3	6.03e-01	0	43	0	918552576	57	4370
2026-01-30 02:18:29.37	233.52	16.80	-43.1	-44.6	24.3	6.05e-01	0	44	0	920125440	57	4382
2026-01-30 02:18:30.79	233.36	16.64	-43.0	-44.5	24.4	6.06e-01	0	43	0	922746880	57	4331
2026-01-30 02:18:31.50	233.28	16.56	-43.0	-44.5	24.3	6.06e-01	0	43	0	923795456	57	4337
2026-01-30 02:18:32.79	233.13	16.41	-42.7	-44.2	24.7	6.05e-01	0	43	0	926416896	57	4169
2026-01-30 02:18:33.51	233.05	16.33	-42.7	-44.1	24.8	5.99e-01	0	43	0	927989760	57	4126
2026-01-30 02:18:34.80	232.90	16.18	-42.8	-44.3	24.6	6.05e-01	0	43	0	930086912	57	4217
2026-01-30 02:18:35.51	232.83	16.10	-42.9	-44.4	24.5	6.03e-01	0	43	0	931659776	57	4279
2026-01-30 02:18:36.80	232.68	15.96	-43.2	-44.8	24.2	6.03e-01	0	43	0	933756928	57	4453
2026-01-30 02:18:37.52	232.60	15.88	-43.2	-44.7	24.2	6.06e-01	0	43	0	935329792	57	4422
2026-01-30 02:18:38.81	232.46	15.74	-43.3	-44.9	24.0	6.05e-01	0	43	0	937951232	57	4515
2026-01-30 02:18:39.59	232.38	15.65	-43.3	-44.8	24.1	6.04e-01	0	43	0	938999808	57	4479
2026-01-30 02:18:41.19	232.21	15.48	-43.2	-44.7	24.2	6.02e-01	0	43	0	942145536	57	4423
2026-01-30 02:18:41.76	232.15	15.42	-42.9	-44.4	24.5	6.03e-01	0	43	0	943194112	57	4277
2026-01-30 02:18:43.34	231.98	15.24	-42.7	-44.2	24.7	6.04e-01	0	43	0	946339840	57	4167
2026-01-30 02:18:43.95	231.92	15.18	-42.8	-44.3	24.5	6.04e-01	0	43	0	947388416	57	4214
2026-01-30 02:18:45.53	231.76	15.01	-42.9	-44.4	24.5	6.03e-01	0	43	0	950534144	57	4264
2026-01-30 02:18:46.16	231.69	14.94	-43.1	-44.7	24.3	6.06e-01	0	43	0	951582720	57	4394
2026-01-30 02:18:47.59	231.55	14.79	-43.1	-44.6	24.2	6.06e-01	0	43	0	954204160	57	4384
2026-01-30 02:18:48.31	231.48	14.71	-43.2	-44.7	24.1	6.06e-01	0	43	0	955777024	57	4433
2026-01-30 02:18:49.60	231.35	14.58	-43.2	-44.7	24.2	6.05e-01	0	43	0	957874176	57	4413
2026-01-30 02:18:50.47	231.26	14.48	-43.1	-44.7	24.2	6.05e-01	0	43	0	959447040	57	4403
2026-01-30 02:18:51.62	231.15	14.36	-43.2	-44.7	24.2	6.05e-01	0	43	0	961544192	57	4425
2026-01-30 02:18:52.48	231.06	14.27	-43.2	-44.8	24.1	6.04e-01	0	43	0	963117056	57	4474
2026-01-30 02:18:53.63	230.95	14.15	-43.2	-44.7	24.1	6.05e-01	0	43	0	965738496	57	4441
2026-01-30 02:18:54.75	230.85	14.04	-43.1	-44.7	24.2	6.05e-01	0	43	0	967311360	57	4399
2026-01-30 02:18:55.62	230.76	13.95	-43.1	-44.6	24.2	6.03e-01	0	43	0	969408512	57	4378
2026-01-30 02:18:56.74	230.66	13.83	-43.1	-44.6	24.2	6.06e-01	0	43	0	971505664	57	4379
2026-01-30 02:18:57.60	230.58	13.75	-43.0	-44.6	24.2	6.03e-01	0	43	0	973078528	57	4361
2026-01-30 02:18:58.75	230.47	13.63	-43.0	-44.5	24.3	6.04e-01	0	43	0	975175680	57	4337
2026-01-30 02:18:59.60	230.39	13.54	-43.0	-44.5	24.3	6.03e-01	0	43	0	976748544	57	4326
2026-01-30 02:19:00.75	230.29	13.43	-43.0	-44.5	24.3	6.03e-01	0	43	0	978845696	57	4340
2026-01-30 02:19:01.60	230.21	13.34	-43.0	-44.5	24.3	6.03e-01	0	43	0	980418560	57	4338
2026-01-30 02:19:02.75	230.10	13.22	-43.1	-44.6	24.2	6.04e-01	0	43	0	982515712	57	4375
2026-01-30 02:19:03.61	230.03	13.14	-43.1	-44.6	24.2	6.02e-01	0	43	0	984088576	57	4362
2026-01-30 02:19:04.89	229.91	13.01	-43.2	-44.7	24.1	6.01e-01	0	43	0	986710016	57	4413
2026-01-30 02:19:05.60	229.85	12.94	-43.2	-44.7	24.1	6.02e-01	0	43	0	987758592	57	4436
2026-01-30 02:19:06.89	229.74	12.81	-43.3	-44.9	23.9	6.04e-01	0	43	0	990380032	57	4504
2026-01-30 02:19:07.61	229.68	12.74	-43.2	-44.8	24.0	6.03e-01	0	43	0	991952896	57	4460
2026-01-30 02:19:08.90	229.57	12.62	-43.3	-44.9	23.9	6.04e-01	0	43	0	994050048	57	4513
2026-01-30 02:19:09.65	229.50	12.54	-43.3	-44.9	23.9	6.04e-01	0	43	0	995622912	57	4511
2026-01-30 02:19:11.24	229.37	12.39	-43.4	-45.0	23.9	6.06e-01	0	44	0	998768640	57	4556
2026-01-30 02:19:11.81	229.32	12.33	-43.3	-44.9	24.0	6.04e-01	0	43	0	999817216	57	4503
2026-01-30 02:19:13.42	229.18	12.18	-43.2	-44.8	24.0	6.03e-01	0	43	0	1002438656	57	4461
2026-01-30 02:19:13.99	229.14	12.12	-43.3	-44.9	23.9	6.05e-01	0	43	0	1003487232	57	4526
2026-01-30 02:19:15.57	229.01	11.97	-43.2	-44.8	24.0	6.04e-01	0	43	0	1006632960	57	4449
2026-01-30 02:19:16.16	228.96	11.92	-43.2	-44.8	24.0	6.05e-01	0	43	0	1007681536	57	4456
2026-01-30 02:19:17.75	228.83	11.77	-43.3	-45.0	23.8	6.05e-01	0	43	0	1010827264	57	4552
2026-01-30 02:19:18.32	228.78	11.71	-43.2	-44.8	24.0	6.05e-01	0	44	0	1011875840	57	4481
2026-01-30 02:19:19.92	228.66	11.56	-43.4	-45.0	23.8	6.04e-01	0	43	0	1015021568	57	4557
2026-01-30 02:19:20.49	228.61	11.51	-43.5	-45.1	23.7	6.05e-01	0	43	0	1016070144	57	4639
2026-01-30 02:19:22.11	228.48	11.36	-43.5	-45.1	23.7	6.07e-01	0	43	0	1018691584	57	4651
2026-01-30 02:19:22.69	228.44	11.30	-43.6	-45.2	23.6	6.05e-01	0	43	0	1020264448	57	4690
2026-01-30 02:19:24.26	228.32	11.16	-43.6	-45.3	23.5	6.03e-01	0	43	0	1022885888	57	4733
2026-01-30 02:19:24.88	228.27	11.10	-43.7	-45.4	23.5	6.00e-01	0	43	0	1023934464	57	4761
2026-01-30 02:19:26.46	228.15	10.96	-43.5	-45.2	23.6	6.03e-01	0	43	0	1027080192	57	4668
2026-01-30 02:19:27.06	228.10	10.90	-43.5	-45.2	23.6	6.05e-01	0	43	0	1028128768	57	4691
2026-01-30 02:19:28.63	227.99	10.76	-43.5	-45.2	23.6	6.04e-01	0	43	0	1031274496	57	4655
2026-01-30 02:19:29.27	227.94	10.70	-43.4	-45.1	23.6	6.05e-01	0	43	0	1032323072	57	4631
2026-01-30 02:19:30.71	227.83	10.57	-43.5	-45.2	23.5	6.04e-01	0	43	0	1034944512	57	4662
2026-01-30 02:19:31.43	227.78	10.50	-43.4	-45.1	23.6	6.03e-01	0	43	0	1036517376	57	4630
2026-01-30 02:19:32.72	227.69	10.39	-43.3	-44.9	23.8	6.04e-01	0	43	0	1038614528	57	4528
2026-01-30 02:19:33.45	227.63	10.32	-43.3	-44.9	23.8	6.04e-01	0	43	0	1040187392	57	4539
2026-01-30 02:19:34.74	227.54	10.21	-43.3	-44.9	23.8	6.03e-01	0	43	0	1042808832	57	4529
2026-01-30 02:19:35.46	227.49	10.14	-43.2	-44.9	23.8	6.04e-01	0	43	0	1043857408	57	4517
2026-01-30 02:19:36.74	227.40	10.03	-43.4	-45.1	23.6	6.05e-01	0	43	0	1046478848	57	4601
2026-01-30 02:19:37.59	227.34	9.96	-43.4	-45.1	23.6	6.04e-01	0	43	0	1048051712	57	4643
2026-01-30 02:19:38.73	227.26	9.86	-43.5	-45.2	23.5	6.05e-01	0	43	0	1050148864	57	4657
2026-01-30 02:19:39.79	227.18	9.76	-43.4	-45.1	23.6	6.02e-01	0	43	0	1052246016	57	4644
2026-01-30 02:19:40.83	227.11	9.67	-43.5	-45.2	23.5	6.05e-01	0	43	0	1053818880	57	4697
2026-01-30 02:19:41.83	227.04	9.59	-43.6	-45.4	23.3	6.05e-01	0	44	0	1055916032	57	4767
2026-01-30 02:19:42.84	226.98	9.50	-43.6	-45.3	23.4	6.05e-01	0	43	0	1058013184	57	4746
2026-01-30 02:19:43.84	226.91	9.41	-43.7	-45.4	23.3	6.04e-01	0	43	0	1059586048	58	4529
2026-01-30 02:19:44.84	226.84	9.33	-43.6	-45.3	23.4	6.02e-01	0	43	0	1061683200	58	4477
2026-01-30 02:19:45.85	226.77	9.24	-43.6	-45.3	23.4	6.07e-01	0	43	0	1063256064	58	4480
2026-01-30 02:19:47.17	226.69	9.13	-43.6	-45.4	23.3	6.06e-01	0	43	0	1065877504	58	4508
2026-01-30 02:19:47.90	226.64	9.07	-43.7	-45.5	23.2	6.04e-01	0	43	0	1067450368	58	4566
2026-01-30 02:19:49.19	226.55	8.96	-50.2	-67.7	3.9	7.42e-01	0	43	104	1069023232	71	27998
2026-01-30 02:19:49.91	226.51	8.90	-50.3	-68.5	3.8	7.47e-01	0	43	104	1069023232	71	30485
2026-01-30 02:19:51.20	226.42	8.79	-50.2	-69.5	3.8	7.46e-01	0	43	104	1069023232	71	34225
2026-01-30 02:19:51.92	226.38	8.73	-50.4	-69.7	3.8	7.47e-01	0	43	104	1069023232	71	35012
2026-01-30 02:19:53.21	226.30	8.62	-50.6	-69.8	3.8	7.46e-01	0	44	104	1069023232	71	35658
2026-01-30 02:19:53.93	226.25	8.56	-50.4	-69.8	3.8	7.47e-01	0	44	104	1069023232	72	33563
2026-01-30 02:19:55.22	226.17	8.45	-50.1	-69.9	3.8	7.44e-01	0	43	104	1069023232	71	35971
2026-01-30 02:19:55.93	226.13	8.39	-49.7	-69.8	3.8	7.48e-01	0	44	104	1069023232	71	35671
2026-01-30 02:19:57.22	226.05	8.29	-49.9	-69.9	3.8	7.45e-01	0	43	104	1069023232	71	36006
2026-01-30 02:19:57.94	226.00	8.23	-50.6	-69.9	3.8	7.44e-01	0	43	104	1069023232	71	35928
2026-01-30 02:19:59.23	225.92	8.12	-50.2	-70.0	3.8	7.45e-01	0	44	104	1069023232	71	36124
2026-01-30 02:19:59.95	225.88	8.06	-50.2	-69.8	3.8	7.45e-01	0	44	104	1069023232	71	35668
2026-01-30 02:20:01.24	225.80	7.96	-50.2	-69.5	3.8	7.48e-01	0	44	104	1069023232	71	34368
2026-01-30 02:20:01.96	225.76	7.90	-50.4	-69.6	3.8	7.46e-01	0	43	104	1069023232	71	34758
2026-01-30 02:20:03.25	225.68	7.80	-50.0	-68.5	3.8	7.47e-01	0	43	104	1069023232	71	30617
2026-01-30 02:20:03.96	225.64	7.74	-50.2	-68.1	3.9	7.43e-01	0	44	104	1069023232	71	29250
2026-01-30 02:20:05.26	225.56	7.63	-50.0	-69.8	3.8	7.46e-01	0	43	104	1069023232	71	35420
2026-01-30 02:20:05.97	225.52	7.58	-50.5	-69.9	3.8	7.47e-01	0	43	104	1069023232	71	35809
2026-01-30 02:20:07.26	225.45	7.47	-50.0	-69.8	3.8	7.45e-01	0	44	104	1069023232	71	35623
2026-01-30 02:20:07.98	225.40	7.42	-50.2	-69.9	3.8	7.47e-01	0	43	104	1069023232	71	36035
2026-01-30 02:20:09.27	225.33	7.31	-50.5	-69.9	3.8	7.48e-01	0	43	104	1069023232	71	35713
2026-01-30 02:20:09.99	225.29	7.26	-50.4	-69.9	3.8	7.44e-01	0	43	104	1069023232	71	35815
2026-01-30 02:20:11.28	225.22	7.16	-50.0	-69.8	3.8	7.46e-01	0	44	104	1069023232	71	35489
2026-01-30 02:20:12.00	225.17	7.10	-50.0	-69.8	3.8	7.49e-01	0	44	104	1069023232	71	35628
2026-01-30 02:20:13.29	225.10	7.00	-50.0	-69.8	3.8	7.46e-01	0	44	104	1069023232	71	35655
2026-01-30 02:20:14.01	225.06	6.94	-50.0	-69.8	3.8	7.45e-01	0	43	104	1069023232	71	35662
2026-01-30 02:20:15.30	224.99	6.84	-50.0	-69.9	3.8	7.45e-01	0	44	104	1069023232	71	35741
2026-01-30 02:20:16.02	224.95	6.79	-50.0	-69.9	3.8	7.46e-01	0	44	104	1069023232	71	35777
2026-01-30 02:20:17.31	224.88	6.69	-50.0	-69.8	3.8	7.46e-01	0	44	104	1069023232	71	35633
2026-01-30 02:20:18.03	224.84	6.63	-50.0	-69.8	3.8	7.44e-01	0	44	104	1069023232	71	35603
2026-01-30 02:20:19.32	224.77	6.53	-50.0	-69.8	3.8	7.48e-01	0	44	104	1069023232	71	35541
2026-01-30 02:20:20.03	224.73	6.48	-50.0	-69.9	3.8	7.44e-01	0	44	104	1069023232	71	35722
2026-01-30 02:20:21.33	224.66	6.38	-50.0	-69.9	3.8	7.45e-01	0	44	104	1069023232	71	35706
2026-01-30 02:20:22.04	224.63	6.32	-50.0	-69.8	3.8	7.46e-01	0	43	104	1069023232	71	35647
2026-01-30 02:20:23.33	224.56	6.22	-50.0	-69.8	3.8	7.48e-01	0	44	104	1069023232	71	35687
2026-01-30 02:20:24.05	224.52	6.17	-50.0	-69.8	3.8	7.46e-01	0	44	104	1069023232	71	35679
2026-01-30 02:20:25.34	224.45	6.07	-50.0	-69.8	3.8	7.46e-01	0	44	104	1069023232	71	35598
2026-01-30 02:20:26.06	224.42	6.02	-50.0	-69.9	3.8	7.46e-01	0	44	104	1069023232	71	35733
2026-01-30 02:20:27.35	224.35	5.92	-50.0	-69.8	3.8	7.47e-01	0	43	104	1069023232	71	35645
2026-01-30 02:20:28.07	224.31	5.87	-50.0	-69.8	3.8	7.48e-01	0	43	104	1069023232	71	35610
2026-01-30 02:20:29.36	224.25	5.77	-50.0	-69.8	3.8	7.47e-01	0	44	104	1069023232	71	35685
2026-01-30 02:20:30.08	224.21	5.72	-50.0	-69.8	3.8	7.46e-01	0	44	104	1069023232	71	35688
2026-01-30 02:20:31.37	224.15	5.62	-50.0	-69.8	3.8	7.46e-01	0	44	104	1069023232	71	35666
2026-01-30 02:20:32.08	224.11	5.57	-50.0	-69.9	3.8	7.47e-01	0	44	104	1069023232	71	35735
2026-01-30 02:20:33.38	224.05	5.47	-50.0	-69.8	3.8	7.47e-01	0	43	104	1069023232	71	35648
2026-01-30 02:20:34.09	224.01	5.42	-50.0	-69.8	3.8	7.46e-01	0	43	104	1069023232	71	35629
2026-01-30 02:20:35.38	223.95	5.33	-50.0	-69.8	3.8	7.46e-01	0	44	104	1069023232	71	35677
2026-01-30 02:20:36.10	223.91	5.27	-50.0	-69.8	3.8	7.47e-01	0	44	104	1069023232	71	35632
2026-01-30 02:20:37.39	223.85	5.18	-50.0	-69.9	3.8	7.45e-01	0	44	104	1069023232	71	35772
2026-01-30 02:20:38.11	223.81	5.13	-50.0	-69.8	3.8	7.49e-01	0	43	104	1069023232	71	35653
2026-01-30 02:20:39.40	223.75	5.03	-50.0	-69.8	3.8	7.44e-01	0	44	104	1069023232	71	35596
2026-01-30 02:20:40.12	223.72	4.98	-50.0	-69.8	3.8	7.47e-01	0	43	104	1069023232	71	35609

#Closed at: 2026-01-30 02:20:41
#Recorded file [1069 MB]: D:/Data/31040_260130_050946.dat