passes_logs/2026/01/30/T1/T1__20260130_080645_SUOMI_NPP_rec.log

#Pass ID: 20260130_080645_SUOMI NPP
#Satellite: SUOMI NPP
#Configuration: NPP
#almurnet v.1.7.20251203
#Start time: 2026-01-30 08:06:46

#Version: 2.0.20230620
#Station: T1
#Location: 37.570604 lon 55.790049 lat
#TLE: 1 37849U 11061A   26029.48304708  .00000140  00000+0  87283-4 0  9999
#TLE: 2 37849  98.7824 331.4079 0002024  38.4342 321.6978 14.19531488738761

#Time	Az	El	Level	Level2	SNR	BER	BlckErr	Temp	State	Recorded	gain1	gain2
2026-01-30 08:06:46.40	99.60	5.06	-49.6	-64.0	3.8	1.49e+00	0	37	0	0	70	19275
2026-01-30 08:06:47.40	99.50	5.11	-49.8	-64.0	3.8	1.49e+00	0	37	104	0	71	18255
2026-01-30 08:06:48.40	99.41	5.17	-49.9	-64.1	3.8	1.49e+00	0	37	104	0	71	18389
2026-01-30 08:06:49.40	99.32	5.23	-49.9	-64.1	3.8	1.49e+00	0	37	104	0	71	18344
2026-01-30 08:06:50.41	99.22	5.28	-49.9	-64.1	3.8	1.49e+00	0	37	104	0	71	18359
2026-01-30 08:06:51.41	99.12	5.34	-49.8	-64.1	3.8	1.49e+00	0	37	104	0	71	18336
2026-01-30 08:06:52.41	99.03	5.40	-49.9	-64.1	3.8	1.49e+00	0	37	104	0	71	18492
2026-01-30 08:06:53.42	98.93	5.45	-49.8	-64.2	3.8	1.49e+00	0	37	104	0	71	18520
2026-01-30 08:06:54.42	98.84	5.51	-49.9	-64.2	3.8	1.49e+00	0	37	104	0	71	18552
2026-01-30 08:06:55.42	98.74	5.57	-49.9	-64.2	3.8	1.49e+00	0	37	104	0	71	18585
2026-01-30 08:06:56.42	98.64	5.63	-49.8	-64.2	3.8	1.49e+00	0	37	104	0	71	18572
2026-01-30 08:06:57.43	98.54	5.68	-49.8	-64.2	3.8	1.49e+00	0	37	104	0	71	18545
2026-01-30 08:06:58.43	98.45	5.74	-49.8	-64.2	3.8	1.49e+00	0	37	104	0	71	18524
2026-01-30 08:06:59.43	98.35	5.80	-49.9	-64.1	3.8	1.49e+00	0	37	104	0	71	18516
2026-01-30 08:07:00.44	98.25	5.86	-49.9	-64.1	3.8	1.49e+00	0	38	104	0	71	18371
2026-01-30 08:07:01.44	98.15	5.91	-49.9	-64.0	3.8	1.49e+00	0	37	104	0	71	18302
2026-01-30 08:07:02.44	98.05	5.97	-49.7	-63.9	3.8	1.49e+00	0	38	104	0	71	18014
2026-01-30 08:07:03.44	97.95	6.03	-49.6	-63.8	3.8	1.49e+00	0	38	104	0	71	17771
2026-01-30 08:07:04.45	97.85	6.09	-49.6	-63.8	3.8	1.49e+00	0	37	104	0	71	17808
2026-01-30 08:07:05.45	97.75	6.14	-49.6	-63.8	3.8	1.49e+00	0	38	104	0	71	17836
2026-01-30 08:07:06.45	97.65	6.20	-49.7	-63.9	3.8	1.49e+00	0	38	104	0	71	17901
2026-01-30 08:07:07.45	97.54	6.26	-49.7	-63.9	3.8	1.49e+00	0	38	104	0	71	17954
2026-01-30 08:07:08.45	97.44	6.32	-49.7	-63.9	3.8	1.49e+00	0	38	104	0	71	17996
2026-01-30 08:07:09.46	97.34	6.37	-49.7	-63.9	3.8	1.49e+00	0	38	104	0	71	17910
2026-01-30 08:07:10.46	97.24	6.43	-49.8	-63.8	3.8	1.49e+00	0	38	104	0	71	17862
2026-01-30 08:07:11.46	97.13	6.49	-49.8	-63.9	3.8	1.49e+00	0	38	104	0	71	17907
2026-01-30 08:07:12.46	97.03	6.55	-49.8	-63.8	3.8	1.49e+00	0	38	104	0	71	17825
2026-01-30 08:07:13.46	96.92	6.61	-49.8	-63.8	3.8	1.49e+00	0	38	104	0	71	17778
2026-01-30 08:07:14.46	96.82	6.66	-49.8	-63.8	3.8	1.49e+00	0	38	104	0	71	17761
2026-01-30 08:07:15.47	96.71	6.72	-49.8	-63.7	3.8	1.49e+00	0	38	104	0	71	17609
2026-01-30 08:07:16.47	96.61	6.78	-49.7	-63.7	3.8	1.49e+00	0	38	104	0	71	17566
2026-01-30 08:07:17.47	96.50	6.84	-49.7	-63.7	3.8	1.49e+00	0	38	104	0	71	17506
2026-01-30 08:07:18.47	96.40	6.90	-49.6	-63.6	3.8	1.49e+00	0	38	104	0	71	17414
2026-01-30 08:07:19.48	96.29	6.96	-49.4	-63.5	3.8	1.49e+00	0	38	104	0	70	18162
2026-01-30 08:07:20.48	96.18	7.01	-49.2	-63.2	3.8	1.49e+00	0	38	104	0	70	17582
2026-01-30 08:07:21.48	96.07	7.07	-49.1	-63.1	3.8	1.49e+00	0	38	104	0	70	17293
2026-01-30 08:07:22.48	95.97	7.13	-48.9	-62.8	3.8	1.49e+00	0	38	104	0	69	17724
2026-01-30 08:07:23.48	95.86	7.19	-48.8	-62.5	3.8	1.49e+00	0	38	104	0	69	17250
2026-01-30 08:07:24.48	95.75	7.25	-48.7	-62.2	3.8	1.49e+00	0	38	104	0	69	16576
2026-01-30 08:07:25.48	95.64	7.30	-48.7	-62.1	3.8	1.49e+00	0	38	104	0	69	16327
2026-01-30 08:07:26.48	95.53	7.36	-48.7	-61.8	3.8	1.49e+00	0	38	104	0	69	15888
2026-01-30 08:07:27.49	95.42	7.42	-48.7	-61.7	3.8	1.49e+00	0	38	104	0	69	15758
2026-01-30 08:07:28.49	95.31	7.48	-48.7	-61.8	3.8	1.49e+00	0	38	104	0	69	15884
2026-01-30 08:07:29.49	95.20	7.54	-48.7	-61.9	3.8	1.49e+00	0	38	104	0	69	15952
2026-01-30 08:07:30.49	95.08	7.60	-48.7	-62.0	3.8	1.49e+00	0	38	104	0	69	16145
2026-01-30 08:07:31.49	94.97	7.66	-48.7	-62.0	3.8	1.49e+00	0	38	104	0	69	16201
2026-01-30 08:07:32.50	94.86	7.72	-48.7	-61.9	3.8	1.49e+00	0	38	104	0	69	16125
2026-01-30 08:07:33.50	94.75	7.77	-48.7	-61.8	3.8	1.49e+00	0	38	104	0	69	15782
2026-01-30 08:07:34.50	94.63	7.83	-48.7	-61.4	3.8	1.49e+00	0	39	104	0	69	15152
2026-01-30 08:07:35.50	94.52	7.89	-48.6	-60.9	3.9	1.49e+00	0	38	104	0	69	14338
2026-01-30 08:07:36.50	94.40	7.95	-48.6	-60.4	3.9	1.49e+00	0	38	104	0	69	13558
2026-01-30 08:07:37.50	94.29	8.01	-48.6	-60.3	3.9	1.47e+00	0	38	104	0	69	13363
2026-01-30 08:07:38.50	94.17	8.07	-48.7	-61.0	3.8	1.48e+00	0	38	104	0	69	14400
2026-01-30 08:07:39.51	94.06	8.13	-48.7	-62.1	3.8	1.49e+00	0	39	104	0	69	16449
2026-01-30 08:07:40.51	93.94	8.19	-48.8	-62.9	3.8	1.49e+00	0	39	104	0	69	18074
2026-01-30 08:07:41.51	93.82	8.24	-48.8	-61.4	3.8	1.49e+00	0	38	104	0	69	15162
2026-01-30 08:07:42.52	93.71	8.30	-48.5	-57.9	4.8	1.31e+00	0	38	0	0	69	10083
2026-01-30 08:07:43.52	93.59	8.36	-47.8	-54.3	7.5	3.49e-01	0	39	0	2097152	67	7529
2026-01-30 08:07:44.52	93.47	8.42	-46.9	-51.4	10.3	3.80e-02	0	39	0	3145728	65	6044
2026-01-30 08:07:45.52	93.35	8.48	-46.0	-49.3	12.6	3.04e-04	0	39	0	5242880	63	5313
2026-01-30 08:07:46.53	93.23	8.54	-45.5	-48.4	13.7	1.14e-05	0	38	0	7340032	63	4769
2026-01-30 08:07:47.53	93.11	8.60	-45.3	-48.1	14.0	8.30e-06	0	39	0	9437184	62	4898
2026-01-30 08:07:48.53	92.99	8.66	-45.4	-48.4	13.7	5.30e-06	0	38	0	11534336	62	5053
2026-01-30 08:07:49.53	92.87	8.72	-45.6	-48.7	13.4	1.37e-05	0	39	0	12582912	62	5225
2026-01-30 08:07:50.53	92.75	8.78	-45.8	-49.0	13.0	1.52e-05	0	39	0	14680064	62	5419
2026-01-30 08:07:51.54	92.63	8.84	-46.1	-49.5	12.5	5.11e-05	0	39	0	16777216	62	5763
2026-01-30 08:07:52.54	92.50	8.89	-46.6	-50.9	10.8	1.15e-03	0	39	0	18874368	64	6049
2026-01-30 08:07:53.54	92.38	8.95	-47.4	-53.2	8.4	1.82e-02	0	38	0	20971520	65	7388
2026-01-30 08:07:54.55	92.26	9.01	-48.2	-56.1	6.0	1.34e-01	0	39	0	22020096	66	9719
2026-01-30 08:07:55.55	92.13	9.07	-47.8	-53.7	8.1	5.79e-01	0	39	0	24117248	67	7017
2026-01-30 08:07:56.55	92.01	9.13	-46.7	-50.6	11.5	3.67e-02	0	39	0	26214400	65	5475
2026-01-30 08:07:57.55	91.88	9.19	-49.0	-58.3	5.1	1.30e-03	0	39	0	28311552	68	11179
2026-01-30 08:07:58.56	91.76	9.25	-48.5	-55.6	6.2	1.31e+00	0	39	104	28311552	69	7733
2026-01-30 08:07:59.55	91.63	9.31	-47.3	-51.7	10.7	1.02e-03	0	39	0	29360128	65	6258
2026-01-30 08:08:00.56	91.51	9.37	-47.8	-53.0	9.0	4.74e-01	0	39	0	31457280	67	6447
2026-01-30 08:08:01.56	91.38	9.43	-47.0	-51.2	11.2	2.43e-03	0	39	0	33554432	66	5537
2026-01-30 08:08:02.56	91.25	9.49	-46.7	-50.4	11.9	8.12e-04	0	39	0	35651584	65	5363
2026-01-30 08:08:03.56	91.12	9.55	-46.2	-49.4	13.0	1.15e-04	0	39	0	36700160	64	5060
2026-01-30 08:08:04.56	91.00	9.60	-45.9	-48.9	13.6	2.13e-05	0	39	0	38797312	63	5042
2026-01-30 08:08:05.56	90.87	9.66	-45.9	-48.8	13.7	5.30e-06	0	39	0	40894464	63	5014
2026-01-30 08:08:06.56	90.74	9.72	-45.5	-48.1	14.4	1.50e-06	0	39	0	42991616	63	4633
2026-01-30 08:08:07.56	90.61	9.78	-45.5	-48.0	14.5	0.00e+00	0	39	0	44040192	62	4861
2026-01-30 08:08:08.56	90.48	9.84	-45.5	-48.2	14.3	0.00e+00	0	39	0	46137344	62	4971
2026-01-30 08:08:09.57	90.34	9.90	-45.3	-47.8	14.7	0.00e+00	0	39	0	48234496	62	4742
2026-01-30 08:08:10.56	90.21	9.96	-44.8	-47.1	15.4	0.00e+00	0	39	0	50331648	61	4633
2026-01-30 08:08:11.57	90.08	10.02	-44.8	-47.1	15.3	0.00e+00	0	39	0	52428800	61	4643
2026-01-30 08:08:12.57	89.95	10.08	-44.8	-47.0	15.4	0.00e+00	0	39	0	53477376	61	4583
2026-01-30 08:08:13.57	89.82	10.14	-44.7	-47.0	15.5	0.00e+00	0	39	0	55574528	61	4559
2026-01-30 08:08:14.57	89.68	10.20	-45.0	-47.4	15.0	0.00e+00	0	39	0	57671680	61	4786
2026-01-30 08:08:15.57	89.55	10.26	-44.9	-47.5	14.8	7.00e-07	0	39	0	59768832	61	4833
2026-01-30 08:08:16.57	89.41	10.32	-44.4	-46.9	15.1	0.00e+00	0	39	0	61865984	60	4773
2026-01-30 08:08:17.57	89.28	10.37	-44.0	-46.2	15.6	0.00e+00	0	39	0	62914560	59	4665
2026-01-30 08:08:18.58	89.14	10.43	-43.6	-45.6	16.2	0.00e+00	0	39	0	65011712	59	4347
2026-01-30 08:08:19.58	89.00	10.49	-43.4	-45.3	16.5	0.00e+00	0	39	0	67108864	58	4470
2026-01-30 08:08:20.58	88.87	10.55	-43.6	-45.6	16.2	0.00e+00	0	39	0	69206016	58	4612
2026-01-30 08:08:21.58	88.73	10.61	-44.0	-46.2	15.6	0.00e+00	0	39	0	71303168	58	4976
2026-01-30 08:08:22.58	88.59	10.67	-44.4	-46.8	15.0	0.00e+00	0	39	0	72351744	59	5031
2026-01-30 08:08:23.58	88.45	10.73	-44.3	-46.6	15.3	0.00e+00	0	39	0	74448896	59	4920
2026-01-30 08:08:24.58	88.31	10.79	-43.8	-45.9	16.0	0.00e+00	0	39	0	76546048	59	4498
2026-01-30 08:08:25.59	88.17	10.85	-43.6	-45.5	16.3	0.00e+00	0	39	0	78643200	59	4306
2026-01-30 08:08:26.59	88.03	10.91	-43.5	-45.4	16.4	0.00e+00	0	39	0	79691776	59	4258
2026-01-30 08:08:27.59	87.89	10.97	-44.0	-46.1	15.7	0.00e+00	0	39	0	81788928	59	4605
2026-01-30 08:08:28.59	87.75	11.02	-44.4	-46.7	15.1	0.00e+00	0	39	0	83886080	59	4968
2026-01-30 08:08:29.59	87.61	11.08	-44.5	-46.9	15.0	7.00e-07	0	39	0	85983232	59	5043
2026-01-30 08:08:30.60	87.46	11.14	-44.3	-46.6	15.2	0.00e+00	0	39	0	88080384	59	4910
2026-01-30 08:08:31.60	87.32	11.20	-44.1	-46.4	15.5	0.00e+00	0	39	0	89128960	59	4764
2026-01-30 08:08:32.60	87.17	11.26	-43.8	-45.9	16.0	0.00e+00	0	39	0	91226112	59	4505
2026-01-30 08:08:33.60	87.03	11.32	-43.8	-45.9	16.0	0.00e+00	0	39	0	93323264	59	4497
2026-01-30 08:08:34.61	86.88	11.38	-44.1	-46.3	15.6	0.00e+00	0	39	0	95420416	59	4731
2026-01-30 08:08:35.60	86.74	11.44	-44.3	-46.6	15.3	0.00e+00	0	39	0	97517568	59	4918
2026-01-30 08:08:36.61	86.59	11.50	-44.4	-46.9	15.0	0.00e+00	0	39	0	98566144	59	5048
2026-01-30 08:08:37.61	86.44	11.55	-44.5	-46.9	15.0	0.00e+00	0	39	0	100663296	59	5083
2026-01-30 08:08:38.61	86.30	11.61	-44.4	-46.8	15.1	0.00e+00	0	39	0	102760448	59	4993
2026-01-30 08:08:39.61	86.15	11.67	-44.5	-47.0	14.9	0.00e+00	0	39	0	104857600	59	5122
2026-01-30 08:08:40.61	86.00	11.73	-44.4	-46.9	15.0	0.00e+00	0	39	0	106954752	59	5045
2026-01-30 08:08:41.61	85.85	11.79	-44.5	-46.9	15.0	0.00e+00	0	39	0	108003328	59	5071
2026-01-30 08:08:42.61	85.70	11.85	-44.5	-46.9	15.0	0.00e+00	0	39	0	110100480	59	5055
2026-01-30 08:08:43.61	85.55	11.90	-44.5	-47.0	14.9	0.00e+00	0	39	0	112197632	59	5136
2026-01-30 08:08:44.61	85.40	11.96	-44.6	-47.1	14.8	0.00e+00	0	39	0	114294784	59	5198
2026-01-30 08:08:45.61	85.25	12.02	-44.2	-46.5	15.4	0.00e+00	0	39	0	116391936	59	4865
2026-01-30 08:08:46.61	85.09	12.08	-44.1	-46.4	15.6	0.00e+00	0	39	0	117440512	59	4770
2026-01-30 08:08:47.61	84.94	12.14	-44.0	-46.3	15.7	0.00e+00	0	39	0	119537664	59	4709
2026-01-30 08:08:48.61	84.79	12.19	-44.2	-46.6	15.3	0.00e+00	0	39	0	121634816	59	4889
2026-01-30 08:08:49.61	84.63	12.25	-44.4	-47.0	15.0	0.00e+00	0	39	0	123731968	59	5105
2026-01-30 08:08:50.61	84.48	12.31	-44.0	-46.4	15.4	0.00e+00	0	39	0	124780544	59	4791
2026-01-30 08:08:51.61	84.32	12.37	-44.0	-46.3	15.6	0.00e+00	0	39	0	126877696	59	4730
2026-01-30 08:08:52.61	84.17	12.43	-43.6	-45.7	16.2	0.00e+00	0	39	0	128974848	59	4406
2026-01-30 08:08:53.61	84.01	12.48	-43.4	-45.4	16.5	0.00e+00	0	39	0	131072000	58	4501
2026-01-30 08:08:54.61	83.85	12.54	-43.9	-46.1	15.8	0.00e+00	0	39	0	133169152	58	4876
2026-01-30 08:08:55.61	83.70	12.60	-44.0	-46.2	15.7	0.00e+00	0	39	0	134217728	58	4976
2026-01-30 08:08:56.61	83.54	12.66	-44.0	-46.3	15.6	0.00e+00	0	39	0	136314880	59	4744
2026-01-30 08:08:57.61	83.38	12.71	-43.9	-46.0	15.9	0.00e+00	0	39	0	138412032	59	4598
2026-01-30 08:08:58.62	83.22	12.77	-43.7	-45.7	16.2	0.00e+00	0	39	0	140509184	59	4425
2026-01-30 08:08:59.62	83.06	12.83	-43.6	-45.5	16.5	0.00e+00	0	39	0	142606336	59	4317
2026-01-30 08:09:00.62	82.90	12.88	-43.4	-45.3	16.6	0.00e+00	0	39	0	143654912	58	4488
2026-01-30 08:09:01.62	82.73	12.94	-43.6	-45.6	16.4	0.00e+00	0	39	0	145752064	58	4612
2026-01-30 08:09:02.62	82.57	13.00	-43.4	-45.3	16.7	0.00e+00	0	39	0	147849216	58	4457
2026-01-30 08:09:03.62	82.41	13.06	-43.1	-45.0	16.9	0.00e+00	0	39	0	149946368	58	4309
2026-01-30 08:09:04.63	82.24	13.11	-42.9	-44.6	17.2	0.00e+00	0	39	0	150994944	57	4388
2026-01-30 08:09:05.63	82.08	13.17	-42.8	-44.5	17.3	0.00e+00	0	39	0	153092096	57	4337
2026-01-30 08:09:06.63	81.92	13.23	-42.8	-44.6	17.3	0.00e+00	0	39	0	155189248	57	4357
2026-01-30 08:09:07.63	81.75	13.28	-42.7	-44.5	17.4	0.00e+00	0	39	0	157286400	57	4306
2026-01-30 08:09:08.63	81.58	13.34	-42.7	-44.4	17.5	0.00e+00	0	39	0	159383552	57	4258
2026-01-30 08:09:09.63	81.42	13.39	-42.6	-44.2	17.6	0.00e+00	0	39	0	160432128	57	4192
2026-01-30 08:09:10.63	81.25	13.45	-42.4	-44.0	17.8	0.00e+00	0	39	0	162529280	56	4317
2026-01-30 08:09:11.63	81.08	13.51	-42.4	-44.0	17.8	0.00e+00	0	39	0	164626432	56	4337
2026-01-30 08:09:12.64	80.91	13.56	-42.5	-44.1	17.8	0.00e+00	0	39	0	166723584	56	4370
2026-01-30 08:09:13.64	80.74	13.62	-42.6	-44.2	17.7	0.00e+00	0	39	0	168820736	56	4400
2026-01-30 08:09:14.63	80.57	13.67	-42.6	-44.2	17.7	0.00e+00	0	39	0	169869312	56	4422
2026-01-30 08:09:15.63	80.40	13.73	-42.4	-44.0	17.9	0.00e+00	0	39	0	171966464	56	4316
2026-01-30 08:09:16.64	80.23	13.78	-42.4	-43.9	17.9	0.00e+00	0	39	0	174063616	56	4271
2026-01-30 08:09:17.63	80.06	13.84	-42.3	-43.9	18.0	0.00e+00	0	39	0	176160768	56	4253
2026-01-30 08:09:18.63	79.89	13.89	-42.4	-43.9	17.9	0.00e+00	0	39	0	178257920	56	4287
2026-01-30 08:09:19.63	79.71	13.95	-42.4	-44.0	18.0	0.00e+00	0	39	0	179306496	56	4298
2026-01-30 08:09:20.63	79.54	14.00	-42.2	-43.7	18.1	0.00e+00	0	39	0	181403648	56	4183
2026-01-30 08:09:21.63	79.37	14.06	-42.2	-43.7	18.2	0.00e+00	0	39	0	183500800	56	4162
2026-01-30 08:09:22.63	79.19	14.11	-42.2	-43.7	18.2	0.00e+00	0	39	0	185597952	56	4158
2026-01-30 08:09:23.63	79.02	14.17	-42.4	-43.9	18.0	0.00e+00	0	39	0	186646528	56	4251
2026-01-30 08:09:24.63	78.84	14.22	-42.4	-43.9	18.0	0.00e+00	0	39	0	188743680	56	4277
2026-01-30 08:09:25.63	78.66	14.28	-42.4	-44.0	17.9	0.00e+00	0	39	0	190840832	56	4326
2026-01-30 08:09:26.63	78.48	14.33	-42.5	-44.1	17.8	0.00e+00	0	39	0	192937984	56	4349
2026-01-30 08:09:27.63	78.31	14.38	-42.5	-44.1	17.8	0.00e+00	0	39	0	195035136	56	4346
2026-01-30 08:09:28.63	78.13	14.44	-42.6	-44.2	17.7	0.00e+00	0	39	0	196083712	56	4394
2026-01-30 08:09:29.63	77.95	14.49	-42.7	-44.3	17.6	0.00e+00	0	39	0	198180864	56	4470
2026-01-30 08:09:30.64	77.77	14.54	-43.0	-44.7	17.3	0.00e+00	0	39	0	200278016	56	4669
2026-01-30 08:09:31.64	77.59	14.60	-43.2	-45.0	17.0	0.00e+00	0	39	0	202375168	56	4823
2026-01-30 08:09:32.64	77.40	14.65	-43.2	-45.0	17.0	0.00e+00	0	39	0	204472320	57	4552
2026-01-30 08:09:33.64	77.22	14.70	-43.0	-44.7	17.2	0.00e+00	0	39	0	205520896	57	4416
2026-01-30 08:09:34.63	77.04	14.76	-42.7	-44.4	17.6	0.00e+00	0	39	0	207618048	57	4246
2026-01-30 08:09:35.64	76.85	14.81	-42.8	-44.5	17.4	0.00e+00	0	40	0	209715200	57	4309
2026-01-30 08:09:36.64	76.67	14.86	-42.6	-44.3	17.7	0.00e+00	0	39	0	211812352	57	4199
2026-01-30 08:09:37.64	76.49	14.91	-42.5	-44.1	17.8	0.00e+00	0	39	0	213909504	57	4122
2026-01-30 08:09:38.64	76.30	14.96	-42.1	-43.6	18.3	0.00e+00	0	39	0	214958080	56	4113
2026-01-30 08:09:39.64	76.11	15.02	-41.8	-43.2	18.6	0.00e+00	0	39	0	217055232	55	4160
2026-01-30 08:09:40.64	75.93	15.07	-41.6	-43.0	18.7	0.00e+00	0	39	0	219152384	55	4073
2026-01-30 08:09:41.64	75.74	15.12	-41.6	-43.0	18.8	0.00e+00	0	39	0	221249536	55	4065
2026-01-30 08:09:42.64	75.55	15.17	-41.6	-43.0	18.7	0.00e+00	0	39	0	222298112	55	4065
2026-01-30 08:09:43.65	75.36	15.22	-41.7	-43.0	18.7	0.00e+00	0	39	0	224395264	55	4091
2026-01-30 08:09:44.65	75.17	15.27	-41.9	-43.3	18.5	0.00e+00	0	39	0	226492416	55	4216
2026-01-30 08:09:45.65	74.98	15.32	-41.7	-43.0	18.7	0.00e+00	0	39	0	228589568	55	4094
2026-01-30 08:09:46.65	74.79	15.37	-41.6	-43.0	18.8	0.00e+00	0	39	0	230686720	54	4294
2026-01-30 08:09:47.65	74.60	15.42	-41.8	-43.3	18.5	0.00e+00	0	39	0	231735296	54	4451
2026-01-30 08:09:48.65	74.41	15.47	-42.0	-43.4	18.3	0.00e+00	0	39	0	233832448	54	4543
2026-01-30 08:09:49.64	74.22	15.52	-42.0	-43.5	15.9	0.00e+00	0	39	0	235929600	54	4562
2026-01-30 08:09:50.64	74.02	15.57	-42.0	-43.5	18.3	0.00e+00	0	39	0	238026752	54	4572
2026-01-30 08:09:51.64	73.83	15.62	-42.1	-43.6	18.2	0.00e+00	0	39	0	240123904	55	4377
2026-01-30 08:09:52.64	73.64	15.67	-42.1	-43.6	18.2	0.00e+00	0	39	0	241172480	55	4371
2026-01-30 08:09:53.64	73.44	15.72	-42.2	-43.7	18.1	0.00e+00	0	39	0	243269632	55	4425
2026-01-30 08:09:54.64	73.24	15.76	-42.1	-43.6	18.2	0.00e+00	0	39	0	245366784	55	4341
2026-01-30 08:09:55.64	73.05	15.81	-41.8	-43.2	18.5	0.00e+00	0	39	0	247463936	55	4161
2026-01-30 08:09:56.64	72.85	15.86	-41.4	-42.8	18.9	0.00e+00	0	39	0	248512512	54	4221
2026-01-30 08:09:57.64	72.65	15.91	-41.4	-42.9	18.6	0.00e+00	0	39	0	250609664	54	4256
2026-01-30 08:09:58.64	72.46	15.96	-41.3	-42.7	18.8	0.00e+00	0	39	0	252706816	54	4193
2026-01-30 08:09:59.64	72.26	16.00	-41.4	-42.9	18.7	0.00e+00	0	39	0	254803968	54	4272
2026-01-30 08:10:00.64	72.06	16.05	-41.5	-43.0	18.5	0.00e+00	0	39	0	256901120	54	4312
2026-01-30 08:10:01.64	71.86	16.10	-41.6	-43.1	18.5	0.00e+00	0	39	0	257949696	54	4382
2026-01-30 08:10:02.64	71.66	16.14	-41.5	-43.1	18.5	0.00e+00	0	39	0	260046848	54	4352
2026-01-30 08:10:03.64	71.45	16.19	-41.7	-43.3	18.3	0.00e+00	0	39	0	262144000	54	4479
2026-01-30 08:10:04.64	71.25	16.23	-41.6	-43.2	18.4	0.00e+00	0	39	0	264241152	54	4427
2026-01-30 08:10:05.64	71.05	16.28	-41.4	-42.9	18.7	0.00e+00	0	39	0	266338304	54	4275
2026-01-30 08:10:06.65	70.84	16.33	-41.5	-43.0	18.6	0.00e+00	0	39	0	267386880	54	4311
2026-01-30 08:10:07.65	70.64	16.37	-41.6	-43.1	18.5	0.00e+00	0	39	0	269484032	54	4370
2026-01-30 08:10:08.65	70.44	16.42	-41.6	-43.2	18.5	0.00e+00	0	39	0	271581184	54	4395
2026-01-30 08:10:09.66	70.23	16.46	-41.7	-43.2	18.4	0.00e+00	0	39	0	273678336	54	4413
2026-01-30 08:10:10.66	70.02	16.50	-41.6	-43.1	18.5	0.00e+00	0	39	0	275775488	54	4380
2026-01-30 08:10:11.66	69.82	16.55	-41.6	-43.1	18.5	0.00e+00	0	39	0	276824064	54	4383
2026-01-30 08:10:12.66	69.61	16.59	-41.8	-43.4	18.2	0.00e+00	0	39	0	278921216	54	4498
2026-01-30 08:10:13.66	69.40	16.63	-42.0	-43.7	18.0	0.00e+00	0	39	0	281018368	54	4669
2026-01-30 08:10:14.66	69.19	16.68	-42.2	-43.9	17.8	0.00e+00	0	39	0	283115520	54	4768
2026-01-30 08:10:15.66	68.99	16.72	-42.1	-43.8	17.8	0.00e+00	0	39	0	285212672	55	4464
2026-01-30 08:10:16.66	68.78	16.76	-42.2	-43.9	17.8	0.00e+00	0	39	0	286261248	55	4510
2026-01-30 08:10:17.66	68.57	16.80	-41.9	-43.5	18.1	0.00e+00	0	39	0	288358400	55	4324
2026-01-30 08:10:18.66	68.36	16.85	-41.8	-43.3	18.3	0.00e+00	0	39	0	290455552	55	4220
2026-01-30 08:10:19.66	68.14	16.89	-41.7	-43.3	18.3	0.00e+00	0	39	0	292552704	55	4211
2026-01-30 08:10:20.65	67.93	16.93	-41.6	-43.1	18.5	0.00e+00	0	39	0	293601280	55	4114
2026-01-30 08:10:21.65	67.72	16.97	-41.3	-42.7	18.9	0.00e+00	0	39	0	295698432	54	4169
2026-01-30 08:10:22.66	67.51	17.01	-41.3	-42.7	18.9	0.00e+00	0	39	0	297795584	54	4160
2026-01-30 08:10:23.65	67.30	17.05	-41.3	-42.7	18.9	0.00e+00	0	39	0	299892736	54	4181
2026-01-30 08:10:24.66	67.08	17.09	-41.1	-42.5	19.1	0.00e+00	0	39	0	301989888	54	4077
2026-01-30 08:10:25.66	66.87	17.13	-40.8	-42.1	19.4	0.00e+00	0	39	0	303038464	53	4125
2026-01-30 08:10:26.66	66.65	17.17	-40.8	-42.2	19.4	0.00e+00	0	39	0	305135616	53	4158
2026-01-30 08:10:27.66	66.43	17.21	-40.7	-42.0	19.6	0.00e+00	0	39	0	307232768	53	4067
2026-01-30 08:10:28.66	66.22	17.24	-40.7	-42.0	19.5	0.00e+00	0	39	0	309329920	53	4092
2026-01-30 08:10:29.66	66.00	17.28	-41.0	-42.3	19.4	0.00e+00	0	39	0	311427072	53	4215
2026-01-30 08:10:30.66	65.78	17.32	-41.0	-42.3	19.3	0.00e+00	0	39	0	312475648	53	4227
2026-01-30 08:10:31.66	65.57	17.36	-41.0	-42.4	19.2	0.00e+00	0	40	0	314572800	53	4250
2026-01-30 08:10:32.66	65.35	17.39	-41.0	-42.3	19.3	0.00e+00	0	39	0	316669952	53	4219
2026-01-30 08:10:33.66	65.13	17.43	-41.0	-42.4	19.2	0.00e+00	0	39	0	318767104	53	4249
2026-01-30 08:10:34.66	64.91	17.46	-41.0	-42.4	19.2	0.00e+00	0	39	0	320864256	53	4270
2026-01-30 08:10:35.66	64.69	17.50	-41.3	-42.7	19.0	0.00e+00	0	40	0	321912832	53	4405
2026-01-30 08:10:36.66	64.47	17.54	-41.3	-42.8	18.9	0.00e+00	0	39	0	324009984	53	4449
2026-01-30 08:10:37.66	64.25	17.57	-41.5	-42.9	18.7	0.00e+00	0	39	0	326107136	53	4540
2026-01-30 08:10:38.65	64.03	17.60	-41.5	-43.0	18.7	0.00e+00	0	39	0	328204288	53	4553
2026-01-30 08:10:39.66	63.81	17.64	-41.5	-43.0	18.7	0.00e+00	0	40	0	329252864	53	4572
2026-01-30 08:10:40.66	63.58	17.67	-41.7	-43.3	18.5	0.00e+00	0	39	0	331350016	54	4442
2026-01-30 08:10:41.66	63.36	17.71	-41.7	-43.2	18.5	0.00e+00	0	39	0	333447168	54	4409
2026-01-30 08:10:42.67	63.13	17.74	-41.6	-43.1	18.6	0.00e+00	0	39	0	335544320	54	4364
2026-01-30 08:10:43.67	62.91	17.77	-41.7	-43.2	18.5	0.00e+00	0	39	0	337641472	54	4410
2026-01-30 08:10:44.67	62.69	17.80	-41.6	-43.0	18.7	0.00e+00	0	39	0	338690048	54	4332
2026-01-30 08:10:45.67	62.46	17.84	-41.8	-43.3	18.4	0.00e+00	0	39	0	340787200	54	4457
2026-01-30 08:10:46.68	62.23	17.87	-41.7	-43.2	18.5	0.00e+00	0	39	0	342884352	54	4434
2026-01-30 08:10:47.68	62.01	17.90	-41.9	-43.5	18.2	0.00e+00	0	39	0	344981504	54	4572
2026-01-30 08:10:48.68	61.78	17.93	-41.9	-43.4	18.3	0.00e+00	0	39	0	347078656	54	4536
2026-01-30 08:10:49.68	61.55	17.96	-42.0	-43.6	18.1	0.00e+00	0	39	0	348127232	54	4617
2026-01-30 08:10:50.68	61.33	17.99	-42.0	-43.6	18.1	0.00e+00	0	39	0	350224384	54	4620
2026-01-30 08:10:51.68	61.10	18.02	-42.1	-43.8	17.9	0.00e+00	0	39	0	352321536	54	4717
2026-01-30 08:10:52.67	60.87	18.04	-42.2	-43.9	17.8	0.00e+00	0	39	0	354418688	55	4504
2026-01-30 08:10:53.67	60.65	18.07	-42.2	-43.9	17.8	0.00e+00	0	39	0	355467264	55	4534
2026-01-30 08:10:54.67	60.42	18.10	-42.2	-43.9	17.8	0.00e+00	0	39	0	357564416	55	4531
2026-01-30 08:10:55.67	60.19	18.13	-42.1	-43.8	18.0	0.00e+00	0	39	0	359661568	55	4448
2026-01-30 08:10:56.67	59.96	18.16	-41.8	-43.3	18.4	0.00e+00	0	39	0	361758720	55	4221
2026-01-30 08:10:57.67	59.73	18.18	-41.8	-43.3	18.4	0.00e+00	0	39	0	363855872	55	4194
2026-01-30 08:10:58.67	59.50	18.21	-41.6	-43.1	18.6	0.00e+00	0	39	0	364904448	55	4128
2026-01-30 08:10:59.67	59.27	18.23	-41.7	-43.2	18.4	0.00e+00	0	39	0	367001600	55	4190
2026-01-30 08:11:00.67	59.04	18.26	-41.9	-43.5	18.2	0.00e+00	0	39	0	369098752	55	4296
2026-01-30 08:11:01.67	58.80	18.28	-42.0	-43.5	18.2	0.00e+00	0	39	0	371195904	55	4335
2026-01-30 08:11:02.66	58.57	18.31	-42.0	-43.6	18.1	0.00e+00	0	39	0	373293056	55	4356
2026-01-30 08:11:03.66	58.34	18.33	-41.7	-43.3	18.4	0.00e+00	0	39	0	374341632	55	4208
2026-01-30 08:11:04.66	58.11	18.35	-41.8	-43.4	18.3	0.00e+00	0	39	0	376438784	55	4264
2026-01-30 08:11:05.66	57.88	18.38	-41.9	-43.4	18.2	0.00e+00	0	40	0	378535936	55	4283
2026-01-30 08:11:06.66	57.64	18.40	-41.9	-43.5	18.2	0.00e+00	0	39	0	380633088	55	4305
2026-01-30 08:11:07.67	57.41	18.42	-41.9	-43.5	18.2	0.00e+00	0	39	0	382730240	55	4302
2026-01-30 08:11:08.66	57.17	18.44	-42.0	-43.6	18.1	0.00e+00	0	39	0	383778816	55	4357
2026-01-30 08:11:09.67	56.94	18.46	-42.0	-43.6	18.1	0.00e+00	0	39	0	385875968	55	4364
2026-01-30 08:11:10.67	56.70	18.48	-42.2	-43.9	17.8	0.00e+00	0	39	0	387973120	55	4497
2026-01-30 08:11:11.67	56.47	18.50	-42.5	-44.3	17.4	0.00e+00	0	40	0	390070272	55	4745
2026-01-30 08:11:12.67	56.23	18.52	-42.6	-44.5	17.2	0.00e+00	0	39	0	391118848	55	4849
2026-01-30 08:11:13.68	55.99	18.54	-43.1	-45.1	16.8	0.00e+00	0	39	0	393216000	56	4903
2026-01-30 08:11:14.68	55.76	18.56	-43.2	-45.3	16.5	0.00e+00	0	39	0	395313152	57	4753
2026-01-30 08:11:15.68	55.52	18.58	-43.2	-45.4	16.5	0.00e+00	0	39	0	397410304	57	4770
2026-01-30 08:11:16.67	55.29	18.60	-43.1	-45.3	16.6	0.00e+00	0	39	0	399507456	57	4715
2026-01-30 08:11:17.67	55.05	18.61	-43.1	-45.1	16.8	0.00e+00	0	39	0	400556032	57	4625
2026-01-30 08:11:18.68	54.81	18.63	-42.8	-44.8	17.1	0.00e+00	0	40	0	402653184	57	4455
2026-01-30 08:11:19.68	54.57	18.65	-42.6	-44.5	17.3	0.00e+00	0	40	0	404750336	57	4315
2026-01-30 08:11:20.68	54.34	18.66	-42.6	-44.5	17.3	0.00e+00	0	40	0	406847488	57	4304
2026-01-30 08:11:21.68	54.10	18.68	-42.7	-44.6	17.3	0.00e+00	0	40	0	408944640	57	4350
2026-01-30 08:11:22.68	53.86	18.69	-42.6	-44.5	17.2	0.00e+00	0	39	0	409993216	57	4339
2026-01-30 08:11:23.67	53.63	18.70	-42.5	-44.4	17.5	0.00e+00	0	40	0	412090368	57	4245
2026-01-30 08:11:24.68	53.38	18.72	-42.5	-44.3	17.5	0.00e+00	0	39	0	414187520	56	4474
2026-01-30 08:11:25.68	53.15	18.73	-42.4	-44.2	17.5	0.00e+00	0	39	0	416284672	56	4440
2026-01-30 08:11:26.68	52.91	18.74	-42.4	-44.2	17.6	0.00e+00	0	39	0	417333248	56	4435
2026-01-30 08:11:27.68	52.67	18.76	-42.5	-44.3	17.6	0.00e+00	0	39	0	419430400	56	4455
2026-01-30 08:11:28.69	52.43	18.77	-42.3	-44.1	17.8	0.00e+00	0	39	0	421527552	56	4352
2026-01-30 08:11:29.69	52.19	18.78	-42.0	-43.7	18.1	0.00e+00	0	39	0	423624704	56	4160
2026-01-30 08:11:30.69	51.95	18.79	-41.6	-43.2	18.4	0.00e+00	0	39	0	425721856	55	4192
2026-01-30 08:11:31.69	51.71	18.80	-41.8	-43.4	18.2	0.00e+00	0	39	0	426770432	55	4273
2026-01-30 08:11:32.69	51.47	18.81	-41.7	-43.3	18.3	0.00e+00	0	39	0	428867584	55	4241
2026-01-30 08:11:33.69	51.23	18.82	-41.8	-43.4	18.2	0.00e+00	0	39	0	430964736	55	4278
2026-01-30 08:11:34.69	50.99	18.83	-41.8	-43.4	18.2	0.00e+00	0	39	0	433061888	55	4273
2026-01-30 08:11:35.69	50.75	18.83	-41.9	-43.5	18.2	0.00e+00	0	39	0	435159040	55	4303
2026-01-30 08:11:36.69	50.51	18.84	-42.1	-43.8	17.9	0.00e+00	0	39	0	436207616	55	4465
2026-01-30 08:11:37.69	50.27	18.85	-42.2	-44.0	17.7	0.00e+00	0	39	0	438304768	55	4560
2026-01-30 08:11:38.68	50.03	18.85	-42.4	-44.2	17.5	0.00e+00	0	39	0	440401920	55	4655
2026-01-30 08:11:39.69	49.79	18.86	-42.3	-44.0	17.6	0.00e+00	0	39	0	442499072	55	4579
2026-01-30 08:11:40.68	49.55	18.86	-42.4	-44.1	17.6	0.00e+00	0	39	0	444596224	55	4629
2026-01-30 08:11:41.68	49.31	18.87	-42.2	-43.9	17.8	0.00e+00	0	39	0	445644800	55	4532
2026-01-30 08:11:42.68	49.07	18.87	-42.2	-43.9	17.7	0.00e+00	0	39	0	447741952	55	4523
2026-01-30 08:11:43.68	48.82	18.88	-42.1	-43.8	17.8	0.00e+00	0	39	0	449839104	55	4476
2026-01-30 08:11:44.69	48.58	18.88	-42.2	-43.9	17.8	0.00e+00	0	39	0	451936256	55	4531
2026-01-30 08:11:45.69	48.34	18.88	-42.1	-43.8	17.9	0.00e+00	0	39	0	452984832	55	4452
2026-01-30 08:11:46.69	48.10	18.88	-42.1	-43.8	17.9	0.00e+00	0	39	0	455081984	55	4476
2026-01-30 08:11:47.68	47.86	18.89	-42.0	-43.7	18.0	0.00e+00	0	39	0	457179136	55	4402
2026-01-30 08:11:48.69	47.62	18.89	-42.0	-43.7	18.0	0.00e+00	0	39	0	459276288	55	4413
2026-01-30 08:11:49.69	47.38	18.89	-42.2	-43.9	17.8	0.00e+00	0	39	0	461373440	55	4528
2026-01-30 08:11:50.69	47.13	18.89	-42.4	-44.2	17.5	0.00e+00	0	39	0	462422016	55	4684
2026-01-30 08:11:51.69	46.89	18.89	-42.9	-44.9	17.0	0.00e+00	0	40	0	464519168	56	4784
2026-01-30 08:11:52.69	46.65	18.89	-43.0	-45.0	16.9	0.00e+00	0	39	0	466616320	56	4862
2026-01-30 08:11:53.69	46.41	18.88	-43.3	-45.4	16.5	0.00e+00	0	39	0	468713472	57	4800
2026-01-30 08:11:54.69	46.17	18.88	-43.4	-45.6	16.4	0.00e+00	0	40	0	470810624	57	4909
2026-01-30 08:11:55.69	45.93	18.88	-43.4	-45.6	16.4	0.00e+00	0	39	0	471859200	57	4881
2026-01-30 08:11:56.69	45.69	18.88	-43.2	-45.3	16.6	0.00e+00	0	40	0	473956352	57	4719
2026-01-30 08:11:57.69	45.45	18.87	-42.9	-44.9	17.0	0.00e+00	0	39	0	476053504	57	4498
2026-01-30 08:11:58.69	45.21	18.87	-42.6	-44.3	17.5	0.00e+00	0	39	0	478150656	57	4237
2026-01-30 08:11:59.69	44.97	18.86	-42.5	-44.2	17.7	0.00e+00	0	40	0	480247808	56	4440
2026-01-30 08:12:00.69	44.73	18.86	-42.3	-43.9	18.0	0.00e+00	0	39	0	481296384	56	4279
2026-01-30 08:12:01.69	44.49	18.85	-41.8	-43.3	18.4	0.00e+00	0	40	0	483393536	55	4223
2026-01-30 08:12:02.69	44.24	18.85	-41.7	-43.2	18.5	0.00e+00	0	39	0	485490688	55	4165
2026-01-30 08:12:03.69	44.00	18.84	-41.6	-43.2	18.5	0.00e+00	0	39	0	487587840	55	4146
2026-01-30 08:12:04.69	43.76	18.83	-41.7	-43.2	18.5	0.00e+00	0	39	0	488636416	55	4185
2026-01-30 08:12:05.69	43.52	18.82	-41.6	-43.1	18.6	0.00e+00	0	39	0	490733568	54	4355
2026-01-30 08:12:06.69	43.28	18.82	-41.8	-43.3	18.4	0.00e+00	0	39	0	492830720	54	4468
2026-01-30 08:12:07.69	43.04	18.81	-41.3	-42.7	18.8	0.00e+00	0	40	0	494927872	54	4172
2026-01-30 08:12:08.69	42.80	18.80	-41.5	-43.0	18.7	0.00e+00	0	40	0	497025024	54	4294
2026-01-30 08:12:09.69	42.57	18.79	-41.4	-42.9	18.8	0.00e+00	0	40	0	498073600	54	4262
2026-01-30 08:12:10.69	42.33	18.78	-41.3	-42.7	18.9	0.00e+00	0	39	0	500170752	54	4190
2026-01-30 08:12:11.68	42.09	18.77	-41.5	-43.0	18.8	0.00e+00	0	40	0	502267904	54	4295
2026-01-30 08:12:12.69	41.85	18.75	-41.4	-42.9	18.8	0.00e+00	0	40	0	504365056	54	4272
2026-01-30 08:12:13.69	41.61	18.74	-41.4	-42.9	18.8	0.00e+00	0	40	0	506462208	54	4259
2026-01-30 08:12:14.68	41.37	18.73	-41.3	-42.7	19.0	0.00e+00	0	40	0	507510784	54	4173
2026-01-30 08:12:15.68	41.13	18.72	-41.3	-42.7	19.1	0.00e+00	0	40	0	509607936	54	4160
2026-01-30 08:12:16.69	40.89	18.70	-41.3	-42.7	19.1	0.00e+00	0	40	0	511705088	54	4154
2026-01-30 08:12:17.69	40.66	18.69	-41.1	-42.5	19.3	0.00e+00	0	39	0	513802240	54	4075
2026-01-30 08:12:18.69	40.42	18.68	-41.0	-42.3	19.4	0.00e+00	0	39	0	514850816	53	4234
2026-01-30 08:12:19.70	40.18	18.66	-41.0	-42.3	19.6	0.00e+00	0	40	0	516947968	53	4208
2026-01-30 08:12:20.69	39.94	18.64	-40.9	-42.2	19.6	0.00e+00	0	39	0	519045120	53	4181
2026-01-30 08:12:21.70	39.70	18.63	-40.8	-42.1	19.8	0.00e+00	0	39	0	521142272	53	4108
2026-01-30 08:12:22.70	39.47	18.61	-41.0	-42.2	19.6	0.00e+00	0	39	0	523239424	53	4188
2026-01-30 08:12:23.70	39.23	18.60	-41.0	-42.3	19.6	0.00e+00	0	40	0	524288000	53	4200
2026-01-30 08:12:24.70	39.00	18.58	-41.1	-42.4	19.4	0.00e+00	0	39	0	526385152	53	4289
2026-01-30 08:12:25.70	38.76	18.56	-41.2	-42.5	19.4	0.00e+00	0	39	0	528482304	53	4317
2026-01-30 08:12:26.70	38.52	18.54	-41.4	-42.7	19.2	0.00e+00	0	40	0	530579456	53	4430
2026-01-30 08:12:27.70	38.29	18.52	-41.4	-42.8	19.2	0.00e+00	0	40	0	532676608	53	4455
2026-01-30 08:12:28.71	38.05	18.50	-41.6	-43.0	19.0	0.00e+00	0	39	0	533725184	53	4593
2026-01-30 08:12:29.71	37.82	18.48	-41.9	-43.4	18.6	0.00e+00	0	40	0	535822336	54	4518
2026-01-30 08:12:30.71	37.58	18.46	-41.9	-43.4	18.6	0.00e+00	0	39	0	537919488	54	4498
2026-01-30 08:12:31.71	37.35	18.44	-41.8	-43.2	18.8	0.00e+00	0	39	0	540016640	54	4425
2026-01-30 08:12:32.71	37.11	18.42	-41.8	-43.3	18.7	0.00e+00	0	39	0	542113792	54	4451
2026-01-30 08:12:33.71	36.88	18.40	-41.7	-43.2	18.8	0.00e+00	0	39	0	543162368	54	4417
2026-01-30 08:12:34.71	36.65	18.38	-41.7	-43.2	18.8	0.00e+00	0	40	0	545259520	54	4425
2026-01-30 08:12:35.71	36.42	18.35	-41.8	-43.4	18.7	0.00e+00	0	39	0	547356672	54	4496
2026-01-30 08:12:36.71	36.18	18.33	-42.0	-43.5	18.5	0.00e+00	0	39	0	549453824	54	4586
2026-01-30 08:12:37.71	35.95	18.31	-42.1	-43.7	18.3	0.00e+00	0	39	0	551550976	55	4430
2026-01-30 08:12:38.71	35.72	18.28	-42.4	-44.1	18.0	0.00e+00	0	39	0	552599552	55	4603
2026-01-30 08:12:39.71	35.49	18.26	-43.0	-44.8	17.5	0.00e+00	0	39	0	554696704	56	4710
2026-01-30 08:12:40.71	35.26	18.23	-43.0	-44.8	17.5	0.00e+00	0	39	0	556793856	57	4444
2026-01-30 08:12:41.71	35.03	18.21	-43.2	-45.1	17.1	0.00e+00	0	39	0	558891008	57	4622
2026-01-30 08:12:42.71	34.80	18.18	-43.3	-45.2	17.0	0.00e+00	0	39	0	559939584	57	4687
2026-01-30 08:12:43.71	34.57	18.15	-43.2	-45.2	17.1	0.00e+00	0	39	0	562036736	57	4665
2026-01-30 08:12:44.71	34.34	18.13	-43.3	-45.2	17.0	0.00e+00	0	39	0	564133888	57	4693
2026-01-30 08:12:45.71	34.11	18.10	-43.1	-45.1	17.2	0.00e+00	0	39	0	566231040	57	4601
2026-01-30 08:12:46.71	33.88	18.07	-43.1	-45.1	17.2	0.00e+00	0	39	0	568328192	57	4601
2026-01-30 08:12:47.71	33.65	18.04	-43.1	-45.0	17.3	0.00e+00	0	39	0	569376768	57	4558
2026-01-30 08:12:48.71	33.43	18.02	-43.2	-45.1	17.2	0.00e+00	0	39	0	571473920	57	4613
2026-01-30 08:12:49.71	33.20	17.99	-43.1	-45.0	17.2	0.00e+00	0	40	0	573571072	57	4552
2026-01-30 08:12:50.71	32.97	17.96	-43.1	-45.0	17.2	0.00e+00	0	40	0	575668224	57	4561
2026-01-30 08:12:51.71	32.75	17.93	-42.8	-44.5	17.6	0.00e+00	0	39	0	577765376	57	4338
2026-01-30 08:12:52.71	32.52	17.90	-42.9	-44.7	17.6	0.00e+00	0	39	0	578813952	57	4407
2026-01-30 08:12:53.71	32.30	17.87	-43.1	-44.9	17.3	0.00e+00	0	39	0	580911104	57	4537
2026-01-30 08:12:54.70	32.07	17.83	-43.2	-45.1	17.2	0.00e+00	0	39	0	583008256	57	4612
2026-01-30 08:12:55.71	31.85	17.80	-43.1	-45.0	17.3	0.00e+00	0	39	0	585105408	57	4558
2026-01-30 08:12:56.70	31.63	17.77	-43.3	-45.3	17.0	0.00e+00	0	39	0	587202560	57	4713
2026-01-30 08:12:57.70	31.40	17.74	-43.3	-45.3	17.0	0.00e+00	0	39	0	588251136	57	4714
2026-01-30 08:12:58.70	31.18	17.71	-43.0	-44.8	17.4	0.00e+00	0	39	0	590348288	57	4478
2026-01-30 08:12:59.70	30.96	17.67	-42.9	-44.7	17.5	0.00e+00	0	39	0	592445440	57	4419
2026-01-30 08:13:00.70	30.74	17.64	-42.7	-44.5	17.8	0.00e+00	0	39	0	594542592	57	4293
2026-01-30 08:13:01.70	30.51	17.61	-42.7	-44.4	17.8	0.00e+00	0	39	0	595591168	57	4283
2026-01-30 08:13:02.70	30.29	17.57	-42.7	-44.4	17.8	0.00e+00	0	40	0	597688320	57	4277
2026-01-30 08:13:03.71	30.07	17.54	-42.6	-44.2	17.9	0.00e+00	0	39	0	599785472	57	4191
2026-01-30 08:13:04.71	29.85	17.50	-42.5	-44.1	18.1	0.00e+00	0	39	0	601882624	56	4372
2026-01-30 08:13:05.71	29.63	17.46	-42.5	-44.1	18.1	0.00e+00	0	39	0	603979776	56	4385
2026-01-30 08:13:06.71	29.41	17.43	-42.4	-44.0	18.1	0.00e+00	0	39	0	605028352	56	4319
2026-01-30 08:13:07.71	29.19	17.39	-42.5	-44.1	18.1	0.00e+00	0	39	0	607125504	56	4369
2026-01-30 08:13:08.71	28.98	17.36	-42.5	-44.2	18.0	0.00e+00	0	39	0	609222656	56	4404
2026-01-30 08:13:09.72	28.76	17.32	-42.5	-44.2	18.0	0.00e+00	0	39	0	611319808	56	4423
2026-01-30 08:13:10.72	28.54	17.28	-42.5	-44.2	18.0	0.00e+00	0	40	0	613416960	56	4407
2026-01-30 08:13:11.72	28.33	17.24	-42.4	-44.1	18.1	0.00e+00	0	39	0	614465536	56	4355
2026-01-30 08:13:12.72	28.11	17.21	-42.1	-43.7	18.5	0.00e+00	0	39	0	616562688	56	4182
2026-01-30 08:13:13.72	27.90	17.17	-41.7	-43.2	18.7	0.00e+00	0	39	0	618659840	55	4185
2026-01-30 08:13:14.71	27.68	17.13	-41.5	-43.0	18.9	0.00e+00	0	39	0	620756992	54	4331
2026-01-30 08:13:15.72	27.47	17.09	-41.5	-43.0	19.0	0.00e+00	0	39	0	621805568	54	4300
2026-01-30 08:13:16.72	27.25	17.05	-41.4	-43.0	19.0	0.00e+00	0	40	0	623902720	54	4300
2026-01-30 08:13:17.72	27.04	17.01	-41.4	-43.0	18.9	0.00e+00	0	39	0	625999872	54	4318
2026-01-30 08:13:18.72	26.83	16.97	-41.3	-42.9	19.1	0.00e+00	0	39	0	628097024	54	4243
2026-01-30 08:13:19.73	26.62	16.93	-41.4	-43.0	18.9	0.00e+00	0	40	0	630194176	54	4332
2026-01-30 08:13:20.72	26.41	16.89	-41.4	-43.0	18.9	0.00e+00	0	39	0	631242752	54	4325
2026-01-30 08:13:21.73	26.19	16.85	-41.5	-43.2	18.8	0.00e+00	0	40	0	633339904	54	4405
2026-01-30 08:13:22.73	25.98	16.81	-41.9	-43.7	18.4	0.00e+00	0	40	0	635437056	54	4658
2026-01-30 08:13:23.73	25.78	16.76	-42.3	-44.2	17.9	0.00e+00	0	39	0	637534208	55	4660
2026-01-30 08:13:24.72	25.57	16.72	-43.0	-45.0	17.3	0.00e+00	0	39	0	639631360	56	4857
2026-01-30 08:13:25.73	25.36	16.68	-43.4	-45.5	16.9	0.00e+00	0	39	0	640679936	57	4837
2026-01-30 08:13:26.72	25.15	16.64	-43.5	-45.6	16.7	0.00e+00	0	39	0	642777088	57	4878
2026-01-30 08:13:27.73	24.95	16.59	-43.3	-45.3	17.0	0.00e+00	0	39	0	644874240	57	4710
2026-01-30 08:13:28.73	24.74	16.55	-43.3	-45.2	17.2	0.00e+00	0	39	0	646971392	57	4654
2026-01-30 08:13:29.73	24.53	16.51	-43.3	-45.2	17.1	0.00e+00	0	40	0	649068544	57	4674
2026-01-30 08:13:30.73	24.33	16.46	-43.3	-45.2	17.0	0.00e+00	0	40	0	650117120	57	4696
2026-01-30 08:13:31.73	24.12	16.42	-43.2	-45.1	17.2	0.00e+00	0	39	0	652214272	57	4616
2026-01-30 08:13:32.73	23.92	16.37	-43.1	-45.1	17.2	0.00e+00	0	39	0	654311424	57	4609
2026-01-30 08:13:33.72	23.72	16.33	-43.4	-45.4	17.0	0.00e+00	0	40	0	656408576	57	4765
2026-01-30 08:13:34.73	23.52	16.28	-43.4	-45.4	16.9	0.00e+00	0	40	0	657457152	57	4798
2026-01-30 08:13:35.73	23.31	16.24	-43.6	-45.8	16.6	0.00e+00	0	39	0	659554304	57	5008
2026-01-30 08:13:36.73	23.11	16.19	-43.7	-45.9	16.5	0.00e+00	0	39	0	661651456	57	5055
2026-01-30 08:13:37.73	22.91	16.15	-43.6	-45.7	16.6	0.00e+00	0	40	0	663748608	57	4954
2026-01-30 08:13:38.73	22.71	16.10	-43.3	-45.4	16.9	0.00e+00	0	40	0	665845760	57	4786
2026-01-30 08:13:39.73	22.51	16.05	-43.2	-45.2	17.1	0.00e+00	0	39	0	666894336	57	4655
2026-01-30 08:13:40.73	22.31	16.01	-43.1	-45.0	17.3	0.00e+00	0	39	0	668991488	57	4560
2026-01-30 08:13:41.73	22.12	15.96	-42.9	-44.8	17.5	0.00e+00	0	39	0	671088640	57	4458
2026-01-30 08:13:42.73	21.92	15.91	-42.7	-44.5	17.8	0.00e+00	0	40	0	673185792	57	4309
2026-01-30 08:13:43.73	21.72	15.87	-42.7	-44.5	17.7	0.00e+00	0	40	0	675282944	57	4310
2026-01-30 08:13:44.73	21.53	15.82	-42.7	-44.5	17.8	0.00e+00	0	39	0	676331520	57	4302
2026-01-30 08:13:45.73	21.33	15.77	-42.7	-44.5	17.8	0.00e+00	0	39	0	678428672	56	4577
2026-01-30 08:13:46.73	21.13	15.72	-42.9	-44.7	17.6	0.00e+00	0	40	0	680525824	56	4680
2026-01-30 08:13:47.73	20.94	15.67	-42.8	-44.6	17.7	0.00e+00	0	40	0	682622976	56	4603
2026-01-30 08:13:48.73	20.75	15.62	-42.6	-44.3	18.0	0.00e+00	0	39	0	683671552	56	4468
2026-01-30 08:13:49.74	20.55	15.57	-42.7	-44.5	17.7	0.00e+00	0	39	0	685768704	56	4585
2026-01-30 08:13:50.74	20.36	15.53	-43.0	-45.0	17.4	0.00e+00	0	39	0	687865856	56	4818
2026-01-30 08:13:51.74	20.17	15.48	-43.0	-45.0	17.3	0.00e+00	0	40	0	689963008	57	4577
2026-01-30 08:13:52.74	19.98	15.43	-43.4	-45.6	16.7	0.00e+00	0	40	0	692060160	57	4898
2026-01-30 08:13:53.74	19.79	15.38	-43.4	-45.6	16.7	0.00e+00	0	39	0	693108736	57	4913
2026-01-30 08:13:54.74	19.60	15.33	-43.3	-45.5	16.8	0.00e+00	0	39	0	695205888	57	4838
2026-01-30 08:13:55.74	19.41	15.28	-42.9	-44.9	17.4	0.00e+00	0	39	0	697303040	57	4536
2026-01-30 08:13:56.74	19.22	15.23	-42.7	-44.6	17.7	0.00e+00	0	40	0	699400192	57	4374
2026-01-30 08:13:57.74	19.03	15.18	-42.5	-44.4	17.9	0.00e+00	0	40	0	701497344	57	4267
2026-01-30 08:13:58.74	18.84	15.12	-42.3	-44.1	18.2	0.00e+00	0	39	0	702545920	56	4357
2026-01-30 08:13:59.74	18.66	15.07	-42.6	-44.4	18.0	0.00e+00	0	40	0	704643072	56	4501
2026-01-30 08:14:00.74	18.47	15.02	-42.6	-44.4	17.9	0.00e+00	0	39	0	706740224	56	4520
2026-01-30 08:14:01.74	18.29	14.97	-42.9	-44.7	17.5	0.00e+00	0	40	0	708837376	56	4694
2026-01-30 08:14:02.74	18.10	14.92	-43.2	-45.1	17.2	0.00e+00	0	40	0	710934528	57	4612
2026-01-30 08:14:03.74	17.92	14.87	-43.5	-45.5	16.7	0.00e+00	0	40	0	711983104	57	4850
2026-01-30 08:14:04.74	17.74	14.82	-43.9	-46.1	16.2	0.00e+00	0	39	0	714080256	58	4887
2026-01-30 08:14:05.74	17.55	14.76	-44.1	-46.4	15.8	0.00e+00	0	40	0	716177408	58	5095
2026-01-30 08:14:06.74	17.37	14.71	-44.2	-46.6	15.5	0.00e+00	0	39	0	718274560	59	4915
2026-01-30 08:14:07.74	17.19	14.66	-44.0	-46.4	15.7	0.00e+00	0	40	0	719323136	59	4761
2026-01-30 08:14:08.75	17.01	14.60	-44.0	-46.5	15.6	0.00e+00	0	39	0	721420288	59	4821
2026-01-30 08:14:09.75	16.83	14.55	-43.9	-46.4	15.6	0.00e+00	0	40	0	723517440	59	4772
2026-01-30 08:14:10.75	16.65	14.50	-43.9	-46.4	15.6	0.00e+00	0	40	0	725614592	59	4765
2026-01-30 08:14:11.75	16.47	14.45	-43.7	-46.0	16.0	0.00e+00	0	40	0	727711744	59	4596
2026-01-30 08:14:12.75	16.29	14.39	-43.6	-46.0	16.0	0.00e+00	0	40	0	729808896	59	4556
2026-01-30 08:14:13.75	16.11	14.34	-43.3	-45.6	16.4	0.00e+00	0	40	0	730857472	58	4638
2026-01-30 08:14:14.75	15.94	14.28	-43.2	-45.6	16.4	0.00e+00	0	40	0	732954624	58	4621
2026-01-30 08:14:15.76	15.76	14.23	-43.3	-45.8	16.2	0.00e+00	0	40	0	735051776	58	4730
2026-01-30 08:14:16.76	15.58	14.18	-43.2	-45.8	16.2	0.00e+00	0	40	0	737148928	58	4733
2026-01-30 08:14:17.76	15.41	14.12	-43.1	-45.6	16.4	0.00e+00	0	40	0	738197504	58	4649
2026-01-30 08:14:18.76	15.24	14.07	-42.8	-45.3	16.7	0.00e+00	0	39	0	740294656	57	4710
2026-01-30 08:14:19.76	15.06	14.01	-42.8	-45.2	16.8	0.00e+00	0	40	0	742391808	57	4677
2026-01-30 08:14:20.76	14.89	13.96	-42.7	-45.1	16.8	0.00e+00	0	40	0	744488960	57	4648
2026-01-30 08:14:21.76	14.72	13.90	-42.8	-45.3	16.7	0.00e+00	0	39	0	746586112	57	4732
2026-01-30 08:14:22.76	14.55	13.85	-42.8	-45.3	16.7	0.00e+00	0	40	0	747634688	57	4712
2026-01-30 08:14:23.75	14.38	13.79	-42.8	-45.4	16.6	0.00e+00	0	39	0	749731840	57	4789
2026-01-30 08:14:24.75	14.21	13.74	-43.0	-45.8	16.2	0.00e+00	0	39	0	751828992	57	5002
2026-01-30 08:14:25.76	14.04	13.68	-43.1	-45.9	16.1	0.00e+00	0	40	0	753926144	57	5064
2026-01-30 08:14:26.75	13.87	13.63	-43.2	-46.1	15.9	0.00e+00	0	40	0	756023296	57	5172
2026-01-30 08:14:27.75	13.70	13.57	-43.1	-45.9	16.1	0.00e+00	0	39	0	757071872	57	5045
2026-01-30 08:14:28.75	13.53	13.52	-43.1	-45.7	16.2	0.00e+00	0	40	0	759169024	57	4970
2026-01-30 08:14:29.75	13.37	13.46	-42.7	-45.1	16.8	0.00e+00	0	39	0	761266176	57	4638
2026-01-30 08:14:30.75	13.20	13.41	-42.6	-44.8	17.2	0.00e+00	0	40	0	763363328	57	4451
2026-01-30 08:14:31.75	13.03	13.35	-42.6	-44.6	17.3	0.00e+00	0	40	0	764411904	56	4640
2026-01-30 08:14:32.75	12.87	13.29	-42.5	-44.5	17.5	0.00e+00	0	40	0	766509056	56	4549
2026-01-30 08:14:33.75	12.70	13.24	-42.5	-44.5	17.5	0.00e+00	0	39	0	768606208	56	4550
2026-01-30 08:14:34.75	12.54	13.18	-42.5	-44.5	17.5	0.00e+00	0	39	0	770703360	56	4553
2026-01-30 08:14:35.75	12.38	13.13	-42.7	-44.8	17.2	0.00e+00	0	40	0	772800512	56	4715
2026-01-30 08:14:36.75	12.22	13.07	-42.8	-45.0	16.9	0.00e+00	0	39	0	773849088	56	4834
2026-01-30 08:14:37.75	12.05	13.01	-42.8	-45.0	16.9	0.00e+00	0	40	0	775946240	56	4858
2026-01-30 08:14:38.75	11.89	12.96	-42.8	-45.0	16.9	0.00e+00	0	39	0	778043392	56	4844
2026-01-30 08:14:39.75	11.73	12.90	-43.0	-45.3	16.7	0.00e+00	0	39	0	780140544	56	5006
2026-01-30 08:14:40.75	11.57	12.84	-43.0	-45.2	16.7	0.00e+00	0	40	0	781189120	56	4965
2026-01-30 08:14:41.75	11.41	12.79	-43.1	-45.3	16.7	0.00e+00	0	39	0	783286272	56	5003
2026-01-30 08:14:42.75	11.25	12.73	-43.0	-45.2	16.7	0.00e+00	0	39	0	785383424	56	4981
2026-01-30 08:14:43.75	11.10	12.67	-42.8	-45.0	17.0	0.00e+00	0	40	0	787480576	56	4826
2026-01-30 08:14:44.75	10.94	12.61	-42.9	-45.1	16.8	0.00e+00	0	40	0	789577728	56	4890
2026-01-30 08:14:45.75	10.78	12.56	-42.7	-44.9	17.1	0.00e+00	0	40	0	791674880	56	4762
2026-01-30 08:14:46.75	10.63	12.50	-42.6	-44.9	17.1	0.00e+00	0	39	0	792723456	56	4770
2026-01-30 08:14:47.75	10.47	12.44	-42.6	-44.8	17.2	0.00e+00	0	40	0	794820608	56	4712
2026-01-30 08:14:48.76	10.31	12.38	-42.4	-44.5	17.4	0.00e+00	0	40	0	796917760	56	4564
2026-01-30 08:14:49.76	10.16	12.33	-42.3	-44.4	17.5	0.00e+00	0	39	0	799014912	56	4537
2026-01-30 08:14:50.76	10.00	12.27	-42.3	-44.3	17.6	0.00e+00	0	39	0	800063488	56	4487
2026-01-30 08:14:51.76	9.85	12.21	-42.3	-44.3	17.6	0.00e+00	0	40	0	802160640	56	4459
2026-01-30 08:14:52.77	9.70	12.15	-42.3	-44.2	17.7	0.00e+00	0	40	0	804257792	56	4423
2026-01-30 08:14:53.77	9.55	12.10	-41.9	-43.8	18.0	0.00e+00	0	40	0	806354944	55	4443
2026-01-30 08:14:54.77	9.39	12.04	-41.5	-43.4	18.3	0.00e+00	0	39	0	808452096	55	4272
2026-01-30 08:14:55.77	9.24	11.98	-41.4	-43.4	18.3	0.00e+00	0	40	0	809500672	54	4535
2026-01-30 08:14:56.77	9.09	11.92	-41.2	-43.2	18.5	0.00e+00	0	39	0	811597824	54	4397
2026-01-30 08:14:57.77	8.94	11.86	-41.1	-43.0	18.7	0.00e+00	0	39	0	813694976	54	4321
2026-01-30 08:14:58.77	8.80	11.81	-41.1	-43.0	18.6	0.00e+00	0	39	0	815792128	53	4598
2026-01-30 08:14:59.77	8.65	11.75	-40.9	-42.7	18.9	0.00e+00	0	39	0	817889280	53	4441
2026-01-30 08:15:00.77	8.50	11.69	-41.0	-42.9	18.8	0.00e+00	0	39	0	818937856	53	4503
2026-01-30 08:15:01.77	8.35	11.63	-41.2	-43.1	18.6	0.00e+00	0	39	0	821035008	53	4621
2026-01-30 08:15:02.77	8.21	11.57	-41.5	-43.4	18.3	0.00e+00	0	39	0	823132160	53	4782
2026-01-30 08:15:03.77	8.06	11.51	-41.7	-43.7	18.0	0.00e+00	0	39	0	825229312	53	4940
2026-01-30 08:15:04.77	7.92	11.46	-41.8	-43.8	17.9	0.00e+00	0	39	0	826277888	54	4733
2026-01-30 08:15:05.77	7.77	11.40	-41.9	-43.9	17.8	0.00e+00	0	40	0	828375040	54	4787
2026-01-30 08:15:06.77	7.63	11.34	-41.7	-43.6	18.1	0.00e+00	0	40	0	830472192	54	4633
2026-01-30 08:15:07.77	7.48	11.28	-41.7	-43.7	18.0	0.00e+00	0	40	0	832569344	54	4686
2026-01-30 08:15:08.77	7.34	11.22	-41.7	-43.7	18.0	0.00e+00	0	39	0	834666496	54	4687
2026-01-30 08:15:09.77	7.20	11.16	-41.7	-43.6	18.1	0.00e+00	0	40	0	835715072	54	4618
2026-01-30 08:15:10.77	7.06	11.11	-41.8	-43.7	18.0	0.00e+00	0	39	0	837812224	54	4667
2026-01-30 08:15:11.78	6.91	11.05	-41.5	-43.3	18.4	0.00e+00	0	39	0	839909376	54	4447
2026-01-30 08:15:12.78	6.77	10.99	-41.5	-43.2	18.4	0.00e+00	0	39	0	842006528	54	4438
2026-01-30 08:15:13.77	6.63	10.93	-41.5	-43.3	18.4	0.00e+00	0	40	0	844103680	54	4475
2026-01-30 08:15:14.77	6.49	10.87	-41.6	-43.4	18.2	0.00e+00	0	40	0	845152256	54	4541
2026-01-30 08:15:15.77	6.36	10.81	-41.4	-43.1	18.5	0.00e+00	0	40	0	847249408	54	4384
2026-01-30 08:15:16.77	6.22	10.75	-41.4	-43.2	18.5	0.00e+00	0	40	0	849346560	54	4427
2026-01-30 08:15:17.77	6.08	10.69	-41.4	-43.3	18.3	0.00e+00	0	39	0	851443712	54	4462
2026-01-30 08:15:18.77	5.94	10.64	-41.4	-43.4	18.3	0.00e+00	0	40	0	853540864	54	4512
2026-01-30 08:15:19.78	5.81	10.58	-41.5	-43.7	18.0	0.00e+00	0	39	0	854589440	54	4661
2026-01-30 08:15:20.78	5.67	10.52	-41.5	-43.7	18.0	0.00e+00	0	40	0	856686592	54	4683
2026-01-30 08:15:21.77	5.53	10.46	-41.6	-43.8	17.9	0.00e+00	0	39	0	858783744	54	4744
2026-01-30 08:15:22.78	5.40	10.40	-41.5	-43.7	17.9	0.00e+00	0	40	0	860880896	54	4689
2026-01-30 08:15:23.78	5.26	10.34	-41.8	-44.1	17.6	0.00e+00	0	40	0	861929472	54	4922
2026-01-30 08:15:24.78	5.13	10.28	-42.0	-44.3	17.4	0.00e+00	0	40	0	864026624	54	5035
2026-01-30 08:15:25.78	5.00	10.22	-42.1	-44.4	17.4	0.00e+00	0	39	0	866123776	54	5051
2026-01-30 08:15:26.79	4.86	10.16	-42.2	-44.6	17.1	0.00e+00	0	39	0	868220928	55	4885
2026-01-30 08:15:27.79	4.73	10.10	-42.1	-44.4	17.2	0.00e+00	0	40	0	870318080	55	4809
2026-01-30 08:15:28.79	4.60	10.05	-42.4	-44.8	16.9	0.00e+00	0	40	0	871366656	55	5017
2026-01-30 08:15:29.80	4.47	9.99	-42.4	-44.8	16.9	0.00e+00	0	40	0	873463808	55	5026
2026-01-30 08:15:30.80	4.34	9.93	-42.5	-44.9	16.8	0.00e+00	0	40	0	875560960	55	5092
2026-01-30 08:15:31.80	4.21	9.87	-42.4	-44.5	17.2	0.00e+00	0	40	0	877658112	55	4869
2026-01-30 08:15:32.80	4.08	9.81	-42.2	-44.2	17.6	0.00e+00	0	40	0	879755264	55	4662
2026-01-30 08:15:33.80	3.95	9.75	-42.2	-43.9	17.8	0.00e+00	0	39	0	880803840	55	4531
2026-01-30 08:15:34.80	3.82	9.69	-42.1	-43.7	17.9	0.00e+00	0	40	0	882900992	55	4435
2026-01-30 08:15:35.80	3.69	9.63	-42.1	-43.8	17.9	0.00e+00	0	39	0	884998144	55	4454
2026-01-30 08:15:36.80	3.56	9.57	-41.8	-43.5	18.2	0.00e+00	0	40	0	887095296	55	4310
2026-01-30 08:15:37.80	3.44	9.51	-41.6	-43.5	18.2	0.00e+00	0	40	0	889192448	55	4295
2026-01-30 08:15:38.80	3.31	9.46	-41.5	-43.3	18.2	0.00e+00	0	39	0	890241024	55	4241
2026-01-30 08:15:39.81	3.18	9.40	-41.8	-43.8	17.9	0.00e+00	0	39	0	892338176	55	4452
2026-01-30 08:15:40.81	3.06	9.34	-42.0	-43.9	17.7	0.00e+00	0	40	0	894435328	55	4505
2026-01-30 08:15:41.81	2.94	9.28	-42.2	-44.2	17.5	0.00e+00	0	39	0	896532480	55	4670
2026-01-30 08:15:42.81	2.81	9.22	-42.7	-44.7	17.0	0.00e+00	0	39	0	898629632	55	4957
2026-01-30 08:15:43.81	2.69	9.16	-42.7	-44.6	17.2	0.00e+00	0	39	0	899678208	56	4617
2026-01-30 08:15:44.81	2.56	9.10	-43.1	-45.1	16.8	0.00e+00	0	40	0	901775360	56	4898
2026-01-30 08:15:45.81	2.44	9.04	-43.1	-45.3	16.6	0.00e+00	0	39	0	903872512	57	4714
2026-01-30 08:15:46.82	2.32	8.98	-46.2	-50.8	11.7	7.00e-07	0	39	0	905969664	62	6680
2026-01-30 08:15:47.82	2.20	8.92	-48.5	-62.9	3.8	1.49e+00	0	39	104	905969664	67	20270
2026-01-30 08:15:48.82	2.08	8.87	-48.2	-63.4	3.8	1.49e+00	0	40	104	905969664	67	21379
2026-01-30 08:15:49.82	1.96	8.81	-48.8	-63.7	3.8	1.49e+00	0	39	104	905969664	68	20808
2026-01-30 08:15:50.82	1.83	8.75	-48.4	-63.7	3.8	1.49e+00	0	39	104	905969664	68	20996
2026-01-30 08:15:51.83	1.71	8.69	-49.3	-63.8	3.8	1.49e+00	0	40	104	905969664	69	19936
2026-01-30 08:15:52.83	1.60	8.63	-49.5	-63.8	3.8	1.49e+00	0	40	104	905969664	69	20021
2026-01-30 08:15:53.83	1.48	8.57	-49.4	-63.8	3.8	1.49e+00	0	39	104	905969664	69	20050
2026-01-30 08:15:54.83	1.36	8.51	-49.4	-63.9	3.8	1.49e+00	0	39	104	905969664	69	20112
2026-01-30 08:15:55.83	1.24	8.45	-49.0	-63.9	3.8	1.49e+00	0	39	104	905969664	69	20090
2026-01-30 08:15:56.84	1.12	8.39	-49.7	-63.9	3.8	1.49e+00	0	40	104	905969664	69	20214
2026-01-30 08:15:57.83	1.01	8.34	-49.4	-63.9	3.8	1.49e+00	0	40	104	905969664	70	19152
2026-01-30 08:15:58.83	0.89	8.28	-49.5	-63.9	3.8	1.49e+00	0	39	104	905969664	70	19067
2026-01-30 08:15:59.83	0.78	8.22	-49.6	-63.9	3.8	1.49e+00	0	40	104	905969664	70	19163
2026-01-30 08:16:00.83	0.66	8.16	-49.4	-63.9	3.8	1.49e+00	0	40	104	905969664	70	19074
2026-01-30 08:16:01.83	0.55	8.10	-49.1	-63.9	3.8	1.49e+00	0	40	104	905969664	70	19070
2026-01-30 08:16:02.83	0.43	8.04	-49.5	-63.9	3.8	1.49e+00	0	40	104	905969664	70	19004
2026-01-30 08:16:03.83	0.32	7.99	-49.1	-63.9	3.8	1.49e+00	0	39	104	905969664	70	19004
2026-01-30 08:16:04.84	0.20	7.93	-49.4	-63.9	3.8	1.49e+00	0	40	104	905969664	70	19046
2026-01-30 08:16:05.84	0.09	7.87	-49.6	-63.9	3.8	1.49e+00	0	39	104	905969664	70	19052
2026-01-30 08:16:06.83	359.98	7.81	-49.5	-63.9	3.8	1.49e+00	0	39	104	905969664	70	19071
2026-01-30 08:16:07.84	359.87	7.75	-49.5	-63.9	3.8	1.49e+00	0	39	104	905969664	70	19013
2026-01-30 08:16:08.84	359.75	7.69	-49.5	-63.9	3.8	1.49e+00	0	40	104	905969664	70	18956
2026-01-30 08:16:09.84	359.64	7.63	-49.4	-63.8	3.8	1.49e+00	0	40	104	905969664	70	18888
2026-01-30 08:16:10.84	359.53	7.58	-49.3	-63.8	3.8	1.49e+00	0	39	104	905969664	70	18858
2026-01-30 08:16:11.85	359.42	7.52	-49.2	-63.8	3.8	1.49e+00	0	39	104	905969664	70	18846
2026-01-30 08:16:12.85	359.31	7.46	-49.3	-63.7	3.8	1.49e+00	0	39	104	905969664	70	18657
2026-01-30 08:16:13.85	359.20	7.40	-49.3	-63.6	3.8	1.49e+00	0	40	104	905969664	70	18478
2026-01-30 08:16:14.85	359.09	7.34	-49.1	-63.6	3.8	1.49e+00	0	40	104	905969664	70	18343
2026-01-30 08:16:15.85	358.99	7.28	-49.1	-63.4	3.8	1.49e+00	0	39	104	905969664	70	18028
2026-01-30 08:16:16.85	358.88	7.23	-48.9	-63.2	3.8	1.49e+00	0	40	104	905969664	69	18685
2026-01-30 08:16:17.85	358.77	7.17	-48.8	-63.2	3.8	1.49e+00	0	39	104	905969664	69	18571
2026-01-30 08:16:18.85	358.66	7.11	-48.8	-63.2	3.8	1.49e+00	0	39	104	905969664	69	18544
2026-01-30 08:16:19.85	358.56	7.05	-48.8	-63.1	3.8	1.49e+00	0	39	104	905969664	69	18448
2026-01-30 08:16:20.85	358.45	6.99	-48.8	-63.2	3.8	1.49e+00	0	39	104	905969664	69	18572
2026-01-30 08:16:21.85	358.35	6.94	-48.8	-63.2	3.8	1.49e+00	0	39	104	905969664	69	18555
2026-01-30 08:16:22.85	358.24	6.88	-48.8	-63.2	3.8	1.49e+00	0	40	104	905969664	69	18541
2026-01-30 08:16:23.85	358.14	6.82	-48.8	-63.1	3.8	1.49e+00	0	39	104	905969664	69	18464
2026-01-30 08:16:24.85	358.03	6.76	-48.8	-63.1	3.8	1.49e+00	0	40	104	905969664	69	18454
2026-01-30 08:16:25.85	357.93	6.71	-48.8	-63.1	3.8	1.49e+00	0	40	104	905969664	69	18493
2026-01-30 08:16:26.85	357.82	6.65	-48.8	-63.1	3.8	1.49e+00	0	39	104	905969664	69	18494
2026-01-30 08:16:27.85	357.72	6.59	-48.8	-63.2	3.8	1.49e+00	0	40	104	905969664	69	18528
2026-01-30 08:16:28.85	357.62	6.53	-48.8	-63.1	3.8	1.49e+00	0	39	104	905969664	69	18435
2026-01-30 08:16:29.86	357.52	6.47	-48.8	-63.1	3.8	1.49e+00	0	40	104	905969664	69	18436
2026-01-30 08:16:30.86	357.41	6.42	-48.8	-63.1	3.8	1.49e+00	0	40	104	905969664	69	18466
2026-01-30 08:16:31.86	357.31	6.36	-48.8	-63.1	3.8	1.49e+00	0	40	104	905969664	69	18450
2026-01-30 08:16:32.86	357.21	6.30	-48.8	-63.1	3.8	1.49e+00	0	40	104	905969664	69	18472
2026-01-30 08:16:33.86	357.11	6.24	-48.8	-63.1	3.8	1.49e+00	0	40	104	905969664	69	18374
2026-01-30 08:16:34.86	357.01	6.19	-48.8	-63.1	3.8	1.49e+00	0	40	104	905969664	69	18499
2026-01-30 08:16:35.86	356.91	6.13	-48.8	-63.1	3.8	1.49e+00	0	40	104	905969664	69	18487
2026-01-30 08:16:36.87	356.81	6.07	-48.8	-63.1	3.8	1.49e+00	0	40	104	905969664	69	18384
2026-01-30 08:16:37.87	356.71	6.01	-48.8	-63.1	3.8	1.49e+00	0	40	104	905969664	69	18382
2026-01-30 08:16:38.87	356.61	5.96	-48.8	-63.1	3.8	1.49e+00	0	40	104	905969664	69	18378
2026-01-30 08:16:39.87	356.52	5.90	-48.8	-63.1	3.8	1.49e+00	0	39	104	905969664	69	18428
2026-01-30 08:16:40.87	356.42	5.84	-48.8	-63.1	3.8	1.49e+00	0	39	104	905969664	69	18378
2026-01-30 08:16:41.88	356.32	5.79	-48.8	-63.1	3.8	1.49e+00	0	40	104	905969664	69	18497
2026-01-30 08:16:42.87	356.22	5.73	-48.8	-63.1	3.8	1.49e+00	0	39	104	905969664	69	18447
2026-01-30 08:16:43.88	356.13	5.67	-48.8	-63.1	3.8	1.49e+00	0	40	104	905969664	69	18421
2026-01-30 08:16:44.88	356.03	5.61	-48.8	-63.1	3.8	1.49e+00	0	40	104	905969664	69	18394
2026-01-30 08:16:45.88	355.93	5.56	-48.8	-63.1	3.8	1.49e+00	0	39	104	905969664	69	18405
2026-01-30 08:16:46.88	355.84	5.50	-48.8	-63.1	3.8	1.49e+00	0	40	104	905969664	69	18434
2026-01-30 08:16:47.88	355.74	5.44	-48.8	-63.1	3.8	1.49e+00	0	40	104	905969664	69	18392
2026-01-30 08:16:48.88	355.65	5.39	-48.8	-63.1	3.8	1.49e+00	0	39	104	905969664	69	18360
2026-01-30 08:16:49.88	355.55	5.33	-48.8	-63.1	3.8	1.49e+00	0	39	104	905969664	69	18380
2026-01-30 08:16:50.89	355.46	5.27	-48.7	-63.1	3.8	1.49e+00	0	40	104	905969664	69	18417
2026-01-30 08:16:51.89	355.37	5.22	-48.7	-63.1	3.8	1.49e+00	0	39	104	905969664	69	18316
2026-01-30 08:16:52.89	355.27	5.16	-48.8	-63.1	3.8	1.49e+00	0	40	104	905969664	69	18333
2026-01-30 08:16:53.89	355.18	5.10	-48.7	-63.1	3.8	1.49e+00	0	40	104	905969664	69	18367
2026-01-30 08:16:54.89	355.09	5.05	-48.8	-63.1	3.8	1.49e+00	0	40	104	905969664	69	18393
2026-01-30 08:16:55.89	355.00	4.99	-48.7	-63.1	3.8	1.49e+00	0	40	104	905969664	69	18388

#Closed at: 2026-01-30 08:16:56
#Recorded file [905 MB]: D:/Data/31040_260130_110646.dat