passes_logs/2026/01/30/T1/T1__20260130_041306_FENGYUN_3E_rec.log

#Pass ID: 20260130_041306_FENGYUN 3E
#Satellite: FENGYUN 3E
#Configuration: FENGYUN 3E
#almurnet v.1.7.20251203
#Start time: 2026-01-30 04:13:07

#Version: 2.0.20230620
#Station: T1
#Location: 37.570604 lon 55.790049 lat
#TLE: 1 49008U 21062A   26029.52207456 -.00000035  00000+0  41692-5 0  9997
#TLE: 2 49008  98.7499  34.4814 0002557 110.8023 249.3427 14.19887743236900

#Time	Az	El	Level	Level2	SNR	BER	BlckErr	Temp	State	Recorded	gain1	gain2
2026-01-30 04:13:07.76	14.72	5.09	-51.3	-61.1	3.8	8.47e-01	0	38	0	0	72	11521
2026-01-30 04:13:08.75	14.71	5.16	-51.5	-61.2	3.8	8.47e-01	0	38	104	0	73	10966
2026-01-30 04:13:09.75	14.70	5.23	-51.5	-61.2	3.8	8.47e-01	0	38	104	0	73	11023
2026-01-30 04:13:10.74	14.69	5.30	-51.5	-61.2	3.8	8.46e-01	0	38	104	0	73	10956
2026-01-30 04:13:11.74	14.68	5.37	-51.5	-61.2	3.8	8.47e-01	0	38	104	0	73	10932
2026-01-30 04:13:12.73	14.67	5.45	-51.3	-61.3	3.8	8.47e-01	0	38	104	0	73	11072
2026-01-30 04:13:13.73	14.66	5.52	-51.1	-61.2	3.8	8.46e-01	0	38	104	0	73	10962
2026-01-30 04:13:14.73	14.65	5.59	-51.4	-61.2	3.8	8.47e-01	0	38	104	0	73	10956
2026-01-30 04:13:15.73	14.64	5.66	-51.2	-61.1	3.8	8.48e-01	0	38	104	0	73	10862
2026-01-30 04:13:16.73	14.63	5.74	-51.3	-61.2	3.8	8.47e-01	0	38	104	0	73	10933
2026-01-30 04:13:17.72	14.62	5.81	-51.4	-61.0	3.8	8.49e-01	0	38	104	0	73	10775
2026-01-30 04:13:18.72	14.61	5.88	-51.1	-61.1	3.8	8.47e-01	0	38	104	0	73	10812
2026-01-30 04:13:19.72	14.60	5.95	-51.1	-60.9	3.8	8.46e-01	0	38	104	0	72	11225
2026-01-30 04:13:20.71	14.59	6.03	-51.1	-60.9	3.8	8.47e-01	0	38	104	0	72	11244
2026-01-30 04:13:21.71	14.58	6.10	-51.0	-60.8	3.8	8.45e-01	0	38	104	0	72	11152
2026-01-30 04:13:22.71	14.57	6.18	-50.9	-60.9	3.8	8.46e-01	0	38	104	0	72	11190
2026-01-30 04:13:23.71	14.56	6.25	-50.3	-60.9	3.8	8.47e-01	0	38	104	0	70	12562
2026-01-30 04:13:24.70	14.55	6.32	-50.5	-60.9	3.8	8.48e-01	0	38	104	0	70	12563
2026-01-30 04:13:25.70	14.53	6.40	-50.1	-60.7	3.8	8.47e-01	0	39	104	0	71	11652
2026-01-30 04:13:26.69	14.52	6.47	-50.3	-60.6	3.8	8.46e-01	0	39	104	0	70	12232
2026-01-30 04:13:27.69	14.51	6.55	-49.6	-60.7	3.8	8.47e-01	0	38	104	0	70	12258
2026-01-30 04:13:28.69	14.50	6.62	-49.8	-60.1	3.8	8.47e-01	0	39	104	0	69	12179
2026-01-30 04:13:29.68	14.49	6.70	-49.7	-59.6	3.8	8.47e-01	0	39	104	0	69	11524
2026-01-30 04:13:30.68	14.48	6.77	-49.6	-59.3	3.8	8.46e-01	0	39	104	0	69	11066
2026-01-30 04:13:31.67	14.47	6.85	-49.6	-58.9	3.8	8.46e-01	0	39	104	0	69	10620
2026-01-30 04:13:32.67	14.46	6.93	-49.6	-58.5	3.8	8.45e-01	0	39	104	0	69	10123
2026-01-30 04:13:33.67	14.45	7.00	-49.5	-58.3	3.8	8.45e-01	0	38	104	0	69	9864
2026-01-30 04:13:34.66	14.44	7.08	-49.5	-58.0	4.0	8.44e-01	0	39	104	0	69	9559
2026-01-30 04:13:35.66	14.42	7.16	-49.5	-57.6	4.1	8.43e-01	0	39	0	0	69	9136
2026-01-30 04:13:36.66	14.41	7.23	-49.4	-57.4	4.1	8.40e-01	0	39	0	0	69	8920
2026-01-30 04:13:37.66	14.40	7.31	-49.3	-56.9	4.3	8.37e-01	0	39	0	0	69	8387
2026-01-30 04:13:38.66	14.39	7.39	-49.3	-56.7	4.3	8.32e-01	0	39	0	0	69	8189
2026-01-30 04:13:39.66	14.38	7.47	-49.2	-56.2	4.5	8.22e-01	0	39	0	0	69	7777
2026-01-30 04:13:40.65	14.37	7.54	-49.1	-55.7	4.7	8.09e-01	0	39	0	0	69	7327
2026-01-30 04:13:41.65	14.35	7.62	-49.0	-55.2	5.0	7.89e-01	0	39	0	0	68	7368
2026-01-30 04:13:42.65	14.34	7.70	-48.8	-54.4	5.4	7.27e-01	0	39	0	0	68	6723
2026-01-30 04:13:43.64	14.33	7.78	-48.7	-53.8	5.9	5.23e-01	0	39	0	3145728	68	6261
2026-01-30 04:13:44.64	14.32	7.86	-48.3	-52.9	6.4	2.67e-01	0	39	0	10485760	67	5992
2026-01-30 04:13:45.64	14.30	7.94	-48.1	-52.3	6.9	1.82e-01	0	39	0	17825792	67	5590
2026-01-30 04:13:46.64	14.29	8.02	-47.8	-51.5	7.8	1.04e-01	0	39	0	24117248	66	5364
2026-01-30 04:13:47.64	14.28	8.10	-47.5	-50.8	8.4	5.06e-02	0	39	0	31457280	65	5251
2026-01-30 04:13:48.64	14.27	8.18	-47.2	-50.1	9.1	2.31e-02	0	39	0	38797312	65	4844
2026-01-30 04:13:49.63	14.25	8.26	-46.8	-49.4	10.0	8.84e-03	0	39	0	46137344	64	4711
2026-01-30 04:13:50.63	14.24	8.34	-46.6	-48.9	10.5	4.19e-03	0	39	0	53477376	63	4734
2026-01-30 04:13:51.63	14.23	8.42	-46.2	-48.2	11.2	2.16e-03	0	39	0	60817408	63	4349
2026-01-30 04:13:52.63	14.22	8.50	-46.1	-48.1	11.4	1.15e-03	0	39	0	68157440	63	4303
2026-01-30 04:13:53.63	14.20	8.58	-45.7	-47.4	12.1	4.90e-04	0	39	0	75497472	62	4227
2026-01-30 04:13:54.62	14.19	8.66	-45.7	-47.3	12.2	2.57e-04	0	39	0	81788928	62	4169
2026-01-30 04:13:55.62	14.18	8.74	-45.6	-47.2	12.3	2.30e-04	0	40	0	89128960	61	4364
2026-01-30 04:13:56.62	14.16	8.83	-45.5	-47.1	12.4	1.88e-04	0	39	0	96468992	61	4314
2026-01-30 04:13:57.61	14.15	8.91	-45.6	-47.2	12.2	1.99e-04	0	39	0	103809024	61	4381
2026-01-30 04:13:58.61	14.14	8.99	-45.9	-47.6	11.8	4.73e-04	0	40	0	111149056	61	4597
2026-01-30 04:13:59.61	14.12	9.07	-47.2	-49.9	9.5	1.92e-03	0	39	0	118489088	63	5306
2026-01-30 04:14:00.60	14.11	9.16	-46.6	-48.7	10.6	2.05e-02	0	40	0	124780544	64	4391
2026-01-30 04:14:01.60	14.09	9.24	-46.5	-48.6	10.9	2.94e-04	0	39	0	132120576	62	4865
2026-01-30 04:14:02.60	14.08	9.32	-48.7	-54.3	5.6	2.62e-01	0	40	0	139460608	66	7383
2026-01-30 04:14:03.60	14.07	9.41	-45.0	-46.2	13.1	1.83e-01	0	40	0	142606336	61	3912
2026-01-30 04:14:04.59	14.05	9.49	-41.2	-41.5	17.8	0.00e+00	0	39	0	148897792	52	3818
2026-01-30 04:14:05.59	14.04	9.58	-41.3	-41.5	17.7	0.00e+00	0	40	0	156237824	52	3818
2026-01-30 04:14:06.59	14.02	9.66	-41.2	-41.4	17.9	0.00e+00	0	40	0	163577856	52	3772
2026-01-30 04:14:07.59	14.01	9.75	-41.1	-41.4	17.9	0.00e+00	0	40	0	170917888	52	3749
2026-01-30 04:14:08.59	13.99	9.83	-41.0	-41.2	18.1	0.00e+00	0	40	0	178257920	52	3671
2026-01-30 04:14:09.58	13.98	9.92	-41.0	-41.3	18.1	0.00e+00	0	40	0	185597952	52	3695
2026-01-30 04:14:10.58	13.96	10.00	-40.5	-40.7	18.6	0.00e+00	0	40	0	192937984	51	3694
2026-01-30 04:14:11.58	13.95	10.09	-40.6	-40.8	18.6	0.00e+00	0	40	0	200278016	51	3711
2026-01-30 04:14:12.58	13.93	10.18	-40.1	-40.2	19.1	0.00e+00	0	40	0	207618048	50	3678
2026-01-30 04:14:13.58	13.92	10.26	-39.7	-39.8	19.5	0.00e+00	0	40	0	213909504	50	3528
2026-01-30 04:14:14.57	13.90	10.35	-39.9	-40.0	19.3	0.00e+00	0	40	0	221249536	50	3608
2026-01-30 04:14:15.56	13.89	10.44	-39.8	-39.9	19.4	0.00e+00	0	40	0	228589568	50	3549
2026-01-30 04:14:16.56	13.87	10.52	-39.7	-39.8	19.6	0.00e+00	0	40	0	235929600	50	3505
2026-01-30 04:14:17.55	13.86	10.61	-39.9	-40.0	19.4	0.00e+00	0	40	0	243269632	50	3589
2026-01-30 04:14:18.55	13.84	10.70	-39.6	-39.7	19.6	0.00e+00	0	40	0	250609664	50	3480
2026-01-30 04:14:19.54	13.83	10.79	-39.5	-39.6	19.7	0.00e+00	0	40	0	256901120	49	3639
2026-01-30 04:14:20.54	13.81	10.88	-39.6	-39.7	19.7	0.00e+00	0	40	0	264241152	49	3663
2026-01-30 04:14:21.54	13.79	10.97	-39.5	-39.5	19.8	0.00e+00	0	40	0	271581184	49	3598
2026-01-30 04:14:22.53	13.78	11.06	-39.4	-39.5	19.9	0.00e+00	0	40	0	278921216	49	3581
2026-01-30 04:14:23.53	13.76	11.15	-39.5	-39.6	19.8	0.00e+00	0	40	0	286261248	49	3620
2026-01-30 04:14:24.53	13.74	11.24	-39.6	-39.7	19.7	0.00e+00	0	40	0	293601280	49	3660
2026-01-30 04:14:25.53	13.73	11.33	-39.5	-39.5	19.8	0.00e+00	0	40	0	300941312	49	3604
2026-01-30 04:14:26.52	13.71	11.42	-39.6	-39.6	19.8	0.00e+00	0	40	0	308281344	49	3643
2026-01-30 04:14:27.53	13.69	11.51	-39.4	-39.4	19.9	0.00e+00	0	40	0	314572800	49	3555
2026-01-30 04:14:28.52	13.68	11.60	-39.5	-39.6	19.8	0.00e+00	0	40	0	321912832	49	3629
2026-01-30 04:14:29.52	13.66	11.69	-39.3	-39.4	20.0	0.00e+00	0	40	0	329252864	49	3530
2026-01-30 04:14:30.52	13.64	11.79	-39.2	-39.2	20.1	0.00e+00	0	40	0	336592896	49	3475
2026-01-30 04:14:31.51	13.62	11.88	-39.2	-39.2	20.1	0.00e+00	0	40	0	343932928	48	3677
2026-01-30 04:14:32.51	13.61	11.97	-39.1	-39.1	20.2	0.00e+00	0	40	0	351272960	48	3634
2026-01-30 04:14:33.51	13.59	12.07	-39.1	-39.2	20.2	0.00e+00	0	40	0	357564416	48	3657
2026-01-30 04:14:34.51	13.57	12.16	-39.2	-39.3	20.1	0.00e+00	0	40	0	364904448	48	3698
2026-01-30 04:14:35.50	13.55	12.25	-39.0	-39.0	20.3	0.00e+00	0	40	0	372244480	48	3598
2026-01-30 04:14:36.50	13.54	12.35	-39.0	-39.0	20.3	0.00e+00	0	40	0	379584512	48	3595
2026-01-30 04:14:37.50	13.52	12.44	-39.0	-39.1	20.3	0.00e+00	0	40	0	386924544	48	3617
2026-01-30 04:14:38.49	13.50	12.54	-39.0	-39.0	20.4	0.00e+00	0	40	0	394264576	48	3583
2026-01-30 04:14:39.49	13.48	12.63	-38.9	-38.9	20.4	0.00e+00	0	40	0	401604608	48	3557
2026-01-30 04:14:40.48	13.46	12.73	-38.9	-38.9	20.4	0.00e+00	0	40	0	408944640	48	3567
2026-01-30 04:14:41.48	13.44	12.82	-38.9	-38.9	20.4	0.00e+00	0	40	0	415236096	48	3567
2026-01-30 04:14:42.47	13.42	12.92	-38.9	-38.9	20.5	0.00e+00	0	40	0	422576128	48	3544
2026-01-30 04:14:43.47	13.40	13.02	-38.9	-38.9	20.4	0.00e+00	0	40	0	429916160	48	3550
2026-01-30 04:14:44.46	13.39	13.11	-38.8	-38.8	20.6	0.00e+00	0	40	0	437256192	48	3491
2026-01-30 04:14:45.46	13.37	13.21	-39.0	-39.0	20.4	0.00e+00	0	40	0	444596224	48	3605
2026-01-30 04:14:46.45	13.35	13.31	-39.0	-39.0	20.4	0.00e+00	0	40	0	451936256	48	3598
2026-01-30 04:14:47.45	13.33	13.41	-38.9	-38.8	20.5	0.00e+00	0	40	0	458227712	48	3524
2026-01-30 04:14:48.45	13.31	13.51	-39.1	-39.1	20.3	0.00e+00	0	40	0	465567744	48	3620
2026-01-30 04:14:49.45	13.29	13.61	-38.9	-38.9	20.5	0.00e+00	0	40	0	472907776	48	3534
2026-01-30 04:14:50.44	13.27	13.71	-38.8	-38.8	20.5	0.00e+00	0	40	0	480247808	48	3518
2026-01-30 04:14:51.44	13.25	13.81	-38.8	-38.8	20.6	0.00e+00	0	40	0	487587840	48	3498
2026-01-30 04:14:52.44	13.23	13.91	-38.8	-38.8	20.6	0.00e+00	0	40	0	494927872	48	3507
2026-01-30 04:14:53.44	13.20	14.01	-38.7	-38.7	20.7	0.00e+00	0	40	0	502267904	48	3470
2026-01-30 04:14:54.43	13.18	14.11	-38.7	-38.7	20.7	0.00e+00	0	40	0	509607936	48	3465
2026-01-30 04:14:55.44	13.16	14.21	-38.4	-38.4	20.7	0.00e+00	0	40	0	516947968	47	3542
2026-01-30 04:14:56.43	13.14	14.32	-38.5	-38.5	20.6	0.00e+00	0	40	0	523239424	47	3598
2026-01-30 04:14:57.43	13.12	14.42	-38.4	-38.5	20.7	0.00e+00	0	40	0	530579456	47	3580
2026-01-30 04:14:58.42	13.10	14.52	-38.5	-38.5	20.6	0.00e+00	0	40	0	537919488	47	3601
2026-01-30 04:14:59.42	13.08	14.63	-38.4	-38.5	20.7	0.00e+00	0	40	0	545259520	47	3573
2026-01-30 04:15:00.42	13.05	14.73	-38.5	-38.6	20.6	0.00e+00	0	40	0	552599552	47	3615
2026-01-30 04:15:01.42	13.03	14.84	-38.3	-38.3	20.8	0.00e+00	0	40	0	559939584	47	3518
2026-01-30 04:15:02.41	13.01	14.94	-38.3	-38.4	20.8	0.00e+00	0	40	0	567279616	47	3530
2026-01-30 04:15:03.41	12.99	15.05	-38.3	-38.3	20.8	0.00e+00	0	40	0	573571072	47	3524
2026-01-30 04:15:04.41	12.96	15.15	-38.4	-38.4	20.8	0.00e+00	0	40	0	580911104	47	3543
2026-01-30 04:15:05.41	12.94	15.26	-38.4	-38.4	20.8	0.00e+00	0	40	0	588251136	47	3538
2026-01-30 04:15:06.41	12.92	15.37	-38.2	-38.2	20.9	0.00e+00	0	40	0	595591168	47	3476
2026-01-30 04:15:07.41	12.89	15.47	-38.3	-38.3	20.8	0.00e+00	0	40	0	602931200	47	3527
2026-01-30 04:15:08.40	12.87	15.58	-38.2	-38.2	20.9	0.00e+00	0	40	0	610271232	47	3486
2026-01-30 04:15:09.40	12.85	15.69	-38.2	-38.2	20.9	0.00e+00	0	40	0	617611264	47	3482
2026-01-30 04:15:10.40	12.82	15.80	-38.2	-38.2	21.0	0.00e+00	0	40	0	623902720	47	3451
2026-01-30 04:15:11.40	12.80	15.91	-38.3	-38.3	20.9	0.00e+00	0	40	0	631242752	47	3501
2026-01-30 04:15:12.40	12.77	16.02	-38.1	-38.1	21.1	0.00e+00	0	40	0	638582784	46	3620
2026-01-30 04:15:13.40	12.75	16.13	-38.1	-38.1	21.0	0.00e+00	0	40	0	645922816	46	3649
2026-01-30 04:15:14.39	12.73	16.24	-38.1	-38.0	21.1	0.00e+00	0	40	0	653262848	46	3606
2026-01-30 04:15:15.40	12.70	16.35	-38.0	-37.9	21.2	0.00e+00	0	40	0	660602880	46	3563
2026-01-30 04:15:16.39	12.68	16.46	-37.8	-37.8	21.3	0.00e+00	0	40	0	667942912	46	3506
2026-01-30 04:15:17.39	12.65	16.57	-38.0	-37.9	21.2	0.00e+00	0	40	0	675282944	46	3558
2026-01-30 04:15:18.39	12.62	16.69	-37.8	-37.8	21.4	0.00e+00	0	40	0	682622976	46	3488
2026-01-30 04:15:19.39	12.60	16.80	-37.7	-37.6	21.5	0.00e+00	0	40	0	688914432	46	3445
2026-01-30 04:15:20.39	12.57	16.91	-37.6	-37.5	21.6	0.00e+00	0	40	0	696254464	46	3402
2026-01-30 04:15:21.38	12.55	17.03	-37.7	-37.7	21.4	0.00e+00	0	40	0	703594496	46	3472
2026-01-30 04:15:22.38	12.52	17.14	-37.8	-37.8	21.3	0.00e+00	0	40	0	710934528	46	3510
2026-01-30 04:15:23.37	12.49	17.26	-37.5	-37.5	21.6	0.00e+00	0	40	0	718274560	45	3579
2026-01-30 04:15:24.37	12.47	17.37	-37.6	-37.6	21.4	0.00e+00	0	40	0	725614592	45	3619
2026-01-30 04:15:25.37	12.44	17.49	-37.8	-37.7	21.4	0.00e+00	0	40	0	732954624	45	3684
2026-01-30 04:15:26.37	12.41	17.61	-37.7	-37.6	21.5	0.00e+00	0	40	0	740294656	45	3632
2026-01-30 04:15:27.36	12.38	17.72	-37.2	-37.2	21.9	0.00e+00	0	41	0	746586112	45	3459
2026-01-30 04:15:28.36	12.36	17.84	-37.3	-37.2	21.8	0.00e+00	0	41	0	753926144	45	3484
2026-01-30 04:15:29.36	12.33	17.96	-37.3	-37.2	21.9	0.00e+00	0	40	0	761266176	45	3465
2026-01-30 04:15:30.36	12.30	18.08	-37.2	-37.1	21.9	0.00e+00	0	40	0	768606208	45	3432
2026-01-30 04:15:31.35	12.27	18.20	-37.3	-37.2	21.9	0.00e+00	0	40	0	775946240	45	3456
2026-01-30 04:15:32.35	12.24	18.32	-37.3	-37.3	21.8	0.00e+00	0	40	0	783286272	45	3495
2026-01-30 04:15:33.35	12.21	18.44	-37.2	-37.1	21.9	0.00e+00	0	40	0	789577728	45	3437
2026-01-30 04:15:34.35	12.18	18.56	-37.2	-37.1	22.0	0.00e+00	0	40	0	796917760	45	3440
2026-01-30 04:15:35.34	12.15	18.69	-37.2	-37.1	22.0	0.00e+00	0	40	0	804257792	45	3417
2026-01-30 04:15:36.34	12.12	18.81	-37.2	-37.1	21.9	0.00e+00	0	40	0	811597824	45	3436
2026-01-30 04:15:37.34	12.09	18.93	-37.1	-37.1	22.0	0.00e+00	0	40	0	818937856	44	3614
2026-01-30 04:15:38.34	12.06	19.06	-37.3	-37.2	21.9	0.00e+00	0	40	0	826277888	44	3685
2026-01-30 04:15:39.34	12.03	19.18	-37.2	-37.2	21.9	0.00e+00	0	40	0	833617920	44	3654
2026-01-30 04:15:40.33	12.00	19.31	-37.3	-37.3	21.8	0.00e+00	0	40	0	840957952	44	3702
2026-01-30 04:15:41.33	11.97	19.43	-37.1	-37.1	22.0	0.00e+00	0	41	0	848297984	44	3619
2026-01-30 04:15:42.33	11.94	19.56	-37.3	-37.3	21.8	0.00e+00	0	40	0	854589440	44	3703
2026-01-30 04:15:43.34	11.90	19.69	-37.1	-37.1	22.0	0.00e+00	0	40	0	861929472	44	3617
2026-01-30 04:15:44.33	11.87	19.81	-37.2	-37.1	21.9	0.00e+00	0	40	0	869269504	44	3651
2026-01-30 04:15:45.34	11.84	19.94	-37.2	-37.1	21.9	0.00e+00	0	40	0	876609536	44	3634
2026-01-30 04:15:46.33	11.81	20.07	-37.2	-37.2	21.9	0.00e+00	0	40	0	883949568	44	3653
2026-01-30 04:15:47.33	11.77	20.20	-37.3	-37.2	21.9	0.00e+00	0	40	0	891289600	44	3673
2026-01-30 04:15:48.33	11.74	20.33	-37.1	-37.1	22.0	0.00e+00	0	41	0	898629632	44	3611
2026-01-30 04:15:49.33	11.70	20.46	-37.1	-37.1	22.0	0.00e+00	0	40	0	905969664	44	3618
2026-01-30 04:15:50.32	11.67	20.60	-37.2	-37.2	21.9	0.00e+00	0	40	0	912261120	44	3663
2026-01-30 04:15:51.32	11.64	20.73	-37.2	-37.1	22.0	0.00e+00	0	40	0	919601152	44	3641
2026-01-30 04:15:52.32	11.60	20.86	-37.1	-37.0	22.1	0.00e+00	0	40	0	926941184	44	3591
2026-01-30 04:15:53.31	11.57	21.00	-37.2	-37.2	21.9	0.00e+00	0	40	0	934281216	44	3658
2026-01-30 04:15:54.31	11.53	21.13	-37.2	-37.1	22.0	0.00e+00	0	40	0	941621248	44	3636
2026-01-30 04:15:55.31	11.49	21.27	-37.1	-37.0	22.1	0.00e+00	0	40	0	948961280	44	3600
2026-01-30 04:15:56.31	11.46	21.40	-37.2	-37.1	22.0	0.00e+00	0	40	0	955252736	44	3624
2026-01-30 04:15:57.31	11.42	21.54	-37.2	-37.1	22.0	0.00e+00	0	40	0	962592768	44	3617
2026-01-30 04:15:58.30	11.38	21.68	-37.1	-37.0	22.1	0.00e+00	0	41	0	969932800	44	3605
2026-01-30 04:15:59.30	11.35	21.81	-37.2	-37.1	22.0	0.00e+00	0	40	0	977272832	44	3613
2026-01-30 04:16:00.29	11.31	21.95	-37.3	-37.2	21.8	0.00e+00	0	41	0	984612864	44	3684
2026-01-30 04:16:01.29	11.27	22.09	-37.2	-37.1	21.9	0.00e+00	0	41	0	991952896	44	3652
2026-01-30 04:16:02.29	11.23	22.23	-37.3	-37.2	21.9	0.00e+00	0	40	0	999292928	44	3665
2026-01-30 04:16:03.28	11.19	22.37	-37.1	-37.1	22.1	0.00e+00	0	40	0	1006632960	44	3614
2026-01-30 04:16:04.28	11.15	22.52	-37.2	-37.1	22.0	0.00e+00	0	40	0	1013972992	44	3638
2026-01-30 04:16:05.27	11.11	22.66	-37.1	-37.0	22.1	0.00e+00	0	41	0	1020264448	44	3602
2026-01-30 04:16:06.27	11.07	22.80	-37.2	-37.1	22.0	0.00e+00	0	41	0	1027604480	44	3612
2026-01-30 04:16:07.26	11.03	22.94	-37.2	-37.1	22.1	0.00e+00	0	40	0	1034944512	44	3623
2026-01-30 04:16:08.26	10.99	23.09	-37.1	-37.0	22.1	0.00e+00	0	41	0	1042284544	44	3572
2026-01-30 04:16:09.25	10.95	23.24	-37.1	-37.0	22.1	0.00e+00	0	41	0	1049624576	44	3588
2026-01-30 04:16:10.25	10.91	23.38	-37.2	-37.1	22.0	0.00e+00	0	41	0	1055916032	44	3621
2026-01-30 04:16:11.25	10.87	23.53	-37.0	-36.9	22.2	0.00e+00	0	41	0	1063256064	44	3563
2026-01-30 04:16:12.24	10.83	23.68	-36.9	-36.8	22.3	0.00e+00	0	40	0	1070596096	44	3520
2026-01-30 04:16:13.24	10.78	23.83	-37.0	-36.9	22.2	0.00e+00	0	40	0	1077936128	44	3543
2026-01-30 04:16:14.24	10.74	23.98	-36.8	-36.7	22.4	0.00e+00	0	41	0	1085276160	44	3474
2026-01-30 04:16:15.24	10.70	24.13	-36.6	-36.5	22.6	0.00e+00	0	41	0	1092616192	44	3397
2026-01-30 04:16:16.24	10.65	24.28	-36.6	-36.5	22.5	0.00e+00	0	40	0	1099956224	44	3383
2026-01-30 04:16:17.23	10.61	24.43	-36.4	-36.3	22.6	0.00e+00	0	40	0	1107296256	43	3500
2026-01-30 04:16:18.23	10.56	24.59	-36.3	-36.2	22.7	0.00e+00	0	41	0	1114636288	43	3460
2026-01-30 04:16:19.23	10.51	24.74	-36.3	-36.2	22.7	0.00e+00	0	40	0	1120927744	43	3451
2026-01-30 04:16:20.23	10.47	24.90	-36.3	-36.1	22.7	0.00e+00	0	41	0	1128267776	43	3440
2026-01-30 04:16:21.22	10.42	25.05	-36.2	-36.1	22.8	0.00e+00	0	41	0	1135607808	43	3423
2026-01-30 04:16:22.22	10.37	25.21	-36.1	-36.0	22.9	0.00e+00	0	41	0	1142947840	43	3382
2026-01-30 04:16:23.22	10.33	25.37	-36.1	-36.0	22.8	0.00e+00	0	41	0	1150287872	43	3386
2026-01-30 04:16:24.22	10.28	25.53	-36.1	-36.0	22.8	0.00e+00	0	41	0	1157627904	42	3591
2026-01-30 04:16:25.22	10.23	25.69	-36.0	-35.9	23.0	0.00e+00	0	40	0	1164967936	42	3541
2026-01-30 04:16:26.21	10.18	25.85	-36.0	-35.9	23.0	0.00e+00	0	41	0	1172307968	42	3529
2026-01-30 04:16:27.21	10.13	26.01	-36.0	-35.9	23.0	0.00e+00	0	40	0	1178599424	42	3531
2026-01-30 04:16:28.20	10.08	26.17	-36.0	-35.8	23.0	0.00e+00	0	41	0	1185939456	42	3517
2026-01-30 04:16:29.20	10.03	26.34	-36.0	-35.9	23.0	0.00e+00	0	41	0	1193279488	42	3540
2026-01-30 04:16:30.20	9.98	26.50	-36.0	-35.9	23.0	0.00e+00	0	41	0	1200619520	42	3547
2026-01-30 04:16:31.20	9.92	26.67	-36.0	-35.9	22.9	0.00e+00	0	41	0	1207959552	42	3546
2026-01-30 04:16:32.19	9.87	26.83	-36.0	-35.9	23.0	0.00e+00	0	40	0	1215299584	42	3545
2026-01-30 04:16:33.18	9.82	27.00	-36.0	-35.9	23.0	0.00e+00	0	41	0	1221591040	42	3545
2026-01-30 04:16:34.18	9.76	27.17	-36.1	-35.9	23.0	0.00e+00	0	40	0	1228931072	42	3560
2026-01-30 04:16:35.18	9.71	27.34	-36.2	-36.0	22.9	0.00e+00	0	40	0	1236271104	42	3600
2026-01-30 04:16:36.18	9.65	27.51	-36.1	-36.0	22.9	0.00e+00	0	41	0	1243611136	42	3579
2026-01-30 04:16:37.17	9.60	27.68	-36.0	-35.9	23.0	0.00e+00	0	41	0	1250951168	42	3555
2026-01-30 04:16:38.17	9.54	27.86	-36.2	-36.1	22.8	0.00e+00	0	40	0	1258291200	42	3626
2026-01-30 04:16:39.16	9.49	28.03	-36.1	-36.0	22.9	0.00e+00	0	41	0	1264582656	42	3589
2026-01-30 04:16:40.16	9.43	28.20	-36.2	-36.1	22.8	0.00e+00	0	41	0	1272971264	42	3635
2026-01-30 04:16:41.16	9.37	28.38	-36.1	-36.0	22.9	0.00e+00	0	41	0	1279262720	42	3590
2026-01-30 04:16:42.16	9.31	28.56	-36.1	-36.0	23.0	0.00e+00	0	40	0	1286602752	42	3570
2026-01-30 04:16:43.15	9.25	28.73	-36.1	-35.9	23.0	0.00e+00	0	41	0	1293942784	42	3564
2026-01-30 04:16:44.15	9.19	28.91	-36.0	-35.9	23.0	0.00e+00	0	40	0	1301282816	42	3547
2026-01-30 04:16:45.14	9.13	29.09	-36.1	-36.0	22.9	0.00e+00	0	41	0	1308622848	42	3597
2026-01-30 04:16:46.14	9.07	29.28	-35.9	-35.8	23.1	0.00e+00	0	41	0	1315962880	42	3518
2026-01-30 04:16:47.14	9.00	29.46	-36.1	-35.9	23.0	0.00e+00	0	40	0	1323302912	42	3561
2026-01-30 04:16:48.14	8.94	29.64	-35.9	-35.8	23.1	0.00e+00	0	41	0	1329594368	42	3509
2026-01-30 04:16:49.14	8.87	29.83	-35.7	-35.6	23.3	0.00e+00	0	41	0	1336934400	42	3415
2026-01-30 04:16:50.14	8.81	30.02	-35.7	-35.5	23.3	0.00e+00	0	40	0	1344274432	42	3401
2026-01-30 04:16:51.13	8.74	30.20	-35.6	-35.5	23.4	0.00e+00	0	41	0	1351614464	42	3382
2026-01-30 04:16:52.13	8.68	30.39	-35.6	-35.4	23.4	0.00e+00	0	41	0	1358954496	41	3554
2026-01-30 04:16:53.13	8.61	30.58	-35.7	-35.5	23.3	0.00e+00	0	41	0	1366294528	41	3597
2026-01-30 04:16:54.13	8.54	30.77	-35.7	-35.6	23.3	0.00e+00	0	40	0	1373634560	41	3626
2026-01-30 04:16:55.13	8.47	30.97	-35.7	-35.6	23.3	0.00e+00	0	41	0	1380974592	41	3625
2026-01-30 04:16:56.12	8.40	31.16	-35.7	-35.6	23.3	0.00e+00	0	40	0	1387266048	41	3615
2026-01-30 04:16:57.12	8.33	31.35	-35.8	-35.6	23.2	0.00e+00	0	40	0	1394606080	41	3647
2026-01-30 04:16:58.12	8.26	31.55	-35.7	-35.6	23.3	0.00e+00	0	41	0	1401946112	41	3617
2026-01-30 04:16:59.12	8.18	31.75	-35.8	-35.6	23.3	0.00e+00	0	41	0	1409286144	41	3644
2026-01-30 04:17:00.11	8.11	31.95	-35.8	-35.7	23.2	0.00e+00	0	41	0	1416626176	41	3657
2026-01-30 04:17:01.12	8.04	32.15	-35.8	-35.7	23.2	0.00e+00	0	41	0	1423966208	41	3662
2026-01-30 04:17:02.12	7.96	32.35	-35.7	-35.6	23.2	0.00e+00	0	41	0	1431306240	41	3627
2026-01-30 04:17:03.11	7.88	32.55	-35.8	-35.6	23.2	0.00e+00	0	41	0	1438646272	41	3645
2026-01-30 04:17:04.11	7.80	32.76	-35.9	-35.7	23.2	0.00e+00	0	41	0	1444937728	41	3685
2026-01-30 04:17:05.11	7.73	32.96	-35.9	-35.8	23.1	0.00e+00	0	41	0	1452277760	41	3718
2026-01-30 04:17:06.10	7.65	33.17	-36.1	-35.9	23.0	0.00e+00	0	41	0	1459617792	41	3769
2026-01-30 04:17:07.10	7.57	33.38	-36.0	-35.9	23.0	0.00e+00	0	41	0	1466957824	41	3747
2026-01-30 04:17:08.09	7.48	33.58	-36.1	-35.9	23.0	0.00e+00	0	41	0	1474297856	41	3780
2026-01-30 04:17:09.08	7.40	33.79	-35.9	-35.8	23.1	0.00e+00	0	41	0	1481637888	41	3708
2026-01-30 04:17:10.08	7.32	34.00	-35.9	-35.8	23.1	0.00e+00	0	41	0	1488977920	41	3701
2026-01-30 04:17:11.08	7.23	34.22	-35.9	-35.8	23.1	0.00e+00	0	41	0	1495269376	41	3699
2026-01-30 04:17:12.08	7.14	34.43	-35.7	-35.6	23.2	0.00e+00	0	41	0	1502609408	41	3631
2026-01-30 04:17:13.07	7.06	34.65	-35.7	-35.6	23.3	0.00e+00	0	41	0	1509949440	41	3620
2026-01-30 04:17:14.07	6.97	34.87	-35.8	-35.7	23.2	0.00e+00	0	41	0	1517289472	41	3653
2026-01-30 04:17:15.07	6.88	35.09	-35.7	-35.6	23.3	0.00e+00	0	41	0	1524629504	41	3632
2026-01-30 04:17:16.07	6.79	35.31	-35.8	-35.6	23.2	0.00e+00	0	41	0	1531969536	41	3650
2026-01-30 04:17:17.06	6.69	35.53	-35.9	-35.8	23.1	0.00e+00	0	41	0	1538260992	41	3695
2026-01-30 04:17:18.05	6.60	35.75	-35.9	-35.7	23.2	0.00e+00	0	41	0	1545601024	41	3686
2026-01-30 04:17:19.05	6.50	35.98	-35.7	-35.6	23.2	0.00e+00	0	40	0	1552941056	41	3621
2026-01-30 04:17:20.05	6.41	36.20	-35.8	-35.7	23.2	0.00e+00	0	41	0	1560281088	41	3663
2026-01-30 04:17:21.04	6.31	36.43	-35.9	-35.7	23.2	0.00e+00	0	41	0	1567621120	41	3683
2026-01-30 04:17:22.04	6.21	36.66	-36.0	-35.8	23.1	0.00e+00	0	41	0	1574961152	41	3724
2026-01-30 04:17:23.04	6.11	36.89	-36.2	-36.1	22.8	0.00e+00	0	40	0	1582301184	41	3856
2026-01-30 04:17:24.03	6.01	37.12	-36.1	-35.9	23.0	0.00e+00	0	41	0	1589641216	41	3767
2026-01-30 04:17:25.03	5.90	37.36	-36.1	-36.0	22.9	0.00e+00	0	41	0	1595932672	41	3804
2026-01-30 04:17:26.03	5.79	37.59	-36.1	-36.0	22.9	0.00e+00	0	41	0	1603272704	41	3807
2026-01-30 04:17:27.02	5.69	37.83	-36.1	-36.0	23.0	0.00e+00	0	41	0	1610612736	41	3787
2026-01-30 04:17:28.02	5.58	38.07	-36.2	-36.1	21.3	0.00e+00	0	41	0	1617952768	41	3832
2026-01-30 04:17:29.02	5.47	38.31	-36.1	-36.0	22.9	0.00e+00	0	41	0	1625292800	41	3806
2026-01-30 04:17:30.02	5.35	38.55	-36.1	-35.9	23.0	0.00e+00	0	41	0	1632632832	41	3762
2026-01-30 04:17:31.02	5.24	38.80	-35.9	-35.7	23.2	0.00e+00	0	41	0	1639972864	41	3691
2026-01-30 04:17:32.02	5.12	39.04	-35.9	-35.7	23.2	0.00e+00	0	41	0	1647312896	41	3690
2026-01-30 04:17:33.01	5.01	39.29	-35.9	-35.7	23.2	0.00e+00	0	41	0	1654652928	41	3688
2026-01-30 04:17:34.01	4.89	39.54	-35.8	-35.6	23.2	0.00e+00	0	41	0	1660944384	41	3652
2026-01-30 04:17:35.00	4.77	39.78	-35.8	-35.6	23.2	0.00e+00	0	41	0	1668284416	41	3646
2026-01-30 04:17:36.00	4.64	40.04	-36.0	-35.9	23.1	0.00e+00	0	41	0	1675624448	41	3747
2026-01-30 04:17:37.00	4.52	40.29	-36.0	-35.9	23.1	0.00e+00	0	41	0	1682964480	41	3746
2026-01-30 04:17:38.00	4.39	40.55	-36.2	-36.1	22.9	0.00e+00	0	41	0	1690304512	41	3833
2026-01-30 04:17:38.99	4.26	40.80	-36.4	-36.3	22.8	0.00e+00	0	41	0	1696595968	42	3704
2026-01-30 04:17:39.99	4.13	41.06	-36.6	-36.5	22.6	0.00e+00	0	41	0	1703936000	42	3791
2026-01-30 04:17:40.99	3.99	41.32	-36.7	-36.6	22.5	0.00e+00	0	41	0	1711276032	43	3624
2026-01-30 04:17:41.98	3.86	41.58	-36.6	-36.5	22.6	0.00e+00	0	41	0	1718616064	43	3577
2026-01-30 04:17:42.98	3.72	41.85	-36.6	-36.5	22.5	0.00e+00	0	41	0	1725956096	43	3604
2026-01-30 04:17:43.98	3.58	42.11	-36.7	-36.6	22.5	0.00e+00	0	41	0	1733296128	43	3624
2026-01-30 04:17:44.98	3.43	42.38	-36.6	-36.5	22.5	0.00e+00	0	41	0	1740636160	43	3591
2026-01-30 04:17:45.98	3.29	42.65	-36.4	-36.3	22.7	0.00e+00	0	41	0	1747976192	43	3495
2026-01-30 04:17:46.98	3.14	42.92	-36.2	-36.1	22.9	0.00e+00	0	41	0	1755316224	43	3411
2026-01-30 04:17:47.97	2.99	43.19	-36.2	-36.1	22.9	0.00e+00	0	41	0	1761607680	42	3630
2026-01-30 04:17:48.97	2.84	43.46	-36.4	-36.2	22.8	0.00e+00	0	41	0	1768947712	42	3687
2026-01-30 04:17:49.97	2.68	43.74	-36.3	-36.2	22.8	0.00e+00	0	41	0	1776287744	42	3666
2026-01-30 04:17:50.96	2.52	44.02	-36.4	-36.3	22.7	0.00e+00	0	41	0	1783627776	42	3706
2026-01-30 04:17:51.96	2.36	44.30	-36.4	-36.2	22.8	0.00e+00	0	41	0	1790967808	42	3691
2026-01-30 04:17:52.96	2.19	44.58	-36.4	-36.3	22.8	0.00e+00	0	41	0	1798307840	42	3704
2026-01-30 04:17:53.96	2.02	44.86	-36.6	-36.5	22.5	0.00e+00	0	41	0	1804599296	42	3812
2026-01-30 04:17:54.96	1.85	45.15	-36.9	-36.8	22.3	0.00e+00	0	41	0	1811939328	43	3710
2026-01-30 04:17:55.95	1.68	45.43	-37.1	-37.0	22.1	0.00e+00	0	40	0	1819279360	43	3807
2026-01-30 04:17:56.94	1.50	45.72	-37.2	-37.1	22.0	0.00e+00	0	41	0	1826619392	43	3839
2026-01-30 04:17:57.94	1.32	46.01	-37.2	-37.1	22.1	0.00e+00	0	41	0	1833959424	43	3856
2026-01-30 04:17:58.94	1.14	46.30	-37.4	-37.3	22.0	0.00e+00	0	41	0	1841299456	44	3700
2026-01-30 04:17:59.94	0.95	46.59	-37.5	-37.4	21.9	0.00e+00	0	41	0	1848639488	45	3566
2026-01-30 04:18:00.94	0.76	46.89	-37.5	-37.4	21.9	0.00e+00	0	41	0	1855979520	45	3556
2026-01-30 04:18:01.94	0.56	47.19	-37.2	-37.1	22.1	0.00e+00	0	41	0	1862270976	45	3445
2026-01-30 04:18:02.94	0.36	47.49	-37.2	-37.0	22.2	0.00e+00	0	41	0	1869611008	45	3406
2026-01-30 04:18:03.94	0.16	47.79	-37.1	-37.0	22.3	0.00e+00	0	41	0	1876951040	44	3583
2026-01-30 04:18:04.94	359.95	48.09	-37.2	-37.1	22.2	0.00e+00	0	41	0	1884291072	44	3624
2026-01-30 04:18:05.94	359.74	48.39	-37.3	-37.2	22.1	0.00e+00	0	41	0	1891631104	44	3679
2026-01-30 04:18:06.94	359.53	48.70	-37.4	-37.3	22.0	0.00e+00	0	41	0	1898971136	44	3721
2026-01-30 04:18:07.94	359.31	49.01	-37.5	-37.4	21.9	0.00e+00	0	41	0	1906311168	44	3750
2026-01-30 04:18:08.94	359.08	49.32	-37.7	-37.6	21.7	0.00e+00	0	41	0	1913651200	45	3626
2026-01-30 04:18:09.94	358.85	49.63	-37.3	-37.2	22.0	0.00e+00	0	41	0	1920991232	45	3472
2026-01-30 04:18:10.93	358.62	49.94	-37.6	-37.5	21.8	0.00e+00	0	41	0	1927282688	45	3593
2026-01-30 04:18:11.94	358.38	50.26	-37.5	-37.4	21.9	0.00e+00	0	41	0	1934622720	45	3534
2026-01-30 04:18:12.94	358.13	50.57	-37.4	-37.3	22.0	0.00e+00	0	41	0	1941962752	45	3495
2026-01-30 04:18:13.93	357.89	50.89	-37.4	-37.3	21.9	0.00e+00	0	41	0	1949302784	45	3523
2026-01-30 04:18:14.93	357.63	51.21	-37.5	-37.4	21.8	0.00e+00	0	41	0	1956642816	45	3564
2026-01-30 04:18:15.93	357.37	51.53	-37.5	-37.4	21.8	0.00e+00	0	41	0	1963982848	45	3561
2026-01-30 04:18:16.93	357.10	51.85	-38.0	-37.9	21.4	0.00e+00	0	41	0	1971322880	45	3754
2026-01-30 04:18:17.92	356.84	52.17	-38.3	-38.2	21.2	0.00e+00	0	41	0	1978662912	45	3913
2026-01-30 04:18:18.92	356.56	52.49	-38.2	-38.1	21.3	0.00e+00	0	41	0	1984954368	46	3638
2026-01-30 04:18:19.92	356.27	52.82	-37.5	-37.4	21.9	0.00e+00	0	41	0	1992294400	45	3549
2026-01-30 04:18:20.92	355.98	53.15	-37.3	-37.2	22.0	0.00e+00	0	41	0	1999634432	45	3480
2026-01-30 04:18:21.91	355.69	53.48	-37.4	-37.3	21.9	0.00e+00	0	41	0	2006974464	45	3523
2026-01-30 04:18:22.91	355.38	53.81	-37.5	-37.3	22.0	0.00e+00	0	41	0	2014314496	45	3528
2026-01-30 04:18:23.90	355.07	54.14	-37.5	-37.4	21.9	0.00e+00	0	41	0	2021654528	45	3555
2026-01-30 04:18:24.90	354.75	54.47	-37.8	-37.8	21.6	0.00e+00	0	41	0	2027945984	45	3696
2026-01-30 04:18:25.91	354.42	54.81	-37.7	-37.7	21.7	0.00e+00	0	41	0	2035286016	45	3656
2026-01-30 04:18:26.90	354.09	55.14	-38.0	-38.0	21.4	0.00e+00	0	41	0	2042626048	45	3782
2026-01-30 04:18:27.90	353.75	55.48	-38.0	-37.9	21.5	0.00e+00	0	41	0	2049966080	45	3758
2026-01-30 04:18:28.90	353.40	55.82	-38.1	-38.0	21.4	0.00e+00	0	41	0	2057306112	45	3806
2026-01-30 04:18:29.89	353.04	56.15	-38.1	-38.1	21.3	0.00e+00	0	41	0	2064646144	45	3835
2026-01-30 04:18:30.89	352.67	56.49	-38.3	-38.3	21.0	0.00e+00	0	41	0	2071986176	46	3721
2026-01-30 04:18:31.88	352.30	56.83	-38.0	-38.0	21.4	0.00e+00	0	41	0	2079326208	46	3576
2026-01-30 04:18:32.88	351.91	57.17	-38.1	-38.1	21.3	0.00e+00	0	41	0	2086666240	46	3621
2026-01-30 04:18:33.88	351.51	57.51	-38.0	-38.0	21.4	0.00e+00	0	41	0	2092957696	46	3580
2026-01-30 04:18:34.87	351.11	57.85	-37.9	-37.8	21.6	0.00e+00	0	41	0	2100297728	46	3501
2026-01-30 04:18:35.87	350.69	58.20	-37.6	-37.6	21.8	0.00e+00	0	41	0	2107637760	45	3613
2026-01-30 04:18:36.87	350.26	58.54	-37.7	-37.6	21.7	0.00e+00	0	41	0	2114977792	45	3625
2026-01-30 04:18:37.87	349.82	58.89	-37.6	-37.6	21.8	0.00e+00	0	41	0	2122317824	45	3615
2026-01-30 04:18:38.86	349.37	59.23	-37.7	-37.6	21.7	0.00e+00	0	41	0	2129657856	45	3641
2026-01-30 04:18:39.86	348.91	59.58	-37.9	-37.9	21.5	0.00e+00	0	41	0	2136997888	45	3740
2026-01-30 04:18:40.86	348.43	59.92	-37.3	-37.2	22.0	0.00e+00	0	41	0	2144337920	45	3458
2026-01-30 04:18:41.86	347.94	60.27	-37.2	-37.1	22.2	0.00e+00	0	41	0	2150629376	44	3633
2026-01-30 04:18:42.85	347.44	60.61	-37.2	-37.1	22.2	0.00e+00	0	41	0	2157969408	44	3611
2026-01-30 04:18:43.85	346.92	60.96	-37.1	-37.0	22.3	0.00e+00	0	41	0	2165309440	44	3583
2026-01-30 04:18:44.84	346.40	61.30	-37.3	-37.2	22.1	0.00e+00	0	41	0	2172649472	44	3674
2026-01-30 04:18:45.84	345.85	61.64	-37.5	-37.4	21.8	0.00e+00	0	41	0	2179989504	44	3772
2026-01-30 04:18:46.83	345.29	61.98	-37.8	-37.7	21.5	0.00e+00	0	41	0	2187329536	45	3690
2026-01-30 04:18:47.83	344.71	62.33	-37.5	-37.4	21.9	0.00e+00	0	41	0	2193620992	45	3562
2026-01-30 04:18:48.83	344.12	62.67	-37.1	-37.0	22.2	0.00e+00	0	41	0	2200961024	44	3571
2026-01-30 04:18:49.83	343.51	63.01	-36.3	-36.2	22.8	0.00e+00	0	41	0	2208301056	43	3471
2026-01-30 04:18:50.83	342.87	63.35	-36.1	-35.9	23.1	0.00e+00	0	41	0	2215641088	42	3549
2026-01-30 04:18:51.83	342.23	63.69	-36.4	-36.3	22.7	0.00e+00	0	41	0	2222981120	43	3496
2026-01-30 04:18:52.83	341.56	64.03	-36.7	-36.6	22.4	0.00e+00	0	41	0	2230321152	43	3642
2026-01-30 04:18:53.83	340.87	64.37	-36.8	-36.7	22.4	0.00e+00	0	41	0	2237661184	43	3682
2026-01-30 04:18:54.82	340.17	64.70	-36.9	-36.8	22.3	0.00e+00	0	41	0	2245001216	43	3700
2026-01-30 04:18:55.82	339.44	65.03	-36.6	-36.5	22.5	0.00e+00	0	41	0	2252341248	43	3576
2026-01-30 04:18:56.80	338.70	65.35	-36.1	-36.0	22.9	0.00e+00	0	41	0	2258632704	43	3373
2026-01-30 04:18:57.80	337.93	65.68	-36.1	-35.9	23.0	0.00e+00	0	41	0	2265972736	42	3565
2026-01-30 04:18:58.80	337.13	66.00	-36.1	-35.9	23.0	0.00e+00	0	41	0	2273312768	42	3564
2026-01-30 04:18:59.79	336.32	66.32	-35.9	-35.8	23.1	0.00e+00	0	41	0	2280652800	42	3499
2026-01-30 04:19:00.79	335.47	66.64	-35.7	-35.5	23.3	0.00e+00	0	41	0	2287992832	42	3389
2026-01-30 04:19:01.79	334.60	66.95	-35.3	-35.1	23.6	0.00e+00	0	41	0	2295332864	41	3444
2026-01-30 04:19:02.78	333.71	67.26	-36.0	-35.9	23.1	0.00e+00	0	41	0	2301624320	41	3738
2026-01-30 04:19:03.78	332.78	67.57	-35.9	-35.8	23.1	0.00e+00	0	41	0	2308964352	41	3703
2026-01-30 04:19:04.78	331.83	67.87	-36.0	-35.8	23.1	0.00e+00	0	41	0	2316304384	41	3731
2026-01-30 04:19:05.77	330.86	68.17	-36.0	-35.9	23.0	0.00e+00	0	41	0	2323644416	41	3755
2026-01-30 04:19:06.77	329.85	68.46	-35.9	-35.8	23.2	0.00e+00	0	41	0	2330984448	42	3494
2026-01-30 04:19:07.77	328.81	68.74	-36.1	-36.0	23.0	0.00e+00	0	41	0	2338324480	42	3574
2026-01-30 04:19:08.77	327.74	69.03	-36.2	-36.1	22.9	0.00e+00	0	41	0	2345664512	42	3632
2026-01-30 04:19:09.76	326.65	69.30	-36.3	-36.1	22.8	0.00e+00	0	41	0	2353004544	42	3648
2026-01-30 04:19:10.76	325.51	69.57	-36.4	-36.3	22.7	0.00e+00	0	41	0	2359296000	42	3707
2026-01-30 04:19:11.76	324.35	69.83	-36.3	-36.2	22.8	0.00e+00	0	41	0	2366636032	42	3666
2026-01-30 04:19:12.76	323.15	70.08	-36.1	-36.0	23.0	0.00e+00	0	41	0	2373976064	42	3582
2026-01-30 04:19:13.76	321.92	70.33	-36.0	-35.8	23.1	0.00e+00	0	41	0	2381316096	42	3524
2026-01-30 04:19:14.77	320.64	70.57	-35.8	-35.7	23.2	0.00e+00	0	41	0	2388656128	42	3456
2026-01-30 04:19:15.76	319.36	70.79	-36.1	-36.0	22.9	0.00e+00	0	41	0	2395996160	42	3578
2026-01-30 04:19:16.76	318.03	71.02	-36.5	-36.4	22.5	0.00e+00	0	41	0	2403336192	42	3755
2026-01-30 04:19:17.76	316.66	71.23	-36.3	-36.1	22.8	0.00e+00	0	41	0	2410676224	42	3646
2026-01-30 04:19:18.75	315.28	71.43	-36.2	-36.0	22.9	0.00e+00	0	41	0	2418016256	42	3609
2026-01-30 04:19:19.75	313.86	71.62	-36.1	-36.0	22.9	0.00e+00	0	41	0	2424307712	42	3586
2026-01-30 04:19:20.75	312.40	71.80	-36.2	-36.0	22.8	0.00e+00	0	41	0	2431647744	42	3607
2026-01-30 04:19:21.75	310.91	71.97	-36.0	-35.8	23.0	0.00e+00	0	41	0	2438987776	42	3509
2026-01-30 04:19:22.75	309.40	72.12	-36.1	-35.9	22.9	0.00e+00	0	41	0	2446327808	42	3561
2026-01-30 04:19:23.75	307.86	72.27	-36.3	-36.2	22.7	0.00e+00	0	41	0	2453667840	42	3672
2026-01-30 04:19:24.75	306.29	72.40	-36.1	-36.0	22.9	0.00e+00	0	41	0	2461007872	42	3576
2026-01-30 04:19:25.75	304.69	72.52	-36.1	-35.9	23.0	0.00e+00	0	41	0	2468347904	42	3564
2026-01-30 04:19:26.75	303.08	72.63	-36.3	-36.2	22.8	0.00e+00	0	41	0	2475687936	42	3653
2026-01-30 04:19:27.75	301.44	72.73	-36.1	-36.0	23.0	0.00e+00	0	41	0	2481979392	42	3584
2026-01-30 04:19:28.76	299.77	72.81	-36.3	-36.1	22.8	0.00e+00	0	41	0	2489319424	42	3639
2026-01-30 04:19:29.76	298.10	72.88	-36.1	-36.0	23.0	0.00e+00	0	41	0	2496659456	42	3571
2026-01-30 04:19:30.76	296.42	72.93	-36.2	-36.1	22.8	0.00e+00	0	41	0	2503999488	42	3628
2026-01-30 04:19:31.76	294.73	72.97	-36.0	-35.8	23.0	0.00e+00	0	41	0	2511339520	42	3515
2026-01-30 04:19:32.76	293.03	72.99	-35.9	-35.8	23.1	0.00e+00	0	41	0	2518679552	42	3489
2026-01-30 04:19:33.75	291.35	73.00	-35.8	-35.6	23.2	0.00e+00	0	41	0	2526019584	41	3647
2026-01-30 04:19:34.76	289.63	73.00	-35.9	-35.8	23.1	0.00e+00	0	41	0	2533359616	41	3712
2026-01-30 04:19:35.75	287.95	72.98	-36.1	-35.9	22.9	0.00e+00	0	41	0	2540699648	41	3769
2026-01-30 04:19:36.75	286.25	72.95	-35.9	-35.8	23.1	0.00e+00	0	41	0	2546991104	41	3696
2026-01-30 04:19:37.75	284.57	72.91	-35.7	-35.5	23.2	0.00e+00	0	41	0	2554331136	41	3602
2026-01-30 04:19:38.75	282.89	72.85	-35.8	-35.6	23.2	0.00e+00	0	41	0	2561671168	41	3639
2026-01-30 04:19:39.75	281.23	72.77	-36.0	-35.9	23.0	0.00e+00	0	41	0	2569011200	41	3746
2026-01-30 04:19:40.74	279.60	72.68	-35.9	-35.8	23.0	0.00e+00	0	41	0	2576351232	41	3711
2026-01-30 04:19:41.74	277.97	72.58	-35.9	-35.7	23.1	0.00e+00	0	41	0	2583691264	41	3680
2026-01-30 04:19:42.74	276.36	72.47	-35.8	-35.7	23.2	0.00e+00	0	41	0	2589982720	41	3674
2026-01-30 04:19:43.74	274.78	72.34	-35.9	-35.8	23.1	0.00e+00	0	41	0	2597322752	41	3700
2026-01-30 04:19:44.73	273.24	72.21	-36.2	-36.1	22.8	0.00e+00	0	41	0	2604662784	41	3849
2026-01-30 04:19:45.73	271.71	72.05	-36.4	-36.3	22.6	0.00e+00	0	41	0	2612002816	42	3729
2026-01-30 04:19:46.74	270.19	71.89	-36.5	-36.4	22.6	0.00e+00	0	41	0	2619342848	42	3744
2026-01-30 04:19:47.74	268.71	71.71	-36.2	-36.1	22.8	0.00e+00	0	41	0	2626682880	42	3622
2026-01-30 04:19:48.74	267.27	71.53	-35.9	-35.8	23.1	0.00e+00	0	41	0	2634022912	42	3493
2026-01-30 04:19:49.74	265.86	71.33	-35.6	-35.4	23.4	0.00e+00	0	41	0	2641362944	42	3369
2026-01-30 04:19:50.74	264.48	71.13	-35.7	-35.6	23.2	0.00e+00	0	41	0	2647654400	41	3626
2026-01-30 04:19:51.74	263.13	70.91	-35.9	-35.7	23.1	0.00e+00	0	41	0	2654994432	41	3690
2026-01-30 04:19:52.73	261.83	70.69	-36.3	-36.2	22.7	0.00e+00	0	41	0	2662334464	41	3876
2026-01-30 04:19:53.72	260.55	70.46	-36.4	-36.3	22.6	0.00e+00	0	41	0	2669674496	42	3703
2026-01-30 04:19:54.72	259.30	70.21	-36.1	-36.0	22.8	0.00e+00	0	41	0	2677014528	42	3593
2026-01-30 04:19:55.72	258.09	69.96	-36.0	-35.8	23.0	0.00e+00	0	41	0	2684354560	42	3526
2026-01-30 04:19:56.72	256.90	69.71	-36.1	-36.0	22.9	0.00e+00	0	41	0	2691694592	42	3576
2026-01-30 04:19:57.72	255.75	69.44	-36.0	-35.8	22.9	0.00e+00	0	41	0	2699034624	42	3514
2026-01-30 04:19:58.72	254.63	69.17	-35.9	-35.7	23.1	0.00e+00	0	41	0	2706374656	42	3480
2026-01-30 04:19:59.73	253.53	68.89	-35.6	-35.5	23.2	0.00e+00	0	41	0	2712666112	41	3579
2026-01-30 04:20:00.73	252.47	68.60	-35.7	-35.6	23.2	0.00e+00	0	41	0	2720006144	41	3614
2026-01-30 04:20:01.73	251.44	68.31	-35.6	-35.4	23.2	0.00e+00	0	41	0	2727346176	41	3559
2026-01-30 04:20:02.73	250.45	68.02	-35.5	-35.4	23.4	0.00e+00	0	41	0	2734686208	41	3546
2026-01-30 04:20:03.73	249.48	67.72	-35.5	-35.3	23.4	0.00e+00	0	41	0	2742026240	41	3518
2026-01-30 04:20:04.74	248.53	67.41	-35.4	-35.3	23.3	0.00e+00	0	41	0	2749366272	41	3497
2026-01-30 04:20:05.74	247.62	67.10	-35.7	-35.5	23.2	0.00e+00	0	41	0	2756706304	41	3599
2026-01-30 04:20:06.74	246.73	66.79	-36.0	-35.9	23.0	0.00e+00	0	41	0	2764046336	41	3738
2026-01-30 04:20:07.74	245.87	66.47	-35.9	-35.8	23.0	0.00e+00	0	41	0	2771386368	41	3722
2026-01-30 04:20:08.74	245.03	66.15	-35.8	-35.7	23.2	0.00e+00	0	41	0	2777677824	41	3654
2026-01-30 04:20:09.74	244.22	65.83	-35.9	-35.8	23.0	0.00e+00	0	41	0	2785017856	41	3715
2026-01-30 04:20:10.73	243.45	65.50	-35.6	-35.4	23.3	0.00e+00	0	41	0	2792357888	41	3557
2026-01-30 04:20:11.74	242.68	65.17	-35.9	-35.8	22.8	0.00e+00	0	41	0	2799697920	41	3722
2026-01-30 04:20:12.74	241.93	64.84	-36.2	-36.1	22.7	0.00e+00	0	41	0	2807037952	41	3831
2026-01-30 04:20:13.74	241.21	64.51	-36.5	-36.4	22.5	0.00e+00	0	41	0	2814377984	42	3774
2026-01-30 04:20:14.74	240.52	64.17	-36.3	-36.2	22.6	0.00e+00	0	41	0	2821718016	42	3678
2026-01-30 04:20:15.74	239.84	63.83	-36.2	-36.1	22.8	0.00e+00	0	41	0	2829058048	42	3617
2026-01-30 04:20:16.74	239.18	63.49	-35.8	-35.7	23.1	0.00e+00	0	41	0	2836398080	42	3460
2026-01-30 04:20:17.74	238.54	63.15	-35.8	-35.7	23.1	0.00e+00	0	41	0	2842689536	42	3461
2026-01-30 04:20:18.73	237.92	62.81	-36.0	-35.9	22.9	0.00e+00	0	41	0	2850029568	42	3543
2026-01-30 04:20:19.73	237.32	62.47	-36.3	-36.2	22.6	0.00e+00	0	41	0	2857369600	42	3661
2026-01-30 04:20:20.73	236.73	62.12	-36.5	-36.4	22.5	0.00e+00	0	41	0	2864709632	42	3742
2026-01-30 04:20:21.73	236.16	61.78	-36.6	-36.5	22.3	0.00e+00	0	41	0	2872049664	42	3805
2026-01-30 04:20:22.73	235.61	61.43	-36.4	-36.3	22.5	0.00e+00	0	41	0	2879389696	42	3712
2026-01-30 04:20:23.73	235.07	61.09	-36.2	-36.0	22.7	0.00e+00	0	41	0	2886729728	42	3598
2026-01-30 04:20:24.73	234.54	60.74	-36.2	-36.0	22.8	0.00e+00	0	41	0	2894069760	42	3600
2026-01-30 04:20:25.73	234.03	60.39	-36.5	-36.4	22.2	0.00e+00	0	41	0	2900361216	42	3763
2026-01-30 04:20:26.73	233.53	60.05	-36.9	-36.8	22.0	0.00e+00	0	41	0	2907701248	43	3732
2026-01-30 04:20:27.72	233.06	59.70	-37.0	-37.0	21.8	0.00e+00	0	41	0	2915041280	43	3783
2026-01-30 04:20:28.73	232.58	59.35	-37.1	-37.1	21.7	0.00e+00	0	41	0	2922381312	43	3826
2026-01-30 04:20:29.72	232.13	59.01	-37.1	-37.0	21.9	0.00e+00	0	41	0	2929721344	43	3813
2026-01-30 04:20:30.72	231.68	58.66	-37.1	-37.0	21.8	0.00e+00	0	41	0	2937061376	43	3783
2026-01-30 04:20:31.72	231.24	58.32	-37.3	-37.2	21.7	0.00e+00	0	41	0	2944401408	43	3879
2026-01-30 04:20:32.72	230.82	57.97	-37.5	-37.4	21.6	0.00e+00	0	41	0	2951741440	44	3778
2026-01-30 04:20:33.72	230.41	57.63	-37.4	-37.4	21.7	0.00e+00	0	41	0	2958032896	44	3738
2026-01-30 04:20:34.73	230.00	57.28	-37.4	-37.3	21.8	0.00e+00	0	41	0	2965372928	44	3710
2026-01-30 04:20:35.73	229.61	56.94	-37.3	-37.2	21.8	0.00e+00	0	41	0	2972712960	44	3676
2026-01-30 04:20:36.73	229.23	56.59	-37.4	-37.3	21.7	0.00e+00	0	41	0	2980052992	44	3706
2026-01-30 04:20:37.73	228.85	56.25	-37.3	-37.2	21.8	0.00e+00	0	41	0	2987393024	44	3671
2026-01-30 04:20:38.74	228.49	55.91	-37.1	-37.0	21.9	0.00e+00	0	41	0	2994733056	44	3602
2026-01-30 04:20:39.74	228.13	55.57	-37.2	-37.1	22.0	0.00e+00	0	41	0	3002073088	44	3623
2026-01-30 04:20:40.74	227.78	55.23	-37.3	-37.2	21.8	0.00e+00	0	41	0	3009413120	44	3692
2026-01-30 04:20:41.74	227.45	54.89	-37.6	-37.5	21.6	0.00e+00	0	41	0	3016753152	44	3810
2026-01-30 04:20:42.74	227.12	54.56	-37.5	-37.4	21.7	0.00e+00	0	41	0	3024093184	44	3749
2026-01-30 04:20:43.74	226.79	54.22	-37.2	-37.2	21.9	0.00e+00	0	41	0	3030384640	44	3654
2026-01-30 04:20:44.74	226.48	53.89	-36.9	-36.8	22.0	0.00e+00	0	41	0	3038773248	44	3514
2026-01-30 04:20:45.74	226.17	53.55	-36.9	-36.8	22.2	0.00e+00	0	41	0	3045064704	44	3489
2026-01-30 04:20:46.74	225.87	53.22	-37.1	-37.0	22.0	0.00e+00	0	41	0	3052404736	44	3600
2026-01-30 04:20:47.73	225.58	52.90	-37.5	-37.4	21.6	0.00e+00	0	41	0	3059744768	44	3778
2026-01-30 04:20:48.73	225.29	52.57	-37.7	-37.6	21.4	0.00e+00	0	41	0	3067084800	44	3852
2026-01-30 04:20:49.73	225.01	52.24	-37.3	-37.2	21.8	0.00e+00	0	41	0	3074424832	44	3686
2026-01-30 04:20:50.73	224.73	51.92	-36.8	-36.7	22.3	0.00e+00	0	41	0	3081764864	44	3462
2026-01-30 04:20:51.73	224.47	51.59	-36.1	-36.0	22.6	0.00e+00	0	41	0	3088056320	43	3378
2026-01-30 04:20:52.73	224.20	51.27	-36.2	-36.1	22.7	0.00e+00	0	41	0	3095396352	43	3412
2026-01-30 04:20:53.73	223.94	50.95	-36.5	-36.4	22.4	0.00e+00	0	41	0	3102736384	43	3554
2026-01-30 04:20:54.73	223.69	50.63	-36.9	-36.8	22.0	0.00e+00	0	41	0	3110076416	43	3729
2026-01-30 04:20:55.73	223.45	50.31	-37.0	-36.9	21.9	0.00e+00	0	41	0	3117416448	43	3777
2026-01-30 04:20:56.73	223.20	49.99	-37.2	-37.1	21.7	0.00e+00	0	41	0	3124756480	43	3853
2026-01-30 04:20:57.73	222.97	49.68	-37.0	-36.9	22.0	0.00e+00	0	41	0	3132096512	43	3750
2026-01-30 04:20:58.74	222.73	49.36	-37.0	-36.9	21.9	0.00e+00	0	41	0	3139436544	43	3758
2026-01-30 04:20:59.74	222.51	49.05	-36.9	-36.8	22.0	0.00e+00	0	41	0	3145728000	43	3725
2026-01-30 04:21:00.74	222.29	48.74	-37.1	-37.0	21.8	0.00e+00	0	41	0	3153068032	43	3795
2026-01-30 04:21:01.74	222.07	48.44	-37.1	-37.0	21.8	0.00e+00	0	41	0	3160408064	43	3822
2026-01-30 04:21:02.74	221.85	48.13	-37.2	-37.1	22.0	0.00e+00	0	41	0	3167748096	44	3612
2026-01-30 04:21:03.74	221.64	47.83	-36.9	-36.8	22.1	0.00e+00	0	41	0	3175088128	44	3510
2026-01-30 04:21:04.74	221.44	47.52	-36.6	-36.4	22.5	0.00e+00	0	41	0	3182428160	44	3367
2026-01-30 04:21:05.74	221.24	47.22	-36.2	-36.0	22.7	0.00e+00	0	41	0	3189768192	43	3408
2026-01-30 04:21:06.74	221.04	46.92	-36.1	-35.9	22.9	0.00e+00	0	41	0	3197108224	42	3555
2026-01-30 04:21:07.74	220.85	46.63	-36.1	-35.9	22.7	0.00e+00	0	41	0	3204448256	42	3567
2026-01-30 04:21:08.74	220.66	46.33	-36.2	-36.0	22.7	0.00e+00	0	41	0	3211788288	42	3606
2026-01-30 04:21:09.74	220.47	46.04	-36.3	-36.1	22.6	0.00e+00	0	41	0	3219128320	42	3646
2026-01-30 04:21:10.74	220.29	45.74	-36.2	-36.1	22.7	0.00e+00	0	41	0	3226468352	42	3614
2026-01-30 04:21:11.75	220.11	45.45	-36.2	-36.1	22.7	0.00e+00	0	41	0	3232759808	42	3616
2026-01-30 04:21:12.75	219.93	45.16	-36.0	-35.9	21.4	0.00e+00	0	41	0	3240099840	42	3541
2026-01-30 04:21:13.75	219.76	44.88	-35.9	-35.7	23.0	0.00e+00	0	41	0	3247439872	42	3480
2026-01-30 04:21:14.75	219.59	44.59	-35.7	-35.6	23.1	0.00e+00	0	41	0	3254779904	42	3427
2026-01-30 04:21:15.75	219.42	44.31	-35.5	-35.4	23.2	0.00e+00	0	41	0	3262119936	41	3538
2026-01-30 04:21:16.75	219.26	44.03	-35.6	-35.4	23.2	0.00e+00	0	41	0	3269459968	41	3557
2026-01-30 04:21:17.75	219.10	43.75	-35.5	-35.4	23.3	0.00e+00	0	41	0	3276800000	41	3540
2026-01-30 04:21:18.75	218.94	43.47	-35.6	-35.5	23.2	0.00e+00	0	41	0	3284140032	41	3576
2026-01-30 04:21:19.75	218.79	43.19	-35.7	-35.6	23.1	0.00e+00	0	41	0	3291480064	41	3611
2026-01-30 04:21:20.75	218.63	42.92	-35.6	-35.5	23.2	0.00e+00	0	41	0	3297771520	41	3580
2026-01-30 04:21:21.75	218.48	42.64	-35.8	-35.6	23.0	0.00e+00	0	41	0	3305111552	41	3649
2026-01-30 04:21:22.74	218.34	42.38	-35.8	-35.7	22.9	0.00e+00	0	41	0	3312451584	41	3666
2026-01-30 04:21:23.74	218.19	42.11	-35.8	-35.6	22.9	0.00e+00	0	41	0	3319791616	41	3648
2026-01-30 04:21:24.74	218.05	41.84	-35.7	-35.5	23.1	0.00e+00	0	41	0	3327131648	41	3602
2026-01-30 04:21:25.74	217.91	41.57	-35.6	-35.5	23.1	0.00e+00	0	41	0	3334471680	41	3578
2026-01-30 04:21:26.74	217.77	41.31	-35.6	-35.5	23.2	0.00e+00	0	41	0	3341811712	41	3582
2026-01-30 04:21:27.74	217.64	41.05	-35.6	-35.5	23.1	0.00e+00	0	41	0	3349151744	41	3580
2026-01-30 04:21:28.74	217.50	40.79	-35.7	-35.5	23.1	0.00e+00	0	41	0	3355443200	41	3596
2026-01-30 04:21:29.74	217.37	40.53	-35.7	-35.6	23.0	0.00e+00	0	41	0	3362783232	41	3624
2026-01-30 04:21:30.74	217.24	40.27	-35.8	-35.6	23.0	0.00e+00	0	41	0	3370123264	41	3638
2026-01-30 04:21:31.74	217.12	40.01	-35.8	-35.6	23.0	0.00e+00	0	41	0	3377463296	41	3639
2026-01-30 04:21:32.74	216.99	39.76	-35.8	-35.6	23.0	0.00e+00	0	41	0	3384803328	41	3650
2026-01-30 04:21:33.74	216.87	39.51	-35.8	-35.6	23.0	0.00e+00	0	41	0	3392143360	41	3638
2026-01-30 04:21:34.74	216.75	39.26	-35.9	-35.8	22.8	0.00e+00	0	41	0	3399483392	41	3714
2026-01-30 04:21:35.74	216.63	39.01	-35.8	-35.7	22.9	0.00e+00	0	41	0	3406823424	41	3663
2026-01-30 04:21:36.74	216.51	38.76	-35.9	-35.8	22.8	0.00e+00	0	41	0	3414163456	41	3696
2026-01-30 04:21:37.74	216.40	38.52	-36.0	-35.9	22.7	0.00e+00	0	41	0	3420454912	41	3760
2026-01-30 04:21:38.74	216.28	38.27	-36.0	-35.9	22.8	0.00e+00	0	41	0	3427794944	41	3738
2026-01-30 04:21:39.74	216.17	38.03	-36.0	-35.9	22.8	0.00e+00	0	41	0	3435134976	41	3742
2026-01-30 04:21:40.74	216.06	37.79	-35.9	-35.8	22.8	0.00e+00	0	41	0	3442475008	41	3703
2026-01-30 04:21:41.75	215.95	37.55	-35.9	-35.8	22.9	0.00e+00	0	41	0	3449815040	41	3712
2026-01-30 04:21:42.75	215.84	37.31	-35.8	-35.7	22.9	0.00e+00	0	41	0	3457155072	41	3672
2026-01-30 04:21:43.75	215.74	37.07	-35.8	-35.7	22.8	0.00e+00	0	41	0	3464495104	41	3662
2026-01-30 04:21:44.75	215.63	36.84	-35.8	-35.7	22.9	0.00e+00	0	41	0	3471835136	41	3653
2026-01-30 04:21:45.75	215.53	36.61	-35.8	-35.7	23.0	0.00e+00	0	41	0	3478126592	41	3673
2026-01-30 04:21:46.75	215.43	36.38	-35.8	-35.7	22.9	0.00e+00	0	41	0	3485466624	41	3681
2026-01-30 04:21:47.75	215.33	36.15	-35.8	-35.7	22.9	0.00e+00	0	41	0	3492806656	41	3663
2026-01-30 04:21:48.75	215.23	35.92	-35.7	-35.6	23.0	0.00e+00	0	41	0	3500146688	41	3617
2026-01-30 04:21:49.75	215.14	35.69	-35.8	-35.7	23.0	0.00e+00	0	41	0	3507486720	41	3654
2026-01-30 04:21:50.74	215.04	35.47	-35.7	-35.5	23.1	0.00e+00	0	41	0	3514826752	41	3605
2026-01-30 04:21:51.74	214.95	35.24	-35.5	-35.4	23.2	0.00e+00	0	41	0	3522166784	41	3541
2026-01-30 04:21:52.74	214.86	35.02	-35.5	-35.4	23.2	0.00e+00	0	41	0	3529506816	41	3537
2026-01-30 04:21:53.74	214.76	34.80	-35.5	-35.4	22.7	0.00e+00	0	41	0	3536846848	41	3541
2026-01-30 04:21:54.74	214.67	34.58	-35.5	-35.3	23.2	0.00e+00	0	41	0	3543138304	41	3521
2026-01-30 04:21:55.74	214.59	34.36	-35.3	-35.1	23.4	0.00e+00	0	41	0	3550478336	41	3440
2026-01-30 04:21:56.74	214.50	34.15	-35.2	-35.1	23.5	0.00e+00	0	41	0	3557818368	41	3414
2026-01-30 04:21:57.74	214.41	33.93	-35.3	-35.2	23.2	0.00e+00	0	41	0	3565158400	41	3469
2026-01-30 04:21:58.74	214.33	33.72	-35.2	-35.1	23.5	0.00e+00	0	41	0	3572498432	41	3423
2026-01-30 04:21:59.74	214.24	33.51	-35.2	-35.0	23.4	0.00e+00	0	41	0	3579838464	41	3395
2026-01-30 04:22:00.74	214.16	33.30	-35.3	-35.2	23.4	0.00e+00	0	41	0	3587178496	41	3450
2026-01-30 04:22:01.74	214.08	33.09	-35.4	-35.2	23.3	0.00e+00	0	41	0	3594518528	41	3484
2026-01-30 04:22:02.75	214.00	32.88	-35.2	-35.0	23.4	0.00e+00	0	41	0	3601858560	41	3402
2026-01-30 04:22:03.75	213.92	32.67	-35.2	-35.1	23.5	0.00e+00	0	41	0	3608150016	41	3410
2026-01-30 04:22:04.75	213.84	32.46	-35.1	-35.0	23.5	0.00e+00	0	41	0	3615490048	40	3576
2026-01-30 04:22:05.75	213.76	32.26	-35.2	-35.1	23.5	0.00e+00	0	41	0	3622830080	40	3612
2026-01-30 04:22:06.75	213.68	32.06	-35.1	-35.0	23.5	0.00e+00	0	41	0	3630170112	40	3581
2026-01-30 04:22:07.75	213.61	31.86	-35.1	-35.0	23.5	0.00e+00	0	41	0	3637510144	40	3583
2026-01-30 04:22:08.75	213.53	31.66	-35.2	-35.0	23.4	0.00e+00	0	41	0	3644850176	40	3606
2026-01-30 04:22:09.75	213.46	31.46	-35.3	-35.1	23.4	0.00e+00	0	41	0	3652190208	40	3642
2026-01-30 04:22:10.76	213.38	31.26	-35.4	-35.3	23.3	0.00e+00	0	41	0	3659530240	40	3713
2026-01-30 04:22:11.76	213.31	31.06	-35.3	-35.1	23.4	0.00e+00	0	41	0	3665821696	40	3634
2026-01-30 04:22:12.75	213.24	30.87	-35.4	-35.2	23.3	0.00e+00	0	41	0	3673161728	40	3692
2026-01-30 04:22:13.75	213.17	30.68	-35.3	-35.1	23.4	0.00e+00	0	41	0	3680501760	40	3643
2026-01-30 04:22:14.76	213.10	30.48	-35.2	-35.0	22.6	0.00e+00	0	41	0	3687841792	40	3603
2026-01-30 04:22:15.76	213.03	30.29	-35.2	-35.0	23.4	0.00e+00	0	41	0	3695181824	40	3605
2026-01-30 04:22:16.76	212.97	30.10	-35.2	-35.0	23.5	0.00e+00	0	41	0	3702521856	40	3608
2026-01-30 04:22:17.76	212.90	29.91	-35.2	-35.1	23.4	0.00e+00	0	41	0	3709861888	40	3618
2026-01-30 04:22:18.76	212.83	29.72	-35.2	-35.0	23.4	0.00e+00	0	41	0	3717201920	40	3594
2026-01-30 04:22:19.76	212.77	29.54	-35.2	-35.1	23.5	0.00e+00	0	41	0	3724541952	40	3612
2026-01-30 04:22:20.77	212.70	29.35	-35.3	-35.1	23.4	0.00e+00	0	41	0	3730833408	40	3630
2026-01-30 04:22:21.77	212.64	29.17	-35.3	-35.2	23.3	0.00e+00	0	41	0	3738173440	40	3667
2026-01-30 04:22:22.77	212.58	28.98	-35.4	-35.3	23.3	0.00e+00	0	41	0	3745513472	40	3695
2026-01-30 04:22:23.77	212.51	28.80	-35.4	-35.3	23.2	0.00e+00	0	41	0	3752853504	40	3699
2026-01-30 04:22:24.77	212.45	28.62	-35.5	-35.4	23.2	0.00e+00	0	41	0	3760193536	40	3740
2026-01-30 04:22:25.76	212.39	28.44	-35.6	-35.5	23.0	0.00e+00	0	41	0	3767533568	40	3789
2026-01-30 04:22:26.76	212.33	28.26	-35.7	-35.6	23.0	0.00e+00	0	41	0	3774873600	40	3829
2026-01-30 04:22:27.76	212.27	28.09	-35.8	-35.7	22.9	0.00e+00	0	41	0	3782213632	41	3662
2026-01-30 04:22:28.76	212.22	27.91	-35.9	-35.8	22.8	0.00e+00	0	41	0	3789553664	41	3716
2026-01-30 04:22:29.76	212.16	27.74	-35.9	-35.8	22.7	0.00e+00	0	41	0	3795845120	41	3728
2026-01-30 04:22:30.76	212.10	27.56	-35.9	-35.8	22.8	0.00e+00	0	42	0	3803185152	41	3714
2026-01-30 04:22:31.76	212.04	27.39	-36.0	-35.9	22.7	0.00e+00	0	41	0	3810525184	41	3751
2026-01-30 04:22:32.77	211.99	27.22	-36.1	-36.0	22.6	0.00e+00	0	41	0	3817865216	41	3788
2026-01-30 04:22:33.77	211.93	27.04	-35.9	-35.8	22.8	0.00e+00	0	41	0	3825205248	41	3726
2026-01-30 04:22:34.76	211.88	26.88	-35.9	-35.8	22.8	0.00e+00	0	41	0	3832545280	41	3704
2026-01-30 04:22:35.77	211.82	26.71	-35.9	-35.7	22.8	0.00e+00	0	41	0	3839885312	41	3691
2026-01-30 04:22:36.77	211.77	26.54	-35.9	-35.8	22.8	0.00e+00	0	41	0	3847225344	41	3698
2026-01-30 04:22:37.77	211.72	26.37	-35.8	-35.7	22.9	0.00e+00	0	41	0	3853516800	41	3668
2026-01-30 04:22:38.77	211.66	26.21	-35.8	-35.7	22.9	0.00e+00	0	41	0	3860856832	41	3654
2026-01-30 04:22:39.76	211.61	26.04	-35.7	-35.6	22.9	0.00e+00	0	41	0	3868196864	41	3621
2026-01-30 04:22:40.76	211.56	25.88	-35.7	-35.6	22.9	0.00e+00	0	41	0	3875536896	41	3635
2026-01-30 04:22:41.76	211.51	25.72	-35.7	-35.5	23.0	0.00e+00	0	41	0	3882876928	41	3601
2026-01-30 04:22:42.76	211.46	25.55	-35.6	-35.5	23.0	0.00e+00	0	41	0	3890216960	41	3588
2026-01-30 04:22:43.76	211.41	25.39	-35.6	-35.5	23.0	0.00e+00	0	41	0	3897556992	41	3589
2026-01-30 04:22:44.76	211.36	25.23	-35.7	-35.6	23.0	0.00e+00	0	41	0	3904897024	41	3611
2026-01-30 04:22:45.76	211.31	25.07	-35.7	-35.5	22.9	0.00e+00	0	41	0	3912237056	41	3602
2026-01-30 04:22:46.76	211.26	24.92	-35.8	-35.6	22.9	0.00e+00	0	41	0	3918528512	41	3636
2026-01-30 04:22:47.76	211.22	24.76	-35.7	-35.6	22.9	0.00e+00	0	41	0	3925868544	41	3627
2026-01-30 04:22:48.76	211.17	24.60	-35.9	-35.8	22.8	0.00e+00	0	41	0	3933208576	41	3699
2026-01-30 04:22:49.76	211.12	24.45	-35.8	-35.7	22.8	0.00e+00	0	41	0	3940548608	41	3664
2026-01-30 04:22:50.77	211.08	24.29	-35.9	-35.7	22.8	0.00e+00	0	41	0	3947888640	41	3690
2026-01-30 04:22:51.77	211.03	24.14	-35.9	-35.7	22.8	0.00e+00	0	41	0	3955228672	41	3690
2026-01-30 04:22:52.77	210.99	23.98	-35.8	-35.7	22.8	0.00e+00	0	41	0	3962568704	41	3674
2026-01-30 04:22:53.77	210.94	23.83	-35.9	-35.7	22.8	0.00e+00	0	42	0	3969908736	41	3690
2026-01-30 04:22:54.77	210.90	23.68	-35.9	-35.7	22.8	0.00e+00	0	41	0	3976200192	41	3694
2026-01-30 04:22:55.77	210.85	23.53	-36.0	-35.8	22.7	0.00e+00	0	41	0	3983540224	41	3726
2026-01-30 04:22:56.77	210.81	23.38	-36.0	-35.8	22.7	0.00e+00	0	41	0	3990880256	41	3731
2026-01-30 04:22:57.77	210.77	23.23	-35.9	-35.8	22.7	0.00e+00	0	41	0	3998220288	41	3703
2026-01-30 04:22:58.77	210.72	23.09	-35.9	-35.7	22.8	0.00e+00	0	41	0	4005560320	41	3694
2026-01-30 04:22:59.77	210.68	22.94	-35.9	-35.8	22.7	0.00e+00	0	41	0	4012900352	41	3715
2026-01-30 04:23:00.77	210.64	22.79	-36.0	-35.9	22.7	0.00e+00	0	41	0	4020240384	41	3756
2026-01-30 04:23:01.77	210.60	22.65	-35.9	-35.8	22.8	0.00e+00	0	41	0	4027580416	41	3700
2026-01-30 04:23:02.77	210.56	22.50	-35.9	-35.8	22.7	0.00e+00	0	41	0	4034920448	41	3712
2026-01-30 04:23:03.77	210.52	22.36	-36.0	-35.8	22.7	0.00e+00	0	41	0	4041211904	41	3730
2026-01-30 04:23:04.77	210.48	22.22	-36.0	-35.8	22.7	0.00e+00	0	41	0	4048551936	41	3732
2026-01-30 04:23:05.77	210.44	22.08	-35.9	-35.7	22.8	0.00e+00	0	42	0	4055891968	41	3684
2026-01-30 04:23:06.76	210.40	21.94	-35.9	-35.7	22.7	0.00e+00	0	41	0	4063232000	41	3689
2026-01-30 04:23:07.76	210.36	21.79	-35.8	-35.6	22.8	0.00e+00	0	41	0	4070572032	41	3652
2026-01-30 04:23:08.76	210.32	21.66	-35.8	-35.7	22.8	0.00e+00	0	41	0	4077912064	41	3679
2026-01-30 04:23:09.76	210.28	21.52	-35.8	-35.7	22.8	0.00e+00	0	41	0	4085252096	41	3680
2026-01-30 04:23:10.76	210.25	21.38	-36.0	-35.8	22.6	0.00e+00	0	41	0	4092592128	41	3735
2026-01-30 04:23:11.76	210.21	21.24	-36.0	-35.8	22.7	0.00e+00	0	41	0	4099932160	41	3737
2026-01-30 04:23:12.76	210.17	21.10	-36.1	-36.0	22.6	0.00e+00	0	41	0	4106223616	41	3799
2026-01-30 04:23:13.75	210.14	20.97	-36.1	-36.0	22.6	0.00e+00	0	41	0	4113563648	41	3792
2026-01-30 04:23:14.75	210.10	20.83	-36.1	-36.0	22.6	0.00e+00	0	41	0	4120903680	41	3795
2026-01-30 04:23:15.74	210.06	20.70	-36.2	-36.1	22.4	0.00e+00	0	41	0	4128243712	41	3852
2026-01-30 04:23:16.73	210.03	20.57	-36.2	-36.1	22.5	0.00e+00	0	41	0	4135583744	41	3846
2026-01-30 04:23:17.73	209.99	20.43	-36.3	-36.2	22.3	0.00e+00	0	41	0	4141875200	42	3685
2026-01-30 04:23:18.72	209.96	20.30	-36.4	-36.3	22.3	0.00e+00	0	41	0	4149215232	42	3717
2026-01-30 04:23:19.72	209.92	20.17	-36.5	-36.4	22.2	0.00e+00	0	41	0	4156555264	42	3753
2026-01-30 04:23:20.72	209.89	20.04	-36.5	-36.4	22.2	0.00e+00	0	41	0	4163895296	42	3756
2026-01-30 04:23:21.71	209.86	19.91	-36.6	-36.5	22.1	0.00e+00	0	41	0	4171235328	42	3788
2026-01-30 04:23:22.71	209.82	19.78	-36.6	-36.5	22.1	0.00e+00	0	42	0	4178575360	42	3785
2026-01-30 04:23:23.71	209.79	19.65	-36.7	-36.7	22.0	0.00e+00	0	41	0	4185915392	42	3874
2026-01-30 04:23:24.70	209.76	19.53	-36.6	-36.6	22.0	0.00e+00	0	41	0	4193255424	42	3830
2026-01-30 04:23:25.69	209.72	19.40	-36.7	-36.6	22.0	0.00e+00	0	41	0	4200595456	42	3859
2026-01-30 04:23:26.69	209.69	19.27	-36.7	-36.6	21.9	0.00e+00	0	42	0	4206886912	43	3647
2026-01-30 04:23:27.69	209.66	19.15	-36.8	-36.7	21.9	0.00e+00	0	41	0	4214226944	43	3689
2026-01-30 04:23:28.68	209.63	19.02	-36.8	-36.7	21.8	0.00e+00	0	41	0	4221566976	43	3690
2026-01-30 04:23:29.68	209.59	18.90	-36.8	-36.7	21.8	0.00e+00	0	41	0	4228907008	43	3681
2026-01-30 04:23:30.68	209.56	18.77	-36.8	-36.7	21.9	0.00e+00	0	41	0	4236247040	43	3681
2026-01-30 04:23:31.68	209.53	18.65	-36.8	-36.7	21.8	0.00e+00	0	41	0	4243587072	43	3691
2026-01-30 04:23:32.67	209.50	18.52	-36.8	-36.8	21.8	0.00e+00	0	42	0	4249878528	43	3700
2026-01-30 04:23:33.67	209.47	18.40	-36.9	-36.8	21.8	0.00e+00	0	41	0	4257218560	43	3726
2026-01-30 04:23:34.67	209.44	18.28	-36.9	-36.8	21.7	0.00e+00	0	41	0	4264558592	43	3728
2026-01-30 04:23:35.67	209.41	18.16	-36.9	-36.8	21.8	0.00e+00	0	41	0	4271898624	43	3729
2026-01-30 04:23:36.66	209.38	18.04	-36.9	-36.8	21.8	0.00e+00	0	41	0	4279238656	43	3703
2026-01-30 04:23:37.66	209.35	17.92	-36.9	-36.8	21.7	0.00e+00	0	41	0	4286578688	43	3733
2026-01-30 04:23:38.66	209.32	17.80	-36.9	-36.8	21.7	0.00e+00	0	41	0	4293918720	43	3734
2026-01-30 04:23:39.65	209.29	17.68	-36.9	-36.8	21.7	0.00e+00	0	42	0	4301258752	43	3726
2026-01-30 04:23:40.65	209.26	17.56	-36.9	-36.8	21.7	0.00e+00	0	41	0	4307550208	43	3725
2026-01-30 04:23:41.65	209.24	17.44	-37.0	-36.9	21.7	0.00e+00	0	41	0	4314890240	43	3755
2026-01-30 04:23:42.65	209.21	17.32	-37.0	-36.9	21.7	0.00e+00	0	41	0	4322230272	43	3749
2026-01-30 04:23:43.65	209.18	17.21	-37.0	-36.9	21.7	0.00e+00	0	41	0	4329570304	43	3745
2026-01-30 04:23:44.64	209.15	17.09	-37.1	-37.0	21.5	0.00e+00	0	41	0	4336910336	43	3803
2026-01-30 04:23:45.64	209.12	16.98	-37.0	-36.9	21.6	0.00e+00	0	41	0	4344250368	43	3772
2026-01-30 04:23:46.64	209.10	16.86	-37.1	-37.0	21.5	0.00e+00	0	42	0	4350541824	43	3810
2026-01-30 04:23:47.64	209.07	16.75	-37.0	-36.9	21.6	0.00e+00	0	41	0	4357881856	43	3766
2026-01-30 04:23:48.63	209.04	16.63	-37.0	-36.9	21.7	0.00e+00	0	42	0	4365221888	43	3746
2026-01-30 04:23:49.63	209.02	16.52	-37.1	-37.0	21.5	0.00e+00	0	41	0	4372561920	43	3819
2026-01-30 04:23:50.62	208.99	16.41	-37.0	-36.9	21.6	0.00e+00	0	41	0	4379901952	43	3770
2026-01-30 04:23:51.61	208.96	16.29	-37.1	-37.0	21.5	0.00e+00	0	42	0	4387241984	43	3817
2026-01-30 04:23:52.61	208.94	16.18	-37.1	-37.0	21.5	0.00e+00	0	41	0	4394582016	43	3808
2026-01-30 04:23:53.61	208.91	16.07	-37.0	-37.0	21.5	0.00e+00	0	42	0	4401922048	43	3787
2026-01-30 04:23:54.60	208.89	15.96	-37.0	-37.0	21.5	0.00e+00	0	41	0	4408213504	43	3790
2026-01-30 04:23:55.60	208.86	15.85	-37.2	-37.1	21.4	0.00e+00	0	41	0	4415553536	43	3854
2026-01-30 04:23:56.59	208.84	15.74	-37.2	-37.1	21.4	0.00e+00	0	41	0	4422893568	43	3845
2026-01-30 04:23:57.59	208.81	15.63	-37.5	-37.4	21.3	0.00e+00	0	41	0	4430233600	44	3761
2026-01-30 04:23:58.59	208.79	15.52	-37.4	-37.3	21.4	0.00e+00	0	41	0	4437573632	44	3729
2026-01-30 04:23:59.59	208.76	15.41	-37.4	-37.3	21.4	0.00e+00	0	41	0	4444913664	44	3729
2026-01-30 04:24:00.58	208.74	15.31	-37.4	-37.4	21.3	0.00e+00	0	42	0	4451205120	44	3744
2026-01-30 04:24:01.58	208.71	15.20	-37.5	-37.4	21.3	0.00e+00	0	41	0	4458545152	44	3764
2026-01-30 04:24:02.58	208.69	15.09	-37.5	-37.5	21.2	0.00e+00	0	42	0	4465885184	44	3787
2026-01-30 04:24:03.57	208.67	14.98	-37.6	-37.5	21.1	0.00e+00	0	42	0	4473225216	44	3820
2026-01-30 04:24:04.57	208.64	14.88	-37.6	-37.6	21.1	0.00e+00	0	41	0	4480565248	44	3838
2026-01-30 04:24:05.56	208.62	14.77	-37.7	-37.6	21.0	0.00e+00	0	41	0	4487905280	44	3856
2026-01-30 04:24:06.56	208.60	14.67	-37.7	-37.6	21.1	0.00e+00	0	41	0	4495245312	44	3866
2026-01-30 04:24:07.55	208.57	14.56	-37.7	-37.7	21.0	0.00e+00	0	42	0	4502585344	44	3879
2026-01-30 04:24:08.55	208.55	14.46	-37.8	-37.8	20.9	0.00e+00	0	41	0	4509925376	45	3711
2026-01-30 04:24:09.55	208.53	14.35	-37.8	-37.7	20.9	0.00e+00	0	41	0	4516216832	45	3690
2026-01-30 04:24:10.55	208.50	14.25	-37.8	-37.8	20.9	0.00e+00	0	42	0	4523556864	45	3707
2026-01-30 04:24:11.55	208.48	14.15	-37.9	-37.9	20.8	0.00e+00	0	41	0	4530896896	45	3766
2026-01-30 04:24:12.54	208.46	14.05	-38.0	-37.9	20.7	0.00e+00	0	41	0	4538236928	45	3773
2026-01-30 04:24:13.54	208.44	13.94	-37.9	-37.9	20.8	0.00e+00	0	41	0	4545576960	45	3762
2026-01-30 04:24:14.53	208.42	13.84	-38.0	-38.0	20.7	0.00e+00	0	41	0	4551868416	45	3782
2026-01-30 04:24:15.53	208.39	13.74	-38.1	-38.0	20.6	0.00e+00	0	41	0	4559208448	45	3822
2026-01-30 04:24:16.53	208.37	13.64	-38.1	-38.0	20.6	0.00e+00	0	41	0	4566548480	45	3817
2026-01-30 04:24:17.52	208.35	13.54	-38.1	-38.1	20.6	0.00e+00	0	41	0	4573888512	45	3845
2026-01-30 04:24:18.52	208.33	13.44	-38.1	-38.1	20.5	0.00e+00	0	42	0	4581228544	45	3848
2026-01-30 04:24:19.52	208.31	13.34	-38.2	-38.2	20.5	0.00e+00	0	41	0	4588568576	45	3872
2026-01-30 04:24:20.52	208.29	13.24	-38.1	-38.1	20.5	0.00e+00	0	42	0	4595908608	45	3860
2026-01-30 04:24:21.51	208.27	13.14	-38.2	-38.2	20.4	0.00e+00	0	42	0	4603248640	45	3911
2026-01-30 04:24:22.51	208.25	13.04	-38.2	-38.2	20.5	0.00e+00	0	42	0	4610588672	45	3881
2026-01-30 04:24:23.51	208.23	12.94	-38.3	-38.2	20.4	0.00e+00	0	41	0	4616880128	45	3911
2026-01-30 04:24:24.50	208.21	12.85	-38.3	-38.3	20.4	0.00e+00	0	42	0	4624220160	46	3719
2026-01-30 04:24:25.50	208.19	12.75	-38.3	-38.3	20.3	0.00e+00	0	41	0	4631560192	46	3730
2026-01-30 04:24:26.50	208.17	12.65	-38.4	-38.3	20.3	0.00e+00	0	42	0	4638900224	46	3737
2026-01-30 04:24:27.50	208.15	12.55	-38.3	-38.3	20.4	0.00e+00	0	41	0	4646240256	46	3709
2026-01-30 04:24:28.49	208.13	12.46	-38.4	-38.4	20.3	0.00e+00	0	42	0	4653580288	46	3741
2026-01-30 04:24:29.49	208.11	12.36	-38.4	-38.4	20.3	0.00e+00	0	41	0	4660920320	46	3769
2026-01-30 04:24:30.49	208.09	12.27	-38.5	-38.5	20.1	0.00e+00	0	42	0	4667211776	46	3810
2026-01-30 04:24:31.49	208.07	12.17	-38.5	-38.5	20.2	0.00e+00	0	42	0	4674551808	46	3805
