passes_logs/2026/01/30/T1/T1__20260130_061056_KHAYYAM_rec.log

#Pass ID: 20260130_061056_KHAYYAM
#Satellite: KHAYYAM
#Configuration: KHAYYAM_480M
#almurnet v.1.7.20251203
#Start time: 2026-01-30 06:10:56

#Version: 2.0.20230620
#Station: T1
#Location: 37.570604 lon 55.790049 lat
#TLE: 1 53370U 22096A   26029.52643722  .00009049  00000+0  36723-3 0  9992
#TLE: 2 53370  97.3554 296.2755 0002205 105.6855 254.4626 15.24827760193451

#Time	Az	El	Level	Level2	SNR	BER	BlckErr	Temp	State	Recorded	gain1	gain2
2026-01-30 06:10:56.75	95.00	5.02	-53.2	-56.9	3.6	0.00e+00	0	46	0	0	78	21498
2026-01-30 06:10:57.75	94.84	5.08	-54.1	-57.7	3.7	0.00e+00	0	46	104	0	78	23429
2026-01-30 06:10:58.75	94.68	5.13	-54.2	-57.7	3.7	0.00e+00	0	46	104	0	79	22242
2026-01-30 06:10:59.76	94.52	5.19	-54.1	-57.7	3.7	0.00e+00	0	46	104	0	79	22162
2026-01-30 06:11:00.76	94.35	5.24	-53.8	-57.5	3.7	0.00e+00	0	46	104	0	79	21723
2026-01-30 06:11:01.77	94.19	5.29	-54.0	-57.7	3.7	0.00e+00	0	46	104	0	79	22116
2026-01-30 06:11:02.77	94.03	5.35	-53.8	-57.5	3.7	0.00e+00	0	46	104	0	79	21647
2026-01-30 06:11:03.77	93.86	5.40	-53.8	-57.5	3.7	0.00e+00	0	46	104	0	79	21748
2026-01-30 06:11:04.77	93.70	5.46	-53.8	-57.6	3.7	0.00e+00	0	46	104	0	79	22000
2026-01-30 06:11:05.78	93.53	5.51	-53.9	-57.5	3.7	0.00e+00	0	46	104	0	79	21854
2026-01-30 06:11:06.78	93.36	5.57	-53.9	-57.6	3.7	0.00e+00	0	46	104	0	79	21931
2026-01-30 06:11:07.78	93.20	5.62	-53.6	-57.5	3.7	0.00e+00	0	47	104	0	79	21769
2026-01-30 06:11:08.79	93.03	5.68	-53.8	-57.6	3.7	0.00e+00	0	47	104	0	79	21872
2026-01-30 06:11:09.78	92.86	5.73	-53.6	-57.4	3.7	0.00e+00	0	47	104	0	79	21564
2026-01-30 06:11:10.79	92.69	5.78	-53.7	-57.5	3.7	0.00e+00	0	47	104	0	79	21621
2026-01-30 06:11:11.79	92.52	5.84	-53.7	-57.4	3.7	0.00e+00	0	47	104	0	79	21387
2026-01-30 06:11:12.80	92.34	5.89	-53.7	-57.4	3.7	0.00e+00	0	47	104	0	79	21383
2026-01-30 06:11:13.80	92.17	5.95	-53.1	-56.8	3.7	0.00e+00	0	47	104	0	78	21275
2026-01-30 06:11:14.81	91.99	6.00	-52.9	-56.6	3.7	0.00e+00	0	47	104	0	77	21974
2026-01-30 06:11:15.81	91.82	6.05	-52.7	-56.1	3.7	0.00e+00	0	47	104	0	77	20836
2026-01-30 06:11:16.81	91.65	6.11	-52.8	-56.7	3.7	0.00e+00	0	47	104	0	77	22357
2026-01-30 06:11:17.82	91.47	6.16	-52.8	-56.7	3.7	0.00e+00	0	47	104	0	77	22297
2026-01-30 06:11:18.82	91.29	6.21	-52.8	-56.8	3.7	0.00e+00	0	48	104	0	77	22420
2026-01-30 06:11:19.82	91.11	6.27	-52.8	-56.7	3.7	0.00e+00	0	47	104	0	77	22330
2026-01-30 06:11:20.83	90.93	6.32	-52.8	-56.7	3.7	0.00e+00	0	47	104	0	77	22308
2026-01-30 06:11:21.83	90.76	6.38	-52.7	-56.7	3.7	0.00e+00	0	48	104	0	77	22255
2026-01-30 06:11:22.83	90.58	6.43	-52.7	-56.7	3.7	0.00e+00	0	48	104	0	77	22232
2026-01-30 06:11:23.84	90.39	6.48	-52.7	-56.7	3.7	0.00e+00	0	48	104	0	77	22288
2026-01-30 06:11:24.84	90.21	6.54	-52.7	-56.7	3.7	0.00e+00	0	48	104	0	77	22279
2026-01-30 06:11:25.85	90.03	6.59	-52.8	-56.7	3.7	0.00e+00	0	48	104	0	77	22328
2026-01-30 06:11:26.85	89.84	6.64	-52.8	-56.8	3.7	0.00e+00	0	48	104	0	77	22394
2026-01-30 06:11:27.86	89.66	6.70	-52.8	-56.7	3.7	0.00e+00	0	48	104	0	77	22349
2026-01-30 06:11:28.86	89.47	6.75	-52.8	-56.8	3.7	0.00e+00	0	48	104	0	77	22430
2026-01-30 06:11:29.87	89.28	6.80	-52.8	-56.8	3.7	0.00e+00	0	48	104	0	77	22384
2026-01-30 06:11:30.87	89.10	6.86	-52.8	-56.7	3.7	0.00e+00	0	48	104	0	77	22347
2026-01-30 06:11:31.87	88.91	6.91	-52.8	-56.7	3.7	0.00e+00	0	48	104	0	77	22267
2026-01-30 06:11:32.88	88.72	6.96	-52.8	-56.7	3.7	0.00e+00	0	49	104	0	77	22277
2026-01-30 06:11:33.88	88.53	7.01	-52.7	-56.7	3.7	0.00e+00	0	48	104	0	77	22290
2026-01-30 06:11:34.88	88.34	7.07	-52.8	-56.7	3.7	0.00e+00	0	49	104	0	77	22338
2026-01-30 06:11:35.88	88.15	7.12	-52.8	-56.7	3.7	0.00e+00	0	48	104	0	77	22304
2026-01-30 06:11:36.89	87.95	7.17	-52.7	-56.7	3.7	0.00e+00	0	48	104	0	77	22266
2026-01-30 06:11:37.89	87.76	7.22	-52.8	-56.7	3.7	0.00e+00	0	49	104	0	77	22330
2026-01-30 06:11:38.89	87.57	7.27	-52.8	-56.7	3.7	0.00e+00	0	49	104	0	77	22310
2026-01-30 06:11:39.90	87.37	7.33	-52.8	-56.7	3.7	0.00e+00	0	49	104	0	77	22265
2026-01-30 06:11:40.90	87.18	7.38	-52.8	-56.7	3.7	0.00e+00	0	49	104	0	77	22283
2026-01-30 06:11:41.91	86.98	7.43	-52.7	-56.7	3.7	0.00e+00	0	49	104	0	77	22337
2026-01-30 06:11:42.91	86.78	7.48	-52.7	-56.7	3.7	0.00e+00	0	49	104	0	77	22301
2026-01-30 06:11:43.91	86.58	7.53	-52.7	-56.7	3.7	0.00e+00	0	49	104	0	77	22252
2026-01-30 06:11:44.92	86.38	7.58	-52.7	-56.7	3.7	0.00e+00	0	49	104	0	77	22269
2026-01-30 06:11:45.92	86.18	7.64	-52.7	-56.7	3.7	0.00e+00	0	49	104	0	77	22275
2026-01-30 06:11:46.93	85.98	7.69	-52.7	-56.7	3.7	0.00e+00	0	49	104	0	77	22308
2026-01-30 06:11:47.93	85.78	7.74	-52.7	-56.7	3.7	0.00e+00	0	49	104	0	77	22268
2026-01-30 06:11:48.93	85.57	7.79	-52.7	-56.7	3.7	0.00e+00	0	49	104	0	77	22282
2026-01-30 06:11:49.94	85.37	7.84	-52.7	-56.7	3.7	0.00e+00	0	49	104	0	77	22257
2026-01-30 06:11:50.94	85.16	7.89	-52.7	-56.7	3.7	0.00e+00	0	49	104	0	77	22308
2026-01-30 06:11:51.95	84.96	7.94	-52.7	-56.7	3.7	0.00e+00	0	49	104	0	77	22274
2026-01-30 06:11:52.95	84.75	7.99	-52.7	-56.7	3.7	0.00e+00	0	49	104	0	77	22261
2026-01-30 06:11:53.96	84.54	8.04	-52.7	-56.7	3.7	0.00e+00	0	49	104	0	77	22270
2026-01-30 06:11:54.96	84.33	8.09	-52.7	-56.7	3.7	0.00e+00	0	49	104	0	77	22345
2026-01-30 06:11:55.96	84.12	8.14	-52.7	-56.7	3.7	0.00e+00	0	49	104	0	77	22328
2026-01-30 06:11:56.97	83.91	8.19	-52.7	-56.7	3.7	0.00e+00	0	49	104	0	77	22204
2026-01-30 06:11:57.97	83.70	8.24	-52.7	-56.7	3.7	0.00e+00	0	49	104	0	77	22296
2026-01-30 06:11:58.97	83.49	8.29	-52.7	-56.7	3.7	0.00e+00	0	49	104	0	77	22295
2026-01-30 06:11:59.98	83.27	8.34	-52.7	-56.7	3.7	0.00e+00	0	49	104	0	77	22259
2026-01-30 06:12:00.98	83.06	8.39	-52.7	-56.7	3.7	0.00e+00	0	49	104	0	77	22307
2026-01-30 06:12:01.98	82.85	8.43	-52.7	-56.7	3.7	0.00e+00	0	49	104	0	77	22273
2026-01-30 06:12:02.99	82.63	8.48	-52.7	-56.7	3.7	0.00e+00	0	50	104	0	77	22267
2026-01-30 06:12:03.99	82.41	8.53	-52.7	-56.7	3.7	0.00e+00	0	50	104	0	77	22206
2026-01-30 06:12:05.00	82.19	8.58	-52.7	-56.7	3.7	0.00e+00	0	50	104	0	77	22184
2026-01-30 06:12:06.00	81.98	8.63	-52.7	-56.7	3.7	0.00e+00	0	50	104	0	77	22170
2026-01-30 06:12:07.00	81.76	8.67	-52.7	-56.7	3.7	0.00e+00	0	50	104	0	77	22192
2026-01-30 06:12:08.01	81.54	8.72	-52.7	-56.7	3.7	0.00e+00	0	50	104	0	77	22137
2026-01-30 06:12:09.01	81.31	8.77	-52.7	-56.7	3.7	0.00e+00	0	50	104	0	77	22128
2026-01-30 06:12:10.02	81.09	8.82	-52.7	-56.7	3.7	0.00e+00	0	50	104	0	77	22188
2026-01-30 06:12:11.02	80.87	8.86	-52.7	-56.7	3.7	0.00e+00	0	50	104	0	77	22250
2026-01-30 06:12:12.03	80.64	8.91	-52.7	-56.7	3.7	0.00e+00	0	50	104	0	77	22139
2026-01-30 06:12:13.03	80.42	8.96	-52.7	-56.7	3.7	0.00e+00	0	50	104	0	77	22190
2026-01-30 06:12:14.04	80.19	9.00	-52.7	-56.7	3.7	0.00e+00	0	50	104	0	77	22168
2026-01-30 06:12:15.04	79.97	9.05	-52.9	-56.6	3.7	0.00e+00	0	50	104	0	77	21912
2026-01-30 06:12:16.07	79.73	9.09	-52.5	-56.4	3.7	0.00e+00	0	50	104	0	77	21520
2026-01-30 06:12:17.07	79.50	9.14	-52.7	-56.7	3.7	0.00e+00	0	50	104	0	77	22211
2026-01-30 06:12:18.15	79.26	9.19	-52.7	-56.6	3.7	0.00e+00	0	50	104	0	77	21945
2026-01-30 06:12:19.04	79.05	9.23	-52.5	-56.0	3.7	0.00e+00	0	50	104	0	76	21722
2026-01-30 06:12:20.19	78.79	9.28	-52.4	-55.8	3.7	0.00e+00	0	50	104	0	76	21187
2026-01-30 06:12:21.05	78.59	9.32	-52.4	-55.7	3.7	0.00e+00	0	50	104	0	76	21000
2026-01-30 06:12:22.19	78.32	9.37	-52.5	-55.8	3.7	0.00e+00	0	50	104	0	76	21233
2026-01-30 06:12:23.05	78.12	9.40	-52.7	-56.0	3.7	0.00e+00	0	50	104	0	76	21800
2026-01-30 06:12:24.20	77.85	9.45	-52.8	-56.3	3.7	0.00e+00	0	50	104	0	76	22449
2026-01-30 06:12:25.06	77.65	9.49	-53.0	-56.5	3.7	0.00e+00	0	50	104	0	76	23071
2026-01-30 06:12:26.21	77.38	9.54	-52.9	-56.5	3.7	0.00e+00	0	50	104	0	76	22932
2026-01-30 06:12:27.07	77.18	9.58	-52.6	-56.0	3.7	0.00e+00	0	50	104	0	76	21701
2026-01-30 06:12:28.22	76.91	9.63	-52.9	-56.3	3.7	0.00e+00	0	50	104	0	76	22597
2026-01-30 06:12:29.08	76.70	9.66	-52.4	-55.9	3.7	0.00e+00	0	50	104	0	76	21586
2026-01-30 06:12:30.22	76.43	9.71	-52.5	-56.0	3.7	0.00e+00	0	50	104	0	76	21777
2026-01-30 06:12:31.08	76.22	9.74	-52.8	-56.6	3.7	0.00e+00	0	50	104	0	76	23394
2026-01-30 06:12:32.29	75.93	9.79	-52.7	-56.3	3.7	0.00e+00	0	50	104	0	76	22616
2026-01-30 06:12:33.15	75.72	9.83	-52.9	-56.5	3.7	0.00e+00	0	50	104	0	76	23099
2026-01-30 06:12:34.41	75.42	9.88	-52.9	-56.2	3.7	0.00e+00	0	50	104	0	76	22341
2026-01-30 06:12:35.17	75.23	9.91	-53.0	-56.3	3.7	0.00e+00	0	50	104	0	76	22512
2026-01-30 06:12:36.46	74.92	9.96	-53.1	-56.5	3.7	0.00e+00	0	50	104	0	76	23078
2026-01-30 06:12:37.18	74.74	9.99	-53.1	-56.6	3.7	0.00e+00	0	50	104	0	76	23369
2026-01-30 06:12:38.46	74.43	10.04	-53.0	-56.6	3.7	0.00e+00	0	50	104	0	76	23289
2026-01-30 06:12:39.18	74.25	10.07	-53.0	-56.6	3.7	0.00e+00	0	50	104	0	76	23332
2026-01-30 06:12:40.47	73.93	10.12	-53.1	-56.7	3.7	0.00e+00	0	50	104	0	76	23562
2026-01-30 06:12:41.18	73.75	10.14	-52.9	-56.8	3.7	0.00e+00	0	50	104	0	76	23735
2026-01-30 06:12:42.80	73.35	10.20	-52.8	-56.1	3.7	0.00e+00	0	50	104	0	76	21946
2026-01-30 06:12:43.38	73.20	10.22	-52.8	-56.1	3.7	0.00e+00	0	51	104	0	76	21873
2026-01-30 06:12:44.95	72.81	10.28	-53.0	-56.3	3.7	0.00e+00	0	51	104	0	76	22475
2026-01-30 06:12:45.55	72.66	10.30	-53.1	-56.5	3.7	0.00e+00	0	51	104	0	76	22952
2026-01-30 06:12:47.12	72.26	10.36	-53.0	-56.4	3.7	0.00e+00	0	50	104	0	76	22783
2026-01-30 06:12:47.76	72.10	10.38	-53.0	-56.4	3.7	0.00e+00	0	51	104	0	76	22690
2026-01-30 06:12:49.25	71.72	10.43	-52.9	-56.2	3.7	0.00e+00	0	50	104	0	76	22187
2026-01-30 06:12:50.06	71.51	10.46	-52.6	-56.3	3.7	0.00e+00	0	51	104	0	76	22463
2026-01-30 06:12:51.53	71.14	10.51	-52.6	-56.1	3.7	0.00e+00	0	51	104	0	76	21936
2026-01-30 06:12:52.24	70.96	10.54	-52.5	-56.2	3.6	0.00e+00	0	50	104	0	76	22193
2026-01-30 06:12:53.74	70.57	10.59	-52.8	-56.6	3.7	0.00e+00	0	51	104	0	76	23308
2026-01-30 06:12:54.45	70.39	10.61	-52.7	-56.6	3.7	0.00e+00	0	51	104	0	76	23273
2026-01-30 06:12:55.74	70.05	10.65	-52.7	-56.4	3.7	0.00e+00	0	50	104	0	76	22730
2026-01-30 06:12:56.46	69.86	10.67	-52.7	-56.4	3.7	0.00e+00	0	50	104	0	76	22755
2026-01-30 06:12:57.75	69.53	10.71	-52.4	-56.4	3.7	0.00e+00	0	51	104	0	76	22806
2026-01-30 06:12:58.47	69.34	10.74	-52.4	-56.4	3.7	0.00e+00	0	50	104	0	76	22696
2026-01-30 06:12:59.75	69.01	10.78	-52.6	-56.5	3.7	0.00e+00	0	51	104	0	76	23103
2026-01-30 06:13:00.48	68.81	10.80	-52.6	-56.5	3.7	0.00e+00	0	51	104	0	76	23008
2026-01-30 06:13:01.77	68.47	10.84	-52.8	-56.6	3.7	0.00e+00	0	51	104	0	76	23201
2026-01-30 06:13:02.49	68.28	10.86	-52.8	-56.5	3.7	0.00e+00	0	50	104	0	76	23119
2026-01-30 06:13:04.03	67.88	10.90	-53.0	-56.6	3.7	0.00e+00	0	50	104	0	76	23419
2026-01-30 06:13:04.74	67.69	10.92	-52.6	-56.2	3.7	0.00e+00	0	51	104	0	76	22313
2026-01-30 06:13:06.07	67.34	10.96	-52.4	-56.1	3.7	0.00e+00	0	51	104	0	76	21949
2026-01-30 06:13:07.06	67.07	10.99	-52.4	-56.1	3.7	0.00e+00	0	51	104	0	76	21858
2026-01-30 06:13:08.38	66.72	11.02	-52.3	-56.0	3.7	0.00e+00	0	51	104	0	76	21810
2026-01-30 06:13:09.09	66.53	11.04	-52.5	-56.2	3.7	0.00e+00	0	51	104	0	76	22340
2026-01-30 06:13:10.77	66.08	11.08	-52.4	-56.1	3.7	0.00e+00	0	51	104	0	76	22068
2026-01-30 06:13:11.34	65.92	11.10	-52.3	-56.1	3.7	0.00e+00	0	51	104	0	76	21886
2026-01-30 06:13:12.93	65.49	11.14	-52.8	-56.5	3.7	0.00e+00	0	51	104	0	76	22927
2026-01-30 06:13:13.50	65.34	11.15	-52.7	-56.3	3.7	0.00e+00	0	51	104	0	76	22613
2026-01-30 06:13:15.10	64.91	11.19	-52.6	-56.3	3.7	0.00e+00	0	51	104	0	76	22603
2026-01-30 06:13:15.78	64.72	11.20	-52.5	-56.3	3.7	0.00e+00	0	51	104	0	76	22478
2026-01-30 06:13:17.21	64.33	11.24	-52.3	-56.3	3.7	0.00e+00	0	51	104	0	76	22408
2026-01-30 06:13:17.92	64.14	11.25	-52.5	-56.3	3.7	0.00e+00	0	51	104	0	76	22455
2026-01-30 06:13:19.21	63.79	11.28	-52.4	-56.2	3.7	0.00e+00	0	50	104	0	76	22266
2026-01-30 06:13:19.93	63.59	11.29	-52.4	-56.2	3.7	0.00e+00	0	51	104	0	76	22264
2026-01-30 06:13:21.22	63.24	11.32	-52.7	-56.3	3.7	0.00e+00	0	51	104	0	76	22406
2026-01-30 06:13:21.93	63.04	11.34	-52.4	-56.2	3.7	0.00e+00	0	51	104	0	76	22136
2026-01-30 06:13:23.22	62.69	11.36	-52.5	-56.2	3.7	0.00e+00	0	51	104	0	76	22335
2026-01-30 06:13:23.94	62.49	11.37	-52.2	-56.0	3.7	0.00e+00	0	51	104	0	76	21730
2026-01-30 06:13:25.23	62.13	11.40	-52.0	-55.9	3.7	0.00e+00	0	51	104	0	76	21452
2026-01-30 06:13:25.95	61.93	11.41	-52.1	-55.9	3.7	0.00e+00	0	51	104	0	76	21383
2026-01-30 06:13:27.23	61.58	11.43	-51.9	-55.6	3.7	0.00e+00	0	51	104	0	75	22071
2026-01-30 06:13:27.95	61.38	11.44	-52.0	-55.7	3.7	0.00e+00	0	51	104	0	75	22363
2026-01-30 06:13:29.24	61.02	11.47	-52.2	-56.0	3.7	0.00e+00	0	51	104	0	75	22943
2026-01-30 06:13:29.95	60.82	11.48	-52.1	-55.7	3.7	0.00e+00	0	51	104	0	75	22240
2026-01-30 06:13:31.24	60.47	11.50	-52.2	-56.0	3.7	0.00e+00	0	51	104	0	75	23028
2026-01-30 06:13:31.96	60.27	11.51	-52.0	-55.6	3.7	0.00e+00	0	51	104	0	75	21998
2026-01-30 06:13:33.25	59.91	11.52	-52.1	-56.0	3.7	0.00e+00	0	51	104	0	75	23109
2026-01-30 06:13:33.96	59.71	11.53	-52.0	-55.9	3.7	0.00e+00	0	51	104	0	75	22857
2026-01-30 06:13:35.25	59.35	11.55	-52.0	-55.9	3.7	0.00e+00	0	51	104	0	75	22814
2026-01-30 06:13:35.97	59.15	11.56	-52.0	-55.8	3.7	0.00e+00	0	51	104	0	75	22371
2026-01-30 06:13:37.26	58.78	11.58	-52.5	-56.2	3.7	0.00e+00	0	51	104	0	75	23517
2026-01-30 06:13:37.98	58.58	11.58	-52.5	-56.3	3.7	0.00e+00	0	51	104	0	75	23859
2026-01-30 06:13:39.27	58.22	11.60	-52.4	-56.0	3.7	0.00e+00	0	51	104	0	75	23032
2026-01-30 06:13:39.98	58.02	11.60	-52.4	-56.3	3.7	0.00e+00	0	51	104	0	75	23741
2026-01-30 06:13:41.37	57.63	11.62	-52.4	-56.2	3.7	0.00e+00	0	51	104	0	75	23667
2026-01-30 06:13:42.09	57.43	11.62	-52.6	-56.2	3.7	0.00e+00	0	51	104	0	75	23633
2026-01-30 06:13:43.37	57.07	11.63	-52.4	-56.2	3.7	0.00e+00	0	51	104	0	75	23536
2026-01-30 06:13:44.09	56.87	11.64	-52.5	-56.1	3.7	0.00e+00	0	51	104	0	75	23375
2026-01-30 06:13:45.38	56.50	11.65	-52.4	-56.0	3.7	0.00e+00	0	51	104	0	75	23138
2026-01-30 06:13:46.09	56.30	11.65	-52.3	-56.1	3.7	0.00e+00	0	51	104	0	75	23348
2026-01-30 06:13:47.38	55.94	11.66	-52.3	-56.1	3.7	0.00e+00	0	51	104	0	75	23207
2026-01-30 06:13:48.10	55.73	11.67	-52.3	-56.2	3.7	0.00e+00	0	51	104	0	75	23459
2026-01-30 06:13:49.39	55.37	11.67	-52.4	-56.1	3.7	0.00e+00	0	51	104	0	75	23178
2026-01-30 06:13:50.10	55.17	11.68	-52.3	-56.0	3.7	0.00e+00	0	51	104	0	75	22959
2026-01-30 06:13:51.39	54.81	11.68	-52.3	-56.0	3.7	0.00e+00	0	51	104	0	75	23089
2026-01-30 06:13:52.11	54.60	11.68	-52.3	-56.0	3.7	0.00e+00	0	51	104	0	75	22964
2026-01-30 06:13:53.72	54.15	11.69	-52.0	-55.9	3.7	0.00e+00	0	51	104	0	75	22734
2026-01-30 06:13:54.29	53.99	11.69	-52.0	-55.9	3.7	0.00e+00	0	51	104	0	75	22691
2026-01-30 06:13:55.90	53.53	11.69	-52.1	-55.9	3.7	0.00e+00	0	51	104	0	75	22728
2026-01-30 06:13:56.47	53.37	11.69	-52.0	-55.8	3.7	0.00e+00	0	51	104	0	75	22462
2026-01-30 06:13:58.07	52.92	11.69	-52.0	-55.5	3.7	0.00e+00	0	51	104	0	75	21703
2026-01-30 06:13:58.76	52.72	11.69	-52.0	-55.8	3.7	0.00e+00	0	51	104	0	75	22474
2026-01-30 06:14:00.19	52.32	11.69	-51.9	-55.4	3.7	0.00e+00	0	51	104	0	75	21505
2026-01-30 06:14:00.91	52.11	11.69	-52.4	-55.9	3.7	0.00e+00	0	51	104	0	75	22886
2026-01-30 06:14:02.20	51.75	11.69	-52.1	-55.6	3.7	0.00e+00	0	51	104	0	75	21861
2026-01-30 06:14:02.91	51.55	11.68	-52.2	-55.6	3.7	0.00e+00	0	51	104	0	75	22010
2026-01-30 06:14:04.20	51.18	11.68	-52.1	-55.5	3.7	0.00e+00	0	51	104	0	75	21697
2026-01-30 06:14:04.92	50.98	11.68	-52.0	-55.3	3.7	0.00e+00	0	51	104	0	75	21300
2026-01-30 06:14:06.20	50.62	11.67	-51.8	-54.9	3.7	0.00e+00	0	51	104	0	75	20288
2026-01-30 06:14:06.92	50.42	11.67	-51.8	-54.9	3.7	0.00e+00	0	51	104	0	75	20291
2026-01-30 06:14:08.21	50.05	11.66	-51.9	-55.0	3.7	0.00e+00	0	51	104	0	75	20618
2026-01-30 06:14:09.28	49.75	11.65	-52.0	-55.2	3.7	0.00e+00	0	51	104	0	75	21107
2026-01-30 06:14:10.13	49.51	11.65	-51.8	-55.0	3.7	0.00e+00	0	51	104	0	75	20402
2026-01-30 06:14:11.28	49.19	11.64	-51.7	-54.7	3.7	0.00e+00	0	51	104	0	75	19778
2026-01-30 06:14:12.14	48.95	11.63	-51.6	-54.5	3.7	0.00e+00	0	51	104	0	75	19302
2026-01-30 06:14:13.32	48.61	11.62	-51.9	-55.1	3.7	0.00e+00	0	51	104	0	75	20803
2026-01-30 06:14:14.18	48.37	11.61	-51.9	-55.4	3.7	0.00e+00	0	51	104	0	75	21359
2026-01-30 06:14:15.40	48.03	11.60	-51.9	-55.2	3.7	0.00e+00	0	51	104	0	75	20999
2026-01-30 06:14:16.26	47.79	11.59	-51.8	-55.1	3.7	0.00e+00	0	51	104	0	75	20863
2026-01-30 06:14:17.41	47.47	11.58	-51.7	-55.4	3.7	0.00e+00	0	51	104	0	75	21466
2026-01-30 06:14:18.28	47.22	11.57	-51.8	-55.6	3.7	0.00e+00	0	51	104	0	75	22035
2026-01-30 06:14:19.57	46.86	11.55	-52.0	-55.5	3.7	0.00e+00	0	51	104	0	75	21708
2026-01-30 06:14:20.29	46.66	11.54	-52.2	-55.7	3.7	0.00e+00	0	51	104	0	75	22276
2026-01-30 06:14:21.58	46.30	11.53	-52.2	-55.7	3.7	0.00e+00	0	51	104	0	75	22259
2026-01-30 06:14:22.29	46.10	11.52	-52.2	-55.7	3.7	0.00e+00	0	51	104	0	75	22164
2026-01-30 06:14:23.58	45.75	11.50	-52.1	-55.5	3.7	0.00e+00	0	51	104	0	75	21850
2026-01-30 06:14:24.30	45.55	11.49	-52.1	-55.5	3.7	0.00e+00	0	51	104	0	75	21818
2026-01-30 06:14:25.58	45.19	11.47	-51.6	-54.9	3.7	0.00e+00	0	51	104	0	75	20293
2026-01-30 06:14:26.30	44.99	11.46	-51.1	-54.3	3.7	0.00e+00	0	51	104	0	74	20137
2026-01-30 06:14:27.59	44.63	11.44	-51.7	-55.2	3.7	0.00e+00	0	51	104	0	74	22297
2026-01-30 06:14:28.30	44.44	11.42	-52.2	-55.7	3.7	0.00e+00	0	51	104	0	74	23443
2026-01-30 06:14:29.59	44.08	11.40	-51.1	-54.3	3.7	0.00e+00	0	51	104	0	74	20096
2026-01-30 06:14:30.31	43.88	11.39	-51.0	-54.3	3.7	0.00e+00	0	51	104	0	73	21173
2026-01-30 06:14:31.60	43.53	11.36	-51.7	-55.1	3.7	0.00e+00	0	51	104	0	74	21954
2026-01-30 06:14:32.31	43.33	11.35	-51.9	-55.4	3.7	0.00e+00	0	51	104	0	74	22751
2026-01-30 06:14:33.68	42.96	11.32	-51.9	-55.7	3.7	0.00e+00	0	51	104	0	74	23474
2026-01-30 06:14:34.40	42.76	11.31	-51.8	-55.6	3.7	0.00e+00	0	51	104	0	74	23264
2026-01-30 06:14:35.69	42.41	11.28	-50.5	-54.0	3.7	0.00e+00	0	51	104	0	73	20581
2026-01-30 06:14:36.40	42.21	11.27	-49.6	-52.4	3.7	0.00e+00	0	51	104	0	71	19119
2026-01-30 06:14:37.68	41.87	11.24	-48.9	-51.3	3.8	0.00e+00	0	51	104	0	69	18891
2026-01-30 06:14:38.40	41.67	11.22	-48.9	-51.1	3.8	0.00e+00	0	51	104	0	69	18524
2026-01-30 06:14:39.69	41.32	11.20	-48.7	-50.8	3.9	0.00e+00	0	51	104	0	68	18894
2026-01-30 06:14:40.40	41.13	11.18	-49.5	-51.9	3.8	0.00e+00	0	51	104	0	69	20213
2026-01-30 06:14:41.69	40.78	11.15	-51.0	-54.5	3.7	0.00e+00	0	51	104	0	72	22921
2026-01-30 06:14:42.41	40.59	11.13	-51.3	-55.2	3.7	0.00e+00	0	51	104	0	73	23625
2026-01-30 06:14:43.69	40.24	11.10	-51.2	-54.7	3.7	0.00e+00	0	51	104	0	73	22144
2026-01-30 06:14:44.41	40.05	11.08	-50.9	-53.9	3.7	0.00e+00	0	51	104	0	73	20263
2026-01-30 06:14:45.70	39.70	11.05	-48.4	-49.9	4.0	0.00e+00	0	51	104	0	68	17054
2026-01-30 06:14:46.41	39.51	11.03	-48.8	-51.0	3.9	0.00e+00	0	51	104	0	68	19379
2026-01-30 06:14:47.70	39.17	11.00	-47.3	-48.9	4.2	0.00e+00	0	51	104	0	66	17144
2026-01-30 06:14:48.42	38.98	10.98	-46.8	-48.3	4.3	0.00e+00	0	51	104	0	65	16930
2026-01-30 06:14:49.70	38.64	10.94	-46.0	-47.8	4.3	0.00e+00	0	51	104	0	63	17876
2026-01-30 06:14:50.67	38.38	10.91	-45.2	-47.2	4.2	0.00e+00	0	51	104	0	62	17722
2026-01-30 06:14:52.00	38.03	10.88	-44.6	-46.9	4.2	0.00e+00	0	51	104	0	61	18030
2026-01-30 06:14:52.71	37.84	10.86	-44.6	-47.0	4.3	0.00e+00	0	51	104	0	61	18331
2026-01-30 06:14:54.00	37.50	10.82	-44.8	-47.4	4.2	0.00e+00	0	51	104	0	61	19039
2026-01-30 06:14:54.72	37.32	10.80	-45.8	-48.4	4.1	0.00e+00	0	51	104	0	62	20191
2026-01-30 06:14:56.01	36.98	10.76	-47.9	-49.6	4.0	0.00e+00	0	51	104	0	66	18490
2026-01-30 06:14:56.72	36.79	10.73	-46.6	-48.6	4.2	0.00e+00	0	51	104	0	65	17516
2026-01-30 06:14:58.02	36.46	10.69	-48.4	-50.8	3.8	0.00e+00	0	51	104	0	67	20033
2026-01-30 06:14:58.98	36.21	10.66	-48.1	-50.5	3.8	0.00e+00	0	51	104	0	67	19351
2026-01-30 06:14:59.98	35.95	10.63	-47.4	-49.2	4.0	0.00e+00	0	51	104	0	66	17583
2026-01-30 06:15:00.98	35.69	10.60	-47.7	-49.3	4.0	0.00e+00	0	51	104	0	66	17926
2026-01-30 06:15:01.99	35.43	10.57	-50.1	-52.9	3.7	0.00e+00	0	51	104	0	70	21493
2026-01-30 06:15:02.99	35.18	10.53	-50.0	-53.1	3.7	0.00e+00	0	51	104	0	71	20678
2026-01-30 06:15:03.99	34.92	10.50	-48.5	-50.7	3.8	0.00e+00	0	51	104	0	68	18742
2026-01-30 06:15:04.99	34.67	10.47	-49.6	-52.7	3.7	0.00e+00	0	51	104	0	69	22124
2026-01-30 06:15:05.99	34.41	10.43	-49.6	-51.9	3.8	0.00e+00	0	51	104	0	70	19240
2026-01-30 06:15:07.00	34.16	10.40	-50.7	-54.8	3.7	0.00e+00	0	51	104	0	72	23932
2026-01-30 06:15:08.00	33.90	10.36	-50.3	-54.3	3.7	0.00e+00	0	51	104	0	72	22562
2026-01-30 06:15:09.00	33.65	10.33	-49.5	-52.7	3.7	0.00e+00	0	51	104	0	70	21024
2026-01-30 06:15:10.00	33.40	10.29	-49.1	-51.8	3.8	0.00e+00	0	51	104	0	70	18851
2026-01-30 06:15:11.00	33.15	10.25	-49.9	-52.8	3.7	0.00e+00	0	51	104	0	70	21162
2026-01-30 06:15:12.01	32.90	10.22	-50.8	-53.7	3.7	0.00e+00	0	51	104	0	72	21070
2026-01-30 06:15:13.01	32.65	10.18	-50.4	-54.7	3.7	0.00e+00	0	51	104	0	72	23520
2026-01-30 06:15:14.01	32.40	10.14	-50.9	-54.6	3.7	0.00e+00	0	51	104	0	72	23335
2026-01-30 06:15:15.01	32.15	10.10	-50.1	-53.8	3.7	0.00e+00	0	51	104	0	72	21302
2026-01-30 06:15:16.01	31.91	10.07	-49.9	-54.1	3.7	0.00e+00	0	51	104	0	71	23301
2026-01-30 06:15:17.01	31.66	10.03	-50.2	-54.2	3.7	0.00e+00	0	51	104	0	71	23429
2026-01-30 06:15:18.01	31.42	9.99	-50.7	-54.7	3.7	0.00e+00	0	51	104	0	72	23447
2026-01-30 06:15:19.02	31.17	9.95	-51.0	-54.8	3.7	0.00e+00	0	51	104	0	72	23935
2026-01-30 06:15:20.02	30.93	9.91	-50.6	-54.6	3.6	0.00e+00	0	51	104	0	73	21905
2026-01-30 06:15:21.02	30.69	9.87	-50.2	-53.9	3.7	0.00e+00	0	52	104	0	72	21434
2026-01-30 06:15:22.02	30.45	9.83	-50.4	-54.7	3.7	0.00e+00	0	51	104	0	72	23519
2026-01-30 06:15:23.02	30.21	9.79	-50.8	-53.8	3.7	0.00e+00	0	51	104	0	72	21275
2026-01-30 06:15:24.03	29.96	9.75	-50.6	-54.1	3.7	0.00e+00	0	51	104	0	72	21981
2026-01-30 06:15:25.03	29.73	9.71	-50.8	-53.9	3.7	0.00e+00	0	51	104	0	72	21478
2026-01-30 06:15:26.03	29.49	9.66	-50.9	-54.4	3.7	0.00e+00	0	51	104	0	72	22710
2026-01-30 06:15:27.04	29.25	9.62	-50.8	-54.9	3.7	0.00e+00	0	51	104	0	72	24078
2026-01-30 06:15:28.04	29.01	9.58	-50.9	-55.0	3.7	0.00e+00	0	51	104	0	72	24424
2026-01-30 06:15:29.04	28.78	9.54	-50.8	-54.8	3.7	0.00e+00	0	51	104	0	72	23933
2026-01-30 06:15:30.04	28.54	9.50	-50.6	-54.4	3.7	0.00e+00	0	51	104	0	72	22632
2026-01-30 06:15:31.04	28.31	9.45	-50.6	-54.0	3.7	0.00e+00	0	51	104	0	72	21690
2026-01-30 06:15:32.04	28.08	9.41	-51.0	-54.2	3.7	0.00e+00	0	51	104	0	72	22356
2026-01-30 06:15:33.04	27.84	9.37	-50.5	-53.7	3.7	0.00e+00	0	51	104	0	72	21110
2026-01-30 06:15:34.05	27.61	9.32	-50.6	-53.8	3.7	0.00e+00	0	51	104	0	72	21300
2026-01-30 06:15:35.05	27.38	9.28	-51.0	-54.3	3.7	0.00e+00	0	51	104	0	72	22465
2026-01-30 06:15:36.05	27.15	9.23	-51.6	-55.2	3.7	0.00e+00	0	51	104	0	73	23570
2026-01-30 06:15:37.05	26.92	9.19	-51.9	-55.7	3.7	0.00e+00	0	51	104	0	74	23522
2026-01-30 06:15:38.05	26.70	9.14	-51.7	-55.6	3.7	0.00e+00	0	51	104	0	74	23159
2026-01-30 06:15:39.05	26.47	9.10	-51.3	-55.2	3.7	0.00e+00	0	52	104	0	74	22219
2026-01-30 06:15:40.05	26.24	9.05	-50.4	-54.8	3.7	0.00e+00	0	51	104	0	72	23719
2026-01-30 06:15:41.06	26.02	9.01	-50.6	-54.8	3.7	0.00e+00	0	51	104	0	72	23912
2026-01-30 06:15:42.06	25.79	8.96	-51.0	-55.4	3.7	0.00e+00	0	51	104	0	73	24056
2026-01-30 06:15:43.07	25.57	8.92	-51.2	-55.3	3.7	0.00e+00	0	51	104	0	73	23939
2026-01-30 06:15:44.07	25.35	8.87	-51.6	-55.4	3.7	0.00e+00	0	51	104	0	74	22787
2026-01-30 06:15:45.07	25.13	8.82	-50.9	-54.0	3.7	0.00e+00	0	51	104	0	72	21756
2026-01-30 06:15:46.08	24.90	8.78	-51.9	-55.9	3.7	0.00e+00	0	51	104	0	75	22816
2026-01-30 06:15:47.08	24.68	8.73	-51.6	-55.2	3.7	0.00e+00	0	51	104	0	75	20903
2026-01-30 06:15:48.08	24.47	8.68	-51.9	-55.3	3.7	0.00e+00	0	51	104	0	74	22516
2026-01-30 06:15:49.09	24.25	8.64	-52.5	-56.0	3.7	0.00e+00	0	52	104	0	75	22936
2026-01-30 06:15:50.09	24.03	8.59	-52.5	-56.3	3.7	0.00e+00	0	51	104	0	76	22445
2026-01-30 06:15:51.10	23.81	8.54	-52.7	-56.4	3.7	0.00e+00	0	51	104	0	76	22644
2026-01-30 06:15:52.10	23.60	8.49	-52.7	-56.4	3.7	0.00e+00	0	51	104	0	76	22706
2026-01-30 06:15:53.10	23.38	8.44	-53.0	-56.5	3.7	0.00e+00	0	51	104	0	76	23126
2026-01-30 06:15:54.11	23.17	8.40	-53.0	-56.6	3.7	0.00e+00	0	52	104	0	76	23256
2026-01-30 06:15:55.11	22.96	8.35	-52.9	-56.5	3.7	0.00e+00	0	52	104	0	76	22951
2026-01-30 06:15:56.11	22.74	8.30	-52.9	-56.4	3.7	0.00e+00	0	51	104	0	76	22840
2026-01-30 06:15:57.12	22.53	8.25	-53.0	-56.7	3.7	0.00e+00	0	51	104	0	76	23428
2026-01-30 06:15:58.12	22.32	8.20	-52.9	-56.6	3.7	0.00e+00	0	51	104	0	76	23372
2026-01-30 06:15:59.13	22.11	8.15	-52.7	-56.5	3.7	0.00e+00	0	51	104	0	76	23125
2026-01-30 06:16:00.13	21.90	8.10	-52.9	-56.6	3.7	0.00e+00	0	51	104	0	76	23329
2026-01-30 06:16:01.14	21.70	8.05	-53.0	-56.7	3.7	0.00e+00	0	51	104	0	76	23577
2026-01-30 06:16:02.14	21.49	8.00	-53.2	-56.8	3.7	0.00e+00	0	51	104	0	77	22437
2026-01-30 06:16:03.14	21.28	7.95	-53.1	-56.7	3.7	0.00e+00	0	51	104	0	77	22325
2026-01-30 06:16:04.15	21.08	7.90	-52.9	-56.7	3.7	0.00e+00	0	51	104	0	77	22164
2026-01-30 06:16:05.15	20.88	7.85	-52.5	-56.2	3.7	0.00e+00	0	51	104	0	76	22290
2026-01-30 06:16:06.16	20.67	7.80	-52.3	-56.1	3.7	0.00e+00	0	51	104	0	76	22051
2026-01-30 06:16:07.16	20.47	7.75	-52.3	-56.2	3.7	0.00e+00	0	51	104	0	76	22196
2026-01-30 06:16:08.16	20.27	7.70	-52.6	-56.4	3.7	0.00e+00	0	51	104	0	76	22879
2026-01-30 06:16:09.17	20.07	7.65	-52.7	-56.5	3.7	0.00e+00	0	51	104	0	76	22980
2026-01-30 06:16:10.17	19.87	7.60	-52.7	-56.3	3.7	0.00e+00	0	51	104	0	76	22555
2026-01-30 06:16:11.17	19.67	7.55	-52.7	-56.4	3.7	0.00e+00	0	51	104	0	76	22692
2026-01-30 06:16:12.18	19.47	7.50	-52.5	-56.2	3.7	0.00e+00	0	51	104	0	76	22245
2026-01-30 06:16:13.18	19.28	7.44	-52.1	-56.0	3.7	0.00e+00	0	51	104	0	76	21812
2026-01-30 06:16:14.19	19.08	7.39	-51.8	-56.0	3.7	0.00e+00	0	51	104	0	75	22961
2026-01-30 06:16:15.19	18.89	7.34	-52.0	-56.0	3.7	0.00e+00	0	51	104	0	75	23019
2026-01-30 06:16:16.19	18.69	7.29	-51.7	-55.8	3.7	0.00e+00	0	51	104	0	75	22484
2026-01-30 06:16:17.20	18.50	7.24	-52.0	-56.0	3.7	0.00e+00	0	51	104	0	75	23043
2026-01-30 06:16:18.20	18.31	7.19	-52.4	-56.0	3.7	0.00e+00	0	51	104	0	75	23083
2026-01-30 06:16:19.21	18.11	7.13	-52.5	-56.2	3.7	0.00e+00	0	51	104	0	75	23435
2026-01-30 06:16:20.21	17.92	7.08	-51.8	-54.8	3.7	0.00e+00	0	51	104	0	75	20066
2026-01-30 06:16:21.21	17.74	7.03	-51.9	-54.8	3.7	0.00e+00	0	51	104	0	75	19947
2026-01-30 06:16:22.22	17.55	6.98	-51.6	-54.7	3.7	0.00e+00	0	51	104	0	75	19925
2026-01-30 06:16:23.22	17.36	6.92	-51.6	-54.7	3.7	0.00e+00	0	51	104	0	75	19855
2026-01-30 06:16:24.23	17.17	6.87	-51.6	-54.7	3.7	0.00e+00	0	51	104	0	75	19782
2026-01-30 06:16:25.23	16.99	6.82	-51.6	-54.7	3.7	0.00e+00	0	52	104	0	75	19801
2026-01-30 06:16:26.24	16.80	6.77	-51.5	-54.6	3.7	0.00e+00	0	51	104	0	75	19693
2026-01-30 06:16:27.24	16.62	6.71	-51.5	-54.7	3.7	0.00e+00	0	51	104	0	75	19810
2026-01-30 06:16:28.25	16.43	6.66	-51.6	-54.7	3.7	0.00e+00	0	51	104	0	75	19742
2026-01-30 06:16:29.25	16.25	6.61	-51.5	-54.7	3.7	0.00e+00	0	52	104	0	75	19759
2026-01-30 06:16:30.25	16.07	6.55	-51.5	-54.7	3.7	0.00e+00	0	51	104	0	75	19823
2026-01-30 06:16:31.26	15.89	6.50	-51.5	-54.7	3.7	0.00e+00	0	51	104	0	75	19781
2026-01-30 06:16:32.26	15.71	6.45	-51.5	-54.7	3.7	0.00e+00	0	51	104	0	75	19776
2026-01-30 06:16:33.27	15.53	6.39	-51.5	-54.7	3.7	0.00e+00	0	51	104	0	75	19780
2026-01-30 06:16:34.27	15.35	6.34	-51.5	-54.7	3.7	0.00e+00	0	51	104	0	75	19718
2026-01-30 06:16:35.28	15.17	6.29	-51.5	-54.6	3.7	0.00e+00	0	51	104	0	74	20729
2026-01-30 06:16:36.28	14.99	6.23	-51.5	-54.7	3.7	0.00e+00	0	52	104	0	74	20882
2026-01-30 06:16:37.28	14.82	6.18	-51.5	-54.7	3.7	0.00e+00	0	52	104	0	74	21063
2026-01-30 06:16:38.29	14.64	6.13	-51.5	-54.6	3.7	0.00e+00	0	51	104	0	74	20848
2026-01-30 06:16:39.29	14.47	6.07	-51.4	-54.6	3.7	0.00e+00	0	52	104	0	74	20682
2026-01-30 06:16:40.30	14.29	6.02	-51.5	-54.6	3.7	0.00e+00	0	51	104	0	74	20709
2026-01-30 06:16:41.30	14.12	5.97	-51.5	-54.6	3.7	0.00e+00	0	52	104	0	74	20827
2026-01-30 06:16:42.30	13.95	5.91	-51.4	-54.5	3.7	0.00e+00	0	52	104	0	74	20489
2026-01-30 06:16:43.31	13.78	5.86	-51.5	-54.7	3.7	0.00e+00	0	52	104	0	74	21041
2026-01-30 06:16:44.31	13.61	5.80	-51.4	-54.6	3.7	0.00e+00	0	51	104	0	74	20644
2026-01-30 06:16:45.31	13.44	5.75	-51.5	-54.7	3.7	0.00e+00	0	51	104	0	74	20888
2026-01-30 06:16:46.32	13.27	5.70	-51.5	-54.6	3.7	0.00e+00	0	51	104	0	74	20657
2026-01-30 06:16:47.32	13.11	5.64	-51.5	-54.7	3.7	0.00e+00	0	52	104	0	74	20873
2026-01-30 06:16:48.33	12.94	5.59	-51.4	-54.6	3.7	0.00e+00	0	51	104	0	74	20683
2026-01-30 06:16:49.33	12.77	5.53	-51.4	-54.6	3.7	0.00e+00	0	51	104	0	74	20647
2026-01-30 06:16:50.33	12.61	5.48	-51.4	-54.6	3.7	0.00e+00	0	51	104	0	74	20722
2026-01-30 06:16:51.34	12.44	5.43	-51.5	-54.6	3.7	0.00e+00	0	51	104	0	74	20663
2026-01-30 06:16:52.34	12.28	5.37	-51.5	-54.6	3.7	0.00e+00	0	51	104	0	74	20697
2026-01-30 06:16:53.34	12.12	5.32	-51.4	-54.6	3.7	0.00e+00	0	51	104	0	74	20667
2026-01-30 06:16:54.35	11.95	5.26	-51.4	-54.6	3.7	0.00e+00	0	52	104	0	74	20634
2026-01-30 06:16:55.35	11.79	5.21	-51.5	-54.6	3.7	0.00e+00	0	52	104	0	74	20761
2026-01-30 06:16:56.35	11.63	5.16	-51.4	-54.6	3.7	0.00e+00	0	52	104	0	74	20755
2026-01-30 06:16:57.36	11.47	5.10	-51.4	-54.6	3.7	0.00e+00	0	51	104	0	74	20653
2026-01-30 06:16:58.36	11.31	5.05	-51.4	-54.6	3.7	0.00e+00	0	51	104	0	74	20766
2026-01-30 06:16:59.36	11.16	4.99	-51.5	-54.6	3.7	0.00e+00	0	51	104	0	74	20767

#Closed at: 2026-01-30 06:17:00
#Recorded file [0 MB]: D:/Data/31040_260130_091056.dat