passes_logs/2026/01/14/R2M6_AANII_01/R2M6_AANII_01__20260114_140759_FENGYUN_3D_rec.log

#Pass ID: 20260114_140759_FENGYUN 3D
#Satellite: FENGYUN 3D
#Configuration: FENGYUN 3D
#almurnet v.1.7.20240730
#Start time: 2026-01-14 14:07:59

#Version: 2.2.20231116
#Station: R2M6_AANII_01
#Location: 30.233357 lon 59.946436 lat
#TLE: 1 43010U 17072A   26013.59402220  .00000029  00000+0  35477-4 0  9991
#TLE: 2 43010  98.9934 345.3884 0002280 110.7757 249.3663 14.19695359423056

#Time	Az	El	Level	Level2	SNR	BER	BlckErr	Temp	State	Recorded	gain1	gain2
2026-01-14 14:07:59.58	218.77	7.01	-28.1	-30.4	5.7	7.54e-01	0	40	0	0	16	4691
2026-01-14 14:08:00.58	218.88	7.07	-30.3	-34.1	5.2	7.81e-01	0	40	104	0	20	5610
2026-01-14 14:08:01.58	218.98	7.13	-30.2	-33.9	9.0	3.90e-02	0	40	0	0	20	5504
2026-01-14 14:08:02.58	219.09	7.19	-30.1	-33.7	9.1	2.26e-02	0	41	0	5242880	20	5406
2026-01-14 14:08:03.58	219.19	7.25	-30.2	-33.7	9.1	3.94e-02	0	40	0	10485760	20	5417
2026-01-14 14:08:04.58	219.30	7.31	-29.7	-32.4	10.0	1.30e-02	0	40	0	16777216	20	4914
2026-01-14 14:08:05.59	219.40	7.37	-29.3	-31.7	10.9	4.75e-03	0	40	0	22020096	19	4759
2026-01-14 14:08:06.58	219.51	7.43	-28.9	-30.8	11.5	1.36e-03	0	41	0	27262976	19	4477
2026-01-14 14:08:07.58	219.62	7.49	-28.7	-30.6	12.0	8.11e-04	0	41	0	33554432	18	4517
2026-01-14 14:08:08.59	219.73	7.55	-28.1	-29.8	12.8	1.11e-04	0	41	0	38797312	17	4370
2026-01-14 14:08:09.59	219.83	7.61	-27.8	-29.1	13.2	3.43e-05	0	41	0	45088768	17	4182
2026-01-14 14:08:10.59	219.94	7.67	-27.5	-28.9	13.7	8.00e-06	0	41	0	50331648	16	4213
2026-01-14 14:08:11.59	220.05	7.73	-27.4	-28.7	13.8	9.10e-06	0	41	0	55574528	16	4163
2026-01-14 14:08:12.59	220.16	7.79	-27.4	-28.5	13.9	8.00e-06	0	41	0	61865984	16	4115
2026-01-14 14:08:13.59	220.27	7.85	-27.4	-28.7	13.8	4.50e-06	0	41	0	67108864	16	4155
2026-01-14 14:08:14.60	220.38	7.91	-27.5	-28.7	13.8	6.80e-06	0	41	0	73400320	16	4163
2026-01-14 14:08:15.60	220.49	7.97	-27.4	-28.5	13.9	3.40e-06	0	41	0	78643200	16	4109
2026-01-14 14:08:16.60	220.60	8.03	-27.1	-28.4	14.1	2.20e-06	0	41	0	83886080	15	4196
2026-01-14 14:08:17.60	220.71	8.09	-27.0	-28.2	14.2	2.20e-06	0	41	0	90177536	15	4130
2026-01-14 14:08:18.60	220.82	8.16	-27.1	-28.5	14.1	2.20e-06	0	41	0	95420416	15	4212
2026-01-14 14:08:19.60	220.94	8.22	-27.1	-28.3	14.2	3.40e-06	0	41	0	100663296	15	4171
2026-01-14 14:08:20.61	221.05	8.28	-26.8	-27.8	14.5	1.10e-06	0	41	0	106954752	15	4023
2026-01-14 14:08:21.62	221.16	8.34	-26.7	-28.1	14.6	0.00e+00	0	41	0	112197632	14	4214
2026-01-14 14:08:22.62	221.28	8.40	-26.6	-27.9	14.8	0.00e+00	0	41	0	117440512	14	4145
2026-01-14 14:08:23.63	221.39	8.46	-26.6	-27.7	14.9	0.00e+00	0	41	0	123731968	14	4096
2026-01-14 14:08:24.64	221.51	8.52	-26.7	-28.0	14.7	0.00e+00	0	41	0	128974848	14	4187
2026-01-14 14:08:25.63	221.62	8.58	-26.7	-28.0	14.7	2.20e-06	0	41	0	135266304	14	4184
2026-01-14 14:08:26.64	221.74	8.65	-26.6	-27.9	14.8	0.00e+00	0	41	0	140509184	14	4141
2026-01-14 14:08:27.64	221.86	8.71	-26.7	-28.0	14.7	1.10e-06	0	41	0	146800640	14	4187
2026-01-14 14:08:28.65	221.97	8.77	-26.7	-28.0	14.8	0.00e+00	0	41	0	152043520	14	4172
2026-01-14 14:08:29.65	222.09	8.83	-26.7	-28.0	14.8	0.00e+00	0	41	0	157286400	14	4168
2026-01-14 14:08:30.64	222.21	8.89	-26.8	-28.1	14.7	0.00e+00	0	41	0	163577856	14	4200
2026-01-14 14:08:31.65	222.33	8.95	-26.6	-27.8	14.8	0.00e+00	0	41	0	168820736	14	4130
2026-01-14 14:08:32.65	222.44	9.02	-26.6	-27.7	14.9	0.00e+00	0	41	0	174063616	14	4105
2026-01-14 14:08:33.64	222.56	9.08	-26.5	-27.5	15.0	0.00e+00	0	41	0	180355072	14	4059
2026-01-14 14:08:34.65	222.68	9.14	-26.6	-27.7	14.9	0.00e+00	0	41	0	185597952	14	4091
2026-01-14 14:08:35.65	222.80	9.20	-26.5	-27.5	15.1	0.00e+00	0	41	0	190840832	14	4041
2026-01-14 14:08:36.66	222.92	9.26	-26.4	-27.4	15.1	0.00e+00	0	41	0	197132288	14	4020
2026-01-14 14:08:37.66	223.04	9.32	-26.5	-27.6	15.0	0.00e+00	0	41	0	202375168	14	4065
2026-01-14 14:08:38.67	223.17	9.39	-26.4	-27.2	15.2	0.00e+00	0	42	0	208666624	14	3978
2026-01-14 14:08:39.67	223.29	9.45	-26.2	-27.4	15.4	0.00e+00	0	41	0	213909504	13	4130
2026-01-14 14:08:40.68	223.41	9.51	-26.3	-27.5	15.3	0.00e+00	0	41	0	219152384	13	4148
2026-01-14 14:08:41.69	223.54	9.57	-26.3	-27.6	15.3	0.00e+00	0	41	0	225443840	13	4174
2026-01-14 14:08:42.69	223.66	9.64	-26.3	-27.7	15.3	0.00e+00	0	42	0	230686720	13	4190
2026-01-14 14:08:43.69	223.78	9.70	-26.3	-27.6	15.3	0.00e+00	0	41	0	236978176	13	4189
2026-01-14 14:08:44.70	223.91	9.76	-26.4	-27.8	15.2	0.00e+00	0	41	0	242221056	13	4223
2026-01-14 14:08:45.70	224.03	9.82	-26.5	-28.0	15.1	0.00e+00	0	42	0	247463936	13	4294
2026-01-14 14:08:46.71	224.16	9.89	-26.5	-28.0	15.1	0.00e+00	0	42	0	253755392	13	4276
2026-01-14 14:08:47.71	224.29	9.95	-26.3	-27.6	15.3	0.00e+00	0	42	0	258998272	13	4174
2026-01-14 14:08:48.71	224.41	10.01	-26.2	-27.4	15.4	0.00e+00	0	41	0	264241152	13	4122
2026-01-14 14:08:49.71	224.54	10.07	-26.3	-27.5	15.4	0.00e+00	0	42	0	270532608	13	4145
2026-01-14 14:08:50.72	224.67	10.13	-26.3	-27.5	15.4	0.00e+00	0	42	0	275775488	13	4137
2026-01-14 14:08:51.72	224.80	10.20	-26.3	-27.5	15.4	0.00e+00	0	41	0	282066944	13	4144
2026-01-14 14:08:52.72	224.92	10.26	-26.3	-27.6	15.3	0.00e+00	0	42	0	287309824	13	4179
2026-01-14 14:08:53.73	225.05	10.32	-26.3	-27.5	15.4	0.00e+00	0	42	0	292552704	13	4156
2026-01-14 14:08:54.73	225.18	10.38	-26.4	-27.8	15.2	0.00e+00	0	42	0	298844160	13	4235
2026-01-14 14:08:55.73	225.31	10.45	-26.4	-27.8	15.3	0.00e+00	0	42	0	304087040	13	4221
2026-01-14 14:08:56.73	225.44	10.51	-26.4	-27.7	15.3	0.00e+00	0	42	0	310378496	13	4210
2026-01-14 14:08:57.74	225.58	10.57	-26.4	-27.8	15.2	0.00e+00	0	42	0	315621376	13	4237
2026-01-14 14:08:58.75	225.71	10.64	-26.3	-27.6	15.4	0.00e+00	0	42	0	320864256	13	4173
2026-01-14 14:08:59.76	225.84	10.70	-26.3	-27.7	15.3	0.00e+00	0	42	0	327155712	13	4194
2026-01-14 14:09:00.76	225.98	10.76	-26.2	-27.4	15.5	0.00e+00	0	42	0	332398592	13	4107
2026-01-14 14:09:01.76	226.11	10.82	-26.1	-27.1	15.7	0.00e+00	0	42	0	337641472	13	4031
2026-01-14 14:09:02.77	226.24	10.89	-26.0	-26.9	15.8	0.00e+00	0	42	0	343932928	13	3999
2026-01-14 14:09:03.77	226.38	10.95	-26.2	-27.3	15.6	0.00e+00	0	42	0	349175808	13	4081
2026-01-14 14:09:04.77	226.51	11.01	-26.0	-26.8	15.8	0.00e+00	0	42	0	355467264	13	3973
2026-01-14 14:09:05.78	226.65	11.08	-26.1	-27.0	15.7	0.00e+00	0	42	0	360710144	13	4022
2026-01-14 14:09:06.77	226.79	11.14	-26.0	-27.0	15.7	0.00e+00	0	42	0	365953024	13	4012
2026-01-14 14:09:07.77	226.92	11.20	-26.1	-27.1	15.7	0.00e+00	0	42	0	372244480	13	4036
2026-01-14 14:09:08.78	227.06	11.26	-26.1	-27.1	15.7	0.00e+00	0	42	0	377487360	13	4032
2026-01-14 14:09:09.78	227.20	11.33	-26.1	-27.2	15.6	0.00e+00	0	42	0	382730240	13	4067
2026-01-14 14:09:10.78	227.34	11.39	-26.2	-27.3	15.6	2.20e-06	0	42	0	389021696	13	4100
2026-01-14 14:09:11.79	227.48	11.45	-26.1	-27.1	15.7	0.00e+00	0	42	0	394264576	13	4055
2026-01-14 14:09:12.79	227.62	11.52	-26.2	-27.3	15.6	0.00e+00	0	42	0	400556032	13	4088
2026-01-14 14:09:13.79	227.76	11.58	-26.1	-27.2	15.6	2.20e-06	0	42	0	405798912	13	4076
2026-01-14 14:09:14.79	227.90	11.64	-26.1	-27.2	15.7	0.00e+00	0	42	0	411041792	13	4064
2026-01-14 14:09:15.79	228.04	11.70	-26.2	-27.3	15.6	0.00e+00	0	42	0	417333248	13	4088
2026-01-14 14:09:16.79	228.18	11.77	-26.4	-27.8	15.3	0.00e+00	0	42	0	422576128	13	4221
2026-01-14 14:09:17.79	228.32	11.83	-26.3	-27.6	15.4	0.00e+00	0	42	0	428867584	13	4167
2026-01-14 14:09:18.79	228.47	11.89	-26.3	-27.6	15.4	0.00e+00	0	42	0	434110464	13	4165
2026-01-14 14:09:19.80	228.61	11.96	-26.3	-27.6	15.4	0.00e+00	0	42	0	439353344	13	4171
2026-01-14 14:09:20.80	228.76	12.02	-26.3	-27.6	15.5	0.00e+00	0	42	0	445644800	13	4165
2026-01-14 14:09:21.81	228.90	12.08	-26.4	-27.8	15.3	0.00e+00	0	42	0	450887680	13	4224
2026-01-14 14:09:22.81	229.05	12.15	-26.3	-27.6	15.4	0.00e+00	0	42	0	456130560	13	4168
2026-01-14 14:09:23.82	229.20	12.21	-26.1	-27.1	15.7	0.00e+00	0	42	0	462422016	13	4043
2026-01-14 14:09:24.82	229.34	12.27	-26.2	-27.3	15.7	0.00e+00	0	42	0	467664896	13	4079
2026-01-14 14:09:25.82	229.49	12.33	-26.2	-27.3	15.6	0.00e+00	0	42	0	472907776	13	4083
2026-01-14 14:09:26.82	229.64	12.40	-25.9	-26.7	15.9	0.00e+00	0	42	0	479199232	13	3947
2026-01-14 14:09:27.83	229.79	12.46	-25.8	-26.5	16.1	0.00e+00	0	42	0	484442112	13	3887
2026-01-14 14:09:28.83	229.94	12.52	-25.8	-26.5	16.1	0.00e+00	0	42	0	490733568	13	3879
2026-01-14 14:09:29.82	230.09	12.59	-25.8	-26.9	16.2	0.00e+00	0	42	0	495976448	12	4091
2026-01-14 14:09:30.83	230.24	12.65	-25.7	-26.7	16.2	0.00e+00	0	42	0	501219328	12	4052
2026-01-14 14:09:31.83	230.39	12.71	-25.7	-26.8	16.3	0.00e+00	0	42	0	507510784	12	4062
2026-01-14 14:09:32.84	230.54	12.77	-25.7	-26.6	16.3	0.00e+00	0	42	0	512753664	12	4025
2026-01-14 14:09:33.84	230.69	12.84	-25.6	-26.6	16.3	0.00e+00	0	42	0	519045120	12	4011
2026-01-14 14:09:34.85	230.85	12.90	-25.6	-26.6	16.3	0.00e+00	0	42	0	524288000	12	4020
2026-01-14 14:09:35.85	231.00	12.96	-25.8	-27.0	16.1	0.00e+00	0	42	0	529530880	12	4111
2026-01-14 14:09:36.85	231.16	13.03	-25.6	-26.6	16.3	0.00e+00	0	42	0	535822336	12	4006
2026-01-14 14:09:37.85	231.31	13.09	-25.5	-26.3	16.5	0.00e+00	0	42	0	541065216	12	3954
2026-01-14 14:09:38.86	231.47	13.15	-25.4	-26.2	16.6	0.00e+00	0	42	0	546308096	12	3909
2026-01-14 14:09:39.86	231.62	13.21	-25.4	-26.1	16.6	0.00e+00	0	42	0	552599552	12	3902
2026-01-14 14:09:40.87	231.78	13.28	-25.5	-26.3	16.5	0.00e+00	0	42	0	557842432	12	3944
2026-01-14 14:09:41.87	231.94	13.34	-25.7	-26.7	16.3	0.00e+00	0	42	0	564133888	12	4040
2026-01-14 14:09:42.87	232.10	13.40	-25.6	-26.5	16.4	0.00e+00	0	42	0	569376768	12	3998
2026-01-14 14:09:43.87	232.26	13.46	-25.5	-26.4	16.5	0.00e+00	0	42	0	574619648	12	3963
2026-01-14 14:09:44.87	232.42	13.53	-25.6	-26.5	16.4	0.00e+00	0	42	0	580911104	12	3995
2026-01-14 14:09:45.87	232.58	13.59	-25.5	-26.3	16.5	0.00e+00	0	42	0	586153984	12	3943
2026-01-14 14:09:46.88	232.74	13.65	-25.5	-26.4	16.5	0.00e+00	0	42	0	591396864	12	3955
2026-01-14 14:09:47.88	232.90	13.71	-25.4	-26.1	16.6	0.00e+00	0	42	0	597688320	12	3893
2026-01-14 14:09:48.88	233.06	13.78	-25.3	-25.9	16.8	0.00e+00	0	42	0	602931200	12	3846
2026-01-14 14:09:49.88	233.22	13.84	-25.4	-26.0	16.7	0.00e+00	0	42	0	608174080	12	3862
2026-01-14 14:09:50.88	233.39	13.90	-25.3	-25.9	16.8	0.00e+00	0	42	0	614465536	12	3832
2026-01-14 14:09:51.88	233.55	13.96	-25.3	-25.8	16.8	0.00e+00	0	42	0	619708416	12	3826
2026-01-14 14:09:52.89	233.72	14.03	-25.4	-26.0	16.7	0.00e+00	0	42	0	625999872	12	3874
2026-01-14 14:09:53.89	233.88	14.09	-25.5	-26.2	16.6	0.00e+00	0	43	0	631242752	12	3923
2026-01-14 14:09:54.89	234.05	14.15	-25.5	-26.3	16.6	0.00e+00	0	42	0	637534208	12	3940
2026-01-14 14:09:55.90	234.22	14.21	-25.7	-26.6	16.4	0.00e+00	0	42	0	642777088	12	4013
2026-01-14 14:09:56.90	234.38	14.27	-25.6	-26.4	16.5	0.00e+00	0	43	0	648019968	12	3965
2026-01-14 14:09:57.90	234.55	14.33	-25.7	-26.6	16.4	0.00e+00	0	42	0	654311424	12	4020
2026-01-14 14:09:58.90	234.72	14.40	-25.8	-26.9	16.2	0.00e+00	0	43	0	659554304	12	4088
2026-01-14 14:09:59.90	234.89	14.46	-25.8	-26.8	16.3	0.00e+00	0	42	0	664797184	12	4076
2026-01-14 14:10:00.91	235.06	14.52	-25.8	-26.9	16.3	0.00e+00	0	42	0	671088640	12	4085
2026-01-14 14:10:01.91	235.23	14.58	-25.8	-26.9	16.3	0.00e+00	0	42	0	676331520	12	4088
2026-01-14 14:10:02.92	235.40	14.64	-25.8	-26.9	16.2	0.00e+00	0	42	0	681574400	12	4104
2026-01-14 14:10:03.92	235.58	14.70	-25.7	-26.7	16.4	0.00e+00	0	42	0	687865856	12	4046
2026-01-14 14:10:04.92	235.75	14.77	-25.7	-26.6	16.4	0.00e+00	0	43	0	693108736	12	4024
2026-01-14 14:10:05.92	235.92	14.83	-25.8	-26.9	16.3	0.00e+00	0	43	0	699400192	12	4076
2026-01-14 14:10:06.92	236.10	14.89	-25.6	-26.4	16.6	3.40e-06	0	42	0	704643072	12	3956
2026-01-14 14:10:07.92	236.27	14.95	-25.8	-26.9	16.3	0.00e+00	0	43	0	709885952	12	4084
2026-01-14 14:10:08.92	236.45	15.01	-25.5	-26.3	16.6	0.00e+00	0	43	0	716177408	12	3944
2026-01-14 14:10:09.93	236.63	15.07	-25.3	-25.9	16.8	0.00e+00	0	42	0	721420288	12	3833
2026-01-14 14:10:10.93	236.80	15.13	-25.3	-26.4	16.9	0.00e+00	0	42	0	726663168	11	4062
2026-01-14 14:10:11.93	236.98	15.19	-25.5	-26.7	16.7	0.00e+00	0	42	0	732954624	11	4153
2026-01-14 14:10:12.93	237.16	15.25	-25.4	-26.6	16.8	0.00e+00	0	42	0	738197504	11	4122
2026-01-14 14:10:13.94	237.34	15.31	-25.4	-26.4	16.9	0.00e+00	0	43	0	744488960	11	4078
2026-01-14 14:10:14.94	237.52	15.37	-25.3	-26.4	16.9	0.00e+00	0	43	0	749731840	11	4065
2026-01-14 14:10:15.95	237.70	15.43	-25.3	-26.3	17.0	0.00e+00	0	43	0	754974720	11	4028
2026-01-14 14:10:16.95	237.88	15.49	-25.3	-26.3	17.0	0.00e+00	0	43	0	761266176	11	4031
2026-01-14 14:10:17.95	238.06	15.55	-25.4	-26.4	16.9	0.00e+00	0	43	0	766509056	11	4075
2026-01-14 14:10:18.96	238.25	15.61	-25.2	-26.1	17.1	0.00e+00	0	43	0	772800512	11	3993
2026-01-14 14:10:19.97	238.43	15.67	-25.1	-25.9	17.2	0.00e+00	0	43	0	778043392	11	3939
2026-01-14 14:10:20.97	238.62	15.73	-25.1	-25.9	17.2	0.00e+00	0	43	0	783286272	11	3940
2026-01-14 14:10:21.97	238.80	15.79	-25.2	-26.0	17.1	1.10e-06	0	42	0	789577728	11	3975
2026-01-14 14:10:22.98	238.99	15.85	-25.0	-25.7	17.3	0.00e+00	0	43	0	794820608	11	3896
2026-01-14 14:10:23.98	239.18	15.91	-25.0	-25.6	17.4	0.00e+00	0	43	0	801112064	11	3867
2026-01-14 14:10:24.99	239.36	15.97	-25.0	-25.7	17.4	0.00e+00	0	43	0	806354944	11	3887
2026-01-14 14:10:26.00	239.55	16.03	-24.9	-25.4	17.5	0.00e+00	0	43	0	811597824	11	3822
2026-01-14 14:10:27.00	239.74	16.09	-24.9	-25.5	17.5	0.00e+00	0	43	0	817889280	11	3840
2026-01-14 14:10:28.00	239.93	16.14	-25.1	-25.9	17.2	1.10e-06	0	43	0	823132160	11	3932
2026-01-14 14:10:29.01	240.12	16.20	-25.0	-25.7	17.4	0.00e+00	0	43	0	829423616	11	3881
2026-01-14 14:10:30.01	240.31	16.26	-24.9	-25.5	17.4	0.00e+00	0	43	0	834666496	11	3851
2026-01-14 14:10:31.01	240.50	16.32	-25.0	-25.6	17.4	0.00e+00	0	43	0	839909376	11	3882
2026-01-14 14:10:32.01	240.70	16.38	-25.0	-25.6	17.4	0.00e+00	0	43	0	846200832	11	3862
2026-01-14 14:10:33.01	240.89	16.43	-25.1	-25.8	17.3	0.00e+00	0	43	0	851443712	11	3912
2026-01-14 14:10:34.02	241.08	16.49	-25.0	-25.7	17.4	0.00e+00	0	43	0	856686592	11	3885
2026-01-14 14:10:35.02	241.28	16.55	-25.0	-25.7	17.4	0.00e+00	0	43	0	862978048	11	3884
2026-01-14 14:10:36.03	241.47	16.61	-25.0	-25.6	17.4	0.00e+00	0	43	0	868220928	11	3859
2026-01-14 14:10:37.03	241.67	16.66	-25.0	-25.7	17.4	0.00e+00	0	43	0	873463808	11	3890
2026-01-14 14:10:38.03	241.86	16.72	-24.9	-25.4	17.5	0.00e+00	0	43	0	879755264	11	3828
2026-01-14 14:10:39.03	242.06	16.78	-24.9	-25.5	17.5	0.00e+00	0	43	0	884998144	11	3843
2026-01-14 14:10:40.03	242.26	16.83	-25.0	-25.7	17.3	0.00e+00	0	43	0	891289600	11	3897
2026-01-14 14:10:41.03	242.46	16.89	-24.8	-25.3	17.6	0.00e+00	0	42	0	896532480	11	3806
2026-01-14 14:10:42.03	242.66	16.94	-24.9	-25.5	17.5	0.00e+00	0	43	0	901775360	11	3830
2026-01-14 14:10:43.03	242.86	17.00	-25.1	-25.8	17.4	0.00e+00	0	43	0	908066816	11	3903
2026-01-14 14:10:44.02	243.05	17.05	-24.8	-25.3	17.6	0.00e+00	0	43	0	913309696	11	3794
2026-01-14 14:10:45.03	243.26	17.11	-24.7	-25.6	17.7	0.00e+00	0	43	0	918552576	10	3967
2026-01-14 14:10:46.03	243.46	17.17	-24.8	-25.8	17.6	0.00e+00	0	43	0	924844032	10	4025
2026-01-14 14:10:47.04	243.66	17.22	-24.7	-25.6	17.7	0.00e+00	0	43	0	930086912	10	3970
2026-01-14 14:10:48.03	243.87	17.27	-24.7	-25.5	17.8	0.00e+00	0	43	0	935329792	10	3956
2026-01-14 14:10:49.04	244.07	17.33	-24.8	-25.7	17.6	0.00e+00	0	42	0	941621248	10	3998
2026-01-14 14:10:50.04	244.28	17.38	-25.0	-26.1	17.4	0.00e+00	0	43	0	946864128	10	4109
2026-01-14 14:10:51.04	244.48	17.44	-24.8	-25.8	17.6	0.00e+00	0	43	0	953155584	10	4015
2026-01-14 14:10:52.04	244.69	17.49	-24.7	-25.5	17.8	0.00e+00	0	43	0	958398464	10	3951
2026-01-14 14:10:53.04	244.89	17.54	-24.7	-25.6	17.8	0.00e+00	0	43	0	964689920	10	3965
2026-01-14 14:10:54.05	245.10	17.60	-24.8	-25.8	17.6	0.00e+00	0	43	0	969932800	10	4017
2026-01-14 14:10:55.05	245.31	17.65	-24.6	-25.4	17.9	0.00e+00	0	43	0	975175680	10	3910
2026-01-14 14:10:56.06	245.52	17.70	-24.7	-25.5	17.8	0.00e+00	0	43	0	981467136	10	3953
2026-01-14 14:10:57.06	245.73	17.76	-24.9	-25.9	17.6	0.00e+00	0	43	0	986710016	10	4052
2026-01-14 14:10:58.05	245.94	17.81	-24.8	-25.6	17.7	0.00e+00	0	43	0	991952896	10	3982
2026-01-14 14:10:59.05	246.15	17.86	-25.0	-26.1	17.5	0.00e+00	0	43	0	998244352	10	4087
2026-01-14 14:11:00.05	246.36	17.91	-24.8	-25.8	17.7	0.00e+00	0	43	0	1003487232	10	4009
2026-01-14 14:11:01.06	246.58	17.96	-24.8	-25.6	17.7	0.00e+00	0	43	0	1008730112	10	3973
2026-01-14 14:11:02.06	246.79	18.01	-24.8	-25.7	17.7	0.00e+00	0	42	0	1015021568	10	4005
2026-01-14 14:11:03.06	247.01	18.06	-24.8	-25.7	17.7	0.00e+00	0	43	0	1020264448	10	3992
2026-01-14 14:11:04.08	247.23	18.12	-24.7	-25.5	17.9	0.00e+00	0	43	0	1026555904	10	3941
2026-01-14 14:11:05.08	247.44	18.17	-24.7	-25.6	17.8	0.00e+00	0	42	0	1031798784	10	3961
2026-01-14 14:11:06.09	247.66	18.22	-24.9	-26.0	17.6	0.00e+00	0	43	0	1038090240	10	4060
2026-01-14 14:11:07.09	247.88	18.27	-24.7	-25.4	17.9	0.00e+00	0	43	0	1043333120	10	3930
2026-01-14 14:11:08.09	248.09	18.32	-24.6	-25.2	18.0	0.00e+00	0	43	0	1048576000	10	3881
2026-01-14 14:11:09.10	248.31	18.37	-24.6	-25.2	18.0	0.00e+00	0	43	0	1054867456	10	3881
2026-01-14 14:11:10.10	248.53	18.41	-24.5	-25.1	18.0	0.00e+00	0	43	0	1060110336	10	3850
2026-01-14 14:11:11.11	248.75	18.46	-24.6	-25.3	17.9	0.00e+00	0	43	0	1065353216	10	3896
2026-01-14 14:11:12.11	248.97	18.51	-24.5	-25.1	18.0	1.10e-06	0	43	0	1071644672	10	3857
2026-01-14 14:11:13.11	249.19	18.56	-24.5	-25.1	18.0	0.00e+00	0	43	0	1076887552	10	3855
2026-01-14 14:11:14.12	249.42	18.61	-24.5	-25.0	18.1	0.00e+00	0	43	0	1082130432	10	3840
2026-01-14 14:11:15.12	249.64	18.65	-24.5	-25.2	18.0	2.20e-06	0	43	0	1088421888	10	3871
2026-01-14 14:11:16.12	249.86	18.70	-24.7	-25.4	17.9	0.00e+00	0	43	0	1093664768	10	3920
2026-01-14 14:11:17.12	250.09	18.75	-24.4	-24.9	18.1	0.00e+00	0	43	0	1099956224	10	3802
2026-01-14 14:11:18.12	250.31	18.79	-24.5	-25.0	18.1	0.00e+00	0	43	0	1105199104	10	3838
2026-01-14 14:11:19.12	250.54	18.84	-24.7	-25.4	17.9	0.00e+00	0	43	0	1110441984	10	3922
2026-01-14 14:11:20.13	250.76	18.88	-24.4	-24.9	18.2	0.00e+00	0	43	0	1116733440	10	3793
2026-01-14 14:11:21.13	250.99	18.93	-24.3	-24.6	18.3	3.40e-06	0	43	0	1121976320	10	3736
2026-01-14 14:11:22.13	251.22	18.97	-24.3	-24.7	18.3	0.00e+00	0	43	0	1127219200	10	3750
2026-01-14 14:11:23.13	251.44	19.02	-24.4	-24.9	18.2	0.00e+00	0	43	0	1133510656	10	3814
2026-01-14 14:11:24.14	251.67	19.06	-24.6	-25.3	18.0	2.20e-06	0	43	0	1138753536	10	3891
2026-01-14 14:11:25.14	251.90	19.11	-24.6	-25.2	18.0	0.00e+00	0	43	0	1145044992	10	3872
2026-01-14 14:11:26.14	252.13	19.15	-24.7	-25.4	17.9	0.00e+00	0	43	0	1150287872	10	3929
2026-01-14 14:11:27.14	252.36	19.19	-24.9	-25.9	17.7	6.80e-06	0	43	0	1155530752	10	4034
2026-01-14 14:11:28.14	252.59	19.23	-24.6	-25.3	18.0	0.00e+00	0	43	0	1161822208	10	3906
2026-01-14 14:11:29.16	252.83	19.28	-24.4	-24.8	18.3	0.00e+00	0	43	0	1167065088	10	3777
2026-01-14 14:11:30.16	253.06	19.32	-24.2	-24.9	18.4	0.00e+00	0	43	0	1173356544	9	3917
2026-01-14 14:11:31.16	253.29	19.36	-24.3	-25.0	18.4	0.00e+00	0	43	0	1178599424	9	3940
2026-01-14 14:11:32.16	253.52	19.40	-24.4	-25.4	18.2	0.00e+00	0	43	0	1183842304	9	4031
2026-01-14 14:11:33.16	253.76	19.44	-24.5	-25.6	18.1	0.00e+00	0	43	0	1190133760	9	4070
2026-01-14 14:11:34.17	253.99	19.48	-24.7	-26.0	17.9	0.00e+00	0	43	0	1195376640	9	4180
2026-01-14 14:11:35.18	254.23	19.52	-24.5	-25.7	18.1	0.00e+00	0	43	0	1200619520	9	4098
2026-01-14 14:11:36.18	254.47	19.56	-24.5	-25.5	18.1	3.40e-06	0	43	0	1206910976	9	4057
2026-01-14 14:11:37.19	254.71	19.60	-24.5	-25.5	18.1	0.00e+00	0	43	0	1212153856	9	4051
2026-01-14 14:11:38.19	254.94	19.64	-24.5	-25.7	18.1	0.00e+00	0	43	0	1218445312	9	4093
2026-01-14 14:11:39.20	255.18	19.68	-24.4	-25.3	18.3	0.00e+00	0	43	0	1223688192	9	3994
2026-01-14 14:11:40.20	255.42	19.72	-24.5	-25.6	18.1	0.00e+00	0	43	0	1228931072	9	4074
2026-01-14 14:11:41.21	255.66	19.75	-24.4	-25.4	18.2	0.00e+00	0	43	0	1235222528	9	4038
2026-01-14 14:11:42.22	255.90	19.79	-24.5	-25.5	18.2	0.00e+00	0	43	0	1240465408	9	4066
2026-01-14 14:11:43.22	256.14	19.83	-24.3	-25.2	18.3	0.00e+00	0	43	0	1246756864	9	3991
2026-01-14 14:11:44.23	256.38	19.86	-24.3	-25.1	18.4	0.00e+00	0	43	0	1251999744	9	3966
2026-01-14 14:11:45.23	256.62	19.90	-24.4	-25.3	18.3	0.00e+00	0	43	0	1257242624	9	3992
2026-01-14 14:11:46.24	256.87	19.93	-24.3	-25.1	18.4	0.00e+00	0	43	0	1263534080	9	3950
2026-01-14 14:11:47.24	257.11	19.97	-24.2	-24.9	18.5	0.00e+00	0	43	0	1268776960	9	3905
2026-01-14 14:11:48.24	257.35	20.00	-24.3	-25.1	18.4	0.00e+00	0	43	0	1275068416	9	3945
2026-01-14 14:11:49.24	257.59	20.04	-24.4	-25.3	18.3	0.00e+00	0	43	0	1280311296	9	3997
2026-01-14 14:11:50.25	257.84	20.07	-24.2	-24.9	18.5	0.00e+00	0	43	0	1285554176	9	3913
2026-01-14 14:11:51.25	258.08	20.10	-24.1	-24.8	18.5	0.00e+00	0	43	0	1291845632	9	3886
2026-01-14 14:11:52.26	258.33	20.13	-24.1	-24.7	18.6	0.00e+00	0	43	0	1297088512	9	3849
2026-01-14 14:11:53.26	258.57	20.17	-24.0	-24.5	18.7	0.00e+00	0	43	0	1302331392	9	3806
2026-01-14 14:11:54.27	258.82	20.20	-23.9	-24.3	18.8	0.00e+00	0	43	0	1308622848	9	3775
2026-01-14 14:11:55.27	259.07	20.23	-24.0	-24.5	18.7	0.00e+00	0	43	0	1313865728	9	3814
2026-01-14 14:11:56.27	259.31	20.26	-24.0	-24.4	18.7	0.00e+00	0	43	0	1320157184	9	3791
2026-01-14 14:11:57.27	259.56	20.29	-24.0	-24.5	18.7	0.00e+00	0	43	0	1325400064	9	3815
2026-01-14 14:11:58.27	259.81	20.32	-24.0	-24.5	18.7	0.00e+00	0	43	0	1330642944	9	3823
2026-01-14 14:11:59.28	260.06	20.35	-24.1	-24.6	18.6	0.00e+00	0	43	0	1336934400	9	3842
2026-01-14 14:12:00.28	260.30	20.37	-24.1	-24.6	18.6	0.00e+00	0	43	0	1342177280	9	3843
2026-01-14 14:12:01.29	260.56	20.40	-24.2	-24.9	18.5	0.00e+00	0	43	0	1348468736	9	3907
2026-01-14 14:12:02.29	260.80	20.43	-24.1	-24.8	18.5	0.00e+00	0	43	0	1353711616	9	3883
2026-01-14 14:12:03.29	261.05	20.46	-24.2	-24.9	18.5	0.00e+00	0	43	0	1358954496	9	3909
2026-01-14 14:12:04.29	261.30	20.48	-24.3	-25.2	18.3	0.00e+00	0	43	0	1365245952	9	3981
2026-01-14 14:12:05.30	261.56	20.51	-24.3	-25.2	18.4	0.00e+00	0	43	0	1370488832	9	3970
2026-01-14 14:12:06.31	261.81	20.53	-24.4	-25.3	18.3	0.00e+00	0	43	0	1375731712	9	3993
2026-01-14 14:12:07.31	262.06	20.56	-24.2	-25.0	18.5	0.00e+00	0	43	0	1382023168	9	3926
2026-01-14 14:12:08.31	262.31	20.58	-24.2	-24.8	18.5	0.00e+00	0	43	0	1387266048	9	3900
2026-01-14 14:12:09.31	262.56	20.61	-24.2	-24.9	18.5	0.00e+00	0	43	0	1393557504	9	3917
2026-01-14 14:12:10.31	262.81	20.63	-24.3	-25.1	18.4	0.00e+00	0	43	0	1398800384	9	3948
2026-01-14 14:12:11.31	263.07	20.65	-24.3	-25.1	18.4	0.00e+00	0	43	0	1404043264	9	3947
2026-01-14 14:12:12.31	263.32	20.67	-24.3	-25.2	18.3	0.00e+00	0	43	0	1410334720	9	3989
2026-01-14 14:12:13.32	263.57	20.69	-24.4	-25.4	18.2	0.00e+00	0	43	0	1415577600	9	4031
2026-01-14 14:12:14.32	263.83	20.72	-24.6	-25.7	18.1	0.00e+00	0	43	0	1420820480	9	4112
2026-01-14 14:12:15.32	264.08	20.74	-24.4	-25.4	18.3	0.00e+00	0	43	0	1427111936	9	4022
2026-01-14 14:12:16.32	264.34	20.76	-24.3	-25.2	18.4	0.00e+00	0	43	0	1432354816	9	3978
2026-01-14 14:12:17.32	264.59	20.78	-24.4	-25.3	18.3	0.00e+00	0	43	0	1437597696	9	4000
2026-01-14 14:12:18.32	264.84	20.79	-24.4	-25.4	18.2	0.00e+00	0	43	0	1443889152	9	4032
2026-01-14 14:12:19.32	265.10	20.81	-24.5	-25.5	18.2	0.00e+00	0	43	0	1449132032	9	4065
2026-01-14 14:12:20.33	265.36	20.83	-24.3	-25.1	18.4	1.10e-06	0	43	0	1455423488	9	3949
2026-01-14 14:12:21.33	265.61	20.85	-24.1	-24.7	18.6	0.00e+00	0	43	0	1460666368	9	3854
2026-01-14 14:12:22.33	265.87	20.86	-24.0	-24.5	18.7	0.00e+00	0	43	0	1465909248	9	3809
2026-01-14 14:12:23.33	266.12	20.88	-24.0	-24.5	18.7	6.80e-06	0	43	0	1472200704	9	3822
2026-01-14 14:12:24.33	266.38	20.90	-24.1	-24.8	18.6	0.00e+00	0	43	0	1477443584	9	3884
2026-01-14 14:12:25.34	266.64	20.91	-24.2	-24.8	18.6	0.00e+00	0	43	0	1483735040	9	3896
2026-01-14 14:12:26.34	266.90	20.92	-24.2	-25.0	18.5	8.00e-06	0	43	0	1488977920	9	3936
2026-01-14 14:12:27.33	267.15	20.94	-24.1	-24.8	18.6	0.00e+00	0	43	0	1494220800	9	3889
2026-01-14 14:12:28.34	267.41	20.95	-24.1	-24.7	18.6	0.00e+00	0	43	0	1500512256	9	3860
2026-01-14 14:12:29.33	267.67	20.96	-24.0	-24.6	18.7	3.40e-06	0	43	0	1505755136	9	3833
2026-01-14 14:12:30.34	267.93	20.98	-23.9	-24.3	18.8	0.00e+00	0	43	0	1510998016	9	3764
2026-01-14 14:12:31.34	268.18	20.99	-24.0	-24.5	18.7	0.00e+00	0	43	0	1517289472	9	3807
2026-01-14 14:12:32.34	268.44	21.00	-24.1	-24.7	18.6	1.10e-06	0	43	0	1522532352	9	3859
2026-01-14 14:12:33.34	268.70	21.01	-24.0	-24.6	18.7	0.00e+00	0	43	0	1528823808	9	3830
2026-01-14 14:12:34.34	268.96	21.02	-24.0	-24.6	18.7	0.00e+00	0	43	0	1534066688	9	3828
2026-01-14 14:12:35.34	269.22	21.03	-24.0	-24.5	18.7	0.00e+00	0	43	0	1539309568	9	3806
2026-01-14 14:12:36.34	269.47	21.04	-23.9	-24.2	18.9	0.00e+00	0	43	0	1545601024	9	3744
2026-01-14 14:12:37.35	269.74	21.04	-23.8	-24.2	18.9	0.00e+00	0	43	0	1550843904	9	3734
2026-01-14 14:12:38.34	269.99	21.05	-23.8	-24.2	18.9	0.00e+00	0	43	0	1556086784	9	3737
2026-01-14 14:12:39.35	270.25	21.06	-23.9	-24.3	18.8	0.00e+00	0	43	0	1562378240	9	3775
2026-01-14 14:12:40.36	270.51	21.06	-24.0	-24.5	18.7	0.00e+00	0	43	0	1567621120	9	3820
2026-01-14 14:12:41.37	270.78	21.07	-24.1	-24.7	18.6	0.00e+00	0	43	0	1572864000	9	3861
2026-01-14 14:12:42.37	271.04	21.07	-24.0	-24.4	18.8	0.00e+00	0	43	0	1579155456	9	3803
2026-01-14 14:12:43.37	271.29	21.08	-23.9	-24.4	18.8	0.00e+00	0	43	0	1584398336	9	3781
2026-01-14 14:12:44.36	271.55	21.08	-24.0	-24.4	18.8	1.10e-06	0	43	0	1590689792	9	3801
2026-01-14 14:12:45.36	271.81	21.09	-23.9	-24.4	18.8	0.00e+00	0	43	0	1595932672	9	3786
2026-01-14 14:12:46.37	272.07	21.09	-24.0	-24.6	18.7	0.00e+00	0	43	0	1601175552	9	3838
2026-01-14 14:12:47.37	272.33	21.09	-24.1	-24.6	18.7	0.00e+00	0	43	0	1607467008	9	3850
2026-01-14 14:12:48.38	272.59	21.09	-24.1	-24.7	18.6	0.00e+00	0	43	0	1612709888	9	3862
2026-01-14 14:12:49.38	272.85	21.09	-24.1	-24.8	18.6	0.00e+00	0	43	0	1617952768	9	3879
2026-01-14 14:12:50.39	273.12	21.09	-24.2	-24.9	18.5	0.00e+00	0	43	0	1624244224	9	3900
2026-01-14 14:12:51.39	273.37	21.09	-24.1	-24.7	18.6	0.00e+00	0	43	0	1629487104	9	3859
2026-01-14 14:12:52.39	273.63	21.09	-24.1	-24.7	18.6	0.00e+00	0	43	0	1635778560	9	3866
2026-01-14 14:12:53.40	273.90	21.09	-24.1	-24.7	18.6	0.00e+00	0	43	0	1641021440	9	3861
2026-01-14 14:12:54.40	274.16	21.09	-24.1	-24.8	18.6	0.00e+00	0	43	0	1646264320	9	3880
2026-01-14 14:12:55.40	274.42	21.09	-24.1	-24.7	18.6	0.00e+00	0	43	0	1652555776	9	3869
2026-01-14 14:12:56.40	274.67	21.08	-24.0	-24.4	18.8	0.00e+00	0	43	0	1657798656	9	3790
2026-01-14 14:12:57.40	274.93	21.08	-23.9	-24.3	18.8	0.00e+00	0	43	0	1664090112	9	3772
2026-01-14 14:12:58.41	275.20	21.08	-23.9	-24.4	18.8	0.00e+00	0	43	0	1669332992	9	3782
2026-01-14 14:12:59.41	275.45	21.07	-24.0	-24.5	18.7	0.00e+00	0	43	0	1674575872	9	3805
2026-01-14 14:13:00.41	275.71	21.07	-24.0	-24.6	18.7	0.00e+00	0	43	0	1680867328	9	3832
2026-01-14 14:13:01.41	275.97	21.06	-24.0	-24.6	18.7	0.00e+00	0	43	0	1686110208	9	3835
2026-01-14 14:13:02.42	276.23	21.05	-24.0	-24.5	18.7	0.00e+00	0	43	0	1691353088	9	3820
2026-01-14 14:13:03.42	276.49	21.05	-24.0	-24.6	18.7	0.00e+00	0	43	0	1697644544	9	3837
2026-01-14 14:13:04.43	276.75	21.04	-24.1	-24.7	18.6	0.00e+00	0	43	0	1702887424	9	3860
2026-01-14 14:13:05.43	277.01	21.03	-24.2	-24.9	18.5	0.00e+00	0	43	0	1708130304	9	3920
2026-01-14 14:13:06.44	277.27	21.02	-24.3	-25.1	18.4	0.00e+00	0	43	0	1714421760	9	3953
2026-01-14 14:13:07.44	277.53	21.01	-24.3	-25.0	18.4	0.00e+00	0	43	0	1719664640	9	3941
2026-01-14 14:13:08.45	277.79	21.00	-24.3	-25.1	18.4	0.00e+00	0	43	0	1725956096	9	3959
2026-01-14 14:13:09.45	278.05	20.99	-24.2	-24.8	18.5	0.00e+00	0	43	0	1731198976	9	3894
2026-01-14 14:13:10.46	278.31	20.98	-24.2	-25.0	18.5	0.00e+00	0	43	0	1737490432	9	3923
2026-01-14 14:13:11.45	278.56	20.97	-24.3	-25.2	18.4	0.00e+00	0	43	0	1742733312	9	3974
2026-01-14 14:13:12.45	278.82	20.95	-24.3	-25.1	18.4	0.00e+00	0	43	0	1747976192	9	3964
2026-01-14 14:13:13.45	279.08	20.94	-24.3	-25.2	18.4	0.00e+00	0	43	0	1754267648	9	3976
2026-01-14 14:13:14.45	279.33	20.93	-24.4	-25.4	18.3	0.00e+00	0	43	0	1759510528	9	4031
2026-01-14 14:13:15.46	279.59	20.91	-24.3	-25.1	18.4	0.00e+00	0	43	0	1764753408	9	3958
2026-01-14 14:13:16.46	279.85	20.90	-24.1	-24.7	18.6	0.00e+00	0	43	0	1771044864	9	3847
2026-01-14 14:13:17.46	280.11	20.88	-24.0	-24.4	18.8	0.00e+00	0	43	0	1776287744	9	3791
2026-01-14 14:13:18.47	280.36	20.87	-23.9	-24.3	18.8	0.00e+00	0	43	0	1782579200	9	3778
2026-01-14 14:13:19.47	280.62	20.85	-23.9	-24.3	18.8	0.00e+00	0	43	0	1787822080	9	3769
2026-01-14 14:13:20.46	280.87	20.83	-24.0	-24.5	18.7	0.00e+00	0	43	0	1793064960	9	3821
2026-01-14 14:13:21.47	281.13	20.82	-24.2	-24.9	18.5	0.00e+00	0	43	0	1799356416	9	3897
2026-01-14 14:13:22.47	281.38	20.80	-24.1	-24.7	18.6	0.00e+00	0	43	0	1804599296	9	3855
2026-01-14 14:13:23.47	281.64	20.78	-24.2	-24.8	18.6	0.00e+00	0	43	0	1809842176	9	3896
2026-01-14 14:13:24.48	281.89	20.76	-24.3	-25.1	18.4	0.00e+00	0	43	0	1816133632	9	3949
2026-01-14 14:13:25.48	282.15	20.74	-24.2	-24.9	18.5	0.00e+00	0	43	0	1821376512	9	3911
2026-01-14 14:13:26.48	282.40	20.72	-24.3	-25.1	18.5	0.00e+00	0	43	0	1826619392	9	3948
2026-01-14 14:13:27.49	282.66	20.70	-24.3	-25.1	18.4	0.00e+00	0	43	0	1832910848	9	3968
2026-01-14 14:13:28.49	282.91	20.68	-24.3	-25.1	18.4	0.00e+00	0	43	0	1838153728	9	3967
2026-01-14 14:13:29.49	283.16	20.66	-24.4	-25.4	18.3	0.00e+00	0	43	0	1844445184	9	4022
2026-01-14 14:13:30.49	283.41	20.63	-24.4	-25.4	18.2	0.00e+00	0	43	0	1849688064	9	4041
2026-01-14 14:13:31.49	283.67	20.61	-24.4	-25.4	18.2	0.00e+00	0	43	0	1855979520	9	4040
2026-01-14 14:13:32.50	283.92	20.59	-24.4	-25.4	18.2	0.00e+00	0	43	0	1861222400	9	4033
2026-01-14 14:13:33.51	284.17	20.56	-24.4	-25.4	18.3	0.00e+00	0	43	0	1866465280	9	4020
2026-01-14 14:13:34.51	284.42	20.54	-24.4	-25.3	18.3	0.00e+00	0	43	0	1872756736	9	3996
2026-01-14 14:13:35.52	284.68	20.51	-24.4	-25.3	18.3	0.00e+00	0	43	0	1877999616	9	3999
2026-01-14 14:13:36.52	284.92	20.49	-24.4	-25.4	18.3	0.00e+00	0	43	0	1883242496	9	4026
2026-01-14 14:13:37.52	285.17	20.46	-24.4	-25.4	18.3	0.00e+00	0	43	0	1889533952	9	4023
2026-01-14 14:13:38.52	285.42	20.43	-24.4	-25.4	18.3	0.00e+00	0	43	0	1894776832	9	4025
2026-01-14 14:13:39.52	285.67	20.41	-24.5	-25.5	18.2	0.00e+00	0	43	0	1900019712	9	4040
2026-01-14 14:13:40.52	285.92	20.38	-24.5	-25.5	18.2	0.00e+00	0	43	0	1906311168	9	4044
2026-01-14 14:13:41.52	286.17	20.35	-24.6	-25.8	18.1	0.00e+00	0	43	0	1911554048	9	4119
2026-01-14 14:13:42.53	286.42	20.32	-24.7	-25.9	18.0	0.00e+00	0	43	0	1917845504	9	4165
2026-01-14 14:13:43.54	286.66	20.29	-24.7	-26.0	17.9	0.00e+00	0	43	0	1923088384	9	4192
2026-01-14 14:13:44.54	286.91	20.26	-24.7	-26.0	18.0	0.00e+00	0	43	0	1929379840	9	4172
2026-01-14 14:13:45.54	287.16	20.23	-24.6	-25.8	18.0	0.00e+00	0	43	0	1934622720	9	4124
2026-01-14 14:13:46.55	287.40	20.20	-24.6	-25.8	18.1	0.00e+00	0	43	0	1939865600	9	4128
2026-01-14 14:13:47.55	287.65	20.17	-24.5	-25.6	18.1	0.00e+00	0	43	0	1946157056	9	4087
2026-01-14 14:13:48.56	287.90	20.14	-24.6	-25.7	18.1	0.00e+00	0	43	0	1951399936	9	4102
2026-01-14 14:13:49.56	288.14	20.11	-24.5	-25.6	18.1	0.00e+00	0	43	0	1956642816	9	4079
2026-01-14 14:13:50.55	288.38	20.08	-24.3	-25.1	18.4	0.00e+00	0	43	0	1962934272	9	3961
2026-01-14 14:13:51.56	288.62	20.04	-24.2	-25.0	18.5	0.00e+00	0	43	0	1968177152	9	3924
2026-01-14 14:13:52.56	288.87	20.01	-24.3	-25.1	18.4	0.00e+00	0	43	0	1973420032	9	3954
2026-01-14 14:13:53.56	289.11	19.98	-24.3	-25.1	18.4	0.00e+00	0	43	0	1979711488	9	3964
2026-01-14 14:13:54.56	289.35	19.94	-24.3	-25.2	18.4	0.00e+00	0	43	0	1984954368	9	3975
2026-01-14 14:13:55.56	289.59	19.91	-24.3	-25.2	18.4	0.00e+00	0	43	0	1991245824	9	3980
2026-01-14 14:13:56.57	289.83	19.87	-24.4	-25.4	18.3	0.00e+00	0	43	0	1996488704	9	4013
2026-01-14 14:13:57.58	290.07	19.84	-24.4	-25.3	18.3	0.00e+00	0	43	0	2001731584	9	4005
2026-01-14 14:13:58.58	290.31	19.80	-24.3	-25.1	18.4	0.00e+00	0	43	0	2008023040	9	3952
2026-01-14 14:13:59.58	290.55	19.76	-24.4	-25.3	18.3	0.00e+00	0	43	0	2013265920	9	4007
2026-01-14 14:14:00.58	290.79	19.73	-24.4	-25.3	18.3	0.00e+00	0	43	0	2018508800	9	4015
2026-01-14 14:14:01.59	291.03	19.69	-24.5	-25.5	18.2	0.00e+00	0	43	0	2024800256	9	4049
2026-01-14 14:14:02.59	291.26	19.65	-24.5	-25.5	18.2	0.00e+00	0	43	0	2030043136	9	4057
2026-01-14 14:14:03.59	291.50	19.61	-24.4	-25.4	18.2	0.00e+00	0	43	0	2036334592	9	4035
2026-01-14 14:14:04.59	291.74	19.57	-24.5	-25.5	18.2	0.00e+00	0	43	0	2041577472	9	4046
2026-01-14 14:14:05.58	291.97	19.54	-24.5	-25.6	18.1	0.00e+00	0	43	0	2046820352	9	4084
2026-01-14 14:14:06.59	292.21	19.50	-24.6	-25.8	18.1	0.00e+00	0	43	0	2053111808	9	4120
2026-01-14 14:14:07.60	292.44	19.46	-24.7	-25.9	17.9	0.00e+00	0	43	0	2058354688	9	4163
2026-01-14 14:14:08.60	292.67	19.42	-24.7	-26.0	17.9	0.00e+00	0	43	0	2064646144	9	4184
2026-01-14 14:14:09.61	292.91	19.37	-24.7	-26.0	17.9	0.00e+00	0	43	0	2069889024	9	4187
2026-01-14 14:14:10.61	293.14	19.33	-24.7	-26.0	17.9	0.00e+00	0	43	0	2075131904	9	4183
2026-01-14 14:14:11.61	293.37	19.29	-24.7	-26.0	17.9	0.00e+00	0	43	0	2081423360	9	4186
2026-01-14 14:14:12.61	293.60	19.25	-24.7	-25.9	18.0	0.00e+00	0	43	0	2086666240	9	4155
2026-01-14 14:14:13.62	293.83	19.21	-24.7	-26.0	17.9	0.00e+00	0	43	0	2091909120	9	4186
2026-01-14 14:14:14.62	294.06	19.17	-24.8	-26.2	17.9	0.00e+00	0	43	0	2098200576	9	4223
2026-01-14 14:14:15.62	294.29	19.12	-24.8	-26.1	17.9	0.00e+00	0	43	0	2103443456	9	4215
2026-01-14 14:14:16.63	294.52	19.08	-24.9	-26.3	17.8	0.00e+00	0	43	0	2108686336	9	4272
2026-01-14 14:14:17.63	294.75	19.04	-24.8	-26.2	17.8	0.00e+00	0	43	0	2114977792	9	4230
2026-01-14 14:14:18.63	294.98	18.99	-24.7	-26.1	17.9	0.00e+00	0	43	0	2120220672	9	4198
2026-01-14 14:14:19.64	295.21	18.95	-24.8	-26.1	17.9	0.00e+00	0	43	0	2126512128	9	4215
2026-01-14 14:14:20.65	295.43	18.90	-24.8	-26.2	17.8	0.00e+00	0	43	0	2131755008	9	4228
2026-01-14 14:14:21.65	295.66	18.86	-24.8	-26.2	17.8	0.00e+00	0	43	0	2138046464	9	4237
2026-01-14 14:14:22.66	295.88	18.81	-24.9	-26.3	17.7	0.00e+00	0	43	0	2143289344	9	4271
2026-01-14 14:14:23.66	296.11	18.76	-24.9	-26.4	17.7	0.00e+00	0	43	0	2148532224	9	4296
2026-01-14 14:14:24.66	296.33	18.72	-24.9	-26.5	17.7	0.00e+00	0	43	0	2154823680	9	4305
2026-01-14 14:14:25.66	296.55	18.67	-25.0	-26.6	17.6	0.00e+00	0	43	0	2160066560	9	4327
2026-01-14 14:14:26.66	296.77	18.63	-24.9	-26.5	17.6	0.00e+00	0	43	0	2165309440	9	4318
2026-01-14 14:14:27.67	297.00	18.58	-24.9	-26.4	17.7	0.00e+00	0	43	0	2171600896	9	4287
2026-01-14 14:14:28.68	297.22	18.53	-25.0	-26.2	17.6	0.00e+00	0	43	0	2176843776	10	4122
2026-01-14 14:14:29.68	297.44	18.48	-25.2	-26.6	17.4	0.00e+00	0	43	0	2182086656	10	4207
2026-01-14 14:14:30.68	297.66	18.43	-25.1	-26.4	17.5	0.00e+00	0	43	0	2188378112	10	4171
2026-01-14 14:14:31.69	297.88	18.39	-25.0	-26.2	17.6	0.00e+00	0	43	0	2193620992	10	4110
2026-01-14 14:14:32.69	298.10	18.34	-25.1	-26.3	17.5	0.00e+00	0	43	0	2199912448	10	4142
2026-01-14 14:14:33.70	298.31	18.29	-25.0	-26.2	17.6	0.00e+00	0	43	0	2205155328	10	4115
2026-01-14 14:14:34.70	298.53	18.24	-25.0	-26.2	17.6	0.00e+00	0	43	0	2211446784	10	4123
2026-01-14 14:14:35.70	298.75	18.19	-25.2	-26.5	17.4	0.00e+00	0	43	0	2216689664	10	4184
2026-01-14 14:14:36.70	298.96	18.14	-25.1	-26.4	17.5	1.10e-06	0	43	0	2221932544	10	4167
2026-01-14 14:14:37.70	299.17	18.09	-25.0	-26.2	17.6	0.00e+00	0	43	0	2228224000	10	4109
2026-01-14 14:14:38.71	299.39	18.04	-25.0	-26.0	17.7	0.00e+00	0	43	0	2233466880	10	4070
2026-01-14 14:14:39.71	299.60	17.99	-25.0	-26.2	17.6	2.20e-06	0	43	0	2238709760	10	4112
2026-01-14 14:14:40.72	299.82	17.94	-25.0	-26.2	17.5	0.00e+00	0	43	0	2245001216	10	4132
2026-01-14 14:14:41.72	300.03	17.89	-25.1	-26.3	17.5	0.00e+00	0	43	0	2250244096	10	4139
2026-01-14 14:14:42.72	300.24	17.83	-25.2	-26.6	17.4	2.20e-06	0	43	0	2255486976	10	4216
2026-01-14 14:14:43.73	300.45	17.78	-25.4	-26.9	17.2	0.00e+00	0	43	0	2261778432	10	4306
2026-01-14 14:14:44.73	300.66	17.73	-25.3	-26.8	17.2	0.00e+00	0	43	0	2267021312	10	4268
2026-01-14 14:14:45.73	300.87	17.68	-25.2	-26.6	17.3	0.00e+00	0	43	0	2273312768	10	4229
2026-01-14 14:14:46.73	301.08	17.62	-25.3	-26.7	17.3	0.00e+00	0	43	0	2278555648	10	4257
2026-01-14 14:14:47.74	301.28	17.57	-25.4	-27.1	17.1	0.00e+00	0	43	0	2284847104	10	4356
2026-01-14 14:14:48.75	301.49	17.52	-25.4	-27.0	17.1	0.00e+00	0	43	0	2290089984	10	4320
2026-01-14 14:14:49.75	301.70	17.46	-25.5	-27.2	17.0	0.00e+00	0	43	0	2295332864	10	4384
2026-01-14 14:14:50.76	301.90	17.41	-25.3	-26.2	17.2	0.00e+00	0	43	0	2301624320	11	4020
2026-01-14 14:14:51.76	302.11	17.36	-25.1	-25.8	17.5	0.00e+00	0	43	0	2306867200	11	3918
2026-01-14 14:14:52.76	302.31	17.30	-25.0	-25.6	17.6	0.00e+00	0	43	0	2312110080	11	3875
2026-01-14 14:14:53.76	302.51	17.25	-25.0	-25.7	17.5	0.00e+00	0	43	0	2318401536	11	3890
2026-01-14 14:14:54.76	302.72	17.20	-25.1	-25.9	17.4	0.00e+00	0	43	0	2323644416	11	3939
2026-01-14 14:14:55.76	302.92	17.14	-25.2	-26.2	17.3	0.00e+00	0	43	0	2328887296	11	4002
2026-01-14 14:14:56.76	303.12	17.09	-25.5	-26.8	16.9	0.00e+00	0	43	0	2335178752	11	4162
2026-01-14 14:14:57.77	303.32	17.03	-25.5	-26.8	16.9	0.00e+00	0	43	0	2340421632	11	4174
2026-01-14 14:14:58.77	303.52	16.98	-25.5	-26.8	16.9	0.00e+00	0	43	0	2346713088	11	4174
2026-01-14 14:14:59.77	303.72	16.92	-25.6	-27.0	16.8	0.00e+00	0	43	0	2351955968	11	4210
2026-01-14 14:15:00.78	303.92	16.86	-25.5	-26.8	16.9	0.00e+00	0	43	0	2357198848	11	4170
2026-01-14 14:15:01.77	304.11	16.81	-25.5	-26.8	16.9	0.00e+00	0	43	0	2363490304	11	4161
2026-01-14 14:15:02.78	304.31	16.75	-25.4	-26.6	17.1	0.00e+00	0	43	0	2368733184	11	4104
2026-01-14 14:15:03.78	304.51	16.70	-25.5	-26.7	17.0	0.00e+00	0	43	0	2375024640	11	4129
2026-01-14 14:15:04.79	304.70	16.64	-25.5	-26.6	17.0	0.00e+00	0	43	0	2380267520	11	4114
2026-01-14 14:15:05.79	304.90	16.58	-25.4	-26.5	17.1	0.00e+00	0	43	0	2385510400	11	4078
2026-01-14 14:15:06.79	305.09	16.53	-25.4	-26.5	17.1	0.00e+00	0	43	0	2391801856	11	4096
2026-01-14 14:15:07.79	305.28	16.47	-25.5	-26.7	17.0	0.00e+00	0	43	0	2397044736	11	4134
2026-01-14 14:15:08.79	305.47	16.41	-25.4	-26.6	17.1	0.00e+00	0	43	0	2402287616	11	4107
2026-01-14 14:15:09.79	305.67	16.36	-25.5	-26.6	17.1	0.00e+00	0	43	0	2408579072	11	4121
2026-01-14 14:15:10.79	305.86	16.30	-25.6	-26.8	16.9	0.00e+00	0	43	0	2413821952	11	4172
2026-01-14 14:15:11.79	306.05	16.24	-25.4	-26.5	17.1	0.00e+00	0	43	0	2420113408	11	4077
2026-01-14 14:15:12.80	306.24	16.18	-25.3	-26.3	17.2	0.00e+00	0	43	0	2425356288	11	4028
2026-01-14 14:15:13.80	306.43	16.12	-25.3	-26.3	17.2	0.00e+00	0	43	0	2430599168	11	4042
2026-01-14 14:15:14.80	306.61	16.07	-25.4	-26.5	17.1	0.00e+00	0	43	0	2436890624	11	4077
2026-01-14 14:15:15.80	306.80	16.01	-25.6	-26.9	16.9	0.00e+00	0	43	0	2442133504	11	4175
2026-01-14 14:15:16.80	306.99	15.95	-25.6	-26.8	16.9	0.00e+00	0	43	0	2447376384	11	4168
2026-01-14 14:15:17.80	307.17	15.89	-25.6	-27.0	16.8	0.00e+00	0	43	0	2453667840	11	4208
2026-01-14 14:15:18.79	307.35	15.83	-25.7	-27.2	16.7	0.00e+00	0	43	0	2458910720	11	4279
2026-01-14 14:15:19.79	307.54	15.77	-25.7	-27.2	16.7	0.00e+00	0	43	0	2464153600	11	4272
2026-01-14 14:15:20.80	307.72	15.72	-25.8	-27.3	16.7	0.00e+00	0	43	0	2470445056	11	4291
2026-01-14 14:15:21.80	307.91	15.66	-25.8	-27.4	16.6	0.00e+00	0	43	0	2475687936	11	4318
2026-01-14 14:15:22.81	308.09	15.60	-26.0	-27.7	16.4	0.00e+00	0	43	0	2481979392	11	4393
2026-01-14 14:15:23.81	308.27	15.54	-25.9	-27.1	16.4	0.00e+00	0	43	0	2487222272	12	4135
2026-01-14 14:15:24.80	308.45	15.48	-26.0	-27.2	16.3	0.00e+00	0	43	0	2492465152	12	4168
2026-01-14 14:15:25.81	308.63	15.42	-26.1	-27.5	16.2	0.00e+00	0	43	0	2498756608	12	4219
2026-01-14 14:15:26.81	308.81	15.36	-26.2	-27.8	16.1	0.00e+00	0	43	0	2503999488	12	4305
2026-01-14 14:15:27.81	308.99	15.30	-26.2	-27.7	16.1	0.00e+00	0	43	0	2509242368	12	4298
2026-01-14 14:15:28.82	309.17	15.24	-26.3	-28.1	15.9	0.00e+00	0	43	0	2515533824	12	4398
2026-01-14 14:15:29.82	309.35	15.18	-26.3	-27.9	16.0	0.00e+00	0	43	0	2520776704	12	4350
2026-01-14 14:15:30.83	309.53	15.12	-26.1	-27.6	16.1	0.00e+00	0	43	0	2526019584	12	4272
2026-01-14 14:15:31.83	309.70	15.06	-25.9	-27.1	16.4	0.00e+00	0	43	0	2532311040	12	4144
2026-01-14 14:15:32.83	309.88	15.00	-25.8	-26.9	16.5	0.00e+00	0	43	0	2537553920	12	4070
2026-01-14 14:15:33.84	310.05	14.94	-25.9	-27.1	16.4	0.00e+00	0	43	0	2543845376	12	4131
2026-01-14 14:15:34.84	310.23	14.88	-25.7	-26.6	16.7	0.00e+00	0	43	0	2549088256	12	4002
2026-01-14 14:15:35.84	310.40	14.82	-25.6	-26.4	16.8	0.00e+00	0	43	0	2555379712	12	3965
2026-01-14 14:15:36.84	310.57	14.76	-25.7	-26.7	16.6	0.00e+00	0	43	0	2560622592	12	4037
2026-01-14 14:15:37.85	310.74	14.70	-25.6	-26.4	16.8	0.00e+00	0	43	0	2565865472	12	3970
2026-01-14 14:15:38.85	310.92	14.63	-25.7	-26.7	16.6	0.00e+00	0	43	0	2572156928	12	4025
2026-01-14 14:15:39.85	311.09	14.57	-25.7	-26.7	16.6	0.00e+00	0	43	0	2577399808	12	4043
2026-01-14 14:15:40.86	311.26	14.51	-25.7	-26.7	16.6	0.00e+00	0	43	0	2582642688	12	4029
2026-01-14 14:15:41.86	311.43	14.45	-25.6	-26.5	16.7	0.00e+00	0	43	0	2588934144	12	3990
2026-01-14 14:15:42.87	311.60	14.39	-25.6	-26.5	16.7	0.00e+00	0	43	0	2594177024	12	3981
2026-01-14 14:15:43.88	311.76	14.33	-25.8	-26.9	16.5	0.00e+00	0	43	0	2599419904	12	4075
2026-01-14 14:15:44.88	311.93	14.27	-25.7	-26.6	16.6	0.00e+00	0	43	0	2605711360	12	4012
2026-01-14 14:15:45.88	312.10	14.21	-25.7	-26.7	16.6	0.00e+00	0	43	0	2610954240	12	4028
2026-01-14 14:15:46.89	312.27	14.14	-25.8	-26.8	16.6	0.00e+00	0	43	0	2617245696	12	4046
2026-01-14 14:15:47.89	312.43	14.08	-25.8	-26.8	16.5	0.00e+00	0	43	0	2622488576	12	4053
2026-01-14 14:15:48.90	312.60	14.02	-25.9	-27.1	16.3	0.00e+00	0	43	0	2628780032	12	4140
2026-01-14 14:15:49.90	312.76	13.96	-25.8	-26.9	16.5	0.00e+00	0	43	0	2634022912	12	4087
2026-01-14 14:15:50.90	312.92	13.90	-25.9	-27.0	16.4	0.00e+00	0	43	0	2639265792	12	4113
2026-01-14 14:15:51.90	313.08	13.84	-25.9	-27.2	16.3	0.00e+00	0	43	0	2645557248	12	4151
2026-01-14 14:15:52.91	313.25	13.77	-26.0	-27.2	16.2	0.00e+00	0	43	0	2650800128	12	4169
2026-01-14 14:15:53.91	313.41	13.71	-26.0	-27.3	16.3	0.00e+00	0	43	0	2656043008	12	4173
2026-01-14 14:15:54.91	313.57	13.65	-26.1	-27.5	16.1	0.00e+00	0	43	0	2662334464	12	4241
2026-01-14 14:15:55.90	313.73	13.59	-26.1	-27.6	16.1	0.00e+00	0	43	0	2667577344	12	4251
2026-01-14 14:15:56.91	313.89	13.53	-26.1	-27.5	16.1	0.00e+00	0	43	0	2672820224	12	4239
2026-01-14 14:15:57.91	314.05	13.47	-26.3	-28.0	15.9	0.00e+00	0	43	0	2679111680	12	4365
2026-01-14 14:15:58.91	314.20	13.40	-26.2	-27.7	16.0	0.00e+00	0	43	0	2684354560	12	4292
2026-01-14 14:15:59.92	314.36	13.34	-26.1	-27.6	16.1	0.00e+00	0	43	0	2690646016	12	4261
2026-01-14 14:16:00.92	314.52	13.28	-26.2	-27.8	15.9	0.00e+00	0	43	0	2695888896	12	4330
2026-01-14 14:16:01.93	314.68	13.22	-26.2	-27.9	15.9	0.00e+00	0	43	0	2701131776	12	4338
2026-01-14 14:16:02.93	314.83	13.15	-26.4	-28.1	15.8	0.00e+00	0	43	0	2707423232	12	4409
2026-01-14 14:16:03.94	314.99	13.09	-26.3	-28.0	15.8	0.00e+00	0	43	0	2712666112	12	4375
2026-01-14 14:16:04.94	315.14	13.03	-26.3	-28.0	15.8	0.00e+00	0	43	0	2718957568	12	4376
2026-01-14 14:16:05.95	315.30	12.97	-26.4	-28.1	15.7	0.00e+00	0	43	0	2724200448	12	4415
2026-01-14 14:16:06.95	315.45	12.91	-26.3	-28.0	15.8	0.00e+00	0	43	0	2729443328	12	4360
2026-01-14 14:16:07.95	315.60	12.84	-26.3	-28.0	15.8	0.00e+00	0	43	0	2735734784	12	4366
2026-01-14 14:16:08.95	315.75	12.78	-26.3	-27.9	15.9	1.10e-06	0	43	0	2740977664	12	4344
2026-01-14 14:16:09.95	315.90	12.72	-26.3	-28.0	15.8	0.00e+00	0	43	0	2746220544	12	4387
2026-01-14 14:16:10.95	316.05	12.66	-26.2	-27.8	15.9	0.00e+00	0	43	0	2752512000	12	4314
2026-01-14 14:16:11.96	316.20	12.59	-26.3	-27.9	15.9	0.00e+00	0	43	0	2757754880	12	4355
2026-01-14 14:16:12.96	316.35	12.53	-26.2	-27.8	15.9	0.00e+00	0	43	0	2764046336	12	4317
2026-01-14 14:16:13.96	316.50	12.47	-26.3	-27.9	15.8	0.00e+00	0	43	0	2769289216	12	4356
2026-01-14 14:16:14.95	316.65	12.41	-26.4	-28.1	15.7	0.00e+00	0	43	0	2774532096	12	4411
2026-01-14 14:16:15.95	316.79	12.35	-26.2	-27.8	15.9	0.00e+00	0	43	0	2780823552	12	4313
2026-01-14 14:16:16.96	316.94	12.28	-26.2	-27.9	15.8	0.00e+00	0	43	0	2786066432	12	4337
2026-01-14 14:16:17.96	317.09	12.22	-26.4	-28.3	15.6	0.00e+00	0	43	0	2791309312	12	4466
2026-01-14 14:16:18.97	317.23	12.16	-26.4	-28.1	15.7	0.00e+00	0	43	0	2797600768	12	4409
2026-01-14 14:16:19.98	317.38	12.09	-26.4	-28.3	15.6	0.00e+00	0	43	0	2802843648	12	4457
2026-01-14 14:16:20.98	317.52	12.03	-26.8	-28.5	15.2	1.10e-06	0	43	0	2809135104	13	4401
2026-01-14 14:16:21.98	317.67	11.97	-27.2	-29.0	14.7	1.10e-06	0	43	0	2814377984	14	4434
2026-01-14 14:16:22.99	317.81	11.91	-27.3	-29.1	14.6	0.00e+00	0	43	0	2819620864	14	4472
2026-01-14 14:16:23.99	317.95	11.85	-27.1	-28.8	14.7	0.00e+00	0	43	0	2825912320	14	4385
2026-01-14 14:16:24.99	318.10	11.78	-27.2	-29.0	14.7	0.00e+00	0	43	0	2831155200	14	4420
2026-01-14 14:16:25.99	318.24	11.72	-27.2	-29.1	14.6	1.10e-06	0	43	0	2837446656	14	4451
2026-01-14 14:16:27.00	318.38	11.66	-27.4	-29.5	14.4	2.20e-06	0	43	0	2842689536	14	4563
2026-01-14 14:16:28.00	318.52	11.60	-27.4	-29.4	14.4	2.20e-06	0	43	0	2847932416	14	4554
2026-01-14 14:16:29.01	318.66	11.53	-27.8	-29.9	13.8	5.70e-06	0	43	0	2854223872	15	4585
2026-01-14 14:16:30.01	318.80	11.47	-27.4	-29.0	14.4	2.20e-06	0	43	0	2859466752	15	4308
2026-01-14 14:16:31.01	318.94	11.41	-27.1	-28.2	14.8	1.10e-06	0	43	0	2864709632	15	4103
2026-01-14 14:16:32.02	319.08	11.35	-26.8	-27.6	15.1	0.00e+00	0	43	0	2871001088	15	3957
2026-01-14 14:16:33.02	319.21	11.28	-26.7	-27.8	15.3	0.00e+00	0	43	0	2876243968	14	4103
2026-01-14 14:16:34.02	319.35	11.22	-26.9	-28.3	15.0	0.00e+00	0	43	0	2882535424	14	4222
2026-01-14 14:16:35.02	319.49	11.16	-26.9	-28.4	15.0	0.00e+00	0	43	0	2887778304	14	4267
2026-01-14 14:16:36.03	319.62	11.10	-27.0	-28.6	14.8	0.00e+00	0	43	0	2893021184	14	4316
2026-01-14 14:16:37.03	319.76	11.03	-27.1	-28.8	14.7	1.10e-06	0	43	0	2899312640	14	4377
2026-01-14 14:16:38.03	319.89	10.97	-27.0	-28.6	14.8	3.40e-06	0	43	0	2904555520	14	4328
2026-01-14 14:16:39.03	320.03	10.91	-27.1	-28.9	14.6	1.10e-06	0	43	0	2909798400	14	4404
2026-01-14 14:16:40.03	320.16	10.85	-27.2	-29.0	14.6	0.00e+00	0	43	0	2916089856	14	4429
2026-01-14 14:16:41.03	320.29	10.79	-27.2	-29.0	14.6	2.20e-06	0	43	0	2921332736	14	4428
2026-01-14 14:16:42.03	320.42	10.72	-27.1	-28.9	14.6	1.10e-06	0	43	0	2926575616	14	4407
2026-01-14 14:16:43.03	320.56	10.66	-27.0	-28.7	14.8	0.00e+00	0	43	0	2932867072	14	4345
2026-01-14 14:16:44.03	320.69	10.60	-26.9	-28.4	14.9	0.00e+00	0	43	0	2938109952	14	4267
2026-01-14 14:16:45.03	320.82	10.54	-27.0	-28.7	14.8	2.20e-06	0	43	0	2944401408	14	4342
2026-01-14 14:16:46.04	320.95	10.48	-26.9	-28.3	15.0	0.00e+00	0	43	0	2949644288	14	4232
2026-01-14 14:16:47.04	321.08	10.41	-27.0	-28.6	14.8	0.00e+00	0	43	0	2955935744	14	4316
2026-01-14 14:16:48.03	321.21	10.35	-26.9	-28.4	14.9	0.00e+00	0	43	0	2961178624	14	4269
2026-01-14 14:16:49.04	321.34	10.29	-27.1	-28.9	14.6	0.00e+00	0	43	0	2966421504	14	4398
2026-01-14 14:16:50.04	321.46	10.23	-27.3	-29.3	14.4	1.10e-06	0	43	0	2972712960	14	4534
2026-01-14 14:16:51.04	321.59	10.17	-27.1	-28.8	14.7	0.00e+00	0	43	0	2977955840	14	4391
2026-01-14 14:16:52.04	321.72	10.11	-27.2	-29.0	14.6	1.10e-06	0	43	0	2983198720	14	4438
2026-01-14 14:16:53.05	321.85	10.04	-27.2	-29.0	14.6	1.10e-06	0	43	0	2989490176	14	4435
2026-01-14 14:16:54.05	321.97	9.98	-27.5	-29.7	14.2	2.20e-06	0	43	0	2994733056	14	4638
2026-01-14 14:16:55.05	322.10	9.92	-27.3	-29.2	14.4	1.10e-06	0	43	0	2999975936	14	4504
2026-01-14 14:16:56.05	322.22	9.86	-27.5	-29.7	14.2	0.00e+00	0	43	0	3006267392	14	4640
2026-01-14 14:16:57.06	322.35	9.80	-27.5	-29.2	14.2	2.20e-06	0	43	0	3011510272	15	4382
2026-01-14 14:16:58.06	322.47	9.74	-27.5	-29.2	14.1	5.70e-06	0	43	0	3017801728	15	4394
2026-01-14 14:16:59.06	322.59	9.67	-27.5	-29.3	14.0	6.80e-06	0	43	0	3023044608	15	4412
2026-01-14 14:17:00.06	322.72	9.61	-27.5	-29.2	14.1	1.10e-06	0	43	0	3028287488	15	4378
2026-01-14 14:17:01.06	322.84	9.55	-27.7	-29.7	13.8	5.70e-06	0	43	0	3034578944	15	4525
2026-01-14 14:17:02.07	322.96	9.49	-27.6	-29.6	13.9	1.02e-05	0	43	0	3039821824	15	4495
2026-01-14 14:17:03.07	323.08	9.43	-27.7	-29.8	13.8	5.70e-06	0	43	0	3045064704	15	4548
2026-01-14 14:17:04.08	323.21	9.37	-28.2	-30.3	13.3	2.05e-05	0	43	0	3051356160	16	4582
2026-01-14 14:17:05.08	323.33	9.30	-27.9	-29.7	13.7	8.00e-06	0	43	0	3056599040	16	4394
2026-01-14 14:17:06.09	323.45	9.24	-27.7	-29.0	14.1	5.70e-06	0	43	0	3062890496	16	4212
2026-01-14 14:17:07.09	323.57	9.18	-27.4	-28.4	14.4	0.00e+00	0	43	0	3068133376	16	4057
2026-01-14 14:17:08.09	323.69	9.12	-27.4	-28.5	14.4	1.10e-06	0	43	0	3073376256	16	4072
2026-01-14 14:17:09.10	323.81	9.06	-27.2	-28.5	14.4	0.00e+00	0	43	0	3079667712	15	4197
2026-01-14 14:17:10.10	323.92	9.00	-27.5	-29.2	14.1	3.40e-06	0	43	0	3084910592	15	4383
2026-01-14 14:17:11.11	324.04	8.94	-27.1	-28.4	14.5	0.00e+00	0	43	0	3091202048	15	4157
2026-01-14 14:17:12.11	324.16	8.88	-27.3	-28.8	14.3	0.00e+00	0	43	0	3096444928	15	4279
2026-01-14 14:17:13.12	324.28	8.81	-27.5	-29.2	14.0	4.50e-06	0	43	0	3101687808	15	4395
2026-01-14 14:17:14.12	324.39	8.75	-27.5	-29.2	14.1	1.10e-06	0	43	0	3107979264	15	4386
2026-01-14 14:17:15.13	324.51	8.69	-27.6	-29.4	13.9	1.02e-05	0	43	0	3113222144	15	4443
2026-01-14 14:17:16.13	324.63	8.63	-27.4	-29.0	14.2	9.10e-06	0	43	0	3118465024	15	4319
2026-01-14 14:17:17.13	324.74	8.57	-27.3	-28.9	14.2	3.40e-06	0	43	0	3124756480	15	4300
2026-01-14 14:17:18.14	324.86	8.51	-27.4	-29.1	14.1	3.40e-06	0	43	0	3129999360	15	4347
2026-01-14 14:17:19.14	324.97	8.45	-27.4	-28.9	14.2	2.20e-06	0	43	0	3136290816	15	4316
2026-01-14 14:17:20.14	325.08	8.39	-27.4	-29.0	14.1	0.00e+00	0	43	0	3141533696	15	4338
2026-01-14 14:17:21.14	325.20	8.33	-27.6	-29.5	13.9	5.70e-06	0	43	0	3146776576	15	4467
2026-01-14 14:17:22.14	325.31	8.27	-27.4	-29.0	14.1	2.20e-06	0	43	0	3153068032	15	4337
2026-01-14 14:17:23.15	325.42	8.21	-27.6	-29.6	13.8	3.40e-06	0	43	0	3158310912	15	4496
2026-01-14 14:17:24.16	325.53	8.15	-27.4	-29.0	14.1	4.50e-06	0	43	0	3164602368	15	4318
2026-01-14 14:17:25.16	325.64	8.09	-27.6	-29.5	13.8	5.70e-06	0	43	0	3169845248	15	4485
2026-01-14 14:17:26.15	325.75	8.03	-27.8	-30.1	13.4	1.83e-05	0	43	0	3175088128	15	4646
2026-01-14 14:17:27.15	325.86	7.97	-27.6	-29.5	13.8	1.71e-05	0	43	0	3181379584	15	4473
2026-01-14 14:17:28.16	325.98	7.91	-27.3	-28.8	14.2	4.50e-06	0	43	0	3186622464	15	4271
2026-01-14 14:17:29.16	326.08	7.85	-27.1	-28.4	14.4	1.10e-06	0	43	0	3191865344	15	4159
2026-01-14 14:17:30.16	326.19	7.79	-27.3	-28.9	14.1	2.20e-06	0	43	0	3198156800	15	4291
2026-01-14 14:17:31.17	326.30	7.73	-27.8	-29.9	13.5	9.10e-06	0	43	0	3203399680	15	4594
2026-01-14 14:17:32.18	326.41	7.67	-27.5	-29.1	14.0	2.20e-06	0	43	0	3208642560	15	4369
2026-01-14 14:17:33.18	326.52	7.61	-27.4	-29.1	13.9	1.10e-06	0	43	0	3214934016	15	4372
2026-01-14 14:17:34.19	326.63	7.55	-27.4	-29.0	14.0	9.10e-06	0	43	0	3220176896	15	4329
2026-01-14 14:17:35.20	326.74	7.49	-27.4	-29.1	14.0	4.50e-06	0	43	0	3226468352	15	4360
2026-01-14 14:17:36.19	326.84	7.43	-27.9	-30.3	13.3	2.40e-05	0	43	0	3231711232	15	4715
2026-01-14 14:17:37.20	326.95	7.37	-27.6	-29.6	13.6	2.97e-05	0	43	0	3238002688	15	4512
2026-01-14 14:17:38.20	327.05	7.31	-27.7	-29.8	13.5	1.14e-05	0	43	0	3243245568	15	4573
2026-01-14 14:17:39.21	327.16	7.25	-27.7	-29.8	13.6	1.94e-05	0	43	0	3248488448	15	4567
2026-01-14 14:17:40.21	327.27	7.19	-27.8	-29.9	13.4	1.48e-05	0	43	0	3254779904	15	4616
2026-01-14 14:17:41.20	327.37	7.13	-27.8	-30.0	13.4	1.37e-05	0	43	0	3260022784	15	4629
2026-01-14 14:17:42.20	327.47	7.07	-28.6	-30.8	12.7	4.00e-05	0	43	0	3265265664	17	4659
2026-01-14 14:17:43.20	327.58	7.01	-33.6	-44.7	3.8	8.46e-01	0	43	104	3266314240	27	12911
2026-01-14 14:17:44.20	327.68	6.95	-33.8	-45.3	3.8	8.47e-01	0	43	104	3266314240	27	13429
2026-01-14 14:17:45.21	327.78	6.89	-33.9	-44.9	3.8	8.46e-01	0	43	104	3266314240	28	12733

#Closed at: 2026-01-14 14:17:45
#Recorded file [3266 MB]: D:/data/31010_260114_170801.dat