passes_logs/2026/01/14/R2M6_AANII_01/R2M6_AANII_01__20260114_073948_NOAA_21_JPSS-2_rec.log

#Pass ID: 20260114_073948_NOAA 21 (JPSS-2)
#Satellite: NOAA 21 (JPSS-2)
#Configuration: NOAA 21
#almurnet v.1.7.20240730
#Start time: 2026-01-14 07:39:50

#Version: 2.2.20231116
#Station: R2M6_AANII_01
#Location: 30.233357 lon 59.946436 lat
#TLE: 1 54234U 22150A   26013.18009385  .00000056  00000+0  47387-4 0  9997
#TLE: 2 54234  98.7496 314.1019 0000691 303.8246  56.2864 14.19534466164559

#Time	Az	El	Level	Level2	SNR	BER	BlckErr	Temp	State	Recorded	gain1	gain2
2026-01-14 07:39:50.39	77.21	7.09	-31.1	-35.7	4.6	1.40e+00	0	40	0	0	23	6137
2026-01-14 07:39:51.39	77.09	7.14	-30.9	-35.2	4.6	1.37e+00	0	40	104	0	23	5852
2026-01-14 07:39:52.40	76.97	7.19	-31.0	-34.7	8.5	4.71e-02	0	40	0	0	23	5478
2026-01-14 07:39:53.41	76.85	7.24	-31.1	-34.8	8.4	4.63e-02	0	40	0	3145728	23	5532
2026-01-14 07:39:54.41	76.72	7.30	-30.8	-34.0	9.0	2.66e-02	0	40	0	6291456	23	5194
2026-01-14 07:39:55.41	76.60	7.35	-31.0	-34.6	8.6	3.38e-02	0	41	0	9437184	23	5414
2026-01-14 07:39:56.41	76.48	7.40	-31.0	-34.5	8.7	4.34e-02	0	40	0	12582912	23	5403
2026-01-14 07:39:57.42	76.36	7.45	-30.7	-34.1	9.3	2.30e-02	0	40	0	15728640	22	5308
2026-01-14 07:39:58.42	76.23	7.50	-30.3	-32.9	10.2	6.96e-03	0	40	0	18874368	22	4841
2026-01-14 07:39:59.42	76.11	7.56	-29.9	-32.1	11.0	2.38e-03	0	41	0	22020096	21	4679
2026-01-14 07:40:00.42	75.99	7.61	-29.6	-31.9	11.5	8.41e-04	0	41	0	24117248	20	4694
2026-01-14 07:40:01.43	75.86	7.66	-29.2	-31.3	12.3	2.14e-04	0	41	0	27262976	19	4589
2026-01-14 07:40:02.43	75.73	7.71	-29.1	-31.0	12.6	8.54e-05	0	41	0	30408704	19	4482
2026-01-14 07:40:03.44	75.61	7.77	-29.1	-31.1	12.5	9.00e-05	0	40	0	34603008	19	4507
2026-01-14 07:40:04.45	75.48	7.82	-29.2	-31.4	12.3	1.50e-04	0	41	0	37748736	19	4634
2026-01-14 07:40:05.45	75.35	7.87	-29.2	-31.3	12.3	1.50e-04	0	41	0	40894464	19	4603
2026-01-14 07:40:06.46	75.23	7.92	-29.1	-31.0	12.6	1.12e-04	0	41	0	44040192	19	4487
2026-01-14 07:40:07.46	75.10	7.97	-29.0	-30.8	12.7	7.32e-05	0	41	0	47185920	19	4433
2026-01-14 07:40:08.46	74.97	8.03	-29.2	-31.2	12.5	1.37e-04	0	41	0	49283072	19	4557
2026-01-14 07:40:09.46	74.84	8.08	-29.1	-31.0	12.6	9.68e-05	0	41	0	52428800	19	4490
2026-01-14 07:40:10.47	74.71	8.13	-29.0	-30.7	12.8	5.49e-05	0	41	0	55574528	19	4412
2026-01-14 07:40:11.47	74.58	8.18	-29.2	-31.2	12.5	1.43e-04	0	41	0	58720256	19	4548
2026-01-14 07:40:12.48	74.45	8.23	-28.9	-30.6	12.9	5.18e-05	0	41	0	61865984	19	4358
2026-01-14 07:40:13.48	74.32	8.29	-28.7	-30.6	13.2	2.13e-05	0	41	0	65011712	18	4477
2026-01-14 07:40:14.49	74.19	8.34	-28.9	-30.9	13.0	3.20e-05	0	41	0	68157440	18	4575
2026-01-14 07:40:15.49	74.06	8.39	-29.0	-31.2	12.8	4.65e-05	0	41	0	71303168	18	4653
2026-01-14 07:40:16.50	73.93	8.44	-28.8	-30.8	13.1	2.59e-05	0	41	0	74448896	18	4518
2026-01-14 07:40:17.49	73.80	8.49	-29.0	-31.2	12.9	6.56e-05	0	41	0	77594624	18	4647
2026-01-14 07:40:18.50	73.66	8.55	-29.0	-31.4	12.8	5.72e-05	0	41	0	80740352	18	4711
2026-01-14 07:40:19.51	73.53	8.60	-28.9	-31.1	12.9	5.56e-05	0	41	0	83886080	18	4630
2026-01-14 07:40:20.51	73.39	8.65	-28.8	-30.7	13.2	1.98e-05	0	41	0	87031808	18	4502
2026-01-14 07:40:21.52	73.26	8.70	-28.8	-30.8	13.1	2.36e-05	0	41	0	90177536	18	4531
2026-01-14 07:40:22.52	73.12	8.75	-28.8	-30.9	13.1	3.35e-05	0	41	0	93323264	18	4547
2026-01-14 07:40:23.53	72.99	8.80	-28.8	-30.8	13.1	2.97e-05	0	41	0	96468992	18	4522
2026-01-14 07:40:24.53	72.85	8.85	-28.7	-30.6	13.3	1.60e-05	0	41	0	99614720	18	4459
2026-01-14 07:40:25.54	72.71	8.91	-28.9	-31.1	13.0	3.05e-05	0	41	0	102760448	18	4617
2026-01-14 07:40:26.55	72.58	8.96	-29.0	-31.2	12.9	4.57e-05	0	41	0	105906176	18	4661
2026-01-14 07:40:27.55	72.44	9.01	-29.0	-31.3	12.9	4.27e-05	0	41	0	109051904	18	4665
2026-01-14 07:40:28.55	72.30	9.06	-29.2	-31.7	12.7	9.84e-05	0	41	0	112197632	18	4802
2026-01-14 07:40:29.54	72.17	9.11	-29.1	-31.6	12.7	4.42e-05	0	41	0	115343360	18	4776
2026-01-14 07:40:30.55	72.03	9.16	-29.3	-32.0	12.5	1.17e-04	0	41	0	118489088	18	4899
2026-01-14 07:40:31.55	71.89	9.21	-29.3	-31.9	12.5	1.06e-04	0	41	0	121634816	18	4882
2026-01-14 07:40:32.56	71.75	9.26	-29.3	-31.9	12.5	1.20e-04	0	41	0	124780544	18	4877
2026-01-14 07:40:33.56	71.61	9.32	-29.1	-31.4	12.8	6.02e-05	0	41	0	127926272	18	4724
2026-01-14 07:40:34.57	71.47	9.37	-29.2	-31.8	12.6	7.55e-05	0	41	0	131072000	18	4850
2026-01-14 07:40:35.57	71.32	9.42	-29.0	-31.4	12.9	5.79e-05	0	42	0	134217728	18	4699
2026-01-14 07:40:36.57	71.18	9.47	-29.2	-31.8	12.7	6.17e-05	0	41	0	137363456	18	4830
2026-01-14 07:40:37.58	71.04	9.52	-29.2	-31.7	12.7	1.02e-04	0	41	0	140509184	18	4800
2026-01-14 07:40:38.58	70.90	9.57	-29.0	-31.3	12.9	4.42e-05	0	42	0	143654912	18	4688
2026-01-14 07:40:39.58	70.75	9.62	-29.0	-31.3	13.0	4.50e-05	0	42	0	146800640	18	4669
2026-01-14 07:40:40.58	70.61	9.67	-29.0	-31.2	13.0	4.34e-05	0	41	0	149946368	18	4658
2026-01-14 07:40:41.58	70.47	9.72	-29.1	-31.5	12.8	6.17e-05	0	42	0	153092096	18	4749
2026-01-14 07:40:42.59	70.32	9.77	-29.1	-31.5	12.8	8.16e-05	0	41	0	156237824	18	4735
2026-01-14 07:40:43.59	70.18	9.82	-29.2	-31.6	12.8	7.01e-05	0	42	0	159383552	18	4787
2026-01-14 07:40:44.59	70.03	9.87	-29.1	-31.5	12.8	6.56e-05	0	42	0	162529280	18	4735
2026-01-14 07:40:45.60	69.88	9.92	-29.0	-31.3	13.0	3.35e-05	0	42	0	165675008	18	4662
2026-01-14 07:40:46.60	69.74	9.97	-29.2	-31.8	12.6	6.71e-05	0	42	0	168820736	18	4841
2026-01-14 07:40:47.60	69.59	10.02	-29.1	-31.6	12.8	6.79e-05	0	42	0	171966464	18	4778
2026-01-14 07:40:48.61	69.44	10.07	-29.0	-31.3	13.0	5.56e-05	0	41	0	175112192	18	4682
2026-01-14 07:40:49.61	69.29	10.12	-28.8	-30.8	13.3	1.60e-05	0	42	0	178257920	18	4509
2026-01-14 07:40:50.61	69.15	10.17	-28.8	-30.8	13.3	1.14e-05	0	42	0	181403648	18	4508
2026-01-14 07:40:51.61	69.00	10.22	-29.1	-31.5	12.9	4.42e-05	0	42	0	184549376	18	4741
2026-01-14 07:40:52.62	68.85	10.27	-29.0	-31.2	13.1	3.81e-05	0	42	0	187695104	18	4638
2026-01-14 07:40:53.62	68.70	10.32	-29.1	-31.5	12.9	4.27e-05	0	42	0	190840832	18	4725
2026-01-14 07:40:54.63	68.54	10.37	-29.1	-31.5	12.9	7.55e-05	0	42	0	193986560	18	4719
2026-01-14 07:40:55.63	68.39	10.42	-28.9	-30.9	13.2	2.05e-05	0	42	0	197132288	18	4546
2026-01-14 07:40:56.64	68.24	10.47	-28.7	-30.5	13.5	1.90e-05	0	42	0	200278016	18	4429
2026-01-14 07:40:57.64	68.09	10.52	-28.6	-30.3	13.6	1.14e-05	0	42	0	203423744	18	4367
2026-01-14 07:40:58.64	67.94	10.56	-28.8	-30.8	13.4	1.52e-05	0	42	0	206569472	18	4510
2026-01-14 07:40:59.64	67.78	10.61	-28.7	-30.4	13.6	9.90e-06	0	42	0	209715200	18	4380
2026-01-14 07:41:00.65	67.63	10.66	-28.6	-30.3	13.6	1.52e-05	0	42	0	212860928	18	4363
2026-01-14 07:41:01.65	67.47	10.71	-28.7	-30.4	13.5	1.14e-05	0	42	0	216006656	18	4394
2026-01-14 07:41:02.65	67.32	10.76	-28.6	-30.3	13.6	6.80e-06	0	42	0	219152384	18	4362
2026-01-14 07:41:03.66	67.16	10.81	-28.8	-30.6	13.4	1.37e-05	0	42	0	222298112	18	4453
2026-01-14 07:41:04.66	67.01	10.86	-28.8	-30.8	13.4	1.75e-05	0	42	0	225443840	18	4512
2026-01-14 07:41:05.67	66.85	10.90	-28.9	-30.9	13.3	2.36e-05	0	42	0	228589568	18	4548
2026-01-14 07:41:06.67	66.69	10.95	-28.9	-31.0	13.2	2.82e-05	0	42	0	231735296	18	4575
2026-01-14 07:41:07.66	66.54	11.00	-28.9	-30.9	13.3	2.21e-05	0	42	0	234881024	18	4528
2026-01-14 07:41:08.67	66.38	11.05	-28.8	-30.6	13.5	1.06e-05	0	42	0	238026752	18	4434
2026-01-14 07:41:09.67	66.22	11.09	-28.8	-30.8	13.4	1.14e-05	0	42	0	241172480	18	4510
2026-01-14 07:41:10.68	66.06	11.14	-28.7	-30.5	13.6	8.30e-06	0	42	0	244318208	18	4401
2026-01-14 07:41:11.68	65.90	11.19	-28.7	-30.3	13.7	9.10e-06	0	42	0	247463936	18	4366
2026-01-14 07:41:12.69	65.74	11.24	-28.7	-30.5	13.6	1.14e-05	0	42	0	250609664	18	4414
2026-01-14 07:41:13.69	65.58	11.28	-28.7	-30.5	13.6	1.44e-05	0	42	0	253755392	18	4410
2026-01-14 07:41:14.69	65.42	11.33	-28.6	-30.3	13.7	1.50e-06	0	42	0	256901120	18	4349
2026-01-14 07:41:15.69	65.26	11.38	-28.7	-30.4	13.6	7.60e-06	0	42	0	260046848	18	4393
2026-01-14 07:41:16.70	65.09	11.43	-28.6	-30.3	13.7	6.10e-06	0	42	0	263192576	18	4346
2026-01-14 07:41:17.70	64.93	11.47	-28.7	-30.4	13.7	4.50e-06	0	42	0	266338304	18	4377
2026-01-14 07:41:18.71	64.77	11.52	-28.7	-30.4	13.6	8.30e-06	0	42	0	269484032	18	4383
2026-01-14 07:41:19.71	64.60	11.56	-28.7	-30.3	13.7	6.10e-06	0	42	0	272629760	18	4364
2026-01-14 07:41:20.71	64.44	11.61	-28.6	-30.3	13.7	6.80e-06	0	42	0	275775488	18	4346
2026-01-14 07:41:21.71	64.27	11.66	-28.4	-29.8	14.0	2.20e-06	0	42	0	278921216	18	4204
2026-01-14 07:41:22.72	64.11	11.70	-28.4	-29.7	14.0	1.50e-06	0	42	0	282066944	18	4193
2026-01-14 07:41:23.72	63.94	11.75	-28.5	-29.9	13.9	6.80e-06	0	42	0	285212672	18	4234
2026-01-14 07:41:24.73	63.77	11.79	-28.3	-29.5	14.2	7.00e-07	0	42	0	288358400	18	4138
2026-01-14 07:41:25.73	63.61	11.84	-28.4	-29.7	14.1	7.00e-07	0	42	0	291504128	18	4189
2026-01-14 07:41:26.75	63.44	11.89	-28.4	-29.7	14.1	7.00e-07	0	42	0	294649856	18	4163
2026-01-14 07:41:27.75	63.27	11.93	-28.2	-29.8	14.3	7.00e-07	0	42	0	297795584	17	4315
2026-01-14 07:41:28.76	63.10	11.98	-28.3	-29.9	14.2	0.00e+00	0	42	0	300941312	17	4338
2026-01-14 07:41:29.76	62.93	12.02	-28.5	-30.4	13.9	2.20e-06	0	42	0	304087040	17	4500
2026-01-14 07:41:30.76	62.76	12.07	-28.5	-30.4	13.9	4.50e-06	0	42	0	307232768	17	4509
2026-01-14 07:41:31.76	62.59	12.11	-28.4	-30.3	14.0	7.00e-07	0	42	0	310378496	17	4464
2026-01-14 07:41:32.76	62.42	12.15	-28.5	-30.4	13.9	3.80e-06	0	42	0	313524224	17	4491
2026-01-14 07:41:33.76	62.25	12.20	-28.5	-30.4	14.0	6.10e-06	0	42	0	316669952	17	4489
2026-01-14 07:41:34.77	62.08	12.24	-28.6	-30.8	13.7	4.50e-06	0	42	0	319815680	17	4607
2026-01-14 07:41:35.78	61.90	12.29	-28.6	-30.6	13.8	3.80e-06	0	42	0	322961408	17	4563
2026-01-14 07:41:36.78	61.73	12.33	-28.5	-30.3	14.0	1.50e-06	0	42	0	326107136	17	4473
2026-01-14 07:41:37.78	61.56	12.37	-28.5	-30.6	13.8	0.00e+00	0	42	0	329252864	17	4543
2026-01-14 07:41:38.78	61.39	12.42	-28.6	-30.7	13.8	3.00e-06	0	42	0	332398592	17	4584
2026-01-14 07:41:39.78	61.21	12.46	-28.6	-30.7	13.8	6.80e-06	0	42	0	335544320	17	4585
2026-01-14 07:41:40.79	61.04	12.50	-28.6	-30.6	13.9	2.20e-06	0	42	0	338690048	17	4547
2026-01-14 07:41:41.79	60.86	12.55	-28.8	-31.1	13.6	6.80e-06	0	42	0	341835776	17	4716
2026-01-14 07:41:42.79	60.69	12.59	-28.7	-30.8	13.7	7.60e-06	0	42	0	344981504	17	4626
2026-01-14 07:41:43.80	60.51	12.63	-28.6	-30.7	13.8	3.00e-06	0	42	0	348127232	17	4588
2026-01-14 07:41:44.80	60.33	12.67	-28.5	-30.5	14.0	2.20e-06	0	42	0	351272960	17	4514
2026-01-14 07:41:45.80	60.16	12.71	-28.6	-30.6	13.9	2.20e-06	0	42	0	354418688	17	4553
2026-01-14 07:41:46.80	59.98	12.76	-28.6	-30.7	13.8	6.80e-06	0	42	0	357564416	17	4596
2026-01-14 07:41:47.81	59.80	12.80	-28.6	-30.7	13.8	6.80e-06	0	42	0	360710144	17	4590
2026-01-14 07:41:48.81	59.62	12.84	-28.6	-30.6	13.9	2.20e-06	0	42	0	363855872	17	4565
2026-01-14 07:41:49.81	59.44	12.88	-28.5	-30.6	13.9	1.50e-06	0	42	0	367001600	17	4539
2026-01-14 07:41:50.82	59.26	12.92	-28.7	-30.9	13.7	6.10e-06	0	42	0	370147328	17	4629
2026-01-14 07:41:51.83	59.08	12.96	-28.5	-30.5	13.9	3.00e-06	0	42	0	372244480	17	4526
2026-01-14 07:41:52.83	58.90	13.00	-28.5	-30.4	14.0	7.00e-07	0	42	0	375390208	17	4496
2026-01-14 07:41:53.84	58.72	13.04	-28.5	-30.5	13.9	1.50e-06	0	42	0	378535936	17	4526
2026-01-14 07:41:54.83	58.54	13.08	-28.4	-30.2	14.1	7.00e-07	0	42	0	381681664	17	4437
2026-01-14 07:41:55.83	58.35	13.12	-28.4	-30.2	14.1	2.20e-06	0	42	0	384827392	17	4434
2026-01-14 07:41:56.84	58.17	13.16	-28.3	-29.9	14.3	1.50e-06	0	42	0	387973120	17	4352
2026-01-14 07:41:57.84	57.99	13.20	-28.3	-30.0	14.3	1.50e-06	0	42	0	391118848	17	4381
2026-01-14 07:41:58.84	57.80	13.24	-28.4	-30.1	14.2	2.20e-06	0	42	0	394264576	17	4408
2026-01-14 07:41:59.85	57.62	13.28	-28.3	-30.0	14.2	1.50e-06	0	42	0	397410304	17	4374
2026-01-14 07:42:00.85	57.43	13.32	-28.4	-30.2	14.2	7.00e-07	0	42	0	400556032	17	4419
2026-01-14 07:42:01.86	57.25	13.36	-28.4	-30.1	14.2	0.00e+00	0	42	0	403701760	17	4396
2026-01-14 07:42:02.87	57.06	13.40	-28.4	-30.1	14.2	2.20e-06	0	42	0	406847488	17	4389
2026-01-14 07:42:03.88	56.87	13.43	-28.5	-30.5	14.0	1.50e-06	0	42	0	409993216	17	4529
2026-01-14 07:42:04.88	56.69	13.47	-28.5	-30.5	14.0	3.00e-06	0	42	0	413138944	17	4507
2026-01-14 07:42:05.89	56.50	13.51	-28.6	-30.7	13.9	3.80e-06	0	42	0	416284672	17	4575
2026-01-14 07:42:06.89	56.31	13.55	-28.5	-30.5	14.0	3.00e-06	0	42	0	419430400	17	4522
2026-01-14 07:42:07.89	56.12	13.58	-28.5	-30.4	14.1	0.00e+00	0	42	0	422576128	17	4492
2026-01-14 07:42:08.89	55.93	13.62	-28.5	-30.3	14.1	2.20e-06	0	42	0	425721856	17	4463
2026-01-14 07:42:09.89	55.75	13.66	-28.6	-30.6	14.0	3.00e-06	0	42	0	428867584	17	4556
2026-01-14 07:42:10.90	55.55	13.69	-28.5	-30.5	14.1	0.00e+00	0	42	0	432013312	17	4499
2026-01-14 07:42:11.89	55.37	13.73	-28.5	-30.4	14.1	7.00e-07	0	42	0	435159040	17	4491
2026-01-14 07:42:12.89	55.18	13.76	-28.6	-30.7	13.9	7.60e-06	0	42	0	438304768	17	4568
2026-01-14 07:42:13.90	54.98	13.80	-28.5	-30.5	14.0	2.20e-06	0	42	0	441450496	17	4502
2026-01-14 07:42:14.90	54.79	13.84	-28.5	-30.3	14.2	0.00e+00	0	42	0	444596224	17	4447
2026-01-14 07:42:15.89	54.60	13.87	-28.4	-30.3	14.2	7.00e-07	0	42	0	447741952	17	4442
2026-01-14 07:42:16.90	54.41	13.91	-28.4	-30.3	14.2	1.50e-06	0	43	0	450887680	17	4436
2026-01-14 07:42:17.90	54.22	13.94	-28.4	-30.1	14.3	2.20e-06	0	42	0	454033408	17	4392
2026-01-14 07:42:18.90	54.02	13.97	-28.3	-30.0	14.3	2.20e-06	0	42	0	457179136	17	4368
2026-01-14 07:42:19.91	53.83	14.01	-28.4	-30.2	14.2	1.50e-06	0	42	0	460324864	17	4413
2026-01-14 07:42:20.90	53.64	14.04	-28.2	-29.7	14.5	7.00e-07	0	42	0	463470592	17	4285
2026-01-14 07:42:21.90	53.44	14.07	-28.1	-29.4	14.7	0.00e+00	0	43	0	466616320	17	4194
2026-01-14 07:42:22.90	53.25	14.11	-28.2	-29.7	14.6	7.00e-07	0	42	0	469762048	17	4267
2026-01-14 07:42:23.90	53.05	14.14	-28.2	-29.7	14.5	7.00e-07	0	42	0	472907776	17	4275
2026-01-14 07:42:24.90	52.86	14.17	-28.3	-29.9	14.4	7.00e-07	0	43	0	476053504	17	4334
2026-01-14 07:42:25.91	52.66	14.20	-28.3	-29.8	14.5	7.00e-07	0	42	0	479199232	17	4309
2026-01-14 07:42:26.91	52.46	14.24	-28.2	-29.8	14.5	7.00e-07	0	42	0	482344960	17	4298
2026-01-14 07:42:27.91	52.27	14.27	-28.2	-29.8	14.5	7.00e-07	0	42	0	485490688	17	4292
2026-01-14 07:42:28.92	52.07	14.30	-28.2	-29.8	14.5	0.00e+00	0	43	0	488636416	17	4303
2026-01-14 07:42:29.91	51.87	14.33	-28.4	-30.0	14.3	0.00e+00	0	42	0	491782144	17	4374
2026-01-14 07:42:30.92	51.67	14.36	-28.3	-30.0	14.4	1.50e-06	0	43	0	494927872	17	4347
2026-01-14 07:42:31.92	51.48	14.39	-28.2	-29.8	14.5	1.50e-06	0	42	0	498073600	17	4299
2026-01-14 07:42:32.92	51.28	14.42	-28.3	-29.9	14.4	7.00e-07	0	42	0	501219328	17	4326
2026-01-14 07:42:33.93	51.08	14.45	-28.3	-29.9	14.4	0.00e+00	0	42	0	504365056	17	4347
2026-01-14 07:42:34.94	50.87	14.48	-28.4	-30.2	14.2	1.50e-06	0	42	0	507510784	17	4416
2026-01-14 07:42:35.92	50.68	14.51	-28.5	-30.3	14.2	1.50e-06	0	42	0	510656512	17	4444
2026-01-14 07:42:36.92	50.48	14.54	-28.5	-30.3	14.2	0.00e+00	0	42	0	513802240	17	4439
2026-01-14 07:42:37.93	50.28	14.57	-28.7	-30.8	13.9	2.20e-06	0	42	0	516947968	17	4593
2026-01-14 07:42:38.93	50.07	14.59	-28.5	-30.3	14.2	3.00e-06	0	42	0	520093696	17	4449
2026-01-14 07:42:39.94	49.87	14.62	-28.4	-30.0	14.3	7.00e-07	0	43	0	523239424	17	4372
2026-01-14 07:42:40.94	49.67	14.65	-28.3	-30.0	14.4	1.50e-06	0	42	0	526385152	17	4347
2026-01-14 07:42:41.94	49.47	14.68	-28.3	-29.9	14.4	1.50e-06	0	43	0	529530880	17	4327
2026-01-14 07:42:42.94	49.26	14.70	-28.4	-30.0	14.3	2.20e-06	0	42	0	532676608	17	4374
2026-01-14 07:42:43.94	49.06	14.73	-28.2	-29.7	14.6	7.00e-07	0	42	0	535822336	17	4262
2026-01-14 07:42:44.95	48.86	14.76	-28.3	-29.9	14.4	7.00e-07	0	42	0	538968064	17	4344
2026-01-14 07:42:45.95	48.65	14.78	-28.2	-29.8	14.5	0.00e+00	0	42	0	542113792	17	4288
2026-01-14 07:42:46.96	48.45	14.81	-28.1	-29.5	14.7	0.00e+00	0	42	0	545259520	17	4226
2026-01-14 07:42:47.96	48.24	14.83	-28.2	-29.7	14.6	0.00e+00	0	43	0	548405248	17	4273
2026-01-14 07:42:48.95	48.04	14.86	-28.1	-29.5	14.7	0.00e+00	0	43	0	551550976	17	4222
2026-01-14 07:42:49.96	47.83	14.88	-28.2	-29.6	14.6	0.00e+00	0	43	0	554696704	17	4247
2026-01-14 07:42:50.96	47.63	14.91	-28.1	-29.5	14.7	2.20e-06	0	42	0	557842432	17	4217
2026-01-14 07:42:51.96	47.42	14.93	-28.0	-29.2	14.8	0.00e+00	0	43	0	560988160	17	4144
2026-01-14 07:42:52.96	47.22	14.95	-28.1	-29.5	14.7	0.00e+00	0	43	0	564133888	17	4216
2026-01-14 07:42:53.96	47.01	14.98	-28.1	-29.5	14.7	0.00e+00	0	42	0	567279616	17	4209
2026-01-14 07:42:54.97	46.80	15.00	-28.2	-29.6	14.6	0.00e+00	0	42	0	570425344	17	4255
2026-01-14 07:42:55.97	46.59	15.02	-28.1	-29.5	14.7	0.00e+00	0	42	0	573571072	17	4217
2026-01-14 07:42:56.97	46.39	15.04	-28.1	-29.4	14.7	0.00e+00	0	42	0	576716800	17	4189
2026-01-14 07:42:57.98	46.18	15.06	-28.1	-29.4	14.7	0.00e+00	0	42	0	579862528	17	4182
2026-01-14 07:42:58.98	45.97	15.09	-27.9	-29.1	14.9	0.00e+00	0	42	0	583008256	17	4100
2026-01-14 07:42:59.97	45.76	15.11	-28.0	-29.3	14.8	0.00e+00	0	43	0	586153984	17	4153
2026-01-14 07:43:00.98	45.55	15.13	-27.9	-29.0	15.0	7.00e-07	0	42	0	589299712	17	4076
2026-01-14 07:43:01.98	45.34	15.15	-28.0	-29.2	14.9	0.00e+00	0	42	0	592445440	17	4131
2026-01-14 07:43:02.98	45.13	15.17	-28.0	-29.2	14.9	0.00e+00	0	43	0	595591168	17	4132
2026-01-14 07:43:03.99	44.92	15.19	-28.1	-29.4	14.8	0.00e+00	0	43	0	598736896	17	4187
2026-01-14 07:43:04.99	44.71	15.21	-28.0	-29.3	14.8	0.00e+00	0	43	0	601882624	17	4165
2026-01-14 07:43:05.99	44.50	15.22	-28.1	-29.4	14.7	0.00e+00	0	42	0	605028352	17	4191
2026-01-14 07:43:07.00	44.29	15.24	-28.2	-29.7	14.6	7.00e-07	0	42	0	608174080	17	4268
2026-01-14 07:43:08.00	44.08	15.26	-28.1	-29.4	14.7	7.00e-07	0	42	0	611319808	17	4197
2026-01-14 07:43:09.01	43.87	15.28	-28.1	-29.5	14.7	0.00e+00	0	43	0	614465536	17	4212
2026-01-14 07:43:10.01	43.66	15.30	-28.1	-29.5	14.7	0.00e+00	0	43	0	617611264	17	4206
2026-01-14 07:43:11.01	43.45	15.31	-28.1	-29.4	14.7	7.00e-07	0	43	0	620756992	17	4188
2026-01-14 07:43:12.02	43.23	15.33	-28.1	-29.5	14.7	0.00e+00	0	42	0	623902720	17	4206
2026-01-14 07:43:13.02	43.02	15.34	-28.0	-29.2	14.8	0.00e+00	0	42	0	625999872	17	4141
2026-01-14 07:43:14.02	42.81	15.36	-28.1	-29.5	14.7	0.00e+00	0	42	0	629145600	17	4213
2026-01-14 07:43:15.02	42.60	15.38	-27.9	-29.0	15.0	0.00e+00	0	42	0	632291328	17	4075
2026-01-14 07:43:16.02	42.39	15.39	-27.8	-28.8	15.1	0.00e+00	0	42	0	635437056	17	4021
2026-01-14 07:43:17.02	42.17	15.40	-27.8	-28.8	15.1	0.00e+00	0	43	0	638582784	17	4037
2026-01-14 07:43:18.03	41.96	15.42	-28.0	-29.3	14.8	0.00e+00	0	42	0	641728512	17	4150
2026-01-14 07:43:19.03	41.75	15.43	-27.9	-29.0	15.0	0.00e+00	0	42	0	644874240	17	4088
2026-01-14 07:43:20.03	41.53	15.45	-28.1	-29.4	14.7	0.00e+00	0	42	0	648019968	17	4201
2026-01-14 07:43:21.03	41.32	15.46	-28.1	-29.4	14.7	0.00e+00	0	43	0	651165696	17	4196
2026-01-14 07:43:22.04	41.10	15.47	-28.2	-29.8	14.5	0.00e+00	0	42	0	654311424	17	4292
2026-01-14 07:43:23.05	40.89	15.48	-28.3	-29.9	14.5	7.00e-07	0	42	0	657457152	17	4315
2026-01-14 07:43:24.05	40.67	15.50	-28.4	-30.2	14.3	7.00e-07	0	42	0	660602880	17	4405
2026-01-14 07:43:25.05	40.46	15.51	-28.3	-29.9	14.4	1.50e-06	0	42	0	663748608	17	4343
2026-01-14 07:43:26.05	40.25	15.52	-28.3	-29.8	14.6	0.00e+00	0	43	0	666894336	17	4297
2026-01-14 07:43:27.05	40.03	15.53	-28.2	-29.8	14.6	0.00e+00	0	42	0	670040064	17	4288
2026-01-14 07:43:28.06	39.82	15.54	-28.3	-30.0	14.4	7.00e-07	0	43	0	673185792	17	4365
2026-01-14 07:43:29.06	39.60	15.55	-28.1	-29.5	14.7	0.00e+00	0	43	0	676331520	17	4229
2026-01-14 07:43:30.06	39.39	15.56	-28.1	-29.5	14.7	0.00e+00	0	42	0	679477248	17	4210
2026-01-14 07:43:31.07	39.17	15.57	-28.2	-29.6	14.7	1.50e-06	0	43	0	682622976	17	4232
2026-01-14 07:43:32.07	38.96	15.57	-28.1	-29.5	14.8	0.00e+00	0	42	0	685768704	17	4202
2026-01-14 07:43:33.07	38.74	15.58	-28.2	-29.6	14.7	2.20e-06	0	42	0	688914432	17	4240
2026-01-14 07:43:34.07	38.53	15.59	-28.2	-29.6	14.7	0.00e+00	0	42	0	692060160	17	4247
2026-01-14 07:43:35.08	38.31	15.60	-28.3	-30.0	14.4	0.00e+00	0	43	0	695205888	17	4362
2026-01-14 07:43:36.08	38.09	15.60	-28.3	-29.9	14.5	7.00e-07	0	43	0	698351616	17	4325
2026-01-14 07:43:37.09	37.87	15.61	-28.2	-29.7	14.6	0.00e+00	0	43	0	701497344	17	4280
2026-01-14 07:43:38.09	37.66	15.62	-28.3	-29.9	14.5	7.00e-07	0	42	0	704643072	17	4340
2026-01-14 07:43:39.09	37.44	15.62	-28.2	-29.7	14.6	1.50e-06	0	42	0	707788800	17	4267
2026-01-14 07:43:40.09	37.23	15.63	-28.3	-29.8	14.5	1.50e-06	0	43	0	710934528	17	4309
2026-01-14 07:43:41.10	37.01	15.63	-28.5	-30.3	14.3	0.00e+00	0	42	0	714080256	17	4430
2026-01-14 07:43:42.10	36.79	15.64	-28.4	-30.0	14.4	2.20e-06	0	42	0	717225984	17	4374
2026-01-14 07:43:43.10	36.58	15.64	-28.5	-30.3	14.2	7.00e-07	0	43	0	720371712	17	4447
2026-01-14 07:43:44.10	36.36	15.64	-28.3	-29.9	14.5	7.00e-07	0	43	0	723517440	17	4323
2026-01-14 07:43:45.11	36.14	15.65	-28.2	-29.7	14.6	7.00e-07	0	42	0	726663168	17	4267
2026-01-14 07:43:46.11	35.93	15.65	-28.3	-29.8	14.5	0.00e+00	0	42	0	729808896	17	4299
2026-01-14 07:43:47.11	35.71	15.65	-28.3	-29.9	14.5	2.20e-06	0	43	0	732954624	17	4318
2026-01-14 07:43:48.11	35.50	15.66	-28.3	-29.9	14.5	7.00e-07	0	42	0	736100352	17	4334
2026-01-14 07:43:49.12	35.28	15.66	-28.3	-29.9	14.5	7.00e-07	0	43	0	739246080	17	4324
2026-01-14 07:43:50.12	35.06	15.66	-28.3	-30.0	14.4	7.00e-07	0	43	0	742391808	17	4370
2026-01-14 07:43:51.12	34.85	15.66	-28.3	-30.0	14.4	1.50e-06	0	43	0	745537536	17	4358
2026-01-14 07:43:52.12	34.63	15.66	-28.4	-30.2	14.3	0.00e+00	0	43	0	748683264	17	4420
2026-01-14 07:43:53.13	34.41	15.66	-28.4	-30.1	14.4	7.00e-07	0	43	0	751828992	17	4376
2026-01-14 07:43:54.13	34.20	15.66	-28.4	-30.1	14.4	7.00e-07	0	43	0	754974720	17	4383
2026-01-14 07:43:55.13	33.98	15.66	-28.2	-29.8	14.6	0.00e+00	0	43	0	758120448	17	4292
2026-01-14 07:43:56.13	33.76	15.66	-28.2	-29.7	14.6	7.00e-07	0	43	0	761266176	17	4276
2026-01-14 07:43:57.14	33.55	15.65	-28.3	-30.0	14.4	1.50e-06	0	42	0	764411904	17	4352
2026-01-14 07:43:58.14	33.33	15.65	-28.2	-29.6	14.7	0.00e+00	0	42	0	767557632	17	4239
2026-01-14 07:43:59.15	33.11	15.65	-28.1	-29.5	14.7	0.00e+00	0	43	0	770703360	17	4216
2026-01-14 07:44:00.16	32.89	15.65	-28.2	-29.6	14.6	0.00e+00	0	43	0	773849088	17	4245
2026-01-14 07:44:01.16	32.68	15.64	-28.2	-29.6	14.7	0.00e+00	0	42	0	776994816	17	4239
2026-01-14 07:44:02.16	32.46	15.64	-28.2	-29.6	14.6	0.00e+00	0	42	0	780140544	17	4255
2026-01-14 07:44:03.16	32.25	15.63	-28.2	-29.7	14.6	0.00e+00	0	42	0	783286272	17	4271
2026-01-14 07:44:04.16	32.03	15.63	-28.2	-29.6	14.7	0.00e+00	0	43	0	786432000	17	4232
2026-01-14 07:44:05.16	31.82	15.62	-28.2	-29.6	14.6	0.00e+00	0	43	0	789577728	17	4250
2026-01-14 07:44:06.17	31.60	15.62	-28.2	-29.6	14.6	0.00e+00	0	42	0	792723456	17	4252
2026-01-14 07:44:07.17	31.38	15.61	-28.3	-29.8	14.5	7.00e-07	0	43	0	795869184	17	4313
2026-01-14 07:44:08.18	31.16	15.61	-28.4	-30.1	14.4	1.50e-06	0	43	0	799014912	17	4376
2026-01-14 07:44:09.19	30.95	15.60	-28.3	-29.9	14.5	1.50e-06	0	43	0	802160640	17	4323
2026-01-14 07:44:10.19	30.73	15.59	-28.3	-29.9	14.5	0.00e+00	0	42	0	805306368	17	4336
2026-01-14 07:44:11.20	30.52	15.59	-28.1	-29.5	14.7	0.00e+00	0	43	0	808452096	17	4232
2026-01-14 07:44:12.21	30.30	15.58	-28.2	-29.6	14.6	0.00e+00	0	42	0	811597824	17	4256
2026-01-14 07:44:13.22	30.08	15.57	-28.2	-29.6	14.7	0.00e+00	0	42	0	814743552	17	4234
2026-01-14 07:44:14.22	29.87	15.56	-28.2	-29.8	14.5	1.50e-06	0	42	0	817889280	17	4289
2026-01-14 07:44:15.22	29.65	15.55	-28.1	-29.5	14.7	0.00e+00	0	42	0	821035008	17	4226
2026-01-14 07:44:16.22	29.44	15.54	-28.1	-29.4	14.8	0.00e+00	0	43	0	824180736	17	4186
2026-01-14 07:44:17.23	29.22	15.53	-28.2	-29.6	14.7	0.00e+00	0	43	0	827326464	17	4235
2026-01-14 07:44:18.23	29.01	15.52	-28.1	-29.4	14.7	7.00e-07	0	43	0	830472192	17	4198
2026-01-14 07:44:19.24	28.79	15.51	-28.1	-29.4	14.8	1.50e-06	0	43	0	833617920	17	4192
2026-01-14 07:44:20.24	28.58	15.50	-28.2	-29.6	14.6	7.00e-07	0	43	0	836763648	17	4249
2026-01-14 07:44:21.25	28.36	15.49	-28.1	-29.5	14.7	7.00e-07	0	43	0	839909376	17	4223
2026-01-14 07:44:22.25	28.15	15.48	-28.2	-29.8	14.5	1.50e-06	0	43	0	843055104	17	4295
2026-01-14 07:44:23.25	27.93	15.46	-28.2	-29.7	14.6	7.00e-07	0	42	0	846200832	17	4287
2026-01-14 07:44:24.26	27.72	15.45	-28.3	-29.9	14.4	0.00e+00	0	43	0	849346560	17	4321
2026-01-14 07:44:25.27	27.50	15.44	-28.3	-30.0	14.4	0.00e+00	0	42	0	852492288	17	4348
2026-01-14 07:44:26.27	27.29	15.42	-28.4	-30.1	14.3	7.00e-07	0	43	0	855638016	17	4397
2026-01-14 07:44:27.28	27.08	15.41	-28.3	-29.8	14.5	7.00e-07	0	43	0	858783744	17	4304
2026-01-14 07:44:28.27	26.87	15.40	-28.1	-29.5	14.7	0.00e+00	0	42	0	861929472	17	4216
2026-01-14 07:44:29.28	26.65	15.38	-28.1	-29.5	14.7	0.00e+00	0	42	0	865075200	17	4215
2026-01-14 07:44:30.28	26.44	15.37	-28.1	-29.4	14.7	0.00e+00	0	42	0	868220928	17	4183
2026-01-14 07:44:31.29	26.23	15.35	-28.0	-29.2	14.8	7.00e-07	0	42	0	871366656	17	4146
2026-01-14 07:44:32.29	26.02	15.33	-28.1	-29.4	14.7	0.00e+00	0	42	0	874512384	17	4191
2026-01-14 07:44:33.30	25.80	15.32	-28.1	-29.3	14.7	0.00e+00	0	42	0	877658112	17	4178
2026-01-14 07:44:34.30	25.59	15.30	-28.1	-29.5	14.6	7.00e-07	0	43	0	880803840	17	4230
2026-01-14 07:44:35.31	25.38	15.28	-28.2	-29.7	14.6	0.00e+00	0	43	0	883949568	17	4260
2026-01-14 07:44:36.31	25.17	15.27	-28.4	-30.2	14.3	7.00e-07	0	42	0	887095296	17	4417
2026-01-14 07:44:37.31	24.96	15.25	-28.3	-30.0	14.4	0.00e+00	0	42	0	890241024	17	4353
2026-01-14 07:44:38.31	24.75	15.23	-28.4	-30.1	14.3	0.00e+00	0	42	0	893386752	17	4375
2026-01-14 07:44:39.32	24.54	15.21	-28.2	-29.7	14.5	0.00e+00	0	43	0	896532480	17	4279
2026-01-14 07:44:40.32	24.33	15.19	-28.1	-29.4	14.7	0.00e+00	0	43	0	899678208	17	4200
2026-01-14 07:44:41.32	24.12	15.17	-28.1	-29.5	14.6	7.00e-07	0	43	0	902823936	17	4210
2026-01-14 07:44:42.33	23.91	15.15	-28.2	-29.7	14.5	0.00e+00	0	42	0	905969664	17	4274
2026-01-14 07:44:43.33	23.70	15.13	-28.0	-29.2	14.8	0.00e+00	0	43	0	909115392	17	4135
2026-01-14 07:44:44.33	23.49	15.11	-28.0	-29.3	14.8	0.00e+00	0	42	0	912261120	17	4152
2026-01-14 07:44:45.33	23.28	15.09	-28.1	-29.5	14.6	0.00e+00	0	43	0	915406848	17	4231
2026-01-14 07:44:46.34	23.07	15.07	-27.9	-29.1	14.9	0.00e+00	0	43	0	918552576	17	4105
2026-01-14 07:44:47.34	22.87	15.05	-27.9	-28.9	14.9	0.00e+00	0	43	0	921698304	17	4065
2026-01-14 07:44:48.35	22.66	15.03	-27.9	-28.9	15.0	0.00e+00	0	43	0	924844032	17	4060
2026-01-14 07:44:49.36	22.45	15.01	-27.9	-29.0	14.9	7.00e-07	0	43	0	927989760	17	4092
2026-01-14 07:44:50.36	22.24	14.98	-28.0	-29.2	14.8	7.00e-07	0	43	0	931135488	17	4134
2026-01-14 07:44:51.36	22.04	14.96	-28.1	-29.4	14.7	0.00e+00	0	43	0	934281216	17	4188
2026-01-14 07:44:52.37	21.83	14.94	-28.1	-29.4	14.7	0.00e+00	0	43	0	937426944	17	4186
2026-01-14 07:44:53.38	21.62	14.91	-28.2	-29.6	14.5	0.00e+00	0	43	0	940572672	17	4254
2026-01-14 07:44:54.38	21.42	14.89	-28.2	-29.7	14.5	7.00e-07	0	43	0	943718400	17	4273
2026-01-14 07:44:55.38	21.21	14.87	-28.1	-29.5	14.6	7.00e-07	0	43	0	946864128	17	4231
2026-01-14 07:44:56.39	21.00	14.84	-28.1	-29.5	14.6	0.00e+00	0	43	0	948961280	17	4213
2026-01-14 07:44:57.39	20.80	14.82	-28.0	-29.3	14.7	7.00e-07	0	43	0	953155584	17	4177
2026-01-14 07:44:58.39	20.60	14.79	-28.0	-29.2	14.8	0.00e+00	0	43	0	956301312	17	4136
2026-01-14 07:44:59.40	20.39	14.76	-27.9	-29.1	14.8	7.00e-07	0	43	0	959447040	17	4113
2026-01-14 07:45:00.40	20.19	14.74	-27.9	-29.1	14.8	0.00e+00	0	43	0	962592768	17	4102
2026-01-14 07:45:01.41	19.98	14.71	-28.0	-29.2	14.8	0.00e+00	0	43	0	965738496	17	4133
2026-01-14 07:45:02.41	19.78	14.69	-28.1	-29.4	14.7	7.00e-07	0	43	0	968884224	17	4181
2026-01-14 07:45:03.42	19.58	14.66	-28.0	-29.2	14.8	1.50e-06	0	43	0	972029952	17	4137
2026-01-14 07:45:04.42	19.38	14.63	-28.1	-29.5	14.6	0.00e+00	0	43	0	974127104	17	4230
2026-01-14 07:45:05.42	19.17	14.60	-28.1	-29.5	14.6	7.00e-07	0	42	0	977272832	17	4232
2026-01-14 07:45:06.43	18.97	14.57	-28.2	-29.7	14.5	7.00e-07	0	42	0	980418560	17	4264
2026-01-14 07:45:07.43	18.77	14.55	-28.2	-29.7	14.5	0.00e+00	0	42	0	983564288	17	4278
2026-01-14 07:45:08.44	18.57	14.52	-28.3	-29.9	14.4	0.00e+00	0	43	0	986710016	17	4323
2026-01-14 07:45:09.44	18.37	14.49	-28.3	-29.9	14.3	0.00e+00	0	43	0	989855744	17	4333
2026-01-14 07:45:10.44	18.17	14.46	-28.1	-29.6	14.5	7.00e-07	0	43	0	993001472	17	4253
2026-01-14 07:45:11.44	17.97	14.43	-28.1	-29.4	14.6	0.00e+00	0	43	0	996147200	17	4204
2026-01-14 07:45:12.44	17.77	14.40	-28.1	-29.4	14.6	0.00e+00	0	43	0	999292928	17	4187
2026-01-14 07:45:13.44	17.58	14.37	-28.1	-29.5	14.6	0.00e+00	0	43	0	1002438656	17	4213
2026-01-14 07:45:14.45	17.38	14.34	-28.1	-29.4	14.7	1.50e-06	0	43	0	1005584384	17	4185
2026-01-14 07:45:15.45	17.18	14.31	-28.0	-29.3	14.7	0.00e+00	0	43	0	1008730112	17	4176
2026-01-14 07:45:16.45	16.98	14.28	-28.0	-29.2	14.7	0.00e+00	0	43	0	1011875840	17	4149
2026-01-14 07:45:17.45	16.79	14.25	-28.0	-29.2	14.7	0.00e+00	0	43	0	1015021568	17	4151
2026-01-14 07:45:18.44	16.59	14.22	-28.0	-29.2	14.7	1.50e-06	0	43	0	1018167296	17	4152
2026-01-14 07:45:19.43	16.40	14.18	-28.0	-29.2	14.7	7.00e-07	0	43	0	1021313024	17	4147
2026-01-14 07:45:20.41	16.21	14.15	-28.0	-29.3	14.7	0.00e+00	0	43	0	1024458752	17	4161
2026-01-14 07:45:21.42	16.01	14.12	-28.1	-29.4	14.6	7.00e-07	0	43	0	1027604480	17	4186
2026-01-14 07:45:22.42	15.82	14.09	-28.1	-29.5	14.5	1.50e-06	0	43	0	1030750208	17	4231
2026-01-14 07:45:23.42	15.62	14.05	-28.1	-29.6	14.5	0.00e+00	0	43	0	1033895936	17	4237
2026-01-14 07:45:24.42	15.43	14.02	-28.2	-29.7	14.4	7.00e-07	0	43	0	1037041664	17	4280
2026-01-14 07:45:25.42	15.24	13.99	-28.3	-29.8	14.4	7.00e-07	0	43	0	1040187392	17	4319
2026-01-14 07:45:26.43	15.04	13.95	-28.3	-29.9	14.3	7.00e-07	0	43	0	1043333120	17	4339
2026-01-14 07:45:27.43	14.85	13.92	-28.3	-29.8	14.3	7.00e-07	0	43	0	1046478848	17	4321
2026-01-14 07:45:28.43	14.66	13.88	-28.4	-30.1	14.2	7.00e-07	0	43	0	1049624576	17	4378
2026-01-14 07:45:29.44	14.47	13.85	-28.3	-29.9	14.3	7.00e-07	0	43	0	1052770304	17	4342
2026-01-14 07:45:30.44	14.28	13.81	-28.4	-30.2	14.1	1.50e-06	0	43	0	1055916032	17	4431
2026-01-14 07:45:31.44	14.09	13.78	-28.4	-30.1	14.2	2.20e-06	0	43	0	1059061760	17	4379
2026-01-14 07:45:32.44	13.90	13.74	-28.2	-29.7	14.4	7.00e-07	0	43	0	1062207488	17	4274
2026-01-14 07:45:33.44	13.71	13.71	-28.1	-29.4	14.6	0.00e+00	0	43	0	1065353216	17	4185
2026-01-14 07:45:34.45	13.52	13.67	-28.1	-29.5	14.6	0.00e+00	0	43	0	1068498944	17	4215
2026-01-14 07:45:35.45	13.33	13.63	-28.1	-29.5	14.6	7.00e-07	0	43	0	1071644672	17	4208
2026-01-14 07:45:36.45	13.14	13.60	-28.2	-29.6	14.5	1.50e-06	0	43	0	1074790400	17	4243
2026-01-14 07:45:37.46	12.95	13.56	-28.2	-29.8	14.4	7.00e-07	0	43	0	1077936128	17	4300
2026-01-14 07:45:38.45	12.77	13.52	-28.2	-29.6	14.5	7.00e-07	0	43	0	1081081856	17	4248
2026-01-14 07:45:39.46	12.58	13.49	-28.3	-29.9	14.3	0.00e+00	0	43	0	1084227584	17	4344
2026-01-14 07:45:40.46	12.39	13.45	-28.4	-30.1	14.2	3.00e-06	0	43	0	1087373312	17	4401
2026-01-14 07:45:41.46	12.21	13.41	-28.2	-29.6	14.4	2.20e-06	0	43	0	1090519040	17	4267
2026-01-14 07:45:42.47	12.02	13.37	-28.1	-29.6	14.5	0.00e+00	0	43	0	1093664768	17	4253
2026-01-14 07:45:43.48	11.83	13.33	-28.1	-29.4	14.5	0.00e+00	0	43	0	1096810496	17	4213
2026-01-14 07:45:44.48	11.65	13.30	-28.0	-29.3	14.6	0.00e+00	0	43	0	1099956224	17	4178
2026-01-14 07:45:45.47	11.47	13.26	-28.1	-29.4	14.6	0.00e+00	0	43	0	1103101952	17	4196
2026-01-14 07:45:46.47	11.28	13.22	-28.0	-29.3	14.6	1.50e-06	0	43	0	1106247680	17	4180
2026-01-14 07:45:47.48	11.10	13.18	-28.1	-29.5	14.5	0.00e+00	0	43	0	1109393408	17	4242
2026-01-14 07:45:48.48	10.92	13.14	-28.2	-29.6	14.4	7.00e-07	0	43	0	1112539136	17	4267
2026-01-14 07:45:49.48	10.74	13.10	-28.2	-29.7	14.4	7.00e-07	0	43	0	1115684864	17	4269
2026-01-14 07:45:50.49	10.55	13.06	-28.1	-29.6	14.5	7.00e-07	0	43	0	1118830592	17	4252
2026-01-14 07:45:51.50	10.37	13.02	-28.2	-29.6	14.4	7.00e-07	0	43	0	1121976320	17	4255
2026-01-14 07:45:52.50	10.19	12.98	-28.2	-29.6	14.4	7.00e-07	0	43	0	1125122048	17	4246
2026-01-14 07:45:53.50	10.01	12.94	-28.2	-29.6	14.4	0.00e+00	0	43	0	1128267776	17	4268
2026-01-14 07:45:54.51	9.83	12.90	-28.1	-29.5	14.5	2.20e-06	0	43	0	1131413504	17	4220
2026-01-14 07:45:55.51	9.65	12.86	-28.0	-29.2	14.7	0.00e+00	0	43	0	1134559232	17	4141
2026-01-14 07:45:56.51	9.48	12.82	-28.0	-29.2	14.6	0.00e+00	0	43	0	1137704960	17	4136
2026-01-14 07:45:57.51	9.30	12.77	-28.0	-29.3	14.6	0.00e+00	0	43	0	1140850688	17	4187
2026-01-14 07:45:58.52	9.12	12.73	-28.1	-29.4	14.5	0.00e+00	0	43	0	1143996416	17	4204
2026-01-14 07:45:59.53	8.94	12.69	-28.1	-29.6	14.4	0.00e+00	0	43	0	1147142144	17	4243
2026-01-14 07:46:00.53	8.76	12.65	-28.3	-29.9	14.3	1.50e-06	0	43	0	1150287872	17	4337
2026-01-14 07:46:01.53	8.59	12.61	-28.3	-30.0	14.2	2.20e-06	0	43	0	1153433600	17	4363
2026-01-14 07:46:02.53	8.41	12.56	-28.4	-30.1	14.1	4.50e-06	0	43	0	1156579328	17	4404
2026-01-14 07:46:03.54	8.24	12.52	-28.4	-30.2	14.1	7.00e-07	0	43	0	1159725056	17	4432
2026-01-14 07:46:04.54	8.06	12.48	-28.5	-30.3	14.0	2.20e-06	0	43	0	1162870784	17	4458
2026-01-14 07:46:05.55	7.89	12.44	-28.5	-30.4	13.9	3.00e-06	0	43	0	1166016512	17	4489
2026-01-14 07:46:06.55	7.72	12.39	-28.5	-30.5	13.9	2.20e-06	0	43	0	1169162240	17	4522
2026-01-14 07:46:07.56	7.54	12.35	-28.6	-30.6	13.9	6.80e-06	0	43	0	1172307968	17	4539
2026-01-14 07:46:08.56	7.37	12.31	-28.5	-30.4	13.9	8.30e-06	0	43	0	1175453696	17	4500
2026-01-14 07:46:09.56	7.20	12.26	-28.5	-30.5	13.9	3.00e-06	0	43	0	1178599424	17	4510
2026-01-14 07:46:10.56	7.03	12.22	-28.5	-30.3	14.0	3.80e-06	0	43	0	1181745152	17	4469
2026-01-14 07:46:11.56	6.86	12.17	-28.5	-30.5	13.9	1.50e-06	0	43	0	1184890880	17	4530
2026-01-14 07:46:12.56	6.69	12.13	-28.5	-30.5	13.9	4.50e-06	0	43	0	1188036608	17	4519
2026-01-14 07:46:13.58	6.52	12.09	-28.5	-30.6	13.9	4.50e-06	0	43	0	1191182336	17	4541
2026-01-14 07:46:14.58	6.35	12.04	-28.6	-30.8	13.7	7.60e-06	0	43	0	1194328064	17	4614
2026-01-14 07:46:15.59	6.18	12.00	-28.7	-30.9	13.6	9.90e-06	0	43	0	1197473792	17	4660
2026-01-14 07:46:16.59	6.01	11.95	-28.7	-30.8	13.7	6.80e-06	0	43	0	1200619520	17	4628
2026-01-14 07:46:17.59	5.84	11.91	-28.8	-31.2	13.4	1.37e-05	0	43	0	1203765248	17	4751
2026-01-14 07:46:18.59	5.68	11.86	-28.8	-31.1	13.5	1.14e-05	0	43	0	1206910976	17	4708
2026-01-14 07:46:19.60	5.51	11.82	-28.7	-31.0	13.6	1.06e-05	0	43	0	1210056704	17	4673
2026-01-14 07:46:20.60	5.34	11.77	-28.7	-31.1	13.5	7.60e-06	0	43	0	1213202432	17	4696
2026-01-14 07:46:21.60	5.18	11.72	-28.7	-31.0	13.5	1.06e-05	0	43	0	1216348160	17	4683
2026-01-14 07:46:22.60	5.01	11.68	-28.6	-30.7	13.7	3.00e-06	0	43	0	1219493888	17	4588
2026-01-14 07:46:23.60	4.85	11.63	-28.6	-30.6	13.8	4.50e-06	0	43	0	1222639616	17	4551
2026-01-14 07:46:24.59	4.69	11.59	-28.6	-30.6	13.8	4.50e-06	0	43	0	1225785344	17	4546
2026-01-14 07:46:25.60	4.52	11.54	-28.6	-30.7	13.7	3.00e-06	0	43	0	1227882496	17	4600
2026-01-14 07:46:26.60	4.36	11.50	-28.7	-30.8	13.6	7.60e-06	0	43	0	1231028224	17	4623
2026-01-14 07:46:27.60	4.20	11.45	-28.6	-30.7	13.7	4.50e-06	0	43	0	1234173952	17	4584
2026-01-14 07:46:28.60	4.04	11.40	-28.5	-30.6	13.8	6.10e-06	0	43	0	1237319680	17	4538
2026-01-14 07:46:29.60	3.88	11.36	-28.5	-30.4	13.9	2.20e-06	0	43	0	1240465408	17	4494
2026-01-14 07:46:30.61	3.71	11.31	-28.6	-30.7	13.7	5.30e-06	0	43	0	1243611136	17	4583
2026-01-14 07:46:31.61	3.55	11.26	-28.8	-31.2	13.4	1.22e-05	0	43	0	1246756864	17	4737
2026-01-14 07:46:32.61	3.40	11.21	-28.9	-31.4	13.3	2.21e-05	0	43	0	1249902592	17	4795
2026-01-14 07:46:33.62	3.24	11.17	-28.9	-31.5	13.2	2.28e-05	0	43	0	1253048320	17	4839
2026-01-14 07:46:34.62	3.08	11.12	-29.0	-31.6	13.1	2.59e-05	0	43	0	1256194048	17	4888
2026-01-14 07:46:35.62	2.92	11.07	-29.2	-31.6	12.9	4.19e-05	0	43	0	1259339776	18	4755
2026-01-14 07:46:36.62	2.76	11.02	-29.3	-31.9	12.7	8.54e-05	0	43	0	1262485504	18	4864
2026-01-14 07:46:37.62	2.61	10.98	-29.3	-31.8	12.7	5.95e-05	0	43	0	1265631232	18	4835
2026-01-14 07:46:38.63	2.45	10.93	-29.3	-31.9	12.7	8.92e-05	0	43	0	1268776960	18	4864
2026-01-14 07:46:39.63	2.29	10.88	-29.4	-32.1	12.5	1.04e-04	0	43	0	1271922688	18	4937
2026-01-14 07:46:40.64	2.14	10.83	-29.4	-32.2	12.5	1.14e-04	0	43	0	1275068416	18	4958
2026-01-14 07:46:41.64	1.98	10.78	-29.2	-31.7	12.7	7.32e-05	0	43	0	1278214144	18	4804
2026-01-14 07:46:42.64	1.83	10.74	-29.4	-32.3	12.4	1.27e-04	0	43	0	1281359872	18	4994
2026-01-14 07:46:43.64	1.67	10.69	-29.3	-31.4	12.6	1.20e-04	0	43	0	1284505600	19	4596
2026-01-14 07:46:44.65	1.52	10.64	-29.3	-31.5	12.6	9.30e-05	0	43	0	1287651328	19	4620
2026-01-14 07:46:45.66	1.36	10.59	-29.3	-31.5	12.5	9.91e-05	0	43	0	1290797056	19	4637
2026-01-14 07:46:46.66	1.21	10.54	-29.2	-31.2	12.7	1.08e-04	0	43	0	1293942784	19	4519
2026-01-14 07:46:47.67	1.06	10.49	-29.0	-30.8	12.9	3.28e-05	0	43	0	1297088512	19	4400
2026-01-14 07:46:48.67	0.91	10.44	-28.7	-30.5	13.5	1.60e-05	0	43	0	1300234240	18	4414
2026-01-14 07:46:49.67	0.76	10.40	-28.8	-30.6	13.4	1.29e-05	0	43	0	1303379968	18	4460
2026-01-14 07:46:50.68	0.61	10.35	-28.9	-30.9	13.2	1.98e-05	0	43	0	1306525696	18	4531
2026-01-14 07:46:51.68	0.46	10.30	-28.8	-30.8	13.3	2.21e-05	0	43	0	1309671424	18	4506
2026-01-14 07:46:52.69	0.31	10.25	-28.8	-30.7	13.3	1.67e-05	0	43	0	1312817152	18	4492
2026-01-14 07:46:53.69	0.16	10.20	-28.9	-31.1	13.1	3.66e-05	0	43	0	1315962880	18	4592
2026-01-14 07:46:54.70	0.01	10.15	-29.1	-31.3	13.0	4.80e-05	0	43	0	1319108608	18	4666
2026-01-14 07:46:55.70	359.86	10.10	-28.9	-30.9	13.2	3.20e-05	0	43	0	1322254336	18	4555
2026-01-14 07:46:56.71	359.71	10.05	-28.8	-30.7	13.3	2.82e-05	0	43	0	1325400064	18	4471
2026-01-14 07:46:57.71	359.57	10.00	-28.8	-30.6	13.4	8.30e-06	0	43	0	1328545792	18	4448
2026-01-14 07:46:58.72	359.42	9.95	-28.9	-30.8	13.2	1.37e-05	0	43	0	1331691520	18	4523
2026-01-14 07:46:59.72	359.27	9.90	-28.9	-30.9	13.2	2.36e-05	0	43	0	1334837248	18	4557
2026-01-14 07:47:00.72	359.13	9.85	-28.9	-31.1	13.1	2.51e-05	0	43	0	1337982976	18	4595
2026-01-14 07:47:01.72	358.99	9.80	-28.9	-31.1	13.1	2.82e-05	0	43	0	1341128704	18	4602
2026-01-14 07:47:02.72	358.84	9.75	-29.0	-31.2	13.0	3.20e-05	0	43	0	1344274432	18	4635
2026-01-14 07:47:03.73	358.70	9.70	-29.0	-31.1	13.0	3.43e-05	0	43	0	1347420160	18	4618
2026-01-14 07:47:04.73	358.55	9.65	-29.2	-31.6	12.7	4.04e-05	0	43	0	1350565888	18	4779
2026-01-14 07:47:05.73	358.41	9.60	-29.1	-31.4	12.9	5.95e-05	0	43	0	1353711616	18	4705
2026-01-14 07:47:06.74	358.27	9.55	-29.0	-31.2	13.0	4.88e-05	0	43	0	1356857344	18	4660
2026-01-14 07:47:07.74	358.13	9.50	-29.1	-31.4	12.8	6.33e-05	0	43	0	1360003072	18	4709
2026-01-14 07:47:08.74	357.99	9.45	-29.1	-31.5	12.8	5.11e-05	0	43	0	1363148800	18	4728
2026-01-14 07:47:09.75	357.84	9.40	-29.1	-31.6	12.7	6.10e-05	0	43	0	1366294528	18	4766
2026-01-14 07:47:10.75	357.70	9.35	-29.1	-31.4	12.8	5.95e-05	0	43	0	1369440256	18	4720
2026-01-14 07:47:11.75	357.57	9.29	-28.9	-31.0	13.0	2.97e-05	0	43	0	1372585984	18	4587
2026-01-14 07:47:12.75	357.43	9.24	-29.0	-31.2	13.0	3.20e-05	0	43	0	1375731712	18	4628
2026-01-14 07:47:13.75	357.29	9.19	-29.0	-31.3	12.9	6.02e-05	0	43	0	1378877440	18	4675
2026-01-14 07:47:14.75	357.15	9.14	-29.0	-31.3	12.9	5.64e-05	0	43	0	1382023168	18	4665
2026-01-14 07:47:15.76	357.01	9.09	-29.2	-31.7	12.6	7.32e-05	0	43	0	1385168896	18	4818
2026-01-14 07:47:16.76	356.88	9.04	-29.1	-31.4	12.8	9.61e-05	0	43	0	1388314624	18	4692
2026-01-14 07:47:17.77	356.74	8.99	-28.8	-30.7	13.2	1.67e-05	0	43	0	1391460352	18	4499
2026-01-14 07:47:18.77	356.60	8.94	-28.7	-30.4	13.4	1.29e-05	0	43	0	1394606080	18	4384
2026-01-14 07:47:19.78	356.46	8.89	-28.7	-30.5	13.3	1.75e-05	0	43	0	1397751808	18	4437
2026-01-14 07:47:20.77	356.33	8.84	-28.8	-30.6	13.3	1.67e-05	0	43	0	1400897536	18	4461
2026-01-14 07:47:21.78	356.20	8.78	-28.9	-31.1	13.0	2.44e-05	0	43	0	1404043264	18	4604
2026-01-14 07:47:22.78	356.06	8.73	-29.0	-31.3	12.8	4.11e-05	0	43	0	1407188992	18	4691
2026-01-14 07:47:23.79	355.93	8.68	-29.0	-31.2	12.9	3.89e-05	0	43	0	1410334720	18	4633
2026-01-14 07:47:24.79	355.79	8.63	-29.0	-31.3	12.8	5.18e-05	0	43	0	1413480448	18	4695
2026-01-14 07:47:25.79	355.66	8.58	-29.0	-31.3	12.8	6.40e-05	0	43	0	1416626176	18	4678
2026-01-14 07:47:26.79	355.53	8.53	-29.1	-31.4	12.7	5.18e-05	0	43	0	1419771904	18	4712
2026-01-14 07:47:27.80	355.40	8.48	-29.2	-31.7	12.5	9.61e-05	0	43	0	1422917632	18	4829
2026-01-14 07:47:28.80	355.27	8.42	-29.1	-31.4	12.7	8.92e-05	0	43	0	1426063360	18	4721
2026-01-14 07:47:29.80	355.14	8.37	-29.1	-31.4	12.7	8.54e-05	0	43	0	1429209088	18	4723
2026-01-14 07:47:30.80	355.01	8.32	-28.9	-30.9	13.0	4.57e-05	0	43	0	1432354816	18	4573
2026-01-14 07:47:31.80	354.88	8.27	-28.9	-31.0	13.0	3.05e-05	0	43	0	1435500544	18	4585
2026-01-14 07:47:32.81	354.74	8.22	-29.0	-31.3	12.8	6.25e-05	0	43	0	1438646272	18	4685
2026-01-14 07:47:33.81	354.62	8.17	-28.9	-31.1	12.9	3.43e-05	0	43	0	1441792000	18	4615
2026-01-14 07:47:34.82	354.49	8.11	-29.1	-31.5	12.6	7.70e-05	0	43	0	1444937728	18	4752
2026-01-14 07:47:35.82	354.36	8.06	-29.1	-31.4	12.7	7.40e-05	0	43	0	1448083456	18	4735
2026-01-14 07:47:36.82	354.23	8.01	-29.0	-31.3	12.8	7.32e-05	0	43	0	1451229184	18	4689
2026-01-14 07:47:37.82	354.11	7.96	-29.1	-31.4	12.7	7.47e-05	0	43	0	1454374912	18	4726
2026-01-14 07:47:38.82	353.98	7.91	-29.1	-31.5	12.6	9.76e-05	0	43	0	1457520640	18	4743
2026-01-14 07:47:39.82	353.85	7.85	-29.1	-31.6	12.6	5.79e-05	0	43	0	1460666368	18	4774
2026-01-14 07:47:40.82	353.73	7.80	-29.2	-31.8	12.4	1.50e-04	0	43	0	1463812096	18	4849
2026-01-14 07:47:41.83	353.60	7.75	-29.0	-31.4	12.7	8.23e-05	0	43	0	1466957824	18	4720
2026-01-14 07:47:42.82	353.48	7.70	-29.1	-31.5	12.5	1.07e-04	0	43	0	1470103552	18	4767
2026-01-14 07:47:43.82	353.35	7.65	-29.0	-31.3	12.7	8.62e-05	0	43	0	1473249280	18	4705
2026-01-14 07:47:44.83	353.23	7.59	-29.1	-31.6	12.5	1.07e-04	0	43	0	1476395008	18	4788
2026-01-14 07:47:45.84	353.10	7.54	-29.0	-31.2	12.7	6.71e-05	0	43	0	1478492160	18	4659
2026-01-14 07:47:46.84	352.98	7.49	-28.9	-31.1	12.8	6.40e-05	0	43	0	1481637888	18	4636
2026-01-14 07:47:47.84	352.86	7.44	-29.0	-31.3	12.7	6.02e-05	0	43	0	1485832192	18	4680
2026-01-14 07:47:48.85	352.74	7.39	-29.0	-31.3	12.7	7.01e-05	0	43	0	1488977920	18	4690
2026-01-14 07:47:49.86	352.61	7.33	-29.2	-31.9	12.3	2.01e-04	0	43	0	1492123648	18	4896
2026-01-14 07:47:50.86	352.49	7.28	-29.1	-31.6	12.5	1.22e-04	0	43	0	1495269376	18	4777
2026-01-14 07:47:51.86	352.37	7.23	-29.2	-31.8	12.4	1.37e-04	0	43	0	1498415104	18	4848
2026-01-14 07:47:52.86	352.25	7.18	-29.1	-31.5	12.5	1.06e-04	0	43	0	1501560832	18	4769
2026-01-14 07:47:53.87	352.13	7.12	-29.2	-31.8	12.3	1.82e-04	0	43	0	1503657984	18	4858
2026-01-14 07:47:54.87	352.01	7.07	-29.4	-32.3	12.0	3.29e-04	0	43	0	1506803712	18	5048
2026-01-14 07:47:55.87	351.89	7.02	-33.4	-45.3	3.8	1.43e+00	0	43	104	1508900864	26	14147
2026-01-14 07:47:56.87	351.78	6.97	-33.7	-45.7	3.8	1.49e+00	0	43	104	1508900864	27	14306

#Closed at: 2026-01-14 07:47:57
#Recorded file [1508 MB]: D:/data/31010_260114_103952.dat