passes_logs/2026/01/14/R2M6_AANII_01/R2M6_AANII_01__20260114_094632_SUOMI_NPP_rec.log

#Pass ID: 20260114_094632_SUOMI NPP
#Satellite: SUOMI NPP
#Configuration: NPP
#almurnet v.1.7.20240730
#Start time: 2026-01-14 09:46:33

#Version: 2.2.20231116
#Station: R2M6_AANII_01
#Location: 30.233357 lon 59.946436 lat
#TLE: 1 37849U 11061A   26013.27136842  .00000065  00000+0  51889-4 0  9990
#TLE: 2 37849  98.7808 315.3349 0002489  66.6776 293.4661 14.19524902736466

#Time	Az	El	Level	Level2	SNR	BER	BlckErr	Temp	State	Recorded	gain1	gain2
2026-01-14 09:46:33.89	141.03	7.11	-31.2	-35.0	5.2	1.26e+00	0	40	0	0	23	5567
2026-01-14 09:46:34.89	141.00	7.18	-30.9	-34.0	5.2	1.26e+00	0	40	104	0	23	5119
2026-01-14 09:46:35.89	140.97	7.26	-31.1	-34.5	9.1	1.73e-02	0	40	0	0	23	5364
2026-01-14 09:46:36.90	140.94	7.34	-30.9	-33.8	9.7	1.28e-02	0	40	0	1048576	23	5043
2026-01-14 09:46:37.90	140.91	7.42	-30.7	-33.6	10.2	7.98e-03	0	40	0	3145728	22	5053
2026-01-14 09:46:38.91	140.88	7.49	-30.9	-34.4	9.6	7.48e-03	0	40	0	5242880	22	5398
2026-01-14 09:46:39.91	140.85	7.57	-30.9	-34.6	9.4	1.43e-02	0	40	0	7340032	22	5492
2026-01-14 09:46:40.91	140.82	7.65	-30.9	-34.6	9.4	1.96e-02	0	40	0	9437184	22	5527
2026-01-14 09:46:41.92	140.79	7.73	-31.2	-35.7	8.6	1.99e-02	0	40	0	10485760	22	6040
2026-01-14 09:46:42.92	140.76	7.81	-31.1	-35.4	8.9	4.50e-02	0	40	0	12582912	22	5884
2026-01-14 09:46:43.93	140.73	7.89	-31.2	-35.8	8.5	3.45e-02	0	40	0	14680064	22	6110
2026-01-14 09:46:44.93	140.70	7.97	-31.0	-35.2	9.0	3.56e-02	0	40	0	16777216	22	5793
2026-01-14 09:46:45.94	140.67	8.05	-31.0	-34.9	9.3	2.53e-02	0	40	0	18874368	22	5651
2026-01-14 09:46:46.95	140.64	8.13	-30.8	-34.1	9.9	1.02e-02	0	40	0	19922944	22	5278
2026-01-14 09:46:47.95	140.61	8.21	-30.7	-33.6	10.3	6.51e-03	0	40	0	22020096	22	5066
2026-01-14 09:46:48.95	140.57	8.29	-30.5	-32.8	10.9	3.21e-03	0	41	0	24117248	22	4721
2026-01-14 09:46:49.95	140.54	8.37	-30.2	-32.4	11.6	1.20e-03	0	41	0	26214400	21	4645
2026-01-14 09:46:50.96	140.51	8.45	-30.2	-32.3	11.7	5.98e-04	0	40	0	28311552	21	4593
2026-01-14 09:46:51.96	140.48	8.53	-30.2	-32.2	11.8	4.13e-04	0	41	0	29360128	21	4521
2026-01-14 09:46:52.96	140.45	8.61	-30.1	-31.9	12.1	3.57e-04	0	41	0	31457280	21	4418
2026-01-14 09:46:53.97	140.41	8.69	-30.3	-32.6	11.6	5.97e-04	0	41	0	33554432	21	4666
2026-01-14 09:46:54.96	140.38	8.77	-30.1	-31.8	12.2	4.58e-04	0	41	0	35651584	21	4372
2026-01-14 09:46:55.97	140.35	8.85	-30.0	-31.6	12.4	1.72e-04	0	41	0	36700160	21	4284
2026-01-14 09:46:56.97	140.31	8.94	-29.9	-31.2	12.7	1.08e-04	0	41	0	38797312	21	4163
2026-01-14 09:46:57.98	140.28	9.02	-29.9	-30.9	12.9	6.71e-05	0	41	0	40894464	21	4078
2026-01-14 09:46:58.98	140.25	9.10	-29.8	-30.9	13.0	4.88e-05	0	41	0	42991616	21	4065
2026-01-14 09:46:59.98	140.21	9.18	-30.2	-32.0	12.2	6.71e-05	0	41	0	45088768	21	4397
2026-01-14 09:47:00.99	140.18	9.27	-30.1	-31.7	12.5	1.30e-04	0	41	0	46137344	21	4296
2026-01-14 09:47:01.99	140.14	9.35	-30.3	-32.2	12.2	2.12e-04	0	41	0	48234496	21	4476
2026-01-14 09:47:02.99	140.11	9.44	-30.3	-32.2	12.1	3.62e-04	0	41	0	50331648	21	4479
2026-01-14 09:47:04.00	140.08	9.52	-30.4	-32.5	12.0	3.22e-04	0	41	0	52428800	21	4580
2026-01-14 09:47:05.00	140.04	9.60	-30.3	-32.3	12.1	3.29e-04	0	41	0	54525952	21	4518
2026-01-14 09:47:06.00	140.01	9.69	-30.3	-32.2	12.2	2.54e-04	0	41	0	55574528	21	4463
2026-01-14 09:47:07.00	139.97	9.77	-30.3	-32.3	12.1	2.61e-04	0	41	0	57671680	21	4523
2026-01-14 09:47:08.01	139.93	9.86	-30.1	-31.5	12.6	1.31e-04	0	41	0	59768832	21	4253
2026-01-14 09:47:09.01	139.90	9.94	-30.0	-31.2	12.9	8.16e-05	0	41	0	61865984	21	4150
2026-01-14 09:47:10.02	139.86	10.03	-30.2	-31.8	12.5	6.63e-05	0	41	0	63963136	21	4326
2026-01-14 09:47:11.02	139.83	10.12	-29.9	-31.0	13.0	3.66e-05	0	41	0	65011712	21	4099
2026-01-14 09:47:12.02	139.79	10.20	-29.8	-30.8	13.1	3.05e-05	0	41	0	67108864	21	4030
2026-01-14 09:47:13.02	139.75	10.29	-29.9	-31.1	13.0	3.66e-05	0	41	0	69206016	21	4108
2026-01-14 09:47:14.03	139.72	10.38	-29.9	-31.1	13.0	3.05e-05	0	41	0	71303168	21	4107
2026-01-14 09:47:15.03	139.68	10.46	-30.0	-31.3	12.9	3.20e-05	0	41	0	73400320	21	4160
2026-01-14 09:47:16.04	139.64	10.55	-30.2	-31.7	12.6	6.63e-05	0	41	0	74448896	21	4284
2026-01-14 09:47:17.03	139.60	10.64	-30.1	-31.6	12.7	9.30e-05	0	41	0	76546048	21	4248
2026-01-14 09:47:18.03	139.57	10.73	-30.3	-31.9	12.5	1.52e-04	0	41	0	78643200	21	4363
2026-01-14 09:47:19.03	139.53	10.82	-30.2	-31.7	12.7	1.11e-04	0	41	0	80740352	21	4272
2026-01-14 09:47:20.03	139.49	10.90	-30.2	-31.7	12.7	7.32e-05	0	41	0	81788928	21	4277
2026-01-14 09:47:21.03	139.45	10.99	-30.2	-31.7	12.7	8.23e-05	0	41	0	83886080	21	4258
2026-01-14 09:47:22.02	139.41	11.08	-30.2	-31.6	12.8	6.71e-05	0	41	0	85983232	21	4234
2026-01-14 09:47:23.03	139.37	11.17	-30.2	-31.7	12.7	3.66e-05	0	42	0	88080384	21	4268
2026-01-14 09:47:24.03	139.34	11.26	-30.3	-32.0	12.5	7.55e-05	0	41	0	90177536	21	4380
2026-01-14 09:47:25.03	139.30	11.35	-29.9	-30.8	13.3	1.98e-05	0	41	0	91226112	21	3997
2026-01-14 09:47:26.03	139.26	11.44	-29.8	-30.5	13.5	1.44e-05	0	41	0	93323264	21	3923
2026-01-14 09:47:27.03	139.22	11.53	-29.7	-30.8	13.6	7.60e-06	0	41	0	95420416	20	4100
2026-01-14 09:47:28.03	139.18	11.62	-29.6	-30.4	13.9	3.00e-06	0	41	0	97517568	20	3979
2026-01-14 09:47:29.04	139.13	11.72	-29.7	-30.9	13.6	4.50e-06	0	41	0	99614720	20	4103
2026-01-14 09:47:30.04	139.09	11.81	-29.8	-31.0	13.5	9.90e-06	0	41	0	100663296	20	4162
2026-01-14 09:47:31.05	139.05	11.90	-29.8	-31.1	13.5	9.10e-06	0	41	0	102760448	20	4171
2026-01-14 09:47:32.06	139.01	11.99	-30.0	-31.6	13.1	1.75e-05	0	42	0	104857600	20	4333
2026-01-14 09:47:33.06	138.97	12.09	-30.0	-31.5	13.2	2.82e-05	0	41	0	106954752	20	4291
2026-01-14 09:47:34.07	138.93	12.18	-30.2	-32.1	12.8	2.59e-05	0	41	0	109051904	20	4500
2026-01-14 09:47:35.08	138.88	12.27	-30.2	-32.2	12.8	4.04e-05	0	41	0	110100480	20	4509
2026-01-14 09:47:36.07	138.84	12.37	-30.2	-32.1	12.9	4.88e-05	0	42	0	112197632	20	4488
2026-01-14 09:47:37.08	138.80	12.46	-30.3	-32.3	12.7	7.40e-05	0	41	0	114294784	20	4557
2026-01-14 09:47:38.09	138.75	12.56	-30.2	-32.1	12.8	5.49e-05	0	41	0	116391936	20	4479
2026-01-14 09:47:39.09	138.71	12.65	-30.1	-31.7	13.1	1.67e-05	0	42	0	118489088	20	4347
2026-01-14 09:47:40.10	138.67	12.75	-30.2	-32.0	12.9	5.41e-05	0	42	0	119537664	20	4447
2026-01-14 09:47:41.10	138.62	12.84	-29.8	-31.0	13.6	1.90e-05	0	42	0	121634816	20	4136
2026-01-14 09:47:42.11	138.58	12.94	-30.2	-32.1	12.9	2.13e-05	0	42	0	123731968	20	4465
2026-01-14 09:47:43.11	138.53	13.04	-30.0	-31.4	13.3	2.67e-05	0	42	0	125829120	20	4252
2026-01-14 09:47:44.12	138.49	13.13	-29.7	-30.7	13.8	3.00e-06	0	42	0	127926272	20	4053
2026-01-14 09:47:45.12	138.44	13.23	-29.7	-30.6	13.9	3.80e-06	0	42	0	128974848	20	4018
2026-01-14 09:47:46.12	138.40	13.33	-29.8	-30.9	13.7	6.10e-06	0	42	0	131072000	20	4103
2026-01-14 09:47:47.13	138.35	13.43	-30.1	-31.9	13.0	1.60e-05	0	41	0	133169152	20	4399
2026-01-14 09:47:48.13	138.30	13.53	-29.9	-31.3	13.4	1.29e-05	0	41	0	135266304	20	4224
2026-01-14 09:47:49.13	138.26	13.62	-29.9	-31.2	13.5	1.37e-05	0	42	0	136314880	20	4192
2026-01-14 09:47:50.13	138.21	13.72	-30.0	-31.4	13.4	6.80e-06	0	42	0	138412032	20	4254
2026-01-14 09:47:51.13	138.16	13.82	-30.0	-31.6	13.2	1.90e-05	0	42	0	140509184	20	4311
2026-01-14 09:47:52.14	138.12	13.92	-30.0	-31.5	13.4	1.22e-05	0	42	0	142606336	20	4270
2026-01-14 09:47:53.15	138.07	14.02	-30.0	-31.4	13.4	1.06e-05	0	42	0	144703488	20	4243
2026-01-14 09:47:54.14	138.02	14.12	-29.8	-31.1	13.6	7.60e-06	0	42	0	146800640	20	4144
2026-01-14 09:47:55.14	137.97	14.22	-29.6	-30.6	13.9	4.50e-06	0	42	0	147849216	20	4003
2026-01-14 09:47:56.15	137.92	14.33	-29.6	-30.5	14.0	3.80e-06	0	42	0	149946368	20	3987
2026-01-14 09:47:57.15	137.87	14.43	-29.4	-30.1	14.2	6.10e-06	0	42	0	152043520	20	3902
2026-01-14 09:47:58.16	137.82	14.53	-29.5	-30.3	14.1	7.00e-07	0	42	0	154140672	20	3939
2026-01-14 09:47:59.15	137.77	14.63	-29.5	-30.2	14.1	2.20e-06	0	42	0	155189248	20	3923
2026-01-14 09:48:00.16	137.72	14.74	-29.6	-30.6	13.9	6.80e-06	0	42	0	157286400	20	4039
2026-01-14 09:48:01.16	137.67	14.84	-29.6	-30.6	13.9	3.00e-06	0	42	0	159383552	20	4041
2026-01-14 09:48:02.16	137.62	14.94	-29.6	-30.6	14.0	5.30e-06	0	42	0	161480704	20	4016
2026-01-14 09:48:03.17	137.57	15.05	-29.6	-30.6	13.9	3.80e-06	0	42	0	163577856	20	4030
2026-01-14 09:48:04.17	137.52	15.15	-29.8	-31.0	13.7	4.50e-06	0	42	0	164626432	20	4153
2026-01-14 09:48:05.18	137.46	15.26	-29.8	-31.0	13.7	8.30e-06	0	42	0	166723584	20	4139
2026-01-14 09:48:06.18	137.41	15.36	-29.8	-30.8	13.8	6.10e-06	0	42	0	168820736	20	4071
2026-01-14 09:48:07.18	137.36	15.47	-29.8	-30.9	13.9	3.00e-06	0	42	0	170917888	20	4086
2026-01-14 09:48:08.19	137.30	15.58	-29.7	-30.5	14.1	1.50e-06	0	42	0	173015040	20	3965
2026-01-14 09:48:09.19	137.25	15.68	-29.6	-30.2	14.3	3.80e-06	0	42	0	174063616	20	3883
2026-01-14 09:48:10.19	137.20	15.79	-29.7	-30.6	14.2	3.00e-06	0	42	0	176160768	20	3989
2026-01-14 09:48:11.19	137.14	15.90	-29.9	-31.0	13.9	7.00e-07	0	42	0	178257920	20	4094
2026-01-14 09:48:12.19	137.09	16.01	-29.8	-30.8	14.0	7.00e-07	0	42	0	180355072	20	4053
2026-01-14 09:48:13.20	137.03	16.12	-29.6	-30.4	14.2	1.50e-06	0	42	0	182452224	20	3938
2026-01-14 09:48:14.20	136.97	16.22	-29.9	-31.0	13.8	2.20e-06	0	42	0	183500800	20	4108
2026-01-14 09:48:15.20	136.92	16.33	-29.9	-31.1	13.8	6.80e-06	0	42	0	185597952	20	4146
2026-01-14 09:48:16.21	136.86	16.44	-30.0	-31.3	13.6	3.00e-06	0	42	0	187695104	20	4193
2026-01-14 09:48:17.22	136.80	16.56	-30.1	-31.7	13.4	1.22e-05	0	42	0	189792256	20	4323
2026-01-14 09:48:18.22	136.74	16.67	-29.9	-31.1	13.8	6.10e-06	0	42	0	191889408	20	4141
2026-01-14 09:48:19.22	136.69	16.78	-29.6	-30.4	14.2	3.00e-06	0	42	0	192937984	20	3929
2026-01-14 09:48:20.23	136.63	16.89	-29.5	-30.0	14.5	7.00e-07	0	42	0	195035136	20	3816
2026-01-14 09:48:21.24	136.57	17.00	-29.4	-29.7	14.7	0.00e+00	0	42	0	197132288	20	3741
2026-01-14 09:48:22.24	136.51	17.12	-29.5	-30.1	14.5	7.00e-07	0	42	0	199229440	20	3833
2026-01-14 09:48:23.25	136.45	17.23	-29.5	-29.9	14.7	0.00e+00	0	42	0	201326592	20	3778
2026-01-14 09:48:24.25	136.39	17.34	-29.6	-30.2	14.5	0.00e+00	0	42	0	202375168	20	3853
2026-01-14 09:48:25.25	136.33	17.46	-29.7	-30.4	14.4	7.00e-07	0	42	0	204472320	20	3913
2026-01-14 09:48:26.25	136.26	17.57	-29.7	-30.4	14.4	1.50e-06	0	42	0	206569472	20	3897
2026-01-14 09:48:27.25	136.20	17.69	-29.9	-31.0	14.0	7.00e-07	0	42	0	208666624	20	4083
2026-01-14 09:48:28.25	136.14	17.80	-30.0	-31.2	13.9	7.00e-07	0	42	0	209715200	20	4140
2026-01-14 09:48:29.25	136.08	17.92	-29.7	-30.4	14.4	7.00e-07	0	42	0	211812352	20	3923
2026-01-14 09:48:30.25	136.01	18.04	-29.8	-30.8	14.1	2.20e-06	0	42	0	213909504	20	4043
2026-01-14 09:48:31.26	135.95	18.16	-29.9	-31.0	14.0	7.00e-07	0	42	0	216006656	20	4089
2026-01-14 09:48:32.26	135.89	18.27	-29.7	-30.4	14.3	7.00e-07	0	42	0	218103808	20	3931
2026-01-14 09:48:33.27	135.82	18.39	-29.6	-30.3	14.5	1.50e-06	0	42	0	219152384	20	3891
2026-01-14 09:48:34.27	135.75	18.51	-29.8	-30.7	14.2	7.00e-07	0	42	0	221249536	20	3990
2026-01-14 09:48:35.27	135.69	18.63	-29.8	-30.6	14.3	2.20e-06	0	42	0	223346688	20	3986
2026-01-14 09:48:36.27	135.62	18.75	-29.7	-30.5	14.4	1.50e-06	0	42	0	225443840	20	3941
2026-01-14 09:48:37.27	135.55	18.87	-29.8	-30.8	14.3	7.00e-07	0	42	0	227540992	20	4011
2026-01-14 09:48:38.27	135.49	18.99	-29.8	-30.8	14.3	1.50e-06	0	42	0	228589568	20	4025
2026-01-14 09:48:39.28	135.42	19.12	-29.8	-30.7	14.3	7.00e-07	0	42	0	230686720	20	3983
2026-01-14 09:48:40.28	135.35	19.24	-29.8	-30.7	14.3	0.00e+00	0	42	0	232783872	20	3998
2026-01-14 09:48:41.28	135.28	19.36	-29.8	-30.6	14.4	0.00e+00	0	42	0	234881024	20	3963
2026-01-14 09:48:42.28	135.21	19.48	-29.6	-30.0	14.7	0.00e+00	0	42	0	236978176	20	3799
2026-01-14 09:48:43.28	135.14	19.61	-29.6	-30.0	14.8	0.00e+00	0	42	0	238026752	20	3797
2026-01-14 09:48:44.28	135.07	19.73	-29.4	-29.7	15.0	0.00e+00	0	42	0	240123904	20	3701
2026-01-14 09:48:45.29	135.00	19.86	-29.6	-30.1	14.8	7.00e-07	0	42	0	242221056	20	3802
2026-01-14 09:48:46.30	134.92	19.98	-29.7	-30.3	14.7	0.00e+00	0	42	0	244318208	20	3855
2026-01-14 09:48:47.30	134.85	20.11	-29.8	-30.7	14.4	1.50e-06	0	42	0	246415360	20	3965
2026-01-14 09:48:48.30	134.78	20.24	-30.0	-31.2	14.1	0.00e+00	0	42	0	247463936	20	4107
2026-01-14 09:48:49.30	134.70	20.36	-30.2	-31.6	13.9	3.80e-06	0	42	0	249561088	20	4242
2026-01-14 09:48:50.31	134.63	20.49	-30.2	-31.6	13.9	5.30e-06	0	42	0	251658240	20	4243
2026-01-14 09:48:51.31	134.55	20.62	-30.4	-32.1	13.6	7.60e-06	0	42	0	253755392	20	4389
2026-01-14 09:48:52.31	134.47	20.75	-30.5	-31.9	13.4	1.60e-05	0	42	0	254803968	21	4237
2026-01-14 09:48:53.31	134.40	20.88	-30.3	-31.4	13.7	8.30e-06	0	42	0	256901120	21	4087
2026-01-14 09:48:54.32	134.32	21.01	-30.1	-30.8	14.1	7.00e-07	0	42	0	258998272	21	3904
2026-01-14 09:48:55.31	134.24	21.14	-30.0	-30.6	14.2	3.00e-06	0	42	0	261095424	21	3863
2026-01-14 09:48:56.32	134.16	21.27	-29.9	-30.5	14.3	3.00e-06	0	42	0	263192576	21	3817
2026-01-14 09:48:57.33	134.08	21.41	-30.0	-30.6	14.3	1.50e-06	0	42	0	264241152	21	3848
2026-01-14 09:48:58.33	134.00	21.54	-30.0	-30.5	14.3	0.00e+00	0	42	0	266338304	21	3841
2026-01-14 09:48:59.33	133.92	21.67	-30.2	-31.2	13.9	1.50e-06	0	42	0	268435456	21	4022
2026-01-14 09:49:00.33	133.84	21.81	-30.2	-31.0	14.0	4.50e-06	0	42	0	270532608	21	3982
2026-01-14 09:49:01.33	133.76	21.94	-30.3	-31.4	13.8	7.60e-06	0	42	0	272629760	21	4074
2026-01-14 09:49:02.33	133.67	22.08	-30.5	-31.8	13.5	5.30e-06	0	42	0	273678336	21	4211
2026-01-14 09:49:03.33	133.59	22.22	-30.4	-31.7	13.6	7.60e-06	0	42	0	275775488	21	4162
2026-01-14 09:49:04.34	133.50	22.35	-30.2	-31.1	13.9	2.20e-06	0	42	0	277872640	21	4003
2026-01-14 09:49:05.33	133.42	22.49	-30.4	-31.8	13.6	7.60e-06	0	42	0	279969792	21	4187
2026-01-14 09:49:06.34	133.33	22.63	-30.5	-31.9	13.5	1.06e-05	0	42	0	282066944	21	4236
2026-01-14 09:49:07.34	133.24	22.77	-30.2	-31.1	14.0	4.50e-06	0	42	0	283115520	21	4002
2026-01-14 09:49:08.35	133.15	22.91	-30.3	-31.3	13.9	1.50e-06	0	42	0	285212672	21	4045
2026-01-14 09:49:09.35	133.07	23.05	-30.4	-31.7	13.6	9.90e-06	0	42	0	287309824	21	4166
2026-01-14 09:49:10.35	132.98	23.19	-30.3	-31.5	13.8	8.30e-06	0	42	0	289406976	21	4093
2026-01-14 09:49:11.36	132.88	23.33	-30.5	-31.8	13.6	6.80e-06	0	42	0	291504128	21	4194
2026-01-14 09:49:12.36	132.79	23.47	-30.4	-31.7	13.6	1.06e-05	0	42	0	292552704	21	4180
2026-01-14 09:49:13.36	132.70	23.62	-30.3	-31.5	13.8	4.50e-06	0	42	0	294649856	21	4095
2026-01-14 09:49:14.37	132.61	23.76	-30.4	-31.6	13.7	4.50e-06	0	43	0	296747008	21	4146
2026-01-14 09:49:15.37	132.51	23.91	-30.3	-31.3	13.9	1.50e-06	0	42	0	298844160	21	4061
2026-01-14 09:49:16.37	132.42	24.05	-30.3	-31.4	13.8	5.30e-06	0	42	0	300941312	21	4074
2026-01-14 09:49:17.38	132.32	24.20	-30.6	-32.1	13.4	1.83e-05	0	42	0	301989888	21	4275
2026-01-14 09:49:18.38	132.22	24.35	-30.6	-32.2	13.3	1.22e-05	0	42	0	304087040	21	4323
2026-01-14 09:49:19.38	132.13	24.49	-30.9	-32.8	12.9	3.12e-05	0	42	0	306184192	21	4530
2026-01-14 09:49:20.38	132.03	24.64	-30.8	-32.2	13.1	3.73e-05	0	42	0	308281344	22	4237
2026-01-14 09:49:21.39	131.93	24.79	-31.0	-32.8	12.7	5.87e-05	0	42	0	310378496	22	4414
2026-01-14 09:49:22.39	131.83	24.94	-31.0	-32.7	12.7	5.26e-05	0	42	0	311427072	22	4388
2026-01-14 09:49:23.39	131.73	25.09	-30.9	-32.4	13.0	2.82e-05	0	42	0	313524224	22	4288
2026-01-14 09:49:24.40	131.62	25.24	-30.7	-31.9	13.3	2.44e-05	0	42	0	315621376	22	4122
2026-01-14 09:49:25.40	131.52	25.39	-30.6	-31.6	13.5	2.21e-05	0	42	0	317718528	22	4028
2026-01-14 09:49:26.41	131.41	25.55	-30.6	-31.6	13.4	1.22e-05	0	42	0	318767104	22	4044
2026-01-14 09:49:27.42	131.31	25.70	-30.8	-32.1	13.1	3.28e-05	0	42	0	320864256	22	4191
2026-01-14 09:49:28.42	131.20	25.86	-30.7	-31.8	13.3	2.44e-05	0	42	0	322961408	22	4111
2026-01-14 09:49:29.42	131.09	26.01	-30.8	-32.1	13.2	2.28e-05	0	42	0	325058560	22	4200
2026-01-14 09:49:30.42	130.98	26.17	-30.9	-32.4	13.0	4.19e-05	0	42	0	327155712	22	4278
2026-01-14 09:49:31.42	130.87	26.32	-30.9	-32.4	13.0	2.44e-05	0	42	0	328204288	22	4289
2026-01-14 09:49:32.42	130.76	26.48	-30.9	-32.3	13.1	2.36e-05	0	42	0	330301440	22	4229
2026-01-14 09:49:33.43	130.65	26.64	-31.1	-32.9	12.6	1.14e-04	0	42	0	332398592	22	4448
2026-01-14 09:49:34.43	130.54	26.80	-31.0	-32.8	12.8	7.09e-05	0	42	0	334495744	22	4391
2026-01-14 09:49:35.43	130.42	26.96	-31.3	-33.4	12.3	6.71e-05	0	42	0	336592896	22	4607
2026-01-14 09:49:36.43	130.31	27.12	-31.2	-33.3	12.4	2.91e-04	0	42	0	337641472	22	4553
2026-01-14 09:49:37.43	130.19	27.28	-31.2	-33.2	12.5	1.59e-04	0	42	0	339738624	22	4519
2026-01-14 09:49:38.44	130.07	27.45	-31.2	-33.1	12.5	1.02e-04	0	42	0	341835776	22	4492
2026-01-14 09:49:39.44	129.95	27.61	-31.0	-32.5	13.0	6.48e-05	0	42	0	343932928	22	4289
2026-01-14 09:49:40.45	129.83	27.77	-30.8	-32.2	13.2	4.50e-05	0	42	0	346030080	22	4204
2026-01-14 09:49:41.44	129.71	27.94	-30.9	-32.2	13.2	2.97e-05	0	42	0	347078656	22	4200
2026-01-14 09:49:42.44	129.59	28.10	-30.9	-32.5	13.0	3.96e-05	0	42	0	349175808	22	4286
2026-01-14 09:49:43.45	129.46	28.27	-30.8	-32.1	13.3	9.90e-06	0	42	0	351272960	22	4171
2026-01-14 09:49:44.45	129.34	28.44	-30.7	-31.9	13.4	1.44e-05	0	42	0	353370112	22	4103
2026-01-14 09:49:45.46	129.21	28.61	-30.9	-32.4	13.0	2.44e-05	0	42	0	355467264	22	4278
2026-01-14 09:49:46.46	129.08	28.78	-30.9	-32.2	13.2	3.81e-05	0	42	0	356515840	22	4198
2026-01-14 09:49:47.46	128.95	28.95	-30.8	-32.0	13.4	9.10e-06	0	42	0	358612992	22	4144
2026-01-14 09:49:48.47	128.82	29.12	-30.9	-32.3	13.1	1.60e-05	0	42	0	360710144	22	4247
2026-01-14 09:49:49.47	128.68	29.29	-30.8	-32.0	13.3	3.89e-05	0	42	0	362807296	22	4144
2026-01-14 09:49:50.47	128.55	29.46	-30.5	-31.3	13.8	7.60e-06	0	42	0	363855872	22	3929
2026-01-14 09:49:51.47	128.41	29.63	-30.6	-31.6	13.7	3.00e-06	0	42	0	365953024	22	4017
2026-01-14 09:49:52.47	128.28	29.81	-30.8	-31.9	13.4	1.60e-05	0	42	0	368050176	22	4119
2026-01-14 09:49:53.48	128.14	29.98	-30.7	-31.7	13.6	1.06e-05	0	43	0	370147328	22	4041
2026-01-14 09:49:54.49	128.00	30.16	-30.7	-31.8	13.5	4.50e-06	0	42	0	372244480	22	4087
2026-01-14 09:49:55.49	127.85	30.34	-30.8	-32.0	13.4	1.37e-05	0	42	0	374341632	22	4135
2026-01-14 09:49:56.50	127.71	30.52	-30.5	-31.3	13.8	6.80e-06	0	42	0	375390208	22	3940
2026-01-14 09:49:57.50	127.56	30.70	-30.5	-31.2	13.9	1.50e-06	0	42	0	377487360	22	3900
2026-01-14 09:49:58.51	127.42	30.88	-30.7	-31.9	13.5	5.30e-06	0	42	0	379584512	22	4098
2026-01-14 09:49:59.51	127.27	31.06	-30.6	-31.6	13.7	9.90e-06	0	42	0	381681664	22	4012
2026-01-14 09:50:00.52	127.12	31.24	-31.0	-32.6	13.0	4.04e-05	0	42	0	382730240	22	4336
2026-01-14 09:50:01.52	126.96	31.42	-31.3	-33.3	12.5	1.04e-04	0	42	0	384827392	22	4549
2026-01-14 09:50:02.52	126.81	31.61	-31.1	-32.9	12.8	8.85e-05	0	42	0	386924544	22	4428
2026-01-14 09:50:03.52	126.66	31.79	-31.4	-33.8	12.2	1.65e-04	0	42	0	389021696	22	4726
2026-01-14 09:50:04.53	126.50	31.98	-31.3	-33.4	12.4	1.24e-04	0	42	0	391118848	22	4589
2026-01-14 09:50:05.53	126.34	32.16	-31.5	-33.8	12.2	1.06e-04	0	42	0	392167424	22	4735
2026-01-14 09:50:06.53	126.18	32.35	-31.6	-33.7	11.9	2.58e-04	0	42	0	394264576	23	4607
2026-01-14 09:50:07.52	126.02	32.53	-31.8	-34.5	11.5	8.19e-04	0	42	0	396361728	23	4885
2026-01-14 09:50:08.53	125.85	32.72	-31.7	-34.1	11.6	7.86e-04	0	42	0	398458880	23	4744
2026-01-14 09:50:09.53	125.68	32.91	-31.9	-34.1	11.3	1.47e-03	0	42	0	400556032	24	4648
2026-01-14 09:50:10.54	125.51	33.11	-31.7	-33.5	11.8	1.24e-03	0	42	0	401604608	24	4440
2026-01-14 09:50:11.54	125.34	33.30	-31.7	-33.5	11.8	7.40e-04	0	42	0	403701760	24	4423
2026-01-14 09:50:12.54	125.17	33.49	-31.7	-33.6	11.7	4.71e-04	0	42	0	405798912	24	4463
2026-01-14 09:50:13.55	124.99	33.68	-31.6	-33.1	12.0	7.06e-04	0	42	0	407896064	24	4317
2026-01-14 09:50:14.55	124.82	33.88	-31.6	-33.2	12.1	3.19e-04	0	42	0	409993216	24	4322
2026-01-14 09:50:15.55	124.64	34.07	-31.8	-33.8	11.6	3.16e-04	0	42	0	411041792	24	4538
2026-01-14 09:50:16.56	124.46	34.27	-31.8	-34.0	11.4	2.84e-04	0	43	0	413138944	24	4603
2026-01-14 09:50:17.56	124.27	34.47	-31.9	-34.2	11.2	1.17e-03	0	42	0	415236096	24	4697
2026-01-14 09:50:18.56	124.09	34.66	-31.9	-34.1	11.4	1.91e-03	0	42	0	417333248	24	4640
2026-01-14 09:50:19.56	123.90	34.86	-32.2	-35.2	10.6	3.43e-03	0	42	0	419430400	24	5068
2026-01-14 09:50:20.56	123.71	35.06	-32.4	-35.8	10.2	3.96e-03	0	42	0	420478976	24	5307
2026-01-14 09:50:21.56	123.52	35.26	-32.6	-35.9	9.7	8.35e-03	0	42	0	422576128	25	5289
2026-01-14 09:50:22.57	123.32	35.47	-32.7	-36.5	9.2	1.83e-02	0	42	0	424673280	25	5551
2026-01-14 09:50:23.57	123.12	35.67	-33.0	-37.2	8.4	2.48e-02	0	42	0	426770432	26	5811
2026-01-14 09:50:24.57	122.92	35.87	-33.2	-38.1	7.7	6.94e-02	0	42	0	427819008	26	6285
2026-01-14 09:50:25.57	122.72	36.07	-33.3	-38.2	7.5	1.23e-01	0	42	0	429916160	26	6369
2026-01-14 09:50:26.57	122.51	36.28	-32.9	-36.6	8.8	8.18e-02	0	42	0	432013312	26	5525
2026-01-14 09:50:27.58	122.30	36.49	-32.9	-36.5	8.8	3.70e-02	0	42	0	434110464	26	5469
2026-01-14 09:50:28.58	122.09	36.69	-32.5	-34.9	10.0	1.21e-02	0	42	0	436207616	26	4789
2026-01-14 09:50:29.58	121.88	36.90	-31.9	-33.6	11.4	1.77e-03	0	43	0	437256192	25	4362
2026-01-14 09:50:30.58	121.66	37.11	-31.5	-32.8	12.3	6.49e-04	0	42	0	439353344	24	4174
2026-01-14 09:50:31.59	121.44	37.32	-31.3	-32.8	12.7	7.93e-05	0	42	0	441450496	23	4276
2026-01-14 09:50:32.59	121.22	37.53	-31.4	-33.1	12.5	6.40e-05	0	42	0	443547648	23	4386
2026-01-14 09:50:33.60	120.99	37.74	-31.6	-33.5	12.2	1.86e-04	0	42	0	445644800	23	4515
2026-01-14 09:50:34.60	120.77	37.95	-31.3	-32.8	12.7	1.31e-04	0	42	0	446693376	23	4270
2026-01-14 09:50:35.60	120.54	38.16	-31.3	-32.8	12.6	8.08e-05	0	42	0	448790528	23	4289
2026-01-14 09:50:36.59	120.30	38.37	-31.4	-33.1	12.5	9.76e-05	0	42	0	450887680	23	4376
2026-01-14 09:50:37.59	120.07	38.59	-31.5	-33.3	12.3	1.80e-04	0	42	0	452984832	23	4460
2026-01-14 09:50:38.59	119.83	38.80	-31.5	-33.5	12.2	1.72e-04	0	42	0	455081984	23	4502
2026-01-14 09:50:39.59	119.59	39.02	-31.9	-34.2	11.3	6.06e-04	0	42	0	456130560	24	4655
2026-01-14 09:50:40.59	119.34	39.23	-32.3	-35.4	10.4	2.73e-03	0	42	0	458227712	24	5145
2026-01-14 09:50:41.58	119.09	39.45	-32.5	-35.6	10.0	5.26e-03	0	42	0	460324864	25	5141
2026-01-14 09:50:42.59	118.84	39.67	-32.6	-35.8	9.8	3.59e-03	0	42	0	462422016	25	5226
2026-01-14 09:50:43.59	118.58	39.89	-32.5	-35.5	10.1	3.64e-03	0	42	0	463470592	25	5091
2026-01-14 09:50:44.60	118.32	40.11	-32.8	-36.8	9.1	1.76e-02	0	42	0	465567744	25	5684
2026-01-14 09:50:45.60	118.05	40.33	-33.0	-36.7	8.9	4.57e-02	0	43	0	467664896	26	5527
2026-01-14 09:50:46.60	117.79	40.55	-33.1	-37.3	8.4	3.74e-02	0	42	0	469762048	26	5816
2026-01-14 09:50:47.61	117.51	40.77	-33.2	-37.8	8.0	4.60e-02	0	43	0	471859200	26	6116
2026-01-14 09:50:48.61	117.24	40.99	-33.4	-38.6	7.4	8.02e-02	0	42	0	472907776	26	6546
2026-01-14 09:50:49.61	116.96	41.21	-33.6	-39.5	6.4	1.98e-01	0	42	0	475004928	27	7039
2026-01-14 09:50:50.61	116.68	41.44	-33.3	-37.8	7.5	2.25e-01	0	42	0	477102080	27	6046
2026-01-14 09:50:51.61	116.39	41.66	-33.1	-36.6	8.5	5.06e-02	0	42	0	479199232	27	5412
2026-01-14 09:50:52.62	116.10	41.89	-32.9	-35.9	9.1	2.69e-02	0	42	0	481296384	27	5096
2026-01-14 09:50:53.62	115.80	42.11	-32.7	-35.9	9.4	1.64e-02	0	42	0	482344960	26	5152
2026-01-14 09:50:54.63	115.50	42.34	-32.8	-35.9	9.3	1.89e-02	0	42	0	484442112	26	5167
2026-01-14 09:50:55.62	115.20	42.56	-32.7	-35.7	9.6	1.59e-02	0	42	0	486539264	26	5089
2026-01-14 09:50:56.62	114.89	42.79	-32.5	-35.0	10.1	1.12e-02	0	42	0	488636416	26	4785
2026-01-14 09:50:57.62	114.58	43.01	-32.4	-34.6	10.5	4.78e-03	0	42	0	490733568	26	4623
2026-01-14 09:50:58.62	114.27	43.24	-32.3	-34.7	10.8	3.30e-03	0	42	0	491782144	25	4757
2026-01-14 09:50:59.62	113.95	43.47	-31.8	-33.6	11.8	1.10e-03	0	43	0	493879296	24	4453
2026-01-14 09:51:00.62	113.62	43.69	-31.6	-33.2	12.2	3.10e-04	0	42	0	495976448	24	4298
2026-01-14 09:51:01.63	113.29	43.92	-31.5	-32.9	12.2	2.58e-04	0	42	0	498073600	24	4208
2026-01-14 09:51:02.63	112.95	44.15	-31.3	-32.7	12.8	8.08e-05	0	43	0	499122176	23	4242
2026-01-14 09:51:03.63	112.61	44.38	-31.4	-33.1	12.5	8.08e-05	0	42	0	501219328	23	4376
2026-01-14 09:51:04.64	112.27	44.61	-31.8	-34.1	11.9	1.45e-04	0	42	0	503316480	23	4706
2026-01-14 09:51:05.64	111.92	44.84	-31.8	-34.1	11.9	5.35e-04	0	43	0	505413632	23	4719
2026-01-14 09:51:06.64	111.56	45.06	-32.0	-34.4	11.3	8.59e-04	0	42	0	507510784	24	4721
2026-01-14 09:51:07.64	111.20	45.29	-32.0	-34.5	11.3	8.85e-04	0	42	0	509607936	24	4756
2026-01-14 09:51:08.65	110.83	45.52	-32.2	-34.8	11.0	1.53e-03	0	42	0	510656512	24	4888
2026-01-14 09:51:09.65	110.46	45.75	-32.0	-34.2	11.4	1.98e-03	0	42	0	512753664	24	4668
2026-01-14 09:51:10.65	110.09	45.98	-31.7	-33.4	12.1	6.16e-04	0	42	0	514850816	24	4383
2026-01-14 09:51:11.65	109.71	46.21	-31.4	-32.6	12.5	2.04e-04	0	43	0	516947968	24	4143
2026-01-14 09:51:12.65	109.32	46.44	-31.2	-32.6	12.9	8.54e-05	0	42	0	517996544	23	4199
2026-01-14 09:51:13.65	108.93	46.66	-31.4	-32.9	12.7	4.65e-05	0	42	0	520093696	23	4298
2026-01-14 09:51:14.66	108.52	46.89	-31.5	-33.3	12.5	9.00e-05	0	43	0	522190848	23	4409
2026-01-14 09:51:15.66	108.12	47.12	-31.8	-34.1	11.9	2.01e-04	0	42	0	524288000	23	4709
2026-01-14 09:51:16.67	107.71	47.35	-32.2	-35.0	10.8	1.44e-03	0	42	0	526385152	24	4975
2026-01-14 09:51:17.68	107.29	47.58	-32.1	-34.5	11.2	2.09e-03	0	42	0	527433728	24	4784
2026-01-14 09:51:18.68	106.86	47.80	-31.5	-32.8	12.5	7.21e-04	0	42	0	529530880	24	4178
2026-01-14 09:51:19.68	106.43	48.03	-31.0	-31.9	13.4	1.60e-05	0	42	0	531628032	23	3988
2026-01-14 09:51:20.69	105.99	48.26	-30.8	-31.9	13.7	3.80e-06	0	42	0	533725184	22	4085
2026-01-14 09:51:21.69	105.55	48.48	-31.1	-32.8	13.2	4.50e-06	0	42	0	535822336	22	4345
2026-01-14 09:51:22.69	105.11	48.70	-31.3	-33.3	12.8	7.17e-05	0	42	0	536870912	22	4515
2026-01-14 09:51:23.69	104.65	48.93	-31.5	-33.4	12.3	1.04e-04	0	42	0	538968064	23	4466
2026-01-14 09:51:24.70	104.18	49.15	-31.8	-34.3	11.8	2.14e-04	0	42	0	541065216	23	4791
2026-01-14 09:51:25.70	103.72	49.37	-31.8	-34.1	11.9	4.63e-04	0	43	0	543162368	23	4714
2026-01-14 09:51:26.70	103.24	49.59	-31.5	-33.3	12.5	1.30e-04	0	43	0	545259520	23	4436
2026-01-14 09:51:27.71	102.76	49.81	-31.4	-33.1	12.6	1.30e-04	0	42	0	546308096	23	4358
2026-01-14 09:51:28.71	102.27	50.03	-31.6	-33.7	12.2	1.36e-04	0	42	0	548405248	23	4557
2026-01-14 09:51:29.72	101.77	50.25	-31.4	-33.1	12.5	2.23e-04	0	42	0	550502400	23	4365
2026-01-14 09:51:30.73	101.26	50.46	-30.8	-31.3	13.8	2.89e-05	0	42	0	552599552	23	3825
2026-01-14 09:51:31.73	100.75	50.68	-30.3	-30.6	14.6	2.20e-06	0	42	0	554696704	22	3719
2026-01-14 09:51:32.73	100.23	50.89	-30.1	-30.5	14.9	7.00e-07	0	42	0	555745280	21	3772
2026-01-14 09:51:33.74	99.70	51.10	-29.8	-30.4	15.2	0.00e+00	0	42	0	557842432	20	3854
2026-01-14 09:51:34.74	99.17	51.31	-29.9	-30.5	15.1	0.00e+00	0	43	0	559939584	20	3869
2026-01-14 09:51:35.73	98.63	51.52	-30.0	-30.7	15.1	0.00e+00	0	43	0	562036736	20	3934
2026-01-14 09:51:36.74	98.08	51.72	-29.8	-30.4	15.2	0.00e+00	0	42	0	563085312	20	3844
2026-01-14 09:51:37.74	97.53	51.93	-29.7	-30.1	15.4	0.00e+00	0	43	0	565182464	20	3771
2026-01-14 09:51:38.74	96.96	52.13	-29.9	-30.7	15.1	0.00e+00	0	42	0	567279616	20	3912
2026-01-14 09:51:39.74	96.39	52.33	-30.7	-32.0	13.9	3.00e-06	0	42	0	569376768	21	4212
2026-01-14 09:51:40.75	95.81	52.53	-31.1	-32.5	13.3	5.30e-06	0	42	0	571473920	22	4277
2026-01-14 09:51:41.75	95.22	52.72	-30.7	-31.6	13.9	7.60e-06	0	42	0	572522496	22	3996
2026-01-14 09:51:42.75	94.63	52.91	-31.0	-32.5	13.4	7.00e-07	0	42	0	574619648	22	4244
2026-01-14 09:51:43.76	94.02	53.10	-30.8	-31.8	13.8	1.60e-05	0	42	0	576716800	22	4044
2026-01-14 09:51:44.77	93.41	53.29	-31.0	-32.4	13.5	4.50e-06	0	42	0	578813952	22	4220
2026-01-14 09:51:45.77	92.79	53.48	-30.9	-32.2	13.5	1.29e-05	0	43	0	580911104	22	4166
2026-01-14 09:51:46.78	92.16	53.66	-30.5	-31.1	14.2	3.00e-06	0	43	0	581959680	22	3857
2026-01-14 09:51:47.78	91.53	53.84	-30.3	-31.0	14.6	7.00e-07	0	43	0	584056832	21	3916
2026-01-14 09:51:48.78	90.89	54.02	-30.4	-31.5	14.3	1.50e-06	0	42	0	586153984	21	4054
2026-01-14 09:51:49.78	90.24	54.19	-30.8	-32.5	13.7	2.20e-06	0	43	0	588251136	21	4353
2026-01-14 09:51:50.79	89.57	54.36	-30.5	-31.6	14.2	3.00e-06	0	42	0	590348288	21	4082
2026-01-14 09:51:51.79	88.91	54.53	-30.2	-30.7	14.8	0.00e+00	0	42	0	591396864	21	3842
2026-01-14 09:51:52.80	88.23	54.69	-30.4	-31.3	14.4	7.00e-07	0	42	0	593494016	21	4007
2026-01-14 09:51:53.80	87.55	54.85	-30.4	-31.3	14.4	1.50e-06	0	42	0	595591168	21	4010
2026-01-14 09:51:54.80	86.86	55.01	-30.7	-32.2	13.8	4.50e-06	0	42	0	597688320	21	4277
2026-01-14 09:51:55.81	86.16	55.16	-31.2	-33.1	13.0	3.43e-05	0	43	0	599785472	22	4464
2026-01-14 09:51:56.81	85.46	55.31	-31.4	-33.1	12.6	9.76e-05	0	43	0	600834048	23	4353
2026-01-14 09:51:57.82	84.74	55.46	-31.3	-32.6	13.0	1.67e-04	0	42	0	602931200	23	4208
2026-01-14 09:51:58.82	84.03	55.60	-30.2	-30.8	14.7	1.50e-06	0	43	0	605028352	21	3858
2026-01-14 09:51:59.82	83.30	55.73	-29.6	-29.8	15.6	0.00e+00	0	42	0	607125504	20	3680
2026-01-14 09:52:00.82	82.57	55.86	-29.9	-30.5	15.2	0.00e+00	0	43	0	609222656	20	3859
2026-01-14 09:52:01.82	81.83	55.99	-29.6	-29.8	15.7	0.00e+00	0	43	0	610271232	20	3678
2026-01-14 09:52:02.83	81.08	56.12	-29.9	-30.7	15.1	0.00e+00	0	42	0	612368384	20	3919
2026-01-14 09:52:03.83	80.33	56.24	-30.4	-31.9	14.3	0.00e+00	0	43	0	614465536	20	4272
2026-01-14 09:52:04.84	79.56	56.35	-30.3	-31.1	14.5	7.00e-07	0	43	0	616562688	21	3933
2026-01-14 09:52:05.84	78.80	56.46	-30.2	-30.8	14.7	0.00e+00	0	43	0	618659840	21	3862
2026-01-14 09:52:06.83	78.04	56.56	-30.1	-30.5	14.9	0.00e+00	0	43	0	619708416	21	3781
2026-01-14 09:52:07.84	77.26	56.66	-29.8	-30.2	15.4	0.00e+00	0	43	0	621805568	20	3794
2026-01-14 09:52:08.84	76.48	56.76	-29.3	-29.7	16.1	0.00e+00	0	42	0	623902720	19	3738
2026-01-14 09:52:09.85	75.68	56.85	-30.0	-31.2	15.1	0.00e+00	0	42	0	625999872	19	4165
2026-01-14 09:52:10.86	74.88	56.94	-30.3	-31.5	14.6	0.00e+00	0	43	0	628097024	20	4154
2026-01-14 09:52:11.86	74.09	57.01	-30.8	-32.4	13.8	2.20e-06	0	43	0	629145600	21	4318
2026-01-14 09:52:12.86	73.29	57.09	-30.4	-31.4	14.4	6.10e-06	0	42	0	631242752	21	4020
2026-01-14 09:52:13.86	72.48	57.16	-30.0	-30.2	15.0	0.00e+00	0	43	0	633339904	21	3706
2026-01-14 09:52:14.86	71.67	57.22	-29.1	-29.0	16.4	0.00e+00	0	43	0	635437056	19	3578
2026-01-14 09:52:15.87	70.85	57.28	-28.8	-28.9	16.9	0.00e+00	0	42	0	636485632	18	3639
2026-01-14 09:52:16.87	70.04	57.33	-28.8	-28.9	16.8	0.00e+00	0	43	0	638582784	18	3628
2026-01-14 09:52:17.88	69.21	57.38	-28.7	-28.7	16.9	0.00e+00	0	43	0	640679936	18	3592
2026-01-14 09:52:18.88	68.39	57.42	-28.9	-29.0	16.8	0.00e+00	0	42	0	642777088	18	3672
2026-01-14 09:52:19.88	67.57	57.46	-29.6	-30.3	15.7	0.00e+00	0	42	0	644874240	19	3917
2026-01-14 09:52:20.89	66.73	57.49	-28.9	-28.7	16.7	0.00e+00	0	42	0	646971392	19	3505
2026-01-14 09:52:21.89	65.91	57.51	-28.1	-27.8	17.6	0.00e+00	0	43	0	648019968	17	3470
2026-01-14 09:52:22.89	65.08	57.53	-27.9	-27.9	17.9	0.00e+00	0	43	0	650117120	16	3580
2026-01-14 09:52:23.90	64.24	57.54	-28.5	-28.8	17.1	0.00e+00	0	43	0	652214272	17	3704
2026-01-14 09:52:24.90	63.41	57.55	-28.5	-28.7	17.2	0.00e+00	0	42	0	654311424	17	3691
2026-01-14 09:52:25.91	62.57	57.55	-28.3	-28.3	17.4	0.00e+00	0	43	0	655360000	17	3588
2026-01-14 09:52:26.91	61.74	57.55	-28.6	-28.9	17.1	0.00e+00	0	43	0	657457152	17	3728
2026-01-14 09:52:27.92	60.90	57.54	-28.7	-29.1	17.0	0.00e+00	0	43	0	659554304	17	3784
2026-01-14 09:52:28.92	60.08	57.52	-28.3	-28.2	17.5	0.00e+00	0	43	0	661651456	17	3566
2026-01-14 09:52:29.93	59.24	57.50	-28.5	-28.8	17.1	0.00e+00	0	42	0	663748608	17	3709
2026-01-14 09:52:30.94	58.40	57.48	-28.5	-28.6	17.2	0.00e+00	0	42	0	664797184	17	3674
2026-01-14 09:52:31.94	57.58	57.44	-27.7	-27.3	18.2	0.00e+00	0	42	0	666894336	16	3451
2026-01-14 09:52:32.94	56.76	57.40	-27.5	-26.9	18.4	0.00e+00	0	43	0	668991488	16	3380
2026-01-14 09:52:33.95	55.93	57.36	-27.8	-27.7	18.0	0.00e+00	0	43	0	671088640	16	3549
2026-01-14 09:52:34.95	55.11	57.31	-27.4	-26.7	18.5	0.00e+00	0	42	0	673185792	16	3317
2026-01-14 09:52:35.95	54.30	57.26	-27.0	-26.4	18.8	0.00e+00	0	42	0	674234368	15	3356
2026-01-14 09:52:36.95	53.49	57.20	-27.6	-27.7	18.1	0.00e+00	0	43	0	676331520	15	3637
2026-01-14 09:52:37.96	52.68	57.13	-27.5	-27.6	18.1	0.00e+00	0	43	0	678428672	15	3619
2026-01-14 09:52:38.96	51.87	57.06	-27.9	-28.5	17.6	0.00e+00	0	42	0	680525824	15	3839
2026-01-14 09:52:39.96	51.08	56.98	-28.5	-28.7	17.2	0.00e+00	0	42	0	682622976	17	3681
2026-01-14 09:52:40.96	50.28	56.90	-28.2	-28.1	17.5	0.00e+00	0	42	0	683671552	17	3547
2026-01-14 09:52:41.96	49.49	56.81	-28.7	-29.2	16.9	0.00e+00	0	42	0	685768704	17	3800
2026-01-14 09:52:42.96	48.71	56.72	-28.8	-29.3	16.8	0.00e+00	0	42	0	687865856	17	3846
2026-01-14 09:52:43.97	47.93	56.62	-28.6	-28.9	17.1	0.00e+00	0	43	0	689963008	17	3733
2026-01-14 09:52:44.97	47.15	56.52	-28.2	-27.9	17.6	0.00e+00	0	43	0	692060160	17	3498
2026-01-14 09:52:45.98	46.38	56.41	-28.3	-28.3	17.3	0.00e+00	0	43	0	693108736	17	3598
2026-01-14 09:52:46.99	45.61	56.30	-28.7	-29.0	17.0	0.00e+00	0	42	0	695205888	17	3766
2026-01-14 09:52:47.99	44.86	56.19	-29.5	-30.5	15.9	0.00e+00	0	42	0	697303040	18	4038
2026-01-14 09:52:48.99	44.11	56.06	-30.1	-31.0	15.0	0.00e+00	0	42	0	699400192	20	4005
2026-01-14 09:52:49.99	43.37	55.94	-30.1	-31.0	14.9	0.00e+00	0	42	0	701497344	20	3996
2026-01-14 09:52:51.00	42.63	55.81	-29.6	-29.9	15.5	0.00e+00	0	43	0	702545920	20	3718
2026-01-14 09:52:52.00	41.90	55.68	-29.3	-29.1	16.0	0.00e+00	0	42	0	704643072	20	3506
2026-01-14 09:52:53.00	41.18	55.54	-30.2	-31.4	14.7	0.00e+00	0	42	0	706740224	20	4116
2026-01-14 09:52:54.00	40.47	55.40	-31.0	-32.4	13.4	3.00e-06	0	43	0	708837376	22	4249
2026-01-14 09:52:55.00	39.76	55.25	-31.3	-33.2	12.9	1.75e-05	0	42	0	709885952	22	4504
2026-01-14 09:52:56.01	39.06	55.10	-30.7	-31.6	13.9	9.90e-06	0	42	0	711983104	22	4009
2026-01-14 09:52:57.00	38.37	54.95	-30.6	-31.3	14.1	3.80e-06	0	42	0	714080256	22	3901
2026-01-14 09:52:58.01	37.68	54.79	-30.1	-30.6	14.8	0.00e+00	0	42	0	716177408	21	3819
2026-01-14 09:52:59.01	37.01	54.63	-30.4	-31.3	14.4	7.00e-07	0	42	0	718274560	21	4003
2026-01-14 09:53:00.02	36.33	54.46	-30.2	-30.8	14.6	0.00e+00	0	42	0	719323136	21	3864
2026-01-14 09:53:01.02	35.67	54.30	-29.9	-29.9	15.2	0.00e+00	0	42	0	721420288	21	3628
2026-01-14 09:53:02.03	35.02	54.12	-29.3	-29.6	16.1	0.00e+00	0	42	0	723517440	19	3718
2026-01-14 09:53:03.03	34.37	53.95	-29.4	-29.8	16.0	0.00e+00	0	42	0	725614592	19	3764
2026-01-14 09:53:04.04	33.73	53.77	-30.0	-31.2	15.2	0.00e+00	0	42	0	727711744	19	4146
2026-01-14 09:53:05.04	33.10	53.59	-30.1	-31.1	14.9	0.00e+00	0	42	0	728760320	20	4023
2026-01-14 09:53:06.04	32.48	53.41	-30.9	-32.6	13.6	1.50e-06	0	42	0	730857472	21	4396
2026-01-14 09:53:07.04	31.87	53.22	-31.2	-33.0	12.9	2.28e-05	0	42	0	732954624	22	4425
2026-01-14 09:53:08.05	31.25	53.03	-31.2	-32.9	13.0	7.62e-05	0	43	0	735051776	22	4395
2026-01-14 09:53:09.05	30.66	52.84	-30.5	-31.0	14.3	5.30e-06	0	43	0	737148928	22	3825
2026-01-14 09:53:10.06	30.06	52.65	-29.9	-30.2	15.1	0.00e+00	0	42	0	738197504	21	3695
2026-01-14 09:53:11.06	29.48	52.45	-30.3	-31.0	14.6	0.00e+00	0	42	0	740294656	21	3915
2026-01-14 09:53:12.06	28.91	52.25	-30.6	-31.8	14.2	0.00e+00	0	42	0	742391808	21	4134
2026-01-14 09:53:13.07	28.34	52.05	-30.6	-31.9	13.9	7.00e-07	0	43	0	744488960	21	4175
2026-01-14 09:53:14.07	27.78	51.85	-30.8	-32.3	13.8	8.30e-06	0	42	0	746586112	21	4290
2026-01-14 09:53:15.08	27.22	51.65	-31.1	-32.8	13.2	2.97e-05	0	42	0	747634688	22	4353
2026-01-14 09:53:16.08	26.68	51.44	-31.4	-32.9	12.7	5.03e-05	0	43	0	749731840	23	4308
2026-01-14 09:53:17.08	26.14	51.23	-31.2	-32.4	13.0	8.46e-05	0	43	0	751828992	23	4154
2026-01-14 09:53:18.08	25.61	51.02	-31.7	-33.8	12.1	1.06e-04	0	43	0	753926144	23	4594
2026-01-14 09:53:19.09	25.09	50.81	-31.6	-33.7	12.1	3.70e-04	0	42	0	756023296	23	4582
2026-01-14 09:53:20.09	24.58	50.60	-31.0	-32.0	13.3	1.23e-04	0	43	0	757071872	23	4018
2026-01-14 09:53:21.09	24.07	50.39	-30.2	-30.7	14.7	0.00e+00	0	42	0	759169024	21	3845
2026-01-14 09:53:22.09	23.57	50.17	-30.3	-31.2	14.4	7.00e-07	0	42	0	761266176	21	3976
2026-01-14 09:53:23.09	23.08	49.96	-30.9	-32.7	13.5	4.50e-06	0	42	0	763363328	21	4411
2026-01-14 09:53:24.09	22.59	49.74	-30.6	-31.4	14.0	6.80e-06	0	42	0	765460480	22	3946
2026-01-14 09:53:25.09	22.12	49.52	-30.4	-31.4	14.3	2.20e-06	0	43	0	766509056	21	4027
2026-01-14 09:53:26.09	21.65	49.30	-30.2	-30.7	14.6	1.50e-06	0	43	0	768606208	21	3843
2026-01-14 09:53:27.08	21.19	49.08	-29.9	-30.0	15.2	0.00e+00	0	43	0	770703360	21	3657
2026-01-14 09:53:28.08	20.73	48.86	-30.4	-31.3	14.4	2.20e-06	0	42	0	772800512	21	3992
2026-01-14 09:53:29.08	20.28	48.64	-31.2	-33.1	12.9	1.14e-05	0	43	0	773849088	22	4466
2026-01-14 09:53:30.08	19.83	48.42	-31.4	-33.4	12.7	5.79e-05	0	43	0	775946240	22	4569
2026-01-14 09:53:31.09	19.39	48.19	-30.9	-32.3	13.4	1.98e-05	0	43	0	778043392	22	4187
2026-01-14 09:53:32.09	18.96	47.97	-31.2	-33.1	12.9	5.26e-05	0	42	0	780140544	22	4456
2026-01-14 09:53:33.10	18.53	47.74	-31.4	-33.6	12.6	5.64e-05	0	42	0	782237696	22	4626
2026-01-14 09:53:34.10	18.11	47.51	-31.3	-32.9	12.7	6.33e-05	0	43	0	783286272	23	4285
2026-01-14 09:53:35.10	17.70	47.29	-31.6	-33.7	12.2	1.23e-04	0	42	0	785383424	23	4584
2026-01-14 09:53:36.11	17.29	47.06	-31.9	-34.1	11.6	5.78e-04	0	43	0	787480576	24	4626
2026-01-14 09:53:37.11	16.88	46.83	-32.6	-35.8	9.9	1.82e-03	0	43	0	789577728	25	5214
2026-01-14 09:53:38.11	16.49	46.61	-33.1	-37.5	8.3	3.91e-02	0	42	0	791674880	26	5918
2026-01-14 09:53:39.11	16.10	46.38	-32.9	-36.6	8.9	4.75e-02	0	42	0	792723456	26	5487
2026-01-14 09:53:40.12	15.71	46.15	-32.2	-34.4	10.9	1.37e-02	0	43	0	794820608	25	4642
2026-01-14 09:53:41.12	15.33	45.92	-31.6	-33.2	12.2	1.35e-04	0	43	0	796917760	24	4302
2026-01-14 09:53:42.13	14.96	45.69	-31.6	-33.0	12.2	1.14e-04	0	43	0	799014912	24	4258
2026-01-14 09:53:43.13	14.59	45.47	-32.2	-35.0	10.9	1.03e-03	0	43	0	800063488	24	4979
2026-01-14 09:53:44.13	14.23	45.24	-31.7	-33.5	11.9	1.69e-03	0	43	0	802160640	24	4416
2026-01-14 09:53:45.13	13.87	45.01	-31.0	-32.0	13.2	9.68e-05	0	43	0	804257792	23	4038
2026-01-14 09:53:46.13	13.52	44.78	-30.5	-31.1	14.2	1.22e-05	0	43	0	806354944	22	3870
2026-01-14 09:53:47.14	13.17	44.55	-30.3	-31.2	14.4	7.00e-07	0	43	0	808452096	21	3976
2026-01-14 09:53:48.14	12.83	44.33	-30.4	-31.4	14.2	1.50e-06	0	42	0	810549248	21	4027
2026-01-14 09:53:49.14	12.49	44.10	-30.7	-32.1	13.7	6.80e-06	0	43	0	811597824	21	4252
2026-01-14 09:53:50.14	12.16	43.87	-31.3	-33.1	12.8	2.51e-05	0	42	0	813694976	22	4470
2026-01-14 09:53:51.14	11.83	43.65	-31.5	-33.5	12.2	1.88e-04	0	42	0	815792128	23	4493
2026-01-14 09:53:52.14	11.51	43.42	-31.6	-33.5	12.2	3.71e-04	0	43	0	817889280	23	4507
2026-01-14 09:53:53.13	11.19	43.20	-31.6	-33.7	12.1	3.07e-04	0	43	0	818937856	23	4585
2026-01-14 09:53:54.14	10.88	42.97	-31.7	-34.0	11.9	2.66e-04	0	42	0	821035008	23	4677
2026-01-14 09:53:55.14	10.57	42.74	-32.1	-34.7	11.0	1.96e-03	0	43	0	823132160	24	4860
2026-01-14 09:53:56.14	10.26	42.52	-32.2	-34.9	10.9	2.75e-03	0	43	0	825229312	24	4916
2026-01-14 09:53:57.14	9.96	42.30	-31.8	-33.8	11.7	1.42e-03	0	43	0	827326464	24	4511
2026-01-14 09:53:58.13	9.67	42.07	-31.8	-33.8	11.8	1.10e-03	0	42	0	828375040	24	4507
2026-01-14 09:53:59.13	9.38	41.85	-31.9	-34.0	11.5	9.61e-04	0	42	0	830472192	24	4600
2026-01-14 09:54:00.14	9.09	41.63	-31.9	-34.0	11.4	6.36e-04	0	43	0	832569344	24	4618
2026-01-14 09:54:01.14	8.80	41.40	-31.6	-33.1	12.1	4.12e-04	0	43	0	834666496	24	4286
2026-01-14 09:54:02.14	8.52	41.18	-31.4	-33.2	12.5	8.85e-05	0	42	0	836763648	23	4414
2026-01-14 09:54:03.15	8.24	40.96	-31.0	-32.1	13.1	2.59e-05	0	43	0	837812224	23	4068
2026-01-14 09:54:04.15	7.97	40.74	-31.1	-32.4	12.9	6.94e-05	0	42	0	839909376	23	4157
2026-01-14 09:54:05.16	7.70	40.52	-31.0	-31.9	13.3	4.95e-05	0	42	0	842006528	23	3995
2026-01-14 09:54:06.17	7.43	40.30	-31.4	-33.2	12.4	1.78e-04	0	43	0	844103680	23	4405
2026-01-14 09:54:07.17	7.17	40.08	-31.7	-34.0	11.8	2.35e-04	0	43	0	845152256	23	4705
2026-01-14 09:54:08.18	6.91	39.86	-32.4	-35.9	10.0	1.35e-03	0	43	0	847249408	24	5378
2026-01-14 09:54:09.19	6.65	39.64	-32.4	-35.9	10.1	5.01e-03	0	42	0	849346560	24	5373
2026-01-14 09:54:10.19	6.40	39.42	-32.5	-35.4	9.9	9.62e-03	0	42	0	851443712	25	5080
2026-01-14 09:54:11.19	6.15	39.21	-32.1	-34.2	10.9	8.93e-03	0	43	0	853540864	25	4600
2026-01-14 09:54:12.20	5.91	38.99	-31.9	-33.6	11.3	2.00e-03	0	42	0	855638016	25	4375
2026-01-14 09:54:13.20	5.66	38.78	-31.7	-33.5	11.9	5.46e-04	0	42	0	856686592	24	4431
2026-01-14 09:54:14.20	5.43	38.56	-31.7	-33.6	11.8	6.26e-04	0	42	0	858783744	24	4445
2026-01-14 09:54:15.21	5.19	38.35	-31.8	-33.8	11.7	7.26e-04	0	43	0	860880896	24	4533
2026-01-14 09:54:16.22	4.96	38.13	-32.2	-35.0	10.8	1.77e-03	0	42	0	862978048	24	4973
2026-01-14 09:54:17.22	4.73	37.92	-31.7	-33.5	11.8	1.01e-03	0	42	0	864026624	24	4422
2026-01-14 09:54:18.22	4.50	37.71	-31.9	-34.1	11.2	5.07e-04	0	43	0	866123776	24	4655
2026-01-14 09:54:19.22	4.28	37.50	-31.9	-34.2	11.3	1.22e-03	0	42	0	868220928	24	4681
2026-01-14 09:54:20.23	4.06	37.29	-31.9	-34.0	11.4	1.35e-03	0	43	0	870318080	24	4594
2026-01-14 09:54:21.23	3.84	37.08	-31.9	-34.0	11.5	1.03e-03	0	42	0	872415232	24	4620
2026-01-14 09:54:22.23	3.63	36.88	-31.8	-33.7	11.7	5.11e-04	0	43	0	873463808	24	4497
2026-01-14 09:54:23.24	3.41	36.67	-31.4	-32.5	12.5	2.41e-04	0	43	0	875560960	24	4117
2026-01-14 09:54:24.23	3.21	36.47	-31.3	-32.8	12.6	7.55e-05	0	43	0	877658112	23	4284
2026-01-14 09:54:25.23	3.00	36.26	-31.7	-33.9	11.9	1.60e-04	0	42	0	879755264	23	4652
2026-01-14 09:54:26.23	2.80	36.06	-32.2	-35.0	10.6	1.21e-03	0	43	0	881852416	24	5007
2026-01-14 09:54:27.23	2.60	35.86	-32.1	-34.8	10.8	3.64e-03	0	42	0	882900992	24	4891
2026-01-14 09:54:28.23	2.40	35.65	-31.9	-34.1	11.3	1.03e-03	0	42	0	884998144	24	4649
2026-01-14 09:54:29.24	2.20	35.45	-31.8	-33.8	11.6	6.32e-04	0	43	0	887095296	24	4550
2026-01-14 09:54:30.24	2.01	35.25	-32.0	-34.6	11.0	9.92e-04	0	42	0	889192448	24	4828
2026-01-14 09:54:31.23	1.82	35.06	-32.2	-35.0	10.7	2.10e-03	0	42	0	890241024	24	4985
2026-01-14 09:54:32.24	1.63	34.85	-32.2	-35.2	10.6	4.09e-03	0	42	0	892338176	24	5070
2026-01-14 09:54:33.25	1.44	34.66	-32.0	-34.3	11.1	2.14e-03	0	42	0	894435328	24	4729
2026-01-14 09:54:34.25	1.25	34.46	-31.2	-32.6	12.7	2.88e-04	0	43	0	896532480	23	4241
2026-01-14 09:54:35.24	1.07	34.27	-30.8	-31.5	13.4	3.35e-05	0	42	0	898629632	23	3892
2026-01-14 09:54:36.25	0.89	34.07	-30.9	-32.3	13.2	1.67e-05	0	43	0	900726784	22	4232
2026-01-14 09:54:37.26	0.71	33.87	-31.4	-33.6	12.4	4.34e-05	0	42	0	901775360	22	4661
2026-01-14 09:54:38.27	0.54	33.68	-31.9	-34.7	11.2	6.26e-04	0	43	0	903872512	23	4963
2026-01-14 09:54:39.27	0.36	33.49	-32.2	-35.0	10.7	2.00e-03	0	43	0	905969664	24	4995
2026-01-14 09:54:40.28	0.19	33.29	-31.9	-34.3	11.2	1.77e-03	0	43	0	908066816	24	4720
2026-01-14 09:54:41.29	0.02	33.10	-32.0	-34.3	11.1	1.75e-03	0	43	0	910163968	24	4739
2026-01-14 09:54:42.30	359.85	32.91	-32.0	-34.5	11.1	2.05e-03	0	43	0	911212544	24	4795
2026-01-14 09:54:43.30	359.69	32.72	-32.5	-35.8	9.7	5.03e-03	0	42	0	913309696	25	5275
2026-01-14 09:54:44.30	359.52	32.54	-32.8	-36.8	8.9	1.60e-02	0	42	0	915406848	25	5745
2026-01-14 09:54:45.30	359.36	32.35	-33.1	-37.5	8.0	5.02e-02	0	43	0	917504000	26	5968
2026-01-14 09:54:46.31	359.20	32.16	-32.9	-36.8	8.5	5.92e-02	0	42	0	918552576	26	5634
2026-01-14 09:54:47.31	359.04	31.98	-32.6	-35.5	9.5	2.79e-02	0	42	0	920649728	26	5039
2026-01-14 09:54:48.31	358.89	31.79	-32.5	-35.1	9.8	1.26e-02	0	43	0	922746880	26	4872
2026-01-14 09:54:49.31	358.73	31.61	-32.4	-35.0	10.0	6.74e-03	0	42	0	924844032	26	4815
2026-01-14 09:54:50.32	358.58	31.43	-32.6	-35.6	9.5	1.33e-02	0	43	0	926941184	26	5076
2026-01-14 09:54:51.32	358.43	31.25	-32.5	-35.2	9.8	1.45e-02	0	42	0	927989760	26	4895
2026-01-14 09:54:52.33	358.28	31.07	-32.4	-34.9	9.9	1.37e-02	0	43	0	930086912	26	4787
2026-01-14 09:54:53.33	358.13	30.89	-32.2	-34.6	10.5	6.59e-03	0	43	0	932184064	25	4757
2026-01-14 09:54:54.34	357.99	30.71	-31.8	-33.4	11.3	2.54e-03	0	43	0	934281216	25	4343
2026-01-14 09:54:55.34	357.84	30.53	-31.5	-32.9	12.1	6.38e-04	0	42	0	936378368	24	4260
2026-01-14 09:54:56.35	357.70	30.35	-31.4	-32.8	12.1	1.91e-04	0	43	0	937426944	24	4215
2026-01-14 09:54:57.35	357.56	30.17	-31.7	-33.8	11.5	4.16e-04	0	43	0	939524096	24	4539
2026-01-14 09:54:58.35	357.42	30.00	-32.1	-34.8	10.8	1.12e-03	0	42	0	941621248	24	4928
2026-01-14 09:54:59.35	357.28	29.83	-32.5	-35.7	9.7	1.68e-02	0	43	0	943718400	25	5242
2026-01-14 09:55:00.36	357.14	29.65	-32.4	-35.5	9.9	1.37e-02	0	43	0	945815552	25	5120
2026-01-14 09:55:01.36	357.01	29.48	-32.3	-34.9	10.3	9.76e-03	0	43	0	946864128	25	4892
2026-01-14 09:55:02.37	356.88	29.31	-31.7	-33.6	11.6	2.39e-03	0	43	0	948961280	24	4478
2026-01-14 09:55:03.37	356.74	29.14	-31.2	-32.7	12.5	2.22e-04	0	43	0	951058432	23	4251
2026-01-14 09:55:04.37	356.61	28.97	-30.9	-31.8	13.2	4.80e-05	0	42	0	953155584	23	4000
2026-01-14 09:55:05.37	356.49	28.80	-30.9	-31.9	13.0	4.11e-05	0	42	0	955252736	23	4034
2026-01-14 09:55:06.37	356.36	28.63	-31.1	-32.4	12.7	5.72e-05	0	43	0	956301312	23	4187
2026-01-14 09:55:07.38	356.23	28.46	-31.1	-32.3	12.8	6.02e-05	0	43	0	958398464	23	4148
2026-01-14 09:55:08.37	356.11	28.30	-31.2	-32.8	12.4	9.61e-05	0	43	0	960495616	23	4318
2026-01-14 09:55:09.37	355.99	28.13	-31.1	-32.3	12.7	1.09e-04	0	43	0	962592768	23	4158
2026-01-14 09:55:10.37	355.86	27.97	-30.9	-31.8	13.1	4.27e-05	0	42	0	963641344	23	3994
2026-01-14 09:55:11.37	355.74	27.80	-31.0	-32.1	12.9	3.89e-05	0	42	0	965738496	23	4088
2026-01-14 09:55:12.37	355.62	27.64	-30.9	-31.9	13.0	7.55e-05	0	43	0	967835648	23	4024
2026-01-14 09:55:13.37	355.51	27.48	-30.8	-31.6	13.1	2.89e-05	0	43	0	969932800	23	3953
2026-01-14 09:55:14.37	355.39	27.32	-31.0	-32.1	12.9	3.73e-05	0	42	0	972029952	23	4102
2026-01-14 09:55:15.37	355.27	27.16	-31.3	-33.0	12.3	9.07e-05	0	43	0	973078528	23	4369
2026-01-14 09:55:16.38	355.16	27.00	-31.7	-34.1	11.5	5.80e-04	0	43	0	975175680	23	4765
2026-01-14 09:55:17.38	355.04	26.84	-32.3	-35.5	10.3	2.64e-03	0	43	0	977272832	24	5207
2026-01-14 09:55:18.38	354.93	26.68	-32.2	-35.5	10.1	4.10e-03	0	43	0	979369984	24	5223
2026-01-14 09:55:19.39	354.82	26.52	-32.3	-35.5	10.1	7.17e-03	0	42	0	981467136	24	5239
2026-01-14 09:55:20.39	354.71	26.36	-32.2	-35.3	10.4	3.88e-03	0	43	0	982515712	24	5131
2026-01-14 09:55:21.39	354.60	26.21	-31.8	-34.1	11.2	2.53e-03	0	43	0	984612864	24	4672
2026-01-14 09:55:22.39	354.49	26.05	-31.7	-33.6	11.5	1.07e-03	0	42	0	986710016	24	4494
2026-01-14 09:55:23.40	354.39	25.90	-31.7	-33.7	11.5	1.36e-03	0	43	0	988807168	24	4536
2026-01-14 09:55:24.40	354.28	25.75	-31.5	-33.1	11.8	6.26e-04	0	43	0	990904320	24	4324
2026-01-14 09:55:25.40	354.18	25.59	-31.5	-33.2	11.8	3.87e-04	0	43	0	991952896	24	4361
2026-01-14 09:55:26.40	354.07	25.44	-31.5	-33.0	12.0	4.00e-04	0	43	0	994050048	24	4271
2026-01-14 09:55:27.41	353.97	25.29	-31.3	-33.1	12.2	2.13e-04	0	43	0	996147200	23	4396
2026-01-14 09:55:28.41	353.87	25.14	-31.0	-32.2	12.8	1.07e-04	0	43	0	998244352	23	4135
2026-01-14 09:55:29.41	353.77	24.99	-31.1	-32.5	12.6	6.71e-05	0	43	0	1000341504	23	4220
2026-01-14 09:55:30.41	353.67	24.84	-31.2	-32.6	12.6	9.00e-05	0	42	0	1001390080	23	4233
2026-01-14 09:55:31.42	353.57	24.69	-31.2	-32.6	12.5	1.71e-04	0	43	0	1003487232	23	4235
2026-01-14 09:55:32.42	353.47	24.54	-31.1	-32.4	12.6	9.53e-05	0	43	0	1005584384	23	4185
2026-01-14 09:55:33.42	353.37	24.40	-31.3	-32.9	12.3	1.40e-04	0	43	0	1007681536	23	4337
2026-01-14 09:55:34.42	353.28	24.25	-31.4	-33.2	12.1	2.39e-04	0	43	0	1009778688	23	4434
2026-01-14 09:55:35.43	353.18	24.11	-31.5	-33.7	11.8	4.03e-04	0	43	0	1010827264	23	4634
2026-01-14 09:55:36.43	353.09	23.96	-31.6	-33.8	11.7	6.23e-04	0	43	0	1012924416	23	4668
2026-01-14 09:55:37.44	352.99	23.82	-31.5	-33.6	11.7	3.81e-04	0	43	0	1015021568	23	4603
2026-01-14 09:55:38.44	352.90	23.67	-31.4	-33.3	12.2	4.33e-04	0	43	0	1017118720	23	4464
2026-01-14 09:55:39.44	352.81	23.53	-31.3	-33.0	12.2	3.39e-04	0	43	0	1018167296	23	4380
2026-01-14 09:55:40.44	352.72	23.39	-30.8	-31.6	13.1	5.95e-05	0	43	0	1020264448	23	3952
2026-01-14 09:55:41.44	352.63	23.25	-30.7	-31.9	13.3	1.67e-05	0	43	0	1022361600	22	4111
2026-01-14 09:55:42.45	352.54	23.11	-30.6	-31.5	13.5	9.90e-06	0	43	0	1024458752	22	4014
2026-01-14 09:55:43.45	352.45	22.97	-30.5	-31.2	13.7	4.50e-06	0	43	0	1026555904	22	3919
2026-01-14 09:55:44.45	352.37	22.83	-30.6	-31.6	13.5	9.10e-06	0	43	0	1027604480	22	4021
2026-01-14 09:55:45.45	352.28	22.69	-30.8	-32.1	13.1	1.83e-05	0	43	0	1029701632	22	4171
2026-01-14 09:55:46.45	352.19	22.55	-31.0	-32.6	12.8	8.16e-05	0	43	0	1031798784	22	4358
2026-01-14 09:55:47.46	352.11	22.42	-31.4	-33.9	11.9	1.56e-04	0	43	0	1033895936	22	4800
2026-01-14 09:55:48.46	352.03	22.28	-31.9	-34.8	10.9	1.28e-03	0	42	0	1035993088	23	5057
2026-01-14 09:55:49.46	351.94	22.14	-32.1	-35.2	10.2	3.03e-03	0	43	0	1037041664	24	5132
2026-01-14 09:55:50.46	351.86	22.01	-32.5	-36.2	9.1	1.64e-02	0	43	0	1039138816	25	5482
2026-01-14 09:55:51.46	351.78	21.88	-32.6	-36.4	9.0	1.97e-02	0	43	0	1041235968	25	5575
2026-01-14 09:55:52.46	351.70	21.74	-32.6	-36.4	8.9	2.50e-02	0	43	0	1043333120	25	5577
2026-01-14 09:55:53.47	351.62	21.61	-32.5	-35.9	9.3	2.14e-02	0	43	0	1045430272	25	5362
2026-01-14 09:55:54.47	351.54	21.48	-32.3	-35.3	9.8	1.28e-02	0	43	0	1046478848	25	5087
2026-01-14 09:55:55.47	351.46	21.34	-32.2	-34.9	10.1	7.71e-03	0	43	0	1048576000	25	4904
2026-01-14 09:55:56.47	351.38	21.21	-32.2	-35.1	10.0	7.15e-03	0	43	0	1050673152	25	4998
2026-01-14 09:55:57.47	351.30	21.08	-32.1	-34.5	10.3	7.94e-03	0	43	0	1052770304	25	4781
2026-01-14 09:55:58.47	351.23	20.95	-31.9	-33.9	10.9	2.40e-03	0	43	0	1054867456	25	4523
2026-01-14 09:55:59.47	351.15	20.82	-32.0	-34.4	10.5	2.81e-03	0	43	0	1055916032	25	4715
2026-01-14 09:56:00.47	351.08	20.70	-32.0	-34.4	10.4	5.69e-03	0	43	0	1058013184	25	4734
2026-01-14 09:56:01.46	351.00	20.57	-31.8	-33.6	11.0	2.44e-03	0	43	0	1060110336	25	4418
2026-01-14 09:56:02.47	350.93	20.44	-31.7	-33.6	11.3	1.19e-03	0	43	0	1062207488	24	4522
2026-01-14 09:56:03.47	350.85	20.31	-31.6	-33.4	11.5	8.03e-04	0	43	0	1063256064	24	4433
2026-01-14 09:56:04.48	350.78	20.19	-31.3	-32.7	12.0	4.42e-04	0	43	0	1065353216	24	4210
2026-01-14 09:56:05.48	350.71	20.06	-31.3	-33.0	12.1	3.36e-04	0	43	0	1067450368	23	4378
2026-01-14 09:56:06.49	350.64	19.94	-31.3	-33.0	12.2	2.92e-04	0	42	0	1069547520	23	4395
2026-01-14 09:56:07.49	350.56	19.81	-31.0	-32.2	12.6	1.66e-04	0	43	0	1071644672	23	4141
2026-01-14 09:56:08.49	350.49	19.69	-30.7	-31.8	13.3	3.12e-05	0	43	0	1072693248	22	4100
2026-01-14 09:56:09.49	350.42	19.56	-30.3	-30.9	13.8	1.29e-05	0	43	0	1074790400	22	3848
2026-01-14 09:56:10.50	350.35	19.44	-30.0	-30.5	14.3	3.00e-06	0	43	0	1076887552	21	3823
2026-01-14 09:56:11.50	350.29	19.32	-29.9	-30.3	14.4	7.00e-07	0	43	0	1078984704	21	3765
2026-01-14 09:56:12.51	350.22	19.20	-29.8	-30.1	14.6	0.00e+00	0	43	0	1081081856	21	3708
2026-01-14 09:56:13.51	350.15	19.07	-29.7	-30.2	14.8	0.00e+00	0	43	0	1082130432	20	3826
2026-01-14 09:56:14.51	350.08	18.95	-29.8	-30.5	14.7	0.00e+00	0	43	0	1084227584	20	3896
2026-01-14 09:56:15.52	350.02	18.83	-29.9	-30.8	14.7	0.00e+00	0	43	0	1086324736	20	3982
2026-01-14 09:56:16.52	349.95	18.71	-29.8	-30.5	14.7	0.00e+00	0	43	0	1088421888	20	3920
2026-01-14 09:56:17.52	349.89	18.60	-29.9	-30.8	14.4	7.00e-07	0	43	0	1090519040	20	4006
2026-01-14 09:56:18.53	349.82	18.48	-29.9	-30.9	14.4	1.50e-06	0	43	0	1091567616	20	4026
2026-01-14 09:56:19.53	349.76	18.36	-30.1	-31.2	14.2	1.50e-06	0	43	0	1093664768	20	4126
2026-01-14 09:56:20.54	349.69	18.24	-30.2	-31.5	14.0	0.00e+00	0	43	0	1095761920	20	4206
2026-01-14 09:56:21.54	349.63	18.12	-30.6	-32.1	13.3	9.90e-06	0	42	0	1097859072	21	4297
2026-01-14 09:56:22.55	349.57	18.01	-30.4	-31.6	13.7	1.60e-05	0	43	0	1099956224	21	4127
2026-01-14 09:56:23.55	349.50	17.89	-30.6	-32.3	13.2	5.30e-06	0	43	0	1101004800	21	4353
2026-01-14 09:56:24.55	349.44	17.78	-30.7	-32.4	13.1	3.66e-05	0	43	0	1103101952	21	4400
2026-01-14 09:56:25.55	349.38	17.66	-30.8	-32.8	12.8	4.42e-05	0	42	0	1105199104	21	4526
2026-01-14 09:56:26.54	349.32	17.55	-30.9	-32.6	12.6	9.38e-05	0	43	0	1107296256	22	4377
2026-01-14 09:56:27.54	349.26	17.43	-31.2	-33.5	12.0	1.31e-04	0	43	0	1109393408	22	4654
2026-01-14 09:56:28.55	349.20	17.32	-31.3	-33.8	11.8	3.89e-04	0	43	0	1110441984	22	4778
2026-01-14 09:56:29.55	349.14	17.21	-31.3	-33.8	11.8	4.25e-04	0	43	0	1112539136	22	4792
2026-01-14 09:56:30.55	349.08	17.09	-31.5	-33.9	11.3	8.86e-04	0	43	0	1114636288	23	4729
2026-01-14 09:56:31.56	349.02	16.98	-31.5	-34.0	11.4	1.40e-03	0	43	0	1116733440	23	4754
2026-01-14 09:56:32.56	348.97	16.87	-31.7	-34.4	11.0	2.05e-03	0	43	0	1117782016	23	4909
2026-01-14 09:56:33.56	348.91	16.76	-31.8	-34.9	10.6	2.66e-03	0	42	0	1119879168	23	5117
2026-01-14 09:56:34.57	348.85	16.65	-31.9	-35.1	10.5	3.68e-03	0	42	0	1121976320	23	5201
2026-01-14 09:56:35.56	348.80	16.54	-31.8	-34.9	10.5	3.86e-03	0	43	0	1124073472	23	5123
2026-01-14 09:56:36.57	348.74	16.43	-32.0	-35.3	10.2	4.19e-03	0	43	0	1126170624	23	5306
2026-01-14 09:56:37.57	348.68	16.32	-31.9	-35.1	10.5	3.48e-03	0	42	0	1127219200	23	5193
2026-01-14 09:56:38.58	348.63	16.21	-31.9	-35.0	10.5	4.55e-03	0	43	0	1129316352	23	5187
2026-01-14 09:56:39.58	348.57	16.10	-31.8	-34.9	10.6	2.71e-03	0	43	0	1131413504	23	5144
2026-01-14 09:56:40.58	348.52	16.00	-31.8	-34.8	10.7	3.00e-03	0	43	0	1133510656	23	5068
2026-01-14 09:56:41.59	348.47	15.89	-31.8	-34.8	10.6	2.89e-03	0	43	0	1135607808	23	5070
2026-01-14 09:56:42.58	348.41	15.78	-31.8	-34.9	10.5	4.73e-03	0	43	0	1136656384	23	5139
2026-01-14 09:56:43.59	348.36	15.67	-31.4	-33.7	11.4	1.88e-03	0	43	0	1138753536	23	4653
2026-01-14 09:56:44.59	348.31	15.57	-31.1	-32.5	12.2	2.88e-04	0	43	0	1140850688	23	4247
2026-01-14 09:56:45.60	348.25	15.46	-30.9	-32.1	12.5	2.07e-04	0	42	0	1142947840	23	4118
2026-01-14 09:56:46.60	348.20	15.36	-30.7	-32.1	12.8	6.25e-05	0	43	0	1145044992	22	4224
2026-01-14 09:56:47.60	348.15	15.25	-30.5	-31.6	13.2	4.88e-05	0	42	0	1146093568	22	4049
2026-01-14 09:56:48.61	348.10	15.15	-30.4	-31.3	13.4	1.60e-05	0	43	0	1148190720	22	3968
2026-01-14 09:56:49.61	348.05	15.04	-30.7	-31.9	13.0	2.82e-05	0	43	0	1150287872	22	4152
2026-01-14 09:56:50.61	348.00	14.94	-30.6	-31.6	13.1	3.43e-05	0	43	0	1152385024	22	4072
2026-01-14 09:56:51.61	347.95	14.84	-30.5	-31.5	13.2	1.67e-05	0	43	0	1154482176	22	4042
2026-01-14 09:56:52.61	347.90	14.74	-30.6	-31.7	13.0	3.66e-05	0	43	0	1155530752	22	4097
2026-01-14 09:56:53.61	347.85	14.63	-30.8	-32.2	12.7	7.55e-05	0	42	0	1157627904	22	4254
2026-01-14 09:56:54.62	347.80	14.53	-30.6	-31.9	12.9	4.65e-05	0	43	0	1159725056	22	4146
2026-01-14 09:56:55.63	347.75	14.43	-30.9	-32.7	12.4	1.09e-04	0	43	0	1161822208	22	4422
2026-01-14 09:56:56.63	347.70	14.33	-31.1	-33.1	12.1	3.78e-04	0	43	0	1162870784	22	4554
2026-01-14 09:56:57.63	347.66	14.23	-31.1	-33.3	12.0	1.69e-04	0	43	0	1164967936	22	4609
2026-01-14 09:56:58.63	347.61	14.13	-31.2	-33.5	11.8	4.81e-04	0	43	0	1167065088	22	4713
2026-01-14 09:56:59.63	347.56	14.03	-31.4	-34.2	11.3	7.55e-04	0	43	0	1169162240	22	4945
2026-01-14 09:57:00.63	347.51	13.93	-31.4	-34.2	11.3	1.15e-03	0	43	0	1171259392	22	4960
2026-01-14 09:57:01.64	347.47	13.83	-31.3	-34.0	11.4	1.32e-03	0	43	0	1172307968	22	4884
2026-01-14 09:57:02.64	347.42	13.73	-31.5	-34.4	11.2	1.36e-03	0	43	0	1174405120	22	5029
2026-01-14 09:57:03.65	347.38	13.63	-31.5	-33.9	11.1	1.54e-03	0	43	0	1176502272	23	4760
2026-01-14 09:57:04.65	347.33	13.53	-31.6	-34.2	10.9	1.27e-03	0	43	0	1178599424	23	4873
2026-01-14 09:57:05.65	347.29	13.44	-31.5	-34.0	11.0	2.07e-03	0	43	0	1180696576	23	4810
2026-01-14 09:57:06.66	347.24	13.34	-31.4	-33.6	11.3	1.49e-03	0	43	0	1181745152	23	4646
2026-01-14 09:57:07.67	347.20	13.24	-31.4	-33.5	11.3	1.37e-03	0	43	0	1183842304	23	4627
2026-01-14 09:57:08.66	347.15	13.15	-31.4	-33.6	11.3	1.11e-03	0	43	0	1185939456	23	4657
2026-01-14 09:57:09.66	347.11	13.05	-31.3	-33.5	11.3	1.16e-03	0	43	0	1188036608	23	4636
2026-01-14 09:57:10.67	347.06	12.95	-31.4	-33.6	11.2	1.87e-03	0	43	0	1190133760	23	4654
2026-01-14 09:57:11.67	347.02	12.86	-31.1	-32.7	11.9	9.14e-04	0	43	0	1191182336	23	4346
2026-01-14 09:57:12.66	346.98	12.77	-31.0	-32.5	12.0	2.55e-04	0	43	0	1193279488	23	4286
2026-01-14 09:57:13.67	346.94	12.67	-30.9	-32.3	12.1	2.14e-04	0	43	0	1195376640	23	4214
2026-01-14 09:57:14.67	346.89	12.58	-30.9	-32.1	12.3	2.00e-04	0	43	0	1197473792	23	4134
2026-01-14 09:57:15.67	346.85	12.48	-30.8	-32.1	12.3	1.59e-04	0	42	0	1199570944	23	4139
2026-01-14 09:57:16.67	346.81	12.39	-30.8	-32.3	12.5	1.91e-04	0	43	0	1200619520	22	4314
2026-01-14 09:57:17.67	346.77	12.30	-30.8	-32.3	12.5	1.02e-04	0	43	0	1202716672	22	4315
2026-01-14 09:57:18.68	346.73	12.20	-30.7	-32.1	12.6	9.15e-05	0	43	0	1204813824	22	4244
2026-01-14 09:57:19.68	346.69	12.11	-30.8	-32.6	12.3	1.27e-04	0	43	0	1206910976	22	4400
2026-01-14 09:57:20.68	346.65	12.02	-30.9	-32.7	12.2	2.36e-04	0	42	0	1207959552	22	4429
2026-01-14 09:57:21.68	346.61	11.93	-30.9	-32.7	12.2	1.65e-04	0	43	0	1210056704	22	4418
2026-01-14 09:57:22.68	346.57	11.83	-31.0	-33.0	12.0	3.52e-04	0	43	0	1212153856	22	4543
2026-01-14 09:57:23.69	346.53	11.74	-30.9	-32.7	12.1	4.02e-04	0	43	0	1214251008	22	4434
2026-01-14 09:57:24.69	346.49	11.65	-30.8	-32.6	12.2	2.57e-04	0	43	0	1216348160	22	4400
2026-01-14 09:57:25.70	346.45	11.56	-31.0	-33.0	11.9	3.07e-04	0	43	0	1218445312	22	4542
2026-01-14 09:57:26.70	346.41	11.47	-30.9	-32.8	12.1	3.52e-04	0	43	0	1219493888	22	4462
2026-01-14 09:57:27.70	346.37	11.38	-31.0	-33.2	11.8	3.00e-04	0	43	0	1221591040	22	4609
2026-01-14 09:57:28.70	346.33	11.29	-31.0	-33.1	11.9	5.37e-04	0	43	0	1223688192	22	4583
2026-01-14 09:57:29.71	346.29	11.20	-31.1	-33.2	11.8	4.55e-04	0	43	0	1225785344	22	4620
2026-01-14 09:57:30.71	346.25	11.11	-31.2	-33.7	11.4	5.80e-04	0	43	0	1226833920	22	4810
2026-01-14 09:57:31.70	346.22	11.03	-31.1	-33.3	11.6	7.50e-04	0	43	0	1228931072	22	4666
2026-01-14 09:57:32.70	346.18	10.94	-31.1	-33.4	11.6	5.79e-04	0	43	0	1231028224	22	4705
2026-01-14 09:57:33.71	346.14	10.85	-31.2	-33.8	11.4	9.15e-04	0	43	0	1233125376	22	4818
2026-01-14 09:57:34.72	346.11	10.76	-31.3	-34.1	11.1	1.28e-03	0	43	0	1235222528	22	4969
2026-01-14 09:57:35.73	346.07	10.67	-31.3	-33.9	11.2	1.49e-03	0	42	0	1236271104	22	4885
2026-01-14 09:57:36.73	346.03	10.58	-31.2	-33.7	11.4	1.22e-03	0	43	0	1238368256	22	4823
2026-01-14 09:57:37.73	346.00	10.50	-31.3	-34.0	11.1	1.52e-03	0	43	0	1240465408	22	4932
2026-01-14 09:57:38.73	345.96	10.41	-31.2	-33.9	11.2	1.67e-03	0	43	0	1242562560	22	4877
2026-01-14 09:57:39.73	345.92	10.33	-31.3	-34.2	11.0	1.74e-03	0	43	0	1244659712	22	5006
2026-01-14 09:57:40.74	345.89	10.24	-31.5	-34.4	10.5	3.37e-03	0	43	0	1245708288	23	4987
2026-01-14 09:57:41.74	345.85	10.15	-31.5	-34.2	10.6	3.98e-03	0	43	0	1247805440	23	4903
2026-01-14 09:57:42.74	345.82	10.07	-31.4	-34.1	10.6	2.69e-03	0	43	0	1249902592	23	4881
2026-01-14 09:57:43.74	345.78	9.98	-31.4	-33.9	10.8	2.39e-03	0	43	0	1251999744	23	4793
2026-01-14 09:57:44.74	345.75	9.90	-31.4	-33.9	10.8	2.60e-03	0	43	0	1254096896	23	4816
2026-01-14 09:57:45.75	345.71	9.81	-31.4	-33.8	10.9	2.85e-03	0	43	0	1255145472	23	4787
2026-01-14 09:57:46.75	345.68	9.73	-31.5	-34.1	10.6	2.42e-03	0	43	0	1257242624	23	4897
2026-01-14 09:57:47.74	345.65	9.65	-31.5	-34.3	10.4	4.62e-03	0	43	0	1259339776	23	4976
2026-01-14 09:57:48.75	345.61	9.56	-31.5	-34.2	10.5	3.34e-03	0	43	0	1261436928	23	4936
2026-01-14 09:57:49.75	345.58	9.48	-31.5	-34.3	10.5	4.73e-03	0	43	0	1263534080	23	4957
2026-01-14 09:57:50.76	345.55	9.39	-31.5	-34.5	10.3	5.99e-03	0	42	0	1264582656	23	5064
2026-01-14 09:57:51.76	345.51	9.31	-31.6	-34.6	10.1	5.41e-03	0	42	0	1266679808	23	5116
2026-01-14 09:57:52.76	345.48	9.23	-31.7	-34.9	9.9	6.63e-03	0	43	0	1268776960	23	5236
2026-01-14 09:57:53.76	345.45	9.15	-31.8	-35.3	9.6	1.08e-02	0	43	0	1270874112	23	5430
2026-01-14 09:57:54.76	345.42	9.06	-31.7	-35.0	9.9	9.34e-03	0	43	0	1271922688	23	5258
2026-01-14 09:57:55.76	345.38	8.98	-31.8	-35.5	9.4	1.08e-02	0	43	0	1274019840	23	5521
2026-01-14 09:57:56.77	345.35	8.90	-31.7	-35.1	9.8	1.06e-02	0	43	0	1276116992	23	5333
2026-01-14 09:57:57.77	345.32	8.82	-31.8	-35.4	9.5	1.39e-02	0	43	0	1278214144	23	5482
2026-01-14 09:57:58.77	345.29	8.74	-31.6	-34.7	10.1	7.44e-03	0	43	0	1280311296	23	5140
2026-01-14 09:57:59.77	345.26	8.66	-31.8	-35.5	9.4	1.71e-02	0	43	0	1281359872	23	5518
2026-01-14 09:58:00.78	345.22	8.58	-31.8	-35.4	9.4	1.72e-02	0	43	0	1283457024	23	5469
2026-01-14 09:58:01.79	345.19	8.49	-31.7	-35.0	9.8	1.39e-02	0	43	0	1285554176	23	5265
