passes_logs/2026/01/14/R2M6_AANII_01/R2M6_AANII_01__20260114_122549_FENGYUN_3D_rec.log

#Pass ID: 20260114_122549_FENGYUN 3D
#Satellite: FENGYUN 3D
#Configuration: FENGYUN 3D
#almurnet v.1.7.20240730
#Start time: 2026-01-14 12:25:50

#Version: 2.2.20231116
#Station: R2M6_AANII_01
#Location: 30.233357 lon 59.946436 lat
#TLE: 1 43010U 17072A   26013.31211337  .00000452  00000+0  23563-3 0  9990
#TLE: 2 43010  98.9934 345.1024 0002270 111.0315 249.1103 14.19696845423017

#Time	Az	El	Level	Level2	SNR	BER	BlckErr	Temp	State	Recorded	gain1	gain2
2026-01-14 12:25:50.46	162.17	7.11	-30.0	-33.1	5.3	7.95e-01	0	40	0	0	21	5106
2026-01-14 12:25:51.46	162.18	7.19	-29.7	-32.6	5.4	7.89e-01	0	40	104	0	20	5026
2026-01-14 12:25:52.46	162.18	7.26	-29.7	-32.6	9.8	8.50e-03	0	40	0	0	20	5033
2026-01-14 12:25:53.47	162.19	7.34	-29.6	-32.3	10.0	5.91e-03	0	40	0	5242880	20	4914
2026-01-14 12:25:54.47	162.20	7.42	-29.7	-32.6	9.8	8.37e-03	0	40	0	11534336	20	5031
2026-01-14 12:25:55.47	162.21	7.50	-29.7	-32.7	9.8	8.64e-03	0	40	0	16777216	20	5037
2026-01-14 12:25:56.47	162.22	7.58	-29.7	-32.7	9.8	7.75e-03	0	40	0	22020096	20	5059
2026-01-14 12:25:57.47	162.23	7.66	-30.0	-33.3	9.3	1.60e-02	0	40	0	28311552	20	5307
2026-01-14 12:25:58.48	162.24	7.74	-29.5	-32.0	10.2	6.05e-03	0	40	0	33554432	20	4801
2026-01-14 12:25:59.48	162.25	7.82	-29.3	-31.8	10.8	2.87e-03	0	40	0	38797312	19	4829
2026-01-14 12:26:00.49	162.26	7.90	-28.8	-31.1	11.6	5.55e-04	0	40	0	45088768	18	4705
2026-01-14 12:26:01.50	162.27	7.98	-28.8	-31.1	11.6	6.37e-04	0	40	0	50331648	18	4700
2026-01-14 12:26:02.50	162.28	8.06	-29.0	-31.6	11.3	8.60e-04	0	41	0	55574528	18	4871
2026-01-14 12:26:03.51	162.29	8.14	-28.9	-31.2	11.6	6.84e-04	0	41	0	61865984	18	4737
2026-01-14 12:26:04.51	162.30	8.22	-29.0	-31.5	11.3	8.35e-04	0	41	0	67108864	18	4828
2026-01-14 12:26:05.51	162.31	8.30	-28.9	-31.4	11.5	6.75e-04	0	41	0	73400320	18	4770
2026-01-14 12:26:06.51	162.32	8.39	-29.0	-31.7	11.3	6.82e-04	0	40	0	78643200	18	4880
2026-01-14 12:26:07.51	162.33	8.47	-29.0	-31.4	11.5	8.48e-04	0	41	0	84934656	18	4800
2026-01-14 12:26:08.52	162.34	8.55	-29.1	-31.9	11.2	8.28e-04	0	41	0	90177536	18	4945
2026-01-14 12:26:09.52	162.35	8.63	-29.1	-31.9	11.2	1.55e-03	0	41	0	95420416	18	4945
2026-01-14 12:26:10.52	162.36	8.72	-28.7	-30.9	11.8	3.82e-04	0	41	0	101711872	18	4615
2026-01-14 12:26:11.53	162.37	8.80	-28.4	-30.1	12.3	1.23e-04	0	41	0	106954752	18	4362
2026-01-14 12:26:12.53	162.38	8.88	-28.0	-29.5	13.0	5.14e-05	0	41	0	112197632	17	4303
2026-01-14 12:26:13.53	162.39	8.97	-27.6	-29.0	13.6	5.70e-06	0	41	0	118489088	16	4262
2026-01-14 12:26:14.54	162.40	9.05	-27.3	-28.4	13.9	3.40e-06	0	41	0	123731968	16	4096
2026-01-14 12:26:15.53	162.41	9.14	-26.9	-28.1	14.2	0.00e+00	0	41	0	128974848	15	4122
2026-01-14 12:26:16.54	162.42	9.22	-26.6	-27.9	14.6	0.00e+00	0	41	0	135266304	14	4178
2026-01-14 12:26:17.55	162.43	9.31	-26.8	-28.3	14.4	1.10e-06	0	41	0	140509184	14	4291
2026-01-14 12:26:18.55	162.44	9.39	-26.7	-28.1	14.5	0.00e+00	0	41	0	146800640	14	4235
2026-01-14 12:26:19.56	162.45	9.48	-26.7	-28.1	14.6	0.00e+00	0	41	0	152043520	14	4222
2026-01-14 12:26:20.56	162.46	9.56	-26.7	-28.0	14.6	0.00e+00	0	41	0	158334976	14	4202
2026-01-14 12:26:21.57	162.47	9.65	-26.7	-28.2	14.5	0.00e+00	0	41	0	163577856	14	4246
2026-01-14 12:26:22.57	162.48	9.74	-26.7	-28.0	14.6	0.00e+00	0	41	0	168820736	14	4210
2026-01-14 12:26:23.57	162.49	9.82	-26.7	-28.0	14.6	0.00e+00	0	41	0	175112192	14	4196
2026-01-14 12:26:24.58	162.50	9.91	-26.4	-27.5	14.9	0.00e+00	0	41	0	180355072	14	4072
2026-01-14 12:26:25.59	162.51	10.00	-26.8	-28.3	14.5	0.00e+00	0	41	0	185597952	14	4286
2026-01-14 12:26:26.59	162.52	10.08	-26.8	-28.4	14.4	0.00e+00	0	41	0	191889408	14	4312
2026-01-14 12:26:27.60	162.53	10.17	-26.7	-28.2	14.6	0.00e+00	0	41	0	197132288	14	4251
2026-01-14 12:26:28.61	162.54	10.26	-26.5	-27.6	14.9	0.00e+00	0	41	0	203423744	14	4102
2026-01-14 12:26:29.61	162.56	10.35	-26.7	-28.0	14.7	0.00e+00	0	41	0	208666624	14	4195
2026-01-14 12:26:30.62	162.57	10.44	-26.6	-28.0	14.7	1.10e-06	0	41	0	213909504	14	4194
2026-01-14 12:26:31.63	162.58	10.53	-26.6	-27.8	14.8	0.00e+00	0	41	0	220200960	14	4158
2026-01-14 12:26:32.63	162.59	10.62	-26.6	-27.9	14.7	0.00e+00	0	41	0	225443840	14	4178
2026-01-14 12:26:33.63	162.60	10.71	-26.6	-27.8	14.8	3.40e-06	0	41	0	231735296	14	4161
2026-01-14 12:26:34.64	162.61	10.80	-26.7	-28.1	14.7	0.00e+00	0	41	0	236978176	14	4227
2026-01-14 12:26:35.64	162.62	10.89	-26.7	-28.1	14.6	1.10e-06	0	41	0	242221056	14	4237
2026-01-14 12:26:36.64	162.63	10.98	-26.6	-28.0	14.7	0.00e+00	0	41	0	248512512	14	4204
2026-01-14 12:26:37.64	162.64	11.07	-26.4	-27.5	15.0	0.00e+00	0	41	0	253755392	14	4068
2026-01-14 12:26:38.65	162.65	11.16	-26.3	-27.1	15.2	0.00e+00	0	41	0	258998272	14	3978
2026-01-14 12:26:39.65	162.67	11.26	-26.2	-27.6	15.2	0.00e+00	0	41	0	265289728	13	4196
2026-01-14 12:26:40.66	162.68	11.35	-26.2	-27.6	15.2	0.00e+00	0	41	0	270532608	13	4198
2026-01-14 12:26:41.66	162.69	11.44	-26.2	-27.5	15.3	0.00e+00	0	41	0	276824064	13	4176
2026-01-14 12:26:42.67	162.70	11.53	-26.4	-27.8	15.1	2.20e-06	0	42	0	282066944	13	4263
2026-01-14 12:26:43.67	162.71	11.63	-26.3	-27.7	15.2	0.00e+00	0	41	0	287309824	13	4227
2026-01-14 12:26:44.67	162.72	11.72	-26.2	-27.4	15.4	0.00e+00	0	42	0	293601280	13	4151
2026-01-14 12:26:45.68	162.73	11.82	-26.5	-28.1	15.0	6.80e-06	0	41	0	298844160	13	4336
2026-01-14 12:26:46.68	162.75	11.91	-26.3	-27.7	15.2	0.00e+00	0	41	0	305135616	13	4232
2026-01-14 12:26:47.68	162.76	12.00	-26.3	-27.6	15.3	0.00e+00	0	41	0	310378496	13	4191
2026-01-14 12:26:48.69	162.77	12.10	-26.3	-27.6	15.3	0.00e+00	0	41	0	315621376	13	4196
2026-01-14 12:26:49.70	162.78	12.20	-26.2	-27.5	15.3	0.00e+00	0	41	0	321912832	13	4170
2026-01-14 12:26:50.70	162.79	12.29	-26.1	-27.2	15.5	0.00e+00	0	41	0	327155712	13	4095
2026-01-14 12:26:51.71	162.81	12.39	-26.1	-27.1	15.6	0.00e+00	0	41	0	333447168	13	4059
2026-01-14 12:26:52.71	162.82	12.48	-26.1	-27.2	15.5	0.00e+00	0	42	0	338690048	13	4075
2026-01-14 12:26:53.71	162.83	12.58	-26.0	-26.9	15.7	0.00e+00	0	42	0	343932928	13	4018
2026-01-14 12:26:54.70	162.84	12.68	-25.9	-26.8	15.7	1.02e-05	0	42	0	349175808	13	3987
2026-01-14 12:26:55.71	162.85	12.78	-25.9	-26.9	15.7	0.00e+00	0	41	0	355467264	13	4007
2026-01-14 12:26:56.71	162.87	12.87	-25.9	-26.7	15.8	0.00e+00	0	42	0	360710144	13	3956
2026-01-14 12:26:57.71	162.88	12.97	-26.1	-27.2	15.6	0.00e+00	0	42	0	367001600	13	4081
2026-01-14 12:26:58.71	162.89	13.07	-26.0	-26.9	15.7	0.00e+00	0	42	0	372244480	13	4006
2026-01-14 12:26:59.72	162.90	13.17	-25.9	-26.7	15.8	0.00e+00	0	42	0	378535936	13	3965
2026-01-14 12:27:00.71	162.92	13.27	-26.0	-26.9	15.7	0.00e+00	0	42	0	383778816	13	4024
2026-01-14 12:27:01.72	162.93	13.37	-25.9	-26.7	15.8	0.00e+00	0	42	0	389021696	13	3969
2026-01-14 12:27:02.72	162.94	13.47	-25.8	-27.0	16.0	0.00e+00	0	42	0	395313152	12	4142
2026-01-14 12:27:03.73	162.95	13.57	-25.8	-27.0	16.0	0.00e+00	0	42	0	400556032	12	4150
2026-01-14 12:27:04.74	162.97	13.68	-25.7	-26.8	16.0	0.00e+00	0	41	0	405798912	12	4092
2026-01-14 12:27:05.74	162.98	13.78	-25.6	-26.5	16.2	0.00e+00	0	42	0	412090368	12	4016
2026-01-14 12:27:06.75	162.99	13.88	-25.5	-26.4	16.3	0.00e+00	0	42	0	417333248	12	3986
2026-01-14 12:27:07.75	163.00	13.98	-25.6	-26.6	16.2	0.00e+00	0	42	0	422576128	12	4032
2026-01-14 12:27:08.75	163.02	14.09	-25.6	-26.5	16.2	0.00e+00	0	42	0	428867584	12	4012
2026-01-14 12:27:09.76	163.03	14.19	-25.4	-26.2	16.4	0.00e+00	0	42	0	434110464	12	3947
2026-01-14 12:27:10.76	163.04	14.29	-25.4	-26.2	16.4	0.00e+00	0	42	0	440401920	12	3940
2026-01-14 12:27:11.76	163.06	14.40	-25.4	-26.2	16.4	0.00e+00	0	42	0	445644800	12	3929
2026-01-14 12:27:12.76	163.07	14.50	-25.5	-26.4	16.3	0.00e+00	0	42	0	451936256	12	3996
2026-01-14 12:27:13.77	163.08	14.61	-25.4	-26.2	16.5	0.00e+00	0	42	0	457179136	12	3930
2026-01-14 12:27:14.77	163.10	14.71	-25.4	-26.2	16.4	0.00e+00	0	42	0	462422016	12	3936
2026-01-14 12:27:15.77	163.11	14.82	-25.5	-26.3	16.4	0.00e+00	0	42	0	468713472	12	3971
2026-01-14 12:27:16.78	163.12	14.93	-25.6	-26.7	16.2	0.00e+00	0	42	0	473956352	12	4065
2026-01-14 12:27:17.79	163.14	15.04	-25.5	-26.4	16.4	0.00e+00	0	42	0	479199232	12	3989
2026-01-14 12:27:18.78	163.15	15.14	-25.5	-26.3	16.4	0.00e+00	0	42	0	485490688	12	3984
2026-01-14 12:27:19.78	163.16	15.25	-25.4	-26.3	16.4	0.00e+00	0	42	0	490733568	12	3970
2026-01-14 12:27:20.79	163.18	15.36	-25.3	-26.0	16.5	0.00e+00	0	42	0	495976448	12	3900
2026-01-14 12:27:21.80	163.19	15.47	-25.2	-26.3	16.7	0.00e+00	0	42	0	502267904	11	4083
2026-01-14 12:27:22.80	163.21	15.58	-25.2	-26.2	16.8	0.00e+00	0	42	0	507510784	11	4051
2026-01-14 12:27:23.80	163.22	15.69	-25.3	-26.4	16.7	0.00e+00	0	42	0	513802240	11	4109
2026-01-14 12:27:24.80	163.24	15.80	-25.5	-26.9	16.5	0.00e+00	0	42	0	519045120	11	4225
2026-01-14 12:27:25.81	163.25	15.91	-25.3	-26.5	16.7	0.00e+00	0	42	0	525336576	11	4118
2026-01-14 12:27:26.81	163.26	16.02	-25.1	-26.1	16.9	6.80e-06	0	42	0	530579456	11	4023
2026-01-14 12:27:27.82	163.28	16.14	-25.2	-26.2	16.8	0.00e+00	0	42	0	535822336	11	4051
2026-01-14 12:27:28.82	163.29	16.25	-25.2	-26.2	16.8	0.00e+00	0	42	0	542113792	11	4061
2026-01-14 12:27:29.83	163.31	16.36	-25.2	-26.2	16.8	0.00e+00	0	42	0	547356672	11	4064
2026-01-14 12:27:30.83	163.32	16.48	-25.3	-26.5	16.7	0.00e+00	0	42	0	552599552	11	4132
2026-01-14 12:27:31.83	163.34	16.59	-25.3	-26.4	16.7	0.00e+00	0	42	0	558891008	11	4106
2026-01-14 12:27:32.83	163.35	16.70	-25.1	-26.0	16.9	0.00e+00	0	42	0	564133888	11	4012
2026-01-14 12:27:33.83	163.37	16.82	-24.9	-25.6	17.2	0.00e+00	0	42	0	569376768	11	3890
2026-01-14 12:27:34.84	163.38	16.94	-24.9	-25.7	17.1	0.00e+00	0	42	0	575668224	11	3919
2026-01-14 12:27:35.84	163.40	17.05	-24.9	-25.7	17.2	0.00e+00	0	42	0	580911104	11	3918
2026-01-14 12:27:36.84	163.41	17.17	-25.0	-25.8	17.1	0.00e+00	0	42	0	587202560	11	3958
2026-01-14 12:27:37.85	163.43	17.29	-25.2	-26.1	16.9	0.00e+00	0	42	0	592445440	11	4025
2026-01-14 12:27:38.85	163.44	17.41	-25.1	-26.0	17.0	3.40e-06	0	42	0	597688320	11	3982
2026-01-14 12:27:39.85	163.46	17.52	-24.9	-25.5	17.3	0.00e+00	0	42	0	603979776	11	3872
2026-01-14 12:27:40.86	163.47	17.64	-24.8	-25.5	17.3	0.00e+00	0	42	0	609222656	11	3859
2026-01-14 12:27:41.86	163.49	17.76	-25.0	-25.8	17.1	5.70e-06	0	42	0	615514112	11	3942
2026-01-14 12:27:42.86	163.51	17.88	-24.8	-25.4	17.3	0.00e+00	0	42	0	620756992	11	3854
2026-01-14 12:27:43.87	163.52	18.01	-24.9	-25.5	17.3	0.00e+00	0	42	0	625999872	11	3866
2026-01-14 12:27:44.88	163.54	18.13	-25.0	-25.7	17.2	3.40e-06	0	42	0	632291328	11	3904
2026-01-14 12:27:45.88	163.55	18.25	-25.0	-25.6	17.2	0.00e+00	0	42	0	637534208	11	3896
2026-01-14 12:27:46.89	163.57	18.37	-24.9	-25.6	17.3	0.00e+00	0	42	0	642777088	11	3888
2026-01-14 12:27:47.89	163.59	18.50	-25.0	-25.7	17.2	1.10e-06	0	42	0	649068544	11	3909
2026-01-14 12:27:48.89	163.60	18.62	-25.0	-25.6	17.2	0.00e+00	0	42	0	654311424	11	3899
2026-01-14 12:27:49.90	163.62	18.75	-24.9	-25.6	17.3	0.00e+00	0	42	0	660602880	11	3892
2026-01-14 12:27:50.90	163.64	18.87	-25.0	-25.7	17.2	0.00e+00	0	42	0	665845760	11	3902
2026-01-14 12:27:51.91	163.65	19.00	-24.8	-25.4	17.4	0.00e+00	0	42	0	671088640	11	3828
2026-01-14 12:27:52.91	163.67	19.13	-24.7	-25.7	17.5	0.00e+00	0	42	0	677380096	10	4006
2026-01-14 12:27:53.91	163.69	19.25	-24.7	-25.6	17.6	0.00e+00	0	42	0	682622976	10	3991
2026-01-14 12:27:54.91	163.70	19.38	-24.8	-25.9	17.4	0.00e+00	0	42	0	688914432	10	4055
2026-01-14 12:27:55.92	163.72	19.51	-24.7	-25.5	17.6	0.00e+00	0	42	0	694157312	10	3976
2026-01-14 12:27:56.91	163.74	19.64	-24.4	-25.0	17.9	0.00e+00	0	42	0	699400192	10	3858
2026-01-14 12:27:57.92	163.76	19.77	-24.3	-24.7	18.0	0.00e+00	0	42	0	705691648	10	3776
2026-01-14 12:27:58.92	163.77	19.90	-24.1	-24.8	18.2	0.00e+00	0	42	0	710934528	9	3918
2026-01-14 12:27:59.92	163.79	20.03	-24.2	-25.0	18.1	0.00e+00	0	42	0	716177408	9	3949
2026-01-14 12:28:00.92	163.81	20.16	-24.1	-24.9	18.2	0.00e+00	0	42	0	722468864	9	3922
2026-01-14 12:28:01.93	163.83	20.30	-24.1	-24.9	18.2	0.00e+00	0	42	0	727711744	9	3922
2026-01-14 12:28:02.93	163.85	20.43	-24.2	-25.0	18.1	0.00e+00	0	42	0	734003200	9	3958
2026-01-14 12:28:03.93	163.86	20.56	-24.1	-24.9	18.2	0.00e+00	0	42	0	739246080	9	3928
2026-01-14 12:28:04.94	163.88	20.70	-24.1	-24.8	18.2	0.00e+00	0	42	0	744488960	9	3914
2026-01-14 12:28:05.94	163.90	20.83	-24.2	-25.0	18.1	0.00e+00	0	42	0	750780416	9	3951
2026-01-14 12:28:06.95	163.92	20.97	-24.1	-24.8	18.3	0.00e+00	0	42	0	756023296	9	3901
2026-01-14 12:28:07.95	163.94	21.11	-24.0	-24.7	18.3	0.00e+00	0	42	0	761266176	9	3881
2026-01-14 12:28:08.95	163.96	21.25	-24.1	-24.9	18.2	0.00e+00	0	42	0	767557632	9	3926
2026-01-14 12:28:09.96	163.98	21.39	-24.1	-24.7	18.3	0.00e+00	0	42	0	772800512	9	3895
2026-01-14 12:28:10.97	164.00	21.53	-24.0	-24.6	18.3	0.00e+00	0	42	0	779091968	9	3867
2026-01-14 12:28:11.97	164.02	21.67	-24.0	-24.7	18.3	0.00e+00	0	42	0	784334848	9	3883
2026-01-14 12:28:12.98	164.03	21.81	-24.0	-24.7	18.3	0.00e+00	0	42	0	789577728	9	3884
2026-01-14 12:28:13.98	164.05	21.95	-24.0	-24.7	18.3	0.00e+00	0	42	0	795869184	9	3886
2026-01-14 12:28:14.98	164.07	22.09	-24.1	-24.9	18.3	0.00e+00	0	42	0	801112064	9	3922
2026-01-14 12:28:15.99	164.09	22.24	-24.2	-25.0	18.2	0.00e+00	0	42	0	807403520	9	3965
2026-01-14 12:28:16.99	164.11	22.38	-24.4	-25.4	18.0	0.00e+00	0	42	0	812646400	9	4056
2026-01-14 12:28:17.99	164.13	22.52	-24.2	-25.1	18.2	0.00e+00	0	42	0	817889280	9	3982
2026-01-14 12:28:19.00	164.15	22.67	-24.1	-24.8	18.3	0.00e+00	0	42	0	824180736	9	3919
2026-01-14 12:28:20.00	164.18	22.82	-24.2	-25.0	18.3	0.00e+00	0	42	0	829423616	9	3945
2026-01-14 12:28:21.01	164.20	22.97	-24.0	-24.7	18.4	0.00e+00	0	42	0	834666496	9	3883
2026-01-14 12:28:22.01	164.22	23.11	-24.1	-24.8	18.3	0.00e+00	0	42	0	840957952	9	3900
2026-01-14 12:28:23.02	164.24	23.26	-24.2	-25.1	18.2	0.00e+00	0	42	0	846200832	9	3978
2026-01-14 12:28:24.01	164.26	23.41	-24.0	-24.6	18.4	0.00e+00	0	42	0	852492288	9	3849
2026-01-14 12:28:25.02	164.28	23.57	-23.8	-24.2	18.7	0.00e+00	0	42	0	857735168	9	3773
2026-01-14 12:28:26.03	164.30	23.72	-23.8	-24.2	18.7	0.00e+00	0	42	0	862978048	9	3762
2026-01-14 12:28:27.04	164.32	23.87	-23.9	-24.3	18.6	0.00e+00	0	42	0	869269504	9	3799
2026-01-14 12:28:28.04	164.35	24.03	-23.9	-24.5	18.5	0.00e+00	0	42	0	874512384	9	3822
2026-01-14 12:28:29.05	164.37	24.18	-23.9	-24.4	18.6	0.00e+00	0	42	0	880803840	9	3803
2026-01-14 12:28:30.05	164.39	24.34	-23.8	-24.3	18.7	0.00e+00	0	42	0	886046720	9	3777
2026-01-14 12:28:31.05	164.41	24.49	-23.9	-24.4	18.6	0.00e+00	0	42	0	891289600	9	3801
2026-01-14 12:28:32.06	164.44	24.65	-23.8	-24.2	18.7	1.10e-06	0	42	0	897581056	9	3762
2026-01-14 12:28:33.06	164.46	24.81	-24.1	-24.7	18.4	0.00e+00	0	42	0	902823936	9	3887
2026-01-14 12:28:34.06	164.48	24.97	-23.8	-24.1	18.7	0.00e+00	0	42	0	909115392	9	3751
2026-01-14 12:28:35.07	164.51	25.13	-23.6	-24.3	18.9	0.00e+00	0	42	0	914358272	8	3895
2026-01-14 12:28:36.07	164.53	25.29	-23.8	-24.6	18.8	0.00e+00	0	42	0	919601152	8	3958
2026-01-14 12:28:37.08	164.55	25.45	-23.6	-24.3	18.9	0.00e+00	0	42	0	925892608	8	3886
2026-01-14 12:28:38.08	164.58	25.62	-23.6	-24.2	18.9	1.10e-06	0	42	0	931135488	8	3874
2026-01-14 12:28:39.08	164.60	25.78	-23.6	-24.3	18.9	0.00e+00	0	42	0	937426944	8	3881
2026-01-14 12:28:40.08	164.63	25.94	-23.6	-24.3	18.9	0.00e+00	0	42	0	942669824	8	3894
2026-01-14 12:28:41.08	164.65	26.11	-23.7	-24.5	18.8	0.00e+00	0	42	0	947912704	8	3940
2026-01-14 12:28:42.09	164.68	26.28	-23.6	-24.3	18.9	0.00e+00	0	42	0	954204160	8	3888
2026-01-14 12:28:43.09	164.70	26.45	-23.5	-24.1	19.0	0.00e+00	0	42	0	959447040	8	3855
2026-01-14 12:28:44.10	164.73	26.62	-23.6	-24.3	18.9	0.00e+00	0	42	0	964689920	8	3887
2026-01-14 12:28:45.10	164.75	26.79	-23.5	-24.0	19.1	0.00e+00	0	42	0	970981376	8	3825
2026-01-14 12:28:46.10	164.78	26.96	-23.6	-24.2	19.0	0.00e+00	0	42	0	976224256	8	3869
2026-01-14 12:28:47.10	164.80	27.13	-23.3	-23.7	19.2	0.00e+00	0	42	0	981467136	8	3760
2026-01-14 12:28:48.11	164.83	27.30	-23.2	-24.0	19.3	0.00e+00	0	42	0	987758592	7	3925
2026-01-14 12:28:49.12	164.86	27.48	-23.2	-24.0	19.3	0.00e+00	0	42	0	993001472	7	3927
2026-01-14 12:28:50.12	164.88	27.66	-23.3	-24.2	19.2	0.00e+00	0	42	0	999292928	7	3984
2026-01-14 12:28:51.13	164.91	27.83	-23.2	-23.9	19.3	0.00e+00	0	43	0	1004535808	7	3913
2026-01-14 12:28:52.13	164.94	28.01	-23.3	-24.0	19.3	0.00e+00	0	42	0	1010827264	7	3935
2026-01-14 12:28:53.13	164.96	28.19	-23.4	-24.3	19.2	0.00e+00	0	42	0	1016070144	7	3999
2026-01-14 12:28:54.13	164.99	28.37	-23.5	-24.4	19.1	0.00e+00	0	42	0	1021313024	7	4038
2026-01-14 12:28:55.13	165.02	28.55	-23.6	-24.8	18.9	0.00e+00	0	42	0	1027604480	7	4129
2026-01-14 12:28:56.13	165.05	28.73	-23.6	-24.8	18.9	0.00e+00	0	42	0	1032847360	7	4127
2026-01-14 12:28:57.14	165.08	28.92	-23.7	-25.0	18.8	0.00e+00	0	42	0	1038090240	7	4178
2026-01-14 12:28:58.15	165.11	29.11	-23.6	-24.7	19.0	0.00e+00	0	42	0	1044381696	7	4109
2026-01-14 12:28:59.15	165.14	29.29	-23.5	-24.6	19.0	0.00e+00	0	42	0	1049624576	7	4069
2026-01-14 12:29:00.15	165.16	29.48	-23.5	-24.6	19.0	0.00e+00	0	42	0	1054867456	7	4068
2026-01-14 12:29:01.15	165.19	29.67	-23.7	-24.9	18.9	0.00e+00	0	43	0	1061158912	7	4151
2026-01-14 12:29:02.15	165.22	29.86	-23.5	-24.5	19.1	0.00e+00	0	43	0	1066401792	7	4060
2026-01-14 12:29:03.16	165.26	30.05	-23.5	-24.5	19.1	0.00e+00	0	42	0	1072693248	7	4054
2026-01-14 12:29:04.16	165.29	30.24	-23.5	-24.7	19.0	0.00e+00	0	42	0	1077936128	7	4088
2026-01-14 12:29:05.16	165.32	30.44	-23.5	-24.6	19.0	0.00e+00	0	42	0	1084227584	7	4080
2026-01-14 12:29:06.17	165.35	30.63	-23.6	-24.8	18.9	0.00e+00	0	42	0	1089470464	7	4134
2026-01-14 12:29:07.17	165.38	30.83	-23.5	-24.6	19.0	0.00e+00	0	42	0	1094713344	7	4088
2026-01-14 12:29:08.18	165.41	31.03	-23.5	-24.7	19.0	0.00e+00	0	42	0	1101004800	7	4094
2026-01-14 12:29:09.19	165.45	31.23	-23.6	-24.7	19.0	0.00e+00	0	42	0	1106247680	7	4112
2026-01-14 12:29:10.19	165.48	31.43	-23.7	-25.0	18.9	0.00e+00	0	42	0	1111490560	7	4171
2026-01-14 12:29:11.19	165.51	31.63	-23.5	-24.5	19.1	0.00e+00	0	42	0	1117782016	7	4053
2026-01-14 12:29:12.20	165.55	31.84	-23.5	-24.5	19.2	0.00e+00	0	42	0	1123024896	7	4048
2026-01-14 12:29:13.20	165.58	32.04	-23.5	-24.5	19.1	0.00e+00	0	42	0	1128267776	7	4056
2026-01-14 12:29:14.21	165.61	32.25	-23.3	-24.2	19.3	0.00e+00	0	42	0	1134559232	7	3975
2026-01-14 12:29:15.21	165.65	32.46	-23.3	-24.1	19.4	0.00e+00	0	42	0	1139802112	7	3951
2026-01-14 12:29:16.21	165.68	32.66	-23.4	-24.3	19.3	0.00e+00	0	42	0	1146093568	7	3992
2026-01-14 12:29:17.21	165.72	32.87	-23.4	-24.4	19.2	0.00e+00	0	42	0	1151336448	7	4016
2026-01-14 12:29:18.22	165.76	33.09	-23.7	-25.0	18.9	0.00e+00	0	42	0	1157627904	7	4161
2026-01-14 12:29:19.22	165.79	33.30	-23.6	-24.7	19.1	0.00e+00	0	42	0	1162870784	7	4092
2026-01-14 12:29:20.22	165.83	33.52	-23.8	-25.1	18.8	0.00e+00	0	42	0	1168113664	7	4210
2026-01-14 12:29:21.22	165.87	33.73	-23.5	-24.5	19.1	0.00e+00	0	42	0	1174405120	7	4055
2026-01-14 12:29:22.22	165.90	33.95	-23.3	-24.1	19.4	0.00e+00	0	42	0	1179648000	7	3954
2026-01-14 12:29:23.22	165.94	34.17	-23.2	-23.9	19.4	0.00e+00	0	42	0	1184890880	7	3912
2026-01-14 12:29:24.23	165.98	34.39	-23.2	-23.9	19.4	0.00e+00	0	42	0	1191182336	7	3915
2026-01-14 12:29:25.23	166.02	34.61	-23.3	-24.2	19.3	0.00e+00	0	42	0	1196425216	7	3982
2026-01-14 12:29:26.23	166.06	34.84	-23.2	-23.9	19.5	0.00e+00	0	42	0	1201668096	7	3895
2026-01-14 12:29:27.23	166.10	35.06	-23.2	-24.0	19.4	0.00e+00	0	42	0	1207959552	7	3930
2026-01-14 12:29:28.24	166.14	35.29	-23.3	-24.2	19.3	0.00e+00	0	42	0	1213202432	7	3972
2026-01-14 12:29:29.24	166.18	35.52	-23.2	-23.9	19.5	0.00e+00	0	42	0	1219493888	7	3913
2026-01-14 12:29:30.24	166.22	35.75	-23.2	-23.9	19.5	0.00e+00	0	42	0	1224736768	7	3913
2026-01-14 12:29:31.25	166.27	35.98	-23.1	-23.8	19.6	0.00e+00	0	42	0	1229979648	7	3876
2026-01-14 12:29:32.25	166.31	36.22	-22.9	-23.3	19.8	0.00e+00	0	42	0	1236271104	7	3767
2026-01-14 12:29:33.26	166.35	36.46	-22.7	-23.3	20.0	0.00e+00	0	42	0	1241513984	6	3876
2026-01-14 12:29:34.26	166.40	36.69	-22.7	-23.3	20.0	0.00e+00	0	42	0	1247805440	6	3874
2026-01-14 12:29:35.26	166.44	36.93	-22.7	-23.3	20.1	0.00e+00	0	42	0	1253048320	6	3868
2026-01-14 12:29:36.27	166.49	37.17	-22.8	-23.5	20.0	0.00e+00	0	42	0	1258291200	6	3912
2026-01-14 12:29:37.27	166.53	37.42	-22.8	-23.5	19.9	0.00e+00	0	42	0	1264582656	6	3924
2026-01-14 12:29:38.27	166.58	37.66	-22.9	-23.8	19.8	0.00e+00	0	42	0	1269825536	6	3990
2026-01-14 12:29:39.28	166.63	37.91	-23.0	-24.1	19.7	0.00e+00	0	42	0	1275068416	6	4053
2026-01-14 12:29:40.28	166.67	38.16	-23.0	-24.1	19.7	2.20e-06	0	42	0	1281359872	6	4054
2026-01-14 12:29:41.28	166.72	38.41	-23.0	-24.0	19.7	0.00e+00	0	42	0	1286602752	6	4044
2026-01-14 12:29:42.28	166.77	38.66	-22.8	-23.6	19.9	0.00e+00	0	42	0	1292894208	6	3943
2026-01-14 12:29:43.28	166.82	38.91	-22.7	-23.4	20.0	0.00e+00	0	43	0	1298137088	6	3892
2026-01-14 12:29:44.29	166.87	39.17	-22.8	-23.5	20.0	0.00e+00	0	42	0	1303379968	6	3903
2026-01-14 12:29:45.29	166.92	39.42	-22.7	-23.3	20.1	0.00e+00	0	42	0	1309671424	6	3862
2026-01-14 12:29:46.30	166.98	39.69	-22.8	-23.7	19.9	0.00e+00	0	42	0	1314914304	6	3952
2026-01-14 12:29:47.31	167.03	39.95	-23.0	-24.0	19.8	0.00e+00	0	43	0	1320157184	6	4025
2026-01-14 12:29:48.31	167.08	40.21	-23.2	-24.5	19.5	0.00e+00	0	42	0	1326448640	6	4154
2026-01-14 12:29:49.32	167.14	40.48	-23.3	-24.6	19.4	0.00e+00	0	42	0	1331691520	6	4185
2026-01-14 12:29:50.32	167.19	40.74	-23.4	-24.9	19.3	0.00e+00	0	42	0	1337982976	6	4249
2026-01-14 12:29:51.32	167.25	41.01	-23.5	-25.0	19.3	0.00e+00	0	42	0	1343225856	6	4277
2026-01-14 12:29:52.33	167.31	41.29	-23.6	-24.8	19.1	0.00e+00	0	42	0	1348468736	7	4120
2026-01-14 12:29:53.34	167.37	41.56	-23.5	-24.5	19.2	0.00e+00	0	42	0	1354760192	7	4053
2026-01-14 12:29:54.34	167.42	41.84	-23.4	-24.3	19.3	0.00e+00	0	42	0	1360003072	7	4002
2026-01-14 12:29:55.34	167.48	42.11	-23.5	-24.5	19.3	0.00e+00	0	42	0	1366294528	7	4049
2026-01-14 12:29:56.34	167.55	42.39	-23.6	-24.7	19.2	0.00e+00	0	42	0	1371537408	7	4102
2026-01-14 12:29:57.35	167.61	42.67	-23.5	-24.4	19.3	0.00e+00	0	42	0	1376780288	7	4030
2026-01-14 12:29:58.35	167.67	42.96	-23.4	-24.2	19.4	0.00e+00	0	42	0	1383071744	7	3975
2026-01-14 12:29:59.36	167.74	43.24	-23.4	-24.2	19.5	0.00e+00	0	42	0	1388314624	7	3962
2026-01-14 12:30:00.36	167.80	43.53	-23.5	-24.5	19.3	0.00e+00	0	42	0	1394606080	7	4044
2026-01-14 12:30:01.37	167.87	43.82	-23.6	-24.7	19.3	0.00e+00	0	42	0	1399848960	7	4083
2026-01-14 12:30:02.37	167.93	44.12	-23.7	-24.9	19.2	0.00e+00	0	43	0	1405091840	7	4137
2026-01-14 12:30:03.38	168.00	44.41	-23.8	-25.2	19.0	0.00e+00	0	43	0	1411383296	7	4214
2026-01-14 12:30:04.38	168.07	44.71	-23.9	-25.4	18.9	2.20e-06	0	42	0	1416626176	7	4283
2026-01-14 12:30:05.37	168.14	45.00	-24.3	-25.6	18.6	0.00e+00	0	43	0	1421869056	8	4211
2026-01-14 12:30:06.37	168.22	45.30	-24.3	-25.8	18.5	0.00e+00	0	42	0	1428160512	8	4239
2026-01-14 12:30:07.38	168.29	45.61	-24.2	-25.4	18.7	0.00e+00	0	42	0	1433403392	8	4147
2026-01-14 12:30:08.38	168.36	45.91	-24.2	-25.5	18.6	0.00e+00	0	42	0	1439694848	8	4171
2026-01-14 12:30:09.38	168.44	46.22	-24.3	-25.7	18.5	0.00e+00	0	42	0	1444937728	8	4230
2026-01-14 12:30:10.38	168.52	46.53	-24.3	-25.6	18.6	0.00e+00	0	42	0	1450180608	8	4197
2026-01-14 12:30:11.39	168.60	46.84	-24.3	-25.8	18.5	0.00e+00	0	42	0	1456472064	8	4246
2026-01-14 12:30:12.39	168.68	47.15	-24.3	-25.6	18.5	0.00e+00	0	42	0	1461714944	8	4214
2026-01-14 12:30:13.38	168.76	47.47	-23.9	-24.9	18.9	0.00e+00	0	42	0	1466957824	8	4023
2026-01-14 12:30:14.39	168.85	47.79	-23.6	-24.3	19.3	0.00e+00	0	42	0	1473249280	8	3872
2026-01-14 12:30:15.39	168.93	48.11	-23.5	-24.0	19.4	0.00e+00	0	42	0	1478492160	8	3810
2026-01-14 12:30:16.39	169.02	48.43	-23.5	-23.9	19.5	0.00e+00	0	42	0	1483735040	8	3795
2026-01-14 12:30:17.39	169.11	48.76	-23.4	-23.9	19.5	0.00e+00	0	42	0	1490026496	8	3782
2026-01-14 12:30:18.39	169.20	49.08	-23.1	-23.6	19.9	0.00e+00	0	42	0	1495269376	7	3817
2026-01-14 12:30:19.40	169.29	49.42	-23.0	-23.3	20.0	0.00e+00	0	43	0	1501560832	7	3762
2026-01-14 12:30:20.41	169.39	49.75	-23.3	-24.1	19.7	0.00e+00	0	42	0	1506803712	7	3930
2026-01-14 12:30:21.41	169.49	50.09	-23.7	-25.0	19.2	0.00e+00	0	42	0	1513095168	7	4161
2026-01-14 12:30:22.42	169.59	50.43	-23.8	-25.2	19.0	0.00e+00	0	42	0	1518338048	7	4219
2026-01-14 12:30:23.42	169.69	50.77	-23.6	-24.8	19.3	0.00e+00	0	42	0	1523580928	7	4100
2026-01-14 12:30:24.42	169.79	51.11	-23.5	-24.5	19.4	0.00e+00	0	42	0	1529872384	7	4023
2026-01-14 12:30:25.42	169.90	51.45	-23.7	-24.9	19.2	0.00e+00	0	42	0	1535115264	7	4133
2026-01-14 12:30:26.42	170.00	51.80	-24.1	-25.2	18.8	0.00e+00	0	42	0	1540358144	8	4093
2026-01-14 12:30:27.43	170.11	52.15	-24.3	-25.8	18.5	0.00e+00	0	42	0	1546649600	8	4241
2026-01-14 12:30:28.43	170.23	52.50	-24.2	-25.4	18.8	0.00e+00	0	42	0	1551892480	8	4133
2026-01-14 12:30:29.44	170.34	52.86	-24.2	-25.4	18.7	0.00e+00	0	42	0	1557135360	8	4152
2026-01-14 12:30:30.44	170.46	53.22	-24.5	-25.6	18.4	0.00e+00	0	42	0	1563426816	9	4080
2026-01-14 12:30:31.45	170.59	53.58	-24.8	-26.2	18.1	0.00e+00	0	43	0	1568669696	9	4245
2026-01-14 12:30:32.45	170.71	53.94	-25.3	-26.7	17.6	0.00e+00	0	42	0	1574961152	10	4266
2026-01-14 12:30:33.46	170.84	54.31	-25.1	-26.4	17.7	0.00e+00	0	42	0	1580204032	10	4186
2026-01-14 12:30:34.46	170.97	54.67	-25.0	-26.2	17.8	0.00e+00	0	42	0	1586495488	10	4138
2026-01-14 12:30:35.47	171.10	55.04	-24.9	-26.0	17.9	0.00e+00	0	42	0	1591738368	10	4068
2026-01-14 12:30:36.47	171.24	55.42	-24.9	-25.9	18.0	0.00e+00	0	42	0	1596981248	10	4044
2026-01-14 12:30:37.47	171.38	55.79	-24.8	-25.7	18.1	0.00e+00	0	43	0	1603272704	10	3992
2026-01-14 12:30:38.47	171.53	56.16	-24.5	-25.0	18.5	0.00e+00	0	42	0	1608515584	10	3829
2026-01-14 12:30:39.47	171.68	56.54	-24.4	-24.9	18.5	0.00e+00	0	42	0	1613758464	10	3818
2026-01-14 12:30:40.48	171.83	56.93	-24.5	-25.2	18.4	0.00e+00	0	42	0	1620049920	10	3873
2026-01-14 12:30:41.48	171.99	57.31	-24.6	-25.4	18.3	0.00e+00	0	42	0	1625292800	10	3931
2026-01-14 12:30:42.49	172.15	57.70	-24.4	-24.8	18.6	0.00e+00	0	43	0	1630535680	10	3789
2026-01-14 12:30:43.49	172.31	58.09	-23.8	-24.1	19.2	0.00e+00	0	43	0	1636827136	9	3729
2026-01-14 12:30:44.49	172.49	58.48	-23.6	-24.2	19.3	0.00e+00	0	42	0	1642070016	8	3859
2026-01-14 12:30:45.48	172.66	58.86	-23.8	-24.7	19.1	0.00e+00	0	42	0	1648361472	8	3966
2026-01-14 12:30:46.49	172.84	59.26	-23.9	-24.8	19.1	0.00e+00	0	43	0	1653604352	8	3991
2026-01-14 12:30:47.50	173.03	59.66	-23.7	-24.3	19.4	0.00e+00	0	43	0	1658847232	8	3887
2026-01-14 12:30:48.50	173.22	60.06	-23.7	-24.3	19.4	0.00e+00	0	42	0	1665138688	8	3887
2026-01-14 12:30:49.50	173.42	60.46	-23.8	-24.7	19.1	0.00e+00	0	42	0	1670381568	8	3985
2026-01-14 12:30:50.50	173.62	60.87	-23.4	-23.7	19.7	0.00e+00	0	43	0	1675624448	8	3749
2026-01-14 12:30:51.50	173.83	61.27	-22.7	-23.4	20.3	0.00e+00	0	43	0	1681915904	6	3871
2026-01-14 12:30:52.51	174.05	61.69	-23.0	-23.9	20.1	0.00e+00	0	43	0	1687158784	6	4007
2026-01-14 12:30:53.52	174.28	62.10	-23.5	-24.5	19.5	0.00e+00	0	43	0	1693450240	7	4043
2026-01-14 12:30:54.52	174.51	62.51	-23.4	-24.2	19.7	0.00e+00	0	43	0	1698693120	7	3958
2026-01-14 12:30:55.52	174.75	62.93	-23.0	-23.4	20.1	0.00e+00	0	42	0	1703936000	7	3766
2026-01-14 12:30:56.51	175.00	63.34	-23.1	-23.7	20.0	0.00e+00	0	43	0	1710227456	7	3833
2026-01-14 12:30:57.52	175.26	63.76	-23.3	-24.0	19.8	0.00e+00	0	42	0	1715470336	7	3923
2026-01-14 12:30:58.52	175.53	64.18	-23.0	-23.4	20.1	0.00e+00	0	43	0	1721761792	7	3770
2026-01-14 12:30:59.53	175.81	64.61	-22.6	-23.1	20.4	0.00e+00	0	43	0	1727004672	6	3826
2026-01-14 12:31:00.53	176.09	65.03	-22.4	-22.8	20.6	0.00e+00	0	43	0	1732247552	6	3749
2026-01-14 12:31:01.53	176.39	65.46	-22.8	-23.5	20.2	0.00e+00	0	43	0	1738539008	6	3905
2026-01-14 12:31:02.53	176.70	65.89	-23.2	-24.3	19.8	0.00e+00	0	42	0	1743781888	6	4114
2026-01-14 12:31:03.53	177.02	66.32	-23.1	-24.1	19.9	0.00e+00	0	43	0	1749024768	6	4056
2026-01-14 12:31:04.54	177.36	66.75	-23.3	-24.5	19.8	0.00e+00	0	42	0	1755316224	6	4135
2026-01-14 12:31:05.54	177.71	67.18	-23.3	-24.6	19.7	0.00e+00	0	42	0	1760559104	6	4181
2026-01-14 12:31:06.53	178.07	67.61	-22.9	-23.7	20.1	0.00e+00	0	42	0	1766850560	6	3969
2026-01-14 12:31:07.54	178.45	68.05	-22.3	-22.5	20.7	0.00e+00	0	43	0	1772093440	6	3681
2026-01-14 12:31:08.54	178.85	68.49	-22.3	-23.0	20.7	0.00e+00	0	43	0	1777336320	5	3890
2026-01-14 12:31:09.54	179.26	68.93	-22.7	-23.9	20.3	0.00e+00	0	42	0	1783627776	5	4120
2026-01-14 12:31:10.54	179.69	69.37	-22.6	-23.6	20.4	0.00e+00	0	42	0	1788870656	5	4052
2026-01-14 12:31:11.55	180.15	69.81	-22.6	-23.6	20.4	0.00e+00	0	42	0	1794113536	5	4045
2026-01-14 12:31:12.55	180.62	70.25	-22.6	-23.6	20.4	0.00e+00	0	42	0	1800404992	5	4046
2026-01-14 12:31:13.55	181.12	70.69	-22.3	-23.0	20.7	0.00e+00	0	43	0	1805647872	5	3908
2026-01-14 12:31:14.55	181.64	71.13	-22.5	-23.4	20.5	0.00e+00	0	43	0	1810890752	5	4009
2026-01-14 12:31:15.55	182.18	71.58	-22.5	-23.3	20.6	0.00e+00	0	42	0	1817182208	5	3985
2026-01-14 12:31:16.56	182.77	72.02	-22.2	-22.8	20.8	0.00e+00	0	42	0	1822425088	5	3859
2026-01-14 12:31:17.56	183.37	72.46	-22.1	-22.6	21.0	0.00e+00	0	42	0	1828716544	5	3810
2026-01-14 12:31:18.57	184.02	72.91	-22.4	-23.3	20.6	0.00e+00	0	42	0	1833959424	5	3963
2026-01-14 12:31:19.56	184.69	73.35	-22.6	-23.7	20.4	0.00e+00	0	43	0	1840250880	5	4059
2026-01-14 12:31:20.56	185.40	73.79	-22.5	-23.4	20.6	0.00e+00	0	42	0	1845493760	5	4002
2026-01-14 12:31:21.56	186.15	74.23	-22.6	-23.5	20.5	0.00e+00	0	43	0	1850736640	5	4026
2026-01-14 12:31:22.57	186.96	74.67	-22.5	-23.3	20.7	0.00e+00	0	42	0	1857028096	5	3969
2026-01-14 12:31:23.57	187.81	75.11	-22.4	-23.1	20.7	0.00e+00	0	43	0	1862270976	5	3926
2026-01-14 12:31:24.58	188.72	75.55	-22.2	-22.9	20.9	0.00e+00	0	43	0	1867513856	5	3871
2026-01-14 12:31:25.58	189.68	75.98	-22.2	-22.7	21.2	0.00e+00	0	43	0	1873805312	5	3805
2026-01-14 12:31:26.59	190.71	76.42	-22.1	-22.5	21.2	0.00e+00	0	42	0	1879048192	5	3785
2026-01-14 12:31:27.59	191.80	76.85	-22.3	-22.8	21.0	0.00e+00	0	42	0	1884291072	5	3851
2026-01-14 12:31:28.60	192.98	77.27	-22.2	-22.7	21.1	0.00e+00	0	42	0	1890582528	5	3828
2026-01-14 12:31:29.60	194.23	77.69	-21.8	-22.0	21.5	0.00e+00	0	43	0	1895825408	5	3670
2026-01-14 12:31:30.61	195.59	78.11	-21.2	-21.7	22.1	0.00e+00	0	43	0	1902116864	3	3806
2026-01-14 12:31:31.62	197.04	78.52	-20.7	-21.2	22.6	0.00e+00	0	42	0	1907359744	2	3794
2026-01-14 12:31:32.62	198.59	78.92	-20.9	-21.6	22.5	0.00e+00	0	42	0	1913651200	2	3887
2026-01-14 12:31:33.63	200.27	79.32	-21.1	-22.0	22.2	0.00e+00	0	42	0	1918894080	2	3989
2026-01-14 12:31:34.63	202.06	79.71	-21.0	-21.8	22.3	0.00e+00	0	42	0	1924136960	2	3943
2026-01-14 12:31:35.63	204.00	80.08	-21.1	-22.0	22.2	0.00e+00	0	43	0	1930428416	2	3991
2026-01-14 12:31:36.63	206.08	80.45	-21.1	-22.0	22.3	0.00e+00	0	43	0	1935671296	2	3977
2026-01-14 12:31:37.64	208.36	80.80	-20.9	-21.5	22.5	0.00e+00	0	42	0	1940914176	2	3866
2026-01-14 12:31:38.64	210.78	81.14	-20.9	-21.6	22.4	0.00e+00	0	43	0	1947205632	2	3896
2026-01-14 12:31:39.64	213.40	81.46	-21.0	-21.8	22.3	0.00e+00	0	43	0	1952448512	2	3952
2026-01-14 12:31:40.64	216.22	81.76	-21.1	-22.0	22.3	0.00e+00	0	42	0	1957691392	2	3978
2026-01-14 12:31:41.65	219.28	82.05	-21.0	-21.7	22.4	0.00e+00	0	42	0	1963982848	2	3922
2026-01-14 12:31:42.65	222.53	82.30	-21.0	-21.7	22.4	0.00e+00	0	43	0	1969225728	2	3922
2026-01-14 12:31:43.66	226.02	82.54	-21.2	-22.1	22.2	0.00e+00	0	43	0	1975517184	2	4019
2026-01-14 12:31:44.67	229.73	82.74	-21.1	-21.9	22.3	0.00e+00	0	42	0	1980760064	2	3963
2026-01-14 12:31:45.66	233.56	82.91	-21.3	-22.3	22.1	0.00e+00	0	42	0	1987051520	2	4056
2026-01-14 12:31:46.66	237.60	83.05	-21.7	-22.6	21.7	0.00e+00	0	43	0	1992294400	3	4025
2026-01-14 12:31:47.66	241.78	83.15	-21.4	-22.1	21.9	0.00e+00	0	43	0	1997537280	3	3894
2026-01-14 12:31:48.66	246.07	83.22	-21.2	-21.7	22.1	0.00e+00	0	42	0	2003828736	3	3808
2026-01-14 12:31:49.66	250.42	83.25	-20.9	-21.0	22.5	0.00e+00	0	43	0	2009071616	3	3653
2026-01-14 12:31:50.67	254.83	83.24	-20.8	-20.9	22.7	0.00e+00	0	42	0	2014314496	3	3626
2026-01-14 12:31:51.67	259.15	83.19	-20.8	-21.4	22.7	0.00e+00	0	42	0	2020605952	2	3848
2026-01-14 12:31:52.67	263.38	83.10	-21.0	-21.7	22.5	0.00e+00	0	42	0	2025848832	2	3916
2026-01-14 12:31:53.67	267.49	82.98	-21.0	-21.8	22.4	0.00e+00	0	42	0	2031091712	2	3930
2026-01-14 12:31:54.67	271.43	82.82	-20.7	-21.2	22.7	0.00e+00	0	43	0	2037383168	2	3802
2026-01-14 12:31:55.68	275.23	82.63	-20.8	-21.3	22.6	0.00e+00	0	42	0	2042626048	2	3823
2026-01-14 12:31:56.68	278.78	82.41	-21.1	-22.0	22.3	0.00e+00	0	43	0	2048917504	2	3986
2026-01-14 12:31:57.69	282.14	82.16	-21.0	-21.9	22.4	0.00e+00	0	43	0	2054160384	2	3954
2026-01-14 12:31:58.69	285.26	81.89	-20.9	-21.6	22.5	0.00e+00	0	42	0	2059403264	2	3896
2026-01-14 12:31:59.69	288.17	81.59	-20.8	-21.3	22.6	0.00e+00	0	42	0	2065694720	2	3834
2026-01-14 12:32:00.69	290.87	81.28	-20.9	-21.5	22.5	0.00e+00	0	43	0	2070937600	2	3877
2026-01-14 12:32:01.69	293.38	80.95	-21.1	-21.9	22.3	0.00e+00	0	42	0	2076180480	2	3978
2026-01-14 12:32:02.69	295.71	80.61	-21.2	-22.2	22.2	0.00e+00	0	43	0	2082471936	2	4022
2026-01-14 12:32:03.69	297.87	80.25	-21.0	-21.8	22.4	0.00e+00	0	43	0	2087714816	2	3949
2026-01-14 12:32:04.69	299.86	79.88	-21.0	-21.8	22.4	0.00e+00	0	42	0	2092957696	2	3934
2026-01-14 12:32:05.70	301.74	79.49	-21.1	-21.9	22.3	0.00e+00	0	43	0	2099249152	2	3967
2026-01-14 12:32:06.71	303.47	79.10	-21.1	-21.9	22.3	0.00e+00	0	42	0	2104492032	2	3958
2026-01-14 12:32:07.71	305.07	78.70	-21.5	-22.8	21.9	0.00e+00	0	43	0	2110783488	2	4175
2026-01-14 12:32:08.72	306.57	78.29	-21.7	-22.8	21.6	0.00e+00	0	43	0	2116026368	3	4071
2026-01-14 12:32:09.72	307.95	77.88	-21.5	-22.4	21.8	0.00e+00	0	43	0	2122317824	3	3970
2026-01-14 12:32:10.72	309.23	77.46	-21.5	-22.4	21.8	0.00e+00	0	43	0	2127560704	3	3958
2026-01-14 12:32:11.72	310.44	77.04	-21.6	-22.5	21.8	0.00e+00	0	43	0	2132803584	3	3989
2026-01-14 12:32:12.72	311.56	76.62	-21.4	-22.1	22.0	0.00e+00	0	43	0	2139095040	3	3895
2026-01-14 12:32:13.73	312.63	76.18	-21.5	-22.2	21.9	0.00e+00	0	42	0	2144337920	3	3925
2026-01-14 12:32:14.73	313.61	75.75	-21.7	-22.8	21.6	0.00e+00	0	42	0	2149580800	3	4065
2026-01-14 12:32:15.73	314.54	75.32	-21.7	-22.8	21.6	0.00e+00	0	42	0	2155872256	3	4053
2026-01-14 12:32:16.74	315.42	74.88	-21.9	-23.2	21.4	0.00e+00	0	43	0	2161115136	3	4152
2026-01-14 12:32:17.74	316.24	74.44	-22.2	-23.2	21.1	0.00e+00	0	43	0	2166358016	4	4053
2026-01-14 12:32:18.74	317.02	74.00	-22.3	-23.4	21.0	0.00e+00	0	43	0	2172649472	4	4101
2026-01-14 12:32:19.75	317.75	73.56	-22.0	-22.8	21.3	0.00e+00	0	43	0	2177892352	4	3942
2026-01-14 12:32:20.75	318.45	73.12	-22.2	-23.3	21.0	0.00e+00	0	42	0	2184183808	4	4082
2026-01-14 12:32:21.76	319.11	72.67	-22.3	-23.5	20.9	0.00e+00	0	43	0	2189426688	4	4127
2026-01-14 12:32:22.77	319.73	72.23	-22.1	-23.1	21.1	0.00e+00	0	43	0	2195718144	4	4015
2026-01-14 12:32:23.77	320.32	71.78	-22.4	-23.7	20.8	0.00e+00	0	42	0	2200961024	4	4174
2026-01-14 12:32:24.78	320.89	71.34	-22.3	-23.0	20.9	0.00e+00	0	42	0	2206203904	5	3905
2026-01-14 12:32:25.77	321.41	70.90	-22.0	-22.3	21.2	0.00e+00	0	43	0	2212495360	5	3738
2026-01-14 12:32:26.77	321.92	70.46	-22.0	-22.3	21.2	0.00e+00	0	43	0	2217738240	5	3739
2026-01-14 12:32:27.77	322.40	70.02	-22.4	-23.1	20.9	0.00e+00	0	43	0	2222981120	5	3907
2026-01-14 12:32:28.78	322.87	69.58	-22.5	-23.3	20.8	0.00e+00	0	42	0	2229272576	5	3959
2026-01-14 12:32:29.79	323.31	69.14	-22.4	-23.2	20.8	0.00e+00	0	43	0	2234515456	5	3940
2026-01-14 12:32:30.79	323.73	68.70	-22.8	-24.1	20.4	0.00e+00	0	42	0	2239758336	5	4151
2026-01-14 12:32:31.80	324.14	68.26	-22.9	-24.2	20.3	0.00e+00	0	43	0	2246049792	5	4172
2026-01-14 12:32:32.80	324.53	67.82	-22.6	-23.7	20.6	0.00e+00	0	43	0	2251292672	5	4042
2026-01-14 12:32:33.80	324.90	67.39	-22.8	-24.0	20.4	0.00e+00	0	42	0	2257584128	5	4129
2026-01-14 12:32:34.80	325.25	66.96	-22.8	-24.0	20.4	0.00e+00	0	43	0	2262827008	5	4131
2026-01-14 12:32:35.80	325.59	66.53	-23.0	-24.3	20.2	0.00e+00	0	42	0	2268069888	5	4205
2026-01-14 12:32:36.81	325.92	66.09	-22.6	-23.5	20.6	0.00e+00	0	43	0	2274361344	5	4000
2026-01-14 12:32:37.82	326.24	65.66	-22.3	-22.9	20.9	0.00e+00	0	43	0	2279604224	5	3869
2026-01-14 12:32:38.83	326.55	65.23	-22.5	-23.4	20.7	0.00e+00	0	43	0	2285895680	5	3990
2026-01-14 12:32:39.83	326.84	64.81	-22.9	-24.2	20.3	0.00e+00	0	43	0	2291138560	5	4179
2026-01-14 12:32:40.84	327.12	64.38	-23.1	-24.1	20.1	0.00e+00	0	43	0	2296381440	6	4041
2026-01-14 12:32:41.85	327.39	63.96	-23.2	-24.4	19.9	0.00e+00	0	43	0	2302672896	6	4116
2026-01-14 12:32:42.85	327.66	63.54	-23.1	-24.2	20.1	0.00e+00	0	43	0	2307915776	6	4054
2026-01-14 12:32:43.85	327.91	63.12	-22.9	-23.8	20.2	0.00e+00	0	42	0	2313158656	6	3958
2026-01-14 12:32:44.86	328.15	62.70	-23.2	-24.2	20.0	0.00e+00	0	43	0	2319450112	6	4076
2026-01-14 12:32:45.87	328.39	62.29	-23.3	-24.7	19.8	0.00e+00	0	42	0	2324692992	6	4193
2026-01-14 12:32:46.87	328.62	61.88	-23.1	-24.0	20.1	0.00e+00	0	42	0	2330984448	6	4030
2026-01-14 12:32:47.88	328.84	61.47	-22.9	-23.7	20.2	0.00e+00	0	42	0	2336227328	6	3932
2026-01-14 12:32:48.88	329.06	61.06	-23.3	-24.5	19.8	0.00e+00	0	43	0	2342518784	6	4139
2026-01-14 12:32:49.88	329.26	60.66	-23.4	-24.7	19.7	0.00e+00	0	43	0	2347761664	6	4187
2026-01-14 12:32:50.88	329.46	60.26	-23.3	-24.4	19.9	0.00e+00	0	43	0	2353004544	6	4118
2026-01-14 12:32:51.88	329.66	59.86	-23.4	-24.6	19.8	0.00e+00	0	42	0	2359296000	6	4163
2026-01-14 12:32:52.88	329.85	59.46	-23.3	-24.5	19.8	0.00e+00	0	43	0	2364538880	6	4137
2026-01-14 12:32:53.88	330.03	59.07	-23.5	-24.8	19.7	0.00e+00	0	42	0	2369781760	6	4217
2026-01-14 12:32:54.89	330.21	58.67	-23.8	-25.0	19.4	0.00e+00	0	42	0	2376073216	7	4142
2026-01-14 12:32:55.90	330.38	58.28	-23.9	-25.3	19.1	0.00e+00	0	42	0	2381316096	7	4237
2026-01-14 12:32:56.90	330.55	57.89	-24.2	-25.5	18.8	0.00e+00	0	43	0	2386558976	8	4162
2026-01-14 12:32:57.91	330.71	57.50	-24.1	-25.1	19.0	0.00e+00	0	42	0	2392850432	8	4062
2026-01-14 12:32:58.90	330.87	57.12	-23.7	-24.4	19.4	0.00e+00	0	42	0	2398093312	8	3898
2026-01-14 12:32:59.91	331.03	56.74	-23.6	-24.0	19.6	0.00e+00	0	43	0	2404384768	8	3796
2026-01-14 12:33:00.91	331.18	56.36	-23.9	-24.8	19.2	0.00e+00	0	42	0	2409627648	8	3981
2026-01-14 12:33:01.91	331.32	55.98	-24.2	-25.4	18.9	0.00e+00	0	43	0	2415919104	8	4134
2026-01-14 12:33:02.91	331.47	55.61	-24.4	-25.8	18.7	0.00e+00	0	43	0	2421161984	8	4237
2026-01-14 12:33:03.92	331.61	55.24	-24.1	-25.3	18.9	0.00e+00	0	43	0	2426404864	8	4107
2026-01-14 12:33:04.93	331.74	54.86	-24.0	-24.9	19.2	0.00e+00	0	43	0	2432696320	8	3997
2026-01-14 12:33:05.93	331.87	54.50	-24.2	-25.3	18.9	0.00e+00	0	43	0	2437939200	8	4106
2026-01-14 12:33:06.93	332.00	54.13	-24.2	-25.4	18.8	0.00e+00	0	43	0	2443182080	8	4138
2026-01-14 12:33:07.93	332.13	53.77	-24.6	-25.8	18.4	0.00e+00	0	43	0	2449473536	9	4122
2026-01-14 12:33:08.94	332.25	53.41	-24.4	-25.2	18.7	0.00e+00	0	43	0	2454716416	9	3988
2026-01-14 12:33:09.94	332.37	53.05	-24.3	-25.2	18.7	0.00e+00	0	43	0	2459959296	9	3974
2026-01-14 12:33:10.95	332.49	52.70	-24.6	-25.7	18.5	0.00e+00	0	43	0	2466250752	9	4084
2026-01-14 12:33:11.95	332.61	52.35	-24.6	-25.7	18.5	0.00e+00	0	43	0	2471493632	9	4085
2026-01-14 12:33:12.96	332.72	51.99	-24.7	-26.1	18.3	0.00e+00	0	43	0	2477785088	9	4190
2026-01-14 12:33:13.96	332.83	51.65	-24.5	-25.6	18.5	0.00e+00	0	43	0	2483027968	9	4083
2026-01-14 12:33:14.97	332.93	51.30	-24.3	-25.2	18.7	0.00e+00	0	43	0	2489319424	9	3966
2026-01-14 12:33:15.97	333.04	50.96	-24.1	-24.8	18.9	0.00e+00	0	43	0	2494562304	9	3875
2026-01-14 12:33:16.97	333.14	50.62	-24.1	-24.8	18.9	0.00e+00	0	43	0	2499805184	9	3866
2026-01-14 12:33:17.97	333.24	50.28	-23.9	-24.3	19.1	0.00e+00	0	43	0	2506096640	9	3772
2026-01-14 12:33:18.98	333.34	49.95	-23.8	-24.1	19.2	0.00e+00	0	43	0	2511339520	9	3730
2026-01-14 12:33:19.99	333.44	49.61	-23.8	-24.1	19.2	0.00e+00	0	43	0	2516582400	9	3735
2026-01-14 12:33:20.99	333.53	49.28	-23.8	-24.1	19.2	0.00e+00	0	43	0	2522873856	9	3731
2026-01-14 12:33:21.99	333.62	48.95	-23.7	-24.3	19.4	0.00e+00	0	43	0	2528116736	8	3885
2026-01-14 12:33:22.99	333.71	48.63	-23.5	-24.0	19.5	0.00e+00	0	43	0	2533359616	8	3802
2026-01-14 12:33:23.99	333.80	48.31	-23.5	-24.0	19.6	0.00e+00	0	42	0	2539651072	8	3802
2026-01-14 12:33:24.99	333.89	47.99	-23.4	-23.6	19.7	0.00e+00	0	43	0	2544893952	8	3719
2026-01-14 12:33:26.00	333.97	47.66	-23.2	-23.7	19.9	0.00e+00	0	43	0	2551185408	7	3836
2026-01-14 12:33:27.00	334.06	47.35	-23.2	-23.8	19.9	0.00e+00	0	43	0	2556428288	7	3847
2026-01-14 12:33:28.00	334.14	47.04	-23.4	-24.1	19.7	0.00e+00	0	43	0	2561671168	7	3932
2026-01-14 12:33:29.00	334.22	46.72	-23.2	-23.7	19.9	0.00e+00	0	42	0	2567962624	7	3841
2026-01-14 12:33:30.00	334.30	46.42	-23.1	-23.6	20.0	0.00e+00	0	42	0	2573205504	7	3810
2026-01-14 12:33:31.00	334.37	46.11	-23.2	-23.8	19.8	0.00e+00	0	43	0	2578448384	7	3871
2026-01-14 12:33:32.00	334.45	45.80	-23.2	-23.9	19.8	0.00e+00	0	42	0	2584739840	7	3878
2026-01-14 12:33:33.01	334.52	45.50	-23.3	-24.0	19.8	0.00e+00	0	43	0	2589982720	7	3904
2026-01-14 12:33:34.02	334.60	45.20	-23.1	-23.6	19.9	0.00e+00	0	42	0	2596274176	7	3820
2026-01-14 12:33:35.02	334.67	44.90	-23.0	-23.4	20.0	0.00e+00	0	42	0	2601517056	7	3770
2026-01-14 12:33:36.01	334.74	44.61	-23.1	-23.5	20.0	0.00e+00	0	43	0	2606759936	7	3797
2026-01-14 12:33:37.02	334.81	44.31	-23.0	-23.4	20.0	0.00e+00	0	43	0	2613051392	7	3764
2026-01-14 12:33:38.01	334.88	44.02	-22.9	-23.2	20.1	0.00e+00	0	43	0	2618294272	7	3718
2026-01-14 12:33:39.02	334.94	43.73	-22.9	-23.3	20.1	0.00e+00	0	43	0	2624585728	7	3739
2026-01-14 12:33:40.02	335.01	43.44	-22.9	-23.2	20.1	0.00e+00	0	42	0	2629828608	7	3719
2026-01-14 12:33:41.03	335.08	43.16	-23.0	-23.4	20.0	0.00e+00	0	43	0	2635071488	7	3776
2026-01-14 12:33:42.03	335.14	42.87	-23.2	-23.9	19.8	0.00e+00	0	42	0	2641362944	7	3883
2026-01-14 12:33:43.04	335.20	42.59	-23.1	-23.6	19.9	0.00e+00	0	42	0	2646605824	7	3808
2026-01-14 12:33:44.04	335.26	42.31	-23.0	-23.5	20.0	0.00e+00	0	42	0	2651848704	7	3787
2026-01-14 12:33:45.04	335.32	42.03	-23.1	-23.6	19.9	0.00e+00	0	42	0	2658140160	7	3813
2026-01-14 12:33:46.06	335.38	41.75	-23.1	-23.5	19.9	0.00e+00	0	43	0	2663383040	7	3801
2026-01-14 12:33:47.06	335.44	41.48	-23.1	-23.5	19.9	0.00e+00	0	42	0	2669674496	7	3801
2026-01-14 12:33:48.07	335.50	41.21	-23.1	-23.7	19.8	0.00e+00	0	43	0	2674917376	7	3839
2026-01-14 12:33:49.07	335.56	40.94	-23.0	-23.3	20.0	0.00e+00	0	42	0	2680160256	7	3757
2026-01-14 12:33:50.08	335.61	40.67	-22.8	-23.1	20.1	0.00e+00	0	42	0	2686451712	7	3699
2026-01-14 12:33:51.08	335.67	40.41	-22.9	-23.2	20.1	0.00e+00	0	43	0	2691694592	7	3720
2026-01-14 12:33:52.07	335.72	40.15	-23.0	-23.5	19.9	0.00e+00	0	43	0	2697986048	7	3794
2026-01-14 12:33:53.07	335.78	39.89	-23.2	-23.8	19.8	0.00e+00	0	43	0	2703228928	7	3862
2026-01-14 12:33:54.08	335.83	39.63	-23.1	-23.7	19.8	0.00e+00	0	43	0	2708471808	7	3842
2026-01-14 12:33:55.08	335.88	39.37	-23.2	-23.9	19.7	0.00e+00	0	43	0	2714763264	7	3886
2026-01-14 12:33:56.09	335.93	39.11	-23.5	-24.3	19.5	0.00e+00	0	43	0	2720006144	7	3988
2026-01-14 12:33:57.09	335.98	38.86	-23.2	-23.9	19.7	0.00e+00	0	42	0	2725249024	7	3883
2026-01-14 12:33:58.09	336.03	38.61	-23.2	-23.9	19.8	0.00e+00	0	43	0	2731540480	7	3877
2026-01-14 12:33:59.09	336.08	38.36	-23.2	-23.9	19.7	0.00e+00	0	43	0	2736783360	7	3892
2026-01-14 12:34:00.09	336.13	38.11	-23.2	-23.8	19.8	0.00e+00	0	43	0	2742026240	7	3869
2026-01-14 12:34:01.10	336.18	37.86	-23.4	-24.2	19.5	0.00e+00	0	42	0	2748317696	7	3958
2026-01-14 12:34:02.11	336.23	37.62	-23.1	-23.5	19.9	0.00e+00	0	42	0	2753560576	7	3806
2026-01-14 12:34:03.10	336.27	37.38	-22.8	-23.4	20.2	0.00e+00	0	42	0	2759852032	6	3881
2026-01-14 12:34:04.11	336.32	37.13	-22.6	-23.0	20.4	0.00e+00	0	42	0	2765094912	6	3797
2026-01-14 12:34:05.11	336.36	36.90	-22.7	-23.2	20.3	0.00e+00	0	43	0	2771386368	6	3834
2026-01-14 12:34:06.12	336.41	36.66	-22.9	-23.6	20.1	0.00e+00	0	43	0	2776629248	6	3933
2026-01-14 12:34:07.11	336.45	36.42	-22.8	-23.5	20.1	0.00e+00	0	43	0	2781872128	6	3911
2026-01-14 12:34:08.11	336.50	36.19	-23.0	-23.9	19.9	0.00e+00	0	43	0	2788163584	6	4008
2026-01-14 12:34:09.12	336.54	35.96	-23.1	-24.1	19.8	0.00e+00	0	43	0	2793406464	6	4055
2026-01-14 12:34:10.12	336.58	35.73	-23.3	-24.5	19.6	0.00e+00	0	43	0	2798649344	6	4143
2026-01-14 12:34:11.12	336.62	35.50	-23.3	-24.6	19.6	0.00e+00	0	43	0	2804940800	6	4178
2026-01-14 12:34:12.12	336.66	35.27	-23.4	-24.8	19.5	0.00e+00	0	43	0	2810183680	6	4215
2026-01-14 12:34:13.12	336.71	35.04	-23.4	-24.7	19.5	0.00e+00	0	43	0	2815426560	6	4203
2026-01-14 12:34:14.13	336.75	34.82	-23.6	-24.6	19.3	0.00e+00	0	43	0	2821718016	7	4065
2026-01-14 12:34:15.13	336.79	34.60	-23.7	-25.0	19.1	0.00e+00	0	43	0	2826960896	7	4150
2026-01-14 12:34:16.13	336.82	34.38	-23.5	-24.5	19.4	0.00e+00	0	43	0	2833252352	7	4031
2026-01-14 12:34:17.14	336.86	34.15	-23.2	-23.7	19.8	0.00e+00	0	43	0	2838495232	7	3844
2026-01-14 12:34:18.14	336.90	33.94	-22.9	-23.2	20.0	0.00e+00	0	42	0	2843738112	7	3729
2026-01-14 12:34:19.14	336.94	33.72	-22.8	-23.0	20.1	0.00e+00	0	42	0	2850029568	7	3680
2026-01-14 12:34:20.15	336.98	33.50	-22.9	-23.1	20.1	0.00e+00	0	43	0	2855272448	7	3701
2026-01-14 12:34:21.15	337.01	33.29	-23.0	-23.3	20.0	0.00e+00	0	43	0	2861563904	7	3747
2026-01-14 12:34:22.15	337.05	33.08	-22.9	-23.2	20.0	0.00e+00	0	42	0	2866806784	7	3730
2026-01-14 12:34:23.15	337.09	32.87	-23.0	-23.4	19.9	0.00e+00	0	43	0	2872049664	7	3772
2026-01-14 12:34:24.15	337.12	32.66	-23.0	-23.4	19.9	0.00e+00	0	43	0	2878341120	7	3761
2026-01-14 12:34:25.16	337.16	32.45	-23.0	-23.4	19.9	0.00e+00	0	43	0	2883584000	7	3777
2026-01-14 12:34:26.16	337.19	32.25	-23.1	-23.6	19.8	0.00e+00	0	42	0	2888826880	7	3814
2026-01-14 12:34:27.16	337.23	32.04	-23.2	-23.8	19.7	0.00e+00	0	43	0	2895118336	7	3867
2026-01-14 12:34:28.16	337.26	31.84	-23.1	-23.7	19.7	0.00e+00	0	43	0	2900361216	7	3840
2026-01-14 12:34:29.17	337.30	31.64	-23.2	-23.8	19.7	0.00e+00	0	43	0	2906652672	7	3860
2026-01-14 12:34:30.17	337.33	31.44	-23.3	-24.0	19.6	0.00e+00	0	43	0	2911895552	7	3904
2026-01-14 12:34:31.17	337.36	31.24	-23.2	-23.9	19.6	0.00e+00	0	43	0	2917138432	7	3891
2026-01-14 12:34:32.18	337.40	31.04	-23.3	-24.1	19.6	0.00e+00	0	43	0	2923429888	7	3929
2026-01-14 12:34:33.19	337.43	30.84	-23.2	-23.9	19.6	0.00e+00	0	43	0	2928672768	7	3884
2026-01-14 12:34:34.20	337.46	30.64	-23.3	-24.0	19.5	0.00e+00	0	43	0	2933915648	7	3913
2026-01-14 12:34:35.20	337.49	30.45	-23.3	-24.1	19.5	0.00e+00	0	43	0	2940207104	7	3927
2026-01-14 12:34:36.21	337.52	30.25	-23.3	-24.0	19.6	0.00e+00	0	43	0	2945449984	7	3914
2026-01-14 12:34:37.21	337.55	30.06	-23.2	-23.9	19.6	0.00e+00	0	43	0	2951741440	7	3886
2026-01-14 12:34:38.22	337.59	29.87	-23.3	-23.9	19.6	0.00e+00	0	43	0	2956984320	7	3894
2026-01-14 12:34:39.22	337.62	29.68	-23.2	-23.8	19.6	0.00e+00	0	43	0	2963275776	7	3872
2026-01-14 12:34:40.23	337.65	29.49	-23.2	-23.9	19.6	0.00e+00	0	43	0	2968518656	7	3882
2026-01-14 12:34:41.23	337.68	29.31	-23.1	-23.7	19.7	0.00e+00	0	43	0	2973761536	7	3840
2026-01-14 12:34:42.23	337.71	29.12	-23.2	-23.8	19.6	0.00e+00	0	43	0	2980052992	7	3851
2026-01-14 12:34:43.24	337.74	28.94	-23.4	-24.2	19.4	0.00e+00	0	43	0	2985295872	7	3962
2026-01-14 12:34:44.24	337.76	28.76	-23.4	-24.2	19.5	0.00e+00	0	43	0	2990538752	7	3953
2026-01-14 12:34:45.24	337.79	28.58	-23.6	-24.6	19.2	0.00e+00	0	43	0	2996830208	7	4062
2026-01-14 12:34:46.24	337.82	28.40	-23.8	-25.0	19.0	0.00e+00	0	42	0	3002073088	7	4158
2026-01-14 12:34:47.25	337.85	28.21	-23.6	-24.7	19.2	0.00e+00	0	42	0	3008364544	7	4082
2026-01-14 12:34:48.25	337.88	28.04	-23.7	-24.9	19.1	0.00e+00	0	43	0	3013607424	7	4141
2026-01-14 12:34:49.26	337.90	27.86	-23.8	-25.2	18.9	0.00e+00	0	43	0	3018850304	7	4199
2026-01-14 12:34:50.26	337.93	27.68	-23.7	-24.9	19.1	0.00e+00	0	43	0	3025141760	7	4124
2026-01-14 12:34:51.26	337.96	27.51	-23.7	-24.9	19.1	0.00e+00	0	43	0	3030384640	7	4125
2026-01-14 12:34:52.27	337.99	27.33	-23.7	-24.8	19.1	0.00e+00	0	43	0	3036676096	7	4106
2026-01-14 12:34:53.27	338.01	27.16	-23.5	-24.5	19.2	0.00e+00	0	43	0	3041918976	7	4034
2026-01-14 12:34:54.28	338.04	26.99	-23.3	-24.1	19.5	0.00e+00	0	43	0	3047161856	7	3929
2026-01-14 12:34:55.29	338.07	26.82	-23.1	-23.7	19.6	0.00e+00	0	43	0	3053453312	7	3839
2026-01-14 12:34:56.29	338.09	26.65	-23.1	-23.5	19.7	0.00e+00	0	43	0	3058696192	7	3800
2026-01-14 12:34:57.29	338.12	26.48	-23.1	-23.6	19.7	0.00e+00	0	43	0	3063939072	7	3820
2026-01-14 12:34:58.30	338.14	26.31	-23.1	-23.5	19.7	0.00e+00	0	43	0	3070230528	7	3798
2026-01-14 12:34:59.31	338.17	26.15	-23.1	-23.6	19.7	0.00e+00	0	43	0	3075473408	7	3806
2026-01-14 12:35:00.31	338.19	25.98	-23.1	-23.6	19.7	0.00e+00	0	43	0	3081764864	7	3819
2026-01-14 12:35:01.32	338.22	25.82	-23.2	-23.8	19.6	0.00e+00	0	43	0	3087007744	7	3861
2026-01-14 12:35:02.32	338.24	25.65	-23.2	-23.8	19.6	0.00e+00	0	43	0	3092250624	7	3862
2026-01-14 12:35:03.33	338.27	25.49	-23.3	-24.0	19.4	0.00e+00	0	43	0	3098542080	7	3920
2026-01-14 12:35:04.34	338.29	25.33	-23.3	-24.1	19.4	0.00e+00	0	43	0	3103784960	7	3936
2026-01-14 12:35:05.34	338.31	25.17	-23.4	-24.3	19.3	0.00e+00	0	43	0	3110076416	7	3988
2026-01-14 12:35:06.34	338.34	25.01	-23.5	-24.4	19.3	0.00e+00	0	43	0	3115319296	7	4004
2026-01-14 12:35:07.34	338.36	24.85	-23.6	-24.6	19.2	0.00e+00	0	43	0	3120562176	7	4057
2026-01-14 12:35:08.34	338.39	24.69	-23.5	-24.6	19.2	0.00e+00	0	43	0	3126853632	7	4052
2026-01-14 12:35:09.35	338.41	24.54	-23.7	-24.8	19.1	0.00e+00	0	43	0	3132096512	7	4110
2026-01-14 12:35:10.36	338.43	24.38	-23.7	-25.0	18.9	0.00e+00	0	43	0	3138387968	7	4152
2026-01-14 12:35:11.36	338.45	24.23	-23.8	-25.1	18.9	0.00e+00	0	43	0	3143630848	7	4190
2026-01-14 12:35:12.35	338.48	24.07	-23.8	-25.1	18.9	0.00e+00	0	42	0	3148873728	7	4193
2026-01-14 12:35:13.35	338.50	23.92	-23.9	-25.3	18.8	0.00e+00	0	43	0	3155165184	7	4242
2026-01-14 12:35:14.35	338.52	23.77	-23.9	-25.3	18.8	0.00e+00	0	43	0	3160408064	7	4241
2026-01-14 12:35:15.35	338.54	23.62	-24.0	-25.4	18.7	0.00e+00	0	43	0	3165650944	7	4273
2026-01-14 12:35:16.36	338.57	23.47	-23.9	-25.4	18.7	0.00e+00	0	43	0	3171942400	7	4257
2026-01-14 12:35:17.36	338.59	23.32	-24.0	-25.4	18.7	0.00e+00	0	43	0	3177185280	7	4276
2026-01-14 12:35:18.37	338.61	23.17	-24.0	-25.5	18.7	0.00e+00	0	42	0	3183476736	7	4285
2026-01-14 12:35:19.37	338.63	23.02	-24.1	-25.3	18.6	0.00e+00	0	43	0	3188719616	8	4112
2026-01-14 12:35:20.38	338.65	22.88	-24.2	-25.4	18.5	0.00e+00	0	43	0	3193962496	8	4146
2026-01-14 12:35:21.38	338.67	22.73	-24.1	-25.3	18.5	0.00e+00	0	43	0	3200253952	8	4127
2026-01-14 12:35:22.37	338.69	22.59	-24.2	-25.4	18.5	0.00e+00	0	43	0	3205496832	8	4154
2026-01-14 12:35:23.38	338.71	22.44	-24.1	-25.2	18.5	0.00e+00	0	43	0	3210739712	8	4099
2026-01-14 12:35:24.39	338.73	22.30	-24.1	-25.2	18.6	0.00e+00	0	43	0	3217031168	8	4090
2026-01-14 12:35:25.39	338.75	22.16	-24.2	-25.4	18.5	0.00e+00	0	43	0	3222274048	8	4144
2026-01-14 12:35:26.40	338.78	22.01	-24.2	-25.4	18.4	0.00e+00	0	43	0	3228565504	8	4141
2026-01-14 12:35:27.41	338.80	21.87	-24.2	-25.4	18.4	0.00e+00	0	43	0	3233808384	8	4149
2026-01-14 12:35:28.41	338.82	21.73	-24.3	-25.6	18.3	0.00e+00	0	43	0	3239051264	8	4183
2026-01-14 12:35:29.41	338.84	21.59	-24.2	-25.5	18.4	0.00e+00	0	43	0	3245342720	8	4164
2026-01-14 12:35:30.42	338.86	21.45	-24.2	-25.5	18.4	0.00e+00	0	43	0	3250585600	8	4170
2026-01-14 12:35:31.42	338.87	21.32	-24.3	-25.6	18.3	0.00e+00	0	43	0	3256877056	8	4192
2026-01-14 12:35:32.41	338.89	21.18	-24.4	-25.8	18.2	0.00e+00	0	43	0	3262119936	8	4251
2026-01-14 12:35:33.42	338.91	21.04	-24.3	-25.6	18.3	0.00e+00	0	43	0	3267362816	8	4202
2026-01-14 12:35:34.42	338.93	20.91	-24.5	-25.6	18.1	0.00e+00	0	42	0	3273654272	9	4081
2026-01-14 12:35:35.43	338.95	20.77	-24.7	-26.0	17.8	0.00e+00	0	43	0	3278897152	9	4180
2026-01-14 12:35:36.42	338.97	20.64	-24.8	-26.3	17.7	0.00e+00	0	43	0	3284140032	9	4268
2026-01-14 12:35:37.42	338.99	20.51	-24.8	-26.2	17.8	0.00e+00	0	43	0	3290431488	9	4225
2026-01-14 12:35:38.43	339.01	20.37	-24.9	-26.4	17.6	0.00e+00	0	43	0	3295674368	9	4286
2026-01-14 12:35:39.43	339.03	20.24	-25.3	-26.8	17.2	0.00e+00	0	43	0	3300917248	10	4274
2026-01-14 12:35:40.44	339.04	20.11	-25.4	-26.9	17.1	0.00e+00	0	43	0	3307208704	10	4306
2026-01-14 12:35:41.44	339.06	19.98	-25.1	-26.4	17.4	0.00e+00	0	43	0	3312451584	10	4167
2026-01-14 12:35:42.44	339.08	19.85	-25.0	-26.1	17.5	0.00e+00	0	43	0	3318743040	10	4100
2026-01-14 12:35:43.44	339.10	19.72	-25.0	-26.1	17.5	0.00e+00	0	43	0	3323985920	10	4104
2026-01-14 12:35:44.45	339.12	19.59	-25.0	-26.1	17.5	0.00e+00	0	43	0	3330277376	10	4102
2026-01-14 12:35:45.45	339.14	19.46	-24.9	-25.8	17.6	0.00e+00	0	43	0	3335520256	10	4032
2026-01-14 12:35:46.45	339.15	19.33	-24.7	-25.5	17.8	0.00e+00	0	43	0	3340763136	10	3936
2026-01-14 12:35:47.45	339.17	19.21	-24.5	-25.1	18.0	0.00e+00	0	42	0	3347054592	10	3864
2026-01-14 12:35:48.45	339.19	19.08	-24.5	-25.0	18.1	0.00e+00	0	43	0	3352297472	10	3830
2026-01-14 12:35:49.45	339.21	18.96	-24.5	-25.2	18.0	0.00e+00	0	43	0	3357540352	10	3869
2026-01-14 12:35:50.45	339.22	18.83	-24.6	-25.2	18.0	0.00e+00	0	43	0	3363831808	10	3880
2026-01-14 12:35:51.45	339.24	18.71	-24.6	-25.2	18.0	0.00e+00	0	43	0	3369074688	10	3873
2026-01-14 12:35:52.45	339.26	18.59	-24.6	-25.4	17.9	0.00e+00	0	43	0	3374317568	10	3920
2026-01-14 12:35:53.45	339.27	18.46	-24.7	-25.5	17.8	0.00e+00	0	42	0	3380609024	10	3944
2026-01-14 12:35:54.46	339.29	18.34	-24.7	-25.4	17.8	0.00e+00	0	43	0	3385851904	10	3927
2026-01-14 12:35:55.46	339.31	18.22	-24.7	-25.6	17.7	0.00e+00	0	43	0	3392143360	10	3964
2026-01-14 12:35:56.47	339.32	18.10	-24.8	-25.6	17.7	0.00e+00	0	43	0	3397386240	10	3983
2026-01-14 12:35:57.47	339.34	17.98	-24.8	-25.7	17.7	0.00e+00	0	43	0	3402629120	10	3996
2026-01-14 12:35:58.47	339.36	17.86	-24.9	-25.9	17.6	0.00e+00	0	43	0	3408920576	10	4047
2026-01-14 12:35:59.48	339.37	17.74	-24.9	-25.9	17.6	0.00e+00	0	43	0	3414163456	10	4039
2026-01-14 12:36:00.49	339.39	17.62	-24.9	-26.0	17.5	0.00e+00	0	43	0	3419406336	10	4072
2026-01-14 12:36:01.49	339.41	17.50	-25.0	-26.1	17.5	0.00e+00	0	43	0	3425697792	10	4094
2026-01-14 12:36:02.48	339.42	17.38	-24.9	-26.0	17.5	0.00e+00	0	43	0	3430940672	10	4065
2026-01-14 12:36:03.48	339.44	17.27	-25.0	-26.2	17.4	0.00e+00	0	43	0	3436183552	10	4111
2026-01-14 12:36:04.48	339.45	17.15	-25.0	-26.3	17.4	0.00e+00	0	43	0	3442475008	10	4136
2026-01-14 12:36:05.49	339.47	17.03	-25.1	-26.3	17.3	0.00e+00	0	43	0	3447717888	10	4151
2026-01-14 12:36:06.49	339.49	16.92	-25.1	-26.4	17.3	0.00e+00	0	43	0	3454009344	10	4171
2026-01-14 12:36:07.49	339.50	16.80	-25.1	-26.4	17.2	0.00e+00	0	43	0	3459252224	10	4188
2026-01-14 12:36:08.50	339.52	16.69	-25.2	-26.5	17.2	0.00e+00	0	43	0	3465543680	10	4194
2026-01-14 12:36:09.50	339.53	16.58	-25.2	-26.5	17.2	0.00e+00	0	43	0	3470786560	10	4211
2026-01-14 12:36:10.51	339.55	16.46	-25.2	-26.6	17.1	0.00e+00	0	42	0	3476029440	10	4237
2026-01-14 12:36:11.51	339.56	16.35	-25.4	-26.9	16.9	0.00e+00	0	43	0	3482320896	10	4318
2026-01-14 12:36:12.51	339.58	16.24	-25.3	-26.9	17.0	0.00e+00	0	43	0	3487563776	10	4300
2026-01-14 12:36:13.51	339.59	16.13	-25.5	-27.2	16.8	0.00e+00	0	43	0	3492806656	10	4375
2026-01-14 12:36:14.51	339.61	16.02	-25.6	-27.1	16.6	0.00e+00	0	43	0	3499098112	11	4236
2026-01-14 12:36:15.52	339.62	15.90	-25.7	-27.2	16.5	0.00e+00	0	43	0	3504340992	11	4289
2026-01-14 12:36:16.52	339.64	15.79	-25.7	-27.3	16.5	0.00e+00	0	43	0	3509583872	11	4295
2026-01-14 12:36:17.52	339.65	15.68	-25.9	-27.6	16.3	0.00e+00	0	43	0	3515875328	11	4373
2026-01-14 12:36:18.53	339.67	15.57	-25.9	-27.1	16.2	0.00e+00	0	43	0	3521118208	12	4151
2026-01-14 12:36:19.53	339.68	15.47	-25.9	-27.1	16.2	0.00e+00	0	43	0	3527409664	12	4137
2026-01-14 12:36:20.53	339.70	15.36	-26.0	-27.3	16.1	0.00e+00	0	43	0	3532652544	12	4200
2026-01-14 12:36:21.53	339.71	15.25	-26.0	-27.4	16.0	0.00e+00	0	43	0	3537895424	12	4227
2026-01-14 12:36:22.53	339.73	15.14	-26.1	-27.7	15.9	0.00e+00	0	42	0	3544186880	12	4291
2026-01-14 12:36:23.53	339.74	15.04	-26.2	-27.9	15.8	0.00e+00	0	43	0	3549429760	12	4345
2026-01-14 12:36:24.53	339.75	14.93	-26.1	-27.5	16.0	0.00e+00	0	43	0	3554672640	12	4245
2026-01-14 12:36:25.53	339.77	14.83	-25.9	-27.2	16.1	0.00e+00	0	43	0	3560964096	12	4169
2026-01-14 12:36:26.53	339.78	14.72	-25.9	-27.1	16.2	0.00e+00	0	43	0	3566206976	12	4136
2026-01-14 12:36:27.53	339.80	14.62	-25.9	-27.1	16.2	0.00e+00	0	43	0	3571449856	12	4138
2026-01-14 12:36:28.53	339.81	14.51	-25.9	-27.2	16.1	0.00e+00	0	43	0	3577741312	12	4168
2026-01-14 12:36:29.53	339.82	14.41	-25.9	-27.1	16.2	1.10e-06	0	43	0	3582984192	12	4153
2026-01-14 12:36:30.54	339.84	14.30	-25.8	-26.9	16.3	0.00e+00	0	43	0	3589275648	12	4083
2026-01-14 12:36:31.54	339.85	14.20	-25.8	-27.0	16.2	0.00e+00	0	43	0	3594518528	12	4109
2026-01-14 12:36:32.55	339.87	14.10	-25.8	-26.9	16.3	1.10e-06	0	43	0	3600809984	12	4098
2026-01-14 12:36:33.55	339.88	14.00	-25.8	-26.9	16.2	0.00e+00	0	43	0	3606052864	12	4101
2026-01-14 12:36:34.55	339.89	13.89	-25.9	-27.1	16.1	0.00e+00	0	43	0	3611295744	12	4153
2026-01-14 12:36:35.56	339.91	13.79	-25.8	-26.9	16.2	0.00e+00	0	43	0	3617587200	12	4102
2026-01-14 12:36:36.56	339.92	13.69	-25.7	-26.8	16.3	0.00e+00	0	43	0	3622830080	12	4061
2026-01-14 12:36:37.57	339.93	13.59	-25.7	-26.8	16.3	0.00e+00	0	42	0	3628072960	12	4065
2026-01-14 12:36:38.57	339.95	13.49	-25.8	-26.8	16.3	0.00e+00	0	43	0	3634364416	12	4076
2026-01-14 12:36:39.58	339.96	13.39	-25.9	-27.1	16.1	1.10e-06	0	43	0	3639607296	12	4130
2026-01-14 12:36:40.58	339.97	13.29	-25.8	-27.0	16.2	0.00e+00	0	43	0	3644850176	12	4105
2026-01-14 12:36:41.58	339.99	13.19	-25.8	-27.0	16.1	0.00e+00	0	42	0	3651141632	12	4125
2026-01-14 12:36:42.59	340.00	13.09	-26.0	-27.3	16.0	0.00e+00	0	43	0	3656384512	12	4187
2026-01-14 12:36:43.59	340.01	12.99	-25.9	-27.2	16.0	0.00e+00	0	43	0	3662675968	12	4175
2026-01-14 12:36:44.59	340.03	12.90	-26.0	-27.4	15.9	0.00e+00	0	43	0	3667918848	12	4233
2026-01-14 12:36:45.60	340.04	12.80	-26.0	-27.3	16.0	0.00e+00	0	43	0	3674210304	12	4195
2026-01-14 12:36:46.60	340.05	12.70	-26.0	-27.4	15.9	0.00e+00	0	43	0	3679453184	12	4225
2026-01-14 12:36:47.60	340.06	12.61	-26.1	-27.6	15.8	0.00e+00	0	43	0	3684696064	12	4266
2026-01-14 12:36:48.61	340.08	12.51	-26.0	-27.4	15.9	0.00e+00	0	43	0	3690987520	12	4216
2026-01-14 12:36:49.61	340.09	12.41	-26.0	-27.5	15.9	0.00e+00	0	43	0	3696230400	12	4245
2026-01-14 12:36:50.61	340.10	12.32	-26.1	-27.5	15.8	0.00e+00	0	43	0	3701473280	12	4260
2026-01-14 12:36:51.62	340.12	12.22	-26.1	-27.5	15.8	0.00e+00	0	43	0	3707764736	12	4254
2026-01-14 12:36:52.62	340.13	12.13	-26.0	-27.4	15.9	0.00e+00	0	43	0	3713007616	12	4224
2026-01-14 12:36:53.63	340.14	12.03	-26.0	-27.4	15.9	0.00e+00	0	43	0	3718250496	12	4219
2026-01-14 12:36:54.63	340.15	11.94	-26.1	-27.7	15.7	0.00e+00	0	43	0	3724541952	12	4304
2026-01-14 12:36:55.64	340.17	11.84	-26.2	-27.8	15.7	0.00e+00	0	43	0	3729784832	12	4323
2026-01-14 12:36:56.65	340.18	11.75	-26.2	-27.9	15.6	0.00e+00	0	43	0	3736076288	12	4372
2026-01-14 12:36:57.65	340.19	11.66	-26.2	-27.8	15.6	0.00e+00	0	43	0	3741319168	12	4343
2026-01-14 12:36:58.65	340.20	11.57	-26.3	-27.9	15.6	0.00e+00	0	43	0	3747610624	12	4373
2026-01-14 12:36:59.65	340.21	11.47	-26.3	-27.9	15.6	0.00e+00	0	43	0	3752853504	12	4370
2026-01-14 12:37:00.66	340.23	11.38	-26.4	-28.3	15.3	0.00e+00	0	42	0	3758096384	12	4481
2026-01-14 12:37:01.67	340.24	11.29	-26.4	-27.9	15.3	1.10e-06	0	43	0	3764387840	13	4247
2026-01-14 12:37:02.67	340.25	11.20	-26.5	-28.1	15.2	0.00e+00	0	43	0	3769630720	13	4295
2026-01-14 12:37:03.68	340.26	11.11	-26.4	-27.7	15.4	0.00e+00	0	43	0	3774873600	13	4189
2026-01-14 12:37:04.68	340.27	11.02	-26.5	-28.0	15.2	0.00e+00	0	43	0	3781165056	13	4289
2026-01-14 12:37:05.69	340.29	10.93	-26.6	-28.2	15.1	0.00e+00	0	43	0	3786407936	13	4335
2026-01-14 12:37:06.69	340.30	10.84	-26.6	-28.3	15.0	0.00e+00	0	43	0	3791650816	13	4362
2026-01-14 12:37:07.70	340.31	10.75	-26.6	-28.3	15.0	2.20e-06	0	43	0	3797942272	13	4370
2026-01-14 12:37:08.70	340.32	10.66	-26.6	-28.2	15.1	1.10e-06	0	43	0	3803185152	13	4346
2026-01-14 12:37:09.70	340.33	10.57	-26.6	-28.3	15.0	2.20e-06	0	43	0	3809476608	13	4355
2026-01-14 12:37:10.71	340.35	10.48	-26.7	-28.3	15.0	0.00e+00	0	43	0	3814719488	13	4372
2026-01-14 12:37:11.71	340.36	10.39	-26.8	-28.6	14.8	1.10e-06	0	43	0	3821010944	13	4452
2026-01-14 12:37:12.71	340.37	10.30	-26.8	-28.7	14.8	0.00e+00	0	43	0	3826253824	13	4476
2026-01-14 12:37:13.71	340.38	10.22	-26.8	-28.6	14.8	0.00e+00	0	43	0	3831496704	13	4451
2026-01-14 12:37:14.71	340.39	10.13	-26.8	-28.7	14.7	0.00e+00	0	43	0	3837788160	13	4488
2026-01-14 12:37:15.72	340.40	10.04	-26.7	-28.4	14.9	1.10e-06	0	43	0	3843031040	13	4384
