passes_logs/2026/01/14/R2M6_AANII_01/R2M6_AANII_01__20260114_125925_AQUA_rec.log

#Pass ID: 20260114_125925_AQUA
#Satellite: AQUA
#Configuration: AQUA
#almurnet v.1.7.20240730
#Start time: 2026-01-14 12:59:24

#Version: 2.2.20231116
#Station: R2M6_AANII_01
#Location: 30.233357 lon 59.946436 lat
#TLE: 1 27424U 02022A   26013.58555111  .00000773  00000+0  16469-3 0  9993
#TLE: 2 27424  98.4079 339.9892 0002045  80.0365 334.6894 14.61818766260681

#Time	Az	El	Level	Level2	SNR	BER	BlckErr	Temp	State	Recorded	gain1	gain2
2026-01-14 12:59:24.75	192.39	6.95	-30.5	-34.5	5.3	7.08e-01	0	40	0	0	23	5727
2026-01-14 12:59:25.74	192.46	7.03	-31.4	-37.8	5.1	7.07e-01	0	40	0	0	23	7510
2026-01-14 12:59:26.75	192.53	7.10	-31.6	-38.0	5.1	7.09e-01	0	40	104	0	24	7530
2026-01-14 12:59:27.75	192.60	7.18	-31.5	-36.5	14.7	6.06e-01	0	40	0	0	24	6474
2026-01-14 12:59:28.76	192.67	7.26	-31.6	-37.1	14.3	6.08e-01	0	40	0	1572864	24	6788
2026-01-14 12:59:29.76	192.74	7.34	-31.5	-36.8	14.5	6.06e-01	0	40	0	3670016	24	6612
2026-01-14 12:59:30.77	192.82	7.41	-31.3	-36.0	15.2	6.06e-01	0	40	0	5242880	24	6159
2026-01-14 12:59:31.77	192.89	7.49	-31.0	-35.0	15.9	6.05e-01	0	40	0	7340032	24	5679
2026-01-14 12:59:32.77	192.96	7.57	-30.7	-34.5	16.5	6.09e-01	0	40	0	9437184	23	5571
2026-01-14 12:59:33.77	193.03	7.65	-30.6	-34.1	16.9	6.05e-01	0	40	0	11010048	23	5371
2026-01-14 12:59:34.77	193.11	7.72	-30.4	-33.5	17.3	6.06e-01	0	40	0	13107200	23	5144
2026-01-14 12:59:35.78	193.18	7.80	-30.3	-33.7	17.5	6.05e-01	0	40	0	14680064	22	5321
2026-01-14 12:59:36.78	193.26	7.88	-30.3	-33.8	17.4	6.05e-01	0	40	0	16777216	22	5355
2026-01-14 12:59:37.79	193.33	7.96	-30.3	-33.6	17.6	6.08e-01	0	41	0	18350080	22	5284
2026-01-14 12:59:38.79	193.41	8.04	-30.3	-33.8	17.5	6.06e-01	0	40	0	20447232	22	5353
2026-01-14 12:59:39.79	193.48	8.12	-30.4	-33.9	17.5	6.05e-01	0	40	0	22544384	22	5384
2026-01-14 12:59:40.79	193.56	8.20	-30.4	-33.8	17.5	6.07e-01	0	40	0	24117248	22	5357
2026-01-14 12:59:41.79	193.63	8.28	-30.3	-33.5	17.7	6.05e-01	0	40	0	26214400	22	5237
2026-01-14 12:59:42.79	193.71	8.36	-30.4	-33.8	17.6	6.04e-01	0	41	0	27787264	22	5356
2026-01-14 12:59:43.79	193.79	8.44	-30.3	-33.6	17.7	6.08e-01	0	41	0	29884416	22	5250
2026-01-14 12:59:44.79	193.86	8.52	-30.3	-33.7	17.7	6.04e-01	0	40	0	31457280	22	5287
2026-01-14 12:59:45.79	193.94	8.60	-30.3	-33.6	17.7	6.08e-01	0	41	0	33554432	22	5249
2026-01-14 12:59:46.80	194.02	8.68	-30.3	-33.6	17.7	6.06e-01	0	40	0	35651584	22	5257
2026-01-14 12:59:47.80	194.10	8.76	-30.3	-33.6	17.7	6.08e-01	0	41	0	37224448	22	5248
2026-01-14 12:59:48.81	194.18	8.84	-30.3	-33.6	17.7	6.07e-01	0	41	0	39321600	22	5286
2026-01-14 12:59:49.81	194.26	8.93	-30.4	-34.0	17.4	6.07e-01	0	40	0	41418752	22	5451
2026-01-14 12:59:50.82	194.34	9.01	-30.4	-33.8	17.6	6.05e-01	0	41	0	42991616	22	5328
2026-01-14 12:59:51.83	194.42	9.09	-30.3	-33.5	17.8	6.07e-01	0	41	0	45088768	22	5227
2026-01-14 12:59:52.83	194.51	9.17	-30.2	-33.4	17.8	6.06e-01	0	41	0	46661632	22	5202
2026-01-14 12:59:53.83	194.59	9.26	-30.3	-33.6	17.7	6.09e-01	0	41	0	48758784	22	5287
2026-01-14 12:59:54.84	194.67	9.34	-30.3	-33.5	17.8	6.06e-01	0	41	0	50331648	22	5240
2026-01-14 12:59:55.84	194.75	9.42	-30.3	-33.7	17.7	6.07e-01	0	41	0	52428800	22	5301
2026-01-14 12:59:56.84	194.84	9.51	-30.2	-33.4	17.9	6.06e-01	0	41	0	54525952	22	5174
2026-01-14 12:59:57.84	194.92	9.59	-30.2	-33.2	18.0	6.08e-01	0	41	0	56098816	22	5109
2026-01-14 12:59:58.84	195.00	9.68	-30.1	-33.0	18.2	6.06e-01	0	41	0	58195968	22	5036
2026-01-14 12:59:59.85	195.09	9.76	-30.0	-32.7	18.3	6.06e-01	0	41	0	59768832	22	4924
2026-01-14 13:00:00.85	195.18	9.85	-30.1	-32.9	18.3	6.07e-01	0	41	0	61865984	22	4988
2026-01-14 13:00:01.85	195.26	9.93	-30.1	-32.9	18.2	6.05e-01	0	41	0	63963136	22	5000
2026-01-14 13:00:02.85	195.35	10.02	-30.1	-33.0	18.2	6.07e-01	0	41	0	65536000	22	5045
2026-01-14 13:00:03.85	195.43	10.10	-30.1	-32.9	18.2	6.05e-01	0	41	0	67633152	22	5005
2026-01-14 13:00:04.85	195.52	10.19	-30.1	-33.2	18.1	6.07e-01	0	41	0	69206016	22	5101
2026-01-14 13:00:05.86	195.61	10.27	-30.0	-32.9	18.2	6.06e-01	0	41	0	71303168	22	5006
2026-01-14 13:00:06.87	195.70	10.36	-29.9	-32.6	18.5	6.06e-01	0	41	0	73400320	22	4884
2026-01-14 13:00:07.86	195.79	10.45	-30.0	-33.3	18.3	6.04e-01	0	41	0	74973184	21	5276
2026-01-14 13:00:08.87	195.88	10.53	-29.9	-33.0	18.5	6.06e-01	0	41	0	77070336	21	5166
2026-01-14 13:00:09.87	195.97	10.62	-30.0	-33.4	18.2	6.06e-01	0	41	0	78643200	21	5302
2026-01-14 13:00:10.87	196.06	10.71	-30.0	-33.2	18.3	6.06e-01	0	41	0	80740352	21	5238
2026-01-14 13:00:11.88	196.15	10.80	-30.0	-33.1	18.5	6.05e-01	0	41	0	82313216	21	5182
2026-01-14 13:00:12.88	196.24	10.88	-29.8	-32.8	18.7	6.06e-01	0	41	0	84410368	21	5064
2026-01-14 13:00:13.89	196.34	10.97	-29.9	-32.9	18.6	6.08e-01	0	41	0	86507520	21	5118
2026-01-14 13:00:14.89	196.43	11.06	-30.0	-33.0	18.6	6.05e-01	0	41	0	88080384	21	5104
2026-01-14 13:00:15.89	196.52	11.15	-29.9	-32.9	18.6	6.07e-01	0	41	0	90177536	21	5091
2026-01-14 13:00:16.89	196.62	11.24	-30.0	-33.2	18.4	6.03e-01	0	41	0	91750400	21	5191
2026-01-14 13:00:17.90	196.71	11.33	-30.0	-33.0	18.6	6.07e-01	0	41	0	93847552	21	5117
2026-01-14 13:00:18.90	196.81	11.42	-30.0	-33.0	18.6	6.06e-01	0	41	0	95944704	21	5107
2026-01-14 13:00:19.90	196.90	11.51	-29.9	-32.9	18.7	6.06e-01	0	41	0	97517568	21	5066
2026-01-14 13:00:20.90	197.00	11.60	-29.9	-32.9	18.7	6.06e-01	0	41	0	99614720	21	5091
2026-01-14 13:00:21.90	197.10	11.69	-29.9	-32.9	18.7	6.07e-01	0	41	0	101187584	21	5058
2026-01-14 13:00:22.91	197.20	11.78	-29.9	-32.8	18.7	6.07e-01	0	41	0	103284736	21	5045
2026-01-14 13:00:23.92	197.30	11.88	-30.0	-33.2	18.5	6.07e-01	0	41	0	104857600	21	5191
2026-01-14 13:00:24.92	197.40	11.97	-29.9	-32.9	18.7	6.07e-01	0	41	0	106954752	21	5059
2026-01-14 13:00:25.93	197.50	12.06	-29.7	-32.4	19.0	6.05e-01	0	41	0	109051904	21	4885
2026-01-14 13:00:26.93	197.60	12.15	-29.7	-32.2	19.1	6.07e-01	0	41	0	110624768	21	4828
2026-01-14 13:00:27.93	197.70	12.24	-29.7	-32.3	19.1	6.05e-01	0	41	0	112721920	21	4870
2026-01-14 13:00:28.94	197.80	12.34	-29.7	-32.3	19.1	6.06e-01	0	42	0	114294784	21	4855
2026-01-14 13:00:29.94	197.90	12.43	-29.7	-32.2	19.2	6.05e-01	0	42	0	116391936	21	4811
2026-01-14 13:00:30.95	198.01	12.53	-29.8	-32.4	19.1	6.08e-01	0	42	0	118489088	21	4889
2026-01-14 13:00:31.95	198.11	12.62	-29.9	-32.8	18.9	6.09e-01	0	41	0	120061952	21	5013
2026-01-14 13:00:32.94	198.21	12.71	-29.7	-32.2	19.2	6.06e-01	0	41	0	122159104	21	4815
2026-01-14 13:00:33.94	198.32	12.81	-29.6	-32.0	19.3	6.08e-01	0	41	0	123731968	21	4750
2026-01-14 13:00:34.94	198.42	12.90	-29.6	-32.0	19.3	6.06e-01	0	42	0	125829120	21	4750
2026-01-14 13:00:35.95	198.53	13.00	-29.7	-32.4	19.1	6.05e-01	0	42	0	127926272	21	4866
2026-01-14 13:00:36.95	198.64	13.09	-29.8	-32.4	19.1	6.06e-01	0	41	0	129499136	21	4878
2026-01-14 13:00:37.96	198.75	13.19	-29.7	-32.1	19.3	6.06e-01	0	41	0	131596288	21	4780
2026-01-14 13:00:38.96	198.86	13.29	-29.8	-32.4	19.1	6.06e-01	0	42	0	133169152	21	4881
2026-01-14 13:00:39.96	198.97	13.38	-29.7	-32.2	19.3	6.08e-01	0	42	0	135266304	21	4799
2026-01-14 13:00:40.97	199.08	13.48	-29.7	-32.2	19.3	6.06e-01	0	42	0	136839168	21	4793
2026-01-14 13:00:41.97	199.19	13.58	-29.7	-32.3	19.2	6.07e-01	0	41	0	138936320	21	4823
2026-01-14 13:00:42.97	199.30	13.68	-29.7	-32.3	19.2	6.09e-01	0	42	0	141033472	21	4831
2026-01-14 13:00:43.97	199.41	13.77	-29.8	-32.6	19.0	6.06e-01	0	42	0	142606336	21	4941
2026-01-14 13:00:44.98	199.53	13.87	-29.7	-32.2	19.2	6.08e-01	0	41	0	144703488	21	4808
2026-01-14 13:00:45.98	199.64	13.97	-29.6	-31.9	19.4	6.06e-01	0	42	0	146276352	21	4718
2026-01-14 13:00:46.99	199.76	14.07	-29.5	-31.8	19.5	6.08e-01	0	42	0	148373504	21	4667
2026-01-14 13:00:47.99	199.87	14.17	-29.6	-32.1	19.4	6.06e-01	0	42	0	150470656	21	4755
2026-01-14 13:00:49.00	199.99	14.27	-29.5	-31.8	19.6	6.06e-01	0	42	0	152043520	21	4657
2026-01-14 13:00:50.00	200.11	14.37	-29.6	-32.0	19.4	6.07e-01	0	42	0	154140672	21	4727
2026-01-14 13:00:51.01	200.23	14.47	-29.5	-31.6	19.7	6.07e-01	0	42	0	155713536	21	4590
2026-01-14 13:00:52.01	200.34	14.57	-29.4	-31.5	19.7	6.05e-01	0	42	0	157810688	21	4584
2026-01-14 13:00:53.01	200.46	14.67	-29.5	-31.7	19.6	6.05e-01	0	42	0	159907840	21	4628
2026-01-14 13:00:54.02	200.59	14.78	-29.4	-31.5	19.7	6.05e-01	0	42	0	161480704	21	4580
2026-01-14 13:00:55.02	200.71	14.88	-29.5	-31.7	19.7	6.05e-01	0	42	0	163577856	21	4620
2026-01-14 13:00:56.03	200.83	14.98	-29.5	-31.7	19.6	6.08e-01	0	42	0	165150720	21	4635
2026-01-14 13:00:57.03	200.95	15.08	-29.5	-31.6	19.7	6.05e-01	0	42	0	167247872	21	4608
2026-01-14 13:00:58.04	201.08	15.19	-29.6	-31.8	19.6	6.07e-01	0	42	0	168820736	21	4653
2026-01-14 13:00:59.04	201.20	15.29	-29.4	-31.5	19.8	6.06e-01	0	42	0	170917888	21	4563
2026-01-14 13:01:00.05	201.33	15.39	-29.4	-31.5	19.8	6.06e-01	0	42	0	173015040	21	4568
2026-01-14 13:01:01.04	201.46	15.50	-29.5	-31.7	19.7	6.06e-01	0	42	0	174587904	21	4630
2026-01-14 13:01:02.05	201.58	15.60	-29.4	-31.5	19.8	6.06e-01	0	42	0	176685056	21	4563
2026-01-14 13:01:03.05	201.71	15.71	-29.6	-31.9	19.6	6.06e-01	0	42	0	178782208	21	4684
2026-01-14 13:01:04.05	201.84	15.81	-29.5	-31.8	19.6	6.06e-01	0	42	0	180355072	21	4661
2026-01-14 13:01:05.05	201.97	15.92	-29.6	-31.9	19.6	6.07e-01	0	42	0	182452224	21	4698
2026-01-14 13:01:06.05	202.10	16.02	-29.7	-32.2	19.3	6.05e-01	0	42	0	184025088	21	4815
2026-01-14 13:01:07.05	202.24	16.13	-29.6	-31.9	19.5	6.06e-01	0	42	0	186122240	21	4697
2026-01-14 13:01:08.05	202.37	16.24	-29.5	-31.7	19.7	6.07e-01	0	42	0	187695104	21	4641
2026-01-14 13:01:09.05	202.50	16.34	-29.6	-31.9	19.6	6.07e-01	0	42	0	189792256	21	4700
2026-01-14 13:01:10.06	202.64	16.45	-29.5	-31.6	19.8	6.08e-01	0	42	0	191889408	21	4578
2026-01-14 13:01:11.06	202.78	16.56	-29.7	-32.2	19.4	6.06e-01	0	42	0	193462272	21	4778
2026-01-14 13:01:12.06	202.91	16.67	-29.5	-31.7	19.7	6.05e-01	0	42	0	195559424	21	4630
2026-01-14 13:01:13.06	203.05	16.77	-29.4	-31.5	19.9	6.05e-01	0	42	0	197132288	21	4552
2026-01-14 13:01:14.07	203.19	16.88	-29.4	-31.5	19.9	6.08e-01	0	42	0	199229440	21	4542
2026-01-14 13:01:15.07	203.33	16.99	-29.5	-31.6	19.8	6.09e-01	0	42	0	200802304	21	4590
2026-01-14 13:01:16.07	203.47	17.10	-29.4	-31.4	19.9	6.05e-01	0	42	0	202899456	21	4542
2026-01-14 13:01:17.08	203.62	17.21	-29.4	-31.8	20.0	6.07e-01	0	42	0	204996608	20	4773
2026-01-14 13:01:18.07	203.76	17.32	-29.4	-32.0	19.9	6.05e-01	0	42	0	206569472	20	4827
2026-01-14 13:01:19.08	203.91	17.44	-29.4	-31.9	19.9	6.07e-01	0	42	0	208666624	20	4790
2026-01-14 13:01:20.08	204.05	17.55	-29.5	-32.0	19.9	6.06e-01	0	42	0	210239488	20	4842
2026-01-14 13:01:21.08	204.20	17.66	-29.6	-32.5	19.6	6.07e-01	0	42	0	212336640	20	5016
2026-01-14 13:01:22.08	204.35	17.77	-29.5	-32.2	19.8	6.06e-01	0	42	0	213909504	20	4890
2026-01-14 13:01:23.08	204.50	17.88	-29.6	-32.3	19.7	6.08e-01	0	42	0	216006656	20	4940
2026-01-14 13:01:24.08	204.65	17.99	-29.6	-32.5	19.6	6.05e-01	0	42	0	218103808	20	5001
2026-01-14 13:01:25.09	204.80	18.11	-29.4	-31.9	19.9	6.06e-01	0	42	0	219676672	20	4812
2026-01-14 13:01:26.09	204.95	18.22	-29.4	-31.9	20.0	6.06e-01	0	42	0	221773824	20	4784
2026-01-14 13:01:27.09	205.11	18.34	-29.4	-31.9	20.0	6.08e-01	0	42	0	223346688	20	4787
2026-01-14 13:01:28.10	205.26	18.45	-29.4	-32.0	19.9	6.07e-01	0	42	0	225443840	20	4833
2026-01-14 13:01:29.10	205.42	18.57	-29.6	-32.5	19.6	6.07e-01	0	42	0	227016704	20	4992
2026-01-14 13:01:30.10	205.58	18.68	-29.5	-32.2	19.8	6.05e-01	0	42	0	229113856	20	4918
2026-01-14 13:01:31.10	205.73	18.80	-29.6	-32.4	19.6	6.10e-01	0	42	0	231211008	20	4987
2026-01-14 13:01:32.11	205.90	18.91	-29.5	-32.0	19.9	6.06e-01	0	42	0	232783872	20	4837
2026-01-14 13:01:33.11	206.06	19.03	-29.4	-31.8	20.0	6.07e-01	0	42	0	234881024	20	4772
2026-01-14 13:01:34.12	206.22	19.15	-29.5	-32.0	20.0	6.06e-01	0	42	0	236978176	20	4816
2026-01-14 13:01:35.12	206.38	19.26	-29.5	-32.0	20.0	6.07e-01	0	42	0	238551040	20	4835
2026-01-14 13:01:36.12	206.55	19.38	-29.5	-32.2	19.8	6.06e-01	0	42	0	240648192	20	4893
2026-01-14 13:01:37.12	206.72	19.50	-29.5	-32.2	19.8	6.07e-01	0	42	0	242221056	20	4897
2026-01-14 13:01:38.12	206.88	19.62	-29.5	-32.1	19.9	6.06e-01	0	42	0	244318208	20	4853
2026-01-14 13:01:39.12	207.05	19.74	-29.5	-32.2	19.9	6.07e-01	0	42	0	245891072	20	4877
2026-01-14 13:01:40.13	207.22	19.86	-29.4	-31.9	20.1	6.05e-01	0	42	0	247988224	20	4780
2026-01-14 13:01:41.13	207.40	19.97	-29.4	-31.9	20.0	6.07e-01	0	42	0	250085376	20	4789
2026-01-14 13:01:42.13	207.57	20.09	-29.5	-32.2	19.9	6.06e-01	0	42	0	251658240	20	4884
2026-01-14 13:01:43.13	207.74	20.21	-29.6	-32.3	19.8	6.07e-01	0	42	0	253755392	20	4928
2026-01-14 13:01:44.14	207.92	20.34	-29.5	-32.2	19.9	6.08e-01	0	42	0	255328256	20	4878
2026-01-14 13:01:45.15	208.10	20.46	-29.6	-32.2	19.9	6.07e-01	0	42	0	257425408	20	4904
2026-01-14 13:01:46.15	208.28	20.58	-29.6	-32.4	19.8	6.08e-01	0	42	0	259522560	20	4944
2026-01-14 13:01:47.15	208.46	20.70	-29.6	-32.4	19.8	6.05e-01	0	42	0	261095424	20	4966
2026-01-14 13:01:48.16	208.64	20.82	-29.8	-32.7	19.6	6.07e-01	0	42	0	263192576	20	5059
2026-01-14 13:01:49.17	208.83	20.95	-29.6	-32.3	19.9	6.07e-01	0	42	0	264765440	20	4906
2026-01-14 13:01:50.17	209.01	21.07	-29.5	-32.1	20.0	6.05e-01	0	42	0	266862592	20	4837
2026-01-14 13:01:51.18	209.20	21.19	-29.6	-32.3	19.9	6.07e-01	0	42	0	268959744	20	4911
2026-01-14 13:01:52.17	209.39	21.32	-29.6	-32.2	19.9	6.07e-01	0	42	0	270532608	20	4897
2026-01-14 13:01:53.18	209.58	21.44	-29.6	-32.4	19.8	6.06e-01	0	42	0	272629760	20	4961
2026-01-14 13:01:54.18	209.77	21.56	-29.7	-32.5	19.7	6.07e-01	0	42	0	274202624	20	4984
2026-01-14 13:01:55.19	209.96	21.69	-29.5	-32.2	20.0	6.07e-01	0	42	0	276299776	20	4879
2026-01-14 13:01:56.19	210.16	21.82	-29.5	-32.1	20.0	6.08e-01	0	42	0	277872640	20	4845
2026-01-14 13:01:57.19	210.35	21.94	-29.6	-32.3	19.9	6.06e-01	0	42	0	279969792	20	4897
2026-01-14 13:01:58.20	210.55	22.07	-29.6	-32.3	19.9	6.06e-01	0	42	0	282066944	20	4899
2026-01-14 13:01:59.20	210.75	22.19	-29.6	-32.4	19.9	6.07e-01	0	42	0	283639808	20	4934
2026-01-14 13:02:00.21	210.95	22.32	-29.7	-32.6	19.8	6.09e-01	0	42	0	285736960	20	5019
2026-01-14 13:02:01.22	211.16	22.45	-29.9	-33.0	19.5	6.06e-01	0	42	0	287309824	20	5157
2026-01-14 13:02:02.22	211.36	22.58	-29.8	-32.8	19.6	6.07e-01	0	42	0	289406976	20	5098
2026-01-14 13:02:03.21	211.56	22.70	-29.8	-32.8	19.6	6.07e-01	0	42	0	291504128	20	5096
2026-01-14 13:02:04.22	211.77	22.83	-29.8	-32.8	19.6	6.07e-01	0	42	0	293076992	20	5088
2026-01-14 13:02:05.23	211.98	22.96	-29.9	-33.1	19.5	6.07e-01	0	42	0	295174144	20	5180
2026-01-14 13:02:06.23	212.19	23.09	-29.7	-32.6	19.8	6.08e-01	0	42	0	296747008	20	5008
2026-01-14 13:02:07.23	212.41	23.22	-29.8	-32.8	19.7	6.06e-01	0	42	0	298844160	20	5068
2026-01-14 13:02:08.24	212.62	23.35	-29.9	-32.9	19.6	6.07e-01	0	42	0	300941312	20	5134
2026-01-14 13:02:09.23	212.84	23.47	-29.6	-32.2	20.0	6.06e-01	0	42	0	302514176	20	4885
2026-01-14 13:02:10.24	213.06	23.60	-29.6	-32.1	20.1	6.07e-01	0	42	0	304611328	20	4842
2026-01-14 13:02:11.24	213.28	23.73	-29.6	-32.2	20.0	6.08e-01	0	42	0	306184192	20	4879
2026-01-14 13:02:12.24	213.50	23.86	-29.6	-32.3	20.0	6.07e-01	0	42	0	308281344	20	4909
2026-01-14 13:02:13.24	213.72	23.99	-29.6	-32.3	19.9	6.06e-01	0	42	0	309854208	20	4911
2026-01-14 13:02:14.24	213.95	24.12	-29.5	-32.1	20.1	6.07e-01	0	42	0	311951360	20	4821
2026-01-14 13:02:15.24	214.18	24.26	-29.6	-32.4	19.9	6.06e-01	0	42	0	314048512	20	4927
2026-01-14 13:02:16.25	214.41	24.39	-29.7	-32.5	19.9	6.07e-01	0	42	0	315621376	20	4966
2026-01-14 13:02:17.25	214.64	24.52	-29.7	-32.6	19.8	6.07e-01	0	42	0	317718528	20	5022
2026-01-14 13:02:18.25	214.87	24.65	-29.6	-32.3	19.9	6.05e-01	0	42	0	319291392	20	4923
2026-01-14 13:02:19.25	215.11	24.78	-29.5	-32.0	20.1	6.08e-01	0	42	0	321388544	20	4815
2026-01-14 13:02:20.26	215.35	24.92	-29.6	-32.3	20.0	6.06e-01	0	42	0	323485696	20	4904
2026-01-14 13:02:21.26	215.59	25.05	-29.8	-32.7	19.8	6.06e-01	0	42	0	325058560	20	5028
2026-01-14 13:02:22.26	215.83	25.18	-29.7	-32.4	20.0	6.06e-01	0	42	0	327155712	20	4946
2026-01-14 13:02:23.27	216.08	25.31	-29.8	-32.6	19.8	6.04e-01	0	42	0	328728576	20	5020
2026-01-14 13:02:24.26	216.32	25.45	-29.8	-32.7	19.8	6.07e-01	0	42	0	330825728	20	5035
2026-01-14 13:02:25.27	216.57	25.58	-29.6	-32.3	20.0	6.05e-01	0	42	0	332398592	20	4916
2026-01-14 13:02:26.27	216.82	25.71	-29.7	-32.4	19.9	6.05e-01	0	42	0	334495744	20	4954
2026-01-14 13:02:27.28	217.07	25.85	-29.7	-32.5	19.9	6.08e-01	0	42	0	336592896	20	4965
2026-01-14 13:02:28.28	217.33	25.98	-29.6	-32.2	20.1	6.06e-01	0	42	0	338165760	20	4863
2026-01-14 13:02:29.28	217.59	26.12	-29.5	-32.1	20.1	6.05e-01	0	42	0	340262912	20	4857
2026-01-14 13:02:30.29	217.85	26.25	-29.7	-32.4	20.0	6.07e-01	0	42	0	341835776	20	4951
2026-01-14 13:02:31.29	218.11	26.38	-29.6	-32.3	20.0	6.05e-01	0	42	0	343932928	20	4923
2026-01-14 13:02:32.29	218.37	26.52	-29.6	-32.3	20.1	6.08e-01	0	42	0	346030080	20	4896
2026-01-14 13:02:33.30	218.64	26.65	-29.7	-32.4	20.0	6.07e-01	0	42	0	347602944	20	4937
2026-01-14 13:02:34.31	218.91	26.79	-29.6	-32.2	20.2	6.06e-01	0	42	0	349700096	20	4852
2026-01-14 13:02:35.31	219.18	26.92	-29.5	-32.1	20.2	6.06e-01	0	42	0	351272960	20	4835
2026-01-14 13:02:36.32	219.46	27.06	-29.6	-32.2	20.1	6.06e-01	0	42	0	353370112	20	4878
2026-01-14 13:02:37.32	219.73	27.19	-29.6	-32.2	20.1	6.08e-01	0	42	0	355467264	20	4858
2026-01-14 13:02:38.33	220.01	27.33	-29.5	-32.1	20.2	6.07e-01	0	42	0	357040128	20	4843
2026-01-14 13:02:39.34	220.29	27.46	-29.5	-32.1	20.2	6.06e-01	0	42	0	359137280	20	4836
2026-01-14 13:02:40.35	220.58	27.60	-29.6	-32.1	20.2	6.06e-01	0	42	0	360710144	20	4848
2026-01-14 13:02:41.35	220.86	27.74	-29.5	-32.0	20.2	6.04e-01	0	42	0	362807296	20	4814
2026-01-14 13:02:42.35	221.15	27.87	-29.6	-32.3	20.1	6.09e-01	0	42	0	364904448	20	4911
2026-01-14 13:02:43.35	221.44	28.00	-29.6	-32.2	20.2	6.07e-01	0	42	0	366477312	20	4861
2026-01-14 13:02:44.36	221.73	28.14	-29.4	-31.8	20.4	6.05e-01	0	42	0	368574464	20	4745
2026-01-14 13:02:45.36	222.03	28.27	-29.5	-32.0	20.3	6.07e-01	0	42	0	370147328	20	4803
2026-01-14 13:02:46.37	222.33	28.41	-29.7	-32.4	20.1	6.05e-01	0	42	0	372244480	20	4935
2026-01-14 13:02:47.37	222.63	28.54	-29.5	-32.1	20.3	6.06e-01	0	42	0	374341632	20	4817
2026-01-14 13:02:48.38	222.93	28.68	-29.5	-32.0	20.3	6.07e-01	0	42	0	375914496	20	4780
2026-01-14 13:02:49.38	223.24	28.81	-29.5	-32.0	20.3	6.06e-01	0	42	0	378011648	20	4806
2026-01-14 13:02:50.39	223.55	28.95	-29.6	-32.2	20.2	6.07e-01	0	42	0	379584512	20	4876
2026-01-14 13:02:51.39	223.86	29.08	-29.6	-32.2	20.2	6.06e-01	0	42	0	381681664	20	4853
2026-01-14 13:02:52.39	224.17	29.21	-29.4	-31.8	20.4	6.06e-01	0	42	0	383254528	20	4722
2026-01-14 13:02:53.40	224.49	29.35	-29.4	-31.8	20.4	6.07e-01	0	42	0	385351680	20	4733
2026-01-14 13:02:54.40	224.81	29.48	-29.6	-32.1	20.3	6.09e-01	0	42	0	387448832	20	4830
2026-01-14 13:02:55.40	225.13	29.61	-29.5	-32.0	20.3	6.08e-01	0	42	0	389021696	20	4803
2026-01-14 13:02:56.40	225.45	29.75	-29.6	-32.1	20.2	6.06e-01	0	42	0	391118848	20	4819
2026-01-14 13:02:57.40	225.78	29.88	-29.5	-31.9	20.4	6.04e-01	0	42	0	392691712	20	4757
2026-01-14 13:02:58.39	226.10	30.01	-29.5	-31.9	20.4	6.07e-01	0	42	0	394788864	20	4768
2026-01-14 13:02:59.40	226.44	30.14	-29.7	-32.5	20.1	6.05e-01	0	42	0	396886016	20	4953
2026-01-14 13:03:00.40	226.77	30.27	-29.5	-32.0	20.3	6.07e-01	0	42	0	398458880	20	4798
2026-01-14 13:03:01.41	227.11	30.40	-29.6	-32.1	20.3	6.06e-01	0	42	0	400556032	20	4823
2026-01-14 13:03:02.41	227.45	30.53	-29.7	-32.4	20.1	6.06e-01	0	42	0	402128896	20	4928
2026-01-14 13:03:03.42	227.79	30.66	-29.7	-32.3	20.2	6.08e-01	0	42	0	404226048	20	4892
2026-01-14 13:03:04.42	228.14	30.79	-29.5	-32.0	20.3	6.06e-01	0	42	0	405798912	20	4801
2026-01-14 13:03:05.42	228.49	30.92	-29.6	-32.1	20.3	6.03e-01	0	42	0	407896064	20	4813
2026-01-14 13:03:06.43	228.84	31.05	-29.8	-32.7	19.9	6.06e-01	0	42	0	409993216	20	5012
2026-01-14 13:03:07.44	229.20	31.18	-29.6	-32.2	20.2	6.06e-01	0	42	0	411566080	20	4859
2026-01-14 13:03:08.43	229.55	31.30	-29.5	-32.0	20.4	6.07e-01	0	42	0	413663232	20	4798
2026-01-14 13:03:09.43	229.91	31.43	-29.6	-32.3	20.2	6.06e-01	0	42	0	415236096	20	4875
2026-01-14 13:03:10.44	230.28	31.56	-29.8	-32.7	20.0	6.05e-01	0	42	0	417333248	20	5023
2026-01-14 13:03:11.44	230.64	31.68	-29.7	-32.5	20.1	6.07e-01	0	42	0	419430400	20	4965
2026-01-14 13:03:12.45	231.01	31.81	-29.7	-32.4	20.1	6.06e-01	0	42	0	421003264	20	4929
2026-01-14 13:03:13.45	231.38	31.93	-29.7	-32.5	20.1	6.06e-01	0	42	0	423100416	20	4939
2026-01-14 13:03:14.45	231.76	32.05	-29.6	-32.2	20.2	6.08e-01	0	42	0	424673280	20	4843
2026-01-14 13:03:15.44	232.13	32.18	-29.6	-32.3	20.2	6.06e-01	0	42	0	426770432	20	4871
2026-01-14 13:03:16.45	232.51	32.30	-29.7	-32.4	20.1	6.07e-01	0	42	0	428867584	20	4931
2026-01-14 13:03:17.44	232.89	32.42	-29.6	-32.2	20.3	6.06e-01	0	42	0	430440448	20	4840
2026-01-14 13:03:18.45	233.28	32.54	-29.8	-32.6	20.1	6.04e-01	0	42	0	432537600	20	4990
2026-01-14 13:03:19.45	233.67	32.66	-30.0	-32.7	19.7	6.07e-01	0	42	0	434110464	21	4918
2026-01-14 13:03:20.46	234.06	32.78	-29.7	-32.0	20.1	6.09e-01	0	42	0	436207616	21	4652
2026-01-14 13:03:21.46	234.46	32.89	-29.6	-31.5	20.4	6.05e-01	0	42	0	437780480	21	4511
2026-01-14 13:03:22.46	234.85	33.01	-29.7	-31.8	20.3	6.04e-01	0	42	0	439877632	21	4592
2026-01-14 13:03:23.47	235.26	33.12	-29.6	-31.6	20.4	6.07e-01	0	42	0	441974784	21	4536
2026-01-14 13:03:24.47	235.66	33.24	-29.5	-31.4	20.5	6.06e-01	0	42	0	443547648	21	4461
2026-01-14 13:03:25.47	236.06	33.35	-29.7	-31.9	20.2	6.07e-01	0	42	0	445644800	21	4628
2026-01-14 13:03:26.48	236.48	33.46	-29.9	-32.3	20.0	6.08e-01	0	42	0	447217664	21	4748
2026-01-14 13:03:27.48	236.89	33.57	-29.8	-32.2	20.1	6.04e-01	0	42	0	449314816	21	4721
2026-01-14 13:03:28.48	237.30	33.68	-29.8	-32.2	20.1	6.07e-01	0	42	0	451411968	21	4724
2026-01-14 13:03:29.48	237.72	33.79	-30.1	-32.7	19.7	6.08e-01	0	42	0	452984832	21	4911
2026-01-14 13:03:30.48	238.14	33.90	-29.9	-32.3	20.0	6.06e-01	0	42	0	455081984	21	4743
2026-01-14 13:03:31.49	238.56	34.01	-30.0	-32.6	19.8	6.08e-01	0	42	0	456654848	21	4866
2026-01-14 13:03:32.49	238.99	34.11	-30.1	-32.8	19.7	6.07e-01	0	42	0	458752000	21	4911
2026-01-14 13:03:33.49	239.42	34.21	-29.9	-32.5	19.9	6.07e-01	0	42	0	460324864	21	4808
2026-01-14 13:03:34.49	239.85	34.31	-29.9	-32.3	20.0	6.07e-01	0	42	0	462422016	21	4767
2026-01-14 13:03:35.50	240.28	34.42	-30.0	-32.5	19.8	6.07e-01	0	42	0	464519168	21	4836
2026-01-14 13:03:36.50	240.72	34.51	-30.0	-32.6	19.8	6.06e-01	0	42	0	466092032	21	4857
2026-01-14 13:03:37.50	241.16	34.61	-30.0	-32.5	19.9	6.05e-01	0	42	0	468189184	21	4819
2026-01-14 13:03:38.50	241.60	34.71	-29.9	-32.4	19.9	6.07e-01	0	42	0	469762048	21	4788
2026-01-14 13:03:39.51	242.05	34.80	-30.0	-32.7	19.8	6.06e-01	0	42	0	471859200	21	4876
2026-01-14 13:03:40.51	242.49	34.90	-30.1	-32.7	19.8	6.06e-01	0	42	0	473956352	21	4900
2026-01-14 13:03:41.52	242.94	34.99	-29.8	-32.2	20.1	6.06e-01	0	42	0	475529216	21	4713
2026-01-14 13:03:42.52	243.40	35.08	-29.8	-32.2	20.1	6.06e-01	0	42	0	477626368	21	4730
2026-01-14 13:03:43.52	243.85	35.16	-29.7	-31.9	20.2	6.04e-01	0	42	0	479199232	21	4635
2026-01-14 13:03:44.53	244.31	35.25	-29.5	-31.4	20.5	6.05e-01	0	42	0	481296384	21	4476
2026-01-14 13:03:45.53	244.77	35.34	-29.7	-31.9	20.3	6.07e-01	0	42	0	482869248	21	4617
2026-01-14 13:03:46.53	245.23	35.42	-29.7	-31.9	20.2	6.06e-01	0	42	0	484966400	21	4633
2026-01-14 13:03:47.54	245.70	35.50	-29.9	-32.2	20.0	6.07e-01	0	42	0	487063552	21	4732
2026-01-14 13:03:48.54	246.16	35.58	-29.8	-32.1	20.1	6.06e-01	0	42	0	488636416	21	4691
2026-01-14 13:03:49.53	246.63	35.66	-29.7	-31.8	20.3	6.06e-01	0	42	0	490733568	21	4582
2026-01-14 13:03:50.53	247.10	35.73	-29.8	-31.9	20.3	6.06e-01	0	42	0	492306432	21	4633
2026-01-14 13:03:51.53	247.57	35.80	-30.1	-32.8	19.7	6.06e-01	0	42	0	494403584	21	4935
2026-01-14 13:03:52.53	248.04	35.88	-29.9	-32.3	20.0	6.06e-01	0	42	0	496500736	21	4750
2026-01-14 13:03:53.53	248.52	35.94	-29.7	-31.7	20.3	6.07e-01	0	42	0	498073600	21	4572
2026-01-14 13:03:54.53	249.00	36.01	-29.6	-31.7	20.4	6.07e-01	0	42	0	500170752	21	4554
2026-01-14 13:03:55.53	249.48	36.08	-29.8	-32.2	20.1	6.06e-01	0	42	0	501743616	21	4709
2026-01-14 13:03:56.53	249.96	36.14	-29.8	-32.2	20.1	6.07e-01	0	42	0	503840768	21	4706
2026-01-14 13:03:57.53	250.44	36.20	-29.8	-32.2	20.1	6.07e-01	0	42	0	505413632	21	4724
2026-01-14 13:03:58.53	250.93	36.26	-29.7	-31.7	20.4	6.07e-01	0	42	0	507510784	21	4563
2026-01-14 13:03:59.54	251.42	36.32	-29.5	-31.3	20.6	6.06e-01	0	42	0	509607936	21	4442
2026-01-14 13:04:00.54	251.91	36.37	-29.7	-32.0	20.3	6.08e-01	0	42	0	511180800	21	4642
2026-01-14 13:04:01.55	252.41	36.43	-29.7	-31.8	20.3	6.05e-01	0	42	0	513277952	21	4582
2026-01-14 13:04:02.56	252.90	36.48	-29.5	-31.4	20.6	6.10e-01	0	42	0	514850816	21	4467
2026-01-14 13:04:03.57	253.40	36.53	-29.8	-32.1	20.2	6.08e-01	0	42	0	516947968	21	4678
2026-01-14 13:04:04.57	253.90	36.57	-29.6	-31.6	20.5	6.06e-01	0	42	0	519045120	21	4521
2026-01-14 13:04:05.57	254.40	36.62	-29.7	-31.8	20.4	6.08e-01	0	42	0	520617984	21	4575
2026-01-14 13:04:06.57	254.89	36.66	-29.7	-31.9	20.3	6.06e-01	0	42	0	522715136	21	4608
2026-01-14 13:04:07.58	255.40	36.70	-29.6	-31.6	20.5	6.06e-01	0	42	0	524288000	21	4524
2026-01-14 13:04:08.58	255.90	36.73	-29.8	-32.0	20.2	6.05e-01	0	42	0	526385152	21	4655
2026-01-14 13:04:09.58	256.40	36.77	-29.8	-32.0	20.2	6.05e-01	0	42	0	527958016	21	4664
2026-01-14 13:04:10.59	256.91	36.80	-29.9	-32.3	20.1	6.05e-01	0	42	0	530055168	21	4739
2026-01-14 13:04:11.59	257.41	36.83	-29.9	-32.4	20.0	6.08e-01	0	42	0	532152320	21	4790
2026-01-14 13:04:12.58	257.91	36.86	-30.0	-32.4	20.0	6.07e-01	0	42	0	533725184	21	4791
2026-01-14 13:04:13.58	258.42	36.88	-29.9	-32.4	20.0	6.07e-01	0	42	0	535822336	21	4782
2026-01-14 13:04:14.59	258.93	36.90	-29.9	-32.3	20.1	6.04e-01	0	42	0	537395200	21	4748
2026-01-14 13:04:15.59	259.43	36.92	-30.0	-32.6	19.9	6.06e-01	0	42	0	539492352	21	4840
2026-01-14 13:04:16.60	259.95	36.94	-30.0	-32.6	19.9	6.06e-01	0	42	0	541589504	21	4836
2026-01-14 13:04:17.60	260.45	36.96	-30.0	-32.7	19.9	6.06e-01	0	42	0	543162368	21	4869
2026-01-14 13:04:18.60	260.96	36.97	-29.8	-32.0	20.2	6.06e-01	0	42	0	545259520	21	4662
2026-01-14 13:04:19.61	261.47	36.98	-30.1	-32.8	19.8	6.07e-01	0	42	0	546832384	21	4930
2026-01-14 13:04:20.61	261.98	36.99	-30.1	-32.8	19.8	6.07e-01	0	42	0	548929536	21	4902
2026-01-14 13:04:21.62	262.50	36.99	-29.8	-31.9	20.3	6.05e-01	0	42	0	551026688	21	4628
2026-01-14 13:04:22.63	263.01	37.00	-29.6	-31.7	20.5	6.07e-01	0	42	0	552599552	21	4541
2026-01-14 13:04:23.63	263.52	37.00	-29.7	-31.8	20.4	6.07e-01	0	42	0	554696704	21	4573
2026-01-14 13:04:24.63	264.03	37.00	-29.7	-31.8	20.4	6.06e-01	0	42	0	556269568	21	4603
2026-01-14 13:04:25.63	264.54	36.99	-29.8	-32.1	20.2	6.05e-01	0	42	0	558366720	21	4686
2026-01-14 13:04:26.64	265.05	36.98	-29.6	-31.5	20.6	6.06e-01	0	42	0	560463872	21	4479
2026-01-14 13:04:27.64	265.56	36.97	-29.6	-31.5	20.6	6.06e-01	0	42	0	562036736	21	4482
2026-01-14 13:04:28.64	266.07	36.96	-29.7	-31.8	20.4	6.07e-01	0	42	0	564133888	21	4599
2026-01-14 13:04:29.64	266.58	36.95	-29.7	-31.8	20.4	6.04e-01	0	42	0	565706752	21	4585
2026-01-14 13:04:30.65	267.09	36.93	-29.7	-31.8	20.4	6.05e-01	0	42	0	567803904	21	4586
2026-01-14 13:04:31.66	267.60	36.91	-29.7	-31.7	20.4	6.05e-01	0	42	0	569901056	21	4562
2026-01-14 13:04:32.66	268.11	36.89	-29.6	-31.4	20.6	6.07e-01	0	42	0	571473920	21	4472
2026-01-14 13:04:33.67	268.62	36.87	-29.8	-32.1	20.2	6.06e-01	0	42	0	573571072	21	4688
2026-01-14 13:04:34.67	269.12	36.84	-29.8	-32.1	20.2	6.05e-01	0	42	0	575143936	21	4676
2026-01-14 13:04:35.68	269.63	36.81	-29.6	-31.5	20.6	6.06e-01	0	42	0	577241088	21	4497
2026-01-14 13:04:36.67	270.13	36.78	-29.7	-31.9	20.4	6.08e-01	0	42	0	578813952	21	4620
2026-01-14 13:04:37.68	270.63	36.75	-29.8	-32.1	20.3	6.06e-01	0	42	0	580911104	21	4668
2026-01-14 13:04:38.68	271.13	36.71	-29.7	-31.9	20.3	6.06e-01	0	42	0	583008256	21	4612
2026-01-14 13:04:39.68	271.63	36.67	-29.7	-31.9	20.4	6.05e-01	0	42	0	584581120	21	4604
2026-01-14 13:04:40.68	272.13	36.63	-29.8	-32.0	20.3	6.07e-01	0	42	0	586678272	21	4648
2026-01-14 13:04:41.68	272.63	36.59	-29.8	-32.1	20.2	6.08e-01	0	42	0	588251136	21	4674
2026-01-14 13:04:42.69	273.13	36.54	-29.9	-32.4	20.0	6.05e-01	0	42	0	590348288	21	4785
2026-01-14 13:04:43.69	273.62	36.50	-29.6	-31.5	20.5	6.09e-01	0	42	0	591921152	21	4500
2026-01-14 13:04:44.69	274.11	36.45	-29.6	-31.5	20.6	6.06e-01	0	42	0	594018304	21	4489
2026-01-14 13:04:45.69	274.60	36.40	-29.8	-32.0	20.3	6.07e-01	0	42	0	596115456	21	4658
2026-01-14 13:04:46.70	275.10	36.34	-29.9	-32.3	20.1	6.06e-01	0	42	0	597688320	21	4737
2026-01-14 13:04:47.70	275.59	36.28	-29.7	-31.7	20.4	6.08e-01	0	42	0	599785472	21	4562
2026-01-14 13:04:48.71	276.08	36.23	-29.6	-31.5	20.6	6.07e-01	0	42	0	601358336	21	4497
2026-01-14 13:04:49.71	276.56	36.17	-29.6	-31.4	20.6	6.06e-01	0	42	0	603455488	21	4474
2026-01-14 13:04:50.72	277.05	36.10	-29.6	-31.7	20.5	6.06e-01	0	42	0	605552640	21	4541
2026-01-14 13:04:51.71	277.52	36.04	-29.7	-31.9	20.3	6.08e-01	0	43	0	607125504	21	4627
2026-01-14 13:04:52.72	278.01	35.97	-29.5	-31.3	20.7	6.06e-01	0	42	0	609222656	21	4421
2026-01-14 13:04:53.72	278.48	35.90	-29.5	-31.3	20.8	6.06e-01	0	42	0	610795520	21	4418
2026-01-14 13:04:54.73	278.96	35.83	-29.7	-31.7	20.5	6.05e-01	0	42	0	612892672	21	4550
2026-01-14 13:04:55.72	279.43	35.76	-29.6	-31.5	20.6	6.05e-01	0	42	0	614989824	21	4488
2026-01-14 13:04:56.73	279.90	35.69	-29.7	-31.8	20.4	6.07e-01	0	42	0	616562688	21	4593
2026-01-14 13:04:57.73	280.37	35.61	-29.7	-31.8	20.4	6.06e-01	0	43	0	618659840	21	4583
2026-01-14 13:04:58.73	280.83	35.53	-29.6	-31.6	20.5	6.07e-01	0	42	0	620232704	21	4516
2026-01-14 13:04:59.73	281.30	35.45	-29.8	-31.9	20.4	6.06e-01	0	42	0	622329856	21	4618
2026-01-14 13:05:00.73	281.76	35.37	-29.9	-32.2	20.2	6.06e-01	0	42	0	623902720	21	4711
2026-01-14 13:05:01.74	282.22	35.29	-29.9	-32.3	20.1	6.05e-01	0	42	0	625999872	21	4739
2026-01-14 13:05:02.74	282.68	35.20	-29.8	-32.0	20.3	6.07e-01	0	42	0	628097024	21	4646
2026-01-14 13:05:03.74	283.13	35.11	-29.6	-31.5	20.6	6.05e-01	0	42	0	629669888	21	4494
2026-01-14 13:05:04.74	283.58	35.03	-29.5	-31.3	20.7	6.06e-01	0	42	0	631767040	21	4426
2026-01-14 13:05:05.74	284.03	34.94	-29.6	-31.4	20.6	6.07e-01	0	42	0	633339904	21	4470
2026-01-14 13:05:06.75	284.48	34.84	-29.5	-31.2	20.7	6.05e-01	0	42	0	635437056	21	4412
2026-01-14 13:05:07.76	284.93	34.75	-29.4	-31.0	20.9	6.06e-01	0	42	0	637534208	21	4331
2026-01-14 13:05:08.76	285.37	34.65	-29.4	-31.6	20.8	6.06e-01	0	42	0	639107072	20	4626
2026-01-14 13:05:09.76	285.81	34.56	-29.3	-31.3	20.9	6.07e-01	0	43	0	641204224	20	4543
2026-01-14 13:05:10.76	286.24	34.46	-29.4	-31.4	20.9	6.05e-01	0	42	0	642777088	20	4580
2026-01-14 13:05:11.77	286.68	34.36	-29.3	-31.4	20.9	6.06e-01	0	42	0	644874240	20	4565
2026-01-14 13:05:12.77	287.11	34.26	-29.2	-31.2	21.1	6.06e-01	0	42	0	646971392	20	4488
2026-01-14 13:05:13.78	287.54	34.16	-29.3	-31.3	21.0	6.05e-01	0	42	0	648544256	20	4531
2026-01-14 13:05:14.78	287.97	34.05	-29.4	-31.5	20.9	6.07e-01	0	42	0	650641408	20	4601
2026-01-14 13:05:15.78	288.39	33.95	-29.4	-31.6	20.8	6.06e-01	0	42	0	652214272	20	4626
2026-01-14 13:05:16.78	288.81	33.84	-29.2	-30.9	21.2	6.09e-01	0	42	0	654311424	20	4422
2026-01-14 13:05:17.78	289.22	33.73	-29.3	-31.2	21.1	6.05e-01	0	42	0	655884288	20	4500
2026-01-14 13:05:18.79	289.64	33.62	-29.3	-31.3	21.0	6.07e-01	0	42	0	657981440	20	4534
2026-01-14 13:05:19.79	290.05	33.52	-29.3	-31.4	20.9	6.05e-01	0	42	0	660078592	20	4565
2026-01-14 13:05:20.79	290.46	33.40	-29.2	-31.2	21.0	6.07e-01	0	42	0	661651456	20	4498
2026-01-14 13:05:21.80	290.87	33.29	-29.2	-31.0	21.1	6.09e-01	0	42	0	663748608	20	4457
2026-01-14 13:05:22.81	291.27	33.18	-29.3	-31.2	21.0	6.08e-01	0	42	0	665321472	20	4510
2026-01-14 13:05:23.82	291.68	33.06	-29.1	-30.9	21.2	6.05e-01	0	42	0	667418624	20	4418
2026-01-14 13:05:24.82	292.07	32.95	-29.3	-31.3	21.0	6.07e-01	0	42	0	669515776	20	4531
2026-01-14 13:05:25.82	292.47	32.83	-29.3	-31.3	21.0	6.09e-01	0	42	0	671088640	20	4525
2026-01-14 13:05:26.83	292.86	32.71	-29.0	-30.6	21.4	6.05e-01	0	42	0	673185792	20	4321
2026-01-14 13:05:27.83	293.25	32.60	-29.0	-30.6	21.4	6.04e-01	0	42	0	674758656	20	4318
2026-01-14 13:05:28.83	293.63	32.48	-29.1	-30.9	21.2	6.06e-01	0	43	0	676855808	20	4399
2026-01-14 13:05:29.83	294.02	32.36	-29.2	-31.0	21.2	6.07e-01	0	43	0	678428672	20	4445
2026-01-14 13:05:30.83	294.39	32.24	-29.2	-31.1	21.1	6.08e-01	0	42	0	680525824	20	4471
2026-01-14 13:05:31.84	294.77	32.11	-29.1	-30.8	21.2	6.04e-01	0	42	0	682622976	20	4381
2026-01-14 13:05:32.84	295.15	31.99	-29.1	-30.9	21.2	6.05e-01	0	43	0	684195840	20	4426
2026-01-14 13:05:33.84	295.52	31.87	-29.1	-30.9	21.2	6.06e-01	0	42	0	686292992	20	4407
2026-01-14 13:05:34.84	295.89	31.75	-29.1	-30.7	21.3	6.05e-01	0	42	0	688390144	20	4361
2026-01-14 13:05:35.85	296.25	31.62	-29.2	-31.1	21.1	6.08e-01	0	42	0	689963008	20	4474
2026-01-14 13:05:36.85	296.62	31.50	-29.3	-31.2	21.0	6.06e-01	0	42	0	692060160	20	4503
2026-01-14 13:05:37.85	296.98	31.37	-29.4	-31.5	20.9	6.07e-01	0	42	0	693633024	20	4583
2026-01-14 13:05:38.85	297.33	31.25	-29.2	-31.0	21.1	6.07e-01	0	42	0	695730176	20	4438
2026-01-14 13:05:39.86	297.69	31.12	-29.1	-30.8	21.2	6.06e-01	0	42	0	697303040	20	4391
2026-01-14 13:05:40.86	298.04	30.99	-29.2	-31.1	21.1	6.06e-01	0	42	0	699400192	20	4464
2026-01-14 13:05:41.86	298.39	30.86	-29.1	-30.9	21.2	6.07e-01	0	42	0	701497344	20	4411
2026-01-14 13:05:42.87	298.74	30.73	-29.2	-31.0	21.1	6.05e-01	0	42	0	703070208	20	4443
2026-01-14 13:05:43.87	299.08	30.60	-29.2	-31.1	21.1	6.04e-01	0	42	0	705167360	20	4480
2026-01-14 13:05:44.87	299.42	30.48	-29.3	-31.4	20.9	6.06e-01	0	42	0	706740224	20	4562
2026-01-14 13:05:45.87	299.75	30.35	-29.3	-31.4	21.0	6.07e-01	0	42	0	708837376	20	4552
2026-01-14 13:05:46.88	300.09	30.22	-29.3	-31.3	21.0	6.06e-01	0	42	0	710410240	20	4524
2026-01-14 13:05:47.88	300.42	30.08	-29.3	-31.3	21.0	6.06e-01	0	43	0	712507392	20	4531
2026-01-14 13:05:48.88	300.75	29.95	-29.6	-31.9	20.6	6.04e-01	0	42	0	714604544	20	4737
2026-01-14 13:05:49.88	301.08	29.82	-29.8	-32.5	20.3	6.07e-01	0	42	0	716177408	20	4917
2026-01-14 13:05:50.89	301.40	29.69	-29.8	-32.7	20.2	6.08e-01	0	42	0	718274560	20	4981
2026-01-14 13:05:51.90	301.73	29.56	-29.9	-32.9	20.1	6.06e-01	0	42	0	720371712	20	5051
2026-01-14 13:05:52.90	302.04	29.43	-29.8	-32.7	20.1	6.06e-01	0	42	0	721944576	20	4988
2026-01-14 13:05:53.90	302.36	29.29	-29.9	-32.7	20.2	6.08e-01	0	42	0	724041728	20	4997
2026-01-14 13:05:54.89	302.67	29.16	-29.9	-32.9	20.0	6.06e-01	0	42	0	725614592	20	5059
2026-01-14 13:05:55.90	302.98	29.03	-29.8	-32.4	20.3	6.05e-01	0	42	0	727711744	20	4894
2026-01-14 13:05:56.90	303.29	28.90	-29.6	-32.0	20.5	6.06e-01	0	42	0	729284608	20	4772
2026-01-14 13:05:57.90	303.59	28.76	-29.6	-32.0	20.6	6.07e-01	0	42	0	731381760	20	4743
2026-01-14 13:05:58.91	303.90	28.63	-29.7	-32.2	20.4	6.08e-01	0	42	0	733478912	20	4819
2026-01-14 13:05:59.90	304.19	28.50	-29.7	-32.3	20.4	6.07e-01	0	42	0	735051776	20	4870
2026-01-14 13:06:00.91	304.49	28.36	-29.8	-32.5	20.2	6.04e-01	0	42	0	737148928	20	4935
2026-01-14 13:06:01.91	304.79	28.23	-29.7	-32.2	20.4	6.08e-01	0	42	0	738721792	20	4815
2026-01-14 13:06:02.91	305.08	28.10	-29.6	-31.9	20.6	6.07e-01	0	42	0	740818944	20	4739
2026-01-14 13:06:03.92	305.37	27.96	-29.6	-32.0	20.6	6.06e-01	0	42	0	742391808	20	4747
2026-01-14 13:06:04.92	305.66	27.83	-29.6	-32.1	20.5	6.06e-01	0	42	0	744488960	20	4797
2026-01-14 13:06:05.92	305.94	27.70	-29.8	-32.5	20.2	6.07e-01	0	42	0	746586112	20	4933
2026-01-14 13:06:06.93	306.23	27.56	-29.7	-32.4	20.3	6.06e-01	0	42	0	748158976	20	4901
2026-01-14 13:06:07.93	306.51	27.43	-29.7	-32.4	20.3	6.07e-01	0	42	0	750256128	20	4884
2026-01-14 13:06:08.94	306.79	27.29	-29.9	-32.8	20.1	6.08e-01	0	42	0	751828992	20	5027
2026-01-14 13:06:09.94	307.06	27.16	-29.8	-32.4	20.2	6.05e-01	0	42	0	753926144	20	4908
2026-01-14 13:06:10.94	307.34	27.03	-29.7	-32.2	20.4	6.07e-01	0	42	0	756023296	20	4831
2026-01-14 13:06:11.94	307.61	26.89	-29.7	-32.3	20.4	6.06e-01	0	42	0	757596160	20	4868
2026-01-14 13:06:12.94	307.87	26.76	-29.8	-32.5	20.2	6.06e-01	0	42	0	759693312	20	4926
2026-01-14 13:06:13.95	308.14	26.62	-29.8	-32.5	20.2	6.07e-01	0	42	0	761266176	20	4940
2026-01-14 13:06:14.96	308.41	26.49	-29.7	-32.4	20.3	6.06e-01	0	42	0	763363328	20	4875
2026-01-14 13:06:15.96	308.67	26.36	-29.8	-32.5	20.2	6.07e-01	0	42	0	765460480	20	4942
2026-01-14 13:06:16.97	308.93	26.22	-29.9	-32.9	20.0	6.07e-01	0	42	0	767033344	20	5058
2026-01-14 13:06:17.97	309.19	26.09	-29.8	-32.6	20.1	6.06e-01	0	42	0	769130496	20	4976
2026-01-14 13:06:18.97	309.44	25.96	-29.9	-32.7	20.1	6.06e-01	0	42	0	770703360	20	4991
2026-01-14 13:06:19.97	309.69	25.82	-29.9	-32.9	20.0	6.06e-01	0	42	0	772800512	20	5086
2026-01-14 13:06:20.98	309.95	25.69	-30.0	-33.0	19.9	6.06e-01	0	42	0	774373376	20	5112
2026-01-14 13:06:21.98	310.20	25.56	-29.9	-32.8	20.0	6.08e-01	0	42	0	776470528	20	5051
2026-01-14 13:06:22.99	310.44	25.43	-29.9	-32.9	19.9	6.05e-01	0	43	0	778567680	20	5087
2026-01-14 13:06:23.98	310.68	25.29	-30.2	-33.0	19.6	6.08e-01	0	42	0	780140544	21	4987
2026-01-14 13:06:24.99	310.93	25.16	-30.4	-33.6	19.2	6.06e-01	0	42	0	782237696	21	5217
2026-01-14 13:06:25.99	311.17	25.03	-30.1	-32.9	19.6	6.05e-01	0	42	0	783810560	21	4962
2026-01-14 13:06:27.00	311.41	24.90	-29.9	-32.4	20.0	6.07e-01	0	42	0	785907712	21	4774
2026-01-14 13:06:28.00	311.64	24.77	-29.9	-32.2	20.1	6.06e-01	0	42	0	788004864	21	4723
2026-01-14 13:06:29.00	311.88	24.64	-29.8	-32.2	20.0	6.07e-01	0	43	0	789577728	21	4716
2026-01-14 13:06:30.01	312.11	24.50	-29.9	-32.2	20.0	6.05e-01	0	42	0	791674880	21	4723
2026-01-14 13:06:31.01	312.34	24.37	-29.9	-32.3	20.0	6.06e-01	0	42	0	793247744	21	4759
2026-01-14 13:06:32.01	312.57	24.24	-30.0	-32.6	19.8	6.07e-01	0	42	0	795344896	21	4869
2026-01-14 13:06:33.02	312.80	24.11	-29.9	-32.3	20.0	6.06e-01	0	43	0	796917760	21	4760
2026-01-14 13:06:34.02	313.02	23.98	-29.8	-32.1	20.1	6.05e-01	0	42	0	799014912	21	4695
2026-01-14 13:06:35.02	313.24	23.85	-29.9	-32.4	20.0	6.06e-01	0	42	0	801112064	21	4774
2026-01-14 13:06:36.03	313.47	23.72	-29.9	-32.4	19.9	6.07e-01	0	42	0	802684928	21	4784
2026-01-14 13:06:37.03	313.68	23.60	-30.0	-32.7	19.7	6.06e-01	0	42	0	804782080	21	4894
2026-01-14 13:06:38.04	313.90	23.47	-30.1	-32.8	19.7	6.08e-01	0	42	0	806879232	21	4920
2026-01-14 13:06:39.04	314.12	23.34	-30.1	-32.8	19.7	6.06e-01	0	42	0	808452096	21	4909
2026-01-14 13:06:40.04	314.33	23.21	-30.2	-33.1	19.5	6.07e-01	0	42	0	810549248	21	5021
2026-01-14 13:06:41.04	314.54	23.08	-30.0	-32.7	19.7	6.05e-01	0	42	0	812122112	21	4895
2026-01-14 13:06:42.04	314.75	22.96	-30.0	-32.7	19.8	6.06e-01	0	42	0	814219264	21	4877
2026-01-14 13:06:43.03	314.96	22.83	-30.1	-32.8	19.6	6.06e-01	0	42	0	815792128	21	4930
2026-01-14 13:06:44.04	315.16	22.70	-30.3	-33.4	19.3	6.06e-01	0	42	0	817889280	21	5155
2026-01-14 13:06:45.04	315.37	22.58	-30.0	-32.7	19.7	6.07e-01	0	42	0	819986432	21	4902
2026-01-14 13:06:46.05	315.57	22.45	-29.9	-32.4	19.9	6.09e-01	0	42	0	821559296	21	4779
2026-01-14 13:06:47.05	315.77	22.32	-29.8	-32.2	20.0	6.05e-01	0	42	0	823656448	21	4721
2026-01-14 13:06:48.06	315.97	22.20	-29.9	-32.4	19.9	6.07e-01	0	42	0	825229312	21	4794
2026-01-14 13:06:49.07	316.17	22.07	-29.9	-32.4	19.9	6.05e-01	0	42	0	827326464	21	4800
2026-01-14 13:06:50.07	316.37	21.95	-30.0	-32.6	19.7	6.06e-01	0	42	0	828899328	21	4876
2026-01-14 13:06:51.08	316.56	21.82	-29.8	-32.2	20.0	6.06e-01	0	42	0	830996480	21	4719
2026-01-14 13:06:52.08	316.76	21.70	-29.8	-32.1	20.0	6.04e-01	0	42	0	833093632	21	4699
2026-01-14 13:06:53.09	316.95	21.57	-29.9	-32.2	20.0	6.05e-01	0	42	0	834666496	21	4742
2026-01-14 13:06:54.09	317.14	21.45	-29.9	-32.3	19.9	6.07e-01	0	42	0	836763648	21	4753
2026-01-14 13:06:55.09	317.33	21.33	-29.9	-32.4	19.8	6.04e-01	0	42	0	838860800	21	4805
2026-01-14 13:06:56.09	317.51	21.21	-29.9	-32.3	19.8	6.08e-01	0	42	0	840433664	21	4772
2026-01-14 13:06:57.09	317.70	21.08	-30.0	-32.5	19.8	6.04e-01	0	42	0	842530816	21	4828
2026-01-14 13:06:58.09	317.88	20.96	-29.8	-32.2	19.9	6.04e-01	0	42	0	844103680	21	4730
2026-01-14 13:06:59.10	318.07	20.84	-29.8	-32.2	20.0	6.04e-01	0	42	0	846200832	21	4720
2026-01-14 13:07:00.11	318.25	20.72	-29.9	-32.4	19.8	6.03e-01	0	43	0	847773696	21	4811
2026-01-14 13:07:01.11	318.43	20.60	-29.9	-32.3	19.9	6.04e-01	0	42	0	849870848	21	4774
2026-01-14 13:07:02.12	318.61	20.48	-29.9	-32.4	19.8	6.03e-01	0	42	0	851968000	21	4805
2026-01-14 13:07:03.12	318.78	20.36	-30.0	-32.7	19.6	6.02e-01	0	42	0	853540864	21	4891
2026-01-14 13:07:04.12	318.96	20.24	-29.8	-32.1	20.0	6.03e-01	0	42	0	855638016	21	4701
2026-01-14 13:07:05.12	319.13	20.12	-29.7	-31.9	20.1	6.05e-01	0	42	0	857210880	21	4634
2026-01-14 13:07:06.12	319.30	20.00	-29.7	-31.8	20.2	6.03e-01	0	42	0	859308032	21	4592
2026-01-14 13:07:07.13	319.47	19.88	-29.7	-32.0	20.1	6.05e-01	0	42	0	860880896	21	4655
2026-01-14 13:07:08.13	319.64	19.76	-29.6	-31.7	20.3	6.02e-01	0	42	0	862978048	21	4563
2026-01-14 13:07:09.13	319.81	19.64	-29.6	-31.8	20.2	6.01e-01	0	42	0	865075200	21	4587
2026-01-14 13:07:10.14	319.98	19.53	-29.6	-31.7	20.2	6.03e-01	0	42	0	866648064	21	4559
2026-01-14 13:07:11.14	320.15	19.41	-29.7	-31.9	20.2	6.03e-01	0	42	0	868745216	21	4628
2026-01-14 13:07:12.14	320.31	19.29	-29.8	-32.1	20.0	6.05e-01	0	42	0	870842368	21	4703
2026-01-14 13:07:13.14	320.47	19.18	-29.8	-32.1	20.0	6.03e-01	0	42	0	872415232	21	4687
2026-01-14 13:07:14.15	320.64	19.06	-29.8	-32.1	19.9	6.02e-01	0	42	0	874512384	21	4697
2026-01-14 13:07:15.15	320.80	18.95	-29.8	-32.1	19.9	6.04e-01	0	42	0	876085248	21	4698
2026-01-14 13:07:16.15	320.95	18.83	-29.8	-32.2	19.9	6.01e-01	0	42	0	878182400	21	4752
2026-01-14 13:07:17.16	321.11	18.72	-29.7	-32.0	20.0	6.03e-01	0	42	0	879755264	21	4678
2026-01-14 13:07:18.17	321.27	18.60	-29.8	-32.1	19.9	6.03e-01	0	42	0	881852416	21	4698
2026-01-14 13:07:19.17	321.43	18.49	-29.7	-32.0	20.0	6.04e-01	0	42	0	883949568	21	4671
2026-01-14 13:07:20.18	321.58	18.37	-29.8	-32.1	20.0	6.03e-01	0	42	0	885522432	21	4700
2026-01-14 13:07:21.18	321.74	18.26	-29.8	-32.2	19.9	6.02e-01	0	43	0	887619584	21	4750
2026-01-14 13:07:22.18	321.89	18.15	-29.7	-32.0	20.0	6.03e-01	0	42	0	889192448	21	4657
2026-01-14 13:07:23.18	322.04	18.04	-29.7	-32.0	20.0	6.04e-01	0	42	0	891289600	21	4670
2026-01-14 13:07:24.18	322.19	17.92	-29.7	-32.0	20.0	6.03e-01	0	42	0	892862464	21	4659
2026-01-14 13:07:25.18	322.34	17.81	-29.8	-32.3	19.9	6.03e-01	0	42	0	894959616	21	4759
2026-01-14 13:07:26.18	322.48	17.70	-30.0	-32.6	19.7	6.02e-01	0	42	0	897056768	21	4866
2026-01-14 13:07:27.18	322.63	17.59	-29.8	-32.2	19.9	6.04e-01	0	42	0	898629632	21	4748
2026-01-14 13:07:28.18	322.77	17.48	-30.0	-32.7	19.6	6.02e-01	0	42	0	900726784	21	4908
2026-01-14 13:07:29.18	322.92	17.37	-29.9	-32.4	19.8	6.04e-01	0	42	0	902299648	21	4796
2026-01-14 13:07:30.18	323.06	17.26	-29.7	-32.0	19.9	6.03e-01	0	42	0	904396800	21	4687
2026-01-14 13:07:31.19	323.20	17.15	-29.7	-32.0	20.0	6.01e-01	0	42	0	905969664	21	4676
2026-01-14 13:07:32.20	323.35	17.04	-29.7	-32.0	19.9	6.03e-01	0	42	0	908066816	21	4672
2026-01-14 13:07:33.20	323.49	16.93	-29.8	-32.2	19.8	6.02e-01	0	42	0	910163968	21	4727
2026-01-14 13:07:34.21	323.63	16.83	-29.7	-31.9	20.0	6.04e-01	0	42	0	911736832	21	4644
2026-01-14 13:07:35.21	323.76	16.72	-29.6	-31.7	20.1	6.04e-01	0	42	0	913833984	21	4567
2026-01-14 13:07:36.21	323.90	16.61	-29.6	-31.8	20.1	6.05e-01	0	42	0	915931136	21	4599
2026-01-14 13:07:37.22	324.04	16.50	-29.6	-31.8	20.1	6.02e-01	0	43	0	917504000	21	4604
2026-01-14 13:07:38.23	324.17	16.40	-29.7	-31.9	20.0	6.03e-01	0	42	0	919601152	21	4632
2026-01-14 13:07:39.23	324.31	16.29	-29.8	-32.2	19.8	6.03e-01	0	42	0	921174016	21	4726
2026-01-14 13:07:40.23	324.44	16.18	-29.7	-31.8	20.0	6.03e-01	0	42	0	923271168	21	4616
2026-01-14 13:07:41.23	324.57	16.08	-29.7	-31.8	20.0	6.02e-01	0	42	0	924844032	21	4622
2026-01-14 13:07:42.23	324.70	15.97	-29.7	-32.0	19.9	6.04e-01	0	42	0	926941184	21	4681
2026-01-14 13:07:43.23	324.83	15.87	-29.7	-31.9	20.0	6.04e-01	0	42	0	929038336	21	4642
2026-01-14 13:07:44.24	324.96	15.76	-29.7	-32.0	19.9	6.04e-01	0	42	0	930611200	21	4683
2026-01-14 13:07:45.25	325.09	15.66	-29.7	-32.0	19.9	6.03e-01	0	42	0	932708352	21	4692
2026-01-14 13:07:46.25	325.22	15.56	-29.7	-32.1	19.9	6.03e-01	0	42	0	934281216	21	4699
2026-01-14 13:07:47.25	325.35	15.45	-29.7	-32.0	19.9	6.03e-01	0	42	0	936378368	21	4667
2026-01-14 13:07:48.24	325.47	15.35	-29.7	-32.1	19.9	6.06e-01	0	42	0	938475520	21	4709
2026-01-14 13:07:49.25	325.60	15.25	-29.8	-32.2	19.8	6.04e-01	0	42	0	940048384	21	4741
2026-01-14 13:07:50.25	325.72	15.15	-29.7	-32.0	19.9	6.02e-01	0	42	0	942145536	21	4672
2026-01-14 13:07:51.25	325.84	15.05	-29.7	-32.0	19.9	6.04e-01	0	42	0	943718400	21	4685
2026-01-14 13:07:52.26	325.96	14.94	-29.8	-32.2	19.8	6.02e-01	0	42	0	945815552	21	4735
2026-01-14 13:07:53.26	326.09	14.84	-29.8	-32.3	19.7	6.03e-01	0	42	0	947388416	21	4798
2026-01-14 13:07:54.27	326.21	14.74	-29.8	-32.3	19.7	6.04e-01	0	42	0	949485568	21	4794
2026-01-14 13:07:55.27	326.33	14.64	-29.8	-32.3	19.7	6.03e-01	0	42	0	951582720	21	4789
2026-01-14 13:07:56.27	326.44	14.54	-29.9	-32.4	19.6	6.04e-01	0	42	0	953155584	21	4828
2026-01-14 13:07:57.27	326.56	14.44	-29.8	-32.3	19.7	6.04e-01	0	42	0	955252736	21	4800
2026-01-14 13:07:58.27	326.68	14.34	-29.8	-32.3	19.7	6.06e-01	0	42	0	956825600	21	4777
2026-01-14 13:07:59.27	326.80	14.24	-29.9	-32.4	19.6	6.05e-01	0	42	0	958922752	21	4823
2026-01-14 13:08:00.27	326.91	14.15	-30.0	-32.8	19.4	6.05e-01	0	42	0	961019904	21	4944
2026-01-14 13:08:01.28	327.03	14.05	-29.9	-32.4	19.6	6.02e-01	0	42	0	962592768	21	4823
2026-01-14 13:08:02.28	327.14	13.95	-29.8	-32.2	19.7	6.06e-01	0	42	0	964689920	21	4742
2026-01-14 13:08:03.28	327.25	13.85	-29.8	-32.1	19.7	6.02e-01	0	42	0	966262784	21	4732
2026-01-14 13:08:04.28	327.37	13.75	-29.8	-32.1	19.7	6.05e-01	0	43	0	968359936	21	4736
2026-01-14 13:08:05.29	327.48	13.66	-29.7	-32.0	19.8	6.04e-01	0	42	0	970457088	21	4691
2026-01-14 13:08:06.30	327.59	13.56	-29.8	-32.2	19.6	6.02e-01	0	42	0	972029952	21	4752
2026-01-14 13:08:07.30	327.70	13.46	-29.7	-32.1	19.7	6.02e-01	0	42	0	974127104	21	4710
2026-01-14 13:08:08.30	327.81	13.37	-29.8	-32.1	19.7	6.02e-01	0	42	0	975699968	21	4737
2026-01-14 13:08:09.30	327.92	13.27	-29.8	-32.3	19.6	6.03e-01	0	42	0	977797120	21	4779
2026-01-14 13:08:10.30	328.03	13.18	-29.8	-32.3	19.6	6.03e-01	0	42	0	979369984	21	4791
2026-01-14 13:08:11.30	328.13	13.08	-29.9	-32.6	19.3	6.06e-01	0	42	0	981467136	21	4886
2026-01-14 13:08:12.31	328.24	12.99	-29.9	-32.7	19.3	6.03e-01	0	42	0	983564288	21	4920
2026-01-14 13:08:13.31	328.35	12.89	-30.0	-32.7	19.3	6.03e-01	0	42	0	985137152	21	4944
2026-01-14 13:08:14.31	328.45	12.80	-30.0	-32.8	19.3	6.00e-01	0	42	0	987234304	21	4955
2026-01-14 13:08:15.31	328.55	12.71	-30.0	-32.8	19.2	6.03e-01	0	42	0	988807168	21	4972
2026-01-14 13:08:16.31	328.66	12.61	-30.0	-32.9	19.1	6.03e-01	0	42	0	990904320	21	5026
2026-01-14 13:08:17.32	328.76	12.52	-30.0	-32.8	19.2	6.02e-01	0	42	0	992477184	21	4970
2026-01-14 13:08:18.32	328.86	12.43	-30.0	-32.9	19.2	6.04e-01	0	42	0	994574336	21	4997
2026-01-14 13:08:19.32	328.97	12.33	-30.0	-32.7	19.3	6.02e-01	0	42	0	996671488	21	4957
2026-01-14 13:08:20.32	329.07	12.24	-30.0	-32.8	19.2	6.05e-01	0	42	0	998244352	21	4970
2026-01-14 13:08:21.32	329.17	12.15	-30.0	-32.7	19.2	6.04e-01	0	42	0	1000341504	21	4953
2026-01-14 13:08:22.33	329.27	12.06	-30.0	-32.9	19.1	6.02e-01	0	42	0	1001914368	21	5023
2026-01-14 13:08:23.33	329.37	11.97	-30.0	-32.8	19.2	6.03e-01	0	42	0	1004011520	21	4981
2026-01-14 13:08:24.33	329.47	11.88	-30.1	-33.1	19.0	6.02e-01	0	43	0	1006108672	21	5086
2026-01-14 13:08:25.33	329.56	11.79	-30.0	-32.9	19.2	6.01e-01	0	42	0	1007681536	21	5001
2026-01-14 13:08:26.33	329.66	11.70	-30.1	-33.0	19.0	6.00e-01	0	42	0	1009778688	21	5059
2026-01-14 13:08:27.34	329.76	11.61	-30.1	-33.2	18.9	6.07e-01	0	42	0	1011351552	21	5125
2026-01-14 13:08:28.35	329.86	11.52	-30.2	-33.3	18.8	6.04e-01	0	43	0	1013448704	21	5164
2026-01-14 13:08:29.34	329.95	11.43	-30.1	-33.0	19.0	6.02e-01	0	42	0	1015545856	21	5055
2026-01-14 13:08:30.35	330.05	11.34	-30.1	-33.0	19.0	6.02e-01	0	42	0	1017118720	21	5060
2026-01-14 13:08:31.35	330.14	11.25	-30.0	-33.0	19.0	6.05e-01	0	42	0	1019215872	21	5046
2026-01-14 13:08:32.36	330.23	11.16	-30.1	-33.2	18.9	6.05e-01	0	42	0	1020788736	21	5113
2026-01-14 13:08:33.36	330.33	11.07	-30.1	-33.3	18.8	6.05e-01	0	42	0	1022885888	21	5153
2026-01-14 13:08:34.36	330.42	10.99	-30.1	-33.1	18.9	6.03e-01	0	42	0	1024458752	21	5111
2026-01-14 13:08:35.37	330.51	10.90	-30.2	-33.4	18.7	6.03e-01	0	42	0	1026555904	21	5214
2026-01-14 13:08:36.37	330.60	10.81	-30.2	-33.5	18.7	6.05e-01	0	42	0	1028653056	21	5239
2026-01-14 13:08:37.37	330.69	10.72	-30.2	-33.3	18.8	6.04e-01	0	42	0	1030225920	21	5171
2026-01-14 13:08:38.37	330.79	10.64	-30.1	-33.1	18.9	6.02e-01	0	42	0	1032323072	21	5096
2026-01-14 13:08:39.37	330.87	10.55	-30.0	-33.0	19.0	6.02e-01	0	43	0	1033895936	21	5047
2026-01-14 13:08:40.38	330.96	10.47	-30.2	-33.4	18.7	6.05e-01	0	42	0	1035993088	21	5213
2026-01-14 13:08:41.38	331.05	10.38	-30.2	-33.4	18.7	6.02e-01	0	42	0	1038090240	21	5224
2026-01-14 13:08:42.38	331.14	10.29	-30.2	-33.5	18.6	6.04e-01	0	42	0	1039663104	21	5240
2026-01-14 13:08:43.38	331.23	10.21	-30.2	-33.5	18.6	6.03e-01	0	43	0	1041760256	21	5260
2026-01-14 13:08:44.39	331.32	10.12	-30.2	-33.6	18.6	6.05e-01	0	42	0	1043333120	21	5275
2026-01-14 13:08:45.40	331.40	10.04	-30.3	-33.6	18.5	6.06e-01	0	42	0	1045430272	21	5298
2026-01-14 13:08:46.39	331.49	9.95	-30.2	-33.5	18.6	6.01e-01	0	42	0	1047527424	21	5246
2026-01-14 13:08:47.39	331.58	9.87	-30.2	-33.5	18.6	6.05e-01	0	42	0	1049100288	21	5255
2026-01-14 13:08:48.39	331.66	9.79	-30.3	-33.7	18.5	6.04e-01	0	42	0	1051197440	21	5315
2026-01-14 13:08:49.39	331.74	9.70	-30.3	-33.8	18.4	6.01e-01	0	42	0	1052770304	21	5366
2026-01-14 13:08:50.39	331.83	9.62	-30.2	-33.5	18.6	6.05e-01	0	42	0	1054867456	21	5244
2026-01-14 13:08:51.40	331.91	9.54	-30.3	-33.7	18.4	6.05e-01	0	42	0	1056440320	21	5338
2026-01-14 13:08:52.40	332.00	9.45	-30.3	-33.6	18.5	6.05e-01	0	42	0	1058537472	21	5298
2026-01-14 13:08:53.40	332.08	9.37	-30.3	-33.7	18.4	6.03e-01	0	42	0	1060634624	21	5340
2026-01-14 13:08:54.40	332.16	9.29	-30.3	-33.7	18.4	6.03e-01	0	42	0	1062207488	21	5353
2026-01-14 13:08:55.40	332.24	9.21	-30.3	-33.8	18.4	6.03e-01	0	42	0	1064304640	21	5374
2026-01-14 13:08:56.40	332.32	9.13	-30.3	-33.8	18.3	6.03e-01	0	42	0	1065877504	21	5396
2026-01-14 13:08:57.40	332.40	9.05	-30.3	-33.9	18.3	6.03e-01	0	42	0	1067974656	21	5402
2026-01-14 13:08:58.40	332.48	8.96	-30.3	-33.9	18.3	6.02e-01	0	42	0	1069547520	21	5424
2026-01-14 13:08:59.40	332.56	8.88	-30.3	-33.8	18.3	6.07e-01	0	42	0	1071644672	21	5398
2026-01-14 13:09:00.40	332.64	8.80	-30.4	-34.2	18.1	6.04e-01	0	42	0	1073741824	21	5545
2026-01-14 13:09:01.41	332.72	8.72	-30.4	-33.9	18.2	6.03e-01	0	43	0	1075314688	21	5439
2026-01-14 13:09:02.40	332.80	8.64	-30.5	-34.4	18.0	6.04e-01	0	42	0	1077411840	21	5610
2026-01-14 13:09:03.41	332.88	8.56	-30.5	-34.3	18.0	6.02e-01	0	42	0	1078984704	21	5581
2026-01-14 13:09:04.40	332.96	8.48	-30.4	-34.0	18.1	6.03e-01	0	43	0	1081081856	21	5474
2026-01-14 13:09:05.41	333.03	8.40	-30.3	-33.9	18.2	6.04e-01	0	42	0	1083179008	21	5415
2026-01-14 13:09:06.41	333.11	8.32	-30.4	-34.1	18.0	6.03e-01	0	42	0	1084751872	21	5530
2026-01-14 13:09:07.42	333.19	8.24	-30.5	-34.3	18.0	6.03e-01	0	42	0	1086849024	21	5573
2026-01-14 13:09:08.42	333.26	8.17	-30.4	-34.2	18.0	6.05e-01	0	42	0	1088421888	21	5539
2026-01-14 13:09:09.43	333.34	8.09	-30.5	-34.4	17.9	6.01e-01	0	42	0	1090519040	21	5644
2026-01-14 13:09:10.42	333.41	8.01	-30.6	-34.3	17.6	6.04e-01	0	42	0	1092091904	22	5480
2026-01-14 13:09:11.42	333.49	7.93	-30.6	-34.2	17.7	6.04e-01	0	42	0	1094189056	22	5427
2026-01-14 13:09:12.42	333.56	7.85	-30.4	-33.6	18.1	6.03e-01	0	42	0	1096286208	22	5194
2026-01-14 13:09:13.42	333.64	7.78	-30.6	-34.1	17.7	6.02e-01	0	42	0	1097859072	22	5414
2026-01-14 13:09:14.42	333.71	7.70	-30.5	-33.9	17.9	6.03e-01	0	43	0	1099956224	22	5322
2026-01-14 13:09:15.43	333.78	7.62	-30.6	-34.3	17.6	6.03e-01	0	42	0	1101529088	22	5476
2026-01-14 13:09:16.43	333.86	7.54	-30.6	-34.4	17.5	6.05e-01	0	42	0	1103626240	22	5517
2026-01-14 13:09:17.44	333.93	7.47	-30.6	-34.3	17.6	6.05e-01	0	42	0	1105199104	22	5490
2026-01-14 13:09:18.45	334.00	7.39	-30.6	-34.3	17.5	6.06e-01	0	42	0	1107296256	22	5499
2026-01-14 13:09:19.45	334.07	7.31	-30.7	-34.4	17.4	6.03e-01	0	42	0	1109393408	22	5559
2026-01-14 13:09:20.46	334.15	7.24	-30.6	-34.3	17.5	6.03e-01	0	42	0	1110966272	22	5487
2026-01-14 13:09:21.46	334.22	7.16	-30.9	-35.1	17.0	6.01e-01	0	42	0	1113063424	22	5843
2026-01-14 13:09:22.46	334.29	7.09	-33.6	-49.4	6.3	7.11e-01	0	42	0	1114636288	28	22177
2026-01-14 13:09:23.47	334.36	7.01	-34.0	-53.4	3.8	7.48e-01	0	42	104	1114636288	28	33872
2026-01-14 13:09:24.47	334.43	6.93	-34.2	-53.4	3.8	7.45e-01	0	42	104	1114636288	29	32917
2026-01-14 13:09:25.47	334.50	6.86	-34.4	-53.8	3.8	7.44e-01	0	42	104	1114636288	29	33609

#Closed at: 2026-01-14 13:09:26
#Recorded file [1114 MB]: D:/data/31010_260114_155927.dat