passes_logs/2026/01/14/R2M6_AANII_01/R2M6_AANII_01__20260114_221551_NOAA_20_JPSS-1_rec.log

#Pass ID: 20260114_221551_NOAA 20 (JPSS-1)
#Satellite: NOAA 20 (JPSS-1)
#Configuration: NOAA 20
#almurnet v.1.7.20240730
#Start time: 2026-01-14 22:15:51

#Version: 2.2.20231116
#Station: R2M6_AANII_01
#Location: 30.233357 lon 59.946436 lat
#TLE: 1 43013U 17073A   26014.13176244  .00000049  00000+0  44136-4 0  9994
#TLE: 2 43013  98.7634 315.0803 0001538  40.6488 319.4803 14.19535812422619

#Time	Az	El	Level	Level2	SNR	BER	BlckErr	Temp	State	Recorded	gain1	gain2
2026-01-14 22:15:51.06	36.04	6.96	-32.2	-38.6	4.9	1.24e+00	0	41	0	0	25	7549
2026-01-14 22:15:52.06	36.16	7.01	-32.1	-38.8	4.9	1.20e+00	0	41	104	0	24	7786
2026-01-14 22:15:53.06	36.28	7.06	-32.0	-38.3	7.7	1.12e-01	0	41	0	0	24	7434
2026-01-14 22:15:54.07	36.41	7.11	-32.0	-38.2	7.8	8.48e-02	0	41	0	1048576	24	7363
2026-01-14 22:15:55.08	36.53	7.16	-32.2	-38.8	7.4	1.04e-01	0	41	0	3145728	24	7731
2026-01-14 22:15:56.08	36.65	7.21	-32.1	-38.3	7.9	9.50e-02	0	41	0	5242880	24	7380
2026-01-14 22:15:57.08	36.77	7.27	-32.1	-38.3	7.9	7.44e-02	0	41	0	7340032	24	7341
2026-01-14 22:15:58.09	36.89	7.32	-32.1	-38.4	7.9	7.49e-02	0	41	0	9437184	24	7396
2026-01-14 22:15:59.09	37.02	7.37	-32.1	-38.3	7.9	7.70e-02	0	41	0	10485760	24	7357
2026-01-14 22:16:00.09	37.14	7.42	-32.3	-39.5	6.9	1.06e-01	0	41	0	12582912	24	8196
2026-01-14 22:16:01.09	37.26	7.47	-32.2	-38.8	7.5	1.11e-01	0	41	0	14680064	24	7688
2026-01-14 22:16:02.10	37.39	7.52	-31.9	-37.6	8.5	6.48e-02	0	41	0	16777216	24	6908
2026-01-14 22:16:03.10	37.51	7.58	-31.6	-36.3	9.5	2.38e-02	0	41	0	17825792	24	6193
2026-01-14 22:16:04.11	37.64	7.63	-31.3	-35.2	10.3	6.10e-03	0	41	0	19922944	24	5613
2026-01-14 22:16:05.11	37.76	7.68	-31.2	-35.1	10.8	2.75e-03	0	41	0	22020096	23	5675
2026-01-14 22:16:06.11	37.89	7.73	-31.0	-34.6	11.2	1.95e-03	0	41	0	24117248	23	5435
2026-01-14 22:16:07.12	38.01	7.78	-31.0	-34.5	11.3	1.08e-03	0	41	0	26214400	23	5408
2026-01-14 22:16:08.12	38.14	7.83	-30.9	-34.3	11.5	8.38e-04	0	41	0	28311552	23	5318
2026-01-14 22:16:09.12	38.27	7.88	-30.9	-34.1	11.6	1.04e-03	0	41	0	29360128	23	5230
2026-01-14 22:16:10.12	38.39	7.94	-30.9	-34.1	11.6	6.73e-04	0	41	0	31457280	23	5232
2026-01-14 22:16:11.13	38.52	7.99	-30.9	-34.2	11.5	7.32e-04	0	41	0	33554432	23	5265
2026-01-14 22:16:12.14	38.65	8.04	-30.9	-34.2	11.5	6.71e-04	0	41	0	35651584	23	5281
2026-01-14 22:16:13.14	38.78	8.09	-30.9	-34.2	11.5	6.87e-04	0	41	0	36700160	23	5279
2026-01-14 22:16:14.15	38.91	8.14	-30.9	-34.3	11.5	7.30e-04	0	41	0	38797312	23	5295
2026-01-14 22:16:15.15	39.04	8.19	-31.0	-34.6	11.3	1.09e-03	0	41	0	40894464	23	5410
2026-01-14 22:16:16.15	39.17	8.24	-30.9	-34.1	11.6	8.32e-04	0	41	0	42991616	23	5215
2026-01-14 22:16:17.15	39.30	8.30	-30.8	-34.3	11.9	5.08e-04	0	42	0	45088768	22	5413
2026-01-14 22:16:18.15	39.43	8.35	-30.8	-34.3	11.9	3.40e-04	0	41	0	46137344	22	5388
2026-01-14 22:16:19.15	39.56	8.40	-30.8	-34.4	11.8	4.31e-04	0	41	0	48234496	22	5433
2026-01-14 22:16:20.16	39.69	8.45	-30.8	-34.5	11.8	4.97e-04	0	41	0	50331648	22	5468
2026-01-14 22:16:21.16	39.83	8.50	-30.9	-34.8	11.6	8.44e-04	0	41	0	52428800	22	5590
2026-01-14 22:16:22.16	39.96	8.55	-30.8	-34.2	12.0	4.02e-04	0	41	0	54525952	22	5342
2026-01-14 22:16:23.16	40.09	8.60	-30.8	-34.2	12.0	3.55e-04	0	42	0	55574528	22	5335
2026-01-14 22:16:24.16	40.22	8.65	-30.7	-34.0	12.1	2.51e-04	0	42	0	57671680	22	5267
2026-01-14 22:16:25.17	40.36	8.71	-30.8	-34.2	12.0	2.88e-04	0	41	0	59768832	22	5337
2026-01-14 22:16:26.18	40.50	8.76	-30.7	-33.8	12.2	2.53e-04	0	41	0	61865984	22	5193
2026-01-14 22:16:27.17	40.63	8.81	-30.6	-33.5	12.5	1.56e-04	0	42	0	63963136	22	5067
2026-01-14 22:16:28.18	40.77	8.86	-30.6	-33.6	12.5	9.53e-05	0	42	0	65011712	22	5083
2026-01-14 22:16:29.19	40.90	8.91	-30.7	-33.8	12.3	1.75e-04	0	42	0	67108864	22	5177
2026-01-14 22:16:30.19	41.04	8.96	-30.6	-33.5	12.5	1.36e-04	0	42	0	69206016	22	5061
2026-01-14 22:16:31.19	41.17	9.01	-30.6	-33.6	12.5	9.61e-05	0	42	0	71303168	22	5104
2026-01-14 22:16:32.19	41.31	9.06	-30.6	-33.8	12.3	1.33e-04	0	42	0	73400320	22	5184
2026-01-14 22:16:33.19	41.45	9.11	-30.7	-34.1	12.1	2.51e-04	0	42	0	74448896	22	5286
2026-01-14 22:16:34.20	41.59	9.17	-30.5	-33.5	12.5	1.64e-04	0	42	0	76546048	22	5072
2026-01-14 22:16:35.20	41.73	9.22	-30.4	-33.1	12.8	8.39e-05	0	42	0	78643200	22	4920
2026-01-14 22:16:36.20	41.87	9.27	-30.4	-33.0	12.9	5.87e-05	0	42	0	80740352	22	4884
2026-01-14 22:16:37.20	42.00	9.32	-30.4	-33.2	12.8	5.87e-05	0	42	0	81788928	22	4948
2026-01-14 22:16:38.21	42.15	9.37	-30.3	-32.8	13.0	3.73e-05	0	42	0	83886080	22	4801
2026-01-14 22:16:39.22	42.29	9.42	-30.3	-32.9	12.9	4.73e-05	0	42	0	85983232	22	4849
2026-01-14 22:16:40.22	42.43	9.47	-30.2	-33.1	13.1	4.42e-05	0	42	0	88080384	21	5019
2026-01-14 22:16:41.22	42.57	9.52	-30.3	-33.3	13.0	3.28e-05	0	42	0	90177536	21	5098
2026-01-14 22:16:42.23	42.71	9.57	-30.3	-33.3	13.0	3.50e-05	0	42	0	91226112	21	5080
2026-01-14 22:16:43.23	42.85	9.62	-30.3	-33.3	13.0	3.35e-05	0	42	0	93323264	21	5090
2026-01-14 22:16:44.23	43.00	9.67	-30.5	-33.7	12.7	4.42e-05	0	42	0	95420416	21	5254
2026-01-14 22:16:45.24	43.14	9.72	-30.4	-33.5	12.9	4.27e-05	0	42	0	97517568	21	5146
2026-01-14 22:16:46.24	43.29	9.77	-30.4	-33.6	12.8	7.09e-05	0	42	0	99614720	21	5199
2026-01-14 22:16:47.24	43.43	9.82	-30.4	-33.7	12.8	5.34e-05	0	42	0	100663296	21	5226
2026-01-14 22:16:48.24	43.57	9.87	-30.4	-33.7	12.8	1.01e-04	0	42	0	102760448	21	5229
2026-01-14 22:16:49.24	43.72	9.92	-30.4	-33.4	13.0	5.79e-05	0	42	0	104857600	21	5118
2026-01-14 22:16:50.24	43.86	9.97	-30.4	-33.5	12.9	3.89e-05	0	42	0	106954752	21	5165
2026-01-14 22:16:51.25	44.01	10.02	-30.4	-33.6	12.9	6.63e-05	0	42	0	109051904	21	5193
2026-01-14 22:16:52.25	44.16	10.07	-30.3	-33.1	13.2	2.51e-05	0	42	0	110100480	21	5000
2026-01-14 22:16:53.26	44.31	10.12	-30.2	-33.1	13.2	2.82e-05	0	42	0	112197632	21	4980
2026-01-14 22:16:54.26	44.45	10.17	-30.3	-33.7	13.2	2.44e-05	0	42	0	114294784	20	5319
2026-01-14 22:16:55.26	44.60	10.22	-30.4	-34.0	13.0	2.59e-05	0	42	0	116391936	20	5446
2026-01-14 22:16:56.26	44.75	10.27	-30.5	-33.8	12.7	8.01e-05	0	42	0	118489088	21	5279
2026-01-14 22:16:57.26	44.90	10.32	-30.4	-33.5	13.0	6.10e-05	0	42	0	119537664	21	5144
2026-01-14 22:16:58.27	45.05	10.37	-30.4	-33.5	12.9	3.50e-05	0	42	0	121634816	21	5161
2026-01-14 22:16:59.28	45.20	10.42	-30.5	-33.8	12.7	6.71e-05	0	42	0	123731968	21	5273
2026-01-14 22:17:00.29	45.35	10.47	-30.4	-33.6	12.9	4.57e-05	0	42	0	125829120	21	5177
2026-01-14 22:17:01.29	45.50	10.52	-30.4	-33.6	12.9	4.34e-05	0	42	0	127926272	21	5169
2026-01-14 22:17:02.29	45.65	10.57	-30.5	-33.8	12.7	7.24e-05	0	42	0	128974848	21	5273
2026-01-14 22:17:03.29	45.81	10.62	-30.4	-33.6	12.9	4.95e-05	0	42	0	131072000	21	5179
2026-01-14 22:17:04.29	45.96	10.67	-30.5	-33.8	12.8	4.19e-05	0	42	0	133169152	21	5257
2026-01-14 22:17:05.29	46.11	10.72	-30.6	-34.0	12.6	9.15e-05	0	42	0	135266304	21	5356
2026-01-14 22:17:06.29	46.27	10.77	-30.4	-33.4	13.0	4.50e-05	0	42	0	136314880	21	5105
2026-01-14 22:17:07.30	46.42	10.82	-30.4	-33.5	13.0	3.43e-05	0	42	0	138412032	21	5140
2026-01-14 22:17:08.30	46.57	10.86	-30.4	-33.4	13.0	2.89e-05	0	42	0	140509184	21	5104
2026-01-14 22:17:09.30	46.73	10.91	-30.4	-33.4	13.1	3.28e-05	0	42	0	142606336	21	5110
2026-01-14 22:17:10.30	46.88	10.96	-30.4	-33.6	12.9	3.73e-05	0	42	0	144703488	21	5195
2026-01-14 22:17:11.31	47.04	11.01	-30.5	-33.9	12.8	4.27e-05	0	42	0	145752064	21	5284
2026-01-14 22:17:12.31	47.20	11.06	-30.6	-34.0	12.6	9.15e-05	0	42	0	147849216	21	5343
2026-01-14 22:17:13.32	47.36	11.11	-30.5	-33.7	12.9	5.18e-05	0	42	0	149946368	21	5216
2026-01-14 22:17:14.33	47.52	11.16	-30.5	-33.7	12.9	4.50e-05	0	42	0	152043520	21	5205
2026-01-14 22:17:15.33	47.67	11.20	-30.5	-33.8	12.8	8.16e-05	0	42	0	154140672	21	5250
2026-01-14 22:17:16.33	47.83	11.25	-30.5	-33.8	12.8	5.03e-05	0	42	0	155189248	21	5268
2026-01-14 22:17:17.33	47.99	11.30	-30.5	-33.7	12.9	2.08e-04	0	42	0	157286400	21	5219
2026-01-14 22:17:18.34	48.15	11.35	-30.5	-33.7	12.9	4.27e-05	0	42	0	159383552	21	5226
2026-01-14 22:17:19.35	48.31	11.40	-30.5	-33.6	12.9	4.42e-05	0	42	0	161480704	21	5196
2026-01-14 22:17:20.34	48.47	11.44	-30.5	-33.7	12.9	4.40e-04	0	42	0	163577856	21	5206
2026-01-14 22:17:21.34	48.63	11.49	-30.4	-34.1	13.0	4.04e-05	0	43	0	164626432	20	5469
2026-01-14 22:17:22.34	48.79	11.54	-30.5	-33.7	12.9	5.03e-05	0	42	0	166723584	21	5229
2026-01-14 22:17:23.34	48.96	11.58	-30.5	-33.9	12.8	1.54e-04	0	42	0	168820736	21	5274
2026-01-14 22:17:24.34	49.12	11.63	-30.6	-34.0	12.7	1.54e-04	0	42	0	170917888	21	5347
2026-01-14 22:17:25.34	49.28	11.68	-30.6	-34.0	12.7	7.17e-05	0	42	0	173015040	21	5350
2026-01-14 22:17:26.34	49.44	11.73	-30.7	-34.2	12.6	1.13e-04	0	43	0	174063616	21	5399
2026-01-14 22:17:27.34	49.61	11.77	-30.7	-34.2	12.6	9.38e-05	0	42	0	176160768	21	5421
2026-01-14 22:17:28.35	49.77	11.82	-30.6	-34.0	12.8	6.33e-05	0	42	0	178257920	21	5309
2026-01-14 22:17:29.35	49.94	11.87	-30.6	-34.0	12.7	7.47e-05	0	42	0	180355072	21	5312
2026-01-14 22:17:30.35	50.10	11.91	-30.7	-34.2	12.6	8.08e-05	0	42	0	181403648	21	5396
2026-01-14 22:17:31.35	50.27	11.96	-30.7	-34.4	12.4	1.26e-04	0	43	0	183500800	21	5507
2026-01-14 22:17:32.35	50.44	12.01	-30.7	-34.4	12.5	1.58e-04	0	42	0	185597952	21	5472
2026-01-14 22:17:33.36	50.61	12.05	-30.7	-34.2	12.6	8.08e-05	0	43	0	187695104	21	5393
2026-01-14 22:17:34.36	50.77	12.10	-30.7	-34.3	12.5	9.91e-05	0	42	0	189792256	21	5462
2026-01-14 22:17:35.36	50.94	12.14	-30.8	-34.7	12.3	1.40e-04	0	43	0	190840832	21	5608
2026-01-14 22:17:36.37	51.11	12.19	-30.9	-34.8	12.2	2.08e-04	0	43	0	192937984	21	5673
2026-01-14 22:17:37.36	51.28	12.23	-30.9	-34.8	12.2	2.29e-04	0	43	0	195035136	21	5653
2026-01-14 22:17:38.36	51.45	12.28	-30.9	-34.9	12.1	2.26e-04	0	42	0	197132288	21	5696
2026-01-14 22:17:39.36	51.62	12.32	-31.0	-35.1	12.0	3.00e-04	0	43	0	199229440	21	5784
2026-01-14 22:17:40.36	51.79	12.37	-31.1	-34.9	11.8	3.75e-04	0	42	0	200278016	22	5603
2026-01-14 22:17:41.37	51.96	12.42	-31.2	-35.3	11.5	7.80e-04	0	42	0	202375168	22	5776
2026-01-14 22:17:42.37	52.13	12.46	-31.2	-35.4	11.4	7.90e-04	0	43	0	204472320	22	5816
2026-01-14 22:17:43.37	52.30	12.50	-31.3	-35.5	11.4	9.96e-04	0	43	0	206569472	22	5867
2026-01-14 22:17:44.37	52.48	12.55	-31.2	-35.4	11.5	9.07e-04	0	43	0	208666624	22	5822
2026-01-14 22:17:45.37	52.65	12.59	-31.3	-35.5	11.4	9.06e-04	0	42	0	209715200	22	5843
2026-01-14 22:17:46.38	52.83	12.64	-31.2	-35.3	11.6	8.51e-04	0	43	0	211812352	22	5752
2026-01-14 22:17:47.38	53.00	12.68	-31.1	-35.1	11.7	6.91e-04	0	43	0	213909504	22	5669
2026-01-14 22:17:48.39	53.18	12.73	-31.1	-35.1	11.7	6.13e-04	0	43	0	216006656	22	5670
2026-01-14 22:17:49.40	53.35	12.77	-31.2	-35.1	11.7	5.52e-04	0	43	0	218103808	22	5683
2026-01-14 22:17:50.40	53.53	12.81	-31.1	-35.1	11.8	5.04e-04	0	43	0	219152384	22	5652
2026-01-14 22:17:51.41	53.71	12.86	-31.2	-35.2	11.7	9.31e-04	0	43	0	221249536	22	5704
2026-01-14 22:17:52.41	53.88	12.90	-31.3	-35.5	11.4	7.71e-04	0	43	0	223346688	22	5843
2026-01-14 22:17:53.41	54.06	12.94	-31.3	-35.5	11.4	9.15e-04	0	43	0	225443840	22	5852
2026-01-14 22:17:54.41	54.24	12.99	-31.4	-35.8	11.3	1.34e-03	0	43	0	226492416	22	5980
2026-01-14 22:17:55.42	54.42	13.03	-31.4	-35.8	11.2	1.56e-03	0	43	0	228589568	22	6009
2026-01-14 22:17:56.42	54.60	13.07	-31.4	-35.9	11.2	1.26e-03	0	43	0	230686720	22	6026
2026-01-14 22:17:57.42	54.78	13.11	-31.4	-36.0	11.0	1.50e-03	0	43	0	232783872	22	6110
2026-01-14 22:17:58.43	54.96	13.16	-31.4	-35.8	11.2	1.70e-03	0	43	0	234881024	22	5988
2026-01-14 22:17:59.43	55.14	13.20	-31.3	-35.7	11.3	1.12e-03	0	43	0	236978176	22	5925
2026-01-14 22:18:00.44	55.32	13.24	-31.3	-35.4	11.5	9.59e-04	0	43	0	238026752	22	5824
2026-01-14 22:18:01.44	55.50	13.28	-31.3	-35.5	11.4	8.96e-04	0	43	0	240123904	22	5868
2026-01-14 22:18:02.45	55.68	13.32	-31.3	-35.5	11.5	9.89e-04	0	43	0	242221056	22	5832
2026-01-14 22:18:03.45	55.87	13.37	-31.3	-35.5	11.5	8.09e-04	0	43	0	244318208	22	5849
2026-01-14 22:18:04.45	56.05	13.41	-31.3	-35.7	11.3	1.15e-03	0	43	0	245366784	22	5948
2026-01-14 22:18:05.45	56.23	13.45	-31.4	-36.0	11.1	1.89e-03	0	43	0	247463936	22	6097
2026-01-14 22:18:06.45	56.42	13.49	-31.5	-35.7	11.0	1.90e-03	0	43	0	249561088	23	5838
2026-01-14 22:18:07.46	56.60	13.53	-31.5	-35.8	10.9	2.02e-03	0	43	0	251658240	23	5865
2026-01-14 22:18:08.46	56.79	13.57	-31.6	-36.1	10.7	2.44e-03	0	43	0	253755392	23	6014
2026-01-14 22:18:09.46	56.97	13.61	-31.7	-36.3	10.5	4.13e-03	0	43	0	254803968	23	6117
2026-01-14 22:18:10.46	57.16	13.65	-31.7	-36.5	10.4	4.15e-03	0	43	0	256901120	23	6213
2026-01-14 22:18:11.46	57.34	13.69	-31.7	-36.4	10.5	4.67e-03	0	43	0	258998272	23	6169
2026-01-14 22:18:12.46	57.53	13.73	-31.6	-36.0	10.7	4.26e-03	0	43	0	261095424	23	5983
2026-01-14 22:18:13.46	57.72	13.77	-31.5	-35.6	11.0	2.10e-03	0	43	0	263192576	23	5805
2026-01-14 22:18:14.46	57.90	13.81	-31.5	-35.5	11.2	1.53e-03	0	43	0	264241152	23	5739
2026-01-14 22:18:15.46	58.09	13.85	-31.4	-35.3	11.3	1.32e-03	0	43	0	266338304	23	5651
2026-01-14 22:18:16.47	58.28	13.88	-31.4	-35.2	11.3	9.04e-04	0	43	0	268435456	23	5598
2026-01-14 22:18:17.47	58.47	13.92	-31.4	-35.7	11.4	1.25e-03	0	43	0	270532608	22	5911
2026-01-14 22:18:18.48	58.66	13.96	-31.3	-35.4	11.6	6.83e-04	0	43	0	272629760	22	5786
2026-01-14 22:18:19.48	58.85	14.00	-31.4	-35.8	11.3	9.07e-04	0	43	0	273678336	22	5975
2026-01-14 22:18:20.48	59.04	14.04	-31.3	-35.6	11.4	1.13e-03	0	43	0	275775488	22	5901
2026-01-14 22:18:21.48	59.23	14.07	-31.3	-35.4	11.6	7.85e-04	0	43	0	277872640	22	5798
2026-01-14 22:18:22.48	59.43	14.11	-31.2	-35.2	11.7	5.81e-04	0	43	0	279969792	22	5718
2026-01-14 22:18:23.48	59.62	14.15	-31.3	-35.3	11.6	6.78e-04	0	43	0	282066944	22	5757
2026-01-14 22:18:24.49	59.81	14.18	-31.2	-35.1	11.8	5.69e-04	0	43	0	283115520	22	5663
2026-01-14 22:18:25.49	60.00	14.22	-31.2	-35.1	11.8	4.49e-04	0	43	0	285212672	22	5659
2026-01-14 22:18:26.49	60.20	14.26	-31.2	-35.1	11.8	4.25e-04	0	43	0	287309824	22	5640
2026-01-14 22:18:27.50	60.39	14.29	-31.2	-35.1	11.8	4.63e-04	0	43	0	289406976	22	5663
2026-01-14 22:18:28.50	60.59	14.33	-31.1	-34.9	11.9	5.05e-04	0	43	0	290455552	22	5567
2026-01-14 22:18:29.51	60.78	14.36	-31.0	-34.5	12.3	2.74e-04	0	43	0	292552704	22	5384
2026-01-14 22:18:30.51	60.98	14.40	-31.0	-34.4	12.3	1.65e-04	0	43	0	294649856	22	5361
2026-01-14 22:18:31.51	61.17	14.43	-30.9	-34.2	12.3	1.29e-04	0	43	0	296747008	22	5285
2026-01-14 22:18:32.52	61.37	14.47	-30.8	-34.5	12.3	1.21e-04	0	43	0	298844160	21	5525
2026-01-14 22:18:33.52	61.57	14.50	-30.7	-34.2	12.8	8.39e-05	0	43	0	300941312	21	5372
2026-01-14 22:18:34.51	61.76	14.54	-30.5	-33.7	13.1	3.43e-05	0	43	0	301989888	21	5179
2026-01-14 22:18:35.52	61.96	14.57	-30.6	-34.0	12.9	4.04e-05	0	43	0	304087040	21	5324
2026-01-14 22:18:36.51	62.16	14.61	-30.5	-33.7	13.1	4.42e-05	0	43	0	306184192	21	5184
2026-01-14 22:18:37.52	62.36	14.64	-30.4	-33.9	13.3	1.83e-05	0	43	0	308281344	20	5364
2026-01-14 22:18:38.52	62.56	14.67	-30.4	-34.0	13.3	1.75e-05	0	43	0	309329920	20	5400
2026-01-14 22:18:39.52	62.76	14.70	-30.4	-33.5	13.3	2.05e-05	0	43	0	311427072	21	5094
2026-01-14 22:18:40.53	62.96	14.74	-30.4	-33.4	13.3	1.29e-03	0	43	0	313524224	21	5078
2026-01-14 22:18:41.53	63.16	14.77	-30.3	-33.7	13.5	6.80e-06	0	43	0	315621376	20	5278
2026-01-14 22:18:42.53	63.36	14.80	-30.3	-33.5	13.6	5.30e-06	0	43	0	317718528	20	5229
2026-01-14 22:18:43.54	63.56	14.83	-30.3	-33.4	13.6	1.60e-05	0	43	0	318767104	20	5197
2026-01-14 22:18:44.54	63.76	14.87	-30.2	-33.3	13.7	7.60e-06	0	43	0	320864256	20	5158
2026-01-14 22:18:45.54	63.96	14.90	-30.4	-33.8	13.4	1.06e-05	0	43	0	322961408	20	5330
2026-01-14 22:18:46.54	64.16	14.93	-30.5	-34.1	13.2	2.05e-05	0	43	0	325058560	20	5447
2026-01-14 22:18:47.55	64.37	14.96	-30.6	-34.0	12.9	6.63e-04	0	43	0	327155712	21	5286
2026-01-14 22:18:48.56	64.57	14.99	-30.6	-34.0	12.9	4.50e-05	0	43	0	328204288	21	5298
2026-01-14 22:18:49.56	64.78	15.02	-30.5	-33.5	13.2	2.82e-05	0	43	0	330301440	21	5120
2026-01-14 22:18:50.56	64.98	15.05	-30.5	-34.0	13.3	1.04e-03	0	43	0	332398592	20	5420
2026-01-14 22:18:51.57	65.19	15.08	-30.5	-33.6	13.2	2.21e-05	0	43	0	334495744	21	5138
2026-01-14 22:18:52.58	65.39	15.11	-30.6	-33.9	13.1	1.83e-05	0	43	0	336592896	21	5238
2026-01-14 22:18:53.58	65.60	15.14	-30.6	-33.9	13.0	3.96e-05	0	43	0	337641472	21	5276
2026-01-14 22:18:54.57	65.80	15.16	-30.5	-33.6	13.2	2.51e-05	0	43	0	339738624	21	5145
2026-01-14 22:18:55.57	66.01	15.19	-30.5	-33.7	13.2	2.36e-05	0	43	0	341835776	21	5169
2026-01-14 22:18:56.58	66.21	15.22	-30.6	-33.8	13.1	2.59e-05	0	43	0	343932928	21	5211
2026-01-14 22:18:57.59	66.42	15.25	-30.6	-34.0	12.9	4.88e-05	0	43	0	346030080	21	5317
2026-01-14 22:18:58.59	66.63	15.27	-30.7	-34.1	12.9	4.87e-04	0	43	0	347078656	21	5334
2026-01-14 22:18:59.59	66.84	15.30	-30.7	-34.3	12.8	5.11e-05	0	43	0	349175808	21	5402
2026-01-14 22:19:00.58	67.04	15.33	-30.7	-34.2	12.8	7.78e-05	0	43	0	351272960	21	5371
2026-01-14 22:19:01.58	67.25	15.35	-30.8	-34.4	12.7	2.76e-04	0	43	0	353370112	21	5452
2026-01-14 22:19:02.59	67.46	15.38	-30.8	-34.6	12.6	1.68e-04	0	43	0	354418688	21	5527
2026-01-14 22:19:03.59	67.67	15.41	-30.9	-34.7	12.5	9.46e-05	0	43	0	356515840	21	5565
2026-01-14 22:19:04.59	67.88	15.43	-30.9	-34.8	12.4	2.30e-04	0	43	0	358612992	21	5606
2026-01-14 22:19:05.60	68.09	15.46	-30.8	-34.5	12.6	3.48e-04	0	43	0	360710144	21	5492
2026-01-14 22:19:06.61	68.30	15.48	-30.9	-34.7	12.5	9.99e-05	0	43	0	362807296	21	5566
2026-01-14 22:19:07.61	68.51	15.50	-31.0	-34.9	12.3	5.78e-04	0	43	0	363855872	21	5662
2026-01-14 22:19:08.61	68.72	15.53	-31.0	-34.4	12.4	6.57e-04	0	43	0	365953024	22	5355
2026-01-14 22:19:09.61	68.93	15.55	-30.9	-34.3	12.4	1.63e-04	0	43	0	368050176	22	5311
2026-01-14 22:19:10.61	69.14	15.58	-30.9	-34.6	12.5	5.34e-04	0	43	0	370147328	21	5564
2026-01-14 22:19:11.61	69.35	15.60	-30.8	-34.6	12.5	4.32e-04	0	43	0	372244480	21	5536
2026-01-14 22:19:12.61	69.56	15.62	-30.9	-34.8	12.4	1.27e-04	0	43	0	373293056	21	5636
2026-01-14 22:19:13.61	69.78	15.64	-30.9	-34.2	12.5	1.96e-04	0	43	0	375390208	22	5287
2026-01-14 22:19:14.62	69.99	15.66	-30.7	-33.7	12.9	1.85e-04	0	43	0	377487360	22	5078
2026-01-14 22:19:15.62	70.20	15.69	-30.7	-33.7	12.9	4.50e-05	0	43	0	379584512	22	5075
2026-01-14 22:19:16.62	70.42	15.71	-30.7	-33.6	12.9	1.04e-04	0	43	0	381681664	22	5021
2026-01-14 22:19:17.63	70.63	15.73	-30.8	-33.8	12.8	1.39e-04	0	43	0	382730240	22	5099
2026-01-14 22:19:18.63	70.84	15.75	-30.8	-33.9	12.7	8.92e-05	0	43	0	384827392	22	5139
2026-01-14 22:19:19.63	71.06	15.77	-30.9	-34.1	12.6	2.24e-04	0	43	0	386924544	22	5225
2026-01-14 22:19:20.63	71.27	15.79	-30.9	-34.3	12.5	2.97e-04	0	43	0	389021696	22	5309
2026-01-14 22:19:21.63	71.49	15.81	-31.0	-34.4	12.4	1.18e-04	0	43	0	391118848	22	5343
2026-01-14 22:19:22.63	71.70	15.83	-30.9	-34.2	12.5	2.84e-04	0	43	0	392167424	22	5259
2026-01-14 22:19:23.64	71.92	15.84	-30.8	-33.8	12.8	1.76e-04	0	43	0	394264576	22	5122
2026-01-14 22:19:24.64	72.13	15.86	-30.7	-33.6	13.0	4.57e-05	0	43	0	396361728	22	5024
2026-01-14 22:19:25.64	72.35	15.88	-30.7	-33.7	12.9	8.46e-05	0	43	0	398458880	22	5071
2026-01-14 22:19:26.65	72.57	15.90	-30.6	-33.4	13.1	1.06e-04	0	43	0	399507456	22	4949
2026-01-14 22:19:27.65	72.78	15.92	-30.6	-33.3	13.2	2.59e-05	0	43	0	401604608	22	4916
2026-01-14 22:19:28.65	73.00	15.93	-30.7	-33.6	13.0	1.29e-04	0	43	0	403701760	22	5022
2026-01-14 22:19:29.65	73.21	15.95	-30.7	-33.5	13.0	1.42e-04	0	43	0	405798912	22	5009
2026-01-14 22:19:30.66	73.43	15.96	-30.7	-33.7	12.9	3.58e-05	0	43	0	407896064	22	5056
2026-01-14 22:19:31.66	73.65	15.98	-30.7	-33.6	12.9	4.80e-05	0	43	0	408944640	22	5042
2026-01-14 22:19:32.66	73.87	16.00	-30.6	-33.4	13.1	7.17e-05	0	43	0	411041792	22	4945
2026-01-14 22:19:33.67	74.08	16.01	-30.7	-33.6	13.0	2.74e-05	0	43	0	413138944	22	5021
2026-01-14 22:19:34.67	74.30	16.03	-30.7	-33.5	13.0	3.05e-05	0	43	0	415236096	22	4996
2026-01-14 22:19:35.67	74.52	16.04	-30.7	-33.6	13.0	1.68e-04	0	43	0	417333248	22	5014
2026-01-14 22:19:36.67	74.74	16.05	-30.8	-33.8	12.8	4.27e-05	0	43	0	418381824	22	5107
2026-01-14 22:19:37.67	74.95	16.07	-30.8	-34.3	12.8	2.73e-04	0	43	0	420478976	21	5409
2026-01-14 22:19:38.67	75.17	16.08	-30.8	-34.4	12.8	5.87e-05	0	43	0	422576128	21	5443
2026-01-14 22:19:39.68	75.39	16.09	-30.7	-34.2	12.8	6.86e-05	0	43	0	424673280	21	5394
2026-01-14 22:19:40.67	75.61	16.10	-30.8	-34.4	12.7	6.40e-05	0	43	0	426770432	21	5471
2026-01-14 22:19:41.68	75.83	16.12	-30.7	-34.2	12.8	8.16e-05	0	43	0	427819008	21	5363
2026-01-14 22:19:42.69	76.05	16.13	-30.6	-33.9	13.1	3.58e-05	0	43	0	429916160	21	5245
2026-01-14 22:19:43.69	76.27	16.14	-30.5	-33.7	13.2	7.01e-05	0	43	0	432013312	21	5166
2026-01-14 22:19:44.69	76.49	16.15	-30.5	-33.6	13.3	9.76e-05	0	43	0	434110464	21	5130
2026-01-14 22:19:45.70	76.71	16.16	-30.6	-33.8	13.1	2.05e-05	0	43	0	436207616	21	5213
2026-01-14 22:19:46.70	76.93	16.17	-30.5	-33.7	13.2	1.36e-04	0	43	0	437256192	21	5192
2026-01-14 22:19:47.71	77.15	16.18	-30.5	-33.6	13.3	8.16e-05	0	43	0	439353344	21	5140
2026-01-14 22:19:48.72	77.37	16.19	-30.5	-33.7	13.2	2.13e-05	0	43	0	441450496	21	5172
2026-01-14 22:19:49.72	77.59	16.20	-30.5	-33.5	13.3	1.98e-05	0	43	0	443547648	21	5108
2026-01-14 22:19:50.72	77.81	16.20	-30.4	-33.3	13.4	7.47e-05	0	43	0	445644800	21	5038
2026-01-14 22:19:51.73	78.04	16.21	-30.4	-33.4	13.3	1.06e-05	0	43	0	446693376	21	5069
2026-01-14 22:19:52.73	78.26	16.22	-30.5	-33.6	13.3	1.98e-05	0	43	0	448790528	21	5122
2026-01-14 22:19:53.74	78.48	16.23	-30.5	-33.6	13.3	1.60e-04	0	43	0	450887680	21	5155
2026-01-14 22:19:54.74	78.70	16.23	-30.6	-33.9	13.1	2.51e-05	0	43	0	452984832	21	5257
2026-01-14 22:19:55.74	78.92	16.24	-30.6	-34.0	13.0	3.43e-05	0	43	0	454033408	21	5289
2026-01-14 22:19:56.74	79.14	16.25	-30.7	-34.1	12.9	4.73e-05	0	43	0	456130560	21	5323
2026-01-14 22:19:57.75	79.36	16.25	-30.7	-34.2	12.9	4.73e-05	0	43	0	458227712	21	5386
2026-01-14 22:19:58.74	79.58	16.26	-30.7	-34.1	12.9	5.64e-05	0	43	0	460324864	21	5356
2026-01-14 22:19:59.75	79.81	16.26	-30.7	-34.3	12.8	4.57e-05	0	43	0	462422016	21	5395
2026-01-14 22:20:00.75	80.03	16.27	-30.8	-34.4	12.7	8.31e-05	0	43	0	463470592	21	5466
2026-01-14 22:20:01.76	80.25	16.27	-30.6	-34.0	12.9	1.88e-04	0	43	0	465567744	21	5298
2026-01-14 22:20:02.76	80.47	16.27	-30.6	-33.8	13.1	3.05e-05	0	43	0	467664896	21	5231
2026-01-14 22:20:03.76	80.69	16.28	-30.5	-33.6	13.2	2.21e-05	0	43	0	469762048	21	5152
2026-01-14 22:20:04.76	80.91	16.28	-30.5	-33.7	13.1	3.04e-04	0	43	0	471859200	21	5193
2026-01-14 22:20:05.77	81.14	16.28	-30.4	-33.4	13.3	2.05e-05	0	43	0	472907776	21	5089
2026-01-14 22:20:06.77	81.36	16.28	-30.6	-34.0	13.0	2.21e-05	0	43	0	475004928	21	5314
2026-01-14 22:20:07.77	81.58	16.28	-30.6	-33.9	13.1	5.41e-05	0	43	0	477102080	21	5250
2026-01-14 22:20:08.77	81.80	16.28	-30.5	-33.6	13.2	2.59e-05	0	43	0	479199232	21	5142
2026-01-14 22:20:09.77	82.02	16.29	-30.5	-33.5	13.3	2.28e-05	0	43	0	481296384	21	5112
2026-01-14 22:20:10.78	82.24	16.29	-30.5	-33.5	13.3	1.60e-05	0	43	0	482344960	21	5122
2026-01-14 22:20:11.78	82.47	16.29	-30.6	-33.8	13.1	2.44e-05	0	43	0	484442112	21	5223
2026-01-14 22:20:12.78	82.69	16.28	-30.6	-34.0	12.9	3.73e-05	0	43	0	486539264	21	5316
2026-01-14 22:20:13.78	82.91	16.28	-30.5	-33.8	13.1	4.04e-05	0	43	0	488636416	21	5224
2026-01-14 22:20:14.78	83.13	16.28	-30.5	-33.7	13.1	2.82e-05	0	43	0	490733568	21	5194
2026-01-14 22:20:15.78	83.35	16.28	-30.5	-33.7	13.1	2.97e-05	0	43	0	491782144	21	5193
2026-01-14 22:20:16.79	83.57	16.28	-30.6	-34.0	12.9	4.42e-05	0	43	0	493879296	21	5317
2026-01-14 22:20:17.79	83.80	16.28	-30.6	-33.9	13.0	4.88e-05	0	43	0	495976448	21	5270
2026-01-14 22:20:18.80	84.02	16.27	-30.6	-33.8	13.1	3.58e-05	0	43	0	498073600	21	5229
2026-01-14 22:20:19.80	84.24	16.27	-30.7	-34.2	12.9	5.41e-05	0	43	0	499122176	21	5367
2026-01-14 22:20:20.81	84.46	16.26	-30.6	-33.8	13.1	5.26e-05	0	43	0	501219328	21	5241
2026-01-14 22:20:21.81	84.68	16.26	-30.5	-33.5	13.3	2.51e-05	0	43	0	503316480	21	5089
2026-01-14 22:20:22.82	84.91	16.26	-30.4	-33.4	13.3	5.18e-05	0	43	0	505413632	21	5064
2026-01-14 22:20:23.82	85.13	16.25	-30.5	-33.5	13.3	1.98e-05	0	43	0	507510784	21	5102
2026-01-14 22:20:24.82	85.35	16.25	-30.6	-33.9	13.0	1.83e-05	0	43	0	509607936	21	5254
2026-01-14 22:20:25.83	85.57	16.24	-30.7	-34.2	12.8	5.87e-05	0	43	0	510656512	21	5387
2026-01-14 22:20:26.83	85.79	16.23	-30.7	-34.2	12.8	5.41e-05	0	43	0	512753664	21	5370
2026-01-14 22:20:27.84	86.02	16.23	-30.7	-34.3	12.8	6.71e-05	0	43	0	514850816	21	5416
2026-01-14 22:20:28.84	86.24	16.22	-30.8	-34.5	12.6	7.62e-05	0	43	0	516947968	21	5525
2026-01-14 22:20:29.85	86.46	16.21	-30.7	-34.3	12.7	8.16e-05	0	43	0	517996544	21	5431
2026-01-14 22:20:30.86	86.68	16.20	-30.6	-33.9	13.0	4.11e-05	0	43	0	520093696	21	5279
2026-01-14 22:20:31.86	86.90	16.20	-30.5	-33.7	13.2	3.43e-05	0	43	0	522190848	21	5173
2026-01-14 22:20:32.86	87.12	16.19	-30.5	-33.8	13.1	3.43e-05	0	43	0	524288000	21	5210
2026-01-14 22:20:33.87	87.34	16.18	-30.4	-33.4	13.3	2.44e-05	0	43	0	526385152	21	5069
2026-01-14 22:20:34.87	87.56	16.17	-30.6	-33.8	13.0	2.59e-05	0	43	0	527433728	21	5250
2026-01-14 22:20:35.88	87.79	16.16	-30.5	-33.6	13.2	2.82e-05	0	43	0	529530880	21	5168
2026-01-14 22:20:36.88	88.00	16.15	-30.4	-33.4	13.3	1.52e-05	0	43	0	531628032	21	5063
2026-01-14 22:20:37.87	88.22	16.14	-30.4	-33.3	13.4	1.37e-05	0	43	0	533725184	21	5038
2026-01-14 22:20:38.88	88.44	16.13	-30.5	-33.7	13.2	1.83e-05	0	43	0	535822336	21	5171
2026-01-14 22:20:39.87	88.66	16.11	-30.5	-33.5	13.2	2.59e-05	0	43	0	536870912	21	5124
2026-01-14 22:20:40.88	88.88	16.10	-30.4	-33.3	13.4	1.37e-05	0	43	0	538968064	21	5023
2026-01-14 22:20:41.89	89.10	16.09	-30.4	-33.3	13.4	1.44e-05	0	43	0	541065216	21	5020
2026-01-14 22:20:42.89	89.32	16.08	-30.4	-33.3	13.4	9.90e-06	0	43	0	543162368	21	5031
2026-01-14 22:20:43.89	89.54	16.06	-30.4	-33.2	13.5	1.83e-05	0	43	0	545259520	21	5016
2026-01-14 22:20:44.89	89.76	16.05	-30.3	-33.0	13.6	6.80e-06	0	43	0	546308096	21	4936
2026-01-14 22:20:45.90	89.98	16.04	-30.3	-33.0	13.6	2.67e-05	0	43	0	548405248	21	4909
2026-01-14 22:20:46.90	90.20	16.02	-30.2	-32.7	13.8	6.80e-06	0	43	0	550502400	21	4830
2026-01-14 22:20:47.91	90.42	16.01	-30.3	-33.0	13.6	4.50e-06	0	43	0	552599552	21	4922
2026-01-14 22:20:48.91	90.63	15.99	-30.2	-32.9	13.6	1.67e-05	0	43	0	554696704	21	4911
2026-01-14 22:20:49.92	90.85	15.98	-30.2	-32.9	13.7	1.90e-05	0	43	0	555745280	21	4890
2026-01-14 22:20:50.93	91.07	15.96	-30.3	-33.1	13.5	1.06e-05	0	43	0	557842432	21	4978
2026-01-14 22:20:51.93	91.29	15.95	-30.2	-32.8	13.7	9.10e-06	0	43	0	559939584	21	4858
2026-01-14 22:20:52.93	91.50	15.93	-30.1	-32.6	13.8	5.03e-05	0	43	0	562036736	21	4781
2026-01-14 22:20:53.93	91.72	15.91	-30.1	-32.6	13.9	1.50e-06	0	43	0	564133888	21	4773
2026-01-14 22:20:54.93	91.94	15.90	-30.1	-32.5	13.9	5.26e-05	0	43	0	565182464	21	4753
2026-01-14 22:20:55.93	92.15	15.88	-30.1	-32.5	13.9	5.56e-05	0	43	0	567279616	21	4744
2026-01-14 22:20:56.93	92.37	15.86	-30.1	-32.5	13.8	3.20e-05	0	43	0	569376768	21	4772
2026-01-14 22:20:57.94	92.59	15.84	-30.2	-32.7	13.7	5.41e-05	0	43	0	571473920	21	4840
2026-01-14 22:20:58.94	92.80	15.82	-29.9	-32.0	14.1	7.55e-05	0	43	0	573571072	21	4601
2026-01-14 22:20:59.95	93.02	15.80	-29.8	-32.2	14.3	1.60e-05	0	43	0	574619648	20	4765
2026-01-14 22:21:00.95	93.23	15.78	-29.7	-32.1	14.5	3.35e-05	0	43	0	576716800	20	4716
2026-01-14 22:21:01.96	93.45	15.76	-29.8	-32.2	14.3	8.46e-05	0	43	0	578813952	20	4772
2026-01-14 22:21:02.96	93.66	15.74	-29.8	-32.3	14.3	3.00e-06	0	43	0	580911104	20	4804
2026-01-14 22:21:03.96	93.88	15.72	-30.0	-32.8	14.0	5.18e-05	0	43	0	583008256	20	4984
2026-01-14 22:21:04.97	94.09	15.70	-30.1	-33.0	13.9	9.38e-05	0	43	0	584056832	20	5026
2026-01-14 22:21:05.97	94.31	15.68	-30.1	-33.0	13.9	4.50e-06	0	43	0	586153984	20	5049
2026-01-14 22:21:06.97	94.52	15.66	-30.1	-33.0	13.8	3.54e-04	0	43	0	588251136	20	5053
2026-01-14 22:21:07.96	94.73	15.64	-30.1	-33.0	13.9	4.32e-04	0	43	0	590348288	20	5037
2026-01-14 22:21:08.97	94.94	15.62	-30.0	-32.9	13.9	3.00e-06	0	43	0	591396864	20	5003
2026-01-14 22:21:09.97	95.15	15.59	-30.0	-32.8	14.0	4.60e-04	0	43	0	593494016	20	4973
2026-01-14 22:21:10.97	95.37	15.57	-30.2	-33.3	13.7	4.17e-04	0	43	0	595591168	20	5133
2026-01-14 22:21:11.97	95.58	15.55	-29.9	-32.6	14.1	3.00e-06	0	43	0	597688320	20	4899
2026-01-14 22:21:12.97	95.79	15.52	-29.8	-32.2	14.4	7.00e-07	0	43	0	599785472	20	4753
2026-01-14 22:21:13.98	96.00	15.50	-29.6	-31.6	14.7	2.20e-06	0	43	0	600834048	20	4572
2026-01-14 22:21:14.98	96.21	15.47	-29.6	-31.7	14.6	0.00e+00	0	43	0	602931200	20	4609
2026-01-14 22:21:15.99	96.42	15.45	-29.5	-31.5	14.8	0.00e+00	0	43	0	605028352	20	4515
2026-01-14 22:21:16.98	96.63	15.43	-29.5	-31.6	14.8	0.00e+00	0	43	0	607125504	20	4554
2026-01-14 22:21:17.99	96.84	15.40	-29.5	-31.6	14.7	0.00e+00	0	43	0	609222656	20	4551
2026-01-14 22:21:18.99	97.05	15.37	-29.5	-31.5	14.7	0.00e+00	0	43	0	610271232	20	4536
2026-01-14 22:21:20.00	97.26	15.35	-29.7	-32.0	14.5	0.00e+00	0	43	0	612368384	20	4681
2026-01-14 22:21:21.00	97.47	15.32	-29.5	-31.6	14.7	7.00e-07	0	43	0	614465536	20	4563
2026-01-14 22:21:22.00	97.68	15.29	-29.7	-32.6	14.5	6.94e-05	0	43	0	616562688	19	4985
2026-01-14 22:21:23.00	97.89	15.27	-29.8	-32.6	14.4	1.17e-04	0	43	0	618659840	19	5014
2026-01-14 22:21:24.01	98.10	15.24	-29.8	-32.8	14.4	0.00e+00	0	43	0	619708416	19	5057
2026-01-14 22:21:25.02	98.30	15.21	-29.9	-33.1	14.1	8.85e-05	0	43	0	621805568	19	5184
2026-01-14 22:21:26.01	98.51	15.18	-29.9	-33.0	14.2	1.24e-04	0	43	0	623902720	19	5127
2026-01-14 22:21:27.02	98.72	15.16	-29.8	-32.8	14.4	0.00e+00	0	43	0	625999872	19	5057
2026-01-14 22:21:28.03	98.93	15.13	-29.9	-33.0	14.2	7.00e-07	0	43	0	628097024	19	5132
2026-01-14 22:21:29.04	99.13	15.10	-29.8	-32.7	14.4	8.77e-05	0	43	0	629145600	19	5045
2026-01-14 22:21:30.03	99.34	15.07	-29.9	-33.0	14.2	0.00e+00	0	43	0	631242752	19	5149
2026-01-14 22:21:31.04	99.54	15.04	-29.6	-32.3	14.6	0.00e+00	0	43	0	633339904	19	4900
2026-01-14 22:21:32.04	99.75	15.01	-29.6	-32.2	14.7	5.18e-05	0	43	0	635437056	19	4873
2026-01-14 22:21:33.04	99.95	14.98	-29.6	-32.3	14.7	0.00e+00	0	43	0	636485632	19	4894
2026-01-14 22:21:34.04	100.15	14.95	-29.6	-32.3	14.7	7.00e-07	0	43	0	638582784	19	4889
2026-01-14 22:21:35.04	100.36	14.92	-29.6	-32.2	14.7	0.00e+00	0	43	0	640679936	19	4855
2026-01-14 22:21:36.04	100.56	14.89	-29.5	-32.1	14.8	0.00e+00	0	43	0	642777088	19	4816
2026-01-14 22:21:37.04	100.76	14.86	-29.7	-32.6	14.5	0.00e+00	0	43	0	644874240	19	4994
2026-01-14 22:21:38.05	100.96	14.82	-29.8	-32.7	14.4	7.00e-07	0	43	0	645922816	19	5029
2026-01-14 22:21:39.05	101.17	14.79	-29.9	-33.0	14.1	2.20e-06	0	43	0	648019968	19	5168
2026-01-14 22:21:40.06	101.37	14.76	-30.0	-32.8	13.9	1.14e-04	0	43	0	650117120	20	4967
2026-01-14 22:21:41.07	101.57	14.73	-30.1	-33.2	13.6	3.80e-06	0	43	0	652214272	20	5145
2026-01-14 22:21:42.07	101.77	14.69	-30.1	-33.1	13.7	1.29e-05	0	43	0	654311424	20	5094
2026-01-14 22:21:43.08	101.97	14.66	-30.1	-33.2	13.7	1.14e-05	0	43	0	655360000	20	5115
2026-01-14 22:21:44.08	102.17	14.63	-30.1	-33.2	13.7	5.30e-06	0	43	0	657457152	20	5110
2026-01-14 22:21:45.08	102.37	14.59	-30.1	-33.1	13.7	6.10e-06	0	43	0	659554304	20	5103
2026-01-14 22:21:46.09	102.57	14.56	-30.3	-33.7	13.3	5.30e-06	0	43	0	661651456	20	5316
2026-01-14 22:21:47.09	102.77	14.53	-30.1	-33.2	13.6	9.90e-06	0	43	0	663748608	20	5113
2026-01-14 22:21:48.09	102.97	14.49	-30.0	-32.9	13.9	6.10e-06	0	43	0	664797184	20	5000
2026-01-14 22:21:49.09	103.16	14.46	-30.0	-32.8	13.8	6.80e-06	0	43	0	666894336	20	4997
2026-01-14 22:21:50.10	103.36	14.42	-30.0	-32.9	13.9	2.20e-06	0	43	0	668991488	20	5011
2026-01-14 22:21:51.10	103.56	14.39	-30.0	-32.8	13.9	3.00e-06	0	43	0	671088640	20	4964
2026-01-14 22:21:52.11	103.76	14.35	-30.0	-32.8	13.9	7.00e-07	0	43	0	673185792	20	4977
2026-01-14 22:21:53.10	103.95	14.32	-29.9	-32.5	14.1	1.50e-06	0	43	0	674234368	20	4855
2026-01-14 22:21:54.11	104.15	14.28	-29.8	-32.4	14.2	3.00e-06	0	43	0	676331520	20	4825
2026-01-14 22:21:55.11	104.34	14.24	-29.8	-32.3	14.2	7.00e-07	0	43	0	678428672	20	4812
2026-01-14 22:21:56.11	104.53	14.21	-30.0	-32.8	13.9	3.00e-06	0	43	0	680525824	20	4972
2026-01-14 22:21:57.12	104.73	14.17	-30.0	-32.9	13.8	3.80e-06	0	43	0	682622976	20	5016
2026-01-14 22:21:58.12	104.92	14.13	-30.2	-33.3	13.5	8.30e-06	0	43	0	683671552	20	5182
2026-01-14 22:21:59.13	105.12	14.09	-30.4	-33.8	13.2	1.22e-05	0	43	0	685768704	20	5373
2026-01-14 22:22:00.13	105.31	14.06	-30.5	-34.2	12.9	4.11e-05	0	43	0	687865856	20	5529
2026-01-14 22:22:01.13	105.50	14.02	-30.8	-34.5	12.4	1.72e-04	0	43	0	689963008	21	5537
2026-01-14 22:22:02.14	105.69	13.98	-30.9	-35.0	12.1	2.02e-04	0	43	0	692060160	21	5755
2026-01-14 22:22:03.14	105.88	13.94	-30.9	-35.1	11.9	3.10e-04	0	43	0	693108736	21	5778
2026-01-14 22:22:04.14	106.07	13.90	-31.1	-34.9	11.7	5.32e-04	0	43	0	695205888	22	5589
2026-01-14 22:22:05.14	106.26	13.87	-31.1	-35.1	11.6	5.99e-04	0	43	0	697303040	22	5688
2026-01-14 22:22:06.14	106.45	13.83	-31.1	-35.0	11.6	6.55e-04	0	43	0	699400192	22	5647
2026-01-14 22:22:07.14	106.64	13.79	-31.1	-35.1	11.6	6.12e-04	0	43	0	700448768	22	5679
2026-01-14 22:22:08.15	106.83	13.75	-31.2	-35.3	11.5	8.61e-04	0	43	0	702545920	22	5779
2026-01-14 22:22:09.15	107.02	13.71	-31.2	-35.2	11.6	7.02e-04	0	43	0	704643072	22	5723
2026-01-14 22:22:10.15	107.21	13.67	-31.2	-35.2	11.6	7.10e-04	0	43	0	706740224	22	5720
2026-01-14 22:22:11.15	107.39	13.63	-31.2	-35.2	11.6	8.51e-04	0	43	0	708837376	22	5719
2026-01-14 22:22:12.15	107.58	13.59	-31.2	-35.2	11.6	7.14e-04	0	43	0	709885952	22	5712
2026-01-14 22:22:13.15	107.76	13.55	-31.3	-35.5	11.3	8.77e-04	0	43	0	711983104	22	5846
2026-01-14 22:22:14.16	107.95	13.51	-31.0	-34.7	11.9	5.08e-04	0	43	0	714080256	22	5497
2026-01-14 22:22:15.17	108.14	13.47	-30.8	-34.5	12.4	2.25e-04	0	43	0	716177408	21	5525
2026-01-14 22:22:16.17	108.32	13.43	-30.7	-34.4	12.4	1.52e-04	0	43	0	718274560	21	5474
2026-01-14 22:22:17.18	108.51	13.38	-30.8	-34.6	12.3	1.25e-04	0	43	0	719323136	21	5559
2026-01-14 22:22:18.19	108.69	13.34	-30.8	-34.5	12.4	1.13e-04	0	43	0	721420288	21	5534
2026-01-14 22:22:19.19	108.88	13.30	-30.9	-34.8	12.1	2.66e-04	0	43	0	723517440	21	5651
2026-01-14 22:22:20.19	109.06	13.26	-30.9	-34.9	12.1	2.68e-04	0	43	0	725614592	21	5708
2026-01-14 22:22:21.19	109.24	13.22	-31.0	-35.1	12.0	3.47e-04	0	43	0	727711744	21	5785
2026-01-14 22:22:22.19	109.42	13.18	-31.0	-34.7	11.9	4.32e-04	0	43	0	728760320	22	5526
2026-01-14 22:22:23.19	109.60	13.13	-31.1	-34.9	11.8	5.59e-04	0	43	0	730857472	22	5602
2026-01-14 22:22:24.18	109.78	13.09	-31.2	-35.3	11.4	8.44e-04	0	43	0	732954624	22	5780
2026-01-14 22:22:25.18	109.96	13.05	-31.2	-35.3	11.5	8.47e-04	0	43	0	735051776	22	5766
2026-01-14 22:22:26.19	110.14	13.00	-31.4	-35.8	11.1	1.47e-03	0	43	0	737148928	22	6031
2026-01-14 22:22:27.19	110.32	12.96	-31.3	-35.8	11.1	1.63e-03	0	43	0	738197504	22	6003
2026-01-14 22:22:28.19	110.50	12.92	-31.4	-36.0	10.9	2.16e-03	0	43	0	740294656	22	6113
2026-01-14 22:22:29.20	110.68	12.87	-31.3	-35.7	11.1	1.80e-03	0	43	0	742391808	22	5963
2026-01-14 22:22:30.20	110.85	12.83	-31.3	-35.6	11.2	1.40e-03	0	43	0	744488960	22	5928
2026-01-14 22:22:31.20	111.03	12.79	-31.2	-35.5	11.3	1.55e-03	0	43	0	745537536	22	5864
2026-01-14 22:22:32.21	111.21	12.74	-31.1	-35.1	11.6	8.81e-04	0	43	0	747634688	22	5687
2026-01-14 22:22:33.22	111.39	12.70	-31.1	-34.9	11.7	6.35e-04	0	43	0	749731840	22	5607
2026-01-14 22:22:34.22	111.56	12.65	-30.9	-34.6	11.9	4.08e-04	0	43	0	751828992	22	5457
2026-01-14 22:22:35.22	111.74	12.61	-31.0	-34.6	11.9	3.62e-04	0	43	0	753926144	22	5451
2026-01-14 22:22:36.23	111.91	12.56	-30.9	-34.5	11.9	5.00e-04	0	43	0	754974720	22	5452
2026-01-14 22:22:37.22	112.08	12.52	-30.9	-34.6	11.9	3.34e-04	0	43	0	757071872	22	5473
2026-01-14 22:22:38.22	112.26	12.48	-30.9	-34.5	12.0	4.01e-04	0	43	0	759169024	22	5439
2026-01-14 22:22:39.22	112.43	12.43	-30.9	-34.9	12.0	5.76e-04	0	43	0	761266176	21	5718
2026-01-14 22:22:40.22	112.60	12.39	-30.9	-34.9	12.0	6.00e-04	0	43	0	763363328	21	5710
2026-01-14 22:22:41.23	112.78	12.34	-30.7	-34.4	12.3	2.16e-04	0	43	0	764411904	21	5491
2026-01-14 22:22:42.22	112.95	12.29	-30.6	-34.2	12.5	2.14e-04	0	43	0	766509056	21	5413
2026-01-14 22:22:43.22	113.12	12.25	-30.6	-34.2	12.4	1.31e-04	0	43	0	768606208	21	5450
2026-01-14 22:22:44.22	113.29	12.20	-30.7	-34.4	12.2	1.46e-04	0	43	0	770703360	21	5524
2026-01-14 22:22:45.23	113.46	12.16	-30.8	-34.6	12.1	2.39e-04	0	43	0	772800512	21	5619
2026-01-14 22:22:46.24	113.63	12.11	-30.7	-34.3	12.4	2.17e-04	0	43	0	773849088	21	5475
2026-01-14 22:22:47.24	113.80	12.06	-30.7	-34.4	12.3	1.59e-04	0	43	0	775946240	21	5510
2026-01-14 22:22:48.25	113.97	12.02	-30.8	-34.6	12.1	2.29e-04	0	43	0	778043392	21	5607
2026-01-14 22:22:49.25	114.13	11.97	-30.8	-34.8	12.0	3.80e-04	0	43	0	780140544	21	5687
2026-01-14 22:22:50.25	114.30	11.92	-30.9	-35.0	11.9	3.61e-04	0	43	0	782237696	21	5794
2026-01-14 22:22:51.25	114.47	11.88	-31.1	-35.2	11.4	8.41e-04	0	43	0	783286272	22	5752
2026-01-14 22:22:52.25	114.63	11.83	-31.0	-34.8	11.6	6.77e-04	0	43	0	785383424	22	5573
2026-01-14 22:22:53.26	114.80	11.78	-30.9	-34.5	11.9	5.03e-04	0	43	0	787480576	22	5442
2026-01-14 22:22:54.26	114.97	11.74	-30.9	-34.6	11.8	3.92e-04	0	43	0	789577728	22	5514
2026-01-14 22:22:55.26	115.13	11.69	-31.0	-34.9	11.6	7.16e-04	0	43	0	790626304	22	5612
2026-01-14 22:22:56.26	115.29	11.64	-31.0	-34.9	11.6	6.54e-04	0	43	0	792723456	22	5634
2026-01-14 22:22:57.26	115.46	11.59	-31.1	-35.3	11.3	9.03e-04	0	43	0	794820608	22	5792
2026-01-14 22:22:58.26	115.62	11.55	-31.0	-34.8	11.6	7.86e-04	0	43	0	796917760	22	5605
2026-01-14 22:22:59.27	115.78	11.50	-31.0	-34.7	11.7	6.24e-04	0	43	0	799014912	22	5569
2026-01-14 22:23:00.27	115.95	11.45	-30.8	-34.4	11.9	7.50e-04	0	43	0	800063488	22	5408
2026-01-14 22:23:01.27	116.11	11.40	-30.7	-34.4	12.2	5.62e-04	0	43	0	802160640	21	5542
2026-01-14 22:23:02.28	116.27	11.35	-30.5	-34.0	12.5	1.35e-04	0	43	0	804257792	21	5342
2026-01-14 22:23:03.28	116.43	11.31	-30.4	-33.7	12.7	3.14e-04	0	43	0	806354944	21	5244
2026-01-14 22:23:04.28	116.59	11.26	-30.3	-33.3	12.9	3.71e-04	0	43	0	808452096	21	5085
2026-01-14 22:23:05.28	116.75	11.21	-30.3	-33.2	13.0	4.34e-05	0	43	0	809500672	21	5054
2026-01-14 22:23:06.29	116.91	11.16	-30.2	-33.5	13.1	4.85e-04	0	43	0	811597824	20	5258
2026-01-14 22:23:07.29	117.07	11.11	-30.4	-34.0	12.8	7.49e-04	0	43	0	813694976	20	5477
2026-01-14 22:23:08.30	117.23	11.06	-30.4	-34.2	12.7	7.78e-05	0	43	0	815792128	20	5544
2026-01-14 22:23:09.30	117.38	11.01	-30.5	-34.0	12.4	1.24e-04	0	43	0	817889280	21	5377
2026-01-14 22:23:10.30	117.54	10.97	-30.7	-34.6	12.0	6.65e-04	0	43	0	818937856	21	5607
2026-01-14 22:23:11.30	117.70	10.92	-30.6	-34.3	12.2	3.49e-04	0	43	0	821035008	21	5493
2026-01-14 22:23:12.30	117.85	10.87	-30.8	-34.8	11.9	3.33e-04	0	43	0	823132160	21	5697
2026-01-14 22:23:13.31	118.01	10.82	-30.7	-34.6	12.0	3.54e-04	0	43	0	825229312	21	5638
2026-01-14 22:23:14.31	118.16	10.77	-30.7	-34.6	11.9	3.74e-04	0	43	0	827326464	21	5633
2026-01-14 22:23:15.31	118.32	10.72	-30.7	-34.5	12.0	2.97e-04	0	43	0	828375040	21	5574
2026-01-14 22:23:16.32	118.47	10.67	-30.7	-34.6	11.9	2.78e-04	0	43	0	830472192	21	5641
2026-01-14 22:23:17.32	118.63	10.62	-30.7	-34.6	12.0	4.05e-04	0	43	0	832569344	21	5636
2026-01-14 22:23:18.32	118.78	10.57	-30.7	-34.6	11.9	4.42e-04	0	43	0	834666496	21	5619
2026-01-14 22:23:19.33	118.93	10.52	-30.6	-34.3	12.1	2.97e-04	0	44	0	836763648	21	5524
2026-01-14 22:23:20.33	119.09	10.47	-30.5	-34.1	12.3	2.19e-04	0	43	0	837812224	21	5415
2026-01-14 22:23:21.33	119.24	10.42	-30.5	-33.9	12.5	1.52e-04	0	43	0	839909376	21	5331
2026-01-14 22:23:22.34	119.39	10.37	-30.5	-34.0	12.4	1.32e-04	0	43	0	842006528	21	5361
2026-01-14 22:23:23.35	119.54	10.32	-30.4	-33.8	12.5	1.35e-04	0	43	0	844103680	21	5285
2026-01-14 22:23:24.35	119.69	10.27	-30.4	-33.6	12.6	1.14e-04	0	43	0	845152256	21	5227
2026-01-14 22:23:25.35	119.84	10.22	-30.4	-33.6	12.6	8.62e-05	0	43	0	847249408	21	5215
2026-01-14 22:23:26.35	119.99	10.17	-30.3	-33.4	12.7	8.31e-05	0	43	0	849346560	21	5151
2026-01-14 22:23:27.35	120.14	10.12	-30.2	-33.7	12.9	5.49e-05	0	43	0	851443712	20	5342
2026-01-14 22:23:28.35	120.29	10.07	-30.3	-33.9	12.7	4.30e-04	0	43	0	853540864	20	5445
2026-01-14 22:23:29.35	120.43	10.02	-30.3	-33.9	12.7	6.63e-05	0	43	0	854589440	20	5451
2026-01-14 22:23:30.36	120.58	9.97	-30.5	-34.0	12.3	1.21e-04	0	43	0	856686592	21	5362
2026-01-14 22:23:31.36	120.73	9.92	-30.6	-34.3	12.1	2.08e-04	0	43	0	858783744	21	5517
2026-01-14 22:23:32.37	120.87	9.87	-30.7	-34.6	11.8	5.05e-04	0	43	0	860880896	21	5656
2026-01-14 22:23:33.36	121.02	9.82	-30.7	-34.7	11.8	4.68e-04	0	43	0	862978048	21	5676
2026-01-14 22:23:34.37	121.16	9.77	-30.8	-34.9	11.6	4.80e-04	0	43	0	864026624	21	5780
2026-01-14 22:23:35.37	121.31	9.72	-30.8	-34.9	11.6	7.45e-04	0	43	0	866123776	21	5795
2026-01-14 22:23:36.37	121.45	9.67	-30.6	-34.2	12.1	2.94e-04	0	43	0	868220928	21	5485
2026-01-14 22:23:37.38	121.60	9.61	-30.5	-33.9	12.3	1.88e-04	0	43	0	870318080	21	5342
2026-01-14 22:23:38.38	121.74	9.56	-30.4	-33.8	12.4	1.28e-04	0	43	0	872415232	21	5309
2026-01-14 22:23:39.38	121.88	9.51	-30.4	-33.7	12.5	1.54e-04	0	43	0	873463808	21	5272
2026-01-14 22:23:40.39	122.03	9.46	-30.3	-33.5	12.6	8.46e-05	0	43	0	875560960	21	5200
2026-01-14 22:23:41.40	122.17	9.41	-30.5	-33.9	12.3	1.62e-04	0	43	0	877658112	21	5364
2026-01-14 22:23:42.40	122.31	9.36	-30.4	-33.6	12.5	1.03e-04	0	43	0	879755264	21	5246
2026-01-14 22:23:43.39	122.45	9.31	-30.4	-33.6	12.5	8.16e-05	0	43	0	881852416	21	5231
2026-01-14 22:23:44.40	122.59	9.26	-30.5	-34.2	12.1	1.66e-04	0	43	0	882900992	21	5466
2026-01-14 22:23:45.40	122.73	9.21	-30.6	-34.5	11.9	3.35e-04	0	43	0	884998144	21	5608
2026-01-14 22:23:46.40	122.87	9.15	-30.6	-34.3	12.0	3.65e-04	0	43	0	887095296	21	5544
2026-01-14 22:23:47.40	123.01	9.10	-30.5	-34.2	12.1	3.07e-04	0	43	0	889192448	21	5484
2026-01-14 22:23:48.41	123.15	9.05	-30.0	-33.9	11.8	4.20e-04	0	43	0	891289600	21	5632
2026-01-14 22:23:49.42	123.29	9.00	-30.6	-34.4	11.9	4.29e-04	0	43	0	892338176	21	5587
2026-01-14 22:23:50.42	123.42	8.95	-30.7	-34.7	11.6	4.31e-04	0	43	0	894435328	21	5682
2026-01-14 22:23:51.42	123.56	8.90	-30.6	-34.5	11.7	6.91e-04	0	43	0	896532480	21	5630
2026-01-14 22:23:52.42	123.70	8.85	-30.4	-33.9	12.2	2.76e-04	0	43	0	898629632	21	5369
2026-01-14 22:23:53.41	123.83	8.79	-30.5	-34.0	12.2	2.10e-04	0	43	0	900726784	21	5388
2026-01-14 22:23:54.42	123.97	8.74	-30.5	-34.1	12.2	2.59e-04	0	43	0	901775360	21	5427
2026-01-14 22:23:55.42	124.10	8.69	-30.6	-34.3	11.9	2.91e-04	0	43	0	903872512	21	5550
2026-01-14 22:23:56.42	124.24	8.64	-30.7	-34.8	11.6	6.63e-04	0	43	0	905969664	21	5774
2026-01-14 22:23:57.43	124.37	8.59	-30.8	-35.0	11.5	8.51e-04	0	43	0	908066816	21	5841
2026-01-14 22:23:58.43	124.51	8.54	-30.7	-34.8	11.6	7.22e-04	0	43	0	909115392	21	5762
2026-01-14 22:23:59.43	124.64	8.48	-30.9	-35.4	11.1	1.54e-03	0	43	0	911212544	21	6042
2026-01-14 22:24:00.43	124.77	8.43	-31.5	-35.9	10.9	1.87e-03	0	43	0	913309696	22	6011
2026-01-14 22:24:01.43	124.90	8.38	-31.1	-35.7	10.5	3.12e-03	0	43	0	915406848	22	6109
2026-01-14 22:24:02.44	125.04	8.33	-31.1	-35.6	10.6	5.15e-03	0	43	0	917504000	22	6029
2026-01-14 22:24:03.44	125.17	8.28	-30.9	-34.8	11.2	2.01e-03	0	43	0	918552576	22	5674
2026-01-14 22:24:04.45	125.30	8.22	-30.8	-34.6	11.3	1.29e-03	0	43	0	920649728	22	5591
2026-01-14 22:24:05.45	125.43	8.17	-30.7	-34.4	11.5	9.26e-04	0	43	0	922746880	22	5497
2026-01-14 22:24:06.46	125.56	8.12	-30.7	-34.4	11.5	8.48e-04	0	43	0	924844032	22	5491
2026-01-14 22:24:07.46	125.69	8.07	-30.8	-34.6	11.3	1.12e-03	0	43	0	926941184	22	5587
2026-01-14 22:24:08.46	125.82	8.02	-30.8	-34.6	11.3	1.09e-03	0	43	0	927989760	22	5572
2026-01-14 22:24:09.46	125.95	7.97	-30.9	-35.0	11.0	1.28e-03	0	43	0	930086912	22	5737
2026-01-14 22:24:10.47	126.08	7.91	-31.0	-35.1	10.9	2.04e-03	0	43	0	932184064	22	5813
2026-01-14 22:24:11.47	126.21	7.86	-31.1	-35.5	10.6	2.28e-03	0	43	0	934281216	22	5986
2026-01-14 22:24:12.47	126.33	7.81	-31.1	-35.6	10.6	3.39e-03	0	43	0	936378368	22	6026
2026-01-14 22:24:13.47	126.46	7.76	-31.1	-35.5	10.6	3.75e-03	0	43	0	937426944	22	6016
2026-01-14 22:24:14.48	126.59	7.70	-31.0	-35.4	10.7	3.93e-03	0	43	0	939524096	22	5958
2026-01-14 22:24:15.48	126.71	7.65	-31.0	-35.2	10.9	2.59e-03	0	43	0	941621248	22	5854
2026-01-14 22:24:16.48	126.84	7.60	-30.9	-35.1	10.9	2.33e-03	0	43	0	943718400	22	5832
2026-01-14 22:24:17.49	126.97	7.55	-31.0	-35.3	10.7	2.56e-03	0	43	0	945815552	22	5918
2026-01-14 22:24:18.49	127.09	7.50	-31.0	-35.3	10.8	3.35e-03	0	43	0	946864128	22	5894
2026-01-14 22:24:19.49	127.22	7.44	-31.0	-35.5	10.5	3.03e-03	0	43	0	948961280	22	6028
2026-01-14 22:24:20.49	127.34	7.39	-31.2	-35.9	10.2	5.39e-03	0	43	0	951058432	22	6221
2026-01-14 22:24:21.49	127.46	7.34	-31.0	-35.5	10.6	4.30e-03	0	43	0	953155584	22	6000
2026-01-14 22:24:22.49	127.59	7.29	-31.2	-36.0	10.1	5.82e-03	0	43	0	954204160	22	6298
2026-01-14 22:24:23.49	127.71	7.24	-31.2	-36.0	10.1	7.43e-03	0	43	0	956301312	22	6285
2026-01-14 22:24:24.50	127.83	7.18	-31.1	-35.7	10.4	5.53e-03	0	43	0	958398464	22	6099
2026-01-14 22:24:25.50	127.95	7.13	-31.2	-36.2	10.0	6.03e-03	0	43	0	960495616	22	6382
2026-01-14 22:24:26.50	128.07	7.08	-31.1	-35.8	10.2	7.37e-03	0	43	0	962592768	22	6195
2026-01-14 22:24:27.51	128.20	7.03	-33.2	-47.2	3.8	1.72e-01	0	43	104	963641344	26	18120

#Closed at: 2026-01-14 22:24:28
#Recorded file [963 MB]: D:/data/31010_260115_011552.dat