passes_logs/2026/01/14/R2M6_AANII_01/R2M6_AANII_01__20260114_032322_AQUA_rec.log

#Pass ID: 20260114_032322_AQUA
#Satellite: AQUA
#Configuration: AQUA
#almurnet v.1.7.20240730
#Start time: 2026-01-14 03:23:21

#Version: 2.2.20231116
#Station: R2M6_AANII_01
#Location: 30.233357 lon 59.946436 lat
#TLE: 1 27424U 02022A   26013.25278823  .00000890  00000+0  18808-3 0  9998
#TLE: 2 27424  98.4079 339.6508 0002047  80.3961  24.1839 14.61818714260637

#Time	Az	El	Level	Level2	SNR	BER	BlckErr	Temp	State	Recorded	gain1	gain2
2026-01-14 03:23:21.64	8.39	6.95	-33.3	-50.7	3.8	7.46e-01	0	40	0	0	27	26750
2026-01-14 03:23:22.63	8.31	7.02	-32.8	-49.0	3.8	7.43e-01	0	40	104	0	26	23275
2026-01-14 03:23:23.64	8.22	7.10	-32.8	-48.9	3.8	7.46e-01	0	40	104	0	26	23028
2026-01-14 03:23:24.64	8.14	7.17	-32.8	-48.7	3.8	7.48e-01	0	40	104	0	26	22689
2026-01-14 03:23:25.64	8.05	7.24	-32.8	-48.7	3.8	7.47e-01	0	40	104	0	26	22477
2026-01-14 03:23:26.64	7.97	7.31	-32.8	-49.0	3.8	7.49e-01	0	40	104	0	26	23062
2026-01-14 03:23:27.65	7.88	7.39	-32.9	-49.3	3.8	7.45e-01	0	40	104	0	26	23694
2026-01-14 03:23:28.65	7.79	7.46	-33.0	-49.6	3.8	7.46e-01	0	41	104	0	26	24354
2026-01-14 03:23:29.65	7.70	7.53	-32.9	-49.2	3.8	7.44e-01	0	41	104	0	26	23430
2026-01-14 03:23:30.65	7.61	7.61	-32.8	-48.5	3.8	7.44e-01	0	41	104	0	26	21991
2026-01-14 03:23:31.66	7.52	7.68	-32.6	-47.5	3.8	7.48e-01	0	40	104	0	26	20063
2026-01-14 03:23:32.66	7.43	7.76	-32.4	-47.3	3.7	7.46e-01	0	41	104	0	25	20110
2026-01-14 03:23:33.66	7.34	7.83	-32.2	-46.6	3.8	7.47e-01	0	41	104	0	25	19015
2026-01-14 03:23:34.66	7.25	7.90	-32.0	-46.2	3.8	7.47e-01	0	41	104	0	25	18293
2026-01-14 03:23:35.66	7.16	7.98	-32.1	-46.3	3.8	7.42e-01	0	41	104	0	25	18542
2026-01-14 03:23:36.66	7.07	8.05	-32.1	-46.7	3.8	7.45e-01	0	41	104	0	24	19482
2026-01-14 03:23:37.67	6.98	8.13	-31.8	-45.9	3.8	7.42e-01	0	41	104	0	24	18258
2026-01-14 03:23:38.68	6.88	8.20	-31.7	-45.4	3.8	7.46e-01	0	41	104	0	24	17458
2026-01-14 03:23:39.68	6.79	8.28	-31.4	-45.2	3.8	7.47e-01	0	41	104	0	23	17626
2026-01-14 03:23:40.69	6.69	8.35	-31.3	-44.8	3.8	7.42e-01	0	41	104	0	23	17092
2026-01-14 03:23:41.69	6.60	8.43	-31.2	-44.5	3.8	7.43e-01	0	41	104	0	23	16700
2026-01-14 03:23:42.69	6.50	8.50	-31.4	-45.0	3.8	7.44e-01	0	41	104	0	23	17310
2026-01-14 03:23:43.69	6.41	8.58	-31.6	-45.6	3.8	7.44e-01	0	41	104	0	23	18134
2026-01-14 03:23:44.70	6.31	8.66	-31.9	-46.0	3.8	7.43e-01	0	41	104	0	24	18338
2026-01-14 03:23:45.70	6.21	8.73	-32.2	-46.6	3.8	7.42e-01	0	41	104	0	25	18873
2026-01-14 03:23:46.70	6.12	8.81	-32.4	-47.4	3.8	7.44e-01	0	41	104	0	25	20239
2026-01-14 03:23:47.71	6.02	8.89	-32.7	-47.9	3.8	7.45e-01	0	41	104	0	26	20820
2026-01-14 03:23:48.71	5.92	8.96	-32.8	-48.2	3.8	7.47e-01	0	41	104	0	26	21384
2026-01-14 03:23:49.72	5.82	9.04	-32.8	-48.4	3.8	7.45e-01	0	41	104	0	26	21679
2026-01-14 03:23:50.72	5.72	9.12	-32.8	-48.6	3.8	7.43e-01	0	41	104	0	26	21998
2026-01-14 03:23:51.71	5.62	9.19	-32.9	-48.8	3.8	7.45e-01	0	41	104	0	26	22461
2026-01-14 03:23:52.72	5.52	9.27	-33.0	-49.2	3.8	7.45e-01	0	41	104	0	26	23348
2026-01-14 03:23:53.72	5.42	9.35	-33.1	-49.5	3.8	7.47e-01	0	41	104	0	26	23889
2026-01-14 03:23:54.72	5.31	9.43	-33.2	-49.7	3.8	7.48e-01	0	41	104	0	27	23916
2026-01-14 03:23:55.72	5.21	9.50	-33.3	-50.3	3.8	7.41e-01	0	41	104	0	27	25344
2026-01-14 03:23:56.72	5.11	9.58	-33.4	-50.8	3.8	7.47e-01	0	41	104	0	27	26639
2026-01-14 03:23:57.72	5.00	9.66	-33.5	-51.2	3.8	7.46e-01	0	41	104	0	27	27584
2026-01-14 03:23:58.73	4.90	9.74	-33.6	-51.5	3.8	7.45e-01	0	41	104	0	27	28461
2026-01-14 03:23:59.73	4.79	9.82	-33.5	-51.2	3.8	7.43e-01	0	42	104	0	28	27461
2026-01-14 03:24:00.74	4.69	9.90	-33.5	-51.1	3.8	7.42e-01	0	41	104	0	28	27213
2026-01-14 03:24:01.73	4.58	9.98	-33.5	-51.4	3.8	7.44e-01	0	41	104	0	27	28062
2026-01-14 03:24:02.73	4.47	10.06	-33.5	-51.1	3.8	7.43e-01	0	41	104	0	27	27175
2026-01-14 03:24:03.73	4.37	10.14	-33.5	-50.8	3.8	7.45e-01	0	41	104	0	27	26502
2026-01-14 03:24:04.74	4.26	10.22	-33.4	-50.5	3.8	7.45e-01	0	41	104	0	27	25760
2026-01-14 03:24:05.74	4.15	10.30	-33.4	-50.4	3.8	7.40e-01	0	41	104	0	27	25359
2026-01-14 03:24:06.75	4.04	10.38	-33.4	-50.3	3.8	7.46e-01	0	41	104	0	27	25130
2026-01-14 03:24:07.75	3.93	10.46	-33.4	-50.1	3.8	7.43e-01	0	42	104	0	27	24620
2026-01-14 03:24:08.75	3.81	10.54	-33.3	-50.0	3.8	7.45e-01	0	41	104	0	27	24416
2026-01-14 03:24:09.75	3.70	10.62	-33.3	-49.7	3.8	7.44e-01	0	42	104	0	27	23720
2026-01-14 03:24:10.76	3.59	10.70	-33.2	-49.1	3.8	7.43e-01	0	42	104	0	27	22500
2026-01-14 03:24:11.76	3.48	10.78	-33.0	-49.1	3.8	7.43e-01	0	42	104	0	26	22827
2026-01-14 03:24:12.77	3.36	10.86	-32.8	-48.1	3.8	7.45e-01	0	42	104	0	26	20887
2026-01-14 03:24:13.77	3.25	10.94	-32.8	-48.0	3.8	7.46e-01	0	42	104	0	26	20712
2026-01-14 03:24:14.77	3.13	11.02	-32.9	-48.3	3.8	7.47e-01	0	42	104	0	26	21357
2026-01-14 03:24:15.78	3.01	11.11	-33.0	-48.7	3.8	7.44e-01	0	42	104	0	26	22065
2026-01-14 03:24:16.78	2.90	11.19	-33.1	-49.1	3.8	7.45e-01	0	42	104	0	26	22851
2026-01-14 03:24:17.79	2.78	11.27	-33.2	-49.3	3.8	7.44e-01	0	42	104	0	27	22847
2026-01-14 03:24:18.79	2.66	11.35	-33.2	-49.0	3.8	7.46e-01	0	42	104	0	27	22187
2026-01-14 03:24:19.80	2.54	11.44	-33.0	-48.0	3.8	7.44e-01	0	42	104	0	27	20351
2026-01-14 03:24:20.80	2.42	11.52	-32.7	-47.7	3.8	7.49e-01	0	42	104	0	26	20066
2026-01-14 03:24:21.80	2.30	11.60	-32.5	-47.2	3.8	7.44e-01	0	42	104	0	25	19592
2026-01-14 03:24:22.81	2.18	11.69	-32.2	-46.3	3.8	7.47e-01	0	42	104	0	25	18256
2026-01-14 03:24:23.82	2.05	11.77	-32.0	-46.1	3.8	7.44e-01	0	42	104	0	24	18274
2026-01-14 03:24:24.82	1.93	11.85	-31.8	-45.5	3.8	7.45e-01	0	42	104	0	24	17439
2026-01-14 03:24:25.83	1.81	11.94	-31.6	-44.9	3.8	7.42e-01	0	42	104	0	24	16699
2026-01-14 03:24:26.83	1.68	12.02	-31.3	-44.5	3.8	7.42e-01	0	42	104	0	23	16545
2026-01-14 03:24:27.83	1.56	12.11	-31.1	-43.9	3.8	7.44e-01	0	42	104	0	23	15719
2026-01-14 03:24:28.84	1.43	12.19	-30.9	-43.5	3.8	7.42e-01	0	42	104	0	23	15372
2026-01-14 03:24:29.84	1.30	12.28	-30.8	-43.8	3.8	7.43e-01	0	42	104	0	22	16038
2026-01-14 03:24:30.85	1.17	12.36	-30.8	-43.8	3.8	7.47e-01	0	42	104	0	22	15973
2026-01-14 03:24:31.85	1.05	12.45	-30.8	-43.7	3.8	7.45e-01	0	42	104	0	22	15928
2026-01-14 03:24:32.85	0.92	12.53	-31.0	-44.3	3.8	7.42e-01	0	42	104	0	22	16573
2026-01-14 03:24:33.84	0.79	12.62	-31.3	-44.5	3.8	7.43e-01	0	42	104	0	23	16523
2026-01-14 03:24:34.84	0.66	12.70	-31.6	-45.3	3.8	7.45e-01	0	42	104	0	23	17599
2026-01-14 03:24:35.84	0.52	12.79	-31.9	-45.8	3.8	7.45e-01	0	42	104	0	24	17868
2026-01-14 03:24:36.85	0.39	12.87	-32.2	-46.3	3.8	7.45e-01	0	42	104	0	25	18185
2026-01-14 03:24:37.85	0.26	12.96	-32.5	-47.3	3.8	7.46e-01	0	42	104	0	25	19753
2026-01-14 03:24:38.86	0.12	13.05	-32.6	-47.3	3.8	7.44e-01	0	42	104	0	26	19382
2026-01-14 03:24:39.86	359.99	13.13	-32.7	-47.6	3.8	7.43e-01	0	42	104	0	26	19914
2026-01-14 03:24:40.87	359.85	13.22	-32.8	-47.9	3.8	7.43e-01	0	42	104	0	26	20538
2026-01-14 03:24:41.86	359.71	13.30	-33.0	-48.5	3.8	7.46e-01	0	42	104	0	26	21592
2026-01-14 03:24:42.86	359.58	13.39	-32.9	-48.1	3.8	7.45e-01	0	42	104	0	26	20900
2026-01-14 03:24:43.87	359.44	13.48	-32.7	-47.7	3.8	7.44e-01	0	42	104	0	26	20128
2026-01-14 03:24:44.87	359.30	13.57	-32.9	-48.5	3.8	7.45e-01	0	42	104	0	26	21501
2026-01-14 03:24:45.87	359.16	13.65	-33.2	-48.8	3.8	7.46e-01	0	42	104	0	27	21879
2026-01-14 03:24:46.87	359.01	13.74	-33.3	-49.6	3.8	7.43e-01	0	42	104	0	27	23382
2026-01-14 03:24:47.88	358.87	13.83	-33.5	-50.2	3.8	7.43e-01	0	42	104	0	27	24604
2026-01-14 03:24:48.88	358.73	13.92	-33.6	-50.6	3.8	7.46e-01	0	42	104	0	27	25627
2026-01-14 03:24:49.88	358.58	14.01	-33.6	-50.4	3.8	7.44e-01	0	42	104	0	28	24982
2026-01-14 03:24:50.88	358.44	14.10	-33.6	-50.3	3.8	7.44e-01	0	42	104	0	28	24692
2026-01-14 03:24:51.89	358.29	14.18	-33.5	-50.0	3.8	7.44e-01	0	42	104	0	28	23945
2026-01-14 03:24:52.89	358.14	14.27	-33.5	-50.4	3.8	7.43e-01	0	42	104	0	27	25056
2026-01-14 03:24:53.90	357.99	14.36	-33.5	-50.2	3.8	7.46e-01	0	42	104	0	27	24683
2026-01-14 03:24:54.90	357.84	14.45	-33.5	-50.1	3.8	7.45e-01	0	42	104	0	27	24418
2026-01-14 03:24:55.91	357.69	14.54	-33.5	-50.2	3.8	7.44e-01	0	42	104	0	27	24471
2026-01-14 03:24:56.91	357.54	14.63	-33.5	-50.2	3.8	7.47e-01	0	42	104	0	27	24673
2026-01-14 03:24:57.90	357.39	14.72	-33.5	-50.2	3.8	7.46e-01	0	42	104	0	27	24621
2026-01-14 03:24:58.91	357.24	14.81	-33.5	-50.1	3.8	7.45e-01	0	42	104	0	27	24426
2026-01-14 03:24:59.91	357.08	14.90	-33.4	-49.8	3.8	7.44e-01	0	42	104	0	27	23714
2026-01-14 03:25:00.90	356.93	14.99	-33.3	-49.2	3.8	7.44e-01	0	42	104	0	27	22531
2026-01-14 03:25:01.91	356.77	15.08	-33.1	-48.4	3.8	7.44e-01	0	42	104	0	27	20979
2026-01-14 03:25:02.91	356.61	15.17	-32.9	-47.5	3.8	7.46e-01	0	42	104	0	27	19344
2026-01-14 03:25:03.91	356.46	15.26	-33.0	-48.3	3.8	7.46e-01	0	42	104	0	26	21036
2026-01-14 03:25:04.91	356.30	15.35	-33.2	-48.5	3.8	7.49e-01	0	42	104	0	27	20977
2026-01-14 03:25:05.92	356.14	15.44	-33.4	-49.3	3.8	7.46e-01	0	43	104	0	27	22666
2026-01-14 03:25:06.92	355.97	15.54	-33.2	-48.6	3.8	7.45e-01	0	42	104	0	27	21330
2026-01-14 03:25:07.92	355.81	15.63	-33.0	-47.9	3.8	7.43e-01	0	42	104	0	27	19973
2026-01-14 03:25:08.92	355.65	15.72	-32.8	-47.6	3.8	7.42e-01	0	42	104	0	26	19790
2026-01-14 03:25:09.93	355.48	15.81	-32.5	-46.6	3.8	7.44e-01	0	42	104	0	26	18271
2026-01-14 03:25:10.93	355.32	15.90	-32.1	-46.0	3.8	7.42e-01	0	42	104	0	25	17703
2026-01-14 03:25:11.93	355.15	15.99	-31.9	-45.1	3.8	7.42e-01	0	42	104	0	25	16494
2026-01-14 03:25:12.94	354.98	16.09	-31.6	-44.8	3.8	7.45e-01	0	42	104	0	24	16391
2026-01-14 03:25:13.93	354.81	16.18	-31.3	-44.5	3.8	7.44e-01	0	42	104	0	23	16426
2026-01-14 03:25:14.93	354.64	16.27	-29.5	-42.4	3.8	7.45e-01	0	42	104	0	22	15865
2026-01-14 03:25:15.93	354.47	16.36	-30.9	-43.7	3.8	7.42e-01	0	42	104	0	22	15638
2026-01-14 03:25:16.93	354.30	16.45	-30.7	-43.5	3.8	7.46e-01	0	42	104	0	22	15605
2026-01-14 03:25:17.94	354.12	16.55	-30.6	-43.4	3.8	7.43e-01	0	42	104	0	21	15871
2026-01-14 03:25:18.94	353.95	16.64	-30.5	-43.4	3.8	7.47e-01	0	42	104	0	21	15822
2026-01-14 03:25:19.94	353.77	16.73	-30.5	-43.4	3.8	7.44e-01	0	42	104	0	21	15841
2026-01-14 03:25:20.95	353.59	16.83	-30.6	-43.2	3.9	7.44e-01	0	42	104	0	22	15232
2026-01-14 03:25:21.95	353.42	16.92	-30.7	-43.3	3.8	7.45e-01	0	42	104	0	22	15384
2026-01-14 03:25:22.95	353.24	17.01	-30.9	-43.8	3.8	7.44e-01	0	42	104	0	22	15970
2026-01-14 03:25:23.95	353.06	17.11	-31.2	-44.2	3.8	7.45e-01	0	42	104	0	23	16004
2026-01-14 03:25:24.96	352.87	17.20	-31.5	-45.0	3.8	7.43e-01	0	42	104	0	23	17059
2026-01-14 03:25:25.96	352.69	17.30	-31.9	-45.6	3.8	7.48e-01	0	42	104	0	24	17511
2026-01-14 03:25:26.96	352.50	17.39	-32.3	-46.4	3.8	7.45e-01	0	42	104	0	25	18229
2026-01-14 03:25:27.97	352.32	17.48	-32.7	-47.1	3.8	7.44e-01	0	42	104	0	26	18861
2026-01-14 03:25:28.98	352.13	17.58	-32.8	-47.6	3.8	7.45e-01	0	42	104	0	26	19749
2026-01-14 03:25:29.99	351.94	17.67	-33.0	-48.2	3.8	7.44e-01	0	43	104	0	26	20828
2026-01-14 03:25:30.99	351.75	17.77	-32.9	-47.8	3.8	7.47e-01	0	43	104	0	26	19999
2026-01-14 03:25:31.99	351.56	17.86	-32.7	-47.2	3.8	7.45e-01	0	42	104	0	26	19129
2026-01-14 03:25:32.99	351.37	17.96	-32.6	-46.8	3.8	7.43e-01	0	42	104	0	26	18497
2026-01-14 03:25:34.00	351.17	18.05	-32.5	-46.6	3.8	7.42e-01	0	43	104	0	26	18129
2026-01-14 03:25:35.00	350.98	18.15	-32.9	-47.7	3.8	7.47e-01	0	42	104	0	26	19887
2026-01-14 03:25:36.00	350.78	18.24	-33.1	-48.2	3.8	7.45e-01	0	42	104	0	27	20425
2026-01-14 03:25:37.01	350.58	18.34	-33.3	-49.0	3.8	7.48e-01	0	42	104	0	27	21943
2026-01-14 03:25:38.02	350.38	18.43	-33.5	-49.8	3.8	7.50e-01	0	43	104	0	27	23385
2026-01-14 03:25:39.02	350.18	18.53	-33.6	-49.7	3.8	7.45e-01	0	42	104	0	28	23033
2026-01-14 03:25:40.02	349.98	18.62	-33.6	-43.0	4.7	7.20e-01	0	43	104	0	28	10559
2026-01-14 03:25:41.03	349.77	18.72	-33.6	-42.6	4.8	7.13e-01	0	42	104	0	28	10211
2026-01-14 03:25:42.03	349.57	18.81	-33.5	-42.3	4.8	7.15e-01	0	42	104	0	28	9931
2026-01-14 03:25:43.04	349.36	18.91	-33.5	-41.4	10.6	6.17e-01	0	42	104	0	28	8989
2026-01-14 03:25:44.04	349.16	19.00	-33.6	-42.1	10.7	6.17e-01	0	42	0	524288	27	9613
2026-01-14 03:25:45.05	348.95	19.10	-33.5	-41.6	10.6	6.15e-01	0	42	0	2097152	28	9144
2026-01-14 03:25:46.05	348.74	19.19	-33.6	-41.8	10.4	6.18e-01	0	42	0	4194304	28	9302
2026-01-14 03:25:47.05	348.52	19.29	-33.5	-41.5	10.6	6.15e-01	0	43	0	5767168	28	9079
2026-01-14 03:25:48.05	348.31	19.38	-33.5	-41.5	10.6	6.10e-01	0	42	0	7864320	28	9050
2026-01-14 03:25:49.06	348.10	19.48	-33.5	-41.4	10.7	6.15e-01	0	43	0	9437184	28	8974
2026-01-14 03:25:50.05	347.88	19.57	-33.5	-41.4	10.8	6.14e-01	0	42	0	11534336	28	8909
2026-01-14 03:25:51.06	347.66	19.67	-33.5	-41.2	11.0	6.12e-01	0	43	0	13631488	28	8740
2026-01-14 03:25:52.07	347.44	19.76	-33.4	-40.7	11.4	6.12e-01	0	43	0	15204352	28	8344
2026-01-14 03:25:53.07	347.22	19.86	-33.4	-40.7	12.1	6.07e-01	0	43	0	17301504	27	8366
2026-01-14 03:25:54.07	347.00	19.95	-33.5	-41.6	11.2	6.12e-01	0	42	0	18874368	27	9128
2026-01-14 03:25:55.07	346.78	20.05	-33.6	-41.8	10.6	6.15e-01	0	42	0	20971520	28	9209
2026-01-14 03:25:56.07	346.56	20.14	-33.5	-41.1	11.1	6.12e-01	0	42	0	22544384	28	8642
2026-01-14 03:25:57.08	346.33	20.24	-33.5	-41.2	11.6	6.08e-01	0	42	0	24641536	27	8800
2026-01-14 03:25:58.08	346.10	20.33	-33.4	-40.8	12.0	6.07e-01	0	42	0	26738688	27	8412
2026-01-14 03:25:59.08	345.87	20.43	-33.3	-40.5	12.2	6.05e-01	0	43	0	28311552	27	8192
2026-01-14 03:26:00.09	345.64	20.52	-33.3	-40.4	12.3	6.03e-01	0	42	0	30408704	27	8114
2026-01-14 03:26:01.09	345.41	20.62	-33.3	-40.4	12.4	6.06e-01	0	42	0	31981568	27	8090
2026-01-14 03:26:02.09	345.18	20.71	-33.5	-41.2	11.6	6.12e-01	0	43	0	34078720	27	8753
2026-01-14 03:26:03.09	344.94	20.81	-33.3	-40.3	12.4	6.05e-01	0	43	0	36175872	27	8018
2026-01-14 03:26:04.09	344.71	20.90	-33.1	-39.2	13.3	6.04e-01	0	43	0	37748736	27	7291
2026-01-14 03:26:05.10	344.47	20.99	-32.8	-38.5	14.3	6.02e-01	0	43	0	39845888	26	6937
2026-01-14 03:26:06.10	344.23	21.09	-32.4	-37.2	15.2	6.02e-01	0	42	0	41418752	26	6223
2026-01-14 03:26:07.10	343.99	21.18	-32.1	-35.8	16.2	6.00e-01	0	43	0	43515904	26	5556
2026-01-14 03:26:08.09	343.75	21.27	-31.7	-35.6	17.0	6.00e-01	0	43	0	45613056	24	5676
2026-01-14 03:26:09.10	343.50	21.37	-31.3	-34.9	17.8	6.03e-01	0	43	0	47185920	23	5472
2026-01-14 03:26:10.10	343.25	21.46	-30.9	-33.8	18.5	6.01e-01	0	42	0	49283072	23	5062
2026-01-14 03:26:11.10	343.01	21.56	-30.6	-33.6	18.9	6.00e-01	0	43	0	50855936	22	5099
2026-01-14 03:26:12.10	342.76	21.65	-30.5	-33.8	19.1	6.00e-01	0	43	0	52953088	21	5283
2026-01-14 03:26:13.11	342.51	21.74	-30.8	-34.1	18.7	6.04e-01	0	43	0	54525952	22	5267
2026-01-14 03:26:14.11	342.25	21.83	-30.7	-33.9	18.8	6.02e-01	0	42	0	56623104	22	5200
2026-01-14 03:26:15.11	342.00	21.93	-30.8	-34.1	18.7	6.02e-01	0	42	0	58720256	22	5274
2026-01-14 03:26:16.11	341.75	22.02	-30.6	-33.7	18.9	6.00e-01	0	42	0	60293120	22	5122
2026-01-14 03:26:17.12	341.49	22.11	-30.5	-33.8	19.1	6.03e-01	0	42	0	62390272	21	5290
2026-01-14 03:26:18.12	341.23	22.20	-30.6	-34.0	19.1	6.01e-01	0	42	0	63963136	21	5342
2026-01-14 03:26:19.13	340.97	22.30	-30.7	-33.8	18.9	5.99e-01	0	43	0	66060288	22	5153
2026-01-14 03:26:20.12	340.71	22.39	-30.9	-34.3	18.5	6.00e-01	0	43	0	67633152	22	5363
2026-01-14 03:26:21.13	340.44	22.48	-30.7	-34.0	18.8	6.02e-01	0	42	0	69730304	22	5218
2026-01-14 03:26:22.13	340.18	22.57	-30.9	-34.5	18.4	6.01e-01	0	42	0	71827456	22	5414
2026-01-14 03:26:23.14	339.91	22.66	-30.7	-33.9	18.8	6.02e-01	0	42	0	73400320	22	5177
2026-01-14 03:26:24.14	339.64	22.75	-30.5	-33.3	19.2	6.00e-01	0	43	0	75497472	22	4990
2026-01-14 03:26:25.13	339.37	22.84	-30.5	-33.2	19.3	6.00e-01	0	42	0	77070336	22	4940
2026-01-14 03:26:26.13	339.10	22.93	-30.4	-33.6	19.3	6.01e-01	0	43	0	79167488	21	5208
2026-01-14 03:26:27.13	338.83	23.02	-30.4	-33.5	19.3	6.03e-01	0	43	0	81264640	21	5165
2026-01-14 03:26:28.14	338.55	23.11	-30.3	-33.3	19.5	5.99e-01	0	42	0	82837504	21	5099
2026-01-14 03:26:29.14	338.27	23.19	-30.4	-33.5	19.4	6.01e-01	0	43	0	84934656	21	5146
2026-01-14 03:26:30.15	337.99	23.28	-30.3	-33.4	19.5	6.02e-01	0	42	0	86507520	21	5112
2026-01-14 03:26:31.15	337.71	23.37	-30.4	-33.6	19.3	6.02e-01	0	43	0	88604672	21	5196
2026-01-14 03:26:32.15	337.43	23.46	-30.3	-33.3	19.5	5.99e-01	0	43	0	90701824	21	5092
2026-01-14 03:26:33.16	337.15	23.55	-30.3	-33.3	19.5	6.00e-01	0	43	0	92274688	21	5081
2026-01-14 03:26:34.16	336.86	23.63	-30.3	-33.3	19.5	6.03e-01	0	43	0	94371840	21	5085
2026-01-14 03:26:35.16	336.58	23.72	-30.3	-33.2	19.6	6.02e-01	0	43	0	95944704	21	5039
2026-01-14 03:26:36.17	336.28	23.80	-30.3	-33.4	19.5	6.01e-01	0	42	0	98041856	21	5113
2026-01-14 03:26:37.17	335.99	23.89	-30.2	-33.2	19.6	6.02e-01	0	43	0	99614720	21	5040
2026-01-14 03:26:38.17	335.70	23.97	-30.3	-33.4	19.4	5.98e-01	0	43	0	101711872	21	5130
2026-01-14 03:26:39.17	335.41	24.06	-30.4	-33.7	19.3	6.01e-01	0	42	0	103809024	21	5222
2026-01-14 03:26:40.16	335.12	24.14	-30.4	-33.5	19.3	6.01e-01	0	43	0	105381888	21	5175
2026-01-14 03:26:41.17	334.82	24.23	-30.6	-34.0	19.0	5.99e-01	0	43	0	107479040	21	5347
2026-01-14 03:26:42.16	334.52	24.31	-30.5	-33.9	19.1	6.02e-01	0	43	0	109051904	21	5313
2026-01-14 03:26:43.17	334.22	24.39	-30.4	-33.7	19.3	6.01e-01	0	43	0	111149056	21	5226
2026-01-14 03:26:44.17	333.92	24.47	-30.5	-33.9	19.2	6.03e-01	0	43	0	113246208	21	5291
2026-01-14 03:26:45.17	333.62	24.55	-30.7	-33.8	18.9	5.99e-01	0	43	0	114819072	22	5156
2026-01-14 03:26:46.17	333.31	24.63	-30.8	-34.0	18.8	5.99e-01	0	43	0	116916224	22	5243
2026-01-14 03:26:47.17	333.01	24.71	-30.6	-33.6	19.0	6.00e-01	0	42	0	118489088	22	5086
2026-01-14 03:26:48.18	332.70	24.79	-30.4	-33.6	19.3	6.02e-01	0	43	0	120586240	21	5199
2026-01-14 03:26:49.18	332.39	24.87	-30.6	-33.6	19.0	6.01e-01	0	42	0	122159104	22	5087
2026-01-14 03:26:50.18	332.07	24.95	-30.5	-33.8	19.2	6.03e-01	0	43	0	124256256	21	5273
2026-01-14 03:26:51.17	331.77	25.03	-30.6	-33.7	19.0	6.01e-01	0	43	0	126353408	22	5109
2026-01-14 03:26:52.17	331.45	25.10	-30.9	-34.3	18.6	6.00e-01	0	43	0	127926272	22	5334
2026-01-14 03:26:53.18	331.13	25.18	-30.6	-33.5	19.1	6.03e-01	0	43	0	130023424	22	5049
2026-01-14 03:26:54.18	330.81	25.25	-30.4	-33.4	19.4	6.00e-01	0	43	0	131596288	21	5134
2026-01-14 03:26:55.18	330.50	25.33	-30.3	-33.3	19.5	6.02e-01	0	43	0	133693440	21	5092
2026-01-14 03:26:56.17	330.18	25.40	-30.4	-33.6	19.3	5.99e-01	0	43	0	135266304	21	5192
2026-01-14 03:26:57.18	329.85	25.47	-30.4	-33.5	19.3	6.00e-01	0	42	0	137363456	21	5174
2026-01-14 03:26:58.18	329.53	25.55	-30.2	-32.9	19.7	6.01e-01	0	43	0	139460608	21	4950
2026-01-14 03:26:59.18	329.20	25.62	-30.0	-32.5	20.0	6.00e-01	0	43	0	141033472	21	4805
2026-01-14 03:27:00.18	328.88	25.69	-30.0	-33.1	20.0	6.01e-01	0	43	0	143130624	20	5119
2026-01-14 03:27:01.18	328.55	25.76	-30.1	-32.9	19.8	6.02e-01	0	43	0	144703488	21	4940
2026-01-14 03:27:02.18	328.22	25.83	-30.1	-32.8	19.8	5.98e-01	0	43	0	146800640	21	4901
2026-01-14 03:27:03.18	327.89	25.90	-30.2	-33.1	19.7	6.01e-01	0	42	0	148373504	21	5010
2026-01-14 03:27:04.19	327.55	25.97	-30.1	-32.8	19.9	6.00e-01	0	43	0	150470656	21	4894
2026-01-14 03:27:05.19	327.22	26.03	-30.2	-32.9	18.3	6.00e-01	0	43	0	152567808	21	4959
2026-01-14 03:27:06.20	326.88	26.10	-30.1	-32.9	18.9	6.02e-01	0	42	0	154140672	21	4940
2026-01-14 03:27:07.20	326.54	26.16	-30.0	-33.1	19.6	6.01e-01	0	42	0	156237824	20	5124
2026-01-14 03:27:08.21	326.20	26.23	-30.0	-33.0	19.3	6.02e-01	0	43	0	158334976	20	5102
2026-01-14 03:27:09.21	325.86	26.29	-30.1	-33.3	19.8	6.00e-01	0	43	0	159907840	20	5187
2026-01-14 03:27:10.22	325.51	26.35	-30.1	-32.8	19.8	6.00e-01	0	43	0	162004992	21	4895
2026-01-14 03:27:11.23	325.16	26.42	-30.1	-32.9	19.8	5.98e-01	0	43	0	163577856	21	4925
2026-01-14 03:27:12.23	324.82	26.48	-30.0	-33.1	19.9	6.00e-01	0	43	0	165675008	20	5126
2026-01-14 03:27:13.23	324.47	26.54	-30.2	-33.1	19.7	5.99e-01	0	43	0	167247872	21	4993
2026-01-14 03:27:14.23	324.13	26.59	-30.4	-33.5	19.4	6.00e-01	0	43	0	169345024	21	5161
2026-01-14 03:27:15.23	323.78	26.65	-30.2	-33.1	19.7	6.02e-01	0	43	0	171442176	21	5011
2026-01-14 03:27:16.24	323.42	26.71	-30.1	-32.8	19.9	6.01e-01	0	43	0	173015040	21	4910
2026-01-14 03:27:17.24	323.07	26.76	-30.0	-33.1	20.0	6.00e-01	0	43	0	175112192	20	5115
2026-01-14 03:27:18.25	322.72	26.82	-30.0	-33.0	20.0	5.99e-01	0	43	0	176685056	20	5089
2026-01-14 03:27:19.25	322.36	26.87	-30.0	-33.0	20.0	6.01e-01	0	43	0	178782208	20	5101
2026-01-14 03:27:20.25	322.01	26.92	-30.2	-33.0	19.7	5.99e-01	0	43	0	180879360	21	4977
2026-01-14 03:27:21.25	321.65	26.97	-30.4	-33.6	19.4	5.99e-01	0	42	0	182452224	21	5176
2026-01-14 03:27:22.26	321.29	27.02	-30.2	-33.0	19.7	6.04e-01	0	42	0	184549376	21	4979
2026-01-14 03:27:23.26	320.93	27.07	-30.0	-33.1	20.0	5.99e-01	0	43	0	186122240	20	5110
2026-01-14 03:27:24.26	320.57	27.12	-29.9	-32.9	20.1	5.99e-01	0	43	0	188219392	20	5054
2026-01-14 03:27:25.26	320.21	27.17	-30.1	-33.2	19.9	6.02e-01	0	43	0	189792256	20	5153
2026-01-14 03:27:26.27	319.85	27.21	-30.3	-33.1	19.7	6.01e-01	0	43	0	191889408	21	5025
2026-01-14 03:27:27.26	319.49	27.26	-30.4	-33.5	19.4	6.00e-01	0	43	0	193986560	21	5154
2026-01-14 03:27:28.26	319.12	27.30	-30.2	-32.9	19.7	6.00e-01	0	42	0	195559424	21	4955
2026-01-14 03:27:29.26	318.76	27.34	-30.0	-33.0	20.0	6.03e-01	0	43	0	197656576	20	5098
2026-01-14 03:27:30.26	318.39	27.38	-29.9	-32.7	20.2	6.03e-01	0	43	0	199229440	20	4973
2026-01-14 03:27:31.26	318.02	27.42	-29.9	-32.7	20.1	6.02e-01	0	43	0	201326592	20	4990
2026-01-14 03:27:32.26	317.66	27.46	-30.1	-33.2	19.8	6.02e-01	0	43	0	203423744	20	5173
2026-01-14 03:27:33.25	317.29	27.50	-30.2	-32.9	19.7	6.00e-01	0	43	0	204996608	21	4954
2026-01-14 03:27:34.26	316.92	27.54	-30.2	-33.0	19.7	5.99e-01	0	43	0	207093760	21	4970
2026-01-14 03:27:35.26	316.55	27.57	-30.2	-33.1	19.7	6.00e-01	0	43	0	208666624	21	5002
2026-01-14 03:27:36.26	316.17	27.60	-30.5	-33.7	19.3	6.01e-01	0	43	0	210763776	21	5223
2026-01-14 03:27:37.26	315.80	27.64	-30.4	-33.5	19.5	6.01e-01	0	43	0	212336640	21	5142
2026-01-14 03:27:38.26	315.43	27.67	-30.5	-33.8	19.3	6.01e-01	0	43	0	214433792	21	5254
2026-01-14 03:27:39.27	315.05	27.70	-30.4	-33.5	19.4	6.01e-01	0	43	0	216530944	21	5136
2026-01-14 03:27:40.28	314.67	27.73	-30.2	-33.1	19.7	6.00e-01	0	43	0	218103808	21	4998
2026-01-14 03:27:41.28	314.30	27.75	-30.1	-32.9	19.8	6.01e-01	0	43	0	220200960	21	4931
2026-01-14 03:27:42.29	313.92	27.78	-30.1	-32.9	19.8	6.00e-01	0	43	0	221773824	21	4931
2026-01-14 03:27:43.29	313.54	27.80	-30.3	-33.4	19.5	6.02e-01	0	43	0	223870976	21	5103
2026-01-14 03:27:44.29	313.16	27.83	-30.4	-33.4	19.5	6.02e-01	0	43	0	225968128	21	5129
2026-01-14 03:27:45.29	312.79	27.85	-30.4	-33.6	19.3	5.99e-01	0	43	0	227540992	21	5200
2026-01-14 03:27:46.29	312.41	27.87	-30.7	-33.7	19.0	6.02e-01	0	43	0	229638144	22	5109
2026-01-14 03:27:47.29	312.03	27.89	-30.7	-33.8	19.0	6.03e-01	0	43	0	231211008	22	5140
2026-01-14 03:27:48.30	311.65	27.91	-30.4	-33.6	19.3	6.00e-01	0	43	0	233308160	21	5203
2026-01-14 03:27:49.30	311.27	27.92	-30.2	-33.1	19.7	6.02e-01	0	42	0	235405312	21	5008
2026-01-14 03:27:50.30	310.89	27.94	-30.1	-32.7	19.9	6.00e-01	0	43	0	236978176	21	4879
2026-01-14 03:27:51.31	310.50	27.95	-30.3	-33.3	19.5	6.00e-01	0	43	0	239075328	21	5067
2026-01-14 03:27:52.31	310.12	27.96	-30.0	-33.1	20.0	6.03e-01	0	43	0	240648192	20	5126
2026-01-14 03:27:53.31	309.74	27.98	-30.0	-32.5	20.0	6.01e-01	0	43	0	242745344	21	4812
2026-01-14 03:27:54.31	309.36	27.99	-30.2	-33.1	19.6	6.01e-01	0	43	0	244318208	21	5016
2026-01-14 03:27:55.32	308.97	27.99	-30.4	-33.5	19.5	6.00e-01	0	43	0	246415360	21	5142
2026-01-14 03:27:56.32	308.59	28.00	-30.4	-32.9	19.5	6.02e-01	0	43	0	248512512	22	4833
2026-01-14 03:27:57.32	308.21	28.01	-30.6	-33.5	19.1	6.02e-01	0	43	0	250085376	22	5060
2026-01-14 03:27:58.32	307.83	28.01	-30.5	-33.7	19.3	6.01e-01	0	43	0	252182528	21	5225
2026-01-14 03:27:59.32	307.44	28.01	-29.9	-32.3	20.2	6.00e-01	0	43	0	253755392	21	4728
2026-01-14 03:28:00.32	307.06	28.02	-30.5	-33.4	19.1	6.02e-01	0	42	0	255852544	22	5009
2026-01-14 03:28:01.33	306.68	28.02	-30.7	-33.9	18.9	6.03e-01	0	43	0	257425408	22	5194
2026-01-14 03:28:02.33	306.29	28.01	-29.7	-31.8	20.4	6.00e-01	0	43	0	259522560	21	4566
2026-01-14 03:28:03.33	305.91	28.01	-30.1	-32.3	19.6	6.00e-01	0	43	0	261619712	22	4639
2026-01-14 03:28:04.34	305.53	28.01	-31.0	-34.7	18.3	6.03e-01	0	43	0	263192576	22	5513
2026-01-14 03:28:05.34	305.14	28.00	-30.8	-34.2	18.8	6.04e-01	0	43	0	265289728	22	5295
2026-01-14 03:28:06.34	304.76	28.00	-30.7	-33.4	18.9	6.03e-01	0	43	0	266862592	23	4884
2026-01-14 03:28:07.34	304.38	27.99	-31.0	-34.1	18.4	6.02e-01	0	42	0	268959744	23	5144
2026-01-14 03:28:08.34	304.00	27.98	-30.6	-33.6	19.1	6.01e-01	0	43	0	271056896	22	5082
2026-01-14 03:28:09.35	303.61	27.97	-29.9	-32.3	20.1	5.99e-01	0	43	0	272629760	21	4723
2026-01-14 03:28:10.36	303.23	27.96	-30.8	-34.1	18.6	5.98e-01	0	43	0	274726912	22	5269
2026-01-14 03:28:11.36	302.85	27.94	-31.1	-34.7	18.3	6.01e-01	0	43	0	276299776	23	5431
2026-01-14 03:28:12.36	302.47	27.93	-30.5	-32.8	19.3	6.00e-01	0	43	0	278396928	23	4688
2026-01-14 03:28:13.37	302.08	27.91	-30.8	-33.6	18.6	6.01e-01	0	43	0	280494080	23	4961
2026-01-14 03:28:14.37	301.70	27.89	-31.3	-35.0	17.8	6.01e-01	0	43	0	282066944	23	5528
2026-01-14 03:28:15.38	301.32	27.87	-31.2	-34.8	17.8	6.03e-01	0	43	0	284164096	23	5447
2026-01-14 03:28:16.38	300.94	27.85	-31.6	-35.5	17.2	6.02e-01	0	43	0	285736960	24	5627
2026-01-14 03:28:17.38	300.56	27.83	-31.4	-35.2	17.9	5.99e-01	0	43	0	287834112	23	5583
2026-01-14 03:28:18.38	300.19	27.81	-31.0	-33.7	18.3	6.01e-01	0	43	0	289406976	24	4905
2026-01-14 03:28:19.38	299.81	27.78	-31.4	-34.9	17.4	6.03e-01	0	43	0	291504128	24	5359
2026-01-14 03:28:20.39	299.43	27.76	-31.0	-34.2	18.3	6.01e-01	0	43	0	293601280	23	5189
2026-01-14 03:28:21.39	299.05	27.73	-31.0	-34.2	18.2	5.99e-01	0	43	0	295174144	23	5219
2026-01-14 03:28:22.40	298.67	27.70	-31.4	-35.4	17.7	6.03e-01	0	43	0	297271296	23	5672
2026-01-14 03:28:23.40	298.30	27.67	-31.1	-34.3	18.3	6.00e-01	0	43	0	298844160	23	5238
2026-01-14 03:28:24.40	297.92	27.64	-31.2	-34.7	17.9	6.01e-01	0	43	0	300941312	23	5403
2026-01-14 03:28:25.40	297.55	27.61	-30.7	-34.0	18.8	6.01e-01	0	43	0	303038464	22	5227
2026-01-14 03:28:26.41	297.18	27.58	-30.8	-34.0	18.7	6.02e-01	0	43	0	304611328	22	5246
2026-01-14 03:28:27.41	296.80	27.54	-30.9	-34.5	18.5	6.02e-01	0	43	0	306708480	22	5433
2026-01-14 03:28:28.41	296.43	27.51	-30.7	-33.2	18.9	6.00e-01	0	43	0	308281344	23	4830
2026-01-14 03:28:29.42	296.06	27.47	-31.3	-34.9	17.8	6.01e-01	0	43	0	310378496	23	5489
2026-01-14 03:28:30.42	295.69	27.43	-30.9	-34.0	18.5	5.98e-01	0	43	0	311951360	23	5128
2026-01-14 03:28:31.42	295.32	27.39	-30.9	-34.3	18.5	6.02e-01	0	43	0	314048512	22	5360
2026-01-14 03:28:32.43	294.95	27.35	-31.2	-34.6	18.1	6.03e-01	0	43	0	316145664	23	5363
2026-01-14 03:28:33.44	294.58	27.31	-31.4	-35.4	17.5	6.01e-01	0	43	0	317718528	23	5677
2026-01-14 03:28:34.43	294.22	27.27	-31.2	-34.6	18.0	6.00e-01	0	43	0	319815680	23	5380
2026-01-14 03:28:35.44	293.85	27.22	-31.0	-34.3	18.2	6.00e-01	0	43	0	321388544	23	5227
2026-01-14 03:28:36.44	293.49	27.18	-31.2	-34.8	17.9	6.00e-01	0	43	0	323485696	23	5439
2026-01-14 03:28:37.44	293.13	27.13	-30.7	-33.3	18.9	6.03e-01	0	43	0	325582848	23	4873
2026-01-14 03:28:38.44	292.77	27.08	-31.5	-35.7	17.3	6.02e-01	0	43	0	327155712	23	5851
2026-01-14 03:28:39.45	292.41	27.03	-30.9	-33.8	18.6	6.02e-01	0	43	0	329252864	23	5052
2026-01-14 03:28:40.45	292.05	26.98	-31.0	-34.1	18.2	6.00e-01	0	43	0	330825728	23	5156
2026-01-14 03:28:41.45	291.69	26.93	-31.3	-35.0	17.8	5.99e-01	0	43	0	332922880	23	5537
2026-01-14 03:28:42.45	291.34	26.88	-31.0	-34.1	18.3	6.00e-01	0	43	0	335020032	23	5156
2026-01-14 03:28:43.46	290.98	26.83	-31.6	-35.8	17.2	5.99e-01	0	43	0	336592896	23	5902
2026-01-14 03:28:44.46	290.62	26.77	-31.1	-34.6	18.1	6.00e-01	0	43	0	338690048	23	5344
2026-01-14 03:28:45.47	290.27	26.72	-30.9	-33.8	18.5	6.00e-01	0	43	0	340262912	23	5060
2026-01-14 03:28:46.46	289.92	26.66	-30.8	-34.3	18.6	5.99e-01	0	43	0	342360064	22	5363
2026-01-14 03:28:47.46	289.57	26.60	-30.1	-32.3	19.7	6.02e-01	0	43	0	343932928	22	4628
2026-01-14 03:28:48.47	289.22	26.54	-31.3	-35.3	17.6	6.01e-01	0	43	0	346030080	23	5654
2026-01-14 03:28:49.47	288.87	26.49	-30.6	-33.1	19.0	5.96e-01	0	43	0	348127232	23	4777
2026-01-14 03:28:50.48	288.52	26.42	-31.2	-34.9	17.6	6.02e-01	0	43	0	349700096	23	5500
2026-01-14 03:28:51.48	288.18	26.36	-30.7	-33.4	18.9	6.01e-01	0	42	0	351797248	23	4887
2026-01-14 03:28:52.48	287.84	26.30	-31.2	-34.2	17.8	6.01e-01	0	43	0	353370112	24	5095
2026-01-14 03:28:53.48	287.49	26.24	-30.9	-33.9	18.5	6.02e-01	0	43	0	355467264	23	5101
2026-01-14 03:28:54.48	287.15	26.17	-30.8	-33.8	18.3	6.00e-01	0	43	0	357040128	23	5037
2026-01-14 03:28:55.49	286.81	26.11	-31.2	-34.8	17.8	6.01e-01	0	43	0	359137280	23	5434
2026-01-14 03:28:56.49	286.47	26.04	-31.1	-33.9	17.9	6.00e-01	0	43	0	361234432	24	4994
2026-01-14 03:28:57.49	286.14	25.98	-31.0	-34.1	18.3	5.99e-01	0	43	0	362807296	23	5185
2026-01-14 03:28:58.49	285.80	25.91	-30.6	-33.7	17.3	6.00e-01	0	43	0	364904448	22	5122
2026-01-14 03:28:59.49	285.47	25.84	-31.4	-35.5	17.4	5.99e-01	0	43	0	367001600	23	5745
2026-01-14 03:29:00.50	285.14	25.77	-30.8	-33.5	18.6	5.99e-01	0	43	0	368574464	23	4931
2026-01-14 03:29:01.49	284.81	25.70	-31.3	-35.2	17.5	6.02e-01	0	43	0	370671616	23	5628
2026-01-14 03:29:02.50	284.48	25.63	-30.5	-32.9	19.0	6.00e-01	0	43	0	372244480	23	4718
2026-01-14 03:29:03.49	284.16	25.56	-31.2	-34.8	17.9	6.01e-01	0	43	0	374341632	23	5432
2026-01-14 03:29:04.50	283.83	25.49	-31.3	-34.6	17.6	6.04e-01	0	43	0	375914496	24	5249
2026-01-14 03:29:05.51	283.50	25.41	-31.1	-34.2	17.9	5.99e-01	0	43	0	378011648	24	5098
2026-01-14 03:29:06.52	283.18	25.34	-30.9	-33.5	18.4	6.00e-01	0	43	0	380108800	24	4837
2026-01-14 03:29:07.52	282.86	25.26	-31.1	-34.6	18.0	6.00e-01	0	43	0	381681664	23	5358
2026-01-14 03:29:08.52	282.54	25.19	-31.1	-34.4	18.0	6.01e-01	0	42	0	383778816	23	5300
2026-01-14 03:29:09.53	282.22	25.11	-30.9	-34.4	18.4	6.01e-01	0	43	0	385351680	22	5406
2026-01-14 03:29:10.53	281.90	25.03	-31.2	-34.7	17.9	6.00e-01	0	43	0	387448832	23	5423
2026-01-14 03:29:11.53	281.59	24.96	-30.9	-34.0	18.3	6.00e-01	0	43	0	389021696	23	5139
2026-01-14 03:29:12.54	281.27	24.88	-30.6	-33.1	18.8	6.01e-01	0	43	0	391118848	23	4808
2026-01-14 03:29:13.54	280.96	24.80	-30.6	-33.1	18.9	6.01e-01	0	43	0	393216000	23	4815
2026-01-14 03:29:14.54	280.65	24.72	-30.4	-33.0	19.2	6.02e-01	0	43	0	394788864	22	4887
2026-01-14 03:29:15.54	280.34	24.64	-30.2	-32.7	19.5	6.00e-01	0	43	0	396886016	22	4762
2026-01-14 03:29:16.54	280.04	24.56	-30.5	-33.9	19.0	5.99e-01	0	43	0	398983168	21	5342
2026-01-14 03:29:17.54	279.73	24.48	-30.3	-33.4	19.3	6.00e-01	0	43	0	400556032	21	5132
2026-01-14 03:29:18.53	279.43	24.40	-30.0	-33.0	19.8	6.01e-01	0	43	0	402653184	20	5115
2026-01-14 03:29:19.54	279.13	24.31	-30.4	-33.5	19.2	6.02e-01	0	43	0	404226048	21	5203
2026-01-14 03:29:20.54	278.83	24.23	-30.2	-33.1	19.3	6.02e-01	0	43	0	406323200	21	5031
2026-01-14 03:29:21.54	278.53	24.15	-29.9	-32.7	19.9	6.02e-01	0	43	0	407896064	20	5017
2026-01-14 03:29:22.54	278.24	24.06	-30.3	-33.5	19.2	6.01e-01	0	43	0	409993216	21	5181
2026-01-14 03:29:23.54	277.94	23.98	-30.3	-33.4	19.2	5.99e-01	0	43	0	411566080	21	5136
2026-01-14 03:29:24.54	277.65	23.90	-30.1	-33.3	19.6	5.99e-01	0	43	0	413663232	20	5221
2026-01-14 03:29:25.54	277.36	23.81	-30.4	-33.8	19.0	6.02e-01	0	43	0	415760384	21	5299
2026-01-14 03:29:26.54	277.07	23.72	-30.4	-33.7	19.0	6.01e-01	0	43	0	417333248	21	5267
2026-01-14 03:29:27.55	276.78	23.64	-30.4	-33.6	19.1	5.99e-01	0	43	0	419430400	21	5221
2026-01-14 03:29:28.55	276.49	23.55	-30.7	-33.9	18.7	6.03e-01	0	43	0	421003264	22	5223
2026-01-14 03:29:29.56	276.21	23.46	-30.9	-34.5	18.3	6.02e-01	0	43	0	423100416	22	5441
2026-01-14 03:29:30.55	275.93	23.38	-30.8	-34.1	18.4	6.02e-01	0	43	0	425197568	22	5312
2026-01-14 03:29:31.55	275.64	23.29	-30.5	-33.8	19.0	5.99e-01	0	43	0	426770432	21	5289
2026-01-14 03:29:32.56	275.36	23.20	-30.8	-34.3	18.4	6.01e-01	0	43	0	428867584	22	5390
2026-01-14 03:29:33.56	275.08	23.11	-31.0	-34.9	17.9	6.02e-01	0	43	0	430440448	22	5636
2026-01-14 03:29:34.56	274.81	23.02	-30.6	-33.6	18.7	6.00e-01	0	43	0	432537600	22	5118
2026-01-14 03:29:35.56	274.53	22.93	-30.3	-33.5	19.2	6.02e-01	0	43	0	434110464	21	5166
2026-01-14 03:29:36.56	274.26	22.84	-30.7	-33.9	18.6	6.00e-01	0	43	0	436207616	22	5245
2026-01-14 03:29:37.56	273.99	22.75	-31.0	-34.8	18.0	6.01e-01	0	43	0	438304768	22	5602
2026-01-14 03:29:38.55	273.72	22.66	-30.7	-34.0	18.5	6.02e-01	0	43	0	439877632	22	5267
2026-01-14 03:29:39.56	273.45	22.57	-30.2	-33.1	19.3	6.00e-01	0	43	0	441974784	21	5042
2026-01-14 03:29:40.56	273.19	22.48	-30.4	-33.7	18.9	6.00e-01	0	43	0	443547648	21	5283
2026-01-14 03:29:41.57	272.92	22.39	-30.6	-34.2	18.6	6.00e-01	0	43	0	445644800	21	5485
2026-01-14 03:29:42.58	272.65	22.30	-30.6	-33.7	18.7	5.98e-01	0	43	0	447741952	22	5146
2026-01-14 03:29:43.58	272.39	22.20	-30.5	-34.0	18.8	5.99e-01	0	43	0	449314816	21	5378
2026-01-14 03:29:44.58	272.13	22.11	-30.5	-34.0	18.8	6.03e-01	0	43	0	451411968	21	5383
2026-01-14 03:29:45.58	271.88	22.02	-30.8	-34.2	18.4	6.01e-01	0	43	0	452984832	22	5367
2026-01-14 03:29:46.58	271.62	21.93	-30.9	-34.5	18.2	6.02e-01	0	43	0	455081984	22	5484
2026-01-14 03:29:47.58	271.36	21.84	-30.7	-34.1	18.4	6.01e-01	0	43	0	456654848	22	5290
2026-01-14 03:29:48.59	271.11	21.74	-30.7	-34.1	18.5	6.02e-01	0	43	0	458752000	22	5297
2026-01-14 03:29:49.59	270.86	21.65	-30.8	-34.2	18.4	6.02e-01	0	43	0	460849152	22	5355
2026-01-14 03:29:50.60	270.60	21.55	-31.0	-35.0	17.9	5.99e-01	0	43	0	462422016	22	5666
2026-01-14 03:29:51.60	270.36	21.46	-31.1	-34.5	17.8	6.00e-01	0	43	0	464519168	23	5377
2026-01-14 03:29:52.60	270.11	21.37	-30.7	-34.1	18.4	6.00e-01	0	43	0	466092032	22	5300
2026-01-14 03:29:53.61	269.86	21.27	-30.3	-33.1	19.1	6.01e-01	0	43	0	468189184	22	4921
2026-01-14 03:29:54.61	269.62	21.18	-30.0	-32.6	19.6	6.02e-01	0	43	0	470286336	21	4885
2026-01-14 03:29:55.61	269.38	21.08	-30.0	-33.2	19.5	6.01e-01	0	43	0	471859200	20	5194
2026-01-14 03:29:56.61	269.14	20.99	-30.2	-33.1	19.3	6.03e-01	0	43	0	473956352	21	5062
2026-01-14 03:29:57.62	268.89	20.89	-30.3	-33.4	19.1	6.02e-01	0	43	0	475529216	21	5167
2026-01-14 03:29:58.63	268.65	20.80	-30.1	-33.0	19.4	6.00e-01	0	43	0	477626368	21	5002
2026-01-14 03:29:59.63	268.42	20.70	-30.0	-32.6	19.6	6.01e-01	0	43	0	479199232	21	4859
2026-01-14 03:30:00.63	268.18	20.61	-30.0	-33.2	19.5	6.00e-01	0	43	0	481296384	20	5206
2026-01-14 03:30:01.63	267.95	20.52	-30.0	-33.2	19.5	6.01e-01	0	43	0	483393536	20	5212
2026-01-14 03:30:02.63	267.72	20.42	-30.0	-33.1	19.5	6.02e-01	0	43	0	484966400	20	5162
2026-01-14 03:30:03.63	267.49	20.33	-30.1	-33.4	19.4	5.99e-01	0	43	0	487063552	20	5268
2026-01-14 03:30:04.64	267.26	20.23	-30.3	-33.5	19.1	6.01e-01	0	43	0	489160704	21	5214
2026-01-14 03:30:05.64	267.03	20.13	-30.3	-33.5	19.0	6.02e-01	0	43	0	490733568	21	5200
2026-01-14 03:30:06.64	266.81	20.04	-30.2	-33.2	19.2	6.00e-01	0	43	0	492830720	21	5084
2026-01-14 03:30:07.65	266.58	19.94	-30.0	-33.3	19.5	6.01e-01	0	43	0	494403584	20	5235
2026-01-14 03:30:08.64	266.36	19.85	-30.0	-33.1	19.6	6.00e-01	0	43	0	496500736	20	5166
2026-01-14 03:30:09.65	266.14	19.75	-30.0	-33.3	19.4	6.01e-01	0	43	0	498073600	20	5251
2026-01-14 03:30:10.64	265.92	19.66	-30.1	-33.0	19.3	5.99e-01	0	43	0	500170752	21	5021
2026-01-14 03:30:11.64	265.70	19.56	-30.2	-33.3	19.1	5.99e-01	0	43	0	501743616	21	5121
2026-01-14 03:30:12.64	265.49	19.47	-30.1	-32.9	19.3	6.02e-01	0	43	0	503840768	21	4998
2026-01-14 03:30:13.64	265.27	19.37	-29.9	-32.9	19.6	5.99e-01	0	43	0	505937920	20	5090
2026-01-14 03:30:14.65	265.06	19.28	-29.9	-33.0	19.6	6.00e-01	0	43	0	507510784	20	5132
2026-01-14 03:30:15.65	264.84	19.18	-29.9	-33.1	19.5	6.00e-01	0	43	0	509607936	20	5179
2026-01-14 03:30:16.65	264.63	19.09	-30.0	-33.4	19.4	6.02e-01	0	43	0	511180800	20	5272
2026-01-14 03:30:17.65	264.42	18.99	-30.1	-33.4	19.3	6.02e-01	0	43	0	513277952	20	5296
2026-01-14 03:30:18.66	264.21	18.89	-30.1	-33.1	19.2	6.02e-01	0	43	0	515375104	21	5052
2026-01-14 03:30:19.66	264.01	18.80	-30.3	-33.5	18.9	6.02e-01	0	43	0	516947968	21	5230
2026-01-14 03:30:20.66	263.80	18.70	-30.3	-33.5	19.0	6.01e-01	0	43	0	519045120	21	5198
2026-01-14 03:30:21.66	263.60	18.61	-30.1	-33.1	19.2	6.02e-01	0	43	0	520617984	21	5079
2026-01-14 03:30:22.67	263.39	18.51	-30.0	-32.8	19.4	6.01e-01	0	43	0	522715136	21	4944
2026-01-14 03:30:23.67	263.19	18.42	-29.9	-32.5	19.6	6.00e-01	0	43	0	524288000	21	4855
2026-01-14 03:30:24.67	262.99	18.32	-29.9	-33.0	19.5	6.02e-01	0	43	0	526385152	20	5149
2026-01-14 03:30:25.68	262.79	18.23	-29.9	-33.1	19.5	6.00e-01	0	43	0	528482304	20	5172
2026-01-14 03:30:26.68	262.59	18.13	-30.1	-33.1	19.2	6.01e-01	0	43	0	530055168	21	5077
2026-01-14 03:30:27.67	262.40	18.04	-30.1	-33.1	19.1	5.99e-01	0	43	0	532152320	21	5089
2026-01-14 03:30:28.68	262.20	17.94	-29.9	-33.0	19.5	6.03e-01	0	43	0	533725184	20	5166
2026-01-14 03:30:29.68	262.01	17.85	-29.8	-32.8	19.6	6.01e-01	0	43	0	535822336	20	5075
2026-01-14 03:30:30.68	261.82	17.75	-29.8	-32.8	19.6	5.98e-01	0	43	0	537919488	20	5092
2026-01-14 03:30:31.69	261.62	17.66	-29.8	-32.7	19.6	6.00e-01	0	43	0	539492352	20	5057
2026-01-14 03:30:32.69	261.43	17.56	-29.9	-32.9	19.6	6.01e-01	0	43	0	541589504	20	5113
2026-01-14 03:30:33.69	261.25	17.47	-29.9	-33.1	19.4	6.02e-01	0	43	0	543162368	20	5186
2026-01-14 03:30:34.69	261.06	17.38	-30.0	-33.4	19.3	6.03e-01	0	43	0	545259520	20	5291
2026-01-14 03:30:35.69	260.87	17.28	-30.0	-33.3	19.3	6.01e-01	0	43	0	547356672	20	5268
2026-01-14 03:30:36.69	260.69	17.19	-30.0	-33.3	19.3	6.03e-01	0	43	0	548929536	20	5254
2026-01-14 03:30:37.69	260.51	17.09	-29.9	-33.1	19.4	5.99e-01	0	43	0	551026688	20	5203
2026-01-14 03:30:38.69	260.32	17.00	-29.8	-32.9	19.5	6.01e-01	0	43	0	552599552	20	5110
2026-01-14 03:30:39.68	260.15	16.91	-29.8	-32.7	19.7	6.00e-01	0	43	0	554696704	20	5041
2026-01-14 03:30:40.69	259.96	16.81	-29.8	-32.7	19.6	6.03e-01	0	43	0	556269568	20	5042
2026-01-14 03:30:41.69	259.79	16.72	-29.8	-32.7	19.7	6.02e-01	0	43	0	558366720	20	5037
2026-01-14 03:30:42.69	259.61	16.63	-29.9	-33.0	19.4	6.02e-01	0	43	0	560463872	20	5167
2026-01-14 03:30:43.68	259.43	16.53	-29.9	-33.1	19.4	5.99e-01	0	43	0	562036736	20	5177
2026-01-14 03:30:44.69	259.26	16.44	-29.9	-33.0	19.4	5.99e-01	0	43	0	564133888	20	5159
2026-01-14 03:30:45.69	259.08	16.35	-29.9	-33.1	19.4	6.02e-01	0	43	0	565706752	20	5190
2026-01-14 03:30:46.69	258.91	16.25	-29.9	-33.2	19.3	6.02e-01	0	43	0	567803904	20	5230
2026-01-14 03:30:47.69	258.74	16.16	-29.9	-33.1	19.4	6.01e-01	0	43	0	569376768	20	5194
2026-01-14 03:30:48.69	258.57	16.07	-29.9	-33.1	19.4	6.01e-01	0	43	0	571473920	20	5205
2026-01-14 03:30:49.69	258.40	15.98	-29.9	-33.1	19.3	6.00e-01	0	43	0	573571072	20	5212
2026-01-14 03:30:50.69	258.23	15.88	-30.0	-33.2	19.3	6.03e-01	0	43	0	575143936	20	5236
2026-01-14 03:30:51.70	258.06	15.79	-30.1	-33.6	19.1	5.99e-01	0	43	0	577241088	20	5378
2026-01-14 03:30:52.70	257.90	15.70	-30.3	-33.5	18.8	6.00e-01	0	43	0	578813952	21	5235
2026-01-14 03:30:53.70	257.73	15.61	-30.2	-33.2	19.0	6.02e-01	0	43	0	580911104	21	5131
2026-01-14 03:30:54.70	257.57	15.52	-29.9	-32.6	19.4	5.98e-01	0	43	0	583008256	21	4896
2026-01-14 03:30:55.70	257.41	15.42	-29.9	-33.1	19.4	6.00e-01	0	43	0	584581120	20	5196
2026-01-14 03:30:56.70	257.25	15.33	-29.0	-32.2	19.0	5.99e-01	0	43	0	586678272	21	5170
2026-01-14 03:30:57.71	257.08	15.24	-28.8	-32.6	18.7	6.09e-01	0	43	0	588251136	20	5559
2026-01-14 03:30:58.71	256.92	15.15	-30.3	-33.8	18.7	6.00e-01	0	43	0	590348288	21	5402
2026-01-14 03:30:59.71	256.77	15.06	-30.3	-33.7	16.6	6.10e-01	0	43	0	591921152	21	5323
2026-01-14 03:31:00.72	256.61	14.97	-30.3	-33.5	16.8	6.11e-01	0	43	0	594018304	21	5255
2026-01-14 03:31:01.72	256.45	14.88	-30.3	-33.5	18.0	5.99e-01	0	43	0	596115456	21	5253
2026-01-14 03:31:02.72	256.29	14.79	-30.3	-33.6	16.0	6.09e-01	0	43	0	597688320	21	5280
2026-01-14 03:31:03.73	256.14	14.70	-30.4	-34.0	15.9	6.01e-01	0	43	0	599785472	21	5457
2026-01-14 03:31:04.73	255.99	14.61	-30.4	-34.0	17.9	6.01e-01	0	43	0	601358336	21	5442
2026-01-14 03:31:05.73	255.83	14.52	-30.2	-33.3	17.4	6.03e-01	0	43	0	603455488	21	5170
2026-01-14 03:31:06.74	255.68	14.42	-30.0	-33.3	18.5	6.02e-01	0	43	0	605028352	20	5284
2026-01-14 03:31:07.73	255.53	14.34	-30.0	-33.5	19.0	6.01e-01	0	43	0	607125504	20	5345
2026-01-14 03:31:08.74	255.38	14.25	-30.0	-33.3	19.0	6.01e-01	0	43	0	609222656	20	5296
2026-01-14 03:31:09.74	255.23	14.16	-29.9	-33.2	19.2	6.02e-01	0	43	0	610795520	20	5230
2026-01-14 03:31:10.74	255.09	14.07	-29.9	-33.0	19.3	5.99e-01	0	43	0	612892672	20	5173
2026-01-14 03:31:11.75	254.94	13.98	-30.1	-33.5	19.0	6.01e-01	0	43	0	614989824	20	5362
2026-01-14 03:31:12.76	254.79	13.89	-30.0	-33.4	19.1	6.00e-01	0	43	0	616562688	20	5325
2026-01-14 03:31:13.76	254.65	13.80	-30.0	-33.3	19.1	6.03e-01	0	43	0	618659840	20	5299
2026-01-14 03:31:14.77	254.50	13.71	-29.9	-33.2	19.2	6.01e-01	0	43	0	620232704	20	5232
2026-01-14 03:31:15.77	254.36	13.62	-30.0	-33.4	19.0	6.02e-01	0	43	0	622329856	20	5336
2026-01-14 03:31:16.78	254.22	13.53	-30.0	-33.5	19.0	6.03e-01	0	43	0	623902720	20	5353
2026-01-14 03:31:17.77	254.08	13.45	-30.1	-33.3	18.8	6.01e-01	0	43	0	625999872	21	5162
2026-01-14 03:31:18.78	253.94	13.36	-30.3	-33.7	18.5	6.02e-01	0	43	0	628097024	21	5325
2026-01-14 03:31:19.78	253.80	13.27	-30.1	-33.2	18.8	5.98e-01	0	43	0	629669888	21	5149
2026-01-14 03:31:20.79	253.66	13.18	-29.9	-33.0	19.2	6.00e-01	0	43	0	631767040	20	5192
2026-01-14 03:31:21.79	253.52	13.10	-29.8	-32.8	19.3	6.03e-01	0	43	0	633339904	20	5102
2026-01-14 03:31:22.80	253.38	13.01	-29.8	-32.9	19.3	6.01e-01	0	43	0	635437056	20	5148
2026-01-14 03:31:23.81	253.25	12.92	-29.8	-33.0	19.2	6.01e-01	0	43	0	637534208	20	5177
2026-01-14 03:31:24.81	253.11	12.84	-29.9	-33.1	19.2	6.01e-01	0	43	0	639107072	20	5198
2026-01-14 03:31:25.82	252.98	12.75	-30.0	-33.4	19.0	6.00e-01	0	43	0	641204224	20	5319
2026-01-14 03:31:26.82	252.84	12.66	-30.0	-33.5	18.9	6.01e-01	0	43	0	642777088	20	5354
2026-01-14 03:31:27.83	252.71	12.58	-30.1	-33.6	18.9	6.02e-01	0	43	0	644874240	20	5405
2026-01-14 03:31:28.83	252.58	12.49	-30.2	-33.5	18.6	6.00e-01	0	43	0	646447104	21	5251
2026-01-14 03:31:29.83	252.45	12.41	-30.4	-33.9	18.3	6.02e-01	0	43	0	648544256	21	5419
2026-01-14 03:31:30.84	252.32	12.32	-30.4	-33.9	18.3	6.01e-01	0	43	0	650641408	21	5424
2026-01-14 03:31:31.84	252.19	12.24	-30.3	-33.8	18.4	6.02e-01	0	43	0	652214272	21	5382
2026-01-14 03:31:32.84	252.06	12.15	-30.4	-34.0	18.3	6.02e-01	0	43	0	654311424	21	5453
2026-01-14 03:31:33.84	251.93	12.07	-30.4	-33.9	18.3	5.99e-01	0	43	0	656408576	21	5436
2026-01-14 03:31:34.85	251.81	11.98	-30.4	-34.0	18.2	6.02e-01	0	43	0	657981440	21	5468
2026-01-14 03:31:35.86	251.68	11.90	-30.6	-34.5	17.9	6.00e-01	0	43	0	660078592	21	5689
2026-01-14 03:31:36.86	251.56	11.81	-30.5	-34.2	18.0	5.99e-01	0	43	0	661651456	21	5561
2026-01-14 03:31:37.87	251.43	11.73	-30.3	-33.7	18.4	5.98e-01	0	43	0	663748608	21	5355
2026-01-14 03:31:38.87	251.31	11.64	-30.2	-33.6	18.4	6.00e-01	0	43	0	665321472	21	5306
2026-01-14 03:31:39.87	251.18	11.56	-30.2	-33.5	18.5	5.97e-01	0	43	0	667418624	21	5267
2026-01-14 03:31:40.87	251.06	11.48	-30.2	-33.7	18.4	5.99e-01	0	43	0	669515776	21	5334
2026-01-14 03:31:41.87	250.94	11.39	-30.4	-34.0	18.2	5.99e-01	0	43	0	671088640	21	5456
2026-01-14 03:31:42.87	250.82	11.31	-30.3	-33.7	18.3	6.02e-01	0	43	0	673185792	21	5359
2026-01-14 03:31:43.86	250.70	11.23	-30.4	-34.0	18.2	6.01e-01	0	43	0	674758656	21	5466
2026-01-14 03:31:44.87	250.58	11.15	-30.3	-33.8	18.3	5.99e-01	0	43	0	676855808	21	5373
2026-01-14 03:31:45.87	250.47	11.06	-30.1	-33.4	18.5	6.00e-01	0	43	0	678428672	21	5224
2026-01-14 03:31:46.87	250.35	10.98	-30.1	-33.2	18.6	5.99e-01	0	43	0	680525824	21	5162
2026-01-14 03:31:47.88	250.23	10.90	-30.0	-33.6	18.7	5.99e-01	0	43	0	682622976	20	5431
2026-01-14 03:31:48.88	250.12	10.82	-30.1	-33.7	18.6	6.00e-01	0	43	0	684195840	20	5466
2026-01-14 03:31:49.88	250.00	10.74	-30.1	-33.3	18.5	6.02e-01	0	43	0	686292992	21	5204
2026-01-14 03:31:50.89	249.89	10.65	-30.3	-33.9	18.2	6.01e-01	0	43	0	687865856	21	5433
2026-01-14 03:31:51.89	249.77	10.57	-30.3	-33.7	18.3	6.00e-01	0	43	0	689963008	21	5369
2026-01-14 03:31:52.89	249.66	10.49	-30.2	-33.5	18.4	6.01e-01	0	43	0	692060160	21	5266
2026-01-14 03:31:53.90	249.55	10.41	-30.2	-33.5	18.4	6.02e-01	0	43	0	693633024	21	5290
2026-01-14 03:31:54.90	249.43	10.33	-30.2	-33.5	18.4	6.00e-01	0	43	0	695730176	21	5286
2026-01-14 03:31:55.89	249.32	10.25	-30.3	-33.7	18.3	6.01e-01	0	43	0	697303040	21	5370
2026-01-14 03:31:56.89	249.21	10.17	-30.2	-33.6	18.3	6.02e-01	0	43	0	699400192	21	5328
2026-01-14 03:31:57.89	249.10	10.09	-30.3	-33.7	18.3	6.00e-01	0	43	0	701497344	21	5372
2026-01-14 03:31:58.90	248.99	10.01	-30.2	-33.6	18.3	6.00e-01	0	43	0	703070208	21	5318
2026-01-14 03:31:59.90	248.89	9.93	-30.2	-33.6	18.4	6.02e-01	0	43	0	705167360	21	5322
2026-01-14 03:32:00.90	248.78	9.85	-30.3	-34.0	18.1	5.99e-01	0	43	0	706740224	21	5486
2026-01-14 03:32:01.90	248.67	9.77	-30.3	-33.8	18.2	6.02e-01	0	43	0	708837376	21	5400
2026-01-14 03:32:02.90	248.57	9.69	-30.3	-33.9	18.1	6.01e-01	0	43	0	710410240	21	5453
2026-01-14 03:32:03.91	248.46	9.61	-30.3	-34.0	18.0	6.00e-01	0	43	0	712507392	21	5492
2026-01-14 03:32:04.90	248.35	9.54	-30.4	-34.2	17.9	6.03e-01	0	43	0	714604544	21	5557
2026-01-14 03:32:05.91	248.25	9.46	-30.5	-34.5	17.6	6.00e-01	0	43	0	716177408	21	5717
2026-01-14 03:32:06.91	248.15	9.38	-30.4	-34.2	17.9	6.01e-01	0	43	0	718274560	21	5570
2026-01-14 03:32:07.91	248.04	9.30	-30.4	-34.1	17.9	5.99e-01	0	43	0	719847424	21	5526
2026-01-14 03:32:08.91	247.94	9.22	-30.3	-34.1	17.9	6.01e-01	0	43	0	721944576	21	5521
2026-01-14 03:32:09.92	247.84	9.14	-30.3	-34.0	18.0	6.00e-01	0	43	0	723517440	21	5503
2026-01-14 03:32:10.92	247.74	9.07	-30.5	-34.6	17.5	6.03e-01	0	43	0	725614592	21	5764
2026-01-14 03:32:11.92	247.63	8.99	-30.4	-34.2	17.8	6.00e-01	0	43	0	727711744	21	5583
2026-01-14 03:32:12.92	247.53	8.91	-30.3	-33.9	18.0	6.02e-01	0	43	0	729284608	21	5455
2026-01-14 03:32:13.92	247.43	8.84	-30.3	-34.0	18.0	6.00e-01	0	43	0	731381760	21	5495
2026-01-14 03:32:14.93	247.33	8.76	-30.4	-34.1	17.9	6.00e-01	0	43	0	732954624	21	5561
2026-01-14 03:32:15.93	247.24	8.68	-30.5	-34.6	17.6	6.02e-01	0	43	0	735051776	21	5747
2026-01-14 03:32:16.93	247.14	8.61	-30.5	-34.5	17.6	5.99e-01	0	43	0	737148928	21	5738
2026-01-14 03:32:17.93	247.04	8.53	-30.5	-34.6	17.5	6.00e-01	0	43	0	738721792	21	5780
2026-01-14 03:32:18.93	246.94	8.45	-30.6	-34.8	17.4	6.03e-01	0	43	0	740818944	21	5858
2026-01-14 03:32:19.93	246.85	8.38	-30.5	-34.6	17.5	6.01e-01	0	43	0	742391808	21	5763
2026-01-14 03:32:20.93	246.75	8.30	-30.4	-34.4	17.6	6.03e-01	0	43	0	744488960	21	5685
2026-01-14 03:32:21.93	246.66	8.23	-30.5	-34.7	17.4	5.98e-01	0	43	0	746061824	21	5792
2026-01-14 03:32:22.94	246.56	8.15	-30.4	-34.4	17.6	5.99e-01	0	43	0	748158976	21	5679
2026-01-14 03:32:23.94	246.47	8.08	-30.5	-34.7	17.4	6.02e-01	0	43	0	750256128	21	5805
2026-01-14 03:32:24.95	246.37	8.00	-30.4	-34.3	17.6	6.00e-01	0	43	0	751828992	21	5639
2026-01-14 03:32:25.95	246.28	7.92	-30.3	-33.9	17.9	6.01e-01	0	43	0	753926144	21	5478
2026-01-14 03:32:26.95	246.19	7.85	-30.3	-34.0	17.8	6.00e-01	0	43	0	755499008	21	5527
2026-01-14 03:32:27.95	246.10	7.78	-30.3	-34.1	17.7	6.02e-01	0	43	0	757596160	21	5541
2026-01-14 03:32:28.94	246.01	7.70	-30.4	-34.4	17.5	6.00e-01	0	43	0	759693312	21	5705
2026-01-14 03:32:29.94	245.92	7.63	-30.5	-34.7	17.3	6.01e-01	0	43	0	761266176	21	5841
2026-01-14 03:32:30.95	245.82	7.55	-30.5	-34.7	17.3	6.03e-01	0	43	0	763363328	21	5838
2026-01-14 03:32:31.95	245.73	7.48	-30.5	-34.7	17.2	6.01e-01	0	43	0	764936192	21	5856
2026-01-14 03:32:32.95	245.65	7.41	-30.7	-34.7	17.0	6.03e-01	0	43	0	767033344	22	5704
2026-01-14 03:32:33.96	245.56	7.33	-30.8	-35.2	16.6	6.00e-01	0	43	0	768606208	22	5962
2026-01-14 03:32:34.95	245.47	7.26	-30.7	-34.7	16.9	6.04e-01	0	43	0	770703360	22	5729
2026-01-14 03:32:35.95	245.38	7.19	-30.7	-34.7	16.9	6.00e-01	0	43	0	772800512	22	5712
2026-01-14 03:32:36.96	245.29	7.11	-30.6	-34.5	17.1	6.02e-01	0	43	0	774373376	22	5623
2026-01-14 03:32:37.96	245.21	7.04	-33.6	-51.6	3.8	7.43e-01	0	43	104	775421952	28	28655
2026-01-14 03:32:38.97	245.12	6.97	-33.9	-53.4	3.8	7.45e-01	0	43	104	775421952	28	33845
2026-01-14 03:32:39.97	245.03	6.90	-34.2	-53.4	3.8	7.46e-01	0	43	104	775421952	29	32931

#Closed at: 2026-01-14 03:32:40
#Recorded file [775 MB]: D:/data/31010_260114_062543.dat