passes_logs/2026/01/14/R2M6_AANII_01/R2M6_AANII_01__20260114_082825_NOAA_20_JPSS-1_rec.log

#Pass ID: 20260114_082825_NOAA 20 (JPSS-1)
#Satellite: NOAA 20 (JPSS-1)
#Configuration: NOAA 20
#almurnet v.1.7.20240730
#Start time: 2026-01-14 08:28:26

#Version: 2.2.20231116
#Station: R2M6_AANII_01
#Location: 30.233357 lon 59.946436 lat
#TLE: 1 43013U 17073A   26013.21545503  .00000073  00000+0  55630-4 0  9998
#TLE: 2 43013  98.7633 314.1737 0001580  41.9966 318.1331 14.19535680422486

#Time	Az	El	Level	Level2	SNR	BER	BlckErr	Temp	State	Recorded	gain1	gain2
2026-01-14 08:28:26.51	102.88	7.09	-32.3	-40.1	4.5	1.37e+00	0	40	0	0	25	8899
2026-01-14 08:28:27.51	102.80	7.16	-32.1	-39.1	4.7	1.33e+00	0	40	104	0	25	8086
2026-01-14 08:28:28.51	102.71	7.22	-32.0	-38.5	6.8	2.34e-01	0	40	0	0	25	7596
2026-01-14 08:28:29.52	102.62	7.29	-32.1	-38.7	6.6	2.15e-01	0	41	0	1048576	25	7740
2026-01-14 08:28:30.52	102.53	7.35	-32.1	-38.8	6.6	2.14e-01	0	40	0	3145728	25	7839
2026-01-14 08:28:31.53	102.43	7.42	-32.1	-38.7	6.6	2.45e-01	0	40	0	5242880	25	7746
2026-01-14 08:28:32.53	102.34	7.48	-32.1	-38.6	6.7	1.98e-01	0	40	0	7340032	25	7652
2026-01-14 08:28:33.53	102.25	7.55	-31.9	-37.7	7.4	1.20e-01	0	41	0	9437184	25	7038
2026-01-14 08:28:34.53	102.16	7.62	-31.7	-37.0	8.4	6.12e-02	0	41	0	10485760	24	6662
2026-01-14 08:28:35.53	102.07	7.68	-31.5	-36.3	9.0	3.11e-02	0	41	0	12582912	24	6269
2026-01-14 08:28:36.53	101.97	7.75	-31.3	-35.7	9.5	1.71e-02	0	41	0	14680064	24	5940
2026-01-14 08:28:37.54	101.88	7.81	-31.3	-36.1	9.6	1.19e-02	0	41	0	16777216	23	6226
2026-01-14 08:28:38.54	101.79	7.88	-31.3	-36.0	9.6	1.22e-02	0	41	0	17825792	23	6217
2026-01-14 08:28:39.55	101.69	7.95	-31.2	-35.7	9.9	9.76e-03	0	41	0	19922944	23	6019
2026-01-14 08:28:40.56	101.60	8.01	-31.2	-35.8	9.8	1.08e-02	0	41	0	22020096	23	6080
2026-01-14 08:28:41.56	101.50	8.08	-31.2	-35.7	9.9	8.54e-03	0	41	0	24117248	23	6030
2026-01-14 08:28:42.56	101.41	8.15	-31.3	-35.9	9.7	1.07e-02	0	41	0	26214400	23	6170
2026-01-14 08:28:43.57	101.31	8.22	-31.1	-35.5	10.0	1.15e-02	0	41	0	28311552	23	5956
2026-01-14 08:28:44.57	101.21	8.28	-31.1	-35.3	10.2	7.09e-03	0	41	0	29360128	23	5832
2026-01-14 08:28:45.57	101.12	8.35	-31.0	-35.2	10.2	5.95e-03	0	41	0	31457280	23	5812
2026-01-14 08:28:46.58	101.02	8.42	-31.0	-35.1	10.3	5.02e-03	0	41	0	33554432	23	5779
2026-01-14 08:28:47.58	100.92	8.48	-31.1	-35.5	10.0	7.80e-03	0	41	0	35651584	23	5944
2026-01-14 08:28:48.58	100.82	8.55	-31.1	-35.4	10.0	1.03e-02	0	41	0	36700160	23	5940
2026-01-14 08:28:49.58	100.72	8.62	-31.1	-35.3	10.1	6.53e-03	0	41	0	38797312	23	5877
2026-01-14 08:28:50.59	100.62	8.69	-31.0	-35.1	10.3	6.00e-03	0	41	0	40894464	23	5750
2026-01-14 08:28:51.60	100.52	8.76	-31.0	-35.2	10.1	5.50e-03	0	41	0	42991616	23	5815
2026-01-14 08:28:52.59	100.42	8.82	-31.0	-35.1	10.2	8.03e-03	0	41	0	45088768	23	5781
2026-01-14 08:28:53.60	100.32	8.89	-30.9	-34.8	10.6	3.54e-03	0	41	0	46137344	23	5605
2026-01-14 08:28:54.60	100.22	8.96	-31.1	-35.4	10.1	5.80e-03	0	41	0	48234496	23	5906
2026-01-14 08:28:55.60	100.12	9.03	-31.1	-35.3	10.2	7.46e-03	0	41	0	50331648	23	5864
2026-01-14 08:28:56.60	100.02	9.09	-31.1	-35.2	10.3	4.76e-03	0	41	0	52428800	23	5786
2026-01-14 08:28:57.60	99.91	9.16	-31.2	-35.7	9.9	7.13e-03	0	41	0	54525952	23	6049
2026-01-14 08:28:58.61	99.81	9.23	-31.1	-35.5	10.1	9.16e-03	0	41	0	55574528	23	5916
2026-01-14 08:28:59.61	99.71	9.30	-31.1	-35.2	10.3	5.77e-03	0	41	0	57671680	23	5797
2026-01-14 08:29:00.61	99.60	9.37	-31.1	-35.2	10.4	4.81e-03	0	41	0	59768832	23	5754
2026-01-14 08:29:01.61	99.50	9.44	-31.2	-35.5	10.1	5.10e-03	0	41	0	61865984	23	5911
2026-01-14 08:29:02.61	99.39	9.51	-31.2	-35.5	10.1	8.16e-03	0	41	0	62914560	23	5916
2026-01-14 08:29:03.62	99.29	9.57	-31.1	-35.2	10.4	4.74e-03	0	41	0	65011712	23	5760
2026-01-14 08:29:04.62	99.18	9.64	-31.1	-35.1	10.5	4.05e-03	0	41	0	67108864	23	5698
2026-01-14 08:29:05.62	99.07	9.71	-31.2	-35.4	10.3	4.39e-03	0	42	0	69206016	23	5860
2026-01-14 08:29:06.62	98.97	9.78	-31.3	-35.8	10.0	9.32e-03	0	42	0	71303168	23	6057
2026-01-14 08:29:07.63	98.86	9.85	-31.3	-35.9	9.9	8.66e-03	0	42	0	73400320	23	6122
2026-01-14 08:29:08.63	98.75	9.92	-31.2	-35.5	10.1	9.61e-03	0	41	0	74448896	23	5929
2026-01-14 08:29:09.63	98.64	9.99	-31.1	-35.3	10.3	6.50e-03	0	41	0	76546048	23	5831
2026-01-14 08:29:10.64	98.53	10.06	-31.1	-35.3	10.3	5.46e-03	0	42	0	78643200	23	5804
2026-01-14 08:29:11.63	98.42	10.13	-31.2	-35.5	10.2	5.23e-03	0	41	0	80740352	23	5922
2026-01-14 08:29:12.63	98.31	10.20	-31.3	-35.8	10.0	7.64e-03	0	41	0	81788928	23	6049
2026-01-14 08:29:13.64	98.20	10.27	-31.2	-35.6	10.1	6.07e-03	0	42	0	83886080	23	5974
2026-01-14 08:29:14.64	98.09	10.34	-31.3	-36.1	9.7	9.91e-03	0	41	0	85983232	23	6230
2026-01-14 08:29:15.65	97.98	10.41	-31.3	-35.8	10.0	1.17e-02	0	42	0	88080384	23	6035
2026-01-14 08:29:16.65	97.86	10.48	-31.2	-35.4	10.4	5.80e-03	0	42	0	90177536	23	5840
2026-01-14 08:29:17.65	97.75	10.55	-31.1	-35.1	10.6	3.34e-03	0	42	0	91226112	23	5686
2026-01-14 08:29:18.66	97.64	10.62	-31.0	-34.6	11.0	2.38e-03	0	42	0	93323264	23	5488
2026-01-14 08:29:19.66	97.52	10.69	-31.2	-35.3	10.6	2.35e-03	0	42	0	95420416	23	5778
2026-01-14 08:29:20.67	97.41	10.76	-31.1	-35.1	10.7	4.51e-03	0	42	0	97517568	23	5706
2026-01-14 08:29:21.66	97.29	10.83	-31.2	-35.4	10.5	3.65e-03	0	42	0	99614720	23	5818
2026-01-14 08:29:22.66	97.18	10.90	-31.2	-35.3	10.5	4.37e-03	0	42	0	100663296	23	5791
2026-01-14 08:29:23.67	97.06	10.97	-31.2	-35.2	10.7	3.29e-03	0	42	0	102760448	23	5707
2026-01-14 08:29:24.67	96.94	11.04	-31.2	-35.1	10.8	2.63e-03	0	42	0	104857600	23	5669
2026-01-14 08:29:25.67	96.83	11.11	-31.2	-35.2	10.7	2.49e-03	0	42	0	106954752	23	5707
2026-01-14 08:29:26.68	96.71	11.19	-31.2	-35.1	10.8	3.40e-03	0	42	0	109051904	23	5681
2026-01-14 08:29:27.68	96.59	11.26	-31.1	-34.9	10.9	2.28e-03	0	42	0	110100480	23	5593
2026-01-14 08:29:28.69	96.47	11.33	-31.1	-34.8	11.0	2.01e-03	0	42	0	112197632	23	5537
2026-01-14 08:29:29.69	96.35	11.40	-30.9	-34.3	11.3	1.45e-03	0	42	0	114294784	23	5318
2026-01-14 08:29:30.69	96.23	11.47	-31.0	-34.6	11.1	1.40e-03	0	42	0	116391936	23	5446
2026-01-14 08:29:31.70	96.10	11.54	-30.9	-34.4	11.3	1.54e-03	0	42	0	118489088	23	5380
2026-01-14 08:29:32.70	95.98	11.61	-30.9	-34.3	11.4	1.11e-03	0	42	0	119537664	23	5314
2026-01-14 08:29:33.70	95.86	11.68	-30.9	-34.3	11.4	8.35e-04	0	42	0	121634816	23	5310
2026-01-14 08:29:34.70	95.74	11.76	-30.9	-34.1	11.5	7.54e-04	0	42	0	123731968	23	5242
2026-01-14 08:29:35.70	95.61	11.83	-30.8	-33.8	11.7	6.02e-04	0	42	0	125829120	23	5114
2026-01-14 08:29:36.70	95.49	11.90	-30.8	-34.5	11.7	5.39e-04	0	42	0	126877696	22	5475
2026-01-14 08:29:37.71	95.36	11.97	-30.9	-34.6	11.6	5.90e-04	0	42	0	128974848	22	5555
2026-01-14 08:29:38.71	95.24	12.04	-30.9	-34.6	11.6	7.04e-04	0	42	0	131072000	22	5539
2026-01-14 08:29:39.72	95.11	12.12	-30.9	-34.7	11.6	6.25e-04	0	42	0	133169152	22	5551
2026-01-14 08:29:40.72	94.99	12.19	-30.9	-34.7	11.6	7.35e-04	0	42	0	135266304	22	5541
2026-01-14 08:29:41.72	94.86	12.26	-31.0	-35.0	11.4	6.73e-04	0	42	0	136314880	22	5687
2026-01-14 08:29:42.72	94.73	12.33	-30.9	-34.7	11.6	9.16e-04	0	42	0	138412032	22	5562
2026-01-14 08:29:43.72	94.60	12.40	-30.9	-34.6	11.7	6.94e-04	0	42	0	140509184	22	5533
2026-01-14 08:29:44.73	94.47	12.48	-31.0	-34.8	11.6	6.57e-04	0	42	0	142606336	22	5594
2026-01-14 08:29:45.74	94.34	12.55	-30.9	-34.5	11.7	5.74e-04	0	42	0	144703488	22	5485
2026-01-14 08:29:46.73	94.21	12.62	-30.9	-34.5	11.8	5.08e-04	0	42	0	145752064	22	5486
2026-01-14 08:29:47.73	94.08	12.69	-30.9	-34.7	11.6	4.96e-04	0	42	0	147849216	22	5570
2026-01-14 08:29:48.73	93.95	12.77	-31.0	-34.8	11.6	6.88e-04	0	42	0	149946368	22	5588
2026-01-14 08:29:49.73	93.82	12.84	-31.0	-34.9	11.5	7.76e-04	0	42	0	152043520	22	5633
2026-01-14 08:29:50.73	93.68	12.91	-30.9	-34.6	11.7	4.94e-04	0	42	0	154140672	22	5519
2026-01-14 08:29:51.73	93.55	12.98	-30.9	-34.5	11.8	4.36e-04	0	42	0	155189248	22	5452
2026-01-14 08:29:52.73	93.42	13.06	-30.8	-34.2	12.1	4.58e-04	0	42	0	157286400	22	5332
2026-01-14 08:29:53.73	93.28	13.13	-30.7	-34.1	12.2	2.78e-04	0	42	0	159383552	22	5279
2026-01-14 08:29:54.73	93.15	13.20	-30.7	-34.0	12.2	2.39e-04	0	42	0	161480704	22	5248
2026-01-14 08:29:55.73	93.01	13.28	-30.8	-34.4	12.0	2.45e-04	0	42	0	163577856	22	5396
2026-01-14 08:29:56.73	92.87	13.35	-30.8	-34.1	12.2	3.38e-04	0	42	0	164626432	22	5298
2026-01-14 08:29:57.74	92.73	13.42	-30.7	-33.9	12.3	2.63e-04	0	42	0	166723584	22	5199
2026-01-14 08:29:58.74	92.59	13.50	-30.6	-33.5	12.6	8.39e-05	0	42	0	168820736	22	5051
2026-01-14 08:29:59.75	92.45	13.57	-30.7	-33.8	12.4	1.03e-04	0	42	0	170917888	22	5168
2026-01-14 08:30:00.75	92.31	13.64	-30.5	-33.3	12.8	1.29e-04	0	42	0	171966464	22	4967
2026-01-14 08:30:01.75	92.17	13.72	-30.6	-33.6	12.6	7.85e-05	0	42	0	174063616	22	5088
2026-01-14 08:30:02.75	92.03	13.79	-30.6	-33.5	12.6	8.46e-05	0	42	0	176160768	22	5059
2026-01-14 08:30:03.76	91.89	13.86	-30.6	-33.6	12.6	8.01e-05	0	42	0	178257920	22	5089
2026-01-14 08:30:04.76	91.75	13.94	-30.7	-33.7	12.6	1.14e-04	0	42	0	180355072	22	5124
2026-01-14 08:30:05.76	91.60	14.01	-30.7	-33.8	12.5	1.15e-04	0	42	0	181403648	22	5141
2026-01-14 08:30:06.77	91.46	14.08	-30.6	-33.5	12.8	8.08e-05	0	42	0	183500800	22	5016
2026-01-14 08:30:07.77	91.31	14.16	-30.7	-33.7	12.6	6.40e-05	0	42	0	185597952	22	5092
2026-01-14 08:30:08.77	91.17	14.23	-30.7	-33.7	12.6	9.91e-05	0	42	0	187695104	22	5091
2026-01-14 08:30:09.77	91.02	14.31	-30.7	-33.8	12.5	8.23e-05	0	42	0	189792256	22	5159
2026-01-14 08:30:10.78	90.87	14.38	-30.7	-33.8	12.5	1.11e-04	0	42	0	190840832	22	5157
2026-01-14 08:30:11.78	90.72	14.45	-30.9	-34.2	12.3	1.58e-04	0	42	0	192937984	22	5318
2026-01-14 08:30:12.78	90.58	14.53	-30.8	-34.1	12.4	1.44e-04	0	43	0	195035136	22	5249
2026-01-14 08:30:13.79	90.42	14.60	-30.8	-33.9	12.5	1.16e-04	0	42	0	197132288	22	5199
2026-01-14 08:30:14.79	90.27	14.68	-30.8	-34.2	12.3	1.67e-04	0	42	0	199229440	22	5288
2026-01-14 08:30:15.79	90.12	14.75	-30.9	-34.3	12.3	1.81e-04	0	42	0	200278016	22	5325
2026-01-14 08:30:16.79	89.97	14.82	-30.9	-34.4	12.2	1.96e-04	0	42	0	202375168	22	5387
2026-01-14 08:30:17.80	89.82	14.90	-30.9	-34.4	12.2	2.20e-04	0	42	0	204472320	22	5387
2026-01-14 08:30:18.80	89.67	14.97	-30.9	-34.4	12.2	2.35e-04	0	42	0	206569472	22	5370
2026-01-14 08:30:19.81	89.51	15.05	-30.9	-34.4	12.2	2.00e-04	0	42	0	208666624	22	5373
2026-01-14 08:30:20.81	89.35	15.12	-31.0	-34.6	12.1	2.11e-04	0	42	0	209715200	22	5434
2026-01-14 08:30:21.81	89.20	15.19	-31.1	-35.0	11.8	4.30e-04	0	42	0	211812352	22	5629
2026-01-14 08:30:22.82	89.04	15.27	-31.1	-34.8	11.9	4.58e-04	0	42	0	213909504	22	5557
2026-01-14 08:30:23.82	88.88	15.34	-31.0	-34.8	12.0	3.45e-04	0	42	0	216006656	22	5520
2026-01-14 08:30:24.82	88.73	15.42	-31.2	-35.2	11.7	4.71e-04	0	42	0	218103808	22	5720
2026-01-14 08:30:25.82	88.57	15.49	-31.1	-35.0	11.9	5.38e-04	0	42	0	219152384	22	5616
2026-01-14 08:30:26.83	88.41	15.56	-31.0	-34.8	12.0	3.65e-04	0	42	0	221249536	22	5522
2026-01-14 08:30:27.82	88.25	15.64	-31.2	-35.2	11.7	3.99e-04	0	42	0	223346688	22	5727
2026-01-14 08:30:28.83	88.09	15.71	-31.2	-35.1	11.8	4.87e-04	0	42	0	225443840	22	5678
2026-01-14 08:30:29.83	87.92	15.79	-31.2	-35.4	11.6	5.42e-04	0	42	0	226492416	22	5778
2026-01-14 08:30:30.84	87.76	15.86	-31.2	-35.1	11.8	6.32e-04	0	42	0	228589568	22	5686
2026-01-14 08:30:31.84	87.60	15.93	-31.0	-34.7	12.1	3.14e-04	0	42	0	230686720	22	5495
2026-01-14 08:30:32.84	87.43	16.01	-31.0	-34.6	12.2	2.51e-04	0	42	0	232783872	22	5451
2026-01-14 08:30:33.84	87.27	16.08	-31.0	-34.7	12.1	2.65e-04	0	42	0	234881024	22	5487
2026-01-14 08:30:34.85	87.10	16.16	-31.1	-34.8	12.0	2.45e-04	0	42	0	235929600	22	5542
2026-01-14 08:30:35.85	86.93	16.23	-31.1	-34.7	12.1	2.57e-04	0	42	0	238026752	22	5486
2026-01-14 08:30:36.85	86.77	16.30	-31.2	-35.0	11.9	3.34e-04	0	42	0	240123904	22	5614
2026-01-14 08:30:37.86	86.60	16.38	-31.1	-34.9	12.0	3.99e-04	0	42	0	242221056	22	5566
2026-01-14 08:30:38.87	86.42	16.45	-31.2	-35.0	11.9	3.42e-04	0	42	0	244318208	22	5631
2026-01-14 08:30:39.87	86.25	16.53	-31.3	-35.6	11.5	5.56e-04	0	42	0	245366784	22	5877
2026-01-14 08:30:40.87	86.08	16.60	-31.3	-35.4	11.6	8.13e-04	0	42	0	247463936	22	5806
2026-01-14 08:30:41.87	85.91	16.67	-31.3	-35.5	11.6	7.12e-04	0	42	0	249561088	22	5832
2026-01-14 08:30:42.87	85.74	16.75	-31.3	-35.6	11.5	7.74e-04	0	43	0	251658240	22	5898
2026-01-14 08:30:43.87	85.57	16.82	-31.3	-35.6	11.5	7.84e-04	0	42	0	253755392	22	5881
2026-01-14 08:30:44.88	85.39	16.89	-31.3	-35.6	11.5	7.20e-04	0	42	0	254803968	22	5872
2026-01-14 08:30:45.88	85.21	16.97	-31.3	-35.5	11.6	6.81e-04	0	42	0	256901120	22	5833
2026-01-14 08:30:46.89	85.04	17.04	-31.3	-35.5	11.6	7.21e-04	0	42	0	258998272	22	5809
2026-01-14 08:30:47.90	84.86	17.12	-31.2	-35.1	11.9	4.71e-04	0	42	0	261095424	22	5662
2026-01-14 08:30:48.90	84.68	17.19	-31.2	-35.2	11.9	4.19e-04	0	42	0	263192576	22	5676
2026-01-14 08:30:49.90	84.50	17.26	-31.2	-35.0	12.0	3.66e-04	0	42	0	264241152	22	5605
2026-01-14 08:30:50.91	84.32	17.34	-31.3	-35.3	11.7	4.29e-04	0	42	0	266338304	22	5743
2026-01-14 08:30:51.92	84.14	17.41	-31.2	-35.2	11.8	5.61e-04	0	42	0	268435456	22	5696
2026-01-14 08:30:52.92	83.96	17.48	-31.2	-35.1	11.9	3.94e-04	0	42	0	270532608	22	5636
2026-01-14 08:30:53.92	83.77	17.56	-31.3	-35.4	11.7	4.40e-04	0	42	0	272629760	22	5783
2026-01-14 08:30:54.92	83.59	17.63	-31.2	-35.0	12.0	5.14e-04	0	42	0	273678336	22	5619
2026-01-14 08:30:55.93	83.40	17.70	-31.2	-35.1	11.9	3.89e-04	0	42	0	275775488	22	5670
2026-01-14 08:30:56.93	83.22	17.77	-31.2	-35.1	11.9	3.74e-04	0	42	0	277872640	22	5659
2026-01-14 08:30:57.94	83.03	17.85	-31.2	-35.0	12.0	3.55e-04	0	42	0	279969792	22	5607
2026-01-14 08:30:58.94	82.85	17.92	-31.2	-35.1	12.0	3.18e-04	0	43	0	282066944	22	5642
2026-01-14 08:30:59.94	82.66	17.99	-31.2	-35.2	11.9	4.08e-04	0	42	0	283115520	22	5686
2026-01-14 08:31:00.94	82.47	18.06	-31.1	-34.7	12.2	2.82e-04	0	42	0	285212672	22	5484
2026-01-14 08:31:01.95	82.28	18.14	-31.0	-34.5	12.4	2.13e-04	0	42	0	287309824	22	5393
2026-01-14 08:31:02.95	82.09	18.21	-30.9	-34.2	12.6	8.85e-05	0	42	0	289406976	22	5274
2026-01-14 08:31:03.96	81.89	18.28	-30.9	-34.3	12.6	9.30e-05	0	43	0	290455552	22	5295
2026-01-14 08:31:04.95	81.70	18.35	-30.8	-33.9	12.8	8.85e-05	0	42	0	292552704	22	5137
2026-01-14 08:31:05.95	81.51	18.42	-30.8	-33.8	12.8	5.34e-05	0	42	0	294649856	22	5083
2026-01-14 08:31:06.95	81.32	18.50	-30.8	-33.8	12.9	4.19e-05	0	42	0	296747008	22	5125
2026-01-14 08:31:07.95	81.12	18.57	-30.9	-34.2	12.6	6.25e-05	0	42	0	298844160	22	5244
2026-01-14 08:31:08.95	80.93	18.64	-30.9	-34.2	12.6	1.10e-04	0	42	0	299892736	22	5269
2026-01-14 08:31:09.96	80.73	18.71	-30.7	-33.5	13.0	5.49e-05	0	42	0	301989888	22	5001
2026-01-14 08:31:10.96	80.53	18.78	-30.5	-33.2	13.3	2.05e-05	0	43	0	304087040	22	4861
2026-01-14 08:31:11.96	80.33	18.85	-30.5	-33.0	13.4	1.52e-05	0	42	0	306184192	22	4810
2026-01-14 08:31:12.96	80.13	18.92	-30.4	-32.7	13.6	6.80e-06	0	43	0	308281344	22	4693
2026-01-14 08:31:13.97	79.93	18.99	-30.4	-32.9	13.6	4.50e-06	0	42	0	309329920	22	4756
2026-01-14 08:31:14.97	79.73	19.06	-30.3	-32.5	13.8	6.10e-06	0	43	0	311427072	22	4636
2026-01-14 08:31:15.97	79.52	19.13	-30.4	-32.8	13.6	3.00e-06	0	43	0	313524224	22	4736
2026-01-14 08:31:16.97	79.32	19.20	-30.3	-32.5	13.8	5.30e-06	0	43	0	315621376	22	4619
2026-01-14 08:31:17.97	79.12	19.27	-30.1	-32.5	14.1	6.80e-06	0	43	0	317718528	21	4743
2026-01-14 08:31:18.98	78.91	19.34	-30.2	-32.8	13.9	3.00e-06	0	43	0	318767104	21	4853
2026-01-14 08:31:19.98	78.70	19.41	-30.0	-32.2	14.3	3.00e-06	0	43	0	320864256	21	4630
2026-01-14 08:31:20.98	78.50	19.48	-29.9	-31.9	14.4	0.00e+00	0	43	0	322961408	21	4548
2026-01-14 08:31:21.98	78.29	19.55	-29.9	-32.0	14.4	7.00e-07	0	43	0	325058560	21	4567
2026-01-14 08:31:22.99	78.08	19.62	-29.9	-32.0	14.4	1.50e-06	0	42	0	327155712	21	4561
2026-01-14 08:31:23.99	77.87	19.69	-29.8	-31.8	14.6	7.00e-07	0	42	0	328204288	21	4488
2026-01-14 08:31:24.99	77.66	19.76	-29.8	-31.6	14.7	0.00e+00	0	42	0	330301440	21	4442
2026-01-14 08:31:25.99	77.44	19.82	-29.6	-31.8	14.9	7.00e-07	0	42	0	332398592	20	4593
2026-01-14 08:31:27.00	77.23	19.89	-29.7	-32.0	14.8	0.00e+00	0	42	0	334495744	20	4674
2026-01-14 08:31:28.00	77.02	19.96	-29.7	-31.9	14.8	0.00e+00	0	43	0	335544320	20	4637
2026-01-14 08:31:29.00	76.80	20.03	-29.7	-32.0	14.8	7.00e-07	0	42	0	337641472	20	4652
2026-01-14 08:31:30.00	76.59	20.09	-29.7	-31.8	14.9	0.00e+00	0	42	0	339738624	20	4621
2026-01-14 08:31:31.00	76.37	20.16	-29.7	-32.0	14.8	1.50e-06	0	43	0	341835776	20	4663
2026-01-14 08:31:32.00	76.15	20.23	-29.7	-31.8	14.9	1.50e-06	0	43	0	343932928	20	4612
2026-01-14 08:31:33.01	75.93	20.29	-29.6	-31.7	15.0	0.00e+00	0	43	0	344981504	20	4560
2026-01-14 08:31:34.01	75.71	20.36	-29.7	-32.0	14.8	1.50e-06	0	43	0	347078656	20	4652
2026-01-14 08:31:35.02	75.49	20.43	-29.6	-31.6	15.0	7.00e-07	0	43	0	349175808	20	4525
2026-01-14 08:31:36.02	75.27	20.49	-29.8	-32.1	14.7	0.00e+00	0	42	0	351272960	20	4712
2026-01-14 08:31:37.02	75.05	20.56	-29.7	-31.8	14.9	2.20e-06	0	42	0	353370112	20	4580
2026-01-14 08:31:38.02	74.82	20.62	-29.5	-31.4	15.2	0.00e+00	0	43	0	354418688	20	4486
2026-01-14 08:31:39.02	74.60	20.69	-29.5	-31.3	15.2	0.00e+00	0	43	0	356515840	20	4439
2026-01-14 08:31:40.02	74.37	20.75	-29.6	-31.5	15.1	2.20e-06	0	43	0	358612992	20	4515
2026-01-14 08:31:41.03	74.14	20.82	-29.5	-31.4	15.1	0.00e+00	0	42	0	360710144	20	4466
2026-01-14 08:31:42.03	73.92	20.88	-29.5	-31.4	15.2	0.00e+00	0	42	0	362807296	20	4480
2026-01-14 08:31:43.03	73.69	20.94	-29.6	-31.7	15.0	0.00e+00	0	43	0	363855872	20	4548
2026-01-14 08:31:44.03	73.46	21.01	-29.6	-31.6	15.1	0.00e+00	0	43	0	365953024	20	4532
2026-01-14 08:31:45.03	73.23	21.07	-29.7	-31.9	14.9	0.00e+00	0	43	0	368050176	20	4624
2026-01-14 08:31:46.03	73.00	21.13	-29.7	-31.7	15.0	7.00e-07	0	42	0	370147328	20	4578
2026-01-14 08:31:47.03	72.77	21.19	-29.8	-32.0	14.9	0.00e+00	0	43	0	372244480	20	4652
2026-01-14 08:31:48.04	72.53	21.26	-29.7	-31.9	14.9	0.00e+00	0	43	0	373293056	20	4620
2026-01-14 08:31:49.05	72.30	21.32	-29.8	-32.0	14.8	7.00e-07	0	43	0	375390208	20	4664
2026-01-14 08:31:50.05	72.06	21.38	-29.6	-31.6	15.0	0.00e+00	0	43	0	377487360	20	4542
2026-01-14 08:31:51.05	71.83	21.44	-29.6	-31.7	15.0	0.00e+00	0	43	0	379584512	20	4563
2026-01-14 08:31:52.06	71.59	21.50	-29.8	-32.2	14.7	0.00e+00	0	43	0	380633088	20	4724
2026-01-14 08:31:53.07	71.35	21.56	-29.8	-32.0	14.8	7.00e-07	0	43	0	382730240	20	4666
2026-01-14 08:31:54.06	71.11	21.62	-29.8	-32.0	14.8	0.00e+00	0	43	0	384827392	20	4667
2026-01-14 08:31:55.06	70.87	21.68	-29.9	-32.3	14.7	7.00e-07	0	43	0	386924544	20	4747
2026-01-14 08:31:56.07	70.63	21.74	-29.8	-32.2	14.7	0.00e+00	0	43	0	389021696	20	4726
2026-01-14 08:31:57.07	70.39	21.80	-29.9	-32.4	14.5	7.00e-07	0	43	0	391118848	20	4788
2026-01-14 08:31:58.08	70.15	21.85	-29.7	-31.9	14.9	0.00e+00	0	43	0	392167424	20	4616
2026-01-14 08:31:59.07	69.91	21.91	-29.5	-31.3	15.2	0.00e+00	0	43	0	394264576	20	4443
2026-01-14 08:32:00.08	69.66	21.97	-29.4	-31.1	15.4	0.00e+00	0	43	0	396361728	20	4375
2026-01-14 08:32:01.08	69.41	22.02	-29.5	-31.2	15.3	0.00e+00	0	42	0	398458880	20	4416
2026-01-14 08:32:02.08	69.17	22.08	-29.4	-31.1	15.4	7.00e-07	0	43	0	399507456	20	4367
2026-01-14 08:32:03.08	68.92	22.14	-29.4	-31.0	15.5	0.00e+00	0	42	0	401604608	20	4357
2026-01-14 08:32:04.08	68.68	22.19	-29.5	-31.3	15.2	0.00e+00	0	43	0	403701760	20	4453
2026-01-14 08:32:05.08	68.43	22.25	-29.4	-31.0	15.5	0.00e+00	0	43	0	405798912	20	4331
2026-01-14 08:32:06.08	68.18	22.30	-29.3	-31.4	15.6	0.00e+00	0	43	0	407896064	19	4562
2026-01-14 08:32:07.08	67.93	22.35	-29.4	-31.6	15.5	0.00e+00	0	43	0	408944640	19	4611
2026-01-14 08:32:08.08	67.68	22.41	-29.4	-31.5	15.5	0.00e+00	0	43	0	411041792	19	4600
2026-01-14 08:32:09.08	67.43	22.46	-29.4	-31.4	15.6	0.00e+00	0	42	0	413138944	19	4572
2026-01-14 08:32:10.09	67.17	22.51	-29.3	-31.4	15.6	0.00e+00	0	43	0	415236096	19	4563
2026-01-14 08:32:11.09	66.92	22.57	-29.2	-31.1	15.8	0.00e+00	0	43	0	417333248	19	4471
2026-01-14 08:32:12.09	66.66	22.62	-29.1	-30.8	16.0	0.00e+00	0	43	0	418381824	19	4369
2026-01-14 08:32:13.10	66.41	22.67	-29.1	-30.9	15.9	0.00e+00	0	43	0	420478976	19	4404
2026-01-14 08:32:14.10	66.15	22.72	-29.1	-30.8	16.0	0.00e+00	0	43	0	422576128	19	4370
2026-01-14 08:32:15.10	65.89	22.77	-29.1	-30.8	16.0	0.00e+00	0	43	0	424673280	19	4369
2026-01-14 08:32:16.11	65.63	22.82	-29.1	-30.9	15.9	0.00e+00	0	43	0	425721856	19	4408
2026-01-14 08:32:17.11	65.37	22.87	-29.1	-30.8	16.0	0.00e+00	0	43	0	427819008	19	4371
2026-01-14 08:32:18.11	65.12	22.92	-29.0	-30.7	16.0	0.00e+00	0	43	0	429916160	19	4347
2026-01-14 08:32:19.11	64.86	22.96	-29.0	-30.6	16.1	0.00e+00	0	43	0	432013312	19	4317
2026-01-14 08:32:20.11	64.60	23.01	-29.2	-31.0	15.9	0.00e+00	0	43	0	434110464	19	4427
2026-01-14 08:32:21.11	64.33	23.06	-29.2	-31.0	15.8	0.00e+00	0	43	0	435159040	19	4451
2026-01-14 08:32:22.12	64.07	23.10	-29.4	-31.5	15.6	0.00e+00	0	43	0	437256192	19	4584
2026-01-14 08:32:23.12	63.81	23.15	-29.4	-31.5	15.6	0.00e+00	0	43	0	439353344	19	4581
2026-01-14 08:32:24.12	63.54	23.19	-29.5	-31.9	15.3	0.00e+00	0	43	0	441450496	19	4711
2026-01-14 08:32:25.12	63.28	23.24	-29.4	-31.6	15.5	0.00e+00	0	43	0	443547648	19	4625
2026-01-14 08:32:26.13	63.01	23.28	-29.4	-31.6	15.5	0.00e+00	0	42	0	444596224	19	4618
2026-01-14 08:32:27.13	62.74	23.33	-29.5	-31.7	15.4	0.00e+00	0	43	0	446693376	19	4643
2026-01-14 08:32:28.13	62.48	23.37	-29.4	-31.6	15.5	0.00e+00	0	42	0	448790528	19	4614
2026-01-14 08:32:29.14	62.21	23.41	-29.3	-31.3	15.6	0.00e+00	0	43	0	450887680	19	4542
2026-01-14 08:32:30.14	61.94	23.45	-29.4	-31.6	15.4	0.00e+00	0	43	0	452984832	19	4638
2026-01-14 08:32:31.15	61.67	23.49	-29.6	-32.0	15.2	0.00e+00	0	43	0	454033408	19	4752
2026-01-14 08:32:32.15	61.40	23.53	-29.6	-32.0	15.2	0.00e+00	0	43	0	456130560	19	4768
2026-01-14 08:32:33.15	61.13	23.57	-29.7	-32.3	15.0	0.00e+00	0	43	0	458227712	19	4869
2026-01-14 08:32:34.14	60.86	23.61	-29.8	-32.6	14.9	0.00e+00	0	43	0	460324864	19	4953
2026-01-14 08:32:35.15	60.58	23.65	-30.0	-32.6	14.5	0.00e+00	0	43	0	462422016	20	4844
2026-01-14 08:32:36.15	60.31	23.69	-30.2	-33.1	14.2	7.00e-07	0	43	0	463470592	20	5026
2026-01-14 08:32:37.16	60.04	23.73	-30.4	-33.7	13.8	7.00e-07	0	43	0	465567744	20	5252
2026-01-14 08:32:38.16	59.76	23.76	-30.3	-33.3	14.0	7.00e-07	0	43	0	467664896	20	5096
2026-01-14 08:32:39.17	59.48	23.80	-30.2	-33.1	14.2	2.20e-06	0	43	0	469762048	20	5045
2026-01-14 08:32:40.17	59.21	23.83	-30.3	-33.3	14.1	3.80e-06	0	43	0	471859200	20	5109
2026-01-14 08:32:41.17	58.93	23.87	-30.3	-33.3	14.0	2.20e-06	0	43	0	472907776	20	5104
2026-01-14 08:32:42.18	58.66	23.90	-30.3	-33.3	14.0	6.10e-06	0	43	0	475004928	20	5111
2026-01-14 08:32:43.18	58.38	23.93	-30.2	-33.0	14.2	1.50e-06	0	43	0	477102080	20	4994
2026-01-14 08:32:44.18	58.10	23.97	-30.3	-33.3	14.0	1.50e-06	0	43	0	479199232	20	5116
2026-01-14 08:32:45.19	57.82	24.00	-30.4	-33.7	13.8	4.50e-06	0	43	0	481296384	20	5253
2026-01-14 08:32:46.19	57.54	24.03	-30.5	-33.4	13.7	8.30e-06	0	42	0	482344960	21	5017
2026-01-14 08:32:47.20	57.26	24.06	-30.5	-33.4	13.6	1.29e-05	0	43	0	484442112	21	5020
2026-01-14 08:32:48.20	56.98	24.09	-30.4	-33.2	13.8	4.50e-06	0	43	0	486539264	21	4948
2026-01-14 08:32:49.20	56.70	24.12	-30.6	-33.7	13.5	1.44e-05	0	43	0	488636416	21	5132
2026-01-14 08:32:50.20	56.42	24.15	-30.6	-33.6	13.5	9.10e-06	0	43	0	489684992	21	5120
2026-01-14 08:32:51.19	56.14	24.17	-30.7	-34.1	13.2	1.44e-05	0	43	0	491782144	21	5287
2026-01-14 08:32:52.20	55.86	24.20	-30.5	-33.5	13.5	9.90e-06	0	43	0	493879296	21	5081
2026-01-14 08:32:53.21	55.57	24.23	-30.4	-33.3	13.7	5.30e-06	0	43	0	495976448	21	4990
2026-01-14 08:32:54.21	55.29	24.25	-30.6	-33.6	13.5	7.60e-06	0	43	0	498073600	21	5115
2026-01-14 08:32:55.21	55.01	24.27	-30.7	-34.0	13.2	1.37e-05	0	43	0	499122176	21	5265
2026-01-14 08:32:56.22	54.72	24.30	-30.8	-34.4	13.0	3.20e-05	0	43	0	501219328	21	5396
2026-01-14 08:32:57.23	54.44	24.32	-30.7	-34.0	13.3	1.90e-05	0	43	0	503316480	21	5270
2026-01-14 08:32:58.23	54.15	24.34	-30.7	-33.9	13.4	1.37e-05	0	43	0	505413632	21	5198
2026-01-14 08:32:59.23	53.87	24.37	-30.8	-34.2	13.2	2.36e-05	0	43	0	507510784	21	5334
2026-01-14 08:33:00.23	53.58	24.39	-30.9	-34.5	13.0	3.81e-05	0	43	0	508559360	21	5437
2026-01-14 08:33:01.24	53.29	24.41	-30.8	-34.3	13.1	3.43e-05	0	43	0	510656512	21	5370
2026-01-14 08:33:02.24	53.01	24.43	-30.8	-34.4	13.1	3.12e-05	0	43	0	512753664	21	5393
2026-01-14 08:33:03.25	52.72	24.44	-30.8	-34.2	13.1	3.43e-05	0	43	0	514850816	21	5342
2026-01-14 08:33:04.25	52.43	24.46	-30.9	-34.5	12.9	4.27e-05	0	43	0	516947968	21	5468
2026-01-14 08:33:05.26	52.14	24.48	-30.8	-34.3	13.1	2.44e-05	0	43	0	517996544	21	5364
2026-01-14 08:33:06.26	51.86	24.49	-30.8	-34.2	13.1	3.58e-05	0	43	0	520093696	21	5320
2026-01-14 08:33:07.26	51.57	24.51	-31.0	-34.7	12.8	4.88e-05	0	43	0	522190848	21	5525
2026-01-14 08:33:08.26	51.28	24.52	-30.8	-34.2	13.1	2.36e-05	0	43	0	524288000	21	5347
2026-01-14 08:33:09.26	51.00	24.54	-30.7	-34.0	13.2	2.05e-05	0	43	0	526385152	21	5267
2026-01-14 08:33:10.26	50.71	24.55	-30.8	-34.2	13.2	2.44e-05	0	43	0	527433728	21	5314
2026-01-14 08:33:11.26	50.42	24.56	-30.8	-34.1	13.2	1.98e-05	0	43	0	529530880	21	5311
2026-01-14 08:33:12.26	50.13	24.57	-30.8	-34.2	13.2	2.59e-05	0	43	0	531628032	21	5321
2026-01-14 08:33:13.26	49.84	24.58	-30.7	-33.8	13.4	1.67e-05	0	43	0	533725184	21	5185
2026-01-14 08:33:14.26	49.55	24.59	-30.6	-33.8	13.5	1.29e-05	0	43	0	534773760	21	5155
2026-01-14 08:33:15.26	49.26	24.60	-30.6	-33.8	13.4	1.22e-05	0	43	0	536870912	21	5180
2026-01-14 08:33:16.27	48.97	24.61	-30.6	-33.6	13.5	1.75e-05	0	43	0	538968064	21	5107
2026-01-14 08:33:17.26	48.69	24.62	-30.5	-33.4	13.6	5.30e-06	0	43	0	541065216	21	5043
2026-01-14 08:33:18.26	48.40	24.63	-30.5	-33.4	13.7	7.60e-06	0	43	0	543162368	21	5027
2026-01-14 08:33:19.27	48.10	24.63	-30.5	-33.4	13.6	6.80e-06	0	43	0	545259520	21	5047
2026-01-14 08:33:20.27	47.82	24.64	-30.4	-33.2	13.8	6.10e-06	0	43	0	546308096	21	4947
2026-01-14 08:33:21.28	47.52	24.64	-30.4	-33.2	13.8	3.00e-06	0	43	0	548405248	21	4967
2026-01-14 08:33:22.28	47.23	24.64	-30.4	-33.1	13.8	6.80e-06	0	43	0	550502400	21	4935
2026-01-14 08:33:23.28	46.94	24.65	-30.3	-32.9	14.0	3.00e-06	0	43	0	552599552	21	4839
2026-01-14 08:33:24.28	46.65	24.65	-30.2	-32.7	14.1	1.50e-06	0	43	0	553648128	21	4783
2026-01-14 08:33:25.28	46.36	24.65	-30.3	-32.7	14.1	7.00e-07	0	43	0	555745280	21	4788
2026-01-14 08:33:26.28	46.07	24.65	-30.3	-32.8	14.0	2.20e-06	0	43	0	557842432	21	4819
2026-01-14 08:33:27.28	45.78	24.65	-30.2	-32.6	14.2	7.00e-07	0	43	0	559939584	21	4763
2026-01-14 08:33:28.29	45.49	24.65	-30.0	-32.2	14.4	2.20e-06	0	43	0	562036736	21	4613
2026-01-14 08:33:29.30	45.20	24.65	-30.1	-32.2	14.4	0.00e+00	0	43	0	563085312	21	4629
2026-01-14 08:33:30.30	44.91	24.64	-30.0	-32.0	14.6	0.00e+00	0	43	0	565182464	21	4551
2026-01-14 08:33:31.31	44.62	24.64	-29.9	-31.9	14.6	0.00e+00	0	43	0	567279616	21	4512
2026-01-14 08:33:32.31	44.33	24.64	-29.8	-32.1	14.8	0.00e+00	0	43	0	569376768	20	4685
2026-01-14 08:33:33.32	44.04	24.63	-29.8	-32.0	14.8	0.00e+00	0	43	0	571473920	20	4669
2026-01-14 08:33:34.32	43.75	24.62	-29.6	-31.7	15.1	0.00e+00	0	43	0	572522496	20	4542
2026-01-14 08:33:35.32	43.46	24.62	-29.6	-31.5	15.2	0.00e+00	0	43	0	574619648	20	4486
2026-01-14 08:33:36.32	43.17	24.61	-29.5	-31.3	15.2	0.00e+00	0	43	0	576716800	20	4442
2026-01-14 08:33:37.31	42.88	24.60	-29.5	-31.3	15.3	0.00e+00	0	43	0	578813952	20	4442
2026-01-14 08:33:38.32	42.59	24.59	-29.5	-31.3	15.3	0.00e+00	0	43	0	580911104	20	4423
2026-01-14 08:33:39.32	42.30	24.58	-29.4	-31.5	15.6	0.00e+00	0	43	0	581959680	19	4582
2026-01-14 08:33:40.32	42.01	24.57	-29.3	-31.2	15.7	0.00e+00	0	43	0	584056832	19	4509
2026-01-14 08:33:41.32	41.73	24.56	-29.2	-31.1	15.7	0.00e+00	0	43	0	586153984	19	4483
2026-01-14 08:33:42.33	41.44	24.55	-29.3	-31.2	15.7	0.00e+00	0	43	0	588251136	19	4495
2026-01-14 08:33:43.33	41.15	24.53	-29.4	-31.4	15.6	0.00e+00	0	43	0	590348288	19	4571
2026-01-14 08:33:44.33	40.86	24.52	-29.4	-31.6	15.5	0.00e+00	0	43	0	591396864	19	4616
2026-01-14 08:33:45.34	40.57	24.50	-29.2	-31.0	15.8	0.00e+00	0	43	0	593494016	19	4448
2026-01-14 08:33:46.34	40.28	24.49	-29.0	-30.6	16.0	0.00e+00	0	43	0	595591168	19	4328
2026-01-14 08:33:47.35	39.99	24.47	-29.1	-30.7	15.9	0.00e+00	0	43	0	597688320	19	4366
2026-01-14 08:33:48.35	39.71	24.45	-29.1	-30.9	15.8	0.00e+00	0	43	0	598736896	19	4423
2026-01-14 08:33:49.34	39.43	24.44	-29.1	-30.9	15.9	0.00e+00	0	43	0	600834048	19	4405
2026-01-14 08:33:50.35	39.14	24.42	-29.0	-30.7	16.0	0.00e+00	0	43	0	602931200	19	4348
2026-01-14 08:33:51.34	38.85	24.40	-29.0	-30.6	16.0	0.00e+00	0	43	0	605028352	19	4325
2026-01-14 08:33:52.35	38.57	24.38	-28.9	-30.4	16.2	0.00e+00	0	43	0	607125504	19	4268
2026-01-14 08:33:53.36	38.28	24.36	-28.9	-30.3	16.2	0.00e+00	0	43	0	608174080	19	4235
2026-01-14 08:33:54.36	38.00	24.34	-29.0	-30.6	16.1	0.00e+00	0	43	0	610271232	19	4317
2026-01-14 08:33:55.36	37.71	24.31	-29.1	-30.7	15.9	0.00e+00	0	43	0	612368384	19	4369
2026-01-14 08:33:56.37	37.43	24.29	-29.1	-30.8	16.0	0.00e+00	0	43	0	614465536	19	4375
2026-01-14 08:33:57.37	37.14	24.27	-29.1	-30.8	15.9	0.00e+00	0	43	0	616562688	19	4393
2026-01-14 08:33:58.38	36.86	24.24	-29.1	-30.9	15.9	0.00e+00	0	43	0	617611264	19	4415
2026-01-14 08:33:59.38	36.58	24.22	-29.1	-30.9	15.9	0.00e+00	0	43	0	619708416	19	4406
2026-01-14 08:34:00.38	36.29	24.19	-29.2	-31.0	15.8	0.00e+00	0	43	0	621805568	19	4460
2026-01-14 08:34:01.38	36.01	24.16	-29.3	-31.3	15.6	0.00e+00	0	43	0	623902720	19	4551
2026-01-14 08:34:02.38	35.73	24.14	-29.2	-31.1	15.7	0.00e+00	0	43	0	625999872	19	4480
2026-01-14 08:34:03.37	35.46	24.11	-29.3	-31.3	15.6	0.00e+00	0	43	0	627048448	19	4537
2026-01-14 08:34:04.37	35.18	24.08	-29.4	-31.6	15.5	0.00e+00	0	43	0	629145600	19	4621
2026-01-14 08:34:05.37	34.90	24.05	-29.4	-31.7	15.4	0.00e+00	0	43	0	631242752	19	4650
2026-01-14 08:34:06.38	34.62	24.02	-29.6	-32.0	15.2	0.00e+00	0	43	0	633339904	19	4757
2026-01-14 08:34:07.38	34.34	23.99	-29.5	-31.7	15.3	0.00e+00	0	43	0	635437056	19	4676
2026-01-14 08:34:08.39	34.06	23.96	-29.5	-31.8	15.3	0.00e+00	0	43	0	636485632	19	4712
2026-01-14 08:34:09.39	33.78	23.92	-29.6	-32.1	15.1	0.00e+00	0	43	0	638582784	19	4806
2026-01-14 08:34:10.40	33.50	23.89	-29.7	-32.3	15.0	0.00e+00	0	43	0	640679936	19	4871
2026-01-14 08:34:11.40	33.23	23.86	-29.8	-32.5	14.9	7.00e-07	0	43	0	642777088	19	4923
2026-01-14 08:34:12.40	32.95	23.82	-29.9	-32.7	14.8	0.00e+00	0	43	0	643825664	19	4991
2026-01-14 08:34:13.39	32.68	23.79	-29.8	-32.5	14.9	0.00e+00	0	43	0	645922816	19	4926
2026-01-14 08:34:14.40	32.41	23.75	-29.8	-32.5	14.8	0.00e+00	0	43	0	648019968	19	4934
2026-01-14 08:34:15.40	32.13	23.71	-29.8	-32.6	14.9	0.00e+00	0	43	0	650117120	19	4963
2026-01-14 08:34:16.41	31.86	23.68	-29.9	-32.8	14.7	0.00e+00	0	43	0	652214272	19	5031
2026-01-14 08:34:17.41	31.59	23.64	-29.9	-32.7	14.7	0.00e+00	0	43	0	653262848	19	5006
2026-01-14 08:34:18.41	31.32	23.60	-30.0	-32.7	14.4	0.00e+00	0	43	0	655360000	20	4900
2026-01-14 08:34:19.42	31.04	23.56	-30.0	-32.7	14.3	1.50e-06	0	43	0	657457152	20	4904
2026-01-14 08:34:20.42	30.77	23.52	-30.0	-32.6	14.5	1.50e-06	0	43	0	659554304	20	4850
2026-01-14 08:34:21.43	30.50	23.48	-30.0	-32.6	14.5	1.50e-06	0	43	0	661651456	20	4845
2026-01-14 08:34:22.43	30.23	23.44	-30.0	-32.6	14.5	7.00e-07	0	43	0	662700032	20	4863
2026-01-14 08:34:23.43	29.97	23.40	-30.1	-32.9	14.2	2.20e-06	0	43	0	664797184	20	4969
2026-01-14 08:34:24.44	29.70	23.36	-30.2	-33.1	14.1	5.30e-06	0	43	0	666894336	20	5053
2026-01-14 08:34:25.44	29.43	23.31	-30.3	-33.3	14.0	7.00e-07	0	43	0	668991488	20	5102
2026-01-14 08:34:26.45	29.16	23.27	-30.3	-33.4	13.9	2.20e-06	0	43	0	671088640	20	5152
2026-01-14 08:34:27.45	28.90	23.23	-30.3	-33.4	13.9	2.20e-06	0	43	0	672137216	20	5148
2026-01-14 08:34:28.45	28.63	23.18	-30.3	-33.5	13.8	5.30e-06	0	43	0	674234368	20	5201
2026-01-14 08:34:29.45	28.37	23.14	-30.3	-33.3	14.0	1.50e-06	0	43	0	676331520	20	5116
2026-01-14 08:34:30.45	28.11	23.09	-30.3	-33.4	13.9	4.50e-06	0	43	0	678428672	20	5140
2026-01-14 08:34:31.46	27.85	23.04	-30.4	-33.6	13.8	3.80e-06	0	43	0	680525824	20	5206
2026-01-14 08:34:32.46	27.58	23.00	-30.5	-33.4	13.6	4.50e-06	0	43	0	681574400	21	5034
2026-01-14 08:34:33.47	27.32	22.95	-30.4	-33.2	13.7	6.10e-06	0	43	0	683671552	21	4983
2026-01-14 08:34:34.47	27.06	22.90	-30.4	-33.3	13.6	4.50e-06	0	43	0	685768704	21	5010
2026-01-14 08:34:35.48	26.80	22.85	-30.4	-33.3	13.7	9.10e-06	0	43	0	687865856	21	4987
2026-01-14 08:34:36.48	26.55	22.80	-30.4	-33.1	13.8	2.20e-06	0	43	0	689963008	21	4924
2026-01-14 08:34:37.48	26.29	22.75	-30.3	-32.9	13.9	4.50e-06	0	43	0	691011584	21	4863
2026-01-14 08:34:38.48	26.03	22.70	-30.4	-33.2	13.7	9.10e-06	0	43	0	693108736	21	4956
2026-01-14 08:34:39.49	25.78	22.65	-30.4	-33.2	13.7	6.80e-06	0	43	0	695205888	21	4968
2026-01-14 08:34:40.48	25.52	22.60	-30.4	-33.3	13.7	6.80e-06	0	43	0	697303040	21	4988
2026-01-14 08:34:41.49	25.27	22.55	-30.3	-33.0	13.8	6.80e-06	0	43	0	698351616	21	4901
2026-01-14 08:34:42.48	25.02	22.50	-30.4	-33.1	13.7	4.50e-06	0	43	0	700448768	21	4945
2026-01-14 08:34:43.48	24.77	22.45	-30.4	-33.3	13.7	4.50e-06	0	43	0	702545920	21	4991
2026-01-14 08:34:44.48	24.52	22.39	-30.6	-33.8	13.3	1.14e-05	0	43	0	704643072	21	5205
2026-01-14 08:34:45.49	24.26	22.34	-30.7	-34.1	13.0	3.35e-05	0	43	0	706740224	21	5322
2026-01-14 08:34:46.49	24.02	22.29	-30.8	-34.4	12.9	2.28e-05	0	43	0	707788800	21	5437
2026-01-14 08:34:47.49	23.77	22.23	-30.8	-34.2	13.0	4.50e-05	0	43	0	709885952	21	5357
2026-01-14 08:34:48.49	23.52	22.18	-30.6	-33.7	13.4	1.67e-05	0	43	0	711983104	21	5140
2026-01-14 08:34:49.50	23.27	22.12	-30.4	-33.3	13.6	5.30e-06	0	43	0	714080256	21	4994
2026-01-14 08:34:50.50	23.03	22.07	-30.4	-33.3	13.6	9.90e-06	0	43	0	716177408	21	4988
2026-01-14 08:34:51.51	22.78	22.01	-30.5	-33.5	13.5	1.14e-05	0	43	0	717225984	21	5087
2026-01-14 08:34:52.51	22.54	21.95	-30.5	-33.5	13.4	6.80e-06	0	43	0	719323136	21	5091
2026-01-14 08:34:53.51	22.29	21.90	-30.5	-33.5	13.4	1.14e-05	0	43	0	721420288	21	5093
2026-01-14 08:34:54.52	22.05	21.84	-30.5	-33.5	13.4	9.10e-06	0	43	0	723517440	21	5086
2026-01-14 08:34:55.52	21.81	21.78	-30.5	-33.6	13.4	1.22e-05	0	43	0	725614592	21	5115
2026-01-14 08:34:56.52	21.57	21.72	-30.4	-33.3	13.6	1.22e-05	0	43	0	726663168	21	5016
2026-01-14 08:34:57.52	21.33	21.66	-30.4	-33.1	13.7	7.60e-06	0	43	0	728760320	21	4930
2026-01-14 08:34:58.52	21.09	21.60	-30.3	-32.9	13.9	6.10e-06	0	43	0	730857472	21	4860
2026-01-14 08:34:59.52	20.85	21.55	-30.3	-32.8	13.9	9.10e-06	0	43	0	732954624	21	4841
2026-01-14 08:35:00.53	20.62	21.48	-30.1	-32.5	14.1	2.20e-06	0	43	0	735051776	21	4719
2026-01-14 08:35:01.54	20.38	21.42	-30.1	-32.5	14.1	2.20e-06	0	43	0	736100352	21	4715
2026-01-14 08:35:02.54	20.14	21.36	-30.2	-32.7	14.0	1.50e-06	0	43	0	738197504	21	4787
2026-01-14 08:35:03.54	19.91	21.30	-30.3	-32.8	13.9	4.50e-06	0	43	0	740294656	21	4831
2026-01-14 08:35:04.54	19.68	21.24	-30.3	-33.0	13.7	3.00e-06	0	43	0	742391808	21	4898
2026-01-14 08:35:05.53	19.45	21.18	-30.1	-32.4	14.2	2.20e-06	0	43	0	743440384	21	4684
2026-01-14 08:35:06.53	19.22	21.12	-30.0	-32.2	14.2	7.00e-07	0	43	0	745537536	21	4633
2026-01-14 08:35:07.54	18.99	21.06	-30.0	-32.0	14.3	7.00e-07	0	43	0	747634688	21	4578
2026-01-14 08:35:08.55	18.76	20.99	-30.0	-32.1	14.3	1.50e-06	0	43	0	749731840	21	4584
2026-01-14 08:35:09.55	18.53	20.93	-30.0	-32.1	14.3	7.00e-07	0	43	0	751828992	21	4604
2026-01-14 08:35:10.56	18.30	20.87	-30.0	-32.2	14.2	0.00e+00	0	43	0	752877568	21	4636
2026-01-14 08:35:11.56	18.07	20.80	-30.0	-32.2	14.2	1.50e-06	0	43	0	754974720	21	4641
2026-01-14 08:35:12.56	17.85	20.74	-29.9	-32.0	14.3	2.20e-06	0	43	0	757071872	21	4578
2026-01-14 08:35:13.56	17.62	20.67	-29.9	-31.9	14.4	0.00e+00	0	43	0	759169024	21	4536
2026-01-14 08:35:14.57	17.40	20.61	-29.9	-31.8	14.5	1.50e-06	0	43	0	761266176	21	4517
2026-01-14 08:35:15.56	17.18	20.54	-29.9	-31.9	14.4	7.00e-07	0	43	0	762314752	21	4546
2026-01-14 08:35:16.57	16.96	20.48	-30.0	-32.2	14.3	7.00e-07	0	43	0	764411904	21	4623
2026-01-14 08:35:17.58	16.73	20.41	-30.0	-32.2	14.2	2.20e-06	0	43	0	766509056	21	4640
2026-01-14 08:35:18.58	16.51	20.35	-30.1	-32.4	14.1	0.00e+00	0	43	0	768606208	21	4695
2026-01-14 08:35:19.58	16.30	20.28	-30.0	-32.2	14.2	3.00e-06	0	43	0	770703360	21	4650
2026-01-14 08:35:20.58	16.08	20.22	-29.9	-32.0	14.3	2.20e-06	0	43	0	771751936	21	4578
2026-01-14 08:35:21.59	15.86	20.15	-29.9	-31.9	14.4	7.00e-07	0	43	0	773849088	21	4549
2026-01-14 08:35:22.59	15.65	20.08	-29.9	-32.1	14.3	0.00e+00	0	43	0	775946240	21	4591
2026-01-14 08:35:23.60	15.43	20.01	-29.9	-31.9	14.4	1.50e-06	0	43	0	778043392	21	4555
2026-01-14 08:35:24.60	15.22	19.95	-30.0	-32.2	14.2	3.00e-06	0	43	0	780140544	21	4640
2026-01-14 08:35:25.60	15.00	19.88	-30.0	-32.2	14.2	3.80e-06	0	43	0	781189120	21	4649
2026-01-14 08:35:26.61	14.79	19.81	-29.9	-32.0	14.3	0.00e+00	0	43	0	783286272	21	4586
2026-01-14 08:35:27.62	14.58	19.74	-30.0	-32.1	14.3	7.00e-07	0	43	0	785383424	21	4598
2026-01-14 08:35:28.62	14.37	19.67	-30.0	-32.2	14.2	1.50e-06	0	43	0	787480576	21	4644
2026-01-14 08:35:29.61	14.16	19.61	-30.0	-32.2	14.2	0.00e+00	0	43	0	789577728	21	4640
2026-01-14 08:35:30.62	13.95	19.54	-30.1	-32.5	14.0	2.20e-06	0	43	0	790626304	21	4728
2026-01-14 08:35:31.62	13.74	19.47	-30.0	-32.3	14.1	2.20e-06	0	43	0	792723456	21	4656
2026-01-14 08:35:32.62	13.54	19.40	-29.9	-32.0	14.3	7.00e-07	0	43	0	794820608	21	4568
2026-01-14 08:35:33.62	13.33	19.33	-29.9	-31.9	14.4	0.00e+00	0	43	0	796917760	21	4530
2026-01-14 08:35:34.63	13.13	19.26	-29.9	-31.9	14.4	0.00e+00	0	43	0	799014912	21	4535
2026-01-14 08:35:35.64	12.92	19.19	-29.8	-31.7	14.5	2.20e-06	0	43	0	800063488	21	4472
2026-01-14 08:35:36.64	12.72	19.12	-29.8	-32.2	14.5	7.00e-07	0	43	0	802160640	20	4745
2026-01-14 08:35:37.64	12.52	19.05	-29.7	-32.0	14.6	0.00e+00	0	43	0	804257792	20	4671
2026-01-14 08:35:38.65	12.32	18.98	-29.7	-31.9	14.7	1.50e-06	0	43	0	806354944	20	4626
2026-01-14 08:35:39.66	12.12	18.91	-29.7	-31.9	14.7	0.00e+00	0	43	0	807403520	20	4641
2026-01-14 08:35:40.66	11.92	18.84	-29.7	-31.9	14.6	0.00e+00	0	43	0	809500672	20	4646
2026-01-14 08:35:41.66	11.72	18.77	-29.7	-32.0	14.6	0.00e+00	0	43	0	811597824	20	4670
2026-01-14 08:35:42.66	11.52	18.70	-29.6	-31.7	14.8	7.00e-07	0	43	0	813694976	20	4581
2026-01-14 08:35:43.66	11.33	18.63	-29.5	-31.5	14.9	0.00e+00	0	43	0	815792128	20	4516
2026-01-14 08:35:44.66	11.13	18.56	-29.6	-31.7	14.8	0.00e+00	0	43	0	816840704	20	4575
2026-01-14 08:35:45.66	10.94	18.49	-29.6	-31.6	14.8	0.00e+00	0	43	0	818937856	20	4548
2026-01-14 08:35:46.67	10.74	18.41	-29.5	-31.4	15.0	0.00e+00	0	43	0	821035008	20	4479
2026-01-14 08:35:47.67	10.55	18.34	-29.5	-31.3	15.0	0.00e+00	0	43	0	823132160	20	4458
2026-01-14 08:35:48.67	10.36	18.27	-29.5	-31.5	14.9	0.00e+00	0	43	0	825229312	20	4502
2026-01-14 08:35:49.67	10.17	18.20	-29.4	-31.1	15.1	0.00e+00	0	43	0	826277888	20	4403
2026-01-14 08:35:50.67	9.98	18.13	-29.3	-31.4	15.3	0.00e+00	0	43	0	828375040	19	4577
2026-01-14 08:35:51.67	9.79	18.06	-29.3	-31.3	15.3	0.00e+00	0	43	0	830472192	19	4563
2026-01-14 08:35:52.68	9.61	17.98	-29.3	-31.5	15.3	0.00e+00	0	43	0	832569344	19	4604
2026-01-14 08:35:53.68	9.42	17.91	-29.3	-31.5	15.3	0.00e+00	0	43	0	834666496	19	4606
2026-01-14 08:35:54.68	9.23	17.84	-29.4	-31.6	15.2	0.00e+00	0	43	0	835715072	19	4635
2026-01-14 08:35:55.68	9.05	17.77	-29.4	-31.6	15.2	7.00e-07	0	43	0	837812224	19	4650
2026-01-14 08:35:56.68	8.87	17.70	-29.5	-31.8	15.1	0.00e+00	0	43	0	839909376	19	4711
2026-01-14 08:35:57.68	8.68	17.62	-29.5	-32.0	14.9	0.00e+00	0	43	0	842006528	19	4775
2026-01-14 08:35:58.68	8.50	17.55	-29.6	-32.1	14.9	0.00e+00	0	43	0	844103680	19	4811
2026-01-14 08:35:59.68	8.32	17.48	-29.5	-32.0	14.9	0.00e+00	0	43	0	845152256	19	4793
2026-01-14 08:36:00.69	8.14	17.40	-29.6	-32.1	14.9	7.00e-07	0	43	0	847249408	19	4811
2026-01-14 08:36:01.69	7.96	17.33	-29.7	-32.3	14.7	0.00e+00	0	43	0	849346560	19	4883
2026-01-14 08:36:02.69	7.78	17.26	-29.5	-32.0	14.9	0.00e+00	0	43	0	851443712	19	4794
2026-01-14 08:36:03.70	7.60	17.19	-29.6	-32.3	14.7	7.00e-07	0	43	0	852492288	19	4867
2026-01-14 08:36:04.70	7.42	17.11	-29.5	-31.9	14.9	0.00e+00	0	43	0	854589440	19	4742
2026-01-14 08:36:05.70	7.25	17.04	-29.3	-31.3	15.3	0.00e+00	0	43	0	856686592	19	4555
2026-01-14 08:36:06.71	7.07	16.97	-29.3	-31.4	15.2	0.00e+00	0	43	0	858783744	19	4589
2026-01-14 08:36:07.72	6.90	16.89	-29.4	-31.6	15.1	0.00e+00	0	43	0	860880896	19	4656
2026-01-14 08:36:08.72	6.72	16.82	-29.3	-31.4	15.2	0.00e+00	0	43	0	862978048	19	4597
2026-01-14 08:36:09.72	6.55	16.75	-29.4	-31.6	15.1	0.00e+00	0	42	0	864026624	19	4663
2026-01-14 08:36:10.71	6.38	16.67	-29.5	-31.9	15.0	0.00e+00	0	43	0	866123776	19	4754
2026-01-14 08:36:11.72	6.21	16.60	-29.6	-32.2	14.8	0.00e+00	0	43	0	868220928	19	4845
2026-01-14 08:36:12.73	6.04	16.53	-29.6	-32.2	14.8	0.00e+00	0	43	0	870318080	19	4841
2026-01-14 08:36:13.73	5.87	16.45	-29.5	-31.9	14.9	0.00e+00	0	43	0	871366656	19	4750
2026-01-14 08:36:14.73	5.70	16.38	-29.4	-31.8	15.0	0.00e+00	0	43	0	873463808	19	4709
2026-01-14 08:36:15.73	5.53	16.30	-29.4	-31.8	15.0	7.00e-07	0	43	0	875560960	19	4709
2026-01-14 08:36:16.74	5.36	16.23	-29.4	-31.6	15.1	0.00e+00	0	43	0	877658112	19	4671
2026-01-14 08:36:17.73	5.20	16.16	-29.5	-31.8	15.0	0.00e+00	0	43	0	879755264	19	4728
2026-01-14 08:36:18.73	5.04	16.08	-29.4	-31.8	15.0	0.00e+00	0	43	0	880803840	19	4729
2026-01-14 08:36:19.74	4.87	16.01	-29.6	-32.1	14.8	7.00e-07	0	43	0	882900992	19	4819
2026-01-14 08:36:20.74	4.71	15.94	-29.5	-32.1	14.8	7.00e-07	0	43	0	884998144	19	4813
2026-01-14 08:36:21.75	4.54	15.86	-29.6	-32.2	14.7	0.00e+00	0	43	0	887095296	19	4859
2026-01-14 08:36:22.74	4.38	15.79	-29.5	-31.9	14.9	0.00e+00	0	43	0	889192448	19	4742
2026-01-14 08:36:23.75	4.22	15.72	-29.6	-32.1	14.8	0.00e+00	0	43	0	890241024	19	4834
2026-01-14 08:36:24.75	4.06	15.64	-29.6	-32.3	14.6	0.00e+00	0	43	0	892338176	19	4904
2026-01-14 08:36:25.75	3.90	15.57	-29.6	-32.3	14.6	0.00e+00	0	43	0	894435328	19	4900
2026-01-14 08:36:26.75	3.74	15.49	-29.7	-32.4	14.5	0.00e+00	0	43	0	896532480	19	4940
2026-01-14 08:36:27.76	3.59	15.42	-29.8	-32.6	14.4	0.00e+00	0	43	0	897581056	19	5006
2026-01-14 08:36:28.77	3.43	15.35	-29.9	-33.0	14.2	7.00e-07	0	43	0	899678208	19	5137
2026-01-14 08:36:29.77	3.27	15.27	-29.9	-32.5	14.1	3.00e-06	0	43	0	901775360	20	4884
2026-01-14 08:36:30.77	3.12	15.20	-29.9	-32.6	14.0	0.00e+00	0	43	0	903872512	20	4902
2026-01-14 08:36:31.77	2.96	15.13	-30.0	-32.9	13.8	3.80e-06	0	43	0	905969664	20	5006
2026-01-14 08:36:32.78	2.81	15.05	-30.1	-33.2	13.6	6.80e-06	0	43	0	908066816	20	5126
2026-01-14 08:36:33.78	2.65	14.98	-30.0	-33.0	13.8	5.30e-06	0	43	0	909115392	20	5036
2026-01-14 08:36:34.78	2.50	14.90	-30.1	-33.1	13.6	6.80e-06	0	43	0	911212544	20	5091
2026-01-14 08:36:35.78	2.35	14.83	-30.0	-32.9	13.8	4.50e-06	0	43	0	913309696	20	5024
2026-01-14 08:36:36.79	2.20	14.76	-30.1	-33.1	13.7	5.30e-06	0	43	0	915406848	20	5092
2026-01-14 08:36:37.79	2.05	14.68	-30.0	-32.9	13.8	1.06e-05	0	43	0	916455424	20	5029
2026-01-14 08:36:38.79	1.90	14.61	-29.9	-32.7	13.9	2.20e-06	0	43	0	918552576	20	4935
2026-01-14 08:36:39.80	1.75	14.54	-30.0	-32.9	13.8	1.50e-06	0	43	0	920649728	20	5020
2026-01-14 08:36:40.80	1.60	14.46	-30.0	-32.9	13.8	6.10e-06	0	43	0	922746880	20	5004
2026-01-14 08:36:41.81	1.46	14.39	-30.0	-32.9	13.8	3.00e-06	0	43	0	924844032	20	5031
2026-01-14 08:36:42.82	1.31	14.31	-30.3	-33.7	13.3	1.37e-05	0	43	0	925892608	20	5315
2026-01-14 08:36:43.81	1.17	14.24	-30.2	-33.3	13.5	1.60e-05	0	43	0	927989760	20	5182
2026-01-14 08:36:44.82	1.02	14.17	-30.3	-33.6	13.3	6.80e-06	0	42	0	930086912	20	5266
2026-01-14 08:36:45.82	0.88	14.09	-30.2	-33.5	13.4	1.52e-05	0	43	0	932184064	20	5245
2026-01-14 08:36:46.82	0.73	14.02	-30.3	-33.7	13.2	1.52e-05	0	43	0	934281216	20	5326
2026-01-14 08:36:47.82	0.59	13.95	-30.3	-33.6	13.3	2.74e-05	0	43	0	935329792	20	5277
2026-01-14 08:36:48.83	0.45	13.87	-30.3	-33.8	13.1	1.52e-05	0	43	0	937426944	20	5372
2026-01-14 08:36:49.83	0.31	13.80	-30.2	-33.5	13.3	1.75e-05	0	43	0	939524096	20	5249
2026-01-14 08:36:50.83	0.17	13.73	-30.2	-33.3	13.4	1.22e-05	0	43	0	941621248	20	5185
2026-01-14 08:36:51.83	0.03	13.65	-30.4	-33.9	13.1	1.44e-05	0	43	0	943718400	20	5414
2026-01-14 08:36:52.84	359.89	13.58	-30.3	-33.7	13.2	2.36e-05	0	43	0	944766976	20	5308
2026-01-14 08:36:53.84	359.75	13.51	-30.2	-33.3	13.4	1.98e-05	0	43	0	946864128	20	5187
2026-01-14 08:36:54.84	359.61	13.44	-30.2	-33.4	13.4	1.60e-05	0	43	0	948961280	20	5208
2026-01-14 08:36:55.84	359.47	13.36	-30.2	-33.5	13.4	8.30e-06	0	43	0	951058432	20	5231
2026-01-14 08:36:56.85	359.34	13.29	-30.4	-34.0	13.0	3.43e-05	0	43	0	953155584	20	5448
2026-01-14 08:36:57.86	359.20	13.22	-30.4	-34.0	13.0	3.20e-05	0	43	0	954204160	20	5430
2026-01-14 08:36:58.86	359.07	13.14	-30.4	-34.1	12.9	4.65e-05	0	43	0	956301312	20	5482
2026-01-14 08:36:59.86	358.93	13.07	-30.4	-33.6	12.9	6.33e-05	0	43	0	958398464	21	5181
2026-01-14 08:37:00.87	358.80	13.00	-30.5	-33.7	12.8	4.34e-05	0	43	0	960495616	21	5201
2026-01-14 08:37:01.86	358.67	12.93	-30.4	-33.6	12.9	5.72e-05	0	43	0	962592768	21	5182
2026-01-14 08:37:02.86	358.54	12.85	-30.5	-33.7	12.8	6.79e-05	0	43	0	963641344	21	5210
2026-01-14 08:37:03.86	358.40	12.78	-30.4	-33.5	13.0	5.03e-05	0	43	0	965738496	21	5141
2026-01-14 08:37:04.87	358.27	12.71	-30.4	-33.6	12.9	4.04e-05	0	43	0	967835648	21	5174
2026-01-14 08:37:05.86	358.14	12.64	-30.4	-33.6	12.9	5.49e-05	0	43	0	969932800	21	5181
2026-01-14 08:37:06.86	358.01	12.57	-30.5	-33.8	12.7	5.79e-05	0	43	0	970981376	21	5255
2026-01-14 08:37:07.87	357.88	12.49	-30.6	-34.0	12.6	1.12e-04	0	43	0	973078528	21	5346
2026-01-14 08:37:08.87	357.76	12.42	-30.8	-34.5	12.2	1.23e-04	0	43	0	975175680	21	5557
2026-01-14 08:37:09.87	357.63	12.35	-30.6	-34.2	12.4	1.52e-04	0	43	0	977272832	21	5442
2026-01-14 08:37:10.88	357.50	12.28	-30.6	-34.0	12.6	9.23e-05	0	43	0	979369984	21	5328
2026-01-14 08:37:11.88	357.38	12.20	-30.5	-33.8	12.7	8.16e-05	0	43	0	980418560	21	5289
2026-01-14 08:37:12.88	357.25	12.13	-30.5	-33.8	12.7	8.31e-05	0	43	0	982515712	21	5258
2026-01-14 08:37:13.88	357.12	12.06	-30.5	-33.9	12.6	9.46e-05	0	43	0	984612864	21	5312
2026-01-14 08:37:14.89	357.00	11.99	-30.5	-33.8	12.7	6.56e-05	0	43	0	986710016	21	5270
2026-01-14 08:37:15.89	356.88	11.92	-30.5	-33.8	12.7	7.55e-05	0	43	0	988807168	21	5282
2026-01-14 08:37:16.89	356.75	11.85	-30.6	-34.1	12.5	1.21e-04	0	43	0	989855744	21	5399
2026-01-14 08:37:17.89	356.63	11.78	-30.5	-34.0	12.6	1.14e-04	0	43	0	991952896	21	5332
2026-01-14 08:37:18.90	356.51	11.70	-30.6	-34.2	12.4	1.35e-04	0	43	0	994050048	21	5435
2026-01-14 08:37:19.90	356.39	11.63	-30.7	-34.3	12.3	1.85e-04	0	43	0	996147200	21	5492
2026-01-14 08:37:20.91	356.27	11.56	-30.8	-34.6	12.1	2.70e-04	0	43	0	998244352	21	5609
2026-01-14 08:37:21.91	356.15	11.49	-30.7	-34.5	12.2	2.74e-04	0	43	0	999292928	21	5572
2026-01-14 08:37:22.91	356.03	11.42	-30.8	-34.7	12.0	2.82e-04	0	43	0	1001390080	21	5667
2026-01-14 08:37:23.92	355.91	11.35	-30.8	-34.7	12.0	3.89e-04	0	43	0	1003487232	21	5665
2026-01-14 08:37:24.91	355.79	11.28	-30.9	-35.1	11.7	4.16e-04	0	43	0	1005584384	21	5839
2026-01-14 08:37:25.92	355.67	11.21	-30.8	-34.6	12.1	4.50e-04	0	43	0	1007681536	21	5624
2026-01-14 08:37:26.92	355.55	11.14	-30.8	-34.7	12.0	3.29e-04	0	43	0	1008730112	21	5656
2026-01-14 08:37:27.92	355.44	11.06	-30.9	-35.0	11.8	4.13e-04	0	43	0	1010827264	21	5770
2026-01-14 08:37:28.93	355.32	10.99	-30.8	-34.8	11.9	4.64e-04	0	43	0	1012924416	21	5711
2026-01-14 08:37:29.93	355.21	10.92	-30.9	-35.0	11.8	4.55e-04	0	43	0	1015021568	21	5793
2026-01-14 08:37:30.94	355.09	10.85	-30.9	-35.2	11.6	6.29e-04	0	43	0	1016070144	21	5880
2026-01-14 08:37:31.95	354.97	10.78	-30.9	-35.1	11.7	7.20e-04	0	43	0	1018167296	21	5824
2026-01-14 08:37:32.95	354.86	10.71	-30.8	-34.9	11.9	4.94e-04	0	43	0	1020264448	21	5738
2026-01-14 08:37:33.96	354.75	10.64	-30.9	-35.0	11.8	5.06e-04	0	43	0	1022361600	21	5783
2026-01-14 08:37:34.95	354.64	10.57	-30.9	-35.0	11.8	5.29e-04	0	43	0	1024458752	21	5792
2026-01-14 08:37:35.95	354.52	10.50	-31.0	-35.0	11.5	6.59e-04	0	43	0	1025507328	22	5661
2026-01-14 08:37:36.95	354.41	10.43	-31.2	-35.4	11.1	1.29e-03	0	43	0	1027604480	22	5881
2026-01-14 08:37:37.95	354.30	10.36	-31.1	-35.2	11.2	1.40e-03	0	43	0	1029701632	22	5781
2026-01-14 08:37:38.95	354.19	10.29	-31.1	-35.1	11.4	1.23e-03	0	43	0	1031798784	22	5728
2026-01-14 08:37:39.95	354.08	10.22	-31.1	-35.3	11.2	1.24e-03	0	43	0	1033895936	22	5809
2026-01-14 08:37:40.95	353.97	10.16	-31.2	-35.6	11.0	1.76e-03	0	43	0	1034944512	22	5948
2026-01-14 08:37:41.95	353.86	10.09	-31.3	-35.7	10.9	1.77e-03	0	43	0	1037041664	22	6003
2026-01-14 08:37:42.96	353.76	10.02	-31.2	-35.4	11.1	2.01e-03	0	43	0	1039138816	22	5882
2026-01-14 08:37:43.96	353.65	9.95	-31.2	-35.4	11.1	1.62e-03	0	43	0	1041235968	22	5861
2026-01-14 08:37:44.97	353.54	9.88	-31.2	-35.7	10.9	1.84e-03	0	43	0	1043333120	22	5989
2026-01-14 08:37:45.97	353.43	9.81	-31.4	-36.2	10.5	2.86e-03	0	43	0	1044381696	22	6263
2026-01-14 08:37:46.98	353.33	9.74	-31.2	-35.5	11.0	2.44e-03	0	43	0	1046478848	22	5930
2026-01-14 08:37:47.98	353.22	9.67	-31.2	-35.6	10.9	2.41e-03	0	43	0	1048576000	22	5981
2026-01-14 08:37:48.99	353.11	9.60	-31.2	-35.5	11.0	2.27e-03	0	43	0	1050673152	22	5923
2026-01-14 08:37:50.00	353.01	9.53	-31.3	-35.8	10.8	1.99e-03	0	43	0	1052770304	22	6060
2026-01-14 08:37:50.99	352.91	9.46	-31.1	-35.4	11.0	1.99e-03	0	43	0	1053818880	22	5860
2026-01-14 08:37:52.00	352.80	9.40	-31.3	-35.9	10.6	2.49e-03	0	43	0	1055916032	22	6130
2026-01-14 08:37:53.00	352.70	9.33	-31.2	-35.5	10.9	2.40e-03	0	43	0	1058013184	22	5933
2026-01-14 08:37:54.00	352.60	9.26	-31.1	-35.3	11.1	1.62e-03	0	43	0	1060110336	22	5837
2026-01-14 08:37:55.01	352.49	9.19	-31.1	-35.2	11.2	1.46e-03	0	43	0	1061158912	22	5780
2026-01-14 08:37:56.01	352.39	9.12	-31.1	-35.4	11.0	1.79e-03	0	43	0	1063256064	22	5875
2026-01-14 08:37:57.01	352.29	9.06	-31.2	-35.7	10.8	1.99e-03	0	43	0	1065353216	22	6007
2026-01-14 08:37:58.02	352.19	8.99	-31.3	-36.1	10.5	3.80e-03	0	43	0	1067450368	22	6213
2026-01-14 08:37:59.02	352.09	8.92	-31.3	-35.8	10.7	3.13e-03	0	43	0	1069547520	22	6090
2026-01-14 08:38:00.03	351.99	8.85	-31.2	-35.5	10.9	2.72e-03	0	43	0	1071644672	22	5946
2026-01-14 08:38:01.03	351.89	8.78	-31.1	-35.2	11.1	1.87e-03	0	43	0	1072693248	22	5817
2026-01-14 08:38:02.04	351.79	8.72	-31.1	-35.3	11.0	1.69e-03	0	43	0	1074790400	22	5845
2026-01-14 08:38:03.05	351.69	8.65	-31.1	-35.2	11.1	1.87e-03	0	43	0	1076887552	22	5803
2026-01-14 08:38:04.05	351.59	8.58	-31.2	-35.6	10.8	2.32e-03	0	43	0	1078984704	22	6009
2026-01-14 08:38:05.05	351.50	8.51	-31.1	-35.5	10.9	2.25e-03	0	43	0	1080033280	22	5935
2026-01-14 08:38:06.05	351.40	8.45	-31.2	-35.7	10.7	2.65e-03	0	43	0	1082130432	22	6059
2026-01-14 08:38:07.06	351.30	8.38	-31.2	-35.6	10.8	2.60e-03	0	43	0	1084227584	22	5971
2026-01-14 08:38:08.05	351.21	8.31	-31.3	-36.1	10.4	4.13e-03	0	43	0	1086324736	22	6224
2026-01-14 08:38:09.05	351.11	8.25	-31.2	-35.7	10.7	3.66e-03	0	43	0	1088421888	22	6028
2026-01-14 08:38:10.06	351.02	8.18	-31.2	-35.7	10.7	2.67e-03	0	43	0	1089470464	22	6059
2026-01-14 08:38:11.06	350.92	8.11	-31.3	-36.1	10.4	3.87e-03	0	43	0	1091567616	22	6227
2026-01-14 08:38:12.06	350.83	8.05	-31.3	-36.2	10.3	4.94e-03	0	43	0	1093664768	22	6328
2026-01-14 08:38:13.06	350.74	7.98	-31.2	-35.8	10.6	4.06e-03	0	43	0	1095761920	22	6111
2026-01-14 08:38:14.06	350.64	7.91	-31.4	-36.4	10.1	3.78e-03	0	43	0	1097859072	22	6395
2026-01-14 08:38:15.07	350.55	7.85	-31.4	-36.4	10.1	6.54e-03	0	43	0	1098907648	22	6402
2026-01-14 08:38:16.07	350.46	7.78	-31.4	-36.5	10.0	6.23e-03	0	43	0	1101004800	22	6485
2026-01-14 08:38:17.07	350.37	7.72	-31.5	-36.3	9.8	1.00e-02	0	43	0	1103101952	23	6263
2026-01-14 08:38:18.06	350.27	7.65	-31.6	-36.5	9.5	1.51e-02	0	43	0	1105199104	23	6392
2026-01-14 08:38:19.07	350.18	7.59	-31.5	-36.4	9.6	1.23e-02	0	43	0	1107296256	23	6342
2026-01-14 08:38:20.06	350.09	7.52	-31.4	-36.1	9.9	8.89e-03	0	43	0	1108344832	23	6154
2026-01-14 08:38:21.06	350.00	7.45	-31.5	-36.4	9.7	9.39e-03	0	43	0	1110441984	23	6330
2026-01-14 08:38:22.06	349.91	7.39	-31.5	-36.6	9.5	1.36e-02	0	43	0	1112539136	23	6431
2026-01-14 08:38:23.07	349.82	7.32	-31.5	-36.4	9.6	1.17e-02	0	43	0	1114636288	23	6311
2026-01-14 08:38:24.07	349.74	7.26	-31.6	-36.7	9.4	1.14e-02	0	43	0	1116733440	23	6516
2026-01-14 08:38:25.07	349.65	7.19	-31.6	-36.7	9.4	1.89e-02	0	43	0	1117782016	23	6477
2026-01-14 08:38:26.07	349.56	7.13	-31.7	-37.2	9.0	2.47e-02	0	43	0	1119879168	23	6773
2026-01-14 08:38:27.08	349.47	7.06	-31.6	-36.7	9.5	1.59e-02	0	43	0	1121976320	23	6491
2026-01-14 08:38:28.08	349.38	7.00	-33.4	-47.2	3.8	1.49e+00	0	43	104	1121976320	26	17662
2026-01-14 08:38:29.09	349.30	6.93	-33.7	-47.8	3.8	1.49e+00	0	43	104	1121976320	27	18273
2026-01-14 08:38:30.09	349.21	6.87	-33.9	-48.4	3.8	1.49e+00	0	43	104	1121976320	27	19112

#Closed at: 2026-01-14 08:38:30
#Recorded file [1121 MB]: D:/data/31010_260114_112828.dat