passes_logs/2026/01/14/R2M6_AANII_01/R2M6_AANII_01__20260114_080832_SUOMI_NPP_rec.log

#Pass ID: 20260114_080832_SUOMI NPP
#Satellite: SUOMI NPP
#Configuration: NPP
#almurnet v.1.7.20240730
#Start time: 2026-01-14 08:08:31

#Version: 2.2.20231116
#Station: R2M6_AANII_01
#Location: 30.233357 lon 59.946436 lat
#TLE: 1 37849U 11061A   26013.27136842  .00000065  00000+0  51889-4 0  9990
#TLE: 2 37849  98.7808 315.3349 0002489  66.6776 293.4661 14.19524902736466

#Time	Az	El	Level	Level2	SNR	BER	BlckErr	Temp	State	Recorded	gain1	gain2
2026-01-14 08:08:31.46	90.35	6.95	-32.7	-41.7	3.8	1.49e+00	0	40	0	0	26	10201
2026-01-14 08:08:32.46	90.25	7.01	-32.2	-38.8	4.4	1.39e+00	0	40	104	0	25	7640
2026-01-14 08:08:33.46	90.14	7.07	-32.1	-37.8	6.0	4.53e-01	0	40	0	0	25	6918
2026-01-14 08:08:34.47	90.03	7.13	-32.2	-38.4	5.7	4.07e-01	0	40	0	1048576	25	7304
2026-01-14 08:08:35.47	89.93	7.19	-32.2	-38.4	5.7	4.22e-01	0	40	0	3145728	25	7304
2026-01-14 08:08:36.47	89.82	7.24	-32.2	-38.1	5.9	3.81e-01	0	40	0	5242880	25	7086
2026-01-14 08:08:37.47	89.72	7.30	-32.2	-38.1	5.8	3.40e-01	0	40	0	7340032	25	7138
2026-01-14 08:08:38.47	89.61	7.36	-32.3	-38.6	5.6	4.32e-01	0	41	0	9437184	25	7453
2026-01-14 08:08:39.48	89.50	7.42	-32.1	-37.5	6.2	3.79e-01	0	40	0	10485760	25	6684
2026-01-14 08:08:40.47	89.39	7.48	-32.1	-37.3	6.5	2.82e-01	0	41	0	12582912	25	6576
2026-01-14 08:08:41.47	89.28	7.54	-31.7	-35.8	7.9	1.02e-01	0	41	0	14680064	24	5766
2026-01-14 08:08:42.47	89.17	7.60	-31.6	-35.3	8.4	5.15e-02	0	41	0	16777216	24	5500
2026-01-14 08:08:43.47	89.06	7.66	-31.5	-34.6	8.9	3.86e-02	0	41	0	17825792	24	5194
2026-01-14 08:08:44.47	88.95	7.72	-31.3	-34.4	9.6	1.95e-02	0	41	0	19922944	23	5153
2026-01-14 08:08:45.47	88.84	7.78	-31.2	-34.1	9.8	1.27e-02	0	41	0	22020096	23	5027
2026-01-14 08:08:46.47	88.73	7.84	-31.3	-34.5	9.5	1.22e-02	0	41	0	24117248	23	5184
2026-01-14 08:08:47.47	88.62	7.90	-31.4	-34.8	9.2	1.50e-02	0	41	0	26214400	23	5325
2026-01-14 08:08:48.47	88.51	7.96	-31.5	-35.1	9.1	2.42e-02	0	41	0	27262976	23	5444
2026-01-14 08:08:49.48	88.40	8.02	-31.4	-34.6	9.5	1.73e-02	0	41	0	29360128	23	5241
2026-01-14 08:08:50.48	88.28	8.08	-31.4	-34.5	9.5	1.56e-02	0	41	0	31457280	23	5201
2026-01-14 08:08:51.48	88.17	8.14	-31.4	-34.7	9.4	1.68e-02	0	41	0	33554432	23	5290
2026-01-14 08:08:52.49	88.06	8.20	-31.3	-34.5	9.7	1.29e-02	0	41	0	35651584	23	5161
2026-01-14 08:08:53.49	87.94	8.26	-31.3	-34.5	9.6	1.28e-02	0	41	0	36700160	23	5201
2026-01-14 08:08:54.50	87.83	8.32	-31.3	-34.4	9.6	1.34e-02	0	41	0	38797312	23	5157
2026-01-14 08:08:55.50	87.71	8.38	-31.4	-34.7	9.3	1.40e-02	0	41	0	40894464	23	5290
2026-01-14 08:08:56.50	87.60	8.44	-31.6	-35.6	8.7	3.30e-02	0	41	0	42991616	23	5708
2026-01-14 08:08:57.51	87.48	8.50	-31.5	-35.3	9.0	2.33e-02	0	41	0	45088768	23	5546
2026-01-14 08:08:58.51	87.36	8.56	-31.7	-35.8	8.6	4.14e-02	0	41	0	46137344	23	5779
2026-01-14 08:08:59.51	87.24	8.62	-31.5	-35.2	9.0	2.62e-02	0	41	0	48234496	23	5506
2026-01-14 08:09:00.51	87.13	8.68	-31.5	-35.1	9.2	2.04e-02	0	41	0	50331648	23	5460
2026-01-14 08:09:01.52	87.01	8.74	-31.4	-34.8	9.4	1.95e-02	0	41	0	52428800	23	5316
2026-01-14 08:09:02.52	86.89	8.80	-31.3	-34.5	9.7	1.20e-02	0	41	0	54525952	23	5171
2026-01-14 08:09:03.52	86.77	8.86	-31.4	-34.7	9.5	1.25e-02	0	41	0	55574528	23	5254
2026-01-14 08:09:04.52	86.65	8.92	-31.5	-34.9	9.4	1.42e-02	0	41	0	57671680	23	5348
2026-01-14 08:09:05.52	86.53	8.98	-31.6	-35.5	9.0	2.50e-02	0	41	0	59768832	23	5628
2026-01-14 08:09:06.53	86.41	9.04	-31.7	-35.6	8.9	3.17e-02	0	41	0	61865984	23	5671
2026-01-14 08:09:07.53	86.29	9.10	-31.7	-35.6	8.9	2.42e-02	0	41	0	62914560	23	5674
2026-01-14 08:09:08.54	86.16	9.16	-31.8	-36.1	8.5	4.45e-02	0	41	0	65011712	23	5912
2026-01-14 08:09:09.54	86.04	9.22	-31.6	-35.2	9.2	2.72e-02	0	41	0	67108864	23	5483
2026-01-14 08:09:10.54	85.92	9.28	-31.5	-34.8	9.5	1.56e-02	0	41	0	69206016	23	5290
2026-01-14 08:09:11.55	85.79	9.34	-31.3	-34.0	10.0	1.01e-02	0	42	0	71303168	23	4952
2026-01-14 08:09:12.55	85.67	9.41	-31.2	-33.9	10.3	5.33e-03	0	41	0	72351744	23	4887
2026-01-14 08:09:13.55	85.55	9.47	-31.1	-33.5	10.5	4.97e-03	0	41	0	74448896	23	4744
2026-01-14 08:09:14.55	85.42	9.53	-31.1	-33.6	10.4	4.56e-03	0	41	0	76546048	23	4794
2026-01-14 08:09:15.55	85.30	9.59	-31.2	-33.8	10.3	5.73e-03	0	41	0	78643200	23	4857
2026-01-14 08:09:16.55	85.17	9.65	-31.1	-33.5	10.6	4.50e-03	0	41	0	80740352	23	4725
2026-01-14 08:09:17.56	85.04	9.71	-31.0	-33.1	10.9	2.92e-03	0	42	0	81788928	23	4572
2026-01-14 08:09:18.57	84.91	9.77	-31.0	-33.2	10.8	2.24e-03	0	42	0	83886080	23	4611
2026-01-14 08:09:19.57	84.79	9.83	-31.0	-33.2	10.9	1.90e-03	0	41	0	85983232	23	4614
2026-01-14 08:09:20.58	84.66	9.89	-31.0	-33.2	10.9	2.12e-03	0	42	0	88080384	23	4606
2026-01-14 08:09:21.58	84.53	9.95	-31.0	-33.0	11.0	1.89e-03	0	41	0	90177536	23	4546
2026-01-14 08:09:22.57	84.40	10.01	-31.0	-33.3	10.8	2.96e-03	0	42	0	91226112	23	4643
2026-01-14 08:09:23.57	84.27	10.07	-31.1	-33.4	10.7	3.40e-03	0	42	0	93323264	23	4706
2026-01-14 08:09:24.58	84.14	10.13	-31.0	-33.1	11.0	2.44e-03	0	42	0	95420416	23	4569
2026-01-14 08:09:25.58	84.01	10.19	-31.1	-33.4	10.7	2.85e-03	0	42	0	97517568	23	4709
2026-01-14 08:09:26.59	83.88	10.25	-31.2	-33.8	10.4	6.52e-03	0	42	0	99614720	23	4862
2026-01-14 08:09:27.60	83.74	10.32	-31.1	-33.3	10.8	2.47e-03	0	42	0	100663296	23	4665
2026-01-14 08:09:28.60	83.61	10.38	-31.2	-33.9	10.4	2.59e-03	0	42	0	102760448	23	4869
2026-01-14 08:09:29.61	83.48	10.44	-31.3	-33.9	10.4	4.97e-03	0	42	0	104857600	23	4890
2026-01-14 08:09:30.60	83.35	10.50	-31.2	-33.6	10.7	3.46e-03	0	42	0	106954752	23	4745
2026-01-14 08:09:31.61	83.21	10.56	-31.2	-33.7	10.6	3.85e-03	0	42	0	108003328	23	4786
2026-01-14 08:09:32.61	83.08	10.62	-31.3	-34.1	10.2	5.81e-03	0	42	0	110100480	23	4957
2026-01-14 08:09:33.61	82.94	10.68	-31.3	-34.1	10.3	5.55e-03	0	42	0	112197632	23	4935
2026-01-14 08:09:34.62	82.80	10.74	-31.4	-34.2	10.2	9.05e-03	0	42	0	114294784	23	4980
2026-01-14 08:09:35.62	82.67	10.80	-31.4	-34.2	10.2	4.74e-03	0	42	0	116391936	23	4976
2026-01-14 08:09:36.62	82.53	10.86	-31.2	-33.9	10.4	4.01e-03	0	42	0	118489088	23	4892
2026-01-14 08:09:37.61	82.39	10.92	-31.2	-33.8	10.4	3.95e-03	0	42	0	119537664	23	4860
2026-01-14 08:09:38.62	82.25	10.98	-31.1	-33.4	10.7	4.40e-03	0	42	0	121634816	23	4706
2026-01-14 08:09:39.62	82.12	11.04	-31.1	-33.7	10.5	4.28e-03	0	42	0	123731968	23	4829
2026-01-14 08:09:40.63	81.97	11.10	-31.0	-33.2	10.9	3.36e-03	0	42	0	125829120	23	4632
2026-01-14 08:09:41.63	81.83	11.16	-30.9	-33.0	11.0	1.73e-03	0	42	0	126877696	23	4551
2026-01-14 08:09:42.64	81.69	11.23	-30.9	-32.8	11.2	1.67e-03	0	42	0	128974848	23	4491
2026-01-14 08:09:43.63	81.55	11.29	-30.9	-33.0	11.0	1.37e-03	0	42	0	131072000	23	4570
2026-01-14 08:09:44.64	81.41	11.35	-30.8	-33.3	11.2	1.35e-03	0	42	0	133169152	22	4752
2026-01-14 08:09:45.64	81.27	11.41	-30.8	-33.0	11.4	1.10e-03	0	42	0	135266304	22	4647
2026-01-14 08:09:46.65	81.12	11.47	-30.8	-33.2	11.3	1.51e-03	0	42	0	136314880	22	4728
2026-01-14 08:09:47.65	80.98	11.53	-31.0	-33.7	10.9	2.25e-03	0	42	0	138412032	22	4900
2026-01-14 08:09:48.65	80.84	11.59	-31.0	-33.7	10.9	2.10e-03	0	42	0	140509184	22	4896
2026-01-14 08:09:49.65	80.69	11.65	-31.1	-34.0	10.7	2.94e-03	0	42	0	142606336	22	5024
2026-01-14 08:09:50.66	80.54	11.71	-31.1	-34.0	10.7	3.05e-03	0	42	0	144703488	22	5035
2026-01-14 08:09:51.66	80.40	11.77	-31.3	-34.6	10.2	4.20e-03	0	42	0	145752064	22	5272
2026-01-14 08:09:52.67	80.25	11.83	-31.3	-34.6	10.2	4.93e-03	0	42	0	147849216	22	5290
2026-01-14 08:09:53.67	80.10	11.89	-31.3	-34.7	10.1	6.10e-03	0	42	0	149946368	22	5350
2026-01-14 08:09:54.66	79.96	11.95	-31.3	-34.6	10.3	5.73e-03	0	42	0	152043520	22	5287
2026-01-14 08:09:55.67	79.81	12.01	-31.4	-35.1	10.0	6.95e-03	0	42	0	154140672	22	5472
2026-01-14 08:09:56.67	79.66	12.07	-31.4	-34.9	10.0	9.74e-03	0	42	0	155189248	22	5412
2026-01-14 08:09:57.68	79.51	12.13	-31.3	-34.7	10.2	5.79e-03	0	42	0	157286400	22	5317
2026-01-14 08:09:58.68	79.36	12.19	-31.3	-34.6	10.2	4.65e-03	0	42	0	159383552	22	5298
2026-01-14 08:09:59.68	79.21	12.25	-31.4	-35.1	9.8	7.38e-03	0	42	0	161480704	22	5525
2026-01-14 08:10:00.69	79.05	12.31	-31.4	-34.9	10.0	8.99e-03	0	42	0	163577856	22	5432
2026-01-14 08:10:01.69	78.90	12.37	-31.3	-34.8	10.1	5.90e-03	0	42	0	164626432	22	5383
2026-01-14 08:10:02.70	78.75	12.43	-31.3	-34.6	10.3	5.78e-03	0	42	0	166723584	22	5284
2026-01-14 08:10:03.70	78.60	12.49	-31.3	-34.6	10.3	5.24e-03	0	42	0	168820736	22	5292
2026-01-14 08:10:04.70	78.44	12.55	-31.3	-34.7	10.2	6.66e-03	0	42	0	170917888	22	5322
2026-01-14 08:10:05.70	78.29	12.61	-31.3	-34.6	10.3	5.20e-03	0	42	0	171966464	22	5296
2026-01-14 08:10:06.71	78.13	12.67	-31.3	-34.7	10.2	5.65e-03	0	42	0	174063616	22	5323
2026-01-14 08:10:07.71	77.97	12.73	-31.2	-34.2	10.6	4.85e-03	0	42	0	176160768	22	5111
2026-01-14 08:10:08.71	77.82	12.79	-31.1	-34.0	10.7	2.81e-03	0	42	0	178257920	22	5009
2026-01-14 08:10:09.71	77.66	12.85	-31.1	-33.9	10.8	2.52e-03	0	42	0	180355072	22	4992
2026-01-14 08:10:10.72	77.50	12.91	-31.1	-34.0	10.8	2.23e-03	0	42	0	181403648	22	5009
2026-01-14 08:10:11.72	77.34	12.97	-31.1	-34.0	10.7	2.90e-03	0	42	0	183500800	22	5025
2026-01-14 08:10:12.72	77.18	13.03	-31.1	-33.9	10.9	2.54e-03	0	42	0	185597952	22	4965
2026-01-14 08:10:13.73	77.02	13.09	-31.1	-33.9	10.8	1.97e-03	0	42	0	187695104	22	4999
2026-01-14 08:10:14.73	76.86	13.14	-31.1	-34.0	10.8	3.18e-03	0	42	0	189792256	22	5005
2026-01-14 08:10:15.73	76.70	13.20	-31.1	-33.9	10.8	2.75e-03	0	42	0	190840832	22	4965
2026-01-14 08:10:16.73	76.54	13.26	-31.3	-34.8	10.2	4.17e-03	0	42	0	192937984	22	5338
2026-01-14 08:10:17.74	76.38	13.32	-31.3	-34.6	10.3	6.41e-03	0	42	0	195035136	22	5251
2026-01-14 08:10:18.74	76.21	13.38	-31.1	-34.0	10.8	3.81e-03	0	42	0	197132288	22	5026
2026-01-14 08:10:19.75	76.05	13.44	-31.0	-33.6	11.1	1.90e-03	0	42	0	199229440	22	4876
2026-01-14 08:10:20.76	75.88	13.50	-31.0	-33.5	11.2	1.37e-03	0	42	0	200278016	22	4838
2026-01-14 08:10:21.76	75.72	13.56	-30.8	-33.0	11.5	1.05e-03	0	42	0	202375168	22	4647
2026-01-14 08:10:22.76	75.55	13.61	-30.9	-33.2	11.4	7.91e-04	0	42	0	204472320	22	4703
2026-01-14 08:10:23.76	75.39	13.67	-30.8	-33.0	11.6	8.84e-04	0	42	0	206569472	22	4629
2026-01-14 08:10:24.76	75.22	13.73	-30.7	-32.7	11.7	6.28e-04	0	43	0	208666624	22	4542
2026-01-14 08:10:25.77	75.05	13.79	-30.5	-32.2	12.1	4.13e-04	0	42	0	209715200	22	4359
2026-01-14 08:10:26.77	74.88	13.85	-30.5	-32.2	12.1	3.14e-04	0	42	0	211812352	22	4368
2026-01-14 08:10:27.78	74.71	13.90	-30.3	-32.0	12.6	1.29e-04	0	42	0	213909504	21	4377
2026-01-14 08:10:28.78	74.54	13.96	-30.2	-31.8	12.6	7.55e-05	0	42	0	216006656	21	4328
2026-01-14 08:10:29.78	74.37	14.02	-30.1	-31.6	12.8	8.46e-05	0	42	0	218103808	21	4252
2026-01-14 08:10:30.78	74.20	14.08	-30.2	-31.9	12.7	8.77e-05	0	42	0	219152384	21	4343
2026-01-14 08:10:31.78	74.03	14.13	-30.3	-32.1	12.5	9.91e-05	0	42	0	221249536	21	4423
2026-01-14 08:10:32.78	73.86	14.19	-30.2	-31.8	12.7	8.54e-05	0	42	0	223346688	21	4334
2026-01-14 08:10:33.78	73.68	14.25	-30.2	-31.9	12.7	6.94e-05	0	42	0	225443840	21	4344
2026-01-14 08:10:34.78	73.51	14.31	-30.2	-31.6	12.8	9.61e-05	0	42	0	226492416	21	4267
2026-01-14 08:10:35.79	73.33	14.36	-30.1	-31.5	12.9	5.34e-05	0	42	0	228589568	21	4233
2026-01-14 08:10:36.79	73.16	14.42	-30.3	-32.0	12.6	7.47e-05	0	42	0	230686720	21	4383
2026-01-14 08:10:37.79	72.98	14.48	-30.2	-31.7	12.8	7.32e-05	0	42	0	232783872	21	4269
2026-01-14 08:10:38.80	72.81	14.53	-30.2	-31.6	12.9	4.34e-05	0	42	0	234881024	21	4228
2026-01-14 08:10:39.79	72.63	14.59	-30.0	-31.1	13.2	4.04e-05	0	42	0	235929600	21	4080
2026-01-14 08:10:40.79	72.45	14.64	-30.0	-31.2	13.2	1.44e-05	0	42	0	238026752	21	4123
2026-01-14 08:10:41.79	72.27	14.70	-29.9	-30.9	13.4	1.37e-05	0	42	0	240123904	21	4029
2026-01-14 08:10:42.80	72.09	14.76	-29.8	-30.6	13.5	1.06e-05	0	42	0	242221056	21	3950
2026-01-14 08:10:43.79	71.92	14.81	-30.0	-31.1	13.3	1.52e-05	0	43	0	244318208	21	4081
2026-01-14 08:10:44.79	71.74	14.87	-30.0	-31.2	13.1	1.60e-05	0	42	0	245366784	21	4125
2026-01-14 08:10:45.79	71.55	14.92	-30.0	-31.2	13.2	1.67e-05	0	42	0	247463936	21	4124
2026-01-14 08:10:46.79	71.37	14.98	-30.1	-31.5	13.0	2.67e-05	0	43	0	249561088	21	4198
2026-01-14 08:10:47.79	71.19	15.03	-30.1	-31.5	13.0	3.28e-05	0	42	0	251658240	21	4223
2026-01-14 08:10:48.80	71.01	15.09	-30.2	-31.6	12.9	4.19e-05	0	42	0	253755392	21	4246
2026-01-14 08:10:49.80	70.82	15.14	-30.3	-31.9	12.7	5.79e-05	0	42	0	254803968	21	4353
2026-01-14 08:10:50.80	70.64	15.20	-30.4	-32.3	12.4	1.16e-04	0	42	0	256901120	21	4494
2026-01-14 08:10:51.81	70.45	15.25	-30.4	-32.4	12.4	2.04e-04	0	42	0	258998272	21	4509
2026-01-14 08:10:52.81	70.27	15.30	-30.5	-32.6	12.3	1.72e-04	0	42	0	261095424	21	4598
2026-01-14 08:10:53.81	70.08	15.36	-30.4	-32.2	12.6	1.54e-04	0	42	0	262144000	21	4454
2026-01-14 08:10:54.81	69.89	15.41	-30.4	-32.2	12.6	9.99e-05	0	42	0	264241152	21	4434
2026-01-14 08:10:55.81	69.70	15.46	-30.2	-31.8	12.8	9.15e-05	0	42	0	266338304	21	4308
2026-01-14 08:10:56.81	69.52	15.52	-30.2	-31.6	12.9	5.41e-05	0	43	0	268435456	21	4260
2026-01-14 08:10:57.82	69.32	15.57	-30.2	-31.6	13.0	3.20e-05	0	42	0	270532608	21	4245
2026-01-14 08:10:58.81	69.14	15.62	-30.2	-31.6	13.0	3.81e-05	0	42	0	271581184	21	4228
2026-01-14 08:10:59.81	68.95	15.68	-30.2	-31.6	13.0	2.82e-05	0	42	0	273678336	21	4217
2026-01-14 08:11:00.81	68.76	15.73	-30.3	-32.0	12.8	4.19e-05	0	42	0	275775488	21	4344
2026-01-14 08:11:01.81	68.56	15.78	-30.3	-31.7	13.0	5.79e-05	0	43	0	277872640	21	4259
2026-01-14 08:11:02.82	68.37	15.83	-30.4	-32.1	12.7	4.50e-05	0	43	0	279969792	21	4368
2026-01-14 08:11:03.82	68.18	15.89	-30.3	-31.8	12.8	5.34e-05	0	42	0	281018368	21	4300
2026-01-14 08:11:04.83	67.98	15.94	-30.5	-32.5	12.4	1.10e-04	0	43	0	283115520	21	4529
2026-01-14 08:11:05.83	67.79	15.99	-30.6	-32.6	12.4	1.34e-04	0	43	0	285212672	21	4551
2026-01-14 08:11:06.83	67.59	16.04	-30.5	-32.5	12.4	1.39e-04	0	43	0	287309824	21	4524
2026-01-14 08:11:07.83	67.39	16.09	-30.8	-33.2	12.0	2.71e-04	0	42	0	289406976	21	4769
2026-01-14 08:11:08.84	67.20	16.14	-30.6	-32.7	12.3	2.37e-04	0	43	0	290455552	21	4565
2026-01-14 08:11:09.85	67.00	16.19	-30.3	-31.9	12.9	8.69e-05	0	43	0	292552704	21	4308
2026-01-14 08:11:10.85	66.80	16.24	-30.1	-31.3	13.3	2.21e-05	0	42	0	294649856	21	4130
2026-01-14 08:11:11.86	66.60	16.29	-30.0	-31.1	13.4	1.83e-05	0	43	0	296747008	21	4081
2026-01-14 08:11:12.85	66.40	16.34	-29.9	-30.7	13.7	8.30e-06	0	43	0	298844160	21	3947
2026-01-14 08:11:13.86	66.20	16.39	-30.0	-31.0	13.5	8.30e-06	0	43	0	299892736	21	4030
2026-01-14 08:11:14.86	66.00	16.44	-29.9	-30.8	13.6	4.50e-06	0	43	0	301989888	21	3968
2026-01-14 08:11:15.86	65.80	16.49	-29.8	-30.8	13.9	1.50e-06	0	43	0	304087040	20	4065
2026-01-14 08:11:16.86	65.60	16.54	-29.8	-30.9	14.0	7.00e-07	0	43	0	306184192	20	4094
2026-01-14 08:11:17.86	65.39	16.59	-29.6	-30.4	14.2	1.50e-06	0	42	0	308281344	20	3950
2026-01-14 08:11:18.87	65.19	16.64	-29.5	-30.0	14.5	0.00e+00	0	43	0	309329920	20	3845
2026-01-14 08:11:19.88	64.98	16.68	-29.3	-29.7	14.7	7.00e-07	0	42	0	311427072	20	3761
2026-01-14 08:11:20.88	64.78	16.73	-29.4	-29.7	14.6	0.00e+00	0	43	0	313524224	20	3764
2026-01-14 08:11:21.88	64.57	16.78	-29.4	-29.8	14.7	1.50e-06	0	43	0	315621376	20	3772
2026-01-14 08:11:22.88	64.37	16.83	-29.3	-29.7	14.7	1.50e-06	0	43	0	317718528	20	3757
2026-01-14 08:11:23.88	64.16	16.87	-29.5	-30.2	14.3	0.00e+00	0	42	0	318767104	20	3894
2026-01-14 08:11:24.89	63.95	16.92	-29.5	-30.1	14.5	0.00e+00	0	43	0	320864256	20	3860
2026-01-14 08:11:25.90	63.74	16.97	-29.3	-29.7	14.7	0.00e+00	0	42	0	322961408	20	3755
2026-01-14 08:11:26.90	63.53	17.01	-29.5	-30.0	14.5	0.00e+00	0	43	0	325058560	20	3829
2026-01-14 08:11:27.90	63.32	17.06	-29.4	-29.9	14.6	7.00e-07	0	42	0	326107136	20	3802
2026-01-14 08:11:28.90	63.11	17.10	-29.5	-30.1	14.4	0.00e+00	0	43	0	328204288	20	3863
2026-01-14 08:11:29.91	62.90	17.15	-29.7	-30.5	14.2	0.00e+00	0	42	0	330301440	20	3955
2026-01-14 08:11:30.91	62.69	17.19	-29.7	-30.7	14.2	7.00e-07	0	43	0	332398592	20	4007
2026-01-14 08:11:31.92	62.48	17.24	-29.7	-30.5	14.2	7.00e-07	0	43	0	334495744	20	3972
2026-01-14 08:11:32.91	62.27	17.28	-29.8	-30.8	13.9	0.00e+00	0	43	0	335544320	20	4064
2026-01-14 08:11:33.92	62.05	17.32	-29.9	-31.2	13.8	3.80e-06	0	43	0	337641472	20	4188
2026-01-14 08:11:34.92	61.84	17.37	-30.0	-31.4	13.6	7.60e-06	0	43	0	339738624	20	4241
2026-01-14 08:11:35.91	61.63	17.41	-30.0	-31.4	13.6	5.30e-06	0	42	0	341835776	20	4244
2026-01-14 08:11:36.91	61.41	17.45	-30.0	-31.5	13.6	1.06e-05	0	43	0	343932928	20	4259
2026-01-14 08:11:37.92	61.20	17.50	-30.0	-31.4	13.7	7.60e-06	0	43	0	344981504	20	4231
2026-01-14 08:11:38.92	60.98	17.54	-30.1	-31.5	13.6	7.60e-06	0	43	0	347078656	20	4273
2026-01-14 08:11:39.92	60.76	17.58	-29.8	-30.8	14.0	5.30e-06	0	43	0	349175808	20	4061
2026-01-14 08:11:40.93	60.54	17.62	-29.6	-30.4	14.3	2.20e-06	0	42	0	351272960	20	3951
2026-01-14 08:11:41.94	60.32	17.66	-29.4	-29.7	14.7	1.50e-06	0	43	0	353370112	20	3748
2026-01-14 08:11:42.94	60.11	17.70	-29.3	-30.1	14.9	0.00e+00	0	43	0	354418688	19	3932
2026-01-14 08:11:43.95	59.89	17.74	-29.2	-29.7	15.1	0.00e+00	0	43	0	356515840	19	3834
2026-01-14 08:11:44.95	59.67	17.78	-29.2	-29.7	15.1	0.00e+00	0	43	0	358612992	19	3829
2026-01-14 08:11:45.95	59.45	17.82	-29.0	-29.4	15.3	0.00e+00	0	43	0	360710144	19	3734
2026-01-14 08:11:46.95	59.23	17.86	-29.1	-29.5	15.3	0.00e+00	0	43	0	362807296	19	3777
2026-01-14 08:11:47.95	59.00	17.90	-29.1	-29.5	15.3	0.00e+00	0	43	0	363855872	19	3762
2026-01-14 08:11:48.96	58.78	17.94	-29.4	-30.2	14.9	0.00e+00	0	43	0	365953024	19	3948
2026-01-14 08:11:49.95	58.56	17.97	-29.2	-29.8	15.1	0.00e+00	0	43	0	368050176	19	3852
2026-01-14 08:11:50.96	58.34	18.01	-29.4	-30.1	14.9	0.00e+00	0	43	0	370147328	19	3936
2026-01-14 08:11:51.96	58.11	18.05	-29.4	-30.1	14.9	0.00e+00	0	43	0	372244480	19	3932
2026-01-14 08:11:52.97	57.89	18.09	-29.6	-30.6	14.6	0.00e+00	0	43	0	373293056	19	4078
2026-01-14 08:11:53.97	57.66	18.12	-29.5	-30.5	14.7	1.50e-06	0	43	0	375390208	19	4034
2026-01-14 08:11:54.98	57.43	18.16	-29.4	-30.3	14.8	0.00e+00	0	43	0	377487360	19	3993
2026-01-14 08:11:55.98	57.21	18.19	-29.6	-30.7	14.6	7.00e-07	0	43	0	379584512	19	4104
2026-01-14 08:11:56.98	56.98	18.23	-29.5	-30.5	14.7	0.00e+00	0	43	0	380633088	19	4044
2026-01-14 08:11:57.98	56.76	18.26	-30.0	-31.7	14.0	0.00e+00	0	43	0	382730240	19	4377
2026-01-14 08:11:58.99	56.53	18.30	-29.8	-31.2	14.3	3.00e-06	0	43	0	384827392	19	4233
2026-01-14 08:11:59.99	56.30	18.33	-29.9	-31.1	13.9	2.20e-06	0	43	0	386924544	20	4131
2026-01-14 08:12:01.00	56.07	18.37	-30.3	-32.1	13.3	6.10e-06	0	43	0	389021696	20	4423
2026-01-14 08:12:02.00	55.84	18.40	-30.1	-31.5	13.7	1.14e-05	0	43	0	390070272	20	4250
2026-01-14 08:12:02.99	55.61	18.43	-29.8	-30.9	14.1	7.60e-06	0	43	0	392167424	20	4056
2026-01-14 08:12:04.00	55.38	18.46	-29.8	-30.8	14.1	7.00e-07	0	43	0	394264576	20	4026
2026-01-14 08:12:05.01	55.15	18.50	-29.8	-30.8	14.1	2.20e-06	0	43	0	396361728	20	4039
2026-01-14 08:12:06.01	54.92	18.53	-29.8	-30.7	14.1	1.50e-06	0	43	0	398458880	20	4028
2026-01-14 08:12:07.01	54.69	18.56	-29.8	-30.8	14.1	1.50e-06	0	43	0	399507456	20	4050
2026-01-14 08:12:08.02	54.46	18.59	-29.9	-31.1	13.9	1.50e-06	0	42	0	401604608	20	4117
2026-01-14 08:12:09.02	54.22	18.62	-30.0	-31.2	13.9	3.00e-06	0	43	0	403701760	20	4161
2026-01-14 08:12:10.02	53.99	18.65	-30.2	-31.9	13.5	1.37e-05	0	42	0	405798912	20	4369
2026-01-14 08:12:11.02	53.76	18.68	-30.1	-31.7	13.5	9.90e-06	0	43	0	407896064	20	4322
2026-01-14 08:12:12.03	53.52	18.71	-30.3	-32.1	13.3	1.52e-05	0	43	0	408944640	20	4445
2026-01-14 08:12:13.03	53.29	18.73	-30.2	-31.9	13.5	6.10e-06	0	43	0	411041792	20	4370
2026-01-14 08:12:14.03	53.05	18.76	-30.1	-31.7	13.5	9.90e-06	0	43	0	413138944	20	4324
2026-01-14 08:12:15.03	52.82	18.79	-30.0	-31.5	13.7	8.30e-06	0	43	0	415236096	20	4248
2026-01-14 08:12:16.03	52.59	18.81	-30.0	-31.2	13.8	7.60e-06	0	43	0	417333248	20	4165
2026-01-14 08:12:17.03	52.35	18.84	-29.8	-30.8	14.2	2.20e-06	0	43	0	418381824	20	4043
2026-01-14 08:12:18.03	52.11	18.87	-29.7	-30.6	14.3	3.00e-06	0	43	0	420478976	20	3979
2026-01-14 08:12:19.03	51.88	18.89	-29.7	-30.7	14.2	0.00e+00	0	43	0	422576128	20	4002
2026-01-14 08:12:20.03	51.64	18.92	-29.9	-31.2	13.9	1.50e-06	0	43	0	424673280	20	4147
2026-01-14 08:12:21.04	51.40	18.94	-30.0	-31.3	13.9	7.00e-07	0	43	0	425721856	20	4178
2026-01-14 08:12:22.04	51.16	18.96	-30.0	-31.5	13.7	8.30e-06	0	43	0	427819008	20	4243
2026-01-14 08:12:23.04	50.93	18.99	-30.1	-31.5	13.7	1.06e-05	0	43	0	429916160	20	4261
2026-01-14 08:12:24.04	50.69	19.01	-30.1	-31.6	13.6	9.90e-06	0	43	0	432013312	20	4294
2026-01-14 08:12:25.03	50.45	19.03	-30.1	-31.8	13.5	8.30e-06	0	43	0	434110464	20	4344
2026-01-14 08:12:26.03	50.21	19.05	-30.0	-31.5	13.7	1.22e-05	0	43	0	435159040	20	4249
2026-01-14 08:12:27.03	49.98	19.08	-30.0	-31.5	13.7	6.10e-06	0	43	0	437256192	20	4251
2026-01-14 08:12:28.03	49.74	19.10	-30.1	-31.7	13.6	5.30e-06	0	43	0	439353344	20	4325
2026-01-14 08:12:29.03	49.50	19.12	-30.3	-32.2	13.2	9.10e-06	0	43	0	441450496	20	4474
2026-01-14 08:12:30.03	49.26	19.14	-30.5	-32.4	12.7	3.89e-05	0	43	0	443547648	21	4462
2026-01-14 08:12:31.04	49.01	19.16	-30.7	-32.8	12.5	9.68e-05	0	43	0	444596224	21	4580
2026-01-14 08:12:32.04	48.77	19.17	-30.7	-33.0	12.4	1.58e-04	0	43	0	446693376	21	4673
2026-01-14 08:12:33.05	48.53	19.19	-30.6	-32.8	12.4	1.69e-04	0	43	0	448790528	21	4599
2026-01-14 08:12:34.05	48.29	19.21	-30.8	-33.1	12.3	1.59e-04	0	43	0	450887680	21	4699
2026-01-14 08:12:35.05	48.05	19.23	-30.6	-32.8	12.4	1.26e-04	0	43	0	452984832	21	4621
2026-01-14 08:12:36.05	47.81	19.24	-30.5	-32.4	12.7	9.61e-05	0	43	0	454033408	21	4466
2026-01-14 08:12:37.05	47.56	19.26	-30.4	-32.0	12.9	6.17e-05	0	43	0	456130560	21	4351
2026-01-14 08:12:38.04	47.32	19.28	-30.5	-32.4	12.7	7.62e-05	0	43	0	458227712	21	4472
2026-01-14 08:12:39.05	47.08	19.29	-30.7	-33.0	12.3	1.22e-04	0	43	0	460324864	21	4660
2026-01-14 08:12:40.05	46.84	19.31	-30.5	-32.4	12.7	9.46e-05	0	43	0	461373440	21	4479
2026-01-14 08:12:41.05	46.59	19.32	-30.4	-32.2	12.9	5.26e-05	0	43	0	463470592	21	4398
2026-01-14 08:12:42.05	46.35	19.33	-30.4	-32.0	12.9	3.73e-05	0	43	0	465567744	21	4347
2026-01-14 08:12:43.05	46.11	19.35	-30.5	-32.4	12.7	7.40e-05	0	43	0	467664896	21	4468
2026-01-14 08:12:44.05	45.86	19.36	-30.5	-32.5	12.6	9.38e-05	0	43	0	469762048	21	4513
2026-01-14 08:12:45.05	45.62	19.37	-30.6	-32.7	12.5	7.32e-05	0	43	0	470810624	21	4587
2026-01-14 08:12:46.06	45.37	19.38	-30.4	-32.2	12.8	6.71e-05	0	43	0	472907776	21	4405
2026-01-14 08:12:47.06	45.13	19.39	-30.5	-32.2	12.9	3.89e-05	0	43	0	475004928	21	4410
2026-01-14 08:12:48.06	44.88	19.40	-30.6	-32.5	12.7	6.40e-05	0	43	0	477102080	21	4500
2026-01-14 08:12:49.07	44.64	19.41	-30.7	-32.9	12.4	8.39e-05	0	43	0	479199232	21	4641
2026-01-14 08:12:50.07	44.39	19.42	-30.7	-32.8	12.4	1.44e-04	0	43	0	480247808	21	4603
2026-01-14 08:12:51.07	44.15	19.43	-30.8	-33.0	12.3	1.18e-04	0	43	0	482344960	21	4669
2026-01-14 08:12:52.07	43.90	19.44	-31.0	-33.2	11.9	2.43e-04	0	43	0	484442112	22	4628
2026-01-14 08:12:53.07	43.66	19.45	-30.9	-32.9	12.1	2.87e-04	0	43	0	486539264	22	4526
2026-01-14 08:12:54.08	43.41	19.45	-30.9	-32.8	12.1	2.10e-04	0	43	0	488636416	22	4515
2026-01-14 08:12:55.07	43.17	19.46	-31.0	-33.3	11.8	3.47e-04	0	43	0	489684992	22	4659
2026-01-14 08:12:56.08	42.92	19.47	-31.0	-33.3	11.8	3.91e-04	0	43	0	491782144	22	4661
2026-01-14 08:12:57.08	42.68	19.47	-30.7	-32.4	12.4	1.91e-04	0	43	0	493879296	22	4374
2026-01-14 08:12:58.08	42.43	19.48	-30.5	-31.9	12.8	9.53e-05	0	43	0	495976448	22	4209
2026-01-14 08:12:59.08	42.18	19.48	-30.2	-31.5	13.3	4.19e-05	0	43	0	498073600	21	4170
2026-01-14 08:13:00.09	41.94	19.48	-30.1	-31.2	13.5	9.10e-06	0	43	0	499122176	21	4108
2026-01-14 08:13:01.09	41.69	19.49	-29.9	-30.7	13.8	7.60e-06	0	43	0	501219328	21	3946
2026-01-14 08:13:02.09	41.45	19.49	-30.0	-31.0	13.6	6.10e-06	0	43	0	503316480	21	4041
2026-01-14 08:13:03.09	41.20	19.49	-30.1	-31.1	13.5	1.37e-05	0	43	0	505413632	21	4040
2026-01-14 08:13:04.09	40.95	19.49	-30.3	-31.6	13.2	2.44e-05	0	43	0	506462208	21	4198
2026-01-14 08:13:05.10	40.71	19.49	-30.3	-31.6	13.2	2.44e-05	0	43	0	508559360	21	4191
2026-01-14 08:13:06.10	40.46	19.49	-30.2	-31.4	13.3	1.06e-05	0	42	0	510656512	21	4148
2026-01-14 08:13:07.11	40.21	19.49	-30.4	-31.9	13.1	2.82e-05	0	43	0	512753664	21	4282
2026-01-14 08:13:08.11	39.97	19.49	-30.3	-31.8	13.1	2.67e-05	0	43	0	514850816	21	4254
2026-01-14 08:13:09.11	39.72	19.49	-30.5	-32.2	12.8	5.03e-05	0	43	0	515899392	21	4400
2026-01-14 08:13:10.11	39.47	19.49	-30.8	-33.1	12.2	1.72e-04	0	43	0	517996544	21	4709
2026-01-14 08:13:11.12	39.23	19.49	-30.8	-33.3	12.0	2.94e-04	0	43	0	520093696	21	4780
2026-01-14 08:13:12.11	38.98	19.49	-31.0	-33.1	11.8	3.79e-04	0	43	0	522190848	22	4628
2026-01-14 08:13:13.11	38.74	19.48	-31.0	-33.2	11.8	3.67e-04	0	43	0	524288000	22	4625
2026-01-14 08:13:14.12	38.49	19.48	-30.6	-32.0	12.7	1.78e-04	0	43	0	525336576	22	4241
2026-01-14 08:13:15.11	38.25	19.47	-30.4	-31.5	13.0	5.41e-05	0	43	0	527433728	22	4086
2026-01-14 08:13:16.11	38.00	19.47	-30.1	-31.2	13.5	1.90e-05	0	43	0	529530880	21	4076
2026-01-14 08:13:17.12	37.75	19.46	-30.0	-31.0	13.6	8.30e-06	0	43	0	531628032	21	4015
2026-01-14 08:13:18.12	37.51	19.46	-29.9	-30.5	13.9	4.50e-06	0	43	0	533725184	21	3874
2026-01-14 08:13:19.12	37.26	19.45	-29.9	-30.7	13.8	6.80e-06	0	43	0	534773760	21	3916
2026-01-14 08:13:20.12	37.02	19.44	-29.6	-30.2	14.4	6.10e-06	0	43	0	536870912	20	3880
2026-01-14 08:13:21.13	36.77	19.43	-29.7	-30.5	14.3	0.00e+00	0	43	0	538968064	20	3949
2026-01-14 08:13:22.14	36.52	19.43	-29.9	-31.0	13.9	1.50e-06	0	43	0	541065216	20	4109
2026-01-14 08:13:23.13	36.28	19.42	-29.7	-30.6	14.2	1.50e-06	0	43	0	543162368	20	3989
2026-01-14 08:13:24.14	36.04	19.41	-29.7	-30.5	14.2	7.00e-07	0	43	0	544210944	20	3966
2026-01-14 08:13:25.14	35.79	19.40	-29.6	-30.3	14.4	1.50e-06	0	43	0	546308096	20	3912
2026-01-14 08:13:26.15	35.54	19.39	-29.6	-30.3	14.4	0.00e+00	0	43	0	548405248	20	3891
2026-01-14 08:13:27.15	35.30	19.38	-29.6	-30.4	14.3	0.00e+00	0	43	0	550502400	20	3926
2026-01-14 08:13:28.15	35.06	19.36	-29.8	-30.8	14.1	0.00e+00	0	43	0	551550976	20	4031
2026-01-14 08:13:29.15	34.81	19.35	-29.6	-30.3	14.4	7.00e-07	0	43	0	553648128	20	3901
2026-01-14 08:13:30.15	34.57	19.34	-29.6	-30.2	14.4	7.00e-07	0	43	0	555745280	20	3889
2026-01-14 08:13:31.15	34.33	19.33	-29.7	-30.6	14.2	7.00e-07	0	43	0	557842432	20	3979
2026-01-14 08:13:32.15	34.08	19.31	-29.5	-30.0	14.5	0.00e+00	0	43	0	559939584	20	3821
2026-01-14 08:13:33.16	33.84	19.30	-29.3	-30.0	14.9	0.00e+00	0	43	0	560988160	19	3911
2026-01-14 08:13:34.16	33.60	19.28	-29.2	-29.8	15.0	7.00e-07	0	43	0	563085312	19	3860
2026-01-14 08:13:35.17	33.35	19.27	-29.2	-29.6	15.1	0.00e+00	0	43	0	565182464	19	3806
2026-01-14 08:13:36.17	33.11	19.25	-29.2	-29.6	15.2	0.00e+00	0	43	0	567279616	19	3806
2026-01-14 08:13:37.17	32.87	19.24	-29.2	-29.6	15.1	0.00e+00	0	43	0	569376768	19	3791
2026-01-14 08:13:38.17	32.63	19.22	-28.9	-29.1	15.5	0.00e+00	0	43	0	570425344	19	3660
2026-01-14 08:13:39.18	32.38	19.20	-28.9	-29.1	15.4	0.00e+00	0	43	0	572522496	19	3653
2026-01-14 08:13:40.18	32.14	19.18	-29.0	-29.3	15.4	0.00e+00	0	43	0	574619648	19	3713
2026-01-14 08:13:41.18	31.90	19.17	-29.3	-30.0	15.0	0.00e+00	0	43	0	576716800	19	3903
2026-01-14 08:13:42.18	31.66	19.15	-29.4	-30.2	14.8	7.00e-07	0	43	0	578813952	19	3951
2026-01-14 08:13:43.18	31.42	19.13	-29.5	-30.4	14.7	0.00e+00	0	43	0	579862528	19	4017
2026-01-14 08:13:44.19	31.18	19.11	-29.5	-30.4	14.7	7.00e-07	0	43	0	581959680	19	4004
2026-01-14 08:13:45.19	30.94	19.09	-29.5	-30.6	14.6	1.50e-06	0	43	0	584056832	19	4061
2026-01-14 08:13:46.19	30.70	19.07	-29.7	-31.1	14.3	0.00e+00	0	43	0	586153984	19	4203
2026-01-14 08:13:47.20	30.46	19.04	-29.6	-30.7	14.5	2.20e-06	0	43	0	588251136	19	4087
2026-01-14 08:13:48.20	30.22	19.02	-29.7	-31.1	14.3	7.00e-07	0	43	0	589299712	19	4208
2026-01-14 08:13:49.20	29.99	19.00	-29.9	-31.1	13.8	7.00e-07	0	43	0	591396864	20	4131
2026-01-14 08:13:50.20	29.75	18.98	-29.7	-30.4	14.3	2.20e-06	0	43	0	593494016	20	3931
2026-01-14 08:13:51.21	29.51	18.95	-29.5	-29.9	14.6	0.00e+00	0	43	0	595591168	20	3787
2026-01-14 08:13:52.21	29.27	18.93	-29.5	-30.0	14.5	7.00e-07	0	43	0	597688320	20	3829
2026-01-14 08:13:53.22	29.03	18.90	-29.7	-30.5	14.3	0.00e+00	0	43	0	598736896	20	3948
2026-01-14 08:13:54.22	28.80	18.88	-29.8	-30.9	14.0	2.20e-06	0	43	0	600834048	20	4057
2026-01-14 08:13:55.21	28.56	18.85	-30.1	-31.6	13.5	4.50e-06	0	43	0	602931200	20	4286
2026-01-14 08:13:56.21	28.33	18.83	-30.2	-31.8	13.4	7.60e-06	0	43	0	605028352	20	4351
2026-01-14 08:13:57.21	28.09	18.80	-30.5	-32.1	12.9	1.67e-05	0	43	0	607125504	21	4356
2026-01-14 08:13:58.21	27.86	18.77	-30.4	-32.0	12.9	4.42e-05	0	43	0	608174080	21	4330
2026-01-14 08:13:59.21	27.63	18.75	-30.5	-32.3	12.8	4.88e-05	0	43	0	610271232	21	4416
2026-01-14 08:14:00.21	27.39	18.72	-30.4	-32.0	12.9	4.34e-05	0	43	0	612368384	21	4332
2026-01-14 08:14:01.21	27.16	18.69	-30.4	-32.0	12.9	4.57e-05	0	43	0	614465536	21	4335
2026-01-14 08:14:02.22	26.93	18.66	-30.3	-31.6	13.2	3.50e-05	0	43	0	615514112	21	4193
2026-01-14 08:14:03.22	26.69	18.63	-30.5	-32.3	12.7	4.50e-05	0	43	0	617611264	21	4424
2026-01-14 08:14:04.22	26.46	18.60	-30.5	-32.3	12.8	6.48e-05	0	43	0	619708416	21	4412
2026-01-14 08:14:05.23	26.23	18.57	-30.6	-32.5	12.6	1.11e-04	0	43	0	621805568	21	4474
2026-01-14 08:14:06.23	26.00	18.54	-30.6	-32.5	12.6	5.95e-05	0	43	0	623902720	21	4470
2026-01-14 08:14:07.23	25.77	18.51	-30.5	-32.3	12.7	7.47e-05	0	43	0	624951296	21	4426
2026-01-14 08:14:08.23	25.54	18.48	-30.6	-32.4	12.6	8.23e-05	0	43	0	627048448	21	4467
2026-01-14 08:14:09.23	25.31	18.45	-30.5	-32.2	12.8	7.85e-05	0	43	0	629145600	21	4397
2026-01-14 08:14:10.23	25.08	18.42	-30.6	-32.5	12.7	6.10e-05	0	43	0	631242752	21	4472
2026-01-14 08:14:11.24	24.85	18.38	-30.6	-32.5	12.6	7.09e-05	0	43	0	633339904	21	4479
2026-01-14 08:14:12.24	24.62	18.35	-30.7	-32.8	12.4	1.20e-04	0	43	0	634388480	21	4590
2026-01-14 08:14:13.25	24.39	18.32	-30.7	-32.9	12.3	1.46e-04	0	43	0	636485632	21	4613
2026-01-14 08:14:14.25	24.16	18.28	-30.7	-32.8	12.4	1.70e-04	0	43	0	638582784	21	4600
2026-01-14 08:14:15.25	23.94	18.25	-30.6	-32.4	12.7	6.86e-05	0	43	0	640679936	21	4450
2026-01-14 08:14:16.25	23.71	18.21	-30.5	-32.3	12.8	6.94e-05	0	43	0	641728512	21	4403
2026-01-14 08:14:17.26	23.48	18.18	-30.6	-32.4	12.6	9.76e-05	0	43	0	643825664	21	4466
2026-01-14 08:14:18.26	23.26	18.14	-30.3	-31.7	13.1	5.41e-05	0	43	0	645922816	21	4222
2026-01-14 08:14:19.26	23.04	18.11	-30.1	-31.0	13.5	1.29e-05	0	43	0	648019968	21	4016
2026-01-14 08:14:20.26	22.81	18.07	-30.0	-30.9	13.6	7.60e-06	0	43	0	650117120	21	3998
2026-01-14 08:14:21.26	22.59	18.03	-30.1	-31.1	13.5	9.10e-06	0	43	0	651165696	21	4046
2026-01-14 08:14:22.27	22.36	18.00	-30.0	-30.9	13.6	6.10e-06	0	43	0	653262848	21	3994
2026-01-14 08:14:23.27	22.14	17.96	-30.1	-31.1	13.5	6.80e-06	0	43	0	655360000	21	4032
2026-01-14 08:14:24.27	21.92	17.92	-30.0	-31.0	13.6	6.80e-06	0	43	0	657457152	21	4010
2026-01-14 08:14:25.27	21.70	17.88	-30.0	-31.0	13.6	1.22e-05	0	43	0	659554304	21	4008
2026-01-14 08:14:26.27	21.48	17.84	-30.2	-31.4	13.3	1.37e-05	0	43	0	660602880	21	4142
2026-01-14 08:14:27.27	21.26	17.80	-30.1	-31.1	13.4	1.06e-05	0	43	0	662700032	21	4058
2026-01-14 08:14:28.27	21.04	17.77	-30.0	-30.8	13.6	1.22e-05	0	43	0	664797184	21	3975
2026-01-14 08:14:29.27	20.82	17.73	-29.8	-30.7	14.0	9.10e-06	0	43	0	666894336	20	4027
2026-01-14 08:14:30.28	20.60	17.68	-29.7	-30.6	14.1	2.20e-06	0	43	0	668991488	20	3988
2026-01-14 08:14:31.28	20.39	17.64	-29.7	-30.4	14.2	7.00e-07	0	43	0	670040064	20	3945
2026-01-14 08:14:32.29	20.17	17.60	-29.5	-30.1	14.4	0.00e+00	0	43	0	672137216	20	3852
2026-01-14 08:14:33.29	19.95	17.56	-29.5	-30.0	14.5	0.00e+00	0	43	0	674234368	20	3811
2026-01-14 08:14:34.30	19.73	17.52	-29.6	-30.2	14.3	0.00e+00	0	43	0	676331520	20	3889
2026-01-14 08:14:35.30	19.52	17.48	-29.4	-29.8	14.6	7.00e-07	0	43	0	678428672	20	3767
2026-01-14 08:14:36.31	19.30	17.43	-29.4	-29.8	14.5	0.00e+00	0	43	0	679477248	20	3780
2026-01-14 08:14:37.31	19.09	17.39	-29.6	-30.3	14.3	7.00e-07	0	43	0	681574400	20	3912
2026-01-14 08:14:38.32	18.87	17.35	-29.7	-30.6	14.1	1.50e-06	0	43	0	683671552	20	3988
2026-01-14 08:14:39.32	18.66	17.31	-30.0	-31.5	13.5	8.30e-06	0	43	0	685768704	20	4275
2026-01-14 08:14:40.32	18.45	17.26	-30.4	-32.5	12.8	1.75e-05	0	43	0	687865856	20	4595
2026-01-14 08:14:41.33	18.24	17.22	-30.7	-33.0	12.2	1.06e-04	0	43	0	688914432	21	4681
2026-01-14 08:14:42.34	18.02	17.17	-30.7	-32.9	12.2	3.13e-04	0	43	0	691011584	21	4629
2026-01-14 08:14:43.34	17.81	17.13	-30.8	-33.3	11.9	4.02e-04	0	43	0	693108736	21	4788
2026-01-14 08:14:44.34	17.60	17.08	-30.7	-33.0	12.2	2.39e-04	0	43	0	695205888	21	4654
2026-01-14 08:14:45.35	17.39	17.04	-30.6	-32.7	12.3	1.74e-04	0	43	0	697303040	21	4576
2026-01-14 08:14:46.35	17.18	16.99	-30.7	-32.8	12.3	2.21e-04	0	43	0	698351616	21	4592
2026-01-14 08:14:47.35	16.98	16.95	-30.6	-32.6	12.4	1.56e-04	0	43	0	700448768	21	4552
2026-01-14 08:14:48.35	16.77	16.90	-30.6	-32.7	12.4	2.29e-04	0	43	0	702545920	21	4562
2026-01-14 08:14:49.36	16.56	16.85	-30.7	-32.8	12.2	1.63e-04	0	43	0	704643072	21	4610
2026-01-14 08:14:50.36	16.36	16.81	-30.9	-33.5	11.7	2.75e-04	0	43	0	706740224	21	4874
2026-01-14 08:14:51.36	16.15	16.76	-31.0	-33.4	11.6	4.87e-04	0	43	0	707788800	22	4739
2026-01-14 08:14:52.37	15.95	16.71	-31.2	-33.8	11.2	1.55e-03	0	43	0	709885952	22	4884
2026-01-14 08:14:53.37	15.74	16.66	-31.0	-33.4	11.6	1.22e-03	0	43	0	711983104	22	4735
2026-01-14 08:14:54.37	15.54	16.62	-30.9	-33.1	11.7	7.84e-04	0	43	0	714080256	22	4612
2026-01-14 08:14:55.37	15.34	16.57	-30.8	-32.6	12.0	4.21e-04	0	43	0	715128832	22	4458
2026-01-14 08:14:56.38	15.13	16.52	-30.4	-31.6	12.7	9.00e-05	0	43	0	717225984	22	4130
2026-01-14 08:14:57.38	14.93	16.47	-30.2	-31.5	13.1	4.65e-05	0	43	0	719323136	21	4181
2026-01-14 08:14:58.38	14.73	16.42	-30.0	-31.0	13.4	1.29e-05	0	43	0	721420288	21	4026
2026-01-14 08:14:59.38	14.53	16.37	-30.1	-31.2	13.3	2.05e-05	0	43	0	723517440	21	4097
2026-01-14 08:15:00.38	14.33	16.32	-30.2	-31.6	13.1	2.82e-05	0	43	0	724566016	21	4200
2026-01-14 08:15:01.38	14.14	16.27	-30.4	-31.9	12.8	3.89e-05	0	43	0	726663168	21	4310
2026-01-14 08:15:02.39	13.94	16.22	-30.3	-31.9	12.9	4.95e-05	0	43	0	728760320	21	4292
2026-01-14 08:15:03.39	13.74	16.17	-30.4	-32.0	12.8	4.73e-05	0	43	0	730857472	21	4323
2026-01-14 08:15:04.39	13.54	16.12	-30.5	-32.3	12.6	1.33e-04	0	43	0	732954624	21	4430
2026-01-14 08:15:05.39	13.35	16.07	-30.6	-32.7	12.3	1.15e-04	0	43	0	734003200	21	4553
2026-01-14 08:15:06.39	13.15	16.02	-30.7	-32.8	12.2	1.78e-04	0	43	0	736100352	21	4613
2026-01-14 08:15:07.39	12.96	15.97	-30.8	-33.3	11.8	3.19e-04	0	43	0	738197504	21	4808
2026-01-14 08:15:08.39	12.77	15.92	-30.9	-33.5	11.7	3.64e-04	0	43	0	740294656	21	4878
2026-01-14 08:15:09.40	12.57	15.87	-31.0	-33.4	11.5	7.22e-04	0	43	0	742391808	22	4720
2026-01-14 08:15:10.40	12.38	15.82	-30.8	-32.8	11.9	6.19e-04	0	43	0	743440384	22	4537
2026-01-14 08:15:11.41	12.19	15.76	-30.6	-32.2	12.3	2.69e-04	0	43	0	745537536	22	4307
2026-01-14 08:15:12.40	12.00	15.71	-30.3	-31.3	12.8	1.09e-04	0	43	0	747634688	22	4055
2026-01-14 08:15:13.41	11.81	15.66	-29.9	-30.7	13.5	1.83e-05	0	43	0	749731840	21	3964
2026-01-14 08:15:14.41	11.62	15.61	-29.8	-31.0	13.6	8.30e-06	0	43	0	750780416	20	4127
2026-01-14 08:15:15.41	11.43	15.55	-29.8	-31.0	13.6	1.29e-05	0	43	0	752877568	20	4133
2026-01-14 08:15:16.41	11.24	15.50	-29.9	-31.2	13.5	1.22e-05	0	43	0	754974720	20	4183
2026-01-14 08:15:17.41	11.05	15.45	-30.1	-31.7	13.2	2.28e-05	0	43	0	757071872	20	4353
2026-01-14 08:15:18.42	10.86	15.39	-30.3	-32.3	12.8	3.73e-05	0	43	0	759169024	20	4558
2026-01-14 08:15:19.43	10.68	15.34	-30.6	-32.9	12.1	1.23e-04	0	43	0	760217600	21	4650
2026-01-14 08:15:20.43	10.49	15.29	-30.8	-33.3	11.7	5.07e-04	0	43	0	762314752	21	4806
2026-01-14 08:15:21.43	10.31	15.23	-31.1	-33.8	11.1	1.11e-03	0	43	0	764411904	22	4902
2026-01-14 08:15:22.44	10.12	15.18	-31.1	-33.8	11.0	1.97e-03	0	43	0	766509056	22	4927
2026-01-14 08:15:23.44	9.94	15.12	-31.3	-34.3	10.7	2.87e-03	0	43	0	768606208	22	5129
2026-01-14 08:15:24.44	9.75	15.07	-31.3	-34.3	10.7	3.62e-03	0	43	0	769654784	22	5122
2026-01-14 08:15:25.44	9.57	15.01	-31.2	-34.2	10.8	2.59e-03	0	43	0	771751936	22	5065
2026-01-14 08:15:26.44	9.39	14.96	-31.2	-33.9	11.0	1.78e-03	0	43	0	773849088	22	4954
2026-01-14 08:15:27.45	9.21	14.90	-31.1	-33.8	11.0	1.69e-03	0	43	0	775946240	22	4887
2026-01-14 08:15:28.45	9.03	14.85	-31.0	-33.5	11.3	2.03e-03	0	43	0	778043392	22	4771
2026-01-14 08:15:29.45	8.85	14.79	-30.9	-33.0	11.6	7.30e-04	0	43	0	779091968	22	4607
2026-01-14 08:15:30.46	8.67	14.74	-31.1	-33.8	11.1	1.13e-03	0	43	0	781189120	22	4913
2026-01-14 08:15:31.47	8.49	14.68	-31.0	-33.5	11.2	1.61e-03	0	43	0	783286272	22	4794
2026-01-14 08:15:32.47	8.31	14.63	-31.0	-33.4	11.3	9.65e-04	0	43	0	785383424	22	4760
2026-01-14 08:15:33.48	8.13	14.57	-30.7	-32.5	12.0	4.31e-04	0	43	0	787480576	22	4435
2026-01-14 08:15:34.48	7.96	14.51	-30.6	-32.3	12.1	3.11e-04	0	43	0	788529152	22	4363
2026-01-14 08:15:35.48	7.78	14.46	-30.6	-32.2	12.1	2.78e-04	0	43	0	790626304	22	4325
2026-01-14 08:15:36.49	7.61	14.40	-30.6	-32.3	12.2	2.78e-04	0	43	0	792723456	22	4343
2026-01-14 08:15:37.49	7.43	14.34	-30.5	-31.9	12.4	1.85e-04	0	43	0	794820608	22	4231
2026-01-14 08:15:38.49	7.26	14.29	-30.6	-32.1	12.3	1.45e-04	0	43	0	796917760	22	4299
2026-01-14 08:15:39.49	7.09	14.23	-30.6	-32.3	12.1	2.11e-04	0	43	0	797966336	22	4357
2026-01-14 08:15:40.49	6.92	14.17	-30.8	-32.7	11.8	3.94e-04	0	43	0	800063488	22	4499
2026-01-14 08:15:41.49	6.75	14.12	-30.9	-33.2	11.5	7.81e-04	0	43	0	802160640	22	4672
2026-01-14 08:15:42.50	6.57	14.06	-31.0	-33.3	11.4	8.64e-04	0	43	0	804257792	22	4717
2026-01-14 08:15:43.50	6.40	14.00	-31.0	-33.4	11.4	9.47e-04	0	43	0	805306368	22	4737
2026-01-14 08:15:44.50	6.23	13.94	-30.8	-32.9	11.7	9.56e-04	0	43	0	807403520	22	4571
2026-01-14 08:15:45.49	6.07	13.89	-30.6	-32.3	12.1	4.13e-04	0	43	0	809500672	22	4369
2026-01-14 08:15:46.49	5.90	13.83	-30.5	-31.9	12.3	1.98e-04	0	43	0	811597824	22	4233
2026-01-14 08:15:47.50	5.73	13.77	-30.4	-31.7	12.5	1.21e-04	0	43	0	813694976	22	4177
2026-01-14 08:15:48.50	5.56	13.71	-30.5	-31.9	12.4	1.29e-04	0	43	0	814743552	22	4217
2026-01-14 08:15:49.50	5.40	13.66	-30.5	-32.0	12.3	2.10e-04	0	43	0	816840704	22	4258
2026-01-14 08:15:50.50	5.23	13.60	-30.6	-32.1	12.2	1.79e-04	0	43	0	818937856	22	4309
2026-01-14 08:15:51.50	5.07	13.54	-30.8	-32.7	11.8	3.78e-04	0	43	0	821035008	22	4496
2026-01-14 08:15:52.50	4.91	13.48	-30.7	-32.5	11.9	3.52e-04	0	43	0	823132160	22	4450
2026-01-14 08:15:53.51	4.74	13.42	-30.8	-32.8	11.7	6.35e-04	0	43	0	824180736	22	4537
2026-01-14 08:15:54.51	4.58	13.36	-30.8	-32.8	11.7	5.21e-04	0	43	0	826277888	22	4541
2026-01-14 08:15:55.51	4.42	13.31	-30.9	-33.1	11.5	8.51e-04	0	43	0	828375040	22	4628
2026-01-14 08:15:56.52	4.25	13.25	-30.8	-32.8	11.7	7.01e-04	0	43	0	830472192	22	4540
2026-01-14 08:15:57.53	4.09	13.19	-30.7	-32.6	11.8	5.09e-04	0	43	0	832569344	22	4478
2026-01-14 08:15:58.53	3.93	13.13	-30.6	-32.3	12.1	3.26e-04	0	43	0	833617920	22	4356
2026-01-14 08:15:59.53	3.77	13.07	-30.7	-32.5	12.0	3.25e-04	0	43	0	835715072	22	4423
2026-01-14 08:16:00.53	3.61	13.01	-30.7	-32.4	12.0	3.71e-04	0	43	0	837812224	22	4407
2026-01-14 08:16:01.53	3.46	12.95	-30.6	-32.2	12.1	2.61e-04	0	43	0	839909376	22	4335
2026-01-14 08:16:02.54	3.30	12.89	-30.6	-32.1	12.1	1.94e-04	0	43	0	842006528	22	4317
2026-01-14 08:16:03.53	3.14	12.83	-30.5	-31.9	12.3	1.97e-04	0	43	0	843055104	22	4225
2026-01-14 08:16:04.54	2.99	12.77	-30.4	-31.6	12.4	1.30e-04	0	43	0	845152256	22	4158
2026-01-14 08:16:05.54	2.83	12.72	-30.3	-31.8	12.6	1.12e-04	0	43	0	847249408	21	4307
2026-01-14 08:16:06.54	2.68	12.66	-30.2	-31.6	12.8	7.40e-05	0	43	0	849346560	21	4222
2026-01-14 08:16:07.55	2.52	12.60	-30.0	-30.9	13.2	3.58e-05	0	43	0	850395136	21	4009
2026-01-14 08:16:08.54	2.37	12.54	-29.9	-30.8	13.4	1.75e-05	0	43	0	852492288	21	3984
2026-01-14 08:16:09.55	2.21	12.48	-29.9	-30.8	13.3	1.75e-05	0	43	0	854589440	21	3990
2026-01-14 08:16:10.56	2.06	12.42	-29.9	-30.7	13.4	1.37e-05	0	43	0	856686592	21	3945
2026-01-14 08:16:11.56	1.91	12.36	-29.9	-30.7	13.4	1.75e-05	0	43	0	858783744	21	3950
2026-01-14 08:16:12.57	1.76	12.30	-29.9	-31.2	13.4	9.90e-06	0	43	0	860880896	20	4188
2026-01-14 08:16:13.57	1.61	12.24	-29.8	-31.0	13.5	1.29e-05	0	43	0	861929472	20	4121
2026-01-14 08:16:14.57	1.46	12.18	-29.9	-31.2	13.4	1.29e-05	0	43	0	864026624	20	4184
2026-01-14 08:16:15.57	1.31	12.12	-30.0	-31.5	13.2	2.13e-05	0	43	0	866123776	20	4295
2026-01-14 08:16:16.57	1.16	12.06	-30.2	-32.0	12.8	2.89e-05	0	43	0	868220928	20	4458
2026-01-14 08:16:17.57	1.01	12.00	-30.3	-32.5	12.5	1.02e-04	0	43	0	869269504	20	4611
2026-01-14 08:16:18.57	0.86	11.94	-30.3	-32.3	12.6	7.93e-05	0	43	0	871366656	20	4557
2026-01-14 08:16:19.58	0.72	11.88	-30.3	-32.2	12.7	8.39e-05	0	43	0	873463808	20	4526
2026-01-14 08:16:20.59	0.57	11.82	-30.4	-32.6	12.4	7.93e-05	0	43	0	875560960	20	4647
2026-01-14 08:16:21.60	0.42	11.76	-30.3	-32.4	12.6	1.40e-04	0	43	0	877658112	20	4576
2026-01-14 08:16:22.60	0.28	11.70	-30.2	-32.1	12.7	9.61e-05	0	43	0	878706688	20	4499
2026-01-14 08:16:23.61	0.13	11.64	-30.1	-31.8	12.9	5.34e-05	0	43	0	880803840	20	4393
2026-01-14 08:16:24.62	359.99	11.58	-30.0	-31.6	13.0	4.04e-05	0	43	0	882900992	20	4323
2026-01-14 08:16:25.62	359.84	11.52	-30.0	-31.5	13.2	3.58e-05	0	43	0	884998144	20	4284
2026-01-14 08:16:26.62	359.70	11.46	-30.1	-31.7	13.0	2.36e-05	0	43	0	887095296	20	4341
2026-01-14 08:16:27.63	359.56	11.40	-29.8	-31.1	13.4	1.83e-05	0	43	0	888143872	20	4161
2026-01-14 08:16:28.62	359.42	11.34	-29.8	-30.9	13.6	6.80e-06	0	43	0	890241024	20	4096
2026-01-14 08:16:29.63	359.28	11.28	-29.8	-31.0	13.4	5.30e-06	0	43	0	892338176	20	4139
2026-01-14 08:16:30.63	359.14	11.22	-29.7	-30.8	13.6	7.60e-06	0	43	0	894435328	20	4066
2026-01-14 08:16:31.63	359.00	11.15	-29.7	-30.7	13.7	6.80e-06	0	43	0	896532480	20	4059
2026-01-14 08:16:32.63	358.86	11.09	-29.6	-30.6	13.7	4.50e-06	0	43	0	897581056	20	4014
2026-01-14 08:16:33.63	358.72	11.03	-29.8	-31.1	13.4	6.10e-06	0	43	0	899678208	20	4164
2026-01-14 08:16:34.64	358.58	10.97	-29.9	-31.3	13.2	2.28e-05	0	43	0	901775360	20	4223
2026-01-14 08:16:35.64	358.45	10.91	-29.9	-31.4	13.2	1.90e-05	0	43	0	903872512	20	4269
2026-01-14 08:16:36.65	358.31	10.85	-30.1	-31.7	12.9	4.11e-05	0	43	0	905969664	20	4369
2026-01-14 08:16:37.65	358.17	10.79	-30.0	-31.7	13.0	4.34e-05	0	43	0	907018240	20	4341
2026-01-14 08:16:38.65	358.04	10.73	-30.2	-32.1	12.7	7.24e-05	0	43	0	909115392	20	4483
2026-01-14 08:16:39.65	357.90	10.67	-30.2	-32.0	12.7	1.01e-04	0	43	0	911212544	20	4472
2026-01-14 08:16:40.65	357.77	10.61	-30.3	-32.5	12.4	7.24e-05	0	43	0	913309696	20	4643
2026-01-14 08:16:41.65	357.63	10.55	-30.3	-32.6	12.3	1.59e-04	0	43	0	914358272	20	4658
2026-01-14 08:16:42.65	357.50	10.49	-30.4	-32.8	12.2	1.69e-04	0	43	0	916455424	20	4744
2026-01-14 08:16:43.65	357.37	10.43	-30.5	-32.6	12.0	3.40e-04	0	43	0	918552576	21	4568
2026-01-14 08:16:44.66	357.24	10.37	-30.4	-32.3	12.2	2.45e-04	0	43	0	920649728	21	4476
2026-01-14 08:16:45.67	357.10	10.31	-30.4	-32.3	12.2	2.47e-04	0	43	0	922746880	21	4475
2026-01-14 08:16:46.66	356.97	10.25	-30.3	-31.9	12.4	1.62e-04	0	43	0	923795456	21	4339
2026-01-14 08:16:47.67	356.84	10.19	-30.1	-31.5	12.7	9.30e-05	0	43	0	925892608	21	4217
2026-01-14 08:16:48.67	356.71	10.13	-30.0	-31.2	12.9	5.26e-05	0	43	0	927989760	21	4113
2026-01-14 08:16:49.68	356.58	10.07	-29.9	-31.0	13.0	3.28e-05	0	43	0	930086912	21	4048
2026-01-14 08:16:50.68	356.45	10.01	-30.2	-31.7	12.5	5.95e-05	0	43	0	932184064	21	4288
2026-01-14 08:16:51.68	356.33	9.95	-30.0	-31.1	12.9	4.57e-05	0	43	0	933232640	21	4078
2026-01-14 08:16:52.69	356.20	9.88	-29.7	-30.8	13.4	2.05e-05	0	43	0	935329792	20	4096
2026-01-14 08:16:53.69	356.07	9.82	-29.8	-31.1	13.3	1.52e-05	0	43	0	937426944	20	4184
2026-01-14 08:16:54.69	355.94	9.76	-29.8	-31.1	13.2	2.05e-05	0	43	0	939524096	20	4181
2026-01-14 08:16:55.70	355.82	9.70	-30.0	-31.6	12.9	3.50e-05	0	43	0	941621248	20	4321
2026-01-14 08:16:56.70	355.69	9.64	-30.2	-32.2	12.5	4.80e-05	0	43	0	942669824	20	4544
2026-01-14 08:16:57.70	355.57	9.58	-30.3	-32.6	12.3	1.33e-04	0	43	0	944766976	20	4669
2026-01-14 08:16:58.71	355.44	9.52	-30.5	-32.6	11.9	2.43e-04	0	43	0	946864128	21	4600
2026-01-14 08:16:59.72	355.32	9.46	-31.0	-34.1	10.8	1.56e-03	0	43	0	948961280	21	5147
2026-01-14 08:17:00.71	355.19	9.40	-31.1	-34.1	10.5	4.23e-03	0	43	0	951058432	22	5036
2026-01-14 08:17:01.71	355.07	9.34	-31.3	-34.5	10.2	4.64e-03	0	43	0	952107008	22	5237
2026-01-14 08:17:02.72	354.95	9.28	-31.1	-33.8	10.7	4.74e-03	0	43	0	954204160	22	4933
2026-01-14 08:17:03.72	354.83	9.22	-30.7	-32.8	11.4	1.80e-03	0	43	0	956301312	22	4570
2026-01-14 08:17:04.73	354.70	9.16	-30.5	-32.0	12.0	1.01e-03	0	43	0	958398464	22	4301
2026-01-14 08:17:05.73	354.58	9.10	-30.4	-31.6	12.3	2.30e-04	0	43	0	960495616	22	4165
2026-01-14 08:17:06.74	354.46	9.04	-30.4	-31.8	12.1	2.82e-04	0	43	0	961544192	22	4235
2026-01-14 08:17:07.74	354.34	8.98	-30.2	-31.7	12.5	1.20e-04	0	43	0	963641344	21	4270
2026-01-14 08:17:08.73	354.23	8.92	-30.2	-31.7	12.5	1.20e-04	0	43	0	965738496	21	4276
2026-01-14 08:17:09.74	354.11	8.86	-30.1	-31.5	12.6	1.17e-04	0	43	0	967835648	21	4231
2026-01-14 08:17:10.75	353.99	8.80	-30.1	-31.5	12.6	1.14e-04	0	43	0	968884224	21	4220
2026-01-14 08:17:11.76	353.87	8.74	-30.2	-31.8	12.4	1.08e-04	0	43	0	970981376	21	4323
2026-01-14 08:17:12.76	353.75	8.68	-30.3	-32.1	12.2	1.57e-04	0	43	0	973078528	21	4421
2026-01-14 08:17:13.77	353.63	8.62	-30.3	-32.2	12.1	2.33e-04	0	43	0	975175680	21	4440
2026-01-14 08:17:14.77	353.52	8.56	-30.3	-32.0	12.2	2.32e-04	0	43	0	977272832	21	4397
2026-01-14 08:17:15.77	353.40	8.50	-30.5	-32.6	11.8	3.57e-04	0	43	0	979369984	21	4584
2026-01-14 08:17:16.78	353.29	8.44	-30.4	-32.4	11.9	5.06e-04	0	43	0	980418560	21	4525
2026-01-14 08:17:17.78	353.17	8.38	-30.4	-32.5	11.9	2.16e-04	0	43	0	982515712	21	4548
2026-01-14 08:17:18.78	353.06	8.32	-30.4	-32.3	12.0	4.06e-04	0	43	0	984612864	21	4508
2026-01-14 08:17:19.78	352.94	8.26	-30.4	-32.4	11.9	3.52e-04	0	43	0	986710016	21	4529
2026-01-14 08:17:20.79	352.83	8.20	-30.6	-33.1	11.4	1.03e-03	0	43	0	987758592	21	4773
2026-01-14 08:17:21.80	352.71	8.14	-30.5	-32.8	11.6	7.70e-04	0	43	0	989855744	21	4669
2026-01-14 08:17:22.80	352.60	8.08	-30.8	-33.7	11.0	1.23e-03	0	43	0	991952896	21	5015
2026-01-14 08:17:23.80	352.49	8.02	-30.7	-33.2	11.3	1.42e-03	0	43	0	994050048	21	4830
2026-01-14 08:17:24.80	352.38	7.96	-30.6	-33.1	11.4	1.37e-03	0	43	0	996147200	21	4779
2026-01-14 08:17:25.80	352.27	7.90	-30.8	-33.7	10.9	2.16e-03	0	43	0	997195776	21	5022
2026-01-14 08:17:26.81	352.16	7.84	-30.8	-33.6	11.0	1.79e-03	0	43	0	999292928	21	4971
2026-01-14 08:17:27.81	352.05	7.78	-30.7	-33.4	11.2	1.28e-03	0	43	0	1001390080	21	4886
2026-01-14 08:17:28.80	351.94	7.72	-30.7	-33.3	11.2	1.16e-03	0	43	0	1003487232	21	4855
2026-01-14 08:17:29.80	351.83	7.66	-30.7	-33.4	11.1	1.63e-03	0	43	0	1005584384	21	4922
2026-01-14 08:17:30.81	351.72	7.60	-30.7	-33.3	11.1	1.97e-03	0	43	0	1006632960	21	4879
2026-01-14 08:17:31.81	351.61	7.54	-30.6	-33.2	11.3	1.46e-03	0	43	0	1008730112	21	4820
2026-01-14 08:17:32.82	351.50	7.48	-30.6	-33.2	11.2	1.27e-03	0	43	0	1010827264	21	4817
2026-01-14 08:17:33.82	351.40	7.42	-30.6	-33.2	11.3	7.78e-04	0	43	0	1012924416	21	4811
2026-01-14 08:17:34.82	351.29	7.36	-31.0	-34.4	10.4	2.12e-03	0	43	0	1015021568	21	5301
2026-01-14 08:17:35.83	351.18	7.30	-30.9	-33.5	10.7	3.89e-03	0	43	0	1016070144	22	4857
2026-01-14 08:17:36.83	351.08	7.24	-31.0	-33.9	10.4	4.00e-03	0	43	0	1018167296	22	5004
2026-01-14 08:17:37.82	350.97	7.19	-31.0	-34.0	10.3	5.15e-03	0	43	0	1020264448	22	5080
2026-01-14 08:17:38.83	350.87	7.13	-31.2	-34.5	9.9	5.72e-03	0	43	0	1022361600	22	5281
2026-01-14 08:17:39.83	350.76	7.07	-33.2	-43.9	3.8	9.53e-01	0	43	104	1023410176	26	12327
2026-01-14 08:17:40.83	350.66	7.01	-33.6	-45.6	3.8	1.49e+00	0	43	104	1023410176	27	14406

#Closed at: 2026-01-14 08:17:41
#Recorded file [1023 MB]: D:/data/31010_260114_110833.dat