passes_logs/2026/01/14/R2M6_AANII_01/R2M6_AANII_01__20260114_055840_FENGYUN_3E_rec.log

#Pass ID: 20260114_055840_FENGYUN 3E
#Satellite: FENGYUN 3E
#Configuration: FENGYUN 3E
#almurnet v.1.7.20240730
#Start time: 2026-01-14 05:58:40

#Version: 2.2.20231116
#Station: R2M6_AANII_01
#Location: 30.233357 lon 59.946436 lat
#TLE: 1 49008U 21062A   26013.31447241  .00000001  00000+0  21294-4 0  9992
#TLE: 2 49008  98.7491  18.4630 0001950 139.8565 220.2756 14.19884983234609

#Time	Az	El	Level	Level2	SNR	BER	BlckErr	Temp	State	Recorded	gain1	gain2
2026-01-14 05:58:40.87	12.22	7.01	-30.5	-33.7	5.1	7.87e-01	0	40	0	0	20	5184
2026-01-14 05:58:41.86	12.15	7.08	-30.8	-33.9	5.0	7.92e-01	0	40	104	0	21	5183
2026-01-14 05:58:42.88	12.09	7.15	-30.4	-33.3	8.5	5.12e-02	0	41	0	0	20	5014
2026-01-14 05:58:43.88	12.02	7.22	-30.6	-33.8	8.2	5.49e-02	0	40	0	7340032	20	5213
2026-01-14 05:58:44.89	11.95	7.29	-30.5	-33.4	8.5	5.25e-02	0	41	0	14680064	20	5059
2026-01-14 05:58:45.88	11.89	7.36	-30.3	-32.9	8.8	3.95e-02	0	41	0	20971520	20	4870
2026-01-14 05:58:46.88	11.82	7.44	-30.3	-32.8	8.9	2.92e-02	0	41	0	28311552	20	4827
2026-01-14 05:58:47.88	11.75	7.51	-30.2	-32.6	9.1	3.05e-02	0	41	0	35651584	20	4750
2026-01-14 05:58:48.88	11.68	7.58	-30.1	-32.4	9.3	2.14e-02	0	41	0	42991616	20	4679
2026-01-14 05:58:49.88	11.62	7.65	-30.1	-32.5	9.2	2.17e-02	0	41	0	50331648	20	4705
2026-01-14 05:58:50.88	11.55	7.72	-30.2	-32.7	9.1	2.98e-02	0	41	0	57671680	20	4779
2026-01-14 05:58:51.88	11.48	7.79	-29.8	-32.0	10.0	1.22e-02	0	41	0	65011712	19	4616
2026-01-14 05:58:52.89	11.41	7.87	-29.3	-31.2	10.8	3.77e-03	0	41	0	72351744	18	4468
2026-01-14 05:58:53.89	11.34	7.94	-28.9	-30.6	11.5	3.76e-03	0	41	0	79691776	17	4404
2026-01-14 05:58:54.89	11.27	8.01	-28.4	-30.1	12.1	4.81e-04	0	41	0	85983232	16	4361
2026-01-14 05:58:55.90	11.20	8.08	-28.2	-29.5	12.5	6.21e-04	0	41	0	93323264	16	4182
2026-01-14 05:58:56.90	11.13	8.16	-27.9	-29.4	12.7	9.15e-05	0	41	0	100663296	15	4278
2026-01-14 05:58:57.90	11.05	8.23	-27.7	-29.0	12.9	2.19e-03	0	41	0	108003328	15	4156
2026-01-14 05:58:58.90	10.98	8.30	-27.8	-29.1	12.9	4.45e-04	0	41	0	115343360	15	4183
2026-01-14 05:58:59.90	10.91	8.38	-27.7	-28.8	13.0	2.20e-03	0	41	0	122683392	15	4111
2026-01-14 05:59:00.91	10.84	8.45	-27.6	-28.7	13.1	2.10e-03	0	41	0	130023424	15	4080
2026-01-14 05:59:01.91	10.76	8.52	-27.3	-28.6	13.5	3.75e-04	0	41	0	137363456	14	4155
2026-01-14 05:59:02.91	10.69	8.60	-27.3	-28.6	13.5	1.97e-03	0	41	0	144703488	14	4150
2026-01-14 05:59:03.92	10.62	8.67	-27.3	-28.5	13.5	1.95e-03	0	41	0	150994944	14	4140
2026-01-14 05:59:04.92	10.54	8.75	-27.4	-28.6	13.5	3.49e-04	0	41	0	159383552	14	4157
2026-01-14 05:59:05.92	10.47	8.82	-27.3	-28.5	13.6	1.84e-03	0	41	0	165675008	14	4125
2026-01-14 05:59:06.92	10.39	8.89	-27.4	-28.7	13.4	1.37e-05	0	41	0	173015040	14	4191
2026-01-14 05:59:07.93	10.32	8.97	-27.2	-28.3	13.7	2.80e-04	0	41	0	180355072	14	4080
2026-01-14 05:59:08.93	10.24	9.04	-27.1	-28.1	13.8	1.85e-03	0	41	0	187695104	14	4034
2026-01-14 05:59:09.94	10.16	9.12	-27.2	-28.3	13.7	5.70e-06	0	41	0	195035136	14	4077
2026-01-14 05:59:10.94	10.09	9.20	-27.6	-28.7	13.2	2.37e-04	0	41	0	202375168	15	4075
2026-01-14 05:59:11.94	10.01	9.27	-27.1	-28.0	13.9	4.50e-06	0	41	0	209715200	14	4013
2026-01-14 05:59:12.94	9.93	9.35	-27.1	-28.1	13.9	1.74e-03	0	41	0	217055232	14	4024
2026-01-14 05:59:13.94	9.86	9.42	-27.2	-28.2	13.8	1.93e-04	0	41	0	224395264	14	4049
2026-01-14 05:59:14.94	9.78	9.50	-27.1	-27.9	13.9	6.80e-06	0	42	0	230686720	14	3978
2026-01-14 05:59:15.95	9.70	9.57	-27.2	-28.3	13.7	1.70e-03	0	42	0	238026752	14	4079
2026-01-14 05:59:16.95	9.62	9.65	-27.1	-28.0	13.9	4.50e-06	0	42	0	245366784	14	4004
2026-01-14 05:59:17.96	9.54	9.73	-27.1	-28.1	13.9	1.14e-05	0	41	0	252706816	14	4022
2026-01-14 05:59:18.96	9.46	9.80	-27.2	-28.2	13.8	1.69e-03	0	42	0	260046848	14	4051
2026-01-14 05:59:19.97	9.38	9.88	-27.2	-28.2	13.8	5.70e-06	0	41	0	267386880	14	4050
2026-01-14 05:59:20.96	9.30	9.96	-27.1	-27.9	14.0	1.78e-03	0	41	0	274726912	14	3983
2026-01-14 05:59:21.97	9.22	10.04	-27.3	-28.5	13.7	1.25e-05	0	42	0	282066944	14	4122
2026-01-14 05:59:22.97	9.13	10.11	-27.1	-28.0	13.9	5.70e-06	0	42	0	289406976	14	4010
2026-01-14 05:59:23.98	9.05	10.19	-27.0	-27.7	14.1	2.20e-06	0	42	0	296747008	14	3924
2026-01-14 05:59:24.98	8.97	10.27	-26.9	-28.1	14.2	1.10e-06	0	42	0	304087040	13	4142
2026-01-14 05:59:25.99	8.89	10.35	-26.8	-27.8	14.3	1.10e-06	0	42	0	311427072	13	4056
2026-01-14 05:59:26.99	8.80	10.43	-26.9	-28.1	14.2	2.20e-06	0	42	0	317718528	13	4139
2026-01-14 05:59:27.99	8.72	10.50	-26.8	-27.9	14.3	2.20e-06	0	42	0	325058560	13	4083
2026-01-14 05:59:29.00	8.63	10.58	-26.7	-27.5	14.5	1.10e-06	0	42	0	332398592	13	3983
2026-01-14 05:59:30.00	8.55	10.66	-26.7	-27.6	14.5	0.00e+00	0	42	0	339738624	13	4002
2026-01-14 05:59:31.01	8.46	10.74	-26.8	-27.8	14.3	1.10e-06	0	42	0	347078656	13	4048
2026-01-14 05:59:32.02	8.37	10.82	-26.5	-27.1	14.7	0.00e+00	0	42	0	354418688	13	3865
2026-01-14 05:59:33.03	8.29	10.90	-26.5	-27.7	14.7	1.10e-06	0	42	0	361758720	12	4131
2026-01-14 05:59:34.03	8.20	10.98	-26.6	-27.4	14.6	2.20e-06	0	42	0	369098752	13	3953
2026-01-14 05:59:35.04	8.11	11.06	-26.8	-27.8	14.4	2.20e-06	0	42	0	376438784	13	4047
2026-01-14 05:59:36.04	8.02	11.14	-26.5	-27.2	14.7	0.00e+00	0	42	0	383778816	13	3893
2026-01-14 05:59:37.05	7.93	11.22	-26.4	-27.0	14.8	3.40e-06	0	42	0	391118848	13	3841
2026-01-14 05:59:38.05	7.85	11.30	-26.6	-27.4	14.7	0.00e+00	0	42	0	397410304	13	3932
2026-01-14 05:59:39.05	7.76	11.38	-26.7	-27.6	14.5	1.10e-06	0	42	0	404750336	13	3990
2026-01-14 05:59:40.05	7.67	11.46	-26.5	-27.2	14.8	1.10e-06	0	42	0	412090368	13	3887
2026-01-14 05:59:41.05	7.58	11.54	-26.5	-27.2	14.8	0.00e+00	0	42	0	419430400	13	3890
2026-01-14 05:59:42.06	7.48	11.62	-26.5	-27.7	14.8	0.00e+00	0	42	0	426770432	12	4115
2026-01-14 05:59:43.07	7.39	11.71	-26.5	-27.2	14.8	0.00e+00	0	42	0	434110464	13	3884
2026-01-14 05:59:44.07	7.30	11.79	-26.6	-27.3	14.7	0.00e+00	0	42	0	441450496	13	3921
2026-01-14 05:59:45.07	7.21	11.87	-26.4	-27.4	14.9	0.00e+00	0	42	0	448790528	12	4058
2026-01-14 05:59:46.07	7.11	11.95	-26.6	-27.8	14.7	0.00e+00	0	42	0	456130560	12	4152
2026-01-14 05:59:47.06	7.02	12.03	-26.7	-27.6	14.6	1.71e-05	0	42	0	462422016	13	3981
2026-01-14 05:59:48.06	6.93	12.11	-26.6	-27.4	14.7	0.00e+00	0	42	0	469762048	13	3941
2026-01-14 05:59:49.07	6.83	12.20	-26.5	-27.2	14.8	1.10e-06	0	42	0	477102080	13	3893
2026-01-14 05:59:50.08	6.74	12.28	-26.5	-27.1	14.8	0.00e+00	0	42	0	484442112	13	3861
2026-01-14 05:59:51.09	6.64	12.36	-26.6	-27.4	14.7	0.00e+00	0	42	0	491782144	13	3936
2026-01-14 05:59:52.09	6.54	12.45	-26.5	-27.2	14.8	0.00e+00	0	42	0	499122176	13	3882
2026-01-14 05:59:53.09	6.44	12.53	-26.6	-27.4	14.7	0.00e+00	0	42	0	506462208	13	3938
2026-01-14 05:59:54.10	6.35	12.61	-26.5	-27.6	14.9	0.00e+00	0	42	0	513802240	12	4102
2026-01-14 05:59:55.10	6.25	12.70	-26.4	-27.4	14.9	0.00e+00	0	42	0	521142272	12	4048
2026-01-14 05:59:56.11	6.15	12.78	-26.3	-27.3	15.0	0.00e+00	0	42	0	528482304	12	4013
2026-01-14 05:59:57.11	6.05	12.87	-26.4	-27.5	14.9	1.10e-06	0	42	0	535822336	12	4066
2026-01-14 05:59:58.12	5.95	12.95	-26.2	-27.0	15.2	0.00e+00	0	42	0	543162368	12	3940
2026-01-14 05:59:59.13	5.85	13.04	-26.2	-27.0	15.2	0.00e+00	0	42	0	550502400	12	3954
2026-01-14 06:00:00.13	5.75	13.12	-26.2	-26.9	15.2	0.00e+00	0	42	0	557842432	12	3930
2026-01-14 06:00:01.13	5.64	13.21	-26.3	-27.1	15.1	1.10e-06	0	42	0	565182464	12	3977
2026-01-14 06:00:02.13	5.54	13.29	-26.1	-26.7	15.4	0.00e+00	0	42	0	571473920	12	3864
2026-01-14 06:00:03.14	5.44	13.38	-25.8	-26.1	15.7	0.00e+00	0	42	0	578813952	12	3739
2026-01-14 06:00:04.13	5.34	13.46	-26.2	-26.9	15.3	0.00e+00	0	42	0	586153984	12	3915
2026-01-14 06:00:05.13	5.23	13.55	-26.0	-26.6	15.5	0.00e+00	0	42	0	593494016	12	3845
2026-01-14 06:00:06.14	5.13	13.63	-26.0	-26.6	15.4	0.00e+00	0	42	0	600834048	12	3857
2026-01-14 06:00:07.15	5.02	13.72	-26.0	-26.6	15.5	0.00e+00	0	42	0	608174080	12	3851
2026-01-14 06:00:08.15	4.91	13.81	-26.1	-26.9	15.3	0.00e+00	0	42	0	615514112	12	3916
2026-01-14 06:00:09.15	4.81	13.89	-26.3	-27.2	15.2	0.00e+00	0	42	0	622854144	12	3986
2026-01-14 06:00:10.15	4.70	13.98	-26.1	-26.8	15.4	0.00e+00	0	42	0	629145600	12	3882
2026-01-14 06:00:11.16	4.59	14.07	-26.1	-26.7	15.5	0.00e+00	0	42	0	636485632	12	3874
2026-01-14 06:00:12.16	4.48	14.15	-26.1	-26.8	15.4	1.10e-06	0	42	0	643825664	12	3902
2026-01-14 06:00:13.17	4.37	14.24	-26.1	-26.8	15.4	0.00e+00	0	42	0	651165696	12	3895
2026-01-14 06:00:14.16	4.26	14.33	-26.1	-26.8	15.4	0.00e+00	0	42	0	658505728	12	3903
2026-01-14 06:00:15.17	4.15	14.42	-26.3	-27.1	15.2	0.00e+00	0	42	0	665845760	12	3978
2026-01-14 06:00:16.17	4.04	14.50	-26.2	-26.9	15.4	0.00e+00	0	42	0	673185792	12	3919
2026-01-14 06:00:17.18	3.93	14.59	-26.2	-27.0	15.3	0.00e+00	0	42	0	680525824	12	3946
2026-01-14 06:00:18.19	3.81	14.68	-26.2	-27.1	15.3	1.70e-03	0	42	0	687865856	12	3957
2026-01-14 06:00:19.19	3.70	14.77	-26.2	-27.0	15.3	0.00e+00	0	42	0	695205888	12	3947
2026-01-14 06:00:20.19	3.58	14.86	-26.1	-26.9	15.4	0.00e+00	0	42	0	702545920	12	3911
2026-01-14 06:00:21.19	3.47	14.95	-26.2	-27.1	15.3	1.76e-03	0	42	0	709885952	12	3963
2026-01-14 06:00:22.19	3.35	15.04	-26.1	-26.7	15.5	0.00e+00	0	43	0	716177408	12	3861
2026-01-14 06:00:23.20	3.24	15.13	-26.0	-27.1	15.6	1.68e-03	0	42	0	723517440	11	4065
2026-01-14 06:00:24.20	3.12	15.22	-26.1	-26.8	15.4	0.00e+00	0	42	0	730857472	12	3887
2026-01-14 06:00:25.20	3.00	15.31	-25.9	-26.3	15.7	0.00e+00	0	42	0	738197504	12	3779
2026-01-14 06:00:26.20	2.88	15.40	-26.1	-27.2	15.6	1.73e-03	0	42	0	745537536	11	4081
2026-01-14 06:00:27.21	2.76	15.49	-25.9	-26.9	15.8	0.00e+00	0	42	0	752877568	11	4022
2026-01-14 06:00:28.21	2.64	15.58	-26.0	-26.9	15.7	2.02e-04	0	43	0	760217600	11	4030
2026-01-14 06:00:29.21	2.52	15.67	-25.9	-26.8	15.8	1.61e-03	0	42	0	767557632	11	3986
2026-01-14 06:00:30.21	2.40	15.76	-25.9	-26.8	15.8	0.00e+00	0	42	0	774897664	11	3991
2026-01-14 06:00:31.21	2.28	15.85	-25.9	-26.7	15.8	1.45e-04	0	42	0	781189120	11	3978
2026-01-14 06:00:32.21	2.16	15.94	-25.7	-26.5	16.0	0.00e+00	0	43	0	788529152	11	3916
2026-01-14 06:00:33.21	2.03	16.03	-25.8	-26.6	15.9	1.63e-03	0	43	0	795869184	11	3949
2026-01-14 06:00:34.22	1.91	16.12	-25.8	-26.7	15.9	1.11e-04	0	42	0	803209216	11	3963
2026-01-14 06:00:35.23	1.78	16.22	-25.6	-26.2	16.1	1.57e-03	0	43	0	810549248	11	3853
2026-01-14 06:00:36.24	1.65	16.31	-25.5	-26.0	16.2	1.58e-03	0	43	0	817889280	11	3803
2026-01-14 06:00:37.23	1.53	16.40	-25.6	-26.2	16.2	6.40e-05	0	43	0	825229312	11	3844
2026-01-14 06:00:38.24	1.40	16.49	-25.7	-26.4	16.0	1.52e-03	0	43	0	832569344	11	3900
2026-01-14 06:00:39.24	1.27	16.59	-25.8	-26.5	16.0	1.53e-03	0	42	0	839909376	11	3924
2026-01-14 06:00:40.24	1.14	16.68	-25.7	-26.4	16.1	6.17e-05	0	43	0	847249408	11	3888
2026-01-14 06:00:41.25	1.01	16.77	-25.6	-26.1	16.2	1.52e-03	0	42	0	854589440	11	3826
2026-01-14 06:00:42.25	0.88	16.87	-25.7	-26.3	16.1	1.56e-03	0	42	0	860880896	11	3876
2026-01-14 06:00:43.26	0.74	16.96	-25.7	-26.4	16.1	1.30e-04	0	42	0	868220928	11	3908
2026-01-14 06:00:44.26	0.61	17.05	-25.7	-26.4	16.1	1.50e-03	0	42	0	875560960	11	3884
2026-01-14 06:00:45.26	0.48	17.15	-25.7	-25.8	16.0	0.00e+00	0	43	0	882900992	12	3652
2026-01-14 06:00:46.26	0.34	17.24	-25.5	-25.9	16.4	1.19e-04	0	42	0	890241024	11	3768
2026-01-14 06:00:47.26	0.21	17.34	-25.4	-25.7	16.5	0.00e+00	0	42	0	897581056	11	3738
2026-01-14 06:00:48.27	0.07	17.43	-25.5	-25.9	16.4	1.53e-03	0	43	0	904921088	11	3766
2026-01-14 06:00:49.27	359.93	17.53	-25.4	-26.3	16.4	0.00e+00	0	43	0	912261120	10	3965
2026-01-14 06:00:50.27	359.80	17.62	-25.0	-25.3	17.0	0.00e+00	0	43	0	919601152	10	3735
2026-01-14 06:00:51.28	359.66	17.72	-25.3	-26.1	16.6	1.52e-03	0	43	0	926941184	10	3918
2026-01-14 06:00:52.28	359.52	17.81	-25.4	-26.1	16.5	0.00e+00	0	43	0	934281216	10	3932
2026-01-14 06:00:53.28	359.38	17.91	-25.2	-25.7	16.7	0.00e+00	0	43	0	941621248	10	3837
2026-01-14 06:00:54.28	359.23	18.00	-25.2	-25.8	16.7	0.00e+00	0	43	0	947912704	10	3858
2026-01-14 06:00:55.29	359.09	18.10	-25.3	-26.1	16.6	0.00e+00	0	43	0	955252736	10	3916
2026-01-14 06:00:56.29	358.95	18.20	-25.0	-25.3	17.0	1.39e-03	0	43	0	962592768	10	3733
2026-01-14 06:00:57.30	358.80	18.29	-24.9	-25.2	17.0	0.00e+00	0	42	0	969932800	10	3719
2026-01-14 06:00:58.30	358.66	18.39	-25.1	-26.0	16.9	0.00e+00	0	43	0	977272832	9	4004
2026-01-14 06:00:59.30	358.51	18.48	-25.1	-25.6	16.8	0.00e+00	0	43	0	984612864	10	3815
2026-01-14 06:01:00.30	358.36	18.58	-25.0	-25.4	16.9	0.00e+00	0	43	0	991952896	10	3766
2026-01-14 06:01:01.30	358.22	18.68	-25.0	-25.8	16.9	0.00e+00	0	43	0	999292928	9	3966
2026-01-14 06:01:02.30	358.07	18.78	-25.0	-25.8	17.0	0.00e+00	0	43	0	1006632960	9	3960
2026-01-14 06:01:03.30	357.92	18.87	-25.0	-25.9	16.9	0.00e+00	0	43	0	1012924416	9	3982
2026-01-14 06:01:04.30	357.77	18.97	-24.9	-25.7	17.0	0.00e+00	0	43	0	1020264448	9	3931
2026-01-14 06:01:05.30	357.61	19.07	-24.9	-25.6	17.0	0.00e+00	0	43	0	1027604480	9	3917
2026-01-14 06:01:06.31	357.46	19.17	-25.1	-25.5	16.8	0.00e+00	0	43	0	1034944512	10	3792
2026-01-14 06:01:07.30	357.31	19.26	-25.3	-26.1	16.6	0.00e+00	0	43	0	1042284544	10	3922
2026-01-14 06:01:08.31	357.15	19.36	-25.2	-25.9	16.7	0.00e+00	0	43	0	1049624576	10	3868
2026-01-14 06:01:09.31	356.99	19.46	-25.4	-26.3	16.4	0.00e+00	0	43	0	1056964608	10	3973
2026-01-14 06:01:10.30	356.84	19.56	-25.3	-26.0	16.7	0.00e+00	0	43	0	1064304640	10	3892
2026-01-14 06:01:11.30	356.68	19.66	-25.1	-25.7	16.8	0.00e+00	0	43	0	1070596096	10	3827
2026-01-14 06:01:12.31	356.52	19.75	-25.2	-25.7	16.8	0.00e+00	0	43	0	1077936128	10	3834
2026-01-14 06:01:13.31	356.36	19.85	-25.2	-25.8	16.7	0.00e+00	0	42	0	1085276160	10	3857
2026-01-14 06:01:14.31	356.20	19.95	-25.3	-26.1	16.6	0.00e+00	0	43	0	1092616192	10	3918
2026-01-14 06:01:15.32	356.03	20.05	-25.4	-26.3	16.5	0.00e+00	0	42	0	1099956224	10	3964
2026-01-14 06:01:16.32	355.87	20.15	-25.3	-26.1	16.5	0.00e+00	0	43	0	1107296256	10	3923
2026-01-14 06:01:17.33	355.70	20.25	-25.0	-25.3	16.9	0.00e+00	0	43	0	1114636288	10	3747
2026-01-14 06:01:18.33	355.54	20.35	-25.1	-25.5	16.9	0.00e+00	0	43	0	1121976320	10	3779
2026-01-14 06:01:19.34	355.37	20.45	-25.1	-26.0	16.9	0.00e+00	0	43	0	1129316352	9	4006
2026-01-14 06:01:20.34	355.20	20.55	-25.1	-25.6	16.9	0.00e+00	0	43	0	1136656384	10	3794
2026-01-14 06:01:21.34	355.03	20.65	-25.5	-26.5	16.4	0.00e+00	0	43	0	1143996416	10	4013
2026-01-14 06:01:22.34	354.86	20.75	-25.5	-26.0	16.4	0.00e+00	0	43	0	1151336448	11	3803
2026-01-14 06:01:23.35	354.69	20.85	-25.1	-25.0	16.9	0.00e+00	0	42	0	1157627904	11	3576
2026-01-14 06:01:24.35	354.52	20.95	-24.8	-24.9	17.2	0.00e+00	0	43	0	1164967936	10	3649
2026-01-14 06:01:25.35	354.34	21.05	-24.6	-24.6	17.4	0.00e+00	0	42	0	1172307968	10	3582
2026-01-14 06:01:26.35	354.17	21.15	-24.7	-25.2	17.3	0.00e+00	0	43	0	1179648000	9	3815
2026-01-14 06:01:27.35	353.99	21.26	-24.9	-25.6	17.1	0.00e+00	0	43	0	1186988032	9	3907
2026-01-14 06:01:28.35	353.82	21.36	-25.0	-25.9	17.0	0.00e+00	0	43	0	1194328064	9	3971
2026-01-14 06:01:29.34	353.64	21.46	-25.0	-25.8	17.0	0.00e+00	0	43	0	1201668096	9	3953
2026-01-14 06:01:30.35	353.46	21.56	-25.0	-25.8	17.1	0.00e+00	0	43	0	1209008128	9	3951
2026-01-14 06:01:31.35	353.28	21.66	-24.9	-25.7	17.1	0.00e+00	0	43	0	1215299584	9	3932
2026-01-14 06:01:32.35	353.10	21.76	-24.9	-25.6	17.1	0.00e+00	0	43	0	1222639616	9	3911
2026-01-14 06:01:33.36	352.91	21.86	-24.8	-25.4	17.3	0.00e+00	0	43	0	1229979648	9	3864
2026-01-14 06:01:34.35	352.73	21.96	-24.9	-25.7	17.1	0.00e+00	0	43	0	1237319680	9	3929
2026-01-14 06:01:35.36	352.54	22.07	-24.8	-25.4	17.2	0.00e+00	0	43	0	1244659712	9	3863
2026-01-14 06:01:36.36	352.36	22.17	-24.7	-25.3	17.3	0.00e+00	0	43	0	1251999744	9	3839
2026-01-14 06:01:37.36	352.17	22.27	-24.8	-25.4	17.2	0.00e+00	0	43	0	1259339776	9	3877
2026-01-14 06:01:38.37	351.98	22.37	-24.7	-25.3	17.3	0.00e+00	0	43	0	1266679808	9	3849
2026-01-14 06:01:39.37	351.79	22.47	-24.7	-25.1	17.4	0.00e+00	0	43	0	1274019840	9	3801
2026-01-14 06:01:40.38	351.59	22.58	-24.6	-25.1	17.4	0.00e+00	0	43	0	1281359872	9	3788
2026-01-14 06:01:41.37	351.40	22.68	-24.6	-25.0	17.5	0.00e+00	0	43	0	1288699904	9	3761
2026-01-14 06:01:42.38	351.21	22.78	-24.4	-24.7	17.6	0.00e+00	0	43	0	1296039936	9	3695
2026-01-14 06:01:43.38	351.01	22.88	-24.5	-24.8	17.6	0.00e+00	0	43	0	1302331392	9	3735
2026-01-14 06:01:44.38	350.81	22.98	-24.6	-25.0	17.5	0.00e+00	0	43	0	1309671424	9	3759
2026-01-14 06:01:45.39	350.61	23.09	-24.6	-24.9	17.5	0.00e+00	0	43	0	1317011456	9	3753
2026-01-14 06:01:46.39	350.41	23.19	-24.5	-24.7	17.7	0.00e+00	0	43	0	1324351488	9	3694
2026-01-14 06:01:47.39	350.21	23.29	-24.5	-24.7	17.7	0.00e+00	0	43	0	1331691520	9	3699
2026-01-14 06:01:48.40	350.01	23.39	-24.4	-24.6	17.7	0.00e+00	0	43	0	1339031552	9	3690
2026-01-14 06:01:49.40	349.80	23.50	-24.5	-25.2	17.7	0.00e+00	0	43	0	1346371584	8	3926
2026-01-14 06:01:50.41	349.60	23.60	-24.5	-25.3	17.6	0.00e+00	0	43	0	1353711616	8	3937
2026-01-14 06:01:51.41	349.39	23.70	-24.6	-24.9	17.5	0.00e+00	0	43	0	1361051648	9	3745
2026-01-14 06:01:52.41	349.18	23.80	-24.7	-25.2	17.4	0.00e+00	0	43	0	1367343104	9	3817
2026-01-14 06:01:53.42	348.97	23.91	-24.6	-25.0	17.5	0.00e+00	0	43	0	1375731712	9	3764
2026-01-14 06:01:54.43	348.76	24.01	-24.0	-24.4	17.4	0.00e+00	0	43	0	1383071744	9	3790
2026-01-14 06:01:55.43	348.55	24.11	-24.5	-24.9	13.8	0.00e+00	0	43	0	1389363200	9	3744
2026-01-14 06:01:56.43	348.33	24.21	-24.3	-24.8	17.6	0.00e+00	0	43	0	1396703232	8	3833
2026-01-14 06:01:57.44	348.12	24.32	-24.3	-24.9	17.8	0.00e+00	0	43	0	1404043264	8	3851
2026-01-14 06:01:58.44	347.90	24.42	-24.3	-24.9	17.8	0.00e+00	0	43	0	1411383296	8	3857
2026-01-14 06:01:59.44	347.68	24.52	-24.3	-24.9	17.8	1.58e-04	0	43	0	1418723328	8	3854
2026-01-14 06:02:00.44	347.46	24.62	-24.2	-24.8	17.9	0.00e+00	0	43	0	1426063360	8	3818
2026-01-14 06:02:01.44	347.24	24.73	-24.3	-24.9	17.8	0.00e+00	0	43	0	1433403392	8	3858
2026-01-14 06:02:02.45	347.02	24.83	-24.4	-25.1	17.8	0.00e+00	0	43	0	1440743424	8	3899
2026-01-14 06:02:03.46	346.79	24.93	-24.2	-24.6	18.0	0.00e+00	0	43	0	1447034880	8	3783
2026-01-14 06:02:04.46	346.57	25.03	-24.2	-24.7	18.0	0.00e+00	0	43	0	1454374912	8	3794
2026-01-14 06:02:05.46	346.34	25.13	-24.2	-24.6	18.0	0.00e+00	0	43	0	1461714944	8	3774
2026-01-14 06:02:06.46	346.12	25.24	-24.1	-24.5	18.1	0.00e+00	0	43	0	1469054976	8	3766
2026-01-14 06:02:07.46	345.89	25.34	-24.1	-24.4	18.1	3.46e-04	0	43	0	1476395008	8	3738
2026-01-14 06:02:08.47	345.65	25.44	-24.2	-24.6	18.0	0.00e+00	0	43	0	1483735040	8	3781
2026-01-14 06:02:09.47	345.42	25.54	-24.2	-24.6	18.0	0.00e+00	0	43	0	1491075072	8	3778
2026-01-14 06:02:10.47	345.19	25.64	-24.1	-24.4	18.1	0.00e+00	0	43	0	1498415104	8	3744
2026-01-14 06:02:11.47	344.95	25.74	-24.1	-24.5	18.1	0.00e+00	0	43	0	1505755136	8	3765
2026-01-14 06:02:12.47	344.71	25.84	-24.2	-24.7	18.0	0.00e+00	0	43	0	1513095168	8	3794
2026-01-14 06:02:13.47	344.48	25.94	-24.0	-24.2	18.2	0.00e+00	0	43	0	1519386624	8	3689
2026-01-14 06:02:14.48	344.23	26.04	-24.0	-24.2	18.2	1.04e-03	0	43	0	1527775232	8	3688
2026-01-14 06:02:15.48	343.99	26.14	-24.0	-24.3	18.2	0.00e+00	0	43	0	1534066688	8	3707
2026-01-14 06:02:16.48	343.75	26.24	-24.0	-24.1	18.3	9.62e-04	0	43	0	1541406720	8	3680
2026-01-14 06:02:17.49	343.50	26.34	-23.7	-24.1	18.5	9.50e-04	0	43	0	1548746752	7	3778
2026-01-14 06:02:18.50	343.25	26.44	-23.8	-24.2	18.5	0.00e+00	0	43	0	1556086784	7	3798
2026-01-14 06:02:19.50	343.01	26.54	-23.8	-24.3	18.4	9.81e-04	0	43	0	1563426816	7	3825
2026-01-14 06:02:20.48	342.76	26.64	-23.9	-24.5	18.3	1.02e-03	0	43	0	1570766848	7	3865
2026-01-14 06:02:21.49	342.51	26.74	-23.9	-24.5	18.3	0.00e+00	0	43	0	1578106880	7	3856
2026-01-14 06:02:22.49	342.26	26.84	-24.0	-24.8	18.2	1.14e-03	0	43	0	1585446912	7	3925
2026-01-14 06:02:23.49	342.00	26.94	-24.1	-24.4	18.1	0.00e+00	0	43	0	1592786944	8	3739
2026-01-14 06:02:24.50	341.74	27.04	-24.1	-24.5	18.1	0.00e+00	0	43	0	1599078400	8	3752
2026-01-14 06:02:25.50	341.49	27.13	-24.2	-24.6	18.0	1.18e-03	0	43	0	1606418432	8	3772
2026-01-14 06:02:26.50	341.23	27.23	-24.2	-24.7	18.0	1.13e-03	0	43	0	1613758464	8	3802
2026-01-14 06:02:27.51	340.96	27.33	-24.2	-24.6	18.0	0.00e+00	0	43	0	1621098496	8	3780
2026-01-14 06:02:28.52	340.70	27.43	-24.0	-24.3	18.1	0.00e+00	0	43	0	1628438528	8	3715
2026-01-14 06:02:29.51	340.44	27.52	-23.9	-23.9	18.3	9.45e-04	0	43	0	1635778560	8	3636
2026-01-14 06:02:30.51	340.17	27.62	-23.8	-23.8	18.4	0.00e+00	0	43	0	1643118592	8	3613
2026-01-14 06:02:31.52	339.90	27.72	-23.9	-24.0	18.4	0.00e+00	0	43	0	1650458624	8	3640
2026-01-14 06:02:32.51	339.64	27.81	-23.8	-24.4	18.4	8.60e-04	0	43	0	1656750080	7	3836
2026-01-14 06:02:33.51	339.37	27.90	-23.8	-24.4	18.4	0.00e+00	0	43	0	1664090112	7	3831
2026-01-14 06:02:34.52	339.09	28.00	-24.0	-24.7	18.2	8.32e-04	0	43	0	1672478720	7	3905
2026-01-14 06:02:35.53	338.82	28.10	-24.0	-24.7	18.2	0.00e+00	0	43	0	1678770176	7	3910
2026-01-14 06:02:36.54	338.54	28.19	-24.0	-24.7	18.2	0.00e+00	0	43	0	1686110208	7	3921
2026-01-14 06:02:37.54	338.26	28.28	-24.2	-24.6	18.0	7.77e-04	0	43	0	1693450240	8	3788
2026-01-14 06:02:38.54	337.98	28.38	-24.4	-25.0	17.8	0.00e+00	0	43	0	1700790272	8	3874
2026-01-14 06:02:39.54	337.70	28.47	-24.4	-25.2	17.7	0.00e+00	0	43	0	1708130304	8	3911
2026-01-14 06:02:40.54	337.42	28.56	-24.5	-25.2	17.7	0.00e+00	0	43	0	1715470336	8	3934
2026-01-14 06:02:41.54	337.14	28.65	-24.4	-25.1	17.8	0.00e+00	0	43	0	1722810368	8	3894
2026-01-14 06:02:42.54	336.85	28.74	-24.4	-25.1	17.7	0.00e+00	0	43	0	1730150400	8	3902
2026-01-14 06:02:43.54	336.57	28.83	-24.4	-25.2	17.7	0.00e+00	0	43	0	1737490432	8	3917
2026-01-14 06:02:44.54	336.28	28.92	-24.5	-25.3	17.7	0.00e+00	0	43	0	1743781888	8	3944
2026-01-14 06:02:45.54	335.99	29.01	-24.4	-25.2	17.7	0.00e+00	0	43	0	1751121920	8	3919
2026-01-14 06:02:46.55	335.70	29.10	-24.3	-24.9	17.8	0.00e+00	0	43	0	1758461952	8	3851
2026-01-14 06:02:47.55	335.40	29.19	-24.4	-25.0	17.8	0.00e+00	0	43	0	1765801984	8	3876
2026-01-14 06:02:48.55	335.11	29.28	-24.2	-24.7	18.0	0.00e+00	0	43	0	1773142016	8	3814
2026-01-14 06:02:49.55	334.81	29.37	-23.9	-23.9	18.4	0.00e+00	0	43	0	1780482048	8	3630
2026-01-14 06:02:50.56	334.51	29.45	-23.8	-23.7	18.5	0.00e+00	0	43	0	1787822080	8	3588
2026-01-14 06:02:51.56	334.21	29.54	-23.5	-23.6	18.7	0.00e+00	0	43	0	1795162112	7	3669
2026-01-14 06:02:52.56	333.91	29.63	-23.4	-23.6	18.8	0.00e+00	0	43	0	1802502144	7	3652
2026-01-14 06:02:53.57	333.60	29.71	-23.5	-23.6	18.7	0.00e+00	0	43	0	1808793600	7	3669
2026-01-14 06:02:54.57	333.30	29.80	-23.5	-23.7	18.7	0.00e+00	0	43	0	1816133632	7	3677
2026-01-14 06:02:55.57	332.99	29.88	-23.6	-23.9	18.6	0.00e+00	0	43	0	1824522240	7	3719
2026-01-14 06:02:56.57	332.68	29.96	-23.6	-23.9	18.6	0.00e+00	0	43	0	1830813696	7	3723
2026-01-14 06:02:57.57	332.38	30.04	-23.6	-23.9	18.6	0.00e+00	0	43	0	1838153728	7	3734
2026-01-14 06:02:58.57	332.06	30.13	-23.7	-24.1	18.5	0.00e+00	0	43	0	1845493760	7	3767
2026-01-14 06:02:59.58	331.75	30.21	-23.7	-24.1	18.5	0.00e+00	0	43	0	1852833792	7	3764
2026-01-14 06:03:00.58	331.43	30.29	-23.6	-23.9	18.5	0.00e+00	0	43	0	1860173824	7	3733
2026-01-14 06:03:01.58	331.12	30.37	-23.9	-24.4	18.3	0.00e+00	0	43	0	1867513856	7	3851
2026-01-14 06:03:02.58	330.80	30.44	-23.9	-24.5	18.3	0.00e+00	0	43	0	1874853888	7	3859
2026-01-14 06:03:03.58	330.48	30.52	-23.8	-24.2	18.4	0.00e+00	0	43	0	1882193920	7	3802
2026-01-14 06:03:04.58	330.16	30.60	-23.6	-23.9	18.6	0.00e+00	0	43	0	1888485376	7	3734
2026-01-14 06:03:05.59	329.84	30.68	-23.7	-24.0	18.5	0.00e+00	0	43	0	1895825408	7	3757
2026-01-14 06:03:06.60	329.51	30.75	-23.6	-23.8	18.6	0.00e+00	0	43	0	1903165440	7	3712
2026-01-14 06:03:07.60	329.19	30.83	-23.4	-23.6	18.8	0.00e+00	0	43	0	1910505472	7	3649
2026-01-14 06:03:08.60	328.86	30.90	-23.4	-23.4	18.8	0.00e+00	0	43	0	1917845504	7	3619
2026-01-14 06:03:09.61	328.53	30.97	-23.3	-23.8	18.9	0.00e+00	0	43	0	1925185536	6	3802
2026-01-14 06:03:10.61	328.20	31.04	-23.3	-23.7	19.0	0.00e+00	0	43	0	1932525568	6	3779
2026-01-14 06:03:11.61	327.87	31.12	-23.1	-23.4	19.1	0.00e+00	0	43	0	1939865600	6	3712
2026-01-14 06:03:12.61	327.54	31.19	-23.2	-23.5	19.0	0.00e+00	0	43	0	1947205632	6	3738
2026-01-14 06:03:13.61	327.20	31.25	-23.3	-23.7	18.9	0.00e+00	0	43	0	1953497088	6	3786
2026-01-14 06:03:14.61	326.87	31.32	-23.4	-24.1	18.7	0.00e+00	0	43	0	1960837120	6	3876
2026-01-14 06:03:15.62	326.53	31.39	-23.5	-24.2	18.7	0.00e+00	0	43	0	1968177152	6	3893
2026-01-14 06:03:16.62	326.19	31.46	-23.5	-24.3	18.6	0.00e+00	0	43	0	1975517184	6	3916
2026-01-14 06:03:17.62	325.85	31.52	-23.4	-24.1	18.7	0.00e+00	0	43	0	1982857216	6	3872
2026-01-14 06:03:18.63	325.51	31.59	-23.4	-24.0	18.7	0.00e+00	0	43	0	1990197248	6	3864
2026-01-14 06:03:19.64	325.16	31.65	-23.5	-24.1	18.7	0.00e+00	0	43	0	1997537280	6	3883
2026-01-14 06:03:20.64	324.82	31.71	-23.5	-24.2	18.7	0.00e+00	0	43	0	2004877312	6	3907
2026-01-14 06:03:21.64	324.47	31.77	-23.6	-24.0	18.6	0.00e+00	0	43	0	2012217344	7	3754
2026-01-14 06:03:22.65	324.12	31.83	-23.9	-24.6	18.3	0.00e+00	0	43	0	2019557376	7	3875
2026-01-14 06:03:23.66	323.77	31.89	-23.8	-24.3	18.4	0.00e+00	0	43	0	2026897408	7	3812
2026-01-14 06:03:24.66	323.42	31.95	-23.4	-23.5	18.8	0.00e+00	0	43	0	2033188864	7	3628
2026-01-14 06:03:25.66	323.07	32.01	-23.1	-22.9	19.1	0.00e+00	0	43	0	2040528896	7	3513
2026-01-14 06:03:26.67	322.72	32.06	-23.1	-23.4	19.1	0.00e+00	0	43	0	2047868928	6	3718
2026-01-14 06:03:27.67	322.36	32.12	-23.2	-23.6	19.0	0.00e+00	0	43	0	2055208960	6	3763
2026-01-14 06:03:28.68	322.01	32.17	-23.2	-23.7	18.9	0.00e+00	0	43	0	2062548992	6	3773
2026-01-14 06:03:29.68	321.65	32.22	-23.4	-24.0	18.8	0.00e+00	0	43	0	2069889024	6	3853
2026-01-14 06:03:30.68	321.30	32.27	-23.4	-24.0	18.8	0.00e+00	0	43	0	2077229056	6	3844
2026-01-14 06:03:31.68	320.94	32.32	-23.5	-24.1	18.7	0.00e+00	0	43	0	2084569088	6	3883
2026-01-14 06:03:32.69	320.58	32.37	-23.4	-24.0	18.8	0.00e+00	0	43	0	2091909120	6	3858
2026-01-14 06:03:33.69	320.22	32.42	-23.6	-24.3	18.6	0.00e+00	0	43	0	2099249152	6	3930
2026-01-14 06:03:34.69	319.86	32.47	-23.9	-24.6	18.3	0.00e+00	0	43	0	2106589184	7	3879
2026-01-14 06:03:35.70	319.49	32.51	-23.8	-24.3	18.4	0.00e+00	0	43	0	2113929216	7	3816
2026-01-14 06:03:36.70	319.13	32.56	-23.5	-23.6	18.7	0.00e+00	0	43	0	2120220672	7	3666
2026-01-14 06:03:37.71	318.76	32.60	-23.3	-23.4	18.9	0.00e+00	0	43	0	2127560704	7	3606
2026-01-14 06:03:38.70	318.40	32.64	-23.3	-23.4	18.9	0.00e+00	0	43	0	2134900736	7	3609
2026-01-14 06:03:39.70	318.04	32.68	-23.4	-23.4	18.8	0.00e+00	0	43	0	2142240768	7	3622
2026-01-14 06:03:40.70	317.67	32.72	-23.2	-23.5	19.0	0.00e+00	0	43	0	2149580800	6	3745
2026-01-14 06:03:41.70	317.31	32.76	-23.1	-23.4	19.1	0.00e+00	0	43	0	2156920832	6	3712
2026-01-14 06:03:42.70	316.94	32.79	-23.2	-23.5	19.1	0.00e+00	0	43	0	2164260864	6	3736
2026-01-14 06:03:43.70	316.57	32.83	-23.1	-23.4	19.1	0.00e+00	0	43	0	2171600896	6	3709
2026-01-14 06:03:44.71	316.20	32.86	-22.4	-22.7	18.5	0.00e+00	0	43	0	2178940928	6	3755
2026-01-14 06:03:45.75	315.81	32.90	-23.3	-23.7	15.1	0.00e+00	0	43	0	2185232384	6	3786
2026-01-14 06:03:46.68	315.47	32.92	-23.3	-23.9	18.9	0.00e+00	0	43	0	2192572416	6	3823
2026-01-14 06:03:47.69	315.09	32.95	-23.4	-24.1	18.8	0.00e+00	0	43	0	2199912448	6	3872
2026-01-14 06:03:48.69	314.72	32.98	-23.4	-23.9	18.8	0.00e+00	0	43	0	2207252480	6	3838
2026-01-14 06:03:49.69	314.34	33.01	-23.3	-23.8	18.9	0.00e+00	0	43	0	2214592512	6	3806
2026-01-14 06:03:50.70	313.97	33.03	-23.3	-23.8	18.9	0.00e+00	0	43	0	2220883968	6	3813
2026-01-14 06:03:51.70	313.59	33.06	-23.4	-23.9	18.8	0.00e+00	0	43	0	2228224000	6	3830
2026-01-14 06:03:52.70	313.22	33.08	-22.9	-23.4	17.9	0.00e+00	0	43	0	2235564032	6	3847
2026-01-14 06:03:53.70	312.84	33.10	-23.5	-24.2	18.3	0.00e+00	0	43	0	2242904064	6	3892
2026-01-14 06:03:54.71	312.46	33.12	-23.4	-24.1	18.8	0.00e+00	0	43	0	2250244096	6	3866
2026-01-14 06:03:55.71	312.09	33.14	-23.5	-24.1	18.7	6.82e-04	0	43	0	2257584128	6	3886
2026-01-14 06:03:56.71	311.71	33.16	-23.5	-24.3	18.6	0.00e+00	0	43	0	2264924160	6	3921
2026-01-14 06:03:57.72	311.33	33.18	-23.5	-24.1	18.7	9.80e-04	0	43	0	2272264192	6	3875
2026-01-14 06:03:58.72	310.95	33.19	-23.3	-23.7	18.9	0.00e+00	0	43	0	2279604224	6	3775
2026-01-14 06:03:59.73	310.57	33.20	-23.2	-23.6	19.0	0.00e+00	0	43	0	2286944256	6	3774
2026-01-14 06:04:00.73	310.19	33.22	-23.3	-23.7	19.0	1.04e-03	0	43	0	2294284288	6	3780
2026-01-14 06:04:01.73	309.81	33.23	-23.1	-23.4	19.1	0.00e+00	0	43	0	2301624320	6	3716
2026-01-14 06:04:02.74	309.43	33.23	-23.3	-23.7	18.9	1.03e-04	0	43	0	2307915776	6	3783
2026-01-14 06:04:03.74	309.05	33.24	-23.3	-23.9	18.8	1.45e-04	0	43	0	2315255808	6	3828
2026-01-14 06:04:04.75	308.67	33.25	-23.5	-24.2	18.7	0.00e+00	0	43	0	2322595840	6	3898
2026-01-14 06:04:05.75	308.29	33.25	-23.4	-23.5	18.8	4.69e-05	0	43	0	2329935872	7	3642
2026-01-14 06:04:06.75	307.91	33.26	-23.2	-23.6	19.0	0.00e+00	0	43	0	2337275904	6	3766
2026-01-14 06:04:07.76	307.53	33.26	-23.1	-23.4	19.1	1.27e-03	0	43	0	2344615936	6	3709
2026-01-14 06:04:08.75	307.15	33.26	-23.3	-23.8	18.9	4.80e-05	0	43	0	2351955968	6	3815
2026-01-14 06:04:09.76	306.77	33.26	-23.2	-23.6	19.0	1.19e-03	0	43	0	2359296000	6	3755
2026-01-14 06:04:10.76	306.39	33.25	-23.2	-23.5	19.0	1.23e-03	0	43	0	2366636032	6	3738
2026-01-14 06:04:11.77	306.01	33.25	-23.2	-23.7	18.9	0.00e+00	0	43	0	2373976064	6	3777
2026-01-14 06:04:12.78	305.63	33.24	-23.4	-24.0	18.8	1.32e-03	0	43	0	2381316096	6	3849
2026-01-14 06:04:13.78	305.25	33.24	-23.4	-24.0	18.8	1.36e-03	0	43	0	2388656128	6	3847
2026-01-14 06:04:14.78	304.87	33.23	-23.4	-24.0	18.8	0.00e+00	0	43	0	2394947584	6	3849
2026-01-14 06:04:15.79	304.49	33.22	-23.2	-23.6	19.0	1.17e-03	0	43	0	2402287616	6	3756
2026-01-14 06:04:16.79	304.11	33.21	-23.1	-23.3	19.1	0.00e+00	0	43	0	2409627648	6	3691
2026-01-14 06:04:17.79	303.73	33.20	-23.0	-23.2	19.2	0.00e+00	0	43	0	2416967680	6	3676
2026-01-14 06:04:18.80	303.35	33.18	-23.0	-23.3	19.2	1.01e-03	0	43	0	2424307712	6	3686
2026-01-14 06:04:19.81	302.97	33.17	-23.1	-23.4	19.1	1.10e-03	0	43	0	2431647744	6	3727
2026-01-14 06:04:20.81	302.59	33.15	-23.1	-23.4	19.1	0.00e+00	0	43	0	2438987776	6	3715
2026-01-14 06:04:21.80	302.22	33.13	-23.1	-23.5	19.0	0.00e+00	0	43	0	2446327808	6	3736
2026-01-14 06:04:22.81	301.84	33.11	-23.0	-23.3	19.1	7.27e-04	0	43	0	2453667840	6	3687
2026-01-14 06:04:23.80	301.47	33.09	-23.0	-23.2	19.2	1.10e-06	0	43	0	2459959296	6	3669
2026-01-14 06:04:24.81	301.09	33.07	-22.9	-23.0	19.2	0.00e+00	0	43	0	2468347904	6	3638
2026-01-14 06:04:25.82	300.71	33.04	-23.1	-23.3	19.1	7.13e-04	0	43	0	2474639360	6	3698
2026-01-14 06:04:26.82	300.33	33.02	-23.1	-23.3	19.1	0.00e+00	0	43	0	2481979392	6	3704
2026-01-14 06:04:27.82	299.96	32.99	-23.1	-23.4	19.0	9.84e-04	0	43	0	2489319424	6	3728
2026-01-14 06:04:28.83	299.58	32.96	-23.0	-23.2	19.2	0.00e+00	0	43	0	2496659456	6	3668
2026-01-14 06:04:29.83	299.21	32.93	-23.0	-23.1	19.1	0.00e+00	0	43	0	2503999488	6	3661
2026-01-14 06:04:30.83	298.84	32.90	-23.2	-23.5	19.0	9.66e-04	0	43	0	2511339520	6	3739
2026-01-14 06:04:31.84	298.47	32.87	-23.1	-23.5	19.0	0.00e+00	0	43	0	2518679552	6	3737
2026-01-14 06:04:32.84	298.10	32.84	-23.1	-23.4	19.1	0.00e+00	0	43	0	2526019584	6	3713
2026-01-14 06:04:33.84	297.73	32.80	-23.1	-23.4	19.0	0.00e+00	0	43	0	2533359616	6	3727
2026-01-14 06:04:34.84	297.36	32.77	-23.3	-23.8	18.8	0.00e+00	0	43	0	2539651072	6	3813
2026-01-14 06:04:35.85	296.99	32.73	-23.1	-23.4	19.0	0.00e+00	0	43	0	2546991104	6	3727
2026-01-14 06:04:36.85	296.62	32.69	-23.0	-23.2	19.1	0.00e+00	0	43	0	2554331136	6	3676
2026-01-14 06:04:37.86	296.25	32.65	-23.1	-23.3	19.1	0.00e+00	0	43	0	2561671168	6	3705
2026-01-14 06:04:38.86	295.88	32.61	-22.9	-23.0	19.2	0.00e+00	0	43	0	2569011200	6	3642
2026-01-14 06:04:39.87	295.52	32.57	-22.9	-22.9	19.3	0.00e+00	0	43	0	2576351232	6	3611
2026-01-14 06:04:40.87	295.15	32.53	-23.1	-23.3	19.1	0.00e+00	0	43	0	2583691264	6	3697
2026-01-14 06:04:41.88	294.79	32.48	-23.2	-23.5	19.0	0.00e+00	0	43	0	2591031296	6	3736
2026-01-14 06:04:42.89	294.42	32.43	-23.3	-23.8	18.8	0.00e+00	0	43	0	2598371328	6	3820
2026-01-14 06:04:43.89	294.06	32.39	-23.3	-23.7	18.9	0.00e+00	0	43	0	2605711360	6	3782
2026-01-14 06:04:44.89	293.70	32.34	-23.4	-24.0	18.7	0.00e+00	0	43	0	2613051392	6	3853
2026-01-14 06:04:45.90	293.34	32.29	-23.2	-23.6	18.9	0.00e+00	0	43	0	2619342848	6	3767
2026-01-14 06:04:46.90	292.99	32.24	-23.1	-23.4	19.0	0.00e+00	0	43	0	2626682880	6	3725
2026-01-14 06:04:47.90	292.63	32.19	-23.2	-23.5	19.0	0.00e+00	0	43	0	2634022912	6	3749
2026-01-14 06:04:48.91	292.27	32.13	-23.0	-23.2	19.1	0.00e+00	0	43	0	2641362944	6	3678
2026-01-14 06:04:49.92	291.91	32.08	-23.1	-23.4	19.0	0.00e+00	0	43	0	2648702976	6	3725
2026-01-14 06:04:50.92	291.56	32.02	-23.3	-23.8	18.8	0.00e+00	0	43	0	2656043008	6	3809
2026-01-14 06:04:51.92	291.21	31.97	-23.3	-23.8	18.8	0.00e+00	0	43	0	2663383040	6	3816
2026-01-14 06:04:52.93	290.86	31.91	-23.4	-23.9	18.7	0.00e+00	0	43	0	2670723072	6	3831
2026-01-14 06:04:53.93	290.51	31.85	-23.4	-24.0	18.6	0.00e+00	0	43	0	2678063104	6	3848
2026-01-14 06:04:54.93	290.16	31.79	-23.6	-24.0	18.5	0.00e+00	0	43	0	2685403136	7	3741
2026-01-14 06:04:55.93	289.82	31.73	-23.8	-24.3	18.4	0.00e+00	0	43	0	2692743168	7	3829
2026-01-14 06:04:56.94	289.47	31.67	-23.9	-24.5	18.2	0.00e+00	0	43	0	2700083200	7	3861
2026-01-14 06:04:57.94	289.12	31.60	-23.6	-23.9	18.5	0.00e+00	0	43	0	2706374656	7	3733
2026-01-14 06:04:58.95	288.78	31.54	-23.6	-23.8	18.5	0.00e+00	0	43	0	2713714688	7	3717
2026-01-14 06:04:59.95	288.44	31.47	-23.6	-23.8	18.6	0.00e+00	0	43	0	2721054720	7	3703
2026-01-14 06:05:00.95	288.10	31.41	-23.7	-24.1	18.4	0.00e+00	0	43	0	2728394752	7	3784
2026-01-14 06:05:01.96	287.76	31.34	-23.6	-23.9	18.5	0.00e+00	0	43	0	2735734784	7	3721
2026-01-14 06:05:02.96	287.42	31.27	-24.0	-24.7	18.1	0.00e+00	0	43	0	2743074816	7	3907
2026-01-14 06:05:03.96	287.09	31.20	-23.6	-23.9	18.5	0.00e+00	0	43	0	2750414848	7	3731
2026-01-14 06:05:04.97	286.75	31.13	-23.3	-23.3	18.8	0.00e+00	0	43	0	2757754880	7	3590
2026-01-14 06:05:05.98	286.41	31.06	-23.1	-22.9	19.0	0.00e+00	0	43	0	2765094912	7	3510
2026-01-14 06:05:06.98	286.08	30.99	-23.0	-23.2	19.1	0.00e+00	0	43	0	2772434944	6	3687
2026-01-14 06:05:07.98	285.75	30.92	-23.1	-23.3	19.0	0.00e+00	0	43	0	2779774976	6	3706
2026-01-14 06:05:08.98	285.43	30.84	-23.2	-23.7	18.9	0.00e+00	0	43	0	2787115008	6	3777
2026-01-14 06:05:09.99	285.10	30.77	-23.1	-23.3	19.0	0.00e+00	0	43	0	2793406464	6	3702
2026-01-14 06:05:10.99	284.77	30.69	-23.1	-23.4	19.0	0.00e+00	0	43	0	2800746496	6	3732
2026-01-14 06:05:11.99	284.45	30.62	-23.2	-23.6	18.9	0.00e+00	0	43	0	2808086528	6	3770
2026-01-14 06:05:12.99	284.13	30.54	-23.3	-23.8	18.8	0.00e+00	0	43	0	2815426560	6	3808
2026-01-14 06:05:13.99	283.81	30.46	-23.3	-23.8	18.8	0.00e+00	0	43	0	2822766592	6	3809
2026-01-14 06:05:14.99	283.49	30.38	-23.5	-24.1	18.6	0.00e+00	0	43	0	2830106624	6	3882
2026-01-14 06:05:15.99	283.17	30.30	-23.3	-23.7	18.8	0.00e+00	0	43	0	2837446656	6	3788
2026-01-14 06:05:17.00	282.85	30.22	-23.0	-23.1	19.0	0.00e+00	0	43	0	2844786688	6	3659
2026-01-14 06:05:18.00	282.54	30.14	-23.1	-23.4	19.0	0.00e+00	0	43	0	2851078144	6	3715
2026-01-14 06:05:19.00	282.23	30.06	-23.1	-23.4	19.0	0.00e+00	0	43	0	2858418176	6	3718
2026-01-14 06:05:20.01	281.91	29.98	-23.2	-23.5	18.9	0.00e+00	0	43	0	2865758208	6	3745
2026-01-14 06:05:21.01	281.60	29.90	-23.2	-23.7	18.8	0.00e+00	0	43	0	2873098240	6	3781
2026-01-14 06:05:22.02	281.29	29.81	-23.3	-23.8	18.8	0.00e+00	0	43	0	2880438272	6	3801
2026-01-14 06:05:23.01	280.99	29.73	-23.3	-23.9	18.7	0.00e+00	0	43	0	2887778304	6	3832
2026-01-14 06:05:24.02	280.68	29.64	-23.4	-24.1	18.6	0.00e+00	0	43	0	2895118336	6	3876
2026-01-14 06:05:25.02	280.38	29.56	-23.5	-24.3	18.5	0.00e+00	0	43	0	2902458368	6	3922
2026-01-14 06:05:26.03	280.08	29.47	-23.5	-24.3	18.5	0.00e+00	0	43	0	2909798400	6	3928
2026-01-14 06:05:27.03	279.78	29.38	-23.7	-24.0	18.4	0.00e+00	0	43	0	2917138432	7	3757
2026-01-14 06:05:28.03	279.48	29.30	-23.9	-24.5	18.2	0.00e+00	0	43	0	2924478464	7	3856
2026-01-14 06:05:29.03	279.18	29.21	-23.6	-24.0	18.4	0.00e+00	0	43	0	2931818496	7	3743
2026-01-14 06:05:30.03	278.89	29.12	-23.5	-23.6	18.6	0.00e+00	0	43	0	2938109952	7	3669
2026-01-14 06:05:31.04	278.59	29.03	-23.4	-23.6	18.6	0.00e+00	0	43	0	2945449984	7	3663
2026-01-14 06:05:32.05	278.30	28.94	-23.6	-23.9	18.4	0.00e+00	0	43	0	2952790016	7	3727
2026-01-14 06:05:33.05	278.01	28.85	-23.3	-23.5	18.5	0.00e+00	0	43	0	2960130048	7	3688
2026-01-14 06:05:34.05	277.72	28.76	-23.5	-23.8	13.4	0.00e+00	0	43	0	2967470080	7	3755
2026-01-14 06:05:35.05	277.43	28.67	-23.4	-23.6	18.5	0.00e+00	0	43	0	2974810112	7	3660
2026-01-14 06:05:36.05	277.15	28.57	-23.3	-23.8	18.6	0.00e+00	0	43	0	2982150144	6	3813
2026-01-14 06:05:37.05	276.87	28.48	-23.3	-23.8	18.6	0.00e+00	0	43	0	2989490176	6	3819
2026-01-14 06:05:38.06	276.58	28.39	-23.3	-23.8	18.7	0.00e+00	0	43	0	2996830208	6	3813
2026-01-14 06:05:39.06	276.30	28.30	-23.4	-24.1	18.6	0.00e+00	0	43	0	3004170240	6	3875
2026-01-14 06:05:40.07	276.02	28.20	-23.5	-24.2	18.5	8.12e-04	0	43	0	3011510272	6	3905
2026-01-14 06:05:41.07	275.74	28.11	-23.3	-23.9	18.6	0.00e+00	0	43	0	3017801728	6	3827
2026-01-14 06:05:42.07	275.47	28.01	-23.3	-23.8	18.7	0.00e+00	0	43	0	3025141760	6	3805
2026-01-14 06:05:43.07	275.20	27.92	-23.3	-23.8	18.6	3.43e-05	0	43	0	3032481792	6	3817
2026-01-14 06:05:44.07	274.93	27.82	-23.1	-23.5	18.8	0.00e+00	0	43	0	3039821824	6	3733
2026-01-14 06:05:45.07	274.66	27.73	-23.1	-23.4	18.9	2.35e-04	0	43	0	3047161856	6	3718
2026-01-14 06:05:46.07	274.39	27.63	-23.2	-23.6	18.7	3.05e-04	0	43	0	3054501888	6	3759
2026-01-14 06:05:47.08	274.12	27.53	-23.1	-23.5	18.8	0.00e+00	0	43	0	3061841920	6	3736
2026-01-14 06:05:48.08	273.85	27.44	-23.4	-23.9	18.5	2.47e-04	0	43	0	3069181952	6	3827
2026-01-14 06:05:49.08	273.59	27.34	-23.3	-23.8	18.6	0.00e+00	0	43	0	3076521984	6	3819
2026-01-14 06:05:50.09	273.32	27.24	-23.7	-24.1	18.3	0.00e+00	0	43	0	3082813440	7	3769
2026-01-14 06:05:51.09	273.06	27.14	-23.5	-23.8	18.5	1.77e-04	0	43	0	3090153472	7	3704
2026-01-14 06:05:52.10	272.80	27.04	-23.5	-23.8	18.4	0.00e+00	0	43	0	3097493504	7	3715
2026-01-14 06:05:53.10	272.55	26.95	-23.6	-24.0	18.3	0.00e+00	0	43	0	3104833536	7	3755
2026-01-14 06:05:54.10	272.29	26.85	-23.5	-23.8	18.4	6.77e-04	0	43	0	3112173568	7	3699
2026-01-14 06:05:55.11	272.03	26.75	-23.6	-23.9	18.3	8.08e-04	0	43	0	3119513600	7	3741
2026-01-14 06:05:56.12	271.78	26.65	-23.7	-24.2	18.2	0.00e+00	0	43	0	3126853632	7	3797
2026-01-14 06:05:57.12	271.53	26.55	-23.5	-23.8	18.4	1.07e-03	0	43	0	3134193664	7	3702
2026-01-14 06:05:58.12	271.28	26.45	-23.4	-23.4	18.6	1.05e-03	0	43	0	3141533696	7	3632
2026-01-14 06:05:59.12	271.03	26.35	-23.5	-23.7	18.5	0.00e+00	0	43	0	3148873728	7	3689
2026-01-14 06:06:00.13	270.78	26.25	-23.5	-23.7	18.4	4.86e-04	0	43	0	3156213760	7	3692
2026-01-14 06:06:01.13	270.54	26.15	-23.3	-23.3	18.6	1.02e-05	0	43	0	3163553792	7	3606
2026-01-14 06:06:02.14	270.29	26.05	-23.3	-23.3	18.6	0.00e+00	0	43	0	3169845248	7	3602
2026-01-14 06:06:03.14	270.05	25.95	-23.3	-23.3	18.7	1.44e-04	0	43	0	3177185280	7	3589
2026-01-14 06:06:04.14	269.81	25.84	-23.4	-23.4	18.6	0.00e+00	0	43	0	3184525312	7	3625
2026-01-14 06:06:05.14	269.57	25.74	-23.4	-23.5	18.5	0.00e+00	0	43	0	3191865344	7	3638
2026-01-14 06:06:06.15	269.33	25.64	-23.5	-23.8	18.4	1.00e-03	0	43	0	3199205376	7	3702
2026-01-14 06:06:07.16	269.10	25.54	-23.6	-24.0	18.3	0.00e+00	0	43	0	3206545408	7	3754
2026-01-14 06:06:08.16	268.86	25.44	-23.8	-24.4	18.0	0.00e+00	0	43	0	3213885440	7	3854
2026-01-14 06:06:09.16	268.63	25.34	-23.8	-24.3	18.1	0.00e+00	0	43	0	3221225472	7	3819
2026-01-14 06:06:10.16	268.40	25.23	-23.9	-24.6	18.0	0.00e+00	0	43	0	3228565504	7	3894
2026-01-14 06:06:11.16	268.17	25.13	-23.7	-24.2	18.2	0.00e+00	0	43	0	3235905536	7	3792
2026-01-14 06:06:12.16	267.94	25.03	-23.6	-24.0	18.3	0.00e+00	0	43	0	3243245568	7	3757
2026-01-14 06:06:13.17	267.71	24.93	-23.6	-23.9	18.3	1.10e-03	0	43	0	3249537024	7	3727
2026-01-14 06:06:14.17	267.49	24.83	-23.6	-23.9	18.3	0.00e+00	0	43	0	3256877056	7	3734
2026-01-14 06:06:15.17	267.27	24.72	-23.5	-23.7	18.4	0.00e+00	0	43	0	3264217088	7	3674
2026-01-14 06:06:16.18	267.04	24.62	-23.5	-23.8	18.4	0.00e+00	0	43	0	3271557120	7	3706
2026-01-14 06:06:17.18	266.82	24.52	-23.4	-23.6	18.5	1.10e-06	0	43	0	3278897152	7	3654
2026-01-14 06:06:18.18	266.60	24.42	-23.5	-23.7	18.4	0.00e+00	0	43	0	3286237184	7	3689
2026-01-14 06:06:19.19	266.38	24.31	-23.6	-23.8	18.4	0.00e+00	0	43	0	3293577216	7	3715
2026-01-14 06:06:20.19	266.17	24.21	-23.6	-24.0	18.3	1.10e-06	0	43	0	3300917248	7	3745
2026-01-14 06:06:21.20	265.95	24.11	-23.7	-24.1	18.2	0.00e+00	0	43	0	3308257280	7	3783
2026-01-14 06:06:22.20	265.74	24.00	-23.8	-24.3	18.1	0.00e+00	0	43	0	3314548736	7	3820
2026-01-14 06:06:23.21	265.52	23.90	-23.9	-24.5	18.0	0.00e+00	0	43	0	3322937344	7	3880
2026-01-14 06:06:24.22	265.31	23.80	-23.8	-24.4	18.0	0.00e+00	0	43	0	3330277376	7	3842
2026-01-14 06:06:25.22	265.10	23.69	-23.8	-24.4	18.0	0.00e+00	0	43	0	3336568832	7	3856
2026-01-14 06:06:26.22	264.89	23.59	-23.8	-24.4	18.0	0.00e+00	0	43	0	3343908864	7	3842
2026-01-14 06:06:27.23	264.69	23.49	-23.9	-24.5	18.0	0.00e+00	0	43	0	3351248896	7	3871
2026-01-14 06:06:28.24	264.48	23.38	-23.9	-24.4	18.0	0.00e+00	0	43	0	3358588928	7	3857
2026-01-14 06:06:29.24	264.28	23.28	-24.0	-24.7	17.9	0.00e+00	0	43	0	3365928960	7	3911
2026-01-14 06:06:30.25	264.07	23.18	-23.7	-24.2	18.1	0.00e+00	0	43	0	3373268992	7	3791
2026-01-14 06:06:31.26	263.87	23.07	-23.7	-24.1	18.1	0.00e+00	0	43	0	3380609024	7	3787
2026-01-14 06:06:32.26	263.67	22.97	-23.7	-24.1	18.2	0.00e+00	0	43	0	3387949056	7	3770
2026-01-14 06:06:33.27	263.47	22.87	-23.7	-24.2	18.1	0.00e+00	0	43	0	3395289088	7	3794
2026-01-14 06:06:34.27	263.27	22.77	-23.6	-23.9	18.2	0.00e+00	0	43	0	3402629120	7	3745
2026-01-14 06:06:35.27	263.08	22.66	-23.7	-24.1	18.1	0.00e+00	0	43	0	3409969152	7	3785
2026-01-14 06:06:36.27	262.88	22.56	-23.6	-24.0	18.2	0.00e+00	0	43	0	3417309184	7	3753
2026-01-14 06:06:37.28	262.69	22.46	-23.7	-24.1	18.1	0.00e+00	0	43	0	3423600640	7	3789
2026-01-14 06:06:38.29	262.49	22.35	-23.8	-24.3	18.0	0.00e+00	0	43	0	3430940672	7	3831
2026-01-14 06:06:39.29	262.30	22.25	-23.7	-24.2	18.1	0.00e+00	0	43	0	3438280704	7	3804
2026-01-14 06:06:40.29	262.11	22.15	-23.7	-24.1	18.1	0.00e+00	0	43	0	3445620736	7	3776
2026-01-14 06:06:41.29	261.93	22.05	-23.7	-24.1	18.1	0.00e+00	0	43	0	3452960768	7	3775
2026-01-14 06:06:42.29	261.74	21.95	-23.7	-24.1	18.1	0.00e+00	0	43	0	3460300800	7	3777
2026-01-14 06:06:43.30	261.55	21.84	-23.7	-24.1	18.1	0.00e+00	0	43	0	3467640832	7	3787
2026-01-14 06:06:44.30	261.37	21.74	-23.8	-24.3	18.0	0.00e+00	0	43	0	3474980864	7	3827
2026-01-14 06:06:45.31	261.18	21.64	-23.7	-24.1	18.1	0.00e+00	0	43	0	3481272320	7	3784
2026-01-14 06:06:46.30	261.00	21.54	-23.8	-24.3	18.0	0.00e+00	0	43	0	3488612352	7	3812
2026-01-14 06:06:47.31	260.82	21.44	-23.8	-24.4	18.0	0.00e+00	0	43	0	3495952384	7	3844
2026-01-14 06:06:48.30	260.64	21.33	-23.8	-24.4	17.9	0.00e+00	0	43	0	3503292416	7	3859
2026-01-14 06:06:49.31	260.46	21.23	-24.0	-24.8	17.7	0.00e+00	0	43	0	3510632448	7	3937
2026-01-14 06:06:50.31	260.29	21.13	-23.9	-24.6	17.8	0.00e+00	0	43	0	3517972480	7	3902
2026-01-14 06:06:51.32	260.11	21.03	-23.9	-24.7	17.8	0.00e+00	0	43	0	3525312512	7	3915
2026-01-14 06:06:52.31	259.94	20.93	-23.9	-24.6	17.8	0.00e+00	0	43	0	3532652544	7	3902
2026-01-14 06:06:53.31	259.76	20.83	-23.9	-24.6	17.8	0.00e+00	0	43	0	3539992576	7	3894
2026-01-14 06:06:54.32	259.59	20.73	-24.0	-24.7	17.8	0.00e+00	0	43	0	3547332608	7	3908
2026-01-14 06:06:55.32	259.42	20.63	-23.9	-24.5	17.8	0.00e+00	0	43	0	3554672640	7	3883
2026-01-14 06:06:56.33	259.25	20.52	-24.0	-24.7	17.8	0.00e+00	0	43	0	3562012672	7	3915
2026-01-14 06:06:57.34	259.07	20.42	-23.9	-24.5	17.9	0.00e+00	0	43	0	3568304128	7	3870
2026-01-14 06:06:58.35	258.90	20.32	-23.9	-24.6	17.8	0.00e+00	0	43	0	3575644160	7	3900
2026-01-14 06:06:59.35	258.74	20.22	-24.0	-24.8	17.7	0.00e+00	0	43	0	3582984192	7	3941
2026-01-14 06:07:00.35	258.57	20.12	-24.0	-24.8	17.6	0.00e+00	0	43	0	3590324224	7	3953
2026-01-14 06:07:01.34	258.41	20.02	-24.3	-24.9	17.4	0.00e+00	0	43	0	3597664256	8	3866
2026-01-14 06:07:02.35	258.24	19.92	-24.4	-25.1	17.3	0.00e+00	0	43	0	3605004288	8	3905
2026-01-14 06:07:03.36	258.08	19.82	-24.4	-25.1	17.3	0.00e+00	0	43	0	3612344320	8	3906
2026-01-14 06:07:04.36	257.92	19.72	-24.4	-25.2	17.2	0.00e+00	0	43	0	3619684352	8	3928
2026-01-14 06:07:05.37	257.76	19.62	-24.3	-24.9	17.4	0.00e+00	0	43	0	3627024384	8	3857
2026-01-14 06:07:06.37	257.60	19.52	-24.3	-25.0	17.4	0.00e+00	0	43	0	3634364416	8	3883
2026-01-14 06:07:07.37	257.44	19.43	-24.2	-24.9	17.4	0.00e+00	0	43	0	3641704448	8	3893
2026-01-14 06:07:08.38	257.28	19.33	-23.7	-24.3	12.8	0.00e+00	0	43	0	3647995904	8	3867
2026-01-14 06:07:09.39	257.12	19.23	-24.4	-25.1	14.8	0.00e+00	0	43	0	3655335936	8	3906
2026-01-14 06:07:10.39	256.97	19.13	-24.3	-24.9	17.4	0.00e+00	0	43	0	3662675968	8	3849
2026-01-14 06:07:11.39	256.81	19.03	-24.3	-25.0	17.3	0.00e+00	0	43	0	3670016000	8	3875
2026-01-14 06:07:12.39	256.66	18.93	-24.5	-25.3	17.2	0.00e+00	0	43	0	3677356032	8	3949
2026-01-14 06:07:13.39	256.51	18.83	-24.5	-25.4	17.1	2.20e-04	0	43	0	3684696064	8	3973
2026-01-14 06:07:14.40	256.36	18.74	-24.7	-25.3	17.0	0.00e+00	0	43	0	3692036096	9	3843
2026-01-14 06:07:15.40	256.21	18.64	-24.8	-25.5	16.8	0.00e+00	0	43	0	3699376128	9	3887
2026-01-14 06:07:16.41	256.06	18.54	-24.6	-25.1	17.0	4.50e-06	0	43	0	3706716160	9	3808
2026-01-14 06:07:17.41	255.91	18.44	-24.6	-25.0	17.0	0.00e+00	0	43	0	3714056192	9	3789
2026-01-14 06:07:18.41	255.76	18.35	-24.6	-25.2	17.0	1.13e-03	0	43	0	3721396224	9	3815
2026-01-14 06:07:19.41	255.61	18.25	-24.7	-25.3	16.9	1.10e-06	0	43	0	3728736256	9	3849
2026-01-14 06:07:20.42	255.47	18.15	-24.6	-25.1	17.0	9.43e-04	0	43	0	3735027712	9	3808
2026-01-14 06:07:21.42	255.32	18.06	-24.7	-25.2	16.9	1.04e-03	0	43	0	3742367744	9	3829
2026-01-14 06:07:22.43	255.18	17.96	-24.7	-25.3	16.9	2.20e-06	0	43	0	3749707776	9	3845
2026-01-14 06:07:23.43	255.04	17.86	-24.9	-25.6	16.7	1.26e-03	0	43	0	3757047808	9	3923
2026-01-14 06:07:24.44	254.89	17.77	-25.0	-25.9	16.6	0.00e+00	0	43	0	3764387840	9	3996
2026-01-14 06:07:25.44	254.75	17.67	-25.0	-25.9	16.6	1.21e-04	0	43	0	3771727872	9	3992
2026-01-14 06:07:26.45	254.61	17.57	-25.1	-26.1	16.5	1.68e-03	0	43	0	3779067904	9	4043
2026-01-14 06:07:27.45	254.47	17.48	-25.3	-26.0	16.3	1.69e-03	0	43	0	3786407936	10	3909
2026-01-14 06:07:28.45	254.33	17.38	-25.3	-26.0	16.2	3.84e-04	0	43	0	3793747968	10	3927
2026-01-14 06:07:29.46	254.20	17.29	-25.2	-25.8	16.3	0.00e+00	0	43	0	3801088000	10	3866
2026-01-14 06:07:30.46	254.06	17.19	-25.2	-25.9	16.3	1.97e-03	0	43	0	3808428032	10	3901
2026-01-14 06:07:31.46	253.92	17.10	-25.2	-25.8	16.4	8.27e-04	0	43	0	3815768064	10	3856
2026-01-14 06:07:32.46	253.79	17.01	-25.0	-25.3	16.5	2.04e-03	0	43	0	3822059520	10	3755
2026-01-14 06:07:33.47	253.65	16.91	-24.9	-25.7	16.6	2.04e-03	0	43	0	3829399552	9	3939
2026-01-14 06:07:34.47	253.52	16.82	-24.8	-25.5	16.7	0.00e+00	0	43	0	3836739584	9	3906
2026-01-14 06:07:35.48	253.39	16.72	-24.8	-25.4	16.8	1.95e-03	0	43	0	3844079616	9	3875
2026-01-14 06:07:36.48	253.26	16.63	-24.7	-25.3	16.8	2.04e-03	0	43	0	3851419648	9	3841
2026-01-14 06:07:37.48	253.13	16.54	-24.8	-25.5	16.7	0.00e+00	0	43	0	3858759680	9	3898
2026-01-14 06:07:38.49	253.00	16.44	-24.9	-25.7	16.6	1.98e-03	0	43	0	3866099712	9	3946
2026-01-14 06:07:39.50	252.87	16.35	-24.8	-25.5	16.7	0.00e+00	0	43	0	3873439744	9	3892
2026-01-14 06:07:40.50	252.74	16.26	-24.8	-25.6	16.7	6.90e-04	0	43	0	3879731200	9	3917
2026-01-14 06:07:41.50	252.61	16.16	-25.0	-25.8	16.5	1.82e-03	0	43	0	3887071232	9	3975
2026-01-14 06:07:42.50	252.48	16.07	-25.0	-26.0	16.4	0.00e+00	0	43	0	3894411264	9	4012
2026-01-14 06:07:43.51	252.36	15.98	-25.2	-25.9	16.2	3.17e-04	0	43	0	3901751296	10	3899
2026-01-14 06:07:44.51	252.23	15.89	-25.4	-26.2	16.1	0.00e+00	0	43	0	3909091328	10	3959
2026-01-14 06:07:45.52	252.11	15.79	-25.5	-26.5	15.9	1.21e-03	0	43	0	3916431360	10	4032
2026-01-14 06:07:46.51	251.99	15.70	-25.6	-26.1	15.8	0.00e+00	0	43	0	3923771392	11	3843
2026-01-14 06:07:47.52	251.86	15.61	-25.6	-26.1	15.9	0.00e+00	0	43	0	3931111424	11	3840
2026-01-14 06:07:48.52	251.74	15.52	-25.6	-26.3	15.7	2.13e-03	0	43	0	3938451456	11	3893
2026-01-14 06:07:49.52	251.62	15.43	-25.8	-26.6	15.5	0.00e+00	0	43	0	3945791488	11	3970
2026-01-14 06:07:50.52	251.50	15.34	-25.8	-26.7	15.5	0.00e+00	0	43	0	3953131520	11	3975
2026-01-14 06:07:51.53	251.38	15.25	-25.8	-26.6	15.5	0.00e+00	0	43	0	3960471552	11	3965
2026-01-14 06:07:52.53	251.26	15.16	-25.8	-26.6	15.4	0.00e+00	0	43	0	3966763008	11	3949
2026-01-14 06:07:53.54	251.14	15.07	-25.6	-26.3	15.7	0.00e+00	0	43	0	3974103040	11	3888
2026-01-14 06:07:54.54	251.02	14.98	-25.7	-26.4	15.6	0.00e+00	0	43	0	3981443072	11	3919
2026-01-14 06:07:55.54	250.91	14.89	-25.7	-26.3	15.6	0.00e+00	0	43	0	3988783104	11	3900
2026-01-14 06:07:56.54	250.79	14.80	-25.5	-26.5	15.8	0.00e+00	0	43	0	3996123136	10	4040
2026-01-14 06:07:57.54	250.68	14.71	-25.4	-26.3	15.9	0.00e+00	0	43	0	4003463168	10	3998
2026-01-14 06:07:58.54	250.56	14.62	-25.2	-25.9	16.1	0.00e+00	0	43	0	4010803200	10	3901
2026-01-14 06:07:59.55	250.45	14.53	-25.2	-25.8	16.2	0.00e+00	0	43	0	4018143232	10	3857
2026-01-14 06:08:00.55	250.33	14.44	-25.1	-25.7	16.2	0.00e+00	0	43	0	4024434688	10	3849
2026-01-14 06:08:01.56	250.22	14.35	-25.3	-26.1	16.0	0.00e+00	0	43	0	4032823296	10	3940
2026-01-14 06:08:02.56	250.11	14.27	-25.4	-26.4	15.8	0.00e+00	0	43	0	4040163328	10	4007
2026-01-14 06:08:03.56	250.00	14.18	-25.6	-26.1	15.7	0.00e+00	0	43	0	4046454784	11	3846
2026-01-14 06:08:04.56	249.89	14.09	-25.5	-26.5	15.8	0.00e+00	0	43	0	4053794816	10	4044
2026-01-14 06:08:05.56	249.78	14.00	-25.6	-26.3	15.6	0.00e+00	0	43	0	4061134848	11	3879
2026-01-14 06:08:06.56	249.67	13.92	-25.8	-26.6	15.4	0.00e+00	0	43	0	4068474880	11	3961
2026-01-14 06:08:07.56	249.56	13.83	-25.8	-26.7	15.4	0.00e+00	0	43	0	4075814912	11	3984
2026-01-14 06:08:08.56	249.45	13.74	-25.8	-26.8	15.3	0.00e+00	0	43	0	4083154944	11	4004
2026-01-14 06:08:09.56	249.35	13.66	-25.9	-26.9	15.3	0.00e+00	0	43	0	4090494976	11	4034
2026-01-14 06:08:10.57	249.24	13.57	-25.8	-26.6	15.5	0.00e+00	0	43	0	4097835008	11	3948
2026-01-14 06:08:11.57	249.13	13.48	-25.8	-26.6	15.4	0.00e+00	0	43	0	4105175040	11	3949
2026-01-14 06:08:12.57	249.03	13.40	-25.8	-26.6	15.4	0.00e+00	0	43	0	4111466496	11	3968
2026-01-14 06:08:13.57	248.92	13.31	-25.8	-26.7	15.3	0.00e+00	0	43	0	4118806528	11	3973
2026-01-14 06:08:14.57	248.82	13.23	-25.8	-26.7	15.3	0.00e+00	0	43	0	4126146560	11	3994
2026-01-14 06:08:15.58	248.72	13.14	-25.9	-26.9	15.2	1.10e-06	0	43	0	4133486592	11	4024
2026-01-14 06:08:16.58	248.61	13.06	-26.0	-27.1	15.1	0.00e+00	0	43	0	4140826624	11	4072
2026-01-14 06:08:17.58	248.51	12.97	-25.9	-26.8	15.3	0.00e+00	0	43	0	4148166656	11	4013
2026-01-14 06:08:18.58	248.41	12.89	-25.9	-27.0	15.2	1.10e-06	0	43	0	4155506688	11	4053
2026-01-14 06:08:19.58	248.31	12.80	-26.0	-26.7	15.0	1.10e-06	0	43	0	4162846720	12	3884
2026-01-14 06:08:20.58	248.21	12.72	-26.1	-27.3	15.0	0.00e+00	0	43	0	4170186752	11	4144
2026-01-14 06:08:21.59	248.11	12.63	-26.1	-26.8	14.9	1.10e-06	0	43	0	4176478208	12	3904
2026-01-14 06:08:22.58	248.01	12.55	-26.2	-27.1	14.7	0.00e+00	0	43	0	4183818240	12	4000
2026-01-14 06:08:23.59	247.91	12.46	-26.4	-27.4	14.5	0.00e+00	0	43	0	4191158272	12	4071
2026-01-14 06:08:24.59	247.81	12.38	-26.4	-27.5	14.5	1.10e-06	0	43	0	4198498304	12	4083
2026-01-14 06:08:25.59	247.71	12.30	-26.4	-27.5	14.5	0.00e+00	0	43	0	4205838336	12	4098
2026-01-14 06:08:26.59	247.62	12.22	-26.4	-27.5	14.5	1.10e-06	0	43	0	4213178368	12	4098
2026-01-14 06:08:27.60	247.52	12.13	-26.3	-27.4	14.6	0.00e+00	0	43	0	4220518400	12	4056
2026-01-14 06:08:28.59	247.43	12.05	-26.3	-27.3	14.6	0.00e+00	0	43	0	4227858432	12	4032
2026-01-14 06:08:29.59	247.33	11.97	-26.3	-27.3	14.6	0.00e+00	0	43	0	4234149888	12	4028
2026-01-14 06:08:30.59	247.24	11.89	-26.3	-27.2	14.7	0.00e+00	0	43	0	4241489920	12	4006
2026-01-14 06:08:31.60	247.14	11.80	-26.2	-27.0	14.8	0.00e+00	0	43	0	4248829952	12	3964
2026-01-14 06:08:32.60	247.05	11.72	-26.1	-26.8	14.9	1.10e-06	0	43	0	4256169984	12	3922
2026-01-14 06:08:33.61	246.95	11.64	-26.2	-27.0	14.7	0.00e+00	0	43	0	4263510016	12	3964
2026-01-14 06:08:34.61	246.86	11.56	-26.1	-26.9	14.8	0.00e+00	0	43	0	4270850048	12	3944
2026-01-14 06:08:35.61	246.77	11.48	-26.0	-26.7	14.9	0.00e+00	0	43	0	4278190080	12	3890
2026-01-14 06:08:36.61	246.68	11.39	-26.1	-26.8	14.9	1.10e-06	0	43	0	4285530112	12	3898
2026-01-14 06:08:37.62	246.59	11.31	-26.1	-26.9	14.8	0.00e+00	0	43	0	4292870144	12	3942
2026-01-14 06:08:38.63	246.49	11.23	-26.1	-26.9	14.8	0.00e+00	0	43	0	4300210176	12	3930
2026-01-14 06:08:39.63	246.40	11.15	-26.0	-26.7	14.9	1.10e-06	0	43	0	4307550208	12	3899
2026-01-14 06:08:40.64	246.31	11.07	-26.0	-26.7	14.9	0.00e+00	0	43	0	4314890240	12	3893
2026-01-14 06:08:41.64	246.23	10.99	-26.1	-26.9	14.8	2.20e-06	0	43	0	4321181696	12	3929
2026-01-14 06:08:42.65	246.14	10.91	-26.1	-26.9	14.8	0.00e+00	0	43	0	4328521728	12	3931
2026-01-14 06:08:43.65	246.05	10.83	-26.2	-27.0	14.6	0.00e+00	0	43	0	4335861760	12	3973
2026-01-14 06:08:44.65	245.96	10.75	-26.2	-27.0	14.7	0.00e+00	0	43	0	4343201792	12	3967
2026-01-14 06:08:45.65	245.87	10.67	-26.3	-27.2	14.5	0.00e+00	0	43	0	4350541824	12	4031
2026-01-14 06:08:46.66	245.79	10.59	-26.3	-27.3	14.6	1.10e-06	0	43	0	4357881856	12	4035
2026-01-14 06:08:47.66	245.70	10.51	-26.4	-27.4	14.4	0.00e+00	0	43	0	4365221888	12	4069
2026-01-14 06:08:48.67	245.61	10.43	-26.3	-27.3	14.5	1.10e-06	0	43	0	4372561920	12	4051
2026-01-14 06:08:49.67	245.53	10.35	-26.4	-27.4	14.5	0.00e+00	0	43	0	4379901952	12	4078
2026-01-14 06:08:50.67	245.45	10.28	-26.4	-27.5	14.4	0.00e+00	0	43	0	4387241984	12	4096
2026-01-14 06:08:51.67	245.36	10.20	-26.4	-27.5	14.4	0.00e+00	0	43	0	4394582016	12	4086
2026-01-14 06:08:52.67	245.28	10.12	-26.5	-27.7	13.7	2.20e-06	0	43	0	4400873472	12	4144
2026-01-14 06:08:53.68	245.19	10.04	-26.4	-27.6	13.8	9.35e-04	0	43	0	4408213504	12	4132
2026-01-14 06:08:54.68	245.11	9.96	-26.4	-27.5	14.4	3.40e-06	0	43	0	4415553536	12	4100
2026-01-14 06:08:55.69	245.03	9.88	-26.4	-27.6	14.3	1.10e-06	0	43	0	4422893568	12	4136
2026-01-14 06:08:56.70	244.95	9.81	-26.6	-27.5	14.1	1.10e-06	0	43	0	4430233600	13	4005
2026-01-14 06:08:57.71	244.86	9.73	-26.8	-28.0	13.8	2.20e-06	0	43	0	4437573632	13	4122
2026-01-14 06:08:58.71	244.78	9.65	-26.8	-27.9	13.8	1.59e-03	0	43	0	4444913664	13	4082
2026-01-14 06:08:59.71	244.70	9.58	-26.8	-27.9	13.8	6.80e-06	0	43	0	4452253696	13	4089
2026-01-14 06:09:00.72	244.62	9.50	-26.7	-27.7	13.9	6.75e-05	0	43	0	4459593728	13	4054
2026-01-14 06:09:01.73	244.54	9.42	-26.9	-28.1	13.7	1.82e-03	0	43	0	4466933760	13	4150
2026-01-14 06:09:02.74	244.46	9.34	-26.8	-28.0	13.7	8.00e-06	0	43	0	4474273792	13	4128
2026-01-14 06:09:03.73	244.38	9.27	-26.7	-27.8	13.8	1.01e-04	0	43	0	4481613824	13	4058
2026-01-14 06:09:04.73	244.30	9.19	-26.9	-28.1	13.6	9.10e-06	0	43	0	4487905280	13	4164
2026-01-14 06:09:05.74	244.23	9.12	-26.8	-28.0	13.7	1.56e-03	0	43	0	4495245312	13	4130
2026-01-14 06:09:06.73	244.15	9.04	-26.7	-27.7	13.9	2.05e-05	0	43	0	4502585344	13	4057
2026-01-14 06:09:07.73	244.07	8.97	-26.6	-27.5	14.0	5.70e-06	0	43	0	4509925376	13	3998
2026-01-14 06:09:08.74	243.99	8.89	-26.5	-27.4	14.1	1.44e-03	0	43	0	4517265408	13	3959
2026-01-14 06:09:09.74	243.92	8.82	-26.6	-27.5	14.0	5.70e-06	0	43	0	4524605440	13	4005
2026-01-14 06:09:10.74	243.84	8.74	-26.6	-27.5	14.0	1.13e-03	0	43	0	4531945472	13	3986
2026-01-14 06:09:11.73	243.77	8.67	-26.4	-27.6	14.2	1.13e-03	0	43	0	4539285504	12	4140
2026-01-14 06:09:12.73	243.69	8.59	-26.5	-27.9	14.0	1.10e-06	0	43	0	4546625536	12	4200
2026-01-14 06:09:13.74	243.62	8.52	-26.4	-27.6	14.2	1.08e-03	0	43	0	4552916992	12	4132
2026-01-14 06:09:14.74	243.54	8.44	-26.4	-27.5	14.2	1.38e-03	0	43	0	4560257024	12	4108
2026-01-14 06:09:15.75	243.47	8.37	-26.5	-27.8	14.1	5.70e-06	0	43	0	4567597056	12	4169
2026-01-14 06:09:16.76	243.39	8.30	-26.5	-27.9	14.0	1.62e-03	0	43	0	4574937088	12	4196
2026-01-14 06:09:17.76	243.32	8.22	-26.6	-27.5	13.9	2.20e-06	0	43	0	4582277120	13	3991
2026-01-14 06:09:18.76	243.25	8.15	-26.9	-28.2	13.5	5.70e-06	0	43	0	4589617152	13	4183
2026-01-14 06:09:19.76	243.18	8.08	-26.9	-28.1	13.6	1.02e-05	0	43	0	4596957184	13	4141
2026-01-14 06:09:20.76	243.10	8.00	-26.7	-27.8	13.7	1.98e-03	0	43	0	4604297216	13	4076
2026-01-14 06:09:21.76	243.03	7.93	-26.7	-27.8	13.7	3.40e-06	0	43	0	4610588672	13	4075
2026-01-14 06:09:22.76	242.96	7.86	-26.7	-27.9	13.7	9.10e-06	0	43	0	4618977280	13	4090
2026-01-14 06:09:23.77	242.89	7.78	-26.8	-28.0	13.5	1.97e-03	0	43	0	4626317312	13	4137
2026-01-14 06:09:24.78	242.82	7.71	-26.8	-28.1	13.5	1.25e-05	0	43	0	4632608768	13	4148
2026-01-14 06:09:25.78	242.75	7.64	-26.9	-28.2	13.4	1.25e-05	0	44	0	4639948800	13	4189
2026-01-14 06:09:26.78	242.68	7.57	-27.1	-28.6	13.2	2.01e-03	0	43	0	4647288832	13	4294
2026-01-14 06:09:27.79	242.61	7.49	-27.0	-28.0	13.2	2.74e-05	0	43	0	4654628864	14	4046
2026-01-14 06:09:28.79	242.54	7.42	-27.2	-28.4	13.0	2.10e-03	0	43	0	4661968896	14	4148
2026-01-14 06:09:29.79	242.47	7.35	-27.3	-28.6	12.8	6.17e-05	0	43	0	4669308928	14	4209
2026-01-14 06:09:30.79	242.40	7.28	-27.2	-28.4	13.0	5.72e-05	0	43	0	4676648960	14	4150
2026-01-14 06:09:31.80	242.33	7.21	-27.5	-29.2	12.5	2.15e-03	0	43	0	4683988992	14	4366
2026-01-14 06:09:32.80	242.27	7.14	-27.6	-28.8	12.4	1.83e-04	0	43	0	4691329024	15	4151
2026-01-14 06:09:33.80	242.20	7.07	-33.0	-42.6	3.8	7.80e-01	0	43	104	4695523328	25	10859
2026-01-14 06:09:34.81	242.13	6.99	-33.4	-43.3	3.8	8.46e-01	0	43	104	4695523328	26	11211
2026-01-14 06:09:35.81	242.07	6.92	-33.8	-43.4	3.8	8.48e-01	0	44	104	4695523328	27	10961

#Closed at: 2026-01-14 06:09:36
#Recorded file [4695 MB]: D:/data/31010_260114_085842.dat