passes_logs/2026/01/14/R2M6_AANII_01/R2M6_AANII_01__20260114_091714_NOAA_21_JPSS-2_rec.log

#Pass ID: 20260114_091714_NOAA 21 (JPSS-2)
#Satellite: NOAA 21 (JPSS-2)
#Configuration: NOAA 21
#almurnet v.1.7.20240730
#Start time: 2026-01-14 09:17:16

#Version: 2.2.20231116
#Station: R2M6_AANII_01
#Location: 30.233357 lon 59.946436 lat
#TLE: 1 54234U 22150A   26013.18009385  .00000056  00000+0  47387-4 0  9997
#TLE: 2 54234  98.7496 314.1019 0000691 303.8246  56.2864 14.19534466164559

#Time	Az	El	Level	Level2	SNR	BER	BlckErr	Temp	State	Recorded	gain1	gain2
2026-01-14 09:17:16.44	128.25	7.15	-31.3	-36.1	4.5	1.42e+00	0	40	0	0	24	6256
2026-01-14 09:17:17.44	128.20	7.23	-31.2	-36.1	4.6	1.41e+00	0	40	104	0	23	6328
2026-01-14 09:17:18.45	128.15	7.30	-31.2	-35.4	8.0	8.48e-02	0	40	0	0	23	5822
2026-01-14 09:17:19.45	128.10	7.38	-31.1	-35.1	8.3	4.20e-02	0	41	0	3145728	23	5646
2026-01-14 09:17:20.45	128.04	7.45	-31.1	-34.9	8.4	4.65e-02	0	40	0	6291456	23	5571
2026-01-14 09:17:21.45	127.99	7.53	-31.0	-34.4	8.7	3.78e-02	0	41	0	9437184	23	5371
2026-01-14 09:17:22.45	127.94	7.60	-30.6	-33.9	9.5	1.88e-02	0	40	0	12582912	22	5236
2026-01-14 09:17:23.46	127.89	7.68	-30.0	-32.6	10.7	7.30e-03	0	41	0	15728640	21	4853
2026-01-14 09:17:24.46	127.83	7.75	-29.9	-32.8	11.0	1.57e-03	0	40	0	18874368	20	5020
2026-01-14 09:17:25.46	127.78	7.83	-29.9	-32.8	10.9	2.50e-03	0	41	0	22020096	20	5036
2026-01-14 09:17:26.47	127.73	7.91	-29.7	-32.2	11.3	1.04e-03	0	41	0	24117248	20	4819
2026-01-14 09:17:27.47	127.67	7.98	-30.1	-33.4	10.6	3.61e-03	0	41	0	27262976	20	5230
2026-01-14 09:17:28.48	127.62	8.06	-29.8	-32.6	11.1	1.61e-03	0	41	0	30408704	20	4941
2026-01-14 09:17:29.48	127.57	8.14	-29.9	-32.7	11.0	1.85e-03	0	41	0	33554432	20	4998
2026-01-14 09:17:30.49	127.51	8.21	-29.9	-32.8	11.0	2.04e-03	0	41	0	36700160	20	5015
2026-01-14 09:17:31.49	127.46	8.29	-29.9	-32.8	11.0	2.05e-03	0	41	0	39845888	20	5004
2026-01-14 09:17:32.48	127.40	8.37	-29.6	-31.8	11.7	5.87e-04	0	41	0	42991616	20	4671
2026-01-14 09:17:33.48	127.35	8.44	-29.7	-32.3	11.4	1.15e-03	0	41	0	46137344	20	4825
2026-01-14 09:17:34.49	127.29	8.52	-29.6	-32.0	11.6	9.16e-04	0	41	0	49283072	20	4743
2026-01-14 09:17:35.48	127.23	8.60	-29.4	-31.5	11.9	4.67e-04	0	41	0	52428800	20	4552
2026-01-14 09:17:36.48	127.18	8.68	-29.3	-31.6	12.2	2.38e-04	0	41	0	55574528	19	4673
2026-01-14 09:17:37.49	127.12	8.76	-29.3	-31.5	12.3	1.75e-04	0	41	0	58720256	19	4654
2026-01-14 09:17:38.49	127.06	8.84	-29.3	-31.4	12.4	1.43e-04	0	41	0	61865984	19	4630
2026-01-14 09:17:39.50	127.01	8.91	-29.0	-30.8	12.8	1.36e-04	0	41	0	65011712	19	4430
2026-01-14 09:17:40.50	126.95	8.99	-28.8	-30.7	13.2	3.05e-05	0	41	0	68157440	18	4483
2026-01-14 09:17:41.51	126.89	9.07	-29.0	-31.2	12.9	4.50e-05	0	41	0	71303168	18	4656
2026-01-14 09:17:42.51	126.83	9.15	-29.1	-31.6	12.7	8.08e-05	0	41	0	74448896	18	4766
2026-01-14 09:17:43.51	126.77	9.23	-29.2	-31.7	12.6	9.46e-05	0	41	0	77594624	18	4831
2026-01-14 09:17:44.51	126.71	9.31	-29.0	-31.3	12.8	6.02e-05	0	41	0	80740352	18	4691
2026-01-14 09:17:45.52	126.65	9.39	-29.0	-31.4	12.8	6.56e-05	0	41	0	83886080	18	4703
2026-01-14 09:17:46.52	126.59	9.47	-28.8	-30.8	13.2	3.05e-05	0	41	0	87031808	18	4535
2026-01-14 09:17:47.52	126.53	9.55	-28.7	-30.5	13.3	2.21e-05	0	41	0	90177536	18	4442
2026-01-14 09:17:48.53	126.47	9.64	-28.7	-30.6	13.3	2.28e-05	0	41	0	93323264	18	4451
2026-01-14 09:17:49.53	126.41	9.72	-28.7	-30.6	13.3	1.52e-05	0	41	0	96468992	18	4459
2026-01-14 09:17:50.53	126.35	9.80	-28.9	-31.0	13.1	2.51e-05	0	41	0	99614720	18	4585
2026-01-14 09:17:51.53	126.29	9.88	-28.8	-30.7	13.3	4.27e-05	0	41	0	102760448	18	4481
2026-01-14 09:17:52.54	126.23	9.96	-28.6	-30.3	13.5	9.90e-06	0	41	0	105906176	18	4386
2026-01-14 09:17:53.54	126.17	10.04	-28.7	-30.5	13.4	1.22e-05	0	41	0	109051904	18	4436
2026-01-14 09:17:54.54	126.10	10.13	-28.6	-30.3	13.5	2.28e-05	0	41	0	112197632	18	4369
2026-01-14 09:17:55.54	126.04	10.21	-28.6	-30.2	13.5	5.30e-06	0	41	0	115343360	18	4355
2026-01-14 09:17:56.55	125.98	10.29	-28.5	-30.1	13.7	9.90e-06	0	42	0	118489088	18	4311
2026-01-14 09:17:57.55	125.91	10.37	-28.4	-29.9	13.8	6.80e-06	0	41	0	121634816	18	4254
2026-01-14 09:17:58.55	125.85	10.46	-28.4	-29.8	13.8	9.10e-06	0	41	0	124780544	18	4222
2026-01-14 09:17:59.55	125.79	10.54	-28.5	-30.1	13.7	6.10e-06	0	42	0	127926272	18	4306
2026-01-14 09:18:00.56	125.72	10.62	-28.4	-29.8	13.8	1.29e-05	0	41	0	131072000	18	4230
2026-01-14 09:18:01.56	125.66	10.71	-28.4	-29.8	13.9	2.20e-06	0	42	0	134217728	18	4223
2026-01-14 09:18:02.56	125.59	10.79	-28.3	-29.7	14.0	3.00e-06	0	41	0	137363456	18	4183
2026-01-14 09:18:03.57	125.52	10.88	-28.2	-29.9	14.1	5.30e-06	0	41	0	140509184	17	4351
2026-01-14 09:18:04.58	125.46	10.96	-28.2	-29.9	14.1	1.50e-06	0	41	0	143654912	17	4358
2026-01-14 09:18:05.58	125.39	11.05	-28.2	-29.8	14.2	2.20e-06	0	42	0	146800640	17	4315
2026-01-14 09:18:06.58	125.32	11.13	-28.2	-29.7	14.2	7.00e-07	0	42	0	149946368	17	4292
2026-01-14 09:18:07.58	125.26	11.22	-28.4	-30.1	14.0	7.00e-07	0	42	0	153092096	17	4417
2026-01-14 09:18:08.58	125.19	11.30	-28.3	-30.0	14.1	3.80e-06	0	42	0	156237824	17	4382
2026-01-14 09:18:09.59	125.12	11.39	-28.1	-29.6	14.3	2.20e-06	0	42	0	159383552	17	4273
2026-01-14 09:18:10.59	125.05	11.48	-28.2	-29.8	14.2	0.00e+00	0	42	0	162529280	17	4304
2026-01-14 09:18:11.59	124.98	11.56	-28.2	-29.8	14.2	1.50e-06	0	42	0	165675008	17	4308
2026-01-14 09:18:12.59	124.91	11.65	-28.1	-29.4	14.4	1.50e-06	0	41	0	168820736	17	4214
2026-01-14 09:18:13.59	124.84	11.74	-28.1	-29.4	14.4	0.00e+00	0	42	0	171966464	17	4204
2026-01-14 09:18:14.60	124.77	11.83	-28.2	-29.8	14.2	1.50e-06	0	42	0	175112192	17	4328
2026-01-14 09:18:15.60	124.70	11.91	-28.0	-29.3	14.5	0.00e+00	0	42	0	178257920	17	4173
2026-01-14 09:18:16.60	124.63	12.00	-28.3	-30.0	14.1	2.20e-06	0	42	0	181403648	17	4368
2026-01-14 09:18:17.60	124.56	12.09	-28.1	-29.5	14.4	7.00e-07	0	42	0	184549376	17	4235
2026-01-14 09:18:18.61	124.48	12.18	-28.0	-29.2	14.6	7.00e-07	0	42	0	187695104	17	4152
2026-01-14 09:18:19.62	124.41	12.27	-28.3	-29.9	14.2	3.00e-06	0	42	0	190840832	17	4346
2026-01-14 09:18:20.62	124.34	12.36	-28.2	-29.8	14.2	1.50e-06	0	42	0	193986560	17	4320
2026-01-14 09:18:21.63	124.26	12.45	-28.3	-30.1	14.1	1.50e-06	0	42	0	197132288	17	4402
2026-01-14 09:18:22.63	124.19	12.54	-28.2	-29.7	14.3	7.00e-07	0	42	0	200278016	17	4286
2026-01-14 09:18:23.64	124.11	12.63	-28.0	-29.3	14.6	0.00e+00	0	42	0	203423744	17	4172
2026-01-14 09:18:24.64	124.04	12.72	-27.8	-28.9	14.8	0.00e+00	0	42	0	206569472	17	4065
2026-01-14 09:18:25.64	123.96	12.81	-28.0	-29.2	14.6	7.00e-07	0	42	0	209715200	17	4164
2026-01-14 09:18:26.64	123.89	12.90	-27.8	-28.9	14.8	0.00e+00	0	42	0	212860928	17	4070
2026-01-14 09:18:27.64	123.81	12.99	-27.8	-29.3	14.8	0.00e+00	0	42	0	216006656	16	4294
2026-01-14 09:18:28.64	123.73	13.08	-27.8	-29.2	14.9	0.00e+00	0	42	0	219152384	16	4265
2026-01-14 09:18:29.65	123.66	13.17	-27.8	-29.4	14.8	0.00e+00	0	42	0	222298112	16	4307
2026-01-14 09:18:30.65	123.58	13.26	-27.8	-29.3	14.9	0.00e+00	0	42	0	225443840	16	4274
2026-01-14 09:18:31.65	123.50	13.35	-27.8	-29.3	14.9	7.00e-07	0	42	0	228589568	16	4291
2026-01-14 09:18:32.65	123.42	13.45	-27.7	-29.0	15.1	0.00e+00	0	42	0	231735296	16	4194
2026-01-14 09:18:33.64	123.34	13.54	-27.7	-29.0	15.1	0.00e+00	0	42	0	234881024	16	4204
2026-01-14 09:18:34.64	123.26	13.63	-27.7	-29.0	15.1	0.00e+00	0	42	0	238026752	16	4191
2026-01-14 09:18:35.64	123.18	13.72	-27.7	-29.1	15.0	0.00e+00	0	42	0	241172480	16	4214
2026-01-14 09:18:36.65	123.10	13.82	-27.7	-29.1	15.0	7.00e-07	0	42	0	244318208	16	4231
2026-01-14 09:18:37.65	123.02	13.91	-27.8	-29.3	14.9	0.00e+00	0	42	0	247463936	16	4285
2026-01-14 09:18:38.65	122.94	14.01	-27.7	-29.2	15.0	0.00e+00	0	42	0	250609664	16	4241
2026-01-14 09:18:39.65	122.85	14.10	-27.9	-29.6	14.8	0.00e+00	0	42	0	253755392	16	4351
2026-01-14 09:18:40.66	122.77	14.20	-27.9	-29.4	14.9	0.00e+00	0	42	0	256901120	16	4301
2026-01-14 09:18:41.66	122.69	14.29	-27.8	-29.3	14.9	0.00e+00	0	42	0	260046848	16	4286
2026-01-14 09:18:42.67	122.60	14.39	-27.8	-29.3	15.0	0.00e+00	0	42	0	263192576	16	4282
2026-01-14 09:18:43.67	122.52	14.48	-27.9	-29.5	14.8	0.00e+00	0	42	0	266338304	16	4338
2026-01-14 09:18:44.67	122.43	14.58	-27.8	-29.3	15.0	0.00e+00	0	42	0	269484032	16	4270
2026-01-14 09:18:45.66	122.35	14.68	-28.1	-29.9	14.6	7.00e-07	0	42	0	272629760	16	4453
2026-01-14 09:18:46.66	122.26	14.77	-28.0	-29.8	14.7	7.00e-07	0	42	0	275775488	16	4427
2026-01-14 09:18:47.66	122.17	14.87	-27.9	-29.4	14.9	0.00e+00	0	42	0	277872640	16	4308
2026-01-14 09:18:48.65	122.09	14.96	-27.9	-29.5	14.9	0.00e+00	0	42	0	281018368	16	4315
2026-01-14 09:18:49.65	122.00	15.06	-27.9	-29.4	14.9	0.00e+00	0	42	0	284164096	16	4309
2026-01-14 09:18:50.66	121.91	15.16	-27.9	-29.4	15.0	0.00e+00	0	42	0	287309824	16	4312
2026-01-14 09:18:51.67	121.82	15.26	-27.9	-29.5	14.9	0.00e+00	0	42	0	290455552	16	4335
2026-01-14 09:18:52.67	121.73	15.36	-27.9	-29.4	15.0	0.00e+00	0	42	0	293601280	16	4309
2026-01-14 09:18:53.67	121.64	15.46	-28.0	-29.7	14.8	0.00e+00	0	42	0	296747008	16	4391
2026-01-14 09:18:54.67	121.55	15.56	-28.0	-29.7	14.8	7.00e-07	0	42	0	299892736	16	4373
2026-01-14 09:18:55.68	121.45	15.66	-27.7	-29.1	15.2	0.00e+00	0	42	0	303038464	16	4211
2026-01-14 09:18:56.68	121.36	15.76	-27.7	-29.1	15.2	0.00e+00	0	42	0	306184192	16	4214
2026-01-14 09:18:57.68	121.27	15.86	-27.9	-29.4	15.0	0.00e+00	0	42	0	309329920	16	4293
2026-01-14 09:18:58.68	121.17	15.96	-27.8	-29.4	15.0	0.00e+00	0	42	0	312475648	16	4289
2026-01-14 09:18:59.69	121.08	16.06	-27.9	-29.5	15.0	1.50e-06	0	42	0	315621376	16	4317
2026-01-14 09:19:00.69	120.98	16.16	-27.9	-29.4	15.0	0.00e+00	0	42	0	318767104	16	4314
2026-01-14 09:19:01.69	120.89	16.26	-28.0	-29.6	14.9	0.00e+00	0	42	0	321912832	16	4369
2026-01-14 09:19:02.70	120.79	16.36	-28.0	-29.6	14.9	7.00e-07	0	42	0	325058560	16	4370
2026-01-14 09:19:03.70	120.69	16.47	-28.0	-29.7	14.9	0.00e+00	0	42	0	328204288	16	4377
2026-01-14 09:19:04.70	120.60	16.57	-28.0	-29.8	14.8	0.00e+00	0	42	0	331350016	16	4420
2026-01-14 09:19:05.71	120.50	16.67	-28.1	-30.0	14.7	2.20e-06	0	42	0	334495744	16	4464
2026-01-14 09:19:06.71	120.40	16.78	-28.1	-30.0	14.7	0.00e+00	0	42	0	337641472	16	4469
2026-01-14 09:19:07.71	120.30	16.88	-28.1	-30.1	14.7	7.00e-07	0	42	0	340787200	16	4494
2026-01-14 09:19:08.72	120.20	16.98	-28.2	-30.1	14.7	0.00e+00	0	42	0	343932928	16	4508
2026-01-14 09:19:09.72	120.10	17.09	-28.2	-30.1	14.7	3.00e-06	0	42	0	347078656	16	4511
2026-01-14 09:19:10.73	119.99	17.19	-28.2	-30.3	14.6	0.00e+00	0	42	0	350224384	16	4550
2026-01-14 09:19:11.73	119.89	17.30	-28.2	-30.2	14.7	3.80e-06	0	42	0	353370112	16	4515
2026-01-14 09:19:12.73	119.79	17.40	-28.2	-30.1	14.7	7.00e-07	0	42	0	356515840	16	4505
2026-01-14 09:19:13.73	119.68	17.51	-28.1	-30.0	14.8	0.00e+00	0	42	0	359661568	16	4467
2026-01-14 09:19:14.73	119.58	17.62	-28.2	-30.1	14.7	0.00e+00	0	42	0	362807296	16	4508
2026-01-14 09:19:15.73	119.47	17.72	-28.1	-30.0	14.8	0.00e+00	0	42	0	365953024	16	4460
2026-01-14 09:19:16.74	119.36	17.83	-28.2	-30.1	14.7	0.00e+00	0	42	0	369098752	16	4499
2026-01-14 09:19:17.74	119.26	17.94	-28.1	-30.0	14.8	0.00e+00	0	42	0	372244480	16	4456
2026-01-14 09:19:18.74	119.15	18.05	-28.2	-30.3	14.6	7.00e-07	0	43	0	375390208	16	4542
2026-01-14 09:19:19.74	119.04	18.15	-28.1	-30.0	14.8	7.00e-07	0	42	0	378535936	16	4461
2026-01-14 09:19:20.75	118.93	18.26	-28.0	-29.8	14.9	0.00e+00	0	42	0	381681664	16	4402
2026-01-14 09:19:21.75	118.82	18.37	-27.9	-29.5	15.1	0.00e+00	0	42	0	384827392	16	4337
2026-01-14 09:19:22.75	118.71	18.48	-28.0	-29.6	15.0	0.00e+00	0	42	0	387973120	16	4351
2026-01-14 09:19:23.74	118.60	18.59	-27.9	-29.5	15.1	0.00e+00	0	42	0	391118848	16	4317
2026-01-14 09:19:24.74	118.48	18.70	-27.9	-29.5	15.1	7.00e-07	0	42	0	394264576	16	4321
2026-01-14 09:19:25.75	118.37	18.81	-27.9	-29.6	15.1	0.00e+00	0	42	0	397410304	16	4341
2026-01-14 09:19:26.76	118.25	18.92	-28.0	-29.7	15.0	7.00e-07	0	42	0	400556032	16	4379
2026-01-14 09:19:27.75	118.14	19.03	-28.0	-29.6	15.0	0.00e+00	0	42	0	403701760	16	4361
2026-01-14 09:19:28.76	118.02	19.14	-27.9	-29.5	15.1	0.00e+00	0	42	0	406847488	16	4331
2026-01-14 09:19:29.76	117.90	19.25	-27.9	-29.5	15.1	0.00e+00	0	42	0	409993216	16	4318
2026-01-14 09:19:30.77	117.79	19.37	-27.9	-29.5	15.1	0.00e+00	0	42	0	413138944	16	4328
2026-01-14 09:19:31.78	117.67	19.48	-27.9	-29.5	15.1	7.00e-07	0	42	0	416284672	16	4341
2026-01-14 09:19:32.78	117.55	19.59	-27.8	-29.3	15.3	0.00e+00	0	42	0	419430400	16	4266
2026-01-14 09:19:33.77	117.43	19.70	-27.9	-29.4	15.2	0.00e+00	0	42	0	422576128	16	4306
2026-01-14 09:19:34.78	117.30	19.82	-27.8	-29.2	15.3	0.00e+00	0	42	0	425721856	16	4241
2026-01-14 09:19:35.78	117.18	19.93	-27.7	-29.0	15.4	0.00e+00	0	42	0	428867584	16	4177
2026-01-14 09:19:36.78	117.06	20.05	-27.6	-28.7	15.5	0.00e+00	0	42	0	432013312	16	4121
2026-01-14 09:19:37.78	116.93	20.16	-27.6	-28.8	15.5	0.00e+00	0	42	0	435159040	16	4141
2026-01-14 09:19:38.79	116.81	20.28	-27.4	-28.3	15.8	0.00e+00	0	43	0	438304768	16	4009
2026-01-14 09:19:39.79	116.68	20.39	-27.5	-28.6	15.7	0.00e+00	0	42	0	441450496	16	4070
2026-01-14 09:19:40.79	116.55	20.51	-27.4	-28.2	15.9	0.00e+00	0	42	0	444596224	16	3986
2026-01-14 09:19:41.80	116.42	20.63	-27.4	-28.3	15.8	0.00e+00	0	43	0	447741952	16	3991
2026-01-14 09:19:42.80	116.29	20.74	-27.4	-28.2	15.8	0.00e+00	0	42	0	450887680	16	3979
2026-01-14 09:19:43.81	116.16	20.86	-27.4	-28.3	15.8	0.00e+00	0	43	0	454033408	16	4002
2026-01-14 09:19:44.81	116.03	20.98	-27.5	-28.6	15.5	1.29e-05	0	42	0	457179136	16	4086
2026-01-14 09:19:45.82	115.90	21.10	-27.4	-28.4	15.7	3.80e-06	0	42	0	460324864	16	4020
2026-01-14 09:19:46.83	115.76	21.21	-27.1	-28.3	15.9	0.00e+00	0	42	0	463470592	15	4100
2026-01-14 09:19:47.82	115.63	21.33	-27.2	-28.4	15.8	0.00e+00	0	42	0	466616320	15	4143
2026-01-14 09:19:48.82	115.49	21.45	-27.2	-28.3	15.9	0.00e+00	0	42	0	469762048	15	4123
2026-01-14 09:19:49.83	115.36	21.57	-27.2	-28.4	15.8	3.00e-06	0	42	0	472907776	15	4148
2026-01-14 09:19:50.83	115.22	21.69	-27.2	-28.3	16.0	0.00e+00	0	42	0	476053504	15	4120
2026-01-14 09:19:51.83	115.08	21.81	-27.2	-28.3	16.0	0.00e+00	0	42	0	479199232	15	4116
2026-01-14 09:19:52.84	114.94	21.93	-27.1	-28.1	16.1	0.00e+00	0	43	0	482344960	15	4067
2026-01-14 09:19:53.84	114.80	22.05	-27.0	-27.9	16.2	0.00e+00	0	43	0	485490688	15	4007
2026-01-14 09:19:54.84	114.66	22.17	-26.9	-27.8	16.2	0.00e+00	0	43	0	488636416	15	3989
2026-01-14 09:19:55.84	114.51	22.30	-27.0	-28.0	16.2	0.00e+00	0	42	0	491782144	15	4021
2026-01-14 09:19:56.84	114.37	22.42	-26.8	-27.5	16.4	0.00e+00	0	43	0	494927872	15	3907
2026-01-14 09:19:57.85	114.22	22.54	-26.7	-27.8	16.6	0.00e+00	0	42	0	498073600	14	4069
2026-01-14 09:19:58.86	114.07	22.66	-26.7	-27.8	16.6	0.00e+00	0	43	0	501219328	14	4071
2026-01-14 09:19:59.86	113.93	22.79	-26.7	-27.8	16.6	0.00e+00	0	42	0	504365056	14	4065
2026-01-14 09:20:00.86	113.78	22.91	-26.9	-28.3	16.3	0.00e+00	0	42	0	507510784	14	4196
2026-01-14 09:20:01.87	113.63	23.04	-26.7	-27.8	16.6	0.00e+00	0	42	0	510656512	14	4072
2026-01-14 09:20:02.86	113.48	23.16	-26.8	-28.0	16.4	0.00e+00	0	43	0	513802240	14	4139
2026-01-14 09:20:03.87	113.32	23.28	-26.8	-28.0	16.5	0.00e+00	0	42	0	516947968	14	4123
2026-01-14 09:20:04.88	113.17	23.41	-26.8	-27.9	16.5	0.00e+00	0	42	0	520093696	14	4115
2026-01-14 09:20:05.88	113.01	23.54	-26.7	-27.8	16.6	0.00e+00	0	43	0	523239424	14	4069
2026-01-14 09:20:06.88	112.85	23.66	-26.8	-27.9	16.6	0.00e+00	0	42	0	526385152	14	4098
2026-01-14 09:20:07.89	112.70	23.79	-26.7	-27.7	16.7	0.00e+00	0	42	0	529530880	14	4054
2026-01-14 09:20:08.89	112.54	23.91	-26.7	-27.8	16.6	0.00e+00	0	43	0	531628032	14	4084
2026-01-14 09:20:09.89	112.38	24.04	-26.7	-27.8	16.6	0.00e+00	0	43	0	535822336	14	4087
2026-01-14 09:20:10.90	112.21	24.17	-26.8	-27.9	16.6	0.00e+00	0	43	0	538968064	14	4107
2026-01-14 09:20:11.90	112.05	24.30	-26.7	-27.8	16.6	0.00e+00	0	42	0	542113792	14	4066
2026-01-14 09:20:12.91	111.88	24.43	-26.9	-28.1	16.5	0.00e+00	0	43	0	545259520	14	4144
2026-01-14 09:20:13.91	111.72	24.55	-26.9	-28.1	16.5	7.00e-07	0	42	0	548405248	14	4160
2026-01-14 09:20:14.91	111.55	24.68	-27.0	-28.4	16.3	0.00e+00	0	43	0	551550976	14	4241
2026-01-14 09:20:15.92	111.38	24.81	-27.1	-28.5	16.2	0.00e+00	0	43	0	554696704	14	4264
2026-01-14 09:20:16.92	111.21	24.94	-27.2	-28.7	16.1	0.00e+00	0	43	0	556793856	14	4325
2026-01-14 09:20:17.93	111.04	25.07	-27.1	-28.7	16.2	0.00e+00	0	43	0	559939584	14	4319
2026-01-14 09:20:18.93	110.87	25.20	-27.2	-28.8	16.1	0.00e+00	0	42	0	563085312	14	4341
2026-01-14 09:20:19.93	110.69	25.33	-27.4	-29.3	15.9	0.00e+00	0	43	0	566231040	14	4475
2026-01-14 09:20:20.94	110.51	25.47	-27.4	-29.2	15.9	0.00e+00	0	43	0	569376768	14	4446
2026-01-14 09:20:21.94	110.34	25.60	-27.6	-29.2	15.6	0.00e+00	0	43	0	573571072	15	4332
2026-01-14 09:20:22.94	110.16	25.73	-27.8	-29.7	15.4	0.00e+00	0	42	0	575668224	15	4486
2026-01-14 09:20:23.95	109.98	25.86	-27.7	-29.5	15.5	0.00e+00	0	43	0	578813952	15	4426
2026-01-14 09:20:24.95	109.80	25.99	-27.6	-29.3	15.6	0.00e+00	0	43	0	581959680	15	4369
2026-01-14 09:20:25.95	109.61	26.13	-27.7	-29.5	15.5	0.00e+00	0	43	0	585105408	15	4424
2026-01-14 09:20:26.95	109.43	26.26	-27.8	-29.6	15.4	0.00e+00	0	43	0	588251136	15	4466
2026-01-14 09:20:27.95	109.24	26.39	-27.7	-29.5	15.5	0.00e+00	0	43	0	591396864	15	4434
2026-01-14 09:20:28.95	109.05	26.53	-27.8	-29.6	15.5	0.00e+00	0	43	0	594542592	15	4442
2026-01-14 09:20:29.96	108.86	26.66	-27.9	-29.8	15.3	0.00e+00	0	43	0	597688320	15	4510
2026-01-14 09:20:30.96	108.67	26.79	-28.3	-30.3	15.0	7.00e-07	0	42	0	600834048	16	4526
2026-01-14 09:20:31.97	108.48	26.93	-28.1	-29.7	15.2	0.00e+00	0	43	0	603979776	16	4355
2026-01-14 09:20:32.98	108.28	27.07	-28.1	-29.8	15.2	0.00e+00	0	43	0	607125504	16	4381
2026-01-14 09:20:33.98	108.08	27.20	-28.3	-30.2	15.0	0.00e+00	0	43	0	610271232	16	4503
2026-01-14 09:20:34.98	107.89	27.34	-28.1	-29.9	15.2	0.00e+00	0	43	0	613416960	16	4404
2026-01-14 09:20:35.99	107.68	27.47	-28.2	-30.0	15.1	0.00e+00	0	43	0	616562688	16	4441
2026-01-14 09:20:36.99	107.48	27.61	-28.1	-29.9	15.2	0.00e+00	0	43	0	619708416	16	4405
2026-01-14 09:20:37.99	107.28	27.74	-28.2	-30.1	15.1	0.00e+00	0	43	0	622854144	16	4465
2026-01-14 09:20:38.99	107.08	27.88	-27.9	-29.4	15.5	0.00e+00	0	43	0	625999872	16	4266
2026-01-14 09:20:39.99	106.87	28.02	-27.7	-28.9	15.8	0.00e+00	0	42	0	629145600	16	4135
2026-01-14 09:20:40.99	106.66	28.15	-27.6	-28.8	15.8	0.00e+00	0	43	0	632291328	16	4097
2026-01-14 09:20:41.99	106.45	28.29	-27.7	-28.9	15.8	0.00e+00	0	43	0	635437056	16	4131
2026-01-14 09:20:42.99	106.24	28.43	-27.7	-28.9	15.8	0.00e+00	0	42	0	638582784	16	4128
2026-01-14 09:20:43.99	106.03	28.57	-27.9	-29.4	15.5	0.00e+00	0	43	0	641728512	16	4258
2026-01-14 09:20:44.99	105.81	28.70	-27.9	-29.3	15.6	0.00e+00	0	43	0	644874240	16	4240
2026-01-14 09:20:46.00	105.59	28.84	-28.1	-29.9	15.3	0.00e+00	0	43	0	648019968	16	4402
2026-01-14 09:20:47.00	105.37	28.98	-27.9	-29.5	15.5	0.00e+00	0	43	0	651165696	16	4290
2026-01-14 09:20:48.00	105.15	29.12	-28.0	-29.5	15.5	0.00e+00	0	43	0	654311424	16	4298
2026-01-14 09:20:49.01	104.92	29.26	-27.9	-29.5	15.5	0.00e+00	0	43	0	657457152	16	4286
2026-01-14 09:20:50.01	104.70	29.40	-27.8	-29.1	15.7	0.00e+00	0	43	0	660602880	16	4193
2026-01-14 09:20:51.00	104.47	29.54	-27.9	-29.4	15.5	0.00e+00	0	43	0	663748608	16	4272
2026-01-14 09:20:52.00	104.25	29.67	-27.7	-29.0	15.8	0.00e+00	0	42	0	666894336	16	4151
2026-01-14 09:20:53.00	104.01	29.81	-27.7	-28.9	15.8	0.00e+00	0	43	0	670040064	16	4130
2026-01-14 09:20:54.00	103.78	29.95	-27.8	-29.1	15.7	0.00e+00	0	43	0	673185792	16	4190
2026-01-14 09:20:55.00	103.55	30.09	-27.7	-29.0	15.8	0.00e+00	0	43	0	676331520	16	4145
2026-01-14 09:20:56.01	103.31	30.23	-27.9	-29.3	15.6	0.00e+00	0	43	0	679477248	16	4247
2026-01-14 09:20:57.00	103.07	30.37	-27.9	-29.3	15.6	0.00e+00	0	43	0	682622976	16	4233
2026-01-14 09:20:58.01	102.83	30.51	-28.0	-29.6	15.5	2.20e-06	0	43	0	685768704	16	4306
2026-01-14 09:20:59.01	102.58	30.65	-27.9	-29.4	15.6	0.00e+00	0	43	0	688914432	16	4261
2026-01-14 09:21:00.02	102.34	30.79	-27.9	-29.3	15.6	0.00e+00	0	43	0	692060160	16	4230
2026-01-14 09:21:01.02	102.09	30.93	-27.9	-29.4	15.6	5.30e-06	0	43	0	695205888	16	4256
2026-01-14 09:21:02.03	101.83	31.08	-28.0	-29.5	15.5	0.00e+00	0	43	0	698351616	16	4298
2026-01-14 09:21:03.03	101.58	31.22	-28.0	-29.5	15.5	0.00e+00	0	43	0	701497344	16	4294
2026-01-14 09:21:04.04	101.33	31.36	-27.8	-29.2	15.7	0.00e+00	0	43	0	704643072	16	4197
2026-01-14 09:21:05.03	101.07	31.50	-27.8	-29.1	15.8	0.00e+00	0	43	0	707788800	16	4172
2026-01-14 09:21:06.04	100.81	31.64	-28.0	-29.5	15.6	0.00e+00	0	43	0	710934528	16	4277
2026-01-14 09:21:07.04	100.55	31.78	-27.7	-28.9	15.8	5.30e-06	0	43	0	714080256	16	4128
2026-01-14 09:21:08.05	100.28	31.92	-27.8	-29.0	15.8	0.00e+00	0	43	0	717225984	16	4163
2026-01-14 09:21:09.05	100.02	32.06	-27.9	-29.4	15.6	0.00e+00	0	43	0	720371712	16	4252
2026-01-14 09:21:10.06	99.75	32.20	-27.9	-29.3	15.7	0.00e+00	0	43	0	723517440	16	4222
2026-01-14 09:21:11.06	99.48	32.34	-28.1	-29.9	15.3	0.00e+00	0	42	0	726663168	16	4392
2026-01-14 09:21:12.06	99.20	32.48	-28.2	-29.9	15.3	0.00e+00	0	43	0	729808896	16	4412
2026-01-14 09:21:13.06	98.93	32.62	-28.4	-30.4	15.1	0.00e+00	0	43	0	732954624	16	4546
2026-01-14 09:21:14.07	98.65	32.76	-28.4	-30.5	15.0	0.00e+00	0	43	0	736100352	16	4583
2026-01-14 09:21:15.07	98.37	32.90	-28.6	-30.3	14.8	7.00e-07	0	42	0	739246080	17	4408
2026-01-14 09:21:16.07	98.09	33.04	-28.9	-31.0	14.4	1.50e-06	0	43	0	742391808	17	4621
2026-01-14 09:21:17.07	97.80	33.18	-28.8	-30.8	14.5	0.00e+00	0	43	0	745537536	17	4558
2026-01-14 09:21:18.07	97.51	33.32	-28.9	-31.0	14.4	1.50e-06	0	43	0	748683264	17	4616
2026-01-14 09:21:19.07	97.22	33.46	-29.1	-31.2	14.1	7.00e-07	0	43	0	751828992	18	4549
2026-01-14 09:21:20.07	96.93	33.60	-29.2	-31.2	14.0	3.00e-06	0	43	0	754974720	18	4573
2026-01-14 09:21:21.07	96.64	33.74	-29.2	-31.2	14.0	3.00e-06	0	43	0	758120448	18	4568
2026-01-14 09:21:22.07	96.34	33.88	-28.9	-30.7	14.4	7.00e-07	0	43	0	761266176	18	4404
2026-01-14 09:21:23.07	96.04	34.02	-29.1	-31.1	14.1	7.00e-07	0	43	0	764411904	18	4520
2026-01-14 09:21:24.07	95.74	34.15	-29.1	-31.0	14.2	0.00e+00	0	43	0	767557632	18	4491
2026-01-14 09:21:25.08	95.43	34.29	-29.1	-31.1	14.1	5.30e-06	0	43	0	770703360	18	4532
2026-01-14 09:21:26.08	95.12	34.43	-29.1	-31.0	14.2	7.00e-07	0	43	0	773849088	18	4504
2026-01-14 09:21:27.07	94.81	34.56	-29.1	-31.1	14.1	1.50e-06	0	43	0	776994816	18	4517
2026-01-14 09:21:28.08	94.50	34.70	-29.2	-31.2	14.1	7.00e-07	0	43	0	780140544	18	4565
2026-01-14 09:21:29.07	94.19	34.84	-29.3	-31.5	14.0	0.00e+00	0	43	0	783286272	18	4637
2026-01-14 09:21:30.07	93.87	34.97	-29.3	-31.4	14.0	4.50e-06	0	43	0	785383424	18	4622
2026-01-14 09:21:31.07	93.55	35.11	-29.0	-30.9	14.3	0.00e+00	0	43	0	788529152	18	4448
2026-01-14 09:21:32.07	93.22	35.24	-28.9	-30.5	14.5	0.00e+00	0	43	0	791674880	18	4355
2026-01-14 09:21:33.08	92.89	35.38	-28.9	-30.6	14.5	1.50e-06	0	43	0	794820608	18	4360
2026-01-14 09:21:34.08	92.57	35.51	-28.8	-30.3	14.6	0.00e+00	0	43	0	797966336	18	4300
2026-01-14 09:21:35.09	92.23	35.65	-28.9	-30.6	14.5	0.00e+00	0	43	0	801112064	18	4364
2026-01-14 09:21:36.09	91.90	35.78	-28.8	-30.4	14.6	7.00e-07	0	43	0	804257792	18	4324
2026-01-14 09:21:37.10	91.56	35.91	-29.0	-30.8	14.3	7.00e-07	0	43	0	807403520	18	4445
2026-01-14 09:21:38.09	91.22	36.04	-29.1	-31.0	14.2	2.20e-06	0	43	0	810549248	18	4480
2026-01-14 09:21:39.10	90.87	36.18	-28.7	-30.2	14.7	0.00e+00	0	43	0	813694976	18	4251
2026-01-14 09:21:40.11	90.53	36.31	-28.7	-30.2	14.7	1.50e-06	0	43	0	816840704	18	4259
2026-01-14 09:21:41.11	90.18	36.44	-28.9	-30.7	14.4	7.00e-07	0	43	0	819986432	18	4391
2026-01-14 09:21:42.12	89.82	36.57	-29.2	-31.2	14.1	0.00e+00	0	43	0	823132160	18	4564
2026-01-14 09:21:43.12	89.47	36.69	-29.3	-31.5	14.0	3.00e-06	0	43	0	826277888	18	4645
2026-01-14 09:21:44.13	89.11	36.82	-29.4	-31.9	13.8	6.80e-06	0	43	0	829423616	18	4764
2026-01-14 09:21:45.13	88.75	36.95	-29.2	-31.3	14.1	6.10e-06	0	43	0	832569344	18	4572
2026-01-14 09:21:46.14	88.38	37.08	-28.9	-30.7	14.4	7.00e-07	0	43	0	835715072	18	4393
2026-01-14 09:21:47.14	88.02	37.20	-29.0	-30.7	14.4	0.00e+00	0	43	0	838860800	18	4398
2026-01-14 09:21:48.15	87.65	37.33	-29.1	-31.1	14.2	1.50e-06	0	43	0	842006528	18	4531
2026-01-14 09:21:49.15	87.28	37.45	-29.0	-30.9	14.4	1.50e-06	0	43	0	845152256	18	4455
2026-01-14 09:21:50.16	86.90	37.57	-29.1	-31.1	14.2	2.20e-06	0	43	0	848297984	18	4534
2026-01-14 09:21:51.16	86.52	37.69	-28.8	-30.4	14.6	0.00e+00	0	43	0	851443712	18	4330
2026-01-14 09:21:52.16	86.14	37.81	-28.7	-30.1	14.8	0.00e+00	0	43	0	854589440	18	4232
2026-01-14 09:21:53.16	85.76	37.93	-28.8	-30.2	14.7	1.50e-06	0	43	0	857735168	18	4272
2026-01-14 09:21:54.17	85.37	38.05	-29.0	-30.7	14.4	0.00e+00	0	43	0	860880896	18	4418
2026-01-14 09:21:55.17	84.99	38.17	-29.2	-31.2	14.1	7.00e-07	0	43	0	864026624	18	4536
2026-01-14 09:21:56.17	84.60	38.29	-29.3	-31.5	14.0	7.00e-07	0	43	0	867172352	18	4649
2026-01-14 09:21:57.18	84.20	38.40	-29.4	-31.3	13.7	1.29e-05	0	43	0	870318080	19	4485
2026-01-14 09:21:58.18	83.80	38.52	-29.2	-30.7	14.1	1.50e-06	0	43	0	873463808	19	4288
2026-01-14 09:21:59.18	83.40	38.63	-28.9	-30.0	14.5	7.00e-07	0	43	0	876609536	19	4107
2026-01-14 09:22:00.18	83.00	38.74	-28.8	-30.3	14.7	0.00e+00	0	43	0	879755264	18	4293
2026-01-14 09:22:01.19	82.60	38.85	-28.9	-30.5	14.5	7.00e-07	0	43	0	882900992	18	4358
2026-01-14 09:22:02.20	82.18	38.96	-29.1	-31.0	14.3	1.50e-06	0	43	0	886046720	18	4493
2026-01-14 09:22:03.20	81.77	39.07	-29.3	-31.4	14.1	5.30e-06	0	43	0	889192448	18	4610
2026-01-14 09:22:04.20	81.36	39.17	-29.4	-31.7	13.8	3.80e-06	0	43	0	892338176	18	4698
2026-01-14 09:22:05.21	80.94	39.28	-29.4	-31.8	13.8	6.10e-06	0	43	0	895483904	18	4738
2026-01-14 09:22:06.21	80.53	39.38	-29.5	-32.0	13.7	6.10e-06	0	43	0	898629632	18	4800
2026-01-14 09:22:07.21	80.11	39.48	-29.7	-31.9	13.4	9.10e-06	0	43	0	901775360	19	4673
2026-01-14 09:22:08.22	79.68	39.58	-30.0	-32.2	12.9	3.12e-05	0	43	0	904921088	20	4657
2026-01-14 09:22:09.21	79.26	39.68	-30.2	-32.8	12.5	1.01e-04	0	43	0	908066816	20	4861
2026-01-14 09:22:10.21	78.83	39.78	-30.1	-32.6	12.7	8.77e-05	0	43	0	911212544	20	4773
2026-01-14 09:22:11.21	78.40	39.88	-30.1	-32.5	12.7	6.10e-05	0	43	0	914358272	20	4742
2026-01-14 09:22:12.22	77.96	39.97	-30.0	-32.2	12.9	4.95e-05	0	43	0	917504000	20	4654
2026-01-14 09:22:13.22	77.52	40.06	-29.8	-31.8	13.2	2.21e-05	0	43	0	920649728	20	4534
2026-01-14 09:22:14.23	77.08	40.15	-29.8	-31.7	13.2	2.44e-05	0	42	0	923795456	20	4475
2026-01-14 09:22:15.23	76.64	40.24	-29.8	-31.8	13.2	2.44e-05	0	43	0	926941184	20	4520
2026-01-14 09:22:16.24	76.19	40.33	-30.0	-32.2	12.9	4.27e-05	0	43	0	930086912	20	4647
2026-01-14 09:22:17.24	75.75	40.42	-29.8	-31.6	13.3	1.90e-05	0	43	0	933232640	20	4467
2026-01-14 09:22:18.25	75.30	40.50	-29.9	-31.9	13.1	3.43e-05	0	43	0	936378368	20	4546
2026-01-14 09:22:19.25	74.85	40.58	-30.0	-32.2	12.9	4.95e-05	0	43	0	939524096	20	4650
2026-01-14 09:22:20.25	74.39	40.66	-29.7	-31.5	13.4	2.05e-05	0	43	0	942669824	20	4434
2026-01-14 09:22:21.26	73.94	40.74	-29.5	-31.0	13.6	1.06e-05	0	43	0	945815552	20	4296
2026-01-14 09:22:22.26	73.48	40.82	-29.6	-31.3	13.5	4.50e-06	0	43	0	948961280	20	4381
2026-01-14 09:22:23.25	73.02	40.89	-29.8	-31.7	13.3	2.82e-05	0	43	0	952107008	20	4484
2026-01-14 09:22:24.26	72.56	40.97	-29.9	-32.0	13.1	2.67e-05	0	43	0	955252736	20	4571
2026-01-14 09:22:25.26	72.10	41.04	-30.4	-33.2	12.3	1.36e-04	0	43	0	958398464	20	4993
2026-01-14 09:22:26.26	71.63	41.10	-30.4	-33.3	12.3	1.59e-04	0	43	0	961544192	20	5012
2026-01-14 09:22:27.26	71.16	41.17	-30.3	-33.1	12.4	2.23e-04	0	43	0	964689920	20	4957
2026-01-14 09:22:28.26	70.70	41.24	-30.1	-32.6	12.7	9.30e-05	0	43	0	967835648	20	4767
2026-01-14 09:22:29.27	70.22	41.30	-30.1	-32.5	12.8	5.18e-05	0	43	0	970981376	20	4747
2026-01-14 09:22:30.28	69.74	41.36	-30.1	-32.5	12.8	6.48e-05	0	43	0	974127104	20	4751
2026-01-14 09:22:31.28	69.27	41.42	-30.1	-32.6	12.7	7.78e-05	0	43	0	977272832	20	4771
2026-01-14 09:22:32.28	68.79	41.47	-30.0	-32.4	12.8	5.49e-05	0	43	0	980418560	20	4711
2026-01-14 09:22:33.29	68.31	41.53	-30.0	-32.2	12.9	5.26e-05	0	43	0	983564288	20	4639
2026-01-14 09:22:34.29	67.83	41.58	-30.2	-32.8	12.5	9.46e-05	0	43	0	986710016	20	4855
2026-01-14 09:22:35.29	67.35	41.63	-30.3	-33.0	12.5	1.26e-04	0	43	0	989855744	20	4915
2026-01-14 09:22:36.30	66.86	41.68	-30.4	-33.3	12.3	1.98e-04	0	43	0	993001472	20	5009
2026-01-14 09:22:37.30	66.38	41.72	-30.2	-32.8	12.6	1.36e-04	0	43	0	996147200	20	4855
2026-01-14 09:22:38.30	65.90	41.76	-30.2	-32.6	12.7	9.61e-05	0	43	0	999292928	20	4790
2026-01-14 09:22:39.31	65.41	41.80	-30.2	-32.7	12.6	8.62e-05	0	43	0	1002438656	20	4809
2026-01-14 09:22:40.31	64.92	41.84	-30.4	-33.4	12.1	2.75e-04	0	43	0	1005584384	20	5053
2026-01-14 09:22:41.31	64.43	41.88	-30.5	-33.1	12.1	2.30e-04	0	43	0	1008730112	21	4841
2026-01-14 09:22:42.31	63.94	41.91	-30.7	-33.4	11.9	5.18e-04	0	43	0	1011875840	21	4947
2026-01-14 09:22:43.31	63.45	41.94	-30.6	-33.3	12.0	3.32e-04	0	43	0	1015021568	21	4890
2026-01-14 09:22:44.31	62.96	41.97	-30.7	-33.5	11.8	4.90e-04	0	43	0	1018167296	21	4993
2026-01-14 09:22:45.32	62.46	42.00	-30.6	-33.2	12.0	3.38e-04	0	43	0	1021313024	21	4876
2026-01-14 09:22:46.32	61.97	42.02	-30.5	-33.0	12.2	2.23e-04	0	43	0	1024458752	21	4803
2026-01-14 09:22:47.33	61.47	42.04	-30.6	-33.2	12.0	2.94e-04	0	43	0	1027604480	21	4881
2026-01-14 09:22:48.34	60.97	42.06	-30.6	-33.3	12.0	4.73e-04	0	43	0	1030750208	21	4893
2026-01-14 09:22:49.34	60.48	42.08	-30.5	-32.9	12.2	2.38e-04	0	43	0	1033895936	21	4775
2026-01-14 09:22:50.34	59.98	42.09	-30.5	-33.1	12.1	2.44e-04	0	43	0	1037041664	21	4833
2026-01-14 09:22:51.35	59.48	42.11	-30.8	-33.9	11.6	5.10e-04	0	43	0	1040187392	21	5099
2026-01-14 09:22:52.35	58.99	42.12	-30.9	-33.4	11.5	1.07e-03	0	43	0	1043333120	22	4840
2026-01-14 09:22:53.35	58.49	42.12	-30.3	-31.9	12.5	1.75e-04	0	43	0	1046478848	22	4343
2026-01-14 09:22:54.36	57.99	42.13	-29.8	-31.3	13.2	2.28e-05	0	43	0	1049624576	21	4245
2026-01-14 09:22:55.36	57.49	42.13	-29.7	-31.5	13.4	2.21e-05	0	43	0	1052770304	20	4419
2026-01-14 09:22:56.36	57.00	42.13	-29.8	-31.6	13.3	1.60e-05	0	43	0	1055916032	20	4460
2026-01-14 09:22:57.37	56.50	42.13	-29.7	-31.5	13.4	1.67e-05	0	43	0	1059061760	20	4414
2026-01-14 09:22:58.37	56.00	42.12	-29.7	-31.4	13.5	6.80e-06	0	43	0	1062207488	20	4383
2026-01-14 09:22:59.36	55.51	42.11	-29.8	-31.7	13.3	2.05e-05	0	43	0	1065353216	20	4494
2026-01-14 09:23:00.37	55.01	42.10	-30.0	-32.2	13.0	3.96e-05	0	43	0	1068498944	20	4634
2026-01-14 09:23:01.37	54.51	42.09	-29.9	-31.9	13.1	2.97e-05	0	43	0	1071644672	20	4561
2026-01-14 09:23:02.38	54.01	42.08	-29.8	-31.7	13.3	2.44e-05	0	42	0	1074790400	20	4483
2026-01-14 09:23:03.38	53.52	42.06	-29.9	-32.0	13.1	3.43e-05	0	43	0	1077936128	20	4586
2026-01-14 09:23:04.38	53.03	42.04	-30.3	-33.0	12.5	1.23e-04	0	43	0	1081081856	20	4896
2026-01-14 09:23:05.38	52.53	42.02	-30.3	-33.1	12.4	1.31e-04	0	43	0	1084227584	20	4940
2026-01-14 09:23:06.38	52.04	41.99	-30.4	-33.2	12.4	1.48e-04	0	43	0	1086324736	20	4969
2026-01-14 09:23:07.39	51.54	41.97	-30.4	-33.3	12.3	1.53e-04	0	43	0	1089470464	20	4997
2026-01-14 09:23:08.39	51.05	41.94	-30.3	-33.1	12.4	1.40e-04	0	43	0	1092616192	20	4942
2026-01-14 09:23:09.39	50.56	41.91	-30.3	-33.0	12.5	1.51e-04	0	43	0	1095761920	20	4894
2026-01-14 09:23:10.40	50.07	41.87	-30.2	-32.7	12.7	6.94e-05	0	43	0	1099956224	20	4798
2026-01-14 09:23:11.40	49.58	41.84	-30.1	-32.5	12.8	6.10e-05	0	43	0	1103101952	20	4747
2026-01-14 09:23:12.40	49.10	41.80	-30.0	-32.3	12.9	5.95e-05	0	43	0	1106247680	20	4692
2026-01-14 09:23:13.40	48.61	41.76	-30.1	-32.5	12.8	6.33e-05	0	43	0	1108344832	20	4754
2026-01-14 09:23:14.41	48.12	41.71	-30.1	-32.4	12.9	7.09e-05	0	43	0	1111490560	20	4707
2026-01-14 09:23:15.40	47.64	41.67	-30.0	-32.2	12.9	4.80e-05	0	43	0	1114636288	20	4650
2026-01-14 09:23:16.41	47.16	41.62	-30.0	-32.4	12.8	6.25e-05	0	43	0	1117782016	20	4702
2026-01-14 09:23:17.41	46.68	41.57	-30.1	-32.4	12.8	7.85e-05	0	43	0	1120927744	20	4717
2026-01-14 09:23:18.42	46.20	41.52	-30.1	-32.5	12.7	8.46e-05	0	43	0	1124073472	20	4748
2026-01-14 09:23:19.42	45.72	41.46	-30.0	-32.3	12.9	4.73e-05	0	43	0	1127219200	20	4680
2026-01-14 09:23:20.43	45.24	41.41	-30.1	-32.5	12.7	5.64e-05	0	43	0	1130364928	20	4763
2026-01-14 09:23:21.42	44.77	41.35	-30.2	-32.8	12.5	1.55e-04	0	43	0	1133510656	20	4848
2026-01-14 09:23:22.43	44.29	41.29	-30.2	-32.7	12.6	9.68e-05	0	43	0	1136656384	20	4813
2026-01-14 09:23:23.43	43.83	41.23	-30.0	-32.1	13.0	6.40e-05	0	43	0	1139802112	20	4614
2026-01-14 09:23:24.43	43.36	41.16	-29.8	-31.8	13.2	1.29e-05	0	43	0	1142947840	20	4511
2026-01-14 09:23:25.43	42.89	41.10	-29.9	-32.1	13.1	2.51e-05	0	43	0	1146093568	20	4596
2026-01-14 09:23:26.43	42.43	41.03	-30.1	-32.3	12.9	6.40e-05	0	43	0	1149239296	20	4683
2026-01-14 09:23:27.43	41.97	40.96	-30.1	-32.4	12.9	4.50e-05	0	43	0	1152385024	20	4705
2026-01-14 09:23:28.44	41.50	40.88	-30.4	-33.3	12.3	1.43e-04	0	43	0	1155530752	20	5003
2026-01-14 09:23:29.44	41.04	40.81	-30.5	-33.0	12.1	2.06e-04	0	43	0	1158676480	21	4809
2026-01-14 09:23:30.44	40.59	40.73	-30.5	-32.9	12.2	2.37e-04	0	43	0	1161822208	21	4772
2026-01-14 09:23:31.44	40.13	40.65	-30.5	-32.9	12.2	2.19e-04	0	43	0	1164967936	21	4755
2026-01-14 09:23:32.45	39.68	40.57	-30.2	-32.2	12.7	1.74e-04	0	43	0	1168113664	21	4535
2026-01-14 09:23:33.45	39.23	40.49	-29.7	-31.5	13.4	1.83e-05	0	43	0	1171259392	20	4417
2026-01-14 09:23:34.45	38.78	40.41	-29.7	-31.5	13.4	1.52e-05	0	43	0	1174405120	20	4429
2026-01-14 09:23:35.45	38.34	40.32	-30.1	-32.5	12.8	2.74e-05	0	43	0	1177550848	20	4733
2026-01-14 09:23:36.46	37.89	40.23	-30.4	-33.3	12.3	1.96e-04	0	43	0	1180696576	20	5013
2026-01-14 09:23:37.46	37.45	40.14	-30.4	-33.2	12.3	1.52e-04	0	43	0	1183842304	20	4962
2026-01-14 09:23:38.47	37.01	40.05	-30.2	-32.7	12.6	1.34e-04	0	43	0	1186988032	20	4801
2026-01-14 09:23:39.46	36.58	39.96	-29.5	-31.0	13.7	9.90e-06	0	43	0	1190133760	20	4266
2026-01-14 09:23:40.47	36.15	39.87	-29.1	-30.6	14.3	4.50e-06	0	43	0	1193279488	19	4251
2026-01-14 09:23:41.47	35.72	39.77	-29.6	-31.7	13.6	7.00e-07	0	43	0	1196425216	19	4596
2026-01-14 09:23:42.47	35.29	39.67	-30.2	-32.7	12.6	6.71e-05	0	43	0	1199570944	20	4816
2026-01-14 09:23:43.48	34.86	39.57	-30.7	-33.5	11.8	3.44e-04	0	43	0	1202716672	21	4994
2026-01-14 09:23:44.48	34.44	39.47	-31.0	-34.2	11.3	1.17e-03	0	43	0	1205862400	21	5250
2026-01-14 09:23:45.48	34.02	39.37	-30.8	-33.7	11.7	7.36e-04	0	43	0	1209008128	21	5060
2026-01-14 09:23:46.49	33.60	39.27	-30.3	-32.5	12.4	2.95e-04	0	43	0	1212153856	21	4651
2026-01-14 09:23:47.49	33.19	39.16	-29.8	-31.7	13.2	2.67e-05	0	43	0	1215299584	20	4500
2026-01-14 09:23:48.49	32.78	39.06	-29.6	-31.2	13.5	1.22e-05	0	43	0	1218445312	20	4352
2026-01-14 09:23:49.49	32.37	38.95	-29.7	-31.6	13.3	1.14e-05	0	43	0	1221591040	20	4453
2026-01-14 09:23:50.49	31.96	38.84	-30.0	-32.1	13.0	3.96e-05	0	43	0	1224736768	20	4621
2026-01-14 09:23:51.49	31.56	38.73	-30.1	-32.6	12.7	7.93e-05	0	43	0	1227882496	20	4769
2026-01-14 09:23:52.50	31.16	38.62	-30.0	-32.1	13.0	7.32e-05	0	43	0	1231028224	20	4617
2026-01-14 09:23:53.50	30.76	38.51	-29.4	-30.7	13.9	9.10e-06	0	43	0	1234173952	20	4185
2026-01-14 09:23:54.51	30.36	38.39	-29.1	-30.4	14.4	7.00e-07	0	43	0	1237319680	19	4204
2026-01-14 09:23:55.51	29.97	38.28	-29.2	-30.7	14.2	0.00e+00	0	43	0	1240465408	19	4285
2026-01-14 09:23:56.51	29.58	38.16	-29.3	-30.9	14.0	3.00e-06	0	43	0	1243611136	19	4353
2026-01-14 09:23:57.51	29.19	38.04	-29.5	-31.5	13.7	3.00e-06	0	43	0	1246756864	19	4518
2026-01-14 09:23:58.51	28.81	37.93	-29.8	-32.2	13.3	1.52e-05	0	43	0	1249902592	19	4755
2026-01-14 09:23:59.51	28.43	37.81	-29.8	-32.1	13.3	2.28e-05	0	43	0	1253048320	19	4729
2026-01-14 09:24:00.51	28.05	37.69	-29.3	-31.0	13.9	1.50e-06	0	43	0	1256194048	19	4396
2026-01-14 09:24:01.51	27.68	37.57	-29.0	-30.3	14.4	3.00e-06	0	43	0	1259339776	19	4186
2026-01-14 09:24:02.51	27.31	37.45	-29.1	-30.4	14.3	7.00e-07	0	43	0	1262485504	19	4221
2026-01-14 09:24:03.50	26.94	37.32	-29.0	-30.4	14.4	1.50e-06	0	43	0	1265631232	19	4203
2026-01-14 09:24:04.51	26.57	37.20	-29.2	-30.7	14.2	1.50e-06	0	43	0	1268776960	19	4289
2026-01-14 09:24:05.51	26.21	37.07	-29.7	-32.0	13.4	1.14e-05	0	43	0	1271922688	19	4686
2026-01-14 09:24:06.52	25.84	36.95	-30.1	-32.4	12.7	4.88e-05	0	43	0	1275068416	20	4725
2026-01-14 09:24:07.52	25.48	36.82	-30.1	-32.4	12.7	1.04e-04	0	43	0	1278214144	20	4724
2026-01-14 09:24:08.52	25.13	36.69	-29.5	-31.1	13.5	2.82e-05	0	43	0	1281359872	20	4296
2026-01-14 09:24:09.53	24.77	36.57	-28.9	-30.0	14.5	0.00e+00	0	43	0	1284505600	19	4086
2026-01-14 09:24:10.54	24.42	36.44	-28.3	-29.2	15.3	0.00e+00	0	43	0	1287651328	18	3989
2026-01-14 09:24:11.54	24.07	36.31	-28.2	-29.4	15.4	0.00e+00	0	43	0	1290797056	17	4153
2026-01-14 09:24:12.54	23.73	36.18	-28.5	-30.2	15.0	0.00e+00	0	43	0	1293942784	17	4372
2026-01-14 09:24:13.55	23.38	36.05	-29.4	-31.8	13.8	1.50e-06	0	43	0	1297088512	18	4748
2026-01-14 09:24:14.55	23.05	35.91	-30.0	-32.7	12.9	4.27e-05	0	43	0	1300234240	19	4937
2026-01-14 09:24:15.56	22.71	35.78	-30.1	-32.5	12.6	6.71e-05	0	43	0	1303379968	20	4770
2026-01-14 09:24:16.56	22.37	35.65	-29.6	-31.3	13.3	4.57e-05	0	43	0	1306525696	20	4372
2026-01-14 09:24:17.57	22.04	35.52	-28.6	-30.0	14.6	7.00e-07	0	43	0	1309671424	18	4200
2026-01-14 09:24:18.57	21.71	35.38	-28.0	-28.9	15.6	0.00e+00	0	43	0	1312817152	17	4021
2026-01-14 09:24:19.57	21.39	35.25	-27.6	-28.7	16.0	0.00e+00	0	43	0	1315962880	16	4068
2026-01-14 09:24:20.58	21.06	35.11	-27.9	-29.3	15.7	0.00e+00	0	43	0	1319108608	16	4240
2026-01-14 09:24:21.58	20.74	34.98	-28.4	-30.4	15.1	0.00e+00	0	43	0	1322254336	16	4526
2026-01-14 09:24:22.59	20.42	34.84	-28.9	-31.2	14.3	1.50e-06	0	43	0	1325400064	17	4671
2026-01-14 09:24:23.59	20.11	34.71	-29.5	-32.0	13.6	4.50e-06	0	43	0	1328545792	18	4794
2026-01-14 09:24:24.60	19.79	34.57	-29.7	-31.9	13.4	2.28e-05	0	43	0	1331691520	19	4680
2026-01-14 09:24:25.60	19.49	34.43	-29.5	-31.5	13.6	9.90e-06	0	43	0	1334837248	19	4547
2026-01-14 09:24:26.60	19.18	34.30	-29.2	-30.8	14.0	1.50e-06	0	43	0	1337982976	19	4346
2026-01-14 09:24:27.60	18.88	34.16	-29.0	-30.4	14.3	2.20e-06	0	43	0	1341128704	19	4207
2026-01-14 09:24:28.61	18.57	34.02	-29.0	-30.3	14.3	7.00e-07	0	43	0	1344274432	19	4186
2026-01-14 09:24:29.61	18.27	33.88	-28.8	-29.9	14.5	7.00e-07	0	43	0	1347420160	19	4083
2026-01-14 09:24:30.61	17.98	33.74	-29.0	-30.7	14.4	0.00e+00	0	43	0	1350565888	18	4413
2026-01-14 09:24:31.61	17.68	33.61	-29.4	-31.7	13.8	1.50e-06	0	43	0	1353711616	18	4720
2026-01-14 09:24:32.61	17.39	33.47	-29.7	-31.9	13.3	6.10e-06	0	43	0	1356857344	19	4686
2026-01-14 09:24:33.62	17.10	33.33	-29.6	-31.9	13.3	2.13e-05	0	43	0	1360003072	19	4660
2026-01-14 09:24:34.62	16.82	33.19	-29.3	-31.0	13.9	6.80e-06	0	43	0	1362100224	19	4392
2026-01-14 09:24:35.63	16.53	33.05	-28.9	-30.1	14.3	7.00e-07	0	43	0	1365245952	19	4148
2026-01-14 09:24:36.64	16.25	32.91	-28.8	-30.3	14.6	7.00e-07	0	43	0	1368391680	18	4287
2026-01-14 09:24:37.64	15.97	32.77	-28.5	-29.8	14.9	0.00e+00	0	43	0	1371537408	18	4145
2026-01-14 09:24:38.64	15.69	32.63	-28.3	-29.2	15.2	0.00e+00	0	43	0	1374683136	18	3995
2026-01-14 09:24:39.64	15.42	32.49	-28.2	-29.5	15.3	0.00e+00	0	43	0	1378877440	17	4188
2026-01-14 09:24:40.64	15.15	32.35	-28.5	-30.1	15.0	0.00e+00	0	43	0	1380974592	17	4334
2026-01-14 09:24:41.65	14.88	32.21	-28.4	-30.0	15.0	7.00e-07	0	43	0	1385168896	17	4309
2026-01-14 09:24:42.65	14.61	32.07	-28.3	-29.6	15.2	0.00e+00	0	43	0	1387266048	17	4218
2026-01-14 09:24:43.66	14.34	31.93	-28.2	-29.5	15.2	0.00e+00	0	43	0	1390411776	17	4193
2026-01-14 09:24:44.66	14.08	31.79	-28.2	-29.6	15.2	0.00e+00	0	43	0	1393557504	17	4206
2026-01-14 09:24:45.66	13.82	31.65	-28.2	-29.4	15.3	0.00e+00	0	43	0	1396703232	17	4167
2026-01-14 09:24:46.67	13.56	31.51	-28.1	-29.3	15.4	0.00e+00	0	43	0	1399848960	17	4135
2026-01-14 09:24:47.67	13.30	31.37	-28.1	-29.3	15.4	0.00e+00	0	43	0	1402994688	17	4126
2026-01-14 09:24:48.68	13.05	31.23	-28.3	-29.6	15.2	0.00e+00	0	43	0	1406140416	17	4218
2026-01-14 09:24:49.68	12.80	31.09	-28.3	-29.8	15.1	0.00e+00	0	43	0	1409286144	17	4256
2026-01-14 09:24:50.69	12.55	30.95	-28.5	-30.2	14.9	7.00e-07	0	43	0	1412431872	17	4371
2026-01-14 09:24:51.69	12.30	30.81	-28.7	-30.8	14.5	0.00e+00	0	43	0	1415577600	17	4547
2026-01-14 09:24:52.69	12.06	30.67	-28.7	-30.7	14.6	0.00e+00	0	43	0	1418723328	17	4515
2026-01-14 09:24:53.70	11.81	30.53	-28.7	-30.6	14.6	7.00e-07	0	43	0	1421869056	17	4490
2026-01-14 09:24:54.70	11.57	30.39	-28.5	-30.3	14.8	0.00e+00	0	43	0	1425014784	17	4407
2026-01-14 09:24:55.71	11.33	30.25	-28.4	-30.1	15.0	7.00e-07	0	43	0	1428160512	17	4336
2026-01-14 09:24:56.71	11.10	30.11	-28.4	-29.9	15.0	0.00e+00	0	43	0	1431306240	17	4300
2026-01-14 09:24:57.71	10.86	29.97	-28.6	-30.4	14.8	0.00e+00	0	43	0	1434451968	17	4428
2026-01-14 09:24:58.71	10.63	29.83	-28.5	-30.2	14.9	7.00e-07	0	43	0	1437597696	17	4364
2026-01-14 09:24:59.71	10.40	29.69	-28.4	-30.0	14.9	7.00e-07	0	43	0	1440743424	17	4315
2026-01-14 09:25:00.71	10.17	29.55	-28.6	-30.4	14.7	0.00e+00	0	43	0	1443889152	17	4437
2026-01-14 09:25:01.72	9.94	29.42	-28.7	-30.7	14.5	0.00e+00	0	43	0	1447034880	17	4523
2026-01-14 09:25:02.71	9.72	29.28	-28.8	-31.0	14.4	1.50e-06	0	43	0	1450180608	17	4615
2026-01-14 09:25:03.72	9.50	29.14	-28.9	-31.0	14.3	2.20e-06	0	43	0	1453326336	17	4626
2026-01-14 09:25:04.71	9.28	29.00	-28.5	-30.3	14.7	0.00e+00	0	43	0	1456472064	17	4399
2026-01-14 09:25:05.72	9.06	28.86	-28.1	-29.4	15.3	0.00e+00	0	43	0	1459617792	17	4142
2026-01-14 09:25:06.72	8.85	28.73	-27.8	-28.6	15.7	0.00e+00	0	43	0	1462763520	17	3943
2026-01-14 09:25:07.73	8.63	28.59	-27.5	-28.5	16.0	0.00e+00	0	43	0	1465909248	16	4021
2026-01-14 09:25:08.73	8.42	28.45	-27.7	-28.9	15.8	0.00e+00	0	43	0	1469054976	16	4122
2026-01-14 09:25:09.73	8.21	28.31	-27.8	-29.0	15.8	0.00e+00	0	43	0	1472200704	16	4164
2026-01-14 09:25:10.73	8.00	28.18	-27.9	-29.3	15.6	0.00e+00	0	43	0	1475346432	16	4247
2026-01-14 09:25:11.73	7.79	28.04	-28.1	-29.8	15.3	0.00e+00	0	43	0	1478492160	16	4361
2026-01-14 09:25:12.73	7.58	27.91	-28.1	-29.7	15.4	7.00e-07	0	43	0	1481637888	16	4350
2026-01-14 09:25:13.73	7.38	27.77	-28.1	-29.7	15.4	0.00e+00	0	43	0	1484783616	16	4348
2026-01-14 09:25:14.73	7.18	27.64	-28.1	-29.7	15.3	0.00e+00	0	43	0	1487929344	16	4361
2026-01-14 09:25:15.73	6.98	27.50	-28.2	-30.0	15.2	0.00e+00	0	43	0	1491075072	16	4442
2026-01-14 09:25:16.74	6.78	27.36	-28.2	-30.0	15.2	0.00e+00	0	43	0	1494220800	16	4437
2026-01-14 09:25:17.74	6.58	27.23	-28.3	-30.3	15.0	0.00e+00	0	43	0	1497366528	16	4536
2026-01-14 09:25:18.74	6.39	27.10	-28.1	-29.8	15.3	0.00e+00	0	43	0	1500512256	16	4394
2026-01-14 09:25:19.73	6.20	26.96	-27.9	-29.3	15.6	0.00e+00	0	43	0	1503657984	16	4243
2026-01-14 09:25:20.74	6.00	26.83	-27.8	-29.1	15.7	0.00e+00	0	43	0	1506803712	16	4198
2026-01-14 09:25:21.74	5.81	26.69	-27.8	-29.2	15.6	0.00e+00	0	43	0	1509949440	16	4203
2026-01-14 09:25:22.75	5.62	26.56	-27.7	-28.9	15.8	0.00e+00	0	43	0	1513095168	16	4137
2026-01-14 09:25:23.76	5.43	26.43	-27.6	-28.7	15.8	0.00e+00	0	43	0	1516240896	16	4089
2026-01-14 09:25:24.76	5.25	26.29	-27.7	-28.9	15.8	0.00e+00	0	43	0	1519386624	16	4130
2026-01-14 09:25:25.77	5.06	26.16	-27.5	-28.5	16.0	0.00e+00	0	43	0	1522532352	16	4038
2026-01-14 09:25:26.77	4.88	26.03	-27.4	-28.3	16.1	0.00e+00	0	43	0	1525678080	16	3970
2026-01-14 09:25:27.77	4.70	25.90	-27.4	-28.3	16.1	0.00e+00	0	43	0	1528823808	16	3980
2026-01-14 09:25:28.78	4.52	25.77	-27.5	-28.6	15.9	0.00e+00	0	43	0	1531969536	16	4047
2026-01-14 09:25:29.78	4.34	25.63	-27.5	-28.5	16.0	0.00e+00	0	43	0	1535115264	16	4016
2026-01-14 09:25:30.78	4.17	25.50	-27.6	-28.7	15.9	0.00e+00	0	43	0	1538260992	16	4084
2026-01-14 09:25:31.78	3.99	25.37	-27.4	-28.2	16.1	0.00e+00	0	43	0	1541406720	16	3957
2026-01-14 09:25:32.79	3.82	25.24	-27.1	-28.0	16.3	0.00e+00	0	43	0	1544552448	15	4024
2026-01-14 09:25:33.80	3.64	25.11	-27.1	-28.2	16.2	0.00e+00	0	43	0	1547698176	15	4053
2026-01-14 09:25:34.80	3.47	24.98	-27.1	-28.2	16.2	0.00e+00	0	43	0	1550843904	15	4056
2026-01-14 09:25:35.80	3.31	24.85	-27.3	-28.5	16.1	0.00e+00	0	43	0	1553989632	15	4136
2026-01-14 09:25:36.80	3.14	24.73	-27.3	-28.5	16.0	0.00e+00	0	43	0	1557135360	15	4155
2026-01-14 09:25:37.80	2.97	24.60	-27.7	-29.4	15.6	0.00e+00	0	43	0	1560281088	15	4385
2026-01-14 09:25:38.80	2.81	24.47	-27.7	-29.4	15.5	0.00e+00	0	43	0	1563426816	15	4404
2026-01-14 09:25:39.81	2.64	24.34	-28.0	-30.2	15.1	7.00e-07	0	43	0	1566572544	15	4618
2026-01-14 09:25:40.81	2.48	24.22	-28.2	-30.0	15.1	0.00e+00	0	43	0	1569718272	16	4447
2026-01-14 09:25:41.82	2.32	24.09	-28.1	-29.9	15.2	0.00e+00	0	43	0	1572864000	16	4412
2026-01-14 09:25:42.82	2.16	23.96	-28.1	-29.8	15.2	0.00e+00	0	43	0	1576009728	16	4390
2026-01-14 09:25:43.82	2.00	23.84	-28.1	-29.8	15.2	0.00e+00	0	43	0	1579155456	16	4390
2026-01-14 09:25:44.82	1.85	23.71	-27.9	-29.4	15.4	0.00e+00	0	43	0	1582301184	16	4273
2026-01-14 09:25:45.83	1.69	23.58	-27.9	-29.3	15.5	0.00e+00	0	43	0	1585446912	16	4257
2026-01-14 09:25:46.83	1.53	23.46	-28.0	-29.7	15.2	0.00e+00	0	43	0	1588592640	16	4363
2026-01-14 09:25:47.83	1.38	23.34	-27.9	-29.3	15.5	0.00e+00	0	43	0	1591738368	16	4257
2026-01-14 09:25:48.83	1.23	23.21	-27.7	-29.0	15.7	0.00e+00	0	43	0	1594884096	16	4159
2026-01-14 09:25:49.84	1.08	23.09	-27.6	-28.8	15.8	0.00e+00	0	43	0	1598029824	16	4108
2026-01-14 09:25:50.84	0.93	22.96	-27.7	-28.9	15.7	0.00e+00	0	43	0	1601175552	16	4143
2026-01-14 09:25:51.84	0.78	22.84	-27.7	-28.8	15.7	0.00e+00	0	43	0	1604321280	16	4124
2026-01-14 09:25:52.85	0.63	22.72	-27.6	-28.7	15.8	0.00e+00	0	43	0	1607467008	16	4076
2026-01-14 09:25:53.85	0.49	22.59	-27.7	-28.9	15.7	0.00e+00	0	43	0	1610612736	16	4131
2026-01-14 09:25:54.85	0.34	22.47	-27.6	-28.6	15.8	0.00e+00	0	43	0	1613758464	16	4065
2026-01-14 09:25:55.86	0.20	22.35	-27.4	-28.4	16.0	0.00e+00	0	43	0	1616904192	16	4000
2026-01-14 09:25:56.86	0.06	22.23	-27.5	-28.5	15.9	0.00e+00	0	43	0	1620049920	16	4041
2026-01-14 09:25:57.86	359.92	22.11	-27.3	-28.1	16.1	0.00e+00	0	43	0	1623195648	16	3921
2026-01-14 09:25:58.86	359.78	21.99	-27.1	-28.0	16.2	0.00e+00	0	43	0	1626341376	15	4018
2026-01-14 09:25:59.86	359.64	21.87	-27.0	-28.0	16.3	0.00e+00	0	43	0	1629487104	15	4002
2026-01-14 09:26:00.85	359.50	21.75	-27.2	-28.4	16.1	0.00e+00	0	43	0	1632632832	15	4116
2026-01-14 09:26:01.86	359.36	21.63	-27.1	-28.1	16.2	0.00e+00	0	43	0	1635778560	15	4027
2026-01-14 09:26:02.86	359.23	21.51	-27.0	-27.9	16.3	7.00e-07	0	43	0	1637875712	15	3993
2026-01-14 09:26:03.86	359.09	21.39	-27.1	-28.1	16.2	0.00e+00	0	43	0	1641021440	15	4039
2026-01-14 09:26:04.86	358.96	21.28	-27.1	-28.1	16.2	0.00e+00	0	43	0	1644167168	15	4031
2026-01-14 09:26:05.87	358.83	21.16	-27.2	-28.3	16.1	1.50e-06	0	43	0	1647312896	15	4098
2026-01-14 09:26:06.87	358.69	21.04	-27.2	-28.4	16.0	0.00e+00	0	43	0	1650458624	15	4115
2026-01-14 09:26:07.88	358.56	20.92	-27.3	-28.5	16.0	0.00e+00	0	43	0	1653604352	15	4146
2026-01-14 09:26:08.88	358.43	20.81	-27.4	-28.7	15.9	0.00e+00	0	43	0	1656750080	15	4196
2026-01-14 09:26:09.89	358.30	20.69	-27.4	-28.8	15.8	0.00e+00	0	43	0	1659895808	15	4236
2026-01-14 09:26:10.88	358.18	20.58	-27.5	-29.1	15.6	0.00e+00	0	43	0	1663041536	15	4313
2026-01-14 09:26:11.89	358.05	20.46	-27.7	-29.4	15.5	0.00e+00	0	43	0	1666187264	15	4399
2026-01-14 09:26:12.88	357.93	20.35	-27.7	-29.4	15.5	0.00e+00	0	43	0	1669332992	15	4388
2026-01-14 09:26:13.89	357.80	20.23	-27.8	-29.6	15.3	0.00e+00	0	43	0	1672478720	15	4463
2026-01-14 09:26:14.89	357.68	20.12	-27.7	-29.4	15.4	0.00e+00	0	43	0	1675624448	15	4397
2026-01-14 09:26:15.89	357.55	20.00	-27.6	-29.3	15.6	0.00e+00	0	43	0	1678770176	15	4359
2026-01-14 09:26:16.90	357.43	19.89	-27.7	-29.4	15.4	0.00e+00	0	43	0	1681915904	15	4388
2026-01-14 09:26:17.91	357.31	19.77	-27.5	-29.1	15.6	0.00e+00	0	43	0	1685061632	15	4299
2026-01-14 09:26:18.91	357.19	19.66	-27.6	-29.3	15.5	0.00e+00	0	43	0	1688207360	15	4359
2026-01-14 09:26:19.91	357.07	19.55	-27.4	-28.7	15.8	0.00e+00	0	43	0	1691353088	15	4207
2026-01-14 09:26:20.91	356.95	19.44	-27.2	-28.3	16.0	0.00e+00	0	43	0	1694498816	15	4082
2026-01-14 09:26:21.92	356.83	19.33	-27.0	-27.9	16.2	0.00e+00	0	43	0	1697644544	15	4002
2026-01-14 09:26:22.93	356.72	19.21	-27.0	-28.0	16.2	0.00e+00	0	43	0	1700790272	15	4007
2026-01-14 09:26:23.93	356.60	19.10	-27.2	-28.3	16.0	0.00e+00	0	43	0	1703936000	15	4090
2026-01-14 09:26:24.94	356.49	18.99	-27.0	-28.0	16.2	0.00e+00	0	43	0	1707081728	15	4014
2026-01-14 09:26:25.94	356.37	18.88	-26.9	-27.7	16.3	0.00e+00	0	43	0	1710227456	15	3941
2026-01-14 09:26:26.95	356.26	18.77	-26.9	-27.7	16.3	0.00e+00	0	43	0	1713373184	15	3938
2026-01-14 09:26:27.96	356.15	18.66	-27.2	-28.4	16.0	0.00e+00	0	43	0	1716518912	15	4111
2026-01-14 09:26:28.96	356.03	18.55	-27.1	-28.2	16.1	0.00e+00	0	43	0	1719664640	15	4059
2026-01-14 09:26:29.96	355.92	18.44	-27.3	-28.6	15.9	0.00e+00	0	43	0	1722810368	15	4168
2026-01-14 09:26:30.97	355.81	18.33	-27.3	-28.6	15.8	0.00e+00	0	43	0	1725956096	15	4174
2026-01-14 09:26:31.97	355.70	18.23	-27.5	-29.0	15.6	0.00e+00	0	43	0	1729101824	15	4274
2026-01-14 09:26:32.97	355.60	18.12	-27.6	-29.3	15.4	0.00e+00	0	43	0	1732247552	15	4372
2026-01-14 09:26:33.98	355.49	18.01	-27.6	-29.4	15.4	0.00e+00	0	43	0	1735393280	15	4387
2026-01-14 09:26:34.98	355.38	17.90	-27.8	-29.8	15.2	0.00e+00	0	43	0	1738539008	15	4509
2026-01-14 09:26:35.99	355.28	17.80	-27.8	-29.7	15.2	0.00e+00	0	43	0	1741684736	15	4498
2026-01-14 09:26:36.99	355.17	17.69	-28.0	-30.1	14.9	0.00e+00	0	43	0	1744830464	15	4618
2026-01-14 09:26:38.00	355.07	17.58	-28.1	-29.8	15.0	0.00e+00	0	43	0	1747976192	16	4407
2026-01-14 09:26:39.01	354.96	17.48	-28.3	-30.3	14.8	0.00e+00	0	43	0	1751121920	16	4540
2026-01-14 09:26:40.01	354.86	17.37	-28.1	-29.8	15.0	0.00e+00	0	43	0	1754267648	16	4410
2026-01-14 09:26:41.01	354.76	17.27	-28.0	-29.6	15.1	0.00e+00	0	43	0	1757413376	16	4344
2026-01-14 09:26:42.02	354.65	17.16	-27.9	-29.5	15.2	0.00e+00	0	43	0	1760559104	16	4310
2026-01-14 09:26:43.03	354.55	17.06	-28.0	-29.7	15.1	7.00e-07	0	43	0	1763704832	16	4362
2026-01-14 09:26:44.02	354.46	16.96	-27.9	-29.4	15.3	0.00e+00	0	43	0	1766850560	16	4271
2026-01-14 09:26:45.02	354.36	16.85	-27.9	-29.3	15.3	0.00e+00	0	43	0	1769996288	16	4260
2026-01-14 09:26:46.02	354.26	16.75	-27.9	-29.4	15.2	0.00e+00	0	43	0	1773142016	16	4294
2026-01-14 09:26:47.02	354.16	16.65	-27.9	-29.4	15.2	7.00e-07	0	43	0	1776287744	16	4279
2026-01-14 09:26:48.03	354.06	16.55	-27.9	-29.5	15.1	0.00e+00	0	43	0	1779433472	16	4324
2026-01-14 09:26:49.03	353.97	16.44	-28.0	-29.6	15.1	0.00e+00	0	43	0	1782579200	16	4329
2026-01-14 09:26:50.04	353.87	16.34	-28.0	-29.7	15.0	0.00e+00	0	43	0	1785724928	16	4374
2026-01-14 09:26:51.04	353.78	16.24	-28.1	-29.9	14.9	7.00e-07	0	43	0	1788870656	16	4424
2026-01-14 09:26:52.05	353.68	16.14	-28.1	-29.8	15.0	0.00e+00	0	43	0	1792016384	16	4409
2026-01-14 09:26:53.05	353.59	16.04	-28.2	-30.1	14.8	0.00e+00	0	43	0	1795162112	16	4472
2026-01-14 09:26:54.06	353.49	15.94	-28.2	-30.0	14.8	7.00e-07	0	43	0	1798307840	16	4455
2026-01-14 09:26:55.06	353.40	15.84	-28.3	-30.3	14.6	0.00e+00	0	43	0	1801453568	16	4555
2026-01-14 09:26:56.07	353.31	15.74	-28.3	-30.3	14.6	0.00e+00	0	43	0	1804599296	16	4553
2026-01-14 09:26:57.08	353.22	15.64	-28.4	-30.7	14.4	0.00e+00	0	43	0	1807745024	16	4663
2026-01-14 09:26:58.08	353.13	15.54	-28.4	-30.5	14.5	0.00e+00	0	43	0	1810890752	16	4615
2026-01-14 09:26:59.08	353.04	15.44	-28.6	-30.5	14.2	7.00e-07	0	43	0	1814036480	17	4503
2026-01-14 09:27:00.08	352.95	15.34	-28.6	-30.6	14.1	1.50e-06	0	43	0	1817182208	17	4539
2026-01-14 09:27:01.08	352.86	15.24	-28.5	-30.3	14.3	0.00e+00	0	43	0	1820327936	17	4451
2026-01-14 09:27:02.08	352.77	15.15	-28.5	-30.3	14.3	0.00e+00	0	43	0	1823473664	17	4449
2026-01-14 09:27:03.07	352.68	15.05	-28.6	-30.7	14.1	0.00e+00	0	43	0	1826619392	17	4551
2026-01-14 09:27:04.08	352.60	14.95	-28.6	-30.5	14.2	0.00e+00	0	43	0	1829765120	17	4512
2026-01-14 09:27:05.09	352.51	14.86	-28.7	-30.8	14.0	4.50e-06	0	43	0	1832910848	17	4602
2026-01-14 09:27:06.09	352.42	14.76	-28.7	-30.7	14.1	3.00e-06	0	43	0	1836056576	17	4574
2026-01-14 09:27:07.10	352.34	14.66	-28.7	-30.7	14.0	2.20e-06	0	43	0	1839202304	17	4578
2026-01-14 09:27:08.11	352.25	14.57	-28.7	-30.8	14.0	3.00e-06	0	43	0	1842348032	17	4585
2026-01-14 09:27:09.11	352.17	14.47	-28.7	-30.9	13.9	1.50e-06	0	43	0	1845493760	17	4627
2026-01-14 09:27:10.12	352.09	14.38	-28.6	-30.7	14.0	4.50e-06	0	43	0	1848639488	17	4569
2026-01-14 09:27:11.12	352.00	14.28	-28.9	-31.3	13.7	8.30e-06	0	43	0	1851785216	17	4746
2026-01-14 09:27:12.13	351.92	14.19	-28.7	-30.9	13.9	4.50e-06	0	43	0	1854930944	17	4627
2026-01-14 09:27:13.14	351.84	14.09	-28.6	-30.7	14.1	2.20e-06	0	43	0	1858076672	17	4550
2026-01-14 09:27:14.14	351.76	14.00	-28.6	-30.6	14.1	4.50e-06	0	43	0	1861222400	17	4537
2026-01-14 09:27:15.14	351.68	13.90	-28.7	-30.9	13.9	4.50e-06	0	43	0	1864368128	17	4635
2026-01-14 09:27:16.15	351.60	13.81	-28.7	-30.7	14.0	4.50e-06	0	43	0	1867513856	17	4573
2026-01-14 09:27:17.15	351.52	13.72	-28.7	-30.8	14.0	7.00e-07	0	43	0	1870659584	17	4585
2026-01-14 09:27:18.15	351.44	13.62	-28.7	-30.9	13.9	9.10e-06	0	43	0	1873805312	17	4637
2026-01-14 09:27:19.16	351.36	13.53	-28.7	-30.8	13.9	5.30e-06	0	43	0	1876951040	17	4600
2026-01-14 09:27:20.16	351.28	13.44	-28.8	-31.0	13.8	7.60e-06	0	43	0	1880096768	17	4671
2026-01-14 09:27:21.17	351.20	13.35	-28.7	-30.9	13.9	5.30e-06	0	43	0	1883242496	17	4638
2026-01-14 09:27:22.17	351.12	13.26	-28.8	-31.0	13.8	2.20e-06	0	43	0	1886388224	17	4671
2026-01-14 09:27:23.17	351.05	13.16	-29.0	-31.5	13.5	1.29e-05	0	43	0	1889533952	17	4808
2026-01-14 09:27:24.18	350.97	13.07	-28.7	-30.9	13.9	4.50e-06	0	43	0	1892679680	17	4623
2026-01-14 09:27:25.18	350.90	12.98	-28.7	-30.8	13.9	2.20e-06	0	43	0	1895825408	17	4591
2026-01-14 09:27:26.18	350.82	12.89	-28.9	-31.2	13.7	5.30e-06	0	43	0	1898971136	17	4738
2026-01-14 09:27:27.18	350.75	12.80	-28.7	-30.9	13.9	6.80e-06	0	43	0	1902116864	17	4613
2026-01-14 09:27:28.18	350.67	12.71	-28.7	-30.9	13.9	3.80e-06	0	43	0	1905262592	17	4615
2026-01-14 09:27:29.18	350.60	12.62	-28.7	-30.9	13.9	6.10e-06	0	43	0	1908408320	17	4626
2026-01-14 09:27:30.18	350.53	12.53	-28.6	-30.7	13.9	4.50e-06	0	43	0	1911554048	17	4566
2026-01-14 09:27:31.19	350.45	12.45	-28.6	-30.7	13.9	7.00e-07	0	43	0	1914699776	17	4564
2026-01-14 09:27:32.19	350.38	12.36	-28.6	-30.7	13.9	1.50e-06	0	43	0	1917845504	17	4575
2026-01-14 09:27:33.19	350.31	12.27	-28.6	-30.7	13.9	7.00e-07	0	43	0	1920991232	17	4567
2026-01-14 09:27:34.19	350.24	12.18	-28.7	-31.0	13.7	3.00e-06	0	43	0	1924136960	17	4652
2026-01-14 09:27:35.19	350.17	12.09	-28.8	-31.0	13.7	4.50e-06	0	43	0	1927282688	17	4679
2026-01-14 09:27:36.20	350.10	12.00	-28.8	-31.1	13.7	9.90e-06	0	43	0	1930428416	17	4698
2026-01-14 09:27:37.20	350.03	11.92	-28.9	-31.3	13.5	4.50e-06	0	43	0	1933574144	17	4757
2026-01-14 09:27:38.20	349.96	11.83	-28.8	-31.1	13.6	6.80e-06	0	43	0	1936719872	17	4713
2026-01-14 09:27:39.20	349.89	11.74	-28.9	-31.4	13.5	1.37e-05	0	43	0	1939865600	17	4796
2026-01-14 09:27:40.21	349.82	11.66	-29.2	-31.6	13.1	2.44e-05	0	43	0	1943011328	18	4746
2026-01-14 09:27:41.21	349.75	11.57	-29.0	-31.2	13.3	1.14e-05	0	43	0	1946157056	18	4605
2026-01-14 09:27:42.22	349.68	11.48	-29.0	-31.1	13.3	1.75e-05	0	43	0	1949302784	18	4603
2026-01-14 09:27:43.22	349.61	11.40	-29.2	-31.5	13.1	2.13e-05	0	43	0	1952448512	18	4714
2026-01-14 09:27:44.22	349.55	11.31	-29.2	-31.5	13.1	2.36e-05	0	43	0	1955594240	18	4727
2026-01-14 09:27:45.23	349.48	11.23	-29.0	-31.2	13.2	2.13e-05	0	43	0	1958739968	18	4627
2026-01-14 09:27:46.24	349.41	11.14	-29.2	-31.7	12.9	3.35e-05	0	43	0	1960837120	18	4790
2026-01-14 09:27:47.24	349.35	11.06	-29.2	-31.7	12.9	4.11e-05	0	43	0	1963982848	18	4788
2026-01-14 09:27:48.25	349.28	10.97	-29.2	-31.7	12.9	5.87e-05	0	43	0	1968177152	18	4780
2026-01-14 09:27:49.25	349.22	10.89	-29.2	-31.7	12.9	6.02e-05	0	43	0	1971322880	18	4795
2026-01-14 09:27:50.26	349.15	10.80	-29.3	-31.9	12.7	1.30e-04	0	43	0	1974468608	18	4864
2026-01-14 09:27:51.26	349.09	10.72	-29.3	-31.9	12.8	7.24e-05	0	43	0	1977614336	18	4866
2026-01-14 09:27:52.25	349.03	10.64	-29.4	-32.1	12.7	1.46e-04	0	43	0	1980760064	18	4921
2026-01-14 09:27:53.26	348.96	10.55	-29.3	-32.0	12.7	6.17e-05	0	43	0	1983905792	18	4903
2026-01-14 09:27:54.26	348.90	10.47	-29.4	-32.2	12.6	9.84e-05	0	43	0	1986002944	18	4955
2026-01-14 09:27:55.26	348.84	10.39	-29.5	-31.8	12.5	1.23e-04	0	43	0	1989148672	19	4717
2026-01-14 09:27:56.26	348.77	10.31	-29.4	-31.6	12.7	9.15e-05	0	43	0	1992294400	19	4634
2026-01-14 09:27:57.26	348.71	10.22	-29.4	-31.7	12.6	1.83e-04	0	43	0	1995440128	19	4665
2026-01-14 09:27:58.27	348.65	10.14	-29.5	-31.9	12.4	1.47e-04	0	43	0	1998585856	19	4744
2026-01-14 09:27:59.27	348.59	10.06	-29.3	-31.4	12.7	9.38e-05	0	43	0	2001731584	19	4601
2026-01-14 09:28:00.27	348.53	9.98	-29.5	-31.9	12.5	1.28e-04	0	43	0	2004877312	19	4731
2026-01-14 09:28:01.27	348.47	9.90	-29.4	-31.7	12.5	1.30e-04	0	43	0	2008023040	19	4670
2026-01-14 09:28:02.27	348.41	9.82	-29.3	-31.4	12.7	7.85e-05	0	43	0	2011168768	19	4577
2026-01-14 09:28:03.26	348.35	9.74	-29.4	-31.5	12.6	1.15e-04	0	43	0	2014314496	19	4632
2026-01-14 09:28:04.27	348.29	9.65	-29.2	-31.2	12.8	9.07e-05	0	43	0	2017460224	19	4507
2026-01-14 09:28:05.27	348.23	9.57	-29.1	-31.0	12.9	6.86e-05	0	43	0	2020605952	19	4476
2026-01-14 09:28:06.28	348.17	9.49	-29.4	-31.7	12.5	7.09e-05	0	43	0	2023751680	19	4668
2026-01-14 09:28:07.28	348.11	9.41	-29.5	-32.0	12.3	1.53e-04	0	43	0	2026897408	19	4772
2026-01-14 09:28:08.29	348.05	9.33	-29.4	-31.6	12.6	1.07e-04	0	43	0	2030043136	19	4636
2026-01-14 09:28:09.30	348.00	9.25	-29.3	-31.5	12.6	1.14e-04	0	43	0	2033188864	19	4607
2026-01-14 09:28:10.30	347.94	9.17	-29.2	-31.2	12.8	4.80e-05	0	43	0	2036334592	19	4510
2026-01-14 09:28:11.30	347.88	9.10	-29.4	-31.8	12.4	1.48e-04	0	43	0	2039480320	19	4712
2026-01-14 09:28:12.30	347.82	9.02	-29.4	-31.5	12.6	1.20e-04	0	43	0	2042626048	19	4631
2026-01-14 09:28:13.30	347.77	8.94	-29.2	-31.2	12.8	6.40e-05	0	43	0	2045771776	19	4515
2026-01-14 09:28:14.31	347.71	8.86	-29.3	-31.5	12.6	5.72e-05	0	43	0	2048917504	19	4616
2026-01-14 09:28:15.31	347.66	8.78	-29.6	-32.1	12.2	2.88e-04	0	43	0	2052063232	19	4816
2026-01-14 09:28:16.31	347.60	8.70	-29.4	-31.6	12.5	1.22e-04	0	43	0	2055208960	19	4664
2026-01-14 09:28:17.31	347.55	8.63	-29.5	-31.9	12.3	1.24e-04	0	43	0	2058354688	19	4748
2026-01-14 09:28:18.31	347.49	8.55	-29.3	-31.5	12.5	9.53e-05	0	43	0	2061500416	19	4621
2026-01-14 09:28:19.32	347.44	8.47	-29.3	-31.5	12.6	6.40e-05	0	43	0	2064646144	19	4617
2026-01-14 09:28:20.33	347.38	8.39	-29.4	-31.6	12.5	2.09e-04	0	43	0	2067791872	19	4654
2026-01-14 09:28:21.33	347.33	8.32	-29.3	-31.5	12.5	1.24e-04	0	43	0	2070937600	19	4610
2026-01-14 09:28:22.33	347.27	8.24	-29.3	-31.6	12.5	1.22e-04	0	43	0	2074083328	19	4641
2026-01-14 09:28:23.34	347.22	8.16	-29.2	-31.1	12.8	9.30e-05	0	43	0	2077229056	19	4483
2026-01-14 09:28:24.34	347.17	8.09	-29.3	-31.5	12.5	7.55e-05	0	43	0	2080374784	19	4636
2026-01-14 09:28:25.34	347.11	8.01	-29.3	-31.5	12.5	1.21e-04	0	43	0	2083520512	19	4641
2026-01-14 09:28:26.34	347.06	7.94	-29.5	-32.0	12.1	1.40e-04	0	43	0	2086666240	19	4805
2026-01-14 09:28:27.35	347.01	7.86	-29.4	-31.8	12.3	2.18e-04	0	43	0	2089811968	19	4721
2026-01-14 09:28:28.35	346.96	7.78	-29.4	-31.8	12.3	1.64e-04	0	43	0	2092957696	19	4716
2026-01-14 09:28:29.35	346.91	7.71	-29.3	-31.6	12.4	1.52e-04	0	43	0	2096103424	19	4654
2026-01-14 09:28:30.35	346.86	7.63	-29.5	-31.9	12.2	1.54e-04	0	43	0	2099249152	19	4767
2026-01-14 09:28:31.35	346.80	7.56	-29.4	-31.7	12.3	2.25e-04	0	43	0	2102394880	19	4701
2026-01-14 09:28:32.36	346.75	7.48	-29.5	-32.0	12.2	1.82e-04	0	43	0	2105540608	19	4787
2026-01-14 09:28:33.36	346.70	7.41	-29.4	-31.8	12.2	1.82e-04	0	43	0	2108686336	19	4739
2026-01-14 09:28:34.37	346.65	7.33	-29.7	-32.5	11.8	5.73e-04	0	43	0	2111832064	19	4972
2026-01-14 09:28:35.36	346.60	7.26	-29.6	-32.3	11.9	3.74e-04	0	43	0	2114977792	19	4901
2026-01-14 09:28:36.36	346.55	7.19	-29.8	-32.8	11.5	8.36e-04	0	43	0	2118123520	19	5092
2026-01-14 09:28:37.36	346.51	7.11	-31.9	-37.2	7.4	1.56e-03	0	43	0	2121269248	23	6686
2026-01-14 09:28:38.37	346.46	7.04	-33.6	-45.1	3.8	1.49e+00	0	43	104	2121269248	27	13573

#Closed at: 2026-01-14 09:28:39
#Recorded file [2121 MB]: D:/data/31010_260114_121718.dat