passes_logs/2026/01/14/R2M6_AANII_01/R2M6_AANII_01__20260114_024500_NOAA_21_JPSS-2_rec.log

#Pass ID: 20260114_024500_NOAA 21 (JPSS-2)
#Satellite: NOAA 21 (JPSS-2)
#Configuration: NOAA 21
#almurnet v.1.7.20240730
#Start time: 2026-01-14 02:47:38

#Version: 2.2.20231116
#Station: R2M6_AANII_01
#Location: 30.233357 lon 59.946436 lat
#TLE: 1 54234U 22150A   26013.18009385  .00000056  00000+0  47387-4 0  9997
#TLE: 2 54234  98.7496 314.1019 0000691 303.8246  56.2864 14.19534466164559

#Time	Az	El	Level	Level2	SNR	BER	BlckErr	Temp	State	Recorded	gain1	gain2
2026-01-14 02:47:38.21	345.17	15.51	-34.0	-43.9	3.8	8.46e-01	0	43	0	0	27	11274
2026-01-14 02:47:39.18	344.98	15.55	-34.5	-46.4	3.8	1.49e+00	0	43	104	0	29	14088
2026-01-14 02:47:40.17	344.78	15.59	-34.6	-46.5	3.8	1.49e+00	0	43	104	0	29	14186
2026-01-14 02:47:41.16	344.59	15.64	-34.6	-46.6	3.8	1.49e+00	0	43	104	0	29	14240
2026-01-14 02:47:42.14	344.39	15.68	-34.6	-46.6	3.8	1.49e+00	0	43	104	0	29	14256
2026-01-14 02:47:43.14	344.19	15.72	-34.6	-46.6	3.8	1.49e+00	0	43	104	0	29	14275
2026-01-14 02:47:44.13	343.99	15.76	-34.6	-46.6	3.8	1.49e+00	0	43	104	0	29	14265
2026-01-14 02:47:45.13	343.79	15.80	-34.6	-46.6	3.8	1.49e+00	0	43	104	0	29	14249
2026-01-14 02:47:46.13	343.59	15.85	-34.6	-46.6	3.8	1.49e+00	0	43	104	0	29	14238
2026-01-14 02:47:47.13	343.39	15.89	-34.6	-46.5	3.8	1.49e+00	0	43	104	0	29	14234
2026-01-14 02:47:48.11	343.19	15.93	-34.6	-46.6	3.8	1.49e+00	0	43	104	0	29	14243
2026-01-14 02:47:49.09	342.99	15.97	-34.6	-46.5	3.8	1.49e+00	0	43	104	0	29	14196
2026-01-14 02:47:50.08	342.79	16.01	-34.6	-46.5	3.8	1.49e+00	0	43	104	0	29	14210
2026-01-14 02:47:51.08	342.59	16.05	-34.6	-46.6	3.8	1.49e+00	0	43	104	0	29	14267
2026-01-14 02:47:52.08	342.39	16.09	-34.6	-46.5	3.8	1.49e+00	0	43	104	0	29	14194
2026-01-14 02:47:53.07	342.18	16.13	-34.6	-46.5	3.8	1.49e+00	0	43	104	0	29	14242
2026-01-14 02:47:54.07	341.98	16.17	-34.6	-46.5	3.8	1.49e+00	0	43	104	0	29	14242
2026-01-14 02:47:55.07	341.77	16.20	-34.6	-46.5	3.8	1.49e+00	0	43	104	0	29	14230
2026-01-14 02:47:56.07	341.57	16.24	-34.6	-46.5	3.8	1.49e+00	0	43	104	0	29	14136
2026-01-14 02:47:57.07	341.36	16.28	-34.6	-46.4	3.8	1.49e+00	0	43	104	0	29	14100
2026-01-14 02:47:58.08	341.15	16.32	-34.5	-46.4	3.8	1.49e+00	0	43	104	0	29	14141
2026-01-14 02:47:59.08	340.94	16.36	-34.5	-46.4	3.8	1.49e+00	0	43	104	0	29	14157
2026-01-14 02:48:00.08	340.73	16.39	-34.6	-46.5	3.8	1.49e+00	0	43	104	0	29	14157
2026-01-14 02:48:01.07	340.52	16.43	-34.6	-46.5	3.8	1.49e+00	0	43	104	0	29	14172
2026-01-14 02:48:02.07	340.32	16.47	-34.5	-46.4	3.8	1.49e+00	0	43	104	0	29	14058
2026-01-14 02:48:03.07	340.11	16.50	-34.5	-46.3	3.8	1.49e+00	0	43	104	0	29	14014
2026-01-14 02:48:04.07	339.89	16.54	-34.5	-46.2	3.8	1.49e+00	0	43	104	0	29	13974
2026-01-14 02:48:05.07	339.68	16.58	-34.4	-46.7	3.8	1.49e+00	0	43	104	0	28	14781
2026-01-14 02:48:06.08	339.47	16.61	-34.4	-46.6	3.8	1.49e+00	0	43	104	0	28	14656
2026-01-14 02:48:07.09	339.26	16.65	-34.2	-46.2	3.8	1.49e+00	0	43	104	0	28	14342
2026-01-14 02:48:08.08	339.04	16.68	-34.2	-46.2	3.9	1.49e+00	0	43	104	0	28	14302
2026-01-14 02:48:09.09	338.83	16.71	-34.1	-46.0	3.8	1.49e+00	0	43	104	0	28	14121
2026-01-14 02:48:10.10	338.61	16.75	-34.0	-45.3	3.8	1.49e+00	0	43	104	0	27	13340
2026-01-14 02:48:11.10	338.40	16.78	-34.0	-45.6	3.8	1.49e+00	0	43	104	0	27	13737
2026-01-14 02:48:12.11	338.18	16.82	-33.9	-45.6	3.8	1.49e+00	0	43	104	0	27	13714
2026-01-14 02:48:13.11	337.97	16.85	-34.0	-45.6	3.8	1.49e+00	0	43	104	0	27	13788
2026-01-14 02:48:14.12	337.75	16.88	-34.0	-45.7	3.8	1.49e+00	0	43	104	0	27	13962
2026-01-14 02:48:15.12	337.53	16.91	-34.0	-45.8	3.8	1.49e+00	0	43	104	0	27	14058
2026-01-14 02:48:16.12	337.32	16.94	-34.0	-45.9	3.8	1.49e+00	0	43	104	0	27	14231
2026-01-14 02:48:17.13	337.10	16.98	-34.0	-46.0	3.8	1.49e+00	0	43	104	0	27	14344
2026-01-14 02:48:18.13	336.88	17.01	-34.0	-45.9	3.8	1.49e+00	0	43	104	0	27	14221
2026-01-14 02:48:19.14	336.66	17.04	-34.0	-45.7	3.8	1.49e+00	0	43	104	0	27	13945
2026-01-14 02:48:20.14	336.44	17.07	-33.9	-45.4	3.8	1.49e+00	0	43	104	0	27	13572
2026-01-14 02:48:21.13	336.23	17.10	-33.9	-45.4	3.8	1.49e+00	0	43	104	0	27	13494
2026-01-14 02:48:22.14	336.00	17.13	-34.0	-45.7	3.8	1.49e+00	0	43	104	0	27	13975
2026-01-14 02:48:23.14	335.78	17.15	-34.0	-46.1	3.8	1.49e+00	0	43	104	0	27	14528
2026-01-14 02:48:24.13	335.57	17.18	-33.9	-45.5	3.8	1.49e+00	0	43	104	0	28	13724
2026-01-14 02:48:25.14	335.34	17.21	-34.0	-46.0	3.8	1.49e+00	0	43	104	0	27	14373
2026-01-14 02:48:26.13	335.13	17.24	-33.9	-45.6	3.8	1.49e+00	0	43	104	0	27	13778
2026-01-14 02:48:27.14	334.90	17.27	-33.8	-44.6	3.8	1.49e+00	0	43	104	0	27	12487
2026-01-14 02:48:28.14	334.68	17.29	-33.5	-42.3	3.9	1.48e+00	0	43	104	0	27	9885
2026-01-14 02:48:29.15	334.46	17.32	-32.9	-38.6	5.9	4.74e-01	0	43	104	0	26	6988
2026-01-14 02:48:30.15	334.23	17.35	-32.0	-35.7	8.2	7.40e-02	0	43	0	2097152	25	5549
2026-01-14 02:48:31.16	334.01	17.37	-31.1	-34.1	10.1	1.38e-02	0	43	0	5242880	23	5058
2026-01-14 02:48:32.16	333.78	17.40	-30.6	-33.6	11.1	6.81e-03	0	43	0	8388608	21	5090
2026-01-14 02:48:33.16	333.56	17.42	-30.6	-33.7	11.0	1.66e-03	0	43	0	11534336	21	5105
2026-01-14 02:48:34.16	333.34	17.45	-30.7	-33.9	10.9	6.72e-03	0	43	0	14680064	21	5193
2026-01-14 02:48:35.17	333.11	17.47	-30.6	-33.5	11.1	5.53e-03	0	43	0	17825792	21	5029
2026-01-14 02:48:36.16	332.89	17.49	-30.4	-33.1	11.4	1.06e-03	0	43	0	20971520	21	4907
2026-01-14 02:48:37.17	332.66	17.52	-30.4	-33.6	11.4	4.80e-03	0	43	0	24117248	20	5175
2026-01-14 02:48:38.16	332.44	17.54	-30.4	-33.6	11.4	5.36e-03	0	43	0	27262976	20	5200
2026-01-14 02:48:39.16	332.21	17.56	-30.5	-33.9	11.2	1.08e-03	0	43	0	30408704	20	5300
2026-01-14 02:48:40.16	331.99	17.58	-30.9	-34.4	10.5	8.39e-03	0	43	0	33554432	21	5399
2026-01-14 02:48:41.16	331.76	17.60	-30.3	-33.3	11.6	5.15e-03	0	43	0	36700160	20	5093
2026-01-14 02:48:42.16	331.53	17.62	-29.7	-31.8	12.6	1.20e-04	0	43	0	39845888	20	4567
2026-01-14 02:48:43.15	331.31	17.64	-29.2	-30.9	13.4	3.96e-03	0	43	0	42991616	19	4408
2026-01-14 02:48:44.16	331.08	17.66	-28.7	-30.7	14.2	3.68e-03	0	43	0	46137344	17	4554
2026-01-14 02:48:45.16	330.85	17.68	-28.4	-30.0	14.6	0.00e+00	0	43	0	49283072	17	4353
2026-01-14 02:48:46.16	330.62	17.70	-28.7	-30.9	14.0	2.56e-04	0	43	0	52428800	17	4595
2026-01-14 02:48:47.17	330.39	17.72	-28.7	-30.9	14.1	4.50e-06	0	43	0	55574528	17	4603
2026-01-14 02:48:48.17	330.16	17.74	-28.8	-31.1	13.9	0.00e+00	0	43	0	58720256	17	4679
2026-01-14 02:48:49.17	329.93	17.76	-28.8	-31.1	13.9	4.12e-03	0	43	0	61865984	17	4672
2026-01-14 02:48:50.18	329.70	17.77	-28.9	-31.2	13.9	4.02e-03	0	43	0	65011712	17	4693
2026-01-14 02:48:51.18	329.47	17.79	-28.9	-31.2	13.8	3.00e-06	0	43	0	68157440	17	4722
2026-01-14 02:48:52.18	329.24	17.81	-28.9	-31.2	13.9	1.50e-06	0	43	0	71303168	17	4685
2026-01-14 02:48:53.19	329.01	17.82	-29.2	-31.5	13.4	3.77e-03	0	43	0	74448896	18	4675
2026-01-14 02:48:54.19	328.78	17.84	-28.8	-30.5	14.0	3.00e-06	0	43	0	77594624	18	4366
2026-01-14 02:48:55.19	328.55	17.85	-28.4	-30.1	14.5	3.66e-03	0	43	0	80740352	17	4373
2026-01-14 02:48:56.19	328.32	17.87	-28.2	-30.0	14.8	0.00e+00	0	43	0	83886080	16	4461
2026-01-14 02:48:57.19	328.09	17.88	-28.1	-29.8	15.0	0.00e+00	0	43	0	87031808	16	4397
2026-01-14 02:48:58.20	327.86	17.90	-28.1	-29.8	15.0	0.00e+00	0	43	0	90177536	16	4404
2026-01-14 02:48:59.20	327.63	17.91	-28.2	-30.1	14.9	3.90e-03	0	43	0	93323264	16	4470
2026-01-14 02:49:00.21	327.39	17.92	-28.2	-30.2	14.8	9.07e-05	0	43	0	96468992	16	4511
2026-01-14 02:49:01.21	327.16	17.93	-28.4	-30.5	14.6	7.00e-07	0	43	0	99614720	16	4607
2026-01-14 02:49:02.21	326.93	17.94	-28.1	-29.9	14.9	0.00e+00	0	43	0	102760448	16	4430
2026-01-14 02:49:03.22	326.69	17.96	-28.0	-29.6	15.0	0.00e+00	0	43	0	105906176	16	4349
2026-01-14 02:49:04.23	326.46	17.97	-27.8	-29.7	15.1	0.00e+00	0	43	0	109051904	15	4496
2026-01-14 02:49:05.24	326.22	17.98	-27.8	-29.8	15.1	4.02e-03	0	43	0	112197632	15	4527
2026-01-14 02:49:06.23	325.99	17.99	-27.9	-30.1	14.9	7.00e-07	0	43	0	115343360	15	4597
2026-01-14 02:49:07.24	325.76	18.00	-27.8	-29.8	15.1	0.00e+00	0	43	0	118489088	15	4525
2026-01-14 02:49:08.23	325.53	18.00	-27.9	-29.8	15.1	0.00e+00	0	43	0	121634816	15	4525
2026-01-14 02:49:09.24	325.29	18.01	-27.8	-29.8	15.1	0.00e+00	0	43	0	124780544	15	4509
2026-01-14 02:49:10.24	325.06	18.02	-27.8	-29.8	15.1	0.00e+00	0	43	0	127926272	15	4522
2026-01-14 02:49:11.24	324.83	18.03	-27.9	-30.1	14.9	0.00e+00	0	43	0	131072000	15	4593
2026-01-14 02:49:12.24	324.59	18.03	-27.9	-29.9	15.0	0.00e+00	0	43	0	134217728	15	4537
2026-01-14 02:49:13.25	324.36	18.04	-28.2	-30.1	14.8	0.00e+00	0	43	0	137363456	16	4477
2026-01-14 02:49:14.26	324.12	18.05	-28.0	-29.7	15.0	0.00e+00	0	43	0	140509184	16	4379
2026-01-14 02:49:15.26	323.89	18.05	-28.0	-29.6	15.1	0.00e+00	0	43	0	143654912	16	4328
2026-01-14 02:49:16.27	323.65	18.06	-27.9	-29.9	15.0	0.00e+00	0	43	0	146800640	15	4543
2026-01-14 02:49:17.27	323.42	18.06	-27.9	-29.9	15.0	0.00e+00	0	43	0	149946368	15	4542
2026-01-14 02:49:18.27	323.19	18.06	-27.9	-30.0	15.0	0.00e+00	0	43	0	153092096	15	4582
2026-01-14 02:49:19.28	322.95	18.07	-28.2	-30.2	14.7	0.00e+00	0	43	0	156237824	16	4521
2026-01-14 02:49:20.29	322.71	18.07	-28.2	-30.2	14.8	7.00e-07	0	43	0	159383552	16	4500
2026-01-14 02:49:21.29	322.48	18.07	-28.4	-30.5	14.6	7.00e-07	0	43	0	162529280	16	4598
2026-01-14 02:49:22.29	322.25	18.07	-28.3	-30.3	14.7	0.00e+00	0	43	0	165675008	16	4552
2026-01-14 02:49:23.29	322.01	18.07	-28.2	-30.1	14.8	7.00e-07	0	43	0	168820736	16	4491
2026-01-14 02:49:24.30	321.78	18.08	-28.2	-30.2	14.7	0.00e+00	0	43	0	171966464	16	4505
2026-01-14 02:49:25.30	321.54	18.08	-28.2	-30.1	14.8	0.00e+00	0	44	0	175112192	16	4497
2026-01-14 02:49:26.31	321.30	18.08	-28.2	-30.2	14.7	0.00e+00	0	44	0	178257920	16	4508
2026-01-14 02:49:27.31	321.07	18.07	-28.2	-30.1	14.8	0.00e+00	0	43	0	181403648	16	4494
2026-01-14 02:49:28.31	320.84	18.07	-28.0	-29.6	15.0	0.00e+00	0	43	0	184549376	16	4342
2026-01-14 02:49:29.31	320.60	18.07	-27.7	-29.5	15.2	0.00e+00	0	43	0	187695104	15	4420
2026-01-14 02:49:30.32	320.37	18.07	-27.7	-29.4	15.3	0.00e+00	0	43	0	190840832	15	4410
2026-01-14 02:49:31.31	320.13	18.07	-27.7	-29.5	15.3	0.00e+00	0	43	0	193986560	15	4417
2026-01-14 02:49:32.32	319.90	18.06	-27.8	-29.8	15.1	0.00e+00	0	43	0	197132288	15	4510
2026-01-14 02:49:33.31	319.67	18.06	-27.8	-29.7	15.1	0.00e+00	0	43	0	200278016	15	4493
2026-01-14 02:49:34.31	319.43	18.06	-27.9	-29.9	15.0	0.00e+00	0	43	0	203423744	15	4550
2026-01-14 02:49:35.32	319.20	18.05	-27.7	-29.6	15.2	0.00e+00	0	43	0	206569472	15	4446
2026-01-14 02:49:36.32	318.96	18.05	-27.7	-29.5	15.3	0.00e+00	0	44	0	209715200	15	4425
2026-01-14 02:49:37.32	318.73	18.04	-27.7	-29.5	15.2	0.00e+00	0	43	0	212860928	15	4419
2026-01-14 02:49:38.32	318.50	18.03	-27.6	-29.4	15.3	7.00e-07	0	43	0	216006656	15	4403
2026-01-14 02:49:39.32	318.26	18.03	-27.7	-29.4	15.3	0.00e+00	0	43	0	219152384	15	4408
2026-01-14 02:49:40.33	318.03	18.02	-27.6	-29.3	15.3	0.00e+00	0	43	0	222298112	15	4384
2026-01-14 02:49:41.33	317.79	18.01	-27.6	-29.3	15.4	0.00e+00	0	43	0	225443840	15	4374
2026-01-14 02:49:42.33	317.56	18.00	-27.7	-29.5	15.2	0.00e+00	0	43	0	228589568	15	4421
2026-01-14 02:49:43.34	317.33	18.00	-27.7	-29.6	15.2	0.00e+00	0	43	0	230686720	15	4453
2026-01-14 02:49:44.35	317.09	17.99	-27.8	-29.6	15.1	0.00e+00	0	43	0	233832448	15	4472
2026-01-14 02:49:45.35	316.86	17.98	-27.7	-29.6	15.2	0.00e+00	0	43	0	236978176	15	4467
2026-01-14 02:49:46.35	316.63	17.97	-27.8	-29.8	15.1	0.00e+00	0	43	0	240123904	15	4506
2026-01-14 02:49:47.35	316.39	17.96	-27.8	-29.8	15.0	0.00e+00	0	43	0	243269632	15	4506
2026-01-14 02:49:48.34	316.16	17.95	-27.8	-29.8	15.0	0.00e+00	0	43	0	246415360	15	4529
2026-01-14 02:49:49.35	315.93	17.93	-27.8	-29.9	15.0	0.00e+00	0	43	0	249561088	15	4536
2026-01-14 02:49:50.34	315.70	17.92	-27.8	-29.8	15.0	0.00e+00	0	43	0	252706816	15	4522
2026-01-14 02:49:51.35	315.47	17.91	-27.9	-29.9	15.0	0.00e+00	0	43	0	255852544	15	4547
2026-01-14 02:49:52.35	315.23	17.90	-28.1	-29.9	14.9	0.00e+00	0	43	0	258998272	16	4416
2026-01-14 02:49:53.35	315.00	17.88	-28.0	-29.7	14.9	0.00e+00	0	43	0	262144000	16	4382
2026-01-14 02:49:54.36	314.77	17.87	-28.1	-29.9	14.9	0.00e+00	0	43	0	265289728	16	4417
2026-01-14 02:49:55.37	314.54	17.85	-27.7	-29.6	15.1	0.00e+00	0	43	0	268435456	15	4463
2026-01-14 02:49:56.37	314.31	17.84	-27.6	-29.4	15.2	0.00e+00	0	43	0	271581184	15	4409
2026-01-14 02:49:57.37	314.08	17.82	-27.7	-29.4	15.2	0.00e+00	0	43	0	274726912	15	4417
2026-01-14 02:49:58.38	313.84	17.81	-27.7	-29.5	15.2	0.00e+00	0	43	0	277872640	15	4442
2026-01-14 02:49:59.38	313.61	17.79	-27.7	-29.5	15.2	0.00e+00	0	43	0	281018368	15	4436
2026-01-14 02:50:00.39	313.38	17.78	-27.7	-29.5	15.1	0.00e+00	0	43	0	284164096	15	4444
2026-01-14 02:50:01.39	313.15	17.76	-27.8	-29.7	15.0	0.00e+00	0	43	0	287309824	15	4504
2026-01-14 02:50:02.39	312.92	17.74	-27.9	-29.9	15.0	0.00e+00	0	43	0	290455552	15	4545
2026-01-14 02:50:03.39	312.69	17.72	-26.9	-29.0	14.9	0.00e+00	0	43	0	293601280	15	4586
2026-01-14 02:50:04.39	312.47	17.70	-27.9	-30.0	12.7	0.00e+00	0	43	0	296747008	15	4578
2026-01-14 02:50:05.40	312.24	17.68	-27.8	-29.7	14.5	0.00e+00	0	43	0	299892736	15	4501
2026-01-14 02:50:06.40	312.01	17.67	-27.8	-29.8	14.2	0.00e+00	0	43	0	303038464	15	4536
2026-01-14 02:50:07.40	311.78	17.65	-27.9	-30.0	14.8	3.87e-03	0	43	0	306184192	15	4597
2026-01-14 02:50:08.40	311.55	17.63	-27.9	-29.9	14.9	0.00e+00	0	43	0	309329920	15	4560
2026-01-14 02:50:09.41	311.32	17.60	-27.9	-30.0	14.9	7.00e-07	0	43	0	312475648	15	4590
2026-01-14 02:50:10.42	311.09	17.58	-27.8	-29.8	15.0	0.00e+00	0	43	0	315621376	15	4517
2026-01-14 02:50:11.41	310.87	17.56	-27.7	-29.6	15.1	1.50e-06	0	43	0	318767104	15	4460
2026-01-14 02:50:12.41	310.64	17.54	-27.8	-29.8	15.0	3.88e-03	0	43	0	321912832	15	4514
2026-01-14 02:50:13.42	310.42	17.52	-27.8	-29.7	15.0	3.48e-03	0	43	0	325058560	15	4506
2026-01-14 02:50:14.42	310.19	17.49	-27.8	-29.7	15.1	0.00e+00	0	43	0	328204288	15	4487
2026-01-14 02:50:15.43	309.96	17.47	-27.8	-29.8	15.0	0.00e+00	0	43	0	331350016	15	4526
2026-01-14 02:50:16.43	309.74	17.45	-27.9	-30.0	14.9	7.00e-07	0	43	0	334495744	15	4571
2026-01-14 02:50:17.43	309.51	17.42	-27.8	-29.9	15.0	0.00e+00	0	43	0	337641472	15	4539
2026-01-14 02:50:18.44	309.29	17.40	-27.8	-29.8	15.0	3.93e-03	0	43	0	340787200	15	4529
2026-01-14 02:50:19.44	309.06	17.37	-27.9	-29.9	14.9	3.83e-03	0	43	0	343932928	15	4562
2026-01-14 02:50:20.44	308.84	17.35	-28.0	-30.2	14.7	0.00e+00	0	43	0	347078656	15	4648
2026-01-14 02:50:21.43	308.62	17.32	-28.2	-30.1	14.7	4.71e-04	0	43	0	350224384	16	4493
2026-01-14 02:50:22.43	308.40	17.29	-27.8	-29.9	14.9	3.74e-03	0	43	0	353370112	15	4546
2026-01-14 02:50:23.43	308.17	17.27	-27.8	-29.7	15.0	0.00e+00	0	43	0	356515840	15	4483
2026-01-14 02:50:24.43	307.95	17.24	-27.7	-29.5	15.1	3.73e-03	0	43	0	359661568	15	4446
2026-01-14 02:50:25.43	307.73	17.21	-27.7	-29.6	15.1	0.00e+00	0	43	0	362807296	15	4471
2026-01-14 02:50:26.44	307.51	17.18	-27.8	-29.7	15.0	5.56e-05	0	43	0	365953024	15	4506
2026-01-14 02:50:27.44	307.29	17.16	-27.8	-29.8	15.0	4.22e-03	0	43	0	369098752	15	4525
2026-01-14 02:50:28.44	307.07	17.13	-27.9	-29.9	14.9	4.01e-03	0	43	0	372244480	15	4564
2026-01-14 02:50:29.44	306.85	17.10	-27.7	-29.6	15.0	2.17e-04	0	43	0	375390208	15	4482
2026-01-14 02:50:30.44	306.63	17.07	-27.7	-29.5	15.1	0.00e+00	0	43	0	378535936	15	4437
2026-01-14 02:50:31.45	306.41	17.04	-27.7	-29.5	15.1	3.48e-03	0	43	0	381681664	15	4431
2026-01-14 02:50:32.46	306.19	17.01	-27.7	-29.6	15.1	1.60e-05	0	43	0	384827392	15	4465
2026-01-14 02:50:33.46	305.97	16.98	-27.8	-29.9	14.9	3.39e-03	0	43	0	387973120	15	4552
2026-01-14 02:50:34.46	305.75	16.94	-28.1	-29.9	14.8	3.59e-03	0	43	0	391118848	16	4438
2026-01-14 02:50:35.46	305.54	16.91	-28.0	-29.8	14.8	0.00e+00	0	43	0	394264576	16	4407
2026-01-14 02:50:36.47	305.32	16.88	-28.0	-29.8	14.8	0.00e+00	0	43	0	397410304	16	4406
2026-01-14 02:50:37.47	305.10	16.85	-27.9	-30.0	14.8	3.98e-03	0	43	0	400556032	15	4588
2026-01-14 02:50:38.47	304.89	16.82	-27.8	-29.9	14.9	1.50e-06	0	43	0	403701760	15	4552
2026-01-14 02:50:39.46	304.67	16.78	-27.9	-30.0	14.8	4.16e-03	0	43	0	406847488	15	4602
2026-01-14 02:50:40.47	304.46	16.75	-27.8	-29.9	14.9	3.88e-03	0	43	0	409993216	15	4554
2026-01-14 02:50:41.47	304.24	16.72	-27.6	-29.3	15.2	0.00e+00	0	43	0	413138944	15	4395
2026-01-14 02:50:42.48	304.03	16.68	-27.5	-29.2	15.3	3.84e-03	0	43	0	416284672	15	4349
2026-01-14 02:50:43.48	303.81	16.65	-27.6	-29.3	15.2	4.38e-03	0	43	0	419430400	15	4389
2026-01-14 02:50:44.48	303.60	16.61	-27.7	-29.5	15.1	2.20e-06	0	43	0	422576128	15	4435
2026-01-14 02:50:45.48	303.39	16.58	-27.7	-29.4	15.1	1.27e-03	0	43	0	425721856	15	4425
2026-01-14 02:50:46.48	303.18	16.54	-27.7	-29.5	15.1	0.00e+00	0	43	0	428867584	15	4452
2026-01-14 02:50:47.49	302.96	16.50	-27.6	-29.4	15.2	7.00e-07	0	43	0	432013312	15	4394
2026-01-14 02:50:48.50	302.75	16.47	-27.6	-29.4	15.2	3.79e-03	0	43	0	435159040	15	4405
2026-01-14 02:50:49.50	302.54	16.43	-27.7	-29.6	15.0	3.42e-03	0	43	0	438304768	15	4470
2026-01-14 02:50:50.50	302.33	16.39	-27.7	-29.7	15.0	0.00e+00	0	43	0	441450496	15	4487
2026-01-14 02:50:51.51	302.12	16.36	-27.8	-29.7	15.0	7.00e-07	0	43	0	444596224	15	4495
2026-01-14 02:50:52.50	301.91	16.32	-27.8	-29.7	14.9	7.00e-07	0	43	0	447741952	15	4512
2026-01-14 02:50:53.51	301.70	16.28	-27.8	-29.8	14.9	0.00e+00	0	43	0	450887680	15	4524
2026-01-14 02:50:54.52	301.49	16.24	-27.8	-29.9	14.8	9.96e-04	0	43	0	454033408	15	4558
2026-01-14 02:50:55.52	301.29	16.20	-27.8	-29.8	14.9	0.00e+00	0	43	0	457179136	15	4534
2026-01-14 02:50:56.52	301.08	16.16	-27.8	-29.8	14.9	1.50e-06	0	43	0	460324864	15	4538
2026-01-14 02:50:57.52	300.87	16.13	-27.8	-29.8	14.9	1.50e-06	0	43	0	463470592	15	4532
2026-01-14 02:50:58.52	300.67	16.09	-27.9	-30.0	14.8	0.00e+00	0	43	0	466616320	15	4579
2026-01-14 02:50:59.52	300.46	16.05	-27.9	-30.0	14.8	0.00e+00	0	43	0	469762048	15	4595
2026-01-14 02:51:00.53	300.26	16.01	-27.8	-29.9	14.8	1.50e-06	0	43	0	472907776	15	4561
2026-01-14 02:51:01.54	300.05	15.96	-27.9	-30.0	14.7	0.00e+00	0	43	0	476053504	15	4604
2026-01-14 02:51:02.55	299.85	15.92	-27.8	-29.9	14.8	0.00e+00	0	43	0	479199232	15	4549
2026-01-14 02:51:03.55	299.64	15.88	-27.7	-29.5	15.0	0.00e+00	0	43	0	481296384	15	4457
2026-01-14 02:51:04.55	299.44	15.84	-27.7	-29.5	15.0	0.00e+00	0	43	0	484442112	15	4436
2026-01-14 02:51:05.56	299.24	15.80	-27.7	-29.6	15.0	0.00e+00	0	43	0	488636416	15	4468
2026-01-14 02:51:06.56	299.04	15.76	-27.7	-29.7	14.9	0.00e+00	0	43	0	491782144	15	4486
2026-01-14 02:51:07.55	298.84	15.72	-27.8	-29.7	14.9	0.00e+00	0	43	0	493879296	15	4491
2026-01-14 02:51:08.56	298.64	15.67	-27.8	-29.7	14.9	0.00e+00	0	43	0	498073600	15	4498
2026-01-14 02:51:09.56	298.44	15.63	-27.8	-29.8	14.8	0.00e+00	0	43	0	501219328	15	4536
2026-01-14 02:51:10.56	298.24	15.59	-27.9	-29.9	14.8	0.00e+00	0	43	0	504365056	15	4575
2026-01-14 02:51:11.55	298.04	15.54	-27.9	-30.1	14.7	0.00e+00	0	43	0	506462208	15	4622
2026-01-14 02:51:12.56	297.84	15.50	-27.9	-30.1	14.7	0.00e+00	0	43	0	509607936	15	4608
2026-01-14 02:51:13.56	297.65	15.46	-28.2	-30.2	14.5	0.00e+00	0	43	0	512753664	16	4522
2026-01-14 02:51:14.56	297.45	15.41	-28.3	-30.4	14.4	0.00e+00	0	43	0	515899392	16	4583
2026-01-14 02:51:15.56	297.25	15.37	-28.2	-30.3	14.5	1.50e-06	0	43	0	519045120	16	4562
2026-01-14 02:51:16.56	297.06	15.32	-28.3	-30.3	14.4	7.00e-07	0	43	0	522190848	16	4566
2026-01-14 02:51:17.57	296.86	15.28	-28.3	-30.4	14.4	1.50e-06	0	43	0	525336576	16	4587
2026-01-14 02:51:18.58	296.67	15.23	-28.2	-30.2	14.5	7.00e-07	0	43	0	528482304	16	4542
2026-01-14 02:51:19.58	296.47	15.19	-28.1	-30.0	14.6	0.00e+00	0	43	0	531628032	16	4480
2026-01-14 02:51:20.58	296.28	15.14	-28.0	-29.8	14.7	1.50e-06	0	43	0	534773760	16	4402
2026-01-14 02:51:21.58	296.09	15.09	-27.9	-29.5	14.9	0.00e+00	0	43	0	537919488	16	4316
2026-01-14 02:51:22.58	295.90	15.05	-27.6	-29.4	15.0	0.00e+00	0	43	0	541065216	15	4429
2026-01-14 02:51:23.58	295.71	15.00	-27.7	-29.5	14.9	0.00e+00	0	43	0	544210944	15	4445
2026-01-14 02:51:24.59	295.51	14.96	-27.8	-29.7	14.8	0.00e+00	0	43	0	547356672	15	4500
2026-01-14 02:51:25.59	295.32	14.91	-28.2	-30.2	14.5	7.00e-07	0	43	0	550502400	16	4520
2026-01-14 02:51:26.60	295.13	14.86	-28.3	-30.4	14.3	7.00e-07	0	43	0	553648128	16	4587
2026-01-14 02:51:27.60	294.94	14.81	-28.4	-30.7	14.1	1.50e-06	0	43	0	556793856	16	4700
2026-01-14 02:51:28.61	294.75	14.77	-28.5	-30.3	14.0	3.00e-06	0	43	0	559939584	17	4466
2026-01-14 02:51:29.61	294.57	14.72	-28.4	-30.1	14.2	0.00e+00	0	43	0	563085312	17	4412
2026-01-14 02:51:30.61	294.38	14.67	-28.3	-30.4	14.3	0.00e+00	0	43	0	566231040	16	4602
2026-01-14 02:51:31.62	294.19	14.62	-28.2	-30.2	14.4	4.50e-06	0	43	0	569376768	16	4547
2026-01-14 02:51:32.62	294.01	14.57	-28.3	-30.3	14.3	0.00e+00	0	43	0	572522496	16	4576
2026-01-14 02:51:33.62	293.82	14.53	-28.2	-30.2	14.4	1.50e-06	0	43	0	575668224	16	4517
2026-01-14 02:51:34.62	293.64	14.48	-28.1	-29.9	14.6	0.00e+00	0	43	0	578813952	16	4449
2026-01-14 02:51:35.63	293.45	14.43	-27.9	-30.1	14.6	0.00e+00	0	43	0	581959680	15	4634
2026-01-14 02:51:36.62	293.27	14.38	-27.9	-30.2	14.5	0.00e+00	0	43	0	585105408	15	4648
2026-01-14 02:51:37.63	293.09	14.33	-27.9	-30.0	14.6	0.00e+00	0	43	0	588251136	15	4599
2026-01-14 02:51:38.63	292.90	14.28	-28.0	-30.2	14.5	0.00e+00	0	43	0	591396864	15	4654
2026-01-14 02:51:39.63	292.72	14.23	-27.8	-29.9	14.7	0.00e+00	0	43	0	594542592	15	4575
2026-01-14 02:51:40.64	292.54	14.18	-27.8	-29.8	14.7	0.00e+00	0	43	0	597688320	15	4552
2026-01-14 02:51:41.63	292.36	14.13	-27.7	-29.5	14.8	0.00e+00	0	43	0	600834048	15	4461
2026-01-14 02:51:42.63	292.18	14.08	-27.6	-29.3	15.0	0.00e+00	0	43	0	603979776	15	4388
2026-01-14 02:51:43.63	292.00	14.03	-27.5	-29.2	15.1	0.00e+00	0	43	0	607125504	15	4356
2026-01-14 02:51:44.63	291.83	13.98	-27.5	-29.2	15.1	0.00e+00	0	43	0	610271232	15	4353
2026-01-14 02:51:45.63	291.65	13.93	-27.6	-29.3	15.0	0.00e+00	0	43	0	613416960	15	4391
2026-01-14 02:51:46.64	291.47	13.88	-27.7	-29.6	14.8	0.00e+00	0	43	0	616562688	15	4482
2026-01-14 02:51:47.63	291.29	13.83	-28.0	-30.2	14.5	0.00e+00	0	43	0	619708416	15	4667
2026-01-14 02:51:48.63	291.12	13.77	-28.2	-30.2	14.4	0.00e+00	0	43	0	622854144	16	4542
2026-01-14 02:51:49.63	290.94	13.72	-28.3	-30.5	14.2	0.00e+00	0	43	0	625999872	16	4630
2026-01-14 02:51:50.63	290.77	13.67	-28.4	-30.7	14.1	0.00e+00	0	43	0	629145600	16	4697
2026-01-14 02:51:51.63	290.59	13.62	-28.5	-30.5	13.9	1.50e-06	0	43	0	632291328	17	4513
2026-01-14 02:51:52.63	290.42	13.57	-28.8	-31.1	13.5	2.20e-06	0	43	0	635437056	17	4709
2026-01-14 02:51:53.64	290.25	13.52	-28.8	-31.2	13.4	1.22e-05	0	43	0	638582784	17	4742
2026-01-14 02:51:54.64	290.08	13.46	-28.8	-31.3	13.3	1.52e-05	0	43	0	641728512	17	4783
2026-01-14 02:51:55.64	289.90	13.41	-28.8	-31.1	13.5	2.36e-05	0	43	0	644874240	17	4709
2026-01-14 02:51:56.64	289.73	13.36	-28.6	-30.7	13.7	9.90e-06	0	43	0	648019968	17	4589
2026-01-14 02:51:57.65	289.56	13.31	-28.4	-30.3	14.0	3.00e-06	0	43	0	651165696	17	4460
2026-01-14 02:51:58.65	289.39	13.25	-28.4	-30.6	14.0	2.20e-06	0	43	0	654311424	16	4681
2026-01-14 02:51:59.66	289.22	13.20	-28.4	-30.8	13.9	7.00e-07	0	43	0	657457152	16	4718
2026-01-14 02:52:00.66	289.05	13.15	-28.4	-30.6	14.1	7.00e-07	0	43	0	660602880	16	4673
2026-01-14 02:52:01.66	288.88	13.09	-28.2	-30.3	14.2	2.75e-04	0	43	0	663748608	16	4580
2026-01-14 02:52:02.67	288.72	13.04	-28.2	-30.2	14.3	7.00e-07	0	43	0	666894336	16	4536
2026-01-14 02:52:03.67	288.55	12.99	-28.2	-30.2	14.3	1.50e-06	0	43	0	670040064	16	4548
2026-01-14 02:52:04.68	288.38	12.93	-28.2	-30.3	14.2	1.50e-06	0	44	0	673185792	16	4566
2026-01-14 02:52:05.68	288.22	12.88	-28.4	-30.7	14.0	2.81e-03	0	43	0	676331520	16	4686
2026-01-14 02:52:06.69	288.05	12.82	-28.2	-30.3	14.2	1.91e-03	0	43	0	679477248	16	4586
2026-01-14 02:52:07.69	287.89	12.77	-28.1	-30.0	14.4	7.00e-07	0	43	0	682622976	16	4489
2026-01-14 02:52:08.69	287.72	12.72	-27.8	-29.9	14.5	7.00e-07	0	43	0	685768704	15	4593
2026-01-14 02:52:09.69	287.56	12.66	-27.8	-29.8	14.5	7.00e-07	0	44	0	688914432	15	4555
2026-01-14 02:52:10.69	287.40	12.61	-27.9	-30.0	14.4	0.00e+00	0	43	0	692060160	15	4616
2026-01-14 02:52:11.70	287.23	12.55	-27.9	-30.1	14.4	3.55e-03	0	43	0	695205888	15	4654
2026-01-14 02:52:12.69	287.07	12.50	-28.2	-30.2	14.3	3.92e-03	0	43	0	698351616	16	4538
2026-01-14 02:52:13.69	286.91	12.45	-28.3	-30.5	14.0	1.50e-06	0	43	0	701497344	16	4638
2026-01-14 02:52:14.70	286.75	12.39	-28.6	-30.7	13.6	3.80e-06	0	43	0	704643072	17	4588
2026-01-14 02:52:15.70	286.59	12.34	-28.6	-30.6	13.7	3.86e-03	0	43	0	707788800	17	4568
2026-01-14 02:52:16.69	286.44	12.28	-28.5	-30.6	13.6	9.10e-06	0	44	0	709885952	17	4568
2026-01-14 02:52:17.70	286.28	12.23	-28.4	-30.8	13.9	3.85e-03	0	43	0	713031680	16	4726
2026-01-14 02:52:18.71	286.12	12.17	-28.5	-31.0	13.8	3.64e-03	0	43	0	717225984	16	4786
2026-01-14 02:52:19.71	285.96	12.12	-28.6	-30.6	13.6	2.17e-04	0	43	0	720371712	17	4572
2026-01-14 02:52:20.72	285.80	12.06	-28.6	-30.7	13.6	3.78e-03	0	43	0	723517440	17	4607
2026-01-14 02:52:21.72	285.65	12.00	-28.7	-30.9	13.5	4.32e-03	0	43	0	726663168	17	4655
2026-01-14 02:52:22.73	285.49	11.95	-28.8	-31.1	13.3	4.41e-04	0	43	0	729808896	17	4741
2026-01-14 02:52:23.73	285.34	11.89	-28.9	-31.5	13.1	4.36e-03	0	43	0	732954624	17	4847
2026-01-14 02:52:24.73	285.18	11.84	-29.0	-31.6	13.0	4.17e-03	0	43	0	735051776	17	4903
2026-01-14 02:52:25.74	285.03	11.78	-29.1	-31.5	12.8	2.82e-04	0	43	0	738197504	18	4746
2026-01-14 02:52:26.73	284.87	11.73	-29.3	-31.9	12.6	4.14e-03	0	43	0	741343232	18	4868
2026-01-14 02:52:27.73	284.72	11.67	-29.3	-32.1	12.5	3.77e-03	0	43	0	744488960	18	4937
2026-01-14 02:52:28.74	284.57	11.62	-29.5	-32.4	12.2	1.91e-04	0	43	0	747634688	18	5056
2026-01-14 02:52:29.75	284.42	11.56	-29.4	-32.2	12.4	1.57e-04	0	43	0	750780416	18	4966
2026-01-14 02:52:30.75	284.27	11.50	-29.1	-31.5	12.8	4.27e-03	0	43	0	753926144	18	4743
2026-01-14 02:52:31.76	284.12	11.45	-29.0	-31.3	12.9	5.26e-04	0	43	0	757071872	18	4679
2026-01-14 02:52:32.76	283.97	11.39	-29.1	-31.4	12.9	4.39e-03	0	43	0	760217600	18	4701
2026-01-14 02:52:33.76	283.82	11.33	-29.0	-31.3	12.9	4.39e-03	0	43	0	763363328	18	4668
2026-01-14 02:52:34.77	283.67	11.28	-29.1	-31.4	12.8	6.10e-05	0	43	0	766509056	18	4717
2026-01-14 02:52:35.78	283.52	11.22	-29.0	-31.2	13.0	4.65e-05	0	43	0	769654784	18	4642
2026-01-14 02:52:36.78	283.37	11.16	-28.7	-31.0	13.3	4.19e-03	0	43	0	772800512	17	4696
2026-01-14 02:52:37.78	283.23	11.11	-28.6	-30.7	13.5	1.95e-03	0	43	0	775946240	17	4583
2026-01-14 02:52:38.77	283.08	11.05	-28.5	-30.9	13.7	6.80e-06	0	44	0	779091968	16	4773
2026-01-14 02:52:39.78	282.93	11.00	-28.4	-30.8	13.8	6.80e-06	0	44	0	782237696	16	4740
2026-01-14 02:52:40.78	282.79	10.94	-28.4	-30.8	13.8	6.80e-06	0	44	0	785383424	16	4724
2026-01-14 02:52:41.79	282.64	10.88	-28.6	-30.7	13.5	9.10e-06	0	43	0	788529152	17	4604
2026-01-14 02:52:42.80	282.50	10.83	-28.6	-30.7	13.5	4.47e-03	0	43	0	791674880	17	4607
2026-01-14 02:52:43.80	282.36	10.77	-28.8	-31.1	13.3	1.67e-05	0	43	0	794820608	17	4736
2026-01-14 02:52:44.80	282.21	10.71	-28.6	-30.8	13.4	9.90e-06	0	43	0	797966336	17	4636
2026-01-14 02:52:45.81	282.07	10.65	-28.6	-30.8	13.5	9.90e-06	0	43	0	801112064	17	4621
2026-01-14 02:52:46.81	281.93	10.60	-28.6	-30.7	13.5	9.90e-06	0	44	0	804257792	17	4587
2026-01-14 02:52:47.82	281.79	10.54	-28.6	-30.6	13.5	1.29e-05	0	43	0	807403520	17	4580
2026-01-14 02:52:48.82	281.65	10.48	-28.8	-31.2	13.2	1.90e-05	0	44	0	810549248	17	4747
2026-01-14 02:52:49.83	281.51	10.43	-28.6	-30.7	13.4	1.37e-05	0	43	0	813694976	17	4591
2026-01-14 02:52:50.83	281.37	10.37	-28.4	-30.7	13.8	6.10e-06	0	43	0	816840704	16	4705
2026-01-14 02:52:51.83	281.23	10.31	-28.5	-30.6	13.5	3.00e-06	0	43	0	819986432	17	4555
2026-01-14 02:52:52.84	281.09	10.26	-28.8	-31.2	13.1	1.83e-05	0	43	0	823132160	17	4763
2026-01-14 02:52:53.84	280.95	10.20	-28.7	-31.1	13.2	2.36e-05	0	43	0	826277888	17	4729
2026-01-14 02:52:54.83	280.82	10.14	-28.9	-31.6	12.9	3.20e-05	0	43	0	829423616	17	4892
2026-01-14 02:52:55.84	280.68	10.08	-28.9	-31.6	12.9	5.49e-05	0	43	0	832569344	17	4887
2026-01-14 02:52:56.85	280.54	10.03	-29.1	-31.6	12.6	8.46e-05	0	44	0	835715072	18	4782
2026-01-14 02:52:57.85	280.41	9.97	-29.4	-32.4	12.1	2.34e-04	0	43	0	838860800	18	5069
2026-01-14 02:52:58.85	280.27	9.91	-29.3	-32.0	12.3	2.23e-04	0	44	0	842006528	18	4920
2026-01-14 02:52:59.85	280.14	9.86	-29.2	-31.7	12.5	1.40e-04	0	43	0	845152256	18	4830
2026-01-14 02:53:00.85	280.00	9.80	-29.1	-31.4	12.7	9.76e-05	0	43	0	848297984	18	4735
2026-01-14 02:53:01.85	279.87	9.74	-29.0	-31.4	12.7	7.70e-05	0	43	0	851443712	18	4723
2026-01-14 02:53:02.86	279.74	9.68	-29.0	-31.3	12.7	6.94e-05	0	43	0	854589440	18	4685
2026-01-14 02:53:03.86	279.60	9.63	-28.9	-31.6	12.9	5.72e-05	0	44	0	857735168	17	4880
2026-01-14 02:53:04.86	279.47	9.57	-29.0	-31.7	12.8	5.72e-05	0	43	0	860880896	17	4942
2026-01-14 02:53:05.87	279.34	9.51	-29.0	-31.3	12.8	7.32e-05	0	43	0	864026624	18	4686
2026-01-14 02:53:06.87	279.21	9.45	-28.9	-31.5	12.9	4.27e-05	0	43	0	867172352	17	4880
2026-01-14 02:53:07.87	279.08	9.40	-29.1	-31.4	12.7	6.56e-05	0	43	0	870318080	18	4736
2026-01-14 02:53:08.88	278.95	9.34	-29.2	-31.9	12.4	1.12e-04	0	44	0	873463808	18	4873
2026-01-14 02:53:09.88	278.82	9.28	-29.1	-31.6	12.5	1.36e-04	0	43	0	876609536	18	4808
2026-01-14 02:53:10.89	278.69	9.22	-29.2	-31.8	12.4	1.69e-04	0	43	0	879755264	18	4856
2026-01-14 02:53:11.88	278.56	9.17	-29.2	-31.7	12.4	1.74e-04	0	43	0	882900992	18	4833
2026-01-14 02:53:12.89	278.43	9.11	-29.2	-31.7	12.4	1.48e-04	0	43	0	886046720	18	4829
2026-01-14 02:53:13.89	278.31	9.05	-29.3	-32.2	12.1	2.23e-04	0	44	0	889192448	18	5001
2026-01-14 02:53:14.90	278.18	8.99	-29.2	-31.9	12.3	2.03e-04	0	43	0	892338176	18	4897
2026-01-14 02:53:15.89	278.05	8.94	-29.2	-31.7	12.4	1.39e-04	0	44	0	895483904	18	4823
2026-01-14 02:53:16.90	277.93	8.88	-29.2	-31.7	12.4	1.14e-04	0	44	0	898629632	18	4842
2026-01-14 02:53:17.91	277.80	8.82	-29.2	-31.8	12.4	1.65e-04	0	43	0	901775360	18	4851
2026-01-14 02:53:18.91	277.68	8.77	-29.0	-31.4	12.6	8.16e-05	0	44	0	904921088	18	4716
2026-01-14 02:53:19.91	277.55	8.71	-28.9	-31.2	12.7	7.85e-05	0	43	0	908066816	18	4671
2026-01-14 02:53:20.91	277.43	8.65	-28.9	-31.6	12.7	6.94e-05	0	44	0	911212544	17	4905
2026-01-14 02:53:21.92	277.31	8.59	-28.8	-31.4	12.8	4.88e-05	0	44	0	914358272	17	4862
2026-01-14 02:53:22.92	277.18	8.54	-28.9	-31.5	12.8	7.01e-05	0	44	0	917504000	17	4889
2026-01-14 02:53:23.93	277.06	8.48	-28.8	-31.4	12.9	3.73e-05	0	43	0	920649728	17	4836
2026-01-14 02:53:24.93	276.94	8.42	-28.9	-31.5	12.8	5.72e-05	0	44	0	923795456	17	4892
2026-01-14 02:53:25.92	276.82	8.36	-29.0	-31.3	12.6	9.38e-05	0	44	0	926941184	18	4685
2026-01-14 02:53:26.93	276.70	8.31	-28.8	-31.4	12.9	6.25e-05	0	44	0	930086912	17	4841
2026-01-14 02:53:27.93	276.58	8.25	-28.8	-31.3	12.9	4.34e-05	0	44	0	933232640	17	4811
2026-01-14 02:53:28.94	276.46	8.19	-28.9	-31.5	12.7	6.33e-05	0	44	0	936378368	17	4887
2026-01-14 02:53:29.94	276.34	8.13	-28.8	-31.3	12.9	7.17e-05	0	43	0	939524096	17	4798
2026-01-14 02:53:30.94	276.22	8.08	-28.7	-31.1	13.0	4.42e-05	0	44	0	942669824	17	4750
2026-01-14 02:53:31.94	276.10	8.02	-28.8	-31.4	12.8	5.41e-05	0	44	0	945815552	17	4830
2026-01-14 02:53:32.94	275.98	7.96	-28.6	-30.9	13.1	3.58e-05	0	44	0	948961280	17	4695
2026-01-14 02:53:33.95	275.87	7.90	-28.7	-31.0	13.0	3.12e-05	0	43	0	952107008	17	4727
2026-01-14 02:53:34.95	275.75	7.85	-28.6	-30.9	13.1	3.05e-05	0	44	0	955252736	17	4687
2026-01-14 02:53:35.96	275.63	7.79	-28.8	-31.4	12.8	5.79e-05	0	44	0	958398464	17	4842
2026-01-14 02:53:36.97	275.51	7.73	-28.8	-31.3	12.8	5.49e-05	0	44	0	961544192	17	4820
2026-01-14 02:53:37.97	275.40	7.68	-28.9	-31.6	12.6	8.54e-05	0	44	0	964689920	17	4921
2026-01-14 02:53:38.97	275.28	7.62	-28.3	-30.7	11.8	1.27e-04	0	44	0	967835648	18	4749
2026-01-14 02:53:39.98	275.17	7.56	-29.0	-31.5	11.8	8.69e-04	0	44	0	970981376	18	4767
2026-01-14 02:53:40.98	275.05	7.50	-29.2	-31.9	10.8	1.99e-04	0	43	0	974127104	18	4929
2026-01-14 02:53:41.98	274.94	7.45	-29.3	-32.1	11.6	2.40e-04	0	44	0	977272832	18	4980
2026-01-14 02:53:42.99	274.83	7.39	-29.4	-32.4	11.9	3.64e-04	0	44	0	980418560	18	5071
2026-01-14 02:53:43.99	274.71	7.33	-29.5	-32.3	11.6	7.10e-04	0	44	0	983564288	19	4943
2026-01-14 02:53:44.99	274.60	7.28	-29.7	-32.7	11.3	2.09e-03	0	44	0	986710016	19	5082
2026-01-14 02:53:45.99	274.49	7.22	-29.5	-32.3	11.5	8.69e-04	0	44	0	989855744	19	4958
2026-01-14 02:53:47.00	274.38	7.16	-29.6	-32.4	11.5	9.07e-04	0	44	0	993001472	19	4983
2026-01-14 02:53:48.01	274.27	7.10	-29.3	-31.7	11.9	5.93e-04	0	44	0	996147200	19	4747
2026-01-14 02:53:49.02	274.16	7.05	-33.3	-45.2	3.8	1.49e+00	0	44	104	997195776	26	14142
2026-01-14 02:53:50.02	274.05	6.99	-33.7	-45.8	3.8	1.49e+00	0	44	104	997195776	27	14440
2026-01-14 02:53:51.03	273.94	6.93	-33.9	-45.7	3.8	1.49e+00	0	44	104	997195776	28	13946

#Closed at: 2026-01-14 02:53:51
#Recorded file [997 MB]: D:/data/31010_260114_054829.dat