passes_logs/2026/01/14/R2M6_AANII_01/R2M6_AANII_01__20260114_112716_SUOMI_NPP_rec.log

#Pass ID: 20260114_112716_SUOMI NPP
#Satellite: SUOMI NPP
#Configuration: NPP
#almurnet v.1.7.20240730
#Start time: 2026-01-14 11:32:03

#Version: 2.2.20231116
#Station: R2M6_AANII_01
#Location: 30.233357 lon 59.946436 lat
#TLE: 1 37849U 11061A   26013.27136842  .00000065  00000+0  51889-4 0  9990
#TLE: 2 37849  98.7808 315.3349 0002489  66.6776 293.4661 14.19524902736466

#Time	Az	El	Level	Level2	SNR	BER	BlckErr	Temp	State	Recorded	gain1	gain2
2026-01-14 11:32:03.81	243.12	35.02	-34.5	-54.0	3.8	7.45e-01	0	42	0	0	29	33932
2026-01-14 11:32:04.79	243.49	35.10	-34.6	-46.4	3.8	1.49e+00	0	42	104	0	30	13974
2026-01-14 11:32:05.79	243.86	35.18	-34.6	-46.4	3.8	1.49e+00	0	42	104	0	30	14052
2026-01-14 11:32:06.78	244.24	35.26	-34.6	-46.5	3.8	1.49e+00	0	42	104	0	30	14092
2026-01-14 11:32:07.79	244.62	35.33	-34.6	-46.5	3.8	1.49e+00	0	42	104	0	30	14084
2026-01-14 11:32:08.79	245.01	35.41	-34.6	-46.5	3.8	1.49e+00	0	42	104	0	30	14072
2026-01-14 11:32:09.79	245.39	35.48	-34.6	-46.5	3.8	1.49e+00	0	42	104	0	30	14078
2026-01-14 11:32:10.79	245.78	35.55	-34.6	-46.5	3.8	1.49e+00	0	42	104	0	30	14063
2026-01-14 11:32:11.79	246.17	35.63	-34.6	-46.4	3.8	1.49e+00	0	42	104	0	30	14066
2026-01-14 11:32:12.79	246.56	35.70	-34.6	-46.5	3.8	1.49e+00	0	42	104	0	30	14086
2026-01-14 11:32:13.79	246.95	35.76	-34.6	-46.4	3.8	1.49e+00	0	42	104	0	30	14050
2026-01-14 11:32:14.79	247.34	35.83	-34.6	-46.4	3.8	1.49e+00	0	42	104	0	30	14054
2026-01-14 11:32:15.78	247.73	35.90	-34.6	-46.4	3.8	1.49e+00	0	42	104	0	30	14052
2026-01-14 11:32:16.79	248.13	35.96	-34.6	-46.4	3.8	1.49e+00	0	42	104	0	30	14005
2026-01-14 11:32:17.79	248.53	36.02	-34.6	-46.4	3.8	1.49e+00	0	42	104	0	30	14007
2026-01-14 11:32:18.78	248.93	36.08	-34.6	-46.4	3.8	1.49e+00	0	42	104	0	30	13990
2026-01-14 11:32:19.78	249.33	36.14	-34.6	-46.4	3.8	1.49e+00	0	42	104	0	30	14076
2026-01-14 11:32:20.77	249.73	36.20	-34.6	-46.4	3.8	1.49e+00	0	42	104	0	30	14035
2026-01-14 11:32:21.77	250.13	36.26	-34.6	-46.3	3.8	1.49e+00	0	42	104	0	30	13978
2026-01-14 11:32:22.78	250.54	36.32	-34.5	-46.3	3.8	1.49e+00	0	42	104	0	30	13977
2026-01-14 11:32:23.78	250.94	36.37	-34.4	-46.1	3.8	1.49e+00	0	42	104	0	30	13829
2026-01-14 11:32:24.78	251.35	36.42	-34.4	-46.1	3.8	1.49e+00	0	42	104	0	30	13771
2026-01-14 11:32:25.78	251.76	36.47	-34.5	-46.1	3.8	1.49e+00	0	42	104	0	30	13787
2026-01-14 11:32:26.78	252.17	36.52	-34.4	-46.0	3.8	1.49e+00	0	42	104	0	30	13729
2026-01-14 11:32:27.77	252.58	36.57	-34.4	-46.0	3.8	1.49e+00	0	42	104	0	30	13749
2026-01-14 11:32:28.77	252.99	36.62	-34.4	-46.0	3.8	1.49e+00	0	42	104	0	30	13667
2026-01-14 11:32:29.77	253.41	36.66	-34.3	-45.8	3.8	1.49e+00	0	42	104	0	30	13557
2026-01-14 11:32:30.77	253.82	36.71	-34.3	-45.8	3.8	1.49e+00	0	42	104	0	30	13524
2026-01-14 11:32:31.77	254.24	36.75	-34.2	-46.1	3.8	1.49e+00	0	42	104	0	29	14181
2026-01-14 11:32:32.78	254.66	36.79	-34.2	-46.1	3.8	1.49e+00	0	42	104	0	29	14154
2026-01-14 11:32:33.77	255.07	36.83	-34.2	-46.1	3.8	1.49e+00	0	43	104	0	29	14170
2026-01-14 11:32:34.77	255.49	36.86	-34.2	-46.0	3.8	1.49e+00	0	42	104	0	29	14072
2026-01-14 11:32:35.77	255.91	36.90	-34.2	-46.0	3.8	1.49e+00	0	42	104	0	29	13971
2026-01-14 11:32:36.76	256.33	36.93	-34.2	-46.0	3.8	1.49e+00	0	42	104	0	29	14045
2026-01-14 11:32:37.75	256.74	36.97	-34.2	-46.0	3.8	1.49e+00	0	42	104	0	29	14075
2026-01-14 11:32:38.75	257.16	37.00	-34.2	-46.1	3.8	1.49e+00	0	42	104	0	29	14178
2026-01-14 11:32:39.75	257.59	37.02	-34.2	-46.1	3.8	1.49e+00	0	42	104	0	29	14181
2026-01-14 11:32:40.75	258.01	37.05	-34.2	-46.0	3.8	1.49e+00	0	42	104	0	29	14113
2026-01-14 11:32:41.75	258.44	37.08	-34.2	-46.0	3.8	1.49e+00	0	42	104	0	29	14001
2026-01-14 11:32:42.75	258.86	37.10	-34.2	-45.9	3.8	1.49e+00	0	42	104	0	29	13819
2026-01-14 11:32:43.75	259.29	37.12	-34.2	-45.7	3.8	1.49e+00	0	42	104	0	29	13604
2026-01-14 11:32:44.74	259.71	37.14	-34.2	-45.7	3.8	1.49e+00	0	42	104	0	29	13562
2026-01-14 11:32:45.74	260.13	37.16	-34.2	-45.9	3.8	1.49e+00	0	42	104	0	29	13808
2026-01-14 11:32:46.74	260.56	37.18	-34.2	-45.9	3.8	1.49e+00	0	42	104	0	29	13845
2026-01-14 11:32:47.73	260.98	37.19	-34.2	-45.9	3.8	1.49e+00	0	42	104	0	29	13872
2026-01-14 11:32:48.73	261.41	37.20	-34.2	-45.9	3.8	1.49e+00	0	42	104	0	29	13951
2026-01-14 11:32:49.73	261.84	37.22	-34.2	-46.1	3.8	1.49e+00	0	43	104	0	29	14146
2026-01-14 11:32:50.73	262.27	37.23	-34.2	-46.1	3.8	1.49e+00	0	42	104	0	29	14124
2026-01-14 11:32:51.72	262.69	37.23	-34.2	-46.0	3.8	1.49e+00	0	42	104	0	29	13986
2026-01-14 11:32:52.73	263.12	37.24	-34.2	-45.9	3.8	1.49e+00	0	42	104	0	29	13916
2026-01-14 11:32:53.72	263.55	37.24	-34.1	-45.5	3.8	1.49e+00	0	42	104	0	29	13338
2026-01-14 11:32:54.72	263.98	37.25	-34.0	-42.8	3.9	1.49e+00	0	42	104	0	29	9992
2026-01-14 11:32:55.72	264.41	37.25	-33.4	-38.5	5.7	1.25e+00	0	42	104	0	28	6522
2026-01-14 11:32:56.72	264.84	37.25	-32.5	-35.3	5.2	1.70e-01	0	42	104	0	26	4997
2026-01-14 11:32:57.73	265.27	37.24	-31.9	-33.9	10.4	9.92e-01	0	43	104	0	25	4504
2026-01-14 11:32:58.73	265.70	37.24	-32.1	-34.5	10.5	4.08e-02	0	42	0	0	25	4730
2026-01-14 11:32:59.72	266.12	37.23	-32.1	-34.5	10.5	4.83e-03	0	43	0	2097152	25	4731
2026-01-14 11:33:00.72	266.55	37.22	-32.2	-34.7	10.3	4.72e-03	0	42	0	4194304	25	4828
2026-01-14 11:33:01.72	266.98	37.21	-32.2	-34.8	10.3	4.64e-03	0	42	0	5242880	25	4846
2026-01-14 11:33:02.72	267.41	37.20	-32.4	-35.6	9.6	8.49e-03	0	42	0	7340032	25	5200
2026-01-14 11:33:03.72	267.83	37.19	-32.7	-36.4	9.1	1.95e-02	0	42	0	9437184	25	5571
2026-01-14 11:33:04.71	268.26	37.18	-32.8	-36.9	8.7	3.34e-02	0	42	0	11534336	25	5798
2026-01-14 11:33:05.72	268.69	37.16	-32.9	-37.5	8.2	3.92e-02	0	42	0	13631488	25	6133
2026-01-14 11:33:06.72	269.11	37.14	-32.7	-36.2	8.8	4.41e-02	0	42	0	14680064	26	5367
2026-01-14 11:33:07.71	269.53	37.12	-32.2	-34.8	10.3	1.16e-02	0	43	0	16777216	25	4845
2026-01-14 11:33:08.72	269.96	37.10	-31.6	-33.4	11.7	2.13e-03	0	42	0	18874368	24	4411
2026-01-14 11:33:09.71	270.38	37.07	-31.2	-32.8	12.4	1.65e-04	0	43	0	20971520	23	4314
2026-01-14 11:33:10.71	270.81	37.05	-30.9	-31.7	13.1	4.88e-05	0	43	0	22020096	23	3967
2026-01-14 11:33:11.70	271.23	37.02	-30.8	-32.0	13.3	1.83e-05	0	42	0	24117248	22	4134
2026-01-14 11:33:12.70	271.65	36.99	-30.9	-32.5	13.1	1.75e-05	0	43	0	26214400	22	4292
2026-01-14 11:33:13.70	272.07	36.96	-31.3	-33.5	12.3	1.23e-04	0	43	0	28311552	22	4634
2026-01-14 11:33:14.70	272.49	36.93	-31.6	-34.0	11.6	5.23e-04	0	43	0	30408704	23	4713
2026-01-14 11:33:15.70	272.91	36.90	-31.8	-34.4	11.4	9.59e-04	0	42	0	31457280	23	4875
2026-01-14 11:33:16.69	273.33	36.86	-31.6	-33.8	11.8	1.16e-03	0	42	0	33554432	23	4663
2026-01-14 11:33:17.69	273.74	36.82	-31.1	-32.3	12.7	1.78e-04	0	42	0	35651584	23	4151
2026-01-14 11:33:18.68	274.16	36.79	-31.2	-32.6	12.6	7.78e-05	0	42	0	37748736	23	4238
2026-01-14 11:33:19.68	274.57	36.75	-31.5	-33.5	12.0	2.59e-04	0	42	0	38797312	23	4527
2026-01-14 11:33:20.67	274.98	36.70	-31.5	-33.4	12.0	2.75e-04	0	42	0	40894464	23	4510
2026-01-14 11:33:21.67	275.40	36.66	-31.0	-32.2	12.8	1.07e-04	0	42	0	42991616	23	4104
2026-01-14 11:33:22.67	275.81	36.62	-31.2	-32.7	12.6	7.24e-05	0	42	0	45088768	23	4257
2026-01-14 11:33:23.67	276.22	36.57	-31.4	-33.4	12.1	2.00e-04	0	42	0	47185920	23	4490
2026-01-14 11:33:24.66	276.63	36.52	-31.8	-34.5	11.3	8.02e-04	0	43	0	48234496	23	4916
2026-01-14 11:33:25.64	277.03	36.47	-32.1	-34.9	10.6	3.77e-03	0	43	0	50331648	24	4990
2026-01-14 11:33:26.63	277.44	36.42	-32.1	-34.8	10.7	3.51e-03	0	42	0	52428800	24	4944
2026-01-14 11:33:27.63	277.84	36.37	-31.7	-33.7	11.5	1.01e-03	0	42	0	54525952	24	4530
2026-01-14 11:33:28.63	278.25	36.32	-31.9	-34.3	11.1	7.13e-04	0	42	0	56623104	24	4739
2026-01-14 11:33:29.63	278.65	36.26	-32.3	-35.5	10.2	2.53e-03	0	42	0	57671680	24	5238
2026-01-14 11:33:30.62	279.05	36.20	-32.8	-37.1	8.6	1.13e-02	0	43	0	59768832	25	5911
2026-01-14 11:33:31.63	279.46	36.14	-33.0	-37.5	7.9	8.80e-02	0	43	0	61865984	26	6020
2026-01-14 11:33:32.64	279.86	36.08	-32.8	-36.4	8.7	4.91e-02	0	43	0	63963136	26	5479
2026-01-14 11:33:33.64	280.26	36.02	-32.8	-36.3	8.9	2.60e-02	0	43	0	65011712	26	5387
2026-01-14 11:33:34.63	280.65	35.96	-32.9	-36.7	8.5	3.74e-02	0	43	0	67108864	26	5625
2026-01-14 11:33:35.63	281.05	35.90	-33.1	-37.6	7.9	7.08e-02	0	42	0	69206016	26	6075
2026-01-14 11:33:36.63	281.44	35.83	-33.2	-38.1	7.4	9.40e-02	0	42	0	71303168	26	6369
2026-01-14 11:33:37.62	281.83	35.76	-32.7	-36.0	8.9	7.49e-02	0	43	0	73400320	26	5283
2026-01-14 11:33:38.62	282.22	35.70	-32.3	-34.6	10.1	1.07e-02	0	43	0	74448896	26	4676
2026-01-14 11:33:39.62	282.61	35.63	-32.1	-34.5	10.5	4.11e-03	0	42	0	76546048	25	4727
2026-01-14 11:33:40.61	282.99	35.56	-32.6	-36.2	9.3	7.03e-03	0	43	0	78643200	25	5435
2026-01-14 11:33:41.62	283.38	35.48	-33.1	-37.7	7.8	6.93e-02	0	42	0	80740352	26	6127
2026-01-14 11:33:42.63	283.77	35.41	-33.4	-39.2	6.6	2.02e-01	0	42	0	82837504	26	7045
2026-01-14 11:33:43.63	284.15	35.34	-33.3	-38.5	7.1	1.71e-01	0	43	0	83886080	26	6574
2026-01-14 11:33:44.64	284.54	35.26	-32.9	-36.7	8.4	6.77e-02	0	43	0	85983232	26	5595
2026-01-14 11:33:45.64	284.92	35.18	-32.6	-35.7	9.5	1.88e-02	0	43	0	88080384	26	5129
2026-01-14 11:33:46.64	285.29	35.10	-32.8	-36.4	8.7	2.01e-02	0	43	0	90177536	26	5432
2026-01-14 11:33:47.64	285.67	35.02	-32.7	-36.0	9.0	3.34e-02	0	43	0	91226112	26	5256
2026-01-14 11:33:48.64	286.04	34.94	-32.3	-34.7	10.1	1.09e-02	0	43	0	93323264	26	4706
2026-01-14 11:33:49.65	286.42	34.86	-32.1	-34.4	10.6	4.77e-03	0	42	0	95420416	25	4709
2026-01-14 11:33:50.65	286.79	34.78	-32.1	-34.6	10.5	2.39e-03	0	43	0	97517568	25	4769
2026-01-14 11:33:51.65	287.15	34.70	-32.3	-35.1	10.1	8.56e-03	0	42	0	99614720	25	4952
2026-01-14 11:33:52.64	287.52	34.61	-32.7	-36.7	8.9	1.94e-02	0	42	0	100663296	25	5675
2026-01-14 11:33:53.65	287.88	34.52	-33.2	-38.2	7.4	6.81e-02	0	43	0	102760448	26	6425
2026-01-14 11:33:54.66	288.25	34.44	-33.5	-39.5	6.1	1.35e-01	0	43	0	104857600	27	7138
2026-01-14 11:33:55.66	288.61	34.35	-33.6	-39.9	5.8	4.18e-01	0	42	0	106954752	27	7415
2026-01-14 11:33:56.66	288.97	34.26	-33.3	-38.0	7.1	2.20e-01	0	42	0	109051904	27	6198
2026-01-14 11:33:57.67	289.33	34.17	-32.8	-36.3	8.8	8.68e-02	0	42	0	110100480	26	5413
2026-01-14 11:33:58.67	289.68	34.08	-32.6	-35.5	9.4	2.20e-02	0	43	0	112197632	26	5070
2026-01-14 11:33:59.67	290.03	33.99	-32.5	-35.1	9.7	8.36e-03	0	42	0	114294784	26	4903
2026-01-14 11:34:00.67	290.39	33.90	-32.3	-35.2	10.0	8.70e-03	0	43	0	116391936	25	5003
2026-01-14 11:34:01.68	290.74	33.80	-32.1	-34.4	10.6	5.87e-03	0	43	0	118489088	25	4679
2026-01-14 11:34:02.68	291.08	33.71	-31.8	-33.8	11.3	1.45e-03	0	42	0	119537664	24	4577
2026-01-14 11:34:03.69	291.43	33.61	-31.4	-32.7	12.1	4.03e-04	0	43	0	121634816	24	4177
2026-01-14 11:34:04.69	291.77	33.51	-31.2	-32.8	12.4	1.72e-04	0	43	0	123731968	23	4303
2026-01-14 11:34:05.70	292.12	33.42	-31.3	-32.9	12.3	1.61e-04	0	43	0	125829120	23	4353
2026-01-14 11:34:06.70	292.46	33.32	-31.2	-32.6	12.6	1.30e-04	0	43	0	127926272	23	4232
2026-01-14 11:34:07.71	292.80	33.22	-31.4	-33.4	12.0	1.66e-04	0	42	0	128974848	23	4495
2026-01-14 11:34:08.71	293.13	33.12	-31.5	-33.6	11.8	4.36e-04	0	43	0	131072000	23	4576
2026-01-14 11:34:09.72	293.47	33.02	-31.5	-33.5	12.0	3.90e-04	0	43	0	133169152	23	4545
2026-01-14 11:34:10.71	293.79	32.92	-31.3	-33.0	12.3	1.66e-04	0	42	0	135266304	23	4373
2026-01-14 11:34:11.72	294.12	32.82	-31.5	-33.5	11.9	1.85e-04	0	43	0	137363456	23	4539
2026-01-14 11:34:12.72	294.45	32.72	-32.0	-34.7	10.7	1.46e-03	0	42	0	138412032	24	4905
2026-01-14 11:34:13.72	294.77	32.61	-33.0	-37.9	8.0	2.24e-02	0	42	0	140509184	25	6311
2026-01-14 11:34:14.72	295.10	32.51	-33.4	-39.4	6.3	2.10e-01	0	43	0	142606336	26	7198
2026-01-14 11:34:15.72	295.42	32.41	-33.3	-38.3	6.8	2.78e-01	0	43	0	144703488	27	6384
2026-01-14 11:34:16.72	295.74	32.30	-32.4	-34.9	9.7	3.19e-02	0	42	0	146800640	26	4814
2026-01-14 11:34:17.73	296.05	32.20	-31.0	-32.2	12.8	5.66e-04	0	43	0	147849216	23	4114
2026-01-14 11:34:18.73	296.37	32.09	-30.5	-31.2	13.8	7.60e-06	0	42	0	149946368	22	3918
2026-01-14 11:34:19.74	296.68	31.98	-30.8	-32.0	13.2	1.22e-05	0	43	0	152043520	22	4157
2026-01-14 11:34:20.75	297.00	31.88	-31.1	-32.9	12.7	5.41e-05	0	42	0	154140672	22	4445
2026-01-14 11:34:21.76	297.31	31.77	-31.5	-33.7	11.8	1.91e-04	0	42	0	156237824	23	4618
2026-01-14 11:34:22.76	297.61	31.66	-31.3	-33.1	12.1	3.91e-04	0	42	0	157286400	23	4404
2026-01-14 11:34:23.76	297.92	31.55	-30.9	-31.9	13.0	5.87e-05	0	42	0	159383552	23	4030
2026-01-14 11:34:24.77	298.22	31.44	-30.5	-31.2	13.8	7.60e-06	0	42	0	161480704	22	3906
2026-01-14 11:34:25.77	298.52	31.33	-30.6	-31.4	13.5	8.30e-06	0	43	0	163577856	22	3984
2026-01-14 11:34:26.77	298.82	31.23	-30.8	-32.0	13.2	1.90e-05	0	43	0	164626432	22	4151
2026-01-14 11:34:27.78	299.12	31.11	-31.3	-33.6	12.1	6.02e-05	0	43	0	166723584	22	4689
2026-01-14 11:34:28.78	299.41	31.00	-31.4	-33.3	12.0	4.28e-04	0	43	0	168820736	23	4498
2026-01-14 11:34:29.78	299.71	30.89	-30.9	-31.8	13.0	8.01e-05	0	43	0	170917888	23	4002
2026-01-14 11:34:30.78	300.00	30.78	-30.3	-30.7	14.0	1.22e-05	0	42	0	173015040	22	3783
2026-01-14 11:34:31.79	300.29	30.67	-29.7	-30.2	15.0	0.00e+00	0	43	0	174063616	20	3820
2026-01-14 11:34:32.79	300.57	30.56	-29.6	-30.0	15.1	0.00e+00	0	42	0	176160768	20	3758
2026-01-14 11:34:33.80	300.86	30.45	-29.9	-30.6	14.7	0.00e+00	0	43	0	178257920	20	3938
2026-01-14 11:34:34.80	301.14	30.33	-30.7	-32.4	13.3	3.00e-06	0	42	0	180355072	21	4363
2026-01-14 11:34:35.79	301.42	30.22	-31.3	-33.4	12.3	1.81e-04	0	42	0	182452224	22	4619
2026-01-14 11:34:36.80	301.70	30.11	-30.9	-32.3	13.0	1.03e-04	0	43	0	183500800	22	4253
2026-01-14 11:34:37.80	301.98	29.99	-30.3	-30.7	14.0	1.37e-05	0	43	0	185597952	22	3790
2026-01-14 11:34:38.81	302.26	29.88	-29.3	-29.7	15.7	0.00e+00	0	43	0	187695104	19	3781
2026-01-14 11:34:39.81	302.53	29.77	-29.5	-30.2	15.3	0.00e+00	0	42	0	189792256	19	3906
2026-01-14 11:34:40.80	302.80	29.65	-29.8	-30.9	14.9	0.00e+00	0	43	0	191889408	19	4101
2026-01-14 11:34:41.80	303.07	29.54	-30.6	-32.0	13.5	1.50e-06	0	43	0	192937984	21	4231
2026-01-14 11:34:42.81	303.34	29.42	-31.1	-32.9	12.6	7.62e-05	0	43	0	195035136	22	4438
2026-01-14 11:34:43.81	303.60	29.31	-31.0	-32.7	12.8	1.01e-04	0	43	0	197132288	22	4369
2026-01-14 11:34:44.82	303.87	29.19	-30.6	-31.5	13.5	2.97e-05	0	42	0	199229440	22	4011
2026-01-14 11:34:45.82	304.13	29.08	-30.0	-30.4	14.5	0.00e+00	0	43	0	201326592	21	3779
2026-01-14 11:34:46.82	304.39	28.96	-30.3	-31.3	14.0	3.00e-06	0	43	0	202375168	21	4033
2026-01-14 11:34:47.82	304.65	28.85	-30.6	-32.0	13.5	7.60e-06	0	43	0	204472320	21	4240
2026-01-14 11:34:48.83	304.90	28.73	-31.2	-33.2	12.4	2.21e-05	0	43	0	206569472	22	4555
2026-01-14 11:34:49.83	305.16	28.62	-31.5	-33.7	11.7	5.17e-04	0	43	0	208666624	23	4618
2026-01-14 11:34:50.83	305.41	28.50	-31.4	-33.4	11.9	5.83e-04	0	43	0	209715200	23	4536
2026-01-14 11:34:51.84	305.66	28.38	-31.2	-32.6	12.5	3.97e-04	0	43	0	211812352	23	4258
2026-01-14 11:34:52.84	305.91	28.27	-30.9	-31.8	13.0	7.47e-05	0	43	0	213909504	23	4018
2026-01-14 11:34:53.84	306.16	28.15	-31.0	-32.1	12.8	6.17e-05	0	42	0	216006656	23	4089
2026-01-14 11:34:54.85	306.41	28.04	-30.5	-31.3	13.6	4.27e-05	0	43	0	218103808	22	3954
2026-01-14 11:34:55.85	306.65	27.92	-30.6	-31.7	13.5	9.10e-06	0	42	0	219152384	22	4048
2026-01-14 11:34:56.85	306.89	27.80	-31.1	-32.8	12.6	3.89e-05	0	43	0	221249536	22	4407
2026-01-14 11:34:57.85	307.13	27.69	-30.8	-32.1	13.2	6.40e-05	0	43	0	223346688	22	4184
2026-01-14 11:34:58.86	307.37	27.57	-30.4	-31.1	13.7	1.90e-05	0	43	0	225443840	22	3885
2026-01-14 11:34:59.86	307.61	27.46	-29.9	-30.3	14.5	1.50e-06	0	43	0	227540992	21	3762
2026-01-14 11:35:00.86	307.85	27.34	-29.7	-30.1	15.0	0.00e+00	0	43	0	228589568	20	3804
2026-01-14 11:35:01.85	308.08	27.22	-30.0	-31.1	14.4	0.00e+00	0	42	0	230686720	20	4058
2026-01-14 11:35:02.85	308.31	27.11	-30.5	-32.2	13.7	0.00e+00	0	43	0	232783872	20	4409
2026-01-14 11:35:03.85	308.54	26.99	-31.3	-33.7	12.0	7.09e-05	0	43	0	234881024	22	4713
2026-01-14 11:35:04.86	308.77	26.88	-31.6	-33.9	11.6	4.73e-04	0	43	0	236978176	23	4696
2026-01-14 11:35:05.86	309.00	26.76	-31.6	-34.1	11.4	9.94e-04	0	43	0	238026752	23	4779
2026-01-14 11:35:06.86	309.22	26.64	-31.1	-32.5	12.5	2.57e-04	0	43	0	240123904	23	4237
2026-01-14 11:35:07.86	309.44	26.53	-30.4	-31.0	13.8	1.67e-05	0	43	0	242221056	22	3865
2026-01-14 11:35:08.86	309.67	26.41	-29.8	-30.0	14.6	1.50e-06	0	43	0	244318208	21	3694
2026-01-14 11:35:09.87	309.89	26.29	-29.6	-30.0	15.1	0.00e+00	0	43	0	246415360	20	3767
2026-01-14 11:35:10.87	310.11	26.18	-29.9	-30.9	14.5	0.00e+00	0	42	0	247463936	20	4006
2026-01-14 11:35:11.88	310.33	26.06	-30.4	-32.1	13.7	2.20e-06	0	43	0	249561088	20	4386
2026-01-14 11:35:12.88	310.54	25.95	-30.7	-32.4	13.2	8.30e-06	0	43	0	251658240	21	4385
2026-01-14 11:35:13.89	310.76	25.83	-30.6	-32.2	13.3	2.74e-05	0	43	0	253755392	21	4317
2026-01-14 11:35:14.90	310.97	25.71	-30.3	-31.4	13.8	9.10e-06	0	43	0	254803968	21	4085
2026-01-14 11:35:15.90	311.18	25.60	-30.2	-31.1	14.0	1.50e-06	0	43	0	256901120	21	3976
2026-01-14 11:35:16.90	311.39	25.48	-30.2	-31.0	14.2	2.20e-06	0	43	0	258998272	21	3958
2026-01-14 11:35:17.90	311.60	25.37	-30.3	-31.2	14.0	3.80e-06	0	43	0	261095424	21	4009
2026-01-14 11:35:18.91	311.81	25.25	-30.0	-30.4	14.4	7.00e-07	0	43	0	263192576	21	3793
2026-01-14 11:35:19.91	312.02	25.14	-30.2	-30.9	14.1	1.50e-06	0	43	0	265289728	21	3938
2026-01-14 11:35:20.92	312.22	25.02	-30.2	-31.2	14.0	1.50e-06	0	43	0	266338304	21	4006
2026-01-14 11:35:21.93	312.43	24.91	-30.5	-32.0	13.4	9.10e-06	0	42	0	268435456	21	4236
2026-01-14 11:35:22.93	312.63	24.79	-30.7	-32.4	13.1	1.14e-05	0	43	0	270532608	21	4395
2026-01-14 11:35:23.93	312.83	24.68	-30.8	-32.6	13.0	4.11e-05	0	43	0	272629760	21	4444
2026-01-14 11:35:24.94	313.03	24.56	-30.8	-32.7	12.9	3.89e-05	0	43	0	273678336	21	4490
2026-01-14 11:35:25.95	313.22	24.45	-31.0	-32.9	12.5	5.34e-05	0	43	0	275775488	22	4446
2026-01-14 11:35:26.95	313.42	24.33	-31.4	-34.0	11.8	3.52e-04	0	42	0	277872640	22	4829
2026-01-14 11:35:27.95	313.61	24.22	-31.2	-33.2	12.3	2.48e-04	0	43	0	279969792	22	4546
2026-01-14 11:35:28.96	313.81	24.10	-30.8	-32.1	13.1	6.79e-05	0	43	0	282066944	22	4183
2026-01-14 11:35:29.97	314.00	23.99	-30.5	-31.5	13.4	1.29e-05	0	42	0	283115520	22	4008
2026-01-14 11:35:30.97	314.19	23.88	-30.3	-30.9	13.8	6.10e-06	0	43	0	285212672	22	3831
2026-01-14 11:35:31.97	314.38	23.76	-30.1	-30.9	14.1	2.20e-06	0	43	0	287309824	21	3924
2026-01-14 11:35:32.96	314.56	23.65	-29.8	-30.1	14.6	0.00e+00	0	43	0	289406976	21	3716
2026-01-14 11:35:33.97	314.75	23.54	-29.5	-29.9	15.0	0.00e+00	0	43	0	291504128	20	3747
2026-01-14 11:35:34.97	314.94	23.43	-29.3	-29.8	15.4	0.00e+00	0	43	0	292552704	19	3809
2026-01-14 11:35:35.98	315.12	23.31	-29.2	-29.4	15.6	0.00e+00	0	42	0	294649856	19	3716
2026-01-14 11:35:36.98	315.30	23.20	-28.9	-28.9	16.0	0.00e+00	0	42	0	296747008	19	3575
2026-01-14 11:35:37.98	315.48	23.09	-28.8	-29.1	16.1	0.00e+00	0	42	0	298844160	18	3711
2026-01-14 11:35:38.98	315.66	22.98	-29.0	-29.7	15.7	0.00e+00	0	42	0	300941312	18	3863
2026-01-14 11:35:39.99	315.84	22.86	-29.1	-29.8	15.7	0.00e+00	0	43	0	301989888	18	3905
2026-01-14 11:35:40.99	316.02	22.75	-29.5	-30.7	15.2	0.00e+00	0	43	0	304087040	18	4151
2026-01-14 11:35:41.99	316.19	22.64	-29.7	-30.7	14.8	0.00e+00	0	42	0	306184192	19	4055
2026-01-14 11:35:42.99	316.37	22.53	-29.9	-31.3	14.5	1.50e-06	0	43	0	308281344	19	4217
2026-01-14 11:35:44.00	316.54	22.42	-29.9	-30.9	14.4	2.20e-06	0	42	0	310378496	20	4020
2026-01-14 11:35:45.00	316.72	22.31	-29.8	-30.7	14.5	1.50e-06	0	43	0	311427072	20	3957
2026-01-14 11:35:46.00	316.89	22.20	-29.7	-30.3	14.8	0.00e+00	0	42	0	313524224	20	3851
2026-01-14 11:35:47.00	317.06	22.09	-29.5	-29.8	15.0	0.00e+00	0	42	0	315621376	20	3723
2026-01-14 11:35:48.01	317.23	21.98	-29.5	-29.9	14.9	0.00e+00	0	43	0	317718528	20	3753
2026-01-14 11:35:49.01	317.39	21.87	-29.7	-30.3	14.7	0.00e+00	0	43	0	319815680	20	3856
2026-01-14 11:35:50.01	317.56	21.76	-29.7	-30.2	14.7	0.00e+00	0	43	0	320864256	20	3842
2026-01-14 11:35:51.02	317.73	21.65	-29.7	-30.3	14.6	7.00e-07	0	43	0	322961408	20	3861
2026-01-14 11:35:52.02	317.89	21.54	-29.7	-30.3	14.7	7.00e-07	0	43	0	325058560	20	3849
2026-01-14 11:35:53.03	318.05	21.43	-29.8	-30.7	14.5	0.00e+00	0	42	0	327155712	20	3957
2026-01-14 11:35:54.03	318.22	21.32	-29.9	-30.8	14.4	0.00e+00	0	43	0	328204288	20	3997
2026-01-14 11:35:55.03	318.38	21.22	-30.0	-31.1	14.2	7.00e-07	0	43	0	330301440	20	4097
2026-01-14 11:35:56.04	318.54	21.11	-29.8	-30.6	14.5	7.00e-07	0	43	0	332398592	20	3941
2026-01-14 11:35:57.04	318.70	21.00	-29.7	-30.3	14.7	7.00e-07	0	42	0	334495744	20	3861
2026-01-14 11:35:58.04	318.85	20.89	-29.7	-30.4	14.7	0.00e+00	0	43	0	336592896	20	3881
2026-01-14 11:35:59.04	319.01	20.79	-29.7	-30.3	14.7	7.00e-07	0	43	0	337641472	20	3873
2026-01-14 11:36:00.05	319.17	20.68	-29.8	-30.7	14.5	0.00e+00	0	42	0	339738624	20	3971
2026-01-14 11:36:01.05	319.32	20.57	-29.6	-30.2	14.8	0.00e+00	0	42	0	341835776	20	3841
2026-01-14 11:36:02.06	319.48	20.46	-29.5	-29.8	15.0	0.00e+00	0	43	0	343932928	20	3717
2026-01-14 11:36:03.07	319.63	20.36	-29.6	-30.1	14.8	0.00e+00	0	43	0	346030080	20	3805
2026-01-14 11:36:04.07	319.78	20.25	-29.5	-29.7	15.0	0.00e+00	0	43	0	347078656	20	3715
2026-01-14 11:36:05.08	319.93	20.14	-29.6	-30.1	14.8	0.00e+00	0	43	0	349175808	20	3811
2026-01-14 11:36:06.08	320.08	20.04	-29.7	-30.5	14.5	0.00e+00	0	43	0	351272960	20	3912
2026-01-14 11:36:07.08	320.23	19.93	-29.8	-30.6	14.4	0.00e+00	0	43	0	353370112	20	3954
2026-01-14 11:36:08.09	320.38	19.83	-29.8	-30.5	14.5	0.00e+00	0	42	0	355467264	20	3921
2026-01-14 11:36:09.09	320.52	19.72	-29.7	-30.4	14.6	7.00e-07	0	43	0	356515840	20	3898
2026-01-14 11:36:10.09	320.67	19.62	-29.8	-30.5	14.5	0.00e+00	0	43	0	358612992	20	3926
2026-01-14 11:36:11.10	320.81	19.52	-29.8	-30.6	14.4	0.00e+00	0	43	0	360710144	20	3944
2026-01-14 11:36:12.10	320.96	19.41	-29.6	-30.1	14.7	0.00e+00	0	42	0	362807296	20	3826
2026-01-14 11:36:13.11	321.10	19.31	-29.5	-29.7	14.9	0.00e+00	0	42	0	364904448	20	3716
2026-01-14 11:36:14.11	321.24	19.20	-29.5	-29.9	14.8	0.00e+00	0	42	0	365953024	20	3767
2026-01-14 11:36:15.11	321.38	19.10	-29.7	-30.2	14.7	7.00e-07	0	43	0	368050176	20	3840
2026-01-14 11:36:16.11	321.52	19.00	-29.5	-29.9	14.9	7.00e-07	0	43	0	370147328	20	3764
2026-01-14 11:36:17.11	321.66	18.90	-29.7	-30.2	14.7	7.00e-07	0	43	0	372244480	20	3848
2026-01-14 11:36:18.11	321.80	18.80	-29.7	-30.2	14.7	0.00e+00	0	43	0	374341632	20	3838
2026-01-14 11:36:19.12	321.94	18.69	-29.8	-30.6	14.4	0.00e+00	0	43	0	375390208	20	3957
2026-01-14 11:36:20.13	322.07	18.59	-30.0	-31.0	14.2	7.00e-07	0	43	0	377487360	20	4072
2026-01-14 11:36:21.14	322.21	18.49	-30.1	-31.4	13.9	3.00e-06	0	43	0	379584512	20	4178
2026-01-14 11:36:22.14	322.35	18.39	-30.3	-32.0	13.6	6.10e-06	0	43	0	381681664	20	4369
2026-01-14 11:36:23.14	322.48	18.29	-30.9	-33.0	12.5	2.59e-05	0	43	0	383778816	21	4588
2026-01-14 11:36:24.15	322.61	18.18	-30.9	-33.0	12.5	6.79e-05	0	42	0	384827392	21	4602
2026-01-14 11:36:25.15	322.74	18.08	-31.2	-33.5	11.9	1.92e-04	0	42	0	386924544	22	4694
2026-01-14 11:36:26.15	322.87	17.98	-31.5	-34.3	11.5	4.89e-04	0	43	0	389021696	22	4964
2026-01-14 11:36:27.15	323.00	17.89	-31.6	-34.1	11.1	9.54e-04	0	43	0	391118848	23	4813
2026-01-14 11:36:28.16	323.14	17.78	-31.6	-34.2	11.0	1.85e-03	0	42	0	393216000	23	4853
2026-01-14 11:36:29.16	323.26	17.69	-31.5	-33.8	11.3	2.05e-03	0	42	0	394264576	23	4723
2026-01-14 11:36:30.17	323.39	17.59	-31.3	-33.4	11.6	1.09e-03	0	43	0	396361728	23	4559
2026-01-14 11:36:31.17	323.52	17.49	-31.4	-33.6	11.4	1.16e-03	0	43	0	398458880	23	4643
2026-01-14 11:36:32.17	323.64	17.39	-31.1	-32.7	12.1	5.62e-04	0	43	0	400556032	23	4316
2026-01-14 11:36:33.18	323.77	17.29	-31.0	-32.4	12.3	2.01e-04	0	43	0	401604608	23	4220
2026-01-14 11:36:34.17	323.89	17.19	-30.9	-32.2	12.5	1.13e-04	0	43	0	403701760	23	4151
2026-01-14 11:36:35.18	324.02	17.10	-30.7	-31.9	12.9	4.11e-05	0	42	0	405798912	22	4168
2026-01-14 11:36:36.19	324.14	17.00	-30.7	-32.1	12.8	5.64e-05	0	43	0	407896064	22	4222
2026-01-14 11:36:37.19	324.27	16.90	-30.4	-31.2	13.4	4.42e-05	0	43	0	409993216	22	3951
2026-01-14 11:36:38.18	324.39	16.80	-30.4	-31.3	13.3	1.29e-05	0	43	0	411041792	22	3981
2026-01-14 11:36:39.19	324.51	16.71	-30.7	-31.9	12.8	5.56e-05	0	43	0	413138944	22	4157
2026-01-14 11:36:40.19	324.63	16.61	-30.5	-31.4	13.2	4.80e-05	0	43	0	415236096	22	4010
2026-01-14 11:36:41.19	324.75	16.52	-30.6	-31.8	13.0	3.20e-05	0	43	0	417333248	22	4124
2026-01-14 11:36:42.19	324.86	16.42	-30.8	-32.3	12.7	5.79e-05	0	43	0	419430400	22	4285
2026-01-14 11:36:43.19	324.98	16.32	-30.8	-32.3	12.6	6.25e-05	0	42	0	420478976	22	4276
2026-01-14 11:36:44.20	325.10	16.23	-30.9	-32.7	12.3	7.70e-05	0	42	0	422576128	22	4420
2026-01-14 11:36:45.20	325.22	16.13	-31.0	-32.8	12.3	2.77e-04	0	43	0	424673280	22	4448
2026-01-14 11:36:46.20	325.33	16.04	-30.8	-32.4	12.6	1.12e-04	0	43	0	426770432	22	4305
2026-01-14 11:36:47.20	325.45	15.94	-30.9	-32.5	12.4	1.31e-04	0	43	0	428867584	22	4352
2026-01-14 11:36:48.20	325.56	15.85	-30.7	-32.0	12.8	1.02e-04	0	43	0	429916160	22	4205
2026-01-14 11:36:49.21	325.68	15.76	-30.9	-32.5	12.5	9.99e-05	0	43	0	432013312	22	4358
2026-01-14 11:36:50.21	325.79	15.66	-30.6	-31.9	12.8	9.76e-05	0	43	0	434110464	22	4164
2026-01-14 11:36:51.21	325.90	15.57	-30.4	-31.3	13.3	2.21e-05	0	42	0	436207616	22	3975
2026-01-14 11:36:52.22	326.01	15.48	-30.6	-31.7	13.0	4.88e-05	0	43	0	438304768	22	4108
2026-01-14 11:36:53.22	326.12	15.38	-30.4	-31.3	13.2	2.59e-05	0	43	0	439353344	22	3990
2026-01-14 11:36:54.23	326.23	15.29	-30.3	-31.5	13.4	1.29e-05	0	43	0	441450496	21	4145
2026-01-14 11:36:55.23	326.34	15.20	-30.5	-31.9	13.1	3.50e-05	0	43	0	443547648	21	4267
2026-01-14 11:36:56.23	326.45	15.11	-30.2	-31.3	13.5	2.36e-05	0	43	0	445644800	21	4064
2026-01-14 11:36:57.24	326.56	15.01	-30.5	-32.0	13.0	1.60e-05	0	43	0	446693376	21	4293
2026-01-14 11:36:58.24	326.67	14.92	-30.5	-32.1	13.0	5.95e-05	0	43	0	448790528	21	4329
2026-01-14 11:36:59.24	326.78	14.83	-30.3	-31.6	13.3	2.51e-05	0	43	0	450887680	21	4172
2026-01-14 11:37:00.24	326.88	14.74	-30.6	-32.2	12.9	3.50e-05	0	42	0	452984832	21	4358
2026-01-14 11:37:01.25	326.99	14.65	-30.6	-32.3	12.8	4.65e-05	0	43	0	455081984	21	4403
2026-01-14 11:37:02.24	327.09	14.56	-30.5	-32.1	12.9	3.43e-05	0	43	0	456130560	21	4336
2026-01-14 11:37:03.24	327.20	14.47	-30.6	-32.3	12.9	5.26e-05	0	42	0	458227712	21	4381
2026-01-14 11:37:04.25	327.30	14.38	-30.3	-31.6	13.3	4.04e-05	0	43	0	460324864	21	4151
2026-01-14 11:37:05.25	327.41	14.29	-30.5	-32.0	13.0	1.98e-05	0	42	0	462422016	21	4292
2026-01-14 11:37:06.25	327.51	14.20	-30.4	-31.8	13.1	2.97e-05	0	42	0	464519168	21	4218
2026-01-14 11:37:07.26	327.61	14.11	-30.2	-31.1	13.6	9.90e-06	0	42	0	465567744	21	4027
2026-01-14 11:37:08.27	327.71	14.02	-30.2	-31.2	13.5	1.67e-05	0	43	0	467664896	21	4062
2026-01-14 11:37:09.27	327.81	13.93	-30.2	-31.4	13.4	1.14e-05	0	43	0	469762048	21	4097
2026-01-14 11:37:10.28	327.92	13.84	-30.2	-31.4	13.4	9.10e-06	0	42	0	471859200	21	4095
2026-01-14 11:37:11.28	328.02	13.75	-30.2	-31.3	13.5	1.22e-05	0	43	0	473956352	21	4066
2026-01-14 11:37:12.28	328.11	13.67	-30.0	-30.8	13.8	1.14e-05	0	43	0	475004928	21	3926
2026-01-14 11:37:13.28	328.21	13.58	-30.2	-31.4	13.4	7.60e-06	0	43	0	477102080	21	4101
2026-01-14 11:37:14.28	328.31	13.49	-30.2	-31.4	13.4	9.90e-06	0	43	0	479199232	21	4113
2026-01-14 11:37:15.28	328.41	13.40	-30.3	-31.4	13.4	1.22e-05	0	43	0	481296384	21	4103
2026-01-14 11:37:16.28	328.51	13.32	-30.4	-31.8	13.1	3.12e-05	0	43	0	483393536	21	4240
2026-01-14 11:37:17.29	328.60	13.23	-30.4	-31.9	12.9	4.34e-05	0	43	0	484442112	21	4270
2026-01-14 11:37:18.29	328.70	13.14	-30.4	-31.9	13.0	1.60e-05	0	43	0	486539264	21	4274
2026-01-14 11:37:19.30	328.79	13.05	-30.6	-32.3	12.7	7.85e-05	0	42	0	488636416	21	4408
2026-01-14 11:37:20.30	328.89	12.97	-30.4	-31.8	13.1	5.11e-05	0	43	0	490733568	21	4231
2026-01-14 11:37:21.30	328.98	12.88	-30.5	-32.2	12.8	4.88e-05	0	43	0	492830720	21	4361
2026-01-14 11:37:22.31	329.08	12.80	-30.5	-32.2	12.8	7.17e-05	0	43	0	493879296	21	4360
2026-01-14 11:37:23.31	329.17	12.71	-30.5	-32.3	12.7	4.95e-05	0	43	0	495976448	21	4395
2026-01-14 11:37:24.31	329.26	12.63	-30.5	-32.3	12.7	9.30e-05	0	43	0	498073600	21	4399
2026-01-14 11:37:25.31	329.36	12.54	-30.5	-32.0	12.9	4.80e-05	0	43	0	500170752	21	4291
2026-01-14 11:37:26.31	329.45	12.46	-30.6	-32.3	12.7	3.89e-05	0	43	0	502267904	21	4412
2026-01-14 11:37:27.31	329.54	12.37	-30.6	-32.4	12.7	8.62e-05	0	43	0	503316480	21	4421
2026-01-14 11:37:28.31	329.63	12.29	-30.4	-31.8	13.0	5.56e-05	0	43	0	505413632	21	4253
2026-01-14 11:37:29.31	329.72	12.21	-30.6	-32.4	12.6	9.68e-05	0	43	0	507510784	21	4448
2026-01-14 11:37:30.31	329.81	12.12	-30.4	-31.9	12.9	6.40e-05	0	43	0	509607936	21	4288
2026-01-14 11:37:31.32	329.90	12.04	-30.5	-32.1	12.8	6.63e-05	0	42	0	510656512	21	4338
2026-01-14 11:37:32.32	329.99	11.95	-30.8	-33.0	12.2	1.77e-04	0	43	0	512753664	21	4651
2026-01-14 11:37:33.33	330.08	11.87	-30.6	-32.4	12.5	1.08e-04	0	42	0	514850816	21	4457
2026-01-14 11:37:34.32	330.17	11.79	-30.8	-33.0	12.2	1.22e-04	0	43	0	516947968	21	4630
2026-01-14 11:37:35.33	330.25	11.71	-30.9	-33.3	11.9	3.43e-04	0	43	0	519045120	21	4761
2026-01-14 11:37:36.33	330.34	11.62	-30.8	-32.9	12.2	2.46e-04	0	43	0	520093696	21	4611
2026-01-14 11:37:37.34	330.43	11.54	-31.0	-33.5	11.8	4.47e-04	0	43	0	522190848	21	4842
2026-01-14 11:37:38.34	330.51	11.46	-31.0	-33.1	11.8	4.90e-04	0	43	0	524288000	22	4598
2026-01-14 11:37:39.34	330.60	11.38	-31.1	-33.4	11.6	5.91e-04	0	43	0	526385152	22	4692
2026-01-14 11:37:40.34	330.68	11.30	-31.1	-33.6	11.4	8.35e-04	0	43	0	528482304	22	4758
2026-01-14 11:37:41.35	330.77	11.21	-31.2	-33.9	11.1	9.06e-04	0	42	0	529530880	22	4899
2026-01-14 11:37:42.35	330.85	11.13	-31.2	-33.9	11.2	1.26e-03	0	43	0	531628032	22	4899
2026-01-14 11:37:43.36	330.94	11.05	-31.2	-33.7	11.3	1.32e-03	0	42	0	533725184	22	4802
2026-01-14 11:37:44.36	331.02	10.97	-31.1	-33.6	11.3	1.28e-03	0	43	0	535822336	22	4765
2026-01-14 11:37:45.36	331.10	10.89	-31.2	-33.7	11.2	1.22e-03	0	42	0	537919488	22	4825
2026-01-14 11:37:46.37	331.19	10.81	-31.3	-34.2	10.9	2.34e-03	0	43	0	538968064	22	5005
2026-01-14 11:37:47.37	331.27	10.73	-31.1	-33.5	11.4	1.27e-03	0	42	0	541065216	22	4729
2026-01-14 11:37:48.37	331.35	10.65	-31.1	-33.5	11.4	7.35e-04	0	43	0	543162368	22	4757
2026-01-14 11:37:49.38	331.43	10.57	-31.0	-33.1	11.6	9.11e-04	0	42	0	545259520	22	4607
2026-01-14 11:37:50.38	331.51	10.49	-30.8	-32.7	12.0	3.71e-04	0	43	0	547356672	22	4463
2026-01-14 11:37:51.39	331.60	10.41	-30.9	-33.0	11.7	4.95e-04	0	42	0	548405248	22	4572
2026-01-14 11:37:52.39	331.68	10.33	-30.8	-32.5	12.1	2.85e-04	0	43	0	550502400	22	4384
2026-01-14 11:37:53.39	331.75	10.25	-30.9	-33.1	11.6	5.23e-04	0	42	0	552599552	22	4600
2026-01-14 11:37:54.39	331.83	10.17	-30.9	-33.0	11.7	9.60e-04	0	43	0	554696704	22	4557
2026-01-14 11:37:55.39	331.91	10.10	-30.8	-32.5	12.0	3.91e-04	0	43	0	555745280	22	4411
2026-01-14 11:37:56.40	331.99	10.02	-30.8	-32.5	12.0	2.46e-04	0	43	0	557842432	22	4398
2026-01-14 11:37:57.40	332.07	9.94	-30.8	-32.5	12.0	2.61e-04	0	43	0	559939584	22	4412
2026-01-14 11:37:58.41	332.15	9.86	-30.9	-32.9	11.7	3.06e-04	0	42	0	562036736	22	4529
2026-01-14 11:37:59.40	332.22	9.78	-30.9	-33.0	11.7	7.59e-04	0	43	0	564133888	22	4577
2026-01-14 11:38:00.40	332.30	9.71	-30.7	-32.2	12.2	3.40e-04	0	43	0	565182464	22	4315
2026-01-14 11:38:01.41	332.38	9.63	-30.6	-32.0	12.4	2.08e-04	0	43	0	567279616	22	4242
2026-01-14 11:38:02.41	332.45	9.55	-30.6	-32.1	12.3	1.47e-04	0	43	0	569376768	22	4271
2026-01-14 11:38:03.40	332.53	9.48	-30.7	-32.3	12.2	1.85e-04	0	42	0	571473920	22	4323
2026-01-14 11:38:04.41	332.61	9.40	-30.7	-32.4	12.1	3.36e-04	0	43	0	573571072	22	4364
2026-01-14 11:38:05.42	332.68	9.32	-30.8	-32.6	11.9	2.79e-04	0	42	0	574619648	22	4449
2026-01-14 11:38:06.43	332.76	9.25	-30.8	-32.7	11.8	6.45e-04	0	42	0	576716800	22	4466
2026-01-14 11:38:07.44	332.83	9.17	-30.7	-32.4	12.1	3.84e-04	0	43	0	578813952	22	4380
2026-01-14 11:38:08.44	332.90	9.09	-30.6	-32.0	12.3	1.63e-04	0	43	0	580911104	22	4236
2026-01-14 11:38:09.44	332.98	9.02	-30.6	-32.2	12.2	2.37e-04	0	42	0	583008256	22	4290
2026-01-14 11:38:10.44	333.05	8.94	-30.6	-32.2	12.2	2.42e-04	0	43	0	584056832	22	4296
2026-01-14 11:38:11.45	333.12	8.87	-30.6	-32.2	12.2	1.67e-04	0	43	0	586153984	22	4303
2026-01-14 11:38:12.45	333.20	8.79	-30.5	-31.9	12.3	2.01e-04	0	42	0	588251136	22	4230
2026-01-14 11:38:13.45	333.27	8.72	-30.6	-32.2	12.1	2.41e-04	0	43	0	590348288	22	4306
2026-01-14 11:38:14.46	333.34	8.64	-30.6	-32.2	12.2	2.53e-04	0	43	0	592445440	22	4303
2026-01-14 11:38:15.46	333.41	8.57	-30.6	-32.1	12.1	2.78e-04	0	43	0	593494016	22	4290
2026-01-14 11:38:16.47	333.48	8.49	-30.5	-32.0	12.3	1.84e-04	0	43	0	595591168	22	4243
2026-01-14 11:38:17.47	333.56	8.42	-30.8	-32.6	11.8	4.00e-04	0	42	0	597688320	22	4459
2026-01-14 11:38:18.47	333.63	8.35	-30.7	-32.5	11.9	5.53e-04	0	43	0	599785472	22	4432
2026-01-14 11:38:19.47	333.70	8.27	-30.7	-32.5	11.9	3.84e-04	0	43	0	601882624	22	4432
2026-01-14 11:38:20.48	333.77	8.20	-30.7	-32.5	11.8	4.13e-04	0	43	0	602931200	22	4415
2026-01-14 11:38:21.48	333.84	8.12	-30.7	-32.5	11.9	3.84e-04	0	43	0	605028352	22	4419
2026-01-14 11:38:22.49	333.91	8.05	-30.7	-32.6	11.7	7.72e-04	0	43	0	607125504	22	4458
2026-01-14 11:38:23.49	333.97	7.98	-30.8	-32.9	11.5	5.83e-04	0	43	0	609222656	22	4562
2026-01-14 11:38:24.49	334.04	7.91	-30.6	-32.2	12.0	3.84e-04	0	43	0	611319808	22	4326
2026-01-14 11:38:25.49	334.11	7.83	-30.7	-32.5	11.8	4.06e-04	0	43	0	612368384	22	4426
2026-01-14 11:38:26.49	334.18	7.76	-30.9	-33.0	11.5	7.85e-04	0	43	0	614465536	22	4597
2026-01-14 11:38:27.50	334.25	7.69	-30.9	-33.0	11.5	5.82e-04	0	43	0	616562688	22	4591
2026-01-14 11:38:28.50	334.31	7.62	-31.0	-33.5	11.0	1.43e-03	0	43	0	618659840	22	4798
2026-01-14 11:38:29.50	334.38	7.54	-30.9	-33.1	11.4	1.53e-03	0	43	0	619708416	22	4633
2026-01-14 11:38:30.51	334.45	7.47	-31.0	-33.6	11.0	1.59e-03	0	42	0	621805568	22	4814
2026-01-14 11:38:31.51	334.51	7.40	-31.0	-33.5	11.0	2.35e-03	0	43	0	623902720	22	4782
2026-01-14 11:38:32.52	334.58	7.33	-31.0	-33.4	11.1	1.52e-03	0	43	0	625999872	22	4765
2026-01-14 11:38:33.52	334.65	7.26	-31.2	-34.1	10.6	3.87e-03	0	43	0	628097024	22	5042
2026-01-14 11:38:34.53	334.71	7.19	-31.3	-34.4	10.4	3.46e-03	0	43	0	629145600	22	5139
2026-01-14 11:38:35.53	334.78	7.12	-31.3	-34.6	10.2	5.33e-03	0	43	0	631242752	22	5225
2026-01-14 11:38:36.53	334.84	7.04	-33.5	-45.9	3.8	4.42e-01	0	43	104	633339904	26	15132
2026-01-14 11:38:37.54	334.91	6.97	-33.8	-46.3	3.8	1.49e+00	0	43	104	633339904	27	15216

#Closed at: 2026-01-14 11:38:38
#Recorded file [633 MB]: D:/data/31010_260114_143258.dat