passes_logs/2026/01/14/R2M6_AANII_01/R2M6_AANII_01__20260114_014537_AQUA_rec.log

#Pass ID: 20260114_014537_AQUA
#Satellite: AQUA
#Configuration: AQUA
#almurnet v.1.7.20240730
#Start time: 2026-01-14 01:45:37

#Version: 2.2.20231116
#Station: R2M6_AANII_01
#Location: 30.233357 lon 59.946436 lat
#TLE: 1 27424U 02022A   26013.25278823  .00000890  00000+0  18808-3 0  9998
#TLE: 2 27424  98.4079 339.6508 0002047  80.3961  24.1839 14.61818714260637

#Time	Az	El	Level	Level2	SNR	BER	BlckErr	Temp	State	Recorded	gain1	gain2
2026-01-14 01:45:37.04	19.44	6.99	-34.9	-54.3	3.8	7.43e-01	0	43	0	0	30	33724
2026-01-14 01:45:38.03	19.46	7.07	-34.8	-54.2	3.8	7.42e-01	0	43	104	0	30	33531
2026-01-14 01:45:39.03	19.48	7.15	-34.8	-54.2	3.8	7.45e-01	0	43	104	0	30	33553
2026-01-14 01:45:40.01	19.51	7.23	-34.8	-54.2	3.8	7.44e-01	0	43	104	0	30	33414
2026-01-14 01:45:41.01	19.53	7.31	-34.8	-54.2	3.8	7.45e-01	0	43	104	0	30	33477
2026-01-14 01:45:42.01	19.55	7.39	-34.8	-54.2	3.8	7.48e-01	0	43	104	0	30	33435
2026-01-14 01:45:43.00	19.57	7.47	-34.8	-54.2	3.8	7.44e-01	0	43	104	0	30	33543
2026-01-14 01:45:43.99	19.59	7.56	-34.8	-54.2	3.8	7.46e-01	0	43	104	0	30	33497
2026-01-14 01:45:44.98	19.61	7.64	-34.8	-54.2	3.8	7.43e-01	0	43	104	0	30	33511
2026-01-14 01:45:45.97	19.64	7.72	-34.8	-54.2	3.8	7.47e-01	0	43	104	0	30	33400
2026-01-14 01:45:46.98	19.66	7.80	-34.8	-54.2	3.8	7.45e-01	0	43	104	0	30	33516
2026-01-14 01:45:47.98	19.68	7.89	-34.8	-54.2	3.8	7.47e-01	0	43	104	0	30	33428
2026-01-14 01:45:48.98	19.70	7.97	-34.8	-54.2	3.8	7.45e-01	0	43	104	0	30	33428
2026-01-14 01:45:49.98	19.72	8.06	-34.8	-54.2	3.8	7.44e-01	0	43	104	0	30	33417
2026-01-14 01:45:50.97	19.75	8.14	-34.8	-54.2	3.8	7.48e-01	0	43	104	0	30	33431
2026-01-14 01:45:51.97	19.77	8.23	-34.8	-54.2	3.8	7.46e-01	0	43	104	0	30	33404
2026-01-14 01:45:52.97	19.79	8.31	-34.8	-54.2	3.8	7.41e-01	0	43	104	0	30	33478
2026-01-14 01:45:53.97	19.82	8.40	-34.8	-54.2	3.8	7.47e-01	0	43	104	0	30	33496
2026-01-14 01:45:54.95	19.84	8.48	-34.8	-54.2	3.8	7.44e-01	0	43	104	0	30	33474
2026-01-14 01:45:55.93	19.86	8.57	-34.8	-54.2	3.8	7.45e-01	0	43	104	0	30	33389
2026-01-14 01:45:56.93	19.88	8.65	-34.8	-54.2	3.8	7.43e-01	0	43	104	0	30	33491
2026-01-14 01:45:57.93	19.91	8.74	-34.8	-54.2	3.8	7.42e-01	0	43	104	0	30	33396
2026-01-14 01:45:58.93	19.93	8.83	-34.8	-54.2	3.8	7.45e-01	0	43	104	0	30	33399
2026-01-14 01:45:59.93	19.95	8.91	-34.8	-54.2	3.8	7.45e-01	0	43	104	0	30	33386
2026-01-14 01:46:00.92	19.98	9.00	-34.8	-54.1	3.8	7.45e-01	0	43	104	0	30	33365
2026-01-14 01:46:01.92	20.00	9.09	-34.8	-54.2	3.8	7.42e-01	0	43	104	0	30	33388
2026-01-14 01:46:02.91	20.03	9.18	-34.8	-54.2	3.8	7.46e-01	0	43	104	0	30	33409
2026-01-14 01:46:03.90	20.05	9.26	-34.8	-54.2	3.8	7.48e-01	0	43	104	0	30	33459
2026-01-14 01:46:04.89	20.07	9.35	-34.8	-54.2	3.8	7.45e-01	0	43	104	0	30	33416
2026-01-14 01:46:05.88	20.10	9.44	-34.8	-54.2	3.8	7.43e-01	0	43	104	0	30	33448
2026-01-14 01:46:06.88	20.12	9.53	-34.8	-54.1	3.8	7.47e-01	0	43	104	0	30	33342
2026-01-14 01:46:07.89	20.15	9.62	-34.8	-54.2	3.8	7.46e-01	0	43	104	0	30	33478
2026-01-14 01:46:08.88	20.17	9.71	-34.8	-54.2	3.8	7.46e-01	0	43	104	0	30	33451
2026-01-14 01:46:09.88	20.20	9.80	-34.8	-54.2	3.8	7.43e-01	0	43	104	0	30	33423
2026-01-14 01:46:10.87	20.22	9.89	-34.8	-54.2	3.8	7.44e-01	0	43	104	0	30	33408
2026-01-14 01:46:11.87	20.25	9.99	-34.8	-54.2	3.8	7.43e-01	0	43	104	0	30	33449
2026-01-14 01:46:12.86	20.27	10.08	-34.8	-54.1	3.8	7.45e-01	0	43	104	0	30	33355
2026-01-14 01:46:13.85	20.30	10.17	-34.8	-54.1	3.8	7.44e-01	0	43	104	0	30	33327
2026-01-14 01:46:14.85	20.32	10.26	-34.8	-54.2	3.8	7.46e-01	0	43	104	0	30	33440
2026-01-14 01:46:15.84	20.35	10.35	-34.8	-54.1	3.8	7.41e-01	0	43	104	0	30	33405
2026-01-14 01:46:16.84	20.37	10.45	-34.8	-54.1	3.8	7.44e-01	0	43	104	0	30	33358
2026-01-14 01:46:17.83	20.40	10.54	-34.8	-54.2	3.8	7.48e-01	0	43	104	0	30	33445
2026-01-14 01:46:18.83	20.43	10.64	-34.8	-54.2	3.8	7.47e-01	0	43	104	0	30	33451
2026-01-14 01:46:19.82	20.45	10.73	-34.8	-54.2	3.8	7.47e-01	0	43	104	0	30	33436
2026-01-14 01:46:20.81	20.48	10.82	-34.8	-54.2	3.8	7.46e-01	0	43	104	0	30	33418
2026-01-14 01:46:21.81	20.51	10.92	-34.8	-54.2	3.8	7.44e-01	0	43	104	0	30	33424
2026-01-14 01:46:22.81	20.53	11.02	-34.8	-54.1	3.8	7.44e-01	0	43	104	0	30	33369
2026-01-14 01:46:23.81	20.56	11.11	-34.8	-54.1	3.8	7.44e-01	0	43	104	0	30	33361
2026-01-14 01:46:24.80	20.59	11.21	-34.8	-54.1	3.8	7.45e-01	0	43	104	0	30	33366
2026-01-14 01:46:25.81	20.61	11.31	-34.8	-54.1	3.8	7.43e-01	0	43	104	0	30	33363
2026-01-14 01:46:26.81	20.64	11.41	-34.8	-54.1	3.8	7.45e-01	0	43	104	0	30	33350
2026-01-14 01:46:27.80	20.67	11.50	-34.8	-54.1	3.8	7.46e-01	0	43	104	0	30	33354
2026-01-14 01:46:28.80	20.70	11.60	-34.8	-54.1	3.8	7.45e-01	0	43	104	0	30	33333
2026-01-14 01:46:29.79	20.72	11.70	-34.8	-54.1	3.8	7.45e-01	0	43	104	0	30	33383
2026-01-14 01:46:30.79	20.75	11.80	-34.8	-54.1	3.8	7.49e-01	0	43	104	0	30	33350
2026-01-14 01:46:31.77	20.78	11.90	-34.8	-54.1	3.8	7.46e-01	0	43	104	0	30	33382
2026-01-14 01:46:32.77	20.81	12.00	-34.8	-54.1	3.8	7.45e-01	0	43	104	0	30	33372
2026-01-14 01:46:33.78	20.84	12.10	-34.8	-54.2	3.8	7.46e-01	0	43	104	0	30	33462
2026-01-14 01:46:34.77	20.87	12.20	-34.8	-54.2	3.8	7.47e-01	0	43	104	0	30	33420
2026-01-14 01:46:35.77	20.90	12.30	-34.8	-54.1	3.8	7.46e-01	0	43	104	0	30	33407
2026-01-14 01:46:36.77	20.93	12.41	-34.8	-54.1	3.8	7.48e-01	0	43	104	0	30	33350
2026-01-14 01:46:37.77	20.95	12.51	-34.8	-54.1	3.8	7.42e-01	0	43	104	0	30	33354
2026-01-14 01:46:38.77	20.98	12.61	-34.8	-54.2	3.8	7.45e-01	0	43	104	0	30	33450
2026-01-14 01:46:39.77	21.01	12.72	-34.8	-54.1	3.8	7.47e-01	0	43	104	0	30	33333
2026-01-14 01:46:40.76	21.04	12.82	-34.8	-54.1	3.8	7.46e-01	0	43	104	0	30	33415
2026-01-14 01:46:41.76	21.07	12.92	-34.8	-54.1	3.8	7.46e-01	0	43	104	0	30	33331
2026-01-14 01:46:42.75	21.10	13.03	-34.8	-54.1	3.8	7.49e-01	0	43	104	0	30	33366
2026-01-14 01:46:43.76	21.14	13.13	-34.8	-54.1	3.8	7.44e-01	0	43	104	0	30	33377
2026-01-14 01:46:44.75	21.17	13.24	-34.8	-54.1	3.8	7.43e-01	0	43	104	0	30	33416
2026-01-14 01:46:45.75	21.20	13.35	-34.8	-54.1	3.8	7.46e-01	0	43	104	0	30	33411
2026-01-14 01:46:46.75	21.23	13.45	-34.8	-54.1	3.8	7.45e-01	0	43	104	0	30	33350
2026-01-14 01:46:47.74	21.26	13.56	-34.8	-54.1	3.8	7.47e-01	0	43	104	0	30	33390
2026-01-14 01:46:48.73	21.29	13.67	-34.8	-54.1	3.8	7.49e-01	0	43	104	0	30	33397
2026-01-14 01:46:49.74	21.32	13.78	-34.8	-54.2	3.8	7.45e-01	0	43	104	0	30	33441
2026-01-14 01:46:50.73	21.36	13.89	-34.8	-54.1	3.8	7.44e-01	0	43	104	0	30	33431
2026-01-14 01:46:51.73	21.39	14.00	-34.8	-54.1	3.8	7.46e-01	0	43	104	0	30	33308
2026-01-14 01:46:52.72	21.42	14.11	-34.8	-54.1	3.8	7.45e-01	0	43	104	0	30	33361
2026-01-14 01:46:53.72	21.45	14.22	-34.8	-54.1	3.8	7.45e-01	0	43	104	0	30	33423
2026-01-14 01:46:54.71	21.49	14.33	-34.8	-54.1	3.8	7.49e-01	0	43	104	0	30	33431
2026-01-14 01:46:55.70	21.52	14.44	-34.8	-54.2	3.8	7.43e-01	0	43	104	0	30	33425
2026-01-14 01:46:56.70	21.55	14.55	-34.8	-54.1	3.8	7.42e-01	0	43	104	0	30	33399
2026-01-14 01:46:57.70	21.59	14.66	-34.8	-54.1	3.8	7.46e-01	0	43	104	0	30	33379
2026-01-14 01:46:58.68	21.62	14.78	-34.8	-54.1	3.8	7.46e-01	0	43	104	0	30	33408
2026-01-14 01:46:59.68	21.65	14.89	-34.8	-54.1	3.8	7.44e-01	0	43	104	0	30	33377
2026-01-14 01:47:00.67	21.69	15.01	-34.8	-54.1	3.8	7.43e-01	0	43	104	0	30	33377
2026-01-14 01:47:01.67	21.72	15.12	-34.8	-54.1	3.8	7.45e-01	0	43	104	0	30	33338
2026-01-14 01:47:02.66	21.76	15.24	-34.8	-54.2	3.8	7.44e-01	0	43	104	0	30	33451
2026-01-14 01:47:03.66	21.79	15.35	-34.8	-54.1	3.8	7.43e-01	0	43	104	0	30	33417
2026-01-14 01:47:04.65	21.83	15.47	-34.8	-54.1	3.8	7.44e-01	0	43	104	0	30	33392
2026-01-14 01:47:05.65	21.86	15.59	-34.8	-54.2	3.8	7.44e-01	0	43	104	0	30	33398
2026-01-14 01:47:06.64	21.90	15.71	-34.8	-54.1	3.8	7.44e-01	0	43	104	0	30	33443
2026-01-14 01:47:07.64	21.93	15.82	-34.8	-54.1	3.8	7.41e-01	0	43	104	0	30	33385
2026-01-14 01:47:08.64	21.97	15.94	-34.8	-54.1	3.8	7.46e-01	0	43	104	0	30	33383
2026-01-14 01:47:09.65	22.01	16.07	-34.8	-54.1	3.8	7.41e-01	0	43	104	0	30	33348
2026-01-14 01:47:10.65	22.05	16.19	-34.8	-54.1	3.8	7.44e-01	0	43	104	0	30	33364
2026-01-14 01:47:11.66	22.08	16.31	-34.8	-54.1	3.8	7.46e-01	0	43	104	0	30	33325
2026-01-14 01:47:12.66	22.12	16.43	-34.8	-54.2	3.8	7.46e-01	0	43	104	0	30	33472
2026-01-14 01:47:13.67	22.16	16.56	-34.8	-54.1	3.8	7.49e-01	0	43	104	0	30	33367
2026-01-14 01:47:14.68	22.20	16.68	-34.8	-54.1	3.8	7.45e-01	0	43	104	0	30	33421
2026-01-14 01:47:15.67	22.24	16.81	-34.8	-54.1	3.8	7.45e-01	0	43	104	0	30	33391
2026-01-14 01:47:16.68	22.28	16.93	-34.8	-54.1	3.8	7.43e-01	0	43	104	0	30	33357
2026-01-14 01:47:17.68	22.31	17.06	-34.8	-54.2	3.8	7.47e-01	0	43	104	0	30	33444
2026-01-14 01:47:18.69	22.35	17.19	-34.8	-54.2	3.8	7.48e-01	0	43	104	0	30	33433
2026-01-14 01:47:19.69	22.39	17.32	-34.8	-54.1	3.8	7.45e-01	0	43	104	0	30	33433
2026-01-14 01:47:20.69	22.43	17.44	-34.8	-54.1	3.8	7.45e-01	0	43	104	0	30	33347
2026-01-14 01:47:21.70	22.48	17.58	-34.8	-54.2	3.8	7.46e-01	0	43	104	0	30	33462
2026-01-14 01:47:22.70	22.52	17.70	-34.8	-54.1	3.8	7.43e-01	0	43	104	0	30	33352
2026-01-14 01:47:23.71	22.56	17.84	-34.8	-54.1	3.8	7.43e-01	0	43	104	0	30	33397
2026-01-14 01:47:24.71	22.60	17.97	-34.8	-54.1	3.8	7.46e-01	0	43	104	0	30	33364
2026-01-14 01:47:25.71	22.64	18.10	-34.8	-54.2	3.8	7.44e-01	0	43	104	0	30	33479
2026-01-14 01:47:26.71	22.68	18.23	-34.8	-54.1	3.8	7.43e-01	0	43	104	0	30	33408
2026-01-14 01:47:27.71	22.73	18.37	-34.8	-54.1	3.8	7.45e-01	0	43	104	0	30	33380
2026-01-14 01:47:28.72	22.77	18.50	-34.8	-54.2	3.8	7.46e-01	0	43	104	0	30	33443
2026-01-14 01:47:29.72	22.81	18.64	-34.8	-54.2	3.8	7.47e-01	0	43	104	0	30	33422
2026-01-14 01:47:30.73	22.86	18.78	-34.8	-54.2	3.8	7.45e-01	0	43	104	0	30	33455
2026-01-14 01:47:31.73	22.90	18.91	-34.8	-54.1	3.8	7.48e-01	0	43	104	0	30	33360
2026-01-14 01:47:32.73	22.94	19.05	-34.8	-54.1	3.8	7.43e-01	0	43	104	0	30	33385
2026-01-14 01:47:33.73	22.99	19.19	-34.8	-54.1	3.8	7.46e-01	0	43	104	0	30	33384
2026-01-14 01:47:34.74	23.04	19.33	-34.8	-54.2	3.8	7.45e-01	0	43	104	0	30	33497
2026-01-14 01:47:35.74	23.08	19.47	-34.8	-54.1	3.8	7.45e-01	0	43	104	0	30	33421
2026-01-14 01:47:36.75	23.13	19.61	-34.8	-54.2	3.8	7.48e-01	0	43	104	0	30	33422
2026-01-14 01:47:37.75	23.17	19.75	-34.8	-54.2	3.8	7.44e-01	0	43	104	0	30	33470
2026-01-14 01:47:38.76	23.22	19.90	-34.8	-54.1	3.8	7.49e-01	0	43	104	0	30	33426
2026-01-14 01:47:39.75	23.27	20.04	-34.8	-54.2	3.8	7.45e-01	0	43	104	0	30	33481
2026-01-14 01:47:40.76	23.32	20.19	-34.8	-54.2	3.8	7.44e-01	0	43	104	0	30	33472
2026-01-14 01:47:41.76	23.36	20.33	-34.8	-54.1	3.8	7.47e-01	0	43	104	0	30	33373
2026-01-14 01:47:42.76	23.41	20.48	-34.8	-54.2	3.8	7.48e-01	0	43	104	0	30	33458
2026-01-14 01:47:43.77	23.46	20.63	-34.8	-54.1	3.8	7.43e-01	0	43	104	0	30	33394
2026-01-14 01:47:44.77	23.51	20.78	-34.8	-54.1	3.8	7.47e-01	0	43	104	0	30	33419
2026-01-14 01:47:45.77	23.56	20.93	-34.8	-54.2	3.8	7.46e-01	0	43	104	0	30	33399
2026-01-14 01:47:46.78	23.61	21.08	-34.8	-54.2	3.8	7.50e-01	0	43	104	0	30	33481
2026-01-14 01:47:47.79	23.66	21.23	-34.8	-54.2	3.8	7.42e-01	0	43	104	0	30	33438
2026-01-14 01:47:48.79	23.72	21.38	-34.8	-54.2	3.8	7.48e-01	0	43	104	0	30	33410
2026-01-14 01:47:49.79	23.77	21.54	-34.8	-54.2	3.8	7.46e-01	0	43	104	0	30	33518
2026-01-14 01:47:50.79	23.82	21.69	-34.8	-54.1	3.8	7.45e-01	0	43	104	0	30	33416
2026-01-14 01:47:51.79	23.87	21.85	-34.8	-54.2	3.8	7.46e-01	0	43	104	0	30	33459
2026-01-14 01:47:52.80	23.93	22.00	-34.8	-54.1	3.8	7.46e-01	0	43	104	0	30	33413
2026-01-14 01:47:53.81	23.98	22.16	-34.8	-54.1	3.8	7.44e-01	0	43	104	0	30	33402
2026-01-14 01:47:54.82	24.04	22.32	-34.8	-54.1	3.8	7.47e-01	0	43	104	0	30	33369
2026-01-14 01:47:55.81	24.09	22.48	-34.8	-54.2	3.8	7.46e-01	0	43	104	0	30	33414
2026-01-14 01:47:56.81	24.15	22.64	-34.8	-54.2	3.8	7.44e-01	0	43	104	0	30	33443
2026-01-14 01:47:57.82	24.20	22.81	-34.8	-54.1	3.8	7.44e-01	0	43	104	0	30	33411
2026-01-14 01:47:58.82	24.26	22.97	-34.8	-54.2	3.8	7.45e-01	0	43	104	0	30	33419
2026-01-14 01:47:59.82	24.32	23.13	-34.8	-54.2	3.8	7.45e-01	0	43	104	0	30	33440
2026-01-14 01:48:00.82	24.37	23.30	-34.8	-54.2	3.8	7.44e-01	0	43	104	0	30	33426
2026-01-14 01:48:01.82	24.43	23.46	-34.8	-54.2	3.8	7.47e-01	0	43	104	0	30	33424
2026-01-14 01:48:02.83	24.49	23.63	-34.8	-54.1	3.8	7.48e-01	0	43	104	0	30	33383
2026-01-14 01:48:03.83	24.55	23.80	-34.8	-54.1	3.8	7.46e-01	0	43	104	0	30	33426
2026-01-14 01:48:04.84	24.61	23.97	-34.8	-54.2	3.8	7.46e-01	0	43	104	0	30	33525
2026-01-14 01:48:05.84	24.67	24.14	-34.8	-54.1	3.8	7.46e-01	0	43	104	0	30	33338
2026-01-14 01:48:06.83	24.74	24.31	-34.8	-54.1	3.8	7.43e-01	0	43	104	0	30	33377
2026-01-14 01:48:07.83	24.80	24.49	-34.8	-54.1	3.8	7.46e-01	0	43	104	0	30	33395
2026-01-14 01:48:08.84	24.86	24.66	-34.8	-54.1	3.8	7.43e-01	0	43	104	0	30	33380
2026-01-14 01:48:09.84	24.93	24.84	-34.8	-54.2	3.8	7.49e-01	0	43	104	0	30	33402
2026-01-14 01:48:10.84	24.99	25.02	-34.8	-54.2	3.8	7.48e-01	0	43	104	0	30	33485
2026-01-14 01:48:11.83	25.05	25.19	-34.8	-54.1	3.8	7.46e-01	0	43	104	0	30	33380
2026-01-14 01:48:12.83	25.12	25.37	-34.8	-54.2	3.8	7.44e-01	0	43	104	0	30	33483
2026-01-14 01:48:13.83	25.19	25.55	-34.8	-54.2	3.8	7.46e-01	0	43	104	0	30	33468
2026-01-14 01:48:14.83	25.25	25.73	-34.8	-54.2	3.8	7.46e-01	0	43	104	0	30	33471
2026-01-14 01:48:15.83	25.32	25.92	-34.8	-54.1	3.8	7.45e-01	0	43	104	0	30	33417
2026-01-14 01:48:16.84	25.39	26.10	-34.8	-54.2	3.8	7.44e-01	0	43	104	0	30	33427
2026-01-14 01:48:17.83	25.46	26.29	-34.8	-54.2	3.8	7.45e-01	0	43	104	0	30	33427
2026-01-14 01:48:18.84	25.53	26.48	-34.8	-54.2	3.8	7.42e-01	0	43	104	0	30	33417
2026-01-14 01:48:19.85	25.60	26.67	-34.8	-54.1	3.8	7.41e-01	0	43	104	0	30	33356
2026-01-14 01:48:20.85	25.67	26.86	-34.8	-54.2	3.8	7.46e-01	0	43	104	0	30	33456
2026-01-14 01:48:21.85	25.75	27.05	-34.8	-54.1	3.8	7.42e-01	0	43	104	0	30	33396
2026-01-14 01:48:22.86	25.82	27.25	-34.8	-54.1	3.8	7.46e-01	0	43	104	0	30	33344
2026-01-14 01:48:23.86	25.90	27.44	-34.8	-54.1	3.8	7.48e-01	0	43	104	0	30	33411
2026-01-14 01:48:24.85	25.97	27.63	-34.8	-54.1	3.8	7.44e-01	0	43	104	0	30	33381
2026-01-14 01:48:25.85	26.05	27.83	-34.8	-54.2	3.8	7.46e-01	0	43	104	0	30	33480
2026-01-14 01:48:26.86	26.13	28.03	-34.8	-54.2	3.8	7.44e-01	0	43	104	0	30	33501
2026-01-14 01:48:27.86	26.21	28.23	-34.8	-54.1	3.8	7.45e-01	0	43	104	0	30	33390
2026-01-14 01:48:28.87	26.29	28.44	-34.8	-54.2	3.8	7.46e-01	0	43	104	0	30	33457
2026-01-14 01:48:29.87	26.37	28.64	-34.8	-54.2	3.8	7.45e-01	0	43	104	0	30	33465
2026-01-14 01:48:30.88	26.45	28.85	-34.8	-54.1	3.8	7.45e-01	0	43	104	0	30	33404
2026-01-14 01:48:31.88	26.53	29.06	-34.8	-54.2	3.8	7.43e-01	0	43	104	0	30	33411
2026-01-14 01:48:32.88	26.61	29.26	-34.8	-54.1	3.8	7.44e-01	0	43	104	0	30	33308
2026-01-14 01:48:33.88	26.70	29.47	-34.8	-54.1	3.8	7.46e-01	0	43	104	0	30	33378
2026-01-14 01:48:34.88	26.78	29.68	-34.8	-54.1	3.8	7.43e-01	0	43	104	0	30	33394
2026-01-14 01:48:35.89	26.87	29.90	-34.8	-54.2	3.8	7.45e-01	0	43	104	0	30	33407
2026-01-14 01:48:36.90	26.96	30.12	-34.8	-54.1	3.8	7.47e-01	0	43	104	0	30	33288
2026-01-14 01:48:37.90	27.05	30.33	-34.8	-54.1	3.8	7.44e-01	0	43	104	0	30	33272
2026-01-14 01:48:38.91	27.14	30.55	-34.8	-54.1	3.8	7.42e-01	0	43	104	0	30	33396
2026-01-14 01:48:39.91	27.23	30.77	-34.8	-54.1	3.8	7.42e-01	0	43	104	0	30	33381
2026-01-14 01:48:40.91	27.32	31.00	-34.8	-54.1	3.8	7.44e-01	0	43	104	0	30	33363
2026-01-14 01:48:41.91	27.42	31.22	-34.8	-54.1	3.8	7.44e-01	0	43	104	0	30	33356
2026-01-14 01:48:42.92	27.52	31.45	-34.8	-54.1	3.8	7.47e-01	0	43	104	0	30	33390
2026-01-14 01:48:43.92	27.61	31.67	-34.8	-54.1	3.8	7.47e-01	0	43	104	0	30	33363
2026-01-14 01:48:44.92	27.71	31.90	-34.8	-54.1	3.8	7.46e-01	0	43	104	0	30	33370
2026-01-14 01:48:45.92	27.81	32.13	-34.8	-54.1	3.8	7.45e-01	0	43	104	0	30	33331
2026-01-14 01:48:46.93	27.91	32.37	-34.8	-54.1	3.8	7.46e-01	0	43	104	0	30	33318
2026-01-14 01:48:47.93	28.01	32.60	-34.8	-54.1	3.8	7.41e-01	0	43	104	0	30	33338
2026-01-14 01:48:48.93	28.12	32.84	-34.8	-54.1	3.8	7.42e-01	0	43	104	0	30	33371
2026-01-14 01:48:49.93	28.22	33.08	-34.8	-54.1	3.8	7.47e-01	0	43	104	0	30	33322
2026-01-14 01:48:50.93	28.33	33.32	-34.8	-54.2	3.8	7.43e-01	0	43	104	0	30	33409
2026-01-14 01:48:51.93	28.44	33.56	-34.8	-54.1	3.8	7.46e-01	0	43	104	0	30	33358
2026-01-14 01:48:52.93	28.55	33.80	-34.8	-54.1	3.8	7.44e-01	0	43	104	0	30	33291
2026-01-14 01:48:53.93	28.66	34.05	-34.8	-54.1	3.8	7.46e-01	0	43	104	0	30	33305
2026-01-14 01:48:54.93	28.77	34.30	-34.8	-54.1	3.8	7.43e-01	0	43	104	0	30	33406
2026-01-14 01:48:55.93	28.89	34.55	-34.8	-54.1	3.8	7.48e-01	0	43	104	0	30	33414
2026-01-14 01:48:56.94	29.01	34.80	-34.8	-54.2	3.8	7.43e-01	0	43	104	0	30	33431
2026-01-14 01:48:57.94	29.12	35.06	-34.8	-54.1	3.8	7.48e-01	0	43	104	0	30	33442
2026-01-14 01:48:58.95	29.25	35.32	-34.8	-54.1	3.8	7.45e-01	0	43	104	0	30	33409
2026-01-14 01:48:59.95	29.37	35.57	-34.8	-54.1	3.8	7.50e-01	0	43	104	0	30	33438
2026-01-14 01:49:00.95	29.49	35.83	-34.8	-54.2	3.8	7.45e-01	0	43	104	0	30	33426
2026-01-14 01:49:01.95	29.62	36.10	-34.8	-54.1	3.8	7.44e-01	0	43	104	0	30	33455
2026-01-14 01:49:02.96	29.75	36.36	-34.8	-54.1	3.8	7.45e-01	0	43	104	0	30	33437
2026-01-14 01:49:03.97	29.88	36.63	-34.8	-54.1	3.8	7.44e-01	0	43	104	0	30	33407
2026-01-14 01:49:04.97	30.01	36.90	-34.8	-54.1	3.8	7.44e-01	0	43	104	0	30	33399
2026-01-14 01:49:05.97	30.15	37.17	-34.8	-54.1	3.8	7.45e-01	0	43	104	0	30	33338
2026-01-14 01:49:06.98	30.29	37.45	-34.8	-54.1	3.8	7.46e-01	0	43	104	0	30	33410
2026-01-14 01:49:07.98	30.43	37.73	-34.8	-54.1	3.8	7.43e-01	0	43	104	0	30	33379
2026-01-14 01:49:08.99	30.57	38.01	-34.8	-54.1	3.8	7.48e-01	0	43	104	0	30	33427
2026-01-14 01:49:09.99	30.71	38.29	-34.8	-54.1	3.8	7.48e-01	0	43	104	0	30	33318
2026-01-14 01:49:10.99	30.86	38.57	-34.8	-54.1	3.8	7.45e-01	0	43	104	0	30	33400
2026-01-14 01:49:12.00	31.01	38.86	-34.8	-54.1	3.8	7.47e-01	0	43	104	0	30	33422
2026-01-14 01:49:13.00	31.16	39.15	-34.8	-54.1	3.8	7.43e-01	0	43	104	0	30	33386
2026-01-14 01:49:14.01	31.32	39.44	-34.8	-54.1	3.8	7.42e-01	0	43	104	0	30	33411
2026-01-14 01:49:15.01	31.48	39.73	-34.8	-54.2	3.8	7.46e-01	0	43	104	0	30	33472
2026-01-14 01:49:16.01	31.64	40.02	-34.8	-54.1	3.8	7.43e-01	0	43	104	0	30	33315
2026-01-14 01:49:17.02	31.80	40.32	-34.8	-54.1	3.8	7.48e-01	0	43	104	0	30	33336
2026-01-14 01:49:18.02	31.97	40.62	-34.8	-54.1	3.8	7.45e-01	0	43	104	0	30	33354
2026-01-14 01:49:19.03	32.14	40.93	-34.8	-54.1	3.8	7.45e-01	0	43	104	0	30	33345
2026-01-14 01:49:20.02	32.31	41.23	-34.8	-54.1	3.8	7.45e-01	0	43	104	0	30	33261
2026-01-14 01:49:21.03	32.49	41.54	-34.8	-54.1	3.8	7.44e-01	0	43	104	0	30	33255
2026-01-14 01:49:22.04	32.67	41.85	-34.8	-54.1	3.8	7.44e-01	0	43	104	0	30	33310
2026-01-14 01:49:23.04	32.85	42.16	-34.8	-54.1	3.8	7.46e-01	0	43	104	0	30	33323
2026-01-14 01:49:24.05	33.04	42.48	-34.8	-54.1	3.8	7.41e-01	0	43	104	0	30	33440
2026-01-14 01:49:25.05	33.23	42.80	-34.8	-54.1	3.8	7.45e-01	0	43	104	0	30	33352
2026-01-14 01:49:26.06	33.43	43.12	-34.8	-54.1	3.8	7.41e-01	0	43	104	0	30	33309
2026-01-14 01:49:27.07	33.63	43.44	-34.8	-54.1	3.8	7.45e-01	0	43	104	0	30	33281
2026-01-14 01:49:28.07	33.83	43.77	-34.8	-54.1	3.8	7.45e-01	0	43	104	0	30	33276
2026-01-14 01:49:29.07	34.03	44.09	-34.8	-54.1	3.8	7.45e-01	0	43	104	0	30	33337
2026-01-14 01:49:30.08	34.25	44.43	-34.8	-54.1	3.8	7.48e-01	0	43	104	0	30	33328
2026-01-14 01:49:31.09	34.46	44.76	-34.8	-54.1	3.8	7.42e-01	0	43	104	0	30	33344
2026-01-14 01:49:32.10	34.68	45.10	-34.8	-54.1	3.8	7.45e-01	0	43	104	0	30	33363
2026-01-14 01:49:33.10	34.91	45.43	-34.8	-54.2	3.8	7.44e-01	0	43	104	0	30	33489
2026-01-14 01:49:34.11	35.14	45.78	-34.8	-54.1	3.8	7.46e-01	0	43	104	0	30	33302
2026-01-14 01:49:35.11	35.37	46.12	-34.8	-54.1	3.8	7.45e-01	0	43	104	0	30	33343
2026-01-14 01:49:36.11	35.61	46.46	-34.8	-54.1	3.8	7.42e-01	0	43	104	0	30	33336
2026-01-14 01:49:37.12	35.86	46.81	-34.8	-54.1	3.8	7.45e-01	0	43	104	0	30	33253
2026-01-14 01:49:38.12	36.11	47.16	-34.8	-54.1	3.8	7.43e-01	0	43	104	0	30	33336
2026-01-14 01:49:39.13	36.37	47.52	-34.8	-54.1	3.8	7.47e-01	0	43	104	0	30	33361
2026-01-14 01:49:40.12	36.62	47.87	-34.8	-54.1	3.8	7.46e-01	0	43	104	0	30	33376
2026-01-14 01:49:41.12	36.89	48.23	-34.8	-54.1	3.8	7.44e-01	0	43	104	0	30	33343
2026-01-14 01:49:42.12	37.16	48.59	-34.8	-54.1	3.8	7.46e-01	0	43	104	0	30	33246
2026-01-14 01:49:43.13	37.45	48.95	-34.8	-54.1	3.8	7.45e-01	0	43	104	0	30	33303
2026-01-14 01:49:44.13	37.73	49.31	-34.8	-54.1	3.8	7.46e-01	0	43	104	0	30	33290
2026-01-14 01:49:45.14	38.03	49.68	-34.8	-54.1	3.8	7.44e-01	0	43	104	0	30	33243
2026-01-14 01:49:46.14	38.33	50.05	-34.8	-54.1	3.8	7.48e-01	0	43	104	0	30	33383
2026-01-14 01:49:47.14	38.64	50.42	-34.8	-54.1	3.8	7.44e-01	0	43	104	0	30	33342
2026-01-14 01:49:48.14	38.96	50.80	-34.8	-54.1	3.8	7.43e-01	0	43	104	0	30	33323
2026-01-14 01:49:49.15	39.28	51.18	-34.8	-54.1	3.8	7.43e-01	0	43	104	0	30	33292
2026-01-14 01:49:50.15	39.61	51.56	-34.8	-54.1	3.8	7.48e-01	0	43	104	0	30	33288
2026-01-14 01:49:51.15	39.96	51.94	-34.8	-54.1	3.8	7.45e-01	0	43	104	0	30	33254
2026-01-14 01:49:52.16	40.31	52.32	-34.8	-54.2	3.8	7.47e-01	0	43	104	0	30	33767
2026-01-14 01:49:53.16	40.67	52.71	-34.8	-54.1	3.8	7.46e-01	0	43	104	0	30	33370
2026-01-14 01:49:54.16	41.04	53.09	-34.8	-54.1	3.8	7.46e-01	0	43	104	0	30	33248
2026-01-14 01:49:55.16	41.41	53.48	-34.8	-54.1	3.8	7.44e-01	0	43	104	0	30	33358
2026-01-14 01:49:56.16	41.80	53.87	-34.8	-54.1	3.8	7.47e-01	0	43	104	0	30	33331
2026-01-14 01:49:57.16	42.20	54.26	-34.8	-54.1	3.8	7.45e-01	0	43	104	0	30	33382
2026-01-14 01:49:58.17	42.62	54.66	-34.8	-54.1	3.8	7.47e-01	0	43	104	0	30	33342
2026-01-14 01:49:59.18	43.04	55.06	-34.8	-54.1	3.8	7.47e-01	0	43	104	0	30	33343
2026-01-14 01:50:00.19	43.48	55.46	-34.8	-54.1	3.8	7.41e-01	0	43	104	0	30	33397
2026-01-14 01:50:01.20	43.93	55.86	-34.8	-54.1	3.8	7.47e-01	0	43	104	0	30	33310
2026-01-14 01:50:02.20	44.39	56.26	-34.8	-54.1	3.8	7.43e-01	0	43	104	0	30	33321
2026-01-14 01:50:03.20	44.86	56.66	-34.8	-54.1	3.8	7.46e-01	0	43	104	0	30	33405
2026-01-14 01:50:04.21	45.35	57.07	-34.8	-54.1	3.8	7.44e-01	0	43	104	0	30	33322
2026-01-14 01:50:05.22	45.86	57.47	-34.8	-54.1	3.8	7.45e-01	0	43	104	0	30	33377
2026-01-14 01:50:06.23	46.38	57.88	-34.8	-54.1	3.8	7.45e-01	0	43	104	0	30	33300
2026-01-14 01:50:07.23	46.91	58.29	-34.8	-54.1	3.8	7.46e-01	0	43	104	0	30	33335
2026-01-14 01:50:08.23	47.46	58.69	-34.8	-54.1	3.8	7.43e-01	0	43	104	0	30	33365
2026-01-14 01:50:09.23	48.03	59.10	-34.8	-54.1	3.8	7.45e-01	0	43	104	0	30	33277
2026-01-14 01:50:10.23	48.61	59.50	-34.8	-54.1	3.8	7.46e-01	0	43	104	0	30	33286
2026-01-14 01:50:11.24	49.22	59.91	-34.8	-54.1	3.8	7.45e-01	0	43	104	0	30	33347
2026-01-14 01:50:12.24	49.84	60.32	-34.8	-54.1	3.8	7.47e-01	0	43	104	0	30	33332
2026-01-14 01:50:13.25	50.49	60.73	-34.8	-54.1	3.8	7.44e-01	0	43	104	0	30	33282
2026-01-14 01:50:14.25	51.15	61.13	-34.8	-54.1	3.8	7.41e-01	0	43	104	0	30	33320
2026-01-14 01:50:15.26	51.85	61.54	-34.8	-54.1	3.8	7.47e-01	0	43	104	0	30	33247
2026-01-14 01:50:16.26	52.55	61.94	-34.8	-54.1	3.8	7.44e-01	0	43	104	0	30	33195
2026-01-14 01:50:17.27	53.29	62.35	-34.8	-54.1	3.8	7.46e-01	0	43	104	0	30	33277
2026-01-14 01:50:18.28	54.06	62.75	-34.8	-54.1	3.8	7.45e-01	0	43	104	0	30	33394
2026-01-14 01:50:19.28	54.84	63.15	-34.8	-54.1	3.8	7.44e-01	0	43	104	0	30	33308
2026-01-14 01:50:20.28	55.65	63.55	-34.8	-54.1	3.8	7.44e-01	0	43	104	0	30	33377
2026-01-14 01:50:21.29	56.49	63.95	-34.8	-54.1	3.8	7.46e-01	0	43	104	0	30	33380
2026-01-14 01:50:22.29	57.35	64.34	-34.8	-54.1	3.8	7.45e-01	0	43	104	0	30	33375
2026-01-14 01:50:23.29	58.25	64.72	-34.8	-54.1	3.8	7.42e-01	0	43	104	0	30	33240
2026-01-14 01:50:24.30	59.18	65.11	-34.8	-54.1	3.8	7.44e-01	0	43	104	0	30	33180
2026-01-14 01:50:25.30	60.14	65.49	-34.8	-54.1	3.8	7.49e-01	0	43	104	0	30	33152
2026-01-14 01:50:26.30	61.13	65.87	-34.8	-54.1	3.8	7.47e-01	0	43	104	0	30	33233
2026-01-14 01:50:27.31	62.17	66.24	-34.8	-54.1	3.8	7.44e-01	0	43	104	0	30	33162
2026-01-14 01:50:28.32	63.24	66.61	-34.8	-54.1	3.8	7.46e-01	0	43	104	0	30	33163
2026-01-14 01:50:29.32	64.34	66.97	-34.8	-54.1	3.8	7.44e-01	0	43	104	0	30	33241
2026-01-14 01:50:30.33	65.49	67.33	-34.8	-54.1	3.8	7.46e-01	0	43	104	0	30	33281
2026-01-14 01:50:31.33	66.66	67.67	-34.8	-54.1	3.8	7.42e-01	0	43	104	0	30	33265
2026-01-14 01:50:32.34	67.89	68.01	-34.8	-54.1	3.8	7.47e-01	0	43	104	0	30	33333
2026-01-14 01:50:33.34	69.15	68.34	-34.8	-54.1	3.8	7.48e-01	0	43	104	0	30	33344
2026-01-14 01:50:34.34	70.45	68.67	-34.8	-54.1	3.8	7.43e-01	0	43	104	0	30	33318
2026-01-14 01:50:35.34	71.79	68.98	-34.8	-54.1	3.8	7.42e-01	0	43	104	0	30	33319
2026-01-14 01:50:36.35	73.19	69.28	-34.8	-54.1	3.8	7.42e-01	0	43	104	0	30	33280
2026-01-14 01:50:37.35	74.62	69.58	-34.8	-54.1	3.8	7.42e-01	0	43	104	0	30	33321
2026-01-14 01:50:38.35	76.09	69.86	-34.8	-54.1	3.8	7.45e-01	0	43	104	0	30	33243
2026-01-14 01:50:39.35	77.60	70.13	-34.8	-54.0	3.8	7.48e-01	0	43	104	0	30	32997
2026-01-14 01:50:40.36	79.18	70.38	-34.8	-54.0	3.8	7.46e-01	0	43	104	0	30	32970
2026-01-14 01:50:41.37	80.80	70.63	-34.8	-54.0	3.8	7.46e-01	0	43	104	0	30	32970
2026-01-14 01:50:42.38	82.46	70.86	-34.8	-54.1	3.8	7.49e-01	0	43	104	0	30	33141
2026-01-14 01:50:43.38	84.14	71.08	-34.8	-54.0	3.8	7.43e-01	0	43	104	0	30	33165
2026-01-14 01:50:44.39	85.89	71.28	-34.8	-54.1	3.8	7.43e-01	0	43	104	0	30	33312
2026-01-14 01:50:45.39	87.65	71.46	-34.8	-54.1	3.8	7.47e-01	0	43	104	0	30	33364
2026-01-14 01:50:46.39	89.45	71.63	-34.8	-54.1	3.8	7.45e-01	0	43	104	0	30	33320
2026-01-14 01:50:47.39	91.29	71.78	-34.8	-54.1	3.8	7.45e-01	0	43	104	0	30	33331
2026-01-14 01:50:48.40	93.17	71.91	-34.8	-54.1	3.8	7.45e-01	0	43	104	0	30	33314
2026-01-14 01:50:49.40	95.06	72.02	-34.8	-54.1	3.8	7.43e-01	0	43	104	0	30	33273
2026-01-14 01:50:50.41	96.99	72.12	-34.8	-54.1	3.8	7.44e-01	0	43	104	0	30	33250
2026-01-14 01:50:51.42	98.95	72.20	-34.8	-54.1	3.8	7.43e-01	0	43	104	0	30	33315
2026-01-14 01:50:52.42	100.89	72.25	-34.8	-54.1	3.8	7.43e-01	0	43	104	0	30	33354
2026-01-14 01:50:53.43	102.87	72.29	-34.8	-54.1	3.8	7.47e-01	0	43	104	0	30	33310
2026-01-14 01:50:54.43	104.84	72.31	-34.8	-54.0	3.8	7.45e-01	0	43	104	0	30	33124
2026-01-14 01:50:55.43	106.81	72.30	-34.8	-54.1	3.8	7.44e-01	0	43	104	0	30	33204
2026-01-14 01:50:56.44	108.79	72.28	-34.8	-54.1	3.8	7.48e-01	0	43	104	0	30	33342
2026-01-14 01:50:57.44	110.75	72.24	-34.8	-54.1	3.8	7.43e-01	0	43	104	0	30	33312
2026-01-14 01:50:58.44	112.70	72.18	-34.8	-54.1	3.8	7.46e-01	0	43	104	0	30	33327
2026-01-14 01:50:59.45	114.65	72.10	-34.8	-54.1	3.8	7.42e-01	0	43	104	0	30	33290
2026-01-14 01:51:00.45	116.56	72.00	-34.8	-54.1	3.8	7.46e-01	0	43	104	0	30	33340
2026-01-14 01:51:01.45	118.44	71.88	-34.8	-54.1	3.8	7.48e-01	0	43	104	0	30	33323
2026-01-14 01:51:02.46	120.32	71.74	-34.8	-54.1	3.8	7.46e-01	0	43	104	0	30	33204
2026-01-14 01:51:03.47	122.17	71.59	-34.8	-54.1	3.8	7.44e-01	0	43	104	0	30	33190
2026-01-14 01:51:04.47	123.96	71.42	-34.8	-54.0	3.8	7.43e-01	0	43	104	0	30	33109
2026-01-14 01:51:05.47	125.71	71.23	-34.8	-54.0	3.8	7.46e-01	0	43	104	0	30	32982
2026-01-14 01:51:06.47	127.43	71.03	-34.8	-54.1	3.8	7.43e-01	0	43	104	0	30	33202
2026-01-14 01:51:07.48	129.13	70.81	-34.8	-54.1	3.8	7.46e-01	0	43	104	0	30	33254
2026-01-14 01:51:08.48	130.76	70.57	-34.8	-54.1	3.8	7.43e-01	0	43	104	0	30	33242
2026-01-14 01:51:09.48	132.36	70.33	-34.8	-54.0	3.8	7.43e-01	0	43	104	0	30	33093
2026-01-14 01:51:10.49	133.92	70.07	-34.8	-54.0	3.8	7.44e-01	0	43	104	0	30	33094
2026-01-14 01:51:11.49	135.43	69.79	-34.8	-54.0	3.8	7.47e-01	0	43	104	0	30	33164
2026-01-14 01:51:12.49	136.89	69.51	-34.8	-54.1	3.8	7.44e-01	0	43	104	0	30	33175
2026-01-14 01:51:13.50	138.33	69.21	-34.8	-54.1	3.8	7.48e-01	0	43	104	0	30	33178
2026-01-14 01:51:14.49	139.69	68.91	-34.8	-54.1	3.8	7.46e-01	0	43	104	0	30	33267
2026-01-14 01:51:15.50	141.04	68.59	-34.8	-54.1	3.8	7.43e-01	0	43	104	0	30	33306
2026-01-14 01:51:16.50	142.33	68.27	-34.8	-54.1	3.8	7.49e-01	0	43	104	0	30	33306
2026-01-14 01:51:17.51	143.59	67.93	-34.8	-54.1	3.8	7.46e-01	0	43	104	0	30	33275
2026-01-14 01:51:18.51	144.80	67.59	-34.8	-54.1	3.8	7.47e-01	0	43	104	0	30	33193
2026-01-14 01:51:19.51	145.97	67.24	-34.8	-54.1	3.8	7.48e-01	0	43	104	0	30	33147
2026-01-14 01:51:20.52	147.11	66.88	-34.8	-54.0	3.8	7.44e-01	0	43	104	0	30	33138
2026-01-14 01:51:21.53	148.21	66.52	-34.8	-54.0	3.8	7.47e-01	0	43	104	0	30	33089
2026-01-14 01:51:22.53	149.26	66.15	-34.8	-54.1	3.8	7.47e-01	0	43	104	0	30	33171
2026-01-14 01:51:23.54	150.29	65.77	-34.8	-54.0	3.8	7.44e-01	0	43	104	0	30	33176
2026-01-14 01:51:24.54	151.28	65.40	-34.8	-54.1	3.8	7.47e-01	0	43	104	0	30	33154
2026-01-14 01:51:25.54	152.23	65.02	-34.8	-54.1	3.8	7.46e-01	0	43	104	0	30	33214
2026-01-14 01:51:26.54	153.15	64.63	-34.8	-54.1	3.8	7.45e-01	0	43	104	0	30	33352
2026-01-14 01:51:27.55	154.05	64.24	-34.8	-54.1	3.8	7.42e-01	0	43	104	0	30	33282
2026-01-14 01:51:28.55	154.91	63.84	-34.8	-54.1	3.8	7.46e-01	0	43	104	0	30	33302
2026-01-14 01:51:29.56	155.74	63.45	-34.8	-54.1	3.8	7.48e-01	0	43	104	0	30	33412
2026-01-14 01:51:30.56	156.55	63.05	-34.8	-54.1	3.8	7.48e-01	0	43	104	0	30	33200
2026-01-14 01:51:31.56	157.32	62.65	-34.8	-54.1	3.8	7.43e-01	0	43	104	0	30	33232
2026-01-14 01:51:32.57	158.08	62.24	-34.8	-54.1	3.8	7.44e-01	0	43	104	0	30	33258
2026-01-14 01:51:33.57	158.81	61.84	-34.8	-54.1	3.8	7.48e-01	0	43	104	0	30	33347
2026-01-14 01:51:34.58	159.52	61.43	-34.8	-54.1	3.8	7.44e-01	0	43	104	0	30	33361
2026-01-14 01:51:35.58	160.20	61.03	-34.8	-54.1	3.8	7.48e-01	0	43	104	0	30	33357
2026-01-14 01:51:36.58	160.86	60.62	-34.8	-54.1	3.8	7.47e-01	0	43	104	0	30	33332
2026-01-14 01:51:37.58	161.50	60.21	-34.8	-54.1	3.8	7.43e-01	0	43	104	0	30	33282
2026-01-14 01:51:38.59	162.12	59.80	-34.8	-54.1	3.8	7.47e-01	0	43	104	0	30	33380
2026-01-14 01:51:39.60	162.73	59.39	-34.8	-54.1	3.8	7.45e-01	0	43	104	0	30	33292
2026-01-14 01:51:40.60	163.31	58.98	-34.8	-54.1	3.8	7.47e-01	0	43	104	0	30	33319
2026-01-14 01:51:41.60	163.87	58.58	-34.8	-54.1	3.8	7.47e-01	0	43	104	0	30	33289
2026-01-14 01:51:42.60	164.41	58.17	-34.8	-54.1	3.8	7.47e-01	0	43	104	0	30	33296
2026-01-14 01:51:43.60	164.94	57.77	-34.8	-54.1	3.8	7.45e-01	0	43	104	0	30	33303
2026-01-14 01:51:44.60	165.46	57.36	-34.8	-54.1	3.8	7.47e-01	0	43	104	0	30	33277
2026-01-14 01:51:45.60	165.96	56.96	-34.8	-54.1	3.8	7.47e-01	0	43	104	0	30	33306
2026-01-14 01:51:46.61	166.45	56.55	-34.8	-54.1	3.8	7.43e-01	0	43	104	0	30	33366
2026-01-14 01:51:47.61	166.92	56.15	-34.8	-54.1	3.8	7.45e-01	0	43	104	0	30	33325
2026-01-14 01:51:48.61	167.37	55.75	-34.8	-54.1	3.8	7.48e-01	0	43	104	0	30	33291
2026-01-14 01:51:49.62	167.82	55.34	-34.8	-54.1	3.8	7.47e-01	0	43	104	0	30	33305
2026-01-14 01:51:50.62	168.25	54.95	-34.8	-54.1	3.8	7.45e-01	0	43	104	0	30	33348
2026-01-14 01:51:51.62	168.67	54.55	-34.8	-54.1	3.8	7.45e-01	0	43	104	0	30	33317
2026-01-14 01:51:52.63	169.09	54.15	-34.8	-54.1	3.8	7.47e-01	0	43	104	0	30	33223
2026-01-14 01:51:53.64	169.49	53.75	-34.8	-54.1	3.8	7.44e-01	0	43	104	0	30	33287
2026-01-14 01:51:54.64	169.87	53.36	-34.8	-54.1	3.8	7.49e-01	0	43	104	0	30	33305
2026-01-14 01:51:55.64	170.25	52.97	-34.8	-54.1	3.8	7.45e-01	0	43	104	0	30	33275
2026-01-14 01:51:56.64	170.62	52.59	-34.8	-54.1	3.8	7.46e-01	0	43	104	0	30	33243
2026-01-14 01:51:57.65	170.98	52.20	-34.8	-54.1	3.8	7.43e-01	0	43	104	0	30	33262
2026-01-14 01:51:58.65	171.33	51.81	-34.8	-54.1	3.8	7.48e-01	0	43	104	0	30	33307
2026-01-14 01:51:59.65	171.67	51.43	-34.8	-54.1	3.8	7.44e-01	0	43	104	0	30	33265
2026-01-14 01:52:00.65	172.00	51.06	-34.8	-54.1	3.8	7.46e-01	0	43	104	0	30	33308
2026-01-14 01:52:01.65	172.32	50.68	-34.8	-54.1	3.8	7.46e-01	0	43	104	0	30	33271
2026-01-14 01:52:02.66	172.64	50.30	-34.8	-54.1	3.8	7.45e-01	0	43	104	0	30	33325
2026-01-14 01:52:03.66	172.94	49.93	-34.8	-54.1	3.8	7.47e-01	0	43	104	0	30	33331
2026-01-14 01:52:04.66	173.24	49.56	-34.8	-54.1	3.8	7.46e-01	0	43	104	0	30	33355
2026-01-14 01:52:05.66	173.53	49.19	-34.8	-54.1	3.8	7.46e-01	0	43	104	0	30	33288
2026-01-14 01:52:06.66	173.82	48.83	-34.8	-54.1	3.8	7.47e-01	0	43	104	0	30	33234
2026-01-14 01:52:07.66	174.10	48.46	-34.8	-54.1	3.8	7.47e-01	0	43	104	0	30	33318
2026-01-14 01:52:08.66	174.37	48.10	-34.8	-54.1	3.8	7.46e-01	0	43	104	0	30	33388
2026-01-14 01:52:09.67	174.64	47.74	-34.8	-54.1	3.8	7.45e-01	0	43	104	0	30	33297
2026-01-14 01:52:10.67	174.90	47.39	-34.8	-54.1	3.8	7.46e-01	0	43	104	0	30	33352
2026-01-14 01:52:11.67	175.15	47.04	-34.8	-54.1	3.8	7.47e-01	0	43	104	0	30	33306
2026-01-14 01:52:12.67	175.40	46.68	-34.8	-54.1	3.8	7.47e-01	0	43	104	0	30	33318
2026-01-14 01:52:13.68	175.65	46.33	-34.8	-54.1	3.8	7.42e-01	0	43	104	0	30	33304
2026-01-14 01:52:14.68	175.89	45.99	-34.8	-54.1	3.8	7.49e-01	0	43	104	0	30	33322
2026-01-14 01:52:15.68	176.12	45.65	-34.8	-54.1	3.8	7.41e-01	0	43	104	0	30	33271
2026-01-14 01:52:16.68	176.35	45.31	-34.8	-54.1	3.8	7.45e-01	0	43	104	0	30	33364
2026-01-14 01:52:17.69	176.57	44.97	-34.8	-54.1	3.8	7.49e-01	0	43	104	0	30	33286
2026-01-14 01:52:18.69	176.79	44.63	-34.8	-54.1	3.8	7.45e-01	0	43	104	0	30	33279
2026-01-14 01:52:19.70	177.01	44.29	-34.8	-54.1	3.8	7.44e-01	0	43	104	0	30	33308
2026-01-14 01:52:20.70	177.22	43.96	-34.8	-54.1	3.8	7.42e-01	0	43	104	0	30	33335
2026-01-14 01:52:21.70	177.42	43.64	-34.8	-54.1	3.8	7.42e-01	0	43	104	0	30	33327
2026-01-14 01:52:22.70	177.62	43.31	-34.8	-54.1	3.8	7.46e-01	0	43	104	0	30	33236
2026-01-14 01:52:23.71	177.82	42.99	-34.8	-54.1	3.8	7.51e-01	0	43	104	0	30	33282
2026-01-14 01:52:24.72	178.02	42.66	-34.8	-54.1	3.8	7.48e-01	0	43	104	0	30	33275
2026-01-14 01:52:25.72	178.21	42.35	-34.7	-54.1	3.8	7.45e-01	0	43	104	0	30	33225
2026-01-14 01:52:26.72	178.39	42.03	-34.8	-54.1	3.8	7.42e-01	0	43	104	0	30	33271
2026-01-14 01:52:27.73	178.58	41.72	-34.8	-54.1	3.8	7.45e-01	0	43	104	0	30	33241
2026-01-14 01:52:28.73	178.75	41.41	-34.8	-54.1	3.8	7.47e-01	0	43	104	0	30	33268
2026-01-14 01:52:29.74	178.93	41.10	-34.8	-54.1	3.8	7.44e-01	0	43	104	0	30	33261
2026-01-14 01:52:30.75	179.11	40.79	-34.8	-54.1	3.8	7.48e-01	0	43	104	0	30	33289
2026-01-14 01:52:31.75	179.27	40.49	-34.8	-54.1	3.8	7.44e-01	0	43	104	0	30	33282
2026-01-14 01:52:32.76	179.44	40.18	-34.8	-54.1	3.8	7.44e-01	0	43	104	0	30	33294
2026-01-14 01:52:33.76	179.60	39.89	-34.8	-54.1	3.8	7.46e-01	0	43	104	0	30	33288
2026-01-14 01:52:34.77	179.77	39.59	-34.8	-54.1	3.8	7.46e-01	0	43	104	0	30	33332
2026-01-14 01:52:35.78	179.92	39.29	-34.8	-54.1	3.8	7.43e-01	0	43	104	0	30	33360
2026-01-14 01:52:36.77	180.08	39.00	-34.8	-54.1	3.8	7.46e-01	0	43	104	0	30	33344
2026-01-14 01:52:37.77	180.23	38.72	-34.8	-54.1	3.8	7.43e-01	0	43	104	0	30	33266
2026-01-14 01:52:38.78	180.38	38.43	-34.8	-54.1	3.8	7.44e-01	0	43	104	0	30	33299
2026-01-14 01:52:39.78	180.52	38.14	-34.8	-54.1	3.8	7.48e-01	0	43	104	0	30	33343
2026-01-14 01:52:40.79	180.67	37.86	-34.8	-54.1	3.8	7.44e-01	0	43	104	0	30	33251
2026-01-14 01:52:41.79	180.81	37.58	-34.7	-54.1	3.8	7.47e-01	0	43	104	0	30	33245
2026-01-14 01:52:42.79	180.95	37.31	-34.8	-54.1	3.8	7.45e-01	0	43	104	0	30	33279
2026-01-14 01:52:43.80	181.09	37.03	-34.8	-54.0	3.8	7.46e-01	0	43	104	0	30	33163
2026-01-14 01:52:44.80	181.22	36.76	-34.8	-54.1	3.8	7.48e-01	0	43	104	0	30	33239
2026-01-14 01:52:45.81	181.35	36.48	-34.8	-54.1	3.8	7.46e-01	0	43	104	0	30	33217
2026-01-14 01:52:46.81	181.48	36.22	-34.8	-54.1	3.8	7.45e-01	0	43	104	0	30	33325
2026-01-14 01:52:47.81	181.61	35.95	-34.8	-54.1	3.8	7.45e-01	0	43	104	0	30	33278
2026-01-14 01:52:48.82	181.74	35.69	-34.8	-54.1	3.8	7.45e-01	0	43	104	0	30	33356
2026-01-14 01:52:49.82	181.86	35.42	-34.7	-54.1	3.8	7.41e-01	0	43	104	0	30	33285
2026-01-14 01:52:50.82	181.98	35.17	-34.8	-54.1	3.8	7.45e-01	0	43	104	0	30	33264
2026-01-14 01:52:51.82	182.10	34.91	-34.8	-54.1	3.8	7.46e-01	0	43	104	0	30	33255
2026-01-14 01:52:52.83	182.22	34.65	-34.8	-54.0	3.8	7.45e-01	0	43	104	0	30	33187
2026-01-14 01:52:53.83	182.34	34.40	-34.8	-54.1	3.8	7.43e-01	0	43	104	0	30	33294
2026-01-14 01:52:54.83	182.45	34.15	-34.8	-54.1	3.8	7.45e-01	0	43	104	0	30	33243
2026-01-14 01:52:55.84	182.57	33.90	-34.8	-54.1	3.8	7.46e-01	0	43	104	0	30	33356
2026-01-14 01:52:56.84	182.68	33.65	-34.8	-54.1	3.8	7.48e-01	0	43	104	0	30	33280
2026-01-14 01:52:57.85	182.79	33.40	-34.8	-54.0	3.8	7.43e-01	0	43	104	0	30	33163
2026-01-14 01:52:58.86	182.90	33.16	-34.8	-54.1	3.8	7.42e-01	0	43	104	0	30	33282
2026-01-14 01:52:59.86	183.01	32.92	-34.8	-54.1	3.8	7.45e-01	0	43	104	0	30	33224
2026-01-14 01:53:00.87	183.11	32.68	-34.8	-54.1	3.8	7.44e-01	0	43	104	0	30	33218
2026-01-14 01:53:01.88	183.22	32.44	-34.8	-54.1	3.8	7.44e-01	0	43	104	0	30	33300
2026-01-14 01:53:02.88	183.32	32.20	-34.8	-54.1	3.8	7.44e-01	0	43	104	0	30	33318
2026-01-14 01:53:03.89	183.42	31.97	-34.8	-54.1	3.8	7.46e-01	0	43	104	0	30	33300
2026-01-14 01:53:04.90	183.52	31.73	-34.8	-54.1	3.8	7.46e-01	0	43	104	0	30	33248
2026-01-14 01:53:05.91	183.62	31.50	-34.8	-54.1	3.8	7.49e-01	0	43	104	0	30	33229
2026-01-14 01:53:06.91	183.71	31.28	-34.7	-54.1	3.8	7.47e-01	0	43	104	0	30	33276
2026-01-14 01:53:07.91	183.81	31.05	-34.8	-54.1	3.8	7.48e-01	0	43	104	0	30	33265
2026-01-14 01:53:08.92	183.90	30.82	-34.8	-54.1	3.8	7.46e-01	0	43	104	0	30	33407
2026-01-14 01:53:09.92	183.99	30.60	-34.8	-54.1	3.8	7.43e-01	0	43	104	0	30	33267
2026-01-14 01:53:10.93	184.09	30.38	-34.8	-54.1	3.8	7.43e-01	0	43	104	0	30	33286
2026-01-14 01:53:11.93	184.18	30.16	-34.8	-54.1	3.8	7.46e-01	0	43	104	0	30	33334
2026-01-14 01:53:12.94	184.26	29.94	-34.8	-54.1	3.8	7.45e-01	0	43	104	0	30	33313
2026-01-14 01:53:13.93	184.35	29.73	-34.8	-54.1	3.8	7.47e-01	0	43	104	0	30	33272
2026-01-14 01:53:14.94	184.44	29.51	-34.7	-54.1	3.8	7.46e-01	0	43	104	0	30	33297
2026-01-14 01:53:15.94	184.52	29.30	-34.8	-54.1	3.8	7.48e-01	0	43	104	0	30	33221
2026-01-14 01:53:16.95	184.61	29.09	-34.8	-54.1	3.8	7.45e-01	0	43	104	0	30	33268
2026-01-14 01:53:17.95	184.69	28.88	-34.7	-54.1	3.8	7.46e-01	0	43	104	0	30	33290
2026-01-14 01:53:18.95	184.77	28.67	-34.7	-54.1	3.8	7.43e-01	0	43	104	0	30	33304
2026-01-14 01:53:19.96	184.85	28.46	-34.7	-54.1	3.8	7.43e-01	0	43	104	0	30	33283
2026-01-14 01:53:20.96	184.93	28.26	-34.8	-54.1	3.8	7.45e-01	0	43	104	0	30	33263
2026-01-14 01:53:21.96	185.01	28.06	-34.7	-54.1	3.8	7.47e-01	0	43	104	0	30	33287
2026-01-14 01:53:22.97	185.09	27.86	-34.7	-54.1	3.8	7.47e-01	0	43	104	0	30	33286
2026-01-14 01:53:23.98	185.17	27.65	-34.7	-54.1	3.8	7.48e-01	0	43	104	0	30	33321
2026-01-14 01:53:24.98	185.24	27.46	-34.8	-54.1	3.8	7.46e-01	0	43	104	0	30	33334
2026-01-14 01:53:25.99	185.32	27.26	-34.7	-54.1	3.8	7.45e-01	0	43	104	0	30	33257
2026-01-14 01:53:26.99	185.39	27.06	-34.8	-54.1	3.8	7.46e-01	0	43	104	0	30	33240
2026-01-14 01:53:27.99	185.47	26.87	-34.7	-54.1	3.8	7.43e-01	0	43	104	0	30	33269
2026-01-14 01:53:29.00	185.54	26.68	-34.8	-54.0	3.8	7.43e-01	0	43	104	0	30	33198
2026-01-14 01:53:30.00	185.61	26.49	-34.7	-54.0	3.8	7.45e-01	0	43	104	0	30	33216
2026-01-14 01:53:31.01	185.68	26.29	-34.8	-54.1	3.8	7.46e-01	0	43	104	0	30	33287
2026-01-14 01:53:32.01	185.75	26.11	-34.8	-54.1	3.8	7.44e-01	0	43	104	0	30	33218
2026-01-14 01:53:33.01	185.82	25.92	-34.8	-54.1	3.8	7.45e-01	0	43	104	0	30	33315
2026-01-14 01:53:34.01	185.89	25.74	-34.8	-54.1	3.8	7.47e-01	0	43	104	0	30	33257
2026-01-14 01:53:35.02	185.96	25.55	-34.8	-54.1	3.8	7.47e-01	0	43	104	0	30	33285
2026-01-14 01:53:36.02	186.03	25.37	-34.8	-54.1	3.8	7.45e-01	0	43	104	0	30	33249
2026-01-14 01:53:37.04	186.09	25.18	-34.7	-54.0	3.8	7.45e-01	0	43	104	0	30	33193
2026-01-14 01:53:38.04	186.16	25.00	-34.8	-54.1	3.8	7.47e-01	0	43	104	0	30	33277
2026-01-14 01:53:39.04	186.22	24.82	-34.8	-54.1	3.8	7.43e-01	0	43	104	0	30	33252
2026-01-14 01:53:40.05	186.29	24.65	-34.7	-54.1	3.8	7.44e-01	0	43	104	0	30	33263
2026-01-14 01:53:41.06	186.35	24.47	-34.8	-54.1	3.8	7.47e-01	0	43	104	0	30	33277
2026-01-14 01:53:42.06	186.41	24.29	-34.7	-54.0	3.8	7.49e-01	0	43	104	0	30	33186
2026-01-14 01:53:43.07	186.47	24.12	-34.8	-54.0	3.8	7.47e-01	0	43	104	0	30	33195
2026-01-14 01:53:44.07	186.54	23.95	-34.8	-54.1	3.8	7.46e-01	0	43	104	0	30	33208
2026-01-14 01:53:45.08	186.60	23.77	-34.8	-54.1	3.8	7.46e-01	0	43	104	0	30	33273
2026-01-14 01:53:46.08	186.66	23.60	-34.7	-54.0	3.8	7.47e-01	0	43	104	0	30	33145
2026-01-14 01:53:47.08	186.72	23.44	-34.8	-54.1	3.8	7.45e-01	0	43	104	0	30	33254
2026-01-14 01:53:48.08	186.77	23.27	-34.8	-54.1	3.8	7.44e-01	0	43	104	0	30	33244
2026-01-14 01:53:49.09	186.83	23.10	-34.7	-54.0	3.8	7.45e-01	0	43	104	0	30	33213
2026-01-14 01:53:50.09	186.89	22.93	-34.7	-54.1	3.8	7.45e-01	0	43	104	0	30	33231
2026-01-14 01:53:51.10	186.95	22.77	-34.8	-54.1	3.8	7.46e-01	0	43	104	0	30	33279
2026-01-14 01:53:52.11	187.00	22.60	-34.7	-54.0	3.8	7.48e-01	0	43	104	0	30	33212
2026-01-14 01:53:53.12	187.06	22.44	-34.8	-54.1	3.8	7.47e-01	0	43	104	0	30	33329
2026-01-14 01:53:54.12	187.11	22.28	-34.7	-54.0	3.8	7.43e-01	0	43	104	0	30	33145
2026-01-14 01:53:55.13	187.17	22.12	-34.8	-54.1	3.8	7.46e-01	0	43	104	0	30	33260
2026-01-14 01:53:56.13	187.22	21.96	-34.8	-54.0	3.8	7.44e-01	0	43	104	0	30	33161
2026-01-14 01:53:57.13	187.28	21.80	-34.7	-54.0	3.8	7.44e-01	0	43	104	0	30	33137
2026-01-14 01:53:58.13	187.33	21.65	-34.8	-54.1	3.8	7.44e-01	0	43	104	0	30	33205
2026-01-14 01:53:59.14	187.38	21.49	-34.7	-54.1	3.8	7.42e-01	0	43	104	0	30	33251
2026-01-14 01:54:00.14	187.43	21.33	-34.8	-54.1	3.8	7.48e-01	0	43	104	0	30	33262
2026-01-14 01:54:01.14	187.48	21.18	-34.7	-54.0	3.8	7.42e-01	0	43	104	0	30	33150
2026-01-14 01:54:02.15	187.54	21.03	-34.7	-54.0	3.8	7.45e-01	0	43	104	0	30	33210
2026-01-14 01:54:03.16	187.59	20.87	-34.8	-54.1	3.8	7.47e-01	0	43	104	0	30	33245
2026-01-14 01:54:04.16	187.64	20.72	-34.7	-54.0	3.8	7.44e-01	0	43	104	0	30	33133
2026-01-14 01:54:05.17	187.69	20.57	-34.8	-54.1	3.8	7.45e-01	0	43	104	0	30	33255
2026-01-14 01:54:06.17	187.73	20.42	-34.7	-54.0	3.8	7.47e-01	0	43	104	0	30	33210
2026-01-14 01:54:07.18	187.78	20.28	-34.7	-54.1	3.8	7.46e-01	0	43	104	0	30	33275
2026-01-14 01:54:08.18	187.83	20.13	-34.7	-54.1	3.8	7.42e-01	0	43	104	0	30	33296
2026-01-14 01:54:09.19	187.88	19.98	-34.7	-54.1	3.8	7.46e-01	0	43	104	0	30	33293
2026-01-14 01:54:10.20	187.93	19.84	-34.7	-54.0	3.8	7.43e-01	0	43	104	0	30	33188
2026-01-14 01:54:11.20	187.97	19.69	-34.7	-54.0	3.8	7.48e-01	0	43	104	0	30	33193
2026-01-14 01:54:12.21	188.02	19.55	-34.7	-54.1	3.8	7.44e-01	0	43	104	0	30	33249
2026-01-14 01:54:13.21	188.07	19.40	-34.8	-54.1	3.8	7.47e-01	0	43	104	0	30	33329
2026-01-14 01:54:14.21	188.11	19.26	-34.8	-54.1	3.8	7.45e-01	0	43	104	0	30	33254
2026-01-14 01:54:15.21	188.16	19.12	-34.7	-54.0	3.8	7.47e-01	0	43	104	0	30	33182
2026-01-14 01:54:16.22	188.20	18.98	-34.8	-54.1	3.8	7.45e-01	0	43	104	0	30	33275
2026-01-14 01:54:17.22	188.24	18.84	-34.8	-54.1	3.8	7.47e-01	0	43	104	0	30	33258
2026-01-14 01:54:18.23	188.29	18.70	-34.7	-54.1	3.8	7.46e-01	0	43	104	0	30	33290
2026-01-14 01:54:19.23	188.33	18.57	-34.7	-54.1	3.8	7.44e-01	0	43	104	0	30	33271
2026-01-14 01:54:20.23	188.38	18.43	-34.7	-54.1	3.8	7.43e-01	0	43	104	0	30	33247
2026-01-14 01:54:21.23	188.42	18.30	-34.8	-54.1	3.8	7.45e-01	0	43	104	0	30	33295
2026-01-14 01:54:22.23	188.46	18.16	-34.8	-54.1	3.8	7.45e-01	0	43	104	0	30	33338
2026-01-14 01:54:23.24	188.50	18.03	-34.8	-54.1	3.8	7.45e-01	0	43	104	0	30	33345
2026-01-14 01:54:24.24	188.54	17.89	-34.7	-54.1	3.8	7.46e-01	0	43	104	0	30	33282
2026-01-14 01:54:25.25	188.59	17.76	-34.7	-54.1	3.8	7.47e-01	0	43	104	0	30	33380
2026-01-14 01:54:26.26	188.63	17.63	-34.8	-54.1	3.8	7.46e-01	0	43	104	0	30	33289
2026-01-14 01:54:27.27	188.67	17.49	-34.8	-54.1	3.8	7.43e-01	0	43	104	0	30	33318
2026-01-14 01:54:28.27	188.71	17.36	-34.8	-54.1	3.8	7.47e-01	0	43	104	0	30	33287
2026-01-14 01:54:29.28	188.75	17.23	-34.7	-54.1	3.8	7.46e-01	0	43	104	0	30	33261
2026-01-14 01:54:30.28	188.79	17.11	-34.8	-54.1	3.8	7.44e-01	0	43	104	0	30	33367
2026-01-14 01:54:31.29	188.83	16.98	-34.8	-54.1	3.8	7.46e-01	0	43	104	0	30	33250
2026-01-14 01:54:32.29	188.87	16.85	-34.8	-54.1	3.8	7.47e-01	0	43	104	0	30	33261
2026-01-14 01:54:33.30	188.90	16.72	-34.8	-54.1	3.8	7.45e-01	0	43	104	0	30	33311
2026-01-14 01:54:34.31	188.94	16.59	-34.8	-54.1	3.8	7.47e-01	0	43	104	0	30	33290
2026-01-14 01:54:35.31	188.98	16.47	-34.8	-54.1	3.8	7.43e-01	0	43	104	0	30	33283
2026-01-14 01:54:36.32	189.02	16.34	-34.8	-54.1	3.8	7.43e-01	0	43	104	0	30	33278
2026-01-14 01:54:37.31	189.06	16.22	-34.7	-54.1	3.8	7.47e-01	0	43	104	0	30	33318
2026-01-14 01:54:38.32	189.09	16.10	-34.8	-54.1	3.8	7.47e-01	0	43	104	0	30	33274
2026-01-14 01:54:39.33	189.13	15.97	-34.7	-54.1	3.8	7.48e-01	0	43	104	0	30	33271
2026-01-14 01:54:40.33	189.17	15.85	-34.8	-54.1	3.8	7.44e-01	0	43	104	0	30	33322
2026-01-14 01:54:41.32	189.20	15.73	-34.7	-54.1	3.8	7.44e-01	0	43	104	0	30	33349
2026-01-14 01:54:42.33	189.24	15.61	-34.8	-54.1	3.8	7.45e-01	0	43	104	0	30	33260
2026-01-14 01:54:43.33	189.27	15.49	-34.8	-54.1	3.8	7.47e-01	0	43	104	0	30	33310
2026-01-14 01:54:44.34	189.31	15.37	-34.8	-54.1	3.8	7.46e-01	0	43	104	0	30	33248
2026-01-14 01:54:45.34	189.34	15.25	-34.7	-54.1	3.8	7.48e-01	0	43	104	0	30	33257
2026-01-14 01:54:46.34	189.38	15.14	-34.8	-54.1	3.8	7.47e-01	0	43	104	0	30	33347
2026-01-14 01:54:47.35	189.41	15.02	-34.8	-54.1	3.8	7.45e-01	0	43	104	0	30	33342
2026-01-14 01:54:48.35	189.45	14.90	-34.8	-54.1	3.8	7.46e-01	0	43	104	0	30	33279
2026-01-14 01:54:49.35	189.48	14.79	-34.8	-54.1	3.8	7.49e-01	0	43	104	0	30	33300
2026-01-14 01:54:50.36	189.52	14.67	-34.8	-54.1	3.8	7.46e-01	0	43	104	0	30	33301
2026-01-14 01:54:51.36	189.55	14.56	-34.8	-54.1	3.8	7.45e-01	0	43	104	0	30	33251
2026-01-14 01:54:52.37	189.58	14.44	-34.8	-54.1	3.8	7.43e-01	0	43	104	0	30	33266
2026-01-14 01:54:53.37	189.62	14.33	-34.8	-54.1	3.8	7.44e-01	0	43	104	0	30	33331
2026-01-14 01:54:54.37	189.65	14.21	-34.8	-54.1	3.8	7.44e-01	0	43	104	0	30	33301
2026-01-14 01:54:55.37	189.68	14.10	-34.8	-54.1	3.8	7.41e-01	0	43	104	0	30	33340
2026-01-14 01:54:56.37	189.71	13.99	-34.8	-54.1	3.8	7.45e-01	0	43	104	0	30	33274
2026-01-14 01:54:57.38	189.75	13.88	-34.8	-54.1	3.8	7.47e-01	0	43	104	0	30	33339
2026-01-14 01:54:58.38	189.78	13.77	-34.8	-54.1	3.8	7.43e-01	0	43	104	0	30	33327
2026-01-14 01:54:59.38	189.81	13.66	-34.8	-54.1	3.8	7.45e-01	0	43	104	0	30	33271
2026-01-14 01:55:00.39	189.84	13.55	-34.7	-54.1	3.8	7.45e-01	0	43	104	0	30	33254
2026-01-14 01:55:01.39	189.87	13.44	-34.8	-54.1	3.8	7.46e-01	0	43	104	0	30	33226
2026-01-14 01:55:02.40	189.90	13.33	-34.8	-54.1	3.8	7.42e-01	0	43	104	0	30	33236
2026-01-14 01:55:03.40	189.93	13.22	-34.8	-54.1	3.8	7.41e-01	0	43	104	0	30	33280
2026-01-14 01:55:04.40	189.96	13.11	-34.8	-54.1	3.8	7.43e-01	0	43	104	0	30	33266
2026-01-14 01:55:05.40	189.99	13.01	-34.8	-54.1	3.8	7.46e-01	0	43	104	0	30	33254
2026-01-14 01:55:06.40	190.02	12.90	-34.8	-54.1	3.8	7.45e-01	0	43	104	0	30	33283
2026-01-14 01:55:07.41	190.05	12.79	-34.8	-54.1	3.8	7.43e-01	0	43	104	0	30	33232
2026-01-14 01:55:08.42	190.08	12.69	-34.8	-54.1	3.8	7.43e-01	0	43	104	0	30	33237
2026-01-14 01:55:09.42	190.11	12.58	-34.8	-54.1	3.8	7.48e-01	0	43	104	0	30	33263
2026-01-14 01:55:10.42	190.14	12.48	-34.7	-54.1	3.8	7.47e-01	0	43	104	0	30	33338
2026-01-14 01:55:11.43	190.17	12.37	-34.8	-54.1	3.8	7.46e-01	0	43	104	0	30	33312
2026-01-14 01:55:12.44	190.20	12.27	-34.8	-54.1	3.8	7.45e-01	0	43	104	0	30	33308
2026-01-14 01:55:13.44	190.23	12.17	-34.7	-54.1	3.8	7.44e-01	0	43	104	0	30	33223
2026-01-14 01:55:14.44	190.26	12.06	-34.8	-54.1	3.8	7.46e-01	0	43	104	0	30	33361
2026-01-14 01:55:15.44	190.29	11.96	-34.8	-54.1	3.8	7.45e-01	0	43	104	0	30	33287
2026-01-14 01:55:16.45	190.32	11.86	-34.8	-54.1	3.8	7.45e-01	0	43	104	0	30	33326
2026-01-14 01:55:17.45	190.34	11.76	-34.8	-54.1	3.8	7.43e-01	0	43	104	0	30	33223
2026-01-14 01:55:18.45	190.37	11.66	-34.8	-54.1	3.8	7.46e-01	0	43	104	0	30	33320
2026-01-14 01:55:19.45	190.40	11.56	-34.8	-54.1	3.8	7.44e-01	0	43	104	0	30	33258
2026-01-14 01:55:20.45	190.43	11.46	-34.8	-54.1	3.8	7.46e-01	0	43	104	0	30	33241
2026-01-14 01:55:21.45	190.45	11.36	-34.7	-54.1	3.8	7.44e-01	0	43	104	0	30	33286
2026-01-14 01:55:22.45	190.48	11.26	-34.8	-54.1	3.8	7.47e-01	0	43	104	0	30	33214
2026-01-14 01:55:23.45	190.51	11.16	-34.8	-54.1	3.8	7.45e-01	0	43	104	0	30	33229
2026-01-14 01:55:24.46	190.53	11.06	-34.7	-54.1	3.8	7.47e-01	0	43	104	0	30	33242
2026-01-14 01:55:25.46	190.56	10.97	-34.8	-54.1	3.8	7.47e-01	0	43	104	0	30	33270
2026-01-14 01:55:26.46	190.59	10.87	-34.7	-54.1	3.8	7.47e-01	0	43	104	0	30	33293
2026-01-14 01:55:27.45	190.61	10.77	-34.7	-54.1	3.8	7.46e-01	0	43	104	0	30	33280
2026-01-14 01:55:28.46	190.64	10.68	-34.8	-54.1	3.8	7.46e-01	0	43	104	0	30	33234
2026-01-14 01:55:29.46	190.66	10.58	-34.8	-54.1	3.8	7.46e-01	0	43	104	0	30	33259
2026-01-14 01:55:30.47	190.69	10.48	-34.7	-54.1	3.8	7.44e-01	0	43	104	0	30	33267
2026-01-14 01:55:31.47	190.72	10.39	-34.8	-54.1	3.8	7.44e-01	0	43	104	0	30	33264
2026-01-14 01:55:32.48	190.74	10.29	-34.7	-54.1	3.8	7.47e-01	0	43	104	0	30	33277
2026-01-14 01:55:33.48	190.77	10.20	-34.7	-54.1	3.8	7.47e-01	0	43	104	0	30	33302
2026-01-14 01:55:34.49	190.79	10.11	-34.8	-54.1	3.8	7.44e-01	0	43	104	0	30	33285
2026-01-14 01:55:35.48	190.82	10.01	-34.8	-54.1	3.8	7.43e-01	0	43	104	0	30	33308
2026-01-14 01:55:36.49	190.84	9.92	-34.8	-54.1	3.8	7.41e-01	0	43	104	0	30	33291
2026-01-14 01:55:37.49	190.87	9.83	-34.7	-54.0	3.8	7.45e-01	0	43	104	0	30	33202
2026-01-14 01:55:38.49	190.89	9.73	-34.8	-54.1	3.8	7.44e-01	0	43	104	0	30	33264
2026-01-14 01:55:39.49	190.91	9.64	-34.8	-54.1	3.8	7.43e-01	0	43	104	0	30	33240
2026-01-14 01:55:40.50	190.94	9.55	-34.8	-54.1	3.8	7.48e-01	0	43	104	0	30	33286
2026-01-14 01:55:41.50	190.96	9.46	-34.7	-54.1	3.8	7.44e-01	0	43	104	0	30	33234
2026-01-14 01:55:42.51	190.99	9.37	-34.8	-54.1	3.8	7.43e-01	0	43	104	0	30	33192
2026-01-14 01:55:43.50	191.01	9.28	-34.7	-54.1	3.8	7.43e-01	0	43	104	0	30	33267
2026-01-14 01:55:44.51	191.03	9.19	-34.8	-54.1	3.8	7.46e-01	0	43	104	0	30	33208
2026-01-14 01:55:45.52	191.06	9.10	-34.8	-54.1	3.8	7.47e-01	0	43	104	0	30	33240
2026-01-14 01:55:46.52	191.08	9.01	-34.8	-54.1	3.8	7.43e-01	0	43	104	0	30	33248
2026-01-14 01:55:47.52	191.11	8.92	-34.7	-54.0	3.8	7.45e-01	0	43	104	0	30	33220
2026-01-14 01:55:48.52	191.13	8.83	-34.8	-54.1	3.8	7.43e-01	0	43	104	0	30	33268
2026-01-14 01:55:49.52	191.15	8.74	-34.7	-54.0	3.8	7.45e-01	0	43	104	0	30	33094
2026-01-14 01:55:50.53	191.17	8.65	-34.7	-54.0	3.8	7.49e-01	0	43	104	0	30	33130
2026-01-14 01:55:51.54	191.20	8.56	-34.7	-54.0	3.8	7.46e-01	0	43	104	0	30	33038
2026-01-14 01:55:52.54	191.22	8.48	-34.7	-54.0	3.8	7.47e-01	0	43	104	0	30	33133
2026-01-14 01:55:53.55	191.24	8.39	-34.7	-54.0	3.8	7.47e-01	0	43	104	0	30	33133
2026-01-14 01:55:54.56	191.26	8.30	-34.7	-54.1	3.8	7.43e-01	0	43	104	0	30	33290
2026-01-14 01:55:55.56	191.29	8.22	-34.8	-54.1	3.8	7.40e-01	0	43	104	0	30	33258
2026-01-14 01:55:56.57	191.31	8.13	-34.7	-54.0	3.8	7.44e-01	0	43	104	0	30	33217
2026-01-14 01:55:57.58	191.33	8.04	-34.7	-54.0	3.8	7.46e-01	0	43	104	0	30	33226
2026-01-14 01:55:58.58	191.35	7.96	-34.7	-54.0	3.8	7.44e-01	0	43	104	0	30	33096
2026-01-14 01:55:59.58	191.37	7.87	-34.7	-54.0	3.8	7.45e-01	0	43	104	0	30	33186
2026-01-14 01:56:00.59	191.40	7.79	-34.8	-54.1	3.8	7.45e-01	0	43	104	0	30	33322
2026-01-14 01:56:01.60	191.42	7.70	-34.8	-54.1	3.8	7.47e-01	0	43	104	0	30	33211
2026-01-14 01:56:02.60	191.44	7.62	-34.8	-54.1	3.8	7.45e-01	0	43	104	0	30	33258
2026-01-14 01:56:03.61	191.46	7.53	-34.7	-54.1	3.8	7.45e-01	0	43	104	0	30	33247
2026-01-14 01:56:04.62	191.48	7.45	-34.7	-54.0	3.8	7.40e-01	0	43	104	0	30	33176
2026-01-14 01:56:05.62	191.50	7.37	-34.7	-54.0	3.8	7.46e-01	0	43	104	0	30	32970
2026-01-14 01:56:06.63	191.52	7.28	-34.7	-54.0	3.8	7.46e-01	0	43	104	0	30	32973
2026-01-14 01:56:07.63	191.55	7.20	-34.7	-54.0	3.8	7.44e-01	0	43	104	0	30	33109
2026-01-14 01:56:08.62	191.57	7.12	-34.7	-54.0	3.8	7.48e-01	0	43	104	0	30	33223
2026-01-14 01:56:09.63	191.59	7.04	-34.7	-54.1	3.8	7.45e-01	0	43	104	0	30	33235
2026-01-14 01:56:10.62	191.61	6.96	-34.7	-54.0	3.8	7.44e-01	0	43	104	0	30	33077

#Closed at: 2026-01-14 01:56:11
#Recorded file [0 MB]: D:/data/31010_260114_044537.dat