passes_logs/2026/01/14/R2M6_AANII_01/R2M6_AANII_01__20260114_023308_FENGYUN_3D_rec.log

#Pass ID: 20260114_023308_FENGYUN 3D
#Satellite: FENGYUN 3D
#Configuration: FENGYUN 3D
#almurnet v.1.7.20240730
#Start time: 2026-01-14 02:33:09

#Version: 2.2.20231116
#Station: R2M6_AANII_01
#Location: 30.233357 lon 59.946436 lat
#TLE: 1 43010U 17072A   26013.31211337  .00000452  00000+0  23563-3 0  9990
#TLE: 2 43010  98.9934 345.1024 0002270 111.0315 249.1103 14.19696845423017

#Time	Az	El	Level	Level2	SNR	BER	BlckErr	Temp	State	Recorded	gain1	gain2
2026-01-14 02:33:09.88	17.97	7.12	-30.1	-33.3	5.4	7.90e-01	0	40	0	0	20	5216
2026-01-14 02:33:10.88	17.97	7.20	-30.4	-34.1	5.3	7.96e-01	0	40	104	0	20	5551
2026-01-14 02:33:11.88	17.96	7.27	-30.7	-34.4	8.8	2.51e-02	0	41	0	0	21	5518
2026-01-14 02:33:12.89	17.96	7.35	-30.9	-35.1	8.2	4.40e-02	0	41	0	5242880	21	5860
2026-01-14 02:33:13.89	17.96	7.43	-30.8	-34.8	8.5	4.49e-02	0	41	0	11534336	21	5716
2026-01-14 02:33:14.90	17.96	7.51	-30.3	-33.4	9.5	1.67e-02	0	41	0	16777216	21	5117
2026-01-14 02:33:15.91	17.95	7.59	-29.9	-33.2	10.4	6.80e-03	0	41	0	22020096	19	5228
2026-01-14 02:33:16.91	17.95	7.67	-29.5	-32.0	11.2	3.39e-03	0	41	0	28311552	19	4805
2026-01-14 02:33:17.92	17.95	7.75	-29.1	-31.4	11.9	7.17e-04	0	41	0	33554432	18	4728
2026-01-14 02:33:18.92	17.94	7.83	-28.7	-31.1	12.4	1.11e-04	0	41	0	38797312	17	4725
2026-01-14 02:33:19.92	17.94	7.91	-28.4	-30.4	12.9	1.87e-03	0	41	0	45088768	17	4508
2026-01-14 02:33:20.93	17.94	7.99	-28.3	-30.1	13.0	1.82e-04	0	41	0	50331648	17	4434
2026-01-14 02:33:21.93	17.93	8.07	-28.2	-30.4	13.2	1.72e-03	0	41	0	55574528	16	4610
2026-01-14 02:33:22.93	17.93	8.15	-28.2	-30.4	13.2	1.60e-05	0	41	0	61865984	16	4632
2026-01-14 02:33:23.94	17.93	8.23	-28.5	-30.7	12.8	2.28e-05	0	41	0	67108864	17	4589
2026-01-14 02:33:24.94	17.92	8.31	-28.4	-30.3	13.0	1.73e-03	0	41	0	73400320	17	4475
2026-01-14 02:33:25.95	17.92	8.39	-28.1	-30.1	13.4	1.48e-05	0	41	0	78643200	16	4521
2026-01-14 02:33:26.95	17.92	8.47	-27.8	-29.4	13.9	1.57e-04	0	41	0	84934656	16	4313
2026-01-14 02:33:27.95	17.91	8.55	-27.5	-29.1	14.1	0.00e+00	0	41	0	90177536	15	4366
2026-01-14 02:33:28.95	17.91	8.64	-27.1	-28.9	14.5	1.56e-03	0	41	0	95420416	14	4411
2026-01-14 02:33:29.95	17.90	8.72	-27.1	-28.8	14.6	0.00e+00	0	41	0	101711872	14	4366
2026-01-14 02:33:30.96	17.90	8.80	-27.0	-28.5	14.8	0.00e+00	0	41	0	106954752	14	4296
2026-01-14 02:33:31.96	17.90	8.88	-26.9	-28.9	14.8	1.36e-03	0	41	0	112197632	13	4536
2026-01-14 02:33:32.96	17.89	8.97	-27.0	-28.6	14.7	0.00e+00	0	41	0	118489088	14	4323
2026-01-14 02:33:33.96	17.89	9.05	-27.0	-28.6	14.7	1.35e-03	0	41	0	123731968	14	4324
2026-01-14 02:33:34.97	17.89	9.13	-27.1	-28.9	14.6	1.10e-06	0	41	0	128974848	14	4405
2026-01-14 02:33:35.97	17.88	9.22	-27.1	-28.7	14.7	0.00e+00	0	42	0	135266304	14	4355
2026-01-14 02:33:36.98	17.88	9.30	-27.2	-29.0	14.5	0.00e+00	0	41	0	140509184	14	4430
2026-01-14 02:33:37.99	17.87	9.39	-27.0	-28.5	14.8	0.00e+00	0	41	0	146800640	14	4291
2026-01-14 02:33:38.99	17.87	9.47	-26.9	-28.4	14.9	0.00e+00	0	41	0	152043520	14	4261
2026-01-14 02:33:40.07	17.86	9.56	-26.9	-28.9	14.9	0.00e+00	0	41	0	158334976	13	4525
2026-01-14 02:33:40.93	17.86	9.64	-26.9	-28.8	15.0	0.00e+00	0	41	0	162529280	13	4489
2026-01-14 02:33:42.08	17.86	9.74	-26.9	-28.8	15.0	0.00e+00	0	41	0	168820736	13	4486
2026-01-14 02:33:42.94	17.85	9.81	-26.8	-28.7	15.0	0.00e+00	0	41	0	174063616	13	4467
2026-01-14 02:33:44.09	17.85	9.91	-27.0	-29.0	14.9	0.00e+00	0	41	0	180355072	13	4534
2026-01-14 02:33:44.94	17.84	9.98	-26.9	-28.8	14.9	0.00e+00	0	41	0	185597952	13	4498
2026-01-14 02:33:46.09	17.84	10.08	-26.9	-28.7	15.0	0.00e+00	0	41	0	191889408	13	4466
2026-01-14 02:33:46.95	17.83	10.16	-26.9	-28.7	15.0	0.00e+00	0	42	0	196083712	13	4466
2026-01-14 02:33:48.08	17.83	10.25	-26.9	-28.9	14.9	0.00e+00	0	41	0	202375168	13	4516
2026-01-14 02:33:48.94	17.83	10.33	-27.1	-28.8	14.7	1.54e-03	0	41	0	207618048	14	4380
2026-01-14 02:33:50.09	17.82	10.43	-27.3	-29.3	14.5	0.00e+00	0	42	0	213909504	14	4519
2026-01-14 02:33:50.95	17.82	10.51	-27.2	-28.9	14.7	1.18e-04	0	41	0	219152384	14	4409
2026-01-14 02:33:52.08	17.81	10.61	-26.9	-28.4	15.0	0.00e+00	0	41	0	225443840	14	4254
2026-01-14 02:33:52.94	17.81	10.68	-26.7	-28.5	15.2	1.10e-06	0	41	0	229638144	13	4387
2026-01-14 02:33:54.09	17.80	10.79	-26.9	-28.8	15.0	0.00e+00	0	41	0	236978176	13	4491
2026-01-14 02:33:54.94	17.80	10.86	-26.8	-28.7	15.1	0.00e+00	0	42	0	241172480	13	4454
2026-01-14 02:33:56.09	17.79	10.97	-26.8	-28.7	15.1	0.00e+00	0	42	0	247463936	13	4459
2026-01-14 02:33:56.95	17.79	11.04	-26.9	-28.9	15.0	0.00e+00	0	42	0	252706816	13	4504
2026-01-14 02:33:58.09	17.78	11.15	-26.8	-28.7	15.1	0.00e+00	0	42	0	258998272	13	4452
2026-01-14 02:33:58.95	17.78	11.22	-26.8	-28.7	15.1	0.00e+00	0	42	0	264241152	13	4445
2026-01-14 02:34:00.09	17.77	11.33	-26.9	-28.7	15.1	0.00e+00	0	42	0	270532608	13	4464
2026-01-14 02:34:00.95	17.77	11.41	-26.9	-28.9	15.0	0.00e+00	0	42	0	274726912	13	4500
2026-01-14 02:34:02.10	17.76	11.51	-26.8	-28.7	15.1	0.00e+00	0	42	0	282066944	13	4439
2026-01-14 02:34:02.95	17.76	11.59	-26.7	-28.4	15.3	0.00e+00	0	42	0	286261248	13	4372
2026-01-14 02:34:04.10	17.75	11.70	-26.8	-28.6	15.2	0.00e+00	0	42	0	292552704	13	4428
2026-01-14 02:34:04.95	17.74	11.78	-26.7	-28.4	15.3	0.00e+00	0	42	0	297795584	13	4361
2026-01-14 02:34:06.10	17.74	11.88	-26.8	-28.6	15.2	0.00e+00	0	42	0	304087040	13	4417
2026-01-14 02:34:06.95	17.73	11.96	-26.7	-28.4	15.3	0.00e+00	0	42	0	309329920	13	4367
2026-01-14 02:34:08.10	17.73	12.07	-26.8	-28.5	15.3	0.00e+00	0	42	0	315621376	13	4383
2026-01-14 02:34:08.97	17.72	12.15	-26.7	-28.4	15.4	0.00e+00	0	42	0	320864256	13	4362
2026-01-14 02:34:10.11	17.71	12.26	-26.6	-28.2	15.4	0.00e+00	0	42	0	326107136	13	4323
2026-01-14 02:34:10.97	17.71	12.34	-26.6	-28.1	15.5	0.00e+00	0	42	0	331350016	13	4284
2026-01-14 02:34:12.12	17.70	12.45	-26.6	-28.2	15.5	0.00e+00	0	42	0	337641472	13	4311
2026-01-14 02:34:12.97	17.70	12.53	-26.6	-28.2	15.5	0.00e+00	0	42	0	342884352	13	4303
2026-01-14 02:34:14.11	17.69	12.64	-26.6	-28.1	15.5	0.00e+00	0	42	0	349175808	13	4295
2026-01-14 02:34:14.98	17.69	12.73	-26.5	-27.9	15.7	0.00e+00	0	42	0	354418688	13	4225
2026-01-14 02:34:16.13	17.68	12.84	-26.5	-27.9	15.6	0.00e+00	0	42	0	360710144	13	4244
2026-01-14 02:34:16.99	17.67	12.92	-26.7	-28.2	15.5	0.00e+00	0	42	0	364904448	13	4326
2026-01-14 02:34:18.13	17.67	13.03	-26.5	-27.9	15.7	0.00e+00	0	42	0	372244480	13	4245
2026-01-14 02:34:19.00	17.66	13.12	-26.4	-27.7	15.8	0.00e+00	0	42	0	376438784	13	4180
2026-01-14 02:34:20.14	17.65	13.23	-26.5	-28.3	15.8	0.00e+00	0	42	0	382730240	12	4452
2026-01-14 02:34:20.99	17.65	13.32	-26.4	-28.1	15.8	0.00e+00	0	42	0	387973120	12	4411
2026-01-14 02:34:22.14	17.64	13.43	-26.3	-27.9	16.0	0.00e+00	0	42	0	394264576	12	4352
2026-01-14 02:34:22.99	17.63	13.52	-26.3	-27.9	16.0	0.00e+00	0	42	0	399507456	12	4350
2026-01-14 02:34:24.14	17.63	13.63	-26.4	-28.1	15.9	0.00e+00	0	42	0	405798912	12	4407
2026-01-14 02:34:25.00	17.62	13.72	-26.3	-27.9	16.0	0.00e+00	0	42	0	409993216	12	4346
2026-01-14 02:34:26.15	17.61	13.83	-26.2	-27.7	16.1	0.00e+00	0	42	0	417333248	12	4296
2026-01-14 02:34:27.01	17.61	13.92	-26.2	-27.6	16.2	0.00e+00	0	42	0	421527552	12	4268
2026-01-14 02:34:28.16	17.60	14.04	-26.2	-27.6	16.2	0.00e+00	0	42	0	427819008	12	4266
2026-01-14 02:34:29.02	17.59	14.13	-26.1	-27.5	16.2	0.00e+00	0	42	0	433061888	12	4239
2026-01-14 02:34:30.17	17.58	14.24	-26.3	-27.9	16.0	0.00e+00	0	42	0	439353344	12	4331
2026-01-14 02:34:31.03	17.58	14.33	-26.1	-27.5	16.2	0.00e+00	0	42	0	444596224	12	4244
2026-01-14 02:34:32.17	17.57	14.45	-26.1	-27.5	16.2	0.00e+00	0	42	0	450887680	12	4241
2026-01-14 02:34:33.03	17.56	14.54	-26.1	-27.6	16.2	0.00e+00	0	42	0	456130560	12	4253
2026-01-14 02:34:34.17	17.55	14.66	-26.0	-27.3	16.4	0.00e+00	0	42	0	462422016	12	4193
2026-01-14 02:34:35.03	17.55	14.75	-26.1	-27.4	16.3	0.00e+00	0	42	0	466616320	12	4217
2026-01-14 02:34:36.18	17.54	14.87	-26.0	-27.3	16.4	1.27e-03	0	42	0	472907776	12	4187
2026-01-14 02:34:37.04	17.53	14.96	-26.0	-27.3	16.4	0.00e+00	0	42	0	478150656	12	4183
2026-01-14 02:34:38.19	17.52	15.08	-26.1	-27.5	16.3	1.12e-04	0	42	0	484442112	12	4242
2026-01-14 02:34:39.04	17.51	15.18	-26.0	-27.4	16.4	0.00e+00	0	42	0	489684992	12	4198
2026-01-14 02:34:40.20	17.51	15.30	-26.0	-27.4	16.4	0.00e+00	0	42	0	495976448	12	4203
2026-01-14 02:34:41.06	17.50	15.39	-26.2	-27.7	16.2	0.00e+00	0	42	0	500170752	12	4295
2026-01-14 02:34:42.21	17.49	15.52	-26.1	-27.4	16.3	0.00e+00	0	42	0	507510784	12	4218
2026-01-14 02:34:43.07	17.48	15.61	-26.2	-27.7	12.7	0.00e+00	0	42	0	511705088	12	4275
2026-01-14 02:34:44.21	17.47	15.74	-26.1	-27.4	16.3	0.00e+00	0	42	0	517996544	12	4214
2026-01-14 02:34:45.07	17.46	15.83	-26.1	-27.4	16.3	0.00e+00	0	42	0	523239424	12	4206
2026-01-14 02:34:46.21	17.45	15.96	-26.2	-27.7	16.2	0.00e+00	0	42	0	529530880	12	4276
2026-01-14 02:34:47.07	17.45	16.05	-26.0	-27.2	16.5	0.00e+00	0	42	0	534773760	12	4158
2026-01-14 02:34:48.22	17.44	16.18	-25.9	-27.2	16.6	1.43e-03	0	42	0	541065216	12	4145
2026-01-14 02:34:49.08	17.43	16.27	-26.0	-27.3	16.5	0.00e+00	0	42	0	546308096	12	4177
2026-01-14 02:34:50.22	17.42	16.40	-25.8	-26.9	16.7	1.13e-04	0	42	0	552599552	12	4088
2026-01-14 02:34:51.07	17.41	16.50	-25.8	-27.4	16.7	0.00e+00	0	42	0	556793856	11	4322
2026-01-14 02:34:52.22	17.40	16.63	-25.8	-27.3	16.8	1.31e-03	0	42	0	563085312	11	4292
2026-01-14 02:34:53.07	17.39	16.73	-25.8	-27.3	16.8	1.01e-04	0	42	0	568328192	11	4283
2026-01-14 02:34:54.22	17.38	16.86	-25.8	-27.3	16.8	0.00e+00	0	42	0	574619648	11	4295
2026-01-14 02:34:55.08	17.37	16.96	-25.9	-27.6	16.7	1.50e-03	0	42	0	579862528	11	4368
2026-01-14 02:34:56.23	17.36	17.09	-25.8	-27.4	16.8	0.00e+00	0	42	0	586153984	11	4311
2026-01-14 02:34:57.09	17.35	17.19	-25.8	-27.3	16.8	0.00e+00	0	42	0	591396864	11	4277
2026-01-14 02:34:58.24	17.34	17.32	-25.8	-27.3	16.8	1.38e-03	0	42	0	597688320	11	4295
2026-01-14 02:34:59.10	17.33	17.42	-25.7	-27.1	16.9	0.00e+00	0	42	0	601882624	11	4220
2026-01-14 02:35:00.25	17.32	17.56	-25.6	-27.0	17.0	1.38e-03	0	42	0	608174080	11	4199
2026-01-14 02:35:01.12	17.31	17.66	-25.7	-27.1	17.0	0.00e+00	0	42	0	613416960	11	4221
2026-01-14 02:35:02.25	17.30	17.80	-25.5	-26.7	17.2	1.21e-04	0	42	0	619708416	11	4122
2026-01-14 02:35:03.11	17.29	17.90	-25.5	-26.7	17.2	4.23e-05	0	42	0	624951296	11	4136
2026-01-14 02:35:04.25	17.28	18.04	-25.5	-26.8	17.1	1.35e-03	0	42	0	631242752	11	4148
2026-01-14 02:35:05.11	17.27	18.14	-25.4	-26.6	17.2	1.33e-04	0	42	0	636485632	11	4093
2026-01-14 02:35:06.26	17.26	18.28	-25.4	-27.0	17.3	1.34e-03	0	43	0	642777088	10	4324
2026-01-14 02:35:07.12	17.25	18.38	-25.4	-26.9	17.3	1.32e-03	0	42	0	646971392	10	4299
2026-01-14 02:35:08.26	17.24	18.52	-25.3	-26.7	17.4	1.23e-04	0	42	0	653262848	10	4259
2026-01-14 02:35:09.12	17.23	18.63	-25.3	-26.7	17.5	1.32e-03	0	42	0	658505728	10	4242
2026-01-14 02:35:10.27	17.22	18.77	-25.2	-26.7	17.5	0.00e+00	0	42	0	664797184	10	4233
2026-01-14 02:35:11.13	17.21	18.88	-25.4	-27.0	17.3	9.95e-05	0	42	0	670040064	10	4319
2026-01-14 02:35:12.28	17.19	19.02	-25.1	-26.3	17.6	0.00e+00	0	42	0	676331520	10	4150
2026-01-14 02:35:13.14	17.18	19.13	-25.0	-26.1	17.8	1.33e-03	0	42	0	681574400	10	4075
2026-01-14 02:35:14.29	17.17	19.27	-24.9	-25.9	17.9	1.13e-04	0	42	0	687865856	10	4028
2026-01-14 02:35:15.15	17.16	19.38	-25.0	-26.1	17.8	1.34e-03	0	42	0	692060160	10	4085
2026-01-14 02:35:16.30	17.14	19.53	-24.8	-26.1	18.0	1.29e-03	0	42	0	699400192	9	4204
2026-01-14 02:35:17.16	17.13	19.64	-24.8	-26.2	18.0	1.27e-04	0	42	0	703594496	9	4215
2026-01-14 02:35:18.31	17.12	19.79	-24.7	-26.0	18.1	1.30e-03	0	42	0	709885952	9	4165
2026-01-14 02:35:19.17	17.11	19.90	-24.7	-25.9	18.2	1.13e-03	0	42	0	715128832	9	4135
2026-01-14 02:35:20.31	17.09	20.05	-24.7	-26.0	18.1	0.00e+00	0	42	0	721420288	9	4173
2026-01-14 02:35:21.17	17.08	20.16	-24.6	-25.8	18.2	1.13e-03	0	43	0	726663168	9	4132
2026-01-14 02:35:22.30	17.07	20.31	-24.6	-25.7	18.3	0.00e+00	0	43	0	732954624	9	4102
2026-01-14 02:35:23.16	17.06	20.42	-24.6	-25.7	18.3	6.98e-05	0	43	0	737148928	9	4089
2026-01-14 02:35:24.30	17.04	20.57	-24.6	-25.7	18.2	0.00e+00	0	42	0	743440384	9	4093
2026-01-14 02:35:25.16	17.03	20.69	-24.7	-25.9	18.1	1.23e-03	0	43	0	748683264	9	4156
2026-01-14 02:35:26.31	17.02	20.84	-24.5	-25.5	18.4	0.00e+00	0	43	0	754974720	9	4060
2026-01-14 02:35:27.16	17.00	20.96	-24.5	-25.5	18.3	0.00e+00	0	43	0	760217600	9	4058
2026-01-14 02:35:28.31	16.99	21.11	-24.5	-25.6	18.4	0.00e+00	0	42	0	766509056	9	4070
2026-01-14 02:35:29.17	16.98	21.23	-24.6	-25.8	18.3	2.05e-05	0	43	0	771751936	9	4117
2026-01-14 02:35:30.31	16.96	21.39	-24.4	-25.4	18.4	1.12e-03	0	43	0	778043392	9	4029
2026-01-14 02:35:31.17	16.95	21.51	-24.5	-25.6	18.4	1.26e-03	0	43	0	783286272	9	4060
2026-01-14 02:35:32.31	16.93	21.67	-24.6	-25.8	18.2	0.00e+00	0	43	0	788529152	9	4128
2026-01-14 02:35:33.17	16.92	21.79	-24.5	-25.6	18.3	1.28e-03	0	43	0	793772032	9	4066
2026-01-14 02:35:34.31	16.90	21.95	-24.4	-25.3	18.5	0.00e+00	0	43	0	800063488	9	4008
2026-01-14 02:35:35.17	16.89	22.07	-24.4	-25.3	18.5	6.17e-05	0	43	0	805306368	9	4002
2026-01-14 02:35:36.31	16.87	22.23	-24.4	-25.4	18.5	0.00e+00	0	43	0	811597824	9	4019
2026-01-14 02:35:37.17	16.86	22.35	-24.4	-25.4	18.5	0.00e+00	0	43	0	816840704	9	4025
2026-01-14 02:35:38.32	16.84	22.52	-24.5	-25.5	18.5	0.00e+00	0	43	0	823132160	9	4039
2026-01-14 02:35:39.18	16.83	22.64	-24.4	-25.3	18.5	0.00e+00	0	43	0	827326464	9	4012
2026-01-14 02:35:40.32	16.81	22.81	-24.4	-25.4	18.5	0.00e+00	0	43	0	834666496	9	4017
2026-01-14 02:35:41.18	16.80	22.93	-24.4	-25.4	18.5	0.00e+00	0	42	0	838860800	9	4010
2026-01-14 02:35:42.33	16.78	23.10	-24.4	-25.3	18.5	0.00e+00	0	43	0	845152256	9	4008
2026-01-14 02:35:43.18	16.76	23.23	-24.3	-25.6	18.6	0.00e+00	0	43	0	850395136	8	4188
2026-01-14 02:35:44.33	16.74	23.40	-24.3	-25.6	18.7	0.00e+00	0	42	0	856686592	8	4188
2026-01-14 02:35:45.19	16.73	23.52	-24.4	-25.8	18.6	0.00e+00	0	43	0	861929472	8	4228
2026-01-14 02:35:46.34	16.71	23.70	-24.2	-25.5	18.7	0.00e+00	0	43	0	868220928	8	4145
2026-01-14 02:35:47.20	16.70	23.83	-24.1	-25.3	18.9	3.54e-05	0	42	0	872415232	8	4095
2026-01-14 02:35:48.35	16.68	24.00	-24.0	-25.0	19.0	0.00e+00	0	43	0	879755264	8	4045
2026-01-14 02:35:49.21	16.66	24.13	-24.1	-25.1	18.9	0.00e+00	0	42	0	883949568	8	4062
2026-01-14 02:35:50.36	16.64	24.31	-24.2	-25.4	18.8	0.00e+00	0	42	0	890241024	8	4133
2026-01-14 02:35:51.21	16.63	24.44	-24.3	-25.6	18.7	0.00e+00	0	43	0	895483904	8	4190
2026-01-14 02:35:52.36	16.60	24.62	-24.2	-25.3	18.9	0.00e+00	0	42	0	901775360	8	4104
2026-01-14 02:35:53.22	16.59	24.76	-24.2	-25.3	18.8	0.00e+00	0	43	0	907018240	8	4116
2026-01-14 02:35:54.37	16.57	24.94	-24.2	-25.4	18.8	0.00e+00	0	43	0	913309696	8	4142
2026-01-14 02:35:55.23	16.55	25.07	-24.2	-25.4	18.8	0.00e+00	0	42	0	918552576	8	4125
2026-01-14 02:35:56.38	16.53	25.26	-24.2	-25.4	18.8	0.00e+00	0	43	0	924844032	8	4127
2026-01-14 02:35:57.24	16.51	25.39	-24.3	-25.6	18.7	0.00e+00	0	42	0	929038336	8	4188
2026-01-14 02:35:58.38	16.49	25.58	-24.3	-25.6	18.8	0.00e+00	0	43	0	935329792	8	4179
2026-01-14 02:35:59.24	16.47	25.72	-24.5	-25.6	18.5	0.00e+00	0	43	0	940572672	9	4058
2026-01-14 02:36:00.37	16.45	25.90	-24.3	-25.2	18.7	0.00e+00	0	43	0	946864128	9	3960
2026-01-14 02:36:01.24	16.43	26.05	-24.2	-24.9	18.8	0.00e+00	0	43	0	952107008	9	3912
2026-01-14 02:36:02.38	16.41	26.23	-24.1	-24.7	18.9	0.00e+00	0	43	0	958398464	9	3864
2026-01-14 02:36:03.25	16.39	26.38	-24.1	-25.2	19.0	0.00e+00	0	43	0	962592768	8	4084
2026-01-14 02:36:04.39	16.37	26.57	-24.1	-25.1	19.0	0.00e+00	0	43	0	969932800	8	4058
2026-01-14 02:36:05.25	16.35	26.71	-24.1	-25.2	19.0	0.00e+00	0	43	0	974127104	8	4070
2026-01-14 02:36:06.40	16.32	26.91	-24.0	-25.0	19.1	0.00e+00	0	43	0	980418560	8	4030
2026-01-14 02:36:07.26	16.30	27.06	-24.0	-25.1	19.1	0.00e+00	0	43	0	985661440	8	4048
2026-01-14 02:36:08.41	16.28	27.25	-23.9	-24.8	19.2	0.00e+00	0	43	0	991952896	8	3977
2026-01-14 02:36:09.26	16.26	27.40	-23.9	-24.8	19.2	0.00e+00	0	42	0	997195776	8	3985
2026-01-14 02:36:10.40	16.23	27.60	-24.0	-24.9	19.1	0.00e+00	0	43	0	1003487232	8	4021
2026-01-14 02:36:11.26	16.21	27.75	-23.8	-24.7	19.3	0.00e+00	0	43	0	1007681536	8	3952
2026-01-14 02:36:12.41	16.19	27.95	-23.9	-24.7	19.3	0.00e+00	0	43	0	1015021568	8	3957
2026-01-14 02:36:13.27	16.17	28.10	-24.0	-24.9	19.2	0.00e+00	0	43	0	1019215872	8	4008
2026-01-14 02:36:14.42	16.14	28.31	-23.9	-24.7	19.3	0.00e+00	0	43	0	1026555904	8	3962
2026-01-14 02:36:15.28	16.12	28.46	-23.9	-24.7	19.3	0.00e+00	0	43	0	1030750208	8	3964
2026-01-14 02:36:16.42	16.09	28.67	-24.0	-25.0	19.2	0.00e+00	0	43	0	1037041664	8	4020
2026-01-14 02:36:17.29	16.07	28.83	-24.2	-25.3	19.0	0.00e+00	0	43	0	1042284544	8	4101
2026-01-14 02:36:18.43	16.04	29.04	-24.3	-25.7	18.8	0.00e+00	0	43	0	1048576000	8	4194
2026-01-14 02:36:19.29	16.02	29.19	-24.2	-25.5	18.9	0.00e+00	0	43	0	1053818880	8	4152
2026-01-14 02:36:20.43	15.99	29.41	-24.2	-25.5	18.9	0.00e+00	0	43	0	1060110336	8	4150
2026-01-14 02:36:21.30	15.96	29.57	-24.2	-25.4	18.9	0.00e+00	0	43	0	1064304640	8	4146
2026-01-14 02:36:22.45	15.93	29.78	-24.1	-25.1	18.9	0.00e+00	0	43	0	1070596096	8	4069
2026-01-14 02:36:23.31	15.91	29.95	-24.1	-25.1	19.1	0.00e+00	0	43	0	1075838976	8	4060
2026-01-14 02:36:24.46	15.88	30.17	-24.0	-25.0	19.0	0.00e+00	0	43	0	1082130432	8	4036
2026-01-14 02:36:25.32	15.85	30.33	-24.1	-25.1	19.1	0.00e+00	0	43	0	1087373312	8	4068
2026-01-14 02:36:26.47	15.82	30.55	-23.9	-24.7	19.3	0.00e+00	0	43	0	1093664768	8	3970
2026-01-14 02:36:27.33	15.80	30.72	-23.8	-24.5	19.5	0.00e+00	0	43	0	1098907648	8	3901
2026-01-14 02:36:28.48	15.76	30.94	-23.7	-24.8	19.5	0.00e+00	0	43	0	1105199104	7	4086
2026-01-14 02:36:29.34	15.74	31.11	-23.7	-24.8	19.5	0.00e+00	0	43	0	1109393408	7	4105
2026-01-14 02:36:30.48	15.71	31.34	-23.9	-25.2	19.3	0.00e+00	0	43	0	1116733440	7	4194
2026-01-14 02:36:31.34	15.68	31.51	-23.9	-25.3	19.3	0.00e+00	0	43	0	1120927744	7	4214
2026-01-14 02:36:32.48	15.64	31.74	-23.9	-25.3	19.2	0.00e+00	0	43	0	1127219200	7	4225
2026-01-14 02:36:33.35	15.62	31.92	-24.0	-25.0	19.2	0.00e+00	0	43	0	1132462080	8	4034
2026-01-14 02:36:34.49	15.58	32.15	-24.0	-24.9	19.2	0.00e+00	0	43	0	1138753536	8	4009
2026-01-14 02:36:35.35	15.55	32.32	-24.0	-24.9	19.2	0.00e+00	0	43	0	1143996416	8	4009
2026-01-14 02:36:36.49	15.52	32.56	-24.0	-25.0	19.2	7.23e-04	0	43	0	1150287872	8	4027
2026-01-14 02:36:37.36	15.49	32.74	-24.1	-25.2	19.1	0.00e+00	0	43	0	1154482176	8	4071
2026-01-14 02:36:38.50	15.45	32.98	-23.9	-24.8	19.3	7.07e-04	0	43	0	1161822208	8	3979
2026-01-14 02:36:39.35	15.42	33.16	-23.8	-24.5	15.3	0.00e+00	0	43	0	1166016512	8	3917
2026-01-14 02:36:40.50	15.38	33.40	-23.7	-24.3	19.5	0.00e+00	0	43	0	1172307968	8	3859
2026-01-14 02:36:41.36	15.35	33.59	-23.7	-24.8	19.4	0.00e+00	0	43	0	1177550848	7	4089
2026-01-14 02:36:42.49	15.31	33.83	-23.7	-24.9	19.5	0.00e+00	0	43	0	1183842304	7	4108
2026-01-14 02:36:43.35	15.28	34.02	-23.6	-24.7	19.6	0.00e+00	0	43	0	1189085184	7	4072
2026-01-14 02:36:44.49	15.24	34.27	-23.7	-24.8	19.5	6.95e-04	0	43	0	1195376640	7	4087
2026-01-14 02:36:45.35	15.21	34.45	-23.7	-24.9	19.5	0.00e+00	0	43	0	1199570944	7	4123
2026-01-14 02:36:46.49	15.17	34.71	-23.5	-24.4	19.7	0.00e+00	0	43	0	1205862400	7	3990
2026-01-14 02:36:47.35	15.13	34.90	-23.3	-24.1	19.9	0.00e+00	0	43	0	1211105280	7	3922
2026-01-14 02:36:48.50	15.09	35.16	-23.4	-24.2	19.8	6.12e-04	0	43	0	1217396736	7	3957
2026-01-14 02:36:49.36	15.06	35.35	-23.5	-24.3	19.8	0.00e+00	0	43	0	1222639616	7	3983
2026-01-14 02:36:50.50	15.01	35.61	-23.3	-23.9	20.0	5.55e-04	0	43	0	1228931072	7	3885
2026-01-14 02:36:51.37	14.97	35.81	-23.2	-24.3	20.0	6.34e-04	0	43	0	1233125376	6	4093
2026-01-14 02:36:52.51	14.93	36.07	-23.3	-24.5	19.9	0.00e+00	0	43	0	1240465408	6	4124
2026-01-14 02:36:53.37	14.89	36.27	-23.3	-24.5	19.9	5.47e-04	0	43	0	1244659712	6	4140
2026-01-14 02:36:54.52	14.84	36.54	-23.3	-24.5	19.9	0.00e+00	0	43	0	1250951168	6	4137
2026-01-14 02:36:55.37	14.81	36.75	-23.4	-24.7	19.8	0.00e+00	0	43	0	1256194048	6	4173
2026-01-14 02:36:56.52	14.76	37.02	-23.3	-24.5	20.0	0.00e+00	0	43	0	1262485504	6	4126
2026-01-14 02:36:57.38	14.72	37.22	-23.3	-24.5	19.9	0.00e+00	0	43	0	1267728384	6	4141
2026-01-14 02:36:58.52	14.67	37.50	-23.4	-24.8	19.8	0.00e+00	0	43	0	1274019840	6	4209
2026-01-14 02:36:59.38	14.63	37.71	-23.6	-24.7	19.6	0.00e+00	0	43	0	1279262720	7	4070
2026-01-14 02:37:00.53	14.57	37.99	-23.5	-24.5	19.7	3.48e-04	0	43	0	1285554176	7	4026
2026-01-14 02:37:01.39	14.53	38.20	-23.2	-23.7	20.1	0.00e+00	0	43	0	1289748480	7	3841
2026-01-14 02:37:02.53	14.48	38.49	-22.9	-23.2	20.4	3.19e-04	0	43	0	1297088512	7	3711
2026-01-14 02:37:03.39	14.44	38.70	-22.8	-23.5	20.5	3.02e-04	0	43	0	1301282816	6	3895
2026-01-14 02:37:04.54	14.38	38.99	-22.9	-23.8	20.3	0.00e+00	0	43	0	1307574272	6	3956
2026-01-14 02:37:05.40	14.34	39.21	-23.0	-23.9	20.2	3.02e-04	0	43	0	1312817152	6	3996
2026-01-14 02:37:06.56	14.28	39.51	-23.2	-24.4	20.0	2.80e-04	0	43	0	1319108608	6	4108
2026-01-14 02:37:07.41	14.23	39.72	-23.3	-24.5	19.9	0.00e+00	0	43	0	1324351488	6	4140
2026-01-14 02:37:08.56	14.17	40.02	-23.5	-24.5	19.7	0.00e+00	0	43	0	1330642944	7	4019
2026-01-14 02:37:09.42	14.12	40.25	-23.6	-24.6	19.7	3.11e-04	0	43	0	1335885824	7	4043
2026-01-14 02:37:10.56	14.06	40.55	-23.7	-24.8	19.5	0.00e+00	0	43	0	1341128704	7	4103
2026-01-14 02:37:11.43	14.01	40.78	-23.8	-25.1	19.4	3.12e-04	0	43	0	1346371584	7	4182
2026-01-14 02:37:12.57	13.95	41.08	-24.1	-25.1	19.2	0.00e+00	0	43	0	1352663040	8	4066
2026-01-14 02:37:13.43	13.90	41.32	-24.1	-25.2	19.2	0.00e+00	0	43	0	1357905920	8	4076
2026-01-14 02:37:14.57	13.83	41.62	-24.2	-25.4	19.1	3.00e-04	0	43	0	1364197376	8	4122
2026-01-14 02:37:15.43	13.78	41.86	-24.0	-25.0	19.2	2.87e-04	0	43	0	1369440256	8	4031
2026-01-14 02:37:16.58	13.71	42.18	-23.7	-24.4	19.6	0.00e+00	0	43	0	1375731712	8	3879
2026-01-14 02:37:17.43	13.65	42.41	-23.7	-24.3	19.6	2.67e-04	0	43	0	1379926016	8	3872
2026-01-14 02:37:18.58	13.58	42.73	-23.8	-24.6	19.5	2.80e-04	0	43	0	1387266048	8	3931
2026-01-14 02:37:19.44	13.52	42.97	-23.8	-24.6	19.5	0.00e+00	0	43	0	1391460352	8	3925
2026-01-14 02:37:20.59	13.45	43.30	-23.8	-24.5	19.5	0.00e+00	0	43	0	1397751808	8	3900
2026-01-14 02:37:21.45	13.39	43.55	-23.7	-24.3	19.6	1.50e-04	0	43	0	1402994688	8	3868
2026-01-14 02:37:22.60	13.31	43.88	-23.9	-24.7	19.4	0.00e+00	0	43	0	1409286144	8	3948
2026-01-14 02:37:23.45	13.25	44.12	-23.9	-24.7	19.4	1.07e-04	0	43	0	1414529024	8	3950
2026-01-14 02:37:24.60	13.17	44.46	-23.8	-24.6	19.5	0.00e+00	0	43	0	1420820480	8	3925
2026-01-14 02:37:25.46	13.11	44.71	-23.8	-24.5	19.5	0.00e+00	0	43	0	1425014784	8	3919
2026-01-14 02:37:26.61	13.02	45.05	-23.9	-24.8	19.4	0.00e+00	0	43	0	1432354816	8	3987
2026-01-14 02:37:27.47	12.96	45.31	-23.8	-24.6	19.5	0.00e+00	0	43	0	1436549120	8	3941
2026-01-14 02:37:28.61	12.87	45.65	-23.8	-24.5	19.5	0.00e+00	0	43	0	1442840576	8	3922
2026-01-14 02:37:29.48	12.80	45.92	-23.9	-24.8	19.4	0.00e+00	0	43	0	1448083456	8	3976
2026-01-14 02:37:30.63	12.71	46.27	-23.9	-24.8	19.4	0.00e+00	0	43	0	1454374912	8	3990
2026-01-14 02:37:31.49	12.64	46.53	-23.9	-24.7	19.5	0.00e+00	0	43	0	1459617792	8	3953
2026-01-14 02:37:32.64	12.54	46.89	-23.6	-24.2	19.7	0.00e+00	0	43	0	1465909248	8	3836
2026-01-14 02:37:33.50	12.47	47.15	-23.6	-24.1	19.7	1.27e-04	0	43	0	1471152128	8	3814
2026-01-14 02:37:34.64	12.37	47.51	-23.6	-24.2	19.7	0.00e+00	0	43	0	1477443584	8	3838
2026-01-14 02:37:35.50	12.29	47.78	-23.6	-24.1	19.8	1.27e-04	0	43	0	1481637888	8	3816
2026-01-14 02:37:36.65	12.19	48.15	-23.8	-24.5	19.5	0.00e+00	0	43	0	1487929344	8	3913
2026-01-14 02:37:37.51	12.11	48.43	-24.0	-24.9	19.3	0.00e+00	0	43	0	1493172224	8	4008
2026-01-14 02:37:38.65	12.00	48.80	-24.1	-25.1	19.2	0.00e+00	0	43	0	1499463680	8	4060
2026-01-14 02:37:39.51	11.91	49.08	-24.0	-25.1	19.3	0.00e+00	0	43	0	1504706560	8	4048
2026-01-14 02:37:40.66	11.80	49.45	-24.0	-24.9	19.3	0.00e+00	0	43	0	1510998016	8	4009
2026-01-14 02:37:41.52	11.71	49.74	-24.2	-25.3	19.1	0.00e+00	0	43	0	1516240896	8	4096
2026-01-14 02:37:42.66	11.59	50.12	-24.4	-25.9	18.8	0.00e+00	0	43	0	1522532352	8	4253
2026-01-14 02:37:43.52	11.50	50.40	-24.6	-25.8	18.6	0.00e+00	0	43	0	1527775232	9	4119
2026-01-14 02:37:44.66	11.38	50.79	-24.5	-25.6	18.7	0.00e+00	0	43	0	1533018112	9	4057
2026-01-14 02:37:45.53	11.28	51.08	-24.4	-25.4	18.8	0.00e+00	0	43	0	1538260992	9	4012
2026-01-14 02:37:46.67	11.15	51.47	-24.4	-25.3	18.9	0.00e+00	0	43	0	1544552448	9	3997
2026-01-14 02:37:47.53	11.05	51.77	-24.5	-25.6	18.7	0.00e+00	0	43	0	1549795328	9	4052
2026-01-14 02:37:48.68	10.91	52.17	-25.0	-26.5	18.2	0.00e+00	0	43	0	1556086784	9	4299
2026-01-14 02:37:49.53	10.81	52.47	-25.3	-26.7	17.9	0.00e+00	0	43	0	1561329664	10	4222
2026-01-14 02:37:50.67	10.67	52.87	-25.3	-26.6	18.0	0.00e+00	0	43	0	1567621120	10	4204
2026-01-14 02:37:51.53	10.56	53.17	-24.9	-25.9	18.3	0.00e+00	0	43	0	1571815424	10	4033
2026-01-14 02:37:52.67	10.41	53.58	-24.8	-25.6	18.5	0.00e+00	0	43	0	1579155456	10	3955
2026-01-14 02:37:53.53	10.29	53.88	-24.9	-25.9	18.3	0.00e+00	0	43	0	1583349760	10	4033
2026-01-14 02:37:54.67	10.13	54.30	-25.5	-26.7	17.7	0.00e+00	0	43	0	1589641216	11	4121
2026-01-14 02:37:55.53	10.01	54.61	-25.9	-27.6	17.2	0.00e+00	0	43	0	1594884096	11	4352
2026-01-14 02:37:56.67	9.84	55.02	-25.3	-26.2	17.9	0.00e+00	0	43	0	1601175552	11	4004
2026-01-14 02:37:57.53	9.71	55.34	-24.9	-25.4	18.3	0.00e+00	0	43	0	1606418432	11	3802
2026-01-14 02:37:58.67	9.54	55.76	-25.4	-26.4	17.8	0.00e+00	0	43	0	1612709888	11	4034
2026-01-14 02:37:59.54	9.40	56.09	-25.6	-26.9	17.5	0.00e+00	0	43	0	1616904192	11	4177
2026-01-14 02:38:00.68	9.21	56.52	-25.2	-26.0	18.0	0.00e+00	0	43	0	1624244224	11	3958
2026-01-14 02:38:01.55	9.07	56.84	-24.9	-25.4	18.3	0.00e+00	0	43	0	1628438528	11	3812
2026-01-14 02:38:02.69	8.87	57.28	-24.6	-25.3	18.6	0.00e+00	0	43	0	1634729984	10	3884
2026-01-14 02:38:03.55	8.72	57.60	-24.5	-25.4	18.8	0.00e+00	0	43	0	1639972864	9	4024
2026-01-14 02:38:04.69	8.51	58.04	-24.3	-25.1	19.0	0.00e+00	0	43	0	1646264320	9	3952
2026-01-14 02:38:05.55	8.35	58.38	-24.5	-25.4	18.8	0.00e+00	0	43	0	1651507200	9	4016
2026-01-14 02:38:06.69	8.13	58.82	-24.5	-25.6	18.7	0.00e+00	0	43	0	1657798656	9	4059
2026-01-14 02:38:07.55	7.95	59.15	-24.3	-25.1	19.0	0.00e+00	0	43	0	1661992960	9	3947
2026-01-14 02:38:08.69	7.72	59.60	-24.0	-24.4	19.3	0.00e+00	0	43	0	1668284416	9	3793
2026-01-14 02:38:09.55	7.54	59.94	-23.7	-24.3	19.7	0.00e+00	0	43	0	1673527296	8	3860
2026-01-14 02:38:10.69	7.29	60.40	-23.8	-24.5	19.5	0.00e+00	0	43	0	1679818752	8	3910
2026-01-14 02:38:11.55	7.09	60.74	-23.9	-24.8	19.4	0.00e+00	0	43	0	1685061632	8	3974
2026-01-14 02:38:12.69	6.83	61.20	-24.2	-25.5	19.1	0.00e+00	0	43	0	1691353088	8	4148
2026-01-14 02:38:13.55	6.62	61.54	-24.2	-25.5	19.1	0.00e+00	0	43	0	1695547392	8	4153
2026-01-14 02:38:14.69	6.33	62.01	-24.0	-24.9	19.4	0.00e+00	0	43	0	1702887424	8	4009
2026-01-14 02:38:15.55	6.11	62.36	-24.0	-25.1	19.2	0.00e+00	0	43	0	1707081728	8	4052
2026-01-14 02:38:16.69	5.81	62.82	-24.2	-25.5	19.0	0.00e+00	0	43	0	1713373184	8	4155
2026-01-14 02:38:17.55	5.57	63.18	-23.9	-24.7	19.4	0.00e+00	0	43	0	1718616064	8	3959
2026-01-14 02:38:18.70	5.24	63.65	-23.6	-24.0	19.8	0.00e+00	0	43	0	1724907520	8	3801
2026-01-14 02:38:19.56	4.99	64.01	-23.7	-24.3	19.6	0.00e+00	0	43	0	1730150400	8	3870
2026-01-14 02:38:20.72	4.63	64.49	-24.1	-25.2	19.1	0.00e+00	0	43	0	1736441856	8	4094
2026-01-14 02:38:21.58	4.35	64.85	-23.9	-24.7	19.4	0.00e+00	0	43	0	1741684736	8	3957
2026-01-14 02:38:22.73	3.97	65.34	-23.2	-23.7	20.2	0.00e+00	0	43	0	1747976192	7	3837
2026-01-14 02:38:23.59	3.67	65.70	-23.4	-24.1	20.0	0.00e+00	0	43	0	1752170496	7	3925
2026-01-14 02:38:24.73	3.27	66.18	-23.7	-25.0	19.5	0.00e+00	0	43	0	1759510528	7	4138
2026-01-14 02:38:25.59	2.94	66.55	-23.5	-24.5	19.7	0.00e+00	0	43	0	1763704832	7	4022
2026-01-14 02:38:26.74	2.50	67.04	-22.9	-23.6	20.5	0.00e+00	0	43	0	1769996288	6	3921
2026-01-14 02:38:27.60	2.15	67.40	-22.5	-22.9	20.8	0.00e+00	0	43	0	1775239168	6	3753
2026-01-14 02:38:28.74	1.67	67.89	-22.5	-23.4	20.7	0.00e+00	0	43	0	1781530624	5	3990
2026-01-14 02:38:29.61	1.28	68.26	-22.4	-23.2	20.9	0.00e+00	0	43	0	1786773504	5	3940
2026-01-14 02:38:30.76	0.76	68.76	-22.4	-23.1	20.9	0.00e+00	0	43	0	1793064960	5	3900
2026-01-14 02:38:31.61	0.35	69.12	-22.4	-23.2	20.9	0.00e+00	0	43	0	1797259264	5	3937
2026-01-14 02:38:32.76	359.77	69.62	-22.4	-23.2	20.9	7.31e-04	0	43	0	1803550720	5	3929
2026-01-14 02:38:33.62	359.32	69.99	-22.4	-23.2	20.9	0.00e+00	0	43	0	1808793600	5	3939
2026-01-14 02:38:34.77	358.68	70.49	-22.5	-23.4	20.8	6.91e-04	0	43	0	1815085056	5	3966
2026-01-14 02:38:35.63	358.18	70.86	-22.3	-23.0	17.3	0.00e+00	0	43	0	1820327936	5	3894
2026-01-14 02:38:36.76	357.50	71.34	-22.3	-22.8	21.1	0.00e+00	0	43	0	1826619392	5	3854
2026-01-14 02:38:37.62	356.95	71.72	-22.1	-22.6	21.2	0.00e+00	0	43	0	1831862272	5	3800
2026-01-14 02:38:38.77	356.18	72.21	-22.1	-22.5	21.3	1.94e-04	0	43	0	1838153728	5	3770
2026-01-14 02:38:39.63	355.57	72.58	-22.1	-22.5	21.2	0.00e+00	0	43	0	1842348032	5	3777
2026-01-14 02:38:40.78	354.71	73.07	-22.2	-22.8	21.1	0.00e+00	0	43	0	1849688064	5	3842
2026-01-14 02:38:41.64	354.04	73.44	-22.3	-23.0	21.0	0.00e+00	0	43	0	1853882368	5	3894
2026-01-14 02:38:42.79	353.08	73.93	-22.4	-23.2	20.9	0.00e+00	0	43	0	1860173824	5	3933
2026-01-14 02:38:43.65	352.33	74.30	-22.7	-23.7	20.7	0.00e+00	0	43	0	1865416704	5	4060
2026-01-14 02:38:44.79	351.27	74.78	-22.2	-22.8	21.1	5.81e-04	0	43	0	1871708160	5	3842
2026-01-14 02:38:45.65	350.43	75.14	-21.8	-22.0	21.5	0.00e+00	0	43	0	1876951040	5	3661
2026-01-14 02:38:46.80	349.23	75.62	-22.1	-23.1	21.2	4.27e-04	0	43	0	1883242496	4	4019
2026-01-14 02:38:47.66	348.27	75.97	-21.9	-22.6	21.4	0.00e+00	0	43	0	1887436800	4	3904
2026-01-14 02:38:48.80	346.93	76.44	-21.5	-21.8	21.8	0.00e+00	0	43	0	1894776832	4	3718
2026-01-14 02:38:49.66	345.86	76.78	-21.4	-22.1	21.9	3.20e-04	0	43	0	1898971136	3	3898
2026-01-14 02:38:50.81	344.32	77.24	-21.4	-22.1	22.0	3.43e-04	0	43	0	1905262592	3	3888
2026-01-14 02:38:51.66	343.11	77.57	-21.3	-22.0	22.0	0.00e+00	0	43	0	1910505472	3	3869
2026-01-14 02:38:52.81	341.37	78.02	-21.3	-21.9	22.0	1.54e-04	0	43	0	1916796928	3	3844
2026-01-14 02:38:53.67	339.98	78.34	-21.2	-21.7	22.2	8.69e-05	0	43	0	1922039808	3	3798
2026-01-14 02:38:54.81	338.01	78.76	-21.3	-21.8	22.1	0.00e+00	0	43	0	1928331264	3	3841
2026-01-14 02:38:55.68	336.40	79.07	-21.2	-21.6	22.2	0.00e+00	0	43	0	1933574144	3	3793
2026-01-14 02:38:56.83	334.13	79.47	-20.6	-21.0	22.7	0.00e+00	0	43	0	1939865600	2	3754
2026-01-14 02:38:57.69	332.32	79.76	-20.8	-21.3	22.6	0.00e+00	0	43	0	1944059904	2	3821
2026-01-14 02:38:58.83	329.75	80.12	-20.7	-21.1	22.7	1.18e-04	0	43	0	1950351360	2	3777
2026-01-14 02:38:59.69	327.68	80.38	-20.6	-20.9	22.7	0.00e+00	0	43	0	1955594240	2	3736
2026-01-14 02:39:00.84	324.74	80.71	-20.6	-21.0	22.7	0.00e+00	0	43	0	1961885696	2	3747
2026-01-14 02:39:01.70	322.41	80.94	-20.6	-21.0	22.7	0.00e+00	0	43	0	1967128576	2	3752
2026-01-14 02:39:02.84	319.12	81.23	-20.9	-21.6	22.4	1.71e-05	0	43	0	1973420032	2	3900
2026-01-14 02:39:03.70	316.51	81.42	-20.5	-20.7	22.8	0.00e+00	0	43	0	1977614336	2	3703
2026-01-14 02:39:04.84	312.87	81.64	-20.3	-20.8	22.9	1.10e-06	0	43	0	1984954368	1	3822
2026-01-14 02:39:05.71	309.96	81.79	-20.7	-21.7	22.6	1.54e-04	0	43	0	1989148672	1	4016
2026-01-14 02:39:06.85	305.99	81.96	-20.8	-21.9	22.5	0.00e+00	0	43	0	1995440128	1	4081
2026-01-14 02:39:07.71	302.90	82.05	-20.9	-22.1	22.4	2.83e-04	0	43	0	2000683008	1	4118
2026-01-14 02:39:08.87	298.64	82.15	-21.0	-21.8	22.3	0.00e+00	0	43	0	2006974464	2	3934
2026-01-14 02:39:09.73	295.42	82.19	-21.1	-21.9	22.3	0.00e+00	0	43	0	2012217344	2	3963
2026-01-14 02:39:10.87	291.12	82.20	-21.4	-22.5	21.9	0.00e+00	0	43	0	2018508800	2	4117
2026-01-14 02:39:11.73	287.87	82.19	-21.1	-21.9	22.2	3.39e-04	0	43	0	2023751680	2	3971
2026-01-14 02:39:12.89	283.54	82.13	-21.1	-21.9	22.2	0.00e+00	0	43	0	2030043136	2	3958
2026-01-14 02:39:13.75	280.38	82.05	-21.4	-22.6	21.9	0.00e+00	0	43	0	2034237440	2	4128
2026-01-14 02:39:14.90	276.27	81.92	-21.4	-22.1	21.9	0.00e+00	0	43	0	2041577472	3	3900
2026-01-14 02:39:15.76	273.30	81.79	-22.1	-23.1	21.2	0.00e+00	0	43	0	2045771776	4	4014
2026-01-14 02:39:16.91	269.48	81.59	-21.7	-22.1	21.6	7.04e-04	0	43	0	2052063232	4	3786
2026-01-14 02:39:17.77	266.75	81.41	-21.2	-21.6	22.1	5.50e-04	0	43	0	2057306112	3	3786
2026-01-14 02:39:18.91	263.32	81.15	-21.0	-21.3	22.3	0.00e+00	0	43	0	2063597568	3	3710
2026-01-14 02:39:19.77	260.86	80.94	-20.7	-21.2	22.5	1.14e-03	0	43	0	2068840448	2	3810
2026-01-14 02:39:20.92	257.76	80.63	-20.4	-20.6	22.8	0.00e+00	0	43	0	2075131904	2	3672
2026-01-14 02:39:21.77	255.61	80.38	-20.5	-20.7	22.7	0.00e+00	0	43	0	2080374784	2	3701
2026-01-14 02:39:22.91	252.90	80.03	-20.7	-21.1	22.5	0.00e+00	0	43	0	2085617664	2	3791
2026-01-14 02:39:23.77	250.98	79.75	-20.8	-21.4	22.4	0.00e+00	0	43	0	2090860544	2	3852
2026-01-14 02:39:24.92	248.58	79.37	-20.7	-21.2	22.5	0.00e+00	0	43	0	2097152000	2	3814
2026-01-14 02:39:25.78	246.90	79.07	-20.8	-21.3	22.4	0.00e+00	0	43	0	2102394880	2	3828
2026-01-14 02:39:26.93	244.79	78.65	-20.7	-21.2	22.5	0.00e+00	0	43	0	2108686336	2	3805
2026-01-14 02:39:27.78	243.34	78.34	-20.7	-21.2	22.5	0.00e+00	0	43	0	2113929216	2	3804
2026-01-14 02:39:28.93	241.49	77.90	-20.8	-21.4	22.4	0.00e+00	0	43	0	2120220672	2	3843
2026-01-14 02:39:29.79	240.20	77.57	-20.8	-21.4	22.4	0.00e+00	0	43	0	2124414976	2	3853
2026-01-14 02:39:30.93	238.60	77.12	-20.8	-21.4	22.4	0.00e+00	0	43	0	2131755008	2	3836
2026-01-14 02:39:31.78	237.47	76.78	-21.2	-22.1	22.0	0.00e+00	0	43	0	2135949312	2	4020
2026-01-14 02:39:32.92	236.06	76.32	-21.1	-22.1	22.0	0.00e+00	0	43	0	2142240768	2	4006
2026-01-14 02:39:33.78	235.05	75.97	-21.1	-21.9	22.1	0.00e+00	0	43	0	2147483648	2	3969
2026-01-14 02:39:34.92	233.80	75.50	-21.5	-22.8	21.7	0.00e+00	0	43	0	2153775104	2	4172
2026-01-14 02:39:35.78	232.91	75.14	-21.5	-22.4	21.7	0.00e+00	0	43	0	2159017984	3	3965
2026-01-14 02:39:36.92	231.79	74.66	-21.7	-22.8	21.5	0.00e+00	0	43	0	2165309440	3	4057
2026-01-14 02:39:37.78	231.00	74.30	-21.7	-22.6	21.5	0.00e+00	0	43	0	2169503744	3	4016
2026-01-14 02:39:38.92	230.01	73.81	-21.9	-23.1	21.3	0.00e+00	0	43	0	2176843776	3	4145
2026-01-14 02:39:39.78	229.30	73.44	-21.8	-22.9	21.3	0.00e+00	0	43	0	2181038080	3	4099
2026-01-14 02:39:40.92	228.41	72.96	-21.9	-23.1	21.3	0.00e+00	0	43	0	2187329536	3	4128
2026-01-14 02:39:41.79	227.76	72.58	-22.0	-22.9	21.1	0.00e+00	0	43	0	2192572416	4	3986
2026-01-14 02:39:42.93	226.96	72.09	-21.9	-22.7	21.2	0.00e+00	0	43	0	2198863872	4	3932
2026-01-14 02:39:43.78	226.39	71.72	-21.8	-22.3	21.3	0.00e+00	0	43	0	2204106752	4	3847
2026-01-14 02:39:44.93	225.66	71.23	-21.8	-22.4	21.3	0.00e+00	0	43	0	2210398208	4	3873
2026-01-14 02:39:45.80	225.14	70.85	-22.0	-22.9	21.1	0.00e+00	0	43	0	2214592512	4	3967
2026-01-14 02:39:46.94	224.48	70.36	-22.4	-23.7	20.7	0.00e+00	0	43	0	2220883968	4	4174
2026-01-14 02:39:47.80	224.01	69.99	-22.3	-23.6	20.7	0.00e+00	0	43	0	2226126848	4	4135
2026-01-14 02:39:48.94	223.41	69.49	-22.5	-23.4	20.6	0.00e+00	0	43	0	2232418304	5	3985
2026-01-14 02:39:49.81	222.98	69.12	-22.9	-24.2	20.2	0.00e+00	0	43	0	2237661184	5	4179
2026-01-14 02:39:50.95	222.43	68.63	-22.3	-23.0	20.8	0.00e+00	0	43	0	2243952640	5	3895
2026-01-14 02:39:51.80	222.04	68.26	-22.0	-22.3	21.1	0.00e+00	0	43	0	2248146944	5	3721
2026-01-14 02:39:52.95	221.54	67.77	-22.3	-23.4	20.8	0.00e+00	0	43	0	2255486976	4	4101
2026-01-14 02:39:53.81	221.18	67.40	-22.4	-23.7	20.7	0.00e+00	0	43	0	2259681280	4	4171
2026-01-14 02:39:54.94	220.72	66.91	-22.1	-23.1	21.0	0.00e+00	0	43	0	2265972736	4	4025
2026-01-14 02:39:55.80	220.39	66.55	-22.1	-23.0	21.0	0.00e+00	0	43	0	2271215616	4	3995
2026-01-14 02:39:56.95	219.96	66.06	-22.6	-23.6	20.5	0.00e+00	0	43	0	2277507072	5	4023
2026-01-14 02:39:57.81	219.65	65.69	-22.5	-23.3	20.6	0.00e+00	0	43	0	2282749952	5	3967
2026-01-14 02:39:58.96	219.25	65.21	-22.1	-22.6	21.0	0.00e+00	0	43	0	2289041408	5	3800
2026-01-14 02:39:59.82	218.97	64.85	-22.3	-23.5	20.8	0.00e+00	0	43	0	2294284288	4	4111
2026-01-14 02:40:00.97	218.60	64.36	-22.5	-23.4	20.5	0.00e+00	0	43	0	2300575744	5	3996
2026-01-14 02:40:01.83	218.34	64.00	-22.6	-23.6	20.5	0.00e+00	0	43	0	2304770048	5	4027
2026-01-14 02:40:02.98	218.00	63.53	-22.5	-23.4	20.6	0.00e+00	0	43	0	2312110080	5	3994
2026-01-14 02:40:03.84	217.75	63.17	-22.5	-23.3	20.6	0.00e+00	0	43	0	2316304384	5	3972
2026-01-14 02:40:04.98	217.44	62.70	-22.6	-23.5	20.5	0.00e+00	0	43	0	2322595840	5	4009
2026-01-14 02:40:05.84	217.21	62.35	-22.6	-23.5	20.5	0.00e+00	0	43	0	2327838720	5	4000
2026-01-14 02:40:06.98	216.92	61.88	-22.7	-23.8	20.4	0.00e+00	0	43	0	2334130176	5	4079
2026-01-14 02:40:07.84	216.70	61.53	-22.8	-24.0	20.3	0.00e+00	0	43	0	2339373056	5	4125
2026-01-14 02:40:08.99	216.42	61.07	-22.7	-23.8	20.4	0.00e+00	0	43	0	2345664512	5	4080
2026-01-14 02:40:09.85	216.22	60.72	-22.6	-23.7	20.4	0.00e+00	0	43	0	2349858816	5	4046
2026-01-14 02:40:11.00	215.96	60.26	-22.9	-24.2	20.2	0.00e+00	0	43	0	2356150272	5	4176
2026-01-14 02:40:11.86	215.78	59.92	-23.0	-24.0	20.1	0.00e+00	0	43	0	2361393152	6	4004
2026-01-14 02:40:13.01	215.53	59.46	-23.2	-24.2	19.9	0.00e+00	0	43	0	2367684608	6	4075
2026-01-14 02:40:13.87	215.36	59.12	-23.4	-24.8	19.7	0.00e+00	0	43	0	2372927488	6	4215
2026-01-14 02:40:15.01	215.13	58.68	-23.7	-24.9	19.3	0.00e+00	0	43	0	2379218944	7	4131
2026-01-14 02:40:15.87	214.96	58.34	-23.9	-25.2	19.2	0.00e+00	0	43	0	2384461824	7	4206
2026-01-14 02:40:17.02	214.75	57.90	-24.2	-25.3	18.9	0.00e+00	0	43	0	2390753280	8	4117
2026-01-14 02:40:17.88	214.59	57.56	-24.3	-25.5	18.8	0.00e+00	0	43	0	2395996160	8	4161
2026-01-14 02:40:19.03	214.39	57.12	-24.3	-25.7	18.7	1.13e-03	0	43	0	2402287616	8	4199
2026-01-14 02:40:19.89	214.24	56.80	-24.2	-25.5	18.9	0.00e+00	0	43	0	2406481920	8	4151
2026-01-14 02:40:21.05	214.04	56.36	-24.3	-25.5	18.8	3.31e-05	0	43	0	2412773376	8	4168
2026-01-14 02:40:21.90	213.91	56.04	-24.4	-25.9	18.6	0.00e+00	0	43	0	2418016256	8	4266
2026-01-14 02:40:23.05	213.72	55.61	-24.2	-25.4	18.9	0.00e+00	0	43	0	2424307712	8	4136
2026-01-14 02:40:23.91	213.59	55.29	-24.0	-25.0	19.1	0.00e+00	0	43	0	2429550592	8	4035
2026-01-14 02:40:25.06	213.42	54.87	-23.9	-24.7	19.3	0.00e+00	0	43	0	2435842048	8	3947
2026-01-14 02:40:25.92	213.29	54.55	-24.0	-25.0	19.1	0.00e+00	0	43	0	2441084928	8	4040
2026-01-14 02:40:27.06	213.13	54.14	-24.1	-25.3	18.9	0.00e+00	0	43	0	2447376384	8	4112
2026-01-14 02:40:27.91	213.01	53.83	-24.2	-25.5	18.8	0.00e+00	0	43	0	2451570688	8	4164
2026-01-14 02:40:29.06	212.86	53.42	-24.2	-25.5	18.8	0.00e+00	0	43	0	2457862144	8	4148
2026-01-14 02:40:29.92	212.74	53.11	-24.2	-25.4	18.9	0.00e+00	0	43	0	2463105024	8	4143
2026-01-14 02:40:31.07	212.60	52.70	-24.2	-25.4	18.8	6.58e-04	0	43	0	2469396480	8	4133
2026-01-14 02:40:31.93	212.49	52.40	-24.0	-25.0	19.1	0.00e+00	0	43	0	2474639360	8	4026
2026-01-14 02:40:33.08	212.35	52.00	-24.0	-24.9	19.1	4.34e-05	0	43	0	2480930816	8	4013
2026-01-14 02:40:33.94	212.25	51.70	-24.0	-25.0	19.1	0.00e+00	0	43	0	2486173696	8	4034
2026-01-14 02:40:35.08	212.11	51.30	-23.7	-24.4	19.3	6.35e-04	0	43	0	2492465152	8	3890
2026-01-14 02:40:35.94	212.02	51.01	-23.4	-24.3	19.6	5.70e-06	0	43	0	2496659456	7	3977
2026-01-14 02:40:37.09	211.89	50.62	-23.3	-23.9	19.8	6.10e-04	0	43	0	2503999488	7	3876
2026-01-14 02:40:37.95	211.79	50.33	-23.5	-24.3	19.6	5.86e-04	0	43	0	2508193792	7	3977
2026-01-14 02:40:39.09	211.67	49.95	-23.2	-23.9	19.8	1.37e-05	0	43	0	2514485248	7	3876
2026-01-14 02:40:39.94	211.58	49.66	-23.2	-24.3	19.9	3.73e-04	0	43	0	2519728128	6	4087
2026-01-14 02:40:41.08	211.47	49.28	-23.3	-24.5	19.7	3.67e-04	0	43	0	2526019584	6	4156
2026-01-14 02:40:41.95	211.38	49.00	-23.3	-24.6	19.7	0.00e+00	0	43	0	2531262464	6	4162
2026-01-14 02:40:43.09	211.27	48.63	-23.1	-24.1	19.9	3.60e-04	0	43	0	2537553920	6	4048
2026-01-14 02:40:43.95	211.19	48.35	-23.0	-23.9	20.0	0.00e+00	0	43	0	2541748224	6	3986
2026-01-14 02:40:45.10	211.08	47.98	-23.1	-24.2	19.9	5.70e-06	0	43	0	2548039680	6	4063
2026-01-14 02:40:45.96	211.00	47.70	-23.2	-24.3	19.8	0.00e+00	0	43	0	2553282560	6	4097
2026-01-14 02:40:47.12	210.90	47.34	-23.4	-24.8	19.6	2.99e-04	0	43	0	2559574016	6	4203
2026-01-14 02:40:47.98	210.83	47.07	-23.3	-24.6	19.7	0.00e+00	0	43	0	2564816896	6	4165
2026-01-14 02:40:49.13	210.73	46.71	-23.3	-24.4	19.8	2.92e-04	0	43	0	2571108352	6	4123
2026-01-14 02:40:49.98	210.66	46.44	-23.3	-24.5	19.7	3.12e-04	0	43	0	2576351232	6	4142
2026-01-14 02:40:51.13	210.56	46.09	-23.2	-24.3	19.8	0.00e+00	0	43	0	2582642688	6	4089
2026-01-14 02:40:51.98	210.49	45.83	-23.2	-24.3	19.8	3.03e-04	0	43	0	2586836992	6	4100
2026-01-14 02:40:53.12	210.40	45.48	-23.2	-24.3	19.8	0.00e+00	0	43	0	2594177024	6	4094
2026-01-14 02:40:53.98	210.34	45.22	-23.3	-24.5	19.7	0.00e+00	0	43	0	2598371328	6	4151
2026-01-14 02:40:55.13	210.25	44.88	-23.3	-24.4	19.7	0.00e+00	0	43	0	2604662784	6	4125
2026-01-14 02:40:55.98	210.19	44.63	-23.3	-24.6	19.6	3.12e-04	0	43	0	2609905664	6	4174
2026-01-14 02:40:57.13	210.10	44.29	-23.3	-24.6	19.6	0.00e+00	0	43	0	2616197120	6	4178
2026-01-14 02:40:57.99	210.04	44.04	-23.4	-24.8	19.6	2.43e-04	0	43	0	2621440000	6	4209
2026-01-14 02:40:59.13	209.96	43.71	-23.3	-24.6	19.6	2.06e-04	0	43	0	2627731456	6	4166
2026-01-14 02:40:59.99	209.90	43.46	-23.3	-24.5	19.7	0.00e+00	0	43	0	2631925760	6	4142
2026-01-14 02:41:01.14	209.83	43.13	-23.4	-24.8	19.5	1.52e-04	0	43	0	2639265792	6	4216
2026-01-14 02:41:02.00	209.77	42.88	-23.2	-24.4	19.7	1.25e-04	0	43	0	2643460096	6	4103
2026-01-14 02:41:03.15	209.69	42.56	-23.4	-24.8	19.5	0.00e+00	0	43	0	2649751552	6	4210
2026-01-14 02:41:04.01	209.64	42.32	-23.2	-24.3	19.8	1.72e-04	0	43	0	2654994432	6	4095
2026-01-14 02:41:05.16	209.57	42.00	-23.1	-24.2	19.8	0.00e+00	0	43	0	2661285888	6	4063
2026-01-14 02:41:06.03	209.51	41.76	-23.1	-24.2	19.8	0.00e+00	0	43	0	2666528768	6	4070
2026-01-14 02:41:07.18	209.44	41.44	-23.0	-24.0	19.9	0.00e+00	0	43	0	2672820224	6	4030
2026-01-14 02:41:08.03	209.39	41.21	-23.1	-24.1	19.9	2.46e-04	0	43	0	2678063104	6	4047
2026-01-14 02:41:09.18	209.33	40.90	-23.2	-24.2	19.8	0.00e+00	0	43	0	2684354560	6	4072
2026-01-14 02:41:10.04	209.28	40.67	-23.3	-24.4	19.7	0.00e+00	0	43	0	2688548864	6	4119
2026-01-14 02:41:11.19	209.21	40.37	-23.0	-23.9	20.0	0.00e+00	0	43	0	2694840320	6	3990
2026-01-14 02:41:12.05	209.17	40.14	-22.9	-23.7	20.0	0.00e+00	0	43	0	2700083200	6	3950
2026-01-14 02:41:13.20	209.10	39.84	-23.0	-23.8	20.0	0.00e+00	0	43	0	2706374656	6	3968
2026-01-14 02:41:14.06	209.06	39.62	-22.9	-23.8	20.0	0.00e+00	0	43	0	2711617536	6	3966
2026-01-14 02:41:15.21	209.00	39.32	-23.1	-24.2	19.8	0.00e+00	0	43	0	2717908992	6	4062
2026-01-14 02:41:16.06	208.95	39.10	-22.9	-23.7	20.0	6.67e-04	0	43	0	2722103296	6	3946
2026-01-14 02:41:17.21	208.89	38.81	-22.8	-23.4	20.2	0.00e+00	0	43	0	2729443328	6	3889
2026-01-14 02:41:18.07	208.85	38.59	-22.8	-23.4	20.2	0.00e+00	0	43	0	2733637632	6	3886
2026-01-14 02:41:19.21	208.79	38.31	-22.8	-23.4	20.2	0.00e+00	0	43	0	2739929088	6	3889
2026-01-14 02:41:20.07	208.75	38.09	-22.9	-23.7	20.0	6.77e-04	0	43	0	2745171968	6	3946
2026-01-14 02:41:21.21	208.70	37.81	-22.7	-23.3	20.2	0.00e+00	0	43	0	2751463424	6	3847
2026-01-14 02:41:22.07	208.66	37.60	-22.6	-23.6	20.3	0.00e+00	0	43	0	2756706304	5	4043
2026-01-14 02:41:23.22	208.61	37.32	-22.6	-23.6	20.3	0.00e+00	0	43	0	2762997760	5	4040
2026-01-14 02:41:24.08	208.57	37.11	-22.5	-23.4	20.5	0.00e+00	0	43	0	2768240640	5	3977
2026-01-14 02:41:25.23	208.51	36.83	-22.5	-23.3	20.5	0.00e+00	0	43	0	2774532096	5	3966
2026-01-14 02:41:26.09	208.48	36.63	-22.5	-23.4	20.4	0.00e+00	0	43	0	2778726400	5	3990
2026-01-14 02:41:27.25	208.43	36.36	-22.6	-23.5	20.4	0.00e+00	0	43	0	2786066432	5	4004
2026-01-14 02:41:28.11	208.39	36.15	-22.7	-23.7	20.3	0.00e+00	0	43	0	2790260736	5	4051
2026-01-14 02:41:29.25	208.34	35.89	-22.7	-23.9	20.2	0.00e+00	0	43	0	2796552192	5	4097
2026-01-14 02:41:30.11	208.31	35.69	-22.8	-24.0	20.1	0.00e+00	0	43	0	2801795072	5	4141
2026-01-14 02:41:31.25	208.26	35.43	-22.9	-24.3	20.0	0.00e+00	0	43	0	2808086528	5	4206
2026-01-14 02:41:32.11	208.23	35.23	-23.0	-24.4	20.0	0.00e+00	0	43	0	2813329408	5	4227
2026-01-14 02:41:33.26	208.18	34.97	-23.1	-24.1	19.8	0.00e+00	0	43	0	2819620864	6	4057
2026-01-14 02:41:34.12	208.15	34.78	-23.3	-24.6	19.6	0.00e+00	0	43	0	2824863744	6	4164
2026-01-14 02:41:35.26	208.10	34.52	-23.2	-24.4	19.7	0.00e+00	0	43	0	2830106624	6	4119
2026-01-14 02:41:36.12	208.07	34.33	-23.3	-24.5	19.6	0.00e+00	0	43	0	2835349504	6	4139
2026-01-14 02:41:37.27	208.03	34.08	-23.2	-24.4	19.7	0.00e+00	0	43	0	2841640960	6	4121
2026-01-14 02:41:38.13	208.00	33.89	-23.3	-24.5	19.7	0.00e+00	0	43	0	2846883840	6	4138
2026-01-14 02:41:39.27	207.96	33.64	-23.4	-24.7	19.5	0.00e+00	0	43	0	2853175296	6	4185
2026-01-14 02:41:40.13	207.92	33.46	-23.3	-24.4	19.7	0.00e+00	0	43	0	2858418176	6	4126
2026-01-14 02:41:41.27	207.88	33.21	-23.2	-24.2	19.7	0.00e+00	0	43	0	2864709632	6	4074
2026-01-14 02:41:42.13	207.85	33.03	-23.1	-24.2	19.8	0.00e+00	0	43	0	2868903936	6	4056
2026-01-14 02:41:43.28	207.82	32.79	-23.1	-24.2	19.8	0.00e+00	0	43	0	2876243968	6	4058
2026-01-14 02:41:44.13	207.79	32.61	-23.1	-24.2	19.8	0.00e+00	0	43	0	2880438272	6	4067
2026-01-14 02:41:45.28	207.75	32.37	-23.2	-24.3	19.7	0.00e+00	0	43	0	2886729728	6	4097
2026-01-14 02:41:46.13	207.72	32.19	-23.2	-24.2	19.7	0.00e+00	0	43	0	2891972608	6	4077
2026-01-14 02:41:47.27	207.68	31.96	-23.2	-24.4	19.7	0.00e+00	0	43	0	2898264064	6	4119
2026-01-14 02:41:48.13	207.66	31.78	-23.2	-24.3	19.7	0.00e+00	0	43	0	2903506944	6	4105
2026-01-14 02:41:49.27	207.62	31.55	-23.3	-24.6	19.6	0.00e+00	0	43	0	2909798400	6	4170
2026-01-14 02:41:50.13	207.59	31.38	-23.3	-24.6	19.6	0.00e+00	0	43	0	2913992704	6	4161
2026-01-14 02:41:51.28	207.56	31.15	-23.3	-24.6	19.5	0.00e+00	0	43	0	2921332736	6	4174
2026-01-14 02:41:52.13	207.53	30.98	-23.3	-24.5	19.6	0.00e+00	0	43	0	2925527040	6	4153
2026-01-14 02:41:53.28	207.50	30.75	-23.4	-24.7	19.5	0.00e+00	0	43	0	2931818496	6	4189
2026-01-14 02:41:54.14	207.47	30.58	-23.5	-24.9	19.4	0.00e+00	0	43	0	2937061376	6	4232
2026-01-14 02:41:55.28	207.44	30.36	-23.2	-24.4	19.6	0.00e+00	0	43	0	2943352832	6	4127
2026-01-14 02:41:56.14	207.42	30.20	-23.1	-24.2	19.8	0.00e+00	0	43	0	2948595712	6	4059
2026-01-14 02:41:57.28	207.38	29.98	-23.0	-24.0	19.8	0.00e+00	0	43	0	2954887168	6	4017
2026-01-14 02:41:58.14	207.36	29.81	-23.1	-24.1	19.8	0.00e+00	0	43	0	2959081472	6	4046
2026-01-14 02:41:59.28	207.33	29.60	-23.0	-24.0	19.9	0.00e+00	0	43	0	2965372928	6	4016
2026-01-14 02:42:00.14	207.31	29.43	-23.1	-24.0	19.8	0.00e+00	0	43	0	2970615808	6	4024
2026-01-14 02:42:01.29	207.28	29.22	-23.3	-24.5	19.6	0.00e+00	0	43	0	2976907264	6	4138
2026-01-14 02:42:02.15	207.25	29.06	-23.1	-24.2	19.8	0.00e+00	0	43	0	2982150144	6	4058
2026-01-14 02:42:03.29	207.22	28.85	-22.7	-23.6	17.4	0.00e+00	0	43	0	2988441600	6	4010
2026-01-14 02:42:04.15	207.20	28.69	-23.2	-24.4	19.6	0.00e+00	0	43	0	2992635904	6	4120
2026-01-14 02:42:05.30	207.17	28.48	-23.2	-24.4	19.6	1.46e-04	0	43	0	2999975936	6	4122
2026-01-14 02:42:06.16	207.15	28.33	-23.3	-24.6	19.5	0.00e+00	0	43	0	3004170240	6	4177
2026-01-14 02:42:07.31	207.12	28.12	-23.3	-24.6	19.5	0.00e+00	0	43	0	3010461696	6	4170
2026-01-14 02:42:08.16	207.10	27.97	-23.4	-24.7	19.5	0.00e+00	0	43	0	3015704576	6	4206
2026-01-14 02:42:09.30	207.07	27.77	-23.4	-24.7	19.4	0.00e+00	0	43	0	3021996032	6	4202
2026-01-14 02:42:10.16	207.05	27.61	-23.4	-24.9	19.4	0.00e+00	0	43	0	3027238912	6	4237
2026-01-14 02:42:11.30	207.03	27.41	-23.6	-24.6	19.3	0.00e+00	0	43	0	3033530368	7	4064
2026-01-14 02:42:12.16	207.01	27.26	-23.6	-24.8	19.2	0.00e+00	0	43	0	3037724672	7	4097
2026-01-14 02:42:13.31	206.98	27.06	-23.6	-24.6	19.3	0.00e+00	0	43	0	3045064704	7	4070
2026-01-14 02:42:14.17	206.96	26.92	-23.7	-24.8	19.2	0.00e+00	0	43	0	3049259008	7	4105
2026-01-14 02:42:15.31	206.93	26.72	-23.8	-25.1	19.0	0.00e+00	0	43	0	3055550464	7	4177
2026-01-14 02:42:16.17	206.92	26.58	-23.6	-24.7	19.2	0.00e+00	0	43	0	3060793344	7	4090
2026-01-14 02:42:17.31	206.89	26.38	-23.5	-24.6	19.3	0.00e+00	0	43	0	3067084800	7	4043
2026-01-14 02:42:18.17	206.87	26.24	-23.6	-24.6	19.2	0.00e+00	0	43	0	3072327680	7	4064
2026-01-14 02:42:19.32	206.85	26.05	-23.6	-24.6	19.2	2.93e-04	0	43	0	3078619136	7	4057
2026-01-14 02:42:20.17	206.83	25.91	-23.8	-25.0	19.0	0.00e+00	0	43	0	3083862016	7	4146
2026-01-14 02:42:21.33	206.81	25.72	-23.6	-24.6	19.2	5.58e-04	0	43	0	3090153472	7	4054
2026-01-14 02:42:22.19	206.79	25.57	-23.4	-24.3	19.2	6.64e-04	0	43	0	3094347776	7	3986
2026-01-14 02:42:23.33	206.76	25.39	-23.4	-24.3	19.3	0.00e+00	0	43	0	3100639232	7	3989
2026-01-14 02:42:24.19	206.75	25.25	-23.5	-24.3	19.3	0.00e+00	0	43	0	3105882112	7	3988
2026-01-14 02:42:25.33	206.72	25.07	-23.6	-24.6	19.2	0.00e+00	0	43	0	3112173568	7	4064
2026-01-14 02:42:26.20	206.71	24.93	-23.5	-24.5	19.3	0.00e+00	0	43	0	3117416448	7	4026
2026-01-14 02:42:27.34	206.68	24.75	-23.6	-24.7	19.1	3.40e-06	0	43	0	3123707904	7	4077
2026-01-14 02:42:28.20	206.67	24.61	-23.8	-25.0	19.0	0.00e+00	0	43	0	3127902208	7	4160
2026-01-14 02:42:29.34	206.65	24.43	-23.6	-24.7	19.1	0.00e+00	0	43	0	3135242240	7	4090
2026-01-14 02:42:30.20	206.63	24.30	-23.6	-24.7	19.1	2.20e-06	0	43	0	3139436544	7	4069
2026-01-14 02:42:31.34	206.61	24.12	-23.7	-24.8	19.1	1.01e-03	0	43	0	3145728000	7	4114
2026-01-14 02:42:32.20	206.59	23.99	-23.7	-24.8	19.1	0.00e+00	0	43	0	3150970880	7	4110
2026-01-14 02:42:33.35	206.57	23.81	-23.8	-25.0	19.0	1.07e-03	0	43	0	3157262336	7	4166
2026-01-14 02:42:34.20	206.56	23.68	-23.7	-24.9	19.0	1.03e-03	0	43	0	3162505216	7	4134
2026-01-14 02:42:35.35	206.54	23.51	-23.8	-25.1	18.9	0.00e+00	0	43	0	3168796672	7	4179
2026-01-14 02:42:36.20	206.52	23.38	-23.8	-25.0	18.9	1.08e-03	0	43	0	3172990976	7	4167
2026-01-14 02:42:37.35	206.50	23.21	-23.9	-25.2	18.8	1.00e-03	0	43	0	3180331008	7	4216
2026-01-14 02:42:38.20	206.49	23.08	-23.8	-25.2	18.8	0.00e+00	0	43	0	3184525312	7	4202
2026-01-14 02:42:39.35	206.47	22.91	-23.9	-25.4	18.8	1.00e-03	0	43	0	3190816768	7	4249
2026-01-14 02:42:40.21	206.45	22.79	-24.2	-25.4	18.5	0.00e+00	0	43	0	3196059648	8	4131
2026-01-14 02:42:41.35	206.44	22.62	-24.5	-25.5	18.2	0.00e+00	0	43	0	3202351104	9	4056
2026-01-14 02:42:42.22	206.42	22.49	-24.2	-25.5	18.5	0.00e+00	0	43	0	3207593984	8	4161
2026-01-14 02:42:43.36	206.40	22.33	-24.1	-25.2	18.6	1.20e-03	0	43	0	3213885440	8	4090
2026-01-14 02:42:44.22	206.39	22.20	-24.2	-25.5	18.5	0.00e+00	0	43	0	3219128320	8	4168
2026-01-14 02:42:45.36	206.37	22.04	-24.1	-25.2	18.6	1.20e-03	0	43	0	3224371200	8	4104
2026-01-14 02:42:46.22	206.36	21.92	-24.0	-25.1	18.7	1.15e-03	0	43	0	3229614080	8	4065
2026-01-14 02:42:47.37	206.34	21.76	-24.1	-25.2	18.6	0.00e+00	0	43	0	3235905536	8	4089
2026-01-14 02:42:48.23	206.33	21.64	-24.1	-25.3	18.5	1.14e-03	0	43	0	3241148416	8	4110
2026-01-14 02:42:49.38	206.31	21.48	-24.2	-25.5	18.4	1.25e-03	0	43	0	3247439872	8	4168
2026-01-14 02:42:50.24	206.30	21.36	-24.4	-25.8	18.3	0.00e+00	0	43	0	3252682752	8	4238
2026-01-14 02:42:51.39	206.28	21.20	-24.2	-25.4	18.5	0.00e+00	0	43	0	3258974208	8	4145
2026-01-14 02:42:52.25	206.27	21.08	-24.2	-25.4	18.5	1.16e-03	0	43	0	3263168512	8	4149
2026-01-14 02:42:53.39	206.25	20.92	-24.2	-25.5	18.4	0.00e+00	0	43	0	3270508544	8	4166
2026-01-14 02:42:54.25	206.24	20.81	-24.2	-25.4	18.5	1.18e-03	0	43	0	3274702848	8	4140
2026-01-14 02:42:55.40	206.22	20.65	-24.3	-25.6	18.3	0.00e+00	0	43	0	3280994304	8	4199
2026-01-14 02:42:56.26	206.21	20.53	-24.2	-25.5	18.4	0.00e+00	0	43	0	3286237184	8	4179
2026-01-14 02:42:57.41	206.19	20.38	-24.3	-25.6	18.3	1.08e-03	0	43	0	3292528640	8	4198
2026-01-14 02:42:58.27	206.18	20.27	-24.3	-25.5	18.4	1.15e-03	0	43	0	3297771520	8	4179
2026-01-14 02:42:59.42	206.17	20.11	-24.2	-25.5	18.3	1.83e-05	0	43	0	3304062976	8	4169
2026-01-14 02:43:00.28	206.15	20.00	-24.2	-25.5	18.4	1.09e-03	0	43	0	3309305856	8	4166
2026-01-14 02:43:01.42	206.14	19.85	-24.3	-25.7	18.3	1.09e-03	0	43	0	3315597312	8	4213
2026-01-14 02:43:02.28	206.13	19.74	-24.3	-25.7	18.3	3.20e-05	0	43	0	3319791616	8	4209
2026-01-14 02:43:03.42	206.11	19.59	-24.4	-25.8	18.2	0.00e+00	0	43	0	3327131648	8	4242
2026-01-14 02:43:04.29	206.10	19.48	-24.5	-26.0	18.1	9.75e-04	0	43	0	3331325952	8	4295
2026-01-14 02:43:05.42	206.09	19.33	-24.6	-25.7	18.0	0.00e+00	0	43	0	3337617408	9	4107
2026-01-14 02:43:06.28	206.08	19.22	-24.6	-25.9	17.9	1.01e-03	0	43	0	3342860288	9	4146
2026-01-14 02:43:07.43	206.06	19.08	-24.6	-25.8	18.0	0.00e+00	0	43	0	3349151744	9	4128
2026-01-14 02:43:08.29	206.05	18.97	-24.6	-25.8	18.0	0.00e+00	0	43	0	3354394624	9	4117
2026-01-14 02:43:09.44	206.04	18.82	-24.7	-25.9	17.8	0.00e+00	0	43	0	3360686080	9	4163
2026-01-14 02:43:10.30	206.03	18.72	-24.7	-26.0	17.8	0.00e+00	0	43	0	3364880384	9	4171
2026-01-14 02:43:11.45	206.01	18.57	-24.7	-26.0	17.8	6.80e-06	0	43	0	3371171840	9	4180
2026-01-14 02:43:12.31	206.00	18.47	-24.7	-26.1	17.8	0.00e+00	0	43	0	3376414720	9	4209
2026-01-14 02:43:13.45	205.99	18.33	-24.9	-26.4	17.6	5.70e-06	0	43	0	3382706176	9	4302
2026-01-14 02:43:14.31	205.98	18.22	-24.9	-26.4	17.6	0.00e+00	0	43	0	3387949056	9	4278
2026-01-14 02:43:15.46	205.97	18.08	-25.0	-26.2	17.5	0.00e+00	0	43	0	3394240512	10	4117
2026-01-14 02:43:16.32	205.96	17.98	-24.9	-26.0	17.5	7.62e-04	0	43	0	3399483392	10	4072
2026-01-14 02:43:17.47	205.94	17.84	-24.9	-25.9	17.6	8.00e-06	0	43	0	3405774848	10	4051
2026-01-14 02:43:18.32	205.93	17.73	-24.9	-25.9	17.6	7.46e-04	0	43	0	3411017728	10	4055
2026-01-14 02:43:19.48	205.92	17.60	-24.9	-26.6	17.5	0.00e+00	0	43	0	3417309184	9	4330
2026-01-14 02:43:20.33	205.91	17.49	-25.0	-26.6	17.4	0.00e+00	0	43	0	3421503488	9	4331
2026-01-14 02:43:21.48	205.90	17.36	-25.0	-26.2	17.4	0.00e+00	0	43	0	3427794944	10	4127
2026-01-14 02:43:22.34	205.89	17.26	-25.1	-26.3	17.4	0.00e+00	0	43	0	3433037824	10	4150
2026-01-14 02:43:23.49	205.88	17.12	-25.1	-26.4	17.3	3.40e-06	0	43	0	3439329280	10	4175
2026-01-14 02:43:24.34	205.87	17.02	-25.1	-26.4	17.3	0.00e+00	0	43	0	3444572160	10	4175
2026-01-14 02:43:25.49	205.86	16.89	-25.1	-26.5	17.3	0.00e+00	0	43	0	3450863616	10	4192
2026-01-14 02:43:26.35	205.85	16.79	-25.2	-26.6	17.2	2.20e-06	0	43	0	3455057920	10	4217
2026-01-14 02:43:27.50	205.84	16.66	-25.3	-26.8	17.1	0.00e+00	0	43	0	3462397952	10	4275
2026-01-14 02:43:28.35	205.83	16.56	-25.4	-27.0	17.0	0.00e+00	0	43	0	3466592256	10	4325
2026-01-14 02:43:29.49	205.82	16.43	-25.3	-26.8	17.0	0.00e+00	0	43	0	3472883712	10	4286
2026-01-14 02:43:30.34	205.81	16.33	-25.3	-26.8	17.0	0.00e+00	0	43	0	3478126592	10	4294
2026-01-14 02:43:31.49	205.80	16.20	-25.3	-26.9	17.0	0.00e+00	0	43	0	3484418048	10	4310
2026-01-14 02:43:32.36	205.79	16.11	-25.4	-27.1	16.9	0.00e+00	0	43	0	3489660928	10	4353
2026-01-14 02:43:33.50	205.78	15.98	-25.5	-27.2	16.9	0.00e+00	0	43	0	3495952384	10	4382
2026-01-14 02:43:34.36	205.77	15.88	-25.5	-26.8	16.8	0.00e+00	0	43	0	3500146688	11	4167
2026-01-14 02:43:35.51	205.76	15.75	-25.6	-27.0	16.7	0.00e+00	0	43	0	3506438144	11	4212
2026-01-14 02:43:36.37	205.75	15.66	-25.7	-27.1	16.6	0.00e+00	0	43	0	3511681024	11	4242
2026-01-14 02:43:37.52	205.74	15.53	-25.5	-26.9	16.7	0.00e+00	0	43	0	3517972480	11	4184
2026-01-14 02:43:38.37	205.73	15.44	-25.6	-27.0	16.7	2.20e-06	0	43	0	3523215360	11	4218
2026-01-14 02:43:39.51	205.72	15.32	-25.7	-27.2	16.5	0.00e+00	0	43	0	3529506816	11	4279
2026-01-14 02:43:40.37	205.71	15.22	-25.6	-27.0	16.6	0.00e+00	0	43	0	3534749696	11	4220
2026-01-14 02:43:41.52	205.70	15.10	-25.8	-27.4	16.4	0.00e+00	0	43	0	3541041152	11	4331
2026-01-14 02:43:42.38	205.69	15.01	-26.0	-27.7	16.2	0.00e+00	0	43	0	3546284032	11	4418
2026-01-14 02:43:43.53	205.68	14.88	-25.8	-27.4	16.4	0.00e+00	0	43	0	3552575488	11	4318
2026-01-14 02:43:44.39	205.68	14.79	-25.7	-27.3	16.5	0.00e+00	0	43	0	3556769792	11	4294
2026-01-14 02:43:45.54	205.67	14.67	-25.7	-27.1	16.5	0.00e+00	0	43	0	3563061248	11	4250
2026-01-14 02:43:46.40	205.66	14.58	-25.7	-27.2	16.5	0.00e+00	0	43	0	3568304128	11	4275
2026-01-14 02:43:47.54	205.65	14.46	-25.8	-27.4	16.4	0.00e+00	0	43	0	3574595584	11	4335
2026-01-14 02:43:48.39	205.64	14.37	-25.9	-27.6	16.3	0.00e+00	0	43	0	3579838464	11	4382
2026-01-14 02:43:49.54	205.63	14.25	-25.7	-27.1	16.5	0.00e+00	0	43	0	3586129920	11	4257
2026-01-14 02:43:50.40	205.63	14.16	-25.6	-27.0	16.6	0.00e+00	0	43	0	3590324224	11	4233
2026-01-14 02:43:51.55	205.62	14.04	-25.7	-27.1	16.5	0.00e+00	0	43	0	3597664256	11	4252
2026-01-14 02:43:52.41	205.61	13.95	-25.7	-27.2	16.4	0.00e+00	0	43	0	3601858560	11	4278
2026-01-14 02:43:53.56	205.60	13.84	-25.7	-27.2	16.4	0.00e+00	0	43	0	3608150016	11	4277
2026-01-14 02:43:54.41	205.59	13.75	-25.7	-27.2	16.5	0.00e+00	0	43	0	3613392896	11	4273
2026-01-14 02:43:55.56	205.59	13.63	-25.7	-27.2	16.4	0.00e+00	0	43	0	3619684352	11	4276
2026-01-14 02:43:56.42	205.58	13.54	-25.9	-27.5	16.3	0.00e+00	0	43	0	3624927232	11	4358
2026-01-14 02:43:57.57	205.57	13.43	-25.2	-26.8	15.6	0.00e+00	0	43	0	3631218688	11	4293
2026-01-14 02:43:58.43	205.56	13.34	-25.8	-27.4	16.3	0.00e+00	0	43	0	3636461568	11	4337
2026-01-14 02:43:59.58	205.55	13.23	-25.8	-27.4	14.3	0.00e+00	0	43	0	3642753024	11	4327
2026-01-14 02:44:00.45	205.55	13.14	-25.8	-27.3	16.3	0.00e+00	0	43	0	3646947328	11	4306
2026-01-14 02:44:01.59	205.54	13.03	-25.9	-27.5	16.2	0.00e+00	0	43	0	3654287360	11	4365
2026-01-14 02:44:02.45	205.53	12.94	-25.9	-27.7	16.2	0.00e+00	0	43	0	3658481664	11	4404
2026-01-14 02:44:03.60	205.53	12.83	-25.8	-27.5	16.3	0.00e+00	0	43	0	3664773120	11	4342
2026-01-14 02:44:04.46	205.52	12.75	-25.9	-27.6	16.2	0.00e+00	0	43	0	3670016000	11	4375
2026-01-14 02:44:05.61	205.51	12.63	-25.9	-27.1	16.1	1.24e-03	0	43	0	3676307456	12	4136
2026-01-14 02:44:06.46	205.50	12.55	-25.8	-27.0	16.2	0.00e+00	0	43	0	3681550336	12	4112
2026-01-14 02:44:07.61	205.50	12.44	-25.9	-27.6	16.1	0.00e+00	0	43	0	3687841792	11	4389
2026-01-14 02:44:08.47	205.49	12.36	-26.0	-27.7	16.1	0.00e+00	0	43	0	3693084672	11	4415
2026-01-14 02:44:09.62	205.48	12.25	-25.9	-27.2	16.0	0.00e+00	0	43	0	3699376128	12	4177
2026-01-14 02:44:10.48	205.48	12.16	-25.9	-27.2	16.0	0.00e+00	0	43	0	3703570432	12	4167
2026-01-14 02:44:11.62	205.47	12.06	-26.0	-27.4	15.9	0.00e+00	0	43	0	3709861888	12	4235
2026-01-14 02:44:12.48	205.46	11.97	-26.2	-27.8	15.7	0.00e+00	0	43	0	3715104768	12	4319
2026-01-14 02:44:13.63	205.46	11.87	-26.0	-27.3	15.9	3.40e-06	0	43	0	3721396224	12	4199
2026-01-14 02:44:14.49	205.45	11.78	-25.9	-27.2	15.9	0.00e+00	0	43	0	3726639104	12	4174
2026-01-14 02:44:15.64	205.44	11.68	-26.0	-27.3	15.9	1.02e-05	0	43	0	3732930560	12	4204
2026-01-14 02:44:16.50	205.44	11.60	-26.1	-27.6	15.5	0.00e+00	0	43	0	3737124864	12	4270
2026-01-14 02:44:17.65	205.43	11.49	-26.1	-27.6	15.8	1.17e-03	0	43	0	3744464896	12	4280
2026-01-14 02:44:18.51	205.43	11.41	-26.1	-27.5	15.5	0.00e+00	0	43	0	3748659200	12	4258
2026-01-14 02:44:19.65	205.42	11.30	-26.1	-27.6	15.8	6.75e-05	0	43	0	3754950656	12	4265
2026-01-14 02:44:20.52	205.41	11.22	-26.2	-27.7	15.7	0.00e+00	0	43	0	3760193536	12	4314
2026-01-14 02:44:21.66	205.41	11.12	-26.1	-27.5	15.8	1.24e-03	0	43	0	3766484992	12	4260
2026-01-14 02:44:22.53	205.40	11.04	-26.2	-27.8	15.7	5.72e-05	0	43	0	3771727872	12	4317
2026-01-14 02:44:23.67	205.39	10.94	-26.2	-27.9	15.6	1.26e-03	0	43	0	3778019328	12	4355
2026-01-14 02:44:24.53	205.39	10.86	-26.2	-27.8	15.6	1.19e-03	0	43	0	3783262208	12	4327
2026-01-14 02:44:25.67	205.38	10.76	-26.2	-27.8	15.6	2.40e-05	0	43	0	3789553664	12	4333
2026-01-14 02:44:26.53	205.38	10.68	-26.3	-28.1	15.5	0.00e+00	0	43	0	3793747968	12	4408
2026-01-14 02:44:27.68	205.37	10.58	-26.3	-28.0	15.5	1.35e-03	0	43	0	3801088000	12	4387
2026-01-14 02:44:28.54	205.37	10.50	-26.3	-27.9	15.5	6.80e-06	0	43	0	3805282304	12	4371
2026-01-14 02:44:29.69	205.36	10.40	-26.3	-28.0	15.5	1.38e-03	0	43	0	3811573760	12	4384
2026-01-14 02:44:30.55	205.35	10.32	-26.4	-28.2	15.3	0.00e+00	0	43	0	3816816640	12	4437
2026-01-14 02:44:31.70	205.35	10.22	-26.4	-28.3	15.3	3.77e-05	0	43	0	3823108096	12	4464
2026-01-14 02:44:32.57	205.34	10.14	-26.4	-28.3	15.3	0.00e+00	0	43	0	3828350976	12	4462
2026-01-14 02:44:33.71	205.34	10.04	-26.4	-28.3	15.2	1.29e-03	0	43	0	3834642432	12	4486
2026-01-14 02:44:34.57	205.33	9.97	-26.4	-28.3	15.3	1.71e-05	0	43	0	3839885312	12	4470
2026-01-14 02:44:35.72	205.33	9.87	-26.5	-28.5	15.2	1.24e-03	0	43	0	3846176768	12	4523
2026-01-14 02:44:36.58	205.32	9.79	-26.4	-27.9	15.2	1.46e-03	0	43	0	3850371072	13	4258
2026-01-14 02:44:37.72	205.31	9.69	-26.4	-27.7	15.3	5.60e-05	0	43	0	3856662528	13	4194
2026-01-14 02:44:38.58	205.31	9.62	-26.6	-28.2	15.0	1.52e-03	0	43	0	3861905408	13	4326
2026-01-14 02:44:39.72	205.30	9.52	-26.7	-28.3	14.9	0.00e+00	0	43	0	3868196864	13	4376
