passes_logs/2026/01/14/R2M6_AANII_01/R2M6_AANII_01__20260114_105712_NOAA_21_JPSS-2_rec.log

#Pass ID: 20260114_105712_NOAA 21 (JPSS-2)
#Satellite: NOAA 21 (JPSS-2)
#Configuration: NOAA 21
#almurnet v.1.7.20240730
#Start time: 2026-01-14 10:57:29

#Version: 2.2.20231116
#Station: R2M6_AANII_01
#Location: 30.233357 lon 59.946436 lat
#TLE: 1 54234U 22150A   26013.18009385  .00000056  00000+0  47387-4 0  9997
#TLE: 2 54234  98.7496 314.1019 0000691 303.8246  56.2864 14.19534466164559

#Time	Az	El	Level	Level2	SNR	BER	BlckErr	Temp	State	Recorded	gain1	gain2
2026-01-14 10:57:29.15	180.79	8.25	-33.7	-44.4	3.8	8.46e-01	0	42	0	0	27	12394
2026-01-14 10:57:30.14	180.83	8.33	-34.5	-45.8	3.8	1.49e+00	0	42	104	0	30	13226
2026-01-14 10:57:31.14	180.87	8.41	-34.5	-45.9	3.8	1.49e+00	0	42	104	0	30	13315
2026-01-14 10:57:32.15	180.92	8.49	-34.6	-46.0	3.8	1.49e+00	0	43	104	0	30	13350
2026-01-14 10:57:33.15	180.96	8.57	-34.6	-46.0	3.8	1.49e+00	0	43	104	0	30	13424
2026-01-14 10:57:34.16	181.01	8.65	-34.6	-46.0	3.8	1.49e+00	0	42	104	0	30	13413
2026-01-14 10:57:35.16	181.05	8.73	-34.6	-46.0	3.8	1.49e+00	0	43	104	0	30	13429
2026-01-14 10:57:36.16	181.10	8.81	-34.6	-46.0	3.8	1.49e+00	0	43	104	0	30	13407
2026-01-14 10:57:37.16	181.14	8.89	-34.6	-46.0	3.8	1.49e+00	0	43	104	0	30	13426
2026-01-14 10:57:38.16	181.19	8.97	-34.6	-46.0	3.8	1.49e+00	0	42	104	0	30	13391
2026-01-14 10:57:39.16	181.23	9.05	-34.6	-46.0	3.8	1.49e+00	0	43	104	0	30	13444
2026-01-14 10:57:40.16	181.28	9.13	-34.6	-46.0	3.8	1.49e+00	0	43	104	0	30	13417
2026-01-14 10:57:41.16	181.33	9.22	-34.6	-46.0	3.8	1.49e+00	0	43	104	0	30	13372
2026-01-14 10:57:42.17	181.37	9.30	-34.6	-46.0	3.8	1.49e+00	0	43	104	0	30	13417
2026-01-14 10:57:43.16	181.42	9.38	-34.6	-46.0	3.8	1.49e+00	0	43	104	0	30	13382
2026-01-14 10:57:44.16	181.47	9.46	-34.6	-45.9	3.8	1.49e+00	0	43	104	0	30	13330
2026-01-14 10:57:45.17	181.51	9.54	-34.5	-45.9	3.8	1.49e+00	0	43	104	0	30	13351
2026-01-14 10:57:46.17	181.56	9.63	-34.6	-46.0	3.8	1.49e+00	0	43	104	0	30	13380
2026-01-14 10:57:47.17	181.61	9.71	-34.5	-46.0	3.8	1.49e+00	0	43	104	0	30	13389
2026-01-14 10:57:48.17	181.66	9.79	-34.5	-45.9	3.8	1.49e+00	0	43	104	0	30	13350
2026-01-14 10:57:49.17	181.70	9.88	-34.5	-45.9	3.8	1.49e+00	0	43	104	0	30	13373
2026-01-14 10:57:50.18	181.75	9.96	-34.6	-46.0	3.8	1.49e+00	0	43	104	0	30	13384
2026-01-14 10:57:51.18	181.80	10.05	-34.5	-45.9	3.8	1.49e+00	0	43	104	0	30	13330
2026-01-14 10:57:52.18	181.85	10.13	-34.5	-45.8	3.8	1.49e+00	0	43	104	0	30	13245
2026-01-14 10:57:53.18	181.90	10.22	-34.4	-45.7	3.8	1.49e+00	0	43	104	0	30	13180
2026-01-14 10:57:54.18	181.95	10.30	-34.4	-45.6	3.8	1.49e+00	0	43	104	0	30	13141
2026-01-14 10:57:55.19	182.00	10.39	-34.2	-45.8	3.8	1.49e+00	0	43	104	0	29	13715
2026-01-14 10:57:56.19	182.05	10.47	-34.2	-45.7	3.8	1.49e+00	0	43	104	0	29	13597
2026-01-14 10:57:57.19	182.10	10.56	-34.1	-45.6	3.8	1.49e+00	0	43	104	0	29	13513
2026-01-14 10:57:58.19	182.15	10.64	-34.1	-45.4	3.8	1.49e+00	0	43	104	0	29	13363
2026-01-14 10:57:59.19	182.20	10.73	-34.0	-45.4	3.8	1.49e+00	0	43	104	0	29	13389
2026-01-14 10:58:00.19	182.25	10.82	-34.0	-45.4	3.8	1.49e+00	0	43	104	0	29	13362
2026-01-14 10:58:01.20	182.30	10.90	-34.0	-45.4	3.8	1.49e+00	0	43	104	0	29	13315
2026-01-14 10:58:02.20	182.36	10.99	-34.0	-45.3	3.8	1.49e+00	0	42	104	0	29	13269
2026-01-14 10:58:03.20	182.41	11.08	-33.9	-45.1	3.8	1.49e+00	0	43	104	0	29	13092
2026-01-14 10:58:04.21	182.46	11.17	-33.5	-45.0	3.8	1.49e+00	0	43	104	0	28	13516
2026-01-14 10:58:05.21	182.51	11.26	-33.5	-43.9	3.8	1.49e+00	0	42	104	0	28	11917
2026-01-14 10:58:06.22	182.57	11.35	-32.6	-39.2	4.2	1.48e+00	0	43	104	0	26	7720
2026-01-14 10:58:07.22	182.62	11.43	-32.2	-37.2	6.5	7.33e-01	0	43	104	0	25	6432
2026-01-14 10:58:08.23	182.67	11.52	-31.8	-35.9	7.5	1.44e-01	0	42	0	1048576	25	5758
2026-01-14 10:58:09.23	182.73	11.61	-31.4	-34.8	8.6	5.72e-02	0	43	0	4194304	24	5367
2026-01-14 10:58:10.23	182.78	11.70	-30.9	-33.7	9.7	1.83e-02	0	43	0	7340032	23	5005
2026-01-14 10:58:11.23	182.84	11.79	-30.3	-32.6	10.8	3.64e-03	0	42	0	9437184	22	4695
2026-01-14 10:58:12.24	182.89	11.88	-29.7	-31.9	11.9	5.67e-04	0	42	0	12582912	20	4668
2026-01-14 10:58:13.24	182.95	11.98	-29.2	-31.2	12.7	9.76e-05	0	42	0	15728640	19	4535
2026-01-14 10:58:14.24	183.00	12.07	-28.7	-30.4	13.5	2.13e-05	0	42	0	18874368	18	4379
2026-01-14 10:58:15.24	183.06	12.16	-28.2	-29.9	14.1	2.20e-06	0	43	0	22020096	17	4341
2026-01-14 10:58:16.26	183.11	12.25	-27.9	-29.1	14.5	7.00e-07	0	42	0	26214400	17	4127
2026-01-14 10:58:17.26	183.17	12.34	-27.8	-28.8	14.7	0.00e+00	0	42	0	29360128	17	4058
2026-01-14 10:58:18.26	183.23	12.43	-27.8	-29.4	14.7	0.00e+00	0	42	0	31457280	16	4328
2026-01-14 10:58:19.26	183.28	12.53	-27.9	-29.5	14.6	0.00e+00	0	42	0	34603008	16	4356
2026-01-14 10:58:20.26	183.34	12.62	-28.2	-30.3	14.1	2.20e-06	0	42	0	37748736	16	4569
2026-01-14 10:58:21.27	183.40	12.71	-28.5	-30.5	13.7	7.60e-06	0	43	0	40894464	17	4544
2026-01-14 10:58:22.27	183.46	12.81	-28.9	-31.6	13.1	2.21e-05	0	42	0	44040192	17	4878
2026-01-14 10:58:23.27	183.52	12.90	-29.5	-32.5	12.2	1.56e-04	0	42	0	47185920	18	5061
2026-01-14 10:58:24.27	183.57	13.00	-29.4	-31.6	12.4	2.00e-04	0	42	0	50331648	19	4672
2026-01-14 10:58:25.27	183.63	13.09	-29.1	-31.1	12.9	5.18e-05	0	42	0	53477376	19	4486
2026-01-14 10:58:26.28	183.69	13.19	-29.4	-31.6	12.4	1.61e-04	0	42	0	56623104	19	4675
2026-01-14 10:58:27.28	183.75	13.28	-29.0	-30.7	13.1	6.48e-05	0	42	0	59768832	19	4376
2026-01-14 10:58:28.29	183.81	13.38	-28.6	-30.2	13.7	9.10e-06	0	42	0	62914560	18	4324
2026-01-14 10:58:29.29	183.87	13.47	-28.3	-29.4	14.1	1.50e-06	0	42	0	66060288	18	4113
2026-01-14 10:58:30.29	183.94	13.57	-28.0	-29.3	14.5	1.44e-05	0	43	0	69206016	17	4168
2026-01-14 10:58:31.29	184.00	13.67	-27.8	-28.9	14.7	0.00e+00	0	42	0	72351744	17	4060
2026-01-14 10:58:32.30	184.06	13.76	-27.7	-29.1	14.9	7.00e-07	0	42	0	75497472	16	4223
2026-01-14 10:58:33.30	184.12	13.86	-27.7	-29.2	14.8	1.06e-05	0	42	0	78643200	16	4249
2026-01-14 10:58:34.30	184.18	13.96	-27.8	-29.3	14.8	7.00e-07	0	42	0	81788928	16	4274
2026-01-14 10:58:35.31	184.25	14.06	-27.8	-29.3	14.8	7.00e-07	0	42	0	84934656	16	4274
2026-01-14 10:58:36.31	184.31	14.16	-27.8	-29.3	14.8	0.00e+00	0	42	0	88080384	16	4277
2026-01-14 10:58:37.31	184.37	14.26	-27.8	-29.4	14.7	7.00e-07	0	43	0	91226112	16	4312
2026-01-14 10:58:38.31	184.44	14.35	-27.8	-29.4	14.7	2.20e-06	0	42	0	94371840	16	4301
2026-01-14 10:58:39.31	184.50	14.45	-27.9	-29.7	14.6	8.30e-06	0	42	0	97517568	16	4384
2026-01-14 10:58:40.30	184.57	14.55	-28.0	-29.8	14.5	7.00e-07	0	42	0	100663296	16	4435
2026-01-14 10:58:41.30	184.63	14.65	-27.9	-29.5	14.7	0.00e+00	0	42	0	103809024	16	4325
2026-01-14 10:58:42.30	184.70	14.75	-27.7	-29.0	15.0	1.06e-05	0	42	0	106954752	16	4204
2026-01-14 10:58:43.30	184.76	14.86	-27.7	-29.0	15.0	0.00e+00	0	42	0	110100480	16	4191
2026-01-14 10:58:44.30	184.83	14.96	-27.7	-29.1	15.0	0.00e+00	0	42	0	113246208	16	4230
2026-01-14 10:58:45.30	184.90	15.06	-27.7	-29.0	15.1	0.00e+00	0	42	0	116391936	16	4185
2026-01-14 10:58:46.30	184.96	15.16	-27.7	-29.0	15.0	0.00e+00	0	42	0	119537664	16	4199
2026-01-14 10:58:47.31	185.03	15.26	-27.7	-29.1	15.0	0.00e+00	0	42	0	122683392	16	4211
2026-01-14 10:58:48.30	185.10	15.37	-27.7	-29.1	15.0	5.30e-06	0	42	0	125829120	16	4224
2026-01-14 10:58:49.32	185.17	15.47	-27.6	-28.8	15.1	0.00e+00	0	42	0	128974848	16	4144
2026-01-14 10:58:50.32	185.24	15.58	-27.6	-28.7	15.2	0.00e+00	0	42	0	132120576	16	4124
2026-01-14 10:58:51.32	185.31	15.68	-27.5	-28.6	15.3	0.00e+00	0	42	0	135266304	16	4095
2026-01-14 10:58:52.32	185.38	15.78	-27.6	-28.8	15.2	0.00e+00	0	42	0	138412032	16	4146
2026-01-14 10:58:53.32	185.45	15.89	-27.7	-29.0	15.1	0.00e+00	0	42	0	141557760	16	4183
2026-01-14 10:58:54.32	185.52	16.00	-27.7	-29.0	15.1	0.00e+00	0	42	0	144703488	16	4198
2026-01-14 10:58:55.33	185.59	16.10	-27.7	-29.0	15.0	0.00e+00	0	42	0	147849216	16	4211
2026-01-14 10:58:56.33	185.66	16.21	-27.6	-28.9	15.2	0.00e+00	0	42	0	150994944	16	4159
2026-01-14 10:58:57.34	185.74	16.32	-27.6	-28.7	15.3	0.00e+00	0	42	0	154140672	16	4115
2026-01-14 10:58:58.34	185.81	16.42	-27.6	-28.9	15.2	7.00e-07	0	42	0	157286400	16	4168
2026-01-14 10:58:59.35	185.88	16.53	-27.7	-29.0	15.1	0.00e+00	0	42	0	160432128	16	4199
2026-01-14 10:59:00.34	185.96	16.64	-27.5	-28.7	15.3	0.00e+00	0	42	0	163577856	16	4108
2026-01-14 10:59:01.35	186.03	16.75	-27.5	-28.7	15.3	0.00e+00	0	42	0	166723584	16	4119
2026-01-14 10:59:02.36	186.11	16.86	-27.6	-28.9	15.2	0.00e+00	0	42	0	169869312	16	4161
2026-01-14 10:59:03.36	186.18	16.97	-27.7	-29.0	15.1	0.00e+00	0	42	0	173015040	16	4190
2026-01-14 10:59:04.37	186.26	17.08	-27.6	-28.8	15.2	0.00e+00	0	42	0	176160768	16	4140
2026-01-14 10:59:05.37	186.34	17.19	-27.6	-28.7	15.2	0.00e+00	0	42	0	179306496	16	4123
2026-01-14 10:59:06.37	186.41	17.30	-27.6	-28.7	15.3	0.00e+00	0	42	0	182452224	16	4123
2026-01-14 10:59:07.37	186.49	17.41	-27.6	-28.8	15.3	0.00e+00	0	42	0	185597952	16	4125
2026-01-14 10:59:08.37	186.57	17.52	-27.5	-28.6	15.4	0.00e+00	0	42	0	188743680	16	4075
2026-01-14 10:59:09.38	186.65	17.64	-27.6	-28.8	15.3	0.00e+00	0	42	0	191889408	16	4130
2026-01-14 10:59:10.37	186.73	17.75	-27.6	-28.8	15.3	0.00e+00	0	42	0	195035136	16	4144
2026-01-14 10:59:11.37	186.81	17.86	-27.6	-28.8	15.2	0.00e+00	0	42	0	198180864	16	4143
2026-01-14 10:59:12.37	186.89	17.97	-27.6	-28.8	15.3	0.00e+00	0	42	0	201326592	16	4141
2026-01-14 10:59:13.37	186.97	18.09	-27.6	-28.8	15.3	0.00e+00	0	42	0	204472320	16	4138
2026-01-14 10:59:14.37	187.05	18.20	-27.6	-28.8	15.3	0.00e+00	0	42	0	207618048	16	4135
2026-01-14 10:59:15.38	187.13	18.32	-27.7	-29.0	15.2	0.00e+00	0	42	0	210763776	16	4190
2026-01-14 10:59:16.38	187.22	18.44	-27.7	-29.1	15.1	0.00e+00	0	42	0	213909504	16	4227
2026-01-14 10:59:17.38	187.30	18.55	-27.7	-29.1	15.1	0.00e+00	0	42	0	217055232	16	4222
2026-01-14 10:59:18.38	187.38	18.67	-27.7	-29.1	15.1	0.00e+00	0	42	0	220200960	16	4228
2026-01-14 10:59:19.39	187.47	18.79	-27.7	-29.1	15.1	0.00e+00	0	42	0	223346688	16	4223
2026-01-14 10:59:20.39	187.55	18.90	-27.7	-29.0	15.2	7.00e-07	0	42	0	226492416	16	4208
2026-01-14 10:59:21.40	187.64	19.02	-27.8	-29.2	15.1	0.00e+00	0	42	0	229638144	16	4260
2026-01-14 10:59:22.40	187.73	19.14	-27.8	-29.4	15.0	7.00e-07	0	42	0	232783872	16	4298
2026-01-14 10:59:23.41	187.81	19.26	-27.7	-29.0	15.2	0.00e+00	0	42	0	235929600	16	4190
2026-01-14 10:59:24.41	187.90	19.38	-27.7	-29.2	15.1	0.00e+00	0	42	0	239075328	16	4233
2026-01-14 10:59:25.41	187.99	19.50	-27.7	-29.1	15.1	0.00e+00	0	42	0	242221056	16	4226
2026-01-14 10:59:26.42	188.08	19.62	-27.7	-29.1	15.1	7.00e-07	0	43	0	245366784	16	4230
2026-01-14 10:59:27.42	188.17	19.74	-27.7	-29.1	15.2	0.00e+00	0	42	0	248512512	16	4219
2026-01-14 10:59:28.43	188.26	19.87	-27.7	-29.1	15.2	0.00e+00	0	42	0	251658240	16	4218
2026-01-14 10:59:29.43	188.35	19.99	-27.7	-29.0	15.2	0.00e+00	0	42	0	254803968	16	4198
2026-01-14 10:59:30.43	188.45	20.11	-27.7	-29.0	15.2	0.00e+00	0	42	0	257949696	16	4190
2026-01-14 10:59:31.43	188.54	20.23	-27.7	-29.0	15.2	0.00e+00	0	42	0	261095424	16	4190
2026-01-14 10:59:32.43	188.63	20.36	-27.7	-29.0	15.2	7.60e-06	0	42	0	263192576	16	4198
2026-01-14 10:59:33.43	188.73	20.48	-27.7	-29.0	15.2	0.00e+00	0	42	0	266338304	16	4204
2026-01-14 10:59:34.42	188.82	20.60	-27.7	-29.0	15.2	0.00e+00	0	42	0	269484032	16	4195
2026-01-14 10:59:35.43	188.92	20.73	-27.5	-28.5	15.5	0.00e+00	0	42	0	272629760	16	4068
2026-01-14 10:59:36.43	189.01	20.86	-27.4	-28.3	15.6	0.00e+00	0	42	0	275775488	16	4011
2026-01-14 10:59:37.43	189.11	20.98	-27.4	-28.4	15.6	0.00e+00	0	42	0	278921216	16	4038
2026-01-14 10:59:38.43	189.21	21.11	-27.4	-28.3	15.6	6.80e-06	0	42	0	282066944	16	4022
2026-01-14 10:59:39.43	189.31	21.24	-27.1	-28.2	15.8	0.00e+00	0	42	0	285212672	15	4102
2026-01-14 10:59:40.44	189.41	21.37	-27.1	-28.3	15.7	0.00e+00	0	42	0	288358400	15	4121
2026-01-14 10:59:41.44	189.51	21.50	-27.0	-27.9	15.9	3.80e-06	0	42	0	291504128	15	4034
2026-01-14 10:59:42.44	189.61	21.63	-26.9	-27.9	16.0	0.00e+00	0	42	0	294649856	15	4017
2026-01-14 10:59:43.44	189.71	21.76	-26.9	-27.8	16.0	0.00e+00	0	42	0	297795584	15	3992
2026-01-14 10:59:44.44	189.81	21.89	-26.7	-27.9	16.2	1.29e-05	0	42	0	300941312	14	4130
2026-01-14 10:59:45.44	189.91	22.02	-26.7	-27.8	16.3	0.00e+00	0	42	0	304087040	14	4110
2026-01-14 10:59:46.43	190.02	22.15	-26.6	-27.7	16.3	0.00e+00	0	42	0	307232768	14	4081
2026-01-14 10:59:47.44	190.12	22.28	-26.6	-27.5	16.4	9.10e-06	0	42	0	310378496	14	4035
2026-01-14 10:59:48.45	190.23	22.41	-26.6	-27.6	16.5	0.00e+00	0	42	0	313524224	14	4037
2026-01-14 10:59:49.45	190.34	22.55	-26.5	-27.5	16.5	0.00e+00	0	42	0	316669952	14	4027
2026-01-14 10:59:50.46	190.45	22.68	-26.4	-27.3	16.6	0.00e+00	0	42	0	319815680	14	3965
2026-01-14 10:59:51.46	190.56	22.82	-26.5	-27.3	16.6	0.00e+00	0	42	0	322961408	14	3965
2026-01-14 10:59:52.46	190.66	22.95	-26.4	-27.2	16.7	0.00e+00	0	42	0	326107136	14	3956
2026-01-14 10:59:53.46	190.78	23.09	-26.5	-27.4	16.6	0.00e+00	0	42	0	329252864	14	3983
2026-01-14 10:59:54.46	190.89	23.23	-26.5	-27.4	16.6	0.00e+00	0	42	0	332398592	14	3981
2026-01-14 10:59:55.46	191.00	23.36	-26.4	-27.1	16.7	0.00e+00	0	42	0	335544320	14	3924
2026-01-14 10:59:56.46	191.11	23.50	-26.4	-27.1	16.7	0.00e+00	0	42	0	338690048	14	3919
2026-01-14 10:59:57.47	191.23	23.64	-26.5	-27.3	16.6	0.00e+00	0	42	0	341835776	14	3968
2026-01-14 10:59:58.47	191.34	23.78	-26.4	-27.2	16.7	0.00e+00	0	42	0	344981504	14	3943
2026-01-14 10:59:59.48	191.46	23.92	-26.5	-27.3	16.7	0.00e+00	0	42	0	348127232	14	3961
2026-01-14 11:00:00.47	191.58	24.06	-26.5	-27.4	16.6	0.00e+00	0	42	0	351272960	14	3987
2026-01-14 11:00:01.48	191.70	24.20	-26.4	-27.3	16.7	0.00e+00	0	42	0	354418688	14	3957
2026-01-14 11:00:02.48	191.82	24.34	-26.5	-27.5	16.6	0.00e+00	0	42	0	357564416	14	4005
2026-01-14 11:00:03.48	191.94	24.48	-26.5	-27.4	16.6	0.00e+00	0	42	0	360710144	14	3985
2026-01-14 11:00:04.49	192.06	24.63	-26.5	-27.3	16.7	0.00e+00	0	42	0	363855872	14	3957
2026-01-14 11:00:05.49	192.18	24.77	-26.5	-27.4	16.6	0.00e+00	0	42	0	367001600	14	3997
2026-01-14 11:00:06.49	192.30	24.92	-26.6	-27.6	16.5	0.00e+00	0	42	0	370147328	14	4025
2026-01-14 11:00:07.49	192.43	25.06	-26.6	-27.6	16.5	0.00e+00	0	43	0	373293056	14	4049
2026-01-14 11:00:08.50	192.56	25.21	-26.7	-27.8	16.4	0.00e+00	0	42	0	376438784	14	4088
2026-01-14 11:00:09.50	192.68	25.35	-26.7	-27.7	16.4	0.00e+00	0	42	0	379584512	14	4071
2026-01-14 11:00:10.51	192.81	25.50	-26.7	-27.8	16.4	0.00e+00	0	43	0	382730240	14	4083
2026-01-14 11:00:11.51	192.94	25.65	-26.7	-27.8	16.4	0.00e+00	0	42	0	385875968	14	4081
2026-01-14 11:00:12.52	193.07	25.80	-26.7	-27.8	16.4	0.00e+00	0	42	0	389021696	14	4098
2026-01-14 11:00:13.52	193.21	25.95	-26.8	-28.1	16.3	0.00e+00	0	42	0	392167424	14	4160
2026-01-14 11:00:14.53	193.34	26.10	-26.9	-28.3	16.2	0.00e+00	0	43	0	395313152	14	4212
2026-01-14 11:00:15.53	193.47	26.25	-27.0	-28.5	16.1	0.00e+00	0	43	0	398458880	14	4259
2026-01-14 11:00:16.53	193.61	26.40	-27.0	-28.5	16.0	0.00e+00	0	43	0	401604608	14	4283
2026-01-14 11:00:17.53	193.75	26.55	-27.1	-28.7	16.0	0.00e+00	0	43	0	404750336	14	4322
2026-01-14 11:00:18.53	193.88	26.70	-27.1	-28.7	16.0	0.00e+00	0	43	0	407896064	14	4335
2026-01-14 11:00:19.54	194.02	26.86	-27.2	-29.0	15.8	0.00e+00	0	43	0	411041792	14	4408
2026-01-14 11:00:20.54	194.16	27.01	-27.2	-28.9	15.8	0.00e+00	0	43	0	414187520	14	4390
2026-01-14 11:00:21.55	194.31	27.16	-27.2	-28.9	15.9	0.00e+00	0	43	0	417333248	14	4373
2026-01-14 11:00:22.55	194.45	27.32	-27.3	-29.1	15.8	0.00e+00	0	42	0	420478976	14	4440
2026-01-14 11:00:23.56	194.60	27.48	-27.2	-28.9	15.9	0.00e+00	0	43	0	423624704	14	4390
2026-01-14 11:00:24.56	194.74	27.63	-27.2	-29.0	15.9	0.00e+00	0	42	0	426770432	14	4393
2026-01-14 11:00:25.56	194.89	27.79	-27.3	-29.1	15.8	0.00e+00	0	43	0	429916160	14	4429
2026-01-14 11:00:26.56	195.04	27.95	-27.2	-29.0	15.9	0.00e+00	0	43	0	433061888	14	4391
2026-01-14 11:00:27.57	195.19	28.11	-27.2	-28.8	15.9	0.00e+00	0	43	0	436207616	14	4350
2026-01-14 11:00:28.56	195.34	28.26	-27.2	-28.9	15.9	0.00e+00	0	43	0	439353344	14	4368
2026-01-14 11:00:29.57	195.49	28.43	-27.2	-28.9	15.9	0.00e+00	0	43	0	442499072	14	4369
2026-01-14 11:00:30.57	195.65	28.59	-27.3	-29.2	15.7	0.00e+00	0	43	0	445644800	14	4465
2026-01-14 11:00:31.58	195.81	28.75	-27.4	-29.4	15.6	0.00e+00	0	43	0	448790528	14	4513
2026-01-14 11:00:32.58	195.96	28.91	-27.5	-29.5	15.6	0.00e+00	0	43	0	451936256	14	4538
2026-01-14 11:00:33.58	196.12	29.07	-27.5	-29.1	15.5	0.00e+00	0	43	0	455081984	15	4326
2026-01-14 11:00:34.59	196.28	29.24	-27.7	-29.4	15.4	7.00e-07	0	43	0	458227712	15	4411
2026-01-14 11:00:35.59	196.45	29.40	-27.6	-29.3	15.4	0.00e+00	0	43	0	461373440	15	4382
2026-01-14 11:00:36.60	196.61	29.57	-27.5	-29.1	15.5	0.00e+00	0	43	0	464519168	15	4319
2026-01-14 11:00:37.60	196.78	29.73	-27.5	-29.0	15.6	0.00e+00	0	43	0	467664896	15	4302
2026-01-14 11:00:38.61	196.95	29.90	-27.4	-28.9	15.6	0.00e+00	0	43	0	470810624	15	4279
2026-01-14 11:00:39.61	197.12	30.07	-27.5	-29.0	15.6	0.00e+00	0	43	0	473956352	15	4292
2026-01-14 11:00:40.61	197.29	30.24	-27.4	-28.8	15.7	0.00e+00	0	43	0	477102080	15	4250
2026-01-14 11:00:41.61	197.46	30.41	-27.4	-28.7	15.7	0.00e+00	0	43	0	480247808	15	4222
2026-01-14 11:00:42.61	197.63	30.57	-27.3	-28.7	15.8	0.00e+00	0	43	0	483393536	15	4216
2026-01-14 11:00:43.61	197.81	30.74	-27.5	-29.1	15.6	7.00e-07	0	43	0	486539264	15	4308
2026-01-14 11:00:44.61	197.99	30.91	-27.4	-28.9	15.6	0.00e+00	0	43	0	489684992	15	4274
2026-01-14 11:00:45.62	198.17	31.09	-27.3	-28.7	15.7	0.00e+00	0	43	0	492830720	15	4220
2026-01-14 11:00:46.63	198.35	31.26	-27.3	-28.6	15.8	4.50e-06	0	43	0	495976448	15	4181
2026-01-14 11:00:47.63	198.53	31.43	-27.3	-28.6	15.8	0.00e+00	0	43	0	499122176	15	4181
2026-01-14 11:00:48.64	198.72	31.61	-27.2	-28.4	15.9	0.00e+00	0	43	0	502267904	15	4142
2026-01-14 11:00:49.64	198.91	31.78	-27.2	-28.4	15.9	1.50e-06	0	43	0	505413632	15	4141
2026-01-14 11:00:50.64	199.10	31.96	-27.2	-28.5	15.9	0.00e+00	0	43	0	508559360	15	4148
2026-01-14 11:00:51.65	199.29	32.13	-27.3	-28.6	15.8	0.00e+00	0	43	0	511705088	15	4192
2026-01-14 11:00:52.64	199.48	32.31	-27.4	-28.8	15.7	0.00e+00	0	43	0	514850816	15	4234
2026-01-14 11:00:53.64	199.68	32.48	-27.4	-28.9	15.7	0.00e+00	0	43	0	516947968	15	4271
2026-01-14 11:00:54.64	199.88	32.66	-27.4	-28.9	15.7	0.00e+00	0	43	0	520093696	15	4274
2026-01-14 11:00:55.64	200.08	32.84	-27.6	-29.3	15.5	0.00e+00	0	43	0	523239424	15	4373
2026-01-14 11:00:56.64	200.28	33.02	-27.7	-29.5	15.4	0.00e+00	0	43	0	526385152	15	4428
2026-01-14 11:00:57.65	200.48	33.20	-27.7	-29.4	15.4	0.00e+00	0	43	0	529530880	15	4412
2026-01-14 11:00:58.65	200.69	33.38	-27.8	-29.7	15.3	0.00e+00	0	43	0	532676608	15	4497
2026-01-14 11:00:59.66	200.90	33.56	-27.9	-30.0	15.1	0.00e+00	0	43	0	536870912	15	4582
2026-01-14 11:01:00.66	201.11	33.74	-28.1	-30.0	15.0	7.00e-07	0	43	0	538968064	16	4440
2026-01-14 11:01:01.67	201.33	33.93	-28.3	-30.4	14.8	0.00e+00	0	43	0	542113792	16	4575
2026-01-14 11:01:02.67	201.54	34.11	-28.3	-30.4	14.8	0.00e+00	0	43	0	545259520	16	4556
2026-01-14 11:01:03.68	201.76	34.30	-28.4	-30.5	14.7	0.00e+00	0	43	0	548405248	16	4619
2026-01-14 11:01:04.69	201.98	34.48	-28.4	-30.6	14.6	0.00e+00	0	43	0	551550976	16	4635
2026-01-14 11:01:05.69	202.21	34.67	-28.4	-30.1	14.7	0.00e+00	0	43	0	554696704	17	4378
2026-01-14 11:01:06.69	202.43	34.85	-28.6	-30.6	14.4	7.00e-07	0	43	0	557842432	17	4516
2026-01-14 11:01:07.69	202.66	35.04	-28.6	-30.6	14.3	7.00e-07	0	43	0	560988160	17	4529
2026-01-14 11:01:08.69	202.89	35.22	-28.6	-30.6	14.4	0.00e+00	0	43	0	564133888	17	4519
2026-01-14 11:01:09.69	203.12	35.41	-28.7	-30.7	14.3	0.00e+00	0	43	0	567279616	17	4547
2026-01-14 11:01:10.69	203.36	35.60	-28.7	-30.8	14.3	7.00e-07	0	43	0	570425344	17	4597
2026-01-14 11:01:11.69	203.59	35.79	-28.8	-31.1	14.1	2.20e-06	0	43	0	573571072	17	4680
2026-01-14 11:01:12.69	203.84	35.98	-28.7	-30.9	14.2	3.00e-06	0	43	0	576716800	17	4602
2026-01-14 11:01:13.69	204.08	36.16	-28.7	-30.9	14.2	0.00e+00	0	43	0	579862528	17	4609
2026-01-14 11:01:14.69	204.33	36.35	-28.8	-31.0	14.1	1.50e-06	0	43	0	583008256	17	4654
2026-01-14 11:01:15.69	204.57	36.54	-28.9	-31.2	14.0	3.80e-06	0	43	0	586153984	17	4717
2026-01-14 11:01:16.70	204.83	36.74	-29.1	-31.3	13.7	4.50e-06	0	43	0	589299712	18	4619
2026-01-14 11:01:17.70	205.08	36.93	-29.3	-31.7	13.4	1.22e-05	0	43	0	592445440	18	4763
2026-01-14 11:01:18.70	205.34	37.12	-29.4	-32.0	13.3	1.83e-05	0	43	0	595591168	18	4844
2026-01-14 11:01:19.71	205.61	37.32	-29.4	-31.9	13.3	2.05e-05	0	43	0	598736896	18	4826
2026-01-14 11:01:20.71	205.87	37.51	-29.3	-31.8	13.4	1.37e-05	0	43	0	601882624	18	4788
2026-01-14 11:01:21.72	206.14	37.70	-29.3	-31.8	13.4	1.75e-05	0	43	0	605028352	18	4788
2026-01-14 11:01:22.72	206.41	37.90	-29.3	-31.8	13.4	9.10e-06	0	43	0	608174080	18	4796
2026-01-14 11:01:23.72	206.68	38.09	-29.4	-31.9	13.4	2.05e-05	0	43	0	611319808	18	4821
2026-01-14 11:01:24.73	206.96	38.29	-29.5	-31.8	13.1	2.13e-05	0	43	0	614465536	19	4687
2026-01-14 11:01:25.73	207.24	38.48	-29.5	-31.7	13.2	2.59e-05	0	43	0	617611264	19	4636
2026-01-14 11:01:26.74	207.53	38.68	-29.4	-31.6	13.3	1.44e-05	0	43	0	620756992	19	4599
2026-01-14 11:01:27.74	207.82	38.88	-29.4	-31.4	13.4	1.06e-05	0	43	0	623902720	19	4541
2026-01-14 11:01:28.75	208.11	39.07	-29.3	-31.2	13.5	1.14e-05	0	43	0	627048448	19	4476
2026-01-14 11:01:29.75	208.40	39.27	-29.4	-31.4	13.4	2.21e-05	0	43	0	630194176	19	4546
2026-01-14 11:01:30.75	208.70	39.47	-29.6	-32.0	13.0	1.90e-05	0	43	0	633339904	19	4724
2026-01-14 11:01:31.75	209.00	39.66	-29.6	-31.9	13.0	4.11e-05	0	43	0	636485632	19	4697
2026-01-14 11:01:32.75	209.30	39.86	-29.5	-31.7	13.2	3.12e-05	0	43	0	639631360	19	4654
2026-01-14 11:01:33.75	209.61	40.06	-29.4	-31.5	13.3	1.83e-05	0	43	0	642777088	19	4586
2026-01-14 11:01:34.75	209.92	40.25	-29.6	-31.9	13.1	2.59e-05	0	43	0	645922816	19	4694
2026-01-14 11:01:35.75	210.24	40.45	-29.5	-31.6	13.2	2.44e-05	0	43	0	649068544	19	4605
2026-01-14 11:01:36.76	210.56	40.65	-29.4	-31.4	13.4	1.37e-05	0	43	0	652214272	19	4546
2026-01-14 11:01:37.77	210.89	40.85	-29.4	-31.3	13.4	1.29e-05	0	43	0	655360000	19	4526
2026-01-14 11:01:38.77	211.21	41.05	-29.4	-31.5	13.3	1.14e-05	0	43	0	658505728	19	4563
2026-01-14 11:01:39.77	211.55	41.25	-29.4	-31.4	13.4	1.37e-05	0	43	0	661651456	19	4559
2026-01-14 11:01:40.77	211.88	41.44	-29.5	-31.7	13.3	1.22e-05	0	43	0	664797184	19	4618
2026-01-14 11:01:41.77	212.22	41.64	-29.5	-31.6	13.3	2.51e-05	0	43	0	667942912	19	4622
2026-01-14 11:01:42.77	212.56	41.84	-29.4	-31.6	13.3	1.90e-05	0	43	0	671088640	19	4595
2026-01-14 11:01:43.77	212.91	42.04	-29.2	-31.0	13.6	9.90e-06	0	43	0	674234368	19	4431
2026-01-14 11:01:44.77	213.26	42.24	-29.2	-31.0	13.7	9.10e-06	0	43	0	677380096	19	4424
2026-01-14 11:01:45.77	213.62	42.43	-29.3	-31.1	13.6	6.80e-06	0	43	0	680525824	19	4440
2026-01-14 11:01:46.78	213.98	42.63	-29.3	-31.2	13.6	6.10e-06	0	43	0	683671552	19	4463
2026-01-14 11:01:47.78	214.35	42.83	-29.4	-31.5	13.4	6.80e-06	0	43	0	686817280	19	4566
2026-01-14 11:01:48.78	214.72	43.03	-29.6	-31.9	13.1	3.20e-05	0	43	0	689963008	19	4711
2026-01-14 11:01:49.79	215.09	43.23	-29.7	-32.1	13.0	2.67e-05	0	43	0	693108736	19	4744
2026-01-14 11:01:50.79	215.47	43.42	-29.6	-31.8	13.1	3.50e-05	0	43	0	696254464	19	4669
2026-01-14 11:01:51.80	215.86	43.62	-29.8	-32.3	12.9	4.80e-05	0	43	0	699400192	19	4817
2026-01-14 11:01:52.80	216.24	43.82	-29.6	-31.9	13.1	3.20e-05	0	43	0	702545920	19	4705
2026-01-14 11:01:53.81	216.64	44.01	-29.5	-31.7	13.2	1.98e-05	0	43	0	705691648	19	4631
2026-01-14 11:01:54.81	217.04	44.21	-29.6	-31.9	13.1	2.59e-05	0	43	0	708837376	19	4691
2026-01-14 11:01:55.81	217.44	44.40	-29.5	-31.7	13.2	1.67e-05	0	43	0	711983104	19	4639
2026-01-14 11:01:56.81	217.85	44.59	-29.4	-31.5	13.4	1.98e-05	0	43	0	715128832	19	4559
2026-01-14 11:01:57.81	218.26	44.79	-29.5	-31.6	13.3	2.36e-05	0	43	0	718274560	19	4606
2026-01-14 11:01:58.82	218.68	44.98	-29.3	-31.2	13.6	8.30e-06	0	43	0	721420288	19	4463
2026-01-14 11:01:59.81	219.09	45.17	-29.2	-30.8	13.8	6.80e-06	0	43	0	724566016	19	4356
2026-01-14 11:02:00.81	219.52	45.36	-29.3	-31.2	13.6	6.80e-06	0	43	0	727711744	19	4463
2026-01-14 11:02:01.82	219.96	45.55	-29.4	-31.5	13.4	1.37e-05	0	43	0	730857472	19	4552
2026-01-14 11:02:02.82	220.39	45.74	-29.5	-31.7	13.3	1.83e-05	0	43	0	734003200	19	4611
2026-01-14 11:02:03.82	220.84	45.93	-29.6	-31.8	13.2	2.51e-05	0	43	0	737148928	19	4652
2026-01-14 11:02:04.82	221.28	46.12	-29.8	-32.3	12.9	3.50e-05	0	43	0	740294656	19	4830
2026-01-14 11:02:05.82	221.74	46.30	-29.8	-32.3	12.9	4.27e-05	0	43	0	743440384	19	4813
2026-01-14 11:02:06.83	222.20	46.49	-29.8	-32.4	12.9	3.89e-05	0	43	0	746586112	19	4865
2026-01-14 11:02:07.83	222.66	46.67	-29.8	-32.5	12.9	4.73e-05	0	43	0	749731840	19	4888
2026-01-14 11:02:08.84	223.13	46.86	-29.9	-32.5	12.8	6.86e-05	0	43	0	752877568	19	4889
2026-01-14 11:02:09.84	223.61	47.04	-29.9	-32.6	12.7	5.49e-05	0	43	0	756023296	19	4925
2026-01-14 11:02:10.85	224.09	47.22	-29.9	-32.2	12.6	8.62e-05	0	43	0	759169024	20	4688
2026-01-14 11:02:11.86	224.58	47.40	-30.3	-33.2	12.0	2.28e-04	0	43	0	762314752	20	5031
2026-01-14 11:02:12.86	225.07	47.58	-29.9	-32.2	12.6	1.49e-04	0	43	0	765460480	20	4687
2026-01-14 11:02:13.86	225.57	47.75	-29.7	-31.6	13.0	4.50e-05	0	43	0	768606208	20	4494
2026-01-14 11:02:14.87	226.07	47.93	-29.5	-31.2	13.3	1.83e-05	0	43	0	771751936	20	4349
2026-01-14 11:02:15.87	226.58	48.10	-29.3	-30.7	13.5	1.29e-05	0	43	0	774897664	20	4216
2026-01-14 11:02:16.88	227.10	48.27	-29.5	-31.5	13.5	9.10e-06	0	43	0	778043392	19	4559
2026-01-14 11:02:17.88	227.62	48.44	-29.4	-31.4	13.5	1.44e-05	0	43	0	781189120	19	4521
2026-01-14 11:02:18.89	228.15	48.61	-29.5	-31.7	13.4	1.37e-05	0	43	0	784334848	19	4615
2026-01-14 11:02:19.89	228.68	48.77	-29.6	-31.8	13.2	1.60e-05	0	43	0	787480576	19	4663
2026-01-14 11:02:20.88	229.20	48.93	-29.8	-32.4	12.9	4.42e-05	0	43	0	790626304	19	4845
2026-01-14 11:02:21.88	229.75	49.09	-29.8	-32.4	12.9	4.57e-05	0	43	0	792723456	19	4854
2026-01-14 11:02:22.88	230.29	49.25	-29.5	-31.6	13.4	1.67e-05	0	43	0	795869184	19	4590
2026-01-14 11:02:23.88	230.84	49.41	-29.1	-30.7	14.0	3.80e-06	0	43	0	799014912	19	4323
2026-01-14 11:02:24.88	231.40	49.56	-29.0	-30.5	14.0	7.00e-07	0	43	0	802160640	19	4260
2026-01-14 11:02:25.88	231.96	49.72	-29.0	-30.5	14.1	2.20e-06	0	43	0	805306368	19	4260
2026-01-14 11:02:26.89	232.54	49.87	-29.4	-31.4	13.5	8.30e-06	0	43	0	808452096	19	4522
2026-01-14 11:02:27.89	233.11	50.01	-29.4	-31.4	13.5	1.22e-05	0	43	0	811597824	19	4524
2026-01-14 11:02:28.89	233.69	50.16	-29.2	-30.8	13.8	2.20e-06	0	43	0	814743552	19	4342
2026-01-14 11:02:29.89	234.28	50.30	-29.1	-30.5	14.0	3.80e-06	0	43	0	817889280	19	4273
2026-01-14 11:02:30.89	234.87	50.44	-29.3	-31.2	13.6	6.80e-06	0	43	0	821035008	19	4467
2026-01-14 11:02:31.89	235.46	50.57	-29.3	-31.2	13.7	6.10e-06	0	43	0	824180736	19	4471
2026-01-14 11:02:32.89	236.06	50.71	-29.6	-31.8	13.4	8.30e-06	0	43	0	827326464	19	4638
2026-01-14 11:02:33.89	236.67	50.84	-29.7	-32.2	13.1	2.13e-05	0	43	0	830472192	19	4784
2026-01-14 11:02:34.89	237.28	50.96	-30.0	-32.5	12.5	1.05e-04	0	43	0	833617920	20	4780
2026-01-14 11:02:35.90	237.90	51.09	-29.8	-31.9	12.9	5.87e-05	0	43	0	836763648	20	4596
2026-01-14 11:02:36.90	238.52	51.21	-29.6	-31.3	13.2	3.35e-05	0	43	0	839909376	20	4391
2026-01-14 11:02:37.91	239.16	51.33	-29.2	-30.9	13.9	3.80e-06	0	43	0	843055104	19	4381
2026-01-14 11:02:38.91	239.79	51.45	-28.9	-30.2	14.3	7.00e-07	0	43	0	846200832	19	4186
2026-01-14 11:02:39.91	240.42	51.56	-29.1	-30.7	14.0	3.00e-06	0	43	0	849346560	19	4308
2026-01-14 11:02:40.91	241.06	51.66	-29.2	-30.8	13.9	3.00e-06	0	43	0	852492288	19	4335
2026-01-14 11:02:41.92	241.72	51.77	-29.0	-30.5	14.1	1.50e-06	0	43	0	855638016	19	4249
2026-01-14 11:02:42.92	242.36	51.87	-29.0	-30.4	14.2	2.20e-06	0	43	0	858783744	19	4230
2026-01-14 11:02:43.92	243.02	51.97	-29.2	-30.9	13.9	3.80e-06	0	43	0	861929472	19	4359
2026-01-14 11:02:44.91	243.67	52.06	-29.2	-30.9	13.8	3.00e-06	0	43	0	865075200	19	4381
2026-01-14 11:02:45.92	244.34	52.15	-29.5	-31.7	13.4	1.52e-05	0	43	0	868220928	19	4608
2026-01-14 11:02:46.91	245.00	52.24	-29.2	-30.9	13.9	4.50e-06	0	43	0	871366656	19	4373
2026-01-14 11:02:47.92	245.67	52.32	-28.8	-30.0	14.4	7.00e-07	0	43	0	874512384	19	4110
2026-01-14 11:02:48.92	246.35	52.40	-28.6	-29.8	14.8	0.00e+00	0	43	0	877658112	18	4179
2026-01-14 11:02:49.92	247.02	52.47	-28.7	-30.3	14.5	0.00e+00	0	43	0	880803840	18	4315
2026-01-14 11:02:50.91	247.70	52.54	-28.7	-30.2	14.5	6.10e-06	0	43	0	883949568	18	4290
2026-01-14 11:02:51.92	248.39	52.61	-28.8	-30.4	14.4	0.00e+00	0	43	0	887095296	18	4345
2026-01-14 11:02:52.92	249.07	52.68	-28.5	-29.8	14.8	0.00e+00	0	43	0	890241024	18	4173
2026-01-14 11:02:53.92	249.76	52.73	-28.5	-29.7	14.8	0.00e+00	0	43	0	893386752	18	4157
2026-01-14 11:02:54.92	250.45	52.79	-28.8	-30.4	14.4	0.00e+00	0	43	0	896532480	18	4354
2026-01-14 11:02:55.93	251.16	52.84	-28.8	-30.5	14.3	1.50e-06	0	43	0	899678208	18	4365
2026-01-14 11:02:56.93	251.85	52.89	-29.0	-31.1	14.0	8.30e-06	0	43	0	902823936	18	4541
2026-01-14 11:02:57.93	252.55	52.93	-28.8	-30.4	14.4	3.00e-06	0	43	0	905969664	18	4336
2026-01-14 11:02:58.94	253.26	52.96	-28.6	-30.1	14.6	0.00e+00	0	43	0	909115392	18	4246
2026-01-14 11:02:59.94	253.96	53.00	-28.5	-29.8	14.9	6.10e-06	0	43	0	912261120	18	4161
2026-01-14 11:03:00.95	254.67	53.03	-28.6	-29.9	14.7	7.00e-07	0	43	0	915406848	18	4202
2026-01-14 11:03:01.95	255.37	53.05	-28.4	-29.5	15.0	0.00e+00	0	43	0	918552576	18	4071
2026-01-14 11:03:02.96	256.09	53.07	-28.4	-29.4	15.0	7.00e-07	0	43	0	921698304	18	4064
2026-01-14 11:03:03.95	256.79	53.09	-28.7	-30.2	14.6	0.00e+00	0	43	0	924844032	18	4283
2026-01-14 11:03:04.95	257.49	53.10	-28.8	-30.4	14.5	0.00e+00	0	43	0	927989760	18	4348
2026-01-14 11:03:05.95	258.20	53.11	-28.7	-30.1	14.7	6.10e-06	0	43	0	931135488	18	4241
2026-01-14 11:03:06.95	258.91	53.11	-28.5	-29.8	14.8	0.00e+00	0	43	0	934281216	18	4165
2026-01-14 11:03:07.96	259.62	53.11	-28.8	-30.4	14.5	2.20e-06	0	43	0	937426944	18	4320
2026-01-14 11:03:08.96	260.33	53.10	-28.7	-30.2	14.6	0.00e+00	0	43	0	940572672	18	4277
2026-01-14 11:03:09.96	261.04	53.09	-29.0	-30.8	14.3	3.80e-06	0	43	0	943718400	18	4460
2026-01-14 11:03:10.96	261.75	53.08	-28.7	-30.3	14.5	2.20e-06	0	43	0	946864128	18	4304
2026-01-14 11:03:11.97	262.46	53.06	-28.6	-29.9	14.8	0.00e+00	0	43	0	950009856	18	4188
2026-01-14 11:03:12.98	263.17	53.03	-28.6	-30.0	14.8	0.00e+00	0	43	0	953155584	18	4224
2026-01-14 11:03:13.98	263.87	53.00	-28.4	-29.5	15.1	0.00e+00	0	43	0	956301312	18	4084
2026-01-14 11:03:14.99	264.58	52.97	-28.4	-29.5	14.9	0.00e+00	0	43	0	959447040	18	4103
2026-01-14 11:03:16.00	265.29	52.93	-28.5	-29.7	14.8	0.00e+00	0	43	0	962592768	18	4136
2026-01-14 11:03:17.00	265.99	52.89	-28.3	-29.7	15.2	0.00e+00	0	43	0	965738496	17	4243
2026-01-14 11:03:18.00	266.69	52.85	-28.5	-30.4	14.8	0.00e+00	0	43	0	968884224	17	4438
2026-01-14 11:03:19.00	267.38	52.80	-28.5	-30.3	14.8	0.00e+00	0	43	0	972029952	17	4410
2026-01-14 11:03:20.00	268.07	52.75	-28.4	-30.1	14.9	0.00e+00	0	43	0	975175680	17	4361
2026-01-14 11:03:21.00	268.76	52.69	-28.4	-30.0	15.0	0.00e+00	0	43	0	978321408	17	4324
2026-01-14 11:03:22.00	269.45	52.63	-28.7	-30.7	14.6	7.00e-07	0	43	0	981467136	17	4543
2026-01-14 11:03:23.01	270.14	52.56	-29.4	-31.9	13.6	3.80e-06	0	43	0	984612864	18	4831
2026-01-14 11:03:24.01	270.82	52.49	-29.6	-32.0	13.2	3.20e-05	0	43	0	987758592	19	4743
2026-01-14 11:03:25.02	271.50	52.42	-29.6	-32.0	13.2	2.74e-05	0	43	0	990904320	19	4718
2026-01-14 11:03:26.02	272.17	52.34	-29.5	-31.6	13.5	1.44e-05	0	43	0	994050048	19	4592
2026-01-14 11:03:27.02	272.84	52.26	-29.7	-32.2	13.1	1.98e-05	0	43	0	997195776	19	4780
2026-01-14 11:03:28.02	273.51	52.17	-29.5	-31.7	13.4	1.60e-05	0	43	0	1000341504	19	4626
2026-01-14 11:03:29.02	274.17	52.08	-29.2	-30.9	13.8	6.80e-06	0	43	0	1003487232	19	4394
2026-01-14 11:03:30.01	274.82	51.99	-28.9	-30.4	14.2	1.50e-06	0	43	0	1006632960	19	4236
2026-01-14 11:03:31.02	275.48	51.89	-28.9	-30.3	14.3	2.20e-06	0	43	0	1009778688	19	4209
2026-01-14 11:03:32.02	276.13	51.79	-29.3	-31.4	13.6	3.00e-06	0	43	0	1012924416	19	4537
2026-01-14 11:03:33.02	276.78	51.69	-29.0	-30.4	14.1	2.20e-06	0	43	0	1016070144	19	4242
2026-01-14 11:03:34.02	277.42	51.58	-28.5	-29.7	14.9	0.00e+00	0	43	0	1019215872	18	4150
2026-01-14 11:03:35.03	278.06	51.47	-28.4	-29.5	15.0	0.00e+00	0	43	0	1021313024	18	4086
2026-01-14 11:03:36.02	278.69	51.36	-28.7	-30.2	14.6	0.00e+00	0	43	0	1024458752	18	4277
2026-01-14 11:03:37.03	279.32	51.24	-29.0	-31.0	14.2	1.50e-06	0	43	0	1027604480	18	4515
2026-01-14 11:03:38.02	279.93	51.12	-28.9	-30.8	14.3	1.50e-06	0	43	0	1030750208	18	4441
2026-01-14 11:03:39.03	280.56	51.00	-29.1	-31.2	14.0	0.00e+00	0	43	0	1033895936	18	4569
2026-01-14 11:03:40.03	281.17	50.87	-29.6	-31.8	13.4	2.20e-06	0	43	0	1037041664	19	4640
2026-01-14 11:03:41.04	281.78	50.74	-29.5	-31.6	13.5	1.37e-05	0	43	0	1040187392	19	4596
2026-01-14 11:03:42.04	282.38	50.61	-29.5	-31.6	13.5	5.30e-06	0	43	0	1043333120	19	4597
2026-01-14 11:03:43.05	282.98	50.47	-29.4	-31.4	13.7	1.14e-05	0	43	0	1046478848	19	4509
2026-01-14 11:03:44.05	283.57	50.33	-29.5	-31.5	13.6	1.22e-05	0	43	0	1049624576	19	4559
2026-01-14 11:03:45.05	284.16	50.19	-29.5	-31.5	13.5	1.22e-05	0	43	0	1052770304	19	4558
2026-01-14 11:03:46.04	284.73	50.05	-29.6	-31.9	13.4	9.90e-06	0	43	0	1055916032	19	4681
2026-01-14 11:03:47.05	285.31	49.90	-29.6	-31.9	13.3	1.90e-05	0	43	0	1059061760	19	4686
2026-01-14 11:03:48.05	285.88	49.75	-29.8	-32.4	13.1	2.89e-05	0	43	0	1062207488	19	4845
2026-01-14 11:03:49.06	286.45	49.60	-29.5	-31.6	13.4	1.44e-05	0	43	0	1065353216	19	4598
2026-01-14 11:03:50.06	287.00	49.45	-29.2	-31.0	13.9	9.10e-06	0	43	0	1068498944	19	4389
2026-01-14 11:03:51.05	287.55	49.29	-29.1	-30.5	14.2	2.20e-06	0	43	0	1071644672	19	4237
2026-01-14 11:03:52.05	288.10	49.14	-29.4	-31.2	13.8	7.00e-07	0	43	0	1074790400	19	4442
2026-01-14 11:03:53.06	288.64	48.98	-29.5	-31.6	13.6	3.80e-06	0	43	0	1077936128	19	4563
2026-01-14 11:03:54.06	289.18	48.81	-29.7	-32.1	13.3	1.44e-05	0	43	0	1081081856	19	4731
2026-01-14 11:03:55.06	289.71	48.65	-29.5	-31.5	13.7	6.80e-06	0	43	0	1084227584	19	4533
2026-01-14 11:03:56.06	290.23	48.48	-29.5	-31.7	13.5	7.60e-06	0	43	0	1087373312	19	4585
2026-01-14 11:03:57.06	290.75	48.32	-29.6	-31.7	13.5	9.10e-06	0	43	0	1090519040	19	4596
2026-01-14 11:03:58.06	291.26	48.15	-29.4	-31.2	13.8	6.10e-06	0	43	0	1093664768	19	4437
2026-01-14 11:03:59.07	291.77	47.98	-29.2	-30.9	14.0	3.00e-06	0	43	0	1096810496	19	4348
2026-01-14 11:04:00.06	292.27	47.80	-29.3	-31.1	13.9	3.80e-06	0	43	0	1099956224	19	4403
2026-01-14 11:04:01.06	292.77	47.63	-29.5	-31.4	13.7	5.30e-06	0	43	0	1103101952	19	4499
2026-01-14 11:04:02.07	293.26	47.45	-29.8	-32.1	13.2	1.75e-05	0	43	0	1106247680	19	4729
2026-01-14 11:04:03.06	293.74	47.28	-29.7	-31.9	13.4	1.52e-05	0	43	0	1109393408	19	4659
2026-01-14 11:04:04.07	294.22	47.10	-29.7	-31.9	13.3	1.60e-05	0	43	0	1112539136	19	4659
2026-01-14 11:04:05.07	294.70	46.92	-29.9	-32.6	12.9	4.34e-05	0	43	0	1115684864	19	4900
2026-01-14 11:04:06.08	295.17	46.73	-29.6	-31.9	13.4	1.67e-05	0	43	0	1118830592	19	4649
2026-01-14 11:04:07.08	295.64	46.55	-29.4	-31.2	13.8	5.30e-06	0	43	0	1121976320	19	4452
2026-01-14 11:04:08.09	296.10	46.37	-29.3	-31.0	13.9	6.80e-06	0	43	0	1125122048	19	4368
2026-01-14 11:04:09.09	296.55	46.18	-29.5	-31.6	13.6	4.50e-06	0	43	0	1128267776	19	4555
2026-01-14 11:04:10.09	297.00	45.99	-29.5	-31.4	13.7	8.30e-06	0	43	0	1131413504	19	4495
2026-01-14 11:04:11.09	297.44	45.81	-29.6	-31.7	13.5	9.10e-06	0	43	0	1134559232	19	4592
2026-01-14 11:04:12.10	297.88	45.62	-29.5	-31.4	13.7	7.60e-06	0	43	0	1137704960	19	4513
2026-01-14 11:04:13.11	298.32	45.43	-29.5	-31.5	13.7	1.06e-05	0	43	0	1140850688	19	4527
2026-01-14 11:04:14.10	298.74	45.24	-29.6	-31.8	13.5	7.60e-06	0	43	0	1143996416	19	4629
2026-01-14 11:04:15.10	299.16	45.05	-29.6	-31.7	13.6	8.30e-06	0	43	0	1147142144	19	4603
2026-01-14 11:04:16.10	299.58	44.86	-29.6	-31.8	13.5	9.10e-06	0	43	0	1150287872	19	4638
2026-01-14 11:04:17.10	299.99	44.67	-29.8	-32.2	13.3	1.14e-05	0	43	0	1153433600	19	4738
2026-01-14 11:04:18.09	300.39	44.48	-30.1	-32.5	12.7	8.54e-05	0	43	0	1156579328	20	4760
2026-01-14 11:04:19.09	300.79	44.28	-30.2	-32.9	12.5	8.08e-05	0	43	0	1159725056	20	4869
2026-01-14 11:04:20.10	301.19	44.09	-30.7	-33.4	11.7	3.71e-04	0	43	0	1162870784	21	4967
2026-01-14 11:04:21.10	301.59	43.89	-30.7	-33.4	11.7	4.22e-04	0	43	0	1166016512	21	4959
2026-01-14 11:04:22.11	301.98	43.70	-30.8	-33.8	11.4	8.87e-04	0	43	0	1169162240	21	5099
2026-01-14 11:04:23.11	302.36	43.50	-30.4	-32.8	12.1	3.46e-04	0	43	0	1172307968	21	4738
2026-01-14 11:04:24.11	302.74	43.31	-30.3	-32.4	12.4	1.71e-04	0	43	0	1175453696	21	4613
2026-01-14 11:04:25.12	303.12	43.11	-30.4	-32.7	12.2	1.55e-04	0	43	0	1178599424	21	4720
2026-01-14 11:04:26.12	303.49	42.91	-30.3	-32.7	12.2	2.24e-04	0	43	0	1181745152	21	4702
2026-01-14 11:04:27.13	303.86	42.72	-30.3	-32.4	12.4	1.70e-04	0	43	0	1184890880	21	4624
2026-01-14 11:04:28.13	304.22	42.52	-30.2	-32.4	12.5	1.15e-04	0	43	0	1188036608	21	4615
2026-01-14 11:04:29.13	304.57	42.32	-30.1	-32.1	12.6	1.19e-04	0	43	0	1191182336	21	4524
2026-01-14 11:04:30.14	304.93	42.12	-29.8	-31.7	13.2	3.89e-05	0	43	0	1194328064	20	4484
2026-01-14 11:04:31.13	305.27	41.93	-29.4	-30.8	13.7	1.37e-05	0	43	0	1197473792	20	4230
2026-01-14 11:04:32.14	305.62	41.73	-29.2	-30.7	14.1	1.50e-06	0	43	0	1200619520	19	4307
2026-01-14 11:04:33.14	305.96	41.53	-29.2	-30.7	14.1	7.00e-07	0	43	0	1203765248	19	4298
2026-01-14 11:04:34.15	306.30	41.34	-29.7	-31.9	13.4	9.90e-06	0	43	0	1206910976	19	4662
2026-01-14 11:04:35.16	306.63	41.14	-29.8	-32.2	13.2	1.90e-05	0	43	0	1210056704	19	4760
2026-01-14 11:04:36.16	306.96	40.94	-29.8	-32.3	13.2	2.89e-05	0	43	0	1213202432	19	4785
2026-01-14 11:04:37.17	307.28	40.74	-30.0	-32.4	12.7	4.95e-05	0	43	0	1216348160	20	4721
2026-01-14 11:04:38.18	307.61	40.54	-30.3	-33.1	12.3	1.71e-04	0	43	0	1219493888	20	4962
2026-01-14 11:04:39.18	307.92	40.35	-30.5	-33.1	12.0	3.76e-04	0	43	0	1222639616	21	4850
2026-01-14 11:04:40.18	308.23	40.15	-30.6	-33.3	11.9	4.81e-04	0	43	0	1225785344	21	4923
2026-01-14 11:04:41.19	308.55	39.95	-30.3	-32.6	12.3	2.59e-04	0	43	0	1228931072	21	4678
2026-01-14 11:04:42.20	308.85	39.75	-29.9	-31.5	12.9	6.56e-05	0	43	0	1232076800	21	4349
2026-01-14 11:04:43.21	309.16	39.56	-29.7	-31.5	13.3	2.89e-05	0	43	0	1235222528	20	4434
2026-01-14 11:04:44.21	309.45	39.36	-29.8	-31.7	13.2	2.21e-05	0	43	0	1238368256	20	4489
2026-01-14 11:04:45.21	309.75	39.16	-30.1	-32.5	12.7	6.48e-05	0	43	0	1241513984	20	4755
2026-01-14 11:04:46.21	310.04	38.97	-29.9	-32.0	13.0	3.89e-05	0	43	0	1244659712	20	4595
2026-01-14 11:04:47.22	310.33	38.77	-29.7	-31.6	13.2	2.67e-05	0	43	0	1247805440	20	4487
2026-01-14 11:04:48.22	310.61	38.58	-29.6	-31.4	13.4	1.52e-05	0	43	0	1250951168	20	4396
2026-01-14 11:04:49.23	310.89	38.38	-29.7	-31.5	13.2	2.21e-05	0	43	0	1254096896	20	4437
2026-01-14 11:04:50.22	311.17	38.19	-29.9	-32.2	12.9	5.26e-05	0	43	0	1257242624	20	4647
2026-01-14 11:04:51.23	311.44	38.00	-29.9	-32.1	12.8	6.63e-05	0	43	0	1260388352	20	4643
2026-01-14 11:04:52.24	311.72	37.80	-30.1	-32.6	12.5	9.46e-05	0	43	0	1263534080	20	4809
2026-01-14 11:04:53.25	311.99	37.61	-29.5	-31.1	13.4	2.74e-05	0	43	0	1266679808	20	4334
2026-01-14 11:04:54.25	312.25	37.42	-29.1	-30.5	14.2	3.80e-06	0	43	0	1269825536	19	4230
2026-01-14 11:04:55.25	312.51	37.22	-28.7	-30.2	14.7	0.00e+00	0	43	0	1272971264	18	4268
2026-01-14 11:04:56.25	312.77	37.03	-28.8	-30.2	14.6	7.00e-07	0	43	0	1276116992	18	4270
2026-01-14 11:04:57.25	313.03	36.84	-28.9	-30.5	14.5	0.00e+00	0	43	0	1279262720	18	4340
2026-01-14 11:04:58.24	313.28	36.66	-29.0	-30.8	14.3	1.50e-06	0	43	0	1281359872	18	4442
2026-01-14 11:04:59.24	313.53	36.47	-29.4	-31.8	13.7	6.10e-06	0	43	0	1284505600	18	4748
2026-01-14 11:05:00.24	313.77	36.28	-29.3	-31.6	13.8	3.80e-06	0	43	0	1287651328	18	4696
2026-01-14 11:05:01.24	314.02	36.09	-29.7	-32.0	13.3	1.22e-05	0	43	0	1291845632	19	4702
2026-01-14 11:05:02.24	314.26	35.90	-29.8	-32.2	13.2	2.59e-05	0	43	0	1293942784	19	4745
2026-01-14 11:05:03.24	314.50	35.71	-29.3	-31.0	13.9	4.50e-06	0	43	0	1297088512	19	4384
2026-01-14 11:05:04.24	314.73	35.53	-28.9	-30.1	14.4	2.20e-06	0	43	0	1300234240	19	4133
2026-01-14 11:05:05.24	314.96	35.34	-28.9	-30.0	14.4	3.80e-06	0	43	0	1303379968	19	4115
2026-01-14 11:05:06.25	315.20	35.15	-28.9	-30.1	14.4	7.00e-07	0	43	0	1306525696	19	4125
2026-01-14 11:05:07.26	315.43	34.97	-29.0	-30.3	14.3	0.00e+00	0	43	0	1309671424	19	4206
2026-01-14 11:05:08.25	315.65	34.78	-29.0	-30.4	14.2	7.00e-07	0	43	0	1312817152	19	4221
2026-01-14 11:05:09.25	315.87	34.60	-29.3	-31.1	13.8	3.80e-06	0	43	0	1315962880	19	4429
2026-01-14 11:05:10.26	316.10	34.42	-29.3	-31.1	13.8	6.80e-06	0	43	0	1319108608	19	4430
2026-01-14 11:05:11.26	316.31	34.23	-29.2	-30.8	13.9	5.30e-06	0	43	0	1322254336	19	4352
2026-01-14 11:05:12.26	316.53	34.05	-29.0	-30.3	14.3	3.00e-06	0	43	0	1325400064	19	4197
2026-01-14 11:05:13.27	316.74	33.87	-28.8	-30.3	14.6	0.00e+00	0	43	0	1328545792	18	4294
2026-01-14 11:05:14.27	316.96	33.69	-28.6	-30.0	14.7	0.00e+00	0	43	0	1331691520	18	4212
2026-01-14 11:05:15.27	317.16	33.51	-28.5	-29.6	15.0	0.00e+00	0	43	0	1334837248	18	4116
2026-01-14 11:05:16.27	317.37	33.33	-28.6	-30.0	14.8	7.00e-07	0	43	0	1337982976	18	4204
2026-01-14 11:05:17.27	317.58	33.15	-28.8	-30.3	14.6	0.00e+00	0	43	0	1341128704	18	4294
2026-01-14 11:05:18.26	317.78	32.97	-28.6	-29.9	14.8	0.00e+00	0	43	0	1344274432	18	4183
2026-01-14 11:05:19.27	317.98	32.79	-28.4	-29.4	15.1	0.00e+00	0	43	0	1347420160	18	4042
2026-01-14 11:05:20.27	318.18	32.62	-28.1	-29.3	15.4	0.00e+00	0	43	0	1350565888	17	4131
2026-01-14 11:05:21.28	318.37	32.44	-27.9	-28.9	15.6	0.00e+00	0	43	0	1353711616	17	4029
2026-01-14 11:05:22.28	318.57	32.27	-27.9	-28.8	15.7	0.00e+00	0	43	0	1356857344	17	3986
2026-01-14 11:05:23.29	318.76	32.09	-27.9	-28.8	15.6	0.00e+00	0	43	0	1360003072	17	4002
2026-01-14 11:05:24.30	318.95	31.91	-27.8	-29.0	15.8	0.00e+00	0	43	0	1363148800	16	4155
2026-01-14 11:05:25.30	319.14	31.74	-27.7	-28.8	15.9	0.00e+00	0	43	0	1366294528	16	4105
2026-01-14 11:05:26.30	319.32	31.57	-27.8	-29.0	15.8	0.00e+00	0	43	0	1369440256	16	4153
2026-01-14 11:05:27.30	319.51	31.40	-27.9	-29.3	15.6	0.00e+00	0	43	0	1372585984	16	4232
2026-01-14 11:05:28.31	319.69	31.22	-27.9	-29.3	15.7	0.00e+00	0	43	0	1375731712	16	4229
2026-01-14 11:05:29.30	319.87	31.06	-27.9	-29.2	15.7	0.00e+00	0	43	0	1378877440	16	4220
2026-01-14 11:05:30.31	320.05	30.88	-27.6	-28.6	16.0	0.00e+00	0	43	0	1382023168	16	4047
2026-01-14 11:05:31.32	320.23	30.71	-27.5	-28.3	16.2	0.00e+00	0	43	0	1385168896	16	3980
2026-01-14 11:05:32.32	320.40	30.55	-27.4	-28.2	16.2	0.00e+00	0	43	0	1388314624	16	3950
2026-01-14 11:05:33.31	320.57	30.38	-27.4	-28.2	16.2	0.00e+00	0	43	0	1391460352	16	3941
2026-01-14 11:05:34.32	320.75	30.21	-27.5	-28.4	16.1	0.00e+00	0	43	0	1394606080	16	4007
2026-01-14 11:05:35.33	320.92	30.04	-27.6	-28.7	16.0	0.00e+00	0	43	0	1397751808	16	4079
2026-01-14 11:05:36.33	321.09	29.88	-27.7	-28.8	15.9	0.00e+00	0	43	0	1400897536	16	4102
2026-01-14 11:05:37.33	321.25	29.71	-27.6	-28.7	15.9	0.00e+00	0	43	0	1404043264	16	4086
2026-01-14 11:05:38.34	321.42	29.55	-27.8	-29.0	15.8	0.00e+00	0	43	0	1407188992	16	4159
2026-01-14 11:05:39.34	321.58	29.38	-27.9	-29.3	15.6	0.00e+00	0	43	0	1410334720	16	4249
2026-01-14 11:05:40.34	321.74	29.22	-28.0	-29.6	15.5	0.00e+00	0	43	0	1413480448	16	4311
2026-01-14 11:05:41.35	321.90	29.06	-28.1	-29.7	15.4	0.00e+00	0	43	0	1416626176	16	4353
2026-01-14 11:05:42.35	322.06	28.90	-28.1	-29.7	15.4	0.00e+00	0	43	0	1419771904	16	4362
2026-01-14 11:05:43.35	322.22	28.74	-28.1	-29.8	15.3	0.00e+00	0	43	0	1422917632	16	4388
2026-01-14 11:05:44.36	322.37	28.58	-28.0	-29.6	15.5	0.00e+00	0	43	0	1426063360	16	4317
2026-01-14 11:05:45.36	322.53	28.42	-27.9	-29.3	15.6	0.00e+00	0	43	0	1429209088	16	4237
2026-01-14 11:05:46.37	322.68	28.26	-27.9	-29.3	15.6	0.00e+00	0	43	0	1432354816	16	4229
2026-01-14 11:05:47.37	322.83	28.10	-27.7	-28.9	15.8	0.00e+00	0	43	0	1435500544	16	4130
2026-01-14 11:05:48.36	322.98	27.94	-27.6	-28.7	16.0	0.00e+00	0	43	0	1438646272	16	4062
2026-01-14 11:05:49.37	323.13	27.79	-27.7	-28.9	15.8	0.00e+00	0	43	0	1441792000	16	4129
2026-01-14 11:05:50.37	323.27	27.63	-27.8	-29.2	15.7	0.00e+00	0	43	0	1444937728	16	4208
2026-01-14 11:05:51.37	323.42	27.48	-27.7	-29.0	15.8	0.00e+00	0	43	0	1448083456	16	4146
2026-01-14 11:05:52.37	323.56	27.32	-27.7	-28.8	15.9	0.00e+00	0	43	0	1451229184	16	4106
2026-01-14 11:05:53.37	323.70	27.17	-27.7	-28.8	15.9	0.00e+00	0	43	0	1454374912	16	4108
2026-01-14 11:05:54.38	323.85	27.01	-27.7	-28.8	15.8	0.00e+00	0	43	0	1457520640	16	4120
2026-01-14 11:05:55.38	323.99	26.86	-27.5	-28.4	16.1	0.00e+00	0	43	0	1460666368	16	3997
2026-01-14 11:05:56.38	324.12	26.71	-27.5	-28.3	16.1	0.00e+00	0	43	0	1463812096	16	3987
2026-01-14 11:05:57.39	324.26	26.56	-27.5	-28.4	16.1	0.00e+00	0	43	0	1466957824	16	4007
2026-01-14 11:05:58.38	324.40	26.41	-27.5	-28.5	16.0	0.00e+00	0	43	0	1470103552	16	4026
2026-01-14 11:05:59.39	324.53	26.26	-27.4	-28.2	16.2	0.00e+00	0	43	0	1473249280	16	3946
2026-01-14 11:06:00.39	324.67	26.11	-27.4	-28.1	16.2	0.00e+00	0	43	0	1476395008	16	3934
2026-01-14 11:06:01.38	324.80	25.96	-27.4	-28.1	16.2	0.00e+00	0	43	0	1479540736	16	3928
2026-01-14 11:06:02.39	324.93	25.81	-27.3	-28.0	16.3	0.00e+00	0	43	0	1482686464	16	3887
2026-01-14 11:06:03.40	325.06	25.67	-27.4	-28.3	16.1	0.00e+00	0	43	0	1485832192	16	3971
2026-01-14 11:06:04.40	325.19	25.52	-27.5	-28.3	16.1	0.00e+00	0	43	0	1488977920	16	3988
2026-01-14 11:06:05.41	325.32	25.37	-27.5	-28.4	16.1	0.00e+00	0	43	0	1492123648	16	3999
2026-01-14 11:06:06.41	325.44	25.23	-27.5	-28.4	16.1	0.00e+00	0	43	0	1495269376	16	4003
2026-01-14 11:06:07.42	325.57	25.08	-27.6	-28.6	15.9	0.00e+00	0	43	0	1498415104	16	4061
2026-01-14 11:06:08.42	325.69	24.94	-27.6	-28.8	15.9	0.00e+00	0	43	0	1501560832	16	4093
2026-01-14 11:06:09.42	325.82	24.80	-27.6	-28.8	15.9	0.00e+00	0	43	0	1504706560	16	4096
2026-01-14 11:06:10.43	325.94	24.65	-27.6	-28.7	15.9	0.00e+00	0	43	0	1507852288	16	4087
2026-01-14 11:06:11.43	326.06	24.51	-27.7	-28.8	15.8	0.00e+00	0	43	0	1510998016	16	4116
2026-01-14 11:06:12.43	326.18	24.37	-27.6	-28.7	15.9	0.00e+00	0	43	0	1514143744	16	4078
2026-01-14 11:06:13.44	326.30	24.23	-27.8	-29.1	15.7	0.00e+00	0	43	0	1517289472	16	4184
2026-01-14 11:06:14.44	326.42	24.09	-27.9	-29.4	15.5	0.00e+00	0	43	0	1520435200	16	4273
2026-01-14 11:06:15.45	326.54	23.95	-27.9	-29.5	15.4	0.00e+00	0	43	0	1523580928	16	4289
2026-01-14 11:06:16.44	326.65	23.81	-28.0	-29.7	15.3	0.00e+00	0	43	0	1526726656	16	4339
2026-01-14 11:06:17.45	326.77	23.67	-28.0	-29.6	15.4	0.00e+00	0	43	0	1529872384	16	4319
2026-01-14 11:06:18.46	326.88	23.53	-28.1	-29.7	15.3	0.00e+00	0	43	0	1533018112	16	4359
2026-01-14 11:06:19.46	327.00	23.40	-28.2	-30.0	15.1	0.00e+00	0	43	0	1536163840	16	4455
2026-01-14 11:06:20.46	327.11	23.26	-28.2	-30.0	15.2	0.00e+00	0	43	0	1539309568	16	4434
2026-01-14 11:06:21.46	327.22	23.13	-28.2	-30.1	15.1	0.00e+00	0	43	0	1542455296	16	4460
2026-01-14 11:06:22.47	327.33	22.99	-28.2	-30.1	15.1	0.00e+00	0	43	0	1545601024	16	4455
2026-01-14 11:06:23.47	327.44	22.86	-28.0	-29.5	15.4	0.00e+00	0	43	0	1548746752	16	4303
2026-01-14 11:06:24.48	327.55	22.72	-27.8	-29.2	15.6	0.00e+00	0	43	0	1550843904	16	4205
2026-01-14 11:06:25.48	327.66	22.59	-27.7	-28.9	15.8	0.00e+00	0	43	0	1553989632	16	4138
2026-01-14 11:06:26.49	327.76	22.46	-27.7	-28.9	15.7	0.00e+00	0	43	0	1557135360	16	4139
2026-01-14 11:06:27.48	327.87	22.33	-27.7	-28.9	15.7	0.00e+00	0	43	0	1560281088	16	4144
2026-01-14 11:06:28.49	327.97	22.19	-27.7	-28.8	15.8	0.00e+00	0	43	0	1563426816	16	4120
2026-01-14 11:06:29.49	328.08	22.06	-27.7	-28.9	15.7	0.00e+00	0	43	0	1566572544	16	4139
2026-01-14 11:06:30.50	328.18	21.93	-27.6	-28.7	15.8	0.00e+00	0	43	0	1570766848	16	4090
2026-01-14 11:06:31.50	328.28	21.80	-27.7	-28.8	15.8	0.00e+00	0	43	0	1572864000	16	4111
2026-01-14 11:06:32.50	328.39	21.67	-27.7	-28.8	15.7	0.00e+00	0	43	0	1576009728	16	4123
2026-01-14 11:06:33.51	328.49	21.54	-27.7	-28.9	15.7	0.00e+00	0	43	0	1579155456	16	4132
2026-01-14 11:06:34.51	328.59	21.42	-27.7	-28.9	15.7	0.00e+00	0	43	0	1582301184	16	4148
2026-01-14 11:06:35.52	328.69	21.29	-27.7	-29.0	15.7	0.00e+00	0	43	0	1585446912	16	4162
2026-01-14 11:06:36.52	328.79	21.16	-27.8	-29.0	15.7	0.00e+00	0	43	0	1588592640	16	4173
2026-01-14 11:06:37.52	328.88	21.04	-27.8	-29.2	15.6	0.00e+00	0	43	0	1591738368	16	4205
2026-01-14 11:06:38.53	328.98	20.91	-27.8	-29.0	15.6	0.00e+00	0	43	0	1594884096	16	4170
2026-01-14 11:06:39.54	329.08	20.78	-27.7	-29.0	15.7	0.00e+00	0	43	0	1598029824	16	4150
2026-01-14 11:06:40.54	329.17	20.66	-27.7	-29.0	15.6	0.00e+00	0	43	0	1601175552	16	4166
2026-01-14 11:06:41.55	329.27	20.53	-27.8	-29.1	15.6	0.00e+00	0	43	0	1604321280	16	4179
2026-01-14 11:06:42.54	329.36	20.41	-27.8	-29.2	15.5	0.00e+00	0	43	0	1607467008	16	4209
2026-01-14 11:06:43.54	329.46	20.29	-27.8	-29.1	15.6	0.00e+00	0	43	0	1610612736	16	4190
2026-01-14 11:06:44.55	329.55	20.17	-28.0	-29.5	15.4	0.00e+00	0	43	0	1613758464	16	4297
2026-01-14 11:06:45.56	329.64	20.04	-28.0	-29.6	15.3	0.00e+00	0	43	0	1616904192	16	4335
2026-01-14 11:06:46.56	329.73	19.92	-27.9	-29.4	15.4	0.00e+00	0	43	0	1620049920	16	4285
2026-01-14 11:06:47.56	329.82	19.80	-28.0	-29.7	15.2	0.00e+00	0	43	0	1623195648	16	4351
2026-01-14 11:06:48.57	329.91	19.68	-28.1	-29.9	15.1	0.00e+00	0	43	0	1626341376	16	4429
2026-01-14 11:06:49.57	330.00	19.56	-28.1	-29.9	15.1	0.00e+00	0	43	0	1629487104	16	4431
2026-01-14 11:06:50.56	330.09	19.44	-28.2	-30.0	15.0	7.00e-07	0	44	0	1632632832	16	4464
2026-01-14 11:06:51.57	330.18	19.32	-28.2	-30.1	14.9	0.00e+00	0	43	0	1635778560	16	4486
2026-01-14 11:06:52.58	330.27	19.20	-28.3	-30.3	14.9	1.50e-06	0	43	0	1638924288	16	4526
2026-01-14 11:06:53.58	330.35	19.09	-28.2	-30.1	15.0	0.00e+00	0	43	0	1642070016	16	4479
2026-01-14 11:06:54.59	330.44	18.97	-28.0	-29.7	15.2	0.00e+00	0	43	0	1645215744	16	4360
2026-01-14 11:06:55.59	330.52	18.85	-27.9	-29.5	15.3	0.00e+00	0	43	0	1648361472	16	4317
2026-01-14 11:06:56.59	330.61	18.74	-27.9	-29.5	15.3	0.00e+00	0	43	0	1651507200	16	4310
2026-01-14 11:06:57.59	330.69	18.62	-27.9	-29.4	15.3	0.00e+00	0	43	0	1654652928	16	4278
2026-01-14 11:06:58.59	330.78	18.51	-27.9	-29.4	15.3	0.00e+00	0	43	0	1657798656	16	4282
2026-01-14 11:06:59.59	330.86	18.39	-27.9	-29.4	15.3	0.00e+00	0	43	0	1660944384	16	4271
2026-01-14 11:07:00.59	330.94	18.28	-27.9	-29.3	15.3	0.00e+00	0	43	0	1664090112	16	4265
2026-01-14 11:07:01.59	331.02	18.16	-27.8	-29.2	15.4	0.00e+00	0	43	0	1667235840	16	4240
2026-01-14 11:07:02.59	331.10	18.05	-27.8	-29.2	15.4	0.00e+00	0	43	0	1670381568	16	4235
2026-01-14 11:07:03.60	331.19	17.94	-27.8	-29.3	15.4	0.00e+00	0	43	0	1673527296	16	4247
2026-01-14 11:07:04.61	331.27	17.82	-27.9	-29.3	15.3	0.00e+00	0	43	0	1676673024	16	4261
2026-01-14 11:07:05.61	331.35	17.71	-27.9	-29.3	15.3	0.00e+00	0	43	0	1679818752	16	4268
2026-01-14 11:07:06.62	331.43	17.60	-27.8	-29.3	15.4	0.00e+00	0	43	0	1682964480	16	4252
2026-01-14 11:07:07.62	331.50	17.49	-27.8	-29.1	15.5	0.00e+00	0	43	0	1686110208	16	4198
2026-01-14 11:07:08.63	331.58	17.38	-27.8	-29.1	15.4	0.00e+00	0	43	0	1689255936	16	4207
2026-01-14 11:07:09.64	331.66	17.27	-27.7	-29.0	15.5	0.00e+00	0	43	0	1692401664	16	4175
2026-01-14 11:07:10.64	331.74	17.16	-27.7	-29.0	15.5	0.00e+00	0	43	0	1695547392	16	4168
2026-01-14 11:07:11.64	331.81	17.05	-27.8	-29.1	15.4	0.00e+00	0	43	0	1698693120	16	4211
2026-01-14 11:07:12.64	331.89	16.94	-27.8	-29.2	15.4	0.00e+00	0	43	0	1701838848	16	4228
2026-01-14 11:07:13.65	331.96	16.83	-27.8	-29.3	15.3	0.00e+00	0	43	0	1704984576	16	4258
2026-01-14 11:07:14.65	332.04	16.72	-28.0	-29.6	15.2	0.00e+00	0	43	0	1708130304	16	4331
2026-01-14 11:07:15.66	332.11	16.61	-27.9	-29.5	15.2	0.00e+00	0	43	0	1711276032	16	4299
2026-01-14 11:07:16.66	332.19	16.51	-27.9	-29.4	15.3	0.00e+00	0	43	0	1714421760	16	4274
2026-01-14 11:07:17.66	332.26	16.40	-27.8	-29.3	15.3	0.00e+00	0	43	0	1717567488	16	4250
2026-01-14 11:07:18.67	332.33	16.29	-27.9	-29.6	15.1	0.00e+00	0	43	0	1720713216	16	4338
2026-01-14 11:07:19.67	332.41	16.19	-28.0	-29.7	15.0	0.00e+00	0	43	0	1723858944	16	4383
2026-01-14 11:07:20.68	332.48	16.08	-28.1	-29.9	14.9	0.00e+00	0	43	0	1727004672	16	4423
2026-01-14 11:07:21.69	332.55	15.98	-28.1	-29.9	14.9	0.00e+00	0	43	0	1730150400	16	4435
2026-01-14 11:07:22.69	332.62	15.87	-27.9	-29.5	15.1	0.00e+00	0	43	0	1733296128	16	4318
2026-01-14 11:07:23.69	332.69	15.77	-28.0	-29.8	15.0	0.00e+00	0	43	0	1736441856	16	4394
2026-01-14 11:07:24.70	332.76	15.66	-28.0	-29.7	15.0	0.00e+00	0	43	0	1739587584	16	4372
2026-01-14 11:07:25.69	332.83	15.56	-28.0	-29.8	14.9	0.00e+00	0	43	0	1742733312	16	4417
2026-01-14 11:07:26.70	332.90	15.46	-28.0	-29.8	15.0	7.00e-07	0	43	0	1745879040	16	4403
2026-01-14 11:07:27.70	332.97	15.36	-28.1	-29.9	14.9	7.00e-07	0	43	0	1749024768	16	4417
2026-01-14 11:07:28.71	333.04	15.25	-28.2	-30.0	14.8	1.50e-06	0	43	0	1752170496	16	4465
2026-01-14 11:07:29.71	333.10	15.15	-28.1	-30.0	14.8	1.50e-06	0	43	0	1755316224	16	4455
2026-01-14 11:07:30.70	333.17	15.05	-28.2	-30.0	14.8	2.20e-06	0	43	0	1758461952	16	4474
2026-01-14 11:07:31.71	333.24	14.95	-28.2	-30.2	14.7	0.00e+00	0	43	0	1761607680	16	4534
2026-01-14 11:07:32.71	333.30	14.85	-28.2	-30.3	14.7	0.00e+00	0	43	0	1764753408	16	4541
2026-01-14 11:07:33.72	333.37	14.75	-28.3	-30.5	14.5	7.00e-07	0	43	0	1767899136	16	4615
2026-01-14 11:07:34.72	333.44	14.65	-28.3	-30.5	14.5	2.20e-06	0	43	0	1771044864	16	4609
2026-01-14 11:07:35.72	333.50	14.55	-28.5	-30.8	14.3	7.00e-07	0	43	0	1774190592	16	4719
2026-01-14 11:07:36.73	333.57	14.45	-28.4	-30.6	14.5	0.00e+00	0	43	0	1777336320	16	4648
2026-01-14 11:07:37.73	333.63	14.35	-28.4	-30.6	14.5	7.00e-07	0	43	0	1780482048	16	4637
2026-01-14 11:07:38.72	333.69	14.26	-28.5	-30.7	14.3	7.00e-07	0	43	0	1783627776	16	4686
2026-01-14 11:07:39.73	333.76	14.16	-28.4	-30.7	14.4	7.00e-07	0	43	0	1786773504	16	4683
2026-01-14 11:07:40.73	333.82	14.06	-28.6	-30.5	14.2	7.00e-07	0	43	0	1789919232	17	4513
2026-01-14 11:07:41.74	333.89	13.96	-28.7	-30.9	14.0	3.80e-06	0	43	0	1793064960	17	4621
2026-01-14 11:07:42.75	333.95	13.86	-28.8	-31.0	13.9	4.50e-06	0	43	0	1796210688	17	4667
2026-01-14 11:07:43.75	334.01	13.77	-28.9	-31.2	13.7	5.30e-06	0	43	0	1799356416	17	4725
2026-01-14 11:07:44.76	334.07	13.67	-28.8	-31.0	13.9	3.00e-06	0	43	0	1802502144	17	4657
2026-01-14 11:07:45.76	334.13	13.58	-28.6	-30.7	14.0	3.00e-06	0	43	0	1805647872	17	4567
2026-01-14 11:07:46.76	334.19	13.48	-28.5	-30.4	14.2	7.00e-07	0	43	0	1808793600	17	4484
2026-01-14 11:07:47.76	334.26	13.39	-28.5	-30.5	14.1	3.80e-06	0	43	0	1811939328	17	4526
2026-01-14 11:07:48.77	334.32	13.29	-28.6	-30.6	14.1	9.10e-06	0	43	0	1815085056	17	4548
2026-01-14 11:07:49.77	334.38	13.20	-28.5	-30.5	14.1	0.00e+00	0	43	0	1818230784	17	4507
2026-01-14 11:07:50.78	334.44	13.10	-28.6	-30.6	14.0	1.50e-06	0	43	0	1821376512	17	4561
2026-01-14 11:07:51.78	334.49	13.01	-28.5	-30.6	14.1	2.20e-06	0	43	0	1824522240	17	4552
2026-01-14 11:07:52.78	334.55	12.91	-28.5	-30.6	14.0	1.50e-06	0	43	0	1827667968	17	4553
2026-01-14 11:07:53.79	334.61	12.82	-28.7	-31.0	13.7	3.80e-06	0	43	0	1830813696	17	4682
2026-01-14 11:07:54.80	334.67	12.73	-28.6	-30.8	13.8	5.30e-06	0	43	0	1833959424	17	4626
2026-01-14 11:07:55.80	334.73	12.64	-28.8	-31.1	13.7	4.50e-06	0	43	0	1837105152	17	4722
2026-01-14 11:07:56.80	334.79	12.54	-28.7	-31.1	13.7	6.80e-06	0	43	0	1840250880	17	4721
2026-01-14 11:07:57.81	334.84	12.45	-28.8	-31.2	13.6	6.10e-06	0	43	0	1843396608	17	4748
2026-01-14 11:07:58.81	334.90	12.36	-28.7	-30.9	13.8	6.80e-06	0	43	0	1846542336	17	4659
2026-01-14 11:07:59.81	334.96	12.27	-28.6	-30.8	13.8	5.30e-06	0	43	0	1849688064	17	4645
2026-01-14 11:08:00.82	335.01	12.18	-28.7	-31.1	13.6	1.29e-05	0	43	0	1852833792	17	4742
2026-01-14 11:08:01.82	335.07	12.09	-28.7	-31.2	13.6	1.14e-05	0	43	0	1855979520	17	4763
2026-01-14 11:08:02.82	335.13	12.00	-28.8	-31.3	13.5	1.14e-05	0	43	0	1859125248	17	4804
2026-01-14 11:08:03.82	335.18	11.91	-28.7	-31.1	13.6	8.30e-06	0	43	0	1862270976	17	4737
2026-01-14 11:08:04.83	335.24	11.82	-28.7	-31.1	13.6	8.30e-06	0	44	0	1865416704	17	4727
2026-01-14 11:08:05.83	335.29	11.73	-28.7	-31.1	13.6	9.10e-06	0	43	0	1868562432	17	4745
2026-01-14 11:08:06.84	335.34	11.64	-28.8	-31.5	13.3	1.60e-05	0	43	0	1871708160	17	4886
2026-01-14 11:08:07.84	335.40	11.55	-28.7	-31.3	13.4	1.98e-05	0	43	0	1874853888	17	4813
2026-01-14 11:08:08.85	335.45	11.46	-28.7	-31.0	13.6	3.00e-06	0	43	0	1877999616	17	4710
2026-01-14 11:08:09.85	335.51	11.37	-28.8	-31.2	13.5	1.14e-05	0	43	0	1881145344	17	4782
2026-01-14 11:08:10.86	335.56	11.29	-28.8	-31.3	13.5	1.29e-05	0	43	0	1884291072	17	4795
2026-01-14 11:08:11.87	335.61	11.20	-28.8	-31.3	13.4	1.06e-05	0	43	0	1887436800	17	4803
2026-01-14 11:08:12.86	335.67	11.11	-28.9	-31.6	13.3	2.36e-05	0	43	0	1890582528	17	4885
2026-01-14 11:08:13.87	335.72	11.02	-28.8	-31.4	13.4	1.44e-05	0	43	0	1893728256	17	4822
2026-01-14 11:08:14.87	335.77	10.94	-28.7	-31.2	13.5	6.10e-06	0	43	0	1896873984	17	4785
2026-01-14 11:08:15.88	335.82	10.85	-28.8	-31.4	13.3	1.37e-05	0	43	0	1898971136	17	4855
2026-01-14 11:08:16.88	335.87	10.76	-28.7	-31.3	13.4	1.06e-05	0	43	0	1902116864	17	4820
2026-01-14 11:08:17.89	335.93	10.68	-28.8	-31.4	13.3	1.37e-05	0	43	0	1905262592	17	4858
2026-01-14 11:08:18.90	335.98	10.59	-28.9	-31.7	13.1	3.89e-05	0	43	0	1909456896	17	4984
2026-01-14 11:08:19.90	336.03	10.51	-28.9	-31.7	13.1	2.97e-05	0	43	0	1912602624	17	4976
2026-01-14 11:08:20.91	336.08	10.42	-29.0	-31.4	12.9	3.96e-05	0	43	0	1915748352	18	4792
2026-01-14 11:08:21.91	336.13	10.34	-29.1	-31.9	12.6	8.23e-05	0	43	0	1918894080	18	4953
2026-01-14 11:08:22.91	336.18	10.25	-29.0	-31.5	12.8	8.23e-05	0	43	0	1920991232	18	4833
2026-01-14 11:08:23.92	336.23	10.17	-29.0	-31.7	12.7	6.33e-05	0	43	0	1924136960	18	4860
2026-01-14 11:08:24.93	336.28	10.08	-29.0	-31.5	12.8	6.40e-05	0	43	0	1927282688	18	4825
2026-01-14 11:08:25.93	336.33	10.00	-29.0	-31.6	12.7	6.02e-05	0	43	0	1930428416	18	4887
2026-01-14 11:08:26.93	336.37	9.92	-29.0	-31.5	12.8	7.40e-05	0	43	0	1933574144	18	4843
2026-01-14 11:08:27.94	336.42	9.83	-29.1	-31.8	12.6	8.92e-05	0	43	0	1936719872	18	4931
2026-01-14 11:08:28.94	336.47	9.75	-28.9	-31.4	12.8	5.56e-05	0	43	0	1939865600	18	4789
2026-01-14 11:08:29.94	336.52	9.67	-28.8	-31.1	13.1	4.04e-05	0	43	0	1943011328	18	4680
2026-01-14 11:08:30.94	336.57	9.59	-28.7	-30.7	13.3	1.83e-05	0	43	0	1946157056	18	4551
2026-01-14 11:08:31.94	336.62	9.51	-28.9	-31.1	13.1	1.75e-05	0	43	0	1949302784	18	4645
2026-01-14 11:08:32.95	336.66	9.42	-28.8	-30.9	13.2	1.75e-05	0	43	0	1952448512	18	4612
2026-01-14 11:08:33.95	336.71	9.34	-28.9	-31.2	13.0	4.11e-05	0	43	0	1955594240	18	4735
2026-01-14 11:08:34.95	336.76	9.26	-28.8	-31.1	13.1	3.73e-05	0	43	0	1958739968	18	4670
2026-01-14 11:08:35.96	336.80	9.18	-28.8	-31.1	13.0	3.66e-05	0	43	0	1961885696	18	4685
2026-01-14 11:08:36.96	336.85	9.10	-28.8	-31.1	13.0	4.04e-05	0	43	0	1965031424	18	4695
2026-01-14 11:08:37.97	336.90	9.02	-28.7	-30.8	13.1	3.20e-05	0	43	0	1968177152	18	4609
2026-01-14 11:08:38.98	336.94	8.94	-28.8	-31.2	13.0	3.81e-05	0	43	0	1971322880	18	4707
2026-01-14 11:08:39.98	336.99	8.86	-28.8	-31.2	12.9	5.03e-05	0	43	0	1974468608	18	4730
2026-01-14 11:08:40.99	337.03	8.78	-28.9	-31.3	12.8	3.66e-05	0	43	0	1977614336	18	4766
2026-01-14 11:08:41.99	337.08	8.70	-29.0	-31.5	12.7	8.54e-05	0	43	0	1980760064	18	4812
2026-01-14 11:08:43.00	337.13	8.62	-29.0	-31.4	12.9	6.86e-05	0	43	0	1983905792	18	4747
2026-01-14 11:08:44.00	337.17	8.54	-29.2	-32.0	12.5	9.53e-05	0	43	0	1987051520	18	4967
2026-01-14 11:08:45.00	337.21	8.46	-29.0	-31.4	12.8	8.54e-05	0	43	0	1990197248	18	4773
2026-01-14 11:08:46.00	337.26	8.38	-29.1	-31.8	12.6	6.48e-05	0	43	0	1993342976	18	4885
2026-01-14 11:08:47.00	337.30	8.31	-29.1	-31.7	12.6	1.02e-04	0	43	0	1996488704	18	4852
2026-01-14 11:08:48.01	337.35	8.23	-29.2	-31.9	12.4	9.30e-05	0	43	0	1999634432	18	4963
2026-01-14 11:08:49.01	337.39	8.15	-29.5	-32.7	12.0	3.27e-04	0	43	0	2002780160	18	5222
2026-01-14 11:08:50.01	337.43	8.07	-29.4	-32.5	12.0	3.33e-04	0	43	0	2005925888	18	5178
2026-01-14 11:08:51.01	337.48	7.99	-29.2	-32.2	12.2	2.23e-04	0	43	0	2009071616	18	5070
2026-01-14 11:08:52.01	337.52	7.92	-29.0	-31.7	12.5	1.62e-04	0	43	0	2012217344	18	4903
2026-01-14 11:08:53.02	337.56	7.84	-29.0	-31.7	12.4	1.79e-04	0	43	0	2015363072	18	4954
2026-01-14 11:08:54.02	337.61	7.76	-28.9	-31.5	12.6	1.30e-04	0	43	0	2018508800	18	4863
