passes_logs/2026/01/14/R2M6_AANII_01/R2M6_AANII_01__20260114_235527_NOAA_20_JPSS-1_rec.log

#Pass ID: 20260114_235527_NOAA 20 (JPSS-1)
#Satellite: NOAA 20 (JPSS-1)
#Configuration: NOAA 20
#almurnet v.1.7.20240730
#Start time: 2026-01-14 23:55:27

#Version: 2.2.20231116
#Station: R2M6_AANII_01
#Location: 30.233357 lon 59.946436 lat
#TLE: 1 43013U 17073A   26014.13176244  .00000049  00000+0  44136-4 0  9994
#TLE: 2 43013  98.7634 315.0803 0001538  40.6488 319.4803 14.19535812422619

#Time	Az	El	Level	Level2	SNR	BER	BlckErr	Temp	State	Recorded	gain1	gain2
2026-01-14 23:55:27.04	20.47	6.99	-31.7	-38.4	4.9	1.29e+00	0	41	0	0	23	7820
2026-01-14 23:55:28.04	20.49	7.06	-31.9	-39.3	4.8	1.33e+00	0	41	104	0	23	8481
2026-01-14 23:55:29.05	20.52	7.14	-31.9	-39.3	6.7	2.13e-01	0	41	0	0	23	8450
2026-01-14 23:55:30.05	20.55	7.22	-31.8	-38.7	7.2	1.32e-01	0	41	0	1048576	23	7964
2026-01-14 23:55:31.05	20.58	7.29	-31.9	-39.3	6.7	1.78e-01	0	41	0	3145728	23	8473
2026-01-14 23:55:32.05	20.60	7.37	-31.7	-38.5	7.4	1.43e-01	0	41	0	5242880	23	7819
2026-01-14 23:55:33.05	20.63	7.45	-31.8	-38.6	7.3	1.32e-01	0	41	0	7340032	23	7897
2026-01-14 23:55:34.06	20.66	7.52	-31.8	-38.5	7.4	1.11e-01	0	41	0	9437184	23	7799
2026-01-14 23:55:35.06	20.69	7.60	-31.6	-37.7	7.9	9.58e-02	0	41	0	10485760	23	7292
2026-01-14 23:55:36.06	20.72	7.68	-31.4	-37.4	8.6	5.46e-02	0	41	0	12582912	22	7171
2026-01-14 23:55:37.07	20.74	7.76	-31.1	-36.3	9.4	1.98e-02	0	41	0	14680064	22	6533
2026-01-14 23:55:38.07	20.77	7.84	-31.0	-35.8	9.9	1.19e-02	0	41	0	16777216	22	6259
2026-01-14 23:55:39.07	20.80	7.91	-30.9	-35.8	10.2	7.42e-03	0	41	0	17825792	21	6381
2026-01-14 23:55:40.08	20.83	7.99	-30.9	-36.1	10.0	8.32e-03	0	41	0	19922944	21	6525
2026-01-14 23:55:41.08	20.86	8.07	-31.1	-36.2	9.6	1.29e-02	0	41	0	22020096	22	6467
2026-01-14 23:55:42.08	20.89	8.15	-30.9	-35.5	10.1	1.04e-02	0	41	0	24117248	22	6113
2026-01-14 23:55:43.08	20.92	8.23	-30.8	-35.6	10.4	4.98e-03	0	41	0	26214400	21	6232
2026-01-14 23:55:44.09	20.95	8.31	-30.7	-35.1	10.9	3.01e-03	0	41	0	27262976	21	5981
2026-01-14 23:55:45.10	20.98	8.39	-30.7	-35.1	10.9	2.74e-03	0	41	0	29360128	21	5985
2026-01-14 23:55:46.11	21.01	8.47	-30.7	-35.1	10.8	2.51e-03	0	41	0	31457280	21	5986
2026-01-14 23:55:47.11	21.03	8.55	-30.8	-35.6	10.5	4.25e-03	0	41	0	33554432	21	6216
2026-01-14 23:55:48.11	21.06	8.63	-30.7	-35.0	10.9	3.65e-03	0	41	0	35651584	21	5944
2026-01-14 23:55:49.12	21.09	8.71	-30.6	-34.8	11.1	1.61e-03	0	41	0	36700160	21	5828
2026-01-14 23:55:50.13	21.12	8.80	-30.5	-34.4	11.4	1.37e-03	0	42	0	38797312	21	5663
2026-01-14 23:55:51.13	21.15	8.88	-30.2	-33.9	12.1	8.71e-04	0	42	0	40894464	20	5553
2026-01-14 23:55:52.13	21.19	8.96	-30.2	-34.2	11.9	3.33e-04	0	41	0	42991616	20	5669
2026-01-14 23:55:53.14	21.22	9.04	-30.2	-34.0	12.1	7.97e-04	0	42	0	45088768	20	5560
2026-01-14 23:55:54.13	21.25	9.12	-30.4	-34.6	11.6	1.03e-03	0	42	0	46137344	20	5866
2026-01-14 23:55:55.14	21.28	9.21	-30.3	-34.3	11.9	5.21e-04	0	41	0	48234496	20	5708
2026-01-14 23:55:56.14	21.31	9.29	-30.2	-33.9	12.1	7.26e-04	0	42	0	50331648	20	5548
2026-01-14 23:55:57.15	21.34	9.37	-30.2	-33.9	12.2	2.01e-04	0	42	0	52428800	20	5523
2026-01-14 23:55:58.15	21.37	9.46	-30.3	-34.2	12.0	3.17e-04	0	42	0	54525952	20	5670
2026-01-14 23:55:59.15	21.40	9.54	-30.1	-33.8	12.2	7.30e-04	0	42	0	55574528	20	5494
2026-01-14 23:56:00.15	21.43	9.62	-30.2	-33.9	12.2	6.45e-04	0	42	0	57671680	20	5517
2026-01-14 23:56:01.15	21.46	9.71	-30.3	-34.2	12.0	3.23e-04	0	42	0	59768832	20	5640
2026-01-14 23:56:02.15	21.50	9.79	-30.1	-33.8	12.3	7.03e-04	0	42	0	61865984	20	5478
2026-01-14 23:56:03.15	21.53	9.88	-30.1	-33.6	12.4	6.43e-04	0	42	0	63963136	20	5416
2026-01-14 23:56:04.15	21.56	9.96	-30.0	-33.4	12.5	1.42e-04	0	42	0	65011712	20	5335
2026-01-14 23:56:05.16	21.59	10.05	-30.1	-33.6	12.4	5.53e-04	0	42	0	67108864	20	5387
2026-01-14 23:56:06.16	21.62	10.13	-30.0	-33.5	12.5	5.99e-04	0	42	0	69206016	20	5345
2026-01-14 23:56:07.17	21.66	10.22	-29.9	-33.2	12.7	7.47e-05	0	42	0	71303168	20	5224
2026-01-14 23:56:08.18	21.69	10.31	-29.9	-33.1	12.7	6.86e-05	0	42	0	73400320	20	5216
2026-01-14 23:56:09.18	21.72	10.39	-30.0	-33.8	12.8	5.80e-04	0	42	0	74448896	19	5561
2026-01-14 23:56:10.19	21.76	10.48	-30.0	-33.2	12.7	6.02e-05	0	42	0	76546048	20	5243
2026-01-14 23:56:11.19	21.79	10.57	-30.0	-33.4	12.6	2.37e-03	0	42	0	78643200	20	5319
2026-01-14 23:56:12.19	21.82	10.65	-29.9	-33.5	12.9	5.14e-04	0	42	0	80740352	19	5448
2026-01-14 23:56:13.20	21.86	10.74	-30.0	-33.7	12.8	3.81e-05	0	42	0	82837504	19	5529
2026-01-14 23:56:14.20	21.89	10.83	-30.0	-33.7	12.8	2.25e-03	0	42	0	83886080	19	5518
2026-01-14 23:56:15.20	21.92	10.92	-30.0	-33.7	12.8	2.08e-03	0	42	0	85983232	19	5530
2026-01-14 23:56:16.21	21.96	11.01	-30.0	-33.3	12.7	5.95e-05	0	42	0	88080384	20	5262
2026-01-14 23:56:17.21	21.99	11.10	-30.0	-33.4	12.7	1.98e-03	0	42	0	90177536	20	5304
2026-01-14 23:56:18.21	22.03	11.18	-30.2	-33.8	12.4	2.08e-03	0	42	0	91226112	20	5473
2026-01-14 23:56:19.21	22.06	11.27	-30.3	-34.0	12.2	2.01e-04	0	42	0	93323264	20	5573
2026-01-14 23:56:20.22	22.10	11.36	-30.2	-33.9	12.3	6.94e-04	0	42	0	95420416	20	5510
2026-01-14 23:56:21.22	22.13	11.45	-30.3	-34.1	12.2	2.09e-03	0	42	0	97517568	20	5574
2026-01-14 23:56:22.22	22.17	11.54	-30.3	-34.2	12.1	2.29e-04	0	42	0	99614720	20	5645
2026-01-14 23:56:23.22	22.20	11.64	-30.3	-34.2	12.2	6.81e-04	0	42	0	100663296	20	5636
2026-01-14 23:56:24.23	22.24	11.73	-30.3	-34.1	12.2	2.06e-03	0	42	0	102760448	20	5585
2026-01-14 23:56:25.23	22.28	11.82	-30.4	-34.3	12.1	2.46e-04	0	42	0	104857600	20	5685
2026-01-14 23:56:26.24	22.31	11.91	-30.4	-34.5	11.9	2.11e-03	0	42	0	106954752	20	5778
2026-01-14 23:56:27.25	22.35	12.00	-30.2	-34.0	12.3	2.06e-03	0	42	0	109051904	20	5525
2026-01-14 23:56:28.25	22.38	12.10	-30.1	-33.6	12.5	1.35e-04	0	42	0	110100480	20	5383
2026-01-14 23:56:29.25	22.42	12.19	-30.0	-33.3	12.8	1.86e-03	0	42	0	112197632	20	5267
2026-01-14 23:56:30.25	22.46	12.28	-30.0	-33.6	13.0	3.39e-04	0	42	0	114294784	19	5486
2026-01-14 23:56:31.25	22.49	12.38	-29.9	-33.1	12.9	5.41e-05	0	42	0	116391936	20	5167
2026-01-14 23:56:32.25	22.53	12.47	-29.9	-33.1	12.9	1.71e-03	0	42	0	118489088	20	5172
2026-01-14 23:56:33.25	22.57	12.56	-29.9	-33.4	13.1	1.57e-03	0	42	0	119537664	19	5415
2026-01-14 23:56:34.25	22.61	12.66	-29.9	-33.4	13.2	3.20e-05	0	42	0	121634816	19	5400
2026-01-14 23:56:35.26	22.64	12.75	-29.9	-33.3	13.2	1.51e-03	0	42	0	123731968	19	5366
2026-01-14 23:56:36.26	22.68	12.85	-29.9	-33.4	13.2	1.65e-03	0	42	0	125829120	19	5399
2026-01-14 23:56:37.26	22.72	12.94	-29.9	-33.4	13.2	2.36e-05	0	42	0	127926272	19	5376
2026-01-14 23:56:38.26	22.76	13.04	-29.8	-33.2	13.3	1.39e-03	0	42	0	128974848	19	5308
2026-01-14 23:56:39.26	22.80	13.14	-29.8	-33.2	13.3	1.36e-03	0	42	0	131072000	19	5306
2026-01-14 23:56:40.26	22.84	13.23	-29.8	-33.2	13.3	2.28e-05	0	42	0	133169152	19	5324
2026-01-14 23:56:41.26	22.88	13.33	-29.8	-33.1	13.4	1.10e-03	0	43	0	135266304	19	5246
2026-01-14 23:56:42.27	22.92	13.43	-29.8	-33.1	13.4	9.12e-04	0	42	0	136314880	19	5258
2026-01-14 23:56:43.27	22.96	13.53	-29.7	-33.0	13.5	7.60e-06	0	42	0	138412032	19	5214
2026-01-14 23:56:44.27	23.00	13.62	-29.8	-33.2	13.4	6.53e-04	0	43	0	140509184	19	5286
2026-01-14 23:56:45.28	23.04	13.72	-29.8	-33.2	13.3	5.09e-04	0	42	0	142606336	19	5303
2026-01-14 23:56:46.28	23.08	13.82	-29.9	-33.3	13.3	2.28e-05	0	43	0	144703488	19	5360
2026-01-14 23:56:47.28	23.12	13.92	-29.9	-33.3	13.3	5.58e-04	0	42	0	145752064	19	5343
2026-01-14 23:56:48.28	23.16	14.02	-30.0	-33.5	13.2	2.36e-05	0	42	0	147849216	19	5422
2026-01-14 23:56:49.28	23.20	14.12	-29.8	-33.2	13.4	1.90e-05	0	42	0	149946368	19	5300
2026-01-14 23:56:50.29	23.24	14.22	-29.9	-33.2	13.4	8.61e-04	0	43	0	152043520	19	5317
2026-01-14 23:56:51.29	23.28	14.32	-29.9	-33.4	13.3	1.11e-03	0	43	0	154140672	19	5360
2026-01-14 23:56:52.30	23.32	14.43	-29.9	-33.3	12.9	2.13e-05	0	43	0	155189248	19	5323
2026-01-14 23:56:53.30	23.37	14.53	-29.8	-33.2	13.0	1.18e-03	0	42	0	157286400	19	5306
2026-01-14 23:56:54.31	23.41	14.63	-29.9	-33.3	13.3	1.19e-03	0	43	0	159383552	19	5345
2026-01-14 23:56:55.31	23.45	14.73	-30.0	-33.6	13.1	2.89e-05	0	42	0	161480704	19	5441
2026-01-14 23:56:56.31	23.49	14.84	-29.9	-33.4	13.3	1.54e-03	0	43	0	163577856	19	5368
2026-01-14 23:56:57.31	23.54	14.94	-29.9	-33.0	13.1	1.52e-03	0	43	0	164626432	20	5128
2026-01-14 23:56:58.31	23.58	15.05	-30.0	-33.2	13.0	4.56e-04	0	42	0	166723584	20	5203
2026-01-14 23:56:59.32	23.63	15.15	-30.0	-33.2	13.0	3.20e-05	0	43	0	168820736	20	5195
2026-01-14 23:57:00.32	23.67	15.26	-30.1	-33.4	12.9	1.62e-03	0	43	0	170917888	20	5288
2026-01-14 23:57:01.32	23.71	15.36	-30.1	-33.5	12.8	5.64e-05	0	43	0	173015040	20	5329
2026-01-14 23:57:02.33	23.76	15.47	-30.1	-33.3	13.0	5.26e-05	0	43	0	174063616	20	5245
2026-01-14 23:57:03.32	23.80	15.57	-30.2	-33.8	12.7	1.86e-03	0	43	0	176160768	20	5417
2026-01-14 23:57:04.33	23.85	15.68	-30.3	-34.2	12.4	1.20e-04	0	43	0	178257920	20	5593
2026-01-14 23:57:05.33	23.89	15.79	-30.2	-33.7	12.7	5.48e-04	0	43	0	180355072	20	5396
2026-01-14 23:57:06.32	23.94	15.89	-30.2	-33.7	12.7	7.32e-05	0	43	0	181403648	20	5393
2026-01-14 23:57:07.33	23.99	16.00	-30.2	-33.7	12.7	6.10e-05	0	43	0	183500800	20	5400
2026-01-14 23:57:08.34	24.03	16.11	-30.2	-33.7	12.7	1.96e-03	0	43	0	185597952	20	5387
2026-01-14 23:57:09.34	24.08	16.22	-30.2	-33.7	12.7	7.32e-05	0	43	0	187695104	20	5408
2026-01-14 23:57:10.34	24.13	16.33	-30.2	-33.7	12.7	8.01e-05	0	43	0	189792256	20	5400
2026-01-14 23:57:11.35	24.17	16.44	-30.3	-34.1	12.5	2.04e-03	0	43	0	191889408	20	5546
2026-01-14 23:57:12.35	24.22	16.55	-30.2	-33.6	12.8	8.23e-05	0	43	0	192937984	20	5326
2026-01-14 23:57:13.36	24.27	16.66	-29.9	-32.8	13.4	1.83e-05	0	43	0	195035136	20	5042
2026-01-14 23:57:14.36	24.32	16.77	-29.9	-33.3	13.4	2.12e-03	0	43	0	197132288	19	5328
2026-01-14 23:57:15.36	24.37	16.89	-29.9	-32.8	13.4	1.52e-05	0	43	0	199229440	20	5027
2026-01-14 23:57:16.36	24.41	17.00	-29.8	-32.4	13.6	3.24e-04	0	43	0	200278016	20	4907
2026-01-14 23:57:17.36	24.46	17.11	-29.8	-33.0	13.7	7.60e-06	0	43	0	202375168	19	5219
2026-01-14 23:57:18.37	24.51	17.23	-29.8	-33.1	13.6	1.72e-03	0	43	0	204472320	19	5260
2026-01-14 23:57:19.37	24.56	17.34	-30.0	-33.5	13.3	3.02e-04	0	43	0	206569472	19	5418
2026-01-14 23:57:20.37	24.61	17.45	-30.1	-33.4	13.0	2.97e-05	0	43	0	208666624	20	5252
2026-01-14 23:57:21.38	24.66	17.57	-30.1	-33.5	12.9	5.26e-05	0	43	0	209715200	20	5289
2026-01-14 23:57:22.38	24.72	17.69	-30.1	-33.4	13.0	3.40e-04	0	43	0	211812352	20	5273
2026-01-14 23:57:23.38	24.77	17.80	-30.2	-33.7	12.8	4.05e-04	0	43	0	213909504	20	5359
2026-01-14 23:57:24.38	24.82	17.92	-30.1	-33.5	13.0	4.11e-05	0	43	0	216006656	20	5292
2026-01-14 23:57:25.38	24.87	18.04	-30.2	-33.7	12.8	3.51e-04	0	43	0	218103808	20	5366
2026-01-14 23:57:26.39	24.92	18.15	-30.2	-33.6	12.9	2.51e-04	0	43	0	219152384	20	5325
2026-01-14 23:57:27.38	24.98	18.27	-30.1	-33.3	13.1	2.82e-05	0	43	0	221249536	20	5228
2026-01-14 23:57:28.39	25.03	18.39	-30.2	-33.6	12.9	3.96e-05	0	43	0	223346688	20	5329
2026-01-14 23:57:29.39	25.08	18.51	-30.3	-33.8	12.8	2.64e-04	0	43	0	225443840	20	5412
2026-01-14 23:57:30.39	25.14	18.63	-30.3	-33.9	12.7	5.34e-05	0	43	0	226492416	20	5462
2026-01-14 23:57:31.39	25.19	18.75	-30.4	-34.1	12.6	8.69e-05	0	43	0	228589568	20	5522
2026-01-14 23:57:32.39	25.25	18.87	-30.2	-33.6	12.9	2.10e-04	0	43	0	230686720	20	5322
2026-01-14 23:57:33.40	25.30	18.99	-30.0	-33.2	13.2	3.05e-05	0	43	0	232783872	20	5171
2026-01-14 23:57:34.40	25.36	19.12	-30.0	-33.0	13.3	2.04e-04	0	43	0	234881024	20	5091
2026-01-14 23:57:35.41	25.41	19.24	-29.9	-32.9	13.4	2.27e-04	0	43	0	236978176	20	5062
2026-01-14 23:57:36.41	25.47	19.36	-29.9	-32.9	13.4	1.67e-05	0	43	0	238026752	20	5047
2026-01-14 23:57:37.41	25.53	19.49	-29.9	-33.4	13.5	2.27e-04	0	43	0	240123904	19	5336
2026-01-14 23:57:38.42	25.58	19.61	-30.0	-32.9	13.4	2.23e-04	0	43	0	242221056	20	5066
2026-01-14 23:57:39.42	25.64	19.74	-29.8	-32.6	13.6	6.10e-06	0	43	0	244318208	20	4955
2026-01-14 23:57:40.43	25.70	19.86	-29.9	-33.3	13.6	3.17e-04	0	43	0	245366784	19	5306
2026-01-14 23:57:41.43	25.76	19.99	-29.8	-33.1	13.4	3.00e-04	0	43	0	247463936	19	5263
2026-01-14 23:57:42.43	25.82	20.12	-29.9	-33.1	13.7	8.30e-06	0	43	0	249561088	19	5246
2026-01-14 23:57:43.43	25.88	20.24	-29.9	-33.2	13.2	3.60e-04	0	43	0	251658240	19	5264
2026-01-14 23:57:44.43	25.94	20.37	-30.0	-33.4	13.0	3.79e-04	0	43	0	253755392	19	5336
2026-01-14 23:57:45.44	26.00	20.50	-30.0	-33.0	13.3	1.14e-05	0	43	0	254803968	20	5110
2026-01-14 23:57:46.44	26.06	20.63	-30.1	-33.2	13.2	4.29e-04	0	43	0	256901120	20	5188
2026-01-14 23:57:47.44	26.12	20.76	-29.9	-32.7	13.5	4.16e-04	0	43	0	258998272	20	4994
2026-01-14 23:57:48.44	26.18	20.89	-29.7	-32.3	13.8	6.80e-06	0	43	0	261095424	20	4838
2026-01-14 23:57:49.44	26.24	21.02	-29.7	-32.7	14.0	9.09e-04	0	43	0	263192576	19	5077
2026-01-14 23:57:50.44	26.31	21.16	-29.6	-32.5	14.1	3.84e-04	0	43	0	264241152	19	5015
2026-01-14 23:57:51.44	26.37	21.29	-29.7	-32.5	14.1	0.00e+00	0	43	0	266338304	19	5019
2026-01-14 23:57:52.44	26.43	21.42	-29.7	-32.6	14.1	3.76e-04	0	43	0	268435456	19	5036
2026-01-14 23:57:53.45	26.50	21.56	-29.5	-32.3	14.3	3.63e-04	0	43	0	270532608	19	4921
2026-01-14 23:57:54.45	26.56	21.69	-29.5	-32.2	14.4	2.20e-06	0	43	0	272629760	19	4883
2026-01-14 23:57:55.45	26.63	21.83	-29.5	-32.2	14.4	3.40e-04	0	43	0	273678336	19	4889
2026-01-14 23:57:56.45	26.69	21.96	-29.6	-32.3	14.2	7.81e-04	0	43	0	275775488	19	4934
2026-01-14 23:57:57.45	26.76	22.10	-29.6	-32.4	14.2	4.50e-06	0	43	0	277872640	19	4977
2026-01-14 23:57:58.45	26.83	22.24	-29.6	-32.5	14.2	3.11e-04	0	43	0	279969792	19	5018
2026-01-14 23:57:59.45	26.89	22.38	-29.6	-32.4	14.2	9.25e-04	0	43	0	282066944	19	4977
2026-01-14 23:58:00.45	26.96	22.52	-29.5	-32.2	14.3	7.00e-07	0	43	0	283115520	19	4892
2026-01-14 23:58:01.44	27.03	22.65	-29.5	-32.2	14.3	2.41e-04	0	43	0	285212672	19	4893
2026-01-14 23:58:02.45	27.10	22.80	-29.5	-32.1	14.4	2.17e-04	0	43	0	287309824	19	4875
2026-01-14 23:58:03.46	27.17	22.94	-29.5	-32.1	14.4	1.50e-06	0	43	0	289406976	19	4872
2026-01-14 23:58:04.46	27.24	23.08	-29.5	-32.1	14.4	2.17e-04	0	43	0	290455552	19	4854
2026-01-14 23:58:05.46	27.31	23.22	-29.3	-32.0	14.8	2.15e-04	0	43	0	292552704	18	4927
2026-01-14 23:58:06.46	27.38	23.37	-29.2	-32.0	14.8	7.00e-07	0	43	0	294649856	18	4916
2026-01-14 23:58:07.46	27.46	23.51	-29.2	-31.9	14.8	3.26e-04	0	43	0	296747008	18	4916
2026-01-14 23:58:08.46	27.53	23.65	-29.1	-31.6	15.0	1.90e-04	0	43	0	298844160	18	4814
2026-01-14 23:58:09.47	27.60	23.80	-29.1	-31.6	15.1	0.00e+00	0	43	0	299892736	18	4780
2026-01-14 23:58:10.47	27.68	23.95	-29.1	-31.5	15.1	1.22e-04	0	43	0	301989888	18	4781
2026-01-14 23:58:11.47	27.75	24.10	-29.1	-31.6	15.1	2.26e-04	0	43	0	304087040	18	4801
2026-01-14 23:58:12.47	27.83	24.24	-29.0	-31.4	15.2	0.00e+00	0	43	0	306184192	18	4725
2026-01-14 23:58:13.48	27.90	24.39	-29.1	-31.5	15.1	9.53e-05	0	43	0	308281344	18	4771
2026-01-14 23:58:14.49	27.98	24.55	-29.2	-31.7	15.0	8.39e-05	0	43	0	309329920	18	4827
2026-01-14 23:58:15.49	28.06	24.70	-29.0	-31.3	15.2	0.00e+00	0	43	0	311427072	18	4709
2026-01-14 23:58:16.49	28.14	24.85	-29.0	-31.3	15.3	1.19e-04	0	43	0	313524224	18	4684
2026-01-14 23:58:17.49	28.22	25.00	-29.0	-31.2	15.3	3.89e-05	0	43	0	315621376	18	4674
2026-01-14 23:58:18.49	28.30	25.15	-28.9	-31.1	15.4	0.00e+00	0	43	0	317718528	18	4638
2026-01-14 23:58:19.50	28.38	25.31	-28.8	-30.9	15.5	1.47e-04	0	43	0	318767104	18	4579
2026-01-14 23:58:20.50	28.46	25.46	-28.9	-31.1	15.4	4.57e-05	0	43	0	320864256	18	4642
2026-01-14 23:58:21.51	28.54	25.62	-29.0	-31.2	15.4	0.00e+00	0	43	0	322961408	18	4658
2026-01-14 23:58:22.50	28.62	25.77	-28.8	-30.7	15.6	2.95e-04	0	43	0	325058560	18	4509
2026-01-14 23:58:23.51	28.71	25.93	-28.8	-31.3	15.6	2.03e-04	0	43	0	327155712	17	4807
2026-01-14 23:58:24.52	28.79	26.09	-28.8	-31.3	15.6	0.00e+00	0	43	0	328204288	17	4803
2026-01-14 23:58:25.52	28.88	26.25	-28.8	-31.3	15.6	2.32e-04	0	43	0	330301440	17	4809
2026-01-14 23:58:26.52	28.96	26.41	-28.9	-31.6	15.4	1.29e-04	0	43	0	332398592	17	4909
2026-01-14 23:58:27.51	29.05	26.57	-29.0	-31.2	15.4	0.00e+00	0	43	0	334495744	18	4671
2026-01-14 23:58:28.52	29.14	26.73	-28.9	-31.1	15.4	1.19e-04	0	43	0	335544320	18	4639
2026-01-14 23:58:29.52	29.23	26.90	-29.0	-31.4	15.3	1.79e-04	0	43	0	337641472	18	4717
2026-01-14 23:58:30.53	29.32	27.06	-29.0	-31.4	15.3	0.00e+00	0	43	0	339738624	18	4724
2026-01-14 23:58:31.53	29.41	27.23	-29.2	-31.7	15.1	4.19e-05	0	43	0	341835776	18	4832
2026-01-14 23:58:32.53	29.50	27.39	-29.3	-32.0	14.9	1.67e-05	0	43	0	343932928	18	4918
2026-01-14 23:58:33.53	29.59	27.56	-29.4	-32.3	14.8	0.00e+00	0	43	0	344981504	18	5026
2026-01-14 23:58:34.53	29.68	27.72	-29.4	-32.4	14.7	0.00e+00	0	43	0	347078656	18	5044
2026-01-14 23:58:35.54	29.78	27.89	-29.5	-32.1	14.5	0.00e+00	0	43	0	349175808	19	4859
2026-01-14 23:58:36.54	29.87	28.06	-29.6	-32.2	14.5	0.00e+00	0	43	0	351272960	19	4875
2026-01-14 23:58:37.54	29.97	28.23	-29.6	-32.3	14.4	0.00e+00	0	43	0	353370112	19	4925
2026-01-14 23:58:38.54	30.07	28.40	-29.6	-32.3	14.5	1.50e-06	0	43	0	354418688	19	4904
2026-01-14 23:58:39.54	30.16	28.58	-29.7	-32.6	14.2	7.00e-07	0	43	0	356515840	19	5031
2026-01-14 23:58:40.55	30.26	28.75	-29.8	-32.8	14.1	2.20e-06	0	43	0	358612992	19	5099
2026-01-14 23:58:41.55	30.36	28.93	-29.7	-32.6	14.3	7.00e-07	0	43	0	360710144	19	5018
2026-01-14 23:58:42.56	30.46	29.10	-29.8	-32.9	14.1	1.50e-06	0	43	0	362807296	19	5108
2026-01-14 23:58:43.56	30.57	29.28	-29.9	-33.1	14.0	7.00e-07	0	43	0	363855872	19	5195
2026-01-14 23:58:44.56	30.67	29.46	-30.0	-32.8	13.8	3.80e-06	0	43	0	365953024	20	4976
2026-01-14 23:58:45.56	30.77	29.63	-30.2	-33.5	13.3	9.90e-06	0	43	0	368050176	20	5267
2026-01-14 23:58:46.57	30.88	29.81	-30.3	-33.7	13.2	2.05e-05	0	43	0	370147328	20	5323
2026-01-14 23:58:47.57	30.99	30.00	-30.3	-33.7	13.2	2.13e-05	0	43	0	372244480	20	5314
2026-01-14 23:58:48.57	31.09	30.18	-30.4	-34.0	13.0	2.21e-05	0	43	0	373293056	20	5458
2026-01-14 23:58:49.58	31.20	30.36	-30.5	-33.8	12.8	5.79e-05	0	43	0	375390208	21	5239
2026-01-14 23:58:50.58	31.31	30.54	-30.6	-33.9	12.7	6.56e-05	0	43	0	377487360	21	5296
2026-01-14 23:58:51.58	31.42	30.73	-30.6	-34.0	12.6	9.99e-05	0	43	0	379584512	21	5352
2026-01-14 23:58:52.58	31.54	30.91	-30.7	-34.4	12.5	1.14e-04	0	43	0	380633088	21	5480
2026-01-14 23:58:53.57	31.65	31.10	-30.8	-34.6	12.3	1.53e-04	0	43	0	382730240	21	5568
2026-01-14 23:58:54.58	31.76	31.29	-30.8	-34.6	12.3	1.46e-04	0	43	0	384827392	21	5560
2026-01-14 23:58:55.59	31.88	31.48	-30.8	-34.7	12.2	2.33e-04	0	43	0	386924544	21	5611
2026-01-14 23:58:56.59	32.00	31.67	-31.0	-35.2	11.9	2.60e-04	0	43	0	389021696	21	5822
2026-01-14 23:58:57.59	32.12	31.86	-31.0	-34.8	11.8	5.79e-04	0	43	0	390070272	22	5556
2026-01-14 23:58:58.59	32.24	32.05	-31.0	-34.8	11.9	4.22e-04	0	43	0	392167424	22	5533
2026-01-14 23:58:59.60	32.36	32.25	-31.0	-34.8	11.8	4.25e-04	0	43	0	394264576	22	5541
2026-01-14 23:59:00.59	32.48	32.44	-31.0	-34.7	11.9	4.85e-04	0	43	0	396361728	22	5503
2026-01-14 23:59:01.59	32.61	32.63	-31.1	-35.0	11.7	4.84e-04	0	43	0	398458880	22	5629
2026-01-14 23:59:02.60	32.73	32.83	-31.1	-34.8	11.8	5.44e-04	0	43	0	399507456	22	5564
2026-01-14 23:59:03.60	32.86	33.03	-31.1	-34.8	11.8	3.91e-04	0	43	0	401604608	22	5555
2026-01-14 23:59:04.60	32.99	33.23	-31.1	-35.1	11.7	8.18e-04	0	43	0	403701760	22	5655
2026-01-14 23:59:05.60	33.12	33.43	-31.1	-34.9	11.8	6.07e-04	0	43	0	405798912	22	5580
2026-01-14 23:59:06.61	33.25	33.63	-31.0	-34.7	11.9	4.78e-04	0	43	0	407896064	22	5494
2026-01-14 23:59:07.61	33.39	33.84	-31.0	-34.8	11.9	7.55e-04	0	43	0	408944640	22	5531
2026-01-14 23:59:08.61	33.52	34.04	-31.0	-34.8	11.9	4.13e-04	0	43	0	411041792	22	5531
2026-01-14 23:59:09.61	33.66	34.24	-31.1	-35.1	11.7	4.88e-04	0	43	0	413138944	22	5665
2026-01-14 23:59:10.62	33.80	34.45	-31.2	-35.1	11.7	7.38e-04	0	43	0	415236096	22	5665
2026-01-14 23:59:11.62	33.94	34.66	-31.2	-35.2	11.6	6.89e-04	0	43	0	417333248	22	5728
2026-01-14 23:59:12.62	34.08	34.87	-31.3	-35.4	11.4	8.57e-04	0	43	0	418381824	22	5808
2026-01-14 23:59:13.62	34.23	35.08	-31.3	-35.6	11.3	9.15e-04	0	43	0	420478976	22	5878
2026-01-14 23:59:14.62	34.37	35.29	-31.3	-35.7	11.3	1.07e-03	0	43	0	422576128	22	5949
2026-01-14 23:59:15.63	34.52	35.50	-31.3	-35.5	11.4	1.43e-03	0	43	0	424673280	22	5848
2026-01-14 23:59:16.63	34.67	35.72	-31.2	-35.2	11.7	8.92e-04	0	43	0	425721856	22	5733
2026-01-14 23:59:17.64	34.82	35.93	-31.3	-35.4	11.5	6.45e-04	0	43	0	427819008	22	5779
2026-01-14 23:59:18.64	34.97	36.15	-31.2	-35.2	11.6	8.66e-04	0	43	0	429916160	22	5697
2026-01-14 23:59:19.65	35.13	36.37	-31.2	-35.1	11.8	5.50e-04	0	43	0	432013312	22	5643
2026-01-14 23:59:20.65	35.29	36.59	-31.2	-35.4	11.5	5.23e-04	0	43	0	434110464	22	5781
2026-01-14 23:59:21.65	35.45	36.81	-31.2	-35.4	11.5	9.52e-04	0	43	0	436207616	22	5782
2026-01-14 23:59:22.65	35.61	37.03	-31.2	-35.4	11.6	8.48e-04	0	43	0	437256192	22	5787
2026-01-14 23:59:23.65	35.77	37.25	-31.3	-35.4	11.5	7.55e-04	0	43	0	439353344	22	5818
2026-01-14 23:59:24.64	35.94	37.47	-31.1	-34.9	11.9	7.14e-04	0	43	0	441450496	22	5576
2026-01-14 23:59:25.64	36.10	37.69	-31.2	-35.2	11.7	6.60e-04	0	43	0	443547648	22	5693
2026-01-14 23:59:26.65	36.28	37.92	-31.2	-35.0	11.8	5.60e-04	0	43	0	444596224	22	5636
2026-01-14 23:59:27.66	36.45	38.15	-31.2	-35.1	11.8	5.13e-04	0	43	0	446693376	22	5660
2026-01-14 23:59:28.66	36.63	38.38	-31.2	-35.1	11.8	6.92e-04	0	43	0	448790528	22	5648
2026-01-14 23:59:29.66	36.80	38.61	-31.3	-35.5	11.5	6.45e-04	0	43	0	450887680	22	5819
2026-01-14 23:59:30.65	36.98	38.84	-31.2	-35.2	11.7	8.36e-04	0	43	0	452984832	22	5720
2026-01-14 23:59:31.66	37.17	39.07	-31.1	-34.8	12.0	4.69e-04	0	43	0	454033408	22	5516
2026-01-14 23:59:32.66	37.35	39.31	-31.0	-34.4	12.2	2.85e-04	0	43	0	456130560	22	5374
2026-01-14 23:59:33.66	37.54	39.54	-31.1	-34.9	11.9	3.30e-04	0	43	0	458227712	22	5575
2026-01-14 23:59:34.67	37.73	39.78	-30.4	-34.0	12.2	3.52e-04	0	43	0	460324864	22	5416
2026-01-14 23:59:35.67	37.92	40.02	-31.0	-34.4	12.2	1.81e-04	0	43	0	462422016	22	5372
2026-01-14 23:59:36.67	38.12	40.25	-30.8	-34.0	12.5	2.89e-04	0	43	0	463470592	22	5208
2026-01-14 23:59:37.67	38.32	40.49	-30.7	-33.6	12.7	1.60e-04	0	43	0	465567744	22	5044
2026-01-14 23:59:38.68	38.52	40.74	-30.6	-33.4	13.0	3.12e-05	0	43	0	467664896	22	4960
2026-01-14 23:59:39.68	38.73	40.98	-30.5	-33.7	13.0	3.58e-05	0	43	0	469762048	21	5196
2026-01-14 23:59:40.68	38.93	41.22	-30.4	-33.3	13.4	2.28e-05	0	43	0	470810624	21	5025
2026-01-14 23:59:41.69	39.15	41.47	-30.2	-32.8	13.7	7.60e-06	0	43	0	472907776	21	4862
2026-01-14 23:59:42.69	39.36	41.72	-30.1	-32.6	13.8	6.80e-06	0	43	0	475004928	21	4790
2026-01-14 23:59:43.69	39.58	41.96	-30.2	-32.7	13.8	2.20e-06	0	43	0	477102080	21	4829
2026-01-14 23:59:44.69	39.80	42.21	-30.2	-32.7	13.8	8.30e-06	0	43	0	479199232	21	4807
2026-01-14 23:59:45.70	40.02	42.46	-30.1	-32.4	13.9	3.80e-06	0	43	0	481296384	21	4726
2026-01-14 23:59:46.70	40.25	42.71	-30.1	-32.5	13.9	3.80e-06	0	43	0	482344960	21	4738
2026-01-14 23:59:47.70	40.48	42.97	-30.1	-32.5	13.9	5.30e-06	0	43	0	484442112	21	4731
2026-01-14 23:59:48.70	40.72	43.22	-30.1	-32.6	13.9	5.30e-06	0	43	0	486539264	21	4780
2026-01-14 23:59:49.70	40.95	43.47	-30.3	-33.1	13.5	3.80e-06	0	43	0	488636416	21	4956
2026-01-14 23:59:50.71	41.20	43.73	-30.3	-33.1	13.5	1.44e-05	0	43	0	489684992	21	4946
2026-01-14 23:59:51.71	41.44	43.99	-30.3	-33.1	13.5	1.52e-05	0	43	0	491782144	21	4969
2026-01-14 23:59:52.71	41.69	44.25	-30.2	-32.9	13.7	6.10e-06	0	43	0	493879296	21	4875
2026-01-14 23:59:53.71	41.95	44.51	-30.2	-32.7	13.8	6.10e-06	0	43	0	495976448	21	4822
2026-01-14 23:59:54.72	42.21	44.77	-30.3	-33.1	13.6	7.60e-06	0	43	0	498073600	21	4939
2026-01-14 23:59:55.72	42.47	45.03	-30.3	-33.0	13.6	1.86e-04	0	43	0	499122176	21	4924
2026-01-14 23:59:56.73	42.74	45.29	-30.5	-33.5	13.3	1.67e-05	0	43	0	501219328	21	5105
2026-01-14 23:59:57.73	43.01	45.56	-30.7	-34.2	12.8	2.59e-05	0	43	0	503316480	21	5386
2026-01-14 23:59:58.74	43.29	45.83	-30.9	-34.8	12.4	1.04e-04	0	43	0	505413632	21	5636
2026-01-14 23:59:59.74	43.57	46.09	-31.1	-34.7	12.2	1.99e-04	0	43	0	507510784	22	5462
2026-01-15 00:00:00.73	43.85	46.35	-31.1	-34.8	12.1	2.15e-04	0	43	0	508559360	22	5505
2026-01-15 00:00:01.74	44.14	46.62	-31.1	-34.9	12.0	3.88e-04	0	43	0	510656512	22	5568
2026-01-15 00:00:02.73	44.43	46.89	-31.2	-35.0	12.0	3.42e-04	0	43	0	512753664	22	5603
2026-01-15 00:00:03.74	44.73	47.16	-31.1	-34.9	12.1	2.80e-04	0	43	0	514850816	22	5538
2026-01-15 00:00:04.75	45.04	47.44	-30.8	-33.9	12.8	1.85e-04	0	43	0	516947968	22	5134
2026-01-15 00:00:05.75	45.35	47.71	-30.5	-33.0	13.4	1.67e-05	0	43	0	517996544	22	4801
2026-01-15 00:00:06.75	45.67	47.98	-30.5	-33.1	13.3	1.29e-05	0	43	0	520093696	22	4859
2026-01-15 00:00:07.75	45.99	48.25	-30.8	-33.8	12.9	2.51e-05	0	43	0	522190848	22	5103
2026-01-15 00:00:08.75	46.31	48.52	-31.0	-34.4	12.4	1.15e-04	0	43	0	524288000	22	5343
2026-01-15 00:00:09.76	46.65	48.80	-31.2	-35.1	12.0	3.20e-04	0	43	0	526385152	22	5620
2026-01-15 00:00:10.76	46.99	49.08	-31.1	-34.9	12.0	4.34e-04	0	43	0	527433728	22	5560
2026-01-15 00:00:11.77	47.33	49.35	-30.9	-34.3	12.5	1.61e-04	0	43	0	529530880	22	5292
2026-01-15 00:00:12.77	47.68	49.63	-30.7	-33.6	13.0	7.17e-05	0	44	0	531628032	22	5011
2026-01-15 00:00:13.77	48.04	49.91	-30.6	-33.4	13.1	2.74e-05	0	43	0	533725184	22	4960
2026-01-15 00:00:14.78	48.41	50.19	-30.4	-32.8	13.5	2.51e-05	0	43	0	534773760	22	4739
2026-01-15 00:00:15.78	48.78	50.47	-30.4	-32.9	13.5	8.30e-06	0	43	0	536870912	22	4764
2026-01-15 00:00:16.79	49.16	50.75	-30.6	-33.2	13.2	1.90e-05	0	43	0	538968064	22	4899
2026-01-15 00:00:17.79	49.54	51.03	-30.3	-32.6	13.6	1.98e-05	0	43	0	541065216	22	4660
2026-01-15 00:00:18.80	49.94	51.31	-29.8	-32.1	14.6	7.00e-07	0	43	0	543162368	20	4712
2026-01-15 00:00:19.81	50.34	51.59	-29.2	-31.2	15.5	0.00e+00	0	43	0	545259520	19	4533
2026-01-15 00:00:20.81	50.74	51.87	-28.9	-30.4	15.9	0.00e+00	0	43	0	546308096	19	4287
2026-01-15 00:00:21.81	51.16	52.15	-28.7	-30.5	16.2	1.50e-06	0	43	0	548405248	18	4411
2026-01-15 00:00:22.80	51.57	52.43	-28.8	-30.7	16.1	1.59e-04	0	43	0	550502400	18	4455
2026-01-15 00:00:23.81	52.01	52.71	-29.2	-31.7	15.5	0.00e+00	0	43	0	552599552	18	4774
2026-01-15 00:00:24.82	52.45	52.99	-29.2	-31.6	15.6	3.88e-04	0	43	0	553648128	18	4756
2026-01-15 00:00:25.82	52.89	53.27	-28.9	-30.8	16.0	0.00e+00	0	43	0	555745280	18	4516
2026-01-15 00:00:26.82	53.35	53.55	-28.5	-29.9	16.6	0.00e+00	0	43	0	557842432	18	4242
2026-01-15 00:00:27.82	53.81	53.83	-28.1	-30.0	17.0	3.29e-04	0	43	0	559939584	16	4497
2026-01-15 00:00:28.82	54.28	54.11	-28.2	-30.3	16.9	5.87e-05	0	43	0	562036736	16	4559
2026-01-15 00:00:29.82	54.76	54.39	-28.5	-30.5	16.5	0.00e+00	0	43	0	563085312	17	4526
2026-01-15 00:00:30.83	55.26	54.67	-28.7	-30.9	16.3	0.00e+00	0	43	0	565182464	17	4656
2026-01-15 00:00:31.83	55.76	54.94	-29.2	-31.6	15.6	0.00e+00	0	43	0	567279616	18	4751
2026-01-15 00:00:32.84	56.27	55.22	-29.6	-32.2	14.9	0.00e+00	0	43	0	569376768	19	4856
2026-01-15 00:00:33.84	56.79	55.50	-29.9	-32.9	14.5	0.00e+00	0	43	0	571473920	19	5096
2026-01-15 00:00:34.84	57.32	55.77	-29.9	-32.8	14.6	7.00e-07	0	43	0	572522496	19	5042
2026-01-15 00:00:35.84	57.87	56.05	-29.9	-33.0	14.5	0.00e+00	0	43	0	574619648	19	5103
2026-01-15 00:00:36.85	58.42	56.32	-29.9	-32.9	14.6	7.00e-07	0	43	0	576716800	19	5068
2026-01-15 00:00:37.85	58.98	56.59	-30.1	-33.0	14.1	1.50e-06	0	43	0	578813952	20	5002
2026-01-15 00:00:38.85	59.56	56.86	-30.6	-33.8	13.3	3.80e-06	0	43	0	580911104	21	5189
2026-01-15 00:00:39.85	60.14	57.13	-30.5	-33.5	13.4	1.75e-05	0	43	0	581959680	21	5105
2026-01-15 00:00:40.85	60.74	57.40	-30.4	-33.1	13.7	6.80e-06	0	43	0	584056832	21	4943
2026-01-15 00:00:41.85	61.35	57.66	-30.4	-33.3	13.6	4.50e-06	0	43	0	586153984	21	4999
2026-01-15 00:00:42.85	61.97	57.93	-30.6	-33.7	13.4	1.29e-05	0	43	0	588251136	21	5163
2026-01-15 00:00:43.85	62.60	58.19	-30.7	-34.2	13.0	3.05e-05	0	43	0	590348288	21	5356
2026-01-15 00:00:44.85	63.24	58.45	-30.8	-34.4	12.8	5.11e-05	0	43	0	591396864	21	5429
2026-01-15 00:00:45.86	63.90	58.71	-30.5	-33.5	13.4	5.72e-05	0	43	0	593494016	21	5099
2026-01-15 00:00:46.86	64.57	58.96	-30.0	-32.3	14.3	2.20e-06	0	43	0	595591168	21	4652
2026-01-15 00:00:47.86	65.26	59.21	-29.8	-32.2	14.6	7.00e-07	0	43	0	597688320	20	4744
2026-01-15 00:00:48.86	65.95	59.46	-30.2	-33.1	14.1	1.75e-05	0	43	0	598736896	20	5043
2026-01-15 00:00:49.87	66.67	59.71	-30.5	-33.6	13.5	1.14e-05	0	43	0	600834048	21	5097
2026-01-15 00:00:50.87	67.39	59.96	-30.4	-33.2	13.7	1.22e-05	0	43	0	602931200	21	4980
2026-01-15 00:00:51.87	68.13	60.20	-30.0	-32.1	14.4	5.30e-06	0	43	0	605028352	21	4571
2026-01-15 00:00:52.87	68.88	60.43	-29.6	-31.6	15.0	3.50e-05	0	43	0	607125504	20	4541
2026-01-15 00:00:53.87	69.64	60.67	-29.7	-31.8	14.9	0.00e+00	0	43	0	608174080	20	4599
2026-01-15 00:00:54.87	70.42	60.90	-30.1	-32.8	14.4	2.20e-06	0	43	0	610271232	20	4913
2026-01-15 00:00:55.87	71.21	61.12	-30.0	-32.5	14.5	1.38e-04	0	43	0	612368384	20	4834
2026-01-15 00:00:56.87	72.02	61.35	-29.7	-31.8	14.9	0.00e+00	0	43	0	614465536	20	4596
2026-01-15 00:00:57.87	72.84	61.56	-29.4	-31.5	15.5	1.50e-06	0	43	0	616562688	19	4584
2026-01-15 00:00:58.87	73.67	61.78	-29.2	-31.6	15.7	0.00e+00	0	43	0	617611264	18	4742
2026-01-15 00:00:59.87	74.52	61.99	-29.6	-32.0	15.2	0.00e+00	0	43	0	619708416	19	4763
2026-01-15 00:01:00.87	75.39	62.19	-29.5	-31.9	15.3	7.00e-07	0	43	0	621805568	19	4718
2026-01-15 00:01:01.87	76.26	62.39	-29.5	-31.9	15.2	0.00e+00	0	43	0	623902720	19	4734
2026-01-15 00:01:02.88	77.17	62.58	-29.6	-32.0	15.2	0.00e+00	0	43	0	624951296	19	4741
2026-01-15 00:01:03.89	78.08	62.77	-29.7	-32.4	14.9	2.20e-06	0	43	0	627048448	19	4867
2026-01-15 00:01:04.89	79.00	62.96	-29.6	-32.1	15.2	0.00e+00	0	43	0	629145600	19	4777
2026-01-15 00:01:05.89	79.94	63.13	-29.7	-32.3	15.0	0.00e+00	0	43	0	631242752	19	4862
2026-01-15 00:01:06.90	80.90	63.31	-30.2	-33.1	14.1	1.50e-06	0	43	0	633339904	20	5025
2026-01-15 00:01:07.90	81.86	63.47	-29.9	-32.4	14.6	1.50e-06	0	43	0	635437056	20	4794
2026-01-15 00:01:08.91	82.84	63.63	-30.0	-32.7	14.4	0.00e+00	0	43	0	636485632	20	4898
2026-01-15 00:01:09.91	83.83	63.78	-30.5	-33.9	13.7	1.50e-06	0	43	0	638582784	20	5323
2026-01-15 00:01:10.91	84.83	63.93	-30.4	-33.3	13.7	6.10e-06	0	43	0	640679936	21	5000
2026-01-15 00:01:11.92	85.86	64.07	-30.4	-33.2	13.8	2.20e-06	0	43	0	642777088	21	4963
2026-01-15 00:01:12.92	86.88	64.20	-30.7	-34.1	13.1	6.80e-06	0	43	0	643825664	21	5339
2026-01-15 00:01:13.92	87.92	64.33	-30.6	-33.9	13.3	1.83e-05	0	43	0	645922816	21	5220
2026-01-15 00:01:14.93	88.98	64.44	-30.9	-34.7	12.9	3.05e-05	0	43	0	648019968	21	5526
2026-01-15 00:01:15.93	90.04	64.55	-30.8	-34.2	13.1	2.97e-05	0	43	0	650117120	21	5320
2026-01-15 00:01:16.93	91.11	64.66	-30.5	-33.5	13.6	1.29e-05	0	43	0	652214272	21	5079
2026-01-15 00:01:17.94	92.20	64.75	-30.3	-32.9	13.9	2.20e-06	0	43	0	653262848	21	4864
2026-01-15 00:01:18.94	93.28	64.84	-30.4	-33.8	13.8	2.20e-06	0	43	0	655360000	20	5274
2026-01-15 00:01:19.95	94.39	64.92	-30.9	-34.4	13.0	9.10e-06	0	43	0	657457152	21	5430
2026-01-15 00:01:20.95	95.49	64.99	-30.3	-33.6	12.7	7.24e-05	0	43	0	659554304	22	5295
2026-01-15 00:01:21.96	96.61	65.05	-30.9	-34.6	12.7	3.89e-05	0	43	0	661651456	21	5471
2026-01-15 00:01:22.96	97.72	65.10	-31.2	-34.9	12.4	7.32e-05	0	43	0	662700032	22	5509
2026-01-15 00:01:23.96	98.84	65.15	-30.9	-34.6	12.3	6.86e-05	0	43	0	664797184	21	5475
2026-01-15 00:01:24.96	99.96	65.18	-30.4	-33.7	13.4	1.29e-05	0	43	0	666894336	20	5268
2026-01-15 00:01:25.97	101.10	65.21	-29.9	-32.2	14.8	7.00e-07	0	43	0	668991488	20	4719
2026-01-15 00:01:26.97	102.23	65.23	-29.6	-32.0	15.2	0.00e+00	0	43	0	671088640	19	4737
2026-01-15 00:01:27.97	103.36	65.24	-29.4	-32.1	15.5	0.00e+00	0	43	0	672137216	18	4909
2026-01-15 00:01:28.97	104.49	65.24	-29.5	-31.9	15.3	0.00e+00	0	43	0	674234368	19	4708
2026-01-15 00:01:29.97	105.62	65.24	-29.4	-32.0	15.5	0.00e+00	0	43	0	676331520	18	4864
2026-01-15 00:01:30.98	106.76	65.22	-29.6	-32.0	15.4	1.68e-03	0	43	0	678428672	19	4761
2026-01-15 00:01:31.99	107.90	65.20	-29.4	-31.6	15.6	0.00e+00	0	43	0	680525824	19	4624
2026-01-15 00:01:32.99	109.03	65.16	-29.8	-32.6	15.0	5.11e-05	0	43	0	681574400	19	4938
2026-01-15 00:01:34.00	110.16	65.12	-30.2	-33.0	14.4	1.25e-03	0	43	0	683671552	20	4984
2026-01-15 00:01:35.00	111.28	65.07	-30.3	-33.3	14.1	1.50e-06	0	43	0	685768704	20	5114
2026-01-15 00:01:36.00	112.39	65.02	-29.9	-32.3	14.8	1.20e-04	0	43	0	687865856	20	4734
2026-01-15 00:01:37.00	113.49	64.95	-29.4	-31.0	15.6	0.00e+00	0	43	0	689963008	20	4349
2026-01-15 00:01:38.01	114.60	64.87	-29.2	-31.0	15.9	0.00e+00	0	43	0	691011584	19	4423
2026-01-15 00:01:39.01	115.69	64.79	-29.1	-31.3	16.0	3.43e-05	0	43	0	693108736	18	4643
2026-01-15 00:01:40.01	116.78	64.70	-29.9	-32.6	14.9	0.00e+00	0	43	0	695205888	19	4954
2026-01-15 00:01:41.02	117.86	64.60	-29.8	-32.4	15.1	1.50e-06	0	43	0	697303040	19	4873
2026-01-15 00:01:42.03	118.93	64.49	-29.7	-32.2	15.3	1.50e-06	0	43	0	698351616	19	4808
2026-01-15 00:01:43.03	119.99	64.38	-29.3	-31.3	15.7	6.25e-05	0	43	0	700448768	19	4514
2026-01-15 00:01:44.03	121.03	64.26	-29.7	-32.3	15.2	0.00e+00	0	43	0	702545920	19	4831
2026-01-15 00:01:45.03	122.06	64.13	-29.6	-31.9	15.4	3.52e-04	0	43	0	704643072	19	4700
2026-01-15 00:01:46.04	123.09	63.99	-29.2	-31.5	15.9	1.50e-06	0	43	0	706740224	18	4705
2026-01-15 00:01:47.04	124.10	63.85	-29.3	-31.9	15.7	0.00e+00	0	43	0	707788800	18	4815
2026-01-15 00:01:48.04	125.10	63.70	-29.2	-31.6	15.9	1.39e-03	0	43	0	709885952	18	4710
2026-01-15 00:01:49.04	126.08	63.55	-29.0	-31.0	16.2	1.91e-03	0	43	0	711983104	18	4533
2026-01-15 00:01:50.04	127.05	63.38	-28.5	-29.9	16.8	0.00e+00	0	43	0	714080256	18	4227
2026-01-15 00:01:51.04	128.01	63.22	-28.0	-29.6	17.5	2.11e-03	0	43	0	716177408	16	4357
2026-01-15 00:01:52.04	128.95	63.04	-27.6	-29.3	17.8	2.02e-03	0	43	0	717225984	15	4400
2026-01-15 00:01:53.05	129.89	62.86	-28.2	-30.1	17.3	0.00e+00	0	43	0	719323136	16	4496
2026-01-15 00:01:54.05	130.80	62.67	-28.0	-29.8	17.5	2.13e-03	0	43	0	721420288	16	4401
2026-01-15 00:01:55.05	131.70	62.48	-27.2	-28.4	18.3	1.83e-03	0	43	0	723517440	15	4139
2026-01-15 00:01:56.06	132.60	62.28	-27.0	-27.9	18.6	0.00e+00	0	43	0	725614592	15	4007
2026-01-15 00:01:57.06	133.47	62.08	-27.5	-29.2	17.9	0.00e+00	0	43	0	726663168	15	4347
2026-01-15 00:01:58.06	134.32	61.87	-27.4	-28.8	18.1	1.39e-03	0	43	0	728760320	15	4251
2026-01-15 00:01:59.06	135.17	61.66	-27.2	-28.3	18.3	0.00e+00	0	43	0	730857472	15	4124
2026-01-15 00:02:00.06	136.00	61.45	-27.2	-29.0	18.3	1.15e-03	0	43	0	732954624	14	4402
2026-01-15 00:02:01.06	136.81	61.22	-27.2	-29.0	18.2	7.61e-04	0	43	0	735051776	14	4429
2026-01-15 00:02:02.06	137.61	61.00	-27.3	-29.1	18.2	0.00e+00	0	43	0	736100352	14	4439
2026-01-15 00:02:03.07	138.40	60.77	-28.3	-30.5	17.1	1.18e-03	0	43	0	738197504	16	4623
2026-01-15 00:02:04.07	139.17	60.54	-28.9	-31.4	16.3	0.00e+00	0	43	0	740294656	17	4777
2026-01-15 00:02:05.07	139.93	60.30	-28.5	-30.3	16.8	0.00e+00	0	43	0	742391808	17	4452
2026-01-15 00:02:06.07	140.68	60.06	-28.6	-30.7	16.7	1.61e-03	0	43	0	743440384	17	4558
2026-01-15 00:02:07.08	141.41	59.82	-29.6	-32.0	15.4	1.84e-03	0	43	0	745537536	19	4749
2026-01-15 00:02:08.08	142.13	59.57	-29.8	-32.5	15.0	0.00e+00	0	43	0	747634688	19	4924
2026-01-15 00:02:09.09	142.84	59.32	-29.6	-32.1	15.2	1.72e-03	0	43	0	749731840	19	4793
2026-01-15 00:02:10.09	143.53	59.07	-29.4	-31.6	15.6	1.61e-03	0	43	0	751828992	19	4637
2026-01-15 00:02:11.09	144.20	58.81	-29.7	-32.2	15.2	0.00e+00	0	43	0	753926144	19	4820
2026-01-15 00:02:12.10	144.87	58.55	-29.4	-31.6	15.6	1.05e-03	0	43	0	754974720	19	4611
2026-01-15 00:02:13.11	145.53	58.29	-29.4	-32.2	15.5	7.48e-04	0	43	0	757071872	18	4924
2026-01-15 00:02:14.11	146.17	58.03	-29.4	-31.5	15.5	0.00e+00	0	43	0	759169024	19	4610
2026-01-15 00:02:15.11	146.80	57.77	-28.8	-30.2	16.3	2.46e-04	0	43	0	761266176	19	4204
2026-01-15 00:02:16.11	147.41	57.50	-28.6	-30.1	16.7	1.83e-04	0	43	0	762314752	18	4275
2026-01-15 00:02:17.11	148.01	57.23	-28.6	-30.0	16.8	0.00e+00	0	43	0	764411904	18	4251
2026-01-15 00:02:18.12	148.61	56.96	-28.8	-30.7	16.4	0.00e+00	0	43	0	766509056	18	4455
2026-01-15 00:02:19.12	149.19	56.69	-28.3	-29.5	17.0	0.00e+00	0	43	0	768606208	18	4124
2026-01-15 00:02:20.12	149.75	56.42	-28.0	-29.2	17.3	0.00e+00	0	43	0	770703360	17	4151
2026-01-15 00:02:21.13	150.32	56.15	-28.0	-29.2	17.4	1.13e-04	0	43	0	771751936	17	4148
2026-01-15 00:02:22.14	150.87	55.87	-27.8	-29.2	17.7	0.00e+00	0	43	0	773849088	16	4239
2026-01-15 00:02:23.14	151.40	55.59	-27.6	-28.8	17.9	0.00e+00	0	43	0	775946240	16	4131
2026-01-15 00:02:24.14	151.93	55.32	-28.0	-29.7	17.4	1.79e-04	0	43	0	778043392	16	4389
2026-01-15 00:02:25.14	152.44	55.04	-28.1	-29.9	17.3	0.00e+00	0	43	0	780140544	16	4454
2026-01-15 00:02:26.14	152.95	54.76	-28.2	-30.3	17.0	0.00e+00	0	43	0	781189120	16	4563
2026-01-15 00:02:27.14	153.44	54.48	-27.7	-29.5	17.6	3.41e-04	0	43	0	783286272	15	4457
2026-01-15 00:02:28.14	153.93	54.21	-27.5	-29.2	17.8	1.93e-04	0	43	0	785383424	15	4359
2026-01-15 00:02:29.14	154.40	53.93	-27.5	-29.2	17.8	0.00e+00	0	43	0	787480576	15	4374
2026-01-15 00:02:30.14	154.87	53.65	-27.6	-29.4	17.7	8.30e-06	0	43	0	789577728	15	4410
2026-01-15 00:02:31.14	155.33	53.37	-28.0	-30.3	17.2	2.97e-05	0	43	0	790626304	15	4684
2026-01-15 00:02:32.14	155.78	53.08	-28.9	-31.5	16.1	0.00e+00	0	43	0	792723456	17	4825
2026-01-15 00:02:33.14	156.22	52.80	-29.6	-32.2	15.2	9.90e-06	0	43	0	794820608	19	4823
2026-01-15 00:02:34.14	156.66	52.52	-29.1	-30.9	15.8	7.60e-06	0	43	0	796917760	19	4415
2026-01-15 00:02:35.15	157.08	52.24	-28.8	-30.7	16.3	0.00e+00	0	43	0	799014912	18	4460
2026-01-15 00:02:36.15	157.50	51.96	-29.2	-31.6	15.7	0.00e+00	0	43	0	800063488	18	4751
2026-01-15 00:02:37.15	157.91	51.68	-29.4	-32.2	15.4	1.33e-04	0	43	0	802160640	18	4930
2026-01-15 00:02:38.15	158.31	51.40	-29.4	-31.6	15.4	0.00e+00	0	43	0	804257792	19	4625
2026-01-15 00:02:39.15	158.71	51.12	-29.8	-32.6	14.9	0.00e+00	0	43	0	806354944	19	4959
2026-01-15 00:02:40.15	159.09	50.84	-30.3	-33.4	13.9	1.50e-06	0	43	0	807403520	20	5152
2026-01-15 00:02:41.15	159.47	50.56	-30.5	-33.5	13.5	3.80e-06	0	43	0	809500672	21	5103
2026-01-15 00:02:42.16	159.85	50.28	-30.4	-33.2	13.7	7.60e-06	0	43	0	811597824	21	5010
2026-01-15 00:02:43.16	160.22	50.00	-30.4	-33.3	13.7	3.00e-06	0	43	0	813694976	21	4991
2026-01-15 00:02:44.16	160.58	49.72	-30.7	-33.9	13.2	1.06e-05	0	43	0	815792128	21	5247
2026-01-15 00:02:45.16	160.93	49.44	-31.1	-34.7	12.4	7.40e-05	0	43	0	816840704	22	5443
2026-01-15 00:02:46.17	161.28	49.16	-31.6	-35.7	11.3	8.42e-04	0	43	0	818937856	23	5753
2026-01-15 00:02:47.17	161.62	48.89	-31.7	-36.1	11.0	1.39e-03	0	43	0	821035008	23	5975
2026-01-15 00:02:48.17	161.96	48.61	-32.0	-36.6	10.3	3.31e-03	0	43	0	823132160	24	6129
2026-01-15 00:02:49.17	162.29	48.34	-32.3	-37.7	9.6	1.13e-02	0	43	0	825229312	24	6673
2026-01-15 00:02:50.18	162.61	48.06	-32.2	-37.4	9.6	1.90e-02	0	43	0	826277888	24	6519
2026-01-15 00:02:51.17	162.93	47.79	-31.3	-34.3	11.9	3.24e-03	0	43	0	828375040	24	5064
2026-01-15 00:02:52.18	163.24	47.51	-30.6	-33.3	13.3	3.66e-05	0	43	0	830472192	22	4895
2026-01-15 00:02:53.18	163.55	47.24	-30.6	-33.2	13.4	1.06e-05	0	43	0	832569344	22	4869
2026-01-15 00:02:54.18	163.85	46.97	-31.4	-35.7	11.7	1.13e-04	0	43	0	834666496	22	5882
2026-01-15 00:02:55.18	164.15	46.70	-32.3	-37.7	9.4	3.96e-03	0	43	0	835715072	24	6768
2026-01-15 00:02:56.18	164.44	46.43	-31.9	-36.6	10.1	1.29e-02	0	43	0	837812224	24	6146
2026-01-15 00:02:57.19	164.73	46.16	-30.7	-33.8	12.9	5.72e-04	0	43	0	839909376	22	5104
2026-01-15 00:02:58.20	165.02	45.89	-29.7	-31.9	14.7	5.30e-06	0	43	0	842006528	20	4640
2026-01-15 00:02:59.20	165.29	45.63	-29.3	-30.9	15.4	0.00e+00	0	43	0	844103680	20	4338
2026-01-15 00:03:00.21	165.57	45.36	-29.4	-31.6	15.3	0.00e+00	0	43	0	845152256	19	4638
2026-01-15 00:03:01.20	165.84	45.10	-29.6	-32.0	15.1	0.00e+00	0	43	0	847249408	19	4755
2026-01-15 00:03:02.21	166.10	44.83	-30.0	-32.8	14.2	3.00e-06	0	43	0	849346560	20	4943
2026-01-15 00:03:03.22	166.36	44.57	-30.6	-33.7	13.3	5.30e-06	0	43	0	851443712	21	5178
2026-01-15 00:03:04.22	166.62	44.31	-31.0	-34.9	12.6	5.95e-05	0	43	0	852492288	21	5671
2026-01-15 00:03:05.22	166.87	44.05	-30.7	-33.5	13.1	1.15e-04	0	43	0	854589440	22	5002
2026-01-15 00:03:06.22	167.12	43.79	-29.7	-31.9	14.8	1.50e-06	0	43	0	856686592	20	4649
2026-01-15 00:03:07.23	167.37	43.53	-29.0	-30.6	15.9	0.00e+00	0	43	0	858783744	19	4317
2026-01-15 00:03:08.23	167.61	43.27	-28.6	-30.1	16.5	0.00e+00	0	44	0	860880896	18	4292
2026-01-15 00:03:09.24	167.84	43.02	-28.8	-30.7	16.2	0.00e+00	0	43	0	861929472	18	4471
2026-01-15 00:03:10.24	168.08	42.76	-29.1	-31.5	15.7	0.00e+00	0	43	0	864026624	18	4701
2026-01-15 00:03:11.25	168.31	42.51	-30.0	-32.8	14.1	2.20e-06	0	43	0	866123776	20	4937
2026-01-15 00:03:12.25	168.53	42.26	-30.7	-34.1	12.9	7.62e-05	0	43	0	868220928	21	5334
2026-01-15 00:03:13.25	168.75	42.01	-30.6	-33.7	13.3	2.74e-05	0	43	0	870318080	21	5183
2026-01-15 00:03:14.25	168.97	41.76	-30.2	-32.6	14.0	1.83e-05	0	43	0	871366656	21	4772
2026-01-15 00:03:15.25	169.19	41.51	-29.7	-31.8	14.8	7.00e-07	0	43	0	873463808	20	4615
2026-01-15 00:03:16.26	169.40	41.26	-29.7	-31.9	14.8	0.00e+00	0	43	0	875560960	20	4633
2026-01-15 00:03:17.26	169.61	41.02	-30.0	-32.7	14.3	3.80e-06	0	43	0	877658112	20	4891
2026-01-15 00:03:18.27	169.82	40.77	-30.4	-33.7	13.6	3.00e-06	0	43	0	879755264	20	5265
2026-01-15 00:03:19.27	170.02	40.53	-30.6	-33.7	13.3	1.29e-05	0	43	0	880803840	21	5163
2026-01-15 00:03:20.28	170.22	40.28	-31.2	-35.0	12.1	1.29e-04	0	43	0	882900992	22	5569
2026-01-15 00:03:21.28	170.42	40.04	-31.5	-35.9	11.5	4.80e-04	0	43	0	884998144	22	5990
2026-01-15 00:03:22.28	170.62	39.81	-31.7	-36.1	11.0	1.16e-03	0	43	0	887095296	23	5964
2026-01-15 00:03:23.29	170.81	39.57	-31.6	-35.8	11.2	2.12e-03	0	43	0	889192448	23	5819
2026-01-15 00:03:24.29	171.00	39.33	-31.5	-35.4	11.5	1.19e-03	0	43	0	890241024	23	5648
2026-01-15 00:03:25.29	171.18	39.09	-31.4	-35.2	11.6	7.16e-04	0	43	0	892338176	23	5581
2026-01-15 00:03:26.29	171.37	38.86	-31.3	-35.1	12.0	1.34e-03	0	43	0	894435328	22	5635
2026-01-15 00:03:27.30	171.55	38.63	-30.5	-33.5	13.4	4.42e-05	0	43	0	896532480	21	5090
2026-01-15 00:03:28.31	171.73	38.39	-29.9	-31.9	14.4	5.30e-06	0	43	0	898629632	21	4534
2026-01-15 00:03:29.31	171.91	38.16	-29.7	-31.8	14.8	1.04e-04	0	43	0	899678208	20	4594
2026-01-15 00:03:30.31	172.08	37.93	-30.0	-32.7	14.3	5.41e-05	0	43	0	901775360	20	4911
2026-01-15 00:03:31.31	172.25	37.71	-30.7	-34.2	12.9	1.83e-05	0	43	0	903872512	21	5357
2026-01-15 00:03:32.31	172.42	37.48	-31.2	-35.2	11.9	1.06e-04	0	43	0	905969664	22	5667
2026-01-15 00:03:33.32	172.59	37.25	-31.4	-35.8	11.5	8.35e-04	0	43	0	908066816	22	5934
2026-01-15 00:03:34.32	172.75	37.03	-31.3	-35.3	11.8	6.83e-04	0	43	0	909115392	22	5743
2026-01-15 00:03:35.33	172.92	36.81	-31.0	-34.4	12.4	2.62e-04	0	43	0	911212544	22	5326
2026-01-15 00:03:36.33	173.08	36.59	-30.6	-33.4	13.2	2.46e-04	0	43	0	913309696	22	4945
2026-01-15 00:03:37.34	173.23	36.36	-30.3	-33.0	13.7	2.28e-05	0	43	0	915406848	21	4898
2026-01-15 00:03:38.34	173.39	36.14	-30.1	-32.5	14.1	3.00e-06	0	43	0	916455424	21	4721
2026-01-15 00:03:39.34	173.54	35.93	-30.3	-33.6	13.7	3.00e-06	0	43	0	918552576	20	5235
2026-01-15 00:03:40.35	173.70	35.71	-30.5	-33.5	13.3	4.11e-05	0	43	0	920649728	21	5093
2026-01-15 00:03:41.35	173.85	35.50	-30.2	-32.8	13.8	4.35e-04	0	44	0	922746880	21	4835
2026-01-15 00:03:42.36	174.00	35.28	-30.4	-33.8	13.5	3.80e-06	0	43	0	924844032	20	5331
2026-01-15 00:03:43.36	174.14	35.07	-30.8	-34.3	12.8	4.11e-05	0	43	0	925892608	21	5406
2026-01-15 00:03:44.36	174.29	34.86	-30.9	-34.8	12.5	6.06e-04	0	43	0	927989760	21	5617
2026-01-15 00:03:45.35	174.43	34.65	-31.3	-35.3	11.8	4.56e-04	0	43	0	930086912	22	5721
2026-01-15 00:03:46.36	174.57	34.44	-31.4	-35.6	11.6	6.19e-04	0	43	0	932184064	22	5856
2026-01-15 00:03:47.37	174.71	34.23	-31.4	-35.6	11.6	1.16e-03	0	43	0	934281216	22	5871
2026-01-15 00:03:48.37	174.85	34.02	-31.2	-35.0	12.0	1.00e-03	0	43	0	935329792	22	5598
2026-01-15 00:03:49.36	174.98	33.82	-31.1	-34.8	12.1	2.66e-04	0	43	0	937426944	22	5499
2026-01-15 00:03:50.36	175.12	33.62	-31.2	-35.0	12.0	6.63e-04	0	43	0	939524096	22	5606
2026-01-15 00:03:51.37	175.25	33.41	-31.3	-35.4	11.7	9.73e-04	0	43	0	941621248	22	5795
2026-01-15 00:03:52.34	175.38	33.22	-31.2	-35.0	11.9	6.04e-04	0	44	0	943718400	22	5607
2026-01-15 00:03:53.35	175.51	33.01	-30.9	-34.3	12.5	2.69e-04	0	43	0	944766976	22	5301
2026-01-15 00:03:54.35	175.64	32.81	-30.8	-33.9	12.7	1.50e-04	0	43	0	946864128	22	5167
2026-01-15 00:03:55.35	175.76	32.62	-30.6	-33.3	13.1	6.17e-05	0	43	0	948961280	22	4930
2026-01-15 00:03:56.36	175.89	32.42	-30.5	-33.5	13.3	1.94e-04	0	43	0	951058432	21	5105
2026-01-15 00:03:57.36	176.01	32.22	-30.4	-33.3	13.4	5.26e-05	0	43	0	953155584	21	5013
2026-01-15 00:03:58.36	176.13	32.03	-30.4	-33.3	13.4	9.84e-05	0	43	0	954204160	21	5012
2026-01-15 00:03:59.36	176.25	31.83	-30.4	-33.4	13.4	2.46e-04	0	43	0	956301312	21	5065
2026-01-15 00:04:00.36	176.37	31.64	-30.6	-34.0	13.0	6.10e-05	0	43	0	958398464	21	5282
2026-01-15 00:04:01.37	176.49	31.45	-30.6	-33.9	13.0	1.06e-04	0	44	0	960495616	21	5256
2026-01-15 00:04:02.38	176.61	31.26	-30.6	-34.0	12.9	2.32e-04	0	43	0	962592768	21	5310
2026-01-15 00:04:03.38	176.72	31.07	-30.9	-34.7	12.4	1.20e-04	0	43	0	963641344	21	5575
2026-01-15 00:04:04.39	176.84	30.88	-31.0	-34.9	12.2	1.92e-04	0	44	0	965738496	21	5687
2026-01-15 00:04:05.40	176.95	30.69	-31.0	-34.7	12.1	2.58e-04	0	43	0	967835648	22	5477
2026-01-15 00:04:06.40	177.06	30.50	-31.1	-34.8	12.1	5.17e-04	0	43	0	969932800	22	5509
2026-01-15 00:04:07.40	177.17	30.32	-31.0	-34.5	12.3	2.46e-04	0	44	0	970981376	22	5397
2026-01-15 00:04:08.41	177.28	30.13	-30.8	-34.6	12.5	2.09e-04	0	43	0	973078528	21	5535
2026-01-15 00:04:09.41	177.39	29.95	-30.7	-34.1	12.9	1.30e-04	0	43	0	975175680	21	5330
2026-01-15 00:04:10.42	177.50	29.77	-30.6	-33.8	13.0	3.89e-05	0	43	0	977272832	21	5222
2026-01-15 00:04:11.42	177.60	29.59	-30.5	-33.6	13.2	5.34e-05	0	43	0	979369984	21	5129
2026-01-15 00:04:12.43	177.71	29.41	-30.5	-33.7	13.1	4.27e-05	0	43	0	981467136	21	5188
2026-01-15 00:04:13.43	177.81	29.23	-30.5	-33.6	13.1	3.73e-05	0	43	0	982515712	21	5159
2026-01-15 00:04:14.43	177.91	29.05	-30.4	-33.8	13.3	2.36e-05	0	43	0	984612864	20	5337
2026-01-15 00:04:15.43	178.01	28.88	-30.3	-33.6	13.5	1.67e-04	0	43	0	986710016	20	5264
2026-01-15 00:04:16.43	178.11	28.70	-30.3	-33.5	13.5	1.60e-05	0	43	0	988807168	20	5220
2026-01-15 00:04:17.43	178.21	28.53	-30.5	-34.1	13.2	1.67e-05	0	43	0	989855744	20	5444
2026-01-15 00:04:18.44	178.31	28.35	-30.6	-33.9	12.9	3.52e-04	0	43	0	991952896	21	5277
2026-01-15 00:04:19.44	178.41	28.18	-30.8	-34.4	12.6	3.66e-05	0	43	0	994050048	21	5475
2026-01-15 00:04:20.44	178.50	28.01	-30.9	-34.4	12.3	2.32e-04	0	43	0	996147200	22	5339
2026-01-15 00:04:21.44	178.60	27.84	-30.8	-34.4	12.6	1.09e-04	0	43	0	998244352	21	5470
2026-01-15 00:04:22.45	178.69	27.67	-30.7	-34.2	12.7	7.32e-05	0	43	0	999292928	21	5377
2026-01-15 00:04:23.45	178.79	27.50	-30.6	-33.9	12.9	2.04e-03	0	43	0	1001390080	21	5266
2026-01-15 00:04:24.45	178.88	27.33	-30.6	-33.9	12.9	4.50e-05	0	43	0	1003487232	21	5289
2026-01-15 00:04:25.46	178.97	27.16	-30.5	-33.6	13.1	4.42e-05	0	43	0	1005584384	21	5172
2026-01-15 00:04:26.46	179.06	27.00	-30.5	-34.1	13.1	2.27e-03	0	43	0	1007681536	20	5480
2026-01-15 00:04:27.47	179.15	26.83	-30.6	-34.0	12.8	6.10e-05	0	43	0	1008730112	21	5320
2026-01-15 00:04:28.47	179.24	26.67	-30.5	-34.1	12.9	7.09e-05	0	43	0	1010827264	20	5448
2026-01-15 00:04:29.47	179.33	26.51	-30.0	-32.9	13.9	2.02e-03	0	43	0	1012924416	20	4990
2026-01-15 00:04:30.47	179.41	26.34	-29.7	-32.1	14.4	2.26e-03	0	43	0	1015021568	20	4718
2026-01-15 00:04:31.47	179.50	26.18	-29.4	-31.8	14.6	5.30e-06	0	43	0	1016070144	19	4718
2026-01-15 00:04:32.47	179.58	26.02	-29.3	-32.0	15.1	0.00e+00	0	44	0	1018167296	18	4888
2026-01-15 00:04:33.48	179.67	25.86	-29.3	-31.9	15.2	2.17e-03	0	44	0	1020264448	18	4854
2026-01-15 00:04:34.48	179.75	25.71	-29.3	-31.9	15.2	7.00e-07	0	44	0	1022361600	18	4875
2026-01-15 00:04:35.49	179.84	25.55	-29.3	-31.8	15.2	0.00e+00	0	43	0	1024458752	18	4851
2026-01-15 00:04:36.49	179.92	25.39	-29.0	-31.3	15.5	0.00e+00	0	43	0	1026555904	18	4661
2026-01-15 00:04:37.49	180.00	25.23	-29.0	-31.2	15.6	2.33e-04	0	43	0	1027604480	18	4646
2026-01-15 00:04:38.50	180.08	25.08	-29.0	-31.3	15.5	0.00e+00	0	43	0	1029701632	18	4688
2026-01-15 00:04:39.49	180.16	24.93	-29.2	-31.7	15.3	0.00e+00	0	43	0	1031798784	18	4793
2026-01-15 00:04:40.49	180.24	24.77	-29.3	-32.0	15.1	4.50e-06	0	43	0	1033895936	18	4892
2026-01-15 00:04:41.49	180.32	24.62	-29.2	-31.7	15.3	2.33e-04	0	43	0	1034944512	18	4803
2026-01-15 00:04:42.50	180.39	24.47	-29.2	-31.6	15.3	0.00e+00	0	43	0	1037041664	18	4788
2026-01-15 00:04:43.50	180.47	24.32	-29.2	-31.7	15.2	4.50e-06	0	44	0	1039138816	18	4819
2026-01-15 00:04:44.50	180.55	24.17	-29.3	-31.9	15.1	2.19e-04	0	43	0	1041235968	18	4874
2026-01-15 00:04:45.50	180.62	24.02	-29.2	-31.8	15.1	0.00e+00	0	43	0	1043333120	18	4859
2026-01-15 00:04:46.50	180.70	23.87	-29.2	-31.9	15.1	7.00e-07	0	43	0	1044381696	18	4876
2026-01-15 00:04:47.51	180.77	23.72	-29.2	-31.8	15.1	2.51e-04	0	43	0	1046478848	18	4866
2026-01-15 00:04:48.51	180.84	23.58	-29.1	-31.6	15.3	0.00e+00	0	43	0	1048576000	18	4793
2026-01-15 00:04:49.52	180.92	23.43	-29.1	-31.6	15.3	0.00e+00	0	43	0	1050673152	18	4786
2026-01-15 00:04:50.52	180.99	23.28	-29.3	-31.9	15.1	0.00e+00	0	43	0	1052770304	18	4895
2026-01-15 00:04:51.53	181.06	23.14	-29.1	-31.6	15.3	0.00e+00	0	43	0	1053818880	18	4786
2026-01-15 00:04:52.53	181.13	22.99	-29.1	-31.5	15.3	2.95e-04	0	43	0	1055916032	18	4742
2026-01-15 00:04:53.53	181.20	22.85	-29.0	-31.3	15.4	0.00e+00	0	43	0	1058013184	18	4682
2026-01-15 00:04:54.52	181.27	22.71	-28.9	-31.6	15.5	0.00e+00	0	43	0	1060110336	17	4914
2026-01-15 00:04:55.53	181.34	22.57	-28.1	-30.8	15.0	2.95e-04	0	43	0	1062207488	17	4950
2026-01-15 00:04:56.53	181.41	22.43	-28.9	-31.6	14.7	0.00e+00	0	43	0	1063256064	17	4889
2026-01-15 00:04:57.53	181.48	22.29	-29.0	-31.4	15.3	0.00e+00	0	43	0	1065353216	18	4708
2026-01-15 00:04:58.54	181.54	22.15	-29.2	-31.8	13.9	3.23e-04	0	43	0	1067450368	18	4855
2026-01-15 00:04:59.55	181.61	22.01	-29.3	-32.1	14.5	2.93e-04	0	43	0	1069547520	18	4972
2026-01-15 00:05:00.55	181.68	21.87	-29.4	-32.3	14.8	7.00e-07	0	43	0	1071644672	18	5015
2026-01-15 00:05:01.55	181.74	21.73	-29.4	-32.3	14.7	3.12e-04	0	43	0	1072693248	18	5026
2026-01-15 00:05:02.55	181.81	21.60	-29.3	-32.2	14.8	3.30e-04	0	43	0	1074790400	18	4981
2026-01-15 00:05:03.56	181.87	21.46	-29.4	-32.3	14.8	7.00e-07	0	43	0	1076887552	18	5021
2026-01-15 00:05:04.56	181.94	21.33	-29.4	-32.2	14.8	2.24e-03	0	43	0	1078984704	18	5005
2026-01-15 00:05:05.56	182.00	21.19	-29.5	-32.5	14.6	2.53e-04	0	43	0	1080033280	18	5114
2026-01-15 00:05:06.56	182.06	21.06	-29.8	-33.0	14.0	7.00e-07	0	43	0	1082130432	19	5170
2026-01-15 00:05:07.57	182.13	20.92	-29.8	-33.0	14.0	2.20e-06	0	44	0	1084227584	19	5165
2026-01-15 00:05:08.58	182.19	20.79	-29.6	-32.4	14.4	2.35e-03	0	43	0	1086324736	19	4947
2026-01-15 00:05:09.58	182.25	20.66	-29.5	-32.0	14.6	0.00e+00	0	43	0	1088421888	19	4820
2026-01-15 00:05:10.58	182.31	20.53	-29.3	-32.0	14.9	2.48e-04	0	43	0	1089470464	18	4924
2026-01-15 00:05:11.58	182.37	20.40	-29.3	-32.0	14.9	2.06e-03	0	43	0	1091567616	18	4950
2026-01-15 00:05:12.58	182.43	20.27	-29.5	-32.5	14.6	0.00e+00	0	43	0	1093664768	18	5128
2026-01-15 00:05:13.58	182.49	20.14	-29.6	-32.4	14.4	2.43e-04	0	43	0	1095761920	19	4955
2026-01-15 00:05:14.59	182.55	20.01	-29.5	-32.2	14.5	1.92e-03	0	43	0	1097859072	19	4898
2026-01-15 00:05:15.59	182.61	19.88	-29.5	-32.1	14.5	2.20e-06	0	43	0	1098907648	19	4852
2026-01-15 00:05:16.59	182.67	19.76	-29.3	-32.1	14.8	2.94e-04	0	43	0	1101004800	18	4982
2026-01-15 00:05:17.59	182.72	19.63	-29.3	-32.1	14.8	2.18e-04	0	43	0	1103101952	18	4976
2026-01-15 00:05:18.59	182.78	19.50	-29.4	-32.4	14.7	7.00e-07	0	43	0	1105199104	18	5058
2026-01-15 00:05:19.60	182.84	19.38	-29.4	-32.3	14.7	1.88e-03	0	43	0	1107296256	18	5048
2026-01-15 00:05:20.60	182.90	19.25	-29.3	-32.0	14.8	2.42e-04	0	43	0	1108344832	18	4948
2026-01-15 00:05:21.61	182.95	19.13	-29.3	-32.0	14.9	0.00e+00	0	43	0	1110441984	18	4942
2026-01-15 00:05:22.60	183.01	19.01	-29.2	-31.9	14.9	1.74e-03	0	43	0	1112539136	18	4903
2026-01-15 00:05:23.60	183.06	18.88	-29.2	-31.8	15.0	2.20e-04	0	43	0	1114636288	18	4874
2026-01-15 00:05:24.61	183.12	18.76	-29.2	-31.7	15.0	0.00e+00	0	43	0	1116733440	18	4846
2026-01-15 00:05:25.61	183.17	18.64	-29.3	-32.0	14.9	1.54e-03	0	43	0	1117782016	18	4925
2026-01-15 00:05:26.62	183.23	18.52	-29.2	-31.9	14.9	1.58e-03	0	43	0	1119879168	18	4888
2026-01-15 00:05:27.62	183.28	18.40	-29.1	-31.7	15.0	0.00e+00	0	43	0	1121976320	18	4823
2026-01-15 00:05:28.63	183.33	18.28	-29.3	-32.0	14.8	1.06e-03	0	43	0	1124073472	18	4941
2026-01-15 00:05:29.62	183.38	18.16	-29.3	-32.1	14.8	1.25e-03	0	43	0	1126170624	18	4968
2026-01-15 00:05:30.62	183.44	18.04	-29.3	-32.1	14.8	0.00e+00	0	43	0	1127219200	18	4961
2026-01-15 00:05:31.62	183.49	17.92	-29.5	-32.1	14.4	1.05e-03	0	43	0	1129316352	19	4858
2026-01-15 00:05:32.63	183.54	17.80	-29.6	-32.3	14.3	1.08e-03	0	43	0	1131413504	19	4929
2026-01-15 00:05:33.63	183.59	17.69	-29.7	-32.5	14.2	3.00e-06	0	43	0	1133510656	19	5013
2026-01-15 00:05:34.64	183.64	17.57	-29.6	-32.5	14.2	2.30e-04	0	43	0	1135607808	19	4991
2026-01-15 00:05:35.64	183.69	17.45	-29.7	-32.7	14.1	1.04e-03	0	43	0	1136656384	19	5065
2026-01-15 00:05:36.65	183.74	17.34	-29.8	-32.9	13.9	1.14e-05	0	43	0	1138753536	19	5161
2026-01-15 00:05:37.65	183.79	17.22	-29.8	-33.0	13.9	1.10e-03	0	43	0	1140850688	19	5172
2026-01-15 00:05:38.66	183.84	17.10	-30.0	-33.4	13.6	8.37e-04	0	43	0	1142947840	19	5356
2026-01-15 00:05:39.66	183.89	16.99	-30.2	-33.7	13.0	1.37e-05	0	43	0	1143996416	20	5352
2026-01-15 00:05:40.66	183.94	16.88	-30.3	-33.8	12.9	1.08e-03	0	43	0	1146093568	20	5415
2026-01-15 00:05:41.67	183.99	16.76	-30.2	-33.5	13.1	2.73e-04	0	43	0	1148190720	20	5262
2026-01-15 00:05:42.67	184.04	16.65	-30.0	-33.1	13.4	1.14e-05	0	43	0	1150287872	20	5117
2026-01-15 00:05:43.67	184.08	16.54	-29.9	-32.8	13.5	3.80e-04	0	43	0	1152385024	20	5026
2026-01-15 00:05:44.67	184.13	16.43	-30.0	-33.1	13.4	6.10e-04	0	43	0	1153433600	20	5123
2026-01-15 00:05:45.67	184.18	16.32	-30.0	-32.9	13.5	1.22e-05	0	43	0	1155530752	20	5066
2026-01-15 00:05:46.68	184.23	16.21	-30.1	-33.3	13.2	3.83e-04	0	43	0	1157627904	20	5190
2026-01-15 00:05:47.69	184.27	16.09	-30.1	-33.3	13.2	6.99e-04	0	43	0	1159725056	20	5208
2026-01-15 00:05:48.69	184.32	15.98	-30.1	-33.4	13.2	2.36e-05	0	43	0	1161822208	20	5234
2026-01-15 00:05:49.69	184.36	15.88	-30.1	-33.2	13.3	3.19e-04	0	44	0	1162870784	20	5163
2026-01-15 00:05:50.69	184.41	15.77	-29.9	-32.9	13.4	1.62e-04	0	43	0	1164967936	20	5059
2026-01-15 00:05:51.70	184.45	15.66	-29.9	-32.8	13.5	6.80e-06	0	43	0	1167065088	20	5015
2026-01-15 00:05:52.70	184.50	15.55	-29.9	-33.2	13.6	1.65e-04	0	43	0	1169162240	19	5279
2026-01-15 00:05:53.70	184.54	15.44	-29.9	-33.3	13.6	1.70e-04	0	43	0	1171259392	19	5303
2026-01-15 00:05:54.71	184.59	15.34	-29.9	-33.3	13.6	9.10e-06	0	43	0	1172307968	19	5299
2026-01-15 00:05:55.71	184.63	15.23	-30.0	-33.1	13.3	1.90e-05	0	43	0	1174405120	20	5125
2026-01-15 00:05:56.71	184.68	15.12	-30.1	-33.4	13.1	2.51e-04	0	43	0	1176502272	20	5241
2026-01-15 00:05:57.71	184.72	15.02	-30.1	-33.3	13.2	3.50e-05	0	43	0	1178599424	20	5189
2026-01-15 00:05:58.71	184.76	14.91	-30.0	-33.0	13.4	4.74e-04	0	43	0	1180696576	20	5096
2026-01-15 00:05:59.71	184.81	14.81	-29.8	-33.0	13.7	6.10e-06	0	43	0	1181745152	19	5198
2026-01-15 00:06:00.71	184.85	14.71	-29.9	-33.3	13.6	5.30e-06	0	43	0	1183842304	19	5302
2026-01-15 00:06:01.72	184.89	14.60	-30.0	-33.4	13.5	1.58e-04	0	43	0	1185939456	19	5337
2026-01-15 00:06:02.73	184.93	14.50	-29.9	-33.2	13.6	8.30e-06	0	43	0	1188036608	19	5286
2026-01-15 00:06:03.74	184.97	14.39	-30.0	-33.4	13.4	9.90e-06	0	43	0	1190133760	19	5363
2026-01-15 00:06:04.74	185.02	14.29	-29.9	-32.8	13.5	2.10e-04	0	43	0	1191182336	20	5019
2026-01-15 00:06:05.75	185.06	14.19	-29.9	-32.8	13.4	1.44e-05	0	43	0	1193279488	20	5027
2026-01-15 00:06:06.76	185.10	14.09	-29.9	-32.7	13.5	9.90e-06	0	43	0	1195376640	20	4992
2026-01-15 00:06:07.77	185.14	13.98	-30.0	-33.1	13.3	1.48e-04	0	43	0	1197473792	20	5127
2026-01-15 00:06:08.77	185.18	13.88	-29.9	-32.7	13.5	1.04e-04	0	43	0	1198522368	20	4997
2026-01-15 00:06:09.77	185.22	13.78	-29.9	-32.7	13.5	6.80e-06	0	43	0	1200619520	20	4979
2026-01-15 00:06:10.77	185.26	13.68	-29.8	-32.6	13.5	6.10e-06	0	43	0	1202716672	20	4963
2026-01-15 00:06:11.77	185.30	13.58	-30.1	-33.3	13.1	1.10e-04	0	43	0	1204813824	20	5230
2026-01-15 00:06:12.77	185.34	13.48	-30.0	-33.4	13.4	1.44e-05	0	43	0	1206910976	19	5363
2026-01-15 00:06:13.78	185.38	13.39	-30.0	-33.1	13.2	1.14e-05	0	43	0	1209008128	20	5133
2026-01-15 00:06:14.78	185.42	13.29	-30.1	-33.4	13.0	1.69e-04	0	44	0	1210056704	20	5260
2026-01-15 00:06:15.78	185.46	13.19	-30.0	-33.2	13.2	1.91e-04	0	43	0	1212153856	20	5167
2026-01-15 00:06:16.79	185.50	13.09	-30.1	-33.3	13.1	3.43e-05	0	43	0	1214251008	20	5221
2026-01-15 00:06:17.79	185.53	12.99	-30.1	-33.4	13.0	3.50e-05	0	43	0	1216348160	20	5253
2026-01-15 00:06:18.80	185.57	12.90	-30.1	-33.3	13.1	3.05e-05	0	43	0	1217396736	20	5236
2026-01-15 00:06:19.80	185.61	12.80	-30.1	-33.4	13.0	4.27e-05	0	43	0	1219493888	20	5269
2026-01-15 00:06:20.80	185.65	12.70	-30.1	-33.3	13.1	3.05e-05	0	43	0	1221591040	20	5211
2026-01-15 00:06:21.81	185.68	12.61	-30.2	-33.7	12.8	2.59e-05	0	43	0	1223688192	20	5367
2026-01-15 00:06:22.82	185.72	12.51	-30.1	-33.4	12.9	2.47e-04	0	43	0	1225785344	20	5280
2026-01-15 00:06:23.82	185.76	12.42	-30.0	-33.0	13.2	2.36e-05	0	43	0	1226833920	20	5113
2026-01-15 00:06:24.82	185.80	12.32	-29.9	-32.8	13.4	1.83e-05	0	43	0	1228931072	20	5034
2026-01-15 00:06:25.82	185.83	12.23	-29.9	-33.3	13.4	2.09e-04	0	43	0	1231028224	19	5337
2026-01-15 00:06:26.83	185.87	12.13	-29.9	-33.3	13.4	1.83e-05	0	43	0	1233125376	19	5322
2026-01-15 00:06:27.83	185.90	12.04	-29.9	-33.3	13.4	1.52e-05	0	43	0	1235222528	19	5320
2026-01-15 00:06:28.84	185.94	11.95	-29.9	-33.2	13.4	6.80e-06	0	43	0	1236271104	19	5305
2026-01-15 00:06:29.84	185.98	11.85	-30.0	-33.5	13.3	1.22e-05	0	43	0	1238368256	19	5415
2026-01-15 00:06:30.84	186.01	11.76	-29.9	-33.4	13.3	1.44e-05	0	43	0	1240465408	19	5356
2026-01-15 00:06:31.84	186.05	11.67	-30.0	-33.5	13.2	2.05e-05	0	43	0	1242562560	19	5418
2026-01-15 00:06:32.85	186.08	11.58	-30.1	-33.4	12.9	3.50e-05	0	43	0	1244659712	20	5253
2026-01-15 00:06:33.85	186.12	11.48	-30.1	-33.3	13.0	2.17e-04	0	43	0	1245708288	20	5226
2026-01-15 00:06:34.85	186.15	11.39	-30.1	-33.4	12.9	4.65e-05	0	43	0	1247805440	20	5262
2026-01-15 00:06:35.85	186.19	11.30	-30.2	-33.6	12.8	5.03e-05	0	43	0	1249902592	20	5343
2026-01-15 00:06:36.85	186.22	11.21	-30.2	-33.7	12.7	2.30e-04	0	43	0	1251999744	20	5401
2026-01-15 00:06:37.86	186.25	11.12	-30.1	-33.5	12.8	4.88e-05	0	43	0	1254096896	20	5300
2026-01-15 00:06:38.87	186.29	11.03	-30.1	-33.6	12.8	6.33e-05	0	43	0	1255145472	20	5339
2026-01-15 00:06:39.87	186.32	10.94	-30.0	-33.3	12.9	2.17e-04	0	43	0	1257242624	20	5218
2026-01-15 00:06:40.88	186.36	10.85	-30.1	-33.6	12.7	1.84e-04	0	43	0	1259339776	20	5358
2026-01-15 00:06:41.88	186.39	10.76	-30.1	-33.4	12.8	1.01e-04	0	43	0	1261436928	20	5294
2026-01-15 00:06:42.88	186.42	10.67	-30.1	-33.4	12.8	4.03e-04	0	43	0	1263534080	20	5292
2026-01-15 00:06:43.88	186.46	10.59	-30.5	-34.5	12.1	3.23e-04	0	44	0	1264582656	20	5741
2026-01-15 00:06:44.88	186.49	10.50	-30.3	-34.1	12.3	2.56e-04	0	43	0	1266679808	20	5575
2026-01-15 00:06:45.89	186.52	10.41	-30.1	-33.5	12.7	5.84e-04	0	43	0	1268776960	20	5327
2026-01-15 00:06:46.89	186.55	10.32	-30.0	-33.5	13.1	2.04e-04	0	43	0	1270874112	19	5442
2026-01-15 00:06:47.89	186.59	10.24	-29.9	-33.0	13.1	2.89e-05	0	43	0	1271922688	20	5120
2026-01-15 00:06:48.89	186.62	10.15	-30.0	-33.1	13.0	3.89e-05	0	43	0	1274019840	20	5160
2026-01-15 00:06:49.89	186.65	10.06	-29.9	-33.0	13.0	9.57e-04	0	43	0	1276116992	20	5138
2026-01-15 00:06:50.89	186.68	9.98	-30.2	-33.7	12.6	7.47e-05	0	43	0	1278214144	20	5402
2026-01-15 00:06:51.89	186.71	9.89	-30.1	-33.6	12.6	2.97e-04	0	43	0	1280311296	20	5370
2026-01-15 00:06:52.90	186.74	9.80	-30.2	-33.7	12.5	1.26e-03	0	43	0	1281359872	20	5429
2026-01-15 00:06:53.91	186.78	9.72	-30.4	-34.4	12.1	1.88e-04	0	44	0	1283457024	20	5696
2026-01-15 00:06:54.91	186.81	9.63	-30.3	-34.0	12.3	5.16e-04	0	43	0	1285554176	20	5543
2026-01-15 00:06:55.91	186.84	9.55	-30.4	-34.4	12.1	3.97e-04	0	43	0	1287651328	20	5728
