passes_logs/2026/01/14/R2M6_AANII_01/R2M6_AANII_01__20260114_041341_FENGYUN_3D_rec.log

#Pass ID: 20260114_041341_FENGYUN 3D
#Satellite: FENGYUN 3D
#Configuration: FENGYUN 3D
#almurnet v.1.7.20240730
#Start time: 2026-01-14 04:13:41

#Version: 2.2.20231116
#Station: R2M6_AANII_01
#Location: 30.233357 lon 59.946436 lat
#TLE: 1 43010U 17072A   26013.31211337  .00000452  00000+0  23563-3 0  9990
#TLE: 2 43010  98.9934 345.1024 0002270 111.0315 249.1103 14.19696845423017

#Time	Az	El	Level	Level2	SNR	BER	BlckErr	Temp	State	Recorded	gain1	gain2
2026-01-14 04:13:41.88	11.36	7.01	-30.2	-33.6	5.3	7.83e-01	0	40	0	0	20	5359
2026-01-14 04:13:42.88	11.27	7.08	-30.4	-34.2	5.3	7.87e-01	0	40	104	0	20	5574
2026-01-14 04:13:43.89	11.19	7.14	-30.2	-33.7	9.5	1.24e-02	0	40	0	0	20	5353
2026-01-14 04:13:44.89	11.10	7.21	-30.2	-33.7	9.5	1.29e-02	0	40	0	5242880	20	5357
2026-01-14 04:13:45.89	11.01	7.28	-30.3	-34.0	9.2	1.46e-02	0	40	0	11534336	20	5493
2026-01-14 04:13:46.91	10.93	7.34	-30.3	-33.8	9.4	1.46e-02	0	40	0	16777216	20	5402
2026-01-14 04:13:47.91	10.84	7.41	-30.4	-34.1	9.2	1.36e-02	0	41	0	22020096	20	5539
2026-01-14 04:13:48.91	10.75	7.48	-30.8	-34.9	8.3	3.43e-02	0	41	0	28311552	21	5770
2026-01-14 04:13:49.91	10.66	7.54	-30.4	-33.6	9.2	2.57e-02	0	40	0	33554432	21	5228
2026-01-14 04:13:50.92	10.57	7.61	-30.0	-32.9	10.0	6.57e-03	0	41	0	38797312	20	5062
2026-01-14 04:13:51.92	10.49	7.68	-29.5	-32.2	11.0	1.91e-03	0	41	0	45088768	19	4878
2026-01-14 04:13:52.92	10.40	7.74	-29.1	-31.5	11.7	7.31e-04	0	41	0	50331648	18	4775
2026-01-14 04:13:53.92	10.31	7.81	-28.7	-31.0	12.4	1.44e-04	0	41	0	55574528	17	4713
2026-01-14 04:13:54.92	10.22	7.88	-28.4	-30.2	12.9	4.23e-05	0	41	0	61865984	17	4466
2026-01-14 04:13:55.93	10.13	7.94	-28.1	-30.1	13.2	9.10e-06	0	41	0	67108864	16	4549
2026-01-14 04:13:56.93	10.04	8.01	-28.0	-29.9	13.4	6.80e-06	0	41	0	73400320	16	4491
2026-01-14 04:13:57.94	9.94	8.08	-27.8	-30.0	13.5	8.00e-06	0	41	0	78643200	15	4643
2026-01-14 04:13:58.94	9.85	8.14	-27.7	-29.8	13.6	3.40e-06	0	41	0	84934656	15	4583
2026-01-14 04:13:59.95	9.76	8.21	-28.2	-30.3	13.2	9.10e-06	0	41	0	90177536	16	4593
2026-01-14 04:14:00.96	9.66	8.28	-28.0	-29.9	13.4	5.70e-06	0	41	0	95420416	16	4479
2026-01-14 04:14:01.97	9.57	8.35	-27.7	-29.7	13.7	5.70e-06	0	41	0	101711872	15	4525
2026-01-14 04:14:02.97	9.48	8.42	-27.5	-29.2	14.0	1.10e-06	0	41	0	106954752	15	4388
2026-01-14 04:14:03.97	9.38	8.48	-27.3	-29.4	14.1	2.20e-06	0	41	0	112197632	14	4571
2026-01-14 04:14:04.97	9.29	8.55	-27.4	-29.5	14.1	0.00e+00	0	41	0	118489088	14	4581
2026-01-14 04:14:05.98	9.19	8.62	-27.4	-29.1	14.0	2.20e-06	0	41	0	123731968	15	4365
2026-01-14 04:14:06.99	9.10	8.69	-27.6	-29.5	13.8	2.20e-06	0	41	0	130023424	15	4480
2026-01-14 04:14:07.99	9.00	8.76	-27.5	-29.2	14.0	1.10e-06	0	41	0	135266304	15	4386
2026-01-14 04:14:09.00	8.90	8.83	-27.3	-28.9	14.2	0.00e+00	0	41	0	140509184	15	4302
2026-01-14 04:14:10.01	8.81	8.90	-27.4	-28.9	14.2	0.00e+00	0	41	0	146800640	15	4313
2026-01-14 04:14:11.01	8.71	8.96	-27.4	-29.6	14.1	1.10e-06	0	41	0	152043520	14	4618
2026-01-14 04:14:12.01	8.61	9.03	-27.3	-29.3	14.3	1.10e-06	0	41	0	158334976	14	4516
2026-01-14 04:14:13.01	8.51	9.10	-27.4	-29.6	14.1	0.00e+00	0	41	0	163577856	14	4622
2026-01-14 04:14:14.02	8.41	9.17	-27.3	-29.3	14.3	0.00e+00	0	41	0	168820736	14	4538
2026-01-14 04:14:15.02	8.31	9.24	-27.3	-29.2	14.4	0.00e+00	0	41	0	175112192	14	4492
2026-01-14 04:14:16.03	8.21	9.31	-27.3	-29.2	14.4	0.00e+00	0	41	0	180355072	14	4484
2026-01-14 04:14:17.03	8.11	9.38	-27.3	-29.3	14.3	0.00e+00	0	41	0	185597952	14	4519
2026-01-14 04:14:18.04	8.01	9.45	-27.5	-29.2	14.1	2.20e-06	0	41	0	191889408	15	4397
2026-01-14 04:14:19.04	7.91	9.52	-27.3	-28.7	14.4	1.10e-06	0	41	0	197132288	15	4240
2026-01-14 04:14:20.04	7.81	9.59	-27.3	-29.3	14.3	0.00e+00	0	41	0	203423744	14	4522
2026-01-14 04:14:21.05	7.71	9.66	-27.2	-28.9	14.5	0.00e+00	0	41	0	208666624	14	4415
2026-01-14 04:14:22.06	7.60	9.73	-27.3	-29.2	14.4	0.00e+00	0	41	0	213909504	14	4485
2026-01-14 04:14:23.07	7.50	9.80	-27.1	-28.9	14.6	0.00e+00	0	41	0	220200960	14	4403
2026-01-14 04:14:24.06	7.40	9.87	-27.1	-28.8	14.6	0.00e+00	0	41	0	225443840	14	4376
2026-01-14 04:14:25.07	7.29	9.94	-27.1	-28.9	14.6	1.10e-06	0	41	0	231735296	14	4414
2026-01-14 04:14:26.07	7.19	10.01	-27.2	-29.0	14.5	0.00e+00	0	41	0	236978176	14	4446
2026-01-14 04:14:27.07	7.08	10.08	-27.5	-29.2	14.1	0.00e+00	0	41	0	242221056	15	4400
2026-01-14 04:14:28.07	6.97	10.15	-27.3	-28.7	14.4	0.00e+00	0	41	0	248512512	15	4237
2026-01-14 04:14:29.07	6.87	10.22	-27.2	-29.0	14.5	0.00e+00	0	41	0	253755392	14	4445
2026-01-14 04:14:30.08	6.76	10.29	-27.3	-29.2	14.4	0.00e+00	0	42	0	258998272	14	4497
2026-01-14 04:14:31.08	6.65	10.36	-27.5	-29.3	14.0	0.00e+00	0	41	0	265289728	15	4419
2026-01-14 04:14:32.08	6.54	10.43	-27.3	-29.3	14.3	0.00e+00	0	41	0	270532608	14	4532
2026-01-14 04:14:33.09	6.44	10.50	-27.5	-29.3	14.1	2.20e-06	0	42	0	276824064	15	4406
2026-01-14 04:14:34.09	6.33	10.58	-27.3	-29.2	14.4	0.00e+00	0	42	0	282066944	14	4481
2026-01-14 04:14:35.10	6.22	10.65	-27.0	-28.7	14.7	0.00e+00	0	42	0	287309824	14	4346
2026-01-14 04:14:36.10	6.11	10.72	-26.9	-28.3	14.9	0.00e+00	0	42	0	293601280	14	4252
2026-01-14 04:14:37.10	5.99	10.79	-26.9	-28.4	14.9	0.00e+00	0	42	0	298844160	14	4274
2026-01-14 04:14:38.11	5.88	10.86	-26.9	-28.8	15.0	1.58e-03	0	42	0	305135616	13	4476
2026-01-14 04:14:39.11	5.77	10.93	-26.8	-28.6	15.1	0.00e+00	0	42	0	310378496	13	4446
2026-01-14 04:14:40.11	5.66	11.00	-26.8	-28.7	15.0	1.61e-03	0	42	0	315621376	13	4475
2026-01-14 04:14:41.12	5.54	11.08	-26.8	-28.6	15.1	0.00e+00	0	42	0	321912832	13	4428
2026-01-14 04:14:42.12	5.43	11.15	-26.8	-28.6	15.1	0.00e+00	0	42	0	327155712	13	4432
2026-01-14 04:14:43.12	5.32	11.22	-26.9	-28.8	15.0	1.61e-03	0	42	0	332398592	13	4484
2026-01-14 04:14:44.12	5.20	11.29	-26.9	-28.8	15.0	0.00e+00	0	42	0	338690048	13	4493
2026-01-14 04:14:45.13	5.09	11.37	-26.8	-28.7	15.0	1.81e-04	0	42	0	343932928	13	4472
2026-01-14 04:14:46.13	4.97	11.44	-26.8	-28.7	15.0	0.00e+00	0	42	0	349175808	13	4462
2026-01-14 04:14:47.13	4.85	11.51	-26.9	-28.9	14.9	1.63e-03	0	42	0	355467264	13	4529
2026-01-14 04:14:48.14	4.74	11.58	-26.8	-28.6	15.1	1.66e-04	0	42	0	360710144	13	4425
2026-01-14 04:14:49.14	4.62	11.65	-26.7	-28.4	15.2	1.59e-03	0	42	0	367001600	13	4378
2026-01-14 04:14:50.14	4.50	11.73	-26.7	-28.4	15.2	1.54e-03	0	42	0	372244480	13	4365
2026-01-14 04:14:51.15	4.38	11.80	-26.6	-28.2	15.3	0.00e+00	0	42	0	378535936	13	4329
2026-01-14 04:14:52.15	4.26	11.87	-26.7	-28.3	15.3	1.58e-03	0	42	0	383778816	13	4339
2026-01-14 04:14:53.16	4.14	11.95	-26.6	-28.2	15.3	0.00e+00	0	42	0	389021696	13	4319
2026-01-14 04:14:54.17	4.02	12.02	-26.6	-28.1	15.4	1.42e-04	0	42	0	395313152	13	4293
2026-01-14 04:14:55.17	3.90	12.09	-26.7	-28.4	15.3	1.49e-03	0	42	0	400556032	13	4360
2026-01-14 04:14:56.17	3.77	12.17	-26.7	-28.3	15.3	1.62e-03	0	42	0	405798912	13	4347
2026-01-14 04:14:57.17	3.65	12.24	-26.7	-28.4	15.3	1.59e-04	0	42	0	412090368	13	4378
2026-01-14 04:14:58.17	3.53	12.31	-26.7	-28.4	15.2	0.00e+00	0	42	0	417333248	13	4387
2026-01-14 04:14:59.17	3.40	12.39	-26.7	-28.3	15.3	1.57e-03	0	42	0	422576128	13	4340
2026-01-14 04:15:00.18	3.28	12.46	-26.6	-28.2	15.4	1.54e-04	0	42	0	428867584	13	4330
2026-01-14 04:15:01.18	3.15	12.53	-26.7	-28.4	15.2	1.66e-03	0	42	0	434110464	13	4386
2026-01-14 04:15:02.19	3.03	12.61	-26.5	-27.9	15.6	1.50e-03	0	42	0	440401920	13	4237
2026-01-14 04:15:03.18	2.90	12.68	-26.4	-27.7	15.7	1.59e-04	0	42	0	445644800	13	4195
2026-01-14 04:15:04.19	2.77	12.76	-26.4	-28.1	15.7	1.47e-03	0	42	0	451936256	12	4416
2026-01-14 04:15:05.19	2.65	12.83	-26.4	-28.1	15.7	5.03e-05	0	42	0	457179136	12	4408
2026-01-14 04:15:06.19	2.52	12.90	-26.4	-28.1	15.7	1.65e-04	0	42	0	462422016	12	4416
2026-01-14 04:15:07.19	2.39	12.98	-26.3	-28.0	15.8	0.00e+00	0	42	0	468713472	12	4371
2026-01-14 04:15:08.20	2.26	13.05	-26.2	-27.8	15.9	1.46e-03	0	42	0	473956352	12	4321
2026-01-14 04:15:09.20	2.13	13.13	-26.3	-27.9	15.8	1.29e-04	0	42	0	479199232	12	4357
2026-01-14 04:15:10.20	2.00	13.20	-26.2	-27.7	16.0	1.48e-03	0	42	0	485490688	12	4286
2026-01-14 04:15:11.20	1.86	13.28	-26.2	-27.7	16.0	1.38e-03	0	42	0	490733568	12	4292
2026-01-14 04:15:12.21	1.73	13.35	-26.2	-27.8	16.0	0.00e+00	0	42	0	495976448	12	4307
2026-01-14 04:15:13.21	1.60	13.42	-26.2	-27.8	16.0	1.40e-03	0	42	0	502267904	12	4308
2026-01-14 04:15:14.22	1.46	13.50	-26.1	-27.6	16.1	0.00e+00	0	42	0	507510784	12	4263
2026-01-14 04:15:15.23	1.33	13.58	-26.2	-27.8	15.9	1.23e-04	0	42	0	513802240	12	4318
2026-01-14 04:15:16.23	1.19	13.65	-26.2	-27.7	16.0	1.47e-03	0	42	0	519045120	12	4292
2026-01-14 04:15:17.23	1.06	13.72	-26.3	-27.9	15.9	0.00e+00	0	42	0	524288000	12	4341
2026-01-14 04:15:18.23	0.92	13.80	-26.2	-27.8	16.0	1.42e-04	0	42	0	530579456	12	4322
2026-01-14 04:15:19.24	0.78	13.88	-26.4	-28.1	15.7	0.00e+00	0	42	0	535822336	12	4415
2026-01-14 04:15:20.24	0.64	13.95	-26.2	-27.7	16.0	1.39e-03	0	42	0	542113792	12	4305
2026-01-14 04:15:21.25	0.50	14.03	-26.1	-27.5	16.2	0.00e+00	0	42	0	547356672	12	4227
2026-01-14 04:15:22.25	0.36	14.10	-26.1	-27.4	16.2	0.00e+00	0	42	0	552599552	12	4222
2026-01-14 04:15:23.26	0.22	14.18	-26.1	-27.5	16.1	0.00e+00	0	42	0	558891008	12	4245
2026-01-14 04:15:24.27	0.08	14.25	-25.9	-27.1	16.4	0.00e+00	0	42	0	564133888	12	4144
2026-01-14 04:15:25.27	359.94	14.33	-25.9	-27.2	16.3	0.00e+00	0	42	0	569376768	12	4147
2026-01-14 04:15:26.27	359.79	14.40	-26.0	-27.4	16.2	0.00e+00	0	42	0	575668224	12	4206
2026-01-14 04:15:27.28	359.65	14.48	-25.9	-27.0	16.5	1.54e-04	0	42	0	580911104	12	4112
2026-01-14 04:15:28.28	359.51	14.55	-25.9	-27.6	16.5	0.00e+00	0	42	0	587202560	11	4363
2026-01-14 04:15:29.29	359.36	14.63	-26.0	-27.7	16.4	0.00e+00	0	42	0	592445440	11	4406
2026-01-14 04:15:30.29	359.21	14.71	-26.0	-27.3	16.3	0.00e+00	0	42	0	598736896	12	4191
2026-01-14 04:15:31.30	359.07	14.78	-26.1	-27.5	16.2	0.00e+00	0	42	0	603979776	12	4232
2026-01-14 04:15:32.30	358.92	14.86	-26.0	-27.4	16.2	0.00e+00	0	43	0	609222656	12	4217
2026-01-14 04:15:33.31	358.77	14.93	-26.0	-27.3	16.3	0.00e+00	0	42	0	615514112	12	4175
2026-01-14 04:15:34.30	358.62	15.01	-26.0	-27.3	16.3	0.00e+00	0	42	0	620756992	12	4191
2026-01-14 04:15:35.31	358.47	15.09	-26.1	-27.4	16.2	0.00e+00	0	42	0	625999872	12	4215
2026-01-14 04:15:36.32	358.32	15.16	-26.0	-27.4	16.3	0.00e+00	0	42	0	632291328	12	4205
2026-01-14 04:15:37.32	358.17	15.24	-26.1	-27.5	16.2	0.00e+00	0	42	0	637534208	12	4241
2026-01-14 04:15:38.33	358.02	15.31	-26.2	-27.8	16.0	0.00e+00	0	42	0	642777088	12	4314
2026-01-14 04:15:39.33	357.87	15.39	-25.9	-27.2	16.4	0.00e+00	0	42	0	649068544	12	4149
2026-01-14 04:15:40.33	357.71	15.47	-25.9	-27.0	16.5	0.00e+00	0	42	0	654311424	12	4105
2026-01-14 04:15:41.34	357.56	15.54	-25.9	-27.6	16.5	0.00e+00	0	42	0	660602880	11	4372
2026-01-14 04:15:42.34	357.40	15.62	-25.9	-27.6	16.5	0.00e+00	0	42	0	665845760	11	4377
2026-01-14 04:15:43.35	357.24	15.70	-25.9	-27.1	16.4	0.00e+00	0	42	0	672137216	12	4132
2026-01-14 04:15:44.35	357.09	15.77	-25.9	-27.6	16.5	0.00e+00	0	42	0	677380096	11	4358
2026-01-14 04:15:45.35	356.93	15.85	-25.9	-27.6	16.5	0.00e+00	0	42	0	682622976	11	4366
2026-01-14 04:15:46.35	356.77	15.92	-25.7	-27.2	16.7	0.00e+00	0	42	0	688914432	11	4273
2026-01-14 04:15:47.35	356.61	16.00	-25.8	-27.3	16.7	0.00e+00	0	42	0	694157312	11	4276
2026-01-14 04:15:48.35	356.45	16.08	-25.8	-27.4	16.7	0.00e+00	0	42	0	699400192	11	4304
2026-01-14 04:15:49.36	356.29	16.15	-25.8	-27.3	16.7	0.00e+00	0	42	0	705691648	11	4281
2026-01-14 04:15:50.36	356.13	16.23	-25.9	-27.6	16.5	0.00e+00	0	42	0	710934528	11	4372
2026-01-14 04:15:51.37	355.97	16.31	-25.7	-27.1	16.8	0.00e+00	0	43	0	716177408	11	4231
2026-01-14 04:15:52.37	355.80	16.38	-25.6	-26.8	17.0	0.00e+00	0	42	0	722468864	11	4166
2026-01-14 04:15:53.38	355.64	16.46	-25.5	-26.8	17.0	0.00e+00	0	42	0	727711744	11	4152
2026-01-14 04:15:54.39	355.47	16.54	-25.6	-26.9	16.9	0.00e+00	0	43	0	734003200	11	4194
2026-01-14 04:15:55.39	355.31	16.61	-25.6	-26.9	17.0	0.00e+00	0	42	0	739246080	11	4184
2026-01-14 04:15:56.38	355.14	16.69	-25.7	-27.1	16.9	0.00e+00	0	42	0	745537536	11	4239
2026-01-14 04:15:57.38	354.97	16.76	-25.7	-27.2	16.8	0.00e+00	0	42	0	750780416	11	4259
2026-01-14 04:15:58.39	354.80	16.84	-25.6	-26.8	17.0	0.00e+00	0	43	0	756023296	11	4167
2026-01-14 04:15:59.39	354.64	16.92	-25.5	-26.7	17.1	0.00e+00	0	43	0	762314752	11	4135
2026-01-14 04:16:00.39	354.47	16.99	-25.5	-26.7	17.1	0.00e+00	0	42	0	767557632	11	4121
2026-01-14 04:16:01.40	354.29	17.07	-25.4	-26.5	17.2	0.00e+00	0	42	0	772800512	11	4079
2026-01-14 04:16:02.40	354.12	17.14	-25.5	-26.6	17.1	0.00e+00	0	42	0	779091968	11	4113
2026-01-14 04:16:03.40	353.95	17.22	-25.4	-27.1	17.1	0.00e+00	0	42	0	784334848	10	4346
2026-01-14 04:16:04.40	353.78	17.30	-25.6	-27.0	16.9	0.00e+00	0	42	0	789577728	11	4220
2026-01-14 04:16:05.41	353.60	17.37	-25.7	-27.2	16.8	0.00e+00	0	42	0	795869184	11	4265
2026-01-14 04:16:06.41	353.42	17.45	-25.6	-27.0	16.9	0.00e+00	0	42	0	801112064	11	4216
2026-01-14 04:16:07.41	353.25	17.52	-25.6	-26.9	17.0	0.00e+00	0	43	0	807403520	11	4187
2026-01-14 04:16:08.41	353.07	17.60	-25.6	-27.0	16.9	0.00e+00	0	42	0	812646400	11	4206
2026-01-14 04:16:09.42	352.89	17.68	-25.7	-27.2	16.8	0.00e+00	0	42	0	817889280	11	4265
2026-01-14 04:16:10.42	352.71	17.75	-25.7	-27.1	16.9	1.10e-06	0	42	0	824180736	11	4228
2026-01-14 04:16:11.42	352.53	17.83	-25.5	-26.8	17.1	0.00e+00	0	43	0	829423616	11	4163
2026-01-14 04:16:12.43	352.35	17.90	-25.5	-26.7	17.1	1.10e-06	0	43	0	834666496	11	4127
2026-01-14 04:16:13.43	352.17	17.98	-25.5	-26.7	17.1	0.00e+00	0	43	0	840957952	11	4122
2026-01-14 04:16:14.43	351.99	18.05	-25.4	-26.4	17.2	0.00e+00	0	42	0	846200832	11	4067
2026-01-14 04:16:15.43	351.80	18.13	-25.4	-26.4	17.2	0.00e+00	0	43	0	852492288	11	4066
2026-01-14 04:16:16.44	351.62	18.20	-25.4	-26.9	17.3	0.00e+00	0	43	0	857735168	10	4289
2026-01-14 04:16:17.44	351.43	18.28	-25.2	-26.6	17.4	0.00e+00	0	43	0	862978048	10	4225
2026-01-14 04:16:18.44	351.24	18.35	-25.1	-26.4	17.5	0.00e+00	0	43	0	869269504	10	4168
2026-01-14 04:16:19.44	351.06	18.43	-25.1	-26.4	17.6	7.29e-04	0	42	0	874512384	10	4161
2026-01-14 04:16:20.44	350.87	18.50	-25.1	-26.3	17.6	0.00e+00	0	42	0	880803840	10	4151
2026-01-14 04:16:21.44	350.68	18.58	-25.1	-26.2	17.7	0.00e+00	0	43	0	886046720	10	4123
2026-01-14 04:16:22.44	350.49	18.65	-25.1	-26.3	17.6	0.00e+00	0	42	0	891289600	10	4141
2026-01-14 04:16:23.44	350.30	18.73	-25.2	-26.6	17.5	0.00e+00	0	43	0	897581056	10	4218
2026-01-14 04:16:24.44	350.11	18.80	-25.3	-26.7	17.4	9.17e-04	0	42	0	902823936	10	4236
2026-01-14 04:16:25.44	349.91	18.88	-25.2	-26.6	17.5	0.00e+00	0	43	0	908066816	10	4212
2026-01-14 04:16:26.44	349.72	18.95	-25.3	-26.7	17.4	1.28e-04	0	43	0	914358272	10	4254
2026-01-14 04:16:27.45	349.52	19.03	-25.4	-26.9	17.3	0.00e+00	0	42	0	919601152	10	4292
2026-01-14 04:16:28.45	349.33	19.10	-25.4	-26.9	17.3	8.48e-04	0	42	0	925892608	10	4305
2026-01-14 04:16:29.45	349.13	19.17	-25.3	-26.8	17.3	1.29e-04	0	43	0	931135488	10	4279
2026-01-14 04:16:30.46	348.93	19.25	-25.3	-26.8	17.4	0.00e+00	0	43	0	936378368	10	4259
2026-01-14 04:16:31.46	348.73	19.32	-25.3	-26.8	17.4	6.19e-04	0	42	0	942669824	10	4266
2026-01-14 04:16:32.47	348.53	19.40	-25.3	-26.7	17.4	0.00e+00	0	42	0	947912704	10	4236
2026-01-14 04:16:33.48	348.33	19.47	-25.3	-26.9	17.4	3.39e-04	0	43	0	953155584	10	4286
2026-01-14 04:16:34.49	348.12	19.54	-25.1	-26.3	17.7	0.00e+00	0	42	0	959447040	10	4131
2026-01-14 04:16:35.49	347.92	19.62	-25.0	-26.1	17.7	0.00e+00	0	42	0	964689920	10	4085
2026-01-14 04:16:36.49	347.72	19.69	-25.0	-26.1	17.7	1.80e-04	0	43	0	970981376	10	4100
2026-01-14 04:16:37.50	347.51	19.76	-25.0	-26.0	17.8	9.15e-05	0	43	0	976224256	10	4062
2026-01-14 04:16:38.50	347.30	19.83	-24.8	-25.7	18.0	0.00e+00	0	42	0	981467136	10	3983
2026-01-14 04:16:39.51	347.10	19.91	-24.8	-25.6	18.0	0.00e+00	0	42	0	987758592	10	3964
2026-01-14 04:16:40.51	346.89	19.98	-24.7	-25.5	18.1	8.00e-06	0	43	0	993001472	10	3943
2026-01-14 04:16:41.51	346.68	20.05	-24.7	-25.4	18.1	0.00e+00	0	43	0	999292928	10	3918
2026-01-14 04:16:42.51	346.47	20.12	-24.7	-25.9	18.1	3.46e-04	0	42	0	1004535808	9	4158
2026-01-14 04:16:43.52	346.26	20.20	-24.6	-25.8	18.2	7.67e-04	0	43	0	1009778688	9	4125
2026-01-14 04:16:44.52	346.05	20.27	-24.5	-25.5	18.3	0.00e+00	0	43	0	1016070144	9	4048
2026-01-14 04:16:45.53	345.83	20.34	-24.5	-25.6	18.3	9.25e-04	0	43	0	1021313024	9	4065
2026-01-14 04:16:46.53	345.62	20.41	-24.6	-25.7	18.2	1.05e-03	0	43	0	1026555904	9	4109
2026-01-14 04:16:47.53	345.40	20.48	-24.5	-25.6	18.2	0.00e+00	0	43	0	1032847360	9	4079
2026-01-14 04:16:48.53	345.19	20.55	-24.3	-25.2	18.5	0.00e+00	0	42	0	1038090240	9	3968
2026-01-14 04:16:49.54	344.97	20.62	-24.3	-25.1	18.6	1.10e-03	0	42	0	1044381696	9	3943
2026-01-14 04:16:50.55	344.75	20.69	-24.3	-25.1	18.5	0.00e+00	0	43	0	1049624576	9	3964
2026-01-14 04:16:51.55	344.53	20.76	-24.5	-25.5	18.3	1.05e-03	0	42	0	1054867456	9	4051
2026-01-14 04:16:52.56	344.31	20.83	-24.5	-25.6	18.3	1.27e-03	0	43	0	1061158912	9	4076
2026-01-14 04:16:53.57	344.08	20.90	-24.4	-25.4	18.4	0.00e+00	0	42	0	1066401792	9	4030
2026-01-14 04:16:54.57	343.86	20.97	-24.4	-25.4	18.4	1.30e-03	0	42	0	1072693248	9	4034
2026-01-14 04:16:55.58	343.64	21.04	-24.4	-25.4	18.4	0.00e+00	0	42	0	1077936128	9	4022
2026-01-14 04:16:56.58	343.41	21.11	-24.4	-25.4	18.4	0.00e+00	0	43	0	1083179008	9	4024
2026-01-14 04:16:57.58	343.19	21.17	-24.5	-25.6	18.3	0.00e+00	0	42	0	1089470464	9	4068
2026-01-14 04:16:58.59	342.96	21.24	-24.6	-25.7	18.2	0.00e+00	0	43	0	1094713344	9	4109
2026-01-14 04:16:59.59	342.73	21.31	-24.6	-25.8	18.2	0.00e+00	0	43	0	1101004800	9	4116
2026-01-14 04:17:00.60	342.50	21.38	-24.6	-25.8	18.2	0.00e+00	0	43	0	1106247680	9	4128
2026-01-14 04:17:01.60	342.28	21.44	-24.6	-25.8	18.2	1.43e-03	0	42	0	1111490560	9	4114
2026-01-14 04:17:02.60	342.05	21.51	-24.5	-25.5	18.3	0.00e+00	0	42	0	1117782016	9	4063
2026-01-14 04:17:03.60	341.82	21.58	-24.5	-25.6	18.3	0.00e+00	0	43	0	1123024896	9	4085
2026-01-14 04:17:04.61	341.58	21.64	-24.5	-25.5	18.3	0.00e+00	0	43	0	1128267776	9	4053
2026-01-14 04:17:05.60	341.35	21.71	-24.4	-25.3	18.5	0.00e+00	0	43	0	1134559232	9	3996
2026-01-14 04:17:06.60	341.12	21.77	-24.4	-25.2	18.5	1.44e-03	0	43	0	1139802112	9	3984
2026-01-14 04:17:07.61	340.88	21.84	-24.3	-25.1	18.6	0.00e+00	0	43	0	1146093568	9	3952
2026-01-14 04:17:08.61	340.64	21.90	-24.1	-24.7	18.8	0.00e+00	0	42	0	1151336448	9	3858
2026-01-14 04:17:09.62	340.41	21.97	-24.1	-25.3	18.8	0.00e+00	0	43	0	1156579328	8	4104
2026-01-14 04:17:10.62	340.17	22.03	-24.2	-25.4	18.6	0.00e+00	0	43	0	1162870784	8	4140
2026-01-14 04:17:11.62	339.93	22.10	-24.3	-25.7	18.5	0.00e+00	0	43	0	1168113664	8	4224
2026-01-14 04:17:12.61	339.69	22.16	-24.4	-25.9	18.4	2.20e-06	0	43	0	1173356544	8	4255
2026-01-14 04:17:13.62	339.45	22.22	-24.4	-25.7	18.5	0.00e+00	0	43	0	1179648000	8	4221
2026-01-14 04:17:14.62	339.21	22.28	-24.4	-25.8	18.5	0.00e+00	0	43	0	1184890880	8	4246
2026-01-14 04:17:15.62	338.96	22.35	-24.3	-25.6	18.6	0.00e+00	0	43	0	1190133760	8	4196
2026-01-14 04:17:16.62	338.72	22.41	-24.1	-25.3	18.8	0.00e+00	0	43	0	1196425216	8	4098
2026-01-14 04:17:17.62	338.48	22.47	-24.1	-25.2	18.8	0.00e+00	0	43	0	1201668096	8	4092
2026-01-14 04:17:18.62	338.23	22.53	-24.1	-25.1	18.8	0.00e+00	0	43	0	1207959552	8	4065
2026-01-14 04:17:19.62	337.98	22.59	-24.0	-25.0	18.9	0.00e+00	0	43	0	1213202432	8	4036
2026-01-14 04:17:20.63	337.73	22.65	-24.1	-25.3	18.8	0.00e+00	0	43	0	1218445312	8	4101
2026-01-14 04:17:21.63	337.48	22.71	-24.1	-25.2	18.8	0.00e+00	0	43	0	1224736768	8	4094
2026-01-14 04:17:22.64	337.23	22.77	-24.1	-25.1	18.8	0.00e+00	0	43	0	1229979648	8	4063
2026-01-14 04:17:23.65	336.98	22.83	-24.1	-25.1	18.9	0.00e+00	0	43	0	1236271104	8	4066
2026-01-14 04:17:24.65	336.73	22.88	-24.1	-25.2	18.8	0.00e+00	0	43	0	1241513984	8	4094
2026-01-14 04:17:25.65	336.48	22.94	-24.1	-25.3	18.8	0.00e+00	0	43	0	1246756864	8	4104
2026-01-14 04:17:26.65	336.22	23.00	-24.2	-25.4	18.7	0.00e+00	0	43	0	1253048320	8	4129
2026-01-14 04:17:27.66	335.97	23.06	-24.2	-25.4	18.7	0.00e+00	0	43	0	1258291200	8	4132
2026-01-14 04:17:28.66	335.71	23.11	-24.1	-25.1	18.8	0.00e+00	0	43	0	1263534080	8	4070
2026-01-14 04:17:29.66	335.45	23.17	-24.1	-25.1	18.9	0.00e+00	0	43	0	1269825536	8	4069
2026-01-14 04:17:30.67	335.19	23.22	-24.0	-25.0	18.9	0.00e+00	0	43	0	1275068416	8	4031
2026-01-14 04:17:31.67	334.94	23.28	-24.0	-24.9	19.0	0.00e+00	0	43	0	1281359872	8	4011
2026-01-14 04:17:32.67	334.68	23.33	-24.0	-24.9	19.0	0.00e+00	0	43	0	1286602752	8	4018
2026-01-14 04:17:33.68	334.42	23.39	-24.0	-24.9	19.0	0.00e+00	0	43	0	1291845632	8	4024
2026-01-14 04:17:34.68	334.16	23.44	-24.1	-25.1	18.9	0.00e+00	0	43	0	1298137088	8	4065
2026-01-14 04:17:35.69	333.89	23.49	-24.0	-25.0	18.9	0.00e+00	0	43	0	1303379968	8	4042
2026-01-14 04:17:36.69	333.63	23.54	-24.0	-25.0	18.9	0.00e+00	0	43	0	1309671424	8	4037
2026-01-14 04:17:37.69	333.37	23.59	-24.0	-25.1	18.9	0.00e+00	0	43	0	1314914304	8	4051
2026-01-14 04:17:38.70	333.10	23.65	-24.0	-25.0	18.9	0.00e+00	0	43	0	1320157184	8	4039
2026-01-14 04:17:39.70	332.83	23.70	-24.0	-25.1	18.9	0.00e+00	0	43	0	1326448640	8	4052
2026-01-14 04:17:40.70	332.57	23.75	-24.0	-24.9	19.0	0.00e+00	0	43	0	1331691520	8	4012
2026-01-14 04:17:41.70	332.30	23.79	-23.8	-24.6	19.1	0.00e+00	0	43	0	1336934400	8	3944
2026-01-14 04:17:42.71	332.03	23.84	-23.9	-24.7	19.1	0.00e+00	0	42	0	1343225856	8	3975
2026-01-14 04:17:43.71	331.76	23.89	-23.8	-24.5	19.2	0.00e+00	0	43	0	1348468736	8	3912
2026-01-14 04:17:44.72	331.49	23.94	-23.7	-24.3	19.2	0.00e+00	0	43	0	1354760192	8	3878
2026-01-14 04:17:45.73	331.22	23.99	-23.7	-24.8	19.2	0.00e+00	0	43	0	1360003072	7	4091
2026-01-14 04:17:46.73	330.95	24.03	-23.7	-24.9	19.2	0.00e+00	0	43	0	1365245952	7	4129
2026-01-14 04:17:47.72	330.68	24.08	-23.7	-24.9	19.2	0.00e+00	0	43	0	1371537408	7	4121
2026-01-14 04:17:48.73	330.40	24.12	-23.7	-24.8	19.3	0.00e+00	0	43	0	1376780288	7	4100
2026-01-14 04:17:49.73	330.13	24.17	-23.7	-24.8	19.3	0.00e+00	0	43	0	1382023168	7	4101
2026-01-14 04:17:50.73	329.85	24.21	-23.7	-24.9	19.2	0.00e+00	0	43	0	1388314624	7	4123
2026-01-14 04:17:51.73	329.58	24.25	-23.7	-24.8	19.3	0.00e+00	0	43	0	1393557504	7	4097
2026-01-14 04:17:52.73	329.30	24.30	-23.7	-24.8	19.3	0.00e+00	0	43	0	1399848960	7	4088
2026-01-14 04:17:53.73	329.03	24.34	-23.6	-24.7	19.3	0.00e+00	0	43	0	1405091840	7	4080
2026-01-14 04:17:54.73	328.75	24.38	-23.6	-24.7	19.3	0.00e+00	0	43	0	1410334720	7	4064
2026-01-14 04:17:55.73	328.47	24.42	-23.6	-24.7	19.4	0.00e+00	0	43	0	1416626176	7	4081
2026-01-14 04:17:56.73	328.19	24.46	-23.7	-24.9	15.8	0.00e+00	0	43	0	1421869056	7	4125
2026-01-14 04:17:57.74	327.91	24.50	-23.6	-24.6	16.7	0.00e+00	0	43	0	1428160512	7	4040
2026-01-14 04:17:58.74	327.63	24.54	-23.3	-24.6	19.6	2.40e-04	0	42	0	1433403392	6	4157
2026-01-14 04:17:59.75	327.35	24.57	-23.4	-24.8	19.5	0.00e+00	0	43	0	1438646272	6	4210
2026-01-14 04:18:00.75	327.07	24.61	-23.5	-24.5	19.4	0.00e+00	0	43	0	1444937728	7	4036
2026-01-14 04:18:01.75	326.79	24.65	-23.8	-25.0	19.2	0.00e+00	0	43	0	1450180608	7	4162
2026-01-14 04:18:02.76	326.50	24.68	-23.9	-25.2	19.1	0.00e+00	0	43	0	1455423488	7	4212
2026-01-14 04:18:03.76	326.22	24.72	-24.0	-25.1	18.9	0.00e+00	0	43	0	1461714944	8	4061
2026-01-14 04:18:04.76	325.93	24.75	-24.0	-25.1	18.9	0.00e+00	0	43	0	1466957824	8	4056
2026-01-14 04:18:05.75	325.65	24.78	-24.0	-24.9	19.0	4.15e-04	0	43	0	1472200704	8	4016
2026-01-14 04:18:06.76	325.36	24.82	-24.0	-25.0	19.0	0.00e+00	0	43	0	1478492160	8	4030
2026-01-14 04:18:07.76	325.08	24.85	-23.8	-25.2	19.1	0.00e+00	0	43	0	1483735040	7	4184
2026-01-14 04:18:08.76	324.79	24.88	-23.7	-24.9	19.2	0.00e+00	0	43	0	1490026496	7	4115
2026-01-14 04:18:09.77	324.50	24.91	-23.7	-24.8	19.3	0.00e+00	0	43	0	1495269376	7	4092
2026-01-14 04:18:10.77	324.21	24.94	-23.6	-24.7	19.3	3.22e-04	0	43	0	1500512256	7	4077
2026-01-14 04:18:11.77	323.93	24.97	-23.7	-24.9	19.2	0.00e+00	0	43	0	1506803712	7	4132
2026-01-14 04:18:12.78	323.63	25.00	-23.7	-24.8	19.3	8.26e-04	0	43	0	1512046592	7	4089
2026-01-14 04:18:13.79	323.34	25.02	-23.6	-24.7	19.3	0.00e+00	0	43	0	1518338048	7	4075
2026-01-14 04:18:14.80	323.05	25.05	-23.6	-24.6	19.3	9.25e-04	0	43	0	1523580928	7	4061
2026-01-14 04:18:15.80	322.76	25.08	-23.6	-24.7	19.3	9.88e-04	0	43	0	1528823808	7	4068
2026-01-14 04:18:16.80	322.47	25.10	-23.6	-24.6	19.4	5.23e-04	0	43	0	1535115264	7	4054
2026-01-14 04:18:17.81	322.18	25.13	-23.6	-24.7	19.3	1.01e-03	0	43	0	1540358144	7	4079
2026-01-14 04:18:18.81	321.88	25.15	-23.7	-24.8	19.2	0.00e+00	0	43	0	1545601024	7	4100
2026-01-14 04:18:19.82	321.59	25.17	-23.7	-24.9	19.2	3.75e-04	0	43	0	1551892480	7	4134
2026-01-14 04:18:20.83	321.29	25.19	-23.6	-24.7	19.3	0.00e+00	0	43	0	1557135360	7	4080
2026-01-14 04:18:21.83	321.00	25.21	-23.5	-24.5	19.4	1.37e-03	0	43	0	1563426816	7	4024
2026-01-14 04:18:22.83	320.71	25.23	-23.6	-24.6	19.4	5.80e-04	0	43	0	1568669696	7	4045
2026-01-14 04:18:23.83	320.41	25.25	-23.5	-24.5	19.4	1.42e-03	0	43	0	1574961152	7	4032
2026-01-14 04:18:24.84	320.12	25.27	-23.7	-24.8	19.3	1.42e-03	0	43	0	1580204032	7	4097
2026-01-14 04:18:25.84	319.82	25.29	-23.6	-24.7	19.3	5.81e-04	0	43	0	1585446912	7	4080
2026-01-14 04:18:26.84	319.53	25.31	-23.7	-24.8	19.3	1.47e-03	0	43	0	1591738368	7	4101
2026-01-14 04:18:27.84	319.23	25.32	-24.0	-25.4	18.9	1.31e-03	0	43	0	1596981248	7	4259
2026-01-14 04:18:28.84	318.94	25.34	-23.9	-25.3	19.0	4.34e-04	0	43	0	1602224128	7	4216
2026-01-14 04:18:29.85	318.64	25.35	-24.1	-25.3	18.8	1.37e-03	0	43	0	1608515584	8	4112
2026-01-14 04:18:30.85	318.35	25.37	-24.2	-25.4	18.7	1.57e-03	0	43	0	1613758464	8	4136
2026-01-14 04:18:31.85	318.05	25.38	-24.2	-25.5	18.7	3.11e-04	0	43	0	1619001344	8	4159
2026-01-14 04:18:32.85	317.75	25.39	-24.2	-25.5	18.7	0.00e+00	0	43	0	1625292800	8	4158
2026-01-14 04:18:33.86	317.45	25.40	-24.2	-25.4	18.7	1.56e-03	0	43	0	1630535680	8	4124
2026-01-14 04:18:34.86	317.16	25.41	-24.2	-25.4	18.7	3.47e-04	0	43	0	1636827136	8	4147
2026-01-14 04:18:35.86	316.86	25.42	-24.0	-25.1	18.9	1.64e-03	0	43	0	1642070016	8	4049
2026-01-14 04:18:36.86	316.56	25.43	-24.2	-25.4	18.7	1.53e-03	0	43	0	1647312896	8	4146
2026-01-14 04:18:37.86	316.27	25.44	-23.9	-24.8	19.0	2.84e-04	0	43	0	1653604352	8	3996
2026-01-14 04:18:38.87	315.97	25.45	-23.5	-24.5	19.4	1.47e-03	0	43	0	1658847232	7	4026
2026-01-14 04:18:39.88	315.67	25.45	-23.3	-24.0	19.6	0.00e+00	0	43	0	1664090112	7	3916
2026-01-14 04:18:40.88	315.37	25.46	-23.3	-24.0	19.7	1.45e-04	0	43	0	1670381568	7	3897
2026-01-14 04:18:41.88	315.07	25.46	-23.4	-24.6	19.5	0.00e+00	0	43	0	1675624448	6	4172
2026-01-14 04:18:42.88	314.77	25.46	-23.3	-24.6	19.6	1.55e-03	0	43	0	1680867328	6	4169
2026-01-14 04:18:43.88	314.48	25.47	-23.3	-24.6	19.6	2.74e-05	0	43	0	1687158784	6	4160
2026-01-14 04:18:44.89	314.18	25.47	-23.5	-24.8	19.5	0.00e+00	0	43	0	1692401664	6	4226
2026-01-14 04:18:45.89	313.88	25.47	-23.4	-24.8	19.5	1.27e-03	0	43	0	1698693120	6	4213
2026-01-14 04:18:46.89	313.58	25.47	-23.5	-24.9	19.5	0.00e+00	0	43	0	1703936000	6	4227
2026-01-14 04:18:47.90	313.28	25.47	-23.6	-24.7	19.3	1.34e-03	0	43	0	1710227456	7	4066
2026-01-14 04:18:48.90	312.98	25.47	-23.9	-25.4	18.9	0.00e+00	0	43	0	1715470336	7	4240
2026-01-14 04:18:49.90	312.68	25.47	-23.8	-25.1	19.1	0.00e+00	0	43	0	1720713216	7	4178
2026-01-14 04:18:50.91	312.38	25.46	-23.7	-24.8	19.2	0.00e+00	0	43	0	1727004672	7	4109
2026-01-14 04:18:51.90	312.09	25.46	-23.6	-24.7	19.3	0.00e+00	0	43	0	1732247552	7	4075
2026-01-14 04:18:52.90	311.79	25.45	-23.7	-24.9	19.2	0.00e+00	0	43	0	1737490432	7	4119
2026-01-14 04:18:53.90	311.49	25.45	-23.5	-24.5	19.4	0.00e+00	0	43	0	1743781888	7	4030
2026-01-14 04:18:54.91	311.19	25.44	-23.5	-24.4	19.5	1.09e-03	0	43	0	1749024768	7	3993
2026-01-14 04:18:55.90	310.90	25.43	-23.4	-24.3	19.5	0.00e+00	0	43	0	1754267648	7	3977
2026-01-14 04:18:56.90	310.60	25.42	-23.6	-24.6	19.4	0.00e+00	0	43	0	1760559104	7	4043
2026-01-14 04:18:57.90	310.30	25.42	-23.4	-24.3	19.5	0.00e+00	0	43	0	1765801984	7	3982
2026-01-14 04:18:58.90	310.01	25.41	-23.3	-23.9	19.7	0.00e+00	0	43	0	1772093440	7	3892
2026-01-14 04:18:59.90	309.71	25.39	-23.2	-23.8	19.7	8.11e-04	0	43	0	1777336320	7	3867
2026-01-14 04:19:00.90	309.41	25.38	-23.3	-24.0	19.6	0.00e+00	0	43	0	1782579200	7	3905
2026-01-14 04:19:01.91	309.12	25.37	-23.2	-24.4	19.7	0.00e+00	0	43	0	1788870656	6	4107
2026-01-14 04:19:02.91	308.82	25.36	-23.3	-24.5	19.6	0.00e+00	0	43	0	1794113536	6	4147
2026-01-14 04:19:03.91	308.52	25.34	-23.4	-24.8	19.5	0.00e+00	0	43	0	1799356416	6	4203
2026-01-14 04:19:04.91	308.23	25.33	-23.7	-24.9	19.2	0.00e+00	0	43	0	1805647872	7	4134
2026-01-14 04:19:05.92	307.93	25.31	-23.7	-24.8	19.2	0.00e+00	0	43	0	1810890752	7	4102
2026-01-14 04:19:06.91	307.64	25.30	-23.8	-25.0	19.1	0.00e+00	0	43	0	1816133632	7	4153
2026-01-14 04:19:07.92	307.34	25.28	-23.6	-24.6	19.3	0.00e+00	0	43	0	1822425088	7	4051
2026-01-14 04:19:08.92	307.05	25.26	-23.5	-24.3	19.5	0.00e+00	0	43	0	1827667968	7	3981
2026-01-14 04:19:09.92	306.75	25.24	-23.5	-24.5	19.4	0.00e+00	0	43	0	1833959424	7	4038
2026-01-14 04:19:10.92	306.46	25.22	-23.5	-24.5	19.3	0.00e+00	0	43	0	1839202304	7	4037
2026-01-14 04:19:11.91	306.17	25.20	-23.5	-24.5	19.4	0.00e+00	0	43	0	1844445184	7	4021
2026-01-14 04:19:12.91	305.88	25.18	-23.5	-24.4	19.4	0.00e+00	0	43	0	1850736640	7	3992
2026-01-14 04:19:13.92	305.58	25.16	-23.5	-24.5	19.3	0.00e+00	0	43	0	1855979520	7	4035
2026-01-14 04:19:14.92	305.29	25.13	-23.4	-24.1	19.6	0.00e+00	0	43	0	1861222400	7	3936
2026-01-14 04:19:15.92	305.00	25.11	-23.3	-24.0	19.7	0.00e+00	0	43	0	1867513856	7	3895
2026-01-14 04:19:16.92	304.71	25.08	-23.3	-24.6	19.5	0.00e+00	0	43	0	1872756736	6	4171
2026-01-14 04:19:17.93	304.41	25.06	-23.3	-24.6	19.6	0.00e+00	0	43	0	1879048192	6	4155
2026-01-14 04:19:18.93	304.12	25.03	-23.2	-24.4	19.7	0.00e+00	0	43	0	1884291072	6	4108
2026-01-14 04:19:19.94	303.83	25.00	-23.3	-24.4	19.6	0.00e+00	0	43	0	1890582528	6	4128
2026-01-14 04:19:20.94	303.54	24.98	-23.5	-24.9	19.4	0.00e+00	0	43	0	1895825408	6	4249
2026-01-14 04:19:21.94	303.25	24.95	-23.2	-23.8	19.7	0.00e+00	0	43	0	1901068288	7	3862
2026-01-14 04:19:22.94	302.97	24.92	-23.1	-24.0	19.8	0.00e+00	0	43	0	1907359744	6	4027
2026-01-14 04:19:23.95	302.68	24.89	-23.4	-24.7	19.5	0.00e+00	0	43	0	1912602624	6	4184
2026-01-14 04:19:24.95	302.39	24.86	-23.6	-24.6	19.3	0.00e+00	0	43	0	1917845504	7	4044
2026-01-14 04:19:25.96	302.10	24.83	-23.8	-25.1	19.1	0.00e+00	0	43	0	1924136960	7	4165
2026-01-14 04:19:26.96	301.81	24.79	-23.7	-24.9	19.1	0.00e+00	0	43	0	1929379840	7	4125
2026-01-14 04:19:27.96	301.53	24.76	-23.6	-24.7	19.2	0.00e+00	0	43	0	1934622720	7	4084
2026-01-14 04:19:28.97	301.24	24.73	-23.7	-24.8	19.2	0.00e+00	0	43	0	1940914176	7	4104
2026-01-14 04:19:29.97	300.96	24.69	-23.6	-24.7	19.3	0.00e+00	0	43	0	1946157056	7	4068
2026-01-14 04:19:30.97	300.67	24.66	-24.0	-25.4	18.9	0.00e+00	0	43	0	1952448512	7	4252
2026-01-14 04:19:31.98	300.39	24.62	-23.7	-24.9	19.2	0.00e+00	0	43	0	1957691392	7	4115
2026-01-14 04:19:32.98	300.11	24.58	-23.5	-24.5	19.4	0.00e+00	0	43	0	1963982848	7	4020
2026-01-14 04:19:33.98	299.82	24.55	-23.4	-24.3	19.4	0.00e+00	0	43	0	1969225728	7	3970
2026-01-14 04:19:34.99	299.54	24.51	-23.4	-24.3	19.4	0.00e+00	0	43	0	1974468608	7	3978
2026-01-14 04:19:35.99	299.26	24.47	-23.5	-24.5	19.3	0.00e+00	0	43	0	1980760064	7	4030
2026-01-14 04:19:36.99	298.98	24.43	-23.3	-24.1	19.6	0.00e+00	0	43	0	1986002944	7	3921
2026-01-14 04:19:38.00	298.70	24.39	-23.3	-24.0	19.6	0.00e+00	0	43	0	1991245824	7	3915
2026-01-14 04:19:39.00	298.42	24.35	-23.4	-24.3	19.4	0.00e+00	0	43	0	1997537280	7	3970
2026-01-14 04:19:40.00	298.15	24.31	-23.3	-24.0	19.6	0.00e+00	0	43	0	2002780160	7	3905
2026-01-14 04:19:41.01	297.87	24.26	-23.2	-23.8	19.7	0.00e+00	0	43	0	2008023040	7	3859
2026-01-14 04:19:42.01	297.59	24.22	-23.2	-23.9	19.6	0.00e+00	0	43	0	2014314496	7	3883
2026-01-14 04:19:43.01	297.32	24.18	-23.3	-24.5	19.6	0.00e+00	0	43	0	2019557376	6	4132
2026-01-14 04:19:44.01	297.04	24.13	-23.5	-24.9	19.4	0.00e+00	0	43	0	2025848832	6	4246
2026-01-14 04:19:45.01	296.77	24.09	-23.8	-25.1	19.0	0.00e+00	0	43	0	2031091712	7	4171
2026-01-14 04:19:46.01	296.50	24.04	-23.6	-24.7	19.2	0.00e+00	0	43	0	2036334592	7	4086
2026-01-14 04:19:47.02	296.22	24.00	-23.6	-24.6	19.3	0.00e+00	0	43	0	2042626048	7	4046
2026-01-14 04:19:48.02	295.95	23.95	-23.6	-24.7	19.2	0.00e+00	0	43	0	2047868928	7	4082
2026-01-14 04:19:49.02	295.68	23.90	-23.6	-24.6	19.2	0.00e+00	0	43	0	2053111808	7	4062
2026-01-14 04:19:50.02	295.41	23.86	-23.7	-24.8	19.2	0.00e+00	0	43	0	2059403264	7	4090
2026-01-14 04:19:51.02	295.14	23.81	-23.5	-24.5	19.3	0.00e+00	0	43	0	2064646144	7	4020
2026-01-14 04:19:52.03	294.87	23.76	-23.5	-24.5	19.3	0.00e+00	0	43	0	2070937600	7	4018
2026-01-14 04:19:53.04	294.60	23.71	-23.3	-23.9	19.6	0.00e+00	0	43	0	2076180480	7	3896
2026-01-14 04:19:54.05	294.33	23.66	-23.2	-24.4	19.6	0.00e+00	0	43	0	2081423360	6	4107
2026-01-14 04:19:55.05	294.07	23.61	-23.3	-24.5	19.6	0.00e+00	0	43	0	2087714816	6	4142
2026-01-14 04:19:56.05	293.80	23.56	-23.2	-24.3	19.6	0.00e+00	0	43	0	2092957696	6	4089
2026-01-14 04:19:57.05	293.54	23.50	-23.2	-24.2	19.7	6.89e-04	0	43	0	2099249152	6	4074
2026-01-14 04:19:58.06	293.28	23.45	-23.2	-24.3	19.7	0.00e+00	0	43	0	2104492032	6	4090
2026-01-14 04:19:59.06	293.01	23.40	-23.3	-24.6	19.5	3.02e-04	0	43	0	2109734912	6	4171
2026-01-14 04:20:00.06	292.75	23.34	-23.4	-24.7	19.4	0.00e+00	0	43	0	2116026368	6	4181
2026-01-14 04:20:01.06	292.49	23.29	-23.5	-25.0	19.3	0.00e+00	0	43	0	2121269248	6	4258
2026-01-14 04:20:02.06	292.23	23.24	-23.4	-24.8	19.3	0.00e+00	0	43	0	2126512128	6	4218
2026-01-14 04:20:03.06	291.98	23.18	-23.4	-24.8	19.4	0.00e+00	0	43	0	2132803584	6	4214
2026-01-14 04:20:04.06	291.72	23.13	-23.6	-24.6	19.2	0.00e+00	0	43	0	2138046464	7	4042
2026-01-14 04:20:05.06	291.46	23.07	-23.9	-25.2	18.9	0.00e+00	0	43	0	2143289344	7	4194
2026-01-14 04:20:06.06	291.21	23.01	-23.6	-24.7	19.2	1.05e-03	0	43	0	2149580800	7	4066
2026-01-14 04:20:07.07	290.95	22.96	-23.7	-24.9	19.0	0.00e+00	0	43	0	2154823680	7	4125
2026-01-14 04:20:08.07	290.70	22.90	-23.6	-24.8	19.1	0.00e+00	0	43	0	2161115136	7	4090
2026-01-14 04:20:09.07	290.45	22.84	-23.6	-24.6	19.2	7.61e-04	0	43	0	2166358016	7	4049
2026-01-14 04:20:10.07	290.19	22.78	-23.7	-24.8	19.1	0.00e+00	0	43	0	2171600896	7	4113
2026-01-14 04:20:11.08	289.94	22.72	-23.6	-24.7	19.1	1.03e-03	0	43	0	2177892352	7	4075
2026-01-14 04:20:12.07	289.69	22.66	-23.7	-24.9	19.0	0.00e+00	0	43	0	2183135232	7	4131
2026-01-14 04:20:13.07	289.44	22.60	-23.9	-25.3	18.9	0.00e+00	0	43	0	2188378112	7	4219
2026-01-14 04:20:14.07	289.20	22.54	-24.2	-25.4	18.5	8.03e-04	0	43	0	2194669568	8	4145
2026-01-14 04:20:15.07	288.95	22.48	-24.6	-25.7	18.1	0.00e+00	0	43	0	2199912448	9	4099
2026-01-14 04:20:16.07	288.70	22.42	-24.1	-24.7	18.7	0.00e+00	0	43	0	2205155328	9	3861
2026-01-14 04:20:17.08	288.46	22.36	-23.8	-24.0	19.0	0.00e+00	0	43	0	2211446784	9	3713
2026-01-14 04:20:18.08	288.21	22.30	-23.5	-24.0	19.2	3.76e-04	0	43	0	2216689664	8	3812
2026-01-14 04:20:19.08	287.97	22.24	-23.5	-23.9	19.3	0.00e+00	0	43	0	2222981120	8	3780
2026-01-14 04:20:20.08	287.73	22.17	-23.4	-24.3	19.3	6.65e-04	0	43	0	2228224000	7	3975
2026-01-14 04:20:21.09	287.49	22.11	-23.6	-24.7	19.1	5.48e-04	0	43	0	2234515456	7	4072
2026-01-14 04:20:22.09	287.25	22.05	-23.4	-24.3	19.3	0.00e+00	0	43	0	2239758336	7	3990
2026-01-14 04:20:23.09	287.01	21.98	-23.8	-25.0	19.0	1.68e-04	0	43	0	2245001216	7	4154
2026-01-14 04:20:24.10	286.77	21.92	-23.7	-24.8	19.1	9.95e-05	0	43	0	2251292672	7	4098
2026-01-14 04:20:25.10	286.53	21.85	-23.6	-24.8	19.1	0.00e+00	0	43	0	2256535552	7	4093
2026-01-14 04:20:26.10	286.29	21.79	-23.7	-24.9	19.0	0.00e+00	0	43	0	2261778432	7	4118
2026-01-14 04:20:27.11	286.06	21.72	-23.9	-25.2	18.9	0.00e+00	0	43	0	2268069888	7	4198
2026-01-14 04:20:28.10	285.82	21.66	-23.6	-24.7	19.1	0.00e+00	0	43	0	2273312768	7	4083
2026-01-14 04:20:29.11	285.59	21.59	-23.7	-24.9	19.0	1.51e-04	0	43	0	2278555648	7	4120
2026-01-14 04:20:30.11	285.36	21.52	-23.9	-25.3	18.8	3.08e-04	0	43	0	2284847104	7	4244
2026-01-14 04:20:31.12	285.12	21.46	-24.1	-25.2	18.6	0.00e+00	0	43	0	2290089984	8	4090
2026-01-14 04:20:32.12	284.89	21.39	-24.2	-25.5	18.4	8.44e-04	0	43	0	2296381440	8	4170
2026-01-14 04:20:33.12	284.67	21.32	-24.0	-25.1	18.6	9.97e-04	0	43	0	2301624320	8	4074
2026-01-14 04:20:34.13	284.44	21.26	-24.0	-25.0	18.7	0.00e+00	0	43	0	2306867200	8	4060
2026-01-14 04:20:35.13	284.21	21.19	-24.1	-25.2	18.6	1.12e-03	0	43	0	2313158656	8	4091
2026-01-14 04:20:36.13	283.98	21.12	-24.0	-25.0	18.7	1.25e-03	0	43	0	2318401536	8	4041
2026-01-14 04:20:37.13	283.76	21.05	-23.9	-24.7	18.8	1.65e-04	0	43	0	2324692992	8	3979
2026-01-14 04:20:38.14	283.53	20.98	-23.8	-24.6	18.9	0.00e+00	0	43	0	2329935872	8	3950
2026-01-14 04:20:39.14	283.31	20.91	-23.7	-25.0	18.8	1.14e-03	0	43	0	2335178752	7	4175
2026-01-14 04:20:40.14	283.09	20.84	-23.6	-24.9	18.9	0.00e+00	0	43	0	2341470208	7	4151
2026-01-14 04:20:41.14	282.87	20.77	-23.7	-25.0	18.8	6.86e-04	0	43	0	2346713088	7	4202
2026-01-14 04:20:42.14	282.65	20.70	-23.8	-25.3	18.6	0.00e+00	0	43	0	2351955968	7	4273
2026-01-14 04:20:43.14	282.43	20.63	-23.9	-25.4	18.7	0.00e+00	0	43	0	2358247424	7	4265
2026-01-14 04:20:44.14	282.21	20.56	-24.2	-25.5	18.4	2.07e-04	0	43	0	2363490304	8	4183
2026-01-14 04:20:45.14	281.99	20.49	-24.0	-25.3	18.5	0.00e+00	0	43	0	2369781760	8	4142
2026-01-14 04:20:46.15	281.77	20.42	-24.1	-25.3	18.5	0.00e+00	0	43	0	2375024640	8	4119
2026-01-14 04:20:47.16	281.56	20.35	-24.2	-25.4	18.4	0.00e+00	0	43	0	2380267520	8	4152
2026-01-14 04:20:48.16	281.34	20.28	-24.2	-25.4	18.4	0.00e+00	0	43	0	2386558976	8	4152
2026-01-14 04:20:49.17	281.13	20.21	-24.3	-25.7	18.3	0.00e+00	0	43	0	2391801856	8	4216
2026-01-14 04:20:50.18	280.91	20.13	-24.4	-25.9	18.2	0.00e+00	0	43	0	2397044736	8	4268
2026-01-14 04:20:51.18	280.70	20.06	-24.3	-25.6	18.3	0.00e+00	0	43	0	2403336192	8	4203
2026-01-14 04:20:52.19	280.49	19.99	-24.3	-25.6	18.4	0.00e+00	0	43	0	2408579072	8	4178
2026-01-14 04:20:53.19	280.28	19.92	-24.3	-25.7	18.3	6.74e-04	0	43	0	2414870528	8	4213
2026-01-14 04:20:54.20	280.07	19.84	-24.3	-25.7	18.3	0.00e+00	0	43	0	2420113408	8	4213
2026-01-14 04:20:55.19	279.87	19.77	-24.4	-25.9	18.2	0.00e+00	0	43	0	2425356288	8	4280
2026-01-14 04:20:56.20	279.66	19.70	-24.6	-25.7	18.0	0.00e+00	0	43	0	2431647744	9	4108
2026-01-14 04:20:57.20	279.46	19.63	-24.7	-26.0	17.9	0.00e+00	0	43	0	2436890624	9	4175
2026-01-14 04:20:58.20	279.25	19.55	-24.5	-25.7	18.1	0.00e+00	0	43	0	2443182080	9	4097
2026-01-14 04:20:59.21	279.05	19.48	-24.5	-25.5	18.1	0.00e+00	0	43	0	2448424960	9	4052
2026-01-14 04:21:00.21	278.84	19.41	-24.5	-25.6	18.1	0.00e+00	0	43	0	2453667840	9	4073
2026-01-14 04:21:01.22	278.64	19.33	-24.4	-25.5	18.2	0.00e+00	0	43	0	2459959296	9	4043
2026-01-14 04:21:02.21	278.44	19.26	-24.6	-25.8	18.0	0.00e+00	0	43	0	2465202176	9	4124
2026-01-14 04:21:03.22	278.24	19.18	-24.6	-25.8	18.0	0.00e+00	0	43	0	2470445056	9	4130
2026-01-14 04:21:04.23	278.04	19.11	-24.8	-26.1	17.8	0.00e+00	0	43	0	2476736512	9	4219
2026-01-14 04:21:05.23	277.85	19.04	-24.6	-25.8	17.9	0.00e+00	0	43	0	2481979392	9	4141
2026-01-14 04:21:06.24	277.65	18.96	-24.5	-25.5	18.1	0.00e+00	0	43	0	2488270848	9	4060
2026-01-14 04:21:07.24	277.45	18.89	-24.5	-25.5	18.1	0.00e+00	0	43	0	2493513728	9	4058
2026-01-14 04:21:08.25	277.26	18.81	-24.5	-25.6	18.0	0.00e+00	0	43	0	2498756608	9	4089
2026-01-14 04:21:09.25	277.06	18.74	-24.5	-25.6	18.0	0.00e+00	0	43	0	2505048064	9	4088
2026-01-14 04:21:10.26	276.87	18.66	-24.6	-25.8	17.9	0.00e+00	0	43	0	2510290944	9	4130
2026-01-14 04:21:11.26	276.68	18.59	-24.7	-25.9	17.9	0.00e+00	0	43	0	2516582400	9	4168
2026-01-14 04:21:12.26	276.49	18.51	-24.7	-26.0	17.8	0.00e+00	0	43	0	2521825280	9	4191
2026-01-14 04:21:13.26	276.30	18.44	-24.7	-25.9	17.9	0.00e+00	0	43	0	2527068160	9	4155
2026-01-14 04:21:14.26	276.11	18.36	-24.7	-26.0	17.8	0.00e+00	0	43	0	2533359616	9	4183
2026-01-14 04:21:15.26	275.92	18.29	-24.8	-26.2	17.7	0.00e+00	0	43	0	2538602496	9	4223
2026-01-14 04:21:16.27	275.73	18.21	-24.6	-25.9	17.9	0.00e+00	0	43	0	2543845376	9	4147
2026-01-14 04:21:17.28	275.55	18.13	-24.7	-25.9	17.9	0.00e+00	0	43	0	2550136832	9	4163
2026-01-14 04:21:18.28	275.36	18.06	-24.7	-26.1	17.8	0.00e+00	0	43	0	2555379712	9	4196
2026-01-14 04:21:19.28	275.18	17.98	-24.7	-25.9	17.8	0.00e+00	0	43	0	2561671168	9	4165
2026-01-14 04:21:20.28	275.00	17.91	-24.7	-26.1	17.8	0.00e+00	0	43	0	2566914048	9	4212
2026-01-14 04:21:21.29	274.81	17.83	-24.7	-26.0	17.8	0.00e+00	0	43	0	2572156928	9	4176
2026-01-14 04:21:22.29	274.63	17.75	-24.8	-26.2	17.7	0.00e+00	0	43	0	2578448384	9	4238
2026-01-14 04:21:23.30	274.45	17.68	-24.9	-26.5	17.6	0.00e+00	0	43	0	2583691264	9	4309
2026-01-14 04:21:24.30	274.27	17.60	-24.8	-26.1	17.7	0.00e+00	0	43	0	2589982720	9	4212
2026-01-14 04:21:25.30	274.09	17.53	-24.7	-26.0	17.8	0.00e+00	0	43	0	2595225600	9	4174
2026-01-14 04:21:26.30	273.91	17.45	-24.7	-26.0	17.8	3.40e-06	0	43	0	2600468480	9	4171
2026-01-14 04:21:27.30	273.74	17.37	-24.7	-26.0	17.8	0.00e+00	0	43	0	2606759936	9	4168
2026-01-14 04:21:28.30	273.56	17.30	-24.8	-26.1	17.7	0.00e+00	0	43	0	2612002816	9	4209
2026-01-14 04:21:29.31	273.39	17.22	-24.7	-26.0	17.8	2.20e-06	0	43	0	2617245696	9	4183
2026-01-14 04:21:30.31	273.21	17.14	-24.8	-26.3	17.6	0.00e+00	0	43	0	2623537152	9	4254
2026-01-14 04:21:31.32	273.04	17.07	-24.8	-26.3	17.6	0.00e+00	0	43	0	2628780032	9	4251
2026-01-14 04:21:32.32	272.87	16.99	-25.0	-26.2	17.4	0.00e+00	0	43	0	2634022912	10	4112
2026-01-14 04:21:33.32	272.69	16.92	-25.0	-26.1	17.5	0.00e+00	0	43	0	2640314368	10	4096
2026-01-14 04:21:34.32	272.52	16.84	-25.1	-26.3	17.4	0.00e+00	0	43	0	2645557248	10	4141
2026-01-14 04:21:35.33	272.35	16.76	-25.1	-26.5	17.3	0.00e+00	0	43	0	2651848704	10	4186
2026-01-14 04:21:36.33	272.18	16.69	-25.1	-26.4	17.3	0.00e+00	0	43	0	2657091584	10	4175
2026-01-14 04:21:37.33	272.02	16.61	-25.2	-26.3	17.3	0.00e+00	0	43	0	2663383040	10	4118
2026-01-14 04:21:38.34	271.85	16.53	-24.5	-25.6	16.5	0.00e+00	0	43	0	2668625920	10	4090
2026-01-14 04:21:39.35	271.68	16.46	-25.1	-26.4	17.2	0.00e+00	0	43	0	2673868800	10	4182
2026-01-14 04:21:40.34	271.52	16.38	-25.1	-26.4	16.2	0.00e+00	0	43	0	2680160256	10	4185
2026-01-14 04:21:41.35	271.35	16.30	-25.2	-26.5	17.2	0.00e+00	0	43	0	2685403136	10	4204
2026-01-14 04:21:42.35	271.19	16.23	-25.1	-26.4	17.3	0.00e+00	0	43	0	2690646016	10	4169
2026-01-14 04:21:43.35	271.03	16.15	-25.1	-26.4	17.3	7.32e-05	0	43	0	2696937472	10	4181
2026-01-14 04:21:44.35	270.86	16.07	-25.1	-26.4	17.3	0.00e+00	0	43	0	2702180352	10	4176
2026-01-14 04:21:45.35	270.70	16.00	-25.0	-26.2	17.4	0.00e+00	0	43	0	2707423232	10	4122
2026-01-14 04:21:46.35	270.54	15.92	-25.0	-26.2	17.4	0.00e+00	0	43	0	2713714688	10	4113
2026-01-14 04:21:47.35	270.38	15.84	-25.1	-26.3	17.3	0.00e+00	0	43	0	2718957568	10	4143
2026-01-14 04:21:48.35	270.23	15.77	-25.1	-26.3	17.3	0.00e+00	0	43	0	2725249024	10	4150
2026-01-14 04:21:49.35	270.07	15.69	-25.2	-26.6	17.2	0.00e+00	0	43	0	2730491904	10	4213
2026-01-14 04:21:50.36	269.91	15.62	-25.2	-26.5	17.2	1.45e-03	0	43	0	2735734784	10	4199
2026-01-14 04:21:51.36	269.75	15.54	-25.2	-26.5	17.2	0.00e+00	0	43	0	2742026240	10	4209
2026-01-14 04:21:52.35	269.60	15.46	-25.2	-26.7	17.1	1.47e-03	0	43	0	2747269120	10	4241
2026-01-14 04:21:53.36	269.44	15.39	-25.3	-26.8	17.0	0.00e+00	0	43	0	2752512000	10	4287
2026-01-14 04:21:54.37	269.29	15.31	-25.3	-26.9	17.0	0.00e+00	0	43	0	2758803456	10	4300
2026-01-14 04:21:55.37	269.14	15.23	-25.4	-27.1	16.9	1.27e-03	0	43	0	2764046336	10	4347
2026-01-14 04:21:56.38	268.98	15.16	-25.4	-27.0	16.9	0.00e+00	0	43	0	2769289216	10	4338
2026-01-14 04:21:57.38	268.83	15.08	-25.5	-26.7	16.8	4.92e-05	0	43	0	2775580672	11	4141
2026-01-14 04:21:58.38	268.68	15.00	-25.5	-26.6	16.9	0.00e+00	0	43	0	2780823552	11	4122
2026-01-14 04:21:59.38	268.53	14.93	-25.4	-26.6	16.9	1.24e-03	0	43	0	2787115008	11	4108
2026-01-14 04:22:00.38	268.38	14.85	-25.4	-27.1	16.9	5.70e-06	0	43	0	2792357888	10	4355
2026-01-14 04:22:01.38	268.23	14.78	-25.5	-26.7	16.8	1.58e-03	0	43	0	2798649344	11	4149
2026-01-14 04:22:02.39	268.09	14.70	-25.6	-27.0	16.6	1.48e-03	0	43	0	2803892224	11	4230
2026-01-14 04:22:03.38	267.94	14.63	-25.8	-27.3	16.4	0.00e+00	0	43	0	2809135104	11	4304
2026-01-14 04:22:04.38	267.80	14.55	-25.6	-27.0	16.6	1.79e-03	0	43	0	2815426560	11	4217
2026-01-14 04:22:05.39	267.65	14.47	-25.6	-26.9	16.7	0.00e+00	0	43	0	2820669440	11	4192
2026-01-14 04:22:06.39	267.50	14.40	-25.6	-27.0	16.6	3.87e-04	0	43	0	2825912320	11	4214
2026-01-14 04:22:07.40	267.36	14.32	-25.7	-27.1	16.5	2.10e-03	0	43	0	2832203776	11	4257
2026-01-14 04:22:08.40	267.22	14.25	-25.8	-27.4	16.4	2.22e-03	0	43	0	2837446656	11	4315
2026-01-14 04:22:09.40	267.07	14.17	-25.6	-27.0	16.6	2.61e-04	0	43	0	2842689536	11	4221
2026-01-14 04:22:10.40	266.93	14.09	-25.5	-26.8	16.7	0.00e+00	0	43	0	2848980992	11	4179
2026-01-14 04:22:11.40	266.79	14.02	-25.6	-26.9	16.6	2.06e-03	0	43	0	2854223872	11	4198
2026-01-14 04:22:12.40	266.65	13.94	-25.6	-27.0	16.6	2.44e-04	0	43	0	2860515328	11	4231
2026-01-14 04:22:13.40	266.51	13.87	-25.7	-27.1	16.5	2.01e-03	0	43	0	2865758208	11	4249
2026-01-14 04:22:14.41	266.37	13.79	-25.8	-27.3	16.4	2.07e-03	0	43	0	2871001088	11	4304
2026-01-14 04:22:15.41	266.24	13.72	-25.8	-27.4	16.4	2.54e-04	0	43	0	2877292544	11	4321
2026-01-14 04:22:16.41	266.10	13.64	-25.8	-27.5	16.3	1.96e-03	0	43	0	2882535424	11	4348
2026-01-14 04:22:17.42	265.96	13.57	-25.8	-27.4	16.3	1.70e-03	0	43	0	2887778304	11	4342
2026-01-14 04:22:18.42	265.83	13.49	-25.8	-27.4	16.3	1.85e-04	0	43	0	2894069760	11	4338
2026-01-14 04:22:19.42	265.69	13.42	-25.8	-27.4	16.4	1.67e-03	0	43	0	2899312640	11	4332
2026-01-14 04:22:20.42	265.56	13.34	-25.8	-27.5	16.3	1.52e-03	0	43	0	2904555520	11	4348
2026-01-14 04:22:21.42	265.42	13.27	-25.7	-27.2	16.4	0.00e+00	0	43	0	2910846976	11	4283
2026-01-14 04:22:22.43	265.29	13.19	-25.8	-27.4	16.3	1.18e-03	0	43	0	2916089856	11	4331
2026-01-14 04:22:23.42	265.16	13.12	-25.8	-27.3	16.3	1.27e-03	0	43	0	2922381312	11	4313
2026-01-14 04:22:24.43	265.03	13.04	-25.8	-27.4	16.3	0.00e+00	0	43	0	2927624192	11	4332
2026-01-14 04:22:25.43	264.89	12.97	-25.8	-27.5	16.3	1.24e-03	0	43	0	2933915648	11	4351
2026-01-14 04:22:26.44	264.76	12.89	-25.9	-27.6	16.2	0.00e+00	0	43	0	2939158528	11	4393
2026-01-14 04:22:27.44	264.63	12.82	-26.0	-27.8	16.1	8.00e-06	0	43	0	2944401408	11	4436
2026-01-14 04:22:28.44	264.51	12.75	-26.0	-27.3	16.0	1.56e-03	0	43	0	2950692864	12	4189
2026-01-14 04:22:29.45	264.38	12.67	-26.1	-27.6	15.8	0.00e+00	0	43	0	2955935744	12	4286
2026-01-14 04:22:30.45	264.25	12.60	-26.2	-27.7	15.8	2.20e-04	0	43	0	2961178624	12	4311
2026-01-14 04:22:31.45	264.12	12.52	-26.0	-27.4	16.0	0.00e+00	0	43	0	2967470080	12	4212
2026-01-14 04:22:32.45	264.00	12.45	-25.9	-27.2	16.0	1.99e-03	0	43	0	2972712960	12	4166
2026-01-14 04:22:33.45	263.87	12.38	-26.0	-27.3	16.0	0.00e+00	0	43	0	2979004416	12	4201
2026-01-14 04:22:34.46	263.74	12.30	-26.0	-27.4	15.9	1.73e-03	0	43	0	2984247296	12	4216
2026-01-14 04:22:35.46	263.62	12.23	-26.0	-27.3	16.0	0.00e+00	0	43	0	2989490176	12	4203
2026-01-14 04:22:36.46	263.50	12.15	-26.0	-27.4	15.9	0.00e+00	0	43	0	2995781632	12	4230
2026-01-14 04:22:37.46	263.37	12.08	-26.1	-27.7	15.7	2.68e-03	0	43	0	3001024512	12	4291
2026-01-14 04:22:38.47	263.25	12.01	-26.0	-27.4	15.9	0.00e+00	0	43	0	3006267392	12	4218
2026-01-14 04:22:39.47	263.13	11.93	-26.0	-27.4	15.9	8.58e-04	0	43	0	3012558848	12	4227
2026-01-14 04:22:40.48	263.00	11.86	-26.0	-27.4	15.9	0.00e+00	0	43	0	3017801728	12	4232
2026-01-14 04:22:41.48	262.88	11.79	-26.0	-27.3	15.9	0.00e+00	0	43	0	3023044608	12	4189
2026-01-14 04:22:42.48	262.76	11.71	-26.1	-27.6	15.8	0.00e+00	0	43	0	3029336064	12	4285
2026-01-14 04:22:43.49	262.64	11.64	-26.2	-27.8	15.6	1.10e-06	0	43	0	3034578944	12	4328
2026-01-14 04:22:44.49	262.53	11.57	-26.2	-27.8	15.6	0.00e+00	0	43	0	3040870400	12	4341
2026-01-14 04:22:45.49	262.41	11.49	-26.3	-28.0	15.5	0.00e+00	0	43	0	3046113280	12	4395
2026-01-14 04:22:46.49	262.29	11.42	-26.3	-28.0	15.5	4.50e-06	0	43	0	3052404736	12	4398
2026-01-14 04:22:47.50	262.17	11.35	-26.3	-28.1	15.4	0.00e+00	0	43	0	3057647616	12	4426
2026-01-14 04:22:48.50	262.06	11.28	-26.4	-28.3	15.4	0.00e+00	0	43	0	3062890496	12	4467
2026-01-14 04:22:49.51	261.94	11.20	-26.5	-28.4	15.3	0.00e+00	0	43	0	3069181952	12	4504
2026-01-14 04:22:50.51	261.82	11.13	-26.5	-28.0	15.2	0.00e+00	0	43	0	3074424832	13	4287
2026-01-14 04:22:51.52	261.71	11.06	-26.6	-28.2	15.1	0.00e+00	0	43	0	3079667712	13	4334
2026-01-14 04:22:52.52	261.59	10.99	-26.6	-28.3	15.1	0.00e+00	0	43	0	3085959168	13	4355
2026-01-14 04:22:53.53	261.48	10.91	-26.6	-28.1	15.1	0.00e+00	0	43	0	3091202048	13	4317
2026-01-14 04:22:54.53	261.37	10.84	-26.6	-28.1	15.1	0.00e+00	0	43	0	3097493504	13	4317
2026-01-14 04:22:55.54	261.25	10.77	-26.7	-28.4	15.0	0.00e+00	0	43	0	3102736384	13	4401
2026-01-14 04:22:56.55	261.14	10.70	-26.9	-28.9	14.7	0.00e+00	0	43	0	3107979264	13	4545
2026-01-14 04:22:57.56	261.03	10.63	-26.9	-28.5	14.7	0.00e+00	0	43	0	3114270720	14	4299
2026-01-14 04:22:58.56	260.92	10.55	-26.7	-28.4	15.0	0.00e+00	0	43	0	3119513600	13	4382
2026-01-14 04:22:59.56	260.81	10.48	-26.5	-28.1	15.2	0.00e+00	0	43	0	3125805056	13	4300
2026-01-14 04:23:00.54	260.70	10.41	-26.5	-28.0	15.2	0.00e+00	0	43	0	3131047936	13	4273
2026-01-14 04:23:01.54	260.59	10.34	-26.6	-28.2	15.1	0.00e+00	0	43	0	3136290816	13	4342
2026-01-14 04:23:02.55	260.48	10.27	-26.6	-28.2	15.1	0.00e+00	0	43	0	3142582272	13	4335
2026-01-14 04:23:03.55	260.37	10.20	-26.5	-28.0	15.1	0.00e+00	0	43	0	3147825152	13	4293
2026-01-14 04:23:04.55	260.27	10.13	-26.5	-28.1	15.1	0.00e+00	0	43	0	3153068032	13	4307
2026-01-14 04:23:05.55	260.16	10.06	-26.5	-28.0	15.1	0.00e+00	0	43	0	3159359488	13	4289
2026-01-14 04:23:06.56	260.05	9.99	-26.5	-28.1	15.1	0.00e+00	0	43	0	3164602368	13	4309
2026-01-14 04:23:07.56	259.95	9.92	-26.6	-28.3	15.0	0.00e+00	0	43	0	3169845248	13	4351
2026-01-14 04:23:08.57	259.84	9.85	-26.6	-28.3	15.0	0.00e+00	0	43	0	3176136704	13	4356
2026-01-14 04:23:09.56	259.74	9.78	-26.6	-28.2	15.0	0.00e+00	0	43	0	3181379584	13	4322
2026-01-14 04:23:10.57	259.63	9.71	-26.7	-28.4	14.9	0.00e+00	0	43	0	3187671040	13	4386
2026-01-14 04:23:11.57	259.53	9.64	-26.7	-28.5	14.8	0.00e+00	0	43	0	3192913920	13	4416
2026-01-14 04:23:12.58	259.42	9.57	-26.8	-28.8	14.7	0.00e+00	0	43	0	3199205376	13	4503
2026-01-14 04:23:13.59	259.32	9.50	-26.8	-28.7	14.7	0.00e+00	0	43	0	3204448256	13	4483
2026-01-14 04:23:14.59	259.22	9.43	-26.8	-28.8	14.6	1.10e-06	0	43	0	3209691136	13	4516
2026-01-14 04:23:15.59	259.11	9.36	-26.8	-28.7	14.7	0.00e+00	0	43	0	3215982592	13	4468
2026-01-14 04:23:16.59	259.01	9.29	-26.9	-29.0	14.5	0.00e+00	0	43	0	3221225472	13	4571
2026-01-14 04:23:17.59	258.91	9.22	-26.9	-28.9	14.5	0.00e+00	0	43	0	3226468352	13	4543
2026-01-14 04:23:18.59	258.81	9.15	-26.8	-28.8	14.6	0.00e+00	0	43	0	3232759808	13	4500
2026-01-14 04:23:19.59	258.71	9.08	-26.7	-28.6	14.7	0.00e+00	0	43	0	3238002688	13	4455
2026-01-14 04:23:20.59	258.61	9.01	-26.8	-28.6	14.7	0.00e+00	0	43	0	3243245568	13	4463
2026-01-14 04:23:21.60	258.51	8.94	-26.8	-28.8	14.6	1.10e-06	0	43	0	3249537024	13	4498
2026-01-14 04:23:22.60	258.41	8.87	-26.7	-28.5	14.7	0.00e+00	0	43	0	3254779904	13	4425
2026-01-14 04:23:23.60	258.32	8.80	-26.8	-28.7	14.6	0.00e+00	0	43	0	3261071360	13	4465
2026-01-14 04:23:24.60	258.22	8.73	-26.8	-28.7	14.6	0.00e+00	0	43	0	3266314240	13	4492
2026-01-14 04:23:25.60	258.12	8.67	-26.9	-28.9	14.5	0.00e+00	0	43	0	3271557120	13	4544
2026-01-14 04:23:26.61	258.03	8.60	-26.9	-29.0	14.4	0.00e+00	0	43	0	3277848576	13	4583
2026-01-14 04:23:27.61	257.93	8.53	-27.0	-28.8	14.3	3.40e-06	0	43	0	3283091456	14	4395
2026-01-14 04:23:28.62	257.83	8.46	-27.0	-28.7	14.3	1.10e-06	0	43	0	3288334336	14	4367
2026-01-14 04:23:29.62	257.74	8.39	-27.2	-29.1	14.1	0.00e+00	0	43	0	3294625792	14	4500
2026-01-14 04:23:30.62	257.64	8.32	-27.3	-29.4	13.9	3.40e-06	0	43	0	3299868672	14	4575
2026-01-14 04:23:31.62	257.55	8.26	-27.1	-29.0	14.1	2.20e-06	0	43	0	3305111552	14	4465
2026-01-14 04:23:32.62	257.46	8.19	-27.2	-29.2	14.0	3.40e-06	0	43	0	3311403008	14	4514
2026-01-14 04:23:33.62	257.36	8.12	-27.2	-29.1	14.0	0.00e+00	0	43	0	3316645888	14	4501
2026-01-14 04:23:34.62	257.27	8.05	-26.5	-28.3	13.8	1.10e-06	0	43	0	3322937344	14	4424
2026-01-14 04:23:35.63	257.18	7.99	-27.3	-29.4	13.8	1.10e-06	0	43	0	3328180224	14	4579
2026-01-14 04:23:36.63	257.08	7.92	-27.3	-29.2	11.9	0.00e+00	0	43	0	3333423104	14	4528
2026-01-14 04:23:37.63	256.99	7.85	-27.2	-29.2	14.0	0.00e+00	0	43	0	3339714560	14	4514
2026-01-14 04:23:38.63	256.90	7.78	-27.2	-29.2	13.9	4.50e-06	0	43	0	3344957440	14	4519
2026-01-14 04:23:39.64	256.81	7.72	-27.3	-29.4	13.8	5.70e-06	0	43	0	3351248896	14	4586
2026-01-14 04:23:40.64	256.72	7.65	-27.4	-29.6	13.7	5.70e-06	0	43	0	3356491776	14	4647
2026-01-14 04:23:41.65	256.63	7.58	-27.4	-29.7	13.6	4.32e-04	0	43	0	3361734656	14	4681
2026-01-14 04:23:42.65	256.54	7.52	-27.5	-29.3	13.6	6.80e-06	0	43	0	3368026112	15	4440
2026-01-14 04:23:43.66	256.45	7.45	-27.4	-29.7	13.6	2.41e-03	0	43	0	3373268992	14	4669
2026-01-14 04:23:44.67	256.36	7.38	-27.5	-29.4	13.5	3.40e-06	0	43	0	3378511872	15	4471
2026-01-14 04:23:45.67	256.27	7.32	-27.6	-29.5	13.4	2.07e-03	0	43	0	3384803328	15	4508
2026-01-14 04:23:46.68	256.18	7.25	-27.5	-29.3	13.5	1.65e-03	0	43	0	3390046208	15	4437
2026-01-14 04:23:47.68	256.10	7.18	-27.4	-29.2	13.6	1.38e-04	0	43	0	3396337664	15	4414
2026-01-14 04:23:48.69	256.01	7.12	-27.5	-29.5	13.5	1.58e-03	0	43	0	3401580544	15	4494
2026-01-14 04:23:49.70	255.92	7.05	-33.0	-43.5	3.8	3.20e-01	0	43	104	3405774848	26	11991
2026-01-14 04:23:50.70	255.84	6.98	-33.5	-45.0	3.8	8.46e-01	0	43	104	3405774848	26	13560
2026-01-14 04:23:51.70	255.75	6.92	-33.8	-45.1	3.8	8.46e-01	0	43	104	3405774848	27	13294

#Closed at: 2026-01-14 04:23:52
#Recorded file [3405 MB]: D:/data/31010_260114_071343.dat