passes_logs/2026/01/14/R2M6_AANII_01/R2M6_AANII_01__20260114_005308_FENGYUN_3D_rec.log

#Pass ID: 20260114_005308_FENGYUN 3D
#Satellite: FENGYUN 3D
#Configuration: FENGYUN 3D
#almurnet v.1.7.20240730
#Start time: 2026-01-14 00:53:07

#Version: 2.2.20231116
#Station: R2M6_AANII_01
#Location: 30.233357 lon 59.946436 lat
#TLE: 1 43010U 17072A   26013.31211337  .00000452  00000+0  23563-3 0  9990
#TLE: 2 43010  98.9934 345.1024 0002270 111.0315 249.1103 14.19696845423017

#Time	Az	El	Level	Level2	SNR	BER	BlckErr	Temp	State	Recorded	gain1	gain2
2026-01-14 00:53:07.75	29.69	6.96	-27.9	-30.2	5.8	7.60e-01	0	40	0	0	15	4720
2026-01-14 00:53:08.75	29.78	7.02	-30.0	-33.2	5.4	7.77e-01	0	40	104	0	20	5174
2026-01-14 00:53:09.75	29.87	7.08	-30.3	-34.0	9.2	1.76e-02	0	40	0	0	20	5506
2026-01-14 00:53:10.76	29.96	7.15	-29.9	-32.9	10.0	9.51e-03	0	40	0	5242880	20	5052
2026-01-14 00:53:11.76	30.05	7.21	-30.2	-33.5	9.5	7.20e-03	0	40	0	11534336	20	5315
2026-01-14 00:53:12.76	30.14	7.28	-29.9	-32.8	10.0	1.03e-02	0	41	0	16777216	20	5030
2026-01-14 00:53:13.77	30.24	7.34	-29.7	-32.7	10.4	3.63e-03	0	41	0	22020096	19	5089
2026-01-14 00:53:14.77	30.33	7.41	-29.8	-33.0	10.3	3.38e-03	0	40	0	28311552	19	5206
2026-01-14 00:53:15.78	30.42	7.47	-29.7	-32.7	10.6	3.16e-03	0	41	0	33554432	19	5081
2026-01-14 00:53:16.78	30.51	7.54	-29.5	-32.2	10.9	2.73e-03	0	41	0	38797312	19	4895
2026-01-14 00:53:17.78	30.61	7.60	-29.5	-32.0	11.0	1.39e-03	0	41	0	45088768	19	4835
2026-01-14 00:53:18.79	30.70	7.67	-29.5	-32.1	11.0	1.40e-03	0	41	0	50331648	19	4867
2026-01-14 00:53:19.79	30.80	7.73	-29.4	-32.5	11.1	2.07e-03	0	41	0	55574528	18	5103
2026-01-14 00:53:20.79	30.89	7.80	-29.4	-32.4	11.1	1.19e-03	0	41	0	61865984	18	5091
2026-01-14 00:53:21.80	30.99	7.86	-29.9	-33.1	10.4	3.33e-03	0	41	0	67108864	19	5225
2026-01-14 00:53:22.79	31.08	7.93	-29.7	-32.5	10.7	3.95e-03	0	41	0	73400320	19	5016
2026-01-14 00:53:23.80	31.18	7.99	-29.2	-31.4	11.5	9.82e-04	0	41	0	78643200	19	4625
2026-01-14 00:53:24.80	31.28	8.06	-28.9	-31.1	12.0	6.45e-04	0	41	0	83886080	18	4624
2026-01-14 00:53:25.79	31.37	8.12	-28.5	-30.6	12.6	8.42e-04	0	41	0	90177536	17	4596
2026-01-14 00:53:26.79	31.47	8.19	-28.3	-30.1	13.0	3.77e-05	0	41	0	95420416	17	4438
2026-01-14 00:53:27.79	31.57	8.25	-28.0	-29.9	13.4	1.25e-05	0	41	0	100663296	16	4486
2026-01-14 00:53:28.79	31.67	8.32	-28.1	-30.2	13.2	8.41e-04	0	41	0	106954752	16	4568
2026-01-14 00:53:29.80	31.77	8.39	-27.9	-30.3	13.3	1.48e-05	0	41	0	112197632	15	4724
2026-01-14 00:53:30.80	31.86	8.45	-27.9	-30.3	13.2	3.73e-04	0	41	0	117440512	15	4733
2026-01-14 00:53:31.80	31.96	8.52	-27.8	-30.1	13.4	3.86e-04	0	41	0	123731968	15	4669
2026-01-14 00:53:32.81	32.06	8.58	-28.0	-30.4	13.2	4.29e-04	0	41	0	128974848	15	4761
2026-01-14 00:53:33.81	32.16	8.65	-28.0	-29.8	13.4	4.83e-04	0	41	0	135266304	16	4456
2026-01-14 00:53:34.82	32.27	8.72	-27.7	-29.8	13.6	3.28e-04	0	41	0	140509184	15	4561
2026-01-14 00:53:35.83	32.37	8.78	-27.6	-29.5	13.7	2.71e-04	0	41	0	146800640	15	4495
2026-01-14 00:53:36.83	32.47	8.85	-27.9	-30.2	13.4	6.04e-04	0	41	0	152043520	15	4681
2026-01-14 00:53:37.83	32.57	8.92	-27.6	-29.6	13.7	7.55e-04	0	41	0	157286400	15	4500
2026-01-14 00:53:38.83	32.67	8.98	-27.4	-29.0	14.1	0.00e+00	0	41	0	163577856	15	4334
2026-01-14 00:53:39.82	32.78	9.05	-27.2	-29.0	14.4	3.75e-04	0	41	0	168820736	14	4447
2026-01-14 00:53:40.83	32.88	9.12	-27.2	-29.1	14.3	4.76e-04	0	41	0	174063616	14	4477
2026-01-14 00:53:41.83	32.99	9.19	-27.2	-29.0	14.4	9.26e-05	0	41	0	180355072	14	4434
2026-01-14 00:53:42.84	33.09	9.25	-27.2	-29.0	14.4	3.26e-04	0	41	0	185597952	14	4458
2026-01-14 00:53:43.84	33.20	9.32	-27.2	-29.1	14.3	3.38e-04	0	41	0	190840832	14	4470
2026-01-14 00:53:44.84	33.30	9.39	-27.3	-29.3	14.2	2.20e-06	0	41	0	197132288	14	4545
2026-01-14 00:53:45.85	33.41	9.46	-27.2	-29.0	14.4	3.42e-04	0	41	0	202375168	14	4438
2026-01-14 00:53:46.85	33.51	9.52	-27.1	-28.9	14.5	0.00e+00	0	41	0	208666624	14	4421
2026-01-14 00:53:47.85	33.62	9.59	-27.0	-28.6	14.7	1.10e-06	0	41	0	213909504	14	4336
2026-01-14 00:53:48.86	33.73	9.66	-27.2	-29.2	14.4	0.00e+00	0	42	0	220200960	14	4487
2026-01-14 00:53:49.86	33.84	9.73	-27.0	-28.7	14.6	2.83e-04	0	41	0	225443840	14	4355
2026-01-14 00:53:50.87	33.95	9.80	-26.9	-28.3	14.8	0.00e+00	0	42	0	230686720	14	4255
2026-01-14 00:53:51.88	34.05	9.87	-26.9	-28.4	14.8	0.00e+00	0	42	0	236978176	14	4283
2026-01-14 00:53:52.87	34.16	9.93	-26.8	-28.6	14.9	0.00e+00	0	42	0	242221056	13	4453
2026-01-14 00:53:53.88	34.27	10.00	-26.7	-28.5	15.0	3.20e-05	0	42	0	247463936	13	4419
2026-01-14 00:53:54.88	34.38	10.07	-26.8	-28.5	15.0	2.27e-04	0	42	0	253755392	13	4425
2026-01-14 00:53:55.88	34.49	10.14	-26.6	-28.3	15.2	9.84e-05	0	41	0	258998272	13	4345
2026-01-14 00:53:56.88	34.60	10.21	-26.6	-28.1	15.2	1.18e-04	0	41	0	264241152	13	4299
2026-01-14 00:53:57.87	34.72	10.28	-26.6	-28.1	15.2	0.00e+00	0	41	0	270532608	13	4313
2026-01-14 00:53:58.87	34.83	10.34	-26.6	-28.2	15.2	1.21e-04	0	42	0	275775488	13	4328
2026-01-14 00:53:59.88	34.94	10.41	-26.6	-28.1	15.3	0.00e+00	0	42	0	282066944	13	4300
2026-01-14 00:54:00.89	35.06	10.48	-26.6	-28.2	15.2	0.00e+00	0	42	0	287309824	13	4323
2026-01-14 00:54:01.89	35.17	10.55	-26.6	-28.1	15.3	3.29e-04	0	42	0	292552704	13	4307
2026-01-14 00:54:02.90	35.28	10.62	-26.6	-28.2	15.2	0.00e+00	0	42	0	298844160	13	4316
2026-01-14 00:54:03.90	35.40	10.69	-26.5	-28.1	15.3	0.00e+00	0	42	0	304087040	13	4290
2026-01-14 00:54:04.91	35.52	10.76	-26.5	-28.0	15.4	0.00e+00	0	42	0	310378496	13	4261
2026-01-14 00:54:05.91	35.63	10.83	-26.6	-28.2	15.2	1.15e-04	0	42	0	315621376	13	4311
2026-01-14 00:54:06.92	35.75	10.90	-26.5	-27.9	15.4	0.00e+00	0	42	0	320864256	13	4256
2026-01-14 00:54:07.92	35.86	10.97	-26.5	-27.9	15.4	0.00e+00	0	42	0	327155712	13	4242
2026-01-14 00:54:08.92	35.98	11.04	-26.4	-27.8	15.5	0.00e+00	0	42	0	332398592	13	4202
2026-01-14 00:54:09.92	36.10	11.11	-26.3	-27.6	15.6	0.00e+00	0	42	0	337641472	13	4159
2026-01-14 00:54:10.93	36.22	11.18	-26.3	-27.6	15.6	0.00e+00	0	42	0	343932928	13	4158
2026-01-14 00:54:11.93	36.34	11.25	-26.4	-27.7	15.5	0.00e+00	0	42	0	349175808	13	4185
2026-01-14 00:54:12.93	36.46	11.32	-26.3	-27.5	15.7	0.00e+00	0	42	0	355467264	13	4139
2026-01-14 00:54:13.94	36.58	11.39	-26.3	-27.4	15.7	0.00e+00	0	42	0	360710144	13	4116
2026-01-14 00:54:14.94	36.70	11.46	-26.4	-27.8	15.6	0.00e+00	0	42	0	365953024	13	4200
2026-01-14 00:54:15.94	36.82	11.53	-26.4	-27.7	15.6	0.00e+00	0	42	0	372244480	13	4183
2026-01-14 00:54:16.95	36.94	11.61	-26.4	-27.6	15.6	0.00e+00	0	42	0	377487360	13	4172
2026-01-14 00:54:17.96	37.07	11.68	-26.5	-28.1	15.4	0.00e+00	0	42	0	383778816	13	4287
2026-01-14 00:54:18.96	37.19	11.75	-26.4	-27.8	15.5	0.00e+00	0	42	0	389021696	13	4214
2026-01-14 00:54:19.97	37.31	11.82	-26.4	-27.8	15.5	0.00e+00	0	42	0	394264576	13	4220
2026-01-14 00:54:20.97	37.44	11.89	-26.4	-27.6	15.6	0.00e+00	0	42	0	400556032	13	4161
2026-01-14 00:54:21.98	37.56	11.96	-26.4	-27.8	15.5	0.00e+00	0	42	0	405798912	13	4219
2026-01-14 00:54:22.98	37.69	12.03	-26.3	-27.6	15.7	0.00e+00	0	42	0	411041792	13	4149
2026-01-14 00:54:23.98	37.82	12.10	-26.4	-27.6	15.7	0.00e+00	0	42	0	417333248	13	4168
2026-01-14 00:54:24.98	37.94	12.18	-26.4	-27.8	15.6	0.00e+00	0	42	0	422576128	13	4213
2026-01-14 00:54:25.98	38.07	12.25	-26.4	-27.7	15.7	0.00e+00	0	42	0	428867584	13	4179
2026-01-14 00:54:26.98	38.20	12.32	-26.4	-27.7	15.7	0.00e+00	0	42	0	434110464	13	4177
2026-01-14 00:54:27.98	38.32	12.39	-26.4	-27.8	15.6	0.00e+00	0	42	0	439353344	13	4211
2026-01-14 00:54:28.98	38.45	12.46	-26.5	-28.1	15.4	0.00e+00	0	42	0	445644800	13	4290
2026-01-14 00:54:29.97	38.58	12.53	-26.4	-27.7	15.6	0.00e+00	0	42	0	450887680	13	4189
2026-01-14 00:54:30.98	38.71	12.61	-26.3	-27.5	15.8	0.00e+00	0	42	0	456130560	13	4131
2026-01-14 00:54:31.99	38.84	12.68	-26.3	-27.6	15.7	0.00e+00	0	42	0	462422016	13	4162
2026-01-14 00:54:32.99	38.97	12.75	-26.2	-27.3	15.9	0.00e+00	0	42	0	467664896	13	4090
2026-01-14 00:54:33.99	39.11	12.82	-26.2	-27.2	15.9	0.00e+00	0	42	0	472907776	13	4050
2026-01-14 00:54:34.99	39.24	12.89	-26.1	-27.2	16.0	0.00e+00	0	42	0	479199232	13	4045
2026-01-14 00:54:35.99	39.37	12.97	-26.2	-27.4	15.9	0.00e+00	0	42	0	484442112	13	4094
2026-01-14 00:54:37.00	39.51	13.04	-26.5	-27.9	15.6	0.00e+00	0	42	0	490733568	13	4236
2026-01-14 00:54:38.00	39.64	13.11	-26.3	-27.6	15.8	0.00e+00	0	42	0	495976448	13	4149
2026-01-14 00:54:39.00	39.78	13.18	-26.2	-27.2	16.0	0.00e+00	0	42	0	501219328	13	4050
2026-01-14 00:54:40.00	39.91	13.26	-26.2	-27.2	16.0	0.00e+00	0	42	0	507510784	13	4050
2026-01-14 00:54:41.00	40.05	13.33	-26.2	-27.3	15.9	0.00e+00	0	42	0	512753664	13	4072
2026-01-14 00:54:42.01	40.19	13.40	-26.2	-27.4	15.9	0.00e+00	0	42	0	519045120	13	4104
2026-01-14 00:54:43.01	40.32	13.48	-26.4	-27.6	15.7	0.00e+00	0	42	0	524288000	13	4168
2026-01-14 00:54:44.01	40.46	13.55	-26.1	-27.2	16.0	0.00e+00	0	42	0	529530880	13	4047
2026-01-14 00:54:45.01	40.60	13.62	-26.0	-26.9	16.2	0.00e+00	0	42	0	535822336	13	3968
2026-01-14 00:54:46.02	40.74	13.69	-26.0	-26.8	16.2	0.00e+00	0	42	0	541065216	13	3957
2026-01-14 00:54:47.02	40.88	13.77	-26.1	-27.0	16.1	0.00e+00	0	42	0	546308096	13	3995
2026-01-14 00:54:48.02	41.02	13.84	-25.8	-26.8	16.5	0.00e+00	0	42	0	552599552	12	4056
2026-01-14 00:54:49.03	41.17	13.91	-25.8	-26.9	16.4	0.00e+00	0	42	0	557842432	12	4089
2026-01-14 00:54:50.03	41.31	13.99	-25.6	-26.5	16.7	0.00e+00	0	42	0	564133888	12	3985
2026-01-14 00:54:51.03	41.45	14.06	-25.6	-26.5	16.7	0.00e+00	0	42	0	569376768	12	3973
2026-01-14 00:54:52.03	41.59	14.13	-25.6	-26.5	16.7	0.00e+00	0	43	0	574619648	12	3970
2026-01-14 00:54:53.03	41.74	14.21	-25.6	-26.4	16.7	0.00e+00	0	42	0	580911104	12	3960
2026-01-14 00:54:54.03	41.88	14.28	-25.6	-26.5	16.7	0.00e+00	0	42	0	586153984	12	3978
2026-01-14 00:54:55.03	42.03	14.35	-25.6	-26.4	16.8	0.00e+00	0	42	0	591396864	12	3952
2026-01-14 00:54:56.03	42.18	14.43	-25.5	-26.2	16.8	0.00e+00	0	42	0	597688320	12	3916
2026-01-14 00:54:57.03	42.32	14.50	-25.6	-26.4	16.8	0.00e+00	0	42	0	602931200	12	3952
2026-01-14 00:54:58.04	42.47	14.58	-25.8	-26.8	16.5	0.00e+00	0	42	0	608174080	12	4056
2026-01-14 00:54:59.05	42.62	14.65	-25.6	-26.4	16.7	0.00e+00	0	42	0	614465536	12	3954
2026-01-14 00:55:00.05	42.77	14.72	-25.6	-26.4	16.8	0.00e+00	0	42	0	619708416	12	3950
2026-01-14 00:55:01.05	42.92	14.80	-25.7	-26.6	16.3	6.17e-05	0	42	0	625999872	12	3998
2026-01-14 00:55:02.05	43.07	14.87	-25.6	-26.4	16.6	0.00e+00	0	42	0	631242752	12	3943
2026-01-14 00:55:03.06	43.22	14.95	-25.6	-26.5	16.8	0.00e+00	0	42	0	637534208	12	3974
2026-01-14 00:55:04.07	43.38	15.02	-25.6	-26.5	16.7	0.00e+00	0	42	0	642777088	12	3979
2026-01-14 00:55:05.07	43.53	15.10	-25.7	-27.3	16.7	0.00e+00	0	42	0	648019968	11	4284
2026-01-14 00:55:06.07	43.68	15.17	-25.7	-27.2	16.7	0.00e+00	0	42	0	654311424	11	4258
2026-01-14 00:55:07.07	43.84	15.24	-25.8	-27.3	16.6	0.00e+00	0	42	0	659554304	11	4302
2026-01-14 00:55:08.07	43.99	15.32	-25.7	-27.2	16.7	6.40e-04	0	42	0	664797184	11	4256
2026-01-14 00:55:09.07	44.15	15.39	-25.7	-27.2	16.7	0.00e+00	0	42	0	671088640	11	4280
2026-01-14 00:55:10.08	44.31	15.47	-25.9	-27.6	16.5	5.89e-04	0	42	0	676331520	11	4376
2026-01-14 00:55:11.08	44.47	15.54	-25.7	-27.1	16.7	0.00e+00	0	42	0	681574400	11	4254
2026-01-14 00:55:12.08	44.62	15.62	-25.6	-26.9	16.9	0.00e+00	0	42	0	687865856	11	4179
2026-01-14 00:55:13.08	44.78	15.69	-25.6	-26.9	16.9	2.57e-04	0	42	0	693108736	11	4180
2026-01-14 00:55:14.09	44.94	15.76	-25.6	-27.0	16.8	0.00e+00	0	43	0	699400192	11	4216
2026-01-14 00:55:15.09	45.10	15.84	-25.5	-26.8	17.0	0.00e+00	0	42	0	704643072	11	4148
2026-01-14 00:55:16.10	45.27	15.91	-25.5	-26.8	17.0	0.00e+00	0	42	0	709885952	11	4148
2026-01-14 00:55:17.10	45.43	15.99	-25.6	-26.9	16.9	1.19e-04	0	42	0	716177408	11	4192
2026-01-14 00:55:18.10	45.59	16.06	-25.5	-26.7	17.0	0.00e+00	0	43	0	721420288	11	4132
2026-01-14 00:55:19.10	45.75	16.14	-25.5	-26.6	17.1	0.00e+00	0	42	0	726663168	11	4117
2026-01-14 00:55:20.11	45.92	16.21	-25.5	-26.7	17.1	4.50e-06	0	42	0	732954624	11	4126
2026-01-14 00:55:21.11	46.09	16.29	-25.4	-26.4	17.2	0.00e+00	0	43	0	738197504	11	4065
2026-01-14 00:55:22.11	46.25	16.36	-25.4	-26.4	17.2	2.74e-05	0	43	0	744488960	11	4063
2026-01-14 00:55:23.11	46.42	16.44	-25.4	-26.5	17.1	6.80e-06	0	42	0	749731840	11	4080
2026-01-14 00:55:24.11	46.59	16.51	-25.3	-26.2	17.3	0.00e+00	0	42	0	754974720	11	4008
2026-01-14 00:55:25.11	46.75	16.58	-25.2	-26.1	17.4	3.60e-04	0	42	0	761266176	11	3980
2026-01-14 00:55:26.12	46.93	16.66	-25.2	-26.1	17.3	4.22e-04	0	43	0	766509056	11	3989
2026-01-14 00:55:27.12	47.10	16.73	-25.5	-26.6	17.1	0.00e+00	0	43	0	772800512	11	4115
2026-01-14 00:55:28.12	47.27	16.81	-25.3	-26.7	17.3	4.92e-04	0	43	0	778043392	10	4241
2026-01-14 00:55:29.13	47.44	16.88	-25.1	-26.3	17.5	5.01e-04	0	42	0	783286272	10	4153
2026-01-14 00:55:30.13	47.61	16.96	-25.1	-26.3	17.5	0.00e+00	0	42	0	789577728	10	4157
2026-01-14 00:55:31.13	47.79	17.03	-25.1	-26.3	17.5	4.13e-04	0	42	0	794820608	10	4135
2026-01-14 00:55:32.13	47.96	17.11	-25.2	-26.5	17.4	3.32e-04	0	43	0	800063488	10	4198
2026-01-14 00:55:33.14	48.14	17.18	-25.1	-26.3	17.5	0.00e+00	0	43	0	806354944	10	4150
2026-01-14 00:55:34.14	48.31	17.25	-25.1	-26.4	17.5	2.72e-04	0	42	0	811597824	10	4176
2026-01-14 00:55:35.14	48.49	17.33	-25.2	-26.5	17.4	0.00e+00	0	42	0	817889280	10	4203
2026-01-14 00:55:36.14	48.67	17.40	-25.3	-26.7	17.3	0.00e+00	0	42	0	823132160	10	4249
2026-01-14 00:55:37.15	48.85	17.48	-25.2	-26.5	17.5	1.07e-04	0	42	0	828375040	10	4180
2026-01-14 00:55:38.15	49.03	17.55	-25.2	-26.6	17.4	1.22e-04	0	42	0	834666496	10	4211
2026-01-14 00:55:39.16	49.21	17.63	-25.0	-26.3	17.6	0.00e+00	0	42	0	839909376	10	4143
2026-01-14 00:55:40.16	49.39	17.70	-25.2	-26.5	17.6	0.00e+00	0	42	0	846200832	10	4195
2026-01-14 00:55:41.17	49.57	17.78	-25.0	-26.2	17.7	7.09e-05	0	42	0	851443712	10	4126
2026-01-14 00:55:42.18	49.76	17.85	-24.4	-25.7	17.5	0.00e+00	0	43	0	856686592	10	4187
2026-01-14 00:55:43.18	49.94	17.92	-24.0	-26.0	17.1	9.95e-05	0	43	0	862978048	9	4546
2026-01-14 00:55:44.19	50.13	18.00	-24.5	-26.3	17.4	0.00e+00	0	42	0	868220928	9	4447
2026-01-14 00:55:45.19	50.31	18.07	-25.1	-26.6	17.4	0.00e+00	0	43	0	873463808	10	4254
2026-01-14 00:55:46.20	50.50	18.15	-25.1	-26.4	17.6	0.00e+00	0	43	0	879755264	10	4184
2026-01-14 00:55:47.20	50.69	18.22	-25.1	-26.4	17.6	0.00e+00	0	43	0	884998144	10	4164
2026-01-14 00:55:48.20	50.88	18.29	-25.1	-26.4	17.7	0.00e+00	0	43	0	891289600	10	4154
2026-01-14 00:55:49.21	51.07	18.37	-24.9	-26.0	17.9	0.00e+00	0	43	0	896532480	10	4053
2026-01-14 00:55:50.22	51.26	18.44	-24.9	-25.9	17.9	4.27e-04	0	43	0	902823936	10	4050
2026-01-14 00:55:51.22	51.45	18.52	-25.0	-26.1	17.8	0.00e+00	0	43	0	908066816	10	4092
2026-01-14 00:55:52.22	51.64	18.59	-24.9	-26.0	17.9	0.00e+00	0	43	0	913309696	10	4075
2026-01-14 00:55:53.22	51.83	18.66	-24.8	-25.7	18.0	0.00e+00	0	43	0	919601152	10	4004
2026-01-14 00:55:54.22	52.03	18.74	-24.8	-25.7	18.0	0.00e+00	0	42	0	924844032	10	3988
2026-01-14 00:55:55.22	52.22	18.81	-24.8	-25.8	18.0	0.00e+00	0	43	0	930086912	10	4004
2026-01-14 00:55:56.23	52.42	18.88	-24.9	-26.3	17.9	0.00e+00	0	42	0	936378368	9	4256
2026-01-14 00:55:57.22	52.61	18.95	-24.8	-26.3	18.0	0.00e+00	0	42	0	941621248	9	4242
2026-01-14 00:55:58.23	52.81	19.03	-24.9	-26.5	17.9	0.00e+00	0	43	0	946864128	9	4304
2026-01-14 00:55:59.23	53.01	19.10	-25.1	-26.3	17.7	0.00e+00	0	43	0	953155584	10	4134
2026-01-14 00:56:00.23	53.21	19.17	-25.2	-26.6	17.6	0.00e+00	0	43	0	958398464	10	4207
2026-01-14 00:56:01.23	53.41	19.24	-25.1	-26.3	17.7	0.00e+00	0	43	0	964689920	10	4130
2026-01-14 00:56:02.23	53.61	19.32	-25.0	-26.1	17.8	0.00e+00	0	43	0	969932800	10	4093
2026-01-14 00:56:03.24	53.81	19.39	-25.1	-26.2	17.8	0.00e+00	0	43	0	975175680	10	4109
2026-01-14 00:56:04.24	54.02	19.46	-25.1	-26.2	17.8	0.00e+00	0	43	0	981467136	10	4114
2026-01-14 00:56:05.25	54.22	19.53	-25.2	-26.4	17.7	0.00e+00	0	43	0	986710016	10	4166
2026-01-14 00:56:06.25	54.43	19.61	-25.0	-26.0	17.9	0.00e+00	0	43	0	991952896	10	4061
2026-01-14 00:56:07.25	54.63	19.68	-24.9	-25.9	17.9	0.00e+00	0	43	0	998244352	10	4038
2026-01-14 00:56:08.25	54.84	19.75	-24.9	-26.0	17.9	0.00e+00	0	43	0	1003487232	10	4067
2026-01-14 00:56:09.26	55.05	19.82	-24.9	-26.0	17.9	0.00e+00	0	43	0	1009778688	10	4066
2026-01-14 00:56:10.27	55.26	19.89	-25.0	-26.0	17.9	0.00e+00	0	43	0	1015021568	10	4066
2026-01-14 00:56:11.27	55.47	19.96	-25.0	-26.2	17.8	0.00e+00	0	43	0	1020264448	10	4103
2026-01-14 00:56:12.28	55.68	20.03	-25.1	-26.2	17.8	0.00e+00	0	43	0	1026555904	10	4126
2026-01-14 00:56:13.28	55.89	20.10	-24.9	-26.0	17.9	0.00e+00	0	43	0	1031798784	10	4052
2026-01-14 00:56:14.29	56.10	20.17	-24.9	-25.8	18.0	0.00e+00	0	42	0	1038090240	10	4019
2026-01-14 00:56:15.29	56.32	20.24	-24.9	-26.0	17.9	0.00e+00	0	43	0	1043333120	10	4049
2026-01-14 00:56:16.30	56.53	20.32	-24.9	-26.0	17.9	0.00e+00	0	43	0	1048576000	10	4058
2026-01-14 00:56:17.30	56.75	20.38	-24.9	-25.9	17.9	0.00e+00	0	43	0	1054867456	10	4038
2026-01-14 00:56:18.31	56.97	20.45	-24.8	-25.6	18.1	0.00e+00	0	43	0	1060110336	10	3964
2026-01-14 00:56:19.31	57.18	20.52	-24.7	-25.4	18.2	0.00e+00	0	43	0	1066401792	10	3919
2026-01-14 00:56:20.30	57.40	20.59	-24.7	-25.5	18.2	0.00e+00	0	42	0	1071644672	10	3930
2026-01-14 00:56:21.31	57.62	20.66	-24.7	-25.5	18.1	0.00e+00	0	43	0	1076887552	10	3947
2026-01-14 00:56:22.31	57.84	20.73	-24.6	-25.3	18.3	0.00e+00	0	43	0	1083179008	10	3879
2026-01-14 00:56:23.31	58.06	20.80	-24.6	-25.2	18.4	0.00e+00	0	43	0	1088421888	10	3857
2026-01-14 00:56:24.32	58.29	20.87	-24.7	-25.5	18.2	0.00e+00	0	43	0	1093664768	10	3937
2026-01-14 00:56:25.32	58.51	20.94	-24.8	-25.7	18.1	0.00e+00	0	43	0	1099956224	10	3991
2026-01-14 00:56:26.33	58.73	21.00	-24.8	-25.7	18.1	0.00e+00	0	43	0	1105199104	10	3983
2026-01-14 00:56:27.34	58.96	21.07	-24.8	-25.6	18.1	0.00e+00	0	43	0	1111490560	10	3970
2026-01-14 00:56:28.34	59.19	21.14	-24.8	-25.6	18.2	0.00e+00	0	43	0	1116733440	10	3956
2026-01-14 00:56:29.34	59.41	21.21	-24.9	-25.8	18.0	0.00e+00	0	43	0	1121976320	10	4020
2026-01-14 00:56:30.35	59.64	21.27	-24.9	-25.8	18.0	0.00e+00	0	43	0	1128267776	10	4006
2026-01-14 00:56:31.35	59.87	21.34	-24.6	-25.3	18.3	0.00e+00	0	43	0	1133510656	10	3885
2026-01-14 00:56:32.35	60.10	21.41	-24.7	-25.3	18.3	0.00e+00	0	43	0	1138753536	10	3900
2026-01-14 00:56:33.35	60.33	21.47	-24.7	-25.4	18.3	0.00e+00	0	43	0	1145044992	10	3911
2026-01-14 00:56:34.35	60.56	21.54	-24.9	-25.8	18.1	0.00e+00	0	43	0	1150287872	10	4010
2026-01-14 00:56:35.35	60.80	21.60	-25.0	-26.1	17.9	0.00e+00	0	43	0	1156579328	10	4094
2026-01-14 00:56:36.36	61.03	21.67	-25.0	-26.1	17.9	0.00e+00	0	43	0	1161822208	10	4098
2026-01-14 00:56:37.36	61.27	21.73	-24.9	-25.8	18.0	0.00e+00	0	43	0	1167065088	10	4004
2026-01-14 00:56:38.36	61.50	21.80	-24.6	-25.2	18.4	0.00e+00	0	43	0	1173356544	10	3871
2026-01-14 00:56:39.36	61.74	21.86	-24.4	-24.9	17.9	0.00e+00	0	43	0	1178599424	10	3801
2026-01-14 00:56:40.37	61.98	21.92	-24.4	-25.3	17.9	0.00e+00	0	43	0	1184890880	9	3988
2026-01-14 00:56:41.37	62.22	21.99	-24.3	-25.2	18.6	0.00e+00	0	43	0	1190133760	9	3981
2026-01-14 00:56:42.37	62.45	22.05	-24.3	-25.0	18.7	0.00e+00	0	43	0	1195376640	9	3937
2026-01-14 00:56:43.38	62.70	22.11	-24.3	-25.1	18.7	0.00e+00	0	43	0	1201668096	9	3957
2026-01-14 00:56:44.38	62.94	22.18	-24.2	-25.0	18.7	0.00e+00	0	43	0	1206910976	9	3924
2026-01-14 00:56:45.38	63.18	22.24	-24.1	-24.8	18.8	0.00e+00	0	43	0	1212153856	9	3869
2026-01-14 00:56:46.38	63.42	22.30	-24.2	-24.8	18.8	0.00e+00	0	43	0	1218445312	9	3883
2026-01-14 00:56:47.38	63.67	22.36	-24.2	-24.9	18.8	0.00e+00	0	43	0	1223688192	9	3897
2026-01-14 00:56:48.38	63.91	22.42	-24.3	-25.1	18.7	0.00e+00	0	43	0	1228931072	9	3944
2026-01-14 00:56:49.39	64.16	22.48	-24.2	-25.0	18.7	1.85e-04	0	43	0	1235222528	9	3928
2026-01-14 00:56:50.39	64.41	22.54	-24.2	-25.0	18.7	0.00e+00	0	43	0	1240465408	9	3935
2026-01-14 00:56:51.40	64.66	22.60	-24.3	-25.2	18.6	0.00e+00	0	43	0	1246756864	9	3976
2026-01-14 00:56:52.40	64.90	22.66	-24.4	-25.3	18.6	4.23e-05	0	43	0	1251999744	9	3987
2026-01-14 00:56:53.41	65.16	22.72	-24.4	-25.3	18.6	0.00e+00	0	43	0	1258291200	9	3996
2026-01-14 00:56:54.41	65.41	22.78	-24.2	-25.0	18.7	3.60e-04	0	43	0	1263534080	9	3928
2026-01-14 00:56:55.42	65.66	22.84	-24.2	-25.0	18.7	0.00e+00	0	43	0	1268776960	9	3931
2026-01-14 00:56:56.42	65.91	22.89	-24.2	-25.0	18.7	0.00e+00	0	43	0	1275068416	9	3933
2026-01-14 00:56:57.42	66.17	22.95	-24.3	-25.1	18.7	0.00e+00	0	43	0	1280311296	9	3957
2026-01-14 00:56:58.42	66.42	23.01	-24.4	-25.3	18.5	2.96e-04	0	43	0	1285554176	9	4004
2026-01-14 00:56:59.42	66.68	23.06	-24.2	-24.9	18.8	0.00e+00	0	43	0	1291845632	9	3894
2026-01-14 00:57:00.43	66.93	23.12	-24.1	-24.7	18.9	0.00e+00	0	43	0	1297088512	9	3854
2026-01-14 00:57:01.43	67.19	23.18	-24.1	-24.7	18.9	3.16e-04	0	43	0	1302331392	9	3862
2026-01-14 00:57:02.43	67.45	23.23	-24.1	-24.7	18.9	0.00e+00	0	43	0	1308622848	9	3864
2026-01-14 00:57:03.43	67.71	23.28	-24.2	-24.9	18.8	2.60e-04	0	43	0	1313865728	9	3909
2026-01-14 00:57:04.44	67.97	23.34	-24.2	-24.8	18.8	2.22e-04	0	43	0	1320157184	9	3874
2026-01-14 00:57:05.43	68.23	23.39	-24.1	-24.7	18.9	0.00e+00	0	43	0	1325400064	9	3855
2026-01-14 00:57:06.44	68.49	23.44	-24.2	-25.0	18.7	1.86e-04	0	43	0	1330642944	9	3927
2026-01-14 00:57:07.44	68.75	23.50	-24.3	-25.1	18.7	0.00e+00	0	43	0	1336934400	9	3944
2026-01-14 00:57:08.44	69.02	23.55	-24.3	-25.0	18.7	0.00e+00	0	43	0	1342177280	9	3940
2026-01-14 00:57:09.44	69.28	23.60	-24.3	-25.1	18.7	0.00e+00	0	43	0	1347420160	9	3943
2026-01-14 00:57:10.45	69.55	23.65	-24.2	-24.9	18.8	1.23e-04	0	43	0	1353711616	9	3893
2026-01-14 00:57:11.45	69.81	23.70	-24.0	-24.5	19.0	0.00e+00	0	43	0	1358954496	9	3810
2026-01-14 00:57:12.46	70.08	23.75	-23.9	-24.7	19.1	2.21e-04	0	43	0	1365245952	8	3966
2026-01-14 00:57:13.46	70.35	23.80	-23.9	-24.8	19.1	2.15e-04	0	43	0	1370488832	8	3984
2026-01-14 00:57:14.47	70.62	23.85	-23.9	-24.8	19.1	0.00e+00	0	43	0	1375731712	8	3981
2026-01-14 00:57:15.47	70.89	23.90	-24.1	-25.1	18.9	9.26e-05	0	43	0	1382023168	8	4064
2026-01-14 00:57:16.48	71.16	23.95	-24.2	-25.3	18.8	0.00e+00	0	43	0	1387266048	8	4122
2026-01-14 00:57:17.49	71.43	23.99	-24.0	-25.1	18.7	0.00e+00	0	43	0	1393557504	8	4085
2026-01-14 00:57:18.49	71.71	24.04	-24.1	-25.3	18.7	1.75e-04	0	43	0	1398800384	8	4129
2026-01-14 00:57:19.50	71.98	24.09	-24.1	-25.2	18.7	1.74e-04	0	43	0	1404043264	8	4113
2026-01-14 00:57:20.49	72.25	24.13	-23.9	-24.7	18.9	0.00e+00	0	43	0	1410334720	8	3987
2026-01-14 00:57:21.50	72.53	24.18	-23.8	-24.7	18.9	0.00e+00	0	43	0	1415577600	8	3978
2026-01-14 00:57:22.50	72.80	24.22	-23.8	-24.7	18.9	1.33e-04	0	43	0	1420820480	8	3989
2026-01-14 00:57:23.50	73.08	24.26	-24.0	-25.1	18.8	0.00e+00	0	43	0	1427111936	8	4080
2026-01-14 00:57:24.50	73.35	24.31	-24.0	-25.1	18.8	1.67e-04	0	43	0	1432354816	8	4067
2026-01-14 00:57:25.50	73.63	24.35	-23.7	-24.3	19.1	2.02e-04	0	43	0	1437597696	8	3892
2026-01-14 00:57:26.50	73.91	24.39	-23.5	-24.0	19.3	0.00e+00	0	43	0	1443889152	8	3804
2026-01-14 00:57:27.51	74.19	24.43	-23.5	-24.0	19.3	1.68e-04	0	43	0	1449132032	8	3822
2026-01-14 00:57:28.51	74.47	24.47	-23.6	-24.2	19.2	0.00e+00	0	43	0	1455423488	8	3868
2026-01-14 00:57:29.51	74.75	24.51	-23.7	-24.4	19.1	0.00e+00	0	43	0	1460666368	8	3911
2026-01-14 00:57:30.51	75.03	24.55	-23.7	-24.5	19.1	0.00e+00	0	43	0	1466957824	8	3922
2026-01-14 00:57:31.51	75.31	24.59	-23.7	-24.5	19.1	1.19e-04	0	43	0	1472200704	8	3927
2026-01-14 00:57:32.52	75.59	24.63	-23.6	-24.2	19.2	0.00e+00	0	43	0	1477443584	8	3865
2026-01-14 00:57:33.52	75.87	24.66	-23.5	-24.1	19.3	0.00e+00	0	43	0	1483735040	8	3826
2026-01-14 00:57:34.52	76.16	24.70	-23.5	-24.1	19.3	0.00e+00	0	43	0	1488977920	8	3833
2026-01-14 00:57:35.53	76.44	24.73	-23.6	-24.2	19.3	0.00e+00	0	43	0	1494220800	8	3857
2026-01-14 00:57:36.52	76.72	24.77	-23.6	-24.1	19.2	1.69e-04	0	43	0	1500512256	8	3844
2026-01-14 00:57:37.53	77.01	24.80	-23.5	-24.0	19.3	0.00e+00	0	43	0	1505755136	8	3816
2026-01-14 00:57:38.53	77.30	24.84	-23.4	-23.9	19.4	1.10e-06	0	43	0	1510998016	8	3778
2026-01-14 00:57:39.53	77.58	24.87	-23.3	-24.2	19.4	0.00e+00	0	43	0	1517289472	7	3964
2026-01-14 00:57:40.53	77.87	24.90	-23.3	-24.1	19.5	0.00e+00	0	43	0	1522532352	7	3946
2026-01-14 00:57:41.53	78.16	24.93	-23.3	-24.1	19.4	0.00e+00	0	43	0	1528823808	7	3954
2026-01-14 00:57:42.54	78.45	24.97	-23.4	-24.2	19.4	0.00e+00	0	43	0	1534066688	7	3966
2026-01-14 00:57:43.55	78.74	25.00	-23.4	-24.3	19.4	1.49e-04	0	43	0	1539309568	7	4001
2026-01-14 00:57:44.55	79.03	25.02	-23.4	-24.3	19.4	0.00e+00	0	43	0	1545601024	7	3997
2026-01-14 00:57:45.55	79.32	25.05	-23.4	-24.2	19.4	0.00e+00	0	43	0	1550843904	7	3979
2026-01-14 00:57:46.55	79.61	25.08	-23.4	-24.2	19.4	0.00e+00	0	43	0	1557135360	7	3972
2026-01-14 00:57:47.55	79.90	25.11	-23.3	-24.1	19.5	2.20e-06	0	43	0	1562378240	7	3946
2026-01-14 00:57:48.56	80.19	25.14	-23.4	-24.3	19.4	0.00e+00	0	43	0	1567621120	7	3995
2026-01-14 00:57:49.56	80.48	25.16	-23.5	-24.4	19.3	0.00e+00	0	43	0	1573912576	7	4026
2026-01-14 00:57:50.57	80.78	25.19	-23.6	-24.7	19.2	0.00e+00	0	43	0	1579155456	7	4087
2026-01-14 00:57:51.57	81.07	25.21	-23.6	-24.7	19.1	0.00e+00	0	43	0	1584398336	7	4105
2026-01-14 00:57:52.58	81.36	25.23	-23.6	-24.6	19.2	0.00e+00	0	43	0	1590689792	7	4075
2026-01-14 00:57:53.57	81.65	25.26	-23.6	-24.8	19.2	0.00e+00	0	43	0	1595932672	7	4111
2026-01-14 00:57:54.57	81.95	25.28	-23.5	-24.5	19.3	0.00e+00	0	43	0	1602224128	7	4040
2026-01-14 00:57:55.57	82.24	25.30	-23.5	-24.5	19.3	0.00e+00	0	43	0	1607467008	7	4039
2026-01-14 00:57:56.58	82.54	25.32	-23.6	-24.8	19.2	0.00e+00	0	43	0	1612709888	7	4103
2026-01-14 00:57:57.58	82.83	25.34	-23.7	-24.9	19.1	0.00e+00	0	43	0	1619001344	7	4145
2026-01-14 00:57:58.58	83.13	25.36	-23.8	-25.1	19.0	0.00e+00	0	43	0	1624244224	7	4185
2026-01-14 00:57:59.59	83.43	25.38	-23.7	-24.9	19.1	0.00e+00	0	43	0	1629487104	7	4138
2026-01-14 00:58:00.59	83.72	25.39	-23.7	-24.9	19.1	0.00e+00	0	43	0	1635778560	7	4131
2026-01-14 00:58:01.59	84.02	25.41	-23.7	-24.9	19.1	0.00e+00	0	43	0	1641021440	7	4148
2026-01-14 00:58:02.60	84.32	25.43	-23.6	-24.6	19.2	0.00e+00	0	43	0	1646264320	7	4079
2026-01-14 00:58:03.60	84.62	25.44	-23.4	-24.4	19.3	0.00e+00	0	43	0	1652555776	7	4019
2026-01-14 00:58:04.61	84.92	25.46	-23.4	-24.4	19.3	0.00e+00	0	43	0	1657798656	7	4008
2026-01-14 00:58:05.61	85.21	25.47	-23.4	-24.3	19.4	0.00e+00	0	43	0	1664090112	7	3986
2026-01-14 00:58:06.61	85.51	25.48	-23.4	-24.3	19.4	0.00e+00	0	43	0	1669332992	7	4005
2026-01-14 00:58:07.61	85.81	25.49	-23.5	-24.5	19.3	0.00e+00	0	43	0	1675624448	7	4056
2026-01-14 00:58:08.61	86.11	25.50	-23.6	-24.8	19.2	0.00e+00	0	43	0	1680867328	7	4108
2026-01-14 00:58:09.61	86.40	25.51	-23.5	-24.6	19.2	0.00e+00	0	43	0	1686110208	7	4068
2026-01-14 00:58:10.62	86.71	25.52	-23.4	-24.4	19.3	0.00e+00	0	43	0	1692401664	7	4019
2026-01-14 00:58:11.61	87.00	25.53	-23.5	-24.6	19.3	0.00e+00	0	43	0	1697644544	7	4058
2026-01-14 00:58:12.62	87.30	25.54	-23.5	-24.6	19.3	0.00e+00	0	43	0	1702887424	7	4063
2026-01-14 00:58:13.63	87.60	25.55	-23.5	-24.5	19.3	0.00e+00	0	43	0	1709178880	7	4046
2026-01-14 00:58:14.63	87.90	25.55	-23.5	-24.6	19.3	0.00e+00	0	43	0	1714421760	7	4066
2026-01-14 00:58:15.63	88.20	25.56	-23.7	-24.9	19.1	0.00e+00	0	43	0	1720713216	7	4142
2026-01-14 00:58:16.64	88.50	25.56	-23.6	-24.6	19.2	0.00e+00	0	43	0	1725956096	7	4072
2026-01-14 00:58:17.64	88.80	25.57	-23.4	-24.3	19.4	0.00e+00	0	43	0	1731198976	7	4002
2026-01-14 00:58:18.64	89.10	25.57	-23.4	-24.3	19.4	0.00e+00	0	43	0	1737490432	7	3988
2026-01-14 00:58:19.65	89.41	25.57	-23.4	-24.4	19.4	0.00e+00	0	43	0	1742733312	7	4011
2026-01-14 00:58:20.66	89.71	25.57	-23.4	-24.4	19.4	0.00e+00	0	43	0	1749024768	7	4011
2026-01-14 00:58:21.67	90.01	25.57	-23.4	-24.4	19.4	0.00e+00	0	43	0	1754267648	7	4011
2026-01-14 00:58:22.68	90.31	25.57	-23.6	-24.6	19.2	0.00e+00	0	43	0	1759510528	7	4073
2026-01-14 00:58:23.68	90.61	25.57	-23.5	-24.5	19.3	0.00e+00	0	43	0	1765801984	7	4031
2026-01-14 00:58:24.69	90.91	25.57	-23.3	-24.2	19.5	0.00e+00	0	43	0	1771044864	7	3962
2026-01-14 00:58:25.68	91.21	25.57	-23.3	-24.2	19.4	0.00e+00	0	43	0	1776287744	7	3970
2026-01-14 00:58:26.68	91.51	25.56	-23.3	-24.1	19.5	0.00e+00	0	43	0	1782579200	7	3950
2026-01-14 00:58:27.69	91.81	25.56	-23.3	-24.2	19.4	0.00e+00	0	43	0	1787822080	7	3962
2026-01-14 00:58:28.68	92.11	25.55	-23.3	-24.0	19.6	0.00e+00	0	43	0	1794113536	7	3920
2026-01-14 00:58:29.69	92.41	25.55	-23.3	-24.0	19.3	0.00e+00	0	43	0	1799356416	7	3920
2026-01-14 00:58:30.69	92.71	25.54	-23.3	-24.0	19.6	0.00e+00	0	43	0	1804599296	7	3927
2026-01-14 00:58:31.68	93.00	25.53	-23.3	-24.1	19.5	0.00e+00	0	43	0	1810890752	7	3935
2026-01-14 00:58:32.69	93.31	25.52	-23.4	-24.2	19.4	0.00e+00	0	43	0	1816133632	7	3966
2026-01-14 00:58:33.70	93.61	25.51	-23.4	-24.2	19.4	3.31e-05	0	43	0	1821376512	7	3976
2026-01-14 00:58:34.70	93.91	25.50	-23.5	-24.6	19.2	0.00e+00	0	43	0	1827667968	7	4057
2026-01-14 00:58:35.69	94.20	25.49	-23.6	-24.7	19.2	0.00e+00	0	43	0	1832910848	7	4079
2026-01-14 00:58:36.69	94.50	25.48	-23.6	-24.6	19.2	0.00e+00	0	43	0	1838153728	7	4063
2026-01-14 00:58:37.69	94.80	25.47	-23.6	-24.6	19.2	0.00e+00	0	43	0	1844445184	7	4068
2026-01-14 00:58:38.70	95.10	25.45	-23.6	-24.7	19.2	0.00e+00	0	43	0	1849688064	7	4093
2026-01-14 00:58:39.71	95.40	25.44	-23.7	-24.9	19.1	0.00e+00	0	43	0	1855979520	7	4146
2026-01-14 00:58:40.70	95.69	25.43	-23.7	-24.8	19.1	0.00e+00	0	43	0	1861222400	7	4121
2026-01-14 00:58:41.71	95.99	25.41	-23.7	-25.0	19.0	0.00e+00	0	43	0	1867513856	7	4172
2026-01-14 00:58:42.71	96.29	25.39	-23.6	-24.7	19.2	0.00e+00	0	43	0	1872756736	7	4086
2026-01-14 00:58:43.72	96.59	25.37	-23.4	-24.2	19.4	0.00e+00	0	43	0	1877999616	7	3973
2026-01-14 00:58:44.73	96.89	25.36	-23.3	-24.1	19.5	0.00e+00	0	43	0	1884291072	7	3938
2026-01-14 00:58:45.73	97.18	25.34	-23.3	-24.1	19.5	0.00e+00	0	43	0	1889533952	7	3955
2026-01-14 00:58:46.74	97.48	25.32	-23.3	-24.1	19.5	0.00e+00	0	43	0	1894776832	7	3950
2026-01-14 00:58:47.74	97.77	25.30	-23.3	-24.1	19.5	0.00e+00	0	43	0	1901068288	7	3938
2026-01-14 00:58:48.75	98.07	25.28	-23.3	-24.1	19.5	0.00e+00	0	43	0	1906311168	7	3938
2026-01-14 00:58:49.74	98.36	25.25	-23.3	-24.2	19.4	0.00e+00	0	43	0	1911554048	7	3958
2026-01-14 00:58:50.74	98.66	25.23	-23.3	-24.1	19.5	6.80e-06	0	43	0	1917845504	7	3944
2026-01-14 00:58:51.74	98.95	25.21	-23.4	-24.2	19.4	2.05e-05	0	43	0	1923088384	7	3974
2026-01-14 00:58:52.74	99.24	25.18	-23.4	-24.3	19.4	0.00e+00	0	43	0	1929379840	7	3985
2026-01-14 00:58:53.75	99.54	25.16	-23.5	-24.5	19.3	0.00e+00	0	43	0	1934622720	7	4035
2026-01-14 00:58:54.75	99.83	25.13	-23.6	-24.8	19.2	1.25e-05	0	43	0	1939865600	7	4110
2026-01-14 00:58:55.76	100.12	25.11	-23.7	-24.9	19.0	0.00e+00	0	43	0	1946157056	7	4152
2026-01-14 00:58:56.76	100.41	25.08	-23.8	-25.2	18.9	7.09e-05	0	43	0	1951399936	7	4208
2026-01-14 00:58:57.77	100.71	25.05	-23.8	-25.2	18.9	3.31e-05	0	43	0	1957691392	7	4221
2026-01-14 00:58:58.77	101.00	25.02	-23.8	-25.2	18.9	0.00e+00	0	43	0	1962934272	7	4210
2026-01-14 00:58:59.77	101.29	24.99	-23.9	-25.3	18.9	2.63e-05	0	43	0	1968177152	7	4251
2026-01-14 00:59:00.78	101.58	24.96	-23.7	-25.0	19.0	9.26e-05	0	43	0	1974468608	7	4156
2026-01-14 00:59:01.78	101.87	24.93	-23.7	-25.0	19.0	0.00e+00	0	43	0	1979711488	7	4162
2026-01-14 00:59:02.79	102.16	24.90	-23.6	-24.8	19.1	0.00e+00	0	43	0	1984954368	7	4111
2026-01-14 00:59:03.79	102.44	24.87	-23.5	-24.6	19.2	9.15e-05	0	43	0	1991245824	7	4066
2026-01-14 00:59:04.79	102.73	24.83	-23.6	-24.8	19.1	0.00e+00	0	43	0	1996488704	7	4113
2026-01-14 00:59:05.79	103.02	24.80	-23.7	-24.9	19.1	9.38e-05	0	43	0	2002780160	7	4140
2026-01-14 00:59:06.80	103.30	24.76	-23.7	-25.0	19.0	8.58e-05	0	43	0	2008023040	7	4174
2026-01-14 00:59:07.80	103.59	24.73	-23.9	-25.3	18.9	0.00e+00	0	43	0	2013265920	7	4242
2026-01-14 00:59:08.81	103.88	24.69	-23.7	-25.0	19.0	1.67e-04	0	43	0	2019557376	7	4157
2026-01-14 00:59:09.81	104.16	24.66	-23.6	-24.7	19.1	0.00e+00	0	43	0	2024800256	7	4094
2026-01-14 00:59:10.81	104.44	24.62	-23.6	-24.8	19.1	0.00e+00	0	43	0	2031091712	7	4118
2026-01-14 00:59:11.81	104.72	24.58	-23.6	-24.8	19.1	0.00e+00	0	43	0	2036334592	7	4125
2026-01-14 00:59:12.81	105.01	24.54	-23.6	-24.8	19.1	1.76e-04	0	43	0	2041577472	7	4132
2026-01-14 00:59:13.81	105.29	24.50	-23.6	-24.7	19.1	0.00e+00	0	43	0	2047868928	7	4097
2026-01-14 00:59:14.81	105.57	24.46	-23.6	-24.7	19.2	0.00e+00	0	43	0	2053111808	7	4086
2026-01-14 00:59:15.81	105.85	24.42	-23.7	-24.9	19.0	2.66e-04	0	43	0	2058354688	7	4150
2026-01-14 00:59:16.81	106.12	24.38	-23.6	-24.7	19.2	0.00e+00	0	43	0	2064646144	7	4087
2026-01-14 00:59:17.82	106.41	24.34	-23.5	-24.6	19.2	2.04e-04	0	43	0	2069889024	7	4061
2026-01-14 00:59:18.83	106.69	24.30	-23.6	-24.7	19.2	0.00e+00	0	43	0	2076180480	7	4084
2026-01-14 00:59:19.83	106.96	24.25	-23.7	-24.9	19.1	0.00e+00	0	43	0	2081423360	7	4129
2026-01-14 00:59:20.84	107.24	24.21	-23.7	-24.9	19.1	0.00e+00	0	43	0	2086666240	7	4141
2026-01-14 00:59:21.84	107.52	24.16	-23.8	-25.2	18.9	0.00e+00	0	43	0	2092957696	7	4207
2026-01-14 00:59:22.85	107.79	24.12	-23.8	-25.2	18.9	0.00e+00	0	43	0	2098200576	7	4225
2026-01-14 00:59:23.86	108.07	24.07	-23.9	-25.3	18.8	0.00e+00	0	43	0	2104492032	7	4256
2026-01-14 00:59:24.86	108.34	24.03	-24.1	-25.2	18.7	0.00e+00	0	43	0	2109734912	8	4108
2026-01-14 00:59:25.86	108.61	23.98	-24.3	-25.8	18.4	0.00e+00	0	43	0	2114977792	8	4257
2026-01-14 00:59:26.86	108.88	23.93	-24.4	-26.0	18.3	0.00e+00	0	43	0	2121269248	8	4298
2026-01-14 00:59:27.86	109.15	23.89	-24.4	-26.0	18.3	0.00e+00	0	43	0	2126512128	8	4296
2026-01-14 00:59:28.86	109.42	23.84	-24.5	-26.1	18.2	0.00e+00	0	43	0	2131755008	8	4323
2026-01-14 00:59:29.87	109.70	23.79	-24.5	-25.6	18.2	0.00e+00	0	43	0	2138046464	9	4097
2026-01-14 00:59:30.87	109.96	23.74	-24.5	-25.7	18.1	0.00e+00	0	43	0	2143289344	9	4131
2026-01-14 00:59:31.87	110.23	23.69	-24.6	-25.8	18.1	0.00e+00	0	43	0	2149580800	9	4137
2026-01-14 00:59:32.87	110.50	23.64	-24.9	-26.5	17.8	0.00e+00	0	43	0	2154823680	9	4326
2026-01-14 00:59:33.87	110.76	23.59	-24.6	-25.3	18.1	0.00e+00	0	43	0	2160066560	10	3909
2026-01-14 00:59:34.87	111.03	23.54	-24.2	-24.9	18.5	0.00e+00	0	43	0	2166358016	9	3925
2026-01-14 00:59:35.87	111.29	23.48	-23.9	-24.5	18.8	0.00e+00	0	43	0	2171600896	9	3821
2026-01-14 00:59:36.87	111.55	23.43	-23.9	-24.4	18.8	0.00e+00	0	43	0	2176843776	9	3805
2026-01-14 00:59:37.87	111.82	23.38	-24.0	-24.6	18.7	0.00e+00	0	43	0	2183135232	9	3843
2026-01-14 00:59:38.87	112.08	23.32	-24.0	-24.5	18.7	0.00e+00	0	43	0	2188378112	9	3835
2026-01-14 00:59:39.87	112.34	23.27	-24.0	-24.6	18.7	0.00e+00	0	43	0	2193620992	9	3846
2026-01-14 00:59:40.87	112.60	23.22	-23.9	-24.4	18.8	0.00e+00	0	43	0	2199912448	9	3801
2026-01-14 00:59:41.87	112.86	23.16	-23.9	-24.4	18.8	0.00e+00	0	43	0	2205155328	9	3799
2026-01-14 00:59:42.87	113.11	23.10	-23.9	-24.4	18.8	0.00e+00	0	43	0	2211446784	9	3803
2026-01-14 00:59:43.88	113.37	23.05	-24.1	-24.7	18.6	0.00e+00	0	43	0	2216689664	9	3874
2026-01-14 00:59:44.88	113.63	22.99	-24.1	-24.8	18.6	0.00e+00	0	43	0	2221932544	9	3911
2026-01-14 00:59:45.88	113.88	22.93	-24.3	-25.3	18.4	0.00e+00	0	43	0	2228224000	9	4011
2026-01-14 00:59:46.88	114.14	22.88	-24.4	-25.5	18.2	0.00e+00	0	43	0	2233466880	9	4066
2026-01-14 00:59:47.89	114.39	22.82	-24.4	-25.4	18.2	0.00e+00	0	43	0	2238709760	9	4048
2026-01-14 00:59:48.88	114.64	22.76	-24.4	-25.4	18.2	0.00e+00	0	43	0	2245001216	9	4055
2026-01-14 00:59:49.89	114.90	22.70	-24.5	-25.7	18.1	0.00e+00	0	43	0	2250244096	9	4128
2026-01-14 00:59:50.89	115.15	22.64	-24.3	-25.2	18.4	0.00e+00	0	43	0	2255486976	9	4009
2026-01-14 00:59:51.89	115.40	22.58	-24.2	-24.9	18.5	0.00e+00	0	43	0	2261778432	9	3920
2026-01-14 00:59:52.89	115.64	22.52	-24.1	-24.8	18.6	0.00e+00	0	43	0	2267021312	9	3896
2026-01-14 00:59:53.89	115.89	22.46	-24.2	-25.1	18.4	0.00e+00	0	43	0	2273312768	9	3955
2026-01-14 00:59:54.89	116.14	22.40	-24.2	-25.0	18.5	0.00e+00	0	43	0	2278555648	9	3936
2026-01-14 00:59:55.90	116.39	22.34	-24.4	-25.5	18.2	0.00e+00	0	43	0	2283798528	9	4065
2026-01-14 00:59:56.90	116.63	22.28	-24.5	-25.7	18.1	0.00e+00	0	43	0	2290089984	9	4117
2026-01-14 00:59:57.90	116.87	22.22	-24.7	-26.2	17.8	0.00e+00	0	43	0	2295332864	9	4243
2026-01-14 00:59:58.91	117.12	22.15	-24.7	-26.1	17.8	0.00e+00	0	43	0	2301624320	9	4239
2026-01-14 00:59:59.91	117.36	22.09	-24.9	-26.5	17.6	0.00e+00	0	43	0	2306867200	9	4326
2026-01-14 01:00:00.91	117.60	22.03	-24.8	-26.2	17.7	0.00e+00	0	43	0	2312110080	9	4263
2026-01-14 01:00:01.92	117.84	21.96	-24.7	-26.1	17.8	0.00e+00	0	43	0	2318401536	9	4224
2026-01-14 01:00:02.92	118.08	21.90	-24.7	-26.2	17.8	0.00e+00	0	43	0	2323644416	9	4249
2026-01-14 01:00:03.92	118.32	21.84	-24.7	-26.0	17.9	0.00e+00	0	43	0	2328887296	9	4197
2026-01-14 01:00:04.92	118.56	21.77	-24.6	-25.8	17.9	0.00e+00	0	43	0	2335178752	9	4156
2026-01-14 01:00:05.92	118.79	21.71	-24.7	-26.0	17.9	0.00e+00	0	43	0	2340421632	9	4201
2026-01-14 01:00:06.93	119.03	21.64	-24.6	-25.8	18.0	0.00e+00	0	43	0	2346713088	9	4146
2026-01-14 01:00:07.93	119.27	21.58	-24.5	-25.6	18.1	0.00e+00	0	43	0	2351955968	9	4093
2026-01-14 01:00:08.93	119.50	21.51	-24.5	-25.6	18.1	0.00e+00	0	43	0	2357198848	9	4107
2026-01-14 01:00:09.93	119.73	21.45	-24.5	-25.6	18.1	0.00e+00	0	43	0	2363490304	9	4095
2026-01-14 01:00:10.94	119.97	21.38	-24.5	-25.7	18.0	0.00e+00	0	43	0	2368733184	9	4135
2026-01-14 01:00:11.95	120.20	21.31	-24.6	-25.8	18.0	0.00e+00	0	43	0	2373976064	9	4142
2026-01-14 01:00:12.95	120.43	21.24	-24.6	-25.8	18.0	0.00e+00	0	43	0	2380267520	9	4148
2026-01-14 01:00:13.95	120.66	21.18	-24.5	-25.6	18.1	0.00e+00	0	43	0	2385510400	9	4089
2026-01-14 01:00:14.95	120.88	21.11	-24.4	-25.3	18.2	0.00e+00	0	43	0	2390753280	9	4025
2026-01-14 01:00:15.95	121.11	21.04	-24.4	-25.4	18.2	0.00e+00	0	43	0	2397044736	9	4048
2026-01-14 01:00:16.95	121.34	20.97	-24.3	-25.1	18.3	0.00e+00	0	43	0	2402287616	9	3973
2026-01-14 01:00:17.96	121.56	20.91	-24.3	-25.1	18.4	0.00e+00	0	43	0	2408579072	9	3975
2026-01-14 01:00:18.96	121.79	20.84	-24.4	-25.4	18.2	0.00e+00	0	43	0	2413821952	9	4054
2026-01-14 01:00:19.96	122.01	20.77	-24.5	-25.7	18.0	5.83e-05	0	43	0	2420113408	9	4121
2026-01-14 01:00:20.96	122.23	20.70	-24.6	-25.9	17.9	0.00e+00	0	43	0	2425356288	9	4180
2026-01-14 01:00:21.97	122.45	20.63	-24.6	-25.8	17.9	0.00e+00	0	43	0	2430599168	9	4163
2026-01-14 01:00:22.97	122.67	20.56	-24.6	-25.9	17.9	0.00e+00	0	43	0	2436890624	9	4171
2026-01-14 01:00:23.97	122.89	20.49	-24.8	-26.2	17.8	0.00e+00	0	43	0	2442133504	9	4243
2026-01-14 01:00:24.97	123.11	20.42	-24.7	-26.0	17.9	0.00e+00	0	43	0	2447376384	9	4185
2026-01-14 01:00:25.97	123.33	20.35	-24.7	-26.0	17.8	0.00e+00	0	43	0	2453667840	9	4202
2026-01-14 01:00:26.97	123.54	20.28	-24.8	-26.3	17.7	2.17e-05	0	43	0	2458910720	9	4268
2026-01-14 01:00:27.97	123.76	20.21	-24.8	-26.4	17.6	0.00e+00	0	43	0	2464153600	9	4305
2026-01-14 01:00:28.98	123.97	20.14	-24.9	-26.5	17.6	0.00e+00	0	43	0	2470445056	9	4330
2026-01-14 01:00:29.98	124.18	20.07	-24.9	-26.6	17.5	0.00e+00	0	43	0	2475687936	9	4345
2026-01-14 01:00:30.98	124.40	20.00	-24.9	-26.6	17.5	0.00e+00	0	43	0	2481979392	9	4358
2026-01-14 01:00:31.99	124.61	19.93	-25.0	-26.3	17.4	1.42e-04	0	43	0	2487222272	10	4171
2026-01-14 01:00:32.99	124.82	19.85	-25.2	-26.7	17.2	0.00e+00	0	43	0	2492465152	10	4265
2026-01-14 01:00:33.99	125.03	19.78	-25.1	-26.5	17.3	0.00e+00	0	43	0	2498756608	10	4208
2026-01-14 01:00:34.99	125.24	19.71	-25.3	-26.8	17.2	0.00e+00	0	43	0	2503999488	10	4298
2026-01-14 01:00:36.00	125.45	19.64	-25.1	-26.4	17.4	0.00e+00	0	43	0	2509242368	10	4186
2026-01-14 01:00:37.00	125.65	19.57	-25.0	-26.2	17.5	0.00e+00	0	43	0	2515533824	10	4129
2026-01-14 01:00:38.00	125.86	19.49	-24.9	-26.1	17.5	0.00e+00	0	43	0	2520776704	10	4112
2026-01-14 01:00:39.00	126.06	19.42	-25.0	-26.2	17.5	0.00e+00	0	43	0	2526019584	10	4137
2026-01-14 01:00:40.00	126.27	19.35	-24.8	-25.7	17.8	0.00e+00	0	43	0	2532311040	10	4006
2026-01-14 01:00:41.00	126.47	19.28	-24.7	-25.5	17.8	0.00e+00	0	43	0	2537553920	10	3965
2026-01-14 01:00:42.01	126.67	19.20	-24.7	-25.6	17.8	0.00e+00	0	43	0	2543845376	10	3980
2026-01-14 01:00:43.01	126.87	19.13	-24.9	-26.0	17.6	2.63e-05	0	43	0	2549088256	10	4087
2026-01-14 01:00:44.02	127.07	19.06	-24.9	-25.9	17.6	0.00e+00	0	43	0	2555379712	10	4052
2026-01-14 01:00:45.03	127.27	18.98	-25.2	-26.6	17.3	1.83e-05	0	43	0	2560622592	10	4228
2026-01-14 01:00:46.03	127.47	18.91	-25.1	-26.5	17.3	0.00e+00	0	43	0	2565865472	10	4214
2026-01-14 01:00:47.04	127.67	18.84	-25.4	-27.1	16.9	0.00e+00	0	43	0	2572156928	10	4384
2026-01-14 01:00:48.04	127.87	18.76	-25.3	-26.9	17.0	2.43e-04	0	43	0	2577399808	10	4335
2026-01-14 01:00:49.04	128.06	18.69	-25.5	-26.9	16.8	0.00e+00	0	43	0	2582642688	11	4206
2026-01-14 01:00:50.04	128.26	18.62	-25.3	-26.5	17.0	2.13e-04	0	43	0	2588934144	11	4107
2026-01-14 01:00:51.04	128.45	18.54	-25.2	-26.2	17.2	1.04e-04	0	43	0	2594177024	11	4020
2026-01-14 01:00:52.05	128.64	18.47	-25.2	-26.2	17.1	0.00e+00	0	43	0	2599419904	11	4025
2026-01-14 01:00:53.05	128.83	18.39	-25.2	-26.1	17.2	3.54e-05	0	43	0	2605711360	11	3996
2026-01-14 01:00:54.05	129.03	18.32	-25.3	-26.4	17.0	5.49e-05	0	43	0	2610954240	11	4067
2026-01-14 01:00:55.05	129.21	18.24	-25.4	-26.5	17.0	0.00e+00	0	43	0	2617245696	11	4105
2026-01-14 01:00:56.04	129.40	18.17	-25.5	-26.7	16.8	1.98e-04	0	43	0	2622488576	11	4165
2026-01-14 01:00:57.05	129.59	18.10	-25.7	-27.2	16.6	2.80e-04	0	43	0	2627731456	11	4298
2026-01-14 01:00:58.05	129.78	18.02	-25.6	-27.0	16.7	0.00e+00	0	43	0	2634022912	11	4227
2026-01-14 01:00:59.06	129.97	17.95	-25.5	-26.7	16.8	0.00e+00	0	43	0	2639265792	11	4165
2026-01-14 01:01:00.06	130.15	17.87	-25.5	-26.8	16.8	8.58e-05	0	43	0	2645557248	11	4173
2026-01-14 01:01:01.06	130.34	17.80	-25.4	-26.6	16.9	0.00e+00	0	43	0	2650800128	11	4120
2026-01-14 01:01:02.07	130.52	17.72	-25.4	-26.7	16.9	7.43e-05	0	43	0	2656043008	11	4148
2026-01-14 01:01:03.07	130.70	17.65	-25.4	-26.7	16.9	0.00e+00	0	43	0	2662334464	11	4150
2026-01-14 01:01:04.07	130.88	17.57	-25.6	-27.1	16.6	0.00e+00	0	43	0	2667577344	11	4265
2026-01-14 01:01:05.08	131.07	17.50	-25.5	-26.9	16.7	1.27e-04	0	43	0	2672820224	11	4211
2026-01-14 01:01:06.08	131.25	17.42	-25.5	-26.9	16.7	0.00e+00	0	43	0	2679111680	11	4203
2026-01-14 01:01:07.08	131.43	17.35	-25.6	-27.1	16.6	0.00e+00	0	43	0	2684354560	11	4256
2026-01-14 01:01:08.09	131.61	17.27	-25.5	-26.8	16.7	0.00e+00	0	43	0	2690646016	11	4193
2026-01-14 01:01:09.09	131.78	17.20	-25.6	-27.0	16.6	5.38e-04	0	43	0	2695888896	11	4243
2026-01-14 01:01:10.10	131.96	17.12	-25.6	-27.0	16.6	0.00e+00	0	43	0	2701131776	11	4236
2026-01-14 01:01:11.10	132.14	17.05	-25.7	-27.2	16.5	0.00e+00	0	43	0	2707423232	11	4297
2026-01-14 01:01:12.10	132.31	16.97	-25.7	-27.2	16.5	3.36e-04	0	43	0	2712666112	11	4282
2026-01-14 01:01:13.10	132.48	16.90	-25.7	-27.3	16.5	0.00e+00	0	43	0	2717908992	11	4312
2026-01-14 01:01:14.10	132.66	16.82	-25.6	-27.1	16.5	2.20e-04	0	43	0	2724200448	11	4273
2026-01-14 01:01:15.10	132.83	16.75	-25.7	-27.3	16.5	0.00e+00	0	43	0	2729443328	11	4311
2026-01-14 01:01:16.11	133.00	16.67	-25.8	-27.5	16.3	0.00e+00	0	43	0	2735734784	11	4383
2026-01-14 01:01:17.12	133.18	16.60	-25.8	-27.4	16.4	0.00e+00	0	43	0	2740977664	11	4357
2026-01-14 01:01:18.12	133.34	16.52	-25.8	-27.4	16.4	0.00e+00	0	43	0	2746220544	11	4335
2026-01-14 01:01:19.12	133.51	16.45	-25.8	-27.5	16.3	0.00e+00	0	43	0	2752512000	11	4362
2026-01-14 01:01:20.12	133.68	16.37	-26.0	-27.8	16.1	0.00e+00	0	43	0	2757754880	11	4466
2026-01-14 01:01:21.13	133.85	16.30	-26.0	-27.8	16.1	2.92e-04	0	43	0	2764046336	11	4451
2026-01-14 01:01:22.13	134.02	16.22	-26.1	-27.6	15.9	0.00e+00	0	43	0	2769289216	12	4273
2026-01-14 01:01:23.13	134.18	16.15	-26.4	-28.3	15.5	0.00e+00	0	43	0	2774532096	12	4466
2026-01-14 01:01:24.13	134.35	16.07	-26.2	-27.8	15.8	0.00e+00	0	43	0	2780823552	12	4339
2026-01-14 01:01:25.12	134.51	16.00	-26.0	-27.5	15.9	0.00e+00	0	43	0	2786066432	12	4259
2026-01-14 01:01:26.13	134.67	15.92	-25.9	-27.3	16.0	1.10e-06	0	43	0	2791309312	12	4204
2026-01-14 01:01:27.13	134.84	15.84	-25.9	-27.2	16.1	0.00e+00	0	43	0	2797600768	12	4196
2026-01-14 01:01:28.13	135.00	15.77	-25.8	-27.1	16.2	0.00e+00	0	43	0	2802843648	12	4154
2026-01-14 01:01:29.14	135.16	15.69	-26.0	-27.5	15.9	0.00e+00	0	43	0	2809135104	12	4258
2026-01-14 01:01:30.14	135.32	15.62	-25.8	-26.9	16.2	0.00e+00	0	43	0	2814377984	12	4103
2026-01-14 01:01:31.14	135.48	15.54	-25.7	-26.7	16.3	0.00e+00	0	43	0	2819620864	12	4067
2026-01-14 01:01:32.15	135.64	15.47	-25.7	-26.7	16.3	8.00e-06	0	43	0	2825912320	12	4063
2026-01-14 01:01:33.15	135.80	15.39	-25.8	-27.1	16.1	0.00e+00	0	43	0	2831155200	12	4149
2026-01-14 01:01:34.16	135.96	15.32	-25.8	-27.0	16.2	3.40e-06	0	43	0	2837446656	12	4140
2026-01-14 01:01:35.16	136.11	15.24	-25.9	-27.3	16.0	0.00e+00	0	43	0	2842689536	12	4202
2026-01-14 01:01:36.16	136.27	15.17	-26.0	-27.4	15.9	1.10e-06	0	43	0	2847932416	12	4239
2026-01-14 01:01:37.16	136.42	15.09	-26.0	-27.4	15.9	0.00e+00	0	43	0	2854223872	12	4251
2026-01-14 01:01:38.16	136.58	15.02	-26.0	-27.5	15.9	1.10e-06	0	43	0	2859466752	12	4269
2026-01-14 01:01:39.16	136.73	14.94	-25.9	-27.3	16.0	0.00e+00	0	43	0	2864709632	12	4223
2026-01-14 01:01:40.17	136.88	14.87	-26.0	-27.4	15.9	0.00e+00	0	43	0	2871001088	12	4240
2026-01-14 01:01:41.17	137.04	14.79	-26.0	-27.4	15.9	0.00e+00	0	43	0	2876243968	12	4254
2026-01-14 01:01:42.17	137.19	14.72	-26.1	-27.8	15.7	0.00e+00	0	43	0	2882535424	12	4355
2026-01-14 01:01:43.18	137.34	14.65	-26.1	-27.6	15.8	0.00e+00	0	43	0	2887778304	12	4303
2026-01-14 01:01:44.18	137.49	14.57	-26.0	-27.5	15.8	0.00e+00	0	43	0	2893021184	12	4278
2026-01-14 01:01:45.18	137.64	14.50	-26.1	-27.8	15.6	0.00e+00	0	43	0	2899312640	12	4348
2026-01-14 01:01:46.18	137.78	14.42	-26.2	-27.9	15.6	0.00e+00	0	43	0	2904555520	12	4376
2026-01-14 01:01:47.19	137.93	14.35	-26.1	-27.8	15.7	0.00e+00	0	43	0	2909798400	12	4340
2026-01-14 01:01:48.19	138.08	14.27	-26.2	-27.9	15.6	0.00e+00	0	43	0	2916089856	12	4395
2026-01-14 01:01:49.19	138.23	14.20	-26.2	-27.9	15.6	0.00e+00	0	43	0	2921332736	12	4370
2026-01-14 01:01:50.20	138.37	14.12	-26.2	-27.8	15.6	3.40e-06	0	43	0	2926575616	12	4356
2026-01-14 01:01:51.20	138.52	14.05	-26.3	-28.1	15.4	0.00e+00	0	43	0	2932867072	12	4441
2026-01-14 01:01:52.21	138.66	13.97	-26.3	-28.1	15.5	0.00e+00	0	43	0	2938109952	12	4431
2026-01-14 01:01:53.22	138.81	13.90	-26.4	-28.3	15.3	0.00e+00	0	43	0	2944401408	12	4495
2026-01-14 01:01:54.22	138.95	13.83	-26.5	-28.1	15.2	0.00e+00	0	43	0	2949644288	13	4317
2026-01-14 01:01:55.23	139.09	13.75	-26.4	-27.9	15.3	0.00e+00	0	43	0	2955935744	13	4262
2026-01-14 01:01:56.23	139.23	13.68	-26.4	-27.9	15.3	0.00e+00	0	43	0	2961178624	13	4268
2026-01-14 01:01:57.23	139.37	13.60	-26.5	-28.0	15.2	0.00e+00	0	43	0	2966421504	13	4288
2026-01-14 01:01:58.23	139.51	13.53	-26.6	-28.3	15.0	0.00e+00	0	43	0	2972712960	13	4388
2026-01-14 01:01:59.23	139.65	13.46	-26.5	-28.1	15.2	0.00e+00	0	43	0	2977955840	13	4316
2026-01-14 01:02:00.23	139.79	13.38	-26.4	-28.3	15.3	0.00e+00	0	43	0	2983198720	12	4506
2026-01-14 01:02:01.22	139.93	13.31	-26.5	-28.6	15.1	0.00e+00	0	43	0	2989490176	12	4576
2026-01-14 01:02:02.22	140.06	13.24	-26.6	-28.3	15.0	0.00e+00	0	43	0	2994733056	13	4386
2026-01-14 01:02:03.23	140.20	13.16	-26.7	-28.7	14.8	0.00e+00	0	43	0	2999975936	13	4490
2026-01-14 01:02:04.23	140.34	13.09	-26.5	-28.2	15.0	0.00e+00	0	43	0	3006267392	13	4356
2026-01-14 01:02:05.23	140.47	13.02	-26.4	-28.0	15.1	0.00e+00	0	43	0	3011510272	13	4304
2026-01-14 01:02:06.24	140.61	12.94	-26.4	-28.4	15.2	0.00e+00	0	43	0	3017801728	12	4529
2026-01-14 01:02:07.24	140.74	12.87	-26.4	-28.4	15.2	0.00e+00	0	43	0	3023044608	12	4532
2026-01-14 01:02:08.24	140.87	12.80	-26.3	-28.2	15.2	0.00e+00	0	43	0	3028287488	12	4489
2026-01-14 01:02:09.24	141.01	12.73	-26.3	-28.2	15.2	0.00e+00	0	43	0	3034578944	12	4486
2026-01-14 01:02:10.25	141.14	12.65	-26.3	-28.2	15.2	0.00e+00	0	43	0	3039821824	12	4473
2026-01-14 01:02:11.25	141.27	12.58	-26.3	-28.3	15.2	0.00e+00	0	43	0	3045064704	12	4486
2026-01-14 01:02:12.25	141.40	12.51	-26.2	-28.0	15.3	0.00e+00	0	43	0	3051356160	12	4421
2026-01-14 01:02:13.25	141.53	12.43	-26.3	-28.2	15.2	0.00e+00	0	43	0	3056599040	12	4462
2026-01-14 01:02:14.26	141.66	12.36	-26.3	-28.2	15.2	1.10e-06	0	43	0	3062890496	12	4464
2026-01-14 01:02:15.26	141.79	12.29	-26.4	-28.4	15.1	1.10e-06	0	43	0	3068133376	12	4542
2026-01-14 01:02:16.27	141.92	12.22	-26.3	-28.2	15.2	0.00e+00	0	43	0	3073376256	12	4465
2026-01-14 01:02:17.27	142.05	12.14	-26.4	-28.5	15.0	0.00e+00	0	43	0	3079667712	12	4548
2026-01-14 01:02:18.27	142.18	12.07	-26.4	-28.4	15.1	0.00e+00	0	43	0	3084910592	12	4525
2026-01-14 01:02:19.28	142.30	12.00	-26.5	-28.5	14.9	0.00e+00	0	43	0	3091202048	12	4570
2026-01-14 01:02:20.27	142.43	11.93	-26.5	-28.2	14.9	7.21e-04	0	43	0	3096444928	13	4348
2026-01-14 01:02:21.28	142.55	11.86	-26.7	-28.5	14.7	0.00e+00	0	43	0	3101687808	13	4434
2026-01-14 01:02:22.29	142.68	11.78	-26.7	-28.5	14.7	0.00e+00	0	43	0	3107979264	13	4444
2026-01-14 01:02:23.29	142.80	11.71	-26.6	-28.4	14.7	3.58e-04	0	43	0	3113222144	13	4432
2026-01-14 01:02:24.29	142.93	11.64	-26.8	-28.9	14.4	0.00e+00	0	43	0	3118465024	13	4557
2026-01-14 01:02:25.28	143.05	11.57	-26.9	-29.0	14.3	8.51e-04	0	43	0	3124756480	13	4605
2026-01-14 01:02:26.29	143.17	11.50	-26.7	-28.6	14.6	0.00e+00	0	43	0	3129999360	13	4484
2026-01-14 01:02:27.29	143.29	11.43	-26.7	-28.5	14.6	0.00e+00	0	43	0	3135242240	13	4450
2026-01-14 01:02:28.28	143.41	11.36	-26.8	-28.7	14.5	0.00e+00	0	43	0	3141533696	13	4515
2026-01-14 01:02:29.28	143.53	11.29	-26.9	-29.0	14.4	0.00e+00	0	43	0	3146776576	13	4597
2026-01-14 01:02:30.28	143.65	11.21	-26.7	-28.6	14.5	0.00e+00	0	43	0	3153068032	13	4483
2026-01-14 01:02:31.29	143.77	11.14	-26.7	-28.7	14.5	1.10e-06	0	43	0	3158310912	13	4494
2026-01-14 01:02:32.29	143.89	11.07	-26.8	-28.9	14.4	4.19e-04	0	43	0	3163553792	13	4562
2026-01-14 01:02:33.29	144.01	11.00	-26.9	-28.9	14.4	1.10e-06	0	43	0	3169845248	13	4575
2026-01-14 01:02:34.30	144.13	10.93	-26.9	-29.1	14.3	9.60e-04	0	43	0	3175088128	13	4605
2026-01-14 01:02:35.30	144.25	10.86	-26.8	-28.9	14.4	1.02e-03	0	43	0	3180331008	13	4569
2026-01-14 01:02:36.30	144.36	10.79	-26.9	-29.0	14.3	0.00e+00	0	43	0	3186622464	13	4610
2026-01-14 01:02:37.31	144.48	10.72	-26.9	-29.1	14.2	1.03e-03	0	43	0	3191865344	13	4640
2026-01-14 01:02:38.31	144.60	10.65	-27.0	-28.9	14.1	1.09e-03	0	43	0	3198156800	14	4443
2026-01-14 01:02:39.30	144.71	10.58	-27.1	-29.0	14.0	2.20e-06	0	43	0	3203399680	14	4492
2026-01-14 01:02:40.30	144.83	10.51	-27.1	-29.0	14.0	4.50e-06	0	43	0	3208642560	14	4492
2026-01-14 01:02:41.30	144.94	10.44	-27.1	-29.0	14.0	1.10e-03	0	43	0	3214934016	14	4500
2026-01-14 01:02:42.30	145.05	10.37	-27.2	-29.2	14.0	2.20e-06	0	43	0	3220176896	14	4534
2026-01-14 01:02:43.30	145.17	10.30	-27.1	-28.9	14.1	1.13e-03	0	43	0	3225419776	14	4451
2026-01-14 01:02:44.31	145.28	10.23	-27.0	-29.2	14.2	1.11e-03	0	43	0	3231711232	13	4650
2026-01-14 01:02:45.31	145.39	10.16	-27.1	-28.9	14.1	4.50e-06	0	43	0	3236954112	14	4448
2026-01-14 01:02:46.32	145.50	10.09	-27.0	-28.7	14.2	1.11e-03	0	43	0	3243245568	14	4393
2026-01-14 01:02:47.32	145.61	10.02	-27.1	-28.9	14.1	1.12e-03	0	43	0	3248488448	14	4459
2026-01-14 01:02:48.32	145.73	9.95	-27.0	-28.8	14.2	8.00e-06	0	43	0	3253731328	14	4407
2026-01-14 01:02:49.32	145.84	9.88	-27.0	-28.9	14.1	1.09e-03	0	43	0	3260022784	14	4435
2026-01-14 01:02:50.32	145.94	9.81	-27.1	-29.0	14.0	1.09e-03	0	43	0	3265265664	14	4493
2026-01-14 01:02:51.33	146.05	9.74	-27.1	-29.0	14.0	6.63e-05	0	43	0	3270508544	14	4490
2026-01-14 01:02:52.33	146.16	9.68	-27.2	-29.3	13.9	1.10e-06	0	43	0	3276800000	14	4557
2026-01-14 01:02:53.33	146.27	9.61	-27.1	-29.1	14.0	1.14e-03	0	43	0	3282042880	14	4512
2026-01-14 01:02:54.33	146.38	9.54	-27.3	-29.4	13.8	1.23e-04	0	43	0	3288334336	14	4602
2026-01-14 01:02:55.34	146.49	9.47	-27.4	-29.7	13.6	1.18e-03	0	43	0	3293577216	14	4690
2026-01-14 01:02:56.34	146.59	9.40	-27.5	-29.5	13.4	1.21e-03	0	43	0	3298820096	15	4520
2026-01-14 01:02:57.35	146.70	9.33	-27.6	-29.7	13.3	1.45e-04	0	43	0	3305111552	15	4584
2026-01-14 01:02:58.35	146.81	9.26	-27.6	-29.6	13.4	1.35e-03	0	43	0	3310354432	15	4553
2026-01-14 01:02:59.35	146.91	9.20	-27.4	-29.3	13.5	9.10e-06	0	43	0	3315597312	15	4478
2026-01-14 01:03:00.35	147.01	9.13	-27.6	-29.7	13.3	1.57e-04	0	43	0	3321888768	15	4577
2026-01-14 01:03:01.35	147.12	9.06	-27.5	-29.6	13.4	1.53e-03	0	43	0	3327131648	15	4553
2026-01-14 01:03:02.35	147.22	8.99	-27.7	-29.9	13.2	1.53e-03	0	43	0	3333423104	15	4647
2026-01-14 01:03:03.36	147.33	8.92	-27.4	-29.4	13.4	1.14e-05	0	43	0	3338665984	15	4502
2026-01-14 01:03:04.36	147.43	8.86	-27.4	-29.9	13.4	5.70e-06	0	43	0	3343908864	14	4764
2026-01-14 01:03:05.37	147.53	8.79	-27.4	-29.9	13.4	1.30e-03	0	43	0	3350200320	14	4772
2026-01-14 01:03:06.38	147.64	8.72	-27.4	-29.8	13.5	5.70e-06	0	43	0	3355443200	14	4732
2026-01-14 01:03:07.38	147.74	8.65	-27.5	-29.4	13.4	1.38e-03	0	43	0	3361734656	15	4509
2026-01-14 01:03:08.38	147.84	8.59	-27.5	-29.5	13.4	3.40e-06	0	43	0	3366977536	15	4525
2026-01-14 01:03:09.39	147.94	8.52	-27.6	-29.6	13.2	2.05e-05	0	43	0	3372220416	15	4578
2026-01-14 01:03:10.39	148.04	8.45	-27.5	-30.0	13.4	9.10e-06	0	43	0	3378511872	14	4792
2026-01-14 01:03:11.40	148.14	8.39	-27.4	-29.9	13.4	1.02e-05	0	43	0	3383754752	14	4796
2026-01-14 01:03:12.40	148.24	8.32	-27.5	-30.1	13.2	1.92e-04	0	43	0	3388997632	14	4873
2026-01-14 01:03:13.41	148.34	8.25	-27.5	-29.8	13.1	2.05e-05	0	43	0	3395289088	15	4659
2026-01-14 01:03:14.41	148.44	8.18	-27.6	-29.9	13.0	2.74e-05	0	43	0	3400531968	15	4700
2026-01-14 01:03:15.42	148.54	8.12	-27.5	-29.8	13.0	2.63e-05	0	43	0	3406823424	15	4705
2026-01-14 01:03:16.42	148.63	8.05	-27.4	-29.7	13.0	3.08e-05	0	43	0	3412066304	15	4687
2026-01-14 01:03:17.43	148.73	7.98	-27.3	-29.9	13.1	1.60e-05	0	43	0	3417309184	14	4876
2026-01-14 01:03:18.43	148.83	7.92	-27.4	-30.2	13.0	1.60e-05	0	43	0	3423600640	14	4968
2026-01-14 01:03:19.44	148.92	7.85	-27.3	-30.1	13.0	3.43e-05	0	43	0	3428843520	14	4939
2026-01-14 01:03:20.45	149.02	7.79	-27.4	-30.2	12.9	3.08e-05	0	43	0	3435134976	14	4991
2026-01-14 01:03:21.46	149.12	7.72	-27.5	-30.0	12.8	5.14e-05	0	43	0	3440377856	15	4802
2026-01-14 01:03:22.46	149.21	7.65	-27.3	-30.0	13.1	1.71e-05	0	43	0	3446669312	14	4893
2026-01-14 01:03:23.46	149.31	7.59	-27.2	-29.6	13.4	1.25e-05	0	43	0	3451912192	14	4750
2026-01-14 01:03:24.47	149.40	7.52	-27.5	-30.3	13.0	1.83e-05	0	43	0	3457155072	14	4968
2026-01-14 01:03:25.47	149.49	7.46	-27.5	-30.1	13.0	2.51e-05	0	43	0	3463446528	14	4910
2026-01-14 01:03:26.47	149.59	7.39	-27.5	-29.7	13.1	1.71e-05	0	43	0	3468689408	15	4620
2026-01-14 01:03:27.47	149.68	7.33	-27.7	-30.0	12.9	3.77e-05	0	43	0	3473932288	15	4725
2026-01-14 01:03:28.46	149.77	7.26	-27.5	-29.7	13.1	1.94e-05	0	43	0	3480223744	15	4613
2026-01-14 01:03:29.46	149.86	7.20	-27.7	-29.9	13.0	2.17e-05	0	43	0	3485466624	15	4662
2026-01-14 01:03:30.47	149.96	7.13	-27.6	-29.7	13.1	1.83e-05	0	43	0	3490709504	15	4589
2026-01-14 01:03:31.47	150.05	7.07	-32.1	-43.0	3.9	3.14e-02	0	43	104	3495952384	24	12702
2026-01-14 01:03:32.48	150.14	7.00	-33.2	-44.6	3.8	8.46e-01	0	43	104	3495952384	26	13441

#Closed at: 2026-01-14 01:03:33
#Recorded file [3495 MB]: D:/data/31010_260114_035309.dat