passes_logs/2026/01/14/R2M6_AANII_01/R2M6_AANII_01__20260114_155200_FENGYUN_3E_rec.log

#Pass ID: 20260114_155200_FENGYUN 3E
#Satellite: FENGYUN 3E
#Configuration: FENGYUN 3E
#almurnet v.1.7.20240730
#Start time: 2026-01-14 15:52:01

#Version: 2.2.20231116
#Station: R2M6_AANII_01
#Location: 30.233357 lon 59.946436 lat
#TLE: 1 49008U 21062A   26013.59634448 -.00000226  00000+0 -85925-4 0  9991
#TLE: 2 49008  98.7491  18.7414 0001953 139.1941 220.9382 14.19884160234649

#Time	Az	El	Level	Level2	SNR	BER	BlckErr	Temp	State	Recorded	gain1	gain2
2026-01-14 15:52:01.94	201.04	7.12	-27.8	-29.4	5.7	7.54e-01	0	41	0	0	15	4333
2026-01-14 15:52:02.94	201.11	7.19	-28.7	-30.0	5.5	7.60e-01	0	41	104	0	18	4192
2026-01-14 15:52:03.95	201.19	7.26	-29.0	-30.9	10.3	5.12e-03	0	41	0	0	18	4434
2026-01-14 15:52:04.95	201.27	7.32	-28.7	-29.9	10.9	2.99e-03	0	41	0	7340032	18	4159
2026-01-14 15:52:05.95	201.35	7.39	-28.4	-29.2	11.4	1.42e-03	0	41	0	14680064	18	3968
2026-01-14 15:52:06.95	201.42	7.46	-28.1	-28.9	11.9	4.13e-04	0	41	0	22020096	17	3980
2026-01-14 15:52:07.96	201.50	7.53	-27.8	-28.8	12.3	2.32e-04	0	41	0	28311552	16	4047
2026-01-14 15:52:08.96	201.58	7.60	-28.0	-29.4	12.0	3.40e-04	0	41	0	35651584	16	4193
2026-01-14 15:52:09.96	201.66	7.67	-27.8	-28.7	12.4	1.91e-04	0	41	0	42991616	16	4004
2026-01-14 15:52:10.95	201.74	7.74	-27.2	-28.0	13.0	7.09e-05	0	41	0	50331648	15	3932
2026-01-14 15:52:11.96	201.82	7.81	-27.1	-27.8	13.1	3.89e-05	0	41	0	57671680	15	3877
2026-01-14 15:52:12.96	201.90	7.88	-26.9	-27.8	13.3	1.02e-05	0	41	0	65011712	14	3987
2026-01-14 15:52:13.97	201.98	7.96	-27.0	-28.0	13.2	2.51e-05	0	41	0	72351744	14	4047
2026-01-14 15:52:14.97	202.06	8.03	-27.2	-28.5	12.9	2.74e-05	0	41	0	79691776	14	4175
2026-01-14 15:52:15.97	202.14	8.10	-27.0	-27.9	13.3	2.74e-05	0	41	0	85983232	14	3998
2026-01-14 15:52:16.98	202.22	8.17	-27.1	-28.2	13.1	3.66e-05	0	41	0	93323264	14	4096
2026-01-14 15:52:17.98	202.30	8.24	-26.9	-27.8	13.4	2.51e-05	0	41	0	100663296	14	3971
2026-01-14 15:52:18.98	202.39	8.31	-27.2	-28.5	13.0	3.43e-05	0	41	0	108003328	14	4159
2026-01-14 15:52:19.99	202.47	8.38	-26.8	-27.5	13.6	1.37e-05	0	41	0	115343360	14	3899
2026-01-14 15:52:21.00	202.55	8.46	-26.6	-27.1	13.8	6.80e-06	0	41	0	122683392	14	3801
2026-01-14 15:52:22.00	202.64	8.53	-26.5	-26.8	14.0	4.50e-06	0	41	0	130023424	14	3734
2026-01-14 15:52:23.01	202.72	8.60	-26.3	-26.9	14.2	2.20e-06	0	42	0	137363456	13	3850
2026-01-14 15:52:24.01	202.81	8.67	-26.5	-27.3	14.0	3.40e-06	0	42	0	144703488	13	3944
2026-01-14 15:52:25.02	202.89	8.75	-26.6	-27.5	13.9	3.40e-06	0	41	0	152043520	13	4004
2026-01-14 15:52:26.02	202.98	8.82	-26.6	-27.4	13.9	5.70e-06	0	42	0	159383552	13	3980
2026-01-14 15:52:27.02	203.06	8.89	-26.6	-27.7	13.8	4.50e-06	0	41	0	166723584	13	4042
2026-01-14 15:52:28.02	203.15	8.96	-26.9	-28.2	13.5	9.10e-06	0	42	0	173015040	13	4178
2026-01-14 15:52:29.02	203.23	9.04	-26.7	-27.7	13.8	5.70e-06	0	42	0	180355072	13	4045
2026-01-14 15:52:30.03	203.32	9.11	-26.5	-27.2	14.1	1.10e-06	0	42	0	187695104	13	3920
2026-01-14 15:52:31.04	203.41	9.19	-26.5	-27.3	14.0	1.10e-06	0	42	0	195035136	13	3953
2026-01-14 15:52:32.05	203.50	9.26	-26.5	-27.3	14.0	2.20e-06	0	42	0	202375168	13	3961
2026-01-14 15:52:33.05	203.59	9.33	-26.5	-27.3	14.0	4.50e-06	0	42	0	209715200	13	3960
2026-01-14 15:52:34.05	203.67	9.41	-26.5	-27.2	14.1	1.10e-06	0	42	0	217055232	13	3929
2026-01-14 15:52:35.05	203.76	9.48	-26.5	-27.4	14.0	5.70e-06	0	42	0	224395264	13	3970
2026-01-14 15:52:36.06	203.85	9.56	-26.7	-27.7	13.8	5.70e-06	0	42	0	231735296	13	4056
2026-01-14 15:52:37.06	203.94	9.63	-26.3	-26.9	14.3	0.00e+00	0	42	0	239075328	13	3854
2026-01-14 15:52:38.06	204.03	9.70	-26.4	-27.0	14.2	0.00e+00	0	42	0	246415360	13	3876
2026-01-14 15:52:39.06	204.12	9.78	-26.4	-27.0	14.3	1.10e-06	0	42	0	252706816	13	3861
2026-01-14 15:52:40.06	204.21	9.85	-26.3	-26.8	14.3	2.20e-06	0	42	0	260046848	13	3833
2026-01-14 15:52:41.06	204.31	9.93	-26.3	-26.9	14.3	2.20e-06	0	42	0	267386880	13	3831
2026-01-14 15:52:42.07	204.40	10.00	-26.2	-26.7	14.4	2.20e-06	0	42	0	274726912	13	3801
2026-01-14 15:52:43.07	204.49	10.08	-26.3	-26.8	14.4	0.00e+00	0	42	0	282066944	13	3812
2026-01-14 15:52:44.08	204.58	10.16	-26.0	-26.2	14.7	0.00e+00	0	42	0	289406976	13	3688
2026-01-14 15:52:45.08	204.68	10.23	-26.4	-27.1	14.2	0.00e+00	0	42	0	296747008	13	3894
2026-01-14 15:52:46.08	204.77	10.31	-26.6	-27.5	14.0	4.50e-06	0	42	0	304087040	13	3984
2026-01-14 15:52:47.09	204.87	10.38	-26.3	-26.8	14.4	2.20e-06	0	42	0	311427072	13	3830
2026-01-14 15:52:48.09	204.96	10.46	-26.4	-27.1	14.3	1.10e-06	0	42	0	317718528	13	3903
2026-01-14 15:52:49.09	205.06	10.54	-26.5	-27.4	14.0	5.70e-06	0	42	0	325058560	13	3973
2026-01-14 15:52:50.09	205.15	10.61	-26.4	-27.1	14.2	1.10e-06	0	42	0	332398592	13	3887
2026-01-14 15:52:51.09	205.25	10.69	-26.3	-26.8	14.4	1.10e-06	0	42	0	339738624	13	3822
2026-01-14 15:52:52.09	205.34	10.77	-26.2	-26.6	14.5	1.10e-06	0	42	0	347078656	13	3774
2026-01-14 15:52:53.10	205.44	10.84	-26.3	-26.7	14.5	1.10e-06	0	42	0	354418688	13	3806
2026-01-14 15:52:54.10	205.54	10.92	-26.3	-26.9	14.4	0.00e+00	0	42	0	361758720	13	3842
2026-01-14 15:52:55.10	205.64	11.00	-26.2	-26.6	14.5	0.00e+00	0	42	0	369098752	13	3779
2026-01-14 15:52:56.10	205.74	11.07	-26.1	-26.3	14.7	0.00e+00	0	42	0	376438784	13	3701
2026-01-14 15:52:57.10	205.84	11.15	-26.0	-26.2	14.8	0.00e+00	0	42	0	383778816	13	3681
2026-01-14 15:52:58.11	205.94	11.23	-26.1	-26.3	14.7	0.00e+00	0	42	0	391118848	13	3708
2026-01-14 15:52:59.10	206.03	11.31	-25.9	-26.0	14.9	0.00e+00	0	42	0	398458880	13	3637
2026-01-14 15:53:00.11	206.14	11.39	-25.9	-26.5	14.9	1.10e-06	0	42	0	404750336	12	3849
2026-01-14 15:53:01.12	206.24	11.47	-26.0	-26.6	14.9	0.00e+00	0	42	0	412090368	12	3867
2026-01-14 15:53:02.12	206.34	11.54	-26.1	-26.9	14.7	0.00e+00	0	42	0	419430400	12	3937
2026-01-14 15:53:03.12	206.44	11.62	-25.9	-26.3	15.0	1.10e-06	0	42	0	426770432	12	3806
2026-01-14 15:53:04.12	206.54	11.70	-25.8	-26.1	15.1	1.10e-06	0	42	0	434110464	12	3754
2026-01-14 15:53:05.12	206.65	11.78	-25.8	-26.2	15.1	0.00e+00	0	42	0	441450496	12	3771
2026-01-14 15:53:06.13	206.75	11.86	-25.8	-26.2	15.1	0.00e+00	0	42	0	448790528	12	3769
2026-01-14 15:53:07.14	206.86	11.94	-25.8	-26.1	15.2	0.00e+00	0	42	0	456130560	12	3747
2026-01-14 15:53:08.13	206.96	12.02	-25.8	-26.1	15.2	0.00e+00	0	42	0	462422016	12	3759
2026-01-14 15:53:09.13	207.07	12.10	-26.0	-26.6	14.9	1.10e-06	0	42	0	469762048	12	3880
2026-01-14 15:53:10.13	207.17	12.18	-25.7	-26.0	15.2	0.00e+00	0	42	0	477102080	12	3734
2026-01-14 15:53:11.14	207.28	12.26	-25.7	-26.0	15.3	1.10e-06	0	42	0	484442112	12	3717
2026-01-14 15:53:12.13	207.39	12.34	-25.8	-26.1	15.2	0.00e+00	0	42	0	491782144	12	3756
2026-01-14 15:53:13.12	207.49	12.42	-25.7	-26.1	15.2	0.00e+00	0	42	0	499122176	12	3740
2026-01-14 15:53:14.12	207.60	12.50	-25.8	-26.3	15.1	0.00e+00	0	42	0	506462208	12	3791
2026-01-14 15:53:15.13	207.71	12.58	-25.8	-26.3	15.1	0.00e+00	0	42	0	513802240	12	3791
2026-01-14 15:53:16.14	207.82	12.66	-25.8	-26.2	15.2	2.20e-06	0	42	0	521142272	12	3774
2026-01-14 15:53:17.14	207.93	12.74	-25.9	-26.4	15.0	1.10e-06	0	42	0	527433728	12	3828
2026-01-14 15:53:18.14	208.04	12.82	-26.1	-26.8	14.8	0.00e+00	0	42	0	534773760	12	3916
2026-01-14 15:53:19.14	208.15	12.91	-25.8	-26.3	15.1	2.20e-06	0	42	0	542113792	12	3799
2026-01-14 15:53:20.14	208.26	12.99	-25.6	-25.9	15.4	0.00e+00	0	42	0	549453824	12	3693
2026-01-14 15:53:21.14	208.38	13.07	-25.6	-25.8	15.4	0.00e+00	0	42	0	556793856	12	3678
2026-01-14 15:53:22.14	208.49	13.15	-25.6	-25.8	15.4	4.50e-06	0	42	0	564133888	12	3681
2026-01-14 15:53:23.15	208.60	13.23	-25.7	-26.0	15.3	0.00e+00	0	42	0	571473920	12	3731
2026-01-14 15:53:24.15	208.72	13.32	-25.5	-25.6	15.5	0.00e+00	0	42	0	578813952	12	3635
2026-01-14 15:53:25.15	208.83	13.40	-25.5	-25.6	15.5	4.50e-06	0	43	0	586153984	12	3617
2026-01-14 15:53:26.16	208.95	13.48	-25.6	-25.7	15.5	0.00e+00	0	42	0	593494016	12	3664
2026-01-14 15:53:27.16	209.07	13.57	-25.5	-25.6	15.5	0.00e+00	0	43	0	600834048	12	3625
2026-01-14 15:53:28.17	209.18	13.65	-25.5	-25.7	15.5	0.00e+00	0	43	0	608174080	12	3651
2026-01-14 15:53:29.17	209.30	13.73	-25.6	-25.7	15.5	0.00e+00	0	43	0	614465536	12	3650
2026-01-14 15:53:30.16	209.42	13.82	-25.5	-25.6	15.6	0.00e+00	0	43	0	621805568	12	3626
2026-01-14 15:53:31.17	209.54	13.90	-25.5	-25.5	15.6	0.00e+00	0	43	0	629145600	12	3602
2026-01-14 15:53:32.17	209.66	13.98	-25.5	-25.6	15.6	0.00e+00	0	43	0	636485632	12	3622
2026-01-14 15:53:33.17	209.78	14.07	-25.4	-25.3	15.7	1.10e-06	0	43	0	643825664	12	3574
2026-01-14 15:53:34.17	209.90	14.15	-25.4	-25.4	15.7	0.00e+00	0	43	0	651165696	12	3579
2026-01-14 15:53:35.17	210.02	14.24	-25.4	-25.8	15.8	0.00e+00	0	43	0	658505728	11	3778
2026-01-14 15:53:36.17	210.14	14.32	-25.4	-25.9	15.8	0.00e+00	0	43	0	665845760	11	3789
2026-01-14 15:53:37.18	210.26	14.41	-25.5	-26.0	15.7	0.00e+00	0	43	0	672137216	11	3818
2026-01-14 15:53:38.18	210.39	14.49	-25.2	-25.5	16.0	0.00e+00	0	43	0	679477248	11	3696
2026-01-14 15:53:39.19	210.51	14.58	-25.1	-25.2	16.2	0.00e+00	0	43	0	686817280	11	3640
2026-01-14 15:53:40.19	210.64	14.66	-25.3	-25.5	16.0	6.80e-06	0	43	0	694157312	11	3712
2026-01-14 15:53:41.19	210.76	14.75	-25.1	-25.2	16.1	0.00e+00	0	43	0	701497344	11	3641
2026-01-14 15:53:42.19	210.89	14.83	-25.2	-25.3	16.1	0.00e+00	0	42	0	708837376	11	3665
2026-01-14 15:53:43.20	211.01	14.92	-25.3	-25.7	15.9	0.00e+00	0	43	0	716177408	11	3736
2026-01-14 15:53:44.20	211.14	15.00	-25.3	-25.6	15.9	0.00e+00	0	43	0	723517440	11	3724
2026-01-14 15:53:45.20	211.27	15.09	-25.3	-25.6	16.0	0.00e+00	0	43	0	730857472	11	3719
2026-01-14 15:53:46.21	211.40	15.18	-25.4	-25.7	15.9	0.00e+00	0	43	0	738197504	11	3757
2026-01-14 15:53:47.21	211.53	15.26	-25.3	-25.6	16.0	0.00e+00	0	43	0	745537536	11	3727
2026-01-14 15:53:48.21	211.66	15.35	-25.3	-25.6	16.0	0.00e+00	0	43	0	752877568	11	3715
2026-01-14 15:53:49.22	211.79	15.44	-25.3	-25.5	16.0	0.00e+00	0	43	0	759169024	11	3710
2026-01-14 15:53:50.22	211.92	15.53	-25.5	-25.9	15.8	0.00e+00	0	43	0	766509056	11	3805
2026-01-14 15:53:51.22	212.06	15.61	-25.2	-25.3	16.1	0.00e+00	0	43	0	773849088	11	3660
2026-01-14 15:53:52.23	212.19	15.70	-24.9	-24.8	16.5	0.00e+00	0	43	0	781189120	11	3538
2026-01-14 15:53:53.23	212.32	15.79	-24.9	-24.8	16.4	0.00e+00	0	43	0	788529152	11	3533
2026-01-14 15:53:54.24	212.46	15.88	-25.0	-24.9	16.4	0.00e+00	0	43	0	795869184	11	3561
2026-01-14 15:53:55.24	212.60	15.96	-25.0	-24.9	16.4	0.00e+00	0	42	0	803209216	11	3564
2026-01-14 15:53:56.25	212.73	16.05	-24.9	-24.8	16.4	0.00e+00	0	43	0	810549248	11	3542
2026-01-14 15:53:57.26	212.87	16.14	-25.1	-25.1	16.3	0.00e+00	0	43	0	817889280	11	3616
2026-01-14 15:53:58.26	213.01	16.23	-24.9	-25.2	16.5	0.00e+00	0	43	0	825229312	10	3743
2026-01-14 15:53:59.26	213.15	16.32	-24.9	-25.2	16.5	0.00e+00	0	43	0	832569344	10	3735
2026-01-14 15:54:00.26	213.29	16.41	-24.8	-25.1	16.6	0.00e+00	0	43	0	838860800	10	3715
2026-01-14 15:54:01.26	213.43	16.50	-24.8	-25.1	16.6	0.00e+00	0	43	0	846200832	10	3702
2026-01-14 15:54:02.26	213.57	16.58	-24.8	-25.0	16.6	0.00e+00	0	43	0	853540864	10	3677
2026-01-14 15:54:03.26	213.71	16.67	-24.7	-24.7	16.8	0.00e+00	0	43	0	860880896	10	3627
2026-01-14 15:54:04.27	213.85	16.76	-24.6	-24.7	16.8	0.00e+00	0	43	0	868220928	10	3608
2026-01-14 15:54:05.26	214.00	16.85	-24.5	-24.3	17.0	0.00e+00	0	43	0	875560960	10	3534
2026-01-14 15:54:06.27	214.14	16.94	-24.6	-24.5	16.9	0.00e+00	0	43	0	882900992	10	3567
2026-01-14 15:54:07.27	214.29	17.03	-24.6	-24.5	16.9	0.00e+00	0	43	0	890241024	10	3575
2026-01-14 15:54:08.28	214.43	17.12	-24.4	-24.7	17.1	0.00e+00	0	43	0	897581056	9	3707
2026-01-14 15:54:09.28	214.58	17.21	-24.4	-24.7	17.0	0.00e+00	0	43	0	903872512	9	3724
2026-01-14 15:54:10.29	214.73	17.30	-24.4	-24.6	17.1	0.00e+00	0	43	0	911212544	9	3701
2026-01-14 15:54:11.30	214.88	17.40	-24.4	-24.7	17.1	0.00e+00	0	43	0	919601152	9	3717
2026-01-14 15:54:12.30	215.03	17.49	-24.5	-24.8	17.0	0.00e+00	0	43	0	925892608	9	3739
2026-01-14 15:54:13.30	215.18	17.58	-24.6	-25.1	16.9	0.00e+00	0	43	0	933232640	9	3802
2026-01-14 15:54:14.31	215.33	17.67	-24.5	-25.0	16.9	0.00e+00	0	43	0	940572672	9	3775
2026-01-14 15:54:15.32	215.49	17.76	-24.6	-25.1	16.8	0.00e+00	0	43	0	947912704	9	3819
2026-01-14 15:54:16.32	215.64	17.85	-24.5	-25.0	16.9	0.00e+00	0	43	0	955252736	9	3779
2026-01-14 15:54:17.32	215.79	17.94	-24.4	-24.7	17.1	0.00e+00	0	43	0	962592768	9	3714
2026-01-14 15:54:18.32	215.95	18.03	-24.4	-24.7	17.1	0.00e+00	0	43	0	969932800	9	3717
2026-01-14 15:54:19.33	216.10	18.13	-24.4	-24.6	17.2	0.00e+00	0	43	0	977272832	9	3681
2026-01-14 15:54:20.33	216.26	18.22	-24.4	-24.7	17.1	0.00e+00	0	43	0	984612864	9	3727
2026-01-14 15:54:21.33	216.42	18.31	-24.5	-24.8	17.0	0.00e+00	0	43	0	990904320	9	3752
2026-01-14 15:54:22.34	216.58	18.40	-24.4	-24.7	17.1	0.00e+00	0	43	0	998244352	9	3718
2026-01-14 15:54:23.34	216.74	18.49	-24.4	-24.7	17.1	0.00e+00	0	43	0	1005584384	9	3723
2026-01-14 15:54:24.35	216.90	18.59	-24.5	-24.9	17.0	0.00e+00	0	43	0	1012924416	9	3752
2026-01-14 15:54:25.35	217.06	18.68	-24.4	-24.5	17.2	0.00e+00	0	43	0	1020264448	9	3682
2026-01-14 15:54:26.35	217.22	18.77	-24.2	-24.3	17.3	0.00e+00	0	43	0	1027604480	9	3619
2026-01-14 15:54:27.36	217.39	18.87	-24.3	-24.4	17.3	0.00e+00	0	43	0	1034944512	9	3637
2026-01-14 15:54:28.36	217.55	18.96	-24.2	-24.2	17.4	0.00e+00	0	43	0	1042284544	9	3593
2026-01-14 15:54:29.36	217.72	19.05	-24.0	-23.8	17.6	0.00e+00	0	43	0	1049624576	9	3514
2026-01-14 15:54:30.36	217.88	19.14	-23.9	-24.1	17.7	1.10e-06	0	43	0	1056964608	8	3676
2026-01-14 15:54:31.36	218.05	19.24	-23.9	-24.1	17.7	0.00e+00	0	43	0	1064304640	8	3675
2026-01-14 15:54:32.37	218.22	19.33	-23.9	-24.1	17.7	0.00e+00	0	43	0	1070596096	8	3683
2026-01-14 15:54:33.37	218.39	19.42	-24.0	-24.2	17.6	1.10e-06	0	43	0	1077936128	8	3697
2026-01-14 15:54:34.38	218.56	19.52	-24.0	-24.3	17.6	0.00e+00	0	43	0	1085276160	8	3731
2026-01-14 15:54:35.38	218.73	19.61	-24.1	-24.5	17.5	0.00e+00	0	43	0	1092616192	8	3777
2026-01-14 15:54:36.39	218.91	19.71	-24.2	-24.7	17.4	3.40e-06	0	43	0	1099956224	8	3810
2026-01-14 15:54:37.39	219.08	19.80	-24.2	-24.8	17.4	0.00e+00	0	43	0	1107296256	8	3831
2026-01-14 15:54:38.39	219.25	19.89	-24.2	-24.8	17.4	0.00e+00	0	43	0	1114636288	8	3846
2026-01-14 15:54:39.40	219.43	19.99	-24.3	-25.0	17.2	0.00e+00	0	43	0	1121976320	8	3899
2026-01-14 15:54:40.40	219.61	20.08	-24.2	-24.8	17.4	0.00e+00	0	43	0	1129316352	8	3841
2026-01-14 15:54:41.41	219.79	20.18	-24.2	-24.8	17.4	0.00e+00	0	43	0	1136656384	8	3843
2026-01-14 15:54:42.41	219.96	20.27	-24.2	-24.8	17.4	0.00e+00	0	43	0	1143996416	8	3841
2026-01-14 15:54:43.42	220.15	20.37	-24.1	-24.5	17.6	0.00e+00	0	43	0	1151336448	8	3765
2026-01-14 15:54:44.43	220.33	20.46	-24.2	-24.6	17.5	0.00e+00	0	43	0	1157627904	8	3805
2026-01-14 15:54:45.43	220.51	20.56	-24.2	-24.6	17.5	0.00e+00	0	43	0	1164967936	8	3804
2026-01-14 15:54:46.43	220.69	20.65	-24.1	-24.4	17.6	0.00e+00	0	43	0	1172307968	8	3749
2026-01-14 15:54:47.43	220.88	20.74	-24.1	-24.6	17.5	0.00e+00	0	43	0	1179648000	8	3781
2026-01-14 15:54:48.43	221.06	20.84	-24.1	-24.5	17.6	0.00e+00	0	43	0	1186988032	8	3776
2026-01-14 15:54:49.44	221.25	20.93	-24.0	-24.4	17.7	0.00e+00	0	43	0	1194328064	8	3744
2026-01-14 15:54:50.44	221.44	21.03	-24.0	-24.3	17.7	0.00e+00	0	43	0	1201668096	8	3730
2026-01-14 15:54:51.45	221.63	21.12	-23.9	-24.1	17.8	0.00e+00	0	43	0	1209008128	8	3673
2026-01-14 15:54:52.45	221.82	21.22	-23.9	-24.1	17.8	0.00e+00	0	43	0	1216348160	8	3679
2026-01-14 15:54:53.46	222.01	21.31	-24.0	-24.3	17.7	0.00e+00	0	43	0	1223688192	8	3720
2026-01-14 15:54:54.47	222.20	21.41	-23.9	-24.2	17.8	0.00e+00	0	43	0	1231028224	8	3697
2026-01-14 15:54:55.47	222.39	21.51	-24.0	-24.2	17.7	0.00e+00	0	43	0	1238368256	8	3704
2026-01-14 15:54:56.47	222.59	21.60	-24.0	-24.3	17.7	0.00e+00	0	43	0	1244659712	8	3733
2026-01-14 15:54:57.48	222.79	21.70	-24.1	-24.5	17.6	0.00e+00	0	43	0	1251999744	8	3775
2026-01-14 15:54:58.49	222.98	21.79	-24.0	-24.4	17.6	0.00e+00	0	43	0	1259339776	8	3745
2026-01-14 15:54:59.49	223.18	21.89	-24.1	-24.5	17.6	0.00e+00	0	43	0	1266679808	8	3767
2026-01-14 15:55:00.49	223.38	21.98	-24.2	-24.7	17.5	0.00e+00	0	43	0	1274019840	8	3818
2026-01-14 15:55:01.49	223.58	22.08	-24.0	-24.3	17.7	0.00e+00	0	43	0	1281359872	8	3731
2026-01-14 15:55:02.50	223.78	22.17	-23.9	-24.1	17.8	0.00e+00	0	43	0	1288699904	8	3684
2026-01-14 15:55:03.50	223.99	22.27	-23.9	-24.2	17.8	0.00e+00	0	43	0	1296039936	8	3700
2026-01-14 15:55:04.50	224.19	22.36	-24.1	-24.6	17.6	0.00e+00	0	43	0	1303379968	8	3798
2026-01-14 15:55:05.50	224.39	22.46	-24.1	-24.6	17.6	0.00e+00	0	43	0	1310720000	8	3800
2026-01-14 15:55:06.50	224.60	22.55	-24.0	-24.3	17.7	0.00e+00	0	43	0	1318060032	8	3719
2026-01-14 15:55:07.50	224.81	22.65	-23.9	-24.1	17.8	0.00e+00	0	43	0	1324351488	8	3673
2026-01-14 15:55:08.51	225.02	22.74	-23.9	-24.1	17.8	0.00e+00	0	43	0	1331691520	8	3687
2026-01-14 15:55:09.51	225.23	22.84	-23.9	-24.0	17.9	0.00e+00	0	43	0	1339031552	8	3665
2026-01-14 15:55:10.52	225.44	22.93	-23.9	-24.0	17.9	0.00e+00	0	43	0	1346371584	8	3667
2026-01-14 15:55:11.52	225.65	23.03	-23.8	-23.9	17.9	0.00e+00	0	43	0	1353711616	8	3640
2026-01-14 15:55:12.53	225.87	23.12	-23.7	-23.7	18.1	0.00e+00	0	43	0	1361051648	8	3585
2026-01-14 15:55:13.53	226.08	23.22	-23.7	-23.7	18.1	0.00e+00	0	43	0	1368391680	8	3590
2026-01-14 15:55:14.54	226.30	23.31	-23.6	-23.6	18.1	0.00e+00	0	43	0	1375731712	8	3561
2026-01-14 15:55:15.54	226.52	23.41	-23.5	-23.3	18.2	0.00e+00	0	43	0	1383071744	8	3516
2026-01-14 15:55:16.55	226.74	23.50	-23.7	-23.6	18.1	0.00e+00	0	43	0	1390411776	8	3579
2026-01-14 15:55:17.55	226.96	23.60	-23.7	-23.6	18.1	0.00e+00	0	43	0	1397751808	8	3575
2026-01-14 15:55:18.55	227.18	23.69	-23.6	-23.4	18.2	0.00e+00	0	43	0	1405091840	8	3536
2026-01-14 15:55:19.56	227.41	23.79	-23.8	-23.8	18.0	0.00e+00	0	43	0	1411383296	8	3615
2026-01-14 15:55:20.56	227.63	23.88	-23.8	-23.8	18.0	0.00e+00	0	43	0	1418723328	8	3624
2026-01-14 15:55:21.56	227.85	23.98	-23.8	-23.9	18.0	0.00e+00	0	43	0	1426063360	8	3645
2026-01-14 15:55:22.57	228.08	24.07	-24.0	-24.3	17.8	0.00e+00	0	43	0	1433403392	8	3733
2026-01-14 15:55:23.58	228.31	24.16	-24.0	-24.4	17.7	0.00e+00	0	43	0	1440743424	8	3746
2026-01-14 15:55:24.58	228.54	24.26	-23.9	-24.0	17.9	0.00e+00	0	43	0	1448083456	8	3665
2026-01-14 15:55:25.58	228.77	24.35	-23.8	-23.9	18.0	0.00e+00	0	43	0	1455423488	8	3625
2026-01-14 15:55:26.58	229.00	24.45	-23.9	-24.1	17.9	0.00e+00	0	43	0	1462763520	8	3675
2026-01-14 15:55:27.59	229.24	24.54	-23.9	-24.0	17.9	0.00e+00	0	43	0	1470103552	8	3653
2026-01-14 15:55:28.59	229.47	24.63	-23.7	-23.7	18.1	0.00e+00	0	43	0	1476395008	8	3600
2026-01-14 15:55:29.60	229.71	24.73	-23.7	-23.7	18.1	0.00e+00	0	43	0	1484783616	8	3600
2026-01-14 15:55:30.60	229.95	24.82	-23.9	-24.1	17.9	0.00e+00	0	43	0	1491075072	8	3672
2026-01-14 15:55:31.60	230.19	24.91	-24.1	-24.5	17.7	0.00e+00	0	43	0	1498415104	8	3760
2026-01-14 15:55:32.61	230.43	25.00	-24.0	-24.3	17.8	0.00e+00	0	43	0	1505755136	8	3714
2026-01-14 15:55:33.62	230.67	25.10	-23.8	-23.8	18.1	0.00e+00	0	43	0	1513095168	8	3605
2026-01-14 15:55:34.62	230.92	25.19	-23.6	-23.5	18.2	0.00e+00	0	43	0	1520435200	8	3552
2026-01-14 15:55:35.62	231.16	25.28	-23.8	-23.8	18.1	0.00e+00	0	43	0	1527775232	8	3612
2026-01-14 15:55:36.62	231.41	25.37	-23.8	-23.8	18.1	0.00e+00	0	43	0	1535115264	8	3603
2026-01-14 15:55:37.62	231.65	25.46	-23.9	-24.1	17.9	0.00e+00	0	43	0	1542455296	8	3670
2026-01-14 15:55:38.63	231.90	25.55	-23.9	-24.0	18.0	0.00e+00	0	43	0	1549795328	8	3649
2026-01-14 15:55:39.64	232.16	25.65	-23.7	-23.6	18.2	0.00e+00	0	43	0	1556086784	8	3569
2026-01-14 15:55:40.64	232.41	25.74	-23.6	-23.4	18.3	0.00e+00	0	43	0	1563426816	8	3522
2026-01-14 15:55:41.64	232.66	25.83	-23.6	-23.5	18.2	2.20e-06	0	43	0	1570766848	8	3541
2026-01-14 15:55:42.64	232.91	25.92	-23.5	-23.3	18.3	0.00e+00	0	43	0	1578106880	8	3504
2026-01-14 15:55:43.65	233.17	26.01	-23.2	-23.1	18.6	0.00e+00	0	43	0	1585446912	7	3569
2026-01-14 15:55:44.65	233.43	26.10	-23.2	-23.2	18.6	3.40e-06	0	43	0	1592786944	7	3574
2026-01-14 15:55:45.66	233.69	26.19	-23.4	-23.5	18.5	0.00e+00	0	43	0	1600126976	7	3640
2026-01-14 15:55:46.66	233.95	26.27	-23.4	-23.6	18.4	0.00e+00	0	43	0	1607467008	7	3673
2026-01-14 15:55:47.66	234.21	26.36	-23.4	-23.6	18.4	5.70e-06	0	43	0	1614807040	7	3668
2026-01-14 15:55:48.67	234.48	26.45	-23.4	-23.6	18.4	0.00e+00	0	43	0	1622147072	7	3668
2026-01-14 15:55:49.67	234.74	26.54	-23.5	-23.7	18.4	0.00e+00	0	43	0	1629487104	7	3687
2026-01-14 15:55:50.68	235.01	26.63	-23.4	-23.5	18.5	3.40e-06	0	43	0	1636827136	7	3648
2026-01-14 15:55:51.68	235.27	26.71	-23.4	-23.5	18.5	0.00e+00	0	43	0	1643118592	7	3647
2026-01-14 15:55:52.68	235.54	26.80	-23.3	-23.3	18.6	0.00e+00	0	43	0	1650458624	7	3599
2026-01-14 15:55:53.68	235.81	26.89	-23.1	-22.9	18.8	0.00e+00	0	43	0	1657798656	7	3510
2026-01-14 15:55:54.68	236.08	26.97	-23.1	-22.8	18.8	0.00e+00	0	43	0	1665138688	7	3501
2026-01-14 15:55:55.69	236.36	27.06	-23.1	-23.0	18.7	0.00e+00	0	43	0	1672478720	7	3531
2026-01-14 15:55:56.69	236.63	27.14	-23.2	-23.1	18.7	0.00e+00	0	43	0	1679818752	7	3551
2026-01-14 15:55:57.69	236.91	27.23	-23.3	-23.4	18.5	0.00e+00	0	43	0	1687158784	7	3615
2026-01-14 15:55:58.69	237.18	27.31	-23.3	-23.4	18.5	0.00e+00	0	43	0	1694498816	7	3624
2026-01-14 15:55:59.69	237.46	27.40	-23.4	-23.4	18.5	0.00e+00	0	43	0	1701838848	7	3633
2026-01-14 15:56:00.70	237.74	27.48	-23.4	-23.5	18.5	0.00e+00	0	43	0	1709178880	7	3652
2026-01-14 15:56:01.70	238.03	27.56	-23.3	-23.2	18.6	0.00e+00	0	43	0	1716518912	7	3585
2026-01-14 15:56:02.71	238.31	27.64	-23.1	-23.0	18.8	0.00e+00	0	43	0	1722810368	7	3525
2026-01-14 15:56:03.71	238.59	27.73	-23.2	-23.0	18.7	0.00e+00	0	43	0	1730150400	7	3539
2026-01-14 15:56:04.72	238.88	27.81	-23.2	-23.1	18.7	0.00e+00	0	43	0	1737490432	7	3558
2026-01-14 15:56:05.72	239.17	27.89	-23.3	-23.4	18.5	0.00e+00	0	43	0	1744830464	7	3625
2026-01-14 15:56:06.73	239.46	27.97	-23.3	-23.3	18.6	0.00e+00	0	43	0	1752170496	7	3598
2026-01-14 15:56:07.73	239.75	28.05	-23.3	-23.3	18.6	0.00e+00	0	43	0	1759510528	7	3602
2026-01-14 15:56:08.73	240.04	28.13	-23.4	-23.5	18.5	0.00e+00	0	43	0	1766850560	7	3642
2026-01-14 15:56:09.74	240.34	28.21	-23.4	-23.4	18.5	0.00e+00	0	43	0	1774190592	7	3631
2026-01-14 15:56:10.74	240.63	28.28	-23.3	-23.2	18.6	0.00e+00	0	43	0	1781530624	7	3584
2026-01-14 15:56:11.74	240.93	28.36	-23.4	-23.5	18.5	0.00e+00	0	43	0	1787822080	7	3637
2026-01-14 15:56:12.73	241.22	28.44	-23.3	-23.3	18.6	0.00e+00	0	43	0	1795162112	7	3594
2026-01-14 15:56:13.74	241.52	28.51	-23.3	-23.2	18.7	0.00e+00	0	43	0	1802502144	7	3586
2026-01-14 15:56:14.74	241.82	28.59	-23.3	-23.3	18.6	0.00e+00	0	43	0	1809842176	7	3591
2026-01-14 15:56:15.74	242.12	28.66	-23.2	-23.2	18.7	0.00e+00	0	43	0	1817182208	7	3568
2026-01-14 15:56:16.75	242.42	28.74	-23.2	-23.2	18.7	0.00e+00	0	43	0	1824522240	7	3575
2026-01-14 15:56:17.75	242.73	28.81	-23.3	-23.2	18.6	0.00e+00	0	43	0	1831862272	7	3580
2026-01-14 15:56:18.75	243.03	28.89	-23.1	-22.8	18.9	0.00e+00	0	43	0	1839202304	7	3498
2026-01-14 15:56:19.76	243.34	28.96	-23.0	-22.7	18.9	0.00e+00	0	43	0	1846542336	7	3463
2026-01-14 15:56:20.76	243.65	29.03	-23.0	-22.8	18.9	0.00e+00	0	43	0	1853882368	7	3483
2026-01-14 15:56:21.77	243.96	29.10	-23.3	-23.3	18.6	0.00e+00	0	43	0	1861222400	7	3599
2026-01-14 15:56:22.77	244.27	29.17	-23.3	-23.2	18.7	0.00e+00	0	44	0	1868562432	7	3571
2026-01-14 15:56:23.78	244.59	29.24	-23.5	-23.7	18.4	0.00e+00	0	43	0	1874853888	7	3683
2026-01-14 15:56:24.78	244.90	29.31	-23.4	-23.5	18.5	0.00e+00	0	43	0	1882193920	7	3649
2026-01-14 15:56:25.79	245.22	29.38	-23.3	-23.2	18.7	0.00e+00	0	43	0	1889533952	7	3584
2026-01-14 15:56:26.79	245.53	29.45	-23.2	-23.2	18.7	0.00e+00	0	43	0	1896873984	7	3573
2026-01-14 15:56:27.80	245.85	29.51	-23.2	-23.2	18.7	0.00e+00	0	43	0	1904214016	7	3575
2026-01-14 15:56:28.80	246.17	29.58	-23.3	-23.2	18.6	0.00e+00	0	43	0	1911554048	7	3586
2026-01-14 15:56:29.80	246.49	29.64	-23.3	-23.3	18.6	0.00e+00	0	43	0	1918894080	7	3606
2026-01-14 15:56:30.80	246.81	29.71	-23.6	-23.8	18.4	0.00e+00	0	43	0	1926234112	7	3721
2026-01-14 15:56:31.81	247.13	29.77	-23.5	-23.6	18.5	0.00e+00	0	43	0	1933574144	7	3674
2026-01-14 15:56:32.81	247.46	29.83	-23.4	-23.5	18.5	0.00e+00	0	43	0	1940914176	7	3644
2026-01-14 15:56:33.82	247.78	29.89	-23.4	-23.4	18.6	0.00e+00	0	43	0	1948254208	7	3628
2026-01-14 15:56:34.81	248.11	29.95	-23.3	-23.3	18.6	0.00e+00	0	43	0	1954545664	7	3608
2026-01-14 15:56:35.82	248.44	30.01	-23.5	-23.7	18.4	0.00e+00	0	43	0	1961885696	7	3697
2026-01-14 15:56:36.82	248.76	30.07	-23.4	-23.5	18.5	0.00e+00	0	43	0	1969225728	7	3650
2026-01-14 15:56:37.82	249.09	30.13	-23.3	-23.3	18.6	0.00e+00	0	43	0	1976565760	7	3594
2026-01-14 15:56:38.83	249.43	30.19	-23.3	-23.3	18.7	0.00e+00	0	43	0	1983905792	7	3592
2026-01-14 15:56:39.84	249.76	30.24	-23.2	-23.0	18.8	0.00e+00	0	43	0	1991245824	7	3547
2026-01-14 15:56:40.85	250.10	30.30	-23.1	-22.9	18.8	3.40e-06	0	43	0	1998585856	7	3519
2026-01-14 15:56:41.85	250.43	30.35	-23.2	-23.1	18.8	0.00e+00	0	43	0	2005925888	7	3551
2026-01-14 15:56:42.85	250.76	30.41	-23.2	-23.0	18.8	0.00e+00	0	43	0	2013265920	7	3545
2026-01-14 15:56:43.86	251.10	30.46	-23.2	-23.1	18.7	3.40e-06	0	43	0	2020605952	7	3561
2026-01-14 15:56:44.86	251.44	30.51	-23.2	-23.2	18.7	0.00e+00	0	43	0	2027945984	7	3582
2026-01-14 15:56:45.87	251.78	30.56	-23.4	-23.4	18.6	0.00e+00	0	43	0	2035286016	7	3625
2026-01-14 15:56:46.87	252.12	30.61	-23.4	-23.5	18.5	0.00e+00	0	44	0	2041577472	7	3652
2026-01-14 15:56:47.87	252.46	30.66	-23.4	-23.5	18.5	0.00e+00	0	43	0	2048917504	7	3654
2026-01-14 15:56:48.88	252.80	30.71	-23.5	-23.7	18.4	0.00e+00	0	43	0	2056257536	7	3694
2026-01-14 15:56:49.88	253.14	30.75	-23.6	-23.9	18.4	0.00e+00	0	43	0	2063597568	7	3729
2026-01-14 15:56:50.88	253.49	30.80	-23.5	-23.6	18.5	0.00e+00	0	43	0	2070937600	7	3674
2026-01-14 15:56:51.89	253.83	30.84	-23.3	-23.3	18.6	0.00e+00	0	43	0	2078277632	7	3606
2026-01-14 15:56:52.89	254.18	30.88	-23.4	-23.4	18.6	0.00e+00	0	43	0	2085617664	7	3632
2026-01-14 15:56:53.89	254.52	30.93	-23.3	-23.3	18.6	0.00e+00	0	43	0	2092957696	7	3601
2026-01-14 15:56:54.89	254.87	30.97	-23.3	-23.2	18.7	0.00e+00	0	43	0	2100297728	7	3581
2026-01-14 15:56:55.90	255.22	31.01	-23.4	-23.5	18.5	4.50e-06	0	43	0	2107637760	7	3636
2026-01-14 15:56:56.91	255.57	31.05	-23.2	-23.0	18.8	0.00e+00	0	43	0	2114977792	7	3542
2026-01-14 15:56:57.91	255.92	31.08	-23.1	-22.9	18.9	0.00e+00	0	43	0	2122317824	7	3518
2026-01-14 15:56:58.91	256.27	31.12	-23.1	-22.8	18.9	1.10e-06	0	43	0	2128609280	7	3487
2026-01-14 15:56:59.91	256.62	31.16	-23.2	-23.1	18.7	0.00e+00	0	43	0	2135949312	7	3547
2026-01-14 15:57:00.92	256.97	31.19	-23.1	-22.9	18.9	0.00e+00	0	43	0	2143289344	7	3506
2026-01-14 15:57:01.92	257.32	31.22	-23.2	-23.0	18.8	2.20e-06	0	43	0	2150629376	7	3543
2026-01-14 15:57:02.92	257.68	31.25	-23.2	-23.1	18.7	0.00e+00	0	43	0	2157969408	7	3568
2026-01-14 15:57:03.92	258.03	31.29	-23.0	-22.7	19.0	0.00e+00	0	43	0	2165309440	7	3478
2026-01-14 15:57:04.93	258.39	31.32	-22.9	-22.9	19.1	0.00e+00	0	43	0	2172649472	6	3613
2026-01-14 15:57:05.92	258.74	31.34	-22.8	-22.8	19.2	0.00e+00	0	43	0	2179989504	6	3584
2026-01-14 15:57:06.93	259.10	31.37	-23.1	-23.3	18.9	0.00e+00	0	43	0	2186280960	6	3684
2026-01-14 15:57:07.94	259.45	31.40	-23.0	-23.1	19.0	0.00e+00	0	43	0	2193620992	6	3657
2026-01-14 15:57:08.93	259.81	31.42	-23.0	-23.3	19.0	0.00e+00	0	43	0	2200961024	6	3692
2026-01-14 15:57:09.93	260.16	31.45	-23.2	-23.6	18.8	0.00e+00	0	43	0	2208301056	6	3765
2026-01-14 15:57:10.94	260.52	31.47	-23.2	-23.7	18.7	0.00e+00	0	43	0	2215641088	6	3788
2026-01-14 15:57:11.94	260.88	31.49	-23.1	-23.4	18.8	0.00e+00	0	43	0	2222981120	6	3718
2026-01-14 15:57:12.94	261.24	31.51	-23.1	-23.3	18.9	0.00e+00	0	43	0	2230321152	6	3693
2026-01-14 15:57:13.94	261.60	31.53	-23.2	-23.5	18.8	0.00e+00	0	43	0	2237661184	6	3740
2026-01-14 15:57:14.95	261.96	31.55	-22.9	-23.0	19.1	0.00e+00	0	43	0	2245001216	6	3632
2026-01-14 15:57:15.95	262.32	31.56	-22.9	-22.9	19.1	0.00e+00	0	43	0	2252341248	6	3608
2026-01-14 15:57:16.96	262.68	31.58	-23.1	-23.3	19.0	0.00e+00	0	43	0	2259681280	6	3699
2026-01-14 15:57:17.96	263.04	31.59	-23.2	-23.5	18.8	0.00e+00	0	43	0	2267021312	6	3754
2026-01-14 15:57:18.97	263.41	31.61	-23.3	-23.8	18.7	0.00e+00	0	43	0	2273312768	6	3822
2026-01-14 15:57:19.97	263.77	31.62	-23.3	-23.7	18.7	0.00e+00	0	43	0	2280652800	6	3791
2026-01-14 15:57:20.96	264.12	31.63	-23.3	-23.8	18.7	0.00e+00	0	43	0	2287992832	6	3810
2026-01-14 15:57:21.97	264.49	31.64	-23.5	-24.2	18.5	0.00e+00	0	43	0	2295332864	6	3904
2026-01-14 15:57:22.97	264.85	31.65	-23.4	-24.0	18.6	0.00e+00	0	43	0	2302672896	6	3858
2026-01-14 15:57:23.97	265.21	31.65	-23.3	-23.8	18.7	0.00e+00	0	43	0	2310012928	6	3802
2026-01-14 15:57:24.97	265.57	31.66	-23.3	-23.8	18.7	0.00e+00	0	43	0	2317352960	6	3800
2026-01-14 15:57:25.97	265.93	31.66	-23.4	-23.9	18.6	0.00e+00	0	43	0	2324692992	6	3836
2026-01-14 15:57:26.98	266.30	31.67	-23.1	-23.4	18.9	0.00e+00	0	43	0	2330984448	6	3708
2026-01-14 15:57:27.97	266.65	31.67	-23.2	-23.5	18.8	0.00e+00	0	43	0	2338324480	6	3749
2026-01-14 15:57:28.97	267.01	31.67	-23.0	-23.1	19.0	0.00e+00	0	43	0	2345664512	6	3662
2026-01-14 15:57:29.97	267.38	31.67	-22.9	-22.9	19.1	0.00e+00	0	43	0	2353004544	6	3617
2026-01-14 15:57:30.97	267.74	31.67	-23.0	-23.1	19.1	0.00e+00	0	43	0	2360344576	6	3655
2026-01-14 15:57:31.97	268.10	31.66	-22.9	-23.0	19.1	0.00e+00	0	43	0	2367684608	6	3620
2026-01-14 15:57:32.97	268.46	31.66	-22.8	-22.8	19.2	0.00e+00	0	43	0	2375024640	6	3573
2026-01-14 15:57:33.97	268.82	31.65	-22.9	-23.0	19.1	0.00e+00	0	43	0	2382364672	6	3638
2026-01-14 15:57:34.98	269.19	31.65	-22.7	-22.5	19.3	0.00e+00	0	43	0	2389704704	6	3527
2026-01-14 15:57:35.98	269.55	31.64	-22.7	-22.4	19.4	0.00e+00	0	43	0	2395996160	6	3504
2026-01-14 15:57:36.98	269.91	31.63	-22.9	-22.8	19.2	0.00e+00	0	43	0	2403336192	6	3595
2026-01-14 15:57:37.98	270.27	31.62	-23.1	-23.3	18.9	0.00e+00	0	43	0	2410676224	6	3702
2026-01-14 15:57:38.99	270.63	31.61	-23.2	-23.7	18.8	0.00e+00	0	43	0	2418016256	6	3777
2026-01-14 15:57:39.99	270.99	31.60	-23.3	-23.8	18.7	0.00e+00	0	43	0	2425356288	6	3802
2026-01-14 15:57:40.99	271.35	31.58	-23.5	-24.2	18.5	0.00e+00	0	43	0	2432696320	6	3905
2026-01-14 15:57:42.00	271.71	31.57	-23.5	-24.3	18.5	0.00e+00	0	43	0	2440036352	6	3918
2026-01-14 15:57:43.00	272.07	31.55	-23.2	-23.6	18.8	0.00e+00	0	43	0	2447376384	6	3772
2026-01-14 15:57:44.00	272.43	31.53	-23.1	-23.5	18.9	0.00e+00	0	43	0	2454716416	6	3731
2026-01-14 15:57:45.01	272.79	31.51	-23.1	-23.4	18.9	0.00e+00	0	43	0	2462056448	6	3717
2026-01-14 15:57:46.01	273.15	31.49	-23.3	-23.7	18.7	0.00e+00	0	43	0	2469396480	6	3793
2026-01-14 15:57:47.01	273.51	31.47	-23.3	-23.8	18.7	0.00e+00	0	43	0	2476736512	6	3803
2026-01-14 15:57:48.01	273.86	31.45	-23.6	-24.0	18.4	0.00e+00	0	43	0	2483027968	7	3760
2026-01-14 15:57:49.02	274.22	31.42	-23.4	-23.5	18.6	0.00e+00	0	43	0	2490368000	7	3648
2026-01-14 15:57:50.03	274.58	31.40	-23.3	-23.3	18.7	0.00e+00	0	43	0	2497708032	7	3588
2026-01-14 15:57:51.03	274.94	31.37	-23.2	-23.0	18.8	0.00e+00	0	43	0	2505048064	7	3539
2026-01-14 15:57:52.03	275.29	31.35	-23.2	-23.2	18.8	0.00e+00	0	43	0	2512388096	7	3572
2026-01-14 15:57:53.03	275.65	31.32	-23.1	-22.8	19.0	0.00e+00	0	43	0	2519728128	7	3493
2026-01-14 15:57:54.03	276.00	31.29	-23.0	-22.6	19.1	0.00e+00	0	43	0	2527068160	7	3441
2026-01-14 15:57:55.04	276.35	31.26	-23.0	-22.7	19.0	0.00e+00	0	43	0	2534408192	7	3476
2026-01-14 15:57:56.05	276.71	31.23	-23.0	-22.7	19.0	0.00e+00	0	43	0	2541748224	7	3466
2026-01-14 15:57:57.05	277.06	31.19	-23.1	-22.8	18.9	0.00e+00	0	43	0	2549088256	7	3496
2026-01-14 15:57:58.05	277.41	31.16	-23.2	-23.1	18.8	0.00e+00	0	43	0	2556428288	7	3555
2026-01-14 15:57:59.06	277.76	31.12	-23.2	-23.1	18.8	0.00e+00	0	43	0	2562719744	7	3562
2026-01-14 15:58:00.07	278.12	31.09	-23.3	-23.4	18.7	0.00e+00	0	43	0	2570059776	7	3611
2026-01-14 15:58:01.07	278.46	31.05	-23.3	-23.3	18.7	0.00e+00	0	43	0	2577399808	7	3589
2026-01-14 15:58:02.06	278.81	31.01	-23.5	-23.7	18.5	0.00e+00	0	43	0	2584739840	7	3682
2026-01-14 15:58:03.07	279.16	30.97	-23.2	-23.0	18.8	0.00e+00	0	43	0	2592079872	7	3529
2026-01-14 15:58:04.07	279.50	30.93	-23.0	-22.8	18.9	0.00e+00	0	43	0	2599419904	7	3482
2026-01-14 15:58:05.08	279.85	30.89	-23.1	-22.8	18.9	0.00e+00	0	43	0	2606759936	7	3497
2026-01-14 15:58:06.08	280.20	30.84	-23.2	-23.1	18.8	0.00e+00	0	43	0	2614099968	7	3554
2026-01-14 15:58:07.09	280.54	30.80	-23.2	-23.1	18.8	0.00e+00	0	43	0	2621440000	7	3560
2026-01-14 15:58:08.10	280.89	30.76	-23.3	-23.2	18.7	0.00e+00	0	43	0	2628780032	7	3586
2026-01-14 15:58:09.10	281.23	30.71	-23.3	-23.3	18.7	0.00e+00	0	43	0	2636120064	7	3592
2026-01-14 15:58:10.10	281.57	30.66	-23.3	-23.4	18.7	0.00e+00	0	43	0	2643460096	7	3621
2026-01-14 15:58:11.11	281.91	30.61	-23.3	-23.3	18.7	0.00e+00	0	43	0	2649751552	7	3594
2026-01-14 15:58:12.11	282.25	30.57	-23.3	-23.3	18.8	0.00e+00	0	43	0	2657091584	7	3592
2026-01-14 15:58:13.11	282.59	30.52	-23.2	-23.1	18.8	0.00e+00	0	43	0	2664431616	7	3547
2026-01-14 15:58:14.11	282.92	30.46	-23.3	-23.2	18.7	0.00e+00	0	43	0	2671771648	7	3583
2026-01-14 15:58:15.11	283.26	30.41	-23.4	-23.5	18.6	0.00e+00	0	43	0	2679111680	7	3653
2026-01-14 15:58:16.11	283.59	30.36	-23.2	-23.1	18.8	0.00e+00	0	43	0	2686451712	7	3567
2026-01-14 15:58:17.11	283.92	30.31	-23.2	-23.1	18.8	0.00e+00	0	43	0	2693791744	7	3567
2026-01-14 15:58:18.11	284.26	30.25	-23.3	-23.4	18.6	0.00e+00	0	43	0	2701131776	7	3618
2026-01-14 15:58:19.12	284.59	30.19	-23.3	-23.2	18.7	0.00e+00	0	43	0	2708471808	7	3579
2026-01-14 15:58:20.12	284.92	30.14	-23.3	-23.3	18.6	0.00e+00	0	43	0	2714763264	7	3604
2026-01-14 15:58:21.11	285.24	30.08	-23.3	-23.3	18.7	0.00e+00	0	43	0	2722103296	7	3607
2026-01-14 15:58:22.11	285.57	30.02	-23.3	-23.3	18.7	0.00e+00	0	43	0	2729443328	7	3597
2026-01-14 15:58:23.12	285.90	29.96	-23.4	-23.5	18.6	0.00e+00	0	43	0	2736783360	7	3630
2026-01-14 15:58:24.12	286.22	29.90	-23.3	-23.3	18.7	0.00e+00	0	43	0	2744123392	7	3607
2026-01-14 15:58:25.12	286.55	29.84	-23.4	-23.5	18.6	0.00e+00	0	43	0	2751463424	7	3639
2026-01-14 15:58:26.12	286.87	29.78	-23.3	-23.3	18.7	0.00e+00	0	43	0	2758803456	7	3599
2026-01-14 15:58:27.13	287.19	29.72	-23.5	-23.6	18.5	0.00e+00	0	43	0	2766143488	7	3666
2026-01-14 15:58:28.13	287.51	29.65	-23.2	-23.1	18.8	0.00e+00	0	43	0	2772434944	7	3558
2026-01-14 15:58:29.13	287.83	29.59	-23.2	-23.1	18.8	0.00e+00	0	43	0	2779774976	7	3545
2026-01-14 15:58:30.14	288.15	29.52	-23.2	-23.2	18.7	0.00e+00	0	43	0	2787115008	7	3571
2026-01-14 15:58:31.13	288.47	29.46	-23.2	-23.1	18.8	0.00e+00	0	43	0	2794455040	7	3565
2026-01-14 15:58:32.13	288.78	29.39	-23.3	-23.2	18.7	0.00e+00	0	43	0	2801795072	7	3586
2026-01-14 15:58:33.13	289.09	29.33	-23.2	-23.1	18.8	0.00e+00	0	43	0	2809135104	7	3547
2026-01-14 15:58:34.12	289.40	29.26	-23.3	-23.3	18.7	0.00e+00	0	43	0	2816475136	7	3588
2026-01-14 15:58:35.12	289.71	29.19	-23.3	-23.2	18.7	0.00e+00	0	43	0	2823815168	7	3580
2026-01-14 15:58:36.12	290.02	29.12	-23.4	-23.5	18.6	0.00e+00	0	43	0	2831155200	7	3634
2026-01-14 15:58:37.12	290.33	29.05	-23.4	-23.6	18.5	0.00e+00	0	43	0	2837446656	7	3664
2026-01-14 15:58:38.13	290.64	28.98	-23.3	-23.3	18.7	0.00e+00	0	43	0	2844786688	7	3596
2026-01-14 15:58:39.12	290.94	28.91	-23.2	-23.2	18.8	0.00e+00	0	43	0	2852126720	7	3567
2026-01-14 15:58:40.12	291.25	28.83	-23.3	-23.3	18.7	0.00e+00	0	43	0	2859466752	7	3589
2026-01-14 15:58:41.13	291.55	28.76	-23.2	-23.0	18.8	0.00e+00	0	43	0	2866806784	7	3538
2026-01-14 15:58:42.13	291.86	28.69	-23.3	-23.2	18.7	0.00e+00	0	43	0	2874146816	7	3574
2026-01-14 15:58:43.12	292.15	28.61	-23.2	-23.2	18.7	0.00e+00	0	43	0	2881486848	7	3568
2026-01-14 15:58:44.13	292.45	28.54	-23.4	-23.4	18.6	0.00e+00	0	43	0	2888826880	7	3616
2026-01-14 15:58:45.14	292.75	28.46	-23.6	-23.9	18.4	0.00e+00	0	43	0	2895118336	7	3724
2026-01-14 15:58:46.14	293.05	28.39	-23.3	-23.3	18.6	0.00e+00	0	43	0	2902458368	7	3592
2026-01-14 15:58:47.14	293.34	28.31	-23.3	-23.3	18.7	0.00e+00	0	43	0	2909798400	7	3590
2026-01-14 15:58:48.15	293.64	28.23	-23.3	-23.3	18.7	0.00e+00	0	43	0	2917138432	7	3610
2026-01-14 15:58:49.15	293.93	28.15	-23.3	-23.3	18.6	0.00e+00	0	43	0	2924478464	7	3605
2026-01-14 15:58:50.15	294.22	28.07	-23.3	-23.4	18.7	0.00e+00	0	43	0	2931818496	7	3611
2026-01-14 15:58:51.15	294.51	28.00	-23.5	-23.6	18.5	0.00e+00	0	43	0	2939158528	7	3669
2026-01-14 15:58:52.15	294.80	27.92	-23.4	-23.6	18.5	0.00e+00	0	43	0	2946498560	7	3664
2026-01-14 15:58:53.16	295.09	27.84	-23.5	-23.7	18.5	0.00e+00	0	43	0	2953838592	7	3694
2026-01-14 15:58:54.16	295.37	27.75	-23.5	-23.8	18.5	0.00e+00	0	43	0	2961178624	7	3696
2026-01-14 15:58:55.16	295.66	27.67	-23.6	-24.0	18.3	0.00e+00	0	43	0	2968518656	7	3746
2026-01-14 15:58:56.16	295.94	27.59	-23.4	-23.4	18.5	0.00e+00	0	43	0	2975858688	7	3625
2026-01-14 15:58:57.17	296.22	27.51	-23.3	-23.3	18.5	0.00e+00	0	43	0	2982150144	7	3592
2026-01-14 15:58:58.17	296.50	27.43	-23.4	-23.4	18.6	0.00e+00	0	43	0	2989490176	7	3621
2026-01-14 15:58:59.17	296.78	27.34	-23.5	-23.8	18.4	0.00e+00	0	43	0	2996830208	7	3703
2026-01-14 15:59:00.17	297.05	27.26	-23.5	-23.7	18.5	0.00e+00	0	43	0	3004170240	7	3682
2026-01-14 15:59:01.17	297.33	27.18	-23.7	-24.1	18.3	0.00e+00	0	43	0	3011510272	7	3767
2026-01-14 15:59:02.17	297.60	27.09	-23.7	-24.1	18.3	0.00e+00	0	43	0	3018850304	7	3783
2026-01-14 15:59:03.18	297.88	27.01	-23.8	-24.3	18.2	0.00e+00	0	43	0	3026190336	7	3821
2026-01-14 15:59:04.18	298.15	26.92	-23.7	-24.2	18.3	0.00e+00	0	43	0	3033530368	7	3796
2026-01-14 15:59:05.19	298.42	26.84	-23.7	-24.1	18.3	0.00e+00	0	43	0	3040870400	7	3776
2026-01-14 15:59:06.19	298.69	26.75	-23.7	-24.2	18.2	0.00e+00	0	43	0	3047161856	7	3796
2026-01-14 15:59:07.19	298.95	26.66	-23.6	-23.9	18.4	0.00e+00	0	43	0	3054501888	7	3724
2026-01-14 15:59:08.19	299.22	26.58	-23.5	-23.7	18.5	0.00e+00	0	44	0	3061841920	7	3684
2026-01-14 15:59:09.20	299.48	26.49	-23.6	-23.8	18.4	0.00e+00	0	43	0	3069181952	7	3712
2026-01-14 15:59:10.21	299.75	26.40	-23.5	-23.7	18.4	0.00e+00	0	43	0	3076521984	7	3689
2026-01-14 15:59:11.20	300.01	26.31	-23.5	-23.7	18.4	0.00e+00	0	43	0	3083862016	7	3694
2026-01-14 15:59:12.21	300.27	26.22	-23.5	-23.8	18.4	0.00e+00	0	43	0	3091202048	7	3702
2026-01-14 15:59:13.21	300.52	26.14	-23.6	-23.9	18.4	0.00e+00	0	43	0	3098542080	7	3730
2026-01-14 15:59:14.22	300.78	26.05	-23.6	-23.8	18.4	0.00e+00	0	43	0	3105882112	7	3714
2026-01-14 15:59:15.23	301.04	25.96	-23.6	-23.8	18.4	0.00e+00	0	43	0	3113222144	7	3713
2026-01-14 15:59:16.23	301.29	25.87	-23.6	-23.9	18.3	0.00e+00	0	43	0	3120562176	7	3723
2026-01-14 15:59:17.23	301.55	25.78	-23.6	-24.0	18.4	0.00e+00	0	43	0	3126853632	7	3746
2026-01-14 15:59:18.24	301.80	25.69	-23.6	-24.0	18.3	0.00e+00	0	43	0	3134193664	7	3761
2026-01-14 15:59:19.24	302.05	25.60	-23.7	-24.1	18.2	0.00e+00	0	43	0	3141533696	7	3778
2026-01-14 15:59:20.25	302.30	25.51	-23.8	-24.2	18.2	0.00e+00	0	43	0	3148873728	7	3806
2026-01-14 15:59:21.25	302.54	25.42	-23.6	-24.0	18.3	0.00e+00	0	43	0	3156213760	7	3750
2026-01-14 15:59:22.26	302.79	25.32	-23.7	-24.1	18.2	0.00e+00	0	43	0	3163553792	7	3780
2026-01-14 15:59:23.27	303.04	25.23	-23.7	-24.1	18.2	0.00e+00	0	43	0	3170893824	7	3784
2026-01-14 15:59:24.27	303.28	25.14	-23.8	-24.4	18.1	0.00e+00	0	43	0	3178233856	7	3842
2026-01-14 15:59:25.27	303.52	25.05	-23.9	-24.5	18.0	0.00e+00	0	43	0	3185573888	7	3875
2026-01-14 15:59:26.27	303.76	24.96	-23.9	-24.6	18.0	0.00e+00	0	43	0	3192913920	7	3896
2026-01-14 15:59:27.27	304.00	24.87	-23.9	-24.5	18.0	0.00e+00	0	43	0	3200253952	7	3876
2026-01-14 15:59:28.27	304.24	24.78	-23.8	-24.4	18.1	0.00e+00	0	43	0	3207593984	7	3849
2026-01-14 15:59:29.28	304.47	24.68	-23.8	-24.3	18.1	0.00e+00	0	43	0	3213885440	7	3829
2026-01-14 15:59:30.28	304.71	24.59	-23.7	-24.2	18.2	0.00e+00	0	43	0	3221225472	7	3801
2026-01-14 15:59:31.28	304.94	24.50	-23.7	-24.1	18.2	0.00e+00	0	44	0	3228565504	7	3784
2026-01-14 15:59:32.28	305.17	24.40	-23.8	-24.3	18.2	0.00e+00	0	43	0	3235905536	7	3815
2026-01-14 15:59:33.28	305.40	24.31	-23.7	-24.2	18.2	0.00e+00	0	43	0	3243245568	7	3795
2026-01-14 15:59:34.29	305.63	24.22	-23.8	-24.3	18.1	0.00e+00	0	43	0	3250585600	7	3825
2026-01-14 15:59:35.29	305.86	24.13	-23.8	-24.3	18.2	0.00e+00	0	44	0	3257925632	7	3812
2026-01-14 15:59:36.29	306.09	24.03	-23.9	-24.5	18.0	0.00e+00	0	43	0	3265265664	7	3865
2026-01-14 15:59:37.29	306.31	23.94	-23.8	-24.4	18.1	0.00e+00	0	43	0	3272605696	7	3845
2026-01-14 15:59:38.30	306.54	23.84	-23.9	-24.5	18.0	0.00e+00	0	43	0	3279945728	7	3865
2026-01-14 15:59:39.30	306.76	23.75	-24.0	-24.7	17.9	0.00e+00	0	43	0	3287285760	7	3926
2026-01-14 15:59:40.31	306.98	23.66	-24.0	-24.8	17.9	0.00e+00	0	44	0	3293577216	7	3945
2026-01-14 15:59:41.31	307.20	23.56	-24.1	-24.5	17.8	0.00e+00	0	43	0	3300917248	8	3764
2026-01-14 15:59:42.32	307.42	23.47	-24.2	-24.7	17.7	0.00e+00	0	43	0	3308257280	8	3810
2026-01-14 15:59:43.32	307.64	23.37	-24.3	-24.9	17.6	0.00e+00	0	43	0	3315597312	8	3853
2026-01-14 15:59:44.32	307.85	23.28	-24.1	-24.6	17.8	0.00e+00	0	43	0	3322937344	8	3778
2026-01-14 15:59:45.33	308.07	23.19	-24.1	-24.5	17.8	0.00e+00	0	43	0	3330277376	8	3773
2026-01-14 15:59:46.33	308.28	23.09	-24.2	-24.6	17.7	0.00e+00	0	43	0	3337617408	8	3792
2026-01-14 15:59:47.33	308.50	23.00	-24.1	-24.5	17.8	0.00e+00	0	43	0	3344957440	8	3763
2026-01-14 15:59:48.34	308.71	22.90	-24.2	-24.6	17.8	0.00e+00	0	43	0	3352297472	8	3779
2026-01-14 15:59:49.33	308.92	22.81	-24.0	-24.3	17.9	0.00e+00	0	43	0	3358588928	8	3718
2026-01-14 15:59:50.34	309.13	22.71	-24.0	-24.2	17.9	0.00e+00	0	43	0	3365928960	8	3704
2026-01-14 15:59:51.34	309.33	22.62	-24.0	-24.2	17.9	1.10e-06	0	43	0	3373268992	8	3704
2026-01-14 15:59:52.34	309.54	22.53	-23.9	-24.0	18.0	0.00e+00	0	43	0	3380609024	8	3640
2026-01-14 15:59:53.34	309.74	22.43	-24.0	-24.2	18.0	0.00e+00	0	43	0	3387949056	8	3694
2026-01-14 15:59:54.34	309.95	22.34	-24.1	-24.4	17.9	0.00e+00	0	43	0	3395289088	8	3730
2026-01-14 15:59:55.34	310.15	22.24	-24.1	-24.4	17.8	0.00e+00	0	43	0	3402629120	8	3751
2026-01-14 15:59:56.34	310.35	22.15	-24.2	-24.7	17.7	0.00e+00	0	43	0	3409969152	8	3805
2026-01-14 15:59:57.34	310.55	22.05	-24.3	-24.9	17.6	0.00e+00	0	43	0	3417309184	8	3851
2026-01-14 15:59:58.35	310.75	21.96	-24.4	-25.1	17.4	0.00e+00	0	43	0	3424649216	8	3909
2026-01-14 15:59:59.35	310.95	21.87	-24.5	-25.3	17.4	0.00e+00	0	44	0	3431989248	8	3943
2026-01-14 16:00:00.35	311.14	21.77	-24.5	-24.9	17.3	0.00e+00	0	44	0	3439329280	9	3741
2026-01-14 16:00:01.36	311.34	21.68	-24.6	-25.0	17.2	0.00e+00	0	43	0	3445620736	9	3773
2026-01-14 16:00:02.36	311.53	21.58	-24.6	-25.1	17.2	0.00e+00	0	43	0	3452960768	9	3790
2026-01-14 16:00:03.36	311.73	21.49	-24.7	-25.3	17.1	0.00e+00	0	43	0	3460300800	9	3842
2026-01-14 16:00:04.36	311.92	21.39	-24.6	-25.1	17.2	0.00e+00	0	44	0	3467640832	9	3800
2026-01-14 16:00:05.37	312.11	21.30	-24.8	-25.4	17.0	0.00e+00	0	43	0	3474980864	9	3866
2026-01-14 16:00:06.37	312.30	21.20	-24.8	-25.4	17.0	0.00e+00	0	43	0	3482320896	9	3876
2026-01-14 16:00:07.37	312.49	21.11	-24.5	-24.8	17.3	0.00e+00	0	43	0	3489660928	9	3731
2026-01-14 16:00:08.37	312.67	21.02	-24.3	-24.5	17.5	0.00e+00	0	44	0	3497000960	9	3661
2026-01-14 16:00:09.37	312.86	20.92	-24.4	-24.6	17.5	0.00e+00	0	43	0	3503292416	9	3676
2026-01-14 16:00:10.37	313.05	20.83	-24.4	-24.5	17.5	0.00e+00	0	43	0	3510632448	9	3673
2026-01-14 16:00:11.37	313.23	20.73	-24.4	-24.6	17.5	0.00e+00	0	43	0	3517972480	9	3681
2026-01-14 16:00:12.37	313.41	20.64	-24.5	-24.8	17.3	0.00e+00	0	43	0	3525312512	9	3734
2026-01-14 16:00:13.38	313.59	20.55	-24.5	-24.8	17.3	0.00e+00	0	43	0	3532652544	9	3741
2026-01-14 16:00:14.38	313.78	20.45	-24.6	-25.0	17.2	0.00e+00	0	43	0	3539992576	9	3788
2026-01-14 16:00:15.38	313.95	20.36	-24.7	-25.3	17.0	0.00e+00	0	43	0	3547332608	9	3848
2026-01-14 16:00:16.38	314.13	20.27	-24.8	-25.5	17.0	0.00e+00	0	43	0	3554672640	9	3883
2026-01-14 16:00:17.38	314.31	20.17	-24.9	-25.7	16.9	0.00e+00	0	43	0	3562012672	9	3930
2026-01-14 16:00:18.39	314.49	20.08	-25.0	-25.9	16.7	0.00e+00	0	43	0	3568304128	9	3983
2026-01-14 16:00:19.39	314.66	19.99	-25.0	-25.8	16.8	0.00e+00	0	43	0	3575644160	9	3976
2026-01-14 16:00:20.40	314.84	19.89	-25.0	-25.9	16.8	0.00e+00	0	43	0	3584032768	9	3979
2026-01-14 16:00:21.40	315.01	19.80	-25.0	-25.8	16.8	0.00e+00	0	43	0	3590324224	9	3977
2026-01-14 16:00:22.40	315.18	19.71	-25.0	-25.8	16.8	0.00e+00	0	43	0	3597664256	9	3970
2026-01-14 16:00:23.40	315.36	19.61	-24.9	-25.6	16.9	0.00e+00	0	43	0	3605004288	9	3908
2026-01-14 16:00:24.41	315.53	19.52	-24.9	-25.6	16.9	0.00e+00	0	43	0	3612344320	9	3910
2026-01-14 16:00:25.41	315.70	19.43	-24.8	-25.5	16.9	0.00e+00	0	43	0	3619684352	9	3888
2026-01-14 16:00:26.41	315.86	19.33	-24.6	-25.1	17.1	0.00e+00	0	43	0	3627024384	9	3807
2026-01-14 16:00:27.42	316.03	19.24	-24.5	-24.9	17.2	0.00e+00	0	44	0	3634364416	9	3756
2026-01-14 16:00:28.42	316.20	19.15	-24.5	-24.8	17.3	0.00e+00	0	43	0	3641704448	9	3739
2026-01-14 16:00:29.42	316.36	19.06	-24.5	-24.7	17.3	0.00e+00	0	43	0	3649044480	9	3713
2026-01-14 16:00:30.43	316.53	18.96	-24.6	-25.0	17.2	0.00e+00	0	43	0	3655335936	9	3773
2026-01-14 16:00:31.44	316.70	18.87	-24.7	-25.2	17.1	0.00e+00	0	43	0	3662675968	9	3817
2026-01-14 16:00:32.44	316.86	18.78	-24.6	-25.0	17.2	0.00e+00	0	43	0	3670016000	9	3778
2026-01-14 16:00:33.45	317.02	18.69	-24.7	-25.3	17.0	0.00e+00	0	43	0	3677356032	9	3850
2026-01-14 16:00:34.45	317.18	18.60	-24.8	-25.5	16.9	0.00e+00	0	44	0	3684696064	9	3892
2026-01-14 16:00:35.45	317.34	18.50	-24.9	-25.8	16.7	0.00e+00	0	43	0	3692036096	9	3957
2026-01-14 16:00:36.46	317.50	18.41	-25.2	-25.8	16.5	0.00e+00	0	44	0	3699376128	10	3867
2026-01-14 16:00:37.45	317.66	18.32	-25.4	-26.2	16.3	0.00e+00	0	44	0	3706716160	10	3956
2026-01-14 16:00:38.46	317.81	18.23	-25.5	-26.6	16.0	0.00e+00	0	43	0	3714056192	10	4048
2026-01-14 16:00:39.46	317.97	18.14	-25.6	-26.6	16.0	0.00e+00	0	43	0	3721396224	10	4055
2026-01-14 16:00:40.47	318.13	18.05	-25.8	-26.6	15.8	0.00e+00	0	44	0	3728736256	11	3942
2026-01-14 16:00:41.47	318.28	17.96	-25.9	-26.9	15.6	0.00e+00	0	43	0	3735027712	11	4015
2026-01-14 16:00:42.47	318.43	17.87	-25.8	-26.7	15.7	0.00e+00	0	43	0	3742367744	11	3973
2026-01-14 16:00:43.47	318.59	17.78	-25.8	-26.7	15.7	0.00e+00	0	43	0	3749707776	11	3974
2026-01-14 16:00:44.48	318.74	17.68	-25.7	-26.4	15.9	0.00e+00	0	43	0	3757047808	11	3893
2026-01-14 16:00:45.49	318.89	17.59	-25.6	-26.1	16.0	0.00e+00	0	43	0	3764387840	11	3836
2026-01-14 16:00:46.49	319.04	17.50	-25.6	-26.1	16.0	0.00e+00	0	43	0	3771727872	11	3841
2026-01-14 16:00:47.49	319.19	17.41	-25.5	-26.0	16.1	0.00e+00	0	43	0	3779067904	11	3812
2026-01-14 16:00:48.50	319.34	17.32	-25.3	-25.6	16.3	0.00e+00	0	43	0	3786407936	11	3707
2026-01-14 16:00:49.49	319.48	17.24	-25.2	-25.3	16.5	0.00e+00	0	43	0	3793747968	11	3633
2026-01-14 16:00:50.50	319.63	17.15	-25.1	-25.2	16.5	0.00e+00	0	43	0	3801088000	11	3618
2026-01-14 16:00:51.50	319.78	17.06	-25.2	-25.3	16.4	0.00e+00	0	43	0	3808428032	11	3652
2026-01-14 16:00:52.51	319.92	16.97	-25.3	-25.4	16.4	0.00e+00	0	43	0	3815768064	11	3670
2026-01-14 16:00:53.51	320.06	16.88	-25.2	-25.3	16.4	0.00e+00	0	43	0	3822059520	11	3644
2026-01-14 16:00:54.52	320.21	16.79	-25.1	-25.1	16.6	0.00e+00	0	43	0	3829399552	11	3594
2026-01-14 16:00:55.52	320.35	16.70	-25.2	-25.2	16.5	0.00e+00	0	43	0	3836739584	11	3632
2026-01-14 16:00:56.53	320.49	16.61	-25.2	-25.3	16.4	0.00e+00	0	43	0	3844079616	11	3645
2026-01-14 16:00:57.53	320.63	16.52	-25.3	-25.5	16.3	0.00e+00	0	43	0	3851419648	11	3687
2026-01-14 16:00:58.53	320.77	16.43	-25.3	-25.5	16.3	0.00e+00	0	43	0	3858759680	11	3693
2026-01-14 16:00:59.53	320.91	16.35	-25.3	-25.6	16.2	0.00e+00	0	44	0	3866099712	11	3710
2026-01-14 16:01:00.54	321.05	16.26	-25.4	-25.8	16.2	1.10e-06	0	43	0	3873439744	11	3751
2026-01-14 16:01:01.54	321.19	16.17	-25.5	-25.8	16.1	0.00e+00	0	43	0	3879731200	11	3766
2026-01-14 16:01:02.55	321.33	16.08	-25.6	-26.1	16.0	1.10e-06	0	43	0	3888119808	11	3819
2026-01-14 16:01:03.54	321.46	16.00	-25.6	-26.1	16.0	0.00e+00	0	44	0	3894411264	11	3831
2026-01-14 16:01:04.55	321.60	15.91	-25.7	-26.3	15.9	0.00e+00	0	43	0	3901751296	11	3879
2026-01-14 16:01:05.55	321.73	15.82	-25.7	-26.4	15.8	0.00e+00	0	43	0	3909091328	11	3894
2026-01-14 16:01:06.55	321.86	15.73	-25.7	-26.4	15.8	0.00e+00	0	43	0	3916431360	11	3909
2026-01-14 16:01:07.55	322.00	15.65	-25.8	-26.5	15.7	0.00e+00	0	43	0	3923771392	11	3933
2026-01-14 16:01:08.55	322.13	15.56	-25.9	-26.8	15.6	0.00e+00	0	43	0	3931111424	11	3994
2026-01-14 16:01:09.55	322.26	15.48	-25.9	-26.7	15.6	0.00e+00	0	43	0	3938451456	11	3988
2026-01-14 16:01:10.56	322.39	15.39	-25.7	-26.5	15.8	0.00e+00	0	44	0	3945791488	11	3920
2026-01-14 16:01:11.56	322.52	15.30	-25.7	-26.3	15.9	0.00e+00	0	43	0	3953131520	11	3884
2026-01-14 16:01:12.56	322.65	15.22	-25.7	-26.4	15.8	0.00e+00	0	43	0	3960471552	11	3900
2026-01-14 16:01:13.56	322.78	15.13	-25.7	-26.3	15.8	0.00e+00	0	43	0	3966763008	11	3884
2026-01-14 16:01:14.57	322.91	15.05	-25.6	-26.2	15.9	0.00e+00	0	44	0	3974103040	11	3854
2026-01-14 16:01:15.57	323.04	14.96	-25.5	-26.0	16.0	0.00e+00	0	43	0	3981443072	11	3814
2026-01-14 16:01:16.57	323.16	14.88	-25.5	-26.0	16.0	0.00e+00	0	43	0	3988783104	11	3808
2026-01-14 16:01:17.57	323.29	14.79	-25.5	-26.0	16.0	0.00e+00	0	43	0	3996123136	11	3800
2026-01-14 16:01:18.57	323.41	14.71	-25.5	-26.0	16.0	0.00e+00	0	43	0	4003463168	11	3816
2026-01-14 16:01:19.57	323.54	14.62	-25.5	-26.0	16.0	0.00e+00	0	44	0	4010803200	11	3818
2026-01-14 16:01:20.58	323.66	14.54	-25.5	-25.9	16.1	0.00e+00	0	44	0	4018143232	11	3779
2026-01-14 16:01:21.58	323.78	14.45	-25.5	-26.0	16.0	0.00e+00	0	43	0	4025483264	11	3814
2026-01-14 16:01:22.58	323.91	14.37	-25.5	-26.0	15.9	0.00e+00	0	44	0	4031774720	11	3806
2026-01-14 16:01:23.58	324.03	14.29	-25.5	-25.9	16.0	0.00e+00	0	44	0	4039114752	11	3790
2026-01-14 16:01:24.59	324.15	14.20	-25.6	-26.2	15.9	0.00e+00	0	43	0	4046454784	11	3849
2026-01-14 16:01:25.59	324.27	14.12	-25.7	-26.3	15.8	0.00e+00	0	43	0	4053794816	11	3877
2026-01-14 16:01:26.59	324.39	14.03	-25.7	-26.5	15.7	0.00e+00	0	43	0	4061134848	11	3915
2026-01-14 16:01:27.59	324.51	13.95	-25.8	-26.7	15.6	0.00e+00	0	44	0	4068474880	11	3971
2026-01-14 16:01:28.60	324.63	13.87	-25.9	-26.9	15.5	0.00e+00	0	44	0	4075814912	11	4020
2026-01-14 16:01:29.60	324.74	13.79	-26.0	-27.0	15.4	0.00e+00	0	43	0	4083154944	11	4062
2026-01-14 16:01:30.60	324.86	13.70	-26.1	-27.2	15.3	0.00e+00	0	43	0	4090494976	11	4095
2026-01-14 16:01:31.60	324.98	13.62	-26.1	-27.3	15.3	0.00e+00	0	43	0	4097835008	11	4121
2026-01-14 16:01:32.61	325.09	13.54	-26.1	-26.9	15.1	0.00e+00	0	44	0	4105175040	12	3921
2026-01-14 16:01:33.61	325.21	13.46	-26.2	-26.9	15.1	0.00e+00	0	44	0	4111466496	12	3928
2026-01-14 16:01:34.62	325.33	13.37	-26.1	-26.9	15.1	0.00e+00	0	44	0	4118806528	12	3930
2026-01-14 16:01:35.62	325.44	13.29	-26.1	-26.8	15.2	0.00e+00	0	43	0	4126146560	12	3894
2026-01-14 16:01:36.62	325.55	13.21	-26.1	-26.7	15.2	0.00e+00	0	43	0	4133486592	12	3873
2026-01-14 16:01:37.63	325.67	13.13	-26.0	-26.6	15.2	0.00e+00	0	44	0	4140826624	12	3860
2026-01-14 16:01:38.63	325.78	13.05	-26.1	-26.7	15.2	0.00e+00	0	43	0	4148166656	12	3873
2026-01-14 16:01:39.63	325.89	12.97	-26.1	-26.7	15.2	0.00e+00	0	43	0	4155506688	12	3877
2026-01-14 16:01:40.64	326.00	12.88	-25.9	-26.4	15.3	0.00e+00	0	43	0	4162846720	12	3807
2026-01-14 16:01:41.65	326.11	12.80	-26.0	-26.5	15.3	0.00e+00	0	43	0	4170186752	12	3819
2026-01-14 16:01:42.65	326.22	12.72	-26.0	-26.6	15.2	0.00e+00	0	44	0	4177526784	12	3860
2026-01-14 16:01:43.66	326.33	12.64	-26.0	-26.6	15.2	0.00e+00	0	44	0	4184866816	12	3850
2026-01-14 16:01:44.66	326.44	12.56	-26.2	-27.0	15.0	0.00e+00	0	44	0	4192206848	12	3938
2026-01-14 16:01:45.66	326.55	12.48	-26.2	-27.0	15.0	0.00e+00	0	43	0	4198498304	12	3938
2026-01-14 16:01:46.66	326.66	12.40	-26.3	-27.2	14.9	0.00e+00	0	43	0	4205838336	12	4000
2026-01-14 16:01:47.66	326.76	12.32	-26.2	-27.0	15.0	0.00e+00	0	43	0	4213178368	12	3963
2026-01-14 16:01:48.66	326.87	12.24	-26.3	-27.3	14.8	0.00e+00	0	43	0	4220518400	12	4026
2026-01-14 16:01:49.67	326.98	12.16	-26.4	-27.3	14.8	0.00e+00	0	43	0	4227858432	12	4035
2026-01-14 16:01:50.67	327.08	12.08	-26.4	-27.4	14.8	0.00e+00	0	43	0	4235198464	12	4064
2026-01-14 16:01:51.67	327.19	12.01	-26.4	-27.5	14.7	0.00e+00	0	44	0	4242538496	12	4077
2026-01-14 16:01:52.68	327.29	11.93	-26.5	-27.6	14.6	0.00e+00	0	44	0	4249878528	12	4103
2026-01-14 16:01:53.68	327.40	11.85	-26.6	-27.4	14.4	0.00e+00	0	43	0	4256169984	13	3956
2026-01-14 16:01:54.68	327.50	11.77	-26.7	-27.6	14.3	1.10e-06	0	44	0	4263510016	13	4009
2026-01-14 16:01:55.68	327.60	11.69	-26.6	-27.4	14.5	1.10e-06	0	44	0	4270850048	13	3942
2026-01-14 16:01:56.69	327.71	11.61	-26.5	-27.2	14.5	2.20e-06	0	43	0	4278190080	13	3895
2026-01-14 16:01:57.70	327.81	11.53	-26.5	-27.1	14.6	2.20e-06	0	43	0	4285530112	13	3873
2026-01-14 16:01:58.70	327.91	11.46	-26.6	-27.3	14.5	0.00e+00	0	44	0	4292870144	13	3921
2026-01-14 16:01:59.71	328.01	11.38	-26.5	-27.1	14.6	0.00e+00	0	44	0	4300210176	13	3871
2026-01-14 16:02:00.71	328.11	11.30	-26.7	-27.6	14.3	0.00e+00	0	43	0	4307550208	13	3992
2026-01-14 16:02:01.72	328.21	11.22	-26.5	-27.1	14.6	1.10e-06	0	44	0	4314890240	13	3880
2026-01-14 16:02:02.72	328.31	11.15	-26.4	-26.9	14.7	0.00e+00	0	43	0	4322230272	13	3823
2026-01-14 16:02:03.72	328.41	11.07	-26.2	-26.6	14.9	0.00e+00	0	44	0	4329570304	13	3755
2026-01-14 16:02:04.72	328.51	10.99	-26.3	-26.7	14.8	0.00e+00	0	44	0	4336910336	13	3786
2026-01-14 16:02:05.73	328.61	10.92	-26.3	-26.8	14.7	0.00e+00	0	44	0	4343201792	13	3812
2026-01-14 16:02:06.73	328.70	10.84	-26.2	-26.6	14.8	0.00e+00	0	44	0	4350541824	13	3752
2026-01-14 16:02:07.74	328.80	10.76	-26.5	-27.1	14.5	0.00e+00	0	44	0	4357881856	13	3880
2026-01-14 16:02:08.74	328.90	10.69	-26.4	-26.9	14.7	0.00e+00	0	44	0	4365221888	13	3832
2026-01-14 16:02:09.75	328.99	10.61	-26.3	-26.8	14.7	1.10e-06	0	43	0	4372561920	13	3801
2026-01-14 16:02:10.75	329.09	10.53	-26.4	-26.9	14.6	0.00e+00	0	44	0	4379901952	13	3834
2026-01-14 16:02:11.76	329.18	10.46	-26.3	-26.7	14.7	0.00e+00	0	44	0	4387241984	13	3785
2026-01-14 16:02:12.76	329.28	10.38	-26.5	-27.2	14.5	0.00e+00	0	43	0	4394582016	13	3898
2026-01-14 16:02:13.77	329.37	10.31	-26.4	-27.1	14.5	0.00e+00	0	43	0	4401922048	13	3873
2026-01-14 16:02:14.77	329.47	10.23	-26.5	-27.2	14.5	0.00e+00	0	43	0	4409262080	13	3901
2026-01-14 16:02:15.77	329.56	10.16	-26.6	-27.5	14.3	0.00e+00	0	43	0	4416602112	13	3980
2026-01-14 16:02:16.78	329.65	10.08	-26.6	-27.5	14.3	1.10e-06	0	43	0	4423942144	13	3991
2026-01-14 16:02:17.78	329.74	10.01	-26.7	-27.6	14.2	2.20e-06	0	44	0	4430233600	13	4006
2026-01-14 16:02:18.78	329.84	9.93	-26.7	-27.7	14.2	1.10e-06	0	43	0	4437573632	13	4035
2026-01-14 16:02:19.78	329.93	9.86	-26.9	-28.0	14.0	5.70e-06	0	43	0	4444913664	13	4110
2026-01-14 16:02:20.79	330.02	9.78	-26.8	-27.8	14.1	4.50e-06	0	43	0	4452253696	13	4069
2026-01-14 16:02:21.79	330.11	9.71	-26.8	-27.9	14.0	1.10e-06	0	43	0	4459593728	13	4086
2026-01-14 16:02:22.80	330.20	9.64	-26.9	-28.2	13.9	5.70e-06	0	43	0	4466933760	13	4158
2026-01-14 16:02:23.80	330.29	9.56	-26.9	-28.0	13.9	3.40e-06	0	44	0	4474273792	13	4117
2026-01-14 16:02:24.80	330.38	9.49	-27.0	-28.3	13.8	5.70e-06	0	44	0	4481613824	13	4198
2026-01-14 16:02:25.80	330.47	9.42	-26.9	-28.2	13.8	6.80e-06	0	44	0	4488953856	13	4149
2026-01-14 16:02:26.81	330.56	9.34	-27.0	-28.3	13.8	2.20e-06	0	43	0	4496293888	13	4193
2026-01-14 16:02:27.81	330.64	9.27	-27.3	-28.5	13.4	1.48e-05	0	44	0	4503633920	14	4142
2026-01-14 16:02:28.81	330.73	9.20	-27.2	-28.3	13.5	1.25e-05	0	44	0	4509925376	14	4091
2026-01-14 16:02:29.81	330.82	9.12	-27.0	-27.9	13.7	6.80e-06	0	43	0	4517265408	14	3986
2026-01-14 16:02:30.81	330.90	9.05	-27.1	-28.0	13.7	6.80e-06	0	44	0	4524605440	14	4006
2026-01-14 16:02:31.82	330.99	8.98	-27.1	-28.1	13.5	1.02e-05	0	43	0	4531945472	14	4034
2026-01-14 16:02:32.82	331.08	8.91	-27.0	-27.8	13.7	5.70e-06	0	43	0	4539285504	14	3963
2026-01-14 16:02:33.82	331.16	8.84	-27.3	-28.6	13.3	1.83e-05	0	44	0	4546625536	14	4163
2026-01-14 16:02:34.83	331.25	8.76	-27.2	-28.3	13.4	2.40e-05	0	44	0	4553965568	14	4093
2026-01-14 16:02:35.83	331.33	8.69	-27.0	-27.9	13.7	1.48e-05	0	43	0	4561305600	14	3982
2026-01-14 16:02:36.84	331.42	8.62	-27.1	-28.1	13.5	1.37e-05	0	43	0	4568645632	14	4047
2026-01-14 16:02:37.84	331.50	8.55	-27.1	-28.2	13.5	1.25e-05	0	43	0	4574937088	14	4058
2026-01-14 16:02:38.85	331.58	8.48	-27.0	-27.8	13.7	3.40e-06	0	44	0	4583325696	14	3947
2026-01-14 16:02:39.85	331.67	8.41	-27.1	-28.0	13.6	1.48e-05	0	44	0	4590665728	14	4020
2026-01-14 16:02:40.85	331.75	8.34	-27.0	-27.9	13.6	5.70e-06	0	44	0	4596957184	14	3991
2026-01-14 16:02:41.85	331.83	8.26	-27.0	-27.9	13.6	6.80e-06	0	44	0	4604297216	14	3974
2026-01-14 16:02:42.85	331.91	8.19	-27.2	-28.3	13.4	1.25e-05	0	43	0	4611637248	14	4088
2026-01-14 16:02:43.85	331.99	8.12	-27.1	-28.1	13.5	1.14e-05	0	43	0	4618977280	14	4050
2026-01-14 16:02:44.85	332.08	8.05	-27.1	-28.1	13.5	1.25e-05	0	44	0	4626317312	14	4029
2026-01-14 16:02:45.86	332.16	7.98	-27.1	-28.1	13.4	2.17e-05	0	43	0	4633657344	14	4044
2026-01-14 16:02:46.86	332.24	7.91	-27.2	-28.3	13.4	2.17e-05	0	43	0	4640997376	14	4095
2026-01-14 16:02:47.87	332.32	7.84	-27.3	-28.6	13.2	3.89e-05	0	44	0	4648337408	14	4183
2026-01-14 16:02:48.87	332.40	7.77	-27.2	-28.4	13.3	3.08e-05	0	43	0	4654628864	14	4118
2026-01-14 16:02:49.87	332.48	7.70	-27.5	-29.1	12.9	3.77e-05	0	44	0	4661968896	14	4325
2026-01-14 16:02:50.88	332.56	7.63	-27.4	-28.4	13.0	5.14e-05	0	43	0	4669308928	15	4018
2026-01-14 16:02:51.88	332.64	7.56	-27.3	-28.0	13.2	2.40e-05	0	43	0	4676648960	15	3917
2026-01-14 16:02:52.87	332.71	7.50	-27.4	-28.4	12.9	5.26e-05	0	44	0	4683988992	15	4030
2026-01-14 16:02:53.87	332.79	7.43	-27.4	-28.3	13.0	4.00e-05	0	43	0	4691329024	15	3992
2026-01-14 16:02:54.88	332.87	7.36	-27.4	-28.4	12.9	5.03e-05	0	43	0	4698669056	15	4022
2026-01-14 16:02:55.88	332.95	7.29	-27.4	-28.3	13.0	5.37e-05	0	43	0	4706009088	15	3997
2026-01-14 16:02:56.89	333.02	7.22	-27.4	-28.3	13.0	5.26e-05	0	44	0	4713349120	15	4002
2026-01-14 16:02:57.89	333.10	7.15	-27.4	-28.4	12.9	5.37e-05	0	44	0	4719640576	15	4010
2026-01-14 16:02:58.90	333.18	7.08	-27.5	-28.5	12.8	5.83e-05	0	44	0	4728029184	15	4057
2026-01-14 16:02:59.90	333.25	7.02	-33.3	-42.5	3.8	8.45e-01	0	44	104	4731174912	26	10357

#Closed at: 2026-01-14 16:03:00
#Recorded file [4731 MB]: D:/data/31010_260114_185203.dat