passes_logs/2026/01/14/R2M6_AANII_01/R2M6_AANII_01__20260114_010419_NOAA_21_JPSS-2_rec.log

#Pass ID: 20260114_010419_NOAA 21 (JPSS-2)
#Satellite: NOAA 21 (JPSS-2)
#Configuration: NOAA 21
#almurnet v.1.7.20240730
#Start time: 2026-01-14 01:04:19

#Version: 2.2.20231116
#Station: R2M6_AANII_01
#Location: 30.233357 lon 59.946436 lat
#TLE: 1 54234U 22150A   26013.18009385  .00000056  00000+0  47387-4 0  9997
#TLE: 2 54234  98.7496 314.1019 0000691 303.8246  56.2864 14.19534466164559

#Time	Az	El	Level	Level2	SNR	BER	BlckErr	Temp	State	Recorded	gain1	gain2
2026-01-14 01:04:19.50	14.68	7.02	-33.8	-45.6	3.8	1.49e+00	0	43	0	0	27	14056
2026-01-14 01:04:20.50	14.65	7.10	-32.9	-41.6	4.0	1.48e+00	0	43	104	0	25	9822
2026-01-14 01:04:21.49	14.61	7.17	-32.7	-39.8	5.1	7.53e-01	0	43	0	0	25	8153
2026-01-14 01:04:22.49	14.58	7.25	-32.4	-38.9	5.8	4.43e-01	0	43	0	2097152	24	7612
2026-01-14 01:04:23.49	14.54	7.32	-32.1	-37.7	6.5	2.55e-01	0	43	0	5242880	24	6813
2026-01-14 01:04:24.50	14.51	7.40	-31.9	-37.1	7.2	1.47e-01	0	43	0	8388608	23	6604
2026-01-14 01:04:25.50	14.47	7.48	-31.6	-36.3	7.8	9.55e-02	0	43	0	11534336	23	6158
2026-01-14 01:04:26.51	14.43	7.55	-31.4	-35.8	8.5	5.06e-02	0	43	0	15728640	22	6031
2026-01-14 01:04:27.51	14.40	7.63	-31.2	-35.2	9.0	3.40e-02	0	43	0	18874368	22	5728
2026-01-14 01:04:28.51	14.36	7.71	-31.0	-35.1	9.3	2.34e-02	0	43	0	22020096	21	5788
2026-01-14 01:04:29.51	14.32	7.78	-30.9	-35.1	9.4	1.75e-02	0	43	0	24117248	21	5787
2026-01-14 01:04:30.51	14.29	7.86	-30.9	-34.8	9.5	1.92e-02	0	43	0	27262976	21	5669
2026-01-14 01:04:31.51	14.25	7.94	-30.9	-34.8	9.5	1.41e-02	0	43	0	30408704	21	5669
2026-01-14 01:04:32.51	14.21	8.02	-30.9	-34.9	9.4	1.43e-02	0	43	0	33554432	21	5725
2026-01-14 01:04:33.52	14.18	8.09	-31.0	-35.1	9.3	2.07e-02	0	43	0	36700160	21	5798
2026-01-14 01:04:34.52	14.14	8.17	-31.1	-35.0	9.1	2.88e-02	0	43	0	39845888	22	5638
2026-01-14 01:04:35.52	14.10	8.25	-30.9	-34.9	9.4	1.82e-02	0	43	0	42991616	21	5730
2026-01-14 01:04:36.52	14.06	8.33	-30.8	-34.7	9.7	1.56e-02	0	43	0	46137344	21	5600
2026-01-14 01:04:37.52	14.02	8.41	-30.8	-34.5	9.8	1.90e-02	0	43	0	49283072	21	5535
2026-01-14 01:04:38.52	13.98	8.49	-30.6	-34.0	10.2	8.18e-03	0	43	0	52428800	21	5310
2026-01-14 01:04:39.52	13.94	8.57	-30.5	-33.8	10.3	1.04e-02	0	43	0	55574528	21	5243
2026-01-14 01:04:40.53	13.90	8.65	-30.5	-33.7	10.4	9.40e-03	0	42	0	58720256	21	5183
2026-01-14 01:04:41.54	13.86	8.73	-30.4	-33.3	10.7	4.51e-03	0	43	0	61865984	21	5027
2026-01-14 01:04:42.53	13.83	8.81	-30.1	-33.2	11.1	6.60e-03	0	43	0	65011712	20	5097
2026-01-14 01:04:43.54	13.78	8.89	-29.9	-32.9	11.7	5.01e-03	0	42	0	68157440	19	5078
2026-01-14 01:04:44.55	13.74	8.97	-29.6	-32.3	12.2	1.04e-03	0	43	0	71303168	19	4863
2026-01-14 01:04:45.55	13.70	9.05	-29.3	-32.0	12.7	4.30e-03	0	43	0	74448896	18	4893
2026-01-14 01:04:46.56	13.66	9.13	-29.2	-31.6	12.9	4.59e-03	0	43	0	77594624	18	4754
2026-01-14 01:04:47.56	13.62	9.21	-29.1	-31.5	13.0	3.43e-05	0	43	0	80740352	18	4714
2026-01-14 01:04:48.57	13.58	9.30	-29.1	-31.4	13.1	7.48e-04	0	42	0	83886080	18	4683
2026-01-14 01:04:49.57	13.54	9.38	-29.1	-31.4	13.1	4.50e-03	0	43	0	87031808	18	4672
2026-01-14 01:04:50.56	13.50	9.46	-29.3	-31.8	12.9	7.36e-04	0	43	0	90177536	18	4812
2026-01-14 01:04:51.56	13.45	9.54	-29.2	-31.7	12.9	2.94e-03	0	43	0	93323264	18	4772
2026-01-14 01:04:52.56	13.41	9.62	-29.2	-31.5	13.0	3.05e-05	0	43	0	96468992	18	4720
2026-01-14 01:04:53.56	13.37	9.71	-29.1	-31.4	13.1	6.68e-04	0	43	0	99614720	18	4699
2026-01-14 01:04:54.57	13.33	9.79	-29.2	-31.7	12.9	4.17e-03	0	43	0	102760448	18	4787
2026-01-14 01:04:55.57	13.28	9.87	-29.2	-31.6	13.0	4.69e-03	0	42	0	105906176	18	4756
2026-01-14 01:04:56.57	13.24	9.96	-29.1	-31.2	13.2	2.44e-05	0	42	0	109051904	18	4628
2026-01-14 01:04:57.57	13.20	10.04	-29.1	-31.3	13.2	6.41e-04	0	43	0	112197632	18	4653
2026-01-14 01:04:58.57	13.15	10.12	-29.0	-31.1	13.3	1.29e-05	0	43	0	115343360	18	4596
2026-01-14 01:04:59.57	13.11	10.21	-28.9	-31.4	13.4	6.45e-04	0	43	0	118489088	17	4806
2026-01-14 01:05:00.57	13.06	10.29	-28.7	-31.0	13.6	4.24e-03	0	42	0	121634816	17	4676
2026-01-14 01:05:01.58	13.02	10.38	-28.8	-31.0	13.6	1.22e-05	0	43	0	124780544	17	4677
2026-01-14 01:05:02.57	12.97	10.46	-28.8	-31.2	13.6	6.29e-04	0	42	0	127926272	17	4719
2026-01-14 01:05:03.58	12.93	10.55	-28.8	-31.1	13.6	5.80e-04	0	43	0	131072000	17	4686
2026-01-14 01:05:04.58	12.88	10.64	-28.7	-30.8	13.8	4.50e-06	0	42	0	134217728	17	4608
2026-01-14 01:05:05.58	12.84	10.72	-28.6	-30.7	13.9	6.47e-04	0	43	0	137363456	17	4559
2026-01-14 01:05:06.58	12.79	10.81	-28.7	-30.9	13.8	5.30e-06	0	42	0	140509184	17	4629
2026-01-14 01:05:07.58	12.74	10.89	-28.7	-30.9	13.8	5.30e-06	0	43	0	143654912	17	4632
2026-01-14 01:05:08.57	12.70	10.98	-28.7	-30.9	13.8	6.13e-04	0	42	0	146800640	17	4622
2026-01-14 01:05:09.58	12.65	11.07	-28.6	-30.7	13.9	5.71e-04	0	42	0	149946368	17	4572
2026-01-14 01:05:10.57	12.60	11.16	-28.6	-30.6	14.0	3.91e-03	0	43	0	153092096	17	4538
2026-01-14 01:05:11.57	12.56	11.24	-28.7	-30.8	13.9	5.30e-06	0	43	0	156237824	17	4592
2026-01-14 01:05:12.57	12.51	11.33	-28.6	-30.6	13.9	5.81e-04	0	43	0	159383552	17	4552
2026-01-14 01:05:13.57	12.46	11.42	-28.5	-30.4	14.1	7.00e-07	0	43	0	162529280	17	4492
2026-01-14 01:05:14.56	12.41	11.51	-28.6	-30.6	14.0	5.59e-04	0	43	0	165675008	17	4536
2026-01-14 01:05:15.56	12.36	11.60	-28.6	-30.6	14.0	6.34e-04	0	43	0	168820736	17	4534
2026-01-14 01:05:16.55	12.31	11.68	-28.4	-30.3	14.2	2.20e-06	0	43	0	171966464	17	4436
2026-01-14 01:05:17.56	12.26	11.77	-28.4	-30.6	14.3	6.36e-04	0	43	0	175112192	16	4662
2026-01-14 01:05:18.56	12.21	11.86	-28.4	-30.7	14.3	6.45e-04	0	42	0	178257920	16	4660
2026-01-14 01:05:19.55	12.16	11.95	-28.4	-30.6	14.3	0.00e+00	0	43	0	181403648	16	4636
2026-01-14 01:05:20.54	12.11	12.04	-28.4	-30.6	14.3	7.00e-07	0	43	0	183500800	16	4641
2026-01-14 01:05:21.54	12.06	12.13	-28.3	-30.4	14.4	6.80e-04	0	43	0	186646528	16	4594
2026-01-14 01:05:22.54	12.01	12.23	-28.3	-30.3	14.5	0.00e+00	0	42	0	189792256	16	4551
2026-01-14 01:05:23.54	11.96	12.32	-28.3	-30.3	14.5	6.06e-04	0	43	0	192937984	16	4558
2026-01-14 01:05:24.54	11.91	12.41	-28.3	-30.4	14.4	6.56e-04	0	42	0	196083712	16	4577
2026-01-14 01:05:25.54	11.86	12.50	-28.3	-30.4	14.5	0.00e+00	0	43	0	199229440	16	4571
2026-01-14 01:05:26.54	11.80	12.59	-28.1	-30.0	14.7	5.03e-04	0	43	0	202375168	16	4460
2026-01-14 01:05:27.53	11.75	12.68	-28.2	-30.1	14.6	4.40e-04	0	42	0	205520896	16	4502
2026-01-14 01:05:28.53	11.70	12.78	-28.1	-30.0	14.7	0.00e+00	0	42	0	208666624	16	4455
2026-01-14 01:05:29.52	11.64	12.87	-28.1	-30.0	14.7	3.82e-04	0	43	0	211812352	16	4466
2026-01-14 01:05:30.52	11.59	12.96	-28.2	-30.0	14.7	3.46e-04	0	43	0	214958080	16	4469
2026-01-14 01:05:31.52	11.54	13.06	-28.0	-30.2	14.7	0.00e+00	0	43	0	218103808	15	4636
2026-01-14 01:05:32.52	11.48	13.15	-27.9	-30.1	14.8	3.78e-04	0	43	0	221249536	15	4606
2026-01-14 01:05:33.53	11.42	13.25	-28.0	-30.2	14.7	3.63e-04	0	43	0	224395264	15	4649
2026-01-14 01:05:34.53	11.37	13.34	-28.2	-30.2	14.6	0.00e+00	0	43	0	227540992	16	4530
2026-01-14 01:05:35.54	11.31	13.44	-28.2	-30.2	14.6	4.61e-04	0	43	0	230686720	16	4505
2026-01-14 01:05:36.54	11.26	13.53	-28.2	-30.1	14.7	4.10e-04	0	42	0	233832448	16	4477
2026-01-14 01:05:37.54	11.20	13.63	-28.2	-30.1	14.7	0.00e+00	0	42	0	236978176	16	4495
2026-01-14 01:05:38.54	11.14	13.73	-28.2	-30.2	14.6	4.54e-04	0	42	0	240123904	16	4527
2026-01-14 01:05:39.55	11.08	13.82	-28.3	-30.3	14.6	4.82e-04	0	43	0	243269632	16	4538
2026-01-14 01:05:40.55	11.03	13.92	-28.3	-30.2	14.6	0.00e+00	0	43	0	246415360	16	4529
2026-01-14 01:05:41.55	10.97	14.02	-28.3	-30.4	14.5	7.00e-07	0	43	0	249561088	16	4581
2026-01-14 01:05:42.55	10.91	14.12	-28.4	-30.7	14.4	4.88e-04	0	42	0	252706816	16	4666
2026-01-14 01:05:43.55	10.85	14.22	-28.7	-30.8	14.0	7.00e-07	0	43	0	255852544	17	4586
2026-01-14 01:05:44.55	10.79	14.31	-28.7	-30.8	14.0	4.74e-04	0	43	0	258998272	17	4577
2026-01-14 01:05:45.55	10.73	14.41	-28.5	-30.4	14.3	1.56e-04	0	42	0	262144000	17	4459
2026-01-14 01:05:46.56	10.67	14.51	-28.4	-30.6	14.4	1.50e-06	0	43	0	265289728	16	4650
2026-01-14 01:05:47.56	10.61	14.61	-28.4	-30.6	14.4	7.00e-07	0	43	0	268435456	16	4651
2026-01-14 01:05:48.56	10.55	14.71	-28.6	-30.4	14.3	4.72e-04	0	43	0	271581184	17	4478
2026-01-14 01:05:49.56	10.48	14.81	-28.8	-31.0	13.9	2.20e-06	0	43	0	274726912	17	4657
2026-01-14 01:05:50.57	10.42	14.91	-28.8	-31.0	13.9	3.00e-06	0	43	0	277872640	17	4661
2026-01-14 01:05:51.58	10.36	15.02	-28.5	-30.4	14.3	0.00e+00	0	43	0	281018368	17	4461
2026-01-14 01:05:52.58	10.30	15.12	-28.5	-30.2	14.4	7.00e-07	0	43	0	284164096	17	4404
2026-01-14 01:05:53.58	10.23	15.22	-28.4	-30.6	14.5	4.94e-04	0	43	0	287309824	16	4646
2026-01-14 01:05:54.58	10.17	15.32	-28.5	-30.8	14.4	5.14e-04	0	43	0	290455552	16	4683
2026-01-14 01:05:55.58	10.10	15.43	-28.6	-30.5	14.3	2.20e-06	0	43	0	293601280	17	4478
2026-01-14 01:05:56.59	10.04	15.53	-28.5	-30.4	14.4	3.00e-06	0	43	0	296747008	17	4463
2026-01-14 01:05:57.59	9.97	15.63	-28.4	-30.1	14.5	7.00e-07	0	43	0	299892736	17	4359
2026-01-14 01:05:58.60	9.91	15.74	-28.4	-30.6	14.5	1.50e-06	0	43	0	303038464	16	4638
2026-01-14 01:05:59.60	9.84	15.84	-28.5	-30.4	14.4	3.33e-04	0	43	0	306184192	17	4450
2026-01-14 01:06:00.61	9.77	15.95	-28.7	-30.8	14.2	7.00e-07	0	43	0	309329920	17	4571
2026-01-14 01:06:01.61	9.70	16.05	-28.7	-30.8	14.1	2.20e-06	0	43	0	312475648	17	4583
2026-01-14 01:06:02.62	9.64	16.16	-28.7	-30.8	14.1	7.00e-07	0	43	0	315621376	17	4591
2026-01-14 01:06:03.63	9.57	16.27	-28.6	-30.5	14.3	0.00e+00	0	43	0	318767104	17	4491
2026-01-14 01:06:04.63	9.50	16.37	-28.5	-30.3	14.4	7.00e-07	0	43	0	321912832	17	4428
2026-01-14 01:06:05.63	9.43	16.48	-28.5	-30.3	14.4	7.00e-07	0	43	0	325058560	17	4440
2026-01-14 01:06:06.63	9.36	16.59	-28.5	-30.2	14.5	1.50e-06	0	43	0	328204288	17	4398
2026-01-14 01:06:07.63	9.29	16.70	-28.4	-30.7	14.6	0.00e+00	0	43	0	331350016	16	4649
2026-01-14 01:06:08.64	9.22	16.80	-28.6	-30.4	14.4	0.00e+00	0	43	0	334495744	17	4460
2026-01-14 01:06:09.64	9.14	16.91	-28.8	-31.1	14.0	4.50e-06	0	43	0	337641472	17	4668
2026-01-14 01:06:10.65	9.07	17.02	-28.8	-31.1	14.0	6.10e-06	0	43	0	340787200	17	4673
2026-01-14 01:06:11.65	9.00	17.13	-28.6	-30.5	14.3	7.00e-07	0	43	0	343932928	17	4488
2026-01-14 01:06:12.65	8.93	17.24	-28.4	-30.1	14.6	7.00e-07	0	43	0	347078656	17	4360
2026-01-14 01:06:13.65	8.85	17.35	-28.4	-30.5	14.6	0.00e+00	0	43	0	350224384	16	4610
2026-01-14 01:06:14.65	8.78	17.46	-27.6	-29.7	13.9	7.00e-07	0	43	0	353370112	16	4607
2026-01-14 01:06:15.65	8.70	17.58	-28.4	-30.6	12.6	7.00e-07	0	43	0	356515840	16	4617
2026-01-14 01:06:16.65	8.63	17.69	-28.4	-30.6	14.6	0.00e+00	0	43	0	359661568	16	4610
2026-01-14 01:06:17.65	8.55	17.80	-28.4	-30.6	14.5	0.00e+00	0	43	0	362807296	16	4627
2026-01-14 01:06:18.65	8.47	17.91	-28.5	-30.4	14.4	7.00e-07	0	43	0	365953024	17	4441
2026-01-14 01:06:19.65	8.40	18.02	-28.5	-30.3	14.5	7.00e-07	0	43	0	369098752	17	4417
2026-01-14 01:06:20.65	8.32	18.14	-28.5	-30.7	14.6	7.06e-04	0	43	0	372244480	16	4669
2026-01-14 01:06:21.65	8.24	18.25	-28.4	-30.5	14.7	0.00e+00	0	43	0	375390208	16	4591
2026-01-14 01:06:22.66	8.16	18.37	-28.3	-30.3	14.8	7.00e-07	0	43	0	378535936	16	4528
2026-01-14 01:06:23.66	8.08	18.48	-28.3	-30.3	14.8	0.00e+00	0	43	0	381681664	16	4544
2026-01-14 01:06:24.66	8.00	18.60	-28.3	-30.3	14.9	0.00e+00	0	43	0	384827392	16	4528
2026-01-14 01:06:25.66	7.92	18.71	-28.3	-30.3	14.8	1.67e-04	0	43	0	387973120	16	4533
2026-01-14 01:06:26.67	7.84	18.83	-28.5	-30.7	14.6	4.14e-03	0	43	0	391118848	16	4663
2026-01-14 01:06:27.67	7.75	18.95	-28.4	-30.6	14.7	3.96e-03	0	43	0	394264576	16	4627
2026-01-14 01:06:28.67	7.67	19.07	-28.5	-30.4	14.5	0.00e+00	0	43	0	397410304	17	4438
2026-01-14 01:06:29.68	7.58	19.19	-28.7	-30.8	14.3	7.00e-07	0	43	0	400556032	17	4579
2026-01-14 01:06:30.68	7.50	19.30	-28.6	-30.5	14.4	3.60e-03	0	43	0	403701760	17	4475
2026-01-14 01:06:31.68	7.42	19.42	-28.4	-29.9	14.8	2.34e-04	0	43	0	406847488	17	4311
2026-01-14 01:06:32.68	7.33	19.54	-28.2	-30.1	15.0	3.65e-03	0	43	0	409993216	16	4481
2026-01-14 01:06:33.68	7.24	19.66	-28.2	-30.1	15.0	0.00e+00	0	43	0	412090368	16	4462
2026-01-14 01:06:34.68	7.16	19.78	-28.4	-30.6	14.7	0.00e+00	0	43	0	415236096	16	4611
2026-01-14 01:06:35.68	7.07	19.90	-28.2	-30.1	15.0	3.97e-03	0	43	0	418381824	16	4485
2026-01-14 01:06:36.68	6.98	20.02	-28.0	-29.6	15.3	3.82e-03	0	43	0	421527552	16	4336
2026-01-14 01:06:37.68	6.89	20.15	-27.9	-29.3	15.5	8.39e-05	0	43	0	424673280	16	4245
2026-01-14 01:06:38.68	6.80	20.27	-27.7	-29.4	15.5	3.82e-03	0	43	0	427819008	15	4395
2026-01-14 01:06:39.68	6.71	20.39	-27.6	-29.2	15.6	2.60e-03	0	43	0	430964736	15	4336
2026-01-14 01:06:40.68	6.62	20.52	-27.7	-29.5	15.5	9.90e-06	0	43	0	434110464	15	4404
2026-01-14 01:06:41.68	6.52	20.64	-27.7	-29.3	15.6	3.54e-03	0	43	0	437256192	15	4370
2026-01-14 01:06:42.68	6.43	20.76	-27.5	-29.0	15.7	3.93e-03	0	43	0	440401920	15	4291
2026-01-14 01:06:43.68	6.34	20.89	-27.4	-28.7	15.9	3.43e-05	0	43	0	443547648	15	4199
2026-01-14 01:06:44.68	6.24	21.01	-27.3	-29.1	15.9	3.87e-03	0	43	0	446693376	14	4430
2026-01-14 01:06:45.69	6.15	21.14	-27.3	-29.0	16.0	3.85e-03	0	43	0	449839104	14	4401
2026-01-14 01:06:46.69	6.05	21.27	-27.2	-28.9	16.1	1.11e-04	0	43	0	452984832	14	4367
2026-01-14 01:06:47.70	5.95	21.40	-27.2	-28.9	16.1	3.79e-03	0	43	0	456130560	14	4368
2026-01-14 01:06:48.70	5.85	21.52	-27.2	-28.8	16.2	3.48e-03	0	43	0	459276288	14	4326
2026-01-14 01:06:49.71	5.75	21.65	-27.1	-28.7	16.2	0.00e+00	0	43	0	462422016	14	4298
2026-01-14 01:06:50.72	5.65	21.78	-27.2	-28.9	16.1	3.48e-03	0	43	0	465567744	14	4358
2026-01-14 01:06:51.72	5.55	21.91	-27.3	-29.0	16.1	3.92e-03	0	43	0	468713472	14	4384
2026-01-14 01:06:52.71	5.45	22.04	-27.2	-28.7	16.2	1.23e-04	0	43	0	471859200	14	4315
2026-01-14 01:06:53.72	5.35	22.18	-26.9	-28.8	16.4	3.98e-03	0	43	0	475004928	13	4437
2026-01-14 01:06:54.72	5.24	22.31	-26.9	-28.7	16.5	7.00e-07	0	43	0	478150656	13	4405
2026-01-14 01:06:55.72	5.14	22.44	-26.9	-28.8	16.4	0.00e+00	0	43	0	481296384	13	4434
2026-01-14 01:06:56.72	5.03	22.57	-27.0	-28.9	16.4	3.84e-03	0	43	0	484442112	13	4464
2026-01-14 01:06:57.72	4.93	22.70	-27.2	-28.8	16.2	3.52e-03	0	43	0	487587840	14	4323
2026-01-14 01:06:58.73	4.82	22.84	-27.1	-28.7	16.3	0.00e+00	0	43	0	490733568	14	4301
2026-01-14 01:06:59.74	4.71	22.97	-26.9	-28.1	16.5	0.00e+00	0	43	0	493879296	14	4152
2026-01-14 01:07:00.74	4.60	23.11	-26.8	-28.5	16.6	0.00e+00	0	43	0	497025024	13	4378
2026-01-14 01:07:01.75	4.49	23.25	-26.9	-28.6	16.6	2.13e-05	0	43	0	500170752	13	4379
2026-01-14 01:07:02.75	4.38	23.38	-27.0	-28.4	16.4	4.00e-03	0	43	0	503316480	14	4230
2026-01-14 01:07:03.75	4.27	23.52	-27.3	-29.1	16.0	0.00e+00	0	43	0	506462208	14	4420
2026-01-14 01:07:04.75	4.15	23.65	-27.3	-29.0	16.1	0.00e+00	0	43	0	509607936	14	4384
2026-01-14 01:07:05.75	4.04	23.79	-27.0	-28.4	16.4	0.00e+00	0	43	0	512753664	14	4225
2026-01-14 01:07:06.75	3.93	23.93	-26.9	-28.3	16.5	0.00e+00	0	43	0	515899392	14	4188
2026-01-14 01:07:07.75	3.81	24.07	-26.9	-28.2	16.6	3.73e-05	0	43	0	519045120	14	4163
2026-01-14 01:07:08.76	3.69	24.21	-27.0	-28.8	16.5	0.00e+00	0	43	0	522190848	13	4439
2026-01-14 01:07:09.76	3.57	24.35	-27.0	-28.5	16.4	0.00e+00	0	43	0	525336576	14	4240
2026-01-14 01:07:10.76	3.45	24.49	-27.1	-28.6	16.3	0.00e+00	0	43	0	528482304	14	4284
2026-01-14 01:07:11.76	3.33	24.63	-27.1	-28.6	16.3	1.50e-06	0	43	0	531628032	14	4271
2026-01-14 01:07:12.76	3.21	24.78	-27.1	-28.7	16.3	0.00e+00	0	43	0	534773760	14	4292
2026-01-14 01:07:13.76	3.09	24.92	-27.1	-28.5	16.4	0.00e+00	0	43	0	537919488	14	4260
2026-01-14 01:07:14.76	2.96	25.06	-27.3	-28.9	16.2	0.00e+00	0	43	0	541065216	14	4356
2026-01-14 01:07:15.76	2.84	25.20	-27.2	-28.8	16.3	0.00e+00	0	43	0	544210944	14	4322
2026-01-14 01:07:16.76	2.71	25.35	-27.3	-29.1	16.1	0.00e+00	0	43	0	547356672	14	4412
2026-01-14 01:07:17.76	2.59	25.49	-27.3	-29.1	16.1	0.00e+00	0	43	0	550502400	14	4409
2026-01-14 01:07:18.77	2.46	25.64	-27.4	-29.3	16.0	0.00e+00	0	43	0	553648128	14	4466
2026-01-14 01:07:19.76	2.33	25.79	-27.5	-28.9	15.9	0.00e+00	0	43	0	556793856	15	4241
2026-01-14 01:07:20.77	2.19	25.94	-27.5	-29.0	15.9	0.00e+00	0	43	0	559939584	15	4273
2026-01-14 01:07:21.77	2.06	26.08	-27.5	-29.0	15.9	0.00e+00	0	43	0	563085312	15	4277
2026-01-14 01:07:22.76	1.93	26.23	-27.6	-29.2	15.7	0.00e+00	0	43	0	566231040	15	4336
2026-01-14 01:07:23.76	1.80	26.38	-27.7	-29.3	15.7	0.00e+00	0	43	0	569376768	15	4361
2026-01-14 01:07:24.77	1.66	26.53	-27.7	-29.5	15.6	0.00e+00	0	43	0	572522496	15	4400
2026-01-14 01:07:25.77	1.52	26.68	-27.8	-29.6	15.6	0.00e+00	0	43	0	575668224	15	4443
2026-01-14 01:07:26.77	1.38	26.83	-27.8	-29.7	15.5	0.00e+00	0	43	0	578813952	15	4478
2026-01-14 01:07:27.78	1.24	26.98	-27.9	-29.8	15.4	0.00e+00	0	43	0	581959680	15	4504
2026-01-14 01:07:28.78	1.10	27.14	-27.9	-30.0	15.4	0.00e+00	0	43	0	585105408	15	4549
2026-01-14 01:07:29.79	0.95	27.29	-27.9	-29.9	15.4	0.00e+00	0	43	0	588251136	15	4527
2026-01-14 01:07:30.79	0.81	27.45	-28.2	-30.1	15.2	0.00e+00	0	43	0	591396864	16	4467
2026-01-14 01:07:31.79	0.66	27.60	-28.2	-30.0	15.3	0.00e+00	0	43	0	594542592	16	4417
2026-01-14 01:07:32.79	0.52	27.75	-28.2	-30.0	15.2	0.00e+00	0	43	0	597688320	16	4445
2026-01-14 01:07:33.80	0.37	27.91	-28.2	-30.1	15.3	0.00e+00	0	43	0	600834048	16	4450
2026-01-14 01:07:34.80	0.21	28.07	-28.3	-30.2	15.2	7.00e-07	0	43	0	603979776	16	4489
2026-01-14 01:07:35.80	0.06	28.22	-28.3	-30.1	15.2	0.00e+00	0	43	0	607125504	16	4472
2026-01-14 01:07:36.80	359.91	28.38	-28.3	-30.3	15.1	0.00e+00	0	43	0	610271232	16	4521
2026-01-14 01:07:37.79	359.76	28.54	-28.3	-30.2	15.2	0.00e+00	0	43	0	613416960	16	4478
2026-01-14 01:07:38.80	359.60	28.70	-28.4	-30.4	15.1	0.00e+00	0	43	0	616562688	16	4537
2026-01-14 01:07:39.80	359.44	28.86	-28.3	-30.2	15.2	0.00e+00	0	43	0	618659840	16	4487
2026-01-14 01:07:40.80	359.28	29.02	-28.4	-30.5	15.0	0.00e+00	0	43	0	621805568	16	4569
2026-01-14 01:07:41.80	359.12	29.18	-28.3	-30.2	15.2	0.00e+00	0	43	0	624951296	16	4484
2026-01-14 01:07:42.81	358.95	29.34	-28.2	-30.1	15.2	7.00e-07	0	43	0	629145600	16	4454
2026-01-14 01:07:43.80	358.79	29.50	-28.3	-30.3	15.1	0.00e+00	0	43	0	631242752	16	4524
2026-01-14 01:07:44.80	358.62	29.67	-28.1	-29.8	15.4	0.00e+00	0	43	0	634388480	16	4382
2026-01-14 01:07:45.80	358.46	29.83	-27.7	-29.5	15.7	0.00e+00	0	43	0	637534208	15	4410
2026-01-14 01:07:46.80	358.29	29.99	-27.8	-29.6	15.6	0.00e+00	0	43	0	640679936	15	4434
2026-01-14 01:07:47.80	358.12	30.16	-27.6	-29.2	15.8	0.00e+00	0	43	0	643825664	15	4326
2026-01-14 01:07:48.80	357.94	30.33	-27.6	-29.2	15.8	0.00e+00	0	43	0	646971392	15	4336
2026-01-14 01:07:49.80	357.77	30.49	-27.7	-29.5	15.7	0.00e+00	0	43	0	650117120	15	4399
2026-01-14 01:07:50.81	357.59	30.66	-27.7	-29.4	15.7	0.00e+00	0	43	0	653262848	15	4377
2026-01-14 01:07:51.80	357.41	30.83	-27.7	-29.5	15.7	0.00e+00	0	43	0	656408576	15	4401
2026-01-14 01:07:52.80	357.23	30.99	-27.8	-29.5	15.7	0.00e+00	0	43	0	659554304	15	4416
2026-01-14 01:07:53.81	357.04	31.16	-27.8	-29.6	15.6	0.00e+00	0	43	0	662700032	15	4444
2026-01-14 01:07:54.82	356.86	31.34	-27.8	-29.7	15.6	0.00e+00	0	43	0	665845760	15	4479
2026-01-14 01:07:55.82	356.67	31.51	-27.7	-29.3	15.8	0.00e+00	0	43	0	668991488	15	4349
2026-01-14 01:07:56.83	356.48	31.68	-27.7	-29.3	15.8	0.00e+00	0	43	0	672137216	15	4356
2026-01-14 01:07:57.83	356.29	31.85	-27.8	-29.5	15.7	0.00e+00	0	43	0	675282944	15	4406
2026-01-14 01:07:58.83	356.10	32.02	-27.6	-29.1	15.9	5.49e-05	0	43	0	678428672	15	4300
2026-01-14 01:07:59.83	355.90	32.19	-27.4	-28.8	16.1	0.00e+00	0	43	0	681574400	15	4198
2026-01-14 01:08:00.84	355.70	32.37	-27.5	-29.4	16.0	0.00e+00	0	43	0	684720128	14	4476
2026-01-14 01:08:01.83	355.50	32.54	-27.5	-29.0	16.0	0.00e+00	0	43	0	687865856	15	4258
2026-01-14 01:08:02.84	355.30	32.72	-27.7	-29.4	15.7	0.00e+00	0	43	0	691011584	15	4386
2026-01-14 01:08:03.84	355.10	32.89	-27.7	-29.4	15.7	0.00e+00	0	43	0	694157312	15	4382
2026-01-14 01:08:04.84	354.89	33.07	-28.0	-30.1	15.4	0.00e+00	0	43	0	697303040	15	4570
2026-01-14 01:08:05.84	354.68	33.24	-28.2	-30.0	15.3	0.00e+00	0	43	0	700448768	16	4418
2026-01-14 01:08:06.85	354.47	33.42	-28.2	-30.1	15.2	0.00e+00	0	43	0	703594496	16	4453
2026-01-14 01:08:07.85	354.26	33.60	-28.4	-30.4	15.1	0.00e+00	0	43	0	706740224	16	4547
2026-01-14 01:08:08.85	354.04	33.78	-28.3	-30.3	15.1	2.57e-04	0	43	0	709885952	16	4524
2026-01-14 01:08:09.85	353.82	33.96	-28.4	-30.5	15.1	0.00e+00	0	43	0	713031680	16	4571
2026-01-14 01:08:10.85	353.60	34.14	-27.8	-30.0	14.6	0.00e+00	0	43	0	716177408	16	4611
2026-01-14 01:08:11.85	353.38	34.32	-28.6	-30.4	13.0	0.00e+00	0	43	0	719323136	17	4444
2026-01-14 01:08:12.85	353.16	34.50	-28.8	-30.8	14.3	0.00e+00	0	43	0	722468864	17	4539
2026-01-14 01:08:13.84	352.93	34.67	-29.1	-31.0	14.1	0.00e+00	0	43	0	725614592	18	4492
2026-01-14 01:08:14.84	352.70	34.86	-29.2	-31.4	14.0	1.50e-06	0	43	0	728760320	18	4626
2026-01-14 01:08:15.84	352.47	35.04	-29.4	-31.7	13.8	3.80e-06	0	43	0	731906048	18	4715
2026-01-14 01:08:16.85	352.23	35.22	-29.3	-31.4	14.0	3.80e-06	0	43	0	735051776	18	4633
2026-01-14 01:08:17.85	351.99	35.40	-29.2	-31.4	14.0	3.80e-06	0	43	0	738197504	18	4601
2026-01-14 01:08:18.86	351.75	35.59	-29.0	-30.9	14.3	1.90e-05	0	43	0	741343232	18	4470
2026-01-14 01:08:19.85	351.51	35.77	-29.1	-31.2	14.2	2.20e-06	0	43	0	744488960	18	4545
2026-01-14 01:08:20.85	351.26	35.96	-29.0	-30.8	14.3	7.00e-07	0	43	0	747634688	18	4445
2026-01-14 01:08:21.85	351.01	36.14	-29.0	-30.8	14.4	7.00e-07	0	43	0	750780416	18	4424
2026-01-14 01:08:22.86	350.76	36.33	-29.2	-31.4	14.0	9.91e-05	0	43	0	753926144	18	4600
2026-01-14 01:08:23.86	350.50	36.51	-29.2	-31.4	14.0	3.81e-03	0	43	0	757071872	18	4620
2026-01-14 01:08:24.86	350.24	36.70	-29.5	-31.5	13.6	2.45e-04	0	43	0	760217600	19	4544
2026-01-14 01:08:25.87	349.98	36.89	-29.5	-31.5	13.6	6.80e-06	0	43	0	763363328	19	4535
2026-01-14 01:08:26.87	349.71	37.07	-29.4	-31.8	13.8	6.80e-06	0	43	0	766509056	18	4745
2026-01-14 01:08:27.88	349.44	37.26	-29.5	-31.5	13.7	3.06e-04	0	43	0	769654784	19	4529
2026-01-14 01:08:28.89	349.17	37.45	-29.5	-31.5	13.7	2.80e-03	0	43	0	772800512	19	4523
2026-01-14 01:08:29.89	348.90	37.64	-29.4	-31.4	13.7	2.83e-03	0	43	0	775946240	19	4495
2026-01-14 01:08:30.89	348.62	37.83	-29.6	-31.9	13.4	2.39e-04	0	43	0	779091968	19	4647
2026-01-14 01:08:31.89	348.34	38.01	-29.7	-32.0	13.3	2.59e-05	0	43	0	782237696	19	4702
2026-01-14 01:08:32.89	348.06	38.20	-29.8	-32.3	13.2	9.01e-04	0	43	0	785383424	19	4794
2026-01-14 01:08:33.89	347.77	38.39	-29.7	-31.9	13.3	2.05e-05	0	43	0	788529152	19	4667
2026-01-14 01:08:34.90	347.48	38.58	-29.7	-32.1	13.3	9.23e-04	0	43	0	791674880	19	4709
2026-01-14 01:08:35.90	347.18	38.77	-29.7	-32.0	13.4	1.88e-03	0	43	0	794820608	19	4687
2026-01-14 01:08:36.90	346.89	38.96	-29.7	-32.0	13.4	1.67e-05	0	43	0	797966336	19	4688
2026-01-14 01:08:37.90	346.59	39.15	-29.9	-32.4	13.1	2.39e-03	0	43	0	801112064	19	4836
2026-01-14 01:08:38.91	346.28	39.34	-29.8	-32.4	13.1	2.36e-03	0	43	0	804257792	19	4810
2026-01-14 01:08:39.91	345.97	39.53	-29.8	-32.2	13.2	1.98e-05	0	43	0	807403520	19	4776
2026-01-14 01:08:40.92	345.66	39.72	-29.8	-32.3	13.1	2.67e-03	0	43	0	810549248	19	4791
2026-01-14 01:08:41.92	345.34	39.91	-29.7	-31.9	13.4	2.75e-03	0	43	0	813694976	19	4668
2026-01-14 01:08:42.93	345.02	40.11	-29.6	-31.8	13.4	2.21e-05	0	43	0	816840704	19	4631
2026-01-14 01:08:43.93	344.70	40.29	-29.5	-31.5	13.6	3.61e-03	0	43	0	819986432	19	4546
2026-01-14 01:08:44.93	344.37	40.48	-29.8	-32.2	13.3	3.53e-03	0	43	0	823132160	19	4749
2026-01-14 01:08:45.93	344.04	40.67	-29.7	-32.0	13.3	1.37e-05	0	43	0	826277888	19	4697
2026-01-14 01:08:46.93	343.70	40.86	-29.6	-31.8	13.4	1.29e-05	0	43	0	829423616	19	4617
2026-01-14 01:08:47.93	343.37	41.05	-29.5	-31.5	13.7	1.14e-05	0	43	0	832569344	19	4524
2026-01-14 01:08:48.93	343.02	41.24	-29.4	-31.2	13.8	8.30e-06	0	43	0	835715072	19	4442
2026-01-14 01:08:49.93	342.68	41.43	-29.7	-31.9	13.5	4.05e-03	0	43	0	838860800	19	4645
2026-01-14 01:08:50.94	342.32	41.62	-29.6	-31.7	13.6	3.80e-03	0	43	0	842006528	19	4585
2026-01-14 01:08:51.94	341.97	41.81	-29.6	-31.7	13.5	6.80e-06	0	43	0	845152256	19	4606
2026-01-14 01:08:52.95	341.60	42.00	-30.0	-32.7	12.9	4.11e-05	0	43	0	847249408	19	4922
2026-01-14 01:08:53.95	341.24	42.19	-30.1	-32.5	12.6	8.62e-05	0	43	0	851443712	20	4745
2026-01-14 01:08:54.96	340.87	42.38	-30.2	-32.8	12.5	1.09e-04	0	43	0	854589440	20	4843
2026-01-14 01:08:55.96	340.50	42.57	-30.3	-33.1	12.3	3.57e-03	0	43	0	857735168	20	4966
2026-01-14 01:08:56.96	340.12	42.75	-30.3	-33.1	12.3	1.26e-04	0	43	0	860880896	20	4968
2026-01-14 01:08:57.96	339.74	42.94	-30.1	-32.5	12.6	1.09e-04	0	43	0	864026624	20	4756
2026-01-14 01:08:58.96	339.35	43.13	-30.0	-32.3	12.7	6.63e-05	0	43	0	867172352	20	4694
2026-01-14 01:08:59.96	338.96	43.31	-30.2	-32.7	12.6	9.46e-05	0	43	0	870318080	20	4805
2026-01-14 01:09:00.97	338.57	43.50	-30.0	-32.3	12.8	8.69e-05	0	43	0	872415232	20	4696
2026-01-14 01:09:01.97	338.17	43.68	-30.0	-32.3	12.8	6.33e-05	0	43	0	875560960	20	4698
2026-01-14 01:09:02.98	337.76	43.87	-30.3	-33.1	12.3	1.38e-04	0	43	0	878706688	20	4944
2026-01-14 01:09:03.99	337.35	44.05	-30.3	-33.2	12.3	1.95e-04	0	43	0	881852416	20	4987
2026-01-14 01:09:05.00	336.93	44.24	-30.3	-33.0	12.3	1.78e-04	0	43	0	884998144	20	4937
2026-01-14 01:09:06.00	336.51	44.42	-30.3	-33.1	12.3	1.69e-04	0	43	0	888143872	20	4953
2026-01-14 01:09:07.00	336.09	44.60	-30.6	-33.4	11.8	3.84e-04	0	43	0	891289600	21	4931
2026-01-14 01:09:08.00	335.66	44.78	-30.5	-33.0	12.0	3.68e-04	0	43	0	894435328	21	4826
2026-01-14 01:09:09.00	335.23	44.95	-30.3	-32.9	12.4	1.60e-04	0	43	0	897581056	20	4905
2026-01-14 01:09:10.00	334.79	45.13	-30.4	-33.2	12.3	1.85e-04	0	43	0	900726784	20	4974
2026-01-14 01:09:11.01	334.34	45.31	-30.2	-32.9	12.5	1.20e-04	0	43	0	903872512	20	4872
2026-01-14 01:09:12.01	333.90	45.48	-30.3	-32.9	12.4	1.26e-04	0	43	0	907018240	20	4891
2026-01-14 01:09:13.01	333.44	45.66	-30.4	-33.3	12.2	1.92e-04	0	43	0	910163968	20	5014
2026-01-14 01:09:14.01	332.99	45.83	-30.3	-33.0	12.3	1.88e-04	0	43	0	913309696	20	4930
2026-01-14 01:09:15.01	332.52	46.00	-30.1	-32.6	12.5	1.14e-04	0	43	0	916455424	20	4796
2026-01-14 01:09:16.02	332.05	46.17	-30.1	-32.6	12.6	1.09e-04	0	43	0	919601152	20	4784
2026-01-14 01:09:17.02	331.58	46.34	-30.2	-32.7	12.5	9.30e-05	0	43	0	922746880	20	4820
2026-01-14 01:09:18.02	331.10	46.51	-30.5	-33.4	12.1	1.94e-04	0	43	0	925892608	20	5076
2026-01-14 01:09:19.02	330.62	46.67	-30.3	-33.0	12.3	1.56e-04	0	43	0	929038336	20	4931
2026-01-14 01:09:20.02	330.13	46.83	-29.9	-32.0	12.9	5.79e-05	0	43	0	932184064	20	4592
2026-01-14 01:09:21.02	329.64	47.00	-29.6	-31.8	13.5	1.14e-05	0	43	0	935329792	19	4622
2026-01-14 01:09:22.02	329.14	47.16	-29.5	-31.5	13.6	2.68e-04	0	43	0	938475520	19	4519
2026-01-14 01:09:23.02	328.63	47.31	-29.9	-32.5	13.1	1.29e-05	0	43	0	941621248	19	4840
2026-01-14 01:09:24.02	328.12	47.47	-29.8	-32.4	13.1	3.66e-05	0	43	0	944766976	19	4832
2026-01-14 01:09:25.03	327.61	47.63	-29.7	-32.0	13.3	1.15e-04	0	43	0	947912704	19	4700
2026-01-14 01:09:26.04	327.08	47.78	-29.5	-31.6	13.5	3.66e-05	0	43	0	951058432	19	4556
2026-01-14 01:09:27.04	326.56	47.93	-29.6	-31.7	13.5	7.60e-06	0	43	0	954204160	19	4591
2026-01-14 01:09:28.05	326.02	48.08	-29.5	-31.6	13.6	1.52e-05	0	43	0	957349888	19	4552
2026-01-14 01:09:29.05	325.49	48.23	-29.6	-31.8	13.4	1.44e-05	0	43	0	960495616	19	4624
2026-01-14 01:09:30.05	324.95	48.37	-29.9	-32.6	13.0	4.57e-05	0	43	0	963641344	19	4896
2026-01-14 01:09:31.06	324.40	48.51	-29.7	-32.1	13.2	2.97e-05	0	43	0	966787072	19	4731
2026-01-14 01:09:32.06	323.85	48.65	-29.6	-31.7	13.6	1.29e-05	0	43	0	969932800	19	4587
2026-01-14 01:09:33.06	323.29	48.79	-29.6	-31.7	13.5	1.14e-05	0	43	0	973078528	19	4605
2026-01-14 01:09:34.07	322.73	48.93	-29.8	-32.2	13.2	2.44e-05	0	43	0	976224256	19	4745
2026-01-14 01:09:35.07	322.16	49.06	-29.6	-31.7	13.5	1.52e-05	0	43	0	979369984	19	4606
2026-01-14 01:09:36.07	321.59	49.19	-29.5	-31.5	13.6	9.10e-06	0	43	0	982515712	19	4555
2026-01-14 01:09:37.07	321.02	49.31	-29.5	-31.5	13.6	6.10e-06	0	43	0	985661440	19	4538
2026-01-14 01:09:38.07	320.44	49.44	-29.4	-31.4	13.7	3.80e-06	0	43	0	988807168	19	4505
2026-01-14 01:09:39.07	319.86	49.56	-29.5	-31.5	13.6	6.10e-06	0	43	0	991952896	19	4525
2026-01-14 01:09:40.07	319.27	49.67	-29.4	-31.4	13.6	6.80e-06	0	43	0	995098624	19	4500
2026-01-14 01:09:41.06	318.68	49.79	-29.4	-31.3	13.7	4.50e-06	0	43	0	998244352	19	4465
2026-01-14 01:09:42.07	318.08	49.90	-29.7	-32.1	13.3	1.44e-05	0	43	0	1001390080	19	4741
2026-01-14 01:09:43.07	317.48	50.01	-29.7	-32.1	13.3	1.90e-05	0	43	0	1004535808	19	4739
2026-01-14 01:09:44.07	316.87	50.11	-30.0	-32.3	12.8	4.34e-05	0	43	0	1007681536	20	4683
2026-01-14 01:09:45.07	316.26	50.22	-30.2	-32.8	12.4	1.46e-04	0	43	0	1010827264	20	4872
2026-01-14 01:09:46.08	315.64	50.32	-30.3	-33.0	12.3	1.81e-04	0	43	0	1013972992	20	4916
2026-01-14 01:09:47.08	315.02	50.41	-30.1	-32.7	12.5	1.05e-04	0	43	0	1017118720	20	4808
2026-01-14 01:09:48.09	314.40	50.51	-29.9	-32.1	12.8	5.87e-05	0	43	0	1020264448	20	4625
2026-01-14 01:09:49.09	313.77	50.59	-29.8	-31.8	13.1	3.43e-05	0	43	0	1023410176	20	4539
2026-01-14 01:09:50.10	313.13	50.68	-30.0	-32.7	12.9	4.27e-05	0	43	0	1026555904	19	4920
2026-01-14 01:09:51.09	312.51	50.76	-29.9	-31.9	13.0	4.65e-05	0	43	0	1029701632	20	4572
2026-01-14 01:09:52.09	311.87	50.84	-30.1	-32.5	12.6	5.26e-05	0	43	0	1032847360	20	4750
2026-01-14 01:09:53.09	311.23	50.92	-29.8	-31.9	13.0	4.65e-05	0	43	0	1035993088	20	4550
2026-01-14 01:09:54.09	310.59	50.99	-29.5	-31.4	13.6	9.90e-06	0	43	0	1039138816	19	4509
2026-01-14 01:09:55.09	309.94	51.05	-29.3	-31.1	13.9	8.30e-06	0	43	0	1042284544	19	4417
2026-01-14 01:09:56.09	309.29	51.12	-29.6	-31.8	13.4	1.44e-05	0	43	0	1045430272	19	4646
2026-01-14 01:09:57.09	308.64	51.18	-29.5	-31.6	13.5	1.60e-05	0	43	0	1048576000	19	4584
2026-01-14 01:09:58.09	307.99	51.23	-29.6	-31.7	13.5	1.60e-05	0	43	0	1051721728	19	4614
2026-01-14 01:09:59.10	307.32	51.29	-29.6	-31.8	13.4	8.30e-06	0	43	0	1054867456	19	4631
2026-01-14 01:10:00.10	306.67	51.33	-29.8	-32.4	13.1	2.74e-05	0	43	0	1058013184	19	4820
2026-01-14 01:10:01.10	306.00	51.38	-29.4	-31.6	12.8	6.94e-05	0	43	0	1061158912	20	4677
2026-01-14 01:10:02.10	305.34	51.42	-29.9	-32.4	12.7	5.56e-05	0	43	0	1064304640	19	4845
2026-01-14 01:10:03.10	304.68	51.45	-29.8	-32.3	13.1	3.20e-05	0	43	0	1067450368	19	4788
2026-01-14 01:10:04.10	304.01	51.49	-29.2	-31.3	13.9	6.10e-06	0	43	0	1070596096	18	4595
2026-01-14 01:10:05.10	303.34	51.51	-29.0	-30.9	14.2	1.50e-06	0	43	0	1073741824	18	4460
2026-01-14 01:10:06.10	302.68	51.54	-29.4	-31.8	13.7	6.10e-06	0	43	0	1076887552	18	4748
2026-01-14 01:10:07.10	302.01	51.56	-29.2	-31.3	14.0	2.68e-03	0	43	0	1078984704	18	4602
2026-01-14 01:10:08.10	301.34	51.57	-29.1	-31.0	14.2	0.00e+00	0	43	0	1082130432	18	4484
2026-01-14 01:10:09.10	300.67	51.59	-29.2	-31.3	14.0	7.00e-07	0	43	0	1085276160	18	4601
2026-01-14 01:10:10.11	299.99	51.59	-29.0	-31.3	14.3	3.80e-06	0	43	0	1089470464	17	4687
2026-01-14 01:10:11.12	299.31	51.60	-29.1	-31.1	14.1	7.00e-07	0	43	0	1092616192	18	4515
2026-01-14 01:10:12.12	298.64	51.60	-29.2	-31.4	13.9	4.50e-06	0	43	0	1095761920	18	4613
2026-01-14 01:10:13.12	297.97	51.59	-29.0	-30.9	14.2	7.85e-05	0	43	0	1098907648	18	4471
2026-01-14 01:10:14.12	297.29	51.58	-29.3	-31.5	13.8	2.20e-06	0	44	0	1101004800	18	4666
2026-01-14 01:10:15.13	296.62	51.57	-29.2	-31.4	13.9	7.60e-06	0	43	0	1104150528	18	4613
2026-01-14 01:10:16.13	295.95	51.55	-29.3	-31.6	13.7	5.56e-05	0	43	0	1107296256	18	4701
2026-01-14 01:10:17.14	295.27	51.53	-29.1	-31.1	14.1	5.30e-06	0	44	0	1110441984	18	4534
2026-01-14 01:10:18.14	294.60	51.51	-28.8	-30.4	14.4	7.00e-07	0	43	0	1113587712	18	4335
2026-01-14 01:10:19.15	293.93	51.48	-29.1	-31.0	14.1	3.00e-06	0	43	0	1116733440	18	4509
2026-01-14 01:10:20.15	293.26	51.44	-28.8	-30.9	14.4	0.00e+00	0	43	0	1119879168	17	4574
2026-01-14 01:10:21.15	292.60	51.41	-29.1	-31.0	14.1	1.50e-06	0	43	0	1123024896	18	4509
2026-01-14 01:10:22.15	291.94	51.37	-29.2	-31.3	13.9	1.57e-03	0	43	0	1126170624	18	4589
2026-01-14 01:10:23.15	291.28	51.32	-29.3	-31.5	13.8	1.40e-03	0	43	0	1129316352	18	4660
2026-01-14 01:10:24.16	290.61	51.27	-29.5	-31.4	13.6	4.50e-06	0	43	0	1132462080	19	4527
2026-01-14 01:10:25.15	289.96	51.22	-29.3	-31.5	13.8	3.00e-06	0	43	0	1135607808	18	4667
2026-01-14 01:10:26.16	289.30	51.16	-29.4	-31.9	13.6	2.61e-03	0	43	0	1138753536	18	4784
2026-01-14 01:10:27.16	288.65	51.10	-29.5	-31.6	13.4	9.90e-06	0	43	0	1141899264	19	4582
2026-01-14 01:10:28.15	288.01	51.03	-29.5	-31.5	13.5	2.24e-03	0	43	0	1145044992	19	4538
2026-01-14 01:10:29.15	287.36	50.97	-29.7	-32.1	13.2	1.06e-03	0	43	0	1148190720	19	4746
2026-01-14 01:10:30.15	286.72	50.89	-29.3	-31.0	13.8	1.06e-05	0	43	0	1151336448	19	4407
2026-01-14 01:10:31.15	286.08	50.82	-29.2	-30.8	14.0	6.40e-05	0	43	0	1154482176	19	4327
2026-01-14 01:10:32.16	285.44	50.74	-29.4	-31.8	13.6	4.68e-04	0	43	0	1157627904	18	4757
2026-01-14 01:10:33.16	284.80	50.65	-29.2	-31.3	14.0	3.80e-06	0	43	0	1160773632	18	4586
2026-01-14 01:10:34.17	284.17	50.57	-29.6	-31.8	13.3	9.10e-04	0	43	0	1163919360	19	4651
2026-01-14 01:10:35.17	283.54	50.48	-29.6	-31.8	13.2	2.59e-05	0	44	0	1167065088	19	4641
2026-01-14 01:10:36.17	282.92	50.38	-29.3	-30.9	13.8	3.80e-06	0	43	0	1170210816	19	4370
2026-01-14 01:10:37.16	282.31	50.29	-29.2	-30.7	14.0	1.89e-04	0	43	0	1173356544	19	4303
2026-01-14 01:10:38.17	281.69	50.19	-29.1	-31.0	14.1	2.28e-03	0	44	0	1176502272	18	4514
2026-01-14 01:10:39.17	281.08	50.08	-29.2	-31.2	14.0	5.30e-06	0	43	0	1179648000	18	4561
2026-01-14 01:10:40.17	280.47	49.98	-29.0	-30.9	14.2	3.00e-06	0	44	0	1182793728	18	4482
2026-01-14 01:10:41.18	279.87	49.86	-28.8	-31.0	14.3	0.00e+00	0	43	0	1185939456	17	4611
2026-01-14 01:10:42.18	279.27	49.75	-29.1	-31.1	14.1	6.40e-05	0	43	0	1189085184	18	4526
2026-01-14 01:10:43.18	278.68	49.64	-29.1	-31.2	14.0	3.51e-03	0	43	0	1192230912	18	4551
2026-01-14 01:10:44.19	278.09	49.52	-29.2	-31.3	13.9	3.95e-03	0	43	0	1195376640	18	4583
2026-01-14 01:10:45.19	277.50	49.39	-29.1	-31.0	14.1	2.20e-06	0	43	0	1198522368	18	4513
2026-01-14 01:10:46.19	276.92	49.27	-28.8	-30.9	14.4	7.00e-07	0	44	0	1201668096	17	4588
2026-01-14 01:10:47.19	276.35	49.14	-28.9	-31.0	14.4	3.66e-03	0	43	0	1204813824	17	4630
2026-01-14 01:10:48.20	275.78	49.01	-29.3	-31.6	13.8	3.80e-06	0	43	0	1207959552	18	4681
2026-01-14 01:10:49.20	275.21	48.88	-29.7	-32.0	13.2	2.92e-03	0	43	0	1211105280	19	4715
2026-01-14 01:10:50.20	274.65	48.74	-30.3	-33.2	12.1	1.73e-04	0	44	0	1214251008	20	5006
2026-01-14 01:10:51.21	274.09	48.60	-30.3	-33.0	12.2	3.17e-04	0	43	0	1217396736	20	4937
2026-01-14 01:10:52.21	273.54	48.46	-29.2	-30.9	13.8	4.50e-06	0	43	0	1220542464	19	4359
2026-01-14 01:10:53.21	273.00	48.32	-28.5	-29.8	14.8	0.00e+00	0	44	0	1223688192	18	4150
2026-01-14 01:10:54.21	272.46	48.18	-28.8	-30.3	14.5	0.00e+00	0	44	0	1226833920	18	4296
2026-01-14 01:10:55.21	271.93	48.03	-29.5	-32.0	13.4	7.60e-06	0	43	0	1229979648	18	4812
2026-01-14 01:10:56.22	271.39	47.88	-30.1	-32.6	12.4	5.72e-05	0	43	0	1233125376	20	4814
2026-01-14 01:10:57.22	270.87	47.73	-30.9	-34.3	11.1	1.26e-03	0	43	0	1236271104	21	5328
2026-01-14 01:10:58.22	270.35	47.57	-31.1	-34.2	10.6	3.22e-03	0	44	0	1239416832	22	5177
2026-01-14 01:10:59.22	269.84	47.42	-30.8	-33.5	11.0	3.43e-03	0	44	0	1242562560	22	4922
2026-01-14 01:11:00.22	269.33	47.26	-30.1	-32.1	12.3	4.27e-04	0	44	0	1245708288	21	4526
2026-01-14 01:11:01.22	268.83	47.10	-29.6	-31.8	13.3	2.28e-05	0	44	0	1248854016	19	4636
2026-01-14 01:11:02.22	268.33	46.94	-29.7	-32.1	13.1	2.36e-05	0	44	0	1251999744	19	4722
2026-01-14 01:11:03.22	267.83	46.78	-30.3	-33.0	12.0	2.78e-04	0	44	0	1255145472	20	4941
2026-01-14 01:11:04.22	267.35	46.61	-30.7	-33.6	11.3	8.51e-04	0	44	0	1258291200	21	5025
2026-01-14 01:11:05.23	266.86	46.45	-31.7	-35.4	9.5	7.34e-03	0	44	0	1261436928	23	5546
2026-01-14 01:11:06.23	266.38	46.28	-31.8	-35.8	9.3	2.01e-02	0	44	0	1264582656	23	5705
2026-01-14 01:11:07.24	265.91	46.11	-31.5	-34.8	9.9	1.24e-02	0	43	0	1267728384	23	5282
2026-01-14 01:11:08.24	265.44	45.94	-31.0	-33.9	10.9	2.72e-03	0	44	0	1270874112	22	5040
2026-01-14 01:11:09.24	264.98	45.76	-30.9	-33.8	11.0	1.94e-03	0	43	0	1274019840	22	4988
2026-01-14 01:11:10.25	264.51	45.59	-31.2	-34.4	10.6	3.26e-03	0	44	0	1277165568	22	5234
2026-01-14 01:11:11.25	264.06	45.41	-31.0	-33.9	10.9	2.27e-03	0	44	0	1280311296	22	5031
2026-01-14 01:11:12.25	263.62	45.24	-31.1	-34.3	10.7	2.55e-03	0	43	0	1283457024	22	5171
2026-01-14 01:11:13.25	263.17	45.06	-31.5	-34.8	9.9	6.83e-03	0	44	0	1286602752	23	5295
2026-01-14 01:11:14.26	262.73	44.88	-31.8	-35.8	9.2	2.27e-02	0	44	0	1289748480	23	5715
2026-01-14 01:11:15.26	262.30	44.70	-31.1	-34.2	10.6	7.19e-03	0	44	0	1292894208	22	5154
2026-01-14 01:11:16.26	261.87	44.52	-30.1	-32.7	12.3	7.29e-04	0	44	0	1296039936	20	4842
2026-01-14 01:11:17.26	261.45	44.34	-29.4	-31.4	13.5	3.35e-05	0	44	0	1299185664	19	4514
2026-01-14 01:11:18.27	261.03	44.16	-29.2	-31.4	13.8	2.20e-06	0	44	0	1302331392	18	4618
2026-01-14 01:11:19.27	260.61	43.98	-29.7	-32.0	13.1	1.75e-05	0	44	0	1305477120	19	4701
2026-01-14 01:11:20.28	260.20	43.79	-30.6	-33.5	11.5	3.95e-04	0	44	0	1308622848	21	5009
2026-01-14 01:11:21.28	259.80	43.61	-31.6	-35.1	9.7	1.16e-02	0	43	0	1311768576	23	5423
2026-01-14 01:11:22.28	259.40	43.42	-31.3	-34.8	10.3	1.00e-02	0	44	0	1314914304	22	5400
2026-01-14 01:11:23.29	259.00	43.23	-30.6	-32.9	11.5	1.74e-03	0	44	0	1318060032	22	4686
2026-01-14 01:11:24.29	258.61	43.05	-29.9	-32.0	12.6	1.59e-04	0	44	0	1321205760	20	4624
2026-01-14 01:11:25.29	258.23	42.86	-29.3	-31.2	13.6	4.71e-04	0	43	0	1324351488	19	4452
2026-01-14 01:11:26.30	257.84	42.67	-28.9	-30.6	14.2	1.50e-06	0	44	0	1327497216	18	4391
2026-01-14 01:11:27.30	257.47	42.49	-28.8	-30.4	14.3	1.50e-06	0	44	0	1329594368	18	4324
2026-01-14 01:11:28.30	257.10	42.30	-29.6	-31.7	13.3	6.10e-06	0	44	0	1332740096	19	4625
2026-01-14 01:11:29.30	256.73	42.11	-30.3	-33.3	11.9	2.20e-04	0	43	0	1335885824	20	5051
2026-01-14 01:11:30.30	256.36	41.92	-30.8	-34.1	11.0	1.72e-03	0	44	0	1339031552	21	5243
2026-01-14 01:11:31.30	256.01	41.73	-30.5	-33.3	11.6	1.31e-03	0	44	0	1342177280	21	4928
2026-01-14 01:11:32.30	255.65	41.54	-29.9	-32.1	12.6	1.30e-04	0	44	0	1345323008	20	4628
2026-01-14 01:11:33.31	255.30	41.35	-29.7	-32.1	13.0	4.23e-04	0	44	0	1349517312	19	4731
2026-01-14 01:11:34.31	254.95	41.16	-29.7	-32.1	13.0	6.10e-05	0	44	0	1352663040	19	4743
2026-01-14 01:11:35.32	254.61	40.97	-29.5	-31.5	13.4	1.67e-05	0	43	0	1354760192	19	4546
2026-01-14 01:11:36.32	254.27	40.78	-29.6	-31.8	13.2	3.04e-04	0	44	0	1357905920	19	4637
2026-01-14 01:11:37.32	253.93	40.59	-30.0	-32.3	12.5	3.63e-04	0	43	0	1361051648	20	4716
2026-01-14 01:11:38.32	253.60	40.40	-30.4	-33.6	11.6	4.52e-04	0	44	0	1364197376	20	5149
2026-01-14 01:11:39.33	253.27	40.20	-30.8	-34.1	10.9	2.09e-03	0	43	0	1367343104	21	5238
2026-01-14 01:11:40.33	252.95	40.01	-30.9	-34.4	10.8	3.01e-03	0	44	0	1370488832	21	5349
2026-01-14 01:11:41.34	252.63	39.82	-30.6	-33.5	11.4	1.78e-03	0	44	0	1373634560	21	5017
2026-01-14 01:11:42.33	252.32	39.63	-29.7	-31.6	12.9	6.58e-04	0	44	0	1376780288	20	4491
2026-01-14 01:11:43.33	252.01	39.44	-28.8	-30.4	14.2	6.28e-04	0	44	0	1379926016	18	4339
2026-01-14 01:11:44.34	251.69	39.25	-28.3	-29.8	14.9	0.00e+00	0	44	0	1383071744	17	4261
2026-01-14 01:11:45.34	251.39	39.06	-28.3	-30.2	15.0	4.26e-04	0	44	0	1386217472	16	4483
2026-01-14 01:11:46.35	251.09	38.87	-28.6	-30.4	14.6	3.74e-04	0	44	0	1389363200	17	4428
2026-01-14 01:11:47.35	250.79	38.68	-29.0	-31.3	14.0	7.00e-07	0	44	0	1392508928	17	4717
2026-01-14 01:11:48.35	250.50	38.49	-29.4	-31.8	13.4	1.22e-05	0	43	0	1395654656	18	4768
2026-01-14 01:11:49.35	250.21	38.30	-29.4	-31.9	13.4	1.44e-05	0	44	0	1398800384	18	4804
2026-01-14 01:11:50.36	249.92	38.11	-29.2	-31.4	13.4	8.30e-06	0	44	0	1401946112	18	4652
2026-01-14 01:11:51.36	249.63	37.92	-29.2	-31.3	12.8	4.50e-06	0	44	0	1405091840	18	4602
2026-01-14 01:11:52.37	249.35	37.73	-29.2	-31.3	13.6	1.06e-05	0	43	0	1408237568	18	4593
2026-01-14 01:11:53.37	249.07	37.54	-28.9	-30.7	14.0	3.80e-06	0	43	0	1411383296	18	4421
2026-01-14 01:11:54.37	248.80	37.35	-28.7	-30.8	14.3	2.20e-06	0	44	0	1414529024	17	4573
2026-01-14 01:11:55.37	248.53	37.16	-28.7	-30.6	14.4	4.13e-03	0	44	0	1417674752	17	4515
2026-01-14 01:11:56.38	248.26	36.97	-28.5	-30.2	14.6	0.00e+00	0	44	0	1420820480	17	4390
2026-01-14 01:11:57.38	248.00	36.78	-28.5	-30.6	14.7	0.00e+00	0	44	0	1423966208	16	4629
2026-01-14 01:11:58.38	247.74	36.60	-28.4	-30.5	14.7	0.00e+00	0	44	0	1427111936	16	4591
2026-01-14 01:11:59.38	247.48	36.41	-28.6	-30.4	14.5	0.00e+00	0	44	0	1430257664	17	4451
2026-01-14 01:12:00.39	247.22	36.22	-29.0	-31.0	13.9	3.90e-03	0	44	0	1433403392	18	4522
2026-01-14 01:12:01.39	246.97	36.04	-29.0	-31.1	13.9	3.69e-03	0	44	0	1436549120	18	4542
2026-01-14 01:12:02.39	246.72	35.85	-28.7	-30.3	14.3	0.00e+00	0	44	0	1439694848	18	4322
2026-01-14 01:12:03.39	246.47	35.67	-28.4	-30.5	14.7	0.00e+00	0	44	0	1442840576	16	4584
2026-01-14 01:12:04.40	246.23	35.48	-28.0	-29.7	15.2	0.00e+00	0	44	0	1445986304	16	4343
2026-01-14 01:12:05.40	245.98	35.30	-27.5	-29.0	15.7	1.68e-03	0	44	0	1449132032	15	4287
2026-01-14 01:12:06.40	245.75	35.11	-27.6	-29.3	15.5	4.53e-03	0	44	0	1452277760	15	4364
2026-01-14 01:12:07.40	245.51	34.93	-27.9	-29.9	15.2	0.00e+00	0	44	0	1455423488	15	4549
2026-01-14 01:12:08.41	245.28	34.75	-28.4	-30.4	14.8	5.30e-06	0	44	0	1458569216	16	4573
2026-01-14 01:12:09.41	245.04	34.56	-28.4	-30.7	14.6	1.85e-04	0	44	0	1461714944	16	4641
2026-01-14 01:12:10.42	244.81	34.38	-28.2	-30.2	14.8	4.12e-03	0	44	0	1464860672	16	4493
2026-01-14 01:12:11.42	244.59	34.20	-28.3	-30.2	14.8	1.07e-03	0	44	0	1468006400	16	4518
2026-01-14 01:12:12.43	244.36	34.02	-28.3	-30.3	14.8	3.97e-03	0	44	0	1471152128	16	4523
2026-01-14 01:12:13.43	244.14	33.84	-28.3	-30.3	14.8	0.00e+00	0	44	0	1474297856	16	4525
2026-01-14 01:12:14.43	243.93	33.66	-28.3	-30.2	14.9	3.84e-04	0	44	0	1477443584	16	4510
2026-01-14 01:12:15.43	243.71	33.48	-28.3	-30.4	14.8	4.49e-03	0	43	0	1480589312	16	4553
2026-01-14 01:12:16.43	243.50	33.30	-28.4	-30.5	14.7	4.15e-03	0	44	0	1483735040	16	4605
2026-01-14 01:12:17.43	243.29	33.13	-28.4	-30.4	14.7	0.00e+00	0	44	0	1486880768	16	4573
2026-01-14 01:12:18.43	243.08	32.95	-28.3	-30.4	14.8	3.83e-03	0	43	0	1490026496	16	4565
2026-01-14 01:12:19.43	242.87	32.77	-28.3	-30.3	14.8	3.43e-03	0	43	0	1493172224	16	4537
2026-01-14 01:12:20.43	242.67	32.60	-28.2	-30.2	14.9	7.00e-07	0	44	0	1496317952	16	4492
2026-01-14 01:12:21.43	242.47	32.42	-28.1	-29.9	15.0	2.33e-03	0	44	0	1499463680	16	4425
2026-01-14 01:12:22.43	242.27	32.25	-28.3	-30.4	14.8	2.22e-03	0	43	0	1502609408	16	4557
2026-01-14 01:12:23.43	242.07	32.07	-28.5	-30.7	14.6	0.00e+00	0	44	0	1505755136	16	4663
2026-01-14 01:12:24.43	241.88	31.90	-28.7	-30.7	14.3	2.80e-03	0	44	0	1508900864	17	4558
2026-01-14 01:12:25.43	241.68	31.73	-28.7	-30.7	14.3	2.94e-03	0	44	0	1512046592	17	4550
2026-01-14 01:12:26.43	241.49	31.56	-28.3	-29.9	14.8	0.00e+00	0	44	0	1515192320	17	4305
2026-01-14 01:12:27.42	241.31	31.39	-28.0	-29.6	15.2	2.59e-03	0	44	0	1518338048	16	4334
2026-01-14 01:12:28.43	241.12	31.21	-27.6	-29.3	15.5	2.32e-03	0	44	0	1521483776	15	4373
2026-01-14 01:12:29.43	240.93	31.04	-27.6	-29.3	15.5	0.00e+00	0	44	0	1524629504	15	4358
2026-01-14 01:12:30.43	240.75	30.88	-27.7	-29.5	15.3	2.47e-03	0	44	0	1527775232	15	4421
2026-01-14 01:12:31.43	240.57	30.71	-27.6	-29.3	15.5	2.35e-03	0	44	0	1530920960	15	4357
2026-01-14 01:12:32.43	240.39	30.54	-27.7	-29.4	15.4	7.00e-07	0	44	0	1534066688	15	4407
2026-01-14 01:12:33.43	240.21	30.37	-27.8	-29.8	15.2	0.00e+00	0	44	0	1537212416	15	4505
2026-01-14 01:12:34.44	240.03	30.20	-27.9	-30.0	15.0	0.00e+00	0	44	0	1540358144	15	4577
2026-01-14 01:12:35.45	239.86	30.04	-28.2	-30.2	14.8	0.00e+00	0	44	0	1543503872	16	4508
2026-01-14 01:12:36.44	239.69	29.87	-28.3	-30.3	14.8	6.56e-05	0	43	0	1546649600	16	4540
2026-01-14 01:12:37.45	239.52	29.71	-28.5	-30.3	14.5	0.00e+00	0	44	0	1549795328	17	4435
2026-01-14 01:12:38.45	239.35	29.54	-28.7	-30.8	14.2	0.00e+00	0	43	0	1552941056	17	4579
2026-01-14 01:12:39.46	239.18	29.38	-28.6	-30.5	14.4	1.50e-06	0	43	0	1556086784	17	4478
2026-01-14 01:12:40.47	239.01	29.21	-28.2	-29.5	14.9	0.00e+00	0	43	0	1559232512	17	4199
2026-01-14 01:12:41.47	238.85	29.05	-27.9	-28.8	15.3	7.00e-07	0	44	0	1562378240	17	4014
2026-01-14 01:12:42.47	238.69	28.89	-27.8	-29.1	15.4	6.68e-04	0	43	0	1565523968	16	4210
2026-01-14 01:12:43.47	238.53	28.73	-27.6	-29.2	15.5	0.00e+00	0	43	0	1568669696	15	4332
2026-01-14 01:12:44.48	238.37	28.57	-27.5	-29.2	15.5	0.00e+00	0	43	0	1571815424	15	4333
2026-01-14 01:12:45.48	238.21	28.41	-27.5	-29.0	15.6	0.00e+00	0	44	0	1574961152	15	4304
2026-01-14 01:12:46.48	238.06	28.25	-27.5	-29.0	15.6	7.00e-07	0	44	0	1578106880	15	4281
2026-01-14 01:12:47.49	237.90	28.09	-27.4	-28.7	15.7	0.00e+00	0	44	0	1581252608	15	4219
2026-01-14 01:12:48.49	237.75	27.93	-27.4	-28.8	15.7	0.00e+00	0	43	0	1583349760	15	4239
2026-01-14 01:12:49.49	237.60	27.78	-27.4	-28.8	15.7	0.00e+00	0	43	0	1586495488	15	4233
2026-01-14 01:12:50.50	237.45	27.62	-27.4	-28.7	15.7	0.00e+00	0	44	0	1589641216	15	4208
2026-01-14 01:12:51.49	237.30	27.46	-27.3	-29.1	15.8	0.00e+00	0	43	0	1592786944	14	4434
2026-01-14 01:12:52.50	237.16	27.31	-27.3	-29.2	15.7	0.00e+00	0	44	0	1595932672	14	4448
2026-01-14 01:12:53.50	237.01	27.15	-27.3	-29.1	15.7	0.00e+00	0	43	0	1599078400	14	4443
2026-01-14 01:12:54.50	236.87	27.00	-27.3	-29.1	15.8	0.00e+00	0	44	0	1602224128	14	4420
2026-01-14 01:12:55.50	236.73	26.85	-27.3	-29.2	15.7	0.00e+00	0	44	0	1605369856	14	4448
2026-01-14 01:12:56.50	236.59	26.70	-27.4	-29.2	15.7	0.00e+00	0	44	0	1608515584	14	4461
2026-01-14 01:12:57.50	236.45	26.54	-27.2	-28.9	15.9	0.00e+00	0	43	0	1611661312	14	4362
2026-01-14 01:12:58.51	236.31	26.39	-27.1	-28.6	16.1	6.10e-06	0	43	0	1614807040	14	4278
2026-01-14 01:12:59.52	236.17	26.24	-27.2	-28.8	15.9	0.00e+00	0	43	0	1617952768	14	4355
2026-01-14 01:13:00.51	236.04	26.09	-27.2	-28.9	15.8	0.00e+00	0	44	0	1621098496	14	4376
2026-01-14 01:13:01.52	235.90	25.94	-27.3	-29.1	15.7	0.00e+00	0	44	0	1624244224	14	4442
2026-01-14 01:13:02.52	235.77	25.79	-27.3	-29.2	15.7	0.00e+00	0	44	0	1627389952	14	4454
2026-01-14 01:13:03.52	235.64	25.65	-27.3	-29.1	15.7	0.00e+00	0	44	0	1630535680	14	4431
2026-01-14 01:13:04.53	235.51	25.50	-27.3	-29.1	15.7	0.00e+00	0	43	0	1633681408	14	4446
2026-01-14 01:13:05.53	235.38	25.35	-27.4	-29.4	15.6	0.00e+00	0	43	0	1636827136	14	4523
2026-01-14 01:13:06.53	235.25	25.21	-27.5	-29.2	15.4	0.00e+00	0	43	0	1639972864	15	4351
2026-01-14 01:13:07.53	235.12	25.06	-27.8	-29.7	15.1	4.50e-06	0	43	0	1643118592	15	4498
2026-01-14 01:13:08.53	235.00	24.92	-27.7	-29.6	15.2	0.00e+00	0	43	0	1646264320	15	4457
2026-01-14 01:13:09.53	234.87	24.77	-27.6	-29.3	15.3	0.00e+00	0	43	0	1649410048	15	4383
2026-01-14 01:13:10.54	234.75	24.63	-27.6	-29.4	15.3	6.10e-06	0	44	0	1652555776	15	4410
2026-01-14 01:13:11.54	234.63	24.49	-27.8	-29.7	15.1	0.00e+00	0	44	0	1655701504	15	4478
2026-01-14 01:13:12.54	234.51	24.35	-27.8	-29.7	15.1	0.00e+00	0	44	0	1658847232	15	4482
2026-01-14 01:13:13.55	234.39	24.20	-27.7	-29.4	15.2	2.20e-06	0	44	0	1661992960	15	4419
2026-01-14 01:13:14.55	234.27	24.06	-27.6	-29.4	15.2	7.00e-07	0	43	0	1665138688	15	4421
2026-01-14 01:13:15.55	234.15	23.92	-26.8	-28.6	14.6	0.00e+00	0	44	0	1668284416	15	4457
2026-01-14 01:13:16.55	234.03	23.78	-27.7	-29.5	15.2	1.50e-06	0	43	0	1671430144	15	4441
2026-01-14 01:13:17.56	233.92	23.64	-27.7	-29.5	15.2	7.00e-07	0	43	0	1674575872	15	4434
2026-01-14 01:13:18.56	233.80	23.51	-27.5	-29.2	15.4	7.00e-07	0	43	0	1677721600	15	4338
2026-01-14 01:13:19.57	233.69	23.37	-27.3	-29.2	15.6	0.00e+00	0	44	0	1680867328	14	4470
2026-01-14 01:13:20.57	233.58	23.23	-27.3	-29.2	15.6	1.03e-03	0	43	0	1684013056	14	4450
2026-01-14 01:13:21.58	233.46	23.09	-27.3	-29.2	15.6	0.00e+00	0	44	0	1687158784	14	4467
2026-01-14 01:13:22.58	233.35	22.96	-27.3	-29.2	15.6	7.00e-07	0	43	0	1690304512	14	4469
2026-01-14 01:13:23.57	233.24	22.82	-27.3	-29.2	15.6	0.00e+00	0	43	0	1693450240	14	4464
2026-01-14 01:13:24.57	233.14	22.69	-27.5	-29.6	15.4	0.00e+00	0	44	0	1696595968	14	4570
2026-01-14 01:13:25.57	233.03	22.56	-27.5	-29.1	15.3	0.00e+00	0	44	0	1699741696	15	4335
2026-01-14 01:13:26.57	232.92	22.42	-27.5	-29.0	15.4	3.72e-04	0	44	0	1702887424	15	4305
2026-01-14 01:13:27.58	232.82	22.29	-27.4	-28.9	15.4	0.00e+00	0	44	0	1706033152	15	4276
2026-01-14 01:13:28.57	232.71	22.16	-27.3	-28.7	15.5	0.00e+00	0	44	0	1709178880	15	4230
2026-01-14 01:13:29.58	232.61	22.02	-27.3	-29.1	15.6	2.56e-04	0	44	0	1712324608	14	4429
2026-01-14 01:13:30.58	232.50	21.89	-27.3	-29.0	15.6	2.07e-04	0	43	0	1715470336	14	4423
2026-01-14 01:13:31.59	232.40	21.76	-27.2	-28.9	15.7	0.00e+00	0	43	0	1718616064	14	4391
2026-01-14 01:13:32.59	232.30	21.63	-27.2	-28.9	15.7	0.00e+00	0	43	0	1721761792	14	4382
2026-01-14 01:13:33.60	232.20	21.50	-27.1	-28.7	15.8	0.00e+00	0	43	0	1724907520	14	4338
2026-01-14 01:13:34.60	232.10	21.37	-27.1	-28.6	15.8	0.00e+00	0	44	0	1728053248	14	4312
2026-01-14 01:13:35.60	232.00	21.25	-27.0	-28.6	15.9	2.52e-04	0	43	0	1731198976	14	4295
2026-01-14 01:13:36.60	231.90	21.12	-27.1	-28.6	15.8	2.75e-04	0	43	0	1734344704	14	4298
2026-01-14 01:13:37.61	231.81	20.99	-27.0	-28.4	16.0	0.00e+00	0	43	0	1737490432	14	4241
2026-01-14 01:13:38.60	231.71	20.86	-26.8	-28.5	16.1	0.00e+00	0	43	0	1740636160	13	4385
2026-01-14 01:13:39.61	231.61	20.74	-26.8	-28.4	16.2	3.60e-04	0	43	0	1743781888	13	4370
2026-01-14 01:13:40.61	231.52	20.61	-26.7	-28.4	16.2	0.00e+00	0	44	0	1746927616	13	4350
2026-01-14 01:13:41.61	231.43	20.49	-26.8	-28.5	16.2	3.07e-04	0	43	0	1750073344	13	4376
2026-01-14 01:13:42.61	231.33	20.36	-25.9	-27.6	15.4	2.63e-04	0	43	0	1753219072	13	4352
2026-01-14 01:13:43.62	231.24	20.24	-26.7	-28.3	15.2	0.00e+00	0	44	0	1756364800	13	4332
2026-01-14 01:13:44.62	231.15	20.11	-26.8	-28.4	13.6	1.50e-04	0	43	0	1759510528	13	4369
2026-01-14 01:13:45.62	231.06	19.99	-26.9	-28.7	15.7	5.34e-05	0	43	0	1762656256	13	4444
2026-01-14 01:13:46.63	230.97	19.87	-27.0	-28.9	15.9	0.00e+00	0	44	0	1765801984	13	4494
2026-01-14 01:13:47.63	230.88	19.75	-27.2	-28.9	15.7	0.00e+00	0	43	0	1768947712	14	4381
2026-01-14 01:13:48.62	230.79	19.63	-27.4	-29.3	15.4	2.59e-03	0	44	0	1772093440	14	4501
2026-01-14 01:13:49.63	230.70	19.51	-27.4	-28.9	15.3	0.00e+00	0	43	0	1775239168	15	4292
2026-01-14 01:13:50.63	230.62	19.38	-27.4	-28.9	15.3	0.00e+00	0	44	0	1778384896	15	4281
2026-01-14 01:13:51.64	230.53	19.26	-27.4	-29.5	15.3	0.00e+00	0	43	0	1781530624	14	4554
2026-01-14 01:13:52.64	230.44	19.15	-27.5	-29.5	15.3	0.00e+00	0	44	0	1784676352	14	4573
2026-01-14 01:13:53.64	230.36	19.03	-27.6	-29.3	15.1	3.92e-03	0	43	0	1787822080	15	4402
2026-01-14 01:13:54.64	230.27	18.91	-27.7	-29.5	15.0	3.82e-03	0	43	0	1790967808	15	4443
2026-01-14 01:13:55.65	230.19	18.79	-27.6	-29.4	15.0	0.00e+00	0	44	0	1794113536	15	4422
2026-01-14 01:13:56.65	230.11	18.67	-27.6	-29.3	15.1	0.00e+00	0	43	0	1797259264	15	4385
2026-01-14 01:13:57.65	230.02	18.56	-27.6	-29.3	15.1	0.00e+00	0	44	0	1800404992	15	4388
2026-01-14 01:13:58.65	229.94	18.44	-27.5	-29.2	15.2	0.00e+00	0	44	0	1803550720	15	4351
2026-01-14 01:13:59.65	229.86	18.32	-27.6	-29.3	15.1	3.41e-03	0	43	0	1806696448	15	4401
2026-01-14 01:14:00.65	229.78	18.21	-27.6	-29.3	15.1	0.00e+00	0	43	0	1809842176	15	4385
2026-01-14 01:14:01.66	229.70	18.09	-27.5	-29.2	15.1	0.00e+00	0	44	0	1812987904	15	4372
2026-01-14 01:14:02.66	229.62	17.98	-27.5	-29.2	15.1	0.00e+00	0	43	0	1816133632	15	4370
2026-01-14 01:14:03.67	229.54	17.86	-27.6	-29.3	15.1	2.86e-03	0	43	0	1819279360	15	4383
2026-01-14 01:14:04.67	229.46	17.75	-27.6	-29.3	15.0	0.00e+00	0	43	0	1822425088	15	4395
2026-01-14 01:14:05.67	229.39	17.64	-27.5	-29.1	15.2	2.97e-03	0	44	0	1825570816	15	4349
2026-01-14 01:14:06.67	229.31	17.53	-27.5	-29.2	15.1	2.86e-03	0	43	0	1828716544	15	4356
2026-01-14 01:14:07.67	229.23	17.41	-27.6	-29.3	15.0	0.00e+00	0	44	0	1831862272	15	4391
2026-01-14 01:14:08.68	229.16	17.30	-27.6	-29.3	15.0	3.41e-03	0	44	0	1833959424	15	4406
2026-01-14 01:14:09.68	229.08	17.19	-27.6	-29.3	15.0	3.53e-03	0	43	0	1837105152	15	4387
2026-01-14 01:14:10.69	229.01	17.08	-27.5	-29.2	15.1	0.00e+00	0	43	0	1840250880	15	4366
2026-01-14 01:14:11.69	228.93	16.97	-27.6	-29.3	15.0	3.97e-03	0	43	0	1843396608	15	4382
2026-01-14 01:14:12.70	228.86	16.86	-27.7	-29.5	14.9	3.74e-03	0	44	0	1846542336	15	4459
2026-01-14 01:14:13.69	228.79	16.75	-27.7	-29.6	14.8	2.65e-04	0	43	0	1849688064	15	4493
2026-01-14 01:14:14.69	228.72	16.64	-27.7	-29.7	14.8	3.88e-03	0	43	0	1852833792	15	4506
2026-01-14 01:14:15.70	228.64	16.53	-27.7	-29.6	14.9	3.64e-03	0	44	0	1855979520	15	4469
2026-01-14 01:14:16.70	228.57	16.42	-27.8	-29.9	14.7	4.25e-04	0	43	0	1859125248	15	4564
2026-01-14 01:14:17.71	228.50	16.32	-27.8	-29.8	14.8	0.00e+00	0	44	0	1862270976	15	4527
2026-01-14 01:14:18.71	228.43	16.21	-27.7	-29.6	14.9	4.09e-03	0	43	0	1865416704	15	4467
2026-01-14 01:14:19.72	228.36	16.10	-27.7	-29.5	14.9	5.61e-04	0	43	0	1868562432	15	4451
2026-01-14 01:14:20.72	228.29	15.99	-27.6	-29.5	14.9	4.15e-03	0	43	0	1871708160	15	4439
2026-01-14 01:14:21.72	228.22	15.89	-27.8	-29.8	14.7	4.04e-03	0	43	0	1874853888	15	4530
2026-01-14 01:14:22.72	228.16	15.78	-27.7	-29.6	14.8	0.00e+00	0	43	0	1877999616	15	4480
2026-01-14 01:14:23.72	228.09	15.68	-27.6	-29.3	14.9	0.00e+00	0	43	0	1881145344	15	4394
2026-01-14 01:14:24.72	228.02	15.57	-27.5	-29.1	15.0	3.77e-03	0	43	0	1884291072	15	4347
2026-01-14 01:14:25.72	227.95	15.47	-27.5	-29.1	15.1	6.62e-04	0	43	0	1887436800	15	4338
2026-01-14 01:14:26.72	227.89	15.37	-27.7	-29.5	14.8	3.69e-03	0	43	0	1890582528	15	4454
2026-01-14 01:14:27.73	227.82	15.26	-27.6	-29.5	14.8	0.00e+00	0	43	0	1893728256	15	4452
2026-01-14 01:14:28.73	227.76	15.16	-27.7	-29.7	14.7	7.00e-07	0	44	0	1896873984	15	4514
2026-01-14 01:14:29.73	227.69	15.06	-27.7	-29.7	14.7	4.08e-03	0	43	0	1900019712	15	4519
2026-01-14 01:14:30.74	227.63	14.95	-27.9	-30.0	14.5	3.96e-03	0	44	0	1903165440	15	4607
2026-01-14 01:14:31.74	227.56	14.85	-27.8	-30.0	14.5	7.00e-07	0	44	0	1906311168	15	4595
2026-01-14 01:14:32.75	227.50	14.75	-28.0	-30.3	14.3	1.50e-06	0	43	0	1909456896	15	4688
2026-01-14 01:14:33.74	227.44	14.65	-28.2	-30.2	14.3	1.50e-06	0	43	0	1912602624	16	4535
2026-01-14 01:14:34.74	227.38	14.55	-28.1	-29.9	14.4	5.25e-04	0	43	0	1915748352	16	4466
2026-01-14 01:14:35.74	227.31	14.45	-28.3	-30.4	14.1	3.58e-03	0	44	0	1918894080	16	4610
2026-01-14 01:14:36.74	227.25	14.35	-28.2	-30.2	14.2	2.20e-06	0	43	0	1922039808	16	4555
2026-01-14 01:14:37.73	227.19	14.25	-28.2	-30.3	14.2	7.00e-07	0	43	0	1925185536	16	4570
2026-01-14 01:14:38.73	227.13	14.15	-28.2	-30.3	14.2	7.00e-07	0	43	0	1928331264	16	4580
2026-01-14 01:14:39.73	227.07	14.05	-28.3	-30.5	14.0	5.30e-06	0	43	0	1931476992	16	4649
2026-01-14 01:14:40.73	227.01	13.95	-28.3	-30.4	14.1	4.13e-04	0	43	0	1934622720	16	4624
2026-01-14 01:14:41.72	226.95	13.86	-28.3	-30.5	14.0	7.00e-07	0	43	0	1937768448	16	4633
2026-01-14 01:14:42.72	226.89	13.76	-28.3	-30.5	14.0	3.80e-06	0	44	0	1940914176	16	4634
2026-01-14 01:14:43.72	226.83	13.66	-28.3	-30.6	14.0	1.50e-06	0	44	0	1944059904	16	4669
2026-01-14 01:14:44.72	226.78	13.57	-28.3	-30.5	14.0	2.20e-06	0	43	0	1947205632	16	4653
2026-01-14 01:14:45.73	226.72	13.47	-28.3	-30.6	14.0	4.00e-03	0	43	0	1950351360	16	4677
2026-01-14 01:14:46.74	226.66	13.37	-28.3	-30.5	14.0	3.80e-06	0	44	0	1953497088	16	4651
2026-01-14 01:14:47.74	226.60	13.28	-28.3	-30.5	14.0	7.00e-07	0	43	0	1956642816	16	4661
2026-01-14 01:14:48.73	226.55	13.18	-28.2	-30.4	14.0	2.20e-06	0	43	0	1959788544	16	4612
2026-01-14 01:14:49.73	226.49	13.09	-28.3	-30.5	14.0	3.00e-06	0	44	0	1962934272	16	4646
2026-01-14 01:14:50.73	226.44	12.99	-28.2	-30.4	14.1	1.50e-06	0	43	0	1966080000	16	4608
2026-01-14 01:14:51.72	226.38	12.90	-28.3	-30.5	14.0	6.10e-06	0	43	0	1969225728	16	4651
2026-01-14 01:14:52.73	226.32	12.80	-28.2	-30.4	14.0	3.00e-06	0	44	0	1972371456	16	4613
2026-01-14 01:14:53.73	226.27	12.71	-28.2	-30.4	14.0	3.00e-06	0	43	0	1975517184	16	4615
2026-01-14 01:14:54.73	226.22	12.61	-28.2	-30.3	14.1	7.00e-07	0	43	0	1978662912	16	4579
2026-01-14 01:14:55.73	226.16	12.52	-28.1	-30.2	14.1	0.00e+00	0	43	0	1981808640	16	4558
2026-01-14 01:14:56.73	226.11	12.43	-28.2	-30.2	14.1	1.50e-06	0	43	0	1984954368	16	4567
2026-01-14 01:14:57.73	226.05	12.34	-28.1	-30.2	14.1	2.20e-06	0	43	0	1988100096	16	4541
2026-01-14 01:14:58.73	226.00	12.24	-28.2	-30.3	14.0	1.50e-06	0	43	0	1991245824	16	4583
2026-01-14 01:14:59.74	225.95	12.15	-28.4	-30.9	13.7	5.30e-06	0	43	0	1994391552	16	4765
2026-01-14 01:15:00.74	225.90	12.06	-28.3	-30.6	13.8	7.00e-07	0	43	0	1997537280	16	4677
2026-01-14 01:15:01.73	225.84	11.97	-28.2	-30.3	14.0	3.80e-06	0	43	0	2000683008	16	4576
2026-01-14 01:15:02.74	225.79	11.88	-28.1	-30.2	14.1	7.00e-07	0	43	0	2003828736	16	4542
2026-01-14 01:15:03.75	225.74	11.79	-28.0	-30.3	14.2	2.20e-06	0	43	0	2006974464	15	4703
2026-01-14 01:15:04.74	225.69	11.70	-28.0	-30.3	14.1	7.00e-07	0	43	0	2010120192	15	4720
2026-01-14 01:15:05.75	225.64	11.61	-28.0	-30.4	14.1	1.50e-06	0	43	0	2013265920	15	4743
2026-01-14 01:15:06.75	225.59	11.52	-28.2	-30.2	14.0	3.00e-06	0	43	0	2015363072	16	4570
2026-01-14 01:15:07.76	225.54	11.43	-28.5	-30.9	13.6	4.50e-06	0	44	0	2019557376	16	4789
2026-01-14 01:15:08.76	225.49	11.34	-28.4	-30.8	13.7	7.00e-07	0	43	0	2022703104	16	4742
2026-01-14 01:15:09.77	225.44	11.25	-28.3	-30.5	13.8	5.30e-06	0	43	0	2025848832	16	4664
2026-01-14 01:15:10.77	225.39	11.16	-28.3	-30.5	13.9	2.20e-06	0	43	0	2028994560	16	4647
2026-01-14 01:15:11.77	225.34	11.07	-28.3	-30.5	13.9	1.37e-05	0	43	0	2032140288	16	4646
2026-01-14 01:15:12.77	225.29	10.98	-28.3	-30.6	13.8	3.80e-06	0	43	0	2035286016	16	4692
2026-01-14 01:15:13.77	225.24	10.90	-28.4	-30.7	13.7	7.60e-06	0	43	0	2038431744	16	4714
2026-01-14 01:15:14.78	225.20	10.81	-28.4	-30.7	13.7	5.30e-06	0	43	0	2040528896	16	4728
2026-01-14 01:15:15.78	225.15	10.72	-28.4	-30.9	13.5	6.10e-06	0	43	0	2043674624	16	4800
2026-01-14 01:15:16.79	225.10	10.63	-28.5	-30.5	13.5	1.14e-05	0	43	0	2046820352	17	4544
2026-01-14 01:15:17.80	225.05	10.55	-28.4	-30.3	13.6	1.60e-05	0	43	0	2049966080	17	4481
2026-01-14 01:15:18.80	225.01	10.46	-28.4	-30.9	13.6	7.60e-06	0	43	0	2053111808	16	4786
2026-01-14 01:15:19.80	224.96	10.37	-28.5	-30.6	13.4	1.22e-05	0	43	0	2056257536	17	4582
2026-01-14 01:15:20.80	224.91	10.29	-28.5	-30.6	13.4	1.90e-05	0	43	0	2059403264	17	4581
2026-01-14 01:15:21.80	224.87	10.20	-28.5	-30.6	13.4	1.14e-05	0	43	0	2062548992	17	4588
2026-01-14 01:15:22.80	224.82	10.12	-28.5	-30.6	13.4	1.14e-05	0	43	0	2065694720	17	4569
2026-01-14 01:15:23.80	224.78	10.03	-28.5	-30.7	13.3	2.21e-05	0	43	0	2068840448	17	4592
2026-01-14 01:15:24.81	224.73	9.95	-28.6	-30.9	13.2	2.51e-05	0	43	0	2071986176	17	4691
2026-01-14 01:15:25.81	224.69	9.86	-28.6	-30.8	13.2	3.05e-05	0	43	0	2075131904	17	4659
2026-01-14 01:15:26.82	224.64	9.78	-28.7	-31.0	13.2	3.35e-05	0	44	0	2078277632	17	4711
2026-01-14 01:15:27.81	224.60	9.70	-28.7	-31.1	13.1	2.21e-05	0	43	0	2081423360	17	4741
2026-01-14 01:15:28.82	224.56	9.61	-28.7	-31.1	13.1	3.05e-05	0	43	0	2084569088	17	4738
2026-01-14 01:15:29.82	224.51	9.53	-28.9	-31.5	12.8	4.88e-05	0	43	0	2087714816	17	4881
2026-01-14 01:15:30.83	224.47	9.44	-28.8	-31.4	12.9	5.87e-05	0	43	0	2090860544	17	4838
2026-01-14 01:15:31.83	224.43	9.36	-28.7	-31.2	13.0	3.81e-05	0	43	0	2094006272	17	4773
2026-01-14 01:15:32.83	224.38	9.28	-28.8	-31.4	12.9	5.18e-05	0	43	0	2097152000	17	4846
2026-01-14 01:15:33.83	224.34	9.20	-28.8	-31.3	12.9	5.79e-05	0	43	0	2100297728	17	4826
2026-01-14 01:15:34.84	224.30	9.12	-28.8	-31.5	12.8	5.34e-05	0	43	0	2103443456	17	4867
2026-01-14 01:15:35.84	224.25	9.03	-28.9	-31.5	12.7	6.10e-05	0	43	0	2106589184	17	4889
2026-01-14 01:15:36.84	224.21	8.95	-28.9	-31.6	12.7	7.17e-05	0	44	0	2109734912	17	4929
2026-01-14 01:15:37.85	224.17	8.87	-28.9	-31.6	12.7	6.25e-05	0	43	0	2112880640	17	4914
2026-01-14 01:15:38.85	224.13	8.79	-28.9	-31.7	12.6	9.30e-05	0	43	0	2116026368	17	4971
2026-01-14 01:15:39.85	224.09	8.71	-28.9	-31.7	12.6	1.21e-04	0	43	0	2119172096	17	4954
2026-01-14 01:15:40.85	224.05	8.63	-29.0	-31.5	12.4	1.49e-04	0	43	0	2122317824	18	4764
2026-01-14 01:15:41.85	224.01	8.55	-29.3	-32.1	12.0	2.27e-04	0	43	0	2125463552	18	5002
2026-01-14 01:15:42.86	223.97	8.47	-29.1	-31.8	12.2	2.82e-04	0	43	0	2128609280	18	4875
2026-01-14 01:15:43.86	223.93	8.39	-29.2	-31.8	12.2	1.75e-04	0	43	0	2131755008	18	4894
2026-01-14 01:15:44.87	223.89	8.31	-29.2	-31.9	12.1	3.41e-04	0	43	0	2134900736	18	4932
