passes_logs/2026/01/14/R2M6_AANII_01/R2M6_AANII_01__20260114_230517_NOAA_21_JPSS-2_rec.log

#Pass ID: 20260114_230517_NOAA 21 (JPSS-2)
#Satellite: NOAA 21 (JPSS-2)
#Configuration: NOAA 21
#almurnet v.1.7.20240730
#Start time: 2026-01-14 23:05:17

#Version: 2.2.20231116
#Station: R2M6_AANII_01
#Location: 30.233357 lon 59.946436 lat
#TLE: 1 54234U 22150A   26014.16688770  .00000052  00000+0  45394-4 0  9999
#TLE: 2 54234  98.7497 315.0767 0000655 297.6997  62.4113 14.19534648164696

#Time	Az	El	Level	Level2	SNR	BER	BlckErr	Temp	State	Recorded	gain1	gain2
2026-01-14 23:05:17.21	26.44	7.01	-30.5	-35.1	4.8	1.36e+00	0	41	0	0	20	6128
2026-01-14 23:05:18.21	26.51	7.08	-31.9	-38.5	4.3	1.43e+00	0	41	104	0	23	7657
2026-01-14 23:05:19.22	26.59	7.15	-31.9	-37.5	6.8	2.04e-01	0	41	0	0	23	6866
2026-01-14 23:05:20.23	26.66	7.22	-31.8	-36.9	7.2	1.27e-01	0	41	0	3145728	23	6543
2026-01-14 23:05:21.23	26.74	7.28	-31.9	-37.4	6.8	1.83e-01	0	41	0	6291456	23	6818
2026-01-14 23:05:22.23	26.81	7.35	-31.6	-36.3	7.7	1.00e-01	0	41	0	9437184	23	6186
2026-01-14 23:05:23.23	26.89	7.42	-31.2	-35.1	8.5	5.55e-02	0	41	0	12582912	23	5593
2026-01-14 23:05:24.24	26.96	7.49	-30.9	-34.6	9.2	2.33e-02	0	41	0	15728640	22	5500
2026-01-14 23:05:25.24	27.04	7.56	-30.6	-33.7	9.8	1.13e-02	0	41	0	18874368	22	5106
2026-01-14 23:05:26.24	27.12	7.63	-30.3	-33.1	10.5	3.75e-03	0	41	0	22020096	21	4987
2026-01-14 23:05:27.24	27.19	7.70	-30.0	-32.9	11.1	1.61e-03	0	41	0	24117248	20	5003
2026-01-14 23:05:28.25	27.27	7.77	-29.9	-32.5	11.4	1.04e-03	0	41	0	27262976	20	4864
2026-01-14 23:05:29.25	27.35	7.84	-29.7	-32.4	11.9	4.61e-04	0	41	0	30408704	19	4944
2026-01-14 23:05:30.25	27.43	7.91	-29.8	-32.9	11.6	4.65e-04	0	41	0	33554432	19	5108
2026-01-14 23:05:31.26	27.51	7.98	-30.1	-33.0	11.1	1.82e-03	0	41	0	36700160	20	5061
2026-01-14 23:05:32.25	27.58	8.05	-29.8	-32.3	11.6	8.19e-04	0	41	0	39845888	20	4817
2026-01-14 23:05:33.26	27.66	8.12	-29.7	-32.5	11.8	3.92e-04	0	41	0	42991616	19	4982
2026-01-14 23:05:34.26	27.74	8.19	-29.9	-32.9	11.6	6.61e-04	0	41	0	46137344	19	5121
2026-01-14 23:05:35.26	27.82	8.26	-29.7	-32.5	11.9	5.65e-04	0	41	0	49283072	19	4958
2026-01-14 23:05:36.26	27.90	8.34	-29.6	-32.3	12.0	3.14e-04	0	41	0	52428800	19	4916
2026-01-14 23:05:37.26	27.98	8.41	-29.5	-32.1	12.2	2.39e-04	0	41	0	55574528	19	4833
2026-01-14 23:05:38.26	28.06	8.48	-29.5	-31.9	12.3	1.76e-04	0	41	0	58720256	19	4763
2026-01-14 23:05:39.27	28.15	8.55	-29.7	-32.4	12.0	3.66e-04	0	41	0	61865984	19	4937
2026-01-14 23:05:40.28	28.23	8.62	-29.5	-31.9	12.3	2.11e-04	0	41	0	65011712	19	4765
2026-01-14 23:05:41.27	28.31	8.69	-29.3	-32.0	12.5	9.00e-05	0	41	0	68157440	18	4913
2026-01-14 23:05:42.28	28.39	8.77	-29.4	-32.2	12.5	1.50e-04	0	42	0	71303168	18	4963
2026-01-14 23:05:43.28	28.48	8.84	-29.1	-31.5	12.9	6.71e-05	0	41	0	74448896	18	4748
2026-01-14 23:05:44.28	28.56	8.91	-28.9	-30.9	13.3	1.29e-04	0	41	0	77594624	18	4535
2026-01-14 23:05:45.28	28.64	8.98	-29.1	-31.3	13.0	3.96e-05	0	42	0	80740352	18	4676
2026-01-14 23:05:46.29	28.73	9.06	-29.2	-31.6	12.9	5.18e-05	0	42	0	83886080	18	4778
2026-01-14 23:05:47.30	28.81	9.13	-29.1	-31.5	12.9	3.52e-04	0	41	0	87031808	18	4738
2026-01-14 23:05:48.30	28.90	9.20	-29.1	-31.5	12.9	4.27e-05	0	42	0	90177536	18	4738
2026-01-14 23:05:49.31	28.98	9.28	-29.2	-31.7	12.8	3.28e-04	0	42	0	93323264	18	4790
2026-01-14 23:05:50.31	29.07	9.35	-29.4	-32.3	11.8	3.97e-04	0	42	0	96468992	18	4995
2026-01-14 23:05:51.32	29.16	9.42	-29.5	-32.4	12.4	1.27e-04	0	42	0	99614720	18	5033
2026-01-14 23:05:52.33	29.24	9.50	-29.7	-32.5	11.9	4.78e-04	0	42	0	102760448	19	4962
2026-01-14 23:05:53.33	29.33	9.57	-29.7	-32.4	12.1	5.28e-04	0	42	0	105906176	19	4907
2026-01-14 23:05:54.34	29.42	9.65	-29.6	-32.3	12.1	2.37e-04	0	42	0	109051904	19	4880
2026-01-14 23:05:55.34	29.50	9.72	-29.7	-32.4	12.1	3.62e-04	0	42	0	112197632	19	4919
2026-01-14 23:05:56.34	29.59	9.80	-29.6	-32.2	12.2	1.21e-03	0	42	0	115343360	19	4867
2026-01-14 23:05:57.34	29.68	9.87	-29.7	-32.3	12.2	2.14e-04	0	42	0	118489088	19	4875
2026-01-14 23:05:58.34	29.77	9.95	-29.7	-32.4	12.1	2.96e-04	0	42	0	121634816	19	4913
2026-01-14 23:05:59.35	29.86	10.02	-29.7	-32.5	12.1	4.23e-04	0	42	0	124780544	19	4943
2026-01-14 23:06:00.35	29.95	10.10	-29.4	-31.6	12.6	1.45e-04	0	42	0	127926272	19	4655
2026-01-14 23:06:01.36	30.04	10.17	-29.2	-31.7	12.9	1.07e-03	0	42	0	131072000	18	4777
2026-01-14 23:06:02.36	30.13	10.25	-29.2	-31.5	13.0	1.21e-03	0	42	0	134217728	18	4731
2026-01-14 23:06:03.37	30.22	10.32	-29.3	-31.9	12.8	5.49e-05	0	42	0	137363456	18	4855
2026-01-14 23:06:04.38	30.32	10.40	-29.5	-31.9	12.4	3.15e-04	0	42	0	140509184	19	4757
2026-01-14 23:06:05.38	30.41	10.48	-29.4	-32.1	12.7	3.11e-04	0	42	0	143654912	18	4925
2026-01-14 23:06:06.39	30.50	10.55	-29.5	-31.9	12.5	1.53e-04	0	42	0	146800640	19	4748
2026-01-14 23:06:07.39	30.59	10.63	-29.3	-31.8	12.8	1.19e-03	0	42	0	149946368	18	4824
2026-01-14 23:06:08.39	30.69	10.70	-29.3	-31.8	12.9	8.34e-04	0	42	0	153092096	18	4811
2026-01-14 23:06:09.40	30.78	10.78	-29.3	-31.8	12.9	5.56e-05	0	42	0	156237824	18	4814
2026-01-14 23:06:10.40	30.88	10.86	-29.1	-31.3	13.2	6.39e-04	0	42	0	159383552	18	4651
2026-01-14 23:06:11.40	30.97	10.93	-28.8	-31.1	13.6	7.70e-04	0	42	0	162529280	17	4722
2026-01-14 23:06:12.40	31.07	11.01	-28.7	-30.9	13.7	3.00e-06	0	42	0	165675008	17	4633
2026-01-14 23:06:13.40	31.16	11.09	-28.8	-31.0	13.7	7.73e-04	0	42	0	168820736	17	4682
2026-01-14 23:06:14.41	31.26	11.17	-28.8	-31.2	13.6	8.22e-04	0	42	0	171966464	17	4722
2026-01-14 23:06:15.41	31.36	11.24	-28.7	-30.9	13.8	4.50e-06	0	42	0	175112192	17	4623
2026-01-14 23:06:16.41	31.45	11.32	-28.6	-30.6	13.9	7.97e-04	0	42	0	178257920	17	4542
2026-01-14 23:06:17.42	31.55	11.40	-28.5	-30.4	14.0	8.91e-04	0	42	0	181403648	17	4493
2026-01-14 23:06:18.43	31.65	11.48	-28.6	-30.7	13.9	3.00e-06	0	42	0	184549376	17	4577
2026-01-14 23:06:19.43	31.75	11.56	-28.6	-30.7	13.9	1.19e-03	0	42	0	187695104	17	4580
2026-01-14 23:06:20.43	31.85	11.64	-28.5	-30.5	14.0	0.00e+00	0	42	0	190840832	17	4514
2026-01-14 23:06:21.44	31.95	11.72	-28.6	-30.6	13.9	1.50e-06	0	42	0	193986560	17	4554
2026-01-14 23:06:22.45	32.05	11.80	-28.7	-31.0	13.8	9.96e-04	0	42	0	197132288	17	4666
2026-01-14 23:06:23.45	32.15	11.87	-28.5	-30.5	14.0	7.42e-04	0	42	0	200278016	17	4508
2026-01-14 23:06:24.45	32.25	11.95	-28.5	-30.3	14.2	2.20e-06	0	42	0	203423744	17	4452
2026-01-14 23:06:25.45	32.35	12.03	-28.4	-30.7	14.2	2.20e-06	0	42	0	206569472	16	4672
2026-01-14 23:06:26.45	32.46	12.11	-28.3	-30.5	14.3	7.12e-04	0	42	0	209715200	16	4621
2026-01-14 23:06:27.45	32.56	12.19	-28.3	-30.5	14.4	7.00e-07	0	42	0	212860928	16	4607
2026-01-14 23:06:28.45	32.66	12.27	-28.2	-30.3	14.5	8.86e-04	0	42	0	216006656	16	4551
2026-01-14 23:06:29.45	32.77	12.35	-28.3	-30.5	14.4	7.10e-04	0	42	0	219152384	16	4605
2026-01-14 23:06:30.46	32.87	12.43	-28.3	-30.5	14.4	7.00e-07	0	42	0	222298112	16	4624
2026-01-14 23:06:31.46	32.98	12.51	-28.4	-30.6	14.3	0.00e+00	0	42	0	225443840	16	4659
2026-01-14 23:06:32.46	33.08	12.59	-28.4	-30.7	14.3	5.39e-04	0	42	0	228589568	16	4684
2026-01-14 23:06:33.47	33.19	12.68	-28.5	-30.8	14.2	7.00e-07	0	42	0	231735296	16	4726
2026-01-14 23:06:34.47	33.30	12.76	-28.5	-30.4	14.1	2.20e-06	0	42	0	234881024	17	4474
2026-01-14 23:06:35.48	33.40	12.84	-28.4	-30.2	14.2	0.00e+00	0	43	0	238026752	17	4408
2026-01-14 23:06:36.48	33.51	12.92	-28.4	-30.2	14.3	2.20e-06	0	43	0	241172480	17	4410
2026-01-14 23:06:37.48	33.62	13.00	-28.3	-30.5	14.4	7.00e-07	0	42	0	244318208	16	4612
2026-01-14 23:06:38.49	33.73	13.08	-28.3	-30.4	14.5	4.81e-04	0	42	0	247463936	16	4589
2026-01-14 23:06:39.49	33.84	13.17	-28.2	-30.1	14.6	1.50e-06	0	42	0	250609664	16	4508
2026-01-14 23:06:40.49	33.95	13.25	-28.2	-30.2	14.6	0.00e+00	0	42	0	253755392	16	4527
2026-01-14 23:06:41.49	34.06	13.33	-28.2	-30.3	14.5	7.00e-07	0	42	0	256901120	16	4555
2026-01-14 23:06:42.50	34.17	13.41	-28.1	-30.0	14.7	7.00e-07	0	43	0	260046848	16	4483
2026-01-14 23:06:43.50	34.28	13.50	-28.1	-30.0	14.7	0.00e+00	0	42	0	263192576	16	4467
2026-01-14 23:06:44.50	34.40	13.58	-28.3	-30.3	14.5	0.00e+00	0	43	0	266338304	16	4557
2026-01-14 23:06:45.50	34.51	13.66	-28.3	-30.3	14.6	0.00e+00	0	42	0	269484032	16	4554
2026-01-14 23:06:46.50	34.62	13.75	-28.3	-30.5	14.4	0.00e+00	0	42	0	272629760	16	4620
2026-01-14 23:06:47.51	34.74	13.83	-28.4	-30.6	14.4	0.00e+00	0	43	0	275775488	16	4654
2026-01-14 23:06:48.51	34.85	13.91	-28.3	-30.4	14.5	0.00e+00	0	43	0	278921216	16	4592
2026-01-14 23:06:49.52	34.97	14.00	-28.4	-30.6	14.4	7.00e-07	0	42	0	282066944	16	4634
2026-01-14 23:06:50.52	35.09	14.08	-28.3	-30.3	14.5	0.00e+00	0	43	0	285212672	16	4566
2026-01-14 23:06:51.53	35.20	14.17	-28.2	-30.2	14.6	0.00e+00	0	43	0	288358400	16	4516
2026-01-14 23:06:52.52	35.32	14.25	-28.2	-30.2	14.6	7.00e-07	0	43	0	291504128	16	4515
2026-01-14 23:06:53.53	35.44	14.34	-28.2	-30.2	14.6	0.00e+00	0	42	0	294649856	16	4526
2026-01-14 23:06:54.53	35.56	14.42	-28.2	-30.1	14.7	0.00e+00	0	42	0	297795584	16	4503
2026-01-14 23:06:55.54	35.68	14.51	-28.2	-30.1	14.7	7.00e-07	0	43	0	300941312	16	4479
2026-01-14 23:06:56.55	35.80	14.59	-28.2	-30.2	14.6	0.00e+00	0	43	0	304087040	16	4525
2026-01-14 23:06:57.55	35.92	14.68	-28.3	-30.4	14.6	1.50e-06	0	43	0	307232768	16	4575
2026-01-14 23:06:58.56	36.04	14.76	-28.3	-30.4	14.5	1.50e-06	0	42	0	310378496	16	4594
2026-01-14 23:06:59.56	36.17	14.85	-28.3	-30.4	14.5	7.00e-07	0	43	0	313524224	16	4590
2026-01-14 23:07:00.56	36.29	14.94	-28.4	-30.5	14.5	0.00e+00	0	43	0	316669952	16	4620
2026-01-14 23:07:01.56	36.41	15.02	-28.5	-30.8	14.3	1.50e-06	0	43	0	319815680	16	4705
2026-01-14 23:07:02.57	36.54	15.11	-28.6	-30.6	14.1	2.20e-06	0	43	0	322961408	17	4527
2026-01-14 23:07:03.57	36.66	15.20	-28.6	-30.5	13.9	1.50e-06	0	43	0	326107136	17	4505
2026-01-14 23:07:04.58	36.79	15.28	-28.4	-30.1	14.1	0.00e+00	0	43	0	329252864	17	4365
2026-01-14 23:07:05.58	36.92	15.37	-28.3	-29.8	14.6	0.00e+00	0	43	0	332398592	17	4300
2026-01-14 23:07:06.58	37.04	15.46	-28.3	-30.0	14.6	7.00e-07	0	43	0	335544320	17	4337
2026-01-14 23:07:07.59	37.17	15.54	-28.4	-30.0	14.5	0.00e+00	0	43	0	338690048	17	4358
2026-01-14 23:07:08.59	37.30	15.63	-28.5	-30.4	14.3	0.00e+00	0	43	0	341835776	17	4464
2026-01-14 23:07:09.59	37.43	15.72	-28.6	-30.5	14.3	7.00e-07	0	43	0	344981504	17	4507
2026-01-14 23:07:10.60	37.56	15.81	-28.5	-30.3	14.4	0.00e+00	0	43	0	348127232	17	4444
2026-01-14 23:07:11.60	37.69	15.90	-28.5	-30.3	14.4	0.00e+00	0	43	0	350224384	17	4445
2026-01-14 23:07:12.61	37.82	15.98	-28.6	-30.5	14.3	7.55e-05	0	43	0	353370112	17	4505
2026-01-14 23:07:13.61	37.95	16.07	-28.5	-30.4	14.4	1.67e-05	0	43	0	357564416	17	4454
2026-01-14 23:07:14.62	38.09	16.16	-28.7	-30.7	14.1	1.50e-06	0	43	0	360710144	17	4568
2026-01-14 23:07:15.62	38.22	16.25	-28.7	-30.7	14.2	2.20e-06	0	43	0	363855872	17	4559
2026-01-14 23:07:16.62	38.36	16.34	-28.5	-30.4	14.3	6.80e-06	0	43	0	367001600	17	4477
2026-01-14 23:07:17.62	38.49	16.43	-28.7	-30.7	14.1	7.00e-07	0	43	0	370147328	17	4564
2026-01-14 23:07:18.63	38.63	16.52	-28.7	-30.7	14.2	1.14e-05	0	43	0	372244480	17	4565
2026-01-14 23:07:19.63	38.77	16.61	-28.7	-30.8	14.2	0.00e+00	0	43	0	375390208	17	4575
2026-01-14 23:07:20.63	38.90	16.70	-28.8	-31.1	14.0	3.00e-06	0	43	0	378535936	17	4664
2026-01-14 23:07:21.63	39.04	16.79	-28.8	-31.1	14.0	3.80e-06	0	43	0	381681664	17	4675
2026-01-14 23:07:22.64	39.18	16.88	-28.9	-31.2	13.9	6.80e-06	0	43	0	384827392	17	4708
2026-01-14 23:07:23.64	39.32	16.97	-28.9	-31.2	13.9	2.20e-06	0	43	0	387973120	17	4705
2026-01-14 23:07:24.65	39.46	17.06	-28.7	-30.7	14.2	2.20e-06	0	43	0	391118848	17	4565
2026-01-14 23:07:25.65	39.61	17.15	-28.6	-30.4	14.4	0.00e+00	0	43	0	394264576	17	4475
2026-01-14 23:07:26.65	39.75	17.24	-28.6	-30.5	14.4	7.00e-07	0	43	0	397410304	17	4488
2026-01-14 23:07:27.65	39.89	17.33	-28.5	-30.2	14.5	2.20e-06	0	43	0	400556032	17	4401
2026-01-14 23:07:28.66	40.04	17.42	-28.3	-29.8	14.8	9.10e-06	0	43	0	403701760	17	4289
2026-01-14 23:07:29.66	40.18	17.51	-28.3	-29.8	14.8	0.00e+00	0	43	0	406847488	17	4277
2026-01-14 23:07:30.67	40.33	17.60	-28.2	-29.6	14.9	5.72e-05	0	43	0	409993216	17	4221
2026-01-14 23:07:31.66	40.47	17.70	-28.3	-29.8	14.8	4.95e-05	0	43	0	413138944	17	4280
2026-01-14 23:07:32.66	40.62	17.79	-28.3	-29.8	14.8	0.00e+00	0	43	0	416284672	17	4285
2026-01-14 23:07:33.67	40.77	17.88	-28.2	-29.7	14.8	3.43e-05	0	43	0	419430400	17	4255
2026-01-14 23:07:34.67	40.92	17.97	-28.2	-29.7	14.8	2.97e-05	0	43	0	422576128	17	4260
2026-01-14 23:07:35.67	41.07	18.06	-28.3	-29.9	14.7	0.00e+00	0	43	0	425721856	17	4313
2026-01-14 23:07:36.68	41.22	18.16	-28.2	-29.7	14.9	3.58e-05	0	43	0	428867584	17	4243
2026-01-14 23:07:37.68	41.37	18.25	-28.2	-29.5	15.0	2.16e-04	0	43	0	432013312	17	4202
2026-01-14 23:07:38.69	41.53	18.34	-28.1	-29.4	15.1	0.00e+00	0	43	0	435159040	17	4164
2026-01-14 23:07:39.69	41.68	18.44	-28.1	-29.3	15.1	4.45e-04	0	43	0	438304768	17	4147
2026-01-14 23:07:40.69	41.84	18.53	-28.1	-30.0	15.0	0.00e+00	0	43	0	441450496	16	4433
2026-01-14 23:07:41.69	41.99	18.62	-27.9	-29.4	15.3	0.00e+00	0	43	0	444596224	16	4278
2026-01-14 23:07:42.69	42.15	18.71	-27.9	-29.4	15.3	5.16e-04	0	43	0	447741952	16	4274
2026-01-14 23:07:43.70	42.31	18.81	-28.0	-29.5	15.2	4.49e-04	0	43	0	450887680	16	4321
2026-01-14 23:07:44.71	42.47	18.90	-28.0	-29.7	15.2	0.00e+00	0	43	0	454033408	16	4362
2026-01-14 23:07:45.71	42.63	19.00	-28.0	-29.7	15.2	0.00e+00	0	43	0	457179136	16	4357
2026-01-14 23:07:46.71	42.79	19.09	-28.1	-29.9	15.1	7.00e-07	0	43	0	460324864	16	4410
2026-01-14 23:07:47.72	42.95	19.18	-28.0	-29.6	15.2	0.00e+00	0	43	0	463470592	16	4343
2026-01-14 23:07:48.71	43.11	19.28	-28.0	-29.6	15.2	4.42e-05	0	43	0	466616320	16	4334
2026-01-14 23:07:49.72	43.27	19.37	-28.0	-29.7	15.2	4.27e-05	0	43	0	469762048	16	4360
2026-01-14 23:07:50.72	43.44	19.47	-28.1	-30.0	15.1	0.00e+00	0	43	0	472907776	16	4442
2026-01-14 23:07:51.73	43.60	19.56	-28.1	-29.8	15.1	0.00e+00	0	43	0	476053504	16	4385
2026-01-14 23:07:52.73	43.77	19.66	-28.0	-29.6	15.3	0.00e+00	0	43	0	479199232	16	4327
2026-01-14 23:07:53.73	43.94	19.75	-27.9	-29.5	15.3	0.00e+00	0	43	0	482344960	16	4311
2026-01-14 23:07:54.73	44.11	19.85	-28.1	-29.8	15.2	0.00e+00	0	43	0	485490688	16	4381
2026-01-14 23:07:55.73	44.27	19.94	-28.0	-29.7	15.2	0.00e+00	0	43	0	488636416	16	4358
2026-01-14 23:07:56.73	44.45	20.04	-27.9	-29.4	15.4	0.00e+00	0	43	0	491782144	16	4278
2026-01-14 23:07:57.73	44.62	20.13	-28.0	-29.5	15.3	0.00e+00	0	43	0	494927872	16	4312
2026-01-14 23:07:58.73	44.79	20.23	-27.9	-29.5	15.3	0.00e+00	0	43	0	498073600	16	4300
2026-01-14 23:07:59.73	44.96	20.32	-27.9	-29.4	15.4	0.00e+00	0	43	0	501219328	16	4281
2026-01-14 23:08:00.73	45.14	20.42	-28.0	-29.6	15.3	0.00e+00	0	43	0	504365056	16	4332
2026-01-14 23:08:01.73	45.31	20.51	-27.9	-29.3	15.5	0.00e+00	0	43	0	507510784	16	4244
2026-01-14 23:08:02.73	45.49	20.61	-27.8	-29.1	15.6	0.00e+00	0	43	0	510656512	16	4192
2026-01-14 23:08:03.73	45.66	20.70	-27.9	-29.3	15.5	0.00e+00	0	43	0	513802240	16	4242
2026-01-14 23:08:04.74	45.85	20.80	-27.8	-29.1	15.6	0.00e+00	0	43	0	516947968	16	4181
2026-01-14 23:08:05.74	46.02	20.90	-27.7	-28.9	15.7	0.00e+00	0	43	0	520093696	16	4143
2026-01-14 23:08:06.74	46.21	20.99	-27.7	-28.8	15.7	0.00e+00	0	43	0	523239424	16	4123
2026-01-14 23:08:07.74	46.39	21.09	-27.7	-28.8	15.7	0.00e+00	0	43	0	526385152	16	4118
2026-01-14 23:08:08.74	46.57	21.19	-27.6	-28.7	15.8	0.00e+00	0	43	0	529530880	16	4074
2026-01-14 23:08:09.74	46.75	21.28	-27.6	-28.7	15.8	0.00e+00	0	43	0	532676608	16	4080
2026-01-14 23:08:10.74	46.94	21.38	-27.5	-28.4	15.9	0.00e+00	0	43	0	535822336	16	4017
2026-01-14 23:08:11.74	47.13	21.47	-27.4	-28.2	16.0	0.00e+00	0	43	0	538968064	16	3965
2026-01-14 23:08:12.75	47.32	21.57	-27.5	-28.4	16.0	0.00e+00	0	43	0	542113792	16	4011
2026-01-14 23:08:13.76	47.51	21.67	-27.4	-28.3	16.0	0.00e+00	0	43	0	545259520	16	3986
2026-01-14 23:08:14.76	47.70	21.77	-27.4	-28.3	16.0	0.00e+00	0	43	0	548405248	16	3981
2026-01-14 23:08:15.76	47.89	21.86	-27.5	-29.0	15.8	0.00e+00	0	43	0	551550976	15	4266
2026-01-14 23:08:16.76	48.08	21.96	-27.4	-28.9	15.9	0.00e+00	0	43	0	554696704	15	4239
2026-01-14 23:08:17.77	48.27	22.06	-27.4	-28.9	15.9	0.00e+00	0	43	0	557842432	15	4244
2026-01-14 23:08:18.77	48.47	22.15	-27.4	-28.8	15.9	0.00e+00	0	43	0	560988160	15	4233
2026-01-14 23:08:19.77	48.66	22.25	-27.6	-29.1	15.7	0.00e+00	0	43	0	564133888	15	4320
2026-01-14 23:08:20.78	48.86	22.35	-27.5	-29.0	15.8	0.00e+00	0	43	0	567279616	15	4288
2026-01-14 23:08:21.79	49.06	22.45	-27.4	-29.3	15.9	0.00e+00	0	43	0	570425344	14	4485
2026-01-14 23:08:22.80	49.26	22.55	-27.4	-29.3	15.9	0.00e+00	0	43	0	573571072	14	4490
2026-01-14 23:08:23.80	49.46	22.64	-27.5	-29.1	15.8	0.00e+00	0	43	0	576716800	15	4303
2026-01-14 23:08:24.81	49.67	22.74	-27.6	-29.3	15.6	0.00e+00	0	43	0	579862528	15	4376
2026-01-14 23:08:25.81	49.87	22.84	-27.5	-29.0	15.8	0.00e+00	0	43	0	583008256	15	4271
2026-01-14 23:08:26.81	50.08	22.93	-27.3	-28.5	16.1	0.00e+00	0	43	0	586153984	15	4149
2026-01-14 23:08:27.81	50.28	23.03	-27.1	-28.1	16.2	0.00e+00	0	43	0	589299712	15	4048
2026-01-14 23:08:28.81	50.49	23.13	-27.1	-28.1	16.3	0.00e+00	0	43	0	592445440	15	4031
2026-01-14 23:08:29.81	50.70	23.23	-27.1	-28.2	16.2	0.00e+00	0	43	0	595591168	15	4055
2026-01-14 23:08:30.82	50.91	23.32	-27.1	-28.1	16.2	0.00e+00	0	43	0	598736896	15	4037
2026-01-14 23:08:31.82	51.12	23.42	-27.2	-28.3	16.1	0.00e+00	0	43	0	601882624	15	4085
2026-01-14 23:08:32.82	51.33	23.52	-27.2	-28.3	16.2	0.00e+00	0	43	0	605028352	15	4102
2026-01-14 23:08:33.83	51.54	23.62	-27.3	-28.5	16.1	0.00e+00	0	43	0	608174080	15	4145
2026-01-14 23:08:34.84	51.76	23.71	-27.4	-28.7	15.9	0.00e+00	0	43	0	611319808	15	4208
2026-01-14 23:08:35.84	51.98	23.81	-27.5	-28.9	15.9	0.00e+00	0	43	0	614465536	15	4258
2026-01-14 23:08:36.85	52.20	23.91	-27.5	-28.9	15.9	0.00e+00	0	43	0	617611264	15	4260
2026-01-14 23:08:37.85	52.41	24.00	-27.5	-29.1	15.8	0.00e+00	0	43	0	620756992	15	4292
2026-01-14 23:08:38.86	52.64	24.10	-27.5	-29.0	15.8	0.00e+00	0	43	0	623902720	15	4268
2026-01-14 23:08:39.87	52.86	24.20	-27.6	-29.2	15.7	0.00e+00	0	43	0	627048448	15	4331
2026-01-14 23:08:40.87	53.08	24.30	-27.5	-29.1	15.8	0.00e+00	0	43	0	630194176	15	4294
2026-01-14 23:08:41.87	53.30	24.39	-27.5	-29.0	15.8	0.00e+00	0	43	0	633339904	15	4274
2026-01-14 23:08:42.87	53.53	24.49	-27.6	-29.1	15.7	0.00e+00	0	43	0	636485632	15	4310
2026-01-14 23:08:43.87	53.76	24.58	-27.5	-29.0	15.8	0.00e+00	0	43	0	639631360	15	4287
2026-01-14 23:08:44.88	53.99	24.68	-27.4	-28.8	15.9	0.00e+00	0	43	0	642777088	15	4221
2026-01-14 23:08:45.88	54.22	24.78	-27.5	-29.1	15.8	0.00e+00	0	43	0	645922816	15	4300
2026-01-14 23:08:46.88	54.45	24.87	-27.5	-28.9	15.9	0.00e+00	0	43	0	649068544	15	4252
2026-01-14 23:08:47.89	54.68	24.97	-27.4	-28.9	15.9	0.00e+00	0	43	0	651165696	15	4241
2026-01-14 23:08:48.90	54.92	25.07	-27.5	-29.0	15.9	0.00e+00	0	43	0	654311424	15	4272
2026-01-14 23:08:49.90	55.15	25.16	-27.7	-29.4	15.6	0.00e+00	0	43	0	657457152	15	4401
2026-01-14 23:08:50.90	55.39	25.26	-27.8	-29.6	15.5	0.00e+00	0	43	0	660602880	15	4438
2026-01-14 23:08:51.90	55.62	25.35	-27.7	-29.5	15.5	0.00e+00	0	43	0	663748608	15	4422
2026-01-14 23:08:52.90	55.86	25.45	-27.8	-29.6	15.5	0.00e+00	0	43	0	666894336	15	4457
2026-01-14 23:08:53.91	56.11	25.54	-28.0	-30.1	15.2	0.00e+00	0	43	0	670040064	15	4586
2026-01-14 23:08:54.91	56.35	25.64	-28.0	-29.7	15.3	7.00e-07	0	43	0	673185792	16	4349
2026-01-14 23:08:55.92	56.59	25.73	-28.0	-29.5	15.4	0.00e+00	0	43	0	676331520	16	4306
2026-01-14 23:08:56.92	56.84	25.83	-28.0	-29.7	15.4	0.00e+00	0	43	0	679477248	16	4338
2026-01-14 23:08:57.91	57.08	25.92	-28.0	-29.7	15.4	0.00e+00	0	43	0	682622976	16	4338
2026-01-14 23:08:58.92	57.33	26.02	-28.3	-30.3	15.0	0.00e+00	0	43	0	685768704	16	4532
2026-01-14 23:08:59.92	57.58	26.11	-28.1	-29.7	15.3	0.00e+00	0	43	0	688914432	16	4360
2026-01-14 23:09:00.93	57.83	26.20	-27.8	-29.2	15.6	0.00e+00	0	43	0	692060160	16	4210
2026-01-14 23:09:01.93	58.08	26.30	-27.7	-28.8	15.9	0.00e+00	0	43	0	695205888	16	4110
2026-01-14 23:09:02.93	58.34	26.39	-27.7	-28.8	15.9	6.17e-05	0	43	0	698351616	16	4115
2026-01-14 23:09:03.93	58.59	26.48	-27.6	-28.7	16.0	0.00e+00	0	43	0	701497344	16	4067
2026-01-14 23:09:04.93	58.85	26.57	-27.7	-28.9	15.8	0.00e+00	0	43	0	704643072	16	4145
2026-01-14 23:09:05.93	59.11	26.67	-27.8	-29.1	15.7	2.05e-05	0	43	0	707788800	16	4194
2026-01-14 23:09:06.93	59.37	26.76	-27.8	-29.2	15.6	3.28e-05	0	43	0	710934528	16	4210
2026-01-14 23:09:07.93	59.63	26.85	-27.9	-29.3	15.6	0.00e+00	0	43	0	714080256	16	4243
2026-01-14 23:09:08.94	59.89	26.94	-27.8	-29.2	15.6	0.00e+00	0	43	0	717225984	16	4211
2026-01-14 23:09:09.94	60.15	27.03	-27.9	-29.2	15.6	0.00e+00	0	43	0	720371712	16	4223
2026-01-14 23:09:10.94	60.42	27.12	-28.0	-29.6	15.4	0.00e+00	0	43	0	723517440	16	4305
2026-01-14 23:09:11.95	60.69	27.21	-27.7	-29.5	15.5	9.60e-04	0	43	0	726663168	15	4419
2026-01-14 23:09:12.95	60.96	27.30	-27.8	-29.7	15.4	1.21e-03	0	43	0	729808896	15	4479
2026-01-14 23:09:13.96	61.23	27.39	-27.8	-29.6	15.5	0.00e+00	0	43	0	732954624	15	4429
2026-01-14 23:09:14.96	61.50	27.48	-27.7	-29.5	15.6	1.48e-03	0	43	0	736100352	15	4405
2026-01-14 23:09:15.96	61.77	27.57	-27.6	-29.3	15.7	1.42e-03	0	43	0	739246080	15	4352
2026-01-14 23:09:16.96	62.05	27.66	-27.6	-29.3	15.7	0.00e+00	0	43	0	742391808	15	4347
2026-01-14 23:09:17.96	62.32	27.75	-27.7	-29.5	15.6	8.36e-04	0	43	0	745537536	15	4400
2026-01-14 23:09:18.96	62.60	27.84	-27.5	-28.9	15.9	6.76e-04	0	43	0	748683264	15	4231
2026-01-14 23:09:19.97	62.88	27.92	-27.6	-29.2	15.7	0.00e+00	0	43	0	751828992	15	4321
2026-01-14 23:09:20.97	63.16	28.01	-27.4	-28.8	15.9	3.41e-04	0	43	0	754974720	15	4228
2026-01-14 23:09:21.97	63.44	28.10	-27.4	-28.7	16.1	2.46e-04	0	43	0	758120448	15	4195
2026-01-14 23:09:22.97	63.72	28.18	-27.6	-29.2	15.8	0.00e+00	0	43	0	761266176	15	4328
2026-01-14 23:09:23.97	64.01	28.27	-27.5	-29.0	15.9	6.93e-04	0	43	0	764411904	15	4273
2026-01-14 23:09:24.97	64.30	28.35	-27.7	-29.3	15.7	0.00e+00	0	43	0	767557632	15	4364
2026-01-14 23:09:25.97	64.58	28.44	-27.9	-29.8	15.4	0.00e+00	0	43	0	770703360	15	4510
2026-01-14 23:09:26.98	64.87	28.52	-27.7	-29.5	15.6	3.63e-04	0	43	0	773849088	15	4412
2026-01-14 23:09:27.98	65.16	28.60	-27.6	-29.2	15.7	6.79e-05	0	43	0	776994816	15	4328
2026-01-14 23:09:28.98	65.46	28.69	-27.5	-28.9	15.9	0.00e+00	0	43	0	780140544	15	4260
2026-01-14 23:09:29.99	65.75	28.77	-27.5	-29.0	15.9	0.00e+00	0	43	0	783286272	15	4260
2026-01-14 23:09:30.99	66.05	28.85	-27.3	-28.6	16.1	0.00e+00	0	43	0	786432000	15	4166
2026-01-14 23:09:32.00	66.35	28.93	-27.4	-28.6	16.1	0.00e+00	0	43	0	789577728	15	4174
2026-01-14 23:09:32.99	66.64	29.01	-27.7	-29.4	15.7	0.00e+00	0	43	0	792723456	15	4378
2026-01-14 23:09:33.99	66.94	29.09	-27.8	-29.7	15.5	0.00e+00	0	43	0	795869184	15	4476
2026-01-14 23:09:34.98	67.24	29.17	-28.0	-30.1	15.3	0.00e+00	0	43	0	799014912	15	4592
2026-01-14 23:09:35.98	67.54	29.25	-28.1	-29.9	15.3	0.00e+00	0	43	0	802160640	16	4403
2026-01-14 23:09:36.99	67.85	29.33	-28.0	-29.7	15.4	1.50e-06	0	43	0	805306368	16	4346
2026-01-14 23:09:37.99	68.15	29.40	-28.0	-29.7	15.4	0.00e+00	0	43	0	808452096	16	4345
2026-01-14 23:09:38.99	68.46	29.48	-27.9	-29.4	15.6	0.00e+00	0	43	0	811597824	16	4261
2026-01-14 23:09:40.00	68.77	29.56	-28.1	-29.7	15.4	0.00e+00	0	43	0	814743552	16	4344
2026-01-14 23:09:41.01	69.08	29.63	-27.8	-29.1	15.8	0.00e+00	0	43	0	817889280	16	4171
2026-01-14 23:09:42.01	69.39	29.71	-27.7	-28.8	15.9	0.00e+00	0	43	0	821035008	16	4109
2026-01-14 23:09:43.01	69.71	29.78	-27.7	-28.9	15.8	0.00e+00	0	43	0	824180736	16	4137
2026-01-14 23:09:44.01	70.02	29.85	-27.8	-29.0	15.8	0.00e+00	0	43	0	827326464	16	4165
2026-01-14 23:09:45.02	70.34	29.93	-27.8	-29.0	15.7	0.00e+00	0	43	0	830472192	16	4170
2026-01-14 23:09:46.02	70.65	30.00	-27.8	-29.2	15.7	0.00e+00	0	43	0	833617920	16	4201
2026-01-14 23:09:47.02	70.97	30.07	-27.8	-29.0	15.8	0.00e+00	0	43	0	836763648	16	4162
2026-01-14 23:09:48.03	71.29	30.14	-27.8	-29.0	15.8	6.10e-06	0	43	0	839909376	16	4166
2026-01-14 23:09:49.02	71.61	30.21	-27.9	-29.2	15.7	0.00e+00	0	43	0	843055104	16	4220
2026-01-14 23:09:50.03	71.94	30.28	-27.8	-29.2	15.7	0.00e+00	0	43	0	846200832	16	4216
2026-01-14 23:09:51.02	72.26	30.34	-27.8	-29.2	15.7	0.00e+00	0	43	0	849346560	16	4201
2026-01-14 23:09:52.02	72.58	30.41	-27.8	-29.2	15.7	0.00e+00	0	43	0	852492288	16	4208
2026-01-14 23:09:53.02	72.91	30.48	-28.0	-29.5	15.5	0.00e+00	0	43	0	855638016	16	4299
2026-01-14 23:09:54.03	73.24	30.54	-27.9	-29.3	15.7	0.00e+00	0	43	0	858783744	16	4236
2026-01-14 23:09:55.03	73.57	30.60	-27.9	-29.2	15.7	0.00e+00	0	43	0	861929472	16	4214
2026-01-14 23:09:56.03	73.90	30.67	-28.1	-29.7	15.4	0.00e+00	0	43	0	865075200	16	4358
2026-01-14 23:09:57.03	74.23	30.73	-28.2	-30.0	15.3	3.80e-06	0	43	0	868220928	16	4434
2026-01-14 23:09:58.04	74.56	30.79	-28.3	-30.2	15.2	0.00e+00	0	43	0	871366656	16	4486
2026-01-14 23:09:59.04	74.90	30.85	-28.1	-29.9	15.3	0.00e+00	0	43	0	874512384	16	4400
2026-01-14 23:10:00.04	75.23	30.91	-28.1	-29.7	15.4	0.00e+00	0	43	0	877658112	16	4345
2026-01-14 23:10:01.05	75.57	30.97	-28.2	-30.0	15.3	0.00e+00	0	43	0	879755264	16	4426
2026-01-14 23:10:02.04	75.91	31.03	-28.1	-29.8	15.4	0.00e+00	0	43	0	882900992	16	4369
2026-01-14 23:10:03.05	76.25	31.09	-28.1	-29.9	15.3	3.80e-06	0	43	0	886046720	16	4394
2026-01-14 23:10:04.05	76.59	31.14	-28.3	-30.1	15.2	0.00e+00	0	43	0	889192448	16	4471
2026-01-14 23:10:05.05	76.93	31.20	-28.3	-30.4	15.1	0.00e+00	0	43	0	892338176	16	4539
2026-01-14 23:10:06.06	77.27	31.25	-28.4	-30.5	15.0	0.00e+00	0	43	0	895483904	16	4589
2026-01-14 23:10:07.06	77.62	31.30	-28.3	-30.2	15.1	7.00e-07	0	43	0	899678208	16	4502
2026-01-14 23:10:08.07	77.96	31.36	-28.2	-30.0	15.3	0.00e+00	0	43	0	902823936	16	4436
2026-01-14 23:10:09.07	78.31	31.41	-28.3	-30.2	15.1	7.00e-07	0	43	0	904921088	16	4495
2026-01-14 23:10:10.07	78.66	31.46	-28.1	-29.9	15.3	0.00e+00	0	43	0	908066816	16	4404
2026-01-14 23:10:11.08	79.01	31.51	-28.4	-30.5	15.0	0.00e+00	0	43	0	911212544	16	4582
2026-01-14 23:10:12.08	79.36	31.55	-28.3	-30.3	15.1	7.00e-07	0	43	0	914358272	16	4530
2026-01-14 23:10:13.08	79.70	31.60	-28.4	-30.4	15.0	0.00e+00	0	43	0	917504000	16	4559
2026-01-14 23:10:14.08	80.05	31.65	-28.5	-30.3	14.8	0.00e+00	0	43	0	920649728	17	4402
2026-01-14 23:10:15.08	80.41	31.69	-28.2	-29.5	15.2	0.00e+00	0	43	0	923795456	17	4190
2026-01-14 23:10:16.09	80.76	31.73	-28.2	-29.6	15.2	1.50e-06	0	43	0	926941184	17	4201
2026-01-14 23:10:17.09	81.12	31.78	-28.3	-29.7	15.1	0.00e+00	0	43	0	930086912	17	4241
2026-01-14 23:10:18.09	81.47	31.82	-28.4	-30.0	14.9	0.00e+00	0	43	0	933232640	17	4338
2026-01-14 23:10:19.10	81.83	31.86	-28.5	-30.3	14.8	0.00e+00	0	43	0	936378368	17	4414
2026-01-14 23:10:20.11	82.19	31.90	-28.2	-29.5	15.3	0.00e+00	0	43	0	939524096	17	4187
2026-01-14 23:10:21.11	82.54	31.93	-28.0	-29.0	15.6	0.00e+00	0	43	0	942669824	17	4042
2026-01-14 23:10:22.12	82.91	31.97	-27.9	-28.9	15.6	0.00e+00	0	43	0	945815552	17	4024
2026-01-14 23:10:23.12	83.26	32.01	-28.2	-29.6	15.2	0.00e+00	0	43	0	948961280	17	4218
2026-01-14 23:10:24.12	83.62	32.04	-28.3	-29.8	15.1	7.00e-07	0	43	0	952107008	17	4260
2026-01-14 23:10:25.13	83.99	32.07	-28.5	-30.3	14.8	7.00e-07	0	43	0	955252736	17	4417
2026-01-14 23:10:26.13	84.35	32.10	-28.5	-30.3	14.8	0.00e+00	0	43	0	958398464	17	4395
2026-01-14 23:10:27.14	84.71	32.14	-28.5	-30.3	14.8	0.00e+00	0	43	0	961544192	17	4416
2026-01-14 23:10:28.14	85.07	32.16	-28.6	-30.4	14.8	7.00e-07	0	43	0	964689920	17	4434
2026-01-14 23:10:29.14	85.44	32.19	-28.7	-30.6	14.6	7.00e-07	0	43	0	967835648	17	4498
2026-01-14 23:10:30.14	85.80	32.22	-28.6	-30.4	14.8	0.00e+00	0	43	0	970981376	17	4425
2026-01-14 23:10:31.15	86.17	32.24	-28.5	-30.2	14.9	0.00e+00	0	43	0	974127104	17	4387
2026-01-14 23:10:32.14	86.53	32.27	-28.5	-30.3	14.8	0.00e+00	0	43	0	977272832	17	4405
2026-01-14 23:10:33.15	86.90	32.29	-28.6	-30.4	14.7	0.00e+00	0	43	0	980418560	17	4424
2026-01-14 23:10:34.15	87.26	32.31	-28.6	-30.4	14.8	0.00e+00	0	43	0	983564288	17	4428
2026-01-14 23:10:35.16	87.63	32.33	-28.6	-30.4	14.8	0.00e+00	0	43	0	986710016	17	4452
2026-01-14 23:10:36.16	88.00	32.35	-28.7	-30.6	14.6	7.00e-07	0	43	0	989855744	17	4506
2026-01-14 23:10:37.17	88.37	32.37	-28.6	-30.5	14.7	0.00e+00	0	43	0	993001472	17	4456
2026-01-14 23:10:38.17	88.74	32.39	-28.6	-30.4	14.7	0.00e+00	0	43	0	996147200	17	4448
2026-01-14 23:10:39.18	89.11	32.40	-28.6	-30.5	14.7	0.00e+00	0	43	0	999292928	17	4467
2026-01-14 23:10:40.18	89.47	32.42	-28.6	-30.4	14.8	0.00e+00	0	43	0	1002438656	17	4438
2026-01-14 23:10:41.18	89.84	32.43	-28.4	-30.0	15.0	0.00e+00	0	43	0	1005584384	17	4315
2026-01-14 23:10:42.18	90.21	32.44	-28.3	-29.8	15.0	7.00e-07	0	43	0	1008730112	17	4278
2026-01-14 23:10:43.19	90.58	32.45	-28.5	-30.2	14.9	0.00e+00	0	43	0	1011875840	17	4367
2026-01-14 23:10:44.19	90.95	32.46	-28.5	-30.1	14.9	1.03e-04	0	43	0	1015021568	17	4357
2026-01-14 23:10:45.19	91.32	32.47	-28.5	-30.1	14.9	1.96e-04	0	43	0	1018167296	17	4361
2026-01-14 23:10:46.20	91.69	32.48	-28.5	-30.3	14.8	7.00e-07	0	43	0	1021313024	17	4416
2026-01-14 23:10:47.20	92.06	32.48	-28.5	-30.1	14.9	7.00e-07	0	43	0	1024458752	17	4366
2026-01-14 23:10:48.20	92.43	32.49	-28.5	-30.2	14.9	0.00e+00	0	43	0	1027604480	17	4374
2026-01-14 23:10:49.20	92.80	32.49	-28.4	-30.1	14.9	0.00e+00	0	43	0	1030750208	17	4345
2026-01-14 23:10:50.20	93.17	32.49	-28.4	-30.0	15.0	2.07e-04	0	43	0	1033895936	17	4337
2026-01-14 23:10:51.21	93.55	32.49	-28.4	-29.9	15.0	2.46e-04	0	43	0	1037041664	17	4299
2026-01-14 23:10:52.22	93.92	32.49	-28.3	-29.7	15.1	7.00e-07	0	43	0	1040187392	17	4237
2026-01-14 23:10:53.22	94.29	32.49	-28.3	-29.8	15.1	0.00e+00	0	43	0	1043333120	17	4265
2026-01-14 23:10:54.22	94.66	32.48	-28.4	-30.1	14.9	3.13e-04	0	43	0	1046478848	17	4342
2026-01-14 23:10:55.23	95.03	32.48	-28.3	-29.8	15.1	0.00e+00	0	43	0	1049624576	17	4278
2026-01-14 23:10:56.22	95.40	32.47	-28.4	-30.0	15.0	1.43e-04	0	43	0	1052770304	17	4312
2026-01-14 23:10:57.23	95.77	32.46	-28.5	-30.1	14.9	2.12e-04	0	43	0	1055916032	17	4359
2026-01-14 23:10:58.23	96.14	32.45	-28.4	-30.1	14.9	0.00e+00	0	43	0	1059061760	17	4345
2026-01-14 23:10:59.23	96.51	32.44	-28.4	-30.1	14.9	3.09e-04	0	43	0	1062207488	17	4354
2026-01-14 23:11:00.23	96.88	32.43	-28.5	-30.1	14.9	2.40e-04	0	43	0	1065353216	17	4353
2026-01-14 23:11:01.23	97.25	32.42	-28.1	-29.4	15.3	0.00e+00	0	43	0	1068498944	17	4141
2026-01-14 23:11:02.23	97.61	32.40	-28.1	-29.4	15.3	9.53e-05	0	43	0	1071644672	17	4147
2026-01-14 23:11:03.23	97.98	32.39	-28.2	-29.6	15.2	0.00e+00	0	43	0	1074790400	17	4223
2026-01-14 23:11:04.23	98.35	32.37	-28.4	-30.0	15.0	0.00e+00	0	43	0	1077936128	17	4318
2026-01-14 23:11:05.24	98.72	32.35	-28.3	-29.7	15.1	7.00e-07	0	43	0	1081081856	17	4233
2026-01-14 23:11:06.24	99.09	32.33	-28.4	-29.9	15.0	7.00e-07	0	43	0	1084227584	17	4278
2026-01-14 23:11:07.24	99.45	32.31	-28.5	-30.1	14.9	0.00e+00	0	43	0	1087373312	17	4350
2026-01-14 23:11:08.25	99.82	32.29	-28.2	-29.4	15.3	0.00e+00	0	43	0	1090519040	17	4168
2026-01-14 23:11:09.26	100.19	32.27	-28.0	-29.1	15.4	0.00e+00	0	43	0	1093664768	17	4085
2026-01-14 23:11:10.26	100.55	32.24	-28.0	-29.2	15.4	0.00e+00	0	43	0	1096810496	17	4096
2026-01-14 23:11:11.26	100.92	32.22	-28.1	-29.3	15.4	1.06e-05	0	43	0	1099956224	17	4124
2026-01-14 23:11:12.27	101.29	32.19	-28.0	-29.1	15.4	9.10e-06	0	43	0	1103101952	17	4088
2026-01-14 23:11:13.26	101.65	32.16	-28.1	-29.3	15.3	0.00e+00	0	43	0	1106247680	17	4138
2026-01-14 23:11:14.27	102.01	32.13	-28.2	-29.6	15.1	0.00e+00	0	43	0	1109393408	17	4220
2026-01-14 23:11:15.27	102.37	32.10	-28.3	-29.7	15.1	1.75e-05	0	43	0	1112539136	17	4234
2026-01-14 23:11:16.28	102.74	32.07	-28.2	-29.4	15.3	0.00e+00	0	43	0	1115684864	17	4161
2026-01-14 23:11:17.28	103.10	32.04	-28.2	-29.5	15.2	2.28e-05	0	43	0	1118830592	17	4190
2026-01-14 23:11:18.28	103.46	32.00	-28.2	-29.6	15.2	0.00e+00	0	43	0	1121976320	17	4206
2026-01-14 23:11:19.29	103.82	31.97	-28.0	-29.1	15.5	0.00e+00	0	43	0	1125122048	17	4070
2026-01-14 23:11:20.30	104.18	31.93	-28.2	-29.4	15.3	6.94e-05	0	43	0	1128267776	17	4160
2026-01-14 23:11:21.30	104.54	31.89	-28.2	-29.6	15.2	1.83e-05	0	43	0	1131413504	17	4214
2026-01-14 23:11:22.30	104.90	31.85	-28.3	-29.7	15.1	0.00e+00	0	44	0	1134559232	17	4240
2026-01-14 23:11:23.30	105.25	31.81	-28.4	-29.9	15.0	0.00e+00	0	43	0	1137704960	17	4291
2026-01-14 23:11:24.30	105.61	31.77	-28.5	-30.3	14.7	0.00e+00	0	43	0	1140850688	17	4409
2026-01-14 23:11:25.31	105.96	31.73	-28.4	-30.1	14.9	0.00e+00	0	43	0	1143996416	17	4345
2026-01-14 23:11:26.32	106.32	31.68	-28.5	-30.2	14.8	0.00e+00	0	43	0	1147142144	17	4397
2026-01-14 23:11:27.32	106.67	31.64	-28.7	-30.7	14.5	0.00e+00	0	43	0	1150287872	17	4536
2026-01-14 23:11:28.32	107.02	31.59	-28.7	-30.6	14.5	7.00e-07	0	43	0	1153433600	17	4508
2026-01-14 23:11:29.32	107.37	31.55	-28.7	-30.6	14.6	7.00e-07	0	43	0	1156579328	17	4506
2026-01-14 23:11:30.33	107.72	31.50	-28.6	-30.4	14.6	0.00e+00	0	43	0	1159725056	17	4449
2026-01-14 23:11:31.33	108.07	31.45	-28.6	-30.5	14.6	7.00e-07	0	43	0	1162870784	17	4475
2026-01-14 23:11:32.34	108.42	31.40	-28.5	-30.2	14.8	0.00e+00	0	43	0	1166016512	17	4380
2026-01-14 23:11:33.34	108.77	31.35	-28.5	-30.1	14.8	7.00e-07	0	43	0	1169162240	17	4352
2026-01-14 23:11:34.35	109.12	31.30	-28.5	-30.3	14.7	0.00e+00	0	43	0	1172307968	17	4418
2026-01-14 23:11:35.35	109.46	31.24	-28.6	-30.3	14.6	7.00e-07	0	43	0	1175453696	17	4417
2026-01-14 23:11:36.36	109.81	31.19	-28.7	-30.6	14.5	1.50e-06	0	43	0	1178599424	17	4503
2026-01-14 23:11:37.36	110.15	31.13	-28.3	-29.8	15.0	0.00e+00	0	43	0	1181745152	17	4257
2026-01-14 23:11:38.37	110.49	31.08	-28.2	-29.6	15.1	0.00e+00	0	43	0	1184890880	17	4208
2026-01-14 23:11:39.37	110.83	31.02	-28.1	-29.3	15.2	0.00e+00	0	43	0	1188036608	17	4146
2026-01-14 23:11:40.39	111.18	30.96	-28.0	-29.2	15.3	0.00e+00	0	43	0	1191182336	17	4098
2026-01-14 23:11:41.38	111.51	30.90	-28.0	-29.1	15.4	0.00e+00	0	43	0	1194328064	17	4089
2026-01-14 23:11:42.39	111.85	30.84	-28.1	-29.2	15.3	0.00e+00	0	43	0	1197473792	17	4112
2026-01-14 23:11:43.39	112.18	30.78	-28.0	-29.0	15.4	0.00e+00	0	43	0	1200619520	17	4064
2026-01-14 23:11:44.39	112.52	30.72	-27.9	-28.8	15.6	0.00e+00	0	43	0	1203765248	17	4005
2026-01-14 23:11:45.39	112.85	30.65	-27.9	-29.0	15.5	0.00e+00	0	43	0	1205862400	17	4047
2026-01-14 23:11:46.39	113.18	30.59	-28.0	-29.1	15.4	0.00e+00	0	43	0	1209008128	17	4075
2026-01-14 23:11:47.39	113.51	30.53	-27.8	-28.6	15.7	0.00e+00	0	43	0	1212153856	17	3944
2026-01-14 23:11:48.40	113.84	30.46	-27.9	-29.3	15.6	0.00e+00	0	43	0	1215299584	16	4236
2026-01-14 23:11:49.40	114.17	30.39	-28.1	-29.8	15.3	0.00e+00	0	43	0	1218445312	16	4385
2026-01-14 23:11:50.40	114.49	30.33	-28.2	-30.1	15.1	0.00e+00	0	43	0	1221591040	16	4473
2026-01-14 23:11:51.40	114.82	30.26	-28.2	-30.0	15.1	0.00e+00	0	43	0	1224736768	16	4454
2026-01-14 23:11:52.41	115.14	30.19	-28.0	-29.5	15.4	0.00e+00	0	43	0	1227882496	16	4290
2026-01-14 23:11:53.41	115.46	30.12	-27.8	-29.2	15.6	0.00e+00	0	43	0	1231028224	16	4215
2026-01-14 23:11:54.41	115.78	30.05	-27.7	-29.0	15.7	0.00e+00	0	43	0	1234173952	16	4161
2026-01-14 23:11:55.40	116.10	29.98	-27.8	-29.1	15.7	0.00e+00	0	43	0	1237319680	16	4191
2026-01-14 23:11:56.41	116.42	29.91	-27.7	-29.0	15.7	0.00e+00	0	43	0	1240465408	16	4168
2026-01-14 23:11:57.42	116.74	29.83	-27.7	-29.0	15.7	0.00e+00	0	43	0	1243611136	16	4150
2026-01-14 23:11:58.42	117.05	29.76	-27.7	-29.0	15.7	0.00e+00	0	43	0	1246756864	16	4149
2026-01-14 23:11:59.42	117.36	29.69	-27.8	-29.0	15.7	0.00e+00	0	43	0	1249902592	16	4167
2026-01-14 23:12:00.43	117.68	29.61	-27.9	-29.3	15.5	0.00e+00	0	44	0	1253048320	16	4254
2026-01-14 23:12:01.44	117.99	29.53	-27.8	-29.2	15.6	0.00e+00	0	43	0	1256194048	16	4222
2026-01-14 23:12:02.44	118.30	29.46	-27.6	-28.7	15.8	0.00e+00	0	43	0	1259339776	16	4085
2026-01-14 23:12:03.45	118.61	29.38	-27.5	-28.5	16.0	0.00e+00	0	43	0	1262485504	16	4022
2026-01-14 23:12:04.45	118.92	29.30	-27.6	-28.6	15.9	9.90e-06	0	43	0	1265631232	16	4060
2026-01-14 23:12:05.45	119.22	29.22	-27.5	-28.5	15.9	0.00e+00	0	43	0	1268776960	16	4035
2026-01-14 23:12:06.46	119.53	29.14	-27.4	-28.2	16.1	0.00e+00	0	43	0	1271922688	16	3949
2026-01-14 23:12:07.46	119.83	29.06	-27.5	-28.4	16.0	9.90e-06	0	43	0	1275068416	16	4002
2026-01-14 23:12:08.46	120.13	28.98	-27.6	-28.7	15.9	0.00e+00	0	43	0	1278214144	16	4071
2026-01-14 23:12:09.47	120.43	28.90	-27.7	-28.9	15.7	0.00e+00	0	43	0	1281359872	16	4125
2026-01-14 23:12:10.47	120.73	28.82	-27.5	-28.5	15.9	8.30e-06	0	43	0	1284505600	16	4026
2026-01-14 23:12:11.48	121.03	28.74	-27.5	-28.4	16.0	0.00e+00	0	43	0	1287651328	16	4010
2026-01-14 23:12:12.47	121.32	28.66	-27.4	-28.2	16.1	0.00e+00	0	43	0	1290797056	16	3963
2026-01-14 23:12:13.47	121.61	28.57	-27.3	-28.0	16.2	8.30e-06	0	43	0	1293942784	16	3902
2026-01-14 23:12:14.47	121.90	28.49	-27.2	-28.3	16.1	0.00e+00	0	43	0	1297088512	15	4092
2026-01-14 23:12:15.48	122.19	28.40	-27.3	-28.5	16.1	0.00e+00	0	43	0	1300234240	15	4131
2026-01-14 23:12:16.48	122.48	28.32	-27.2	-28.3	16.1	9.10e-06	0	43	0	1303379968	15	4099
2026-01-14 23:12:17.48	122.77	28.23	-27.1	-28.1	16.3	0.00e+00	0	43	0	1306525696	15	4027
2026-01-14 23:12:18.48	123.05	28.15	-26.9	-27.6	16.5	0.00e+00	0	43	0	1309671424	15	3912
2026-01-14 23:12:19.48	123.34	28.06	-26.9	-27.6	16.5	8.30e-06	0	43	0	1312817152	15	3926
2026-01-14 23:12:20.47	123.62	27.98	-26.9	-27.6	16.5	0.00e+00	0	43	0	1315962880	15	3910
2026-01-14 23:12:21.47	123.90	27.89	-26.9	-27.6	16.5	0.00e+00	0	43	0	1319108608	15	3907
2026-01-14 23:12:22.48	124.18	27.80	-26.8	-27.5	16.6	0.00e+00	0	43	0	1322254336	15	3883
2026-01-14 23:12:23.48	124.46	27.71	-26.8	-28.0	16.1	0.00e+00	0	43	0	1325400064	14	4132
2026-01-14 23:12:24.48	124.73	27.62	-26.9	-28.1	16.4	0.00e+00	0	44	0	1328545792	14	4153
2026-01-14 23:12:25.47	125.01	27.54	-26.9	-28.2	16.3	0.00e+00	0	43	0	1331691520	14	4166
2026-01-14 23:12:26.48	125.28	27.45	-27.0	-28.3	16.3	0.00e+00	0	43	0	1334837248	14	4207
2026-01-14 23:12:27.47	125.55	27.36	-27.1	-28.5	16.2	0.00e+00	0	43	0	1337982976	14	4266
2026-01-14 23:12:28.47	125.82	27.27	-27.1	-28.7	16.2	0.00e+00	0	43	0	1341128704	14	4301
2026-01-14 23:12:29.48	126.09	27.18	-26.9	-28.2	16.4	0.00e+00	0	43	0	1344274432	14	4185
2026-01-14 23:12:30.48	126.36	27.09	-26.8	-28.0	16.5	0.00e+00	0	43	0	1347420160	14	4131
2026-01-14 23:12:31.48	126.63	26.99	-26.9	-28.1	16.5	0.00e+00	0	43	0	1350565888	14	4141
2026-01-14 23:12:32.49	126.89	26.90	-26.9	-28.2	16.4	0.00e+00	0	43	0	1353711616	14	4186
2026-01-14 23:12:33.49	127.16	26.81	-26.9	-28.3	16.4	0.00e+00	0	43	0	1356857344	14	4200
2026-01-14 23:12:34.49	127.42	26.72	-27.0	-28.4	16.3	1.72e-04	0	43	0	1360003072	14	4227
2026-01-14 23:12:35.50	127.68	26.63	-26.9	-28.2	16.4	0.00e+00	0	43	0	1363148800	14	4169
2026-01-14 23:12:36.50	127.94	26.53	-27.0	-28.4	16.3	0.00e+00	0	43	0	1366294528	14	4236
2026-01-14 23:12:37.51	128.20	26.44	-27.0	-28.4	16.2	0.00e+00	0	43	0	1369440256	14	4233
2026-01-14 23:12:38.52	128.45	26.34	-27.1	-28.6	16.1	1.30e-04	0	43	0	1372585984	14	4293
2026-01-14 23:12:39.52	128.71	26.25	-27.1	-28.6	16.2	0.00e+00	0	43	0	1375731712	14	4294
2026-01-14 23:12:40.52	128.96	26.16	-26.9	-28.1	16.4	1.56e-04	0	43	0	1378877440	14	4152
2026-01-14 23:12:41.52	129.21	26.06	-26.8	-28.0	16.5	0.00e+00	0	43	0	1382023168	14	4113
2026-01-14 23:12:42.53	129.46	25.97	-26.9	-28.1	16.4	0.00e+00	0	43	0	1385168896	14	4147
2026-01-14 23:12:43.52	129.71	25.87	-26.9	-28.1	16.4	2.91e-04	0	43	0	1388314624	14	4153
2026-01-14 23:12:44.53	129.96	25.78	-26.8	-28.1	16.4	3.02e-04	0	43	0	1391460352	14	4139
2026-01-14 23:12:45.52	130.20	25.68	-26.9	-28.1	16.4	0.00e+00	0	43	0	1394606080	14	4158
2026-01-14 23:12:46.53	130.45	25.59	-27.1	-28.6	16.1	0.00e+00	0	43	0	1397751808	14	4294
2026-01-14 23:12:47.53	130.69	25.49	-27.1	-28.6	16.1	2.08e-04	0	43	0	1400897536	14	4284
2026-01-14 23:12:48.53	130.93	25.40	-27.1	-28.7	16.0	0.00e+00	0	43	0	1404043264	14	4322
2026-01-14 23:12:49.53	131.17	25.30	-27.2	-28.9	15.9	2.63e-04	0	43	0	1407188992	14	4373
2026-01-14 23:12:50.54	131.41	25.20	-27.3	-29.2	15.8	2.91e-04	0	43	0	1410334720	14	4448
2026-01-14 23:12:51.54	131.65	25.11	-27.4	-29.3	15.7	0.00e+00	0	43	0	1413480448	14	4477
2026-01-14 23:12:52.54	131.88	25.01	-27.5	-29.1	15.6	2.69e-04	0	43	0	1416626176	15	4315
2026-01-14 23:12:53.55	132.12	24.92	-27.8	-29.8	15.1	2.53e-04	0	43	0	1419771904	15	4524
2026-01-14 23:12:54.55	132.35	24.82	-28.0	-29.7	15.1	0.00e+00	0	43	0	1422917632	16	4372
2026-01-14 23:12:55.56	132.59	24.72	-27.7	-29.1	15.4	2.24e-04	0	43	0	1426063360	16	4192
2026-01-14 23:12:56.55	132.81	24.63	-27.6	-28.6	15.7	1.95e-04	0	43	0	1429209088	16	4079
2026-01-14 23:12:57.56	133.04	24.53	-27.3	-28.2	16.0	0.00e+00	0	43	0	1431306240	16	3952
2026-01-14 23:12:58.56	133.27	24.43	-27.3	-28.1	16.0	8.62e-05	0	43	0	1434451968	16	3939
2026-01-14 23:12:59.56	133.50	24.33	-27.4	-28.2	15.9	3.05e-05	0	43	0	1438646272	16	3973
2026-01-14 23:13:00.57	133.72	24.24	-27.5	-28.5	15.7	0.00e+00	0	43	0	1441792000	16	4042
2026-01-14 23:13:01.57	133.95	24.14	-27.4	-28.4	15.8	0.00e+00	0	43	0	1444937728	16	4014
2026-01-14 23:13:02.57	134.17	24.04	-27.3	-28.1	15.9	0.00e+00	0	43	0	1448083456	16	3952
2026-01-14 23:13:03.57	134.39	23.94	-27.4	-28.2	15.9	0.00e+00	0	43	0	1451229184	16	3980
2026-01-14 23:13:04.58	134.61	23.84	-27.2	-28.4	15.9	3.50e-04	0	43	0	1454374912	15	4139
2026-01-14 23:13:05.58	134.83	23.75	-27.1	-28.2	16.0	4.35e-04	0	43	0	1456472064	15	4092
2026-01-14 23:13:06.58	135.04	23.65	-27.1	-28.3	15.9	0.00e+00	0	43	0	1459617792	15	4108
2026-01-14 23:13:07.58	135.26	23.55	-27.2	-29.0	15.8	0.00e+00	0	43	0	1462763520	14	4414
2026-01-14 23:13:08.59	135.47	23.45	-27.2	-28.9	15.8	0.00e+00	0	43	0	1465909248	14	4384
2026-01-14 23:13:09.59	135.68	23.36	-27.2	-29.0	15.8	0.00e+00	0	43	0	1469054976	14	4403
2026-01-14 23:13:10.59	135.90	23.26	-27.2	-28.8	15.8	1.30e-04	0	43	0	1472200704	14	4370
2026-01-14 23:13:11.59	136.11	23.16	-27.3	-29.1	15.7	0.00e+00	0	43	0	1475346432	14	4434
2026-01-14 23:13:12.60	136.32	23.06	-27.2	-29.0	15.8	4.50e-06	0	44	0	1478492160	14	4408
2026-01-14 23:13:13.60	136.52	22.96	-27.3	-29.1	15.7	0.00e+00	0	43	0	1481637888	14	4437
2026-01-14 23:13:14.60	136.73	22.87	-27.2	-29.0	15.8	8.92e-05	0	43	0	1484783616	14	4413
2026-01-14 23:13:15.60	136.93	22.77	-27.1	-28.8	15.8	0.00e+00	0	43	0	1487929344	14	4366
2026-01-14 23:13:16.60	137.14	22.67	-27.1	-28.7	15.9	0.00e+00	0	43	0	1491075072	14	4339
2026-01-14 23:13:17.61	137.34	22.57	-27.1	-28.8	15.9	0.00e+00	0	43	0	1494220800	14	4354
2026-01-14 23:13:18.60	137.54	22.47	-27.2	-28.9	15.7	0.00e+00	0	43	0	1497366528	14	4401
2026-01-14 23:13:19.60	137.74	22.38	-27.3	-29.3	15.6	0.00e+00	0	43	0	1500512256	14	4491
2026-01-14 23:13:20.61	137.94	22.28	-27.3	-29.2	15.6	0.00e+00	0	43	0	1503657984	14	4464
2026-01-14 23:13:21.62	138.14	22.18	-27.3	-29.2	15.6	7.00e-07	0	43	0	1506803712	14	4473
2026-01-14 23:13:22.63	138.34	22.08	-27.3	-29.3	15.6	0.00e+00	0	43	0	1509949440	14	4491
2026-01-14 23:13:23.63	138.53	21.98	-27.4	-29.3	15.5	0.00e+00	0	43	0	1513095168	14	4510
2026-01-14 23:13:24.63	138.73	21.89	-27.5	-29.6	15.4	0.00e+00	0	43	0	1516240896	14	4578
2026-01-14 23:13:25.63	138.92	21.79	-27.6	-29.3	15.2	0.00e+00	0	44	0	1519386624	15	4391
2026-01-14 23:13:26.63	139.11	21.69	-27.6	-29.4	15.2	0.00e+00	0	44	0	1522532352	15	4420
2026-01-14 23:13:27.63	139.30	21.59	-27.5	-29.0	15.4	7.00e-07	0	43	0	1525678080	15	4315
2026-01-14 23:13:28.64	139.49	21.49	-27.4	-29.4	15.5	0.00e+00	0	44	0	1528823808	14	4532
2026-01-14 23:13:29.64	139.68	21.40	-27.4	-29.3	15.5	0.00e+00	0	43	0	1531969536	14	4515
2026-01-14 23:13:30.64	139.87	21.30	-27.5	-29.6	15.4	0.00e+00	0	43	0	1535115264	14	4583
2026-01-14 23:13:31.64	140.05	21.20	-27.4	-28.9	15.5	0.00e+00	0	43	0	1538260992	15	4287
2026-01-14 23:13:32.64	140.24	21.11	-27.4	-29.4	15.5	0.00e+00	0	43	0	1541406720	14	4527
2026-01-14 23:13:33.64	140.42	21.01	-27.3	-29.3	15.5	7.00e-07	0	43	0	1544552448	14	4508
2026-01-14 23:13:34.64	140.60	20.91	-27.3	-29.2	15.5	0.00e+00	0	43	0	1547698176	14	4478
2026-01-14 23:13:35.65	140.78	20.81	-27.4	-29.4	15.4	0.00e+00	0	44	0	1550843904	14	4531
2026-01-14 23:13:36.65	140.96	20.72	-27.3	-29.2	15.5	0.00e+00	0	43	0	1553989632	14	4470
2026-01-14 23:13:37.66	141.14	20.62	-27.2	-28.9	15.7	0.00e+00	0	43	0	1557135360	14	4401
2026-01-14 23:13:38.67	141.32	20.52	-27.2	-28.9	15.7	0.00e+00	0	43	0	1560281088	14	4390
2026-01-14 23:13:39.67	141.50	20.43	-27.2	-28.9	15.7	0.00e+00	0	43	0	1563426816	14	4390
2026-01-14 23:13:40.67	141.68	20.33	-27.2	-29.0	15.6	0.00e+00	0	43	0	1566572544	14	4424
2026-01-14 23:13:41.68	141.85	20.23	-27.2	-28.9	15.7	0.00e+00	0	43	0	1569718272	14	4403
2026-01-14 23:13:42.68	142.03	20.14	-27.3	-29.2	15.6	0.00e+00	0	43	0	1572864000	14	4460
2026-01-14 23:13:43.68	142.20	20.04	-27.4	-29.3	15.4	0.00e+00	0	43	0	1576009728	14	4513
2026-01-14 23:13:44.69	142.37	19.94	-27.4	-29.3	15.4	0.00e+00	0	43	0	1579155456	14	4516
2026-01-14 23:13:45.68	142.54	19.85	-27.6	-29.3	15.2	0.00e+00	0	43	0	1582301184	15	4399
2026-01-14 23:13:46.69	142.71	19.75	-27.7	-29.6	15.0	0.00e+00	0	43	0	1585446912	15	4476
2026-01-14 23:13:47.69	142.88	19.66	-27.7	-29.6	14.9	0.00e+00	0	43	0	1588592640	15	4488
2026-01-14 23:13:48.69	143.05	19.56	-27.6	-29.4	15.1	0.00e+00	0	43	0	1591738368	15	4422
2026-01-14 23:13:49.70	143.21	19.47	-27.7	-29.6	14.9	0.00e+00	0	43	0	1594884096	15	4487
2026-01-14 23:13:50.70	143.38	19.37	-27.7	-29.6	14.9	7.00e-07	0	43	0	1598029824	15	4485
2026-01-14 23:13:51.70	143.54	19.28	-27.7	-29.6	14.9	0.00e+00	0	43	0	1601175552	15	4495
2026-01-14 23:13:52.70	143.71	19.18	-27.7	-29.6	14.9	0.00e+00	0	43	0	1604321280	15	4497
2026-01-14 23:13:53.70	143.87	19.09	-27.5	-29.2	15.1	0.00e+00	0	43	0	1607467008	15	4364
2026-01-14 23:13:54.71	144.03	18.99	-27.4	-28.8	15.3	0.00e+00	0	43	0	1610612736	15	4268
2026-01-14 23:13:55.71	144.19	18.90	-27.3	-29.2	15.4	0.00e+00	0	43	0	1613758464	14	4493
2026-01-14 23:13:56.70	144.35	18.80	-27.2	-29.1	15.5	0.00e+00	0	43	0	1616904192	14	4445
2026-01-14 23:13:57.70	144.51	18.71	-27.4	-29.5	15.2	0.00e+00	0	43	0	1620049920	14	4560
2026-01-14 23:13:58.71	144.67	18.61	-27.3	-29.2	15.4	0.00e+00	0	43	0	1623195648	14	4496
2026-01-14 23:13:59.71	144.82	18.52	-27.2	-29.0	15.4	0.00e+00	0	43	0	1626341376	14	4422
2026-01-14 23:14:00.71	144.98	18.43	-27.2	-28.9	15.5	0.00e+00	0	44	0	1629487104	14	4406
2026-01-14 23:14:01.72	145.14	18.33	-27.3	-29.3	15.3	0.00e+00	0	44	0	1632632832	14	4509
2026-01-14 23:14:02.72	145.29	18.24	-27.2	-29.0	15.4	0.00e+00	0	43	0	1635778560	14	4440
2026-01-14 23:14:03.72	145.44	18.14	-27.4	-29.4	15.2	0.00e+00	0	43	0	1638924288	14	4555
2026-01-14 23:14:04.72	145.59	18.05	-27.3	-29.3	15.3	0.00e+00	0	43	0	1642070016	14	4509
2026-01-14 23:14:05.73	145.75	17.96	-27.4	-29.4	15.2	0.00e+00	0	43	0	1645215744	14	4552
2026-01-14 23:14:06.73	145.90	17.87	-27.5	-29.6	15.1	0.00e+00	0	43	0	1648361472	14	4605
2026-01-14 23:14:07.73	146.05	17.77	-27.5	-29.1	15.1	0.00e+00	0	43	0	1651507200	15	4340
2026-01-14 23:14:08.73	146.19	17.68	-27.5	-29.2	15.1	0.00e+00	0	43	0	1654652928	15	4361
2026-01-14 23:14:09.74	146.34	17.59	-27.5	-29.2	15.0	0.00e+00	0	43	0	1657798656	15	4387
2026-01-14 23:14:10.74	146.49	17.49	-27.5	-29.3	15.0	0.00e+00	0	43	0	1660944384	15	4390
2026-01-14 23:14:11.75	146.64	17.40	-27.7	-29.7	14.7	7.00e-07	0	43	0	1664090112	15	4523
2026-01-14 23:14:12.75	146.78	17.31	-27.7	-29.7	14.7	0.00e+00	0	43	0	1667235840	15	4516
2026-01-14 23:14:13.76	146.93	17.22	-27.9	-30.1	14.5	1.50e-06	0	43	0	1670381568	15	4630
2026-01-14 23:14:14.76	147.07	17.13	-27.8	-29.9	14.5	0.00e+00	0	43	0	1673527296	15	4593
2026-01-14 23:14:15.76	147.21	17.04	-27.9	-30.2	14.3	7.00e-07	0	43	0	1676673024	15	4686
2026-01-14 23:14:16.77	147.36	16.94	-28.0	-29.9	14.4	7.00e-07	0	43	0	1679818752	16	4454
2026-01-14 23:14:17.78	147.50	16.85	-28.0	-29.9	14.4	3.20e-05	0	43	0	1682964480	16	4457
2026-01-14 23:14:18.78	147.64	16.76	-27.9	-30.2	14.4	1.50e-06	0	43	0	1686110208	15	4674
2026-01-14 23:14:19.79	147.78	16.67	-27.9	-30.2	14.4	7.00e-07	0	43	0	1689255936	15	4669
2026-01-14 23:14:20.79	147.92	16.58	-27.9	-30.2	14.4	3.80e-06	0	43	0	1692401664	15	4682
2026-01-14 23:14:21.80	148.05	16.49	-28.2	-30.3	14.2	2.20e-06	0	43	0	1695547392	16	4581
2026-01-14 23:14:22.80	148.19	16.40	-28.4	-30.8	13.9	3.56e-03	0	43	0	1698693120	16	4745
2026-01-14 23:14:23.80	148.33	16.31	-28.3	-30.1	13.9	6.80e-06	0	43	0	1701838848	17	4433
2026-01-14 23:14:24.80	148.46	16.22	-28.1	-30.1	14.3	0.00e+00	0	43	0	1704984576	16	4534
2026-01-14 23:14:25.80	148.60	16.13	-28.3	-30.5	14.0	1.50e-06	0	43	0	1708130304	16	4658
2026-01-14 23:14:26.81	148.73	16.04	-28.2	-30.5	14.0	8.30e-06	0	43	0	1710227456	16	4646
2026-01-14 23:14:27.82	148.86	15.95	-28.2	-30.2	14.2	4.01e-03	0	43	0	1714421760	16	4579
2026-01-14 23:14:28.82	149.00	15.86	-28.4	-30.7	13.9	3.84e-03	0	43	0	1717567488	16	4723
2026-01-14 23:14:29.83	149.13	15.77	-28.3	-30.6	13.9	1.23e-04	0	43	0	1720713216	16	4679
2026-01-14 23:14:30.84	149.26	15.68	-28.4	-30.8	13.8	5.30e-06	0	43	0	1723858944	16	4752
2026-01-14 23:14:31.84	149.39	15.59	-28.3	-30.5	14.0	3.59e-03	0	43	0	1727004672	16	4659
2026-01-14 23:14:32.84	149.52	15.50	-28.2	-30.4	14.0	6.71e-05	0	43	0	1730150400	16	4637
2026-01-14 23:14:33.85	149.65	15.42	-28.2	-30.4	14.0	3.56e-03	0	43	0	1732247552	16	4647
2026-01-14 23:14:34.85	149.78	15.33	-28.2	-30.4	14.0	3.99e-03	0	43	0	1735393280	16	4634
2026-01-14 23:14:35.85	149.90	15.24	-28.3	-30.5	13.9	6.10e-06	0	43	0	1738539008	16	4681
2026-01-14 23:14:36.85	150.03	15.15	-28.4	-30.8	13.8	4.06e-03	0	43	0	1741684736	16	4749
2026-01-14 23:14:37.85	150.15	15.07	-28.3	-30.6	13.9	3.87e-03	0	44	0	1744830464	16	4693
2026-01-14 23:14:38.86	150.28	14.98	-28.4	-30.8	13.7	2.62e-04	0	43	0	1749024768	16	4767
2026-01-14 23:14:39.86	150.40	14.89	-28.4	-30.9	13.7	3.97e-03	0	43	0	1752170496	16	4785
2026-01-14 23:14:40.87	150.53	14.80	-28.5	-31.1	13.5	3.75e-03	0	43	0	1755316224	16	4864
2026-01-14 23:14:41.88	150.65	14.72	-28.5	-30.5	13.5	3.13e-04	0	44	0	1757413376	17	4577
2026-01-14 23:14:42.88	150.77	14.63	-28.6	-30.9	13.4	3.78e-03	0	43	0	1760559104	17	4673
2026-01-14 23:14:43.89	150.90	14.54	-28.5	-31.1	13.5	4.32e-03	0	43	0	1763704832	16	4858
2026-01-14 23:14:44.90	151.02	14.46	-28.6	-30.9	13.3	3.47e-04	0	43	0	1766850560	17	4703
2026-01-14 23:14:45.91	151.14	14.37	-28.8	-31.3	13.1	4.35e-03	0	44	0	1769996288	17	4823
2026-01-14 23:14:46.91	151.26	14.28	-28.5	-30.8	13.4	1.52e-05	0	43	0	1774190592	17	4643
2026-01-14 23:14:47.91	151.38	14.20	-28.4	-30.3	13.6	8.30e-06	0	44	0	1777336320	17	4503
2026-01-14 23:14:48.90	151.49	14.11	-28.3	-30.6	13.8	4.05e-03	0	43	0	1779433472	16	4697
2026-01-14 23:14:49.91	151.61	14.03	-28.3	-30.7	13.7	3.70e-03	0	43	0	1782579200	16	4739
2026-01-14 23:14:50.91	151.73	13.94	-28.4	-30.9	13.6	1.14e-05	0	44	0	1785724928	16	4792
2026-01-14 23:14:51.91	151.84	13.86	-28.2	-30.5	13.8	6.10e-06	0	43	0	1788870656	16	4672
2026-01-14 23:14:52.91	151.96	13.78	-28.3	-30.7	13.7	4.06e-03	0	43	0	1792016384	16	4743
2026-01-14 23:14:53.91	152.07	13.69	-28.3	-30.7	13.7	3.91e-04	0	44	0	1795162112	16	4757
2026-01-14 23:14:54.90	152.19	13.61	-28.3	-30.9	13.5	4.13e-03	0	44	0	1798307840	16	4807
2026-01-14 23:14:55.91	152.30	13.52	-28.5	-30.8	13.3	1.98e-05	0	43	0	1801453568	17	4679
2026-01-14 23:14:56.91	152.41	13.44	-28.8	-31.5	12.8	3.89e-05	0	44	0	1804599296	17	4904
2026-01-14 23:14:57.91	152.53	13.36	-28.8	-31.5	12.8	5.41e-05	0	43	0	1807745024	17	4913
2026-01-14 23:14:58.91	152.64	13.27	-28.9	-31.7	12.7	7.09e-05	0	43	0	1810890752	17	4959
2026-01-14 23:14:59.91	152.75	13.19	-28.9	-31.7	12.7	4.32e-04	0	43	0	1814036480	17	4980
2026-01-14 23:15:00.91	152.86	13.11	-28.9	-31.7	12.7	7.78e-05	0	43	0	1817182208	17	4973
2026-01-14 23:15:01.92	152.97	13.02	-28.9	-31.7	12.7	7.55e-05	0	43	0	1820327936	17	4956
2026-01-14 23:15:02.92	153.08	12.94	-29.1	-31.6	12.4	1.25e-04	0	43	0	1823473664	18	4844
2026-01-14 23:15:03.93	153.19	12.86	-29.4	-32.4	11.9	3.40e-04	0	43	0	1826619392	18	5116
2026-01-14 23:15:04.93	153.30	12.78	-29.2	-31.9	12.3	4.56e-03	0	43	0	1829765120	18	4916
2026-01-14 23:15:05.93	153.40	12.69	-29.0	-31.4	12.6	1.25e-04	0	43	0	1832910848	18	4765
2026-01-14 23:15:06.94	153.51	12.61	-28.7	-31.3	13.0	5.41e-05	0	44	0	1836056576	17	4822
2026-01-14 23:15:07.94	153.62	12.53	-28.7	-31.3	13.0	3.50e-05	0	43	0	1839202304	17	4832
2026-01-14 23:15:08.94	153.72	12.45	-28.8	-31.6	12.8	6.02e-05	0	43	0	1842348032	17	4923
2026-01-14 23:15:09.94	153.83	12.37	-28.5	-30.8	13.2	2.51e-05	0	43	0	1845493760	17	4673
2026-01-14 23:15:10.95	153.93	12.28	-28.5	-30.7	13.3	1.98e-05	0	43	0	1848639488	17	4624
2026-01-14 23:15:11.95	154.04	12.20	-28.5	-30.6	13.4	1.29e-05	0	43	0	1851785216	17	4593
2026-01-14 23:15:12.96	154.14	12.12	-28.6	-31.0	13.1	2.44e-05	0	44	0	1854930944	17	4746
2026-01-14 23:15:13.96	154.25	12.04	-28.6	-30.9	13.2	2.13e-05	0	43	0	1858076672	17	4679
2026-01-14 23:15:14.96	154.35	11.96	-28.7	-31.1	13.1	2.97e-05	0	43	0	1861222400	17	4770
2026-01-14 23:15:15.96	154.45	11.88	-28.5	-30.7	13.3	2.21e-05	0	43	0	1864368128	17	4642
2026-01-14 23:15:16.96	154.55	11.80	-28.7	-31.1	13.1	2.74e-05	0	43	0	1867513856	17	4766
2026-01-14 23:15:17.97	154.65	11.72	-28.5	-30.7	13.3	2.13e-05	0	43	0	1870659584	17	4637
2026-01-14 23:15:18.97	154.75	11.64	-28.6	-30.9	13.2	1.83e-05	0	43	0	1873805312	17	4717
2026-01-14 23:15:19.97	154.85	11.56	-28.6	-30.9	13.2	2.89e-05	0	44	0	1876951040	17	4713
2026-01-14 23:15:20.98	154.95	11.48	-28.7	-31.1	13.0	3.43e-05	0	43	0	1880096768	17	4774
2026-01-14 23:15:21.98	155.05	11.40	-28.5	-30.6	13.4	1.37e-05	0	43	0	1883242496	17	4609
2026-01-14 23:15:22.98	155.15	11.32	-28.7	-31.2	13.0	1.75e-05	0	43	0	1886388224	17	4791
2026-01-14 23:15:23.99	155.25	11.25	-28.6	-30.9	13.2	3.58e-05	0	43	0	1889533952	17	4697
2026-01-14 23:15:24.99	155.35	11.17	-28.6	-31.0	13.1	3.28e-05	0	43	0	1892679680	17	4731
2026-01-14 23:15:25.99	155.44	11.09	-29.1	-31.6	12.5	9.91e-05	0	43	0	1895825408	18	4822
2026-01-14 23:15:27.00	155.54	11.01	-28.8	-30.9	12.9	4.95e-05	0	43	0	1898971136	18	4576
2026-01-14 23:15:28.00	155.64	10.93	-28.5	-30.6	13.4	2.51e-05	0	44	0	1902116864	17	4603
2026-01-14 23:15:29.00	155.73	10.85	-28.4	-30.4	13.5	1.75e-05	0	43	0	1905262592	17	4523
2026-01-14 23:15:30.00	155.83	10.78	-28.3	-30.3	13.6	9.10e-06	0	43	0	1908408320	17	4494
2026-01-14 23:15:31.00	155.92	10.70	-28.3	-30.7	13.6	1.29e-05	0	43	0	1911554048	16	4764
2026-01-14 23:15:32.00	156.01	10.62	-28.4	-30.9	13.5	1.52e-05	0	43	0	1914699776	16	4820
2026-01-14 23:15:33.01	156.11	10.54	-28.5	-31.2	13.3	1.67e-05	0	44	0	1917845504	16	4916
2026-01-14 23:15:34.01	156.20	10.47	-28.6	-30.9	13.2	2.28e-05	0	43	0	1920991232	17	4698
2026-01-14 23:15:35.01	156.29	10.39	-28.4	-31.0	13.4	1.37e-05	0	43	0	1924136960	16	4846
2026-01-14 23:15:36.01	156.39	10.31	-28.5	-30.7	13.2	2.97e-05	0	43	0	1927282688	17	4661
2026-01-14 23:15:37.01	156.48	10.24	-28.5	-30.8	13.2	2.51e-05	0	43	0	1930428416	17	4678
2026-01-14 23:15:38.02	156.57	10.16	-28.9	-31.7	12.6	8.46e-05	0	43	0	1933574144	17	5003
2026-01-14 23:15:39.01	156.66	10.09	-28.7	-31.2	12.9	6.63e-05	0	43	0	1936719872	17	4811
2026-01-14 23:15:40.01	156.75	10.01	-28.8	-31.5	12.8	4.34e-05	0	43	0	1939865600	17	4900
2026-01-14 23:15:41.01	156.84	9.93	-28.7	-31.2	13.0	4.34e-05	0	43	0	1943011328	17	4793
2026-01-14 23:15:42.02	156.93	9.86	-28.6	-31.0	13.1	2.89e-05	0	43	0	1946157056	17	4719
2026-01-14 23:15:43.02	157.02	9.78	-28.9	-31.7	12.6	7.47e-05	0	43	0	1949302784	17	4961
2026-01-14 23:15:44.03	157.11	9.71	-28.7	-31.2	12.9	5.95e-05	0	44	0	1952448512	17	4775
2026-01-14 23:15:45.03	157.19	9.63	-28.8	-31.4	12.8	4.34e-05	0	44	0	1955594240	17	4831
2026-01-14 23:15:46.03	157.28	9.56	-29.0	-31.8	12.6	8.77e-05	0	43	0	1958739968	17	4977
2026-01-14 23:15:47.04	157.37	9.48	-28.8	-31.4	12.8	5.56e-05	0	43	0	1961885696	17	4851
2026-01-14 23:15:48.04	157.46	9.41	-28.8	-31.3	12.9	4.65e-05	0	43	0	1965031424	17	4806
2026-01-14 23:15:49.04	157.54	9.33	-28.7	-31.2	12.9	5.26e-05	0	43	0	1968177152	17	4771
2026-01-14 23:15:50.04	157.63	9.26	-28.7	-31.3	12.9	4.04e-05	0	43	0	1971322880	17	4806
2026-01-14 23:15:51.05	157.71	9.18	-28.7	-31.1	12.9	4.04e-05	0	43	0	1974468608	17	4769
2026-01-14 23:15:52.05	157.80	9.11	-28.7	-31.2	12.9	5.18e-05	0	44	0	1977614336	17	4804
2026-01-14 23:15:53.06	157.88	9.04	-28.7	-31.1	12.9	4.04e-05	0	43	0	1980760064	17	4755
2026-01-14 23:15:54.05	157.97	8.96	-28.8	-31.5	12.7	7.24e-05	0	43	0	1983905792	17	4885
2026-01-14 23:15:55.06	158.05	8.89	-28.7	-31.1	12.9	4.88e-05	0	43	0	1986002944	17	4778
2026-01-14 23:15:56.05	158.13	8.82	-28.7	-31.2	12.9	3.96e-05	0	43	0	1989148672	17	4801
2026-01-14 23:15:57.06	158.22	8.74	-28.7	-31.2	12.9	5.18e-05	0	43	0	1992294400	17	4806
2026-01-14 23:15:58.06	158.30	8.67	-28.1	-31.0	12.0	8.62e-05	0	43	0	1996488704	17	5026
2026-01-14 23:15:59.06	158.38	8.60	-28.8	-31.5	12.7	8.69e-05	0	43	0	1999634432	17	4885
2026-01-14 23:16:00.06	158.46	8.53	-28.8	-31.5	11.7	7.70e-05	0	43	0	2002780160	17	4911
2026-01-14 23:16:01.07	158.55	8.45	-28.9	-31.7	12.4	1.03e-04	0	43	0	2005925888	17	4979
2026-01-14 23:16:02.07	158.63	8.38	-28.9	-31.8	12.5	1.14e-04	0	43	0	2008023040	17	5006
2026-01-14 23:16:03.08	158.71	8.31	-28.9	-31.8	12.4	1.43e-04	0	43	0	2011168768	17	5012
2026-01-14 23:16:04.08	158.79	8.24	-29.0	-31.5	12.3	1.39e-04	0	43	0	2014314496	18	4801
2026-01-14 23:16:05.08	158.87	8.16	-29.1	-31.6	12.3	1.79e-04	0	43	0	2017460224	18	4810
2026-01-14 23:16:06.08	158.95	8.09	-29.3	-32.2	11.9	4.34e-03	0	43	0	2020605952	18	5019
2026-01-14 23:16:07.09	159.03	8.02	-29.2	-32.1	12.0	4.54e-04	0	43	0	2023751680	18	4988
2026-01-14 23:16:08.10	159.11	7.95	-29.4	-32.4	11.7	5.84e-04	0	43	0	2026897408	18	5106
2026-01-14 23:16:09.11	159.19	7.88	-29.4	-32.6	11.5	6.57e-04	0	43	0	2030043136	18	5207
2026-01-14 23:16:10.11	159.27	7.81	-29.4	-32.6	11.5	9.52e-04	0	43	0	2033188864	18	5191
2026-01-14 23:16:11.11	159.34	7.73	-29.4	-32.5	11.6	6.13e-04	0	43	0	2036334592	18	5141
2026-01-14 23:16:12.12	159.42	7.66	-29.6	-32.5	11.2	4.80e-03	0	43	0	2039480320	19	5059
2026-01-14 23:16:13.12	159.50	7.59	-29.4	-32.6	11.5	4.60e-03	0	43	0	2042626048	18	5197
2026-01-14 23:16:14.12	159.57	7.52	-29.5	-32.4	11.3	1.12e-03	0	43	0	2045771776	19	5027
2026-01-14 23:16:15.12	159.65	7.45	-29.6	-32.6	11.2	1.04e-03	0	43	0	2048917504	19	5096
2026-01-14 23:16:16.12	159.73	7.38	-29.6	-32.8	11.0	5.48e-03	0	44	0	2052063232	19	5207
2026-01-14 23:16:17.13	159.80	7.31	-29.5	-32.5	11.2	1.42e-03	0	43	0	2055208960	19	5066
2026-01-14 23:16:18.13	159.88	7.24	-29.4	-32.8	11.4	4.53e-03	0	44	0	2058354688	18	5284
2026-01-14 23:16:19.13	159.95	7.17	-29.4	-32.7	11.4	9.31e-04	0	43	0	2061500416	18	5251
2026-01-14 23:16:20.14	160.03	7.10	-29.8	-33.2	10.8	1.42e-03	0	43	0	2064646144	19	5333
2026-01-14 23:16:21.14	160.10	7.03	-32.8	-45.2	3.8	1.49e+00	0	44	104	2065694720	25	14848

#Closed at: 2026-01-14 23:16:21
#Recorded file [2065 MB]: D:/data/31010_260115_020519.dat