passes_logs/2026/01/14/R2M6_AANII_01/R2M6_AANII_01__20260114_015448_NOAA_20_JPSS-1_rec.log

#Pass ID: 20260114_015448_NOAA 20 (JPSS-1)
#Satellite: NOAA 20 (JPSS-1)
#Configuration: NOAA 20
#almurnet v.1.7.20240730
#Start time: 2026-01-14 01:56:18

#Version: 2.2.20231116
#Station: R2M6_AANII_01
#Location: 30.233357 lon 59.946436 lat
#TLE: 1 43013U 17073A   26013.21545503  .00000073  00000+0  55630-4 0  9998
#TLE: 2 43013  98.7633 314.1737 0001580  41.9966 318.1331 14.19535680422486

#Time	Az	El	Level	Level2	SNR	BER	BlckErr	Temp	State	Recorded	gain1	gain2
2026-01-14 01:56:18.33	2.95	13.70	-34.7	-54.0	3.8	7.45e-01	0	43	0	0	30	32967
2026-01-14 01:56:19.34	2.83	13.78	-34.4	-48.3	3.8	1.49e+00	0	43	104	0	29	17929
2026-01-14 01:56:20.33	2.71	13.86	-34.4	-48.5	3.8	1.49e+00	0	43	104	0	29	18101
2026-01-14 01:56:21.33	2.59	13.94	-34.5	-48.5	3.8	1.49e+00	0	43	104	0	29	18160
2026-01-14 01:56:22.33	2.47	14.02	-34.5	-48.5	3.8	1.49e+00	0	43	104	0	29	18156
2026-01-14 01:56:23.34	2.34	14.10	-34.4	-49.0	3.8	1.49e+00	0	43	104	0	28	19160
2026-01-14 01:56:24.34	2.22	14.18	-34.4	-48.9	3.8	1.49e+00	0	43	104	0	28	19107
2026-01-14 01:56:25.35	2.09	14.27	-34.4	-48.9	3.8	1.49e+00	0	43	104	0	28	19124
2026-01-14 01:56:26.35	1.96	14.35	-34.4	-48.9	3.8	1.49e+00	0	43	104	0	28	19102
2026-01-14 01:56:27.35	1.84	14.43	-34.4	-48.9	3.8	1.49e+00	0	43	104	0	28	19084
2026-01-14 01:56:28.35	1.71	14.51	-34.4	-48.9	3.8	1.49e+00	0	43	104	0	28	19049
2026-01-14 01:56:29.35	1.58	14.60	-34.4	-48.9	3.8	1.49e+00	0	43	104	0	28	19078
2026-01-14 01:56:30.37	1.45	14.68	-34.4	-48.9	3.8	1.49e+00	0	43	104	0	28	19093
2026-01-14 01:56:31.37	1.32	14.76	-34.4	-48.9	3.8	1.49e+00	0	43	104	0	28	19037
2026-01-14 01:56:32.37	1.19	14.85	-34.4	-48.9	3.8	1.49e+00	0	43	104	0	28	19067
2026-01-14 01:56:33.37	1.06	14.93	-34.4	-48.8	3.8	1.49e+00	0	43	104	0	28	19029
2026-01-14 01:56:34.39	0.93	15.01	-34.4	-48.9	3.8	1.49e+00	0	43	104	0	28	19048
2026-01-14 01:56:35.39	0.80	15.10	-34.4	-48.9	3.8	1.49e+00	0	43	104	0	28	19051
2026-01-14 01:56:36.39	0.66	15.18	-34.4	-48.9	3.8	1.49e+00	0	43	104	0	28	19030
2026-01-14 01:56:37.40	0.53	15.26	-34.4	-48.8	3.8	1.49e+00	0	43	104	0	28	19035
2026-01-14 01:56:38.40	0.39	15.35	-34.4	-48.8	3.8	1.49e+00	0	43	104	0	28	19022
2026-01-14 01:56:39.41	0.26	15.43	-34.4	-48.8	3.8	1.49e+00	0	43	104	0	28	19012
2026-01-14 01:56:40.41	0.12	15.52	-34.4	-48.8	3.8	1.49e+00	0	43	104	0	28	18982
2026-01-14 01:56:41.41	359.98	15.60	-34.4	-48.8	3.8	1.49e+00	0	43	104	0	28	19000
2026-01-14 01:56:42.41	359.84	15.68	-34.4	-48.8	3.8	1.49e+00	0	43	104	0	28	19007
2026-01-14 01:56:43.42	359.70	15.77	-34.4	-48.8	3.8	1.49e+00	0	43	104	0	28	19005
2026-01-14 01:56:44.42	359.57	15.85	-34.4	-48.8	3.8	1.49e+00	0	43	104	0	28	18932
2026-01-14 01:56:45.41	359.43	15.94	-34.4	-48.8	3.8	1.49e+00	0	43	104	0	28	18982
2026-01-14 01:56:46.42	359.28	16.02	-34.4	-48.8	3.8	1.49e+00	0	43	104	0	28	18936
2026-01-14 01:56:47.42	359.14	16.11	-34.4	-48.8	3.8	1.49e+00	0	43	104	0	28	18968
2026-01-14 01:56:48.42	359.00	16.19	-34.4	-48.8	3.8	1.49e+00	0	43	104	0	28	18972
2026-01-14 01:56:49.43	358.85	16.28	-34.4	-48.8	3.8	1.49e+00	0	43	104	0	28	18936
2026-01-14 01:56:50.43	358.71	16.36	-34.3	-48.7	3.8	1.49e+00	0	43	104	0	28	18895
2026-01-14 01:56:51.43	358.57	16.45	-34.4	-48.8	3.8	1.49e+00	0	43	104	0	28	18975
2026-01-14 01:56:52.43	358.42	16.53	-34.3	-48.8	3.8	1.49e+00	0	43	104	0	28	18925
2026-01-14 01:56:53.44	358.27	16.62	-34.4	-48.8	3.8	1.49e+00	0	43	104	0	28	18984
2026-01-14 01:56:54.44	358.12	16.70	-34.4	-48.8	3.8	1.49e+00	0	43	104	0	28	18979
2026-01-14 01:56:55.44	357.97	16.79	-34.4	-48.8	3.8	1.49e+00	0	43	104	0	28	19005
2026-01-14 01:56:56.45	357.82	16.87	-34.4	-48.8	3.8	1.49e+00	0	43	104	0	28	18951
2026-01-14 01:56:57.45	357.67	16.96	-34.4	-48.8	3.8	1.49e+00	0	43	104	0	28	18892
2026-01-14 01:56:58.46	357.52	17.05	-34.4	-48.8	3.8	1.49e+00	0	43	104	0	28	18932
2026-01-14 01:56:59.46	357.37	17.13	-34.4	-48.8	3.8	1.49e+00	0	43	104	0	28	18908
2026-01-14 01:57:00.46	357.22	17.22	-34.3	-48.8	3.8	1.49e+00	0	43	104	0	28	18925
2026-01-14 01:57:01.46	357.06	17.30	-34.4	-48.8	3.8	1.49e+00	0	43	104	0	28	19007
2026-01-14 01:57:02.47	356.91	17.39	-34.3	-48.8	3.8	1.49e+00	0	43	104	0	28	18935
2026-01-14 01:57:03.47	356.75	17.48	-34.4	-48.8	3.8	1.49e+00	0	43	104	0	28	18921
2026-01-14 01:57:04.47	356.59	17.56	-34.3	-48.8	3.8	1.49e+00	0	43	104	0	28	18968
2026-01-14 01:57:05.48	356.43	17.65	-34.3	-48.8	3.8	1.49e+00	0	43	104	0	28	18969
2026-01-14 01:57:06.49	356.27	17.74	-34.4	-48.8	3.8	1.49e+00	0	43	104	0	28	18948
2026-01-14 01:57:07.49	356.12	17.82	-34.3	-48.8	3.8	1.49e+00	0	43	104	0	28	18918
2026-01-14 01:57:08.50	355.95	17.91	-34.3	-48.8	3.8	1.49e+00	0	43	104	0	28	18917
2026-01-14 01:57:09.50	355.79	18.00	-34.3	-48.8	3.8	1.49e+00	0	43	104	0	28	18941
2026-01-14 01:57:10.50	355.63	18.09	-34.3	-48.8	3.8	1.49e+00	0	43	104	0	28	18957
2026-01-14 01:57:11.50	355.47	18.17	-34.3	-48.8	3.8	1.49e+00	0	43	104	0	28	18950
2026-01-14 01:57:12.51	355.30	18.26	-34.3	-48.8	3.8	1.49e+00	0	43	104	0	28	18945
2026-01-14 01:57:13.51	355.14	18.35	-34.3	-48.8	3.8	1.49e+00	0	43	104	0	28	18935
2026-01-14 01:57:14.52	354.97	18.43	-34.4	-48.8	3.8	1.49e+00	0	43	104	0	28	18983
2026-01-14 01:57:15.52	354.80	18.52	-34.4	-49.0	3.8	1.49e+00	0	43	104	0	28	19170
2026-01-14 01:57:16.52	354.63	18.61	-34.5	-49.1	3.8	1.49e+00	0	43	104	0	28	19245
2026-01-14 01:57:17.53	354.46	18.70	-34.5	-48.6	3.8	1.49e+00	0	43	104	0	29	18171
2026-01-14 01:57:18.53	354.29	18.78	-34.5	-48.5	3.8	1.49e+00	0	43	104	0	29	18184
2026-01-14 01:57:19.53	354.12	18.87	-34.5	-48.6	3.8	1.49e+00	0	43	104	0	29	18163
2026-01-14 01:57:20.53	353.95	18.96	-34.5	-48.5	3.8	1.49e+00	0	43	104	0	29	18164
2026-01-14 01:57:21.54	353.78	19.05	-34.5	-48.5	3.8	1.49e+00	0	43	104	0	29	18072
2026-01-14 01:57:22.54	353.60	19.13	-34.5	-49.0	3.8	1.49e+00	0	43	104	0	28	19215
2026-01-14 01:57:23.55	353.42	19.22	-34.5	-49.0	3.8	1.49e+00	0	43	104	0	28	19181
2026-01-14 01:57:24.55	353.25	19.31	-34.4	-49.0	3.8	1.49e+00	0	43	104	0	28	19150
2026-01-14 01:57:25.55	353.07	19.40	-34.4	-49.0	3.8	1.49e+00	0	43	104	0	28	19171
2026-01-14 01:57:26.55	352.89	19.48	-34.4	-48.9	3.8	1.49e+00	0	43	104	0	28	19056
2026-01-14 01:57:27.55	352.71	19.57	-34.4	-48.9	3.8	1.49e+00	0	43	104	0	28	19047
2026-01-14 01:57:28.56	352.53	19.66	-34.4	-48.9	3.8	1.49e+00	0	43	104	0	28	19087
2026-01-14 01:57:29.56	352.35	19.75	-34.4	-48.9	3.8	1.49e+00	0	43	104	0	28	19088
2026-01-14 01:57:30.57	352.17	19.83	-34.4	-48.9	3.8	1.49e+00	0	43	104	0	28	19066
2026-01-14 01:57:31.57	351.98	19.92	-34.4	-48.9	3.8	1.49e+00	0	43	104	0	28	19055
2026-01-14 01:57:32.57	351.80	20.01	-34.4	-48.9	3.8	1.49e+00	0	43	104	0	28	19053
2026-01-14 01:57:33.58	351.61	20.10	-34.4	-48.9	3.8	1.49e+00	0	43	104	0	28	19058
2026-01-14 01:57:34.58	351.43	20.18	-34.4	-48.9	3.8	1.49e+00	0	43	104	0	28	19126
2026-01-14 01:57:35.58	351.24	20.27	-34.4	-48.9	3.8	1.49e+00	0	43	104	0	28	19062
2026-01-14 01:57:36.59	351.05	20.36	-34.4	-48.9	3.8	1.49e+00	0	43	104	0	28	19098
2026-01-14 01:57:37.58	350.86	20.45	-34.4	-48.9	3.8	1.49e+00	0	43	104	0	28	19055
2026-01-14 01:57:38.59	350.67	20.53	-34.4	-48.9	3.8	1.49e+00	0	43	104	0	28	19068
2026-01-14 01:57:39.60	350.47	20.62	-34.4	-48.9	3.8	1.49e+00	0	43	104	0	28	19114
2026-01-14 01:57:40.60	350.28	20.71	-34.4	-48.9	3.8	1.49e+00	0	43	104	0	28	19055
2026-01-14 01:57:41.60	350.09	20.80	-34.4	-48.9	3.8	1.49e+00	0	43	104	0	28	19056
2026-01-14 01:57:42.60	349.89	20.88	-34.4	-48.9	3.8	1.49e+00	0	43	104	0	28	19064
2026-01-14 01:57:43.61	349.69	20.97	-34.4	-48.9	3.8	1.49e+00	0	43	104	0	28	19050
2026-01-14 01:57:44.61	349.49	21.06	-34.4	-48.9	3.8	1.49e+00	0	43	104	0	28	19098
2026-01-14 01:57:45.62	349.29	21.15	-34.4	-48.9	3.8	1.49e+00	0	43	104	0	28	19097
2026-01-14 01:57:46.62	349.09	21.23	-34.4	-48.9	3.8	1.49e+00	0	43	104	0	28	19043
2026-01-14 01:57:47.63	348.89	21.32	-34.4	-48.9	3.8	1.49e+00	0	43	104	0	28	19044
2026-01-14 01:57:48.64	348.69	21.41	-34.4	-48.9	3.8	1.49e+00	0	43	104	0	28	19064
2026-01-14 01:57:49.63	348.48	21.49	-34.4	-48.9	3.8	1.49e+00	0	43	104	0	28	18997
2026-01-14 01:57:50.63	348.28	21.58	-34.4	-48.9	3.8	1.49e+00	0	43	104	0	28	18998
2026-01-14 01:57:51.63	348.07	21.67	-34.4	-48.9	3.8	1.49e+00	0	43	104	0	28	19097
2026-01-14 01:57:52.64	347.87	21.75	-34.4	-48.9	3.8	1.49e+00	0	43	104	0	28	19092
2026-01-14 01:57:53.64	347.66	21.84	-34.4	-48.9	3.8	1.49e+00	0	43	104	0	28	19067
2026-01-14 01:57:54.64	347.45	21.93	-34.4	-48.9	3.8	1.49e+00	0	43	104	0	28	19084
2026-01-14 01:57:55.64	347.24	22.01	-34.4	-48.9	3.8	1.49e+00	0	43	104	0	28	19027
2026-01-14 01:57:56.65	347.02	22.10	-34.4	-48.9	3.8	1.49e+00	0	43	104	0	28	19071
2026-01-14 01:57:57.65	346.81	22.19	-34.4	-48.9	3.8	1.49e+00	0	43	104	0	28	19086
2026-01-14 01:57:58.66	346.59	22.27	-34.4	-48.9	3.8	1.49e+00	0	43	104	0	28	19013
2026-01-14 01:57:59.66	346.38	22.36	-34.4	-48.9	3.8	1.49e+00	0	43	104	0	28	19047
2026-01-14 01:58:00.66	346.16	22.44	-34.4	-48.9	3.8	1.49e+00	0	43	104	0	28	19075
2026-01-14 01:58:01.66	345.95	22.53	-34.4	-48.9	3.8	1.49e+00	0	43	104	0	28	19063
2026-01-14 01:58:02.67	345.72	22.61	-34.4	-48.9	3.8	1.49e+00	0	43	104	0	28	19018
2026-01-14 01:58:03.67	345.50	22.70	-34.4	-48.9	3.8	1.49e+00	0	43	104	0	28	19095
2026-01-14 01:58:04.68	345.28	22.78	-34.4	-48.9	3.8	1.49e+00	0	43	104	0	28	19059
2026-01-14 01:58:05.69	345.06	22.87	-34.4	-48.9	3.8	1.49e+00	0	43	104	0	28	19076
2026-01-14 01:58:06.70	344.83	22.95	-34.4	-48.9	3.8	1.49e+00	0	43	104	0	28	19049
2026-01-14 01:58:07.70	344.60	23.04	-34.4	-48.9	3.8	1.49e+00	0	43	104	0	28	19029
2026-01-14 01:58:08.70	344.38	23.12	-34.4	-48.9	3.8	1.49e+00	0	43	104	0	28	19036
2026-01-14 01:58:09.70	344.15	23.20	-34.4	-48.9	3.8	1.49e+00	0	43	104	0	28	19104
2026-01-14 01:58:10.70	343.92	23.29	-34.4	-48.9	3.8	1.49e+00	0	43	104	0	28	19033
2026-01-14 01:58:11.71	343.69	23.37	-34.4	-48.9	3.8	1.49e+00	0	43	104	0	28	19076
2026-01-14 01:58:12.70	343.46	23.45	-34.4	-48.9	3.8	1.49e+00	0	43	104	0	28	19059
2026-01-14 01:58:13.71	343.23	23.54	-34.4	-48.9	3.8	1.49e+00	0	43	104	0	28	19062
2026-01-14 01:58:14.71	342.99	23.62	-34.4	-48.9	3.8	1.49e+00	0	43	104	0	28	19057
2026-01-14 01:58:15.71	342.76	23.70	-34.4	-48.9	3.8	1.49e+00	0	43	104	0	28	19077
2026-01-14 01:58:16.71	342.52	23.78	-34.4	-48.9	3.8	1.49e+00	0	43	104	0	28	19055
2026-01-14 01:58:17.72	342.28	23.87	-34.4	-48.9	3.8	1.49e+00	0	43	104	0	28	19011
2026-01-14 01:58:18.72	342.04	23.95	-34.4	-48.9	3.8	1.49e+00	0	43	104	0	28	19093
2026-01-14 01:58:19.73	341.80	24.03	-34.4	-48.9	3.8	1.49e+00	0	43	104	0	28	19086
2026-01-14 01:58:20.73	341.56	24.11	-34.4	-48.9	3.8	1.49e+00	0	43	104	0	28	19056
2026-01-14 01:58:21.74	341.31	24.19	-34.4	-48.9	3.8	1.49e+00	0	43	104	0	28	19098
2026-01-14 01:58:22.74	341.07	24.27	-34.4	-48.9	3.8	1.49e+00	0	43	104	0	28	19046
2026-01-14 01:58:23.74	340.83	24.35	-34.4	-48.9	3.8	1.49e+00	0	43	104	0	28	19054
2026-01-14 01:58:24.74	340.58	24.43	-34.4	-48.9	3.8	1.49e+00	0	43	104	0	28	19086
2026-01-14 01:58:25.74	340.33	24.51	-34.4	-48.9	3.8	1.49e+00	0	43	104	0	28	19027
2026-01-14 01:58:26.75	340.08	24.59	-34.4	-48.9	3.8	1.49e+00	0	43	104	0	28	19092
2026-01-14 01:58:27.75	339.83	24.67	-34.4	-48.9	3.8	1.49e+00	0	43	104	0	28	19049
2026-01-14 01:58:28.75	339.58	24.75	-34.4	-48.9	3.8	1.49e+00	0	43	104	0	28	19070
2026-01-14 01:58:29.74	339.33	24.82	-34.4	-48.9	3.8	1.49e+00	0	43	104	0	28	19038
2026-01-14 01:58:30.75	339.07	24.90	-34.4	-48.9	3.8	1.49e+00	0	43	104	0	28	19059
2026-01-14 01:58:31.75	338.82	24.98	-34.4	-48.9	3.8	1.49e+00	0	43	104	0	28	19053
2026-01-14 01:58:32.75	338.56	25.05	-34.4	-48.8	3.8	1.49e+00	0	43	104	0	28	19003
2026-01-14 01:58:33.76	338.30	25.13	-34.4	-48.9	3.8	1.49e+00	0	43	104	0	28	19062
2026-01-14 01:58:34.76	338.04	25.21	-34.4	-48.9	3.8	1.49e+00	0	43	104	0	28	19086
2026-01-14 01:58:35.77	337.78	25.28	-34.4	-48.9	3.8	1.49e+00	0	43	104	0	28	19016
2026-01-14 01:58:36.77	337.52	25.36	-34.4	-48.9	3.8	1.49e+00	0	43	104	0	28	19049
2026-01-14 01:58:37.78	337.25	25.43	-34.4	-48.9	3.8	1.49e+00	0	43	104	0	28	19109
2026-01-14 01:58:38.78	336.99	25.51	-34.4	-48.9	3.8	1.49e+00	0	43	104	0	28	19073
2026-01-14 01:58:39.78	336.72	25.58	-34.4	-48.9	3.8	1.49e+00	0	43	104	0	28	19071
2026-01-14 01:58:40.79	336.46	25.65	-34.4	-48.9	3.8	1.49e+00	0	43	104	0	28	19051
2026-01-14 01:58:41.80	336.19	25.73	-34.4	-48.9	3.8	1.49e+00	0	43	104	0	28	19080
2026-01-14 01:58:42.80	335.92	25.80	-34.4	-48.9	3.8	1.49e+00	0	43	104	0	28	19061
2026-01-14 01:58:43.80	335.65	25.87	-34.4	-48.9	3.8	1.49e+00	0	43	104	0	28	19054
2026-01-14 01:58:44.80	335.37	25.94	-34.4	-48.9	3.8	1.49e+00	0	43	104	0	28	19114
2026-01-14 01:58:45.81	335.10	26.01	-34.4	-48.9	3.8	1.49e+00	0	43	104	0	28	19101
2026-01-14 01:58:46.81	334.83	26.08	-34.4	-48.9	3.8	1.49e+00	0	43	104	0	28	19022
2026-01-14 01:58:47.82	334.55	26.15	-34.4	-48.9	3.8	1.49e+00	0	43	104	0	28	19073
2026-01-14 01:58:48.81	334.27	26.22	-34.4	-48.9	3.8	1.49e+00	0	43	104	0	28	19023
2026-01-14 01:58:49.82	333.99	26.29	-34.4	-48.9	3.8	1.49e+00	0	43	104	0	28	19050
2026-01-14 01:58:50.82	333.72	26.36	-34.4	-48.9	3.8	1.49e+00	0	43	104	0	28	19030
2026-01-14 01:58:51.83	333.43	26.42	-34.4	-48.9	3.8	1.49e+00	0	43	104	0	28	19060
2026-01-14 01:58:52.84	333.15	26.49	-34.4	-48.9	3.8	1.49e+00	0	43	104	0	28	19112
2026-01-14 01:58:53.83	332.87	26.55	-34.4	-48.9	3.8	1.49e+00	0	43	104	0	28	19086
2026-01-14 01:58:54.84	332.58	26.62	-34.4	-48.9	3.8	1.49e+00	0	43	104	0	28	19090
2026-01-14 01:58:55.84	332.30	26.69	-34.4	-48.9	3.8	1.49e+00	0	43	104	0	28	19082
2026-01-14 01:58:56.84	332.01	26.75	-34.4	-48.9	3.8	1.49e+00	0	43	104	0	28	19045
2026-01-14 01:58:57.85	331.72	26.81	-34.4	-48.9	3.8	1.49e+00	0	43	104	0	28	19070
2026-01-14 01:58:58.85	331.43	26.88	-34.4	-48.9	3.8	1.49e+00	0	43	104	0	28	19076
2026-01-14 01:58:59.85	331.15	26.94	-34.4	-48.9	3.8	1.49e+00	0	43	104	0	28	19108
2026-01-14 01:59:00.85	330.86	27.00	-34.4	-48.9	3.8	1.49e+00	0	43	104	0	28	19061
2026-01-14 01:59:01.85	330.56	27.06	-34.4	-48.9	3.8	1.49e+00	0	43	104	0	28	19071
2026-01-14 01:59:02.86	330.27	27.12	-34.4	-48.9	3.8	1.49e+00	0	43	104	0	28	19070
2026-01-14 01:59:03.86	329.97	27.18	-34.4	-48.9	3.8	1.49e+00	0	43	104	0	28	19057
2026-01-14 01:59:04.85	329.68	27.24	-34.4	-48.8	3.8	1.49e+00	0	43	104	0	28	18992
2026-01-14 01:59:05.85	329.39	27.30	-34.4	-48.9	3.8	1.49e+00	0	43	104	0	28	19045
2026-01-14 01:59:06.86	329.09	27.35	-34.4	-48.9	3.8	1.49e+00	0	43	104	0	28	19063
2026-01-14 01:59:07.87	328.79	27.41	-34.4	-48.9	3.8	1.49e+00	0	43	104	0	28	19079
2026-01-14 01:59:08.87	328.49	27.47	-34.4	-48.9	3.8	1.49e+00	0	43	104	0	28	19062
2026-01-14 01:59:09.88	328.18	27.52	-34.4	-48.9	3.8	1.49e+00	0	43	104	0	28	19086
2026-01-14 01:59:10.88	327.88	27.57	-34.4	-48.9	3.8	1.49e+00	0	43	104	0	28	19061
2026-01-14 01:59:11.89	327.58	27.63	-34.4	-48.9	3.8	1.49e+00	0	43	104	0	28	19053
2026-01-14 01:59:12.89	327.27	27.68	-34.4	-48.9	3.8	1.49e+00	0	43	104	0	28	19064
2026-01-14 01:59:13.90	326.97	27.73	-34.4	-48.9	3.8	1.49e+00	0	43	104	0	28	19077
2026-01-14 01:59:14.90	326.66	27.78	-34.4	-48.9	3.8	1.49e+00	0	43	104	0	28	19096
2026-01-14 01:59:15.90	326.35	27.83	-34.4	-48.9	3.8	1.49e+00	0	43	104	0	28	19034
2026-01-14 01:59:16.91	326.04	27.88	-34.4	-48.9	3.8	1.49e+00	0	43	104	0	28	19034
2026-01-14 01:59:17.91	325.74	27.93	-34.4	-48.9	3.8	1.49e+00	0	43	104	0	28	19051
2026-01-14 01:59:18.92	325.42	27.98	-34.4	-48.9	3.8	1.49e+00	0	43	104	0	28	19032
2026-01-14 01:59:19.92	325.11	28.03	-34.4	-48.9	3.8	1.49e+00	0	43	104	0	28	19060
2026-01-14 01:59:20.92	324.80	28.07	-34.4	-48.8	3.8	1.49e+00	0	43	104	0	28	18980
2026-01-14 01:59:21.92	324.49	28.12	-34.4	-48.9	3.8	1.49e+00	0	43	104	0	28	19071
2026-01-14 01:59:22.92	324.18	28.16	-34.4	-48.9	3.8	1.49e+00	0	43	104	0	28	19071
2026-01-14 01:59:23.93	323.86	28.21	-34.4	-48.8	3.8	1.49e+00	0	43	104	0	28	19007
2026-01-14 01:59:24.93	323.55	28.25	-34.4	-48.9	3.8	1.49e+00	0	43	104	0	28	19102
2026-01-14 01:59:25.93	323.23	28.29	-34.4	-48.9	3.8	1.49e+00	0	43	104	0	28	19025
2026-01-14 01:59:26.94	322.91	28.33	-34.4	-48.9	3.8	1.49e+00	0	43	104	0	28	19068
2026-01-14 01:59:27.94	322.59	28.37	-34.4	-48.9	3.8	1.49e+00	0	43	104	0	28	19082
2026-01-14 01:59:28.95	322.27	28.41	-34.4	-48.9	3.8	1.49e+00	0	43	104	0	28	19116
2026-01-14 01:59:29.96	321.95	28.45	-34.4	-48.9	3.8	1.49e+00	0	43	104	0	28	19071
2026-01-14 01:59:30.96	321.63	28.48	-34.4	-48.9	3.8	1.49e+00	0	43	104	0	28	19058
2026-01-14 01:59:31.96	321.31	28.52	-34.4	-48.9	3.8	1.49e+00	0	43	104	0	28	19077
2026-01-14 01:59:32.97	320.99	28.55	-34.4	-48.9	3.8	1.49e+00	0	43	104	0	28	19067
2026-01-14 01:59:33.97	320.67	28.59	-34.4	-48.9	3.8	1.49e+00	0	43	104	0	28	19093
2026-01-14 01:59:34.97	320.35	28.62	-34.4	-48.9	3.8	1.49e+00	0	43	104	0	28	19101
2026-01-14 01:59:35.98	320.02	28.65	-34.4	-48.9	3.8	1.49e+00	0	43	104	0	28	19062
2026-01-14 01:59:36.98	319.70	28.68	-34.4	-48.9	3.8	1.49e+00	0	43	104	0	28	19062
2026-01-14 01:59:37.99	319.37	28.71	-34.4	-48.9	3.8	1.49e+00	0	43	104	0	28	19080
2026-01-14 01:59:38.99	319.04	28.74	-34.4	-48.9	3.8	1.49e+00	0	43	104	0	28	19028
2026-01-14 01:59:40.00	318.72	28.77	-34.4	-48.9	3.8	1.49e+00	0	43	104	0	28	19047
2026-01-14 01:59:41.00	318.39	28.80	-34.4	-48.9	3.8	1.49e+00	0	43	104	0	28	19018
2026-01-14 01:59:42.00	318.06	28.82	-34.4	-48.9	3.8	1.49e+00	0	43	104	0	28	19024
2026-01-14 01:59:43.00	317.74	28.85	-34.4	-48.9	3.8	1.49e+00	0	43	104	0	28	19088
2026-01-14 01:59:44.00	317.41	28.87	-34.4	-48.9	3.8	1.49e+00	0	43	104	0	28	19043
2026-01-14 01:59:45.01	317.08	28.90	-34.4	-48.9	3.8	1.49e+00	0	43	104	0	28	19041
2026-01-14 01:59:46.01	316.75	28.92	-34.4	-48.9	3.8	1.49e+00	0	43	104	0	28	19026
2026-01-14 01:59:47.01	316.42	28.94	-34.4	-48.9	3.8	1.49e+00	0	43	104	0	28	19023
2026-01-14 01:59:48.01	316.09	28.96	-34.4	-48.9	3.8	1.49e+00	0	43	104	0	28	19067
2026-01-14 01:59:49.02	315.76	28.98	-34.4	-48.8	3.8	1.49e+00	0	43	104	0	28	19027
2026-01-14 01:59:50.02	315.43	29.00	-34.4	-48.9	3.8	1.49e+00	0	43	104	0	28	19026
2026-01-14 01:59:51.02	315.10	29.01	-34.4	-48.9	3.8	1.49e+00	0	43	104	0	28	19026
2026-01-14 01:59:52.03	314.76	29.03	-34.4	-48.9	3.8	1.49e+00	0	43	104	0	28	19028
2026-01-14 01:59:53.03	314.43	29.04	-34.4	-48.9	3.8	1.49e+00	0	43	104	0	28	19052
2026-01-14 01:59:54.04	314.10	29.06	-34.4	-48.8	3.8	1.49e+00	0	43	104	0	28	19001
2026-01-14 01:59:55.04	313.77	29.07	-34.4	-48.9	3.8	1.49e+00	0	43	104	0	28	19062
2026-01-14 01:59:56.04	313.44	29.08	-34.4	-48.9	3.8	1.49e+00	0	43	104	0	28	19033
2026-01-14 01:59:57.05	313.10	29.09	-34.4	-48.9	3.8	1.49e+00	0	43	104	0	28	19053
2026-01-14 01:59:58.05	312.77	29.10	-34.4	-48.9	3.8	1.49e+00	0	43	104	0	28	19056
2026-01-14 01:59:59.05	312.44	29.11	-34.4	-48.9	3.8	1.49e+00	0	43	104	0	28	19045
2026-01-14 02:00:00.06	312.10	29.11	-34.4	-48.9	3.8	1.49e+00	0	43	104	0	28	19045
2026-01-14 02:00:01.06	311.77	29.12	-34.4	-48.9	3.8	1.49e+00	0	43	104	0	28	18991
2026-01-14 02:00:02.06	311.43	29.12	-34.4	-48.9	3.8	1.49e+00	0	43	104	0	28	19025
2026-01-14 02:00:03.06	311.10	29.13	-34.4	-48.9	3.8	1.49e+00	0	43	104	0	28	19082
2026-01-14 02:00:04.06	310.77	29.13	-34.4	-48.9	3.8	1.49e+00	0	43	104	0	28	19102
2026-01-14 02:00:05.07	310.43	29.13	-34.4	-48.9	3.8	1.49e+00	0	43	104	0	28	19026
2026-01-14 02:00:06.07	310.10	29.13	-34.4	-48.9	3.8	1.49e+00	0	43	104	0	28	19056
2026-01-14 02:00:07.08	309.76	29.13	-34.4	-48.9	3.8	1.49e+00	0	43	104	0	28	19063
2026-01-14 02:00:08.08	309.43	29.13	-33.3	-47.8	3.8	1.49e+00	0	43	104	0	28	19022
2026-01-14 02:00:09.09	309.09	29.13	-34.4	-48.9	3.8	1.49e+00	0	43	104	0	28	19083
2026-01-14 02:00:10.09	308.76	29.12	-34.4	-48.9	3.8	1.49e+00	0	43	104	0	28	19048
2026-01-14 02:00:11.10	308.42	29.12	-34.4	-48.9	3.8	1.49e+00	0	43	104	0	28	19020
2026-01-14 02:00:12.10	308.09	29.11	-34.4	-48.9	3.8	1.49e+00	0	43	104	0	28	19105
2026-01-14 02:00:13.11	307.75	29.11	-34.4	-48.9	3.8	1.49e+00	0	43	104	0	28	19030
2026-01-14 02:00:14.11	307.42	29.10	-34.4	-48.9	3.8	1.49e+00	0	43	104	0	28	19054
2026-01-14 02:00:15.11	307.09	29.09	-34.4	-48.9	3.8	1.49e+00	0	43	104	0	28	19049
2026-01-14 02:00:16.11	306.76	29.08	-34.4	-48.9	3.8	1.49e+00	0	43	104	0	28	19062
2026-01-14 02:00:17.10	306.43	29.07	-34.4	-48.9	3.8	1.49e+00	0	43	104	0	28	19057
2026-01-14 02:00:18.10	306.10	29.05	-34.4	-48.9	3.8	1.49e+00	0	43	104	0	28	19040
2026-01-14 02:00:19.11	305.76	29.04	-34.4	-48.9	3.8	1.49e+00	0	43	104	0	28	19047
2026-01-14 02:00:20.11	305.43	29.02	-34.4	-48.9	3.8	1.49e+00	0	43	104	0	28	19073
2026-01-14 02:00:21.10	305.10	29.01	-34.4	-48.9	3.8	1.49e+00	0	43	104	0	28	19024
2026-01-14 02:00:22.11	304.77	28.99	-34.4	-48.9	3.8	1.49e+00	0	43	104	0	28	19073
2026-01-14 02:00:23.11	304.44	28.97	-34.4	-48.9	3.8	1.49e+00	0	43	104	0	28	19073
2026-01-14 02:00:24.12	304.11	28.96	-34.4	-48.9	3.8	1.49e+00	0	43	104	0	28	19069
2026-01-14 02:00:25.13	303.77	28.94	-34.4	-48.9	3.8	1.49e+00	0	43	104	0	28	19034
2026-01-14 02:00:26.13	303.44	28.91	-34.4	-48.9	3.8	1.49e+00	0	43	104	0	28	19062
2026-01-14 02:00:27.13	303.12	28.89	-34.4	-48.9	3.8	1.49e+00	0	43	104	0	28	19070
2026-01-14 02:00:28.14	302.78	28.87	-34.4	-48.9	3.8	1.49e+00	0	43	104	0	28	19022
2026-01-14 02:00:29.14	302.46	28.84	-34.4	-48.8	3.8	1.49e+00	0	43	104	0	28	19014
2026-01-14 02:00:30.14	302.13	28.82	-34.4	-48.8	3.8	1.49e+00	0	43	104	0	28	18982
2026-01-14 02:00:31.14	301.80	28.79	-34.4	-48.9	3.8	1.49e+00	0	43	104	0	28	19023
2026-01-14 02:00:32.15	301.47	28.77	-34.4	-48.9	3.8	1.49e+00	0	43	104	0	28	19069
2026-01-14 02:00:33.15	301.15	28.74	-34.4	-48.9	3.8	1.49e+00	0	43	104	0	28	19065
2026-01-14 02:00:34.16	300.82	28.71	-34.4	-48.8	3.8	1.49e+00	0	43	104	0	28	19020
2026-01-14 02:00:35.16	300.50	28.68	-34.4	-48.9	3.8	1.49e+00	0	43	104	0	28	19057
2026-01-14 02:00:36.17	300.17	28.65	-34.4	-48.9	3.8	1.49e+00	0	43	104	0	28	19033
2026-01-14 02:00:37.17	299.85	28.61	-34.4	-48.9	3.8	1.49e+00	0	43	104	0	28	19001
2026-01-14 02:00:38.16	299.53	28.58	-34.4	-48.9	3.8	1.49e+00	0	43	104	0	28	19093
2026-01-14 02:00:39.17	299.20	28.55	-34.4	-48.9	3.8	1.49e+00	0	43	104	0	28	19052
2026-01-14 02:00:40.17	298.88	28.51	-34.4	-48.9	3.8	1.49e+00	0	43	104	0	28	19058
2026-01-14 02:00:41.17	298.56	28.48	-34.4	-48.9	3.8	1.49e+00	0	43	104	0	28	19059
2026-01-14 02:00:42.18	298.24	28.44	-34.4	-48.9	3.8	1.49e+00	0	43	104	0	28	19144
2026-01-14 02:00:43.18	297.92	28.40	-34.4	-48.9	3.8	1.49e+00	0	43	104	0	28	19060
2026-01-14 02:00:44.18	297.60	28.36	-34.4	-48.9	3.8	1.49e+00	0	43	104	0	28	19031
2026-01-14 02:00:45.17	297.29	28.32	-34.4	-48.9	3.8	1.49e+00	0	43	104	0	28	19016
2026-01-14 02:00:46.18	296.97	28.28	-34.4	-48.9	3.8	1.49e+00	0	43	104	0	28	19018
2026-01-14 02:00:47.18	296.65	28.24	-34.4	-48.9	3.8	1.49e+00	0	43	104	0	28	19025
2026-01-14 02:00:48.18	296.34	28.20	-34.4	-48.9	3.8	1.49e+00	0	43	104	0	28	19060
2026-01-14 02:00:49.19	296.02	28.15	-34.4	-48.9	3.8	1.49e+00	0	43	104	0	28	19065
2026-01-14 02:00:50.18	295.71	28.11	-34.4	-48.9	3.8	1.49e+00	0	43	104	0	28	19061
2026-01-14 02:00:51.19	295.39	28.06	-34.4	-48.9	3.8	1.49e+00	0	43	104	0	28	19073
2026-01-14 02:00:52.19	295.08	28.02	-34.4	-48.9	3.8	1.49e+00	0	43	104	0	28	19050
2026-01-14 02:00:53.20	294.77	27.97	-34.4	-48.9	3.8	1.49e+00	0	43	104	0	28	19064
2026-01-14 02:00:54.21	294.46	27.92	-34.4	-48.9	3.8	1.49e+00	0	43	104	0	28	19035
2026-01-14 02:00:55.21	294.15	27.87	-34.4	-48.9	3.8	1.49e+00	0	43	104	0	28	19035
2026-01-14 02:00:56.22	293.84	27.82	-34.4	-48.9	3.8	1.49e+00	0	43	104	0	28	19024
2026-01-14 02:00:57.22	293.53	27.77	-34.4	-48.9	3.8	1.49e+00	0	43	104	0	28	19031
2026-01-14 02:00:58.22	293.23	27.72	-34.4	-48.8	3.8	1.49e+00	0	43	104	0	28	19003
2026-01-14 02:00:59.22	292.92	27.67	-34.4	-48.9	3.8	1.49e+00	0	43	104	0	28	19049
2026-01-14 02:01:00.23	292.61	27.62	-34.4	-48.9	3.8	1.49e+00	0	43	104	0	28	19040
2026-01-14 02:01:01.23	292.31	27.56	-34.4	-48.9	3.8	1.49e+00	0	43	104	0	28	19051
2026-01-14 02:01:02.24	292.01	27.51	-34.4	-48.9	3.8	1.49e+00	0	43	104	0	28	19025
2026-01-14 02:01:03.24	291.71	27.45	-34.4	-48.9	3.8	1.49e+00	0	43	104	0	28	19068
2026-01-14 02:01:04.24	291.41	27.40	-34.4	-48.8	3.8	1.49e+00	0	43	104	0	28	19005
2026-01-14 02:01:05.24	291.11	27.34	-34.4	-48.9	3.8	1.49e+00	0	43	104	0	28	19062
2026-01-14 02:01:06.25	290.81	27.28	-34.4	-48.9	3.8	1.49e+00	0	43	104	0	28	19050
2026-01-14 02:01:07.25	290.51	27.23	-34.4	-48.9	3.8	1.49e+00	0	43	104	0	28	19030
2026-01-14 02:01:08.25	290.22	27.17	-34.4	-48.9	3.8	1.49e+00	0	43	104	0	28	19040
2026-01-14 02:01:09.26	289.92	27.11	-34.4	-48.9	3.8	1.49e+00	0	43	104	0	28	19059
2026-01-14 02:01:10.26	289.63	27.05	-34.4	-48.8	3.8	1.49e+00	0	43	104	0	28	19010
2026-01-14 02:01:11.26	289.33	26.99	-34.4	-48.9	3.8	1.49e+00	0	43	104	0	28	19076
2026-01-14 02:01:12.27	289.04	26.92	-34.4	-48.9	3.8	1.49e+00	0	43	104	0	28	19011
2026-01-14 02:01:13.27	288.75	26.86	-34.4	-48.8	3.8	1.49e+00	0	43	104	0	28	18998
2026-01-14 02:01:14.27	288.46	26.80	-34.4	-48.9	3.8	1.49e+00	0	43	104	0	28	19032
2026-01-14 02:01:15.28	288.17	26.74	-34.4	-48.9	3.8	1.49e+00	0	43	104	0	28	19055
2026-01-14 02:01:16.27	287.89	26.67	-34.4	-48.9	3.8	1.49e+00	0	43	104	0	28	19072
2026-01-14 02:01:17.28	287.60	26.61	-34.4	-48.8	3.8	1.49e+00	0	43	104	0	28	19005
2026-01-14 02:01:18.28	287.32	26.54	-34.4	-48.8	3.8	1.49e+00	0	43	104	0	28	19038
2026-01-14 02:01:19.29	287.03	26.47	-34.4	-48.9	3.8	1.49e+00	0	43	104	0	28	19040
2026-01-14 02:01:20.29	286.75	26.41	-34.4	-48.8	3.8	1.49e+00	0	43	104	0	28	19043
2026-01-14 02:01:21.30	286.46	26.34	-34.4	-48.9	3.8	1.49e+00	0	43	104	0	28	19043
2026-01-14 02:01:22.31	286.18	26.27	-34.4	-48.9	3.8	1.49e+00	0	43	104	0	28	19028
2026-01-14 02:01:23.32	285.90	26.20	-34.4	-48.9	3.8	1.49e+00	0	43	104	0	28	19034
2026-01-14 02:01:24.33	285.62	26.13	-34.4	-48.9	3.8	1.49e+00	0	43	104	0	28	19040
2026-01-14 02:01:25.33	285.35	26.06	-34.4	-48.9	3.8	1.49e+00	0	43	104	0	28	19080
2026-01-14 02:01:26.33	285.07	25.99	-34.4	-48.9	3.8	1.49e+00	0	43	104	0	28	19094
2026-01-14 02:01:27.34	284.80	25.92	-34.4	-48.9	3.8	1.49e+00	0	43	104	0	28	19080
2026-01-14 02:01:28.34	284.52	25.85	-34.4	-48.9	3.8	1.49e+00	0	43	104	0	28	19042
2026-01-14 02:01:29.35	284.25	25.78	-34.4	-48.9	3.8	1.49e+00	0	43	104	0	28	19061
2026-01-14 02:01:30.35	283.98	25.71	-34.4	-48.9	3.8	1.49e+00	0	43	104	0	28	19041
2026-01-14 02:01:31.35	283.71	25.63	-34.4	-48.8	3.8	1.49e+00	0	43	104	0	28	18947
2026-01-14 02:01:32.35	283.45	25.56	-34.4	-48.8	3.8	1.49e+00	0	43	104	0	28	19002
2026-01-14 02:01:33.36	283.18	25.49	-34.4	-48.8	3.8	1.49e+00	0	43	104	0	28	19015
2026-01-14 02:01:34.37	282.91	25.41	-34.4	-48.9	3.8	1.49e+00	0	43	104	0	28	19090
2026-01-14 02:01:35.37	282.65	25.34	-34.4	-48.9	3.8	1.49e+00	0	43	104	0	28	19045
2026-01-14 02:01:36.37	282.39	25.26	-34.4	-48.9	3.8	1.49e+00	0	43	104	0	28	19024
2026-01-14 02:01:37.38	282.12	25.18	-34.4	-48.9	3.8	1.49e+00	0	43	104	0	28	19047
2026-01-14 02:01:38.38	281.86	25.11	-34.4	-48.9	3.8	1.49e+00	0	43	104	0	28	19027
2026-01-14 02:01:39.38	281.61	25.03	-34.4	-48.8	3.8	1.49e+00	0	43	104	0	28	19029
2026-01-14 02:01:40.39	281.35	24.95	-34.4	-48.9	3.8	1.49e+00	0	43	104	0	28	19041
2026-01-14 02:01:41.39	281.09	24.88	-34.4	-48.8	3.8	1.49e+00	0	43	104	0	28	18987
2026-01-14 02:01:42.39	280.84	24.80	-34.4	-48.8	3.8	1.49e+00	0	43	104	0	28	19000
2026-01-14 02:01:43.40	280.58	24.72	-34.4	-48.9	3.8	1.49e+00	0	43	104	0	28	19039
2026-01-14 02:01:44.40	280.33	24.64	-33.3	-47.7	3.8	1.49e+00	0	43	104	0	28	18992
2026-01-14 02:01:45.40	280.08	24.56	-34.4	-48.8	3.8	1.49e+00	0	43	104	0	28	19032
2026-01-14 02:01:46.41	279.83	24.48	-34.4	-49.0	3.8	1.49e+00	0	43	104	0	28	19366
2026-01-14 02:01:47.42	279.58	24.40	-34.4	-48.8	3.8	1.49e+00	0	43	104	0	28	19026
2026-01-14 02:01:48.42	279.33	24.32	-34.4	-48.9	3.8	1.49e+00	0	43	104	0	28	19044
2026-01-14 02:01:49.42	279.08	24.24	-34.4	-48.8	3.8	1.49e+00	0	43	104	0	28	19023
2026-01-14 02:01:50.43	278.84	24.16	-34.4	-48.9	3.8	1.49e+00	0	43	104	0	28	19037
2026-01-14 02:01:51.42	278.60	24.08	-34.4	-48.8	3.8	1.49e+00	0	43	104	0	28	19016
2026-01-14 02:01:52.42	278.35	24.00	-34.4	-48.8	3.8	1.49e+00	0	43	104	0	28	19005
2026-01-14 02:01:53.42	278.11	23.92	-34.4	-48.8	3.8	1.49e+00	0	43	104	0	28	19006
2026-01-14 02:01:54.43	277.87	23.84	-34.4	-48.8	3.8	1.49e+00	0	43	104	0	28	19058
2026-01-14 02:01:55.43	277.63	23.76	-34.4	-48.8	3.8	1.49e+00	0	43	104	0	28	19019
2026-01-14 02:01:56.43	277.40	23.67	-34.4	-48.8	3.8	1.49e+00	0	43	104	0	28	19035
2026-01-14 02:01:57.44	277.16	23.59	-34.4	-48.8	3.8	1.49e+00	0	43	104	0	28	19024
2026-01-14 02:01:58.44	276.92	23.51	-34.4	-48.8	3.8	1.49e+00	0	43	104	0	28	19016
2026-01-14 02:01:59.45	276.69	23.42	-34.4	-48.8	3.8	1.49e+00	0	43	104	0	28	18978
2026-01-14 02:02:00.44	276.46	23.34	-34.4	-48.8	3.8	1.49e+00	0	43	104	0	28	18979
2026-01-14 02:02:01.44	276.23	23.26	-34.4	-48.8	3.8	1.49e+00	0	43	104	0	28	18981
2026-01-14 02:02:02.45	276.00	23.17	-34.4	-48.8	3.8	1.49e+00	0	43	104	0	28	19018
2026-01-14 02:02:03.46	275.77	23.09	-34.4	-48.8	3.8	1.49e+00	0	43	104	0	28	18929
2026-01-14 02:02:04.46	275.54	23.01	-34.4	-48.8	3.8	1.49e+00	0	43	104	0	28	18963
2026-01-14 02:02:05.46	275.32	22.92	-34.4	-48.8	3.8	1.49e+00	0	43	104	0	28	18998
2026-01-14 02:02:06.46	275.09	22.84	-34.4	-48.8	3.8	1.49e+00	0	43	104	0	28	18960
2026-01-14 02:02:07.46	274.87	22.75	-34.4	-48.8	3.8	1.49e+00	0	43	104	0	28	18987
2026-01-14 02:02:08.47	274.64	22.67	-34.4	-48.8	3.8	1.49e+00	0	43	104	0	28	18984
2026-01-14 02:02:09.48	274.42	22.58	-34.4	-48.8	3.8	1.49e+00	0	43	104	0	28	18997
2026-01-14 02:02:10.48	274.20	22.50	-34.4	-48.8	3.8	1.49e+00	0	43	104	0	28	19017
2026-01-14 02:02:11.47	273.99	22.41	-34.4	-48.8	3.8	1.49e+00	0	43	104	0	28	18966
2026-01-14 02:02:12.47	273.77	22.33	-34.4	-48.8	3.8	1.49e+00	0	43	104	0	28	18988
2026-01-14 02:02:13.48	273.55	22.24	-34.4	-48.8	3.8	1.49e+00	0	43	104	0	28	19016
2026-01-14 02:02:14.48	273.34	22.15	-34.4	-48.8	3.8	1.49e+00	0	43	104	0	28	18974
2026-01-14 02:02:15.48	273.12	22.07	-34.4	-48.8	3.8	1.49e+00	0	43	104	0	28	18943
2026-01-14 02:02:16.48	272.91	21.98	-34.4	-48.8	3.8	1.49e+00	0	43	104	0	28	19022
2026-01-14 02:02:17.49	272.70	21.89	-34.4	-48.8	3.8	1.49e+00	0	43	104	0	28	18987
2026-01-14 02:02:18.49	272.49	21.81	-34.4	-48.8	3.8	1.49e+00	0	43	104	0	28	18981
2026-01-14 02:02:19.50	272.28	21.72	-34.4	-48.8	3.8	1.49e+00	0	43	104	0	28	19017
2026-01-14 02:02:20.50	272.07	21.63	-34.4	-48.8	3.8	1.49e+00	0	43	104	0	28	18951
2026-01-14 02:02:21.50	271.86	21.55	-34.4	-48.8	3.8	1.49e+00	0	43	104	0	28	18986
2026-01-14 02:02:22.50	271.66	21.46	-34.4	-48.8	3.8	1.49e+00	0	43	104	0	28	18973
2026-01-14 02:02:23.51	271.45	21.37	-34.4	-48.8	3.8	1.49e+00	0	43	104	0	28	19028
2026-01-14 02:02:24.51	271.25	21.29	-34.4	-48.8	3.8	1.49e+00	0	43	104	0	28	18971
2026-01-14 02:02:25.52	271.04	21.20	-34.4	-48.8	3.8	1.49e+00	0	43	104	0	28	18988
2026-01-14 02:02:26.52	270.84	21.11	-34.4	-48.8	3.8	1.49e+00	0	43	104	0	28	18934
2026-01-14 02:02:27.52	270.64	21.02	-34.4	-48.8	3.8	1.49e+00	0	43	104	0	28	19004
2026-01-14 02:02:28.53	270.44	20.93	-34.4	-48.8	3.8	1.49e+00	0	43	104	0	28	19001
2026-01-14 02:02:29.54	270.24	20.85	-34.4	-48.8	3.8	1.49e+00	0	43	104	0	28	18978
2026-01-14 02:02:30.54	270.05	20.76	-34.4	-48.8	3.8	1.49e+00	0	43	104	0	28	18979
2026-01-14 02:02:31.54	269.85	20.67	-34.4	-48.8	3.8	1.49e+00	0	43	104	0	28	18974
2026-01-14 02:02:32.54	269.66	20.58	-34.4	-48.8	3.8	1.49e+00	0	43	104	0	28	19022
2026-01-14 02:02:33.55	269.46	20.50	-34.4	-48.8	3.8	1.49e+00	0	43	104	0	28	18958
2026-01-14 02:02:34.56	269.27	20.41	-34.4	-48.8	3.8	1.49e+00	0	43	104	0	28	18941
2026-01-14 02:02:35.56	269.08	20.32	-34.4	-48.8	3.8	1.49e+00	0	43	104	0	28	18981
2026-01-14 02:02:36.57	268.89	20.23	-34.4	-48.8	3.8	1.49e+00	0	43	104	0	28	18968
2026-01-14 02:02:37.58	268.70	20.14	-34.4	-48.8	3.8	1.49e+00	0	43	104	0	28	19008
2026-01-14 02:02:38.58	268.51	20.05	-34.4	-48.8	3.8	1.49e+00	0	43	104	0	28	18989
2026-01-14 02:02:39.58	268.33	19.97	-34.4	-48.8	3.8	1.49e+00	0	43	104	0	28	18962
2026-01-14 02:02:40.59	268.14	19.88	-34.4	-48.8	3.8	1.49e+00	0	43	104	0	28	19021
2026-01-14 02:02:41.59	267.96	19.79	-34.4	-48.8	3.8	1.49e+00	0	43	104	0	28	18964
2026-01-14 02:02:42.60	267.77	19.70	-34.4	-48.8	3.8	1.49e+00	0	43	104	0	28	18957
2026-01-14 02:02:43.60	267.59	19.61	-34.4	-48.8	3.8	1.49e+00	0	43	104	0	28	19020
2026-01-14 02:02:44.61	267.41	19.53	-34.4	-48.8	3.8	1.49e+00	0	43	104	0	28	19026
2026-01-14 02:02:45.62	267.22	19.44	-34.4	-48.8	3.8	1.49e+00	0	43	104	0	28	18986
2026-01-14 02:02:46.62	267.05	19.35	-34.4	-48.8	3.8	1.49e+00	0	43	104	0	28	19023
2026-01-14 02:02:47.63	266.87	19.26	-34.4	-48.8	3.8	1.49e+00	0	43	104	0	28	18977
2026-01-14 02:02:48.63	266.69	19.17	-34.4	-48.8	3.8	1.49e+00	0	43	104	0	28	18954
2026-01-14 02:02:49.64	266.51	19.09	-34.4	-48.8	3.8	1.49e+00	0	43	104	0	28	18994
2026-01-14 02:02:50.65	266.34	19.00	-34.4	-48.8	3.8	1.49e+00	0	43	104	0	28	18998
2026-01-14 02:02:51.65	266.16	18.91	-34.4	-48.8	3.8	1.49e+00	0	43	104	0	28	18971
2026-01-14 02:02:52.65	265.99	18.82	-34.4	-48.8	3.8	1.49e+00	0	43	104	0	28	19009
2026-01-14 02:02:53.65	265.82	18.73	-34.4	-48.8	3.8	1.49e+00	0	43	104	0	28	18973
2026-01-14 02:02:54.65	265.65	18.65	-34.4	-48.8	3.8	1.49e+00	0	43	104	0	28	18975
2026-01-14 02:02:55.66	265.48	18.56	-34.3	-48.8	3.8	1.49e+00	0	43	104	0	28	18929
2026-01-14 02:02:56.66	265.31	18.47	-34.4	-48.8	3.8	1.49e+00	0	43	104	0	28	18955
2026-01-14 02:02:57.66	265.14	18.38	-34.4	-48.8	3.8	1.49e+00	0	43	104	0	28	18980
2026-01-14 02:02:58.66	264.97	18.30	-34.4	-48.8	3.8	1.49e+00	0	43	104	0	28	18973
2026-01-14 02:02:59.67	264.81	18.21	-34.4	-48.8	3.8	1.49e+00	0	43	104	0	28	18948
2026-01-14 02:03:00.68	264.64	18.12	-34.4	-48.8	3.8	1.49e+00	0	43	104	0	28	18932
2026-01-14 02:03:01.68	264.48	18.03	-34.4	-48.8	3.8	1.49e+00	0	43	104	0	28	18940
2026-01-14 02:03:02.68	264.31	17.95	-34.4	-48.8	3.8	1.49e+00	0	43	104	0	28	18975
2026-01-14 02:03:03.68	264.15	17.86	-34.4	-48.8	3.8	1.49e+00	0	43	104	0	28	18965
2026-01-14 02:03:04.69	263.99	17.77	-34.4	-48.8	3.8	1.49e+00	0	43	104	0	28	18976
2026-01-14 02:03:05.70	263.83	17.68	-34.4	-48.8	3.8	1.49e+00	0	43	104	0	28	18988
2026-01-14 02:03:06.69	263.67	17.60	-34.4	-48.8	3.8	1.49e+00	0	43	104	0	28	18989
2026-01-14 02:03:07.70	263.51	17.51	-34.4	-48.8	3.8	1.49e+00	0	43	104	0	28	18972
2026-01-14 02:03:08.70	263.35	17.42	-34.4	-48.8	3.8	1.49e+00	0	43	104	0	28	18975
2026-01-14 02:03:09.71	263.20	17.34	-34.4	-48.8	3.8	1.49e+00	0	43	104	0	28	18961
2026-01-14 02:03:10.71	263.04	17.25	-34.4	-48.8	3.8	1.49e+00	0	43	104	0	28	18939
2026-01-14 02:03:11.71	262.89	17.16	-34.4	-48.8	3.8	1.49e+00	0	43	104	0	28	18974
2026-01-14 02:03:12.72	262.73	17.08	-34.4	-48.8	3.8	1.49e+00	0	43	104	0	28	18911
2026-01-14 02:03:13.73	262.58	16.99	-34.4	-48.8	3.8	1.49e+00	0	43	104	0	28	18955
2026-01-14 02:03:14.73	262.43	16.91	-34.4	-48.8	3.8	1.49e+00	0	43	104	0	28	18940
2026-01-14 02:03:15.74	262.27	16.82	-34.4	-48.8	3.8	1.49e+00	0	43	104	0	28	18974
2026-01-14 02:03:16.73	262.12	16.73	-34.4	-48.8	3.8	1.49e+00	0	43	104	0	28	18972
2026-01-14 02:03:17.73	261.97	16.65	-34.4	-48.8	3.8	1.49e+00	0	43	104	0	28	18901
2026-01-14 02:03:18.73	261.83	16.56	-34.4	-48.8	3.8	1.49e+00	0	43	104	0	28	19015
2026-01-14 02:03:19.74	261.68	16.48	-34.4	-48.8	3.8	1.49e+00	0	43	104	0	28	19018
2026-01-14 02:03:20.74	261.53	16.39	-34.4	-48.8	3.8	1.49e+00	0	43	104	0	28	18998
2026-01-14 02:03:21.74	261.39	16.31	-34.4	-48.8	3.8	1.49e+00	0	43	104	0	28	18965
2026-01-14 02:03:22.74	261.24	16.22	-34.4	-48.8	3.8	1.49e+00	0	43	104	0	28	18923
2026-01-14 02:03:23.75	261.09	16.13	-34.4	-48.8	3.8	1.49e+00	0	43	104	0	28	18981
2026-01-14 02:03:24.75	260.95	16.05	-33.3	-47.7	3.8	1.49e+00	0	43	104	0	28	18996
2026-01-14 02:03:25.75	260.81	15.96	-34.4	-48.8	3.8	1.49e+00	0	43	104	0	28	18961
2026-01-14 02:03:26.75	260.67	15.88	-34.4	-48.8	3.8	1.49e+00	0	43	104	0	28	18931
2026-01-14 02:03:27.75	260.53	15.79	-34.4	-48.8	3.8	1.49e+00	0	43	104	0	28	19064
2026-01-14 02:03:28.75	260.39	15.71	-34.4	-48.8	3.8	1.49e+00	0	43	104	0	28	18979
2026-01-14 02:03:29.76	260.25	15.63	-34.4	-48.8	3.8	1.49e+00	0	43	104	0	28	18998
2026-01-14 02:03:30.77	260.11	15.54	-34.4	-48.8	3.8	1.49e+00	0	43	104	0	28	18944
2026-01-14 02:03:31.76	259.97	15.46	-34.4	-48.8	3.8	1.49e+00	0	43	104	0	28	18986
2026-01-14 02:03:32.76	259.83	15.37	-34.4	-48.8	3.8	1.49e+00	0	43	104	0	28	18935
2026-01-14 02:03:33.76	259.70	15.29	-34.4	-48.8	3.8	1.49e+00	0	43	104	0	28	18980
2026-01-14 02:03:34.76	259.56	15.21	-34.4	-48.8	3.8	1.49e+00	0	43	104	0	28	19008
2026-01-14 02:03:35.73	259.43	15.12	-34.4	-48.8	3.8	1.49e+00	0	43	104	0	28	18970
2026-01-14 02:03:36.73	259.30	15.04	-34.4	-48.8	3.8	1.49e+00	0	43	104	0	28	18953
2026-01-14 02:03:37.74	259.16	14.96	-34.4	-48.8	3.8	1.49e+00	0	43	104	0	28	18983
2026-01-14 02:03:38.74	259.03	14.87	-34.4	-48.8	3.8	1.49e+00	0	43	104	0	28	18947
2026-01-14 02:03:39.74	258.90	14.79	-34.4	-48.8	3.8	1.49e+00	0	43	104	0	28	18982
2026-01-14 02:03:40.75	258.77	14.71	-34.4	-48.8	3.8	1.49e+00	0	43	104	0	28	18962
2026-01-14 02:03:41.75	258.64	14.62	-34.3	-48.8	3.8	1.49e+00	0	43	104	0	28	18948
2026-01-14 02:03:42.76	258.51	14.54	-34.4	-48.8	3.8	1.49e+00	0	43	104	0	28	18958
2026-01-14 02:03:43.76	258.38	14.46	-34.4	-48.8	3.8	1.49e+00	0	43	104	0	28	18998
2026-01-14 02:03:44.77	258.25	14.37	-34.4	-48.8	3.8	1.49e+00	0	43	104	0	28	18970
2026-01-14 02:03:45.76	258.12	14.29	-34.3	-48.8	3.8	1.49e+00	0	43	104	0	28	18938
2026-01-14 02:03:46.76	258.00	14.21	-34.4	-48.8	3.8	1.49e+00	0	43	104	0	28	18964
2026-01-14 02:03:47.76	257.87	14.13	-34.4	-48.8	3.8	1.49e+00	0	43	104	0	28	18976
2026-01-14 02:03:48.76	257.75	14.05	-34.4	-48.8	3.8	1.49e+00	0	43	104	0	28	18935
2026-01-14 02:03:49.76	257.62	13.96	-34.4	-48.8	3.8	1.49e+00	0	43	104	0	28	18934
2026-01-14 02:03:50.76	257.50	13.88	-34.4	-48.8	3.8	1.49e+00	0	43	104	0	28	18959
2026-01-14 02:03:51.77	257.37	13.80	-34.4	-48.8	3.8	1.49e+00	0	43	104	0	28	19039
2026-01-14 02:03:52.77	257.25	13.72	-34.4	-48.8	3.8	1.49e+00	0	43	104	0	28	18988
2026-01-14 02:03:53.78	257.13	13.64	-34.4	-48.8	3.8	1.49e+00	0	43	104	0	28	19057
2026-01-14 02:03:54.77	257.01	13.56	-34.4	-48.8	3.8	1.49e+00	0	43	104	0	28	18937
2026-01-14 02:03:55.78	256.89	13.48	-34.4	-48.8	3.8	1.49e+00	0	43	104	0	28	18957
2026-01-14 02:03:56.78	256.77	13.39	-34.4	-48.8	3.8	1.49e+00	0	43	104	0	28	18947
2026-01-14 02:03:57.78	256.65	13.31	-34.4	-48.8	3.8	1.49e+00	0	43	104	0	28	19037
2026-01-14 02:03:58.78	256.53	13.23	-34.4	-48.8	3.8	1.49e+00	0	43	104	0	28	18959
2026-01-14 02:03:59.78	256.41	13.15	-34.4	-48.8	3.8	1.49e+00	0	43	104	0	28	18982
2026-01-14 02:04:00.78	256.30	13.07	-34.4	-48.8	3.8	1.49e+00	0	43	104	0	28	18965
2026-01-14 02:04:01.79	256.18	12.99	-34.4	-48.8	3.8	1.49e+00	0	43	104	0	28	18980
2026-01-14 02:04:02.79	256.06	12.91	-34.4	-48.8	3.8	1.49e+00	0	43	104	0	28	18979
2026-01-14 02:04:03.80	255.95	12.83	-34.4	-48.8	3.8	1.49e+00	0	43	104	0	28	18993
2026-01-14 02:04:04.80	255.83	12.75	-34.4	-48.8	3.8	1.49e+00	0	43	104	0	28	18966
2026-01-14 02:04:05.80	255.72	12.67	-34.4	-48.8	3.8	1.49e+00	0	43	104	0	28	18968
2026-01-14 02:04:06.80	255.61	12.59	-34.4	-48.8	3.8	1.49e+00	0	43	104	0	28	18941
2026-01-14 02:04:07.80	255.49	12.51	-34.4	-48.8	3.8	1.49e+00	0	43	104	0	28	18974
2026-01-14 02:04:08.81	255.38	12.43	-34.4	-48.8	3.8	1.49e+00	0	43	104	0	28	18919
2026-01-14 02:04:09.82	255.27	12.35	-34.4	-48.8	3.8	1.49e+00	0	43	104	0	28	18981
2026-01-14 02:04:10.83	255.16	12.28	-34.4	-48.8	3.8	1.49e+00	0	43	104	0	28	18965
2026-01-14 02:04:11.83	255.05	12.20	-34.4	-48.8	3.8	1.49e+00	0	43	104	0	28	18978
2026-01-14 02:04:12.84	254.94	12.12	-34.4	-48.8	3.8	1.49e+00	0	43	104	0	28	18980
2026-01-14 02:04:13.84	254.83	12.04	-34.4	-48.8	3.8	1.49e+00	0	43	104	0	28	18968
2026-01-14 02:04:14.85	254.72	11.96	-34.4	-48.8	3.8	1.49e+00	0	43	104	0	28	18967
2026-01-14 02:04:15.85	254.61	11.88	-34.4	-48.8	3.8	1.49e+00	0	43	104	0	28	19003
2026-01-14 02:04:16.86	254.50	11.80	-34.4	-48.8	3.8	1.49e+00	0	43	104	0	28	18962
2026-01-14 02:04:17.86	254.40	11.73	-34.3	-48.8	3.8	1.49e+00	0	43	104	0	28	18918
2026-01-14 02:04:18.86	254.29	11.65	-34.3	-48.8	3.8	1.49e+00	0	43	104	0	28	18943
2026-01-14 02:04:19.86	254.19	11.57	-34.3	-48.8	3.8	1.49e+00	0	43	104	0	28	18933
2026-01-14 02:04:20.87	254.08	11.49	-34.3	-48.8	3.8	1.49e+00	0	43	104	0	28	18947
2026-01-14 02:04:21.87	253.98	11.42	-34.3	-48.8	3.8	1.49e+00	0	43	104	0	28	18996
2026-01-14 02:04:22.87	253.87	11.34	-34.3	-48.8	3.8	1.49e+00	0	43	104	0	28	18912
2026-01-14 02:04:23.88	253.77	11.26	-34.4	-48.8	3.8	1.49e+00	0	43	104	0	28	18966
2026-01-14 02:04:24.88	253.67	11.18	-34.4	-48.8	3.8	1.49e+00	0	43	104	0	28	18915
2026-01-14 02:04:25.88	253.56	11.11	-34.4	-48.8	3.8	1.49e+00	0	43	104	0	28	18920
2026-01-14 02:04:26.88	253.46	11.03	-34.3	-48.8	3.8	1.49e+00	0	43	104	0	28	18968
2026-01-14 02:04:27.88	253.36	10.96	-34.4	-48.8	3.8	1.49e+00	0	43	104	0	28	18984
2026-01-14 02:04:28.88	253.26	10.88	-34.3	-48.8	3.8	1.49e+00	0	43	104	0	28	18989
2026-01-14 02:04:29.88	253.16	10.80	-34.4	-48.8	3.8	1.49e+00	0	43	104	0	28	18966
2026-01-14 02:04:30.89	253.06	10.73	-34.4	-48.8	3.8	1.49e+00	0	43	104	0	28	18950
2026-01-14 02:04:31.89	252.96	10.65	-34.4	-48.8	3.8	1.49e+00	0	43	104	0	28	18963
2026-01-14 02:04:32.88	252.86	10.58	-34.3	-48.8	3.8	1.49e+00	0	43	104	0	28	18939
2026-01-14 02:04:33.89	252.77	10.50	-34.4	-48.8	3.8	1.49e+00	0	43	104	0	28	18969
2026-01-14 02:04:34.89	252.67	10.43	-34.3	-48.8	3.8	1.49e+00	0	43	104	0	28	18926
2026-01-14 02:04:35.90	252.57	10.35	-34.4	-48.8	3.8	1.49e+00	0	43	104	0	28	18982
2026-01-14 02:04:36.90	252.47	10.28	-34.3	-48.8	3.8	1.49e+00	0	43	104	0	28	18936
2026-01-14 02:04:37.91	252.38	10.20	-34.3	-48.8	3.8	1.49e+00	0	43	104	0	28	18934
2026-01-14 02:04:38.91	252.28	10.13	-34.3	-48.8	3.8	1.49e+00	0	43	104	0	28	18948
2026-01-14 02:04:39.91	252.19	10.05	-34.3	-48.8	3.8	1.49e+00	0	43	104	0	28	18938
2026-01-14 02:04:40.91	252.09	9.98	-34.3	-48.7	3.8	1.49e+00	0	43	104	0	28	18895
2026-01-14 02:04:41.91	252.00	9.90	-34.3	-48.8	3.8	1.49e+00	0	43	104	0	28	18925
2026-01-14 02:04:42.92	251.91	9.83	-34.4	-48.8	3.8	1.49e+00	0	43	104	0	28	18977
2026-01-14 02:04:43.92	251.81	9.75	-34.4	-48.8	3.8	1.49e+00	0	43	104	0	28	18927
2026-01-14 02:04:44.92	251.72	9.68	-34.3	-48.8	3.8	1.49e+00	0	43	104	0	28	18946
2026-01-14 02:04:45.93	251.63	9.61	-34.4	-48.8	3.8	1.49e+00	0	43	104	0	28	18934
2026-01-14 02:04:46.93	251.54	9.53	-34.3	-48.8	3.8	1.49e+00	0	43	104	0	28	18959
2026-01-14 02:04:47.93	251.45	9.46	-34.4	-48.8	3.8	1.49e+00	0	43	104	0	28	18955
2026-01-14 02:04:48.93	251.36	9.39	-34.3	-48.7	3.8	1.49e+00	0	43	104	0	28	18888
2026-01-14 02:04:49.94	251.26	9.31	-34.3	-48.8	3.8	1.49e+00	0	43	104	0	28	18931
2026-01-14 02:04:50.94	251.18	9.24	-34.3	-48.7	3.8	1.49e+00	0	43	104	0	28	18906
2026-01-14 02:04:51.94	251.09	9.17	-34.3	-48.7	3.8	1.49e+00	0	43	104	0	28	18884
2026-01-14 02:04:52.95	251.00	9.09	-34.3	-48.8	3.8	1.49e+00	0	43	104	0	28	18947
2026-01-14 02:04:53.95	250.91	9.02	-34.4	-48.8	3.8	1.49e+00	0	43	104	0	28	18981
2026-01-14 02:04:54.95	250.82	8.95	-34.3	-48.8	3.8	1.49e+00	0	43	104	0	28	18927
2026-01-14 02:04:55.95	250.73	8.88	-34.4	-48.8	3.8	1.49e+00	0	43	104	0	28	18996
2026-01-14 02:04:56.96	250.65	8.80	-34.3	-48.8	3.8	1.49e+00	0	43	104	0	28	18934
2026-01-14 02:04:57.96	250.56	8.73	-34.4	-48.8	3.8	1.49e+00	0	43	104	0	28	18924
2026-01-14 02:04:58.96	250.47	8.66	-34.3	-48.8	3.8	1.49e+00	0	43	104	0	28	18946
2026-01-14 02:04:59.96	250.39	8.59	-34.3	-48.8	3.8	1.49e+00	0	43	104	0	28	18930
2026-01-14 02:05:00.97	250.30	8.52	-34.3	-48.8	3.8	1.49e+00	0	43	104	0	28	18937
2026-01-14 02:05:01.97	250.22	8.45	-34.4	-48.8	3.8	1.49e+00	0	43	104	0	28	18967
2026-01-14 02:05:02.97	250.13	8.38	-34.3	-48.8	3.8	1.49e+00	0	43	104	0	28	18930
2026-01-14 02:05:03.97	250.05	8.30	-34.3	-48.8	3.8	1.49e+00	0	43	104	0	28	18945
2026-01-14 02:05:04.97	249.97	8.23	-34.3	-48.7	3.8	1.49e+00	0	43	104	0	28	18900
2026-01-14 02:05:05.97	249.88	8.16	-34.3	-48.8	3.8	1.49e+00	0	43	104	0	28	18941
2026-01-14 02:05:06.96	249.80	8.09	-34.4	-48.8	3.8	1.49e+00	0	43	104	0	28	18964
2026-01-14 02:05:07.97	249.72	8.02	-34.3	-48.8	3.8	1.49e+00	0	43	104	0	28	18931
2026-01-14 02:05:08.97	249.64	7.95	-34.3	-48.7	3.8	1.49e+00	0	43	104	0	28	18897
2026-01-14 02:05:09.98	249.56	7.88	-34.4	-48.7	3.8	1.49e+00	0	43	104	0	28	18874
2026-01-14 02:05:10.98	249.48	7.81	-34.3	-48.8	3.8	1.49e+00	0	43	104	0	28	18939
2026-01-14 02:05:11.98	249.39	7.74	-34.3	-48.7	3.8	1.49e+00	0	43	104	0	28	18895
2026-01-14 02:05:12.98	249.31	7.67	-34.3	-48.7	3.8	1.49e+00	0	43	104	0	28	18905
2026-01-14 02:05:13.99	249.23	7.60	-34.3	-48.8	3.8	1.49e+00	0	43	104	0	28	18949
2026-01-14 02:05:14.99	249.16	7.53	-34.3	-48.8	3.8	1.49e+00	0	43	104	0	28	18911
2026-01-14 02:05:15.99	249.08	7.46	-34.3	-48.9	3.8	1.49e+00	0	43	104	0	28	19198
2026-01-14 02:05:17.00	249.00	7.39	-34.4	-48.8	3.8	1.49e+00	0	43	104	0	28	18972
2026-01-14 02:05:18.01	248.92	7.32	-34.3	-48.8	3.8	1.49e+00	0	43	104	0	28	18923
2026-01-14 02:05:19.01	248.84	7.25	-34.4	-48.8	3.8	1.49e+00	0	43	104	0	28	18963
2026-01-14 02:05:20.02	248.76	7.18	-34.3	-48.7	3.8	1.49e+00	0	43	104	0	28	18901
2026-01-14 02:05:21.02	248.69	7.12	-34.3	-48.8	3.8	1.49e+00	0	43	104	0	28	18927
2026-01-14 02:05:22.03	248.61	7.05	-34.3	-48.8	3.8	1.49e+00	0	43	104	0	28	18937

#Closed at: 2026-01-14 02:05:22
#Recorded file [0 MB]: D:/data/31010_260114_045618.dat