passes_logs/2026/01/14/R2M6_AANII_01/R2M6_AANII_01__20260114_100702_NOAA_20_JPSS-1_rec.log

#Pass ID: 20260114_100702_NOAA 20 (JPSS-1)
#Satellite: NOAA 20 (JPSS-1)
#Configuration: NOAA 20
#almurnet v.1.7.20240730
#Start time: 2026-01-14 10:07:02

#Version: 2.2.20231116
#Station: R2M6_AANII_01
#Location: 30.233357 lon 59.946436 lat
#TLE: 1 43013U 17073A   26013.21545503  .00000073  00000+0  55630-4 0  9998
#TLE: 2 43013  98.7633 314.1737 0001580  41.9966 318.1331 14.19535680422486

#Time	Az	El	Level	Level2	SNR	BER	BlckErr	Temp	State	Recorded	gain1	gain2
2026-01-14 10:07:02.13	153.84	7.00	-31.4	-37.2	5.1	1.28e+00	0	40	0	0	24	6977
2026-01-14 10:07:03.14	153.83	7.08	-31.8	-39.2	4.7	1.34e+00	0	40	104	0	24	8474
2026-01-14 10:07:04.14	153.83	7.16	-31.9	-39.2	6.5	2.65e-01	0	40	0	0	24	8340
2026-01-14 10:07:05.15	153.82	7.24	-31.7	-38.0	7.5	1.19e-01	0	40	0	1048576	24	7429
2026-01-14 10:07:06.15	153.82	7.32	-31.8	-38.6	7.0	1.42e-01	0	40	0	3145728	24	7836
2026-01-14 10:07:07.15	153.81	7.40	-31.8	-38.3	7.3	1.41e-01	0	40	0	5242880	24	7614
2026-01-14 10:07:08.15	153.80	7.47	-31.6	-37.6	7.7	8.16e-02	0	40	0	7340032	24	7210
2026-01-14 10:07:09.15	153.79	7.55	-31.3	-36.8	8.3	5.79e-02	0	40	0	9437184	24	6776
2026-01-14 10:07:10.16	153.79	7.63	-31.2	-36.8	8.7	4.53e-02	0	40	0	10485760	23	6883
2026-01-14 10:07:11.17	153.78	7.71	-31.2	-37.0	8.6	3.76e-02	0	40	0	12582912	23	6964
2026-01-14 10:07:12.17	153.77	7.79	-31.1	-36.3	9.1	3.14e-02	0	40	0	14680064	23	6563
2026-01-14 10:07:13.17	153.77	7.87	-31.1	-36.0	9.4	2.14e-02	0	40	0	16777216	23	6378
2026-01-14 10:07:14.18	153.76	7.96	-31.1	-35.9	9.6	1.47e-02	0	40	0	17825792	23	6273
2026-01-14 10:07:15.18	153.75	8.04	-31.0	-35.5	10.0	7.90e-03	0	40	0	19922944	23	6008
2026-01-14 10:07:16.19	153.75	8.12	-31.2	-35.8	9.7	9.88e-03	0	40	0	22020096	23	6169
2026-01-14 10:07:17.20	153.74	8.20	-31.1	-35.6	9.9	9.57e-03	0	40	0	24117248	23	6070
2026-01-14 10:07:18.20	153.73	8.28	-31.1	-35.7	9.9	9.30e-03	0	40	0	26214400	23	6092
2026-01-14 10:07:19.20	153.72	8.36	-31.2	-36.2	9.4	1.49e-02	0	41	0	28311552	23	6405
2026-01-14 10:07:20.20	153.72	8.44	-31.1	-35.6	9.9	1.27e-02	0	41	0	29360128	23	6064
2026-01-14 10:07:21.20	153.71	8.53	-31.0	-35.2	10.2	7.18e-03	0	41	0	31457280	23	5868
2026-01-14 10:07:22.21	153.70	8.61	-31.0	-35.3	10.2	5.78e-03	0	41	0	33554432	23	5930
2026-01-14 10:07:23.22	153.69	8.69	-30.9	-35.0	10.4	6.24e-03	0	41	0	35651584	23	5799
2026-01-14 10:07:24.22	153.69	8.78	-30.9	-35.2	10.2	5.16e-03	0	41	0	36700160	23	5893
2026-01-14 10:07:25.21	153.68	8.86	-31.0	-35.6	10.0	6.79e-03	0	41	0	38797312	23	6059
2026-01-14 10:07:26.22	153.67	8.94	-30.9	-35.2	10.2	6.30e-03	0	41	0	40894464	23	5888
2026-01-14 10:07:27.22	153.66	9.03	-30.9	-35.3	10.1	5.66e-03	0	41	0	42991616	23	5963
2026-01-14 10:07:28.22	153.65	9.11	-31.0	-35.6	9.9	6.87e-03	0	41	0	45088768	23	6076
2026-01-14 10:07:29.23	153.65	9.20	-30.9	-35.2	10.3	6.22e-03	0	41	0	46137344	23	5912
2026-01-14 10:07:30.23	153.64	9.28	-31.0	-35.5	10.0	7.58e-03	0	41	0	48234496	23	6062
2026-01-14 10:07:31.24	153.63	9.37	-31.0	-35.5	10.1	6.65e-03	0	41	0	50331648	23	6048
2026-01-14 10:07:32.25	153.62	9.45	-31.0	-35.6	9.9	8.95e-03	0	41	0	52428800	23	6124
2026-01-14 10:07:33.25	153.61	9.54	-30.9	-35.3	10.2	7.31e-03	0	41	0	54525952	23	5971
2026-01-14 10:07:34.25	153.61	9.62	-31.0	-35.5	10.0	7.65e-03	0	41	0	55574528	23	6091
2026-01-14 10:07:35.25	153.60	9.71	-31.0	-35.8	9.8	9.55e-03	0	41	0	57671680	23	6212
2026-01-14 10:07:36.25	153.59	9.80	-30.9	-35.3	10.2	7.61e-03	0	41	0	59768832	23	5962
2026-01-14 10:07:37.25	153.58	9.88	-31.0	-35.8	9.8	7.48e-03	0	41	0	61865984	23	6211
2026-01-14 10:07:38.25	153.57	9.97	-31.1	-36.1	9.5	1.19e-02	0	41	0	63963136	23	6391
2026-01-14 10:07:39.25	153.56	10.06	-31.1	-36.1	9.6	1.21e-02	0	41	0	65011712	23	6398
2026-01-14 10:07:40.24	153.55	10.14	-31.2	-36.1	9.6	1.45e-02	0	41	0	67108864	23	6373
2026-01-14 10:07:41.25	153.55	10.23	-31.1	-36.0	9.7	1.19e-02	0	41	0	69206016	23	6315
2026-01-14 10:07:42.24	153.54	10.32	-31.0	-35.5	10.1	7.75e-03	0	41	0	71303168	23	6010
2026-01-14 10:07:43.25	153.53	10.41	-31.0	-35.2	10.4	5.09e-03	0	41	0	73400320	23	5874
2026-01-14 10:07:44.26	153.52	10.50	-30.9	-34.8	10.8	3.74e-03	0	41	0	74448896	23	5643
2026-01-14 10:07:45.26	153.51	10.59	-30.9	-34.7	10.9	2.45e-03	0	41	0	76546048	23	5574
2026-01-14 10:07:46.27	153.50	10.68	-30.9	-34.6	11.0	1.89e-03	0	41	0	78643200	23	5515
2026-01-14 10:07:47.27	153.49	10.77	-31.0	-35.0	10.8	2.17e-03	0	41	0	80740352	23	5653
2026-01-14 10:07:48.27	153.48	10.86	-31.0	-34.8	10.9	2.52e-03	0	41	0	81788928	23	5569
2026-01-14 10:07:49.27	153.47	10.95	-31.1	-35.2	10.7	2.65e-03	0	41	0	83886080	23	5738
2026-01-14 10:07:50.27	153.46	11.04	-31.2	-35.5	10.4	5.15e-03	0	41	0	85983232	23	5901
2026-01-14 10:07:51.27	153.45	11.13	-31.1	-34.9	10.9	3.05e-03	0	41	0	88080384	23	5612
2026-01-14 10:07:52.28	153.44	11.22	-30.9	-34.5	11.2	2.10e-03	0	41	0	90177536	23	5431
2026-01-14 10:07:53.28	153.43	11.32	-30.9	-34.3	11.4	1.19e-03	0	41	0	91226112	23	5336
2026-01-14 10:07:54.28	153.42	11.41	-30.9	-34.3	11.3	1.09e-03	0	41	0	93323264	23	5343
2026-01-14 10:07:55.29	153.41	11.50	-30.9	-34.4	11.3	9.74e-04	0	41	0	95420416	23	5375
2026-01-14 10:07:56.28	153.41	11.59	-30.8	-34.3	11.4	8.65e-04	0	41	0	97517568	23	5334
2026-01-14 10:07:57.29	153.40	11.69	-30.8	-34.2	11.5	1.03e-03	0	41	0	99614720	23	5306
2026-01-14 10:07:58.29	153.39	11.78	-30.9	-34.3	11.4	9.06e-04	0	41	0	100663296	23	5354
2026-01-14 10:07:59.29	153.37	11.88	-30.8	-34.2	11.4	9.36e-04	0	41	0	102760448	23	5326
2026-01-14 10:08:00.30	153.36	11.97	-30.8	-34.2	11.4	9.10e-04	0	41	0	104857600	23	5323
2026-01-14 10:08:01.31	153.35	12.07	-30.9	-34.3	11.3	1.01e-03	0	42	0	106954752	23	5356
2026-01-14 10:08:02.31	153.34	12.16	-30.9	-34.6	11.2	1.03e-03	0	41	0	109051904	23	5474
2026-01-14 10:08:03.32	153.33	12.26	-30.9	-34.5	11.2	1.03e-03	0	41	0	110100480	23	5451
2026-01-14 10:08:04.32	153.32	12.35	-30.9	-34.5	11.2	1.31e-03	0	41	0	112197632	23	5440
2026-01-14 10:08:05.33	153.31	12.45	-30.9	-34.4	11.3	1.37e-03	0	41	0	114294784	23	5416
2026-01-14 10:08:06.33	153.30	12.55	-30.9	-34.6	11.2	1.31e-03	0	42	0	116391936	23	5475
2026-01-14 10:08:07.33	153.29	12.65	-31.0	-34.8	11.0	2.06e-03	0	41	0	118489088	23	5583
2026-01-14 10:08:08.33	153.28	12.74	-30.9	-34.4	11.3	1.43e-03	0	42	0	119537664	23	5417
2026-01-14 10:08:09.33	153.27	12.84	-31.0	-34.8	11.0	1.52e-03	0	42	0	121634816	23	5570
2026-01-14 10:08:10.33	153.26	12.94	-30.8	-34.3	11.4	1.15e-03	0	42	0	123731968	23	5366
2026-01-14 10:08:11.34	153.25	13.04	-30.8	-34.6	11.5	6.88e-04	0	42	0	125829120	22	5594
2026-01-14 10:08:12.34	153.23	13.14	-30.9	-34.9	11.4	7.52e-04	0	42	0	127926272	22	5711
2026-01-14 10:08:13.34	153.22	13.24	-31.0	-35.2	11.2	1.39e-03	0	42	0	128974848	22	5832
2026-01-14 10:08:14.35	153.21	13.34	-30.9	-34.9	11.4	1.08e-03	0	42	0	131072000	22	5695
2026-01-14 10:08:15.35	153.20	13.44	-31.0	-35.2	11.1	1.31e-03	0	41	0	133169152	22	5861
2026-01-14 10:08:16.36	153.19	13.54	-31.1	-35.4	11.1	2.21e-03	0	42	0	135266304	22	5934
2026-01-14 10:08:17.36	153.18	13.64	-31.0	-35.2	11.3	1.52e-03	0	42	0	136314880	22	5809
2026-01-14 10:08:18.37	153.16	13.74	-31.0	-34.9	11.4	9.57e-04	0	42	0	138412032	22	5696
2026-01-14 10:08:19.37	153.15	13.84	-31.0	-35.0	11.4	8.86e-04	0	41	0	140509184	22	5704
2026-01-14 10:08:20.38	153.14	13.95	-30.9	-34.9	11.5	7.80e-04	0	42	0	142606336	22	5675
2026-01-14 10:08:21.38	153.13	14.05	-31.1	-35.3	11.2	9.76e-04	0	42	0	144703488	22	5860
2026-01-14 10:08:22.38	153.12	14.15	-31.1	-35.5	11.0	1.51e-03	0	42	0	145752064	22	5949
2026-01-14 10:08:23.38	153.10	14.26	-31.1	-35.3	11.2	1.23e-03	0	42	0	147849216	22	5856
2026-01-14 10:08:24.39	153.09	14.36	-31.2	-35.8	10.9	1.61e-03	0	42	0	149946368	22	6087
2026-01-14 10:08:25.39	153.08	14.47	-31.4	-36.2	10.6	3.46e-03	0	42	0	152043520	22	6283
2026-01-14 10:08:26.39	153.07	14.57	-31.2	-35.7	10.9	2.19e-03	0	42	0	154140672	22	6047
2026-01-14 10:08:27.40	153.05	14.68	-31.0	-35.0	11.4	1.17e-03	0	42	0	155189248	22	5708
2026-01-14 10:08:28.40	153.04	14.78	-30.9	-34.6	11.8	5.55e-04	0	42	0	157286400	22	5503
2026-01-14 10:08:29.40	153.03	14.89	-30.7	-34.1	12.1	3.89e-04	0	42	0	159383552	22	5292
2026-01-14 10:08:30.41	153.01	15.00	-30.6	-33.8	12.4	2.02e-04	0	42	0	161480704	22	5184
2026-01-14 10:08:31.40	153.00	15.11	-30.5	-33.5	12.6	1.27e-04	0	42	0	163577856	22	5074
2026-01-14 10:08:32.41	152.99	15.21	-30.5	-33.3	12.7	6.63e-05	0	42	0	164626432	22	5000
2026-01-14 10:08:33.41	152.97	15.32	-30.5	-33.4	12.7	7.93e-05	0	42	0	166723584	22	5018
2026-01-14 10:08:34.42	152.96	15.43	-30.5	-33.3	12.8	5.41e-05	0	42	0	168820736	22	4995
2026-01-14 10:08:35.42	152.95	15.54	-30.5	-33.5	12.7	8.01e-05	0	42	0	170917888	22	5054
2026-01-14 10:08:36.42	152.93	15.65	-30.4	-33.0	13.0	3.96e-05	0	42	0	173015040	22	4867
2026-01-14 10:08:37.42	152.92	15.76	-30.3	-32.9	13.1	2.82e-05	0	42	0	174063616	22	4805
2026-01-14 10:08:38.43	152.90	15.87	-30.4	-32.9	13.1	4.04e-05	0	42	0	176160768	22	4839
2026-01-14 10:08:39.43	152.89	15.98	-30.3	-32.9	13.1	2.51e-05	0	42	0	178257920	22	4816
2026-01-14 10:08:40.43	152.87	16.10	-30.4	-33.0	13.1	2.67e-05	0	42	0	180355072	22	4856
2026-01-14 10:08:41.44	152.86	16.21	-30.4	-33.1	13.0	4.65e-05	0	42	0	182452224	22	4880
2026-01-14 10:08:42.45	152.85	16.32	-30.5	-33.2	12.9	4.11e-05	0	42	0	183500800	22	4944
2026-01-14 10:08:43.45	152.83	16.44	-30.6	-33.4	12.8	5.26e-05	0	42	0	185597952	22	5010
2026-01-14 10:08:44.45	152.82	16.55	-30.6	-33.4	12.8	7.47e-05	0	42	0	187695104	22	5017
2026-01-14 10:08:45.46	152.80	16.67	-30.4	-32.9	13.1	4.11e-05	0	42	0	189792256	22	4828
2026-01-14 10:08:46.46	152.78	16.78	-30.4	-33.0	13.1	3.12e-05	0	42	0	191889408	22	4845
2026-01-14 10:08:47.46	152.77	16.90	-30.2	-33.1	13.4	1.22e-05	0	42	0	192937984	21	4980
2026-01-14 10:08:48.46	152.75	17.01	-30.2	-33.1	13.4	1.67e-05	0	42	0	195035136	21	4978
2026-01-14 10:08:49.46	152.74	17.13	-30.2	-32.8	13.5	1.14e-05	0	42	0	197132288	21	4897
2026-01-14 10:08:50.47	152.72	17.25	-30.3	-33.1	13.4	9.90e-06	0	42	0	199229440	21	4988
2026-01-14 10:08:51.48	152.71	17.37	-30.2	-33.0	13.5	1.67e-05	0	42	0	200278016	21	4961
2026-01-14 10:08:52.49	152.69	17.48	-30.1	-32.6	13.7	6.10e-06	0	42	0	202375168	21	4812
2026-01-14 10:08:53.49	152.67	17.60	-30.0	-32.4	13.9	5.30e-06	0	42	0	204472320	21	4716
2026-01-14 10:08:54.49	152.66	17.72	-30.0	-32.4	13.9	7.60e-06	0	42	0	206569472	21	4721
2026-01-14 10:08:55.50	152.64	17.84	-30.0	-32.4	13.9	7.00e-07	0	42	0	208666624	21	4740
2026-01-14 10:08:56.51	152.62	17.97	-30.2	-32.7	13.7	3.80e-06	0	42	0	209715200	21	4834
2026-01-14 10:08:57.51	152.61	18.09	-30.2	-32.7	13.8	6.10e-06	0	42	0	211812352	21	4815
2026-01-14 10:08:58.51	152.59	18.21	-30.1	-32.4	14.0	6.10e-06	0	42	0	213909504	21	4717
2026-01-14 10:08:59.51	152.57	18.33	-30.0	-32.3	14.1	3.00e-06	0	42	0	216006656	21	4678
2026-01-14 10:09:00.52	152.56	18.46	-30.0	-32.2	14.2	3.80e-06	0	42	0	218103808	21	4635
2026-01-14 10:09:01.52	152.54	18.58	-29.9	-32.0	14.3	1.50e-06	0	42	0	219152384	21	4585
2026-01-14 10:09:02.52	152.52	18.70	-30.1	-32.4	14.0	7.00e-07	0	42	0	221249536	21	4722
2026-01-14 10:09:03.53	152.50	18.83	-30.1	-32.4	14.0	5.30e-06	0	42	0	223346688	21	4705
2026-01-14 10:09:04.54	152.48	18.96	-29.9	-32.0	14.3	2.20e-06	0	42	0	225443840	21	4584
2026-01-14 10:09:05.54	152.47	19.08	-29.9	-31.9	14.4	1.50e-06	0	42	0	227540992	21	4532
2026-01-14 10:09:06.54	152.45	19.21	-29.9	-32.0	14.3	7.00e-07	0	42	0	228589568	21	4580
2026-01-14 10:09:07.55	152.43	19.34	-29.9	-32.1	14.3	0.00e+00	0	42	0	230686720	21	4588
2026-01-14 10:09:08.55	152.41	19.47	-29.9	-31.9	14.4	7.00e-07	0	42	0	232783872	21	4546
2026-01-14 10:09:09.56	152.39	19.60	-30.0	-32.1	14.3	1.50e-06	0	42	0	234881024	21	4591
2026-01-14 10:09:10.55	152.37	19.72	-30.0	-32.1	14.3	7.00e-07	0	42	0	236978176	21	4597
2026-01-14 10:09:11.56	152.35	19.85	-29.9	-31.9	14.4	0.00e+00	0	42	0	238026752	21	4530
2026-01-14 10:09:12.56	152.33	19.99	-29.9	-31.8	14.5	7.00e-07	0	42	0	240123904	21	4514
2026-01-14 10:09:13.56	152.31	20.12	-29.8	-31.6	14.6	0.00e+00	0	42	0	242221056	21	4450
2026-01-14 10:09:14.57	152.29	20.25	-29.9	-31.9	14.5	0.00e+00	0	42	0	244318208	21	4522
2026-01-14 10:09:15.57	152.27	20.38	-30.0	-32.1	14.3	0.00e+00	0	42	0	246415360	21	4601
2026-01-14 10:09:16.57	152.25	20.52	-30.0	-32.2	14.3	0.00e+00	0	42	0	247463936	21	4627
2026-01-14 10:09:17.57	152.23	20.65	-29.9	-31.9	14.5	1.50e-06	0	42	0	249561088	21	4533
2026-01-14 10:09:18.57	152.21	20.79	-29.9	-32.0	14.4	0.00e+00	0	42	0	251658240	21	4566
2026-01-14 10:09:19.58	152.19	20.92	-29.8	-31.8	14.5	1.50e-06	0	42	0	253755392	21	4501
2026-01-14 10:09:20.58	152.17	21.06	-29.8	-31.7	14.7	0.00e+00	0	42	0	254803968	21	4456
2026-01-14 10:09:21.58	152.15	21.20	-29.8	-31.7	14.7	0.00e+00	0	42	0	256901120	21	4450
2026-01-14 10:09:22.58	152.13	21.33	-29.7	-32.0	14.8	7.00e-07	0	42	0	258998272	20	4656
2026-01-14 10:09:23.58	152.11	21.47	-29.7	-31.8	14.9	0.00e+00	0	42	0	261095424	20	4603
2026-01-14 10:09:24.59	152.08	21.61	-29.6	-31.6	15.0	0.00e+00	0	42	0	263192576	20	4527
2026-01-14 10:09:25.59	152.06	21.75	-29.6	-31.6	15.0	0.00e+00	0	42	0	265289728	20	4523
2026-01-14 10:09:26.59	152.04	21.89	-29.6	-31.6	15.1	0.00e+00	0	42	0	266338304	20	4528
2026-01-14 10:09:27.59	152.02	22.04	-29.6	-31.6	15.0	0.00e+00	0	42	0	268435456	20	4535
2026-01-14 10:09:28.59	151.99	22.18	-29.5	-31.4	15.2	0.00e+00	0	42	0	270532608	20	4485
2026-01-14 10:09:29.60	151.97	22.32	-29.4	-31.2	15.3	0.00e+00	0	42	0	272629760	20	4420
2026-01-14 10:09:30.59	151.95	22.47	-29.5	-31.5	15.1	0.00e+00	0	42	0	273678336	20	4502
2026-01-14 10:09:31.60	151.92	22.61	-29.6	-31.6	15.1	0.00e+00	0	42	0	275775488	20	4529
2026-01-14 10:09:32.60	151.90	22.76	-29.5	-31.4	15.2	0.00e+00	0	42	0	277872640	20	4488
2026-01-14 10:09:33.61	151.87	22.91	-29.5	-31.5	15.2	0.00e+00	0	42	0	279969792	20	4497
2026-01-14 10:09:34.62	151.85	23.06	-29.6	-31.6	15.1	0.00e+00	0	42	0	282066944	20	4535
2026-01-14 10:09:35.61	151.83	23.20	-29.5	-31.3	15.2	0.00e+00	0	42	0	283115520	20	4450
2026-01-14 10:09:36.62	151.80	23.35	-29.4	-31.1	15.4	0.00e+00	0	42	0	285212672	20	4368
2026-01-14 10:09:37.62	151.77	23.50	-29.4	-31.0	15.5	0.00e+00	0	42	0	287309824	20	4328
2026-01-14 10:09:38.62	151.75	23.65	-29.3	-30.8	15.6	0.00e+00	0	42	0	289406976	20	4286
2026-01-14 10:09:39.62	151.72	23.81	-29.4	-30.9	15.5	0.00e+00	0	42	0	291504128	20	4318
2026-01-14 10:09:40.63	151.70	23.96	-29.3	-30.9	15.5	0.00e+00	0	42	0	292552704	20	4325
2026-01-14 10:09:41.63	151.67	24.11	-29.4	-31.1	15.5	0.00e+00	0	42	0	294649856	20	4360
2026-01-14 10:09:42.63	151.64	24.27	-29.4	-31.0	15.5	0.00e+00	0	42	0	296747008	20	4341
2026-01-14 10:09:43.64	151.62	24.42	-29.4	-31.2	15.4	0.00e+00	0	42	0	298844160	20	4391
2026-01-14 10:09:44.64	151.59	24.58	-29.5	-31.2	15.4	0.00e+00	0	42	0	300941312	20	4392
2026-01-14 10:09:45.65	151.56	24.74	-29.5	-31.3	15.3	0.00e+00	0	42	0	301989888	20	4433
2026-01-14 10:09:46.65	151.53	24.90	-29.5	-31.4	15.3	7.00e-07	0	42	0	304087040	20	4444
2026-01-14 10:09:47.64	151.51	25.05	-29.6	-31.5	15.3	7.00e-07	0	42	0	306184192	20	4484
2026-01-14 10:09:48.64	151.48	25.21	-29.6	-31.6	15.2	0.00e+00	0	42	0	308281344	20	4531
2026-01-14 10:09:49.64	151.45	25.38	-29.6	-31.7	15.2	0.00e+00	0	42	0	310378496	20	4539
2026-01-14 10:09:50.64	151.42	25.54	-29.7	-31.8	15.1	0.00e+00	0	42	0	311427072	20	4573
2026-01-14 10:09:51.64	151.39	25.70	-29.8	-31.9	15.0	0.00e+00	0	42	0	313524224	20	4617
2026-01-14 10:09:52.64	151.36	25.86	-29.8	-32.0	15.0	7.00e-07	0	42	0	315621376	20	4630
2026-01-14 10:09:53.65	151.33	26.03	-29.9	-32.4	14.8	7.00e-07	0	42	0	317718528	20	4760
2026-01-14 10:09:54.65	151.30	26.20	-30.0	-32.5	14.7	0.00e+00	0	42	0	318767104	20	4816
2026-01-14 10:09:55.66	151.27	26.37	-30.1	-32.8	14.5	0.00e+00	0	42	0	320864256	20	4912
2026-01-14 10:09:56.65	151.24	26.53	-30.2	-33.1	14.3	0.00e+00	0	42	0	322961408	20	5004
2026-01-14 10:09:57.66	151.21	26.70	-30.3	-33.2	14.3	0.00e+00	0	42	0	325058560	20	5053
2026-01-14 10:09:58.66	151.18	26.87	-30.4	-33.6	14.0	3.00e-06	0	42	0	327155712	20	5204
2026-01-14 10:09:59.67	151.14	27.05	-30.5	-33.3	13.9	3.80e-06	0	42	0	328204288	21	4957
2026-01-14 10:10:00.66	151.11	27.22	-30.5	-33.4	13.9	1.50e-06	0	42	0	330301440	21	4995
2026-01-14 10:10:01.66	151.08	27.39	-30.7	-33.8	13.6	6.80e-06	0	42	0	332398592	21	5132
2026-01-14 10:10:02.66	151.04	27.56	-30.8	-34.0	13.5	4.50e-06	0	42	0	334495744	21	5231
2026-01-14 10:10:03.67	151.01	27.74	-30.8	-34.0	13.4	6.80e-06	0	42	0	336592896	21	5247
2026-01-14 10:10:04.67	150.98	27.92	-30.8	-34.1	13.4	1.14e-05	0	42	0	337641472	21	5278
2026-01-14 10:10:05.67	150.94	28.09	-30.9	-34.5	13.2	2.05e-05	0	42	0	339738624	21	5408
2026-01-14 10:10:06.67	150.91	28.27	-31.1	-34.3	13.0	3.66e-05	0	42	0	341835776	22	5218
2026-01-14 10:10:07.68	150.87	28.46	-31.2	-34.6	12.8	5.03e-05	0	42	0	343932928	22	5353
2026-01-14 10:10:08.68	150.83	28.64	-31.3	-34.9	12.6	9.07e-05	0	42	0	346030080	22	5449
2026-01-14 10:10:09.69	150.80	28.82	-31.3	-35.1	12.5	1.33e-04	0	42	0	347078656	22	5556
2026-01-14 10:10:10.69	150.76	29.00	-31.4	-35.4	12.3	1.71e-04	0	42	0	349175808	22	5683
2026-01-14 10:10:11.69	150.72	29.19	-31.5	-35.2	12.1	1.91e-04	0	42	0	351272960	23	5505
2026-01-14 10:10:12.69	150.69	29.38	-31.6	-35.2	12.1	3.13e-04	0	42	0	353370112	23	5498
2026-01-14 10:10:13.69	150.65	29.56	-31.7	-35.7	11.7	4.09e-04	0	42	0	355467264	23	5719
2026-01-14 10:10:14.70	150.61	29.75	-31.7	-35.7	11.8	6.08e-04	0	42	0	356515840	23	5690
2026-01-14 10:10:15.70	150.57	29.94	-31.6	-35.3	12.0	3.62e-04	0	42	0	358612992	23	5518
2026-01-14 10:10:16.70	150.53	30.13	-31.5	-35.0	12.2	2.65e-04	0	43	0	360710144	23	5414
2026-01-14 10:10:17.71	150.49	30.33	-31.5	-35.1	12.2	2.52e-04	0	42	0	362807296	23	5436
2026-01-14 10:10:18.72	150.45	30.52	-31.6	-35.3	12.0	2.77e-04	0	42	0	363855872	23	5541
2026-01-14 10:10:19.72	150.41	30.72	-31.7	-35.5	11.9	3.29e-04	0	42	0	365953024	23	5624
2026-01-14 10:10:20.72	150.36	30.91	-31.7	-35.6	11.8	4.44e-04	0	42	0	368050176	23	5664
2026-01-14 10:10:21.73	150.32	31.11	-31.8	-35.9	11.6	5.97e-04	0	43	0	370147328	23	5774
2026-01-14 10:10:22.73	150.28	31.31	-31.8	-36.0	11.5	5.92e-04	0	43	0	372244480	23	5842
2026-01-14 10:10:23.74	150.23	31.51	-31.8	-35.9	11.6	7.22e-04	0	42	0	374341632	23	5778
2026-01-14 10:10:24.74	150.19	31.71	-31.8	-36.0	11.6	6.81e-04	0	42	0	375390208	23	5824
2026-01-14 10:10:25.74	150.15	31.92	-31.9	-36.2	11.4	9.40e-04	0	42	0	377487360	23	5930
2026-01-14 10:10:26.74	150.10	32.12	-32.0	-36.4	11.3	1.28e-03	0	42	0	379584512	23	6027
2026-01-14 10:10:27.74	150.05	32.33	-32.1	-36.4	11.0	1.82e-03	0	42	0	381681664	24	5884
2026-01-14 10:10:28.74	150.01	32.53	-32.1	-36.4	10.9	2.14e-03	0	42	0	382730240	24	5906
2026-01-14 10:10:29.75	149.96	32.74	-32.2	-36.6	10.8	2.31e-03	0	42	0	384827392	24	6003
2026-01-14 10:10:30.75	149.91	32.95	-32.2	-36.6	10.8	2.04e-03	0	42	0	386924544	24	6000
2026-01-14 10:10:31.75	149.86	33.17	-32.1	-36.5	10.9	2.10e-03	0	42	0	389021696	24	5927
2026-01-14 10:10:32.75	149.82	33.38	-32.1	-36.2	11.1	1.91e-03	0	42	0	391118848	24	5809
2026-01-14 10:10:33.76	149.77	33.59	-32.0	-36.2	11.1	1.66e-03	0	42	0	392167424	24	5786
2026-01-14 10:10:34.76	149.71	33.81	-32.0	-35.9	11.3	1.64e-03	0	42	0	394264576	24	5688
2026-01-14 10:10:35.76	149.66	34.03	-31.9	-35.8	11.4	9.19e-04	0	42	0	396361728	24	5617
2026-01-14 10:10:36.76	149.61	34.25	-31.9	-35.6	11.5	1.09e-03	0	42	0	398458880	24	5537
2026-01-14 10:10:37.76	149.56	34.47	-31.8	-35.4	11.7	8.91e-04	0	42	0	400556032	24	5465
2026-01-14 10:10:38.77	149.50	34.69	-31.8	-35.4	11.7	6.26e-04	0	42	0	401604608	24	5467
2026-01-14 10:10:39.77	149.45	34.91	-31.7	-35.2	11.8	5.71e-04	0	42	0	403701760	24	5374
2026-01-14 10:10:40.77	149.40	35.14	-31.5	-34.6	12.2	3.11e-04	0	42	0	405798912	24	5120
2026-01-14 10:10:41.78	149.34	35.37	-31.4	-34.4	12.4	1.79e-04	0	42	0	407896064	24	5041
2026-01-14 10:10:42.79	149.28	35.60	-31.4	-34.2	12.5	1.11e-04	0	42	0	409993216	24	4981
2026-01-14 10:10:43.79	149.22	35.83	-31.4	-34.3	12.5	8.31e-05	0	42	0	411041792	24	4991
2026-01-14 10:10:44.80	149.17	36.06	-31.2	-34.0	13.0	9.68e-05	0	42	0	413138944	23	4992
2026-01-14 10:10:45.81	149.11	36.29	-30.9	-33.2	13.6	1.14e-05	0	42	0	415236096	23	4695
2026-01-14 10:10:46.81	149.04	36.53	-30.6	-33.0	14.0	3.80e-06	0	42	0	417333248	22	4749
2026-01-14 10:10:47.81	148.98	36.76	-30.6	-32.9	14.0	2.20e-06	0	42	0	419430400	22	4713
2026-01-14 10:10:48.81	148.92	37.00	-30.6	-32.9	14.1	2.20e-06	0	42	0	420478976	22	4714
2026-01-14 10:10:49.81	148.86	37.24	-30.5	-32.6	14.3	2.20e-06	0	42	0	422576128	22	4611
2026-01-14 10:10:50.82	148.79	37.49	-30.4	-32.4	14.4	1.50e-06	0	42	0	424673280	22	4536
2026-01-14 10:10:51.81	148.73	37.73	-30.4	-32.5	14.4	0.00e+00	0	42	0	426770432	22	4556
2026-01-14 10:10:52.82	148.66	37.97	-30.5	-32.8	14.2	0.00e+00	0	42	0	427819008	22	4663
2026-01-14 10:10:53.82	148.60	38.22	-30.5	-32.6	14.4	1.50e-06	0	42	0	429916160	22	4598
2026-01-14 10:10:54.82	148.53	38.47	-30.6	-32.8	14.2	0.00e+00	0	42	0	432013312	22	4678
2026-01-14 10:10:55.83	148.46	38.72	-30.7	-33.2	13.9	3.00e-06	0	42	0	434110464	22	4814
2026-01-14 10:10:56.83	148.39	38.97	-30.9	-33.7	13.6	3.00e-06	0	43	0	436207616	22	4989
2026-01-14 10:10:57.84	148.32	39.23	-31.0	-33.9	13.5	1.14e-05	0	43	0	437256192	22	5061
2026-01-14 10:10:58.84	148.24	39.48	-31.0	-34.1	13.4	1.22e-05	0	43	0	439353344	22	5120
2026-01-14 10:10:59.84	148.17	39.74	-31.1	-34.2	13.3	2.44e-05	0	42	0	441450496	22	5162
2026-01-14 10:11:00.84	148.09	40.00	-31.2	-34.5	13.1	2.74e-05	0	42	0	443547648	22	5266
2026-01-14 10:11:01.85	148.02	40.26	-31.1	-34.4	13.1	2.67e-05	0	42	0	445644800	22	5237
2026-01-14 10:11:02.85	147.94	40.53	-31.4	-35.1	12.7	5.64e-05	0	42	0	446693376	22	5530
2026-01-14 10:11:03.86	147.86	40.79	-31.4	-35.1	12.7	9.00e-05	0	42	0	448790528	22	5526
2026-01-14 10:11:04.87	147.78	41.06	-31.5	-35.4	12.5	8.23e-05	0	42	0	450887680	22	5626
2026-01-14 10:11:05.87	147.70	41.33	-31.5	-34.9	12.5	1.40e-04	0	42	0	452984832	23	5335
2026-01-14 10:11:06.87	147.61	41.60	-31.4	-34.6	12.8	1.14e-04	0	42	0	455081984	23	5189
2026-01-14 10:11:07.87	147.53	41.87	-31.4	-34.6	12.7	6.25e-05	0	42	0	456130560	23	5209
2026-01-14 10:11:08.87	147.44	42.15	-31.3	-34.2	12.9	8.23e-05	0	42	0	458227712	23	5075
2026-01-14 10:11:09.88	147.35	42.43	-31.4	-34.6	12.7	8.08e-05	0	42	0	460324864	23	5199
2026-01-14 10:11:10.89	147.26	42.71	-31.4	-34.5	12.7	5.34e-05	0	42	0	462422016	23	5181
2026-01-14 10:11:11.89	147.17	42.99	-31.4	-34.6	12.7	6.25e-05	0	42	0	464519168	23	5209
2026-01-14 10:11:12.90	147.08	43.27	-31.5	-34.9	12.5	9.38e-05	0	42	0	465567744	23	5331
2026-01-14 10:11:13.90	146.98	43.56	-31.4	-34.7	12.7	9.15e-05	0	42	0	467664896	23	5243
2026-01-14 10:11:14.90	146.89	43.85	-31.4	-34.8	12.6	9.00e-05	0	42	0	469762048	23	5278
2026-01-14 10:11:15.90	146.79	44.13	-31.5	-34.9	12.5	7.70e-05	0	43	0	471859200	23	5329
2026-01-14 10:11:16.90	146.69	44.42	-31.7	-35.4	12.2	1.78e-04	0	42	0	473956352	23	5533
2026-01-14 10:11:17.90	146.59	44.72	-31.6	-35.1	12.3	2.01e-04	0	42	0	475004928	23	5412
2026-01-14 10:11:18.90	146.48	45.01	-31.6	-35.3	12.2	1.63e-04	0	42	0	477102080	23	5502
2026-01-14 10:11:19.90	146.38	45.31	-31.7	-35.6	12.0	2.78e-04	0	42	0	479199232	23	5622
2026-01-14 10:11:20.90	146.27	45.61	-31.8	-35.9	11.8	4.02e-04	0	42	0	481296384	23	5750
2026-01-14 10:11:21.91	146.16	45.91	-31.7	-35.6	12.0	3.78e-04	0	42	0	482344960	23	5624
2026-01-14 10:11:22.91	146.05	46.21	-31.8	-35.8	11.9	3.71e-04	0	42	0	484442112	23	5702
2026-01-14 10:11:23.92	145.93	46.52	-31.7	-35.5	12.1	3.67e-04	0	43	0	486539264	23	5587
2026-01-14 10:11:24.92	145.82	46.83	-31.9	-36.1	11.7	3.88e-04	0	43	0	488636416	23	5831
2026-01-14 10:11:25.92	145.70	47.14	-32.2	-36.7	10.9	7.73e-04	0	42	0	490733568	24	6021
2026-01-14 10:11:26.93	145.57	47.45	-32.2	-36.7	10.9	2.19e-03	0	42	0	491782144	24	6024
2026-01-14 10:11:27.92	145.45	47.76	-32.2	-36.4	11.1	1.50e-03	0	43	0	493879296	24	5878
2026-01-14 10:11:28.93	145.32	48.08	-32.1	-36.4	11.1	1.34e-03	0	42	0	495976448	24	5882
2026-01-14 10:11:29.94	145.19	48.40	-32.2	-36.7	10.9	2.05e-03	0	42	0	498073600	24	5996
2026-01-14 10:11:30.93	145.06	48.72	-32.0	-36.1	11.4	1.57e-03	0	43	0	500170752	24	5720
2026-01-14 10:11:31.94	144.93	49.05	-31.9	-35.5	11.8	6.46e-04	0	43	0	501219328	24	5468
2026-01-14 10:11:32.94	144.79	49.37	-31.6	-34.5	12.5	1.67e-04	0	42	0	503316480	24	5073
2026-01-14 10:11:33.94	144.65	49.70	-31.4	-34.1	12.8	9.99e-05	0	43	0	505413632	24	4898
2026-01-14 10:11:34.94	144.50	50.03	-31.5	-34.3	12.7	1.04e-04	0	42	0	507510784	24	4984
2026-01-14 10:11:35.95	144.36	50.36	-31.2	-33.9	13.2	5.95e-05	0	42	0	509607936	23	4955
2026-01-14 10:11:36.95	144.20	50.69	-31.0	-33.5	13.4	2.36e-05	0	43	0	510656512	23	4798
2026-01-14 10:11:37.95	144.05	51.03	-30.8	-33.0	13.8	2.20e-06	0	42	0	512753664	23	4620
2026-01-14 10:11:38.96	143.89	51.37	-30.8	-33.4	13.9	5.30e-06	0	42	0	514850816	22	4852
2026-01-14 10:11:39.96	143.73	51.71	-30.2	-32.3	14.9	0.00e+00	0	42	0	516947968	21	4604
2026-01-14 10:11:40.96	143.56	52.05	-29.9	-31.7	15.2	0.00e+00	0	42	0	519045120	21	4432
2026-01-14 10:11:41.97	143.39	52.40	-29.8	-31.8	15.5	0.00e+00	0	42	0	520093696	20	4536
2026-01-14 10:11:42.97	143.22	52.75	-29.8	-32.0	15.4	7.00e-07	0	42	0	522190848	20	4603
2026-01-14 10:11:43.97	143.04	53.10	-30.1	-32.5	15.1	0.00e+00	0	42	0	524288000	20	4773
2026-01-14 10:11:44.97	142.86	53.45	-29.8	-31.8	15.5	0.00e+00	0	42	0	526385152	20	4533
2026-01-14 10:11:45.98	142.67	53.80	-29.6	-31.3	15.7	0.00e+00	0	42	0	528482304	20	4403
2026-01-14 10:11:46.98	142.48	54.16	-29.4	-30.9	16.1	0.00e+00	0	42	0	529530880	20	4259
2026-01-14 10:11:47.98	142.29	54.51	-29.4	-31.3	16.2	0.00e+00	0	42	0	531628032	19	4482
2026-01-14 10:11:48.98	142.09	54.87	-29.6	-31.8	15.9	0.00e+00	0	42	0	533725184	19	4638
2026-01-14 10:11:49.98	141.88	55.24	-29.8	-32.3	15.6	0.00e+00	0	42	0	535822336	19	4807
2026-01-14 10:11:50.98	141.67	55.60	-29.9	-32.7	15.4	0.00e+00	0	43	0	536870912	19	4925
2026-01-14 10:11:51.98	141.45	55.96	-30.2	-32.8	14.9	7.00e-07	0	43	0	538968064	20	4877
2026-01-14 10:11:52.98	141.23	56.33	-30.7	-33.8	14.0	0.00e+00	0	42	0	541065216	21	5103
2026-01-14 10:11:53.98	141.00	56.70	-31.0	-34.1	13.4	9.10e-06	0	42	0	543162368	22	5108
2026-01-14 10:11:54.99	140.76	57.08	-31.6	-35.3	12.4	4.34e-05	0	42	0	545259520	23	5479
2026-01-14 10:11:55.99	140.52	57.45	-31.6	-35.1	12.5	1.82e-04	0	42	0	546308096	23	5375
2026-01-14 10:11:56.99	140.27	57.82	-31.8	-35.6	12.1	1.97e-04	0	42	0	548405248	23	5587
2026-01-14 10:11:58.00	140.01	58.21	-32.2	-36.5	11.2	6.28e-04	0	42	0	550502400	24	5887
2026-01-14 10:11:59.00	139.75	58.58	-32.1	-36.3	11.2	1.52e-03	0	42	0	552599552	24	5824
2026-01-14 10:12:00.00	139.48	58.97	-32.0	-35.8	11.6	8.97e-04	0	43	0	554696704	24	5625
2026-01-14 10:12:01.00	139.20	59.35	-31.9	-35.7	11.7	5.88e-04	0	42	0	555745280	24	5573
2026-01-14 10:12:02.01	138.91	59.74	-31.7	-35.1	12.1	3.65e-04	0	42	0	557842432	24	5286
2026-01-14 10:12:03.00	138.61	60.12	-31.5	-34.3	12.7	1.50e-04	0	43	0	559939584	24	4993
2026-01-14 10:12:04.01	138.30	60.51	-31.4	-34.1	12.9	5.34e-05	0	42	0	562036736	24	4894
2026-01-14 10:12:05.01	137.99	60.90	-31.7	-34.9	12.3	9.61e-05	0	42	0	564133888	24	5208
2026-01-14 10:12:06.02	137.66	61.29	-31.0	-33.5	13.6	3.89e-05	0	42	0	565182464	23	4774
2026-01-14 10:12:07.01	137.33	61.68	-30.7	-33.1	14.2	3.80e-06	0	42	0	567279616	22	4759
2026-01-14 10:12:08.02	136.98	62.08	-30.5	-32.6	14.5	7.00e-07	0	42	0	569376768	22	4581
2026-01-14 10:12:09.02	136.62	62.47	-30.6	-32.9	14.3	0.00e+00	0	42	0	571473920	22	4695
2026-01-14 10:12:10.03	136.24	62.88	-30.8	-33.4	14.0	7.00e-07	0	42	0	573571072	22	4855
2026-01-14 10:12:11.03	135.86	63.27	-31.1	-34.2	13.4	8.30e-06	0	42	0	574619648	22	5154
2026-01-14 10:12:12.04	135.46	63.68	-31.0	-33.9	13.6	9.10e-06	0	43	0	576716800	22	5040
2026-01-14 10:12:13.03	135.05	64.07	-30.5	-32.5	14.6	1.50e-06	0	42	0	578813952	22	4545
2026-01-14 10:12:14.03	134.63	64.47	-30.4	-32.3	14.6	0.00e+00	0	43	0	580911104	22	4491
2026-01-14 10:12:15.04	134.18	64.88	-30.3	-32.1	14.8	7.00e-07	0	43	0	583008256	22	4439
2026-01-14 10:12:16.04	133.73	65.28	-30.6	-32.9	14.3	7.00e-07	0	43	0	584056832	22	4687
2026-01-14 10:12:17.03	133.26	65.68	-30.5	-32.7	14.5	1.50e-06	0	42	0	586153984	22	4602
2026-01-14 10:12:18.04	132.76	66.09	-30.7	-33.2	14.1	0.00e+00	0	43	0	588251136	22	4772
2026-01-14 10:12:19.04	132.25	66.49	-31.0	-34.0	13.6	6.80e-06	0	42	0	590348288	22	5081
2026-01-14 10:12:20.04	131.72	66.89	-31.0	-33.9	13.7	6.10e-06	0	42	0	591396864	22	5016
2026-01-14 10:12:21.03	131.18	67.29	-30.9	-33.6	13.8	1.50e-06	0	43	0	593494016	22	4933
2026-01-14 10:12:22.04	130.60	67.70	-31.0	-33.8	13.7	7.60e-06	0	43	0	595591168	22	5005
2026-01-14 10:12:23.04	130.01	68.10	-30.8	-33.4	14.0	2.20e-06	0	42	0	597688320	22	4835
2026-01-14 10:12:24.05	129.38	68.51	-30.7	-33.0	14.3	1.50e-06	0	42	0	599785472	22	4692
2026-01-14 10:12:25.05	128.73	68.91	-30.8	-33.3	14.0	2.20e-06	0	42	0	600834048	22	4813
2026-01-14 10:12:26.05	128.06	69.31	-30.6	-32.9	14.4	2.20e-06	0	42	0	602931200	22	4678
2026-01-14 10:12:27.05	127.36	69.71	-30.7	-33.1	14.2	7.00e-07	0	42	0	605028352	22	4731
2026-01-14 10:12:28.06	126.62	70.12	-30.3	-32.4	14.9	0.00e+00	0	42	0	607125504	21	4618
2026-01-14 10:12:29.06	125.86	70.52	-30.2	-32.2	15.0	0.00e+00	0	42	0	609222656	21	4566
2026-01-14 10:12:30.06	125.06	70.91	-30.2	-32.4	14.9	0.00e+00	0	42	0	610271232	21	4622
2026-01-14 10:12:31.06	124.22	71.30	-29.6	-31.2	15.9	0.00e+00	0	42	0	612368384	20	4365
2026-01-14 10:12:32.06	123.35	71.70	-29.4	-31.3	16.3	0.00e+00	0	43	0	614465536	19	4470
2026-01-14 10:12:33.06	122.44	72.08	-29.8	-32.3	15.6	0.00e+00	0	43	0	616562688	19	4797
2026-01-14 10:12:34.06	121.48	72.47	-30.3	-33.2	14.7	0.00e+00	0	43	0	618659840	20	4995
2026-01-14 10:12:35.07	120.47	72.85	-30.6	-33.2	14.5	1.50e-06	0	42	0	619708416	21	4895
2026-01-14 10:12:36.07	119.42	73.23	-30.8	-33.7	14.0	1.50e-06	0	43	0	621805568	21	5077
2026-01-14 10:12:37.07	118.32	73.60	-31.6	-34.9	12.8	1.22e-05	0	42	0	623902720	23	5309
2026-01-14 10:12:38.07	117.17	73.97	-31.7	-35.3	12.6	1.30e-04	0	43	0	625999872	23	5441
2026-01-14 10:12:39.07	115.96	74.34	-31.8	-35.5	12.3	2.10e-04	0	42	0	627048448	23	5556
2026-01-14 10:12:40.07	114.69	74.69	-31.7	-35.4	12.3	1.23e-04	0	43	0	629145600	23	5505
2026-01-14 10:12:41.07	113.36	75.04	-32.2	-36.5	11.3	3.63e-04	0	42	0	631242752	24	5873
2026-01-14 10:12:42.08	111.94	75.39	-32.4	-37.2	10.7	2.44e-03	0	42	0	633339904	24	6199
2026-01-14 10:12:43.08	110.48	75.72	-32.5	-36.7	10.7	2.80e-03	0	42	0	635437056	25	5883
2026-01-14 10:12:44.09	108.92	76.05	-32.3	-36.3	11.1	3.22e-03	0	42	0	636485632	25	5679
2026-01-14 10:12:45.09	107.31	76.37	-32.4	-36.5	11.0	1.49e-03	0	42	0	638582784	25	5789
2026-01-14 10:12:46.10	105.60	76.68	-32.8	-37.8	10.0	4.14e-03	0	42	0	640679936	25	6399
2026-01-14 10:12:47.10	103.82	76.97	-32.5	-37.0	10.6	5.10e-03	0	42	0	642777088	25	6018
2026-01-14 10:12:48.11	101.95	77.26	-32.2	-35.9	11.4	1.53e-03	0	42	0	644874240	25	5497
2026-01-14 10:12:49.11	100.00	77.53	-31.8	-34.9	12.5	3.25e-04	0	43	0	645922816	24	5185
2026-01-14 10:12:50.12	97.95	77.78	-31.7	-34.7	12.6	7.78e-05	0	43	0	648019968	24	5085
2026-01-14 10:12:51.12	95.84	78.02	-32.2	-36.2	11.5	1.74e-04	0	42	0	650117120	24	5740
2026-01-14 10:12:52.12	93.64	78.24	-32.4	-36.9	11.0	1.07e-03	0	42	0	652214272	24	6040
2026-01-14 10:12:53.12	91.36	78.45	-32.4	-36.9	11.0	1.70e-03	0	43	0	654311424	24	6047
2026-01-14 10:12:54.12	88.99	78.64	-32.5	-36.6	10.8	2.21e-03	0	42	0	655360000	25	5808
2026-01-14 10:12:55.12	86.55	78.81	-32.0	-35.3	11.8	5.89e-04	0	42	0	657457152	25	5245
2026-01-14 10:12:56.12	84.04	78.95	-32.1	-35.3	11.8	3.86e-04	0	43	0	659554304	25	5254
2026-01-14 10:12:57.13	81.43	79.08	-32.3	-36.0	11.4	7.67e-04	0	42	0	661651456	25	5525
2026-01-14 10:12:58.13	78.80	79.18	-32.2	-35.7	11.5	7.36e-04	0	43	0	663748608	25	5424
2026-01-14 10:12:59.13	76.12	79.26	-32.1	-35.4	11.8	6.74e-04	0	43	0	664797184	25	5269
2026-01-14 10:13:00.14	73.38	79.32	-32.2	-35.8	11.4	6.90e-04	0	42	0	666894336	25	5458
2026-01-14 10:13:01.14	70.64	79.36	-31.9	-34.9	12.2	5.84e-04	0	42	0	668991488	25	5062
2026-01-14 10:13:02.14	67.89	79.37	-31.8	-34.6	12.3	2.05e-04	0	43	0	671088640	25	4958
2026-01-14 10:13:03.14	65.14	79.35	-31.6	-34.4	12.8	7.40e-05	0	42	0	673185792	24	5000
2026-01-14 10:13:04.15	62.37	79.31	-31.5	-34.3	12.8	4.50e-05	0	42	0	674234368	24	4956
2026-01-14 10:13:05.15	59.67	79.25	-31.6	-34.4	12.8	7.24e-05	0	43	0	676331520	24	4998
2026-01-14 10:13:06.15	57.00	79.16	-31.1	-33.7	13.6	1.83e-05	0	43	0	678428672	23	4823
2026-01-14 10:13:07.15	54.38	79.05	-31.1	-33.6	13.7	4.50e-06	0	42	0	680525824	23	4809
2026-01-14 10:13:08.15	51.81	78.92	-31.8	-35.5	12.5	5.79e-05	0	42	0	681574400	23	5526
2026-01-14 10:13:09.16	49.29	78.77	-32.2	-36.2	11.5	8.81e-04	0	42	0	683671552	24	5744
2026-01-14 10:13:10.17	46.84	78.60	-31.9	-35.4	12.2	5.10e-04	0	42	0	685768704	24	5376
2026-01-14 10:13:11.17	44.50	78.41	-31.6	-34.5	12.7	1.34e-04	0	42	0	687865856	24	5042
2026-01-14 10:13:12.18	42.21	78.19	-31.5	-34.2	13.0	5.26e-05	0	42	0	689963008	24	4892
2026-01-14 10:13:13.19	40.01	77.96	-31.8	-35.2	12.3	5.79e-05	0	42	0	692060160	24	5306
2026-01-14 10:13:14.18	37.94	77.72	-32.6	-37.1	10.5	8.34e-04	0	42	0	693108736	25	6049
2026-01-14 10:13:15.19	35.91	77.46	-32.8	-37.7	10.0	8.18e-03	0	42	0	695205888	25	6384
2026-01-14 10:13:16.19	33.99	77.19	-33.1	-38.3	9.3	1.36e-02	0	43	0	697303040	26	6587
2026-01-14 10:13:17.19	32.15	76.91	-33.2	-39.0	8.7	2.45e-02	0	42	0	699400192	26	6961
2026-01-14 10:13:18.20	30.38	76.61	-33.0	-38.2	9.3	2.57e-02	0	43	0	700448768	26	6508
2026-01-14 10:13:19.20	28.71	76.30	-32.8	-37.5	9.8	1.18e-02	0	43	0	702545920	26	6132
2026-01-14 10:13:20.21	27.10	75.98	-32.9	-37.8	9.5	1.27e-02	0	42	0	704643072	26	6328
2026-01-14 10:13:21.21	25.57	75.65	-33.0	-38.1	9.5	8.87e-03	0	43	0	706740224	26	6474
2026-01-14 10:13:22.22	24.11	75.31	-33.1	-38.6	9.0	3.14e-02	0	42	0	708837376	26	6767
2026-01-14 10:13:23.21	22.74	74.97	-32.8	-37.5	9.8	1.40e-02	0	42	0	709885952	26	6158
2026-01-14 10:13:24.21	21.43	74.62	-32.2	-35.8	11.4	2.67e-03	0	42	0	711983104	25	5472
2026-01-14 10:13:25.21	20.17	74.26	-31.9	-35.0	11.9	3.85e-04	0	42	0	714080256	25	5128
2026-01-14 10:13:26.21	18.98	73.90	-31.8	-35.0	12.3	1.11e-04	0	43	0	716177408	24	5222
2026-01-14 10:13:27.21	17.83	73.53	-31.8	-35.1	12.3	2.17e-04	0	42	0	718274560	24	5267
2026-01-14 10:13:28.22	16.74	73.15	-31.3	-34.2	13.4	7.47e-05	0	42	0	719323136	23	5021
2026-01-14 10:13:29.23	15.69	72.77	-30.5	-32.5	14.6	0.00e+00	0	43	0	721420288	22	4555
2026-01-14 10:13:30.23	14.70	72.39	-30.0	-31.9	15.3	0.00e+00	0	42	0	723517440	21	4453
2026-01-14 10:13:31.23	13.75	72.00	-29.7	-31.5	15.8	0.00e+00	0	43	0	725614592	20	4450
2026-01-14 10:13:32.23	12.85	71.62	-29.4	-30.7	16.3	0.00e+00	0	42	0	726663168	20	4224
2026-01-14 10:13:33.24	11.98	71.22	-29.6	-31.4	15.8	0.00e+00	0	42	0	728760320	20	4421
2026-01-14 10:13:34.24	11.15	70.83	-30.0	-32.2	15.3	0.00e+00	0	42	0	730857472	20	4663
2026-01-14 10:13:35.24	10.36	70.43	-30.4	-33.4	14.7	0.00e+00	0	42	0	732954624	20	5068
2026-01-14 10:13:36.25	9.60	70.03	-30.6	-33.5	14.3	0.00e+00	0	43	0	735051776	21	4974
2026-01-14 10:13:37.24	8.88	69.64	-30.6	-33.3	14.4	7.00e-07	0	42	0	737148928	21	4900
2026-01-14 10:13:38.24	8.19	69.24	-30.4	-32.8	14.7	0.00e+00	0	43	0	738197504	21	4748
2026-01-14 10:13:39.24	7.52	68.84	-31.0	-34.3	13.8	3.00e-06	0	43	0	740294656	21	5289
2026-01-14 10:13:40.25	6.88	68.43	-31.8	-35.8	12.2	5.64e-05	0	43	0	742391808	23	5648
2026-01-14 10:13:41.24	6.27	68.03	-32.6	-37.2	10.4	1.15e-03	0	42	0	744488960	25	6121
2026-01-14 10:13:42.25	5.68	67.63	-32.6	-37.4	10.1	8.39e-03	0	42	0	745537536	25	6212
2026-01-14 10:13:43.25	5.11	67.22	-32.1	-35.5	11.6	1.87e-03	0	42	0	747634688	25	5323
2026-01-14 10:13:44.26	4.56	66.82	-31.7	-34.8	12.5	2.90e-04	0	43	0	749731840	24	5148
2026-01-14 10:13:45.26	4.03	66.41	-31.5	-34.3	12.8	7.47e-05	0	42	0	751828992	24	4967
2026-01-14 10:13:46.27	3.52	66.01	-31.4	-33.9	13.1	4.73e-05	0	42	0	753926144	24	4806
2026-01-14 10:13:47.27	3.04	65.60	-30.9	-33.1	13.8	1.06e-05	0	42	0	754974720	23	4647
2026-01-14 10:13:48.28	2.56	65.20	-30.7	-33.1	14.2	2.20e-06	0	43	0	757071872	22	4737
2026-01-14 10:13:49.27	2.12	64.80	-30.6	-32.9	14.3	7.00e-07	0	42	0	759169024	22	4679
2026-01-14 10:13:50.28	1.68	64.40	-29.9	-31.5	15.4	7.00e-07	0	43	0	761266176	21	4354
2026-01-14 10:13:51.29	1.25	63.99	-29.4	-30.8	16.1	0.00e+00	0	42	0	763363328	20	4236
2026-01-14 10:13:52.29	0.85	63.60	-29.3	-31.2	16.3	0.00e+00	0	43	0	764411904	19	4444
2026-01-14 10:13:53.30	0.45	63.20	-29.0	-30.5	16.7	0.00e+00	0	42	0	766509056	19	4249
2026-01-14 10:13:54.30	0.07	62.80	-28.7	-30.2	17.1	0.00e+00	0	42	0	768606208	18	4274
2026-01-14 10:13:55.30	359.70	62.40	-28.9	-30.5	17.0	0.00e+00	0	42	0	770703360	18	4372
2026-01-14 10:13:56.30	359.35	62.01	-29.2	-31.3	16.5	0.00e+00	0	43	0	772800512	18	4580
2026-01-14 10:13:57.30	359.00	61.62	-29.5	-31.6	16.1	0.00e+00	0	42	0	773849088	19	4575
2026-01-14 10:13:58.30	358.67	61.23	-30.0	-32.3	15.2	0.00e+00	0	43	0	775946240	20	4709
2026-01-14 10:13:59.31	358.34	60.83	-30.5	-33.5	14.5	0.00e+00	0	42	0	778043392	20	5118
2026-01-14 10:14:00.31	358.03	60.45	-30.6	-33.2	14.3	7.00e-07	0	42	0	780140544	21	4906
2026-01-14 10:14:01.32	357.73	60.06	-30.6	-33.4	14.3	1.50e-06	0	42	0	782237696	21	4952
2026-01-14 10:14:02.32	357.43	59.67	-31.0	-34.4	13.7	1.50e-06	0	43	0	783286272	21	5312
2026-01-14 10:14:03.33	357.14	59.29	-31.7	-35.5	12.2	8.54e-05	0	43	0	785383424	23	5563
2026-01-14 10:14:04.33	356.87	58.90	-32.3	-36.7	11.0	7.00e-04	0	42	0	787480576	24	6019
2026-01-14 10:14:05.33	356.60	58.53	-32.4	-37.1	10.7	2.74e-03	0	42	0	789577728	24	6186
2026-01-14 10:14:06.33	356.34	58.15	-32.1	-36.1	11.4	1.08e-03	0	43	0	790626304	24	5730
2026-01-14 10:14:07.33	356.08	57.77	-31.9	-35.5	11.9	5.38e-04	0	42	0	792723456	24	5441
2026-01-14 10:14:08.33	355.84	57.40	-31.9	-35.5	11.8	3.48e-04	0	42	0	794820608	24	5457
2026-01-14 10:14:09.34	355.59	57.02	-31.8	-35.3	12.0	4.49e-04	0	42	0	796917760	24	5384
2026-01-14 10:14:10.35	355.36	56.65	-31.5	-34.5	12.6	1.59e-04	0	42	0	799014912	24	5032
2026-01-14 10:14:11.35	355.13	56.28	-31.3	-34.1	13.2	5.64e-05	0	42	0	801112064	23	5019
2026-01-14 10:14:12.35	354.91	55.92	-30.9	-33.2	13.8	1.60e-05	0	43	0	802160640	23	4666
2026-01-14 10:14:13.36	354.69	55.55	-30.4	-32.3	14.6	7.00e-07	0	43	0	804257792	22	4477
2026-01-14 10:14:14.36	354.48	55.19	-29.9	-31.5	15.3	0.00e+00	0	43	0	806354944	21	4347
2026-01-14 10:14:15.36	354.28	54.83	-29.6	-31.4	15.7	0.00e+00	0	43	0	808452096	20	4430
2026-01-14 10:14:16.37	354.08	54.47	-29.7	-31.5	15.7	0.00e+00	0	42	0	809500672	20	4437
2026-01-14 10:14:17.37	353.88	54.11	-29.5	-31.2	15.9	0.00e+00	0	42	0	811597824	20	4351
2026-01-14 10:14:18.37	353.69	53.76	-29.7	-31.6	15.6	0.00e+00	0	42	0	813694976	20	4472
2026-01-14 10:14:19.38	353.51	53.40	-29.7	-31.7	15.6	0.00e+00	0	42	0	815792128	20	4498
2026-01-14 10:14:20.38	353.33	53.06	-29.7	-31.7	15.5	0.00e+00	0	42	0	817889280	20	4516
2026-01-14 10:14:21.39	353.15	52.70	-29.9	-32.2	15.2	0.00e+00	0	43	0	818937856	20	4670
2026-01-14 10:14:22.39	352.98	52.36	-29.9	-32.0	15.3	0.00e+00	0	42	0	821035008	20	4606
2026-01-14 10:14:23.40	352.81	52.01	-30.0	-32.3	15.2	0.00e+00	0	43	0	823132160	20	4691
2026-01-14 10:14:24.40	352.64	51.67	-30.2	-32.9	14.8	0.00e+00	0	43	0	825229312	20	4896
2026-01-14 10:14:25.41	352.48	51.33	-30.5	-33.2	14.3	7.00e-07	0	42	0	827326464	21	4908
2026-01-14 10:14:26.41	352.33	51.00	-31.0	-34.5	13.5	3.00e-06	0	42	0	828375040	21	5373
2026-01-14 10:14:27.40	352.17	50.67	-31.7	-35.6	12.1	1.36e-04	0	43	0	830472192	23	5616
2026-01-14 10:14:28.41	352.02	50.33	-32.1	-36.1	11.4	4.66e-04	0	42	0	832569344	24	5725
2026-01-14 10:14:29.40	351.88	50.01	-32.2	-36.5	11.0	1.66e-03	0	43	0	834666496	24	5928
2026-01-14 10:14:30.41	351.74	49.68	-32.2	-36.5	11.1	1.51e-03	0	42	0	836763648	24	5905
2026-01-14 10:14:31.41	351.60	49.35	-32.4	-36.9	10.4	3.52e-03	0	42	0	837812224	25	5989
2026-01-14 10:14:32.41	351.46	49.03	-32.6	-37.4	10.0	6.89e-03	0	42	0	839909376	25	6276
2026-01-14 10:14:33.41	351.33	48.71	-32.6	-37.4	9.9	7.95e-03	0	43	0	842006528	25	6260
2026-01-14 10:14:34.42	351.19	48.38	-32.5	-37.1	10.3	6.47e-03	0	42	0	844103680	25	6091
2026-01-14 10:14:35.42	351.06	48.07	-32.6	-37.3	10.0	6.08e-03	0	43	0	846200832	25	6225
2026-01-14 10:14:36.42	350.94	47.75	-32.8	-38.0	9.5	1.25e-02	0	43	0	847249408	25	6595
2026-01-14 10:14:37.42	350.82	47.44	-32.8	-38.3	9.3	2.25e-02	0	42	0	849346560	25	6770
2026-01-14 10:14:38.42	350.70	47.13	-32.5	-37.2	10.2	1.19e-02	0	43	0	851443712	25	6167
2026-01-14 10:14:39.43	350.58	46.82	-32.1	-35.6	11.3	3.14e-03	0	43	0	853540864	25	5422
2026-01-14 10:14:40.43	350.46	46.52	-31.8	-35.2	11.9	4.89e-04	0	43	0	854589440	24	5337
2026-01-14 10:14:41.44	350.35	46.21	-31.6	-34.7	12.3	1.60e-04	0	43	0	856686592	24	5119
2026-01-14 10:14:42.44	350.24	45.91	-31.6	-34.6	12.4	2.34e-04	0	43	0	858783744	24	5096
2026-01-14 10:14:43.45	350.13	45.61	-31.4	-34.1	12.7	8.16e-05	0	42	0	860880896	24	4921
2026-01-14 10:14:44.45	350.02	45.31	-31.6	-34.7	12.3	1.20e-04	0	42	0	862978048	24	5122
2026-01-14 10:14:45.45	349.91	45.01	-31.8	-35.4	11.8	4.09e-04	0	43	0	864026624	24	5440
2026-01-14 10:14:46.45	349.81	44.72	-32.1	-36.4	11.1	1.31e-03	0	43	0	866123776	24	5872
2026-01-14 10:14:47.46	349.71	44.43	-32.3	-37.0	10.6	2.85e-03	0	43	0	868220928	24	6164
2026-01-14 10:14:48.46	349.61	44.14	-32.5	-37.1	10.1	4.31e-03	0	42	0	870318080	25	6143
2026-01-14 10:14:49.46	349.51	43.85	-32.6	-37.3	10.0	7.30e-03	0	43	0	872415232	25	6224
2026-01-14 10:14:50.46	349.42	43.57	-32.4	-36.9	10.3	5.94e-03	0	42	0	873463808	25	5996
2026-01-14 10:14:51.47	349.32	43.28	-32.1	-35.8	11.1	2.34e-03	0	43	0	875560960	25	5500
2026-01-14 10:14:52.47	349.23	43.00	-32.1	-35.9	11.1	1.28e-03	0	43	0	877658112	25	5525
2026-01-14 10:14:53.47	349.14	42.72	-32.1	-35.8	11.1	1.75e-03	0	43	0	879755264	25	5507
2026-01-14 10:14:54.48	349.05	42.44	-32.1	-35.8	11.1	1.53e-03	0	43	0	881852416	25	5519
2026-01-14 10:14:55.47	348.97	42.17	-32.0	-35.3	11.5	9.31e-04	0	42	0	882900992	25	5280
2026-01-14 10:14:56.47	348.88	41.90	-32.0	-35.6	11.3	7.89e-04	0	43	0	884998144	25	5410
2026-01-14 10:14:57.47	348.80	41.63	-32.0	-35.5	11.3	1.05e-03	0	42	0	887095296	25	5382
2026-01-14 10:14:58.48	348.71	41.35	-32.1	-35.7	11.1	1.19e-03	0	43	0	889192448	25	5463
2026-01-14 10:14:59.48	348.63	41.09	-32.1	-35.9	11.0	1.38e-03	0	43	0	891289600	25	5559
2026-01-14 10:15:00.49	348.55	40.82	-32.4	-36.8	10.4	3.68e-03	0	43	0	892338176	25	5973
2026-01-14 10:15:01.49	348.47	40.56	-32.4	-36.9	10.2	5.16e-03	0	43	0	894435328	25	6044
2026-01-14 10:15:02.49	348.40	40.29	-32.4	-37.0	10.2	6.17e-03	0	43	0	896532480	25	6070
2026-01-14 10:15:03.49	348.32	40.04	-32.3	-36.6	10.5	4.10e-03	0	43	0	898629632	25	5871
2026-01-14 10:15:04.49	348.25	39.78	-32.2	-36.2	10.8	2.94e-03	0	43	0	900726784	25	5691
2026-01-14 10:15:05.49	348.17	39.52	-32.1	-35.9	11.1	2.19e-03	0	43	0	901775360	25	5541
2026-01-14 10:15:06.50	348.10	39.27	-31.9	-35.3	11.4	1.18e-03	0	43	0	903872512	25	5301
2026-01-14 10:15:07.50	348.03	39.01	-32.0	-35.4	11.4	9.86e-04	0	43	0	905969664	25	5321
2026-01-14 10:15:08.50	347.96	38.76	-31.9	-35.2	11.5	9.38e-04	0	42	0	908066816	25	5257
2026-01-14 10:15:09.50	347.89	38.51	-31.9	-35.1	11.6	7.25e-04	0	42	0	909115392	25	5228
2026-01-14 10:15:10.51	347.82	38.26	-31.9	-35.3	11.4	1.02e-03	0	43	0	911212544	25	5281
2026-01-14 10:15:11.51	347.76	38.02	-32.0	-35.6	11.2	1.49e-03	0	42	0	913309696	25	5413
2026-01-14 10:15:12.51	347.69	37.78	-32.0	-35.5	11.3	1.29e-03	0	42	0	915406848	25	5409
2026-01-14 10:15:13.51	347.63	37.53	-32.0	-35.5	11.2	1.54e-03	0	43	0	917504000	25	5405
2026-01-14 10:15:14.52	347.56	37.29	-31.9	-35.0	11.6	7.83e-04	0	42	0	918552576	25	5196
2026-01-14 10:15:15.52	347.50	37.05	-31.7	-35.1	11.8	5.41e-04	0	43	0	920649728	24	5340
2026-01-14 10:15:16.53	347.44	36.82	-31.6	-34.9	12.1	4.31e-04	0	43	0	922746880	24	5228
2026-01-14 10:15:17.53	347.38	36.58	-31.5	-34.5	12.3	2.18e-04	0	43	0	924844032	24	5091
2026-01-14 10:15:18.53	347.32	36.35	-31.5	-34.5	12.3	1.79e-04	0	42	0	926941184	24	5067
2026-01-14 10:15:19.53	347.26	36.12	-31.4	-34.1	12.6	1.01e-04	0	43	0	927989760	24	4916
2026-01-14 10:15:20.53	347.20	35.89	-31.3	-34.5	12.7	8.16e-05	0	43	0	930086912	23	5174
2026-01-14 10:15:21.54	347.14	35.65	-31.2	-34.2	12.8	6.33e-05	0	43	0	932184064	23	5067
2026-01-14 10:15:22.55	347.09	35.43	-31.1	-33.7	13.1	4.11e-05	0	42	0	934281216	23	4882
2026-01-14 10:15:23.55	347.03	35.20	-31.1	-33.7	13.1	2.13e-05	0	43	0	936378368	23	4891
2026-01-14 10:15:24.55	346.98	34.98	-31.0	-33.7	13.2	2.67e-05	0	43	0	937426944	23	4864
2026-01-14 10:15:25.55	346.92	34.75	-31.1	-33.9	13.0	4.42e-05	0	43	0	939524096	23	4964
2026-01-14 10:15:26.56	346.87	34.53	-31.2	-34.0	12.9	2.82e-05	0	43	0	941621248	23	4995
2026-01-14 10:15:27.56	346.82	34.31	-31.1	-33.9	13.0	4.11e-05	0	42	0	943718400	23	4957
2026-01-14 10:15:28.57	346.77	34.09	-31.1	-33.9	13.0	3.05e-05	0	43	0	945815552	23	4962
2026-01-14 10:15:29.57	346.72	33.88	-31.2	-34.0	12.9	4.73e-05	0	43	0	946864128	23	5010
2026-01-14 10:15:30.57	346.67	33.66	-31.3	-34.4	12.7	5.18e-05	0	43	0	948961280	23	5149
2026-01-14 10:15:31.58	346.62	33.45	-31.5	-35.1	12.3	1.75e-04	0	43	0	951058432	23	5407
2026-01-14 10:15:32.57	346.57	33.24	-31.8	-35.8	11.8	3.65e-04	0	43	0	953155584	23	5720
2026-01-14 10:15:33.58	346.52	33.03	-32.0	-36.1	11.0	1.10e-03	0	43	0	954204160	24	5780
2026-01-14 10:15:34.58	346.47	32.82	-32.2	-36.6	10.7	2.32e-03	0	43	0	956301312	24	6017
2026-01-14 10:15:35.59	346.43	32.61	-32.2	-36.9	10.5	3.48e-03	0	43	0	958398464	24	6152
2026-01-14 10:15:36.59	346.38	32.40	-32.2	-36.7	10.7	3.86e-03	0	43	0	960495616	24	6066
2026-01-14 10:15:37.59	346.33	32.20	-32.2	-36.6	10.7	2.72e-03	0	43	0	962592768	24	6008
2026-01-14 10:15:38.59	346.29	32.00	-32.1	-36.5	10.8	2.67e-03	0	43	0	964689920	24	5954
2026-01-14 10:15:39.59	346.25	31.79	-32.0	-36.2	11.0	2.34e-03	0	43	0	965738496	24	5815
2026-01-14 10:15:40.60	346.20	31.59	-31.9	-35.7	11.4	1.47e-03	0	43	0	967835648	24	5581
2026-01-14 10:15:41.60	346.16	31.39	-31.9	-35.8	11.3	9.38e-04	0	43	0	969932800	24	5611
2026-01-14 10:15:42.60	346.12	31.19	-31.9	-35.7	11.4	9.12e-04	0	43	0	972029952	24	5604
2026-01-14 10:15:43.60	346.07	31.00	-31.7	-35.2	11.7	6.56e-04	0	43	0	973078528	24	5385
2026-01-14 10:15:44.60	346.03	30.80	-31.8	-35.4	11.6	6.23e-04	0	42	0	975175680	24	5449
2026-01-14 10:15:45.60	345.99	30.61	-31.8	-35.3	11.7	6.83e-04	0	43	0	977272832	24	5415
2026-01-14 10:15:46.61	345.95	30.41	-31.7	-35.3	11.7	5.03e-04	0	43	0	979369984	24	5401
2026-01-14 10:15:47.62	345.91	30.22	-31.8	-35.5	11.6	6.95e-04	0	42	0	981467136	24	5503
2026-01-14 10:15:48.62	345.87	30.03	-31.8	-35.6	11.5	8.29e-04	0	42	0	982515712	24	5539
2026-01-14 10:15:49.62	345.83	29.84	-31.9	-35.7	11.4	1.14e-03	0	43	0	984612864	24	5598
2026-01-14 10:15:50.62	345.80	29.66	-31.9	-35.9	11.2	1.16e-03	0	43	0	986710016	24	5686
2026-01-14 10:15:51.62	345.76	29.47	-32.0	-36.2	11.1	1.75e-03	0	42	0	988807168	24	5817
2026-01-14 10:15:52.63	345.72	29.28	-32.0	-36.1	11.1	1.56e-03	0	43	0	990904320	24	5756
2026-01-14 10:15:53.63	345.68	29.10	-32.0	-36.1	11.1	1.53e-03	0	42	0	991952896	24	5764
2026-01-14 10:15:54.63	345.65	28.92	-32.0	-36.1	11.1	1.82e-03	0	42	0	994050048	24	5765
2026-01-14 10:15:55.64	345.61	28.73	-31.9	-35.8	11.3	1.11e-03	0	43	0	996147200	24	5628
2026-01-14 10:15:56.63	345.58	28.55	-31.9	-35.6	11.5	1.02e-03	0	43	0	998244352	24	5556
2026-01-14 10:15:57.63	345.54	28.38	-31.9	-35.8	11.3	8.97e-04	0	43	0	999292928	24	5655
2026-01-14 10:15:58.63	345.51	28.20	-31.8	-35.4	11.6	8.38e-04	0	42	0	1001390080	24	5459
2026-01-14 10:15:59.63	345.47	28.02	-31.6	-34.8	12.0	3.31e-04	0	43	0	1003487232	24	5217
2026-01-14 10:16:00.64	345.44	27.84	-31.6	-35.0	11.9	3.52e-04	0	43	0	1005584384	24	5281
2026-01-14 10:16:01.64	345.41	27.67	-31.6	-34.8	12.0	4.36e-04	0	43	0	1007681536	24	5217
2026-01-14 10:16:02.65	345.37	27.49	-31.5	-34.5	12.2	2.14e-04	0	43	0	1009778688	24	5102
2026-01-14 10:16:03.65	345.34	27.32	-31.5	-34.5	12.2	2.10e-04	0	42	0	1010827264	24	5079
2026-01-14 10:16:04.65	345.31	27.15	-31.4	-34.3	12.4	2.08e-04	0	43	0	1012924416	24	5010
2026-01-14 10:16:05.66	345.28	26.98	-31.3	-34.0	12.5	1.34e-04	0	43	0	1015021568	24	4905
2026-01-14 10:16:06.66	345.25	26.81	-31.2	-34.1	12.8	6.94e-05	0	42	0	1017118720	23	5055
2026-01-14 10:16:07.66	345.21	26.64	-31.2	-34.1	12.8	5.56e-05	0	43	0	1018167296	23	5028
2026-01-14 10:16:08.66	345.18	26.47	-31.2	-34.1	12.8	5.87e-05	0	43	0	1020264448	23	5046
2026-01-14 10:16:09.67	345.15	26.30	-31.3	-34.4	12.6	7.01e-05	0	43	0	1022361600	23	5162
2026-01-14 10:16:10.67	345.12	26.14	-31.2	-34.2	12.7	1.04e-04	0	43	0	1024458752	23	5082
2026-01-14 10:16:11.67	345.09	25.97	-31.1	-33.9	12.9	3.58e-05	0	43	0	1026555904	23	4955
2026-01-14 10:16:12.68	345.07	25.81	-31.2	-34.2	12.7	7.62e-05	0	43	0	1027604480	23	5079
2026-01-14 10:16:13.68	345.04	25.65	-31.1	-34.0	12.9	9.68e-05	0	43	0	1029701632	23	4996
2026-01-14 10:16:14.68	345.01	25.49	-31.0	-33.7	13.0	3.81e-05	0	43	0	1031798784	23	4908
2026-01-14 10:16:15.69	344.98	25.32	-31.0	-33.7	13.0	4.88e-05	0	43	0	1033895936	23	4903
2026-01-14 10:16:16.70	344.95	25.16	-31.0	-33.6	13.1	3.58e-05	0	43	0	1035993088	23	4869
2026-01-14 10:16:17.70	344.92	25.01	-31.0	-33.6	13.0	3.66e-05	0	43	0	1037041664	23	4882
2026-01-14 10:16:18.71	344.90	24.85	-31.2	-34.2	12.7	4.88e-05	0	43	0	1039138816	23	5093
2026-01-14 10:16:19.71	344.87	24.69	-31.1	-33.9	12.9	7.85e-05	0	43	0	1041235968	23	4987
2026-01-14 10:16:20.72	344.84	24.53	-30.9	-33.5	13.1	4.27e-05	0	43	0	1043333120	23	4837
2026-01-14 10:16:21.72	344.82	24.38	-30.9	-33.3	13.2	1.98e-05	0	43	0	1045430272	23	4777
2026-01-14 10:16:22.73	344.79	24.22	-30.9	-33.3	13.2	1.98e-05	0	42	0	1046478848	23	4779
2026-01-14 10:16:23.73	344.76	24.07	-30.9	-33.4	13.2	1.98e-05	0	43	0	1048576000	23	4819
2026-01-14 10:16:24.74	344.74	23.92	-31.0	-33.8	12.9	3.58e-05	0	43	0	1050673152	23	4947
2026-01-14 10:16:25.74	344.71	23.77	-31.0	-33.6	13.0	4.27e-05	0	43	0	1052770304	23	4893
2026-01-14 10:16:26.73	344.69	23.62	-30.9	-33.6	13.1	3.81e-05	0	43	0	1054867456	23	4864
2026-01-14 10:16:27.74	344.66	23.47	-31.0	-33.7	12.9	4.04e-05	0	43	0	1055916032	23	4927
2026-01-14 10:16:28.74	344.64	23.32	-31.0	-33.6	13.0	2.82e-05	0	43	0	1058013184	23	4877
2026-01-14 10:16:29.74	344.62	23.17	-31.0	-33.8	12.9	3.58e-05	0	43	0	1060110336	23	4960
2026-01-14 10:16:30.75	344.59	23.02	-31.0	-33.6	13.0	6.10e-05	0	43	0	1062207488	23	4888
2026-01-14 10:16:31.75	344.57	22.88	-31.1	-33.9	12.8	5.64e-05	0	42	0	1064304640	23	4988
2026-01-14 10:16:32.75	344.55	22.73	-31.0	-33.7	12.9	7.09e-05	0	43	0	1065353216	23	4924
2026-01-14 10:16:33.76	344.52	22.59	-30.9	-33.4	13.2	3.28e-05	0	43	0	1067450368	23	4799
2026-01-14 10:16:34.76	344.50	22.44	-30.7	-33.5	13.4	1.75e-05	0	43	0	1069547520	22	4946
2026-01-14 10:16:35.76	344.48	22.30	-30.7	-33.5	13.4	9.10e-06	0	43	0	1071644672	22	4951
2026-01-14 10:16:36.77	344.45	22.16	-30.9	-33.8	13.2	2.13e-05	0	43	0	1072693248	22	5052
2026-01-14 10:16:37.77	344.43	22.02	-30.9	-33.8	13.2	2.82e-05	0	42	0	1074790400	22	5072
2026-01-14 10:16:38.77	344.41	21.87	-30.9	-33.9	13.1	2.36e-05	0	43	0	1076887552	22	5081
2026-01-14 10:16:39.78	344.39	21.73	-30.8	-33.6	13.3	1.14e-05	0	42	0	1078984704	22	4980
2026-01-14 10:16:40.78	344.37	21.60	-30.7	-33.5	13.4	1.44e-05	0	43	0	1081081856	22	4942
2026-01-14 10:16:41.78	344.35	21.46	-30.7	-33.5	13.4	7.60e-06	0	43	0	1082130432	22	4946
2026-01-14 10:16:42.78	344.33	21.32	-30.8	-33.6	13.3	1.67e-05	0	43	0	1084227584	22	4972
2026-01-14 10:16:43.79	344.31	21.18	-30.8	-33.7	13.2	1.37e-05	0	42	0	1086324736	22	5030
2026-01-14 10:16:44.78	344.28	21.05	-30.8	-33.7	13.2	2.97e-05	0	43	0	1088421888	22	5035
2026-01-14 10:16:45.79	344.26	20.91	-30.9	-34.0	13.0	3.12e-05	0	43	0	1090519040	22	5120
2026-01-14 10:16:46.79	344.24	20.78	-30.9	-33.9	13.1	3.58e-05	0	43	0	1091567616	22	5092
2026-01-14 10:16:47.79	344.22	20.64	-31.0	-34.2	12.9	2.97e-05	0	42	0	1093664768	22	5206
2026-01-14 10:16:48.80	344.20	20.51	-31.0	-34.2	12.9	6.25e-05	0	42	0	1095761920	22	5201
2026-01-14 10:16:49.81	344.19	20.38	-30.9	-33.9	13.0	3.73e-05	0	43	0	1097859072	22	5103
2026-01-14 10:16:50.80	344.17	20.25	-31.0	-34.3	12.8	3.89e-05	0	43	0	1099956224	22	5270
2026-01-14 10:16:51.81	344.15	20.11	-31.1	-34.5	12.7	8.31e-05	0	43	0	1101004800	22	5329
2026-01-14 10:16:52.81	344.13	19.98	-31.0	-34.3	12.8	6.25e-05	0	42	0	1103101952	22	5247
2026-01-14 10:16:53.82	344.11	19.85	-31.0	-34.4	12.7	6.10e-05	0	43	0	1105199104	22	5289
2026-01-14 10:16:54.82	344.09	19.72	-31.0	-34.4	12.7	5.95e-05	0	42	0	1107296256	22	5279
2026-01-14 10:16:55.83	344.07	19.59	-31.1	-34.6	12.5	8.08e-05	0	42	0	1109393408	22	5396
2026-01-14 10:16:56.83	344.05	19.47	-31.1	-34.7	12.5	1.26e-04	0	42	0	1110441984	22	5422
2026-01-14 10:16:57.83	344.04	19.34	-31.2	-34.7	12.5	1.28e-04	0	42	0	1112539136	22	5438
2026-01-14 10:16:58.83	344.02	19.21	-31.2	-34.9	12.3	1.67e-04	0	42	0	1114636288	22	5517
2026-01-14 10:16:59.84	344.00	19.09	-31.2	-35.0	12.3	1.79e-04	0	43	0	1116733440	22	5549
2026-01-14 10:17:00.84	343.98	18.96	-31.2	-34.9	12.3	1.90e-04	0	42	0	1118830592	22	5500
2026-01-14 10:17:01.84	343.97	18.84	-31.4	-35.4	12.0	2.14e-04	0	42	0	1119879168	22	5718
2026-01-14 10:17:02.84	343.95	18.71	-31.3	-35.1	12.2	3.23e-04	0	42	0	1121976320	22	5591
2026-01-14 10:17:03.84	343.93	18.59	-31.2	-34.9	12.3	1.79e-04	0	43	0	1124073472	22	5514
2026-01-14 10:17:04.84	343.92	18.47	-31.2	-35.0	12.2	1.84e-04	0	43	0	1126170624	22	5556
2026-01-14 10:17:05.85	343.90	18.35	-31.2	-34.9	12.3	1.73e-04	0	42	0	1128267776	22	5525
2026-01-14 10:17:06.85	343.88	18.22	-31.3	-35.2	12.0	2.55e-04	0	42	0	1129316352	22	5640
2026-01-14 10:17:07.86	343.87	18.10	-31.3	-35.1	12.2	3.03e-04	0	43	0	1131413504	22	5590
2026-01-14 10:17:08.86	343.85	17.98	-31.2	-35.0	12.2	2.45e-04	0	43	0	1133510656	22	5552
2026-01-14 10:17:09.86	343.84	17.86	-31.2	-34.8	12.3	1.90e-04	0	42	0	1135607808	22	5486
2026-01-14 10:17:10.87	343.82	17.74	-31.2	-34.9	12.3	2.23e-04	0	42	0	1136656384	22	5510
2026-01-14 10:17:11.87	343.80	17.62	-31.2	-35.0	12.2	2.31e-04	0	43	0	1138753536	22	5574
2026-01-14 10:17:12.87	343.79	17.51	-31.2	-35.0	12.2	2.08e-04	0	43	0	1140850688	22	5558
2026-01-14 10:17:13.87	343.77	17.39	-31.3	-35.2	12.0	2.68e-04	0	43	0	1142947840	22	5664
2026-01-14 10:17:14.87	343.76	17.27	-31.3	-35.2	12.0	3.33e-04	0	42	0	1145044992	22	5640
2026-01-14 10:17:15.87	343.74	17.16	-31.3	-35.1	12.1	2.75e-04	0	42	0	1146093568	22	5622
2026-01-14 10:17:16.88	343.73	17.04	-31.5	-35.8	11.6	5.80e-04	0	43	0	1148190720	22	5901
2026-01-14 10:17:17.88	343.71	16.92	-31.4	-34.9	11.9	6.11e-04	0	43	0	1150287872	23	5430
2026-01-14 10:17:18.88	343.70	16.81	-31.3	-34.7	11.9	4.03e-04	0	43	0	1152385024	23	5356
2026-01-14 10:17:19.89	343.69	16.70	-31.3	-34.8	11.9	4.11e-04	0	43	0	1154482176	23	5383
2026-01-14 10:17:20.89	343.67	16.58	-31.3	-34.8	11.9	3.34e-04	0	43	0	1155530752	23	5391
2026-01-14 10:17:21.90	343.66	16.47	-31.4	-35.1	11.8	4.51e-04	0	42	0	1157627904	23	5485
2026-01-14 10:17:22.90	343.64	16.36	-31.4	-35.1	11.6	6.48e-04	0	43	0	1159725056	23	5526
2026-01-14 10:17:23.90	343.63	16.24	-31.4	-35.0	11.8	4.97e-04	0	43	0	1161822208	23	5461
2026-01-14 10:17:24.90	343.62	16.13	-31.4	-35.0	11.7	5.46e-04	0	43	0	1163919360	23	5484
2026-01-14 10:17:25.90	343.60	16.02	-31.4	-35.0	11.7	5.20e-04	0	42	0	1164967936	23	5485
2026-01-14 10:17:26.90	343.59	15.91	-31.4	-35.2	11.6	6.37e-04	0	43	0	1167065088	23	5558
2026-01-14 10:17:27.91	343.58	15.80	-31.5	-35.4	11.5	7.69e-04	0	43	0	1169162240	23	5637
2026-01-14 10:17:28.91	343.56	15.69	-31.5	-35.4	11.4	9.31e-04	0	43	0	1171259392	23	5635
2026-01-14 10:17:29.92	343.55	15.58	-31.5	-35.4	11.5	8.72e-04	0	42	0	1173356544	23	5630
2026-01-14 10:17:30.91	343.54	15.47	-31.5	-35.4	11.4	7.90e-04	0	43	0	1174405120	23	5669
2026-01-14 10:17:31.91	343.52	15.37	-31.5	-35.5	11.3	9.57e-04	0	43	0	1176502272	23	5709
2026-01-14 10:17:32.91	343.51	15.26	-31.6	-35.9	11.1	1.10e-03	0	42	0	1178599424	23	5878
2026-01-14 10:17:33.92	343.50	15.15	-31.7	-36.1	10.9	2.21e-03	0	42	0	1180696576	23	5989
2026-01-14 10:17:34.91	343.49	15.05	-31.6	-35.9	11.0	1.93e-03	0	43	0	1181745152	23	5861
2026-01-14 10:17:35.92	343.47	14.94	-31.7	-36.1	10.9	1.96e-03	0	42	0	1183842304	23	5981
2026-01-14 10:17:36.92	343.46	14.83	-31.7	-36.0	10.9	2.25e-03	0	42	0	1185939456	23	5922
2026-01-14 10:17:37.93	343.45	14.73	-31.6	-35.8	11.1	1.99e-03	0	43	0	1188036608	23	5837
2026-01-14 10:17:38.93	343.44	14.62	-31.6	-35.9	11.0	1.73e-03	0	42	0	1190133760	23	5899
2026-01-14 10:17:39.93	343.43	14.52	-31.6	-35.9	11.0	1.90e-03	0	43	0	1191182336	23	5904
2026-01-14 10:17:40.94	343.41	14.41	-31.5	-35.4	11.3	1.46e-03	0	43	0	1193279488	23	5676
2026-01-14 10:17:41.94	343.40	14.31	-31.5	-35.5	11.2	1.15e-03	0	42	0	1195376640	23	5707
2026-01-14 10:17:42.94	343.39	14.21	-31.5	-35.5	11.3	1.14e-03	0	43	0	1197473792	23	5698
2026-01-14 10:17:43.94	343.38	14.10	-31.6	-35.7	11.1	1.43e-03	0	43	0	1199570944	23	5816
2026-01-14 10:17:44.94	343.37	14.00	-31.5	-35.5	11.2	1.59e-03	0	43	0	1200619520	23	5723
2026-01-14 10:17:45.95	343.36	13.90	-31.4	-35.1	11.5	1.21e-03	0	43	0	1202716672	23	5535
2026-01-14 10:17:46.95	343.35	13.80	-31.4	-35.3	11.4	7.19e-04	0	43	0	1204813824	23	5622
2026-01-14 10:17:47.95	343.33	13.70	-31.4	-35.3	11.3	9.53e-04	0	43	0	1206910976	23	5634
2026-01-14 10:17:48.96	343.32	13.60	-31.3	-35.1	11.5	9.85e-04	0	42	0	1209008128	23	5538
2026-01-14 10:17:49.96	343.31	13.50	-31.4	-35.3	11.4	9.12e-04	0	42	0	1210056704	23	5626
2026-01-14 10:17:50.96	343.30	13.40	-31.4	-35.2	11.5	9.92e-04	0	43	0	1212153856	23	5567
2026-01-14 10:17:51.97	343.29	13.30	-31.4	-35.3	11.4	8.89e-04	0	43	0	1214251008	23	5617
2026-01-14 10:17:52.97	343.28	13.20	-31.5	-35.4	11.2	1.14e-03	0	42	0	1216348160	23	5696
2026-01-14 10:17:53.97	343.27	13.10	-31.6	-35.8	10.9	1.83e-03	0	43	0	1218445312	23	5871
2026-01-14 10:17:54.98	343.26	13.00	-31.6	-35.8	11.0	1.86e-03	0	43	0	1219493888	23	5854
2026-01-14 10:17:55.97	343.25	12.91	-31.6	-36.0	10.8	1.90e-03	0	43	0	1221591040	23	5954
2026-01-14 10:17:56.98	343.24	12.81	-31.5	-35.7	11.0	1.86e-03	0	43	0	1223688192	23	5816
2026-01-14 10:17:57.98	343.23	12.71	-31.6	-35.8	11.0	2.05e-03	0	43	0	1225785344	23	5849
2026-01-14 10:17:58.98	343.22	12.61	-31.7	-36.1	10.7	2.87e-03	0	43	0	1226833920	23	6017
2026-01-14 10:17:59.99	343.21	12.52	-31.6	-35.9	10.8	2.66e-03	0	43	0	1228931072	23	5915
2026-01-14 10:18:00.99	343.20	12.42	-31.8	-36.5	10.4	3.27e-03	0	43	0	1231028224	23	6187
2026-01-14 10:18:01.99	343.19	12.33	-31.7	-36.2	10.6	4.19e-03	0	42	0	1233125376	23	6058
2026-01-14 10:18:03.00	343.18	12.23	-31.6	-36.0	10.8	2.56e-03	0	43	0	1235222528	23	5954
2026-01-14 10:18:04.00	343.17	12.14	-31.6	-35.8	10.9	2.40e-03	0	43	0	1237319680	23	5874
2026-01-14 10:18:05.00	343.16	12.04	-31.5	-35.8	10.9	2.17e-03	0	43	0	1238368256	23	5864
2026-01-14 10:18:06.01	343.15	11.95	-31.6	-35.9	10.8	2.31e-03	0	42	0	1240465408	23	5910
2026-01-14 10:18:07.01	343.14	11.85	-31.5	-35.8	10.8	2.35e-03	0	43	0	1242562560	23	5882
2026-01-14 10:18:08.01	343.13	11.76	-31.5	-35.7	10.9	2.40e-03	0	42	0	1244659712	23	5825
2026-01-14 10:18:09.02	343.13	11.67	-31.6	-35.9	10.8	2.35e-03	0	43	0	1245708288	23	5931
2026-01-14 10:18:10.02	343.12	11.58	-31.5	-35.8	10.8	2.72e-03	0	43	0	1247805440	23	5869
2026-01-14 10:18:11.02	343.11	11.48	-31.6	-35.9	10.8	2.60e-03	0	42	0	1249902592	23	5947
2026-01-14 10:18:12.03	343.10	11.39	-31.6	-36.0	10.7	2.91e-03	0	43	0	1251999744	23	5955
2026-01-14 10:18:13.03	343.09	11.30	-31.6	-36.0	10.7	2.85e-03	0	43	0	1254096896	23	5982
2026-01-14 10:18:14.03	343.08	11.21	-31.7	-36.2	10.5	3.47e-03	0	43	0	1255145472	23	6091
2026-01-14 10:18:15.03	343.07	11.12	-31.7	-36.3	10.4	4.21e-03	0	43	0	1257242624	23	6110
2026-01-14 10:18:16.04	343.06	11.03	-31.6	-36.1	10.6	3.70e-03	0	43	0	1259339776	23	6030
2026-01-14 10:18:17.05	343.06	10.94	-31.7	-36.5	10.3	4.70e-03	0	43	0	1261436928	23	6247
2026-01-14 10:18:18.05	343.05	10.85	-31.7	-36.5	10.3	5.36e-03	0	42	0	1263534080	23	6223
2026-01-14 10:18:19.05	343.04	10.76	-31.7	-36.5	10.3	5.23e-03	0	43	0	1264582656	23	6244
2026-01-14 10:18:20.05	343.03	10.67	-31.8	-36.7	10.1	6.07e-03	0	43	0	1266679808	23	6326
2026-01-14 10:18:21.06	343.02	10.58	-31.7	-36.6	10.2	6.05e-03	0	43	0	1268776960	23	6294
2026-01-14 10:18:22.07	343.01	10.49	-31.8	-36.6	10.1	6.59e-03	0	43	0	1270874112	23	6315
2026-01-14 10:18:23.07	343.01	10.40	-31.8	-36.7	10.0	7.03e-03	0	42	0	1272971264	23	6368
2026-01-14 10:18:24.06	343.00	10.31	-31.8	-36.7	10.0	8.20e-03	0	43	0	1274019840	23	6379
2026-01-14 10:18:25.07	342.99	10.23	-31.7	-36.6	10.1	6.05e-03	0	43	0	1276116992	23	6283
2026-01-14 10:18:26.07	342.98	10.14	-31.8	-37.0	9.8	8.56e-03	0	43	0	1278214144	23	6501
2026-01-14 10:18:27.07	342.98	10.05	-31.8	-36.7	10.0	9.52e-03	0	42	0	1280311296	23	6357
2026-01-14 10:18:28.07	342.97	9.97	-31.7	-36.5	10.1	6.84e-03	0	43	0	1282408448	23	6251
