passes_logs/2026/01/14/R2M6_AANII_01/R2M6_AANII_01__20260114_233449_SUOMI_NPP_rec.log

#Pass ID: 20260114_233449_SUOMI NPP
#Satellite: SUOMI NPP
#Configuration: NPP
#almurnet v.1.7.20240730
#Start time: 2026-01-14 23:34:49

#Version: 2.2.20231116
#Station: R2M6_AANII_01
#Location: 30.233357 lon 59.946436 lat
#TLE: 1 37849U 11061A   26014.11719687  .00000048  00000+0  43625-4 0  9998
#TLE: 2 37849  98.7809 316.1734 0002474  65.2440 294.8994 14.19525043736585

#Time	Az	El	Level	Level2	SNR	BER	BlckErr	Temp	State	Recorded	gain1	gain2
2026-01-14 23:34:49.77	23.26	7.00	-31.5	-35.9	5.0	1.29e+00	0	41	0	0	23	6018
2026-01-14 23:34:50.78	23.32	7.07	-31.9	-38.2	4.6	1.36e+00	0	41	104	0	23	7405
2026-01-14 23:34:51.78	23.37	7.14	-31.8	-37.2	6.9	2.39e-01	0	41	0	0	23	6736
2026-01-14 23:34:52.78	23.42	7.22	-31.9	-37.9	6.5	1.84e-01	0	41	0	1048576	23	7165
2026-01-14 23:34:53.78	23.47	7.29	-31.8	-37.5	6.8	2.31e-01	0	41	0	3145728	23	6874
2026-01-14 23:34:54.78	23.52	7.37	-31.7	-36.9	7.2	1.41e-01	0	41	0	5242880	23	6528
2026-01-14 23:34:55.77	23.57	7.44	-31.6	-36.5	7.5	1.25e-01	0	41	0	7340032	23	6267
2026-01-14 23:34:56.78	23.62	7.51	-31.5	-35.9	8.0	8.30e-02	0	41	0	9437184	23	5975
2026-01-14 23:34:57.78	23.68	7.59	-31.5	-35.9	8.0	7.66e-02	0	41	0	10485760	23	5919
2026-01-14 23:34:58.79	23.73	7.66	-31.5	-36.2	8.2	5.48e-02	0	41	0	12582912	22	6170
2026-01-14 23:34:59.79	23.78	7.74	-31.5	-35.8	8.1	5.30e-02	0	41	0	14680064	23	5889
2026-01-14 23:35:00.79	23.84	7.81	-31.4	-35.1	8.6	4.34e-02	0	41	0	16777216	23	5550
2026-01-14 23:35:01.80	23.89	7.89	-31.3	-35.3	8.9	3.59e-02	0	41	0	17825792	22	5704
2026-01-14 23:35:02.81	23.94	7.97	-31.2	-35.1	9.0	2.26e-02	0	41	0	19922944	22	5624
2026-01-14 23:35:03.81	24.00	8.04	-31.4	-35.9	8.5	3.60e-02	0	41	0	22020096	22	6025
2026-01-14 23:35:04.81	24.05	8.12	-31.3	-34.9	8.8	5.12e-02	0	41	0	24117248	23	5462
2026-01-14 23:35:05.81	24.11	8.19	-31.1	-34.6	9.4	2.48e-02	0	41	0	26214400	22	5400
2026-01-14 23:35:06.81	24.16	8.27	-31.0	-34.2	9.7	1.46e-02	0	42	0	27262976	22	5222
2026-01-14 23:35:07.82	24.22	8.35	-30.9	-34.3	10.0	8.06e-03	0	41	0	29360128	21	5346
2026-01-14 23:35:08.82	24.27	8.42	-30.9	-34.5	9.9	9.51e-03	0	41	0	31457280	21	5417
2026-01-14 23:35:09.82	24.33	8.50	-30.9	-34.4	10.0	8.90e-03	0	42	0	33554432	21	5396
2026-01-14 23:35:10.82	24.38	8.58	-30.9	-34.4	9.9	8.80e-03	0	41	0	35651584	21	5393
2026-01-14 23:35:11.82	24.44	8.65	-31.1	-34.5	9.6	9.96e-03	0	41	0	36700160	22	5318
2026-01-14 23:35:12.82	24.50	8.73	-31.1	-34.4	9.6	1.18e-02	0	42	0	38797312	22	5306
2026-01-14 23:35:13.82	24.55	8.81	-31.2	-35.0	9.2	1.92e-02	0	41	0	40894464	22	5563
2026-01-14 23:35:14.83	24.61	8.89	-31.2	-34.8	9.4	1.76e-02	0	42	0	42991616	22	5459
2026-01-14 23:35:15.83	24.67	8.97	-31.2	-35.0	9.2	1.37e-02	0	42	0	45088768	22	5578
2026-01-14 23:35:16.84	24.72	9.05	-31.2	-34.9	9.3	2.07e-02	0	42	0	46137344	22	5482
2026-01-14 23:35:17.85	24.78	9.13	-31.1	-34.5	9.6	1.35e-02	0	42	0	48234496	22	5341
2026-01-14 23:35:18.85	24.84	9.20	-31.4	-35.7	8.7	1.90e-02	0	42	0	50331648	22	5892
2026-01-14 23:35:19.86	24.90	9.28	-31.2	-34.8	9.4	2.12e-02	0	42	0	52428800	22	5462
2026-01-14 23:35:20.86	24.96	9.36	-31.1	-34.4	9.8	1.46e-02	0	42	0	54525952	22	5266
2026-01-14 23:35:21.85	25.02	9.44	-31.0	-34.0	10.1	1.03e-02	0	42	0	55574528	22	5103
2026-01-14 23:35:22.85	25.08	9.52	-30.8	-34.1	10.3	5.74e-03	0	42	0	57671680	21	5226
2026-01-14 23:35:23.85	25.14	9.60	-30.8	-34.0	10.4	4.70e-03	0	42	0	59768832	21	5179
2026-01-14 23:35:24.85	25.20	9.68	-30.6	-33.3	10.9	4.12e-03	0	42	0	61865984	21	4903
2026-01-14 23:35:25.86	25.26	9.76	-30.5	-32.9	11.2	2.22e-03	0	42	0	62914560	21	4752
2026-01-14 23:35:26.86	25.32	9.84	-30.4	-33.1	11.4	9.73e-04	0	42	0	65011712	20	4911
2026-01-14 23:35:27.86	25.38	9.93	-30.4	-33.1	11.5	6.65e-04	0	42	0	67108864	20	4892
2026-01-14 23:35:28.87	25.44	10.01	-30.5	-32.7	11.3	1.47e-03	0	42	0	69206016	21	4675
2026-01-14 23:35:29.87	25.50	10.09	-30.6	-33.3	11.0	1.79e-03	0	42	0	71303168	21	4896
2026-01-14 23:35:30.88	25.56	10.17	-30.6	-33.1	11.0	1.51e-03	0	42	0	73400320	21	4802
2026-01-14 23:35:31.88	25.62	10.25	-30.5	-32.9	11.2	1.61e-03	0	42	0	74448896	21	4751
2026-01-14 23:35:32.88	25.69	10.34	-30.6	-33.0	11.2	1.71e-03	0	42	0	76546048	21	4784
2026-01-14 23:35:33.89	25.75	10.42	-30.9	-34.1	10.4	3.26e-03	0	42	0	78643200	21	5224
2026-01-14 23:35:34.89	25.81	10.50	-30.8	-33.6	10.7	3.99e-03	0	42	0	80740352	21	5019
2026-01-14 23:35:35.89	25.88	10.58	-30.5	-32.9	11.3	2.15e-03	0	42	0	81788928	21	4753
2026-01-14 23:35:36.89	25.94	10.67	-30.3	-32.8	11.7	1.20e-03	0	42	0	83886080	20	4789
2026-01-14 23:35:37.89	26.00	10.75	-30.4	-33.1	11.5	7.57e-04	0	42	0	85983232	20	4914
2026-01-14 23:35:38.89	26.07	10.83	-30.5	-33.2	11.4	9.27e-04	0	42	0	88080384	20	4941
2026-01-14 23:35:39.89	26.13	10.92	-30.5	-32.7	11.4	1.00e-03	0	42	0	90177536	21	4668
2026-01-14 23:35:40.90	26.20	11.00	-30.3	-32.1	11.8	4.29e-04	0	42	0	91226112	21	4449
2026-01-14 23:35:41.91	26.26	11.09	-30.3	-32.6	11.9	4.12e-04	0	42	0	93323264	20	4717
2026-01-14 23:35:42.92	26.33	11.17	-30.3	-32.7	11.8	3.79e-04	0	42	0	95420416	20	4740
2026-01-14 23:35:43.91	26.40	11.26	-30.3	-32.7	11.9	3.91e-04	0	42	0	97517568	20	4754
2026-01-14 23:35:44.91	26.46	11.34	-30.4	-32.9	11.7	5.36e-04	0	42	0	99614720	20	4826
2026-01-14 23:35:45.91	26.53	11.43	-30.3	-32.6	11.9	5.08e-04	0	42	0	100663296	20	4713
2026-01-14 23:35:46.91	26.60	11.52	-30.1	-32.0	12.4	3.68e-04	0	42	0	102760448	20	4500
2026-01-14 23:35:47.91	26.66	11.60	-30.0	-31.6	12.6	1.08e-03	0	42	0	104857600	20	4364
2026-01-14 23:35:48.92	26.73	11.69	-29.9	-32.0	12.8	8.77e-05	0	42	0	106954752	19	4571
2026-01-14 23:35:49.92	26.80	11.78	-29.9	-32.0	12.8	1.23e-04	0	42	0	108003328	19	4574
2026-01-14 23:35:50.92	26.87	11.86	-29.9	-31.6	12.7	1.02e-03	0	42	0	110100480	20	4357
2026-01-14 23:35:51.92	26.94	11.95	-30.0	-31.7	12.6	1.13e-04	0	42	0	112197632	20	4375
2026-01-14 23:35:52.93	27.01	12.04	-29.8	-31.3	12.9	6.10e-05	0	42	0	114294784	20	4249
2026-01-14 23:35:53.93	27.08	12.13	-29.8	-31.7	13.0	9.82e-04	0	42	0	116391936	19	4466
2026-01-14 23:35:54.93	27.15	12.21	-29.8	-31.5	13.1	9.97e-04	0	43	0	118489088	19	4418
2026-01-14 23:35:55.93	27.22	12.30	-29.9	-31.8	13.0	4.65e-05	0	42	0	119537664	19	4516
2026-01-14 23:35:56.93	27.29	12.39	-29.7	-31.5	13.2	3.89e-05	0	42	0	121634816	19	4394
2026-01-14 23:35:57.93	27.36	12.48	-29.8	-31.6	13.1	7.76e-04	0	42	0	123731968	19	4430
2026-01-14 23:35:58.93	27.43	12.57	-29.9	-32.0	12.9	2.44e-05	0	42	0	125829120	19	4559
2026-01-14 23:35:59.93	27.50	12.66	-29.7	-31.4	13.3	4.27e-05	0	42	0	126877696	19	4362
2026-01-14 23:36:00.94	27.58	12.75	-29.6	-31.0	13.5	5.81e-04	0	42	0	128974848	19	4236
2026-01-14 23:36:01.93	27.65	12.84	-29.6	-31.0	13.5	1.14e-05	0	42	0	131072000	19	4229
2026-01-14 23:36:02.94	27.72	12.93	-29.5	-30.7	13.7	5.30e-06	0	43	0	133169152	19	4161
2026-01-14 23:36:03.94	27.80	13.02	-29.5	-30.9	13.6	7.60e-06	0	42	0	135266304	19	4207
2026-01-14 23:36:04.94	27.87	13.11	-29.5	-30.9	13.7	8.30e-06	0	42	0	136314880	19	4198
2026-01-14 23:36:05.94	27.95	13.20	-29.7	-31.4	13.3	5.29e-04	0	42	0	138412032	19	4356
2026-01-14 23:36:06.95	28.02	13.30	-29.7	-31.4	13.3	1.52e-05	0	42	0	140509184	19	4359
2026-01-14 23:36:07.95	28.10	13.39	-29.7	-31.4	13.3	1.60e-05	0	42	0	142606336	19	4356
2026-01-14 23:36:08.96	28.18	13.48	-29.9	-31.4	12.9	5.99e-04	0	42	0	144703488	20	4272
2026-01-14 23:36:09.96	28.25	13.57	-29.9	-31.8	13.0	4.80e-05	0	43	0	145752064	19	4510
2026-01-14 23:36:10.97	28.33	13.67	-29.8	-31.6	13.2	2.28e-05	0	42	0	147849216	19	4431
2026-01-14 23:36:11.97	28.41	13.76	-29.9	-31.9	13.0	7.86e-04	0	42	0	149946368	19	4526
2026-01-14 23:36:12.98	28.49	13.85	-29.8	-31.6	13.1	5.89e-04	0	42	0	152043520	19	4440
2026-01-14 23:36:13.98	28.56	13.95	-29.9	-31.9	13.0	3.73e-05	0	43	0	154140672	19	4542
2026-01-14 23:36:14.98	28.64	14.04	-29.8	-31.7	13.1	6.38e-04	0	42	0	155189248	19	4449
2026-01-14 23:36:15.98	28.72	14.14	-29.8	-31.7	13.1	5.90e-04	0	42	0	157286400	19	4475
2026-01-14 23:36:16.98	28.80	14.23	-30.0	-32.0	12.9	4.11e-05	0	43	0	159383552	19	4574
2026-01-14 23:36:17.99	28.88	14.33	-29.9	-31.8	13.1	8.18e-04	0	43	0	161480704	19	4491
2026-01-14 23:36:18.99	28.96	14.42	-29.7	-31.4	13.3	8.62e-04	0	42	0	163577856	19	4373
2026-01-14 23:36:19.99	29.05	14.52	-29.6	-31.0	13.6	9.90e-06	0	43	0	164626432	19	4229
2026-01-14 23:36:20.99	29.13	14.61	-29.6	-30.9	13.6	1.12e-03	0	43	0	166723584	19	4222
2026-01-14 23:36:22.00	29.21	14.71	-29.6	-31.0	13.6	1.15e-03	0	43	0	168820736	19	4245
2026-01-14 23:36:23.00	29.29	14.81	-29.6	-31.0	13.6	8.30e-06	0	43	0	170917888	19	4225
2026-01-14 23:36:24.00	29.38	14.91	-29.7	-31.2	13.5	8.07e-04	0	43	0	171966464	19	4293
2026-01-14 23:36:25.00	29.46	15.00	-29.6	-31.1	13.5	1.24e-03	0	43	0	174063616	19	4270
2026-01-14 23:36:26.01	29.54	15.10	-29.7	-31.2	13.5	1.29e-05	0	43	0	176160768	19	4304
2026-01-14 23:36:27.01	29.63	15.20	-29.7	-31.3	13.5	7.67e-04	0	43	0	178257920	19	4314
2026-01-14 23:36:28.01	29.71	15.30	-29.7	-31.3	13.5	1.18e-03	0	43	0	180355072	19	4318
2026-01-14 23:36:29.02	29.80	15.40	-29.9	-31.8	13.1	3.09e-04	0	43	0	181403648	19	4476
2026-01-14 23:36:30.02	29.89	15.50	-29.9	-31.8	13.1	5.62e-04	0	43	0	183500800	19	4495
2026-01-14 23:36:31.02	29.97	15.60	-29.9	-31.8	13.1	2.21e-04	0	43	0	185597952	19	4481
2026-01-14 23:36:32.02	30.06	15.70	-30.0	-31.5	12.9	2.31e-04	0	43	0	187695104	20	4317
2026-01-14 23:36:33.02	30.15	15.80	-30.1	-32.0	12.6	5.23e-04	0	43	0	189792256	20	4467
2026-01-14 23:36:34.03	30.24	15.90	-30.0	-31.7	12.9	4.42e-04	0	43	0	190840832	20	4369
2026-01-14 23:36:35.04	30.33	16.00	-29.9	-31.4	13.0	1.15e-04	0	43	0	192937984	20	4279
2026-01-14 23:36:36.04	30.42	16.10	-30.0	-31.7	12.9	4.43e-04	0	43	0	195035136	20	4353
2026-01-14 23:36:37.04	30.51	16.20	-29.9	-31.9	13.2	3.98e-04	0	43	0	197132288	19	4497
2026-01-14 23:36:38.04	30.60	16.30	-29.9	-31.9	13.2	2.05e-05	0	43	0	199229440	19	4499
2026-01-14 23:36:39.04	30.69	16.41	-30.0	-31.5	13.0	4.48e-04	0	43	0	200278016	20	4299
2026-01-14 23:36:40.05	30.79	16.51	-29.9	-31.3	13.1	5.07e-04	0	43	0	202375168	20	4228
2026-01-14 23:36:41.05	30.88	16.61	-29.8	-31.0	13.3	3.89e-05	0	43	0	204472320	20	4149
2026-01-14 23:36:42.06	30.97	16.72	-30.0	-32.0	13.1	2.44e-05	0	43	0	206569472	19	4542
2026-01-14 23:36:43.06	31.07	16.82	-30.0	-32.0	13.1	7.71e-04	0	43	0	208666624	19	4531
2026-01-14 23:36:44.05	31.16	16.92	-30.0	-31.9	13.1	2.05e-05	0	43	0	209715200	19	4524
2026-01-14 23:36:45.05	31.26	17.03	-29.9	-31.8	13.3	2.13e-05	0	43	0	211812352	19	4459
2026-01-14 23:36:46.06	31.35	17.14	-30.0	-31.5	13.0	1.51e-03	0	43	0	213909504	20	4284
2026-01-14 23:36:47.06	31.45	17.24	-30.0	-31.9	13.2	1.01e-03	0	43	0	216006656	19	4506
2026-01-14 23:36:48.06	31.55	17.35	-30.0	-31.7	13.0	5.45e-04	0	43	0	217055232	20	4340
2026-01-14 23:36:49.06	31.64	17.45	-30.0	-31.7	12.9	1.13e-03	0	43	0	219152384	20	4345
2026-01-14 23:36:50.06	31.74	17.56	-30.0	-31.5	13.0	1.24e-03	0	43	0	221249536	20	4303
2026-01-14 23:36:51.06	31.84	17.67	-30.2	-32.1	12.6	6.48e-04	0	43	0	223346688	20	4498
2026-01-14 23:36:52.06	31.94	17.77	-30.0	-31.6	13.0	1.24e-03	0	43	0	225443840	20	4321
2026-01-14 23:36:53.06	32.04	17.88	-30.1	-31.7	12.9	9.44e-04	0	43	0	226492416	20	4364
2026-01-14 23:36:54.07	32.14	17.99	-30.1	-31.8	12.9	5.35e-04	0	43	0	228589568	20	4374
2026-01-14 23:36:55.07	32.25	18.10	-30.1	-32.0	12.8	4.90e-04	0	43	0	230686720	20	4439
2026-01-14 23:36:56.07	32.35	18.21	-30.1	-31.8	12.9	5.55e-04	0	43	0	232783872	20	4379
2026-01-14 23:36:57.08	32.45	18.32	-30.1	-31.9	12.8	4.03e-04	0	43	0	234881024	20	4430
2026-01-14 23:36:58.08	32.56	18.43	-30.2	-32.0	12.7	7.87e-04	0	43	0	235929600	20	4464
2026-01-14 23:36:59.09	32.66	18.54	-30.0	-31.4	13.1	3.14e-04	0	43	0	238026752	20	4268
2026-01-14 23:37:00.09	32.77	18.65	-30.1	-31.7	12.9	4.19e-05	0	43	0	240123904	20	4365
2026-01-14 23:37:01.09	32.87	18.76	-30.1	-31.8	12.8	2.49e-04	0	43	0	242221056	20	4392
2026-01-14 23:37:02.10	32.98	18.87	-30.1	-31.8	12.8	3.73e-05	0	43	0	244318208	20	4396
2026-01-14 23:37:03.10	33.09	18.98	-30.0	-31.6	13.0	3.35e-05	0	43	0	245366784	20	4333
2026-01-14 23:37:04.11	33.20	19.10	-30.0	-31.5	13.1	2.53e-04	0	43	0	247463936	20	4283
2026-01-14 23:37:05.11	33.31	19.21	-30.0	-31.6	13.0	3.58e-05	0	43	0	249561088	20	4323
2026-01-14 23:37:06.11	33.42	19.32	-29.9	-31.3	13.2	3.12e-05	0	43	0	251658240	20	4232
2026-01-14 23:37:07.12	33.53	19.44	-29.9	-31.3	13.2	3.20e-05	0	43	0	253755392	20	4235
2026-01-14 23:37:08.12	33.64	19.55	-30.0	-31.4	13.1	3.89e-05	0	43	0	254803968	20	4264
2026-01-14 23:37:09.13	33.75	19.67	-30.0	-31.4	13.2	3.66e-05	0	43	0	256901120	20	4264
2026-01-14 23:37:10.14	33.87	19.78	-30.1	-31.8	12.9	2.00e-04	0	43	0	258998272	20	4369
2026-01-14 23:37:11.14	33.98	19.90	-30.0	-31.6	13.1	3.84e-04	0	43	0	261095424	20	4329
2026-01-14 23:37:12.15	34.10	20.01	-29.9	-31.3	13.3	2.74e-05	0	43	0	263192576	20	4214
2026-01-14 23:37:13.15	34.21	20.13	-30.0	-31.4	13.2	1.98e-05	0	43	0	264241152	20	4240
2026-01-14 23:37:14.16	34.33	20.25	-30.0	-31.5	13.1	1.33e-03	0	43	0	266338304	20	4300
2026-01-14 23:37:15.16	34.45	20.36	-30.0	-31.5	13.1	3.17e-04	0	43	0	268435456	20	4291
2026-01-14 23:37:16.16	34.57	20.48	-30.1	-31.7	13.0	3.58e-05	0	43	0	270532608	20	4334
2026-01-14 23:37:17.16	34.69	20.60	-30.0	-31.6	13.1	7.40e-04	0	43	0	271581184	20	4326
2026-01-14 23:37:18.17	34.81	20.72	-29.9	-31.2	13.4	2.21e-05	0	43	0	273678336	20	4177
2026-01-14 23:37:19.17	34.93	20.84	-29.9	-31.1	13.4	2.05e-05	0	43	0	275775488	20	4165
2026-01-14 23:37:20.18	35.05	20.96	-30.0	-31.4	13.2	9.90e-06	0	43	0	277872640	20	4257
2026-01-14 23:37:21.18	35.17	21.08	-30.1	-31.8	13.0	2.21e-05	0	43	0	279969792	20	4359
2026-01-14 23:37:22.19	35.30	21.20	-30.1	-31.8	13.0	2.44e-05	0	43	0	282066944	20	4355
2026-01-14 23:37:23.19	35.42	21.32	-30.0	-31.4	13.2	3.66e-05	0	43	0	283115520	20	4260
2026-01-14 23:37:24.20	35.55	21.44	-30.0	-31.5	13.2	2.05e-05	0	43	0	285212672	20	4279
2026-01-14 23:37:25.21	35.68	21.56	-30.0	-31.5	13.2	5.87e-04	0	43	0	287309824	20	4287
2026-01-14 23:37:26.21	35.81	21.68	-30.0	-31.6	13.2	2.89e-05	0	43	0	289406976	20	4301
2026-01-14 23:37:27.21	35.93	21.81	-30.1	-31.8	13.1	5.64e-05	0	43	0	290455552	20	4362
2026-01-14 23:37:28.22	36.06	21.93	-30.1	-31.9	13.0	8.01e-04	0	43	0	292552704	20	4388
2026-01-14 23:37:29.22	36.20	22.05	-29.9	-31.2	13.4	2.59e-05	0	43	0	294649856	20	4177
2026-01-14 23:37:30.23	36.33	22.18	-29.9	-31.2	13.2	9.10e-06	0	43	0	296747008	20	4192
2026-01-14 23:37:31.23	36.46	22.30	-29.9	-31.3	13.3	1.29e-05	0	43	0	298844160	20	4224
2026-01-14 23:37:32.23	36.59	22.43	-29.9	-31.3	13.1	1.75e-05	0	43	0	300941312	20	4223
2026-01-14 23:37:33.23	36.73	22.55	-30.0	-31.6	13.1	1.75e-05	0	43	0	301989888	20	4300
2026-01-14 23:37:34.24	36.87	22.68	-30.3	-32.2	12.7	4.57e-05	0	43	0	304087040	20	4496
2026-01-14 23:37:35.23	37.00	22.80	-30.0	-31.5	13.2	1.20e-04	0	43	0	306184192	20	4285
2026-01-14 23:37:36.24	37.14	22.93	-30.0	-31.4	13.3	1.37e-05	0	43	0	308281344	20	4235
2026-01-14 23:37:37.23	37.28	23.05	-30.0	-31.4	13.3	1.90e-05	0	43	0	309329920	20	4250
2026-01-14 23:37:38.24	37.42	23.18	-30.0	-31.4	13.3	1.44e-05	0	43	0	311427072	20	4242
2026-01-14 23:37:39.24	37.56	23.31	-29.9	-31.2	13.5	1.46e-04	0	43	0	313524224	20	4184
2026-01-14 23:37:40.25	37.70	23.44	-29.9	-31.3	13.5	1.52e-05	0	43	0	315621376	20	4201
2026-01-14 23:37:41.25	37.85	23.57	-30.0	-31.5	13.2	2.21e-05	0	43	0	317718528	20	4270
2026-01-14 23:37:42.26	37.99	23.70	-29.9	-31.1	13.6	6.80e-06	0	43	0	318767104	20	4156
2026-01-14 23:37:43.26	38.14	23.83	-29.9	-31.6	13.6	7.60e-06	0	43	0	320864256	19	4395
2026-01-14 23:37:44.26	38.28	23.96	-29.8	-31.5	13.7	1.29e-05	0	43	0	322961408	19	4351
2026-01-14 23:37:45.27	38.43	24.09	-29.8	-31.5	13.7	7.60e-06	0	43	0	325058560	19	4352
2026-01-14 23:37:46.27	38.58	24.22	-30.0	-31.3	13.4	9.10e-06	0	43	0	327155712	20	4218
2026-01-14 23:37:47.28	38.73	24.35	-30.0	-31.4	13.3	1.06e-05	0	43	0	328204288	20	4239
2026-01-14 23:37:48.28	38.89	24.49	-29.9	-31.3	13.4	2.21e-05	0	43	0	330301440	20	4201
2026-01-14 23:37:49.28	39.04	24.62	-30.0	-31.3	13.4	1.22e-05	0	43	0	332398592	20	4211
2026-01-14 23:37:50.28	39.19	24.75	-30.0	-31.3	13.4	1.22e-05	0	43	0	334495744	20	4220
2026-01-14 23:37:51.28	39.35	24.88	-30.0	-31.5	13.3	1.75e-05	0	43	0	336592896	20	4279
2026-01-14 23:37:52.28	39.50	25.02	-30.0	-31.5	13.3	8.30e-06	0	43	0	337641472	20	4262
2026-01-14 23:37:53.28	39.66	25.15	-30.0	-31.5	13.3	6.94e-05	0	43	0	339738624	20	4258
2026-01-14 23:37:54.28	39.82	25.29	-29.9	-31.1	13.6	6.10e-06	0	43	0	341835776	20	4136
2026-01-14 23:37:55.28	39.98	25.42	-29.9	-31.1	13.6	1.14e-05	0	43	0	343932928	20	4129
2026-01-14 23:37:56.29	40.15	25.56	-29.8	-30.8	13.8	9.90e-06	0	43	0	346030080	20	4069
2026-01-14 23:37:57.29	40.31	25.69	-29.8	-30.8	13.8	9.10e-06	0	43	0	347078656	20	4042
2026-01-14 23:37:58.30	40.48	25.83	-29.7	-30.7	13.9	4.50e-06	0	43	0	349175808	20	4024
2026-01-14 23:37:59.30	40.64	25.97	-29.8	-30.8	13.9	3.43e-05	0	43	0	351272960	20	4043
2026-01-14 23:38:00.30	40.81	26.11	-29.8	-30.8	13.8	7.70e-05	0	43	0	353370112	20	4045
2026-01-14 23:38:01.30	40.98	26.24	-29.8	-30.7	13.9	5.30e-06	0	43	0	354418688	20	4034
2026-01-14 23:38:02.30	41.15	26.38	-29.7	-30.7	13.9	3.80e-06	0	43	0	356515840	20	4011
2026-01-14 23:38:03.31	41.32	26.52	-29.9	-31.1	13.6	6.25e-05	0	43	0	358612992	20	4146
2026-01-14 23:38:04.31	41.49	26.66	-30.3	-32.1	13.0	1.98e-05	0	43	0	360710144	20	4460
2026-01-14 23:38:05.31	41.67	26.80	-30.4	-32.5	12.7	5.34e-05	0	43	0	362807296	20	4600
2026-01-14 23:38:06.31	41.85	26.94	-30.3	-31.7	12.7	7.47e-05	0	43	0	363855872	21	4252
2026-01-14 23:38:07.32	42.02	27.08	-30.3	-31.7	12.9	8.08e-05	0	43	0	365953024	21	4246
2026-01-14 23:38:08.32	42.20	27.22	-30.5	-32.1	12.6	5.79e-05	0	43	0	368050176	21	4371
2026-01-14 23:38:09.32	42.38	27.37	-30.4	-31.8	12.8	5.79e-05	0	43	0	370147328	21	4274
2026-01-14 23:38:10.32	42.57	27.51	-30.3	-31.7	12.9	5.26e-05	0	43	0	372244480	21	4221
2026-01-14 23:38:11.32	42.75	27.65	-30.2	-31.4	13.2	2.44e-05	0	43	0	373293056	21	4130
2026-01-14 23:38:12.32	42.94	27.79	-30.1	-31.2	13.3	1.14e-05	0	43	0	375390208	21	4072
2026-01-14 23:38:13.32	43.12	27.94	-30.3	-31.7	13.0	9.00e-05	0	43	0	377487360	21	4235
2026-01-14 23:38:14.33	43.31	28.08	-30.3	-31.7	13.0	3.20e-05	0	43	0	379584512	21	4214
2026-01-14 23:38:15.34	43.51	28.23	-30.6	-32.5	12.5	3.43e-05	0	43	0	381681664	21	4486
2026-01-14 23:38:16.35	43.70	28.37	-30.5	-32.3	12.6	1.10e-04	0	43	0	382730240	21	4434
2026-01-14 23:38:17.35	43.90	28.52	-30.8	-33.0	12.1	1.88e-04	0	43	0	384827392	21	4651
2026-01-14 23:38:18.36	44.09	28.66	-30.8	-33.0	12.0	3.50e-04	0	43	0	386924544	21	4657
2026-01-14 23:38:19.36	44.29	28.81	-30.7	-32.7	12.3	3.08e-04	0	43	0	389021696	21	4540
2026-01-14 23:38:20.37	44.49	28.96	-30.6	-32.6	12.4	1.52e-04	0	43	0	391118848	21	4525
2026-01-14 23:38:21.36	44.69	29.10	-30.6	-32.6	12.3	2.94e-04	0	43	0	392167424	21	4531
2026-01-14 23:38:22.36	44.89	29.25	-30.6	-32.6	12.4	2.91e-04	0	43	0	394264576	21	4526
2026-01-14 23:38:23.36	45.10	29.40	-30.5	-32.2	12.7	8.54e-05	0	43	0	396361728	21	4370
2026-01-14 23:38:24.36	45.30	29.54	-30.6	-32.5	12.5	2.84e-04	0	43	0	398458880	21	4475
2026-01-14 23:38:25.36	45.51	29.69	-30.5	-32.2	12.7	2.96e-04	0	43	0	399507456	21	4392
2026-01-14 23:38:26.36	45.72	29.84	-30.4	-32.0	12.8	5.03e-05	0	43	0	401604608	21	4305
2026-01-14 23:38:27.36	45.94	29.99	-30.3	-31.8	13.0	1.01e-04	0	43	0	403701760	21	4237
2026-01-14 23:38:28.35	46.15	30.14	-30.5	-32.4	12.6	1.14e-04	0	43	0	405798912	21	4433
2026-01-14 23:38:29.36	46.37	30.29	-30.5	-32.2	12.7	5.49e-05	0	43	0	407896064	21	4388
2026-01-14 23:38:30.36	46.58	30.44	-30.5	-32.3	12.6	8.23e-05	0	43	0	408944640	21	4410
2026-01-14 23:38:31.36	46.80	30.59	-30.7	-32.8	12.3	2.16e-04	0	43	0	411041792	21	4591
2026-01-14 23:38:32.36	47.03	30.74	-30.9	-33.3	12.0	2.10e-04	0	43	0	413138944	21	4748
2026-01-14 23:38:33.37	47.25	30.89	-31.1	-33.4	11.5	4.60e-04	0	43	0	415236096	22	4709
2026-01-14 23:38:34.37	47.48	31.04	-31.0	-33.3	11.7	1.10e-03	0	43	0	417333248	22	4662
2026-01-14 23:38:35.37	47.71	31.19	-31.3	-34.2	11.1	1.14e-03	0	43	0	418381824	22	4990
2026-01-14 23:38:36.37	47.94	31.35	-30.9	-32.9	11.9	6.77e-04	0	43	0	420478976	22	4515
2026-01-14 23:38:37.37	48.17	31.50	-30.7	-32.3	12.4	5.32e-04	0	43	0	422576128	22	4318
2026-01-14 23:38:38.38	48.41	31.65	-30.9	-32.8	12.0	1.95e-04	0	43	0	424673280	22	4490
2026-01-14 23:38:39.39	48.64	31.81	-31.0	-33.0	11.9	2.06e-04	0	43	0	426770432	22	4558
2026-01-14 23:38:40.40	48.89	31.96	-31.0	-33.0	11.9	4.50e-04	0	43	0	427819008	22	4554
2026-01-14 23:38:41.40	49.13	32.11	-30.8	-32.4	12.2	2.55e-04	0	43	0	429916160	22	4357
2026-01-14 23:38:42.40	49.37	32.27	-30.5	-31.7	12.7	1.33e-04	0	43	0	432013312	22	4132
2026-01-14 23:38:43.40	49.62	32.42	-30.3	-31.1	13.1	6.02e-05	0	43	0	434110464	22	3952
2026-01-14 23:38:44.40	49.86	32.58	-30.3	-31.7	13.1	3.43e-05	0	43	0	436207616	21	4209
2026-01-14 23:38:45.41	50.12	32.73	-30.4	-31.8	13.0	3.28e-05	0	43	0	437256192	21	4250
2026-01-14 23:38:46.40	50.37	32.88	-30.4	-31.9	12.9	3.28e-05	0	43	0	439353344	21	4272
2026-01-14 23:38:47.40	50.62	33.04	-30.5	-32.3	12.7	5.72e-05	0	43	0	441450496	21	4412
2026-01-14 23:38:48.40	50.88	33.19	-30.7	-32.9	12.3	2.33e-04	0	43	0	443547648	21	4595
2026-01-14 23:38:49.41	51.14	33.35	-30.8	-33.0	12.2	2.27e-04	0	43	0	444596224	21	4654
2026-01-14 23:38:50.41	51.41	33.50	-30.8	-33.0	12.2	2.79e-04	0	43	0	446693376	21	4639
2026-01-14 23:38:51.41	51.67	33.66	-30.9	-33.2	12.1	3.88e-04	0	43	0	448790528	21	4714
2026-01-14 23:38:52.42	51.94	33.82	-30.8	-33.1	12.1	5.52e-04	0	43	0	450887680	21	4674
2026-01-14 23:38:53.43	52.21	33.97	-30.8	-33.0	12.2	2.65e-04	0	43	0	452984832	21	4658
2026-01-14 23:38:54.43	52.49	34.13	-30.7	-32.6	12.6	1.14e-04	0	43	0	454033408	21	4504
2026-01-14 23:38:55.43	52.76	34.28	-30.6	-32.6	12.5	4.94e-04	0	43	0	456130560	21	4497
2026-01-14 23:38:56.44	53.04	34.44	-30.8	-32.9	12.4	1.80e-04	0	43	0	458227712	21	4601
2026-01-14 23:38:57.45	53.32	34.60	-31.1	-33.5	11.6	4.46e-04	0	43	0	460324864	22	4735
2026-01-14 23:38:58.45	53.61	34.75	-31.5	-34.0	10.8	2.30e-03	0	43	0	462422016	23	4845
2026-01-14 23:38:59.45	53.89	34.91	-31.4	-33.8	10.8	2.73e-03	0	43	0	463470592	23	4764
2026-01-14 23:39:00.45	54.18	35.07	-31.4	-33.7	11.1	3.11e-03	0	43	0	465567744	23	4714
2026-01-14 23:39:01.45	54.47	35.22	-31.2	-33.7	11.4	9.22e-04	0	43	0	467664896	22	4815
2026-01-14 23:39:02.46	54.77	35.38	-30.7	-32.1	12.6	3.04e-04	0	43	0	469762048	22	4249
2026-01-14 23:39:03.47	55.07	35.54	-30.2	-31.2	13.5	9.76e-05	0	43	0	471859200	21	4056
2026-01-14 23:39:04.47	55.37	35.69	-30.1	-31.1	13.5	1.75e-05	0	43	0	472907776	21	4013
2026-01-14 23:39:05.47	55.67	35.85	-30.3	-31.6	13.2	1.98e-05	0	43	0	475004928	21	4186
2026-01-14 23:39:06.47	55.98	36.00	-30.8	-32.9	12.4	1.37e-04	0	43	0	477102080	21	4611
2026-01-14 23:39:07.48	56.29	36.16	-30.8	-33.2	12.2	1.85e-04	0	43	0	479199232	21	4701
2026-01-14 23:39:08.48	56.60	36.31	-30.9	-32.8	12.0	3.62e-04	0	43	0	481296384	22	4489
2026-01-14 23:39:09.48	56.91	36.47	-30.7	-32.1	12.6	4.90e-04	0	43	0	482344960	22	4256
2026-01-14 23:39:10.49	57.23	36.62	-30.5	-32.0	13.0	6.64e-04	0	43	0	484442112	21	4302
2026-01-14 23:39:11.49	57.55	36.78	-30.5	-32.1	12.7	5.18e-05	0	43	0	486539264	21	4345
2026-01-14 23:39:12.50	57.88	36.93	-30.5	-32.2	12.8	1.26e-04	0	43	0	488636416	21	4378
2026-01-14 23:39:13.50	58.20	37.09	-30.6	-32.4	12.7	4.74e-04	0	43	0	490733568	21	4430
2026-01-14 23:39:14.50	58.53	37.24	-30.4	-31.9	13.1	2.97e-05	0	43	0	491782144	21	4267
2026-01-14 23:39:15.49	58.86	37.39	-30.3	-32.0	13.3	1.14e-05	0	43	0	493879296	20	4391
2026-01-14 23:39:16.50	59.20	37.55	-30.2	-31.7	13.4	2.13e-05	0	43	0	495976448	20	4285
2026-01-14 23:39:17.51	59.54	37.70	-30.5	-32.5	13.0	2.36e-05	0	43	0	498073600	20	4536
2026-01-14 23:39:18.51	59.88	37.85	-30.8	-32.9	12.4	1.02e-04	0	43	0	499122176	21	4604
2026-01-14 23:39:19.51	60.23	38.00	-31.1	-33.4	11.6	4.69e-04	0	43	0	501219328	22	4675
2026-01-14 23:39:20.52	60.58	38.16	-31.9	-35.4	10.0	2.43e-03	0	43	0	503316480	23	5385
2026-01-14 23:39:21.52	60.93	38.31	-31.9	-35.3	9.9	5.37e-03	0	43	0	505413632	23	5372
2026-01-14 23:39:22.53	61.29	38.46	-31.6	-34.4	10.6	4.00e-03	0	43	0	507510784	23	4964
2026-01-14 23:39:23.52	61.64	38.61	-31.5	-34.1	10.9	3.30e-03	0	43	0	509607936	23	4839
2026-01-14 23:39:24.53	62.00	38.76	-31.7	-34.6	10.6	2.77e-03	0	43	0	510656512	23	5045
2026-01-14 23:39:25.54	62.37	38.91	-31.5	-34.1	10.9	4.38e-03	0	43	0	512753664	23	4848
2026-01-14 23:39:26.54	62.74	39.06	-31.5	-33.9	11.1	1.80e-03	0	43	0	514850816	23	4769
2026-01-14 23:39:27.54	63.11	39.20	-31.4	-33.8	11.1	1.07e-03	0	43	0	516947968	23	4749
2026-01-14 23:39:28.54	63.48	39.35	-31.5	-34.0	11.0	1.06e-03	0	43	0	517996544	23	4818
2026-01-14 23:39:29.54	63.86	39.49	-31.4	-33.6	11.2	1.88e-03	0	43	0	520093696	23	4673
2026-01-14 23:39:30.55	64.25	39.64	-31.4	-33.8	11.1	1.67e-03	0	43	0	522190848	23	4723
2026-01-14 23:39:31.55	64.63	39.78	-31.5	-34.1	10.9	1.74e-03	0	43	0	524288000	23	4834
2026-01-14 23:39:32.55	65.02	39.93	-31.4	-33.7	11.2	1.51e-03	0	43	0	526385152	23	4691
2026-01-14 23:39:33.56	65.41	40.07	-31.4	-33.7	11.1	2.16e-03	0	43	0	527433728	23	4719
2026-01-14 23:39:34.57	65.81	40.21	-31.3	-33.4	11.5	6.30e-04	0	43	0	529530880	23	4582
2026-01-14 23:39:35.57	66.21	40.35	-31.3	-33.5	11.4	8.45e-04	0	43	0	531628032	23	4617
2026-01-14 23:39:36.57	66.61	40.49	-31.4	-33.7	11.2	1.95e-03	0	43	0	533725184	23	4691
2026-01-14 23:39:37.57	67.01	40.63	-31.2	-33.0	11.7	9.20e-04	0	43	0	535822336	23	4435
2026-01-14 23:39:38.57	67.42	40.77	-31.2	-33.1	11.6	5.98e-04	0	43	0	536870912	23	4488
2026-01-14 23:39:39.58	67.84	40.91	-31.2	-33.2	11.5	6.60e-04	0	43	0	538968064	23	4525
2026-01-14 23:39:40.58	68.25	41.04	-31.1	-32.8	11.8	5.47e-04	0	43	0	541065216	23	4386
2026-01-14 23:39:41.59	68.67	41.18	-31.3	-33.4	11.5	4.48e-04	0	43	0	543162368	23	4574
2026-01-14 23:39:42.58	69.09	41.31	-31.4	-33.8	11.2	1.57e-03	0	43	0	545259520	23	4709
2026-01-14 23:39:43.58	69.52	41.44	-31.2	-33.0	11.8	8.74e-04	0	43	0	546308096	23	4445
2026-01-14 23:39:44.59	69.95	41.57	-31.0	-32.6	12.0	4.35e-04	0	43	0	548405248	23	4297
2026-01-14 23:39:45.60	70.38	41.70	-30.8	-32.4	12.5	1.52e-04	0	43	0	550502400	22	4338
2026-01-14 23:39:46.60	70.82	41.83	-30.9	-32.5	12.3	1.04e-04	0	43	0	552599552	22	4375
2026-01-14 23:39:47.61	71.26	41.96	-30.8	-32.3	12.6	1.20e-04	0	43	0	554696704	22	4296
2026-01-14 23:39:48.61	71.71	42.08	-30.7	-32.1	12.7	6.56e-05	0	43	0	555745280	22	4243
2026-01-14 23:39:49.62	72.16	42.21	-30.7	-32.0	12.7	6.63e-05	0	43	0	557842432	22	4199
2026-01-14 23:39:50.62	72.60	42.33	-30.6	-31.7	13.0	1.38e-04	0	43	0	559939584	22	4102
2026-01-14 23:39:51.63	73.06	42.45	-30.4	-31.4	13.2	1.36e-04	0	43	0	562036736	22	4004
2026-01-14 23:39:52.64	73.52	42.57	-30.4	-31.8	13.2	2.36e-05	0	43	0	564133888	21	4230
2026-01-14 23:39:53.64	73.98	42.69	-30.9	-33.2	12.3	4.95e-05	0	43	0	565182464	21	4681
2026-01-14 23:39:54.64	74.44	42.81	-30.7	-32.7	12.6	3.11e-04	0	43	0	567279616	21	4505
2026-01-14 23:39:55.64	74.91	42.92	-30.3	-31.5	13.4	1.29e-05	0	43	0	569376768	21	4143
2026-01-14 23:39:56.64	75.38	43.03	-30.4	-31.9	13.2	1.83e-05	0	43	0	571473920	21	4247
2026-01-14 23:39:57.65	75.86	43.14	-30.8	-33.0	12.5	3.96e-05	0	43	0	572522496	21	4617
2026-01-14 23:39:58.66	76.34	43.25	-30.9	-32.8	12.3	3.56e-04	0	43	0	574619648	22	4458
2026-01-14 23:39:59.66	76.82	43.36	-30.8	-32.2	12.7	2.01e-04	0	43	0	576716800	22	4267
2026-01-14 23:40:00.66	77.30	43.46	-30.5	-32.1	13.0	2.59e-05	0	43	0	578813952	21	4315
2026-01-14 23:40:01.67	77.79	43.57	-30.8	-32.8	12.6	5.87e-05	0	43	0	580911104	21	4536
2026-01-14 23:40:02.67	78.28	43.67	-30.8	-32.9	12.6	2.14e-04	0	44	0	581959680	21	4590
2026-01-14 23:40:03.68	78.77	43.77	-30.9	-33.1	12.4	1.59e-04	0	44	0	584056832	21	4640
2026-01-14 23:40:04.67	79.26	43.86	-30.8	-32.8	12.6	9.68e-05	0	43	0	586153984	21	4561
2026-01-14 23:40:05.68	79.76	43.96	-30.8	-32.5	12.5	3.42e-04	0	43	0	588251136	22	4345
2026-01-14 23:40:06.68	80.26	44.05	-31.0	-33.1	12.0	2.53e-04	0	43	0	590348288	22	4575
2026-01-14 23:40:07.69	80.77	44.14	-31.0	-32.9	12.1	2.80e-04	0	43	0	591396864	22	4500
2026-01-14 23:40:08.69	81.28	44.23	-30.7	-32.1	12.8	1.08e-04	0	43	0	593494016	22	4229
2026-01-14 23:40:09.69	81.78	44.32	-30.3	-31.4	13.4	4.73e-05	0	43	0	595591168	21	4116
2026-01-14 23:40:10.69	82.30	44.40	-30.4	-31.7	13.3	7.60e-06	0	43	0	597688320	21	4193
2026-01-14 23:40:11.69	82.81	44.48	-30.5	-32.0	13.2	3.05e-05	0	43	0	599785472	21	4286
2026-01-14 23:40:12.70	83.33	44.56	-30.6	-32.2	13.0	1.83e-05	0	43	0	600834048	21	4358
2026-01-14 23:40:13.70	83.85	44.64	-30.5	-32.0	13.1	3.20e-05	0	43	0	602931200	21	4291
2026-01-14 23:40:14.71	84.38	44.71	-30.7	-32.7	12.7	4.42e-05	0	43	0	605028352	21	4507
2026-01-14 23:40:15.72	84.91	44.79	-30.7	-32.7	12.7	1.75e-04	0	43	0	607125504	21	4514
2026-01-14 23:40:16.73	85.44	44.85	-30.6	-32.5	12.8	5.95e-05	0	43	0	609222656	21	4438
2026-01-14 23:40:17.74	85.97	44.92	-30.6	-32.4	12.9	6.63e-05	0	43	0	610271232	21	4421
2026-01-14 23:40:18.74	86.50	44.99	-30.4	-31.7	13.3	1.29e-05	0	43	0	612368384	21	4193
2026-01-14 23:40:19.75	87.04	45.05	-30.5	-31.9	13.2	1.60e-05	0	44	0	614465536	21	4258
2026-01-14 23:40:20.75	87.57	45.11	-30.8	-32.9	12.5	5.26e-05	0	43	0	616562688	21	4585
2026-01-14 23:40:21.75	88.11	45.16	-30.7	-32.5	12.8	6.10e-05	0	43	0	618659840	21	4441
2026-01-14 23:40:22.75	88.65	45.22	-30.4	-31.7	13.3	2.89e-05	0	43	0	619708416	21	4203
2026-01-14 23:40:23.75	89.19	45.27	-30.2	-31.1	13.7	4.88e-05	0	43	0	621805568	21	4011
2026-01-14 23:40:24.75	89.73	45.32	-30.0	-30.6	14.1	3.05e-05	0	44	0	623902720	21	3868
2026-01-14 23:40:25.75	90.28	45.36	-29.6	-30.1	14.6	7.00e-07	0	43	0	625999872	20	3833
2026-01-14 23:40:26.75	90.82	45.40	-29.2	-29.6	15.3	0.00e+00	0	43	0	628097024	19	3771
2026-01-14 23:40:27.75	91.37	45.44	-29.1	-29.3	15.5	1.37e-05	0	43	0	629145600	19	3703
2026-01-14 23:40:28.76	91.92	45.48	-29.4	-30.2	15.1	0.00e+00	0	44	0	631242752	19	3926
2026-01-14 23:40:29.76	92.47	45.52	-29.6	-30.7	14.7	7.01e-05	0	43	0	633339904	19	4071
2026-01-14 23:40:30.77	93.03	45.55	-30.2	-31.8	13.6	4.95e-05	0	43	0	635437056	20	4329
2026-01-14 23:40:31.78	93.58	45.58	-30.3	-32.0	13.5	1.29e-05	0	43	0	637534208	20	4376
2026-01-14 23:40:32.78	94.14	45.60	-30.4	-31.7	13.2	5.11e-05	0	43	0	638582784	21	4186
2026-01-14 23:40:33.78	94.69	45.62	-30.5	-32.0	13.2	1.22e-05	0	43	0	640679936	21	4287
2026-01-14 23:40:34.79	95.25	45.65	-30.0	-30.8	14.0	5.30e-06	0	43	0	642777088	21	3922
2026-01-14 23:40:35.79	95.80	45.66	-29.7	-30.4	14.5	0.00e+00	0	43	0	644874240	20	3907
2026-01-14 23:40:36.80	96.36	45.68	-29.8	-30.6	14.5	0.00e+00	0	44	0	646971392	20	3948
2026-01-14 23:40:37.80	96.92	45.69	-29.9	-30.9	14.2	7.00e-07	0	43	0	648019968	20	4054
2026-01-14 23:40:38.80	97.47	45.70	-30.4	-32.2	13.5	6.80e-06	0	43	0	650117120	20	4435
2026-01-14 23:40:39.80	98.03	45.70	-30.0	-31.1	14.1	5.30e-06	0	43	0	652214272	20	4105
2026-01-14 23:40:40.81	98.59	45.70	-29.7	-30.3	14.5	7.00e-07	0	43	0	654311424	20	3894
2026-01-14 23:40:41.81	99.15	45.70	-29.6	-30.1	14.8	0.00e+00	0	43	0	655360000	20	3819
2026-01-14 23:40:42.81	99.71	45.70	-29.0	-29.2	15.5	0.00e+00	0	43	0	657457152	19	3673
2026-01-14 23:40:43.82	100.27	45.69	-28.9	-28.8	15.8	0.00e+00	0	43	0	659554304	19	3581
2026-01-14 23:40:44.82	100.82	45.68	-29.1	-29.9	15.5	0.00e+00	0	44	0	661651456	18	3950
2026-01-14 23:40:45.83	101.38	45.67	-29.4	-30.6	15.1	3.00e-06	0	43	0	663748608	18	4140
2026-01-14 23:40:46.83	101.94	45.66	-29.9	-31.4	14.4	0.00e+00	0	43	0	664797184	19	4278
2026-01-14 23:40:47.84	102.50	45.64	-29.4	-30.2	15.0	5.56e-05	0	43	0	666894336	19	3927
2026-01-14 23:40:48.84	103.05	45.62	-28.9	-29.6	15.4	4.42e-05	0	43	0	668991488	18	3870
2026-01-14 23:40:49.84	103.61	45.60	-29.1	-29.9	15.3	9.90e-06	0	43	0	671088640	18	3947
2026-01-14 23:40:50.84	104.16	45.57	-29.4	-30.6	14.9	1.26e-04	0	43	0	673185792	18	4161
2026-01-14 23:40:51.85	104.72	45.54	-29.9	-31.4	14.1	1.67e-05	0	43	0	674234368	19	4292
2026-01-14 23:40:52.85	105.27	45.51	-29.7	-31.0	14.4	2.44e-05	0	43	0	676331520	19	4155
2026-01-14 23:40:53.86	105.82	45.47	-29.7	-31.0	14.4	1.14e-05	0	43	0	678428672	19	4162
2026-01-14 23:40:54.86	106.37	45.43	-30.6	-32.3	12.8	4.80e-05	0	43	0	680525824	21	4402
2026-01-14 23:40:55.86	106.92	45.39	-31.5	-34.1	10.9	4.27e-03	0	43	0	682622976	23	4840
2026-01-14 23:40:56.86	107.46	45.35	-32.0	-35.5	9.4	1.56e-02	0	43	0	683671552	24	5384
2026-01-14 23:40:57.86	108.00	45.30	-31.5	-33.5	11.0	1.58e-02	0	43	0	685768704	24	4555
2026-01-14 23:40:58.86	108.55	45.25	-30.6	-31.9	12.8	2.55e-03	0	43	0	687865856	22	4183
2026-01-14 23:40:59.86	109.09	45.20	-30.2	-31.4	13.4	1.01e-03	0	43	0	689963008	21	4105
2026-01-14 23:41:00.87	109.63	45.15	-30.6	-32.4	12.8	4.45e-04	0	43	0	692060160	21	4418
2026-01-14 23:41:01.87	110.17	45.09	-30.6	-32.3	12.6	1.42e-03	0	43	0	693108736	21	4410
2026-01-14 23:41:02.87	110.70	45.03	-30.2	-31.2	13.5	5.87e-04	0	43	0	695205888	21	4041
2026-01-14 23:41:03.87	111.24	44.97	-30.5	-32.2	12.9	5.03e-04	0	43	0	697303040	21	4347
2026-01-14 23:41:04.87	111.77	44.90	-30.7	-32.6	12.7	4.69e-04	0	43	0	699400192	21	4476
2026-01-14 23:41:05.88	112.30	44.84	-31.1	-33.3	11.9	8.79e-04	0	43	0	701497344	22	4642
2026-01-14 23:41:06.89	112.83	44.77	-30.9	-32.8	12.2	1.08e-03	0	43	0	702545920	22	4469
2026-01-14 23:41:07.90	113.36	44.69	-30.5	-31.5	13.1	3.74e-04	0	43	0	704643072	22	4032
2026-01-14 23:41:08.90	113.88	44.62	-30.0	-30.8	13.6	1.46e-04	0	43	0	706740224	21	3925
2026-01-14 23:41:09.91	114.41	44.54	-30.5	-32.1	13.0	2.73e-04	0	43	0	708837376	21	4305
2026-01-14 23:41:10.92	114.93	44.46	-30.7	-32.6	12.7	6.02e-05	0	44	0	709885952	21	4485
2026-01-14 23:41:11.92	115.44	44.38	-30.5	-32.1	13.1	4.27e-05	0	43	0	711983104	21	4304
2026-01-14 23:41:12.92	115.95	44.29	-29.9	-30.5	14.1	3.80e-06	0	43	0	714080256	21	3848
2026-01-14 23:41:13.92	116.46	44.21	-29.4	-29.7	14.9	0.00e+00	0	43	0	716177408	20	3704
2026-01-14 23:41:14.92	116.97	44.12	-29.7	-30.3	14.6	0.00e+00	0	44	0	718274560	20	3877
2026-01-14 23:41:15.92	117.47	44.03	-30.0	-31.1	14.1	2.20e-06	0	43	0	719323136	20	4088
2026-01-14 23:41:16.93	117.98	43.93	-30.0	-31.2	14.0	2.20e-06	0	44	0	721420288	20	4132
2026-01-14 23:41:17.93	118.47	43.84	-29.6	-30.1	14.6	7.00e-07	0	43	0	723517440	20	3822
2026-01-14 23:41:18.93	118.97	43.74	-29.6	-30.0	14.8	7.00e-07	0	43	0	725614592	20	3805
2026-01-14 23:41:19.94	119.46	43.64	-29.6	-30.2	14.8	0.00e+00	0	43	0	727711744	20	3837
2026-01-14 23:41:20.93	119.95	43.54	-30.3	-32.0	13.5	3.00e-06	0	43	0	728760320	20	4368
2026-01-14 23:41:21.93	120.43	43.43	-30.4	-32.3	13.3	1.14e-05	0	44	0	730857472	20	4460
2026-01-14 23:41:22.93	120.91	43.33	-31.0	-33.0	12.2	9.84e-05	0	43	0	732954624	22	4524
2026-01-14 23:41:23.94	121.40	43.22	-30.6	-31.7	13.0	6.02e-05	0	43	0	735051776	22	4108
2026-01-14 23:41:24.94	121.87	43.11	-30.0	-30.7	14.0	1.44e-05	0	43	0	737148928	21	3898
2026-01-14 23:41:25.94	122.35	43.00	-29.7	-30.5	14.4	0.00e+00	0	43	0	738197504	20	3928
2026-01-14 23:41:26.94	122.81	42.89	-30.0	-31.2	14.0	3.00e-06	0	44	0	740294656	20	4122
2026-01-14 23:41:27.94	123.28	42.77	-30.0	-31.1	14.0	1.50e-06	0	43	0	742391808	20	4112
2026-01-14 23:41:28.94	123.74	42.66	-29.6	-30.1	14.7	1.50e-06	0	44	0	744488960	20	3833
2026-01-14 23:41:29.93	124.20	42.54	-29.3	-29.4	15.1	0.00e+00	0	43	0	746586112	20	3638
2026-01-14 23:41:30.94	124.66	42.42	-29.6	-30.5	14.8	7.00e-07	0	43	0	747634688	19	4027
2026-01-14 23:41:31.94	125.11	42.30	-30.0	-31.1	14.0	0.00e+00	0	43	0	749731840	20	4112
2026-01-14 23:41:32.94	125.56	42.17	-30.2	-31.7	13.7	9.10e-06	0	43	0	751828992	20	4293
2026-01-14 23:41:33.94	126.01	42.05	-30.3	-32.0	13.5	9.90e-06	0	43	0	753926144	20	4372
2026-01-14 23:41:34.94	126.45	41.92	-29.4	-29.8	14.9	3.00e-06	0	43	0	754974720	20	3738
2026-01-14 23:41:35.94	126.89	41.80	-29.4	-30.2	15.0	0.00e+00	0	43	0	757071872	19	3931
2026-01-14 23:41:36.95	127.33	41.67	-29.7	-30.9	14.6	0.00e+00	0	43	0	759169024	19	4118
2026-01-14 23:41:37.96	127.76	41.54	-30.3	-32.0	13.4	3.80e-06	0	43	0	761266176	20	4393
2026-01-14 23:41:38.96	128.19	41.41	-30.6	-32.4	12.8	4.65e-05	0	43	0	763363328	21	4431
2026-01-14 23:41:39.96	128.62	41.27	-30.1	-30.8	13.9	2.21e-05	0	43	0	764411904	21	3943
2026-01-14 23:41:40.96	129.04	41.14	-29.7	-30.4	14.5	7.00e-07	0	43	0	766509056	20	3898
2026-01-14 23:41:41.96	129.46	41.00	-29.6	-30.0	14.7	7.00e-07	0	43	0	768606208	20	3808
2026-01-14 23:41:42.97	129.88	40.87	-30.1	-31.4	13.8	7.00e-07	0	43	0	770703360	20	4198
2026-01-14 23:41:43.97	130.29	40.73	-30.6	-32.2	13.0	2.05e-05	0	44	0	772800512	21	4348
2026-01-14 23:41:44.97	130.70	40.59	-30.5	-32.0	13.2	3.50e-05	0	43	0	773849088	21	4273
2026-01-14 23:41:45.97	131.10	40.45	-30.2	-31.2	13.6	6.80e-06	0	43	0	775946240	21	4053
2026-01-14 23:41:46.97	131.50	40.31	-30.2	-31.1	13.7	7.60e-06	0	43	0	778043392	21	4007
2026-01-14 23:41:47.98	131.91	40.17	-31.2	-33.5	11.9	6.86e-05	0	43	0	780140544	22	4691
2026-01-14 23:41:48.97	132.30	40.03	-32.1	-35.6	9.5	3.57e-03	0	43	0	782237696	24	5405
2026-01-14 23:41:49.98	132.69	39.88	-31.8	-34.6	10.2	7.74e-03	0	44	0	783286272	24	4946
2026-01-14 23:41:50.98	133.08	39.74	-30.5	-31.7	13.0	2.20e-04	0	43	0	785383424	22	4104
2026-01-14 23:41:51.98	133.46	39.59	-30.2	-31.4	13.6	3.00e-06	0	44	0	787480576	21	4101
2026-01-14 23:41:52.99	133.85	39.45	-30.9	-33.3	12.3	1.67e-05	0	43	0	789577728	21	4745
2026-01-14 23:41:54.00	134.23	39.30	-31.8	-35.2	10.2	2.68e-03	0	44	0	791674880	23	5311
2026-01-14 23:41:54.99	134.60	39.15	-32.3	-36.3	8.9	2.28e-02	0	43	0	792723456	24	5707
2026-01-14 23:41:55.99	134.97	39.01	-31.5	-33.5	11.0	8.98e-03	0	43	0	794820608	24	4546
2026-01-14 23:41:56.99	135.34	38.86	-29.8	-30.4	13.5	8.01e-05	0	43	0	796917760	21	3880
2026-01-14 23:41:57.99	135.70	38.71	-29.6	-30.2	14.6	0.00e+00	0	43	0	799014912	20	3845
2026-01-14 23:41:58.99	136.06	38.56	-30.4	-32.3	13.3	5.26e-05	0	43	0	800063488	20	4463
2026-01-14 23:42:00.00	136.42	38.41	-31.2	-33.5	11.9	1.32e-04	0	43	0	802160640	22	4696
2026-01-14 23:42:01.00	136.78	38.26	-31.8	-35.1	10.2	2.99e-03	0	43	0	804257792	23	5249
2026-01-14 23:42:02.01	137.13	38.10	-31.5	-34.0	11.0	4.48e-03	0	43	0	806354944	23	4800
2026-01-14 23:42:03.01	137.48	37.95	-30.3	-30.8	13.5	2.95e-04	0	43	0	808452096	22	3855
2026-01-14 23:42:04.02	137.83	37.80	-29.6	-30.1	14.7	7.00e-07	0	44	0	809500672	20	3810
2026-01-14 23:42:05.02	138.17	37.64	-30.2	-31.6	13.7	8.85e-05	0	43	0	811597824	20	4257
2026-01-14 23:42:06.02	138.51	37.49	-32.0	-34.9	11.1	3.93e-04	0	44	0	813694976	23	5014
2026-01-14 23:42:07.02	138.84	37.34	-32.8	-38.0	7.2	7.28e-02	0	43	0	815792128	25	6597
2026-01-14 23:42:08.03	139.18	37.18	-32.9	-38.8	6.7	2.21e-01	0	43	0	817889280	25	7067
2026-01-14 23:42:09.03	139.51	37.03	-32.1	-34.9	9.6	6.02e-02	0	43	0	818937856	25	4995
2026-01-14 23:42:10.04	139.84	36.87	-31.0	-32.4	12.2	2.72e-03	0	44	0	821035008	23	4223
2026-01-14 23:42:11.04	140.16	36.72	-30.8	-32.2	12.6	1.07e-04	0	43	0	823132160	22	4267
2026-01-14 23:42:12.05	140.48	36.56	-31.7	-34.7	10.5	8.26e-04	0	43	0	825229312	23	5088
2026-01-14 23:42:13.05	140.80	36.40	-32.3	-36.5	8.8	1.22e-02	0	43	0	827326464	24	5789
2026-01-14 23:42:14.05	141.11	36.25	-32.6	-37.1	7.9	6.33e-02	0	43	0	828375040	25	6037
2026-01-14 23:42:15.05	141.43	36.09	-32.0	-34.7	9.8	2.91e-02	0	44	0	830472192	25	4906
2026-01-14 23:42:16.05	141.73	35.94	-30.8	-31.9	12.5	1.89e-03	0	43	0	832569344	23	4088
2026-01-14 23:42:17.06	142.04	35.78	-30.1	-31.0	13.8	5.00e-04	0	43	0	834666496	21	3986
2026-01-14 23:42:18.06	142.34	35.62	-29.7	-30.5	14.4	4.80e-04	0	43	0	836763648	20	3921
2026-01-14 23:42:19.06	142.64	35.47	-30.1	-31.4	13.8	1.50e-06	0	43	0	837812224	20	4177
2026-01-14 23:42:20.06	142.94	35.31	-31.0	-33.5	12.1	1.19e-03	0	43	0	839909376	21	4792
2026-01-14 23:42:21.06	143.23	35.15	-32.1	-35.6	9.5	7.10e-03	0	43	0	842006528	24	5384
2026-01-14 23:42:22.06	143.53	35.00	-31.7	-34.0	10.6	1.15e-02	0	43	0	844103680	24	4735
2026-01-14 23:42:23.07	143.82	34.84	-30.5	-31.5	13.1	2.79e-03	0	43	0	845152256	22	4058
2026-01-14 23:42:24.06	144.10	34.69	-29.3	-29.8	15.1	1.43e-03	0	43	0	847249408	19	3826
2026-01-14 23:42:25.07	144.39	34.53	-28.9	-28.9	15.7	0.00e+00	0	43	0	849346560	19	3606
2026-01-14 23:42:26.07	144.67	34.37	-29.1	-29.9	15.4	1.66e-03	0	43	0	851443712	18	3943
2026-01-14 23:42:27.07	144.94	34.21	-29.8	-31.2	14.3	2.13e-03	0	43	0	853540864	19	4236
2026-01-14 23:42:28.07	145.22	34.06	-30.7	-32.7	12.6	4.42e-05	0	43	0	854589440	21	4521
2026-01-14 23:42:29.08	145.49	33.90	-30.5	-32.2	13.0	2.43e-03	0	43	0	856686592	21	4362
2026-01-14 23:42:30.08	145.76	33.74	-30.0	-31.3	13.8	2.05e-03	0	43	0	858783744	20	4169
2026-01-14 23:42:31.08	146.03	33.59	-29.5	-30.0	14.6	7.00e-07	0	44	0	860880896	20	3794
2026-01-14 23:42:32.08	146.30	33.43	-29.3	-29.8	15.1	0.00e+00	0	43	0	862978048	19	3832
2026-01-14 23:42:33.08	146.56	33.28	-29.2	-30.1	15.3	1.62e-03	0	43	0	864026624	18	3991
2026-01-14 23:42:34.09	146.82	33.12	-29.8	-31.0	14.4	0.00e+00	0	43	0	866123776	19	4176
2026-01-14 23:42:35.09	147.08	32.96	-30.5	-32.6	13.1	9.90e-06	0	43	0	868220928	20	4565
2026-01-14 23:42:36.09	147.33	32.81	-31.2	-33.6	11.6	1.57e-04	0	44	0	870318080	22	4749
2026-01-14 23:42:37.10	147.59	32.65	-31.2	-33.2	11.4	1.63e-03	0	43	0	872415232	23	4536
2026-01-14 23:42:38.10	147.84	32.50	-30.9	-32.7	12.2	3.67e-04	0	43	0	873463808	22	4433
2026-01-14 23:42:39.10	148.09	32.34	-30.6	-32.5	12.7	7.09e-05	0	44	0	875560960	21	4455
2026-01-14 23:42:40.11	148.34	32.19	-30.7	-32.5	12.7	5.87e-05	0	43	0	877658112	21	4453
2026-01-14 23:42:41.11	148.58	32.03	-30.2	-31.1	13.6	1.75e-05	0	44	0	879755264	21	4026
2026-01-14 23:42:42.12	148.82	31.88	-30.1	-31.4	13.7	4.50e-06	0	44	0	881852416	20	4199
2026-01-14 23:42:43.12	149.06	31.72	-30.1	-31.4	13.7	4.50e-06	0	44	0	882900992	20	4200
2026-01-14 23:42:44.12	149.30	31.57	-30.7	-32.7	12.5	2.06e-03	0	43	0	884998144	21	4523
2026-01-14 23:42:45.12	149.53	31.42	-31.2	-33.6	11.7	6.28e-04	0	43	0	887095296	22	4736
2026-01-14 23:42:46.13	149.77	31.26	-31.3	-34.0	11.3	8.77e-04	0	43	0	889192448	22	4903
2026-01-14 23:42:47.14	150.00	31.11	-30.7	-32.3	12.5	4.13e-04	0	43	0	891289600	22	4304
2026-01-14 23:42:48.14	150.23	30.95	-30.4	-32.0	13.0	7.01e-05	0	43	0	892338176	21	4306
2026-01-14 23:42:49.14	150.46	30.80	-30.5	-32.1	12.9	3.28e-05	0	43	0	894435328	21	4343
2026-01-14 23:42:50.14	150.68	30.65	-30.3	-31.5	13.2	4.50e-05	0	43	0	896532480	21	4146
2026-01-14 23:42:51.14	150.90	30.50	-29.9	-31.0	14.0	1.22e-05	0	44	0	898629632	20	4081
2026-01-14 23:42:52.14	151.12	30.35	-30.1	-31.5	13.6	6.10e-06	0	44	0	900726784	20	4243
2026-01-14 23:42:53.15	151.34	30.20	-30.1	-31.6	13.5	6.10e-06	0	43	0	901775360	20	4258
2026-01-14 23:42:54.15	151.56	30.05	-29.8	-30.7	14.1	5.30e-06	0	44	0	903872512	20	3995
2026-01-14 23:42:55.15	151.77	29.90	-29.7	-30.6	14.2	4.50e-06	0	43	0	905969664	20	3966
2026-01-14 23:42:56.15	151.98	29.75	-29.6	-30.7	14.5	7.00e-07	0	43	0	908066816	19	4085
2026-01-14 23:42:57.14	152.19	29.60	-29.5	-30.4	14.7	0.00e+00	0	43	0	909115392	19	4006
2026-01-14 23:42:58.15	152.40	29.45	-29.5	-30.4	14.7	0.00e+00	0	43	0	911212544	19	4007
2026-01-14 23:42:59.16	152.61	29.30	-29.6	-30.6	14.6	7.00e-07	0	43	0	913309696	19	4051
2026-01-14 23:43:00.15	152.81	29.15	-30.1	-31.7	13.5	2.20e-06	0	43	0	915406848	20	4305
2026-01-14 23:43:01.15	153.02	29.00	-30.7	-32.6	12.5	3.73e-05	0	43	0	917504000	21	4502
2026-01-14 23:43:02.16	153.22	28.86	-31.0	-33.6	11.9	3.20e-04	0	43	0	918552576	21	4857
2026-01-14 23:43:03.17	153.42	28.71	-31.2	-33.8	11.4	9.66e-04	0	43	0	920649728	22	4828
2026-01-14 23:43:04.17	153.62	28.56	-31.7	-35.0	10.2	2.05e-03	0	43	0	922746880	23	5221
2026-01-14 23:43:05.17	153.81	28.41	-31.5	-34.2	10.8	2.85e-03	0	43	0	924844032	23	4892
2026-01-14 23:43:06.17	154.01	28.27	-31.0	-33.1	11.8	6.69e-04	0	44	0	926941184	22	4568
2026-01-14 23:43:07.18	154.20	28.12	-30.6	-32.5	12.5	2.04e-04	0	43	0	927989760	21	4445
2026-01-14 23:43:08.18	154.39	27.98	-30.3	-32.1	12.9	5.50e-04	0	43	0	930086912	20	4443
2026-01-14 23:43:09.18	154.58	27.83	-30.1	-31.7	13.4	1.44e-05	0	43	0	932184064	20	4296
2026-01-14 23:43:10.18	154.77	27.69	-30.3	-32.2	12.3	2.89e-05	0	44	0	934281216	20	4455
2026-01-14 23:43:11.18	154.95	27.55	-30.3	-32.1	12.7	2.51e-05	0	43	0	936378368	20	4439
2026-01-14 23:43:12.19	155.14	27.40	-30.6	-32.4	12.6	7.24e-05	0	43	0	937426944	21	4450
2026-01-14 23:43:13.19	155.32	27.26	-30.6	-32.3	12.6	9.38e-05	0	43	0	939524096	21	4416
2026-01-14 23:43:14.19	155.50	27.12	-30.6	-32.5	12.6	6.10e-05	0	43	0	941621248	21	4484
2026-01-14 23:43:15.19	155.68	26.98	-30.7	-32.6	12.4	1.72e-04	0	43	0	943718400	21	4519
2026-01-14 23:43:16.20	155.86	26.83	-30.1	-31.5	13.5	2.21e-05	0	43	0	945815552	20	4254
2026-01-14 23:43:17.20	156.03	26.69	-29.6	-30.8	14.3	2.20e-06	0	44	0	946864128	19	4126
2026-01-14 23:43:18.20	156.21	26.55	-29.2	-29.7	15.0	0.00e+00	0	43	0	948961280	19	3821
2026-01-14 23:43:19.20	156.38	26.41	-28.9	-29.6	15.4	0.00e+00	0	43	0	951058432	18	3868
2026-01-14 23:43:20.20	156.55	26.27	-29.1	-30.0	15.2	0.00e+00	0	44	0	953155584	18	3976
2026-01-14 23:43:21.20	156.72	26.13	-29.0	-29.7	15.3	0.00e+00	0	44	0	954204160	18	3893
2026-01-14 23:43:22.20	156.89	25.99	-29.1	-29.9	15.3	1.70e-03	0	43	0	956301312	18	3972
2026-01-14 23:43:23.20	157.06	25.86	-29.3	-30.4	14.9	0.00e+00	0	43	0	958398464	18	4096
2026-01-14 23:43:24.20	157.23	25.72	-29.6	-30.8	14.4	0.00e+00	0	43	0	960495616	19	4108
2026-01-14 23:43:25.21	157.39	25.58	-29.9	-31.5	13.9	2.20e-06	0	43	0	962592768	19	4346
2026-01-14 23:43:26.21	157.55	25.44	-30.1	-31.6	13.5	1.79e-03	0	43	0	963641344	20	4287
2026-01-14 23:43:27.22	157.72	25.31	-30.5	-32.6	12.8	4.19e-05	0	43	0	965738496	20	4607
2026-01-14 23:43:28.22	157.88	25.17	-30.6	-32.5	12.5	6.48e-05	0	43	0	967835648	21	4475
2026-01-14 23:43:29.22	158.04	25.03	-30.9	-33.2	12.0	2.29e-03	0	43	0	969932800	21	4737
2026-01-14 23:43:30.22	158.19	24.90	-31.0	-33.3	11.7	4.97e-04	0	43	0	972029952	22	4657
2026-01-14 23:43:31.22	158.35	24.77	-31.0	-33.3	11.6	6.35e-04	0	44	0	973078528	22	4653
2026-01-14 23:43:32.23	158.51	24.63	-31.4	-34.5	10.7	4.17e-03	0	43	0	975175680	22	5123
2026-01-14 23:43:33.23	158.66	24.50	-31.1	-33.5	11.4	1.67e-03	0	44	0	977272832	22	4763
2026-01-14 23:43:34.23	158.81	24.36	-31.2	-33.7	11.2	8.19e-04	0	44	0	979369984	22	4851
2026-01-14 23:43:35.24	158.97	24.23	-31.1	-33.6	11.4	1.61e-03	0	43	0	981467136	22	4798
2026-01-14 23:43:36.24	159.12	24.10	-30.7	-32.4	12.3	2.69e-04	0	44	0	982515712	22	4361
2026-01-14 23:43:37.25	159.27	23.97	-30.5	-32.2	12.6	1.99e-03	0	44	0	984612864	21	4393
2026-01-14 23:43:38.25	159.41	23.83	-30.4	-32.5	12.8	8.46e-05	0	44	0	986710016	20	4586
2026-01-14 23:43:39.25	159.56	23.70	-30.2	-31.9	13.2	1.11e-04	0	43	0	988807168	20	4384
2026-01-14 23:43:40.26	159.71	23.57	-30.6	-32.4	12.5	2.23e-03	0	44	0	990904320	21	4456
2026-01-14 23:43:41.26	159.85	23.44	-30.5	-32.7	12.7	9.53e-05	0	44	0	991952896	20	4633
2026-01-14 23:43:42.27	160.00	23.31	-30.8	-33.0	12.1	7.17e-05	0	44	0	994050048	21	4652
2026-01-14 23:43:43.27	160.14	23.18	-31.2	-33.8	11.3	2.99e-03	0	44	0	996147200	22	4844
2026-01-14 23:43:44.27	160.28	23.06	-31.1	-33.5	11.4	3.33e-03	0	44	0	998244352	22	4773
2026-01-14 23:43:45.27	160.42	22.93	-31.4	-34.6	10.6	1.50e-03	0	43	0	999292928	22	5195
2026-01-14 23:43:46.27	160.56	22.80	-31.6	-34.6	10.3	8.82e-03	0	44	0	1001390080	23	5118
2026-01-14 23:43:47.27	160.69	22.67	-31.3	-34.4	10.8	5.98e-03	0	44	0	1003487232	22	5108
2026-01-14 23:43:48.27	160.83	22.55	-31.3	-33.8	10.8	3.65e-03	0	43	0	1005584384	23	4798
2026-01-14 23:43:49.27	160.96	22.42	-31.1	-33.7	11.2	2.21e-03	0	43	0	1007681536	22	4853
2026-01-14 23:43:50.26	161.10	22.30	-30.8	-33.2	11.9	2.83e-03	0	43	0	1008730112	21	4739
2026-01-14 23:43:51.27	161.23	22.17	-30.7	-32.8	12.2	2.45e-04	0	43	0	1010827264	21	4618
2026-01-14 23:43:52.26	161.36	22.05	-30.2	-31.8	13.2	9.30e-05	0	44	0	1012924416	20	4364
2026-01-14 23:43:53.27	161.49	21.92	-30.0	-31.4	13.5	2.07e-03	0	43	0	1015021568	20	4217
2026-01-14 23:43:54.27	161.62	21.80	-29.8	-30.8	13.9	6.10e-06	0	43	0	1017118720	20	4049
2026-01-14 23:43:55.27	161.75	21.68	-29.6	-30.7	14.3	2.03e-03	0	43	0	1018167296	19	4107
2026-01-14 23:43:56.26	161.88	21.55	-29.4	-30.9	14.5	2.24e-03	0	43	0	1020264448	18	4243
2026-01-14 23:43:57.26	162.01	21.43	-29.5	-30.7	14.3	1.07e-04	0	43	0	1022361600	19	4089
2026-01-14 23:43:58.26	162.13	21.31	-29.5	-30.5	14.4	2.32e-03	0	44	0	1024458752	19	4038
2026-01-14 23:43:59.26	162.26	21.19	-29.6	-30.7	14.3	2.25e-03	0	43	0	1026555904	19	4096
2026-01-14 23:44:00.27	162.38	21.07	-29.7	-31.0	14.1	1.96e-04	0	44	0	1027604480	19	4198
2026-01-14 23:44:01.27	162.51	20.95	-29.6	-30.9	14.1	2.44e-03	0	43	0	1029701632	19	4176
2026-01-14 23:44:02.27	162.63	20.83	-29.8	-31.4	13.8	2.10e-03	0	43	0	1031798784	19	4319
2026-01-14 23:44:03.27	162.75	20.71	-30.0	-31.4	13.5	3.19e-04	0	43	0	1033895936	20	4241
2026-01-14 23:44:04.27	162.87	20.59	-30.2	-32.0	13.0	2.52e-03	0	44	0	1034944512	20	4417
2026-01-14 23:44:05.27	162.99	20.47	-30.4	-32.6	12.6	2.46e-03	0	43	0	1037041664	20	4650
2026-01-14 23:44:06.28	163.11	20.35	-30.5	-32.5	12.3	4.11e-04	0	43	0	1039138816	21	4506
2026-01-14 23:44:07.28	163.23	20.23	-30.6	-32.6	12.2	2.91e-03	0	43	0	1041235968	21	4552
2026-01-14 23:44:08.29	163.35	20.11	-30.8	-33.3	11.7	3.12e-03	0	43	0	1043333120	21	4822
2026-01-14 23:44:09.28	163.46	20.00	-30.8	-33.3	11.6	8.75e-04	0	43	0	1044381696	21	4823
2026-01-14 23:44:10.29	163.58	19.88	-31.1	-33.7	11.2	1.08e-03	0	43	0	1046478848	22	4854
2026-01-14 23:44:11.30	163.69	19.76	-31.0	-33.6	11.2	3.49e-03	0	43	0	1048576000	22	4821
2026-01-14 23:44:12.30	163.81	19.65	-30.9	-33.2	11.5	1.04e-03	0	43	0	1050673152	22	4692
2026-01-14 23:44:13.30	163.92	19.53	-31.1	-33.8	11.1	1.74e-03	0	44	0	1052770304	22	4883
2026-01-14 23:44:14.30	164.03	19.42	-31.0	-33.4	11.3	3.90e-03	0	44	0	1053818880	22	4752
2026-01-14 23:44:15.31	164.14	19.30	-31.1	-33.7	11.2	1.33e-03	0	43	0	1055916032	22	4854
2026-01-14 23:44:16.31	164.25	19.19	-31.2	-34.1	10.8	5.81e-03	0	44	0	1058013184	22	5029
2026-01-14 23:44:17.31	164.36	19.07	-30.7	-32.6	11.9	6.85e-04	0	43	0	1060110336	22	4469
2026-01-14 23:44:18.32	164.47	18.96	-30.7	-33.0	12.0	6.48e-04	0	43	0	1062207488	21	4687
2026-01-14 23:44:19.32	164.58	18.85	-30.5	-32.4	12.3	2.88e-03	0	43	0	1063256064	21	4488
2026-01-14 23:44:20.32	164.69	18.74	-30.5	-32.8	12.4	1.45e-04	0	44	0	1065353216	20	4719
2026-01-14 23:44:21.32	164.80	18.62	-30.5	-32.5	12.2	4.20e-04	0	43	0	1067450368	21	4511
2026-01-14 23:44:22.33	164.90	18.51	-30.4	-32.6	12.6	2.50e-03	0	43	0	1069547520	20	4621
2026-01-14 23:44:23.33	165.01	18.40	-30.3	-32.2	12.7	9.91e-05	0	43	0	1071644672	20	4514
2026-01-14 23:44:24.33	165.11	18.29	-30.3	-32.3	12.7	3.84e-04	0	43	0	1072693248	20	4539
2026-01-14 23:44:25.33	165.21	18.18	-30.0	-31.4	13.3	2.68e-03	0	43	0	1074790400	20	4252
2026-01-14 23:44:26.33	165.32	18.07	-30.0	-31.6	13.2	2.30e-03	0	43	0	1076887552	20	4309
2026-01-14 23:44:27.33	165.42	17.96	-30.1	-31.6	13.2	2.99e-04	0	43	0	1078984704	20	4317
2026-01-14 23:44:28.33	165.52	17.85	-29.9	-31.2	13.4	2.73e-04	0	44	0	1081081856	20	4175
2026-01-14 23:44:29.34	165.62	17.74	-30.0	-31.5	13.3	2.02e-03	0	43	0	1082130432	20	4282
2026-01-14 23:44:30.34	165.72	17.63	-30.0	-31.5	13.2	1.37e-05	0	43	0	1084227584	20	4263
2026-01-14 23:44:31.35	165.82	17.52	-29.9	-31.2	13.4	1.96e-04	0	43	0	1086324736	20	4195
2026-01-14 23:44:32.35	165.92	17.42	-29.9	-31.3	13.4	2.34e-03	0	43	0	1088421888	20	4223
2026-01-14 23:44:33.35	166.02	17.31	-29.7	-30.8	13.7	3.26e-04	0	43	0	1089470464	20	4063
2026-01-14 23:44:34.36	166.12	17.20	-29.9	-31.3	13.3	1.62e-04	0	44	0	1091567616	20	4211
2026-01-14 23:44:35.36	166.21	17.10	-29.9	-31.2	13.4	2.05e-05	0	43	0	1093664768	20	4176
2026-01-14 23:44:36.37	166.31	16.99	-30.0	-31.9	13.4	3.94e-04	0	44	0	1095761920	19	4478
2026-01-14 23:44:37.37	166.41	16.88	-30.1	-31.9	13.0	3.66e-05	0	43	0	1097859072	20	4402
2026-01-14 23:44:38.37	166.50	16.78	-30.0	-31.5	13.2	2.28e-05	0	43	0	1098907648	20	4271
2026-01-14 23:44:39.38	166.60	16.67	-30.1	-31.7	13.0	3.86e-04	0	43	0	1101004800	20	4362
2026-01-14 23:44:40.39	166.69	16.57	-30.1	-31.8	13.0	2.89e-05	0	43	0	1103101952	20	4372
2026-01-14 23:44:41.40	166.78	16.46	-30.0	-31.6	13.2	3.35e-05	0	43	0	1105199104	20	4315
2026-01-14 23:44:42.40	166.88	16.36	-30.2	-32.2	12.7	4.65e-04	0	43	0	1107296256	20	4508
2026-01-14 23:44:43.40	166.97	16.26	-30.3	-32.3	12.6	2.74e-03	0	44	0	1108344832	20	4557
2026-01-14 23:44:44.41	167.06	16.15	-30.4	-32.6	12.5	9.84e-05	0	44	0	1110441984	20	4634
2026-01-14 23:44:45.41	167.15	16.05	-30.5	-32.6	12.1	5.55e-04	0	43	0	1112539136	21	4544
2026-01-14 23:44:46.41	167.24	15.95	-30.5	-32.4	12.2	5.77e-04	0	43	0	1114636288	21	4485
2026-01-14 23:44:47.41	167.33	15.85	-30.6	-32.9	11.9	2.85e-04	0	43	0	1116733440	21	4660
2026-01-14 23:44:48.42	167.42	15.74	-30.8	-33.3	11.6	7.03e-04	0	43	0	1117782016	21	4806
2026-01-14 23:44:49.42	167.51	15.64	-30.6	-32.7	12.0	6.30e-04	0	43	0	1119879168	21	4594
2026-01-14 23:44:50.42	167.59	15.54	-30.6	-32.9	11.9	5.33e-04	0	43	0	1121976320	21	4670
2026-01-14 23:44:51.42	167.68	15.44	-30.6	-32.9	11.8	5.76e-04	0	43	0	1124073472	21	4694
2026-01-14 23:44:52.42	167.77	15.34	-30.7	-33.1	11.7	8.83e-04	0	43	0	1126170624	21	4742
2026-01-14 23:44:53.43	167.85	15.24	-30.7	-33.1	11.7	5.28e-04	0	44	0	1127219200	21	4748
2026-01-14 23:44:54.43	167.94	15.14	-30.6	-32.9	11.8	5.32e-04	0	44	0	1129316352	21	4684
2026-01-14 23:44:55.43	168.02	15.04	-30.6	-33.1	11.6	5.87e-04	0	43	0	1131413504	21	4755
2026-01-14 23:44:56.44	168.11	14.94	-30.7	-33.2	11.6	6.35e-04	0	43	0	1133510656	21	4809
2026-01-14 23:44:57.43	168.19	14.85	-30.6	-32.8	11.8	4.63e-04	0	43	0	1135607808	21	4678
2026-01-14 23:44:58.44	168.28	14.75	-30.6	-32.9	11.8	6.02e-04	0	44	0	1136656384	21	4695
2026-01-14 23:44:59.44	168.36	14.65	-30.3	-32.1	12.3	3.71e-04	0	44	0	1138753536	21	4401
2026-01-14 23:45:00.45	168.44	14.55	-30.1	-31.9	12.7	5.47e-04	0	43	0	1140850688	20	4449
2026-01-14 23:45:01.45	168.52	14.46	-29.3	-31.2	12.7	5.41e-05	0	44	0	1142947840	20	4480
2026-01-14 23:45:02.46	168.60	14.36	-30.0	-31.7	12.8	4.42e-05	0	43	0	1145044992	20	4372
2026-01-14 23:45:03.46	168.69	14.26	-30.7	-32.7	11.8	5.06e-04	0	43	0	1146093568	20	4556
2026-01-14 23:45:04.47	168.77	14.17	-30.2	-32.2	11.7	1.29e-04	0	44	0	1148190720	20	4531
2026-01-14 23:45:05.47	168.85	14.07	-29.9	-31.9	13.2	3.50e-05	0	43	0	1150287872	19	4503
2026-01-14 23:45:06.48	168.93	13.97	-29.9	-31.9	13.2	1.37e-05	0	44	0	1152385024	19	4516
2026-01-14 23:45:07.48	169.00	13.88	-30.1	-32.0	12.7	2.40e-03	0	43	0	1154482176	20	4480
2026-01-14 23:45:08.48	169.08	13.78	-30.3	-32.4	12.4	1.52e-04	0	43	0	1155530752	20	4605
2026-01-14 23:45:09.48	169.16	13.69	-30.3	-32.5	12.4	1.01e-04	0	43	0	1157627904	20	4632
2026-01-14 23:45:10.48	169.24	13.60	-30.3	-32.4	12.4	2.09e-04	0	43	0	1159725056	20	4612
2026-01-14 23:45:11.48	169.31	13.50	-30.5	-32.6	11.9	4.63e-04	0	43	0	1161822208	21	4593
2026-01-14 23:45:12.48	169.39	13.41	-30.6	-32.9	11.7	4.73e-04	0	43	0	1162870784	21	4706
2026-01-14 23:45:13.49	169.47	13.32	-30.7	-33.3	11.5	7.86e-04	0	43	0	1164967936	21	4829
2026-01-14 23:45:14.49	169.54	13.22	-30.9	-33.8	11.1	1.71e-03	0	43	0	1167065088	21	5033
2026-01-14 23:45:15.49	169.62	13.13	-30.9	-33.9	11.0	2.85e-03	0	43	0	1169162240	21	5067
2026-01-14 23:45:16.49	169.69	13.04	-31.1	-34.1	10.5	2.82e-03	0	44	0	1171259392	22	5061
2026-01-14 23:45:17.50	169.77	12.95	-31.2	-34.4	10.2	5.89e-03	0	43	0	1172307968	22	5194
2026-01-14 23:45:18.51	169.84	12.85	-31.1	-34.1	10.5	6.11e-03	0	44	0	1174405120	22	5054
2026-01-14 23:45:19.50	169.91	12.76	-31.2	-34.4	10.3	4.13e-03	0	43	0	1176502272	22	5179
2026-01-14 23:45:20.50	169.99	12.67	-31.2	-34.3	10.3	6.36e-03	0	43	0	1178599424	22	5153
2026-01-14 23:45:21.50	170.06	12.58	-31.3	-34.7	10.0	7.65e-03	0	44	0	1180696576	22	5326
2026-01-14 23:45:22.50	170.13	12.49	-31.4	-35.0	9.7	1.04e-02	0	43	0	1181745152	22	5483
2026-01-14 23:45:23.51	170.20	12.40	-31.3	-34.9	9.8	1.01e-02	0	44	0	1183842304	22	5449
2026-01-14 23:45:24.51	170.27	12.31	-31.3	-34.9	9.7	8.92e-03	0	43	0	1185939456	22	5445
2026-01-14 23:45:25.51	170.34	12.22	-31.4	-35.2	9.6	1.47e-02	0	43	0	1188036608	22	5564
2026-01-14 23:45:26.51	170.41	12.13	-31.5	-35.0	9.4	1.21e-02	0	43	0	1190133760	23	5376
2026-01-14 23:45:27.51	170.48	12.05	-31.5	-35.2	9.2	2.12e-02	0	43	0	1191182336	23	5485
2026-01-14 23:45:28.51	170.55	11.96	-31.4	-35.2	9.5	1.58e-02	0	43	0	1193279488	22	5560
2026-01-14 23:45:29.52	170.62	11.87	-31.4	-34.7	9.6	1.68e-02	0	44	0	1195376640	23	5237
2026-01-14 23:45:30.52	170.69	11.78	-31.2	-34.4	10.1	9.10e-03	0	43	0	1197473792	22	5236
2026-01-14 23:45:31.52	170.76	11.69	-31.0	-33.8	10.6	5.81e-03	0	43	0	1198522368	22	4955
2026-01-14 23:45:32.53	170.83	11.60	-30.8	-33.6	11.0	2.28e-03	0	43	0	1200619520	21	4986
2026-01-14 23:45:33.54	170.90	11.52	-30.8	-33.8	10.9	2.16e-03	0	43	0	1202716672	21	5056
2026-01-14 23:45:34.53	170.96	11.43	-30.9	-33.9	10.8	2.02e-03	0	43	0	1204813824	21	5132
2026-01-14 23:45:35.53	171.03	11.34	-30.8	-33.8	10.8	3.02e-03	0	43	0	1206910976	21	5087
2026-01-14 23:45:36.53	171.10	11.26	-30.6	-33.0	11.4	3.36e-03	0	43	0	1207959552	21	4771
2026-01-14 23:45:37.54	171.16	11.17	-30.4	-33.0	11.8	6.46e-04	0	44	0	1210056704	20	4859
2026-01-14 23:45:38.54	171.23	11.09	-30.2	-32.3	12.3	6.18e-04	0	44	0	1212153856	20	4599
2026-01-14 23:45:39.54	171.29	11.00	-30.1	-32.0	12.5	2.20e-03	0	43	0	1214251008	20	4509
2026-01-14 23:45:40.54	171.36	10.92	-30.1	-32.0	12.5	2.16e-03	0	44	0	1216348160	20	4485
2026-01-14 23:45:41.54	171.42	10.83	-29.9	-31.5	12.8	4.78e-04	0	43	0	1217396736	20	4341
2026-01-14 23:45:42.54	171.49	10.75	-30.0	-31.6	12.7	2.07e-03	0	43	0	1219493888	20	4371
2026-01-14 23:45:43.54	171.55	10.66	-29.9	-31.5	12.7	2.27e-03	0	44	0	1221591040	20	4337
2026-01-14 23:45:44.54	171.61	10.58	-29.7	-31.4	13.3	4.50e-05	0	43	0	1223688192	19	4380
2026-01-14 23:45:45.55	171.68	10.49	-29.8	-31.6	13.1	2.20e-03	0	44	0	1225785344	19	4434
2026-01-14 23:45:46.55	171.74	10.41	-29.7	-31.3	13.3	1.90e-03	0	43	0	1226833920	19	4348
2026-01-14 23:45:47.55	171.80	10.33	-29.8	-31.6	13.1	2.09e-04	0	44	0	1228931072	19	4428
2026-01-14 23:45:48.55	171.87	10.24	-29.8	-31.6	13.1	2.23e-03	0	43	0	1231028224	19	4435
2026-01-14 23:45:49.55	171.93	10.16	-29.8	-31.6	13.2	1.80e-03	0	44	0	1233125376	19	4430
2026-01-14 23:45:50.56	171.99	10.08	-29.8	-31.7	13.1	2.17e-04	0	44	0	1235222528	19	4462
2026-01-14 23:45:51.55	172.05	10.00	-29.8	-31.7	13.0	1.80e-03	0	43	0	1236271104	19	4454
2026-01-14 23:45:52.56	172.11	9.91	-29.8	-31.8	13.0	1.85e-03	0	44	0	1238368256	19	4495
2026-01-14 23:45:53.56	172.17	9.83	-29.9	-31.9	12.9	2.49e-04	0	43	0	1240465408	19	4542
2026-01-14 23:45:54.56	172.23	9.75	-30.0	-32.1	12.7	1.92e-03	0	44	0	1242562560	19	4617
2026-01-14 23:45:55.56	172.29	9.67	-29.9	-31.9	12.9	1.81e-03	0	43	0	1243611136	19	4524
2026-01-14 23:45:56.56	172.35	9.59	-29.9	-31.8	13.0	6.03e-04	0	44	0	1245708288	19	4516
2026-01-14 23:45:57.57	172.41	9.50	-29.9	-31.6	12.7	1.66e-03	0	43	0	1247805440	20	4341
2026-01-14 23:45:58.57	172.47	9.42	-30.5	-32.4	12.7	1.54e-03	0	43	0	1249902592	20	4481
2026-01-14 23:45:59.57	172.53	9.34	-29.9	-31.5	12.8	6.16e-04	0	44	0	1251999744	20	4333
2026-01-14 23:46:00.58	172.59	9.26	-30.1	-32.1	12.3	1.42e-03	0	44	0	1253048320	20	4531
2026-01-14 23:46:01.58	172.65	9.18	-30.3	-32.5	12.0	1.30e-03	0	43	0	1255145472	20	4665
2026-01-14 23:46:02.58	172.70	9.10	-30.2	-32.4	12.1	6.64e-04	0	43	0	1257242624	20	4626
2026-01-14 23:46:03.58	172.76	9.02	-30.4	-32.8	11.8	1.86e-03	0	43	0	1259339776	20	4786
2026-01-14 23:46:04.59	172.82	8.94	-30.4	-33.0	11.7	1.81e-03	0	43	0	1261436928	20	4848
2026-01-14 23:46:05.59	172.87	8.86	-30.4	-32.9	11.7	9.80e-04	0	44	0	1262485504	20	4821
2026-01-14 23:46:06.59	172.93	8.79	-30.5	-33.2	11.5	2.37e-03	0	43	0	1264582656	20	4926
2026-01-14 23:46:07.59	172.99	8.71	-30.3	-32.6	11.9	1.88e-03	0	44	0	1266679808	20	4718
2026-01-14 23:46:08.60	173.04	8.63	-30.4	-33.0	11.6	6.90e-04	0	43	0	1268776960	20	4857
2026-01-14 23:46:09.60	173.10	8.55	-30.3	-32.6	11.8	8.89e-04	0	44	0	1270874112	20	4726
2026-01-14 23:46:10.61	173.16	8.47	-30.4	-32.9	11.7	2.12e-03	0	44	0	1271922688	20	4832
2026-01-14 23:46:11.61	173.21	8.39	-30.5	-33.3	11.3	9.51e-04	0	43	0	1274019840	20	4978
2026-01-14 23:46:12.61	173.27	8.32	-30.6	-33.1	11.2	1.92e-03	0	44	0	1276116992	21	4796
2026-01-14 23:46:13.62	173.32	8.24	-30.7	-33.3	11.0	2.66e-03	0	43	0	1278214144	21	4904
2026-01-14 23:46:14.61	173.37	8.16	-30.7	-33.5	10.9	2.02e-03	0	44	0	1280311296	21	4954
2026-01-14 23:46:15.62	173.43	8.09	-30.7	-33.5	10.8	3.91e-03	0	44	0	1281359872	21	4972
2026-01-14 23:46:16.61	173.48	8.01	-30.8	-34.0	10.3	4.21e-03	0	43	0	1283457024	21	5198
2026-01-14 23:46:17.62	173.54	7.93	-30.8	-34.0	10.4	4.44e-03	0	43	0	1285554176	21	5196
2026-01-14 23:46:18.62	173.59	7.86	-30.9	-34.2	10.3	6.20e-03	0	43	0	1287651328	21	5269
2026-01-14 23:46:19.62	173.64	7.78	-30.8	-34.1	10.3	5.48e-03	0	43	0	1288699904	21	5235
