passes_logs/2026/01/14/R2M6_AANII_01/R2M6_AANII_01__20260114_013402_SUOMI_NPP_rec.log

#Pass ID: 20260114_013402_SUOMI NPP
#Satellite: SUOMI NPP
#Configuration: NPP
#almurnet v.1.7.20240730
#Start time: 2026-01-14 01:34:04

#Version: 2.2.20231116
#Station: R2M6_AANII_01
#Location: 30.233357 lon 59.946436 lat
#TLE: 1 37849U 11061A   26013.27136842  .00000065  00000+0  51889-4 0  9990
#TLE: 2 37849  98.7808 315.3349 0002489  66.6776 293.4661 14.19524902736466

#Time	Az	El	Level	Level2	SNR	BER	BlckErr	Temp	State	Recorded	gain1	gain2
2026-01-14 01:34:04.02	12.99	7.14	-32.4	-38.6	4.6	1.37e+00	0	40	0	0	24	7417
2026-01-14 01:34:05.02	12.93	7.21	-32.4	-38.5	4.6	1.37e+00	0	40	104	0	24	7286
2026-01-14 01:34:06.02	12.87	7.28	-32.4	-38.7	6.2	2.89e-01	0	40	0	0	24	7400
2026-01-14 01:34:07.02	12.82	7.36	-32.5	-39.0	5.9	3.50e-01	0	40	0	1048576	24	7657
2026-01-14 01:34:08.02	12.76	7.43	-32.4	-38.5	6.3	2.79e-01	0	41	0	3145728	24	7271
2026-01-14 01:34:09.02	12.70	7.50	-32.3	-38.1	6.6	2.35e-01	0	40	0	5242880	24	6948
2026-01-14 01:34:10.02	12.64	7.58	-32.3	-37.6	7.0	1.77e-01	0	41	0	7340032	24	6656
2026-01-14 01:34:11.03	12.59	7.65	-32.2	-37.3	7.3	1.29e-01	0	41	0	9437184	24	6458
2026-01-14 01:34:12.03	12.53	7.72	-32.2	-37.1	7.4	1.26e-01	0	41	0	10485760	24	6355
2026-01-14 01:34:13.03	12.47	7.80	-32.2	-37.3	7.3	1.16e-01	0	41	0	12582912	24	6440
2026-01-14 01:34:14.03	12.41	7.87	-32.3	-37.4	7.3	1.20e-01	0	41	0	14680064	24	6517
2026-01-14 01:34:15.04	12.35	7.95	-32.4	-38.3	6.6	1.73e-01	0	41	0	16777216	24	7048
2026-01-14 01:34:16.04	12.29	8.02	-32.2	-37.2	7.4	1.56e-01	0	41	0	17825792	24	6396
2026-01-14 01:34:17.04	12.23	8.10	-32.0	-36.4	8.0	7.30e-02	0	41	0	19922944	24	5951
2026-01-14 01:34:18.05	12.17	8.17	-31.0	-34.5	9.0	3.77e-02	0	41	0	22020096	24	5358
2026-01-14 01:34:19.05	12.11	8.25	-31.5	-34.7	9.7	1.61e-02	0	41	0	24117248	23	5226
2026-01-14 01:34:20.06	12.05	8.32	-31.4	-34.9	9.9	1.35e-02	0	41	0	26214400	22	5374
2026-01-14 01:34:21.05	11.99	8.40	-31.3	-34.4	10.3	5.17e-03	0	41	0	27262976	22	5150
2026-01-14 01:34:22.06	11.92	8.48	-31.2	-34.1	10.6	4.09e-03	0	41	0	29360128	22	5041
2026-01-14 01:34:23.06	11.86	8.55	-31.2	-34.2	10.4	3.75e-03	0	41	0	31457280	22	5095
2026-01-14 01:34:24.06	11.80	8.63	-31.2	-34.3	10.4	4.51e-03	0	41	0	33554432	22	5119
2026-01-14 01:34:25.07	11.74	8.71	-31.3	-34.6	10.2	5.74e-03	0	41	0	35651584	22	5265
2026-01-14 01:34:26.07	11.67	8.78	-31.2	-34.2	10.5	3.81e-03	0	41	0	36700160	22	5096
2026-01-14 01:34:27.08	11.61	8.86	-31.3	-34.5	10.3	5.13e-03	0	41	0	38797312	22	5216
2026-01-14 01:34:28.08	11.55	8.94	-31.4	-34.6	10.3	5.98e-03	0	41	0	40894464	22	5252
2026-01-14 01:34:29.08	11.48	9.01	-31.4	-34.7	10.3	4.74e-03	0	41	0	42991616	22	5269
2026-01-14 01:34:30.08	11.42	9.09	-31.5	-34.8	9.8	5.72e-03	0	41	0	45088768	23	5224
2026-01-14 01:34:31.09	11.35	9.17	-31.3	-33.9	10.5	5.67e-03	0	41	0	46137344	23	4850
2026-01-14 01:34:32.09	11.29	9.25	-31.2	-34.1	10.7	3.18e-03	0	41	0	48234496	22	5024
2026-01-14 01:34:33.09	11.22	9.32	-31.3	-34.4	10.4	3.34e-03	0	41	0	50331648	22	5155
2026-01-14 01:34:34.08	11.16	9.40	-31.5	-34.6	10.0	7.07e-03	0	41	0	52428800	23	5149
2026-01-14 01:34:35.08	11.09	9.48	-31.3	-33.9	10.5	5.73e-03	0	41	0	54525952	23	4858
2026-01-14 01:34:36.09	11.02	9.56	-31.4	-34.6	10.4	3.82e-03	0	41	0	55574528	22	5206
2026-01-14 01:34:37.09	10.96	9.64	-31.4	-34.7	10.3	4.24e-03	0	42	0	57671680	22	5284
2026-01-14 01:34:38.09	10.89	9.72	-31.4	-34.6	10.4	4.48e-03	0	41	0	59768832	22	5210
2026-01-14 01:34:39.10	10.82	9.80	-31.2	-33.9	10.9	2.46e-03	0	41	0	61865984	22	4949
2026-01-14 01:34:40.10	10.75	9.88	-31.2	-34.0	10.8	2.27e-03	0	41	0	62914560	22	4994
2026-01-14 01:34:41.11	10.68	9.96	-31.2	-34.2	10.7	2.98e-03	0	41	0	65011712	22	5046
2026-01-14 01:34:42.11	10.61	10.04	-31.1	-33.9	10.9	2.70e-03	0	42	0	67108864	22	4928
2026-01-14 01:34:43.12	10.54	10.12	-31.1	-33.6	11.1	2.18e-03	0	42	0	69206016	22	4810
2026-01-14 01:34:44.13	10.47	10.20	-31.0	-33.8	11.3	1.84e-03	0	42	0	71303168	21	4988
2026-01-14 01:34:45.13	10.40	10.28	-30.9	-33.7	11.4	1.13e-03	0	42	0	73400320	21	4960
2026-01-14 01:34:46.13	10.33	10.36	-30.9	-33.5	11.5	6.71e-04	0	42	0	74448896	21	4893
2026-01-14 01:34:47.13	10.26	10.44	-31.1	-33.6	11.2	1.25e-03	0	42	0	76546048	22	4826
2026-01-14 01:34:48.14	10.19	10.52	-31.2	-34.0	10.9	3.21e-03	0	41	0	78643200	22	4966
2026-01-14 01:34:49.14	10.12	10.61	-31.1	-33.7	11.1	1.70e-03	0	42	0	80740352	22	4861
2026-01-14 01:34:50.14	10.04	10.69	-31.1	-33.6	11.2	1.47e-03	0	42	0	81788928	22	4808
2026-01-14 01:34:51.15	9.97	10.77	-31.0	-33.5	11.3	3.89e-03	0	42	0	83886080	22	4761
2026-01-14 01:34:52.15	9.90	10.85	-30.9	-33.6	11.5	8.67e-04	0	42	0	85983232	21	4899
2026-01-14 01:34:53.16	9.82	10.93	-31.1	-33.7	11.1	1.04e-03	0	42	0	88080384	22	4858
2026-01-14 01:34:54.16	9.75	11.02	-31.1	-33.6	11.3	9.19e-04	0	42	0	90177536	22	4798
2026-01-14 01:34:55.17	9.67	11.10	-31.1	-33.6	11.2	4.08e-03	0	42	0	91226112	22	4806
2026-01-14 01:34:56.17	9.60	11.18	-30.9	-33.0	11.6	1.38e-03	0	42	0	93323264	22	4607
2026-01-14 01:34:57.18	9.52	11.27	-30.8	-33.3	11.8	6.55e-04	0	42	0	95420416	21	4788
2026-01-14 01:34:58.18	9.45	11.35	-30.7	-33.0	12.0	2.66e-03	0	42	0	97517568	21	4693
2026-01-14 01:34:59.18	9.37	11.43	-30.8	-33.1	12.0	5.62e-04	0	42	0	99614720	21	4709
2026-01-14 01:35:00.18	9.29	11.52	-30.9	-33.5	11.7	7.88e-04	0	42	0	100663296	21	4866
2026-01-14 01:35:01.18	9.22	11.60	-31.1	-33.7	11.2	3.88e-03	0	42	0	102760448	22	4830
2026-01-14 01:35:02.19	9.14	11.69	-31.0	-33.4	11.4	1.57e-03	0	42	0	104857600	22	4741
2026-01-14 01:35:03.19	9.06	11.77	-31.1	-33.6	11.3	1.11e-03	0	42	0	106954752	22	4800
2026-01-14 01:35:04.19	8.98	11.86	-31.1	-33.5	11.4	1.48e-03	0	42	0	109051904	22	4777
2026-01-14 01:35:05.19	8.90	11.94	-31.0	-33.4	11.4	1.38e-03	0	42	0	110100480	22	4732
2026-01-14 01:35:06.20	8.82	12.03	-31.1	-33.7	11.3	3.87e-03	0	42	0	112197632	22	4834
2026-01-14 01:35:07.21	8.74	12.12	-31.1	-33.7	11.2	1.19e-03	0	42	0	114294784	22	4832
2026-01-14 01:35:08.21	8.66	12.20	-31.3	-34.0	11.0	2.37e-03	0	42	0	116391936	22	4960
2026-01-14 01:35:09.21	8.58	12.29	-31.1	-33.6	11.3	3.97e-03	0	42	0	118489088	22	4785
2026-01-14 01:35:10.21	8.50	12.37	-30.8	-33.3	11.9	5.77e-04	0	42	0	119537664	21	4767
2026-01-14 01:35:11.21	8.42	12.46	-30.8	-33.1	12.0	5.42e-04	0	42	0	121634816	21	4703
2026-01-14 01:35:12.21	8.33	12.55	-30.8	-33.2	11.9	3.32e-03	0	42	0	123731968	21	4749
2026-01-14 01:35:13.22	8.25	12.64	-30.7	-32.8	12.2	2.93e-03	0	42	0	125829120	21	4602
2026-01-14 01:35:14.23	8.17	12.72	-30.7	-33.0	12.1	3.71e-04	0	42	0	127926272	21	4670
2026-01-14 01:35:15.23	8.08	12.81	-30.8	-33.2	12.0	2.86e-03	0	42	0	128974848	21	4726
2026-01-14 01:35:16.23	8.00	12.90	-30.6	-32.6	12.4	2.56e-03	0	42	0	131072000	21	4512
2026-01-14 01:35:17.23	7.91	12.99	-30.8	-33.1	12.1	5.66e-04	0	42	0	133169152	21	4694
2026-01-14 01:35:18.23	7.83	13.08	-30.9	-33.4	11.9	2.87e-03	0	42	0	135266304	21	4803
2026-01-14 01:35:19.24	7.74	13.17	-30.8	-33.2	11.9	2.94e-03	0	42	0	136314880	21	4752
2026-01-14 01:35:20.24	7.65	13.25	-30.9	-33.4	11.8	6.19e-04	0	42	0	138412032	21	4813
2026-01-14 01:35:21.24	7.57	13.34	-31.0	-33.1	11.7	7.23e-04	0	42	0	140509184	22	4622
2026-01-14 01:35:22.24	7.48	13.43	-30.8	-33.3	11.9	3.13e-03	0	42	0	142606336	21	4777
2026-01-14 01:35:23.25	7.39	13.52	-30.8	-33.2	12.0	4.95e-04	0	42	0	144703488	21	4728
2026-01-14 01:35:24.24	7.30	13.61	-30.9	-33.5	11.8	2.97e-03	0	42	0	145752064	21	4862
2026-01-14 01:35:25.25	7.21	13.70	-31.2	-33.9	11.1	3.56e-03	0	42	0	147849216	22	4922
2026-01-14 01:35:26.25	7.12	13.79	-31.2	-33.8	11.2	2.11e-03	0	42	0	149946368	22	4863
2026-01-14 01:35:27.25	7.03	13.88	-31.0	-33.4	11.6	3.83e-03	0	42	0	152043520	22	4707
2026-01-14 01:35:28.26	6.94	13.98	-31.0	-33.4	11.6	3.17e-03	0	42	0	154140672	22	4707
2026-01-14 01:35:29.27	6.84	14.07	-31.0	-33.3	11.6	7.72e-04	0	42	0	155189248	22	4679
2026-01-14 01:35:30.27	6.75	14.16	-30.9	-33.1	11.8	3.40e-03	0	42	0	157286400	22	4598
2026-01-14 01:35:31.28	6.66	14.25	-31.2	-33.8	11.2	3.53e-03	0	42	0	159383552	22	4856
2026-01-14 01:35:32.28	6.56	14.34	-31.1	-33.6	11.4	8.85e-04	0	42	0	161480704	22	4793
2026-01-14 01:35:33.29	6.47	14.44	-31.3	-34.2	11.0	3.57e-03	0	42	0	163577856	22	5028
2026-01-14 01:35:34.29	6.37	14.53	-31.3	-34.0	11.1	4.70e-03	0	42	0	164626432	22	4942
2026-01-14 01:35:35.28	6.28	14.62	-31.1	-33.4	11.6	8.10e-04	0	42	0	166723584	22	4713
2026-01-14 01:35:36.29	6.18	14.72	-30.8	-33.0	12.2	2.73e-03	0	42	0	168820736	21	4668
2026-01-14 01:35:37.29	6.09	14.81	-30.6	-32.5	12.5	2.83e-03	0	42	0	170917888	21	4500
2026-01-14 01:35:38.29	5.99	14.90	-30.4	-32.0	12.9	4.06e-04	0	42	0	173015040	21	4332
2026-01-14 01:35:39.28	5.89	15.00	-30.6	-32.5	12.5	1.09e-04	0	42	0	174063616	21	4483
2026-01-14 01:35:40.29	5.79	15.09	-30.6	-32.4	12.6	2.71e-03	0	42	0	176160768	21	4438
2026-01-14 01:35:41.28	5.69	15.19	-30.5	-32.3	12.8	4.64e-04	0	42	0	178257920	21	4407
2026-01-14 01:35:42.29	5.59	15.28	-30.5	-32.2	12.8	4.42e-05	0	42	0	180355072	21	4366
2026-01-14 01:35:43.29	5.49	15.38	-30.5	-32.2	12.8	2.38e-03	0	42	0	181403648	21	4377
2026-01-14 01:35:44.29	5.39	15.47	-30.7	-32.7	12.5	3.01e-04	0	42	0	183500800	21	4552
2026-01-14 01:35:45.29	5.29	15.57	-30.7	-32.7	12.5	1.25e-04	0	42	0	185597952	21	4548
2026-01-14 01:35:46.29	5.19	15.66	-30.6	-32.4	12.7	1.03e-04	0	42	0	187695104	21	4448
2026-01-14 01:35:47.28	5.08	15.76	-30.7	-32.8	12.4	4.43e-04	0	42	0	189792256	21	4584
2026-01-14 01:35:48.29	4.98	15.86	-30.7	-32.6	12.6	3.18e-03	0	42	0	190840832	21	4492
2026-01-14 01:35:49.30	4.87	15.95	-30.8	-32.9	12.4	9.23e-05	0	42	0	192937984	21	4613
2026-01-14 01:35:50.30	4.77	16.05	-30.7	-32.6	12.5	1.37e-04	0	42	0	195035136	21	4517
2026-01-14 01:35:51.30	4.66	16.15	-30.7	-32.8	12.5	2.78e-03	0	42	0	197132288	21	4579
2026-01-14 01:35:52.30	4.55	16.25	-30.8	-33.0	12.3	1.89e-04	0	42	0	199229440	21	4634
2026-01-14 01:35:53.31	4.45	16.34	-30.8	-33.0	12.3	1.33e-04	0	42	0	200278016	21	4644
2026-01-14 01:35:54.31	4.34	16.44	-30.7	-32.7	12.5	2.71e-03	0	42	0	202375168	21	4543
2026-01-14 01:35:55.31	4.23	16.54	-30.7	-32.7	12.6	2.84e-03	0	42	0	204472320	21	4535
2026-01-14 01:35:56.32	4.12	16.64	-30.7	-32.6	12.7	7.78e-05	0	42	0	206569472	21	4488
2026-01-14 01:35:57.31	4.01	16.74	-30.6	-32.4	12.8	4.27e-05	0	42	0	208666624	21	4429
2026-01-14 01:35:58.32	3.90	16.84	-30.5	-32.1	12.9	2.63e-03	0	42	0	209715200	21	4348
2026-01-14 01:35:59.32	3.78	16.94	-30.6	-32.3	12.8	5.03e-05	0	42	0	211812352	21	4412
2026-01-14 01:36:00.32	3.67	17.04	-30.6	-32.6	12.6	6.86e-05	0	43	0	213909504	21	4486
2026-01-14 01:36:01.32	3.56	17.14	-30.5	-32.3	12.8	1.01e-04	0	42	0	216006656	21	4392
2026-01-14 01:36:02.33	3.44	17.24	-30.5	-32.3	12.9	5.18e-05	0	42	0	218103808	21	4379
2026-01-14 01:36:03.32	3.33	17.34	-30.7	-32.7	12.6	1.15e-04	0	42	0	219152384	21	4521
2026-01-14 01:36:04.32	3.21	17.44	-30.6	-32.4	12.9	6.33e-05	0	42	0	221249536	21	4420
2026-01-14 01:36:05.32	3.09	17.54	-30.6	-32.4	12.8	2.42e-04	0	43	0	223346688	21	4442
2026-01-14 01:36:06.32	2.98	17.64	-30.6	-32.4	12.8	6.63e-05	0	42	0	225443840	21	4423
2026-01-14 01:36:07.32	2.86	17.75	-30.6	-32.4	12.8	5.11e-05	0	42	0	226492416	21	4410
2026-01-14 01:36:08.32	2.74	17.85	-30.7	-32.7	12.6	6.79e-05	0	42	0	228589568	21	4541
2026-01-14 01:36:09.33	2.62	17.95	-30.7	-32.6	12.7	7.62e-05	0	42	0	230686720	21	4485
2026-01-14 01:36:10.33	2.50	18.06	-30.4	-31.9	13.2	5.18e-05	0	42	0	232783872	21	4263
2026-01-14 01:36:11.33	2.38	18.16	-30.5	-32.2	13.0	5.49e-05	0	42	0	234881024	21	4344
2026-01-14 01:36:12.34	2.25	18.26	-30.6	-32.3	12.9	1.72e-03	0	42	0	235929600	21	4403
2026-01-14 01:36:13.34	2.13	18.37	-30.6	-32.5	12.8	3.73e-05	0	42	0	238026752	21	4441
2026-01-14 01:36:14.35	2.00	18.47	-30.5	-32.1	13.1	2.21e-05	0	42	0	240123904	21	4316
2026-01-14 01:36:15.35	1.88	18.58	-30.5	-32.1	13.0	4.88e-05	0	43	0	242221056	21	4332
2026-01-14 01:36:16.35	1.75	18.68	-30.5	-32.1	13.1	4.11e-05	0	43	0	244318208	21	4311
2026-01-14 01:36:17.35	1.62	18.79	-30.5	-32.1	13.0	3.12e-05	0	42	0	245366784	21	4322
2026-01-14 01:36:18.35	1.50	18.89	-30.5	-32.1	13.1	3.96e-05	0	43	0	247463936	21	4326
2026-01-14 01:36:19.35	1.37	19.00	-30.6	-32.2	13.0	5.34e-05	0	42	0	249561088	21	4366
2026-01-14 01:36:20.35	1.24	19.10	-30.5	-32.1	13.1	2.89e-05	0	42	0	251658240	21	4314
2026-01-14 01:36:21.35	1.11	19.21	-30.6	-32.5	12.8	1.83e-05	0	42	0	253755392	21	4439
2026-01-14 01:36:22.35	0.97	19.32	-30.5	-32.0	13.1	3.73e-05	0	42	0	254803968	21	4294
2026-01-14 01:36:23.36	0.84	19.42	-30.7	-32.7	12.7	8.69e-05	0	43	0	256901120	21	4506
2026-01-14 01:36:24.37	0.71	19.53	-30.8	-32.8	12.6	1.14e-04	0	42	0	258998272	21	4560
2026-01-14 01:36:25.37	0.57	19.64	-30.7	-32.7	12.7	6.02e-05	0	43	0	261095424	21	4510
2026-01-14 01:36:26.37	0.44	19.75	-30.7	-32.5	12.8	2.08e-04	0	43	0	263192576	21	4457
2026-01-14 01:36:27.38	0.30	19.86	-30.7	-32.5	12.9	4.27e-05	0	42	0	264241152	21	4449
2026-01-14 01:36:28.38	0.16	19.96	-29.8	-31.7	12.8	6.33e-05	0	42	0	266338304	21	4493
2026-01-14 01:36:29.38	0.02	20.07	-30.2	-32.2	12.1	8.54e-05	0	43	0	268435456	21	4567
2026-01-14 01:36:30.39	359.88	20.18	-30.7	-32.6	11.9	6.79e-05	0	43	0	270532608	21	4487
2026-01-14 01:36:31.39	359.74	20.29	-30.8	-33.0	12.5	8.01e-05	0	42	0	271581184	21	4609
2026-01-14 01:36:32.39	359.60	20.40	-30.9	-33.1	11.5	1.17e-04	0	42	0	273678336	21	4665
2026-01-14 01:36:33.40	359.45	20.51	-31.1	-33.3	11.7	3.00e-04	0	42	0	275775488	22	4614
2026-01-14 01:36:34.40	359.31	20.62	-31.1	-33.1	12.1	5.44e-04	0	42	0	277872640	22	4556
2026-01-14 01:36:35.41	359.17	20.73	-31.1	-33.2	12.0	2.10e-04	0	42	0	279969792	22	4602
2026-01-14 01:36:36.42	359.02	20.84	-30.9	-33.2	12.4	2.09e-04	0	43	0	281018368	21	4675
2026-01-14 01:36:37.41	358.87	20.95	-30.8	-32.9	12.6	2.41e-04	0	43	0	283115520	21	4582
2026-01-14 01:36:38.42	358.72	21.07	-30.8	-33.0	12.6	7.32e-05	0	43	0	285212672	21	4598
2026-01-14 01:36:39.42	358.57	21.18	-31.0	-33.3	12.4	1.40e-04	0	42	0	287309824	21	4732
2026-01-14 01:36:40.42	358.42	21.29	-30.8	-33.0	12.5	6.84e-04	0	43	0	289406976	21	4606
2026-01-14 01:36:41.42	358.27	21.40	-31.0	-33.3	12.3	4.60e-04	0	43	0	290455552	21	4723
2026-01-14 01:36:42.42	358.12	21.51	-31.3	-33.7	11.8	3.06e-04	0	43	0	292552704	22	4767
2026-01-14 01:36:43.43	357.97	21.63	-31.3	-33.8	11.7	1.09e-03	0	43	0	294649856	22	4807
2026-01-14 01:36:44.43	357.81	21.74	-31.1	-33.2	12.2	4.96e-04	0	42	0	296747008	22	4576
2026-01-14 01:36:45.44	357.65	21.85	-31.0	-33.0	12.2	1.82e-04	0	43	0	298844160	22	4514
2026-01-14 01:36:46.44	357.50	21.97	-31.0	-33.4	12.2	1.30e-04	0	43	0	299892736	21	4780
2026-01-14 01:36:47.44	357.34	22.08	-31.2	-33.6	11.9	2.80e-03	0	43	0	301989888	22	4725
2026-01-14 01:36:48.44	357.18	22.20	-31.1	-33.3	12.0	4.11e-04	0	43	0	304087040	22	4625
2026-01-14 01:36:49.45	357.02	22.31	-31.3	-33.7	11.8	3.83e-04	0	43	0	306184192	22	4764
2026-01-14 01:36:50.45	356.85	22.43	-31.3	-33.7	11.8	3.49e-03	0	43	0	308281344	22	4786
2026-01-14 01:36:51.45	356.69	22.54	-31.4	-34.0	11.6	3.13e-03	0	43	0	309329920	22	4887
2026-01-14 01:36:52.45	356.53	22.66	-31.3	-33.9	11.7	8.22e-04	0	43	0	311427072	22	4854
2026-01-14 01:36:53.46	356.36	22.77	-31.2	-33.4	12.0	4.10e-04	0	43	0	313524224	22	4650
2026-01-14 01:36:54.46	356.19	22.89	-31.4	-34.0	11.6	2.78e-03	0	43	0	315621376	22	4891
2026-01-14 01:36:55.46	356.02	23.00	-31.3	-33.7	11.9	7.72e-04	0	43	0	317718528	22	4750
2026-01-14 01:36:56.46	355.86	23.12	-31.2	-33.5	12.0	2.21e-04	0	42	0	318767104	22	4671
2026-01-14 01:36:57.46	355.69	23.24	-31.1	-33.2	12.1	2.78e-03	0	43	0	320864256	22	4589
2026-01-14 01:36:58.47	355.51	23.35	-30.8	-32.4	12.7	4.80e-04	0	42	0	322961408	22	4323
2026-01-14 01:36:59.48	355.34	23.47	-30.8	-32.8	12.7	2.03e-04	0	43	0	325058560	21	4525
2026-01-14 01:37:00.48	355.16	23.59	-30.8	-32.7	12.8	2.35e-03	0	43	0	327155712	21	4517
2026-01-14 01:37:01.48	354.99	23.71	-30.7	-32.7	12.9	3.38e-04	0	43	0	328204288	21	4490
2026-01-14 01:37:02.49	354.81	23.82	-30.6	-32.4	13.0	2.14e-03	0	43	0	330301440	21	4404
2026-01-14 01:37:03.49	354.63	23.94	-30.4	-31.6	13.5	4.19e-05	0	43	0	332398592	21	4145
2026-01-14 01:37:04.50	354.45	24.06	-30.4	-31.7	13.5	2.24e-04	0	43	0	334495744	21	4181
2026-01-14 01:37:05.50	354.27	24.18	-30.4	-32.2	13.5	1.87e-03	0	43	0	335544320	20	4433
2026-01-14 01:37:06.50	354.08	24.30	-30.3	-32.0	13.6	1.67e-05	0	43	0	337641472	20	4384
2026-01-14 01:37:07.50	353.90	24.42	-30.3	-31.4	13.6	2.34e-04	0	43	0	339738624	21	4107
2026-01-14 01:37:08.50	353.71	24.53	-30.5	-32.1	13.2	1.84e-03	0	43	0	341835776	21	4313
2026-01-14 01:37:09.50	353.53	24.65	-30.3	-32.0	13.6	1.87e-03	0	43	0	343932928	20	4364
2026-01-14 01:37:10.49	353.34	24.77	-30.2	-31.6	13.9	1.94e-04	0	43	0	344981504	20	4232
2026-01-14 01:37:11.50	353.15	24.89	-30.2	-31.7	13.8	1.73e-03	0	43	0	347078656	20	4264
2026-01-14 01:37:12.50	352.96	25.01	-30.5	-32.4	13.4	1.62e-03	0	43	0	349175808	20	4475
2026-01-14 01:37:13.51	352.76	25.13	-30.6	-32.1	13.3	1.85e-04	0	43	0	351272960	21	4319
2026-01-14 01:37:14.51	352.57	25.25	-30.9	-33.0	12.8	1.61e-03	0	43	0	353370112	21	4580
2026-01-14 01:37:15.52	352.37	25.37	-31.1	-33.1	12.3	1.72e-03	0	43	0	354418688	22	4545
2026-01-14 01:37:16.52	352.17	25.49	-31.0	-33.0	12.4	1.98e-04	0	43	0	356515840	22	4489
2026-01-14 01:37:17.52	351.97	25.62	-31.3	-33.6	12.0	1.84e-03	0	43	0	358612992	22	4709
2026-01-14 01:37:18.52	351.77	25.74	-31.3	-33.7	11.9	2.15e-03	0	42	0	360710144	22	4745
2026-01-14 01:37:19.52	351.57	25.86	-31.3	-33.6	11.9	5.04e-04	0	43	0	362807296	22	4723
2026-01-14 01:37:20.52	351.37	25.98	-31.5	-33.7	11.6	2.20e-03	0	43	0	363855872	23	4646
2026-01-14 01:37:21.52	351.16	26.10	-31.3	-33.8	11.8	2.43e-03	0	43	0	365953024	22	4789
2026-01-14 01:37:22.52	350.95	26.22	-31.4	-34.0	11.7	5.10e-04	0	43	0	368050176	22	4843
2026-01-14 01:37:23.53	350.74	26.34	-31.4	-34.0	11.7	2.55e-03	0	43	0	370147328	22	4844
2026-01-14 01:37:24.53	350.53	26.46	-31.4	-34.0	11.7	2.55e-03	0	43	0	372244480	22	4848
2026-01-14 01:37:25.53	350.32	26.59	-31.4	-33.6	11.6	6.74e-04	0	43	0	373293056	23	4633
2026-01-14 01:37:26.53	350.11	26.71	-31.4	-34.2	11.5	2.91e-03	0	43	0	375390208	22	4947
2026-01-14 01:37:27.53	349.89	26.83	-31.5	-33.9	11.3	1.32e-03	0	43	0	377487360	23	4755
2026-01-14 01:37:28.53	349.68	26.95	-31.8	-34.9	10.7	3.17e-03	0	43	0	379584512	23	5144
2026-01-14 01:37:29.54	349.45	27.07	-32.0	-35.1	10.2	9.03e-03	0	43	0	380633088	24	5126
2026-01-14 01:37:30.53	349.24	27.20	-32.1	-35.5	9.9	8.79e-03	0	43	0	382730240	24	5288
2026-01-14 01:37:31.54	349.01	27.32	-32.1	-35.4	10.0	7.07e-03	0	43	0	384827392	24	5244
2026-01-14 01:37:32.54	348.79	27.44	-32.1	-35.3	10.0	9.54e-03	0	43	0	386924544	24	5231
2026-01-14 01:37:33.54	348.56	27.56	-31.9	-34.7	10.5	7.12e-03	0	43	0	389021696	24	4960
2026-01-14 01:37:34.55	348.33	27.69	-31.8	-34.4	10.6	3.64e-03	0	43	0	390070272	24	4862
2026-01-14 01:37:35.54	348.11	27.81	-31.5	-34.0	11.2	3.63e-03	0	43	0	392167424	23	4775
2026-01-14 01:37:36.55	347.87	27.93	-31.7	-34.6	10.9	2.60e-03	0	43	0	394264576	23	5007
2026-01-14 01:37:37.54	347.64	28.05	-31.7	-34.6	10.9	2.87e-03	0	43	0	396361728	23	5015
2026-01-14 01:37:38.54	347.41	28.18	-31.8	-34.7	10.8	1.95e-03	0	43	0	398458880	23	5062
2026-01-14 01:37:39.54	347.17	28.30	-31.9	-35.1	10.5	3.19e-03	0	43	0	399507456	23	5225
2026-01-14 01:37:40.54	346.94	28.42	-31.8	-34.8	10.8	4.48e-03	0	43	0	401604608	23	5082
2026-01-14 01:37:41.54	346.70	28.54	-31.6	-34.3	11.2	1.68e-03	0	43	0	403701760	23	4876
2026-01-14 01:37:42.55	346.45	28.67	-31.8	-34.8	10.8	1.67e-03	0	43	0	405798912	23	5076
2026-01-14 01:37:43.55	346.21	28.79	-31.6	-33.9	11.4	3.32e-03	0	43	0	407896064	23	4732
2026-01-14 01:37:44.55	345.96	28.91	-31.5	-33.7	11.6	1.86e-03	0	43	0	408944640	23	4646
2026-01-14 01:37:45.56	345.71	29.03	-31.3	-33.7	11.9	4.52e-04	0	43	0	411041792	22	4747
2026-01-14 01:37:46.56	345.46	29.16	-31.3	-33.8	11.9	2.56e-04	0	43	0	413138944	22	4769
2026-01-14 01:37:47.56	345.21	29.28	-31.3	-33.7	12.0	2.44e-03	0	43	0	415236096	22	4745
2026-01-14 01:37:48.56	344.96	29.40	-31.4	-33.9	11.9	4.67e-04	0	43	0	416284672	22	4810
2026-01-14 01:37:49.56	344.71	29.52	-31.6	-34.0	11.5	1.06e-03	0	43	0	418381824	23	4770
2026-01-14 01:37:50.57	344.45	29.65	-31.5	-33.7	11.7	2.96e-03	0	43	0	420478976	23	4647
2026-01-14 01:37:51.57	344.19	29.77	-31.5	-33.9	11.6	6.35e-04	0	43	0	422576128	23	4708
2026-01-14 01:37:52.58	343.92	29.89	-31.9	-34.9	10.8	1.82e-03	0	43	0	424673280	23	5114
2026-01-14 01:37:53.58	343.66	30.01	-31.8	-34.3	10.8	3.19e-03	0	43	0	425721856	24	4780
2026-01-14 01:37:54.59	343.39	30.13	-31.6	-34.1	11.3	3.59e-03	0	43	0	427819008	23	4809
2026-01-14 01:37:55.59	343.12	30.25	-31.8	-34.7	10.9	1.92e-03	0	43	0	429916160	23	5042
2026-01-14 01:37:56.59	342.86	30.38	-31.7	-34.4	11.1	2.47e-03	0	43	0	432013312	23	4930
2026-01-14 01:37:57.60	342.58	30.50	-31.5	-33.8	11.6	2.90e-03	0	43	0	434110464	23	4688
2026-01-14 01:37:58.60	342.31	30.62	-31.5	-33.8	11.6	7.19e-04	0	43	0	435159040	23	4674
2026-01-14 01:37:59.61	342.03	30.74	-31.6	-34.1	11.5	8.86e-04	0	43	0	437256192	23	4782
2026-01-14 01:38:00.61	341.75	30.86	-31.8	-34.6	11.1	8.99e-04	0	43	0	439353344	23	4979
2026-01-14 01:38:01.62	341.47	30.98	-31.7	-34.3	11.1	1.78e-03	0	43	0	441450496	23	4871
2026-01-14 01:38:02.62	341.19	31.10	-31.6	-34.1	11.4	1.71e-03	0	43	0	443547648	23	4787
2026-01-14 01:38:03.62	340.91	31.22	-31.8	-34.6	11.0	1.98e-03	0	43	0	444596224	23	5002
2026-01-14 01:38:04.63	340.62	31.34	-31.5	-33.7	11.7	1.57e-03	0	43	0	446693376	23	4624
2026-01-14 01:38:05.62	340.33	31.45	-31.2	-33.3	12.2	2.52e-04	0	43	0	448790528	22	4604
2026-01-14 01:38:06.63	340.04	31.57	-31.2	-33.3	12.3	2.19e-04	0	43	0	450887680	22	4577
2026-01-14 01:38:07.63	339.75	31.69	-31.4	-33.8	11.9	2.43e-04	0	43	0	452984832	22	4782
2026-01-14 01:38:08.63	339.45	31.81	-31.5	-33.8	11.7	5.47e-04	0	43	0	454033408	23	4671
2026-01-14 01:38:09.64	339.15	31.93	-31.6	-34.1	11.4	7.74e-04	0	43	0	456130560	23	4797
2026-01-14 01:38:10.64	338.85	32.04	-31.7	-34.4	11.1	1.15e-03	0	43	0	458227712	23	4919
2026-01-14 01:38:11.65	338.55	32.16	-31.7	-34.5	11.1	1.63e-03	0	43	0	460324864	23	4961
2026-01-14 01:38:12.65	338.25	32.28	-31.8	-35.0	10.7	2.24e-03	0	43	0	462422016	23	5169
2026-01-14 01:38:13.65	337.94	32.39	-31.8	-34.8	10.8	2.73e-03	0	43	0	463470592	23	5096
2026-01-14 01:38:14.65	337.63	32.51	-31.6	-34.3	11.1	1.80e-03	0	43	0	465567744	23	4898
2026-01-14 01:38:15.65	337.32	32.62	-31.7	-34.6	10.9	1.99e-03	0	43	0	467664896	23	5031
2026-01-14 01:38:16.65	337.01	32.73	-31.6	-34.4	11.0	2.41e-03	0	43	0	469762048	23	4942
2026-01-14 01:38:17.65	336.70	32.85	-31.8	-35.0	10.6	2.38e-03	0	43	0	470810624	23	5206
2026-01-14 01:38:18.65	336.38	32.96	-31.9	-34.9	10.2	5.17e-03	0	43	0	472907776	24	5084
2026-01-14 01:38:19.66	336.06	33.07	-32.1	-35.6	9.8	6.49e-03	0	43	0	475004928	24	5382
2026-01-14 01:38:20.66	335.74	33.18	-32.1	-35.7	9.7	1.04e-02	0	43	0	477102080	24	5419
2026-01-14 01:38:21.66	335.42	33.29	-32.2	-35.8	9.6	1.02e-02	0	43	0	479199232	24	5458
2026-01-14 01:38:22.66	335.09	33.40	-32.2	-35.7	9.6	1.54e-02	0	43	0	480247808	24	5416
2026-01-14 01:38:23.67	334.76	33.51	-32.3	-36.2	9.4	1.71e-02	0	43	0	482344960	24	5645
2026-01-14 01:38:24.67	334.43	33.62	-32.4	-36.6	9.1	2.00e-02	0	43	0	484442112	24	5835
2026-01-14 01:38:25.68	334.10	33.73	-32.7	-37.2	8.2	4.28e-02	0	43	0	486539264	25	6059
2026-01-14 01:38:26.68	333.76	33.84	-32.8	-37.7	7.9	6.70e-02	0	43	0	488636416	25	6302
2026-01-14 01:38:27.69	333.42	33.95	-32.9	-38.2	7.5	7.16e-02	0	43	0	489684992	25	6603
2026-01-14 01:38:28.69	333.08	34.05	-33.2	-38.9	6.8	1.57e-01	0	43	0	491782144	26	6983
2026-01-14 01:38:29.69	332.74	34.16	-33.1	-38.7	6.7	2.39e-01	0	43	0	493879296	26	6862
2026-01-14 01:38:30.69	332.40	34.26	-33.2	-39.2	6.4	2.44e-01	0	43	0	495976448	26	7193
2026-01-14 01:38:31.69	332.06	34.36	-33.2	-39.2	6.4	2.85e-01	0	43	0	498073600	26	7190
2026-01-14 01:38:32.69	331.71	34.47	-32.7	-37.1	8.2	6.54e-02	0	43	0	499122176	25	6018
2026-01-14 01:38:33.68	331.36	34.57	-32.2	-35.2	9.7	1.86e-02	0	43	0	501219328	25	5105
2026-01-14 01:38:34.68	331.01	34.67	-31.9	-34.9	10.4	6.02e-03	0	43	0	503316480	24	5037
2026-01-14 01:38:35.68	330.66	34.77	-32.0	-35.1	10.2	7.37e-03	0	43	0	505413632	24	5151
2026-01-14 01:38:36.69	330.30	34.87	-32.1	-35.5	9.8	9.65e-03	0	43	0	507510784	24	5317
2026-01-14 01:38:37.69	329.94	34.96	-32.4	-36.5	9.1	1.04e-02	0	43	0	508559360	24	5771
2026-01-14 01:38:38.69	329.58	35.06	-32.5	-36.5	8.7	2.31e-02	0	43	0	510656512	25	5730
2026-01-14 01:38:39.70	329.21	35.16	-32.4	-36.0	9.1	2.73e-02	0	43	0	512753664	25	5483
2026-01-14 01:38:40.70	328.85	35.25	-32.3	-36.2	9.3	2.15e-02	0	43	0	514850816	24	5638
2026-01-14 01:38:41.71	328.48	35.35	-32.2	-35.9	9.5	2.13e-02	0	43	0	515899392	24	5490
2026-01-14 01:38:42.71	328.11	35.44	-32.0	-35.2	10.0	1.70e-02	0	43	0	517996544	24	5202
2026-01-14 01:38:43.71	327.74	35.53	-31.9	-35.3	10.3	7.83e-03	0	43	0	520093696	23	5343
2026-01-14 01:38:44.72	327.36	35.62	-32.0	-35.3	9.9	7.35e-03	0	43	0	522190848	24	5271
2026-01-14 01:38:45.71	326.99	35.71	-31.9	-34.9	10.3	1.42e-02	0	43	0	524288000	24	5072
2026-01-14 01:38:46.71	326.61	35.80	-32.2	-35.9	9.5	1.87e-02	0	43	0	525336576	24	5537
2026-01-14 01:38:47.72	326.23	35.89	-32.1	-35.7	9.8	1.86e-02	0	43	0	527433728	24	5429
2026-01-14 01:38:48.72	325.85	35.97	-32.0	-35.0	10.3	1.15e-02	0	43	0	529530880	24	5105
2026-01-14 01:38:49.72	325.46	36.06	-31.8	-35.0	10.6	6.93e-03	0	43	0	531628032	23	5185
2026-01-14 01:38:50.71	325.08	36.14	-31.5	-33.9	11.4	3.74e-03	0	43	0	533725184	23	4745
2026-01-14 01:38:51.72	324.69	36.22	-31.3	-33.9	11.7	7.57e-04	0	43	0	534773760	22	4862
2026-01-14 01:38:52.73	324.30	36.30	-31.4	-34.2	11.6	3.16e-03	0	43	0	536870912	22	4951
2026-01-14 01:38:53.74	323.90	36.38	-31.5	-34.0	11.3	3.19e-03	0	43	0	538968064	23	4810
2026-01-14 01:38:54.74	323.51	36.46	-31.6	-34.3	11.1	1.42e-03	0	43	0	541065216	23	4912
2026-01-14 01:38:55.73	323.11	36.54	-31.4	-34.2	11.5	1.38e-03	0	43	0	543162368	22	4952
2026-01-14 01:38:56.73	322.72	36.61	-31.3	-34.0	11.6	3.07e-03	0	43	0	544210944	22	4904
2026-01-14 01:38:57.74	322.31	36.69	-30.9	-32.7	12.5	6.61e-04	0	43	0	546308096	22	4427
2026-01-14 01:38:58.74	321.91	36.76	-30.6	-32.5	13.0	6.25e-05	0	43	0	548405248	21	4447
2026-01-14 01:38:59.74	321.51	36.83	-30.6	-32.3	13.1	2.17e-03	0	43	0	550502400	21	4397
2026-01-14 01:39:00.74	321.11	36.90	-30.9	-32.7	12.5	5.80e-04	0	43	0	552599552	22	4442
2026-01-14 01:39:01.74	320.70	36.97	-30.8	-32.8	12.7	2.57e-03	0	43	0	553648128	21	4570
2026-01-14 01:39:02.74	320.29	37.03	-30.7	-32.6	13.0	8.85e-05	0	43	0	555745280	21	4467
2026-01-14 01:39:03.74	319.88	37.10	-30.8	-33.0	12.7	6.71e-05	0	43	0	557842432	21	4627
2026-01-14 01:39:04.75	319.47	37.16	-30.8	-32.8	12.9	2.47e-03	0	43	0	559939584	21	4540
2026-01-14 01:39:05.76	319.05	37.22	-30.5	-32.0	13.3	9.56e-04	0	43	0	560988160	21	4306
2026-01-14 01:39:06.77	318.63	37.29	-30.3	-31.6	13.6	1.99e-04	0	43	0	563085312	21	4171
2026-01-14 01:39:07.77	318.22	37.34	-30.2	-31.8	13.8	1.55e-03	0	43	0	565182464	20	4317
2026-01-14 01:39:08.77	317.80	37.40	-30.4	-32.2	13.4	5.75e-04	0	43	0	567279616	20	4466
2026-01-14 01:39:09.77	317.38	37.46	-30.8	-32.9	12.7	2.28e-05	0	43	0	569376768	21	4615
2026-01-14 01:39:10.78	316.96	37.51	-31.1	-33.4	12.1	3.86e-04	0	43	0	571473920	22	4677
2026-01-14 01:39:11.78	316.54	37.56	-31.0	-33.0	12.2	2.75e-04	0	43	0	572522496	22	4550
2026-01-14 01:39:12.78	316.11	37.61	-30.5	-31.5	13.3	3.38e-04	0	43	0	574619648	22	4070
2026-01-14 01:39:13.79	315.68	37.66	-29.8	-30.8	14.4	6.36e-04	0	43	0	576716800	20	4034
2026-01-14 01:39:14.79	315.26	37.71	-29.3	-29.9	15.4	1.36e-03	0	43	0	578813952	19	3852
2026-01-14 01:39:15.80	314.83	37.75	-28.9	-29.4	16.0	1.97e-04	0	43	0	579862528	18	3818
2026-01-14 01:39:16.79	314.41	37.80	-29.5	-30.7	15.4	1.73e-03	0	43	0	581959680	18	4163
2026-01-14 01:39:17.79	313.98	37.84	-29.5	-30.4	15.1	1.44e-03	0	43	0	584056832	19	3991
2026-01-14 01:39:18.79	313.55	37.88	-30.0	-31.0	14.4	3.33e-04	0	43	0	586153984	20	4068
2026-01-14 01:39:19.79	313.12	37.92	-30.0	-31.2	14.4	1.69e-03	0	43	0	588251136	20	4111
2026-01-14 01:39:20.79	312.68	37.95	-29.9	-30.7	14.6	2.29e-03	0	43	0	589299712	20	3968
2026-01-14 01:39:21.80	312.25	37.99	-30.1	-31.3	14.3	3.58e-04	0	43	0	591396864	20	4129
2026-01-14 01:39:22.80	311.81	38.02	-30.1	-31.3	14.3	2.63e-03	0	43	0	593494016	20	4144
2026-01-14 01:39:23.80	311.38	38.05	-30.3	-32.0	13.9	5.30e-06	0	43	0	595591168	20	4338
2026-01-14 01:39:24.81	310.94	38.08	-30.9	-33.1	13.0	7.16e-04	0	43	0	597688320	21	4603
2026-01-14 01:39:25.81	310.50	38.11	-30.8	-32.6	13.2	2.76e-03	0	43	0	598736896	21	4439
2026-01-14 01:39:26.81	310.06	38.13	-30.4	-31.8	13.6	2.09e-03	0	43	0	600834048	21	4189
2026-01-14 01:39:27.81	309.63	38.15	-30.3	-31.9	13.9	8.71e-04	0	43	0	602931200	20	4314
2026-01-14 01:39:28.81	309.19	38.17	-29.9	-30.9	14.6	2.78e-03	0	43	0	605028352	20	4015
2026-01-14 01:39:29.82	308.74	38.19	-29.6	-30.6	15.1	2.30e-03	0	43	0	607125504	19	4028
2026-01-14 01:39:30.82	308.30	38.21	-29.2	-29.5	15.6	0.00e+00	0	43	0	608174080	19	3743
2026-01-14 01:39:31.83	307.86	38.23	-29.5	-30.3	15.3	3.19e-03	0	43	0	610271232	19	3948
2026-01-14 01:39:32.83	307.42	38.24	-29.5	-30.2	15.3	2.35e-03	0	43	0	612368384	19	3913
2026-01-14 01:39:33.83	306.98	38.25	-29.8	-31.1	14.8	7.00e-07	0	43	0	614465536	19	4173
2026-01-14 01:39:34.83	306.54	38.26	-29.9	-30.9	14.5	0.00e+00	0	43	0	616562688	20	4018
2026-01-14 01:39:35.84	306.09	38.27	-30.0	-31.0	14.4	2.03e-03	0	43	0	617611264	20	4069
2026-01-14 01:39:36.84	305.65	38.28	-30.1	-31.3	14.2	4.48e-04	0	43	0	619708416	20	4142
2026-01-14 01:39:37.84	305.21	38.28	-30.0	-31.2	14.3	0.00e+00	0	43	0	621805568	20	4100
2026-01-14 01:39:38.84	304.77	38.28	-30.2	-31.5	14.1	2.37e-03	0	43	0	623902720	20	4208
2026-01-14 01:39:39.84	304.33	38.28	-30.3	-32.0	13.8	4.28e-04	0	43	0	624951296	20	4341
2026-01-14 01:39:40.84	303.89	38.28	-31.0	-32.7	12.6	6.33e-05	0	43	0	627048448	22	4393
2026-01-14 01:39:41.85	303.44	38.27	-31.1	-33.2	12.3	1.26e-04	0	43	0	629145600	22	4568
2026-01-14 01:39:42.85	303.00	38.27	-31.0	-33.0	12.5	1.33e-04	0	43	0	631242752	22	4503
2026-01-14 01:39:43.85	302.56	38.26	-31.2	-33.5	12.1	1.40e-04	0	43	0	633339904	22	4675
2026-01-14 01:39:44.85	302.12	38.25	-31.4	-34.0	11.8	2.77e-04	0	43	0	634388480	22	4850
2026-01-14 01:39:45.85	301.68	38.24	-31.5	-33.9	11.5	6.61e-04	0	43	0	636485632	23	4724
2026-01-14 01:39:46.86	301.23	38.23	-31.5	-33.7	11.7	3.44e-03	0	43	0	638582784	23	4650
2026-01-14 01:39:47.86	300.79	38.21	-31.3	-33.1	12.0	3.63e-04	0	43	0	640679936	23	4449
2026-01-14 01:39:48.86	300.35	38.19	-31.0	-32.3	12.5	1.37e-04	0	43	0	642777088	23	4171
2026-01-14 01:39:49.86	299.91	38.17	-30.7	-32.0	13.2	1.88e-03	0	43	0	643825664	22	4169
2026-01-14 01:39:50.86	299.47	38.15	-30.6	-32.2	13.3	1.14e-05	0	43	0	645922816	21	4324
2026-01-14 01:39:51.86	299.04	38.13	-30.7	-32.5	13.1	2.05e-05	0	43	0	648019968	21	4413
2026-01-14 01:39:52.87	298.59	38.10	-30.9	-33.0	12.9	2.59e-05	0	43	0	650117120	21	4585
2026-01-14 01:39:53.87	298.16	38.08	-31.0	-32.9	12.6	9.73e-04	0	43	0	652214272	22	4475
2026-01-14 01:39:54.87	297.72	38.05	-31.2	-33.3	12.3	1.22e-04	0	43	0	653262848	22	4614
2026-01-14 01:39:55.86	297.29	38.02	-31.5	-33.9	11.4	5.54e-04	0	43	0	655360000	23	4749
2026-01-14 01:39:56.86	296.86	37.99	-31.7	-34.6	10.8	1.68e-03	0	43	0	657457152	23	5036
2026-01-14 01:39:57.87	296.42	37.95	-32.0	-35.2	10.2	6.73e-03	0	43	0	659554304	24	5183
2026-01-14 01:39:58.87	295.99	37.91	-32.0	-35.2	10.1	8.70e-03	0	43	0	660602880	24	5172
2026-01-14 01:39:59.88	295.55	37.88	-32.0	-35.0	10.2	1.04e-02	0	43	0	662700032	24	5124
2026-01-14 01:40:00.88	295.12	37.84	-31.5	-33.7	11.1	2.37e-03	0	43	0	664797184	24	4594
2026-01-14 01:40:01.88	294.69	37.79	-31.4	-33.8	11.5	1.05e-03	0	43	0	666894336	23	4724
2026-01-14 01:40:02.88	294.26	37.75	-31.6	-34.3	11.1	9.08e-04	0	43	0	668991488	23	4901
2026-01-14 01:40:03.88	293.84	37.71	-31.6	-34.5	10.9	1.88e-03	0	43	0	670040064	23	5007
2026-01-14 01:40:04.88	293.41	37.66	-31.6	-34.3	11.0	2.38e-03	0	43	0	672137216	23	4937
2026-01-14 01:40:05.88	292.99	37.61	-31.9	-34.7	10.5	7.52e-03	0	43	0	674234368	24	4997
2026-01-14 01:40:06.89	292.56	37.56	-32.2	-36.0	9.4	1.22e-02	0	43	0	676331520	24	5582
2026-01-14 01:40:07.89	292.14	37.51	-32.3	-36.3	9.1	2.33e-02	0	43	0	678428672	24	5728
2026-01-14 01:40:08.89	291.72	37.45	-32.1	-35.7	9.7	9.77e-03	0	43	0	679477248	24	5435
2026-01-14 01:40:09.90	291.29	37.40	-32.2	-35.9	9.6	1.29e-02	0	43	0	681574400	24	5495
2026-01-14 01:40:10.90	290.88	37.34	-32.0	-35.2	10.0	9.44e-03	0	43	0	683671552	24	5217
2026-01-14 01:40:11.91	290.46	37.28	-31.7	-34.2	10.8	4.23e-03	0	43	0	685768704	24	4804
2026-01-14 01:40:12.90	290.04	37.22	-31.4	-33.9	11.2	3.24e-03	0	43	0	687865856	23	4784
2026-01-14 01:40:13.90	289.63	37.16	-31.7	-34.7	10.7	1.24e-03	0	43	0	688914432	23	5128
2026-01-14 01:40:14.90	289.22	37.10	-32.0	-35.6	9.6	8.91e-03	0	43	0	691011584	24	5423
2026-01-14 01:40:15.91	288.81	37.03	-32.3	-36.7	8.8	2.95e-02	0	43	0	693108736	24	5947
2026-01-14 01:40:16.90	288.40	36.96	-32.6	-37.4	7.8	4.89e-02	0	43	0	695205888	25	6281
2026-01-14 01:40:17.90	287.99	36.90	-33.1	-39.2	6.3	1.34e-01	0	43	0	697303040	26	7265
2026-01-14 01:40:18.90	287.59	36.83	-33.0	-38.7	6.5	2.11e-01	0	43	0	698351616	26	6938
2026-01-14 01:40:19.90	287.19	36.76	-32.6	-37.4	7.8	9.16e-02	0	43	0	700448768	25	6278
2026-01-14 01:40:20.90	286.79	36.68	-31.9	-34.4	10.0	3.42e-02	0	43	0	702545920	25	4848
2026-01-14 01:40:21.91	286.38	36.61	-31.5	-34.3	10.8	2.90e-03	0	43	0	704643072	23	4950
2026-01-14 01:40:22.91	285.98	36.53	-31.2	-33.2	11.4	8.99e-04	0	43	0	705691648	23	4519
2026-01-14 01:40:23.91	285.59	36.46	-30.9	-32.4	12.4	2.82e-04	0	43	0	707788800	23	4244
2026-01-14 01:40:24.92	285.19	36.38	-31.0	-33.1	12.2	1.14e-04	0	43	0	709885952	22	4572
2026-01-14 01:40:25.92	284.80	36.30	-31.8	-34.9	10.5	6.81e-04	0	43	0	711983104	23	5180
2026-01-14 01:40:26.92	284.41	36.22	-31.8	-34.5	10.5	3.22e-03	0	43	0	714080256	24	4920
2026-01-14 01:40:27.92	284.02	36.14	-31.4	-33.4	11.2	3.19e-03	0	43	0	715128832	24	4508
2026-01-14 01:40:28.92	283.63	36.05	-30.8	-32.3	12.7	2.24e-04	0	43	0	717225984	22	4289
2026-01-14 01:40:29.92	283.25	35.97	-30.6	-31.9	13.1	3.28e-05	0	43	0	719323136	22	4172
2026-01-14 01:40:30.92	282.87	35.88	-30.7	-32.6	13.0	2.67e-05	0	43	0	721420288	21	4484
2026-01-14 01:40:31.93	282.48	35.79	-30.3	-32.1	13.6	2.49e-03	0	43	0	723517440	20	4394
2026-01-14 01:40:32.93	282.10	35.71	-30.4	-32.2	13.6	6.10e-06	0	43	0	724566016	20	4439
2026-01-14 01:40:33.93	281.73	35.62	-30.6	-32.4	13.1	1.52e-05	0	43	0	726663168	21	4406
2026-01-14 01:40:34.93	281.35	35.53	-30.9	-33.3	12.5	5.95e-05	0	43	0	728760320	21	4720
2026-01-14 01:40:35.94	280.98	35.43	-31.3	-34.0	11.6	6.64e-04	0	43	0	730857472	22	4883
2026-01-14 01:40:36.94	280.61	35.34	-31.2	-33.5	12.0	4.89e-04	0	43	0	732954624	22	4711
2026-01-14 01:40:37.93	280.24	35.25	-31.1	-33.5	11.9	2.47e-04	0	43	0	734003200	22	4701
2026-01-14 01:40:38.93	279.88	35.15	-31.1	-33.3	12.0	4.05e-04	0	43	0	736100352	22	4637
2026-01-14 01:40:39.94	279.51	35.05	-30.8	-33.1	12.4	1.47e-03	0	43	0	738197504	21	4678
2026-01-14 01:40:40.95	279.15	34.96	-30.5	-32.1	13.2	5.41e-05	0	43	0	740294656	21	4323
2026-01-14 01:40:41.95	278.79	34.86	-30.4	-31.9	13.3	1.22e-05	0	43	0	742391808	21	4266
2026-01-14 01:40:42.95	278.43	34.76	-30.9	-33.2	12.4	2.04e-04	0	43	0	743440384	21	4698
2026-01-14 01:40:43.96	278.07	34.66	-31.1	-33.4	11.9	2.47e-04	0	43	0	745537536	22	4683
2026-01-14 01:40:44.96	277.72	34.56	-31.3	-34.1	11.5	4.18e-04	0	43	0	747634688	22	4954
2026-01-14 01:40:45.97	277.37	34.45	-31.3	-34.1	11.5	2.45e-03	0	43	0	749731840	22	4947
2026-01-14 01:40:46.97	277.02	34.35	-31.5	-34.5	11.3	2.82e-03	0	43	0	750780416	22	5084
2026-01-14 01:40:47.97	276.67	34.25	-31.6	-34.4	10.9	1.69e-03	0	43	0	752877568	23	4956
2026-01-14 01:40:48.97	276.33	34.14	-31.6	-34.4	11.0	4.24e-03	0	43	0	754974720	23	4943
2026-01-14 01:40:49.97	275.99	34.04	-31.0	-32.9	12.3	2.78e-03	0	43	0	757071872	22	4494
2026-01-14 01:40:50.97	275.65	33.93	-30.8	-32.5	12.7	1.07e-04	0	43	0	759169024	22	4353
2026-01-14 01:40:51.97	275.31	33.83	-30.6	-32.3	13.1	2.59e-05	0	43	0	760217600	21	4378
2026-01-14 01:40:52.98	274.97	33.72	-30.7	-32.6	12.8	2.10e-03	0	43	0	762314752	21	4494
2026-01-14 01:40:53.98	274.64	33.61	-30.2	-31.3	13.8	9.90e-06	0	43	0	764411904	21	4063
2026-01-14 01:40:54.98	274.31	33.50	-30.0	-31.1	14.2	3.00e-06	0	43	0	766509056	20	4102
2026-01-14 01:40:55.98	273.98	33.39	-30.3	-31.9	13.6	2.07e-03	0	43	0	768606208	20	4355
2026-01-14 01:40:56.99	273.65	33.28	-30.9	-33.1	12.5	1.85e-04	0	43	0	769654784	21	4654
2026-01-14 01:40:57.99	273.33	33.17	-30.9	-33.3	12.4	2.46e-03	0	43	0	771751936	21	4728
2026-01-14 01:40:59.00	273.00	33.06	-30.6	-32.2	13.0	2.66e-03	0	43	0	773849088	21	4354
2026-01-14 01:41:00.00	272.68	32.94	-30.3	-31.9	13.6	1.94e-04	0	43	0	775946240	20	4359
2026-01-14 01:41:01.00	272.37	32.83	-30.6	-32.3	13.0	2.57e-03	0	43	0	778043392	21	4383
2026-01-14 01:41:02.00	272.05	32.72	-30.4	-32.2	13.4	3.50e-04	0	43	0	779091968	20	4445
2026-01-14 01:41:03.00	271.74	32.60	-30.5	-32.4	13.3	5.30e-06	0	43	0	781189120	20	4515
2026-01-14 01:41:04.00	271.43	32.49	-30.6	-32.3	13.0	2.05e-03	0	43	0	783286272	21	4394
2026-01-14 01:41:05.00	271.12	32.37	-31.3	-33.7	11.9	1.17e-03	0	43	0	785383424	22	4778
2026-01-14 01:41:06.00	270.81	32.26	-31.3	-33.8	11.8	4.36e-04	0	43	0	787480576	22	4812
2026-01-14 01:41:07.01	270.51	32.14	-31.3	-33.9	11.6	1.45e-03	0	43	0	788529152	22	4840
2026-01-14 01:41:08.01	270.21	32.03	-31.0	-32.9	12.3	1.03e-03	0	43	0	790626304	22	4501
2026-01-14 01:41:09.01	269.91	31.91	-31.2	-33.6	11.8	1.30e-04	0	43	0	792723456	22	4728
2026-01-14 01:41:10.01	269.61	31.79	-31.1	-33.3	12.0	6.97e-04	0	43	0	794820608	22	4627
2026-01-14 01:41:11.01	269.31	31.67	-31.4	-34.2	11.4	1.03e-03	0	43	0	795869184	22	4983
2026-01-14 01:41:12.01	269.02	31.56	-31.5	-34.2	10.9	1.75e-03	0	43	0	797966336	23	4878
2026-01-14 01:41:13.02	268.73	31.44	-31.7	-34.6	10.8	5.05e-03	0	43	0	800063488	23	5042
2026-01-14 01:41:14.01	268.44	31.32	-31.9	-35.2	10.3	5.86e-03	0	43	0	802160640	23	5317
2026-01-14 01:41:15.02	268.15	31.20	-31.9	-35.5	10.1	3.88e-03	0	43	0	804257792	23	5438
2026-01-14 01:41:16.02	267.87	31.08	-32.2	-36.1	9.3	1.10e-02	0	43	0	805306368	24	5591
2026-01-14 01:41:17.03	267.58	30.96	-32.5	-36.5	8.4	2.43e-02	0	43	0	807403520	25	5715
2026-01-14 01:41:18.03	267.30	30.84	-32.4	-36.3	8.7	3.62e-02	0	43	0	809500672	25	5589
2026-01-14 01:41:19.02	267.03	30.72	-32.1	-35.3	9.8	2.76e-02	0	43	0	811597824	24	5247
2026-01-14 01:41:20.03	266.75	30.60	-31.9	-34.9	10.2	7.00e-03	0	43	0	813694976	24	5069
2026-01-14 01:41:21.03	266.47	30.48	-31.7	-34.2	10.8	2.86e-03	0	43	0	814743552	24	4762
2026-01-14 01:41:22.04	266.20	30.36	-31.7	-34.6	10.7	4.82e-03	0	43	0	816840704	23	5045
2026-01-14 01:41:23.05	265.93	30.23	-31.8	-35.0	10.5	2.88e-03	0	43	0	818937856	23	5173
2026-01-14 01:41:24.05	265.66	30.11	-31.9	-35.3	10.3	4.87e-03	0	43	0	821035008	23	5305
2026-01-14 01:41:25.05	265.39	29.99	-31.6	-34.3	10.9	4.83e-03	0	43	0	823132160	23	4906
2026-01-14 01:41:26.05	265.13	29.87	-31.3	-33.7	11.7	2.76e-03	0	43	0	824180736	22	4769
2026-01-14 01:41:27.05	264.87	29.75	-31.0	-32.9	12.3	2.16e-04	0	43	0	826277888	22	4486
2026-01-14 01:41:28.06	264.60	29.62	-31.1	-33.2	12.1	2.34e-03	0	43	0	828375040	22	4573
2026-01-14 01:41:29.06	264.35	29.50	-30.8	-32.9	12.7	2.10e-03	0	43	0	830472192	21	4570
2026-01-14 01:41:30.07	264.09	29.38	-30.4	-31.8	13.4	2.59e-05	0	43	0	832569344	21	4218
2026-01-14 01:41:31.07	263.83	29.25	-30.3	-31.8	13.7	9.58e-04	0	43	0	833617920	20	4312
2026-01-14 01:41:32.07	263.58	29.13	-30.3	-32.1	13.6	9.08e-04	0	43	0	835715072	20	4394
2026-01-14 01:41:33.07	263.33	29.01	-30.7	-32.5	12.9	2.67e-05	0	43	0	837812224	21	4436
2026-01-14 01:41:34.08	263.08	28.89	-30.5	-31.9	13.3	1.99e-03	0	43	0	839909376	21	4234
2026-01-14 01:41:35.09	262.83	28.76	-30.6	-32.3	13.1	1.63e-03	0	43	0	842006528	21	4372
2026-01-14 01:41:36.09	262.59	28.64	-31.1	-33.1	12.2	2.11e-03	0	43	0	843055104	22	4536
2026-01-14 01:41:37.10	262.34	28.51	-31.3	-33.9	11.6	6.56e-04	0	43	0	845152256	22	4826
2026-01-14 01:41:38.10	262.10	28.39	-31.3	-33.9	11.6	6.07e-04	0	43	0	847249408	22	4824
2026-01-14 01:41:39.10	261.86	28.27	-31.5	-34.1	11.2	2.98e-03	0	43	0	849346560	23	4805
2026-01-14 01:41:40.10	261.63	28.15	-31.5	-34.0	11.2	1.23e-03	0	43	0	850395136	23	4794
2026-01-14 01:41:41.10	261.39	28.02	-31.6	-34.2	11.1	2.00e-03	0	43	0	852492288	23	4848
2026-01-14 01:41:42.11	261.16	27.90	-31.1	-33.1	12.2	1.15e-03	0	43	0	854589440	22	4560
2026-01-14 01:41:43.11	260.92	27.78	-31.2	-33.4	12.0	5.39e-04	0	43	0	856686592	22	4645
2026-01-14 01:41:44.11	260.69	27.65	-31.0	-32.9	12.4	2.17e-04	0	43	0	858783744	22	4462
2026-01-14 01:41:45.12	260.46	27.53	-31.0	-33.0	12.3	1.91e-04	0	43	0	859832320	22	4515
2026-01-14 01:41:46.12	260.24	27.41	-30.9	-32.6	12.4	2.00e-04	0	43	0	861929472	22	4399
2026-01-14 01:41:47.13	260.01	27.28	-31.1	-33.3	12.1	3.32e-04	0	43	0	864026624	22	4613
2026-01-14 01:41:48.13	259.79	27.16	-30.8	-32.5	12.6	1.62e-04	0	43	0	866123776	22	4338
2026-01-14 01:41:49.14	259.57	27.04	-30.4	-31.9	13.3	1.78e-04	0	43	0	868220928	21	4253
2026-01-14 01:41:50.14	259.35	26.91	-30.2	-31.4	13.6	1.06e-05	0	43	0	869269504	21	4092
2026-01-14 01:41:51.14	259.13	26.79	-30.2	-31.7	13.7	3.00e-06	0	43	0	871366656	20	4297
2026-01-14 01:41:52.14	258.91	26.67	-30.2	-31.8	13.7	1.62e-04	0	43	0	873463808	20	4309
2026-01-14 01:41:53.14	258.70	26.55	-30.4	-31.8	13.4	1.29e-05	0	43	0	875560960	21	4213
2026-01-14 01:41:54.14	258.49	26.42	-30.1	-31.1	13.9	9.10e-06	0	43	0	877658112	21	4001
2026-01-14 01:41:55.14	258.28	26.30	-30.0	-31.3	14.0	4.50e-06	0	43	0	878706688	20	4170
2026-01-14 01:41:56.16	258.06	26.18	-29.9	-30.9	14.2	2.20e-06	0	43	0	880803840	20	4036
2026-01-14 01:41:57.16	257.85	26.06	-29.8	-30.7	14.3	7.00e-07	0	43	0	882900992	20	3996
2026-01-14 01:41:58.16	257.65	25.94	-30.1	-31.4	13.9	3.00e-06	0	43	0	884998144	20	4185
2026-01-14 01:41:59.17	257.44	25.81	-30.0	-31.3	13.9	4.50e-06	0	43	0	887095296	20	4175
2026-01-14 01:42:00.17	257.24	25.69	-30.2	-31.8	13.6	4.50e-06	0	43	0	888143872	20	4331
2026-01-14 01:42:01.17	257.04	25.57	-30.1	-31.5	13.8	4.50e-06	0	43	0	890241024	20	4226
2026-01-14 01:42:02.17	256.84	25.45	-30.2	-31.9	13.6	4.50e-06	0	43	0	892338176	20	4352
2026-01-14 01:42:03.18	256.64	25.33	-30.1	-31.5	13.8	5.34e-05	0	43	0	894435328	20	4225
2026-01-14 01:42:04.18	256.44	25.21	-30.1	-31.4	13.9	2.20e-06	0	43	0	896532480	20	4179
2026-01-14 01:42:05.18	256.25	25.09	-30.1	-31.4	13.8	3.00e-06	0	43	0	897581056	20	4209
2026-01-14 01:42:06.18	256.05	24.97	-30.1	-31.7	13.5	3.80e-06	0	43	0	899678208	20	4367
2026-01-14 01:42:07.19	255.86	24.84	-30.0	-31.7	13.5	1.22e-05	0	43	0	901775360	20	4355
2026-01-14 01:42:08.19	255.67	24.72	-30.2	-31.8	13.7	5.30e-06	0	43	0	903872512	20	4310
2026-01-14 01:42:09.19	255.48	24.61	-30.3	-31.9	12.7	8.30e-06	0	43	0	905969664	20	4340
2026-01-14 01:42:10.19	255.29	24.49	-30.0	-31.3	12.9	6.10e-06	0	43	0	907018240	20	4165
2026-01-14 01:42:11.19	255.10	24.37	-30.1	-31.6	13.7	5.30e-06	0	43	0	909115392	20	4254
2026-01-14 01:42:12.19	254.92	24.25	-30.0	-31.2	13.9	3.00e-06	0	43	0	911212544	20	4139
2026-01-14 01:42:13.20	254.73	24.13	-30.1	-31.6	13.7	4.50e-06	0	43	0	913309696	20	4259
2026-01-14 01:42:14.20	254.55	24.01	-30.2	-31.8	13.6	1.14e-05	0	43	0	914358272	20	4327
2026-01-14 01:42:15.20	254.37	23.89	-30.1	-31.6	13.7	5.30e-06	0	43	0	916455424	20	4262
2026-01-14 01:42:16.21	254.19	23.77	-30.2	-31.8	13.5	5.30e-06	0	43	0	918552576	20	4326
2026-01-14 01:42:17.21	254.01	23.65	-30.3	-32.2	13.3	1.22e-05	0	43	0	920649728	20	4445
2026-01-14 01:42:18.21	253.84	23.54	-30.2	-31.7	13.7	8.30e-06	0	43	0	922746880	20	4302
2026-01-14 01:42:19.21	253.66	23.42	-30.4	-32.4	13.2	6.80e-06	0	43	0	923795456	20	4528
2026-01-14 01:42:20.21	253.49	23.30	-30.6	-32.3	12.9	3.73e-05	0	43	0	925892608	21	4378
2026-01-14 01:42:21.21	253.31	23.18	-30.3	-32.0	13.5	2.50e-03	0	43	0	927989760	20	4373
2026-01-14 01:42:22.21	253.14	23.07	-30.4	-32.4	13.1	1.90e-05	0	43	0	930086912	20	4521
2026-01-14 01:42:23.21	252.97	22.95	-30.5	-32.0	13.1	2.51e-05	0	43	0	932184064	21	4290
2026-01-14 01:42:24.21	252.80	22.83	-30.7	-32.6	12.6	2.71e-03	0	43	0	933232640	21	4503
2026-01-14 01:42:25.21	252.64	22.72	-30.8	-33.1	12.3	1.43e-04	0	43	0	935329792	21	4659
2026-01-14 01:42:26.21	252.47	22.60	-31.2	-33.5	11.7	1.42e-04	0	43	0	937426944	22	4736
2026-01-14 01:42:27.21	252.30	22.49	-31.2	-33.7	11.6	8.44e-04	0	43	0	939524096	22	4797
2026-01-14 01:42:28.21	252.14	22.37	-31.1	-33.3	11.9	3.35e-03	0	43	0	941621248	22	4654
2026-01-14 01:42:29.22	251.98	22.26	-31.1	-33.5	11.7	4.43e-04	0	43	0	942669824	22	4713
2026-01-14 01:42:30.22	251.82	22.14	-31.0	-33.2	11.9	3.94e-04	0	43	0	944766976	22	4622
2026-01-14 01:42:31.22	251.66	22.03	-31.2	-33.6	11.7	3.44e-03	0	43	0	946864128	22	4783
2026-01-14 01:42:32.22	251.50	21.91	-31.1	-33.5	11.7	1.07e-03	0	43	0	948961280	22	4732
2026-01-14 01:42:33.22	251.34	21.80	-31.2	-33.8	11.4	8.51e-04	0	43	0	951058432	22	4859
2026-01-14 01:42:34.22	251.18	21.69	-31.1	-33.5	11.7	1.01e-03	0	43	0	952107008	22	4716
2026-01-14 01:42:35.22	251.03	21.57	-30.9	-32.9	12.0	1.24e-03	0	43	0	954204160	22	4534
2026-01-14 01:42:36.22	250.87	21.46	-30.7	-32.7	12.5	1.57e-04	0	43	0	956301312	21	4558
2026-01-14 01:42:37.22	250.72	21.35	-30.6	-32.3	12.7	8.92e-05	0	43	0	958398464	21	4418
2026-01-14 01:42:38.22	250.57	21.24	-30.2	-31.9	13.4	1.26e-03	0	43	0	959447040	20	4379
2026-01-14 01:42:39.22	250.42	21.12	-30.2	-31.9	13.4	3.07e-03	0	43	0	961544192	20	4378
2026-01-14 01:42:40.22	250.27	21.01	-30.4	-31.8	13.1	2.82e-05	0	43	0	963641344	21	4259
2026-01-14 01:42:41.23	250.12	20.90	-30.2	-31.7	13.5	1.56e-03	0	43	0	965738496	20	4316
2026-01-14 01:42:42.24	249.97	20.79	-30.3	-32.0	13.3	2.88e-03	0	43	0	967835648	20	4397
2026-01-14 01:42:43.24	249.82	20.68	-30.5	-32.2	12.8	9.68e-05	0	43	0	968884224	21	4388
2026-01-14 01:42:44.24	249.68	20.56	-30.5	-32.3	12.8	4.27e-05	0	43	0	970981376	21	4393
2026-01-14 01:42:45.24	249.53	20.45	-30.5	-32.2	12.8	4.03e-03	0	43	0	973078528	21	4381
2026-01-14 01:42:46.25	249.39	20.34	-30.5	-32.3	12.8	3.07e-03	0	43	0	975175680	21	4396
2026-01-14 01:42:47.25	249.24	20.23	-30.4	-32.3	13.2	6.63e-05	0	43	0	977272832	20	4479
2026-01-14 01:42:48.25	249.10	20.12	-30.2	-31.7	13.5	3.68e-03	0	43	0	978321408	20	4306
2026-01-14 01:42:49.26	248.96	20.01	-30.1	-31.5	13.7	2.75e-03	0	43	0	980418560	20	4233
2026-01-14 01:42:50.26	248.82	19.90	-29.8	-31.4	14.1	2.67e-04	0	43	0	982515712	19	4279
2026-01-14 01:42:51.25	248.68	19.80	-29.8	-31.1	14.3	2.20e-06	0	43	0	984612864	19	4205
2026-01-14 01:42:52.25	248.55	19.69	-29.8	-31.3	14.2	2.26e-03	0	43	0	986710016	19	4249
2026-01-14 01:42:53.26	248.41	19.58	-30.0	-31.7	13.9	1.86e-04	0	43	0	987758592	19	4374
2026-01-14 01:42:54.26	248.27	19.47	-29.9	-31.6	13.9	7.00e-07	0	43	0	989855744	19	4362
2026-01-14 01:42:55.27	248.14	19.36	-30.1	-31.7	13.5	2.46e-03	0	43	0	991952896	20	4300
2026-01-14 01:42:56.27	248.01	19.26	-30.5	-32.6	12.9	1.08e-03	0	43	0	994050048	20	4599
2026-01-14 01:42:57.27	247.87	19.15	-30.7	-32.7	12.4	2.14e-03	0	43	0	995098624	21	4534
2026-01-14 01:42:58.28	247.74	19.04	-31.0	-33.2	11.7	2.08e-03	0	43	0	997195776	22	4641
2026-01-14 01:42:59.28	247.61	18.94	-31.4	-34.3	11.0	1.90e-03	0	43	0	999292928	22	5060
2026-01-14 01:43:00.29	247.48	18.83	-31.6	-34.8	10.3	2.65e-03	0	43	0	1001390080	23	5165
2026-01-14 01:43:01.28	247.35	18.72	-31.9	-35.6	9.6	8.75e-03	0	43	0	1003487232	23	5511
2026-01-14 01:43:02.28	247.22	18.62	-32.1	-35.7	9.3	1.66e-02	0	43	0	1004535808	24	5433
2026-01-14 01:43:03.29	247.10	18.51	-32.2	-36.2	8.9	3.32e-02	0	43	0	1006632960	24	5682
2026-01-14 01:43:04.29	246.97	18.41	-32.1	-35.8	9.2	2.66e-02	0	43	0	1008730112	24	5478
2026-01-14 01:43:05.29	246.84	18.30	-32.0	-35.3	9.6	1.38e-02	0	43	0	1010827264	24	5259
2026-01-14 01:43:06.29	246.72	18.20	-31.7	-34.9	10.2	6.73e-03	0	43	0	1012924416	23	5192
2026-01-14 01:43:07.29	246.60	18.10	-31.5	-34.2	10.8	5.23e-03	0	43	0	1013972992	23	4885
2026-01-14 01:43:08.29	246.47	17.99	-31.1	-32.8	11.8	1.58e-03	0	43	0	1016070144	23	4382
2026-01-14 01:43:09.29	246.35	17.89	-30.9	-32.6	12.2	3.38e-04	0	43	0	1018167296	22	4411
2026-01-14 01:43:10.29	246.23	17.79	-30.5	-31.6	12.9	7.40e-05	0	43	0	1020264448	22	4082
2026-01-14 01:43:11.29	246.11	17.68	-30.5	-31.6	12.9	5.56e-05	0	43	0	1022361600	22	4090
2026-01-14 01:43:12.30	245.99	17.58	-30.6	-32.4	12.6	7.78e-05	0	43	0	1023410176	21	4447
2026-01-14 01:43:13.30	245.87	17.48	-30.7	-32.7	12.4	2.16e-03	0	43	0	1025507328	21	4537
2026-01-14 01:43:14.30	245.76	17.38	-30.8	-33.0	12.2	1.49e-04	0	43	0	1027604480	21	4637
2026-01-14 01:43:15.30	245.64	17.27	-31.1	-33.4	11.6	2.81e-03	0	43	0	1029701632	22	4678
2026-01-14 01:43:16.31	245.52	17.17	-31.3	-34.1	11.1	4.11e-03	0	43	0	1031798784	22	4960
2026-01-14 01:43:17.31	245.41	17.07	-31.4	-34.4	10.9	1.95e-03	0	43	0	1032847360	22	5072
2026-01-14 01:43:18.31	245.29	16.97	-31.5	-34.2	10.7	5.46e-03	0	43	0	1034944512	23	4908
2026-01-14 01:43:19.32	245.18	16.87	-31.4	-34.0	10.8	2.69e-03	0	43	0	1037041664	23	4810
2026-01-14 01:43:20.32	245.06	16.77	-31.2	-33.8	11.3	1.91e-03	0	43	0	1039138816	22	4855
2026-01-14 01:43:21.31	244.95	16.67	-31.2	-33.6	11.5	3.39e-03	0	43	0	1040187392	22	4768
2026-01-14 01:43:22.31	244.84	16.57	-31.1	-33.5	11.5	2.90e-03	0	43	0	1042284544	22	4736
2026-01-14 01:43:23.32	244.73	16.47	-31.2	-33.7	11.4	1.36e-03	0	43	0	1044381696	22	4793
2026-01-14 01:43:24.32	244.62	16.37	-31.3	-34.1	11.1	1.72e-03	0	43	0	1046478848	22	4975
2026-01-14 01:43:25.33	244.51	16.27	-31.4	-33.8	10.9	2.28e-03	0	43	0	1048576000	23	4754
2026-01-14 01:43:26.33	244.40	16.18	-31.0	-33.1	11.7	1.58e-03	0	43	0	1049624576	22	4601
2026-01-14 01:43:27.33	244.29	16.08	-30.8	-32.9	12.2	2.51e-03	0	43	0	1051721728	21	4618
2026-01-14 01:43:28.34	244.19	15.98	-30.7	-32.7	12.4	2.01e-03	0	43	0	1053818880	21	4532
2026-01-14 01:43:29.34	244.08	15.88	-30.6	-32.5	12.5	8.93e-04	0	43	0	1055916032	21	4468
2026-01-14 01:43:30.34	243.97	15.78	-30.6	-32.5	12.5	8.39e-04	0	43	0	1058013184	21	4484
2026-01-14 01:43:31.34	243.87	15.69	-30.8	-33.1	12.0	2.97e-03	0	43	0	1059061760	21	4687
2026-01-14 01:43:32.35	243.76	15.59	-31.0	-33.6	11.7	1.21e-03	0	43	0	1061158912	21	4874
2026-01-14 01:43:33.35	243.66	15.49	-30.9	-33.4	11.8	1.21e-03	0	43	0	1063256064	21	4784
2026-01-14 01:43:34.35	243.56	15.40	-31.0	-33.7	11.6	3.69e-03	0	43	0	1065353216	21	4898
2026-01-14 01:43:35.35	243.46	15.30	-31.0	-33.2	11.6	1.88e-03	0	43	0	1067450368	22	4645
2026-01-14 01:43:36.36	243.35	15.21	-31.0	-33.2	11.6	7.99e-04	0	43	0	1068498944	22	4639
2026-01-14 01:43:37.36	243.25	15.11	-31.1	-33.5	11.4	6.99e-04	0	43	0	1070596096	22	4733
2026-01-14 01:43:38.36	243.15	15.02	-31.1	-33.7	11.3	3.19e-03	0	43	0	1072693248	22	4809
2026-01-14 01:43:39.35	243.06	14.92	-31.1	-33.4	11.4	9.69e-04	0	43	0	1074790400	22	4718
2026-01-14 01:43:40.36	242.96	14.83	-31.1	-33.5	11.3	1.04e-03	0	43	0	1076887552	22	4758
2026-01-14 01:43:41.35	242.86	14.73	-31.1	-33.5	11.4	2.15e-03	0	43	0	1077936128	22	4740
2026-01-14 01:43:42.35	242.76	14.64	-31.0	-33.3	11.5	4.86e-03	0	43	0	1080033280	22	4670
2026-01-14 01:43:43.35	242.66	14.55	-31.0	-33.1	11.6	5.77e-04	0	43	0	1082130432	22	4593
2026-01-14 01:43:44.35	242.57	14.45	-30.9	-33.5	11.7	1.22e-03	0	43	0	1084227584	21	4838
2026-01-14 01:43:45.35	242.47	14.36	-30.8	-33.2	11.8	4.06e-03	0	43	0	1085276160	21	4738
2026-01-14 01:43:46.35	242.38	14.27	-30.9	-33.3	11.8	4.02e-04	0	43	0	1087373312	21	4790
2026-01-14 01:43:47.35	242.28	14.18	-30.7	-33.0	12.0	9.06e-04	0	43	0	1089470464	21	4659
2026-01-14 01:43:48.35	242.19	14.08	-30.5	-32.3	12.5	6.38e-04	0	43	0	1091567616	21	4437
2026-01-14 01:43:49.35	242.10	13.99	-30.5	-32.1	12.5	2.64e-03	0	43	0	1093664768	21	4376
2026-01-14 01:43:50.35	242.00	13.90	-30.6	-32.5	12.3	1.51e-04	0	43	0	1094713344	21	4486
2026-01-14 01:43:51.36	241.91	13.81	-30.5	-32.7	12.5	5.05e-04	0	43	0	1096810496	20	4641
2026-01-14 01:43:52.37	241.82	13.72	-30.4	-32.2	12.6	1.10e-04	0	43	0	1098907648	21	4383
2026-01-14 01:43:53.36	241.73	13.63	-30.6	-32.5	12.3	1.58e-04	0	43	0	1101004800	21	4508
2026-01-14 01:43:54.36	241.64	13.54	-30.7	-32.9	12.0	2.17e-04	0	43	0	1103101952	21	4633
2026-01-14 01:43:55.36	241.55	13.45	-30.8	-33.2	11.8	3.34e-04	0	43	0	1104150528	21	4753
2026-01-14 01:43:56.36	241.46	13.36	-31.0	-33.4	11.3	1.39e-03	0	43	0	1106247680	22	4745
2026-01-14 01:43:57.37	241.37	13.27	-31.2	-33.9	10.9	1.96e-03	0	43	0	1108344832	22	4933
2026-01-14 01:43:58.37	241.28	13.18	-31.4	-34.5	10.5	3.04e-03	0	43	0	1110441984	22	5173
2026-01-14 01:43:59.37	241.19	13.09	-31.5	-34.5	10.2	5.52e-03	0	43	0	1111490560	23	5062
2026-01-14 01:44:00.37	241.11	13.00	-31.5	-34.6	10.0	7.82e-03	0	43	0	1113587712	23	5142
2026-01-14 01:44:01.38	241.02	12.91	-31.6	-35.0	9.8	9.22e-03	0	43	0	1115684864	23	5274
2026-01-14 01:44:02.38	240.93	12.82	-31.6	-35.0	9.7	1.01e-02	0	43	0	1117782016	23	5298
2026-01-14 01:44:03.38	240.85	12.73	-31.7	-35.1	9.6	1.25e-02	0	43	0	1119879168	23	5364
2026-01-14 01:44:04.38	240.76	12.64	-31.6	-34.8	9.9	1.09e-02	0	43	0	1121976320	23	5220
2026-01-14 01:44:05.38	240.68	12.56	-31.7	-35.2	9.6	9.95e-03	0	43	0	1123024896	23	5384
2026-01-14 01:44:06.38	240.59	12.47	-31.6	-34.9	9.8	1.10e-02	0	43	0	1125122048	23	5253
2026-01-14 01:44:07.39	240.51	12.38	-31.7	-35.3	9.4	1.28e-02	0	43	0	1127219200	23	5435
2026-01-14 01:44:08.39	240.43	12.30	-31.6	-34.9	9.7	1.73e-02	0	43	0	1129316352	23	5276
2026-01-14 01:44:09.39	240.34	12.21	-31.4	-34.2	10.3	7.93e-03	0	43	0	1130364928	23	4974
2026-01-14 01:44:10.39	240.26	12.12	-31.1	-33.8	10.9	2.45e-03	0	43	0	1132462080	22	4907
2026-01-14 01:44:11.39	240.18	12.04	-30.9	-33.1	11.4	1.32e-03	0	43	0	1134559232	22	4649
2026-01-14 01:44:12.40	240.10	11.95	-30.8	-33.3	11.6	9.75e-04	0	43	0	1136656384	21	4816
2026-01-14 01:44:13.40	240.02	11.86	-30.7	-32.9	11.9	5.54e-04	0	43	0	1138753536	21	4654
2026-01-14 01:44:14.40	239.94	11.78	-30.7	-32.9	11.8	4.26e-04	0	43	0	1139802112	21	4674
2026-01-14 01:44:15.40	239.86	11.69	-30.0	-32.3	11.8	5.19e-04	0	43	0	1141899264	21	4709
2026-01-14 01:44:16.41	239.78	11.61	-30.6	-32.7	12.0	3.91e-04	0	43	0	1143996416	21	4571
2026-01-14 01:44:17.41	239.70	11.52	-31.2	-33.9	11.5	3.06e-04	0	43	0	1146093568	21	4934
2026-01-14 01:44:18.42	239.62	11.44	-30.6	-32.8	11.2	3.81e-04	0	43	0	1148190720	21	4625
2026-01-14 01:44:19.42	239.55	11.35	-30.6	-32.6	11.9	2.91e-04	0	43	0	1149239296	21	4553
2026-01-14 01:44:20.42	239.47	11.27	-30.6	-32.7	11.7	3.63e-04	0	43	0	1151336448	21	4571
2026-01-14 01:44:21.42	239.39	11.19	-30.6	-32.7	12.0	3.72e-04	0	43	0	1153433600	21	4579
2026-01-14 01:44:22.42	239.32	11.10	-30.7	-32.9	11.8	3.52e-04	0	43	0	1155530752	21	4657
2026-01-14 01:44:23.43	239.24	11.02	-30.6	-32.8	11.8	4.90e-04	0	43	0	1157627904	21	4616
2026-01-14 01:44:24.43	239.16	10.94	-30.6	-32.8	11.9	1.78e-03	0	43	0	1158676480	21	4611
2026-01-14 01:44:25.43	239.09	10.85	-30.6	-32.7	11.9	4.04e-04	0	43	0	1160773632	21	4585
2026-01-14 01:44:26.44	239.01	10.77	-30.6	-32.9	11.8	3.90e-04	0	43	0	1162870784	21	4668
2026-01-14 01:44:27.44	238.94	10.69	-30.7	-33.0	11.7	3.08e-03	0	43	0	1164967936	21	4698
2026-01-14 01:44:28.45	238.87	10.60	-30.7	-32.9	11.8	4.87e-04	0	43	0	1167065088	21	4673
2026-01-14 01:44:29.45	238.79	10.52	-30.7	-32.9	11.8	5.13e-04	0	43	0	1168113664	21	4667
2026-01-14 01:44:30.45	238.72	10.44	-30.7	-33.0	11.7	4.42e-04	0	43	0	1170210816	21	4707
2026-01-14 01:44:31.45	238.65	10.36	-30.7	-33.1	11.6	1.04e-03	0	43	0	1172307968	21	4759
2026-01-14 01:44:32.45	238.58	10.28	-30.7	-33.1	11.6	6.42e-04	0	43	0	1174405120	21	4739
2026-01-14 01:44:33.45	238.50	10.20	-30.8	-33.5	11.3	1.10e-03	0	43	0	1175453696	21	4893
2026-01-14 01:44:34.45	238.43	10.12	-30.8	-33.4	11.4	1.49e-03	0	43	0	1177550848	21	4848
2026-01-14 01:44:35.46	238.36	10.04	-31.0	-33.9	11.0	3.17e-03	0	43	0	1179648000	21	5064
2026-01-14 01:44:36.46	238.29	9.95	-31.0	-33.9	11.0	1.46e-03	0	43	0	1181745152	21	5050
2026-01-14 01:44:37.46	238.22	9.87	-31.1	-33.8	10.7	2.07e-03	0	43	0	1183842304	22	4907
2026-01-14 01:44:38.46	238.15	9.80	-31.2	-34.1	10.5	7.58e-03	0	43	0	1184890880	22	5027
2026-01-14 01:44:39.46	238.08	9.72	-31.2	-34.2	10.5	3.40e-03	0	43	0	1186988032	22	5110
2026-01-14 01:44:40.46	238.01	9.64	-31.2	-34.1	10.5	4.91e-03	0	43	0	1189085184	22	5056
2026-01-14 01:44:41.46	237.95	9.56	-31.2	-34.1	10.5	6.21e-03	0	43	0	1191182336	22	5045
2026-01-14 01:44:42.46	237.88	9.48	-31.2	-34.1	10.4	7.06e-03	0	43	0	1193279488	22	5065
2026-01-14 01:44:43.47	237.81	9.40	-31.1	-34.0	10.5	5.23e-03	0	43	0	1194328064	22	5020
2026-01-14 01:44:44.47	237.74	9.32	-31.1	-34.0	10.4	7.58e-03	0	43	0	1196425216	22	5072
2026-01-14 01:44:45.48	237.68	9.24	-31.2	-34.1	10.4	8.02e-03	0	43	0	1198522368	22	5066
2026-01-14 01:44:46.48	237.61	9.16	-31.2	-34.3	10.3	5.05e-03	0	43	0	1200619520	22	5133
2026-01-14 01:44:47.48	237.54	9.08	-31.3	-34.8	9.9	5.46e-03	0	43	0	1202716672	22	5361
2026-01-14 01:44:48.49	237.48	9.01	-31.3	-34.6	10.0	1.20e-02	0	43	0	1203765248	22	5284
2026-01-14 01:44:49.50	237.41	8.93	-31.3	-34.6	10.0	5.93e-03	0	43	0	1205862400	22	5277
2026-01-14 01:44:50.50	237.35	8.85	-31.3	-34.6	10.0	5.74e-03	0	43	0	1207959552	22	5255
2026-01-14 01:44:51.50	237.28	8.77	-31.3	-34.5	10.0	1.14e-02	0	43	0	1210056704	22	5252
2026-01-14 01:44:52.50	237.22	8.70	-31.3	-34.7	9.9	8.75e-03	0	43	0	1212153856	22	5311
2026-01-14 01:44:53.51	237.15	8.62	-31.4	-35.0	9.7	1.41e-02	0	43	0	1213202432	22	5467
2026-01-14 01:44:54.52	237.09	8.54	-31.4	-35.0	9.6	1.57e-02	0	43	0	1215299584	22	5459
2026-01-14 01:44:55.52	237.02	8.46	-31.5	-35.0	9.2	1.32e-02	0	43	0	1217396736	23	5405
2026-01-14 01:44:56.53	236.96	8.39	-31.5	-35.2	9.0	2.80e-02	0	43	0	1219493888	23	5498
2026-01-14 01:44:57.52	236.90	8.31	-31.5	-35.1	9.1	2.57e-02	0	43	0	1221591040	23	5436
2026-01-14 01:44:58.52	236.84	8.24	-31.5	-35.1	9.1	2.33e-02	0	43	0	1222639616	23	5459
2026-01-14 01:44:59.53	236.78	8.16	-31.6	-35.4	8.9	2.79e-02	0	43	0	1224736768	23	5564
2026-01-14 01:45:00.53	236.71	8.09	-31.5	-35.2	9.0	3.15e-02	0	43	0	1226833920	23	5505
2026-01-14 01:45:01.53	236.65	8.01	-31.5	-35.2	9.0	2.18e-02	0	43	0	1228931072	23	5475
2026-01-14 01:45:02.54	236.59	7.93	-31.5	-35.1	9.0	2.72e-02	0	43	0	1229979648	23	5458
2026-01-14 01:45:03.54	236.53	7.86	-31.5	-35.1	9.1	2.83e-02	0	43	0	1232076800	23	5429
2026-01-14 01:45:04.55	236.47	7.78	-31.4	-34.9	9.2	1.96e-02	0	43	0	1234173952	23	5357
2026-01-14 01:45:05.54	236.41	7.71	-31.5	-35.1	9.0	2.78e-02	0	43	0	1236271104	23	5465
2026-01-14 01:45:06.54	236.35	7.64	-31.4	-35.3	9.3	2.49e-02	0	43	0	1238368256	22	5610
2026-01-14 01:45:07.55	236.29	7.56	-31.4	-35.1	9.4	1.51e-02	0	43	0	1239416832	22	5562
2026-01-14 01:45:08.55	236.23	7.49	-31.3	-34.9	9.6	1.72e-02	0	43	0	1241513984	22	5457
2026-01-14 01:45:09.55	236.17	7.41	-31.2	-34.4	9.9	1.40e-02	0	43	0	1243611136	22	5228
2026-01-14 01:45:10.55	236.12	7.34	-31.1	-34.3	10.0	9.59e-03	0	43	0	1245708288	22	5180
2026-01-14 01:45:11.55	236.06	7.27	-31.2	-34.5	9.8	1.04e-02	0	43	0	1247805440	22	5287
2026-01-14 01:45:12.55	236.00	7.19	-31.0	-34.0	10.1	1.11e-02	0	43	0	1248854016	22	5080
2026-01-14 01:45:13.56	235.94	7.12	-31.0	-33.9	10.2	5.60e-03	0	43	0	1250951168	22	5036
2026-01-14 01:45:14.57	235.88	7.05	-33.2	-45.4	3.8	9.61e-03	0	43	104	1253048320	26	14739
2026-01-14 01:45:15.56	235.83	6.98	-33.5	-46.2	3.8	1.49e+00	0	43	104	1253048320	26	15518
2026-01-14 01:45:16.57	235.77	6.90	-33.8	-46.3	3.8	1.49e+00	0	43	104	1253048320	27	15245
2026-01-14 01:45:17.58	235.71	6.83	-33.9	-46.1	3.8	1.49e+00	0	43	104	1253048320	28	14565

#Closed at: 2026-01-14 01:45:17
#Recorded file [1253 MB]: D:/data/31010_260114_043405.dat