passes_logs/2026/01/14/R2M6_AANII_01/R2M6_AANII_01__20260114_104647_FENGYUN_3D_rec.log

#Pass ID: 20260114_104647_FENGYUN 3D
#Satellite: FENGYUN 3D
#Configuration: FENGYUN 3D
#almurnet v.1.7.20240730
#Start time: 2026-01-14 10:46:47

#Version: 2.2.20231116
#Station: R2M6_AANII_01
#Location: 30.233357 lon 59.946436 lat
#TLE: 1 43010U 17072A   26013.31211337  .00000452  00000+0  23563-3 0  9990
#TLE: 2 43010  98.9934 345.1024 0002270 111.0315 249.1103 14.19696845423017

#Time	Az	El	Level	Level2	SNR	BER	BlckErr	Temp	State	Recorded	gain1	gain2
2026-01-14 10:46:47.90	111.27	7.04	-29.9	-32.5	5.4	7.84e-01	0	40	0	0	21	4828
2026-01-14 10:46:48.90	111.20	7.10	-29.7	-32.5	5.4	7.79e-01	0	40	104	0	20	4927
2026-01-14 10:46:49.90	111.12	7.17	-29.7	-32.3	10.4	3.80e-03	0	40	0	0	20	4848
2026-01-14 10:46:50.90	111.05	7.24	-29.6	-32.1	10.5	2.68e-03	0	40	0	5242880	20	4778
2026-01-14 10:46:51.91	110.97	7.31	-29.9	-32.8	10.0	5.69e-03	0	40	0	11534336	20	5031
2026-01-14 10:46:52.91	110.89	7.38	-29.5	-31.9	10.7	2.79e-03	0	40	0	16777216	20	4707
2026-01-14 10:46:53.91	110.81	7.45	-29.5	-31.9	10.7	2.33e-03	0	40	0	22020096	20	4708
2026-01-14 10:46:54.92	110.73	7.52	-29.6	-32.0	10.6	2.32e-03	0	40	0	28311552	20	4738
2026-01-14 10:46:55.92	110.65	7.59	-30.2	-33.7	9.5	8.25e-03	0	40	0	33554432	20	5383
2026-01-14 10:46:56.93	110.57	7.66	-29.6	-32.0	10.6	3.33e-03	0	40	0	38797312	20	4767
2026-01-14 10:46:57.93	110.50	7.73	-29.0	-31.0	11.7	7.47e-04	0	41	0	45088768	19	4506
2026-01-14 10:46:58.93	110.42	7.80	-28.7	-30.8	12.1	2.33e-04	0	40	0	50331648	18	4564
2026-01-14 10:46:59.94	110.33	7.87	-28.1	-29.8	13.0	4.69e-05	0	41	0	55574528	17	4355
2026-01-14 10:47:00.94	110.25	7.94	-27.9	-29.3	13.3	2.17e-05	0	41	0	61865984	17	4230
2026-01-14 10:47:01.94	110.17	8.01	-27.8	-29.1	13.5	1.02e-05	0	41	0	67108864	17	4165
2026-01-14 10:47:02.95	110.09	8.08	-27.4	-28.6	14.1	3.40e-06	0	41	0	73400320	16	4130
2026-01-14 10:47:03.95	110.01	8.15	-27.4	-28.6	14.1	0.00e+00	0	41	0	78643200	16	4128
2026-01-14 10:47:04.95	109.93	8.22	-27.4	-28.7	14.1	0.00e+00	0	41	0	84934656	16	4151
2026-01-14 10:47:05.95	109.84	8.30	-27.4	-28.7	14.1	0.00e+00	0	41	0	90177536	16	4143
2026-01-14 10:47:06.95	109.76	8.37	-27.6	-29.0	13.9	0.00e+00	0	41	0	95420416	16	4232
2026-01-14 10:47:07.96	109.68	8.44	-27.3	-28.4	14.2	1.10e-06	0	41	0	101711872	16	4069
2026-01-14 10:47:08.96	109.59	8.51	-27.1	-28.5	14.3	1.10e-06	0	41	0	106954752	15	4216
2026-01-14 10:47:09.97	109.51	8.58	-27.2	-28.8	14.2	0.00e+00	0	41	0	112197632	15	4284
2026-01-14 10:47:10.98	109.42	8.65	-27.1	-28.3	14.4	0.00e+00	0	41	0	118489088	15	4163
2026-01-14 10:47:11.98	109.34	8.73	-27.2	-28.6	14.3	0.00e+00	0	41	0	123731968	15	4236
2026-01-14 10:47:12.98	109.25	8.80	-27.1	-28.5	14.3	2.20e-06	0	41	0	128974848	15	4212
2026-01-14 10:47:13.99	109.16	8.87	-27.1	-28.5	14.4	0.00e+00	0	41	0	135266304	15	4194
2026-01-14 10:47:15.00	109.08	8.94	-27.3	-28.8	14.2	0.00e+00	0	41	0	140509184	15	4300
2026-01-14 10:47:16.00	108.99	9.02	-26.9	-27.9	14.7	0.00e+00	0	41	0	146800640	15	4056
2026-01-14 10:47:17.00	108.90	9.09	-27.1	-28.4	14.5	0.00e+00	0	41	0	152043520	15	4171
2026-01-14 10:47:18.01	108.81	9.16	-27.3	-28.7	14.2	5.70e-06	0	41	0	158334976	15	4273
2026-01-14 10:47:19.02	108.72	9.24	-27.2	-28.5	14.3	0.00e+00	0	41	0	163577856	15	4217
2026-01-14 10:47:20.02	108.63	9.31	-27.4	-29.2	14.0	1.10e-06	0	41	0	168820736	15	4394
2026-01-14 10:47:21.02	108.54	9.38	-27.2	-28.7	14.3	1.10e-06	0	41	0	175112192	15	4266
2026-01-14 10:47:22.02	108.45	9.46	-27.1	-28.3	14.5	1.10e-06	0	41	0	180355072	15	4154
2026-01-14 10:47:23.03	108.36	9.53	-27.0	-28.1	14.6	0.00e+00	0	41	0	185597952	15	4108
2026-01-14 10:47:24.02	108.27	9.60	-27.0	-28.2	14.6	4.50e-06	0	41	0	191889408	15	4117
2026-01-14 10:47:25.03	108.18	9.68	-27.2	-28.6	14.3	1.10e-06	0	41	0	197132288	15	4237
2026-01-14 10:47:26.04	108.09	9.75	-27.0	-28.3	14.5	1.10e-06	0	41	0	202375168	15	4140
2026-01-14 10:47:27.04	108.00	9.83	-27.0	-28.2	14.6	4.50e-06	0	41	0	208666624	15	4125
2026-01-14 10:47:28.04	107.90	9.90	-27.0	-28.1	14.7	0.00e+00	0	41	0	213909504	15	4093
2026-01-14 10:47:29.04	107.81	9.98	-26.9	-27.9	14.8	0.00e+00	0	41	0	220200960	15	4040
2026-01-14 10:47:30.05	107.72	10.05	-26.7	-28.1	15.0	5.70e-06	0	41	0	225443840	14	4208
2026-01-14 10:47:31.06	107.62	10.13	-27.0	-28.6	14.7	0.00e+00	0	41	0	231735296	14	4330
2026-01-14 10:47:32.06	107.53	10.20	-26.7	-27.9	15.1	0.00e+00	0	41	0	236978176	14	4157
2026-01-14 10:47:33.06	107.43	10.28	-26.7	-28.0	15.0	0.00e+00	0	41	0	242221056	14	4185
2026-01-14 10:47:34.07	107.34	10.35	-26.7	-28.0	15.1	0.00e+00	0	41	0	248512512	14	4170
2026-01-14 10:47:35.07	107.24	10.43	-26.7	-28.0	15.0	0.00e+00	0	41	0	253755392	14	4189
2026-01-14 10:47:36.07	107.14	10.50	-26.7	-27.9	15.1	2.20e-06	0	41	0	258998272	14	4149
2026-01-14 10:47:37.07	107.05	10.58	-26.6	-27.7	15.2	0.00e+00	0	41	0	265289728	14	4095
2026-01-14 10:47:38.07	106.95	10.65	-26.6	-27.8	15.2	0.00e+00	0	41	0	270532608	14	4116
2026-01-14 10:47:39.07	106.85	10.73	-26.8	-28.3	14.9	5.70e-06	0	42	0	275775488	14	4260
2026-01-14 10:47:40.07	106.75	10.81	-26.7	-28.0	15.1	0.00e+00	0	41	0	282066944	14	4172
2026-01-14 10:47:41.08	106.65	10.88	-26.6	-27.7	15.2	0.00e+00	0	41	0	287309824	14	4101
2026-01-14 10:47:42.09	106.55	10.96	-26.5	-27.6	15.3	0.00e+00	0	41	0	293601280	14	4061
2026-01-14 10:47:43.09	106.45	11.04	-26.6	-27.7	15.3	0.00e+00	0	41	0	298844160	14	4095
2026-01-14 10:47:44.10	106.35	11.11	-26.5	-27.6	15.3	0.00e+00	0	41	0	304087040	14	4061
2026-01-14 10:47:45.10	106.25	11.19	-26.7	-27.9	15.2	0.00e+00	0	41	0	310378496	14	4141
2026-01-14 10:47:46.10	106.15	11.27	-26.5	-27.6	15.3	0.00e+00	0	41	0	315621376	14	4086
2026-01-14 10:47:47.10	106.04	11.35	-26.6	-27.8	15.2	0.00e+00	0	41	0	320864256	14	4134
2026-01-14 10:47:48.10	105.94	11.42	-26.8	-28.1	15.0	0.00e+00	0	41	0	327155712	14	4213
2026-01-14 10:47:49.10	105.84	11.50	-26.6	-27.8	15.2	0.00e+00	0	42	0	332398592	14	4110
2026-01-14 10:47:50.12	105.73	11.58	-26.7	-28.0	15.1	0.00e+00	0	42	0	338690048	14	4168
2026-01-14 10:47:51.12	105.63	11.66	-26.5	-27.6	15.4	0.00e+00	0	42	0	343932928	14	4066
2026-01-14 10:47:52.12	105.52	11.74	-26.6	-27.8	15.2	0.00e+00	0	42	0	349175808	14	4123
2026-01-14 10:47:53.13	105.41	11.81	-26.6	-27.8	15.2	0.00e+00	0	41	0	355467264	14	4131
2026-01-14 10:47:54.13	105.31	11.89	-26.5	-27.6	15.3	0.00e+00	0	42	0	360710144	14	4077
2026-01-14 10:47:55.14	105.20	11.97	-26.6	-27.7	15.3	0.00e+00	0	42	0	367001600	14	4101
2026-01-14 10:47:56.14	105.09	12.05	-26.5	-27.6	15.3	0.00e+00	0	42	0	372244480	14	4078
2026-01-14 10:47:57.15	104.98	12.13	-26.6	-27.8	15.2	0.00e+00	0	42	0	377487360	14	4137
2026-01-14 10:47:58.15	104.87	12.21	-26.5	-27.5	15.4	0.00e+00	0	42	0	383778816	14	4051
2026-01-14 10:47:59.15	104.76	12.29	-26.6	-27.8	15.2	0.00e+00	0	42	0	389021696	14	4131
2026-01-14 10:48:00.15	104.65	12.37	-26.5	-27.5	15.4	0.00e+00	0	42	0	395313152	14	4036
2026-01-14 10:48:01.15	104.54	12.45	-26.5	-27.4	15.4	0.00e+00	0	42	0	400556032	14	4027
2026-01-14 10:48:02.15	104.43	12.52	-26.5	-27.5	15.4	0.00e+00	0	42	0	405798912	14	4040
2026-01-14 10:48:03.15	104.32	12.60	-26.6	-27.8	15.3	0.00e+00	0	42	0	412090368	14	4116
2026-01-14 10:48:04.15	104.21	12.68	-26.4	-27.4	15.5	0.00e+00	0	42	0	417333248	14	4018
2026-01-14 10:48:05.16	104.09	12.76	-26.4	-27.2	15.6	0.00e+00	0	42	0	422576128	14	3975
2026-01-14 10:48:06.16	103.98	12.84	-26.4	-27.2	15.6	0.00e+00	0	42	0	428867584	14	3978
2026-01-14 10:48:07.17	103.86	12.93	-26.3	-27.5	15.7	0.00e+00	0	42	0	434110464	13	4160
2026-01-14 10:48:08.17	103.75	13.01	-26.3	-27.6	15.6	0.00e+00	0	42	0	440401920	13	4187
2026-01-14 10:48:09.17	103.63	13.09	-26.2	-27.4	15.8	0.00e+00	0	42	0	445644800	13	4113
2026-01-14 10:48:10.18	103.52	13.17	-26.1	-27.3	15.8	0.00e+00	0	42	0	450887680	13	4093
2026-01-14 10:48:11.17	103.40	13.25	-26.3	-27.6	15.7	0.00e+00	0	42	0	457179136	13	4169
2026-01-14 10:48:12.18	103.28	13.33	-26.2	-27.3	15.8	0.00e+00	0	42	0	462422016	13	4097
2026-01-14 10:48:13.19	103.16	13.41	-26.2	-27.5	15.7	0.00e+00	0	42	0	467664896	13	4142
2026-01-14 10:48:14.19	103.04	13.49	-26.2	-27.4	15.7	0.00e+00	0	42	0	473956352	13	4132
2026-01-14 10:48:15.20	102.92	13.58	-26.3	-27.5	15.7	0.00e+00	0	42	0	479199232	13	4145
2026-01-14 10:48:16.21	102.80	13.66	-26.3	-27.6	15.6	0.00e+00	0	42	0	485490688	13	4182
2026-01-14 10:48:17.21	102.68	13.74	-26.3	-27.5	15.7	0.00e+00	0	42	0	490733568	13	4155
2026-01-14 10:48:18.22	102.56	13.82	-26.3	-27.6	15.7	0.00e+00	0	42	0	495976448	13	4174
2026-01-14 10:48:19.22	102.43	13.90	-26.1	-27.1	15.9	0.00e+00	0	42	0	502267904	13	4049
2026-01-14 10:48:20.22	102.31	13.99	-26.0	-27.0	16.0	0.00e+00	0	42	0	507510784	13	4011
2026-01-14 10:48:21.22	102.19	14.07	-25.9	-26.8	16.1	0.00e+00	0	42	0	513802240	13	3961
2026-01-14 10:48:22.23	102.06	14.15	-26.0	-26.9	16.1	0.00e+00	0	42	0	519045120	13	3980
2026-01-14 10:48:23.23	101.94	14.23	-25.9	-26.6	16.2	0.00e+00	0	42	0	524288000	13	3923
2026-01-14 10:48:24.23	101.81	14.32	-25.8	-26.9	16.4	0.00e+00	0	42	0	530579456	12	4110
2026-01-14 10:48:25.24	101.68	14.40	-25.8	-27.0	16.3	0.00e+00	0	42	0	535822336	12	4125
2026-01-14 10:48:26.24	101.56	14.48	-25.8	-26.9	16.4	0.00e+00	0	42	0	541065216	12	4086
2026-01-14 10:48:27.24	101.43	14.57	-25.8	-27.0	16.3	0.00e+00	0	42	0	547356672	12	4136
2026-01-14 10:48:28.24	101.30	14.65	-25.7	-26.6	16.5	0.00e+00	0	42	0	552599552	12	4037
2026-01-14 10:48:29.24	101.17	14.73	-25.6	-26.6	16.6	0.00e+00	0	42	0	557842432	12	4024
2026-01-14 10:48:30.24	101.04	14.82	-25.8	-26.9	16.4	0.00e+00	0	42	0	564133888	12	4086
2026-01-14 10:48:31.25	100.91	14.90	-25.7	-26.6	16.5	0.00e+00	0	42	0	569376768	12	4031
2026-01-14 10:48:32.26	100.77	14.99	-25.6	-26.6	16.6	0.00e+00	0	42	0	575668224	12	4018
2026-01-14 10:48:33.26	100.64	15.07	-25.7	-26.8	16.5	0.00e+00	0	42	0	580911104	12	4068
2026-01-14 10:48:34.26	100.51	15.15	-25.8	-27.0	16.4	0.00e+00	0	42	0	587202560	12	4115
2026-01-14 10:48:35.27	100.37	15.24	-25.6	-26.5	16.6	3.40e-06	0	42	0	592445440	12	4001
2026-01-14 10:48:36.27	100.24	15.32	-25.6	-26.5	16.7	0.00e+00	0	42	0	597688320	12	3995
2026-01-14 10:48:37.27	100.10	15.41	-25.6	-26.4	16.7	0.00e+00	0	42	0	603979776	12	3972
2026-01-14 10:48:38.27	99.97	15.49	-25.6	-26.4	16.7	0.00e+00	0	42	0	609222656	12	3978
2026-01-14 10:48:39.27	99.83	15.58	-25.5	-26.3	16.8	1.10e-06	0	42	0	614465536	12	3948
2026-01-14 10:48:40.28	99.69	15.66	-25.5	-26.4	16.7	0.00e+00	0	42	0	620756992	12	3971
2026-01-14 10:48:41.28	99.55	15.75	-25.5	-26.3	16.8	0.00e+00	0	42	0	625999872	12	3946
2026-01-14 10:48:42.28	99.41	15.83	-25.5	-26.3	16.7	0.00e+00	0	42	0	631242752	12	3954
2026-01-14 10:48:43.29	99.27	15.92	-25.4	-26.1	16.9	0.00e+00	0	42	0	637534208	12	3904
2026-01-14 10:48:44.29	99.13	16.00	-25.4	-26.2	16.9	0.00e+00	0	42	0	642777088	12	3912
2026-01-14 10:48:45.29	98.99	16.09	-25.3	-26.0	17.0	0.00e+00	0	42	0	649068544	12	3862
2026-01-14 10:48:46.29	98.84	16.18	-25.5	-26.2	16.8	0.00e+00	0	42	0	654311424	12	3934
2026-01-14 10:48:47.30	98.70	16.26	-25.5	-26.4	16.7	0.00e+00	0	42	0	659554304	12	3971
2026-01-14 10:48:48.31	98.55	16.35	-25.4	-26.1	16.9	0.00e+00	0	42	0	665845760	12	3887
2026-01-14 10:48:49.32	98.41	16.44	-25.3	-25.9	17.0	0.00e+00	0	42	0	671088640	12	3857
2026-01-14 10:48:50.32	98.26	16.52	-25.4	-26.0	17.0	0.00e+00	0	42	0	677380096	12	3872
2026-01-14 10:48:51.32	98.11	16.61	-25.4	-26.1	16.9	0.00e+00	0	42	0	682622976	12	3904
2026-01-14 10:48:52.33	97.96	16.69	-25.3	-25.9	17.0	0.00e+00	0	42	0	687865856	12	3855
2026-01-14 10:48:53.33	97.82	16.78	-25.3	-25.9	17.0	0.00e+00	0	42	0	694157312	12	3859
2026-01-14 10:48:54.34	97.66	16.87	-25.4	-26.1	16.9	0.00e+00	0	42	0	699400192	12	3900
2026-01-14 10:48:55.34	97.51	16.95	-25.4	-26.1	17.0	0.00e+00	0	42	0	704643072	12	3890
2026-01-14 10:48:56.34	97.36	17.04	-25.3	-26.4	17.1	0.00e+00	0	42	0	710934528	11	4086
2026-01-14 10:48:57.34	97.21	17.13	-25.4	-26.6	17.0	0.00e+00	0	42	0	716177408	11	4116
2026-01-14 10:48:58.34	97.06	17.22	-25.5	-26.7	17.0	0.00e+00	0	42	0	722468864	11	4160
2026-01-14 10:48:59.34	96.90	17.30	-25.5	-26.8	16.9	0.00e+00	0	42	0	727711744	11	4176
2026-01-14 10:49:00.34	96.75	17.39	-25.3	-26.3	17.2	0.00e+00	0	42	0	732954624	11	4055
2026-01-14 10:49:01.34	96.59	17.48	-25.2	-26.1	17.3	0.00e+00	0	42	0	739246080	11	4003
2026-01-14 10:49:02.35	96.43	17.56	-25.3	-26.3	17.2	0.00e+00	0	42	0	744488960	11	4045
2026-01-14 10:49:03.34	96.28	17.65	-25.3	-26.2	17.2	0.00e+00	0	42	0	749731840	11	4031
2026-01-14 10:49:04.35	96.12	17.74	-25.0	-25.7	17.5	0.00e+00	0	42	0	756023296	11	3908
2026-01-14 10:49:05.35	95.96	17.83	-25.0	-25.7	17.5	0.00e+00	0	42	0	761266176	11	3896
2026-01-14 10:49:06.36	95.80	17.92	-25.0	-25.7	17.5	0.00e+00	0	42	0	767557632	11	3897
2026-01-14 10:49:07.36	95.63	18.00	-25.0	-25.7	17.5	0.00e+00	0	42	0	772800512	11	3899
2026-01-14 10:49:08.36	95.47	18.09	-25.1	-25.9	17.4	0.00e+00	0	42	0	778043392	11	3957
2026-01-14 10:49:09.36	95.31	18.18	-25.0	-25.7	17.5	0.00e+00	0	42	0	784334848	11	3904
2026-01-14 10:49:10.37	95.14	18.27	-25.1	-25.8	17.5	0.00e+00	0	42	0	789577728	11	3935
2026-01-14 10:49:11.37	94.98	18.36	-25.1	-25.9	17.4	0.00e+00	0	42	0	795869184	11	3956
2026-01-14 10:49:12.37	94.81	18.44	-25.1	-25.8	17.5	0.00e+00	0	42	0	801112064	11	3932
2026-01-14 10:49:13.37	94.64	18.53	-25.1	-25.9	17.5	0.00e+00	0	42	0	806354944	11	3938
2026-01-14 10:49:14.37	94.47	18.62	-25.0	-25.8	17.5	0.00e+00	0	42	0	812646400	11	3926
2026-01-14 10:49:15.37	94.31	18.71	-24.9	-25.5	17.7	0.00e+00	0	42	0	817889280	11	3847
2026-01-14 10:49:16.38	94.13	18.80	-24.9	-25.4	17.7	0.00e+00	0	42	0	823132160	11	3837
2026-01-14 10:49:17.39	93.96	18.89	-24.9	-25.4	17.7	0.00e+00	0	42	0	829423616	11	3832
2026-01-14 10:49:18.39	93.79	18.97	-24.7	-25.6	17.9	0.00e+00	0	42	0	834666496	10	3975
2026-01-14 10:49:19.39	93.62	19.06	-24.6	-25.4	18.0	0.00e+00	0	42	0	839909376	10	3938
2026-01-14 10:49:20.39	93.44	19.15	-24.7	-25.6	17.9	0.00e+00	0	42	0	846200832	10	3969
2026-01-14 10:49:21.39	93.27	19.24	-24.7	-25.5	18.0	0.00e+00	0	42	0	851443712	10	3950
2026-01-14 10:49:22.40	93.09	19.33	-24.8	-25.8	17.8	0.00e+00	0	42	0	857735168	10	4026
2026-01-14 10:49:23.40	92.91	19.42	-24.9	-25.9	17.8	0.00e+00	0	42	0	862978048	10	4066
2026-01-14 10:49:24.40	92.73	19.51	-24.9	-26.0	17.7	0.00e+00	0	42	0	868220928	10	4093
2026-01-14 10:49:25.40	92.55	19.59	-25.0	-26.1	17.6	0.00e+00	0	42	0	874512384	10	4118
2026-01-14 10:49:26.41	92.37	19.68	-24.9	-26.0	17.7	0.00e+00	0	42	0	879755264	10	4083
2026-01-14 10:49:27.41	92.19	19.77	-24.9	-26.0	17.7	0.00e+00	0	42	0	886046720	10	4078
2026-01-14 10:49:28.42	92.00	19.86	-25.0	-26.1	17.6	0.00e+00	0	42	0	891289600	10	4110
2026-01-14 10:49:29.42	91.82	19.95	-24.9	-26.1	17.6	0.00e+00	0	42	0	896532480	10	4102
2026-01-14 10:49:30.42	91.63	20.04	-25.0	-26.1	17.6	0.00e+00	0	42	0	902823936	10	4116
2026-01-14 10:49:31.42	91.45	20.13	-25.0	-26.3	17.6	0.00e+00	0	42	0	908066816	10	4153
2026-01-14 10:49:32.43	91.26	20.22	-24.8	-25.8	17.8	0.00e+00	0	42	0	914358272	10	4037
2026-01-14 10:49:33.43	91.07	20.31	-24.9	-25.9	17.8	0.00e+00	0	42	0	919601152	10	4059
2026-01-14 10:49:34.43	90.88	20.39	-24.9	-26.0	17.7	0.00e+00	0	42	0	924844032	10	4077
2026-01-14 10:49:35.44	90.69	20.48	-24.8	-25.8	17.8	0.00e+00	0	42	0	931135488	10	4039
2026-01-14 10:49:36.45	90.50	20.57	-24.7	-25.6	17.9	0.00e+00	0	42	0	936378368	10	3995
2026-01-14 10:49:37.44	90.31	20.66	-24.7	-25.6	18.0	0.00e+00	0	42	0	941621248	10	3974
2026-01-14 10:49:38.45	90.11	20.75	-24.7	-25.6	17.9	0.00e+00	0	42	0	947912704	10	3983
2026-01-14 10:49:39.44	89.92	20.84	-24.7	-25.6	17.9	0.00e+00	0	42	0	953155584	10	3992
2026-01-14 10:49:40.45	89.72	20.93	-24.7	-25.6	17.9	0.00e+00	0	42	0	958398464	10	3987
2026-01-14 10:49:41.45	89.52	21.02	-24.8	-25.7	17.9	0.00e+00	0	42	0	964689920	10	4006
2026-01-14 10:49:42.46	89.32	21.11	-24.7	-25.6	17.9	0.00e+00	0	42	0	969932800	10	3989
2026-01-14 10:49:43.47	89.12	21.19	-24.6	-25.4	18.1	0.00e+00	0	42	0	976224256	10	3931
2026-01-14 10:49:44.47	88.92	21.28	-24.6	-25.3	18.1	0.00e+00	0	42	0	981467136	10	3917
2026-01-14 10:49:45.47	88.72	21.37	-24.5	-25.2	18.2	0.00e+00	0	42	0	987758592	10	3879
2026-01-14 10:49:46.48	88.51	21.46	-24.3	-24.8	18.4	0.00e+00	0	42	0	993001472	10	3791
2026-01-14 10:49:47.48	88.31	21.55	-24.4	-24.8	18.4	0.00e+00	0	42	0	998244352	10	3805
2026-01-14 10:49:48.48	88.11	21.64	-24.4	-24.9	18.3	0.00e+00	0	42	0	1004535808	10	3817
2026-01-14 10:49:49.49	87.90	21.72	-24.4	-24.8	18.4	0.00e+00	0	42	0	1009778688	10	3802
2026-01-14 10:49:50.49	87.69	21.81	-24.3	-24.7	18.5	0.00e+00	0	42	0	1015021568	10	3763
2026-01-14 10:49:51.49	87.48	21.90	-24.2	-25.1	18.5	0.00e+00	0	42	0	1021313024	9	3963
2026-01-14 10:49:52.49	87.27	21.99	-24.1	-24.8	18.6	0.00e+00	0	42	0	1026555904	9	3908
2026-01-14 10:49:53.50	87.06	22.08	-24.2	-25.0	18.5	0.00e+00	0	42	0	1031798784	9	3940
2026-01-14 10:49:54.50	86.84	22.16	-24.2	-25.0	18.5	0.00e+00	0	42	0	1038090240	9	3936
2026-01-14 10:49:55.51	86.63	22.25	-24.1	-24.8	18.7	0.00e+00	0	42	0	1043333120	9	3890
2026-01-14 10:49:56.51	86.41	22.34	-24.2	-24.9	18.6	0.00e+00	0	42	0	1049624576	9	3930
2026-01-14 10:49:57.52	86.20	22.43	-24.2	-25.1	18.5	0.00e+00	0	42	0	1054867456	9	3956
2026-01-14 10:49:58.53	85.98	22.51	-24.2	-24.9	18.6	0.00e+00	0	42	0	1061158912	9	3929
2026-01-14 10:49:59.53	85.76	22.60	-24.2	-25.0	18.5	0.00e+00	0	42	0	1066401792	9	3955
2026-01-14 10:50:00.53	85.54	22.69	-24.3	-25.1	18.5	0.00e+00	0	42	0	1071644672	9	3974
2026-01-14 10:50:01.53	85.32	22.77	-24.3	-25.1	18.5	0.00e+00	0	42	0	1077936128	9	3979
2026-01-14 10:50:02.53	85.10	22.86	-24.4	-25.5	18.3	0.00e+00	0	42	0	1083179008	9	4058
2026-01-14 10:50:03.54	84.87	22.94	-24.4	-25.5	18.3	0.00e+00	0	42	0	1088421888	9	4069
2026-01-14 10:50:04.54	84.65	23.03	-24.4	-25.4	18.4	0.00e+00	0	42	0	1094713344	9	4032
2026-01-14 10:50:05.54	84.42	23.12	-24.3	-25.1	18.5	0.00e+00	0	42	0	1099956224	9	3981
2026-01-14 10:50:06.55	84.19	23.20	-24.3	-25.2	18.5	0.00e+00	0	42	0	1105199104	9	3991
2026-01-14 10:50:07.55	83.96	23.29	-24.2	-25.1	18.5	0.00e+00	0	42	0	1111490560	9	3961
2026-01-14 10:50:08.56	83.73	23.37	-24.3	-25.1	18.5	0.00e+00	0	42	0	1116733440	9	3973
2026-01-14 10:50:09.56	83.50	23.46	-24.2	-25.0	18.6	0.00e+00	0	42	0	1123024896	9	3946
2026-01-14 10:50:10.56	83.27	23.54	-24.1	-24.7	18.7	0.00e+00	0	42	0	1128267776	9	3879
2026-01-14 10:50:11.56	83.03	23.63	-24.1	-24.7	18.7	0.00e+00	0	42	0	1134559232	9	3878
2026-01-14 10:50:12.57	82.80	23.71	-24.1	-24.9	18.7	0.00e+00	0	42	0	1139802112	9	3910
2026-01-14 10:50:13.58	82.56	23.79	-24.2	-25.0	18.6	0.00e+00	0	42	0	1145044992	9	3949
2026-01-14 10:50:14.58	82.32	23.88	-24.4	-25.4	18.4	0.00e+00	0	42	0	1151336448	9	4039
2026-01-14 10:50:15.59	82.08	23.96	-24.3	-25.3	18.4	0.00e+00	0	42	0	1156579328	9	4008
2026-01-14 10:50:16.60	81.84	24.05	-24.1	-24.8	18.7	0.00e+00	0	42	0	1161822208	9	3891
2026-01-14 10:50:17.60	81.60	24.13	-24.0	-24.6	18.8	0.00e+00	0	42	0	1168113664	9	3846
2026-01-14 10:50:18.60	81.35	24.21	-24.1	-24.7	18.8	0.00e+00	0	43	0	1173356544	9	3861
2026-01-14 10:50:19.60	81.11	24.29	-24.1	-24.7	18.8	0.00e+00	0	42	0	1178599424	9	3868
2026-01-14 10:50:20.60	80.87	24.37	-24.0	-24.5	18.8	0.00e+00	0	42	0	1184890880	9	3829
2026-01-14 10:50:21.61	80.62	24.46	-24.0	-24.5	18.8	0.00e+00	0	43	0	1190133760	9	3835
2026-01-14 10:50:22.60	80.37	24.54	-23.9	-24.4	18.9	0.00e+00	0	42	0	1196425216	9	3809
2026-01-14 10:50:23.61	80.12	24.62	-23.9	-24.3	18.9	0.00e+00	0	43	0	1201668096	9	3791
2026-01-14 10:50:24.61	79.87	24.70	-23.8	-24.2	19.0	1.10e-06	0	42	0	1207959552	9	3760
2026-01-14 10:50:25.62	79.62	24.78	-23.9	-24.3	19.0	0.00e+00	0	43	0	1213202432	9	3777
2026-01-14 10:50:26.62	79.36	24.86	-23.9	-24.4	18.9	0.00e+00	0	42	0	1218445312	9	3804
2026-01-14 10:50:27.62	79.11	24.94	-23.9	-24.3	18.9	1.10e-06	0	43	0	1224736768	9	3789
2026-01-14 10:50:28.62	78.85	25.02	-24.0	-24.5	18.9	0.00e+00	0	42	0	1229979648	9	3821
2026-01-14 10:50:29.62	78.60	25.10	-23.9	-24.3	19.0	0.00e+00	0	42	0	1235222528	9	3773
2026-01-14 10:50:30.62	78.34	25.17	-23.8	-24.2	19.0	0.00e+00	0	42	0	1241513984	9	3752
2026-01-14 10:50:31.62	78.08	25.25	-23.8	-24.2	19.0	0.00e+00	0	42	0	1246756864	9	3760
2026-01-14 10:50:32.62	77.82	25.33	-23.9	-24.3	19.0	0.00e+00	0	42	0	1251999744	9	3786
2026-01-14 10:50:33.62	77.56	25.41	-24.0	-24.6	18.8	0.00e+00	0	42	0	1258291200	9	3852
2026-01-14 10:50:34.62	77.30	25.48	-24.0	-24.6	18.8	0.00e+00	0	42	0	1263534080	9	3856
2026-01-14 10:50:35.62	77.03	25.56	-24.0	-24.6	18.8	0.00e+00	0	42	0	1269825536	9	3858
2026-01-14 10:50:36.63	76.76	25.63	-24.0	-24.6	18.8	1.10e-06	0	42	0	1275068416	9	3851
2026-01-14 10:50:37.63	76.50	25.71	-23.9	-24.4	18.9	0.00e+00	0	42	0	1280311296	9	3800
2026-01-14 10:50:38.63	76.23	25.78	-24.0	-24.6	18.8	0.00e+00	0	42	0	1286602752	9	3842
2026-01-14 10:50:39.63	75.96	25.86	-24.0	-24.5	18.9	1.10e-06	0	42	0	1291845632	9	3828
2026-01-14 10:50:40.63	75.69	25.93	-24.0	-24.6	18.8	0.00e+00	0	42	0	1297088512	9	3854
2026-01-14 10:50:41.64	75.41	26.00	-24.0	-24.6	18.8	0.00e+00	0	42	0	1303379968	9	3851
2026-01-14 10:50:42.64	75.14	26.08	-23.8	-24.1	19.1	0.00e+00	0	42	0	1308622848	9	3728
2026-01-14 10:50:43.64	74.87	26.15	-23.8	-24.6	19.1	0.00e+00	0	42	0	1313865728	8	3961
2026-01-14 10:50:44.65	74.59	26.22	-23.9	-24.8	19.0	0.00e+00	0	42	0	1320157184	8	3991
2026-01-14 10:50:45.65	74.31	26.29	-24.0	-25.0	18.9	0.00e+00	0	42	0	1325400064	8	4060
2026-01-14 10:50:46.65	74.03	26.36	-24.3	-25.7	18.5	0.00e+00	0	42	0	1331691520	8	4233
2026-01-14 10:50:47.66	73.75	26.43	-24.3	-25.7	18.5	0.00e+00	0	42	0	1336934400	8	4230
2026-01-14 10:50:48.66	73.47	26.50	-24.1	-25.3	18.8	0.00e+00	0	42	0	1343225856	8	4126
2026-01-14 10:50:49.67	73.19	26.57	-24.0	-25.0	18.9	0.00e+00	0	42	0	1348468736	8	4056
2026-01-14 10:50:50.67	72.90	26.64	-24.0	-25.0	18.9	0.00e+00	0	42	0	1353711616	8	4053
2026-01-14 10:50:51.67	72.62	26.71	-24.0	-25.0	18.9	0.00e+00	0	42	0	1360003072	8	4045
2026-01-14 10:50:52.68	72.33	26.77	-23.9	-24.9	19.0	0.00e+00	0	42	0	1365245952	8	4016
2026-01-14 10:50:53.68	72.05	26.84	-24.0	-24.9	18.9	0.00e+00	0	42	0	1370488832	8	4036
2026-01-14 10:50:54.68	71.76	26.91	-23.9	-24.8	19.0	0.00e+00	0	42	0	1376780288	8	4013
2026-01-14 10:50:55.69	71.47	26.97	-24.0	-25.1	18.9	0.00e+00	0	42	0	1382023168	8	4082
2026-01-14 10:50:56.69	71.18	27.04	-24.0	-25.1	18.8	0.00e+00	0	42	0	1387266048	8	4077
2026-01-14 10:50:57.69	70.88	27.10	-23.9	-24.8	19.0	0.00e+00	0	42	0	1393557504	8	4002
2026-01-14 10:50:58.69	70.59	27.16	-23.7	-24.5	19.1	0.00e+00	0	42	0	1398800384	8	3931
2026-01-14 10:50:59.70	70.30	27.22	-23.6	-24.1	19.3	0.00e+00	0	42	0	1405091840	8	3846
2026-01-14 10:51:00.70	70.00	27.29	-23.6	-24.1	19.4	0.00e+00	0	42	0	1410334720	8	3840
2026-01-14 10:51:01.71	69.70	27.35	-23.5	-24.0	19.4	0.00e+00	0	43	0	1416626176	8	3818
2026-01-14 10:51:02.71	69.40	27.41	-23.6	-24.2	19.3	0.00e+00	0	42	0	1421869056	8	3851
2026-01-14 10:51:03.71	69.11	27.47	-23.6	-24.1	19.4	0.00e+00	0	42	0	1427111936	8	3844
2026-01-14 10:51:04.72	68.80	27.53	-23.6	-24.2	19.3	0.00e+00	0	42	0	1433403392	8	3868
2026-01-14 10:51:05.71	68.51	27.58	-23.6	-24.1	19.4	0.00e+00	0	42	0	1438646272	8	3842
2026-01-14 10:51:06.70	68.21	27.64	-23.6	-24.1	19.4	0.00e+00	0	42	0	1443889152	8	3843
2026-01-14 10:51:07.70	67.91	27.70	-23.7	-24.4	19.4	0.00e+00	0	42	0	1449132032	8	3898
2026-01-14 10:51:08.70	67.60	27.75	-23.9	-24.8	19.2	0.00e+00	0	42	0	1455423488	8	3990
2026-01-14 10:51:09.70	67.30	27.81	-23.9	-24.8	19.2	0.00e+00	0	42	0	1460666368	8	3996
2026-01-14 10:51:10.70	66.99	27.86	-24.0	-25.1	19.1	0.00e+00	0	42	0	1466957824	8	4051
2026-01-14 10:51:11.70	66.69	27.91	-24.0	-24.9	19.2	0.00e+00	0	43	0	1472200704	8	4001
2026-01-14 10:51:12.71	66.37	27.97	-23.8	-24.6	19.3	0.00e+00	0	42	0	1478492160	8	3934
2026-01-14 10:51:13.71	66.07	28.02	-23.8	-24.5	19.4	0.00e+00	0	42	0	1483735040	8	3911
2026-01-14 10:51:14.72	65.75	28.07	-23.9	-24.8	19.2	0.00e+00	0	42	0	1488977920	8	3991
2026-01-14 10:51:15.72	65.44	28.12	-23.8	-24.5	19.4	0.00e+00	0	42	0	1495269376	8	3913
2026-01-14 10:51:16.73	65.13	28.17	-23.5	-24.0	19.6	0.00e+00	0	42	0	1500512256	8	3802
2026-01-14 10:51:17.73	64.82	28.22	-23.5	-24.0	19.7	0.00e+00	0	42	0	1505755136	8	3790
2026-01-14 10:51:18.74	64.50	28.26	-23.6	-24.0	19.6	0.00e+00	0	42	0	1512046592	8	3808
2026-01-14 10:51:19.75	64.18	28.31	-23.6	-24.2	19.5	0.00e+00	0	42	0	1517289472	8	3837
2026-01-14 10:51:20.75	63.87	28.36	-23.7	-24.3	19.5	0.00e+00	0	43	0	1523580928	8	3864
2026-01-14 10:51:21.76	63.55	28.40	-23.7	-24.4	19.5	0.00e+00	0	42	0	1528823808	8	3880
2026-01-14 10:51:22.76	63.23	28.45	-23.6	-24.0	19.6	0.00e+00	0	43	0	1534066688	8	3805
2026-01-14 10:51:23.77	62.91	28.49	-23.4	-23.7	19.8	0.00e+00	0	42	0	1540358144	8	3719
2026-01-14 10:51:24.77	62.59	28.53	-23.4	-23.7	19.8	0.00e+00	0	42	0	1545601024	8	3730
2026-01-14 10:51:25.77	62.27	28.57	-23.4	-23.7	19.8	0.00e+00	0	43	0	1551892480	8	3736
2026-01-14 10:51:26.77	61.95	28.61	-23.5	-23.8	19.7	0.00e+00	0	43	0	1557135360	8	3764
2026-01-14 10:51:27.77	61.63	28.65	-23.6	-24.1	19.6	0.00e+00	0	42	0	1562378240	8	3811
2026-01-14 10:51:28.78	61.30	28.69	-23.4	-23.7	19.8	0.00e+00	0	42	0	1568669696	8	3736
2026-01-14 10:51:29.78	60.98	28.73	-23.4	-23.7	19.8	0.00e+00	0	42	0	1573912576	8	3730
2026-01-14 10:51:30.79	60.65	28.76	-23.5	-24.0	19.7	0.00e+00	0	42	0	1579155456	8	3790
2026-01-14 10:51:31.79	60.33	28.80	-23.7	-24.3	19.5	0.00e+00	0	42	0	1585446912	8	3859
2026-01-14 10:51:32.79	60.00	28.83	-23.6	-24.2	19.5	0.00e+00	0	43	0	1590689792	8	3836
2026-01-14 10:51:33.78	59.68	28.86	-23.6	-24.1	19.6	0.00e+00	0	43	0	1595932672	8	3821
2026-01-14 10:51:34.79	59.35	28.90	-23.7	-24.4	19.5	0.00e+00	0	43	0	1602224128	8	3888
2026-01-14 10:51:35.79	59.02	28.93	-23.4	-23.8	19.8	0.00e+00	0	42	0	1607467008	8	3740
2026-01-14 10:51:36.80	58.69	28.96	-23.2	-23.7	20.0	0.00e+00	0	43	0	1613758464	7	3832
2026-01-14 10:51:37.81	58.36	28.99	-23.4	-24.2	19.8	0.00e+00	0	43	0	1619001344	7	3947
2026-01-14 10:51:38.81	58.03	29.02	-23.4	-24.3	19.7	0.00e+00	0	42	0	1625292800	7	3962
2026-01-14 10:51:39.82	57.70	29.04	-23.6	-24.7	19.5	0.00e+00	0	43	0	1630535680	7	4079
2026-01-14 10:51:40.81	57.37	29.07	-23.5	-24.5	19.6	0.00e+00	0	42	0	1635778560	7	4034
2026-01-14 10:51:41.82	57.04	29.09	-23.4	-24.3	19.7	0.00e+00	0	43	0	1642070016	7	3969
2026-01-14 10:51:42.82	56.71	29.12	-23.4	-24.2	19.8	0.00e+00	0	43	0	1647312896	7	3949
2026-01-14 10:51:43.82	56.38	29.14	-23.2	-23.9	19.9	0.00e+00	0	43	0	1652555776	7	3872
2026-01-14 10:51:44.82	56.05	29.16	-23.2	-23.8	20.0	0.00e+00	0	43	0	1658847232	7	3862
2026-01-14 10:51:45.82	55.71	29.18	-23.4	-24.2	19.8	0.00e+00	0	42	0	1664090112	7	3939
2026-01-14 10:51:46.81	55.39	29.20	-23.5	-24.4	19.7	0.00e+00	0	42	0	1669332992	7	3987
2026-01-14 10:51:47.80	55.06	29.22	-23.4	-24.2	19.8	0.00e+00	0	43	0	1675624448	7	3953
2026-01-14 10:51:48.81	54.72	29.24	-23.3	-24.0	19.9	0.00e+00	0	42	0	1680867328	7	3904
2026-01-14 10:51:49.81	54.39	29.25	-23.2	-23.8	20.0	0.00e+00	0	42	0	1687158784	7	3866
2026-01-14 10:51:50.81	54.05	29.27	-23.1	-23.6	20.0	0.00e+00	0	42	0	1692401664	7	3822
2026-01-14 10:51:51.81	53.72	29.28	-23.2	-23.8	20.0	0.00e+00	0	43	0	1697644544	7	3866
2026-01-14 10:51:52.81	53.38	29.30	-23.1	-23.6	20.1	0.00e+00	0	42	0	1703936000	7	3803
2026-01-14 10:51:53.82	53.04	29.31	-23.1	-23.6	20.1	0.00e+00	0	42	0	1709178880	7	3820
2026-01-14 10:51:54.82	52.71	29.32	-23.1	-23.5	20.2	0.00e+00	0	43	0	1714421760	7	3792
2026-01-14 10:51:55.82	52.37	29.33	-23.0	-23.3	20.2	0.00e+00	0	43	0	1720713216	7	3754
2026-01-14 10:51:56.83	52.03	29.34	-23.1	-23.6	20.1	0.00e+00	0	42	0	1725956096	7	3798
2026-01-14 10:51:57.83	51.70	29.35	-23.0	-23.3	20.2	0.00e+00	0	42	0	1731198976	7	3751
2026-01-14 10:51:58.83	51.36	29.35	-22.9	-23.2	20.3	0.00e+00	0	42	0	1737490432	7	3721
2026-01-14 10:51:59.83	51.03	29.36	-23.0	-23.3	20.2	0.00e+00	0	43	0	1742733312	7	3748
2026-01-14 10:52:00.83	50.69	29.36	-23.0	-23.4	20.2	0.00e+00	0	43	0	1749024768	7	3759
2026-01-14 10:52:01.84	50.35	29.37	-23.1	-23.5	20.2	0.00e+00	0	43	0	1754267648	7	3784
2026-01-14 10:52:02.84	50.01	29.37	-23.1	-23.5	20.1	0.00e+00	0	43	0	1759510528	7	3795
2026-01-14 10:52:03.84	49.68	29.37	-23.2	-23.7	20.0	0.00e+00	0	43	0	1765801984	7	3833
2026-01-14 10:52:04.85	49.34	29.37	-23.1	-23.6	20.1	0.00e+00	0	43	0	1771044864	7	3803
2026-01-14 10:52:05.85	49.00	29.37	-23.1	-23.6	20.1	0.00e+00	0	43	0	1777336320	7	3809
2026-01-14 10:52:06.85	48.67	29.37	-23.0	-23.4	20.2	0.00e+00	0	43	0	1782579200	7	3760
2026-01-14 10:52:07.86	48.33	29.36	-23.1	-23.7	20.1	0.00e+00	0	43	0	1787822080	7	3823
2026-01-14 10:52:08.86	47.99	29.36	-23.0	-23.4	20.2	0.00e+00	0	42	0	1794113536	7	3758
2026-01-14 10:52:09.86	47.65	29.35	-22.9	-23.2	20.3	0.00e+00	0	42	0	1799356416	7	3721
2026-01-14 10:52:10.86	47.32	29.35	-23.0	-23.5	20.2	0.00e+00	0	42	0	1805647872	7	3782
2026-01-14 10:52:11.87	46.98	29.34	-23.0	-23.5	20.2	0.00e+00	0	43	0	1810890752	7	3783
2026-01-14 10:52:12.87	46.64	29.33	-23.1	-23.5	20.2	0.00e+00	0	42	0	1816133632	7	3789
2026-01-14 10:52:13.87	46.31	29.32	-23.0	-23.4	20.2	0.00e+00	0	43	0	1822425088	7	3757
2026-01-14 10:52:14.88	45.97	29.31	-23.1	-23.5	20.1	0.00e+00	0	43	0	1827667968	7	3787
2026-01-14 10:52:15.88	45.64	29.30	-23.0	-23.3	20.2	0.00e+00	0	43	0	1832910848	7	3751
2026-01-14 10:52:16.88	45.30	29.28	-23.0	-23.4	20.2	0.00e+00	0	43	0	1839202304	7	3755
2026-01-14 10:52:17.89	44.96	29.27	-23.1	-23.5	20.1	0.00e+00	0	43	0	1844445184	7	3798
2026-01-14 10:52:18.89	44.63	29.25	-23.2	-23.7	20.0	0.00e+00	0	43	0	1849688064	7	3835
2026-01-14 10:52:19.89	44.30	29.24	-23.2	-23.7	20.0	0.00e+00	0	42	0	1855979520	7	3840
2026-01-14 10:52:20.89	43.96	29.22	-23.1	-23.7	20.0	0.00e+00	0	43	0	1861222400	7	3833
2026-01-14 10:52:21.90	43.63	29.20	-23.3	-24.0	19.9	0.00e+00	0	42	0	1867513856	7	3897
2026-01-14 10:52:22.90	43.29	29.18	-23.0	-23.3	20.2	0.00e+00	0	42	0	1872756736	7	3735
2026-01-14 10:52:23.91	42.96	29.16	-22.8	-22.9	20.4	0.00e+00	0	43	0	1879048192	7	3654
2026-01-14 10:52:24.91	42.63	29.14	-22.7	-23.3	20.5	0.00e+00	0	43	0	1884291072	6	3843
2026-01-14 10:52:25.92	42.29	29.12	-22.7	-23.3	20.5	0.00e+00	0	43	0	1889533952	6	3848
2026-01-14 10:52:26.93	41.96	29.09	-22.9	-23.6	20.3	0.00e+00	0	43	0	1895825408	6	3918
2026-01-14 10:52:27.93	41.63	29.07	-22.9	-23.6	20.3	0.00e+00	0	42	0	1901068288	6	3919
2026-01-14 10:52:28.94	41.30	29.04	-23.0	-23.8	20.2	0.00e+00	0	42	0	1906311168	6	3976
2026-01-14 10:52:29.93	40.97	29.01	-22.9	-23.7	20.3	0.00e+00	0	42	0	1912602624	6	3941
2026-01-14 10:52:30.94	40.64	28.99	-23.0	-24.0	20.1	0.00e+00	0	42	0	1917845504	6	4012
2026-01-14 10:52:31.95	40.31	28.96	-23.1	-24.0	20.1	0.00e+00	0	43	0	1923088384	6	4015
2026-01-14 10:52:32.95	39.98	28.93	-23.2	-24.3	20.0	0.00e+00	0	42	0	1929379840	6	4087
2026-01-14 10:52:33.95	39.65	28.90	-23.2	-24.3	20.0	0.00e+00	0	43	0	1934622720	6	4073
2026-01-14 10:52:34.96	39.33	28.86	-23.2	-24.3	20.0	0.00e+00	0	43	0	1940914176	6	4088
2026-01-14 10:52:35.96	39.00	28.83	-23.5	-24.9	19.7	0.00e+00	0	42	0	1946157056	6	4233
2026-01-14 10:52:36.97	38.67	28.79	-23.4	-24.1	19.8	0.00e+00	0	42	0	1952448512	7	3928
2026-01-14 10:52:37.97	38.35	28.76	-23.3	-24.1	19.8	0.00e+00	0	43	0	1957691392	7	3929
2026-01-14 10:52:38.98	38.02	28.72	-23.4	-24.3	19.7	0.00e+00	0	42	0	1962934272	7	3981
2026-01-14 10:52:39.98	37.70	28.69	-23.4	-24.2	19.8	0.00e+00	0	43	0	1969225728	7	3941
2026-01-14 10:52:40.99	37.38	28.65	-23.4	-24.1	19.8	0.00e+00	0	43	0	1974468608	7	3932
2026-01-14 10:52:41.99	37.05	28.61	-23.6	-24.6	19.6	0.00e+00	0	43	0	1979711488	7	4034
2026-01-14 10:52:42.99	36.73	28.57	-23.3	-24.1	19.8	0.00e+00	0	42	0	1986002944	7	3917
2026-01-14 10:52:43.99	36.42	28.53	-23.2	-23.8	20.0	0.00e+00	0	42	0	1991245824	7	3860
2026-01-14 10:52:44.98	36.10	28.49	-23.2	-23.8	20.0	0.00e+00	0	42	0	1996488704	7	3863
2026-01-14 10:52:45.98	35.78	28.44	-23.4	-24.2	19.8	0.00e+00	0	43	0	2002780160	7	3941
2026-01-14 10:52:46.99	35.46	28.40	-23.3	-24.0	19.9	0.00e+00	0	43	0	2008023040	7	3906
2026-01-14 10:52:47.99	35.15	28.36	-23.3	-24.1	19.8	0.00e+00	0	42	0	2014314496	7	3917
2026-01-14 10:52:49.00	34.83	28.31	-23.5	-24.4	19.7	0.00e+00	0	42	0	2019557376	7	3995
2026-01-14 10:52:50.01	34.51	28.26	-23.3	-24.1	19.8	0.00e+00	0	42	0	2025848832	7	3918
2026-01-14 10:52:51.01	34.20	28.22	-23.2	-23.9	19.9	0.00e+00	0	42	0	2031091712	7	3881
2026-01-14 10:52:52.01	33.89	28.17	-23.3	-24.0	19.9	0.00e+00	0	42	0	2036334592	7	3896
2026-01-14 10:52:53.02	33.57	28.12	-23.2	-23.8	20.0	0.00e+00	0	42	0	2042626048	7	3858
2026-01-14 10:52:54.02	33.26	28.07	-23.1	-23.6	20.1	0.00e+00	0	42	0	2047868928	7	3811
2026-01-14 10:52:55.02	32.95	28.02	-23.2	-23.8	20.0	0.00e+00	0	42	0	2053111808	7	3850
2026-01-14 10:52:56.02	32.65	27.97	-23.1	-23.6	20.0	0.00e+00	0	42	0	2059403264	7	3816
2026-01-14 10:52:57.02	32.34	27.91	-23.2	-23.8	19.9	0.00e+00	0	43	0	2064646144	7	3863
2026-01-14 10:52:58.02	32.03	27.86	-23.3	-24.0	19.8	0.00e+00	0	43	0	2069889024	7	3915
2026-01-14 10:52:59.03	31.72	27.81	-23.2	-23.9	19.9	0.00e+00	0	42	0	2076180480	7	3872
2026-01-14 10:53:00.03	31.42	27.75	-23.2	-23.8	20.0	0.00e+00	0	43	0	2081423360	7	3850
2026-01-14 10:53:01.03	31.12	27.70	-23.3	-24.0	19.8	0.00e+00	0	43	0	2087714816	7	3906
2026-01-14 10:53:02.03	30.82	27.64	-23.1	-23.6	20.0	0.00e+00	0	42	0	2092957696	7	3818
2026-01-14 10:53:03.04	30.51	27.58	-23.2	-23.7	20.0	0.00e+00	0	42	0	2098200576	7	3841
2026-01-14 10:53:04.03	30.22	27.53	-23.3	-24.0	19.9	0.00e+00	0	42	0	2104492032	7	3894
2026-01-14 10:53:05.04	29.91	27.47	-23.2	-23.7	20.0	0.00e+00	0	43	0	2109734912	7	3841
2026-01-14 10:53:06.04	29.62	27.41	-23.1	-23.6	20.0	0.00e+00	0	42	0	2114977792	7	3819
2026-01-14 10:53:07.05	29.32	27.35	-23.2	-23.8	19.9	0.00e+00	0	42	0	2121269248	7	3859
2026-01-14 10:53:08.05	29.02	27.29	-23.1	-23.5	20.1	0.00e+00	0	42	0	2126512128	7	3789
2026-01-14 10:53:09.05	28.73	27.22	-23.1	-23.6	20.0	0.00e+00	0	42	0	2132803584	7	3813
2026-01-14 10:53:10.05	28.43	27.16	-23.0	-23.5	20.1	0.00e+00	0	42	0	2138046464	7	3783
2026-01-14 10:53:11.06	28.14	27.10	-23.1	-23.7	20.0	0.00e+00	0	42	0	2143289344	7	3826
2026-01-14 10:53:12.06	27.85	27.04	-23.2	-23.8	19.9	0.00e+00	0	43	0	2149580800	7	3854
2026-01-14 10:53:13.06	27.56	26.97	-23.3	-24.1	19.8	0.00e+00	0	42	0	2154823680	7	3931
2026-01-14 10:53:14.06	27.27	26.91	-23.3	-24.1	19.8	0.00e+00	0	42	0	2161115136	7	3931
2026-01-14 10:53:15.07	26.98	26.84	-23.5	-24.5	19.6	0.00e+00	0	42	0	2166358016	7	4025
2026-01-14 10:53:16.08	26.69	26.77	-23.4	-24.2	19.7	0.00e+00	0	43	0	2171600896	7	3942
2026-01-14 10:53:17.08	26.41	26.71	-23.3	-24.0	19.8	0.00e+00	0	43	0	2177892352	7	3897
2026-01-14 10:53:18.08	26.13	26.64	-23.3	-24.0	19.8	0.00e+00	0	43	0	2183135232	7	3913
2026-01-14 10:53:19.08	25.84	26.57	-23.5	-24.4	19.6	0.00e+00	0	43	0	2188378112	7	3987
2026-01-14 10:53:20.08	25.56	26.50	-23.3	-24.0	19.8	0.00e+00	0	43	0	2194669568	7	3894
2026-01-14 10:53:21.08	25.28	26.43	-23.4	-24.1	19.7	0.00e+00	0	42	0	2199912448	7	3933
2026-01-14 10:53:22.08	25.00	26.37	-23.4	-24.3	19.6	0.00e+00	0	43	0	2205155328	7	3976
2026-01-14 10:53:23.09	24.72	26.29	-23.6	-24.5	19.5	0.00e+00	0	42	0	2211446784	7	4035
2026-01-14 10:53:24.09	24.45	26.22	-23.6	-24.6	19.5	0.00e+00	0	42	0	2216689664	7	4045
2026-01-14 10:53:25.10	24.17	26.15	-23.5	-24.5	19.5	0.00e+00	0	42	0	2222981120	7	4026
2026-01-14 10:53:26.10	23.90	26.08	-23.7	-24.8	19.4	0.00e+00	0	42	0	2228224000	7	4089
2026-01-14 10:53:27.10	23.62	26.01	-23.5	-24.5	19.5	0.00e+00	0	43	0	2233466880	7	4027
2026-01-14 10:53:28.10	23.35	25.93	-23.7	-24.9	19.3	0.00e+00	0	43	0	2239758336	7	4117
2026-01-14 10:53:29.11	23.08	25.86	-23.6	-24.6	19.5	0.00e+00	0	42	0	2245001216	7	4043
2026-01-14 10:53:30.11	22.81	25.79	-23.5	-24.5	19.6	0.00e+00	0	43	0	2251292672	7	4014
2026-01-14 10:53:31.11	22.55	25.71	-23.5	-24.5	19.6	0.00e+00	0	42	0	2256535552	7	4021
2026-01-14 10:53:32.12	22.28	25.64	-23.4	-24.3	19.6	0.00e+00	0	42	0	2261778432	7	3978
2026-01-14 10:53:33.13	22.01	25.56	-23.5	-24.4	19.6	0.00e+00	0	43	0	2268069888	7	4004
2026-01-14 10:53:34.13	21.75	25.49	-23.5	-24.5	19.5	0.00e+00	0	43	0	2273312768	7	4032
2026-01-14 10:53:35.14	21.48	25.41	-23.3	-23.9	19.8	0.00e+00	0	42	0	2278555648	7	3883
2026-01-14 10:53:36.13	21.22	25.33	-23.2	-23.7	19.9	0.00e+00	0	43	0	2284847104	7	3835
2026-01-14 10:53:37.13	20.96	25.26	-23.3	-24.0	19.7	0.00e+00	0	42	0	2290089984	7	3907
2026-01-14 10:53:38.13	20.71	25.18	-23.4	-24.1	19.7	0.00e+00	0	43	0	2296381440	7	3936
2026-01-14 10:53:39.13	20.45	25.10	-23.6	-24.7	19.4	0.00e+00	0	42	0	2301624320	7	4082
2026-01-14 10:53:40.14	20.19	25.02	-23.6	-24.6	19.5	0.00e+00	0	43	0	2306867200	7	4051
2026-01-14 10:53:41.14	19.94	24.94	-23.7	-24.8	19.4	0.00e+00	0	43	0	2313158656	7	4087
2026-01-14 10:53:42.14	19.68	24.86	-23.7	-24.8	19.4	0.00e+00	0	42	0	2318401536	7	4102
2026-01-14 10:53:43.15	19.43	24.78	-23.9	-25.2	19.2	0.00e+00	0	43	0	2323644416	7	4186
2026-01-14 10:53:44.16	19.18	24.70	-23.5	-24.5	19.6	0.00e+00	0	42	0	2329935872	7	4011
2026-01-14 10:53:45.16	18.93	24.62	-23.4	-24.3	19.6	0.00e+00	0	43	0	2335178752	7	3964
2026-01-14 10:53:46.17	18.68	24.54	-23.4	-24.2	19.7	0.00e+00	0	43	0	2341470208	7	3958
2026-01-14 10:53:47.17	18.43	24.46	-23.5	-24.4	19.6	0.00e+00	0	43	0	2346713088	7	3994
2026-01-14 10:53:48.17	18.19	24.38	-23.4	-24.3	19.6	0.00e+00	0	43	0	2351955968	7	3971
2026-01-14 10:53:49.18	17.94	24.30	-23.5	-24.5	19.5	0.00e+00	0	42	0	2358247424	7	4015
2026-01-14 10:53:50.19	17.69	24.21	-23.6	-24.6	19.5	0.00e+00	0	43	0	2363490304	7	4043
2026-01-14 10:53:51.19	17.45	24.13	-23.5	-24.5	19.5	0.00e+00	0	43	0	2369781760	7	4036
2026-01-14 10:53:52.19	17.21	24.05	-23.6	-24.6	19.5	0.00e+00	0	43	0	2375024640	7	4037
2026-01-14 10:53:53.19	16.97	23.97	-23.6	-24.7	19.4	0.00e+00	0	42	0	2380267520	7	4060
2026-01-14 10:53:54.19	16.74	23.88	-23.5	-24.4	19.5	0.00e+00	0	43	0	2386558976	7	3993
2026-01-14 10:53:55.19	16.50	23.80	-23.6	-24.7	19.4	0.00e+00	0	43	0	2391801856	7	4059
2026-01-14 10:53:56.20	16.26	23.72	-23.5	-24.5	19.5	0.00e+00	0	43	0	2397044736	7	4025
2026-01-14 10:53:57.20	16.03	23.63	-23.6	-24.6	19.5	0.00e+00	0	43	0	2403336192	7	4043
2026-01-14 10:53:58.20	15.80	23.55	-23.7	-24.9	19.3	0.00e+00	0	42	0	2408579072	7	4129
2026-01-14 10:53:59.20	15.56	23.47	-23.7	-24.8	19.3	0.00e+00	0	42	0	2414870528	7	4104
2026-01-14 10:54:00.20	15.33	23.38	-23.8	-25.0	19.2	0.00e+00	0	42	0	2420113408	7	4148
2026-01-14 10:54:01.21	15.10	23.30	-23.8	-25.0	19.2	0.00e+00	0	43	0	2425356288	7	4142
2026-01-14 10:54:02.21	14.88	23.21	-23.8	-25.0	19.2	0.00e+00	0	43	0	2431647744	7	4154
2026-01-14 10:54:03.21	14.65	23.13	-23.8	-25.1	19.2	0.00e+00	0	43	0	2436890624	7	4169
2026-01-14 10:54:04.22	14.42	23.04	-23.7	-24.9	19.2	0.00e+00	0	42	0	2443182080	7	4127
2026-01-14 10:54:05.22	14.20	22.95	-23.8	-25.0	19.2	0.00e+00	0	43	0	2448424960	7	4155
2026-01-14 10:54:06.22	13.98	22.87	-23.8	-25.1	19.2	0.00e+00	0	42	0	2453667840	7	4162
2026-01-14 10:54:07.23	13.75	22.78	-23.9	-25.3	19.1	0.00e+00	0	42	0	2459959296	7	4220
2026-01-14 10:54:08.23	13.53	22.70	-24.1	-25.1	18.9	0.00e+00	0	42	0	2465202176	8	4064
2026-01-14 10:54:09.24	13.31	22.61	-24.1	-25.2	18.9	0.00e+00	0	42	0	2470445056	8	4084
2026-01-14 10:54:10.24	13.09	22.52	-24.1	-25.3	18.8	0.00e+00	0	43	0	2476736512	8	4113
2026-01-14 10:54:11.23	12.88	22.44	-24.0	-25.0	19.0	0.00e+00	0	43	0	2481979392	8	4037
2026-01-14 10:54:12.23	12.66	22.35	-24.1	-25.1	18.9	0.00e+00	0	43	0	2487222272	8	4066
2026-01-14 10:54:13.24	12.45	22.26	-24.2	-25.5	18.7	0.00e+00	0	42	0	2493513728	8	4156
2026-01-14 10:54:14.24	12.24	22.18	-24.3	-25.6	18.7	0.00e+00	0	43	0	2498756608	8	4171
2026-01-14 10:54:15.24	12.02	22.09	-24.3	-25.7	18.6	0.00e+00	0	42	0	2505048064	8	4204
2026-01-14 10:54:16.24	11.81	22.00	-24.2	-25.5	18.7	0.00e+00	0	43	0	2510290944	8	4151
2026-01-14 10:54:17.24	11.61	21.92	-24.3	-25.6	18.6	0.00e+00	0	42	0	2515533824	8	4180
2026-01-14 10:54:18.24	11.40	21.83	-24.3	-25.7	18.6	0.00e+00	0	43	0	2521825280	8	4203
2026-01-14 10:54:19.25	11.19	21.74	-24.3	-25.7	18.6	0.00e+00	0	42	0	2527068160	8	4210
2026-01-14 10:54:20.25	10.98	21.65	-24.5	-25.6	18.4	0.00e+00	0	42	0	2532311040	9	4068
2026-01-14 10:54:21.25	10.78	21.57	-24.4	-25.2	18.5	0.00e+00	0	42	0	2538602496	9	3985
2026-01-14 10:54:22.26	10.57	21.48	-24.2	-25.0	18.7	0.00e+00	0	42	0	2543845376	9	3934
2026-01-14 10:54:23.26	10.37	21.39	-24.1	-24.8	18.8	0.00e+00	0	43	0	2550136832	9	3873
2026-01-14 10:54:24.27	10.17	21.30	-24.2	-24.8	18.8	0.00e+00	0	42	0	2555379712	9	3881
2026-01-14 10:54:25.27	9.97	21.21	-24.0	-24.5	18.9	0.00e+00	0	43	0	2560622592	9	3815
2026-01-14 10:54:26.27	9.77	21.12	-24.1	-24.6	18.9	0.00e+00	0	43	0	2566914048	9	3835
2026-01-14 10:54:27.27	9.57	21.04	-24.2	-24.9	18.7	0.00e+00	0	42	0	2572156928	9	3907
2026-01-14 10:54:28.28	9.37	20.95	-24.1	-24.8	18.8	0.00e+00	0	43	0	2578448384	9	3879
2026-01-14 10:54:29.28	9.18	20.86	-24.2	-24.8	18.7	0.00e+00	0	43	0	2583691264	9	3892
2026-01-14 10:54:30.28	8.99	20.77	-24.2	-25.0	18.7	0.00e+00	0	43	0	2588934144	9	3926
2026-01-14 10:54:31.29	8.79	20.68	-24.2	-24.9	18.7	0.00e+00	0	42	0	2595225600	9	3916
2026-01-14 10:54:32.29	8.60	20.59	-24.2	-24.9	18.7	0.00e+00	0	42	0	2600468480	9	3910
2026-01-14 10:54:33.29	8.41	20.51	-24.2	-25.0	18.7	0.00e+00	0	43	0	2605711360	9	3916
2026-01-14 10:54:34.29	8.22	20.42	-24.4	-25.3	18.5	0.00e+00	0	42	0	2612002816	9	3987
2026-01-14 10:54:35.30	8.03	20.33	-24.5	-25.5	18.4	0.00e+00	0	42	0	2617245696	9	4044
2026-01-14 10:54:36.31	7.84	20.24	-24.4	-25.3	18.5	0.00e+00	0	43	0	2623537152	9	3993
2026-01-14 10:54:37.31	7.65	20.15	-24.4	-25.4	18.5	0.00e+00	0	42	0	2628780032	9	4020
2026-01-14 10:54:38.32	7.47	20.06	-24.5	-25.5	18.4	0.00e+00	0	43	0	2634022912	9	4053
2026-01-14 10:54:39.33	7.28	19.97	-24.4	-25.4	18.5	0.00e+00	0	43	0	2640314368	9	4018
2026-01-14 10:54:40.34	7.10	19.88	-24.5	-25.6	18.3	0.00e+00	0	42	0	2645557248	9	4065
2026-01-14 10:54:41.33	6.92	19.80	-24.6	-25.8	18.2	0.00e+00	0	42	0	2651848704	9	4127
2026-01-14 10:54:42.34	6.73	19.71	-24.6	-25.8	18.2	0.00e+00	0	43	0	2657091584	9	4130
2026-01-14 10:54:43.34	6.55	19.62	-24.8	-26.2	18.0	0.00e+00	0	43	0	2662334464	9	4213
2026-01-14 10:54:44.34	6.38	19.53	-24.8	-26.3	17.9	0.00e+00	0	42	0	2668625920	9	4244
2026-01-14 10:54:45.34	6.20	19.44	-24.7	-25.9	18.2	0.00e+00	0	43	0	2673868800	9	4156
2026-01-14 10:54:46.34	6.02	19.35	-24.6	-25.7	18.2	0.00e+00	0	42	0	2679111680	9	4105
2026-01-14 10:54:47.35	5.84	19.26	-24.6	-25.8	18.2	0.00e+00	0	43	0	2685403136	9	4112
2026-01-14 10:54:48.35	5.67	19.18	-24.6	-25.7	18.3	0.00e+00	0	43	0	2690646016	9	4092
2026-01-14 10:54:49.36	5.49	19.09	-24.7	-25.9	18.2	0.00e+00	0	42	0	2696937472	9	4147
2026-01-14 10:54:50.37	5.32	19.00	-24.8	-26.2	18.0	0.00e+00	0	43	0	2702180352	9	4222
2026-01-14 10:54:51.37	5.15	18.91	-24.7	-25.9	18.1	0.00e+00	0	43	0	2707423232	9	4145
2026-01-14 10:54:52.37	4.98	18.82	-24.7	-25.9	18.1	0.00e+00	0	42	0	2713714688	9	4137
2026-01-14 10:54:53.37	4.81	18.73	-24.7	-25.9	18.1	0.00e+00	0	43	0	2718957568	9	4159
2026-01-14 10:54:54.37	4.64	18.65	-24.8	-26.1	18.0	0.00e+00	0	42	0	2725249024	9	4204
2026-01-14 10:54:55.38	4.47	18.56	-24.8	-26.2	18.0	0.00e+00	0	43	0	2730491904	9	4227
2026-01-14 10:54:56.39	4.30	18.47	-24.9	-26.4	17.9	0.00e+00	0	42	0	2735734784	9	4280
2026-01-14 10:54:57.38	4.14	18.38	-25.0	-26.5	17.8	0.00e+00	0	42	0	2742026240	9	4309
2026-01-14 10:54:58.38	3.98	18.29	-25.0	-26.5	17.8	0.00e+00	0	43	0	2747269120	9	4320
2026-01-14 10:54:59.38	3.81	18.21	-24.9	-26.5	17.8	0.00e+00	0	43	0	2752512000	9	4299
2026-01-14 10:55:00.39	3.65	18.12	-25.0	-26.5	17.8	0.00e+00	0	43	0	2758803456	9	4309
2026-01-14 10:55:01.39	3.49	18.03	-24.9	-26.4	17.9	0.00e+00	0	43	0	2764046336	9	4266
2026-01-14 10:55:02.39	3.33	17.94	-24.9	-26.5	17.8	0.00e+00	0	42	0	2769289216	9	4292
2026-01-14 10:55:03.39	3.17	17.86	-25.0	-26.2	17.7	0.00e+00	0	42	0	2775580672	10	4104
2026-01-14 10:55:04.40	3.01	17.77	-25.0	-26.2	17.7	0.00e+00	0	43	0	2780823552	10	4113
2026-01-14 10:55:05.40	2.85	17.68	-25.2	-26.5	17.6	0.00e+00	0	43	0	2787115008	10	4179
2026-01-14 10:55:06.40	2.69	17.59	-25.0	-26.2	17.7	0.00e+00	0	42	0	2792357888	10	4125
2026-01-14 10:55:07.40	2.54	17.51	-25.1	-26.3	17.7	0.00e+00	0	42	0	2797600768	10	4137
2026-01-14 10:55:08.41	2.38	17.42	-25.1	-26.3	17.6	0.00e+00	0	42	0	2803892224	10	4151
2026-01-14 10:55:09.41	2.23	17.33	-25.1	-26.4	17.6	0.00e+00	0	43	0	2809135104	10	4163
2026-01-14 10:55:10.41	2.07	17.25	-25.1	-26.3	17.6	0.00e+00	0	43	0	2815426560	10	4143
2026-01-14 10:55:11.42	1.92	17.16	-25.2	-26.5	17.5	0.00e+00	0	42	0	2820669440	10	4187
2026-01-14 10:55:12.41	1.77	17.07	-25.3	-26.7	17.4	0.00e+00	0	42	0	2825912320	10	4235
2026-01-14 10:55:13.42	1.62	16.99	-25.3	-26.7	17.4	0.00e+00	0	42	0	2832203776	10	4241
2026-01-14 10:55:14.42	1.47	16.90	-25.4	-27.0	17.2	0.00e+00	0	43	0	2837446656	10	4336
2026-01-14 10:55:15.43	1.32	16.81	-25.4	-27.0	17.2	0.00e+00	0	43	0	2842689536	10	4319
2026-01-14 10:55:16.42	1.17	16.73	-25.6	-26.8	17.1	0.00e+00	0	42	0	2848980992	11	4168
2026-01-14 10:55:17.43	1.02	16.64	-25.7	-27.2	16.9	0.00e+00	0	43	0	2854223872	11	4262
2026-01-14 10:55:18.44	0.87	16.55	-25.7	-27.1	16.9	0.00e+00	0	43	0	2860515328	11	4245
2026-01-14 10:55:19.44	0.73	16.47	-25.5	-26.7	17.1	0.00e+00	0	43	0	2865758208	11	4117
2026-01-14 10:55:20.45	0.58	16.38	-25.4	-26.4	17.3	0.00e+00	0	43	0	2871001088	11	4054
2026-01-14 10:55:21.45	0.44	16.30	-25.4	-26.5	17.2	0.00e+00	0	43	0	2877292544	11	4075
2026-01-14 10:55:22.45	0.30	16.21	-25.4	-26.5	17.2	0.00e+00	0	42	0	2882535424	11	4089
2026-01-14 10:55:23.45	0.15	16.13	-25.5	-26.6	17.2	0.00e+00	0	43	0	2887778304	11	4107
2026-01-14 10:55:24.44	0.01	16.04	-25.4	-26.5	17.2	0.00e+00	0	43	0	2894069760	11	4087
2026-01-14 10:55:25.45	359.87	15.95	-25.4	-26.5	17.2	0.00e+00	0	43	0	2899312640	11	4093
2026-01-14 10:55:26.45	359.73	15.87	-25.5	-26.6	17.2	0.00e+00	0	43	0	2905604096	11	4111
2026-01-14 10:55:27.46	359.59	15.78	-25.5	-26.7	17.1	0.00e+00	0	43	0	2910846976	11	4121
2026-01-14 10:55:28.46	359.46	15.70	-25.5	-26.7	17.1	0.00e+00	0	42	0	2917138432	11	4125
2026-01-14 10:55:29.46	359.32	15.62	-25.6	-26.8	17.0	0.00e+00	0	42	0	2922381312	11	4164
2026-01-14 10:55:30.46	359.18	15.53	-25.6	-26.9	17.0	0.00e+00	0	43	0	2927624192	11	4177
2026-01-14 10:55:31.46	359.05	15.45	-25.5	-26.7	17.0	0.00e+00	0	43	0	2933915648	11	4133
2026-01-14 10:55:32.46	358.91	15.36	-25.7	-27.1	16.9	0.00e+00	0	43	0	2939158528	11	4229
2026-01-14 10:55:33.46	358.78	15.28	-25.7	-27.2	16.8	0.00e+00	0	43	0	2944401408	11	4253
2026-01-14 10:55:34.47	358.64	15.19	-25.9	-27.6	16.6	0.00e+00	0	43	0	2950692864	11	4372
2026-01-14 10:55:35.47	358.51	15.11	-25.9	-27.1	16.5	0.00e+00	0	42	0	2955935744	12	4121
2026-01-14 10:55:36.47	358.38	15.03	-25.8	-26.8	16.7	0.00e+00	0	43	0	2961178624	12	4062
2026-01-14 10:55:37.48	358.25	14.94	-25.9	-27.0	16.5	0.00e+00	0	42	0	2967470080	12	4113
2026-01-14 10:55:38.48	358.12	14.86	-25.9	-27.0	16.5	0.00e+00	0	43	0	2972712960	12	4110
2026-01-14 10:55:39.48	357.99	14.77	-25.9	-27.1	16.5	0.00e+00	0	43	0	2979004416	12	4136
2026-01-14 10:55:40.49	357.86	14.69	-25.9	-27.1	16.5	0.00e+00	0	43	0	2984247296	12	4140
2026-01-14 10:55:41.50	357.73	14.61	-25.9	-27.1	16.5	0.00e+00	0	43	0	2989490176	12	4137
2026-01-14 10:55:42.49	357.60	14.53	-26.0	-27.3	16.4	0.00e+00	0	42	0	2995781632	12	4176
2026-01-14 10:55:43.50	357.47	14.44	-25.8	-26.9	16.6	0.00e+00	0	43	0	3001024512	12	4078
2026-01-14 10:55:44.51	357.35	14.36	-25.8	-26.9	16.6	0.00e+00	0	43	0	3007315968	12	4082
2026-01-14 10:55:45.51	357.22	14.28	-25.7	-26.7	16.7	0.00e+00	0	43	0	3012558848	12	4041
2026-01-14 10:55:46.51	357.10	14.19	-25.9	-27.0	16.5	0.00e+00	0	43	0	3017801728	12	4107
2026-01-14 10:55:47.52	356.97	14.11	-25.8	-26.9	16.6	0.00e+00	0	43	0	3024093184	12	4075
2026-01-14 10:55:48.52	356.85	14.03	-25.9	-27.0	16.5	0.00e+00	0	42	0	3029336064	12	4103
2026-01-14 10:55:49.51	356.73	13.95	-25.8	-27.0	16.5	0.00e+00	0	43	0	3034578944	12	4095
2026-01-14 10:55:50.52	356.61	13.87	-25.9	-27.1	16.5	0.00e+00	0	43	0	3040870400	12	4120
2026-01-14 10:55:51.52	356.49	13.78	-25.9	-27.0	16.5	0.00e+00	0	43	0	3046113280	12	4113
2026-01-14 10:55:52.52	356.37	13.70	-25.9	-27.1	16.5	0.00e+00	0	43	0	3052404736	12	4126
2026-01-14 10:55:53.52	356.25	13.62	-26.0	-27.3	16.3	0.00e+00	0	43	0	3057647616	12	4188
2026-01-14 10:55:54.53	356.13	13.54	-26.1	-27.4	16.2	0.00e+00	0	43	0	3062890496	12	4223
2026-01-14 10:55:55.53	356.01	13.46	-26.1	-27.4	16.2	0.00e+00	0	43	0	3069181952	12	4217
2026-01-14 10:55:56.53	355.89	13.38	-26.1	-27.5	16.2	0.00e+00	0	43	0	3074424832	12	4242
2026-01-14 10:55:57.54	355.77	13.30	-26.1	-27.6	16.2	0.00e+00	0	43	0	3079667712	12	4249
2026-01-14 10:55:58.54	355.66	13.22	-26.1	-27.5	16.2	0.00e+00	0	43	0	3085959168	12	4240
2026-01-14 10:55:59.53	355.54	13.14	-26.2	-27.7	16.1	0.00e+00	0	43	0	3091202048	12	4287
2026-01-14 10:56:00.53	355.43	13.06	-26.1	-27.6	16.1	0.00e+00	0	43	0	3096444928	12	4267
2026-01-14 10:56:01.54	355.31	12.97	-26.1	-27.5	16.2	0.00e+00	0	43	0	3102736384	12	4231
2026-01-14 10:56:02.55	355.20	12.89	-26.2	-27.7	16.1	0.00e+00	0	43	0	3107979264	12	4280
2026-01-14 10:56:03.55	355.09	12.81	-26.2	-27.8	16.0	0.00e+00	0	43	0	3114270720	12	4309
2026-01-14 10:56:04.56	354.97	12.73	-26.2	-27.8	16.0	0.00e+00	0	43	0	3119513600	12	4310
2026-01-14 10:56:05.55	354.86	12.65	-26.2	-27.7	16.1	0.00e+00	0	42	0	3125805056	12	4284
2026-01-14 10:56:06.56	354.75	12.57	-26.2	-27.7	16.1	0.00e+00	0	43	0	3131047936	12	4295
2026-01-14 10:56:07.56	354.64	12.50	-26.3	-27.9	15.9	0.00e+00	0	43	0	3136290816	12	4344
2026-01-14 10:56:08.57	354.53	12.42	-26.3	-28.0	15.9	0.00e+00	0	43	0	3142582272	12	4372
2026-01-14 10:56:09.57	354.42	12.34	-26.4	-28.2	15.7	0.00e+00	0	43	0	3147825152	12	4437
2026-01-14 10:56:10.57	354.31	12.26	-26.4	-28.2	15.7	0.00e+00	0	43	0	3153068032	12	4425
2026-01-14 10:56:11.57	354.20	12.18	-26.5	-28.4	15.7	0.00e+00	0	43	0	3159359488	12	4467
2026-01-14 10:56:12.57	354.10	12.10	-26.7	-28.3	15.4	0.00e+00	0	43	0	3164602368	13	4335
2026-01-14 10:56:13.58	353.99	12.02	-26.7	-28.4	15.3	0.00e+00	0	43	0	3169845248	13	4382
2026-01-14 10:56:14.58	353.88	11.94	-26.6	-28.1	15.5	0.00e+00	0	43	0	3176136704	13	4291
2026-01-14 10:56:15.59	353.77	11.87	-26.6	-28.2	15.5	0.00e+00	0	43	0	3181379584	13	4308
2026-01-14 10:56:16.59	353.67	11.79	-26.8	-28.6	15.3	0.00e+00	0	43	0	3187671040	13	4421
2026-01-14 10:56:17.59	353.57	11.71	-26.8	-28.5	15.3	0.00e+00	0	43	0	3192913920	13	4404
2026-01-14 10:56:18.60	353.46	11.63	-26.8	-28.6	15.3	0.00e+00	0	43	0	3198156800	13	4423
2026-01-14 10:56:19.60	353.36	11.55	-26.8	-28.5	15.3	0.00e+00	0	42	0	3204448256	13	4398
2026-01-14 10:56:20.60	353.25	11.48	-26.7	-28.3	15.4	0.00e+00	0	43	0	3209691136	13	4353
2026-01-14 10:56:21.60	353.15	11.40	-26.5	-27.9	15.6	0.00e+00	0	43	0	3214934016	13	4232
2026-01-14 10:56:22.61	353.05	11.32	-26.5	-27.9	15.6	0.00e+00	0	43	0	3221225472	13	4223
2026-01-14 10:56:23.61	352.95	11.25	-26.5	-28.0	15.6	0.00e+00	0	43	0	3226468352	13	4266
2026-01-14 10:56:24.61	352.85	11.17	-26.6	-28.1	15.5	0.00e+00	0	43	0	3232759808	13	4281
2026-01-14 10:56:25.62	352.75	11.09	-26.4	-27.7	15.7	0.00e+00	0	43	0	3238002688	13	4186
2026-01-14 10:56:26.62	352.65	11.02	-26.5	-27.9	15.6	0.00e+00	0	43	0	3243245568	13	4233
2026-01-14 10:56:27.61	352.55	10.94	-26.5	-27.9	15.5	0.00e+00	0	43	0	3249537024	13	4249
2026-01-14 10:56:28.62	352.45	10.86	-26.6	-28.1	15.5	0.00e+00	0	42	0	3254779904	13	4287
2026-01-14 10:56:29.63	352.35	10.79	-26.6	-28.1	15.4	0.00e+00	0	43	0	3261071360	13	4301
2026-01-14 10:56:30.63	352.25	10.71	-26.6	-28.1	15.4	1.10e-06	0	43	0	3266314240	13	4303
2026-01-14 10:56:31.63	352.16	10.64	-26.6	-28.2	15.4	0.00e+00	0	42	0	3271557120	13	4320
2026-01-14 10:56:32.63	352.06	10.56	-26.6	-28.2	15.4	0.00e+00	0	43	0	3277848576	13	4318
2026-01-14 10:56:33.64	351.96	10.48	-26.7	-28.3	15.3	1.10e-06	0	43	0	3283091456	13	4344
2026-01-14 10:56:34.64	351.87	10.41	-26.9	-28.8	15.0	0.00e+00	0	43	0	3288334336	13	4491
2026-01-14 10:56:35.65	351.77	10.33	-26.8	-28.6	15.1	0.00e+00	0	42	0	3294625792	13	4424
2026-01-14 10:56:36.65	351.68	10.26	-27.0	-29.0	14.9	0.00e+00	0	42	0	3299868672	13	4556
2026-01-14 10:56:37.66	351.58	10.18	-27.1	-28.8	14.8	0.00e+00	0	43	0	3306160128	14	4359
2026-01-14 10:56:38.66	351.49	10.11	-27.1	-28.8	14.8	0.00e+00	0	43	0	3311403008	14	4362
2026-01-14 10:56:39.66	351.40	10.03	-27.0	-28.5	14.9	0.00e+00	0	42	0	3316645888	14	4285
2026-01-14 10:56:40.66	351.31	9.96	-27.0	-28.5	14.9	0.00e+00	0	43	0	3322937344	14	4299
2026-01-14 10:56:41.66	351.21	9.89	-26.9	-28.4	15.0	0.00e+00	0	43	0	3328180224	14	4259
2026-01-14 10:56:42.66	351.12	9.81	-27.2	-29.1	14.6	0.00e+00	0	43	0	3334471680	14	4454
2026-01-14 10:56:43.66	351.03	9.74	-27.1	-28.8	14.7	1.10e-06	0	43	0	3339714560	14	4376
2026-01-14 10:56:44.66	350.94	9.66	-26.9	-28.4	14.9	0.00e+00	0	43	0	3344957440	14	4250
2026-01-14 10:56:45.67	350.85	9.59	-27.1	-28.7	14.8	0.00e+00	0	43	0	3351248896	14	4334
2026-01-14 10:56:46.68	350.76	9.52	-26.9	-28.3	15.0	0.00e+00	0	43	0	3356491776	14	4240
2026-01-14 10:56:47.68	350.67	9.44	-27.0	-28.7	14.8	1.10e-06	0	43	0	3361734656	14	4336
2026-01-14 10:56:48.68	350.58	9.37	-27.1	-28.7	14.7	0.00e+00	0	43	0	3368026112	14	4348
2026-01-14 10:56:49.68	350.50	9.30	-27.0	-28.6	14.8	0.00e+00	0	43	0	3373268992	14	4318
2026-01-14 10:56:50.69	350.41	9.22	-27.2	-29.0	14.6	0.00e+00	0	43	0	3378511872	14	4434
2026-01-14 10:56:51.70	350.32	9.15	-27.1	-28.8	14.6	0.00e+00	0	43	0	3384803328	14	4387
2026-01-14 10:56:52.70	350.23	9.08	-27.1	-28.8	14.7	0.00e+00	0	43	0	3390046208	14	4373
2026-01-14 10:56:53.70	350.15	9.01	-27.0	-28.5	14.8	0.00e+00	0	43	0	3396337664	14	4305
2026-01-14 10:56:54.70	350.06	8.93	-27.5	-29.7	14.1	0.00e+00	0	43	0	3401580544	14	4644
2026-01-14 10:56:55.70	349.97	8.86	-27.5	-29.2	14.1	1.10e-06	0	43	0	3407872000	15	4369
2026-01-14 10:56:56.71	349.89	8.79	-27.9	-30.1	13.5	4.50e-06	0	43	0	3413114880	15	4659
2026-01-14 10:56:57.71	349.80	8.72	-27.7	-29.6	13.9	1.10e-06	0	43	0	3418357760	15	4487
2026-01-14 10:56:58.71	349.72	8.65	-27.3	-28.7	14.4	1.10e-06	0	43	0	3424649216	15	4236
2026-01-14 10:56:59.71	349.64	8.57	-27.3	-28.7	14.4	0.00e+00	0	43	0	3429892096	15	4235
2026-01-14 10:57:00.72	349.55	8.50	-27.4	-28.9	14.3	0.00e+00	0	43	0	3435134976	15	4297
2026-01-14 10:57:01.72	349.47	8.43	-27.3	-28.7	14.4	1.10e-06	0	43	0	3441426432	15	4252
2026-01-14 10:57:02.73	349.39	8.36	-27.2	-28.6	14.4	0.00e+00	0	43	0	3446669312	15	4223
2026-01-14 10:57:03.73	349.31	8.29	-27.2	-28.6	14.4	0.00e+00	0	43	0	3451912192	15	4227
2026-01-14 10:57:04.73	349.22	8.22	-27.1	-28.4	14.6	0.00e+00	0	43	0	3458203648	15	4159
2026-01-14 10:57:05.74	349.14	8.15	-27.4	-29.0	14.2	0.00e+00	0	43	0	3463446528	15	4329
2026-01-14 10:57:06.74	349.06	8.08	-27.2	-28.5	14.5	0.00e+00	0	43	0	3469737984	15	4184
2026-01-14 10:57:07.74	348.98	8.01	-27.4	-29.1	14.1	1.10e-06	0	42	0	3474980864	15	4352
2026-01-14 10:57:08.75	348.90	7.94	-27.2	-28.5	14.4	1.10e-06	0	42	0	3480223744	15	4202
2026-01-14 10:57:09.75	348.82	7.87	-27.4	-28.9	14.2	2.20e-06	0	43	0	3486515200	15	4313
2026-01-14 10:57:10.75	348.74	7.80	-27.4	-29.1	14.1	4.50e-06	0	43	0	3491758080	15	4370
2026-01-14 10:57:11.76	348.66	7.72	-27.6	-29.5	13.8	0.00e+00	0	43	0	3498049536	15	4489
2026-01-14 10:57:12.75	348.59	7.66	-27.4	-28.9	14.1	3.40e-06	0	42	0	3503292416	15	4320
2026-01-14 10:57:13.76	348.51	7.59	-27.3	-28.9	14.2	1.10e-06	0	43	0	3508535296	15	4302
2026-01-14 10:57:14.77	348.43	7.52	-27.2	-28.6	14.4	0.00e+00	0	42	0	3514826752	15	4211
2026-01-14 10:57:15.77	348.35	7.45	-27.4	-29.0	14.1	0.00e+00	0	43	0	3520069632	15	4335
2026-01-14 10:57:16.76	348.28	7.38	-27.3	-28.9	14.2	0.00e+00	0	43	0	3525312512	15	4293
2026-01-14 10:57:17.76	348.20	7.31	-27.5	-29.2	14.0	1.10e-06	0	43	0	3531603968	15	4395
2026-01-14 10:57:18.76	348.12	7.24	-27.2	-28.7	14.3	1.10e-06	0	43	0	3536846848	15	4237
2026-01-14 10:57:19.76	348.05	7.17	-27.2	-28.7	14.3	0.00e+00	0	43	0	3543138304	15	4248
2026-01-14 10:57:20.76	347.97	7.10	-27.4	-29.0	14.1	1.10e-06	0	43	0	3548381184	15	4325
2026-01-14 10:57:21.77	347.90	7.03	-32.9	-40.2	4.0	6.70e-01	0	43	104	3552575488	26	8391

#Closed at: 2026-01-14 10:57:22
#Recorded file [3552 MB]: D:/data/31010_260114_134649.dat