passes_logs/2026/01/14/R2M6_AANII_01/R2M6_AANII_01__20260114_114836_NOAA_20_JPSS-1_rec.log

#Pass ID: 20260114_114836_NOAA 20 (JPSS-1)
#Satellite: NOAA 20 (JPSS-1)
#Configuration: NOAA 20
#almurnet v.1.7.20240730
#Start time: 2026-01-14 11:48:37

#Version: 2.2.20231116
#Station: R2M6_AANII_01
#Location: 30.233357 lon 59.946436 lat
#TLE: 1 43013U 17073A   26013.21545503  .00000073  00000+0  55630-4 0  9998
#TLE: 2 43013  98.7633 314.1737 0001580  41.9966 318.1331 14.19535680422486

#Time	Az	El	Level	Level2	SNR	BER	BlckErr	Temp	State	Recorded	gain1	gain2
2026-01-14 11:48:37.86	208.76	7.07	-30.8	-35.3	5.4	1.15e+00	0	40	0	0	22	6042
2026-01-14 11:48:38.86	208.85	7.14	-31.3	-36.7	5.2	1.20e+00	0	40	104	0	23	6648
2026-01-14 11:48:39.86	208.94	7.20	-31.4	-36.7	8.7	2.76e-02	0	40	0	0	23	6677
2026-01-14 11:48:40.87	209.03	7.27	-31.6	-37.6	8.1	5.25e-02	0	40	0	1048576	23	7211
2026-01-14 11:48:41.87	209.12	7.34	-31.5	-37.2	8.5	5.49e-02	0	40	0	3145728	23	6928
2026-01-14 11:48:42.87	209.21	7.40	-31.3	-36.3	9.2	2.91e-02	0	40	0	5242880	23	6394
2026-01-14 11:48:43.87	209.30	7.47	-31.1	-35.4	9.9	9.58e-03	0	40	0	7340032	23	5941
2026-01-14 11:48:44.87	209.39	7.53	-30.9	-34.8	10.4	5.74e-03	0	40	0	9437184	23	5621
2026-01-14 11:48:45.88	209.48	7.60	-30.8	-34.4	10.7	3.32e-03	0	40	0	10485760	23	5435
2026-01-14 11:48:46.88	209.57	7.67	-30.6	-34.4	11.1	2.30e-03	0	40	0	12582912	22	5554
2026-01-14 11:48:47.89	209.66	7.73	-30.7	-34.7	10.9	2.07e-03	0	40	0	14680064	22	5674
2026-01-14 11:48:48.89	209.76	7.80	-30.6	-34.4	11.1	1.99e-03	0	40	0	16777216	22	5552
2026-01-14 11:48:49.90	209.85	7.87	-30.6	-34.1	11.3	1.31e-03	0	40	0	17825792	22	5423
2026-01-14 11:48:50.89	209.94	7.93	-30.5	-33.9	11.5	8.99e-04	0	40	0	19922944	22	5320
2026-01-14 11:48:51.90	210.04	8.00	-30.6	-34.0	11.4	7.55e-04	0	40	0	22020096	22	5377
2026-01-14 11:48:52.90	210.13	8.07	-30.5	-33.9	11.6	9.92e-04	0	40	0	24117248	22	5310
2026-01-14 11:48:53.91	210.23	8.14	-30.6	-34.0	11.5	6.94e-04	0	40	0	26214400	22	5379
2026-01-14 11:48:54.91	210.32	8.20	-30.7	-34.6	11.0	1.49e-03	0	40	0	28311552	22	5640
2026-01-14 11:48:55.91	210.42	8.27	-30.6	-34.0	11.5	1.23e-03	0	41	0	29360128	22	5352
2026-01-14 11:48:56.92	210.52	8.34	-30.4	-33.5	11.9	5.65e-04	0	41	0	31457280	22	5140
2026-01-14 11:48:57.92	210.61	8.41	-30.5	-33.9	11.8	4.95e-04	0	41	0	33554432	22	5276
2026-01-14 11:48:58.93	210.71	8.48	-30.6	-34.0	11.7	5.39e-04	0	41	0	35651584	22	5326
2026-01-14 11:48:59.93	210.81	8.54	-30.7	-34.3	11.5	6.33e-04	0	41	0	36700160	22	5442
2026-01-14 11:49:00.94	210.90	8.61	-30.6	-34.1	11.6	7.05e-04	0	41	0	38797312	22	5373
2026-01-14 11:49:01.94	211.00	8.68	-30.6	-34.1	11.6	7.26e-04	0	41	0	40894464	22	5368
2026-01-14 11:49:02.94	211.10	8.75	-30.5	-33.7	11.9	5.24e-04	0	41	0	42991616	22	5193
2026-01-14 11:49:03.95	211.20	8.82	-30.5	-33.6	12.0	2.84e-04	0	41	0	45088768	22	5170
2026-01-14 11:49:04.95	211.30	8.89	-30.4	-33.4	12.1	2.62e-04	0	41	0	46137344	22	5085
2026-01-14 11:49:05.96	211.40	8.95	-30.6	-33.9	11.8	3.05e-04	0	41	0	48234496	22	5280
2026-01-14 11:49:06.96	211.50	9.02	-30.5	-33.7	12.0	3.33e-04	0	41	0	50331648	22	5186
2026-01-14 11:49:07.96	211.60	9.09	-30.4	-33.4	12.2	2.53e-04	0	41	0	52428800	22	5071
2026-01-14 11:49:08.96	211.70	9.16	-30.4	-33.4	12.2	2.01e-04	0	41	0	54525952	22	5066
2026-01-14 11:49:09.97	211.81	9.23	-30.4	-33.2	12.3	1.68e-04	0	41	0	55574528	22	4990
2026-01-14 11:49:10.97	211.91	9.30	-30.4	-33.2	12.3	1.65e-04	0	41	0	57671680	22	5000
2026-01-14 11:49:11.98	212.01	9.37	-30.5	-33.5	12.2	2.16e-04	0	41	0	59768832	22	5097
2026-01-14 11:49:12.99	212.12	9.44	-30.4	-33.3	12.3	2.21e-04	0	41	0	61865984	22	5027
2026-01-14 11:49:13.99	212.22	9.51	-30.4	-33.2	12.4	1.48e-04	0	41	0	63963136	22	4996
2026-01-14 11:49:14.99	212.32	9.58	-30.3	-33.1	12.5	1.36e-04	0	41	0	65011712	22	4949
2026-01-14 11:49:16.00	212.43	9.65	-30.5	-33.6	12.1	1.62e-04	0	41	0	67108864	22	5141
2026-01-14 11:49:17.00	212.53	9.72	-30.3	-33.1	12.4	1.73e-04	0	41	0	69206016	22	4952
2026-01-14 11:49:18.00	212.64	9.79	-30.3	-33.0	12.5	1.27e-04	0	41	0	71303168	22	4924
2026-01-14 11:49:19.01	212.75	9.86	-30.3	-33.4	12.6	1.20e-04	0	41	0	73400320	21	5164
2026-01-14 11:49:20.01	212.85	9.93	-30.2	-33.1	12.8	6.79e-05	0	41	0	74448896	21	5071
2026-01-14 11:49:21.01	212.96	10.00	-30.3	-33.4	12.6	1.08e-04	0	41	0	76546048	21	5171
2026-01-14 11:49:22.01	213.07	10.07	-30.2	-33.1	12.8	6.86e-05	0	41	0	78643200	21	5036
2026-01-14 11:49:23.01	213.18	10.14	-30.1	-33.0	12.9	4.65e-05	0	41	0	80740352	21	4991
2026-01-14 11:49:24.01	213.28	10.21	-30.2	-33.1	12.8	5.41e-05	0	41	0	82837504	21	5045
2026-01-14 11:49:25.01	213.39	10.28	-30.3	-33.5	12.5	1.08e-04	0	41	0	83886080	21	5222
2026-01-14 11:49:26.01	213.50	10.35	-30.2	-33.3	12.7	8.62e-05	0	41	0	85983232	21	5105
2026-01-14 11:49:27.02	213.61	10.42	-30.3	-33.4	12.6	7.09e-05	0	41	0	88080384	21	5172
2026-01-14 11:49:28.02	213.72	10.49	-30.3	-33.5	12.6	1.10e-04	0	41	0	90177536	21	5198
2026-01-14 11:49:29.02	213.84	10.57	-30.3	-33.5	12.6	1.13e-04	0	41	0	91226112	21	5180
2026-01-14 11:49:30.02	213.95	10.64	-30.5	-34.0	12.2	2.17e-04	0	41	0	93323264	21	5405
2026-01-14 11:49:31.03	214.06	10.71	-30.4	-33.7	12.4	1.72e-04	0	41	0	95420416	21	5294
2026-01-14 11:49:32.02	214.17	10.78	-30.4	-33.7	12.4	1.60e-04	0	41	0	97517568	21	5299
2026-01-14 11:49:33.03	214.29	10.85	-30.4	-33.8	12.3	1.55e-04	0	41	0	99614720	21	5333
2026-01-14 11:49:34.02	214.40	10.92	-30.5	-34.1	12.2	2.12e-04	0	41	0	100663296	21	5446
2026-01-14 11:49:35.03	214.51	11.00	-30.4	-33.9	12.3	2.16e-04	0	41	0	102760448	21	5352
2026-01-14 11:49:36.02	214.63	11.07	-30.5	-34.1	12.2	2.02e-04	0	41	0	104857600	21	5448
2026-01-14 11:49:37.03	214.74	11.14	-30.6	-34.5	11.9	3.36e-04	0	41	0	106954752	21	5607
2026-01-14 11:49:38.03	214.86	11.21	-30.5	-34.1	12.2	2.86e-04	0	41	0	109051904	21	5446
2026-01-14 11:49:39.03	214.98	11.28	-30.5	-33.9	12.3	2.09e-04	0	41	0	110100480	21	5367
2026-01-14 11:49:40.04	215.09	11.36	-30.4	-33.8	12.4	1.60e-04	0	41	0	112197632	21	5317
2026-01-14 11:49:41.04	215.21	11.43	-30.4	-33.8	12.4	1.27e-04	0	42	0	114294784	21	5305
2026-01-14 11:49:42.04	215.33	11.50	-30.5	-34.1	12.2	1.84e-04	0	42	0	116391936	21	5443
2026-01-14 11:49:43.05	215.45	11.58	-30.3	-33.5	12.7	1.23e-04	0	41	0	118489088	21	5177
2026-01-14 11:49:44.05	215.57	11.65	-30.2	-33.2	12.8	7.24e-05	0	41	0	119537664	21	5069
2026-01-14 11:49:45.06	215.69	11.72	-30.1	-33.0	13.0	4.27e-05	0	42	0	121634816	21	4992
2026-01-14 11:49:46.07	215.81	11.80	-30.2	-33.2	12.9	5.34e-05	0	41	0	123731968	21	5051
2026-01-14 11:49:47.07	215.93	11.87	-30.1	-32.9	13.0	3.73e-05	0	42	0	125829120	21	4971
2026-01-14 11:49:48.07	216.05	11.94	-30.1	-33.0	13.0	2.74e-05	0	42	0	127926272	21	4978
2026-01-14 11:49:49.07	216.18	12.01	-30.2	-33.2	12.9	4.88e-05	0	41	0	128974848	21	5065
2026-01-14 11:49:50.07	216.30	12.09	-30.2	-33.0	13.0	5.41e-05	0	42	0	131072000	21	5016
2026-01-14 11:49:51.08	216.42	12.16	-30.2	-33.2	12.9	5.87e-05	0	42	0	133169152	21	5064
2026-01-14 11:49:52.09	216.55	12.24	-30.1	-32.9	13.1	2.82e-05	0	42	0	135266304	21	4940
2026-01-14 11:49:53.09	216.67	12.31	-30.1	-32.9	13.0	2.59e-05	0	42	0	136314880	21	4969
2026-01-14 11:49:54.10	216.80	12.39	-30.0	-32.7	13.2	2.44e-05	0	42	0	138412032	21	4878
2026-01-14 11:49:55.10	216.92	12.46	-30.1	-32.9	13.1	1.75e-05	0	42	0	140509184	21	4973
2026-01-14 11:49:56.11	217.05	12.53	-30.2	-33.1	12.9	3.73e-05	0	42	0	142606336	21	5036
2026-01-14 11:49:57.10	217.18	12.61	-30.1	-32.8	13.1	2.67e-05	0	42	0	144703488	21	4914
2026-01-14 11:49:58.11	217.31	12.68	-30.0	-32.6	13.3	2.13e-05	0	42	0	146800640	21	4837
2026-01-14 11:49:59.11	217.43	12.76	-30.1	-32.7	13.2	1.75e-05	0	42	0	147849216	21	4893
2026-01-14 11:50:00.12	217.57	12.83	-30.0	-32.6	13.3	1.98e-05	0	42	0	149946368	21	4841
2026-01-14 11:50:01.12	217.69	12.91	-30.1	-32.8	13.2	2.05e-05	0	42	0	152043520	21	4899
2026-01-14 11:50:02.12	217.82	12.98	-30.1	-32.8	13.2	1.75e-05	0	42	0	154140672	21	4923
2026-01-14 11:50:03.12	217.96	13.06	-30.2	-33.1	13.0	2.13e-05	0	42	0	155189248	21	5033
2026-01-14 11:50:04.12	218.09	13.13	-30.2	-33.0	13.1	3.12e-05	0	42	0	157286400	21	4966
2026-01-14 11:50:05.13	218.22	13.21	-30.2	-33.0	13.1	2.36e-05	0	42	0	159383552	21	4974
2026-01-14 11:50:06.13	218.35	13.28	-30.3	-33.2	12.9	3.58e-05	0	42	0	161480704	21	5078
2026-01-14 11:50:07.14	218.49	13.36	-30.3	-33.2	12.9	3.89e-05	0	42	0	163577856	21	5075
2026-01-14 11:50:08.14	218.62	13.43	-30.2	-33.2	13.0	3.50e-05	0	42	0	164626432	21	5044
2026-01-14 11:50:09.14	218.76	13.51	-30.3	-33.4	12.8	5.72e-05	0	42	0	166723584	21	5144
2026-01-14 11:50:10.14	218.89	13.58	-30.3	-33.3	12.9	4.65e-05	0	42	0	168820736	21	5092
2026-01-14 11:50:11.15	219.03	13.66	-30.3	-33.3	12.9	4.27e-05	0	42	0	170917888	21	5108
2026-01-14 11:50:12.15	219.17	13.73	-30.2	-33.1	13.1	2.28e-05	0	42	0	173015040	21	5026
2026-01-14 11:50:13.16	219.30	13.81	-30.3	-33.2	13.0	3.28e-05	0	42	0	174063616	21	5051
2026-01-14 11:50:14.16	219.44	13.89	-30.3	-33.4	12.9	4.42e-05	0	42	0	176160768	21	5119
2026-01-14 11:50:15.16	219.58	13.96	-30.4	-33.6	12.8	5.95e-05	0	42	0	178257920	21	5187
2026-01-14 11:50:16.16	219.72	14.04	-30.2	-33.1	13.1	3.81e-05	0	42	0	180355072	21	5001
2026-01-14 11:50:17.17	219.86	14.12	-30.1	-32.8	13.3	1.67e-05	0	42	0	182452224	21	4886
2026-01-14 11:50:18.17	220.00	14.19	-30.1	-32.7	13.4	1.22e-05	0	42	0	183500800	21	4871
2026-01-14 11:50:19.17	220.14	14.27	-30.1	-32.7	13.4	1.22e-05	0	42	0	185597952	21	4873
2026-01-14 11:50:20.17	220.29	14.34	-30.1	-32.8	13.4	1.98e-05	0	42	0	187695104	21	4885
2026-01-14 11:50:21.18	220.43	14.42	-30.2	-32.9	13.3	1.90e-05	0	42	0	189792256	21	4932
2026-01-14 11:50:22.18	220.57	14.50	-30.1	-32.6	13.4	1.75e-05	0	42	0	191889408	21	4836
2026-01-14 11:50:23.19	220.72	14.57	-30.1	-32.6	13.4	9.10e-06	0	42	0	192937984	21	4840
2026-01-14 11:50:24.19	220.86	14.65	-30.1	-32.7	13.4	1.67e-05	0	42	0	195035136	21	4851
2026-01-14 11:50:25.20	221.01	14.73	-29.9	-32.3	13.7	1.44e-05	0	42	0	197132288	21	4708
2026-01-14 11:50:26.21	221.16	14.81	-29.9	-32.2	13.8	5.30e-06	0	42	0	199229440	21	4673
2026-01-14 11:50:27.21	221.31	14.88	-29.9	-32.2	13.7	7.60e-06	0	42	0	201326592	21	4701
2026-01-14 11:50:28.21	221.45	14.96	-29.9	-32.2	13.8	6.10e-06	0	42	0	202375168	21	4685
2026-01-14 11:50:29.21	221.60	15.04	-30.0	-32.5	13.6	7.60e-06	0	42	0	204472320	21	4777
2026-01-14 11:50:30.21	221.75	15.11	-30.0	-32.5	13.6	8.30e-06	0	42	0	206569472	21	4770
2026-01-14 11:50:31.21	221.90	15.19	-30.1	-32.6	13.5	6.80e-06	0	42	0	208666624	21	4813
2026-01-14 11:50:32.21	222.05	15.27	-30.0	-32.5	13.6	9.10e-06	0	42	0	209715200	21	4802
2026-01-14 11:50:33.22	222.21	15.34	-30.1	-32.7	13.4	1.44e-05	0	42	0	211812352	21	4860
2026-01-14 11:50:34.21	222.36	15.42	-30.2	-32.9	13.3	1.83e-05	0	42	0	213909504	21	4925
2026-01-14 11:50:35.22	222.51	15.50	-30.2	-32.9	13.3	1.67e-05	0	42	0	216006656	21	4918
2026-01-14 11:50:36.22	222.67	15.58	-30.1	-32.7	13.4	1.14e-05	0	42	0	218103808	21	4872
2026-01-14 11:50:37.23	222.82	15.65	-30.1	-32.6	13.5	5.30e-06	0	42	0	219152384	21	4834
2026-01-14 11:50:38.22	222.98	15.73	-30.1	-32.8	13.4	1.75e-05	0	42	0	221249536	21	4877
2026-01-14 11:50:39.22	223.13	15.81	-30.0	-32.5	13.6	1.29e-05	0	42	0	223346688	21	4791
2026-01-14 11:50:40.23	223.29	15.89	-30.0	-32.5	13.6	7.60e-06	0	42	0	225443840	21	4796
2026-01-14 11:50:41.22	223.45	15.96	-30.1	-32.8	13.4	9.10e-06	0	42	0	227540992	21	4887
2026-01-14 11:50:42.22	223.61	16.04	-30.0	-32.4	13.7	6.10e-06	0	42	0	228589568	21	4753
2026-01-14 11:50:43.23	223.77	16.12	-29.9	-32.1	13.9	8.30e-06	0	42	0	230686720	21	4644
2026-01-14 11:50:44.22	223.93	16.20	-29.8	-31.9	14.0	8.30e-06	0	42	0	232783872	21	4575
2026-01-14 11:50:45.23	224.09	16.27	-29.8	-31.8	14.1	1.50e-06	0	42	0	234881024	21	4550
2026-01-14 11:50:46.23	224.25	16.35	-29.7	-32.2	14.2	1.50e-06	0	42	0	236978176	20	4765
2026-01-14 11:50:47.24	224.42	16.43	-29.8	-32.2	14.1	1.50e-06	0	42	0	238026752	20	4792
2026-01-14 11:50:48.24	224.58	16.51	-29.8	-32.4	14.0	2.20e-06	0	42	0	240123904	20	4857
2026-01-14 11:50:49.24	224.75	16.59	-29.8	-32.3	14.2	7.00e-07	0	42	0	242221056	20	4801
2026-01-14 11:50:50.24	224.91	16.66	-29.8	-32.3	14.1	7.00e-07	0	42	0	244318208	20	4823
2026-01-14 11:50:51.24	225.08	16.74	-29.9	-32.5	14.1	3.00e-06	0	42	0	245366784	20	4871
2026-01-14 11:50:52.25	225.24	16.82	-29.8	-32.5	14.0	2.20e-06	0	42	0	247463936	20	4871
2026-01-14 11:50:53.25	225.41	16.90	-29.8	-32.3	14.1	3.00e-06	0	42	0	249561088	20	4819
2026-01-14 11:50:54.25	225.58	16.98	-29.9	-32.5	14.1	7.60e-06	0	42	0	251658240	20	4867
2026-01-14 11:50:55.26	225.75	17.05	-29.7	-32.1	14.3	1.50e-06	0	42	0	253755392	20	4740
2026-01-14 11:50:56.25	225.92	17.13	-29.7	-32.1	14.3	7.00e-07	0	42	0	254803968	20	4751
2026-01-14 11:50:57.26	226.09	17.21	-29.7	-32.0	14.4	0.00e+00	0	42	0	256901120	20	4694
2026-01-14 11:50:58.26	226.27	17.29	-29.8	-32.2	14.2	3.00e-06	0	42	0	258998272	20	4771
2026-01-14 11:50:59.26	226.44	17.37	-29.9	-32.5	14.0	7.00e-07	0	42	0	261095424	20	4872
2026-01-14 11:51:00.27	226.61	17.44	-29.9	-32.5	14.1	3.00e-06	0	42	0	263192576	20	4868
2026-01-14 11:51:01.27	226.79	17.52	-29.7	-32.1	14.3	1.50e-06	0	42	0	264241152	20	4748
2026-01-14 11:51:02.27	226.96	17.60	-29.8	-32.2	14.2	1.50e-06	0	42	0	266338304	20	4784
2026-01-14 11:51:03.27	227.14	17.68	-29.8	-32.3	14.2	1.50e-06	0	42	0	268435456	20	4815
2026-01-14 11:51:04.27	227.32	17.76	-29.7	-32.1	14.3	7.00e-07	0	42	0	270532608	20	4746
2026-01-14 11:51:05.27	227.50	17.83	-29.8	-32.2	14.2	7.00e-07	0	42	0	272629760	20	4782
2026-01-14 11:51:06.28	227.68	17.91	-29.9	-32.6	14.0	1.50e-06	0	42	0	273678336	20	4897
2026-01-14 11:51:07.29	227.86	17.99	-30.0	-32.8	13.9	3.80e-06	0	42	0	275775488	20	4965
2026-01-14 11:51:08.29	228.04	18.07	-29.8	-32.3	14.2	3.80e-06	0	42	0	277872640	20	4788
2026-01-14 11:51:09.29	228.22	18.15	-29.7	-32.0	14.4	0.00e+00	0	42	0	279969792	20	4683
2026-01-14 11:51:10.30	228.41	18.23	-29.6	-31.7	14.6	0.00e+00	0	42	0	282066944	20	4597
2026-01-14 11:51:11.30	228.59	18.30	-29.6	-31.7	14.6	0.00e+00	0	42	0	283115520	20	4610
2026-01-14 11:51:12.30	228.77	18.38	-29.6	-31.8	14.5	0.00e+00	0	42	0	285212672	20	4628
2026-01-14 11:51:13.30	228.96	18.46	-29.7	-32.0	14.4	1.50e-06	0	42	0	287309824	20	4716
2026-01-14 11:51:14.31	229.15	18.54	-29.6	-31.8	14.6	0.00e+00	0	42	0	289406976	20	4616
2026-01-14 11:51:15.31	229.34	18.61	-29.7	-32.0	14.5	0.00e+00	0	42	0	291504128	20	4687
2026-01-14 11:51:16.32	229.53	18.69	-29.7	-32.0	14.4	1.50e-06	0	42	0	292552704	20	4697
2026-01-14 11:51:17.32	229.71	18.77	-29.8	-32.2	14.3	0.00e+00	0	42	0	294649856	20	4748
2026-01-14 11:51:18.32	229.91	18.85	-29.8	-32.2	14.3	7.00e-07	0	42	0	296747008	20	4771
2026-01-14 11:51:19.32	230.10	18.92	-29.8	-32.2	14.3	0.00e+00	0	42	0	298844160	20	4766
2026-01-14 11:51:20.32	230.29	19.00	-29.8	-32.4	14.2	1.50e-06	0	42	0	300941312	20	4834
2026-01-14 11:51:21.32	230.48	19.08	-29.7	-32.1	14.4	3.00e-06	0	42	0	301989888	20	4732
2026-01-14 11:51:22.32	230.67	19.16	-29.6	-31.8	14.6	0.00e+00	0	42	0	304087040	20	4621
2026-01-14 11:51:23.32	230.87	19.23	-29.6	-31.7	14.6	0.00e+00	0	42	0	306184192	20	4610
2026-01-14 11:51:24.32	231.07	19.31	-29.6	-31.8	14.6	0.00e+00	0	42	0	308281344	20	4618
2026-01-14 11:51:25.32	231.26	19.39	-29.5	-31.6	14.7	0.00e+00	0	42	0	309329920	20	4571
2026-01-14 11:51:26.33	231.46	19.46	-29.6	-31.8	14.6	7.00e-07	0	42	0	311427072	20	4640
2026-01-14 11:51:27.34	231.66	19.54	-29.6	-31.9	14.6	2.20e-06	0	42	0	313524224	20	4644
2026-01-14 11:51:28.34	231.86	19.62	-29.5	-31.5	14.8	7.00e-07	0	42	0	315621376	20	4521
2026-01-14 11:51:29.34	232.06	19.69	-29.4	-31.3	14.9	7.00e-07	0	42	0	317718528	20	4464
2026-01-14 11:51:30.34	232.26	19.77	-29.4	-31.3	14.9	0.00e+00	0	42	0	318767104	20	4456
2026-01-14 11:51:31.34	232.47	19.85	-29.5	-31.4	14.9	0.00e+00	0	42	0	320864256	20	4506
2026-01-14 11:51:32.34	232.67	19.92	-29.5	-31.4	14.9	7.00e-07	0	42	0	322961408	20	4488
2026-01-14 11:51:33.34	232.88	20.00	-29.4	-31.3	14.9	0.00e+00	0	42	0	325058560	20	4475
2026-01-14 11:51:34.35	233.08	20.07	-29.4	-31.3	14.9	0.00e+00	0	42	0	327155712	20	4476
2026-01-14 11:51:35.35	233.29	20.15	-29.4	-31.2	15.0	0.00e+00	0	42	0	328204288	20	4427
2026-01-14 11:51:36.35	233.50	20.23	-29.4	-31.2	15.0	7.00e-07	0	42	0	330301440	20	4422
2026-01-14 11:51:37.35	233.71	20.30	-29.3	-30.9	15.2	0.00e+00	0	42	0	332398592	20	4336
2026-01-14 11:51:38.36	233.92	20.38	-29.2	-31.3	15.3	0.00e+00	0	42	0	334495744	19	4547
2026-01-14 11:51:39.36	234.13	20.45	-29.1	-30.8	15.6	0.00e+00	0	42	0	335544320	19	4406
2026-01-14 11:51:40.35	234.34	20.53	-29.0	-30.6	15.7	0.00e+00	0	42	0	337641472	19	4341
2026-01-14 11:51:41.35	234.55	20.60	-29.0	-30.6	15.8	0.00e+00	0	42	0	339738624	19	4337
2026-01-14 11:51:42.35	234.76	20.68	-28.9	-30.5	15.8	0.00e+00	0	42	0	341835776	19	4321
2026-01-14 11:51:43.35	234.98	20.75	-29.0	-30.7	15.7	0.00e+00	0	42	0	343932928	19	4362
2026-01-14 11:51:44.36	235.20	20.82	-29.0	-30.7	15.8	7.00e-07	0	42	0	344981504	19	4355
2026-01-14 11:51:45.36	235.41	20.90	-29.0	-30.8	15.7	0.00e+00	0	42	0	347078656	19	4386
2026-01-14 11:51:46.36	235.63	20.97	-29.0	-30.7	15.7	0.00e+00	0	42	0	349175808	19	4357
2026-01-14 11:51:47.37	235.85	21.05	-29.1	-31.0	15.5	0.00e+00	0	42	0	351272960	19	4464
2026-01-14 11:51:48.37	236.07	21.12	-29.1	-31.0	15.5	0.00e+00	0	42	0	353370112	19	4465
2026-01-14 11:51:49.37	236.29	21.19	-29.0	-30.7	15.7	0.00e+00	0	42	0	354418688	19	4373
2026-01-14 11:51:50.37	236.51	21.27	-28.9	-30.4	15.9	0.00e+00	0	42	0	356515840	19	4295
2026-01-14 11:51:51.37	236.74	21.34	-29.0	-30.6	15.8	0.00e+00	0	42	0	358612992	19	4329
2026-01-14 11:51:52.38	236.96	21.41	-28.9	-30.5	15.8	2.20e-06	0	42	0	360710144	19	4317
2026-01-14 11:51:53.38	237.19	21.48	-29.0	-30.6	15.8	0.00e+00	0	42	0	362807296	19	4351
2026-01-14 11:51:54.38	237.41	21.56	-29.0	-30.6	15.8	0.00e+00	0	42	0	363855872	19	4339
2026-01-14 11:51:55.39	237.64	21.63	-29.0	-30.6	15.8	0.00e+00	0	42	0	365953024	19	4349
2026-01-14 11:51:56.39	237.87	21.70	-29.1	-30.9	15.6	0.00e+00	0	42	0	368050176	19	4422
2026-01-14 11:51:57.39	238.10	21.77	-29.1	-30.8	15.7	0.00e+00	0	42	0	370147328	19	4392
2026-01-14 11:51:58.39	238.33	21.84	-29.1	-30.8	15.6	0.00e+00	0	42	0	372244480	19	4411
2026-01-14 11:51:59.39	238.56	21.91	-29.0	-30.7	15.8	0.00e+00	0	42	0	373293056	19	4353
2026-01-14 11:52:00.39	238.79	21.98	-29.0	-30.7	15.8	0.00e+00	0	42	0	375390208	19	4354
2026-01-14 11:52:01.40	239.03	22.05	-29.1	-30.8	15.7	0.00e+00	0	42	0	377487360	19	4389
2026-01-14 11:52:02.40	239.26	22.12	-29.1	-30.9	15.6	0.00e+00	0	42	0	379584512	19	4430
2026-01-14 11:52:03.40	239.50	22.19	-29.1	-31.0	15.6	0.00e+00	0	42	0	380633088	19	4447
2026-01-14 11:52:04.40	239.73	22.26	-29.2	-31.0	15.6	2.20e-06	0	42	0	382730240	19	4463
2026-01-14 11:52:05.41	239.97	22.33	-29.2	-31.2	15.4	0.00e+00	0	42	0	384827392	19	4513
2026-01-14 11:52:06.41	240.21	22.40	-29.3	-31.4	15.4	0.00e+00	0	42	0	386924544	19	4578
2026-01-14 11:52:07.41	240.45	22.47	-29.4	-31.6	15.2	2.20e-06	0	42	0	389021696	19	4646
2026-01-14 11:52:08.42	240.69	22.54	-29.5	-31.9	15.0	0.00e+00	0	42	0	391118848	19	4748
2026-01-14 11:52:09.42	240.93	22.61	-29.6	-32.2	14.9	0.00e+00	0	42	0	392167424	19	4837
2026-01-14 11:52:10.42	241.17	22.67	-29.7	-32.5	14.7	0.00e+00	0	42	0	394264576	19	4936
2026-01-14 11:52:11.42	241.42	22.74	-29.8	-32.6	14.6	0.00e+00	0	42	0	396361728	19	4992
2026-01-14 11:52:12.42	241.66	22.81	-29.8	-32.5	14.6	0.00e+00	0	42	0	398458880	19	4960
2026-01-14 11:52:13.42	241.91	22.87	-29.8	-32.7	14.6	0.00e+00	0	42	0	399507456	19	5001
2026-01-14 11:52:14.43	242.16	22.94	-29.7	-32.5	14.7	0.00e+00	0	42	0	401604608	19	4935
2026-01-14 11:52:15.43	242.40	23.01	-29.8	-32.6	14.6	7.00e-07	0	42	0	403701760	19	4981
2026-01-14 11:52:16.44	242.65	23.07	-29.8	-32.6	14.6	1.50e-06	0	42	0	405798912	19	4979
2026-01-14 11:52:17.44	242.90	23.14	-29.7	-32.5	14.8	0.00e+00	0	42	0	407896064	19	4926
2026-01-14 11:52:18.45	243.16	23.20	-29.7	-32.4	14.7	0.00e+00	0	42	0	408944640	19	4925
2026-01-14 11:52:19.45	243.41	23.27	-29.7	-32.5	14.7	0.00e+00	0	42	0	411041792	19	4930
2026-01-14 11:52:20.45	243.66	23.33	-29.8	-32.5	14.7	0.00e+00	0	42	0	413138944	19	4950
2026-01-14 11:52:21.45	243.91	23.39	-29.7	-32.5	14.7	0.00e+00	0	42	0	415236096	19	4932
2026-01-14 11:52:22.45	244.17	23.46	-29.8	-32.7	14.6	0.00e+00	0	42	0	417333248	19	5006
2026-01-14 11:52:23.46	244.43	23.52	-29.9	-32.9	14.5	7.00e-07	0	42	0	418381824	19	5066
2026-01-14 11:52:24.47	244.68	23.58	-30.0	-33.1	14.3	0.00e+00	0	42	0	420478976	19	5146
2026-01-14 11:52:25.47	244.94	23.64	-30.0	-32.8	14.1	0.00e+00	0	42	0	422576128	20	4951
2026-01-14 11:52:26.48	245.20	23.70	-30.1	-32.8	14.1	5.30e-06	0	42	0	424673280	20	4960
2026-01-14 11:52:27.48	245.46	23.77	-29.8	-32.2	14.5	2.20e-06	0	42	0	426770432	20	4750
2026-01-14 11:52:28.49	245.73	23.83	-29.8	-32.0	14.6	7.00e-07	0	42	0	427819008	20	4687
2026-01-14 11:52:29.49	245.99	23.89	-29.8	-32.2	14.6	0.00e+00	0	42	0	429916160	20	4726
2026-01-14 11:52:30.50	246.25	23.95	-29.9	-32.4	14.4	1.50e-06	0	42	0	432013312	20	4811
2026-01-14 11:52:31.49	246.51	24.00	-30.0	-32.6	14.3	7.00e-07	0	42	0	434110464	20	4870
2026-01-14 11:52:32.49	246.78	24.06	-30.1	-33.0	14.0	3.80e-06	0	42	0	436207616	20	5003
2026-01-14 11:52:33.49	247.04	24.12	-30.2	-33.3	13.9	7.00e-07	0	42	0	437256192	20	5132
2026-01-14 11:52:34.49	247.31	24.18	-30.4	-33.7	13.6	3.00e-06	0	42	0	439353344	20	5262
2026-01-14 11:52:35.49	247.57	24.23	-30.4	-33.8	13.5	5.30e-06	0	42	0	441450496	20	5322
2026-01-14 11:52:36.50	247.84	24.29	-30.5	-33.5	13.4	1.29e-05	0	42	0	443547648	21	5074
2026-01-14 11:52:37.50	248.11	24.35	-30.5	-33.4	13.5	1.37e-05	0	42	0	444596224	21	5060
2026-01-14 11:52:38.51	248.39	24.40	-30.5	-33.6	13.4	1.75e-05	0	42	0	446693376	21	5109
2026-01-14 11:52:39.51	248.66	24.46	-30.5	-33.5	13.4	1.06e-05	0	42	0	448790528	21	5076
2026-01-14 11:52:40.51	248.93	24.51	-30.6	-33.7	13.2	1.83e-05	0	42	0	450887680	21	5166
2026-01-14 11:52:41.51	249.20	24.56	-30.6	-33.8	13.2	2.82e-05	0	42	0	452984832	21	5191
2026-01-14 11:52:42.52	249.48	24.62	-30.5	-33.6	13.3	1.75e-05	0	42	0	454033408	21	5131
2026-01-14 11:52:43.53	249.75	24.67	-30.6	-33.8	13.2	1.90e-05	0	42	0	456130560	21	5219
2026-01-14 11:52:44.53	250.03	24.72	-30.7	-34.2	12.9	3.28e-05	0	42	0	458227712	21	5363
2026-01-14 11:52:45.53	250.31	24.77	-30.9	-34.5	12.7	6.71e-05	0	42	0	460324864	21	5483
2026-01-14 11:52:46.54	250.59	24.82	-31.0	-34.9	12.5	7.62e-05	0	42	0	462422016	21	5662
2026-01-14 11:52:47.55	250.87	24.87	-31.2	-35.1	12.0	2.00e-04	0	42	0	463470592	22	5608
2026-01-14 11:52:48.55	251.14	24.92	-31.3	-35.3	11.8	4.42e-04	0	42	0	465567744	22	5727
2026-01-14 11:52:49.55	251.42	24.97	-31.2	-34.9	12.1	3.11e-04	0	42	0	467664896	22	5557
2026-01-14 11:52:50.55	251.70	25.02	-31.0	-34.5	12.4	1.99e-04	0	42	0	469762048	22	5376
2026-01-14 11:52:51.55	251.99	25.07	-31.0	-34.4	12.5	1.65e-04	0	42	0	471859200	22	5322
2026-01-14 11:52:52.56	252.27	25.11	-31.0	-34.4	12.6	9.91e-05	0	42	0	472907776	22	5303
2026-01-14 11:52:53.56	252.55	25.16	-31.0	-34.3	12.6	1.14e-04	0	42	0	475004928	22	5277
2026-01-14 11:52:54.56	252.84	25.21	-31.0	-34.4	12.6	6.86e-05	0	42	0	477102080	22	5324
2026-01-14 11:52:55.57	253.12	25.25	-31.1	-34.7	12.4	1.40e-04	0	42	0	479199232	22	5430
2026-01-14 11:52:56.57	253.41	25.29	-31.2	-35.0	12.1	1.63e-04	0	42	0	481296384	22	5578
2026-01-14 11:52:57.58	253.70	25.34	-31.4	-35.5	11.8	4.62e-04	0	42	0	482344960	22	5811
2026-01-14 11:52:58.59	253.99	25.38	-31.6	-35.8	11.2	6.96e-04	0	42	0	484442112	23	5815
2026-01-14 11:52:59.59	254.28	25.42	-31.8	-36.5	10.7	2.56e-03	0	42	0	486539264	23	6161
2026-01-14 11:53:00.59	254.56	25.47	-31.8	-36.5	10.7	2.79e-03	0	42	0	488636416	23	6178
2026-01-14 11:53:01.59	254.85	25.51	-31.9	-36.8	10.5	3.85e-03	0	42	0	490733568	23	6327
2026-01-14 11:53:02.59	255.14	25.55	-31.8	-36.3	10.8	2.91e-03	0	42	0	491782144	23	6075
2026-01-14 11:53:03.60	255.44	25.59	-31.6	-35.7	11.3	1.56e-03	0	42	0	493879296	23	5759
2026-01-14 11:53:04.60	255.73	25.62	-31.4	-35.2	11.6	8.31e-04	0	42	0	495976448	23	5533
2026-01-14 11:53:05.60	256.02	25.66	-31.3	-34.9	11.9	4.74e-04	0	42	0	498073600	23	5430
2026-01-14 11:53:06.60	256.31	25.70	-31.4	-35.2	11.6	4.90e-04	0	42	0	499122176	23	5545
2026-01-14 11:53:07.61	256.61	25.74	-31.5	-35.3	11.6	8.36e-04	0	42	0	501219328	23	5601
2026-01-14 11:53:08.61	256.90	25.77	-31.5	-35.2	11.6	6.23e-04	0	42	0	503316480	23	5558
2026-01-14 11:53:09.62	257.20	25.81	-31.5	-35.3	11.5	8.38e-04	0	42	0	505413632	23	5579
2026-01-14 11:53:10.61	257.49	25.84	-31.6	-35.7	11.3	8.25e-04	0	42	0	507510784	23	5777
2026-01-14 11:53:11.61	257.79	25.88	-31.6	-35.8	11.3	1.30e-03	0	42	0	509607936	23	5796
2026-01-14 11:53:12.61	258.08	25.91	-31.6	-35.6	11.4	1.06e-03	0	42	0	510656512	23	5718
2026-01-14 11:53:13.62	258.38	25.94	-31.5	-35.4	11.5	8.09e-04	0	42	0	512753664	23	5652
2026-01-14 11:53:14.63	258.68	25.97	-31.6	-35.8	11.2	9.99e-04	0	42	0	514850816	23	5831
2026-01-14 11:53:15.63	258.98	26.00	-31.6	-35.7	11.3	1.63e-03	0	42	0	516947968	23	5781
2026-01-14 11:53:16.64	259.28	26.03	-31.3	-34.9	11.8	5.93e-04	0	42	0	517996544	23	5406
2026-01-14 11:53:17.64	259.58	26.06	-31.2	-34.4	12.2	3.04e-04	0	42	0	520093696	23	5202
2026-01-14 11:53:18.65	259.88	26.09	-31.0	-34.0	12.5	1.19e-04	0	42	0	522190848	23	5048
2026-01-14 11:53:19.65	260.18	26.12	-30.9	-33.5	12.8	6.02e-05	0	42	0	524288000	23	4868
2026-01-14 11:53:20.64	260.48	26.14	-30.9	-33.7	12.7	7.01e-05	0	43	0	526385152	23	4946
2026-01-14 11:53:21.65	260.79	26.17	-30.9	-33.5	12.8	9.23e-05	0	42	0	527433728	23	4858
2026-01-14 11:53:22.65	261.09	26.19	-30.8	-33.4	12.9	4.50e-05	0	42	0	529530880	23	4839
2026-01-14 11:53:23.65	261.39	26.22	-30.9	-33.5	12.8	5.72e-05	0	42	0	531628032	23	4880
2026-01-14 11:53:24.66	261.70	26.24	-30.9	-33.6	12.8	3.89e-05	0	42	0	533725184	23	4920
2026-01-14 11:53:25.66	262.00	26.26	-30.8	-33.4	12.9	5.79e-05	0	42	0	535822336	23	4826
2026-01-14 11:53:26.66	262.30	26.28	-30.8	-33.8	13.0	2.67e-05	0	42	0	536870912	22	5097
2026-01-14 11:53:27.67	262.61	26.31	-30.7	-33.5	13.2	4.42e-05	0	42	0	538968064	22	4987
2026-01-14 11:53:28.67	262.91	26.33	-30.6	-33.2	13.4	1.90e-05	0	42	0	541065216	22	4851
2026-01-14 11:53:29.67	263.22	26.34	-30.5	-33.0	13.6	9.90e-06	0	42	0	543162368	22	4792
2026-01-14 11:53:30.68	263.52	26.36	-30.6	-33.3	13.4	1.29e-05	0	42	0	545259520	22	4882
2026-01-14 11:53:31.68	263.83	26.38	-30.7	-33.6	13.2	2.36e-05	0	42	0	546308096	22	4998
2026-01-14 11:53:32.68	264.13	26.40	-30.8	-33.8	13.0	2.82e-05	0	42	0	548405248	22	5069
2026-01-14 11:53:33.69	264.44	26.41	-30.9	-34.2	12.8	4.04e-05	0	42	0	550502400	22	5228
2026-01-14 11:53:34.70	264.75	26.43	-30.9	-34.1	12.8	7.09e-05	0	42	0	552599552	22	5192
2026-01-14 11:53:35.70	265.06	26.44	-31.0	-34.2	12.8	6.40e-05	0	43	0	554696704	22	5230
2026-01-14 11:53:36.70	265.37	26.45	-31.0	-34.4	12.6	8.16e-05	0	42	0	555745280	22	5322
2026-01-14 11:53:37.71	265.67	26.47	-31.1	-34.6	12.5	1.02e-04	0	42	0	557842432	22	5378
2026-01-14 11:53:38.71	265.98	26.48	-31.2	-34.8	12.3	1.47e-04	0	42	0	559939584	22	5489
2026-01-14 11:53:39.71	266.29	26.49	-31.2	-34.8	12.3	1.91e-04	0	42	0	562036736	22	5483
2026-01-14 11:53:40.71	266.60	26.50	-31.2	-34.8	12.3	1.37e-04	0	42	0	564133888	22	5471
2026-01-14 11:53:41.71	266.90	26.51	-31.1	-34.5	12.5	1.65e-04	0	42	0	565182464	22	5364
2026-01-14 11:53:42.72	267.21	26.52	-31.1	-34.7	12.4	1.31e-04	0	42	0	567279616	22	5427
2026-01-14 11:53:43.72	267.52	26.52	-30.9	-34.1	12.8	1.09e-04	0	42	0	569376768	22	5187
2026-01-14 11:53:44.73	267.83	26.53	-30.9	-34.0	12.9	4.50e-05	0	42	0	571473920	22	5135
2026-01-14 11:53:45.73	268.14	26.53	-30.8	-33.7	13.1	4.34e-05	0	42	0	573571072	22	5039
2026-01-14 11:53:46.74	268.45	26.54	-30.7	-33.4	13.3	1.90e-05	0	42	0	574619648	22	4921
2026-01-14 11:53:47.75	268.76	26.54	-30.6	-33.2	13.4	1.44e-05	0	42	0	576716800	22	4854
2026-01-14 11:53:48.75	269.07	26.55	-30.8	-33.7	13.1	2.21e-05	0	42	0	578813952	22	5038
2026-01-14 11:53:49.75	269.38	26.55	-30.6	-33.3	13.3	2.13e-05	0	42	0	580911104	22	4891
2026-01-14 11:53:50.75	269.69	26.55	-30.6	-33.2	13.4	1.60e-05	0	42	0	581959680	22	4845
2026-01-14 11:53:51.75	270.00	26.55	-30.7	-33.4	13.2	9.10e-06	0	42	0	584056832	22	4944
2026-01-14 11:53:52.75	270.30	26.55	-30.6	-33.3	13.3	2.97e-05	0	42	0	586153984	22	4878
2026-01-14 11:53:53.75	270.61	26.55	-30.5	-32.8	13.5	1.37e-05	0	42	0	588251136	22	4738
2026-01-14 11:53:54.75	270.92	26.54	-30.4	-32.6	13.8	3.80e-06	0	42	0	590348288	22	4640
2026-01-14 11:53:55.75	271.23	26.54	-30.2	-32.7	14.0	2.20e-06	0	42	0	591396864	21	4810
2026-01-14 11:53:56.76	271.54	26.54	-30.1	-32.3	14.3	0.00e+00	0	42	0	593494016	21	4641
2026-01-14 11:53:57.76	271.85	26.53	-29.7	-31.9	14.8	7.00e-07	0	42	0	595591168	20	4626
2026-01-14 11:53:58.77	272.16	26.52	-29.7	-31.7	14.9	0.00e+00	0	42	0	597688320	20	4571
2026-01-14 11:53:59.77	272.47	26.52	-29.7	-31.7	14.9	0.00e+00	0	42	0	599785472	20	4577
2026-01-14 11:54:00.78	272.78	26.51	-29.7	-31.9	14.8	0.00e+00	0	42	0	600834048	20	4624
2026-01-14 11:54:01.78	273.08	26.50	-29.9	-32.3	14.6	0.00e+00	0	42	0	602931200	20	4743
2026-01-14 11:54:02.79	273.39	26.49	-30.1	-33.0	14.2	3.00e-06	0	42	0	605028352	20	4988
2026-01-14 11:54:03.79	273.70	26.48	-30.5	-33.8	13.6	5.30e-06	0	42	0	607125504	20	5318
2026-01-14 11:54:04.79	274.01	26.47	-30.5	-33.5	13.5	1.14e-05	0	42	0	609222656	21	5094
2026-01-14 11:54:05.79	274.31	26.46	-30.4	-33.3	13.6	1.22e-05	0	42	0	610271232	21	5002
2026-01-14 11:54:06.79	274.62	26.45	-30.3	-32.9	13.9	6.80e-06	0	43	0	612368384	21	4849
2026-01-14 11:54:07.80	274.93	26.43	-30.2	-32.6	14.0	7.00e-07	0	42	0	614465536	21	4766
2026-01-14 11:54:08.80	275.24	26.42	-30.1	-32.5	14.1	3.80e-06	0	42	0	616562688	21	4719
2026-01-14 11:54:09.79	275.54	26.40	-30.0	-32.1	14.4	2.20e-06	0	42	0	618659840	21	4591
2026-01-14 11:54:10.80	275.85	26.39	-30.1	-32.3	14.3	7.00e-07	0	42	0	619708416	21	4637
2026-01-14 11:54:11.80	276.15	26.37	-30.4	-33.1	13.7	7.00e-07	0	42	0	621805568	21	4940
2026-01-14 11:54:12.80	276.46	26.35	-30.7	-33.9	13.2	1.29e-05	0	42	0	623902720	21	5214
2026-01-14 11:54:13.81	276.76	26.33	-31.1	-34.7	12.4	8.77e-05	0	42	0	625999872	22	5423
2026-01-14 11:54:14.81	277.07	26.31	-31.2	-35.0	12.2	2.00e-04	0	42	0	627048448	22	5550
2026-01-14 11:54:15.81	277.37	26.29	-31.3	-35.4	12.0	2.43e-04	0	43	0	629145600	22	5725
2026-01-14 11:54:16.81	277.67	26.27	-31.4	-35.4	11.9	3.91e-04	0	42	0	631242752	22	5729
2026-01-14 11:54:17.81	277.98	26.25	-31.2	-35.1	12.2	3.17e-04	0	43	0	633339904	22	5588
2026-01-14 11:54:18.81	278.28	26.23	-31.0	-34.5	12.5	1.72e-04	0	43	0	635437056	22	5336
2026-01-14 11:54:19.81	278.58	26.20	-30.9	-33.9	12.9	6.56e-05	0	42	0	636485632	22	5134
2026-01-14 11:54:20.82	278.88	26.18	-30.7	-33.6	13.2	3.28e-05	0	42	0	638582784	22	4986
2026-01-14 11:54:21.82	279.18	26.15	-30.7	-33.5	13.2	2.74e-05	0	42	0	640679936	22	4973
2026-01-14 11:54:22.83	279.49	26.13	-30.6	-33.2	13.4	2.05e-05	0	42	0	642777088	22	4866
2026-01-14 11:54:23.83	279.79	26.10	-30.7	-33.5	13.2	1.98e-05	0	42	0	644874240	22	4969
2026-01-14 11:54:24.83	280.09	26.07	-30.7	-33.4	13.3	1.67e-05	0	42	0	645922816	22	4910
2026-01-14 11:54:25.83	280.38	26.04	-30.9	-33.9	12.9	2.59e-05	0	42	0	648019968	22	5127
2026-01-14 11:54:26.84	280.69	26.01	-30.9	-33.9	12.9	5.11e-05	0	43	0	650117120	22	5130
2026-01-14 11:54:27.84	280.98	25.98	-31.0	-34.3	12.6	5.79e-05	0	42	0	652214272	22	5289
2026-01-14 11:54:28.84	281.28	25.95	-30.8	-33.7	13.0	6.17e-05	0	42	0	654311424	22	5045
2026-01-14 11:54:29.84	281.58	25.92	-30.5	-33.0	13.5	1.83e-05	0	42	0	655360000	22	4788
2026-01-14 11:54:30.85	281.88	25.89	-30.4	-32.6	13.8	2.20e-06	0	42	0	657457152	22	4642
2026-01-14 11:54:31.85	282.17	25.85	-30.2	-32.7	14.0	1.50e-06	0	42	0	659554304	21	4805
2026-01-14 11:54:32.86	282.47	25.82	-30.2	-32.7	14.0	3.00e-06	0	42	0	661651456	21	4778
2026-01-14 11:54:33.86	282.76	25.79	-30.3	-33.0	13.9	3.80e-06	0	42	0	663748608	21	4892
2026-01-14 11:54:34.87	283.06	25.75	-30.5	-33.4	13.6	3.00e-06	0	43	0	664797184	21	5026
2026-01-14 11:54:35.87	283.35	25.71	-30.8	-34.3	13.0	2.28e-05	0	42	0	666894336	21	5401
2026-01-14 11:54:36.87	283.64	25.68	-30.8	-34.2	13.0	5.18e-05	0	42	0	668991488	21	5360
2026-01-14 11:54:37.87	283.94	25.64	-30.8	-34.3	12.9	2.36e-05	0	42	0	671088640	21	5385
2026-01-14 11:54:38.88	284.23	25.60	-30.9	-34.6	12.8	6.10e-05	0	42	0	673185792	21	5521
2026-01-14 11:54:39.87	284.52	25.56	-30.7	-33.9	13.2	4.80e-05	0	42	0	674234368	21	5215
2026-01-14 11:54:40.88	284.81	25.52	-30.4	-33.1	13.8	6.10e-06	0	42	0	676331520	21	4928
2026-01-14 11:54:41.88	285.10	25.48	-30.3	-32.8	13.9	4.50e-06	0	42	0	678428672	21	4838
2026-01-14 11:54:42.88	285.38	25.44	-30.2	-32.6	14.1	5.30e-06	0	42	0	680525824	21	4762
2026-01-14 11:54:43.88	285.67	25.40	-30.2	-32.5	14.1	1.50e-06	0	42	0	681574400	21	4732
2026-01-14 11:54:44.88	285.96	25.36	-30.0	-32.2	14.3	3.00e-06	0	42	0	683671552	21	4616
2026-01-14 11:54:45.88	286.24	25.31	-29.9	-31.9	14.5	7.00e-07	0	42	0	685768704	21	4534
2026-01-14 11:54:46.88	286.53	25.27	-30.0	-32.1	14.4	0.00e+00	0	42	0	687865856	21	4570
2026-01-14 11:54:47.89	286.81	25.23	-30.0	-32.1	14.4	1.50e-06	0	42	0	689963008	21	4570
2026-01-14 11:54:48.89	287.10	25.18	-29.9	-31.9	14.5	7.00e-07	0	42	0	691011584	21	4530
2026-01-14 11:54:49.89	287.38	25.13	-29.9	-31.8	14.6	0.00e+00	0	42	0	693108736	21	4492
2026-01-14 11:54:50.89	287.66	25.09	-29.9	-31.9	14.5	7.00e-07	0	42	0	695205888	21	4510
2026-01-14 11:54:51.89	287.94	25.04	-29.6	-31.6	15.0	0.00e+00	0	42	0	697303040	20	4534
2026-01-14 11:54:52.89	288.22	24.99	-29.7	-31.8	14.9	0.00e+00	0	42	0	699400192	20	4584
2026-01-14 11:54:53.90	288.50	24.94	-29.8	-32.1	14.7	0.00e+00	0	42	0	700448768	20	4701
2026-01-14 11:54:54.91	288.78	24.90	-29.8	-32.0	14.7	7.00e-07	0	42	0	702545920	20	4673
2026-01-14 11:54:55.91	289.06	24.85	-29.8	-32.2	14.7	7.00e-07	0	42	0	704643072	20	4720
2026-01-14 11:54:56.91	289.34	24.80	-30.1	-32.8	14.3	1.50e-06	0	42	0	706740224	20	4933
2026-01-14 11:54:57.91	289.61	24.75	-29.8	-32.2	14.6	0.00e+00	0	42	0	708837376	20	4721
2026-01-14 11:54:58.91	289.89	24.69	-29.7	-31.8	14.9	0.00e+00	0	42	0	709885952	20	4614
2026-01-14 11:54:59.91	290.16	24.64	-29.7	-31.9	14.8	7.00e-07	0	43	0	711983104	20	4643
2026-01-14 11:55:00.92	290.44	24.59	-29.7	-31.8	14.8	1.50e-06	0	43	0	714080256	20	4611
2026-01-14 11:55:01.92	290.71	24.54	-29.8	-32.1	14.7	7.00e-07	0	42	0	716177408	20	4685
2026-01-14 11:55:02.92	290.98	24.48	-29.7	-31.9	14.8	0.00e+00	0	43	0	718274560	20	4620
2026-01-14 11:55:03.92	291.25	24.43	-29.7	-31.9	14.8	0.00e+00	0	43	0	719323136	20	4638
2026-01-14 11:55:04.92	291.52	24.37	-29.6	-31.6	15.0	0.00e+00	0	42	0	721420288	20	4550
2026-01-14 11:55:05.92	291.79	24.32	-29.3	-31.3	15.5	0.00e+00	0	42	0	723517440	19	4538
2026-01-14 11:55:06.93	292.06	24.26	-29.0	-30.6	15.9	0.00e+00	0	42	0	725614592	19	4337
2026-01-14 11:55:07.93	292.33	24.21	-28.9	-30.4	16.1	0.00e+00	0	43	0	726663168	19	4265
2026-01-14 11:55:08.94	292.59	24.15	-29.0	-30.7	15.9	0.00e+00	0	43	0	728760320	19	4348
2026-01-14 11:55:09.94	292.86	24.09	-29.1	-30.7	15.9	0.00e+00	0	42	0	730857472	19	4355
2026-01-14 11:55:10.94	293.12	24.04	-29.3	-31.2	15.6	0.00e+00	0	42	0	732954624	19	4520
2026-01-14 11:55:11.95	293.39	23.98	-29.5	-31.8	15.2	0.00e+00	0	42	0	735051776	19	4680
2026-01-14 11:55:12.95	293.65	23.92	-29.5	-31.9	15.2	0.00e+00	0	42	0	736100352	19	4733
2026-01-14 11:55:13.95	293.91	23.86	-29.6	-32.0	15.1	0.00e+00	0	42	0	738197504	19	4760
2026-01-14 11:55:14.95	294.17	23.80	-29.4	-31.6	15.3	0.00e+00	0	42	0	740294656	19	4633
2026-01-14 11:55:15.96	294.43	23.74	-29.3	-31.4	15.5	0.00e+00	0	42	0	742391808	19	4553
2026-01-14 11:55:16.97	294.69	23.68	-29.3	-31.4	15.4	0.00e+00	0	42	0	744488960	19	4585
2026-01-14 11:55:17.97	294.95	23.62	-29.2	-31.0	15.7	0.00e+00	0	42	0	745537536	19	4431
2026-01-14 11:55:18.97	295.20	23.56	-29.4	-31.5	15.4	0.00e+00	0	42	0	747634688	19	4587
2026-01-14 11:55:19.97	295.46	23.49	-29.3	-31.3	15.6	0.00e+00	0	42	0	749731840	19	4532
2026-01-14 11:55:20.96	295.71	23.43	-29.3	-31.4	15.4	0.00e+00	0	42	0	751828992	19	4581
2026-01-14 11:55:21.96	295.96	23.37	-29.5	-31.9	15.1	0.00e+00	0	42	0	753926144	19	4743
2026-01-14 11:55:22.97	296.22	23.31	-29.6	-32.0	15.1	0.00e+00	0	42	0	754974720	19	4775
2026-01-14 11:55:23.97	296.47	23.24	-29.7	-32.4	14.8	0.00e+00	0	42	0	757071872	19	4892
2026-01-14 11:55:24.98	296.72	23.18	-30.0	-32.6	14.3	0.00e+00	0	42	0	759169024	20	4883
2026-01-14 11:55:25.97	296.97	23.11	-30.1	-32.8	14.3	2.20e-06	0	42	0	761266176	20	4931
2026-01-14 11:55:26.97	297.21	23.05	-30.2	-33.1	14.0	7.00e-07	0	42	0	763363328	20	5057
2026-01-14 11:55:27.98	297.46	22.98	-30.3	-33.6	13.7	3.00e-06	0	42	0	764411904	20	5214
2026-01-14 11:55:28.98	297.71	22.92	-30.3	-33.4	13.8	1.50e-06	0	42	0	766509056	20	5139
2026-01-14 11:55:29.99	297.96	22.85	-30.3	-33.3	13.9	2.20e-06	0	42	0	768606208	20	5134
2026-01-14 11:55:30.99	298.20	22.79	-30.1	-33.0	14.1	3.00e-06	0	42	0	770703360	20	5017
2026-01-14 11:55:31.99	298.44	22.72	-30.1	-33.0	14.1	1.50e-06	0	42	0	771751936	20	5012
2026-01-14 11:55:32.99	298.68	22.65	-30.2	-33.3	13.9	2.20e-06	0	42	0	773849088	20	5110
2026-01-14 11:55:33.99	298.92	22.59	-30.1	-33.0	14.1	2.20e-06	0	42	0	775946240	20	5022
2026-01-14 11:55:34.99	299.16	22.52	-30.1	-33.0	14.1	7.00e-07	0	42	0	778043392	20	4995
2026-01-14 11:55:35.99	299.40	22.45	-30.2	-33.1	14.0	0.00e+00	0	42	0	780140544	20	5040
2026-01-14 11:55:36.99	299.64	22.38	-30.2	-33.2	14.0	3.00e-06	0	42	0	781189120	20	5071
2026-01-14 11:55:37.99	299.88	22.31	-30.3	-33.5	13.7	3.80e-06	0	42	0	783286272	20	5203
2026-01-14 11:55:39.00	300.12	22.25	-30.1	-33.0	14.1	2.20e-06	0	42	0	785383424	20	5002
2026-01-14 11:55:40.01	300.35	22.18	-30.0	-32.6	14.3	7.00e-07	0	42	0	787480576	20	4883
2026-01-14 11:55:41.00	300.58	22.11	-30.0	-32.8	14.2	1.50e-06	0	43	0	789577728	20	4931
2026-01-14 11:55:42.00	300.82	22.04	-30.1	-33.0	14.1	3.00e-06	0	42	0	790626304	20	4996
2026-01-14 11:55:43.01	301.05	21.97	-30.1	-33.0	14.1	2.20e-06	0	42	0	792723456	20	5010
2026-01-14 11:55:44.01	301.28	21.90	-30.3	-33.4	13.8	5.30e-06	0	42	0	794820608	20	5172
2026-01-14 11:55:45.01	301.51	21.83	-30.2	-33.1	14.0	3.80e-06	0	42	0	796917760	20	5042
2026-01-14 11:55:46.01	301.74	21.76	-30.3	-33.4	13.8	4.50e-06	0	43	0	799014912	20	5156
2026-01-14 11:55:47.02	301.97	21.68	-30.2	-33.2	13.9	4.50e-06	0	42	0	800063488	20	5087
2026-01-14 11:55:48.02	302.19	21.61	-30.2	-33.2	13.9	3.80e-06	0	43	0	802160640	20	5076
2026-01-14 11:55:49.02	302.42	21.54	-30.3	-33.4	13.9	4.50e-06	0	43	0	804257792	20	5156
2026-01-14 11:55:50.02	302.64	21.47	-30.3	-33.4	13.8	2.20e-06	0	42	0	806354944	20	5160
2026-01-14 11:55:51.02	302.87	21.40	-30.3	-33.5	13.7	4.50e-06	0	42	0	808452096	20	5182
2026-01-14 11:55:52.03	303.09	21.33	-30.3	-33.5	13.8	3.80e-06	0	42	0	809500672	20	5197
2026-01-14 11:55:53.04	303.31	21.25	-30.4	-33.8	13.6	6.10e-06	0	42	0	811597824	20	5302
2026-01-14 11:55:54.04	303.53	21.18	-30.1	-33.0	14.0	5.30e-06	0	42	0	813694976	20	5029
2026-01-14 11:55:55.04	303.75	21.11	-30.0	-32.6	14.3	7.00e-07	0	42	0	815792128	20	4881
2026-01-14 11:55:56.05	303.97	21.03	-30.1	-32.8	14.2	7.00e-07	0	42	0	816840704	20	4955
2026-01-14 11:55:57.06	304.19	20.96	-30.1	-33.0	14.1	3.80e-06	0	42	0	818937856	20	4999
2026-01-14 11:55:58.05	304.41	20.89	-30.2	-33.2	14.0	4.50e-06	0	42	0	821035008	20	5087
2026-01-14 11:55:59.05	304.62	20.81	-30.2	-33.2	14.0	3.80e-06	0	42	0	823132160	20	5071
2026-01-14 11:56:00.06	304.84	20.74	-30.2	-33.2	13.9	3.80e-06	0	42	0	825229312	20	5088
2026-01-14 11:56:01.06	305.05	20.67	-30.1	-32.8	14.1	4.50e-06	0	42	0	827326464	20	4956
2026-01-14 11:56:02.07	305.27	20.59	-30.0	-32.7	14.2	7.00e-07	0	42	0	828375040	20	4922
2026-01-14 11:56:03.07	305.48	20.52	-30.1	-33.0	14.1	7.00e-07	0	42	0	830472192	20	5001
2026-01-14 11:56:04.07	305.69	20.44	-30.3	-33.5	13.7	3.80e-06	0	42	0	832569344	20	5196
2026-01-14 11:56:05.08	305.90	20.37	-30.4	-33.8	13.5	7.60e-06	0	42	0	834666496	20	5318
2026-01-14 11:56:06.08	306.11	20.29	-30.6	-33.7	13.3	2.51e-05	0	42	0	835715072	21	5152
2026-01-14 11:56:07.08	306.31	20.22	-30.7	-34.1	13.0	2.67e-05	0	43	0	837812224	21	5330
2026-01-14 11:56:08.08	306.52	20.14	-30.7	-34.1	13.0	3.73e-05	0	42	0	839909376	21	5325
2026-01-14 11:56:09.08	306.72	20.07	-30.7	-34.2	12.9	4.11e-05	0	42	0	842006528	21	5341
2026-01-14 11:56:10.08	306.93	19.99	-30.6	-33.8	13.2	3.35e-05	0	43	0	844103680	21	5199
2026-01-14 11:56:11.08	307.13	19.92	-30.6	-33.8	13.1	1.98e-05	0	42	0	845152256	21	5222
2026-01-14 11:56:12.09	307.34	19.84	-30.7	-34.1	13.0	3.66e-05	0	42	0	847249408	21	5312
2026-01-14 11:56:13.09	307.54	19.77	-30.8	-34.4	12.7	6.02e-05	0	42	0	849346560	21	5458
2026-01-14 11:56:14.09	307.74	19.69	-30.9	-34.6	12.7	5.95e-05	0	42	0	851443712	21	5505
2026-01-14 11:56:15.10	307.94	19.61	-31.3	-35.4	11.8	1.93e-04	0	42	0	853540864	22	5736
2026-01-14 11:56:16.11	308.14	19.54	-31.3	-35.3	11.8	4.75e-04	0	43	0	854589440	22	5720
2026-01-14 11:56:17.10	308.33	19.46	-31.4	-35.7	11.5	6.62e-04	0	43	0	856686592	22	5898
2026-01-14 11:56:18.11	308.53	19.38	-31.1	-34.8	12.1	4.51e-04	0	42	0	858783744	22	5510
2026-01-14 11:56:19.11	308.73	19.31	-30.7	-33.6	13.0	5.49e-05	0	43	0	860880896	22	5021
2026-01-14 11:56:20.11	308.92	19.23	-30.4	-32.7	13.6	1.44e-05	0	42	0	862978048	22	4706
2026-01-14 11:56:21.12	309.12	19.15	-30.3	-32.4	13.8	6.10e-06	0	42	0	864026624	22	4612
2026-01-14 11:56:22.12	309.31	19.08	-30.4	-33.2	13.6	3.80e-06	0	43	0	866123776	21	4968
2026-01-14 11:56:23.12	309.50	19.00	-30.4	-33.3	13.5	7.60e-06	0	43	0	868220928	21	5014
2026-01-14 11:56:24.13	309.70	18.92	-30.6	-33.9	13.1	2.36e-05	0	42	0	870318080	21	5246
2026-01-14 11:56:25.13	309.88	18.85	-30.8	-34.4	12.7	5.11e-05	0	42	0	872415232	21	5450
2026-01-14 11:56:26.14	310.08	18.77	-30.8	-34.5	12.7	8.23e-05	0	42	0	873463808	21	5483
2026-01-14 11:56:27.13	310.26	18.69	-30.7	-34.2	12.9	5.56e-05	0	43	0	875560960	21	5368
2026-01-14 11:56:28.14	310.45	18.62	-30.5	-33.6	13.3	3.12e-05	0	42	0	877658112	21	5146
2026-01-14 11:56:29.14	310.64	18.54	-30.4	-33.2	13.6	1.29e-05	0	42	0	879755264	21	4981
2026-01-14 11:56:30.15	310.82	18.46	-30.4	-33.3	13.5	8.30e-06	0	42	0	880803840	21	5020
2026-01-14 11:56:31.15	311.01	18.39	-30.2	-32.8	13.8	8.30e-06	0	42	0	882900992	21	4825
2026-01-14 11:56:32.15	311.19	18.31	-30.3	-32.9	13.8	2.20e-06	0	42	0	884998144	21	4856
2026-01-14 11:56:33.15	311.37	18.23	-30.5	-33.6	13.3	9.10e-06	0	42	0	887095296	21	5120
2026-01-14 11:56:34.16	311.56	18.15	-30.7	-34.0	13.0	2.82e-05	0	43	0	889192448	21	5282
2026-01-14 11:56:35.15	311.74	18.08	-30.8	-34.5	12.7	6.48e-05	0	42	0	890241024	21	5487
2026-01-14 11:56:36.16	311.92	18.00	-30.9	-34.6	12.6	1.08e-04	0	42	0	892338176	21	5549
2026-01-14 11:56:37.17	312.10	17.92	-30.8	-34.4	12.7	8.77e-05	0	42	0	894435328	21	5451
2026-01-14 11:56:38.17	312.28	17.84	-30.6	-33.8	13.1	4.42e-05	0	42	0	896532480	21	5211
2026-01-14 11:56:39.17	312.45	17.77	-30.4	-33.3	13.5	2.67e-05	0	42	0	898629632	21	5034
2026-01-14 11:56:40.17	312.63	17.69	-30.5	-33.4	13.3	1.67e-05	0	42	0	899678208	21	5079
2026-01-14 11:56:41.18	312.81	17.61	-30.5	-33.5	13.3	1.67e-05	0	42	0	901775360	21	5085
2026-01-14 11:56:42.18	312.98	17.53	-30.7	-34.0	13.0	2.82e-05	0	43	0	903872512	21	5291
2026-01-14 11:56:43.18	313.15	17.46	-30.8	-34.5	12.6	7.62e-05	0	42	0	905969664	21	5494
2026-01-14 11:56:44.18	313.33	17.38	-30.9	-34.8	12.4	1.22e-04	0	42	0	908066816	21	5628
2026-01-14 11:56:45.18	313.50	17.30	-31.0	-34.9	12.3	1.44e-04	0	42	0	909115392	21	5687
2026-01-14 11:56:46.19	313.67	17.23	-30.9	-34.7	12.5	1.62e-04	0	42	0	911212544	21	5602
2026-01-14 11:56:47.19	313.84	17.15	-30.8	-34.6	12.6	1.17e-04	0	43	0	913309696	21	5529
2026-01-14 11:56:48.19	314.01	17.07	-30.8	-34.5	12.6	1.23e-04	0	42	0	915406848	21	5480
2026-01-14 11:56:49.20	314.18	16.99	-30.4	-33.2	13.5	2.51e-05	0	42	0	917504000	21	4990
2026-01-14 11:56:50.20	314.35	16.92	-30.1	-32.6	13.9	7.60e-06	0	42	0	918552576	21	4767
2026-01-14 11:56:51.21	314.52	16.84	-30.0	-32.3	14.1	2.20e-06	0	42	0	920649728	21	4657
2026-01-14 11:56:52.21	314.68	16.76	-30.1	-32.6	13.9	3.80e-06	0	42	0	922746880	21	4767
2026-01-14 11:56:53.22	314.85	16.68	-30.4	-33.3	13.4	1.44e-05	0	42	0	924844032	21	5044
2026-01-14 11:56:54.22	315.01	16.61	-30.7	-34.1	12.9	2.59e-05	0	42	0	926941184	21	5329
2026-01-14 11:56:55.22	315.18	16.53	-31.0	-35.0	12.3	9.15e-05	0	42	0	927989760	21	5708
2026-01-14 11:56:56.22	315.34	16.45	-31.2	-35.0	11.9	2.57e-04	0	42	0	930086912	22	5606
2026-01-14 11:56:57.22	315.50	16.37	-31.2	-35.2	11.8	4.46e-04	0	42	0	932184064	22	5701
2026-01-14 11:56:58.22	315.66	16.30	-31.1	-34.9	12.0	4.05e-04	0	42	0	934281216	22	5578
2026-01-14 11:56:59.22	315.82	16.22	-31.0	-34.5	12.3	2.77e-04	0	42	0	936378368	22	5375
2026-01-14 11:57:00.22	315.98	16.14	-30.9	-34.2	12.5	1.43e-04	0	42	0	937426944	22	5249
2026-01-14 11:57:01.22	316.14	16.07	-30.9	-34.3	12.4	1.35e-04	0	42	0	939524096	22	5298
2026-01-14 11:57:02.22	316.30	15.99	-31.0	-34.4	12.3	1.75e-04	0	42	0	941621248	22	5360
2026-01-14 11:57:03.23	316.46	15.91	-30.8	-33.8	12.7	1.37e-04	0	42	0	943718400	22	5127
2026-01-14 11:57:04.22	316.61	15.84	-30.7	-33.5	12.9	4.34e-05	0	42	0	944766976	22	5001
2026-01-14 11:57:05.22	316.77	15.76	-30.7	-33.7	12.8	5.56e-05	0	42	0	946864128	22	5059
2026-01-14 11:57:06.21	316.92	15.68	-30.8	-33.9	12.7	7.85e-05	0	42	0	948961280	22	5134
2026-01-14 11:57:07.23	317.08	15.61	-30.8	-34.0	12.5	8.46e-05	0	42	0	951058432	22	5210
2026-01-14 11:57:08.23	317.23	15.53	-30.8	-33.9	12.7	9.61e-05	0	42	0	953155584	22	5163
2026-01-14 11:57:09.23	317.38	15.45	-30.8	-33.9	12.6	8.54e-05	0	42	0	954204160	22	5165
2026-01-14 11:57:10.23	317.53	15.38	-30.8	-34.0	12.6	9.15e-05	0	42	0	956301312	22	5184
2026-01-14 11:57:11.23	317.69	15.30	-30.9	-34.1	12.5	9.68e-05	0	42	0	958398464	22	5237
2026-01-14 11:57:12.23	317.84	15.22	-30.9	-34.3	12.3	1.64e-04	0	42	0	960495616	22	5323
2026-01-14 11:57:13.23	317.98	15.15	-30.8	-33.8	12.7	9.68e-05	0	42	0	962592768	22	5113
2026-01-14 11:57:14.24	318.13	15.07	-30.9	-34.2	12.4	1.26e-04	0	42	0	963641344	22	5257
2026-01-14 11:57:15.23	318.28	15.00	-30.9	-34.2	12.4	1.15e-04	0	43	0	965738496	22	5281
2026-01-14 11:57:16.23	318.43	14.92	-31.1	-34.9	11.9	2.25e-04	0	42	0	967835648	22	5564
2026-01-14 11:57:17.23	318.57	14.84	-31.1	-35.0	11.9	3.43e-04	0	42	0	969932800	22	5595
2026-01-14 11:57:18.23	318.72	14.77	-31.2	-35.3	11.7	6.16e-04	0	42	0	970981376	22	5747
2026-01-14 11:57:19.24	318.87	14.69	-31.2	-35.2	11.7	5.89e-04	0	42	0	973078528	22	5679
2026-01-14 11:57:20.23	319.01	14.62	-31.0	-34.7	12.1	4.16e-04	0	42	0	975175680	22	5472
2026-01-14 11:57:21.24	319.16	14.54	-30.9	-34.4	12.3	2.10e-04	0	42	0	977272832	22	5363
2026-01-14 11:57:22.24	319.30	14.46	-30.8	-34.1	12.5	1.53e-04	0	42	0	979369984	22	5232
2026-01-14 11:57:23.25	319.44	14.39	-30.7	-33.8	12.7	1.20e-04	0	42	0	980418560	22	5112
2026-01-14 11:57:24.25	319.58	14.31	-30.7	-33.8	12.6	9.15e-05	0	42	0	982515712	22	5129
2026-01-14 11:57:25.25	319.72	14.24	-30.8	-33.9	12.6	1.08e-04	0	43	0	984612864	22	5175
2026-01-14 11:57:26.25	319.86	14.16	-30.7	-33.6	12.8	8.01e-05	0	43	0	986710016	22	5026
2026-01-14 11:57:27.25	320.00	14.09	-30.6	-33.5	12.9	5.11e-05	0	43	0	988807168	22	4990
2026-01-14 11:57:28.25	320.14	14.01	-30.7	-33.5	12.9	5.72e-05	0	42	0	989855744	22	5013
2026-01-14 11:57:29.25	320.28	13.94	-30.7	-33.6	12.8	7.17e-05	0	43	0	991952896	22	5045
2026-01-14 11:57:30.25	320.42	13.86	-30.8	-34.0	12.5	7.40e-05	0	43	0	994050048	22	5204
2026-01-14 11:57:31.26	320.56	13.79	-30.7	-33.9	12.6	1.26e-04	0	43	0	996147200	22	5147
2026-01-14 11:57:32.27	320.69	13.71	-30.7	-33.8	12.7	8.62e-05	0	43	0	998244352	22	5119
2026-01-14 11:57:33.27	320.83	13.64	-30.7	-33.7	12.7	9.23e-05	0	42	0	999292928	22	5110
2026-01-14 11:57:34.28	320.96	13.56	-30.7	-33.7	12.7	7.24e-05	0	42	0	1001390080	22	5104
2026-01-14 11:57:35.28	321.10	13.49	-30.8	-33.9	12.5	8.16e-05	0	42	0	1003487232	22	5190
2026-01-14 11:57:36.29	321.23	13.41	-30.7	-33.9	12.5	1.23e-04	0	42	0	1005584384	22	5165
2026-01-14 11:57:37.28	321.37	13.34	-30.6	-33.4	12.9	7.01e-05	0	42	0	1007681536	22	4980
2026-01-14 11:57:38.28	321.50	13.26	-30.6	-33.3	12.9	5.64e-05	0	42	0	1008730112	22	4954
2026-01-14 11:57:39.29	321.63	13.19	-30.5	-33.2	13.0	4.04e-05	0	42	0	1010827264	22	4899
2026-01-14 11:57:40.29	321.76	13.11	-30.5	-33.3	13.0	4.04e-05	0	42	0	1012924416	22	4929
2026-01-14 11:57:41.29	321.89	13.04	-30.6	-33.4	12.9	3.96e-05	0	43	0	1015021568	22	4966
2026-01-14 11:57:42.29	322.02	12.97	-30.6	-33.3	12.9	6.63e-05	0	42	0	1016070144	22	4960
2026-01-14 11:57:43.29	322.15	12.89	-30.5	-33.2	13.0	3.89e-05	0	42	0	1018167296	22	4905
2026-01-14 11:57:44.29	322.28	12.82	-30.6	-33.5	12.8	4.57e-05	0	42	0	1020264448	22	5007
2026-01-14 11:57:45.29	322.41	12.74	-30.6	-33.5	12.7	6.63e-05	0	43	0	1022361600	22	5031
2026-01-14 11:57:46.29	322.53	12.67	-30.7	-33.9	12.5	9.99e-05	0	43	0	1024458752	22	5157
2026-01-14 11:57:47.30	322.66	12.60	-30.7	-33.7	12.6	1.19e-04	0	43	0	1025507328	22	5092
2026-01-14 11:57:48.30	322.79	12.52	-30.7	-33.8	12.6	8.85e-05	0	42	0	1027604480	22	5132
2026-01-14 11:57:49.30	322.91	12.45	-30.8	-34.1	12.3	1.75e-04	0	42	0	1029701632	22	5242
2026-01-14 11:57:50.30	323.04	12.38	-30.8	-33.9	12.4	1.30e-04	0	42	0	1031798784	22	5191
2026-01-14 11:57:51.30	323.16	12.30	-30.8	-34.1	12.4	1.26e-04	0	42	0	1033895936	22	5241
2026-01-14 11:57:52.29	323.28	12.23	-31.0	-34.6	12.0	3.48e-04	0	42	0	1034944512	22	5450
2026-01-14 11:57:53.29	323.41	12.16	-30.8	-34.2	12.3	2.27e-04	0	43	0	1037041664	22	5288
2026-01-14 11:57:54.29	323.53	12.09	-30.9	-34.5	12.1	2.29e-04	0	42	0	1039138816	22	5409
2026-01-14 11:57:55.29	323.65	12.01	-30.9	-34.5	12.0	3.39e-04	0	42	0	1041235968	22	5415
2026-01-14 11:57:56.29	323.77	11.94	-31.0	-34.6	11.9	3.19e-04	0	42	0	1043333120	22	5483
2026-01-14 11:57:57.29	323.89	11.87	-31.1	-34.9	11.8	4.68e-04	0	43	0	1044381696	22	5578
2026-01-14 11:57:58.29	324.01	11.80	-31.0	-34.7	11.9	4.94e-04	0	42	0	1046478848	22	5500
2026-01-14 11:57:59.29	324.13	11.72	-31.0	-34.7	11.8	4.48e-04	0	42	0	1048576000	22	5530
2026-01-14 11:58:00.30	324.25	11.65	-30.9	-34.4	12.1	3.34e-04	0	42	0	1050673152	22	5391
2026-01-14 11:58:01.31	324.37	11.58	-30.8	-34.2	12.2	2.35e-04	0	42	0	1052770304	22	5318
2026-01-14 11:58:02.31	324.49	11.51	-30.9	-34.3	12.1	2.79e-04	0	42	0	1053818880	22	5349
2026-01-14 11:58:03.31	324.61	11.44	-30.8	-34.2	12.2	1.85e-04	0	42	0	1055916032	22	5295
2026-01-14 11:58:04.32	324.72	11.36	-30.8	-34.1	12.2	2.31e-04	0	42	0	1058013184	22	5279
2026-01-14 11:58:05.32	324.84	11.29	-30.8	-34.0	12.3	1.87e-04	0	42	0	1060110336	22	5242
2026-01-14 11:58:06.32	324.96	11.22	-30.8	-34.1	12.2	2.12e-04	0	42	0	1061158912	22	5273
2026-01-14 11:58:07.32	325.07	11.15	-30.7	-33.9	12.4	1.52e-04	0	42	0	1063256064	22	5185
2026-01-14 11:58:08.33	325.19	11.08	-30.9	-34.2	12.2	1.92e-04	0	43	0	1065353216	22	5320
2026-01-14 11:58:09.33	325.30	11.01	-31.0	-34.6	11.8	4.20e-04	0	42	0	1067450368	22	5493
2026-01-14 11:58:10.33	325.41	10.93	-31.0	-34.6	11.9	3.64e-04	0	43	0	1069547520	22	5490
2026-01-14 11:58:11.33	325.53	10.86	-31.1	-34.9	11.7	5.94e-04	0	43	0	1070596096	22	5593
2026-01-14 11:58:12.33	325.64	10.79	-30.9	-34.6	11.9	4.61e-04	0	42	0	1072693248	22	5456
2026-01-14 11:58:13.33	325.75	10.72	-30.9	-34.5	11.9	3.77e-04	0	42	0	1074790400	22	5420
2026-01-14 11:58:14.34	325.86	10.65	-30.9	-34.5	11.9	3.90e-04	0	42	0	1076887552	22	5438
2026-01-14 11:58:15.35	325.98	10.58	-31.0	-34.8	11.7	4.29e-04	0	43	0	1078984704	22	5559
2026-01-14 11:58:16.35	326.09	10.51	-31.1	-35.0	11.6	6.42e-04	0	43	0	1080033280	22	5642
2026-01-14 11:58:17.35	326.20	10.44	-31.1	-35.2	11.5	7.53e-04	0	42	0	1082130432	22	5726
2026-01-14 11:58:18.35	326.31	10.37	-31.2	-35.3	11.4	9.09e-04	0	42	0	1084227584	22	5777
2026-01-14 11:58:19.35	326.41	10.30	-31.2	-35.4	11.3	1.20e-03	0	43	0	1086324736	22	5835
2026-01-14 11:58:20.35	326.52	10.23	-31.3	-35.7	11.1	1.43e-03	0	42	0	1088421888	22	5960
2026-01-14 11:58:21.36	326.63	10.16	-31.4	-36.2	10.7	2.33e-03	0	42	0	1089470464	22	6211
2026-01-14 11:58:22.36	326.74	10.09	-31.5	-36.0	10.4	3.96e-03	0	42	0	1091567616	23	6026
2026-01-14 11:58:23.36	326.85	10.02	-31.5	-36.0	10.4	4.04e-03	0	43	0	1093664768	23	6035
2026-01-14 11:58:24.37	326.95	9.95	-31.6	-36.4	10.1	5.84e-03	0	43	0	1095761920	23	6215
2026-01-14 11:58:25.37	327.06	9.88	-31.6	-36.3	10.1	6.87e-03	0	42	0	1097859072	23	6194
2026-01-14 11:58:26.37	327.16	9.81	-31.7	-36.5	10.1	7.02e-03	0	42	0	1098907648	23	6275
2026-01-14 11:58:27.37	327.27	9.74	-31.8	-37.0	9.6	1.11e-02	0	42	0	1101004800	23	6560
2026-01-14 11:58:28.37	327.37	9.67	-31.8	-37.0	9.6	1.10e-02	0	43	0	1103101952	23	6557
2026-01-14 11:58:29.37	327.48	9.60	-31.8	-37.0	9.6	1.24e-02	0	42	0	1105199104	23	6578
2026-01-14 11:58:30.38	327.58	9.54	-31.8	-36.9	9.6	1.46e-02	0	42	0	1106247680	23	6526
2026-01-14 11:58:31.38	327.69	9.47	-31.7	-36.7	9.9	1.09e-02	0	42	0	1108344832	23	6373
2026-01-14 11:58:32.39	327.79	9.40	-31.8	-36.9	9.7	9.51e-03	0	43	0	1110441984	23	6516
2026-01-14 11:58:33.38	327.89	9.33	-31.7	-36.8	9.8	9.67e-03	0	42	0	1112539136	23	6444
2026-01-14 11:58:34.38	327.99	9.26	-31.7	-36.8	9.7	9.53e-03	0	42	0	1114636288	23	6457
2026-01-14 11:58:35.38	328.09	9.19	-31.8	-37.0	9.6	1.26e-02	0	43	0	1115684864	23	6576
2026-01-14 11:58:36.38	328.19	9.13	-31.6	-36.5	9.9	9.45e-03	0	42	0	1117782016	23	6315
2026-01-14 11:58:37.38	328.29	9.06	-31.5	-35.9	10.4	5.47e-03	0	43	0	1119879168	23	5991
2026-01-14 11:58:38.38	328.39	8.99	-31.5	-35.8	10.4	4.41e-03	0	42	0	1121976320	23	5965
2026-01-14 11:58:39.39	328.49	8.92	-31.4	-35.8	10.5	4.09e-03	0	43	0	1124073472	23	5954
2026-01-14 11:58:40.38	328.59	8.85	-31.4	-35.8	10.5	4.67e-03	0	43	0	1125122048	23	5935
2026-01-14 11:58:41.38	328.69	8.79	-31.4	-35.8	10.5	3.31e-03	0	42	0	1127219200	23	5937
2026-01-14 11:58:42.38	328.79	8.72	-31.4	-35.7	10.5	4.60e-03	0	43	0	1129316352	23	5913
2026-01-14 11:58:43.38	328.89	8.65	-31.3	-35.2	10.9	2.29e-03	0	43	0	1131413504	23	5672
2026-01-14 11:58:44.38	328.98	8.58	-31.2	-35.1	11.0	2.22e-03	0	42	0	1133510656	23	5626
2026-01-14 11:58:45.38	329.08	8.52	-31.2	-35.1	11.0	2.44e-03	0	43	0	1134559232	23	5615
2026-01-14 11:58:46.39	329.18	8.45	-31.2	-34.9	11.1	1.92e-03	0	43	0	1136656384	23	5538
2026-01-14 11:58:47.40	329.28	8.38	-31.2	-35.1	11.0	1.56e-03	0	43	0	1138753536	23	5616
2026-01-14 11:58:48.39	329.37	8.32	-31.2	-35.1	10.9	2.24e-03	0	43	0	1140850688	23	5621
2026-01-14 11:58:49.39	329.47	8.25	-31.1	-34.9	11.1	1.69e-03	0	42	0	1141899264	23	5524
2026-01-14 11:58:50.40	329.56	8.18	-31.1	-34.7	11.1	1.66e-03	0	43	0	1143996416	23	5474
2026-01-14 11:58:51.40	329.66	8.12	-31.2	-35.0	10.9	2.20e-03	0	42	0	1146093568	23	5608
2026-01-14 11:58:52.40	329.75	8.05	-31.1	-34.9	11.0	1.71e-03	0	43	0	1148190720	23	5531
2026-01-14 11:58:53.41	329.84	7.98	-31.3	-35.3	10.7	2.36e-03	0	42	0	1150287872	23	5732
2026-01-14 11:58:54.41	329.94	7.92	-31.3	-35.3	10.7	3.45e-03	0	42	0	1152385024	23	5752
2026-01-14 11:58:55.42	330.03	7.85	-31.3	-35.5	10.6	3.17e-03	0	42	0	1153433600	23	5843
2026-01-14 11:58:56.42	330.12	7.78	-31.4	-35.9	10.2	5.03e-03	0	42	0	1155530752	23	6037
2026-01-14 11:58:57.42	330.22	7.72	-31.5	-36.3	10.0	6.69e-03	0	42	0	1157627904	23	6221
2026-01-14 11:58:58.42	330.31	7.65	-31.5	-36.3	10.0	6.42e-03	0	42	0	1159725056	23	6231
2026-01-14 11:58:59.43	330.40	7.59	-31.6	-36.4	9.8	9.47e-03	0	42	0	1160773632	23	6288
2026-01-14 11:59:00.43	330.49	7.52	-31.5	-36.3	10.0	7.70e-03	0	42	0	1162870784	23	6207
2026-01-14 11:59:01.44	330.58	7.46	-31.5	-36.0	10.1	8.21e-03	0	43	0	1164967936	23	6098
2026-01-14 11:59:02.44	330.67	7.39	-31.4	-35.8	10.3	5.20e-03	0	43	0	1167065088	23	5963
2026-01-14 11:59:03.44	330.76	7.33	-31.4	-35.7	10.4	4.96e-03	0	42	0	1169162240	23	5920
2026-01-14 11:59:04.44	330.85	7.26	-31.3	-35.5	10.5	4.11e-03	0	43	0	1170210816	23	5822
2026-01-14 11:59:05.44	330.94	7.20	-31.3	-35.6	10.5	4.43e-03	0	42	0	1172307968	23	5878
2026-01-14 11:59:06.45	331.03	7.13	-31.3	-35.4	10.5	3.91e-03	0	42	0	1174405120	23	5819
2026-01-14 11:59:07.45	331.12	7.07	-33.2	-44.0	5.0	5.80e-03	0	43	0	1176502272	26	12505
2026-01-14 11:59:08.44	331.20	7.00	-33.7	-47.9	3.8	1.49e+00	0	43	104	1176502272	27	18569

#Closed at: 2026-01-14 11:59:09
#Recorded file [1176 MB]: D:/data/31010_260114_144839.dat