passes_logs/2026/01/14/R2M6_AANII_01/R2M6_AANII_01__20260114_001414_NOAA_20_JPSS-1_rec.log

#Pass ID: 20260114_001414_NOAA 20 (JPSS-1)
#Satellite: NOAA 20 (JPSS-1)
#Configuration: NOAA 20
#almurnet v.1.7.20240730
#Start time: 2026-01-14 00:16:30

#Version: 2.2.20231116
#Station: R2M6_AANII_01
#Location: 30.233357 lon 59.946436 lat
#TLE: 1 43013U 17073A   26013.21545503  .00000073  00000+0  55630-4 0  9998
#TLE: 2 43013  98.7633 314.1737 0001580  41.9966 318.1331 14.19535680422486

#Time	Az	El	Level	Level2	SNR	BER	BlckErr	Temp	State	Recorded	gain1	gain2
2026-01-14 00:16:30.60	20.42	20.50	-34.0	-53.6	3.8	7.48e-01	0	43	0	0	28	34502
2026-01-14 00:16:31.58	20.44	20.63	-34.4	-48.9	3.8	1.49e+00	0	43	104	0	28	19025
2026-01-14 00:16:32.58	20.46	20.77	-34.4	-48.9	3.8	1.49e+00	0	43	104	0	28	19070
2026-01-14 00:16:33.56	20.48	20.90	-34.5	-49.0	3.8	1.49e+00	0	43	104	0	28	19167
2026-01-14 00:16:34.57	20.50	21.04	-34.5	-49.0	3.8	1.49e+00	0	43	104	0	28	19231
2026-01-14 00:16:35.57	20.51	21.17	-34.5	-49.0	3.8	1.49e+00	0	43	104	0	28	19260
2026-01-14 00:16:36.56	20.53	21.31	-34.5	-49.1	3.8	1.49e+00	0	43	104	0	28	19248
2026-01-14 00:16:37.55	20.55	21.44	-34.5	-48.6	3.8	1.49e+00	0	43	104	0	29	18171
2026-01-14 00:16:38.55	20.57	21.58	-34.5	-48.5	3.8	1.49e+00	0	43	104	0	29	18136
2026-01-14 00:16:39.55	20.59	21.72	-34.4	-49.0	3.8	1.49e+00	0	43	104	0	28	19141
2026-01-14 00:16:40.54	20.61	21.86	-34.4	-49.0	3.8	1.49e+00	0	43	104	0	28	19195
2026-01-14 00:16:41.54	20.63	22.00	-34.4	-48.9	3.8	1.49e+00	0	43	104	0	28	19124
2026-01-14 00:16:42.55	20.64	22.14	-34.4	-48.9	3.8	1.49e+00	0	43	104	0	28	19101
2026-01-14 00:16:43.56	20.66	22.28	-34.4	-49.0	3.8	1.49e+00	0	43	104	0	28	19170
2026-01-14 00:16:44.55	20.68	22.43	-34.4	-49.0	3.8	1.49e+00	0	43	104	0	28	19197
2026-01-14 00:16:45.54	20.70	22.57	-34.4	-48.9	3.8	1.49e+00	0	43	104	0	28	19108
2026-01-14 00:16:46.53	20.72	22.71	-34.4	-48.9	3.8	1.49e+00	0	43	104	0	28	19129
2026-01-14 00:16:47.53	20.74	22.86	-34.4	-49.0	3.8	1.49e+00	0	43	104	0	28	19185
2026-01-14 00:16:48.53	20.76	23.00	-34.4	-48.9	3.8	1.49e+00	0	43	104	0	28	19126
2026-01-14 00:16:49.52	20.78	23.15	-34.5	-49.0	3.8	1.49e+00	0	43	104	0	28	19181
2026-01-14 00:16:50.51	20.80	23.29	-34.4	-48.9	3.8	1.49e+00	0	43	104	0	28	19150
2026-01-14 00:16:51.50	20.82	23.44	-34.4	-48.9	3.8	1.49e+00	0	43	104	0	28	19050
2026-01-14 00:16:52.50	20.84	23.59	-34.3	-48.8	3.8	1.49e+00	0	43	104	0	28	19045
2026-01-14 00:16:53.50	20.86	23.74	-34.3	-48.7	3.8	1.49e+00	0	43	104	0	28	18868
2026-01-14 00:16:54.49	20.88	23.89	-34.2	-48.6	3.8	1.49e+00	0	43	104	0	28	18794
2026-01-14 00:16:55.48	20.91	24.04	-34.2	-48.4	3.8	1.49e+00	0	43	104	0	28	18593
2026-01-14 00:16:56.48	20.93	24.19	-34.1	-48.2	3.8	1.49e+00	0	43	104	0	28	18393
2026-01-14 00:16:57.47	20.95	24.34	-34.0	-48.1	3.8	1.49e+00	0	43	104	0	28	18209
2026-01-14 00:16:58.46	20.97	24.50	-33.9	-48.0	3.8	1.49e+00	0	43	104	0	28	18094
2026-01-14 00:16:59.46	20.99	24.65	-33.9	-47.9	3.8	1.49e+00	0	43	104	0	28	17992
2026-01-14 00:17:00.47	21.01	24.81	-33.9	-48.4	3.8	1.49e+00	0	43	104	0	27	19131
2026-01-14 00:17:01.47	21.04	24.97	-33.8	-48.2	3.8	1.49e+00	0	43	104	0	27	18822
2026-01-14 00:17:02.48	21.06	25.13	-33.7	-47.2	3.8	1.49e+00	0	43	104	0	27	17018
2026-01-14 00:17:03.47	21.08	25.29	-33.7	-47.8	3.8	1.49e+00	0	43	104	0	27	18073
2026-01-14 00:17:04.47	21.10	25.45	-33.7	-47.7	3.8	1.49e+00	0	43	104	0	27	17986
2026-01-14 00:17:05.47	21.13	25.61	-33.7	-47.6	3.8	1.49e+00	0	43	104	0	27	17883
2026-01-14 00:17:06.46	21.15	25.77	-33.7	-47.5	3.8	1.49e+00	0	43	104	0	27	17653
2026-01-14 00:17:07.46	21.17	25.93	-33.7	-47.4	3.8	1.49e+00	0	43	104	0	27	17365
2026-01-14 00:17:08.45	21.20	26.09	-33.7	-47.3	3.8	1.49e+00	0	43	104	0	27	17295
2026-01-14 00:17:09.45	21.22	26.26	-33.7	-47.4	3.8	1.49e+00	0	43	104	0	27	17440
2026-01-14 00:17:10.45	21.24	26.42	-33.7	-47.5	3.8	1.49e+00	0	43	104	0	27	17614
2026-01-14 00:17:11.45	21.27	26.59	-33.7	-47.5	3.8	1.49e+00	0	43	104	0	27	17657
2026-01-14 00:17:12.44	21.29	26.76	-33.7	-47.2	3.8	1.49e+00	0	43	104	0	27	16963
2026-01-14 00:17:13.44	21.32	26.93	-33.7	-46.6	3.8	1.49e+00	0	43	104	0	27	15979
2026-01-14 00:17:14.43	21.34	27.10	-33.6	-46.0	3.9	1.49e+00	0	43	104	0	27	15000
2026-01-14 00:17:15.43	21.36	27.27	-33.6	-45.3	3.8	1.49e+00	0	43	104	0	27	13876
2026-01-14 00:17:16.43	21.39	27.44	-33.5	-44.8	3.9	1.44e+00	0	43	104	0	27	13128
2026-01-14 00:17:17.42	21.42	27.61	-33.5	-43.8	4.3	1.48e+00	0	43	104	0	27	11829
2026-01-14 00:17:18.42	21.44	27.79	-33.3	-42.9	4.9	9.67e-01	0	43	0	0	26	10848
2026-01-14 00:17:19.42	21.47	27.96	-33.1	-41.1	5.8	6.36e-01	0	43	0	2097152	26	9068
2026-01-14 00:17:20.41	21.49	28.14	-32.7	-39.7	7.1	2.04e-01	0	43	0	3145728	25	7997
2026-01-14 00:17:21.40	21.52	28.31	-32.5	-38.3	8.1	8.32e-02	0	43	0	5242880	25	7088
2026-01-14 00:17:22.39	21.55	28.49	-32.2	-37.8	8.9	4.21e-02	0	43	0	7340032	24	6874
2026-01-14 00:17:23.39	21.57	28.67	-32.1	-37.5	9.1	2.63e-02	0	43	0	9437184	24	6679
2026-01-14 00:17:24.39	21.60	28.85	-32.1	-37.6	9.1	2.19e-02	0	43	0	10485760	24	6735
2026-01-14 00:17:25.39	21.63	29.04	-32.3	-38.2	8.6	3.07e-02	0	43	0	12582912	24	7134
2026-01-14 00:17:26.38	21.65	29.22	-32.3	-38.3	8.5	4.23e-02	0	43	0	14680064	24	7153
2026-01-14 00:17:27.38	21.68	29.40	-32.3	-38.2	8.6	3.81e-02	0	43	0	16777216	24	7131
2026-01-14 00:17:28.38	21.71	29.59	-32.3	-38.4	8.5	4.33e-02	0	43	0	18874368	24	7201
2026-01-14 00:17:29.38	21.74	29.78	-32.4	-38.6	8.4	4.42e-02	0	43	0	19922944	24	7328
2026-01-14 00:17:30.37	21.77	29.96	-32.4	-38.7	8.3	5.51e-02	0	43	0	22020096	24	7389
2026-01-14 00:17:31.37	21.80	30.15	-32.5	-38.5	8.0	5.65e-02	0	43	0	24117248	25	7172
2026-01-14 00:17:32.37	21.83	30.34	-32.6	-39.0	7.6	7.89e-02	0	43	0	26214400	25	7541
2026-01-14 00:17:33.37	21.85	30.54	-32.7	-39.7	7.1	1.23e-01	0	43	0	28311552	25	8014
2026-01-14 00:17:34.37	21.88	30.73	-32.6	-39.1	7.6	1.18e-01	0	43	0	29360128	25	7598
2026-01-14 00:17:35.35	21.91	30.92	-32.4	-38.1	8.3	6.35e-02	0	43	0	31457280	25	6900
2026-01-14 00:17:36.34	21.94	31.12	-32.2	-37.7	9.1	3.08e-02	0	43	0	33554432	24	6762
2026-01-14 00:17:37.34	21.98	31.31	-32.0	-36.9	9.7	1.77e-02	0	43	0	35651584	24	6310
2026-01-14 00:17:38.32	22.01	31.51	-31.8	-36.8	10.1	7.79e-03	0	43	0	36700160	23	6367
2026-01-14 00:17:39.32	22.04	31.71	-31.7	-36.4	10.5	4.75e-03	0	43	0	38797312	23	6152
2026-01-14 00:17:40.32	22.07	31.91	-31.5	-35.7	11.0	3.11e-03	0	43	0	40894464	23	5841
2026-01-14 00:17:41.31	22.10	32.11	-31.5	-35.5	11.1	1.70e-03	0	43	0	42991616	23	5722
2026-01-14 00:17:42.30	22.13	32.32	-31.5	-35.6	11.0	1.93e-03	0	43	0	45088768	23	5802
2026-01-14 00:17:43.30	22.17	32.52	-31.5	-35.8	10.9	1.87e-03	0	43	0	46137344	23	5861
2026-01-14 00:17:44.30	22.20	32.73	-31.6	-35.8	10.9	2.42e-03	0	43	0	48234496	23	5887
2026-01-14 00:17:45.30	22.23	32.94	-31.4	-35.2	11.4	1.35e-03	0	43	0	50331648	23	5584
2026-01-14 00:17:46.31	22.27	33.15	-31.3	-34.9	11.6	7.84e-04	0	43	0	52428800	23	5461
2026-01-14 00:17:47.31	22.30	33.36	-31.1	-34.7	12.0	4.49e-04	0	43	0	54525952	22	5497
2026-01-14 00:17:48.32	22.34	33.58	-31.0	-34.6	12.1	2.64e-04	0	43	0	55574528	22	5458
2026-01-14 00:17:49.32	22.37	33.79	-30.9	-34.3	12.3	2.62e-04	0	43	0	57671680	22	5328
2026-01-14 00:17:50.32	22.41	34.01	-30.7	-34.3	12.7	1.08e-04	0	43	0	59768832	21	5429
2026-01-14 00:17:51.33	22.45	34.23	-30.7	-34.2	12.8	5.18e-05	0	43	0	61865984	21	5367
2026-01-14 00:17:52.33	22.48	34.45	-30.8	-34.3	12.8	8.08e-05	0	43	0	62914560	21	5426
2026-01-14 00:17:53.33	22.52	34.67	-30.7	-34.3	12.7	8.54e-05	0	43	0	65011712	21	5416
2026-01-14 00:17:54.33	22.56	34.89	-30.4	-33.4	13.3	4.11e-05	0	43	0	67108864	21	5070
2026-01-14 00:17:55.34	22.60	35.12	-30.1	-32.5	13.9	1.75e-05	0	43	0	69206016	21	4758
2026-01-14 00:17:56.34	22.63	35.34	-30.0	-32.8	14.0	3.00e-06	0	43	0	71303168	20	4971
2026-01-14 00:17:57.34	22.67	35.57	-30.0	-32.8	14.0	2.20e-06	0	43	0	72351744	20	4969
2026-01-14 00:17:58.35	22.71	35.80	-29.5	-32.2	14.2	3.00e-06	0	43	0	74448896	20	4902
2026-01-14 00:17:59.35	22.75	36.03	-28.7	-31.6	13.8	7.00e-07	0	43	0	76546048	19	5057
2026-01-14 00:18:00.35	22.79	36.26	-30.0	-32.8	14.0	1.50e-06	0	43	0	78643200	20	4951
2026-01-14 00:18:01.35	22.83	36.50	-30.0	-32.7	13.1	3.00e-06	0	43	0	80740352	20	4927
2026-01-14 00:18:02.35	22.88	36.73	-29.8	-32.8	13.6	7.00e-07	0	43	0	81788928	19	5044
2026-01-14 00:18:03.36	22.92	36.97	-29.8	-32.6	14.5	0.00e+00	0	43	0	83886080	19	4983
2026-01-14 00:18:04.36	22.96	37.21	-29.9	-33.0	14.2	7.00e-07	0	43	0	85983232	19	5145
2026-01-14 00:18:05.36	23.00	37.45	-30.1	-33.1	13.9	2.20e-06	0	43	0	88080384	20	5049
2026-01-14 00:18:06.36	23.05	37.69	-30.2	-33.2	13.8	4.50e-06	0	43	0	90177536	20	5099
2026-01-14 00:18:07.37	23.09	37.94	-30.1	-32.9	14.0	1.50e-06	0	43	0	91226112	20	4986
2026-01-14 00:18:08.38	23.14	38.19	-30.0	-33.1	14.3	7.00e-07	0	43	0	93323264	19	5146
2026-01-14 00:18:09.39	23.18	38.44	-30.0	-33.0	14.3	1.50e-06	0	43	0	95420416	19	5141
2026-01-14 00:18:10.39	23.23	38.69	-29.9	-32.5	14.3	0.00e+00	0	43	0	97517568	20	4852
2026-01-14 00:18:11.39	23.28	38.94	-30.0	-32.8	14.1	0.00e+00	0	43	0	99614720	20	4944
2026-01-14 00:18:12.39	23.32	39.19	-30.1	-32.9	14.1	4.50e-06	0	43	0	100663296	20	4977
2026-01-14 00:18:13.40	23.37	39.45	-30.2	-33.2	13.8	2.20e-06	0	43	0	102760448	20	5098
2026-01-14 00:18:14.40	23.42	39.71	-30.2	-33.1	13.9	3.80e-06	0	43	0	104857600	20	5063
2026-01-14 00:18:15.40	23.47	39.97	-30.2	-33.1	14.0	1.50e-06	0	43	0	106954752	20	5060
2026-01-14 00:18:16.40	23.52	40.23	-30.2	-33.3	13.8	3.80e-06	0	43	0	109051904	20	5146
2026-01-14 00:18:17.40	23.57	40.49	-30.2	-33.3	13.8	6.80e-06	0	43	0	110100480	20	5136
2026-01-14 00:18:18.40	23.63	40.76	-30.3	-33.4	13.8	5.30e-06	0	43	0	112197632	20	5156
2026-01-14 00:18:19.40	23.68	41.02	-30.3	-33.6	13.6	1.22e-05	0	43	0	114294784	20	5246
2026-01-14 00:18:20.40	23.73	41.29	-30.4	-33.8	13.5	9.90e-06	0	43	0	116391936	20	5330
2026-01-14 00:18:21.41	23.79	41.56	-30.7	-34.2	12.9	1.44e-05	0	43	0	118489088	21	5362
2026-01-14 00:18:22.40	23.84	41.83	-30.9	-34.6	12.7	4.74e-04	0	43	0	119537664	21	5510
2026-01-14 00:18:23.41	23.90	42.11	-30.9	-34.5	12.7	3.40e-04	0	43	0	121634816	21	5497
2026-01-14 00:18:24.41	23.96	42.39	-31.0	-34.5	12.4	1.07e-04	0	43	0	123731968	22	5364
2026-01-14 00:18:25.41	24.01	42.67	-31.0	-34.3	12.5	3.95e-04	0	43	0	125829120	22	5286
2026-01-14 00:18:26.41	24.07	42.95	-30.9	-34.1	12.7	3.28e-04	0	43	0	126877696	22	5200
2026-01-14 00:18:27.41	24.13	43.23	-30.7	-33.6	13.0	5.72e-05	0	43	0	128974848	22	5024
2026-01-14 00:18:28.41	24.19	43.52	-30.7	-34.1	13.0	2.67e-05	0	43	0	131072000	21	5312
2026-01-14 00:18:29.42	24.26	43.81	-30.7	-34.0	13.0	2.04e-04	0	43	0	133169152	21	5289
2026-01-14 00:18:30.42	24.32	44.09	-30.6	-33.8	13.2	1.90e-05	0	43	0	135266304	21	5199
2026-01-14 00:18:31.43	24.38	44.39	-30.8	-34.3	12.9	1.98e-05	0	43	0	136314880	21	5384
2026-01-14 00:18:32.43	24.45	44.68	-30.9	-34.5	12.7	1.08e-04	0	43	0	138412032	21	5496
2026-01-14 00:18:33.44	24.52	44.98	-31.0	-34.8	12.6	8.23e-05	0	43	0	140509184	21	5613
2026-01-14 00:18:34.43	24.58	45.28	-31.1	-34.8	12.3	4.03e-04	0	43	0	142606336	22	5484
2026-01-14 00:18:35.44	24.65	45.58	-31.3	-35.3	12.0	2.14e-04	0	43	0	144703488	22	5691
2026-01-14 00:18:36.44	24.72	45.88	-31.6	-35.6	11.3	7.51e-04	0	43	0	145752064	23	5739
2026-01-14 00:18:37.44	24.79	46.19	-31.5	-35.5	11.4	1.58e-03	0	43	0	147849216	23	5668
2026-01-14 00:18:38.44	24.87	46.49	-31.5	-35.4	11.4	7.96e-04	0	43	0	149946368	23	5629
2026-01-14 00:18:39.44	24.94	46.80	-31.4	-35.2	11.6	5.72e-04	0	43	0	152043520	23	5556
2026-01-14 00:18:40.44	25.02	47.11	-31.6	-35.6	11.3	1.37e-03	0	43	0	153092096	23	5742
2026-01-14 00:18:41.44	25.09	47.43	-31.7	-36.1	10.9	2.43e-03	0	43	0	155189248	23	5968
2026-01-14 00:18:42.45	25.17	47.75	-31.8	-36.4	10.7	2.65e-03	0	43	0	157286400	23	6132
2026-01-14 00:18:43.45	25.25	48.06	-31.7	-36.2	10.9	3.45e-03	0	43	0	159383552	23	6017
2026-01-14 00:18:44.46	25.33	48.39	-31.5	-35.5	11.4	2.63e-03	0	43	0	161480704	23	5689
2026-01-14 00:18:45.46	25.42	48.71	-31.3	-34.8	11.9	7.68e-04	0	43	0	163577856	23	5379
2026-01-14 00:18:46.45	25.50	49.03	-31.2	-35.0	12.1	1.18e-03	0	43	0	164626432	22	5549
2026-01-14 00:18:47.46	25.59	49.36	-31.1	-34.7	12.4	1.39e-03	0	43	0	166723584	22	5446
2026-01-14 00:18:48.46	25.68	49.69	-30.8	-33.7	13.1	6.33e-05	0	43	0	168820736	22	5029
2026-01-14 00:18:49.46	25.77	50.03	-30.5	-33.6	13.4	1.34e-03	0	43	0	170917888	21	5110
2026-01-14 00:18:50.46	25.86	50.36	-30.4	-33.7	13.6	1.15e-03	0	43	0	171966464	20	5275
2026-01-14 00:18:51.47	25.95	50.70	-30.5	-33.6	13.4	1.06e-05	0	43	0	174063616	21	5116
2026-01-14 00:18:52.47	26.05	51.04	-30.1	-32.9	14.2	9.23e-04	0	43	0	176160768	20	4983
2026-01-14 00:18:53.47	26.15	51.38	-29.9	-32.4	14.5	6.26e-04	0	43	0	178257920	20	4814
2026-01-14 00:18:54.48	26.25	51.73	-29.9	-32.4	14.5	7.00e-07	0	43	0	180355072	20	4797
2026-01-14 00:18:55.49	26.35	52.08	-29.8	-32.1	14.6	4.58e-04	0	43	0	181403648	20	4712
2026-01-14 00:18:56.49	26.46	52.43	-29.5	-31.9	15.2	0.00e+00	0	43	0	183500800	19	4725
2026-01-14 00:18:57.49	26.57	52.78	-29.1	-30.7	15.9	7.00e-07	0	43	0	185597952	19	4368
2026-01-14 00:18:58.50	26.68	53.14	-28.6	-30.2	16.5	9.90e-06	0	43	0	187695104	18	4311
2026-01-14 00:18:59.50	26.79	53.50	-28.3	-29.5	16.9	0.00e+00	0	43	0	189792256	18	4109
2026-01-14 00:19:00.49	26.91	53.85	-28.4	-29.7	16.8	0.00e+00	0	43	0	190840832	18	4168
2026-01-14 00:19:01.49	27.02	54.21	-28.4	-30.2	16.7	1.75e-05	0	43	0	192937984	17	4418
2026-01-14 00:19:02.50	27.15	54.58	-28.3	-29.9	17.0	1.67e-05	0	43	0	195035136	17	4322
2026-01-14 00:19:03.50	27.27	54.95	-28.1	-29.5	17.2	0.00e+00	0	43	0	197132288	17	4231
2026-01-14 00:19:04.50	27.40	55.32	-28.1	-29.4	17.2	2.21e-04	0	43	0	199229440	17	4201
2026-01-14 00:19:05.50	27.53	55.69	-28.1	-30.0	17.2	1.21e-04	0	43	0	200278016	16	4474
2026-01-14 00:19:06.50	27.66	56.06	-28.2	-30.1	17.2	0.00e+00	0	43	0	202375168	16	4499
2026-01-14 00:19:07.51	27.80	56.44	-28.5	-30.4	16.5	2.20e-04	0	43	0	204472320	17	4492
2026-01-14 00:19:08.51	27.94	56.82	-29.0	-31.1	16.0	4.36e-04	0	43	0	206569472	18	4591
2026-01-14 00:19:09.52	28.09	57.20	-29.4	-32.0	15.4	0.00e+00	0	43	0	208666624	18	4884
2026-01-14 00:19:10.52	28.24	57.59	-29.8	-32.4	15.0	0.00e+00	0	43	0	209715200	19	4911
2026-01-14 00:19:11.52	28.39	57.97	-29.7	-32.3	15.0	2.14e-04	0	43	0	211812352	19	4854
2026-01-14 00:19:12.52	28.55	58.36	-29.4	-31.5	15.5	0.00e+00	0	43	0	213909504	19	4600
2026-01-14 00:19:13.53	28.72	58.76	-29.2	-31.0	15.8	0.00e+00	0	43	0	216006656	19	4426
2026-01-14 00:19:14.52	28.88	59.14	-29.1	-31.3	15.9	0.00e+00	0	43	0	217055232	18	4649
2026-01-14 00:19:15.52	29.05	59.54	-29.1	-31.3	15.9	0.00e+00	0	43	0	219152384	18	4649
2026-01-14 00:19:16.53	29.23	59.94	-29.0	-31.2	16.0	1.75e-04	0	43	0	221249536	18	4605
2026-01-14 00:19:17.53	29.42	60.34	-29.2	-31.6	15.8	0.00e+00	0	43	0	223346688	18	4721
2026-01-14 00:19:18.54	29.61	60.75	-29.3	-31.8	15.6	0.00e+00	0	43	0	225443840	18	4808
2026-01-14 00:19:19.54	29.80	61.15	-29.0	-31.1	16.0	2.97e-05	0	43	0	226492416	18	4581
2026-01-14 00:19:20.54	30.00	61.56	-28.7	-30.3	16.5	0.00e+00	0	43	0	228589568	18	4332
2026-01-14 00:19:21.54	30.21	61.97	-28.5	-29.8	16.8	0.00e+00	0	43	0	230686720	18	4194
2026-01-14 00:19:22.54	30.42	62.38	-28.4	-30.1	17.0	2.36e-04	0	43	0	232783872	17	4380
2026-01-14 00:19:23.54	30.65	62.79	-28.6	-30.6	16.7	1.85e-04	0	43	0	234881024	17	4545
2026-01-14 00:19:24.55	30.88	63.21	-28.8	-31.0	16.4	0.00e+00	0	43	0	235929600	17	4672
2026-01-14 00:19:25.55	31.12	63.63	-29.3	-31.7	15.8	0.00e+00	0	43	0	238026752	18	4765
2026-01-14 00:19:26.56	31.36	64.05	-29.5	-31.9	15.4	2.15e-04	0	43	0	240123904	19	4705
2026-01-14 00:19:27.55	31.62	64.47	-30.0	-32.6	14.5	0.00e+00	0	43	0	242221056	20	4842
2026-01-14 00:19:28.56	31.88	64.90	-30.4	-33.7	13.9	7.00e-07	0	43	0	244318208	20	5240
2026-01-14 00:19:29.56	32.16	65.32	-30.7	-34.0	13.3	5.41e-04	0	43	0	245366784	21	5267
2026-01-14 00:19:30.56	32.44	65.75	-31.1	-34.6	12.7	4.80e-05	0	43	0	247463936	22	5391
2026-01-14 00:19:31.56	32.74	66.18	-31.1	-34.4	12.7	1.16e-04	0	43	0	249561088	22	5296
2026-01-14 00:19:32.55	33.05	66.60	-30.9	-33.9	13.2	4.80e-05	0	43	0	251658240	22	5081
2026-01-14 00:19:33.55	33.37	67.04	-30.6	-33.1	13.6	1.37e-05	0	43	0	253755392	22	4806
2026-01-14 00:19:34.55	33.70	67.47	-30.4	-33.1	13.9	6.10e-06	0	43	0	254803968	21	4903
2026-01-14 00:19:35.55	34.05	67.90	-30.1	-32.9	14.3	1.50e-06	0	43	0	256901120	20	4940
2026-01-14 00:19:36.55	34.41	68.34	-30.1	-32.9	14.4	0.00e+00	0	43	0	258998272	20	4947
2026-01-14 00:19:37.55	34.79	68.78	-30.1	-32.7	14.5	0.00e+00	0	43	0	261095424	20	4892
2026-01-14 00:19:38.55	35.19	69.22	-29.8	-32.1	14.9	0.00e+00	0	43	0	262144000	20	4669
2026-01-14 00:19:39.55	35.60	69.66	-29.8	-32.1	14.9	0.00e+00	0	43	0	264241152	20	4673
2026-01-14 00:19:40.55	36.04	70.10	-29.8	-32.1	14.9	7.00e-07	0	43	0	266338304	20	4687
2026-01-14 00:19:41.55	36.50	70.54	-29.7	-32.3	15.2	0.00e+00	0	43	0	268435456	19	4839
2026-01-14 00:19:42.55	36.97	70.99	-29.8	-32.6	15.0	7.00e-07	0	43	0	270532608	19	4930
2026-01-14 00:19:43.55	37.48	71.43	-29.9	-32.8	14.8	0.00e+00	0	43	0	271581184	19	5030
2026-01-14 00:19:44.55	38.00	71.87	-30.1	-32.9	14.4	0.00e+00	0	43	0	273678336	20	4937
2026-01-14 00:19:45.55	38.56	72.32	-30.3	-33.5	14.0	1.50e-06	0	43	0	275775488	20	5146
2026-01-14 00:19:46.55	39.15	72.76	-30.8	-34.3	13.2	9.10e-06	0	43	0	277872640	21	5358
2026-01-14 00:19:47.55	39.77	73.21	-31.2	-34.9	12.5	1.09e-04	0	43	0	279969792	22	5508
2026-01-14 00:19:48.55	40.42	73.65	-30.9	-34.0	13.1	2.89e-05	0	43	0	281018368	22	5124
2026-01-14 00:19:49.55	41.11	74.10	-30.9	-34.6	13.0	3.35e-05	0	43	0	283115520	21	5471
2026-01-14 00:19:50.55	41.85	74.54	-31.2	-34.7	12.6	5.56e-05	0	43	0	285212672	22	5395
2026-01-14 00:19:51.56	42.63	74.99	-31.5	-35.2	11.9	3.46e-04	0	43	0	287309824	23	5522
2026-01-14 00:19:52.56	43.46	75.43	-31.7	-35.9	11.5	8.44e-04	0	43	0	289406976	23	5815
2026-01-14 00:19:53.56	44.34	75.87	-31.9	-36.5	11.1	1.27e-03	0	43	0	290455552	23	6088
2026-01-14 00:19:54.56	45.28	76.31	-32.0	-36.1	10.9	2.07e-03	0	43	0	292552704	24	5826
2026-01-14 00:19:55.57	46.29	76.75	-31.8	-35.6	11.4	1.64e-03	0	43	0	294649856	24	5570
2026-01-14 00:19:56.57	47.37	77.18	-32.2	-36.8	10.5	2.04e-03	0	43	0	296747008	24	6115
2026-01-14 00:19:57.58	48.53	77.61	-32.4	-37.6	9.9	6.89e-03	0	43	0	297795584	24	6546
2026-01-14 00:19:58.58	49.76	78.04	-32.0	-36.4	10.6	4.23e-03	0	43	0	299892736	24	5933
2026-01-14 00:19:59.58	51.09	78.46	-31.7	-35.3	11.5	8.53e-04	0	43	0	301989888	24	5462
2026-01-14 00:20:00.58	52.52	78.87	-30.8	-34.2	11.7	7.45e-04	0	43	0	304087040	24	5369
2026-01-14 00:20:01.58	54.06	79.28	-31.5	-35.0	12.0	3.37e-04	0	43	0	306184192	23	5406
2026-01-14 00:20:02.59	55.74	79.68	-31.4	-34.7	12.4	1.79e-04	0	43	0	307232768	23	5287
2026-01-14 00:20:03.59	57.54	80.08	-31.6	-35.4	11.4	1.56e-04	0	43	0	309329920	23	5594
2026-01-14 00:20:04.59	59.49	80.46	-31.4	-35.3	12.2	5.67e-04	0	43	0	311427072	22	5619
2026-01-14 00:20:05.59	61.60	80.83	-30.9	-33.9	13.3	3.28e-05	0	43	0	313524224	22	5077
2026-01-14 00:20:06.59	63.89	81.19	-31.0	-34.6	13.1	2.13e-05	0	43	0	315621376	21	5468
2026-01-14 00:20:07.58	66.35	81.53	-30.9	-33.9	13.3	5.11e-05	0	43	0	316669952	22	5071
2026-01-14 00:20:08.58	69.04	81.86	-30.2	-32.6	14.4	7.00e-07	0	43	0	318767104	21	4708
2026-01-14 00:20:09.59	71.98	82.17	-29.9	-31.8	15.0	0.00e+00	0	43	0	320864256	21	4448
2026-01-14 00:20:10.59	75.13	82.46	-29.9	-32.3	14.9	0.00e+00	0	43	0	322961408	20	4720
2026-01-14 00:20:11.60	78.55	82.73	-29.6	-31.6	15.4	0.00e+00	0	43	0	325058560	20	4491
2026-01-14 00:20:12.60	82.19	82.97	-29.7	-31.8	15.3	0.00e+00	0	43	0	326107136	20	4567
2026-01-14 00:20:13.60	86.06	83.17	-30.0	-32.5	14.9	7.00e-07	0	43	0	328204288	20	4802
2026-01-14 00:20:14.60	90.16	83.35	-30.5	-33.7	14.1	0.00e+00	0	43	0	330301440	20	5218
2026-01-14 00:20:15.60	94.46	83.49	-30.4	-33.0	14.2	7.00e-07	0	43	0	332398592	21	4859
2026-01-14 00:20:16.60	98.92	83.59	-29.8	-31.6	15.1	0.00e+00	0	43	0	334495744	21	4386
2026-01-14 00:20:17.61	103.55	83.65	-29.9	-32.1	15.2	0.00e+00	0	43	0	335544320	20	4664
2026-01-14 00:20:18.61	108.19	83.67	-30.5	-33.6	14.2	0.00e+00	0	43	0	337641472	20	5183
2026-01-14 00:20:19.62	112.87	83.65	-30.9	-34.3	13.4	9.10e-06	0	43	0	339738624	21	5334
2026-01-14 00:20:20.62	117.45	83.59	-31.2	-34.6	13.0	3.05e-05	0	43	0	341835776	22	5329
2026-01-14 00:20:21.63	121.96	83.49	-31.7	-35.7	12.0	6.40e-05	0	43	0	342884352	23	5649
2026-01-14 00:20:22.63	126.27	83.35	-32.1	-36.2	11.2	1.33e-03	0	43	0	344981504	24	5783
2026-01-14 00:20:23.63	130.37	83.18	-32.6	-37.7	9.7	3.24e-03	0	43	0	347078656	25	6409
2026-01-14 00:20:24.63	134.25	82.97	-32.8	-38.4	9.3	2.17e-02	0	43	0	349175808	25	6834
2026-01-14 00:20:25.63	137.88	82.73	-32.7	-37.8	9.7	1.52e-02	0	43	0	351272960	25	6502
2026-01-14 00:20:26.64	141.31	82.47	-32.7	-37.6	9.8	1.03e-02	0	43	0	352321536	25	6393
2026-01-14 00:20:27.63	144.43	82.18	-32.6	-37.6	9.8	8.50e-03	0	43	0	354418688	25	6375
2026-01-14 00:20:28.64	147.38	81.87	-32.5	-37.0	10.4	5.48e-03	0	43	0	356515840	25	6041
2026-01-14 00:20:29.64	150.07	81.54	-32.0	-35.3	11.5	1.89e-03	0	43	0	358612992	25	5289
2026-01-14 00:20:30.64	152.56	81.19	-31.5	-34.4	12.4	3.03e-04	0	43	0	360710144	24	5042
2026-01-14 00:20:31.64	154.85	80.83	-31.0	-33.6	13.4	4.57e-05	0	43	0	361758720	23	4820
2026-01-14 00:20:32.64	156.97	80.46	-30.8	-33.5	13.8	3.80e-06	0	43	0	363855872	22	4886
2026-01-14 00:20:33.65	158.94	80.08	-30.5	-32.5	14.4	3.00e-06	0	43	0	365953024	22	4566
2026-01-14 00:20:34.65	160.74	79.68	-30.3	-32.2	14.6	0.00e+00	0	43	0	368050176	22	4456
2026-01-14 00:20:35.66	162.42	79.28	-30.5	-33.2	14.3	7.00e-07	0	43	0	370147328	21	4904
2026-01-14 00:20:36.65	163.95	78.87	-30.5	-33.3	14.3	7.00e-07	0	43	0	371195904	21	4916
2026-01-14 00:20:37.66	165.39	78.45	-30.7	-33.7	14.0	7.00e-07	0	43	0	373293056	21	5068
2026-01-14 00:20:38.66	166.72	78.03	-31.6	-35.2	12.3	1.22e-05	0	43	0	375390208	23	5447
2026-01-14 00:20:39.66	167.95	77.61	-32.6	-37.3	10.1	2.93e-03	0	43	0	377487360	25	6232
2026-01-14 00:20:40.66	169.10	77.18	-33.1	-38.9	8.6	2.14e-02	0	43	0	379584512	26	7002
2026-01-14 00:20:41.66	170.18	76.75	-33.5	-40.7	7.2	5.29e-02	0	43	0	380633088	26	8253
2026-01-14 00:20:42.67	171.19	76.31	-33.5	-40.6	6.6	1.96e-01	0	43	0	382730240	27	8146
2026-01-14 00:20:43.67	172.13	75.87	-33.5	-40.3	7.0	1.74e-01	0	43	0	384827392	27	7879
2026-01-14 00:20:44.67	173.02	75.43	-33.4	-39.6	7.4	1.42e-01	0	43	0	386924544	27	7400
2026-01-14 00:20:45.68	173.85	74.98	-33.4	-39.7	7.5	9.73e-02	0	43	0	387973120	27	7414
2026-01-14 00:20:46.67	174.62	74.54	-33.5	-40.4	6.9	1.77e-01	0	43	0	390070272	27	7951
2026-01-14 00:20:47.68	175.36	74.09	-33.7	-41.5	6.1	2.46e-01	0	43	0	392167424	27	8879
2026-01-14 00:20:48.68	176.06	73.65	-33.6	-41.1	6.3	3.62e-01	0	43	0	394264576	27	8522
2026-01-14 00:20:49.68	176.71	73.20	-32.8	-37.4	9.1	5.83e-02	0	43	0	396361728	27	6071
2026-01-14 00:20:50.68	177.33	72.76	-31.8	-34.9	11.7	2.10e-03	0	43	0	397410304	25	5130
2026-01-14 00:20:51.68	177.92	72.31	-31.8	-35.4	11.7	3.79e-04	0	43	0	399507456	24	5422
2026-01-14 00:20:52.69	178.48	71.86	-31.6	-34.9	12.1	4.14e-04	0	43	0	401604608	24	5231
2026-01-14 00:20:53.69	179.01	71.42	-31.2	-34.1	12.9	1.14e-04	0	43	0	403701760	23	5019
2026-01-14 00:20:54.68	179.51	70.98	-30.7	-33.2	13.9	9.10e-06	0	43	0	405798912	22	4816
2026-01-14 00:20:55.68	179.98	70.53	-30.2	-32.5	14.7	0.00e+00	0	43	0	406847488	21	4659
2026-01-14 00:20:56.69	180.44	70.08	-30.5	-33.2	14.3	0.00e+00	0	43	0	408944640	21	4917
2026-01-14 00:20:57.69	180.88	69.64	-31.5	-35.1	12.3	5.26e-05	0	43	0	411041792	23	5439
2026-01-14 00:20:58.69	181.29	69.20	-31.5	-35.1	12.2	4.78e-04	0	43	0	413138944	23	5444
2026-01-14 00:20:59.69	181.69	68.76	-31.2	-34.0	13.0	4.65e-05	0	43	0	414187520	23	4980
2026-01-14 00:21:00.70	182.07	68.32	-31.7	-35.4	12.0	1.04e-04	0	43	0	416284672	23	5555
2026-01-14 00:21:01.69	182.43	67.88	-32.7	-37.9	9.5	3.02e-03	0	43	0	418381824	25	6549
2026-01-14 00:21:02.70	182.79	67.44	-32.7	-38.0	9.3	2.45e-02	0	43	0	420478976	25	6602
2026-01-14 00:21:03.70	183.12	67.01	-31.9	-35.4	11.3	2.94e-03	0	43	0	422576128	25	5331
2026-01-14 00:21:04.70	183.44	66.57	-31.5	-34.4	12.3	4.12e-04	0	43	0	423624704	24	5059
2026-01-14 00:21:05.70	183.75	66.14	-31.4	-34.6	12.6	7.09e-05	0	43	0	425721856	23	5231
2026-01-14 00:21:06.70	184.05	65.71	-31.8	-36.0	11.7	4.00e-04	0	43	0	427819008	23	5817
2026-01-14 00:21:07.70	184.33	65.29	-32.4	-37.5	10.1	2.36e-03	0	43	0	429916160	24	6442
2026-01-14 00:21:08.69	184.60	64.86	-31.7	-35.1	11.8	3.50e-03	0	43	0	432013312	24	5318
2026-01-14 00:21:09.70	184.87	64.44	-30.4	-32.4	14.3	5.79e-05	0	43	0	433061888	22	4542
2026-01-14 00:21:10.70	185.12	64.01	-29.8	-32.0	15.2	0.00e+00	0	43	0	435159040	20	4618
2026-01-14 00:21:11.70	185.37	63.59	-30.1	-32.7	14.8	0.00e+00	0	43	0	437256192	20	4858
2026-01-14 00:21:12.69	185.61	63.18	-30.0	-32.4	14.9	0.00e+00	0	43	0	439353344	20	4761
2026-01-14 00:21:13.69	185.83	62.76	-29.8	-32.0	15.2	0.00e+00	0	43	0	441450496	20	4637
2026-01-14 00:21:14.69	186.06	62.35	-29.6	-31.5	15.5	0.00e+00	0	43	0	442499072	20	4456
2026-01-14 00:21:15.69	186.27	61.94	-29.5	-31.2	15.6	0.00e+00	0	43	0	444596224	20	4391
2026-01-14 00:21:16.69	186.48	61.53	-29.6	-31.5	15.5	0.00e+00	0	43	0	446693376	20	4461
2026-01-14 00:21:17.69	186.68	61.12	-29.8	-31.9	15.2	0.00e+00	0	43	0	448790528	20	4601
2026-01-14 00:21:18.70	186.88	60.71	-30.8	-34.2	13.5	0.00e+00	0	43	0	449839104	21	5275
2026-01-14 00:21:19.70	187.06	60.31	-32.0	-36.2	11.1	1.72e-04	0	43	0	451936256	24	5840
2026-01-14 00:21:20.71	187.25	59.90	-31.7	-35.1	11.8	1.44e-03	0	43	0	454033408	24	5336
2026-01-14 00:21:21.71	187.43	59.50	-31.2	-34.3	12.8	1.34e-04	0	43	0	456130560	23	5098
2026-01-14 00:21:22.71	187.60	59.11	-31.4	-34.7	12.5	5.72e-05	0	43	0	458227712	23	5260
2026-01-14 00:21:23.71	187.77	58.71	-31.9	-36.2	11.4	7.70e-04	0	43	0	459276288	23	5935
2026-01-14 00:21:24.71	187.93	58.32	-32.1	-36.4	10.8	2.93e-03	0	43	0	461373440	24	5919
2026-01-14 00:21:25.70	188.08	57.93	-32.0	-36.2	11.0	1.64e-03	0	43	0	463470592	24	5798
2026-01-14 00:21:26.71	188.24	57.54	-32.2	-36.9	10.6	2.15e-03	0	43	0	465567744	24	6144
2026-01-14 00:21:27.71	188.39	57.16	-32.1	-36.4	10.9	4.14e-03	0	43	0	467664896	24	5924
2026-01-14 00:21:28.71	188.53	56.78	-31.3	-33.9	12.6	6.16e-04	0	43	0	468713472	24	4858
2026-01-14 00:21:29.72	188.68	56.39	-30.5	-32.8	14.0	1.67e-05	0	43	0	470810624	22	4677
2026-01-14 00:21:30.72	188.81	56.02	-30.2	-32.5	14.5	7.00e-07	0	43	0	472907776	21	4678
2026-01-14 00:21:31.72	188.95	55.64	-30.0	-32.0	14.8	7.00e-07	0	43	0	475004928	21	4528
2026-01-14 00:21:32.72	189.08	55.27	-29.7	-31.6	15.4	0.00e+00	0	43	0	477102080	20	4498
2026-01-14 00:21:33.73	189.21	54.90	-29.5	-31.1	15.6	0.00e+00	0	43	0	478150656	20	4354
2026-01-14 00:21:34.73	189.33	54.53	-29.6	-31.5	15.4	0.00e+00	0	43	0	480247808	20	4475
2026-01-14 00:21:35.73	189.45	54.16	-29.9	-32.2	14.9	0.00e+00	0	43	0	482344960	20	4712
2026-01-14 00:21:36.73	189.57	53.80	-30.1	-32.9	14.5	0.00e+00	0	43	0	484442112	20	4924
2026-01-14 00:21:37.73	189.69	53.44	-29.8	-32.0	15.1	0.00e+00	0	43	0	486539264	20	4638
2026-01-14 00:21:38.74	189.80	53.08	-29.5	-31.2	15.6	0.00e+00	0	43	0	487587840	20	4386
2026-01-14 00:21:39.74	189.91	52.73	-29.9	-32.1	15.0	0.00e+00	0	43	0	489684992	20	4677
2026-01-14 00:21:40.75	190.02	52.37	-30.2	-32.9	14.5	0.00e+00	0	43	0	491782144	20	4941
2026-01-14 00:21:41.75	190.12	52.02	-31.2	-34.7	12.8	1.22e-05	0	43	0	493879296	22	5401
2026-01-14 00:21:42.75	190.23	51.67	-32.1	-36.5	10.7	6.32e-04	0	43	0	495976448	24	5992
2026-01-14 00:21:43.76	190.33	51.32	-32.6	-38.1	9.1	1.75e-02	0	43	0	497025024	25	6719
2026-01-14 00:21:44.76	190.43	50.98	-32.8	-38.7	8.5	3.71e-02	0	43	0	499122176	25	7156
2026-01-14 00:21:45.76	190.52	50.64	-33.0	-39.3	8.2	4.98e-02	0	43	0	501219328	25	7510
2026-01-14 00:21:46.76	190.62	50.30	-32.9	-39.0	8.3	5.18e-02	0	43	0	503316480	25	7293
2026-01-14 00:21:47.77	190.71	49.96	-32.8	-38.5	8.7	3.57e-02	0	43	0	505413632	25	6999
2026-01-14 00:21:48.77	190.80	49.63	-32.4	-37.1	9.8	1.40e-02	0	43	0	506462208	25	6189
2026-01-14 00:21:49.78	190.89	49.29	-32.6	-38.1	9.2	9.20e-03	0	43	0	508559360	25	6717
2026-01-14 00:21:50.78	190.97	48.96	-33.2	-39.9	7.4	8.37e-02	0	43	0	510656512	26	7802
2026-01-14 00:21:51.78	191.06	48.64	-33.7	-43.0	5.1	4.40e-01	0	43	0	512753664	27	10461
2026-01-14 00:21:52.79	191.14	48.31	-33.7	-43.3	4.8	9.49e-01	0	43	0	513802240	27	10794
2026-01-14 00:21:53.79	191.22	47.99	-33.0	-38.6	7.6	4.43e-01	0	43	0	515899392	27	6883
2026-01-14 00:21:54.80	191.30	47.67	-31.9	-35.4	11.0	6.47e-03	0	43	0	517996544	25	5402
2026-01-14 00:21:55.79	191.38	47.35	-30.8	-33.1	13.3	9.61e-05	0	43	0	520093696	23	4705
2026-01-14 00:21:56.80	191.46	47.04	-30.5	-32.8	13.9	6.80e-06	0	43	0	522190848	22	4685
2026-01-14 00:21:57.80	191.53	46.72	-30.5	-32.7	14.0	1.50e-06	0	43	0	523239424	22	4659
2026-01-14 00:21:58.81	191.61	46.41	-30.6	-33.0	13.8	6.10e-06	0	43	0	525336576	22	4746
2026-01-14 00:21:59.81	191.68	46.10	-30.9	-34.0	13.1	1.44e-05	0	43	0	527433728	22	5137
2026-01-14 00:22:00.79	191.75	45.80	-31.2	-34.9	12.5	6.71e-05	0	43	0	529530880	22	5481
2026-01-14 00:22:01.80	191.82	45.50	-31.4	-35.3	12.2	1.74e-04	0	43	0	531628032	22	5660
2026-01-14 00:22:02.79	191.89	45.20	-31.3	-35.1	12.3	2.57e-04	0	43	0	532676608	22	5589
2026-01-14 00:22:03.79	191.96	44.90	-30.9	-34.0	13.1	5.11e-05	0	43	0	534773760	22	5127
2026-01-14 00:22:04.80	192.02	44.60	-30.5	-32.8	13.8	1.29e-05	0	43	0	536870912	22	4706
2026-01-14 00:22:05.80	192.09	44.31	-29.8	-32.0	15.0	7.00e-07	0	43	0	538968064	20	4633
2026-01-14 00:22:06.80	192.15	44.01	-29.3	-30.8	15.7	0.00e+00	0	43	0	541065216	20	4279
2026-01-14 00:22:07.81	192.21	43.72	-29.3	-31.2	15.8	0.00e+00	0	43	0	542113792	19	4492
2026-01-14 00:22:08.82	192.28	43.43	-29.1	-30.8	16.0	0.00e+00	0	43	0	544210944	19	4374
2026-01-14 00:22:09.81	192.34	43.15	-29.1	-30.8	16.0	0.00e+00	0	43	0	546308096	19	4368
2026-01-14 00:22:10.82	192.40	42.86	-29.4	-31.5	15.5	0.00e+00	0	43	0	548405248	19	4597
2026-01-14 00:22:11.81	192.46	42.58	-30.1	-32.8	14.4	1.50e-06	0	43	0	550502400	20	4923
2026-01-14 00:22:12.82	192.51	42.30	-30.8	-34.4	13.1	8.30e-06	0	43	0	551550976	21	5422
2026-01-14 00:22:13.82	192.57	42.02	-31.4	-35.7	11.9	1.21e-04	0	43	0	553648128	22	5859
2026-01-14 00:22:14.82	192.63	41.74	-31.5	-35.3	11.7	6.23e-04	0	43	0	555745280	23	5608
2026-01-14 00:22:15.82	192.68	41.47	-31.2	-34.4	12.4	3.45e-04	0	43	0	557842432	23	5224
2026-01-14 00:22:16.82	192.74	41.20	-30.7	-33.3	13.5	3.96e-05	0	43	0	558891008	22	4884
2026-01-14 00:22:17.82	192.79	40.93	-30.3	-32.3	14.1	3.80e-06	0	43	0	560988160	22	4544
2026-01-14 00:22:18.83	192.84	40.66	-30.1	-32.2	14.5	1.50e-06	0	43	0	563085312	21	4626
2026-01-14 00:22:19.83	192.89	40.39	-29.7	-31.8	15.0	0.00e+00	0	43	0	565182464	20	4577
2026-01-14 00:22:20.83	192.94	40.13	-29.7	-31.8	15.0	3.00e-06	0	43	0	567279616	20	4595
2026-01-14 00:22:21.82	192.99	39.87	-29.9	-32.3	14.7	0.00e+00	0	43	0	568328192	20	4745
2026-01-14 00:22:22.82	193.04	39.61	-30.2	-33.2	14.2	7.00e-07	0	43	0	570425344	20	5066
2026-01-14 00:22:23.82	193.09	39.35	-30.7	-34.1	13.3	6.80e-06	0	43	0	572522496	21	5290
2026-01-14 00:22:24.82	193.14	39.10	-31.4	-35.5	12.0	8.16e-05	0	43	0	574619648	22	5752
2026-01-14 00:22:25.82	193.19	38.84	-31.9	-36.7	10.7	1.87e-03	0	43	0	576716800	23	6246
2026-01-14 00:22:26.82	193.23	38.59	-32.4	-37.9	9.3	9.28e-03	0	43	0	577765376	24	6799
2026-01-14 00:22:27.82	193.28	38.34	-32.7	-38.6	8.4	2.85e-02	0	43	0	579862528	25	7106
2026-01-14 00:22:28.82	193.33	38.09	-32.7	-38.7	8.4	4.63e-02	0	43	0	581959680	25	7169
2026-01-14 00:22:29.81	193.37	37.85	-32.5	-37.8	9.0	3.66e-02	0	43	0	584056832	25	6642
2026-01-14 00:22:30.82	193.41	37.60	-32.2	-36.5	10.1	1.60e-02	0	43	0	585105408	25	5942
2026-01-14 00:22:31.82	193.46	37.36	-31.8	-35.3	10.9	4.63e-03	0	43	0	587202560	25	5400
2026-01-14 00:22:32.82	193.50	37.12	-31.5	-34.9	11.6	7.71e-04	0	43	0	589299712	24	5321
2026-01-14 00:22:33.83	193.54	36.87	-31.5	-34.9	11.6	5.39e-04	0	43	0	591396864	24	5313
2026-01-14 00:22:34.83	193.58	36.64	-31.5	-34.7	11.8	6.74e-04	0	43	0	593494016	24	5214
2026-01-14 00:22:35.84	193.63	36.40	-31.5	-34.7	11.8	4.68e-04	0	43	0	594542592	24	5202
2026-01-14 00:22:36.84	193.67	36.16	-31.4	-34.5	11.9	4.57e-04	0	43	0	596639744	24	5131
2026-01-14 00:22:37.84	193.71	35.93	-31.4	-34.5	11.9	3.97e-04	0	43	0	598736896	24	5117
2026-01-14 00:22:38.85	193.75	35.70	-31.6	-35.0	11.5	4.51e-04	0	43	0	600834048	24	5359
2026-01-14 00:22:39.85	193.79	35.47	-31.6	-35.2	11.3	8.09e-04	0	43	0	602931200	24	5458
2026-01-14 00:22:40.85	193.82	35.24	-32.0	-36.5	10.4	2.38e-03	0	43	0	603979776	24	6047
2026-01-14 00:22:41.85	193.86	35.01	-33.0	-38.6	9.0	9.69e-03	0	43	0	606076928	25	6894
2026-01-14 00:22:42.84	193.90	34.79	-32.9	-39.8	7.4	7.36e-02	0	43	0	608174080	25	7938
2026-01-14 00:22:43.85	193.94	34.56	-33.3	-41.2	6.1	2.21e-01	0	43	0	610271232	26	8972
2026-01-14 00:22:44.85	193.97	34.34	-33.4	-42.1	5.6	3.76e-01	0	43	0	612368384	26	9749
2026-01-14 00:22:45.85	194.01	34.12	-33.5	-42.7	5.2	5.66e-01	0	43	0	613416960	26	10405
2026-01-14 00:22:46.85	194.05	33.90	-33.4	-41.6	5.6	5.37e-01	0	43	0	615514112	27	9266
2026-01-14 00:22:47.85	194.08	33.69	-33.3	-40.7	6.0	3.97e-01	0	43	0	617611264	27	8474
2026-01-14 00:22:48.85	194.12	33.47	-33.2	-40.0	6.5	2.39e-01	0	43	0	619708416	27	7936
2026-01-14 00:22:49.86	194.15	33.26	-33.1	-39.5	6.9	1.85e-01	0	43	0	621805568	27	7533
2026-01-14 00:22:50.87	194.19	33.04	-33.0	-39.4	7.0	1.53e-01	0	43	0	622854144	27	7455
2026-01-14 00:22:51.86	194.22	32.83	-33.1	-39.5	6.9	1.53e-01	0	43	0	624951296	27	7510
2026-01-14 00:22:52.86	194.25	32.62	-32.8	-38.3	7.8	9.94e-02	0	43	0	627048448	27	6744
2026-01-14 00:22:53.86	194.29	32.41	-32.5	-37.4	8.9	4.51e-02	0	43	0	629145600	26	6329
2026-01-14 00:22:54.86	194.32	32.21	-32.3	-36.6	9.5	2.15e-02	0	43	0	630194176	26	5918
2026-01-14 00:22:55.86	194.35	32.00	-32.1	-36.3	10.1	7.23e-03	0	43	0	632291328	25	5831
2026-01-14 00:22:56.86	194.38	31.80	-32.0	-36.1	10.3	5.52e-03	0	43	0	634388480	25	5749
2026-01-14 00:22:57.86	194.41	31.60	-32.0	-36.0	10.4	5.92e-03	0	43	0	636485632	25	5692
2026-01-14 00:22:58.86	194.44	31.40	-32.1	-36.3	10.1	5.64e-03	0	43	0	638582784	25	5872
2026-01-14 00:22:59.86	194.48	31.20	-32.3	-37.1	9.5	1.14e-02	0	43	0	639631360	25	6248
2026-01-14 00:23:00.86	194.51	31.00	-32.3	-37.3	9.3	1.69e-02	0	43	0	641728512	25	6349
2026-01-14 00:23:01.86	194.54	30.80	-32.5	-38.0	8.8	2.00e-02	0	43	0	643825664	25	6777
2026-01-14 00:23:02.86	194.57	30.60	-32.6	-38.3	8.6	3.72e-02	0	43	0	645922816	25	6935
2026-01-14 00:23:03.87	194.60	30.41	-32.6	-38.6	8.2	4.59e-02	0	43	0	648019968	25	7172
2026-01-14 00:23:04.87	194.62	30.22	-32.6	-38.5	8.3	5.50e-02	0	43	0	649068544	25	7118
2026-01-14 00:23:05.87	194.65	30.02	-32.7	-39.0	8.0	5.32e-02	0	43	0	651165696	25	7406
2026-01-14 00:23:06.88	194.68	29.83	-32.6	-38.7	8.3	6.12e-02	0	43	0	653262848	25	7206
2026-01-14 00:23:07.87	194.71	29.64	-32.5	-37.9	8.8	4.00e-02	0	43	0	655360000	25	6741
2026-01-14 00:23:08.88	194.74	29.45	-32.4	-37.5	9.1	2.94e-02	0	43	0	657457152	25	6533
2026-01-14 00:23:09.88	194.77	29.27	-32.3	-37.7	9.3	1.77e-02	0	43	0	658505728	24	6719
2026-01-14 00:23:10.89	194.79	29.08	-32.1	-36.9	10.0	9.81e-03	0	43	0	660602880	24	6266
2026-01-14 00:23:11.89	194.82	28.90	-31.9	-36.4	10.3	7.03e-03	0	43	0	662700032	24	6000
2026-01-14 00:23:12.89	194.85	28.71	-31.7	-36.2	10.8	3.71e-03	0	43	0	664797184	23	6038
2026-01-14 00:23:13.89	194.88	28.53	-31.4	-35.3	11.4	1.26e-03	0	43	0	665845760	23	5620
2026-01-14 00:23:14.89	194.90	28.35	-31.3	-35.0	11.7	8.19e-04	0	43	0	667942912	23	5474
2026-01-14 00:23:15.89	194.93	28.17	-31.3	-34.9	11.7	7.00e-04	0	43	0	670040064	23	5438
2026-01-14 00:23:16.90	194.95	27.99	-31.2	-34.7	11.9	3.91e-04	0	43	0	672137216	23	5364
2026-01-14 00:23:17.90	194.98	27.81	-31.1	-34.2	12.2	2.49e-04	0	43	0	674234368	23	5161
2026-01-14 00:23:18.90	195.00	27.64	-31.0	-33.8	12.5	3.26e-04	0	43	0	675282944	23	5010
2026-01-14 00:23:19.90	195.03	27.46	-30.9	-33.7	12.6	9.68e-05	0	43	0	677380096	23	4946
2026-01-14 00:23:20.91	195.05	27.28	-31.0	-34.5	12.4	1.36e-04	0	43	0	679477248	22	5379
2026-01-14 00:23:21.90	195.08	27.11	-30.8	-33.9	12.8	1.04e-04	0	43	0	681574400	22	5122
2026-01-14 00:23:22.91	195.10	26.94	-30.7	-33.6	13.0	4.65e-05	0	43	0	683671552	22	5031
2026-01-14 00:23:23.91	195.13	26.77	-30.7	-33.5	13.0	4.34e-05	0	43	0	684720128	22	4993
2026-01-14 00:23:24.91	195.15	26.60	-30.6	-33.9	13.0	4.19e-05	0	43	0	686817280	21	5277
2026-01-14 00:23:25.91	195.18	26.43	-30.5	-33.6	13.2	2.89e-05	0	43	0	688914432	21	5137
2026-01-14 00:23:26.91	195.20	26.26	-30.4	-33.3	13.4	1.75e-05	0	43	0	691011584	21	5049
2026-01-14 00:23:27.91	195.22	26.10	-30.3	-33.1	13.5	1.52e-05	0	43	0	693108736	21	4960
2026-01-14 00:23:28.91	195.25	25.93	-30.3	-33.2	13.5	1.22e-05	0	43	0	694157312	21	4987
2026-01-14 00:23:29.91	195.27	25.77	-30.4	-34.0	13.3	3.08e-04	0	43	0	696254464	20	5415
2026-01-14 00:23:30.91	195.29	25.60	-30.5	-33.7	13.1	3.81e-05	0	43	0	698351616	21	5180
2026-01-14 00:23:31.92	195.31	25.44	-30.7	-34.1	12.8	4.80e-05	0	43	0	700448768	21	5348
2026-01-14 00:23:32.92	195.34	25.28	-30.6	-34.0	12.9	3.84e-04	0	43	0	702545920	21	5308
2026-01-14 00:23:33.92	195.36	25.12	-30.7	-34.1	12.8	6.86e-05	0	43	0	703594496	21	5365
2026-01-14 00:23:34.92	195.38	24.96	-30.9	-34.7	12.4	1.06e-04	0	43	0	705691648	21	5615
2026-01-14 00:23:35.92	195.40	24.80	-30.7	-34.3	12.7	1.79e-04	0	43	0	707788800	21	5409
2026-01-14 00:23:36.92	195.42	24.64	-30.4	-33.4	13.3	3.38e-04	0	43	0	709885952	21	5070
2026-01-14 00:23:37.92	195.45	24.49	-30.3	-33.1	13.5	1.37e-05	0	43	0	710934528	21	4970
2026-01-14 00:23:38.92	195.47	24.33	-30.2	-33.3	13.7	7.60e-06	0	43	0	713031680	20	5132
2026-01-14 00:23:39.93	195.49	24.17	-30.0	-32.8	14.0	4.50e-06	0	43	0	715128832	20	4970
2026-01-14 00:23:40.92	195.51	24.02	-29.9	-32.5	14.2	1.50e-06	0	43	0	717225984	20	4853
2026-01-14 00:23:41.92	195.53	23.87	-29.8	-32.2	14.4	2.20e-06	0	43	0	719323136	20	4755
2026-01-14 00:23:42.91	195.55	23.72	-29.8	-32.7	14.4	0.00e+00	0	43	0	720371712	19	5030
2026-01-14 00:23:43.92	195.57	23.56	-29.7	-32.4	14.7	7.00e-07	0	43	0	722468864	19	4911
2026-01-14 00:23:44.93	195.59	23.41	-29.5	-32.0	14.9	0.00e+00	0	43	0	724566016	19	4783
2026-01-14 00:23:45.92	195.61	23.26	-29.4	-31.7	15.1	0.00e+00	0	43	0	726663168	19	4673
2026-01-14 00:23:46.92	195.63	23.12	-29.4	-31.6	15.2	0.00e+00	0	43	0	728760320	19	4643
2026-01-14 00:23:47.93	195.65	22.97	-29.3	-32.0	15.2	0.00e+00	0	43	0	729808896	18	4894
2026-01-14 00:23:48.92	195.67	22.82	-29.3	-31.8	15.3	0.00e+00	0	43	0	731906048	18	4846
2026-01-14 00:23:49.92	195.69	22.67	-29.3	-31.9	15.1	0.00e+00	0	43	0	734003200	18	4865
2026-01-14 00:23:50.92	195.71	22.53	-29.4	-32.2	14.8	4.27e-05	0	43	0	736100352	18	4989
2026-01-14 00:23:51.92	195.73	22.39	-29.3	-32.0	14.9	1.07e-04	0	43	0	737148928	18	4918
2026-01-14 00:23:52.92	195.75	22.24	-29.3	-32.1	14.8	7.78e-05	0	43	0	739246080	18	4958
2026-01-14 00:23:53.92	195.76	22.10	-29.4	-32.2	14.8	1.17e-04	0	43	0	741343232	18	4993
2026-01-14 00:23:54.92	195.78	21.96	-29.3	-32.1	14.9	1.20e-04	0	43	0	743440384	18	4955
2026-01-14 00:23:55.93	195.80	21.81	-29.4	-32.4	14.7	1.75e-05	0	43	0	745537536	18	5063
2026-01-14 00:23:56.93	195.82	21.67	-29.4	-32.3	14.8	6.63e-05	0	43	0	746586112	18	5009
2026-01-14 00:23:57.92	195.84	21.53	-29.6	-32.2	14.5	2.97e-05	0	43	0	748683264	19	4859
2026-01-14 00:23:58.93	195.86	21.39	-29.7	-32.5	14.3	1.27e-04	0	43	0	750780416	19	4982
2026-01-14 00:23:59.93	195.88	21.26	-29.7	-32.5	14.2	8.08e-05	0	43	0	752877568	19	5001
2026-01-14 00:24:00.92	195.89	21.12	-29.8	-33.0	14.0	2.54e-04	0	43	0	754974720	19	5158
2026-01-14 00:24:01.93	195.91	20.98	-29.9	-33.0	13.9	3.01e-04	0	43	0	756023296	19	5183
2026-01-14 00:24:02.93	195.93	20.85	-30.0	-33.3	13.7	6.12e-04	0	43	0	758120448	19	5271
2026-01-14 00:24:03.93	195.95	20.71	-30.1	-33.1	13.5	3.16e-04	0	43	0	760217600	20	5099
2026-01-14 00:24:04.93	195.96	20.58	-30.3	-33.6	13.1	3.93e-04	0	43	0	762314752	20	5305
2026-01-14 00:24:05.93	195.98	20.44	-30.2	-33.4	13.3	3.07e-04	0	43	0	764411904	20	5217
2026-01-14 00:24:06.94	196.00	20.31	-30.2	-33.5	13.2	1.94e-04	0	43	0	765460480	20	5254
2026-01-14 00:24:07.93	196.01	20.18	-30.3	-33.7	13.0	1.24e-04	0	43	0	767557632	20	5354
2026-01-14 00:24:08.94	196.03	20.04	-30.4	-33.9	13.0	1.33e-04	0	43	0	769654784	20	5390
2026-01-14 00:24:09.94	196.05	19.91	-30.5	-33.8	12.8	4.73e-05	0	43	0	771751936	21	5245
2026-01-14 00:24:10.94	196.07	19.78	-30.4	-33.6	12.9	5.87e-05	0	43	0	772800512	21	5147
2026-01-14 00:24:11.94	196.08	19.65	-30.3	-33.3	13.0	2.59e-05	0	43	0	774897664	21	5039
2026-01-14 00:24:12.94	196.10	19.52	-30.2	-32.9	13.5	2.13e-05	0	43	0	776994816	21	4919
2026-01-14 00:24:13.95	196.11	19.39	-30.1	-32.5	13.6	9.10e-06	0	43	0	779091968	21	4782
2026-01-14 00:24:14.95	196.13	19.27	-30.1	-33.0	13.8	1.69e-04	0	43	0	781189120	20	5045
2026-01-14 00:24:15.95	196.15	19.14	-30.1	-33.1	13.7	1.29e-05	0	43	0	782237696	20	5089
2026-01-14 00:24:16.95	196.16	19.01	-30.1	-33.0	13.7	4.50e-06	0	43	0	784334848	20	5056
2026-01-14 00:24:17.95	196.18	18.89	-30.1	-33.2	13.6	6.80e-06	0	43	0	786432000	20	5122
2026-01-14 00:24:18.95	196.19	18.76	-30.0	-32.9	13.8	7.60e-06	0	43	0	788529152	20	5001
2026-01-14 00:24:19.95	196.21	18.64	-30.1	-33.0	13.7	5.30e-06	0	43	0	790626304	20	5061
2026-01-14 00:24:20.96	196.23	18.51	-30.1	-33.0	13.7	4.50e-06	0	43	0	791674880	20	5038
2026-01-14 00:24:21.96	196.24	18.39	-30.0	-33.0	13.8	1.14e-05	0	43	0	793772032	20	5033
2026-01-14 00:24:22.96	196.26	18.27	-30.2	-33.4	13.5	7.60e-06	0	43	0	795869184	20	5186
2026-01-14 00:24:23.96	196.27	18.15	-30.1	-33.1	13.6	1.29e-05	0	43	0	797966336	20	5089
2026-01-14 00:24:24.96	196.29	18.02	-30.0	-32.8	13.8	7.60e-06	0	43	0	800063488	20	4994
2026-01-14 00:24:25.96	196.30	17.90	-30.0	-32.9	13.7	7.17e-05	0	43	0	801112064	20	5018
2026-01-14 00:24:26.97	196.32	17.78	-30.0	-32.9	13.7	4.50e-06	0	43	0	803209216	20	5030
2026-01-14 00:24:27.97	196.33	17.66	-30.1	-33.0	13.7	1.37e-05	0	43	0	805306368	20	5063
2026-01-14 00:24:28.97	196.35	17.54	-30.1	-33.1	13.6	4.11e-05	0	43	0	807403520	20	5107
2026-01-14 00:24:29.97	196.36	17.43	-30.1	-33.1	13.6	6.10e-06	0	43	0	809500672	20	5091
2026-01-14 00:24:30.97	196.38	17.31	-30.0	-33.0	13.7	9.90e-06	0	43	0	810549248	20	5048
2026-01-14 00:24:31.98	196.39	17.19	-30.1	-33.2	13.5	1.06e-05	0	43	0	812646400	20	5133
2026-01-14 00:24:32.98	196.41	17.07	-30.0	-33.0	13.7	9.10e-06	0	43	0	814743552	20	5037
2026-01-14 00:24:33.99	196.42	16.95	-30.2	-33.3	13.5	1.67e-05	0	43	0	816840704	20	5160
2026-01-14 00:24:34.99	196.43	16.84	-30.1	-33.2	13.4	1.44e-05	0	43	0	817889280	20	5139
2026-01-14 00:24:35.99	196.45	16.72	-30.2	-33.5	13.3	1.83e-05	0	43	0	819986432	20	5244
2026-01-14 00:24:36.99	196.46	16.61	-30.3	-33.6	13.2	2.05e-05	0	43	0	822083584	20	5291
2026-01-14 00:24:37.99	196.48	16.50	-30.2	-33.5	13.2	1.98e-05	0	43	0	824180736	20	5262
2026-01-14 00:24:39.00	196.49	16.38	-30.3	-33.8	13.1	1.98e-05	0	43	0	826277888	20	5365
2026-01-14 00:24:40.00	196.50	16.27	-30.3	-33.7	13.2	3.50e-05	0	43	0	828375040	20	5310
2026-01-14 00:24:41.00	196.52	16.16	-30.3	-33.8	13.1	1.83e-05	0	43	0	829423616	20	5363
2026-01-14 00:24:42.00	196.53	16.04	-30.4	-34.1	12.9	3.66e-05	0	43	0	831520768	20	5480
2026-01-14 00:24:43.00	196.55	15.93	-30.4	-34.1	12.8	5.18e-05	0	43	0	833617920	20	5505
2026-01-14 00:24:44.00	196.56	15.82	-30.5	-33.8	12.7	6.40e-05	0	43	0	835715072	21	5276
2026-01-14 00:24:45.00	196.57	15.71	-30.5	-33.8	12.7	7.17e-05	0	43	0	836763648	21	5267
2026-01-14 00:24:46.00	196.59	15.60	-30.6	-34.1	12.5	1.08e-04	0	43	0	838860800	21	5368
2026-01-14 00:24:47.00	196.60	15.49	-30.5	-34.0	12.6	1.04e-04	0	43	0	840957952	21	5334
2026-01-14 00:24:48.00	196.61	15.38	-30.6	-34.1	12.5	9.99e-05	0	43	0	843055104	21	5371
2026-01-14 00:24:49.00	196.63	15.27	-30.7	-34.3	12.3	1.55e-04	0	43	0	845152256	21	5481
2026-01-14 00:24:50.01	196.64	15.17	-30.5	-34.0	12.6	1.21e-04	0	43	0	846200832	21	5331
2026-01-14 00:24:51.00	196.65	15.06	-30.4	-33.7	12.7	6.86e-05	0	43	0	848297984	21	5222
2026-01-14 00:24:52.01	196.66	14.95	-30.4	-33.4	12.9	5.56e-05	0	43	0	850395136	21	5135
2026-01-14 00:24:53.00	196.68	14.85	-30.3	-33.3	13.0	4.27e-05	0	43	0	852492288	21	5064
2026-01-14 00:24:54.00	196.69	14.74	-30.4	-33.4	12.9	4.11e-05	0	43	0	854589440	21	5137
2026-01-14 00:24:55.00	196.70	14.63	-30.3	-33.3	13.0	4.42e-05	0	43	0	855638016	21	5092
2026-01-14 00:24:56.00	196.72	14.53	-30.2	-33.0	13.2	3.12e-05	0	43	0	857735168	21	4963
2026-01-14 00:24:57.00	196.73	14.42	-30.2	-33.0	13.2	2.44e-05	0	43	0	859832320	21	4958
2026-01-14 00:24:58.00	196.74	14.32	-30.2	-33.1	13.1	2.67e-05	0	43	0	861929472	21	4997
2026-01-14 00:24:59.01	196.75	14.21	-30.4	-33.7	12.7	4.65e-05	0	43	0	862978048	21	5235
2026-01-14 00:25:00.01	196.77	14.11	-30.3	-33.4	12.9	4.95e-05	0	43	0	865075200	21	5118
2026-01-14 00:25:01.01	196.78	14.01	-30.5	-33.7	12.7	7.70e-05	0	43	0	867172352	21	5246
2026-01-14 00:25:02.01	196.79	13.91	-30.5	-34.0	12.5	8.77e-05	0	43	0	869269504	21	5356
2026-01-14 00:25:03.01	196.80	13.80	-30.5	-33.9	12.5	1.46e-04	0	43	0	871366656	21	5323
2026-01-14 00:25:04.01	196.81	13.70	-30.5	-33.9	12.5	1.05e-04	0	43	0	872415232	21	5329
2026-01-14 00:25:05.02	196.83	13.60	-30.6	-34.1	12.4	1.36e-04	0	43	0	874512384	21	5412
2026-01-14 00:25:06.01	196.84	13.50	-30.6	-34.2	12.4	1.78e-04	0	43	0	876609536	21	5432
2026-01-14 00:25:07.01	196.85	13.40	-30.7	-34.4	12.2	1.68e-04	0	43	0	878706688	21	5536
2026-01-14 00:25:08.01	196.86	13.30	-30.6	-34.2	12.3	2.23e-04	0	43	0	880803840	21	5460
2026-01-14 00:25:09.01	196.87	13.20	-30.6	-34.1	12.3	1.58e-04	0	43	0	881852416	21	5424
2026-01-14 00:25:10.02	196.89	13.10	-30.7	-34.4	12.1	2.39e-04	0	43	0	883949568	21	5559
2026-01-14 00:25:11.02	196.90	13.00	-30.6	-34.4	12.1	2.91e-04	0	43	0	886046720	21	5528
2026-01-14 00:25:12.02	196.91	12.90	-30.7	-34.4	12.1	2.47e-04	0	43	0	888143872	21	5553
2026-01-14 00:25:13.02	196.92	12.81	-30.8	-35.0	11.7	3.76e-04	0	43	0	890241024	21	5815
2026-01-14 00:25:14.03	196.93	12.71	-30.7	-34.6	11.9	4.00e-04	0	43	0	891289600	21	5652
2026-01-14 00:25:15.03	196.94	12.61	-30.9	-35.1	11.6	4.66e-04	0	43	0	893386752	21	5852
2026-01-14 00:25:16.03	196.96	12.51	-30.9	-35.0	11.6	7.09e-04	0	43	0	895483904	21	5831
2026-01-14 00:25:17.03	196.97	12.42	-30.9	-35.2	11.5	6.81e-04	0	43	0	897581056	21	5906
2026-01-14 00:25:18.02	196.98	12.32	-31.0	-35.1	11.3	1.02e-03	0	43	0	898629632	22	5742
2026-01-14 00:25:19.03	196.99	12.22	-31.0	-35.1	11.3	1.36e-03	0	43	0	900726784	22	5746
2026-01-14 00:25:20.03	197.00	12.13	-30.9	-34.7	11.5	1.08e-03	0	43	0	902823936	22	5585
2026-01-14 00:25:21.04	197.01	12.03	-30.9	-34.7	11.5	7.62e-04	0	43	0	904921088	22	5559
2026-01-14 00:25:22.05	197.02	11.94	-30.9	-34.7	11.5	7.81e-04	0	43	0	907018240	22	5576
2026-01-14 00:25:23.05	197.04	11.84	-30.9	-34.8	11.4	7.45e-04	0	43	0	908066816	22	5631
2026-01-14 00:25:24.05	197.05	11.75	-30.9	-34.9	11.4	9.88e-04	0	43	0	910163968	22	5651
2026-01-14 00:25:25.05	197.06	11.66	-30.9	-34.8	11.4	9.45e-04	0	43	0	912261120	22	5639
2026-01-14 00:25:26.06	197.07	11.56	-31.0	-35.0	11.2	1.07e-03	0	43	0	914358272	22	5730
2026-01-14 00:25:27.06	197.08	11.47	-31.0	-34.9	11.3	1.04e-03	0	43	0	916455424	22	5673
2026-01-14 00:25:28.06	197.09	11.38	-31.0	-35.0	11.3	1.10e-03	0	43	0	917504000	22	5701
2026-01-14 00:25:29.07	197.10	11.28	-31.0	-35.2	11.1	1.44e-03	0	43	0	919601152	22	5802
2026-01-14 00:25:30.06	197.11	11.19	-31.0	-34.9	11.3	1.62e-03	0	43	0	921698304	22	5694
2026-01-14 00:25:31.06	197.12	11.10	-31.0	-35.2	11.0	1.47e-03	0	43	0	923795456	22	5835
2026-01-14 00:25:32.07	197.13	11.01	-31.1	-35.4	10.9	1.95e-03	0	43	0	925892608	22	5903
2026-01-14 00:25:33.07	197.14	10.92	-31.1	-35.4	10.9	2.11e-03	0	43	0	926941184	22	5898
2026-01-14 00:25:34.07	197.15	10.83	-31.2	-35.6	10.7	2.72e-03	0	43	0	929038336	22	6010
2026-01-14 00:25:35.07	197.16	10.74	-31.2	-35.6	10.7	2.80e-03	0	43	0	931135488	22	6024
2026-01-14 00:25:36.08	197.18	10.65	-31.2	-35.8	10.6	2.87e-03	0	43	0	933232640	22	6090
2026-01-14 00:25:37.07	197.19	10.56	-31.2	-35.9	10.5	3.24e-03	0	43	0	935329792	22	6136
2026-01-14 00:25:38.07	197.20	10.47	-31.2	-35.7	10.6	3.49e-03	0	43	0	936378368	22	6057
2026-01-14 00:25:39.07	197.21	10.38	-31.3	-36.0	10.4	3.85e-03	0	43	0	938475520	22	6206
2026-01-14 00:25:40.07	197.22	10.29	-31.2	-35.7	10.6	4.03e-03	0	43	0	940572672	22	6078
2026-01-14 00:25:41.08	197.23	10.21	-31.3	-36.2	10.3	4.38e-03	0	43	0	942669824	22	6291
2026-01-14 00:25:42.08	197.24	10.12	-31.3	-36.3	10.2	6.11e-03	0	43	0	943718400	22	6368
2026-01-14 00:25:43.08	197.25	10.03	-31.4	-36.3	10.1	6.77e-03	0	43	0	945815552	22	6391
2026-01-14 00:25:44.08	197.26	9.94	-31.3	-36.3	10.1	6.33e-03	0	43	0	947912704	22	6388
2026-01-14 00:25:45.09	197.27	9.86	-31.5	-36.8	9.8	8.53e-03	0	43	0	950009856	22	6666
2026-01-14 00:25:46.09	197.28	9.77	-31.5	-36.7	9.8	1.07e-02	0	43	0	952107008	22	6608
2026-01-14 00:25:47.09	197.29	9.68	-31.5	-36.4	9.7	1.06e-02	0	43	0	953155584	23	6301
2026-01-14 00:25:48.09	197.30	9.60	-31.6	-36.7	9.5	1.38e-02	0	43	0	955252736	23	6473
2026-01-14 00:25:49.09	197.31	9.51	-31.6	-36.6	9.4	1.52e-02	0	43	0	957349888	23	6468
2026-01-14 00:25:50.09	197.32	9.43	-31.5	-36.5	9.5	1.35e-02	0	43	0	959447040	23	6412
2026-01-14 00:25:51.09	197.33	9.34	-31.6	-36.7	9.4	1.48e-02	0	43	0	961544192	23	6493
2026-01-14 00:25:52.10	197.34	9.26	-31.6	-36.9	9.2	1.92e-02	0	43	0	962592768	23	6635
2026-01-14 00:25:53.10	197.35	9.17	-31.6	-36.8	9.3	1.77e-02	0	43	0	964689920	23	6554
2026-01-14 00:25:54.09	197.36	9.09	-31.6	-36.8	9.2	1.87e-02	0	43	0	966787072	23	6588
2026-01-14 00:25:55.10	197.37	9.00	-31.5	-36.6	9.3	1.83e-02	0	43	0	968884224	23	6488
2026-01-14 00:25:56.10	197.38	8.92	-31.3	-35.9	9.9	1.19e-02	0	43	0	970981376	23	6091
2026-01-14 00:25:57.10	197.38	8.84	-31.2	-35.3	10.4	7.16e-03	0	43	0	972029952	23	5785
2026-01-14 00:25:58.10	197.39	8.75	-31.0	-34.8	10.8	2.84e-03	0	43	0	974127104	23	5560
2026-01-14 00:25:59.11	197.40	8.67	-30.9	-34.4	11.0	1.91e-03	0	43	0	976224256	23	5379
2026-01-14 00:26:00.10	197.41	8.59	-30.8	-34.1	11.2	1.47e-03	0	43	0	978321408	23	5267
2026-01-14 00:26:01.11	197.42	8.50	-30.7	-34.4	11.4	1.04e-03	0	43	0	980418560	22	5482
2026-01-14 00:26:02.11	197.43	8.42	-30.7	-34.5	11.3	1.07e-03	0	43	0	981467136	22	5543
2026-01-14 00:26:03.11	197.44	8.34	-30.7	-34.5	11.3	1.20e-03	0	43	0	983564288	22	5531
2026-01-14 00:26:04.11	197.45	8.26	-30.8	-34.6	11.2	1.29e-03	0	43	0	985661440	22	5594
2026-01-14 00:26:05.12	197.46	8.18	-30.8	-34.7	11.1	1.33e-03	0	43	0	987758592	22	5623
2026-01-14 00:26:06.12	197.47	8.10	-30.7	-34.5	11.3	1.25e-03	0	43	0	988807168	22	5536
2026-01-14 00:26:07.11	197.48	8.02	-30.8	-34.6	11.2	1.04e-03	0	43	0	990904320	22	5579
2026-01-14 00:26:08.12	197.49	7.94	-30.9	-34.9	11.0	1.79e-03	0	43	0	993001472	22	5716
2026-01-14 00:26:09.12	197.50	7.86	-30.8	-34.6	11.2	1.48e-03	0	43	0	995098624	22	5590
2026-01-14 00:26:10.12	197.51	7.78	-30.8	-34.7	11.1	1.63e-03	0	43	0	997195776	22	5659
2026-01-14 00:26:11.12	197.51	7.70	-30.8	-34.6	11.1	1.68e-03	0	43	0	998244352	22	5623
2026-01-14 00:26:12.12	197.52	7.62	-30.7	-34.6	11.2	1.36e-03	0	43	0	1000341504	22	5577
2026-01-14 00:26:13.13	197.53	7.54	-30.8	-34.6	11.1	1.36e-03	0	43	0	1002438656	22	5599
2026-01-14 00:26:14.12	197.54	7.46	-30.8	-34.7	11.1	1.37e-03	0	43	0	1004535808	22	5634
2026-01-14 00:26:15.12	197.55	7.38	-30.9	-35.0	10.8	2.04e-03	0	43	0	1006632960	22	5772
2026-01-14 00:26:16.12	197.56	7.30	-31.0	-35.5	10.5	3.22e-03	0	43	0	1007681536	22	6025
2026-01-14 00:26:17.12	197.57	7.22	-30.9	-35.2	10.7	3.14e-03	0	43	0	1009778688	22	5862
2026-01-14 00:26:18.12	197.58	7.15	-31.1	-35.6	10.5	3.20e-03	0	43	0	1011875840	22	6106
2026-01-14 00:26:19.12	197.59	7.07	-33.3	-47.6	3.8	1.49e+00	0	43	104	1011875840	26	18728
2026-01-14 00:26:20.13	197.60	6.99	-33.5	-48.1	3.8	1.49e+00	0	43	104	1011875840	26	19315

#Closed at: 2026-01-14 00:26:20
#Recorded file [1011 MB]: D:/data/31010_260114_031718.dat