passes_logs/2026/01/14/R2M6_AANII_01/R2M6_AANII_01__20260114_112143_AQUA_rec.log

#Pass ID: 20260114_112143_AQUA
#Satellite: AQUA
#Configuration: AQUA
#almurnet v.1.7.20240730
#Start time: 2026-01-14 11:21:43

#Version: 2.2.20231116
#Station: R2M6_AANII_01
#Location: 30.233357 lon 59.946436 lat
#TLE: 1 27424U 02022A   26013.25278823  .00000890  00000+0  18808-3 0  9998
#TLE: 2 27424  98.4079 339.6508 0002047  80.3961  24.1839 14.61818714260637

#Time	Az	El	Level	Level2	SNR	BER	BlckErr	Temp	State	Recorded	gain1	gain2
2026-01-14 11:21:43.48	137.48	7.04	-31.5	-38.1	5.1	7.13e-01	0	40	0	0	25	7708
2026-01-14 11:21:44.48	137.44	7.12	-31.6	-38.4	5.0	7.07e-01	0	40	104	0	25	7896
2026-01-14 11:21:45.49	137.39	7.20	-31.5	-37.4	13.5	6.09e-01	0	40	0	0	25	7097
2026-01-14 11:21:46.49	137.35	7.28	-31.4	-37.2	14.1	6.08e-01	0	40	0	1572864	24	7050
2026-01-14 11:21:47.50	137.30	7.36	-31.4	-37.5	13.8	6.08e-01	0	40	0	3670016	24	7233
2026-01-14 11:21:48.50	137.26	7.44	-31.2	-36.9	14.3	6.08e-01	0	40	0	5242880	24	6904
2026-01-14 11:21:49.51	137.21	7.52	-31.1	-36.5	14.6	6.06e-01	0	40	0	7340032	24	6654
2026-01-14 11:21:50.51	137.17	7.61	-31.1	-36.0	15.0	6.05e-01	0	40	0	9437184	24	6378
2026-01-14 11:21:51.51	137.12	7.69	-31.2	-36.4	14.8	6.08e-01	0	40	0	11010048	24	6569
2026-01-14 11:21:52.51	137.07	7.77	-31.2	-36.2	15.0	6.06e-01	0	40	0	13107200	24	6420
2026-01-14 11:21:53.51	137.03	7.85	-30.9	-35.1	15.8	6.07e-01	0	40	0	14680064	24	5862
2026-01-14 11:21:54.51	136.98	7.94	-30.7	-35.0	16.3	6.08e-01	0	40	0	16777216	23	5874
2026-01-14 11:21:55.52	136.93	8.02	-30.6	-34.3	16.7	6.08e-01	0	40	0	18350080	23	5565
2026-01-14 11:21:56.52	136.89	8.10	-30.5	-34.0	17.0	6.08e-01	0	40	0	20447232	23	5415
2026-01-14 11:21:57.53	136.84	8.19	-30.6	-34.5	16.7	6.06e-01	0	40	0	22544384	23	5599
2026-01-14 11:21:58.53	136.79	8.27	-30.8	-34.8	16.5	6.08e-01	0	40	0	24117248	23	5725
2026-01-14 11:21:59.54	136.74	8.36	-30.6	-34.3	16.9	6.07e-01	0	40	0	26214400	23	5476
2026-01-14 11:22:00.54	136.69	8.44	-30.6	-34.3	16.9	6.06e-01	0	40	0	28311552	23	5487
2026-01-14 11:22:01.54	136.65	8.52	-30.7	-34.6	16.7	6.05e-01	0	41	0	29884416	23	5631
2026-01-14 11:22:02.54	136.60	8.61	-30.8	-34.6	16.7	6.07e-01	0	41	0	31981568	23	5617
2026-01-14 11:22:03.54	136.55	8.70	-30.8	-34.8	16.6	6.09e-01	0	41	0	33554432	23	5683
2026-01-14 11:22:04.54	136.50	8.78	-30.8	-34.7	16.8	6.06e-01	0	40	0	35651584	23	5608
2026-01-14 11:22:05.53	136.45	8.87	-30.6	-33.9	17.3	6.06e-01	0	41	0	37224448	23	5273
2026-01-14 11:22:06.54	136.40	8.95	-30.5	-33.6	17.5	6.06e-01	0	41	0	39321600	23	5139
2026-01-14 11:22:07.54	136.35	9.04	-30.4	-33.7	17.8	6.05e-01	0	41	0	41418752	22	5297
2026-01-14 11:22:08.54	136.29	9.13	-30.3	-33.6	17.9	6.06e-01	0	40	0	42991616	22	5255
2026-01-14 11:22:09.54	136.24	9.21	-30.5	-34.0	17.6	6.07e-01	0	40	0	45088768	22	5399
2026-01-14 11:22:10.54	136.19	9.30	-30.5	-34.1	17.6	6.07e-01	0	41	0	46661632	22	5454
2026-01-14 11:22:11.55	136.14	9.39	-30.3	-33.5	18.0	6.04e-01	0	41	0	48758784	22	5196
2026-01-14 11:22:12.55	136.08	9.48	-30.4	-33.7	17.9	6.05e-01	0	41	0	50331648	22	5263
2026-01-14 11:22:13.55	136.03	9.57	-30.3	-33.5	18.1	6.07e-01	0	41	0	52428800	22	5179
2026-01-14 11:22:14.55	135.98	9.66	-30.3	-33.4	18.2	6.06e-01	0	41	0	54525952	22	5139
2026-01-14 11:22:15.55	135.92	9.75	-30.3	-33.5	18.1	6.06e-01	0	41	0	56098816	22	5175
2026-01-14 11:22:16.55	135.87	9.83	-30.3	-33.4	18.1	6.06e-01	0	41	0	58195968	22	5158
2026-01-14 11:22:17.55	135.82	9.92	-30.3	-33.4	18.2	6.06e-01	0	41	0	59768832	22	5129
2026-01-14 11:22:18.56	135.76	10.02	-30.3	-33.3	18.2	6.08e-01	0	41	0	61865984	22	5125
2026-01-14 11:22:19.56	135.71	10.11	-30.2	-33.1	18.4	6.06e-01	0	41	0	63438848	22	5035
2026-01-14 11:22:20.57	135.65	10.20	-30.3	-33.4	18.2	6.05e-01	0	41	0	65536000	22	5141
2026-01-14 11:22:21.57	135.59	10.29	-30.2	-33.1	18.4	6.07e-01	0	41	0	67633152	22	5052
2026-01-14 11:22:22.57	135.54	10.38	-30.3	-33.4	18.2	6.06e-01	0	41	0	69206016	22	5148
2026-01-14 11:22:23.58	135.48	10.47	-30.3	-33.4	18.2	6.06e-01	0	41	0	71303168	22	5139
2026-01-14 11:22:24.58	135.42	10.57	-30.2	-33.2	18.3	6.07e-01	0	41	0	72876032	22	5079
2026-01-14 11:22:25.58	135.36	10.66	-30.1	-33.0	18.5	6.07e-01	0	41	0	74973184	22	4976
2026-01-14 11:22:26.59	135.31	10.75	-30.1	-32.8	18.6	6.05e-01	0	41	0	77070336	22	4927
2026-01-14 11:22:27.59	135.25	10.85	-30.1	-32.9	18.6	6.05e-01	0	41	0	78643200	22	4948
2026-01-14 11:22:28.59	135.19	10.94	-30.1	-32.8	18.6	6.05e-01	0	41	0	80740352	22	4895
2026-01-14 11:22:29.60	135.13	11.04	-30.1	-32.8	18.6	6.06e-01	0	41	0	82313216	22	4926
2026-01-14 11:22:30.60	135.07	11.13	-30.1	-32.8	18.7	6.06e-01	0	41	0	84410368	22	4901
2026-01-14 11:22:31.60	135.01	11.22	-30.0	-32.6	18.8	6.07e-01	0	41	0	86507520	22	4843
2026-01-14 11:22:32.60	134.95	11.32	-30.1	-32.7	18.7	6.07e-01	0	41	0	88080384	22	4884
2026-01-14 11:22:33.61	134.89	11.42	-30.1	-32.7	18.7	6.05e-01	0	41	0	90177536	22	4866
2026-01-14 11:22:34.61	134.82	11.51	-30.1	-32.7	18.8	6.06e-01	0	41	0	91750400	22	4852
2026-01-14 11:22:35.61	134.76	11.61	-30.0	-32.5	18.9	6.08e-01	0	41	0	93847552	22	4796
2026-01-14 11:22:36.61	134.70	11.71	-30.0	-32.4	19.0	6.06e-01	0	41	0	95420416	22	4784
2026-01-14 11:22:37.62	134.64	11.80	-29.9	-32.4	19.0	6.08e-01	0	41	0	97517568	22	4774
2026-01-14 11:22:38.62	134.57	11.90	-30.0	-32.5	18.9	6.06e-01	0	41	0	99614720	22	4804
2026-01-14 11:22:39.62	134.51	12.00	-30.1	-32.8	18.7	6.07e-01	0	41	0	101187584	22	4933
2026-01-14 11:22:40.62	134.44	12.10	-30.0	-32.6	18.8	6.08e-01	0	41	0	103284736	22	4863
2026-01-14 11:22:41.63	134.38	12.20	-29.9	-32.4	18.9	6.06e-01	0	41	0	104857600	22	4816
2026-01-14 11:22:42.63	134.31	12.30	-29.9	-32.9	18.9	6.09e-01	0	41	0	106954752	21	5105
2026-01-14 11:22:43.64	134.25	12.40	-29.9	-32.9	18.9	6.05e-01	0	41	0	109051904	21	5118
2026-01-14 11:22:44.64	134.18	12.50	-29.9	-33.0	18.9	6.07e-01	0	41	0	110624768	21	5130
2026-01-14 11:22:45.64	134.11	12.60	-29.9	-33.1	18.8	6.07e-01	0	41	0	112721920	21	5172
2026-01-14 11:22:46.65	134.05	12.70	-29.9	-33.1	18.8	6.06e-01	0	41	0	114294784	21	5163
2026-01-14 11:22:47.65	133.98	12.80	-30.0	-33.1	18.8	6.06e-01	0	41	0	116391936	21	5171
2026-01-14 11:22:48.66	133.91	12.91	-30.0	-33.1	18.8	6.07e-01	0	41	0	118489088	21	5177
2026-01-14 11:22:49.66	133.84	13.01	-29.8	-32.8	19.1	6.07e-01	0	41	0	120061952	21	5048
2026-01-14 11:22:50.66	133.77	13.11	-29.8	-32.7	19.1	6.07e-01	0	41	0	122159104	21	5032
2026-01-14 11:22:51.66	133.70	13.21	-29.8	-32.7	19.1	6.05e-01	0	41	0	123731968	21	5023
2026-01-14 11:22:52.67	133.63	13.32	-29.8	-32.7	19.1	6.07e-01	0	42	0	125829120	21	5014
2026-01-14 11:22:53.67	133.56	13.42	-29.8	-32.7	19.1	6.08e-01	0	41	0	127401984	21	5002
2026-01-14 11:22:54.67	133.49	13.53	-29.8	-32.5	19.2	6.06e-01	0	41	0	129499136	21	4941
2026-01-14 11:22:55.68	133.41	13.63	-29.8	-32.5	19.3	6.07e-01	0	42	0	131596288	21	4911
2026-01-14 11:22:56.68	133.34	13.74	-29.8	-32.5	19.3	6.07e-01	0	41	0	133169152	21	4926
2026-01-14 11:22:57.68	133.27	13.84	-29.9	-32.8	19.1	6.04e-01	0	41	0	135266304	21	5033
2026-01-14 11:22:58.68	133.19	13.95	-29.9	-32.7	19.2	6.06e-01	0	41	0	136839168	21	4966
2026-01-14 11:22:59.69	133.12	14.06	-29.8	-32.6	19.3	6.05e-01	0	41	0	138936320	21	4917
2026-01-14 11:23:00.70	133.04	14.17	-29.9	-32.6	19.3	6.07e-01	0	42	0	141033472	21	4934
2026-01-14 11:23:01.70	132.97	14.27	-30.0	-32.8	19.2	6.07e-01	0	41	0	142606336	21	4992
2026-01-14 11:23:02.70	132.89	14.38	-29.9	-32.6	19.3	6.07e-01	0	42	0	144703488	21	4932
2026-01-14 11:23:03.71	132.81	14.49	-29.9	-32.8	19.2	6.06e-01	0	41	0	146276352	21	4993
2026-01-14 11:23:04.71	132.73	14.60	-30.0	-32.9	19.1	6.07e-01	0	42	0	148373504	21	5054
2026-01-14 11:23:05.71	132.66	14.71	-29.9	-32.7	19.2	6.08e-01	0	42	0	150470656	21	4987
2026-01-14 11:23:06.70	132.58	14.82	-29.8	-32.5	19.4	6.06e-01	0	42	0	152043520	21	4903
2026-01-14 11:23:07.70	132.50	14.93	-29.8	-32.5	19.4	6.04e-01	0	42	0	154140672	21	4918
2026-01-14 11:23:08.69	132.42	15.04	-29.8	-32.6	19.4	6.07e-01	0	41	0	155713536	21	4933
2026-01-14 11:23:09.70	132.34	15.15	-29.9	-32.8	19.2	6.06e-01	0	42	0	157810688	21	5030
2026-01-14 11:23:10.70	132.26	15.27	-30.0	-32.9	19.2	6.05e-01	0	41	0	159383552	21	5027
2026-01-14 11:23:11.71	132.17	15.38	-29.9	-32.6	19.4	6.08e-01	0	42	0	161480704	21	4937
2026-01-14 11:23:12.71	132.09	15.49	-29.9	-32.6	19.4	6.07e-01	0	42	0	163577856	21	4903
2026-01-14 11:23:13.72	132.00	15.61	-29.9	-32.5	19.5	6.08e-01	0	42	0	165150720	21	4877
2026-01-14 11:23:14.72	131.92	15.72	-29.9	-32.6	19.4	6.08e-01	0	42	0	167247872	21	4926
2026-01-14 11:23:15.72	131.84	15.84	-29.9	-32.7	19.4	6.05e-01	0	42	0	168820736	21	4923
2026-01-14 11:23:16.73	131.75	15.95	-29.9	-32.7	19.5	6.08e-01	0	42	0	170917888	21	4922
2026-01-14 11:23:17.73	131.66	16.07	-30.0	-32.7	19.4	6.06e-01	0	42	0	173015040	21	4944
2026-01-14 11:23:18.73	131.57	16.19	-30.1	-33.0	19.3	6.08e-01	0	41	0	174587904	21	5043
2026-01-14 11:23:19.73	131.49	16.30	-30.0	-32.8	19.4	6.07e-01	0	42	0	176685056	21	4969
2026-01-14 11:23:20.74	131.40	16.42	-29.9	-32.5	19.6	6.07e-01	0	42	0	178257920	21	4863
2026-01-14 11:23:21.74	131.31	16.54	-29.9	-32.4	19.7	6.07e-01	0	42	0	180355072	21	4835
2026-01-14 11:23:22.74	131.22	16.66	-29.8	-32.4	19.6	6.05e-01	0	42	0	181927936	21	4832
2026-01-14 11:23:23.74	131.13	16.78	-29.9	-32.5	19.6	6.06e-01	0	42	0	184025088	21	4883
2026-01-14 11:23:24.74	131.03	16.90	-29.8	-32.4	19.7	6.08e-01	0	42	0	186122240	21	4832
2026-01-14 11:23:25.74	130.94	17.02	-29.8	-32.2	19.8	6.05e-01	0	42	0	187695104	21	4754
2026-01-14 11:23:26.75	130.85	17.14	-29.7	-32.1	19.9	6.04e-01	0	42	0	189792256	21	4725
2026-01-14 11:23:27.75	130.75	17.26	-29.8	-32.2	19.8	6.06e-01	0	42	0	191365120	21	4744
2026-01-14 11:23:28.76	130.66	17.39	-29.8	-32.2	19.9	6.07e-01	0	42	0	193462272	21	4749
2026-01-14 11:23:29.76	130.56	17.51	-29.8	-32.2	19.8	6.09e-01	0	42	0	195559424	21	4752
2026-01-14 11:23:30.77	130.46	17.63	-29.8	-32.2	19.8	6.07e-01	0	42	0	197132288	21	4759
2026-01-14 11:23:31.78	130.36	17.76	-29.9	-32.6	19.7	6.06e-01	0	42	0	199229440	21	4869
2026-01-14 11:23:32.78	130.26	17.88	-29.9	-32.5	19.7	6.06e-01	0	42	0	200802304	21	4843
2026-01-14 11:23:33.78	130.17	18.01	-30.0	-32.7	19.6	6.06e-01	0	42	0	202899456	21	4920
2026-01-14 11:23:34.78	130.06	18.14	-30.0	-32.7	19.6	6.07e-01	0	42	0	204472320	21	4903
2026-01-14 11:23:35.78	129.96	18.26	-30.0	-32.8	19.5	6.06e-01	0	42	0	206569472	21	4951
2026-01-14 11:23:36.78	129.86	18.39	-30.2	-33.3	19.3	6.06e-01	0	42	0	208666624	21	5136
2026-01-14 11:23:37.78	129.76	18.52	-30.3	-33.5	19.1	6.08e-01	0	42	0	210239488	21	5196
2026-01-14 11:23:38.79	129.65	18.65	-30.4	-33.9	18.9	6.07e-01	0	42	0	212336640	21	5340
2026-01-14 11:23:39.79	129.55	18.78	-30.4	-33.6	19.1	6.04e-01	0	42	0	213909504	21	5247
2026-01-14 11:23:40.80	129.44	18.91	-30.3	-33.4	19.2	6.05e-01	0	42	0	216006656	21	5169
2026-01-14 11:23:41.80	129.33	19.04	-30.3	-33.4	19.2	6.05e-01	0	42	0	218103808	21	5160
2026-01-14 11:23:42.81	129.22	19.17	-30.3	-33.5	19.2	6.07e-01	0	42	0	219676672	21	5190
2026-01-14 11:23:43.81	129.12	19.30	-30.5	-34.0	18.9	6.05e-01	0	42	0	221773824	21	5379
2026-01-14 11:23:44.82	129.00	19.43	-30.4	-33.7	19.0	6.06e-01	0	42	0	223346688	21	5290
2026-01-14 11:23:45.82	128.89	19.57	-30.2	-33.1	19.4	6.06e-01	0	42	0	225443840	21	5079
2026-01-14 11:23:46.82	128.78	19.70	-30.0	-32.7	19.7	6.06e-01	0	42	0	227016704	21	4911
2026-01-14 11:23:47.83	128.67	19.84	-29.9	-32.5	19.9	6.05e-01	0	42	0	229113856	21	4827
2026-01-14 11:23:48.83	128.55	19.97	-30.0	-32.6	19.8	6.07e-01	0	42	0	231211008	21	4876
2026-01-14 11:23:49.83	128.44	20.11	-29.9	-32.4	19.9	6.05e-01	0	42	0	232783872	21	4810
2026-01-14 11:23:50.84	128.32	20.25	-30.0	-32.6	19.8	6.06e-01	0	42	0	234881024	21	4874
2026-01-14 11:23:51.84	128.20	20.38	-30.0	-32.6	19.8	6.07e-01	0	42	0	236978176	21	4868
2026-01-14 11:23:52.85	128.08	20.52	-30.1	-32.8	19.7	6.07e-01	0	42	0	238551040	21	4928
2026-01-14 11:23:53.85	127.96	20.66	-30.1	-32.8	19.7	6.07e-01	0	42	0	240648192	21	4944
2026-01-14 11:23:54.85	127.84	20.80	-30.1	-32.9	19.7	6.06e-01	0	42	0	242221056	21	4963
2026-01-14 11:23:55.86	127.72	20.94	-30.1	-32.9	19.7	6.05e-01	0	42	0	244318208	21	4956
2026-01-14 11:23:56.85	127.59	21.08	-30.2	-33.0	19.6	6.06e-01	0	42	0	245891072	21	5012
2026-01-14 11:23:57.86	127.47	21.22	-30.3	-33.3	19.4	6.08e-01	0	42	0	247988224	21	5107
2026-01-14 11:23:58.85	127.34	21.36	-30.2	-33.2	19.5	6.08e-01	0	42	0	250085376	21	5072
2026-01-14 11:23:59.86	127.21	21.51	-30.3	-33.5	19.4	6.09e-01	0	42	0	251658240	21	5165
2026-01-14 11:24:00.86	127.09	21.65	-30.2	-33.1	19.5	6.05e-01	0	42	0	253755392	21	5052
2026-01-14 11:24:01.87	126.95	21.80	-30.1	-32.9	19.7	6.08e-01	0	42	0	255328256	21	4977
2026-01-14 11:24:02.87	126.82	21.94	-30.1	-32.8	19.7	6.04e-01	0	42	0	257425408	21	4945
2026-01-14 11:24:03.88	126.69	22.09	-30.3	-33.4	19.4	6.06e-01	0	42	0	258998272	21	5142
2026-01-14 11:24:04.88	126.56	22.24	-30.2	-33.2	19.5	6.06e-01	0	42	0	261095424	21	5073
2026-01-14 11:24:05.88	126.42	22.38	-30.2	-33.1	19.6	6.06e-01	0	42	0	263192576	21	5052
2026-01-14 11:24:06.88	126.28	22.53	-30.4	-33.5	19.4	6.03e-01	0	42	0	264765440	21	5173
2026-01-14 11:24:07.89	126.14	22.68	-30.2	-33.2	19.6	6.04e-01	0	42	0	266862592	21	5055
2026-01-14 11:24:08.89	126.01	22.83	-30.2	-33.1	19.7	6.08e-01	0	42	0	268959744	21	5006
2026-01-14 11:24:09.89	125.86	22.98	-30.2	-33.0	19.7	6.06e-01	0	42	0	270532608	21	5003
2026-01-14 11:24:10.89	125.72	23.13	-30.3	-33.3	19.5	6.06e-01	0	42	0	272629760	21	5094
2026-01-14 11:24:11.89	125.58	23.29	-30.4	-33.6	19.3	6.05e-01	0	42	0	274202624	21	5206
2026-01-14 11:24:12.90	125.43	23.44	-30.2	-33.2	19.6	6.07e-01	0	42	0	276299776	21	5050
2026-01-14 11:24:13.90	125.28	23.59	-30.2	-33.1	19.6	6.03e-01	0	42	0	277872640	21	5043
2026-01-14 11:24:14.91	125.14	23.75	-30.2	-33.2	19.6	6.07e-01	0	42	0	279969792	21	5077
2026-01-14 11:24:15.91	124.99	23.90	-30.5	-33.8	19.2	6.08e-01	0	42	0	282066944	21	5300
2026-01-14 11:24:16.92	124.83	24.06	-30.4	-33.7	19.3	6.05e-01	0	42	0	283639808	21	5246
2026-01-14 11:24:17.92	124.68	24.22	-30.3	-33.4	19.5	6.05e-01	0	42	0	285736960	21	5117
2026-01-14 11:24:18.93	124.52	24.38	-30.2	-33.1	19.7	6.07e-01	0	42	0	287309824	21	5018
2026-01-14 11:24:19.93	124.37	24.54	-30.3	-33.2	19.6	6.06e-01	0	42	0	289406976	21	5037
2026-01-14 11:24:20.94	124.21	24.70	-30.2	-33.1	19.7	6.07e-01	0	42	0	291504128	21	5008
2026-01-14 11:24:21.94	124.05	24.86	-30.3	-33.2	19.7	6.08e-01	0	42	0	293076992	21	5048
2026-01-14 11:24:22.94	123.89	25.02	-30.2	-33.0	19.7	6.04e-01	0	42	0	295174144	21	4995
2026-01-14 11:24:23.95	123.72	25.18	-30.2	-33.0	19.7	6.09e-01	0	42	0	296747008	21	4991
2026-01-14 11:24:24.95	123.56	25.34	-30.2	-33.0	19.8	6.07e-01	0	42	0	298844160	21	4973
2026-01-14 11:24:25.95	123.39	25.51	-30.3	-33.3	19.6	6.07e-01	0	42	0	300941312	21	5077
2026-01-14 11:24:26.93	123.22	25.67	-30.1	-32.7	19.9	6.07e-01	0	42	0	302514176	21	4892
2026-01-14 11:24:27.91	123.06	25.83	-30.0	-32.5	20.1	6.06e-01	0	42	0	304087040	21	4789
2026-01-14 11:24:28.90	122.89	25.99	-30.0	-32.4	20.1	6.08e-01	0	42	0	306184192	21	4786
2026-01-14 11:24:29.89	122.71	26.16	-29.9	-32.3	20.2	6.07e-01	0	42	0	308281344	21	4737
2026-01-14 11:24:30.90	122.54	26.33	-30.0	-32.6	20.1	6.06e-01	0	42	0	309854208	21	4830
2026-01-14 11:24:31.89	122.36	26.49	-30.1	-32.7	20.0	6.07e-01	0	42	0	311951360	21	4864
2026-01-14 11:24:32.90	122.18	26.66	-30.2	-32.9	19.9	6.06e-01	0	42	0	313524224	21	4938
2026-01-14 11:24:33.90	121.99	26.83	-30.1	-32.7	20.0	6.05e-01	0	42	0	315621376	21	4887
2026-01-14 11:24:34.91	121.81	27.01	-30.1	-32.7	20.0	6.07e-01	0	42	0	317718528	21	4869
2026-01-14 11:24:35.91	121.62	27.18	-30.1	-32.7	20.0	6.05e-01	0	42	0	319291392	21	4880
2026-01-14 11:24:36.90	121.44	27.35	-30.0	-32.5	20.1	6.06e-01	0	42	0	321388544	21	4815
2026-01-14 11:24:37.91	121.24	27.52	-30.1	-32.7	20.1	6.06e-01	0	42	0	322961408	21	4854
2026-01-14 11:24:38.92	121.05	27.70	-30.2	-33.1	19.8	6.06e-01	0	42	0	325058560	21	5006
2026-01-14 11:24:39.92	120.85	27.87	-30.1	-32.9	19.9	6.06e-01	0	42	0	326631424	21	4937
2026-01-14 11:24:40.93	120.65	28.05	-30.3	-33.4	19.6	6.06e-01	0	42	0	328728576	21	5114
2026-01-14 11:24:41.93	120.45	28.23	-30.1	-32.9	19.9	6.07e-01	0	42	0	330825728	21	4942
2026-01-14 11:24:42.93	120.25	28.41	-30.3	-33.2	19.7	6.05e-01	0	42	0	332398592	21	5063
2026-01-14 11:24:43.93	120.05	28.58	-30.1	-32.7	20.0	6.04e-01	0	42	0	334495744	21	4881
2026-01-14 11:24:44.93	119.84	28.76	-29.8	-32.1	20.4	6.07e-01	0	42	0	336068608	21	4680
2026-01-14 11:24:45.94	119.63	28.94	-29.8	-32.0	20.5	6.06e-01	0	42	0	338165760	21	4630
2026-01-14 11:24:46.94	119.42	29.13	-29.8	-32.0	20.5	6.08e-01	0	42	0	340262912	21	4632
2026-01-14 11:24:47.94	119.20	29.31	-29.8	-31.9	20.5	6.06e-01	0	42	0	341835776	21	4610
2026-01-14 11:24:48.95	118.98	29.49	-29.7	-31.8	20.6	6.07e-01	0	42	0	343932928	21	4585
2026-01-14 11:24:49.95	118.77	29.67	-29.9	-32.2	20.4	6.06e-01	0	42	0	345505792	21	4687
2026-01-14 11:24:50.95	118.54	29.86	-29.9	-32.3	20.3	6.06e-01	0	42	0	347602944	21	4725
2026-01-14 11:24:51.95	118.32	30.04	-29.7	-31.7	20.6	6.07e-01	0	42	0	349175808	21	4553
2026-01-14 11:24:52.95	118.09	30.23	-29.6	-31.4	20.8	6.06e-01	0	42	0	351272960	21	4453
2026-01-14 11:24:53.95	117.86	30.41	-29.6	-31.6	20.7	6.06e-01	0	42	0	353370112	21	4510
2026-01-14 11:24:54.96	117.63	30.60	-29.5	-31.2	21.0	6.06e-01	0	42	0	354942976	21	4391
2026-01-14 11:24:55.96	117.39	30.79	-29.6	-31.4	20.8	6.05e-01	0	42	0	357040128	21	4457
2026-01-14 11:24:56.96	117.15	30.98	-29.7	-31.8	20.7	6.06e-01	0	42	0	358612992	21	4565
2026-01-14 11:24:57.96	116.91	31.17	-29.8	-32.0	20.5	6.08e-01	0	42	0	360710144	21	4647
2026-01-14 11:24:58.97	116.66	31.36	-29.8	-32.1	20.5	6.05e-01	0	42	0	362807296	21	4650
2026-01-14 11:24:59.97	116.42	31.55	-29.9	-32.1	20.5	6.05e-01	0	42	0	364380160	21	4656
2026-01-14 11:25:00.97	116.17	31.74	-29.9	-32.1	20.5	6.06e-01	0	42	0	366477312	21	4652
2026-01-14 11:25:01.97	115.91	31.94	-29.7	-31.8	20.6	6.06e-01	0	42	0	368050176	21	4562
2026-01-14 11:25:02.97	115.66	32.13	-29.7	-31.7	20.7	6.07e-01	0	42	0	370147328	21	4547
2026-01-14 11:25:03.98	115.39	32.32	-29.8	-32.0	20.5	6.06e-01	0	42	0	371720192	21	4633
2026-01-14 11:25:04.98	115.13	32.52	-29.8	-32.1	20.5	6.08e-01	0	42	0	373817344	21	4645
2026-01-14 11:25:05.99	114.86	32.72	-30.1	-32.7	20.2	6.07e-01	0	42	0	375914496	21	4853
2026-01-14 11:25:06.99	114.59	32.91	-30.1	-32.6	20.2	6.06e-01	0	42	0	377487360	21	4818
2026-01-14 11:25:08.00	114.32	33.11	-29.9	-32.2	20.4	6.06e-01	0	42	0	379584512	21	4698
2026-01-14 11:25:09.00	114.04	33.31	-29.9	-32.2	20.4	6.07e-01	0	42	0	381157376	21	4689
2026-01-14 11:25:10.00	113.76	33.50	-30.0	-32.3	20.4	6.05e-01	0	42	0	383254528	21	4724
2026-01-14 11:25:11.01	113.47	33.70	-30.1	-32.8	20.1	6.07e-01	0	42	0	385351680	21	4875
2026-01-14 11:25:12.02	113.18	33.91	-30.1	-32.7	20.2	6.07e-01	0	42	0	386924544	21	4854
2026-01-14 11:25:13.02	112.89	34.11	-30.2	-33.0	20.0	6.06e-01	0	42	0	389021696	21	4956
2026-01-14 11:25:14.02	112.60	34.30	-30.3	-33.2	19.9	6.07e-01	0	42	0	390594560	21	5004
2026-01-14 11:25:15.02	112.30	34.51	-30.3	-33.0	20.0	6.05e-01	0	42	0	392691712	21	4967
2026-01-14 11:25:16.03	111.99	34.71	-30.3	-33.2	19.9	6.05e-01	0	42	0	394788864	21	5031
2026-01-14 11:25:17.03	111.69	34.91	-30.4	-33.5	19.7	6.06e-01	0	42	0	396361728	21	5133
2026-01-14 11:25:18.03	111.38	35.11	-30.5	-33.7	19.6	6.05e-01	0	42	0	398458880	21	5189
2026-01-14 11:25:19.03	111.06	35.31	-30.6	-33.9	19.5	6.07e-01	0	42	0	400031744	21	5270
2026-01-14 11:25:20.04	110.74	35.52	-30.6	-33.5	19.4	6.09e-01	0	42	0	402128896	22	5014
2026-01-14 11:25:21.04	110.42	35.72	-30.7	-33.8	19.3	6.04e-01	0	42	0	404226048	22	5109
2026-01-14 11:25:22.04	110.09	35.92	-30.7	-33.7	19.3	6.08e-01	0	42	0	405798912	22	5079
2026-01-14 11:25:23.04	109.76	36.13	-30.7	-33.7	19.3	6.06e-01	0	42	0	407896064	22	5101
2026-01-14 11:25:24.04	109.42	36.33	-30.9	-34.1	19.1	6.07e-01	0	42	0	409468928	22	5223
2026-01-14 11:25:25.05	109.08	36.54	-31.1	-34.7	18.7	6.05e-01	0	42	0	411566080	22	5472
2026-01-14 11:25:26.05	108.74	36.74	-30.9	-34.3	18.9	6.07e-01	0	42	0	413138944	22	5320
2026-01-14 11:25:27.05	108.39	36.95	-31.0	-34.5	18.9	6.07e-01	0	42	0	415236096	22	5378
2026-01-14 11:25:28.05	108.04	37.15	-31.2	-34.6	18.5	6.05e-01	0	42	0	417333248	23	5315
2026-01-14 11:25:29.05	107.68	37.36	-31.8	-35.7	17.5	6.07e-01	0	42	0	418906112	24	5636
2026-01-14 11:25:30.05	107.32	37.56	-31.7	-35.6	17.5	6.06e-01	0	42	0	421003264	24	5594
2026-01-14 11:25:31.05	106.95	37.77	-32.0	-36.4	17.0	6.07e-01	0	42	0	422576128	24	5972
2026-01-14 11:25:32.06	106.58	37.97	-31.5	-34.9	18.0	6.05e-01	0	42	0	424673280	24	5301
2026-01-14 11:25:33.06	106.20	38.18	-31.6	-35.0	18.0	6.08e-01	0	42	0	426246144	24	5344
2026-01-14 11:25:34.06	105.82	38.38	-31.8	-35.7	17.5	6.04e-01	0	42	0	428343296	24	5665
2026-01-14 11:25:35.07	105.43	38.59	-31.6	-35.3	17.7	6.05e-01	0	42	0	430440448	24	5456
2026-01-14 11:25:36.07	105.04	38.79	-31.8	-35.8	17.5	6.04e-01	0	42	0	432013312	24	5676
2026-01-14 11:25:37.07	104.64	39.00	-31.9	-36.1	17.2	6.05e-01	0	42	0	434110464	24	5836
2026-01-14 11:25:38.07	104.24	39.20	-31.5	-34.9	18.0	6.08e-01	0	42	0	435683328	24	5320
2026-01-14 11:25:39.08	103.83	39.41	-31.3	-34.2	18.4	6.05e-01	0	42	0	437780480	24	5066
2026-01-14 11:25:40.08	103.42	39.61	-31.1	-33.8	18.7	6.07e-01	0	42	0	439877632	24	4918
2026-01-14 11:25:41.08	103.00	39.81	-31.2	-33.9	18.6	6.07e-01	0	42	0	441450496	24	4936
2026-01-14 11:25:42.08	102.58	40.01	-31.3	-34.2	18.5	6.05e-01	0	42	0	443547648	24	5059
2026-01-14 11:25:43.08	102.15	40.22	-31.3	-34.2	18.5	6.08e-01	0	42	0	445120512	24	5030
2026-01-14 11:25:44.09	101.71	40.42	-31.2	-34.0	18.6	6.07e-01	0	42	0	447217664	24	4973
2026-01-14 11:25:45.09	101.27	40.62	-31.2	-34.0	18.6	6.06e-01	0	42	0	449314816	24	4981
2026-01-14 11:25:46.09	100.83	40.82	-31.1	-33.8	18.7	6.09e-01	0	42	0	450887680	24	4903
2026-01-14 11:25:47.10	100.37	41.02	-31.4	-34.4	18.3	6.06e-01	0	42	0	452984832	24	5128
2026-01-14 11:25:48.10	99.92	41.22	-31.5	-34.8	18.1	6.05e-01	0	42	0	454557696	24	5259
2026-01-14 11:25:49.10	99.46	41.41	-31.4	-34.6	18.2	6.07e-01	0	42	0	456654848	24	5189
2026-01-14 11:25:50.11	98.98	41.61	-31.1	-33.6	18.9	6.07e-01	0	42	0	458227712	24	4819
2026-01-14 11:25:51.11	98.51	41.81	-31.1	-33.6	18.9	6.08e-01	0	42	0	460324864	24	4819
2026-01-14 11:25:52.12	98.03	42.00	-31.5	-34.8	18.1	6.05e-01	0	42	0	462422016	24	5259
2026-01-14 11:25:53.12	97.54	42.20	-31.5	-34.7	18.1	6.06e-01	0	42	0	463994880	24	5240
2026-01-14 11:25:54.12	97.05	42.39	-31.0	-33.6	18.9	6.07e-01	0	42	0	466092032	24	4806
2026-01-14 11:25:55.12	96.55	42.58	-30.8	-33.4	19.3	6.06e-01	0	42	0	467664896	23	4845
2026-01-14 11:25:56.13	96.05	42.77	-30.9	-33.6	19.1	6.06e-01	0	42	0	469762048	23	4944
2026-01-14 11:25:57.13	95.54	42.95	-31.0	-33.9	19.0	6.05e-01	0	42	0	471859200	23	5037
2026-01-14 11:25:58.13	95.02	43.14	-31.1	-34.2	18.8	6.07e-01	0	42	0	473432064	23	5139
2026-01-14 11:25:59.14	94.50	43.33	-30.9	-33.7	19.1	6.05e-01	0	42	0	475529216	23	4959
2026-01-14 11:26:00.14	93.97	43.51	-30.7	-33.1	19.5	6.06e-01	0	42	0	477102080	23	4753
2026-01-14 11:26:01.13	93.44	43.69	-30.7	-33.2	19.5	6.07e-01	0	42	0	479199232	23	4778
2026-01-14 11:26:02.14	92.90	43.87	-31.0	-33.9	19.0	6.08e-01	0	42	0	481296384	23	5015
2026-01-14 11:26:03.14	92.35	44.04	-31.0	-34.1	18.9	6.04e-01	0	42	0	482869248	23	5094
2026-01-14 11:26:04.14	91.80	44.22	-30.8	-33.4	19.3	6.07e-01	0	42	0	484966400	23	4851
2026-01-14 11:26:05.15	91.23	44.39	-31.0	-34.0	18.9	6.07e-01	0	42	0	486539264	23	5072
2026-01-14 11:26:06.15	90.67	44.56	-30.9	-33.8	19.1	6.09e-01	0	42	0	488636416	23	4980
2026-01-14 11:26:07.16	90.09	44.73	-31.0	-34.0	18.9	6.06e-01	0	42	0	490209280	23	5071
2026-01-14 11:26:08.16	89.52	44.89	-31.0	-34.0	18.9	6.07e-01	0	42	0	492306432	23	5071
2026-01-14 11:26:09.16	88.94	45.06	-31.0	-33.8	19.1	6.08e-01	0	42	0	494403584	23	5007
2026-01-14 11:26:10.17	88.34	45.22	-31.2	-34.6	18.6	6.07e-01	0	42	0	495976448	23	5279
2026-01-14 11:26:11.17	87.75	45.38	-31.1	-34.1	18.9	6.07e-01	0	42	0	498073600	23	5113
2026-01-14 11:26:12.17	87.15	45.53	-31.0	-33.8	19.0	6.06e-01	0	42	0	499646464	23	5010
2026-01-14 11:26:13.17	86.54	45.68	-31.0	-33.9	19.1	6.06e-01	0	42	0	501743616	23	5008
2026-01-14 11:26:14.17	85.93	45.83	-31.0	-34.0	19.0	6.04e-01	0	42	0	503316480	23	5062
2026-01-14 11:26:15.18	85.30	45.98	-30.9	-33.8	19.1	6.06e-01	0	42	0	505413632	23	4983
2026-01-14 11:26:16.18	84.68	46.12	-31.2	-34.5	18.7	6.05e-01	0	42	0	507510784	23	5247
2026-01-14 11:26:17.19	84.04	46.26	-31.0	-33.9	19.0	6.06e-01	0	42	0	509083648	23	5026
2026-01-14 11:26:18.19	83.41	46.40	-31.2	-34.3	18.8	6.07e-01	0	42	0	511180800	23	5184
2026-01-14 11:26:19.19	82.77	46.53	-31.0	-33.8	19.1	6.07e-01	0	42	0	513277952	23	4972
2026-01-14 11:26:20.19	82.12	46.66	-31.2	-34.4	18.7	6.07e-01	0	42	0	514850816	23	5213
2026-01-14 11:26:21.19	81.47	46.78	-31.4	-35.1	18.3	6.07e-01	0	42	0	516947968	23	5510
2026-01-14 11:26:22.20	80.81	46.91	-31.4	-35.1	18.3	6.05e-01	0	42	0	518520832	23	5487
2026-01-14 11:26:23.21	80.14	47.03	-31.4	-35.0	18.4	6.06e-01	0	42	0	520617984	23	5424
2026-01-14 11:26:24.21	79.47	47.14	-31.8	-35.6	17.6	6.06e-01	0	42	0	522190848	24	5584
2026-01-14 11:26:25.21	78.80	47.25	-31.6	-34.9	18.1	6.06e-01	0	42	0	524288000	24	5305
2026-01-14 11:26:26.22	78.12	47.36	-31.8	-35.6	17.7	6.08e-01	0	42	0	526385152	24	5593
2026-01-14 11:26:27.22	77.44	47.46	-31.4	-34.4	18.4	6.08e-01	0	42	0	527958016	24	5109
2026-01-14 11:26:28.22	76.75	47.56	-31.3	-34.2	18.5	6.07e-01	0	42	0	530055168	24	5040
2026-01-14 11:26:29.23	76.05	47.65	-31.6	-35.0	18.1	6.08e-01	0	42	0	531628032	24	5314
2026-01-14 11:26:30.23	75.36	47.74	-31.5	-34.9	18.1	6.06e-01	0	42	0	533725184	24	5274
2026-01-14 11:26:31.23	74.66	47.82	-31.1	-33.7	18.9	6.07e-01	0	42	0	535822336	24	4838
2026-01-14 11:26:32.23	73.96	47.91	-31.1	-33.6	19.0	6.05e-01	0	42	0	537395200	24	4813
2026-01-14 11:26:33.23	73.25	47.98	-31.2	-33.8	18.8	6.05e-01	0	42	0	539492352	24	4893
2026-01-14 11:26:34.23	72.55	48.05	-30.9	-33.2	19.2	6.07e-01	0	42	0	541065216	24	4689
2026-01-14 11:26:35.24	71.83	48.12	-31.2	-34.0	18.7	6.07e-01	0	42	0	543162368	24	4956
2026-01-14 11:26:36.24	71.11	48.18	-31.6	-35.1	18.0	6.06e-01	0	42	0	544735232	24	5375
2026-01-14 11:26:37.24	70.39	48.24	-31.5	-34.7	18.3	6.09e-01	0	42	0	546832384	24	5219
2026-01-14 11:26:38.24	69.67	48.29	-31.5	-34.8	18.2	6.06e-01	0	42	0	548929536	24	5239
2026-01-14 11:26:39.25	68.94	48.34	-31.6	-34.9	18.1	6.06e-01	0	42	0	550502400	24	5300
2026-01-14 11:26:40.25	68.22	48.38	-31.7	-35.3	17.9	6.05e-01	0	42	0	552599552	24	5449
2026-01-14 11:26:41.26	67.49	48.42	-31.7	-35.2	17.9	6.07e-01	0	42	0	554172416	24	5425
2026-01-14 11:26:42.26	66.76	48.45	-31.6	-35.0	18.1	6.06e-01	0	42	0	556269568	24	5323
2026-01-14 11:26:43.26	66.03	48.48	-31.5	-34.8	18.2	6.07e-01	0	42	0	558366720	24	5276
2026-01-14 11:26:44.26	65.30	48.51	-31.7	-35.4	17.8	6.05e-01	0	42	0	559939584	24	5488
2026-01-14 11:26:45.26	64.56	48.52	-31.3	-34.3	18.5	6.06e-01	0	42	0	562036736	24	5071
2026-01-14 11:26:46.26	63.83	48.54	-30.9	-33.0	19.2	6.06e-01	0	42	0	563609600	24	4617
2026-01-14 11:26:47.27	63.09	48.54	-30.7	-33.2	19.5	6.07e-01	0	42	0	565706752	23	4764
2026-01-14 11:26:48.28	62.35	48.55	-30.7	-33.1	19.5	6.08e-01	0	42	0	567279616	23	4759
2026-01-14 11:26:49.27	61.62	48.55	-30.9	-33.7	19.2	6.06e-01	0	42	0	569376768	23	4940
2026-01-14 11:26:50.28	60.88	48.54	-30.6	-32.9	19.6	6.08e-01	0	42	0	571473920	23	4672
2026-01-14 11:26:51.28	60.15	48.53	-30.7	-33.2	19.4	6.08e-01	0	42	0	573046784	23	4787
2026-01-14 11:26:52.27	59.43	48.51	-30.7	-33.1	19.5	6.08e-01	0	42	0	575143936	23	4757
2026-01-14 11:26:53.27	58.70	48.49	-30.6	-32.9	19.6	6.07e-01	0	42	0	576716800	23	4686
2026-01-14 11:26:54.28	57.96	48.46	-30.6	-32.7	19.8	6.06e-01	0	42	0	578813952	23	4622
2026-01-14 11:26:55.27	57.24	48.43	-31.0	-33.8	19.1	6.06e-01	0	42	0	580386816	23	4989
2026-01-14 11:26:56.27	56.51	48.39	-30.9	-33.6	19.2	6.06e-01	0	42	0	582483968	23	4911
2026-01-14 11:26:57.28	55.78	48.35	-30.7	-33.1	19.5	6.07e-01	0	42	0	584581120	23	4741
2026-01-14 11:26:58.28	55.06	48.30	-31.0	-33.9	19.0	6.06e-01	0	42	0	586153984	23	5042
2026-01-14 11:26:59.28	54.34	48.25	-30.6	-32.9	19.7	6.05e-01	0	42	0	588251136	23	4669
2026-01-14 11:27:00.29	53.61	48.19	-30.8	-33.5	19.3	6.07e-01	0	42	0	590348288	23	4872
2026-01-14 11:27:01.29	52.90	48.13	-30.7	-33.2	19.4	6.06e-01	0	42	0	591921152	23	4782
2026-01-14 11:27:02.29	52.18	48.07	-30.4	-32.7	20.0	6.07e-01	0	42	0	594018304	22	4731
2026-01-14 11:27:03.30	51.47	48.00	-30.8	-33.9	19.3	6.06e-01	0	42	0	595591168	22	5155
2026-01-14 11:27:04.30	50.76	47.92	-30.7	-33.6	19.5	6.07e-01	0	42	0	597688320	22	5028
2026-01-14 11:27:05.31	50.05	47.84	-30.8	-33.8	19.3	6.06e-01	0	42	0	599261184	22	5099
2026-01-14 11:27:06.31	49.36	47.76	-30.4	-32.8	20.0	6.05e-01	0	42	0	601358336	22	4745
2026-01-14 11:27:07.31	48.66	47.67	-30.3	-32.6	20.1	6.07e-01	0	42	0	603455488	22	4685
2026-01-14 11:27:08.31	47.97	47.58	-30.0	-31.9	20.5	6.07e-01	0	42	0	605028352	22	4454
2026-01-14 11:27:09.31	47.29	47.48	-30.0	-31.8	20.6	6.06e-01	0	42	0	607125504	22	4427
2026-01-14 11:27:10.31	46.61	47.38	-30.1	-32.1	20.4	6.08e-01	0	42	0	608698368	22	4545
2026-01-14 11:27:11.32	45.92	47.27	-30.2	-32.4	20.2	6.06e-01	0	42	0	610795520	22	4632
2026-01-14 11:27:12.32	45.25	47.16	-30.0	-31.8	20.6	6.07e-01	0	42	0	612368384	22	4436
2026-01-14 11:27:13.32	44.58	47.05	-30.0	-31.8	20.5	6.07e-01	0	42	0	614465536	22	4433
2026-01-14 11:27:14.32	43.92	46.94	-30.2	-32.4	20.2	6.05e-01	0	42	0	616562688	22	4642
2026-01-14 11:27:15.32	43.26	46.81	-30.2	-32.4	20.2	6.07e-01	0	42	0	618135552	22	4634
2026-01-14 11:27:16.33	42.61	46.69	-30.1	-32.2	20.3	6.08e-01	0	42	0	620232704	22	4569
2026-01-14 11:27:17.33	41.96	46.56	-30.1	-32.2	20.3	6.06e-01	0	42	0	621805568	22	4555
2026-01-14 11:27:18.33	41.32	46.43	-30.6	-33.5	19.6	6.05e-01	0	42	0	623902720	22	4988
2026-01-14 11:27:19.34	40.68	46.29	-30.5	-33.2	19.7	6.08e-01	0	42	0	625999872	22	4884
2026-01-14 11:27:20.34	40.05	46.16	-30.3	-32.7	20.0	6.09e-01	0	42	0	627572736	22	4729
2026-01-14 11:27:21.34	39.42	46.01	-30.0	-31.8	20.5	6.08e-01	0	42	0	629669888	22	4436
2026-01-14 11:27:22.34	38.81	45.87	-29.9	-31.7	20.6	6.05e-01	0	42	0	631242752	22	4415
2026-01-14 11:27:23.34	38.19	45.72	-30.1	-32.0	20.4	6.06e-01	0	42	0	633339904	22	4518
2026-01-14 11:27:24.34	37.59	45.57	-29.7	-31.7	20.8	6.08e-01	0	42	0	635437056	21	4523
2026-01-14 11:27:25.34	36.99	45.42	-29.7	-31.6	20.9	6.05e-01	0	42	0	637009920	21	4497
2026-01-14 11:27:26.34	36.39	45.26	-30.2	-32.9	20.1	6.04e-01	0	42	0	639107072	21	4906
2026-01-14 11:27:27.34	35.80	45.10	-30.1	-32.7	20.3	6.07e-01	0	42	0	640679936	21	4843
2026-01-14 11:27:28.34	35.22	44.94	-30.0	-32.3	20.5	6.09e-01	0	42	0	642777088	21	4721
2026-01-14 11:27:29.34	34.64	44.78	-30.2	-32.9	20.1	6.08e-01	0	42	0	644349952	21	4911
2026-01-14 11:27:30.34	34.07	44.61	-30.2	-32.8	20.2	6.07e-01	0	42	0	646447104	21	4890
2026-01-14 11:27:31.34	33.51	44.44	-30.1	-32.7	20.3	6.04e-01	0	42	0	648544256	21	4828
2026-01-14 11:27:32.34	32.95	44.27	-30.0	-32.5	20.4	6.09e-01	0	42	0	650117120	21	4762
2026-01-14 11:27:33.34	32.40	44.10	-29.8	-31.8	20.8	6.07e-01	0	42	0	652214272	21	4551
2026-01-14 11:27:34.34	31.85	43.92	-30.1	-32.7	20.3	6.07e-01	0	42	0	653787136	21	4839
2026-01-14 11:27:35.35	31.31	43.74	-30.2	-32.8	20.2	6.06e-01	0	42	0	655884288	21	4876
2026-01-14 11:27:36.34	30.78	43.57	-30.1	-32.6	20.3	6.07e-01	0	42	0	657457152	21	4817
2026-01-14 11:27:37.35	30.25	43.38	-30.0	-32.3	20.5	6.06e-01	0	42	0	659554304	21	4699
2026-01-14 11:27:38.35	29.72	43.20	-30.0	-32.5	20.4	6.07e-01	0	42	0	661651456	21	4766
2026-01-14 11:27:39.35	29.21	43.02	-30.3	-33.2	20.0	6.08e-01	0	42	0	663224320	21	4998
2026-01-14 11:27:40.36	28.69	42.83	-30.2	-32.9	20.1	6.07e-01	0	42	0	665321472	21	4925
2026-01-14 11:27:41.36	28.19	42.64	-30.0	-32.4	20.4	6.07e-01	0	42	0	666894336	21	4758
2026-01-14 11:27:42.37	27.69	42.45	-30.1	-32.5	20.3	6.07e-01	0	42	0	668991488	21	4782
2026-01-14 11:27:43.37	27.20	42.26	-29.9	-32.1	20.6	6.06e-01	0	42	0	670564352	21	4657
2026-01-14 11:27:44.37	26.71	42.07	-30.2	-32.8	20.2	6.06e-01	0	42	0	672661504	21	4867
2026-01-14 11:27:45.38	26.23	41.87	-30.3	-33.0	20.1	6.05e-01	0	42	0	674758656	21	4955
2026-01-14 11:27:46.38	25.75	41.68	-30.2	-32.8	20.2	6.07e-01	0	42	0	676331520	21	4865
2026-01-14 11:27:47.37	25.29	41.49	-30.2	-32.8	20.2	6.06e-01	0	42	0	678428672	21	4874
2026-01-14 11:27:48.38	24.83	41.29	-30.4	-33.3	19.9	6.08e-01	0	42	0	680001536	21	5047
2026-01-14 11:27:49.38	24.37	41.09	-30.2	-32.9	20.1	6.07e-01	0	42	0	682098688	21	4910
2026-01-14 11:27:50.39	23.91	40.89	-30.5	-33.6	19.7	6.05e-01	0	42	0	684195840	21	5142
2026-01-14 11:27:51.39	23.47	40.69	-30.4	-33.5	19.7	6.06e-01	0	42	0	685768704	21	5123
2026-01-14 11:27:52.40	23.03	40.49	-30.4	-33.5	19.8	6.08e-01	0	42	0	687865856	21	5112
2026-01-14 11:27:53.40	22.59	40.29	-30.7	-33.5	19.4	6.06e-01	0	42	0	689438720	22	5021
2026-01-14 11:27:54.40	22.16	40.09	-30.8	-34.0	19.2	6.07e-01	0	42	0	691535872	22	5173
2026-01-14 11:27:55.40	21.74	39.89	-30.8	-34.1	19.1	6.06e-01	0	42	0	693633024	22	5212
2026-01-14 11:27:56.41	21.32	39.69	-30.6	-33.5	19.5	6.06e-01	0	42	0	695205888	22	4996
2026-01-14 11:27:57.41	20.91	39.48	-30.7	-33.6	19.4	6.04e-01	0	42	0	697303040	22	5047
2026-01-14 11:27:58.42	20.50	39.28	-30.8	-33.8	19.3	6.05e-01	0	42	0	698875904	22	5116
2026-01-14 11:27:59.42	20.09	39.08	-30.8	-33.9	19.2	6.07e-01	0	42	0	700973056	22	5140
2026-01-14 11:28:00.42	19.70	38.87	-30.6	-33.5	19.4	6.05e-01	0	42	0	702545920	22	4998
2026-01-14 11:28:01.42	19.31	38.67	-30.8	-34.1	19.1	6.04e-01	0	42	0	704643072	22	5211
2026-01-14 11:28:02.42	18.92	38.47	-31.1	-34.2	18.6	6.06e-01	0	42	0	706740224	23	5168
2026-01-14 11:28:03.43	18.54	38.26	-30.7	-33.2	19.2	6.10e-01	0	42	0	708313088	23	4804
2026-01-14 11:28:04.43	18.16	38.06	-30.7	-33.2	19.3	6.05e-01	0	42	0	710410240	23	4783
2026-01-14 11:28:05.44	17.78	37.85	-30.7	-33.2	19.3	6.06e-01	0	42	0	711983104	23	4781
2026-01-14 11:28:06.44	17.42	37.65	-30.6	-33.0	19.4	6.07e-01	0	42	0	714080256	23	4715
2026-01-14 11:28:07.44	17.05	37.44	-30.8	-33.5	19.1	6.08e-01	0	42	0	716177408	23	4894
2026-01-14 11:28:08.44	16.70	37.24	-31.0	-34.1	18.7	6.06e-01	0	42	0	717750272	23	5108
2026-01-14 11:28:09.45	16.34	37.03	-30.9	-33.7	18.9	6.07e-01	0	42	0	719847424	23	4987
2026-01-14 11:28:10.45	15.99	36.83	-30.7	-33.1	19.3	6.07e-01	0	42	0	721420288	23	4771
2026-01-14 11:28:11.45	15.65	36.63	-31.1	-34.2	18.7	6.08e-01	0	42	0	723517440	23	5161
2026-01-14 11:28:12.45	15.31	36.42	-31.4	-35.2	18.0	6.06e-01	0	42	0	725614592	23	5565
2026-01-14 11:28:13.45	14.97	36.22	-31.0	-34.0	18.7	6.08e-01	0	42	0	727187456	23	5083
2026-01-14 11:28:14.45	14.64	36.02	-30.9	-33.6	19.0	6.08e-01	0	42	0	729284608	23	4928
2026-01-14 11:28:15.46	14.31	35.81	-31.2	-34.5	18.5	6.08e-01	0	42	0	730857472	23	5282
2026-01-14 11:28:16.46	13.99	35.61	-31.3	-34.9	18.2	6.07e-01	0	42	0	732954624	23	5433
2026-01-14 11:28:17.47	13.67	35.41	-31.2	-34.6	18.4	6.07e-01	0	42	0	734527488	23	5306
2026-01-14 11:28:18.47	13.36	35.21	-31.4	-35.0	18.2	6.07e-01	0	42	0	736624640	23	5476
2026-01-14 11:28:19.48	13.04	35.00	-31.6	-35.2	17.7	6.05e-01	0	42	0	738721792	24	5433
2026-01-14 11:28:20.48	12.74	34.80	-31.3	-34.2	18.3	6.04e-01	0	42	0	740294656	24	5052
2026-01-14 11:28:21.49	12.43	34.60	-30.8	-33.6	19.0	6.07e-01	0	42	0	742391808	23	4932
2026-01-14 11:28:22.48	12.13	34.40	-30.8	-33.4	19.1	6.08e-01	0	42	0	743964672	23	4887
2026-01-14 11:28:23.48	11.84	34.20	-31.1	-34.2	18.6	6.04e-01	0	42	0	746061824	23	5168
2026-01-14 11:28:24.48	11.55	34.00	-30.9	-33.8	18.8	6.04e-01	0	42	0	748158976	23	5008
2026-01-14 11:28:25.48	11.26	33.81	-30.5	-32.7	19.5	6.02e-01	0	42	0	749731840	23	4633
2026-01-14 11:28:26.48	10.98	33.61	-30.6	-33.0	19.4	6.04e-01	0	42	0	751828992	23	4716
2026-01-14 11:28:27.48	10.70	33.41	-30.9	-33.6	19.0	6.04e-01	0	42	0	753401856	23	4956
2026-01-14 11:28:28.48	10.42	33.22	-30.8	-33.5	19.0	6.00e-01	0	42	0	755499008	23	4926
2026-01-14 11:28:29.49	10.14	33.02	-31.0	-33.9	18.8	6.02e-01	0	42	0	757596160	23	5040
2026-01-14 11:28:30.49	9.87	32.82	-31.0	-33.9	18.8	6.04e-01	0	42	0	759169024	23	5034
2026-01-14 11:28:31.50	9.61	32.63	-30.9	-33.7	18.9	6.03e-01	0	42	0	761266176	23	4971
2026-01-14 11:28:32.49	9.35	32.44	-30.6	-33.1	19.3	6.03e-01	0	42	0	762839040	23	4771
2026-01-14 11:28:33.50	9.08	32.24	-30.2	-32.3	20.0	6.03e-01	0	42	0	764936192	22	4622
2026-01-14 11:28:34.50	8.83	32.05	-29.7	-31.7	20.7	6.00e-01	0	42	0	766509056	21	4544
2026-01-14 11:28:35.50	8.57	31.86	-29.7	-31.7	20.7	6.03e-01	0	42	0	768606208	21	4529
2026-01-14 11:28:36.50	8.32	31.67	-29.8	-32.0	20.5	6.01e-01	0	42	0	770703360	21	4640
2026-01-14 11:28:37.50	8.07	31.48	-29.9	-32.2	20.3	6.04e-01	0	42	0	772276224	21	4705
2026-01-14 11:28:38.50	7.83	31.29	-29.7	-31.7	20.6	6.03e-01	0	42	0	774373376	21	4525
2026-01-14 11:28:39.50	7.59	31.10	-29.6	-31.5	20.7	6.02e-01	0	42	0	775946240	21	4468
2026-01-14 11:28:40.50	7.35	30.91	-29.9	-32.1	20.4	6.03e-01	0	42	0	778043392	21	4669
2026-01-14 11:28:41.50	7.11	30.72	-29.9	-32.1	20.4	6.05e-01	0	42	0	779616256	21	4668
2026-01-14 11:28:42.50	6.88	30.53	-29.6	-31.5	20.7	6.04e-01	0	42	0	781713408	21	4483
2026-01-14 11:28:43.50	6.65	30.35	-29.5	-31.3	20.9	6.03e-01	0	42	0	783810560	21	4417
2026-01-14 11:28:44.51	6.42	30.16	-29.7	-31.6	20.7	6.04e-01	0	42	0	785383424	21	4508
2026-01-14 11:28:45.52	6.20	29.98	-29.7	-31.9	20.5	6.03e-01	0	42	0	787480576	21	4591
2026-01-14 11:28:46.53	5.97	29.79	-29.7	-31.8	20.6	6.01e-01	0	42	0	789053440	21	4567
2026-01-14 11:28:47.53	5.75	29.61	-29.7	-31.7	20.6	6.03e-01	0	42	0	791150592	21	4528
2026-01-14 11:28:48.53	5.54	29.43	-29.8	-32.0	20.5	6.02e-01	0	42	0	793247744	21	4621
2026-01-14 11:28:49.54	5.32	29.24	-29.9	-32.2	20.3	6.01e-01	0	42	0	794820608	21	4708
2026-01-14 11:28:50.54	5.11	29.06	-30.2	-32.9	19.9	6.02e-01	0	42	0	796917760	21	4938
2026-01-14 11:28:51.54	4.90	28.88	-30.4	-33.6	19.4	6.02e-01	0	42	0	798490624	21	5203
2026-01-14 11:28:52.54	4.69	28.71	-30.4	-33.4	19.5	6.03e-01	0	42	0	800587776	21	5109
2026-01-14 11:28:53.54	4.49	28.53	-30.1	-32.7	20.0	6.03e-01	0	42	0	802684928	21	4868
2026-01-14 11:28:54.55	4.28	28.35	-30.0	-32.6	20.1	6.02e-01	0	42	0	804257792	21	4817
2026-01-14 11:28:55.55	4.08	28.17	-30.2	-32.9	19.9	6.02e-01	0	42	0	806354944	21	4947
2026-01-14 11:28:56.55	3.89	28.00	-30.3	-33.3	19.6	6.03e-01	0	42	0	807927808	21	5092
2026-01-14 11:28:57.56	3.69	27.82	-30.4	-33.5	19.5	6.03e-01	0	42	0	810024960	21	5144
2026-01-14 11:28:58.56	3.50	27.65	-30.4	-33.6	19.5	6.04e-01	0	42	0	811597824	21	5188
2026-01-14 11:28:59.56	3.31	27.48	-30.3	-33.3	19.7	6.02e-01	0	42	0	813694976	21	5062
2026-01-14 11:29:00.56	3.12	27.30	-30.0	-32.6	20.0	6.01e-01	0	42	0	815792128	21	4830
2026-01-14 11:29:01.56	2.93	27.13	-30.0	-32.5	20.1	6.04e-01	0	42	0	817364992	21	4808
2026-01-14 11:29:02.56	2.75	26.96	-30.2	-33.1	19.8	6.00e-01	0	42	0	819462144	21	5004
2026-01-14 11:29:03.56	2.57	26.79	-30.3	-33.3	19.6	6.04e-01	0	42	0	821035008	21	5080
2026-01-14 11:29:04.57	2.38	26.62	-30.2	-33.0	19.8	6.01e-01	0	42	0	823132160	21	4981
2026-01-14 11:29:05.57	2.21	26.46	-30.1	-32.7	19.9	6.04e-01	0	42	0	824705024	21	4876
2026-01-14 11:29:06.58	2.03	26.29	-30.1	-32.8	19.9	6.00e-01	0	42	0	826802176	21	4887
2026-01-14 11:29:07.58	1.85	26.12	-30.3	-33.2	19.6	6.01e-01	0	42	0	828899328	21	5059
2026-01-14 11:29:08.58	1.68	25.96	-30.2	-33.1	19.7	6.01e-01	0	42	0	830472192	21	5020
2026-01-14 11:29:09.59	1.51	25.79	-30.1	-32.8	19.9	6.03e-01	0	42	0	832569344	21	4912
2026-01-14 11:29:10.59	1.34	25.63	-30.1	-32.7	20.0	6.03e-01	0	42	0	834142208	21	4867
2026-01-14 11:29:11.59	1.18	25.46	-30.2	-33.1	19.7	6.06e-01	0	42	0	836239360	21	4999
2026-01-14 11:29:12.60	1.01	25.30	-30.4	-33.6	19.4	6.05e-01	0	42	0	838336512	21	5215
2026-01-14 11:29:13.60	0.85	25.14	-30.4	-33.6	19.4	6.03e-01	0	42	0	839909376	21	5198
2026-01-14 11:29:14.60	0.68	24.98	-30.2	-33.1	19.7	6.03e-01	0	42	0	842006528	21	5006
2026-01-14 11:29:15.61	0.52	24.82	-30.1	-32.8	19.8	6.05e-01	0	42	0	843579392	21	4926
2026-01-14 11:29:16.60	0.37	24.66	-30.1	-32.8	19.8	6.04e-01	0	42	0	845676544	21	4922
2026-01-14 11:29:17.59	0.21	24.50	-30.1	-32.8	19.8	6.03e-01	0	42	0	847773696	21	4916
2026-01-14 11:29:18.60	0.06	24.34	-30.2	-33.0	19.7	6.00e-01	0	42	0	849346560	21	4989
2026-01-14 11:29:19.60	359.90	24.19	-30.2	-33.0	19.7	6.05e-01	0	42	0	851443712	21	4969
2026-01-14 11:29:20.61	359.75	24.03	-30.1	-32.7	19.9	6.04e-01	0	42	0	853016576	21	4871
2026-01-14 11:29:21.62	359.60	23.88	-30.1	-32.9	19.8	6.01e-01	0	42	0	855113728	21	4933
2026-01-14 11:29:22.61	359.45	23.72	-30.1	-32.9	19.7	6.03e-01	0	42	0	856686592	21	4963
2026-01-14 11:29:23.62	359.31	23.57	-30.1	-32.9	19.7	6.02e-01	0	42	0	858783744	21	4945
2026-01-14 11:29:24.62	359.16	23.42	-30.2	-33.2	19.5	6.04e-01	0	42	0	860880896	21	5051
2026-01-14 11:29:25.61	359.02	23.27	-30.3	-33.2	19.5	6.04e-01	0	42	0	862453760	21	5060
2026-01-14 11:29:26.62	358.88	23.11	-30.2	-33.2	19.6	6.01e-01	0	42	0	864550912	21	5038
2026-01-14 11:29:27.62	358.74	22.96	-30.2	-33.2	19.6	6.03e-01	0	42	0	866123776	21	5044
2026-01-14 11:29:28.62	358.60	22.81	-30.3	-33.2	19.5	6.04e-01	0	42	0	868220928	21	5066
2026-01-14 11:29:29.61	358.46	22.67	-30.3	-33.4	19.4	6.05e-01	0	42	0	869793792	21	5139
2026-01-14 11:29:30.62	358.32	22.52	-30.4	-33.6	19.3	6.03e-01	0	42	0	871890944	21	5224
2026-01-14 11:29:31.62	358.19	22.37	-30.4	-33.7	19.2	6.04e-01	0	42	0	873988096	21	5245
2026-01-14 11:29:32.63	358.05	22.22	-30.3	-33.3	19.5	6.02e-01	0	42	0	875560960	21	5092
2026-01-14 11:29:33.64	357.92	22.08	-30.1	-33.0	19.6	6.02e-01	0	42	0	877658112	21	4977
2026-01-14 11:29:34.64	357.79	21.93	-30.1	-32.9	19.7	6.03e-01	0	42	0	879230976	21	4959
2026-01-14 11:29:35.65	357.66	21.79	-30.1	-32.8	19.7	6.02e-01	0	42	0	881328128	21	4931
2026-01-14 11:29:36.65	357.53	21.64	-30.0	-32.5	19.9	6.03e-01	0	42	0	883425280	21	4813
2026-01-14 11:29:37.65	357.40	21.50	-29.9	-32.4	20.0	6.03e-01	0	42	0	884998144	21	4790
2026-01-14 11:29:38.66	357.28	21.36	-30.1	-32.9	19.7	6.01e-01	0	42	0	887095296	21	4935
2026-01-14 11:29:39.66	357.15	21.22	-30.2	-33.1	19.6	6.03e-01	0	42	0	888668160	21	5022
2026-01-14 11:29:40.67	357.03	21.08	-30.2	-33.1	19.6	6.02e-01	0	42	0	890765312	21	5021
2026-01-14 11:29:41.67	356.91	20.94	-30.2	-33.2	19.4	6.03e-01	0	42	0	892862464	21	5074
2026-01-14 11:29:42.67	356.78	20.80	-30.3	-33.3	19.4	6.01e-01	0	42	0	894435328	21	5115
2026-01-14 11:29:43.67	356.67	20.66	-30.2	-33.2	19.4	6.04e-01	0	42	0	896532480	21	5083
2026-01-14 11:29:44.68	356.55	20.52	-30.3	-33.4	19.4	6.04e-01	0	42	0	898105344	21	5120
2026-01-14 11:29:45.68	356.43	20.38	-30.2	-33.1	19.5	6.01e-01	0	42	0	900202496	21	5037
2026-01-14 11:29:46.68	356.31	20.25	-30.1	-32.9	19.6	6.00e-01	0	42	0	902299648	21	4972
2026-01-14 11:29:47.69	356.20	20.11	-30.2	-33.1	19.5	6.02e-01	0	42	0	903872512	21	5022
2026-01-14 11:29:48.70	356.08	19.97	-30.3	-33.3	19.4	6.03e-01	0	42	0	905969664	21	5106
2026-01-14 11:29:49.70	355.97	19.84	-30.2	-33.2	19.4	6.03e-01	0	42	0	907542528	21	5059
2026-01-14 11:29:50.70	355.86	19.71	-30.1	-32.9	19.6	6.03e-01	0	42	0	909639680	21	4953
2026-01-14 11:29:51.70	355.75	19.57	-30.1	-33.0	19.6	6.06e-01	0	42	0	911212544	21	4980
2026-01-14 11:29:52.71	355.63	19.44	-30.1	-32.7	19.8	6.03e-01	0	42	0	913309696	21	4901
2026-01-14 11:29:53.72	355.52	19.31	-30.1	-32.9	19.7	6.03e-01	0	42	0	915406848	21	4955
2026-01-14 11:29:54.72	355.42	19.18	-30.1	-32.9	19.7	6.05e-01	0	42	0	916979712	21	4952
2026-01-14 11:29:55.71	355.31	19.05	-30.1	-32.9	19.6	6.01e-01	0	42	0	919076864	21	4964
2026-01-14 11:29:56.72	355.20	18.92	-30.2	-33.1	19.5	6.00e-01	0	42	0	920649728	21	5035
2026-01-14 11:29:57.72	355.10	18.79	-30.1	-33.0	19.6	6.04e-01	0	42	0	922746880	21	4983
2026-01-14 11:29:58.71	355.00	18.66	-30.1	-32.9	19.6	6.01e-01	0	42	0	924844032	21	4948
2026-01-14 11:29:59.72	354.89	18.53	-30.1	-32.8	19.7	6.05e-01	0	42	0	926416896	21	4922
2026-01-14 11:30:00.73	354.79	18.41	-30.2	-33.0	19.5	6.04e-01	0	42	0	928514048	21	5012
2026-01-14 11:30:01.73	354.69	18.28	-30.1	-32.8	19.7	6.06e-01	0	42	0	930086912	21	4941
2026-01-14 11:30:02.73	354.59	18.15	-30.2	-33.0	19.5	6.01e-01	0	42	0	932184064	21	5007
2026-01-14 11:30:03.73	354.49	18.03	-30.1	-33.0	19.6	6.01e-01	0	42	0	934281216	21	4994
2026-01-14 11:30:04.72	354.39	17.91	-30.2	-33.2	19.4	6.05e-01	0	42	0	935854080	21	5079
2026-01-14 11:30:05.72	354.30	17.78	-30.1	-33.0	19.6	6.01e-01	0	42	0	937951232	21	4994
2026-01-14 11:30:06.73	354.20	17.66	-30.3	-33.3	19.3	6.03e-01	0	42	0	939524096	21	5117
2026-01-14 11:30:07.73	354.10	17.53	-30.2	-33.2	19.5	6.03e-01	0	42	0	941621248	21	5054
2026-01-14 11:30:08.72	354.01	17.41	-30.1	-32.9	19.6	6.04e-01	0	42	0	943194112	21	4961
2026-01-14 11:30:09.73	353.91	17.29	-30.1	-32.9	19.6	6.03e-01	0	42	0	945291264	21	4964
2026-01-14 11:30:10.73	353.82	17.17	-30.1	-32.9	19.6	6.03e-01	0	42	0	947388416	21	4960
2026-01-14 11:30:11.74	353.73	17.05	-30.1	-33.0	19.5	6.04e-01	0	42	0	948961280	21	4999
2026-01-14 11:30:12.73	353.64	16.93	-30.1	-32.9	19.6	6.02e-01	0	42	0	951058432	21	4979
2026-01-14 11:30:13.74	353.55	16.81	-30.2	-33.3	19.4	6.03e-01	0	42	0	952631296	21	5103
2026-01-14 11:30:14.73	353.46	16.69	-30.2	-33.2	19.4	6.02e-01	0	42	0	954728448	21	5086
2026-01-14 11:30:15.73	353.37	16.57	-30.2	-33.2	19.3	6.02e-01	0	42	0	956301312	21	5095
2026-01-14 11:30:16.73	353.28	16.46	-30.2	-33.3	19.3	6.06e-01	0	42	0	958398464	21	5105
2026-01-14 11:30:17.73	353.19	16.34	-30.3	-33.5	19.2	6.02e-01	0	42	0	959971328	21	5179
2026-01-14 11:30:18.73	353.11	16.22	-30.3	-33.3	19.2	6.03e-01	0	42	0	962068480	21	5118
2026-01-14 11:30:19.73	353.02	16.11	-30.3	-33.5	19.1	6.01e-01	0	42	0	964165632	21	5178
2026-01-14 11:30:20.73	352.93	15.99	-30.2	-33.3	19.3	6.02e-01	0	42	0	965738496	21	5104
2026-01-14 11:30:21.73	352.85	15.88	-30.1	-33.0	19.4	6.01e-01	0	42	0	967835648	21	5006
2026-01-14 11:30:22.73	352.77	15.76	-30.1	-32.9	19.5	6.04e-01	0	42	0	969932800	21	4960
2026-01-14 11:30:23.73	352.68	15.65	-30.1	-33.0	19.4	6.02e-01	0	42	0	971505664	21	5001
2026-01-14 11:30:24.73	352.60	15.54	-30.1	-33.0	19.4	6.03e-01	0	42	0	973602816	21	5024
2026-01-14 11:30:25.74	352.52	15.42	-30.2	-33.1	19.4	6.02e-01	0	42	0	975175680	21	5051
2026-01-14 11:30:26.74	352.44	15.31	-30.1	-33.0	19.5	6.03e-01	0	42	0	977272832	21	4998
2026-01-14 11:30:27.75	352.36	15.20	-30.3	-33.4	19.2	6.01e-01	0	42	0	978845696	21	5170
2026-01-14 11:30:28.75	352.28	15.09	-30.3	-33.4	19.2	6.04e-01	0	42	0	980942848	21	5149
2026-01-14 11:30:29.75	352.20	14.98	-30.2	-33.2	19.3	6.03e-01	0	42	0	983040000	21	5076
2026-01-14 11:30:30.76	352.12	14.87	-30.1	-33.0	19.4	6.06e-01	0	42	0	984612864	21	5024
2026-01-14 11:30:31.76	352.04	14.76	-30.3	-33.4	19.2	6.01e-01	0	42	0	986710016	21	5154
2026-01-14 11:30:32.77	351.96	14.65	-30.2	-33.2	19.3	6.05e-01	0	42	0	988282880	21	5092
2026-01-14 11:30:33.77	351.88	14.54	-30.1	-32.9	19.5	6.05e-01	0	42	0	990380032	21	4970
2026-01-14 11:30:34.77	351.81	14.43	-30.0	-32.8	19.5	6.01e-01	0	42	0	991952896	21	4937
2026-01-14 11:30:35.78	351.73	14.32	-30.0	-32.7	19.6	6.04e-01	0	42	0	994050048	21	4920
2026-01-14 11:30:36.78	351.66	14.21	-30.2	-33.1	19.3	6.01e-01	0	42	0	996147200	21	5061
2026-01-14 11:30:37.79	351.58	14.11	-30.1	-32.9	19.4	6.03e-01	0	42	0	997720064	21	4971
2026-01-14 11:30:38.80	351.51	14.00	-30.2	-33.2	19.3	6.03e-01	0	42	0	999817216	21	5094
2026-01-14 11:30:39.80	351.44	13.89	-30.2	-33.1	19.3	6.02e-01	0	42	0	1001390080	21	5061
2026-01-14 11:30:40.80	351.36	13.79	-30.2	-33.2	19.3	6.01e-01	0	42	0	1003487232	21	5075
2026-01-14 11:30:41.80	351.29	13.68	-30.2	-33.2	19.2	6.03e-01	0	42	0	1005584384	21	5087
2026-01-14 11:30:42.81	351.22	13.58	-30.3	-33.6	19.0	6.02e-01	0	42	0	1007157248	21	5245
2026-01-14 11:30:43.81	351.15	13.47	-30.2	-33.3	19.1	6.02e-01	0	42	0	1009254400	21	5128
2026-01-14 11:30:44.81	351.08	13.37	-30.5	-34.0	18.7	6.03e-01	0	42	0	1010827264	21	5411
2026-01-14 11:30:45.81	351.01	13.27	-30.4	-33.7	18.9	6.02e-01	0	42	0	1012924416	21	5295
2026-01-14 11:30:46.82	350.94	13.16	-30.3	-33.6	19.0	6.01e-01	0	42	0	1015021568	21	5231
2026-01-14 11:30:47.82	350.87	13.06	-30.2	-33.3	19.1	6.02e-01	0	42	0	1016594432	21	5147
2026-01-14 11:30:48.83	350.80	12.96	-30.3	-33.4	19.1	6.00e-01	0	42	0	1018691584	21	5180
2026-01-14 11:30:49.83	350.74	12.86	-30.3	-33.4	19.1	6.03e-01	0	42	0	1020264448	21	5177
2026-01-14 11:30:50.84	350.67	12.76	-30.2	-33.4	19.1	6.03e-01	0	42	0	1022361600	21	5162
2026-01-14 11:30:51.84	350.60	12.66	-30.2	-33.3	19.1	6.01e-01	0	42	0	1024458752	21	5122
2026-01-14 11:30:52.85	350.54	12.56	-30.4	-33.7	18.9	6.01e-01	0	42	0	1026031616	21	5290
2026-01-14 11:30:53.85	350.47	12.46	-30.3	-33.5	19.0	6.03e-01	0	42	0	1028128768	21	5203
2026-01-14 11:30:54.85	350.41	12.36	-30.2	-33.3	19.1	6.04e-01	0	42	0	1029701632	21	5148
2026-01-14 11:30:55.85	350.34	12.26	-30.2	-33.3	19.1	6.06e-01	0	42	0	1031798784	21	5122
2026-01-14 11:30:56.86	350.28	12.16	-30.1	-33.1	19.2	6.00e-01	0	42	0	1033371648	21	5063
2026-01-14 11:30:57.86	350.21	12.06	-30.3	-33.4	19.0	6.04e-01	0	42	0	1035468800	21	5182
2026-01-14 11:30:58.85	350.15	11.96	-30.2	-33.2	19.1	6.01e-01	0	42	0	1037565952	21	5105
2026-01-14 11:30:59.86	350.09	11.87	-30.2	-33.4	19.0	6.01e-01	0	42	0	1039138816	21	5170
2026-01-14 11:31:00.86	350.03	11.77	-30.3	-33.5	18.9	6.04e-01	0	42	0	1041235968	21	5221
2026-01-14 11:31:01.86	349.97	11.67	-30.4	-33.8	18.7	6.02e-01	0	42	0	1042808832	21	5347
2026-01-14 11:31:02.87	349.90	11.58	-30.2	-33.4	18.9	6.04e-01	0	42	0	1044905984	21	5183
2026-01-14 11:31:03.87	349.84	11.48	-30.3	-33.5	18.9	6.03e-01	0	42	0	1046478848	21	5212
2026-01-14 11:31:04.87	349.78	11.39	-30.5	-34.1	18.5	6.02e-01	0	42	0	1048576000	21	5445
2026-01-14 11:31:05.87	349.72	11.29	-30.4	-33.9	18.6	6.04e-01	0	42	0	1050673152	21	5384
2026-01-14 11:31:06.88	349.66	11.20	-30.3	-33.6	18.8	6.03e-01	0	42	0	1052246016	21	5243
2026-01-14 11:31:07.88	349.61	11.10	-30.3	-33.6	18.8	6.02e-01	0	42	0	1054343168	21	5246
2026-01-14 11:31:08.88	349.55	11.01	-30.4	-33.7	18.7	6.02e-01	0	42	0	1056440320	21	5317
2026-01-14 11:31:09.89	349.49	10.91	-30.3	-33.6	18.8	6.04e-01	0	42	0	1058013184	21	5244
2026-01-14 11:31:10.89	349.43	10.82	-30.3	-33.7	18.7	6.04e-01	0	42	0	1060110336	21	5292
2026-01-14 11:31:11.90	349.37	10.73	-30.3	-33.6	18.8	6.04e-01	0	42	0	1061683200	21	5274
2026-01-14 11:31:12.90	349.32	10.64	-30.4	-33.8	18.7	6.02e-01	0	42	0	1063780352	21	5321
2026-01-14 11:31:13.90	349.26	10.54	-30.3	-33.5	18.8	6.02e-01	0	42	0	1065353216	21	5237
2026-01-14 11:31:14.90	349.21	10.45	-30.5	-34.0	18.5	6.05e-01	0	42	0	1067450368	21	5438
2026-01-14 11:31:15.90	349.15	10.36	-30.3	-33.5	18.7	6.02e-01	0	42	0	1069547520	21	5247
2026-01-14 11:31:16.90	349.10	10.27	-30.5	-34.0	18.5	6.04e-01	0	42	0	1071120384	21	5431
2026-01-14 11:31:17.90	349.04	10.18	-30.4	-33.9	18.6	6.02e-01	0	42	0	1073217536	21	5365
2026-01-14 11:31:18.91	348.99	10.09	-30.3	-33.7	18.6	6.03e-01	0	42	0	1074790400	21	5327
2026-01-14 11:31:19.91	348.93	10.00	-30.5	-34.1	18.4	6.03e-01	0	42	0	1076887552	21	5456
2026-01-14 11:31:20.91	348.88	9.91	-30.5	-34.1	18.4	6.02e-01	0	42	0	1078460416	21	5468
2026-01-14 11:31:21.91	348.83	9.82	-30.5	-34.2	18.3	6.04e-01	0	42	0	1080557568	21	5523
2026-01-14 11:31:22.91	348.77	9.73	-30.6	-34.5	18.2	6.02e-01	0	42	0	1082654720	21	5622
2026-01-14 11:31:23.91	348.72	9.64	-30.6	-34.0	18.1	6.01e-01	0	42	0	1084227584	22	5313
2026-01-14 11:31:24.91	348.67	9.56	-30.7	-34.1	18.1	6.02e-01	0	42	0	1086324736	22	5371
2026-01-14 11:31:25.91	348.62	9.47	-30.8	-34.5	17.8	6.03e-01	0	42	0	1087897600	22	5530
2026-01-14 11:31:26.92	348.57	9.38	-30.7	-34.3	17.9	6.02e-01	0	42	0	1089994752	22	5460
2026-01-14 11:31:27.92	348.51	9.29	-30.7	-34.2	18.0	6.04e-01	0	42	0	1092091904	22	5394
2026-01-14 11:31:28.92	348.46	9.21	-30.7	-34.2	18.0	6.02e-01	0	42	0	1093664768	22	5422
2026-01-14 11:31:29.92	348.41	9.12	-30.8	-34.5	17.8	6.03e-01	0	42	0	1095761920	22	5530
2026-01-14 11:31:30.92	348.36	9.03	-30.8	-34.7	17.6	6.03e-01	0	42	0	1097334784	22	5598
2026-01-14 11:31:31.93	348.31	8.95	-30.9	-35.0	17.5	6.02e-01	0	42	0	1099431936	22	5739
2026-01-14 11:31:32.93	348.27	8.86	-30.8	-34.7	17.6	6.05e-01	0	42	0	1101529088	22	5632
2026-01-14 11:31:33.93	348.22	8.78	-30.7	-34.4	17.8	6.02e-01	0	42	0	1103101952	22	5502
2026-01-14 11:31:34.94	348.17	8.69	-30.7	-34.3	17.8	6.03e-01	0	42	0	1105199104	22	5461
2026-01-14 11:31:35.95	348.12	8.60	-30.7	-34.2	17.9	6.02e-01	0	42	0	1106771968	22	5400
2026-01-14 11:31:36.94	348.07	8.52	-30.8	-34.7	17.6	6.02e-01	0	42	0	1108869120	22	5629
2026-01-14 11:31:37.95	348.02	8.44	-30.8	-34.5	17.7	6.04e-01	0	42	0	1110441984	22	5554
2026-01-14 11:31:38.95	347.98	8.35	-30.7	-34.2	17.9	6.05e-01	0	42	0	1112539136	22	5433
2026-01-14 11:31:39.95	347.93	8.27	-30.6	-34.1	18.0	6.02e-01	0	42	0	1114636288	22	5361
2026-01-14 11:31:40.95	347.88	8.19	-30.6	-34.1	17.9	6.02e-01	0	42	0	1116209152	22	5379
2026-01-14 11:31:41.95	347.84	8.10	-30.8	-34.7	17.6	6.02e-01	0	42	0	1118306304	22	5626
2026-01-14 11:31:42.95	347.79	8.02	-30.8	-34.6	17.6	6.02e-01	0	42	0	1119879168	22	5587
2026-01-14 11:31:43.95	347.75	7.94	-30.9	-34.8	17.5	6.02e-01	0	42	0	1121976320	22	5682
2026-01-14 11:31:44.96	347.70	7.85	-30.7	-34.3	17.8	6.02e-01	0	42	0	1123549184	22	5473
2026-01-14 11:31:45.96	347.65	7.77	-30.9	-34.9	17.4	6.04e-01	0	42	0	1125646336	22	5721
2026-01-14 11:31:46.96	347.61	7.69	-30.7	-34.3	17.8	6.03e-01	0	42	0	1127743488	22	5462
2026-01-14 11:31:47.97	347.57	7.61	-30.8	-34.7	17.5	6.01e-01	0	42	0	1129316352	22	5649
2026-01-14 11:31:48.98	347.52	7.53	-30.9	-34.8	17.4	6.04e-01	0	42	0	1131413504	22	5700
2026-01-14 11:31:49.98	347.48	7.45	-30.8	-34.7	17.5	6.02e-01	0	42	0	1133510656	22	5651
2026-01-14 11:31:50.98	347.43	7.37	-30.7	-34.4	17.7	6.05e-01	0	42	0	1135083520	22	5507
2026-01-14 11:31:51.98	347.39	7.29	-31.1	-35.3	16.7	6.03e-01	0	42	0	1137180672	23	5779
2026-01-14 11:31:52.99	347.35	7.21	-30.8	-34.3	17.4	6.06e-01	0	42	0	1138753536	23	5358
2026-01-14 11:31:53.99	347.30	7.13	-30.7	-34.0	17.5	6.01e-01	0	42	0	1140850688	23	5251
2026-01-14 11:31:55.00	347.26	7.05	-33.8	-48.1	4.1	7.38e-01	0	42	104	1141374976	28	18748
2026-01-14 11:31:56.00	347.22	6.97	-34.2	-52.6	3.8	7.42e-01	0	42	104	1141374976	29	29897
2026-01-14 11:31:57.00	347.18	6.89	-34.4	-53.8	3.8	7.46e-01	0	42	104	1141374976	29	33357

#Closed at: 2026-01-14 11:31:57
#Recorded file [1141 MB]: D:/data/31010_260114_142145.dat