passes_logs/2026/01/11/T1/T1__20260111_222147_NOAA_21_JPSS-2_rec.log

#Pass ID: 20260111_222147_NOAA 21 (JPSS-2)
#Satellite: NOAA 21 (JPSS-2)
#Configuration: NOAA 21
#almurnet v.1.7.20251203
#Start time: 2026-01-11 22:21:49

#Version: 2.0.20230620
#Station: T1
#Location: 37.570604 lon 55.790049 lat
#TLE: 1 54234U 22150A   26011.27699114  .00000090  00000+0  63771-4 0  9993
#TLE: 2 54234  98.7494 312.2218 0000765 314.9553  45.1561 14.19534106164285

#Time	Az	El	Level	Level2	SNR	BER	BlckErr	Temp	State	Recorded	gain1	gain2
2026-01-11 22:21:49.78	27.51	5.13	-49.8	-63.2	3.8	1.49e+00	0	38	0	0	71	16551
2026-01-11 22:21:50.76	27.59	5.19	-49.8	-63.2	3.8	1.49e+00	0	38	104	0	70	17511
2026-01-11 22:21:51.76	27.66	5.25	-49.8	-63.2	3.8	1.49e+00	0	38	104	0	70	17482
2026-01-11 22:21:52.75	27.74	5.31	-49.8	-63.2	3.8	1.49e+00	0	38	104	0	70	17522
2026-01-11 22:21:53.74	27.82	5.37	-49.8	-63.1	3.8	1.49e+00	0	38	104	0	70	17395
2026-01-11 22:21:54.74	27.90	5.44	-49.8	-63.1	3.8	1.49e+00	0	38	104	0	70	17363
2026-01-11 22:21:55.73	27.97	5.50	-49.8	-63.1	3.8	1.49e+00	0	38	104	0	70	17349
2026-01-11 22:21:56.72	28.05	5.56	-49.8	-63.0	3.8	1.49e+00	0	38	104	0	70	17276
2026-01-11 22:21:57.72	28.13	5.62	-49.8	-63.0	3.8	1.49e+00	0	38	104	0	70	17186
2026-01-11 22:21:58.71	28.21	5.68	-49.8	-63.0	3.8	1.49e+00	0	39	104	0	70	17171
2026-01-11 22:21:59.70	28.29	5.74	-49.8	-63.0	3.8	1.49e+00	0	39	104	0	70	17192
2026-01-11 22:22:00.69	28.37	5.81	-49.8	-63.0	3.8	1.49e+00	0	39	104	0	70	17223
2026-01-11 22:22:01.69	28.45	5.87	-49.8	-63.1	3.8	1.49e+00	0	39	104	0	70	17298
2026-01-11 22:22:02.68	28.53	5.93	-49.8	-63.0	3.8	1.49e+00	0	39	104	0	70	17231
2026-01-11 22:22:03.68	28.61	5.99	-49.8	-63.1	3.8	1.49e+00	0	39	104	0	70	17297
2026-01-11 22:22:04.67	28.69	6.06	-49.8	-63.0	3.8	1.49e+00	0	39	104	0	70	17228
2026-01-11 22:22:05.66	28.77	6.12	-49.8	-63.0	3.8	1.49e+00	0	39	104	0	70	17195
2026-01-11 22:22:06.65	28.86	6.18	-49.7	-63.0	3.8	1.49e+00	0	39	104	0	70	17157
2026-01-11 22:22:07.65	28.94	6.24	-49.8	-62.9	3.8	1.49e+00	0	39	104	0	70	17064
2026-01-11 22:22:08.64	29.02	6.31	-49.8	-62.9	3.8	1.49e+00	0	39	104	0	70	16976
2026-01-11 22:22:09.63	29.10	6.37	-49.7	-62.9	3.8	1.49e+00	0	39	104	0	70	16908
2026-01-11 22:22:10.63	29.19	6.43	-49.8	-62.8	3.8	1.49e+00	0	39	104	0	70	16787
2026-01-11 22:22:11.62	29.27	6.50	-49.8	-62.8	3.8	1.49e+00	0	39	104	0	70	16825
2026-01-11 22:22:12.61	29.35	6.56	-49.8	-62.8	3.8	1.49e+00	0	39	104	0	70	16763
2026-01-11 22:22:13.61	29.44	6.62	-49.8	-62.8	3.8	1.49e+00	0	39	104	0	70	16823
2026-01-11 22:22:14.60	29.52	6.69	-49.7	-62.8	3.8	1.49e+00	0	39	104	0	70	16886
2026-01-11 22:22:15.60	29.61	6.75	-49.7	-62.9	3.8	1.49e+00	0	39	104	0	70	16968
2026-01-11 22:22:16.59	29.69	6.81	-49.8	-62.9	3.8	1.49e+00	0	39	104	0	70	17003
2026-01-11 22:22:17.58	29.78	6.88	-49.7	-63.0	3.8	1.49e+00	0	39	104	0	70	17122
2026-01-11 22:22:18.58	29.86	6.94	-49.8	-63.0	3.8	1.49e+00	0	39	104	0	70	17126
2026-01-11 22:22:19.57	29.95	7.01	-49.7	-63.0	3.8	1.49e+00	0	39	104	0	70	17158
2026-01-11 22:22:20.56	30.04	7.07	-49.8	-63.0	3.8	1.49e+00	0	39	104	0	70	17208
2026-01-11 22:22:21.56	30.12	7.13	-49.8	-63.0	3.8	1.49e+00	0	39	104	0	70	17227
2026-01-11 22:22:22.55	30.21	7.20	-49.8	-62.9	3.8	1.49e+00	0	39	104	0	70	17054
2026-01-11 22:22:23.54	30.30	7.26	-49.8	-63.0	3.8	1.49e+00	0	39	104	0	70	17131
2026-01-11 22:22:24.54	30.39	7.33	-49.7	-63.0	3.8	1.49e+00	0	39	104	0	70	17084
2026-01-11 22:22:25.53	30.48	7.39	-49.7	-62.9	3.8	1.49e+00	0	39	104	0	70	17029
2026-01-11 22:22:26.52	30.56	7.46	-49.7	-63.0	3.8	1.49e+00	0	40	104	0	70	17087
2026-01-11 22:22:27.52	30.65	7.52	-49.7	-63.0	3.8	1.49e+00	0	39	104	0	70	17110
2026-01-11 22:22:28.51	30.74	7.59	-49.7	-63.0	3.8	1.49e+00	0	39	104	0	70	17248
2026-01-11 22:22:29.50	30.83	7.65	-49.7	-63.0	3.8	1.49e+00	0	39	104	0	70	17169
2026-01-11 22:22:30.50	30.92	7.72	-49.7	-63.1	3.8	1.49e+00	0	39	104	0	70	17313
2026-01-11 22:22:31.49	31.01	7.78	-49.7	-63.0	3.8	1.49e+00	0	39	104	0	70	17238
2026-01-11 22:22:32.48	31.11	7.85	-49.8	-63.0	3.8	1.49e+00	0	39	104	0	70	17182
2026-01-11 22:22:33.48	31.20	7.91	-49.7	-62.9	3.8	1.49e+00	0	39	104	0	70	17068
2026-01-11 22:22:34.47	31.29	7.98	-49.7	-62.9	3.8	1.49e+00	0	40	104	0	70	16921
2026-01-11 22:22:35.46	31.38	8.05	-49.7	-62.8	3.8	1.49e+00	0	39	104	0	70	16882
2026-01-11 22:22:36.46	31.47	8.11	-49.7	-62.9	3.8	1.49e+00	0	39	104	0	70	16913
2026-01-11 22:22:37.45	31.57	8.18	-49.7	-62.9	3.8	1.49e+00	0	39	104	0	70	16891
2026-01-11 22:22:38.44	31.66	8.24	-49.7	-62.8	3.8	1.49e+00	0	40	104	0	70	16795
2026-01-11 22:22:39.44	31.75	8.31	-49.7	-62.8	3.8	1.49e+00	0	40	104	0	70	16764
2026-01-11 22:22:40.43	31.85	8.38	-49.7	-62.9	3.8	1.49e+00	0	40	104	0	70	17018
2026-01-11 22:22:41.42	31.94	8.44	-49.7	-62.9	3.8	1.49e+00	0	40	104	0	70	17002
2026-01-11 22:22:42.42	32.04	8.51	-49.7	-63.1	3.8	1.49e+00	0	40	104	0	70	17363
2026-01-11 22:22:43.41	32.13	8.58	-49.8	-63.2	3.8	1.49e+00	0	40	104	0	70	17494
2026-01-11 22:22:44.40	32.23	8.64	-49.7	-63.1	3.8	1.49e+00	0	40	104	0	70	17319
2026-01-11 22:22:45.40	32.33	8.71	-49.7	-62.9	3.8	1.49e+00	0	40	104	0	70	16964
2026-01-11 22:22:46.39	32.42	8.78	-49.7	-62.6	3.8	1.49e+00	0	40	104	0	70	16416
2026-01-11 22:22:47.38	32.52	8.85	-49.7	-62.5	3.8	1.49e+00	0	40	104	0	70	16268
2026-01-11 22:22:48.38	32.62	8.91	-49.7	-62.4	3.8	1.49e+00	0	40	104	0	70	16105
2026-01-11 22:22:49.37	32.72	8.98	-49.7	-62.4	3.8	1.49e+00	0	40	104	0	70	16083
2026-01-11 22:22:50.36	32.81	9.05	-49.7	-62.3	3.8	1.49e+00	0	40	104	0	70	15940
2026-01-11 22:22:51.39	32.92	9.12	-49.8	-62.9	3.8	1.49e+00	0	40	104	0	70	17083
2026-01-11 22:22:52.43	33.02	9.19	-49.8	-63.1	3.8	1.49e+00	0	40	104	0	70	17295
2026-01-11 22:22:53.41	33.12	9.26	-47.2	-51.6	10.2	2.66e-03	0	40	0	0	65	6192
2026-01-11 22:22:54.48	33.23	9.33	-47.1	-51.3	10.4	2.72e-02	0	40	0	0	66	5634
2026-01-11 22:22:55.34	33.31	9.39	-46.0	-49.5	12.3	1.81e-04	0	40	0	0	63	5430
2026-01-11 22:22:56.48	33.43	9.47	-45.7	-49.0	12.9	9.91e-05	0	40	0	0	63	5144
2026-01-11 22:22:57.33	33.52	9.52	-45.6	-48.8	13.1	5.64e-05	0	40	0	0	63	5020
2026-01-11 22:22:58.47	33.64	9.60	-45.0	-47.8	14.1	3.00e-06	0	40	0	0	62	4734
2026-01-11 22:22:59.32	33.72	9.66	-44.5	-47.2	14.8	1.50e-06	0	40	0	0	61	4665
2026-01-11 22:23:00.45	33.84	9.74	-44.1	-46.6	15.3	0.00e+00	0	40	0	0	60	4633
2026-01-11 22:23:01.31	33.93	9.80	-44.0	-46.4	15.5	0.00e+00	0	40	0	0	59	4772
2026-01-11 22:23:02.44	34.05	9.88	-44.0	-46.4	15.5	0.00e+00	0	40	0	0	59	4786
2026-01-11 22:23:03.30	34.14	9.94	-44.0	-46.4	15.5	0.00e+00	0	40	0	0	59	4787
2026-01-11 22:23:04.44	34.26	10.02	-44.0	-46.4	15.5	0.00e+00	0	40	0	0	59	4805
2026-01-11 22:23:05.29	34.35	10.08	-44.0	-46.4	15.5	0.00e+00	0	40	0	0	59	4768
2026-01-11 22:23:06.42	34.47	10.16	-43.9	-46.3	15.6	0.00e+00	0	40	0	0	59	4747
2026-01-11 22:23:07.28	34.56	10.22	-43.8	-46.1	15.8	0.00e+00	0	40	0	0	59	4644
2026-01-11 22:23:08.41	34.68	10.29	-43.8	-46.1	15.8	0.00e+00	0	40	0	0	59	4628
2026-01-11 22:23:09.27	34.78	10.35	-43.8	-46.1	15.8	0.00e+00	0	40	0	0	59	4632
2026-01-11 22:23:10.48	34.91	10.44	-43.8	-46.1	15.7	0.00e+00	0	40	0	0	59	4644
2026-01-11 22:23:11.34	35.00	10.50	-43.7	-46.0	15.9	0.00e+00	0	40	0	0	59	4590
2026-01-11 22:23:12.47	35.13	10.58	-43.7	-46.0	15.9	0.00e+00	0	40	0	0	59	4555
2026-01-11 22:23:13.32	35.22	10.64	-43.6	-45.9	16.0	0.00e+00	0	40	0	0	59	4532
2026-01-11 22:23:14.46	35.35	10.72	-43.6	-45.9	16.0	0.00e+00	0	40	0	0	59	4521
2026-01-11 22:23:15.32	35.44	10.78	-43.7	-46.0	15.9	0.00e+00	0	40	0	0	59	4563
2026-01-11 22:23:16.45	35.57	10.86	-43.5	-45.8	16.1	0.00e+00	0	40	0	0	59	4488
2026-01-11 22:23:17.31	35.66	10.92	-43.6	-45.9	16.0	0.00e+00	0	40	0	0	59	4505
2026-01-11 22:23:18.44	35.79	11.00	-43.6	-46.0	16.0	0.00e+00	0	40	0	0	59	4553
2026-01-11 22:23:19.30	35.89	11.06	-43.6	-46.0	16.0	0.00e+00	0	40	0	0	59	4560
2026-01-11 22:23:20.43	36.02	11.15	-43.7	-46.0	15.9	0.00e+00	0	40	0	0	59	4573
2026-01-11 22:23:21.29	36.11	11.21	-43.7	-46.0	15.9	0.00e+00	0	40	0	0	59	4581
2026-01-11 22:23:22.42	36.24	11.29	-43.5	-45.8	16.2	0.00e+00	0	40	0	0	59	4451
2026-01-11 22:23:23.28	36.34	11.35	-43.5	-45.8	16.2	0.00e+00	0	40	0	0	58	4741
2026-01-11 22:23:24.41	36.47	11.43	-43.4	-45.7	16.3	0.00e+00	0	40	0	0	58	4672
2026-01-11 22:23:25.27	36.57	11.49	-43.4	-45.7	16.3	0.00e+00	0	40	0	0	58	4678
2026-01-11 22:23:26.40	36.71	11.57	-43.4	-45.7	16.2	0.00e+00	0	40	0	0	58	4685
2026-01-11 22:23:27.25	36.81	11.64	-43.5	-45.8	16.2	0.00e+00	0	40	0	0	58	4730
2026-01-11 22:23:28.39	36.94	11.72	-43.5	-45.8	16.2	0.00e+00	0	40	0	0	58	4710
2026-01-11 22:23:29.24	37.04	11.78	-43.3	-45.6	16.4	0.00e+00	0	40	0	0	58	4606
2026-01-11 22:23:30.38	37.18	11.86	-43.3	-45.6	16.4	0.00e+00	0	40	0	0	58	4606
2026-01-11 22:23:31.23	37.28	11.92	-43.3	-45.5	16.4	0.00e+00	0	40	0	0	58	4593
2026-01-11 22:23:32.59	37.44	12.02	-43.2	-45.5	16.4	0.00e+00	0	40	0	0	58	4557
2026-01-11 22:23:33.30	37.53	12.07	-43.1	-45.4	16.5	0.00e+00	0	40	0	0	58	4521
2026-01-11 22:23:34.58	37.69	12.17	-43.1	-45.4	16.4	0.00e+00	0	40	0	0	58	4522
2026-01-11 22:23:35.29	37.77	12.22	-43.1	-45.4	16.4	0.00e+00	0	40	0	0	58	4518
2026-01-11 22:23:36.57	37.93	12.31	-43.1	-45.4	16.4	0.00e+00	0	40	0	0	58	4537
2026-01-11 22:23:37.31	38.02	12.37	-43.1	-45.5	16.3	0.00e+00	0	40	0	0	58	4581
2026-01-11 22:23:38.59	38.18	12.46	-43.0	-45.4	16.4	0.00e+00	0	40	0	0	58	4498
2026-01-11 22:23:39.31	38.27	12.51	-43.0	-45.3	16.4	0.00e+00	0	40	0	0	58	4493
2026-01-11 22:23:40.59	38.43	12.61	-43.0	-45.4	16.3	0.00e+00	0	40	0	0	57	4760
2026-01-11 22:23:41.30	38.52	12.66	-43.0	-45.4	16.3	0.00e+00	0	40	0	0	57	4788
2026-01-11 22:23:42.58	38.68	12.76	-43.1	-45.5	16.3	0.00e+00	0	40	0	0	57	4820
2026-01-11 22:23:43.29	38.77	12.81	-43.1	-45.5	16.3	0.00e+00	0	40	0	0	57	4833
2026-01-11 22:23:44.57	38.93	12.90	-43.1	-45.5	16.4	0.00e+00	0	40	0	0	57	4818
2026-01-11 22:23:45.30	39.03	12.96	-43.0	-45.3	16.5	0.00e+00	0	40	0	0	57	4757
2026-01-11 22:23:46.58	39.19	13.05	-43.1	-45.4	16.5	0.00e+00	0	40	0	0	57	4772
2026-01-11 22:23:47.29	39.28	13.10	-43.0	-45.2	16.6	0.00e+00	0	40	0	0	57	4704
2026-01-11 22:23:48.57	39.45	13.20	-43.1	-45.4	16.5	0.00e+00	0	40	0	0	57	4774
2026-01-11 22:23:49.28	39.54	13.25	-43.1	-45.3	16.6	0.00e+00	0	40	0	0	57	4728
2026-01-11 22:23:50.56	39.71	13.35	-43.2	-45.4	16.6	0.00e+00	0	40	0	0	57	4779
2026-01-11 22:23:51.27	39.80	13.40	-43.1	-45.3	16.7	0.00e+00	0	40	0	0	57	4739
2026-01-11 22:23:52.55	39.97	13.50	-43.1	-45.2	16.7	0.00e+00	0	40	0	0	57	4705
2026-01-11 22:23:53.26	40.07	13.55	-43.0	-45.2	16.8	0.00e+00	0	40	0	0	57	4677
2026-01-11 22:23:54.53	40.24	13.65	-43.1	-45.3	16.7	0.00e+00	0	40	0	0	57	4726
2026-01-11 22:23:55.26	40.34	13.70	-43.1	-45.3	16.7	0.00e+00	0	40	0	0	57	4721
2026-01-11 22:23:56.81	40.55	13.82	-43.1	-45.3	16.7	0.00e+00	0	40	0	0	57	4722
2026-01-11 22:23:57.52	40.64	13.87	-43.2	-45.4	16.6	0.00e+00	0	40	0	0	57	4789
2026-01-11 22:23:58.80	40.82	13.97	-43.2	-45.4	16.5	0.00e+00	0	40	0	0	57	4806
2026-01-11 22:23:59.52	40.92	14.02	-43.2	-45.5	16.5	0.00e+00	0	40	0	0	57	4817
2026-01-11 22:24:00.80	41.09	14.12	-43.2	-45.4	16.6	0.00e+00	0	40	0	0	57	4772
2026-01-11 22:24:01.51	41.19	14.17	-43.2	-45.4	16.6	0.00e+00	0	40	0	0	57	4764
2026-01-11 22:24:02.79	41.37	14.27	-43.1	-45.3	16.6	0.00e+00	0	40	0	0	57	4729
2026-01-11 22:24:03.50	41.47	14.32	-43.2	-45.4	16.6	0.00e+00	0	40	0	0	57	4763
2026-01-11 22:24:04.78	41.65	14.42	-43.2	-45.3	16.6	0.00e+00	0	40	0	0	57	4749
2026-01-11 22:24:05.60	41.77	14.48	-43.1	-45.2	16.8	0.00e+00	0	40	0	0	57	4689
2026-01-11 22:24:07.02	41.97	14.59	-43.2	-45.3	16.7	0.00e+00	0	40	0	0	57	4718
2026-01-11 22:24:07.73	42.07	14.64	-43.3	-45.4	16.7	0.00e+00	0	40	0	0	57	4776
2026-01-11 22:24:09.22	42.28	14.76	-43.3	-45.5	16.5	0.00e+00	0	40	0	0	57	4833
2026-01-11 22:24:09.93	42.39	14.81	-43.3	-45.4	16.6	0.00e+00	0	40	0	0	57	4807
2026-01-11 22:24:11.27	42.58	14.91	-43.4	-45.5	16.4	0.00e+00	0	40	0	0	57	4860
2026-01-11 22:24:11.98	42.69	14.97	-43.4	-45.6	16.5	0.00e+00	0	40	0	0	57	4886
2026-01-11 22:24:13.26	42.87	15.06	-43.4	-45.6	16.4	0.00e+00	0	40	0	0	57	4922
2026-01-11 22:24:13.97	42.98	15.12	-43.4	-45.6	16.4	0.00e+00	0	40	0	0	57	4915
2026-01-11 22:24:15.25	43.17	15.22	-43.3	-45.5	16.5	0.00e+00	0	40	0	0	57	4840
2026-01-11 22:24:15.96	43.27	15.27	-43.4	-45.6	16.5	0.00e+00	0	40	0	0	57	4898
2026-01-11 22:24:17.24	43.47	15.37	-43.4	-45.6	16.5	0.00e+00	0	40	0	0	57	4888
2026-01-11 22:24:18.01	43.58	15.43	-43.4	-45.5	16.5	0.00e+00	0	40	0	0	57	4861
2026-01-11 22:24:19.29	43.77	15.53	-43.4	-45.5	16.5	0.00e+00	0	40	0	0	57	4866
2026-01-11 22:24:20.00	43.88	15.58	-43.5	-45.7	16.4	0.00e+00	0	40	0	0	57	4946
2026-01-11 22:24:21.28	44.08	15.68	-43.4	-45.6	16.5	0.00e+00	0	40	0	0	57	4880
2026-01-11 22:24:22.00	44.19	15.74	-43.3	-45.4	16.6	0.00e+00	0	40	0	0	57	4813
2026-01-11 22:24:23.29	44.39	15.84	-43.3	-45.4	16.7	0.00e+00	0	40	0	0	57	4779
2026-01-11 22:24:24.00	44.50	15.89	-43.3	-45.5	16.6	0.00e+00	0	40	0	0	57	4842
2026-01-11 22:24:25.29	44.70	15.99	-43.4	-45.6	16.5	0.00e+00	0	40	0	0	57	4877
2026-01-11 22:24:26.00	44.81	16.04	-43.4	-45.5	16.6	0.00e+00	0	40	0	0	57	4851
2026-01-11 22:24:27.30	45.02	16.14	-43.4	-45.6	16.5	0.00e+00	0	40	0	0	57	4913
2026-01-11 22:24:28.01	45.13	16.20	-43.5	-45.7	16.4	0.00e+00	0	40	0	0	57	4949
2026-01-11 22:24:29.29	45.33	16.30	-43.5	-45.7	16.4	0.00e+00	0	41	0	0	57	4972
2026-01-11 22:24:30.00	45.44	16.35	-43.5	-45.7	16.4	0.00e+00	0	40	0	0	57	4968
2026-01-11 22:24:31.28	45.65	16.45	-43.5	-45.7	16.3	0.00e+00	0	40	0	0	57	4981
2026-01-11 22:24:31.99	45.77	16.51	-43.5	-45.7	16.4	0.00e+00	0	40	0	0	57	4944
2026-01-11 22:24:33.27	45.97	16.61	-43.5	-45.7	16.3	0.00e+00	0	40	0	0	57	4970
2026-01-11 22:24:33.98	46.09	16.66	-43.5	-45.7	16.4	0.00e+00	0	40	0	0	57	4938
2026-01-11 22:24:35.26	46.30	16.76	-43.4	-45.6	16.4	0.00e+00	0	40	0	0	57	4911
2026-01-11 22:24:36.00	46.42	16.82	-43.4	-45.6	16.4	0.00e+00	0	40	0	0	57	4906
2026-01-11 22:24:37.28	46.63	16.92	-43.4	-45.6	16.5	0.00e+00	0	40	0	0	57	4872
2026-01-11 22:24:37.99	46.75	16.97	-43.5	-45.7	16.4	0.00e+00	0	40	0	0	57	4931
2026-01-11 22:24:39.27	46.96	17.07	-43.5	-45.7	16.4	0.00e+00	0	40	0	0	57	4941
2026-01-11 22:24:39.98	47.08	17.13	-43.6	-45.8	16.3	0.00e+00	0	40	0	0	57	5006
2026-01-11 22:24:41.26	47.30	17.23	-43.6	-45.8	16.3	0.00e+00	0	40	0	0	57	5014
2026-01-11 22:24:41.97	47.42	17.28	-43.6	-45.8	16.2	0.00e+00	0	40	0	0	57	5037
2026-01-11 22:24:43.25	47.64	17.38	-43.6	-45.9	16.2	0.00e+00	0	40	0	0	57	5058
2026-01-11 22:24:43.97	47.76	17.44	-43.6	-45.8	16.3	0.00e+00	0	40	0	0	57	5028
2026-01-11 22:24:45.25	47.98	17.54	-43.5	-45.7	16.4	0.00e+00	0	40	0	0	57	4930
2026-01-11 22:24:45.96	48.11	17.59	-43.4	-45.6	16.4	0.00e+00	0	40	0	0	57	4915
2026-01-11 22:24:47.24	48.33	17.69	-43.4	-45.6	16.5	0.00e+00	0	40	0	0	57	4894
2026-01-11 22:24:47.97	48.46	17.75	-43.3	-45.5	16.6	0.00e+00	0	40	0	0	57	4827
2026-01-11 22:24:49.24	48.68	17.85	-43.4	-45.5	16.5	0.00e+00	0	40	0	0	57	4865
2026-01-11 22:24:49.97	48.81	17.90	-43.4	-45.5	16.5	0.00e+00	0	40	0	0	57	4862
2026-01-11 22:24:51.25	49.04	18.00	-43.3	-45.4	16.7	0.00e+00	0	40	0	0	57	4796
2026-01-11 22:24:51.97	49.16	18.06	-43.3	-45.5	16.6	0.00e+00	0	40	0	0	57	4829
2026-01-11 22:24:53.25	49.39	18.16	-43.3	-45.5	16.5	0.00e+00	0	40	0	0	57	4852
2026-01-11 22:24:54.20	49.57	18.23	-43.2	-45.4	16.7	0.00e+00	0	40	0	0	57	4769
2026-01-11 22:24:55.49	49.80	18.33	-43.2	-45.4	16.7	0.00e+00	0	40	0	0	57	4765
2026-01-11 22:24:56.20	49.93	18.39	-43.3	-45.5	16.6	0.00e+00	0	40	0	0	57	4828
2026-01-11 22:24:57.83	50.23	18.51	-43.2	-45.4	16.7	0.00e+00	0	40	0	0	57	4774
2026-01-11 22:24:58.40	50.33	18.56	-43.2	-45.3	16.8	0.00e+00	0	40	0	0	57	4740
2026-01-11 22:25:00.11	50.65	18.69	-43.2	-45.3	16.7	0.00e+00	0	40	0	0	57	4743
2026-01-11 22:25:00.68	50.76	18.74	-43.2	-45.3	16.8	0.00e+00	0	40	0	0	57	4722
2026-01-11 22:25:02.38	51.08	18.87	-43.2	-45.4	16.7	0.00e+00	0	40	0	0	57	4768
2026-01-11 22:25:02.95	51.18	18.91	-43.1	-45.2	16.9	0.00e+00	0	40	0	0	57	4686
2026-01-11 22:25:04.65	51.50	19.04	-43.0	-45.1	17.0	0.00e+00	0	40	0	0	57	4617
2026-01-11 22:25:05.23	51.62	19.09	-43.0	-45.1	17.0	0.00e+00	0	41	0	0	57	4604
2026-01-11 22:25:06.93	51.94	19.22	-42.9	-44.9	17.1	0.00e+00	0	40	0	0	57	4543
2026-01-11 22:25:07.50	52.05	19.26	-42.9	-45.0	17.1	0.00e+00	0	40	0	0	57	4548
2026-01-11 22:25:09.21	52.38	19.39	-42.7	-44.7	17.4	0.00e+00	0	40	0	0	57	4427
2026-01-11 22:25:09.78	52.49	19.44	-42.7	-44.7	17.4	0.00e+00	0	40	0	0	57	4411
2026-01-11 22:25:11.67	52.87	19.58	-42.8	-44.8	17.3	0.00e+00	0	40	0	0	57	4470
2026-01-11 22:25:12.24	52.98	19.63	-42.8	-44.8	17.2	0.00e+00	0	40	0	0	57	4488
2026-01-11 22:25:13.94	53.32	19.76	-42.8	-44.8	17.3	0.00e+00	0	40	0	0	57	4476
2026-01-11 22:25:14.51	53.43	19.80	-42.8	-44.8	17.3	0.00e+00	0	41	0	0	57	4470
2026-01-11 22:25:16.22	53.77	19.93	-42.8	-44.9	17.2	0.00e+00	0	40	0	0	57	4502
2026-01-11 22:25:16.79	53.89	19.97	-42.8	-44.8	17.2	0.00e+00	0	41	0	0	57	4489
2026-01-11 22:25:18.49	54.23	20.10	-42.8	-44.8	17.3	0.00e+00	0	40	0	0	57	4464
2026-01-11 22:25:19.06	54.35	20.15	-42.8	-44.9	17.2	0.00e+00	0	40	0	0	57	4499
2026-01-11 22:25:20.97	54.74	20.29	-42.8	-44.9	17.2	0.00e+00	0	40	0	0	57	4511
2026-01-11 22:25:21.54	54.86	20.33	-42.8	-44.9	17.3	0.00e+00	0	40	0	0	57	4499
2026-01-11 22:25:23.23	55.21	20.46	-43.0	-45.0	17.1	0.00e+00	0	40	0	0	57	4581
2026-01-11 22:25:23.80	55.33	20.50	-42.9	-45.0	17.1	0.00e+00	0	40	0	0	57	4581
2026-01-11 22:25:25.60	55.71	20.64	-43.0	-45.1	17.0	0.00e+00	0	40	0	0	57	4626
2026-01-11 22:25:26.50	55.90	20.71	-43.0	-45.1	17.0	0.00e+00	0	40	0	0	57	4643
2026-01-11 22:25:27.53	56.12	20.78	-43.0	-45.1	17.0	0.00e+00	0	40	0	0	57	4632
2026-01-11 22:25:28.52	56.33	20.86	-42.9	-45.0	17.1	0.00e+00	0	40	0	0	57	4584
2026-01-11 22:25:29.52	56.54	20.93	-42.9	-45.0	17.1	0.00e+00	0	41	0	0	57	4548
2026-01-11 22:25:30.51	56.75	21.00	-42.8	-44.8	17.3	0.00e+00	0	40	0	0	57	4482
2026-01-11 22:25:31.54	56.98	21.08	-42.8	-44.8	17.3	0.00e+00	0	40	0	0	57	4477
2026-01-11 22:25:32.55	57.20	21.15	-42.7	-44.7	17.4	0.00e+00	0	40	0	0	57	4427
2026-01-11 22:25:33.54	57.41	21.23	-42.6	-44.7	17.5	0.00e+00	0	40	0	0	57	4397
2026-01-11 22:25:34.54	57.63	21.30	-42.6	-44.6	17.5	0.00e+00	0	40	0	0	57	4369
2026-01-11 22:25:35.54	57.85	21.37	-42.6	-44.6	17.5	0.00e+00	0	40	0	0	57	4345
2026-01-11 22:25:36.53	58.07	21.45	-42.5	-44.5	17.6	0.00e+00	0	40	0	0	57	4308
2026-01-11 22:25:37.53	58.29	21.52	-42.6	-44.6	17.5	0.00e+00	0	40	0	0	57	4344
2026-01-11 22:25:38.52	58.52	21.59	-42.5	-44.5	17.6	0.00e+00	0	40	0	0	57	4294
2026-01-11 22:25:39.52	58.74	21.66	-42.5	-44.5	17.6	0.00e+00	0	40	0	0	57	4307
2026-01-11 22:25:40.51	58.96	21.73	-42.5	-44.5	17.5	0.00e+00	0	40	0	0	57	4303
2026-01-11 22:25:41.51	59.19	21.81	-42.4	-44.4	17.6	0.00e+00	0	40	0	0	56	4527
2026-01-11 22:25:42.50	59.42	21.88	-42.5	-44.5	17.5	0.00e+00	0	40	0	0	56	4557
2026-01-11 22:25:43.50	59.64	21.95	-42.5	-44.5	17.5	0.00e+00	0	40	0	0	56	4586
2026-01-11 22:25:44.49	59.87	22.02	-42.5	-44.5	17.5	0.00e+00	0	40	0	0	56	4577
2026-01-11 22:25:45.49	60.10	22.09	-42.4	-44.4	17.6	0.00e+00	0	40	0	0	56	4535
2026-01-11 22:25:46.48	60.33	22.16	-42.5	-44.5	17.6	0.00e+00	0	41	0	0	56	4560
2026-01-11 22:25:47.48	60.57	22.23	-42.4	-44.4	17.7	0.00e+00	0	40	0	0	56	4507
2026-01-11 22:25:48.47	60.80	22.30	-42.3	-44.3	17.8	0.00e+00	0	40	0	0	56	4459
2026-01-11 22:25:49.47	61.03	22.37	-42.4	-44.3	17.7	0.00e+00	0	40	0	0	56	4491
2026-01-11 22:25:50.46	61.26	22.44	-42.2	-44.1	17.9	0.00e+00	0	41	0	0	56	4355
2026-01-11 22:25:51.46	61.50	22.51	-42.1	-44.0	18.0	0.00e+00	0	40	0	0	56	4324
2026-01-11 22:25:52.45	61.74	22.57	-42.1	-44.0	18.0	0.00e+00	0	40	0	0	56	4306
2026-01-11 22:25:53.45	61.98	22.64	-42.1	-44.0	18.0	0.00e+00	0	40	0	0	56	4325
2026-01-11 22:25:54.44	62.21	22.71	-42.2	-44.1	17.8	0.00e+00	0	40	0	0	56	4387
2026-01-11 22:25:55.44	62.45	22.78	-42.3	-44.3	17.7	0.00e+00	0	40	0	0	56	4452
2026-01-11 22:25:56.44	62.70	22.84	-42.3	-44.2	17.8	0.00e+00	0	40	0	0	56	4435
2026-01-11 22:25:57.43	62.94	22.91	-42.5	-44.4	17.6	0.00e+00	0	40	0	0	56	4541
2026-01-11 22:25:58.43	63.18	22.98	-42.5	-44.5	17.6	0.00e+00	0	40	0	0	56	4551
2026-01-11 22:25:59.42	63.42	23.04	-42.4	-44.4	17.7	0.00e+00	0	40	0	0	56	4494
2026-01-11 22:26:00.42	63.67	23.11	-42.4	-44.3	17.8	0.00e+00	0	40	0	0	56	4467
2026-01-11 22:26:01.41	63.92	23.17	-42.4	-44.4	17.7	0.00e+00	0	40	0	0	56	4508
2026-01-11 22:26:02.41	64.16	23.24	-42.5	-44.4	17.7	0.00e+00	0	40	0	0	56	4525
2026-01-11 22:26:03.43	64.42	23.31	-42.4	-44.4	17.7	0.00e+00	0	41	0	0	56	4507
2026-01-11 22:26:04.46	64.68	23.37	-42.6	-44.6	17.4	0.00e+00	0	40	0	0	56	4646
2026-01-11 22:26:05.48	64.93	23.44	-42.7	-44.7	17.5	0.00e+00	0	40	0	0	56	4664
2026-01-11 22:26:06.48	65.18	23.50	-42.7	-44.7	17.5	0.00e+00	0	40	0	0	56	4665
2026-01-11 22:26:07.47	65.43	23.56	-42.7	-44.7	17.4	0.00e+00	0	40	0	0	56	4684
2026-01-11 22:26:08.47	65.69	23.63	-42.7	-44.7	17.5	0.00e+00	0	40	0	0	56	4677
2026-01-11 22:26:09.47	65.94	23.69	-42.7	-44.6	17.5	0.00e+00	0	40	0	0	56	4646
2026-01-11 22:26:10.46	66.20	23.75	-42.7	-44.7	17.5	0.00e+00	0	40	0	0	56	4652
2026-01-11 22:26:11.46	66.46	23.81	-42.6	-44.6	17.6	0.00e+00	0	40	0	0	56	4630
2026-01-11 22:26:12.45	66.71	23.87	-42.6	-44.6	17.5	0.00e+00	0	40	0	0	56	4643
2026-01-11 22:26:13.45	66.97	23.93	-42.7	-44.7	17.4	0.00e+00	0	40	0	0	56	4688
2026-01-11 22:26:14.44	67.23	23.99	-42.8	-44.8	17.4	0.00e+00	0	40	0	0	56	4711
2026-01-11 22:26:15.44	67.49	24.05	-42.8	-44.9	17.3	0.00e+00	0	41	0	0	56	4766
2026-01-11 22:26:16.43	67.75	24.11	-42.8	-44.8	17.4	0.00e+00	0	40	0	0	56	4731
2026-01-11 22:26:17.43	68.01	24.17	-42.8	-44.8	17.4	0.00e+00	0	40	0	0	56	4746
2026-01-11 22:26:18.42	68.27	24.23	-42.7	-44.7	17.4	0.00e+00	0	40	0	0	56	4703
2026-01-11 22:26:19.42	68.54	24.29	-42.7	-44.7	17.4	0.00e+00	0	40	0	0	56	4703
2026-01-11 22:26:20.43	68.81	24.34	-42.8	-44.8	17.4	0.00e+00	0	40	0	0	56	4721
2026-01-11 22:26:21.45	69.08	24.40	-42.8	-44.8	17.3	0.00e+00	0	40	0	0	56	4751
2026-01-11 22:26:22.48	69.36	24.46	-42.8	-44.8	17.3	0.00e+00	0	40	0	0	56	4738
2026-01-11 22:26:23.47	69.62	24.52	-42.8	-44.8	17.3	0.00e+00	0	41	0	0	56	4737
2026-01-11 22:26:24.47	69.89	24.57	-42.8	-44.8	17.3	0.00e+00	0	40	0	0	56	4758
2026-01-11 22:26:25.46	70.16	24.63	-42.8	-44.8	17.3	0.00e+00	0	40	0	0	56	4723
2026-01-11 22:26:26.46	70.43	24.68	-42.7	-44.7	17.5	0.00e+00	0	40	0	0	56	4671
2026-01-11 22:26:27.45	70.70	24.73	-42.7	-44.7	17.4	0.00e+00	0	40	0	0	56	4704
2026-01-11 22:26:28.45	70.98	24.79	-42.7	-44.7	17.5	0.00e+00	0	40	0	0	56	4672
2026-01-11 22:26:29.44	71.25	24.84	-42.6	-44.6	17.5	0.00e+00	0	40	0	0	56	4638
2026-01-11 22:26:30.44	71.52	24.89	-42.6	-44.6	17.5	0.00e+00	0	40	0	0	56	4635
2026-01-11 22:26:31.43	71.80	24.94	-42.7	-44.7	17.4	0.00e+00	0	40	0	0	56	4700
2026-01-11 22:26:32.43	72.07	24.99	-42.8	-44.8	17.3	0.00e+00	0	40	0	0	56	4743
2026-01-11 22:26:33.42	72.35	25.04	-42.8	-44.8	17.3	0.00e+00	0	40	0	0	56	4751
2026-01-11 22:26:34.42	72.63	25.09	-42.8	-44.8	17.3	0.00e+00	0	40	0	0	56	4738
2026-01-11 22:26:35.41	72.91	25.14	-42.6	-44.6	17.5	0.00e+00	0	40	0	0	56	4644
2026-01-11 22:26:36.41	73.19	25.19	-42.5	-44.5	17.6	0.00e+00	0	41	0	0	56	4558
2026-01-11 22:26:37.40	73.47	25.23	-42.4	-44.4	17.8	0.00e+00	0	40	0	0	56	4497
2026-01-11 22:26:38.40	73.75	25.28	-42.3	-44.3	17.8	0.00e+00	0	40	0	0	56	4458
2026-01-11 22:26:39.39	74.03	25.33	-42.4	-44.4	17.7	0.00e+00	0	40	0	0	56	4524
2026-01-11 22:26:40.44	74.33	25.37	-42.5	-44.5	17.5	0.00e+00	0	40	0	0	56	4574
2026-01-11 22:26:41.39	74.60	25.42	-42.5	-44.5	17.6	0.00e+00	0	40	0	0	56	4583
2026-01-11 22:26:42.48	74.91	25.47	-42.6	-44.6	17.5	0.00e+00	0	40	0	0	56	4629
2026-01-11 22:26:43.33	75.15	25.50	-42.7	-44.7	17.4	0.00e+00	0	41	0	0	56	4671
2026-01-11 22:26:44.67	75.54	25.56	-42.5	-44.5	17.6	0.00e+00	0	40	0	0	56	4590
2026-01-11 22:26:45.38	75.74	25.59	-42.6	-44.6	17.5	0.00e+00	0	40	0	0	56	4620
2026-01-11 22:26:46.67	76.11	25.64	-42.7	-44.6	17.4	0.00e+00	0	40	0	0	56	4647
2026-01-11 22:26:47.38	76.32	25.67	-42.5	-44.4	17.7	0.00e+00	0	40	0	0	56	4538
2026-01-11 22:26:48.66	76.69	25.73	-42.4	-44.4	17.7	0.00e+00	0	40	0	0	56	4522
2026-01-11 22:26:49.40	76.91	25.75	-42.5	-44.5	17.6	0.00e+00	0	41	0	0	56	4548
2026-01-11 22:26:50.68	77.28	25.80	-42.4	-44.4	17.7	0.00e+00	0	40	0	0	56	4506
2026-01-11 22:26:51.41	77.49	25.83	-42.4	-44.4	17.8	0.00e+00	0	40	0	0	56	4499
2026-01-11 22:26:52.69	77.87	25.88	-42.3	-44.3	17.9	0.00e+00	0	40	0	0	56	4450
2026-01-11 22:26:53.40	78.08	25.91	-42.5	-44.5	17.7	0.00e+00	0	40	0	0	56	4548
2026-01-11 22:26:54.68	78.45	25.95	-42.5	-44.5	17.6	0.00e+00	0	40	0	0	56	4583
2026-01-11 22:26:55.39	78.66	25.98	-42.6	-44.6	17.6	0.00e+00	0	40	0	0	56	4605
2026-01-11 22:26:56.67	79.04	26.02	-42.3	-44.3	17.8	0.00e+00	0	40	0	0	56	4452
2026-01-11 22:26:57.38	79.25	26.04	-42.3	-44.3	17.9	0.00e+00	0	40	0	0	56	4446
2026-01-11 22:26:58.67	79.63	26.09	-42.2	-44.1	18.0	0.00e+00	0	41	0	0	56	4382
2026-01-11 22:26:59.38	79.85	26.11	-42.2	-44.1	18.0	0.00e+00	0	40	0	0	56	4375
2026-01-11 22:27:00.66	80.23	26.15	-42.2	-44.1	18.0	0.00e+00	0	40	0	0	56	4391
2026-01-11 22:27:01.37	80.44	26.17	-42.3	-44.2	17.9	0.00e+00	0	40	0	0	56	4418
2026-01-11 22:27:02.65	80.82	26.21	-42.2	-44.1	18.0	0.00e+00	0	41	0	0	56	4357
2026-01-11 22:27:03.38	81.04	26.23	-42.2	-44.2	17.9	0.00e+00	0	40	0	0	56	4419
2026-01-11 22:27:04.66	81.43	26.27	-42.3	-44.3	17.9	0.00e+00	0	40	0	0	56	4443
2026-01-11 22:27:05.37	81.64	26.29	-42.2	-44.2	17.9	0.00e+00	0	40	0	0	56	4415
2026-01-11 22:27:06.65	82.03	26.32	-42.2	-44.2	17.9	0.00e+00	0	40	0	0	56	4400
2026-01-11 22:27:07.37	82.24	26.34	-42.2	-44.2	17.9	0.00e+00	0	40	0	0	56	4416
2026-01-11 22:27:08.65	82.63	26.37	-42.3	-44.3	17.8	0.00e+00	0	40	0	0	56	4487
2026-01-11 22:27:09.39	82.85	26.39	-42.3	-44.4	17.8	0.00e+00	0	40	0	0	56	4499
2026-01-11 22:27:10.67	83.24	26.42	-42.2	-44.1	17.9	0.00e+00	0	40	0	0	56	4384
2026-01-11 22:27:11.38	83.46	26.44	-42.1	-44.1	18.0	0.00e+00	0	40	0	0	56	4350
2026-01-11 22:27:12.67	83.85	26.46	-42.2	-44.1	17.9	0.00e+00	0	41	0	0	56	4390
2026-01-11 22:27:13.39	84.07	26.48	-42.1	-44.1	17.9	0.00e+00	0	40	0	0	56	4359
2026-01-11 22:27:14.67	84.46	26.50	-42.1	-44.1	17.9	0.00e+00	0	40	0	0	56	4390
2026-01-11 22:27:15.68	84.77	26.52	-42.2	-44.3	17.9	0.00e+00	0	40	0	0	56	4451
2026-01-11 22:27:16.67	85.07	26.54	-42.3	-44.3	17.8	0.00e+00	0	40	0	0	56	4488
2026-01-11 22:27:17.67	85.38	26.56	-42.3	-44.3	17.8	0.00e+00	0	40	0	0	56	4475
2026-01-11 22:27:18.66	85.68	26.57	-42.2	-44.2	17.9	0.00e+00	0	40	0	0	56	4424
2026-01-11 22:27:19.66	85.99	26.59	-42.2	-44.2	17.9	0.00e+00	0	40	0	0	56	4439
2026-01-11 22:27:20.65	86.29	26.61	-42.2	-44.2	17.9	0.00e+00	0	40	0	0	56	4404
2026-01-11 22:27:21.65	86.60	26.62	-42.2	-44.2	17.9	0.00e+00	0	41	0	0	56	4427
2026-01-11 22:27:22.65	86.91	26.63	-42.3	-44.3	17.8	0.00e+00	0	41	0	0	56	4463
2026-01-11 22:27:23.64	87.21	26.64	-42.2	-44.2	17.9	0.00e+00	0	40	0	0	56	4424
2026-01-11 22:27:24.63	87.52	26.66	-42.2	-44.2	18.0	0.00e+00	0	40	0	0	56	4394
2026-01-11 22:27:25.63	87.83	26.67	-42.0	-44.0	18.1	0.00e+00	0	40	0	0	56	4307
2026-01-11 22:27:26.63	88.13	26.68	-41.9	-43.8	18.1	0.00e+00	0	41	0	0	55	4459
2026-01-11 22:27:27.62	88.44	26.68	-41.9	-43.8	18.1	0.00e+00	0	41	0	0	55	4481
2026-01-11 22:27:28.61	88.75	26.69	-41.9	-43.8	18.1	0.00e+00	0	40	0	0	55	4481
2026-01-11 22:27:29.83	89.12	26.70	-42.0	-44.0	18.0	0.00e+00	0	40	0	0	55	4554
2026-01-11 22:27:30.71	89.40	26.71	-42.1	-44.0	17.9	0.00e+00	0	40	0	0	55	4578
2026-01-11 22:27:32.02	89.80	26.71	-42.1	-44.0	17.9	0.00e+00	0	41	0	0	55	4587
2026-01-11 22:27:32.73	90.02	26.72	-42.0	-44.0	18.0	0.00e+00	0	41	0	0	55	4548
2026-01-11 22:27:34.23	90.49	26.72	-42.0	-44.0	18.0	0.00e+00	0	40	0	0	55	4566
2026-01-11 22:27:34.94	90.70	26.72	-42.0	-43.9	18.0	0.00e+00	0	40	0	0	55	4514
2026-01-11 22:27:36.27	91.12	26.72	-41.8	-43.7	18.2	0.00e+00	0	41	0	0	55	4425
2026-01-11 22:27:36.98	91.34	26.73	-41.8	-43.7	18.2	0.00e+00	0	41	0	0	55	4426
2026-01-11 22:27:38.26	91.73	26.72	-41.8	-43.6	18.3	0.00e+00	0	40	0	0	55	4386
2026-01-11 22:27:38.97	91.95	26.72	-41.7	-43.6	18.3	0.00e+00	0	40	0	0	55	4363
2026-01-11 22:27:40.24	92.35	26.72	-41.9	-43.8	18.1	0.00e+00	0	40	0	0	55	4457
2026-01-11 22:27:40.96	92.57	26.72	-42.0	-43.9	18.1	0.00e+00	0	40	0	0	55	4506
2026-01-11 22:27:42.24	92.97	26.71	-42.0	-44.0	18.0	0.00e+00	0	40	0	0	55	4548
2026-01-11 22:27:42.95	93.19	26.71	-42.1	-44.0	17.9	0.00e+00	0	40	0	0	55	4562
2026-01-11 22:27:44.23	93.58	26.70	-42.0	-43.9	18.0	0.00e+00	0	40	0	0	55	4504
2026-01-11 22:27:44.94	93.80	26.70	-41.9	-43.8	18.1	0.00e+00	0	40	0	0	55	4460
2026-01-11 22:27:46.21	94.19	26.69	-41.8	-43.7	18.2	0.00e+00	0	40	0	0	55	4410
2026-01-11 22:27:47.02	94.44	26.68	-41.9	-43.8	18.1	0.00e+00	0	40	0	0	55	4449
2026-01-11 22:27:48.16	94.80	26.67	-42.0	-43.9	18.0	0.00e+00	0	40	0	0	55	4515
2026-01-11 22:27:49.01	95.06	26.66	-42.1	-44.0	18.0	0.00e+00	0	40	0	0	55	4562
2026-01-11 22:27:50.15	95.41	26.65	-42.2	-44.1	17.8	0.00e+00	0	40	0	0	55	4636
2026-01-11 22:27:51.00	95.67	26.64	-42.2	-44.1	17.9	0.00e+00	0	41	0	0	55	4637
2026-01-11 22:27:52.14	96.02	26.63	-42.1	-44.0	17.9	0.00e+00	0	41	0	0	55	4592
2026-01-11 22:27:52.99	96.29	26.62	-42.1	-44.0	17.9	0.00e+00	0	40	0	0	55	4573
2026-01-11 22:27:54.13	96.64	26.60	-42.1	-44.0	17.8	0.00e+00	0	40	0	0	55	4585
2026-01-11 22:27:55.42	97.03	26.58	-42.0	-44.0	17.9	0.00e+00	0	40	0	0	55	4550
2026-01-11 22:27:56.13	97.25	26.57	-41.9	-43.8	18.1	0.00e+00	0	41	0	0	55	4462
2026-01-11 22:27:57.41	97.64	26.55	-41.9	-43.9	18.1	0.00e+00	0	40	0	0	55	4496
2026-01-11 22:27:58.14	97.87	26.53	-41.9	-43.8	18.1	0.00e+00	0	41	0	0	55	4482
2026-01-11 22:27:59.45	98.27	26.51	-42.0	-43.9	18.0	0.00e+00	0	40	0	0	55	4520
2026-01-11 22:28:00.16	98.48	26.49	-42.1	-44.0	17.9	0.00e+00	0	41	0	0	55	4567
2026-01-11 22:28:01.44	98.87	26.47	-42.0	-43.9	18.0	0.00e+00	0	40	0	0	55	4520
2026-01-11 22:28:02.18	99.10	26.45	-42.0	-43.9	17.9	0.00e+00	0	41	0	0	55	4525
2026-01-11 22:28:03.46	99.49	26.42	-42.0	-43.9	17.9	0.00e+00	0	40	0	0	55	4545
2026-01-11 22:28:04.19	99.71	26.41	-42.0	-43.9	18.0	0.00e+00	0	41	0	0	55	4509
2026-01-11 22:28:05.46	100.10	26.38	-42.0	-44.0	17.9	0.00e+00	0	40	0	0	55	4559
2026-01-11 22:28:06.19	100.32	26.36	-42.0	-43.9	18.0	0.00e+00	0	40	0	0	55	4510
2026-01-11 22:28:07.47	100.71	26.33	-42.0	-44.0	17.9	0.00e+00	0	40	0	0	55	4553
2026-01-11 22:28:08.18	100.92	26.31	-41.9	-43.8	18.0	0.00e+00	0	40	0	0	55	4483
2026-01-11 22:28:09.46	101.31	26.27	-42.0	-43.9	18.0	0.00e+00	0	41	0	0	55	4510
2026-01-11 22:28:10.17	101.52	26.25	-41.9	-43.8	18.0	0.00e+00	0	40	0	0	55	4488
2026-01-11 22:28:11.45	101.91	26.22	-41.9	-43.8	18.0	0.00e+00	0	40	0	0	55	4479
2026-01-11 22:28:12.28	102.16	26.19	-42.0	-43.8	18.0	0.00e+00	0	40	0	0	55	4492
2026-01-11 22:28:13.42	102.50	26.16	-41.9	-43.8	18.1	0.00e+00	0	41	0	0	55	4460
2026-01-11 22:28:14.28	102.75	26.13	-42.0	-43.9	18.0	0.00e+00	0	40	0	0	55	4515
2026-01-11 22:28:15.41	103.09	26.09	-42.1	-44.0	17.9	0.00e+00	0	41	0	0	55	4574
2026-01-11 22:28:16.27	103.35	26.07	-42.1	-44.0	17.9	0.00e+00	0	40	0	0	55	4596
2026-01-11 22:28:17.41	103.69	26.03	-42.1	-44.0	17.9	0.00e+00	0	40	0	0	55	4590
2026-01-11 22:28:18.26	103.94	26.00	-42.1	-44.0	17.9	0.00e+00	0	40	0	0	55	4591
2026-01-11 22:28:19.40	104.28	25.96	-42.0	-44.0	17.9	0.00e+00	0	40	0	0	55	4562
2026-01-11 22:28:20.25	104.53	25.93	-42.1	-44.1	17.8	0.00e+00	0	40	0	0	55	4610
2026-01-11 22:28:21.39	104.86	25.89	-42.2	-44.2	17.7	0.00e+00	0	40	0	0	55	4671
2026-01-11 22:28:22.24	105.11	25.86	-42.4	-44.4	17.6	0.00e+00	0	40	0	0	55	4762
2026-01-11 22:28:23.38	105.45	25.81	-42.3	-44.3	17.7	0.00e+00	0	40	0	0	55	4729
2026-01-11 22:28:24.23	105.70	25.78	-42.3	-44.3	17.7	0.00e+00	0	40	0	0	55	4738
2026-01-11 22:28:25.36	106.03	25.74	-42.2	-44.2	17.7	0.00e+00	0	40	0	0	55	4690
2026-01-11 22:28:26.22	106.28	25.70	-42.3	-44.3	17.6	0.00e+00	0	41	0	0	55	4743
2026-01-11 22:28:27.35	106.61	25.66	-42.3	-44.3	17.7	0.00e+00	0	41	0	0	55	4730
2026-01-11 22:28:28.21	106.86	25.62	-42.4	-44.4	17.6	0.00e+00	0	40	0	0	55	4789
2026-01-11 22:28:29.34	107.18	25.57	-42.5	-44.6	17.5	0.00e+00	0	41	0	0	55	4882
2026-01-11 22:28:30.20	107.43	25.54	-42.5	-44.6	17.4	0.00e+00	0	40	0	0	55	4875
2026-01-11 22:28:31.33	107.76	25.49	-42.5	-44.5	17.5	0.00e+00	0	40	0	0	55	4842
2026-01-11 22:28:32.19	108.00	25.45	-42.4	-44.4	17.6	0.00e+00	0	41	0	0	55	4812
2026-01-11 22:28:33.32	108.33	25.40	-42.5	-44.5	17.5	0.00e+00	0	40	0	0	55	4835
2026-01-11 22:28:34.18	108.57	25.36	-42.4	-44.4	17.5	0.00e+00	0	40	0	0	55	4790
2026-01-11 22:28:35.32	108.90	25.31	-42.3	-44.2	17.7	0.00e+00	0	40	0	0	55	4696
2026-01-11 22:28:36.17	109.14	25.27	-42.3	-44.2	17.7	0.00e+00	0	40	0	0	55	4697
2026-01-11 22:28:37.30	109.46	25.21	-42.2	-44.2	17.8	0.00e+00	0	40	0	0	55	4669
2026-01-11 22:28:38.16	109.70	25.17	-42.0	-44.0	17.9	0.00e+00	0	40	0	0	55	4558
2026-01-11 22:28:39.37	110.04	25.11	-42.2	-44.1	17.8	0.00e+00	0	40	0	0	55	4633
2026-01-11 22:28:40.23	110.28	25.07	-42.1	-44.1	17.8	0.00e+00	0	40	0	0	55	4620
2026-01-11 22:28:41.42	110.61	25.01	-42.1	-44.1	17.8	0.00e+00	0	40	0	0	55	4611
2026-01-11 22:28:42.28	110.85	24.97	-42.3	-44.3	17.6	0.00e+00	0	40	0	0	55	4724
2026-01-11 22:28:43.41	111.17	24.91	-42.2	-44.2	17.7	0.00e+00	0	40	0	0	55	4656
2026-01-11 22:28:44.27	111.40	24.86	-42.1	-44.0	17.9	0.00e+00	0	40	0	0	55	4584
2026-01-11 22:28:45.51	111.75	24.80	-42.1	-44.0	17.9	0.00e+00	0	40	0	0	55	4580
2026-01-11 22:28:46.36	111.98	24.75	-42.2	-44.1	17.8	0.00e+00	0	40	0	0	55	4634
2026-01-11 22:28:47.50	112.29	24.69	-42.2	-44.2	17.7	0.00e+00	0	40	0	0	55	4656
2026-01-11 22:28:48.35	112.52	24.65	-42.0	-44.0	17.9	0.00e+00	0	40	0	0	55	4561
2026-01-11 22:28:49.70	112.89	24.57	-41.8	-43.7	18.1	0.00e+00	0	40	0	0	55	4433
2026-01-11 22:28:50.41	113.08	24.53	-41.9	-43.8	18.1	0.00e+00	0	40	0	0	55	4448
2026-01-11 22:28:51.69	113.43	24.46	-42.0	-43.9	17.9	0.00e+00	0	40	0	0	55	4514
2026-01-11 22:28:52.41	113.62	24.42	-42.0	-43.9	17.9	0.00e+00	0	40	0	0	55	4514
2026-01-11 22:28:53.69	113.97	24.35	-42.0	-43.9	18.0	0.00e+00	0	40	0	0	55	4515
2026-01-11 22:28:54.43	114.17	24.31	-41.9	-43.8	18.0	0.00e+00	0	40	0	0	55	4462
2026-01-11 22:28:55.71	114.51	24.23	-41.9	-43.7	18.1	0.00e+00	0	40	0	0	55	4437
2026-01-11 22:28:56.49	114.71	24.19	-41.7	-43.5	18.3	0.00e+00	0	40	0	0	55	4336
2026-01-11 22:28:57.77	115.05	24.11	-41.8	-43.6	18.2	0.00e+00	0	40	0	0	55	4391
2026-01-11 22:28:58.49	115.24	24.07	-41.9	-43.8	18.1	0.00e+00	0	40	0	0	55	4452
2026-01-11 22:28:59.77	115.58	23.99	-42.0	-43.9	18.0	0.00e+00	0	40	0	0	55	4499
2026-01-11 22:29:00.61	115.80	23.94	-42.0	-43.9	17.9	0.00e+00	0	40	0	0	55	4526
2026-01-11 22:29:01.74	116.09	23.87	-42.2	-44.1	17.7	0.00e+00	0	40	0	0	55	4634
2026-01-11 22:29:02.59	116.31	23.82	-42.3	-44.3	17.6	0.00e+00	0	40	0	0	55	4740
2026-01-11 22:29:03.73	116.61	23.75	-42.3	-44.3	17.6	0.00e+00	0	40	0	0	55	4745
2026-01-11 22:29:04.59	116.83	23.69	-42.3	-44.3	17.6	0.00e+00	0	40	0	0	55	4729
2026-01-11 22:29:05.72	117.12	23.62	-42.4	-44.4	17.5	0.00e+00	0	40	0	0	55	4764
2026-01-11 22:29:06.57	117.34	23.57	-42.2	-44.2	17.7	0.00e+00	0	40	0	0	55	4665
2026-01-11 22:29:07.71	117.63	23.50	-42.1	-44.1	17.8	0.00e+00	0	40	0	0	55	4614
2026-01-11 22:29:08.56	117.84	23.44	-42.2	-44.2	17.7	0.00e+00	0	40	0	0	55	4659
2026-01-11 22:29:09.70	118.13	23.37	-42.1	-44.0	17.9	0.00e+00	0	40	0	0	55	4577
2026-01-11 22:29:10.55	118.34	23.31	-42.1	-44.1	17.8	0.00e+00	0	41	0	0	55	4627
2026-01-11 22:29:11.69	118.63	23.24	-42.3	-44.2	17.6	0.00e+00	0	40	0	0	55	4704
2026-01-11 22:29:12.54	118.84	23.18	-42.3	-44.2	17.7	0.00e+00	0	40	0	0	55	4702
2026-01-11 22:29:13.68	119.12	23.11	-42.4	-44.4	17.6	0.00e+00	0	40	0	0	55	4767
2026-01-11 22:29:14.63	119.36	23.05	-42.5	-44.5	17.4	0.00e+00	0	40	0	0	55	4848
2026-01-11 22:29:15.62	119.60	22.98	-42.5	-44.5	17.5	0.00e+00	0	40	0	0	55	4832
2026-01-11 22:29:16.84	119.90	22.90	-42.6	-44.6	17.4	0.00e+00	0	40	0	0	55	4882
2026-01-11 22:29:17.74	120.12	22.84	-42.5	-44.5	17.4	0.00e+00	0	40	0	0	55	4851
2026-01-11 22:29:19.02	120.43	22.75	-42.4	-44.3	17.6	0.00e+00	0	41	0	0	55	4759
2026-01-11 22:29:19.73	120.61	22.70	-42.2	-44.2	17.7	0.00e+00	0	40	0	0	55	4669
2026-01-11 22:29:21.28	120.98	22.59	-42.2	-44.2	17.8	0.00e+00	0	41	0	0	55	4653
2026-01-11 22:29:21.99	121.15	22.55	-42.2	-44.1	17.8	0.00e+00	0	40	0	0	55	4620
2026-01-11 22:29:23.27	121.45	22.46	-42.2	-44.1	17.7	0.00e+00	0	40	0	0	55	4650
2026-01-11 22:29:24.01	121.63	22.41	-42.2	-44.2	17.7	0.00e+00	0	41	0	0	55	4672
2026-01-11 22:29:25.29	121.93	22.32	-42.2	-44.2	17.7	0.00e+00	0	41	0	0	55	4688
2026-01-11 22:29:26.00	122.10	22.27	-42.3	-44.2	17.7	0.00e+00	0	41	0	0	55	4693
2026-01-11 22:29:27.28	122.40	22.18	-42.3	-44.3	17.6	0.00e+00	0	40	0	0	55	4708
2026-01-11 22:29:28.00	122.57	22.12	-42.2	-44.2	17.7	0.00e+00	0	40	0	0	55	4676
2026-01-11 22:29:29.28	122.87	22.03	-42.2	-44.2	17.7	0.00e+00	0	41	0	0	55	4656
2026-01-11 22:29:29.99	123.03	21.98	-42.2	-44.1	17.7	0.00e+00	0	40	0	0	55	4642
2026-01-11 22:29:31.27	123.33	21.89	-42.2	-44.2	17.7	0.00e+00	0	40	0	0	55	4652
2026-01-11 22:29:31.98	123.49	21.84	-42.2	-44.1	17.7	0.00e+00	0	40	0	0	55	4630
2026-01-11 22:29:33.26	123.78	21.75	-42.1	-44.1	17.8	0.00e+00	0	40	0	0	55	4615
2026-01-11 22:29:34.12	123.98	21.69	-42.2	-44.2	17.7	0.00e+00	0	40	0	0	55	4653
2026-01-11 22:29:35.26	124.23	21.60	-42.2	-44.1	17.8	0.00e+00	0	40	0	0	55	4631
2026-01-11 22:29:36.11	124.43	21.54	-42.2	-44.2	17.7	0.00e+00	0	40	0	0	55	4663
2026-01-11 22:29:37.25	124.68	21.46	-42.3	-44.3	17.6	0.00e+00	0	40	0	0	55	4756
2026-01-11 22:29:38.11	124.87	21.39	-42.3	-44.3	17.6	0.00e+00	0	40	0	0	55	4757
2026-01-11 22:29:39.24	125.12	21.31	-42.4	-44.4	17.5	0.00e+00	0	41	0	0	55	4787
2026-01-11 22:29:40.09	125.31	21.25	-42.4	-44.4	17.5	0.00e+00	0	40	0	0	55	4805
2026-01-11 22:29:41.24	125.56	21.16	-42.4	-44.4	17.6	0.00e+00	0	40	0	0	55	4786
2026-01-11 22:29:42.09	125.75	21.10	-42.4	-44.4	17.5	0.00e+00	0	40	0	0	55	4813
2026-01-11 22:29:43.30	126.01	21.01	-42.3	-44.3	17.6	0.00e+00	0	40	0	0	55	4718
2026-01-11 22:29:44.16	126.20	20.95	-42.2	-44.2	17.7	0.00e+00	0	40	0	0	55	4677
2026-01-11 22:29:45.37	126.46	20.85	-42.2	-44.2	17.7	0.00e+00	0	40	0	0	55	4691
2026-01-11 22:29:46.23	126.65	20.79	-42.0	-44.0	17.9	0.00e+00	0	40	0	0	55	4578
2026-01-11 22:29:47.42	126.90	20.70	-42.0	-44.0	17.9	0.00e+00	0	40	0	0	55	4569
2026-01-11 22:29:48.28	127.08	20.64	-42.1	-44.1	17.8	0.00e+00	0	40	0	0	55	4599
2026-01-11 22:29:49.41	127.32	20.55	-42.2	-44.2	17.7	0.00e+00	0	40	0	0	55	4668
2026-01-11 22:29:50.27	127.50	20.49	-42.1	-44.0	17.8	0.00e+00	0	40	0	0	55	4590
2026-01-11 22:29:51.51	127.76	20.39	-42.2	-44.1	17.8	0.00e+00	0	40	0	0	55	4631
2026-01-11 22:29:52.37	127.94	20.33	-42.2	-44.2	17.7	0.00e+00	0	40	0	0	55	4654
2026-01-11 22:29:53.58	128.19	20.23	-42.2	-44.1	17.8	0.00e+00	0	40	0	0	55	4620
2026-01-11 22:29:54.43	128.37	20.17	-42.2	-44.1	17.7	0.00e+00	0	40	0	0	55	4630
2026-01-11 22:29:55.63	128.62	20.08	-42.2	-44.1	17.7	0.00e+00	0	40	0	0	55	4624
2026-01-11 22:29:56.49	128.79	20.01	-42.2	-44.2	17.6	0.00e+00	0	40	0	0	55	4675
2026-01-11 22:29:57.68	129.03	19.92	-42.2	-44.2	17.6	0.00e+00	0	40	0	0	55	4654
2026-01-11 22:29:58.54	129.21	19.85	-42.2	-44.1	17.7	0.00e+00	0	40	0	0	55	4626
2026-01-11 22:29:59.67	129.44	19.77	-42.2	-44.2	17.6	0.00e+00	0	40	0	0	55	4689
2026-01-11 22:30:00.53	129.61	19.70	-42.2	-44.2	17.6	0.00e+00	0	40	0	0	55	4689
2026-01-11 22:30:01.66	129.83	19.61	-42.2	-44.2	17.6	0.00e+00	0	40	0	0	55	4684
2026-01-11 22:30:02.51	130.00	19.55	-42.3	-44.3	17.5	0.00e+00	0	40	0	0	55	4718
2026-01-11 22:30:03.65	130.23	19.46	-42.3	-44.4	17.5	0.00e+00	0	40	0	0	55	4765
2026-01-11 22:30:04.50	130.39	19.39	-42.4	-44.5	17.4	0.00e+00	0	40	0	0	55	4816
2026-01-11 22:30:05.64	130.62	19.31	-42.4	-44.4	17.4	0.00e+00	0	40	0	0	55	4799
2026-01-11 22:30:06.49	130.78	19.24	-42.4	-44.5	17.4	0.00e+00	0	40	0	0	55	4821
2026-01-11 22:30:07.63	131.00	19.15	-42.5	-44.5	17.4	0.00e+00	0	40	0	0	55	4850
2026-01-11 22:30:08.48	131.17	19.09	-42.4	-44.4	17.4	0.00e+00	0	40	0	0	55	4795
2026-01-11 22:30:09.62	131.39	19.00	-42.4	-44.5	17.4	0.00e+00	0	40	0	0	55	4823
2026-01-11 22:30:10.47	131.55	18.93	-42.5	-44.5	17.3	0.00e+00	0	40	0	0	55	4850
2026-01-11 22:30:11.61	131.76	18.84	-42.5	-44.5	17.4	0.00e+00	0	40	0	0	55	4830
2026-01-11 22:30:12.79	131.99	18.75	-42.5	-44.5	17.4	0.00e+00	0	40	0	0	55	4847
2026-01-11 22:30:13.82	132.18	18.67	-42.6	-44.6	17.3	0.00e+00	0	40	0	0	55	4893
2026-01-11 22:30:14.81	132.37	18.59	-42.6	-44.6	17.3	0.00e+00	0	40	0	0	55	4918
2026-01-11 22:30:15.81	132.55	18.51	-42.9	-44.9	17.1	0.00e+00	0	40	0	0	56	4810
2026-01-11 22:30:16.80	132.73	18.44	-42.9	-45.0	17.1	0.00e+00	0	40	0	0	56	4820
2026-01-11 22:30:17.80	132.92	18.36	-42.7	-44.8	17.3	0.00e+00	0	40	0	0	56	4727
2026-01-11 22:30:18.79	133.10	18.28	-42.8	-44.8	17.2	0.00e+00	0	40	0	0	56	4743
2026-01-11 22:30:19.79	133.28	18.20	-42.8	-44.9	17.0	0.00e+00	0	40	0	0	56	4771
2026-01-11 22:30:20.78	133.46	18.12	-42.7	-44.8	17.3	0.00e+00	0	40	0	0	56	4713
2026-01-11 22:30:21.78	133.64	18.05	-42.8	-44.9	17.2	0.00e+00	0	40	0	0	56	4776
2026-01-11 22:30:22.77	133.82	17.97	-42.9	-45.0	17.1	0.00e+00	0	40	0	0	56	4830
2026-01-11 22:30:23.77	134.00	17.89	-43.0	-45.1	17.0	0.00e+00	0	40	0	0	56	4876
2026-01-11 22:30:24.76	134.17	17.81	-42.9	-45.0	17.0	0.00e+00	0	40	0	0	56	4866
2026-01-11 22:30:25.79	134.36	17.73	-43.0	-45.1	17.0	0.00e+00	0	40	0	0	56	4888
2026-01-11 22:30:26.78	134.53	17.65	-43.0	-45.1	17.0	0.00e+00	0	40	0	0	56	4874
2026-01-11 22:30:27.84	134.72	17.57	-42.9	-45.0	17.1	0.00e+00	0	40	0	0	56	4815
2026-01-11 22:30:28.77	134.88	17.50	-42.9	-45.0	17.0	0.00e+00	0	40	0	0	56	4847
2026-01-11 22:30:29.89	135.07	17.41	-43.1	-45.2	16.8	0.00e+00	0	40	0	0	56	4975
2026-01-11 22:30:30.75	135.22	17.34	-43.1	-45.2	16.9	0.00e+00	0	40	0	0	56	4958
2026-01-11 22:30:32.09	135.45	17.24	-43.1	-45.3	16.8	0.00e+00	0	40	0	0	56	4986
2026-01-11 22:30:32.80	135.57	17.18	-43.1	-45.2	16.9	0.00e+00	0	40	0	0	56	4962
2026-01-11 22:30:34.08	135.79	17.08	-43.1	-45.2	16.9	0.00e+00	0	40	0	0	56	4973
2026-01-11 22:30:34.79	135.91	17.03	-43.1	-45.2	16.9	0.00e+00	0	40	0	0	56	4929
2026-01-11 22:30:36.08	136.12	16.92	-43.1	-45.2	16.8	0.00e+00	0	40	0	0	56	4972
2026-01-11 22:30:36.88	136.26	16.86	-43.2	-45.3	16.8	0.00e+00	0	40	0	0	56	5017
2026-01-11 22:30:38.02	136.45	16.77	-43.1	-45.3	16.7	0.00e+00	0	40	0	0	57	4726
2026-01-11 22:30:38.87	136.59	16.71	-43.1	-45.3	16.8	0.00e+00	0	40	0	0	57	4716
2026-01-11 22:30:40.01	136.78	16.62	-43.2	-45.4	16.7	0.00e+00	0	40	0	0	57	4769
2026-01-11 22:30:40.86	136.91	16.55	-43.2	-45.4	16.6	0.00e+00	0	40	0	0	57	4812
2026-01-11 22:30:42.00	137.10	16.46	-43.2	-45.4	16.6	0.00e+00	0	40	0	0	57	4798
2026-01-11 22:30:42.85	137.24	16.39	-43.3	-45.4	16.6	0.00e+00	0	40	0	0	57	4814
2026-01-11 22:30:44.01	137.43	16.30	-43.1	-45.3	16.7	0.00e+00	0	40	0	0	57	4731
2026-01-11 22:30:44.86	137.56	16.24	-43.1	-45.3	16.7	0.00e+00	0	40	0	0	57	4721
2026-01-11 22:30:46.08	137.76	16.14	-43.0	-45.1	16.8	0.00e+00	0	40	0	0	57	4649
2026-01-11 22:30:46.93	137.89	16.08	-42.9	-45.0	17.0	0.00e+00	0	41	0	0	57	4570
2026-01-11 22:30:48.07	138.07	15.99	-42.9	-45.0	17.0	0.00e+00	0	40	0	0	57	4584
2026-01-11 22:30:48.92	138.21	15.92	-43.1	-45.2	16.8	0.00e+00	0	40	0	0	57	4678
2026-01-11 22:30:50.06	138.38	15.83	-43.1	-45.2	16.8	0.00e+00	0	40	0	0	57	4694
2026-01-11 22:30:50.92	138.52	15.76	-43.0	-45.1	16.9	0.00e+00	0	40	0	0	57	4633
2026-01-11 22:30:52.05	138.69	15.68	-43.0	-45.1	17.0	0.00e+00	0	40	0	0	57	4616
2026-01-11 22:30:52.90	138.82	15.61	-43.0	-45.1	16.9	0.00e+00	0	40	0	0	57	4638
2026-01-11 22:30:54.04	139.00	15.52	-43.0	-45.0	17.0	0.00e+00	0	40	0	0	57	4594
2026-01-11 22:30:54.89	139.13	15.46	-43.0	-45.1	16.9	0.00e+00	0	40	0	0	57	4611
2026-01-11 22:30:56.03	139.30	15.37	-43.0	-45.1	16.9	0.00e+00	0	41	0	0	57	4622
2026-01-11 22:30:56.88	139.43	15.30	-43.1	-45.2	16.9	0.00e+00	0	40	0	0	57	4655
2026-01-11 22:30:58.02	139.60	15.21	-43.2	-45.4	16.6	0.00e+00	0	40	0	0	57	4790
2026-01-11 22:30:58.87	139.73	15.15	-43.3	-45.5	16.6	0.00e+00	0	40	0	0	57	4817
2026-01-11 22:31:00.00	139.90	15.06	-43.3	-45.5	16.6	0.00e+00	0	40	0	0	57	4821
2026-01-11 22:31:00.86	140.02	14.99	-43.3	-45.5	16.5	0.00e+00	0	40	0	0	57	4862
2026-01-11 22:31:01.99	140.19	14.91	-43.4	-45.6	16.4	0.00e+00	0	40	0	0	57	4890
2026-01-11 22:31:02.85	140.32	14.84	-43.3	-45.6	16.4	0.00e+00	0	40	0	0	57	4875
2026-01-11 22:31:04.11	140.50	14.74	-43.3	-45.6	16.4	0.00e+00	0	40	0	0	57	4873
2026-01-11 22:31:04.91	140.62	14.68	-43.4	-45.7	16.3	0.00e+00	0	40	0	0	57	4927
2026-01-11 22:31:06.05	140.78	14.59	-43.2	-45.5	16.5	0.00e+00	0	40	0	0	57	4819
2026-01-11 22:31:06.91	140.90	14.53	-43.3	-45.6	16.4	0.00e+00	0	40	0	0	57	4873
2026-01-11 22:31:08.04	141.06	14.44	-43.3	-45.6	16.4	0.00e+00	0	40	0	0	57	4871
2026-01-11 22:31:08.89	141.19	14.38	-43.3	-45.6	16.4	0.00e+00	0	40	0	0	57	4878
2026-01-11 22:31:10.03	141.35	14.29	-43.3	-45.5	16.5	0.00e+00	0	40	0	0	57	4843
2026-01-11 22:31:10.88	141.47	14.22	-43.3	-45.5	16.5	0.00e+00	0	40	0	0	57	4850
2026-01-11 22:31:12.02	141.63	14.14	-43.2	-45.5	16.5	0.00e+00	0	40	0	0	57	4820
2026-01-11 22:31:12.87	141.74	14.07	-43.3	-45.6	16.4	0.00e+00	0	40	0	0	57	4892
2026-01-11 22:31:14.01	141.90	13.98	-43.3	-45.6	16.4	0.00e+00	0	40	0	0	57	4893
2026-01-11 22:31:14.86	142.02	13.92	-43.4	-45.7	16.3	0.00e+00	0	40	0	0	57	4938
2026-01-11 22:31:16.00	142.18	13.83	-43.5	-45.8	16.1	0.00e+00	0	40	0	0	57	5017
2026-01-11 22:31:16.85	142.29	13.77	-43.5	-45.8	16.2	0.00e+00	0	40	0	0	57	5007
2026-01-11 22:31:17.98	142.45	13.68	-43.5	-45.7	16.2	0.00e+00	0	40	0	0	57	4980
2026-01-11 22:31:18.84	142.56	13.62	-43.5	-45.8	16.2	0.00e+00	0	40	0	0	57	4995
2026-01-11 22:31:19.97	142.72	13.53	-43.5	-45.8	16.1	0.00e+00	0	40	0	0	57	5012
2026-01-11 22:31:20.83	142.83	13.47	-43.5	-45.8	16.1	0.00e+00	0	40	0	0	57	5017
2026-01-11 22:31:22.12	143.00	13.37	-43.4	-45.7	16.2	0.00e+00	0	40	0	0	57	4933
2026-01-11 22:31:22.83	143.10	13.32	-43.5	-45.7	16.2	0.00e+00	0	40	0	0	57	4973
2026-01-11 22:31:24.11	143.27	13.22	-43.6	-45.9	16.0	0.00e+00	0	40	0	0	57	5066
2026-01-11 22:31:24.84	143.36	13.16	-43.6	-45.9	16.0	0.00e+00	0	40	0	0	57	5073
2026-01-11 22:31:26.12	143.53	13.07	-43.7	-46.0	15.9	0.00e+00	0	40	0	0	58	4863
2026-01-11 22:31:26.86	143.62	13.01	-43.8	-46.1	15.8	0.00e+00	0	40	0	0	58	4878
2026-01-11 22:31:28.14	143.79	12.92	-43.8	-46.1	15.8	0.00e+00	0	40	0	0	58	4902
2026-01-11 22:31:28.85	143.88	12.86	-43.8	-46.2	15.8	0.00e+00	0	40	0	0	58	4951
2026-01-11 22:31:30.13	144.05	12.77	-43.8	-46.1	15.8	0.00e+00	0	40	0	0	58	4919
2026-01-11 22:31:30.85	144.14	12.71	-43.8	-46.1	15.9	0.00e+00	0	40	0	0	58	4886
2026-01-11 22:31:32.13	144.30	12.62	-43.7	-46.1	15.9	0.00e+00	0	40	0	0	58	4891
2026-01-11 22:31:33.08	144.42	12.55	-43.7	-46.0	16.0	0.00e+00	0	40	0	0	58	4823
2026-01-11 22:31:34.08	144.55	12.47	-43.7	-46.0	16.0	0.00e+00	0	40	0	0	58	4826
2026-01-11 22:31:35.07	144.67	12.40	-43.6	-45.9	16.0	0.00e+00	0	40	0	0	58	4809
2026-01-11 22:31:36.07	144.79	12.33	-43.7	-46.0	16.0	0.00e+00	0	40	0	0	58	4828
2026-01-11 22:31:37.06	144.92	12.25	-43.7	-46.0	15.9	0.00e+00	0	40	0	0	58	4869
2026-01-11 22:31:38.06	145.04	12.18	-43.7	-46.0	15.9	0.00e+00	0	40	0	0	58	4864
2026-01-11 22:31:39.05	145.16	12.10	-43.8	-46.2	15.7	0.00e+00	0	40	0	0	58	4943
2026-01-11 22:31:40.05	145.28	12.03	-43.9	-46.2	15.7	0.00e+00	0	40	0	0	58	4963
2026-01-11 22:31:41.04	145.40	11.96	-43.8	-46.2	15.8	0.00e+00	0	40	0	0	58	4954
2026-01-11 22:31:42.04	145.52	11.88	-43.9	-46.3	15.6	0.00e+00	0	40	0	0	58	5014
2026-01-11 22:31:43.03	145.64	11.81	-43.9	-46.3	15.6	0.00e+00	0	40	0	0	58	5029
2026-01-11 22:31:44.03	145.76	11.74	-43.9	-46.4	15.6	0.00e+00	0	40	0	0	58	5053
2026-01-11 22:31:45.03	145.88	11.67	-43.9	-46.3	15.6	0.00e+00	0	40	0	0	58	5011
2026-01-11 22:31:46.02	146.00	11.59	-43.9	-46.3	15.6	0.00e+00	0	40	0	0	58	5015
2026-01-11 22:31:47.01	146.12	11.52	-43.8	-46.2	15.7	0.00e+00	0	41	0	0	58	4976
2026-01-11 22:31:48.01	146.23	11.45	-43.8	-46.2	15.7	0.00e+00	0	40	0	0	58	4983
2026-01-11 22:31:49.00	146.35	11.38	-43.7	-46.1	15.8	0.00e+00	0	40	0	0	58	4913
2026-01-11 22:31:50.00	146.47	11.30	-43.8	-46.2	15.7	0.00e+00	0	40	0	0	58	4960
2026-01-11 22:31:50.99	146.58	11.23	-43.8	-46.2	15.7	0.00e+00	0	40	0	0	58	4964
2026-01-11 22:31:52.03	146.70	11.16	-43.9	-46.2	15.7	0.00e+00	0	40	0	0	58	4963
2026-01-11 22:31:53.03	146.81	11.08	-43.9	-46.2	15.7	0.00e+00	0	40	0	0	58	4965
2026-01-11 22:31:54.02	146.93	11.01	-43.9	-46.3	15.6	0.00e+00	0	40	0	0	58	4997
2026-01-11 22:31:55.02	147.04	10.94	-44.0	-46.3	15.5	0.00e+00	0	40	0	0	58	5039
2026-01-11 22:31:56.01	147.15	10.87	-44.0	-46.4	15.5	0.00e+00	0	40	0	0	58	5045
2026-01-11 22:31:57.01	147.27	10.80	-43.9	-46.4	15.5	0.00e+00	0	40	0	0	58	5045
2026-01-11 22:31:58.00	147.38	10.73	-43.9	-46.4	15.5	8.92e-05	0	40	0	0	58	5044
2026-01-11 22:31:59.00	147.49	10.65	-44.1	-46.5	15.3	0.00e+00	0	40	0	0	58	5153
2026-01-11 22:32:00.00	147.60	10.58	-44.1	-46.5	15.4	0.00e+00	0	40	0	0	58	5144
2026-01-11 22:32:00.99	147.71	10.51	-44.1	-46.6	15.4	0.00e+00	0	40	0	0	58	5169
2026-01-11 22:32:01.98	147.82	10.44	-44.1	-46.6	15.3	0.00e+00	0	40	0	0	58	5199
2026-01-11 22:32:02.98	147.93	10.37	-44.1	-46.6	15.3	0.00e+00	0	41	0	0	59	4910
2026-01-11 22:32:03.97	148.03	10.30	-44.2	-46.7	15.3	0.00e+00	0	40	0	0	59	4930
2026-01-11 22:32:04.97	148.14	10.23	-44.1	-46.6	15.3	0.00e+00	0	40	0	0	59	4884
2026-01-11 22:32:05.96	148.25	10.16	-44.2	-46.6	15.2	0.00e+00	0	40	0	0	59	4906
2026-01-11 22:32:06.96	148.36	10.09	-44.2	-46.6	15.2	0.00e+00	0	40	0	0	59	4926
2026-01-11 22:32:07.95	148.46	10.02	-44.2	-46.6	15.3	0.00e+00	0	40	0	0	59	4918
2026-01-11 22:32:08.94	148.57	9.95	-44.2	-46.7	15.2	0.00e+00	0	40	0	0	59	4936
2026-01-11 22:32:09.94	148.67	9.88	-44.2	-46.6	15.2	0.00e+00	0	40	0	0	59	4918
2026-01-11 22:32:10.93	148.78	9.81	-44.1	-46.6	15.2	0.00e+00	0	40	0	0	59	4886
2026-01-11 22:32:11.93	148.88	9.74	-44.2	-46.6	15.2	0.00e+00	0	40	0	0	59	4921
2026-01-11 22:32:12.92	148.99	9.67	-44.1	-46.6	15.2	0.00e+00	0	40	0	0	59	4896
2026-01-11 22:32:13.92	149.09	9.60	-44.2	-46.7	15.1	0.00e+00	0	40	0	0	59	4954
2026-01-11 22:32:14.91	149.19	9.53	-44.2	-46.7	15.2	0.00e+00	0	40	0	0	59	4935
2026-01-11 22:32:15.91	149.29	9.46	-44.2	-46.7	15.1	7.00e-07	0	40	0	0	59	4977
2026-01-11 22:32:16.90	149.40	9.39	-44.3	-46.8	15.0	0.00e+00	0	40	0	0	59	5018
2026-01-11 22:32:17.90	149.50	9.32	-44.3	-46.8	14.9	0.00e+00	0	40	0	0	59	5034
2026-01-11 22:32:18.89	149.60	9.25	-44.3	-46.9	14.9	0.00e+00	0	40	0	0	59	5080
2026-01-11 22:32:19.89	149.70	9.18	-44.4	-47.1	14.8	7.00e-07	0	40	0	0	59	5163
2026-01-11 22:32:20.98	149.81	9.11	-44.4	-47.0	14.8	0.00e+00	0	40	0	0	59	5151
2026-01-11 22:32:21.83	149.89	9.05	-44.5	-47.1	14.7	0.00e+00	0	40	0	0	59	5198
2026-01-11 22:32:22.97	150.01	8.97	-50.0	-63.1	3.8	3.81e-02	0	40	104	0	70	17386
2026-01-11 22:32:23.82	150.09	8.91	-50.3	-63.2	3.8	1.49e+00	0	40	104	0	71	16644
2026-01-11 22:32:24.95	150.20	8.84	-50.3	-63.5	3.8	1.49e+00	0	40	104	0	71	17092
2026-01-11 22:32:25.80	150.29	8.78	-50.1	-63.5	3.8	1.49e+00	0	40	104	0	71	17235
2026-01-11 22:32:26.94	150.40	8.70	-50.6	-63.7	3.8	1.49e+00	0	40	104	0	71	17525
2026-01-11 22:32:27.79	150.48	8.64	-50.7	-63.7	3.8	1.49e+00	0	40	104	0	72	16517
2026-01-11 22:32:28.92	150.59	8.56	-50.7	-63.7	3.8	1.49e+00	0	40	104	0	72	16571
2026-01-11 22:32:29.77	150.67	8.51	-50.7	-63.7	3.8	1.49e+00	0	40	104	0	72	16683
2026-01-11 22:32:30.91	150.78	8.43	-50.7	-63.7	3.8	1.49e+00	0	40	104	0	72	16643
2026-01-11 22:32:31.76	150.87	8.37	-50.7	-63.7	3.8	1.49e+00	0	40	104	0	72	16651
2026-01-11 22:32:32.90	150.97	8.29	-50.7	-63.8	3.8	1.49e+00	0	40	104	0	72	16751
2026-01-11 22:32:33.75	151.06	8.24	-50.8	-63.8	3.8	1.49e+00	0	40	104	0	72	16703
2026-01-11 22:32:34.88	151.16	8.16	-50.6	-63.8	3.8	1.49e+00	0	40	104	0	72	16796
2026-01-11 22:32:35.73	151.24	8.10	-50.8	-63.8	3.8	1.49e+00	0	40	104	0	72	16796
2026-01-11 22:32:36.87	151.35	8.03	-50.7	-63.8	3.8	1.49e+00	0	40	104	0	72	16833
2026-01-11 22:32:37.72	151.43	7.97	-50.8	-63.8	3.8	1.49e+00	0	40	104	0	72	16844
2026-01-11 22:32:38.85	151.53	7.89	-50.9	-63.8	3.8	1.49e+00	0	40	104	0	72	16761
2026-01-11 22:32:39.71	151.61	7.84	-50.7	-63.8	3.8	1.49e+00	0	40	104	0	72	16854
2026-01-11 22:32:40.84	151.72	7.76	-50.7	-63.8	3.8	1.49e+00	0	40	104	0	72	16874
2026-01-11 22:32:41.69	151.79	7.70	-50.8	-63.8	3.8	1.49e+00	0	40	104	0	72	16794
2026-01-11 22:32:42.83	151.90	7.63	-50.7	-63.7	3.8	1.49e+00	0	40	104	0	72	16689
2026-01-11 22:32:43.68	151.98	7.57	-50.7	-63.8	3.8	1.49e+00	0	40	104	0	72	16787
2026-01-11 22:32:44.82	152.08	7.50	-50.6	-63.7	3.8	1.49e+00	0	40	104	0	72	16686
2026-01-11 22:32:45.67	152.16	7.44	-50.6	-63.7	3.8	1.49e+00	0	40	104	0	72	16637
2026-01-11 22:32:46.80	152.26	7.37	-50.6	-63.7	3.8	1.49e+00	0	40	104	0	72	16664
2026-01-11 22:32:47.65	152.33	7.31	-50.6	-63.7	3.8	1.49e+00	0	40	104	0	72	16664
2026-01-11 22:32:48.79	152.43	7.23	-50.6	-63.7	3.8	1.49e+00	0	40	104	0	72	16640
2026-01-11 22:32:49.64	152.51	7.18	-50.6	-63.7	3.8	1.49e+00	0	40	104	0	72	16664
2026-01-11 22:32:50.78	152.61	7.10	-50.6	-63.7	3.8	1.49e+00	0	40	104	0	72	16659
2026-01-11 22:32:51.63	152.68	7.05	-50.6	-63.7	3.8	1.49e+00	0	40	104	0	72	16637
2026-01-11 22:32:52.77	152.78	6.97	-50.6	-63.7	3.8	1.49e+00	0	40	104	0	72	16644
2026-01-11 22:32:53.62	152.86	6.92	-50.6	-63.7	3.8	1.49e+00	0	40	104	0	72	16664
2026-01-11 22:32:54.75	152.96	6.84	-50.6	-63.8	3.8	1.49e+00	0	40	104	0	72	16706
2026-01-11 22:32:55.60	153.03	6.79	-50.6	-63.7	3.8	1.49e+00	0	40	104	0	72	16659
2026-01-11 22:32:56.74	153.13	6.71	-50.6	-63.7	3.8	1.49e+00	0	40	104	0	72	16681
2026-01-11 22:32:57.59	153.20	6.66	-50.6	-63.7	3.8	1.49e+00	0	40	104	0	72	16610
2026-01-11 22:32:58.73	153.30	6.59	-50.6	-63.7	3.8	1.49e+00	0	40	104	0	72	16600
2026-01-11 22:32:59.58	153.37	6.53	-50.6	-63.7	3.8	1.49e+00	0	40	104	0	72	16608
2026-01-11 22:33:00.72	153.47	6.46	-50.6	-63.7	3.8	1.49e+00	0	40	104	0	72	16694
2026-01-11 22:33:01.57	153.54	6.40	-50.6	-63.7	3.8	1.49e+00	0	40	104	0	72	16641
2026-01-11 22:33:02.70	153.63	6.33	-50.6	-63.7	3.8	1.49e+00	0	40	104	0	72	16637
2026-01-11 22:33:03.55	153.70	6.27	-50.6	-63.7	3.8	1.49e+00	0	40	104	0	72	16663
2026-01-11 22:33:04.69	153.80	6.20	-50.6	-63.7	3.8	1.49e+00	0	40	104	0	72	16544
2026-01-11 22:33:05.54	153.87	6.15	-50.6	-63.7	3.8	1.49e+00	0	40	104	0	72	16564
2026-01-11 22:33:06.68	153.96	6.07	-50.6	-63.7	3.8	1.49e+00	0	40	104	0	72	16599
2026-01-11 22:33:07.53	154.03	6.02	-50.6	-63.7	3.8	1.49e+00	0	40	104	0	72	16594
2026-01-11 22:33:08.66	154.12	5.95	-50.6	-63.7	3.8	1.49e+00	0	40	104	0	72	16643
2026-01-11 22:33:09.51	154.19	5.89	-50.6	-63.7	3.8	1.49e+00	0	40	104	0	72	16675
2026-01-11 22:33:10.65	154.29	5.82	-50.6	-63.7	3.8	1.49e+00	0	40	104	0	72	16606
2026-01-11 22:33:11.50	154.35	5.77	-50.6	-63.7	3.8	1.49e+00	0	40	104	0	7
