passes_logs/2026/01/11/T1/T1__20260111_051610_FENGYUN_3E_rec.log

#Pass ID: 20260111_051610_FENGYUN 3E
#Satellite: FENGYUN 3E
#Configuration: FENGYUN 3E
#almurnet v.1.7.20251203
#Start time: 2026-01-11 05:16:10

#Version: 2.0.20230620
#Station: T1
#Location: 37.570604 lon 55.790049 lat
#TLE: 1 49008U 21062A   26010.00248113 -.00000186  00000+0 -66867-4 0  9993
#TLE: 2 49008  98.7487  15.1892 0001787 147.8079 212.3207 14.19883469234134

#Time	Az	El	Level	Level2	SNR	BER	BlckErr	Temp	State	Recorded	gain1	gain2
2026-01-11 05:16:10.73	8.54	5.03	-49.2	-61.4	3.8	8.46e-01	0	41	0	0	69	14207
2026-01-11 05:16:11.72	8.48	5.10	-49.4	-61.1	3.8	8.46e-01	0	42	104	0	68	14467
2026-01-11 05:16:12.73	8.42	5.16	-49.4	-61.2	3.8	8.47e-01	0	41	104	0	68	14623
2026-01-11 05:16:13.74	8.35	5.23	-49.4	-61.2	3.8	8.47e-01	0	42	104	0	68	14550
2026-01-11 05:16:14.74	8.29	5.29	-49.4	-61.1	3.8	8.47e-01	0	42	104	0	68	14517
2026-01-11 05:16:15.74	8.22	5.36	-49.3	-61.2	3.8	8.46e-01	0	42	104	0	68	14615
2026-01-11 05:16:16.75	8.16	5.42	-49.4	-61.1	3.8	8.47e-01	0	42	104	0	68	14535
2026-01-11 05:16:17.75	8.09	5.49	-49.4	-61.2	3.8	8.47e-01	0	42	104	0	68	14603
2026-01-11 05:16:18.75	8.03	5.55	-49.4	-61.2	3.8	8.46e-01	0	42	104	0	68	14599
2026-01-11 05:16:19.76	7.96	5.62	-49.4	-61.2	3.8	8.47e-01	0	42	104	0	68	14547
2026-01-11 05:16:20.76	7.90	5.69	-49.4	-61.2	3.8	8.48e-01	0	42	104	0	68	14553
2026-01-11 05:16:21.77	7.83	5.75	-49.4	-61.1	3.8	8.46e-01	0	42	104	0	68	14449
2026-01-11 05:16:22.77	7.76	5.82	-49.3	-61.1	3.8	8.46e-01	0	42	104	0	68	14531
2026-01-11 05:16:23.78	7.70	5.89	-49.4	-61.1	3.8	8.47e-01	0	42	104	0	68	14494
2026-01-11 05:16:24.78	7.63	5.95	-49.4	-61.1	3.8	8.47e-01	0	42	104	0	68	14525
2026-01-11 05:16:25.79	7.56	6.02	-49.4	-61.2	3.8	8.47e-01	0	42	104	0	68	14555
2026-01-11 05:16:26.79	7.49	6.09	-49.2	-61.0	3.8	8.47e-01	0	42	104	0	67	15150
2026-01-11 05:16:27.79	7.43	6.15	-49.2	-61.0	3.8	8.47e-01	0	42	104	0	67	15161
2026-01-11 05:16:28.80	7.36	6.22	-49.2	-61.1	3.8	8.46e-01	0	42	104	0	67	15265
2026-01-11 05:16:29.80	7.29	6.29	-49.1	-61.0	3.8	8.47e-01	0	42	104	0	67	15101
2026-01-11 05:16:30.81	7.22	6.36	-49.1	-60.9	3.8	8.47e-01	0	42	104	0	67	14942
2026-01-11 05:16:31.81	7.15	6.42	-49.2	-60.8	3.8	8.48e-01	0	42	104	0	67	14780
2026-01-11 05:16:32.81	7.08	6.49	-49.1	-60.7	3.8	8.47e-01	0	42	104	0	67	14549
2026-01-11 05:16:33.82	7.01	6.56	-49.2	-60.6	3.8	8.46e-01	0	43	104	0	67	14387
2026-01-11 05:16:34.82	6.94	6.63	-49.0	-60.5	3.8	8.48e-01	0	43	104	0	67	14303
2026-01-11 05:16:35.83	6.87	6.70	-49.1	-60.4	3.8	8.48e-01	0	43	104	0	67	14177
2026-01-11 05:16:36.83	6.80	6.76	-49.0	-60.4	3.8	8.46e-01	0	42	104	0	67	14066
2026-01-11 05:16:37.84	6.72	6.83	-49.0	-60.2	3.8	8.47e-01	0	42	104	0	67	13841
2026-01-11 05:16:38.84	6.65	6.90	-49.1	-60.1	3.9	8.46e-01	0	43	104	0	67	13571
2026-01-11 05:16:39.84	6.58	6.97	-49.0	-59.8	3.8	8.45e-01	0	43	104	0	67	13220
2026-01-11 05:16:40.85	6.51	7.04	-49.0	-59.5	3.8	8.46e-01	0	43	104	0	67	12782
2026-01-11 05:16:41.85	6.43	7.11	-48.7	-59.4	3.8	8.47e-01	0	43	104	0	67	12571
2026-01-11 05:16:42.86	6.36	7.18	-49.1	-59.3	3.9	8.45e-01	0	43	104	0	67	12513
2026-01-11 05:16:43.86	6.29	7.25	-49.0	-59.6	3.8	8.47e-01	0	43	104	0	67	12816
2026-01-11 05:16:44.86	6.21	7.32	-49.0	-59.9	3.8	8.47e-01	0	43	104	0	67	13375
2026-01-11 05:16:45.87	6.14	7.39	-49.1	-60.3	3.9	8.48e-01	0	43	104	0	67	14041
2026-01-11 05:16:46.87	6.06	7.46	-49.1	-60.7	3.8	8.47e-01	0	43	104	0	67	14574
2026-01-11 05:16:47.88	5.99	7.53	-49.1	-60.7	3.8	8.47e-01	0	43	104	0	67	14544
2026-01-11 05:16:48.88	5.91	7.60	-48.9	-59.9	3.8	8.47e-01	0	43	104	0	67	13289
2026-01-11 05:16:49.88	5.83	7.67	-48.8	-58.6	3.9	8.46e-01	0	43	104	0	66	12107
2026-01-11 05:16:50.89	5.76	7.74	-48.7	-56.7	4.4	8.32e-01	0	43	0	0	66	9772
2026-01-11 05:16:51.89	5.68	7.81	-48.2	-55.0	5.3	7.46e-01	0	43	0	0	65	8479
2026-01-11 05:16:52.90	5.60	7.88	-47.7	-53.3	6.5	2.77e-01	0	43	0	4194304	65	7018
2026-01-11 05:16:53.90	5.53	7.95	-47.4	-52.0	7.8	1.19e-01	0	43	0	11534336	65	5998
2026-01-11 05:16:54.90	5.45	8.02	-46.9	-50.8	9.1	3.35e-02	0	43	0	18874368	63	5886
2026-01-11 05:16:55.91	5.37	8.09	-46.5	-50.1	9.8	1.39e-02	0	43	0	24117248	62	5758
2026-01-11 05:16:57.06	5.28	8.17	-45.6	-48.5	11.5	1.48e-03	0	43	0	34603008	60	5358
2026-01-11 05:16:57.92	5.21	8.23	-45.2	-47.7	12.2	1.39e-02	0	43	0	40894464	59	5176
2026-01-11 05:16:59.06	5.12	8.31	-44.4	-46.7	13.3	4.00e-05	0	43	0	49283072	58	4890
2026-01-11 05:16:59.92	5.05	8.38	-43.9	-45.9	14.1	4.50e-06	0	43	0	55574528	57	4709
2026-01-11 05:17:01.06	4.96	8.46	-43.5	-45.3	14.6	2.20e-06	0	43	0	62914560	56	4686
2026-01-11 05:17:01.92	4.89	8.52	-42.9	-44.7	15.1	0.00e+00	0	43	0	69206016	55	4603
2026-01-11 05:17:03.07	4.80	8.60	-42.5	-44.1	15.7	0.00e+00	0	43	0	77594624	55	4339
2026-01-11 05:17:03.93	4.73	8.66	-42.7	-44.3	15.4	0.00e+00	0	43	0	83886080	55	4440
2026-01-11 05:17:05.07	4.63	8.75	-42.8	-44.5	15.3	0.00e+00	0	43	0	92274688	55	4513
2026-01-11 05:17:05.93	4.56	8.81	-43.2	-45.0	14.8	0.00e+00	0	43	0	98566144	55	4802
2026-01-11 05:17:07.08	4.47	8.89	-44.0	-46.1	13.9	1.10e-06	0	43	0	106954752	57	4819
2026-01-11 05:17:07.94	4.40	8.95	-44.8	-47.2	12.7	4.69e-05	0	43	0	113246208	59	4886
2026-01-11 05:17:09.08	4.30	9.04	-46.1	-49.2	10.7	1.64e-03	0	43	0	121634816	61	5519
2026-01-11 05:17:09.94	4.23	9.10	-46.1	-49.3	10.7	2.94e-03	0	43	0	127926272	61	5542
2026-01-11 05:17:11.08	4.13	9.18	-42.9	-44.6	15.3	0.00e+00	0	43	0	136314880	55	4555
2026-01-11 05:17:11.94	4.06	9.25	-48.8	-58.2	4.0	5.85e-01	0	43	0	140509184	67	11028
2026-01-11 05:17:13.08	3.96	9.33	-46.9	-50.8	9.1	2.70e-02	0	43	0	143654912	63	5910
2026-01-11 05:17:13.94	3.89	9.39	-41.4	-42.7	17.1	0.00e+00	0	43	0	149946368	53	4111
2026-01-11 05:17:15.08	3.79	9.48	-41.4	-42.8	17.0	0.00e+00	0	43	0	157286400	53	4170
2026-01-11 05:17:15.93	3.71	9.54	-41.4	-42.8	17.0	0.00e+00	0	43	0	163577856	53	4171
2026-01-11 05:17:17.07	3.61	9.62	-41.3	-42.7	17.2	0.00e+00	0	44	0	171966464	52	4359
2026-01-11 05:17:17.92	3.54	9.69	-41.1	-42.5	17.3	0.00e+00	0	43	0	178257920	51	4516
2026-01-11 05:17:19.07	3.44	9.77	-41.2	-42.6	17.3	0.00e+00	0	44	0	186646528	51	4568
2026-01-11 05:17:19.91	3.36	9.83	-41.0	-42.4	17.5	0.00e+00	0	44	0	192937984	51	4480
2026-01-11 05:17:21.05	3.26	9.92	-41.0	-42.4	17.5	0.00e+00	0	43	0	201326592	51	4474
2026-01-11 05:17:21.91	3.19	9.98	-40.8	-42.3	17.6	0.00e+00	0	44	0	206569472	51	4395
2026-01-11 05:17:23.05	3.08	10.07	-40.8	-42.2	17.7	0.00e+00	0	43	0	214958080	51	4384
2026-01-11 05:17:23.91	3.01	10.13	-40.8	-42.3	17.7	0.00e+00	0	44	0	221249536	51	4394
2026-01-11 05:17:25.05	2.90	10.22	-40.9	-42.3	17.6	0.00e+00	0	43	0	229638144	51	4418
2026-01-11 05:17:25.91	2.82	10.28	-40.9	-42.4	17.6	0.00e+00	0	44	0	235929600	51	4452
2026-01-11 05:17:27.05	2.72	10.37	-40.8	-42.2	17.7	0.00e+00	0	44	0	244318208	51	4391
2026-01-11 05:17:27.91	2.64	10.43	-40.6	-42.1	17.8	0.00e+00	0	44	0	250609664	51	4302
2026-01-11 05:17:29.05	2.53	10.52	-40.4	-42.0	17.9	3.46e-04	0	44	0	258998272	50	4511
2026-01-11 05:17:29.91	2.45	10.59	-40.5	-42.0	17.9	0.00e+00	0	44	0	265289728	50	4544
2026-01-11 05:17:31.05	2.34	10.67	-40.4	-41.9	18.0	0.00e+00	0	44	0	272629760	50	4472
2026-01-11 05:17:31.92	2.26	10.74	-40.6	-42.1	17.8	0.00e+00	0	44	0	279969792	50	4580
2026-01-11 05:17:33.06	2.15	10.83	-40.7	-42.2	17.7	0.00e+00	0	44	0	287309824	50	4633
2026-01-11 05:17:33.92	2.07	10.89	-40.5	-42.1	17.9	0.00e+00	0	44	0	293601280	50	4550
2026-01-11 05:17:35.07	1.96	10.98	-40.5	-42.0	17.9	0.00e+00	0	44	0	301989888	50	4531
2026-01-11 05:17:35.92	1.88	11.05	-40.7	-42.2	17.7	0.00e+00	0	44	0	308281344	50	4647
2026-01-11 05:17:37.07	1.77	11.14	-40.4	-41.9	18.1	0.00e+00	0	44	0	316669952	51	4221
2026-01-11 05:17:37.93	1.68	11.20	-40.3	-42.0	18.0	0.00e+00	0	44	0	322961408	51	4243
2026-01-11 05:17:39.07	1.57	11.29	-40.6	-42.1	18.0	0.00e+00	0	44	0	331350016	50	4546
2026-01-11 05:17:39.93	1.49	11.36	-40.5	-42.0	18.0	0.00e+00	0	44	0	337641472	50	4523
2026-01-11 05:17:41.08	1.37	11.45	-40.6	-42.0	18.0	0.00e+00	0	44	0	346030080	50	4525
2026-01-11 05:17:41.94	1.29	11.51	-40.8	-42.3	17.8	0.00e+00	0	44	0	351272960	50	4659
2026-01-11 05:17:43.08	1.17	11.60	-40.7	-42.1	17.8	0.00e+00	0	44	0	359661568	50	4597
2026-01-11 05:17:43.94	1.08	11.67	-40.7	-42.2	17.8	0.00e+00	0	44	0	365953024	51	4343
2026-01-11 05:17:45.08	0.97	11.76	-40.8	-42.2	17.8	0.00e+00	0	44	0	374341632	51	4375
2026-01-11 05:17:45.94	0.88	11.83	-40.8	-42.2	17.8	0.00e+00	0	44	0	380633088	51	4385
2026-01-11 05:17:47.08	0.76	11.92	-40.8	-42.3	17.8	0.00e+00	0	44	0	389021696	51	4402
2026-01-11 05:17:47.94	0.67	11.98	-40.7	-42.2	17.9	0.00e+00	0	44	0	395313152	51	4341
2026-01-11 05:17:49.08	0.56	12.07	-40.9	-42.3	17.7	0.00e+00	0	44	0	403701760	51	4439
2026-01-11 05:17:49.94	0.47	12.14	-40.8	-42.2	17.8	8.81e-05	0	44	0	409993216	51	4380
2026-01-11 05:17:51.08	0.35	12.23	-40.7	-42.1	17.9	0.00e+00	0	44	0	417333248	51	4335
2026-01-11 05:17:51.94	0.26	12.30	-40.8	-42.2	17.9	0.00e+00	0	44	0	423624704	51	4347
2026-01-11 05:17:53.08	0.13	12.39	-40.8	-42.2	17.9	4.00e-05	0	44	0	432013312	51	4341
2026-01-11 05:17:53.94	0.04	12.46	-40.6	-41.9	18.1	0.00e+00	0	44	0	438304768	50	4471
2026-01-11 05:17:55.08	359.92	12.55	-40.6	-41.9	18.2	0.00e+00	0	44	0	446693376	50	4458
2026-01-11 05:17:55.94	359.83	12.62	-40.7	-42.0	18.1	0.00e+00	0	44	0	452984832	50	4496
2026-01-11 05:17:57.08	359.70	12.71	-40.6	-41.9	18.2	0.00e+00	0	44	0	461373440	50	4442
2026-01-11 05:17:57.93	359.61	12.78	-40.7	-42.0	18.1	0.00e+00	0	44	0	467664896	50	4517
2026-01-11 05:17:59.08	359.48	12.87	-40.6	-41.8	18.3	0.00e+00	0	44	0	476053504	50	4406
2026-01-11 05:17:59.93	359.39	12.94	-40.5	-41.7	18.3	0.00e+00	0	44	0	481296384	50	4373
2026-01-11 05:18:01.08	359.26	13.04	-39.5	-41.8	18.2	0.00e+00	0	44	0	489684992	50	4421
2026-01-11 05:18:01.94	359.17	13.10	-40.5	-41.7	18.3	0.00e+00	0	44	0	495976448	50	4359
2026-01-11 05:18:03.08	359.04	13.20	-40.6	-41.8	18.3	0.00e+00	0	44	0	504365056	50	4398
2026-01-11 05:18:03.94	358.94	13.27	-40.5	-41.6	18.4	0.00e+00	0	44	0	510656512	50	4333
2026-01-11 05:18:05.09	358.81	13.36	-40.5	-41.7	18.4	0.00e+00	0	44	0	519045120	50	4350
2026-01-11 05:18:05.94	358.71	13.43	-40.4	-41.5	18.5	0.00e+00	0	44	0	525336576	50	4287
2026-01-11 05:18:07.09	358.58	13.53	-40.4	-41.5	18.5	0.00e+00	0	44	0	533725184	50	4279
2026-01-11 05:18:07.94	358.48	13.60	-40.4	-41.6	18.5	0.00e+00	0	44	0	538968064	50	4301
2026-01-11 05:18:09.09	358.35	13.69	-40.3	-41.5	18.6	0.00e+00	0	44	0	547356672	50	4243
2026-01-11 05:18:09.95	358.25	13.76	-40.3	-41.5	18.6	0.00e+00	0	44	0	553648128	50	4252
2026-01-11 05:18:11.09	358.12	13.85	-40.3	-41.5	18.6	0.00e+00	0	44	0	562036736	50	4247
2026-01-11 05:18:11.95	358.01	13.93	-40.4	-41.5	18.6	0.00e+00	0	44	0	568328192	50	4272
2026-01-11 05:18:13.09	357.88	14.02	-40.2	-41.3	18.8	0.00e+00	0	44	0	576716800	49	4427
2026-01-11 05:18:13.95	357.77	14.09	-40.1	-41.2	18.8	0.00e+00	0	44	0	583008256	49	4368
2026-01-11 05:18:15.10	357.64	14.19	-40.1	-41.2	18.9	0.00e+00	0	44	0	591396864	49	4365
2026-01-11 05:18:15.96	357.53	14.26	-40.1	-41.2	18.8	0.00e+00	0	44	0	597688320	49	4380
2026-01-11 05:18:17.11	357.39	14.36	-40.1	-41.2	18.8	0.00e+00	0	44	0	605028352	49	4374
2026-01-11 05:18:17.96	357.29	14.43	-39.9	-41.0	19.0	0.00e+00	0	44	0	611319808	49	4291
2026-01-11 05:18:19.11	357.15	14.52	-39.9	-41.0	19.0	0.00e+00	0	44	0	619708416	50	4045
2026-01-11 05:18:19.97	357.04	14.59	-39.9	-41.0	19.1	0.00e+00	0	44	0	625999872	49	4260
2026-01-11 05:18:21.11	356.90	14.69	-40.1	-41.2	18.9	0.00e+00	0	44	0	634388480	49	4383
2026-01-11 05:18:21.97	356.79	14.76	-40.0	-41.1	19.0	8.00e-06	0	44	0	640679936	49	4312
2026-01-11 05:18:23.12	356.64	14.86	-40.0	-41.1	18.9	0.00e+00	0	44	0	649068544	49	4340
2026-01-11 05:18:23.97	356.54	14.93	-39.7	-40.8	19.2	0.00e+00	0	44	0	655360000	49	4184
2026-01-11 05:18:25.12	356.39	15.03	-40.0	-41.1	18.9	6.52e-05	0	44	0	663748608	49	4328
2026-01-11 05:18:25.98	356.28	15.10	-40.1	-41.2	18.9	0.00e+00	0	44	0	670040064	49	4382
2026-01-11 05:18:27.12	356.13	15.20	-40.0	-41.1	19.0	0.00e+00	0	44	0	678428672	49	4334
2026-01-11 05:18:27.98	356.02	15.27	-39.8	-40.9	19.2	0.00e+00	0	44	0	683671552	49	4222
2026-01-11 05:18:29.12	355.87	15.37	-40.0	-41.1	19.0	0.00e+00	0	44	0	692060160	49	4325
2026-01-11 05:18:29.98	355.76	15.44	-39.8	-40.8	19.2	0.00e+00	0	44	0	698351616	49	4193
2026-01-11 05:18:31.12	355.61	15.54	-39.7	-40.8	19.3	0.00e+00	0	44	0	706740224	48	4409
2026-01-11 05:18:31.98	355.49	15.62	-39.8	-40.9	19.2	0.00e+00	0	44	0	713031680	49	4201
2026-01-11 05:18:33.13	355.34	15.71	-39.6	-40.7	19.4	0.00e+00	0	44	0	721420288	48	4371
2026-01-11 05:18:33.99	355.22	15.79	-39.6	-40.7	19.4	0.00e+00	0	44	0	727711744	48	4376
2026-01-11 05:18:35.13	355.07	15.89	-39.6	-40.7	19.4	0.00e+00	0	44	0	736100352	48	4376
2026-01-11 05:18:35.99	354.95	15.96	-39.5	-40.6	19.5	0.00e+00	0	44	0	742391808	48	4317
2026-01-11 05:18:37.13	354.80	16.06	-39.5	-40.7	19.4	0.00e+00	0	44	0	749731840	48	4350
2026-01-11 05:18:37.99	354.68	16.13	-39.5	-40.6	19.5	0.00e+00	0	44	0	756023296	48	4298
2026-01-11 05:18:39.13	354.52	16.23	-39.5	-40.6	19.5	0.00e+00	0	44	0	764411904	48	4331
2026-01-11 05:18:39.99	354.40	16.31	-39.4	-40.5	19.6	0.00e+00	0	44	0	770703360	48	4285
2026-01-11 05:18:41.14	354.24	16.41	-39.5	-40.6	19.5	0.00e+00	0	44	0	779091968	48	4333
2026-01-11 05:18:41.99	354.12	16.48	-39.5	-40.6	19.5	0.00e+00	0	44	0	785383424	48	4318
2026-01-11 05:18:43.14	353.96	16.58	-39.5	-40.6	19.5	0.00e+00	0	44	0	793772032	48	4314
2026-01-11 05:18:44.00	353.83	16.66	-39.7	-40.8	19.4	0.00e+00	0	44	0	800063488	48	4417
2026-01-11 05:18:45.14	353.67	16.76	-39.8	-40.9	19.3	0.00e+00	0	44	0	808452096	48	4447
2026-01-11 05:18:46.00	353.55	16.83	-39.8	-40.9	19.3	0.00e+00	0	44	0	813694976	48	4448
2026-01-11 05:18:47.15	353.38	16.93	-39.8	-40.9	19.2	0.00e+00	0	44	0	822083584	49	4232
2026-01-11 05:18:48.00	353.25	17.01	-39.8	-40.9	19.3	0.00e+00	0	44	0	828375040	49	4215
2026-01-11 05:18:49.15	353.08	17.11	-39.9	-40.9	19.2	0.00e+00	0	44	0	836763648	49	4241
2026-01-11 05:18:50.01	352.96	17.19	-39.9	-41.0	19.2	0.00e+00	0	44	0	843055104	49	4252
2026-01-11 05:18:51.15	352.79	17.29	-39.8	-40.9	19.2	0.00e+00	0	44	0	851443712	49	4226
2026-01-11 05:18:52.01	352.66	17.36	-39.7	-40.8	19.4	0.00e+00	0	44	0	857735168	49	4170
2026-01-11 05:18:53.16	352.49	17.46	-39.6	-40.6	19.5	0.00e+00	0	44	0	866123776	49	4090
2026-01-11 05:18:54.01	352.36	17.54	-39.4	-40.4	19.7	0.00e+00	0	44	0	871366656	49	3991
2026-01-11 05:18:55.16	352.18	17.64	-39.2	-40.2	19.9	0.00e+00	0	44	0	879755264	48	4137
2026-01-11 05:18:56.02	352.05	17.72	-39.0	-40.1	19.7	0.00e+00	0	44	0	887095296	47	4317
2026-01-11 05:18:57.16	351.87	17.82	-39.1	-40.2	19.7	0.00e+00	0	44	0	895483904	47	4362
2026-01-11 05:18:58.02	351.74	17.90	-39.0	-40.1	19.8	0.00e+00	0	44	0	900726784	47	4317
2026-01-11 05:18:59.16	351.56	18.00	-38.9	-40.0	19.8	0.00e+00	0	44	0	909115392	47	4274
2026-01-11 05:19:00.02	351.43	18.07	-38.9	-40.0	19.9	0.00e+00	0	44	0	915406848	47	4262
2026-01-11 05:19:01.16	351.25	18.18	-38.9	-40.0	19.9	0.00e+00	0	44	0	923795456	47	4271
2026-01-11 05:19:02.02	351.11	18.25	-38.9	-40.0	19.8	0.00e+00	0	44	0	930086912	47	4280
2026-01-11 05:19:03.16	350.93	18.36	-39.0	-40.1	19.8	0.00e+00	0	44	0	938475520	47	4296
2026-01-11 05:19:04.03	350.79	18.43	-39.1	-40.2	19.7	0.00e+00	0	44	0	944766976	47	4376
2026-01-11 05:19:05.17	350.60	18.54	-39.0	-40.1	19.7	0.00e+00	0	44	0	953155584	47	4329
2026-01-11 05:19:06.03	350.46	18.61	-39.0	-40.2	19.7	0.00e+00	0	44	0	958398464	47	4365
2026-01-11 05:19:07.16	350.28	18.72	-39.1	-40.2	19.7	0.00e+00	0	44	0	966787072	47	4375
2026-01-11 05:19:08.02	350.14	18.79	-39.1	-40.3	19.7	0.00e+00	0	44	0	973078528	47	4394
2026-01-11 05:19:09.17	349.94	18.90	-39.1	-40.2	19.7	0.00e+00	0	44	0	981467136	47	4380
2026-01-11 05:19:10.03	349.80	18.97	-39.1	-40.3	19.6	0.00e+00	0	44	0	987758592	47	4402
2026-01-11 05:19:11.17	349.61	19.08	-39.0	-40.1	19.8	0.00e+00	0	45	0	996147200	47	4324
2026-01-11 05:19:12.03	349.46	19.15	-39.1	-40.2	19.6	0.00e+00	0	44	0	1002438656	47	4390
2026-01-11 05:19:13.17	349.27	19.26	-39.0	-40.1	19.8	0.00e+00	0	44	0	1010827264	47	4321
2026-01-11 05:19:14.03	349.12	19.34	-39.0	-40.1	19.8	0.00e+00	0	44	0	1017118720	47	4322
2026-01-11 05:19:15.17	348.93	19.44	-38.9	-40.0	19.9	0.00e+00	0	44	0	1024458752	47	4259
2026-01-11 05:19:16.03	348.78	19.52	-39.0	-40.0	19.9	0.00e+00	0	44	0	1030750208	47	4281
2026-01-11 05:19:17.17	348.58	19.62	-39.0	-40.0	19.9	0.00e+00	0	44	0	1039138816	47	4277
2026-01-11 05:19:18.03	348.43	19.70	-39.0	-40.0	19.9	0.00e+00	0	44	0	1045430272	47	4284
2026-01-11 05:19:19.17	348.23	19.80	-39.0	-40.0	19.9	0.00e+00	0	44	0	1053818880	47	4256
2026-01-11 05:19:20.04	348.07	19.88	-38.6	-40.0	19.9	0.00e+00	0	44	0	1060110336	47	4278
2026-01-11 05:19:21.18	347.87	19.98	-39.1	-40.1	19.8	0.00e+00	0	44	0	1068498944	47	4332
2026-01-11 05:19:22.04	347.72	20.06	-39.2	-40.2	19.7	0.00e+00	0	44	0	1074790400	47	4381
2026-01-11 05:19:23.19	347.51	20.17	-39.1	-40.1	19.7	0.00e+00	0	44	0	1083179008	47	4336
2026-01-11 05:19:24.04	347.35	20.24	-39.4	-40.4	19.9	0.00e+00	0	44	0	1088421888	48	4207
2026-01-11 05:19:25.19	347.14	20.35	-39.4	-40.4	19.8	0.00e+00	0	44	0	1096810496	48	4206
2026-01-11 05:19:26.04	346.99	20.43	-39.4	-40.4	19.8	0.00e+00	0	44	0	1103101952	48	4217
2026-01-11 05:19:27.19	346.77	20.53	-39.2	-40.2	20.0	0.00e+00	0	44	0	1111490560	48	4130
2026-01-11 05:19:28.05	346.61	20.61	-39.3	-40.3	20.0	0.00e+00	0	44	0	1117782016	48	4154
2026-01-11 05:19:29.19	346.40	20.71	-39.2	-40.1	20.1	0.00e+00	0	44	0	1126170624	48	4098
2026-01-11 05:19:30.05	346.24	20.79	-39.1	-40.1	19.8	0.00e+00	0	44	0	1132462080	47	4338
2026-01-11 05:19:31.20	346.02	20.90	-39.0	-40.0	19.9	0.00e+00	0	44	0	1140850688	47	4255
2026-01-11 05:19:32.06	345.86	20.97	-39.1	-40.1	19.8	0.00e+00	0	44	0	1146093568	47	4324
2026-01-11 05:19:33.20	345.64	21.08	-38.9	-39.9	20.0	0.00e+00	0	44	0	1154482176	47	4240
2026-01-11 05:19:34.06	345.47	21.16	-39.0	-40.1	19.8	0.00e+00	0	44	0	1160773632	47	4306
2026-01-11 05:19:35.20	345.25	21.26	-39.0	-40.0	19.9	0.00e+00	0	44	0	1169162240	47	4266
2026-01-11 05:19:36.06	345.08	21.34	-38.8	-39.8	20.0	0.00e+00	0	44	0	1175453696	47	4185
2026-01-11 05:19:37.20	344.86	21.44	-38.7	-39.8	20.1	0.00e+00	0	44	0	1183842304	47	4148
2026-01-11 05:19:38.06	344.69	21.52	-38.9	-39.9	20.0	0.00e+00	0	44	0	1190133760	47	4218
2026-01-11 05:19:39.21	344.46	21.62	-39.1	-40.1	19.8	0.00e+00	0	44	0	1198522368	47	4310
2026-01-11 05:19:40.07	344.29	21.70	-38.8	-39.8	20.1	0.00e+00	0	44	0	1204813824	47	4184
2026-01-11 05:19:41.21	344.06	21.81	-38.8	-39.8	20.1	0.00e+00	0	44	0	1212153856	47	4187
2026-01-11 05:19:42.06	343.89	21.88	-38.8	-39.8	20.1	0.00e+00	0	44	0	1218445312	46	4415
2026-01-11 05:19:43.21	343.65	21.99	-38.7	-39.7	20.2	0.00e+00	0	44	0	1226833920	46	4383
2026-01-11 05:19:44.07	343.48	22.06	-38.6	-39.7	20.2	0.00e+00	0	44	0	1233125376	46	4369
2026-01-11 05:19:45.21	343.24	22.17	-38.7	-39.8	20.1	0.00e+00	0	44	0	1241513984	47	4177
2026-01-11 05:19:46.07	343.06	22.25	-38.6	-39.7	20.2	0.00e+00	0	44	0	1247805440	46	4374
2026-01-11 05:19:47.21	342.82	22.35	-38.7	-39.8	20.1	0.00e+00	0	44	0	1256194048	46	4412
2026-01-11 05:19:48.06	342.65	22.42	-38.8	-39.9	20.1	0.00e+00	0	44	0	1262485504	46	4445
2026-01-11 05:19:49.21	342.40	22.53	-38.7	-39.8	20.1	0.00e+00	0	44	0	1269825536	47	4152
2026-01-11 05:19:50.06	342.22	22.61	-38.7	-39.8	20.1	0.00e+00	0	44	0	1277165568	47	4163
2026-01-11 05:19:51.21	341.98	22.71	-38.7	-39.7	20.2	0.00e+00	0	44	0	1284505600	47	4128
2026-01-11 05:19:52.07	341.79	22.79	-38.7	-39.7	20.2	0.00e+00	0	44	0	1290797056	47	4136
2026-01-11 05:19:53.21	341.55	22.89	-38.6	-39.7	20.2	0.00e+00	0	44	0	1299185664	47	4099
2026-01-11 05:19:54.07	341.36	22.96	-38.6	-39.6	20.2	0.00e+00	0	44	0	1305477120	46	4339
2026-01-11 05:19:55.22	341.11	23.07	-38.6	-39.6	20.3	0.00e+00	0	44	0	1313865728	46	4305
2026-01-11 05:19:56.08	340.92	23.14	-38.6	-39.6	20.3	0.00e+00	0	44	0	1320157184	46	4306
2026-01-11 05:19:57.22	340.67	23.25	-38.4	-39.4	20.5	0.00e+00	0	44	0	1328545792	46	4223
2026-01-11 05:19:58.07	340.48	23.32	-38.5	-39.4	20.5	0.00e+00	0	44	0	1334837248	46	4242
2026-01-11 05:19:59.22	340.22	23.42	-38.3	-39.3	20.6	0.00e+00	0	44	0	1343225856	46	4181
2026-01-11 05:20:00.08	340.03	23.50	-38.4	-39.4	20.5	0.00e+00	0	44	0	1349517312	46	4209
2026-01-11 05:20:01.23	339.77	23.60	-38.4	-39.4	20.5	0.00e+00	0	44	0	1356857344	46	4211
2026-01-11 05:20:02.09	339.57	23.68	-38.4	-39.3	20.6	0.00e+00	0	44	0	1363148800	46	4191
2026-01-11 05:20:03.23	339.31	23.78	-38.6	-39.5	20.4	0.00e+00	0	44	0	1371537408	46	4287
2026-01-11 05:20:04.09	339.11	23.85	-38.4	-39.4	20.5	0.00e+00	0	44	0	1377828864	46	4214
2026-01-11 05:20:05.24	338.85	23.95	-38.3	-39.3	20.6	0.00e+00	0	44	0	1386217472	46	4152
2026-01-11 05:20:06.09	338.65	24.03	-38.3	-39.3	20.6	0.00e+00	0	44	0	1392508928	46	4167
2026-01-11 05:20:07.23	338.38	24.13	-38.3	-39.3	20.6	0.00e+00	0	44	0	1400897536	46	4179
2026-01-11 05:20:08.09	338.18	24.20	-38.1	-39.1	20.8	0.00e+00	0	44	0	1407188992	46	4080
2026-01-11 05:20:09.23	337.91	24.30	-38.0	-39.0	20.9	0.00e+00	0	44	0	1415577600	45	4262
2026-01-11 05:20:10.09	337.70	24.38	-38.0	-39.0	20.9	0.00e+00	0	44	0	1420820480	45	4261
2026-01-11 05:20:11.23	337.43	24.47	-37.9	-38.9	21.0	0.00e+00	0	44	0	1429209088	45	4204
2026-01-11 05:20:12.09	337.22	24.55	-37.9	-38.8	21.0	0.00e+00	0	44	0	1435500544	45	4188
2026-01-11 05:20:13.23	336.95	24.65	-37.9	-38.8	21.0	0.00e+00	0	44	0	1443889152	45	4171
2026-01-11 05:20:14.09	336.74	24.72	-37.9	-38.8	21.0	0.00e+00	0	44	0	1450180608	45	4170
2026-01-11 05:20:15.24	336.46	24.82	-37.7	-38.7	21.2	0.00e+00	0	44	0	1458569216	45	4100
2026-01-11 05:20:16.10	336.24	24.89	-37.8	-38.8	21.1	0.00e+00	0	44	0	1464860672	45	4150
2026-01-11 05:20:17.24	335.96	24.99	-37.9	-38.9	21.0	0.00e+00	0	44	0	1473249280	45	4211
2026-01-11 05:20:18.10	335.75	25.06	-37.9	-38.9	21.0	0.00e+00	0	44	0	1478492160	45	4200
2026-01-11 05:20:19.24	335.46	25.16	-37.9	-38.8	21.0	0.00e+00	0	44	0	1486880768	45	4166
2026-01-11 05:20:20.10	335.25	25.23	-37.4	-38.8	21.0	0.00e+00	0	44	0	1493172224	45	4177
2026-01-11 05:20:21.24	334.96	25.32	-37.7	-38.7	21.2	0.00e+00	0	44	0	1501560832	45	4112
2026-01-11 05:20:22.10	334.74	25.39	-37.9	-38.8	21.0	0.00e+00	0	44	0	1507852288	45	4170
2026-01-11 05:20:23.25	334.45	25.49	-37.9	-38.8	21.0	0.00e+00	0	44	0	1516240896	45	4190
2026-01-11 05:20:24.10	334.23	25.56	-37.8	-38.7	21.1	0.00e+00	0	44	0	1522532352	45	4133
2026-01-11 05:20:25.25	333.93	25.65	-37.9	-38.8	21.0	0.00e+00	0	44	0	1530920960	45	4178
2026-01-11 05:20:26.11	333.71	25.72	-38.0	-38.9	20.9	0.00e+00	0	44	0	1537212416	45	4233
2026-01-11 05:20:27.26	333.41	25.82	-38.0	-39.0	20.9	0.00e+00	0	44	0	1544552448	45	4248
2026-01-11 05:20:28.11	333.18	25.88	-38.1	-39.0	20.9	0.00e+00	0	44	0	1551892480	45	4274
2026-01-11 05:20:29.26	332.88	25.98	-38.1	-39.0	20.8	0.00e+00	0	45	0	1559232512	45	4288
2026-01-11 05:20:30.12	332.65	26.04	-38.1	-39.1	20.8	0.00e+00	0	44	0	1565523968	45	4292
2026-01-11 05:20:31.26	332.35	26.13	-38.1	-39.1	20.8	0.00e+00	0	44	0	1573912576	45	4322
2026-01-11 05:20:32.12	332.12	26.20	-38.2	-39.2	20.7	0.00e+00	0	44	0	1580204032	45	4358
2026-01-11 05:20:33.26	331.81	26.29	-38.1	-39.1	20.8	0.00e+00	0	44	0	1588592640	45	4338
2026-01-11 05:20:34.12	331.58	26.36	-38.1	-39.0	20.9	0.00e+00	0	44	0	1594884096	45	4282
2026-01-11 05:20:35.27	331.27	26.45	-37.9	-38.9	21.0	0.00e+00	0	44	0	1603272704	45	4215
2026-01-11 05:20:36.12	331.03	26.51	-38.0	-39.0	20.9	0.00e+00	0	44	0	1609564160	45	4245
2026-01-11 05:20:37.27	330.72	26.60	-38.1	-39.1	20.8	0.00e+00	0	44	0	1617952768	45	4298
2026-01-11 05:20:38.12	330.48	26.67	-38.0	-39.0	20.8	0.00e+00	0	44	0	1623195648	45	4279
2026-01-11 05:20:39.26	330.17	26.75	-38.2	-39.2	20.7	0.00e+00	0	44	0	1631584256	45	4351
2026-01-11 05:20:40.12	329.93	26.82	-38.3	-39.3	20.6	0.00e+00	0	44	0	1637875712	46	4155
2026-01-11 05:20:41.27	329.61	26.90	-38.4	-39.4	20.5	0.00e+00	0	44	0	1646264320	46	4211
2026-01-11 05:20:42.13	329.36	26.96	-38.3	-39.4	20.5	0.00e+00	0	45	0	1652555776	46	4203
2026-01-11 05:20:43.27	329.04	27.05	-38.2	-39.2	20.7	0.00e+00	0	44	0	1660944384	46	4105
2026-01-11 05:20:44.13	328.80	27.11	-38.1	-39.0	20.8	0.00e+00	0	44	0	1667235840	45	4277
2026-01-11 05:20:45.27	328.47	27.19	-37.9	-38.8	21.0	0.00e+00	0	44	0	1675624448	45	4188
2026-01-11 05:20:46.13	328.23	27.25	-37.9	-38.8	21.1	0.00e+00	0	44	0	1681915904	45	4166
2026-01-11 05:20:47.27	327.90	27.33	-37.7	-38.6	21.2	0.00e+00	0	44	0	1689255936	45	4081
2026-01-11 05:20:48.13	327.65	27.39	-37.7	-38.6	21.2	0.00e+00	0	44	0	1695547392	45	4079
2026-01-11 05:20:49.27	327.32	27.47	-37.6	-38.5	21.3	0.00e+00	0	44	0	1703936000	45	4035
2026-01-11 05:20:50.13	327.07	27.53	-37.7	-38.6	21.2	0.00e+00	0	44	0	1710227456	45	4073
2026-01-11 05:20:51.27	326.73	27.61	-37.8	-38.7	21.1	0.00e+00	0	44	0	1718616064	45	4133
2026-01-11 05:20:52.13	326.48	27.67	-37.8	-38.7	21.1	0.00e+00	0	44	0	1724907520	45	4125
2026-01-11 05:20:53.27	326.14	27.74	-38.0	-39.0	20.9	0.00e+00	0	44	0	1733296128	45	4243
2026-01-11 05:20:54.13	325.89	27.80	-38.1	-39.0	20.8	0.00e+00	0	44	0	1739587584	45	4289
2026-01-11 05:20:55.28	325.55	27.88	-38.1	-39.1	20.8	0.00e+00	0	44	0	1747976192	45	4317
2026-01-11 05:20:56.14	325.29	27.93	-38.1	-39.1	20.8	0.00e+00	0	44	0	1753219072	45	4329
2026-01-11 05:20:57.28	324.95	28.01	-38.3	-39.2	20.7	0.00e+00	0	44	0	1761607680	45	4390
2026-01-11 05:20:58.14	324.69	28.06	-38.2	-39.2	20.7	0.00e+00	0	44	0	1767899136	46	4103
2026-01-11 05:20:59.28	324.34	28.13	-38.0	-39.0	20.9	0.00e+00	0	45	0	1776287744	46	4023
2026-01-11 05:21:00.14	324.08	28.18	-38.0	-39.0	20.9	0.00e+00	0	44	0	1782579200	46	4010
2026-01-11 05:21:01.29	323.73	28.25	-38.0	-38.9	21.0	0.00e+00	0	44	0	1790967808	46	3997
2026-01-11 05:21:02.15	323.47	28.31	-37.9	-38.8	21.0	0.00e+00	0	44	0	1797259264	46	3958
2026-01-11 05:21:03.29	323.12	28.37	-37.9	-38.8	21.0	0.00e+00	0	44	0	1805647872	45	4174
2026-01-11 05:21:04.15	322.85	28.42	-37.8	-38.7	21.1	0.00e+00	0	44	0	1810890752	45	4130
2026-01-11 05:21:05.29	322.50	28.49	-37.7	-38.6	20.9	0.00e+00	0	44	0	1819279360	44	4338
2026-01-11 05:21:06.15	322.23	28.54	-37.7	-38.6	21.2	0.00e+00	0	44	0	1825570816	45	4079
2026-01-11 05:21:07.30	321.87	28.60	-37.7	-38.6	21.2	0.00e+00	0	45	0	1833959424	45	4076
2026-01-11 05:21:08.15	321.61	28.65	-37.7	-38.6	21.2	0.00e+00	0	45	0	1840250880	45	4067
2026-01-11 05:21:09.30	321.24	28.71	-37.7	-38.6	21.3	0.00e+00	0	44	0	1848639488	45	4073
2026-01-11 05:21:10.16	320.97	28.76	-37.6	-38.5	21.3	0.00e+00	0	44	0	1854930944	45	4036
2026-01-11 05:21:11.30	320.61	28.82	-37.7	-38.7	21.2	0.00e+00	0	45	0	1863319552	44	4350
2026-01-11 05:21:12.16	320.34	28.87	-37.6	-38.6	21.3	0.00e+00	0	44	0	1869611008	44	4301
2026-01-11 05:21:13.31	319.97	28.92	-37.6	-38.5	21.3	0.00e+00	0	44	0	1876951040	44	4274
2026-01-11 05:21:14.16	319.70	28.97	-37.6	-38.5	21.3	0.00e+00	0	44	0	1884291072	44	4279
2026-01-11 05:21:15.31	319.33	29.02	-37.5	-38.4	21.4	0.00e+00	0	44	0	1891631104	44	4229
2026-01-11 05:21:16.17	319.06	29.06	-37.5	-38.5	21.4	0.00e+00	0	44	0	1897922560	44	4246
2026-01-11 05:21:17.31	318.69	29.12	-37.7	-38.6	21.2	0.00e+00	0	44	0	1906311168	44	4323
2026-01-11 05:21:18.16	318.41	29.16	-37.7	-38.6	21.2	0.00e+00	0	45	0	1912602624	44	4316
2026-01-11 05:21:19.31	318.04	29.21	-37.7	-38.6	21.3	0.00e+00	0	44	0	1920991232	44	4308
2026-01-11 05:21:20.16	317.77	29.25	-37.5	-38.5	21.3	0.00e+00	0	44	0	1927282688	44	4250
2026-01-11 05:21:21.31	317.39	29.30	-37.6	-38.5	21.3	0.00e+00	0	45	0	1935671296	44	4289
2026-01-11 05:21:22.16	317.11	29.33	-37.4	-38.4	21.5	0.00e+00	0	44	0	1941962752	44	4197
2026-01-11 05:21:23.30	316.74	29.38	-37.3	-38.2	21.6	0.00e+00	0	44	0	1949302784	44	4130
2026-01-11 05:21:24.16	316.46	29.42	-37.4	-38.3	21.5	0.00e+00	0	44	0	1955594240	44	4167
2026-01-11 05:21:25.31	316.08	29.46	-37.2	-38.1	21.6	0.00e+00	0	44	0	1963982848	44	4093
2026-01-11 05:21:26.16	315.80	29.50	-37.2	-38.1	21.7	0.00e+00	0	44	0	1970274304	44	4091
2026-01-11 05:21:27.31	315.41	29.54	-37.1	-38.0	21.8	0.00e+00	0	44	0	1978662912	44	4048
2026-01-11 05:21:28.17	315.13	29.57	-37.0	-37.9	21.7	0.00e+00	0	44	0	1984954368	43	4240
2026-01-11 05:21:29.31	314.75	29.61	-37.0	-37.9	21.7	0.00e+00	0	44	0	1993342976	43	4230
2026-01-11 05:21:30.17	314.46	29.64	-37.1	-38.0	21.6	0.00e+00	0	44	0	1999634432	43	4288
2026-01-11 05:21:31.31	314.08	29.68	-37.1	-38.0	21.6	0.00e+00	0	44	0	2006974464	43	4287
2026-01-11 05:21:32.17	313.79	29.71	-37.3	-38.2	21.6	0.00e+00	0	44	0	2014314496	44	4135
2026-01-11 05:21:33.31	313.41	29.74	-37.3	-38.2	21.6	0.00e+00	0	44	0	2021654528	44	4129
2026-01-11 05:21:34.17	313.12	29.77	-37.3	-38.1	21.7	0.00e+00	0	44	0	2027945984	44	4096
2026-01-11 05:21:35.31	312.74	29.80	-37.2	-38.1	21.7	0.00e+00	0	44	0	2036334592	44	4094
2026-01-11 05:21:36.17	312.45	29.83	-37.3	-38.2	21.6	0.00e+00	0	44	0	2042626048	44	4125
2026-01-11 05:21:37.32	312.06	29.86	-37.3	-38.2	21.6	0.00e+00	0	44	0	2051014656	44	4114
2026-01-11 05:21:38.18	311.77	29.88	-37.4	-38.3	21.6	0.00e+00	0	44	0	2057306112	44	4148
2026-01-11 05:21:39.32	311.38	29.91	-37.4	-38.3	21.5	0.00e+00	0	45	0	2065694720	44	4175
2026-01-11 05:21:40.18	311.09	29.93	-37.4	-38.3	21.5	0.00e+00	0	44	0	2071986176	44	4174
2026-01-11 05:21:41.33	310.70	29.95	-37.4	-38.3	21.6	0.00e+00	0	44	0	2080374784	44	4157
2026-01-11 05:21:42.18	310.41	29.97	-37.4	-38.2	21.6	0.00e+00	0	45	0	2085617664	44	4144
2026-01-11 05:21:43.33	310.02	30.00	-37.4	-38.3	21.5	0.00e+00	0	44	0	2094006272	44	4193
2026-01-11 05:21:44.19	309.72	30.01	-37.5	-38.4	21.4	0.00e+00	0	44	0	2100297728	44	4209
2026-01-11 05:21:45.33	309.33	30.03	-37.4	-38.3	21.5	0.00e+00	0	44	0	2108686336	44	4187
2026-01-11 05:21:46.19	309.04	30.05	-37.4	-38.3	21.5	0.00e+00	0	44	0	2114977792	44	4181
2026-01-11 05:21:47.33	308.65	30.06	-37.3	-38.1	21.7	0.00e+00	0	44	0	2123366400	44	4092
2026-01-11 05:21:48.19	308.35	30.08	-37.2	-38.1	21.7	0.00e+00	0	44	0	2129657856	44	4054
2026-01-11 05:21:49.33	307.96	30.09	-37.2	-38.0	21.8	0.00e+00	0	44	0	2138046464	44	4047
2026-01-11 05:21:50.19	307.67	30.10	-37.2	-38.1	21.7	0.00e+00	0	44	0	2143289344	44	4065
2026-01-11 05:21:51.33	307.27	30.12	-37.1	-38.0	21.8	0.00e+00	0	44	0	2151677952	44	4017
2026-01-11 05:21:52.19	306.98	30.13	-37.2	-38.1	21.7	0.00e+00	0	44	0	2157969408	44	4078
2026-01-11 05:21:53.33	306.58	30.14	-37.3	-38.2	21.6	0.00e+00	0	44	0	2166358016	44	4130
2026-01-11 05:21:54.19	306.29	30.14	-37.5	-38.3	21.5	0.00e+00	0	44	0	2172649472	44	4193
2026-01-11 05:21:55.33	305.90	30.15	-37.5	-38.4	21.4	0.00e+00	0	44	0	2181038080	44	4198
2026-01-11 05:21:56.19	305.60	30.15	-37.5	-38.4	21.4	0.00e+00	0	44	0	2187329536	44	4215
2026-01-11 05:21:57.34	305.20	30.16	-37.5	-38.4	21.4	0.00e+00	0	44	0	2195718144	44	4241
2026-01-11 05:21:58.20	304.91	30.16	-37.5	-38.4	21.4	0.00e+00	0	44	0	2202009600	44	4228
2026-01-11 05:21:59.34	304.51	30.16	-37.4	-38.3	21.5	0.00e+00	0	44	0	2209349632	44	4169
2026-01-11 05:22:00.20	304.22	30.16	-37.4	-38.3	21.5	0.00e+00	0	44	0	2215641088	44	4162
2026-01-11 05:22:01.34	303.82	30.16	-37.2	-38.1	21.5	0.00e+00	0	44	0	2224029696	43	4334
2026-01-11 05:22:02.20	303.52	30.16	-37.3	-38.2	21.6	0.00e+00	0	44	0	2230321152	44	4141
2026-01-11 05:22:03.34	303.13	30.16	-37.2	-38.1	21.7	0.00e+00	0	44	0	2238709760	44	4071
2026-01-11 05:22:04.20	302.83	30.16	-37.3	-38.2	21.6	0.00e+00	0	44	0	2245001216	44	4137
2026-01-11 05:22:05.35	302.44	30.15	-37.3	-38.2	21.6	0.00e+00	0	44	0	2253389824	44	4106
2026-01-11 05:22:06.20	302.14	30.15	-37.4	-38.3	21.5	0.00e+00	0	45	0	2259681280	44	4158
2026-01-11 05:22:07.34	301.75	30.14	-37.4	-38.3	21.5	0.00e+00	0	44	0	2268069888	44	4168
2026-01-11 05:22:08.20	301.46	30.13	-37.4	-38.3	21.5	0.00e+00	0	44	0	2273312768	44	4173
2026-01-11 05:22:09.34	301.06	30.12	-37.4	-38.4	21.5	0.00e+00	0	44	0	2281701376	44	4199
2026-01-11 05:22:10.20	300.77	30.11	-37.4	-38.3	21.5	0.00e+00	0	44	0	2287992832	44	4150
2026-01-11 05:22:11.35	300.37	30.10	-37.3	-38.2	21.6	0.00e+00	0	44	0	2296381440	44	4126
2026-01-11 05:22:12.20	300.08	30.08	-37.3	-38.2	21.6	0.00e+00	0	44	0	2302672896	44	4132
2026-01-11 05:22:13.34	299.69	30.07	-37.4	-38.2	21.6	0.00e+00	0	44	0	2311061504	44	4138
2026-01-11 05:22:14.20	299.39	30.05	-37.4	-38.2	21.6	0.00e+00	0	45	0	2317352960	44	4145
2026-01-11 05:22:15.35	299.00	30.04	-37.5	-38.4	21.4	0.00e+00	0	44	0	2325741568	44	4223
2026-01-11 05:22:16.21	298.70	30.02	-37.5	-38.4	21.4	0.00e+00	0	44	0	2330984448	44	4223
2026-01-11 05:22:17.35	298.31	30.00	-37.4	-38.3	21.5	0.00e+00	0	44	0	2339373056	44	4166
2026-01-11 05:22:18.21	298.02	29.98	-37.3	-38.2	21.6	0.00e+00	0	44	0	2345664512	44	4103
2026-01-11 05:22:19.35	297.63	29.96	-37.1	-38.0	21.7	0.00e+00	0	44	0	2354053120	44	4034
2026-01-11 05:22:20.21	297.34	29.94	-37.2	-38.1	21.7	0.00e+00	0	44	0	2360344576	44	4060
2026-01-11 05:22:21.35	296.95	29.91	-37.2	-38.1	21.7	0.00e+00	0	44	0	2368733184	44	4079
2026-01-11 05:22:22.21	296.66	29.89	-37.3	-38.2	21.6	0.00e+00	0	44	0	2375024640	44	4100
2026-01-11 05:22:23.35	296.27	29.86	-37.4	-38.3	21.6	0.00e+00	0	44	0	2383413248	44	4156
2026-01-11 05:22:24.21	295.98	29.84	-37.4	-38.3	21.5	0.00e+00	0	44	0	2389704704	44	4174
2026-01-11 05:22:25.35	295.60	29.81	-37.4	-38.3	21.5	0.00e+00	0	44	0	2397044736	44	4163
2026-01-11 05:22:26.21	295.30	29.78	-37.4	-38.3	21.5	0.00e+00	0	44	0	2403336192	44	4163
2026-01-11 05:22:27.35	294.92	29.75	-37.4	-38.3	21.5	0.00e+00	0	44	0	2411724800	44	4176
2026-01-11 05:22:28.21	294.63	29.72	-37.2	-38.1	21.7	0.00e+00	0	44	0	2418016256	44	4070
2026-01-11 05:22:29.36	294.25	29.68	-37.2	-38.1	21.7	0.00e+00	0	44	0	2426404864	44	4065
2026-01-11 05:22:30.21	293.96	29.66	-37.3	-38.1	21.7	0.00e+00	0	44	0	2432696320	44	4096
2026-01-11 05:22:31.36	293.58	29.62	-37.4	-38.3	21.5	0.00e+00	0	44	0	2441084928	44	4171
2026-01-11 05:22:32.22	293.29	29.59	-37.5	-38.4	21.4	0.00e+00	0	44	0	2447376384	44	4222
2026-01-11 05:22:33.36	292.91	29.55	-37.5	-38.4	21.4	0.00e+00	0	44	0	2455764992	44	4241
2026-01-11 05:22:34.22	292.62	29.51	-37.4	-38.3	21.5	0.00e+00	0	44	0	2462056448	44	4185
2026-01-11 05:22:35.37	292.24	29.47	-37.4	-38.3	21.5	0.00e+00	0	44	0	2470445056	44	4172
2026-01-11 05:22:36.22	291.96	29.44	-37.5	-38.4	21.5	0.00e+00	0	44	0	2476736512	44	4196
2026-01-11 05:22:37.37	291.58	29.39	-37.4	-38.2	21.6	0.00e+00	0	44	0	2484076544	44	4140
2026-01-11 05:22:38.23	291.30	29.35	-37.3	-38.1	21.6	0.00e+00	0	44	0	2490368000	44	4093
2026-01-11 05:22:39.37	290.93	29.31	-37.4	-38.3	21.5	0.00e+00	0	44	0	2498756608	44	4160
2026-01-11 05:22:40.23	290.65	29.27	-37.5	-38.4	21.4	0.00e+00	0	44	0	2505048064	44	4210
2026-01-11 05:22:41.37	290.27	29.22	-37.6	-38.5	21.4	0.00e+00	0	44	0	2513436672	44	4243
2026-01-11 05:22:42.22	290.00	29.18	-37.6	-38.5	21.3	0.00e+00	0	44	0	2519728128	44	4261
2026-01-11 05:22:43.37	289.62	29.13	-37.6	-38.5	21.3	0.00e+00	0	44	0	2528116736	44	4256
2026-01-11 05:22:44.23	289.35	29.09	-37.4	-38.3	21.5	0.00e+00	0	44	0	2534408192	44	4191
2026-01-11 05:22:45.37	288.98	29.03	-37.5	-38.4	21.4	0.00e+00	0	44	0	2542796800	44	4223
2026-01-11 05:22:46.23	288.70	28.99	-37.3	-38.2	21.6	0.00e+00	0	44	0	2548039680	44	4126
2026-01-11 05:22:47.38	288.33	28.93	-37.3	-38.2	21.6	0.00e+00	0	44	0	2556428288	44	4134
2026-01-11 05:22:48.24	288.06	28.89	-37.3	-38.2	21.6	0.00e+00	0	44	0	2562719744	44	4139
2026-01-11 05:22:49.38	287.70	28.83	-37.4	-38.2	21.6	0.00e+00	0	44	0	2571108352	44	4144
2026-01-11 05:22:50.24	287.42	28.78	-37.5	-38.4	21.4	0.00e+00	0	44	0	2577399808	44	4196
2026-01-11 05:22:51.39	287.06	28.72	-37.6	-38.5	21.3	0.00e+00	0	45	0	2585788416	44	4263
2026-01-11 05:22:52.24	286.79	28.67	-37.7	-38.6	21.2	0.00e+00	0	44	0	2592079872	44	4297
2026-01-11 05:22:53.39	286.43	28.61	-37.7	-38.6	21.2	0.00e+00	0	44	0	2600468480	44	4313
2026-01-11 05:22:54.25	286.16	28.56	-37.7	-38.6	21.2	0.00e+00	0	44	0	2605711360	44	4315
2026-01-11 05:22:55.39	285.80	28.50	-37.5	-38.4	21.4	0.00e+00	0	44	0	2614099968	44	4236
2026-01-11 05:22:56.25	285.54	28.45	-37.4	-38.3	21.5	0.00e+00	0	44	0	2620391424	44	4179
2026-01-11 05:22:57.39	285.18	28.38	-37.4	-38.3	21.5	0.00e+00	0	44	0	2628780032	44	4167
2026-01-11 05:22:58.25	284.92	28.33	-37.3	-38.2	21.6	0.00e+00	0	44	0	2635071488	44	4117
2026-01-11 05:22:59.39	284.57	28.26	-37.3	-38.2	21.6	0.00e+00	0	44	0	2643460096	44	4130
2026-01-11 05:23:00.25	284.30	28.21	-37.3	-38.2	21.6	0.00e+00	0	44	0	2649751552	44	4109
2026-01-11 05:23:01.39	283.96	28.14	-37.3	-38.2	21.6	0.00e+00	0	44	0	2658140160	44	4110
2026-01-11 05:23:02.25	283.69	28.09	-37.3	-38.2	21.6	0.00e+00	0	44	0	2663383040	44	4135
2026-01-11 05:23:03.39	283.35	28.01	-37.4	-38.3	21.5	0.00e+00	0	44	0	2671771648	44	4188
2026-01-11 05:23:04.25	283.09	27.96	-37.5	-38.4	21.4	0.00e+00	0	44	0	2678063104	44	4205
2026-01-11 05:23:05.39	282.75	27.88	-37.5	-38.4	21.5	0.00e+00	0	44	0	2686451712	44	4201
2026-01-11 05:23:06.24	282.49	27.83	-37.4	-38.3	21.5	0.00e+00	0	44	0	2692743168	44	4160
2026-01-11 05:23:07.39	282.15	27.75	-37.6	-38.5	21.3	0.00e+00	0	44	0	2701131776	44	4255
2026-01-11 05:23:08.24	281.90	27.70	-37.6	-38.5	21.3	0.00e+00	0	45	0	2707423232	44	4257
2026-01-11 05:23:09.39	281.56	27.62	-37.5	-38.4	21.4	0.00e+00	0	44	0	2715811840	44	4228
2026-01-11 05:23:10.25	281.31	27.56	-37.5	-38.4	21.4	0.00e+00	0	44	0	2722103296	44	4234
2026-01-11 05:23:11.39	280.97	27.48	-37.5	-38.4	21.4	0.00e+00	0	44	0	2729443328	44	4237
2026-01-11 05:23:12.25	280.72	27.42	-37.4	-38.3	21.5	0.00e+00	0	44	0	2735734784	44	4183
2026-01-11 05:23:13.40	280.39	27.34	-37.4	-38.3	21.4	0.00e+00	0	45	0	2744123392	44	4189
2026-01-11 05:23:14.26	280.14	27.28	-37.4	-38.3	21.5	0.00e+00	0	44	0	2750414848	44	4166
2026-01-11 05:23:15.40	279.81	27.20	-37.6	-38.5	21.3	0.00e+00	0	44	0	2758803456	44	4262
2026-01-11 05:23:16.26	279.56	27.14	-37.6	-38.5	21.3	0.00e+00	0	44	0	2765094912	44	4261
2026-01-11 05:23:17.40	279.24	27.05	-37.7	-38.6	21.3	0.00e+00	0	44	0	2773483520	44	4303
2026-01-11 05:23:18.26	278.99	26.99	-37.7	-38.6	21.2	0.00e+00	0	44	0	2779774976	44	4332
2026-01-11 05:23:19.40	278.67	26.91	-37.7	-38.6	21.2	0.00e+00	0	45	0	2788163584	45	4087
2026-01-11 05:23:20.26	278.43	26.84	-37.7	-38.6	21.2	0.00e+00	0	44	0	2793406464	45	4098
2026-01-11 05:23:21.40	278.11	26.76	-37.8	-38.7	21.1	0.00e+00	0	44	0	2801795072	45	4128
2026-01-11 05:23:22.26	277.87	26.69	-37.6	-38.5	21.3	0.00e+00	0	44	0	2808086528	45	4041
2026-01-11 05:23:23.41	277.55	26.60	-37.6	-38.5	21.3	0.00e+00	0	44	0	2816475136	45	4028
2026-01-11 05:23:24.26	277.32	26.54	-37.7	-38.6	21.3	0.00e+00	0	44	0	2822766592	45	4058
2026-01-11 05:23:25.41	277.00	26.45	-37.5	-38.4	21.4	0.00e+00	0	44	0	2831155200	45	3968
2026-01-11 05:23:26.27	276.77	26.38	-37.5	-38.4	21.4	0.00e+00	0	44	0	2837446656	45	4002
2026-01-11 05:23:27.41	276.46	26.30	-37.5	-38.4	21.4	0.00e+00	0	44	0	2845835264	45	3989
2026-01-11 05:23:28.27	276.22	26.23	-37.6	-38.5	21.3	0.00e+00	0	44	0	2852126720	45	4044
2026-01-11 05:23:29.42	275.91	26.14	-37.7	-38.6	21.2	0.00e+00	0	44	0	2860515328	45	4079
2026-01-11 05:23:30.27	275.69	26.07	-37.8	-38.7	21.1	0.00e+00	0	44	0	2866806784	45	4131
2026-01-11 05:23:31.42	275.38	25.98	-37.9	-38.9	21.0	0.00e+00	0	44	0	2875195392	45	4197
2026-01-11 05:23:32.27	275.15	25.91	-37.8	-38.7	21.1	0.00e+00	0	44	0	2880438272	45	4127
2026-01-11 05:23:33.42	274.85	25.82	-37.9	-38.9	21.0	0.00e+00	0	44	0	2888826880	45	4204
2026-01-11 05:23:34.28	274.62	25.75	-38.1	-39.0	20.9	0.00e+00	0	44	0	2895118336	45	4267
2026-01-11 05:23:35.42	274.33	25.65	-37.8	-38.8	21.1	0.00e+00	0	45	0	2903506944	45	4153
2026-01-11 05:23:36.28	274.10	25.58	-37.8	-38.7	21.1	0.00e+00	0	44	0	2909798400	45	4114
2026-01-11 05:23:37.42	273.81	25.49	-37.7	-38.7	21.1	0.00e+00	0	44	0	2918187008	45	4100
2026-01-11 05:23:38.28	273.59	25.42	-37.8	-38.7	21.2	0.00e+00	0	44	0	2924478464	45	4107
2026-01-11 05:23:39.42	273.30	25.32	-37.8	-38.8	21.1	0.00e+00	0	44	0	2932867072	45	4147
2026-01-11 05:23:40.28	273.08	25.25	-37.9	-38.8	21.0	0.00e+00	0	44	0	2938109952	45	4182
2026-01-11 05:23:41.43	272.79	25.16	-37.9	-38.8	21.0	0.00e+00	0	44	0	2946498560	45	4164
2026-01-11 05:23:42.29	272.57	25.08	-37.8	-38.7	21.1	0.00e+00	0	44	0	2952790016	45	4132
2026-01-11 05:23:43.43	272.28	24.99	-37.8	-38.7	21.1	0.00e+00	0	44	0	2961178624	45	4102
2026-01-11 05:23:44.29	272.07	24.91	-37.9	-38.8	21.0	0.00e+00	0	44	0	2967470080	45	4173
2026-01-11 05:23:45.43	271.79	24.82	-37.8	-38.7	21.1	0.00e+00	0	45	0	2975858688	45	4123
2026-01-11 05:23:46.29	271.57	24.74	-37.8	-38.7	21.1	0.00e+00	0	44	0	2982150144	45	4103
2026-01-11 05:23:47.44	271.29	24.65	-37.9	-38.8	21.0	0.00e+00	0	44	0	2990538752	45	4173
2026-01-11 05:23:48.29	271.09	24.57	-37.9	-38.9	20.9	0.00e+00	0	44	0	2996830208	45	4204
2026-01-11 05:23:49.43	270.81	24.47	-38.0	-38.9	21.0	0.00e+00	0	44	0	3004170240	45	4215
2026-01-11 05:23:50.30	270.60	24.40	-38.0	-38.9	20.9	0.00e+00	0	44	0	3010461696	45	4223
2026-01-11 05:23:51.44	270.33	24.30	-38.0	-38.9	20.9	0.00e+00	0	44	0	3018850304	45	4226
2026-01-11 05:23:52.30	270.12	24.22	-37.9	-38.8	21.0	0.00e+00	0	44	0	3025141760	45	4190
2026-01-11 05:23:53.45	269.85	24.12	-37.8	-38.7	21.0	0.00e+00	0	44	0	3033530368	45	4138
2026-01-11 05:23:54.30	269.65	24.05	-37.8	-38.8	21.1	0.00e+00	0	44	0	3039821824	45	4147
2026-01-11 05:23:55.45	269.38	23.95	-37.8	-38.7	21.1	0.00e+00	0	44	0	3048210432	45	4140
2026-01-11 05:23:56.31	269.18	23.87	-37.8	-38.7	21.1	0.00e+00	0	45	0	3054501888	45	4127
2026-01-11 05:23:57.45	268.91	23.77	-37.9	-38.8	21.0	0.00e+00	0	44	0	3062890496	45	4178
2026-01-11 05:23:58.31	268.72	23.70	-38.0	-39.0	20.8	0.00e+00	0	44	0	3068133376	45	4247
2026-01-11 05:23:59.46	268.45	23.59	-37.9	-38.8	21.0	0.00e+00	0	44	0	3076521984	45	4176
2026-01-11 05:24:00.32	268.26	23.52	-37.9	-38.8	21.0	0.00e+00	0	44	0	3082813440	45	4192
2026-01-11 05:24:01.46	268.00	23.42	-38.0	-38.9	20.9	0.00e+00	0	44	0	3091202048	45	4242
2026-01-11 05:24:02.32	267.80	23.34	-38.0	-38.9	20.9	0.00e+00	0	44	0	3097493504	45	4211
2026-01-11 05:24:03.47	267.55	23.24	-38.0	-38.9	20.9	0.00e+00	0	44	0	3105882112	45	4240
2026-01-11 05:24:04.33	267.36	23.16	-38.0	-39.0	20.9	0.00e+00	0	44	0	3112173568	45	4254
2026-01-11 05:24:05.47	267.10	23.06	-38.0	-39.0	20.9	0.00e+00	0	44	0	3120562176	45	4261
2026-01-11 05:24:06.32	266.92	22.98	-38.0	-39.0	20.9	0.00e+00	0	44	0	3126853632	45	4253
2026-01-11 05:24:07.46	266.67	22.88	-38.1	-39.0	20.8	0.00e+00	0	44	0	3134193664	45	4276
2026-01-11 05:24:08.32	266.48	22.80	-38.0	-39.0	20.8	0.00e+00	0	45	0	3141533696	45	4257
2026-01-11 05:24:09.46	266.23	22.70	-38.0	-38.9	20.9	0.00e+00	0	44	0	3148873728	45	4242
2026-01-11 05:24:10.32	266.05	22.62	-38.0	-38.9	20.9	0.00e+00	0	44	0	3155165184	45	4228
2026-01-11 05:24:11.47	265.80	22.52	-37.8	-38.7	21.1	0.00e+00	0	45	0	3163553792	45	4130
2026-01-11 05:24:12.33	265.62	22.44	-37.9	-38.8	21.0	0.00e+00	0	44	0	3169845248	45	4155
2026-01-11 05:24:13.47	265.38	22.34	-37.9	-38.9	21.0	0.00e+00	0	44	0	3178233856	45	4194
2026-01-11 05:24:14.33	265.20	22.26	-37.9	-38.9	20.9	0.00e+00	0	45	0	3184525312	45	4200
2026-01-11 05:24:15.47	264.96	22.15	-38.0	-38.9	20.9	0.00e+00	0	44	0	3192913920	45	4206
2026-01-11 05:24:16.33	264.78	22.08	-38.0	-38.9	20.9	0.00e+00	0	45	0	3199205376	45	4236
2026-01-11 05:24:17.47	264.55	21.97	-38.2	-39.2	20.7	0.00e+00	0	44	0	3207593984	45	4351
2026-01-11 05:24:18.33	264.37	21.89	-38.3	-39.2	20.6	0.00e+00	0	45	0	3212836864	46	4130
2026-01-11 05:24:19.48	264.13	21.79	-38.3	-39.2	20.6	0.00e+00	0	44	0	3221225472	46	4125
2026-01-11 05:24:20.33	263.96	21.71	-38.3	-39.3	20.6	0.00e+00	0	44	0	3227516928	46	4160
2026-01-11 05:24:21.48	263.73	21.61	-38.4	-39.4	20.5	0.00e+00	0	44	0	3235905536	46	4197
2026-01-11 05:24:22.33	263.56	21.53	-38.3	-39.2	20.6	0.00e+00	0	44	0	3242196992	46	4142
2026-01-11 05:24:23.47	263.33	21.43	-38.4	-39.4	20.5	0.00e+00	0	44	0	3250585600	46	4197
2026-01-11 05:24:24.33	263.16	21.35	-38.3	-39.3	20.5	0.00e+00	0	45	0	3256877056	46	4171
2026-01-11 05:24:25.47	262.94	21.24	-38.5	-39.4	20.4	0.00e+00	0	44	0	3265265664	46	4239
2026-01-11 05:24:26.33	262.77	21.16	-38.4	-39.3	20.5	0.00e+00	0	44	0	3270508544	46	4188
2026-01-11 05:24:27.47	262.55	21.06	-38.4	-39.3	20.5	0.00e+00	0	44	0	3278897152	46	4180
2026-01-11 05:24:28.33	262.38	20.98	-38.4	-39.4	20.5	0.00e+00	0	44	0	3285188608	46	4198
2026-01-11 05:24:29.48	262.16	20.88	-38.3	-39.2	20.6	0.00e+00	0	45	0	3293577216	46	4123
2026-01-11 05:24:30.34	262.00	20.80	-38.1	-39.1	20.8	0.00e+00	0	44	0	3299868672	46	4064
2026-01-11 05:24:31.48	261.78	20.69	-38.1	-39.1	20.8	0.00e+00	0	45	0	3308257280	46	4056
2026-01-11 05:24:32.34	261.62	20.61	-38.1	-39.0	20.8	0.00e+00	0	44	0	3314548736	46	4026
2026-01-11 05:24:33.48	261.40	20.51	-38.1	-39.1	20.8	0.00e+00	0	44	0	3322937344	46	4059
2026-01-11 05:24:34.34	261.24	20.43	-38.0	-39.0	20.9	0.00e+00	0	44	0	3329228800	46	4007
2026-01-11 05:24:35.49	261.03	20.33	-38.1	-39.0	20.8	0.00e+00	0	45	0	3336568832	46	4048
2026-01-11 05:24:36.34	260.87	20.25	-38.1	-39.0	20.8	0.00e+00	0	45	0	3342860288	46	4041
2026-01-11 05:24:37.49	260.66	20.14	-38.2	-39.1	20.7	0.00e+00	0	44	0	3351248896	46	4096
2026-01-11 05:24:38.35	260.51	20.07	-38.2	-39.1	20.7	0.00e+00	0	44	0	3357540352	46	4090
2026-01-11 05:24:39.49	260.30	19.96	-38.3	-39.3	20.6	0.00e+00	0	44	0	3365928960	46	4149
2026-01-11 05:24:40.35	260.15	19.88	-38.4	-39.3	20.5	0.00e+00	0	45	0	3372220416	46	4177
2026-01-11 05:24:41.50	259.94	19.78	-38.4	-39.4	20.4	0.00e+00	0	44	0	3380609024	46	4219
2026-01-11 05:24:42.35	259.79	19.70	-38.6	-39.6	20.3	0.00e+00	0	45	0	3386900480	46	4299
2026-01-11 05:24:43.50	259.59	19.60	-38.5	-39.5	20.3	0.00e+00	0	44	0	3395289088	46	4263
2026-01-11 05:24:44.35	259.44	19.52	-38.6	-39.6	20.3	0.00e+00	0	45	0	3400531968	46	4303
2026-01-11 05:24:45.50	259.24	19.41	-38.7	-39.6	20.2	0.00e+00	0	45	0	3408920576	46	4333
2026-01-11 05:24:46.36	259.09	19.34	-38.7	-39.7	20.2	0.00e+00	0	44	0	3415212032	46	4345
2026-01-11 05:24:47.50	258.89	19.23	-38.8	-39.7	20.1	0.00e+00	0	44	0	3423600640	46	4391
2026-01-11 05:24:48.36	258.74	19.15	-38.8	-39.8	20.1	0.00e+00	0	44	0	3429892096	47	4160
2026-01-11 05:24:49.51	258.55	19.05	-38.9	-39.9	20.0	0.00e+00	0	45	0	3438280704	47	4194
2026-01-11 05:24:50.37	258.40	18.97	-38.8	-39.8	20.0	0.00e+00	0	44	0	3444572160	47	4164
2026-01-11 05:24:51.51	258.21	18.87	-38.8	-39.8	20.0	0.00e+00	0	45	0	3452960768	47	4192
2026-01-11 05:24:52.37	258.06	18.79	-38.9	-39.9	20.0	0.00e+00	0	44	0	3459252224	47	4197
2026-01-11 05:24:53.52	257.87	18.69	-38.9	-39.9	19.9	0.00e+00	0	45	0	3467640832	47	4222
2026-01-11 05:24:54.38	257.73	18.61	-39.0	-40.0	19.9	0.00e+00	0	44	0	3473932288	47	4245
2026-01-11 05:24:55.52	257.54	18.50	-39.0	-39.9	19.9	0.00e+00	0	44	0	3481272320	47	4239
2026-01-11 05:24:56.38	257.40	18.43	-39.0	-40.0	19.9	0.00e+00	0	44	0	3487563776	47	4260
2026-01-11 05:24:57.52	257.22	18.32	-39.0	-40.0	19.9	0.00e+00	0	44	0	3495952384	47	4255
2026-01-11 05:24:58.38	257.08	18.25	-39.0	-40.0	19.8	0.00e+00	0	45	0	3502243840	47	4275
2026-01-11 05:24:59.52	256.90	18.14	-39.0	-40.0	19.8	0.00e+00	0	44	0	3510632448	47	4281
2026-01-11 05:25:00.38	256.76	18.07	-38.9	-39.9	19.9	0.00e+00	0	44	0	3516923904	47	4234
2026-01-11 05:25:01.53	256.58	17.96	-38.9	-39.9	19.9	0.00e+00	0	44	0	3525312512	47	4232
2026-01-11 05:25:02.38	256.44	17.89	-38.9	-39.9	19.9	0.00e+00	0	44	0	3531603968	47	4227
2026-01-11 05:25:03.53	256.26	17.78	-39.0	-39.9	19.9	0.00e+00	0	44	0	3539992576	47	4241
2026-01-11 05:25:04.39	256.13	17.71	-38.9	-39.8	20.0	0.00e+00	0	44	0	3545235456	47	4188
2026-01-11 05:25:05.53	255.95	17.61	-38.9	-39.8	20.0	0.00e+00	0	44	0	3553624064	47	4190
2026-01-11 05:25:06.39	255.82	17.53	-38.8	-39.8	20.0	0.00e+00	0	44	0	3559915520	47	4177
2026-01-11 05:25:07.53	255.65	17.43	-39.0	-39.9	19.9	0.00e+00	0	44	0	3568304128	47	4240
2026-01-11 05:25:08.39	255.52	17.35	-39.0	-40.0	19.8	0.00e+00	0	44	0	3574595584	47	4262
2026-01-11 05:25:09.53	255.34	17.25	-39.0	-40.0	19.8	0.00e+00	0	44	0	3582984192	47	4273
2026-01-11 05:25:10.39	255.21	17.17	-39.1	-40.1	19.8	0.00e+00	0	44	0	3589275648	47	4304
2026-01-11 05:25:11.54	255.04	17.07	-39.2	-40.2	19.6	0.00e+00	0	44	0	3597664256	47	4379
2026-01-11 05:25:12.40	254.91	16.99	-39.4	-40.4	19.7	0.00e+00	0	44	0	3602907136	48	4214
2026-01-11 05:25:13.54	254.75	16.89	-39.4	-40.4	19.8	0.00e+00	0	44	0	3611295744	48	4223
2026-01-11 05:25:14.40	254.62	16.82	-39.5	-40.5	19.7	0.00e+00	0	44	0	3617587200	48	4262
2026-01-11 05:25:15.54	254.45	16.72	-39.5	-40.5	19.6	0.00e+00	0	44	0	3625975808	48	4264
2026-01-11 05:25:16.40	254.33	16.64	-39.5	-40.5	19.7	0.00e+00	0	44	0	3632267264	48	4256
2026-01-11 05:25:17.54	254.16	16.54	-39.5	-40.5	19.6	0.00e+00	0	44	0	3640655872	48	4265
2026-01-11 05:25:18.40	254.04	16.47	-39.5	-40.5	19.6	0.00e+00	0	44	0	3646947328	48	4287
2026-01-11 05:25:19.55	253.88	16.37	-39.6	-40.6	19.5	0.00e+00	0	44	0	3655335936	48	4332
2026-01-11 05:25:20.41	253.76	16.29	-39.5	-40.5	19.6	0.00e+00	0	44	0	3661627392	48	4286
2026-01-11 05:25:21.55	253.60	16.19	-39.6	-40.6	19.5	0.00e+00	0	44	0	3668967424	48	4316
2026-01-11 05:25:22.41	253.48	16.12	-39.7	-40.7	19.4	0.00e+00	0	44	0	3675258880	48	4373
2026-01-11 05:25:23.55	253.32	16.02	-39.8	-40.8	19.4	0.00e+00	0	44	0	3683647488	48	4410
2026-01-11 05:25:24.41	253.20	15.94	-39.8	-40.8	19.3	0.00e+00	0	44	0	3689938944	48	4424
2026-01-11 05:25:25.55	253.04	15.84	-39.8	-40.8	19.3	0.00e+00	0	44	0	3698327552	49	4192
2026-01-11 05:25:26.41	252.92	15.77	-39.8	-40.8	19.3	0.00e+00	0	45	0	3704619008	49	4165
2026-01-11 05:25:27.55	252.77	15.67	-39.8	-40.8	19.3	0.00e+00	0	44	0	3713007616	49	4188
2026-01-11 05:25:28.41	252.65	15.59	-39.7	-40.8	19.4	0.00e+00	0	44	0	3719299072	49	4150
2026-01-11 05:25:29.56	252.50	15.50	-39.9	-40.9	19.2	0.00e+00	0	45	0	3727687680	49	4225
2026-01-11 05:25:30.41	252.38	15.42	-39.7	-40.8	19.3	0.00e+00	0	44	0	3732930560	49	4150
2026-01-11 05:25:31.56	252.23	15.32	-39.8	-40.8	19.1	0.00e+00	0	45	0	3741319168	49	4189
2026-01-11 05:25:32.41	252.12	15.25	-39.9	-40.9	19.2	0.00e+00	0	44	0	3747610624	49	4206
2026-01-11 05:25:33.55	251.97	15.15	-39.8	-40.9	19.3	0.00e+00	0	44	0	3755999232	49	4194
2026-01-11 05:25:34.42	251.86	15.08	-39.9	-40.9	19.2	0.00e+00	0	45	0	3762290688	49	4221
2026-01-11 05:25:35.57	251.71	14.98	-39.9	-41.0	19.1	0.00e+00	0	44	0	3770679296	49	4256
2026-01-11 05:25:36.42	251.60	14.91	-40.1	-41.1	19.0	0.00e+00	0	44	0	3776970752	49	4318
2026-01-11 05:25:37.57	251.45	14.81	-40.0	-41.1	19.1	0.00e+00	0	44	0	3785359360	49	4296
2026-01-11 05:25:38.43	251.34	14.74	-40.2	-41.2	18.9	0.00e+00	0	45	0	3791650816	49	4377
2026-01-11 05:25:39.57	251.20	14.64	-40.2	-41.3	18.8	0.00e+00	0	44	0	3800039424	49	4400
2026-01-11 05:25:40.43	251.09	14.57	-40.3	-41.4	18.8	0.00e+00	0	44	0	3806330880	50	4200
2026-01-11 05:25:41.58	250.95	14.47	-40.3	-41.4	18.7	0.00e+00	0	45	0	3813670912	50	4219
2026-01-11 05:25:42.44	250.84	14.40	-40.4	-41.4	18.7	0.00e+00	0	44	0	3819962368	50	4232
2026-01-11 05:25:43.58	250.70	14.30	-40.3	-41.4	18.7	0.00e+00	0	44	0	3828350976	50	4223
2026-01-11 05:25:44.44	250.59	14.23	-40.3	-41.4	18.7	0.00e+00	0	45	0	3834642432	50	4219
2026-01-11 05:25:45.59	250.45	14.13	-40.4	-41.4	18.7	0.00e+00	0	44	0	3843031040	50	4238
2026-01-11 05:25:46.45	250.35	14.06	-40.4	-41.5	18.7	0.00e+00	0	44	0	3849322496	50	4255
2026-01-11 05:25:47.59	250.21	13.97	-40.5	-41.5	18.6	0.00e+00	0	44	0	3857711104	50	4280
2026-01-11 05:25:48.45	250.10	13.90	-40.3	-41.4	18.7	0.00e+00	0	44	0	3864002560	50	4219
2026-01-11 05:25:49.59	249.97	13.80	-40.4	-41.5	18.7	0.00e+00	0	44	0	3872391168	50	4254
2026-01-11 05:25:50.45	249.87	13.73	-40.4	-41.5	18.6	0.00e+00	0	44	0	3877634048	50	4281
2026-01-11 05:25:51.59	249.73	13.63	-40.4	-41.5	18.7	0.00e+00	0	45	0	3886022656	50	4244
2026-01-11 05:25:52.45	249.63	13.56	-40.4	-41.5	18.5	0.00e+00	0	44	0	3892314112	50	4243
2026-01-11 05:25:53.59	249.50	13.47	-40.5	-41.6	18.5	0.00e+00	0	44	0	3900702720	50	4298
2026-01-11 05:25:54.45	249.40	13.40	-40.3	-41.4	18.7	0.00e+00	0	44	0	3906994176	50	4229
2026-01-11 05:25:55.59	249.27	13.30	-40.3	-41.4	18.7	0.00e+00	0	44	0	3915382784	50	4204
2026-01-11 05:25:56.45	249.17	13.23	-40.3	-41.3	18.8	0.00e+00	0	44	0	3921674240	50	4181
2026-01-11 05:25:57.60	249.04	13.14	-40.3	-41.3	18.8	0.00e+00	0	44	0	3930062848	50	4191
2026-01-11 05:25:58.46	248.94	13.07	-40.3	-41.3	18.7	0.00e+00	0	44	0	3935305728	50	4190
2026-01-11 05:25:59.60	248.81	12.98	-40.2	-41.3	18.8	0.00e+00	0	44	0	3943694336	50	4157
2026-01-11 05:26:00.46	248.71	12.91	-40.3	-41.4	18.7	0.00e+00	0	44	0	3949985792	50	4205
2026-01-11 05:26:01.60	248.58	12.81	-40.3	-41.4	18.7	0.00e+00	0	44	0	3958374400	50	4200
2026-01-11 05:26:02.46	248.49	12.74	-40.3	-41.4	18.7	0.00e+00	0	44	0	3964665856	50	4196
2026-01-11 05:26:03.60	248.36	12.65	-40.3	-41.4	18.7	0.00e+00	0	44	0	3973054464	50	4220
2026-01-11 05:26:04.46	248.27	12.58	-40.4	-41.5	18.6	0.00e+00	0	44	0	3979345920	50	4258
2026-01-11 05:26:05.61	248.14	12.49	-40.5	-41.5	18.5	0.00e+00	0	44	0	3987734528	50	4291
2026-01-11 05:26:06.46	248.05	12.42	-40.5	-41.6	18.5	0.00e+00	0	44	0	3994025984	50	4296
2026-01-11 05:26:07.61	247.93	12.33	-40.4	-41.5	18.6	0.00e+00	0	44	0	4001366016	50	4250
2026-01-11 05:26:08.47	247.83	12.26	-40.5	-41.5	18.5	0.00e+00	0	44	0	4008706048	50	4290
2026-01-11 05:26:09.61	247.71	12.17	-40.3	-41.4	18.7	0.00e+00	0	44	0	4016046080	50	4206
2026-01-11 05:26:10.47	247.62	12.10	-40.4	-41.5	18.6	0.00e+00	0	44	0	4022337536	50	4246
2026-01-11 05:26:11.62	247.50	12.01	-40.4	-41.5	18.5	0.00e+00	0	44	0	4030726144	50	4279
2026-01-11 05:26:12.47	247.41	11.94	-40.4	-41.5	18.6	0.00e+00	0	44	0	4037017600	50	4245
2026-01-11 05:26:13.62	247.29	11.85	-40.4	-41.5	18.5	0.00e+00	0	44	0	4045406208	50	4277
2026-01-11 05:26:14.48	247.20	11.78	-40.5	-41.5	18.5	0.00e+00	0	44	0	4051697664	50	4285
2026-01-11 05:26:15.62	247.08	11.69	-40.4	-41.5	18.5	0.00e+00	0	44	0	4060086272	50	4277
2026-01-11 05:26:16.48	246.99	11.63	-40.5	-41.6	18.5	0.00e+00	0	44	0	4066377728	50	4301
2026-01-11 05:26:17.62	246.88	11.54	-40.5	-41.6	18.4	0.00e+00	0	44	0	4074766336	50	4337
2026-01-11 05:26:18.48	246.79	11.47	-40.8	-41.9	18.2	0.00e+00	0	44	0	4081057792	50	4466
2026-01-11 05:26:19.62	246.68	11.38	-40.8	-41.9	18.1	0.00e+00	0	44	0	4088397824	51	4237
2026-01-11 05:26:20.48	246.59	11.31	-41.0	-42.1	17.9	0.00e+00	0	44	0	4094689280	51	4332
2026-01-11 05:26:21.63	246.47	11.22	-41.0	-42.2	17.9	0.00e+00	0	44	0	4103077888	51	4344
2026-01-11 05:26:22.48	246.39	11.16	-41.0	-42.2	17.8	0.00e+00	0	44	0	4109369344	51	4372
2026-01-11 05:26:23.63	246.28	11.07	-41.1	-42.3	17.7	0.00e+00	0	44	0	4117757952	51	4416
2026-01-11 05:26:24.48	246.19	11.00	-41.1	-42.3	17.7	0.00e+00	0	44	0	4124049408	51	4430
2026-01-11 05:26:25.63	246.08	10.91	-41.2	-42.4	17.6	0.00e+00	0	44	0	4132438016	51	4479
2026-01-11 05:26:26.49	246.00	10.85	-41.2	-42.4	17.6	0.00e+00	0	44	0	4138729472	51	4481
2026-01-11 05:26:27.63	245.89	10.76	-41.2	-42.4	17.6	0.00e+00	0	44	0	4147118080	52	4206
2026-01-11 05:26:28.49	245.80	10.69	-41.2	-42.4	17.6	0.00e+00	0	44	0	4152360960	52	4197
2026-01-11 05:26:29.63	245.69	10.60	-41.1	-42.3	17.6	0.00e+00	0	44	0	4160749568	52	4179
2026-01-11 05:26:30.49	245.61	10.54	-41.2	-42.3	17.6	0.00e+00	0	44	0	4167041024	52	4187
2026-01-11 05:26:31.63	245.50	10.45	-41.1	-42.3	17.6	0.00e+00	0	44	0	4175429632	52	4174
2026-01-11 05:26:32.49	245.42	10.39	-41.2	-42.4	17.6	0.00e+00	0	44	0	4181721088	52	4208
2026-01-11 05:26:33.63	245.32	10.30	-41.1	-42.3	17.7	0.00e+00	0	44	0	4190109696	52	4153
2026-01-11 05:26:34.49	245.24	10.23	-41.0	-42.2	17.8	0.00e+00	0	44	0	4196401152	52	4115
2026-01-11 05:26:35.63	245.13	10.15	-41.1	-42.2	17.7	0.00e+00	0	44	0	4204789760	52	4139
2026-01-11 05:26:36.49	245.05	10.08	-41.2	-42.3	17.6	0.00e+00	0	44	0	4210032640	52	4181
2026-01-11 05:26:37.63	244.95	10.00	-41.2	-42.3	17.6	0.00e+00	0	44	0	4218421248	52	4188
2026-01-11 05:26:38.49	244.87	9.93	-41.2	-42.3	17.6	0.00e+00	0	44	0	4224712704	52	4176
2026-01-11 05:26:39.64	244.76	9.85	-41.2	-42.4	17.5	0.00e+00	0	44	0	4233101312	52	4223
2026-01-11 05:26:40.50	244.68	9.78	-41.3	-42.5	17.4	0.00e+00	0	44	0	4239392768	52	4255
2026-01-11 05:26:41.64	244.58	9.70	-41.3	-42.4	17.5	0.00e+00	0	44	0	4247781376	52	4234
2026-01-11 05:26:42.50	244.51	9.63	-41.4	-42.6	17.3	0.00e+00	0	44	0	4254072832	52	4308
2026-01-11 05:26:43.65	244.40	9.55	-41.5	-42.7	17.2	0.00e+00	0	44	0	4262461440	52	4367
2026-01-11 05:26:44.51	244.33	9.48	-41.5	-42.7	17.2	0.00e+00	0	44	0	4267704320	52	4353
2026-01-11 05:26:45.65	244.23	9.40	-41.4	-42.6	17.2	0.00e+00	0	44	0	4276092928	52	4337
2026-01-11 05:26:46.51	244.15	9.33	-41.4	-42.7	17.2	0.00e+00	0	44	0	4282384384	52	4345
2026-01-11 05:26:47.66	244.05	9.25	-41.5	-42.8	17.1	0.00e+00	0	44	0	4290772992	52	4400
2026-01-11 05:26:48.51	243.98	9.19	-41.5	-42.8	17.1	0.00e+00	0	44	0	4297064448	52	4394
2026-01-11 05:26:49.66	243.88	9.10	-41.6	-42.8	17.1	0.00e+00	0	44	0	4305453056	52	4412
2026-01-11 05:26:50.52	243.80	9.04	-41.6	-42.8	17.0	0.00e+00	0	44	0	4311744512	52	4440
2026-01-11 05:26:51.66	243.71	8.96	-43.3	-44.9	15.2	0.00e+00	0	44	0	4320133120	55	4717
2026-01-11 05:26:52.52	243.63	8.89	-50.5	-60.8	3.8	8.46e-01	0	44	104	4321181696	70	12411
2026-01-11 05:26:53.67	243.54	8.81	-50.7	-61.7	3.8	8.48e-01	0	44	104	4321181696	71	12981
2026-01-11 05:26:54.53	243.47	8.75	-50.9	-61.7	3.8	8.47e-01	0	44	104	4321181696	71	12969
2026-01-11 05:26:55.67	243.37	8.66	-50.9	-61.8	3.8	8.47e-01	0	44	104	4321181696	71	13210
2026-01-11 05:26:56.53	243.30	8.60	-51.0	-61.8	3.8	8.47e-01	0	44	104	4321181696	71	13242
2026-01-11 05:26:57.68	243.20	8.52	-51.1	-61.9	3.8	8.46e-01	0	44	104	4321181696	71	13397
2026-01-11 05:26:58.53	243.13	8.46	-51.1	-62.0	3.8	8.48e-01	0	44	104	4321181696	71	13444
2026-01-11 05:26:59.68	243.04	8.37	-51.2	-61.9	3.8	8.47e-01	0	44	104	4321181696	71	13399
2026-01-11 05:27:00.54	242.97	8.31	-51.2	-62.0	3.8	8.47e-01	0	44	104	4321181696	71	13463
2026-01-11 05:27:01.68	242.88	8.23	-51.2	-62.0	3.8	8.48e-01	0	44	104	4321181696	71	13452
2026-01-11 05:27:02.54	242.81	8.17	-51.2	-62.0	3.8	8.46e-01	0	44	104	4321181696	71	13499
2026-01-11 05:27:03.69	242.72	8.09	-51.2	-62.0	3.8	8.47e-01	0	44	104	4321181696	71	13478
2026-01-11 05:27:04.55	242.65	8.03	-51.2	-61.9	3.8	8.46e-01	0	45	104	4321181696	71	13394
2026-01-11 05:27:05.69	242.56	7.95	-51.1	-62.0	3.8	8.47e-01	0	44	104	4321181696	71	13426
2026-01-11 05:27:06.55	242.49	7.88	-51.1	-62.0	3.8	8.47e-01	0	44	104	4321181696	71	13476
2026-01-11 05:27:07.69	242.40	7.80	-51.0	-62.0	3.8	8.47e-01	0	44	104	4321181696	71	13447
2026-01-11 05:27:08.55	242.33	7.74	-51.0	-61.9	3.8	8.46e-01	0	44	104	4321181696	71	13349
2026-01-11 05:27:09.70	242.24	7.66	-51.1	-61.9	3.8	8.47e-01	0	44	104	4321181696	71	13398
2026-01-11 05:27:10.55	242.18	7.60	-51.1	-61.9	3.8	8.46e-01	0	44	104	4321181696	71	13313
2026-01-11 05:27:11.70	242.09	7.52	-51.1	-61.9	3.8	8.46e-01	0	44	104	4321181696	71	13344
2026-01-11 05:27:12.56	242.02	7.46	-51.1	-61.9	3.8	8.46e-01	0	44	104	4321181696	71	13392
2026-01-11 05:27:13.70	241.93	7.38	-51.0	-61.8	3.8	8.48e-01	0	44	104	4321181696	71	13213
2026-01-11 05:27:14.56	241.87	7.32	-51.0	-61.8	3.8	8.48e-01	0	44	104	4321181696	71	13221
2026-01-11 05:27:15.70	241.78	7.24	-51.0	-61.9	3.8	8.47e-01	0	44	104	4321181696	71	13288
2026-01-11 05:27:16.56	241.72	7.18	-51.0	-61.9	3.8	8.48e-01	0	44	104	4321181696	71	13335
2026-01-11 05:27:17.71	241.63	7.10	-51.0	-61.9	3.8	8.47e-01	0	44	104	4321181696	71	13272
2026-01-11 05:27:18.57	241.57	7.04	-51.0	-61.8	3.8	8.47e-01	0	44	104	4321181696	71	13199
2026-01-11 05:27:19.72	241.48	6.96	-51.0	-61.8	3.8	8.47e-01	0	44	104	4321181696	71	13234
2026-01-11 05:27:20.57	241.42	6.91	-51.0	-61.8	3.8	8.46e-01	0	44	104	4321181696	71	13215
2026-01-11 05:27:21.72	241.34	6.83	-51.0	-61.8	3.8	8.46e-01	0	44	104	4321181696	71	13226
2026-01-11 05:27:22.58	241.27	6.77	-51.0	-61.8	3.8	8.48e-01	0	44	104	4321181696	71	13191
2026-01-11 05:27:23.72	241.19	6.69	-50.9	-61.8	3.8	8.47e-01	0	44	104	4321181696	71	13253
2026-01-11 05:27:24.58	241.13	6.63	-51.0	-61.8	3.8	8.49e-01	0	44	104	4321181696	71	13180
2026-01-11 05:27:25.73	241.04	6.55	-51.0	-61.8	3.8	8.47e-01	0	44	104	4321181696	71	13235
2026-01-11 05:27:26.59	240.98	6.49	-51.0	-61.9	3.8	8.47e-01	0	44	104	4321181696	71	13267
2026-01-11 05:27:27.73	240.90	6.42	-51.0	-61.8	3.8	8.47e-01	0	44	104	4321181696	71	13156
2026-01-11 05:27:28.59	240.84	6.36	-50.9	-61.8	3.8	8.47e-01	0	44	104	4321181696	71	13233
2026-01-11 05:27:29.73	240.76	6.28	-51.0	-61.9	3.8	8.47e-01	0	44	104	4321181696	71	13306
2026-01-11 05:27:30.59	240.70	6.22	-51.0	-61.8	3.8	8.47e-01	0	44	104	4321181696	71	13183
2026-01-11 05:27:31.74	240.62	6.14	-51.0	-61.8	3.8	8.46e-01	0	44	104	4321181696	71	13237
2026-01-11 05:27:32.60	240.56	6.09	-51.0	-61.8	3.8	8.48e-01	0	44	104	4321181696	71	13224
2026-01-11 05:27:33.74	240.48	6.01	-51.0	-61.9	3.8	8.48e-01	0	44	104	4321181696	71	13270
2026-01-11 05:27:34.60	240.42	5.95	-51.0	-61.8	3.8	8.46e-01	0	44	104	4321181696	71	13225
