passes_logs/2026/01/11/T1/T1__20260111_213242_NOAA_20_JPSS-1_rec.log

#Pass ID: 20260111_213242_NOAA 20 (JPSS-1)
#Satellite: NOAA 20 (JPSS-1)
#Configuration: NOAA 20
#almurnet v.1.7.20251203
#Start time: 2026-01-11 21:32:42

#Version: 2.0.20230620
#Station: T1
#Location: 37.570604 lon 55.790049 lat
#TLE: 1 43013U 17073A   26011.31235446  .00000090  00000+0  63634-4 0  9991
#TLE: 2 43013  98.7632 312.2907 0001646  44.6084 315.5224 14.19535308422217

#Time	Az	El	Level	Level2	SNR	BER	BlckErr	Temp	State	Recorded	gain1	gain2
2026-01-11 21:32:42.28	39.88	5.01	-50.3	-65.5	3.8	1.49e+00	0	41	104	0	72	20476
2026-01-11 21:32:43.27	40.00	5.05	-50.3	-65.5	3.8	1.49e+00	0	41	104	0	72	20523
2026-01-11 21:32:44.26	40.12	5.10	-50.2	-65.5	3.8	1.49e+00	0	41	104	0	72	20427
2026-01-11 21:32:45.26	40.24	5.14	-50.2	-65.5	3.8	1.49e+00	0	41	104	0	72	20413
2026-01-11 21:32:46.25	40.36	5.18	-50.2	-65.5	3.8	1.49e+00	0	41	104	0	72	20480
2026-01-11 21:32:47.24	40.48	5.22	-50.2	-65.5	3.8	1.49e+00	0	41	104	0	72	20526
2026-01-11 21:32:48.24	40.61	5.26	-50.2	-65.5	3.8	1.49e+00	0	41	104	0	72	20482
2026-01-11 21:32:49.23	40.73	5.31	-50.2	-65.5	3.8	1.49e+00	0	41	104	0	72	20388
2026-01-11 21:32:50.22	40.85	5.35	-50.2	-65.5	3.8	1.49e+00	0	42	104	0	72	20511
2026-01-11 21:32:51.22	40.98	5.39	-50.2	-65.5	3.8	1.49e+00	0	41	104	0	72	20482
2026-01-11 21:32:52.21	41.10	5.43	-50.2	-65.5	3.8	1.49e+00	0	42	104	0	72	20403
2026-01-11 21:32:53.20	41.22	5.47	-50.2	-65.5	3.8	1.49e+00	0	42	104	0	72	20422
2026-01-11 21:32:54.20	41.35	5.52	-50.2	-65.5	3.8	1.49e+00	0	42	104	0	72	20451
2026-01-11 21:32:55.19	41.47	5.56	-50.2	-65.5	3.8	1.49e+00	0	42	104	0	72	20448
2026-01-11 21:32:56.18	41.59	5.60	-50.2	-65.5	3.8	1.49e+00	0	42	104	0	72	20480
2026-01-11 21:32:57.17	41.72	5.64	-50.2	-65.5	3.8	1.49e+00	0	42	104	0	72	20336
2026-01-11 21:32:58.17	41.85	5.68	-50.2	-65.5	3.8	1.49e+00	0	42	104	0	72	20390
2026-01-11 21:32:59.16	41.97	5.72	-50.2	-65.5	3.8	1.49e+00	0	42	104	0	72	20464
2026-01-11 21:33:00.15	42.10	5.76	-50.2	-65.5	3.8	1.49e+00	0	42	104	0	72	20449
2026-01-11 21:33:01.15	42.22	5.81	-50.2	-65.5	3.8	1.49e+00	0	42	104	0	72	20498
2026-01-11 21:33:02.14	42.35	5.85	-50.2	-65.5	3.8	1.49e+00	0	42	104	0	72	20462
2026-01-11 21:33:03.13	42.48	5.89	-50.2	-65.5	3.8	1.49e+00	0	42	104	0	72	20435
2026-01-11 21:33:04.12	42.60	5.93	-50.2	-65.5	3.8	1.49e+00	0	42	104	0	72	20467
2026-01-11 21:33:05.12	42.73	5.97	-50.2	-65.5	3.8	1.49e+00	0	42	104	0	72	20448
2026-01-11 21:33:06.11	42.86	6.01	-50.2	-65.5	3.8	1.49e+00	0	42	104	0	72	20434
2026-01-11 21:33:07.10	42.99	6.05	-50.2	-65.5	3.8	1.49e+00	0	42	104	0	72	20521
2026-01-11 21:33:08.10	43.12	6.09	-50.2	-65.5	3.8	1.49e+00	0	42	104	0	72	20443
2026-01-11 21:33:09.09	43.25	6.14	-50.2	-65.5	3.8	1.49e+00	0	42	104	0	72	20472
2026-01-11 21:33:10.08	43.38	6.18	-50.2	-65.5	3.8	1.49e+00	0	42	104	0	72	20422
2026-01-11 21:33:11.08	43.51	6.22	-50.2	-65.5	3.8	1.49e+00	0	42	104	0	72	20392
2026-01-11 21:33:12.07	43.64	6.26	-50.2	-65.5	3.8	1.49e+00	0	42	104	0	72	20417
2026-01-11 21:33:13.06	43.77	6.30	-50.2	-65.5	3.8	1.49e+00	0	42	104	0	72	20474
2026-01-11 21:33:14.06	43.90	6.34	-50.2	-65.5	3.8	1.49e+00	0	42	104	0	72	20509
2026-01-11 21:33:15.05	44.03	6.38	-50.2	-65.5	3.8	1.49e+00	0	42	104	0	72	20481
2026-01-11 21:33:16.04	44.16	6.42	-50.2	-65.5	3.8	1.49e+00	0	42	104	0	72	20388
2026-01-11 21:33:17.04	44.30	6.46	-50.2	-65.5	3.8	1.49e+00	0	42	104	0	72	20458
2026-01-11 21:33:18.03	44.43	6.50	-50.2	-65.5	3.8	1.49e+00	0	42	104	0	72	20441
2026-01-11 21:33:19.02	44.56	6.54	-50.2	-65.5	3.8	1.49e+00	0	42	104	0	72	20455
2026-01-11 21:33:20.02	44.69	6.58	-50.2	-65.5	3.8	1.49e+00	0	42	104	0	72	20383
2026-01-11 21:33:21.01	44.83	6.62	-50.2	-65.5	3.8	1.49e+00	0	42	104	0	72	20467
2026-01-11 21:33:22.01	44.96	6.66	-50.2	-65.5	3.8	1.49e+00	0	42	104	0	72	20508
2026-01-11 21:33:23.00	45.10	6.70	-50.2	-65.5	3.8	1.49e+00	0	42	104	0	72	20376
2026-01-11 21:33:23.99	45.23	6.74	-50.2	-65.5	3.8	1.49e+00	0	42	104	0	72	20458
2026-01-11 21:33:24.98	45.36	6.78	-50.2	-65.5	3.8	1.49e+00	0	42	104	0	72	20445
2026-01-11 21:33:25.98	45.50	6.82	-50.2	-65.5	3.8	1.49e+00	0	42	104	0	72	20510
2026-01-11 21:33:26.97	45.64	6.86	-50.2	-65.5	3.8	1.49e+00	0	42	104	0	72	20451
2026-01-11 21:33:27.96	45.77	6.90	-50.2	-65.5	3.8	1.49e+00	0	43	104	0	72	20435
2026-01-11 21:33:28.96	45.91	6.94	-50.2	-65.5	3.8	1.49e+00	0	43	104	0	72	20471
2026-01-11 21:33:29.95	46.04	6.98	-50.2	-65.5	3.8	1.49e+00	0	43	104	0	72	20418
2026-01-11 21:33:30.94	46.18	7.02	-50.2	-65.5	3.8	1.49e+00	0	43	104	0	72	20513
2026-01-11 21:33:31.94	46.32	7.06	-50.2	-65.5	3.8	1.49e+00	0	43	104	0	72	20484
2026-01-11 21:33:32.93	46.46	7.10	-50.2	-65.5	3.8	1.49e+00	0	43	104	0	72	20454
2026-01-11 21:33:33.92	46.59	7.14	-50.2	-65.5	3.8	1.49e+00	0	43	104	0	72	20456
2026-01-11 21:33:34.92	46.73	7.18	-50.3	-65.5	3.8	1.49e+00	0	43	104	0	72	20474
2026-01-11 21:33:35.91	46.87	7.22	-50.2	-65.5	3.8	1.49e+00	0	43	104	0	72	20398
2026-01-11 21:33:36.91	47.01	7.26	-50.2	-65.5	3.8	1.49e+00	0	43	104	0	72	20414
2026-01-11 21:33:37.90	47.15	7.30	-50.2	-65.5	3.8	1.49e+00	0	43	104	0	72	20397
2026-01-11 21:33:38.89	47.29	7.34	-50.2	-65.5	3.8	1.49e+00	0	43	104	0	72	20352
2026-01-11 21:33:39.89	47.43	7.37	-50.2	-65.5	3.8	1.49e+00	0	43	104	0	72	20365
2026-01-11 21:33:40.88	47.57	7.41	-50.2	-65.5	3.8	1.49e+00	0	43	104	0	72	20381
2026-01-11 21:33:41.87	47.71	7.45	-50.2	-65.5	3.8	1.49e+00	0	43	104	0	72	20304
2026-01-11 21:33:42.87	47.86	7.49	-50.2	-65.4	3.8	1.49e+00	0	43	104	0	72	20291
2026-01-11 21:33:43.86	48.00	7.53	-50.2	-65.5	3.8	1.49e+00	0	43	104	0	72	20320
2026-01-11 21:33:44.85	48.14	7.57	-50.2	-65.5	3.8	1.49e+00	0	43	104	0	72	20370
2026-01-11 21:33:45.85	48.28	7.61	-50.2	-65.5	3.8	1.49e+00	0	43	104	0	72	20355
2026-01-11 21:33:46.84	48.43	7.64	-50.2	-65.5	3.8	1.49e+00	0	43	104	0	72	20312
2026-01-11 21:33:47.84	48.57	7.68	-50.2	-65.5	3.8	1.49e+00	0	43	104	0	72	20454
2026-01-11 21:33:48.83	48.71	7.72	-50.2	-65.5	3.8	1.49e+00	0	43	104	0	72	20510
2026-01-11 21:33:49.82	48.86	7.76	-50.2	-65.5	3.8	1.49e+00	0	43	104	0	72	20399
2026-01-11 21:33:50.81	49.00	7.80	-50.2	-65.5	3.8	1.49e+00	0	43	104	0	72	20380
2026-01-11 21:33:51.81	49.15	7.83	-50.2	-65.5	3.8	1.49e+00	0	43	104	0	72	20509
2026-01-11 21:33:52.80	49.29	7.87	-50.2	-65.5	3.8	1.49e+00	0	43	104	0	72	20448
2026-01-11 21:33:53.79	49.44	7.91	-50.2	-65.5	3.8	1.49e+00	0	43	104	0	72	20460
2026-01-11 21:33:54.79	49.58	7.95	-50.2	-65.5	3.8	1.49e+00	0	43	104	0	72	20445
2026-01-11 21:33:55.78	49.73	7.98	-50.2	-65.5	3.8	1.49e+00	0	43	104	0	72	20466
2026-01-11 21:33:56.77	49.87	8.02	-50.2	-65.4	3.8	1.49e+00	0	43	104	0	72	20301
2026-01-11 21:33:57.77	50.02	8.06	-50.2	-65.4	3.8	1.49e+00	0	43	104	0	72	20260
2026-01-11 21:33:58.76	50.17	8.09	-50.2	-65.4	3.8	1.49e+00	0	43	104	0	72	20130
2026-01-11 21:33:59.75	50.32	8.13	-50.2	-65.4	3.8	1.49e+00	0	43	104	0	72	20083
2026-01-11 21:34:00.75	50.46	8.17	-50.2	-65.3	3.8	1.49e+00	0	43	104	0	72	19999
2026-01-11 21:34:01.74	50.61	8.21	-50.2	-65.4	3.8	1.49e+00	0	43	104	0	72	20174
2026-01-11 21:34:02.73	50.76	8.24	-50.2	-65.4	3.8	1.49e+00	0	43	104	0	72	20278
2026-01-11 21:34:03.73	50.91	8.28	-50.2	-65.4	3.8	1.49e+00	0	43	104	0	72	20280
2026-01-11 21:34:04.72	51.06	8.31	-50.2	-65.5	3.8	1.49e+00	0	43	104	0	72	20361
2026-01-11 21:34:05.71	51.21	8.35	-50.3	-65.4	3.8	1.49e+00	0	43	104	0	72	20298
2026-01-11 21:34:06.71	51.36	8.39	-50.2	-65.5	3.8	1.49e+00	0	43	104	0	72	20441
2026-01-11 21:34:07.70	51.51	8.42	-50.2	-65.5	3.8	1.49e+00	0	43	104	0	72	20318
2026-01-11 21:34:08.69	51.66	8.46	-50.2	-65.5	3.8	1.49e+00	0	43	104	0	72	20511
2026-01-11 21:34:09.69	51.81	8.50	-50.2	-65.5	3.8	1.49e+00	0	43	104	0	72	20447
2026-01-11 21:34:10.68	51.96	8.53	-50.2	-65.5	3.8	1.49e+00	0	43	104	0	72	20408
2026-01-11 21:34:11.67	52.12	8.57	-50.2	-65.5	3.8	1.49e+00	0	43	104	0	72	20318
2026-01-11 21:34:12.67	52.27	8.60	-50.2	-65.4	3.8	1.49e+00	0	43	104	0	72	20250
2026-01-11 21:34:13.66	52.42	8.64	-50.2	-65.4	3.8	1.49e+00	0	43	104	0	72	20092
2026-01-11 21:34:14.66	52.58	8.67	-50.2	-65.4	3.8	1.49e+00	0	43	104	0	72	20135
2026-01-11 21:34:15.65	52.73	8.71	-50.2	-65.4	3.8	1.49e+00	0	43	104	0	72	20289
2026-01-11 21:34:16.64	52.88	8.74	-50.2	-65.4	3.8	1.49e+00	0	43	104	0	72	20269
2026-01-11 21:34:17.64	53.04	8.78	-50.2	-65.4	3.8	1.49e+00	0	43	104	0	72	20211
2026-01-11 21:34:18.63	53.19	8.81	-50.3	-65.3	3.8	1.49e+00	0	43	104	0	72	20030
2026-01-11 21:34:19.62	53.35	8.85	-50.2	-65.2	3.8	1.49e+00	0	43	104	0	72	19743
2026-01-11 21:34:20.62	53.50	8.88	-50.2	-65.0	3.8	1.49e+00	0	43	104	0	72	19205
2026-01-11 21:34:21.61	53.66	8.92	-50.2	-64.8	3.8	1.49e+00	0	43	104	0	72	18842
2026-01-11 21:34:22.60	53.81	8.95	-50.2	-64.6	3.8	1.49e+00	0	43	104	0	72	18458
2026-01-11 21:34:23.60	53.97	8.98	-50.2	-64.9	3.8	1.49e+00	0	43	104	0	72	18993
2026-01-11 21:34:24.59	54.13	9.02	-50.2	-65.3	3.8	1.49e+00	0	43	104	0	72	19972
2026-01-11 21:34:25.59	54.28	9.05	-50.2	-64.0	3.8	1.49e+00	0	44	104	0	72	17142
2026-01-11 21:34:26.58	54.44	9.08	-50.2	-64.3	3.8	1.49e+00	0	43	104	0	72	17831
2026-01-11 21:34:27.58	54.60	9.12	-50.2	-64.9	3.8	1.48e+00	0	43	104	0	72	18960
2026-01-11 21:34:28.57	54.76	9.15	-50.1	-60.9	4.7	3.36e-01	0	43	0	0	71	12688
2026-01-11 21:34:29.57	54.92	9.18	-49.7	-58.6	5.7	1.47e+00	0	43	0	0	71	9779
2026-01-11 21:34:30.56	55.07	9.22	-48.8	-55.1	9.2	1.98e-02	0	43	0	2097152	69	7363
2026-01-11 21:34:31.56	55.23	9.25	-48.8	-55.2	9.1	1.65e-02	0	43	0	3145728	69	7384
2026-01-11 21:34:32.55	55.39	9.28	-48.7	-54.6	9.7	1.12e-02	0	43	0	5242880	69	6906
2026-01-11 21:34:33.54	55.55	9.32	-48.6	-54.5	9.8	9.57e-03	0	44	0	7340032	69	6828
2026-01-11 21:34:34.54	55.71	9.35	-48.4	-53.8	10.5	2.77e-03	0	44	0	9437184	68	6687
2026-01-11 21:34:35.53	55.87	9.38	-48.3	-53.5	10.9	2.17e-03	0	43	0	11534336	68	6467
2026-01-11 21:34:36.53	56.04	9.41	-48.1	-53.2	11.2	2.72e-03	0	44	0	12582912	68	6233
2026-01-11 21:34:37.52	56.20	9.44	-47.8	-52.6	11.7	1.20e-03	0	43	0	14680064	67	6163
2026-01-11 21:34:38.52	56.36	9.48	-47.8	-52.6	11.6	8.35e-04	0	43	0	16777216	67	6163
2026-01-11 21:34:39.51	56.52	9.51	-47.5	-52.1	12.2	4.52e-04	0	44	0	18874368	67	5820
2026-01-11 21:34:40.51	56.68	9.54	-47.5	-52.1	12.3	1.82e-04	0	43	0	19922944	67	5807
2026-01-11 21:34:41.53	56.85	9.57	-47.5	-52.0	12.4	1.71e-04	0	43	0	22020096	66	6077
2026-01-11 21:34:42.53	57.02	9.60	-47.2	-51.5	12.8	1.15e-04	0	44	0	24117248	66	5746
2026-01-11 21:34:43.52	57.18	9.63	-47.2	-51.4	12.9	4.88e-05	0	43	0	26214400	66	5697
2026-01-11 21:34:44.52	57.34	9.67	-47.2	-51.4	12.9	5.95e-05	0	44	0	28311552	66	5701
2026-01-11 21:34:45.51	57.51	9.70	-47.2	-51.4	13.0	4.80e-05	0	44	0	29360128	66	5670
2026-01-11 21:34:46.51	57.67	9.73	-47.2	-51.4	13.0	3.43e-05	0	43	0	31457280	66	5691
2026-01-11 21:34:47.50	57.84	9.76	-47.2	-51.4	12.9	3.35e-05	0	43	0	33554432	66	5713
2026-01-11 21:34:48.50	58.00	9.79	-47.3	-51.5	12.8	4.80e-05	0	44	0	35651584	66	5778
2026-01-11 21:34:49.49	58.17	9.82	-47.2	-51.4	12.9	5.49e-05	0	44	0	37748736	66	5717
2026-01-11 21:34:50.49	58.33	9.85	-47.2	-51.4	12.9	4.50e-05	0	44	0	38797312	66	5711
2026-01-11 21:34:51.48	58.50	9.88	-47.3	-51.5	12.8	5.11e-05	0	44	0	40894464	66	5756
2026-01-11 21:34:52.48	58.67	9.91	-47.4	-51.7	12.7	5.87e-05	0	44	0	42991616	66	5899
2026-01-11 21:34:53.47	58.83	9.94	-47.4	-51.7	12.7	5.79e-05	0	43	0	45088768	66	5858
2026-01-11 21:34:54.47	59.00	9.97	-47.3	-51.5	12.8	6.33e-05	0	43	0	46137344	66	5769
2026-01-11 21:34:55.46	59.17	9.99	-47.3	-51.5	12.8	5.26e-05	0	43	0	48234496	66	5786
2026-01-11 21:34:56.46	59.34	10.02	-47.3	-51.6	12.8	6.10e-05	0	43	0	50331648	66	5815
2026-01-11 21:34:57.50	59.51	10.05	-47.3	-51.5	12.9	4.88e-05	0	44	0	52428800	66	5734
2026-01-11 21:34:58.46	59.67	10.08	-47.2	-51.4	13.0	4.88e-05	0	43	0	54525952	66	5663
2026-01-11 21:34:59.46	59.84	10.11	-47.2	-51.3	13.1	3.81e-05	0	44	0	55574528	66	5607
2026-01-11 21:35:00.45	60.01	10.14	-47.2	-51.4	12.9	3.28e-05	0	44	0	57671680	66	5692
2026-01-11 21:35:01.45	60.18	10.17	-47.2	-51.3	13.1	3.50e-05	0	43	0	59768832	66	5646
2026-01-11 21:35:02.45	60.35	10.19	-47.0	-51.2	13.0	7.35e-03	0	43	0	61865984	66	5563
2026-01-11 21:35:03.44	60.52	10.22	-47.1	-51.2	12.9	8.74e-03	0	44	0	62914560	66	5585
2026-01-11 21:35:04.43	60.69	10.25	-47.1	-51.3	12.9	2.68e-03	0	43	0	65011712	66	5599
2026-01-11 21:35:05.43	60.86	10.27	-47.0	-51.2	13.0	1.78e-03	0	44	0	67108864	66	5558
2026-01-11 21:35:06.42	61.03	10.30	-47.0	-51.2	13.1	1.87e-03	0	44	0	69206016	66	5554
2026-01-11 21:35:07.42	61.21	10.33	-47.1	-51.3	13.1	3.05e-04	0	44	0	71303168	66	5600
2026-01-11 21:35:08.41	61.38	10.35	-47.1	-51.3	13.0	2.26e-04	0	43	0	72351744	66	5621
2026-01-11 21:35:09.40	61.55	10.38	-47.0	-51.2	13.1	4.79e-04	0	44	0	74448896	66	5549
2026-01-11 21:35:10.40	61.72	10.41	-47.0	-51.1	13.2	3.37e-03	0	43	0	76546048	66	5469
2026-01-11 21:35:11.39	61.89	10.43	-46.9	-51.0	13.3	5.00e-04	0	44	0	78643200	65	5743
2026-01-11 21:35:12.44	62.07	10.46	-47.0	-51.0	13.3	5.55e-04	0	43	0	80740352	65	5769
2026-01-11 21:35:13.40	62.24	10.49	-47.0	-51.0	13.3	2.10e-04	0	44	0	81788928	65	5758
2026-01-11 21:35:14.40	62.42	10.51	-47.0	-51.1	13.4	7.60e-06	0	44	0	83886080	65	5798
2026-01-11 21:35:15.39	62.59	10.54	-47.0	-51.0	13.3	1.83e-05	0	44	0	85983232	65	5776
2026-01-11 21:35:16.39	62.76	10.56	-47.0	-50.9	13.4	9.10e-06	0	44	0	88080384	65	5708
2026-01-11 21:35:17.38	62.94	10.59	-46.9	-50.8	13.5	6.80e-06	0	44	0	89128960	65	5639
2026-01-11 21:35:18.37	63.11	10.61	-46.9	-50.8	13.5	8.30e-06	0	44	0	91226112	65	5624
2026-01-11 21:35:19.37	63.29	10.63	-46.8	-50.7	13.7	7.60e-06	0	43	0	93323264	65	5552
2026-01-11 21:35:20.36	63.46	10.66	-46.8	-50.6	13.8	5.30e-06	0	44	0	95420416	65	5513
2026-01-11 21:35:21.36	63.64	10.68	-46.8	-50.7	13.7	6.10e-06	0	44	0	96468992	65	5553
2026-01-11 21:35:22.35	63.81	10.71	-46.8	-50.6	13.8	7.00e-07	0	44	0	98566144	65	5499
2026-01-11 21:35:23.35	63.99	10.73	-46.8	-50.6	13.8	6.80e-06	0	44	0	100663296	65	5525
2026-01-11 21:35:24.34	64.16	10.75	-46.9	-50.7	13.7	8.30e-06	0	43	0	102760448	65	5580
2026-01-11 21:35:25.38	64.35	10.78	-46.8	-50.7	13.7	7.60e-06	0	44	0	104857600	65	5529
2026-01-11 21:35:26.36	64.52	10.80	-46.8	-50.6	13.8	6.80e-06	0	44	0	105906176	65	5513
2026-01-11 21:35:27.46	64.72	10.82	-46.9	-50.8	13.6	6.10e-06	0	43	0	108003328	65	5629
2026-01-11 21:35:28.35	64.88	10.84	-46.9	-50.8	13.5	8.30e-06	0	44	0	110100480	65	5652
2026-01-11 21:35:29.48	65.08	10.87	-47.0	-50.9	13.5	7.60e-06	0	43	0	112197632	65	5717
2026-01-11 21:35:30.34	65.23	10.89	-47.0	-51.1	13.3	1.29e-05	0	44	0	114294784	65	5790
2026-01-11 21:35:31.47	65.44	10.91	-47.0	-51.1	13.4	9.90e-06	0	44	0	116391936	65	5791
2026-01-11 21:35:32.33	65.59	10.93	-47.1	-51.1	13.3	1.67e-05	0	44	0	117440512	65	5820
2026-01-11 21:35:33.46	65.79	10.96	-47.1	-51.1	13.3	1.75e-05	0	44	0	119537664	65	5804
2026-01-11 21:35:34.32	65.95	10.97	-47.1	-51.0	13.4	1.06e-05	0	44	0	121634816	65	5771
2026-01-11 21:35:35.45	66.15	11.00	-47.1	-51.1	13.3	1.29e-05	0	44	0	123731968	65	5834
2026-01-11 21:35:36.31	66.31	11.01	-47.1	-51.1	13.3	1.90e-05	0	44	0	124780544	65	5820
2026-01-11 21:35:37.44	66.51	11.04	-47.1	-51.1	13.3	1.83e-05	0	44	0	126877696	65	5854
2026-01-11 21:35:38.30	66.67	11.05	-47.1	-51.1	13.3	1.44e-05	0	43	0	128974848	65	5818
2026-01-11 21:35:39.43	66.87	11.08	-47.1	-51.1	13.3	1.29e-05	0	44	0	131072000	65	5842
2026-01-11 21:35:40.29	67.03	11.09	-47.2	-51.3	13.1	2.82e-05	0	43	0	132120576	65	5949
2026-01-11 21:35:41.42	67.23	11.12	-47.2	-51.4	13.1	3.35e-05	0	44	0	134217728	65	5997
2026-01-11 21:35:42.28	67.39	11.13	-47.2	-51.4	13.0	4.27e-05	0	44	0	136314880	65	6049
2026-01-11 21:35:43.62	67.63	11.16	-47.3	-51.6	12.7	6.79e-05	0	43	0	138412032	65	6192
2026-01-11 21:35:44.33	67.76	11.17	-47.4	-51.7	12.7	6.63e-05	0	44	0	140509184	65	6232
2026-01-11 21:35:45.61	68.00	11.20	-47.4	-51.7	12.6	8.85e-05	0	44	0	142606336	65	6266
2026-01-11 21:35:46.35	68.13	11.21	-47.4	-51.8	12.6	9.07e-05	0	44	0	143654912	65	6291
2026-01-11 21:35:47.63	68.37	11.23	-47.4	-51.8	12.6	1.32e-04	0	43	0	145752064	65	6314
2026-01-11 21:35:48.36	68.50	11.24	-47.5	-51.8	12.5	1.11e-04	0	44	0	147849216	65	6345
2026-01-11 21:35:49.64	68.73	11.27	-47.4	-51.8	12.6	1.03e-04	0	43	0	149946368	65	6296
2026-01-11 21:35:50.35	68.86	11.28	-47.5	-51.9	12.6	8.77e-05	0	44	0	150994944	65	6382
2026-01-11 21:35:51.63	69.10	11.30	-47.4	-51.7	12.7	1.09e-04	0	44	0	154140672	65	6265
2026-01-11 21:35:52.45	69.25	11.31	-47.4	-51.7	12.7	8.46e-05	0	44	0	155189248	65	6234
2026-01-11 21:35:53.59	69.46	11.33	-47.4	-51.8	12.7	8.54e-05	0	44	0	157286400	65	6278
2026-01-11 21:35:54.63	69.65	11.35	-47.5	-51.8	12.6	9.30e-05	0	44	0	159383552	65	6334
2026-01-11 21:35:55.76	69.86	11.37	-47.5	-51.8	12.7	8.46e-05	0	44	0	161480704	65	6288
2026-01-11 21:35:56.62	70.02	11.38	-47.5	-51.8	12.5	8.92e-05	0	44	0	162529280	65	6345
2026-01-11 21:35:57.97	70.27	11.40	-47.5	-51.8	12.6	1.03e-04	0	43	0	165675008	65	6338
2026-01-11 21:35:58.68	70.40	11.41	-47.5	-51.8	12.6	1.09e-04	0	44	0	166723584	65	6329
2026-01-11 21:36:00.17	70.68	11.44	-47.4	-51.8	12.5	1.11e-04	0	44	0	169869312	65	6341
2026-01-11 21:36:00.88	70.81	11.45	-47.5	-52.0	12.4	1.14e-04	0	44	0	170917888	65	6472
2026-01-11 21:36:02.16	71.05	11.46	-47.5	-51.9	12.5	1.20e-04	0	44	0	173015040	65	6383
2026-01-11 21:36:02.87	71.18	11.47	-47.4	-51.9	12.5	9.15e-05	0	44	0	175112192	65	6355
2026-01-11 21:36:04.15	71.42	11.49	-47.5	-51.9	12.5	1.18e-04	0	44	0	177209344	65	6385
2026-01-11 21:36:04.86	71.55	11.50	-47.4	-51.7	12.6	1.19e-04	0	44	0	178257920	65	6266
2026-01-11 21:36:06.14	71.79	11.52	-47.2	-51.5	12.8	4.34e-05	0	43	0	181403648	65	6073
2026-01-11 21:36:06.85	71.92	11.53	-47.3	-51.6	12.8	4.73e-05	0	44	0	182452224	65	6182
2026-01-11 21:36:08.13	72.16	11.54	-47.3	-51.5	12.9	5.18e-05	0	44	0	184549376	65	6077
2026-01-11 21:36:08.85	72.30	11.55	-47.2	-51.4	13.0	4.57e-05	0	44	0	185597952	65	6048
2026-01-11 21:36:10.13	72.54	11.57	-47.2	-51.4	13.0	3.05e-05	0	44	0	188743680	65	6019
2026-01-11 21:36:10.84	72.67	11.58	-47.2	-51.4	13.0	3.50e-05	0	44	0	189792256	65	6049
2026-01-11 21:36:12.12	72.91	11.59	-47.3	-51.5	12.9	3.81e-05	0	44	0	191889408	65	6087
2026-01-11 21:36:13.09	73.09	11.60	-47.3	-51.5	13.0	3.58e-05	0	44	0	193986560	65	6065
2026-01-11 21:36:14.08	73.28	11.61	-47.3	-51.5	12.9	4.57e-05	0	44	0	196083712	65	6123
2026-01-11 21:36:15.08	73.47	11.62	-47.3	-51.5	12.9	4.73e-05	0	43	0	198180864	65	6106
2026-01-11 21:36:16.07	73.65	11.63	-47.2	-51.4	13.0	4.95e-05	0	44	0	199229440	65	6007
2026-01-11 21:36:17.06	73.84	11.64	-47.1	-51.1	13.2	2.51e-05	0	44	0	201326592	65	5855
2026-01-11 21:36:18.06	74.03	11.65	-47.0	-51.0	13.4	1.52e-05	0	44	0	203423744	65	5739
2026-01-11 21:36:19.05	74.21	11.66	-46.9	-50.9	13.5	1.14e-05	0	44	0	205520896	65	5675
2026-01-11 21:36:20.05	74.40	11.67	-46.9	-50.9	13.6	5.30e-06	0	44	0	206569472	65	5670
2026-01-11 21:36:21.04	74.59	11.68	-47.0	-50.9	13.5	7.60e-06	0	44	0	208666624	65	5708
2026-01-11 21:36:22.04	74.78	11.69	-47.0	-51.0	13.4	9.90e-06	0	43	0	210763776	65	5748
2026-01-11 21:36:23.03	74.96	11.70	-47.0	-51.0	13.4	1.44e-05	0	44	0	212860928	65	5768
2026-01-11 21:36:24.03	75.15	11.71	-47.1	-51.2	13.2	2.21e-05	0	44	0	214958080	65	5898
2026-01-11 21:36:25.02	75.34	11.72	-47.1	-51.3	13.1	2.13e-05	0	44	0	216006656	65	5942
2026-01-11 21:36:26.02	75.53	11.72	-47.1	-51.1	13.3	2.97e-05	0	44	0	218103808	65	5827
2026-01-11 21:36:27.01	75.72	11.73	-47.0	-51.0	13.4	9.90e-06	0	44	0	220200960	65	5737
2026-01-11 21:36:28.01	75.91	11.74	-47.1	-51.1	13.3	1.06e-05	0	44	0	222298112	65	5819
2026-01-11 21:36:29.00	76.10	11.75	-47.0	-51.0	13.5	8.30e-06	0	44	0	223346688	65	5723
2026-01-11 21:36:29.99	76.28	11.75	-47.0	-50.9	13.5	1.22e-05	0	44	0	225443840	65	5683
2026-01-11 21:36:30.99	76.47	11.76	-46.9	-50.9	13.5	9.10e-06	0	44	0	227540992	65	5662
2026-01-11 21:36:31.98	76.66	11.76	-46.9	-50.9	13.5	9.90e-06	0	44	0	229638144	65	5679
2026-01-11 21:36:32.97	76.85	11.77	-46.9	-50.8	13.6	6.10e-06	0	44	0	230686720	65	5653
2026-01-11 21:36:33.97	77.04	11.78	-46.9	-50.9	13.5	9.90e-06	0	44	0	232783872	65	5695
2026-01-11 21:36:34.96	77.23	11.78	-46.9	-51.0	13.4	5.30e-06	0	44	0	234881024	65	5737
2026-01-11 21:36:35.96	77.42	11.79	-46.9	-50.9	13.5	8.30e-06	0	43	0	236978176	65	5678
2026-01-11 21:36:36.95	77.61	11.79	-46.9	-50.9	13.5	1.14e-05	0	44	0	239075328	65	5714
2026-01-11 21:36:37.94	77.79	11.80	-47.0	-50.9	13.5	9.90e-06	0	44	0	240123904	65	5720
2026-01-11 21:36:38.94	77.98	11.80	-46.8	-50.6	13.8	7.60e-06	0	44	0	242221056	65	5523
2026-01-11 21:36:39.93	78.17	11.80	-46.7	-50.4	14.0	2.20e-06	0	44	0	244318208	65	5350
2026-01-11 21:36:40.93	78.36	11.81	-46.6	-50.3	14.1	3.00e-06	0	44	0	246415360	65	5302
2026-01-11 21:36:41.93	78.55	11.81	-46.6	-50.2	14.2	7.00e-07	0	44	0	248512512	65	5254
2026-01-11 21:36:42.92	78.74	11.81	-46.4	-50.0	14.4	7.00e-07	0	44	0	249561088	64	5463
2026-01-11 21:36:43.91	78.93	11.82	-46.3	-49.9	14.5	7.00e-07	0	44	0	251658240	64	5362
2026-01-11 21:36:44.91	79.12	11.82	-46.2	-49.7	14.7	0.00e+00	0	44	0	253755392	64	5248
2026-01-11 21:36:45.90	79.31	11.82	-46.3	-49.8	14.6	0.00e+00	0	44	0	255852544	64	5335
2026-01-11 21:36:46.90	79.50	11.82	-46.3	-49.8	14.7	7.00e-07	0	44	0	256901120	64	5303
2026-01-11 21:36:47.97	79.71	11.82	-46.3	-49.8	14.6	0.00e+00	0	44	0	258998272	64	5325
2026-01-11 21:36:48.83	79.87	11.83	-46.3	-49.9	14.6	7.00e-07	0	44	0	261095424	64	5341
2026-01-11 21:36:49.96	80.09	11.83	-46.2	-49.8	14.6	7.00e-07	0	44	0	263192576	64	5305
2026-01-11 21:36:50.81	80.25	11.83	-46.2	-49.8	14.6	0.00e+00	0	44	0	264241152	64	5309
2026-01-11 21:36:51.95	80.46	11.83	-46.2	-49.7	14.7	0.00e+00	0	44	0	266338304	64	5251
2026-01-11 21:36:52.80	80.63	11.83	-46.1	-49.6	14.9	0.00e+00	0	44	0	268435456	64	5178
2026-01-11 21:36:53.94	80.84	11.83	-46.0	-49.5	14.9	7.00e-07	0	44	0	270532608	64	5153
2026-01-11 21:36:54.79	81.01	11.83	-46.0	-49.4	15.0	7.00e-07	0	44	0	272629760	64	5100
2026-01-11 21:36:55.93	81.22	11.83	-46.0	-49.5	15.0	0.00e+00	0	44	0	274726912	63	5420
2026-01-11 21:36:56.78	81.39	11.83	-46.0	-49.5	15.0	0.00e+00	0	44	0	275775488	63	5415
2026-01-11 21:36:57.98	81.62	11.83	-46.1	-49.5	15.0	0.00e+00	0	44	0	277872640	63	5454
2026-01-11 21:36:58.83	81.78	11.82	-46.1	-49.5	15.0	7.00e-07	0	44	0	279969792	63	5458
2026-01-11 21:37:00.02	82.00	11.82	-46.1	-49.6	15.0	0.00e+00	0	44	0	282066944	63	5475
2026-01-11 21:37:00.87	82.17	11.82	-46.1	-49.7	14.8	0.00e+00	0	44	0	283115520	63	5564
2026-01-11 21:37:02.07	82.40	11.82	-46.1	-49.6	14.9	0.00e+00	0	44	0	286261248	63	5509
2026-01-11 21:37:02.93	82.56	11.81	-46.2	-49.7	14.8	0.00e+00	0	44	0	287309824	63	5564
2026-01-11 21:37:04.06	82.77	11.81	-46.1	-49.6	14.9	0.00e+00	0	44	0	289406976	63	5509
2026-01-11 21:37:04.92	82.94	11.81	-46.1	-49.6	14.9	0.00e+00	0	44	0	291504128	63	5491
2026-01-11 21:37:06.06	83.16	11.80	-46.1	-49.6	14.9	0.00e+00	0	44	0	293601280	63	5497
2026-01-11 21:37:06.99	83.33	11.80	-46.1	-49.6	14.9	0.00e+00	0	44	0	294649856	63	5483
2026-01-11 21:37:07.98	83.52	11.80	-46.1	-49.5	15.0	0.00e+00	0	44	0	296747008	63	5423
2026-01-11 21:37:08.98	83.71	11.79	-46.1	-49.5	15.0	0.00e+00	0	44	0	298844160	63	5448
2026-01-11 21:37:09.97	83.90	11.79	-46.0	-49.5	15.0	0.00e+00	0	44	0	300941312	63	5449
2026-01-11 21:37:10.97	84.09	11.78	-46.0	-49.5	15.0	0.00e+00	0	44	0	301989888	63	5460
2026-01-11 21:37:11.96	84.28	11.78	-46.1	-49.7	14.8	0.00e+00	0	44	0	304087040	63	5537
2026-01-11 21:37:12.96	84.47	11.77	-46.1	-49.7	14.9	0.00e+00	0	44	0	306184192	63	5545
2026-01-11 21:37:13.95	84.66	11.77	-46.1	-49.7	14.8	0.00e+00	0	44	0	308281344	63	5589
2026-01-11 21:37:14.95	84.85	11.76	-46.2	-49.8	14.8	0.00e+00	0	44	0	310378496	63	5605
2026-01-11 21:37:15.94	85.04	11.75	-46.2	-49.8	14.8	0.00e+00	0	44	0	311427072	63	5618
2026-01-11 21:37:16.94	85.23	11.75	-46.2	-49.8	14.7	0.00e+00	0	44	0	313524224	63	5635
2026-01-11 21:37:17.93	85.41	11.74	-46.2	-49.8	14.7	0.00e+00	0	44	0	315621376	63	5648
2026-01-11 21:37:18.93	85.60	11.73	-46.2	-49.8	14.8	0.00e+00	0	44	0	317718528	63	5601
2026-01-11 21:37:19.92	85.79	11.73	-46.1	-49.7	14.9	0.00e+00	0	44	0	318767104	63	5532
2026-01-11 21:37:20.91	85.98	11.72	-46.1	-49.7	14.9	0.00e+00	0	44	0	320864256	63	5536
2026-01-11 21:37:21.91	86.17	11.71	-46.2	-49.7	14.8	0.00e+00	0	44	0	322961408	63	5565
2026-01-11 21:37:22.90	86.36	11.70	-46.2	-49.7	14.8	1.50e-06	0	44	0	325058560	63	5591
2026-01-11 21:37:23.90	86.55	11.69	-46.2	-49.8	14.7	0.00e+00	0	44	0	327155712	63	5617
2026-01-11 21:37:24.89	86.73	11.69	-46.1	-49.7	14.8	0.00e+00	0	44	0	328204288	63	5544
2026-01-11 21:37:25.89	86.92	11.68	-46.1	-49.6	14.9	7.00e-07	0	44	0	330301440	63	5513
2026-01-11 21:37:26.88	87.11	11.67	-46.0	-49.5	15.0	0.00e+00	0	44	0	332398592	63	5452
2026-01-11 21:37:27.88	87.30	11.66	-46.0	-49.5	15.0	0.00e+00	0	44	0	334495744	63	5438
2026-01-11 21:37:28.87	87.48	11.65	-46.1	-49.5	15.0	0.00e+00	0	44	0	335544320	63	5442
2026-01-11 21:37:29.87	87.67	11.64	-46.2	-49.6	14.9	0.00e+00	0	44	0	337641472	63	5517
2026-01-11 21:37:30.87	87.86	11.63	-46.2	-49.8	14.8	0.00e+00	0	44	0	339738624	63	5602
2026-01-11 21:37:31.86	88.05	11.62	-46.2	-49.7	14.8	0.00e+00	0	44	0	341835776	63	5552
2026-01-11 21:37:32.86	88.24	11.60	-46.3	-49.8	14.7	0.00e+00	0	44	0	343932928	63	5633
2026-01-11 21:37:33.85	88.42	11.59	-46.4	-49.9	14.6	0.00e+00	0	44	0	344981504	63	5712
2026-01-11 21:37:34.84	88.61	11.58	-46.5	-50.1	14.4	1.50e-06	0	44	0	347078656	63	5818
2026-01-11 21:37:35.84	88.80	11.57	-46.6	-50.3	14.2	0.00e+00	0	44	0	349175808	63	5945
2026-01-11 21:37:36.83	88.98	11.56	-46.5	-50.2	14.3	0.00e+00	0	44	0	351272960	63	5906
2026-01-11 21:37:37.83	89.17	11.55	-46.5	-50.2	14.3	7.00e-07	0	44	0	353370112	63	5900
2026-01-11 21:37:38.82	89.36	11.53	-46.5	-50.1	14.4	0.00e+00	0	44	0	354418688	63	5833
2026-01-11 21:37:39.82	89.54	11.52	-46.4	-50.0	14.5	1.50e-06	0	44	0	356515840	63	5779
2026-01-11 21:37:40.81	89.73	11.51	-46.3	-49.9	14.6	0.00e+00	0	44	0	358612992	63	5686
2026-01-11 21:37:41.81	89.91	11.49	-46.2	-49.8	14.7	0.00e+00	0	44	0	360710144	63	5621
2026-01-11 21:37:42.80	90.10	11.48	-46.2	-49.8	14.8	0.00e+00	0	44	0	361758720	63	5597
2026-01-11 21:37:43.80	90.29	11.47	-46.2	-49.7	14.9	0.00e+00	0	44	0	363855872	63	5538
2026-01-11 21:37:44.80	90.47	11.45	-46.2	-49.7	14.8	7.00e-07	0	44	0	365953024	63	5542
2026-01-11 21:37:45.79	90.66	11.44	-46.2	-49.6	14.9	0.00e+00	0	44	0	368050176	63	5472
2026-01-11 21:37:46.79	90.84	11.42	-46.2	-49.6	14.9	0.00e+00	0	44	0	370147328	63	5472
2026-01-11 21:37:47.86	91.04	11.41	-46.2	-49.6	14.9	0.00e+00	0	44	0	371195904	63	5519
2026-01-11 21:37:48.72	91.20	11.39	-46.2	-49.5	15.0	0.00e+00	0	44	0	373293056	63	5464
2026-01-11 21:37:50.07	91.45	11.37	-46.1	-49.5	15.0	0.00e+00	0	44	0	375390208	63	5421
2026-01-11 21:37:50.79	91.58	11.36	-46.2	-49.5	15.0	0.00e+00	0	44	0	377487360	63	5462
2026-01-11 21:37:52.07	91.82	11.34	-46.1	-49.5	15.0	0.00e+00	0	44	0	379584512	63	5451
2026-01-11 21:37:52.81	91.96	11.33	-46.1	-49.5	15.0	0.00e+00	0	44	0	380633088	63	5454
2026-01-11 21:37:54.09	92.19	11.31	-46.1	-49.5	15.0	0.00e+00	0	44	0	383778816	63	5433
2026-01-11 21:37:54.80	92.33	11.30	-46.1	-49.5	15.0	7.00e-07	0	44	0	384827392	63	5454
2026-01-11 21:37:56.08	92.56	11.27	-46.2	-49.7	14.9	0.00e+00	0	44	0	386924544	63	5533
2026-01-11 21:37:56.79	92.69	11.26	-46.2	-49.7	14.8	7.00e-07	0	44	0	387973120	63	5556
2026-01-11 21:37:58.06	92.93	11.24	-46.3	-49.8	14.7	0.00e+00	0	44	0	391118848	63	5597
2026-01-11 21:37:58.93	93.09	11.22	-46.2	-49.6	14.9	0.00e+00	0	44	0	392167424	63	5511
2026-01-11 21:38:00.07	93.29	11.20	-46.2	-49.6	14.8	7.00e-07	0	44	0	394264576	63	5521
2026-01-11 21:38:00.92	93.45	11.19	-46.2	-49.7	14.9	0.00e+00	0	44	0	396361728	63	5533
2026-01-11 21:38:02.06	93.66	11.17	-46.2	-49.6	14.9	0.00e+00	0	44	0	398458880	63	5522
2026-01-11 21:38:02.91	93.81	11.15	-46.2	-49.6	14.8	0.00e+00	0	44	0	399507456	63	5525
2026-01-11 21:38:04.05	94.02	11.13	-46.2	-49.6	14.9	0.00e+00	0	44	0	401604608	63	5493
2026-01-11 21:38:04.90	94.18	11.11	-46.2	-49.6	14.9	0.00e+00	0	44	0	403701760	63	5515
2026-01-11 21:38:06.04	94.39	11.09	-46.2	-49.6	14.9	0.00e+00	0	44	0	405798912	63	5493
2026-01-11 21:38:06.89	94.54	11.07	-46.2	-49.6	15.0	0.00e+00	0	44	0	406847488	63	5472
2026-01-11 21:38:08.03	94.75	11.05	-46.1	-49.5	15.0	0.00e+00	0	44	0	409993216	63	5439
2026-01-11 21:38:08.88	94.90	11.03	-46.1	-49.5	15.0	0.00e+00	0	44	0	411041792	63	5422
2026-01-11 21:38:10.13	95.13	11.01	-46.2	-49.7	14.8	0.00e+00	0	44	0	413138944	63	5547
2026-01-11 21:38:10.98	95.28	10.99	-46.2	-49.6	14.9	7.00e-07	0	44	0	415236096	63	5504
2026-01-11 21:38:12.12	95.49	10.97	-46.2	-49.7	14.8	0.00e+00	0	44	0	417333248	63	5568
2026-01-11 21:38:12.97	95.64	10.95	-46.3	-49.7	14.8	7.00e-07	0	44	0	418381824	63	5575
2026-01-11 21:38:14.10	95.84	10.92	-46.2	-49.6	14.9	0.00e+00	0	44	0	420478976	63	5510
2026-01-11 21:38:14.96	96.00	10.90	-46.2	-49.6	14.9	0.00e+00	0	44	0	422576128	63	5523
2026-01-11 21:38:16.10	96.20	10.88	-46.2	-49.7	14.8	0.00e+00	0	44	0	424673280	63	5553
2026-01-11 21:38:16.95	96.36	10.86	-46.3	-49.8	14.7	0.00e+00	0	44	0	425721856	63	5632
2026-01-11 21:38:18.08	96.56	10.84	-46.3	-49.8	14.7	1.50e-06	0	44	0	428867584	63	5609
2026-01-11 21:38:18.94	96.71	10.82	-46.3	-49.8	14.7	0.00e+00	0	44	0	429916160	63	5594
2026-01-11 21:38:20.07	96.91	10.79	-46.3	-49.8	14.7	7.00e-07	0	44	0	432013312	63	5607
2026-01-11 21:38:21.13	97.10	10.77	-46.3	-49.8	14.7	7.00e-07	0	44	0	434110464	63	5599
2026-01-11 21:38:22.00	97.26	10.75	-46.3	-49.8	14.7	0.00e+00	0	44	0	435159040	63	5601
2026-01-11 21:38:23.14	97.46	10.72	-46.3	-49.7	14.8	0.00e+00	0	44	0	438304768	63	5549
2026-01-11 21:38:23.99	97.61	10.70	-46.2	-49.5	14.9	0.00e+00	0	44	0	439353344	63	5463
2026-01-11 21:38:25.13	97.81	10.67	-46.1	-49.4	15.1	0.00e+00	0	44	0	441450496	63	5385
2026-01-11 21:38:25.98	97.96	10.65	-46.1	-49.5	15.0	0.00e+00	0	44	0	443547648	63	5404
2026-01-11 21:38:27.12	98.16	10.62	-46.1	-49.5	15.0	0.00e+00	0	44	0	445644800	63	5424
2026-01-11 21:38:27.97	98.31	10.60	-46.2	-49.5	14.9	0.00e+00	0	44	0	446693376	63	5449
2026-01-11 21:38:29.11	98.52	10.57	-46.3	-49.7	14.8	0.00e+00	0	44	0	448790528	63	5543
2026-01-11 21:38:29.97	98.67	10.55	-46.3	-49.7	14.8	7.00e-07	0	44	0	450887680	63	5562
2026-01-11 21:38:31.10	98.86	10.52	-46.3	-49.7	14.7	0.00e+00	0	44	0	452984832	63	5576
2026-01-11 21:38:31.99	99.02	10.50	-46.3	-49.7	14.8	0.00e+00	0	44	0	454033408	63	5552
2026-01-11 21:38:33.12	99.22	10.47	-46.3	-49.7	14.8	0.00e+00	0	44	0	456130560	63	5535
2026-01-11 21:38:34.05	99.38	10.45	-46.3	-49.7	14.8	0.00e+00	0	44	0	458227712	63	5541
2026-01-11 21:38:35.05	99.55	10.42	-46.3	-49.7	14.8	0.00e+00	0	44	0	460324864	63	5557
2026-01-11 21:38:36.04	99.73	10.39	-46.3	-49.8	14.7	0.00e+00	0	44	0	462422016	63	5630
2026-01-11 21:38:37.03	99.90	10.37	-46.4	-49.9	14.7	7.00e-07	0	44	0	463470592	63	5660
2026-01-11 21:38:38.03	100.07	10.34	-46.3	-49.8	14.7	0.00e+00	0	44	0	465567744	63	5607
2026-01-11 21:38:39.02	100.24	10.32	-46.3	-49.8	14.7	0.00e+00	0	44	0	467664896	63	5603
2026-01-11 21:38:40.02	100.42	10.29	-46.4	-49.9	14.6	7.00e-07	0	44	0	469762048	63	5673
2026-01-11 21:38:41.01	100.59	10.26	-46.4	-50.0	14.5	7.00e-07	0	44	0	470810624	63	5729
2026-01-11 21:38:42.01	100.76	10.23	-46.6	-50.2	14.3	0.00e+00	0	44	0	472907776	63	5870
2026-01-11 21:38:43.00	100.93	10.21	-46.7	-50.3	14.1	3.80e-06	0	44	0	475004928	63	5990
2026-01-11 21:38:44.00	101.10	10.18	-46.6	-50.3	14.0	3.00e-06	0	44	0	477102080	64	5632
2026-01-11 21:38:45.00	101.27	10.15	-46.6	-50.4	14.0	4.50e-06	0	44	0	479199232	64	5665
2026-01-11 21:38:45.99	101.44	10.12	-46.8	-50.6	13.8	4.50e-06	0	44	0	480247808	64	5811
2026-01-11 21:38:46.98	101.61	10.09	-46.9	-50.9	13.5	6.10e-06	0	44	0	482344960	64	5996
2026-01-11 21:38:47.98	101.78	10.07	-46.9	-50.8	13.5	7.60e-06	0	44	0	484442112	64	5970
2026-01-11 21:38:48.97	101.95	10.04	-47.0	-51.1	13.3	1.83e-05	0	44	0	486539264	64	6148
2026-01-11 21:38:49.97	102.12	10.01	-47.1	-51.2	13.2	2.05e-05	0	44	0	487587840	64	6229
2026-01-11 21:38:50.96	102.29	9.98	-47.2	-51.4	12.9	3.50e-05	0	44	0	489684992	65	6032
2026-01-11 21:38:51.96	102.46	9.95	-47.3	-51.6	12.7	7.70e-05	0	44	0	491782144	65	6191
2026-01-11 21:38:52.95	102.62	9.92	-47.4	-51.8	12.5	9.00e-05	0	44	0	493879296	65	6296
2026-01-11 21:38:53.95	102.79	9.89	-47.5	-51.9	12.4	1.11e-04	0	44	0	495976448	65	6368
2026-01-11 21:38:54.94	102.96	9.86	-47.4	-51.8	12.5	1.04e-04	0	44	0	497025024	65	6322
2026-01-11 21:38:55.95	103.13	9.83	-47.4	-51.8	12.5	1.04e-04	0	44	0	499122176	65	6304
2026-01-11 21:38:56.98	103.30	9.80	-47.4	-51.7	12.6	9.61e-05	0	44	0	501219328	65	6220
2026-01-11 21:38:58.01	103.47	9.77	-47.3	-51.6	12.7	8.46e-05	0	44	0	503316480	65	6135
2026-01-11 21:38:59.00	103.64	9.74	-47.2	-51.4	12.9	3.50e-05	0	44	0	505413632	65	6011
2026-01-11 21:39:00.00	103.80	9.71	-47.3	-51.5	12.8	5.41e-05	0	44	0	506462208	65	6088
2026-01-11 21:39:00.99	103.97	9.68	-47.3	-51.5	12.8	3.81e-05	0	44	0	508559360	65	6107
2026-01-11 21:39:01.99	104.13	9.64	-47.3	-51.6	12.7	7.32e-05	0	44	0	510656512	65	6155
2026-01-11 21:39:02.99	104.30	9.61	-47.3	-51.7	12.7	6.33e-05	0	44	0	512753664	65	6205
2026-01-11 21:39:03.98	104.46	9.58	-47.5	-51.9	12.4	1.06e-04	0	44	0	514850816	65	6366
2026-01-11 21:39:04.97	104.62	9.55	-47.5	-52.0	12.3	1.50e-04	0	44	0	515899392	65	6457
2026-01-11 21:39:05.97	104.79	9.52	-47.6	-52.1	12.2	2.16e-04	0	44	0	517996544	65	6552
2026-01-11 21:39:06.97	104.95	9.49	-47.6	-52.2	12.1	2.30e-04	0	44	0	520093696	65	6581
2026-01-11 21:39:07.96	105.11	9.45	-47.6	-52.3	11.9	3.15e-04	0	44	0	522190848	65	6695
2026-01-11 21:39:08.95	105.27	9.42	-47.7	-52.5	11.8	4.14e-04	0	44	0	523239424	66	6427
2026-01-11 21:39:09.95	105.44	9.39	-47.9	-52.7	11.5	6.63e-04	0	44	0	525336576	66	6621
2026-01-11 21:39:10.94	105.60	9.36	-48.0	-53.0	11.2	1.01e-03	0	44	0	527433728	66	6848
2026-01-11 21:39:11.94	105.76	9.32	-48.1	-53.2	11.1	1.54e-03	0	44	0	529530880	66	6972
2026-01-11 21:39:12.93	105.92	9.29	-48.2	-53.5	10.7	2.82e-03	0	44	0	531628032	67	6858
2026-01-11 21:39:13.93	106.08	9.26	-48.3	-53.7	10.5	3.87e-03	0	44	0	532676608	67	7025
2026-01-11 21:39:14.99	106.25	9.22	-48.3	-53.9	10.3	4.57e-03	0	44	0	534773760	67	7126
2026-01-11 21:39:15.84	106.39	9.20	-48.3	-53.8	10.4	4.74e-03	0	44	0	536870912	67	7065
2026-01-11 21:39:16.98	106.57	9.16	-48.3	-53.8	10.4	4.71e-03	0	44	0	538968064	67	7051
2026-01-11 21:39:17.83	106.71	9.13	-48.3	-53.8	10.3	4.75e-03	0	44	0	540016640	67	7116
2026-01-11 21:39:18.97	106.89	9.09	-48.2	-53.7	10.5	4.25e-03	0	44	0	542113792	67	6963
2026-01-11 21:39:19.82	107.03	9.06	-48.1	-53.4	10.8	3.22e-03	0	44	0	544210944	67	6745
2026-01-11 21:39:20.95	107.21	9.02	-48.1	-53.3	10.9	2.47e-03	0	44	0	546308096	67	6674
2026-01-11 21:39:21.81	107.34	8.99	-50.2	-61.6	4.5	2.19e-02	0	44	0	547356672	70	14667
2026-01-11 21:39:22.94	107.52	8.95	-50.7	-65.9	3.8	1.49e+00	0	44	104	547356672	72	21322
2026-01-11 21:39:23.79	107.66	8.92	-50.8	-66.0	3.8	1.49e+00	0	44	104	547356672	72	21542
2026-01-11 21:39:24.93	107.83	8.88	-50.8	-66.0	3.8	1.49e+00	0	44	104	547356672	72	21741
2026-01-11 21:39:25.78	107.97	8.85	-50.9	-66.1	3.8	1.49e+00	0	44	104	547356672	72	21897
2026-01-11 21:39:26.92	108.15	8.81	-50.8	-66.1	3.8	1.49e+00	0	44	104	547356672	72	21935
2026-01-11 21:39:27.77	108.28	8.79	-50.8	-66.2	3.8	1.49e+00	0	44	104	547356672	72	22107
2026-01-11 21:39:28.90	108.46	8.75	-50.7	-66.2	3.8	1.49e+00	0	44	104	547356672	72	22076
2026-01-11 21:39:29.76	108.59	8.71	-50.7	-66.2	3.8	1.49e+00	0	44	104	547356672	72	22190
2026-01-11 21:39:30.89	108.77	8.67	-50.7	-66.2	3.8	1.49e+00	0	44	104	547356672	72	22241
2026-01-11 21:39:31.74	108.90	8.64	-50.8	-66.2	3.8	1.49e+00	0	44	104	547356672	72	22256
2026-01-11 21:39:32.88	109.07	8.60	-50.8	-66.2	3.8	1.49e+00	0	44	104	547356672	72	22151
2026-01-11 21:39:33.73	109.21	8.57	-50.8	-66.3	3.8	1.49e+00	0	44	104	547356672	72	22305
2026-01-11 21:39:34.86	109.38	8.53	-50.7	-66.2	3.8	1.49e+00	0	44	104	547356672	72	22262
2026-01-11 21:39:35.71	109.51	8.50	-50.7	-66.3	3.8	1.49e+00	0	44	104	547356672	72	22269
2026-01-11 21:39:36.85	109.68	8.46	-50.7	-66.3	3.8	1.49e+00	0	44	104	547356672	72	22300
2026-01-11 21:39:37.70	109.81	8.43	-50.6	-66.3	3.8	1.49e+00	0	44	104	547356672	72	22344
2026-01-11 21:39:38.84	109.99	8.39	-50.6	-66.3	3.8	1.49e+00	0	44	104	547356672	72	22367
2026-01-11 21:39:39.69	110.12	8.36	-50.7	-66.3	3.8	1.49e+00	0	44	104	547356672	72	22360
2026-01-11 21:39:40.82	110.29	8.31	-50.8	-66.3	3.8	1.49e+00	0	44	104	547356672	72	22319
2026-01-11 21:39:41.68	110.42	8.28	-50.9	-66.3	3.8	1.49e+00	0	44	104	547356672	72	22319
2026-01-11 21:39:42.81	110.59	8.24	-51.0	-66.3	3.8	1.49e+00	0	44	104	547356672	72	22331
2026-01-11 21:39:43.66	110.72	8.21	-51.0	-66.2	3.8	1.49e+00	0	44	104	547356672	72	22235
2026-01-11 21:39:44.80	110.89	8.17	-51.0	-66.2	3.8	1.49e+00	0	44	104	547356672	72	22207
2026-01-11 21:39:45.65	111.02	8.14	-51.0	-66.2	3.8	1.49e+00	0	44	104	547356672	72	22116
2026-01-11 21:39:46.79	111.19	8.09	-51.0	-66.3	3.8	1.49e+00	0	44	104	547356672	72	22284
2026-01-11 21:39:47.64	111.31	8.06	-51.0	-66.2	3.8	1.49e+00	0	44	104	547356672	72	22183
2026-01-11 21:39:48.77	111.48	8.02	-51.0	-66.2	3.8	1.49e+00	0	44	104	547356672	72	22226
2026-01-11 21:39:49.63	111.61	7.99	-51.0	-66.3	3.8	1.49e+00	0	44	104	547356672	72	22267
2026-01-11 21:39:50.76	111.78	7.94	-51.0	-66.2	3.8	1.49e+00	0	44	104	547356672	72	22088
2026-01-11 21:39:51.61	111.90	7.91	-50.9	-66.2	3.8	1.49e+00	0	44	104	547356672	72	22143
2026-01-11 21:39:52.75	112.07	7.87	-50.9	-66.2	3.8	1.49e+00	0	44	104	547356672	72	22138
2026-01-11 21:39:53.60	112.20	7.83	-50.9	-66.2	3.8	1.49e+00	0	44	104	547356672	72	22248
2026-01-11 21:39:54.73	112.36	7.79	-50.9	-66.2	3.8	1.49e+00	0	44	104	547356672	72	22241
2026-01-11 21:39:55.58	112.49	7.76	-50.9	-66.2	3.8	1.49e+00	0	44	104	547356672	72	22159
2026-01-11 21:39:56.72	112.65	7.71	-50.9	-66.2	3.8	1.49e+00	0	44	104	547356672	72	22122
2026-01-11 21:39:57.57	112.77	7.68	-50.9	-66.2	3.8	1.49e+00	0	44	104	547356672	72	22073
2026-01-11 21:39:58.71	112.94	7.64	-50.9	-66.2	3.8	1.49e+00	0	44	104	547356672	72	22057
2026-01-11 21:39:59.56	113.06	7.60	-50.9	-66.2	3.8	1.49e+00	0	44	104	547356672	72	22120
2026-01-11 21:40:00.66	113.22	7.56	-50.9	-66.2	3.8	1.49e+00	0	44	104	547356672	72	22138
2026-01-11 21:40:01.51	113.34	7.53	-50.9	-66.2	3.8	1.49e+00	0	44	104	547356672	72	22146
2026-01-11 21:40:02.65	113.51	7.48	-50.9	-66.2	3.8	1.49e+00	0	44	104	547356672	72	22101
2026-01-11 21:40:03.50	113.63	7.45	-50.9	-66.2	3.8	1.49e+00	0	44	104	547356672	72	22122
2026-01-11 21:40:04.64	113.79	7.41	-50.9	-66.2	3.8	1.49e+00	0	44	104	547356672	72	22118
2026-01-11 21:40:05.49	113.91	7.37	-50.9	-66.2	3.8	1.49e+00	0	44	104	547356672	72	22117
2026-01-11 21:40:06.62	114.07	7.33	-50.9	-66.2	3.8	1.49e+00	0	44	104	547356672	72	22029
2026-01-11 21:40:07.48	114.20	7.29	-50.9	-66.2	3.8	1.49e+00	0	44	104	547356672	72	22019
2026-01-11 21:40:08.61	114.36	7.25	-50.9	-66.2	3.8	1.49e+00	0	44	104	547356672	72	22105
2026-01-11 21:40:09.46	114.48	7.21	-50.9	-66.2	3.8	1.49e+00	0	44	104	547356672	72	22067
2026-01-11 21:40:10.60	114.64	7.17	-50.9	-66.2	3.8	1.49e+00	0	44	104	547356672	72	22018
2026-01-11 21:40:11.45	114.76	7.14	-50.9	-66.2	3.8	1.49e+00	0	44	104	547356672	72	22231
2026-01-11 21:40:12.59	114.92	7.09	-50.9	-66.2	3.8	1.49e+00	0	44	104	547356672	72	22047
2026-01-11 21:40:13.44	115.03	7.06	-50.9	-66.2	3.8	1.49e+00	0	44	104	547356672	72	22036
2026-01-11 21:40:14.57	115.19	7.01	-50.9	-66.1	3.8	1.49e+00	0	44	104	547356672	72	21982
2026-01-11 21:40:15.42	115.31	6.98	-50.9	-66.2	3.8	1.49e+00	0	44	104	547356672	72	22017
2026-01-11 21:40:16.56	115.47	6.93	-50.9	-66.2	3.8	1.49e+00	0	44	104	547356672	72	22062
2026-01-11 21:40:17.41	115.58	6.90	-50.9	-66.2	3.8	1.49e+00	0	44	104	547356672	72	22087
2026-01-11 21:40:18.55	115.74	6.85	-50.9	-66.2	3.8	1.49e+00	0	44	104	547356672	72	22130
2026-01-11 21:40:19.40	115.86	6.82	-50.9	-66.2	3.8	1.49e+00	0	44	104	547356672	72	22043
2026-01-11 21:40:20.53	116.01	6.77	-50.9	-66.2	3.8	1.49e+00	0	44	104	547356672	72	22098
2026-01-11 21:40:21.38	116.13	6.74	-50.9	-66.2	3.8	1.49e+00	0	44	104	547356672	72	22158
2026-01-11 21:40:22.52	116.28	6.69	-50.9	-66.2	3.8	1.49e+00	0	44	104	547356672	72	22100
2026-01-11 21:40:23.37	116.40	6.65	-50.9	-66.2	3.8	1.49e+00	0	44	104	547356672	72	22054
2026-01-11 21:40:24.50	116.55	6.61	-50.9	-66.1	3.8	1.49e+00	0	44	104	547356672	72	21996
2026-01-11 21:40:25.36	116.67	6.57	-50.9	-66.2	3.8	1.49e+00	0	44	104	547356672	72	22160
2026-01-11 21:40:26.49	116.82	6.53	-50.9	-66.2	3.8	1.49e+00	0	44	104	547356672	72	22017
2026-01-11 21:40:27.34	116.94	6.49	-50.9	-66.2	3.8	1.49e+00	0	44	104	547356672	72	22080
2026-01-11 21:40:28.48	117.09	6.44	-50.9	-66.2	3.8	1.49e+00	0	44	104	547356672	72	22054
2026-01-11 21:40:29.33	117.20	6.41	-50.9	-66.2	3.8	1.49e+00	0	44	104	547356672	72	22032
2026-01-11 21:40:30.47	117.35	6.36	-50.9	-66.1	3.8	1.49e+00	0	44	104	547356672	72	21993
2026-01-11 21:40:31.32	117.47	6.33	-50.9	-66.1	3.8	1.49e+00	0	44	104	547356672	72	21952
2026-01-11 21:40:32.45	117.62	6.28	-50.9	-66.2	3.8	1.49e+00	0	44	104	547356672	72	22067
2026-01-11 21:40:33.30	117.73	6.24	-50.9	-66.1	3.8	1.49e+00	0	44	104	547356672	72	21997
2026-01-11 21:40:34.44	117.88	6.20	-50.9	-66.1	3.8	1.49e+00	0	44	104	547356672	72	21977
2026-01-11 21:40:35.29	117.99	6.16	-50.9	-66.2	3.8	1.49e+00	0	44	104	547356672	72	22068
2026-01-11 21:40:36.43	118.14	6.11	-50.9	-66.2	3.8	1.49e+00	0	44	104	547356672	72	22011
2026-01-11 21:40:37.28	118.25	6.08	-50.9	-66.2	3.8	1.49e+00	0	44	104	547356672	72	22008
2026-01-11 21:40:38.41	118.40	6.03	-50.9	-66.1	3.8	1.49e+00	0	44	104	547356672	72	21988
2026-01-11 21:40:39.26	118.51	6.00	-50.9	-66.1	3.8	1.49e+00	0	44	104	547356672	72	21972
2026-01-11 21:40:40.40	118.66	5.95	-50.9	-66.1	3.8	1.49e+00	0	44	104	547356672	72	21993
2026-01-11 21:40:41.25	118.77	5.91	-50.9	-66.2	3.8	1.49e+00	0	44	104	547356672	72	22054
2026-01-11 21:40:42.38	118.91	5.87	-50.9	-66.1	3.8	1.49e+00	0	44	104	547356672	72	21907
2026-01-11 21:40:43.24	119.03	5.83	-50.9	-66.1	3.8	1.49e+00	0	44	104	547356672	72	21970
2026-01-11 21:40:44.37	119.17	5.78	-50.9	-66.2	3.8	1.49e+00	0	44	104	547356672	72	22040
2026-01-11 21:40:45.22	119.28	5.75	-50.9	-66.1	3.8	1.49e+00	0	44	104	547356672	72	21997
2026-01-11 21:40:46.36	119.42	5.70	-50.9	-66.2	3.8	1.49e+00	0	44	104	547356672	72	22024
2026-01-11 21:40:47.21	119.53	5.66	-50.9	-66.2	3.8	1.49e+00	0	44	104	547356672	72	22067
2026-01-11 21:40:48.34	119.68	5.61	-50.9	-66.1	3.8	1.49e+00	0	44	104	547356672	72	21987
2026-01-11 21:40:49.20	119.78	5.58	-50.9	-66.2	3.8	1.49e+00	0	44	104	547356672	72	22028
2026-01-11 21:40:50.33	119.93	5.53	-50.9	-66.2	3.8	1.49e+00	0	44	104	547356672	72	22056
2026-01-11 21:40:51.18	120.03	5.49	-50.9	-66.2	3.8	1.49e+00	0	44	104	547356672	72	22028
2026-01-11 21:40:52.32	120.18	5.45	-50.9	-66.2	3.8	1.49e+00	0	44	104	547356672	72	22037
2026-01-11 21:40:53.17	120.28	5.41	-50.9	-66.2	3.8	1.49e+00	0	44	104	547356672	72	22028
2026-01-11 21:40:54.30	120.42	5.36	-50.9	-66.1	3.8	1.49e+00	0	44	104	547356672	72	21909
2026-01-11 21:40:55.15	120.53	5.32	-50.9	-66.1	3.8	1.49e+00	0	44	104	547356672	72	21999
2026-01-11 21:40:56.29	120.67	5.28	-50.9	-66.1	3.8	1.49e+00	0	44	104	547356672	72	21986
2026-01-11 21:40:57.14	120.78	5.24	-50.9	-66.1	3.8	1.49e+00	0	44	104	547356672	72	21964
2026-01-11 21:40:58.27	120.92	5.19	-50.9	-66.2	3.8	1.49e+00	0	44	104	547356672	72	22029
2026-01-11 21:40:59.12	121.02	5.16	-50.9	-66.2	3.8	1.49e+00	0	44	104	547356672	72	22015
2026-01-11 21:41:00.26	121.16	5.11	-50.9	-66.2	3.8	1.49e+00	0	44	104	547356672	72	22029
2026-01-11 21:41:01.11	121.27	5.07	-50.9	-66.1	3.8	1.49e+00	0	44	104	547356672	72	21962
2026-01-11 21:41:02.25	121.40	5.02	-50.9	-66.1	3.8	1.49e+00	0	44	104	547356672	72	21976
2026-01-11 21:41:03.10	121.51	4.98	-50.9	-66.1	3.8	1.49e+00	0	44	104	547356672	72	22007

#Closed at: 2026-01-11 21:41:04
#Recorded file [547 MB]: D:/Data/31040_260112_003242.dat