passes_logs/2026/01/11/T1/T1__20260111_002041_NOAA_21_JPSS-2_rec.log

#Pass ID: 20260111_002041_NOAA 21 (JPSS-2)
#Satellite: NOAA 21 (JPSS-2)
#Configuration: NOAA 21
#almurnet v.1.7.20251203
#Start time: 2026-01-11 00:20:42

#Version: 2.0.20230620
#Station: T1
#Location: 37.570604 lon 55.790049 lat
#TLE: 1 54234U 22150A   26009.79679979  .00000100  00000+0  68070-4 0  9993
#TLE: 2 54234  98.7494 310.7596 0000833 322.2782  37.8335 14.19533646164071

#Time	Az	El	Level	Level2	SNR	BER	BlckErr	Temp	State	Recorded	gain1	gain2
2026-01-11 00:20:42.24	12.24	5.02	-49.4	-63.3	3.9	1.49e+00	0	40	0	0	69	18779
2026-01-11 00:20:43.24	12.21	5.09	-47.0	-62.9	3.8	1.49e+00	0	41	104	0	64	23994
2026-01-11 00:20:44.25	12.18	5.16	-47.0	-62.9	3.8	1.49e+00	0	41	104	0	64	23972
2026-01-11 00:20:45.25	12.15	5.23	-47.0	-62.9	3.8	1.49e+00	0	41	104	0	64	23993
2026-01-11 00:20:46.26	12.11	5.30	-47.0	-62.9	3.8	1.49e+00	0	41	104	0	64	23919
2026-01-11 00:20:47.26	12.08	5.37	-47.0	-62.8	3.8	1.49e+00	0	41	104	0	64	23854
2026-01-11 00:20:48.27	12.05	5.44	-47.0	-62.7	3.8	1.49e+00	0	41	104	0	64	23535
2026-01-11 00:20:49.27	12.02	5.51	-47.0	-62.7	3.8	1.49e+00	0	41	104	0	64	23472
2026-01-11 00:20:50.27	11.99	5.59	-47.0	-62.6	3.8	1.49e+00	0	41	104	0	64	23163
2026-01-11 00:20:51.28	11.95	5.66	-47.0	-62.6	3.8	1.49e+00	0	41	104	0	64	23077
2026-01-11 00:20:52.28	11.92	5.73	-47.0	-62.5	3.8	1.49e+00	0	41	104	0	64	22874
2026-01-11 00:20:53.29	11.89	5.80	-47.0	-62.5	3.8	1.49e+00	0	41	104	0	64	22984
2026-01-11 00:20:54.29	11.85	5.87	-47.0	-62.5	3.8	1.49e+00	0	41	104	0	64	22894
2026-01-11 00:20:55.29	11.82	5.94	-47.0	-62.5	3.8	1.49e+00	0	41	104	0	64	22795
2026-01-11 00:20:56.30	11.79	6.02	-47.0	-62.4	3.8	1.49e+00	0	41	104	0	64	22706
2026-01-11 00:20:57.30	11.75	6.09	-47.0	-62.4	3.8	1.49e+00	0	42	104	0	64	22620
2026-01-11 00:20:58.31	11.72	6.16	-47.0	-62.3	3.8	1.49e+00	0	41	104	0	64	22371
2026-01-11 00:20:59.31	11.69	6.23	-47.0	-62.2	3.8	1.49e+00	0	41	104	0	64	22045
2026-01-11 00:21:00.32	11.65	6.31	-47.0	-62.0	3.8	1.49e+00	0	41	104	0	64	21626
2026-01-11 00:21:01.32	11.62	6.38	-47.0	-61.9	3.8	1.49e+00	0	42	104	0	64	21462
2026-01-11 00:21:02.33	11.58	6.46	-47.0	-61.8	3.8	1.49e+00	0	42	104	0	64	21157
2026-01-11 00:21:03.33	11.55	6.53	-47.0	-61.6	3.8	1.49e+00	0	42	104	0	64	20740
2026-01-11 00:21:04.34	11.51	6.60	-47.0	-61.6	3.8	1.49e+00	0	42	104	0	64	20703
2026-01-11 00:21:05.34	11.48	6.68	-47.0	-61.7	3.8	1.49e+00	0	42	104	0	64	20969
2026-01-11 00:21:06.34	11.44	6.75	-47.0	-61.8	3.8	1.49e+00	0	42	104	0	64	21221
2026-01-11 00:21:07.35	11.41	6.83	-47.0	-62.1	3.8	1.49e+00	0	42	104	0	64	21857
2026-01-11 00:21:08.35	11.37	6.90	-47.0	-62.4	3.8	1.49e+00	0	42	104	0	64	22723
2026-01-11 00:21:09.36	11.34	6.98	-47.0	-62.8	3.8	1.49e+00	0	42	104	0	64	23607
2026-01-11 00:21:10.36	11.30	7.05	-47.0	-62.9	3.8	1.49e+00	0	42	104	0	64	24066
2026-01-11 00:21:11.37	11.26	7.13	-47.0	-62.8	3.8	1.49e+00	0	42	104	0	64	23826
2026-01-11 00:21:12.37	11.23	7.20	-47.0	-62.3	3.8	1.49e+00	0	42	104	0	64	22278
2026-01-11 00:21:13.38	11.19	7.28	-46.9	-61.4	3.8	1.49e+00	0	42	104	0	64	20073
2026-01-11 00:21:14.38	11.15	7.35	-46.9	-60.2	3.9	1.48e+00	0	42	104	0	64	17572
2026-01-11 00:21:15.38	11.12	7.43	-46.7	-58.9	4.0	1.43e+00	0	42	104	0	64	15215
2026-01-11 00:21:16.39	11.08	7.51	-46.6	-57.0	5.2	6.99e-01	0	42	0	0	64	12198
2026-01-11 00:21:17.39	11.04	7.58	-46.4	-55.8	6.0	3.69e-01	0	42	0	0	64	10613
2026-01-11 00:21:18.40	11.00	7.66	-46.2	-54.7	7.0	1.93e-01	0	42	0	0	64	9305
2026-01-11 00:21:19.40	10.97	7.74	-46.0	-53.5	8.1	7.48e-02	0	42	0	0	64	8133
2026-01-11 00:21:20.41	10.93	7.81	-45.9	-53.0	8.6	4.10e-02	0	42	0	0	63	8130
2026-01-11 00:21:21.41	10.89	7.89	-45.7	-52.0	9.7	1.95e-02	0	42	0	0	63	7236
2026-01-11 00:21:22.42	10.85	7.97	-45.6	-51.8	9.9	1.11e-02	0	42	0	0	63	7073
2026-01-11 00:21:23.42	10.81	8.05	-45.2	-50.8	10.8	3.40e-03	0	42	0	0	62	6707
2026-01-11 00:21:24.43	10.77	8.13	-45.0	-50.3	11.4	1.11e-03	0	42	0	0	62	6301
2026-01-11 00:21:25.43	10.73	8.20	-44.8	-49.7	12.0	3.38e-04	0	42	0	0	61	6258
2026-01-11 00:21:26.43	10.69	8.28	-44.6	-49.4	12.4	2.59e-04	0	42	0	0	61	6001
2026-01-11 00:21:27.44	10.65	8.36	-44.4	-48.8	12.9	1.04e-04	0	42	0	0	60	5985
2026-01-11 00:21:28.44	10.61	8.44	-44.4	-48.9	12.8	7.85e-05	0	42	0	0	60	6033
2026-01-11 00:21:29.45	10.57	8.52	-44.5	-49.0	12.8	7.24e-05	0	42	0	0	60	6105
2026-01-11 00:21:30.45	10.53	8.60	-44.5	-49.1	12.7	7.24e-05	0	42	0	0	60	6136
2026-01-11 00:21:31.46	10.49	8.68	-44.7	-49.4	12.4	1.47e-04	0	43	0	0	60	6388
2026-01-11 00:21:32.46	10.45	8.76	-44.9	-50.0	11.7	2.55e-04	0	42	0	0	60	6855
2026-01-11 00:21:33.47	10.41	8.84	-45.1	-50.6	11.2	1.06e-03	0	42	0	0	60	7289
2026-01-11 00:21:34.47	10.37	8.92	-45.5	-51.5	10.2	4.20e-03	0	42	0	0	61	7683
2026-01-11 00:21:35.47	10.33	9.00	-46.0	-53.1	8.6	3.04e-02	0	42	0	0	62	8691
2026-01-11 00:21:36.48	10.28	9.08	-46.5	-55.3	6.5	1.49e-01	0	42	0	0	63	10582
2026-01-11 00:21:37.48	10.24	9.16	-47.2	-58.7	4.5	1.29e+00	0	43	104	0	65	13986
2026-01-11 00:21:38.48	10.20	9.25	-46.6	-54.9	6.5	1.41e+00	0	42	104	0	65	9041
2026-01-11 00:21:39.49	10.16	9.33	-44.0	-48.1	13.5	8.41e-04	0	42	0	0	60	5525
2026-01-11 00:21:40.49	10.11	9.41	-44.6	-49.0	12.9	0.00e+00	0	43	0	0	59	6432
2026-01-11 00:21:41.49	10.07	9.49	-45.2	-50.7	10.7	1.11e+00	0	43	104	0	62	6584
2026-01-11 00:21:42.50	10.02	9.57	-43.1	-46.2	15.6	0.00e+00	0	43	0	0	58	4959
2026-01-11 00:21:43.50	9.98	9.66	-43.0	-46.0	15.8	0.00e+00	0	43	0	0	57	5148
2026-01-11 00:21:44.51	9.94	9.74	-43.0	-46.0	15.7	0.00e+00	0	43	0	0	57	5145
2026-01-11 00:21:45.51	9.89	9.82	-43.1	-46.1	15.7	0.00e+00	0	43	0	0	57	5190
2026-01-11 00:21:46.51	9.85	9.91	-43.3	-46.4	15.3	0.00e+00	0	43	0	0	57	5399
2026-01-11 00:21:47.52	9.80	9.99	-42.9	-45.8	16.0	0.00e+00	0	43	0	0	57	5004
2026-01-11 00:21:48.52	9.76	10.07	-42.9	-45.7	16.1	0.00e+00	0	43	0	0	57	4935
2026-01-11 00:21:49.53	9.71	10.16	-42.9	-45.6	16.2	0.00e+00	0	43	0	0	57	4905
2026-01-11 00:21:50.53	9.67	10.24	-42.9	-45.6	16.2	0.00e+00	0	43	0	0	57	4893
2026-01-11 00:21:51.54	9.62	10.33	-42.9	-45.7	16.1	0.00e+00	0	43	0	0	57	4944
2026-01-11 00:21:52.54	9.57	10.41	-42.7	-45.4	16.4	0.00e+00	0	43	0	0	57	4780
2026-01-11 00:21:53.54	9.53	10.50	-42.7	-45.4	16.4	0.00e+00	0	43	0	0	57	4771
2026-01-11 00:21:54.55	9.48	10.59	-42.7	-45.4	16.3	0.00e+00	0	43	0	0	57	4795
2026-01-11 00:21:55.55	9.43	10.67	-42.8	-45.5	16.3	0.00e+00	0	43	0	0	57	4818
2026-01-11 00:21:56.55	9.38	10.76	-42.7	-45.3	16.4	0.00e+00	0	43	0	0	57	4757
2026-01-11 00:21:57.56	9.34	10.84	-42.7	-45.3	16.5	0.00e+00	0	43	0	0	57	4751
2026-01-11 00:21:58.56	9.29	10.93	-42.8	-45.4	16.4	0.00e+00	0	43	0	0	57	4796
2026-01-11 00:21:59.56	9.24	11.02	-42.7	-45.2	16.6	0.00e+00	0	43	0	0	57	4679
2026-01-11 00:22:00.57	9.19	11.11	-42.6	-45.1	16.7	0.00e+00	0	43	0	0	57	4623
2026-01-11 00:22:01.57	9.14	11.19	-42.8	-45.4	16.4	0.00e+00	0	43	0	0	57	4801
2026-01-11 00:22:02.57	9.09	11.28	-42.7	-45.2	16.5	0.00e+00	0	43	0	0	57	4696
2026-01-11 00:22:03.57	9.04	11.37	-42.6	-45.1	16.7	0.00e+00	0	43	0	0	57	4625
2026-01-11 00:22:04.57	8.99	11.46	-42.5	-44.9	16.9	0.00e+00	0	43	0	0	57	4541
2026-01-11 00:22:05.58	8.94	11.55	-42.7	-45.1	16.7	0.00e+00	0	43	0	0	57	4629
2026-01-11 00:22:06.58	8.89	11.63	-42.6	-45.0	16.8	0.00e+00	0	43	0	0	57	4576
2026-01-11 00:22:07.58	8.84	11.72	-42.6	-45.0	16.9	0.00e+00	0	43	0	0	57	4563
2026-01-11 00:22:08.59	8.79	11.81	-42.4	-44.7	17.1	0.00e+00	0	43	0	0	56	4671
2026-01-11 00:22:09.59	8.74	11.90	-42.5	-44.8	17.0	0.00e+00	0	43	0	0	56	4736
2026-01-11 00:22:10.60	8.68	12.00	-42.5	-44.8	17.1	0.00e+00	0	43	0	0	56	4735
2026-01-11 00:22:11.60	8.63	12.09	-42.4	-44.7	17.1	0.00e+00	0	43	0	0	56	4684
2026-01-11 00:22:12.61	8.58	12.18	-42.5	-44.7	17.1	0.00e+00	0	43	0	0	56	4703
2026-01-11 00:22:13.61	8.52	12.27	-42.5	-44.8	17.0	0.00e+00	0	43	0	0	56	4738
2026-01-11 00:22:14.61	8.47	12.36	-42.5	-44.7	17.1	0.00e+00	0	43	0	0	56	4700
2026-01-11 00:22:15.62	8.42	12.45	-42.4	-44.7	17.2	0.00e+00	0	43	0	0	56	4663
2026-01-11 00:22:16.62	8.36	12.54	-42.4	-44.6	17.3	0.00e+00	0	43	0	0	56	4611
2026-01-11 00:22:17.62	8.31	12.64	-42.5	-44.7	17.2	0.00e+00	0	43	0	0	56	4657
2026-01-11 00:22:18.63	8.25	12.73	-42.3	-44.5	17.4	0.00e+00	0	43	0	0	56	4546
2026-01-11 00:22:19.63	8.20	12.82	-42.3	-44.5	17.3	0.00e+00	0	43	0	0	56	4583
2026-01-11 00:22:20.64	8.14	12.92	-42.3	-44.4	17.4	0.00e+00	0	43	0	0	56	4545
2026-01-11 00:22:21.64	8.09	13.01	-42.3	-44.4	17.4	0.00e+00	0	43	0	0	56	4530
2026-01-11 00:22:22.64	8.03	13.10	-42.3	-44.5	17.3	0.00e+00	0	43	0	0	56	4568
2026-01-11 00:22:23.65	7.97	13.20	-42.4	-44.5	17.3	0.00e+00	0	43	0	0	56	4567
2026-01-11 00:22:24.65	7.91	13.29	-42.2	-44.3	17.5	0.00e+00	0	43	0	0	56	4463
2026-01-11 00:22:25.65	7.86	13.39	-42.4	-44.6	17.2	0.00e+00	0	43	0	0	56	4616
2026-01-11 00:22:26.66	7.80	13.49	-42.5	-44.6	17.2	0.00e+00	0	43	0	0	56	4646
2026-01-11 00:22:27.66	7.74	13.58	-42.3	-44.5	17.4	0.00e+00	0	43	0	0	56	4551
2026-01-11 00:22:28.66	7.68	13.68	-42.5	-44.6	17.2	0.00e+00	0	43	0	0	56	4641
2026-01-11 00:22:29.67	7.62	13.77	-42.4	-44.6	17.2	0.00e+00	0	43	0	0	56	4603
2026-01-11 00:22:30.67	7.56	13.87	-42.4	-44.5	17.3	0.00e+00	0	43	0	0	56	4580
2026-01-11 00:22:31.67	7.50	13.97	-42.4	-44.6	17.2	0.00e+00	0	43	0	0	56	4610
2026-01-11 00:22:32.68	7.44	14.07	-42.5	-44.7	17.2	0.00e+00	0	43	0	0	56	4666
2026-01-11 00:22:33.67	7.38	14.16	-42.6	-44.7	17.1	0.00e+00	0	43	0	0	56	4689
2026-01-11 00:22:34.68	7.32	14.26	-42.5	-44.7	17.1	0.00e+00	0	43	0	0	56	4669
2026-01-11 00:22:35.68	7.26	14.36	-42.6	-44.7	17.1	0.00e+00	0	43	0	0	56	4704
2026-01-11 00:22:36.69	7.19	14.46	-42.6	-44.8	17.1	0.00e+00	0	43	0	0	56	4713
2026-01-11 00:22:37.69	7.13	14.56	-42.6	-44.7	17.1	0.00e+00	0	43	0	0	56	4672
2026-01-11 00:22:38.69	7.07	14.66	-42.6	-44.7	17.1	0.00e+00	0	43	0	0	56	4701
2026-01-11 00:22:39.70	7.00	14.76	-42.7	-44.8	17.0	0.00e+00	0	43	0	0	56	4740
2026-01-11 00:22:40.70	6.94	14.86	-42.6	-44.8	17.1	0.00e+00	0	43	0	0	56	4714
2026-01-11 00:22:41.70	6.88	14.96	-42.7	-44.9	17.0	0.00e+00	0	43	0	0	56	4764
2026-01-11 00:22:42.71	6.81	15.06	-42.7	-44.8	17.1	0.00e+00	0	43	0	0	56	4737
2026-01-11 00:22:43.71	6.74	15.16	-42.7	-44.9	17.1	0.00e+00	0	43	0	0	56	4763
2026-01-11 00:22:44.71	6.68	15.27	-42.7	-44.9	17.0	0.00e+00	0	43	0	0	56	4772
2026-01-11 00:22:45.72	6.61	15.37	-42.7	-44.8	17.1	0.00e+00	0	43	0	0	56	4743
2026-01-11 00:22:46.72	6.55	15.47	-42.8	-44.9	17.0	0.00e+00	0	43	0	0	56	4792
2026-01-11 00:22:47.72	6.48	15.58	-42.7	-44.8	17.1	0.00e+00	0	43	0	0	56	4731
2026-01-11 00:22:48.73	6.41	15.68	-42.6	-44.7	17.2	0.00e+00	0	43	0	0	56	4698
2026-01-11 00:22:49.73	6.34	15.78	-42.7	-44.8	17.1	0.00e+00	0	43	0	0	56	4743
2026-01-11 00:22:50.74	6.27	15.89	-42.8	-45.0	17.0	0.00e+00	0	43	0	0	56	4835
2026-01-11 00:22:51.74	6.20	15.99	-42.6	-44.7	17.2	0.00e+00	0	43	0	0	56	4669
2026-01-11 00:22:52.74	6.13	16.10	-42.6	-44.8	17.2	0.00e+00	0	43	0	0	56	4720
2026-01-11 00:22:53.75	6.06	16.21	-42.6	-44.7	17.3	0.00e+00	0	43	0	0	56	4667
2026-01-11 00:22:54.75	5.99	16.31	-42.5	-44.6	17.3	0.00e+00	0	43	0	0	56	4651
2026-01-11 00:22:55.76	5.92	16.42	-42.5	-44.6	17.4	0.00e+00	0	43	0	0	56	4617
2026-01-11 00:22:56.76	5.85	16.53	-42.5	-44.6	17.3	0.00e+00	0	43	0	0	56	4636
2026-01-11 00:22:57.77	5.77	16.63	-42.6	-44.7	17.2	0.00e+00	0	43	0	0	56	4687
2026-01-11 00:22:58.77	5.70	16.74	-42.6	-44.8	17.1	0.00e+00	0	43	0	0	56	4728
2026-01-11 00:22:59.77	5.63	16.85	-42.6	-44.7	17.2	0.00e+00	0	43	0	0	56	4701
2026-01-11 00:23:00.78	5.55	16.96	-42.6	-44.7	17.2	0.00e+00	0	43	0	0	56	4682
2026-01-11 00:23:01.78	5.48	17.07	-42.6	-44.8	17.1	0.00e+00	0	43	0	0	56	4718
2026-01-11 00:23:02.78	5.40	17.18	-42.6	-44.7	17.2	0.00e+00	0	43	0	0	56	4696
2026-01-11 00:23:03.78	5.33	17.29	-42.7	-44.9	17.1	0.00e+00	0	43	0	0	56	4764
2026-01-11 00:23:04.79	5.25	17.40	-42.8	-45.0	16.9	0.00e+00	0	43	0	0	56	4835
2026-01-11 00:23:05.79	5.17	17.51	-42.9	-45.1	16.8	0.00e+00	0	43	0	0	56	4900
2026-01-11 00:23:06.79	5.10	17.62	-42.8	-45.0	16.9	0.00e+00	0	43	0	0	56	4867
2026-01-11 00:23:07.79	5.02	17.73	-42.7	-44.9	17.1	0.00e+00	0	43	0	0	56	4775
2026-01-11 00:23:08.80	4.94	17.84	-42.8	-45.0	17.0	0.00e+00	0	43	0	0	56	4845
2026-01-11 00:23:09.80	4.86	17.96	-42.8	-44.9	17.0	0.00e+00	0	43	0	0	56	4812
2026-01-11 00:23:10.80	4.78	18.07	-42.7	-44.9	17.1	0.00e+00	0	43	0	0	56	4790
2026-01-11 00:23:11.81	4.70	18.18	-42.8	-44.9	17.0	0.00e+00	0	43	0	0	56	4814
2026-01-11 00:23:12.81	4.62	18.30	-42.8	-44.9	17.1	0.00e+00	0	43	0	0	56	4806
2026-01-11 00:23:13.82	4.53	18.41	-42.7	-44.9	17.1	0.00e+00	0	43	0	0	56	4767
2026-01-11 00:23:14.82	4.45	18.53	-42.8	-45.0	17.0	0.00e+00	0	43	0	0	56	4842
2026-01-11 00:23:15.83	4.37	18.64	-42.7	-44.9	17.1	0.00e+00	0	43	0	0	56	4765
2026-01-11 00:23:16.83	4.28	18.76	-42.7	-44.8	17.2	0.00e+00	0	43	0	0	56	4750
2026-01-11 00:23:17.83	4.20	18.88	-42.6	-44.8	17.2	0.00e+00	0	43	0	0	56	4723
2026-01-11 00:23:18.84	4.11	18.99	-42.5	-44.6	17.3	0.00e+00	0	43	0	0	56	4643
2026-01-11 00:23:19.84	4.03	19.11	-42.5	-44.6	17.4	0.00e+00	0	43	0	0	56	4635
2026-01-11 00:23:20.84	3.94	19.23	-42.5	-44.6	17.3	0.00e+00	0	43	0	0	56	4651
2026-01-11 00:23:21.85	3.85	19.35	-42.5	-44.6	17.4	0.00e+00	0	43	0	0	56	4630
2026-01-11 00:23:22.85	3.76	19.47	-42.5	-44.6	17.4	0.00e+00	0	43	0	0	56	4647
2026-01-11 00:23:23.85	3.67	19.58	-42.3	-44.4	17.5	0.00e+00	0	43	0	0	56	4522
2026-01-11 00:23:24.86	3.58	19.71	-42.3	-44.3	17.6	0.00e+00	0	43	0	0	56	4472
2026-01-11 00:23:25.86	3.49	19.83	-42.2	-44.3	17.6	0.00e+00	0	43	0	0	56	4460
2026-01-11 00:23:26.87	3.40	19.95	-42.2	-44.2	17.7	0.00e+00	0	43	0	0	56	4428
2026-01-11 00:23:27.87	3.31	20.07	-42.2	-44.2	17.7	0.00e+00	0	43	0	0	56	4438
2026-01-11 00:23:28.87	3.22	20.19	-42.1	-44.2	17.7	0.00e+00	0	43	0	0	56	4409
2026-01-11 00:23:29.87	3.12	20.31	-42.0	-44.1	17.8	0.00e+00	0	43	0	0	56	4342
2026-01-11 00:23:30.88	3.03	20.44	-42.0	-44.1	17.8	0.00e+00	0	43	0	0	56	4368
2026-01-11 00:23:31.88	2.93	20.56	-42.0	-44.1	17.8	0.00e+00	0	43	0	0	56	4341
2026-01-11 00:23:32.88	2.84	20.68	-41.8	-43.8	17.9	0.00e+00	0	43	0	0	55	4449
2026-01-11 00:23:33.89	2.74	20.81	-41.7	-43.7	17.9	0.00e+00	0	43	0	0	55	4420
2026-01-11 00:23:34.89	2.64	20.93	-41.7	-43.6	18.0	0.00e+00	0	43	0	0	55	4389
2026-01-11 00:23:35.89	2.55	21.06	-41.5	-43.5	18.2	0.00e+00	0	43	0	0	55	4308
2026-01-11 00:23:36.90	2.45	21.19	-41.6	-43.5	18.1	0.00e+00	0	43	0	0	55	4336
2026-01-11 00:23:37.90	2.35	21.31	-41.5	-43.4	18.2	0.00e+00	0	43	0	0	55	4289
2026-01-11 00:23:38.90	2.25	21.44	-41.4	-43.4	18.3	0.00e+00	0	44	0	0	54	4509
2026-01-11 00:23:39.91	2.14	21.57	-41.3	-43.2	18.5	0.00e+00	0	44	0	0	54	4421
2026-01-11 00:23:40.91	2.04	21.70	-41.3	-43.2	18.4	0.00e+00	0	43	0	0	54	4435
2026-01-11 00:23:41.91	1.94	21.82	-41.4	-43.3	18.4	0.00e+00	0	43	0	0	54	4466
2026-01-11 00:23:42.92	1.83	21.95	-41.2	-43.2	18.5	0.00e+00	0	43	0	0	54	4395
2026-01-11 00:23:43.92	1.73	22.08	-41.0	-42.9	18.8	0.00e+00	0	43	0	0	54	4248
2026-01-11 00:23:44.92	1.62	22.21	-41.0	-42.8	18.8	0.00e+00	0	43	0	0	53	4490
2026-01-11 00:23:45.93	1.51	22.35	-41.0	-42.8	18.8	0.00e+00	0	43	0	0	53	4491
2026-01-11 00:23:46.93	1.41	22.48	-41.0	-42.9	18.8	0.00e+00	0	43	0	0	53	4494
2026-01-11 00:23:47.93	1.30	22.61	-40.8	-42.7	19.0	0.00e+00	0	44	0	0	53	4414
2026-01-11 00:23:48.93	1.19	22.74	-40.9	-42.7	18.9	0.00e+00	0	43	0	0	53	4432
2026-01-11 00:23:49.93	1.08	22.87	-40.8	-42.7	19.0	0.00e+00	0	43	0	0	53	4394
2026-01-11 00:23:50.94	0.97	23.01	-40.9	-42.8	18.9	0.00e+00	0	43	0	0	53	4450
2026-01-11 00:23:51.94	0.85	23.14	-40.8	-42.7	19.0	0.00e+00	0	43	0	0	53	4419
2026-01-11 00:23:52.94	0.74	23.28	-40.8	-42.6	19.0	0.00e+00	0	43	0	0	53	4388
2026-01-11 00:23:53.95	0.62	23.42	-40.9	-42.8	18.9	0.00e+00	0	44	0	0	53	4459
2026-01-11 00:23:54.95	0.51	23.55	-40.9	-42.8	18.9	0.00e+00	0	43	0	0	53	4478
2026-01-11 00:23:55.95	0.39	23.69	-41.0	-42.8	18.9	0.00e+00	0	43	0	0	53	4483
2026-01-11 00:23:56.95	0.27	23.82	-41.0	-42.9	18.9	0.00e+00	0	43	0	0	53	4514
2026-01-11 00:23:57.96	0.15	23.96	-41.0	-42.9	18.8	0.00e+00	0	43	0	0	53	4532
2026-01-11 00:23:58.96	0.03	24.10	-40.9	-42.7	19.0	0.00e+00	0	43	0	0	53	4441
2026-01-11 00:23:59.96	359.91	24.24	-41.0	-42.9	18.8	0.00e+00	0	44	0	0	53	4513
2026-01-11 00:24:00.97	359.79	24.38	-41.0	-42.9	18.8	0.00e+00	0	43	0	0	53	4505
2026-01-11 00:24:01.97	359.67	24.52	-41.1	-43.0	18.8	0.00e+00	0	44	0	0	53	4548
2026-01-11 00:24:02.97	359.54	24.66	-41.2	-43.1	18.7	0.00e+00	0	43	0	0	53	4601
2026-01-11 00:24:03.98	359.41	24.81	-41.2	-43.1	18.6	0.00e+00	0	43	0	0	53	4642
2026-01-11 00:24:04.98	359.29	24.95	-41.4	-43.3	18.4	0.00e+00	0	43	0	0	53	4729
2026-01-11 00:24:05.98	359.16	25.09	-41.5	-43.4	18.3	0.00e+00	0	43	0	0	53	4776
2026-01-11 00:24:06.99	359.03	25.23	-41.5	-43.4	18.3	0.00e+00	0	43	0	0	53	4799
2026-01-11 00:24:07.99	358.90	25.38	-41.7	-43.6	18.2	0.00e+00	0	43	0	0	54	4623
2026-01-11 00:24:08.99	358.77	25.52	-41.8	-43.7	18.1	0.00e+00	0	43	0	0	54	4689
2026-01-11 00:24:10.00	358.63	25.67	-41.8	-43.7	18.1	0.00e+00	0	43	0	0	54	4688
2026-01-11 00:24:11.00	358.50	25.81	-42.0	-44.0	17.8	0.00e+00	0	43	0	0	54	4827
2026-01-11 00:24:12.01	358.36	25.96	-42.0	-44.0	17.8	0.00e+00	0	43	0	0	54	4844
2026-01-11 00:24:13.01	358.23	26.11	-42.0	-43.9	17.9	0.00e+00	0	43	0	0	54	4811
2026-01-11 00:24:14.01	358.09	26.26	-41.9	-43.9	18.0	0.00e+00	0	43	0	0	54	4768
2026-01-11 00:24:15.02	357.95	26.41	-41.9	-43.8	18.1	0.00e+00	0	44	0	0	54	4743
2026-01-11 00:24:16.02	357.81	26.56	-41.9	-43.9	18.0	0.00e+00	0	43	0	0	54	4761
2026-01-11 00:24:17.02	357.67	26.70	-42.0	-44.0	17.9	0.00e+00	0	44	0	0	54	4822
2026-01-11 00:24:18.03	357.52	26.86	-42.0	-44.0	17.9	0.00e+00	0	43	0	0	54	4830
2026-01-11 00:24:19.03	357.38	27.01	-42.1	-44.1	17.8	0.00e+00	0	43	0	0	54	4889
2026-01-11 00:24:20.03	357.23	27.16	-42.2	-44.2	17.8	0.00e+00	0	43	0	0	54	4933
2026-01-11 00:24:21.04	357.08	27.31	-42.2	-44.2	17.7	0.00e+00	0	43	0	0	55	4680
2026-01-11 00:24:22.04	356.93	27.46	-42.2	-44.2	17.7	0.00e+00	0	44	0	0	55	4695
2026-01-11 00:24:23.05	356.78	27.62	-42.3	-44.2	17.6	0.00e+00	0	43	0	0	55	4702
2026-01-11 00:24:24.05	356.63	27.77	-42.4	-44.4	17.5	0.00e+00	0	44	0	0	55	4794
2026-01-11 00:24:25.06	356.47	27.93	-42.4	-44.5	17.5	0.00e+00	0	43	0	0	55	4819
2026-01-11 00:24:26.06	356.32	28.08	-42.5	-44.6	17.4	0.00e+00	0	43	0	0	55	4890
2026-01-11 00:24:27.06	356.16	28.24	-42.9	-44.9	17.2	0.00e+00	0	43	0	0	56	4800
2026-01-11 00:24:28.07	356.00	28.40	-42.9	-44.9	17.2	0.00e+00	0	43	0	0	56	4802
2026-01-11 00:24:29.07	355.84	28.55	-42.9	-45.0	17.1	0.00e+00	0	43	0	0	56	4824
2026-01-11 00:24:30.08	355.68	28.71	-42.8	-44.8	17.3	0.00e+00	0	43	0	0	56	4726
2026-01-11 00:24:31.08	355.52	28.87	-42.6	-44.6	17.5	0.00e+00	0	43	0	0	56	4614
2026-01-11 00:24:32.08	355.35	29.03	-42.6	-44.6	17.5	0.00e+00	0	43	0	0	56	4611
2026-01-11 00:24:33.09	355.18	29.19	-42.5	-44.5	17.6	0.00e+00	0	44	0	0	56	4546
2026-01-11 00:24:34.09	355.02	29.35	-42.4	-44.4	17.6	0.00e+00	0	43	0	0	56	4529
2026-01-11 00:24:35.09	354.85	29.51	-42.5	-44.5	17.6	0.00e+00	0	43	0	0	56	4551
2026-01-11 00:24:36.10	354.67	29.68	-42.3	-44.3	17.7	0.00e+00	0	43	0	0	56	4467
2026-01-11 00:24:37.10	354.50	29.84	-42.3	-44.3	17.7	0.00e+00	0	43	0	0	56	4461
2026-01-11 00:24:38.10	354.32	30.00	-42.4	-44.4	17.6	0.00e+00	0	43	0	0	56	4508
2026-01-11 00:24:39.11	354.15	30.17	-42.2	-44.2	17.8	0.00e+00	0	44	0	0	56	4425
2026-01-11 00:24:40.11	353.97	30.33	-42.2	-44.2	17.8	0.00e+00	0	43	0	0	56	4431
2026-01-11 00:24:41.11	353.79	30.50	-42.2	-44.1	17.9	0.00e+00	0	43	0	0	56	4389
2026-01-11 00:24:42.12	353.60	30.66	-42.1	-44.1	18.0	0.00e+00	0	43	0	0	56	4353
2026-01-11 00:24:43.12	353.42	30.83	-42.2	-44.1	18.0	0.00e+00	0	43	0	0	56	4362
2026-01-11 00:24:44.12	353.23	30.99	-42.0	-43.9	18.1	0.00e+00	0	43	0	0	56	4271
2026-01-11 00:24:45.13	353.04	31.16	-41.7	-43.6	18.3	0.00e+00	0	43	0	0	55	4356
2026-01-11 00:24:46.13	352.85	31.33	-41.6	-43.4	18.4	0.00e+00	0	43	0	0	55	4279
2026-01-11 00:24:47.13	352.66	31.50	-41.6	-43.5	18.3	0.00e+00	0	43	0	0	55	4293
2026-01-11 00:24:48.14	352.46	31.67	-41.6	-43.4	18.3	0.00e+00	0	44	0	0	55	4280
2026-01-11 00:24:49.14	352.27	31.84	-41.7	-43.5	18.2	0.00e+00	0	44	0	0	55	4340
2026-01-11 00:24:50.14	352.07	32.01	-41.8	-43.7	18.0	0.00e+00	0	43	0	0	55	4404
2026-01-11 00:24:51.15	351.86	32.18	-41.9	-43.8	17.9	0.00e+00	0	43	0	0	55	4490
2026-01-11 00:24:52.15	351.66	32.35	-42.0	-44.0	17.8	0.00e+00	0	43	0	0	55	4550
2026-01-11 00:24:53.15	351.46	32.52	-42.1	-44.1	17.8	0.00e+00	0	43	0	0	55	4620
2026-01-11 00:24:54.16	351.25	32.70	-42.2	-44.2	17.7	0.00e+00	0	44	0	0	55	4673
2026-01-11 00:24:55.16	351.04	32.87	-42.2	-44.2	17.7	0.00e+00	0	43	0	0	55	4703
2026-01-11 00:24:56.16	350.83	33.04	-42.3	-44.3	17.7	0.00e+00	0	44	0	0	55	4717
2026-01-11 00:24:57.17	350.61	33.22	-42.1	-44.1	17.9	0.00e+00	0	44	0	0	55	4601
2026-01-11 00:24:58.17	350.39	33.40	-42.1	-44.1	17.9	0.00e+00	0	44	0	0	55	4611
2026-01-11 00:24:59.17	350.17	33.57	-42.1	-44.1	17.9	0.00e+00	0	43	0	0	55	4603
2026-01-11 00:25:00.18	349.95	33.75	-42.3	-44.3	17.6	0.00e+00	0	43	0	0	55	4754
2026-01-11 00:25:01.18	349.73	33.92	-42.6	-44.6	17.4	0.00e+00	0	44	0	0	55	4900
2026-01-11 00:25:02.18	349.50	34.10	-43.0	-45.1	17.0	0.00e+00	0	44	0	0	56	4924
2026-01-11 00:25:03.19	349.27	34.28	-43.3	-45.4	16.8	0.00e+00	0	43	0	0	57	4803
2026-01-11 00:25:04.19	349.04	34.46	-43.4	-45.6	16.6	0.00e+00	0	43	0	0	57	4907
2026-01-11 00:25:05.19	348.80	34.63	-43.4	-45.5	16.7	0.00e+00	0	43	0	0	57	4869
2026-01-11 00:25:06.20	348.57	34.82	-43.4	-45.6	16.6	0.00e+00	0	44	0	0	57	4893
2026-01-11 00:25:07.20	348.33	34.99	-43.4	-45.6	16.6	0.00e+00	0	43	0	0	57	4911
2026-01-11 00:25:08.20	348.08	35.17	-43.3	-45.5	16.7	0.00e+00	0	44	0	0	57	4818
2026-01-11 00:25:09.21	347.84	35.36	-43.4	-45.5	16.6	0.00e+00	0	44	0	0	57	4867
2026-01-11 00:25:10.21	347.59	35.54	-43.3	-45.5	16.7	0.00e+00	0	44	0	0	57	4853
2026-01-11 00:25:11.21	347.34	35.72	-43.4	-45.6	16.6	0.00e+00	0	44	0	0	57	4909
2026-01-11 00:25:12.22	347.08	35.90	-43.5	-45.8	16.4	0.00e+00	0	43	0	0	57	4997
2026-01-11 00:25:13.22	346.83	36.08	-43.7	-46.0	16.2	0.00e+00	0	43	0	0	57	5107
2026-01-11 00:25:14.22	346.57	36.26	-43.8	-46.1	16.1	0.00e+00	0	44	0	0	58	4913
2026-01-11 00:25:15.23	346.31	36.45	-43.9	-46.3	16.0	0.00e+00	0	43	0	0	58	4984
2026-01-11 00:25:16.23	346.04	36.63	-43.8	-46.1	16.1	0.00e+00	0	44	0	0	58	4915
2026-01-11 00:25:17.24	345.77	36.81	-43.8	-46.1	16.2	0.00e+00	0	44	0	0	58	4882
2026-01-11 00:25:18.24	345.50	37.00	-43.8	-46.2	16.1	0.00e+00	0	43	0	0	58	4928
2026-01-11 00:25:19.24	345.23	37.18	-44.0	-46.4	15.9	0.00e+00	0	44	0	0	58	5061
2026-01-11 00:25:20.25	344.95	37.37	-44.1	-46.5	15.8	0.00e+00	0	43	0	0	58	5128
2026-01-11 00:25:21.25	344.67	37.55	-44.3	-46.8	15.5	0.00e+00	0	44	0	0	59	5002
2026-01-11 00:25:22.26	344.38	37.74	-44.3	-46.7	15.5	0.00e+00	0	43	0	0	59	4967
2026-01-11 00:25:23.26	344.09	37.92	-44.2	-46.6	15.6	0.00e+00	0	43	0	0	59	4914
2026-01-11 00:25:24.26	343.80	38.11	-44.1	-46.5	15.8	0.00e+00	0	44	0	0	59	4832
2026-01-11 00:25:25.27	343.51	38.29	-44.0	-46.3	15.9	0.00e+00	0	44	0	0	59	4754
2026-01-11 00:25:26.27	343.21	38.48	-43.7	-45.9	16.3	0.00e+00	0	44	0	0	59	4515
2026-01-11 00:25:27.27	342.91	38.66	-43.7	-45.9	16.4	0.00e+00	0	44	0	0	59	4541
2026-01-11 00:25:28.28	342.60	38.85	-43.7	-45.8	16.4	0.00e+00	0	44	0	0	59	4489
2026-01-11 00:25:29.28	342.30	39.03	-43.6	-45.8	16.5	0.00e+00	0	43	0	0	59	4454
2026-01-11 00:25:30.28	341.98	39.22	-43.7	-45.9	16.3	0.00e+00	0	44	0	0	59	4528
2026-01-11 00:25:31.29	341.67	39.41	-43.4	-45.6	16.7	0.00e+00	0	43	0	0	58	4629
2026-01-11 00:25:32.29	341.35	39.59	-43.4	-45.6	16.7	0.00e+00	0	44	0	0	58	4602
2026-01-11 00:25:33.30	341.02	39.78	-43.5	-45.6	16.6	0.00e+00	0	44	0	0	58	4627
2026-01-11 00:25:34.30	340.70	39.96	-43.6	-45.8	16.3	0.00e+00	0	44	0	0	58	4721
2026-01-11 00:25:35.30	340.37	40.15	-43.7	-46.0	16.2	0.00e+00	0	43	0	0	58	4819
2026-01-11 00:25:36.31	340.03	40.34	-43.8	-46.1	16.1	0.00e+00	0	44	0	0	58	4879
2026-01-11 00:25:37.31	339.70	40.52	-43.8	-46.0	16.2	0.00e+00	0	43	0	0	58	4855
2026-01-11 00:25:38.31	339.35	40.70	-43.8	-46.0	16.2	0.00e+00	0	43	0	0	58	4845
2026-01-11 00:25:39.32	339.01	40.89	-43.9	-46.2	15.9	0.00e+00	0	44	0	0	58	4952
2026-01-11 00:25:40.32	338.66	41.07	-44.0	-46.4	15.8	0.00e+00	0	44	0	0	58	5058
2026-01-11 00:25:41.32	338.30	41.26	-44.2	-46.6	15.5	0.00e+00	0	44	0	0	59	4914
2026-01-11 00:25:42.33	337.94	41.44	-44.6	-47.1	15.0	0.00e+00	0	44	0	0	59	5175
2026-01-11 00:25:43.33	337.58	41.63	-44.8	-47.5	14.7	0.00e+00	0	44	0	0	60	5135
2026-01-11 00:25:44.33	337.22	41.81	-44.8	-47.6	14.7	7.00e-07	0	44	0	0	60	5201
2026-01-11 00:25:45.34	336.84	41.99	-44.8	-47.6	14.7	0.00e+00	0	44	0	0	60	5202
2026-01-11 00:25:46.34	336.47	42.18	-44.5	-47.2	15.2	0.00e+00	0	43	0	0	60	4955
2026-01-11 00:25:47.34	336.09	42.36	-44.5	-47.2	15.2	0.00e+00	0	43	0	0	60	4952
2026-01-11 00:25:48.34	335.71	42.54	-44.6	-47.2	15.1	0.00e+00	0	44	0	0	60	4939
2026-01-11 00:25:49.35	335.32	42.72	-44.6	-47.2	15.1	0.00e+00	0	44	0	0	60	4953
2026-01-11 00:25:50.35	334.93	42.90	-44.6	-47.1	15.2	0.00e+00	0	43	0	0	60	4916
2026-01-11 00:25:51.35	334.53	43.08	-44.6	-47.1	15.2	0.00e+00	0	44	0	0	60	4915
2026-01-11 00:25:52.36	334.13	43.26	-44.6	-47.1	15.2	0.00e+00	0	44	0	0	60	4924
2026-01-11 00:25:53.36	333.72	43.44	-44.3	-46.7	15.7	0.00e+00	0	43	0	0	60	4688
2026-01-11 00:25:54.36	333.31	43.61	-44.3	-46.6	15.7	0.00e+00	0	44	0	0	60	4644
2026-01-11 00:25:55.36	332.90	43.79	-44.3	-46.7	15.7	0.00e+00	0	43	0	0	60	4668
2026-01-11 00:25:56.37	332.48	43.97	-44.5	-47.0	15.4	0.00e+00	0	44	0	0	60	4823
2026-01-11 00:25:57.37	332.06	44.14	-44.7	-47.2	15.1	0.00e+00	0	44	0	0	60	4961
2026-01-11 00:25:58.37	331.63	44.31	-44.8	-47.3	15.0	0.00e+00	0	44	0	0	60	5032
2026-01-11 00:25:59.37	331.19	44.48	-44.8	-47.3	15.1	0.00e+00	0	43	0	0	60	5038
2026-01-11 00:26:00.38	330.75	44.66	-44.7	-47.3	15.0	0.00e+00	0	44	0	0	60	4988
2026-01-11 00:26:01.38	330.31	44.83	-44.5	-47.0	15.3	0.00e+00	0	44	0	0	60	4832
2026-01-11 00:26:02.38	329.86	45.00	-44.6	-47.2	15.1	0.00e+00	0	44	0	0	60	4932
2026-01-11 00:26:03.39	329.41	45.16	-44.7	-47.3	15.0	0.00e+00	0	44	0	0	60	5028
2026-01-11 00:26:04.39	328.95	45.33	-44.6	-47.2	15.1	0.00e+00	0	44	0	0	60	4970
2026-01-11 00:26:05.39	328.49	45.49	-44.7	-47.3	15.1	0.00e+00	0	43	0	0	60	5016
2026-01-11 00:26:06.40	328.02	45.66	-44.9	-47.5	15.0	0.00e+00	0	44	0	0	60	5102
2026-01-11 00:26:07.41	327.55	45.82	-44.9	-47.5	14.8	7.00e-07	0	44	0	0	60	5154
2026-01-11 00:26:08.41	327.07	45.98	-45.0	-47.6	14.8	0.00e+00	0	44	0	0	60	5188
2026-01-11 00:26:09.41	326.59	46.14	-44.7	-47.2	15.1	0.00e+00	0	43	0	0	60	4960
2026-01-11 00:26:10.41	326.10	46.30	-44.3	-46.7	15.7	0.00e+00	0	44	0	0	60	4663
2026-01-11 00:26:11.42	325.61	46.46	-44.4	-46.8	15.6	0.00e+00	0	44	0	0	60	4722
2026-01-11 00:26:12.42	325.11	46.61	-44.4	-46.8	15.6	0.00e+00	0	43	0	0	60	4731
2026-01-11 00:26:13.42	324.61	46.76	-44.1	-46.4	15.9	0.00e+00	0	44	0	0	60	4543
2026-01-11 00:26:14.43	324.10	46.91	-44.0	-46.3	16.0	0.00e+00	0	44	0	0	60	4461
2026-01-11 00:26:15.43	323.59	47.06	-44.0	-46.3	16.0	0.00e+00	0	43	0	0	60	4457
2026-01-11 00:26:16.43	323.08	47.21	-44.3	-46.7	15.5	0.00e+00	0	44	0	0	60	4698
2026-01-11 00:26:17.43	322.56	47.35	-44.5	-46.9	15.3	0.00e+00	0	44	0	0	60	4798
2026-01-11 00:26:18.44	322.03	47.49	-44.7	-47.3	15.0	0.00e+00	0	44	0	0	60	4990
2026-01-11 00:26:19.44	321.50	47.63	-44.9	-47.5	14.8	0.00e+00	0	44	0	0	60	5106
2026-01-11 00:26:20.44	320.96	47.77	-44.6	-47.1	15.3	0.00e+00	0	44	0	0	60	4878
2026-01-11 00:26:21.45	320.42	47.90	-44.5	-47.0	15.3	0.00e+00	0	43	0	0	60	4829
2026-01-11 00:26:22.45	319.88	48.04	-44.7	-47.3	15.0	0.00e+00	0	44	0	0	60	5011
2026-01-11 00:26:23.45	319.33	48.17	-45.1	-47.8	14.5	7.00e-07	0	44	0	0	60	5326
2026-01-11 00:26:24.46	318.77	48.30	-44.9	-47.5	14.8	0.00e+00	0	44	0	0	60	5147
2026-01-11 00:26:25.46	318.21	48.42	-44.6	-47.1	15.1	0.00e+00	0	43	0	0	60	4926
2026-01-11 00:26:26.46	317.65	48.54	-44.7	-47.4	15.0	0.00e+00	0	43	0	0	60	5042
2026-01-11 00:26:27.47	317.08	48.66	-44.8	-47.5	14.9	0.00e+00	0	43	0	0	60	5141
2026-01-11 00:26:28.47	316.51	48.78	-45.0	-47.8	14.6	0.00e+00	0	44	0	0	60	5282
2026-01-11 00:26:29.48	315.93	48.90	-44.7	-47.3	15.1	0.00e+00	0	43	0	0	60	5016
2026-01-11 00:26:30.48	315.35	49.01	-44.3	-46.7	15.6	0.00e+00	0	44	0	0	60	4684
2026-01-11 00:26:31.49	314.76	49.12	-44.1	-46.5	15.9	0.00e+00	0	44	0	0	60	4563
2026-01-11 00:26:32.49	314.17	49.22	-44.0	-46.3	16.0	0.00e+00	0	43	0	0	60	4467
2026-01-11 00:26:33.49	313.58	49.33	-44.1	-46.5	15.9	0.00e+00	0	44	0	0	60	4546
2026-01-11 00:26:34.50	312.97	49.43	-44.4	-46.8	15.6	0.00e+00	0	43	0	0	60	4726
2026-01-11 00:26:35.50	312.38	49.52	-44.4	-46.8	15.5	0.00e+00	0	43	0	0	60	4754
2026-01-11 00:26:36.50	311.77	49.61	-44.4	-46.8	15.5	0.00e+00	0	44	0	0	60	4743
2026-01-11 00:26:37.50	311.16	49.70	-44.5	-47.0	15.3	0.00e+00	0	43	0	0	60	4862
2026-01-11 00:26:38.51	310.55	49.79	-44.6	-47.1	15.4	0.00e+00	0	43	0	0	60	4871
2026-01-11 00:26:39.51	309.93	49.87	-44.4	-46.8	15.6	0.00e+00	0	44	0	0	60	4723
2026-01-11 00:26:40.51	309.32	49.95	-44.2	-46.5	15.8	0.00e+00	0	43	0	0	60	4598
2026-01-11 00:26:41.52	308.69	50.03	-44.0	-46.2	16.0	0.00e+00	0	43	0	0	59	4694
2026-01-11 00:26:42.52	308.06	50.10	-43.9	-46.2	16.0	0.00e+00	0	43	0	0	59	4669
2026-01-11 00:26:43.53	307.43	50.17	-43.8	-46.1	16.2	0.00e+00	0	44	0	0	59	4610
2026-01-11 00:26:44.53	306.80	50.24	-43.9	-46.2	16.0	0.00e+00	0	44	0	0	59	4705
2026-01-11 00:26:45.53	306.17	50.30	-44.2	-46.6	15.7	0.00e+00	0	44	0	0	59	4892
2026-01-11 00:26:46.54	305.53	50.36	-44.3	-46.6	15.6	0.00e+00	0	44	0	0	59	4920
2026-01-11 00:26:47.54	304.89	50.42	-44.3	-46.6	15.7	0.00e+00	0	44	0	0	59	4902
2026-01-11 00:26:48.54	304.25	50.47	-44.5	-46.9	15.3	0.00e+00	0	44	0	0	59	5100
2026-01-11 00:26:49.55	303.60	50.51	-44.4	-46.8	15.5	0.00e+00	0	44	0	0	59	5039
2026-01-11 00:26:50.55	302.96	50.56	-44.4	-46.9	15.5	0.00e+00	0	44	0	0	59	5046
2026-01-11 00:26:51.55	302.31	50.60	-44.0	-46.2	16.0	0.00e+00	0	44	0	0	59	4698
2026-01-11 00:26:52.56	301.66	50.63	-43.7	-45.9	16.3	0.00e+00	0	44	0	0	59	4544
2026-01-11 00:26:53.56	301.01	50.67	-43.7	-45.9	16.3	0.00e+00	0	44	0	0	59	4517
2026-01-11 00:26:54.57	300.36	50.69	-43.6	-45.8	16.4	0.00e+00	0	44	0	0	59	4466
2026-01-11 00:26:55.57	299.70	50.72	-43.8	-46.1	16.0	0.00e+00	0	44	0	0	59	4609
2026-01-11 00:26:56.57	299.05	50.74	-43.8	-46.1	16.0	0.00e+00	0	44	0	0	59	4604
2026-01-11 00:26:57.58	298.39	50.75	-43.8	-46.0	16.2	0.00e+00	0	44	0	0	59	4566
2026-01-11 00:26:58.58	297.74	50.77	-43.9	-46.2	16.0	0.00e+00	0	44	0	0	59	4667
2026-01-11 00:26:59.58	297.08	50.77	-43.8	-46.1	16.1	0.00e+00	0	44	0	0	59	4601
2026-01-11 00:27:00.59	296.42	50.78	-44.1	-46.4	15.8	0.00e+00	0	44	0	0	59	4768
2026-01-11 00:27:01.59	295.77	50.78	-44.3	-46.6	15.6	0.00e+00	0	44	0	0	59	4918
2026-01-11 00:27:02.60	295.11	50.78	-44.2	-46.6	15.7	0.00e+00	0	44	0	0	59	4887
2026-01-11 00:27:03.60	294.45	50.77	-44.5	-46.9	15.4	0.00e+00	0	44	0	0	59	5077
2026-01-11 00:27:04.61	293.79	50.76	-44.1	-46.4	16.0	0.00e+00	0	44	0	0	59	4775
2026-01-11 00:27:05.61	293.14	50.74	-44.1	-46.4	15.8	0.00e+00	0	43	0	0	59	4778
2026-01-11 00:27:06.61	292.49	50.72	-44.1	-46.4	15.8	0.00e+00	0	44	0	0	59	4805
2026-01-11 00:27:07.62	291.83	50.70	-43.6	-45.8	16.4	0.00e+00	0	44	0	0	59	4449
2026-01-11 00:27:08.62	291.18	50.67	-43.8	-46.1	16.1	0.00e+00	0	44	0	0	59	4620
2026-01-11 00:27:09.63	290.52	50.64	-43.7	-45.9	16.1	0.00e+00	0	44	0	0	59	4543
2026-01-11 00:27:10.63	289.88	50.61	-43.7	-45.9	16.2	0.00e+00	0	44	0	0	59	4531
2026-01-11 00:27:11.63	289.23	50.57	-43.7	-45.9	16.2	0.00e+00	0	43	0	0	59	4512
2026-01-11 00:27:12.64	288.58	50.52	-43.8	-46.0	16.1	0.00e+00	0	44	0	0	59	4570
2026-01-11 00:27:13.64	287.94	50.48	-44.1	-46.4	15.7	0.00e+00	0	44	0	0	59	4783
2026-01-11 00:27:14.64	287.30	50.43	-44.3	-46.7	15.6	0.00e+00	0	43	0	0	59	4931
2026-01-11 00:27:15.65	286.65	50.37	-44.5	-47.0	15.2	0.00e+00	0	44	0	0	59	5122
2026-01-11 00:27:16.65	286.02	50.32	-44.6	-47.1	15.0	0.00e+00	0	44	0	0	59	5167
2026-01-11 00:27:17.66	285.38	50.25	-44.2	-46.6	15.6	0.00e+00	0	44	0	0	59	4900
2026-01-11 00:27:18.66	284.74	50.19	-44.1	-46.4	15.7	0.00e+00	0	44	0	0	59	4807
2026-01-11 00:27:19.66	284.12	50.12	-44.2	-46.5	15.7	0.00e+00	0	44	0	0	59	4857
2026-01-11 00:27:20.67	283.49	50.05	-44.1	-46.5	15.8	0.00e+00	0	44	0	0	59	4820
2026-01-11 00:27:21.67	282.86	49.97	-44.4	-46.8	15.5	0.00e+00	0	44	0	0	59	4992
2026-01-11 00:27:22.67	282.24	49.89	-44.1	-46.4	15.8	0.00e+00	0	44	0	0	59	4765
2026-01-11 00:27:23.67	281.63	49.81	-44.0	-46.2	16.0	0.00e+00	0	44	0	0	59	4679
2026-01-11 00:27:24.68	281.01	49.72	-43.6	-45.8	16.3	0.00e+00	0	44	0	0	59	4445
2026-01-11 00:27:25.68	280.40	49.63	-43.2	-45.3	16.8	0.00e+00	0	44	0	0	58	4473
2026-01-11 00:27:26.69	279.79	49.54	-43.4	-45.6	16.5	0.00e+00	0	43	0	0	58	4602
2026-01-11 00:27:27.69	279.19	49.45	-44.1	-46.5	15.8	0.00e+00	0	44	0	0	58	5101
2026-01-11 00:27:28.70	278.58	49.35	-44.5	-46.8	15.4	0.00e+00	0	43	0	0	59	5041
2026-01-11 00:27:29.70	277.99	49.24	-44.6	-47.0	15.4	0.00e+00	0	44	0	0	59	5126
2026-01-11 00:27:30.70	277.40	49.14	-44.3	-46.6	15.7	0.00e+00	0	44	0	0	59	4910
2026-01-11 00:27:31.71	276.81	49.03	-43.7	-46.0	16.2	0.00e+00	0	44	0	0	59	4556
2026-01-11 00:27:32.71	276.23	48.92	-43.9	-46.2	16.0	0.00e+00	0	44	0	0	59	4668
2026-01-11 00:27:33.71	275.65	48.81	-43.9	-46.1	16.1	0.00e+00	0	44	0	0	59	4617
2026-01-11 00:27:34.72	275.07	48.69	-44.2	-46.5	15.7	0.00e+00	0	44	0	0	59	4828
2026-01-11 00:27:35.72	274.50	48.57	-44.4	-46.7	15.5	0.00e+00	0	44	0	0	59	4973
2026-01-11 00:27:36.72	273.94	48.45	-44.2	-46.5	15.8	0.00e+00	0	44	0	0	59	4868
2026-01-11 00:27:37.73	273.37	48.32	-43.8	-46.0	16.3	0.00e+00	0	44	0	0	59	4561
2026-01-11 00:27:38.73	272.82	48.19	-43.1	-45.2	17.1	0.00e+00	0	44	0	0	58	4408
2026-01-11 00:27:39.73	272.27	48.06	-42.7	-44.7	17.5	0.00e+00	0	44	0	0	57	4417
2026-01-11 00:27:40.73	271.72	47.93	-43.0	-45.1	17.2	0.00e+00	0	43	0	0	57	4618
2026-01-11 00:27:41.74	271.18	47.79	-43.7	-45.8	16.4	0.00e+00	0	44	0	0	57	5041
2026-01-11 00:27:42.74	270.64	47.66	-44.2	-46.6	15.6	0.00e+00	0	44	0	0	59	4878
2026-01-11 00:27:43.74	270.11	47.52	-44.7	-47.2	15.0	0.00e+00	0	44	0	0	59	5231
2026-01-11 00:27:44.75	269.58	47.38	-44.4	-46.8	15.5	0.00e+00	0	44	0	0	60	4734
2026-01-11 00:27:45.75	269.06	47.23	-43.9	-46.2	16.1	0.00e+00	0	44	0	0	59	4658
2026-01-11 00:27:46.75	268.54	47.09	-43.7	-45.8	16.4	0.00e+00	0	44	0	0	59	4484
2026-01-11 00:27:47.76	268.02	46.94	-43.8	-46.0	16.3	0.00e+00	0	44	0	0	59	4561
2026-01-11 00:27:48.76	267.51	46.79	-44.3	-46.6	15.7	0.00e+00	0	44	0	0	59	4885
2026-01-11 00:27:49.76	267.01	46.64	-44.8	-47.3	15.1	0.00e+00	0	44	0	0	60	5024
2026-01-11 00:27:50.76	266.51	46.48	-44.8	-47.3	15.0	0.00e+00	0	44	0	0	60	5007
2026-01-11 00:27:51.77	266.02	46.32	-44.0	-46.3	15.6	0.00e+00	0	43	0	0	60	4490
2026-01-11 00:27:52.77	265.53	46.17	-43.2	-45.2	16.5	0.00e+00	0	44	0	0	58	4435
2026-01-11 00:27:53.77	265.05	46.01	-42.6	-44.6	17.2	0.00e+00	0	44	0	0	57	4354
2026-01-11 00:27:54.78	264.56	45.85	-43.0	-45.0	17.0	0.00e+00	0	44	0	0	57	4560
2026-01-11 00:27:55.78	264.09	45.69	-43.9	-46.1	16.1	0.00e+00	0	44	0	0	58	4905
2026-01-11 00:27:56.78	263.62	45.52	-45.3	-48.0	14.3	0.00e+00	0	44	0	0	61	5145
2026-01-11 00:27:57.78	263.16	45.36	-46.1	-49.3	13.1	1.29e-05	0	44	0	0	62	5598
2026-01-11 00:27:58.79	262.69	45.19	-45.7	-48.5	13.8	7.60e-06	0	44	0	0	62	5145
2026-01-11 00:27:59.79	262.24	45.02	-44.5	-47.0	15.1	0.00e+00	0	44	0	0	61	4565
2026-01-11 00:28:00.79	261.79	44.85	-43.9	-46.1	15.9	0.00e+00	0	44	0	0	59	4645
2026-01-11 00:28:01.80	261.34	44.68	-43.1	-45.2	16.8	0.00e+00	0	44	0	0	58	4424
2026-01-11 00:28:02.80	260.90	44.51	-43.3	-45.4	16.7	0.00e+00	0	44	0	0	58	4517
2026-01-11 00:28:03.80	260.47	44.34	-44.2	-46.5	15.7	0.00e+00	0	44	0	0	59	4865
2026-01-11 00:28:04.81	260.03	44.16	-45.0	-47.7	14.7	0.00e+00	0	43	0	0	60	5223
2026-01-11 00:28:05.81	259.61	43.99	-46.1	-49.2	13.2	1.14e-05	0	44	0	0	63	5246
2026-01-11 00:28:06.81	259.19	43.81	-46.5	-49.9	12.2	1.79e-04	0	43	0	0	63	5668
2026-01-11 00:28:07.82	258.77	43.63	-45.9	-48.8	13.0	6.25e-05	0	44	0	0	63	4996
2026-01-11 00:28:08.82	258.36	43.46	-45.2	-47.8	14.0	9.10e-06	0	44	0	0	62	4759
2026-01-11 00:28:09.82	257.95	43.28	-44.7	-47.1	14.8	7.00e-07	0	44	0	0	61	4623
2026-01-11 00:28:10.82	257.55	43.10	-45.0	-47.5	14.6	0.00e+00	0	43	0	0	61	4855
2026-01-11 00:28:11.83	257.15	42.92	-45.4	-48.1	14.1	1.50e-06	0	44	0	0	61	5185
2026-01-11 00:28:12.83	256.75	42.74	-45.4	-48.1	14.2	3.00e-06	0	44	0	0	61	5183
2026-01-11 00:28:13.83	256.36	42.56	-45.3	-48.0	14.4	0.00e+00	0	43	0	0	61	5114
2026-01-11 00:28:14.83	255.98	42.38	-45.8	-48.6	13.8	4.50e-06	0	43	0	0	62	5205
2026-01-11 00:28:15.84	255.60	42.19	-45.6	-48.4	14.0	5.30e-06	0	44	0	0	62	5061
2026-01-11 00:28:16.84	255.22	42.01	-44.7	-47.2	15.1	0.00e+00	0	44	0	0	61	4667
2026-01-11 00:28:17.84	254.85	41.83	-43.8	-46.0	16.1	0.00e+00	0	44	0	0	59	4598
2026-01-11 00:28:18.85	254.48	41.64	-43.7	-45.8	16.4	0.00e+00	0	44	0	0	59	4485
2026-01-11 00:28:19.85	254.11	41.46	-43.7	-45.9	16.4	0.00e+00	0	44	0	0	59	4510
2026-01-11 00:28:20.86	253.75	41.27	-44.0	-46.2	16.1	0.00e+00	0	44	0	0	59	4674
2026-01-11 00:28:21.86	253.40	41.09	-44.9	-47.4	15.0	0.00e+00	0	44	0	0	60	5064
2026-01-11 00:28:22.86	253.05	40.90	-45.6	-48.5	13.8	2.20e-06	0	43	0	0	61	5443
2026-01-11 00:28:23.87	252.70	40.72	-45.8	-48.7	13.5	2.05e-05	0	44	0	0	62	5270
2026-01-11 00:28:24.87	252.35	40.53	-45.1	-47.8	14.4	5.30e-06	0	44	0	0	62	4732
2026-01-11 00:28:25.88	252.01	40.34	-44.5	-46.9	15.3	0.00e+00	0	44	0	0	61	4517
2026-01-11 00:28:26.88	251.68	40.16	-44.2	-46.6	15.6	0.00e+00	0	44	0	0	60	4612
2026-01-11 00:28:27.89	251.34	39.97	-44.1	-46.4	15.8	0.00e+00	0	43	0	0	60	4542
2026-01-11 00:28:28.89	251.01	39.78	-44.3	-46.6	15.7	0.00e+00	0	44	0	0	60	4639
2026-01-11 00:28:29.89	250.69	39.60	-44.4	-46.8	15.6	0.00e+00	0	44	0	0	60	4721
2026-01-11 00:28:30.90	250.37	39.41	-44.4	-46.8	15.5	0.00e+00	0	44	0	0	60	4745
2026-01-11 00:28:31.90	250.05	39.22	-44.6	-47.1	15.2	0.00e+00	0	44	0	0	60	4915
2026-01-11 00:28:32.90	249.74	39.04	-45.1	-47.7	14.7	0.00e+00	0	44	0	0	60	5269
2026-01-11 00:28:33.91	249.43	38.85	-45.2	-47.9	14.4	0.00e+00	0	44	0	0	60	5366
2026-01-11 00:28:34.91	249.12	38.67	-44.9	-47.5	14.7	1.50e-06	0	44	0	0	61	4835
2026-01-11 00:28:35.91	248.82	38.48	-44.2	-46.6	15.5	0.00e+00	0	44	0	0	60	4634
2026-01-11 00:28:36.92	248.52	38.29	-43.7	-45.9	16.3	0.00e+00	0	43	0	0	59	4500
2026-01-11 00:28:37.92	248.22	38.11	-43.3	-45.4	16.8	0.00e+00	0	44	0	0	58	4523
2026-01-11 00:28:38.93	247.93	37.92	-43.2	-45.2	17.0	0.00e+00	0	44	0	0	58	4429
2026-01-11 00:28:39.93	247.64	37.73	-43.8	-46.0	16.3	0.00e+00	0	44	0	0	58	4834
2026-01-11 00:28:40.93	247.35	37.55	-44.4	-46.8	15.5	0.00e+00	0	44	0	0	59	4990
2026-01-11 00:28:41.94	247.07	37.36	-44.7	-47.3	15.1	0.00e+00	0	44	0	0	60	5019
2026-01-11 00:28:42.94	246.79	37.18	-44.6	-47.1	15.3	0.00e+00	0	44	0	0	60	4915
2026-01-11 00:28:43.94	246.51	36.99	-44.2	-46.5	15.8	0.00e+00	0	44	0	0	60	4591
2026-01-11 00:28:44.95	246.24	36.81	-44.0	-46.3	16.0	0.00e+00	0	44	0	0	60	4449
2026-01-11 00:28:45.95	245.97	36.62	-43.9	-46.2	16.1	0.00e+00	0	44	0	0	59	4652
2026-01-11 00:28:46.96	245.70	36.44	-43.6	-45.7	16.5	0.00e+00	0	44	0	0	59	4438
2026-01-11 00:28:47.96	245.44	36.26	-43.0	-45.1	17.2	0.00e+00	0	44	0	0	58	4348
2026-01-11 00:28:48.96	245.18	36.07	-42.7	-44.7	17.5	0.00e+00	0	44	0	0	57	4393
2026-01-11 00:28:49.96	244.92	35.89	-42.4	-44.3	17.9	0.00e+00	0	44	0	0	56	4457
2026-01-11 00:28:50.97	244.66	35.71	-42.3	-44.3	17.9	0.00e+00	0	44	0	0	56	4446
2026-01-11 00:28:51.97	244.41	35.52	-42.3	-44.2	17.9	0.00e+00	0	43	0	0	56	4415
2026-01-11 00:28:52.98	244.16	35.34	-42.6	-44.6	17.6	0.00e+00	0	44	0	0	56	4603
2026-01-11 00:28:53.98	243.91	35.16	-42.8	-44.8	17.4	0.00e+00	0	44	0	0	56	4721
2026-01-11 00:28:54.98	243.67	34.98	-42.6	-44.6	17.5	0.00e+00	0	44	0	0	56	4604
2026-01-11 00:28:55.99	243.43	34.80	-42.5	-44.4	17.6	0.00e+00	0	44	0	0	56	4524
2026-01-11 00:28:56.99	243.19	34.62	-42.4	-44.4	17.6	0.00e+00	0	44	0	0	56	4515
2026-01-11 00:28:58.00	242.95	34.44	-42.5	-44.4	17.6	0.00e+00	0	44	0	0	56	4542
2026-01-11 00:28:59.00	242.72	34.26	-42.8	-44.8	17.3	0.00e+00	0	44	0	0	56	4749
2026-01-11 00:29:00.00	242.49	34.08	-43.1	-45.2	16.9	0.00e+00	0	44	0	0	56	4950
2026-01-11 00:29:01.01	242.26	33.90	-43.2	-45.4	16.8	0.00e+00	0	44	0	0	57	4764
2026-01-11 00:29:02.01	242.03	33.73	-43.4	-45.5	16.6	0.00e+00	0	44	0	0	57	4870
2026-01-11 00:29:03.01	241.81	33.55	-43.3	-45.4	16.7	0.00e+00	0	44	0	0	57	4797
2026-01-11 00:29:04.02	241.59	33.37	-43.0	-45.1	17.1	0.00e+00	0	44	0	0	57	4626
2026-01-11 00:29:05.02	241.37	33.20	-42.8	-44.8	17.3	0.00e+00	0	44	0	0	57	4464
2026-01-11 00:29:06.02	241.16	33.02	-42.5	-44.5	17.6	0.00e+00	0	44	0	0	57	4313
2026-01-11 00:29:07.03	240.94	32.84	-42.4	-44.3	17.8	0.00e+00	0	44	0	0	56	4464
2026-01-11 00:29:08.03	240.73	32.67	-42.3	-44.2	17.9	0.00e+00	0	44	0	0	56	4412
2026-01-11 00:29:09.04	240.52	32.50	-42.4	-44.3	17.8	0.00e+00	0	44	0	0	56	4470
2026-01-11 00:29:10.04	240.31	32.32	-42.4	-44.3	17.8	0.00e+00	0	44	0	0	56	4473
2026-01-11 00:29:11.05	240.11	32.15	-42.4	-44.3	17.7	0.00e+00	0	44	0	0	56	4487
2026-01-11 00:29:12.05	239.90	31.98	-42.4	-44.3	17.7	0.00e+00	0	44	0	0	56	4488
2026-01-11 00:29:13.05	239.70	31.81	-42.4	-44.4	17.7	0.00e+00	0	44	0	0	56	4494
2026-01-11 00:29:14.06	239.50	31.64	-42.4	-44.3	17.7	0.00e+00	0	44	0	0	56	4475
2026-01-11 00:29:15.06	239.31	31.47	-42.4	-44.3	17.8	0.00e+00	0	44	0	0	56	4471
2026-01-11 00:29:16.06	239.12	31.30	-42.3	-44.3	17.8	0.00e+00	0	44	0	0	56	4459
2026-01-11 00:29:17.06	238.92	31.13	-42.2	-44.1	17.9	0.00e+00	0	44	0	0	56	4387
2026-01-11 00:29:18.07	238.73	30.96	-42.3	-44.3	17.8	0.00e+00	0	44	0	0	56	4446
2026-01-11 00:29:19.07	238.55	30.79	-42.2	-44.1	17.8	0.00e+00	0	43	0	0	56	4391
2026-01-11 00:29:20.07	238.36	30.62	-42.2	-44.1	17.9	0.00e+00	0	44	0	0	56	4350
2026-01-11 00:29:21.08	238.17	30.46	-42.0	-43.9	18.1	0.00e+00	0	44	0	0	56	4284
2026-01-11 00:29:22.08	237.99	30.29	-42.1	-44.0	18.0	0.00e+00	0	44	0	0	56	4297
2026-01-11 00:29:23.09	237.81	30.12	-41.7	-43.5	18.3	0.00e+00	0	44	0	0	55	4314
2026-01-11 00:29:24.09	237.63	29.96	-41.7	-43.5	18.3	0.00e+00	0	44	0	0	55	4321
2026-01-11 00:29:25.09	237.46	29.80	-41.8	-43.7	18.2	0.00e+00	0	44	0	0	55	4403
2026-01-11 00:29:26.10	237.28	29.63	-42.0	-43.9	18.0	0.00e+00	0	44	0	0	55	4538
2026-01-11 00:29:27.10	237.11	29.47	-42.3	-44.3	17.7	0.00e+00	0	44	0	0	55	4722
2026-01-11 00:29:28.10	236.94	29.31	-42.4	-44.4	17.5	0.00e+00	0	43	0	0	55	4782
2026-01-11 00:29:29.11	236.77	29.15	-42.3	-44.2	17.7	0.00e+00	0	44	0	0	55	4698
2026-01-11 00:29:30.11	236.60	28.99	-42.1	-44.0	17.8	0.00e+00	0	44	0	0	55	4587
2026-01-11 00:29:31.11	236.43	28.83	-42.1	-44.1	17.7	0.00e+00	0	44	0	0	55	4618
2026-01-11 00:29:32.12	236.27	28.66	-42.0	-43.9	17.8	0.00e+00	0	44	0	0	55	4543
2026-01-11 00:29:33.12	236.10	28.51	-42.2	-44.1	17.5	0.00e+00	0	44	0	0	55	4642
2026-01-11 00:29:34.13	235.94	28.35	-42.2	-44.1	17.5	0.00e+00	0	44	0	0	55	4647
2026-01-11 00:29:35.13	235.78	28.19	-42.2	-44.1	17.6	0.00e+00	0	44	0	0	55	4640
2026-01-11 00:29:36.13	235.63	28.03	-42.0	-44.0	17.8	0.00e+00	0	44	0	0	55	4557
2026-01-11 00:29:37.14	235.47	27.88	-41.9	-43.8	18.0	0.00e+00	0	44	0	0	55	4448
2026-01-11 00:29:38.14	235.31	27.72	-41.6	-43.5	18.3	0.00e+00	0	44	0	0	55	4297
2026-01-11 00:29:39.14	235.16	27.57	-41.5	-43.4	18.4	0.00e+00	0	44	0	0	55	4246
2026-01-11 00:29:40.14	235.01	27.41	-41.5	-43.4	18.3	0.00e+00	0	44	0	0	55	4264
2026-01-11 00:29:41.15	234.86	27.26	-41.7	-43.5	18.1	0.00e+00	0	44	0	0	55	4336
2026-01-11 00:29:42.15	234.71	27.10	-41.7	-43.6	18.1	0.00e+00	0	44	0	0	55	4379
2026-01-11 00:29:43.15	234.56	26.95	-41.6	-43.5	18.2	0.00e+00	0	44	0	0	55	4325
2026-01-11 00:29:44.16	234.41	26.80	-41.6	-43.5	18.3	0.00e+00	0	44	0	0	55	4306
2026-01-11 00:29:45.16	234.27	26.65	-41.6	-43.4	18.3	0.00e+00	0	44	0	0	55	4286
2026-01-11 00:29:46.16	234.13	26.50	-41.4	-43.2	18.6	0.00e+00	0	44	0	0	54	4414
2026-01-11 00:29:47.17	233.98	26.35	-41.4	-43.3	18.5	0.00e+00	0	44	0	0	54	4454
2026-01-11 00:29:48.17	233.84	26.20	-41.5	-43.3	18.5	0.00e+00	0	44	0	0	54	4480
2026-01-11 00:29:49.17	233.70	26.05	-41.6	-43.5	18.3	0.00e+00	0	44	0	0	54	4567
2026-01-11 00:29:50.18	233.56	25.90	-41.8	-43.7	18.1	0.00e+00	0	44	0	0	54	4667
2026-01-11 00:29:51.18	233.43	25.75	-41.9	-43.9	17.9	0.00e+00	0	44	0	0	54	4783
2026-01-11 00:29:52.18	233.29	25.61	-42.1	-44.1	17.7	0.00e+00	0	44	0	0	54	4904
2026-01-11 00:29:53.19	233.16	25.46	-42.2	-44.2	17.6	0.00e+00	0	43	0	0	55	4683
2026-01-11 00:29:54.19	233.03	25.31	-42.3	-44.4	17.5	0.00e+00	0	44	0	0	55	4762
2026-01-11 00:29:55.19	232.89	25.17	-42.4	-44.5	17.4	0.00e+00	0	44	0	0	55	4822
2026-01-11 00:29:56.20	232.76	25.03	-42.5	-44.5	17.4	0.00e+00	0	44	0	0	55	4853
2026-01-11 00:29:57.20	232.63	24.88	-42.5	-44.5	17.4	0.00e+00	0	43	0	0	55	4841
2026-01-11 00:29:58.20	232.51	24.74	-42.5	-44.5	17.4	0.00e+00	0	43	0	0	55	4866
2026-01-11 00:29:59.20	232.38	24.60	-42.3	-44.4	17.6	0.00e+00	0	44	0	0	55	4762
2026-01-11 00:30:00.21	232.25	24.45	-42.3	-44.3	17.6	0.00e+00	0	44	0	0	55	4752
2026-01-11 00:30:01.21	232.13	24.31	-42.1	-44.1	17.8	0.00e+00	0	44	0	0	55	4629
2026-01-11 00:30:02.21	232.01	24.17	-42.0	-44.0	17.9	0.00e+00	0	44	0	0	55	4550
2026-01-11 00:30:03.22	231.88	24.03	-42.1	-44.0	17.8	0.00e+00	0	44	0	0	55	4596
2026-01-11 00:30:04.22	231.76	23.89	-41.9	-43.8	18.0	0.00e+00	0	44	0	0	55	4491
2026-01-11 00:30:05.22	231.64	23.75	-41.9	-43.8	18.0	0.00e+00	0	44	0	0	55	4486
2026-01-11 00:30:06.23	231.52	23.62	-41.8	-43.8	18.1	0.00e+00	0	44	0	0	55	4448
2026-01-11 00:30:07.23	231.40	23.48	-41.8	-43.8	18.1	0.00e+00	0	43	0	0	55	4443
2026-01-11 00:30:08.23	231.29	23.34	-41.8	-43.7	18.1	0.00e+00	0	44	0	0	55	4438
2026-01-11 00:30:09.24	231.17	23.20	-41.8	-43.7	18.1	0.00e+00	0	43	0	0	55	4425
2026-01-11 00:30:10.24	231.06	23.07	-41.7	-43.6	18.2	0.00e+00	0	44	0	0	55	4384
2026-01-11 00:30:11.24	230.94	22.93	-41.6	-43.5	18.3	0.00e+00	0	44	0	0	55	4297
2026-01-11 00:30:12.24	230.83	22.80	-41.6	-43.4	18.3	0.00e+00	0	44	0	0	55	4282
2026-01-11 00:30:13.25	230.72	22.67	-41.4	-43.3	18.4	0.00e+00	0	44	0	0	54	4454
2026-01-11 00:30:14.25	230.61	22.53	-41.5	-43.4	18.3	0.00e+00	0	44	0	0	54	4513
2026-01-11 00:30:15.25	230.50	22.40	-41.4	-43.3	18.4	0.00e+00	0	44	0	0	54	4450
2026-01-11 00:30:16.26	230.39	22.27	-41.6	-43.5	18.2	0.00e+00	0	44	0	0	54	4553
2026-01-11 00:30:17.26	230.28	22.13	-41.7	-43.5	18.2	0.00e+00	0	44	0	0	54	4588
2026-01-11 00:30:18.26	230.17	22.00	-41.8	-43.7	18.1	0.00e+00	0	44	0	0	54	4657
2026-01-11 00:30:19.27	230.07	21.87	-41.8	-43.7	18.1	0.00e+00	0	44	0	0	54	4654
2026-01-11 00:30:20.27	229.96	21.74	-41.9	-43.8	18.0	0.00e+00	0	44	0	0	54	4712
2026-01-11 00:30:21.28	229.86	21.61	-41.9	-43.8	18.0	0.00e+00	0	44	0	0	54	4735
2026-01-11 00:30:22.28	229.75	21.48	-41.9	-43.8	17.9	0.00e+00	0	44	0	0	54	4747
2026-01-11 00:30:23.28	229.65	21.36	-41.9	-43.8	17.9	0.00e+00	0	43	0	0	54	4754
2026-01-11 00:30:24.28	229.55	21.23	-42.0	-43.9	17.9	0.00e+00	0	44	0	0	54	4789
2026-01-11 00:30:25.28	229.45	21.10	-41.9	-43.9	17.9	0.00e+00	0	44	0	0	54	4775
2026-01-11 00:30:26.29	229.35	20.97	-41.9	-43.8	17.9	0.00e+00	0	44	0	0	54	4753
2026-01-11 00:30:27.29	229.25	20.85	-42.0	-43.9	17.8	0.00e+00	0	44	0	0	54	4788
2026-01-11 00:30:28.30	229.15	20.72	-41.9	-43.8	17.9	0.00e+00	0	44	0	0	54	4712
2026-01-11 00:30:29.30	229.05	20.60	-41.7	-43.6	18.0	0.00e+00	0	43	0	0	54	4646
2026-01-11 00:30:30.30	228.96	20.47	-41.8	-43.6	18.0	0.00e+00	0	44	0	0	54	4649
2026-01-11 00:30:31.31	228.86	20.35	-41.6	-43.4	18.2	0.00e+00	0	44	0	0	54	4531
2026-01-11 00:30:32.31	228.76	20.22	-41.4	-43.3	18.3	0.00e+00	0	44	0	0	54	4450
2026-01-11 00:30:33.31	228.67	20.10	-41.4	-43.3	18.4	0.00e+00	0	44	0	0	54	4446
2026-01-11 00:30:34.32	228.57	19.98	-41.5	-43.3	18.3	0.00e+00	0	44	0	0	54	4480
2026-01-11 00:30:35.32	228.48	19.86	-41.4	-43.2	18.4	0.00e+00	0	44	0	0	54	4426
2026-01-11 00:30:36.32	228.39	19.74	-41.4	-43.3	18.4	0.00e+00	0	44	0	0	54	4457
2026-01-11 00:30:37.33	228.30	19.61	-41.4	-43.2	18.5	0.00e+00	0	44	0	0	54	4414
2026-01-11 00:30:38.33	228.21	19.49	-41.4	-43.3	18.4	0.00e+00	0	44	0	0	54	4447
2026-01-11 00:30:39.33	228.12	19.37	-41.4	-43.2	18.4	0.00e+00	0	44	0	0	54	4441
2026-01-11 00:30:40.34	228.03	19.25	-41.4	-43.3	18.4	0.00e+00	0	44	0	0	54	4452
2026-01-11 00:30:41.34	227.94	19.13	-41.6	-43.4	18.3	0.00e+00	0	44	0	0	54	4530
2026-01-11 00:30:42.34	227.85	19.02	-41.6	-43.5	18.2	0.00e+00	0	44	0	0	54	4557
2026-01-11 00:30:43.35	227.76	18.90	-41.7	-43.6	18.1	0.00e+00	0	44	0	0	54	4628
2026-01-11 00:30:44.35	227.68	18.78	-41.8	-43.7	18.0	0.00e+00	0	44	0	0	54	4668
2026-01-11 00:30:45.35	227.59	18.66	-41.9	-43.8	17.9	0.00e+00	0	44	0	0	54	4749
2026-01-11 00:30:46.36	227.51	18.55	-41.9	-43.9	17.8	0.00e+00	0	44	0	0	54	4776
2026-01-11 00:30:47.36	227.42	18.43	-42.0	-44.0	17.7	0.00e+00	0	44	0	0	54	4836
2026-01-11 00:30:48.36	227.34	18.32	-42.1	-44.1	17.7	0.00e+00	0	44	0	0	54	4878
2026-01-11 00:30:49.37	227.26	18.20	-42.2	-44.2	17.5	0.00e+00	0	44	0	0	55	4678
2026-01-11 00:30:50.37	227.17	18.09	-42.3	-44.2	17.5	0.00e+00	0	44	0	0	55	4697
2026-01-11 00:30:51.38	227.09	17.97	-42.3	-44.3	17.5	0.00e+00	0	44	0	0	55	4712
2026-01-11 00:30:52.38	227.01	17.86	-42.4	-44.4	17.4	0.00e+00	0	44	0	0	55	4769
2026-01-11 00:30:53.38	226.93	17.74	-42.4	-44.5	17.3	0.00e+00	0	44	0	0	55	4815
2026-01-11 00:30:54.39	226.85	17.63	-42.4	-44.4	17.4	0.00e+00	0	44	0	0	55	4781
2026-01-11 00:30:55.39	226.77	17.52	-42.5	-44.5	17.3	0.00e+00	0	44	0	0	55	4842
2026-01-11 00:30:56.39	226.69	17.41	-42.5	-44.5	17.3	0.00e+00	0	44	0	0	55	4857
2026-01-11 00:30:57.40	226.61	17.30	-42.5	-44.5	17.2	0.00e+00	0	44	0	0	55	4860
2026-01-11 00:30:58.40	226.54	17.18	-42.5	-44.5	17.3	0.00e+00	0	44	0	0	55	4844
2026-01-11 00:30:59.41	226.46	17.07	-42.5	-44.5	17.2	0.00e+00	0	44	0	0	55	4858
2026-01-11 00:31:00.41	226.38	16.96	-42.5	-44.5	17.3	0.00e+00	0	44	0	0	55	4833
2026-01-11 00:31:01.41	226.31	16.85	-42.5	-44.5	17.2	0.00e+00	0	44	0	0	55	4861
2026-01-11 00:31:02.42	226.23	16.74	-42.5	-44.5	17.3	0.00e+00	0	44	0	0	55	4832
2026-01-11 00:31:03.42	226.16	16.64	-42.5	-44.5	17.2	0.00e+00	0	44	0	0	55	4853
2026-01-11 00:31:04.43	226.08	16.53	-42.5	-44.5	17.2	0.00e+00	0	44	0	0	55	4854
2026-01-11 00:31:05.43	226.01	16.42	-42.6	-44.6	17.2	0.00e+00	0	44	0	0	55	4898
2026-01-11 00:31:06.43	225.94	16.31	-42.5	-44.5	17.2	0.00e+00	0	44	0	0	55	4869
2026-01-11 00:31:07.44	225.86	16.20	-42.4	-44.4	17.3	0.00e+00	0	44	0	0	55	4783
2026-01-11 00:31:08.44	225.79	16.10	-42.4	-44.5	17.3	0.00e+00	0	44	0	0	55	4823
2026-01-11 00:31:09.45	225.72	15.99	-42.5	-44.5	17.3	0.00e+00	0	44	0	0	55	4823
2026-01-11 00:31:10.45	225.65	15.89	-42.3	-44.3	17.4	0.00e+00	0	44	0	0	55	4752
2026-01-11 00:31:11.45	225.58	15.78	-42.3	-44.3	17.4	0.00e+00	0	44	0	0	55	4732
2026-01-11 00:31:12.46	225.51	15.67	-42.2	-44.2	17.5	0.00e+00	0	44	0	0	55	4667
2026-01-11 00:31:13.46	225.44	15.57	-42.3	-44.2	17.5	0.00e+00	0	44	0	0	55	4694
2026-01-11 00:31:14.47	225.37	15.47	-42.3	-44.3	17.4	0.00e+00	0	44	0	0	55	4724
2026-01-11 00:31:15.47	225.30	15.36	-42.2	-44.1	17.5	0.00e+00	0	44	0	0	55	4642
2026-01-11 00:31:16.47	225.23	15.26	-42.2	-44.1	17.5	0.00e+00	0	44	0	0	55	4649
2026-01-11 00:31:17.48	225.16	15.16	-42.2	-44.1	17.5	0.00e+00	0	44	0	0	55	4635
2026-01-11 00:31:18.48	225.10	15.05	-42.2	-44.2	17.5	0.00e+00	0	44	0	0	55	4654
2026-01-11 00:31:19.48	225.03	14.95	-42.3	-44.3	17.5	0.00e+00	0	43	0	0	55	4707
2026-01-11 00:31:20.49	224.97	14.85	-42.2	-44.2	17.5	0.00e+00	0	44	0	0	55	4668
2026-01-11 00:31:21.49	224.90	14.75	-42.3	-44.2	17.4	0.00e+00	0	44	0	0	55	4705
2026-01-11 00:31:22.49	224.84	14.65	-42.3	-44.3	17.4	0.00e+00	0	44	0	0	55	4731
2026-01-11 00:31:23.50	224.77	14.55	-42.3	-44.3	17.3	0.00e+00	0	44	0	0	55	4750
2026-01-11 00:31:24.50	224.71	14.45	-42.4	-44.4	17.3	0.00e+00	0	44	0	0	55	4808
2026-01-11 00:31:25.51	224.64	14.35	-42.4	-44.5	17.2	0.00e+00	0	44	0	0	55	4828
2026-01-11 00:31:26.51	224.58	14.25	-42.5	-44.5	17.2	0.00e+00	0	44	0	0	55	4856
2026-01-11 00:31:27.51	224.52	14.15	-42.6	-44.7	17.1	0.00e+00	0	44	0	0	55	4931
2026-01-11 00:31:28.51	224.45	14.05	-42.6	-44.7	17.0	0.00e+00	0	43	0	0	55	4930
2026-01-11 00:31:29.52	224.39	13.95	-42.5	-44.6	17.1	0.00e+00	0	44	0	0	55	4890
2026-01-11 00:31:30.52	224.33	13.85	-42.6	-44.7	17.0	0.00e+00	0	44	0	0	55	4967
2026-01-11 00:31:31.52	224.27	13.75	-42.9	-45.0	16.9	0.00e+00	0	44	0	0	56	4850
2026-01-11 00:31:32.52	224.21	13.66	-43.0	-45.2	16.7	0.00e+00	0	44	0	0	56	4935
2026-01-11 00:31:33.52	224.15	13.56	-42.9	-45.1	16.8	0.00e+00	0	44	0	0	56	4879
2026-01-11 00:31:34.53	224.09	13.46	-43.1	-45.2	16.6	0.00e+00	0	44	0	0	56	4979
2026-01-11 00:31:35.53	224.03	13.37	-43.1	-45.3	16.6	0.00e+00	0	44	0	0	56	4987
2026-01-11 00:31:36.53	223.97	13.27	-43.0	-45.2	16.7	0.00e+00	0	43	0	0	56	4928
2026-01-11 00:31:37.54	223.91	13.18	-43.1	-45.3	16.6	0.00e+00	0	44	0	0	56	4993
2026-01-11 00:31:38.54	223.85	13.08	-43.2	-45.3	16.5	0.00e+00	0	44	0	0	57	4743
2026-01-11 00:31:39.55	223.79	12.99	-43.2	-45.4	16.4	0.00e+00	0	44	0	0	57	4784
2026-01-11 00:31:40.55	223.74	12.89	-43.2	-45.4	16.4	0.00e+00	0	44	0	0	57	4787
2026-01-11 00:31:41.55	223.68	12.80	-43.3	-45.5	16.4	0.00e+00	0	44	0	0	57	4824
2026-01-11 00:31:42.56	223.62	12.70	-43.2	-45.4	16.4	0.00e+00	0	44	0	0	57	4779
2026-01-11 00:31:43.56	223.57	12.61	-43.3	-45.5	16.3	0.00e+00	0	44	0	0	57	4831
2026-01-11 00:31:44.56	223.51	12.52	-43.2	-45.4	16.3	0.00e+00	0	44	0	0	57	4813
2026-01-11 00:31:45.57	223.45	12.42	-43.2	-45.4	16.3	0.00e+00	0	44	0	0	57	4795
2026-01-11 00:31:46.57	223.40	12.33	-43.2	-45.4	16.3	0.00e+00	0	44	0	0	57	4788
2026-01-11 00:31:47.58	223.34	12.24	-43.2	-45.4	16.3	0.00e+00	0	44	0	0	57	4812
2026-01-11 00:31:48.58	223.29	12.15	-43.2	-45.4	16.3	0.00e+00	0	44	0	0	57	4806
2026-01-11 00:31:49.58	223.24	12.05	-43.2	-45.4	16.4	0.00e+00	0	44	0	0	57	4763
2026-01-11 00:31:50.59	223.18	11.96	-43.2	-45.4	16.3	0.00e+00	0	44	0	0	57	4766
2026-01-11 00:31:51.59	223.13	11.87	-43.2	-45.5	16.2	0.00e+00	0	44	0	0	57	4821
2026-01-11 00:31:52.59	223.07	11.78	-43.3	-45.5	16.2	0.00e+00	0	44	0	0	57	4820
2026-01-11 00:31:53.59	223.02	11.69	-43.1	-45.3	16.4	0.00e+00	0	44	0	0	57	4709
2026-01-11 00:31:54.60	222.97	11.60	-43.0	-45.1	16.5	0.00e+00	0	44	0	0	57	4630
2026-01-11 00:31:55.60	222.92	11.51	-43.1	-45.2	16.4	0.00e+00	0	44	0	0	57	4703
2026-01-11 00:31:56.60	222.87	11.42	-43.1	-45.2	16.4	0.00e+00	0	44	0	0	57	4702
2026-01-11 00:31:57.60	222.81	11.33	-43.1	-45.3	16.3	0.00e+00	0	44	0	0	57	4739
2026-01-11 00:31:58.61	222.76	11.24	-43.2	-45.4	16.2	0.00e+00	0	44	0	0	57	4776
2026-01-11 00:31:59.61	222.71	11.16	-43.2	-45.5	16.2	0.00e+00	0	44	0	0	57	4815
2026-01-11 00:32:00.61	222.66	11.07	-43.3	-45.5	16.1	0.00e+00	0	44	0	0	57	4869
2026-01-11 00:32:01.62	222.61	10.98	-43.2	-45.4	16.2	0.00e+00	0	43	0	0	57	4768
2026-01-11 00:32:02.62	222.56	10.89	-43.2	-45.5	16.2	0.00e+00	0	44	0	0	57	4817
2026-01-11 00:32:03.63	222.51	10.80	-43.2	-45.3	16.2	0.00e+00	0	44	0	0	57	4758
2026-01-11 00:32:04.63	222.46	10.72	-43.2	-45.4	16.2	0.00e+00	0	44	0	0	57	4782
2026-01-11 00:32:05.64	222.41	10.63	-43.1	-45.4	16.2	0.00e+00	0	44	0	0	57	4760
2026-01-11 00:32:06.64	222.36	10.54	-43.1	-45.3	16.3	0.00e+00	0	44	0	0	57	4750
2026-01-11 00:32:07.64	222.32	10.46	-43.1	-45.3	16.3	0.00e+00	0	43	0	0	57	4744
2026-01-11 00:32:08.65	222.27	10.37	-43.2	-45.4	16.2	0.00e+00	0	44	0	0	57	4800
2026-01-11 00:32:09.64	222.22	10.29	-43.1	-45.4	16.2	0.00e+00	0	44	0	0	57	4765
2026-01-11 00:32:10.65	222.17	10.20	-43.1	-45.3	16.3	0.00e+00	0	44	0	0	57	4713
2026-01-11 00:32:11.65	222.13	10.12	-43.1	-45.3	16.3	0.00e+00	0	43	0	0	57	4744
2026-01-11 00:32:12.66	222.08	10.03	-43.1	-45.3	16.3	0.00e+00	0	44	0	0	57	4741
2026-01-11 00:32:13.66	222.03	9.95	-43.1	-45.4	16.3	0.00e+00	0	43	0	0	57	4775
2026-01-11 00:32:14.67	221.98	9.86	-43.1	-45.4	16.2	0.00e+00	0	43	0	0	57	4791
2026-01-11 00:32:15.67	221.94	9.78	-43.2	-45.6	16.1	0.00e+00	0	44	0	0	57	4875
2026-01-11 00:32:16.68	221.89	9.69	-43.3	-45.7	16.0	0.00e+00	0	44	0	0	57	4929
2026-01-11 00:32:17.68	221.85	9.61	-43.3	-45.7	15.9	0.00e+00	0	43	0	0	57	4938
2026-01-11 00:32:18.68	221.80	9.53	-43.3	-45.6	15.9	0.00e+00	0	44	0	0	57	4925
2026-01-11 00:32:19.68	221.76	9.44	-43.3	-45.7	15.8	0.00e+00	0	44	0	0	57	4970
2026-01-11 00:32:20.68	221.71	9.36	-43.3	-45.8	15.8	0.00e+00	0	43	0	0	57	5003
2026-01-11 00:32:21.69	221.67	9.28	-43.4	-45.8	15.8	0.00e+00	0	43	0	0	57	5033
2026-01-11 00:32:22.69	221.62	9.20	-43.4	-45.9	15.7	0.00e+00	0	44	0	0	57	5057
2026-01-11 00:32:23.69	221.58	9.11	-43.5	-46.0	15.5	0.00e+00	0	44	0	0	57	5159
2026-01-11 00:32:24.69	221.54	9.03	-43.4	-46.0	15.5	0.00e+00	0	43	0	0	57	5130
2026-01-11 00:32:25.70	221.49	8.95	-45.4	-48.7	13.1	0.00e+00	0	44	0	0	61	5571
2026-01-11 00:32:26.70	221.45	8.87	-50.2	-62.5	3.8	1.49e+00	0	44	104	0	71	15363
2026-01-11 00:32:27.71	221.41	8.79	-50.5	-63.4	3.8	1.49e+00	0	44	104	0	71	17055
2026-01-11 00:32:28.71	221.36	8.71	-50.5	-63.5	3.8	1.49e+00	0	43	104	0	71	17264
2026-01-11 00:32:29.72	221.32	8.63	-50.6	-63.6	3.8	1.49e+00	0	44	104	0	72	16356
2026-01-11 00:32:30.72	221.28	8.55	-50.5	-63.6	3.8	1.49e+00	0	44	104	0	72	16439
2026-01-11 00:32:31.72	221.24	8.47	-50.7	-63.7	3.8	1.49e+00	0	44	104	0	72	16585
2026-01-11 00:32:32.73	221.20	8.39	-50.6	-63.7	3.8	1.49e+00	0	44	104	0	72	16595
2026-01-11 00:32:33.73	221.15	8.31	-50.8	-63.7	3.8	1.49e+00	0	44	104	0	72	16648
2026-01-11 00:32:34.74	221.11	8.23	-50.7	-63.7	3.8	1.49e+00	0	44	104	0	72	16691
2026-01-11 00:32:35.74	221.07	8.15	-50.7	-63.7	3.8	1.49e+00	0	44	104	0	72	16693
2026-01-11 00:32:36.74	221.03	8.07	-50.7	-63.7	3.8	1.49e+00	0	44	104	0	72	16687
2026-01-11 00:32:37.75	220.99	7.99	-50.8	-63.8	3.8	1.49e+00	0	44	104	0	72	16723
2026-01-11 00:32:38.75	220.95	7.91	-50.9	-63.7	3.8	1.49e+00	0	44	104	0	72	16656
2026-01-11 00:32:39.76	220.91	7.83	-50.7	-63.8	3.8	1.49e+00	0	44	104	0	72	16806
2026-01-11 00:32:40.76	220.87	7.76	-50.8	-63.8	3.8	1.49e+00	0	44	104	0	72	16802
2026-01-11 00:32:41.77	220.83	7.68	-50.6	-63.8	3.8	1.49e+00	0	43	104	0	72	16714
2026-01-11 00:32:42.77	220.79	7.60	-50.6	-63.8	3.8	1.49e+00	0	44	104	0	72	16766
2026-01-11 00:32:43.78	220.75	7.52	-50.7	-63.8	3.8	1.49e+00	0	44	104	0	72	16781
2026-01-11 00:32:44.78	220.71	7.45	-50.7	-63.8	3.8	1.49e+00	0	44	104	0	72	16732
2026-01-11 00:32:45.79	220.67	7.37	-50.7	-63.7	3.8	1.49e+00	0	44	104	0	72	16673
2026-01-11 00:32:46.79	220.64	7.29	-50.6	-63.8	3.8	1.49e+00	0	44	104	0	72	16697
2026-01-11 00:32:47.80	220.60	7.22	-50.6	-63.7	3.8	1.49e+00	0	44	104	0	72	16639
2026-01-11 00:32:48.80	220.56	7.14	-50.6	-63.7	3.8	1.49e+00	0	44	104	0	72	16691
2026-01-11 00:32:49.80	220.52	7.06	-50.6	-63.7	3.8	1.49e+00	0	44	104	0	72	16611
2026-01-11 00:32:50.81	220.48	6.99	-50.6	-63.7	3.8	1.49e+00	0	44	104	0	72	16645
2026-01-11 00:32:51.81	220.45	6.91	-50.6	-63.7	3.8	1.49e+00	0	44	104	0	72	16559
2026-01-11 00:32:52.82	220.41	6.84	-50.6	-63.7	3.8	1.49e+00	0	44	104	0	72	16594
2026-01-11 00:32:53.82	220.37	6.76	-50.6	-63.7	3.8	1.49e+00	0	44	104	0	72	16543
2026-01-11 00:32:54.83	220.34	6.69	-50.6	-63.7	3.8	1.49e+00	0	44	104	0	72	16599
2026-01-11 00:32:55.83	220.30	6.61	-50.6	-63.7	3.8	1.49e+00	0	44	104	0	72	16598
2026-01-11 00:32:56.84	220.26	6.54	-50.6	-63.7	3.8	1.49e+00	0	44	104	0	72	16546
2026-01-11 00:32:57.84	220.23	6.46	-50.6	-63.7	3.8	1.49e+00	0	44	104	0	72	16676
2026-01-11 00:32:58.84	220.19	6.39	-50.6	-63.7	3.8	1.49e+00	0	44	104	0	72	16561
2026-01-11 00:32:59.85	220.15	6.32	-50.6	-63.7	3.8	1.49e+00	0	44	104	0	72	16518
2026-01-11 00:33:00.85	220.12	6.24	-50.6	-63.6	3.8	1.49e+00	0	44	104	0	72	16502
2026-01-11 00:33:01.86	220.08	6.17	-50.6	-63.7	3.8	1.49e+00	0	43	104	0	72	16593
2026-01-11 00:33:02.86	220.05	6.09	-50.6	-63.7	3.8	1.49e+00	0	44	104	0	72	16551
2026-01-11 00:33:03.87	220.01	6.02	-50.6	-63.7	3.8	1.49e+00	0	44	104	0	72	16590
2026-01-11 00:33:04.87	219.98	5.95	-50.6	-63.7	3.8	1.49e+00	0	44	104	0	72	16556
2026-01-11 00:33:05.87	219.94	5.88	-50.6	-63.7	3.8	1.49e+00	0	44	104	0	72	16570
2026-01-11 00:33:06.88	219.91	5.80	-50.6	-63.7	3.8	1.49e+00	0	44	104	0	72	16567
2026-01-11 00:33:07.88	219.87	5.73	-50.6	-63.7	3.8	1.49e+00	0	44	104	0	72	16548
2026-01-11 00:33:08.89	219.84	5.66	-50.6	-63.7	3.8	1.49e+00	0	44	104	0	72	16541
2026-01-11 00:33:09.89	219.81	5.59	-50.6	-63.7	3.8	1.49e+00	0	44	104	0	72	16564
2026-01-11 00:33:10.90	219.77	5.51	-50.6	-63.7	3.8	1.49e+00	0	44	104	0	72	16513
2026-01-11 00:33:11.90	219.74	5.44	-50.6	-63.6	3.8	1.49e+00	0	44	104	0	72	16480
2026-01-11 00:33:12.90	219.71	5.37	-50.6	-63.7	3.8	1.49e+00	0	44	104	0	72	16514
2026-01-11 00:33:13.91	219.67	5.30	-50.6	-63.7	3.8	1.49e+00	0	44	104	0	72	16549
2026-01-11 00:33:14.92	219.64	5.23	-50.6	-63.7	3.8	1.49e+00	0	44	104	0	72	16605
2026-01-11 00:33:15.92	219.61	5.16	-50.6	-63.7	3.8	1.49e+00	0	44	104	0	72	16573
2026-01-11 00:33:16.92	219.57	5.09	-50.6	-63.7	3.8	1.49e+00	0	44	104	0	72	16545
2026-01-11 00:33:17.93	219.54	5.02	-50.6	-63.7	3.8	1.49e+00	0	44	104	0	72	16567
2026-01-11 00:33:18.93	219.51	4.95	-50.6	-63.7	3.8	1.49e+00	0	44	104	0	72	16556

#Closed at: 2026-01-11 00:33:19
#Recorded file [0 MB]: D:/Data/31040_260111_032042.dat