passes_logs/2026/01/11/T1/T1__20260111_032504_FENGYUN_3G_rec.log

#Pass ID: 20260111_032504_FENGYUN 3G
#Satellite: FENGYUN 3G
#Configuration: FENGYUN 3G
#almurnet v.1.7.20251203
#Start time: 2026-01-11 03:25:03

#Version: 2.0.20230620
#Station: T1
#Location: 37.570604 lon 55.790049 lat
#TLE: 1 56232U 23055A   26009.90297110  .00027343  00000+0  43159-3 0  9992
#TLE: 2 56232  49.9936  82.2244 0004258   3.6110 356.4888 15.53248758155407

#Time	Az	El	Level	Level2	SNR	BER	BlckErr	Temp	State	Recorded	gain1	gain2
2026-01-11 03:25:03.99	257.60	4.92	-50.0	-68.8	3.8	8.47e-01	0	39	0	0	72	29889
2026-01-11 03:25:04.98	257.46	4.99	-50.0	-68.8	3.8	8.39e-01	0	39	104	0	72	29811
2026-01-11 03:25:05.99	257.31	5.05	-50.0	-68.8	3.8	8.46e-01	0	39	104	0	71	31807
2026-01-11 03:25:06.99	257.16	5.11	-50.0	-68.9	3.8	8.47e-01	0	40	104	0	71	31924
2026-01-11 03:25:08.00	257.01	5.17	-50.0	-68.9	3.8	8.47e-01	0	40	104	0	71	31873
2026-01-11 03:25:09.00	256.87	5.24	-50.0	-68.9	3.8	8.46e-01	0	40	104	0	71	31871
2026-01-11 03:25:10.01	256.71	5.30	-50.0	-68.9	3.8	8.47e-01	0	40	104	0	71	31961
2026-01-11 03:25:11.01	256.56	5.36	-50.0	-68.9	3.8	8.47e-01	0	40	104	0	71	31856
2026-01-11 03:25:12.01	256.41	5.43	-50.0	-68.9	3.8	8.47e-01	0	40	104	0	71	31819
2026-01-11 03:25:13.02	256.26	5.49	-50.0	-68.8	3.8	8.47e-01	0	40	104	0	71	31701
2026-01-11 03:25:14.02	256.10	5.55	-50.0	-68.9	3.8	8.47e-01	0	40	104	0	71	31817
2026-01-11 03:25:15.03	255.95	5.62	-50.0	-68.8	3.8	8.47e-01	0	40	104	0	71	31658
2026-01-11 03:25:16.03	255.79	5.68	-50.0	-68.9	3.8	8.47e-01	0	40	104	0	71	31865
2026-01-11 03:25:17.04	255.63	5.74	-50.0	-68.9	3.8	8.48e-01	0	40	104	0	71	31897
2026-01-11 03:25:18.04	255.47	5.81	-50.0	-68.9	3.8	8.48e-01	0	40	104	0	71	31898
2026-01-11 03:25:19.05	255.31	5.87	-50.0	-68.8	3.8	8.47e-01	0	40	104	0	71	31688
2026-01-11 03:25:20.05	255.15	5.93	-50.0	-68.8	3.8	8.46e-01	0	40	104	0	71	31506
2026-01-11 03:25:21.05	254.99	6.00	-50.0	-68.7	3.8	8.46e-01	0	40	104	0	71	31223
2026-01-11 03:25:22.06	254.83	6.06	-50.0	-68.7	3.8	8.46e-01	0	40	104	0	71	31205
2026-01-11 03:25:23.06	254.67	6.12	-50.0	-68.7	3.8	8.47e-01	0	40	104	0	71	31392
2026-01-11 03:25:24.07	254.50	6.19	-50.0	-68.8	3.8	8.47e-01	0	40	104	0	71	31655
2026-01-11 03:25:25.07	254.34	6.25	-50.0	-68.8	3.8	8.47e-01	0	40	104	0	71	31809
2026-01-11 03:25:26.08	254.17	6.32	-50.0	-68.9	3.8	8.48e-01	0	40	104	0	71	31977
2026-01-11 03:25:27.08	254.00	6.38	-50.0	-68.9	3.8	8.48e-01	0	40	104	0	71	31965
2026-01-11 03:25:28.09	253.83	6.45	-50.0	-68.9	3.8	8.47e-01	0	40	104	0	71	31966
2026-01-11 03:25:29.09	253.67	6.51	-50.0	-68.9	3.8	8.46e-01	0	40	104	0	71	31894
2026-01-11 03:25:30.09	253.50	6.57	-50.0	-68.8	3.8	8.47e-01	0	41	104	0	71	31781
2026-01-11 03:25:31.10	253.32	6.64	-50.0	-68.8	3.8	8.47e-01	0	41	104	0	71	31597
2026-01-11 03:25:32.10	253.15	6.70	-50.0	-68.7	3.8	8.46e-01	0	41	104	0	71	31331
2026-01-11 03:25:33.11	252.98	6.77	-50.0	-68.7	3.8	8.47e-01	0	40	104	0	71	31302
2026-01-11 03:25:34.11	252.80	6.83	-50.0	-68.8	3.8	8.47e-01	0	41	104	0	71	31460
2026-01-11 03:25:35.11	252.63	6.90	-50.0	-68.8	3.8	8.46e-01	0	40	104	0	71	31691
2026-01-11 03:25:36.12	252.45	6.96	-50.0	-68.9	3.8	8.47e-01	0	41	104	0	71	31812
2026-01-11 03:25:37.12	252.27	7.03	-50.0	-68.8	3.8	8.47e-01	0	41	104	0	71	31597
2026-01-11 03:25:38.13	252.09	7.09	-50.0	-68.7	3.8	8.46e-01	0	41	104	0	71	31153
2026-01-11 03:25:39.13	251.91	7.16	-50.0	-68.6	3.8	8.46e-01	0	41	104	0	71	31022
2026-01-11 03:25:40.14	251.73	7.22	-50.0	-68.7	3.8	8.46e-01	0	41	104	0	71	31237
2026-01-11 03:25:41.14	251.55	7.29	-50.0	-68.7	3.8	8.46e-01	0	41	104	0	71	31263
2026-01-11 03:25:42.15	251.36	7.35	-50.0	-68.7	3.8	8.46e-01	0	41	104	0	71	31412
2026-01-11 03:25:43.15	251.18	7.42	-50.0	-68.8	3.8	8.46e-01	0	41	104	0	71	31458
2026-01-11 03:25:44.16	250.99	7.48	-50.0	-68.8	3.8	8.47e-01	0	41	104	0	71	31515
2026-01-11 03:25:45.16	250.81	7.55	-50.0	-68.8	3.8	8.46e-01	0	41	104	0	71	31492
2026-01-11 03:25:46.16	250.62	7.61	-50.0	-68.7	3.8	8.47e-01	0	41	104	0	71	31332
2026-01-11 03:25:47.17	250.43	7.68	-50.0	-68.6	3.8	8.47e-01	0	41	104	0	71	30944
2026-01-11 03:25:48.17	250.24	7.74	-50.0	-68.5	3.8	8.46e-01	0	41	104	0	71	30715
2026-01-11 03:25:49.18	250.04	7.81	-50.0	-68.5	3.8	8.48e-01	0	41	104	0	71	30638
2026-01-11 03:25:50.18	249.85	7.87	-50.0	-68.4	3.8	8.48e-01	0	41	104	0	71	30348
2026-01-11 03:25:51.18	249.66	7.94	-50.0	-68.4	3.8	8.46e-01	0	41	104	0	71	30182
2026-01-11 03:25:52.19	249.46	8.00	-50.0	-68.1	3.8	8.46e-01	0	41	104	0	71	29131
2026-01-11 03:25:53.19	249.27	8.07	-50.0	-67.7	3.8	8.46e-01	0	41	104	0	71	27839
2026-01-11 03:25:54.19	249.07	8.13	-50.0	-67.6	3.8	8.48e-01	0	41	104	0	71	27438
2026-01-11 03:25:55.20	248.87	8.20	-50.0	-67.8	3.8	8.46e-01	0	41	104	0	71	28048
2026-01-11 03:25:56.20	248.67	8.26	-50.0	-68.1	3.8	8.46e-01	0	41	104	0	71	29309
2026-01-11 03:25:57.21	248.47	8.33	-50.0	-68.5	3.8	8.47e-01	0	41	104	0	71	30671
2026-01-11 03:25:58.21	248.26	8.39	-50.0	-68.9	3.8	8.47e-01	0	41	104	0	71	31862
2026-01-11 03:25:59.21	248.06	8.46	-50.0	-68.9	3.8	8.47e-01	0	41	104	0	71	31888
2026-01-11 03:26:00.22	247.85	8.52	-50.0	-68.7	3.8	8.47e-01	0	41	104	0	71	31372
2026-01-11 03:26:01.22	247.65	8.59	-50.0	-68.5	3.8	8.47e-01	0	41	104	0	71	30574
2026-01-11 03:26:02.23	247.44	8.65	-50.0	-68.2	3.8	8.47e-01	0	41	104	0	71	29441
2026-01-11 03:26:03.23	247.23	8.72	-50.0	-66.9	3.8	8.47e-01	0	41	104	0	71	25277
2026-01-11 03:26:04.24	247.02	8.78	-49.8	-63.8	4.7	8.46e-01	0	41	0	0	71	17780
2026-01-11 03:26:05.24	246.81	8.85	-49.5	-60.2	7.2	6.65e-01	0	41	0	0	71	11794
2026-01-11 03:26:06.24	246.60	8.91	-49.0	-57.0	10.5	6.65e-01	0	41	0	0	70	8639
2026-01-11 03:26:07.25	246.38	8.98	-48.2	-54.3	13.3	5.39e-02	0	41	0	0	68	7112
2026-01-11 03:26:08.25	246.16	9.04	-47.1	-52.0	15.5	1.83e-04	0	41	0	0	66	6111
2026-01-11 03:26:09.25	245.95	9.11	-46.6	-50.9	16.6	1.83e-04	0	41	0	0	65	5709
2026-01-11 03:26:10.26	245.73	9.17	-46.6	-50.9	16.6	0.00e+00	0	41	0	0	65	5709
2026-01-11 03:26:11.26	245.51	9.24	-48.1	-54.3	13.1	1.10e-06	0	41	0	0	67	7500
2026-01-11 03:26:12.26	245.29	9.30	-48.6	-55.5	11.8	1.10e-06	0	41	0	0	68	8091
2026-01-11 03:26:13.27	245.07	9.37	-44.7	-47.9	19.6	6.30e-04	0	41	0	0	61	5054
2026-01-11 03:26:14.27	244.84	9.43	-44.5	-47.6	19.9	1.10e-06	0	41	0	0	61	4905
2026-01-11 03:26:15.27	244.62	9.50	-44.0	-46.9	20.5	1.10e-06	0	41	0	0	60	4802
2026-01-11 03:26:16.28	244.39	9.56	-43.6	-46.4	21.1	0.00e+00	0	41	0	0	59	4793
2026-01-11 03:26:17.28	244.16	9.62	-43.7	-46.5	21.1	0.00e+00	0	41	0	0	58	5133
2026-01-11 03:26:18.29	243.93	9.69	-43.8	-46.6	20.9	0.00e+00	0	41	0	0	58	5215
2026-01-11 03:26:19.29	243.70	9.75	-43.7	-46.6	21.0	0.00e+00	0	41	0	0	58	5162
2026-01-11 03:26:20.29	243.47	9.82	-43.9	-46.7	20.9	0.00e+00	0	41	0	0	58	5249
2026-01-11 03:26:21.30	243.24	9.88	-43.8	-46.7	20.9	0.00e+00	0	41	0	0	58	5233
2026-01-11 03:26:22.31	243.00	9.95	-44.0	-46.8	20.7	0.00e+00	0	41	0	0	58	5332
2026-01-11 03:26:23.31	242.77	10.01	-44.0	-46.9	20.7	0.00e+00	0	41	0	0	58	5376
2026-01-11 03:26:24.31	242.53	10.07	-43.9	-46.8	20.8	0.00e+00	0	42	0	0	58	5286
2026-01-11 03:26:25.32	242.29	10.14	-43.5	-46.2	21.4	0.00e+00	0	41	0	0	58	4946
2026-01-11 03:26:26.32	242.05	10.20	-43.3	-46.0	21.5	0.00e+00	0	41	0	0	58	4857
2026-01-11 03:26:27.32	241.81	10.26	-43.3	-46.0	21.6	0.00e+00	0	42	0	0	58	4821
2026-01-11 03:26:28.33	241.57	10.33	-43.1	-45.7	21.8	0.00e+00	0	41	0	0	58	4682
2026-01-11 03:26:29.33	241.32	10.39	-42.9	-45.5	21.9	0.00e+00	0	42	0	0	57	4863
2026-01-11 03:26:30.33	241.08	10.45	-43.1	-45.7	21.9	0.00e+00	0	41	0	0	57	4940
2026-01-11 03:26:31.34	240.83	10.51	-43.1	-45.8	21.8	0.00e+00	0	41	0	0	57	4985
2026-01-11 03:26:32.34	240.58	10.58	-43.2	-45.8	21.7	0.00e+00	0	42	0	0	57	5018
2026-01-11 03:26:33.35	240.33	10.64	-43.2	-45.9	21.7	0.00e+00	0	41	0	0	57	5049
2026-01-11 03:26:34.35	240.08	10.70	-43.2	-45.8	21.8	0.00e+00	0	42	0	0	57	5028
2026-01-11 03:26:35.35	239.83	10.76	-43.3	-46.0	21.6	0.00e+00	0	41	0	0	57	5102
2026-01-11 03:26:36.36	239.57	10.82	-43.2	-45.9	21.7	0.00e+00	0	42	0	0	57	5073
2026-01-11 03:26:37.36	239.32	10.89	-43.2	-45.8	21.7	0.00e+00	0	42	0	0	57	5022
2026-01-11 03:26:38.36	239.06	10.95	-43.1	-45.7	21.8	0.00e+00	0	41	0	0	57	4973
2026-01-11 03:26:39.37	238.80	11.01	-43.0	-45.6	21.9	0.00e+00	0	41	0	0	57	4899
2026-01-11 03:26:40.38	238.54	11.07	-43.0	-45.5	22.0	0.00e+00	0	42	0	0	57	4870
2026-01-11 03:26:41.38	238.28	11.13	-42.9	-45.4	22.1	0.00e+00	0	42	0	0	57	4793
2026-01-11 03:26:42.38	238.02	11.19	-42.9	-45.4	22.1	0.00e+00	0	42	0	0	57	4803
2026-01-11 03:26:43.39	237.75	11.25	-42.8	-45.4	22.2	0.00e+00	0	41	0	0	57	4791
2026-01-11 03:26:44.39	237.49	11.31	-42.7	-45.2	22.3	0.00e+00	0	42	0	0	57	4689
2026-01-11 03:26:45.39	237.22	11.37	-42.7	-45.2	22.4	0.00e+00	0	42	0	0	57	4666
2026-01-11 03:26:46.40	236.95	11.43	-42.6	-45.1	22.4	0.00e+00	0	42	0	0	57	4626
2026-01-11 03:26:47.40	236.68	11.49	-42.7	-45.2	22.3	0.00e+00	0	41	0	0	57	4681
2026-01-11 03:26:48.41	236.41	11.55	-42.7	-45.3	22.2	0.00e+00	0	42	0	0	57	4735
2026-01-11 03:26:49.41	236.13	11.60	-42.9	-45.5	22.1	0.00e+00	0	41	0	0	57	4836
2026-01-11 03:26:50.41	235.86	11.66	-42.9	-45.5	22.1	0.00e+00	0	42	0	0	57	4824
2026-01-11 03:26:51.42	235.58	11.72	-43.1	-45.7	21.9	0.00e+00	0	42	0	0	57	4959
2026-01-11 03:26:52.42	235.31	11.78	-43.0	-45.6	22.0	0.00e+00	0	42	0	0	57	4898
2026-01-11 03:26:53.42	235.03	11.84	-43.1	-45.7	21.9	0.00e+00	0	41	0	0	57	4969
2026-01-11 03:26:54.43	234.75	11.89	-43.3	-46.0	21.7	0.00e+00	0	42	0	0	57	5119
2026-01-11 03:26:55.43	234.47	11.95	-43.2	-45.9	21.8	0.00e+00	0	42	0	0	57	5048
2026-01-11 03:26:56.43	234.18	12.01	-43.0	-45.6	22.0	0.00e+00	0	42	0	0	57	4898
2026-01-11 03:26:57.43	233.90	12.06	-42.8	-45.4	22.2	0.00e+00	0	42	0	0	57	4773
2026-01-11 03:26:58.43	233.61	12.12	-42.8	-45.4	22.3	0.00e+00	0	42	0	0	57	4786
2026-01-11 03:26:59.44	233.33	12.17	-42.7	-45.2	22.4	0.00e+00	0	42	0	0	57	4657
2026-01-11 03:27:00.44	233.04	12.23	-42.3	-44.7	22.8	0.00e+00	0	41	0	0	56	4690
2026-01-11 03:27:01.45	232.75	12.28	-42.2	-44.7	22.9	0.00e+00	0	42	0	0	56	4652
2026-01-11 03:27:02.45	232.46	12.33	-42.2	-44.6	22.8	0.00e+00	0	42	0	0	56	4646
2026-01-11 03:27:03.45	232.16	12.39	-42.2	-44.7	22.9	0.00e+00	0	42	0	0	56	4664
2026-01-11 03:27:04.46	231.87	12.44	-42.5	-45.0	22.6	0.00e+00	0	42	0	0	56	4845
2026-01-11 03:27:05.46	231.57	12.49	-42.8	-45.3	22.3	0.00e+00	0	42	0	0	56	5015
2026-01-11 03:27:06.46	231.28	12.55	-42.8	-45.3	22.3	0.00e+00	0	42	0	0	56	5034
2026-01-11 03:27:07.47	230.98	12.60	-42.9	-45.4	22.2	0.00e+00	0	42	0	0	56	5091
2026-01-11 03:27:08.47	230.68	12.65	-43.0	-45.6	22.1	0.00e+00	0	41	0	0	56	5167
2026-01-11 03:27:09.47	230.38	12.70	-42.9	-45.4	22.2	0.00e+00	0	42	0	0	56	5092
2026-01-11 03:27:10.48	230.07	12.75	-42.9	-45.4	22.3	0.00e+00	0	42	0	0	56	5073
2026-01-11 03:27:11.48	229.77	12.80	-42.8	-45.3	22.4	0.00e+00	0	42	0	0	56	4989
2026-01-11 03:27:12.49	229.46	12.85	-42.6	-45.1	22.5	0.00e+00	0	42	0	0	56	4906
2026-01-11 03:27:13.49	229.16	12.90	-42.3	-44.8	22.8	0.00e+00	0	42	0	0	56	4707
2026-01-11 03:27:14.49	228.85	12.95	-42.1	-44.4	23.1	0.00e+00	0	42	0	0	56	4541
2026-01-11 03:27:15.50	228.54	13.00	-42.1	-44.4	23.1	0.00e+00	0	42	0	0	56	4532
2026-01-11 03:27:16.50	228.23	13.04	-41.9	-44.2	23.2	0.00e+00	0	42	0	0	55	4685
2026-01-11 03:27:17.50	227.92	13.09	-41.8	-44.1	23.2	0.00e+00	0	42	0	0	55	4647
2026-01-11 03:27:18.51	227.60	13.14	-41.8	-44.2	23.2	0.00e+00	0	42	0	0	55	4657
2026-01-11 03:27:19.51	227.29	13.18	-41.8	-44.1	23.2	0.00e+00	0	42	0	0	55	4635
2026-01-11 03:27:20.51	226.97	13.23	-41.8	-44.1	23.3	0.00e+00	0	42	0	0	55	4648
2026-01-11 03:27:21.52	226.65	13.27	-41.7	-44.1	23.3	0.00e+00	0	42	0	0	55	4603
2026-01-11 03:27:22.52	226.34	13.32	-41.7	-44.0	23.3	0.00e+00	0	42	0	0	55	4577
2026-01-11 03:27:23.52	226.02	13.36	-41.8	-44.1	23.2	0.00e+00	0	42	0	0	55	4640
2026-01-11 03:27:24.53	225.69	13.40	-41.6	-43.9	23.4	0.00e+00	0	42	0	0	55	4544
2026-01-11 03:27:25.53	225.37	13.45	-41.7	-44.0	23.3	0.00e+00	0	42	0	0	55	4578
2026-01-11 03:27:26.53	225.05	13.49	-41.8	-44.1	23.3	0.00e+00	0	42	0	0	55	4630
2026-01-11 03:27:27.54	224.73	13.53	-41.6	-43.9	23.4	0.00e+00	0	42	0	0	55	4541
2026-01-11 03:27:28.55	224.40	13.57	-41.4	-43.7	23.6	0.00e+00	0	42	0	0	54	4682
2026-01-11 03:27:29.55	224.07	13.61	-41.4	-43.7	23.6	0.00e+00	0	42	0	0	54	4693
2026-01-11 03:27:30.55	223.75	13.65	-41.5	-43.8	23.5	0.00e+00	0	42	0	0	54	4718
2026-01-11 03:27:31.56	223.41	13.69	-41.6	-43.9	23.4	0.00e+00	0	41	0	0	54	4805
2026-01-11 03:27:32.56	223.09	13.73	-41.9	-44.2	23.2	0.00e+00	0	42	0	0	54	4955
2026-01-11 03:27:33.56	222.76	13.76	-41.9	-44.2	23.2	0.00e+00	0	42	0	0	54	4964
2026-01-11 03:27:34.57	222.42	13.80	-41.9	-44.3	23.1	0.00e+00	0	42	0	0	54	5012
2026-01-11 03:27:35.57	222.09	13.84	-41.7	-44.1	23.3	0.00e+00	0	42	0	0	54	4873
2026-01-11 03:27:36.57	221.76	13.87	-41.5	-43.8	23.6	0.00e+00	0	42	0	0	54	4723
2026-01-11 03:27:37.57	221.42	13.90	-41.5	-43.8	23.6	0.00e+00	0	42	0	0	54	4722
2026-01-11 03:27:38.57	221.09	13.94	-41.6	-43.9	23.4	0.00e+00	0	42	0	0	54	4812
2026-01-11 03:27:39.58	220.75	13.97	-41.7	-44.0	23.4	0.00e+00	0	42	0	0	54	4834
2026-01-11 03:27:40.58	220.41	14.00	-41.8	-44.1	23.2	0.00e+00	0	42	0	0	54	4919
2026-01-11 03:27:41.58	220.07	14.03	-41.8	-44.1	23.2	0.00e+00	0	42	0	0	54	4902
2026-01-11 03:27:42.58	219.73	14.07	-41.6	-43.9	23.4	0.00e+00	0	42	0	0	54	4801
2026-01-11 03:27:43.59	219.39	14.10	-41.3	-43.5	23.8	0.00e+00	0	42	0	0	54	4589
2026-01-11 03:27:44.59	219.05	14.12	-41.1	-43.3	23.9	0.00e+00	0	42	0	0	54	4491
2026-01-11 03:27:45.59	218.71	14.15	-41.1	-43.3	24.0	0.00e+00	0	42	0	0	54	4488
2026-01-11 03:27:46.59	218.37	14.18	-41.2	-43.4	23.9	0.00e+00	0	42	0	0	54	4523
2026-01-11 03:27:47.60	218.02	14.21	-41.4	-43.7	23.7	0.00e+00	0	42	0	0	54	4656
2026-01-11 03:27:48.60	217.68	14.23	-41.6	-43.9	23.5	0.00e+00	0	42	0	0	54	4769
2026-01-11 03:27:49.60	217.33	14.26	-41.6	-43.9	23.5	0.00e+00	0	42	0	0	54	4806
2026-01-11 03:27:50.60	216.98	14.28	-41.6	-44.0	23.4	0.00e+00	0	42	0	0	54	4820
2026-01-11 03:27:51.61	216.64	14.31	-41.7	-44.1	23.3	0.00e+00	0	42	0	0	54	4883
2026-01-11 03:27:52.61	216.29	14.33	-41.8	-44.2	23.3	0.00e+00	0	42	0	0	54	4932
2026-01-11 03:27:53.61	215.94	14.35	-41.8	-44.1	23.3	0.00e+00	0	42	0	0	54	4897
2026-01-11 03:27:54.62	215.59	14.37	-41.9	-44.3	23.2	0.00e+00	0	42	0	0	54	4999
2026-01-11 03:27:55.62	215.24	14.39	-41.8	-44.2	23.3	0.00e+00	0	42	0	0	54	4930
2026-01-11 03:27:56.62	214.89	14.41	-41.8	-44.1	23.3	0.00e+00	0	42	0	0	54	4895
2026-01-11 03:27:57.63	214.54	14.43	-41.6	-43.9	23.5	0.00e+00	0	42	0	0	54	4809
2026-01-11 03:27:58.63	214.19	14.45	-41.5	-43.7	23.6	0.00e+00	0	42	0	0	54	4704
2026-01-11 03:27:59.63	213.84	14.47	-41.2	-43.4	23.9	0.00e+00	0	42	0	0	54	4518
2026-01-11 03:28:00.64	213.48	14.48	-41.0	-43.2	24.1	0.00e+00	0	42	0	0	54	4421
2026-01-11 03:28:01.64	213.13	14.50	-40.9	-43.2	24.1	0.00e+00	0	42	0	0	53	4654
2026-01-11 03:28:02.64	212.78	14.51	-41.1	-43.4	23.9	0.00e+00	0	42	0	0	53	4774
2026-01-11 03:28:03.65	212.42	14.53	-41.0	-43.2	24.0	0.00e+00	0	42	0	0	53	4691
2026-01-11 03:28:04.65	212.07	14.54	-41.1	-43.3	24.0	0.00e+00	0	42	0	0	53	4727
2026-01-11 03:28:05.66	211.71	14.55	-41.0	-43.2	24.1	0.00e+00	0	42	0	0	53	4658
2026-01-11 03:28:06.66	211.35	14.56	-40.9	-43.1	24.1	0.00e+00	0	42	0	0	53	4635
2026-01-11 03:28:07.66	211.00	14.57	-41.2	-43.4	23.9	0.00e+00	0	42	0	0	53	4786
2026-01-11 03:28:08.67	210.64	14.58	-41.3	-43.6	23.7	0.00e+00	0	42	0	0	53	4874
2026-01-11 03:28:09.67	210.29	14.59	-41.4	-43.7	23.7	0.00e+00	0	42	0	0	53	4959
2026-01-11 03:28:10.67	209.93	14.60	-41.7	-44.0	23.4	0.00e+00	0	42	0	0	53	5119
2026-01-11 03:28:11.67	209.57	14.60	-41.9	-44.2	23.2	0.00e+00	0	42	0	0	54	4967
2026-01-11 03:28:12.68	209.22	14.61	-42.0	-44.4	23.1	0.00e+00	0	42	0	0	54	5050
2026-01-11 03:28:13.68	208.86	14.61	-42.1	-44.4	23.0	0.00e+00	0	42	0	0	54	5100
2026-01-11 03:28:14.68	208.50	14.62	-42.1	-44.5	23.0	0.00e+00	0	42	0	0	54	5103
2026-01-11 03:28:15.69	208.14	14.62	-41.9	-44.3	23.2	0.00e+00	0	42	0	0	54	5002
2026-01-11 03:28:16.69	207.79	14.62	-41.7	-44.0	23.4	0.00e+00	0	42	0	0	54	4840
2026-01-11 03:28:17.69	207.43	14.62	-41.5	-43.8	23.6	0.00e+00	0	42	0	0	54	4715
2026-01-11 03:28:18.70	207.07	14.62	-41.3	-43.5	23.8	0.00e+00	0	42	0	0	54	4589
2026-01-11 03:28:19.70	206.72	14.62	-41.5	-43.8	23.6	0.00e+00	0	42	0	0	54	4744
2026-01-11 03:28:20.70	206.36	14.62	-41.7	-44.0	23.4	0.00e+00	0	42	0	0	54	4840
2026-01-11 03:28:21.71	206.00	14.62	-41.6	-43.9	23.5	0.00e+00	0	42	0	0	54	4800
2026-01-11 03:28:22.71	205.64	14.62	-41.7	-44.0	23.4	0.00e+00	0	42	0	0	54	4861
2026-01-11 03:28:23.71	205.29	14.61	-41.7	-44.0	23.4	0.00e+00	0	42	0	0	54	4848
2026-01-11 03:28:24.72	204.93	14.61	-41.6	-43.9	23.5	0.00e+00	0	42	0	0	54	4796
2026-01-11 03:28:25.72	204.57	14.60	-41.7	-44.0	23.4	0.00e+00	0	42	0	0	54	4839
2026-01-11 03:28:26.72	204.22	14.59	-41.5	-43.8	23.5	0.00e+00	0	42	0	0	54	4757
2026-01-11 03:28:27.72	203.86	14.59	-41.5	-43.7	23.6	0.00e+00	0	42	0	0	54	4703
2026-01-11 03:28:28.73	203.50	14.58	-41.6	-43.9	23.5	0.00e+00	0	42	0	0	54	4796
2026-01-11 03:28:29.73	203.15	14.57	-41.4	-43.7	23.6	0.00e+00	0	42	0	0	54	4695
2026-01-11 03:28:30.73	202.79	14.56	-41.4	-43.7	23.6	0.00e+00	0	42	0	0	54	4698
2026-01-11 03:28:31.74	202.44	14.54	-41.4	-43.7	23.6	0.00e+00	0	42	0	0	54	4663
2026-01-11 03:28:32.74	202.08	14.53	-41.4	-43.8	23.6	0.00e+00	0	42	0	0	54	4728
2026-01-11 03:28:33.74	201.73	14.52	-41.4	-43.7	23.6	0.00e+00	0	42	0	0	54	4703
2026-01-11 03:28:34.75	201.37	14.51	-41.5	-43.8	23.5	0.00e+00	0	42	0	0	54	4758
2026-01-11 03:28:35.75	201.02	14.49	-41.7	-44.1	23.3	0.00e+00	0	42	0	0	54	4880
2026-01-11 03:28:36.75	200.67	14.47	-42.0	-44.4	23.1	0.00e+00	0	42	0	0	54	5056
2026-01-11 03:28:37.76	200.31	14.46	-42.1	-44.5	22.9	0.00e+00	0	42	0	0	54	5149
2026-01-11 03:28:38.76	199.96	14.44	-42.2	-44.7	22.8	0.00e+00	0	42	0	0	55	4931
2026-01-11 03:28:39.77	199.61	14.42	-42.4	-44.9	22.6	0.00e+00	0	42	0	0	55	5079
2026-01-11 03:28:40.77	199.26	14.40	-42.3	-44.7	22.7	0.00e+00	0	42	0	0	55	4982
2026-01-11 03:28:41.77	198.91	14.38	-42.0	-44.4	23.0	0.00e+00	0	42	0	0	55	4778
2026-01-11 03:28:42.78	198.56	14.36	-41.9	-44.3	23.1	0.00e+00	0	42	0	0	55	4712
2026-01-11 03:28:43.78	198.21	14.34	-41.6	-43.9	23.4	0.00e+00	0	42	0	0	55	4537
2026-01-11 03:28:44.78	197.86	14.32	-41.6	-43.9	23.4	0.00e+00	0	42	0	0	55	4527
2026-01-11 03:28:45.79	197.51	14.29	-41.5	-43.9	23.5	0.00e+00	0	42	0	0	54	4777
2026-01-11 03:28:46.79	197.16	14.27	-41.5	-43.9	23.4	0.00e+00	0	42	0	0	54	4785
2026-01-11 03:28:47.80	196.82	14.24	-41.7	-44.1	23.3	0.00e+00	0	42	0	0	54	4903
2026-01-11 03:28:48.80	196.47	14.22	-41.6	-44.0	23.4	0.00e+00	0	42	0	0	54	4846
2026-01-11 03:28:49.80	196.13	14.19	-41.9	-44.3	23.1	0.00e+00	0	42	0	0	54	5027
2026-01-11 03:28:50.80	195.78	14.17	-41.8	-44.3	23.1	0.00e+00	0	42	0	0	54	4986
2026-01-11 03:28:51.81	195.44	14.14	-41.7	-44.1	23.3	0.00e+00	0	42	0	0	54	4916
2026-01-11 03:28:52.81	195.10	14.11	-41.9	-44.3	23.1	0.00e+00	0	42	0	0	54	5006
2026-01-11 03:28:53.81	194.76	14.08	-41.6	-43.9	23.4	0.00e+00	0	42	0	0	54	4785
2026-01-11 03:28:54.82	194.41	14.05	-41.2	-43.5	23.8	0.00e+00	0	42	0	0	54	4586
2026-01-11 03:28:55.82	194.08	14.02	-41.0	-43.2	24.0	0.00e+00	0	42	0	0	53	4703
2026-01-11 03:28:56.82	193.74	13.98	-41.1	-43.3	23.9	0.00e+00	0	42	0	0	53	4753
2026-01-11 03:28:57.82	193.40	13.95	-41.1	-43.4	23.9	0.00e+00	0	42	0	0	53	4785
2026-01-11 03:28:58.83	193.06	13.92	-41.1	-43.4	23.9	0.00e+00	0	42	0	0	53	4771
2026-01-11 03:28:59.83	192.73	13.88	-41.3	-43.7	23.7	0.00e+00	0	42	0	0	53	4936
2026-01-11 03:29:00.83	192.39	13.85	-41.3	-43.7	23.7	0.00e+00	0	42	0	0	53	4936
2026-01-11 03:29:01.84	192.06	13.81	-41.2	-43.5	23.7	0.00e+00	0	42	0	0	53	4853
2026-01-11 03:29:02.84	191.72	13.78	-40.9	-43.2	24.0	0.00e+00	0	42	0	0	53	4670
2026-01-11 03:29:03.85	191.39	13.74	-40.7	-42.9	24.2	0.00e+00	0	42	0	0	53	4530
2026-01-11 03:29:04.85	191.06	13.70	-40.6	-42.8	24.3	0.00e+00	0	42	0	0	53	4492
2026-01-11 03:29:05.85	190.73	13.66	-40.8	-43.0	24.2	0.00e+00	0	42	0	0	53	4587
2026-01-11 03:29:06.86	190.40	13.63	-41.1	-43.3	24.0	0.00e+00	0	42	0	0	53	4755
2026-01-11 03:29:07.86	190.07	13.59	-41.2	-43.5	23.8	0.00e+00	0	42	0	0	53	4858
2026-01-11 03:29:08.86	189.75	13.55	-41.5	-43.9	23.5	0.00e+00	0	42	0	0	53	5065
2026-01-11 03:29:09.87	189.42	13.50	-41.6	-44.0	23.3	0.00e+00	0	42	0	0	53	5150
2026-01-11 03:29:10.87	189.10	13.46	-41.2	-43.6	23.7	0.00e+00	0	42	0	0	53	4897
2026-01-11 03:29:11.87	188.78	13.42	-41.0	-43.4	23.9	0.00e+00	0	42	0	0	53	4769
2026-01-11 03:29:12.87	188.46	13.38	-40.8	-43.1	24.1	0.00e+00	0	42	0	0	53	4642
2026-01-11 03:29:13.88	188.13	13.33	-40.6	-42.9	24.2	0.00e+00	0	42	0	0	53	4510
2026-01-11 03:29:14.88	187.82	13.29	-40.6	-42.8	24.3	0.00e+00	0	42	0	0	53	4493
2026-01-11 03:29:15.89	187.50	13.25	-40.8	-43.1	24.1	0.00e+00	0	42	0	0	53	4629
2026-01-11 03:29:16.89	187.18	13.20	-41.3	-43.6	23.7	0.00e+00	0	42	0	0	53	4913
2026-01-11 03:29:17.89	186.87	13.16	-41.4	-43.8	23.5	0.00e+00	0	42	0	0	53	5006
2026-01-11 03:29:18.89	186.55	13.11	-41.7	-44.0	23.3	0.00e+00	0	42	0	0	53	5154
2026-01-11 03:29:19.90	186.24	13.06	-41.9	-44.3	23.2	0.00e+00	0	42	0	0	54	4989
2026-01-11 03:29:20.90	185.93	13.02	-41.8	-44.2	23.2	0.00e+00	0	42	0	0	54	4967
2026-01-11 03:29:21.90	185.62	12.97	-41.8	-44.2	23.2	0.00e+00	0	42	0	0	54	4935
2026-01-11 03:29:22.91	185.31	12.92	-41.7	-44.1	23.3	0.00e+00	0	42	0	0	54	4871
2026-01-11 03:29:23.91	185.00	12.87	-41.7	-44.1	23.3	0.00e+00	0	42	0	0	54	4881
2026-01-11 03:29:24.91	184.69	12.82	-41.6	-44.0	23.3	0.00e+00	0	42	0	0	54	4859
2026-01-11 03:29:25.92	184.39	12.77	-41.5	-43.9	23.5	0.00e+00	0	42	0	0	54	4765
2026-01-11 03:29:26.92	184.08	12.72	-41.7	-44.1	23.2	0.00e+00	0	42	0	0	54	4908
2026-01-11 03:29:27.92	183.78	12.67	-42.0	-44.5	22.9	0.00e+00	0	42	0	0	54	5115
2026-01-11 03:29:28.93	183.48	12.62	-42.0	-44.4	23.0	0.00e+00	0	42	0	0	54	5089
2026-01-11 03:29:29.93	183.18	12.57	-42.1	-44.5	22.8	0.00e+00	0	42	0	0	54	5159
2026-01-11 03:29:30.93	182.88	12.51	-42.4	-44.9	22.6	0.00e+00	0	42	0	0	55	5069
2026-01-11 03:29:31.94	182.59	12.46	-42.5	-45.1	22.5	0.00e+00	0	42	0	0	55	5165
2026-01-11 03:29:32.94	182.29	12.41	-42.4	-44.9	22.6	2.17e-05	0	42	0	0	55	5082
2026-01-11 03:29:33.94	182.00	12.36	-42.3	-44.9	22.6	0.00e+00	0	42	0	0	55	5046
2026-01-11 03:29:34.95	181.70	12.30	-42.1	-44.6	22.9	0.00e+00	0	42	0	0	55	4888
2026-01-11 03:29:35.95	181.41	12.25	-42.1	-44.6	22.9	0.00e+00	0	42	0	0	55	4899
2026-01-11 03:29:36.95	181.12	12.19	-42.0	-44.5	22.9	0.00e+00	0	42	0	0	55	4825
2026-01-11 03:29:37.96	180.83	12.14	-41.7	-44.1	23.2	5.49e-05	0	42	0	0	55	4623
2026-01-11 03:29:38.96	180.55	12.08	-41.5	-43.9	23.4	5.49e-05	0	42	0	0	55	4528
2026-01-11 03:29:39.96	180.26	12.03	-41.5	-43.9	23.5	0.00e+00	0	42	0	0	54	4762
2026-01-11 03:29:40.97	179.98	11.97	-41.6	-44.0	23.4	0.00e+00	0	42	0	0	54	4817
2026-01-11 03:29:41.97	179.69	11.91	-41.9	-44.3	23.1	0.00e+00	0	42	0	0	54	5006
2026-01-11 03:29:42.97	179.41	11.86	-42.2	-44.6	22.8	0.00e+00	0	42	0	0	54	5212
2026-01-11 03:29:43.97	179.14	11.80	-42.5	-45.0	22.4	0.00e+00	0	42	0	0	55	5158
2026-01-11 03:29:44.98	178.86	11.74	-42.7	-45.2	22.3	0.00e+00	0	42	0	0	55	5256
2026-01-11 03:29:45.98	178.58	11.68	-42.7	-45.2	21.7	0.00e+00	0	42	0	0	56	4970
2026-01-11 03:29:46.98	178.30	11.63	-42.4	-44.8	22.8	0.00e+00	0	42	0	0	56	4743
2026-01-11 03:29:47.99	178.03	11.57	-42.2	-44.7	22.9	0.00e+00	0	42	0	0	56	4655
2026-01-11 03:29:48.99	177.76	11.51	-42.2	-44.6	23.0	0.00e+00	0	42	0	0	56	4642
2026-01-11 03:29:50.00	177.48	11.45	-42.1	-44.6	23.0	0.00e+00	0	42	0	0	56	4625
2026-01-11 03:29:51.00	177.21	11.39	-42.0	-44.5	23.0	0.00e+00	0	42	0	0	56	4558
2026-01-11 03:29:52.00	176.95	11.33	-42.0	-44.5	23.0	0.00e+00	0	42	0	0	56	4587
2026-01-11 03:29:53.01	176.68	11.27	-41.8	-44.3	23.1	0.00e+00	0	42	0	0	55	4716
2026-01-11 03:29:54.01	176.41	11.21	-42.2	-44.9	22.6	0.00e+00	0	42	0	0	55	5042
2026-01-11 03:29:55.01	176.15	11.15	-42.3	-45.1	22.4	0.00e+00	0	42	0	0	55	5179
2026-01-11 03:29:56.02	175.89	11.09	-42.5	-45.4	22.1	0.00e+00	0	42	0	0	55	5358
2026-01-11 03:29:57.02	175.63	11.03	-42.9	-45.9	21.8	0.00e+00	0	42	0	0	56	5355
2026-01-11 03:29:58.02	175.37	10.97	-42.7	-45.6	22.0	0.00e+00	0	42	0	0	56	5183
2026-01-11 03:29:59.02	175.11	10.91	-42.6	-45.4	22.2	0.00e+00	0	42	0	0	56	5075
2026-01-11 03:30:00.03	174.85	10.85	-42.4	-45.2	22.4	0.00e+00	0	42	0	0	56	4965
2026-01-11 03:30:01.03	174.60	10.78	-42.4	-45.2	22.4	0.00e+00	0	42	0	0	56	4973
2026-01-11 03:30:02.04	174.34	10.72	-42.3	-45.0	22.5	9.52e-04	0	42	0	0	56	4870
2026-01-11 03:30:03.04	174.09	10.66	-42.2	-44.9	22.6	0.00e+00	0	42	0	0	56	4770
2026-01-11 03:30:04.04	173.84	10.60	-42.2	-44.8	22.7	1.43e-03	0	42	0	0	56	4745
2026-01-11 03:30:05.05	173.59	10.54	-42.1	-44.7	22.7	1.43e-03	0	42	0	0	56	4702
2026-01-11 03:30:06.05	173.34	10.47	-42.1	-44.8	22.7	0.00e+00	0	42	0	0	56	4725
2026-01-11 03:30:07.05	173.09	10.41	-42.4	-45.1	22.4	2.06e-04	0	42	0	0	56	4897
2026-01-11 03:30:08.06	172.85	10.35	-42.5	-45.3	22.3	2.06e-04	0	42	0	0	56	4987
2026-01-11 03:30:09.06	172.60	10.28	-42.7	-45.5	21.9	0.00e+00	0	42	0	0	56	5128
2026-01-11 03:30:10.06	172.36	10.22	-42.7	-45.5	22.1	1.59e-04	0	42	0	0	56	5146
2026-01-11 03:30:11.07	172.12	10.16	-42.9	-45.8	21.8	1.59e-04	0	42	0	0	56	5324
2026-01-11 03:30:12.07	171.88	10.09	-43.3	-46.3	21.3	0.00e+00	0	42	0	0	57	5307
2026-01-11 03:30:13.08	171.64	10.03	-43.3	-46.4	21.3	0.00e+00	0	42	0	0	57	5357
2026-01-11 03:30:14.08	171.40	9.97	-43.1	-46.1	21.5	0.00e+00	0	42	0	0	57	5169
2026-01-11 03:30:15.09	171.17	9.90	-42.9	-45.8	21.8	0.00e+00	0	42	0	0	57	5003
2026-01-11 03:30:16.09	170.93	9.84	-42.7	-45.4	22.1	2.11e-03	0	42	0	0	57	4812
2026-01-11 03:30:17.10	170.70	9.77	-42.7	-45.4	22.1	2.11e-03	0	42	0	0	57	4807
2026-01-11 03:30:18.10	170.47	9.71	-42.6	-45.4	22.1	0.00e+00	0	42	0	0	57	4803
2026-01-11 03:30:19.10	170.24	9.65	-42.8	-45.6	22.0	1.62e-03	0	42	0	0	57	4886
2026-01-11 03:30:20.11	170.01	9.58	-42.9	-45.7	21.9	0.00e+00	0	42	0	0	57	4946
2026-01-11 03:30:21.11	169.78	9.52	-43.0	-45.8	21.8	0.00e+00	0	42	0	0	57	5020
2026-01-11 03:30:22.11	169.56	9.45	-42.9	-45.7	21.8	0.00e+00	0	42	0	0	57	4961
2026-01-11 03:30:23.12	169.33	9.39	-42.9	-45.7	21.9	0.00e+00	0	42	0	0	57	4948
2026-01-11 03:30:24.12	169.11	9.32	-42.9	-45.7	21.8	0.00e+00	0	42	0	0	57	4962
2026-01-11 03:30:25.12	168.89	9.26	-42.9	-45.6	21.9	8.00e-06	0	42	0	0	57	4913
2026-01-11 03:30:26.13	168.66	9.19	-42.9	-45.6	21.9	0.00e+00	0	42	0	0	57	4892
2026-01-11 03:30:27.13	168.44	9.13	-42.8	-45.5	22.0	0.00e+00	0	42	0	0	57	4855
2026-01-11 03:30:28.13	168.23	9.06	-43.0	-45.7	21.8	1.72e-04	0	42	0	0	57	4971
2026-01-11 03:30:29.14	168.01	9.00	-43.1	-45.9	21.7	0.00e+00	0	42	0	0	57	5052
2026-01-11 03:30:30.14	167.79	8.93	-48.1	-62.1	4.4	0.00e+00	0	42	104	0	67	18346
2026-01-11 03:30:31.14	167.58	8.87	-50.0	-67.0	3.9	1.65e-01	0	42	104	0	70	27205
2026-01-11 03:30:32.15	167.37	8.80	-50.3	-68.6	3.8	8.46e-01	0	42	104	0	71	30956
2026-01-11 03:30:33.15	167.16	8.74	-50.4	-69.3	3.8	8.46e-01	0	42	104	0	71	33670
2026-01-11 03:30:34.16	166.94	8.67	-50.5	-69.4	3.8	8.47e-01	0	42	104	0	71	34042
2026-01-11 03:30:35.16	166.74	8.61	-50.6	-69.5	3.8	8.48e-01	0	42	104	0	71	34130
2026-01-11 03:30:36.17	166.53	8.54	-50.7	-69.5	3.8	8.47e-01	0	42	104	0	72	32256
2026-01-11 03:30:37.17	166.32	8.48	-50.6	-69.5	3.8	8.47e-01	0	42	104	0	72	32475
2026-01-11 03:30:38.18	166.12	8.41	-50.7	-69.5	3.8	8.47e-01	0	42	104	0	72	32433
2026-01-11 03:30:39.18	165.91	8.35	-50.6	-69.6	3.8	8.46e-01	0	42	104	0	72	32559
2026-01-11 03:30:40.19	165.71	8.28	-50.7	-69.6	3.8	8.46e-01	0	42	104	0	72	32598
2026-01-11 03:30:41.19	165.51	8.22	-50.8	-69.6	3.8	8.46e-01	0	42	104	0	72	32561
2026-01-11 03:30:42.19	165.31	8.15	-50.8	-69.6	3.8	8.47e-01	0	42	104	0	72	32661
2026-01-11 03:30:43.20	165.11	8.08	-50.7	-69.6	3.8	8.47e-01	0	42	104	0	72	32557
2026-01-11 03:30:44.20	164.91	8.02	-50.7	-69.6	3.8	8.47e-01	0	42	104	0	72	32615
2026-01-11 03:30:45.21	164.71	7.95	-50.6	-69.6	3.8	8.47e-01	0	42	104	0	72	32639
2026-01-11 03:30:46.21	164.52	7.89	-50.8	-69.6	3.8	8.47e-01	0	42	104	0	72	32595
2026-01-11 03:30:47.22	164.32	7.82	-50.7	-69.6	3.8	8.48e-01	0	42	104	0	72	32654
2026-01-11 03:30:48.22	164.13	7.76	-50.7	-69.6	3.8	8.47e-01	0	42	104	0	72	32634
2026-01-11 03:30:49.23	163.94	7.69	-50.8	-69.6	3.8	8.46e-01	0	42	104	0	72	32650
2026-01-11 03:30:50.23	163.75	7.63	-50.8	-69.5	3.8	8.46e-01	0	42	104	0	72	32540
2026-01-11 03:30:51.23	163.56	7.56	-50.8	-69.6	3.8	8.45e-01	0	42	104	0	72	32642
2026-01-11 03:30:52.24	163.37	7.50	-50.6	-69.6	3.8	8.46e-01	0	42	104	0	72	32799
2026-01-11 03:30:53.24	163.18	7.43	-50.7	-69.6	3.8	8.46e-01	0	42	104	0	72	32615
2026-01-11 03:30:54.25	163.00	7.37	-50.7	-69.6	3.8	8.48e-01	0	43	104	0	72	32654
2026-01-11 03:30:55.25	162.81	7.30	-50.7	-69.5	3.8	8.47e-01	0	42	104	0	72	32538
2026-01-11 03:30:56.26	162.63	7.24	-50.5	-69.5	3.8	8.47e-01	0	42	104	0	72	32551
2026-01-11 03:30:57.26	162.45	7.17	-50.6	-69.6	3.8	8.46e-01	0	42	104	0	72	32597
2026-01-11 03:30:58.26	162.27	7.11	-50.6	-69.5	3.8	8.46e-01	0	42	104	0	72	32532
2026-01-11 03:30:59.27	162.08	7.04	-50.6	-69.5	3.8	8.46e-01	0	42	104	0	72	32410
2026-01-11 03:31:00.27	161.91	6.98	-50.6	-69.5	3.8	8.47e-01	0	42	104	0	72	32499
2026-01-11 03:31:01.28	161.73	6.91	-50.6	-69.5	3.8	8.46e-01	0	42	104	0	72	32445
2026-01-11 03:31:02.28	161.55	6.85	-50.6	-69.5	3.8	8.46e-01	0	42	104	0	72	32504
2026-01-11 03:31:03.29	161.37	6.78	-50.6	-69.5	3.8	8.47e-01	0	42	104	0	72	32468
2026-01-11 03:31:04.29	161.20	6.72	-50.6	-69.5	3.8	8.47e-01	0	43	104	0	72	32429
2026-01-11 03:31:05.29	161.03	6.65	-50.6	-69.5	3.8	8.47e-01	0	42	104	0	72	32458
2026-01-11 03:31:06.30	160.85	6.59	-50.6	-69.5	3.8	8.47e-01	0	42	104	0	72	32499
2026-01-11 03:31:07.30	160.68	6.52	-50.6	-69.5	3.8	8.47e-01	0	42	104	0	72	32474
2026-01-11 03:31:08.31	160.51	6.46	-50.6	-69.5	3.8	8.48e-01	0	42	104	0	72	32400
2026-01-11 03:31:09.31	160.34	6.40	-50.6	-69.5	3.8	8.48e-01	0	42	104	0	72	32498
2026-01-11 03:31:10.32	160.17	6.33	-50.6	-69.5	3.8	8.47e-01	0	43	104	0	72	32544
2026-01-11 03:31:11.32	160.01	6.27	-50.6	-69.5	3.8	8.48e-01	0	42	104	0	72	32444
2026-01-11 03:31:12.33	159.84	6.20	-50.6	-69.5	3.8	8.48e-01	0	42	104	0	72	32467
2026-01-11 03:31:13.33	159.67	6.14	-50.6	-69.5	3.8	8.46e-01	0	42	104	0	72	32447
2026-01-11 03:31:14.34	159.51	6.07	-50.6	-69.5	3.8	8.48e-01	0	42	104	0	72	32461
2026-01-11 03:31:15.34	159.35	6.01	-50.6	-69.5	3.8	8.48e-01	0	42	104	0	72	32519
2026-01-11 03:31:16.34	159.18	5.95	-50.6	-69.5	3.8	8.48e-01	0	42	104	0	72	32399
2026-01-11 03:31:17.35	159.02	5.88	-50.6	-69.5	3.8	8.48e-01	0	42	104	0	72	32422
2026-01-11 03:31:18.35	158.86	5.82	-50.6	-69.5	3.8	8.47e-01	0	42	104	0	72	32391
2026-01-11 03:31:19.36	158.70	5.76	-50.6	-69.5	3.8	8.47e-01	0	42	104	0	72	32423
2026-01-11 03:31:20.36	158.54	5.69	-50.6	-69.5	3.8	8.47e-01	0	42	104	0	72	32342
2026-01-11 03:31:21.37	158.39	5.63	-50.6	-69.5	3.8	8.48e-01	0	42	104	0	72	32383
2026-01-11 03:31:22.37	158.23	5.57	-50.6	-69.5	3.8	8.48e-01	0	42	104	0	72	32500
2026-01-11 03:31:23.38	158.07	5.50	-50.6	-69.5	3.8	8.47e-01	0	42	104	0	72	32464
2026-01-11 03:31:24.38	157.92	5.44	-50.6	-69.5	3.8	8.46e-01	0	42	104	0	72	32436
2026-01-11 03:31:25.39	157.77	5.38	-50.6	-69.5	3.8	8.46e-01	0	42	104	0	72	32478
2026-01-11 03:31:26.39	157.61	5.31	-50.6	-69.5	3.8	8.48e-01	0	42	104	0	72	32493
2026-01-11 03:31:27.39	157.46	5.25	-50.6	-69.5	3.8	8.47e-01	0	42	104	0	72	32425
2026-01-11 03:31:28.40	157.31	5.19	-50.6	-69.5	3.8	8.47e-01	0	42	104	0	72	32383
2026-01-11 03:31:29.40	157.16	5.12	-50.6	-69.5	3.8	8.48e-01	0	42	104	0	72	32416
2026-01-11 03:31:30.41	157.01	5.06	-50.6	-69.5	3.8	8.46e-01	0	42	104	0	72	32439
2026-01-11 03:31:31.41	156.87	5.00	-50.6	-69.5	3.8	8.46e-01	0	42	104	0	72	32452

#Closed at: 2026-01-11 03:31:32
#Recorded file [0 MB]: D:/Data/31040_260111_062503.dat