passes_logs/2026/01/11/T1/T1__20260111_114035_FENGYUN_3D_rec.log

#Pass ID: 20260111_114035_FENGYUN 3D
#Satellite: FENGYUN 3D
#Configuration: FENGYUN 3D
#almurnet v.1.7.20251203
#Start time: 2026-01-11 11:40:35

#Version: 2.0.20230620
#Station: T1
#Location: 37.570604 lon 55.790049 lat
#TLE: 1 43010U 17072A   26010.98637270  .00000005  00000+0  24269-4 0  9997
#TLE: 2 43010  98.9936 342.7405 0002213 115.1030 245.0375 14.19693961422685

#Time	Az	El	Level	Level2	SNR	BER	BlckErr	Temp	State	Recorded	gain1	gain2
2026-01-11 11:40:35.32	151.10	5.00	-51.6	-63.7	3.8	8.47e-01	0	40	0	0	74	14837
2026-01-11 11:40:36.31	151.09	5.07	-51.6	-63.6	3.8	8.47e-01	0	40	104	0	75	13772
2026-01-11 11:40:37.30	151.08	5.14	-51.6	-63.6	3.8	8.48e-01	0	40	104	0	75	13743
2026-01-11 11:40:38.29	151.06	5.21	-51.6	-63.6	3.8	8.48e-01	0	40	104	0	75	13864
2026-01-11 11:40:39.29	151.05	5.28	-51.6	-63.7	3.8	8.47e-01	0	40	104	0	75	13987
2026-01-11 11:40:40.28	151.03	5.35	-51.6	-63.8	3.8	8.47e-01	0	40	104	0	75	14107
2026-01-11 11:40:41.27	151.02	5.42	-51.6	-63.8	3.8	8.48e-01	0	40	104	0	75	14126
2026-01-11 11:40:42.27	151.01	5.50	-51.6	-63.8	3.8	8.47e-01	0	40	104	0	75	14198
2026-01-11 11:40:43.26	150.99	5.57	-51.6	-63.9	3.8	8.46e-01	0	40	104	0	75	14249
2026-01-11 11:40:44.25	150.98	5.64	-51.6	-63.8	3.8	8.47e-01	0	40	104	0	75	14181
2026-01-11 11:40:45.25	150.96	5.72	-51.6	-63.7	3.8	8.47e-01	0	40	104	0	75	13981
2026-01-11 11:40:46.24	150.95	5.79	-51.6	-63.6	3.8	8.48e-01	0	40	104	0	75	13768
2026-01-11 11:40:47.23	150.94	5.86	-51.6	-63.4	3.8	8.48e-01	0	40	104	0	75	13515
2026-01-11 11:40:48.23	150.92	5.94	-51.5	-63.2	3.8	8.47e-01	0	40	104	0	75	13150
2026-01-11 11:40:49.22	150.91	6.01	-51.5	-63.0	3.8	8.48e-01	0	40	104	0	75	12906
2026-01-11 11:40:50.21	150.89	6.08	-51.5	-62.8	3.8	8.46e-01	0	40	104	0	75	12553
2026-01-11 11:40:51.20	150.88	6.16	-51.5	-62.6	3.8	8.47e-01	0	41	104	0	74	12997
2026-01-11 11:40:52.20	150.86	6.23	-51.4	-62.3	3.8	8.47e-01	0	41	104	0	74	12558
2026-01-11 11:40:53.19	150.85	6.31	-51.4	-61.8	3.8	8.47e-01	0	41	104	0	74	11918
2026-01-11 11:40:54.18	150.83	6.38	-51.3	-61.2	4.0	8.46e-01	0	41	104	0	74	11094
2026-01-11 11:40:55.17	150.82	6.45	-51.2	-60.8	3.9	8.41e-01	0	41	104	0	74	10574
2026-01-11 11:40:56.17	150.80	6.53	-51.1	-59.9	4.3	8.38e-01	0	41	0	0	74	9503
2026-01-11 11:40:57.16	150.79	6.61	-50.9	-59.0	4.6	8.20e-01	0	41	0	0	73	9092
2026-01-11 11:40:58.15	150.77	6.68	-50.7	-58.2	5.0	7.90e-01	0	41	0	0	73	8345
2026-01-11 11:40:59.15	150.76	6.76	-50.5	-57.4	5.5	7.11e-01	0	41	0	0	73	7570
2026-01-11 11:41:00.14	150.74	6.83	-50.2	-56.5	6.1	3.75e-01	0	41	0	4194304	72	7285
2026-01-11 11:41:01.13	150.73	6.91	-50.0	-55.7	6.9	2.39e-01	0	41	0	9437184	71	7008
2026-01-11 11:41:02.13	150.71	6.99	-49.7	-54.9	7.6	1.34e-01	0	41	0	15728640	71	6394
2026-01-11 11:41:03.12	150.69	7.06	-49.3	-54.2	8.3	8.00e-02	0	41	0	20971520	70	6272
2026-01-11 11:41:04.11	150.68	7.14	-49.0	-53.5	9.1	3.20e-02	0	41	0	26214400	70	5726
2026-01-11 11:41:05.10	150.66	7.22	-48.6	-52.8	9.7	1.66e-02	0	41	0	32505856	69	5603
2026-01-11 11:41:06.10	150.65	7.29	-48.2	-52.0	10.6	5.92e-03	0	41	0	37748736	68	5408
2026-01-11 11:41:07.09	150.63	7.37	-47.4	-50.9	11.5	1.59e-03	0	41	0	42991616	66	5371
2026-01-11 11:41:08.08	150.61	7.45	-47.0	-50.2	12.2	5.79e-04	0	41	0	49283072	66	4982
2026-01-11 11:41:09.08	150.60	7.53	-46.5	-49.6	12.9	1.20e-04	0	41	0	54525952	65	4895
2026-01-11 11:41:10.07	150.58	7.61	-46.0	-48.9	13.6	2.86e-05	0	41	0	59768832	64	4797
2026-01-11 11:41:11.06	150.56	7.68	-45.8	-48.5	14.0	5.70e-06	0	41	0	66060288	63	4864
2026-01-11 11:41:12.05	150.55	7.76	-45.4	-48.0	14.5	1.10e-06	0	41	0	71303168	62	4845
2026-01-11 11:41:13.05	150.53	7.84	-45.1	-47.7	14.9	0.00e+00	0	41	0	76546048	62	4669
2026-01-11 11:41:14.04	150.51	7.92	-44.9	-47.4	15.1	1.10e-06	0	41	0	82837504	61	4789
2026-01-11 11:41:15.03	150.50	8.00	-44.8	-47.3	15.2	0.00e+00	0	41	0	88080384	61	4713
2026-01-11 11:41:16.02	150.48	8.08	-44.8	-47.3	15.2	0.00e+00	0	41	0	93323264	61	4759
2026-01-11 11:41:17.02	150.46	8.16	-44.9	-47.5	15.1	0.00e+00	0	41	0	99614720	61	4820
2026-01-11 11:41:18.01	150.44	8.24	-45.1	-47.7	14.9	0.00e+00	0	42	0	104857600	61	4943
2026-01-11 11:41:19.00	150.43	8.32	-45.5	-48.2	14.4	1.10e-06	0	41	0	110100480	61	5239
2026-01-11 11:41:20.00	150.41	8.40	-46.0	-48.8	13.7	6.80e-06	0	41	0	116391936	62	5335
2026-01-11 11:41:20.99	150.39	8.48	-46.5	-49.6	13.0	5.83e-05	0	42	0	121634816	63	5470
2026-01-11 11:41:21.98	150.37	8.56	-47.2	-50.5	12.0	2.93e-04	0	42	0	126877696	64	5746
2026-01-11 11:41:22.98	150.36	8.65	-48.0	-51.8	10.6	1.55e-03	0	42	0	133169152	66	5952
2026-01-11 11:41:23.97	150.34	8.73	-48.9	-53.3	9.2	1.67e-02	0	42	0	138412032	68	6335
2026-01-11 11:41:24.96	150.32	8.81	-49.8	-55.2	7.4	7.77e-02	0	42	0	143654912	70	6966
2026-01-11 11:41:25.96	150.30	8.89	-50.5	-57.3	5.7	4.08e-01	0	42	0	148897792	71	8402
2026-01-11 11:41:26.95	150.28	8.98	-51.0	-59.5	4.4	8.03e-01	0	42	0	149946368	72	10290
2026-01-11 11:41:27.94	150.26	9.06	-51.4	-61.9	3.8	8.42e-01	0	42	104	149946368	73	12743
2026-01-11 11:41:28.94	150.25	9.14	-51.1	-59.8	4.4	8.38e-01	0	42	0	149946368	73	9964
2026-01-11 11:41:29.93	150.23	9.23	-51.4	-62.5	3.9	8.45e-01	0	42	104	149946368	73	13589
2026-01-11 11:41:30.92	150.21	9.31	-51.4	-61.9	3.9	8.46e-01	0	42	104	149946368	73	12717
2026-01-11 11:41:31.91	150.19	9.39	-46.9	-50.1	12.4	6.03e-02	0	42	0	152043520	65	5180
2026-01-11 11:41:32.90	150.17	9.48	-51.3	-61.5	3.8	6.23e-01	0	42	104	155189248	73	12209
2026-01-11 11:41:33.90	150.15	9.56	-47.6	-51.2	11.2	4.43e-01	0	42	0	155189248	67	5230
2026-01-11 11:41:34.89	150.13	9.65	-45.4	-48.1	14.6	6.80e-06	0	42	0	160432128	62	4883
2026-01-11 11:41:35.88	150.11	9.73	-43.9	-46.2	16.4	0.00e+00	0	42	0	166723584	59	4655
2026-01-11 11:41:36.88	150.09	9.82	-43.2	-45.4	17.1	0.00e+00	0	42	0	171966464	58	4512
2026-01-11 11:41:37.87	150.07	9.90	-43.3	-45.5	17.0	0.00e+00	0	42	0	177209344	58	4580
2026-01-11 11:41:38.86	150.05	9.99	-43.3	-45.5	17.1	0.00e+00	0	42	0	183500800	58	4563
2026-01-11 11:41:39.86	150.03	10.08	-43.3	-45.5	17.0	0.00e+00	0	42	0	188743680	58	4596
2026-01-11 11:41:40.85	150.01	10.16	-43.3	-45.5	17.1	0.00e+00	0	42	0	193986560	58	4546
2026-01-11 11:41:41.84	149.99	10.25	-43.0	-45.2	17.4	0.00e+00	0	42	0	200278016	58	4398
2026-01-11 11:41:42.83	149.97	10.34	-43.0	-45.1	17.4	0.00e+00	0	42	0	205520896	57	4629
2026-01-11 11:41:43.83	149.95	10.42	-43.0	-45.2	17.4	0.00e+00	0	42	0	210763776	57	4672
2026-01-11 11:41:44.82	149.93	10.51	-43.0	-45.2	17.4	0.00e+00	0	42	0	216006656	57	4666
2026-01-11 11:41:45.81	149.91	10.60	-42.9	-45.1	17.5	0.00e+00	0	42	0	222298112	57	4608
2026-01-11 11:41:46.80	149.89	10.69	-42.8	-44.9	17.6	0.00e+00	0	42	0	227540992	57	4535
2026-01-11 11:41:47.80	149.87	10.78	-42.8	-44.9	17.6	0.00e+00	0	42	0	233832448	57	4518
2026-01-11 11:41:48.79	149.85	10.87	-42.8	-45.0	17.6	0.00e+00	0	42	0	239075328	57	4548
2026-01-11 11:41:49.78	149.82	10.96	-42.9	-45.0	17.6	0.00e+00	0	42	0	244318208	57	4563
2026-01-11 11:41:50.78	149.80	11.05	-42.8	-44.9	17.7	0.00e+00	0	42	0	250609664	57	4518
2026-01-11 11:41:51.77	149.78	11.14	-42.8	-44.9	17.6	0.00e+00	0	42	0	255852544	57	4532
2026-01-11 11:41:52.76	149.76	11.23	-42.7	-44.8	17.7	0.00e+00	0	42	0	261095424	57	4478
2026-01-11 11:41:53.76	149.74	11.32	-42.7	-44.8	17.8	0.00e+00	0	42	0	266338304	57	4444
2026-01-11 11:41:54.75	149.71	11.41	-42.6	-44.7	17.8	0.00e+00	0	42	0	272629760	57	4408
2026-01-11 11:41:55.74	149.69	11.50	-42.6	-44.7	17.8	0.00e+00	0	42	0	277872640	57	4411
2026-01-11 11:41:56.73	149.67	11.59	-42.6	-44.7	17.9	0.00e+00	0	42	0	284164096	57	4397
2026-01-11 11:41:57.73	149.65	11.68	-42.5	-44.6	17.9	0.00e+00	0	42	0	289406976	57	4379
2026-01-11 11:41:58.72	149.62	11.78	-42.5	-44.6	17.9	0.00e+00	0	42	0	294649856	57	4370
2026-01-11 11:41:59.71	149.60	11.87	-42.5	-44.6	17.9	0.00e+00	0	42	0	299892736	57	4365
2026-01-11 11:42:00.70	149.58	11.96	-42.7	-44.8	17.8	0.00e+00	0	42	0	306184192	57	4452
2026-01-11 11:42:01.70	149.56	12.06	-42.5	-44.6	18.0	0.00e+00	0	42	0	311427072	57	4358
2026-01-11 11:42:02.69	149.53	12.15	-42.5	-44.6	18.0	0.00e+00	0	42	0	316669952	57	4349
2026-01-11 11:42:03.68	149.51	12.24	-42.4	-44.5	18.1	0.00e+00	0	42	0	322961408	56	4559
2026-01-11 11:42:04.68	149.48	12.34	-42.4	-44.5	18.1	0.00e+00	0	42	0	328204288	56	4562
2026-01-11 11:42:05.67	149.46	12.43	-42.5	-44.5	18.1	0.00e+00	0	42	0	333447168	56	4566
2026-01-11 11:42:06.66	149.44	12.53	-42.5	-44.6	18.0	0.00e+00	0	42	0	339738624	56	4604
2026-01-11 11:42:07.65	149.41	12.62	-42.6	-44.6	18.0	0.00e+00	0	42	0	344981504	56	4633
2026-01-11 11:42:08.65	149.39	12.72	-42.5	-44.5	18.0	0.00e+00	0	42	0	350224384	56	4578
2026-01-11 11:42:09.64	149.36	12.82	-42.5	-44.5	18.1	0.00e+00	0	42	0	356515840	56	4584
2026-01-11 11:42:10.63	149.34	12.91	-42.5	-44.5	18.0	0.00e+00	0	42	0	361758720	56	4585
2026-01-11 11:42:11.63	149.31	13.01	-42.5	-44.5	18.0	0.00e+00	0	42	0	367001600	56	4593
2026-01-11 11:42:12.62	149.29	13.11	-42.4	-44.4	18.1	0.00e+00	0	42	0	373293056	56	4541
2026-01-11 11:42:13.61	149.26	13.21	-42.4	-44.4	18.2	0.00e+00	0	42	0	378535936	56	4525
2026-01-11 11:42:14.61	149.24	13.31	-42.4	-44.5	18.1	0.00e+00	0	42	0	383778816	56	4553
2026-01-11 11:42:15.60	149.21	13.40	-42.5	-44.6	18.0	0.00e+00	0	42	0	390070272	56	4601
2026-01-11 11:42:16.59	149.19	13.50	-42.4	-44.5	18.1	0.00e+00	0	42	0	395313152	56	4553
2026-01-11 11:42:17.59	149.16	13.60	-42.4	-44.4	18.2	0.00e+00	0	42	0	400556032	56	4537
2026-01-11 11:42:18.58	149.13	13.70	-42.4	-44.4	18.2	0.00e+00	0	42	0	406847488	56	4537
2026-01-11 11:42:19.57	149.11	13.80	-42.3	-44.4	18.2	0.00e+00	0	42	0	412090368	56	4498
2026-01-11 11:42:20.56	149.08	13.90	-42.2	-44.3	18.3	0.00e+00	0	42	0	417333248	56	4477
2026-01-11 11:42:21.56	149.05	14.01	-42.3	-44.3	18.2	0.00e+00	0	42	0	423624704	56	4492
2026-01-11 11:42:22.55	149.03	14.11	-42.3	-44.3	18.3	0.00e+00	0	42	0	428867584	56	4475
2026-01-11 11:42:23.54	149.00	14.21	-42.2	-44.3	18.3	0.00e+00	0	42	0	434110464	56	4445
2026-01-11 11:42:24.53	148.97	14.31	-42.3	-44.3	18.2	0.00e+00	0	42	0	440401920	56	4492
2026-01-11 11:42:25.53	148.94	14.41	-42.3	-44.4	18.2	0.00e+00	0	42	0	445644800	56	4511
2026-01-11 11:42:26.52	148.91	14.52	-42.1	-44.1	18.5	0.00e+00	0	42	0	450887680	56	4364
2026-01-11 11:42:27.51	148.89	14.62	-42.0	-44.0	18.6	0.00e+00	0	42	0	457179136	56	4319
2026-01-11 11:42:28.51	148.86	14.73	-42.0	-44.0	18.6	0.00e+00	0	42	0	462422016	56	4313
2026-01-11 11:42:29.50	148.83	14.83	-42.0	-44.0	18.6	0.00e+00	0	42	0	467664896	56	4331
2026-01-11 11:42:30.49	148.80	14.93	-41.7	-43.7	18.7	0.00e+00	0	42	0	473956352	55	4411
2026-01-11 11:42:31.49	148.77	15.04	-41.6	-43.5	18.9	0.00e+00	0	42	0	479199232	55	4323
2026-01-11 11:42:32.48	148.74	15.15	-41.5	-43.5	18.9	0.00e+00	0	42	0	484442112	55	4297
2026-01-11 11:42:33.47	148.71	15.25	-41.5	-43.5	18.9	0.00e+00	0	42	0	490733568	55	4296
2026-01-11 11:42:34.47	148.68	15.36	-41.4	-43.4	19.0	0.00e+00	0	42	0	495976448	54	4512
2026-01-11 11:42:35.46	148.65	15.47	-41.5	-43.4	19.0	0.00e+00	0	42	0	501219328	54	4530
2026-01-11 11:42:36.45	148.62	15.58	-41.5	-43.4	19.0	0.00e+00	0	42	0	507510784	54	4514
2026-01-11 11:42:37.44	148.59	15.68	-41.3	-43.2	19.2	0.00e+00	0	42	0	512753664	54	4432
2026-01-11 11:42:38.44	148.56	15.79	-41.2	-43.1	19.3	0.00e+00	0	42	0	517996544	54	4353
2026-01-11 11:42:39.43	148.53	15.90	-41.2	-43.1	19.2	0.00e+00	0	42	0	524288000	54	4386
2026-01-11 11:42:40.42	148.50	16.01	-41.3	-43.2	19.2	0.00e+00	0	42	0	529530880	54	4428
2026-01-11 11:42:41.42	148.47	16.12	-41.2	-43.1	19.2	0.00e+00	0	42	0	534773760	54	4377
2026-01-11 11:42:42.41	148.44	16.23	-41.2	-43.1	19.3	0.00e+00	0	42	0	540016640	54	4355
2026-01-11 11:42:43.40	148.40	16.34	-41.1	-43.1	19.3	0.00e+00	0	42	0	546308096	54	4343
2026-01-11 11:42:44.39	148.37	16.45	-41.2	-43.1	19.3	0.00e+00	0	42	0	551550976	54	4360
2026-01-11 11:42:45.39	148.34	16.57	-41.2	-43.1	19.3	0.00e+00	0	42	0	557842432	54	4366
2026-01-11 11:42:46.38	148.31	16.68	-41.3	-43.2	19.2	0.00e+00	0	42	0	563085312	54	4414
2026-01-11 11:42:47.37	148.27	16.79	-41.3	-43.2	19.2	0.00e+00	0	42	0	568328192	54	4420
2026-01-11 11:42:48.37	148.24	16.91	-41.1	-43.0	19.3	0.00e+00	0	43	0	573571072	54	4331
2026-01-11 11:42:49.36	148.21	17.02	-41.0	-43.0	19.4	0.00e+00	0	43	0	579862528	54	4294
2026-01-11 11:42:50.35	148.17	17.14	-41.0	-42.9	19.4	0.00e+00	0	42	0	585105408	54	4284
2026-01-11 11:42:51.35	148.14	17.25	-41.0	-42.9	19.4	0.00e+00	0	42	0	590348288	54	4289
2026-01-11 11:42:52.34	148.11	17.37	-40.9	-42.9	19.5	0.00e+00	0	43	0	596639744	53	4500
2026-01-11 11:42:53.33	148.07	17.48	-40.8	-42.7	19.6	0.00e+00	0	42	0	601882624	53	4414
2026-01-11 11:42:54.32	148.04	17.60	-40.9	-42.8	19.5	0.00e+00	0	43	0	608174080	53	4451
2026-01-11 11:42:55.32	148.00	17.72	-40.8	-42.7	19.6	0.00e+00	0	43	0	613416960	53	4412
2026-01-11 11:42:56.31	147.96	17.84	-40.8	-42.7	19.6	0.00e+00	0	42	0	618659840	53	4434
2026-01-11 11:42:57.30	147.93	17.95	-40.8	-42.7	19.6	0.00e+00	0	43	0	623902720	53	4398
2026-01-11 11:42:58.30	147.89	18.07	-40.6	-42.5	19.8	0.00e+00	0	42	0	630194176	53	4324
2026-01-11 11:42:59.29	147.86	18.19	-40.6	-42.4	19.9	0.00e+00	0	42	0	635437056	53	4289
2026-01-11 11:43:00.28	147.82	18.31	-40.6	-42.5	19.8	0.00e+00	0	43	0	640679936	53	4320
2026-01-11 11:43:01.27	147.78	18.43	-40.7	-42.6	19.7	0.00e+00	0	42	0	646971392	53	4361
2026-01-11 11:43:02.27	147.75	18.56	-40.7	-42.5	19.8	0.00e+00	0	42	0	652214272	53	4334
2026-01-11 11:43:03.26	147.71	18.68	-40.5	-42.4	19.9	0.00e+00	0	43	0	657457152	53	4276
2026-01-11 11:43:04.25	147.67	18.80	-40.6	-42.5	19.8	0.00e+00	0	43	0	663748608	53	4298
2026-01-11 11:43:05.25	147.63	18.92	-40.6	-42.4	19.9	0.00e+00	0	43	0	668991488	53	4284
2026-01-11 11:43:06.24	147.59	19.05	-40.5	-42.4	19.9	0.00e+00	0	43	0	674234368	53	4268
2026-01-11 11:43:07.23	147.55	19.17	-40.6	-42.4	19.9	0.00e+00	0	43	0	680525824	53	4283
2026-01-11 11:43:08.23	147.51	19.30	-40.5	-42.4	19.9	0.00e+00	0	42	0	685768704	53	4257
2026-01-11 11:43:09.22	147.47	19.42	-40.5	-42.4	19.9	0.00e+00	0	42	0	691011584	53	4259
2026-01-11 11:43:10.21	147.43	19.55	-40.6	-42.4	19.9	0.00e+00	0	43	0	697303040	53	4285
2026-01-11 11:43:11.20	147.39	19.68	-40.5	-42.4	19.9	0.00e+00	0	43	0	702545920	53	4266
2026-01-11 11:43:12.20	147.35	19.80	-40.5	-42.4	19.9	0.00e+00	0	43	0	707788800	53	4247
2026-01-11 11:43:13.19	147.31	19.93	-40.6	-42.4	19.8	0.00e+00	0	43	0	714080256	53	4286
2026-01-11 11:43:14.18	147.27	20.06	-40.5	-42.4	19.8	0.00e+00	0	43	0	719323136	53	4250
2026-01-11 11:43:15.18	147.23	20.19	-40.4	-42.2	20.0	0.00e+00	0	42	0	724566016	52	4422
2026-01-11 11:43:16.17	147.19	20.32	-40.4	-42.3	20.0	0.00e+00	0	42	0	729808896	52	4444
2026-01-11 11:43:17.16	147.14	20.45	-40.4	-42.3	20.0	0.00e+00	0	43	0	736100352	52	4472
2026-01-11 11:43:18.15	147.10	20.58	-40.4	-42.2	20.1	0.00e+00	0	43	0	741343232	52	4431
2026-01-11 11:43:19.15	147.06	20.72	-40.3	-42.2	20.0	0.00e+00	0	42	0	747634688	52	4423
2026-01-11 11:43:20.14	147.01	20.85	-40.3	-42.1	20.1	0.00e+00	0	43	0	752877568	52	4386
2026-01-11 11:43:21.13	146.97	20.98	-40.3	-42.1	20.2	0.00e+00	0	43	0	758120448	52	4377
2026-01-11 11:43:22.12	146.92	21.12	-40.2	-42.1	20.2	0.00e+00	0	43	0	764411904	52	4350
2026-01-11 11:43:23.12	146.88	21.25	-40.2	-42.1	20.2	0.00e+00	0	43	0	769654784	52	4343
2026-01-11 11:43:24.11	146.83	21.39	-40.3	-42.1	20.2	0.00e+00	0	43	0	774897664	52	4366
2026-01-11 11:43:25.10	146.79	21.52	-40.1	-42.0	20.2	0.00e+00	0	43	0	781189120	52	4315
2026-01-11 11:43:26.10	146.74	21.66	-40.2	-42.0	20.2	0.00e+00	0	43	0	786432000	52	4330
2026-01-11 11:43:27.09	146.70	21.80	-40.1	-42.0	20.3	0.00e+00	0	42	0	791674880	52	4304
2026-01-11 11:43:28.08	146.65	21.94	-40.2	-42.0	20.3	0.00e+00	0	43	0	797966336	52	4336
2026-01-11 11:43:29.08	146.60	22.08	-40.1	-42.0	20.3	0.00e+00	0	43	0	803209216	52	4320
2026-01-11 11:43:30.07	146.55	22.22	-40.1	-42.0	20.3	0.00e+00	0	42	0	808452096	52	4296
2026-01-11 11:43:31.06	146.50	22.36	-40.0	-41.9	20.4	0.00e+00	0	43	0	813694976	52	4253
2026-01-11 11:43:32.05	146.45	22.50	-40.0	-41.9	20.3	0.00e+00	0	43	0	819986432	52	4273
2026-01-11 11:43:33.05	146.41	22.64	-40.1	-41.9	20.4	0.00e+00	0	43	0	825229312	52	4287
2026-01-11 11:43:34.04	146.36	22.78	-40.0	-41.9	20.4	0.00e+00	0	43	0	831520768	51	4499
2026-01-11 11:43:35.03	146.30	22.93	-40.0	-41.9	20.5	0.00e+00	0	43	0	836763648	51	4506
2026-01-11 11:43:36.02	146.25	23.07	-40.1	-41.9	20.4	0.00e+00	0	43	0	842006528	51	4543
2026-01-11 11:43:37.02	146.20	23.22	-40.0	-41.9	20.5	0.00e+00	0	43	0	847249408	51	4497
2026-01-11 11:43:38.01	146.15	23.36	-40.0	-41.8	20.5	0.00e+00	0	43	0	853540864	51	4484
2026-01-11 11:43:39.01	146.10	23.51	-40.1	-42.0	20.4	0.00e+00	0	43	0	858783744	51	4550
2026-01-11 11:43:40.00	146.04	23.66	-40.1	-41.9	20.4	0.00e+00	0	43	0	864026624	51	4525
2026-01-11 11:43:40.99	145.99	23.81	-40.1	-41.9	20.4	0.00e+00	0	43	0	870318080	51	4528
2026-01-11 11:43:41.98	145.94	23.96	-40.1	-41.9	20.4	0.00e+00	0	43	0	875560960	51	4543
2026-01-11 11:43:42.98	145.88	24.11	-40.0	-41.8	20.5	0.00e+00	0	42	0	881852416	51	4479
2026-01-11 11:43:43.97	145.83	24.26	-40.0	-41.9	20.5	0.00e+00	0	42	0	887095296	51	4500
2026-01-11 11:43:44.96	145.77	24.41	-40.0	-41.9	20.5	0.00e+00	0	43	0	892338176	51	4498
2026-01-11 11:43:45.95	145.72	24.56	-40.0	-41.9	20.5	0.00e+00	0	43	0	897581056	51	4509
2026-01-11 11:43:46.95	145.66	24.72	-39.9	-41.7	20.6	0.00e+00	0	43	0	903872512	51	4440
2026-01-11 11:43:47.94	145.60	24.87	-39.9	-41.8	20.6	0.00e+00	0	43	0	909115392	51	4443
2026-01-11 11:43:48.93	145.54	25.03	-39.9	-41.7	20.7	0.00e+00	0	43	0	914358272	51	4397
2026-01-11 11:43:49.93	145.48	25.18	-39.7	-41.5	20.8	0.00e+00	0	43	0	920649728	51	4337
2026-01-11 11:43:50.92	145.43	25.34	-39.7	-41.6	20.7	0.00e+00	0	43	0	925892608	51	4350
2026-01-11 11:43:51.91	145.37	25.50	-39.8	-41.6	20.7	0.00e+00	0	43	0	931135488	51	4366
2026-01-11 11:43:52.91	145.30	25.66	-39.7	-41.5	20.8	0.00e+00	0	43	0	937426944	51	4327
2026-01-11 11:43:53.90	145.24	25.82	-39.7	-41.5	20.8	0.00e+00	0	43	0	942669824	51	4323
2026-01-11 11:43:54.89	145.18	25.98	-39.7	-41.5	20.8	0.00e+00	0	43	0	947912704	51	4332
2026-01-11 11:43:55.88	145.12	26.14	-39.6	-41.4	20.9	0.00e+00	0	43	0	954204160	51	4272
2026-01-11 11:43:56.88	145.06	26.30	-39.6	-41.4	20.9	0.00e+00	0	43	0	959447040	51	4246
2026-01-11 11:43:57.87	144.99	26.47	-39.7	-41.5	20.8	0.00e+00	0	43	0	964689920	51	4304
2026-01-11 11:43:58.86	144.93	26.63	-39.7	-41.5	20.8	0.00e+00	0	43	0	970981376	51	4330
2026-01-11 11:43:59.86	144.86	26.80	-39.7	-41.5	20.8	0.00e+00	0	43	0	976224256	51	4335
2026-01-11 11:44:00.85	144.80	26.96	-39.8	-41.6	20.7	0.00e+00	0	43	0	981467136	51	4376
2026-01-11 11:44:01.84	144.73	27.13	-39.8	-41.6	20.7	0.00e+00	0	43	0	987758592	51	4375
2026-01-11 11:44:02.83	144.66	27.30	-39.7	-41.6	20.7	0.00e+00	0	43	0	993001472	51	4344
2026-01-11 11:44:03.83	144.59	27.47	-39.7	-41.5	20.7	0.00e+00	0	43	0	998244352	51	4336
2026-01-11 11:44:04.82	144.53	27.64	-39.8	-41.6	20.7	0.00e+00	0	43	0	1003487232	51	4359
2026-01-11 11:44:05.81	144.46	27.81	-39.6	-41.4	20.9	0.00e+00	0	43	0	1009778688	51	4245
2026-01-11 11:44:06.80	144.39	27.98	-39.5	-41.3	21.0	0.00e+00	0	43	0	1015021568	51	4198
2026-01-11 11:44:07.80	144.32	28.16	-39.5	-41.3	21.0	0.00e+00	0	43	0	1021313024	51	4227
2026-01-11 11:44:08.79	144.24	28.33	-39.5	-41.3	21.0	0.00e+00	0	43	0	1026555904	51	4218
2026-01-11 11:44:09.78	144.17	28.51	-39.5	-41.3	21.0	0.00e+00	0	43	0	1031798784	50	4443
2026-01-11 11:44:10.78	144.10	28.69	-39.4	-41.2	21.1	0.00e+00	0	43	0	1038090240	50	4401
2026-01-11 11:44:11.77	144.02	28.86	-39.4	-41.2	21.1	0.00e+00	0	43	0	1043333120	50	4428
2026-01-11 11:44:12.76	143.95	29.04	-39.5	-41.3	21.0	0.00e+00	0	43	0	1048576000	50	4469
2026-01-11 11:44:13.75	143.87	29.22	-39.4	-41.2	21.1	0.00e+00	0	43	0	1053818880	50	4428
2026-01-11 11:44:14.75	143.79	29.40	-39.4	-41.2	21.1	0.00e+00	0	43	0	1060110336	50	4410
2026-01-11 11:44:15.74	143.72	29.59	-39.3	-41.0	21.2	0.00e+00	0	43	0	1065353216	50	4339
2026-01-11 11:44:16.73	143.64	29.77	-39.1	-40.9	21.3	0.00e+00	0	43	0	1071644672	50	4274
2026-01-11 11:44:17.72	143.56	29.95	-39.2	-41.0	21.3	0.00e+00	0	43	0	1076887552	50	4302
2026-01-11 11:44:18.72	143.48	30.14	-39.1	-40.9	21.3	0.00e+00	0	43	0	1082130432	50	4264
2026-01-11 11:44:19.71	143.39	30.33	-39.1	-40.9	21.3	0.00e+00	0	43	0	1087373312	50	4266
2026-01-11 11:44:20.70	143.31	30.51	-39.2	-40.9	21.3	0.00e+00	0	43	0	1093664768	50	4283
2026-01-11 11:44:21.69	143.23	30.70	-39.1	-40.9	21.3	0.00e+00	0	43	0	1098907648	50	4267
2026-01-11 11:44:22.69	143.14	30.89	-39.2	-40.9	21.3	0.00e+00	0	43	0	1105199104	50	4282
2026-01-11 11:44:23.68	143.06	31.08	-39.1	-40.9	21.3	0.00e+00	0	43	0	1110441984	50	4256
2026-01-11 11:44:24.67	142.97	31.28	-39.1	-40.9	21.3	0.00e+00	0	43	0	1115684864	50	4263
2026-01-11 11:44:25.67	142.88	31.47	-39.1	-40.9	21.3	0.00e+00	0	43	0	1120927744	50	4265
2026-01-11 11:44:26.66	142.79	31.67	-39.1	-40.9	21.3	0.00e+00	0	43	0	1127219200	50	4274
2026-01-11 11:44:27.65	142.70	31.86	-39.0	-40.8	21.4	0.00e+00	0	43	0	1132462080	50	4226
2026-01-11 11:44:28.64	142.61	32.06	-39.0	-40.8	21.3	0.00e+00	0	43	0	1137704960	50	4231
2026-01-11 11:44:29.64	142.52	32.26	-39.1	-40.9	21.3	0.00e+00	0	43	0	1143996416	50	4243
2026-01-11 11:44:30.63	142.43	32.46	-39.2	-41.0	21.2	0.00e+00	0	43	0	1149239296	50	4311
2026-01-11 11:44:31.62	142.33	32.66	-39.2	-41.0	21.2	0.00e+00	0	43	0	1155530752	50	4310
2026-01-11 11:44:32.62	142.23	32.86	-39.2	-41.0	21.2	0.00e+00	0	43	0	1160773632	50	4314
2026-01-11 11:44:33.61	142.14	33.07	-39.2	-40.9	21.2	0.00e+00	0	43	0	1166016512	50	4284
2026-01-11 11:44:34.60	142.04	33.27	-39.2	-41.0	21.2	0.00e+00	0	43	0	1171259392	50	4301
2026-01-11 11:44:35.59	141.94	33.48	-39.2	-41.0	21.2	0.00e+00	0	43	0	1177550848	50	4311
2026-01-11 11:44:36.59	141.84	33.68	-39.2	-41.0	21.2	0.00e+00	0	43	0	1182793728	50	4314
2026-01-11 11:44:37.58	141.74	33.89	-39.1	-40.9	21.3	0.00e+00	0	43	0	1188036608	50	4251
2026-01-11 11:44:38.57	141.63	34.10	-39.0	-40.7	21.5	0.00e+00	0	43	0	1194328064	50	4181
2026-01-11 11:44:39.57	141.53	34.32	-39.0	-40.7	21.5	0.00e+00	0	43	0	1199570944	50	4189
2026-01-11 11:44:40.56	141.42	34.53	-39.1	-40.9	21.4	0.00e+00	0	43	0	1204813824	50	4257
2026-01-11 11:44:41.55	141.31	34.74	-39.0	-40.8	21.5	0.00e+00	0	43	0	1211105280	50	4207
2026-01-11 11:44:42.55	141.20	34.96	-39.1	-40.8	21.4	0.00e+00	0	43	0	1216348160	50	4237
2026-01-11 11:44:43.54	141.09	35.17	-39.0	-40.8	21.5	0.00e+00	0	43	0	1221591040	50	4200
2026-01-11 11:44:44.53	140.98	35.39	-39.1	-40.9	21.4	0.00e+00	0	43	0	1227882496	50	4261
2026-01-11 11:44:45.52	140.86	35.61	-39.1	-40.9	21.3	0.00e+00	0	43	0	1233125376	50	4264
2026-01-11 11:44:46.52	140.75	35.83	-39.2	-41.0	21.3	0.00e+00	0	43	0	1238368256	50	4292
2026-01-11 11:44:47.51	140.63	36.06	-39.2	-41.0	21.3	0.00e+00	0	43	0	1244659712	50	4296
2026-01-11 11:44:48.50	140.51	36.28	-39.2	-41.0	21.3	0.00e+00	0	43	0	1249902592	50	4314
2026-01-11 11:44:49.50	140.39	36.51	-39.1	-40.8	21.4	0.00e+00	0	43	0	1255145472	50	4239
2026-01-11 11:44:50.49	140.27	36.73	-39.0	-40.8	21.4	0.00e+00	0	43	0	1261436928	50	4219
2026-01-11 11:44:51.48	140.15	36.96	-39.1	-40.8	21.4	0.00e+00	0	43	0	1266679808	50	4227
2026-01-11 11:44:52.47	140.02	37.19	-39.0	-40.8	21.5	0.00e+00	0	43	0	1271922688	50	4199
2026-01-11 11:44:53.47	139.89	37.42	-38.9	-40.7	21.5	0.00e+00	0	43	0	1277165568	49	4409
2026-01-11 11:44:54.46	139.76	37.65	-39.0	-40.7	21.5	0.00e+00	0	43	0	1283457024	49	4416
2026-01-11 11:44:55.45	139.63	37.89	-39.0	-40.8	21.5	0.00e+00	0	43	0	1288699904	49	4454
2026-01-11 11:44:56.45	139.50	38.12	-39.1	-40.9	21.4	0.00e+00	0	43	0	1294991360	49	4496
2026-01-11 11:44:57.44	139.36	38.36	-39.1	-40.9	21.4	0.00e+00	0	43	0	1300234240	49	4512
2026-01-11 11:44:58.43	139.22	38.60	-39.2	-41.0	21.3	0.00e+00	0	43	0	1305477120	49	4550
2026-01-11 11:44:59.43	139.08	38.84	-39.2	-41.0	21.2	0.00e+00	0	43	0	1311768576	49	4583
2026-01-11 11:45:00.42	138.94	39.08	-39.2	-41.0	21.3	0.00e+00	0	43	0	1317011456	49	4555
2026-01-11 11:45:01.41	138.80	39.32	-39.3	-41.1	21.2	0.00e+00	0	43	0	1322254336	49	4607
2026-01-11 11:45:02.40	138.65	39.56	-39.1	-40.9	21.4	0.00e+00	0	43	0	1327497216	49	4515
2026-01-11 11:45:03.40	138.50	39.81	-39.1	-40.9	21.4	0.00e+00	0	43	0	1333788672	49	4520
2026-01-11 11:45:04.39	138.35	40.06	-39.2	-40.9	21.4	0.00e+00	0	43	0	1339031552	49	4530
2026-01-11 11:45:05.38	138.20	40.31	-39.3	-41.0	21.3	0.00e+00	0	43	0	1345323008	49	4585
2026-01-11 11:45:06.38	138.04	40.56	-39.5	-41.3	21.0	0.00e+00	0	43	0	1350565888	49	4755
2026-01-11 11:45:07.37	137.89	40.81	-39.7	-41.6	20.8	0.00e+00	0	43	0	1355808768	50	4604
2026-01-11 11:45:08.36	137.73	41.06	-39.8	-41.7	20.7	0.00e+00	0	43	0	1361051648	50	4663
2026-01-11 11:45:09.36	137.56	41.32	-39.6	-41.5	20.9	0.00e+00	0	43	0	1367343104	50	4548
2026-01-11 11:45:10.35	137.40	41.58	-39.5	-41.3	21.0	0.00e+00	0	43	0	1372585984	50	4476
2026-01-11 11:45:11.34	137.23	41.83	-39.5	-41.3	21.0	0.00e+00	0	42	0	1377828864	50	4473
2026-01-11 11:45:12.33	137.06	42.09	-39.4	-41.1	21.2	0.00e+00	0	43	0	1384120320	50	4385
2026-01-11 11:45:13.33	136.88	42.35	-39.4	-41.2	21.2	0.00e+00	0	43	0	1389363200	50	4405
2026-01-11 11:45:14.32	136.71	42.62	-39.5	-41.3	21.1	0.00e+00	0	43	0	1394606080	50	4444
2026-01-11 11:45:15.31	136.53	42.88	-39.5	-41.3	21.1	0.00e+00	0	43	0	1400897536	50	4474
2026-01-11 11:45:16.31	136.35	43.15	-39.6	-41.4	21.0	0.00e+00	0	43	0	1406140416	50	4495
2026-01-11 11:45:17.30	136.16	43.41	-39.4	-41.2	21.1	0.00e+00	0	43	0	1411383296	50	4416
2026-01-11 11:45:18.29	135.97	43.68	-39.4	-41.2	21.1	0.00e+00	0	43	0	1417674752	50	4434
2026-01-11 11:45:19.28	135.78	43.95	-39.5	-41.2	21.1	0.00e+00	0	43	0	1422917632	50	4434
2026-01-11 11:45:20.28	135.58	44.22	-39.6	-41.4	21.0	0.00e+00	0	43	0	1428160512	50	4501
2026-01-11 11:45:21.27	135.38	44.50	-39.6	-41.4	20.9	0.00e+00	0	43	0	1434451968	50	4535
2026-01-11 11:45:22.26	135.18	44.77	-39.6	-41.4	21.0	0.00e+00	0	43	0	1439694848	50	4501
2026-01-11 11:45:23.26	134.97	45.05	-39.5	-41.3	21.1	0.00e+00	0	43	0	1444937728	50	4442
2026-01-11 11:45:24.25	134.77	45.32	-39.4	-41.2	21.2	0.00e+00	0	43	0	1451229184	50	4397
2026-01-11 11:45:25.24	134.55	45.60	-39.3	-41.0	21.3	0.00e+00	0	43	0	1456472064	50	4338
2026-01-11 11:45:26.24	134.33	45.89	-39.4	-41.1	21.2	0.00e+00	0	43	0	1461714944	50	4381
2026-01-11 11:45:27.23	134.11	46.17	-39.4	-41.2	21.2	0.00e+00	0	43	0	1468006400	50	4409
2026-01-11 11:45:28.22	133.89	46.45	-39.4	-41.2	21.2	0.00e+00	0	43	0	1473249280	50	4405
2026-01-11 11:45:29.21	133.66	46.73	-39.4	-41.2	21.2	0.00e+00	0	43	0	1478492160	50	4416
2026-01-11 11:45:30.21	133.42	47.02	-39.4	-41.2	21.2	0.00e+00	0	43	0	1484783616	50	4401
2026-01-11 11:45:31.20	133.19	47.31	-39.5	-41.3	21.1	0.00e+00	0	43	0	1490026496	50	4467
2026-01-11 11:45:32.19	132.94	47.60	-39.7	-41.4	21.0	0.00e+00	0	43	0	1495269376	50	4541
2026-01-11 11:45:33.19	132.69	47.89	-39.8	-41.5	20.9	0.00e+00	0	43	0	1501560832	50	4598
2026-01-11 11:45:34.18	132.44	48.18	-39.7	-41.5	21.0	0.00e+00	0	43	0	1506803712	50	4554
2026-01-11 11:45:35.17	132.19	48.47	-39.7	-41.5	20.9	0.00e+00	0	43	0	1512046592	50	4581
2026-01-11 11:45:36.16	131.93	48.77	-39.8	-41.5	20.9	0.00e+00	0	43	0	1518338048	50	4594
2026-01-11 11:45:37.16	131.66	49.07	-39.9	-41.7	20.8	0.00e+00	0	43	0	1523580928	50	4655
2026-01-11 11:45:38.15	131.39	49.36	-40.1	-41.9	20.6	0.00e+00	0	43	0	1528823808	50	4788
2026-01-11 11:45:39.14	131.11	49.66	-40.3	-42.1	20.4	0.00e+00	0	43	0	1535115264	51	4651
2026-01-11 11:45:40.14	130.82	49.96	-40.3	-42.2	20.4	0.00e+00	0	43	0	1540358144	51	4665
2026-01-11 11:45:41.13	130.54	50.26	-40.3	-42.1	20.5	0.00e+00	0	43	0	1545601024	51	4607
2026-01-11 11:45:42.12	130.24	50.56	-40.3	-42.2	20.4	0.00e+00	0	43	0	1551892480	51	4654
2026-01-11 11:45:43.11	129.94	50.87	-40.7	-42.5	20.1	0.00e+00	0	43	0	1557135360	51	4854
2026-01-11 11:45:44.11	129.63	51.17	-40.6	-42.5	20.0	0.00e+00	0	43	0	1562378240	52	4568
2026-01-11 11:45:45.10	129.32	51.48	-40.5	-42.4	20.1	0.00e+00	0	43	0	1568669696	52	4501
2026-01-11 11:45:46.09	129.00	51.78	-40.5	-42.3	20.2	0.00e+00	0	43	0	1573912576	52	4463
2026-01-11 11:45:47.09	128.67	52.09	-40.6	-42.4	20.2	0.00e+00	0	43	0	1579155456	52	4497
2026-01-11 11:45:48.08	128.34	52.40	-40.3	-42.1	20.4	0.00e+00	0	43	0	1585446912	52	4361
2026-01-11 11:45:49.07	128.00	52.71	-40.1	-41.9	20.6	0.00e+00	0	43	0	1590689792	52	4284
2026-01-11 11:45:50.07	127.65	53.02	-40.0	-41.8	20.7	0.00e+00	0	43	0	1595932672	51	4489
2026-01-11 11:45:51.06	127.29	53.33	-40.0	-41.8	20.8	0.00e+00	0	43	0	1601175552	51	4453
2026-01-11 11:45:52.05	126.93	53.64	-40.0	-41.8	20.8	0.00e+00	0	43	0	1607467008	51	4466
2026-01-11 11:45:53.05	126.56	53.96	-39.9	-41.7	20.8	0.00e+00	0	43	0	1612709888	51	4402
2026-01-11 11:45:54.04	126.18	54.27	-39.8	-41.6	20.9	0.00e+00	0	43	0	1619001344	51	4347
2026-01-11 11:45:55.03	125.79	54.58	-39.8	-41.6	20.9	0.00e+00	0	43	0	1624244224	51	4367
2026-01-11 11:45:56.02	125.40	54.90	-40.1	-41.9	20.6	0.00e+00	0	43	0	1629487104	51	4526
2026-01-11 11:45:57.02	124.99	55.22	-40.2	-42.0	20.5	0.00e+00	0	43	0	1634729984	51	4570
2026-01-11 11:45:58.01	124.58	55.53	-40.1	-41.9	20.6	0.00e+00	0	43	0	1641021440	51	4527
2026-01-11 11:45:59.00	124.15	55.84	-40.2	-41.9	20.6	0.00e+00	0	43	0	1646264320	51	4542
2026-01-11 11:45:59.99	123.72	56.16	-40.1	-41.9	20.6	0.00e+00	0	43	0	1651507200	51	4526
2026-01-11 11:46:00.99	123.27	56.48	-40.2	-42.1	20.4	0.00e+00	0	43	0	1657798656	51	4610
2026-01-11 11:46:01.98	122.82	56.79	-40.3	-42.2	20.4	0.00e+00	0	43	0	1663041536	51	4659
2026-01-11 11:46:02.97	122.36	57.11	-40.2	-42.0	20.6	0.00e+00	0	43	0	1669332992	51	4553
2026-01-11 11:46:03.97	121.88	57.43	-40.3	-42.1	20.5	0.00e+00	0	43	0	1674575872	51	4603
2026-01-11 11:46:04.96	121.39	57.74	-40.0	-41.8	20.7	0.00e+00	0	43	0	1679818752	51	4463
2026-01-11 11:46:05.95	120.89	58.06	-40.2	-42.0	20.5	0.00e+00	0	43	0	1685061632	51	4568
2026-01-11 11:46:06.94	120.39	58.37	-40.2	-42.1	20.4	0.00e+00	0	43	0	1691353088	51	4612
2026-01-11 11:46:07.94	119.86	58.69	-40.0	-41.8	20.6	0.00e+00	0	43	0	1696595968	51	4482
2026-01-11 11:46:08.93	119.33	59.00	-39.9	-41.7	20.8	0.00e+00	0	43	0	1701838848	51	4408
2026-01-11 11:46:09.92	118.78	59.31	-40.0	-41.9	20.6	0.00e+00	0	43	0	1708130304	51	4499
2026-01-11 11:46:10.92	118.21	59.63	-40.4	-42.2	20.3	0.00e+00	0	43	0	1713373184	51	4688
2026-01-11 11:46:11.91	117.64	59.94	-40.1	-41.9	20.6	0.00e+00	0	43	0	1718616064	51	4516
2026-01-11 11:46:12.90	117.05	60.25	-39.7	-41.5	21.0	0.00e+00	0	43	0	1724907520	51	4323
2026-01-11 11:46:13.90	116.44	60.56	-39.6	-41.3	21.1	0.00e+00	0	43	0	1730150400	51	4232
2026-01-11 11:46:14.89	115.83	60.86	-39.3	-41.1	21.3	0.00e+00	0	43	0	1735393280	50	4366
2026-01-11 11:46:15.88	115.19	61.17	-39.4	-41.2	21.3	0.00e+00	0	43	0	1741684736	50	4418
2026-01-11 11:46:16.87	114.55	61.47	-39.6	-41.3	21.1	0.00e+00	0	43	0	1746927616	50	4490
2026-01-11 11:46:17.87	113.88	61.77	-39.4	-41.2	21.2	0.00e+00	0	43	0	1752170496	50	4406
2026-01-11 11:46:18.86	113.19	62.07	-39.3	-41.0	21.4	0.00e+00	0	43	0	1758461952	50	4323
2026-01-11 11:46:19.85	112.50	62.37	-39.1	-40.9	21.5	0.00e+00	0	43	0	1763704832	50	4257
2026-01-11 11:46:20.85	111.78	62.67	-39.1	-40.9	21.5	0.00e+00	0	43	0	1768947712	50	4249
2026-01-11 11:46:21.84	111.04	62.96	-39.2	-41.0	21.4	0.00e+00	0	43	0	1775239168	50	4299
2026-01-11 11:46:22.83	110.29	63.25	-38.9	-40.6	21.6	0.00e+00	0	43	0	1780482048	49	4376
2026-01-11 11:46:23.82	109.52	63.53	-38.7	-40.4	21.8	0.00e+00	0	43	0	1785724928	49	4262
2026-01-11 11:46:24.82	108.73	63.82	-38.7	-40.4	21.8	0.00e+00	0	43	0	1792016384	49	4264
2026-01-11 11:46:25.81	107.92	64.10	-38.8	-40.6	21.7	0.00e+00	0	43	0	1797259264	49	4356
2026-01-11 11:46:26.80	107.09	64.37	-38.7	-40.5	21.8	0.00e+00	0	43	0	1802502144	49	4295
2026-01-11 11:46:27.80	106.24	64.65	-38.8	-40.5	21.7	0.00e+00	0	43	0	1808793600	49	4328
2026-01-11 11:46:28.79	105.37	64.92	-38.6	-40.3	21.9	0.00e+00	0	43	0	1814036480	49	4234
2026-01-11 11:46:29.78	104.48	65.18	-38.5	-40.2	22.1	0.00e+00	0	43	0	1819279360	49	4166
2026-01-11 11:46:30.77	103.57	65.44	-38.2	-39.9	22.3	0.00e+00	0	43	0	1825570816	48	4261
2026-01-11 11:46:31.77	102.63	65.69	-38.2	-39.9	22.3	0.00e+00	0	43	0	1830813696	48	4245
2026-01-11 11:46:32.76	101.68	65.94	-38.5	-40.3	21.9	0.00e+00	0	43	0	1836056576	48	4447
2026-01-11 11:46:33.75	100.70	66.18	-38.7	-40.4	21.8	0.00e+00	0	43	0	1842348032	48	4534
2026-01-11 11:46:34.75	99.70	66.42	-38.5	-40.2	21.9	0.00e+00	0	43	0	1847590912	48	4435
2026-01-11 11:46:35.74	98.68	66.65	-38.2	-39.9	22.2	0.00e+00	0	43	0	1852833792	48	4248
2026-01-11 11:46:36.73	97.64	66.88	-38.1	-39.8	22.3	0.00e+00	0	43	0	1859125248	48	4206
2026-01-11 11:46:37.73	96.57	67.10	-38.3	-40.0	22.1	0.00e+00	0	43	0	1864368128	48	4337
2026-01-11 11:46:38.72	95.48	67.31	-38.2	-40.0	22.2	0.00e+00	0	43	0	1869611008	48	4297
2026-01-11 11:46:39.71	94.38	67.52	-38.4	-40.1	22.0	0.00e+00	0	43	0	1874853888	48	4359
2026-01-11 11:46:40.70	93.25	67.71	-38.2	-39.9	22.2	0.00e+00	0	43	0	1881145344	48	4282
2026-01-11 11:46:41.70	92.09	67.90	-38.3	-40.0	22.2	0.00e+00	0	43	0	1886388224	48	4307
2026-01-11 11:46:42.69	90.91	68.08	-38.3	-40.1	22.1	0.00e+00	0	43	0	1892679680	48	4356
2026-01-11 11:46:43.68	89.72	68.26	-38.4	-40.2	22.0	0.00e+00	0	43	0	1897922560	48	4394
2026-01-11 11:46:44.68	88.50	68.42	-38.5	-40.2	22.0	0.00e+00	0	43	0	1903165440	48	4427
2026-01-11 11:46:45.67	87.27	68.58	-38.1	-39.8	22.2	0.00e+00	0	43	0	1908408320	48	4233
2026-01-11 11:46:46.66	86.02	68.72	-38.2	-39.9	22.2	0.00e+00	0	43	0	1914699776	48	4266
2026-01-11 11:46:47.66	84.73	68.86	-38.3	-40.0	22.1	0.00e+00	0	43	0	1919942656	48	4340
2026-01-11 11:46:48.65	83.45	68.99	-38.3	-40.0	22.2	0.00e+00	0	43	0	1925185536	48	4304
2026-01-11 11:46:49.64	82.15	69.11	-38.4	-40.1	22.0	0.00e+00	0	43	0	1931476992	48	4384
2026-01-11 11:46:50.63	80.83	69.21	-38.3	-40.0	22.1	0.00e+00	0	43	0	1936719872	48	4328
2026-01-11 11:46:51.63	79.48	69.31	-38.4	-40.1	22.1	0.00e+00	0	43	0	1943011328	48	4372
2026-01-11 11:46:52.62	78.14	69.40	-38.3	-40.0	22.1	0.00e+00	0	43	0	1948254208	48	4335
2026-01-11 11:46:53.61	76.78	69.47	-38.3	-40.0	22.1	0.00e+00	0	43	0	1953497088	48	4312
2026-01-11 11:46:54.60	75.42	69.54	-38.4	-40.1	22.1	0.00e+00	0	43	0	1958739968	48	4360
2026-01-11 11:46:55.60	74.03	69.59	-38.4	-40.1	22.0	0.00e+00	0	43	0	1965031424	48	4358
2026-01-11 11:46:56.59	72.65	69.64	-38.5	-40.2	21.9	0.00e+00	0	43	0	1970274304	48	4417
2026-01-11 11:46:57.58	71.26	69.67	-38.4	-40.2	22.0	0.00e+00	0	43	0	1975517184	48	4393
2026-01-11 11:46:58.58	69.86	69.69	-38.5	-40.2	22.0	0.00e+00	0	43	0	1981808640	48	4416
2026-01-11 11:46:59.57	68.46	69.70	-38.6	-40.3	21.9	0.00e+00	0	43	0	1987051520	48	4481
2026-01-11 11:47:00.56	67.07	69.70	-38.5	-40.2	22.0	0.00e+00	0	43	0	1992294400	48	4440
2026-01-11 11:47:01.56	65.67	69.68	-38.4	-40.1	22.1	0.00e+00	0	43	0	1998585856	48	4360
2026-01-11 11:47:02.55	64.28	69.66	-38.3	-40.0	22.2	0.00e+00	0	43	0	2003828736	48	4324
2026-01-11 11:47:03.54	62.89	69.62	-38.4	-40.2	22.0	0.00e+00	0	43	0	2009071616	48	4398
2026-01-11 11:47:04.53	61.51	69.58	-38.5	-40.2	22.0	0.00e+00	0	43	0	2015363072	48	4438
2026-01-11 11:47:05.53	60.13	69.52	-38.3	-40.0	22.1	0.00e+00	0	43	0	2020605952	48	4325
2026-01-11 11:47:06.52	58.77	69.45	-38.2	-39.9	22.3	0.00e+00	0	43	0	2025848832	48	4252
2026-01-11 11:47:07.51	57.41	69.37	-38.4	-40.2	22.0	0.00e+00	0	43	0	2032140288	48	4415
2026-01-11 11:47:08.51	56.06	69.28	-38.4	-40.2	22.0	0.00e+00	0	43	0	2037383168	48	4392
2026-01-11 11:47:09.50	54.73	69.18	-38.3	-39.9	22.2	0.00e+00	0	43	0	2042626048	48	4286
2026-01-11 11:47:10.49	53.42	69.07	-38.3	-40.0	22.1	0.00e+00	0	43	0	2048917504	48	4323
2026-01-11 11:47:11.48	52.13	68.95	-38.4	-40.2	22.0	0.00e+00	0	43	0	2054160384	48	4401
2026-01-11 11:47:12.48	50.83	68.82	-38.3	-40.0	22.1	0.00e+00	0	43	0	2059403264	48	4338
2026-01-11 11:47:13.47	49.57	68.68	-38.3	-40.0	22.1	0.00e+00	0	43	0	2064646144	48	4332
2026-01-11 11:47:14.46	48.33	68.53	-38.4	-40.1	22.1	0.00e+00	0	43	0	2070937600	48	4368
2026-01-11 11:47:15.46	47.09	68.37	-38.4	-40.1	22.1	0.00e+00	0	43	0	2076180480	48	4361
2026-01-11 11:47:16.45	45.89	68.20	-38.3	-40.0	22.2	0.00e+00	0	43	0	2082471936	48	4328
2026-01-11 11:47:17.44	44.70	68.03	-38.4	-40.1	22.1	0.00e+00	0	43	0	2087714816	48	4362
2026-01-11 11:47:18.43	43.54	67.84	-38.6	-40.3	22.0	0.00e+00	0	43	0	2092957696	48	4463
2026-01-11 11:47:19.43	42.39	67.65	-38.5	-40.2	22.1	0.00e+00	0	43	0	2099249152	48	4403
2026-01-11 11:47:20.40	41.29	67.45	-38.4	-40.1	22.1	0.00e+00	0	43	0	2104492032	48	4386
2026-01-11 11:47:21.39	40.19	67.25	-38.5	-40.3	22.0	0.00e+00	0	43	0	2109734912	48	4459
2026-01-11 11:47:22.39	39.10	67.03	-38.5	-40.2	22.0	0.00e+00	0	43	0	2114977792	48	4408
2026-01-11 11:47:23.38	38.05	66.81	-38.4	-40.1	22.0	0.00e+00	0	43	0	2121269248	48	4390
2026-01-11 11:47:24.37	37.02	66.59	-38.5	-40.2	22.0	0.00e+00	0	43	0	2126512128	48	4428
2026-01-11 11:47:25.37	36.00	66.35	-38.5	-40.2	22.0	0.00e+00	0	43	0	2132803584	48	4423
2026-01-11 11:47:26.36	35.01	66.11	-38.3	-40.0	22.2	0.00e+00	0	43	0	2138046464	48	4315
2026-01-11 11:47:27.35	34.04	65.87	-38.0	-39.7	22.5	0.00e+00	0	43	0	2143289344	48	4153
2026-01-11 11:47:28.34	33.10	65.62	-38.0	-39.7	22.1	0.00e+00	0	43	0	2148532224	47	4433
2026-01-11 11:47:29.34	32.16	65.36	-38.3	-40.0	21.9	0.00e+00	0	43	0	2154823680	47	4579
2026-01-11 11:47:30.33	31.26	65.10	-38.4	-40.1	21.8	0.00e+00	0	43	0	2160066560	47	4630
2026-01-11 11:47:31.32	30.38	64.84	-38.5	-40.2	21.7	0.00e+00	0	43	0	2166358016	47	4679
2026-01-11 11:47:32.32	29.51	64.57	-38.5	-40.2	21.7	0.00e+00	0	43	0	2171600896	47	4700
2026-01-11 11:47:33.31	28.67	64.30	-38.6	-40.4	21.6	0.00e+00	0	43	0	2176843776	47	4768
2026-01-11 11:47:34.30	27.85	64.02	-38.8	-40.6	21.7	0.00e+00	0	43	0	2182086656	48	4614
2026-01-11 11:47:35.30	27.05	63.74	-39.0	-40.7	21.6	0.00e+00	0	43	0	2188378112	48	4704
2026-01-11 11:47:36.29	26.26	63.46	-38.9	-40.7	21.7	0.00e+00	0	43	0	2193620992	48	4664
2026-01-11 11:47:37.28	25.50	63.17	-38.7	-40.4	21.9	0.00e+00	0	43	0	2198863872	48	4529
2026-01-11 11:47:38.27	24.76	62.88	-38.7	-40.4	21.9	0.00e+00	0	43	0	2205155328	48	4538
2026-01-11 11:47:39.27	24.02	62.58	-39.0	-40.7	21.7	0.00e+00	0	43	0	2210398208	48	4693
2026-01-11 11:47:40.26	23.32	62.29	-39.1	-40.8	21.6	0.00e+00	0	43	0	2216689664	48	4735
2026-01-11 11:47:41.25	22.63	61.99	-39.0	-40.8	21.6	0.00e+00	0	43	0	2221932544	48	4726
2026-01-11 11:47:42.24	21.95	61.69	-39.0	-40.8	21.5	0.00e+00	0	43	0	2227175424	48	4728
2026-01-11 11:47:43.24	21.29	61.39	-39.2	-40.9	21.4	0.00e+00	0	43	0	2232418304	48	4796
2026-01-11 11:47:44.23	20.64	61.09	-39.1	-40.8	21.5	0.00e+00	0	43	0	2238709760	49	4488
2026-01-11 11:47:45.22	20.02	60.78	-39.0	-40.7	21.6	0.00e+00	0	43	0	2243952640	49	4440
2026-01-11 11:47:46.21	19.41	60.48	-38.9	-40.6	21.7	0.00e+00	0	43	0	2249195520	49	4384
2026-01-11 11:47:47.21	18.80	60.17	-39.0	-40.7	21.6	0.00e+00	0	43	0	2255486976	49	4435
2026-01-11 11:47:48.20	18.22	59.86	-39.2	-41.0	21.4	0.00e+00	0	43	0	2260729856	49	4567
2026-01-11 11:47:49.19	17.65	59.55	-39.3	-41.1	21.3	0.00e+00	0	43	0	2265972736	49	4620
2026-01-11 11:47:50.19	17.09	59.23	-39.5	-41.2	21.2	0.00e+00	0	43	0	2272264192	49	4705
2026-01-11 11:47:51.18	16.55	58.92	-39.6	-41.3	21.2	0.00e+00	0	43	0	2277507072	49	4750
2026-01-11 11:47:52.17	16.02	58.61	-39.6	-41.3	21.2	0.00e+00	0	43	0	2282749952	49	4747
2026-01-11 11:47:53.17	15.50	58.29	-39.6	-41.4	21.1	0.00e+00	0	43	0	2289041408	49	4778
2026-01-11 11:47:54.16	14.99	57.98	-39.9	-41.7	20.8	0.00e+00	0	43	0	2294284288	50	4686
2026-01-11 11:47:55.15	14.50	57.67	-40.0	-41.8	20.8	0.00e+00	0	43	0	2299527168	50	4715
2026-01-11 11:47:56.14	14.02	57.35	-40.0	-41.8	20.7	0.00e+00	0	43	0	2305818624	50	4741
2026-01-11 11:47:57.13	13.55	57.04	-39.9	-41.7	20.8	0.00e+00	0	43	0	2311061504	50	4688
2026-01-11 11:47:58.13	13.08	56.72	-39.9	-41.7	20.8	0.00e+00	0	43	0	2316304384	50	4694
2026-01-11 11:47:59.12	12.64	56.41	-39.9	-41.7	20.8	0.00e+00	0	43	0	2322595840	50	4686
2026-01-11 11:48:00.11	12.20	56.09	-40.0	-41.7	20.8	0.00e+00	0	43	0	2327838720	50	4694
2026-01-11 11:48:01.11	11.76	55.78	-40.0	-41.7	20.8	0.00e+00	0	43	0	2333081600	50	4692
2026-01-11 11:48:02.10	11.34	55.46	-40.0	-41.8	20.7	0.00e+00	0	43	0	2338324480	50	4734
2026-01-11 11:48:03.09	10.93	55.15	-40.3	-42.1	20.5	0.00e+00	0	43	0	2344615936	51	4617
2026-01-11 11:48:04.09	10.53	54.83	-40.4	-42.2	20.4	0.00e+00	0	43	0	2349858816	51	4678
2026-01-11 11:48:05.08	10.14	54.52	-40.3	-42.1	20.5	0.00e+00	0	43	0	2356150272	51	4638
2026-01-11 11:48:06.07	9.75	54.21	-40.2	-42.0	20.6	0.00e+00	0	43	0	2361393152	51	4549
2026-01-11 11:48:07.06	9.38	53.90	-40.2	-42.0	20.5	0.00e+00	0	43	0	2366636032	51	4582
2026-01-11 11:48:08.06	9.01	53.58	-40.4	-42.2	20.4	0.00e+00	0	43	0	2372927488	51	4686
2026-01-11 11:48:09.05	8.65	53.27	-40.5	-42.3	20.3	0.00e+00	0	43	0	2378170368	51	4732
2026-01-11 11:48:10.04	8.30	52.96	-40.3	-42.2	20.4	0.00e+00	0	43	0	2383413248	51	4671
2026-01-11 11:48:11.03	7.95	52.66	-40.0	-41.8	20.7	0.00e+00	0	43	0	2388656128	51	4492
2026-01-11 11:48:12.03	7.61	52.35	-40.1	-41.9	20.7	0.00e+00	0	43	0	2394947584	51	4516
2026-01-11 11:48:13.02	7.28	52.04	-40.2	-42.0	20.6	0.00e+00	0	43	0	2400190464	51	4562
2026-01-11 11:48:14.01	6.96	51.73	-40.0	-41.9	20.7	0.00e+00	0	43	0	2406481920	51	4500
2026-01-11 11:48:15.01	6.64	51.43	-40.0	-41.8	20.8	0.00e+00	0	43	0	2411724800	51	4458
2026-01-11 11:48:16.00	6.33	51.12	-39.9	-41.7	20.8	0.00e+00	0	43	0	2416967680	51	4419
2026-01-11 11:48:16.99	6.03	50.82	-39.9	-41.7	20.8	0.00e+00	0	43	0	2422210560	51	4407
2026-01-11 11:48:17.99	5.72	50.52	-39.8	-41.6	20.9	0.00e+00	0	43	0	2428502016	51	4344
2026-01-11 11:48:18.98	5.43	50.22	-39.6	-41.3	21.1	0.00e+00	0	43	0	2433744896	51	4238
2026-01-11 11:48:19.97	5.15	49.92	-39.5	-41.2	21.2	0.00e+00	0	43	0	2438987776	51	4185
2026-01-11 11:48:20.96	4.87	49.62	-39.4	-41.1	21.6	0.00e+00	0	43	0	2445279232	50	4369
2026-01-11 11:48:21.96	4.59	49.32	-39.4	-41.1	21.6	0.00e+00	0	43	0	2450522112	50	4349
2026-01-11 11:48:22.95	4.32	49.03	-39.4	-41.1	21.6	0.00e+00	0	43	0	2455764992	50	4372
2026-01-11 11:48:23.94	4.06	48.73	-39.4	-41.1	21.5	0.00e+00	0	43	0	2462056448	50	4387
2026-01-11 11:48:24.94	3.79	48.44	-39.4	-41.1	21.6	0.00e+00	0	43	0	2467299328	50	4360
2026-01-11 11:48:25.93	3.54	48.14	-39.3	-40.9	21.7	0.00e+00	0	43	0	2472542208	50	4290
2026-01-11 11:48:26.92	3.29	47.86	-39.4	-41.1	21.6	0.00e+00	0	43	0	2478833664	50	4360
2026-01-11 11:48:27.91	3.05	47.57	-39.4	-41.1	21.5	0.00e+00	0	43	0	2484076544	50	4370
2026-01-11 11:48:28.91	2.80	47.28	-39.3	-41.0	21.6	0.00e+00	0	43	0	2489319424	50	4337
2026-01-11 11:48:29.90	2.57	46.99	-39.3	-41.0	21.6	0.00e+00	0	43	0	2495610880	50	4330
2026-01-11 11:48:30.89	2.34	46.71	-39.3	-41.0	21.6	0.00e+00	0	43	0	2500853760	50	4315
2026-01-11 11:48:31.88	2.11	46.42	-39.4	-41.1	21.6	0.00e+00	0	43	0	2506096640	50	4360
2026-01-11 11:48:32.88	1.88	46.14	-39.4	-41.1	21.6	0.00e+00	0	43	0	2512388096	50	4360
2026-01-11 11:48:33.87	1.66	45.86	-39.4	-41.1	21.6	0.00e+00	0	43	0	2517630976	50	4360
2026-01-11 11:48:34.86	1.45	45.58	-39.4	-41.1	21.5	0.00e+00	0	43	0	2522873856	50	4381
2026-01-11 11:48:35.86	1.24	45.30	-39.4	-41.1	21.6	0.00e+00	0	43	0	2529165312	50	4364
2026-01-11 11:48:36.85	1.03	45.03	-39.2	-40.9	21.7	0.00e+00	0	43	0	2534408192	50	4280
2026-01-11 11:48:37.84	0.82	44.75	-39.1	-40.8	21.8	0.00e+00	0	43	0	2539651072	50	4217
2026-01-11 11:48:38.84	0.62	44.48	-39.1	-40.8	21.8	0.00e+00	0	43	0	2545942528	50	4224
2026-01-11 11:48:39.83	0.43	44.21	-39.1	-40.8	21.8	0.00e+00	0	43	0	2551185408	50	4232
2026-01-11 11:48:40.82	0.23	43.94	-39.1	-40.8	21.9	0.00e+00	0	43	0	2556428288	50	4200
2026-01-11 11:48:41.81	0.04	43.67	-39.1	-40.7	21.9	0.00e+00	0	43	0	2562719744	50	4191
2026-01-11 11:48:42.81	359.85	43.40	-39.1	-40.8	21.8	0.00e+00	0	43	0	2567962624	50	4221
2026-01-11 11:48:43.80	359.67	43.13	-39.3	-41.0	21.7	0.00e+00	0	43	0	2573205504	50	4297
2026-01-11 11:48:44.79	359.49	42.87	-39.3	-41.1	21.6	0.00e+00	0	43	0	2579496960	50	4345
2026-01-11 11:48:45.78	359.31	42.61	-39.5	-41.2	21.5	0.00e+00	0	43	0	2584739840	50	4433
2026-01-11 11:48:46.78	359.13	42.35	-39.3	-41.1	21.6	0.00e+00	0	43	0	2589982720	50	4344
2026-01-11 11:48:47.77	358.96	42.09	-39.3	-41.0	21.7	0.00e+00	0	43	0	2596274176	50	4296
2026-01-11 11:48:48.76	358.79	41.83	-39.1	-40.7	21.9	0.00e+00	0	43	0	2601517056	50	4187
2026-01-11 11:48:49.75	358.63	41.57	-39.1	-40.7	21.8	0.00e+00	0	43	0	2606759936	50	4176
2026-01-11 11:48:50.75	358.46	41.32	-38.9	-40.6	22.0	0.00e+00	0	43	0	2612002816	49	4345
2026-01-11 11:48:51.74	358.30	41.06	-38.9	-40.6	21.9	0.00e+00	0	43	0	2618294272	49	4347
2026-01-11 11:48:52.73	358.14	40.81	-38.8	-40.4	22.1	0.00e+00	0	43	0	2623537152	49	4259
2026-01-11 11:48:53.73	357.98	40.56	-38.7	-40.3	22.2	0.00e+00	0	43	0	2629828608	49	4214
2026-01-11 11:48:54.72	357.83	40.31	-38.8	-40.5	22.1	0.00e+00	0	43	0	2635071488	49	4303
2026-01-11 11:48:55.71	357.68	40.07	-38.8	-40.4	22.1	0.00e+00	0	43	0	2640314368	49	4283
2026-01-11 11:48:56.71	357.53	39.82	-38.9	-40.6	22.0	0.00e+00	0	43	0	2646605824	49	4368
2026-01-11 11:48:57.70	357.38	39.57	-38.9	-40.6	22.0	0.00e+00	0	43	0	2651848704	49	4365
2026-01-11 11:48:58.69	357.24	39.33	-38.9	-40.5	22.0	0.00e+00	0	43	0	2657091584	49	4337
2026-01-11 11:48:59.68	357.09	39.09	-38.8	-40.5	22.1	0.00e+00	0	43	0	2662334464	49	4310
2026-01-11 11:49:00.68	356.95	38.85	-38.8	-40.5	22.0	0.00e+00	0	43	0	2668625920	49	4314
2026-01-11 11:49:01.67	356.81	38.61	-38.8	-40.4	22.1	0.00e+00	0	43	0	2673868800	49	4288
2026-01-11 11:49:02.66	356.68	38.38	-38.7	-40.4	22.1	0.00e+00	0	43	0	2680160256	49	4287
2026-01-11 11:49:03.66	356.54	38.14	-38.8	-40.5	22.1	0.00e+00	0	43	0	2685403136	49	4293
2026-01-11 11:49:04.65	356.41	37.90	-38.8	-40.5	22.0	0.00e+00	0	43	0	2690646016	49	4340
2026-01-11 11:49:05.64	356.28	37.67	-38.8	-40.5	22.0	0.00e+00	0	43	0	2695888896	49	4304
2026-01-11 11:49:06.64	356.15	37.44	-38.8	-40.5	22.0	0.00e+00	0	43	0	2702180352	49	4307
2026-01-11 11:49:07.63	356.02	37.21	-38.7	-40.4	22.1	0.00e+00	0	43	0	2707423232	49	4271
2026-01-11 11:49:08.62	355.90	36.98	-38.6	-40.3	22.2	0.00e+00	0	43	0	2712666112	49	4199
2026-01-11 11:49:09.62	355.78	36.75	-38.7	-40.3	22.2	0.00e+00	0	43	0	2718957568	49	4236
2026-01-11 11:49:10.61	355.65	36.53	-38.7	-40.4	22.1	0.00e+00	0	43	0	2724200448	49	4270
2026-01-11 11:49:11.60	355.53	36.31	-38.9	-40.6	22.0	0.00e+00	0	43	0	2729443328	49	4346
2026-01-11 11:49:12.59	355.42	36.08	-39.0	-40.7	21.9	0.00e+00	0	43	0	2735734784	49	4397
2026-01-11 11:49:13.59	355.30	35.86	-39.0	-40.7	21.9	0.00e+00	0	43	0	2740977664	49	4420
2026-01-11 11:49:14.58	355.19	35.64	-39.1	-40.8	21.8	0.00e+00	0	43	0	2746220544	49	4461
2026-01-11 11:49:15.57	355.07	35.42	-39.2	-40.9	21.7	0.00e+00	0	43	0	2752512000	49	4518
2026-01-11 11:49:16.56	354.96	35.21	-39.1	-40.8	21.8	0.00e+00	0	43	0	2757754880	49	4460
2026-01-11 11:49:17.56	354.85	34.99	-39.1	-40.7	21.8	0.00e+00	0	43	0	2762997760	49	4441
2026-01-11 11:49:18.55	354.74	34.78	-39.1	-40.8	21.7	0.00e+00	0	43	0	2769289216	49	4481
2026-01-11 11:49:19.54	354.64	34.56	-39.3	-41.0	21.6	0.00e+00	0	43	0	2774532096	49	4562
2026-01-11 11:49:20.53	354.53	34.35	-39.1	-40.8	21.7	0.00e+00	0	43	0	2779774976	49	4489
2026-01-11 11:49:21.53	354.42	34.14	-39.0	-40.7	21.8	0.00e+00	0	43	0	2786066432	49	4426
2026-01-11 11:49:22.52	354.32	33.93	-39.1	-40.7	21.8	0.00e+00	0	43	0	2791309312	49	4437
2026-01-11 11:49:23.51	354.22	33.72	-39.0	-40.7	21.8	0.00e+00	0	43	0	2796552192	49	4421
2026-01-11 11:49:24.51	354.12	33.52	-39.1	-40.7	21.8	0.00e+00	0	43	0	2802843648	49	4433
2026-01-11 11:49:25.50	354.02	33.31	-39.0	-40.7	21.9	0.00e+00	0	43	0	2808086528	49	4406
2026-01-11 11:49:26.49	353.92	33.11	-39.1	-40.8	21.8	0.00e+00	0	43	0	2813329408	49	4458
2026-01-11 11:49:27.49	353.83	32.90	-39.1	-40.8	21.8	0.00e+00	0	43	0	2819620864	49	4476
2026-01-11 11:49:28.48	353.73	32.70	-39.2	-40.9	21.7	0.00e+00	0	43	0	2824863744	49	4513
2026-01-11 11:49:29.47	353.64	32.50	-39.3	-41.0	21.6	0.00e+00	0	43	0	2830106624	49	4564
2026-01-11 11:49:30.46	353.55	32.31	-39.4	-41.1	21.6	0.00e+00	0	43	0	2836398080	49	4604
2026-01-11 11:49:31.46	353.45	32.11	-39.5	-41.2	21.4	0.00e+00	0	43	0	2841640960	49	4703
2026-01-11 11:49:32.45	353.36	31.91	-39.5	-41.2	21.4	0.00e+00	0	43	0	2846883840	49	4686
2026-01-11 11:49:33.44	353.27	31.72	-39.5	-41.2	21.4	0.00e+00	0	43	0	2852126720	49	4688
2026-01-11 11:49:34.44	353.19	31.52	-39.5	-41.2	21.4	0.00e+00	0	43	0	2858418176	49	4700
2026-01-11 11:49:35.43	353.10	31.33	-39.6	-41.3	21.4	0.00e+00	0	43	0	2863661056	49	4722
2026-01-11 11:49:36.42	353.01	31.14	-39.6	-41.3	21.4	0.00e+00	0	43	0	2869952512	49	4735
2026-01-11 11:49:37.42	352.93	30.94	-39.6	-41.4	21.3	0.00e+00	0	43	0	2875195392	49	4774
2026-01-11 11:49:38.41	352.84	30.76	-39.6	-41.3	21.4	0.00e+00	0	43	0	2880438272	49	4729
2026-01-11 11:49:39.40	352.76	30.57	-39.6	-41.3	21.3	0.00e+00	0	43	0	2885681152	49	4757
2026-01-11 11:49:40.39	352.68	30.38	-39.5	-41.3	21.4	0.00e+00	0	43	0	2891972608	49	4708
2026-01-11 11:49:41.39	352.60	30.19	-39.5	-41.2	21.4	0.00e+00	0	43	0	2897215488	49	4680
2026-01-11 11:49:42.38	352.52	30.01	-39.5	-41.3	21.4	0.00e+00	0	43	0	2902458368	49	4713
2026-01-11 11:49:43.37	352.44	29.83	-39.6	-41.3	21.4	0.00e+00	0	43	0	2908749824	49	4721
2026-01-11 11:49:44.37	352.36	29.64	-39.6	-41.3	21.3	0.00e+00	0	43	0	2913992704	49	4747
2026-01-11 11:49:45.36	352.28	29.46	-39.6	-41.3	21.4	0.00e+00	0	43	0	2920284160	49	4738
2026-01-11 11:49:46.35	352.21	29.28	-39.6	-41.3	21.3	0.00e+00	0	43	0	2925527040	49	4751
2026-01-11 11:49:47.34	352.13	29.10	-39.6	-41.3	21.3	0.00e+00	0	43	0	2930769920	49	4713
2026-01-11 11:49:48.34	352.06	28.93	-39.6	-41.4	21.3	0.00e+00	0	43	0	2936012800	49	4767
2026-01-11 11:49:49.33	351.98	28.75	-39.6	-41.3	21.4	0.00e+00	0	43	0	2942304256	49	4714
2026-01-11 11:49:50.32	351.91	28.57	-39.4	-41.1	21.5	0.00e+00	0	43	0	2947547136	49	4640
2026-01-11 11:49:51.31	351.84	28.40	-39.4	-41.1	21.5	0.00e+00	0	43	0	2953838592	49	4635
2026-01-11 11:49:52.31	351.77	28.22	-39.5	-41.2	21.4	0.00e+00	0	43	0	2959081472	49	4665
2026-01-11 11:49:53.30	351.70	28.05	-39.5	-41.2	21.4	0.00e+00	0	43	0	2964324352	49	4675
2026-01-11 11:49:54.29	351.63	27.88	-39.5	-41.2	21.4	0.00e+00	0	43	0	2969567232	49	4696
2026-01-11 11:49:55.29	351.56	27.71	-39.3	-41.0	21.6	0.00e+00	0	43	0	2975858688	49	4574
2026-01-11 11:49:56.28	351.49	27.54	-39.3	-41.0	21.5	0.00e+00	0	43	0	2981101568	49	4595
2026-01-11 11:49:57.27	351.42	27.37	-39.3	-41.1	21.5	0.00e+00	0	43	0	2986344448	49	4599
2026-01-11 11:49:58.27	351.36	27.20	-39.4	-41.2	21.4	0.00e+00	0	43	0	2992635904	49	4668
2026-01-11 11:49:59.26	351.29	27.03	-39.5	-41.3	21.3	0.00e+00	0	43	0	2997878784	49	4715
2026-01-11 11:50:00.25	351.23	26.87	-39.4	-41.2	21.4	0.00e+00	0	43	0	3003121664	49	4662
2026-01-11 11:50:01.25	351.16	26.70	-39.5	-41.3	21.3	0.00e+00	0	43	0	3009413120	49	4713
2026-01-11 11:50:02.24	351.10	26.54	-39.5	-41.2	21.4	0.00e+00	0	43	0	3014656000	49	4675
2026-01-11 11:50:03.23	351.03	26.38	-39.5	-41.2	21.4	0.00e+00	0	43	0	3019898880	49	4698
2026-01-11 11:50:04.22	350.97	26.22	-39.5	-41.2	21.4	0.00e+00	0	43	0	3026190336	49	4678
2026-01-11 11:50:05.22	350.91	26.05	-39.5	-41.3	21.4	0.00e+00	0	43	0	3031433216	49	4722
2026-01-11 11:50:06.21	350.85	25.89	-39.5	-41.2	21.4	0.00e+00	0	43	0	3036676096	49	4691
2026-01-11 11:50:07.20	350.79	25.74	-39.4	-41.2	21.4	0.00e+00	0	43	0	3042967552	49	4679
2026-01-11 11:50:08.20	350.73	25.58	-39.5	-41.3	21.3	0.00e+00	0	43	0	3048210432	49	4713
2026-01-11 11:50:09.19	350.67	25.42	-39.5	-41.3	21.3	0.00e+00	0	43	0	3053453312	49	4739
2026-01-11 11:50:10.18	350.61	25.26	-39.5	-41.3	21.3	0.00e+00	0	43	0	3059744768	49	4749
2026-01-11 11:50:11.17	350.55	25.11	-39.5	-41.3	21.3	0.00e+00	0	43	0	3064987648	49	4716
2026-01-11 11:50:12.17	350.50	24.95	-39.4	-41.2	21.4	0.00e+00	0	43	0	3070230528	49	4695
2026-01-11 11:50:13.16	350.44	24.80	-39.4	-41.2	21.4	0.00e+00	0	43	0	3076521984	49	4694
2026-01-11 11:50:14.15	350.38	24.65	-39.5	-41.2	21.3	0.00e+00	0	43	0	3081764864	49	4701
2026-01-11 11:50:15.15	350.33	24.49	-39.5	-41.3	21.3	0.00e+00	0	43	0	3087007744	49	4713
2026-01-11 11:50:16.14	350.27	24.34	-39.5	-41.3	21.3	0.00e+00	0	43	0	3093299200	49	4731
2026-01-11 11:50:17.13	350.22	24.19	-39.6	-41.3	21.3	0.00e+00	0	43	0	3098542080	49	4750
2026-01-11 11:50:18.12	350.17	24.04	-39.6	-41.4	21.3	0.00e+00	0	43	0	3103784960	49	4761
2026-01-11 11:50:19.12	350.11	23.89	-39.7	-41.5	21.2	0.00e+00	0	43	0	3110076416	50	4551
2026-01-11 11:50:20.11	350.06	23.75	-39.7	-41.5	21.2	0.00e+00	0	43	0	3115319296	50	4558
2026-01-11 11:50:21.10	350.01	23.60	-39.9	-41.6	21.0	0.00e+00	0	43	0	3120562176	50	4625
2026-01-11 11:50:22.10	349.96	23.45	-39.9	-41.7	21.0	0.00e+00	0	43	0	3125805056	50	4662
2026-01-11 11:50:23.09	349.90	23.31	-40.0	-41.8	20.9	0.00e+00	0	43	0	3132096512	50	4706
2026-01-11 11:50:24.08	349.85	23.16	-40.1	-41.9	20.8	0.00e+00	0	43	0	3137339392	50	4775
2026-01-11 11:50:25.07	349.80	23.02	-40.2	-42.0	20.7	0.00e+00	0	43	0	3143630848	51	4556
2026-01-11 11:50:26.07	349.75	22.87	-40.3	-42.1	20.6	0.00e+00	0	43	0	3148873728	51	4627
2026-01-11 11:50:27.06	349.70	22.73	-40.3	-42.2	20.6	0.00e+00	0	43	0	3154116608	51	4652
2026-01-11 11:50:28.05	349.66	22.59	-40.3	-42.1	20.6	0.00e+00	0	43	0	3159359488	51	4641
2026-01-11 11:50:29.05	349.61	22.45	-40.3	-42.2	20.5	0.00e+00	0	43	0	3165650944	51	4671
2026-01-11 11:50:30.04	349.56	22.31	-40.4	-42.3	20.5	0.00e+00	0	43	0	3170893824	51	4711
2026-01-11 11:50:31.03	349.51	22.17	-40.5	-42.3	20.4	0.00e+00	0	43	0	3176136704	51	4746
2026-01-11 11:50:32.03	349.47	22.03	-40.5	-42.3	20.4	0.00e+00	0	43	0	3182428160	51	4735
2026-01-11 11:50:33.02	349.42	21.89	-40.5	-42.3	20.4	0.00e+00	0	43	0	3187671040	51	4731
2026-01-11 11:50:34.01	349.37	21.76	-40.6	-42.4	20.4	0.00e+00	0	43	0	3193962496	51	4760
2026-01-11 11:50:35.01	349.33	21.62	-40.4	-42.2	20.5	0.00e+00	0	43	0	3199205376	51	4698
2026-01-11 11:50:36.00	349.28	21.48	-40.5	-42.3	20.4	0.00e+00	0	43	0	3204448256	51	4724
2026-01-11 11:50:36.99	349.24	21.35	-40.4	-42.2	20.5	0.00e+00	0	43	0	3209691136	51	4676
2026-01-11 11:50:37.98	349.19	21.21	-40.5	-42.3	20.4	0.00e+00	0	43	0	3215982592	51	4716
2026-01-11 11:50:38.98	349.15	21.08	-40.4	-42.1	20.5	0.00e+00	0	43	0	3221225472	51	4648
2026-01-11 11:50:39.97	349.11	20.95	-40.4	-42.1	20.5	0.00e+00	0	43	0	3226468352	51	4640
2026-01-11 11:50:40.96	349.06	20.82	-40.4	-42.2	20.5	0.00e+00	0	43	0	3232759808	51	4653
2026-01-11 11:50:41.95	349.02	20.68	-40.4	-42.1	20.5	0.00e+00	0	43	0	3238002688	51	4648
2026-01-11 11:50:42.95	348.98	20.55	-40.4	-42.1	20.5	0.00e+00	0	43	0	3243245568	51	4630
2026-01-11 11:50:43.94	348.94	20.42	-40.4	-42.1	20.5	0.00e+00	0	43	0	3249537024	51	4648
2026-01-11 11:50:44.93	348.90	20.29	-40.4	-42.2	20.5	0.00e+00	0	43	0	3254779904	51	4674
2026-01-11 11:50:45.93	348.85	20.16	-40.4	-42.2	20.5	0.00e+00	0	43	0	3260022784	51	4672
2026-01-11 11:50:46.92	348.81	20.03	-40.4	-42.2	20.5	0.00e+00	0	43	0	3266314240	51	4675
2026-01-11 11:50:47.91	348.77	19.91	-40.5	-42.2	20.4	0.00e+00	0	43	0	3271557120	51	4695
2026-01-11 11:50:48.90	348.73	19.78	-40.4	-42.2	20.5	0.00e+00	0	43	0	3276800000	51	4680
2026-01-11 11:50:49.90	348.69	19.65	-40.5	-42.4	20.3	0.00e+00	0	43	0	3283091456	51	4762
2026-01-11 11:50:50.89	348.65	19.53	-40.5	-42.4	20.3	0.00e+00	0	43	0	3288334336	51	4764
2026-01-11 11:50:51.88	348.62	19.40	-40.5	-42.3	20.4	0.00e+00	0	43	0	3293577216	51	4743
2026-01-11 11:50:52.87	348.58	19.28	-40.5	-42.4	20.3	0.00e+00	0	43	0	3299868672	51	4788
2026-01-11 11:50:53.87	348.54	19.15	-40.5	-42.4	20.3	0.00e+00	0	43	0	3305111552	51	4805
2026-01-11 11:50:54.86	348.50	19.03	-40.5	-42.4	20.3	0.00e+00	0	43	0	3310354432	51	4806
2026-01-11 11:50:55.85	348.46	18.91	-40.5	-42.4	20.3	0.00e+00	0	43	0	3316645888	51	4794
2026-01-11 11:50:56.85	348.43	18.79	-40.5	-42.4	20.3	0.00e+00	0	43	0	3321888768	51	4811
2026-01-11 11:50:57.84	348.39	18.66	-40.6	-42.5	20.2	0.00e+00	0	43	0	3327131648	51	4854
2026-01-11 11:50:58.83	348.35	18.54	-40.6	-42.5	20.1	0.00e+00	0	43	0	3333423104	51	4867
2026-01-11 11:50:59.83	348.32	18.42	-40.6	-42.5	20.2	0.00e+00	0	43	0	3338665984	51	4844
2026-01-11 11:51:00.82	348.28	18.30	-40.6	-42.5	20.2	0.00e+00	0	43	0	3343908864	52	4568
2026-01-11 11:51:01.81	348.25	18.18	-40.6	-42.5	20.2	0.00e+00	0	43	0	3350200320	52	4560
2026-01-11 11:51:02.81	348.21	18.06	-40.6	-42.5	20.1	0.00e+00	0	43	0	3355443200	52	4596
2026-01-11 11:51:03.80	348.18	17.95	-40.6	-42.5	20.1	0.00e+00	0	43	0	3360686080	52	4573
2026-01-11 11:51:04.79	348.14	17.83	-40.6	-42.5	20.1	0.00e+00	0	43	0	3366977536	52	4592
2026-01-11 11:51:05.78	348.11	17.71	-40.6	-42.5	20.1	0.00e+00	0	43	0	3372220416	52	4592
2026-01-11 11:51:06.78	348.07	17.60	-40.6	-42.6	20.1	0.00e+00	0	43	0	3377463296	52	4606
2026-01-11 11:51:07.77	348.04	17.48	-40.7	-42.6	20.0	0.00e+00	0	43	0	3383754752	52	4649
2026-01-11 11:51:08.76	348.00	17.37	-40.8	-42.7	19.9	0.00e+00	0	43	0	3388997632	52	4695
2026-01-11 11:51:09.75	347.97	17.25	-40.8	-42.7	19.9	0.00e+00	0	43	0	3394240512	52	4688
2026-01-11 11:51:10.75	347.94	17.14	-40.9	-42.7	19.9	0.00e+00	0	43	0	3399483392	52	4705
2026-01-11 11:51:11.74	347.91	17.02	-40.8	-42.7	19.9	0.00e+00	0	43	0	3405774848	52	4677
2026-01-11 11:51:12.73	347.87	16.91	-40.9	-42.8	19.9	0.00e+00	0	43	0	3411017728	52	4708
2026-01-11 11:51:13.73	347.84	16.80	-40.8	-42.7	19.9	0.00e+00	0	43	0	3417309184	52	4672
2026-01-11 11:51:14.72	347.81	16.68	-40.9	-42.8	19.8	0.00e+00	0	43	0	3422552064	52	4733
2026-01-11 11:51:15.71	347.78	16.57	-41.0	-42.9	19.7	0.00e+00	0	43	0	3427794944	52	4771
2026-01-11 11:51:16.71	347.75	16.46	-41.0	-42.9	19.7	0.00e+00	0	43	0	3434086400	52	4799
2026-01-11 11:51:17.70	347.72	16.35	-41.1	-43.0	19.6	0.00e+00	0	43	0	3439329280	52	4856
2026-01-11 11:51:18.69	347.68	16.24	-41.1	-43.0	19.6	0.00e+00	0	43	0	3444572160	52	4842
2026-01-11 11:51:19.68	347.65	16.13	-41.1	-43.0	19.7	0.00e+00	0	43	0	3449815040	52	4835
2026-01-11 11:51:20.68	347.62	16.02	-41.1	-43.1	19.6	0.00e+00	0	43	0	3456106496	52	4877
2026-01-11 11:51:21.67	347.59	15.91	-41.3	-43.2	19.4	0.00e+00	0	43	0	3461349376	53	4675
2026-01-11 11:51:22.66	347.56	15.80	-41.2	-43.2	19.5	0.00e+00	0	43	0	3467640832	53	4662
2026-01-11 11:51:23.65	347.53	15.70	-41.3	-43.3	19.4	0.00e+00	0	43	0	3472883712	53	4707
2026-01-11 11:51:24.64	347.51	15.59	-41.3	-43.2	19.4	0.00e+00	0	43	0	3478126592	53	4691
2026-01-11 11:51:25.64	347.48	15.48	-41.4	-43.4	19.3	0.00e+00	0	43	0	3483369472	53	4761
2026-01-11 11:51:26.63	347.45	15.37	-41.4	-43.4	19.3	0.00e+00	0	43	0	3489660928	53	4763
2026-01-11 11:51:27.62	347.42	15.27	-41.6	-43.5	19.1	0.00e+00	0	43	0	3494903808	53	4856
2026-01-11 11:51:28.62	347.39	15.16	-41.5	-43.5	19.2	0.00e+00	0	43	0	3500146688	53	4829
2026-01-11 11:51:29.61	347.36	15.06	-41.6	-43.5	19.1	0.00e+00	0	43	0	3506438144	53	4847
2026-01-11 11:51:30.60	347.33	14.95	-41.6	-43.6	19.1	0.00e+00	0	43	0	3511681024	53	4871
2026-01-11 11:51:31.59	347.31	14.85	-41.7	-43.6	19.0	0.00e+00	0	43	0	3516923904	53	4895
2026-01-11 11:51:32.59	347.28	14.74	-41.8	-43.7	18.9	0.00e+00	0	43	0	3523215360	54	4693
2026-01-11 11:51:33.58	347.25	14.64	-41.9	-43.8	18.8	0.00e+00	0	43	0	3528458240	54	4752
2026-01-11 11:51:34.57	347.22	14.54	-41.7	-43.7	19.0	0.00e+00	0	43	0	3533701120	54	4674
2026-01-11 11:51:35.57	347.20	14.44	-41.8	-43.8	18.9	0.00e+00	0	43	0	3539992576	54	4713
2026-01-11 11:51:36.56	347.17	14.33	-41.9	-43.9	18.8	0.00e+00	0	43	0	3545235456	54	4768
2026-01-11 11:51:37.55	347.14	14.23	-41.9	-43.8	18.9	0.00e+00	0	43	0	3550478336	54	4727
2026-01-11 11:51:38.55	347.12	14.13	-41.8	-43.8	18.8	0.00e+00	0	43	0	3556769792	54	4731
2026-01-11 11:51:39.54	347.09	14.03	-41.8	-43.8	18.9	0.00e+00	0	43	0	3562012672	54	4721
2026-01-11 11:51:40.53	347.07	13.93	-41.9	-43.8	18.8	0.00e+00	0	43	0	3567255552	54	4756
2026-01-11 11:51:41.52	347.04	13.83	-41.9	-43.9	18.8	0.00e+00	0	43	0	3573547008	54	4776
2026-01-11 11:51:42.52	347.02	13.73	-41.9	-43.9	18.7	0.00e+00	0	43	0	3578789888	54	4814
2026-01-11 11:51:43.51	346.99	13.63	-41.9	-43.9	18.8	0.00e+00	0	43	0	3584032768	54	4761
2026-01-11 11:51:44.50	346.97	13.53	-41.9	-43.9	18.7	0.00e+00	0	43	0	3589275648	54	4792
2026-01-11 11:51:45.50	346.94	13.43	-42.0	-44.0	18.7	0.00e+00	0	43	0	3595567104	54	4820
2026-01-11 11:51:46.49	346.92	13.34	-42.0	-44.0	18.6	0.00e+00	0	43	0	3600809984	54	4845
2026-01-11 11:51:47.48	346.89	13.24	-42.1	-44.1	18.5	0.00e+00	0	43	0	3607101440	54	4906
2026-01-11 11:51:48.48	346.87	13.14	-42.1	-44.1	18.6	0.00e+00	0	43	0	3612344320	54	4886
2026-01-11 11:51:49.47	346.84	13.04	-42.1	-44.1	18.5	0.00e+00	0	43	0	3617587200	55	4635
2026-01-11 11:51:50.46	346.82	12.95	-42.1	-44.1	18.5	0.00e+00	0	43	0	3623878656	55	4625
2026-01-11 11:51:51.45	346.80	12.85	-42.1	-44.0	18.6	0.00e+00	0	43	0	3629121536	55	4590
2026-01-11 11:51:52.45	346.77	12.76	-42.1	-44.0	18.6	0.00e+00	0	43	0	3634364416	55	4583
