passes_logs/2026/01/11/T1/T1__20260111_011115_NOAA_20_JPSS-1_rec.log

#Pass ID: 20260111_011115_NOAA 20 (JPSS-1)
#Satellite: NOAA 20 (JPSS-1)
#Configuration: NOAA 20
#almurnet v.1.7.20251203
#Start time: 2026-01-11 01:11:16

#Version: 2.0.20230620
#Station: T1
#Location: 37.570604 lon 55.790049 lat
#TLE: 1 43013U 17073A   26009.69119415  .00000109  00000+0  72598-4 0  9996
#TLE: 2 43013  98.7631 310.6868 0001678  46.7442 313.3874 14.19534878421981

#Time	Az	El	Level	Level2	SNR	BER	BlckErr	Temp	State	Recorded	gain1	gain2
2026-01-11 01:11:16.19	7.47	5.06	-49.7	-65.5	3.8	1.49e+00	0	41	0	0	70	22849
2026-01-11 01:11:17.19	7.39	5.13	-47.6	-65.2	3.8	1.49e+00	0	41	104	0	65	29514
2026-01-11 01:11:18.19	7.32	5.19	-47.6	-65.2	3.8	1.49e+00	0	41	104	0	65	29462
2026-01-11 01:11:19.20	7.25	5.25	-47.6	-65.2	3.8	1.49e+00	0	41	104	0	65	29471
2026-01-11 01:11:20.20	7.17	5.32	-47.6	-65.2	3.8	1.49e+00	0	41	104	0	65	29358
2026-01-11 01:11:21.20	7.10	5.38	-47.6	-65.2	3.8	1.49e+00	0	41	104	0	65	29479
2026-01-11 01:11:22.21	7.03	5.44	-47.6	-65.2	3.8	1.49e+00	0	42	104	0	65	29513
2026-01-11 01:11:23.21	6.95	5.51	-47.6	-65.2	3.8	1.49e+00	0	42	104	0	65	29574
2026-01-11 01:11:24.22	6.88	5.57	-47.6	-65.2	3.8	1.49e+00	0	42	104	0	65	29490
2026-01-11 01:11:25.22	6.80	5.63	-47.6	-65.2	3.8	1.49e+00	0	41	104	0	65	29613
2026-01-11 01:11:26.23	6.73	5.70	-47.6	-65.2	3.8	1.49e+00	0	42	104	0	65	29663
2026-01-11 01:11:27.23	6.65	5.76	-47.6	-65.2	3.8	1.49e+00	0	42	104	0	65	29679
2026-01-11 01:11:28.24	6.57	5.83	-47.6	-65.2	3.8	1.49e+00	0	42	104	0	65	29525
2026-01-11 01:11:29.24	6.50	5.89	-47.6	-65.2	3.8	1.49e+00	0	42	104	0	65	29632
2026-01-11 01:11:30.24	6.42	5.95	-47.6	-65.2	3.8	1.49e+00	0	42	104	0	65	29584
2026-01-11 01:11:31.25	6.34	6.02	-47.6	-65.2	3.8	1.49e+00	0	42	104	0	65	29577
2026-01-11 01:11:32.25	6.27	6.08	-47.6	-65.2	3.8	1.49e+00	0	42	104	0	65	29556
2026-01-11 01:11:33.26	6.19	6.15	-47.6	-65.2	3.8	1.49e+00	0	42	104	0	65	29526
2026-01-11 01:11:34.26	6.11	6.21	-47.6	-65.2	3.8	1.49e+00	0	42	104	0	65	29512
2026-01-11 01:11:35.26	6.03	6.28	-47.6	-65.2	3.8	1.49e+00	0	42	104	0	65	29642
2026-01-11 01:11:36.27	5.95	6.34	-47.6	-65.2	3.8	1.49e+00	0	42	104	0	65	29644
2026-01-11 01:11:37.27	5.87	6.41	-47.6	-65.2	3.8	1.49e+00	0	42	104	0	65	29678
2026-01-11 01:11:38.28	5.79	6.47	-47.6	-65.2	3.8	1.49e+00	0	42	104	0	65	29590
2026-01-11 01:11:39.28	5.71	6.54	-47.6	-65.2	3.8	1.49e+00	0	42	104	0	65	29402
2026-01-11 01:11:40.29	5.63	6.60	-47.6	-65.2	3.8	1.49e+00	0	42	104	0	65	29443
2026-01-11 01:11:41.29	5.55	6.67	-47.6	-65.1	3.8	1.49e+00	0	42	104	0	65	29123
2026-01-11 01:11:42.30	5.47	6.74	-47.6	-65.0	3.8	1.49e+00	0	42	104	0	65	28860
2026-01-11 01:11:43.30	5.39	6.80	-47.6	-65.0	3.8	1.49e+00	0	42	104	0	65	28833
2026-01-11 01:11:44.30	5.31	6.87	-47.6	-64.9	3.8	1.49e+00	0	42	104	0	65	28562
2026-01-11 01:11:45.31	5.22	6.93	-47.6	-64.9	3.8	1.49e+00	0	42	104	0	65	28625
2026-01-11 01:11:46.31	5.14	7.00	-47.6	-64.9	3.8	1.49e+00	0	42	104	0	65	28470
2026-01-11 01:11:47.32	5.06	7.07	-47.6	-64.9	3.8	1.49e+00	0	42	104	0	65	28404
2026-01-11 01:11:48.32	4.97	7.13	-47.6	-64.8	3.8	1.49e+00	0	42	104	0	65	28063
2026-01-11 01:11:49.33	4.89	7.20	-47.6	-64.6	3.8	1.49e+00	0	42	104	0	65	27463
2026-01-11 01:11:50.33	4.81	7.27	-47.6	-64.4	3.8	1.49e+00	0	42	104	0	65	26950
2026-01-11 01:11:51.34	4.72	7.33	-47.6	-64.4	3.8	1.49e+00	0	43	104	0	65	26803
2026-01-11 01:11:52.34	4.63	7.40	-47.5	-64.4	3.8	1.49e+00	0	42	104	0	65	26878
2026-01-11 01:11:53.34	4.55	7.47	-47.6	-64.5	3.8	1.49e+00	0	43	104	0	65	27235
2026-01-11 01:11:54.35	4.46	7.53	-47.6	-64.8	3.8	1.49e+00	0	43	104	0	65	28084
2026-01-11 01:11:55.35	4.38	7.60	-47.6	-65.0	3.8	1.49e+00	0	43	104	0	65	29000
2026-01-11 01:11:56.36	4.29	7.67	-47.6	-65.2	3.8	1.49e+00	0	43	104	0	65	29514
2026-01-11 01:11:57.36	4.20	7.73	-47.6	-65.1	3.8	1.49e+00	0	43	104	0	65	29039
2026-01-11 01:11:58.37	4.11	7.80	-47.6	-64.6	3.8	1.49e+00	0	43	104	0	65	27645
2026-01-11 01:11:59.37	4.03	7.87	-47.5	-63.6	3.8	1.49e+00	0	42	104	0	65	24511
2026-01-11 01:12:00.38	3.94	7.94	-47.5	-62.3	3.9	1.48e+00	0	43	104	0	65	21080
2026-01-11 01:12:01.38	3.85	8.01	-47.4	-60.7	4.5	1.32e+00	0	42	0	0	65	17667
2026-01-11 01:12:02.38	3.76	8.07	-47.3	-59.4	5.1	7.91e-01	0	43	0	2097152	65	15150
2026-01-11 01:12:03.39	3.67	8.14	-47.2	-58.2	5.9	4.03e-01	0	43	0	4194304	65	13205
2026-01-11 01:12:04.40	3.58	8.21	-47.1	-57.1	6.8	2.33e-01	0	43	0	6291456	65	11672
2026-01-11 01:12:05.40	3.49	8.28	-46.9	-56.0	7.9	1.25e-01	0	43	0	7340032	65	10182
2026-01-11 01:12:06.40	3.40	8.35	-46.7	-55.0	8.8	5.21e-02	0	43	0	9437184	65	9171
2026-01-11 01:12:07.41	3.30	8.42	-46.5	-54.2	9.7	1.55e-02	0	43	0	11534336	65	8277
2026-01-11 01:12:08.41	3.21	8.48	-46.3	-53.2	10.7	4.79e-03	0	43	0	13631488	64	7886
2026-01-11 01:12:09.41	3.12	8.55	-46.1	-52.6	11.3	2.26e-03	0	43	0	15728640	64	7325
2026-01-11 01:12:10.42	3.03	8.62	-46.0	-52.2	11.8	5.64e-04	0	43	0	16777216	63	7442
2026-01-11 01:12:11.42	2.93	8.69	-46.0	-52.0	12.0	3.19e-04	0	43	0	18874368	63	7272
2026-01-11 01:12:12.43	2.84	8.76	-45.9	-52.0	12.0	3.23e-04	0	43	0	20971520	63	7269
2026-01-11 01:12:13.43	2.74	8.83	-46.1	-52.4	11.7	3.25e-04	0	43	0	23068672	63	7561
2026-01-11 01:12:14.44	2.65	8.90	-46.3	-53.1	10.9	1.64e-03	0	43	0	24117248	63	8224
2026-01-11 01:12:15.44	2.55	8.97	-46.6	-54.3	9.7	5.22e-03	0	43	0	26214400	63	9469
2026-01-11 01:12:16.45	2.46	9.04	-46.8	-55.5	8.3	2.24e-02	0	43	0	28311552	64	10293
2026-01-11 01:12:17.45	2.36	9.11	-47.0	-57.7	6.4	1.12e-01	0	43	0	30408704	64	13164
2026-01-11 01:12:18.45	2.27	9.18	-47.0	-56.2	7.5	9.82e-01	0	43	0	32505856	64	11039
2026-01-11 01:12:19.46	2.17	9.25	-46.6	-51.7	12.2	3.19e-03	0	43	0	33554432	65	6223
2026-01-11 01:12:20.46	2.07	9.32	-46.8	-52.2	12.0	3.50e-05	0	43	0	35651584	64	6972
2026-01-11 01:12:21.46	1.97	9.39	-47.6	-54.6	8.9	5.16e-01	0	43	0	37748736	67	7731
2026-01-11 01:12:22.47	1.87	9.46	-46.1	-50.5	13.6	2.21e-05	0	43	0	39845888	64	5737
2026-01-11 01:12:23.47	1.77	9.53	-46.2	-50.5	13.5	1.50e-06	0	43	0	41943040	64	5777
2026-01-11 01:12:24.48	1.67	9.60	-46.0	-50.3	13.7	7.60e-06	0	43	0	42991616	64	5650
2026-01-11 01:12:25.48	1.57	9.67	-46.1	-50.4	13.6	5.30e-06	0	43	0	45088768	64	5707
2026-01-11 01:12:26.48	1.47	9.74	-46.1	-50.4	13.6	6.10e-06	0	43	0	47185920	64	5719
2026-01-11 01:12:27.49	1.37	9.81	-46.2	-50.5	13.6	6.80e-06	0	43	0	49283072	64	5756
2026-01-11 01:12:28.49	1.27	9.88	-46.3	-50.6	13.5	7.60e-06	0	43	0	51380224	64	5797
2026-01-11 01:12:29.50	1.17	9.95	-46.3	-50.5	13.5	9.90e-06	0	43	0	52428800	64	5768
2026-01-11 01:12:30.50	1.06	10.02	-46.2	-50.3	13.8	6.80e-06	0	43	0	54525952	64	5628
2026-01-11 01:12:31.50	0.96	10.09	-46.3	-50.4	13.7	3.80e-06	0	43	0	56623104	64	5671
2026-01-11 01:12:32.51	0.86	10.17	-46.3	-50.4	13.6	6.10e-06	0	43	0	58720256	64	5709
2026-01-11 01:12:33.51	0.75	10.24	-46.2	-50.3	13.8	1.50e-06	0	43	0	60817408	64	5617
2026-01-11 01:12:34.51	0.65	10.31	-46.4	-50.5	13.6	6.80e-06	0	43	0	61865984	64	5746
2026-01-11 01:12:35.52	0.54	10.38	-46.4	-50.5	13.6	7.60e-06	0	43	0	63963136	64	5751
2026-01-11 01:12:36.52	0.44	10.45	-46.3	-50.3	13.8	6.80e-06	0	43	0	66060288	64	5652
2026-01-11 01:12:37.52	0.33	10.52	-46.3	-50.4	13.7	3.00e-06	0	43	0	68157440	64	5710
2026-01-11 01:12:38.53	0.22	10.60	-46.4	-50.5	13.6	5.30e-06	0	43	0	70254592	64	5744
2026-01-11 01:12:39.53	0.12	10.67	-46.3	-50.5	13.6	4.50e-06	0	43	0	71303168	64	5745
2026-01-11 01:12:40.54	0.01	10.74	-46.2	-50.4	13.7	4.50e-06	0	43	0	73400320	64	5722
2026-01-11 01:12:41.54	359.90	10.81	-46.2	-50.3	13.8	5.30e-06	0	43	0	75497472	64	5640
2026-01-11 01:12:42.54	359.79	10.88	-46.2	-50.4	13.7	9.10e-06	0	43	0	77594624	64	5694
2026-01-11 01:12:43.55	359.68	10.96	-46.1	-50.4	13.8	5.30e-06	0	43	0	79691776	64	5659
2026-01-11 01:12:44.55	359.57	11.03	-46.1	-50.4	13.7	6.80e-06	0	43	0	80740352	64	5681
2026-01-11 01:12:45.55	359.46	11.10	-46.1	-50.5	13.7	5.30e-06	0	43	0	82837504	64	5753
2026-01-11 01:12:46.56	359.35	11.18	-46.0	-50.4	13.7	3.80e-06	0	43	0	84934656	63	6052
2026-01-11 01:12:47.56	359.24	11.25	-46.0	-50.4	13.8	6.10e-06	0	43	0	87031808	63	6052
2026-01-11 01:12:48.56	359.12	11.32	-46.0	-50.4	13.8	3.00e-06	0	44	0	89128960	63	6036
2026-01-11 01:12:49.57	359.01	11.40	-46.0	-50.6	13.7	5.30e-06	0	43	0	90177536	63	6132
2026-01-11 01:12:50.57	358.90	11.47	-46.0	-50.4	13.9	3.80e-06	0	43	0	92274688	63	5993
2026-01-11 01:12:51.57	358.78	11.54	-46.0	-50.5	13.8	6.10e-06	0	43	0	94371840	63	6074
2026-01-11 01:12:52.58	358.67	11.62	-45.9	-50.5	13.7	3.80e-06	0	43	0	96468992	63	6095
2026-01-11 01:12:53.58	358.55	11.69	-46.0	-50.5	13.8	5.30e-06	0	43	0	97517568	63	6093
2026-01-11 01:12:54.59	358.43	11.76	-46.0	-50.4	13.9	5.30e-06	0	43	0	99614720	63	6002
2026-01-11 01:12:55.59	358.32	11.84	-45.9	-50.3	13.9	2.20e-06	0	43	0	101711872	63	5987
2026-01-11 01:12:56.59	358.20	11.91	-45.8	-50.2	14.0	3.00e-06	0	44	0	103809024	63	5904
2026-01-11 01:12:57.59	358.08	11.98	-45.9	-50.1	14.2	3.00e-06	0	43	0	105906176	63	5828
2026-01-11 01:12:58.60	357.96	12.06	-45.9	-50.1	14.2	3.00e-06	0	43	0	106954752	63	5827
2026-01-11 01:12:59.60	357.85	12.13	-45.8	-50.1	14.2	1.50e-06	0	43	0	109051904	63	5813
2026-01-11 01:13:00.61	357.72	12.21	-45.8	-50.0	14.3	7.00e-07	0	43	0	111149056	63	5723
2026-01-11 01:13:01.61	357.60	12.28	-45.9	-50.1	14.2	2.20e-06	0	43	0	113246208	63	5798
2026-01-11 01:13:02.62	357.48	12.36	-45.8	-49.9	14.4	7.00e-07	0	44	0	115343360	63	5691
2026-01-11 01:13:03.62	357.36	12.43	-46.0	-50.0	14.3	0.00e+00	0	43	0	116391936	63	5782
2026-01-11 01:13:04.62	357.24	12.51	-45.8	-49.8	14.4	7.00e-07	0	43	0	118489088	63	5654
2026-01-11 01:13:05.63	357.12	12.58	-45.9	-49.9	14.4	1.50e-06	0	43	0	120586240	63	5687
2026-01-11 01:13:06.63	356.99	12.66	-46.1	-50.0	14.3	0.00e+00	0	43	0	122683392	63	5745
2026-01-11 01:13:07.63	356.87	12.73	-46.0	-49.9	14.4	1.50e-06	0	43	0	124780544	63	5695
2026-01-11 01:13:08.64	356.74	12.81	-46.0	-49.9	14.4	1.50e-06	0	43	0	125829120	63	5689
2026-01-11 01:13:09.64	356.62	12.88	-46.0	-49.8	14.4	3.00e-06	0	43	0	127926272	63	5656
2026-01-11 01:13:10.64	356.49	12.96	-46.0	-49.9	14.5	2.20e-06	0	43	0	130023424	63	5666
2026-01-11 01:13:11.65	356.36	13.03	-46.0	-49.9	14.4	2.20e-06	0	43	0	132120576	63	5709
2026-01-11 01:13:12.65	356.24	13.11	-46.0	-49.9	14.4	0.00e+00	0	44	0	134217728	63	5708
2026-01-11 01:13:13.65	356.11	13.18	-46.1	-50.0	14.3	7.00e-07	0	44	0	135266304	63	5741
2026-01-11 01:13:14.65	355.98	13.26	-46.1	-50.0	14.3	2.20e-06	0	43	0	137363456	63	5766
2026-01-11 01:13:15.66	355.85	13.34	-46.1	-49.9	14.4	0.00e+00	0	43	0	139460608	63	5691
2026-01-11 01:13:16.66	355.72	13.41	-46.1	-49.9	14.5	0.00e+00	0	43	0	141557760	63	5661
2026-01-11 01:13:17.66	355.59	13.49	-46.0	-49.8	14.5	0.00e+00	0	43	0	143654912	63	5629
2026-01-11 01:13:18.67	355.46	13.56	-46.0	-49.9	14.5	0.00e+00	0	43	0	144703488	63	5680
2026-01-11 01:13:19.67	355.33	13.64	-46.0	-49.8	14.5	0.00e+00	0	43	0	146800640	63	5607
2026-01-11 01:13:20.67	355.19	13.72	-46.1	-49.9	14.5	0.00e+00	0	43	0	148897792	63	5666
2026-01-11 01:13:21.68	355.06	13.79	-45.9	-49.7	14.7	0.00e+00	0	43	0	150994944	63	5541
2026-01-11 01:13:22.68	354.92	13.87	-45.9	-49.6	14.7	0.00e+00	0	43	0	152043520	63	5492
2026-01-11 01:13:23.69	354.79	13.95	-45.8	-49.5	14.9	0.00e+00	0	43	0	154140672	63	5417
2026-01-11 01:13:24.69	354.65	14.02	-45.8	-49.3	15.0	0.00e+00	0	43	0	156237824	63	5340
2026-01-11 01:13:25.70	354.51	14.10	-45.8	-49.3	15.0	0.00e+00	0	44	0	158334976	63	5338
2026-01-11 01:13:26.70	354.38	14.17	-45.9	-49.5	14.8	0.00e+00	0	43	0	160432128	63	5456
2026-01-11 01:13:27.70	354.24	14.25	-45.9	-49.4	14.9	0.00e+00	0	43	0	162529280	63	5369
2026-01-11 01:13:28.71	354.10	14.33	-45.9	-49.4	14.9	0.00e+00	0	43	0	163577856	63	5386
2026-01-11 01:13:29.71	353.96	14.41	-46.0	-49.5	14.9	7.00e-07	0	44	0	165675008	63	5426
2026-01-11 01:13:30.71	353.82	14.48	-45.9	-49.4	14.9	0.00e+00	0	44	0	167772160	63	5396
2026-01-11 01:13:31.72	353.68	14.56	-45.9	-49.4	14.9	7.00e-07	0	44	0	169869312	63	5393
2026-01-11 01:13:32.72	353.54	14.64	-45.9	-49.5	14.9	0.00e+00	0	43	0	170917888	63	5423
2026-01-11 01:13:33.72	353.40	14.71	-45.9	-49.5	14.9	0.00e+00	0	43	0	173015040	63	5419
2026-01-11 01:13:34.73	353.25	14.79	-45.9	-49.5	14.9	0.00e+00	0	43	0	175112192	63	5434
2026-01-11 01:13:35.73	353.11	14.87	-45.8	-49.4	15.0	0.00e+00	0	43	0	177209344	63	5370
2026-01-11 01:13:36.74	352.96	14.95	-45.7	-49.2	15.2	0.00e+00	0	44	0	179306496	63	5234
2026-01-11 01:13:37.74	352.82	15.02	-45.7	-49.2	15.2	0.00e+00	0	44	0	180355072	63	5232
2026-01-11 01:13:38.74	352.67	15.10	-45.6	-49.0	15.4	0.00e+00	0	44	0	182452224	63	5144
2026-01-11 01:13:39.75	352.52	15.18	-45.6	-49.0	15.4	0.00e+00	0	44	0	184549376	63	5116
2026-01-11 01:13:40.75	352.38	15.26	-45.6	-49.0	15.4	0.00e+00	0	43	0	186646528	63	5159
2026-01-11 01:13:41.76	352.23	15.33	-45.6	-49.0	15.4	0.00e+00	0	44	0	188743680	63	5105
2026-01-11 01:13:42.76	352.08	15.41	-45.6	-49.1	15.3	0.00e+00	0	44	0	189792256	63	5165
2026-01-11 01:13:43.76	351.93	15.49	-45.6	-48.9	15.5	0.00e+00	0	43	0	191889408	63	5100
2026-01-11 01:13:44.77	351.77	15.57	-45.6	-48.9	15.5	0.00e+00	0	44	0	193986560	63	5098
2026-01-11 01:13:45.77	351.62	15.65	-45.6	-49.0	15.4	0.00e+00	0	43	0	196083712	63	5142
2026-01-11 01:13:46.77	351.47	15.72	-45.6	-49.0	15.4	0.00e+00	0	43	0	198180864	63	5130
2026-01-11 01:13:47.78	351.32	15.80	-45.5	-48.9	15.5	0.00e+00	0	43	0	199229440	63	5097
2026-01-11 01:13:48.78	351.16	15.88	-45.5	-49.0	15.4	0.00e+00	0	43	0	201326592	63	5157
2026-01-11 01:13:49.79	351.01	15.96	-45.5	-49.0	15.4	0.00e+00	0	43	0	203423744	63	5146
2026-01-11 01:13:50.79	350.85	16.04	-45.6	-49.1	15.3	0.00e+00	0	43	0	205520896	63	5181
2026-01-11 01:13:51.79	350.69	16.11	-45.6	-49.1	15.3	0.00e+00	0	44	0	207618048	63	5191
2026-01-11 01:13:52.80	350.54	16.19	-45.6	-49.1	15.4	0.00e+00	0	44	0	208666624	63	5173
2026-01-11 01:13:53.80	350.38	16.27	-45.5	-49.0	15.5	0.00e+00	0	44	0	210763776	63	5119
2026-01-11 01:13:54.80	350.22	16.35	-45.5	-48.9	15.6	0.00e+00	0	44	0	212860928	63	5060
2026-01-11 01:13:55.81	350.06	16.43	-45.5	-49.0	15.5	0.00e+00	0	43	0	214958080	62	5410
2026-01-11 01:13:56.81	349.90	16.50	-45.6	-49.1	15.4	0.00e+00	0	43	0	217055232	62	5478
2026-01-11 01:13:57.81	349.74	16.58	-45.6	-48.9	15.6	0.00e+00	0	44	0	218103808	62	5371
2026-01-11 01:13:58.82	349.57	16.66	-45.6	-49.0	15.5	0.00e+00	0	44	0	220200960	62	5418
2026-01-11 01:13:59.82	349.41	16.74	-45.6	-48.9	15.5	0.00e+00	0	44	0	222298112	62	5386
2026-01-11 01:14:00.82	349.24	16.82	-45.6	-49.0	15.5	0.00e+00	0	44	0	224395264	62	5424
2026-01-11 01:14:01.83	349.08	16.90	-45.5	-48.9	15.6	0.00e+00	0	43	0	226492416	62	5366
2026-01-11 01:14:02.83	348.91	16.97	-45.5	-49.0	15.4	0.00e+00	0	44	0	227540992	62	5435
2026-01-11 01:14:03.84	348.74	17.05	-45.5	-49.0	15.4	0.00e+00	0	43	0	229638144	62	5446
2026-01-11 01:14:04.84	348.58	17.13	-45.6	-49.2	15.3	0.00e+00	0	44	0	231735296	62	5544
2026-01-11 01:14:05.85	348.41	17.21	-45.5	-49.1	15.4	0.00e+00	0	43	0	233832448	62	5521
2026-01-11 01:14:06.85	348.24	17.29	-45.4	-49.2	15.3	0.00e+00	0	44	0	235929600	62	5549
2026-01-11 01:14:07.85	348.07	17.37	-45.4	-49.3	15.2	0.00e+00	0	44	0	236978176	62	5610
2026-01-11 01:14:08.85	347.89	17.44	-45.3	-49.3	15.2	7.00e-07	0	43	0	239075328	62	5597
2026-01-11 01:14:09.85	347.72	17.52	-45.3	-49.2	15.3	0.00e+00	0	44	0	241172480	62	5561
2026-01-11 01:14:10.86	347.55	17.60	-45.4	-49.4	15.1	0.00e+00	0	44	0	243269632	62	5691
2026-01-11 01:14:11.86	347.37	17.68	-45.3	-49.2	15.2	0.00e+00	0	44	0	244318208	62	5589
2026-01-11 01:14:12.86	347.20	17.76	-45.4	-49.3	15.2	0.00e+00	0	44	0	246415360	62	5636
2026-01-11 01:14:13.87	347.02	17.83	-45.4	-49.2	15.2	0.00e+00	0	44	0	248512512	62	5588
2026-01-11 01:14:14.87	346.85	17.91	-45.4	-49.2	15.3	0.00e+00	0	44	0	250609664	62	5573
2026-01-11 01:14:15.87	346.67	17.99	-45.4	-49.2	15.2	0.00e+00	0	44	0	252706816	62	5575
2026-01-11 01:14:16.88	346.49	18.07	-45.5	-49.3	15.2	0.00e+00	0	44	0	253755392	62	5644
2026-01-11 01:14:17.88	346.31	18.15	-45.5	-49.3	15.2	0.00e+00	0	44	0	255852544	62	5640
2026-01-11 01:14:18.88	346.13	18.22	-45.4	-49.3	15.2	0.00e+00	0	44	0	257949696	62	5628
2026-01-11 01:14:19.89	345.94	18.30	-45.5	-49.4	15.1	0.00e+00	0	44	0	260046848	62	5662
2026-01-11 01:14:20.89	345.76	18.38	-45.4	-49.2	15.2	0.00e+00	0	44	0	262144000	62	5573
2026-01-11 01:14:21.89	345.58	18.46	-45.4	-49.2	15.3	0.00e+00	0	44	0	263192576	62	5546
2026-01-11 01:14:22.90	345.39	18.54	-45.5	-49.2	15.3	0.00e+00	0	44	0	265289728	62	5548
2026-01-11 01:14:23.90	345.21	18.61	-45.6	-49.3	15.3	0.00e+00	0	43	0	267386880	62	5597
2026-01-11 01:14:24.90	345.02	18.69	-45.7	-49.2	15.3	0.00e+00	0	43	0	269484032	62	5548
2026-01-11 01:14:25.91	344.83	18.77	-45.8	-49.1	15.3	0.00e+00	0	44	0	271581184	62	5528
2026-01-11 01:14:26.91	344.65	18.85	-45.8	-49.1	15.4	0.00e+00	0	44	0	272629760	62	5523
2026-01-11 01:14:27.91	344.46	18.92	-45.9	-49.2	15.3	0.00e+00	0	44	0	274726912	62	5551
2026-01-11 01:14:28.92	344.26	19.00	-45.9	-49.3	15.2	0.00e+00	0	44	0	276824064	62	5611
2026-01-11 01:14:29.92	344.07	19.08	-46.0	-49.4	15.1	0.00e+00	0	44	0	278921216	62	5681
2026-01-11 01:14:30.92	343.88	19.15	-46.1	-49.5	15.0	0.00e+00	0	44	0	281018368	62	5768
2026-01-11 01:14:31.93	343.69	19.23	-46.1	-49.5	14.9	0.00e+00	0	44	0	282066944	62	5787
2026-01-11 01:14:32.93	343.49	19.31	-46.1	-49.5	14.9	0.00e+00	0	44	0	284164096	62	5784
2026-01-11 01:14:33.93	343.30	19.38	-46.1	-49.4	15.1	0.00e+00	0	44	0	286261248	62	5703
2026-01-11 01:14:34.94	343.10	19.46	-46.1	-49.4	15.1	0.00e+00	0	44	0	288358400	62	5722
2026-01-11 01:14:35.94	342.90	19.54	-45.9	-49.2	15.3	0.00e+00	0	44	0	290455552	62	5542
2026-01-11 01:14:36.94	342.70	19.61	-45.8	-49.1	15.4	0.00e+00	0	44	0	291504128	62	5501
2026-01-11 01:14:37.95	342.50	19.69	-45.7	-49.0	15.5	0.00e+00	0	44	0	293601280	62	5443
2026-01-11 01:14:38.95	342.30	19.77	-45.6	-49.1	15.4	0.00e+00	0	44	0	295698432	62	5478
2026-01-11 01:14:39.95	342.10	19.84	-45.5	-48.9	15.6	0.00e+00	0	44	0	297795584	62	5343
2026-01-11 01:14:40.96	341.90	19.92	-45.4	-48.8	15.6	0.00e+00	0	44	0	299892736	62	5334
2026-01-11 01:14:41.96	341.70	19.99	-45.4	-48.8	15.7	0.00e+00	0	44	0	300941312	62	5332
2026-01-11 01:14:42.97	341.49	20.07	-45.4	-48.7	15.8	0.00e+00	0	44	0	303038464	62	5232
2026-01-11 01:14:43.97	341.28	20.14	-45.5	-48.7	15.8	0.00e+00	0	44	0	305135616	62	5242
2026-01-11 01:14:44.98	341.08	20.22	-45.5	-48.7	15.8	0.00e+00	0	44	0	307232768	62	5265
2026-01-11 01:14:45.98	340.87	20.29	-45.4	-48.6	15.9	0.00e+00	0	44	0	308281344	62	5170
2026-01-11 01:14:46.99	340.66	20.37	-45.3	-48.7	15.8	0.00e+00	0	44	0	310378496	62	5247
2026-01-11 01:14:47.99	340.45	20.44	-45.2	-48.6	15.8	0.00e+00	0	44	0	312475648	62	5215
2026-01-11 01:14:48.99	340.24	20.52	-44.9	-48.4	16.1	0.00e+00	0	44	0	314572800	61	5344
2026-01-11 01:14:50.00	340.03	20.59	-44.8	-48.3	16.1	0.00e+00	0	44	0	316669952	61	5313
2026-01-11 01:14:51.00	339.81	20.67	-44.8	-48.3	16.2	0.00e+00	0	44	0	317718528	61	5307
2026-01-11 01:14:52.00	339.60	20.74	-44.9	-48.3	16.2	0.00e+00	0	44	0	319815680	61	5291
2026-01-11 01:14:53.01	339.38	20.81	-44.8	-48.1	16.3	0.00e+00	0	44	0	321912832	61	5175
2026-01-11 01:14:54.01	339.17	20.89	-44.8	-47.9	16.5	0.00e+00	0	44	0	324009984	61	5093
2026-01-11 01:14:55.01	338.95	20.96	-44.9	-48.0	16.5	0.00e+00	0	44	0	326107136	61	5102
2026-01-11 01:14:56.02	338.73	21.03	-44.9	-47.9	16.5	0.00e+00	0	44	0	327155712	61	5090
2026-01-11 01:14:57.02	338.52	21.11	-44.9	-47.8	16.6	0.00e+00	0	44	0	329252864	61	5017
2026-01-11 01:14:58.02	338.30	21.18	-44.8	-47.8	16.7	0.00e+00	0	44	0	331350016	61	4991
2026-01-11 01:14:59.02	338.08	21.25	-44.8	-47.8	16.7	0.00e+00	0	44	0	333447168	61	4987
2026-01-11 01:15:00.03	337.85	21.32	-44.6	-47.7	16.8	0.00e+00	0	44	0	335544320	61	4939
2026-01-11 01:15:01.03	337.63	21.40	-44.5	-47.5	16.9	0.00e+00	0	44	0	336592896	61	4858
2026-01-11 01:15:02.03	337.40	21.47	-44.3	-47.3	17.2	0.00e+00	0	44	0	338690048	60	5012
2026-01-11 01:15:03.04	337.18	21.54	-44.2	-47.1	17.3	0.00e+00	0	44	0	340787200	60	4914
2026-01-11 01:15:04.04	336.95	21.61	-44.2	-47.1	17.3	0.00e+00	0	44	0	342884352	60	4924
2026-01-11 01:15:05.04	336.73	21.68	-44.3	-47.1	17.3	0.00e+00	0	44	0	344981504	60	4897
2026-01-11 01:15:06.04	336.50	21.75	-44.3	-47.1	17.4	0.00e+00	0	44	0	346030080	60	4886
2026-01-11 01:15:07.05	336.27	21.82	-44.3	-47.0	17.5	0.00e+00	0	44	0	348127232	60	4828
2026-01-11 01:15:08.05	336.04	21.89	-44.3	-47.1	17.3	0.00e+00	0	44	0	350224384	60	4903
2026-01-11 01:15:09.05	335.80	21.96	-44.4	-47.2	17.3	0.00e+00	0	44	0	352321536	60	4942
2026-01-11 01:15:10.06	335.57	22.03	-44.3	-47.2	17.3	0.00e+00	0	44	0	354418688	60	4927
2026-01-11 01:15:11.06	335.34	22.10	-44.3	-47.2	17.3	0.00e+00	0	44	0	355467264	60	4941
2026-01-11 01:15:12.07	335.10	22.17	-44.3	-47.2	17.2	0.00e+00	0	44	0	357564416	60	4948
2026-01-11 01:15:13.07	334.87	22.23	-44.2	-47.1	17.4	0.00e+00	0	44	0	359661568	60	4874
2026-01-11 01:15:14.07	334.63	22.30	-44.2	-47.0	17.4	0.00e+00	0	44	0	361758720	60	4850
2026-01-11 01:15:15.08	334.39	22.37	-44.3	-47.0	17.4	0.00e+00	0	44	0	362807296	60	4855
2026-01-11 01:15:16.08	334.15	22.44	-44.2	-47.0	17.5	0.00e+00	0	44	0	364904448	60	4825
2026-01-11 01:15:17.08	333.91	22.50	-44.2	-46.9	17.6	0.00e+00	0	44	0	367001600	60	4791
2026-01-11 01:15:18.09	333.67	22.57	-44.2	-46.9	17.5	0.00e+00	0	44	0	369098752	60	4807
2026-01-11 01:15:19.09	333.43	22.64	-44.3	-47.0	17.5	0.00e+00	0	43	0	371195904	60	4852
2026-01-11 01:15:20.09	333.18	22.70	-44.2	-47.0	17.5	0.00e+00	0	44	0	373293056	60	4818
2026-01-11 01:15:21.10	332.94	22.77	-44.3	-47.0	17.4	0.00e+00	0	44	0	374341632	60	4865
2026-01-11 01:15:22.10	332.69	22.83	-44.2	-47.0	17.5	0.00e+00	0	44	0	376438784	60	4839
2026-01-11 01:15:23.10	332.45	22.90	-44.3	-47.0	17.4	0.00e+00	0	44	0	378535936	60	4865
2026-01-11 01:15:24.11	332.20	22.96	-44.2	-46.9	17.6	0.00e+00	0	44	0	380633088	60	4782
2026-01-11 01:15:25.11	331.95	23.02	-44.0	-46.6	17.7	0.00e+00	0	44	0	381681664	59	4911
2026-01-11 01:15:26.11	331.70	23.09	-44.1	-46.7	17.6	0.00e+00	0	44	0	383778816	59	4978
2026-01-11 01:15:27.12	331.45	23.15	-44.2	-46.9	17.5	0.00e+00	0	44	0	385875968	59	5076
2026-01-11 01:15:28.12	331.20	23.21	-44.3	-47.0	17.4	0.00e+00	0	44	0	387973120	59	5153
2026-01-11 01:15:29.12	330.95	23.27	-44.5	-47.2	17.2	0.00e+00	0	44	0	390070272	59	5244
2026-01-11 01:15:30.13	330.69	23.34	-44.6	-47.4	17.1	0.00e+00	0	44	0	391118848	59	5344
2026-01-11 01:15:31.13	330.44	23.40	-44.5	-47.3	17.1	0.00e+00	0	44	0	393216000	59	5300
2026-01-11 01:15:32.14	330.18	23.46	-44.6	-47.3	17.1	0.00e+00	0	44	0	395313152	59	5330
2026-01-11 01:15:33.14	329.93	23.52	-44.6	-47.3	17.1	0.00e+00	0	44	0	397410304	59	5310
2026-01-11 01:15:34.14	329.67	23.58	-44.5	-47.2	17.2	0.00e+00	0	43	0	399507456	59	5265
2026-01-11 01:15:35.15	329.41	23.64	-44.6	-47.3	17.1	0.00e+00	0	44	0	400556032	59	5332
2026-01-11 01:15:36.15	329.15	23.69	-44.4	-47.2	17.2	0.00e+00	0	44	0	402653184	59	5226
2026-01-11 01:15:37.15	328.89	23.75	-44.4	-47.1	17.3	0.00e+00	0	44	0	404750336	59	5169
2026-01-11 01:15:38.15	328.63	23.81	-44.4	-47.1	17.2	0.00e+00	0	44	0	406847488	59	5213
2026-01-11 01:15:39.16	328.36	23.87	-44.5	-47.3	17.1	0.00e+00	0	44	0	408944640	59	5285
2026-01-11 01:15:40.16	328.10	23.92	-44.4	-47.2	17.2	0.00e+00	0	44	0	409993216	59	5251
2026-01-11 01:15:41.16	327.84	23.98	-44.3	-47.2	17.2	0.00e+00	0	44	0	412090368	59	5259
2026-01-11 01:15:42.17	327.57	24.03	-44.1	-47.0	17.3	0.00e+00	0	44	0	414187520	59	5151
2026-01-11 01:15:43.17	327.31	24.09	-44.2	-47.1	17.3	0.00e+00	0	44	0	416284672	59	5181
2026-01-11 01:15:44.17	327.04	24.14	-44.1	-47.0	17.4	0.00e+00	0	44	0	418381824	59	5117
2026-01-11 01:15:45.18	326.77	24.20	-44.1	-46.9	17.6	0.00e+00	0	44	0	419430400	59	5050
2026-01-11 01:15:46.18	326.50	24.25	-44.0	-46.7	17.7	0.00e+00	0	44	0	421527552	59	4967
2026-01-11 01:15:47.19	326.23	24.30	-44.1	-46.8	17.6	0.00e+00	0	44	0	423624704	59	5020
2026-01-11 01:15:48.19	325.96	24.35	-44.1	-46.8	17.5	0.00e+00	0	44	0	425721856	59	5012
2026-01-11 01:15:49.19	325.69	24.41	-44.1	-46.8	17.6	0.00e+00	0	44	0	427819008	59	5006
2026-01-11 01:15:50.20	325.41	24.46	-44.2	-46.8	17.6	0.00e+00	0	44	0	428867584	59	5029
2026-01-11 01:15:51.20	325.14	24.51	-44.1	-46.7	17.7	0.00e+00	0	44	0	430964736	59	4960
2026-01-11 01:15:52.21	324.86	24.56	-43.9	-46.4	17.9	0.00e+00	0	44	0	433061888	59	4789
2026-01-11 01:15:53.21	324.59	24.61	-43.8	-46.3	18.0	0.00e+00	0	44	0	435159040	59	4743
2026-01-11 01:15:54.22	324.31	24.65	-43.9	-46.4	18.0	0.00e+00	0	44	0	436207616	59	4770
2026-01-11 01:15:55.22	324.04	24.70	-43.8	-46.3	18.0	0.00e+00	0	44	0	438304768	59	4754
2026-01-11 01:15:56.22	323.76	24.75	-43.7	-46.3	18.1	0.00e+00	0	44	0	440401920	59	4723
2026-01-11 01:15:57.23	323.48	24.79	-43.7	-46.3	18.1	0.00e+00	0	44	0	442499072	59	4708
2026-01-11 01:15:58.23	323.20	24.84	-43.7	-46.2	18.1	0.00e+00	0	44	0	444596224	59	4687
2026-01-11 01:15:59.23	322.92	24.89	-43.7	-46.3	18.1	0.00e+00	0	44	0	445644800	59	4712
2026-01-11 01:16:00.24	322.64	24.93	-43.8	-46.4	17.9	0.00e+00	0	44	0	447741952	59	4805
2026-01-11 01:16:01.24	322.35	24.97	-43.9	-46.5	17.8	0.00e+00	0	44	0	449839104	59	4855
2026-01-11 01:16:02.25	322.07	25.02	-44.0	-46.6	17.8	0.00e+00	0	44	0	451936256	59	4912
2026-01-11 01:16:03.25	321.79	25.06	-44.0	-46.6	17.8	0.00e+00	0	44	0	454033408	59	4900
2026-01-11 01:16:04.25	321.50	25.10	-44.0	-46.6	17.7	0.00e+00	0	44	0	455081984	59	4925
2026-01-11 01:16:05.26	321.22	25.14	-44.1	-46.8	17.6	0.00e+00	0	44	0	457179136	59	4999
2026-01-11 01:16:06.26	320.93	25.18	-44.3	-47.0	17.4	0.00e+00	0	44	0	459276288	59	5106
2026-01-11 01:16:07.26	320.65	25.22	-44.4	-47.1	17.3	0.00e+00	0	44	0	461373440	59	5206
2026-01-11 01:16:08.27	320.36	25.26	-44.4	-47.2	17.2	0.00e+00	0	44	0	463470592	59	5235
2026-01-11 01:16:09.27	320.07	25.30	-44.4	-47.2	17.2	0.00e+00	0	44	0	464519168	59	5231
2026-01-11 01:16:10.28	319.78	25.33	-44.5	-47.2	17.2	0.00e+00	0	43	0	466616320	59	5268
2026-01-11 01:16:11.28	319.49	25.37	-44.4	-47.2	17.3	0.00e+00	0	44	0	468713472	59	5233
2026-01-11 01:16:12.28	319.20	25.41	-44.5	-47.3	17.1	0.00e+00	0	44	0	470810624	59	5297
2026-01-11 01:16:13.29	318.91	25.44	-44.6	-47.4	17.0	0.00e+00	0	44	0	472907776	59	5382
2026-01-11 01:16:14.29	318.62	25.48	-44.8	-47.6	16.9	0.00e+00	0	44	0	473956352	60	5216
2026-01-11 01:16:15.29	318.33	25.51	-44.8	-47.8	16.7	0.00e+00	0	44	0	476053504	60	5289
2026-01-11 01:16:16.29	318.04	25.54	-44.8	-47.8	16.7	0.00e+00	0	44	0	478150656	60	5300
2026-01-11 01:16:17.29	317.74	25.57	-44.9	-47.9	16.7	0.00e+00	0	44	0	480247808	60	5354
2026-01-11 01:16:18.30	317.45	25.60	-44.9	-47.9	16.6	0.00e+00	0	44	0	482344960	60	5393
2026-01-11 01:16:19.30	317.15	25.63	-45.1	-48.2	16.3	0.00e+00	0	44	0	483393536	60	5567
2026-01-11 01:16:20.30	316.86	25.66	-45.1	-48.2	16.2	0.00e+00	0	44	0	485490688	61	5276
2026-01-11 01:16:21.31	316.56	25.69	-45.2	-48.3	16.2	0.00e+00	0	44	0	487587840	61	5318
2026-01-11 01:16:22.31	316.27	25.72	-45.2	-48.2	16.3	0.00e+00	0	44	0	489684992	61	5244
2026-01-11 01:16:23.31	315.97	25.75	-45.2	-48.3	16.2	0.00e+00	0	44	0	491782144	61	5292
2026-01-11 01:16:24.31	315.68	25.77	-45.2	-48.3	16.2	0.00e+00	0	44	0	492830720	61	5309
2026-01-11 01:16:25.32	315.38	25.80	-45.3	-48.4	16.1	0.00e+00	0	43	0	494927872	61	5400
2026-01-11 01:16:26.32	315.08	25.82	-45.4	-48.6	15.9	0.00e+00	0	44	0	497025024	61	5482
2026-01-11 01:16:27.32	314.78	25.85	-45.4	-48.6	16.0	0.00e+00	0	43	0	499122176	61	5471
2026-01-11 01:16:28.32	314.48	25.87	-45.4	-48.5	16.1	0.00e+00	0	44	0	500170752	61	5411
2026-01-11 01:16:29.33	314.18	25.89	-45.3	-48.4	16.1	0.00e+00	0	44	0	502267904	61	5367
2026-01-11 01:16:30.33	313.88	25.91	-45.3	-48.4	16.1	0.00e+00	0	44	0	504365056	61	5347
2026-01-11 01:16:31.33	313.58	25.93	-45.2	-48.3	16.2	0.00e+00	0	44	0	506462208	61	5335
2026-01-11 01:16:32.34	313.28	25.95	-45.1	-48.2	16.3	0.00e+00	0	44	0	508559360	61	5241
2026-01-11 01:16:33.34	312.98	25.97	-45.1	-48.2	16.4	0.00e+00	0	44	0	509607936	61	5240
2026-01-11 01:16:34.35	312.68	25.99	-45.1	-48.2	16.3	0.00e+00	0	44	0	511705088	61	5221
2026-01-11 01:16:35.35	312.38	26.01	-45.1	-48.2	16.3	0.00e+00	0	44	0	513802240	61	5264
2026-01-11 01:16:36.35	312.07	26.02	-45.3	-48.6	16.0	0.00e+00	0	44	0	515899392	61	5472
2026-01-11 01:16:37.36	311.77	26.04	-45.4	-48.7	15.9	0.00e+00	0	44	0	517996544	61	5542
2026-01-11 01:16:38.36	311.47	26.05	-45.5	-48.8	15.7	0.00e+00	0	44	0	519045120	61	5640
2026-01-11 01:16:39.36	311.17	26.07	-45.6	-48.9	15.5	0.00e+00	0	44	0	521142272	61	5720
2026-01-11 01:16:40.37	310.86	26.08	-45.7	-49.0	15.5	0.00e+00	0	44	0	523239424	62	5454
2026-01-11 01:16:41.37	310.56	26.09	-45.7	-49.0	15.6	0.00e+00	0	44	0	525336576	62	5429
2026-01-11 01:16:42.37	310.26	26.10	-45.7	-49.0	15.6	0.00e+00	0	44	0	527433728	62	5406
2026-01-11 01:16:43.38	309.95	26.11	-45.8	-49.0	15.5	0.00e+00	0	44	0	528482304	62	5451
2026-01-11 01:16:44.38	309.65	26.12	-45.8	-49.0	15.5	0.00e+00	0	44	0	530579456	62	5463
2026-01-11 01:16:45.38	309.34	26.13	-45.8	-49.0	15.5	0.00e+00	0	44	0	532676608	62	5429
2026-01-11 01:16:46.39	309.04	26.14	-45.9	-49.2	15.4	0.00e+00	0	44	0	534773760	62	5533
2026-01-11 01:16:47.39	308.73	26.14	-45.8	-49.1	15.5	0.00e+00	0	44	0	536870912	62	5478
2026-01-11 01:16:48.40	308.43	26.15	-45.9	-49.1	15.4	0.00e+00	0	44	0	537919488	62	5525
2026-01-11 01:16:49.40	308.12	26.15	-46.0	-49.3	15.3	0.00e+00	0	44	0	540016640	62	5613
2026-01-11 01:16:50.40	307.82	26.16	-45.9	-49.1	15.4	0.00e+00	0	44	0	542113792	62	5523
2026-01-11 01:16:51.41	307.51	26.16	-45.8	-49.0	15.5	0.00e+00	0	44	0	544210944	62	5444
2026-01-11 01:16:52.41	307.21	26.16	-45.6	-48.7	15.8	0.00e+00	0	44	0	546308096	62	5275
2026-01-11 01:16:53.41	306.91	26.16	-45.5	-48.6	15.9	0.00e+00	0	44	0	547356672	62	5188
2026-01-11 01:16:54.41	306.60	26.16	-45.4	-48.4	16.1	0.00e+00	0	44	0	549453824	62	5073
2026-01-11 01:16:55.42	306.29	26.16	-45.4	-48.4	16.1	0.00e+00	0	44	0	551550976	62	5046
2026-01-11 01:16:56.42	305.99	26.16	-45.3	-48.3	16.2	0.00e+00	0	44	0	553648128	62	5016
2026-01-11 01:16:57.43	305.68	26.16	-45.3	-48.3	16.2	0.00e+00	0	44	0	555745280	62	4995
2026-01-11 01:16:58.43	305.38	26.16	-45.2	-48.1	16.4	0.00e+00	0	44	0	556793856	62	4920
2026-01-11 01:16:59.43	305.08	26.15	-45.3	-48.3	16.2	0.00e+00	0	44	0	558891008	62	5018
2026-01-11 01:17:00.44	304.77	26.15	-45.4	-48.4	16.1	0.00e+00	0	44	0	560988160	62	5078
2026-01-11 01:17:01.44	304.46	26.14	-45.4	-48.4	16.1	0.00e+00	0	44	0	563085312	62	5083
2026-01-11 01:17:02.45	304.16	26.13	-45.3	-48.3	16.2	0.00e+00	0	44	0	565182464	62	5007
2026-01-11 01:17:03.45	303.85	26.13	-45.1	-48.0	16.5	0.00e+00	0	44	0	566231040	62	4850
2026-01-11 01:17:04.45	303.55	26.12	-45.1	-48.0	16.5	0.00e+00	0	44	0	568328192	62	4830
2026-01-11 01:17:05.46	303.24	26.11	-44.9	-47.7	16.8	0.00e+00	0	44	0	570425344	61	4936
2026-01-11 01:17:06.46	302.94	26.10	-44.8	-47.6	16.9	0.00e+00	0	44	0	572522496	61	4872
2026-01-11 01:17:07.46	302.64	26.09	-44.7	-47.5	16.9	0.00e+00	0	44	0	573571072	61	4849
2026-01-11 01:17:08.47	302.33	26.07	-44.6	-47.3	17.1	0.00e+00	0	44	0	575668224	61	4737
2026-01-11 01:17:09.47	302.03	26.06	-44.5	-47.2	17.2	0.00e+00	0	44	0	577765376	61	4667
2026-01-11 01:17:10.47	301.73	26.05	-44.5	-47.2	17.2	0.00e+00	0	44	0	579862528	60	4962
2026-01-11 01:17:11.48	301.42	26.03	-44.5	-47.2	17.2	0.00e+00	0	44	0	581959680	60	4974
2026-01-11 01:17:12.48	301.12	26.02	-44.5	-47.2	17.3	0.00e+00	0	44	0	583008256	60	4962
2026-01-11 01:17:13.48	300.82	26.00	-44.5	-47.1	17.3	0.00e+00	0	44	0	585105408	60	4918
2026-01-11 01:17:14.49	300.52	25.98	-44.4	-47.1	17.3	0.00e+00	0	44	0	587202560	60	4897
2026-01-11 01:17:15.49	300.22	25.97	-44.4	-47.0	17.4	0.00e+00	0	44	0	589299712	60	4867
2026-01-11 01:17:16.49	299.92	25.95	-44.3	-47.0	17.4	0.00e+00	0	44	0	591396864	60	4844
2026-01-11 01:17:17.50	299.61	25.93	-44.1	-46.8	17.7	0.00e+00	0	44	0	592445440	60	4713
2026-01-11 01:17:18.50	299.32	25.91	-44.0	-46.6	17.8	0.00e+00	0	44	0	594542592	60	4638
2026-01-11 01:17:19.48	299.02	25.88	-43.9	-46.4	17.9	0.00e+00	0	44	0	596639744	59	4806
2026-01-11 01:17:20.49	298.72	25.86	-43.8	-46.3	18.1	0.00e+00	0	44	0	598736896	59	4716
2026-01-11 01:17:21.49	298.42	25.84	-43.7	-46.1	18.2	0.00e+00	0	44	0	600834048	59	4629
2026-01-11 01:17:22.49	298.12	25.81	-43.7	-46.2	18.1	0.00e+00	0	44	0	601882624	59	4681
2026-01-11 01:17:23.50	297.82	25.79	-43.8	-46.3	18.0	0.00e+00	0	44	0	603979776	59	4749
2026-01-11 01:17:24.50	297.53	25.76	-43.9	-46.4	18.0	0.00e+00	0	44	0	606076928	59	4800
2026-01-11 01:17:25.50	297.23	25.74	-43.9	-46.4	17.9	0.00e+00	0	43	0	608174080	59	4801
2026-01-11 01:17:26.51	296.93	25.71	-43.8	-46.3	18.0	0.00e+00	0	44	0	610271232	59	4731
2026-01-11 01:17:27.51	296.64	25.68	-44.0	-46.4	17.9	0.00e+00	0	44	0	611319808	59	4809
2026-01-11 01:17:28.51	296.34	25.65	-44.0	-46.5	17.9	0.00e+00	0	44	0	613416960	59	4828
2026-01-11 01:17:29.52	296.04	25.62	-43.9	-46.3	18.0	0.00e+00	0	44	0	615514112	59	4743
2026-01-11 01:17:30.52	295.75	25.59	-43.8	-46.2	18.1	0.00e+00	0	44	0	617611264	59	4683
2026-01-11 01:17:31.53	295.46	25.56	-43.7	-46.2	18.2	0.00e+00	0	44	0	619708416	59	4663
2026-01-11 01:17:32.53	295.16	25.53	-43.7	-46.1	18.2	0.00e+00	0	44	0	620756992	59	4636
2026-01-11 01:17:33.53	294.87	25.49	-43.7	-46.2	18.2	0.00e+00	0	44	0	622854144	59	4682
2026-01-11 01:17:34.53	294.58	25.46	-43.8	-46.3	18.1	0.00e+00	0	44	0	624951296	59	4713
2026-01-11 01:17:35.54	294.29	25.43	-43.9	-46.4	18.0	0.00e+00	0	44	0	627048448	59	4779
2026-01-11 01:17:36.54	294.00	25.39	-44.0	-46.5	17.9	0.00e+00	0	44	0	629145600	59	4843
2026-01-11 01:17:37.54	293.71	25.36	-44.1	-46.7	17.7	0.00e+00	0	44	0	630194176	59	4938
2026-01-11 01:17:38.55	293.41	25.32	-44.2	-46.8	17.6	0.00e+00	0	44	0	632291328	59	5005
2026-01-11 01:17:39.55	293.13	25.28	-44.2	-46.7	17.7	0.00e+00	0	44	0	634388480	59	4967
2026-01-11 01:17:40.55	292.84	25.24	-44.1	-46.7	17.7	0.00e+00	0	44	0	636485632	59	4931
2026-01-11 01:17:41.56	292.55	25.20	-44.1	-46.7	17.7	0.00e+00	0	44	0	637534208	59	4950
2026-01-11 01:17:42.56	292.26	25.16	-44.1	-46.7	17.7	0.00e+00	0	44	0	639631360	59	4927
2026-01-11 01:17:43.56	291.98	25.12	-44.1	-46.7	17.7	0.00e+00	0	44	0	641728512	59	4934
2026-01-11 01:17:44.57	291.69	25.08	-44.1	-46.7	17.7	0.00e+00	0	44	0	643825664	59	4944
2026-01-11 01:17:45.57	291.41	25.04	-44.1	-46.8	17.6	0.00e+00	0	44	0	645922816	59	4989
2026-01-11 01:17:46.58	291.12	25.00	-44.2	-46.8	17.6	0.00e+00	0	44	0	646971392	59	5039
2026-01-11 01:17:47.58	290.84	24.95	-44.1	-46.7	17.7	0.00e+00	0	44	0	649068544	59	4948
2026-01-11 01:17:48.59	290.56	24.91	-44.2	-46.8	17.5	0.00e+00	0	44	0	651165696	59	5028
2026-01-11 01:17:49.59	290.27	24.87	-44.3	-47.0	17.4	0.00e+00	0	44	0	653262848	59	5120
2026-01-11 01:17:50.59	289.99	24.82	-44.4	-47.1	17.3	0.00e+00	0	44	0	655360000	59	5183
2026-01-11 01:17:51.59	289.72	24.77	-44.5	-47.2	17.2	0.00e+00	0	44	0	656408576	59	5237
2026-01-11 01:17:52.60	289.43	24.73	-44.6	-47.3	17.1	0.00e+00	0	44	0	658505728	59	5291
2026-01-11 01:17:53.60	289.16	24.68	-44.6	-47.3	17.1	0.00e+00	0	44	0	660602880	59	5320
2026-01-11 01:17:54.60	288.88	24.63	-44.7	-47.4	17.0	0.00e+00	0	44	0	662700032	60	5086
2026-01-11 01:17:55.60	288.61	24.58	-44.7	-47.5	16.9	0.00e+00	0	44	0	664797184	60	5130
2026-01-11 01:17:56.61	288.33	24.53	-44.7	-47.4	17.0	0.00e+00	0	44	0	665845760	60	5098
2026-01-11 01:17:57.61	288.05	24.48	-44.7	-47.5	17.0	0.00e+00	0	44	0	667942912	60	5103
2026-01-11 01:17:58.61	287.78	24.43	-44.8	-47.6	16.9	0.00e+00	0	44	0	670040064	60	5176
2026-01-11 01:17:59.62	287.51	24.38	-44.9	-47.7	16.8	0.00e+00	0	44	0	672137216	60	5256
2026-01-11 01:18:00.62	287.23	24.33	-44.9	-47.7	16.7	0.00e+00	0	44	0	674234368	60	5261
2026-01-11 01:18:01.62	286.96	24.28	-44.9	-47.8	16.7	0.00e+00	0	44	0	675282944	60	5292
2026-01-11 01:18:02.62	286.69	24.23	-45.1	-48.0	16.5	0.00e+00	0	44	0	677380096	60	5413
2026-01-11 01:18:03.62	286.43	24.17	-45.1	-48.0	16.5	0.00e+00	0	44	0	679477248	60	5426
2026-01-11 01:18:04.63	286.16	24.12	-45.3	-48.3	16.2	0.00e+00	0	44	0	681574400	61	5298
2026-01-11 01:18:05.63	285.89	24.06	-45.3	-48.3	16.1	0.00e+00	0	44	0	683671552	61	5325
2026-01-11 01:18:06.64	285.62	24.01	-45.4	-48.4	16.0	0.00e+00	0	44	0	684720128	61	5398
2026-01-11 01:18:07.64	285.35	23.95	-45.5	-48.5	16.0	0.00e+00	0	44	0	686817280	61	5432
2026-01-11 01:18:08.64	285.09	23.90	-45.3	-48.3	16.2	0.00e+00	0	44	0	688914432	61	5299
2026-01-11 01:18:09.65	284.83	23.84	-45.3	-48.3	16.2	0.00e+00	0	44	0	691011584	61	5284
2026-01-11 01:18:10.65	284.56	23.78	-45.3	-48.3	16.1	0.00e+00	0	44	0	692060160	61	5326
2026-01-11 01:18:11.65	284.30	23.72	-45.5	-48.5	16.0	0.00e+00	0	44	0	694157312	61	5407
2026-01-11 01:18:12.66	284.04	23.67	-45.5	-48.5	16.0	0.00e+00	0	44	0	696254464	61	5408
2026-01-11 01:18:13.66	283.78	23.61	-45.4	-48.4	16.0	0.00e+00	0	44	0	698351616	61	5395
2026-01-11 01:18:14.66	283.52	23.55	-45.5	-48.5	16.0	0.00e+00	0	44	0	700448768	61	5421
2026-01-11 01:18:15.66	283.26	23.49	-45.5	-48.5	15.9	0.00e+00	0	44	0	701497344	61	5448
2026-01-11 01:18:16.66	283.01	23.43	-45.5	-48.5	16.0	0.00e+00	0	44	0	703594496	61	5428
2026-01-11 01:18:17.66	282.75	23.37	-45.5	-48.5	15.9	0.00e+00	0	44	0	705691648	61	5444
2026-01-11 01:18:18.67	282.50	23.31	-45.5	-48.5	16.0	0.00e+00	0	44	0	707788800	61	5404
2026-01-11 01:18:19.67	282.24	23.24	-45.5	-48.6	15.9	0.00e+00	0	44	0	709885952	61	5466
2026-01-11 01:18:20.67	281.99	23.18	-45.5	-48.5	16.0	0.00e+00	0	44	0	710934528	61	5437
2026-01-11 01:18:21.68	281.74	23.12	-45.5	-48.5	15.9	0.00e+00	0	44	0	713031680	61	5463
2026-01-11 01:18:22.68	281.49	23.06	-45.6	-48.7	15.8	0.00e+00	0	44	0	715128832	61	5560
2026-01-11 01:18:23.69	281.24	22.99	-45.7	-48.8	15.7	0.00e+00	0	44	0	717225984	62	5321
2026-01-11 01:18:24.69	280.99	22.93	-45.6	-48.7	15.8	0.00e+00	0	44	0	719323136	62	5268
2026-01-11 01:18:25.69	280.74	22.86	-45.6	-48.7	15.7	0.00e+00	0	44	0	720371712	62	5252
2026-01-11 01:18:26.69	280.49	22.80	-45.6	-48.7	15.8	0.00e+00	0	44	0	722468864	62	5265
2026-01-11 01:18:27.70	280.25	22.73	-45.5	-48.5	15.9	0.00e+00	0	44	0	724566016	62	5156
2026-01-11 01:18:28.70	280.00	22.67	-45.4	-48.5	16.0	0.00e+00	0	44	0	726663168	62	5101
2026-01-11 01:18:29.70	279.76	22.60	-45.5	-48.6	15.9	0.00e+00	0	44	0	728760320	62	5173
2026-01-11 01:18:30.71	279.52	22.54	-45.5	-48.6	15.9	0.00e+00	0	44	0	729808896	62	5167
2026-01-11 01:18:31.71	279.27	22.47	-45.5	-48.6	15.8	0.00e+00	0	44	0	731906048	62	5195
2026-01-11 01:18:32.72	279.03	22.40	-45.5	-48.5	16.0	0.00e+00	0	44	0	734003200	62	5130
2026-01-11 01:18:33.72	278.79	22.34	-45.5	-48.6	15.9	0.00e+00	0	44	0	736100352	62	5182
2026-01-11 01:18:34.72	278.56	22.27	-45.4	-48.4	16.0	0.00e+00	0	44	0	737148928	62	5098
2026-01-11 01:18:35.73	278.32	22.20	-45.3	-48.2	16.2	0.00e+00	0	44	0	739246080	62	4973
2026-01-11 01:18:36.73	278.08	22.13	-45.2	-48.2	16.3	0.00e+00	0	44	0	741343232	62	4941
2026-01-11 01:18:37.73	277.85	22.06	-45.2	-48.1	16.4	0.00e+00	0	44	0	743440384	62	4885
2026-01-11 01:18:38.74	277.61	21.99	-45.0	-47.9	16.5	0.00e+00	0	44	0	745537536	62	4797
2026-01-11 01:18:39.74	277.38	21.92	-44.9	-47.8	16.6	0.00e+00	0	44	0	747634688	61	5003
2026-01-11 01:18:40.75	277.14	21.85	-45.1	-48.0	16.5	0.00e+00	0	44	0	748683264	61	5110
2026-01-11 01:18:41.75	276.91	21.78	-45.0	-47.8	16.5	0.00e+00	0	44	0	750780416	61	5041
2026-01-11 01:18:42.75	276.68	21.71	-45.0	-47.9	16.5	0.00e+00	0	44	0	752877568	61	5056
2026-01-11 01:18:43.76	276.45	21.64	-45.0	-47.8	16.6	0.00e+00	0	44	0	754974720	61	5022
2026-01-11 01:18:44.76	276.23	21.57	-44.9	-47.7	16.7	0.00e+00	0	44	0	756023296	61	4954
2026-01-11 01:18:45.76	276.00	21.50	-44.7	-47.5	16.9	0.00e+00	0	44	0	758120448	61	4863
2026-01-11 01:18:46.76	275.77	21.43	-44.8	-47.6	16.8	0.00e+00	0	44	0	760217600	61	4885
2026-01-11 01:18:47.77	275.55	21.36	-44.6	-47.3	17.1	0.00e+00	0	44	0	762314752	61	4736
2026-01-11 01:18:48.77	275.32	21.28	-44.6	-47.3	17.1	0.00e+00	0	44	0	764411904	61	4748
2026-01-11 01:18:49.77	275.10	21.21	-44.6	-47.3	17.0	0.00e+00	0	44	0	765460480	61	4758
2026-01-11 01:18:50.78	274.88	21.14	-44.6	-47.4	17.0	0.00e+00	0	44	0	767557632	61	4765
2026-01-11 01:18:51.78	274.66	21.07	-44.7	-47.5	16.9	0.00e+00	0	44	0	769654784	61	4827
2026-01-11 01:18:52.78	274.44	20.99	-44.7	-47.5	16.9	0.00e+00	0	44	0	771751936	61	4850
2026-01-11 01:18:53.79	274.22	20.92	-44.7	-47.5	16.9	0.00e+00	0	44	0	773849088	61	4824
2026-01-11 01:18:54.79	274.00	20.85	-44.7	-47.5	16.8	0.00e+00	0	44	0	774897664	61	4867
2026-01-11 01:18:55.79	273.79	20.77	-44.6	-47.4	16.9	0.00e+00	0	44	0	776994816	61	4813
2026-01-11 01:18:56.79	273.57	20.70	-44.6	-47.4	16.9	0.00e+00	0	44	0	779091968	61	4813
2026-01-11 01:18:57.80	273.36	20.62	-44.6	-47.3	17.0	0.00e+00	0	44	0	781189120	61	4757
2026-01-11 01:18:58.80	273.14	20.55	-44.6	-47.4	17.0	0.00e+00	0	44	0	783286272	61	4763
2026-01-11 01:18:59.80	272.93	20.48	-44.6	-47.4	17.0	0.00e+00	0	44	0	784334848	61	4764
2026-01-11 01:19:00.81	272.72	20.40	-44.6	-47.4	17.0	0.00e+00	0	44	0	786432000	61	4788
2026-01-11 01:19:01.81	272.51	20.33	-44.8	-47.6	16.8	0.00e+00	0	44	0	788529152	61	4894
2026-01-11 01:19:02.81	272.30	20.25	-44.8	-47.7	16.8	0.00e+00	0	44	0	790626304	61	4932
2026-01-11 01:19:03.82	272.09	20.17	-44.8	-47.7	16.8	0.00e+00	0	44	0	792723456	61	4933
2026-01-11 01:19:04.82	271.88	20.10	-44.8	-47.6	16.8	0.00e+00	0	44	0	793772032	61	4914
2026-01-11 01:19:05.82	271.68	20.02	-44.9	-47.8	16.7	0.00e+00	0	44	0	795869184	61	4984
2026-01-11 01:19:06.83	271.47	19.95	-44.8	-47.6	16.7	0.00e+00	0	44	0	797966336	61	4892
2026-01-11 01:19:07.83	271.27	19.87	-44.7	-47.5	16.8	0.00e+00	0	44	0	800063488	61	4868
2026-01-11 01:19:08.83	271.07	19.80	-44.8	-47.6	16.8	0.00e+00	0	44	0	802160640	61	4892
2026-01-11 01:19:09.83	270.86	19.72	-44.8	-47.6	16.8	0.00e+00	0	44	0	803209216	61	4908
2026-01-11 01:19:10.84	270.66	19.64	-44.7	-47.6	16.8	0.00e+00	0	44	0	805306368	61	4880
2026-01-11 01:19:11.84	270.46	19.57	-44.6	-47.4	16.9	0.00e+00	0	44	0	807403520	61	4793
2026-01-11 01:19:12.85	270.26	19.49	-44.6	-47.4	17.0	0.00e+00	0	44	0	809500672	61	4765
2026-01-11 01:19:13.85	270.06	19.41	-44.6	-47.4	16.9	0.00e+00	0	44	0	810549248	61	4805
2026-01-11 01:19:14.85	269.87	19.34	-44.6	-47.4	16.9	0.00e+00	0	44	0	812646400	61	4793
2026-01-11 01:19:15.86	269.67	19.26	-44.5	-47.3	17.1	0.00e+00	0	44	0	814743552	61	4709
2026-01-11 01:19:16.86	269.48	19.18	-44.6	-47.4	17.0	0.00e+00	0	44	0	816840704	61	4766
2026-01-11 01:19:17.86	269.28	19.11	-44.5	-47.2	17.1	0.00e+00	0	44	0	818937856	60	4966
2026-01-11 01:19:18.86	269.09	19.03	-44.5	-47.2	17.1	0.00e+00	0	44	0	819986432	60	4977
2026-01-11 01:19:19.86	268.90	18.95	-44.5	-47.3	17.1	0.00e+00	0	44	0	822083584	60	5002
2026-01-11 01:19:20.87	268.71	18.87	-44.3	-47.1	17.3	0.00e+00	0	44	0	824180736	60	4879
2026-01-11 01:19:21.87	268.52	18.80	-44.2	-46.9	17.4	0.00e+00	0	44	0	826277888	60	4785
2026-01-11 01:19:22.87	268.33	18.72	-44.2	-46.8	17.5	0.00e+00	0	44	0	828375040	60	4750
2026-01-11 01:19:23.88	268.14	18.64	-44.2	-46.9	17.4	0.00e+00	0	44	0	829423616	60	4769
2026-01-11 01:19:24.88	267.95	18.56	-44.2	-46.9	17.5	0.00e+00	0	44	0	831520768	60	4761
2026-01-11 01:19:25.88	267.77	18.48	-44.1	-46.7	17.6	0.00e+00	0	44	0	833617920	60	4704
2026-01-11 01:19:26.89	267.58	18.41	-44.2	-46.9	17.4	0.00e+00	0	44	0	835715072	60	4773
2026-01-11 01:19:27.89	267.39	18.33	-44.2	-46.8	17.5	0.00e+00	0	44	0	837812224	60	4732
2026-01-11 01:19:28.90	267.21	18.25	-44.1	-46.7	17.6	0.00e+00	0	44	0	838860800	60	4701
2026-01-11 01:19:29.90	267.03	18.17	-44.1	-46.7	17.6	0.00e+00	0	44	0	840957952	60	4674
2026-01-11 01:19:30.90	266.85	18.09	-44.1	-46.7	17.6	0.00e+00	0	44	0	843055104	60	4667
2026-01-11 01:19:31.90	266.67	18.02	-44.0	-46.6	17.7	0.00e+00	0	44	0	845152256	60	4623
2026-01-11 01:19:32.91	266.49	17.94	-43.9	-46.4	17.8	0.00e+00	0	44	0	847249408	59	4794
2026-01-11 01:19:33.91	266.31	17.86	-43.9	-46.4	17.8	0.00e+00	0	44	0	848297984	59	4776
2026-01-11 01:19:34.91	266.13	17.78	-43.8	-46.4	17.8	0.00e+00	0	44	0	850395136	59	4770
2026-01-11 01:19:35.91	265.95	17.70	-43.9	-46.5	17.8	0.00e+00	0	44	0	852492288	59	4830
2026-01-11 01:19:36.92	265.78	17.62	-44.0	-46.6	17.6	0.00e+00	0	44	0	854589440	59	4887
2026-01-11 01:19:37.92	265.60	17.55	-44.0	-46.5	17.7	0.00e+00	0	44	0	856686592	59	4863
2026-01-11 01:19:38.92	265.43	17.47	-44.0	-46.5	17.7	0.00e+00	0	44	0	857735168	59	4852
2026-01-11 01:19:39.93	265.25	17.39	-44.0	-46.5	17.6	0.00e+00	0	44	0	859832320	59	4862
2026-01-11 01:19:40.93	265.08	17.31	-44.0	-46.5	17.7	0.00e+00	0	44	0	861929472	59	4867
2026-01-11 01:19:41.93	264.91	17.23	-43.9	-46.4	17.7	0.00e+00	0	44	0	864026624	59	4805
2026-01-11 01:19:42.94	264.74	17.15	-43.9	-46.4	17.8	0.00e+00	0	44	0	866123776	59	4779
2026-01-11 01:19:43.94	264.57	17.07	-43.9	-46.4	17.8	0.00e+00	0	44	0	867172352	59	4803
2026-01-11 01:19:44.94	264.40	17.00	-43.9	-46.5	17.7	0.00e+00	0	44	0	869269504	59	4829
2026-01-11 01:19:45.94	264.24	16.92	-43.8	-46.3	17.8	0.00e+00	0	44	0	871366656	59	4747
2026-01-11 01:19:46.94	264.07	16.84	-43.8	-46.3	17.9	0.00e+00	0	44	0	873463808	59	4734
2026-01-11 01:19:47.95	263.90	16.76	-43.9	-46.4	17.8	0.00e+00	0	44	0	874512384	59	4793
2026-01-11 01:19:48.95	263.74	16.68	-44.0	-46.6	17.6	0.00e+00	0	44	0	876609536	59	4915
2026-01-11 01:19:49.95	263.57	16.60	-44.1	-46.7	17.5	0.00e+00	0	44	0	878706688	59	4964
2026-01-11 01:19:50.96	263.41	16.52	-44.1	-46.8	17.3	0.00e+00	0	44	0	880803840	59	5024
2026-01-11 01:19:51.96	263.25	16.45	-44.2	-46.9	17.3	0.00e+00	0	44	0	882900992	59	5060
2026-01-11 01:19:52.96	263.09	16.37	-44.2	-46.9	17.3	0.00e+00	0	44	0	883949568	59	5093
2026-01-11 01:19:53.97	262.92	16.29	-44.2	-46.9	17.3	0.00e+00	0	44	0	886046720	59	5069
2026-01-11 01:19:54.97	262.76	16.21	-44.1	-46.8	17.4	0.00e+00	0	44	0	888143872	59	5000
2026-01-11 01:19:55.98	262.60	16.13	-44.1	-46.7	17.5	0.00e+00	0	44	0	890241024	59	4951
2026-01-11 01:19:56.98	262.45	16.05	-44.0	-46.6	17.5	0.00e+00	0	44	0	892338176	59	4909
2026-01-11 01:19:57.98	262.29	15.98	-44.0	-46.5	17.6	0.00e+00	0	44	0	893386752	59	4858
2026-01-11 01:19:58.99	262.13	15.90	-43.9	-46.5	17.6	0.00e+00	0	44	0	895483904	59	4853
2026-01-11 01:19:59.99	261.98	15.82	-44.1	-46.7	17.5	0.00e+00	0	44	0	897581056	59	4949
2026-01-11 01:20:00.99	261.82	15.74	-44.0	-46.6	17.5	0.00e+00	0	44	0	899678208	59	4922
2026-01-11 01:20:02.00	261.67	15.66	-44.0	-46.6	17.5	0.00e+00	0	44	0	901775360	59	4898
2026-01-11 01:20:03.00	261.51	15.58	-44.1	-46.7	17.5	0.00e+00	0	44	0	902823936	59	4951
2026-01-11 01:20:04.00	261.36	15.51	-44.2	-46.8	17.3	0.00e+00	0	44	0	904921088	59	5019
2026-01-11 01:20:05.00	261.21	15.43	-44.2	-46.9	17.2	0.00e+00	0	44	0	907018240	59	5072
2026-01-11 01:20:06.01	261.06	15.35	-44.2	-46.9	17.3	0.00e+00	0	44	0	909115392	59	5054
2026-01-11 01:20:07.01	260.91	15.27	-44.3	-47.0	17.1	0.00e+00	0	44	0	911212544	59	5132
2026-01-11 01:20:08.01	260.76	15.19	-44.4	-47.1	17.0	0.00e+00	0	44	0	912261120	59	5195
2026-01-11 01:20:09.01	260.61	15.12	-44.4	-47.2	16.9	0.00e+00	0	44	0	914358272	59	5243
2026-01-11 01:20:10.02	260.46	15.04	-44.5	-47.3	16.8	0.00e+00	0	44	0	916455424	59	5302
2026-01-11 01:20:11.02	260.32	14.96	-44.5	-47.3	16.9	0.00e+00	0	44	0	918552576	59	5308
2026-01-11 01:20:12.03	260.17	14.88	-44.6	-47.5	16.7	0.00e+00	0	44	0	920649728	59	5422
2026-01-11 01:20:13.03	260.02	14.81	-44.7	-47.6	16.6	0.00e+00	0	44	0	921698304	60	5211
2026-01-11 01:20:14.03	259.88	14.73	-44.8	-47.7	16.5	0.00e+00	0	44	0	923795456	60	5277
2026-01-11 01:20:15.04	259.73	14.65	-44.9	-47.9	16.4	0.00e+00	0	44	0	925892608	60	5344
2026-01-11 01:20:16.04	259.59	14.57	-44.9	-47.9	16.3	0.00e+00	0	44	0	927989760	60	5394
2026-01-11 01:20:17.05	259.45	14.50	-45.0	-48.0	16.2	0.00e+00	0	44	0	930086912	60	5446
2026-01-11 01:20:18.05	259.31	14.42	-45.0	-48.1	16.1	0.00e+00	0	44	0	931135488	60	5487
2026-01-11 01:20:19.06	259.16	14.34	-44.9	-47.9	16.3	0.00e+00	0	44	0	933232640	60	5368
2026-01-11 01:20:20.06	259.02	14.26	-44.9	-47.9	16.3	0.00e+00	0	44	0	935329792	60	5348
2026-01-11 01:20:21.06	258.89	14.19	-44.8	-47.7	16.4	0.00e+00	0	44	0	937426944	60	5273
2026-01-11 01:20:22.07	258.75	14.11	-44.7	-47.6	16.5	0.00e+00	0	44	0	938475520	60	5209
2026-01-11 01:20:23.07	258.61	14.03	-44.8	-47.7	16.5	0.00e+00	0	44	0	940572672	60	5264
2026-01-11 01:20:24.07	258.47	13.96	-44.7	-47.6	16.5	0.00e+00	0	44	0	942669824	60	5211
2026-01-11 01:20:25.08	258.33	13.88	-44.7	-47.6	16.6	0.00e+00	0	44	0	944766976	60	5186
2026-01-11 01:20:26.08	258.20	13.80	-44.8	-47.8	16.4	0.00e+00	0	44	0	946864128	60	5292
2026-01-11 01:20:27.09	258.06	13.72	-44.9	-47.8	16.3	0.00e+00	0	44	0	947912704	60	5335
2026-01-11 01:20:28.09	257.93	13.65	-45.0	-48.0	16.2	0.00e+00	0	44	0	950009856	60	5411
2026-01-11 01:20:29.09	257.79	13.57	-45.1	-48.1	16.1	0.00e+00	0	44	0	952107008	60	5502
2026-01-11 01:20:30.10	257.66	13.50	-45.1	-48.2	15.9	0.00e+00	0	44	0	954204160	60	5570
2026-01-11 01:20:31.10	257.53	13.42	-45.2	-48.3	15.9	0.00e+00	0	44	0	956301312	60	5620
2026-01-11 01:20:32.10	257.40	13.34	-45.2	-48.3	15.9	0.00e+00	0	44	0	957349888	61	5313
2026-01-11 01:20:33.11	257.27	13.27	-45.1	-48.2	16.0	0.00e+00	0	44	0	959447040	61	5245
2026-01-11 01:20:34.11	257.14	13.19	-45.1	-48.3	15.9	0.00e+00	0	44	0	961544192	61	5281
2026-01-11 01:20:35.11	257.01	13.12	-45.1	-48.2	16.0	0.00e+00	0	44	0	963641344	61	5245
2026-01-11 01:20:36.12	256.88	13.04	-45.1	-48.2	16.0	0.00e+00	0	44	0	965738496	61	5256
2026-01-11 01:20:37.12	256.75	12.96	-45.1	-48.2	16.0	0.00e+00	0	44	0	966787072	61	5227
2026-01-11 01:20:38.13	256.62	12.89	-45.0	-48.1	16.1	0.00e+00	0	44	0	968884224	61	5166
2026-01-11 01:20:39.13	256.49	12.81	-45.1	-48.2	16.0	0.00e+00	0	44	0	970981376	61	5240
2026-01-11 01:20:40.13	256.37	12.74	-45.1	-48.2	15.9	0.00e+00	0	44	0	973078528	61	5263
2026-01-11 01:20:41.13	256.24	12.66	-45.2	-48.3	15.9	0.00e+00	0	44	0	975175680	61	5290
2026-01-11 01:20:42.14	256.12	12.59	-45.2	-48.3	15.9	0.00e+00	0	44	0	976224256	61	5304
2026-01-11 01:20:43.14	255.99	12.51	-45.2	-48.4	15.8	0.00e+00	0	44	0	978321408	61	5344
2026-01-11 01:20:44.15	255.87	12.43	-45.3	-48.5	15.7	0.00e+00	0	44	0	980418560	61	5430
2026-01-11 01:20:45.15	255.75	12.36	-45.4	-48.6	15.6	0.00e+00	0	44	0	982515712	61	5471
2026-01-11 01:20:46.15	255.62	12.29	-45.4	-48.6	15.6	0.00e+00	0	44	0	984612864	61	5486
2026-01-11 01:20:47.15	255.50	12.21	-45.4	-48.6	15.6	0.00e+00	0	44	0	985661440	61	5492
2026-01-11 01:20:48.16	255.38	12.14	-45.4	-48.6	15.6	0.00e+00	0	44	0	987758592	61	5496
2026-01-11 01:20:49.16	255.26	12.06	-45.4	-48.6	15.6	0.00e+00	0	44	0	989855744	61	5493
2026-01-11 01:20:50.16	255.14	11.99	-45.4	-48.7	15.5	0.00e+00	0	44	0	991952896	61	5544
2026-01-11 01:20:51.17	255.02	11.91	-45.5	-48.7	15.4	0.00e+00	0	44	0	993001472	61	5577
2026-01-11 01:20:52.17	254.90	11.84	-45.5	-48.8	15.4	0.00e+00	0	44	0	995098624	61	5600
2026-01-11 01:20:53.17	254.78	11.76	-45.4	-48.7	15.5	0.00e+00	0	44	0	997195776	61	5536
2026-01-11 01:20:54.17	254.67	11.69	-45.4	-48.7	15.5	0.00e+00	0	44	0	999292928	61	5550
2026-01-11 01:20:55.18	254.55	11.62	-45.5	-48.8	15.3	0.00e+00	0	44	0	1001390080	61	5623
2026-01-11 01:20:56.18	254.43	11.54	-45.5	-48.7	15.4	0.00e+00	0	44	0	1003487232	61	5580
2026-01-11 01:20:57.19	254.32	11.47	-45.5	-48.8	15.3	0.00e+00	0	44	0	1004535808	61	5625
2026-01-11 01:20:58.19	254.20	11.39	-45.5	-48.7	15.4	0.00e+00	0	44	0	1006632960	61	5586
2026-01-11 01:20:59.19	254.09	11.32	-45.6	-48.8	15.3	0.00e+00	0	44	0	1008730112	61	5647
2026-01-11 01:21:00.20	253.97	11.25	-45.7	-49.0	15.1	0.00e+00	0	44	0	1010827264	61	5751
2026-01-11 01:21:01.20	253.86	11.17	-45.6	-48.9	15.2	0.00e+00	0	44	0	1011875840	62	5393
2026-01-11 01:21:02.20	253.75	11.10	-45.7	-49.0	15.2	7.00e-07	0	44	0	1013972992	62	5407
2026-01-11 01:21:03.21	253.63	11.03	-45.6	-48.9	15.3	0.00e+00	0	44	0	1016070144	62	5360
2026-01-11 01:21:04.21	253.52	10.96	-45.7	-49.1	15.1	0.00e+00	0	44	0	1018167296	62	5467
2026-01-11 01:21:05.21	253.41	10.88	-45.7	-49.0	15.1	0.00e+00	0	44	0	1020264448	62	5430
2026-01-11 01:21:06.21	253.30	10.81	-45.6	-48.9	15.2	0.00e+00	0	44	0	1021313024	62	5379
2026-01-11 01:21:07.22	253.19	10.74	-45.6	-48.8	15.3	0.00e+00	0	44	0	1023410176	62	5324
2026-01-11 01:21:08.22	253.08	10.66	-45.5	-48.8	15.3	0.00e+00	0	44	0	1025507328	62	5310
2026-01-11 01:21:09.22	252.97	10.59	-45.6	-48.9	15.3	0.00e+00	0	44	0	1027604480	62	5342
2026-01-11 01:21:10.23	252.86	10.52	-45.6	-48.9	15.2	0.00e+00	0	44	0	1029701632	62	5353
2026-01-11 01:21:11.23	252.76	10.45	-45.7	-49.0	15.1	0.00e+00	0	44	0	1030750208	62	5448
2026-01-11 01:21:12.24	252.65	10.38	-45.7	-49.1	15.0	0.00e+00	0	44	0	1032847360	62	5465
2026-01-11 01:21:13.24	252.54	10.30	-45.7	-49.2	14.9	0.00e+00	0	44	0	1034944512	62	5535
2026-01-11 01:21:14.24	252.44	10.23	-45.8	-49.3	14.8	7.00e-07	0	44	0	1037041664	62	5606
2026-01-11 01:21:15.24	252.33	10.16	-45.9	-49.4	14.7	0.00e+00	0	44	0	1039138816	62	5692
2026-01-11 01:21:16.25	252.23	10.09	-46.0	-49.6	14.5	0.00e+00	0	44	0	1040187392	62	5802
2026-01-11 01:21:17.25	252.12	10.02	-46.1	-49.8	14.3	1.50e-06	0	44	0	1042284544	62	5932
2026-01-11 01:21:18.25	252.02	9.95	-46.2	-49.8	14.3	0.00e+00	0	44	0	1044381696	62	5979
2026-01-11 01:21:19.26	251.91	9.87	-46.2	-49.8	14.3	1.50e-06	0	44	0	1046478848	63	5615
2026-01-11 01:21:20.26	251.81	9.80	-46.3	-49.9	14.1	7.00e-07	0	44	0	1048576000	63	5715
2026-01-11 01:21:21.26	251.71	9.73	-46.2	-49.9	14.2	1.50e-06	0	44	0	1049624576	63	5684
2026-01-11 01:21:22.27	251.61	9.66	-46.3	-50.0	14.0	0.00e+00	0	44	0	1051721728	63	5760
2026-01-11 01:21:23.27	251.50	9.59	-46.3	-50.1	14.0	7.00e-07	0	44	0	1053818880	63	5817
2026-01-11 01:21:24.28	251.40	9.52	-46.3	-50.1	14.0	1.50e-06	0	44	0	1055916032	63	5791
2026-01-11 01:21:25.28	251.30	9.45	-46.3	-50.0	14.0	1.50e-06	0	44	0	1058013184	63	5767
2026-01-11 01:21:26.28	251.20	9.38	-46.4	-50.1	14.0	3.00e-06	0	44	0	1059061760	63	5830
2026-01-11 01:21:27.28	251.10	9.31	-46.2	-50.0	14.1	1.50e-06	0	44	0	1061158912	63	5725
2026-01-11 01:21:28.29	251.00	9.24	-46.3	-50.0	14.0	3.00e-06	0	44	0	1063256064	63	5768
2026-01-11 01:21:29.29	250.91	9.17	-46.3	-50.1	14.0	2.20e-06	0	44	0	1065353216	63	5795
2026-01-11 01:21:30.30	250.81	9.10	-46.4	-50.2	13.8	1.50e-06	0	44	0	1066401792	63	5885
2026-01-11 01:21:31.30	250.71	9.03	-46.4	-50.3	13.7	4.50e-06	0	44	0	1068498944	63	5985
2026-01-11 01:21:32.30	250.61	8.96	-50.2	-65.0	3.8	9.76e-01	0	44	104	1069547520	70	21631
2026-01-11 01:21:33.31	250.52	8.89	-50.3	-65.6	3.8	1.49e+00	0	44	104	1069547520	71	21759
2026-01-11 01:21:34.31	250.42	8.82	-50.4	-65.8	3.8	1.49e+00	0	44	104	1069547520	71	22272
2026-01-11 01:21:35.32	250.32	8.75	-50.5	-65.8	3.8	1.49e+00	0	44	104	1069547520	71	22455
2026-01-11 01:21:36.32	250.23	8.68	-50.5	-65.9	3.8	1.49e+00	0	44	104	1069547520	71	22570
2026-01-11 01:21:37.33	250.13	8.61	-50.7	-65.9	3.8	1.49e+00	0	44	104	1069547520	72	21365
2026-01-11 01:21:38.33	250.04	8.54	-50.7	-65.9	3.8	1.49e+00	0	44	104	1069547520	72	21331
2026-01-11 01:21:39.34	249.95	8.47	-50.8	-65.9	3.8	1.49e+00	0	44	104	1069547520	72	21478
2026-01-11 01:21:40.34	249.85	8.40	-50.8	-66.0	3.8	1.49e+00	0	44	104	1069547520	72	21544
2026-01-11 01:21:41.34	249.76	8.33	-50.8	-66.0	3.8	1.49e+00	0	44	104	1069547520	72	21512
2026-01-11 01:21:42.35	249.67	8.27	-50.8	-66.0	3.8	1.49e+00	0	44	104	1069547520	72	21556
2026-01-11 01:21:43.35	249.57	8.20	-50.8	-66.0	3.8	1.49e+00	0	44	104	1069547520	72	21582
2026-01-11 01:21:44.36	249.48	8.13	-50.7	-66.0	3.8	1.49e+00	0	44	104	1069547520	72	21626
2026-01-11 01:21:45.36	249.39	8.06	-50.6	-66.0	3.8	1.49e+00	0	44	104	1069547520	72	21720
2026-01-11 01:21:46.37	249.30	7.99	-50.6	-66.0	3.8	1.49e+00	0	44	104	1069547520	72	21533
2026-01-11 01:21:47.37	249.21	7.92	-50.6	-66.0	3.8	1.49e+00	0	44	104	1069547520	72	21546
2026-01-11 01:21:48.38	249.12	7.86	-50.7	-66.0	3.8	1.49e+00	0	44	104	1069547520	72	21637
2026-01-11 01:21:49.38	249.03	7.79	-50.6	-66.0	3.8	1.49e+00	0	44	104	1069547520	72	21621
2026-01-11 01:21:50.38	248.94	7.72	-50.7	-66.0	3.8	1.49e+00	0	44	104	1069547520	72	21614
2026-01-11 01:21:51.39	248.85	7.65	-50.7	-66.0	3.8	1.49e+00	0	44	104	1069547520	72	21536
2026-01-11 01:21:52.40	248.76	7.58	-50.7	-65.9	3.8	1.49e+00	0	44	104	1069547520	72	21472
2026-01-11 01:21:53.40	248.68	7.52	-50.6	-65.9	3.8	1.49e+00	0	44	104	1069547520	72	21481
2026-01-11 01:21:54.40	248.59	7.45	-50.6	-65.9	3.8	1.49e+00	0	44	104	1069547520	72	21461
2026-01-11 01:21:55.41	248.50	7.38	-50.6	-65.9	3.8	1.49e+00	0	44	104	1069547520	72	21391
2026-01-11 01:21:56.41	248.42	7.32	-50.6	-65.9	3.8	1.49e+00	0	44	104	1069547520	72	21404
2026-01-11 01:21:57.42	248.33	7.25	-50.6	-65.9	3.8	1.49e+00	0	44	104	1069547520	72	21364
2026-01-11 01:21:58.42	248.24	7.18	-50.6	-65.9	3.8	1.49e+00	0	44	104	1069547520	72	21415
2026-01-11 01:21:59.43	248.16	7.11	-50.6	-65.9	3.8	1.49e+00	0	44	104	1069547520	72	21449
2026-01-11 01:22:00.43	248.07	7.05	-50.6	-65.9	3.8	1.49e+00	0	44	104	1069547520	72	21428
2026-01-11 01:22:01.44	247.99	6.98	-50.6	-65.9	3.8	1.49e+00	0	44	104	1069547520	72	21460
2026-01-11 01:22:02.44	247.90	6.92	-50.6	-65.9	3.8	1.49e+00	0	44	104	1069547520	72	21455
2026-01-11 01:22:03.44	247.82	6.85	-50.6	-65.9	3.8	1.49e+00	0	44	104	1069547520	72	21486
2026-01-11 01:22:04.45	247.74	6.78	-50.6	-65.9	3.8	1.49e+00	0	44	104	1069547520	72	21411
2026-01-11 01:22:05.45	247.65	6.72	-50.6	-65.9	3.8	1.49e+00	0	44	104	1069547520	72	21449
2026-01-11 01:22:06.46	247.57	6.65	-50.6	-65.9	3.8	1.49e+00	0	44	104	1069547520	72	21386
2026-01-11 01:22:07.46	247.49	6.59	-50.6	-65.9	3.8	1.49e+00	0	44	104	1069547520	72	21421
2026-01-11 01:22:08.46	247.41	6.52	-50.6	-65.9	3.8	1.49e+00	0	44	104	1069547520	72	21418
2026-01-11 01:22:09.47	247.33	6.45	-50.6	-65.9	3.8	1.49e+00	0	44	104	1069547520	72	21388
2026-01-11 01:22:10.48	247.24	6.39	-50.6	-65.9	3.8	1.49e+00	0	44	104	1069547520	72	21394
2026-01-11 01:22:11.48	247.16	6.32	-50.6	-65.9	3.8	1.49e+00	0	44	104	1069547520	72	21397
2026-01-11 01:22:12.48	247.08	6.26	-50.6	-65.9	3.8	1.49e+00	0	44	104	1069547520	72	21344
2026-01-11 01:22:13.49	247.00	6.19	-50.6	-65.9	3.8	1.49e+00	0	44	104	1069547520	72	21419
2026-01-11 01:22:14.49	246.92	6.13	-50.6	-65.9	3.8	1.49e+00	0	44	104	1069547520	72	21402
2026-01-11 01:22:15.50	246.84	6.06	-50.6	-65.9	3.8	1.49e+00	0	44	104	1069547520	72	21325
2026-01-11 01:22:16.50	246.76	6.00	-50.6	-65.9	3.8	1.49e+00	0	44	104	1069547520	72	21342
2026-01-11 01:22:17.51	246.69	5.93	-50.6	-65.9	3.8	1.49e+00	0	44	104	1069547520	72	21316
2026-01-11 01:22:18.51	246.61	5.87	-50.6	-65.9	3.8	1.49e+00	0	44	104	1069547520	72	21377
2026-01-11 01:22:19.51	246.53	5.80	-50.6	-65.9	3.8	1.49e+00	0	44	104	1069547520	72	21487
2026-01-11 01:22:20.52	246.45	5.74	-50.6	-65.9	3.8	1.49e+00	0	44	104	1069547520	72	21417
2026-01-11 01:22:21.52	246.38	5.68	-50.6	-65.9	3.8	1.49e+00	0	44	104	1069547520	72	21315
2026-01-11 01:22:22.53	246.30	5.61	-50.6	-65.9	3.8	1.49e+00	0	44	104	1069547520	72	21445
2026-01-11 01:22:23.53	246.22	5.55	-50.6	-65.9	3.8	1.49e+00	0	44	104	1069547520	72	21424
2026-01-11 01:22:24.54	246.15	5.48	-50.6	-65.9	3.8	1.49e+00	0	44	104	1069547520	72	21331
2026-01-11 01:22:25.54	246.07	5.42	-50.6	-65.9	3.8	1.49e+00	0	44	104	1069547520	72	21312
2026-01-11 01:22:26.54	246.00	5.36	-50.6	-65.9	3.8	1.49e+00	0	44	104	1069547520	72	21382
2026-01-11 01:22:27.55	245.92	5.29	-50.6	-65.9	3.8	1.49e+00	0	44	104	1069547520	72	21369
2026-01-11 01:22:28.55	245.85	5.23	-50.6	-65.9	3.8	1.49e+00	0	44	104	1069547520	72	21378
2026-01-11 01:22:29.56	245.77	5.16	-50.6	-65.9	3.8	1.49e+00	0	44	104	1069547520	72	21419
2026-01-11 01:22:30.56	245.70	5.10	-50.6	-65.9	3.8	1.49e+00	0	44	104	1069547520	72	21369
2026-01-11 01:22:31.57	245.62	5.04	-50.6	-65.9	3.8	1.49e+00	0	44	104	1069547520	72	21368
2026-01-11 01:22:32.57	245.55	4.98	-50.6	-65.9	3.8	1.49e+00	0	44	104	1069547520	72	21449

#Closed at: 2026-01-11 01:22:33
#Recorded file [1069 MB]: D:/Data/31040_260111_041116.dat