passes_logs/2026/01/11/T1/T1__20260111_104102_SUOMI_NPP_rec.log

#Pass ID: 20260111_104102_SUOMI NPP
#Satellite: SUOMI NPP
#Configuration: NPP
#almurnet v.1.7.20251203
#Start time: 2026-01-11 10:41:03

#Version: 2.0.20230620
#Station: T1
#Location: 37.570604 lon 55.790049 lat
#TLE: 1 37849U 11061A   26010.94533966  .00000106  00000+0  71276-4 0  9997
#TLE: 2 37849  98.7807 313.0290 0002520  70.6146 289.5303 14.19524339736134

#Time	Az	El	Level	Level2	SNR	BER	BlckErr	Temp	State	Recorded	gain1	gain2
2026-01-11 10:41:03.76	181.98	5.07	-51.1	-66.7	3.8	1.49e+00	0	36	0	0	73	22068
2026-01-11 10:41:04.75	182.02	5.14	-51.1	-66.6	3.8	1.49e+00	0	37	104	0	73	21900
2026-01-11 10:41:05.74	182.05	5.21	-51.1	-66.6	3.8	1.49e+00	0	37	104	0	73	21847
2026-01-11 10:41:06.73	182.09	5.28	-51.1	-66.6	3.8	1.49e+00	0	36	104	0	73	21890
2026-01-11 10:41:07.73	182.13	5.35	-51.1	-66.6	3.8	1.49e+00	0	37	104	0	73	21893
2026-01-11 10:41:08.72	182.17	5.42	-51.1	-66.6	3.8	1.49e+00	0	37	104	0	73	21944
2026-01-11 10:41:09.71	182.21	5.49	-51.1	-66.7	3.8	1.49e+00	0	37	104	0	73	22065
2026-01-11 10:41:10.70	182.26	5.56	-51.1	-66.7	3.8	1.49e+00	0	37	104	0	73	22135
2026-01-11 10:41:11.70	182.30	5.63	-51.0	-66.8	3.8	1.49e+00	0	37	104	0	73	22278
2026-01-11 10:41:12.69	182.34	5.70	-51.0	-66.7	3.8	1.49e+00	0	37	104	0	73	22262
2026-01-11 10:41:13.68	182.38	5.77	-51.0	-66.8	3.8	1.49e+00	0	37	104	0	73	22427
2026-01-11 10:41:14.68	182.42	5.84	-51.0	-66.7	3.8	1.49e+00	0	37	104	0	73	22180
2026-01-11 10:41:15.67	182.46	5.92	-51.0	-66.6	3.8	1.49e+00	0	37	104	0	73	21921
2026-01-11 10:41:16.66	182.50	5.99	-51.0	-66.5	3.8	1.49e+00	0	37	104	0	73	21610
2026-01-11 10:41:17.66	182.54	6.06	-51.0	-66.4	3.8	1.49e+00	0	37	104	0	73	21440
2026-01-11 10:41:18.65	182.59	6.13	-51.0	-66.3	3.8	1.49e+00	0	37	104	0	73	21224
2026-01-11 10:41:19.64	182.63	6.20	-51.0	-66.2	3.8	1.49e+00	0	37	104	0	73	20946
2026-01-11 10:41:20.63	182.67	6.27	-51.0	-66.3	3.8	1.49e+00	0	37	104	0	73	21110
2026-01-11 10:41:21.63	182.71	6.35	-51.0	-66.3	3.8	1.49e+00	0	37	104	0	73	21072
2026-01-11 10:41:22.62	182.76	6.42	-51.0	-66.3	3.8	1.49e+00	0	37	104	0	73	21176
2026-01-11 10:41:23.61	182.80	6.49	-51.0	-66.3	3.8	1.49e+00	0	37	104	0	73	21219
2026-01-11 10:41:24.61	182.84	6.56	-51.0	-66.3	3.8	1.49e+00	0	37	104	0	73	21075
2026-01-11 10:41:25.60	182.89	6.64	-51.0	-66.1	3.8	1.49e+00	0	37	104	0	73	20626
2026-01-11 10:41:26.59	182.93	6.71	-51.0	-65.9	3.8	1.49e+00	0	37	104	0	73	20117
2026-01-11 10:41:27.59	182.97	6.78	-51.0	-65.6	3.8	1.49e+00	0	37	104	0	73	19503
2026-01-11 10:41:28.58	183.02	6.86	-50.9	-65.4	3.8	1.49e+00	0	37	104	0	73	19136
2026-01-11 10:41:29.57	183.06	6.93	-51.0	-65.4	3.8	1.49e+00	0	37	104	0	73	19051
2026-01-11 10:41:30.57	183.11	7.01	-51.0	-65.6	3.8	1.49e+00	0	37	104	0	73	19460
2026-01-11 10:41:31.56	183.15	7.08	-51.0	-66.0	3.8	1.49e+00	0	37	104	0	73	20536
2026-01-11 10:41:32.55	183.20	7.15	-51.0	-66.5	3.8	1.49e+00	0	37	104	0	73	21708
2026-01-11 10:41:33.55	183.24	7.23	-51.0	-66.8	3.8	1.49e+00	0	37	104	0	73	22412
2026-01-11 10:41:34.54	183.29	7.30	-51.0	-66.2	3.8	1.49e+00	0	37	104	0	73	20823
2026-01-11 10:41:35.53	183.33	7.38	-50.9	-64.5	3.8	1.49e+00	0	37	104	0	73	17092
2026-01-11 10:41:36.53	183.38	7.45	-50.7	-62.0	4.6	1.42e+00	0	38	0	0	73	12846
2026-01-11 10:41:37.52	183.42	7.53	-50.4	-59.8	5.9	4.88e-01	0	38	0	2097152	72	10553
2026-01-11 10:41:38.51	183.47	7.60	-50.0	-57.8	7.7	1.77e-01	0	38	0	4194304	72	8383
2026-01-11 10:41:39.51	183.52	7.68	-49.7	-56.3	9.1	4.67e-02	0	38	0	5242880	71	7540
2026-01-11 10:41:40.50	183.56	7.76	-49.2	-55.0	10.5	5.82e-03	0	38	0	7340032	70	6861
2026-01-11 10:41:41.49	183.61	7.83	-48.7	-53.9	11.6	1.26e-03	0	38	0	9437184	69	6370
2026-01-11 10:41:42.49	183.66	7.91	-48.4	-53.1	12.5	1.87e-04	0	38	0	11534336	68	6141
2026-01-11 10:41:43.48	183.70	7.99	-48.1	-52.5	13.0	6.56e-05	0	38	0	12582912	68	5773
2026-01-11 10:41:44.47	183.75	8.06	-47.5	-51.5	13.9	8.30e-06	0	38	0	14680064	67	5448
2026-01-11 10:41:45.46	183.80	8.14	-47.5	-51.4	14.0	1.50e-06	0	38	0	16777216	66	5687
2026-01-11 10:41:46.46	183.85	8.22	-47.5	-51.5	14.0	3.00e-06	0	38	0	18874368	66	5728
2026-01-11 10:41:47.45	183.90	8.30	-47.5	-51.5	14.0	7.00e-07	0	38	0	20971520	66	5724
2026-01-11 10:41:48.44	183.95	8.37	-47.7	-51.9	13.5	4.50e-06	0	38	0	22020096	66	6030
2026-01-11 10:41:49.44	183.99	8.45	-47.9	-52.3	13.1	2.13e-05	0	38	0	24117248	66	6295
2026-01-11 10:41:50.43	184.04	8.53	-48.2	-52.8	12.6	5.49e-05	0	38	0	26214400	67	6327
2026-01-11 10:41:51.42	184.09	8.61	-48.6	-53.6	11.8	2.98e-04	0	38	0	28311552	67	6920
2026-01-11 10:41:52.42	184.14	8.69	-49.1	-54.7	10.9	1.16e-03	0	38	0	29360128	68	7402
2026-01-11 10:41:53.41	184.19	8.77	-49.5	-55.7	9.7	5.83e-03	0	38	0	31457280	69	7882
2026-01-11 10:41:54.40	184.24	8.84	-49.9	-56.9	8.6	1.83e-02	0	38	0	33554432	70	8539
2026-01-11 10:41:55.39	184.29	8.92	-50.1	-57.8	7.7	7.28e-02	0	38	0	35651584	70	9493
2026-01-11 10:41:56.39	184.34	9.00	-50.4	-59.1	6.5	1.63e-01	0	38	0	37748736	71	10380
2026-01-11 10:41:57.38	184.39	9.08	-50.4	-59.7	6.0	2.81e-01	0	38	0	38797312	71	11079
2026-01-11 10:41:58.37	184.44	9.16	-50.3	-58.8	6.7	3.73e-01	0	38	0	40894464	71	9981
2026-01-11 10:41:59.37	184.50	9.24	-50.0	-57.7	7.9	7.01e-03	0	38	0	42991616	70	9337
2026-01-11 10:42:00.36	184.55	9.33	-50.6	-61.3	4.9	1.28e+00	0	38	0	44040192	72	12639
2026-01-11 10:42:01.35	184.60	9.41	-49.4	-55.8	9.7	6.87e-02	0	38	0	46137344	70	7527
2026-01-11 10:42:02.34	184.65	9.49	-49.6	-56.4	9.1	1.89e-02	0	38	0	48234496	70	8037
2026-01-11 10:42:03.33	184.70	9.57	-49.2	-55.1	10.4	5.55e-03	0	38	0	49283072	70	6957
2026-01-11 10:42:04.32	184.76	9.65	-48.9	-54.6	10.9	2.67e-03	0	38	0	51380224	69	6955
2026-01-11 10:42:05.32	184.81	9.73	-48.9	-54.5	11.1	2.24e-03	0	38	0	53477376	69	6855
2026-01-11 10:42:06.31	184.86	9.81	-48.9	-54.7	10.8	2.34e-03	0	38	0	55574528	69	6981
2026-01-11 10:42:07.30	184.92	9.90	-48.6	-53.9	11.7	5.80e-04	0	39	0	56623104	69	6384
2026-01-11 10:42:08.30	184.97	9.98	-48.5	-53.5	12.1	6.25e-04	0	38	0	58720256	68	6465
2026-01-11 10:42:09.29	185.02	10.06	-48.4	-53.2	12.5	3.20e-04	0	38	0	60817408	68	6210
2026-01-11 10:42:10.28	185.08	10.14	-48.2	-52.8	12.9	7.01e-05	0	38	0	62914560	68	5943
2026-01-11 10:42:11.28	185.13	10.23	-48.3	-52.8	12.9	2.51e-05	0	38	0	65011712	68	5948
2026-01-11 10:42:12.27	185.19	10.31	-48.2	-52.7	13.0	2.51e-05	0	38	0	66060288	68	5871
2026-01-11 10:42:13.26	185.24	10.40	-48.2	-52.6	13.1	2.67e-05	0	38	0	68157440	68	5794
2026-01-11 10:42:14.25	185.30	10.48	-48.0	-52.1	13.5	2.51e-05	0	38	0	70254592	68	5526
2026-01-11 10:42:15.25	185.36	10.56	-47.5	-51.4	14.1	2.20e-06	0	38	0	72351744	67	5344
2026-01-11 10:42:16.24	185.41	10.65	-47.3	-51.0	14.5	1.50e-06	0	38	0	73400320	66	5403
2026-01-11 10:42:17.23	185.47	10.73	-47.1	-50.6	14.9	0.00e+00	0	38	0	75497472	66	5167
2026-01-11 10:42:18.22	185.52	10.82	-47.0	-50.5	15.0	0.00e+00	0	39	0	77594624	66	5130
2026-01-11 10:42:19.22	185.58	10.90	-47.0	-50.4	15.0	0.00e+00	0	38	0	79691776	65	5394
2026-01-11 10:42:20.21	185.64	10.99	-47.1	-50.6	14.9	0.00e+00	0	38	0	81788928	65	5524
2026-01-11 10:42:21.20	185.70	11.08	-46.9	-50.3	15.2	0.00e+00	0	38	0	82837504	65	5292
2026-01-11 10:42:22.19	185.76	11.16	-46.8	-50.2	15.3	0.00e+00	0	38	0	84934656	65	5230
2026-01-11 10:42:23.19	185.81	11.25	-46.8	-50.1	15.4	0.00e+00	0	38	0	87031808	65	5187
2026-01-11 10:42:24.18	185.87	11.34	-46.7	-50.0	15.5	0.00e+00	0	38	0	89128960	65	5124
2026-01-11 10:42:25.17	185.93	11.42	-46.7	-50.0	15.5	0.00e+00	0	38	0	90177536	65	5116
2026-01-11 10:42:26.16	185.99	11.51	-46.7	-49.9	15.6	0.00e+00	0	38	0	92274688	65	5075
2026-01-11 10:42:27.16	186.05	11.60	-46.5	-49.7	15.8	0.00e+00	0	38	0	94371840	65	4940
2026-01-11 10:42:28.15	186.11	11.69	-46.6	-49.8	15.7	0.00e+00	0	38	0	96468992	65	5023
2026-01-11 10:42:29.14	186.17	11.78	-46.5	-49.7	15.9	0.00e+00	0	38	0	98566144	65	4929
2026-01-11 10:42:30.14	186.23	11.86	-46.5	-49.6	15.9	0.00e+00	0	38	0	99614720	64	5179
2026-01-11 10:42:31.13	186.29	11.95	-46.5	-49.7	15.8	0.00e+00	0	38	0	101711872	64	5232
2026-01-11 10:42:32.12	186.35	12.04	-46.5	-49.6	15.9	0.00e+00	0	38	0	103809024	64	5206
2026-01-11 10:42:33.11	186.42	12.13	-46.4	-49.5	16.1	0.00e+00	0	38	0	105906176	64	5113
2026-01-11 10:42:34.11	186.48	12.22	-46.4	-49.4	16.1	0.00e+00	0	38	0	106954752	64	5082
2026-01-11 10:42:35.10	186.54	12.31	-46.3	-49.2	16.2	0.00e+00	0	39	0	109051904	64	4977
2026-01-11 10:42:36.09	186.60	12.40	-46.2	-49.2	16.3	0.00e+00	0	39	0	111149056	64	4977
2026-01-11 10:42:37.09	186.67	12.49	-46.3	-49.3	16.2	0.00e+00	0	39	0	113246208	64	5002
2026-01-11 10:42:38.08	186.73	12.58	-46.4	-49.4	16.1	0.00e+00	0	39	0	115343360	64	5090
2026-01-11 10:42:39.07	186.80	12.68	-46.2	-49.2	16.3	0.00e+00	0	39	0	116391936	64	4970
2026-01-11 10:42:40.06	186.86	12.77	-46.2	-49.1	16.4	0.00e+00	0	39	0	118489088	64	4911
2026-01-11 10:42:41.06	186.93	12.86	-46.2	-49.1	16.4	0.00e+00	0	39	0	120586240	64	4918
2026-01-11 10:42:42.05	186.99	12.95	-46.1	-49.0	16.5	0.00e+00	0	39	0	122683392	64	4834
2026-01-11 10:42:43.04	187.06	13.04	-46.2	-49.2	16.3	0.00e+00	0	38	0	123731968	64	4983
2026-01-11 10:42:44.03	187.12	13.14	-46.2	-49.2	16.3	0.00e+00	0	39	0	125829120	64	4969
2026-01-11 10:42:45.03	187.19	13.23	-46.3	-49.4	16.2	0.00e+00	0	39	0	127926272	64	5046
2026-01-11 10:42:46.02	187.25	13.32	-46.2	-49.3	16.3	0.00e+00	0	38	0	130023424	64	4992
2026-01-11 10:42:47.01	187.32	13.42	-46.1	-49.1	16.4	0.00e+00	0	39	0	132120576	64	4926
2026-01-11 10:42:48.01	187.39	13.51	-46.2	-49.3	16.3	0.00e+00	0	39	0	133169152	64	4986
2026-01-11 10:42:49.00	187.46	13.61	-46.1	-49.1	16.4	0.00e+00	0	38	0	135266304	64	4909
2026-01-11 10:42:49.99	187.53	13.70	-46.2	-49.2	16.4	0.00e+00	0	39	0	137363456	63	5263
2026-01-11 10:42:50.99	187.60	13.80	-46.3	-49.4	16.2	0.00e+00	0	39	0	139460608	63	5357
2026-01-11 10:42:51.98	187.66	13.89	-46.0	-49.0	16.6	0.00e+00	0	39	0	140509184	63	5151
2026-01-11 10:42:52.97	187.73	13.99	-46.1	-49.1	16.6	0.00e+00	0	39	0	142606336	63	5173
2026-01-11 10:42:53.96	187.80	14.09	-46.1	-49.1	16.5	0.00e+00	0	39	0	144703488	63	5217
2026-01-11 10:42:54.96	187.87	14.18	-46.1	-49.2	16.5	0.00e+00	0	39	0	146800640	63	5224
2026-01-11 10:42:55.95	187.95	14.28	-46.0	-49.0	16.6	0.00e+00	0	39	0	147849216	63	5157
2026-01-11 10:42:56.94	188.02	14.38	-46.0	-49.0	16.5	0.00e+00	0	39	0	149946368	63	5155
2026-01-11 10:42:57.93	188.09	14.47	-46.1	-49.1	16.6	0.00e+00	0	39	0	152043520	63	5180
2026-01-11 10:42:58.93	188.16	14.57	-46.0	-49.0	16.6	0.00e+00	0	39	0	154140672	63	5158
2026-01-11 10:42:59.92	188.23	14.67	-46.1	-49.1	16.6	0.00e+00	0	39	0	156237824	63	5171
2026-01-11 10:43:00.91	188.31	14.77	-46.1	-49.2	16.5	0.00e+00	0	39	0	157286400	63	5236
2026-01-11 10:43:01.91	188.38	14.87	-46.2	-49.2	16.4	0.00e+00	0	39	0	159383552	63	5279
2026-01-11 10:43:02.90	188.46	14.97	-46.3	-49.4	16.2	0.00e+00	0	39	0	161480704	63	5388
2026-01-11 10:43:03.89	188.53	15.07	-46.4	-49.5	16.2	0.00e+00	0	39	0	163577856	63	5460
2026-01-11 10:43:04.88	188.61	15.17	-46.5	-49.6	16.1	0.00e+00	0	39	0	164626432	63	5478
2026-01-11 10:43:05.88	188.68	15.27	-46.4	-49.5	16.2	0.00e+00	0	39	0	166723584	63	5453
2026-01-11 10:43:06.87	188.76	15.37	-46.5	-49.7	16.0	0.00e+00	0	39	0	168820736	63	5530
2026-01-11 10:43:07.86	188.83	15.47	-46.6	-49.7	16.0	0.00e+00	0	39	0	170917888	63	5585
2026-01-11 10:43:08.86	188.91	15.57	-46.5	-49.6	16.1	0.00e+00	0	39	0	173015040	63	5508
2026-01-11 10:43:09.85	188.99	15.68	-46.5	-49.6	16.1	0.00e+00	0	39	0	174063616	63	5470
2026-01-11 10:43:10.84	189.07	15.78	-46.6	-49.7	16.0	0.00e+00	0	39	0	176160768	63	5573
2026-01-11 10:43:11.83	189.15	15.88	-46.5	-49.6	16.1	0.00e+00	0	39	0	178257920	63	5468
2026-01-11 10:43:12.83	189.23	15.99	-46.5	-49.5	16.1	0.00e+00	0	39	0	180355072	63	5447
2026-01-11 10:43:13.82	189.30	16.09	-46.4	-49.4	16.2	0.00e+00	0	39	0	181403648	63	5385
2026-01-11 10:43:14.81	189.38	16.19	-46.1	-48.9	16.6	0.00e+00	0	39	0	183500800	63	5099
2026-01-11 10:43:15.80	189.47	16.30	-46.0	-48.9	16.7	0.00e+00	0	39	0	185597952	63	5074
2026-01-11 10:43:16.80	189.55	16.40	-46.0	-48.8	16.8	0.00e+00	0	39	0	187695104	63	5004
2026-01-11 10:43:17.79	189.63	16.51	-45.7	-48.4	17.1	0.00e+00	0	39	0	189792256	63	4812
2026-01-11 10:43:18.78	189.71	16.61	-45.8	-48.6	17.0	0.00e+00	0	39	0	190840832	63	4878
2026-01-11 10:43:19.77	189.79	16.72	-45.7	-48.5	17.1	0.00e+00	0	39	0	192937984	63	4836
2026-01-11 10:43:20.77	189.88	16.83	-45.7	-48.5	17.2	0.00e+00	0	39	0	195035136	63	4826
2026-01-11 10:43:21.76	189.96	16.93	-45.8	-48.6	17.1	0.00e+00	0	39	0	197132288	63	4874
2026-01-11 10:43:22.75	190.05	17.04	-45.8	-48.5	17.1	0.00e+00	0	39	0	198180864	63	4868
2026-01-11 10:43:23.74	190.13	17.15	-46.0	-48.8	16.9	0.00e+00	0	39	0	200278016	63	5011
2026-01-11 10:43:24.74	190.22	17.26	-45.9	-48.6	17.0	0.00e+00	0	39	0	202375168	63	4923
2026-01-11 10:43:25.73	190.30	17.36	-46.0	-48.8	16.9	0.00e+00	0	39	0	204472320	63	5014
2026-01-11 10:43:26.72	190.39	17.47	-46.0	-48.8	16.9	0.00e+00	0	39	0	206569472	63	5032
2026-01-11 10:43:27.72	190.48	17.58	-46.0	-48.8	16.9	0.00e+00	0	39	0	207618048	63	5010
2026-01-11 10:43:28.71	190.57	17.69	-46.2	-49.1	16.6	0.00e+00	0	39	0	209715200	63	5191
2026-01-11 10:43:29.70	190.66	17.80	-46.0	-48.8	16.9	0.00e+00	0	39	0	211812352	63	4987
2026-01-11 10:43:30.69	190.75	17.91	-45.9	-48.7	17.0	0.00e+00	0	39	0	213909504	63	4956
2026-01-11 10:43:31.69	190.84	18.03	-46.0	-48.8	16.9	0.00e+00	0	39	0	214958080	63	5024
2026-01-11 10:43:32.68	190.93	18.14	-45.8	-48.6	17.1	0.00e+00	0	39	0	217055232	63	4905
2026-01-11 10:43:33.67	191.02	18.25	-45.8	-48.6	17.1	0.00e+00	0	39	0	219152384	63	4893
2026-01-11 10:43:34.66	191.11	18.36	-45.8	-48.5	17.1	0.00e+00	0	39	0	221249536	63	4862
2026-01-11 10:43:35.66	191.20	18.47	-45.7	-48.4	17.3	0.00e+00	0	39	0	223346688	63	4793
2026-01-11 10:43:36.65	191.30	18.59	-45.6	-48.3	17.3	0.00e+00	0	39	0	224395264	63	4748
2026-01-11 10:43:37.64	191.39	18.70	-45.6	-48.2	17.4	0.00e+00	0	39	0	226492416	63	4696
2026-01-11 10:43:38.64	191.49	18.82	-45.4	-48.0	17.6	0.00e+00	0	39	0	228589568	62	4854
2026-01-11 10:43:39.63	191.58	18.93	-45.6	-48.2	17.5	0.00e+00	0	39	0	230686720	62	4962
2026-01-11 10:43:40.62	191.68	19.05	-45.6	-48.2	17.5	0.00e+00	0	39	0	231735296	62	4965
2026-01-11 10:43:41.62	191.77	19.16	-45.4	-48.0	17.7	0.00e+00	0	39	0	233832448	62	4863
2026-01-11 10:43:42.61	191.87	19.28	-45.5	-48.2	17.6	0.00e+00	0	39	0	235929600	62	4929
2026-01-11 10:43:43.60	191.97	19.39	-45.4	-47.9	17.7	0.00e+00	0	39	0	238026752	62	4807
2026-01-11 10:43:44.60	192.07	19.51	-45.3	-47.9	17.8	0.00e+00	0	39	0	239075328	62	4777
2026-01-11 10:43:45.59	192.17	19.63	-45.3	-47.9	17.8	0.00e+00	0	39	0	241172480	62	4795
2026-01-11 10:43:46.58	192.27	19.75	-45.3	-47.9	17.8	0.00e+00	0	39	0	243269632	62	4790
2026-01-11 10:43:47.57	192.37	19.86	-45.4	-48.0	17.7	0.00e+00	0	39	0	245366784	62	4838
2026-01-11 10:43:48.57	192.47	19.98	-45.1	-47.7	18.0	0.00e+00	0	39	0	247463936	62	4679
2026-01-11 10:43:49.56	192.58	20.10	-45.4	-48.1	17.7	0.00e+00	0	39	0	248512512	62	4876
2026-01-11 10:43:50.55	192.68	20.22	-45.4	-48.0	17.7	0.00e+00	0	39	0	250609664	62	4863
2026-01-11 10:43:51.54	192.78	20.34	-45.3	-47.9	17.8	0.00e+00	0	39	0	252706816	62	4791
2026-01-11 10:43:52.54	192.89	20.47	-45.6	-48.2	17.5	0.00e+00	0	39	0	254803968	62	4970
2026-01-11 10:43:53.53	192.99	20.59	-45.5	-48.2	17.6	0.00e+00	0	39	0	255852544	62	4928
2026-01-11 10:43:54.52	193.10	20.71	-45.6	-48.2	17.6	0.00e+00	0	39	0	257949696	62	4946
2026-01-11 10:43:55.52	193.21	20.83	-45.6	-48.3	17.4	0.00e+00	0	39	0	260046848	62	4996
2026-01-11 10:43:56.51	193.32	20.95	-45.6	-48.3	17.4	0.00e+00	0	39	0	262144000	62	5002
2026-01-11 10:43:57.50	193.43	21.08	-45.7	-48.3	17.4	0.00e+00	0	39	0	263192576	62	5027
2026-01-11 10:43:58.50	193.54	21.20	-45.6	-48.2	17.5	0.00e+00	0	39	0	265289728	62	4966
2026-01-11 10:43:59.49	193.65	21.33	-45.5	-48.1	17.6	0.00e+00	0	39	0	267386880	62	4890
2026-01-11 10:44:00.48	193.76	21.45	-45.4	-48.0	17.7	0.00e+00	0	39	0	269484032	62	4815
2026-01-11 10:44:01.47	193.87	21.58	-45.4	-47.9	17.8	0.00e+00	0	39	0	271581184	62	4784
2026-01-11 10:44:02.47	193.99	21.70	-45.3	-47.8	17.9	0.00e+00	0	39	0	272629760	62	4719
2026-01-11 10:44:03.46	194.10	21.83	-45.2	-47.6	18.1	0.00e+00	0	39	0	274726912	62	4633
2026-01-11 10:44:04.45	194.21	21.96	-45.4	-47.9	17.8	0.00e+00	0	39	0	276824064	62	4770
2026-01-11 10:44:05.45	194.33	22.08	-45.2	-47.6	18.1	0.00e+00	0	39	0	278921216	62	4631
2026-01-11 10:44:06.44	194.45	22.21	-45.2	-47.7	18.0	0.00e+00	0	39	0	279969792	62	4671
2026-01-11 10:44:07.43	194.57	22.34	-45.1	-47.6	18.1	0.00e+00	0	39	0	282066944	62	4602
2026-01-11 10:44:08.43	194.69	22.47	-45.3	-47.8	17.9	0.00e+00	0	39	0	284164096	62	4730
2026-01-11 10:44:09.42	194.81	22.60	-45.1	-47.6	18.1	0.00e+00	0	39	0	286261248	62	4617
2026-01-11 10:44:10.41	194.93	22.73	-45.1	-47.5	18.1	0.00e+00	0	39	0	288358400	62	4588
2026-01-11 10:44:11.40	195.05	22.86	-45.3	-47.8	17.9	0.00e+00	0	39	0	289406976	62	4728
2026-01-11 10:44:12.40	195.17	22.99	-45.1	-47.6	18.1	0.00e+00	0	39	0	291504128	62	4602
2026-01-11 10:44:13.39	195.30	23.12	-45.2	-47.7	18.0	0.00e+00	0	39	0	293601280	62	4684
2026-01-11 10:44:14.38	195.42	23.26	-45.3	-47.8	17.9	0.00e+00	0	39	0	295698432	62	4720
2026-01-11 10:44:15.37	195.55	23.39	-45.1	-47.6	18.1	0.00e+00	0	39	0	297795584	62	4609
2026-01-11 10:44:16.37	195.68	23.52	-45.1	-47.6	18.1	0.00e+00	0	39	0	298844160	62	4623
2026-01-11 10:44:17.36	195.80	23.66	-45.2	-47.7	18.1	0.00e+00	0	39	0	300941312	62	4664
2026-01-11 10:44:18.35	195.93	23.79	-45.4	-47.9	17.9	0.00e+00	0	39	0	303038464	62	4772
2026-01-11 10:44:19.35	196.06	23.93	-45.4	-47.9	17.8	0.00e+00	0	39	0	305135616	62	4799
2026-01-11 10:44:20.34	196.19	24.06	-45.4	-47.9	17.8	0.00e+00	0	39	0	306184192	62	4792
2026-01-11 10:44:21.33	196.33	24.20	-45.7	-48.3	17.5	0.00e+00	0	39	0	308281344	62	5010
2026-01-11 10:44:22.32	196.46	24.33	-45.8	-48.3	17.4	0.00e+00	0	39	0	310378496	62	5038
2026-01-11 10:44:23.32	196.60	24.47	-45.8	-48.4	17.3	0.00e+00	0	39	0	312475648	62	5097
2026-01-11 10:44:24.31	196.73	24.61	-45.6	-48.2	17.6	0.00e+00	0	39	0	314572800	62	4947
2026-01-11 10:44:25.30	196.87	24.75	-45.8	-48.4	17.4	0.00e+00	0	39	0	315621376	62	5050
2026-01-11 10:44:26.30	197.01	24.89	-45.8	-48.4	17.4	0.00e+00	0	39	0	317718528	62	5055
2026-01-11 10:44:27.29	197.15	25.03	-45.9	-48.4	17.3	0.00e+00	0	39	0	319815680	62	5100
2026-01-11 10:44:28.28	197.29	25.17	-45.7	-48.2	17.6	0.00e+00	0	39	0	321912832	62	4953
2026-01-11 10:44:29.28	197.43	25.31	-45.9	-48.5	17.2	0.00e+00	0	39	0	322961408	62	5145
2026-01-11 10:44:30.27	197.57	25.45	-46.0	-48.7	17.1	0.00e+00	0	39	0	325058560	62	5222
2026-01-11 10:44:31.26	197.72	25.59	-46.0	-48.7	17.2	0.00e+00	0	39	0	327155712	62	5220
2026-01-11 10:44:32.25	197.86	25.73	-46.1	-48.7	17.1	0.00e+00	0	39	0	329252864	62	5275
2026-01-11 10:44:33.25	198.01	25.88	-46.2	-48.9	16.9	0.00e+00	0	39	0	330301440	63	5052
2026-01-11 10:44:34.24	198.16	26.02	-46.1	-48.8	17.1	0.00e+00	0	39	0	332398592	63	4992
2026-01-11 10:44:35.23	198.31	26.16	-46.1	-48.8	17.0	0.00e+00	0	39	0	334495744	63	5020
2026-01-11 10:44:36.23	198.46	26.31	-46.3	-49.1	16.7	0.00e+00	0	39	0	336592896	63	5192
2026-01-11 10:44:37.22	198.61	26.45	-46.3	-49.1	16.8	0.00e+00	0	39	0	338690048	63	5166
2026-01-11 10:44:38.21	198.76	26.60	-46.2	-48.9	16.9	0.00e+00	0	39	0	339738624	63	5068
2026-01-11 10:44:39.21	198.92	26.75	-46.3	-49.0	16.8	0.00e+00	0	39	0	341835776	63	5122
2026-01-11 10:44:40.20	199.08	26.89	-46.4	-49.1	16.7	0.00e+00	0	39	0	343932928	63	5198
2026-01-11 10:44:41.19	199.23	27.04	-46.3	-49.1	16.8	0.00e+00	0	39	0	346030080	63	5191
2026-01-11 10:44:42.18	199.39	27.19	-46.2	-48.9	16.9	0.00e+00	0	39	0	347078656	63	5086
2026-01-11 10:44:43.18	199.55	27.34	-46.2	-48.9	16.9	0.00e+00	0	39	0	349175808	63	5089
2026-01-11 10:44:44.17	199.72	27.49	-46.5	-49.3	16.6	0.00e+00	0	39	0	351272960	63	5307
2026-01-11 10:44:45.16	199.88	27.64	-46.3	-49.1	16.8	0.00e+00	0	39	0	353370112	63	5184
2026-01-11 10:44:46.16	200.05	27.79	-46.5	-49.4	16.5	0.00e+00	0	39	0	355467264	63	5362
2026-01-11 10:44:47.15	200.21	27.94	-46.6	-49.4	16.5	0.00e+00	0	39	0	356515840	63	5371
2026-01-11 10:44:48.14	200.38	28.09	-46.7	-49.6	16.2	0.00e+00	0	39	0	358612992	64	5177
2026-01-11 10:44:49.14	200.55	28.24	-46.8	-49.8	16.0	0.00e+00	0	39	0	360710144	64	5296
2026-01-11 10:44:50.13	200.72	28.40	-47.0	-50.0	15.8	0.00e+00	0	39	0	362807296	64	5447
2026-01-11 10:44:51.12	200.89	28.55	-47.0	-50.1	15.8	0.00e+00	0	39	0	363855872	64	5472
2026-01-11 10:44:52.12	201.07	28.70	-47.1	-50.2	15.6	0.00e+00	0	39	0	365953024	64	5572
2026-01-11 10:44:53.11	201.25	28.86	-47.1	-50.2	15.6	0.00e+00	0	39	0	368050176	65	5238
2026-01-11 10:44:54.10	201.42	29.01	-47.0	-50.0	15.9	0.00e+00	0	39	0	370147328	65	5136
2026-01-11 10:44:55.09	201.60	29.17	-47.4	-50.5	15.3	0.00e+00	0	39	0	371195904	65	5446
2026-01-11 10:44:56.09	201.79	29.33	-47.6	-50.8	15.1	0.00e+00	0	39	0	373293056	66	5311
2026-01-11 10:44:57.08	201.97	29.48	-47.9	-51.4	14.6	0.00e+00	0	39	0	375390208	66	5657
2026-01-11 10:44:58.07	202.15	29.64	-48.0	-51.5	14.5	7.00e-07	0	39	0	377487360	67	5417
2026-01-11 10:44:59.07	202.34	29.80	-48.3	-52.0	13.9	3.00e-06	0	39	0	379584512	67	5744
2026-01-11 10:45:00.06	202.53	29.96	-48.4	-52.3	13.6	3.00e-06	0	39	0	380633088	67	5944
2026-01-11 10:45:01.05	202.72	30.11	-48.2	-51.9	14.0	6.10e-06	0	39	0	382730240	67	5662
2026-01-11 10:45:02.04	202.91	30.27	-48.4	-52.1	13.9	3.00e-06	0	39	0	384827392	67	5799
2026-01-11 10:45:03.04	203.11	30.43	-48.1	-51.7	14.2	2.20e-06	0	39	0	386924544	67	5552
2026-01-11 10:45:04.03	203.30	30.59	-47.9	-51.3	14.6	7.00e-07	0	39	0	387973120	67	5320
2026-01-11 10:45:05.02	203.50	30.76	-47.9	-51.3	14.5	7.00e-07	0	39	0	390070272	67	5335
2026-01-11 10:45:06.02	203.70	30.92	-47.8	-51.1	14.8	7.00e-07	0	39	0	392167424	67	5210
2026-01-11 10:45:07.01	203.90	31.08	-47.6	-50.9	15.0	7.00e-07	0	39	0	394264576	67	5091
2026-01-11 10:45:08.00	204.10	31.24	-47.5	-50.7	15.2	7.00e-07	0	39	0	396361728	67	4972
2026-01-11 10:45:08.99	204.31	31.41	-47.5	-50.7	15.2	0.00e+00	0	39	0	397410304	66	5240
2026-01-11 10:45:09.99	204.52	31.57	-47.3	-50.4	15.5	0.00e+00	0	39	0	399507456	66	5087
2026-01-11 10:45:10.98	204.73	31.73	-47.3	-50.5	15.5	0.00e+00	0	39	0	401604608	66	5104
2026-01-11 10:45:11.97	204.94	31.90	-47.3	-50.4	15.5	0.00e+00	0	39	0	403701760	66	5083
2026-01-11 10:45:12.97	205.15	32.06	-47.2	-50.2	15.7	0.00e+00	0	39	0	404750336	66	4980
2026-01-11 10:45:13.96	205.37	32.23	-47.2	-50.3	15.5	0.00e+00	0	39	0	406847488	66	5038
2026-01-11 10:45:14.95	205.59	32.40	-47.3	-50.5	15.5	0.00e+00	0	39	0	408944640	66	5127
2026-01-11 10:45:15.95	205.81	32.56	-47.3	-50.4	15.5	0.00e+00	0	39	0	411041792	66	5060
2026-01-11 10:45:16.94	206.03	32.73	-47.3	-50.5	15.4	0.00e+00	0	39	0	413138944	66	5137
2026-01-11 10:45:17.93	206.26	32.90	-47.6	-50.9	15.0	0.00e+00	0	39	0	414187520	66	5371
2026-01-11 10:45:18.92	206.48	33.07	-47.1	-50.1	15.8	0.00e+00	0	39	0	416284672	66	4905
2026-01-11 10:45:19.92	206.71	33.23	-46.8	-49.7	16.1	0.00e+00	0	39	0	418381824	65	4981
2026-01-11 10:45:20.91	206.94	33.40	-46.4	-49.1	16.7	0.00e+00	0	39	0	420478976	64	4902
2026-01-11 10:45:21.90	207.18	33.57	-46.2	-48.9	16.9	0.00e+00	0	39	0	421527552	64	4781
2026-01-11 10:45:22.89	207.41	33.74	-46.1	-48.7	17.1	0.00e+00	0	39	0	423624704	64	4691
2026-01-11 10:45:23.89	207.66	33.91	-46.3	-48.9	16.9	0.00e+00	0	39	0	425721856	63	5093
2026-01-11 10:45:24.88	207.90	34.08	-46.7	-49.5	16.4	0.00e+00	0	39	0	427819008	64	5108
2026-01-11 10:45:25.87	208.14	34.25	-46.7	-49.5	16.3	0.00e+00	0	39	0	429916160	64	5120
2026-01-11 10:45:26.87	208.39	34.43	-46.8	-49.6	16.2	0.00e+00	0	39	0	430964736	64	5217
2026-01-11 10:45:27.86	208.64	34.60	-46.8	-49.7	16.1	0.00e+00	0	39	0	433061888	64	5264
2026-01-11 10:45:28.85	208.89	34.77	-47.2	-50.4	15.6	0.00e+00	0	39	0	435159040	65	5347
2026-01-11 10:45:29.84	209.14	34.94	-47.0	-50.1	15.8	0.00e+00	0	39	0	437256192	65	5179
2026-01-11 10:45:30.84	209.40	35.11	-46.9	-49.9	16.0	0.00e+00	0	39	0	438304768	65	5059
2026-01-11 10:45:31.83	209.66	35.29	-46.8	-49.8	16.1	0.00e+00	0	39	0	440401920	65	5019
2026-01-11 10:45:32.82	209.92	35.46	-46.7	-49.7	16.2	0.00e+00	0	39	0	442499072	65	4951
2026-01-11 10:45:33.82	210.19	35.63	-46.4	-49.2	16.7	0.00e+00	0	39	0	444596224	64	4944
2026-01-11 10:45:34.81	210.46	35.81	-46.6	-49.5	16.3	0.00e+00	0	39	0	446693376	64	5150
2026-01-11 10:45:35.80	210.73	35.98	-46.6	-49.4	16.5	0.00e+00	0	39	0	447741952	64	5083
2026-01-11 10:45:36.80	211.00	36.16	-46.8	-49.7	16.2	0.00e+00	0	39	0	449839104	64	5272
2026-01-11 10:45:37.79	211.28	36.33	-46.8	-49.7	16.2	0.00e+00	0	39	0	451936256	64	5236
2026-01-11 10:45:38.78	211.56	36.51	-47.0	-50.0	15.9	0.00e+00	0	39	0	454033408	64	5425
2026-01-11 10:45:39.77	211.84	36.68	-47.0	-49.9	16.0	0.00e+00	0	39	0	455081984	64	5384
2026-01-11 10:45:40.77	212.13	36.86	-46.6	-49.4	16.4	0.00e+00	0	39	0	457179136	64	5063
2026-01-11 10:45:41.76	212.41	37.03	-46.3	-49.0	16.8	0.00e+00	0	39	0	459276288	64	4834
2026-01-11 10:45:42.75	212.70	37.21	-46.0	-48.6	17.2	0.00e+00	0	39	0	461373440	63	4918
2026-01-11 10:45:43.74	213.00	37.38	-46.1	-48.8	17.1	0.00e+00	0	39	0	462422016	63	4994
2026-01-11 10:45:44.74	213.30	37.56	-46.1	-48.8	17.1	0.00e+00	0	39	0	464519168	63	5005
2026-01-11 10:45:45.73	213.60	37.73	-46.2	-48.8	17.1	0.00e+00	0	39	0	466616320	63	5019
2026-01-11 10:45:46.72	213.90	37.91	-46.3	-49.1	16.8	0.00e+00	0	39	0	468713472	63	5196
2026-01-11 10:45:47.71	214.21	38.08	-45.9	-48.5	17.4	0.00e+00	0	39	0	470810624	63	4840
2026-01-11 10:45:48.71	214.52	38.26	-45.9	-48.6	17.3	0.00e+00	0	39	0	471859200	63	4900
2026-01-11 10:45:49.70	214.83	38.44	-45.8	-48.4	17.5	0.00e+00	0	39	0	473956352	63	4761
2026-01-11 10:45:50.69	215.15	38.61	-45.9	-48.5	17.3	0.00e+00	0	39	0	476053504	63	4841
2026-01-11 10:45:51.68	215.47	38.79	-45.7	-48.2	17.6	0.00e+00	0	39	0	478150656	63	4696
2026-01-11 10:45:52.68	215.80	38.96	-45.8	-48.4	17.5	0.00e+00	0	39	0	479199232	63	4774
2026-01-11 10:45:53.67	216.12	39.14	-45.6	-48.2	17.7	0.00e+00	0	39	0	481296384	63	4659
2026-01-11 10:45:54.66	216.46	39.31	-45.5	-48.1	17.8	0.00e+00	0	39	0	483393536	62	4874
2026-01-11 10:45:55.65	216.79	39.49	-45.7	-48.2	17.7	0.00e+00	0	39	0	485490688	62	4942
2026-01-11 10:45:56.65	217.13	39.66	-45.9	-48.4	17.5	0.00e+00	0	39	0	487587840	62	5082
2026-01-11 10:45:57.64	217.47	39.84	-45.9	-48.4	17.4	0.00e+00	0	39	0	488636416	62	5073
2026-01-11 10:45:58.63	217.82	40.01	-45.8	-48.4	17.5	0.00e+00	0	39	0	490733568	62	5050
2026-01-11 10:45:59.62	218.16	40.18	-45.9	-48.5	17.3	0.00e+00	0	39	0	492830720	62	5135
2026-01-11 10:46:00.62	218.52	40.36	-46.5	-49.3	16.6	0.00e+00	0	39	0	494927872	63	5306
2026-01-11 10:46:01.61	218.87	40.53	-46.5	-49.3	16.6	0.00e+00	0	39	0	495976448	63	5321
2026-01-11 10:46:02.60	219.23	40.70	-46.5	-49.2	16.6	0.00e+00	0	39	0	498073600	63	5278
2026-01-11 10:46:03.60	219.60	40.88	-46.3	-49.0	16.9	0.00e+00	0	39	0	500170752	63	5129
2026-01-11 10:46:04.59	219.97	41.05	-46.3	-48.9	17.0	0.00e+00	0	39	0	502267904	63	5098
2026-01-11 10:46:05.58	220.34	41.22	-46.6	-49.4	16.6	0.00e+00	0	39	0	504365056	63	5345
2026-01-11 10:46:06.58	220.72	41.39	-46.4	-49.1	16.8	0.00e+00	0	39	0	505413632	63	5205
2026-01-11 10:46:07.57	221.10	41.56	-46.6	-49.4	16.5	0.00e+00	0	39	0	507510784	64	5084
2026-01-11 10:46:08.56	221.48	41.73	-46.7	-49.5	16.3	0.00e+00	0	39	0	509607936	64	5156
2026-01-11 10:46:09.55	221.87	41.90	-46.2	-49.0	16.9	0.00e+00	0	39	0	511705088	64	4831
2026-01-11 10:46:10.55	222.26	42.07	-45.9	-48.4	17.4	0.00e+00	0	39	0	512753664	63	4807
2026-01-11 10:46:11.54	222.66	42.24	-45.5	-47.9	17.9	0.00e+00	0	39	0	514850816	62	4814
2026-01-11 10:46:12.53	223.05	42.40	-45.6	-48.1	17.8	0.00e+00	0	39	0	516947968	62	4913
2026-01-11 10:46:13.53	223.46	42.57	-45.8	-48.3	17.6	0.00e+00	0	39	0	519045120	62	5026
2026-01-11 10:46:14.52	223.87	42.74	-46.0	-48.6	17.2	0.00e+00	0	39	0	521142272	63	4919
2026-01-11 10:46:15.51	224.28	42.90	-45.9	-48.5	17.3	0.00e+00	0	39	0	522190848	63	4848
2026-01-11 10:46:16.51	224.70	43.07	-45.6	-48.0	17.7	0.00e+00	0	39	0	524288000	63	4596
2026-01-11 10:46:17.50	225.12	43.23	-45.2	-47.6	18.2	0.00e+00	0	39	0	526385152	62	4602
2026-01-11 10:46:18.49	225.54	43.39	-45.2	-47.5	18.2	0.00e+00	0	39	0	528482304	62	4597
2026-01-11 10:46:19.49	225.97	43.55	-45.5	-47.9	17.9	0.00e+00	0	39	0	529530880	62	4796
2026-01-11 10:46:20.48	226.41	43.71	-45.8	-48.3	17.6	0.00e+00	0	39	0	531628032	62	5005
2026-01-11 10:46:21.47	226.84	43.87	-46.2	-48.8	17.1	0.00e+00	0	39	0	533725184	63	5034
2026-01-11 10:46:22.46	227.28	44.02	-46.4	-49.1	16.8	0.00e+00	0	39	0	535822336	63	5195
2026-01-11 10:46:23.46	227.73	44.18	-46.8	-49.7	16.3	0.00e+00	0	39	0	537919488	64	5245
2026-01-11 10:46:24.45	228.18	44.34	-46.6	-49.5	16.4	0.00e+00	0	39	0	538968064	64	5121
2026-01-11 10:46:25.44	228.64	44.49	-46.4	-49.2	16.7	0.00e+00	0	39	0	541065216	64	4939
2026-01-11 10:46:26.44	229.10	44.64	-46.2	-48.9	17.0	0.00e+00	0	39	0	543162368	63	5042
2026-01-11 10:46:27.43	229.56	44.79	-46.0	-48.6	17.3	0.00e+00	0	39	0	545259520	63	4910
2026-01-11 10:46:28.42	230.03	44.94	-46.3	-49.0	16.9	0.00e+00	0	39	0	546308096	63	5141
2026-01-11 10:46:29.42	230.50	45.09	-46.6	-49.4	16.6	0.00e+00	0	39	0	548405248	63	5359
2026-01-11 10:46:30.41	230.98	45.23	-46.6	-49.4	16.5	0.00e+00	0	39	0	550502400	64	5082
2026-01-11 10:46:31.40	231.46	45.38	-46.7	-49.5	16.3	0.00e+00	0	39	0	552599552	64	5138
2026-01-11 10:46:32.39	231.94	45.52	-46.8	-49.8	16.2	0.00e+00	0	39	0	553648128	64	5282
2026-01-11 10:46:33.39	232.44	45.66	-46.6	-49.5	16.3	0.00e+00	0	39	0	555745280	64	5105
2026-01-11 10:46:34.38	232.93	45.80	-46.8	-49.6	16.4	0.00e+00	0	39	0	557842432	64	5191
2026-01-11 10:46:35.37	233.43	45.94	-46.8	-49.6	16.3	0.00e+00	0	39	0	559939584	64	5206
2026-01-11 10:46:36.36	233.93	46.07	-47.0	-50.0	15.9	0.00e+00	0	39	0	562036736	64	5452
2026-01-11 10:46:37.36	234.44	46.21	-47.8	-51.2	14.7	0.00e+00	0	39	0	563085312	66	5558
2026-01-11 10:46:38.35	234.95	46.34	-47.7	-50.9	15.0	0.00e+00	0	39	0	565182464	66	5381
2026-01-11 10:46:39.34	235.46	46.47	-47.3	-50.3	15.7	0.00e+00	0	39	0	567279616	66	5019
2026-01-11 10:46:40.34	235.98	46.59	-47.0	-49.9	15.9	0.00e+00	0	39	0	569376768	65	5096
2026-01-11 10:46:41.33	236.51	46.72	-47.3	-50.4	15.5	0.00e+00	0	39	0	570425344	65	5373
2026-01-11 10:46:42.32	237.03	46.84	-47.7	-51.0	15.0	7.00e-07	0	39	0	572522496	66	5435
2026-01-11 10:46:43.32	237.57	46.96	-47.9	-51.3	14.6	7.00e-07	0	39	0	574619648	66	5649
2026-01-11 10:46:44.31	238.10	47.08	-48.2	-51.7	14.3	0.00e+00	0	39	0	576716800	66	5883
2026-01-11 10:46:45.30	238.64	47.20	-48.3	-52.0	13.9	2.20e-06	0	39	0	578813952	67	5762
2026-01-11 10:46:46.29	239.18	47.31	-48.5	-52.3	13.7	3.00e-06	0	39	0	579862528	67	5987
2026-01-11 10:46:47.29	239.73	47.42	-48.4	-52.2	13.7	4.50e-06	0	39	0	581959680	67	5915
2026-01-11 10:46:48.28	240.28	47.53	-48.1	-51.7	14.3	7.00e-07	0	39	0	584056832	67	5534
2026-01-11 10:46:49.27	240.84	47.63	-47.6	-50.8	15.1	0.00e+00	0	39	0	586153984	66	5337
2026-01-11 10:46:50.27	241.40	47.74	-47.2	-50.3	15.6	0.00e+00	0	39	0	587202560	66	5022
2026-01-11 10:46:51.26	241.96	47.84	-47.0	-49.9	16.0	0.00e+00	0	39	0	589299712	65	5085
2026-01-11 10:46:52.25	242.52	47.93	-47.4	-50.5	15.4	0.00e+00	0	39	0	591396864	65	5441
2026-01-11 10:46:53.24	243.09	48.03	-47.8	-51.1	14.8	0.00e+00	0	39	0	593494016	66	5522
2026-01-11 10:46:54.24	243.67	48.12	-48.6	-52.5	13.6	0.00e+00	0	39	0	595591168	67	6068
2026-01-11 10:46:55.23	244.24	48.21	-48.5	-52.3	13.8	6.80e-06	0	39	0	596639744	67	5957
2026-01-11 10:46:56.22	244.82	48.30	-48.2	-51.7	14.4	7.00e-07	0	39	0	598736896	67	5560
2026-01-11 10:46:57.22	245.41	48.38	-48.1	-51.7	14.2	0.00e+00	0	39	0	600834048	67	5581
2026-01-11 10:46:58.21	245.99	48.46	-47.9	-51.3	14.7	0.00e+00	0	39	0	602931200	67	5317
2026-01-11 10:46:59.20	246.58	48.54	-47.7	-51.0	15.0	7.00e-07	0	39	0	603979776	67	5120
2026-01-11 10:47:00.20	247.17	48.61	-47.7	-51.0	15.0	0.00e+00	0	39	0	606076928	66	5426
2026-01-11 10:47:01.19	247.77	48.68	-47.2	-50.2	15.8	0.00e+00	0	39	0	608174080	66	4954
2026-01-11 10:47:02.18	248.36	48.75	-47.2	-50.3	15.6	0.00e+00	0	39	0	610271232	66	4993
2026-01-11 10:47:03.18	248.96	48.82	-46.7	-49.5	16.4	0.00e+00	0	39	0	612368384	65	4845
2026-01-11 10:47:04.17	249.56	48.88	-46.3	-49.0	16.8	0.00e+00	0	39	0	613416960	64	4833
2026-01-11 10:47:05.16	250.17	48.94	-45.8	-48.3	17.6	0.00e+00	0	39	0	615514112	63	4745
2026-01-11 10:47:06.15	250.77	48.99	-45.5	-48.0	17.9	0.00e+00	0	39	0	617611264	62	4826
2026-01-11 10:47:07.15	251.38	49.04	-45.9	-48.5	17.4	0.00e+00	0	39	0	619708416	62	5145
2026-01-11 10:47:08.14	251.99	49.09	-46.6	-49.5	16.4	0.00e+00	0	39	0	620756992	64	5108
2026-01-11 10:47:09.13	252.60	49.14	-46.3	-49.0	16.8	0.00e+00	0	39	0	622854144	64	4869
2026-01-11 10:47:10.13	253.22	49.18	-45.9	-48.4	17.4	0.00e+00	0	39	0	624951296	63	4813
2026-01-11 10:47:11.12	253.83	49.22	-45.7	-48.2	17.7	0.00e+00	0	39	0	627048448	63	4697
2026-01-11 10:47:12.11	254.45	49.25	-45.8	-48.3	17.5	0.00e+00	0	39	0	629145600	63	4759
2026-01-11 10:47:13.11	255.07	49.28	-45.9	-48.4	17.4	0.00e+00	0	39	0	630194176	63	4813
2026-01-11 10:47:14.10	255.69	49.31	-45.5	-47.9	17.9	0.00e+00	0	39	0	632291328	63	4536
2026-01-11 10:47:15.09	256.31	49.34	-45.3	-47.7	18.2	0.00e+00	0	39	0	634388480	62	4669
2026-01-11 10:47:16.08	256.93	49.36	-45.4	-47.9	18.0	0.00e+00	0	39	0	636485632	62	4772
2026-01-11 10:47:17.08	257.55	49.37	-45.4	-47.8	18.1	0.00e+00	0	39	0	637534208	62	4735
2026-01-11 10:47:18.07	258.17	49.39	-45.4	-47.9	18.0	0.00e+00	0	39	0	639631360	62	4777
2026-01-11 10:47:19.06	258.80	49.40	-45.2	-47.5	18.3	0.00e+00	0	39	0	641728512	62	4597
2026-01-11 10:47:20.06	259.42	49.40	-44.8	-47.1	18.6	0.00e+00	0	39	0	643825664	61	4649
2026-01-11 10:47:20.79	259.88	49.41	-45.5	-48.0	17.8	0.00e+00	0	39	0	644874240	61	5152
2026-01-11 10:47:22.06	260.68	49.41	-46.3	-49.1	16.9	0.00e+00	0	39	0	648019968	63	5197
2026-01-11 10:47:22.77	261.13	49.40	-46.3	-49.1	16.8	0.00e+00	0	39	0	649068544	64	4876
2026-01-11 10:47:24.05	261.93	49.39	-46.3	-49.0	16.9	0.00e+00	0	39	0	651165696	64	4853
2026-01-11 10:47:24.76	262.37	49.39	-46.4	-49.3	16.7	0.00e+00	0	39	0	653262848	64	4992
2026-01-11 10:47:26.04	263.18	49.37	-46.5	-49.3	16.6	0.00e+00	0	39	0	655360000	64	5031
2026-01-11 10:47:26.76	263.63	49.35	-46.1	-48.8	17.1	0.00e+00	0	39	0	656408576	64	4746
2026-01-11 10:47:28.04	264.43	49.33	-45.3	-47.7	18.2	0.00e+00	0	39	0	658505728	62	4686
2026-01-11 10:47:28.75	264.87	49.31	-44.9	-47.2	18.6	0.00e+00	0	39	0	660602880	61	4655
2026-01-11 10:47:30.02	265.66	49.27	-45.6	-48.1	17.8	0.00e+00	0	39	0	662700032	61	5183
2026-01-11 10:47:30.73	266.10	49.25	-46.0	-48.6	17.3	0.00e+00	0	39	0	663748608	62	5200
2026-01-11 10:47:32.01	266.90	49.20	-46.6	-49.4	16.4	0.00e+00	0	39	0	666894336	64	5093
2026-01-11 10:47:32.72	267.34	49.18	-47.1	-50.2	15.8	0.00e+00	0	39	0	667942912	64	5547
2026-01-11 10:47:34.00	268.13	49.12	-47.9	-51.3	14.8	0.00e+00	0	39	0	670040064	66	5634
2026-01-11 10:47:34.71	268.57	49.09	-48.2	-51.8	14.2	7.00e-07	0	39	0	671088640	66	5959
2026-01-11 10:47:36.00	269.36	49.03	-48.5	-52.4	13.6	7.00e-07	0	39	0	674234368	67	6018
2026-01-11 10:47:36.71	269.79	48.99	-48.5	-52.5	13.7	2.20e-06	0	39	0	675282944	67	6065
2026-01-11 10:47:37.98	270.57	48.92	-48.1	-51.8	14.3	3.80e-06	0	39	0	677380096	67	5602
2026-01-11 10:47:38.71	271.01	48.87	-48.2	-51.9	14.1	4.50e-06	0	39	0	679477248	67	5722
2026-01-11 10:47:39.98	271.78	48.79	-47.8	-51.2	14.8	1.50e-06	0	39	0	681574400	67	5228
2026-01-11 10:47:40.69	272.20	48.75	-47.3	-50.4	15.6	0.00e+00	0	39	0	682622976	66	5092
2026-01-11 10:47:41.97	272.97	48.66	-46.9	-49.8	16.1	0.00e+00	0	39	0	684720128	65	5022
2026-01-11 10:47:42.69	273.40	48.61	-46.7	-49.6	16.3	0.00e+00	0	39	0	686817280	65	4886
2026-01-11 10:47:43.97	274.16	48.51	-46.5	-49.2	16.7	0.00e+00	0	39	0	688914432	64	4981
2026-01-11 10:47:44.69	274.59	48.45	-46.3	-49.1	16.9	0.00e+00	0	39	0	689963008	64	4881
2026-01-11 10:47:45.97	275.34	48.35	-46.8	-49.7	16.2	0.00e+00	0	39	0	693108736	64	5270
2026-01-11 10:47:46.68	275.76	48.29	-47.6	-50.8	15.2	0.00e+00	0	39	0	694157312	65	5630
2026-01-11 10:47:47.95	276.50	48.18	-49.2	-53.3	12.8	3.43e-05	0	39	0	696254464	69	5976
2026-01-11 10:47:48.68	276.92	48.11	-49.4	-53.8	12.4	1.19e-04	0	39	0	697303040	69	6331
2026-01-11 10:47:49.96	277.65	47.99	-49.1	-53.1	13.2	6.40e-05	0	39	0	700448768	69	5839
2026-01-11 10:47:50.68	278.07	47.92	-49.6	-54.1	12.1	1.67e-04	0	39	0	701497344	69	6506
2026-01-11 10:47:51.96	278.79	47.80	-49.6	-54.3	12.0	3.69e-04	0	39	0	703594496	70	6288
2026-01-11 10:47:52.67	279.19	47.72	-49.6	-54.2	11.9	5.54e-04	0	39	0	705691648	70	6267
2026-01-11 10:47:53.94	279.91	47.59	-50.1	-55.3	10.9	1.99e-03	0	39	0	707788800	70	7072
2026-01-11 10:47:54.65	280.30	47.52	-50.1	-55.2	10.9	3.32e-03	0	39	0	708837376	71	6646
2026-01-11 10:47:55.93	281.01	47.38	-50.5	-56.0	10.0	6.58e-03	0	39	0	710934528	71	7265
2026-01-11 10:47:56.67	281.42	47.29	-50.1	-55.0	11.2	1.72e-03	0	39	0	713031680	71	6484
2026-01-11 10:47:57.95	282.11	47.15	-49.6	-54.1	12.1	4.03e-04	0	39	0	715128832	70	6150
2026-01-11 10:47:58.67	282.50	47.06	-49.3	-53.6	12.6	1.81e-04	0	39	0	716177408	70	5814
2026-01-11 10:47:59.95	283.19	46.91	-48.6	-52.4	13.9	2.67e-05	0	39	0	719323136	69	5361
2026-01-11 10:48:00.67	283.57	46.82	-48.2	-51.7	14.5	3.00e-06	0	39	0	720371712	68	5234
2026-01-11 10:48:01.95	284.25	46.66	-47.2	-50.2	15.8	0.00e+00	0	39	0	722468864	66	4976
2026-01-11 10:48:02.66	284.62	46.57	-47.1	-50.1	15.9	0.00e+00	0	39	0	723517440	66	4893
2026-01-11 10:48:03.93	285.28	46.41	-48.3	-51.9	14.2	0.00e+00	0	39	0	726663168	67	5687
2026-01-11 10:48:04.64	285.65	46.32	-49.3	-53.6	12.6	1.22e-05	0	39	0	727711744	69	6168
2026-01-11 10:48:05.92	286.31	46.15	-49.0	-53.2	13.0	8.31e-05	0	39	0	729808896	69	5880
2026-01-11 10:48:06.63	286.67	46.05	-48.3	-51.9	14.3	3.00e-06	0	39	0	730857472	68	5341
2026-01-11 10:48:07.91	287.31	45.88	-47.8	-51.0	14.9	0.00e+00	0	39	0	734003200	66	5464
2026-01-11 10:48:08.61	287.66	45.78	-47.8	-51.1	15.0	7.00e-07	0	39	0	735051776	66	5484
2026-01-11 10:48:09.89	288.29	45.60	-48.1	-51.6	14.4	0.00e+00	0	39	0	737148928	66	5820
2026-01-11 10:48:10.60	288.64	45.50	-47.9	-51.2	14.8	0.00e+00	0	39	0	739246080	66	5583
2026-01-11 10:48:11.88	289.27	45.32	-47.5	-50.7	15.3	0.00e+00	0	39	0	741343232	66	5232
2026-01-11 10:48:12.59	289.61	45.21	-47.2	-50.3	15.7	0.00e+00	0	39	0	742391808	66	4999
2026-01-11 10:48:13.88	290.22	45.03	-47.4	-50.5	15.5	1.50e-06	0	39	0	744488960	66	5131
2026-01-11 10:48:14.59	290.56	44.92	-47.6	-50.8	15.2	2.20e-06	0	39	0	746586112	66	5302
2026-01-11 10:48:15.89	291.17	44.72	-47.6	-50.9	15.1	0.00e+00	0	39	0	748683264	66	5342
2026-01-11 10:48:16.60	291.50	44.62	-47.7	-51.0	15.1	0.00e+00	0	39	0	749731840	66	5409
2026-01-11 10:48:17.90	292.10	44.42	-45.9	-48.5	17.5	0.00e+00	0	39	0	752877568	63	4841
2026-01-11 10:48:18.61	292.42	44.31	-46.0	-48.6	17.4	0.00e+00	0	39	0	753926144	63	4904
2026-01-11 10:48:19.88	292.99	44.11	-46.5	-49.2	16.7	0.00e+00	0	39	0	756023296	63	5256
2026-01-11 10:48:20.61	293.32	44.00	-46.4	-49.1	16.8	0.00e+00	0	39	0	757071872	63	5217
2026-01-11 10:48:21.88	293.88	43.80	-45.4	-47.9	18.0	0.00e+00	0	39	0	760217600	62	4776
2026-01-11 10:48:22.59	294.19	43.68	-44.8	-47.1	18.7	0.00e+00	0	39	0	761266176	61	4606
2026-01-11 10:48:23.87	294.75	43.48	-44.6	-46.8	18.9	0.00e+00	0	39	0	763363328	60	4736
2026-01-11 10:48:24.58	295.05	43.36	-45.2	-47.6	18.3	0.00e+00	0	39	0	765460480	61	4903
2026-01-11 10:48:25.86	295.60	43.16	-45.9	-48.5	17.4	0.00e+00	0	39	0	767557632	62	5135
2026-01-11 10:48:26.58	295.90	43.04	-45.8	-48.3	17.6	0.00e+00	0	39	0	768606208	62	5021
2026-01-11 10:48:27.86	296.43	42.83	-45.1	-47.5	18.3	0.00e+00	0	39	0	770703360	62	4556
2026-01-11 10:48:28.57	296.72	42.71	-44.5	-46.7	19.0	0.00e+00	0	39	0	772800512	61	4429
2026-01-11 10:48:29.84	297.24	42.50	-44.5	-46.7	19.1	0.00e+00	0	39	0	774897664	60	4664
2026-01-11 10:48:30.57	297.54	42.38	-44.7	-47.0	18.8	0.00e+00	0	39	0	775946240	60	4845
2026-01-11 10:48:31.84	298.05	42.16	-45.3	-47.7	18.1	0.00e+00	0	39	0	779091968	61	4971
2026-01-11 10:48:32.55	298.33	42.04	-44.9	-47.2	18.6	0.00e+00	0	39	0	780140544	61	4682
2026-01-11 10:48:33.83	298.83	41.83	-44.2	-46.4	19.2	0.00e+00	0	39	0	782237696	60	4523
2026-01-11 10:48:34.56	299.11	41.70	-44.4	-46.6	19.1	0.00e+00	0	39	0	783286272	60	4641
2026-01-11 10:48:35.83	299.60	41.49	-45.3	-47.7	18.2	0.00e+00	0	39	0	786432000	61	4968
2026-01-11 10:48:36.54	299.87	41.37	-45.8	-48.3	17.6	0.00e+00	0	39	0	787480576	62	5008
2026-01-11 10:48:37.82	300.35	41.15	-45.1	-47.5	18.3	0.00e+00	0	39	0	789577728	62	4558
2026-01-11 10:48:38.53	300.61	41.02	-44.5	-46.7	19.0	0.00e+00	0	39	0	790626304	60	4675
2026-01-11 10:48:39.82	301.09	40.80	-44.1	-46.3	19.4	0.00e+00	0	39	0	793772032	60	4465
2026-01-11 10:48:40.53	301.35	40.68	-44.7	-47.0	18.7	0.00e+00	0	39	0	794820608	60	4861
2026-01-11 10:48:41.82	301.81	40.45	-46.6	-49.5	16.4	0.00e+00	0	39	0	796917760	64	5149
2026-01-11 10:48:42.53	302.07	40.33	-47.5	-50.8	15.2	0.00e+00	0	39	0	799014912	65	5607
2026-01-11 10:48:43.82	302.52	40.11	-47.4	-50.6	15.4	0.00e+00	0	39	0	801112064	66	5171
2026-01-11 10:48:44.53	302.77	39.98	-46.9	-49.9	16.0	0.00e+00	0	39	0	802160640	65	5080
2026-01-11 10:48:45.81	303.21	39.76	-46.7	-49.5	16.4	0.00e+00	0	39	0	805306368	65	4866
2026-01-11 10:48:46.52	303.45	39.63	-46.3	-49.1	16.7	0.00e+00	0	39	0	806354944	64	4887
2026-01-11 10:48:47.79	303.88	39.41	-48.6	-52.6	13.5	0.00e+00	0	39	0	808452096	67	6151
2026-01-11 10:48:48.50	304.12	39.29	-50.0	-55.3	10.8	2.28e-05	0	39	0	809500672	70	7117
2026-01-11 10:48:49.78	304.54	39.06	-50.4	-56.8	9.4	1.72e-02	0	39	0	812646400	71	7957
2026-01-11 10:48:50.52	304.79	38.93	-50.0	-55.6	10.5	1.37e-02	0	39	0	813694976	71	6921
2026-01-11 10:48:51.80	305.20	38.71	-48.7	-52.6	13.5	6.63e-05	0	39	0	815792128	69	5523
2026-01-11 10:48:52.51	305.43	38.58	-48.2	-51.8	14.4	3.80e-06	0	39	0	817889280	68	5285
2026-01-11 10:48:53.78	305.83	38.36	-48.7	-52.8	13.4	1.50e-06	0	39	0	819986432	68	5971
2026-01-11 10:48:54.49	306.05	38.23	-49.5	-54.4	11.8	8.69e-05	0	39	0	821035008	69	6745
2026-01-11 10:48:55.78	306.46	38.01	-50.9	-59.3	6.8	5.21e-02	0	39	0	823132160	72	9963
2026-01-11 10:48:56.49	306.67	37.88	-51.0	-59.7	6.5	2.52e-01	0	39	0	825229312	72	10420
2026-01-11 10:48:57.77	307.06	37.66	-50.4	-56.8	9.0	3.69e-02	0	39	0	827326464	72	7501
2026-01-11 10:48:58.49	307.28	37.53	-50.1	-55.7	10.3	1.27e-02	0	39	0	828375040	72	6573
2026-01-11 10:48:59.77	307.66	37.31	-49.0	-53.2	13.0	6.00e-04	0	39	0	830472192	70	5533
2026-01-11 10:49:00.48	307.87	37.18	-48.6	-52.4	13.8	1.06e-05	0	39	0	832569344	69	5384
2026-01-11 10:49:01.76	308.24	36.96	-49.6	-54.3	11.8	1.81e-04	0	39	0	834666496	69	6674
2026-01-11 10:49:02.47	308.45	36.83	-50.3	-55.9	10.2	9.39e-04	0	39	0	835715072	71	7199
2026-01-11 10:49:03.77	308.82	36.60	-51.3	-59.2	7.0	6.58e-02	0	39	0	838860800	73	9382
2026-01-11 10:49:04.48	309.02	36.48	-51.4	-59.6	6.5	2.11e-01	0	39	0	839909376	73	9804
2026-01-11 10:49:05.76	309.38	36.26	-50.5	-56.3	9.9	4.25e-02	0	39	0	842006528	72	7086
2026-01-11 10:49:06.50	309.58	36.13	-49.8	-54.6	11.5	3.17e-03	0	39	0	844103680	71	6172
2026-01-11 10:49:07.78	309.93	35.90	-49.1	-53.2	13.0	1.69e-04	0	39	0	846200832	70	5545
2026-01-11 10:49:08.50	310.12	35.78	-49.2	-53.5	12.6	6.48e-05	0	39	0	847249408	70	5779
2026-01-11 10:49:09.78	310.47	35.56	-49.8	-54.8	11.2	4.58e-04	0	39	0	849346560	70	6713
2026-01-11 10:49:10.50	310.66	35.43	-50.2	-55.7	10.4	3.12e-03	0	39	0	851443712	70	7390
2026-01-11 10:49:11.78	310.99	35.21	-50.6	-57.0	9.1	2.69e-02	0	39	0	853540864	72	7696
2026-01-11 10:49:12.49	311.18	35.09	-50.4	-56.3	9.6	2.81e-02	0	39	0	854589440	72	7062
2026-01-11 10:49:13.76	311.50	34.87	-49.3	-53.7	12.4	1.01e-03	0	39	0	857735168	70	5884
2026-01-11 10:49:14.47	311.68	34.74	-48.3	-52.0	14.1	2.36e-05	0	39	0	858783744	68	5411
2026-01-11 10:49:15.75	312.01	34.52	-46.8	-49.7	16.2	0.00e+00	0	39	0	860880896	65	4981
2026-01-11 10:49:16.46	312.18	34.40	-46.6	-49.5	16.5	0.00e+00	0	39	0	861929472	65	4824
2026-01-11 10:49:17.73	312.50	34.18	-46.9	-49.8	16.1	0.00e+00	0	39	0	865075200	65	5028
2026-01-11 10:49:18.44	312.67	34.06	-47.3	-50.4	15.5	0.00e+00	0	39	0	866123776	65	5381
2026-01-11 10:49:19.72	312.98	33.84	-48.2	-51.9	14.0	0.00e+00	0	39	0	868220928	67	5722
2026-01-11 10:49:20.44	313.15	33.72	-48.3	-52.2	13.9	6.10e-06	0	39	0	870318080	67	5869
2026-01-11 10:49:21.72	313.45	33.50	-47.8	-51.3	14.6	3.00e-06	0	39	0	872415232	67	5299
2026-01-11 10:49:22.44	313.62	33.38	-46.9	-49.9	16.0	0.00e+00	0	39	0	873463808	65	5066
2026-01-11 10:49:23.72	313.92	33.17	-45.7	-48.2	17.5	0.00e+00	0	39	0	875560960	63	4698
2026-01-11 10:49:24.46	314.09	33.04	-45.6	-48.1	17.7	0.00e+00	0	39	0	877658112	63	4599
2026-01-11 10:49:25.74	314.38	32.83	-46.0	-48.5	17.4	0.00e+00	0	39	0	879755264	62	5154
2026-01-11 10:49:26.46	314.54	32.71	-46.3	-49.0	16.9	0.00e+00	0	39	0	880803840	63	5138
2026-01-11 10:49:27.74	314.82	32.49	-47.6	-50.8	15.1	0.00e+00	0	39	0	882900992	65	5646
2026-01-11 10:49:28.46	314.98	32.37	-48.1	-51.6	14.3	0.00e+00	0	39	0	884998144	66	5845
2026-01-11 10:49:29.74	315.26	32.16	-48.3	-52.1	13.9	1.50e-06	0	39	0	887095296	67	5805
2026-01-11 10:49:30.47	315.42	32.04	-48.3	-52.1	13.9	2.20e-06	0	39	0	888143872	67	5799
2026-01-11 10:49:31.74	315.69	31.83	-47.2	-50.4	15.4	7.00e-07	0	39	0	891289600	66	5089
2026-01-11 10:49:32.45	315.84	31.71	-46.4	-49.2	16.6	0.00e+00	0	39	0	892338176	64	4972
2026-01-11 10:49:33.73	316.11	31.50	-46.2	-49.0	16.9	0.00e+00	0	39	0	894435328	63	5123
2026-01-11 10:49:34.45	316.26	31.39	-45.9	-48.6	17.2	0.00e+00	0	39	0	896532480	63	4922
2026-01-11 10:49:35.73	316.52	31.18	-46.4	-49.3	16.7	0.00e+00	0	39	0	898629632	63	5287
2026-01-11 10:49:36.44	316.67	31.06	-46.8	-49.9	16.0	0.00e+00	0	39	0	899678208	64	5389
2026-01-11 10:49:37.72	316.92	30.85	-47.5	-51.0	14.8	0.00e+00	0	39	0	901775360	65	5787
2026-01-11 10:49:38.43	317.06	30.74	-47.5	-51.0	14.9	0.00e+00	0	39	0	903872512	65	5775
2026-01-11 10:49:39.70	317.32	30.53	-47.3	-50.7	15.1	0.00e+00	0	39	0	905969664	65	5586
2026-01-11 10:49:40.44	317.46	30.42	-46.9	-50.1	15.8	0.00e+00	0	39	0	907018240	65	5205
2026-01-11 10:49:41.72	317.71	30.21	-46.1	-49.0	16.8	0.00e+00	0	39	0	910163968	64	4846
2026-01-11 10:49:42.44	317.85	30.10	-46.0	-48.8	17.1	0.00e+00	0	39	0	911212544	63	5014
2026-01-11 10:49:43.72	318.09	29.89	-45.6	-48.2	17.6	0.00e+00	0	39	0	913309696	63	4687
2026-01-11 10:49:44.43	318.22	29.78	-45.2	-47.7	18.1	0.00e+00	0	39	0	914358272	62	4686
2026-01-11 10:49:45.70	318.46	29.58	-45.7	-48.4	17.5	0.00e+00	0	39	0	917504000	62	5064
2026-01-11 10:49:46.43	318.59	29.47	-46.1	-48.9	17.0	0.00e+00	0	39	0	918552576	62	5383
2026-01-11 10:49:47.70	318.83	29.27	-47.2	-50.4	15.5	0.00e+00	0	39	0	920649728	64	5694
2026-01-11 10:49:48.41	318.96	29.16	-47.5	-50.9	15.0	0.00e+00	0	39	0	921698304	65	5703
2026-01-11 10:49:49.69	319.19	28.96	-48.2	-52.1	13.8	2.20e-06	0	39	0	924844032	67	5845
2026-01-11 10:49:50.43	319.32	28.84	-48.4	-52.5	13.4	9.90e-06	0	39	0	925892608	67	6063
2026-01-11 10:49:51.71	319.54	28.65	-48.3	-52.3	13.7	1.60e-05	0	39	0	927989760	67	5949
2026-01-11 10:49:52.42	319.67	28.54	-48.2	-52.1	13.8	1.29e-05	0	39	0	930086912	67	5834
2026-01-11 10:49:53.71	319.89	28.34	-47.8	-51.4	14.5	1.50e-06	0	39	0	932184064	67	5373
2026-01-11 10:49:54.42	320.01	28.23	-47.4	-50.8	15.1	7.00e-07	0	39	0	933232640	66	5337
2026-01-11 10:49:55.70	320.23	28.04	-46.8	-49.9	15.9	0.00e+00	0	39	0	936378368	65	5100
2026-01-11 10:49:56.41	320.35	27.93	-46.4	-49.3	16.5	0.00e+00	0	39	0	937426944	64	4995
2026-01-11 10:49:57.68	320.56	27.74	-46.6	-49.6	16.3	0.00e+00	0	39	0	939524096	64	5167
2026-01-11 10:49:58.39	320.68	27.63	-46.8	-49.8	16.1	0.00e+00	0	39	0	940572672	64	5316
2026-01-11 10:49:59.67	320.89	27.44	-47.2	-50.4	15.5	0.00e+00	0	39	0	943718400	65	5390
2026-01-11 10:50:00.39	321.00	27.33	-47.5	-50.9	15.0	0.00e+00	0	39	0	944766976	65	5669
2026-01-11 10:50:01.67	321.21	27.14	-47.1	-50.3	15.6	0.00e+00	0	39	0	946864128	65	5304
2026-01-11 10:50:02.40	321.32	27.03	-46.9	-50.1	15.8	0.00e+00	0	39	0	948961280	65	5186
2026-01-11 10:50:03.67	321.52	26.85	-46.4	-49.3	16.6	0.00e+00	0	39	0	951058432	64	5012
2026-01-11 10:50:04.38	321.64	26.74	-46.3	-49.2	16.6	0.00e+00	0	39	0	952107008	64	4943
2026-01-11 10:50:05.66	321.83	26.56	-46.1	-48.9	17.0	0.00e+00	0	39	0	954204160	63	5071
2026-01-11 10:50:06.40	321.95	26.45	-45.7	-48.4	17.4	0.00e+00	0	39	0	956301312	63	4807
2026-01-11 10:50:07.67	322.14	26.26	-45.4	-48.1	17.7	0.00e+00	0	39	0	958398464	62	4888
2026-01-11 10:50:08.38	322.25	26.16	-45.6	-48.3	17.5	0.00e+00	0	39	0	959447040	62	5016
2026-01-11 10:50:09.68	322.44	25.98	-45.7	-48.5	17.3	0.00e+00	0	39	0	961544192	62	5132
2026-01-11 10:50:10.38	322.55	25.88	-45.8	-48.6	17.3	0.00e+00	0	39	0	963641344	62	5182
2026-01-11 10:50:11.66	322.73	25.69	-46.2	-49.3	16.6	0.00e+00	0	39	0	965738496	63	5287
2026-01-11 10:50:12.40	322.84	25.59	-46.5	-49.6	16.4	0.00e+00	0	39	0	966787072	63	5500
2026-01-11 10:50:13.68	323.03	25.41	-46.7	-49.9	16.0	0.00e+00	0	39	0	969932800	64	5344
2026-01-11 10:50:14.39	323.13	25.31	-46.9	-50.1	15.7	0.00e+00	0	39	0	970981376	64	5528
2026-01-11 10:50:15.67	323.31	25.13	-47.3	-50.7	15.2	0.00e+00	0	39	0	973078528	65	5530
2026-01-11 10:50:16.37	323.41	25.03	-47.3	-50.7	15.2	0.00e+00	0	39	0	974127104	65	5561
2026-01-11 10:50:17.67	323.59	24.85	-47.8	-51.5	14.5	0.00e+00	0	39	0	977272832	66	5725
2026-01-11 10:50:18.38	323.69	24.75	-47.8	-51.4	14.5	0.00e+00	0	39	0	978321408	66	5702
2026-01-11 10:50:19.65	323.86	24.57	-47.8	-51.4	14.6	7.00e-07	0	39	0	980418560	66	5680
2026-01-11 10:50:20.36	323.96	24.48	-48.1	-51.8	14.1	7.00e-07	0	39	0	982515712	66	5982
2026-01-11 10:50:21.64	324.13	24.30	-47.9	-51.5	14.4	2.20e-06	0	39	0	984612864	67	5444
2026-01-11 10:50:22.36	324.23	24.20	-48.1	-51.9	14.1	7.00e-07	0	39	0	985661440	67	5660
2026-01-11 10:50:23.64	324.40	24.03	-48.0	-51.7	14.2	2.20e-06	0	39	0	987758592	67	5575
2026-01-11 10:50:24.36	324.49	23.93	-47.7	-51.2	14.6	1.50e-06	0	39	0	989855744	67	5276
2026-01-11 10:50:25.64	324.66	23.76	-47.6	-51.2	14.6	1.50e-06	0	39	0	991952896	67	5266
2026-01-11 10:50:26.35	324.75	23.66	-47.4	-50.8	15.1	0.00e+00	0	39	0	993001472	66	5287
2026-01-11 10:50:27.63	324.92	23.49	-47.1	-50.3	15.5	0.00e+00	0	39	0	996147200	65	5320
2026-01-11 10:50:28.34	325.01	23.40	-47.1	-50.4	15.4	0.00e+00	0	39	0	997195776	65	5357
2026-01-11 10:50:29.61	325.17	23.23	-46.9	-50.0	15.8	0.00e+00	0	39	0	999292928	65	5125
2026-01-11 10:50:30.37	325.26	23.13	-47.3	-50.7	15.2	0.00e+00	0	39	0	1000341504	65	5533
2026-01-11 10:50:31.64	325.42	22.96	-47.6	-51.1	14.8	0.00e+00	0	39	0	1003487232	65	5837
2026-01-11 10:50:32.35	325.51	22.87	-47.6	-51.1	14.7	0.00e+00	0	39	0	1004535808	66	5526
2026-01-11 10:50:33.63	325.66	22.70	-48.0	-52.0	13.9	4.50e-06	0	39	0	1006632960	66	6092
2026-01-11 10:50:34.35	325.75	22.61	-48.3	-52.7	13.1	8.30e-06	0	39	0	1008730112	67	6251
2026-01-11 10:50:35.63	325.90	22.44	-48.4	-53.0	12.9	1.44e-05	0	39	0	1010827264	67	6438
2026-01-11 10:50:36.34	325.99	22.35	-48.3	-52.7	13.1	2.21e-05	0	39	0	1011875840	67	6219
2026-01-11 10:50:37.62	326.14	22.19	-48.0	-52.2	13.6	2.74e-05	0	39	0	1013972992	67	5900
2026-01-11 10:50:38.33	326.22	22.10	-47.9	-52.1	13.8	7.60e-06	0	39	0	1016070144	67	5802
2026-01-11 10:50:39.60	326.37	21.94	-47.6	-51.3	14.6	7.00e-07	0	39	0	1018167296	66	5595
2026-01-11 10:50:40.33	326.46	21.84	-47.2	-50.6	15.2	0.00e+00	0	39	0	1019215872	66	5203
2026-01-11 10:50:41.61	326.60	21.68	-46.7	-49.7	16.1	0.00e+00	0	39	0	1022361600	65	4942
2026-01-11 10:50:42.35	326.69	21.59	-46.6	-49.6	16.1	0.00e+00	0	39	0	1023410176	64	5191
2026-01-11 10:50:43.62	326.83	21.43	-45.9	-48.6	17.2	0.00e+00	0	39	0	1025507328	63	4871
2026-01-11 10:50:44.33	326.91	21.34	-45.6	-48.1	17.7	0.00e+00	0	39	0	1026555904	63	4615
2026-01-11 10:50:45.62	327.05	21.18	-45.4	-48.0	17.8	0.00e+00	0	39	0	1029701632	62	4816
2026-01-11 10:50:46.33	327.13	21.09	-45.5	-48.0	17.8	0.00e+00	0	39	0	1030750208	62	4832
2026-01-11 10:50:47.61	327.27	20.94	-45.4	-47.8	17.9	0.00e+00	0	39	0	1032847360	62	4758
2026-01-11 10:50:48.35	327.35	20.85	-45.6	-48.1	17.6	0.00e+00	0	39	0	1034944512	62	4926
2026-01-11 10:50:49.63	327.49	20.69	-45.7	-48.3	17.5	0.00e+00	0	39	0	1037041664	62	4988
2026-01-11 10:50:50.36	327.57	20.60	-46.0	-48.8	17.0	0.00e+00	0	39	0	1038090240	62	5287
2026-01-11 10:50:51.64	327.70	20.45	-46.1	-49.0	16.8	0.00e+00	0	39	0	1040187392	63	5111
2026-01-11 10:50:52.37	327.78	20.36	-46.3	-49.3	16.5	0.00e+00	0	39	0	1042284544	63	5316
2026-01-11 10:50:53.64	327.91	20.21	-46.9	-50.3	15.5	0.00e+00	0	39	0	1044381696	64	5599
2026-01-11 10:50:54.37	327.99	20.12	-47.0	-50.5	15.3	0.00e+00	0	39	0	1045430272	64	5768
2026-01-11 10:50:55.64	328.12	19.97	-47.3	-51.1	14.7	0.00e+00	0	39	0	1048576000	65	5816
2026-01-11 10:50:56.35	328.19	19.88	-47.5	-51.6	14.2	2.20e-06	0	39	0	1049624576	65	6177
2026-01-11 10:50:57.63	328.32	19.73	-47.3	-51.4	14.4	7.00e-07	0	39	0	1051721728	65	6047
2026-01-11 10:50:58.35	328.39	19.65	-47.5	-51.8	14.1	2.20e-06	0	39	0	1053818880	65	6306
2026-01-11 10:50:59.63	328.52	19.50	-47.6	-51.9	13.9	3.80e-06	0	39	0	1055916032	66	6047
2026-01-11 10:51:00.36	328.60	19.41	-47.6	-51.8	14.0	3.80e-06	0	39	0	1056964608	66	5949
2026-01-11 10:51:01.63	328.72	19.26	-47.8	-52.0	13.9	2.20e-06	0	39	0	1059061760	66	6075
2026-01-11 10:51:02.36	328.79	19.18	-47.5	-51.4	14.4	7.00e-07	0	39	0	1061158912	66	5711
2026-01-11 10:51:03.63	328.92	19.03	-47.6	-51.4	14.3	2.20e-06	0	39	0	1063256064	66	5702
2026-01-11 10:51:04.34	328.98	18.95	-47.7	-51.4	14.4	3.00e-06	0	39	0	1064304640	66	5692
2026-01-11 10:51:05.62	329.11	18.80	-47.6	-51.2	14.6	0.00e+00	0	39	0	1067450368	66	5583
2026-01-11 10:51:06.34	329.17	18.72	-47.4	-50.8	15.0	0.00e+00	0	39	0	1068498944	66	5302
2026-01-11 10:51:07.62	329.30	18.58	-47.3	-50.6	15.2	0.00e+00	0	39	0	1070596096	66	5179
2026-01-11 10:51:08.33	329.36	18.50	-47.0	-50.2	15.5	0.00e+00	0	39	0	1071644672	66	4983
2026-01-11 10:51:09.62	329.48	18.35	-47.1	-50.4	15.4	0.00e+00	0	39	0	1074790400	65	5373
2026-01-11 10:51:10.33	329.55	18.27	-46.9	-50.1	15.6	0.00e+00	0	39	0	1075838976	65	5207
2026-01-11 10:51:11.64	329.67	18.13	-47.0	-50.2	15.5	0.00e+00	0	39	0	1077936128	65	5261
2026-01-11 10:51:12.35	329.73	18.05	-47.2	-50.5	15.3	0.00e+00	0	39	0	1080033280	65	5412
2026-01-11 10:51:13.62	329.85	17.91	-46.9	-50.1	15.6	0.00e+00	0	39	0	1082130432	65	5213
2026-01-11 10:51:14.33	329.91	17.83	-47.0	-50.2	15.6	0.00e+00	0	39	0	1083179008	65	5241
2026-01-11 10:51:15.63	330.03	17.69	-47.0	-50.3	15.5	0.00e+00	0	39	0	1085276160	65	5292
2026-01-11 10:51:16.34	330.09	17.61	-47.2	-50.5	15.2	0.00e+00	0	39	0	1087373312	65	5464
2026-01-11 10:51:17.61	330.20	17.47	-47.4	-50.9	14.9	0.00e+00	0	39	0	1089470464	65	5676
2026-01-11 10:51:18.33	330.27	17.39	-47.3	-50.8	15.0	0.00e+00	0	39	0	1090519040	65	5641
2026-01-11 10:51:19.61	330.38	17.25	-47.3	-50.9	14.8	0.00e+00	0	39	0	1093664768	65	5713
2026-01-11 10:51:20.32	330.44	17.18	-47.4	-51.2	14.5	0.00e+00	0	39	0	1094713344	65	5878
2026-01-11 10:51:21.60	330.55	17.04	-47.3	-51.1	14.7	0.00e+00	0	39	0	1096810496	65	5790
2026-01-11 10:51:22.31	330.61	16.96	-47.3	-51.0	14.7	0.00e+00	0	39	0	1097859072	65	5775
2026-01-11 10:51:23.59	330.72	16.83	-47.4	-51.2	14.5	0.00e+00	0	39	0	1101004800	65	5916
2026-01-11 10:51:24.30	330.78	16.75	-47.4	-51.2	14.5	2.20e-06	0	39	0	1102053376	65	5874
2026-01-11 10:51:25.57	330.88	16.62	-47.5	-51.4	14.3	7.00e-07	0	39	0	1104150528	65	6013
2026-01-11 10:51:26.28	330.94	16.54	-47.4	-51.2	14.5	7.00e-07	0	39	0	1105199104	65	5913
2026-01-11 10:51:27.56	331.05	16.41	-47.4	-51.2	14.6	0.00e+00	0	39	0	1108344832	65	5859
2026-01-11 10:51:28.28	331.10	16.33	-47.5	-51.3	14.5	0.00e+00	0	39	0	1109393408	65	5954
2026-01-11 10:51:29.56	331.21	16.20	-47.5	-51.1	14.6	0.00e+00	0	39	0	1111490560	65	5824
2026-01-11 10:51:30.27	331.27	16.12	-47.3	-50.8	14.9	0.00e+00	0	39	0	1113587712	65	5631
2026-01-11 10:51:31.55	331.37	15.99	-47.3	-50.7	15.0	0.00e+00	0	39	0	1115684864	65	5586
2026-01-11 10:51:32.25	331.42	15.92	-47.3	-50.7	15.0	7.00e-07	0	39	0	1116733440	65	5567
2026-01-11 10:51:33.55	331.53	15.79	-47.1	-50.5	15.2	0.00e+00	0	39	0	1118830592	65	5421
2026-01-11 10:51:34.26	331.58	15.71	-47.1	-50.5	15.2	0.00e+00	0	39	0	1120927744	65	5423
2026-01-11 10:51:35.53	331.68	15.59	-47.0	-50.4	15.3	0.00e+00	0	39	0	1123024896	65	5342
2026-01-11 10:51:36.24	331.74	15.51	-46.7	-50.1	15.6	0.00e+00	0	39	0	1124073472	65	5182
2026-01-11 10:51:37.53	331.84	15.38	-46.7	-50.1	15.5	0.00e+00	0	39	0	1127219200	65	5211
2026-01-11 10:51:38.24	331.89	15.31	-46.7	-50.1	15.5	0.00e+00	0	39	0	1128267776	65	5207
2026-01-11 10:51:39.52	331.99	15.18	-46.6	-49.9	15.8	0.00e+00	0	39	0	1130364928	64	5398
2026-01-11 10:51:40.23	332.04	15.11	-46.6	-50.0	15.6	0.00e+00	0	39	0	1131413504	64	5464
2026-01-11 10:51:41.51	332.14	14.98	-46.6	-50.0	15.7	0.00e+00	0	39	0	1134559232	64	5418
2026-01-11 10:51:42.23	332.19	14.91	-46.7	-50.1	15.6	0.00e+00	0	39	0	1135607808	64	5479
2026-01-11 10:51:43.51	332.29	14.79	-46.7	-50.0	15.6	0.00e+00	0	39	0	1137704960	64	5440
2026-01-11 10:51:44.22	332.34	14.72	-46.7	-50.1	15.6	0.00e+00	0	39	0	1139802112	64	5470
2026-01-11 10:51:45.49	332.43	14.59	-46.9	-50.2	15.5	0.00e+00	0	39	0	1141899264	64	5549
2026-01-11 10:51:46.20	332.49	14.52	-46.8	-50.1	15.6	0.00e+00	0	39	0	1142947840	64	5481
2026-01-11 10:51:47.48	332.58	14.40	-47.1	-50.4	15.2	0.00e+00	0	39	0	1145044992	64	5715
2026-01-11 10:51:48.19	332.63	14.33	-47.2	-50.5	15.2	0.00e+00	0	39	0	1147142144	65	5429
2026-01-11 10:51:49.48	332.72	14.20	-47.0	-50.2	15.4	0.00e+00	0	39	0	1149239296	65	5277
2026-01-11 10:51:50.19	332.77	14.14	-47.1	-50.4	15.2	0.00e+00	0	39	0	1150287872	65	5384
2026-01-11 10:51:51.48	332.86	14.01	-47.2	-50.5	15.1	0.00e+00	0	39	0	1153433600	65	5448
2026-01-11 10:51:52.19	332.91	13.94	-47.1	-50.5	15.2	0.00e+00	0	39	0	1154482176	65	5429
2026-01-11 10:51:53.47	333.00	13.82	-47.2	-50.6	15.0	0.00e+00	0	39	0	1156579328	65	5505
2026-01-11 10:51:54.19	333.05	13.75	-47.2	-50.7	15.0	0.00e+00	0	39	0	1157627904	65	5565
2026-01-11 10:51:55.47	333.14	13.63	-46.8	-50.5	15.1	0.00e+00	0	39	0	1160773632	65	5441
2026-01-11 10:51:56.19	333.19	13.56	-46.5	-50.2	15.4	0.00e+00	0	39	0	1161822208	65	5268
2026-01-11 10:51:57.47	333.28	13.44	-46.4	-50.1	15.5	0.00e+00	0	39	0	1163919360	64	5486
2026-01-11 10:51:58.18	333.33	13.38	-46.4	-50.0	15.6	0.00e+00	0	39	0	1164967936	64	5443
2026-01-11 10:51:59.45	333.41	13.26	-46.6	-50.0	15.6	0.00e+00	0	39	0	1168113664	64	5433
2026-01-11 10:52:00.16	333.46	13.19	-46.4	-49.8	15.9	0.00e+00	0	39	0	1169162240	64	5291
2026-01-11 10:52:01.44	333.54	13.07	-46.5	-49.8	15.8	0.00e+00	0	39	0	1171259392	64	5299
2026-01-11 10:52:02.15	333.59	13.01	-46.6	-49.9	15.7	0.00e+00	0	39	0	1173356544	64	5357
2026-01-11 10:52:03.43	333.68	12.89	-46.6	-49.7	15.9	0.00e+00	0	39	0	1175453696	64	5241
2026-01-11 10:52:04.15	333.72	12.82	-46.6	-49.8	15.8	0.00e+00	0	39	0	1176502272	64	5292
2026-01-11 10:52:05.43	333.81	12.71	-46.5	-49.5	16.0	0.00e+00	0	39	0	1178599424	64	5158
2026-01-11 10:52:06.15	333.85	12.64	-46.6	-49.7	15.8	0.00e+00	0	39	0	1180696576	64	5252
2026-01-11 10:52:07.43	333.94	12.52	-46.6	-49.7	15.9	0.00e+00	0	39	0	1182793728	64	5255
2026-01-11 10:52:08.14	333.98	12.46	-46.6	-49.6	15.9	0.00e+00	0	39	0	1183842304	64	5199
2026-01-11 10:52:09.43	334.06	12.34	-46.8	-50.0	15.6	0.00e+00	0	39	0	1186988032	64	5413
2026-01-11 10:52:10.14	334.11	12.28	-46.8	-50.0	15.6	0.00e+00	0	39	0	1188036608	64	5450
2026-01-11 10:52:11.41	334.19	12.17	-46.9	-50.2	15.4	0.00e+00	0	39	0	1190133760	64	5562
2026-01-11 10:52:12.12	334.23	12.10	-46.9	-50.3	15.3	0.00e+00	0	39	0	1191182336	64	5616
2026-01-11 10:52:13.40	334.31	11.99	-46.9	-50.3	15.3	0.00e+00	0	39	0	1194328064	64	5593
2026-01-11 10:52:14.11	334.36	11.93	-47.0	-50.4	15.2	0.00e+00	0	39	0	1195376640	64	5700
2026-01-11 10:52:15.39	334.43	11.81	-47.1	-50.6	15.0	0.00e+00	0	39	0	1197473792	64	5832
2026-01-11 10:52:16.11	334.48	11.75	-47.1	-50.7	14.9	0.00e+00	0	39	0	1199570944	65	5536
2026-01-11 10:52:17.39	334.56	11.64	-47.4	-51.1	14.5	0.00e+00	0	39	0	1201668096	65	5848
2026-01-11 10:52:18.10	334.60	11.57	-47.5	-51.3	14.3	0.00e+00	0	39	0	1202716672	65	5944
2026-01-11 10:52:19.37	334.68	11.46	-47.6	-51.5	14.1	0.00e+00	0	39	0	1204813824	65	6086
2026-01-11 10:52:20.08	334.72	11.40	-47.7	-51.5	14.0	3.80e-06	0	39	0	1206910976	65	6131
2026-01-11 10:52:21.36	334.79	11.29	-47.8	-51.7	13.9	3.80e-06	0	39	0	1209008128	66	5866
2026-01-11 10:52:22.07	334.84	11.23	-47.7	-51.7	13.9	4.50e-06	0	39	0	1210056704	66	5873
2026-01-11 10:52:23.36	334.91	11.12	-47.9	-52.0	13.6	2.20e-06	0	39	0	1213202432	66	6068
2026-01-11 10:52:24.07	334.95	11.06	-47.9	-52.0	13.6	5.30e-06	0	39	0	1214251008	66	6101
2026-01-11 10:52:25.35	335.03	10.95	-47.9	-52.1	13.5	1.22e-05	0	39	0	1216348160	66	6154
2026-01-11 10:52:26.06	335.07	10.89	-47.8	-52.0	13.6	7.60e-06	0	39	0	1217396736	66	6118
