passes_logs/2026/01/11/T1/T1__20260111_023129_SUOMI_NPP_rec.log

#Pass ID: 20260111_023129_SUOMI NPP
#Satellite: SUOMI NPP
#Configuration: NPP
#almurnet v.1.7.20251203
#Start time: 2026-01-11 02:31:29

#Version: 2.0.20230620
#Station: T1
#Location: 37.570604 lon 55.790049 lat
#TLE: 1 37849U 11061A   26009.81756760  .00000113  00000+0  74747-4 0  9994
#TLE: 2 37849  98.7806 311.9110 0002525  72.5604 287.5848 14.19524046735974

#Time	Az	El	Level	Level2	SNR	BER	BlckErr	Temp	State	Recorded	gain1	gain2
2026-01-11 02:31:29.12	359.92	5.00	-49.0	-65.3	3.8	1.49e+00	0	36	0	0	68	25121
2026-01-11 02:31:30.12	359.80	5.04	-46.5	-64.9	3.8	1.49e+00	0	36	104	0	63	31928
2026-01-11 02:31:31.12	359.68	5.08	-46.5	-64.9	3.8	1.49e+00	0	36	104	0	63	32094
2026-01-11 02:31:32.13	359.55	5.13	-46.5	-64.9	3.8	1.49e+00	0	36	104	0	63	31989
2026-01-11 02:31:33.13	359.43	5.17	-46.5	-64.9	3.8	1.49e+00	0	36	104	0	63	32021
2026-01-11 02:31:34.14	359.30	5.21	-46.5	-64.9	3.8	1.49e+00	0	36	104	0	63	31998
2026-01-11 02:31:35.14	359.18	5.25	-46.5	-64.9	3.8	1.49e+00	0	37	104	0	63	32075
2026-01-11 02:31:36.14	359.06	5.29	-46.5	-64.9	3.8	1.49e+00	0	37	104	0	63	32061
2026-01-11 02:31:37.15	358.93	5.33	-46.5	-64.9	3.8	1.49e+00	0	37	104	0	63	31853
2026-01-11 02:31:38.15	358.81	5.38	-46.5	-64.9	3.8	1.49e+00	0	37	104	0	63	32028
2026-01-11 02:31:39.16	358.68	5.42	-46.5	-64.9	3.8	1.49e+00	0	37	104	0	63	32106
2026-01-11 02:31:40.16	358.55	5.46	-46.5	-64.9	3.8	1.49e+00	0	37	104	0	63	32007
2026-01-11 02:31:41.17	358.43	5.50	-46.5	-64.9	3.8	1.49e+00	0	37	104	0	63	31912
2026-01-11 02:31:42.17	358.30	5.54	-46.6	-64.9	3.8	1.49e+00	0	37	104	0	63	31941
2026-01-11 02:31:43.18	358.17	5.58	-46.6	-64.9	3.8	1.49e+00	0	37	104	0	63	31906
2026-01-11 02:31:44.18	358.04	5.62	-46.6	-64.9	3.8	1.49e+00	0	37	104	0	63	32003
2026-01-11 02:31:45.18	357.92	5.66	-46.5	-64.9	3.8	1.49e+00	0	37	104	0	63	31904
2026-01-11 02:31:46.19	357.79	5.71	-46.5	-64.9	3.8	1.49e+00	0	37	104	0	63	31965
2026-01-11 02:31:47.20	357.66	5.75	-46.5	-64.9	3.8	1.49e+00	0	37	104	0	63	32034
2026-01-11 02:31:48.20	357.53	5.79	-46.5	-64.9	3.8	1.49e+00	0	37	104	0	63	31837
2026-01-11 02:31:49.20	357.40	5.83	-46.5	-64.9	3.8	1.49e+00	0	37	104	0	63	31998
2026-01-11 02:31:50.21	357.27	5.87	-46.5	-64.9	3.8	1.49e+00	0	37	104	0	63	32027
2026-01-11 02:31:51.21	357.14	5.91	-46.5	-64.9	3.8	1.49e+00	0	37	104	0	63	31948
2026-01-11 02:31:52.22	357.01	5.95	-46.6	-64.9	3.8	1.49e+00	0	37	104	0	63	31949
2026-01-11 02:31:53.22	356.88	5.99	-46.6	-64.9	3.8	1.49e+00	0	37	104	0	63	31921
2026-01-11 02:31:54.22	356.75	6.03	-46.6	-64.9	3.8	1.49e+00	0	37	104	0	63	32148
2026-01-11 02:31:55.23	356.61	6.07	-46.6	-64.9	3.8	1.49e+00	0	37	104	0	63	32010
2026-01-11 02:31:56.23	356.48	6.11	-46.5	-64.9	3.8	1.49e+00	0	37	104	0	63	32028
2026-01-11 02:31:57.24	356.35	6.15	-46.5	-64.9	3.8	1.49e+00	0	38	104	0	63	32033
2026-01-11 02:31:58.24	356.22	6.19	-46.6	-64.9	3.8	1.49e+00	0	38	104	0	63	31854
2026-01-11 02:31:59.25	356.08	6.23	-46.6	-64.9	3.8	1.49e+00	0	37	104	0	63	31944
2026-01-11 02:32:00.25	355.95	6.27	-46.6	-64.9	3.8	1.49e+00	0	37	104	0	63	31925
2026-01-11 02:32:01.25	355.81	6.31	-46.6	-64.9	3.8	1.49e+00	0	37	104	0	63	32049
2026-01-11 02:32:02.26	355.68	6.35	-46.5	-64.9	3.8	1.49e+00	0	37	104	0	63	31927
2026-01-11 02:32:03.26	355.55	6.39	-46.6	-64.9	3.8	1.49e+00	0	38	104	0	63	31967
2026-01-11 02:32:04.27	355.41	6.43	-46.6	-64.9	3.8	1.49e+00	0	38	104	0	63	31942
2026-01-11 02:32:05.27	355.27	6.47	-46.6	-64.9	3.8	1.49e+00	0	38	104	0	63	31983
2026-01-11 02:32:06.28	355.14	6.51	-46.6	-64.9	3.8	1.49e+00	0	38	104	0	63	31944
2026-01-11 02:32:07.28	355.00	6.55	-46.6	-64.9	3.8	1.49e+00	0	38	104	0	63	31983
2026-01-11 02:32:08.28	354.87	6.59	-46.6	-64.9	3.8	1.49e+00	0	38	104	0	63	32025
2026-01-11 02:32:09.29	354.73	6.63	-46.6	-64.9	3.8	1.49e+00	0	38	104	0	63	32021
2026-01-11 02:32:10.29	354.59	6.67	-46.6	-64.9	3.8	1.49e+00	0	38	104	0	63	32013
2026-01-11 02:32:11.30	354.45	6.71	-46.6	-64.9	3.8	1.49e+00	0	38	104	0	63	31900
2026-01-11 02:32:12.30	354.31	6.75	-46.6	-64.9	3.8	1.49e+00	0	38	104	0	63	31970
2026-01-11 02:32:13.31	354.17	6.78	-46.6	-64.9	3.8	1.49e+00	0	38	104	0	63	32061
2026-01-11 02:32:14.31	354.04	6.82	-46.6	-64.9	3.8	1.49e+00	0	38	104	0	63	31946
2026-01-11 02:32:15.31	353.90	6.86	-46.6	-64.9	3.8	1.49e+00	0	38	104	0	63	32045
2026-01-11 02:32:16.32	353.76	6.90	-46.6	-64.9	3.8	1.49e+00	0	38	104	0	63	32042
2026-01-11 02:32:17.32	353.62	6.94	-46.6	-64.9	3.8	1.49e+00	0	38	104	0	63	32056
2026-01-11 02:32:18.33	353.48	6.98	-46.6	-64.9	3.8	1.49e+00	0	38	104	0	63	32053
2026-01-11 02:32:19.33	353.34	7.01	-46.6	-64.9	3.8	1.49e+00	0	38	104	0	63	32057
2026-01-11 02:32:20.34	353.19	7.05	-46.2	-64.9	3.8	1.49e+00	0	38	104	0	63	32047
2026-01-11 02:32:21.34	353.05	7.09	-46.6	-64.9	3.8	1.49e+00	0	38	104	0	63	31985
2026-01-11 02:32:22.35	352.91	7.13	-46.6	-64.9	3.8	1.49e+00	0	38	104	0	63	32019
2026-01-11 02:32:23.35	352.77	7.17	-46.6	-65.0	3.8	1.49e+00	0	38	104	0	63	32198
2026-01-11 02:32:24.35	352.63	7.20	-46.6	-64.9	3.8	1.49e+00	0	38	104	0	63	32041
2026-01-11 02:32:25.36	352.48	7.24	-46.6	-64.9	3.8	1.49e+00	0	38	104	0	63	32024
2026-01-11 02:32:26.36	352.34	7.28	-46.6	-64.9	3.8	1.49e+00	0	38	104	0	63	31857
2026-01-11 02:32:27.36	352.20	7.32	-46.3	-64.9	3.8	1.49e+00	0	38	104	0	63	31913
2026-01-11 02:32:28.37	352.05	7.35	-46.6	-64.8	3.8	1.49e+00	0	38	104	0	63	31702
2026-01-11 02:32:29.37	351.91	7.39	-46.6	-64.9	3.8	1.49e+00	0	38	104	0	63	31872
2026-01-11 02:32:30.38	351.76	7.43	-46.5	-64.9	3.8	1.49e+00	0	38	104	0	63	31846
2026-01-11 02:32:31.38	351.62	7.46	-46.5	-64.9	3.8	1.49e+00	0	38	104	0	63	31873
2026-01-11 02:32:32.39	351.47	7.50	-46.6	-64.9	3.8	1.49e+00	0	38	104	0	63	31898
2026-01-11 02:32:33.39	351.32	7.54	-46.6	-64.9	3.8	1.49e+00	0	38	104	0	63	31899
2026-01-11 02:32:34.40	351.18	7.57	-46.6	-64.9	3.8	1.49e+00	0	38	104	0	63	31857
2026-01-11 02:32:35.40	351.03	7.61	-46.6	-64.8	3.8	1.49e+00	0	38	104	0	63	31758
2026-01-11 02:32:36.40	350.88	7.65	-46.6	-64.8	3.8	1.49e+00	0	38	104	0	63	31569
2026-01-11 02:32:37.41	350.73	7.68	-46.6	-64.8	3.8	1.49e+00	0	38	104	0	63	31497
2026-01-11 02:32:38.41	350.59	7.72	-46.6	-64.7	3.8	1.49e+00	0	38	104	0	63	31426
2026-01-11 02:32:39.41	350.44	7.75	-46.5	-64.8	3.8	1.49e+00	0	38	104	0	63	31663
2026-01-11 02:32:40.42	350.29	7.79	-46.6	-64.8	3.8	1.49e+00	0	38	104	0	63	31771
2026-01-11 02:32:41.42	350.14	7.82	-46.6	-64.9	3.8	1.49e+00	0	38	104	0	63	31948
2026-01-11 02:32:42.43	349.99	7.86	-46.6	-64.9	3.8	1.49e+00	0	38	104	0	63	31975
2026-01-11 02:32:43.43	349.84	7.89	-46.6	-64.9	3.8	1.49e+00	0	38	104	0	63	32015
2026-01-11 02:32:44.44	349.69	7.93	-46.6	-64.9	3.8	1.49e+00	0	38	104	0	63	31989
2026-01-11 02:32:45.44	349.54	7.97	-46.6	-64.9	3.8	1.49e+00	0	38	104	0	63	31900
2026-01-11 02:32:46.45	349.39	8.00	-46.6	-64.8	3.8	1.49e+00	0	38	104	0	63	31718
2026-01-11 02:32:47.45	349.24	8.03	-46.6	-64.8	3.8	1.49e+00	0	38	104	0	63	31581
2026-01-11 02:32:48.45	349.09	8.07	-46.6	-64.8	3.8	1.49e+00	0	38	104	0	63	31596
2026-01-11 02:32:49.46	348.93	8.10	-46.6	-64.8	3.8	1.49e+00	0	38	104	0	63	31619
2026-01-11 02:32:50.46	348.78	8.14	-46.6	-64.8	3.8	1.49e+00	0	38	104	0	63	31568
2026-01-11 02:32:51.47	348.63	8.17	-46.6	-64.8	3.8	1.49e+00	0	39	104	0	63	31738
2026-01-11 02:32:52.47	348.47	8.21	-46.6	-64.8	3.8	1.49e+00	0	38	104	0	63	31765
2026-01-11 02:32:53.48	348.32	8.24	-46.6	-64.9	3.8	1.49e+00	0	38	104	0	63	31834
2026-01-11 02:32:54.48	348.17	8.27	-46.6	-64.9	3.8	1.49e+00	0	38	104	0	63	32048
2026-01-11 02:32:55.49	348.01	8.31	-46.6	-64.9	3.8	1.49e+00	0	38	104	0	63	32037
2026-01-11 02:32:56.49	347.86	8.34	-46.6	-64.9	3.8	1.49e+00	0	39	104	0	63	32079
2026-01-11 02:32:57.49	347.70	8.37	-46.6	-64.9	3.8	1.49e+00	0	39	104	0	63	32056
2026-01-11 02:32:58.50	347.55	8.41	-46.6	-64.9	3.8	1.49e+00	0	39	104	0	63	31953
2026-01-11 02:32:59.50	347.39	8.44	-46.6	-64.8	3.8	1.49e+00	0	39	104	0	63	31678
2026-01-11 02:33:00.50	347.24	8.47	-46.6	-64.7	3.8	1.49e+00	0	39	104	0	63	31339
2026-01-11 02:33:01.51	347.08	8.50	-46.6	-64.7	3.8	1.49e+00	0	39	104	0	63	31149
2026-01-11 02:33:02.52	346.92	8.54	-46.6	-64.7	3.8	1.49e+00	0	38	104	0	63	31431
2026-01-11 02:33:03.52	346.76	8.57	-46.7	-64.7	3.8	1.49e+00	0	39	104	0	63	31355
2026-01-11 02:33:04.52	346.61	8.60	-46.6	-64.5	3.8	1.49e+00	0	39	104	0	63	30660
2026-01-11 02:33:05.53	346.45	8.63	-46.6	-64.1	3.8	1.49e+00	0	39	104	0	63	29172
2026-01-11 02:33:06.53	346.29	8.66	-46.6	-63.6	3.8	1.49e+00	0	39	104	0	63	27457
2026-01-11 02:33:07.54	346.13	8.70	-46.6	-63.3	3.8	1.49e+00	0	39	104	0	63	26629
2026-01-11 02:33:08.54	345.97	8.73	-46.6	-63.1	3.8	1.49e+00	0	38	104	0	63	26139
2026-01-11 02:33:09.55	345.81	8.76	-46.6	-62.6	3.8	1.49e+00	0	39	104	0	63	24684
2026-01-11 02:33:10.55	345.65	8.79	-46.5	-61.4	4.2	1.42e+00	0	39	0	0	63	21292
2026-01-11 02:33:11.56	345.49	8.82	-46.5	-60.1	4.6	1.14e+00	0	39	0	1048576	63	18391
2026-01-11 02:33:12.56	345.33	8.85	-46.4	-59.0	5.2	7.51e-01	0	39	0	2097152	63	16168
2026-01-11 02:33:13.56	345.17	8.88	-46.3	-58.0	5.8	5.01e-01	0	39	0	4194304	63	14486
2026-01-11 02:33:14.57	345.01	8.91	-46.2	-56.8	6.8	2.22e-01	0	39	0	6291456	63	12598
2026-01-11 02:33:15.57	344.85	8.94	-45.9	-55.1	8.4	8.94e-02	0	38	0	8388608	63	10297
2026-01-11 02:33:16.58	344.69	8.97	-45.5	-53.3	10.3	2.12e-02	0	39	0	10485760	62	8873
2026-01-11 02:33:17.58	344.53	9.00	-45.1	-51.8	11.8	8.80e-04	0	39	0	11534336	62	7488
2026-01-11 02:33:18.58	344.36	9.03	-44.3	-50.4	13.1	8.39e-05	0	39	0	13631488	60	7196
2026-01-11 02:33:19.59	344.20	9.06	-45.3	-52.8	10.9	1.98e-05	0	39	0	15728640	61	8953
2026-01-11 02:33:20.59	344.04	9.09	-44.7	-51.0	12.5	6.76e-03	0	39	0	17825792	61	7206
2026-01-11 02:33:21.59	343.88	9.12	-45.8	-54.3	9.5	6.10e-05	0	39	0	19922944	62	9997
2026-01-11 02:33:22.60	343.71	9.15	-44.0	-49.2	14.3	4.22e-01	0	39	0	20971520	60	6233
2026-01-11 02:33:23.60	343.55	9.18	-44.1	-49.3	14.2	7.00e-07	0	39	0	23068672	59	6677
2026-01-11 02:33:24.60	343.38	9.21	-44.2	-49.4	14.2	0.00e+00	0	39	0	25165824	59	6728
2026-01-11 02:33:25.60	343.22	9.23	-44.3	-49.4	14.1	7.00e-07	0	39	0	27262976	59	6765
2026-01-11 02:33:26.61	343.05	9.26	-44.5	-49.5	14.0	3.00e-06	0	39	0	28311552	59	6844
2026-01-11 02:33:27.61	342.89	9.29	-44.7	-49.5	14.1	0.00e+00	0	39	0	30408704	60	6471
2026-01-11 02:33:28.61	342.72	9.32	-44.9	-49.5	14.1	3.80e-06	0	39	0	32505856	60	6465
2026-01-11 02:33:29.62	342.56	9.35	-45.0	-49.5	14.1	7.00e-07	0	39	0	34603008	60	6427
2026-01-11 02:33:30.62	342.39	9.37	-45.0	-49.4	14.2	0.00e+00	0	39	0	36700160	60	6401
2026-01-11 02:33:31.62	342.22	9.40	-45.0	-49.5	14.1	2.20e-06	0	39	0	37748736	60	6462
2026-01-11 02:33:32.62	342.06	9.43	-44.9	-49.6	14.0	4.50e-06	0	39	0	39845888	60	6522
2026-01-11 02:33:33.62	341.89	9.45	-44.9	-49.7	13.9	5.30e-06	0	39	0	41943040	60	6644
2026-01-11 02:33:34.63	341.72	9.48	-44.9	-49.8	13.8	3.00e-06	0	39	0	44040192	60	6696
2026-01-11 02:33:35.63	341.56	9.51	-45.0	-49.9	13.7	4.50e-06	0	39	0	46137344	60	6776
2026-01-11 02:33:36.63	341.39	9.53	-45.0	-49.9	13.8	5.30e-06	0	39	0	47185920	60	6731
2026-01-11 02:33:37.63	341.22	9.56	-45.1	-49.9	13.8	3.00e-06	0	39	0	49283072	60	6735
2026-01-11 02:33:38.64	341.05	9.58	-45.2	-49.9	13.7	2.20e-06	0	39	0	51380224	60	6741
2026-01-11 02:33:39.64	340.88	9.61	-45.2	-49.8	13.9	2.20e-06	0	39	0	53477376	61	6281
2026-01-11 02:33:40.64	340.71	9.63	-45.3	-49.8	13.8	6.10e-06	0	39	0	55574528	61	6298
2026-01-11 02:33:41.65	340.54	9.66	-45.4	-49.8	13.9	7.00e-07	0	39	0	56623104	61	6281
2026-01-11 02:33:42.65	340.37	9.68	-45.3	-49.7	13.9	3.80e-06	0	39	0	58720256	61	6258
2026-01-11 02:33:43.65	340.20	9.71	-45.3	-49.6	14.1	1.50e-06	0	38	0	60817408	61	6133
2026-01-11 02:33:44.66	340.03	9.73	-45.3	-49.5	14.1	7.00e-07	0	39	0	62914560	61	6130
2026-01-11 02:33:45.66	339.86	9.76	-45.3	-49.6	14.1	0.00e+00	0	39	0	65011712	61	6134
2026-01-11 02:33:46.66	339.69	9.78	-45.1	-49.2	14.5	1.50e-06	0	39	0	66060288	61	5864
2026-01-11 02:33:47.66	339.52	9.80	-44.9	-48.8	14.8	1.50e-06	0	39	0	68157440	61	5654
2026-01-11 02:33:48.67	339.35	9.83	-44.9	-48.7	14.9	0.00e+00	0	39	0	70254592	61	5549
2026-01-11 02:33:49.67	339.18	9.85	-44.8	-48.3	15.3	0.00e+00	0	39	0	72351744	61	5336
2026-01-11 02:33:50.68	339.00	9.87	-44.6	-48.1	15.4	0.00e+00	0	39	0	74448896	61	5203
2026-01-11 02:33:51.68	338.83	9.90	-44.8	-48.4	15.3	0.00e+00	0	39	0	75497472	61	5347
2026-01-11 02:33:52.68	338.66	9.92	-44.6	-48.1	15.5	0.00e+00	0	39	0	77594624	61	5206
2026-01-11 02:33:53.68	338.49	9.94	-44.5	-48.0	15.5	0.00e+00	0	39	0	79691776	61	5159
2026-01-11 02:33:54.68	338.31	9.96	-44.6	-48.2	15.5	0.00e+00	0	39	0	81788928	61	5229
2026-01-11 02:33:55.69	338.14	9.99	-44.6	-48.2	15.4	0.00e+00	0	39	0	83886080	61	5241
2026-01-11 02:33:56.69	337.97	10.01	-44.6	-48.3	15.3	0.00e+00	0	39	0	84934656	61	5290
2026-01-11 02:33:57.69	337.79	10.03	-44.7	-48.3	15.3	7.00e-07	0	39	0	87031808	61	5312
2026-01-11 02:33:58.70	337.62	10.05	-44.7	-48.4	15.2	0.00e+00	0	39	0	89128960	61	5395
2026-01-11 02:33:59.70	337.44	10.07	-44.8	-48.5	15.1	0.00e+00	0	39	0	91226112	61	5427
2026-01-11 02:34:00.70	337.27	10.09	-44.6	-48.2	15.4	0.00e+00	0	39	0	92274688	61	5277
2026-01-11 02:34:01.70	337.09	10.11	-44.5	-48.1	15.5	0.00e+00	0	39	0	94371840	61	5200
2026-01-11 02:34:02.71	336.92	10.13	-44.6	-48.2	15.4	0.00e+00	0	39	0	96468992	61	5279
2026-01-11 02:34:03.71	336.74	10.15	-44.8	-48.7	15.0	0.00e+00	0	39	0	98566144	61	5555
2026-01-11 02:34:04.71	336.57	10.17	-44.9	-48.9	14.7	0.00e+00	0	39	0	100663296	61	5710
2026-01-11 02:34:05.72	336.39	10.19	-45.0	-49.2	14.4	0.00e+00	0	39	0	101711872	61	5890
2026-01-11 02:34:06.72	336.21	10.21	-45.2	-49.7	13.9	1.50e-06	0	39	0	103809024	61	6268
2026-01-11 02:34:07.72	336.04	10.23	-45.3	-49.8	13.9	2.20e-06	0	39	0	105906176	61	6344
2026-01-11 02:34:08.72	335.86	10.25	-45.4	-50.1	13.6	6.80e-06	0	39	0	108003328	61	6500
2026-01-11 02:34:09.73	335.68	10.27	-45.4	-50.1	13.6	6.80e-06	0	39	0	110100480	61	6512
2026-01-11 02:34:10.73	335.51	10.29	-45.4	-49.9	13.8	5.30e-06	0	39	0	111149056	61	6420
2026-01-11 02:34:11.73	335.33	10.30	-45.4	-49.8	14.0	3.80e-06	0	39	0	113246208	61	6283
2026-01-11 02:34:12.74	335.15	10.32	-45.4	-49.6	14.1	5.30e-06	0	39	0	115343360	61	6160
2026-01-11 02:34:13.74	334.97	10.34	-45.5	-49.5	14.2	1.50e-06	0	39	0	117440512	61	6126
2026-01-11 02:34:14.74	334.80	10.36	-45.7	-49.7	14.0	1.50e-06	0	39	0	119537664	61	6236
2026-01-11 02:34:15.75	334.62	10.37	-45.7	-49.6	14.1	2.20e-06	0	39	0	120586240	62	5854
2026-01-11 02:34:16.75	334.44	10.39	-45.6	-49.6	14.1	1.50e-06	0	39	0	122683392	62	5832
2026-01-11 02:34:17.76	334.26	10.41	-45.6	-49.7	14.0	7.00e-07	0	39	0	124780544	62	5904
2026-01-11 02:34:18.76	334.08	10.42	-45.6	-49.8	13.9	7.00e-07	0	39	0	126877696	62	5944
2026-01-11 02:34:19.76	333.90	10.44	-45.6	-49.7	14.0	1.50e-06	0	39	0	128974848	62	5899
2026-01-11 02:34:20.77	333.72	10.45	-45.8	-50.0	13.7	5.30e-06	0	39	0	130023424	62	6105
2026-01-11 02:34:21.77	333.54	10.47	-45.8	-49.9	13.8	3.80e-06	0	39	0	132120576	62	6053
2026-01-11 02:34:22.77	333.36	10.49	-45.8	-49.9	13.9	3.00e-06	0	39	0	134217728	62	5998
2026-01-11 02:34:23.77	333.18	10.50	-45.7	-49.6	14.2	1.50e-06	0	39	0	136314880	62	5796
2026-01-11 02:34:24.78	333.00	10.51	-45.7	-49.6	14.1	1.50e-06	0	39	0	138412032	62	5820
2026-01-11 02:34:25.78	332.82	10.53	-45.5	-49.4	14.4	7.00e-07	0	39	0	139460608	62	5665
2026-01-11 02:34:26.78	332.64	10.54	-45.3	-49.2	14.5	7.00e-07	0	39	0	141557760	62	5577
2026-01-11 02:34:27.79	332.46	10.56	-45.1	-49.0	14.7	0.00e+00	0	39	0	143654912	62	5419
2026-01-11 02:34:28.79	332.28	10.57	-44.9	-48.7	15.0	7.00e-07	0	39	0	145752064	61	5541
2026-01-11 02:34:29.79	332.10	10.58	-44.9	-48.7	14.9	0.00e+00	0	39	0	146800640	61	5588
2026-01-11 02:34:30.80	331.92	10.60	-45.1	-49.0	14.7	0.00e+00	0	39	0	148897792	61	5725
2026-01-11 02:34:31.80	331.74	10.61	-45.4	-49.4	14.3	0.00e+00	0	39	0	150994944	61	6029
2026-01-11 02:34:32.80	331.56	10.62	-45.5	-49.3	14.4	7.00e-07	0	39	0	153092096	61	5985
2026-01-11 02:34:33.80	331.37	10.63	-45.7	-49.7	14.1	7.00e-07	0	39	0	155189248	62	5883
2026-01-11 02:34:34.81	331.19	10.65	-45.8	-49.7	14.0	2.20e-06	0	39	0	156237824	62	5884
2026-01-11 02:34:35.81	331.01	10.66	-45.7	-49.6	14.1	7.00e-07	0	39	0	158334976	62	5818
2026-01-11 02:34:36.81	330.83	10.67	-45.5	-49.3	14.4	7.00e-07	0	39	0	160432128	62	5648
2026-01-11 02:34:37.82	330.65	10.68	-45.4	-49.3	14.5	7.00e-07	0	39	0	162529280	62	5596
2026-01-11 02:34:38.82	330.46	10.69	-45.1	-48.8	14.9	0.00e+00	0	39	0	164626432	62	5316
2026-01-11 02:34:39.82	330.28	10.70	-45.1	-48.8	14.9	7.00e-07	0	39	0	165675008	62	5305
2026-01-11 02:34:40.83	330.10	10.71	-45.3	-49.1	14.7	0.00e+00	0	39	0	167772160	62	5466
2026-01-11 02:34:41.83	329.92	10.72	-45.4	-49.2	14.5	7.00e-07	0	39	0	169869312	62	5588
2026-01-11 02:34:42.83	329.73	10.73	-45.6	-49.5	14.2	1.50e-06	0	39	0	171966464	62	5739
2026-01-11 02:34:43.83	329.55	10.74	-45.6	-49.5	14.2	3.00e-06	0	39	0	174063616	62	5769
2026-01-11 02:34:44.84	329.37	10.75	-45.8	-49.7	13.9	1.50e-06	0	39	0	175112192	62	5911
2026-01-11 02:34:45.84	329.18	10.76	-45.8	-49.8	13.9	3.00e-06	0	39	0	177209344	62	5979
2026-01-11 02:34:46.84	329.00	10.77	-45.7	-49.7	14.0	3.00e-06	0	39	0	179306496	62	5921
2026-01-11 02:34:47.85	328.82	10.78	-45.5	-49.5	14.2	7.00e-07	0	39	0	181403648	62	5747
2026-01-11 02:34:48.85	328.63	10.79	-45.3	-49.3	14.4	7.00e-07	0	39	0	183500800	62	5630
2026-01-11 02:34:49.85	328.45	10.79	-45.2	-49.1	14.6	1.50e-06	0	39	0	184549376	62	5517
2026-01-11 02:34:50.86	328.26	10.80	-45.0	-48.9	14.8	7.00e-07	0	39	0	186646528	62	5381
2026-01-11 02:34:51.86	328.08	10.81	-44.8	-48.5	15.1	0.00e+00	0	39	0	188743680	61	5458
2026-01-11 02:34:52.86	327.90	10.82	-44.8	-48.4	15.3	0.00e+00	0	39	0	190840832	61	5388
2026-01-11 02:34:53.87	327.71	10.82	-45.0	-48.6	15.1	0.00e+00	0	39	0	191889408	61	5467
2026-01-11 02:34:54.87	327.53	10.83	-44.9	-48.4	15.3	0.00e+00	0	39	0	193986560	61	5342
2026-01-11 02:34:55.87	327.35	10.83	-45.1	-48.6	15.1	0.00e+00	0	39	0	196083712	61	5508
2026-01-11 02:34:56.87	327.16	10.84	-45.2	-48.8	14.9	0.00e+00	0	39	0	198180864	61	5643
2026-01-11 02:34:57.87	326.98	10.85	-45.3	-49.1	14.7	0.00e+00	0	39	0	200278016	61	5802
2026-01-11 02:34:58.88	326.79	10.85	-45.2	-49.1	14.6	0.00e+00	0	39	0	202375168	61	5833
2026-01-11 02:34:59.88	326.61	10.86	-45.1	-49.1	14.6	0.00e+00	0	39	0	203423744	61	5806
2026-01-11 02:35:00.89	326.42	10.86	-45.0	-48.9	14.8	1.50e-06	0	39	0	205520896	61	5681
2026-01-11 02:35:01.89	326.24	10.87	-45.0	-48.8	14.9	0.00e+00	0	39	0	207618048	61	5642
2026-01-11 02:35:02.89	326.05	10.87	-44.9	-48.5	15.2	0.00e+00	0	39	0	209715200	61	5443
2026-01-11 02:35:03.89	325.87	10.87	-44.9	-48.5	15.2	0.00e+00	0	39	0	210763776	61	5442
2026-01-11 02:35:04.89	325.69	10.88	-44.7	-48.2	15.5	0.00e+00	0	39	0	212860928	61	5244
2026-01-11 02:35:05.90	325.50	10.88	-44.7	-48.1	15.5	0.00e+00	0	39	0	214958080	61	5206
2026-01-11 02:35:06.90	325.31	10.88	-44.5	-47.9	15.8	0.00e+00	0	39	0	217055232	60	5392
2026-01-11 02:35:07.91	325.13	10.89	-44.3	-47.8	15.8	0.00e+00	0	39	0	219152384	60	5334
2026-01-11 02:35:08.91	324.94	10.89	-44.2	-47.7	16.0	0.00e+00	0	39	0	220200960	60	5264
2026-01-11 02:35:09.91	324.76	10.89	-44.1	-47.7	15.9	0.00e+00	0	39	0	222298112	60	5230
2026-01-11 02:35:10.92	324.57	10.89	-44.1	-47.9	15.8	0.00e+00	0	39	0	224395264	60	5348
2026-01-11 02:35:11.92	324.39	10.89	-44.0	-47.7	15.9	0.00e+00	0	39	0	226492416	60	5265
2026-01-11 02:35:12.93	324.20	10.90	-44.0	-47.8	15.8	0.00e+00	0	39	0	228589568	60	5324
2026-01-11 02:35:13.93	324.02	10.90	-44.1	-47.9	15.7	0.00e+00	0	39	0	229638144	59	5681
2026-01-11 02:35:14.93	323.83	10.90	-44.2	-48.0	15.7	0.00e+00	0	39	0	231735296	59	5735
2026-01-11 02:35:15.93	323.65	10.90	-44.3	-48.1	15.5	0.00e+00	0	39	0	233832448	59	5822
2026-01-11 02:35:16.94	323.46	10.90	-44.4	-48.1	15.4	0.00e+00	0	39	0	235929600	59	5834
2026-01-11 02:35:17.94	323.28	10.90	-44.6	-48.4	15.3	0.00e+00	0	39	0	238026752	60	5703
2026-01-11 02:35:18.94	323.09	10.90	-44.9	-48.5	15.1	0.00e+00	0	39	0	239075328	60	5788
2026-01-11 02:35:19.95	322.91	10.90	-45.0	-48.7	15.0	0.00e+00	0	39	0	241172480	60	5885
2026-01-11 02:35:20.95	322.72	10.90	-45.0	-48.6	15.1	0.00e+00	0	39	0	243269632	60	5789
2026-01-11 02:35:21.95	322.54	10.89	-45.1	-48.5	15.2	0.00e+00	0	39	0	245366784	60	5757
2026-01-11 02:35:22.96	322.35	10.89	-45.0	-48.5	15.2	0.00e+00	0	39	0	247463936	60	5725
2026-01-11 02:35:23.96	322.17	10.89	-45.0	-48.4	15.3	0.00e+00	0	39	0	248512512	60	5671
2026-01-11 02:35:24.96	321.98	10.89	-44.8	-48.2	15.5	0.00e+00	0	39	0	250609664	60	5559
2026-01-11 02:35:25.96	321.80	10.89	-44.8	-48.2	15.5	0.00e+00	0	39	0	252706816	60	5554
2026-01-11 02:35:26.97	321.61	10.88	-44.8	-48.2	15.5	0.00e+00	0	39	0	254803968	60	5530
2026-01-11 02:35:27.97	321.43	10.88	-44.8	-48.1	15.5	0.00e+00	0	39	0	255852544	60	5517
2026-01-11 02:35:28.97	321.24	10.88	-44.9	-48.3	15.3	0.00e+00	0	39	0	257949696	60	5623
2026-01-11 02:35:29.97	321.06	10.87	-45.1	-48.5	15.2	0.00e+00	0	39	0	260046848	60	5749
2026-01-11 02:35:30.98	320.87	10.87	-45.1	-48.5	15.1	0.00e+00	0	39	0	262144000	60	5788
2026-01-11 02:35:31.98	320.69	10.86	-45.1	-48.6	15.1	0.00e+00	0	39	0	264241152	60	5837
2026-01-11 02:35:32.99	320.50	10.86	-45.0	-48.6	15.1	7.00e-07	0	39	0	266338304	60	5814
2026-01-11 02:35:33.99	320.32	10.86	-44.9	-48.7	15.0	7.00e-07	0	39	0	267386880	60	5897
2026-01-11 02:35:34.99	320.13	10.85	-44.8	-48.6	15.0	0.00e+00	0	39	0	269484032	60	5836
2026-01-11 02:35:36.00	319.95	10.84	-44.8	-48.6	15.1	0.00e+00	0	39	0	271581184	60	5804
2026-01-11 02:35:37.00	319.76	10.84	-44.8	-48.4	15.2	0.00e+00	0	39	0	273678336	60	5709
2026-01-11 02:35:38.01	319.58	10.83	-44.7	-48.3	15.4	0.00e+00	0	39	0	274726912	60	5606
2026-01-11 02:35:39.01	319.39	10.83	-44.8	-48.3	15.3	0.00e+00	0	39	0	276824064	60	5653
2026-01-11 02:35:40.01	319.21	10.82	-44.8	-48.3	15.4	0.00e+00	0	39	0	278921216	60	5625
2026-01-11 02:35:41.01	319.03	10.81	-45.0	-48.5	15.1	0.00e+00	0	39	0	281018368	60	5774
2026-01-11 02:35:42.02	318.84	10.81	-45.0	-48.6	15.1	0.00e+00	0	39	0	283115520	60	5841
2026-01-11 02:35:43.02	318.66	10.80	-45.0	-48.8	14.9	0.00e+00	0	39	0	284164096	60	5926
2026-01-11 02:35:44.02	318.47	10.79	-45.1	-48.9	14.8	0.00e+00	0	39	0	286261248	60	6058
2026-01-11 02:35:45.03	318.29	10.78	-45.1	-48.9	14.7	7.00e-07	0	39	0	288358400	61	5716
2026-01-11 02:35:46.03	318.11	10.78	-45.2	-49.1	14.6	0.00e+00	0	39	0	290455552	61	5793
2026-01-11 02:35:47.03	317.92	10.77	-45.1	-48.9	14.8	7.00e-07	0	39	0	292552704	61	5674
2026-01-11 02:35:48.04	317.74	10.76	-45.1	-48.9	14.8	7.00e-07	0	39	0	293601280	61	5678
2026-01-11 02:35:49.04	317.56	10.75	-45.0	-48.6	15.1	0.00e+00	0	39	0	295698432	61	5492
2026-01-11 02:35:50.04	317.37	10.74	-44.9	-48.5	15.1	0.00e+00	0	39	0	297795584	61	5456
2026-01-11 02:35:51.05	317.19	10.73	-44.8	-48.4	15.3	0.00e+00	0	39	0	299892736	61	5349
2026-01-11 02:35:52.05	317.01	10.72	-44.8	-48.4	15.3	0.00e+00	0	39	0	301989888	61	5345
2026-01-11 02:35:53.05	316.82	10.71	-44.9	-48.4	15.2	0.00e+00	0	39	0	303038464	61	5369
2026-01-11 02:35:54.06	316.64	10.70	-45.0	-48.5	15.2	0.00e+00	0	39	0	305135616	61	5426
2026-01-11 02:35:55.06	316.46	10.69	-45.2	-48.8	14.9	0.00e+00	0	39	0	307232768	61	5611
2026-01-11 02:35:56.06	316.28	10.68	-45.3	-49.0	14.7	0.00e+00	0	39	0	309329920	61	5739
2026-01-11 02:35:57.06	316.09	10.67	-45.4	-49.0	14.7	0.00e+00	0	39	0	311427072	61	5764
2026-01-11 02:35:58.06	315.91	10.66	-45.5	-49.1	14.5	7.00e-07	0	39	0	312475648	61	5849
2026-01-11 02:35:59.07	315.73	10.64	-45.6	-49.2	14.5	7.00e-07	0	39	0	314572800	61	5902
2026-01-11 02:36:00.07	315.55	10.63	-45.6	-49.2	14.5	0.00e+00	0	39	0	316669952	61	5886
2026-01-11 02:36:01.07	315.37	10.62	-45.6	-49.2	14.5	0.00e+00	0	39	0	318767104	61	5908
2026-01-11 02:36:02.08	315.18	10.61	-45.5	-49.2	14.5	0.00e+00	0	39	0	320864256	61	5875
2026-01-11 02:36:03.08	315.00	10.59	-45.5	-49.2	14.5	0.00e+00	0	39	0	321912832	61	5923
2026-01-11 02:36:04.08	314.82	10.58	-45.7	-49.5	14.2	7.00e-07	0	39	0	324009984	62	5772
2026-01-11 02:36:05.09	314.64	10.57	-45.7	-49.5	14.3	7.00e-07	0	39	0	326107136	62	5771
2026-01-11 02:36:06.09	314.46	10.55	-45.7	-49.5	14.2	0.00e+00	0	39	0	328204288	62	5726
2026-01-11 02:36:07.09	314.28	10.54	-45.8	-49.6	14.1	1.50e-06	0	39	0	329252864	62	5819
2026-01-11 02:36:08.10	314.10	10.53	-45.6	-49.4	14.3	7.00e-07	0	39	0	331350016	62	5692
2026-01-11 02:36:09.10	313.92	10.51	-45.6	-49.3	14.4	2.20e-06	0	39	0	333447168	62	5616
2026-01-11 02:36:10.11	313.74	10.50	-45.6	-49.4	14.4	0.00e+00	0	39	0	335544320	62	5687
2026-01-11 02:36:11.11	313.56	10.48	-45.5	-49.3	14.5	7.00e-07	0	39	0	337641472	62	5634
2026-01-11 02:36:12.12	313.37	10.47	-45.4	-49.2	14.5	7.00e-07	0	39	0	338690048	62	5558
2026-01-11 02:36:13.12	313.20	10.45	-45.2	-49.0	14.7	0.00e+00	0	39	0	340787200	62	5446
2026-01-11 02:36:14.12	313.02	10.43	-45.1	-48.8	15.0	0.00e+00	0	39	0	342884352	62	5311
2026-01-11 02:36:15.13	312.84	10.42	-45.1	-48.7	15.1	0.00e+00	0	39	0	344981504	62	5235
2026-01-11 02:36:16.13	312.66	10.40	-45.0	-48.6	15.1	0.00e+00	0	39	0	347078656	62	5169
2026-01-11 02:36:17.13	312.48	10.39	-45.1	-48.7	15.0	0.00e+00	0	39	0	348127232	62	5225
2026-01-11 02:36:18.13	312.30	10.37	-45.2	-48.8	14.9	0.00e+00	0	39	0	350224384	62	5321
2026-01-11 02:36:19.14	312.12	10.35	-45.4	-49.0	14.7	0.00e+00	0	39	0	352321536	62	5450
2026-01-11 02:36:20.14	311.94	10.33	-45.4	-49.1	14.5	7.00e-07	0	39	0	354418688	62	5520
2026-01-11 02:36:21.15	311.76	10.32	-45.5	-49.1	14.6	0.00e+00	0	39	0	356515840	62	5525
2026-01-11 02:36:22.15	311.59	10.30	-45.5	-49.2	14.6	0.00e+00	0	39	0	357564416	62	5567
2026-01-11 02:36:23.15	311.41	10.28	-45.6	-49.2	14.5	7.00e-07	0	39	0	359661568	62	5558
2026-01-11 02:36:24.15	311.23	10.26	-45.6	-49.3	14.5	0.00e+00	0	39	0	361758720	62	5610
2026-01-11 02:36:25.16	311.05	10.24	-45.5	-49.1	14.6	0.00e+00	0	39	0	363855872	62	5512
2026-01-11 02:36:26.16	310.88	10.23	-45.4	-49.0	14.7	7.00e-07	0	39	0	365953024	62	5413
2026-01-11 02:36:27.16	310.70	10.21	-45.5	-49.1	14.6	7.00e-07	0	39	0	367001600	62	5480
2026-01-11 02:36:28.16	310.53	10.19	-45.4	-49.0	14.6	0.00e+00	0	39	0	369098752	62	5462
2026-01-11 02:36:29.17	310.35	10.17	-45.5	-49.2	14.5	7.00e-07	0	39	0	371195904	62	5569
2026-01-11 02:36:30.17	310.17	10.15	-45.5	-49.1	14.6	0.00e+00	0	39	0	373293056	62	5490
2026-01-11 02:36:31.17	310.00	10.13	-45.4	-49.0	14.7	7.00e-07	0	39	0	375390208	62	5412
2026-01-11 02:36:32.18	309.82	10.11	-45.4	-49.0	14.7	0.00e+00	0	39	0	376438784	62	5406
2026-01-11 02:36:33.18	309.65	10.09	-45.5	-49.1	14.6	0.00e+00	0	39	0	378535936	62	5487
2026-01-11 02:36:34.18	309.47	10.07	-45.5	-49.0	14.7	0.00e+00	0	39	0	380633088	62	5453
2026-01-11 02:36:35.18	309.30	10.04	-45.7	-49.4	14.3	0.00e+00	0	39	0	382730240	62	5689
2026-01-11 02:36:36.19	309.12	10.02	-45.9	-49.8	13.9	3.80e-06	0	39	0	384827392	62	5988
2026-01-11 02:36:37.19	308.95	10.00	-46.0	-49.9	13.9	4.50e-06	0	39	0	385875968	62	6025
2026-01-11 02:36:38.19	308.77	9.98	-46.2	-50.3	13.4	1.29e-05	0	39	0	387973120	62	6296
2026-01-11 02:36:39.20	308.60	9.96	-46.2	-50.4	13.3	1.60e-05	0	39	0	390070272	63	6026
2026-01-11 02:36:40.20	308.43	9.94	-46.0	-50.1	13.6	1.98e-05	0	39	0	392167424	63	5851
2026-01-11 02:36:41.20	308.25	9.91	-46.0	-50.2	13.5	5.30e-06	0	39	0	393216000	63	5875
2026-01-11 02:36:42.21	308.08	9.89	-46.0	-50.1	13.5	5.30e-06	0	39	0	395313152	63	5850
2026-01-11 02:36:43.21	307.91	9.87	-45.8	-49.7	14.0	5.30e-06	0	39	0	397410304	63	5590
2026-01-11 02:36:44.21	307.73	9.85	-45.6	-49.5	14.2	7.00e-07	0	39	0	399507456	63	5435
2026-01-11 02:36:45.22	307.56	9.82	-45.6	-49.5	14.2	2.20e-06	0	39	0	401604608	63	5426
2026-01-11 02:36:46.22	307.39	9.80	-45.5	-49.2	14.5	2.20e-06	0	39	0	402653184	62	5564
2026-01-11 02:36:47.22	307.22	9.77	-45.7	-49.4	14.3	0.00e+00	0	39	0	404750336	62	5694
2026-01-11 02:36:48.22	307.05	9.75	-45.7	-49.4	14.2	2.20e-06	0	39	0	406847488	62	5720
2026-01-11 02:36:49.22	306.88	9.73	-45.6	-49.4	14.3	7.00e-07	0	39	0	408944640	62	5658
2026-01-11 02:36:50.23	306.71	9.70	-45.6	-49.4	14.3	1.50e-06	0	39	0	411041792	62	5681
2026-01-11 02:36:51.23	306.54	9.68	-45.6	-49.6	14.1	0.00e+00	0	39	0	412090368	62	5813
2026-01-11 02:36:52.23	306.37	9.65	-45.7	-49.7	14.0	3.00e-06	0	39	0	414187520	62	5881
2026-01-11 02:36:53.24	306.19	9.63	-45.6	-49.4	14.3	1.50e-06	0	39	0	416284672	62	5689
2026-01-11 02:36:54.24	306.03	9.60	-45.7	-49.5	14.2	1.50e-06	0	39	0	418381824	62	5779
2026-01-11 02:36:55.24	305.86	9.58	-45.7	-49.6	14.1	2.20e-06	0	39	0	420478976	62	5818
2026-01-11 02:36:56.24	305.69	9.55	-45.8	-49.7	14.1	1.50e-06	0	39	0	421527552	62	5866
2026-01-11 02:36:57.25	305.52	9.52	-45.8	-49.7	14.0	7.00e-07	0	39	0	423624704	62	5871
2026-01-11 02:36:58.25	305.35	9.50	-45.7	-49.6	14.1	7.00e-07	0	39	0	425721856	62	5795
2026-01-11 02:36:59.26	305.18	9.47	-45.8	-49.6	14.1	2.20e-06	0	39	0	427819008	62	5822
2026-01-11 02:37:00.26	305.01	9.45	-45.7	-49.5	14.2	1.50e-06	0	39	0	429916160	62	5724
2026-01-11 02:37:01.26	304.85	9.42	-45.9	-49.8	13.9	2.20e-06	0	39	0	430964736	62	5935
2026-01-11 02:37:02.27	304.68	9.39	-45.7	-49.5	14.1	4.50e-06	0	39	0	433061888	62	5750
2026-01-11 02:37:03.27	304.51	9.36	-45.8	-49.7	14.0	1.50e-06	0	39	0	435159040	62	5863
2026-01-11 02:37:04.27	304.35	9.34	-45.7	-49.6	14.1	7.00e-07	0	39	0	437256192	62	5801
2026-01-11 02:37:05.28	304.18	9.31	-45.8	-49.6	14.0	1.50e-06	0	39	0	439353344	62	5828
2026-01-11 02:37:06.28	304.01	9.28	-45.7	-49.5	14.2	3.00e-06	0	39	0	440401920	62	5747
2026-01-11 02:37:07.28	303.85	9.25	-45.9	-49.7	13.9	7.00e-07	0	39	0	442499072	62	5920
2026-01-11 02:37:08.29	303.68	9.23	-45.9	-49.7	13.9	3.00e-06	0	39	0	444596224	62	5908
2026-01-11 02:37:09.29	303.52	9.20	-45.9	-49.8	13.8	3.80e-06	0	39	0	446693376	62	5961
2026-01-11 02:37:10.29	303.35	9.17	-45.8	-49.7	14.0	3.80e-06	0	39	0	447741952	62	5872
2026-01-11 02:37:11.29	303.19	9.14	-46.0	-49.9	13.7	3.00e-06	0	39	0	449839104	62	6009
2026-01-11 02:37:12.30	303.03	9.11	-45.9	-49.7	13.9	6.10e-06	0	39	0	451936256	62	5904
2026-01-11 02:37:13.30	302.86	9.08	-45.9	-49.8	13.9	3.00e-06	0	39	0	454033408	62	5929
2026-01-11 02:37:14.30	302.70	9.05	-45.8	-49.7	13.9	3.00e-06	0	39	0	456130560	62	5864
2026-01-11 02:37:15.31	302.54	9.02	-46.0	-50.0	13.7	4.50e-06	0	39	0	457179136	62	6064
2026-01-11 02:37:16.31	302.37	8.99	-46.0	-50.0	13.7	4.50e-06	0	39	0	459276288	62	6072
2026-01-11 02:37:17.32	302.21	8.96	-50.0	-64.7	3.8	6.28e-01	0	39	104	460324864	70	20791
2026-01-11 02:37:18.32	302.05	8.93	-50.2	-65.4	3.8	1.49e+00	0	39	104	460324864	71	21292
2026-01-11 02:37:19.32	301.89	8.90	-50.3	-65.4	3.8	1.49e+00	0	39	104	460324864	71	21488
2026-01-11 02:37:20.33	301.72	8.87	-50.4	-65.6	3.8	1.49e+00	0	39	104	460324864	71	21829
2026-01-11 02:37:21.34	301.56	8.84	-50.2	-65.7	3.8	1.49e+00	0	39	104	460324864	71	22063
2026-01-11 02:37:22.34	301.40	8.81	-50.4	-65.7	3.8	1.49e+00	0	39	104	460324864	71	22136
2026-01-11 02:37:23.34	301.24	8.78	-50.6	-65.8	3.8	1.49e+00	0	39	104	460324864	71	22345
2026-01-11 02:37:24.35	301.08	8.75	-50.6	-65.8	3.8	1.49e+00	0	39	104	460324864	72	21108
2026-01-11 02:37:25.35	300.92	8.72	-50.5	-65.8	3.8	1.49e+00	0	39	104	460324864	72	21106
2026-01-11 02:37:26.35	300.76	8.69	-50.4	-65.8	3.8	1.49e+00	0	39	104	460324864	72	21172
2026-01-11 02:37:27.36	300.60	8.65	-50.6	-65.8	3.8	1.49e+00	0	39	104	460324864	72	21080
2026-01-11 02:37:28.36	300.45	8.62	-50.4	-65.8	3.8	1.49e+00	0	39	104	460324864	72	21152
2026-01-11 02:37:29.37	300.29	8.59	-50.6	-65.8	3.8	1.49e+00	0	39	104	460324864	72	21142
2026-01-11 02:37:30.37	300.13	8.56	-50.5	-65.8	3.8	1.49e+00	0	39	104	460324864	72	21174
2026-01-11 02:37:31.38	299.97	8.53	-50.5	-65.8	3.8	1.49e+00	0	39	104	460324864	72	21103
2026-01-11 02:37:32.38	299.81	8.49	-50.5	-65.8	3.8	1.49e+00	0	39	104	460324864	72	21196
2026-01-11 02:37:33.39	299.66	8.46	-50.5	-65.8	3.8	1.49e+00	0	39	104	460324864	72	21153
2026-01-11 02:37:34.39	299.50	8.43	-50.5	-65.8	3.8	1.49e+00	0	39	104	460324864	72	21145
2026-01-11 02:37:35.40	299.34	8.40	-50.5	-65.8	3.8	1.49e+00	0	39	104	460324864	72	21105
2026-01-11 02:37:36.40	299.19	8.36	-50.5	-65.8	3.8	1.49e+00	0	39	104	460324864	72	21024
2026-01-11 02:37:37.41	299.03	8.33	-50.5	-65.7	3.8	1.49e+00	0	39	104	460324864	72	20943
2026-01-11 02:37:38.41	298.88	8.30	-50.4	-65.7	3.8	1.49e+00	0	39	104	460324864	72	20934
2026-01-11 02:37:39.41	298.72	8.26	-50.4	-65.7	3.8	1.49e+00	0	39	104	460324864	72	20932
2026-01-11 02:37:40.42	298.57	8.23	-50.4	-65.7	3.8	1.49e+00	0	39	104	460324864	72	20934
2026-01-11 02:37:41.42	298.41	8.19	-50.4	-65.7	3.8	1.49e+00	0	39	104	460324864	72	20836
2026-01-11 02:37:42.43	298.26	8.16	-50.4	-65.7	3.8	1.49e+00	0	39	104	460324864	72	20951
2026-01-11 02:37:43.43	298.11	8.13	-50.4	-65.7	3.8	1.49e+00	0	39	104	460324864	72	20916
2026-01-11 02:37:44.43	297.95	8.09	-50.4	-65.7	3.8	1.49e+00	0	39	104	460324864	72	20878
2026-01-11 02:37:45.44	297.80	8.06	-50.4	-65.7	3.8	1.49e+00	0	39	104	460324864	72	20880
2026-01-11 02:37:46.44	297.65	8.02	-50.4	-65.7	3.8	1.49e+00	0	39	104	460324864	72	20926
2026-01-11 02:37:47.45	297.50	7.99	-50.4	-65.7	3.8	1.49e+00	0	39	104	460324864	72	20918
2026-01-11 02:37:48.45	297.35	7.95	-50.4	-65.7	3.8	1.49e+00	0	39	104	460324864	72	20830
2026-01-11 02:37:49.46	297.19	7.92	-50.4	-65.7	3.8	1.49e+00	0	39	104	460324864	72	20860
2026-01-11 02:37:50.46	297.04	7.88	-50.4	-65.7	3.8	1.49e+00	0	39	104	460324864	72	20883
2026-01-11 02:37:51.47	296.89	7.85	-50.4	-65.7	3.8	1.49e+00	0	39	104	460324864	72	20889
2026-01-11 02:37:52.47	296.74	7.81	-50.4	-65.7	3.8	1.49e+00	0	39	104	460324864	72	20916
2026-01-11 02:37:53.48	296.59	7.78	-50.4	-65.7	3.8	1.49e+00	0	39	104	460324864	72	20878
2026-01-11 02:37:54.48	296.44	7.74	-50.4	-65.7	3.8	1.49e+00	0	39	104	460324864	72	20826
2026-01-11 02:37:55.48	296.30	7.71	-50.4	-65.7	3.8	1.49e+00	0	39	104	460324864	72	20886
2026-01-11 02:37:56.49	296.15	7.67	-50.4	-65.7	3.8	1.49e+00	0	39	104	460324864	72	20900
2026-01-11 02:37:57.49	296.00	7.63	-50.4	-65.7	3.8	1.49e+00	0	39	104	460324864	72	20841
2026-01-11 02:37:58.50	295.85	7.60	-50.4	-65.7	3.8	1.49e+00	0	39	104	460324864	72	20946
2026-01-11 02:37:59.50	295.70	7.56	-50.4	-65.7	3.8	1.49e+00	0	39	104	460324864	72	20858
2026-01-11 02:38:00.51	295.56	7.52	-50.4	-65.7	3.8	1.49e+00	0	39	104	460324864	72	20888
2026-01-11 02:38:01.51	295.41	7.49	-50.4	-65.7	3.8	1.49e+00	0	39	104	460324864	72	20833
2026-01-11 02:38:02.51	295.26	7.45	-50.4	-65.7	3.8	1.49e+00	0	39	104	460324864	72	20859
2026-01-11 02:38:03.52	295.12	7.41	-50.4	-65.7	3.8	1.49e+00	0	39	104	460324864	72	20908
2026-01-11 02:38:04.52	294.97	7.38	-50.4	-65.7	3.8	1.49e+00	0	39	104	460324864	72	20854
2026-01-11 02:38:05.53	294.83	7.34	-50.4	-65.6	3.8	1.49e+00	0	39	104	460324864	72	20770
2026-01-11 02:38:06.53	294.68	7.30	-50.4	-65.7	3.8	1.49e+00	0	39	104	460324864	72	20827
2026-01-11 02:38:07.54	294.54	7.26	-50.4	-65.7	3.8	1.49e+00	0	39	104	460324864	72	20843
2026-01-11 02:38:08.54	294.39	7.23	-50.4	-65.7	3.8	1.49e+00	0	39	104	460324864	72	20877
2026-01-11 02:38:09.55	294.25	7.19	-50.4	-65.7	3.8	1.49e+00	0	40	104	460324864	72	20857
2026-01-11 02:38:10.55	294.11	7.15	-50.4	-65.6	3.8	1.49e+00	0	39	104	460324864	72	20774
2026-01-11 02:38:11.55	293.96	7.11	-50.4	-65.7	3.8	1.49e+00	0	39	104	460324864	72	20829
2026-01-11 02:38:12.55	293.82	7.08	-50.4	-65.6	3.8	1.49e+00	0	39	104	460324864	72	20770
2026-01-11 02:38:13.56	293.68	7.04	-50.4	-65.6	3.8	1.49e+00	0	39	104	460324864	72	20752
2026-01-11 02:38:14.56	293.54	7.00	-50.4	-65.7	3.8	1.49e+00	0	39	104	460324864	72	20778
2026-01-11 02:38:15.57	293.40	6.96	-50.4	-65.7	3.8	1.49e+00	0	39	104	460324864	72	20815
2026-01-11 02:38:16.57	293.25	6.92	-50.4	-65.7	3.8	1.49e+00	0	39	104	460324864	72	20875
2026-01-11 02:38:17.57	293.11	6.89	-50.4	-65.7	3.8	1.49e+00	0	39	104	460324864	72	20817
2026-01-11 02:38:18.58	292.97	6.85	-50.4	-65.7	3.8	1.49e+00	0	40	104	460324864	72	20873
2026-01-11 02:38:19.58	292.83	6.81	-50.4	-65.7	3.8	1.49e+00	0	39	104	460324864	72	20780
2026-01-11 02:38:20.59	292.69	6.77	-50.4	-65.7	3.8	1.49e+00	0	39	104	460324864	72	20846
2026-01-11 02:38:21.59	292.56	6.73	-50.4	-65.7	3.8	1.49e+00	0	39	104	460324864	72	20785
2026-01-11 02:38:22.59	292.42	6.69	-50.4	-65.7	3.8	1.49e+00	0	39	104	460324864	72	20861
2026-01-11 02:38:23.60	292.28	6.65	-50.4	-65.7	3.8	1.49e+00	0	39	104	460324864	72	20820
2026-01-11 02:38:24.60	292.14	6.61	-50.4	-65.7	3.8	1.49e+00	0	39	104	460324864	72	20792
2026-01-11 02:38:25.61	292.00	6.57	-50.4	-65.7	3.8	1.49e+00	0	39	104	460324864	72	20833
2026-01-11 02:38:26.61	291.87	6.54	-50.4	-65.7	3.8	1.49e+00	0	39	104	460324864	72	20922
2026-01-11 02:38:27.62	291.73	6.50	-50.4	-65.6	3.8	1.49e+00	0	39	104	460324864	72	20769
2026-01-11 02:38:28.62	291.59	6.46	-50.4	-65.7	3.8	1.49e+00	0	39	104	460324864	72	20888
2026-01-11 02:38:29.63	291.45	6.42	-50.4	-65.7	3.8	1.49e+00	0	39	104	460324864	72	20796
2026-01-11 02:38:30.63	291.32	6.38	-50.4	-65.7	3.8	1.49e+00	0	39	104	460324864	72	20811
2026-01-11 02:38:31.63	291.18	6.34	-50.4	-65.7	3.8	1.49e+00	0	39	104	460324864	72	20853
2026-01-11 02:38:32.64	291.05	6.30	-50.4	-65.7	3.8	1.49e+00	0	39	104	460324864	72	20793
2026-01-11 02:38:33.64	290.91	6.26	-50.4	-65.7	3.8	1.49e+00	0	39	104	460324864	72	20881
2026-01-11 02:38:34.65	290.78	6.22	-50.4	-65.6	3.8	1.49e+00	0	39	104	460324864	72	20737
2026-01-11 02:38:35.65	290.65	6.18	-50.4	-65.7	3.8	1.49e+00	0	39	104	460324864	72	20845
2026-01-11 02:38:36.66	290.51	6.14	-50.3	-65.6	3.8	1.49e+00	0	39	104	460324864	72	20776
2026-01-11 02:38:37.66	290.38	6.10	-50.4	-65.7	3.8	1.49e+00	0	40	104	460324864	72	20794
2026-01-11 02:38:38.67	290.25	6.06	-50.3	-65.6	3.8	1.49e+00	0	39	104	460324864	72	20750
2026-01-11 02:38:39.67	290.11	6.02	-50.4	-65.7	3.8	1.49e+00	0	39	104	460324864	72	20819
2026-01-11 02:38:40.68	289.98	5.98	-50.4	-65.7	3.8	1.49e+00	0	39	104	460324864	72	20807
2026-01-11 02:38:41.68	289.85	5.93	-50.4	-65.7	3.8	1.49e+00	0	39	104	460324864	72	20820
2026-01-11 02:38:42.68	289.72	5.89	-50.4	-65.7	3.8	1.49e+00	0	39	104	460324864	72	20829
2026-01-11 02:38:43.69	289.59	5.85	-50.4	-65.7	3.8	1.49e+00	0	39	104	460324864	72	20779
2026-01-11 02:38:44.69	289.46	5.81	-50.4	-65.6	3.8	1.49e+00	0	39	104	460324864	72	20772
2026-01-11 02:38:45.70	289.33	5.77	-50.3	-65.7	3.8	1.49e+00	0	39	104	460324864	72	20782
2026-01-11 02:38:46.70	289.20	5.73	-50.4	-65.6	3.8	1.49e+00	0	39	104	460324864	72	20723
2026-01-11 02:38:47.71	289.07	5.69	-50.4	-65.7	3.8	1.49e+00	0	39	104	460324864	72	20807
2026-01-11 02:38:48.71	288.94	5.65	-50.4	-65.7	3.8	1.49e+00	0	39	104	460324864	72	20797
2026-01-11 02:38:49.71	288.81	5.61	-50.4	-65.6	3.8	1.49e+00	0	39	104	460324864	72	20773
2026-01-11 02:38:50.72	288.68	5.57	-50.4	-65.6	3.8	1.49e+00	0	39	104	460324864	72	20764
2026-01-11 02:38:51.72	288.55	5.52	-50.4	-65.6	3.8	1.49e+00	0	39	104	460324864	72	20766
2026-01-11 02:38:52.73	288.43	5.48	-50.4	-65.7	3.8	1.49e+00	0	39	104	460324864	72	20813
2026-01-11 02:38:53.73	288.30	5.44	-50.4	-65.7	3.8	1.49e+00	0	39	104	460324864	72	20843
2026-01-11 02:38:54.74	288.17	5.40	-50.4	-65.7	3.8	1.49e+00	0	39	104	460324864	72	20784
2026-01-11 02:38:55.74	288.05	5.36	-50.4	-65.7	3.8	1.49e+00	0	39	104	460324864	72	20812
2026-01-11 02:38:56.75	287.92	5.32	-50.4	-65.6	3.8	1.49e+00	0	39	104	460324864	72	20760
2026-01-11 02:38:57.75	287.79	5.28	-50.3	-65.7	3.8	1.49e+00	0	39	104	460324864	72	20808
2026-01-11 02:38:58.75	287.67	5.23	-50.3	-65.7	3.8	1.49e+00	0	39	104	460324864	72	20849
2026-01-11 02:38:59.76	287.54	5.19	-50.4	-65.6	3.8	1.49e+00	0	39	104	460324864	72	20706
2026-01-11 02:39:00.74	287.42	5.15	-50.4	-65.7	3.8	1.49e+00	0	39	104	460324864	72	20823
2026-01-11 02:39:01.74	287.30	5.11	-50.4	-65.7	3.8	1.49e+00	0	39	104	460324864	72	20801
2026-01-11 02:39:02.75	287.17	5.07	-50.3	-65.7	3.8	1.49e+00	0	39	104	460324864	72	20807
2026-01-11 02:39:03.75	287.05	5.03	-50.4	-65.6	3.8	1.49e+00	0	39	104	460324864	72	20749
2026-01-11 02:39:04.75	286.93	4.98	-50.4	-65.6	3.8	1.49e+00	0	40	104	460324864	72	20741

#Closed at: 2026-01-11 02:39:05
#Recorded file [460 MB]: D:/Data/31040_260111_053129.dat