passes_logs/2026/01/11/T1/T1__20260111_015001_FENGYUN_3D_rec.log

#Pass ID: 20260111_015001_FENGYUN 3D
#Satellite: FENGYUN 3D
#Configuration: FENGYUN 3D
#almurnet v.1.7.20251203
#Start time: 2026-01-11 01:50:02

#Version: 2.0.20230620
#Station: T1
#Location: 37.570604 lon 55.790049 lat
#TLE: 1 43010U 17072A   26009.92921666 -.00000228  00000+0 -86059-4 0  9998
#TLE: 2 43010  98.9936 341.6668 0002176 116.7510 243.3888 14.19693142422537

#Time	Az	El	Level	Level2	SNR	BER	BlckErr	Temp	State	Recorded	gain1	gain2
2026-01-11 01:50:02.66	16.32	5.09	-48.1	-61.3	3.8	8.47e-01	0	38	0	0	68	15851
2026-01-11 01:50:03.66	16.32	5.17	-47.9	-61.4	3.8	8.46e-01	0	38	104	0	66	18073
2026-01-11 01:50:04.66	16.32	5.24	-47.9	-61.4	3.8	8.48e-01	0	38	104	0	66	18022
2026-01-11 01:50:05.67	16.32	5.31	-47.9	-61.3	3.8	8.46e-01	0	38	104	0	66	17701
2026-01-11 01:50:06.67	16.32	5.38	-48.0	-61.2	3.8	8.46e-01	0	38	104	0	66	17565
2026-01-11 01:50:07.67	16.32	5.45	-47.9	-61.0	3.8	8.46e-01	0	38	104	0	66	17151
2026-01-11 01:50:08.68	16.32	5.53	-47.9	-60.8	3.8	8.45e-01	0	38	104	0	66	16768
2026-01-11 01:50:09.68	16.32	5.60	-47.9	-60.6	3.8	8.46e-01	0	38	104	0	66	16332
2026-01-11 01:50:10.69	16.32	5.67	-47.9	-60.3	3.8	8.47e-01	0	39	104	0	66	15938
2026-01-11 01:50:11.69	16.32	5.75	-47.9	-60.3	3.8	8.45e-01	0	39	104	0	66	15940
2026-01-11 01:50:12.69	16.32	5.82	-47.9	-60.3	3.8	8.47e-01	0	39	104	0	66	15928
2026-01-11 01:50:13.70	16.32	5.89	-47.9	-60.4	3.8	8.45e-01	0	39	104	0	66	15964
2026-01-11 01:50:14.71	16.32	5.97	-47.9	-60.5	3.8	8.46e-01	0	39	104	0	66	16190
2026-01-11 01:50:15.71	16.32	6.04	-47.9	-60.7	3.8	8.47e-01	0	39	104	0	66	16504
2026-01-11 01:50:16.71	16.32	6.12	-47.9	-60.8	3.8	8.46e-01	0	39	104	0	66	16724
2026-01-11 01:50:17.72	16.32	6.19	-47.9	-60.9	3.8	8.47e-01	0	39	104	0	66	16957
2026-01-11 01:50:18.72	16.32	6.27	-47.9	-61.0	3.8	8.48e-01	0	39	104	0	66	17150
2026-01-11 01:50:19.73	16.32	6.34	-47.9	-61.1	3.8	8.47e-01	0	39	104	0	66	17370
2026-01-11 01:50:20.73	16.32	6.42	-47.9	-61.1	3.8	8.47e-01	0	39	104	0	66	17400
2026-01-11 01:50:21.73	16.32	6.49	-47.9	-61.1	3.8	8.47e-01	0	39	104	0	66	17371
2026-01-11 01:50:22.74	16.32	6.57	-47.9	-61.2	3.8	8.47e-01	0	39	104	0	66	17583
2026-01-11 01:50:23.75	16.32	6.64	-47.9	-61.3	3.8	8.48e-01	0	39	104	0	66	17719
2026-01-11 01:50:24.75	16.32	6.72	-48.0	-61.5	3.8	8.47e-01	0	39	104	0	66	18287
2026-01-11 01:50:25.75	16.31	6.80	-48.0	-61.7	3.8	8.48e-01	0	39	104	0	66	18677
2026-01-11 01:50:26.76	16.31	6.87	-48.0	-61.9	3.8	8.47e-01	0	39	104	0	66	19165
2026-01-11 01:50:27.76	16.31	6.95	-48.0	-61.9	3.8	8.47e-01	0	39	104	0	66	19120
2026-01-11 01:50:28.77	16.31	7.03	-48.0	-61.6	3.8	8.47e-01	0	39	104	0	66	18462
2026-01-11 01:50:29.77	16.31	7.10	-47.9	-60.8	3.8	8.47e-01	0	39	104	0	66	16717
2026-01-11 01:50:30.78	16.31	7.18	-47.8	-59.6	4.0	8.46e-01	0	39	104	0	66	14602
2026-01-11 01:50:31.78	16.31	7.26	-47.6	-58.1	4.3	8.39e-01	0	39	0	0	66	12284
2026-01-11 01:50:32.79	16.31	7.34	-47.5	-56.9	4.8	8.14e-01	0	39	0	0	66	10674
2026-01-11 01:50:33.79	16.31	7.42	-47.2	-55.7	5.4	7.38e-01	0	39	0	0	66	9301
2026-01-11 01:50:34.79	16.31	7.49	-47.0	-54.6	6.2	3.76e-01	0	39	0	4194304	66	8190
2026-01-11 01:50:35.80	16.31	7.57	-46.7	-53.5	7.2	1.75e-01	0	39	0	9437184	65	7648
2026-01-11 01:50:36.80	16.31	7.65	-46.5	-52.9	7.7	1.18e-01	0	39	0	14680064	65	7130
2026-01-11 01:50:37.81	16.31	7.73	-46.3	-52.1	8.5	6.68e-02	0	40	0	20971520	64	6948
2026-01-11 01:50:38.81	16.31	7.81	-46.0	-51.5	9.1	3.29e-02	0	40	0	26214400	64	6445
2026-01-11 01:50:39.81	16.31	7.89	-46.1	-51.4	9.3	2.33e-02	0	39	0	32505856	63	6745
2026-01-11 01:50:40.82	16.31	7.97	-45.8	-50.8	9.9	1.32e-02	0	40	0	37748736	63	6309
2026-01-11 01:50:41.82	16.31	8.05	-45.7	-50.6	10.1	7.19e-03	0	40	0	42991616	63	6160
2026-01-11 01:50:42.83	16.31	8.13	-45.5	-50.2	10.6	5.01e-03	0	40	0	49283072	63	5869
2026-01-11 01:50:43.83	16.30	8.21	-45.4	-50.0	10.8	3.76e-03	0	40	0	54525952	62	6076
2026-01-11 01:50:44.84	16.30	8.29	-45.4	-49.9	10.9	2.74e-03	0	40	0	59768832	62	5996
2026-01-11 01:50:45.84	16.30	8.38	-45.3	-49.7	11.1	2.60e-03	0	40	0	66060288	62	5882
2026-01-11 01:50:46.84	16.30	8.46	-45.2	-49.6	11.2	1.82e-03	0	40	0	71303168	62	5848
2026-01-11 01:50:47.85	16.30	8.54	-45.2	-49.6	11.2	1.77e-03	0	40	0	77594624	62	5813
2026-01-11 01:50:48.85	16.30	8.62	-45.4	-49.9	10.8	2.19e-03	0	40	0	82837504	62	6057
2026-01-11 01:50:49.86	16.30	8.70	-45.4	-50.0	10.8	2.94e-03	0	40	0	88080384	62	6071
2026-01-11 01:50:50.86	16.30	8.79	-45.6	-50.4	10.4	4.83e-03	0	40	0	94371840	62	6385
2026-01-11 01:50:51.86	16.30	8.87	-45.9	-51.0	9.8	1.08e-02	0	40	0	99614720	62	6822
2026-01-11 01:50:52.87	16.30	8.95	-46.2	-51.7	9.1	2.03e-02	0	40	0	105906176	62	7405
2026-01-11 01:50:53.87	16.30	9.04	-46.5	-52.7	8.0	6.16e-02	0	40	0	111149056	63	7811
2026-01-11 01:50:54.88	16.29	9.12	-46.6	-53.0	7.7	1.06e-01	0	40	0	116391936	64	7643
2026-01-11 01:50:55.88	16.29	9.20	-45.4	-49.6	11.2	2.89e-03	0	40	0	122683392	62	5828
2026-01-11 01:50:56.88	16.29	9.29	-47.8	-58.9	4.1	3.94e-01	0	40	0	126877696	66	13446
2026-01-11 01:50:57.89	16.29	9.37	-48.1	-57.1	4.7	8.43e-01	0	40	0	126877696	66	10976
2026-01-11 01:50:58.89	16.29	9.46	-42.6	-45.3	15.5	8.28e-04	0	40	0	130023424	57	4745
2026-01-11 01:50:59.89	16.29	9.54	-42.4	-45.0	15.9	0.00e+00	0	40	0	135266304	56	4864
2026-01-11 01:51:00.89	16.29	9.63	-41.6	-44.1	16.6	0.00e+00	0	40	0	141557760	55	4646
2026-01-11 01:51:01.89	16.29	9.71	-41.2	-43.7	17.1	0.00e+00	0	40	0	146800640	54	4666
2026-01-11 01:51:02.90	16.28	9.80	-41.2	-43.6	17.1	0.00e+00	0	40	0	152043520	54	4643
2026-01-11 01:51:03.90	16.28	9.89	-41.2	-43.6	17.1	0.00e+00	0	40	0	158334976	54	4623
2026-01-11 01:51:04.90	16.28	9.97	-41.0	-43.4	17.3	0.00e+00	0	40	0	163577856	54	4508
2026-01-11 01:51:05.91	16.28	10.06	-40.8	-43.2	17.5	0.00e+00	0	40	0	168820736	53	4654
2026-01-11 01:51:06.91	16.28	10.15	-40.9	-43.3	17.3	0.00e+00	0	40	0	175112192	53	4757
2026-01-11 01:51:07.91	16.28	10.23	-41.0	-43.4	17.3	0.00e+00	0	40	0	180355072	53	4800
2026-01-11 01:51:08.92	16.27	10.32	-41.0	-43.4	17.3	0.00e+00	0	40	0	186646528	53	4782
2026-01-11 01:51:09.92	16.27	10.41	-40.8	-43.1	17.5	0.00e+00	0	40	0	191889408	53	4631
2026-01-11 01:51:10.92	16.27	10.50	-40.8	-43.1	17.6	0.00e+00	0	40	0	197132288	53	4615
2026-01-11 01:51:11.93	16.27	10.59	-40.9	-43.2	17.5	0.00e+00	0	40	0	203423744	53	4671
2026-01-11 01:51:12.93	16.27	10.68	-40.8	-43.1	17.6	0.00e+00	0	40	0	208666624	53	4645
2026-01-11 01:51:13.93	16.27	10.77	-40.8	-43.1	17.7	0.00e+00	0	40	0	214958080	53	4599
2026-01-11 01:51:14.94	16.26	10.86	-40.7	-43.0	17.7	0.00e+00	0	40	0	220200960	53	4567
2026-01-11 01:51:15.94	16.26	10.95	-40.8	-43.1	17.6	0.00e+00	0	40	0	225443840	53	4623
2026-01-11 01:51:16.94	16.26	11.04	-40.7	-43.0	17.7	0.00e+00	0	40	0	231735296	53	4571
2026-01-11 01:51:17.95	16.26	11.13	-40.8	-43.1	17.6	0.00e+00	0	40	0	236978176	53	4626
2026-01-11 01:51:18.95	16.26	11.22	-40.8	-43.1	17.7	0.00e+00	0	40	0	242221056	53	4602
2026-01-11 01:51:19.95	16.26	11.31	-40.7	-43.0	17.7	0.00e+00	0	40	0	248512512	53	4583
2026-01-11 01:51:20.96	16.25	11.40	-40.8	-43.2	17.6	0.00e+00	0	40	0	253755392	53	4664
2026-01-11 01:51:21.96	16.25	11.49	-40.7	-43.0	17.7	0.00e+00	0	40	0	260046848	53	4579
2026-01-11 01:51:22.96	16.25	11.59	-40.8	-43.0	17.7	0.00e+00	0	40	0	265289728	53	4597
2026-01-11 01:51:23.97	16.25	11.68	-40.7	-42.9	17.8	0.00e+00	0	40	0	270532608	53	4531
2026-01-11 01:51:24.97	16.24	11.77	-40.8	-43.1	17.7	0.00e+00	0	40	0	276824064	53	4622
2026-01-11 01:51:25.97	16.24	11.87	-40.7	-43.0	17.8	0.00e+00	0	40	0	282066944	53	4571
2026-01-11 01:51:26.98	16.24	11.96	-40.7	-42.9	17.8	0.00e+00	0	40	0	288358400	53	4545
2026-01-11 01:51:27.98	16.24	12.05	-40.7	-43.0	17.8	0.00e+00	0	40	0	293601280	53	4556
2026-01-11 01:51:28.98	16.24	12.15	-40.7	-42.9	17.8	0.00e+00	0	40	0	298844160	53	4544
2026-01-11 01:51:29.99	16.23	12.24	-40.7	-43.0	17.8	0.00e+00	0	40	0	305135616	53	4555
2026-01-11 01:51:30.99	16.23	12.34	-40.6	-42.9	17.9	0.00e+00	0	40	0	310378496	53	4505
2026-01-11 01:51:31.99	16.23	12.43	-40.7	-42.9	17.9	0.00e+00	0	40	0	315621376	53	4536
2026-01-11 01:51:33.00	16.23	12.53	-40.8	-43.0	17.8	0.00e+00	0	40	0	321912832	53	4566
2026-01-11 01:51:34.00	16.22	12.63	-40.8	-43.0	17.7	0.00e+00	0	40	0	327155712	53	4591
2026-01-11 01:51:35.00	16.22	12.72	-40.7	-42.9	17.9	0.00e+00	0	40	0	333447168	53	4494
2026-01-11 01:51:36.00	16.22	12.82	-40.6	-42.8	18.0	0.00e+00	0	40	0	338690048	53	4468
2026-01-11 01:51:37.00	16.22	12.92	-40.6	-42.8	18.0	0.00e+00	0	40	0	343932928	53	4476
2026-01-11 01:51:38.01	16.21	13.02	-40.4	-42.6	18.2	0.00e+00	0	40	0	350224384	52	4633
2026-01-11 01:51:39.01	16.21	13.12	-40.4	-42.5	18.3	0.00e+00	0	40	0	355467264	52	4586
2026-01-11 01:51:40.01	16.21	13.21	-40.4	-42.5	18.2	0.00e+00	0	40	0	361758720	52	4595
2026-01-11 01:51:41.02	16.20	13.31	-40.3	-42.4	18.3	0.00e+00	0	40	0	367001600	52	4538
2026-01-11 01:51:42.02	16.20	13.41	-40.3	-42.4	18.4	0.00e+00	0	40	0	372244480	52	4528
2026-01-11 01:51:43.02	16.20	13.51	-40.3	-42.4	18.4	0.00e+00	0	40	0	378535936	52	4527
2026-01-11 01:51:44.02	16.20	13.61	-40.3	-42.4	18.4	0.00e+00	0	40	0	383778816	52	4495
2026-01-11 01:51:45.03	16.19	13.71	-40.2	-42.2	18.6	0.00e+00	0	40	0	389021696	52	4426
2026-01-11 01:51:46.03	16.19	13.82	-40.0	-42.1	18.7	0.00e+00	0	40	0	395313152	52	4348
2026-01-11 01:51:47.03	16.19	13.92	-40.1	-42.1	18.6	0.00e+00	0	40	0	400556032	52	4388
2026-01-11 01:51:48.04	16.18	14.02	-40.1	-42.2	18.6	0.00e+00	0	40	0	406847488	52	4413
2026-01-11 01:51:49.04	16.18	14.12	-40.0	-42.0	18.9	0.00e+00	0	40	0	412090368	51	4582
2026-01-11 01:51:50.04	16.18	14.23	-40.0	-42.0	18.9	0.00e+00	0	40	0	417333248	51	4581
2026-01-11 01:51:51.05	16.17	14.33	-40.0	-42.0	18.9	0.00e+00	0	40	0	423624704	51	4568
2026-01-11 01:51:52.05	16.17	14.43	-40.1	-42.2	18.7	0.00e+00	0	40	0	428867584	51	4654
2026-01-11 01:51:53.05	16.17	14.54	-40.0	-42.0	18.9	0.00e+00	0	40	0	434110464	51	4575
2026-01-11 01:51:54.06	16.16	14.64	-40.0	-42.1	18.8	0.00e+00	0	40	0	440401920	51	4606
2026-01-11 01:51:55.06	16.16	14.75	-39.8	-41.8	19.1	0.00e+00	0	40	0	445644800	51	4471
2026-01-11 01:51:56.06	16.16	14.85	-39.8	-41.7	19.1	0.00e+00	0	40	0	451936256	51	4429
2026-01-11 01:51:57.07	16.15	14.96	-39.7	-41.6	19.2	0.00e+00	0	40	0	457179136	51	4389
2026-01-11 01:51:58.06	16.15	15.07	-39.8	-41.7	19.2	0.00e+00	0	40	0	462422016	51	4429
2026-01-11 01:51:59.07	16.14	15.17	-39.6	-41.5	19.3	0.00e+00	0	41	0	468713472	51	4329
2026-01-11 01:52:00.07	16.14	15.28	-39.6	-41.5	19.3	0.00e+00	0	41	0	473956352	51	4336
2026-01-11 01:52:01.07	16.14	15.39	-39.5	-41.4	19.4	0.00e+00	0	40	0	480247808	51	4289
2026-01-11 01:52:02.08	16.13	15.50	-39.5	-41.5	19.4	0.00e+00	0	40	0	485490688	51	4296
2026-01-11 01:52:03.08	16.13	15.61	-39.5	-41.4	19.4	0.00e+00	0	40	0	490733568	51	4277
2026-01-11 01:52:04.08	16.12	15.72	-39.5	-41.4	19.4	0.00e+00	0	40	0	497025024	51	4286
2026-01-11 01:52:05.09	16.12	15.83	-39.4	-41.3	19.5	0.00e+00	0	40	0	502267904	50	4482
2026-01-11 01:52:06.09	16.12	15.94	-39.6	-41.5	19.4	0.00e+00	0	40	0	507510784	50	4563
2026-01-11 01:52:07.09	16.11	16.05	-39.5	-41.4	19.5	0.00e+00	0	40	0	513802240	50	4499
2026-01-11 01:52:08.09	16.11	16.16	-39.6	-41.5	19.4	0.00e+00	0	40	0	519045120	50	4557
2026-01-11 01:52:09.10	16.10	16.27	-39.5	-41.4	19.5	0.00e+00	0	40	0	524288000	50	4518
2026-01-11 01:52:10.10	16.10	16.38	-39.4	-41.3	19.6	0.00e+00	0	40	0	530579456	50	4466
2026-01-11 01:52:11.10	16.09	16.50	-39.5	-41.3	19.6	0.00e+00	0	40	0	535822336	50	4484
2026-01-11 01:52:12.11	16.09	16.61	-39.5	-41.3	19.6	0.00e+00	0	40	0	542113792	50	4478
2026-01-11 01:52:13.11	16.08	16.73	-39.5	-41.4	19.5	0.00e+00	0	40	0	547356672	50	4515
2026-01-11 01:52:14.11	16.08	16.84	-39.5	-41.3	19.6	0.00e+00	0	40	0	553648128	50	4486
2026-01-11 01:52:15.12	16.07	16.96	-39.4	-41.3	19.6	0.00e+00	0	40	0	558891008	50	4442
2026-01-11 01:52:16.12	16.07	17.07	-39.5	-41.4	19.5	0.00e+00	0	40	0	564133888	50	4498
2026-01-11 01:52:17.13	16.07	17.19	-39.5	-41.4	19.5	0.00e+00	0	40	0	570425344	50	4503
2026-01-11 01:52:18.13	16.06	17.31	-39.4	-41.3	19.6	0.00e+00	0	40	0	575668224	50	4464
2026-01-11 01:52:19.13	16.06	17.42	-39.4	-41.3	19.6	0.00e+00	0	40	0	580911104	50	4451
2026-01-11 01:52:20.14	16.05	17.54	-39.5	-41.3	19.6	0.00e+00	0	41	0	587202560	50	4493
2026-01-11 01:52:21.14	16.04	17.66	-39.4	-41.3	19.6	0.00e+00	0	40	0	592445440	50	4443
2026-01-11 01:52:22.14	16.04	17.78	-39.4	-41.3	19.6	0.00e+00	0	40	0	597688320	50	4449
2026-01-11 01:52:23.15	16.03	17.90	-39.3	-41.1	19.7	0.00e+00	0	40	0	603979776	50	4389
2026-01-11 01:52:24.15	16.03	18.02	-39.2	-41.1	19.8	0.00e+00	0	40	0	609222656	50	4355
2026-01-11 01:52:25.15	16.02	18.14	-39.2	-41.0	19.9	0.00e+00	0	41	0	615514112	50	4306
2026-01-11 01:52:26.16	16.02	18.26	-39.2	-41.0	19.8	0.00e+00	0	40	0	620756992	50	4321
2026-01-11 01:52:27.16	16.01	18.39	-39.2	-41.0	19.9	0.00e+00	0	41	0	627048448	50	4322
2026-01-11 01:52:28.16	16.01	18.51	-39.2	-41.0	19.9	0.00e+00	0	40	0	632291328	50	4331
2026-01-11 01:52:29.16	16.00	18.63	-39.2	-41.0	19.8	0.00e+00	0	41	0	637534208	50	4336
2026-01-11 01:52:30.17	15.99	18.76	-39.1	-40.9	20.0	0.00e+00	0	40	0	643825664	50	4251
2026-01-11 01:52:31.17	15.99	18.88	-38.9	-40.7	20.1	0.00e+00	0	40	0	649068544	49	4422
2026-01-11 01:52:32.17	15.98	19.01	-38.9	-40.8	20.1	0.00e+00	0	41	0	654311424	49	4444
2026-01-11 01:52:33.18	15.98	19.13	-39.0	-40.8	20.1	0.00e+00	0	40	0	660602880	49	4451
2026-01-11 01:52:34.18	15.97	19.26	-38.8	-40.6	20.2	0.00e+00	0	40	0	665845760	49	4375
2026-01-11 01:52:35.18	15.96	19.39	-38.8	-40.6	20.2	0.00e+00	0	41	0	671088640	49	4386
2026-01-11 01:52:36.19	15.96	19.51	-38.9	-40.7	20.2	0.00e+00	0	40	0	677380096	49	4408
2026-01-11 01:52:37.19	15.95	19.64	-38.8	-40.6	20.2	0.00e+00	0	41	0	682622976	49	4366
2026-01-11 01:52:38.19	15.94	19.77	-38.8	-40.6	20.2	0.00e+00	0	41	0	688914432	49	4351
2026-01-11 01:52:39.20	15.94	19.90	-38.8	-40.6	20.3	0.00e+00	0	40	0	694157312	49	4346
2026-01-11 01:52:40.20	15.93	20.03	-38.8	-40.6	20.2	0.00e+00	0	41	0	699400192	49	4346
2026-01-11 01:52:41.20	15.92	20.16	-38.7	-40.5	20.3	0.00e+00	0	40	0	705691648	49	4311
2026-01-11 01:52:42.20	15.92	20.30	-38.7	-40.5	20.3	0.00e+00	0	40	0	710934528	49	4292
2026-01-11 01:52:43.21	15.91	20.43	-38.7	-40.5	20.3	0.00e+00	0	41	0	716177408	49	4296
2026-01-11 01:52:44.21	15.90	20.56	-38.7	-40.5	20.3	0.00e+00	0	41	0	722468864	49	4339
2026-01-11 01:52:45.21	15.90	20.70	-38.7	-40.4	20.4	0.00e+00	0	40	0	727711744	49	4291
2026-01-11 01:52:46.21	15.89	20.83	-38.7	-40.5	20.4	0.00e+00	0	40	0	734003200	49	4292
2026-01-11 01:52:47.22	15.88	20.97	-38.6	-40.4	20.4	0.00e+00	0	40	0	739246080	49	4280
2026-01-11 01:52:48.22	15.87	21.10	-38.6	-40.4	20.4	0.00e+00	0	40	0	744488960	49	4280
2026-01-11 01:52:49.23	15.87	21.24	-38.6	-40.4	20.5	0.00e+00	0	41	0	750780416	49	4247
2026-01-11 01:52:50.23	15.86	21.38	-38.5	-40.3	20.5	0.00e+00	0	40	0	756023296	49	4200
2026-01-11 01:52:51.23	15.85	21.52	-38.5	-40.3	20.5	0.00e+00	0	40	0	762314752	49	4233
2026-01-11 01:52:52.23	15.84	21.66	-38.5	-40.3	20.5	0.00e+00	0	41	0	767557632	49	4214
2026-01-11 01:52:53.24	15.83	21.80	-38.6	-40.3	20.5	0.00e+00	0	41	0	772800512	49	4237
2026-01-11 01:52:54.24	15.83	21.94	-38.5	-40.3	20.5	0.00e+00	0	40	0	779091968	49	4239
2026-01-11 01:52:55.24	15.82	22.08	-38.7	-40.5	20.3	0.00e+00	0	40	0	784334848	49	4316
2026-01-11 01:52:56.25	15.81	22.22	-38.6	-40.4	20.4	0.00e+00	0	40	0	789577728	49	4276
2026-01-11 01:52:57.25	15.80	22.37	-38.5	-40.3	20.5	0.00e+00	0	40	0	795869184	49	4219
2026-01-11 01:52:58.25	15.79	22.51	-38.6	-40.4	20.4	0.00e+00	0	41	0	801112064	49	4249
2026-01-11 01:52:59.26	15.78	22.66	-38.5	-40.3	20.5	0.00e+00	0	40	0	806354944	49	4223
2026-01-11 01:53:00.26	15.77	22.80	-38.5	-40.3	20.5	0.00e+00	0	40	0	812646400	49	4233
2026-01-11 01:53:01.26	15.77	22.95	-38.5	-40.3	20.6	0.00e+00	0	41	0	817889280	49	4201
2026-01-11 01:53:02.27	15.76	23.10	-38.6	-40.4	20.5	0.00e+00	0	40	0	824180736	49	4246
2026-01-11 01:53:03.27	15.75	23.24	-38.6	-40.4	20.4	0.00e+00	0	41	0	829423616	49	4254
2026-01-11 01:53:04.27	15.74	23.39	-38.5	-40.3	20.5	0.00e+00	0	40	0	835715072	49	4225
2026-01-11 01:53:05.28	15.73	23.54	-38.4	-40.2	20.6	0.00e+00	0	40	0	840957952	48	4406
2026-01-11 01:53:06.28	15.72	23.69	-38.3	-40.1	20.7	0.00e+00	0	40	0	846200832	48	4378
2026-01-11 01:53:07.28	15.71	23.85	-38.4	-40.2	20.6	0.00e+00	0	41	0	852492288	48	4422
2026-01-11 01:53:08.29	15.70	24.00	-38.4	-40.2	20.7	0.00e+00	0	40	0	857735168	48	4393
2026-01-11 01:53:09.29	15.69	24.15	-38.3	-40.1	20.7	0.00e+00	0	40	0	862978048	48	4360
2026-01-11 01:53:10.29	15.68	24.31	-38.3	-40.1	20.7	0.00e+00	0	41	0	869269504	48	4354
2026-01-11 01:53:11.30	15.67	24.46	-38.2	-39.9	20.9	0.00e+00	0	41	0	874512384	48	4277
2026-01-11 01:53:12.30	15.66	24.62	-38.2	-39.9	20.8	0.00e+00	0	41	0	879755264	48	4272
2026-01-11 01:53:13.30	15.65	24.78	-38.2	-39.9	20.9	0.00e+00	0	40	0	886046720	48	4279
2026-01-11 01:53:14.30	15.64	24.93	-38.0	-39.8	21.0	0.00e+00	0	40	0	891289600	48	4215
2026-01-11 01:53:15.31	15.63	25.09	-37.9	-39.7	20.9	0.00e+00	0	40	0	897581056	47	4395
2026-01-11 01:53:16.31	15.62	25.25	-37.9	-39.7	20.9	0.00e+00	0	41	0	902823936	47	4404
2026-01-11 01:53:17.32	15.60	25.42	-37.9	-39.6	20.9	0.00e+00	0	41	0	909115392	47	4377
2026-01-11 01:53:18.32	15.59	25.58	-37.9	-39.7	20.9	0.00e+00	0	40	0	914358272	47	4411
2026-01-11 01:53:19.32	15.58	25.74	-38.0	-39.7	20.8	0.00e+00	0	41	0	919601152	47	4440
2026-01-11 01:53:20.32	15.57	25.90	-38.0	-39.8	20.8	0.00e+00	0	41	0	925892608	47	4459
2026-01-11 01:53:21.33	15.56	26.07	-38.0	-39.8	20.8	0.00e+00	0	40	0	931135488	47	4453
2026-01-11 01:53:22.33	15.55	26.24	-38.0	-39.8	20.8	0.00e+00	0	41	0	936378368	47	4453
2026-01-11 01:53:23.33	15.53	26.40	-38.0	-39.8	20.8	0.00e+00	0	40	0	942669824	47	4474
2026-01-11 01:53:24.34	15.52	26.57	-38.0	-39.8	20.8	0.00e+00	0	40	0	947912704	47	4458
2026-01-11 01:53:25.34	15.51	26.74	-37.9	-39.7	20.9	0.00e+00	0	41	0	953155584	47	4403
2026-01-11 01:53:26.34	15.50	26.91	-38.0	-39.7	20.9	0.00e+00	0	41	0	959447040	47	4422
2026-01-11 01:53:27.34	15.48	27.08	-38.0	-39.8	20.9	0.00e+00	0	41	0	964689920	47	4456
2026-01-11 01:53:28.34	15.47	27.25	-37.9	-39.6	21.0	0.00e+00	0	40	0	970981376	47	4369
2026-01-11 01:53:29.35	15.46	27.43	-37.8	-39.5	21.0	0.00e+00	0	40	0	976224256	47	4337
2026-01-11 01:53:30.35	15.44	27.60	-37.8	-39.6	21.0	0.00e+00	0	41	0	981467136	47	4344
2026-01-11 01:53:31.35	15.43	27.78	-37.8	-39.6	21.0	0.00e+00	0	40	0	987758592	47	4356
2026-01-11 01:53:32.36	15.42	27.96	-37.9	-39.6	21.0	0.00e+00	0	41	0	993001472	47	4365
2026-01-11 01:53:33.36	15.40	28.14	-37.9	-39.6	21.0	0.00e+00	0	41	0	999292928	47	4383
2026-01-11 01:53:34.36	15.39	28.31	-37.9	-39.7	20.9	0.00e+00	0	41	0	1004535808	47	4408
2026-01-11 01:53:35.37	15.37	28.50	-37.9	-39.6	21.0	0.00e+00	0	41	0	1009778688	47	4388
2026-01-11 01:53:36.37	15.36	28.68	-37.8	-39.6	21.0	0.00e+00	0	41	0	1016070144	47	4348
2026-01-11 01:53:37.37	15.35	28.86	-37.8	-39.6	21.0	0.00e+00	0	41	0	1021313024	47	4351
2026-01-11 01:53:38.37	15.33	29.04	-37.9	-39.6	21.0	0.00e+00	0	40	0	1026555904	47	4381
2026-01-11 01:53:39.38	15.31	29.23	-37.9	-39.6	21.0	0.00e+00	0	40	0	1032847360	47	4369
2026-01-11 01:53:40.38	15.30	29.42	-37.8	-39.6	21.1	0.00e+00	0	40	0	1038090240	47	4346
2026-01-11 01:53:41.38	15.28	29.60	-37.7	-39.5	21.1	0.00e+00	0	41	0	1044381696	47	4304
2026-01-11 01:53:42.38	15.27	29.79	-37.8	-39.5	21.1	0.00e+00	0	41	0	1049624576	47	4339
2026-01-11 01:53:43.39	15.25	29.98	-37.7	-39.4	21.2	0.00e+00	0	40	0	1054867456	47	4270
2026-01-11 01:53:44.39	15.24	30.17	-37.7	-39.4	21.2	0.00e+00	0	41	0	1061158912	47	4269
2026-01-11 01:53:45.40	15.22	30.37	-37.6	-39.4	21.2	0.00e+00	0	41	0	1066401792	47	4260
2026-01-11 01:53:46.39	15.20	30.56	-37.6	-39.3	21.3	0.00e+00	0	41	0	1071644672	47	4231
2026-01-11 01:53:47.40	15.19	30.76	-37.6	-39.4	21.2	0.00e+00	0	40	0	1077936128	47	4250
2026-01-11 01:53:48.40	15.17	30.95	-37.6	-39.3	21.3	0.00e+00	0	41	0	1083179008	47	4242
2026-01-11 01:53:49.40	15.15	31.15	-37.6	-39.3	21.3	0.00e+00	0	40	0	1089470464	47	4217
2026-01-11 01:53:50.41	15.13	31.35	-37.6	-39.3	21.3	0.00e+00	0	40	0	1094713344	47	4238
2026-01-11 01:53:51.41	15.11	31.55	-37.5	-39.2	21.4	0.00e+00	0	40	0	1099956224	47	4170
2026-01-11 01:53:52.41	15.10	31.75	-37.5	-39.2	21.4	0.00e+00	0	41	0	1106247680	46	4418
2026-01-11 01:53:53.42	15.08	31.96	-37.5	-39.2	21.4	0.00e+00	0	41	0	1111490560	46	4413
2026-01-11 01:53:54.42	15.06	32.16	-37.5	-39.2	21.4	0.00e+00	0	41	0	1117782016	46	4412
2026-01-11 01:53:55.42	15.04	32.37	-37.1	-38.8	21.7	0.00e+00	0	40	0	1123024896	46	4232
2026-01-11 01:53:56.42	15.02	32.58	-37.0	-38.7	21.8	0.00e+00	0	41	0	1128267776	46	4173
2026-01-11 01:53:57.43	15.00	32.79	-37.0	-38.7	21.8	0.00e+00	0	40	0	1134559232	46	4193
2026-01-11 01:53:58.43	14.98	33.00	-37.1	-38.8	21.7	0.00e+00	0	40	0	1139802112	46	4225
2026-01-11 01:53:59.44	14.96	33.21	-37.2	-38.9	21.7	0.00e+00	0	40	0	1145044992	46	4280
2026-01-11 01:54:00.44	14.94	33.43	-37.3	-39.0	21.6	0.00e+00	0	40	0	1151336448	46	4311
2026-01-11 01:54:01.44	14.92	33.64	-37.3	-39.0	21.6	0.00e+00	0	41	0	1156579328	46	4336
2026-01-11 01:54:02.44	14.90	33.86	-37.3	-39.0	21.5	0.00e+00	0	41	0	1162870784	46	4329
2026-01-11 01:54:03.45	14.87	34.08	-37.3	-39.0	21.6	0.00e+00	0	40	0	1168113664	46	4318
2026-01-11 01:54:04.45	14.85	34.30	-37.3	-39.0	21.6	0.00e+00	0	40	0	1173356544	46	4318
2026-01-11 01:54:05.45	14.83	34.52	-37.1	-38.8	21.8	0.00e+00	0	41	0	1179648000	46	4233
2026-01-11 01:54:06.46	14.81	34.74	-36.9	-38.6	21.9	0.00e+00	0	40	0	1184890880	45	4391
2026-01-11 01:54:07.46	14.78	34.97	-36.9	-38.6	21.9	0.00e+00	0	41	0	1191182336	45	4388
2026-01-11 01:54:08.46	14.76	35.19	-37.0	-38.7	21.9	0.00e+00	0	40	0	1196425216	45	4400
2026-01-11 01:54:09.47	14.74	35.42	-37.1	-38.8	21.7	0.00e+00	0	41	0	1201668096	45	4479
2026-01-11 01:54:10.47	14.71	35.65	-37.4	-39.1	21.5	0.00e+00	0	40	0	1207959552	45	4617
2026-01-11 01:54:11.47	14.69	35.88	-37.5	-39.3	21.3	0.00e+00	0	41	0	1213202432	45	4714
2026-01-11 01:54:12.47	14.66	36.11	-37.6	-39.3	21.3	0.00e+00	0	40	0	1218445312	45	4750
2026-01-11 01:54:13.48	14.64	36.35	-37.6	-39.3	21.3	0.00e+00	0	41	0	1224736768	45	4758
2026-01-11 01:54:14.48	14.61	36.59	-37.4	-39.1	21.5	0.00e+00	0	41	0	1229979648	45	4627
2026-01-11 01:54:15.48	14.58	36.82	-36.8	-38.5	22.0	0.00e+00	0	41	0	1236271104	45	4325
2026-01-11 01:54:16.49	14.56	37.07	-36.6	-38.3	22.2	0.00e+00	0	41	0	1241513984	45	4210
2026-01-11 01:54:17.49	14.53	37.31	-36.7	-38.4	22.1	0.00e+00	0	41	0	1246756864	45	4267
2026-01-11 01:54:18.50	14.50	37.55	-36.8	-38.5	22.0	0.00e+00	0	40	0	1253048320	45	4308
2026-01-11 01:54:19.50	14.47	37.80	-37.0	-38.7	21.8	0.00e+00	0	40	0	1258291200	45	4421
2026-01-11 01:54:20.50	14.44	38.04	-37.1	-38.8	21.7	0.00e+00	0	40	0	1263534080	45	4491
2026-01-11 01:54:21.50	14.41	38.29	-37.3	-39.0	21.6	0.00e+00	0	40	0	1269825536	45	4596
2026-01-11 01:54:22.50	14.39	38.54	-37.4	-39.2	21.5	0.00e+00	0	40	0	1275068416	45	4674
2026-01-11 01:54:23.51	14.35	38.80	-37.6	-39.3	21.3	0.00e+00	0	40	0	1281359872	45	4752
2026-01-11 01:54:24.51	14.32	39.05	-37.5	-39.3	21.3	0.00e+00	0	41	0	1286602752	45	4723
2026-01-11 01:54:25.51	14.29	39.30	-37.4	-39.2	21.4	0.00e+00	0	40	0	1291845632	45	4659
2026-01-11 01:54:26.52	14.26	39.56	-37.5	-39.2	21.4	0.00e+00	0	40	0	1298137088	45	4698
2026-01-11 01:54:27.52	14.23	39.82	-37.5	-39.2	21.4	0.00e+00	0	40	0	1303379968	45	4680
2026-01-11 01:54:28.52	14.20	40.09	-37.5	-39.2	21.4	0.00e+00	0	41	0	1309671424	45	4705
2026-01-11 01:54:29.53	14.16	40.35	-37.5	-39.2	21.4	0.00e+00	0	40	0	1314914304	45	4690
2026-01-11 01:54:30.53	14.13	40.62	-37.5	-39.2	21.4	0.00e+00	0	41	0	1320157184	45	4688
2026-01-11 01:54:31.53	14.09	40.88	-37.5	-39.2	21.4	0.00e+00	0	41	0	1326448640	45	4685
2026-01-11 01:54:32.54	14.06	41.16	-37.4	-39.1	21.5	0.00e+00	0	41	0	1331691520	45	4645
2026-01-11 01:54:33.54	14.02	41.43	-37.5	-39.3	21.4	0.00e+00	0	41	0	1336934400	45	4707
2026-01-11 01:54:34.54	13.98	41.70	-37.4	-39.2	21.4	0.00e+00	0	40	0	1343225856	45	4656
2026-01-11 01:54:35.55	13.95	41.98	-37.4	-39.1	21.6	0.00e+00	0	41	0	1348468736	45	4609
2026-01-11 01:54:36.55	13.91	42.26	-37.5	-39.2	21.4	0.00e+00	0	40	0	1353711616	45	4696
2026-01-11 01:54:37.55	13.87	42.54	-37.7	-39.4	21.2	0.00e+00	0	40	0	1360003072	46	4537
2026-01-11 01:54:38.55	13.83	42.82	-37.7	-39.4	21.3	0.00e+00	0	41	0	1365245952	46	4512
2026-01-11 01:54:39.56	13.79	43.10	-37.7	-39.4	21.2	0.00e+00	0	40	0	1371537408	46	4539
2026-01-11 01:54:40.56	13.75	43.39	-37.7	-39.5	21.2	0.00e+00	0	40	0	1376780288	46	4553
2026-01-11 01:54:41.56	13.70	43.68	-37.9	-39.7	21.0	0.00e+00	0	40	0	1383071744	46	4682
2026-01-11 01:54:42.57	13.66	43.97	-38.1	-39.9	20.9	0.00e+00	0	40	0	1388314624	46	4763
2026-01-11 01:54:43.57	13.62	44.26	-38.1	-39.9	20.9	0.00e+00	0	41	0	1393557504	46	4761
2026-01-11 01:54:44.57	13.57	44.56	-37.9	-39.7	20.9	0.00e+00	0	40	0	1399848960	46	4689
2026-01-11 01:54:45.58	13.53	44.86	-38.0	-39.7	21.0	0.00e+00	0	41	0	1405091840	46	4684
2026-01-11 01:54:46.58	13.48	45.16	-37.8	-39.6	21.1	0.00e+00	0	40	0	1410334720	46	4611
2026-01-11 01:54:47.58	13.43	45.46	-37.5	-39.2	21.4	0.00e+00	0	40	0	1416626176	46	4415
2026-01-11 01:54:48.59	13.38	45.77	-37.4	-39.1	21.5	0.00e+00	0	40	0	1421869056	46	4387
2026-01-11 01:54:49.59	13.33	46.07	-37.7	-39.4	21.3	0.00e+00	0	41	0	1427111936	46	4525
2026-01-11 01:54:50.60	13.28	46.38	-38.0	-39.7	21.0	0.00e+00	0	40	0	1433403392	46	4682
2026-01-11 01:54:51.60	13.23	46.69	-38.1	-39.8	20.9	0.00e+00	0	40	0	1438646272	46	4746
2026-01-11 01:54:52.60	13.18	47.01	-37.7	-39.5	21.2	0.00e+00	0	40	0	1444937728	46	4552
2026-01-11 01:54:53.61	13.12	47.33	-37.7	-39.4	21.3	0.00e+00	0	41	0	1450180608	46	4511
2026-01-11 01:54:54.61	13.07	47.64	-37.5	-39.2	21.4	0.00e+00	0	41	0	1456472064	46	4412
2026-01-11 01:54:55.61	13.01	47.96	-37.2	-38.9	21.7	0.00e+00	0	40	0	1461714944	46	4269
2026-01-11 01:54:56.61	12.95	48.29	-37.5	-39.1	21.5	0.00e+00	0	40	0	1466957824	46	4389
2026-01-11 01:54:57.61	12.89	48.61	-37.7	-39.4	21.3	0.00e+00	0	41	0	1473249280	46	4512
2026-01-11 01:54:58.61	12.83	48.94	-37.7	-39.5	21.2	0.00e+00	0	40	0	1478492160	46	4549
2026-01-11 01:54:59.62	12.77	49.27	-37.5	-39.3	21.2	0.00e+00	0	40	0	1483735040	46	4450
2026-01-11 01:55:00.62	12.71	49.60	-37.4	-39.1	21.3	0.00e+00	0	41	0	1490026496	46	4370
2026-01-11 01:55:01.62	12.64	49.94	-37.3	-39.1	21.4	0.00e+00	0	41	0	1495269376	46	4346
2026-01-11 01:55:02.63	12.58	50.28	-37.6	-39.4	21.0	0.00e+00	0	41	0	1500512256	46	4510
2026-01-11 01:55:03.63	12.51	50.62	-38.2	-40.0	20.5	0.00e+00	0	41	0	1506803712	47	4548
2026-01-11 01:55:04.63	12.44	50.96	-38.4	-40.3	20.3	0.00e+00	0	41	0	1512046592	47	4708
2026-01-11 01:55:05.64	12.37	51.31	-38.4	-40.3	20.3	0.00e+00	0	41	0	1518338048	47	4718
2026-01-11 01:55:06.64	12.30	51.65	-38.4	-40.2	20.3	0.00e+00	0	40	0	1523580928	47	4701
2026-01-11 01:55:07.64	12.22	52.00	-38.5	-40.4	20.1	0.00e+00	0	40	0	1528823808	47	4786
2026-01-11 01:55:08.65	12.15	52.36	-39.0	-40.9	19.9	0.00e+00	0	40	0	1535115264	48	4784
2026-01-11 01:55:09.65	12.07	52.71	-39.1	-41.0	19.8	0.00e+00	0	40	0	1540358144	48	4857
2026-01-11 01:55:10.65	11.99	53.07	-39.2	-41.1	19.7	0.00e+00	0	41	0	1545601024	49	4609
2026-01-11 01:55:11.65	11.90	53.43	-39.0	-40.9	19.9	0.00e+00	0	41	0	1551892480	49	4507
2026-01-11 01:55:12.66	11.82	53.79	-38.8	-40.7	20.0	0.00e+00	0	40	0	1557135360	49	4418
2026-01-11 01:55:13.66	11.73	54.16	-39.0	-40.8	19.9	0.00e+00	0	41	0	1563426816	49	4492
2026-01-11 01:55:14.67	11.64	54.53	-39.3	-41.2	19.5	0.00e+00	0	41	0	1568669696	49	4696
2026-01-11 01:55:15.67	11.55	54.90	-39.1	-41.0	19.7	0.00e+00	0	40	0	1573912576	49	4586
2026-01-11 01:55:16.67	11.46	55.27	-38.9	-40.8	20.0	0.00e+00	0	41	0	1580204032	49	4444
2026-01-11 01:55:17.68	11.36	55.65	-38.6	-40.5	20.3	0.00e+00	0	41	0	1585446912	49	4300
2026-01-11 01:55:18.68	11.26	56.03	-38.6	-40.5	20.3	0.00e+00	0	41	0	1591738368	49	4300
2026-01-11 01:55:19.69	11.16	56.41	-38.5	-40.3	20.5	0.00e+00	0	41	0	1596981248	49	4215
2026-01-11 01:55:20.69	11.05	56.79	-38.4	-40.2	20.5	0.00e+00	0	41	0	1602224128	48	4431
2026-01-11 01:55:21.69	10.94	57.18	-38.3	-40.1	20.6	0.00e+00	0	41	0	1608515584	48	4384
2026-01-11 01:55:22.70	10.83	57.57	-38.5	-40.3	20.4	0.00e+00	0	41	0	1613758464	48	4469
2026-01-11 01:55:23.70	10.71	57.96	-38.3	-40.1	20.6	0.00e+00	0	41	0	1619001344	48	4371
2026-01-11 01:55:24.70	10.59	58.35	-38.1	-39.9	20.8	0.00e+00	0	40	0	1625292800	48	4259
2026-01-11 01:55:25.70	10.47	58.75	-37.6	-39.4	21.0	0.00e+00	0	41	0	1630535680	47	4268
2026-01-11 01:55:26.71	10.35	59.15	-37.6	-39.4	21.0	0.00e+00	0	41	0	1635778560	47	4274
2026-01-11 01:55:27.71	10.22	59.55	-37.5	-39.3	21.0	0.00e+00	0	41	0	1642070016	47	4226
2026-01-11 01:55:28.72	10.08	59.95	-37.5	-39.3	21.1	0.00e+00	0	41	0	1647312896	47	4224
2026-01-11 01:55:29.72	9.94	60.36	-37.6	-39.4	21.0	0.00e+00	0	40	0	1653604352	47	4257
2026-01-11 01:55:30.73	9.80	60.77	-37.8	-39.7	20.8	0.00e+00	0	41	0	1658847232	47	4392
2026-01-11 01:55:31.73	9.65	61.18	-38.0	-39.9	20.6	0.00e+00	0	40	0	1665138688	47	4517
2026-01-11 01:55:32.73	9.49	61.59	-37.7	-39.5	20.9	0.00e+00	0	41	0	1670381568	47	4309
2026-01-11 01:55:33.74	9.33	62.01	-37.5	-39.3	21.1	0.00e+00	0	40	0	1675624448	46	4455
2026-01-11 01:55:34.74	9.17	62.43	-37.5	-39.3	21.1	0.00e+00	0	41	0	1681915904	46	4479
2026-01-11 01:55:35.74	9.00	62.85	-37.6	-39.4	21.0	0.00e+00	0	41	0	1687158784	46	4507
2026-01-11 01:55:36.75	8.82	63.27	-37.4	-39.3	21.1	0.00e+00	0	41	0	1692401664	46	4443
2026-01-11 01:55:37.75	8.64	63.70	-37.3	-39.1	21.2	0.00e+00	0	41	0	1698693120	46	4358
2026-01-11 01:55:38.75	8.45	64.12	-37.0	-38.8	21.4	0.00e+00	0	40	0	1703936000	46	4209
2026-01-11 01:55:39.76	8.25	64.56	-37.1	-38.8	21.4	0.00e+00	0	41	0	1709178880	46	4237
2026-01-11 01:55:40.76	8.05	64.99	-37.2	-38.9	21.3	0.00e+00	0	40	0	1715470336	46	4289
2026-01-11 01:55:41.77	7.83	65.42	-36.8	-38.5	21.7	0.00e+00	0	41	0	1720713216	45	4325
2026-01-11 01:55:42.77	7.61	65.86	-36.7	-38.5	21.7	0.00e+00	0	41	0	1727004672	45	4313
2026-01-11 01:55:43.77	7.38	66.30	-36.8	-38.6	21.5	0.00e+00	0	41	0	1732247552	45	4352
2026-01-11 01:55:44.78	7.13	66.74	-36.6	-38.4	21.8	0.00e+00	0	41	0	1738539008	45	4249
2026-01-11 01:55:45.78	6.88	67.18	-36.4	-38.1	22.1	0.00e+00	0	40	0	1743781888	44	4346
2026-01-11 01:55:46.78	6.62	67.62	-36.5	-38.2	21.9	0.00e+00	0	41	0	1749024768	44	4406
2026-01-11 01:55:47.79	6.34	68.07	-36.5	-38.3	21.9	0.00e+00	0	40	0	1755316224	44	4443
2026-01-11 01:55:48.79	6.06	68.52	-36.3	-38.1	22.1	0.00e+00	0	40	0	1760559104	44	4348
2026-01-11 01:55:49.79	5.76	68.97	-36.2	-37.9	22.2	0.00e+00	0	41	0	1765801984	44	4269
2026-01-11 01:55:50.80	5.44	69.42	-36.2	-37.9	22.2	0.00e+00	0	41	0	1772093440	44	4255
2026-01-11 01:55:51.80	5.11	69.87	-36.1	-37.9	22.2	0.00e+00	0	40	0	1777336320	44	4244
2026-01-11 01:55:52.80	4.76	70.33	-35.7	-37.4	22.4	0.00e+00	0	40	0	1782579200	43	4266
2026-01-11 01:55:53.81	4.40	70.78	-35.8	-37.5	22.4	0.00e+00	0	41	0	1788870656	43	4327
2026-01-11 01:55:54.81	4.01	71.24	-36.0	-37.7	22.2	0.00e+00	0	41	0	1794113536	43	4437
2026-01-11 01:55:55.81	3.61	71.70	-36.0	-37.7	22.2	0.00e+00	0	40	0	1800404992	43	4441
2026-01-11 01:55:56.81	3.18	72.16	-35.9	-37.6	22.3	0.00e+00	0	40	0	1805647872	43	4350
2026-01-11 01:55:57.82	2.73	72.62	-36.0	-37.7	22.2	0.00e+00	0	40	0	1811939328	43	4398
2026-01-11 01:55:58.82	2.25	73.08	-35.9	-37.7	22.2	0.00e+00	0	40	0	1817182208	43	4398
2026-01-11 01:55:59.82	1.75	73.54	-36.0	-37.8	22.1	0.00e+00	0	40	0	1822425088	43	4455
2026-01-11 01:56:00.82	1.21	74.00	-35.7	-37.4	22.4	0.00e+00	0	40	0	1828716544	43	4257
2026-01-11 01:56:01.82	0.65	74.46	-35.5	-37.2	22.5	0.00e+00	0	41	0	1833959424	42	4409
2026-01-11 01:56:02.83	0.04	74.93	-35.6	-37.3	22.4	0.00e+00	0	40	0	1839202304	42	4467
2026-01-11 01:56:03.83	359.39	75.39	-35.6	-37.4	22.4	0.00e+00	0	40	0	1845493760	42	4498
2026-01-11 01:56:04.83	358.70	75.85	-35.5	-37.2	22.4	0.00e+00	0	40	0	1850736640	42	4437
2026-01-11 01:56:05.84	357.96	76.31	-35.5	-37.3	22.5	0.00e+00	0	40	0	1855979520	42	4442
2026-01-11 01:56:06.84	357.17	76.77	-35.5	-37.2	22.5	0.00e+00	0	40	0	1862270976	42	4410
2026-01-11 01:56:07.84	356.32	77.23	-35.2	-36.9	22.7	0.00e+00	0	40	0	1867513856	42	4285
2026-01-11 01:56:08.84	355.40	77.69	-35.0	-36.7	23.0	0.00e+00	0	40	0	1873805312	42	4152
2026-01-11 01:56:09.85	354.40	78.15	-35.1	-36.8	22.9	0.00e+00	0	40	0	1879048192	42	4217
2026-01-11 01:56:10.85	353.33	78.60	-35.2	-36.9	22.8	0.00e+00	0	40	0	1884291072	42	4285
2026-01-11 01:56:11.86	352.16	79.05	-34.4	-36.1	23.2	0.00e+00	0	40	0	1890582528	40	4383
2026-01-11 01:56:12.86	350.90	79.50	-34.0	-35.7	23.6	0.00e+00	0	41	0	1895825408	40	4147
2026-01-11 01:56:13.86	349.53	79.94	-34.3	-36.0	23.4	0.00e+00	0	41	0	1902116864	40	4309
2026-01-11 01:56:14.87	348.01	80.38	-34.3	-36.0	23.4	0.00e+00	0	40	0	1907359744	40	4325
2026-01-11 01:56:15.87	346.36	80.81	-34.2	-35.9	23.5	0.00e+00	0	40	0	1912602624	40	4268
2026-01-11 01:56:16.87	344.54	81.23	-34.2	-35.9	23.5	0.00e+00	0	40	0	1918894080	40	4256
2026-01-11 01:56:17.88	342.53	81.65	-34.2	-35.8	23.5	0.00e+00	0	40	0	1924136960	40	4237
2026-01-11 01:56:18.88	340.32	82.05	-34.3	-36.0	23.4	0.00e+00	0	40	0	1929379840	40	4317
2026-01-11 01:56:19.88	337.88	82.44	-34.3	-36.0	23.4	0.00e+00	0	40	0	1935671296	40	4312
2026-01-11 01:56:20.89	335.15	82.82	-34.2	-35.8	23.5	0.00e+00	0	41	0	1940914176	40	4237
2026-01-11 01:56:21.89	332.14	83.18	-34.4	-36.0	23.4	0.00e+00	0	40	0	1947205632	40	4332
2026-01-11 01:56:22.89	328.82	83.52	-34.1	-35.7	23.6	0.00e+00	0	41	0	1952448512	40	4186
2026-01-11 01:56:23.90	325.09	83.84	-34.4	-36.0	23.4	0.00e+00	0	40	0	1957691392	40	4338
2026-01-11 01:56:24.90	321.02	84.12	-34.7	-36.3	23.2	0.00e+00	0	40	0	1963982848	40	4489
2026-01-11 01:56:25.90	316.56	84.38	-34.7	-36.3	23.2	0.00e+00	0	40	0	1969225728	40	4493
2026-01-11 01:56:26.91	311.65	84.60	-35.0	-36.7	22.9	0.00e+00	0	40	0	1974468608	40	4666
2026-01-11 01:56:27.91	306.43	84.77	-35.0	-36.7	22.9	0.00e+00	0	41	0	1980760064	40	4690
2026-01-11 01:56:28.91	300.88	84.90	-34.9	-36.6	22.9	0.00e+00	0	41	0	1986002944	41	4362
2026-01-11 01:56:29.91	295.11	84.98	-35.0	-36.8	22.7	0.00e+00	0	41	0	1992294400	41	4459
2026-01-11 01:56:30.92	289.15	85.01	-34.8	-36.5	23.0	0.00e+00	0	40	0	1997537280	41	4320
2026-01-11 01:56:31.92	283.25	84.98	-34.9	-36.6	23.0	0.00e+00	0	41	0	2002780160	41	4342
2026-01-11 01:56:32.92	277.47	84.90	-35.0	-36.7	22.8	0.00e+00	0	41	0	2009071616	41	4412
2026-01-11 01:56:33.93	271.87	84.77	-35.1	-36.8	22.7	0.00e+00	0	40	0	2014314496	41	4486
2026-01-11 01:56:34.93	266.64	84.60	-35.1	-36.8	22.7	0.00e+00	0	41	0	2020605952	41	4489
2026-01-11 01:56:35.93	261.77	84.38	-35.1	-36.8	22.8	0.00e+00	0	41	0	2025848832	41	4481
2026-01-11 01:56:36.94	257.26	84.12	-35.2	-36.9	22.8	0.00e+00	0	41	0	2031091712	41	4501
2026-01-11 01:56:37.94	253.19	83.84	-34.9	-36.6	23.0	0.00e+00	0	40	0	2037383168	41	4356
2026-01-11 01:56:38.94	249.50	83.52	-34.9	-36.6	22.9	0.00e+00	0	40	0	2042626048	41	4390
2026-01-11 01:56:39.95	246.13	83.18	-34.8	-36.5	23.0	0.00e+00	0	40	0	2047868928	41	4311
2026-01-11 01:56:40.95	243.12	82.82	-34.5	-36.1	23.3	0.00e+00	0	40	0	2054160384	40	4383
2026-01-11 01:56:41.95	240.41	82.45	-34.7	-36.4	23.1	0.00e+00	0	40	0	2059403264	40	4509
2026-01-11 01:56:42.96	237.94	82.05	-34.8	-36.5	23.1	0.00e+00	0	40	0	2065694720	40	4555
2026-01-11 01:56:43.96	235.74	81.65	-34.7	-36.3	23.2	0.00e+00	0	40	0	2070937600	40	4485
2026-01-11 01:56:44.97	233.72	81.23	-34.9	-36.6	23.0	0.00e+00	0	40	0	2076180480	40	4603
2026-01-11 01:56:45.97	231.90	80.81	-34.7	-36.4	23.1	0.00e+00	0	40	0	2082471936	40	4527
2026-01-11 01:56:46.97	230.25	80.38	-34.5	-36.1	23.3	0.00e+00	0	41	0	2087714816	40	4380
2026-01-11 01:56:47.97	228.75	79.94	-34.7	-36.4	23.1	0.00e+00	0	40	0	2094006272	40	4523
2026-01-11 01:56:48.98	227.35	79.50	-34.7	-36.4	23.1	0.00e+00	0	40	0	2099249152	40	4517
2026-01-11 01:56:49.98	226.09	79.05	-34.7	-36.4	23.1	0.00e+00	0	41	0	2104492032	40	4511
2026-01-11 01:56:50.99	224.92	78.60	-34.7	-36.4	23.2	0.00e+00	0	40	0	2110783488	40	4532
2026-01-11 01:56:51.99	223.85	78.14	-34.8	-36.5	23.1	0.00e+00	0	41	0	2116026368	40	4557
2026-01-11 01:56:52.99	222.86	77.69	-34.9	-36.6	23.1	0.00e+00	0	40	0	2121269248	40	4607
2026-01-11 01:56:53.99	221.94	77.23	-34.8	-36.5	23.1	0.00e+00	0	40	0	2127560704	40	4551
2026-01-11 01:56:55.00	221.08	76.77	-34.9	-36.6	23.0	0.00e+00	0	40	0	2132803584	40	4625
2026-01-11 01:56:56.00	220.29	76.31	-35.1	-36.8	22.8	0.00e+00	0	40	0	2139095040	40	4758
2026-01-11 01:56:57.00	219.55	75.85	-35.0	-36.7	22.9	0.00e+00	0	41	0	2144337920	40	4691
2026-01-11 01:56:58.01	218.86	75.38	-35.1	-36.8	22.9	0.00e+00	0	41	0	2149580800	40	4734
2026-01-11 01:56:59.01	218.21	74.92	-35.7	-37.4	22.4	0.00e+00	0	41	0	2155872256	41	4768
2026-01-11 01:57:00.01	217.61	74.46	-35.5	-37.2	22.5	0.00e+00	0	41	0	2161115136	41	4697
2026-01-11 01:57:01.02	217.03	73.99	-35.4	-37.1	22.6	0.00e+00	0	40	0	2167406592	41	4642
2026-01-11 01:57:02.02	216.50	73.53	-35.4	-37.1	22.6	0.00e+00	0	40	0	2172649472	41	4633
2026-01-11 01:57:03.02	215.99	73.07	-35.6	-37.4	22.4	0.00e+00	0	40	0	2177892352	41	4763
2026-01-11 01:57:04.02	215.52	72.61	-35.9	-37.6	22.2	0.00e+00	0	41	0	2184183808	42	4623
2026-01-11 01:57:05.03	215.06	72.14	-36.0	-37.8	22.1	0.00e+00	0	41	0	2189426688	42	4717
2026-01-11 01:57:06.03	214.64	71.68	-35.9	-37.6	22.3	0.00e+00	0	40	0	2194669568	42	4608
2026-01-11 01:57:07.03	214.23	71.23	-36.1	-37.8	22.0	0.00e+00	0	40	0	2200961024	42	4758
2026-01-11 01:57:08.03	213.85	70.77	-36.4	-38.2	21.8	0.00e+00	0	41	0	2206203904	43	4653
2026-01-11 01:57:09.03	213.49	70.31	-36.4	-38.2	21.8	0.00e+00	0	40	0	2212495360	43	4660
2026-01-11 01:57:10.04	213.13	69.86	-36.3	-38.0	21.9	0.00e+00	0	41	0	2217738240	43	4598
2026-01-11 01:57:11.04	212.80	69.40	-36.5	-38.3	21.8	0.00e+00	0	40	0	2222981120	43	4714
2026-01-11 01:57:12.05	212.49	68.95	-36.8	-38.5	21.7	0.00e+00	0	40	0	2229272576	44	4585
2026-01-11 01:57:13.05	212.19	68.50	-36.9	-38.6	21.6	0.00e+00	0	41	0	2234515456	44	4639
2026-01-11 01:57:14.05	211.90	68.05	-36.4	-38.1	22.1	0.00e+00	0	41	0	2239758336	44	4365
2026-01-11 01:57:15.06	211.62	67.60	-36.3	-38.0	22.2	0.00e+00	0	41	0	2246049792	44	4293
2026-01-11 01:57:16.06	211.36	67.16	-36.6	-38.3	21.8	0.00e+00	0	41	0	2251292672	44	4486
2026-01-11 01:57:17.06	211.11	66.71	-36.7	-38.5	21.7	0.00e+00	0	40	0	2257584128	44	4546
2026-01-11 01:57:18.07	210.87	66.27	-36.7	-38.4	21.7	0.00e+00	0	41	0	2262827008	44	4542
2026-01-11 01:57:19.07	210.63	65.83	-36.7	-38.5	21.7	0.00e+00	0	41	0	2268069888	44	4551
2026-01-11 01:57:20.07	210.41	65.40	-36.6	-38.4	21.7	0.00e+00	0	40	0	2274361344	44	4517
2026-01-11 01:57:21.08	210.20	64.96	-36.5	-38.2	21.9	0.00e+00	0	41	0	2279604224	44	4409
2026-01-11 01:57:22.08	209.99	64.53	-36.5	-38.2	22.0	0.00e+00	0	41	0	2285895680	44	4405
2026-01-11 01:57:23.08	209.79	64.10	-36.4	-38.1	22.0	0.00e+00	0	40	0	2291138560	44	4385
2026-01-11 01:57:24.08	209.60	63.67	-36.5	-38.3	21.9	0.00e+00	0	41	0	2296381440	44	4455
2026-01-11 01:57:25.09	209.42	63.24	-36.6	-38.3	22.0	0.00e+00	0	40	0	2302672896	44	4470
2026-01-11 01:57:26.09	209.24	62.82	-36.6	-38.3	22.0	0.00e+00	0	40	0	2307915776	44	4475
2026-01-11 01:57:27.09	209.07	62.40	-36.6	-38.3	22.0	0.00e+00	0	40	0	2313158656	44	4489
2026-01-11 01:57:28.10	208.91	61.97	-36.8	-38.5	21.8	0.00e+00	0	40	0	2319450112	44	4587
2026-01-11 01:57:29.10	208.75	61.56	-37.0	-38.7	21.6	0.00e+00	0	41	0	2324692992	44	4675
2026-01-11 01:57:30.11	208.59	61.14	-37.2	-38.9	21.5	0.00e+00	0	40	0	2329935872	44	4797
2026-01-11 01:57:31.11	208.44	60.73	-37.2	-39.0	21.4	0.00e+00	0	40	0	2336227328	45	4548
2026-01-11 01:57:32.11	208.30	60.32	-37.3	-39.0	21.3	0.00e+00	0	40	0	2341470208	45	4592
2026-01-11 01:57:33.11	208.16	59.91	-37.1	-38.8	21.5	0.00e+00	0	40	0	2347761664	45	4464
2026-01-11 01:57:34.12	208.02	59.51	-37.3	-39.1	21.2	0.00e+00	0	40	0	2353004544	45	4622
2026-01-11 01:57:35.12	207.89	59.11	-37.5	-39.3	21.0	0.00e+00	0	40	0	2359296000	45	4724
2026-01-11 01:57:36.12	207.77	58.71	-37.7	-39.5	20.9	0.00e+00	0	41	0	2364538880	46	4577
2026-01-11 01:57:37.13	207.64	58.31	-37.9	-39.7	20.7	0.00e+00	0	40	0	2369781760	46	4662
2026-01-11 01:57:38.13	207.53	57.91	-38.0	-39.9	20.6	0.00e+00	0	40	0	2376073216	46	4772
2026-01-11 01:57:39.13	207.41	57.52	-38.1	-39.9	20.5	0.00e+00	0	40	0	2381316096	46	4810
2026-01-11 01:57:40.13	207.30	57.13	-38.3	-40.1	20.3	0.00e+00	0	40	0	2386558976	47	4634
2026-01-11 01:57:41.14	207.19	56.74	-38.5	-40.4	20.1	0.00e+00	0	40	0	2392850432	47	4761
2026-01-11 01:57:42.14	207.08	56.36	-38.8	-40.6	20.1	0.00e+00	0	40	0	2398093312	48	4625
2026-01-11 01:57:43.15	206.98	55.97	-38.9	-40.8	20.0	0.00e+00	0	40	0	2403336192	48	4730
2026-01-11 01:57:44.15	206.88	55.60	-38.6	-40.5	20.3	0.00e+00	0	40	0	2409627648	48	4550
2026-01-11 01:57:45.15	206.78	55.22	-38.5	-40.4	20.4	0.00e+00	0	40	0	2414870528	48	4509
2026-01-11 01:57:46.16	206.69	54.84	-38.5	-40.3	20.4	0.00e+00	0	40	0	2421161984	48	4482
2026-01-11 01:57:47.16	206.59	54.47	-38.5	-40.3	20.4	0.00e+00	0	40	0	2426404864	48	4478
2026-01-11 01:57:48.16	206.51	54.10	-38.4	-40.2	20.5	0.00e+00	0	40	0	2432696320	48	4436
2026-01-11 01:57:49.16	206.42	53.74	-38.2	-40.0	20.7	0.00e+00	0	40	0	2437939200	48	4321
2026-01-11 01:57:50.17	206.33	53.37	-38.1	-39.9	20.8	0.00e+00	0	40	0	2443182080	48	4263
2026-01-11 01:57:51.17	206.25	53.01	-38.2	-40.0	20.7	0.00e+00	0	40	0	2449473536	48	4322
2026-01-11 01:57:52.17	206.17	52.65	-38.2	-40.0	20.7	0.00e+00	0	40	0	2454716416	48	4319
2026-01-11 01:57:53.17	206.09	52.30	-38.3	-40.1	20.6	0.00e+00	0	40	0	2459959296	48	4358
2026-01-11 01:57:54.18	206.01	51.94	-38.1	-39.9	20.7	0.00e+00	0	40	0	2466250752	48	4291
2026-01-11 01:57:55.18	205.94	51.59	-38.3	-40.1	20.6	0.00e+00	0	40	0	2471493632	48	4356
2026-01-11 01:57:56.18	205.86	51.24	-38.0	-39.8	20.8	0.00e+00	0	40	0	2476736512	48	4204
2026-01-11 01:57:57.19	205.79	50.89	-37.8	-39.6	20.8	0.00e+00	0	40	0	2483027968	47	4368
2026-01-11 01:57:58.19	205.72	50.55	-37.7	-39.4	21.0	0.00e+00	0	41	0	2488270848	47	4277
2026-01-11 01:57:59.19	205.66	50.21	-37.7	-39.5	20.9	0.00e+00	0	40	0	2494562304	47	4296
2026-01-11 01:58:00.20	205.59	49.87	-37.4	-39.2	21.1	0.00e+00	0	40	0	2499805184	46	4428
2026-01-11 01:58:01.20	205.52	49.53	-37.4	-39.2	21.1	0.00e+00	0	40	0	2505048064	46	4394
2026-01-11 01:58:02.21	205.46	49.20	-37.3	-39.1	21.2	0.00e+00	0	41	0	2511339520	46	4358
2026-01-11 01:58:03.21	205.40	48.86	-37.2	-39.0	21.3	0.00e+00	0	40	0	2516582400	46	4297
2026-01-11 01:58:04.22	205.34	48.53	-37.1	-38.8	21.5	0.00e+00	0	40	0	2522873856	46	4215
2026-01-11 01:58:05.22	205.28	48.21	-37.1	-38.8	21.5	0.00e+00	0	40	0	2528116736	46	4214
2026-01-11 01:58:06.22	205.22	47.88	-37.1	-38.9	21.4	0.00e+00	0	40	0	2533359616	46	4255
2026-01-11 01:58:07.22	205.16	47.56	-37.2	-39.0	21.3	0.00e+00	0	40	0	2539651072	46	4292
2026-01-11 01:58:08.22	205.11	47.24	-37.1	-38.9	21.4	0.00e+00	0	40	0	2544893952	46	4258
2026-01-11 01:58:09.23	205.05	46.92	-37.2	-39.0	21.3	0.00e+00	0	41	0	2550136832	46	4313
2026-01-11 01:58:10.23	205.00	46.61	-37.1	-38.9	21.3	0.00e+00	0	41	0	2556428288	46	4275
2026-01-11 01:58:11.23	204.95	46.30	-37.2	-39.0	21.3	0.00e+00	0	41	0	2561671168	46	4294
2026-01-11 01:58:12.23	204.90	45.99	-37.3	-39.1	21.2	0.00e+00	0	40	0	2567962624	46	4350
2026-01-11 01:58:13.24	204.85	45.68	-37.2	-39.0	21.3	0.00e+00	0	40	0	2573205504	46	4294
2026-01-11 01:58:14.24	204.80	45.37	-37.2	-39.0	21.3	0.00e+00	0	40	0	2578448384	46	4320
2026-01-11 01:58:15.24	204.75	45.07	-37.2	-39.0	21.3	0.00e+00	0	41	0	2584739840	46	4309
2026-01-11 01:58:16.25	204.70	44.77	-37.2	-39.0	21.3	0.00e+00	0	40	0	2589982720	46	4314
2026-01-11 01:58:17.25	204.66	44.47	-37.4	-39.2	21.1	0.00e+00	0	40	0	2595225600	46	4396
2026-01-11 01:58:18.26	204.61	44.17	-37.4	-39.2	21.1	0.00e+00	0	40	0	2601517056	46	4425
2026-01-11 01:58:19.26	204.57	43.88	-37.5	-39.3	21.0	0.00e+00	0	40	0	2606759936	46	4468
2026-01-11 01:58:20.26	204.52	43.59	-37.4	-39.2	21.0	0.00e+00	0	40	0	2613051392	46	4438
2026-01-11 01:58:21.27	204.48	43.29	-37.4	-39.2	21.0	0.00e+00	0	40	0	2618294272	46	4416
2026-01-11 01:58:22.27	204.44	43.01	-37.4	-39.2	21.0	0.00e+00	0	40	0	2623537152	46	4419
2026-01-11 01:58:23.27	204.40	42.72	-37.4	-39.2	21.0	0.00e+00	0	40	0	2629828608	46	4417
2026-01-11 01:58:24.27	204.36	42.44	-37.3	-39.1	21.1	0.00e+00	0	40	0	2635071488	46	4351
2026-01-11 01:58:25.28	204.32	42.16	-37.3	-39.1	21.1	0.00e+00	0	40	0	2641362944	46	4348
2026-01-11 01:58:26.28	204.28	41.88	-37.1	-38.9	21.2	0.00e+00	0	40	0	2646605824	46	4262
2026-01-11 01:58:27.28	204.24	41.60	-37.2	-39.0	21.2	0.00e+00	0	40	0	2651848704	46	4304
2026-01-11 01:58:28.28	204.20	41.33	-37.1	-38.9	21.2	0.00e+00	0	40	0	2658140160	46	4280
2026-01-11 01:58:29.29	204.17	41.05	-37.1	-38.9	21.2	0.00e+00	0	40	0	2663383040	46	4289
2026-01-11 01:58:30.29	204.13	40.78	-37.1	-38.9	21.3	0.00e+00	0	40	0	2668625920	46	4259
2026-01-11 01:58:31.29	204.10	40.51	-37.1	-38.9	21.2	0.00e+00	0	40	0	2674917376	46	4275
2026-01-11 01:58:32.30	204.06	40.24	-37.0	-38.8	21.3	0.00e+00	0	40	0	2680160256	46	4222
2026-01-11 01:58:33.30	204.03	39.98	-36.8	-38.6	21.5	0.00e+00	0	41	0	2685403136	45	4367
2026-01-11 01:58:34.30	203.99	39.72	-36.9	-38.6	21.5	0.00e+00	0	41	0	2691694592	45	4378
2026-01-11 01:58:35.31	203.96	39.45	-36.7	-38.5	21.6	0.00e+00	0	40	0	2696937472	45	4302
2026-01-11 01:58:36.31	203.93	39.20	-36.6	-38.3	21.7	0.00e+00	0	40	0	2703228928	45	4229
2026-01-11 01:58:37.31	203.90	38.94	-36.5	-38.2	21.8	0.00e+00	0	40	0	2708471808	45	4192
2026-01-11 01:58:38.31	203.86	38.69	-36.5	-38.2	21.8	0.00e+00	0	40	0	2714763264	45	4191
2026-01-11 01:58:39.32	203.83	38.43	-36.5	-38.2	21.8	0.00e+00	0	41	0	2720006144	45	4186
2026-01-11 01:58:40.32	203.80	38.18	-36.5	-38.2	21.7	0.00e+00	0	40	0	2725249024	45	4191
2026-01-11 01:58:41.32	203.77	37.93	-36.5	-38.2	21.8	0.00e+00	0	40	0	2731540480	45	4191
2026-01-11 01:58:42.33	203.74	37.68	-36.4	-38.2	21.8	0.00e+00	0	40	0	2736783360	44	4416
2026-01-11 01:58:43.33	203.72	37.43	-36.5	-38.2	21.8	0.00e+00	0	40	0	2742026240	44	4430
2026-01-11 01:58:44.33	203.69	37.19	-36.4	-38.2	21.8	0.00e+00	0	40	0	2748317696	44	4398
2026-01-11 01:58:45.34	203.66	36.95	-36.5	-38.2	21.8	0.00e+00	0	40	0	2753560576	44	4437
2026-01-11 01:58:46.34	203.63	36.71	-36.4	-38.2	21.8	0.00e+00	0	40	0	2758803456	44	4400
2026-01-11 01:58:47.34	203.61	36.47	-36.5	-38.3	21.8	0.00e+00	0	40	0	2765094912	44	4442
2026-01-11 01:58:48.35	203.58	36.23	-36.7	-38.4	21.6	0.00e+00	0	40	0	2770337792	44	4538
2026-01-11 01:58:49.35	203.55	35.99	-36.8	-38.6	21.5	0.00e+00	0	40	0	2776629248	44	4615
2026-01-11 01:58:50.35	203.53	35.76	-36.9	-38.6	21.4	0.00e+00	0	40	0	2781872128	44	4634
2026-01-11 01:58:51.36	203.50	35.53	-36.9	-38.7	21.3	0.00e+00	0	41	0	2787115008	44	4699
2026-01-11 01:58:52.36	203.48	35.30	-37.1	-38.9	21.2	0.00e+00	0	40	0	2793406464	44	4785
2026-01-11 01:58:53.36	203.45	35.07	-37.1	-38.9	21.1	0.00e+00	0	40	0	2798649344	44	4807
2026-01-11 01:58:54.37	203.43	34.84	-37.2	-39.0	21.1	0.00e+00	0	41	0	2804940800	44	4833
2026-01-11 01:58:55.37	203.41	34.62	-37.2	-39.0	21.0	0.00e+00	0	40	0	2810183680	45	4590
2026-01-11 01:58:56.37	203.38	34.39	-37.2	-39.0	21.0	0.00e+00	0	41	0	2815426560	45	4569
2026-01-11 01:58:57.38	203.36	34.17	-37.3	-39.1	21.0	0.00e+00	0	40	0	2821718016	45	4619
2026-01-11 01:58:58.38	203.34	33.95	-37.2	-39.1	21.0	0.00e+00	0	40	0	2826960896	45	4608
2026-01-11 01:58:59.39	203.31	33.73	-37.2	-39.0	21.1	0.00e+00	0	41	0	2832203776	45	4564
2026-01-11 01:59:00.39	203.29	33.51	-37.2	-39.0	21.1	0.00e+00	0	40	0	2838495232	45	4560
2026-01-11 01:59:01.40	203.27	33.29	-37.2	-39.0	21.0	0.00e+00	0	40	0	2843738112	45	4596
2026-01-11 01:59:02.40	203.25	33.08	-37.2	-39.0	21.1	0.00e+00	0	41	0	2850029568	45	4558
2026-01-11 01:59:03.40	203.23	32.87	-37.2	-39.0	21.0	0.00e+00	0	40	0	2855272448	45	4580
2026-01-11 01:59:04.40	203.21	32.66	-37.2	-39.0	21.0	0.00e+00	0	40	0	2860515328	45	4574
2026-01-11 01:59:05.40	203.19	32.45	-37.2	-39.0	21.0	0.00e+00	0	40	0	2866806784	45	4592
2026-01-11 01:59:06.41	203.17	32.24	-37.4	-39.2	20.9	0.00e+00	0	40	0	2872049664	45	4655
2026-01-11 01:59:07.41	203.15	32.03	-37.3	-39.2	20.9	0.00e+00	0	40	0	2878341120	45	4654
2026-01-11 01:59:08.42	203.13	31.82	-37.3	-39.1	21.0	0.00e+00	0	40	0	2883584000	45	4623
2026-01-11 01:59:09.42	203.11	31.62	-37.3	-39.1	21.0	0.00e+00	0	40	0	2888826880	45	4610
2026-01-11 01:59:10.42	203.09	31.42	-37.2	-39.0	21.1	0.00e+00	0	40	0	2895118336	45	4569
2026-01-11 01:59:11.42	203.07	31.21	-37.1	-38.9	21.1	0.00e+00	0	40	0	2900361216	45	4538
2026-01-11 01:59:12.43	203.05	31.01	-37.1	-38.9	21.1	0.00e+00	0	41	0	2905604096	45	4536
2026-01-11 01:59:13.43	203.04	30.81	-37.1	-38.9	21.1	0.00e+00	0	40	0	2911895552	45	4531
2026-01-11 01:59:14.43	203.02	30.62	-37.2	-39.0	21.1	0.00e+00	0	40	0	2917138432	45	4556
2026-01-11 01:59:15.44	203.00	30.42	-37.0	-38.8	21.2	0.00e+00	0	40	0	2923429888	45	4474
2026-01-11 01:59:16.44	202.98	30.23	-37.0	-38.7	21.3	0.00e+00	0	40	0	2928672768	45	4441
2026-01-11 01:59:17.44	202.97	30.03	-37.0	-38.8	21.3	0.00e+00	0	41	0	2933915648	45	4452
2026-01-11 01:59:18.45	202.95	29.84	-37.0	-38.7	21.3	0.00e+00	0	41	0	2940207104	45	4437
2026-01-11 01:59:19.45	202.93	29.65	-37.0	-38.8	21.3	0.00e+00	0	40	0	2945449984	45	4456
2026-01-11 01:59:20.45	202.92	29.46	-37.1	-38.9	21.2	0.00e+00	0	40	0	2950692864	45	4494
2026-01-11 01:59:21.46	202.90	29.27	-37.1	-38.9	21.2	0.00e+00	0	40	0	2956984320	45	4512
2026-01-11 01:59:22.46	202.88	29.08	-37.2	-39.0	21.1	0.00e+00	0	40	0	2962227200	45	4546
2026-01-11 01:59:23.46	202.87	28.90	-37.2	-38.9	21.1	0.00e+00	0	40	0	2968518656	45	4545
2026-01-11 01:59:24.47	202.85	28.71	-37.3	-39.1	21.0	0.00e+00	0	40	0	2973761536	45	4607
2026-01-11 01:59:25.47	202.84	28.53	-37.3	-39.1	21.0	0.00e+00	0	40	0	2979004416	45	4626
2026-01-11 01:59:26.47	202.82	28.35	-37.3	-39.1	21.0	0.00e+00	0	41	0	2985295872	45	4628
2026-01-11 01:59:27.48	202.81	28.16	-37.4	-39.2	20.9	0.00e+00	0	40	0	2990538752	45	4665
2026-01-11 01:59:28.48	202.79	27.98	-37.4	-39.2	20.9	0.00e+00	0	40	0	2996830208	45	4697
2026-01-11 01:59:29.49	202.78	27.80	-37.4	-39.2	20.9	0.00e+00	0	41	0	3002073088	45	4681
2026-01-11 01:59:30.49	202.76	27.63	-37.4	-39.2	20.9	0.00e+00	0	40	0	3007315968	45	4676
2026-01-11 01:59:31.50	202.75	27.45	-37.4	-39.2	20.9	0.00e+00	0	40	0	3013607424	45	4692
2026-01-11 01:59:32.50	202.74	27.28	-37.3	-39.1	21.0	0.00e+00	0	41	0	3018850304	45	4615
2026-01-11 01:59:33.51	202.72	27.10	-37.3	-39.1	21.0	0.00e+00	0	41	0	3024093184	45	4634
2026-01-11 01:59:34.51	202.71	26.93	-37.3	-39.1	21.0	0.00e+00	0	40	0	3030384640	45	4621
2026-01-11 01:59:35.51	202.69	26.76	-37.3	-39.1	21.0	0.00e+00	0	40	0	3035627520	45	4603
2026-01-11 01:59:36.51	202.68	26.59	-37.2	-39.0	21.1	0.00e+00	0	40	0	3041918976	45	4551
2026-01-11 01:59:37.52	202.67	26.41	-37.3	-39.1	21.0	0.00e+00	0	40	0	3047161856	45	4612
2026-01-11 01:59:38.52	202.66	26.25	-37.2	-38.9	21.1	0.00e+00	0	40	0	3052404736	45	4541
2026-01-11 01:59:39.53	202.64	26.08	-37.2	-39.0	21.1	0.00e+00	0	40	0	3058696192	45	4553
2026-01-11 01:59:40.53	202.63	25.91	-37.3	-39.1	21.0	0.00e+00	0	40	0	3063939072	45	4604
2026-01-11 01:59:41.53	202.62	25.75	-37.2	-39.0	21.0	0.00e+00	0	40	0	3070230528	45	4592
2026-01-11 01:59:42.54	202.61	25.58	-37.3	-39.1	20.9	0.00e+00	0	40	0	3075473408	45	4635
2026-01-11 01:59:43.54	202.59	25.42	-37.4	-39.2	20.8	0.00e+00	0	40	0	3080716288	45	4694
2026-01-11 01:59:44.54	202.58	25.25	-37.4	-39.2	20.8	0.00e+00	0	40	0	3087007744	45	4701
2026-01-11 01:59:45.55	202.57	25.09	-37.5	-39.3	20.7	0.00e+00	0	40	0	3092250624	45	4754
2026-01-11 01:59:46.55	202.56	24.93	-37.5	-39.4	20.7	0.00e+00	0	40	0	3097493504	45	4764
2026-01-11 01:59:47.55	202.55	24.77	-37.7	-39.5	20.6	0.00e+00	0	41	0	3103784960	45	4852
2026-01-11 01:59:48.56	202.54	24.61	-37.7	-39.6	20.5	0.00e+00	0	40	0	3109027840	46	4617
2026-01-11 01:59:49.56	202.52	24.45	-37.7	-39.5	20.6	0.00e+00	0	40	0	3115319296	46	4594
2026-01-11 01:59:50.56	202.51	24.30	-37.7	-39.6	20.5	0.00e+00	0	40	0	3120562176	46	4600
2026-01-11 01:59:51.57	202.50	24.14	-37.9	-39.7	20.4	0.00e+00	0	40	0	3125805056	46	4692
2026-01-11 01:59:52.57	202.49	23.99	-37.8	-39.7	20.5	0.00e+00	0	40	0	3132096512	46	4659
2026-01-11 01:59:53.57	202.48	23.83	-37.8	-39.7	20.4	0.00e+00	0	40	0	3137339392	46	4664
2026-01-11 01:59:54.58	202.47	23.68	-37.8	-39.6	20.5	0.00e+00	0	40	0	3143630848	46	4630
2026-01-11 01:59:55.58	202.46	23.53	-37.7	-39.6	20.5	0.00e+00	0	40	0	3148873728	46	4616
2026-01-11 01:59:56.58	202.45	23.38	-37.8	-39.6	20.5	0.00e+00	0	40	0	3154116608	46	4639
2026-01-11 01:59:57.59	202.44	23.22	-37.8	-39.6	20.5	0.00e+00	0	40	0	3160408064	46	4633
2026-01-11 01:59:58.59	202.43	23.08	-37.8	-39.6	20.5	0.00e+00	0	40	0	3165650944	46	4629
2026-01-11 01:59:59.59	202.42	22.93	-37.8	-39.6	20.5	0.00e+00	0	40	0	3170893824	46	4632
2026-01-11 02:00:00.59	202.41	22.78	-37.8	-39.6	20.5	0.00e+00	0	40	0	3177185280	46	4643
2026-01-11 02:00:01.60	202.40	22.63	-37.8	-39.6	20.5	0.00e+00	0	40	0	3182428160	46	4630
2026-01-11 02:00:02.60	202.39	22.49	-37.8	-39.6	20.5	0.00e+00	0	40	0	3187671040	46	4642
2026-01-11 02:00:03.61	202.38	22.34	-37.8	-39.6	20.5	0.00e+00	0	40	0	3193962496	46	4637
2026-01-11 02:00:04.61	202.37	22.20	-37.8	-39.6	20.5	0.00e+00	0	40	0	3199205376	46	4633
2026-01-11 02:00:05.61	202.36	22.05	-37.8	-39.7	20.5	0.00e+00	0	40	0	3205496832	46	4652
2026-01-11 02:00:06.62	202.35	21.91	-37.9	-39.7	20.4	0.00e+00	0	40	0	3210739712	46	4699
2026-01-11 02:00:07.62	202.35	21.77	-37.9	-39.7	20.4	0.00e+00	0	40	0	3217031168	46	4693
2026-01-11 02:00:08.62	202.34	21.63	-37.9	-39.8	20.4	0.00e+00	0	40	0	3222274048	46	4723
2026-01-11 02:00:09.62	202.33	21.49	-38.0	-39.8	20.3	0.00e+00	0	41	0	3227516928	46	4744
2026-01-11 02:00:10.63	202.32	21.34	-38.0	-39.9	20.3	0.00e+00	0	41	0	3233808384	46	4767
2026-01-11 02:00:11.63	202.31	21.21	-38.1	-39.9	20.2	0.00e+00	0	40	0	3239051264	46	4796
2026-01-11 02:00:12.63	202.30	21.07	-38.2	-40.0	20.1	0.00e+00	0	40	0	3244294144	47	4590
2026-01-11 02:00:13.63	202.29	20.93	-38.2	-40.0	20.1	0.00e+00	0	40	0	3250585600	47	4595
2026-01-11 02:00:14.63	202.29	20.79	-38.2	-40.0	20.1	0.00e+00	0	40	0	3255828480	47	4583
2026-01-11 02:00:15.64	202.28	20.66	-38.3	-40.2	20.0	0.00e+00	0	40	0	3261071360	47	4667
2026-01-11 02:00:16.64	202.27	20.52	-38.4	-40.2	19.9	0.00e+00	0	40	0	3267362816	47	4704
2026-01-11 02:00:17.65	202.26	20.39	-38.3	-40.2	20.0	0.00e+00	0	40	0	3272605696	47	4683
2026-01-11 02:00:18.65	202.25	20.25	-38.4	-40.3	19.9	0.00e+00	0	40	0	3278897152	47	4728
2026-01-11 02:00:19.66	202.25	20.12	-38.5	-40.4	19.8	0.00e+00	0	40	0	3284140032	47	4771
2026-01-11 02:00:20.66	202.24	19.99	-38.5	-40.4	19.8	0.00e+00	0	40	0	3290431488	47	4772
2026-01-11 02:00:21.66	202.23	19.86	-38.5	-40.4	19.8	0.00e+00	0	40	0	3295674368	47	4775
2026-01-11 02:00:22.67	202.22	19.72	-38.5	-40.4	19.8	0.00e+00	0	40	0	3300917248	47	4805
2026-01-11 02:00:23.67	202.22	19.59	-38.6	-40.5	19.7	0.00e+00	0	40	0	3307208704	47	4869
2026-01-11 02:00:24.67	202.21	19.47	-38.7	-40.6	19.8	0.00e+00	0	41	0	3312451584	48	4638
2026-01-11 02:00:25.68	202.20	19.34	-38.9	-40.8	19.7	0.00e+00	0	41	0	3317694464	48	4709
2026-01-11 02:00:26.68	202.19	19.21	-38.9	-40.8	19.7	0.00e+00	0	40	0	3323985920	48	4707
2026-01-11 02:00:27.69	202.19	19.08	-38.8	-40.7	19.8	0.00e+00	0	40	0	3329228800	48	4653
2026-01-11 02:00:28.69	202.18	18.95	-38.8	-40.7	19.8	0.00e+00	0	40	0	3334471680	48	4653
2026-01-11 02:00:29.69	202.17	18.83	-38.8	-40.7	19.7	0.00e+00	0	40	0	3340763136	48	4682
2026-01-11 02:00:30.69	202.17	18.70	-38.8	-40.7	19.7	0.00e+00	0	40	0	3346006016	48	4700
2026-01-11 02:00:31.69	202.16	18.58	-38.9	-40.8	19.7	0.00e+00	0	40	0	3352297472	48	4711
2026-01-11 02:00:32.70	202.15	18.45	-38.9	-40.8	19.7	0.00e+00	0	40	0	3357540352	48	4726
2026-01-11 02:00:33.70	202.15	18.33	-38.9	-40.8	19.7	0.00e+00	0	40	0	3362783232	48	4741
2026-01-11 02:00:34.71	202.14	18.20	-39.0	-40.9	19.6	0.00e+00	0	40	0	3369074688	48	4768
2026-01-11 02:00:35.71	202.13	18.08	-39.0	-40.9	19.6	0.00e+00	0	40	0	3374317568	48	4783
2026-01-11 02:00:36.71	202.13	17.96	-39.1	-41.0	19.5	0.00e+00	0	40	0	3380609024	48	4834
2026-01-11 02:00:37.72	202.12	17.84	-39.1	-41.0	19.5	0.00e+00	0	40	0	3385851904	48	4818
2026-01-11 02:00:38.72	202.11	17.72	-39.0	-40.9	19.5	0.00e+00	0	40	0	3391094784	48	4811
2026-01-11 02:00:39.72	202.11	17.60	-39.2	-41.1	19.4	0.00e+00	0	40	0	3397386240	49	4612
2026-01-11 02:00:40.73	202.10	17.48	-39.2	-41.1	19.4	0.00e+00	0	40	0	3402629120	49	4643
2026-01-11 02:00:41.73	202.10	17.36	-39.2	-41.1	19.4	0.00e+00	0	40	0	3407872000	49	4618
2026-01-11 02:00:42.74	202.09	17.24	-39.2	-41.2	19.3	0.00e+00	0	40	0	3414163456	49	4660
2026-01-11 02:00:43.74	202.08	17.12	-39.2	-41.1	19.4	0.00e+00	0	40	0	3419406336	49	4620
2026-01-11 02:00:44.74	202.08	17.00	-39.2	-41.1	19.4	0.00e+00	0	40	0	3425697792	49	4639
2026-01-11 02:00:45.75	202.07	16.89	-39.2	-41.2	19.3	0.00e+00	0	40	0	3430940672	49	4660
2026-01-11 02:00:46.75	202.07	16.77	-39.3	-41.2	19.3	0.00e+00	0	40	0	3436183552	49	4673
2026-01-11 02:00:47.75	202.06	16.66	-39.3	-41.3	19.2	0.00e+00	0	40	0	3442475008	49	4713
2026-01-11 02:00:48.76	202.06	16.54	-39.3	-41.2	19.3	0.00e+00	0	40	0	3447717888	49	4682
2026-01-11 02:00:49.76	202.05	16.43	-39.3	-41.3	19.2	0.00e+00	0	40	0	3454009344	49	4717
2026-01-11 02:00:50.77	202.05	16.31	-39.4	-41.3	19.2	0.00e+00	0	41	0	3459252224	49	4733
2026-01-11 02:00:51.77	202.04	16.20	-39.4	-41.4	18.9	0.00e+00	0	40	0	3464495104	49	4770
2026-01-11 02:00:52.77	202.04	16.09	-39.4	-41.4	19.1	0.00e+00	0	40	0	3470786560	49	4795
2026-01-11 02:00:53.77	202.03	15.97	-39.5	-41.4	19.1	0.00e+00	0	41	0	3476029440	49	4810
2026-01-11 02:00:54.78	202.02	15.86	-39.4	-41.4	19.1	0.00e+00	0	40	0	3482320896	49	4768
2026-01-11 02:00:55.78	202.02	15.75	-39.6	-41.5	19.0	0.00e+00	0	40	0	3487563776	49	4867
2026-01-11 02:00:56.78	202.01	15.64	-39.6	-41.6	18.9	0.00e+00	0	40	0	3492806656	49	4873
2026-01-11 02:00:57.79	202.01	15.53	-39.5	-41.5	19.0	0.00e+00	0	40	0	3499098112	49	4823
2026-01-11 02:00:58.79	202.00	15.42	-39.6	-41.5	19.0	0.00e+00	0	40	0	3504340992	49	4867
2026-01-11 02:00:59.79	202.00	15.31	-39.6	-41.5	18.9	0.00e+00	0	40	0	3509583872	49	4862
2026-01-11 02:01:00.80	202.00	15.20	-39.7	-41.7	18.9	0.00e+00	0	40	0	3515875328	50	4659
2026-01-11 02:01:01.80	201.99	15.09	-39.7	-41.6	18.9	0.00e+00	0	40	0	3521118208	50	4649
2026-01-11 02:01:02.81	201.99	14.98	-39.7	-41.7	18.8	0.00e+00	0	40	0	3526361088	50	4674
2026-01-11 02:01:03.81	201.98	14.88	-39.7	-41.7	18.8	0.00e+00	0	40	0	3532652544	50	4675
2026-01-11 02:01:04.82	201.98	14.77	-39.8	-41.8	18.7	0.00e+00	0	40	0	3537895424	50	4738
2026-01-11 02:01:05.82	201.97	14.66	-39.8	-41.8	18.7	0.00e+00	0	40	0	3544186880	50	4749
2026-01-11 02:01:06.82	201.97	14.56	-39.8	-41.8	18.7	0.00e+00	0	40	0	3549429760	50	4757
2026-01-11 02:01:07.83	201.96	14.45	-39.9	-41.9	18.6	0.00e+00	0	40	0	3555721216	50	4797
2026-01-11 02:01:08.82	201.96	14.35	-39.9	-41.9	18.6	0.00e+00	0	40	0	3560964096	50	4768
2026-01-11 02:01:09.83	201.95	14.24	-40.0	-42.0	18.5	0.00e+00	0	40	0	3566206976	50	4837
2026-01-11 02:01:10.83	201.95	14.14	-39.9	-41.9	18.6	0.00e+00	0	40	0	3572498432	50	4805
2026-01-11 02:01:11.84	201.95	14.03	-40.0	-42.0	18.5	0.00e+00	0	41	0	3577741312	50	4845
2026-01-11 02:01:12.84	201.94	13.93	-40.0	-42.0	18.5	0.00e+00	0	40	0	3582984192	50	4857
2026-01-11 02:01:13.85	201.94	13.83	-40.0	-42.0	18.5	0.00e+00	0	40	0	3589275648	50	4862
2026-01-11 02:01:14.85	201.93	13.72	-40.1	-42.1	18.4	0.00e+00	0	40	0	3594518528	50	4907
2026-01-11 02:01:15.85	201.93	13.62	-40.1	-42.1	18.4	0.00e+00	0	40	0	3599761408	50	4912
2026-01-11 02:01:16.86	201.93	13.52	-40.1	-42.2	18.3	0.00e+00	0	41	0	3606052864	50	4950
2026-01-11 02:01:17.86	201.92	13.42	-40.0	-42.1	18.4	0.00e+00	0	40	0	3611295744	50	4872
2026-01-11 02:01:18.86	201.92	13.32	-40.1	-42.2	18.3	0.00e+00	0	40	0	3617587200	50	4953
2026-01-11 02:01:19.87	201.91	13.22	-40.1	-42.1	18.4	0.00e+00	0	40	0	3622830080	50	4924
2026-01-11 02:01:20.87	201.91	13.12	-40.1	-42.2	18.3	0.00e+00	0	40	0	3629121536	50	4960
2026-01-11 02:01:21.87	201.91	13.02	-40.2	-42.2	18.3	0.00e+00	0	40	0	3634364416	51	4696
2026-01-11 02:01:22.88	201.90	12.92	-40.2	-42.2	18.3	0.00e+00	0	40	0	3639607296	51	4683
2026-01-11 02:01:23.88	201.90	12.82	-40.2	-42.3	18.2	0.00e+00	0	40	0	3645898752	51	4733
2026-01-11 02:01:24.89	201.89	12.72	-40.2	-42.3	18.2	0.00e+00	0	40	0	3651141632	51	4741
2026-01-11 02:01:25.89	201.89	12.62	-40.3	-42.4	18.1	0.00e+00	0	40	0	3656384512	51	4768
2026-01-11 02:01:26.89	201.89	12.53	-40.2	-42.3	18.2	0.00e+00	0	40	0	3662675968	51	4739
2026-01-11 02:01:27.90	201.88	12.43	-40.4	-42.5	18.1	0.00e+00	0	40	0	3667918848	51	4818
2026-01-11 02:01:28.90	201.88	12.33	-40.3	-42.4	18.1	0.00e+00	0	40	0	3673161728	51	4807
2026-01-11 02:01:29.91	201.88	12.24	-40.4	-42.4	18.1	0.00e+00	0	40	0	3679453184	51	4808
