passes_logs/2026/01/11/T1/T1__20260111_072426_SUOMI_NPP_rec.log

#Pass ID: 20260111_072426_SUOMI NPP
#Satellite: SUOMI NPP
#Configuration: NPP
#almurnet v.1.7.20251203
#Start time: 2026-01-11 07:24:28

#Version: 2.0.20230620
#Station: T1
#Location: 37.570604 lon 55.790049 lat
#TLE: 1 37849U 11061A   26009.81756760  .00000113  00000+0  74747-4 0  9994
#TLE: 2 37849  98.7806 311.9110 0002525  72.5604 287.5848 14.19524046735974

#Time	Az	El	Level	Level2	SNR	BER	BlckErr	Temp	State	Recorded	gain1	gain2
2026-01-11 07:24:28.44	74.86	5.11	-49.8	-65.2	3.8	1.49e+00	0	39	0	0	70	22081
2026-01-11 07:24:29.44	74.74	5.15	-49.8	-65.2	3.8	1.49e+00	0	39	104	0	70	22044
2026-01-11 07:24:30.45	74.61	5.20	-49.8	-65.2	3.8	1.49e+00	0	39	104	0	70	22095
2026-01-11 07:24:31.45	74.49	5.24	-49.8	-65.2	3.8	1.49e+00	0	40	104	0	70	22016
2026-01-11 07:24:32.46	74.37	5.28	-49.8	-65.2	3.8	1.49e+00	0	39	104	0	70	22009
2026-01-11 07:24:33.46	74.24	5.32	-49.8	-65.1	3.8	1.49e+00	0	40	104	0	70	21952
2026-01-11 07:24:34.47	74.12	5.37	-49.8	-65.1	3.8	1.49e+00	0	40	104	0	70	21932
2026-01-11 07:24:35.47	74.00	5.41	-49.7	-65.1	3.8	1.49e+00	0	40	104	0	70	21856
2026-01-11 07:24:36.47	73.87	5.45	-49.8	-65.1	3.8	1.49e+00	0	40	104	0	70	21916
2026-01-11 07:24:37.48	73.75	5.50	-49.8	-65.1	3.8	1.49e+00	0	40	104	0	70	21939
2026-01-11 07:24:38.48	73.62	5.54	-49.8	-65.1	3.8	1.49e+00	0	40	104	0	70	21938
2026-01-11 07:24:39.48	73.49	5.58	-49.8	-65.1	3.8	1.49e+00	0	40	104	0	70	21957
2026-01-11 07:24:40.49	73.37	5.63	-49.8	-65.1	3.8	1.49e+00	0	40	104	0	70	21994
2026-01-11 07:24:41.49	73.24	5.67	-49.7	-65.2	3.8	1.49e+00	0	40	104	0	70	22019
2026-01-11 07:24:42.50	73.11	5.71	-49.7	-65.2	3.8	1.49e+00	0	40	104	0	70	22009
2026-01-11 07:24:43.50	72.99	5.75	-49.7	-65.2	3.8	1.49e+00	0	40	104	0	70	22020
2026-01-11 07:24:44.50	72.86	5.79	-49.7	-65.2	3.8	1.49e+00	0	40	104	0	70	22031
2026-01-11 07:24:45.51	72.73	5.84	-49.8	-65.2	3.8	1.49e+00	0	40	104	0	70	22025
2026-01-11 07:24:46.51	72.60	5.88	-49.7	-65.1	3.8	1.49e+00	0	40	104	0	70	21971
2026-01-11 07:24:47.52	72.47	5.92	-49.7	-65.1	3.8	1.49e+00	0	40	104	0	70	21928
2026-01-11 07:24:48.52	72.34	5.96	-49.8	-65.1	3.8	1.49e+00	0	40	104	0	70	21914
2026-01-11 07:24:49.53	72.21	6.01	-49.7	-65.1	3.8	1.49e+00	0	40	104	0	70	21920
2026-01-11 07:24:50.53	72.08	6.05	-49.7	-65.1	3.8	1.49e+00	0	40	104	0	70	21887
2026-01-11 07:24:51.54	71.95	6.09	-49.7	-65.1	3.8	1.49e+00	0	40	104	0	70	21902
2026-01-11 07:24:52.54	71.82	6.13	-49.7	-65.1	3.8	1.49e+00	0	40	104	0	70	21960
2026-01-11 07:24:53.54	71.69	6.17	-49.7	-65.1	3.8	1.49e+00	0	40	104	0	70	21891
2026-01-11 07:24:54.55	71.56	6.22	-49.7	-65.1	3.8	1.49e+00	0	40	104	0	70	21906
2026-01-11 07:24:55.55	71.43	6.26	-49.7	-65.1	3.8	1.49e+00	0	40	104	0	70	21932
2026-01-11 07:24:56.56	71.29	6.30	-49.7	-65.1	3.8	1.49e+00	0	40	104	0	70	21949
2026-01-11 07:24:57.56	71.16	6.34	-49.7	-65.1	3.8	1.49e+00	0	40	104	0	70	21835
2026-01-11 07:24:58.57	71.03	6.38	-49.7	-65.1	3.8	1.49e+00	0	40	104	0	70	21885
2026-01-11 07:24:59.57	70.89	6.42	-49.7	-65.1	3.8	1.49e+00	0	40	104	0	70	21930
2026-01-11 07:25:00.58	70.76	6.47	-49.7	-65.1	3.8	1.49e+00	0	40	104	0	70	21909
2026-01-11 07:25:01.58	70.62	6.51	-49.7	-65.1	3.8	1.49e+00	0	40	104	0	70	21905
2026-01-11 07:25:02.58	70.49	6.55	-49.7	-65.1	3.8	1.49e+00	0	41	104	0	70	21893
2026-01-11 07:25:03.59	70.35	6.59	-49.7	-65.1	3.8	1.49e+00	0	41	104	0	70	21993
2026-01-11 07:25:04.59	70.22	6.63	-49.7	-65.1	3.8	1.49e+00	0	41	104	0	70	21976
2026-01-11 07:25:05.60	70.08	6.67	-49.8	-65.1	3.8	1.49e+00	0	41	104	0	70	21971
2026-01-11 07:25:06.60	69.95	6.71	-49.7	-65.2	3.8	1.49e+00	0	41	104	0	70	22095
2026-01-11 07:25:07.61	69.81	6.75	-49.7	-65.2	3.8	1.49e+00	0	41	104	0	70	22096
2026-01-11 07:25:08.61	69.67	6.79	-49.7	-65.2	3.8	1.49e+00	0	41	104	0	70	22009
2026-01-11 07:25:09.61	69.53	6.83	-49.7	-65.1	3.8	1.49e+00	0	41	104	0	70	21986
2026-01-11 07:25:10.62	69.40	6.87	-49.7	-65.1	3.8	1.49e+00	0	41	104	0	70	21960
2026-01-11 07:25:11.62	69.26	6.91	-49.7	-65.1	3.8	1.49e+00	0	41	104	0	70	21945
2026-01-11 07:25:12.63	69.12	6.95	-49.7	-65.2	3.8	1.49e+00	0	41	104	0	70	22041
2026-01-11 07:25:13.63	68.98	6.99	-49.7	-65.1	3.8	1.49e+00	0	41	104	0	70	21943
2026-01-11 07:25:14.63	68.84	7.03	-49.7	-65.1	3.8	1.49e+00	0	41	104	0	70	21951
2026-01-11 07:25:15.64	68.70	7.07	-49.7	-65.1	3.8	1.49e+00	0	41	104	0	70	21922
2026-01-11 07:25:16.64	68.56	7.11	-49.7	-65.1	3.8	1.49e+00	0	41	104	0	70	21866
2026-01-11 07:25:17.65	68.42	7.15	-49.7	-65.1	3.8	1.49e+00	0	41	104	0	70	21888
2026-01-11 07:25:18.65	68.28	7.19	-49.7	-65.0	3.8	1.49e+00	0	41	104	0	70	21595
2026-01-11 07:25:19.66	68.14	7.23	-49.7	-65.0	3.8	1.49e+00	0	41	104	0	70	21664
2026-01-11 07:25:20.66	67.99	7.27	-49.7	-65.0	3.8	1.49e+00	0	41	104	0	70	21619
2026-01-11 07:25:21.67	67.85	7.31	-49.7	-65.0	3.8	1.49e+00	0	41	104	0	70	21629
2026-01-11 07:25:22.67	67.71	7.35	-49.7	-65.0	3.8	1.49e+00	0	41	104	0	70	21664
2026-01-11 07:25:23.67	67.57	7.39	-49.7	-65.0	3.8	1.49e+00	0	41	104	0	70	21678
2026-01-11 07:25:24.68	67.42	7.43	-49.7	-65.1	3.8	1.49e+00	0	41	104	0	70	21804
2026-01-11 07:25:25.68	67.28	7.47	-49.7	-65.1	3.8	1.49e+00	0	41	104	0	70	21822
2026-01-11 07:25:26.69	67.13	7.51	-49.7	-65.0	3.8	1.49e+00	0	41	104	0	70	21710
2026-01-11 07:25:27.69	66.99	7.55	-49.7	-65.0	3.8	1.49e+00	0	41	104	0	70	21691
2026-01-11 07:25:28.70	66.84	7.59	-49.7	-65.1	3.8	1.49e+00	0	41	104	0	70	21846
2026-01-11 07:25:29.70	66.70	7.62	-49.7	-65.0	3.8	1.49e+00	0	41	104	0	70	21752
2026-01-11 07:25:30.70	66.55	7.66	-49.7	-65.0	3.8	1.49e+00	0	41	104	0	70	21722
2026-01-11 07:25:31.71	66.41	7.70	-49.7	-65.0	3.8	1.49e+00	0	41	104	0	70	21615
2026-01-11 07:25:32.71	66.26	7.74	-49.7	-65.0	3.8	1.49e+00	0	41	104	0	70	21545
2026-01-11 07:25:33.72	66.11	7.78	-49.7	-64.9	3.8	1.49e+00	0	41	104	0	70	21356
2026-01-11 07:25:34.72	65.97	7.81	-49.7	-64.8	3.8	1.49e+00	0	41	104	0	70	21051
2026-01-11 07:25:35.73	65.82	7.85	-49.7	-64.8	3.8	1.49e+00	0	41	104	0	70	21188
2026-01-11 07:25:36.73	65.67	7.89	-49.7	-64.9	3.8	1.49e+00	0	41	104	0	70	21338
2026-01-11 07:25:37.74	65.52	7.93	-49.7	-64.9	3.8	1.49e+00	0	41	104	0	70	21382
2026-01-11 07:25:38.74	65.37	7.96	-49.7	-64.9	3.8	1.49e+00	0	41	104	0	70	21477
2026-01-11 07:25:39.74	65.23	8.00	-49.7	-64.9	3.8	1.49e+00	0	41	104	0	70	21364
2026-01-11 07:25:40.75	65.07	8.04	-49.7	-64.9	3.8	1.49e+00	0	41	104	0	70	21332
2026-01-11 07:25:41.75	64.93	8.08	-49.7	-64.9	3.8	1.49e+00	0	41	104	0	70	21350
2026-01-11 07:25:42.75	64.78	8.11	-49.7	-64.8	3.8	1.49e+00	0	41	104	0	70	21172
2026-01-11 07:25:43.76	64.62	8.15	-49.7	-64.8	3.8	1.49e+00	0	41	104	0	70	21038
2026-01-11 07:25:44.76	64.47	8.19	-49.7	-64.5	3.8	1.49e+00	0	41	104	0	70	20435
2026-01-11 07:25:45.77	64.32	8.22	-49.7	-64.4	3.8	1.49e+00	0	41	104	0	70	20237
2026-01-11 07:25:46.77	64.17	8.26	-49.7	-64.4	3.8	1.49e+00	0	41	104	0	70	20194
2026-01-11 07:25:47.77	64.02	8.30	-49.7	-64.6	3.8	1.49e+00	0	41	104	0	70	20586
2026-01-11 07:25:48.78	63.86	8.33	-49.7	-64.8	3.8	1.49e+00	0	41	104	0	70	21050
2026-01-11 07:25:49.78	63.71	8.37	-49.7	-64.9	3.8	1.49e+00	0	41	104	0	70	21404
2026-01-11 07:25:50.79	63.56	8.40	-49.7	-65.0	3.8	1.49e+00	0	41	104	0	70	21593
2026-01-11 07:25:51.79	63.40	8.44	-49.7	-65.0	3.8	1.49e+00	0	41	104	0	70	21714
2026-01-11 07:25:52.80	63.25	8.47	-49.7	-64.8	3.8	1.49e+00	0	42	104	0	70	21081
2026-01-11 07:25:53.80	63.10	8.51	-49.7	-64.0	3.8	1.49e+00	0	41	104	0	70	19353
2026-01-11 07:25:54.81	62.94	8.55	-49.6	-63.0	3.8	1.49e+00	0	42	104	0	70	17236
2026-01-11 07:25:55.81	62.78	8.58	-49.6	-62.7	3.9	1.48e+00	0	41	104	0	70	16618
2026-01-11 07:25:56.81	62.63	8.62	-49.6	-63.5	3.8	1.49e+00	0	41	104	0	70	18255
2026-01-11 07:25:57.82	62.47	8.65	-49.7	-64.8	3.8	1.49e+00	0	41	104	0	70	21204
2026-01-11 07:25:58.82	62.32	8.68	-49.6	-63.5	3.8	1.49e+00	0	41	104	0	70	18102
2026-01-11 07:25:59.83	62.16	8.72	-49.2	-59.2	5.1	1.10e+00	0	42	0	0	70	11149
2026-01-11 07:26:00.83	62.00	8.75	-48.5	-55.7	7.9	2.35e-01	0	42	0	2097152	69	7882
2026-01-11 07:26:01.84	61.84	8.79	-47.6	-53.3	10.3	2.71e-02	0	42	0	4194304	67	6664
2026-01-11 07:26:02.84	61.69	8.82	-47.1	-52.2	11.5	1.40e-03	0	41	0	6291456	66	6247
2026-01-11 07:26:03.84	61.53	8.86	-46.9	-51.7	11.9	5.07e-04	0	42	0	7340032	65	6244
2026-01-11 07:26:04.85	61.37	8.89	-47.1	-52.1	11.5	4.14e-04	0	41	0	9437184	65	6538
2026-01-11 07:26:05.85	61.21	8.92	-47.8	-53.8	9.9	5.29e-03	0	42	0	11534336	66	7464
2026-01-11 07:26:06.86	61.05	8.96	-48.5	-56.0	7.6	4.01e-02	0	42	0	13631488	67	9136
2026-01-11 07:26:07.86	60.89	8.99	-49.3	-59.4	5.1	2.66e-01	0	42	0	15728640	69	12082
2026-01-11 07:26:08.86	60.73	9.02	-49.6	-63.2	3.8	1.46e+00	0	42	104	16777216	69	18556
2026-01-11 07:26:09.86	60.57	9.05	-49.6	-62.4	4.0	1.49e+00	0	42	104	16777216	69	17000
2026-01-11 07:26:10.87	60.41	9.09	-48.9	-57.1	6.7	1.22e+00	0	42	0	16777216	69	9219
2026-01-11 07:26:11.86	60.25	9.12	-49.7	-64.6	3.8	6.39e-01	0	41	104	17825792	70	20587
2026-01-11 07:26:12.87	60.09	9.15	-47.4	-52.6	10.9	7.51e-01	0	42	0	17825792	66	6537
2026-01-11 07:26:13.87	59.93	9.18	-49.7	-63.9	3.8	3.11e-01	0	42	104	18874368	70	19139
2026-01-11 07:26:14.87	59.76	9.22	-49.0	-57.3	6.5	1.49e+00	0	42	104	18874368	70	8877
2026-01-11 07:26:15.87	59.60	9.25	-48.8	-56.3	7.5	1.45e-01	0	42	0	19922944	69	8374
2026-01-11 07:26:16.88	59.44	9.28	-48.7	-55.9	7.8	7.29e-02	0	42	0	22020096	69	7997
2026-01-11 07:26:17.88	59.28	9.31	-48.3	-54.4	9.3	3.34e-02	0	41	0	24117248	68	7178
2026-01-11 07:26:18.88	59.11	9.34	-48.1	-53.8	10.0	1.42e-02	0	41	0	25165824	68	6671
2026-01-11 07:26:19.88	58.95	9.37	-47.7	-53.1	10.5	4.57e-03	0	42	0	27262976	67	6537
2026-01-11 07:26:20.88	58.79	9.40	-47.4	-52.4	11.3	1.49e-03	0	41	0	29360128	66	6384
2026-01-11 07:26:21.88	58.62	9.43	-47.0	-51.7	12.0	1.09e-03	0	42	0	31457280	66	5897
2026-01-11 07:26:22.88	58.46	9.46	-46.7	-51.1	12.7	1.32e-04	0	42	0	33554432	65	5790
2026-01-11 07:26:23.88	58.29	9.49	-46.7	-51.2	12.5	5.34e-05	0	42	0	34603008	65	5876
2026-01-11 07:26:24.88	58.13	9.52	-46.4	-50.6	13.1	5.34e-05	0	42	0	36700160	64	5838
2026-01-11 07:26:25.88	57.96	9.55	-46.5	-50.8	13.0	2.67e-05	0	42	0	38797312	64	5927
2026-01-11 07:26:26.88	57.80	9.58	-46.4	-50.7	13.1	3.66e-05	0	42	0	40894464	64	5881
2026-01-11 07:26:27.88	57.63	9.61	-46.3	-50.5	13.3	3.05e-05	0	42	0	41943040	64	5730
2026-01-11 07:26:28.88	57.46	9.64	-46.2	-50.3	13.5	1.14e-05	0	42	0	44040192	64	5627
2026-01-11 07:26:29.88	57.30	9.67	-46.2	-50.3	13.5	1.29e-05	0	42	0	46137344	64	5602
2026-01-11 07:26:30.89	57.13	9.70	-46.1	-49.9	13.8	1.37e-05	0	42	0	48234496	64	5394
2026-01-11 07:26:31.88	56.96	9.73	-46.0	-49.7	14.1	6.80e-06	0	42	0	50331648	63	5585
2026-01-11 07:26:32.88	56.79	9.76	-45.9	-49.6	14.2	4.50e-06	0	42	0	51380224	63	5521
2026-01-11 07:26:33.88	56.62	9.79	-45.8	-49.5	14.3	1.50e-06	0	42	0	53477376	63	5453
2026-01-11 07:26:34.87	56.46	9.81	-45.7	-49.3	14.6	0.00e+00	0	42	0	55574528	63	5316
2026-01-11 07:26:35.87	56.29	9.84	-45.5	-49.0	14.9	0.00e+00	0	42	0	57671680	62	5416
2026-01-11 07:26:36.87	56.12	9.87	-45.5	-49.0	14.9	0.00e+00	0	42	0	59768832	62	5410
2026-01-11 07:26:37.87	55.95	9.90	-45.3	-48.7	15.1	0.00e+00	0	42	0	60817408	62	5277
2026-01-11 07:26:38.87	55.78	9.92	-45.3	-48.6	15.2	0.00e+00	0	42	0	62914560	62	5217
2026-01-11 07:26:39.87	55.61	9.95	-45.3	-48.6	15.2	0.00e+00	0	42	0	65011712	62	5196
2026-01-11 07:26:40.87	55.44	9.98	-45.2	-48.5	15.3	0.00e+00	0	42	0	67108864	62	5153
2026-01-11 07:26:41.86	55.27	10.00	-45.2	-48.5	15.3	0.00e+00	0	42	0	68157440	62	5150
2026-01-11 07:26:42.87	55.10	10.03	-45.2	-48.5	15.3	0.00e+00	0	42	0	70254592	62	5149
2026-01-11 07:26:43.87	54.93	10.06	-45.2	-48.5	15.4	0.00e+00	0	42	0	72351744	62	5110
2026-01-11 07:26:44.86	54.76	10.08	-45.3	-48.7	15.3	0.00e+00	0	42	0	74448896	62	5221
2026-01-11 07:26:45.87	54.58	10.11	-45.1	-48.4	15.5	0.00e+00	0	42	0	76546048	62	5074
2026-01-11 07:26:46.87	54.41	10.13	-45.1	-48.3	15.5	0.00e+00	0	42	0	77594624	62	5026
2026-01-11 07:26:47.87	54.24	10.16	-45.1	-48.4	15.6	0.00e+00	0	42	0	79691776	62	5043
2026-01-11 07:26:48.87	54.06	10.18	-45.2	-48.5	15.4	0.00e+00	0	42	0	81788928	62	5134
2026-01-11 07:26:49.87	53.89	10.21	-45.3	-48.7	15.2	0.00e+00	0	42	0	83886080	62	5263
2026-01-11 07:26:50.87	53.72	10.23	-45.4	-48.9	15.0	0.00e+00	0	42	0	85983232	62	5371
2026-01-11 07:26:51.87	53.54	10.26	-45.5	-49.0	14.9	0.00e+00	0	42	0	87031808	62	5433
2026-01-11 07:26:52.88	53.37	10.28	-45.6	-49.2	14.6	0.00e+00	0	42	0	89128960	62	5588
2026-01-11 07:26:53.88	53.19	10.30	-45.9	-49.7	14.3	0.00e+00	0	42	0	91226112	62	5887
2026-01-11 07:26:54.88	53.02	10.33	-46.0	-49.9	14.0	7.00e-07	0	42	0	93323264	62	6028
2026-01-11 07:26:55.88	52.84	10.35	-46.1	-50.0	13.9	1.50e-06	0	42	0	95420416	62	6111
2026-01-11 07:26:56.88	52.67	10.37	-46.1	-50.1	13.8	3.80e-06	0	42	0	96468992	63	5848
2026-01-11 07:26:57.88	52.49	10.40	-46.1	-50.1	13.9	6.80e-06	0	42	0	98566144	63	5800
2026-01-11 07:26:58.88	52.32	10.42	-46.0	-49.9	14.1	7.00e-07	0	42	0	100663296	63	5665
2026-01-11 07:26:59.88	52.14	10.44	-46.1	-50.0	13.9	3.80e-06	0	42	0	102760448	63	5740
2026-01-11 07:27:00.88	51.97	10.47	-46.0	-49.8	14.1	5.30e-06	0	42	0	103809024	63	5604
2026-01-11 07:27:01.88	51.79	10.49	-46.0	-49.8	14.1	7.00e-07	0	42	0	105906176	63	5624
2026-01-11 07:27:02.89	51.61	10.51	-46.0	-49.8	14.1	0.00e+00	0	42	0	108003328	63	5629
2026-01-11 07:27:03.89	51.43	10.53	-46.1	-50.0	13.9	2.20e-06	0	42	0	110100480	63	5784
2026-01-11 07:27:04.89	51.26	10.55	-46.0	-49.8	14.1	1.50e-06	0	42	0	112197632	63	5628
2026-01-11 07:27:05.88	51.08	10.57	-46.1	-49.9	14.0	1.50e-06	0	42	0	113246208	63	5697
2026-01-11 07:27:06.88	50.90	10.59	-46.1	-49.9	14.0	7.00e-07	0	42	0	115343360	63	5709
2026-01-11 07:27:07.87	50.73	10.61	-46.0	-49.8	14.1	2.20e-06	0	42	0	117440512	63	5606
2026-01-11 07:27:08.87	50.55	10.63	-46.1	-50.0	13.9	3.80e-06	0	42	0	119537664	63	5725
2026-01-11 07:27:09.88	50.37	10.65	-46.1	-50.0	13.9	7.00e-07	0	42	0	121634816	63	5777
2026-01-11 07:27:10.88	50.19	10.67	-46.0	-49.8	14.1	1.50e-06	0	42	0	122683392	63	5655
2026-01-11 07:27:11.88	50.01	10.69	-45.9	-49.5	14.4	2.20e-06	0	42	0	124780544	63	5458
2026-01-11 07:27:12.88	49.83	10.71	-45.8	-49.5	14.5	1.50e-06	0	42	0	126877696	63	5433
2026-01-11 07:27:13.88	49.65	10.73	-45.7	-49.3	14.7	0.00e+00	0	42	0	128974848	63	5311
2026-01-11 07:27:14.88	49.47	10.75	-45.6	-49.1	14.8	7.00e-07	0	42	0	130023424	63	5211
2026-01-11 07:27:15.88	49.29	10.77	-45.6	-49.2	14.7	0.00e+00	0	42	0	132120576	63	5219
2026-01-11 07:27:16.88	49.11	10.79	-45.6	-49.1	14.9	0.00e+00	0	42	0	134217728	63	5185
2026-01-11 07:27:17.87	48.93	10.80	-45.5	-48.9	15.0	0.00e+00	0	42	0	136314880	62	5387
2026-01-11 07:27:18.87	48.75	10.82	-45.5	-48.9	15.0	0.00e+00	0	42	0	138412032	62	5378
2026-01-11 07:27:19.87	48.57	10.84	-45.5	-49.0	14.9	0.00e+00	0	42	0	139460608	62	5448
2026-01-11 07:27:20.86	48.39	10.86	-45.6	-49.1	14.9	0.00e+00	0	42	0	141557760	62	5466
2026-01-11 07:27:21.86	48.21	10.87	-45.7	-49.3	14.6	0.00e+00	0	42	0	143654912	62	5625
2026-01-11 07:27:22.86	48.03	10.89	-46.0	-49.7	14.2	1.50e-06	0	42	0	145752064	62	5899
2026-01-11 07:27:23.85	47.85	10.91	-45.8	-49.5	14.5	0.00e+00	0	42	0	147849216	62	5755
2026-01-11 07:27:24.85	47.67	10.92	-45.8	-49.5	14.4	1.50e-06	0	42	0	148897792	62	5760
2026-01-11 07:27:25.86	47.48	10.94	-45.6	-49.1	14.8	0.00e+00	0	42	0	150994944	62	5499
2026-01-11 07:27:26.86	47.30	10.95	-45.4	-48.8	15.1	0.00e+00	0	42	0	153092096	62	5325
2026-01-11 07:27:27.86	47.12	10.97	-45.3	-48.7	15.3	0.00e+00	0	42	0	155189248	62	5222
2026-01-11 07:27:28.86	46.93	10.98	-45.5	-49.0	15.0	0.00e+00	0	42	0	157286400	62	5405
2026-01-11 07:27:29.87	46.75	11.00	-45.6	-49.2	14.8	0.00e+00	0	42	0	158334976	62	5542
2026-01-11 07:27:30.86	46.57	11.01	-45.8	-49.4	14.6	0.00e+00	0	42	0	160432128	62	5677
2026-01-11 07:27:31.86	46.38	11.03	-45.8	-49.4	14.5	7.00e-07	0	42	0	162529280	62	5696
2026-01-11 07:27:32.86	46.20	11.04	-45.8	-49.4	14.6	1.50e-06	0	42	0	164626432	62	5686
2026-01-11 07:27:33.86	46.02	11.06	-45.6	-49.1	14.8	0.00e+00	0	42	0	165675008	62	5496
2026-01-11 07:27:34.85	45.84	11.07	-45.6	-49.1	14.8	0.00e+00	0	42	0	167772160	62	5517
2026-01-11 07:27:35.85	45.65	11.08	-45.6	-49.3	14.6	0.00e+00	0	42	0	169869312	62	5618
2026-01-11 07:27:36.84	45.47	11.09	-45.5	-49.1	14.8	0.00e+00	0	42	0	171966464	62	5470
2026-01-11 07:27:37.84	45.28	11.11	-45.5	-49.1	14.9	7.00e-07	0	42	0	174063616	62	5466
2026-01-11 07:27:38.84	45.10	11.12	-45.5	-49.0	15.0	7.00e-07	0	42	0	175112192	62	5408
2026-01-11 07:27:39.84	44.92	11.13	-45.3	-48.7	15.2	0.00e+00	0	42	0	177209344	62	5273
2026-01-11 07:27:40.84	44.73	11.14	-45.3	-48.7	15.3	0.00e+00	0	42	0	179306496	62	5241
2026-01-11 07:27:41.83	44.55	11.15	-45.2	-48.6	15.4	0.00e+00	0	42	0	181403648	62	5164
2026-01-11 07:27:42.83	44.36	11.17	-45.3	-48.7	15.3	0.00e+00	0	42	0	182452224	62	5231
2026-01-11 07:27:43.83	44.18	11.18	-45.6	-49.0	15.0	0.00e+00	0	42	0	184549376	62	5445
2026-01-11 07:27:44.83	43.99	11.19	-45.6	-49.2	14.8	0.00e+00	0	42	0	186646528	62	5541
2026-01-11 07:27:45.83	43.81	11.20	-45.6	-49.2	14.8	7.00e-07	0	42	0	188743680	62	5546
2026-01-11 07:27:46.83	43.62	11.21	-45.5	-49.0	15.0	0.00e+00	0	42	0	190840832	62	5416
2026-01-11 07:27:47.83	43.44	11.22	-45.6	-49.0	14.9	0.00e+00	0	42	0	191889408	62	5463
2026-01-11 07:27:48.83	43.25	11.23	-45.3	-48.7	15.2	0.00e+00	0	42	0	193986560	62	5236
2026-01-11 07:27:49.82	43.07	11.23	-45.1	-48.4	15.5	0.00e+00	0	42	0	196083712	62	5073
2026-01-11 07:27:50.82	42.88	11.24	-45.1	-48.4	15.6	0.00e+00	0	42	0	198180864	62	5048
2026-01-11 07:27:51.82	42.69	11.25	-45.0	-48.2	15.7	0.00e+00	0	42	0	200278016	61	5239
2026-01-11 07:27:52.83	42.51	11.26	-45.0	-48.2	15.8	0.00e+00	0	42	0	201326592	61	5239
2026-01-11 07:27:53.83	42.32	11.27	-45.0	-48.2	15.8	0.00e+00	0	42	0	203423744	61	5224
2026-01-11 07:27:54.82	42.13	11.28	-45.0	-48.2	15.8	0.00e+00	0	42	0	205520896	61	5220
2026-01-11 07:27:55.82	41.95	11.28	-44.8	-47.9	16.0	0.00e+00	0	42	0	207618048	61	5096
2026-01-11 07:27:56.82	41.76	11.29	-44.7	-47.7	16.3	0.00e+00	0	42	0	209715200	61	4963
2026-01-11 07:27:57.82	41.57	11.30	-44.7	-47.7	16.2	0.00e+00	0	42	0	210763776	61	4975
2026-01-11 07:27:58.82	41.39	11.30	-44.7	-47.7	16.2	0.00e+00	0	42	0	212860928	61	4961
2026-01-11 07:27:59.81	41.20	11.31	-44.7	-47.8	16.1	0.00e+00	0	42	0	214958080	61	5006
2026-01-11 07:28:00.82	41.01	11.32	-44.8	-48.0	15.9	0.00e+00	0	42	0	217055232	61	5132
2026-01-11 07:28:01.81	40.83	11.32	-44.8	-47.9	16.0	0.00e+00	0	42	0	218103808	61	5090
2026-01-11 07:28:02.81	40.64	11.33	-45.0	-48.2	15.7	0.00e+00	0	42	0	220200960	61	5263
2026-01-11 07:28:03.81	40.45	11.33	-45.0	-48.2	15.7	0.00e+00	0	42	0	222298112	61	5264
2026-01-11 07:28:04.81	40.27	11.34	-45.0	-48.4	15.5	0.00e+00	0	42	0	224395264	61	5374
2026-01-11 07:28:05.81	40.08	11.34	-45.1	-48.5	15.5	0.00e+00	0	42	0	226492416	61	5427
2026-01-11 07:28:06.81	39.89	11.35	-45.2	-48.6	15.4	0.00e+00	0	42	0	227540992	61	5465
2026-01-11 07:28:07.81	39.71	11.35	-45.2	-48.6	15.3	0.00e+00	0	42	0	229638144	61	5506
2026-01-11 07:28:08.80	39.52	11.35	-45.2	-48.6	15.3	0.00e+00	0	42	0	231735296	61	5490
2026-01-11 07:28:09.80	39.33	11.36	-45.1	-48.5	15.4	0.00e+00	0	42	0	233832448	61	5449
2026-01-11 07:28:10.80	39.14	11.36	-45.0	-48.4	15.5	0.00e+00	0	42	0	235929600	61	5368
2026-01-11 07:28:11.80	38.96	11.36	-45.0	-48.4	15.5	0.00e+00	0	42	0	236978176	61	5394
2026-01-11 07:28:12.80	38.77	11.36	-44.9	-48.4	15.6	0.00e+00	0	42	0	239075328	61	5355
2026-01-11 07:28:13.80	38.58	11.37	-44.8	-48.2	15.7	0.00e+00	0	42	0	241172480	61	5250
2026-01-11 07:28:14.80	38.39	11.37	-44.8	-48.2	15.7	0.00e+00	0	42	0	243269632	61	5234
2026-01-11 07:28:15.80	38.21	11.37	-44.8	-48.2	15.7	0.00e+00	0	42	0	244318208	61	5236
2026-01-11 07:28:16.80	38.02	11.37	-44.9	-48.3	15.6	0.00e+00	0	42	0	246415360	61	5327
2026-01-11 07:28:17.80	37.83	11.37	-45.0	-48.5	15.5	0.00e+00	0	42	0	248512512	61	5404
2026-01-11 07:28:18.79	37.65	11.37	-45.0	-48.5	15.5	0.00e+00	0	42	0	250609664	61	5404
2026-01-11 07:28:19.79	37.46	11.37	-45.1	-48.5	15.4	0.00e+00	0	42	0	252706816	61	5442
2026-01-11 07:28:20.79	37.27	11.37	-45.1	-48.4	15.5	0.00e+00	0	42	0	253755392	61	5402
2026-01-11 07:28:21.79	37.08	11.37	-45.2	-48.6	15.3	0.00e+00	0	42	0	255852544	61	5510
2026-01-11 07:28:22.79	36.90	11.37	-45.1	-48.4	15.5	0.00e+00	0	42	0	257949696	61	5391
2026-01-11 07:28:23.79	36.71	11.37	-45.1	-48.6	15.3	0.00e+00	0	42	0	260046848	61	5494
2026-01-11 07:28:24.79	36.52	11.37	-45.0	-48.4	15.5	0.00e+00	0	42	0	261095424	61	5380
2026-01-11 07:28:25.79	36.33	11.37	-45.0	-48.4	15.6	0.00e+00	0	42	0	263192576	61	5387
2026-01-11 07:28:26.79	36.14	11.37	-45.1	-48.5	15.5	0.00e+00	0	42	0	265289728	61	5441
2026-01-11 07:28:27.79	35.96	11.36	-45.2	-48.8	15.2	0.00e+00	0	42	0	267386880	61	5602
2026-01-11 07:28:28.80	35.77	11.36	-45.4	-49.0	15.0	7.00e-07	0	42	0	269484032	61	5732
2026-01-11 07:28:29.79	35.58	11.36	-45.4	-48.9	15.0	0.00e+00	0	42	0	270532608	61	5712
2026-01-11 07:28:30.79	35.39	11.36	-45.5	-49.0	14.9	7.00e-07	0	42	0	272629760	61	5778
2026-01-11 07:28:31.79	35.21	11.35	-45.5	-48.9	15.0	0.00e+00	0	42	0	274726912	61	5714
2026-01-11 07:28:32.79	35.02	11.35	-45.6	-49.1	14.9	0.00e+00	0	42	0	276824064	61	5800
2026-01-11 07:28:33.79	34.83	11.35	-45.4	-48.9	15.0	0.00e+00	0	42	0	278921216	61	5712
2026-01-11 07:28:34.80	34.64	11.34	-45.4	-49.0	15.0	0.00e+00	0	42	0	279969792	61	5761
2026-01-11 07:28:35.80	34.46	11.34	-45.3	-48.9	15.1	0.00e+00	0	42	0	282066944	61	5668
2026-01-11 07:28:36.80	34.27	11.33	-45.2	-48.7	15.3	0.00e+00	0	42	0	284164096	61	5535
2026-01-11 07:28:37.80	34.08	11.33	-45.1	-48.4	15.5	0.00e+00	0	42	0	286261248	61	5393
2026-01-11 07:28:38.80	33.89	11.32	-45.0	-48.4	15.6	0.00e+00	0	42	0	288358400	61	5352
2026-01-11 07:28:39.80	33.71	11.32	-45.1	-48.4	15.6	0.00e+00	0	42	0	289406976	61	5361
2026-01-11 07:28:40.80	33.52	11.31	-45.0	-48.3	15.7	0.00e+00	0	42	0	291504128	61	5315
2026-01-11 07:28:41.80	33.33	11.30	-45.1	-48.4	15.5	0.00e+00	0	42	0	293601280	61	5390
2026-01-11 07:28:42.81	33.15	11.30	-45.2	-48.7	15.3	0.00e+00	0	42	0	295698432	61	5584
2026-01-11 07:28:43.81	32.96	11.29	-45.4	-49.1	14.9	7.00e-07	0	42	0	297795584	61	5808
2026-01-11 07:28:44.80	32.77	11.28	-45.5	-49.4	14.7	0.00e+00	0	42	0	298844160	61	5997
2026-01-11 07:28:45.80	32.59	11.28	-45.5	-49.3	14.7	7.00e-07	0	42	0	300941312	61	5942
2026-01-11 07:28:46.80	32.40	11.27	-45.5	-49.2	14.8	0.00e+00	0	42	0	303038464	61	5887
2026-01-11 07:28:47.80	32.22	11.26	-45.5	-49.0	15.0	0.00e+00	0	42	0	305135616	61	5770
2026-01-11 07:28:48.80	32.03	11.25	-45.5	-49.1	15.0	0.00e+00	0	42	0	306184192	61	5796
2026-01-11 07:28:49.80	31.84	11.24	-45.5	-49.0	15.0	0.00e+00	0	42	0	308281344	61	5745
2026-01-11 07:28:50.80	31.66	11.23	-45.6	-49.0	14.9	0.00e+00	0	42	0	310378496	61	5787
2026-01-11 07:28:51.80	31.47	11.23	-45.6	-49.0	15.0	0.00e+00	0	42	0	312475648	61	5745
2026-01-11 07:28:52.80	31.29	11.22	-45.7	-49.2	14.8	0.00e+00	0	42	0	314572800	61	5889
2026-01-11 07:28:53.80	31.10	11.21	-45.7	-49.2	14.9	7.00e-07	0	42	0	315621376	62	5553
2026-01-11 07:28:54.80	30.92	11.20	-45.7	-49.3	14.8	0.00e+00	0	42	0	317718528	62	5617
2026-01-11 07:28:55.80	30.73	11.19	-45.8	-49.4	14.6	7.00e-07	0	42	0	319815680	62	5698
2026-01-11 07:28:56.80	30.54	11.18	-45.7	-49.3	14.7	0.00e+00	0	42	0	321912832	62	5629
2026-01-11 07:28:57.80	30.36	11.17	-45.7	-49.3	14.8	0.00e+00	0	42	0	322961408	62	5597
2026-01-11 07:28:58.80	30.18	11.15	-45.6	-49.2	14.8	0.00e+00	0	42	0	325058560	62	5561
2026-01-11 07:28:59.80	29.99	11.14	-45.4	-48.9	15.1	0.00e+00	0	42	0	327155712	62	5368
2026-01-11 07:29:00.80	29.81	11.13	-45.3	-48.8	15.2	0.00e+00	0	42	0	329252864	62	5302
2026-01-11 07:29:01.80	29.62	11.12	-45.3	-48.8	15.3	0.00e+00	0	42	0	331350016	62	5282
2026-01-11 07:29:02.80	29.44	11.11	-45.1	-48.6	15.5	0.00e+00	0	42	0	333447168	62	5172
2026-01-11 07:29:03.80	29.25	11.09	-45.0	-48.4	15.6	0.00e+00	0	42	0	334495744	61	5401
2026-01-11 07:29:04.81	29.07	11.08	-45.1	-48.6	15.4	0.00e+00	0	42	0	336592896	61	5504
2026-01-11 07:29:05.81	28.88	11.07	-45.2	-48.9	15.2	0.00e+00	0	42	0	338690048	61	5663
2026-01-11 07:29:06.81	28.70	11.05	-45.2	-48.8	15.2	0.00e+00	0	42	0	340787200	61	5607
2026-01-11 07:29:07.81	28.52	11.04	-45.3	-48.9	15.1	0.00e+00	0	42	0	341835776	61	5679
2026-01-11 07:29:08.81	28.33	11.03	-45.3	-48.9	15.2	0.00e+00	0	42	0	343932928	61	5663
2026-01-11 07:29:09.81	28.15	11.01	-45.3	-48.9	15.1	7.00e-07	0	42	0	346030080	61	5669
2026-01-11 07:29:10.81	27.97	11.00	-45.3	-48.9	15.1	0.00e+00	0	42	0	348127232	61	5664
2026-01-11 07:29:11.81	27.79	10.98	-45.3	-48.8	15.2	0.00e+00	0	42	0	350224384	61	5630
2026-01-11 07:29:12.81	27.60	10.97	-45.4	-48.9	15.2	0.00e+00	0	42	0	351272960	61	5691
2026-01-11 07:29:13.81	27.42	10.95	-45.3	-48.8	15.3	0.00e+00	0	42	0	353370112	61	5601
2026-01-11 07:29:14.81	27.24	10.94	-45.2	-48.6	15.4	0.00e+00	0	42	0	355467264	61	5514
2026-01-11 07:29:15.82	27.05	10.92	-45.0	-48.4	15.7	0.00e+00	0	42	0	357564416	61	5364
2026-01-11 07:29:16.82	26.87	10.91	-45.0	-48.3	15.6	0.00e+00	0	42	0	359661568	61	5324
2026-01-11 07:29:17.82	26.69	10.89	-44.9	-48.2	15.8	0.00e+00	0	42	0	360710144	61	5242
2026-01-11 07:29:18.82	26.51	10.87	-45.0	-48.3	15.7	0.00e+00	0	42	0	362807296	61	5335
2026-01-11 07:29:19.82	26.33	10.86	-45.1	-48.5	15.5	0.00e+00	0	42	0	364904448	61	5435
2026-01-11 07:29:20.82	26.15	10.84	-45.3	-48.8	15.2	0.00e+00	0	42	0	367001600	61	5656
2026-01-11 07:29:21.82	25.97	10.82	-45.4	-49.2	14.9	0.00e+00	0	42	0	368050176	61	5864
2026-01-11 07:29:22.83	25.79	10.80	-45.5	-49.2	14.8	0.00e+00	0	42	0	370147328	61	5903
2026-01-11 07:29:23.82	25.61	10.79	-45.7	-49.6	14.4	0.00e+00	0	42	0	372244480	62	5847
2026-01-11 07:29:24.82	25.43	10.77	-45.7	-49.6	14.6	0.00e+00	0	42	0	374341632	62	5790
2026-01-11 07:29:25.82	25.25	10.75	-45.6	-49.5	14.6	0.00e+00	0	42	0	376438784	62	5748
2026-01-11 07:29:26.82	25.07	10.73	-45.5	-49.2	14.8	7.00e-07	0	42	0	377487360	62	5553
2026-01-11 07:29:27.83	24.89	10.71	-45.5	-49.1	14.9	0.00e+00	0	42	0	379584512	62	5493
2026-01-11 07:29:28.82	24.71	10.69	-45.3	-48.7	15.3	0.00e+00	0	42	0	381681664	62	5253
2026-01-11 07:29:29.82	24.53	10.67	-45.3	-48.7	15.3	0.00e+00	0	42	0	383778816	62	5239
2026-01-11 07:29:30.82	24.35	10.65	-45.4	-48.8	15.2	0.00e+00	0	42	0	385875968	62	5316
2026-01-11 07:29:31.83	24.17	10.63	-45.3	-48.7	15.3	0.00e+00	0	42	0	386924544	62	5269
2026-01-11 07:29:32.83	23.99	10.61	-45.5	-48.9	15.0	0.00e+00	0	42	0	389021696	62	5390
2026-01-11 07:29:33.83	23.82	10.59	-45.5	-48.9	15.1	0.00e+00	0	42	0	391118848	62	5400
2026-01-11 07:29:34.84	23.64	10.57	-45.4	-48.9	15.1	0.00e+00	0	42	0	393216000	62	5367
2026-01-11 07:29:35.84	23.46	10.55	-45.5	-49.1	14.9	7.00e-07	0	42	0	395313152	62	5527
2026-01-11 07:29:36.84	23.28	10.53	-45.5	-49.1	14.9	7.00e-07	0	42	0	396361728	62	5508
2026-01-11 07:29:37.84	23.11	10.51	-45.5	-49.2	14.9	0.00e+00	0	42	0	398458880	62	5554
2026-01-11 07:29:38.83	22.93	10.49	-45.3	-48.9	15.1	0.00e+00	0	42	0	400556032	62	5386
2026-01-11 07:29:39.84	22.75	10.46	-45.2	-48.9	15.1	0.00e+00	0	42	0	402653184	62	5392
2026-01-11 07:29:40.84	22.58	10.44	-45.1	-48.8	15.2	0.00e+00	0	42	0	403701760	62	5328
2026-01-11 07:29:41.84	22.40	10.42	-45.0	-49.0	15.1	0.00e+00	0	42	0	405798912	62	5408
2026-01-11 07:29:42.84	22.23	10.40	-44.8	-48.9	15.2	0.00e+00	0	42	0	407896064	61	5681
2026-01-11 07:29:43.83	22.05	10.37	-44.8	-49.0	15.0	0.00e+00	0	42	0	409993216	61	5763
2026-01-11 07:29:44.84	21.88	10.35	-44.7	-48.9	15.2	0.00e+00	0	42	0	412090368	61	5685
2026-01-11 07:29:45.84	21.70	10.33	-44.5	-48.7	15.3	0.00e+00	0	42	0	413138944	61	5567
2026-01-11 07:29:46.84	21.53	10.30	-44.7	-48.9	15.1	0.00e+00	0	42	0	415236096	61	5722
2026-01-11 07:29:47.84	21.35	10.28	-44.7	-48.8	15.2	0.00e+00	0	42	0	417333248	61	5637
2026-01-11 07:29:48.84	21.18	10.26	-44.8	-48.8	15.3	0.00e+00	0	42	0	419430400	61	5610
2026-01-11 07:29:49.84	21.01	10.23	-44.8	-48.8	15.2	0.00e+00	0	42	0	421527552	61	5639
2026-01-11 07:29:50.84	20.83	10.21	-44.8	-48.7	15.4	0.00e+00	0	42	0	422576128	61	5537
2026-01-11 07:29:51.84	20.66	10.18	-44.9	-48.7	15.3	0.00e+00	0	42	0	424673280	61	5572
2026-01-11 07:29:52.84	20.49	10.16	-44.9	-48.6	15.4	7.00e-07	0	42	0	426770432	61	5523
2026-01-11 07:29:53.84	20.32	10.13	-44.9	-48.7	15.3	0.00e+00	0	42	0	428867584	61	5592
2026-01-11 07:29:54.84	20.15	10.11	-44.8	-48.5	15.5	0.00e+00	0	42	0	430964736	61	5425
2026-01-11 07:29:55.84	19.97	10.08	-44.9	-48.5	15.5	0.00e+00	0	42	0	432013312	61	5449
2026-01-11 07:29:56.84	19.80	10.05	-44.8	-48.4	15.6	0.00e+00	0	42	0	434110464	61	5368
2026-01-11 07:29:57.84	19.63	10.03	-44.9	-48.3	15.7	0.00e+00	0	42	0	436207616	61	5298
2026-01-11 07:29:58.84	19.46	10.00	-45.0	-48.4	15.6	0.00e+00	0	42	0	438304768	61	5382
2026-01-11 07:29:59.84	19.29	9.98	-45.3	-48.7	15.4	0.00e+00	0	42	0	439353344	61	5544
2026-01-11 07:30:00.84	19.12	9.95	-45.4	-48.8	15.3	0.00e+00	0	42	0	441450496	61	5607
2026-01-11 07:30:01.84	18.95	9.92	-45.5	-49.0	15.0	0.00e+00	0	42	0	443547648	61	5764
2026-01-11 07:30:02.84	18.78	9.90	-45.5	-49.0	15.1	0.00e+00	0	42	0	445644800	61	5737
2026-01-11 07:30:03.84	18.61	9.87	-45.3	-48.8	15.3	0.00e+00	0	42	0	447741952	61	5625
2026-01-11 07:30:04.85	18.44	9.84	-45.2	-48.7	15.3	0.00e+00	0	42	0	448790528	61	5570
2026-01-11 07:30:05.85	18.27	9.81	-45.0	-48.6	15.4	0.00e+00	0	42	0	450887680	61	5498
2026-01-11 07:30:06.85	18.11	9.78	-44.9	-48.4	15.7	0.00e+00	0	42	0	452984832	61	5357
2026-01-11 07:30:07.85	17.94	9.76	-44.9	-48.4	15.6	0.00e+00	0	42	0	455081984	61	5390
2026-01-11 07:30:08.85	17.77	9.73	-44.8	-48.3	15.7	0.00e+00	0	42	0	457179136	61	5320
2026-01-11 07:30:09.85	17.60	9.70	-44.8	-48.5	15.6	0.00e+00	0	42	0	458227712	61	5409
2026-01-11 07:30:10.85	17.44	9.67	-44.9	-48.6	15.4	0.00e+00	0	42	0	460324864	61	5488
2026-01-11 07:30:11.85	17.27	9.64	-44.9	-48.6	15.4	0.00e+00	0	42	0	462422016	61	5490
2026-01-11 07:30:12.85	17.11	9.61	-44.8	-48.6	15.4	0.00e+00	0	43	0	464519168	61	5518
2026-01-11 07:30:13.85	16.94	9.58	-44.8	-48.8	15.3	0.00e+00	0	42	0	465567744	61	5597
2026-01-11 07:30:14.85	16.77	9.55	-44.7	-48.7	15.3	0.00e+00	0	42	0	467664896	61	5529
2026-01-11 07:30:15.85	16.61	9.52	-44.6	-48.8	15.2	0.00e+00	0	42	0	469762048	61	5633
2026-01-11 07:30:16.85	16.44	9.49	-44.6	-48.8	15.2	0.00e+00	0	42	0	471859200	61	5634
2026-01-11 07:30:17.85	16.28	9.46	-44.5	-48.7	15.3	0.00e+00	0	42	0	473956352	61	5572
2026-01-11 07:30:18.86	16.12	9.43	-44.5	-48.8	15.2	0.00e+00	0	42	0	476053504	60	5963
2026-01-11 07:30:19.86	15.95	9.40	-44.5	-48.6	15.4	0.00e+00	0	42	0	477102080	60	5805
2026-01-11 07:30:20.86	15.79	9.37	-44.7	-48.7	15.3	0.00e+00	0	42	0	479199232	60	5861
2026-01-11 07:30:21.86	15.63	9.34	-44.9	-48.7	15.3	0.00e+00	0	42	0	481296384	60	5897
2026-01-11 07:30:22.86	15.46	9.31	-45.0	-48.6	15.3	0.00e+00	0	42	0	483393536	60	5855
2026-01-11 07:30:23.87	15.30	9.28	-45.1	-48.7	15.3	0.00e+00	0	43	0	484442112	60	5881
2026-01-11 07:30:24.87	15.14	9.25	-45.3	-48.9	15.1	0.00e+00	0	42	0	486539264	61	5670
2026-01-11 07:30:25.87	14.98	9.21	-45.5	-49.1	14.9	0.00e+00	0	42	0	488636416	61	5799
2026-01-11 07:30:26.87	14.81	9.18	-45.5	-49.1	14.9	0.00e+00	0	42	0	490733568	61	5802
2026-01-11 07:30:27.87	14.65	9.15	-45.6	-49.3	14.7	0.00e+00	0	42	0	492830720	61	5957
2026-01-11 07:30:28.87	14.49	9.12	-45.5	-49.2	14.9	7.00e-07	0	42	0	493879296	61	5870
2026-01-11 07:30:29.87	14.33	9.09	-45.4	-49.2	14.8	0.00e+00	0	42	0	495976448	61	5860
2026-01-11 07:30:30.88	14.17	9.05	-45.5	-49.2	14.7	0.00e+00	0	42	0	498073600	61	5922
2026-01-11 07:30:31.88	14.01	9.02	-45.4	-49.0	15.0	0.00e+00	0	43	0	500170752	61	5744
2026-01-11 07:30:32.88	13.85	8.99	-47.7	-53.9	10.5	0.00e+00	0	42	0	502267904	65	8016
2026-01-11 07:30:33.88	13.70	8.96	-48.4	-65.6	3.8	1.49e+00	0	42	104	502267904	68	26009
2026-01-11 07:30:34.89	13.54	8.92	-50.5	-65.7	3.8	1.49e+00	0	42	104	502267904	71	22172
2026-01-11 07:30:35.89	13.38	8.89	-50.1	-65.8	3.8	1.49e+00	0	42	104	502267904	71	22350
2026-01-11 07:30:36.89	13.22	8.86	-50.4	-65.8	3.8	1.49e+00	0	42	104	502267904	71	22448
2026-01-11 07:30:37.89	13.06	8.82	-50.4	-65.9	3.8	1.49e+00	0	42	104	502267904	71	22580
2026-01-11 07:30:38.90	12.91	8.79	-50.6	-65.9	3.8	1.49e+00	0	42	104	502267904	71	22665
2026-01-11 07:30:39.90	12.75	8.75	-50.7	-65.9	3.8	1.49e+00	0	42	104	502267904	71	22779
2026-01-11 07:30:40.90	12.59	8.72	-50.1	-66.0	3.8	1.49e+00	0	42	104	502267904	71	22873
2026-01-11 07:30:41.90	12.44	8.69	-50.6	-66.0	3.8	1.49e+00	0	43	104	502267904	72	21551
2026-01-11 07:30:42.91	12.28	8.65	-50.8	-66.0	3.8	1.49e+00	0	42	104	502267904	72	21583
2026-01-11 07:30:43.91	12.13	8.62	-50.7	-66.0	3.8	1.49e+00	0	42	104	502267904	72	21660
2026-01-11 07:30:44.91	11.97	8.58	-50.7	-66.0	3.8	1.49e+00	0	43	104	502267904	72	21699
2026-01-11 07:30:45.91	11.82	8.55	-50.7	-66.0	3.8	1.49e+00	0	42	104	502267904	72	21674
2026-01-11 07:30:46.91	11.66	8.51	-50.7	-66.0	3.8	1.49e+00	0	42	104	502267904	72	21713
2026-01-11 07:30:47.91	11.51	8.48	-50.7	-66.1	3.8	1.49e+00	0	42	104	502267904	72	21757
2026-01-11 07:30:48.92	11.36	8.44	-50.6	-66.0	3.8	1.49e+00	0	42	104	502267904	72	21686
2026-01-11 07:30:49.92	11.20	8.40	-50.8	-66.0	3.8	1.49e+00	0	42	104	502267904	72	21648
2026-01-11 07:30:50.92	11.05	8.37	-50.8	-66.0	3.8	1.49e+00	0	42	104	502267904	72	21664
2026-01-11 07:30:51.93	10.90	8.33	-50.8	-66.0	3.8	1.49e+00	0	42	104	502267904	72	21699
2026-01-11 07:30:52.93	10.75	8.30	-50.9	-66.0	3.8	1.49e+00	0	42	104	502267904	72	21690
2026-01-11 07:30:53.93	10.60	8.26	-50.9	-66.0	3.8	1.49e+00	0	42	104	502267904	72	21698
2026-01-11 07:30:54.93	10.44	8.23	-50.8	-66.0	3.8	1.49e+00	0	42	104	502267904	72	21701
2026-01-11 07:30:55.94	10.29	8.19	-50.7	-66.0	3.8	1.49e+00	0	43	104	502267904	72	21636
2026-01-11 07:30:56.94	10.14	8.15	-50.7	-66.0	3.8	1.49e+00	0	42	104	502267904	72	21747
2026-01-11 07:30:57.94	9.99	8.12	-50.7	-66.0	3.8	1.49e+00	0	43	104	502267904	72	21626
2026-01-11 07:30:58.94	9.84	8.08	-50.7	-66.0	3.8	1.49e+00	0	43	104	502267904	72	21600
2026-01-11 07:30:59.95	9.69	8.04	-50.7	-66.0	3.8	1.49e+00	0	43	104	502267904	72	21570
2026-01-11 07:31:00.95	9.55	8.00	-50.7	-66.0	3.8	1.49e+00	0	43	104	502267904	72	21554
2026-01-11 07:31:01.95	9.40	7.97	-50.7	-66.0	3.8	1.49e+00	0	42	104	502267904	72	21509
2026-01-11 07:31:02.95	9.25	7.93	-50.7	-66.0	3.8	1.49e+00	0	42	104	502267904	72	21586
2026-01-11 07:31:03.96	9.10	7.89	-50.6	-66.0	3.8	1.49e+00	0	42	104	502267904	72	21570
2026-01-11 07:31:04.96	8.96	7.86	-50.7	-65.9	3.8	1.49e+00	0	42	104	502267904	72	21498
2026-01-11 07:31:05.96	8.81	7.82	-50.6	-66.0	3.8	1.49e+00	0	42	104	502267904	72	21610
2026-01-11 07:31:06.97	8.66	7.78	-50.6	-66.0	3.8	1.49e+00	0	42	104	502267904	72	21508
2026-01-11 07:31:07.97	8.52	7.74	-50.6	-65.9	3.8	1.49e+00	0	42	104	502267904	72	21486
2026-01-11 07:31:08.97	8.37	7.70	-50.6	-65.9	3.8	1.49e+00	0	42	104	502267904	72	21452
2026-01-11 07:31:09.98	8.22	7.67	-50.6	-66.0	3.8	1.49e+00	0	42	104	502267904	72	21520
2026-01-11 07:31:10.98	8.08	7.63	-50.6	-66.0	3.8	1.49e+00	0	42	104	502267904	72	21523
2026-01-11 07:31:11.98	7.94	7.59	-50.6	-65.9	3.8	1.49e+00	0	42	104	502267904	72	21485
2026-01-11 07:31:12.98	7.79	7.55	-50.6	-66.0	3.8	1.49e+00	0	42	104	502267904	72	21513
2026-01-11 07:31:13.99	7.65	7.51	-50.6	-66.0	3.8	1.49e+00	0	42	104	502267904	72	21510
2026-01-11 07:31:14.99	7.50	7.47	-50.6	-66.0	3.8	1.49e+00	0	43	104	502267904	72	21534
2026-01-11 07:31:15.99	7.36	7.43	-50.6	-65.9	3.8	1.49e+00	0	42	104	502267904	72	21482
2026-01-11 07:31:17.00	7.22	7.40	-50.6	-65.9	3.8	1.49e+00	0	42	104	502267904	72	21466
2026-01-11 07:31:18.00	7.08	7.36	-50.6	-65.9	3.8	1.49e+00	0	42	104	502267904	72	21445
2026-01-11 07:31:19.00	6.94	7.32	-50.6	-66.0	3.8	1.49e+00	0	43	104	502267904	72	21511
2026-01-11 07:31:20.01	6.79	7.28	-50.6	-65.9	3.8	1.49e+00	0	43	104	502267904	72	21486
2026-01-11 07:31:21.01	6.65	7.24	-50.6	-65.9	3.8	1.49e+00	0	42	104	502267904	72	21480
2026-01-11 07:31:22.01	6.51	7.20	-50.6	-65.9	3.8	1.49e+00	0	42	104	502267904	72	21495
2026-01-11 07:31:23.01	6.37	7.16	-50.6	-66.0	3.8	1.49e+00	0	43	104	502267904	72	21512
2026-01-11 07:31:24.02	6.23	7.12	-50.6	-65.9	3.8	1.49e+00	0	43	104	502267904	72	21397
2026-01-11 07:31:25.02	6.09	7.08	-50.6	-65.9	3.8	1.49e+00	0	43	104	502267904	72	21441
2026-01-11 07:31:26.02	5.95	7.04	-50.6	-65.9	3.8	1.49e+00	0	42	104	502267904	72	21463
2026-01-11 07:31:27.02	5.82	7.00	-50.6	-65.9	3.8	1.49e+00	0	42	104	502267904	72	21439
2026-01-11 07:31:28.03	5.68	6.96	-50.6	-65.9	3.8	1.49e+00	0	43	104	502267904	72	21486
2026-01-11 07:31:29.03	5.54	6.92	-50.6	-65.9	3.8	1.49e+00	0	42	104	502267904	72	21503
2026-01-11 07:31:30.03	5.40	6.88	-50.6	-65.9	3.8	1.49e+00	0	42	104	502267904	72	21418
2026-01-11 07:31:31.03	5.27	6.84	-50.6	-66.0	3.8	1.49e+00	0	43	104	502267904	72	21532
2026-01-11 07:31:32.04	5.13	6.80	-50.6	-66.0	3.8	1.49e+00	0	42	104	502267904	72	21535
2026-01-11 07:31:33.04	4.99	6.76	-50.6	-65.9	3.8	1.49e+00	0	42	104	502267904	72	21441
2026-01-11 07:31:34.04	4.86	6.72	-50.6	-65.9	3.8	1.49e+00	0	42	104	502267904	72	21473
2026-01-11 07:31:35.04	4.72	6.68	-50.6	-65.9	3.8	1.49e+00	0	43	104	502267904	72	21474
2026-01-11 07:31:36.04	4.59	6.64	-50.6	-65.9	3.8	1.49e+00	0	43	104	502267904	72	21428
2026-01-11 07:31:37.05	4.45	6.60	-50.6	-65.9	3.8	1.49e+00	0	42	104	502267904	72	21468
2026-01-11 07:31:38.05	4.32	6.56	-50.6	-65.9	3.8	1.49e+00	0	43	104	502267904	72	21441
2026-01-11 07:31:39.05	4.18	6.51	-50.6	-65.9	3.8	1.49e+00	0	42	104	502267904	72	21475
2026-01-11 07:31:40.06	4.05	6.47	-50.6	-65.9	3.8	1.49e+00	0	43	104	502267904	72	21419
2026-01-11 07:31:41.06	3.92	6.43	-50.6	-65.9	3.8	1.49e+00	0	43	104	502267904	72	21455
2026-01-11 07:31:42.06	3.78	6.39	-50.6	-65.9	3.8	1.49e+00	0	42	104	502267904	72	21428
2026-01-11 07:31:43.07	3.65	6.35	-50.6	-65.9	3.8	1.49e+00	0	42	104	502267904	72	21427
2026-01-11 07:31:44.07	3.52	6.31	-50.6	-65.9	3.8	1.49e+00	0	42	104	502267904	72	21414
2026-01-11 07:31:45.08	3.39	6.27	-50.6	-65.9	3.8	1.49e+00	0	43	104	502267904	72	21457
2026-01-11 07:31:46.08	3.26	6.22	-50.6	-65.9	3.8	1.49e+00	0	43	104	502267904	72	21463
2026-01-11 07:31:47.09	3.12	6.18	-50.6	-65.9	3.8	1.49e+00	0	42	104	502267904	72	21446
2026-01-11 07:31:48.09	2.99	6.14	-50.6	-65.9	3.8	1.49e+00	0	43	104	502267904	72	21421
2026-01-11 07:31:49.09	2.86	6.10	-50.6	-65.9	3.8	1.49e+00	0	42	104	502267904	72	21425
2026-01-11 07:31:50.10	2.73	6.06	-50.6	-65.9	3.8	1.49e+00	0	42	104	502267904	72	21458
2026-01-11 07:31:51.10	2.60	6.02	-50.6	-65.9	3.8	1.49e+00	0	42	104	502267904	72	21417
2026-01-11 07:31:52.10	2.48	5.97	-50.6	-65.9	3.8	1.49e+00	0	42	104	502267904	72	21348
2026-01-11 07:31:53.11	2.35	5.93	-50.6	-65.9	3.8	1.49e+00	0	42	104	502267904	72	21442
2026-01-11 07:31:54.11	2.22	5.89	-50.6	-65.9	3.8	1.49e+00	0	43	104	502267904	72	21406
2026-01-11 07:31:55.11	2.09	5.85	-50.6	-65.9	3.8	1.49e+00	0	42	104	502267904	72	21408
2026-01-11 07:31:56.12	1.96	5.80	-50.6	-65.9	3.8	1.49e+00	0	42	104	502267904	72	21345
2026-01-11 07:31:57.12	1.84	5.76	-50.6	-65.9	3.8	1.49e+00	0	43	104	502267904	72	21386
2026-01-11 07:31:58.13	1.71	5.72	-50.6	-65.9	3.8	1.49e+00	0	42	104	502267904	72	21388
2026-01-11 07:31:59.13	1.58	5.68	-50.6	-65.9	3.8	1.49e+00	0	42	104	502267904	72	21417
2026-01-11 07:32:00.13	1.46	5.63	-50.6	-65.9	3.8	1.49e+00	0	42	104	502267904	72	21405
2026-01-11 07:32:01.14	1.33	5.59	-50.6	-65.9	3.8	1.49e+00	0	43	104	502267904	72	21385
2026-01-11 07:32:02.14	1.21	5.55	-50.6	-65.9	3.8	1.49e+00	0	43	104	502267904	72	21400
2026-01-11 07:32:03.14	1.08	5.51	-50.6	-65.9	3.8	1.49e+00	0	42	104	502267904	72	21371
2026-01-11 07:32:04.15	0.96	5.46	-50.6	-65.9	3.8	1.49e+00	0	43	104	502267904	72	21438
2026-01-11 07:32:05.15	0.83	5.42	-50.6	-65.9	3.8	1.49e+00	0	43	104	502267904	72	21441
2026-01-11 07:32:06.15	0.71	5.38	-50.6	-65.9	3.8	1.49e+00	0	43	104	502267904	72	21452
2026-01-11 07:32:07.16	0.59	5.34	-50.6	-65.9	3.8	1.49e+00	0	42	104	502267904	72	21434
2026-01-11 07:32:08.16	0.46	5.29	-50.6	-65.9	3.8	1.49e+00	0	42	104	502267904	72	21394
2026-01-11 07:32:09.17	0.34	5.25	-50.6	-65.9	3.8	1.49e+00	0	43	104	502267904	72	21366
2026-01-11 07:32:10.17	0.22	5.21	-50.6	-65.9	3.8	1.49e+00	0	43	104	502267904	72	21366
2026-01-11 07:32:11.17	0.10	5.16	-50.6	-65.9	3.8	1.49e+00	0	43	104	502267904	72	21388
2026-01-11 07:32:12.17	359.98	5.12	-50.6	-65.9	3.8	1.49e+00	0	43	104	502267904	72	21439
2026-01-11 07:32:13.18	359.85	5.08	-50.6	-65.9	3.8	1.49e+00	0	42	104	502267904	72	21328
2026-01-11 07:32:14.18	359.73	5.03	-50.6	-65.9	3.8	1.49e+00	0	43	104	502267904	72	21371
2026-01-11 07:32:15.18	359.61	4.99	-50.6	-65.9	3.8	1.49e+00	0	43	104	502267904	72	21386

#Closed at: 2026-01-11 07:32:16
#Recorded file [502 MB]: D:/Data/31040_260111_102428.dat