passes_logs/2026/01/11/T1/T1__20260111_065645_KHAYYAM_rec.log

#Pass ID: 20260111_065645_KHAYYAM
#Satellite: KHAYYAM
#Configuration: KHAYYAM_480M
#almurnet v.1.7.20251203
#Start time: 2026-01-11 06:56:46

#Version: 2.0.20230620
#Station: T1
#Location: 37.570604 lon 55.790049 lat
#TLE: 1 53370U 22096A   26009.96900081  .00005797  00000+0  23664-3 0  9998
#TLE: 2 53370  97.3557 277.0694 0001291  96.0659 264.0726 15.24786278190477

#Time	Az	El	Level	Level2	SNR	BER	BlckErr	Temp	State	Recorded	gain1	gain2
2026-01-11 06:56:46.34	128.01	5.08	-52.8	-57.3	3.6	0.00e+00	0	42	0	0	77	23724
2026-01-11 06:56:47.34	127.92	5.15	-52.8	-57.2	3.7	0.00e+00	0	42	104	0	76	25060
2026-01-11 06:56:48.34	127.83	5.22	-52.8	-57.3	3.7	0.00e+00	0	42	104	0	76	25096
2026-01-11 06:56:49.35	127.74	5.30	-52.8	-57.3	3.7	0.00e+00	0	42	104	0	76	25095
2026-01-11 06:56:50.35	127.65	5.38	-52.8	-57.2	3.7	0.00e+00	0	43	104	0	76	25083
2026-01-11 06:56:51.36	127.55	5.45	-52.8	-57.3	3.7	0.00e+00	0	42	104	0	76	25106
2026-01-11 06:56:52.36	127.46	5.53	-52.8	-57.3	3.7	0.00e+00	0	42	104	0	76	25108
2026-01-11 06:56:53.36	127.37	5.60	-52.8	-57.3	3.7	0.00e+00	0	43	104	0	76	25102
2026-01-11 06:56:54.37	127.27	5.68	-52.8	-57.3	3.7	0.00e+00	0	42	104	0	76	25199
2026-01-11 06:56:55.38	127.18	5.76	-52.8	-57.2	3.7	0.00e+00	0	43	104	0	76	25068
2026-01-11 06:56:56.38	127.08	5.84	-52.8	-57.2	3.7	0.00e+00	0	43	104	0	76	25052
2026-01-11 06:56:57.38	126.98	5.91	-52.8	-57.3	3.7	0.00e+00	0	43	104	0	76	25178
2026-01-11 06:56:58.39	126.89	5.99	-52.8	-57.3	3.7	0.00e+00	0	43	104	0	76	25156
2026-01-11 06:56:59.39	126.79	6.07	-52.8	-57.3	3.7	0.00e+00	0	43	104	0	76	25188
2026-01-11 06:57:00.39	126.69	6.15	-52.8	-57.3	3.7	0.00e+00	0	43	104	0	76	25136
2026-01-11 06:57:01.40	126.59	6.22	-52.8	-57.3	3.7	0.00e+00	0	43	104	0	76	25116
2026-01-11 06:57:02.40	126.49	6.30	-52.8	-57.3	3.7	0.00e+00	0	43	104	0	76	25115
2026-01-11 06:57:03.41	126.39	6.38	-52.8	-57.3	3.7	0.00e+00	0	43	104	0	76	25096
2026-01-11 06:57:04.41	126.29	6.46	-52.8	-57.2	3.7	0.00e+00	0	44	104	0	76	25093
2026-01-11 06:57:05.41	126.19	6.54	-52.8	-57.3	3.7	0.00e+00	0	44	104	0	76	25148
2026-01-11 06:57:06.42	126.08	6.62	-52.8	-57.3	3.7	0.00e+00	0	44	104	0	76	25105
2026-01-11 06:57:07.42	125.98	6.70	-52.8	-57.2	3.7	0.00e+00	0	44	104	0	76	25063
2026-01-11 06:57:08.43	125.87	6.78	-52.8	-57.3	3.7	0.00e+00	0	43	104	0	76	25120
2026-01-11 06:57:09.43	125.77	6.86	-52.8	-57.3	3.7	0.00e+00	0	44	104	0	76	25109
2026-01-11 06:57:10.44	125.66	6.94	-52.8	-57.2	3.7	0.00e+00	0	44	104	0	76	25072
2026-01-11 06:57:11.44	125.56	7.02	-52.8	-57.3	3.7	0.00e+00	0	44	104	0	76	25128
2026-01-11 06:57:12.44	125.45	7.10	-52.8	-57.2	3.7	0.00e+00	0	44	104	0	76	25080
2026-01-11 06:57:13.45	125.34	7.18	-52.8	-57.2	3.7	0.00e+00	0	44	104	0	76	25078
2026-01-11 06:57:14.45	125.23	7.27	-52.8	-57.2	3.7	0.00e+00	0	44	104	0	76	25074
2026-01-11 06:57:15.46	125.12	7.35	-52.8	-57.3	3.7	0.00e+00	0	44	104	0	76	25125
2026-01-11 06:57:16.46	125.01	7.43	-52.8	-57.2	3.7	0.00e+00	0	44	104	0	76	25090
2026-01-11 06:57:17.46	124.90	7.51	-52.8	-57.3	3.7	0.00e+00	0	45	104	0	76	25095
2026-01-11 06:57:18.47	124.79	7.60	-52.8	-57.3	3.7	0.00e+00	0	44	104	0	76	25095
2026-01-11 06:57:19.47	124.68	7.68	-52.8	-57.2	3.7	0.00e+00	0	44	104	0	76	25029
2026-01-11 06:57:20.48	124.56	7.76	-52.8	-57.2	3.7	0.00e+00	0	45	104	0	76	25092
2026-01-11 06:57:21.48	124.45	7.85	-52.8	-57.2	3.7	0.00e+00	0	44	104	0	76	25079
2026-01-11 06:57:22.49	124.33	7.93	-52.8	-57.3	3.7	0.00e+00	0	44	104	0	76	25100
2026-01-11 06:57:23.49	124.21	8.01	-52.8	-57.3	3.7	0.00e+00	0	45	104	0	76	25146
2026-01-11 06:57:24.49	124.10	8.10	-52.8	-57.3	3.7	0.00e+00	0	45	104	0	76	25108
2026-01-11 06:57:25.50	123.98	8.18	-52.8	-57.2	3.7	0.00e+00	0	45	104	0	76	25018
2026-01-11 06:57:26.50	123.86	8.27	-52.7	-57.2	3.7	0.00e+00	0	45	104	0	76	24903
2026-01-11 06:57:27.51	123.74	8.35	-52.7	-57.1	3.7	0.00e+00	0	45	104	0	76	24767
2026-01-11 06:57:28.51	123.62	8.44	-52.7	-57.0	3.7	0.00e+00	0	45	104	0	76	24511
2026-01-11 06:57:29.52	123.50	8.53	-52.7	-57.0	3.7	0.00e+00	0	45	104	0	76	24475
2026-01-11 06:57:30.52	123.37	8.61	-52.7	-57.1	3.7	0.00e+00	0	45	104	0	76	24609
2026-01-11 06:57:31.53	123.25	8.70	-52.7	-57.1	3.7	0.00e+00	0	45	104	0	76	24645
2026-01-11 06:57:32.53	123.13	8.78	-52.7	-57.2	3.7	0.00e+00	0	45	104	0	76	24822
2026-01-11 06:57:33.53	123.00	8.87	-52.8	-57.2	3.7	0.00e+00	0	45	104	0	76	25040
2026-01-11 06:57:34.54	122.87	8.96	-52.8	-57.2	3.7	0.00e+00	0	45	104	0	76	25064
2026-01-11 06:57:35.54	122.75	9.05	-52.8	-57.2	3.7	0.00e+00	0	45	104	0	76	25059
2026-01-11 06:57:36.54	122.62	9.13	-52.8	-57.3	3.7	0.00e+00	0	45	104	0	76	25224
2026-01-11 06:57:37.55	122.49	9.22	-52.8	-57.2	3.7	0.00e+00	0	45	104	0	76	24994
2026-01-11 06:57:38.55	122.36	9.31	-52.8	-57.2	3.7	0.00e+00	0	45	104	0	76	25052
2026-01-11 06:57:39.55	122.23	9.40	-52.8	-57.3	3.7	0.00e+00	0	45	104	0	76	25197
2026-01-11 06:57:40.56	122.10	9.49	-52.7	-57.2	3.7	0.00e+00	0	45	104	0	76	24861
2026-01-11 06:57:41.56	121.96	9.58	-52.7	-57.1	3.7	0.00e+00	0	45	104	0	76	24660
2026-01-11 06:57:42.56	121.83	9.67	-52.8	-57.2	3.7	0.00e+00	0	45	104	0	76	25019
2026-01-11 06:57:43.57	121.69	9.76	-52.9	-57.3	3.7	0.00e+00	0	45	104	0	76	25342
2026-01-11 06:57:44.57	121.56	9.85	-52.8	-57.1	3.7	0.00e+00	0	46	104	0	76	24772
2026-01-11 06:57:45.57	121.42	9.94	-52.7	-57.1	3.6	0.00e+00	0	45	104	0	76	24693
2026-01-11 06:57:46.58	121.28	10.03	-52.9	-57.3	3.7	0.00e+00	0	46	104	0	76	25159
2026-01-11 06:57:47.58	121.14	10.12	-52.9	-57.4	3.7	0.00e+00	0	46	104	0	76	25390
2026-01-11 06:57:48.58	121.00	10.21	-52.9	-57.3	3.7	0.00e+00	0	45	104	0	76	25228
2026-01-11 06:57:49.59	120.86	10.31	-52.8	-57.3	3.7	0.00e+00	0	46	104	0	76	25157
2026-01-11 06:57:50.59	120.71	10.40	-52.9	-57.3	3.7	0.00e+00	0	46	104	0	76	25248
2026-01-11 06:57:51.69	120.56	10.50	-52.9	-57.4	3.7	0.00e+00	0	46	104	0	76	25500
2026-01-11 06:57:52.55	120.43	10.58	-52.9	-57.4	3.7	0.00e+00	0	46	104	0	76	25455
2026-01-11 06:57:53.69	120.26	10.69	-53.0	-57.5	3.7	0.00e+00	0	46	104	0	76	25839
2026-01-11 06:57:54.65	120.12	10.78	-53.0	-57.5	3.7	0.00e+00	0	46	104	0	76	25722
2026-01-11 06:57:55.65	119.98	10.87	-53.1	-57.5	3.7	0.00e+00	0	46	104	0	76	25973
2026-01-11 06:57:56.66	119.82	10.96	-53.0	-57.5	3.7	0.00e+00	0	46	104	0	76	25751
2026-01-11 06:57:57.66	119.67	11.06	-53.1	-57.5	3.7	0.00e+00	0	46	104	0	76	25758
2026-01-11 06:57:58.66	119.52	11.15	-53.1	-57.5	3.7	0.00e+00	0	46	104	0	76	25799
2026-01-11 06:57:59.67	119.37	11.25	-53.1	-57.5	3.7	0.00e+00	0	46	104	0	76	25880
2026-01-11 06:58:00.67	119.21	11.35	-53.0	-57.5	3.7	0.00e+00	0	46	104	0	76	25758
2026-01-11 06:58:01.67	119.06	11.44	-53.1	-57.5	3.7	0.00e+00	0	46	104	0	76	25920
2026-01-11 06:58:02.67	118.90	11.54	-53.1	-57.5	3.7	0.00e+00	0	46	104	0	76	25759
2026-01-11 06:58:03.68	118.74	11.63	-53.1	-57.5	3.7	0.00e+00	0	46	104	0	76	25976
2026-01-11 06:58:04.68	118.58	11.73	-53.1	-57.5	3.7	0.00e+00	0	46	104	0	76	25860
2026-01-11 06:58:05.76	118.41	11.84	-53.1	-57.5	3.7	0.00e+00	0	46	104	0	76	25924
2026-01-11 06:58:06.66	118.26	11.92	-53.2	-57.6	3.7	0.00e+00	0	46	104	0	76	26025
2026-01-11 06:58:07.68	118.09	12.02	-53.2	-57.6	3.7	0.00e+00	0	46	104	0	77	24631
2026-01-11 06:58:08.68	117.93	12.12	-53.1	-57.5	3.7	0.00e+00	0	46	104	0	77	24370
2026-01-11 06:58:09.69	117.76	12.22	-53.1	-57.5	3.7	0.00e+00	0	46	104	0	77	24428
2026-01-11 06:58:10.69	117.59	12.32	-53.1	-57.5	3.7	0.00e+00	0	46	104	0	77	24508
2026-01-11 06:58:11.69	117.42	12.42	-53.1	-57.5	3.7	0.00e+00	0	46	104	0	77	24482
2026-01-11 06:58:12.70	117.25	12.52	-53.0	-57.5	3.7	0.00e+00	0	46	104	0	77	24503
2026-01-11 06:58:13.70	117.08	12.62	-53.0	-57.5	3.7	0.00e+00	0	46	104	0	77	24440
2026-01-11 06:58:14.70	116.91	12.72	-53.0	-57.5	3.7	0.00e+00	0	46	104	0	77	24476
2026-01-11 06:58:15.71	116.73	12.82	-53.0	-57.5	3.7	0.00e+00	0	46	104	0	77	24502
2026-01-11 06:58:16.71	116.55	12.92	-53.1	-57.6	3.7	0.00e+00	0	46	104	0	77	24569
2026-01-11 06:58:17.71	116.38	13.02	-53.2	-57.5	3.7	0.00e+00	0	46	104	0	77	24453
2026-01-11 06:58:18.76	116.19	13.13	-53.1	-57.5	3.7	0.00e+00	0	46	104	0	77	24502
2026-01-11 06:58:19.63	116.03	13.21	-53.1	-57.6	3.7	0.00e+00	0	46	104	0	77	24545
2026-01-11 06:58:20.99	115.78	13.35	-53.2	-57.6	3.7	0.00e+00	0	46	104	0	77	24695
2026-01-11 06:58:21.71	115.65	13.43	-53.2	-57.6	3.7	0.00e+00	0	46	104	0	77	24618
2026-01-11 06:58:23.00	115.41	13.56	-53.2	-57.5	3.7	0.00e+00	0	46	104	0	77	24481
2026-01-11 06:58:23.72	115.28	13.63	-53.3	-57.6	3.7	0.00e+00	0	46	104	0	77	24769
2026-01-11 06:58:25.01	115.03	13.76	-53.2	-57.6	3.7	0.00e+00	0	47	104	0	77	24740
2026-01-11 06:58:25.72	114.90	13.84	-53.2	-57.7	3.7	0.00e+00	0	47	104	0	77	24933
2026-01-11 06:58:27.01	114.65	13.97	-53.3	-57.7	3.7	0.00e+00	0	46	104	0	77	24874
2026-01-11 06:58:27.73	114.51	14.05	-53.3	-57.7	3.7	0.00e+00	0	47	104	0	77	24987
2026-01-11 06:58:29.02	114.26	14.18	-53.1	-57.6	3.7	0.00e+00	0	47	104	0	77	24734
2026-01-11 06:58:29.74	114.12	14.26	-53.3	-57.7	3.7	0.00e+00	0	47	104	0	77	24907
2026-01-11 06:58:31.04	113.86	14.39	-53.3	-57.7	3.7	0.00e+00	0	47	104	0	77	24992
2026-01-11 06:58:31.76	113.71	14.47	-53.3	-57.7	3.7	0.00e+00	0	46	104	0	77	24913
2026-01-11 06:58:33.05	113.45	14.60	-53.2	-57.7	3.7	0.00e+00	0	46	104	0	77	24882
2026-01-11 06:58:33.77	113.31	14.68	-53.3	-57.8	3.7	0.00e+00	0	47	104	0	77	25226
2026-01-11 06:58:35.18	113.02	14.83	-53.3	-57.7	3.7	0.00e+00	0	47	104	0	77	24918
2026-01-11 06:58:36.17	112.81	14.94	-53.3	-57.8	3.7	0.00e+00	0	47	104	0	77	25110
2026-01-11 06:58:37.50	112.53	15.08	-53.0	-57.6	3.7	0.00e+00	0	47	104	0	77	24704
2026-01-11 06:58:38.21	112.38	15.15	-52.9	-57.5	3.7	0.00e+00	0	47	104	0	77	24372
2026-01-11 06:58:39.86	112.03	15.33	-53.0	-57.6	3.7	0.00e+00	0	47	104	0	77	24524
2026-01-11 06:58:40.43	111.90	15.39	-52.9	-57.4	3.7	0.00e+00	0	47	104	0	77	24241
2026-01-11 06:58:42.02	111.56	15.56	-52.8	-57.5	3.7	0.00e+00	0	47	104	0	77	24328
2026-01-11 06:58:42.60	111.43	15.63	-52.8	-57.5	3.7	0.00e+00	0	47	104	0	77	24267
2026-01-11 06:58:44.17	111.08	15.80	-52.8	-57.5	3.7	0.00e+00	0	47	104	0	77	24497
2026-01-11 06:58:44.76	110.95	15.86	-52.9	-57.6	3.7	0.00e+00	0	47	104	0	77	24588
2026-01-11 06:58:46.34	110.59	16.03	-52.9	-57.6	3.7	0.00e+00	0	47	104	0	77	24673
2026-01-11 06:58:46.91	110.46	16.10	-53.0	-57.6	3.7	0.00e+00	0	47	104	0	77	24732
2026-01-11 06:58:48.51	110.09	16.27	-52.9	-57.6	3.7	0.00e+00	0	47	104	0	77	24728
2026-01-11 06:58:49.08	109.96	16.34	-52.9	-57.6	3.7	0.00e+00	0	47	104	0	77	24629
2026-01-11 06:58:51.07	109.49	16.55	-52.9	-57.6	3.7	0.00e+00	0	47	104	0	77	24699
2026-01-11 06:58:51.65	109.35	16.62	-53.0	-57.6	3.7	0.00e+00	0	47	104	0	77	24721
2026-01-11 06:58:53.25	108.97	16.80	-53.2	-57.8	3.7	0.00e+00	0	47	104	0	77	25178
2026-01-11 06:58:53.83	108.83	16.86	-53.3	-57.8	3.7	0.00e+00	0	47	104	0	77	25179
2026-01-11 06:58:55.41	108.44	17.04	-53.2	-57.7	3.7	0.00e+00	0	47	104	0	77	25060
2026-01-11 06:58:55.99	108.30	17.10	-53.3	-57.8	3.7	0.00e+00	0	47	104	0	77	25137
2026-01-11 06:58:57.57	107.90	17.28	-53.3	-57.8	3.7	0.00e+00	0	47	104	0	77	25270
2026-01-11 06:58:58.17	107.75	17.34	-53.3	-57.8	3.7	0.00e+00	0	47	104	0	77	25265
2026-01-11 06:58:59.92	107.31	17.54	-53.3	-57.8	3.7	0.00e+00	0	47	104	0	77	25215
2026-01-11 06:59:00.50	107.16	17.60	-53.3	-57.8	3.7	0.00e+00	0	47	104	0	77	25299
2026-01-11 06:59:02.08	106.75	17.78	-53.2	-57.8	3.7	0.00e+00	0	47	104	0	77	25109
2026-01-11 06:59:03.08	106.48	17.89	-53.3	-57.8	3.7	0.00e+00	0	47	104	0	77	25239
2026-01-11 06:59:04.08	106.22	18.01	-53.2	-57.7	3.7	0.00e+00	0	47	104	0	77	25011
2026-01-11 06:59:05.56	105.82	18.17	-53.2	-57.6	3.7	0.00e+00	0	47	104	0	77	24740
2026-01-11 06:59:06.28	105.63	18.25	-53.1	-57.6	3.7	0.00e+00	0	47	104	0	77	24786
2026-01-11 06:59:07.57	105.28	18.40	-53.0	-57.6	3.7	0.00e+00	0	47	104	0	77	24595
2026-01-11 06:59:08.29	105.08	18.48	-53.0	-57.6	3.7	0.00e+00	0	47	104	0	77	24758
2026-01-11 06:59:09.58	104.72	18.63	-53.4	-57.9	3.7	0.00e+00	0	47	104	0	77	25409
2026-01-11 06:59:10.46	104.47	18.72	-53.4	-57.9	3.7	0.00e+00	0	47	104	0	77	25461
2026-01-11 06:59:11.60	104.15	18.85	-53.4	-57.9	3.7	0.00e+00	0	47	104	0	77	25538
2026-01-11 06:59:12.67	103.85	18.97	-53.3	-57.8	3.7	0.00e+00	0	47	104	0	77	25166
2026-01-11 06:59:13.72	103.54	19.09	-53.2	-57.7	3.7	0.00e+00	0	47	104	0	77	24839
2026-01-11 06:59:14.60	103.29	19.19	-53.2	-57.7	3.7	0.00e+00	0	47	104	0	77	24948
2026-01-11 06:59:15.74	102.96	19.32	-53.2	-57.7	3.7	0.00e+00	0	47	104	0	77	24855
2026-01-11 06:59:16.61	102.70	19.42	-53.3	-57.7	3.7	0.00e+00	0	47	104	0	77	25033
2026-01-11 06:59:17.75	102.36	19.55	-53.4	-57.8	3.7	0.00e+00	0	47	104	0	77	25266
2026-01-11 06:59:18.61	102.10	19.64	-53.4	-57.8	3.7	0.00e+00	0	47	104	0	77	25313
2026-01-11 06:59:19.76	101.75	19.77	-53.4	-57.8	3.7	0.00e+00	0	47	104	0	77	25311
2026-01-11 06:59:20.62	101.49	19.87	-53.4	-57.7	3.7	0.00e+00	0	47	104	0	77	24984
2026-01-11 06:59:21.78	101.13	20.00	-53.3	-57.6	3.7	0.00e+00	0	47	104	0	77	24655
2026-01-11 06:59:22.64	100.87	20.10	-53.3	-57.6	3.7	0.00e+00	0	47	104	0	77	24707
2026-01-11 06:59:23.88	100.48	20.24	-53.3	-57.6	3.7	0.00e+00	0	47	104	0	77	24609
2026-01-11 06:59:24.73	100.21	20.33	-53.4	-57.8	3.7	0.00e+00	0	47	104	0	77	25207
2026-01-11 06:59:25.88	99.84	20.46	-53.4	-57.8	3.7	0.00e+00	0	47	104	0	77	25139
2026-01-11 06:59:26.74	99.56	20.56	-53.4	-57.8	3.7	0.00e+00	0	47	104	0	77	25315
2026-01-11 06:59:27.88	99.19	20.68	-53.3	-57.6	3.7	0.00e+00	0	47	104	0	77	24796
2026-01-11 06:59:28.81	98.89	20.79	-53.0	-57.2	3.7	0.00e+00	0	47	104	0	77	23564
2026-01-11 06:59:29.99	98.50	20.92	-52.8	-57.0	3.7	0.00e+00	0	47	104	0	77	23141
2026-01-11 06:59:30.85	98.21	21.01	-52.8	-57.1	3.7	0.00e+00	0	47	104	0	77	23200
2026-01-11 06:59:32.00	97.83	21.14	-52.9	-57.2	3.7	0.00e+00	0	47	104	0	77	23424
2026-01-11 06:59:32.85	97.54	21.23	-53.0	-57.3	3.7	0.00e+00	0	47	104	0	77	23952
2026-01-11 06:59:34.00	97.15	21.36	-53.3	-57.8	3.7	0.00e+00	0	47	104	0	77	25276
2026-01-11 06:59:34.86	96.85	21.45	-53.4	-57.9	3.7	0.00e+00	0	47	104	0	77	25411
2026-01-11 06:59:36.00	96.46	21.58	-53.4	-57.8	3.7	0.00e+00	0	48	104	0	77	25255
2026-01-11 06:59:36.86	96.16	21.67	-53.2	-57.6	3.7	0.00e+00	0	47	104	0	77	24588
2026-01-11 06:59:38.01	95.75	21.79	-53.3	-57.7	3.7	0.00e+00	0	47	104	0	77	24929
2026-01-11 06:59:38.87	95.45	21.89	-53.1	-57.4	3.7	0.00e+00	0	47	104	0	77	24068
2026-01-11 06:59:40.02	95.04	22.01	-53.3	-57.7	3.7	0.00e+00	0	47	104	0	77	24978
2026-01-11 06:59:40.87	94.73	22.10	-53.0	-57.5	3.7	0.00e+00	0	47	104	0	77	24397
2026-01-11 06:59:42.02	94.31	22.22	-53.1	-57.5	3.7	0.00e+00	0	47	104	0	77	24474
2026-01-11 06:59:42.88	94.00	22.31	-52.8	-57.2	3.7	0.00e+00	0	47	104	0	77	23452
2026-01-11 06:59:44.03	93.57	22.43	-53.2	-57.7	3.7	0.00e+00	0	47	104	0	77	25064
2026-01-11 06:59:44.88	93.26	22.52	-53.1	-57.3	3.7	0.00e+00	0	47	104	0	77	23781
2026-01-11 06:59:46.03	92.83	22.64	-53.2	-57.5	3.7	0.00e+00	0	47	104	0	77	24318
2026-01-11 06:59:46.89	92.50	22.73	-52.8	-56.9	3.7	0.00e+00	0	47	104	0	77	22875
2026-01-11 06:59:48.03	92.07	22.84	-52.5	-56.4	3.7	0.00e+00	0	47	104	0	77	21476
2026-01-11 06:59:48.90	91.73	22.93	-52.5	-56.3	3.7	0.00e+00	0	47	104	0	76	22604
2026-01-11 06:59:50.04	91.29	23.05	-52.7	-56.7	3.7	0.00e+00	0	48	104	0	76	23662
2026-01-11 06:59:50.90	90.96	23.13	-53.0	-57.2	3.7	0.00e+00	0	48	104	0	76	24813
2026-01-11 06:59:52.05	90.51	23.25	-53.2	-57.6	3.7	0.00e+00	0	48	104	0	77	24766
2026-01-11 06:59:52.91	90.17	23.33	-52.9	-57.4	3.7	0.00e+00	0	47	104	0	77	24016
2026-01-11 06:59:54.09	89.70	23.44	-52.4	-56.9	3.7	0.00e+00	0	47	104	0	76	23974
2026-01-11 06:59:54.95	89.36	23.53	-52.5	-56.9	3.7	0.00e+00	0	47	104	0	76	24177
2026-01-11 06:59:56.10	88.90	23.64	-52.6	-57.0	3.7	0.00e+00	0	47	104	0	76	24481
2026-01-11 06:59:56.95	88.55	23.72	-52.9	-57.4	3.7	0.00e+00	0	48	104	0	76	25543
2026-01-11 06:59:58.10	88.08	23.82	-53.2	-57.7	3.7	0.00e+00	0	48	104	0	77	25003
2026-01-11 06:59:58.99	87.72	23.91	-53.2	-57.8	3.7	0.00e+00	0	48	104	0	77	25316
2026-01-11 07:00:00.04	87.28	24.00	-52.5	-57.5	3.7	0.00e+00	0	48	104	0	77	24249
2026-01-11 07:00:00.92	86.92	24.08	-52.4	-57.3	3.7	0.00e+00	0	48	104	0	76	25276
2026-01-11 07:00:02.06	86.44	24.18	-52.3	-57.4	3.7	0.00e+00	0	48	104	0	76	25416
2026-01-11 07:00:03.21	85.95	24.29	-52.1	-56.8	3.7	0.00e+00	0	47	104	0	76	23811
2026-01-11 07:00:04.25	85.51	24.38	-52.1	-57.0	3.7	0.00e+00	0	48	104	0	76	24361
2026-01-11 07:00:05.24	85.09	24.46	-52.2	-56.9	3.7	0.00e+00	0	48	104	0	76	24105
2026-01-11 07:00:06.25	84.65	24.54	-52.6	-57.2	3.7	0.00e+00	0	47	104	0	76	24966
2026-01-11 07:00:07.25	84.22	24.63	-52.4	-57.3	3.7	0.00e+00	0	47	104	0	76	25359
2026-01-11 07:00:08.54	83.66	24.73	-52.5	-57.4	3.7	0.00e+00	0	47	104	0	76	25452
2026-01-11 07:00:09.26	83.34	24.79	-52.5	-57.5	3.7	0.00e+00	0	48	104	0	76	25958
2026-01-11 07:00:10.55	82.78	24.89	-52.7	-57.5	3.7	0.00e+00	0	48	104	0	76	25855
2026-01-11 07:00:11.26	82.46	24.95	-52.8	-57.5	3.7	0.00e+00	0	48	104	0	76	25931
2026-01-11 07:00:12.55	81.89	25.04	-52.8	-57.6	3.7	0.00e+00	0	47	104	0	76	26064
2026-01-11 07:00:13.27	81.56	25.10	-52.9	-57.6	3.7	0.00e+00	0	48	104	0	76	26126
2026-01-11 07:00:14.56	80.98	25.19	-52.9	-57.7	3.7	0.00e+00	0	48	104	0	76	26472
2026-01-11 07:00:15.28	80.66	25.24	-53.1	-57.8	3.7	0.00e+00	0	47	104	0	76	26798
2026-01-11 07:00:16.57	80.07	25.33	-53.2	-57.9	3.7	0.00e+00	0	47	104	0	77	25566
2026-01-11 07:00:17.29	79.74	25.38	-53.4	-58.0	3.7	0.00e+00	0	47	104	0	77	25746
2026-01-11 07:00:18.58	79.15	25.47	-53.3	-57.7	3.7	0.00e+00	0	47	104	0	77	24829
2026-01-11 07:00:19.30	78.82	25.51	-53.1	-57.5	3.7	0.00e+00	0	48	104	0	77	24506
2026-01-11 07:00:20.58	78.23	25.60	-53.1	-57.5	3.7	0.00e+00	0	48	104	0	77	24316
2026-01-11 07:00:21.71	77.70	25.66	-53.2	-57.6	3.7	0.00e+00	0	48	104	0	77	24574
2026-01-11 07:00:22.57	77.30	25.72	-53.4	-57.8	3.7	0.00e+00	0	48	104	0	77	25105
2026-01-11 07:00:23.72	76.76	25.78	-53.3	-57.7	3.7	0.00e+00	0	48	104	0	77	24986
2026-01-11 07:00:24.58	76.35	25.83	-53.3	-57.8	3.7	0.00e+00	0	48	104	0	77	25195
2026-01-11 07:00:25.73	75.81	25.89	-53.1	-57.6	3.7	0.00e+00	0	48	104	0	77	24713
2026-01-11 07:00:26.59	75.40	25.94	-53.2	-57.6	3.7	0.00e+00	0	48	104	0	77	24599
2026-01-11 07:00:27.73	74.86	25.99	-53.2	-57.6	3.7	0.00e+00	0	48	104	0	77	24669
2026-01-11 07:00:28.59	74.45	26.04	-53.4	-57.8	3.7	0.00e+00	0	48	104	0	77	25296
2026-01-11 07:00:29.93	73.80	26.10	-53.3	-57.6	3.7	0.00e+00	0	48	104	0	77	24695
2026-01-11 07:00:30.65	73.46	26.13	-53.4	-57.8	3.7	0.00e+00	0	47	104	0	77	25154
2026-01-11 07:00:32.16	72.73	26.19	-53.4	-57.8	3.7	0.00e+00	0	48	104	0	77	25160
2026-01-11 07:00:32.88	72.38	26.22	-53.6	-58.1	3.7	0.00e+00	0	48	104	0	77	26016
2026-01-11 07:00:34.23	71.72	26.27	-53.5	-57.8	3.7	0.00e+00	0	48	104	0	77	25216
2026-01-11 07:00:34.95	71.37	26.30	-53.3	-57.7	3.7	0.00e+00	0	48	104	0	77	24899
2026-01-11 07:00:36.23	70.75	26.34	-53.3	-57.7	3.7	0.00e+00	0	48	104	0	77	24866
2026-01-11 07:00:36.95	70.40	26.37	-53.3	-57.7	3.7	0.00e+00	0	48	104	0	77	25084
2026-01-11 07:00:38.24	69.76	26.41	-53.6	-58.1	3.7	0.00e+00	0	48	104	0	77	26066
2026-01-11 07:00:38.96	69.41	26.43	-53.6	-58.1	3.7	0.00e+00	0	48	104	0	77	26167
2026-01-11 07:00:40.25	68.77	26.46	-53.7	-58.1	3.7	0.00e+00	0	48	104	0	77	26255
2026-01-11 07:00:40.96	68.42	26.48	-53.4	-57.9	3.7	0.00e+00	0	48	104	0	77	25555
2026-01-11 07:00:42.25	67.79	26.50	-53.5	-57.9	3.7	0.00e+00	0	48	104	0	77	25395
2026-01-11 07:00:43.00	67.42	26.52	-53.5	-57.9	3.7	0.00e+00	0	48	104	0	77	25401
2026-01-11 07:00:44.29	66.78	26.54	-53.5	-57.9	3.7	0.00e+00	0	48	104	0	77	25424
2026-01-11 07:00:45.01	66.42	26.55	-53.6	-57.9	3.7	0.00e+00	0	48	104	0	77	25678
2026-01-11 07:00:46.30	65.78	26.57	-53.5	-58.0	3.7	0.00e+00	0	48	104	0	77	25792
2026-01-11 07:00:47.01	65.43	26.57	-53.6	-58.0	3.7	0.00e+00	0	47	104	0	77	25921
2026-01-11 07:00:48.30	64.79	26.59	-53.5	-58.0	3.7	0.00e+00	0	48	104	0	77	25841
2026-01-11 07:00:49.21	64.33	26.59	-53.5	-58.0	3.7	0.00e+00	0	48	104	0	77	25718
2026-01-11 07:00:50.23	63.83	26.59	-53.5	-57.9	3.7	0.00e+00	0	48	104	0	77	25548
2026-01-11 07:00:51.57	63.16	26.60	-53.4	-57.9	3.7	0.00e+00	0	48	104	0	77	25468
2026-01-11 07:00:52.28	62.81	26.60	-53.4	-57.9	3.7	0.00e+00	0	48	104	0	77	25419
2026-01-11 07:00:53.57	62.16	26.59	-53.2	-57.6	3.7	0.00e+00	0	48	104	0	77	24631
2026-01-11 07:00:54.29	61.81	26.59	-53.2	-57.6	3.7	0.00e+00	0	48	104	0	77	24665
2026-01-11 07:00:55.58	61.17	26.58	-53.2	-57.6	3.7	0.00e+00	0	48	104	0	77	24744
2026-01-11 07:00:56.29	60.81	26.57	-53.2	-57.7	3.7	0.00e+00	0	48	104	0	77	24811
2026-01-11 07:00:57.58	60.17	26.56	-53.1	-57.1	3.7	0.00e+00	0	48	104	0	77	23315
2026-01-11 07:00:58.30	59.82	26.55	-53.3	-57.5	3.7	0.00e+00	0	48	104	0	77	24370
2026-01-11 07:00:59.63	59.16	26.53	-53.1	-57.4	3.7	0.00e+00	0	48	104	0	77	23991
2026-01-11 07:01:00.35	58.80	26.51	-53.1	-57.4	3.7	0.00e+00	0	48	104	0	77	24001
2026-01-11 07:01:01.64	58.16	26.49	-53.3	-57.8	3.7	0.00e+00	0	48	104	0	77	25216
2026-01-11 07:01:02.36	57.81	26.47	-53.5	-58.0	3.6	0.00e+00	0	48	104	0	77	25824
2026-01-11 07:01:03.77	57.12	26.44	-53.6	-58.0	3.6	0.00e+00	0	48	104	0	77	25836
2026-01-11 07:01:04.49	56.76	26.42	-53.6	-58.1	3.7	0.00e+00	0	48	104	0	77	26013
2026-01-11 07:01:05.78	56.13	26.38	-53.6	-58.0	3.7	0.00e+00	0	48	104	0	77	25862
2026-01-11 07:01:06.50	55.78	26.36	-53.6	-58.1	3.7	0.00e+00	0	48	104	0	77	26062
2026-01-11 07:01:07.79	55.15	26.31	-53.5	-57.9	3.7	0.00e+00	0	48	104	0	77	25656
2026-01-11 07:01:08.50	54.80	26.29	-53.2	-57.6	3.7	0.00e+00	0	48	104	0	77	24662
2026-01-11 07:01:09.79	54.18	26.24	-53.2	-57.6	3.7	0.00e+00	0	48	104	0	77	24662
2026-01-11 07:01:10.51	53.83	26.21	-53.2	-57.6	3.7	0.00e+00	0	48	104	0	77	24749
2026-01-11 07:01:11.80	53.20	26.16	-53.2	-57.6	3.7	0.00e+00	0	48	104	0	77	24751
2026-01-11 07:01:12.51	52.86	26.13	-53.2	-57.7	3.7	0.00e+00	0	48	104	0	77	24818
2026-01-11 07:01:13.81	52.24	26.07	-53.2	-57.7	3.7	0.00e+00	0	48	104	0	77	24864
2026-01-11 07:01:14.67	51.83	26.03	-53.0	-57.4	3.7	0.00e+00	0	48	104	0	77	24206
2026-01-11 07:01:16.13	51.13	25.96	-53.4	-57.9	3.7	0.00e+00	0	48	104	0	77	25465
2026-01-11 07:01:16.85	50.79	25.92	-53.3	-57.8	3.7	0.00e+00	0	48	104	0	77	25351
2026-01-11 07:01:18.14	50.18	25.85	-53.4	-57.8	3.7	0.00e+00	0	48	104	0	77	25369
2026-01-11 07:01:18.86	49.84	25.81	-53.0	-57.2	3.7	0.00e+00	0	48	104	0	77	23633
2026-01-11 07:01:20.15	49.24	25.74	-53.1	-57.4	3.7	0.00e+00	0	48	104	0	77	23970
2026-01-11 07:01:20.87	48.90	25.70	-53.0	-57.2	3.7	0.00e+00	0	48	104	0	77	23635
2026-01-11 07:01:22.16	48.30	25.62	-53.1	-57.4	3.7	0.00e+00	0	48	104	0	77	24026
2026-01-11 07:01:22.99	47.91	25.57	-53.2	-57.4	3.7	0.00e+00	0	48	104	0	77	24219
2026-01-11 07:01:24.13	47.39	25.49	-53.2	-57.4	3.7	0.00e+00	0	48	104	0	77	24209
2026-01-11 07:01:24.99	46.99	25.44	-52.8	-56.9	3.7	0.00e+00	0	48	104	0	77	22739
2026-01-11 07:01:26.14	46.47	25.36	-52.5	-56.4	3.7	0.00e+00	0	48	104	0	77	21405
2026-01-11 07:01:27.00	46.08	25.30	-52.6	-56.7	3.7	0.00e+00	0	48	104	0	76	23671
2026-01-11 07:01:28.15	45.56	25.22	-52.0	-55.5	3.7	0.00e+00	0	48	104	0	76	20507
2026-01-11 07:01:29.37	45.01	25.13	-52.4	-56.3	3.7	0.00e+00	0	48	104	0	76	22458
2026-01-11 07:01:30.42	44.54	25.06	-52.2	-56.0	3.7	0.00e+00	0	48	104	0	76	21712
2026-01-11 07:01:31.30	44.15	24.99	-52.5	-56.6	3.7	0.00e+00	0	48	104	0	76	23217
2026-01-11 07:01:32.45	43.64	24.90	-52.7	-56.8	3.7	0.00e+00	0	48	104	0	76	23848
2026-01-11 07:01:33.30	43.27	24.84	-52.6	-56.7	3.7	0.00e+00	0	48	104	0	76	23662
2026-01-11 07:01:34.45	42.76	24.75	-52.6	-56.7	3.7	0.00e+00	0	48	104	0	76	23599
2026-01-11 07:01:35.31	42.39	24.68	-52.7	-56.7	3.7	0.00e+00	0	48	104	0	76	23539
2026-01-11 07:01:36.46	41.89	24.58	-53.3	-57.7	3.7	0.00e+00	0	48	104	0	77	25067
2026-01-11 07:01:37.32	41.52	24.51	-53.2	-57.6	3.7	0.00e+00	0	48	104	0	77	24756
2026-01-11 07:01:38.53	41.01	24.41	-53.3	-57.7	3.7	0.00e+00	0	48	104	0	77	25018
2026-01-11 07:01:39.39	40.64	24.33	-53.3	-57.8	3.7	0.00e+00	0	48	104	0	77	25099
2026-01-11 07:01:40.60	40.13	24.23	-53.2	-57.7	3.7	0.00e+00	0	48	104	0	77	25014
2026-01-11 07:01:41.46	39.77	24.15	-53.1	-57.4	3.7	0.00e+00	0	48	104	0	77	24053
2026-01-11 07:01:42.61	39.29	24.05	-52.2	-55.8	3.7	0.00e+00	0	48	104	0	76	21185
2026-01-11 07:01:43.47	38.94	23.97	-51.2	-54.4	3.7	0.00e+00	0	48	104	0	74	20240
2026-01-11 07:01:44.62	38.47	23.87	-50.7	-53.8	3.7	0.00e+00	0	48	104	0	73	19966
2026-01-11 07:01:45.48	38.12	23.79	-50.8	-53.9	3.7	0.00e+00	0	48	104	0	73	20221
2026-01-11 07:01:46.62	37.65	23.68	-50.4	-53.3	3.8	0.00e+00	0	48	104	0	72	19977
2026-01-11 07:01:47.64	37.24	23.59	-51.6	-55.1	3.8	0.00e+00	0	48	104	0	74	22092
2026-01-11 07:01:48.65	36.84	23.49	-51.4	-54.5	3.8	0.00e+00	0	48	104	0	73	21796
2026-01-11 07:01:49.86	36.36	23.37	-51.6	-54.9	3.7	0.00e+00	0	48	104	0	73	22879
2026-01-11 07:01:50.75	36.01	23.29	-51.3	-54.7	3.7	0.00e+00	0	48	104	0	73	22224
2026-01-11 07:01:52.01	35.52	23.16	-51.3	-54.7	3.7	0.00e+00	0	48	104	0	73	22179
2026-01-11 07:01:52.78	35.22	23.09	-51.6	-55.2	3.7	0.00e+00	0	48	104	0	73	23526
2026-01-11 07:01:54.28	34.64	22.94	-52.4	-56.9	3.7	0.00e+00	0	48	104	0	75	25541
2026-01-11 07:01:55.00	34.37	22.86	-51.6	-55.4	3.7	0.00e+00	0	48	104	0	73	24168
2026-01-11 07:01:56.29	33.88	22.73	-52.3	-57.2	3.7	0.00e+00	0	48	104	0	75	26409
2026-01-11 07:01:57.01	33.61	22.66	-51.6	-55.7	3.7	0.00e+00	0	48	104	0	75	22114
2026-01-11 07:01:58.29	33.13	22.53	-52.8	-57.1	3.7	0.00e+00	0	48	104	0	76	24582
2026-01-11 07:01:59.01	32.87	22.45	-52.7	-57.0	3.7	0.00e+00	0	48	104	0	76	24468
2026-01-11 07:02:00.30	32.39	22.32	-52.2	-56.4	3.7	0.00e+00	0	48	104	0	76	22644
2026-01-11 07:02:01.01	32.13	22.24	-52.0	-56.3	3.7	0.00e+00	0	48	104	0	76	22525
2026-01-11 07:02:02.30	31.67	22.11	-50.9	-54.1	3.7	0.00e+00	0	48	104	0	73	20772
2026-01-11 07:02:03.02	31.41	22.03	-51.9	-56.0	3.7	0.00e+00	0	48	104	0	74	24365
2026-01-11 07:02:04.31	30.95	21.90	-52.3	-57.2	3.7	0.00e+00	0	48	104	0	75	26413
2026-01-11 07:02:05.12	30.66	21.81	-51.1	-54.2	3.8	0.00e+00	0	48	104	0	74	19758
2026-01-11 07:02:06.27	30.26	21.69	-50.5	-53.1	3.8	0.00e+00	0	48	104	0	71	20830
2026-01-11 07:02:07.32	29.90	21.57	-51.7	-55.1	3.7	0.00e+00	0	48	104	0	74	22088
2026-01-11 07:02:08.19	29.60	21.48	-51.9	-55.4	3.7	0.00e+00	0	48	104	0	74	22802
2026-01-11 07:02:09.69	29.09	21.32	-51.0	-54.2	3.7	0.00e+00	0	48	104	0	74	19767
2026-01-11 07:02:10.40	28.85	21.24	-51.1	-54.3	3.7	0.00e+00	0	48	104	0	74	20148
2026-01-11 07:02:11.69	28.41	21.10	-51.4	-54.8	3.7	0.00e+00	0	48	104	0	74	21240
2026-01-11 07:02:12.41	28.17	21.02	-50.7	-53.8	3.7	0.00e+00	0	48	104	0	73	19956
2026-01-11 07:02:13.70	27.75	20.88	-51.2	-54.3	3.7	0.00e+00	0	48	104	0	73	21251
2026-01-11 07:02:14.41	27.52	20.80	-51.2	-54.3	3.7	0.00e+00	0	48	104	0	73	21216
2026-01-11 07:02:15.70	27.10	20.66	-51.1	-54.3	3.7	0.00e+00	0	48	104	0	73	21213
2026-01-11 07:02:16.42	26.86	20.58	-50.9	-54.2	3.7	0.00e+00	0	48	104	0	73	20913
2026-01-11 07:02:17.71	26.45	20.43	-50.4	-53.8	3.7	0.00e+00	0	48	104	0	72	21126
2026-01-11 07:02:18.60	26.17	20.33	-50.0	-53.3	3.7	0.00e+00	0	48	104	0	72	20080
2026-01-11 07:02:19.74	25.81	20.21	-50.1	-53.3	3.7	0.00e+00	0	48	104	0	72	20029
2026-01-11 07:02:20.60	25.55	20.11	-50.2	-53.6	3.7	0.00e+00	0	48	104	0	72	20721
2026-01-11 07:02:21.75	25.19	19.98	-51.6	-56.7	3.7	0.00e+00	0	48	104	0	73	28091
2026-01-11 07:02:22.61	24.93	19.89	-51.7	-56.9	3.7	0.00e+00	0	48	104	0	73	28662
2026-01-11 07:02:23.76	24.58	19.76	-51.5	-56.0	3.7	0.00e+00	0	48	104	0	74	24473
2026-01-11 07:02:24.62	24.32	19.66	-51.7	-56.4	3.6	0.00e+00	0	48	104	0	74	25600
2026-01-11 07:02:25.76	23.98	19.53	-51.7	-56.9	3.7	0.00e+00	0	48	104	0	74	26987
2026-01-11 07:02:26.62	23.73	19.44	-51.6	-56.7	3.7	0.00e+00	0	48	104	0	74	26296
2026-01-11 07:02:27.77	23.39	19.31	-51.6	-56.2	3.7	0.00e+00	0	48	104	0	74	24911
2026-01-11 07:02:28.63	23.14	19.21	-51.9	-56.4	3.7	0.00e+00	0	48	104	0	74	25506
2026-01-11 07:02:29.78	22.81	19.08	-52.9	-57.4	3.7	0.00e+00	0	48	104	0	76	25618
2026-01-11 07:02:30.64	22.57	18.99	-53.0	-57.5	3.7	0.00e+00	0	48	104	0	76	25875
2026-01-11 07:02:31.78	22.24	18.86	-52.3	-56.6	3.7	0.00e+00	0	48	104	0	76	23256
2026-01-11 07:02:32.82	21.95	18.74	-52.6	-57.1	3.7	0.00e+00	0	48	104	0	76	24680
2026-01-11 07:02:33.99	21.63	18.61	-52.4	-56.9	3.7	0.00e+00	0	48	104	0	76	23980
2026-01-11 07:02:34.85	21.39	18.52	-52.4	-56.9	3.7	0.00e+00	0	48	104	0	76	24171
2026-01-11 07:02:36.00	21.08	18.39	-52.5	-57.0	3.7	0.00e+00	0	48	104	0	76	24489
2026-01-11 07:02:36.86	20.84	18.29	-52.5	-57.1	3.7	0.00e+00	0	48	104	0	76	24792
2026-01-11 07:02:38.00	20.54	18.16	-51.8	-57.0	3.7	0.00e+00	0	48	104	0	75	25717
2026-01-11 07:02:38.87	20.31	18.07	-51.7	-56.9	3.7	0.00e+00	0	48	104	0	75	25633
2026-01-11 07:02:40.01	20.01	17.94	-51.8	-56.7	3.7	0.00e+00	0	48	104	0	75	25031
2026-01-11 07:02:40.87	19.78	17.84	-51.9	-56.7	3.7	0.00e+00	0	48	104	0	75	25013
2026-01-11 07:02:42.02	19.49	17.71	-51.7	-56.6	3.7	0.00e+00	0	48	104	0	75	24780
2026-01-11 07:02:42.88	19.26	17.62	-52.4	-57.4	3.7	0.00e+00	0	48	104	0	75	26937
2026-01-11 07:02:44.02	18.97	17.49	-51.7	-56.1	3.7	0.00e+00	0	48	104	0	75	23181
2026-01-11 07:02:44.88	18.76	17.40	-51.9	-56.9	3.7	0.00e+00	0	48	104	0	75	25496
2026-01-11 07:02:46.11	18.45	17.26	-51.8	-56.4	3.7	0.00e+00	0	48	104	0	75	24061
2026-01-11 07:02:46.97	18.24	17.16	-51.8	-56.7	3.7	0.00e+00	0	48	104	0	75	25082
2026-01-11 07:02:48.11	17.96	17.04	-51.8	-56.5	3.7	0.00e+00	0	48	104	0	75	24417
2026-01-11 07:02:48.97	17.75	16.94	-51.9	-56.3	3.7	0.00e+00	0	48	104	0	75	23922
2026-01-11 07:02:50.12	17.47	16.82	-52.3	-56.3	3.7	0.00e+00	0	48	104	0	75	23691
2026-01-11 07:02:50.98	17.27	16.72	-53.0	-57.0	3.7	0.00e+00	0	48	104	0	76	24411
2026-01-11 07:02:52.13	16.99	16.60	-52.7	-56.6	3.7	0.00e+00	0	48	104	0	76	23387
2026-01-11 07:02:53.15	16.75	16.48	-53.4	-57.9	3.7	0.00e+00	0	48	104	0	77	25420
2026-01-11 07:02:54.15	16.52	16.37	-52.7	-56.6	3.7	0.00e+00	0	48	104	0	77	22015
2026-01-11 07:02:55.15	16.29	16.27	-53.1	-57.2	3.7	0.00e+00	0	48	104	0	77	23445
2026-01-11 07:02:56.16	16.06	16.16	-52.2	-56.5	3.7	0.00e+00	0	48	104	0	76	22937
2026-01-11 07:02:57.46	15.77	16.01	-51.1	-56.0	3.7	0.00e+00	0	48	104	0	74	24487
2026-01-11 07:02:58.21	15.60	15.93	-50.7	-55.7	3.7	0.00e+00	0	48	104	0	73	24961
2026-01-11 07:02:59.50	15.31	15.79	-50.3	-55.4	3.7	0.00e+00	0	48	104	0	72	25530
2026-01-11 07:03:00.21	15.15	15.72	-50.3	-55.5	3.7	0.00e+00	0	48	104	0	72	25686
2026-01-11 07:03:01.50	14.87	15.58	-50.8	-55.9	3.7	0.00e+00	0	48	104	0	72	27057
2026-01-11 07:03:02.22	14.72	15.50	-51.1	-56.1	3.7	0.00e+00	0	48	104	0	72	27597
2026-01-11 07:03:03.51	14.44	15.36	-50.7	-55.9	3.7	0.00e+00	0	48	104	0	73	25413
2026-01-11 07:03:04.22	14.29	15.29	-50.0	-55.6	3.7	0.00e+00	0	48	104	0	72	26200
2026-01-11 07:03:05.55	14.01	15.15	-50.1	-55.7	3.7	0.00e+00	0	48	104	0	72	26562
2026-01-11 07:03:06.27	13.86	15.07	-50.2	-55.9	3.7	0.00e+00	0	48	104	0	72	27063
2026-01-11 07:03:07.55	13.59	14.93	-50.6	-56.2	3.7	0.00e+00	0	48	104	0	72	27948
2026-01-11 07:03:08.27	13.44	14.86	-51.0	-56.5	3.7	0.00e+00	0	48	104	0	72	28830
2026-01-11 07:03:09.69	13.15	14.71	-51.9	-57.0	3.7	0.00e+00	0	48	104	0	74	27418
2026-01-11 07:03:10.40	13.01	14.63	-51.5	-56.8	3.7	0.00e+00	0	48	104	0	74	26824
2026-01-11 07:03:11.76	12.74	14.49	-50.9	-56.2	3.7	0.00e+00	0	48	104	0	72	27927
2026-01-11 07:03:12.47	12.60	14.42	-51.2	-56.5	3.7	0.00e+00	0	48	104	0	72	28898
2026-01-11 07:03:13.76	12.34	14.28	-52.0	-56.8	3.7	0.00e+00	0	48	104	0	74	26828
2026-01-11 07:03:14.48	12.20	14.21	-52.0	-56.8	3.7	0.00e+00	0	48	104	0	74	26810
2026-01-11 07:03:15.77	11.95	14.07	-51.7	-56.8	3.7	0.00e+00	0	48	104	0	74	26587
2026-01-11 07:03:16.48	11.82	14.00	-51.3	-56.6	3.7	0.00e+00	0	48	104	0	74	25979
2026-01-11 07:03:17.78	11.57	13.87	-50.8	-56.2	3.7	0.00e+00	0	48	104	0	73	26457
2026-01-11 07:03:18.49	11.44	13.79	-50.5	-56.1	3.7	0.00e+00	0	48	104	0	73	26132
2026-01-11 07:03:19.78	11.20	13.66	-50.4	-56.0	3.7	0.00e+00	0	48	104	0	72	27424
2026-01-11 07:03:20.50	11.06	13.59	-49.9	-55.7	3.7	0.00e+00	0	48	104	0	71	27978
2026-01-11 07:03:21.79	10.83	13.46	-49.0	-55.0	3.7	0.00e+00	0	48	104	0	70	27360
2026-01-11 07:03:22.51	10.70	13.38	-49.0	-55.0	3.7	0.00e+00	0	48	104	0	70	27513
2026-01-11 07:03:23.80	10.46	13.25	-49.0	-55.1	3.7	0.00e+00	0	48	104	0	70	27629
2026-01-11 07:03:24.51	10.34	13.18	-49.1	-55.2	3.7	0.00e+00	0	48	104	0	69	29653
2026-01-11 07:03:25.80	10.11	13.05	-49.6	-55.5	3.7	0.00e+00	0	48	104	0	69	30821
2026-01-11 07:03:26.52	9.98	12.98	-50.0	-55.7	3.7	0.00e+00	0	48	104	0	70	29815
2026-01-11 07:03:27.81	9.75	12.85	-50.4	-55.9	3.7	0.00e+00	0	48	104	0	71	28765
2026-01-11 07:03:28.53	9.63	12.78	-50.3	-55.9	3.7	0.00e+00	0	48	104	0	71	28534
2026-01-11 07:03:29.82	9.41	12.65	-50.6	-56.1	3.7	0.00e+00	0	48	104	0	71	29378
2026-01-11 07:03:30.53	9.29	12.58	-50.8	-56.3	3.7	0.00e+00	0	48	104	0	72	28341
2026-01-11 07:03:31.82	9.07	12.45	-50.4	-56.1	3.7	0.00e+00	0	48	104	0	72	27705
2026-01-11 07:03:32.54	8.95	12.38	-50.8	-56.3	3.7	0.00e+00	0	48	104	0	72	28387
2026-01-11 07:03:33.83	8.74	12.26	-50.3	-56.2	3.7	0.00e+00	0	48	104	0	72	27976
2026-01-11 07:03:34.55	8.62	12.19	-50.1	-55.8	3.7	0.00e+00	0	48	104	0	72	26812
2026-01-11 07:03:35.84	8.41	12.06	-50.4	-55.9	3.7	0.00e+00	0	48	104	0	72	27179
2026-01-11 07:03:36.55	8.29	11.99	-50.5	-56.1	3.7	0.00e+00	0	48	104	0	72	27634
2026-01-11 07:03:37.84	8.08	11.87	-50.3	-56.0	3.7	0.00e+00	0	48	104	0	72	27504
2026-01-11 07:03:38.56	7.97	11.80	-50.3	-55.9	3.7	0.00e+00	0	48	104	0	72	27182
2026-01-11 07:03:39.85	7.77	11.67	-50.1	-55.8	3.7	0.00e+00	0	48	104	0	72	26711
2026-01-11 07:03:40.56	7.65	11.61	-50.3	-55.9	3.7	0.00e+00	0	48	104	0	72	26916
2026-01-11 07:03:41.85	7.45	11.48	-50.3	-55.8	3.7	0.00e+00	0	48	104	0	72	26723
2026-01-11 07:03:42.57	7.34	11.42	-50.3	-55.8	3.7	0.00e+00	0	48	104	0	72	26786
2026-01-11 07:03:43.86	7.15	11.29	-50.3	-55.8	3.7	0.00e+00	0	48	104	0	72	26595
2026-01-11 07:03:44.57	7.04	11.23	-50.2	-55.7	3.7	0.00e+00	0	48	104	0	72	26578
2026-01-11 07:03:45.86	6.84	11.11	-50.6	-56.3	3.7	0.00e+00	0	49	104	0	72	28370
2026-01-11 07:03:46.58	6.74	11.04	-50.5	-55.9	3.7	0.00e+00	0	48	104	0	72	27061
2026-01-11 07:03:47.87	6.54	10.92	-50.1	-55.8	3.7	0.00e+00	0	48	104	0	72	26856
2026-01-11 07:03:48.58	6.44	10.85	-50.6	-56.3	3.7	0.00e+00	0	48	104	0	72	28418
2026-01-11 07:03:49.87	6.25	10.73	-50.7	-56.4	3.7	0.00e+00	0	48	104	0	72	28571
2026-01-11 07:03:50.69	6.13	10.66	-50.7	-56.3	3.7	0.00e+00	0	48	104	0	72	28391
2026-01-11 07:03:52.15	5.92	10.52	-50.4	-56.2	3.7	0.00e+00	0	48	104	0	72	27865
2026-01-11 07:03:52.87	5.82	10.46	-50.2	-56.0	3.7	0.00e+00	0	48	104	0	72	27353
2026-01-11 07:03:54.16	5.64	10.34	-50.0	-55.9	3.7	0.00e+00	0	48	104	0	72	26956
2026-01-11 07:03:54.88	5.54	10.27	-49.7	-55.6	3.7	0.00e+00	0	48	104	0	71	27587
2026-01-11 07:03:56.17	5.36	10.15	-49.4	-55.3	3.7	0.00e+00	0	48	104	0	70	28359
2026-01-11 07:03:56.88	5.26	10.09	-50.1	-56.0	3.7	0.00e+00	0	48	104	0	70	30576
2026-01-11 07:03:58.17	5.09	9.97	-48.9	-54.6	3.7	0.00e+00	0	48	104	0	69	27779
2026-01-11 07:03:58.97	4.98	9.90	-49.1	-54.8	3.7	0.00e+00	0	48	104	0	69	28285
2026-01-11 07:04:00.12	4.83	9.80	-49.4	-55.0	3.7	0.00e+00	0	48	104	0	69	29026
2026-01-11 07:04:00.98	4.71	9.72	-49.8	-55.3	3.7	0.00e+00	0	49	104	0	70	28167
2026-01-11 07:04:02.12	4.56	9.62	-50.1	-55.4	3.7	0.00e+00	0	48	104	0	70	28751
2026-01-11 07:04:02.98	4.45	9.55	-50.3	-55.6	3.7	0.00e+00	0	48	104	0	71	27539
2026-01-11 07:04:04.13	4.30	9.44	-50.7	-55.9	3.7	0.00e+00	0	49	104	0	71	28567
2026-01-11 07:04:04.99	4.19	9.37	-51.1	-56.5	3.7	0.00e+00	0	49	104	0	72	28824
2026-01-11 07:04:06.13	4.04	9.27	-52.7	-57.4	3.7	0.00e+00	0	49	104	0	76	25454
2026-01-11 07:04:06.99	3.93	9.19	-51.1	-56.5	3.7	0.00e+00	0	48	104	0	74	25941
2026-01-11 07:04:08.14	3.79	9.09	-51.2	-56.5	3.7	0.00e+00	0	49	104	0	74	25974
2026-01-11 07:04:09.00	3.68	9.02	-51.4	-56.7	3.7	0.00e+00	0	49	104	0	74	26334
2026-01-11 07:04:10.15	3.53	8.92	-51.4	-56.9	3.7	0.00e+00	0	49	104	0	74	26936
2026-01-11 07:04:11.01	3.43	8.84	-51.1	-56.5	3.7	0.00e+00	0	49	104	0	73	27450
2026-01-11 07:04:12.16	3.29	8.75	-51.5	-56.2	3.7	0.00e+00	0	48	104	0	75	23631
2026-01-11 07:04:13.08	3.18	8.67	-50.8	-56.1	3.7	0.00e+00	0	48	104	0	72	27567
2026-01-11 07:04:14.08	3.06	8.58	-52.8	-57.2	3.7	0.00e+00	0	48	104	0	76	24920
2026-01-11 07:04:15.09	2.93	8.50	-53.5	-58.1	3.7	0.00e+00	0	49	104	0	77	26099
2026-01-11 07:04:16.09	2.82	8.41	-53.4	-57.7	3.7	0.00e+00	0	48	104	0	78	23449
2026-01-11 07:04:17.10	2.70	8.33	-53.2	-57.4	3.7	0.00e+00	0	48	104	0	78	22870
2026-01-11 07:04:18.10	2.58	8.24	-53.1	-57.7	3.7	0.00e+00	0	48	104	0	77	24843
2026-01-11 07:04:19.10	2.46	8.16	-53.7	-58.1	3.7	0.00e+00	0	48	104	0	78	24782
2026-01-11 07:04:20.11	2.35	8.07	-53.4	-58.2	3.7	0.00e+00	0	48	104	0	78	24954
2026-01-11 07:04:21.11	2.23	7.99	-53.1	-57.8	3.7	0.00e+00	0	48	104	0	77	25320
2026-01-11 07:04:22.12	2.12	7.91	-53.8	-58.3	3.7	0.00e+00	0	48	104	0	78	25258
2026-01-11 07:04:23.12	2.01	7.82	-53.9	-58.3	3.7	0.00e+00	0	48	104	0	78	25142
2026-01-11 07:04:24.13	1.89	7.74	-53.4	-58.1	3.7	0.00e+00	0	48	104	0	78	24633
2026-01-11 07:04:25.18	1.78	7.65	-53.6	-58.2	3.7	0.00e+00	0	48	104	0	78	24957
2026-01-11 07:04:26.09	1.68	7.58	-53.8	-58.3	3.7	0.00e+00	0	48	104	0	78	25110
2026-01-11 07:04:27.09	1.57	7.50	-54.0	-58.4	3.7	0.00e+00	0	48	104	0	78	25600
2026-01-11 07:04:28.09	1.46	7.42	-54.0	-58.4	3.7	0.00e+00	0	48	104	0	78	25499
2026-01-11 07:04:29.10	1.35	7.33	-53.8	-58.3	3.7	0.00e+00	0	48	104	0	78	25262
2026-01-11 07:04:30.10	1.24	7.25	-53.6	-58.2	3.7	0.00e+00	0	48	104	0	78	24963
2026-01-11 07:04:31.10	1.14	7.17	-53.8	-58.4	3.7	0.00e+00	0	48	104	0	78	25443
2026-01-11 07:04:32.11	1.03	7.09	-53.8	-58.4	3.7	0.00e+00	0	48	104	0	78	25496
2026-01-11 07:04:33.11	0.92	7.01	-53.6	-58.2	3.7	0.00e+00	0	49	104	0	78	24901
2026-01-11 07:04:34.55	0.77	6.90	-53.7	-58.1	3.7	0.00e+00	0	48	104	0	78	24655
2026-01-11 07:04:35.30	0.70	6.84	-53.4	-57.8	3.7	0.00e+00	0	48	104	0	78	23909
2026-01-11 07:04:36.59	0.57	6.73	-53.5	-57.8	3.7	0.00e+00	0	49	104	0	77	25371
2026-01-11 07:04:37.31	0.49	6.68	-53.4	-57.7	3.7	0.00e+00	0	48	104	0	77	24836
2026-01-11 07:04:38.60	0.36	6.58	-53.3	-57.7	3.7	0.00e+00	0	48	104	0	77	25053
2026-01-11 07:04:39.32	0.29	6.52	-53.3	-57.7	3.7	0.00e+00	0	49	104	0	77	24981
2026-01-11 07:04:40.60	0.16	6.42	-53.3	-57.7	3.7	0.00e+00	0	49	104	0	77	25012
2026-01-11 07:04:41.32	0.09	6.36	-53.3	-57.7	3.7	0.00e+00	0	49	104	0	77	24996
2026-01-11 07:04:42.61	359.96	6.26	-53.3	-57.7	3.7	0.00e+00	0	48	104	0	77	24995
2026-01-11 07:04:43.33	359.89	6.21	-53.3	-57.7	3.7	0.00e+00	0	49	104	0	77	25078
2026-01-11 07:04:44.62	359.77	6.11	-53.3	-57.7	3.7	0.00e+00	0	48	104	0	77	24956
2026-01-11 07:04:45.34	359.70	6.05	-53.3	-57.7	3.7	0.00e+00	0	48	104	0	77	24951
2026-01-11 07:04:46.63	359.58	5.95	-53.3	-57.7	3.7	0.00e+00	0	48	104	0	77	24866
2026-01-11 07:04:47.35	359.51	5.90	-53.3	-57.7	3.7	0.00e+00	0	48	104	0	77	25032
2026-01-11 07:04:48.64	359.39	5.80	-53.3	-57.7	3.7	0.00e+00	0	48	104	0	77	24916
2026-01-11 07:04:49.36	359.32	5.75	-53.3	-57.7	3.7	0.00e+00	0	48	104	0	77	24951
2026-01-11 07:04:50.65	359.20	5.65	-53.3	-57.7	3.7	0.00e+00	0	48	104	0	77	24943
2026-01-11 07:04:51.37	359.14	5.59	-53.3	-57.7	3.7	0.00e+00	0	48	104	0	77	24991
2026-01-11 07:04:52.65	359.02	5.50	-53.3	-57.7	3.7	0.00e+00	0	48	104	0	77	24821
2026-01-11 07:04:53.37	358.95	5.44	-53.3	-57.7	3.7	0.00e+00	0	48	104	0	77	24912
2026-01-11 07:04:54.67	358.84	5.35	-53.3	-57.7	3.7	0.00e+00	0	48	104	0	77	25014
2026-01-11 07:04:55.38	358.77	5.29	-53.3	-57.7	3.7	0.00e+00	0	48	104	0	77	24920
2026-01-11 07:04:56.67	358.66	5.20	-53.3	-57.7	3.7	0.00e+00	0	49	104	0	77	24901
2026-01-11 07:04:57.39	358.59	5.14	-53.3	-57.7	3.7	0.00e+00	0	49	104	0	77	24931
2026-01-11 07:04:58.68	358.48	5.05	-53.3	-57.7	3.7	0.00e+00	0	49	104	0	77	24915
2026-01-11 07:04:59.40	358.42	4.99	-53.3	-57.7	3.7	0.00e+00	0	48	104	0	77	24917

#Closed at: 2026-01-11 07:05:00
#Recorded file [0 MB]: D:/Data/31040_260111_095646.dat