passes_logs/2026/01/11/T1/T1__20260111_005024_SUOMI_NPP_rec.log

#Pass ID: 20260111_005024_SUOMI NPP
#Satellite: SUOMI NPP
#Configuration: NPP
#almurnet v.1.7.20251203
#Start time: 2026-01-11 00:50:24

#Version: 2.0.20230620
#Station: T1
#Location: 37.570604 lon 55.790049 lat
#TLE: 1 37849U 11061A   26009.81756760  .00000113  00000+0  74747-4 0  9994
#TLE: 2 37849  98.7806 311.9110 0002525  72.5604 287.5848 14.19524046735974

#Time	Az	El	Level	Level2	SNR	BER	BlckErr	Temp	State	Recorded	gain1	gain2
2026-01-11 00:50:24.37	9.93	4.98	-49.4	-65.7	3.8	1.49e+00	0	41	0	0	70	23313
2026-01-11 00:50:25.36	9.88	5.05	-48.0	-65.2	3.8	1.49e+00	0	41	104	0	66	27832
2026-01-11 00:50:26.37	9.82	5.12	-48.0	-65.2	3.8	1.49e+00	0	41	104	0	66	27908
2026-01-11 00:50:27.38	9.77	5.18	-48.0	-65.2	3.8	1.49e+00	0	41	104	0	66	27901
2026-01-11 00:50:28.38	9.72	5.25	-48.0	-65.2	3.8	1.49e+00	0	41	104	0	66	27857
2026-01-11 00:50:29.38	9.67	5.32	-48.0	-65.2	3.8	1.49e+00	0	41	104	0	66	27884
2026-01-11 00:50:30.39	9.61	5.39	-48.0	-65.2	3.8	1.49e+00	0	41	104	0	66	27844
2026-01-11 00:50:31.39	9.56	5.45	-48.0	-65.2	3.8	1.49e+00	0	41	104	0	66	27886
2026-01-11 00:50:32.40	9.50	5.52	-48.0	-65.2	3.8	1.49e+00	0	41	104	0	66	27844
2026-01-11 00:50:33.40	9.45	5.59	-48.0	-65.2	3.8	1.49e+00	0	42	104	0	66	27784
2026-01-11 00:50:34.41	9.40	5.66	-48.0	-65.2	3.8	1.49e+00	0	41	104	0	66	27884
2026-01-11 00:50:35.41	9.34	5.73	-48.0	-65.2	3.8	1.49e+00	0	42	104	0	66	27957
2026-01-11 00:50:36.42	9.29	5.80	-48.0	-65.2	3.8	1.49e+00	0	42	104	0	66	27875
2026-01-11 00:50:37.42	9.23	5.87	-48.0	-65.1	3.8	1.49e+00	0	42	104	0	66	27698
2026-01-11 00:50:38.42	9.18	5.93	-48.0	-65.1	3.8	1.49e+00	0	41	104	0	66	27694
2026-01-11 00:50:39.43	9.12	6.00	-48.0	-65.1	3.8	1.49e+00	0	42	104	0	66	27493
2026-01-11 00:50:40.43	9.06	6.07	-48.0	-65.1	3.8	1.49e+00	0	42	104	0	66	27462
2026-01-11 00:50:41.44	9.01	6.14	-48.0	-65.0	3.8	1.49e+00	0	42	104	0	66	27289
2026-01-11 00:50:42.44	8.95	6.21	-48.0	-65.0	3.8	1.49e+00	0	42	104	0	66	27084
2026-01-11 00:50:43.45	8.89	6.28	-48.0	-65.0	3.8	1.49e+00	0	42	104	0	66	27083
2026-01-11 00:50:44.45	8.84	6.35	-48.0	-64.9	3.8	1.49e+00	0	42	104	0	66	27065
2026-01-11 00:50:45.45	8.78	6.42	-48.0	-64.9	3.8	1.49e+00	0	42	104	0	66	26960
2026-01-11 00:50:46.46	8.72	6.49	-48.0	-65.0	3.8	1.49e+00	0	42	104	0	66	27111
2026-01-11 00:50:47.46	8.66	6.56	-48.0	-64.9	3.8	1.49e+00	0	42	104	0	66	26805
2026-01-11 00:50:48.47	8.60	6.63	-48.0	-64.8	3.8	1.49e+00	0	42	104	0	66	26663
2026-01-11 00:50:49.47	8.55	6.70	-48.0	-64.7	3.8	1.49e+00	0	42	104	0	66	26167
2026-01-11 00:50:50.48	8.49	6.78	-48.0	-64.5	3.8	1.49e+00	0	42	104	0	66	25784
2026-01-11 00:50:51.48	8.43	6.85	-48.0	-64.4	3.8	1.49e+00	0	42	104	0	66	25521
2026-01-11 00:50:52.48	8.37	6.92	-48.0	-64.4	3.8	1.49e+00	0	42	104	0	66	25303
2026-01-11 00:50:53.49	8.31	6.99	-47.9	-64.4	3.8	1.49e+00	0	42	104	0	66	25295
2026-01-11 00:50:54.49	8.25	7.06	-48.0	-64.6	3.8	1.49e+00	0	42	104	0	66	25964
2026-01-11 00:50:55.50	8.19	7.13	-48.0	-64.7	3.8	1.49e+00	0	42	104	0	66	26458
2026-01-11 00:50:56.50	8.13	7.21	-48.0	-65.0	3.8	1.49e+00	0	42	104	0	66	27319
2026-01-11 00:50:57.51	8.06	7.28	-48.0	-65.1	3.8	1.49e+00	0	42	104	0	66	27705
2026-01-11 00:50:58.51	8.00	7.35	-48.0	-65.1	3.8	1.49e+00	0	42	104	0	66	27507
2026-01-11 00:50:59.51	7.94	7.42	-48.0	-64.8	3.8	1.49e+00	0	42	104	0	66	26479
2026-01-11 00:51:00.52	7.88	7.50	-47.9	-63.9	3.8	1.49e+00	0	43	104	0	66	24043
2026-01-11 00:51:01.52	7.82	7.57	-47.9	-62.8	3.9	1.49e+00	0	42	104	0	66	21140
2026-01-11 00:51:02.53	7.75	7.64	-47.9	-61.7	4.2	1.48e+00	0	43	104	0	66	18597
2026-01-11 00:51:03.53	7.69	7.71	-47.8	-60.6	4.5	1.27e+00	0	42	0	1048576	66	16323
2026-01-11 00:51:04.53	7.63	7.79	-47.7	-59.3	5.1	8.98e-01	0	42	0	2097152	66	14193
2026-01-11 00:51:05.54	7.56	7.86	-47.6	-58.3	5.8	4.26e-01	0	43	0	4194304	66	12550
2026-01-11 00:51:06.54	7.50	7.94	-47.4	-57.2	6.7	2.32e-01	0	43	0	6291456	66	11072
2026-01-11 00:51:07.55	7.43	8.01	-47.3	-56.4	7.4	1.69e-01	0	43	0	8388608	66	10114
2026-01-11 00:51:08.55	7.37	8.08	-47.1	-55.4	8.4	7.19e-02	0	43	0	10485760	66	9010
2026-01-11 00:51:09.56	7.30	8.16	-46.9	-54.7	9.1	3.12e-02	0	43	0	11534336	65	8799
2026-01-11 00:51:10.56	7.24	8.23	-46.8	-54.1	9.7	1.54e-02	0	43	0	13631488	65	8178
2026-01-11 00:51:11.56	7.17	8.31	-46.5	-53.0	10.9	5.46e-03	0	43	0	15728640	64	7645
2026-01-11 00:51:12.57	7.10	8.38	-46.3	-52.4	11.4	1.40e-03	0	43	0	17825792	64	7185
2026-01-11 00:51:13.57	7.04	8.46	-46.2	-52.2	11.6	7.91e-04	0	43	0	19922944	64	7023
2026-01-11 00:51:14.58	6.97	8.53	-46.2	-52.2	11.7	4.87e-04	0	43	0	20971520	64	6978
2026-01-11 00:51:15.58	6.90	8.61	-46.1	-52.0	11.9	4.05e-04	0	43	0	23068672	64	6807
2026-01-11 00:51:16.58	6.84	8.68	-46.2	-52.1	11.8	3.42e-04	0	43	0	25165824	64	6930
2026-01-11 00:51:17.59	6.77	8.76	-46.3	-52.5	11.4	8.41e-04	0	43	0	27262976	64	7214
2026-01-11 00:51:18.59	6.70	8.83	-46.5	-53.0	10.9	1.86e-03	0	43	0	28311552	64	7678
2026-01-11 00:51:19.59	6.63	8.91	-46.8	-54.0	9.9	6.07e-03	0	43	0	30408704	64	8576
2026-01-11 00:51:20.60	6.56	8.99	-47.1	-55.4	8.4	2.22e-02	0	43	0	32505856	64	10077
2026-01-11 00:51:21.60	6.49	9.06	-46.2	-52.1	11.7	8.06e-02	0	43	0	34603008	64	6916
2026-01-11 00:51:22.61	6.42	9.14	-46.1	-51.7	12.3	6.94e-05	0	43	0	36700160	63	7020
2026-01-11 00:51:23.61	6.35	9.22	-47.5	-57.3	7.0	6.74e-04	0	43	0	37748736	65	11850
2026-01-11 00:51:24.61	6.28	9.29	-47.8	-57.7	6.1	1.49e+00	0	43	104	38797312	66	11812
2026-01-11 00:51:25.62	6.21	9.37	-45.5	-50.6	13.3	4.13e-02	0	43	0	39845888	63	6160
2026-01-11 00:51:26.62	6.14	9.45	-45.1	-49.8	14.2	7.00e-07	0	43	0	41943040	62	5952
2026-01-11 00:51:27.63	6.06	9.53	-45.2	-50.0	14.0	1.50e-06	0	43	0	44040192	62	6082
2026-01-11 00:51:28.63	5.99	9.61	-45.2	-49.6	14.3	0.00e+00	0	43	0	45088768	62	5848
2026-01-11 00:51:29.63	5.92	9.68	-45.0	-49.4	14.6	7.00e-07	0	43	0	47185920	61	6034
2026-01-11 00:51:30.64	5.84	9.76	-45.0	-49.4	14.6	7.00e-07	0	43	0	49283072	61	6013
2026-01-11 00:51:31.64	5.77	9.84	-45.0	-49.2	14.8	0.00e+00	0	43	0	51380224	61	5899
2026-01-11 00:51:32.64	5.70	9.92	-44.9	-49.1	14.9	0.00e+00	0	43	0	53477376	61	5828
2026-01-11 00:51:33.65	5.62	10.00	-45.1	-49.3	14.6	7.00e-07	0	43	0	54525952	61	5988
2026-01-11 00:51:34.65	5.55	10.08	-45.1	-49.4	14.6	0.00e+00	0	43	0	56623104	61	6031
2026-01-11 00:51:35.65	5.47	10.16	-45.3	-49.5	14.5	7.00e-07	0	43	0	58720256	61	6105
2026-01-11 00:51:36.66	5.40	10.24	-45.4	-49.4	14.6	0.00e+00	0	43	0	60817408	61	6050
2026-01-11 00:51:37.66	5.32	10.31	-45.3	-49.3	14.7	0.00e+00	0	43	0	62914560	61	5976
2026-01-11 00:51:38.66	5.24	10.39	-45.4	-49.3	14.7	0.00e+00	0	43	0	63963136	61	5986
2026-01-11 00:51:39.67	5.17	10.48	-45.5	-49.6	14.4	0.00e+00	0	43	0	66060288	61	6180
2026-01-11 00:51:40.67	5.09	10.56	-45.4	-49.3	14.8	0.00e+00	0	43	0	68157440	62	5654
2026-01-11 00:51:41.67	5.01	10.64	-45.7	-49.7	14.4	1.50e-06	0	43	0	70254592	62	5876
2026-01-11 00:51:42.67	4.93	10.72	-45.7	-49.5	14.5	7.00e-07	0	43	0	72351744	62	5787
2026-01-11 00:51:43.67	4.85	10.80	-45.7	-49.4	14.6	7.00e-07	0	43	0	73400320	62	5704
2026-01-11 00:51:44.68	4.77	10.88	-45.8	-49.6	14.5	7.00e-07	0	43	0	75497472	62	5828
2026-01-11 00:51:45.68	4.69	10.96	-45.8	-49.6	14.5	0.00e+00	0	43	0	77594624	62	5799
2026-01-11 00:51:46.69	4.61	11.04	-45.8	-49.4	14.7	7.00e-07	0	43	0	79691776	62	5709
2026-01-11 00:51:47.69	4.53	11.12	-45.9	-49.6	14.5	7.00e-07	0	43	0	81788928	62	5799
2026-01-11 00:51:48.69	4.45	11.20	-46.0	-49.6	14.5	0.00e+00	0	43	0	82837504	62	5819
2026-01-11 00:51:49.70	4.37	11.29	-45.9	-49.5	14.6	0.00e+00	0	43	0	84934656	62	5755
2026-01-11 00:51:50.70	4.29	11.37	-45.9	-49.5	14.7	7.00e-07	0	43	0	87031808	62	5735
2026-01-11 00:51:51.70	4.21	11.45	-45.9	-49.3	14.8	0.00e+00	0	43	0	89128960	62	5627
2026-01-11 00:51:52.70	4.12	11.53	-46.0	-49.6	14.6	1.50e-06	0	43	0	90177536	62	5797
2026-01-11 00:51:53.70	4.04	11.62	-45.9	-49.4	14.7	0.00e+00	0	43	0	92274688	62	5706
2026-01-11 00:51:54.71	3.95	11.70	-45.9	-49.4	14.8	0.00e+00	0	43	0	94371840	62	5682
2026-01-11 00:51:55.71	3.87	11.78	-46.0	-49.6	14.5	0.00e+00	0	43	0	96468992	62	5817
2026-01-11 00:51:56.72	3.78	11.87	-45.7	-49.2	14.9	7.00e-07	0	43	0	98566144	62	5549
2026-01-11 00:51:57.72	3.70	11.95	-45.8	-49.3	14.9	0.00e+00	0	43	0	99614720	62	5604
2026-01-11 00:51:58.72	3.61	12.04	-45.9	-49.5	14.6	7.00e-07	0	43	0	101711872	62	5747
2026-01-11 00:51:59.73	3.53	12.12	-45.4	-48.6	15.5	0.00e+00	0	43	0	103809024	62	5214
2026-01-11 00:52:00.73	3.44	12.21	-45.6	-49.1	15.1	0.00e+00	0	43	0	105906176	62	5483
2026-01-11 00:52:01.74	3.35	12.29	-45.8	-49.2	14.9	0.00e+00	0	43	0	108003328	62	5590
2026-01-11 00:52:02.74	3.26	12.38	-45.5	-48.9	15.2	0.00e+00	0	43	0	109051904	62	5394
2026-01-11 00:52:03.74	3.17	12.46	-45.5	-49.0	15.2	0.00e+00	0	43	0	111149056	62	5411
2026-01-11 00:52:04.75	3.08	12.55	-45.6	-49.2	14.9	0.00e+00	0	43	0	113246208	62	5582
2026-01-11 00:52:05.75	2.99	12.63	-45.7	-49.3	14.9	0.00e+00	0	43	0	115343360	62	5639
2026-01-11 00:52:06.76	2.90	12.72	-45.5	-49.1	15.0	0.00e+00	0	43	0	117440512	62	5508
2026-01-11 00:52:07.76	2.81	12.81	-45.1	-48.5	15.7	0.00e+00	0	43	0	118489088	62	5126
2026-01-11 00:52:08.76	2.72	12.89	-45.5	-49.0	15.1	0.00e+00	0	43	0	120586240	62	5461
2026-01-11 00:52:09.77	2.63	12.98	-45.4	-48.9	15.3	0.00e+00	0	43	0	122683392	62	5344
2026-01-11 00:52:10.77	2.54	13.07	-45.4	-48.9	15.3	0.00e+00	0	43	0	124780544	62	5350
2026-01-11 00:52:11.77	2.44	13.15	-45.4	-49.0	15.2	0.00e+00	0	43	0	126877696	62	5408
2026-01-11 00:52:12.77	2.35	13.24	-45.2	-48.6	15.5	0.00e+00	0	43	0	127926272	62	5217
2026-01-11 00:52:13.78	2.25	13.33	-45.3	-48.7	15.4	0.00e+00	0	43	0	130023424	62	5271
2026-01-11 00:52:14.78	2.16	13.42	-45.2	-48.7	15.5	0.00e+00	0	43	0	132120576	62	5254
2026-01-11 00:52:15.79	2.06	13.50	-44.9	-48.4	15.8	0.00e+00	0	43	0	134217728	61	5361
2026-01-11 00:52:16.78	1.97	13.59	-45.2	-48.8	15.4	0.00e+00	0	43	0	136314880	61	5600
2026-01-11 00:52:17.79	1.87	13.68	-45.1	-48.6	15.5	0.00e+00	0	44	0	137363456	61	5522
2026-01-11 00:52:18.79	1.77	13.77	-45.0	-48.6	15.6	0.00e+00	0	43	0	139460608	61	5467
2026-01-11 00:52:19.79	1.68	13.86	-45.0	-48.5	15.7	0.00e+00	0	43	0	141557760	61	5433
2026-01-11 00:52:20.80	1.58	13.95	-44.8	-48.2	15.9	0.00e+00	0	43	0	143654912	61	5265
2026-01-11 00:52:21.80	1.48	14.04	-45.0	-48.4	15.8	0.00e+00	0	43	0	144703488	61	5385
2026-01-11 00:52:22.80	1.38	14.13	-45.0	-48.3	15.8	0.00e+00	0	43	0	146800640	61	5322
2026-01-11 00:52:23.81	1.28	14.22	-45.0	-48.3	16.0	0.00e+00	0	43	0	148897792	61	5307
2026-01-11 00:52:24.81	1.18	14.31	-45.1	-48.5	15.7	0.00e+00	0	43	0	150994944	61	5431
2026-01-11 00:52:25.82	1.07	14.40	-44.9	-48.2	16.0	0.00e+00	0	43	0	153092096	61	5239
2026-01-11 00:52:26.82	0.97	14.49	-45.0	-48.4	15.8	0.00e+00	0	43	0	155189248	61	5378
2026-01-11 00:52:27.82	0.87	14.58	-45.0	-48.3	15.8	0.00e+00	0	43	0	156237824	61	5337
2026-01-11 00:52:28.83	0.76	14.67	-44.9	-48.2	15.9	0.00e+00	0	44	0	158334976	61	5274
2026-01-11 00:52:29.83	0.66	14.76	-45.2	-48.7	15.5	0.00e+00	0	43	0	160432128	61	5542
2026-01-11 00:52:30.84	0.55	14.86	-45.2	-48.6	15.7	0.00e+00	0	43	0	162529280	61	5465
2026-01-11 00:52:31.84	0.45	14.95	-45.1	-48.5	15.8	0.00e+00	0	43	0	163577856	61	5409
2026-01-11 00:52:32.85	0.34	15.04	-45.4	-48.9	15.4	0.00e+00	0	44	0	165675008	61	5672
2026-01-11 00:52:33.85	0.24	15.13	-45.4	-48.9	15.3	0.00e+00	0	43	0	167772160	61	5687
2026-01-11 00:52:34.85	0.13	15.22	-45.4	-48.9	15.3	0.00e+00	0	43	0	169869312	61	5696
2026-01-11 00:52:35.85	0.02	15.32	-45.6	-49.2	15.1	0.00e+00	0	44	0	171966464	61	5876
2026-01-11 00:52:36.86	359.91	15.41	-45.4	-48.9	15.3	0.00e+00	0	44	0	173015040	61	5688
2026-01-11 00:52:37.86	359.80	15.50	-45.6	-49.2	15.1	0.00e+00	0	44	0	175112192	61	5909
2026-01-11 00:52:38.86	359.69	15.60	-45.7	-49.3	15.1	0.00e+00	0	43	0	177209344	62	5593
2026-01-11 00:52:39.87	359.58	15.69	-45.7	-49.3	15.1	0.00e+00	0	43	0	179306496	62	5616
2026-01-11 00:52:40.87	359.47	15.79	-45.9	-49.5	14.8	7.00e-07	0	44	0	181403648	62	5747
2026-01-11 00:52:41.87	359.35	15.88	-45.8	-49.2	15.0	0.00e+00	0	44	0	182452224	62	5590
2026-01-11 00:52:42.88	359.24	15.98	-45.8	-49.2	15.1	0.00e+00	0	43	0	184549376	62	5546
2026-01-11 00:52:43.88	359.13	16.07	-45.8	-49.2	15.1	0.00e+00	0	43	0	186646528	62	5564
2026-01-11 00:52:44.89	359.01	16.17	-45.7	-49.0	15.3	0.00e+00	0	43	0	188743680	62	5460
2026-01-11 00:52:45.89	358.89	16.26	-45.8	-49.2	15.1	0.00e+00	0	44	0	190840832	62	5588
2026-01-11 00:52:46.89	358.78	16.36	-45.8	-49.2	15.1	0.00e+00	0	44	0	191889408	62	5536
2026-01-11 00:52:47.90	358.66	16.45	-45.7	-49.2	15.1	0.00e+00	0	44	0	193986560	62	5562
2026-01-11 00:52:48.90	358.54	16.55	-45.6	-49.0	15.3	0.00e+00	0	44	0	196083712	62	5444
2026-01-11 00:52:49.90	358.42	16.65	-45.6	-48.9	15.5	0.00e+00	0	43	0	198180864	62	5349
2026-01-11 00:52:50.91	358.30	16.74	-45.5	-48.8	15.5	0.00e+00	0	44	0	200278016	62	5318
2026-01-11 00:52:51.91	358.18	16.84	-45.3	-48.7	15.7	0.00e+00	0	43	0	201326592	62	5220
2026-01-11 00:52:52.92	358.06	16.94	-45.1	-48.3	16.0	0.00e+00	0	43	0	203423744	62	5036
2026-01-11 00:52:53.92	357.94	17.04	-45.1	-48.2	16.1	0.00e+00	0	44	0	205520896	62	4951
2026-01-11 00:52:54.92	357.82	17.13	-45.1	-48.3	16.0	0.00e+00	0	43	0	207618048	62	5010
2026-01-11 00:52:55.93	357.69	17.23	-45.0	-48.1	16.2	0.00e+00	0	44	0	209715200	61	5174
2026-01-11 00:52:56.93	357.57	17.33	-44.8	-47.9	16.4	0.00e+00	0	43	0	210763776	61	5053
2026-01-11 00:52:57.93	357.44	17.43	-44.9	-47.9	16.4	0.00e+00	0	44	0	212860928	61	5065
2026-01-11 00:52:58.94	357.32	17.53	-44.8	-47.8	16.5	0.00e+00	0	44	0	214958080	61	4986
2026-01-11 00:52:59.94	357.19	17.63	-44.8	-47.7	16.6	0.00e+00	0	43	0	217055232	61	4974
2026-01-11 00:53:00.94	357.06	17.73	-44.8	-47.7	16.5	0.00e+00	0	44	0	218103808	61	4983
2026-01-11 00:53:01.95	356.93	17.83	-44.8	-47.7	16.5	0.00e+00	0	44	0	220200960	61	4981
2026-01-11 00:53:02.95	356.80	17.93	-44.9	-47.9	16.4	0.00e+00	0	44	0	222298112	61	5089
2026-01-11 00:53:03.95	356.67	18.03	-45.2	-48.3	16.0	0.00e+00	0	44	0	224395264	61	5324
2026-01-11 00:53:04.96	356.54	18.13	-45.3	-48.5	15.9	0.00e+00	0	44	0	226492416	61	5419
2026-01-11 00:53:05.96	356.41	18.23	-45.4	-48.7	15.7	0.00e+00	0	44	0	227540992	61	5533
2026-01-11 00:53:06.97	356.28	18.33	-45.5	-48.7	15.6	0.00e+00	0	44	0	229638144	61	5568
2026-01-11 00:53:07.97	356.14	18.43	-45.6	-48.9	15.5	0.00e+00	0	44	0	231735296	61	5693
2026-01-11 00:53:08.97	356.01	18.53	-45.6	-49.0	15.3	0.00e+00	0	43	0	233832448	61	5780
2026-01-11 00:53:09.98	355.87	18.63	-45.6	-49.0	15.4	0.00e+00	0	43	0	235929600	62	5414
2026-01-11 00:53:10.97	355.74	18.73	-45.3	-48.6	15.7	0.00e+00	0	44	0	236978176	62	5201
2026-01-11 00:53:11.98	355.60	18.84	-45.3	-48.7	15.7	0.00e+00	0	44	0	239075328	62	5232
2026-01-11 00:53:12.98	355.46	18.94	-45.2	-48.6	15.8	0.00e+00	0	44	0	241172480	62	5164
2026-01-11 00:53:13.99	355.32	19.04	-45.1	-48.4	15.9	0.00e+00	0	44	0	243269632	62	5099
2026-01-11 00:53:14.99	355.18	19.14	-44.9	-48.2	16.1	0.00e+00	0	44	0	245366784	61	5237
2026-01-11 00:53:15.99	355.04	19.25	-45.0	-48.3	16.0	0.00e+00	0	44	0	246415360	61	5307
2026-01-11 00:53:16.99	354.89	19.35	-45.1	-48.5	15.9	0.00e+00	0	44	0	248512512	61	5430
2026-01-11 00:53:18.00	354.75	19.45	-44.9	-48.2	16.2	0.00e+00	0	43	0	250609664	61	5225
2026-01-11 00:53:19.00	354.60	19.56	-45.0	-48.3	16.0	0.00e+00	0	44	0	252706816	61	5326
2026-01-11 00:53:20.00	354.46	19.66	-45.2	-48.6	15.7	0.00e+00	0	44	0	254803968	61	5499
2026-01-11 00:53:21.01	354.31	19.77	-45.3	-48.7	15.7	0.00e+00	0	44	0	255852544	61	5547
2026-01-11 00:53:22.01	354.16	19.87	-45.4	-48.9	15.5	0.00e+00	0	44	0	257949696	61	5676
2026-01-11 00:53:23.01	354.02	19.97	-45.7	-49.2	15.3	0.00e+00	0	43	0	260046848	62	5543
2026-01-11 00:53:24.02	353.86	20.08	-45.8	-49.3	15.1	0.00e+00	0	44	0	262144000	62	5604
2026-01-11 00:53:25.02	353.71	20.18	-46.2	-49.9	14.6	0.00e+00	0	44	0	264241152	62	6000
2026-01-11 00:53:26.02	353.56	20.29	-46.0	-49.5	14.9	0.00e+00	0	44	0	265289728	62	5770
2026-01-11 00:53:27.03	353.41	20.40	-46.0	-49.5	14.9	0.00e+00	0	44	0	267386880	62	5768
2026-01-11 00:53:28.03	353.26	20.50	-46.2	-49.8	14.7	1.50e-06	0	44	0	269484032	63	5604
2026-01-11 00:53:29.03	353.10	20.61	-46.1	-49.6	14.9	7.00e-07	0	44	0	271581184	63	5477
2026-01-11 00:53:30.04	352.94	20.71	-46.0	-49.4	15.0	7.00e-07	0	44	0	273678336	63	5378
2026-01-11 00:53:31.04	352.79	20.82	-46.1	-49.6	14.8	7.00e-07	0	44	0	274726912	63	5492
2026-01-11 00:53:32.04	352.63	20.93	-46.0	-49.5	14.9	0.00e+00	0	44	0	276824064	63	5431
2026-01-11 00:53:33.05	352.47	21.04	-46.3	-49.9	14.5	0.00e+00	0	44	0	278921216	63	5707
2026-01-11 00:53:34.05	352.31	21.14	-46.1	-49.6	14.9	0.00e+00	0	44	0	281018368	63	5498
2026-01-11 00:53:35.05	352.15	21.25	-45.9	-49.3	15.1	7.00e-07	0	44	0	282066944	63	5304
2026-01-11 00:53:36.06	351.98	21.36	-46.0	-49.4	15.0	7.00e-07	0	44	0	284164096	63	5387
2026-01-11 00:53:37.06	351.82	21.47	-46.1	-49.5	15.0	7.00e-07	0	44	0	286261248	63	5424
2026-01-11 00:53:38.07	351.65	21.57	-46.1	-49.4	15.0	0.00e+00	0	44	0	288358400	63	5380
2026-01-11 00:53:39.07	351.49	21.68	-46.1	-49.4	15.0	0.00e+00	0	44	0	290455552	63	5396
2026-01-11 00:53:40.07	351.32	21.79	-46.0	-49.3	15.2	0.00e+00	0	44	0	292552704	63	5282
2026-01-11 00:53:41.08	351.15	21.90	-46.3	-49.8	14.7	7.00e-07	0	44	0	293601280	63	5604
2026-01-11 00:53:42.08	350.98	22.01	-45.9	-49.2	15.3	0.00e+00	0	44	0	295698432	63	5244
2026-01-11 00:53:43.08	350.81	22.12	-45.7	-48.9	15.5	0.00e+00	0	44	0	297795584	63	5082
2026-01-11 00:53:44.09	350.63	22.23	-45.4	-48.5	15.9	0.00e+00	0	44	0	299892736	62	5155
2026-01-11 00:53:45.09	350.46	22.34	-45.4	-48.5	15.9	0.00e+00	0	44	0	300941312	62	5156
2026-01-11 00:53:46.10	350.28	22.45	-45.4	-48.6	15.9	0.00e+00	0	44	0	303038464	62	5182
2026-01-11 00:53:47.10	350.11	22.56	-45.1	-48.1	16.3	0.00e+00	0	44	0	305135616	62	4909
2026-01-11 00:53:48.10	349.93	22.67	-44.9	-48.0	16.4	0.00e+00	0	44	0	307232768	61	5101
2026-01-11 00:53:49.11	349.75	22.78	-45.1	-48.2	16.2	0.00e+00	0	44	0	309329920	61	5238
2026-01-11 00:53:50.11	349.57	22.89	-44.8	-47.8	16.6	0.00e+00	0	44	0	310378496	61	5007
2026-01-11 00:53:51.11	349.39	23.00	-44.8	-47.7	16.7	0.00e+00	0	44	0	312475648	61	4970
2026-01-11 00:53:52.12	349.21	23.11	-44.8	-47.7	16.6	0.00e+00	0	44	0	314572800	61	4979
2026-01-11 00:53:53.12	349.02	23.22	-45.0	-48.1	16.3	0.00e+00	0	44	0	316669952	61	5177
2026-01-11 00:53:54.12	348.84	23.33	-44.9	-48.0	16.4	0.00e+00	0	44	0	318767104	61	5117
2026-01-11 00:53:55.12	348.65	23.44	-44.9	-47.9	16.5	0.00e+00	0	44	0	319815680	61	5082
2026-01-11 00:53:56.12	348.46	23.55	-44.7	-47.7	16.6	0.00e+00	0	44	0	321912832	61	4967
2026-01-11 00:53:57.13	348.27	23.66	-44.9	-48.1	16.3	0.00e+00	0	44	0	324009984	61	5161
2026-01-11 00:53:58.13	348.08	23.77	-44.9	-48.2	16.2	0.00e+00	0	44	0	326107136	61	5261
2026-01-11 00:53:59.13	347.89	23.89	-44.9	-48.2	16.2	0.00e+00	0	44	0	328204288	61	5258
2026-01-11 00:54:00.14	347.69	24.00	-44.9	-48.3	16.2	0.00e+00	0	44	0	329252864	61	5301
2026-01-11 00:54:01.14	347.50	24.11	-45.1	-48.6	15.8	0.00e+00	0	44	0	331350016	61	5526
2026-01-11 00:54:02.14	347.30	24.22	-45.1	-48.6	15.8	0.00e+00	0	44	0	333447168	61	5500
2026-01-11 00:54:03.14	347.11	24.33	-45.2	-48.6	15.8	0.00e+00	0	44	0	335544320	61	5518
2026-01-11 00:54:04.15	346.91	24.45	-45.4	-48.9	15.5	0.00e+00	0	44	0	337641472	61	5702
2026-01-11 00:54:05.15	346.71	24.56	-45.6	-49.1	15.4	0.00e+00	0	44	0	338690048	61	5794
2026-01-11 00:54:06.15	346.50	24.67	-45.7	-49.2	15.3	0.00e+00	0	44	0	340787200	62	5531
2026-01-11 00:54:07.16	346.30	24.78	-45.9	-49.4	15.1	0.00e+00	0	44	0	342884352	62	5693
2026-01-11 00:54:08.16	346.09	24.90	-46.1	-49.7	14.9	0.00e+00	0	44	0	344981504	62	5867
2026-01-11 00:54:09.16	345.89	25.01	-46.3	-49.9	14.6	7.00e-07	0	43	0	346030080	63	5695
2026-01-11 00:54:10.17	345.68	25.12	-46.6	-50.4	14.1	0.00e+00	0	44	0	348127232	63	6041
2026-01-11 00:54:11.17	345.47	25.23	-46.5	-50.4	14.0	2.20e-06	0	44	0	350224384	64	5693
2026-01-11 00:54:12.17	345.26	25.35	-46.6	-50.6	13.8	6.10e-06	0	44	0	352321536	64	5845
2026-01-11 00:54:13.18	345.04	25.46	-46.8	-51.0	13.5	7.60e-06	0	44	0	354418688	64	6078
2026-01-11 00:54:14.18	344.83	25.57	-46.7	-50.8	13.7	6.10e-06	0	44	0	355467264	64	5932
2026-01-11 00:54:15.18	344.61	25.69	-46.7	-50.8	13.7	6.80e-06	0	44	0	357564416	64	5943
2026-01-11 00:54:16.19	344.39	25.80	-46.6	-50.6	13.8	2.20e-06	0	44	0	359661568	64	5831
2026-01-11 00:54:17.19	344.18	25.91	-46.4	-50.1	14.3	3.00e-06	0	44	0	361758720	64	5503
2026-01-11 00:54:18.19	343.96	26.03	-46.4	-50.1	14.1	7.00e-07	0	44	0	363855872	64	5526
2026-01-11 00:54:19.20	343.73	26.14	-46.3	-49.9	14.6	0.00e+00	0	44	0	364904448	64	5357
2026-01-11 00:54:20.20	343.51	26.25	-46.3	-49.9	14.5	2.20e-06	0	44	0	367001600	64	5361
2026-01-11 00:54:21.20	343.28	26.36	-46.2	-49.7	14.8	0.00e+00	0	44	0	369098752	64	5221
2026-01-11 00:54:22.21	343.06	26.48	-46.1	-49.5	14.9	0.00e+00	0	44	0	371195904	64	5144
2026-01-11 00:54:23.21	342.83	26.59	-46.1	-49.6	14.8	0.00e+00	0	44	0	373293056	64	5185
2026-01-11 00:54:24.22	342.59	26.70	-46.0	-49.4	15.0	0.00e+00	0	44	0	374341632	63	5396
2026-01-11 00:54:25.22	342.36	26.82	-46.0	-49.4	15.1	0.00e+00	0	44	0	376438784	63	5373
2026-01-11 00:54:26.22	342.13	26.93	-45.9	-49.2	15.2	0.00e+00	0	44	0	378535936	63	5259
2026-01-11 00:54:27.23	341.89	27.04	-46.0	-49.4	15.1	0.00e+00	0	44	0	380633088	63	5376
2026-01-11 00:54:28.23	341.66	27.16	-46.1	-49.5	15.0	0.00e+00	0	44	0	382730240	63	5425
2026-01-11 00:54:29.23	341.42	27.27	-46.3	-49.7	14.9	0.00e+00	0	44	0	383778816	63	5567
2026-01-11 00:54:30.24	341.18	27.38	-46.1	-49.5	15.0	0.00e+00	0	44	0	385875968	63	5434
2026-01-11 00:54:31.24	340.93	27.49	-46.1	-49.5	15.0	0.00e+00	0	44	0	387973120	63	5425
2026-01-11 00:54:32.24	340.69	27.61	-46.1	-49.6	14.9	0.00e+00	0	44	0	390070272	63	5503
2026-01-11 00:54:33.25	340.44	27.72	-46.1	-49.6	14.9	0.00e+00	0	44	0	392167424	63	5467
2026-01-11 00:54:34.25	340.20	27.83	-46.0	-49.4	14.9	0.00e+00	0	44	0	393216000	63	5372
2026-01-11 00:54:35.26	339.94	27.94	-46.3	-49.9	14.6	7.00e-07	0	44	0	395313152	63	5674
2026-01-11 00:54:36.26	339.69	28.05	-46.3	-49.9	14.7	0.00e+00	0	44	0	397410304	63	5662
2026-01-11 00:54:37.26	339.44	28.17	-46.3	-49.8	14.7	0.00e+00	0	44	0	399507456	63	5629
2026-01-11 00:54:38.27	339.19	28.28	-46.3	-49.9	14.7	1.50e-06	0	44	0	400556032	63	5666
2026-01-11 00:54:39.27	338.93	28.39	-46.3	-49.7	14.8	7.00e-07	0	44	0	402653184	63	5584
2026-01-11 00:54:40.27	338.67	28.50	-46.4	-49.9	14.7	0.00e+00	0	44	0	404750336	63	5663
2026-01-11 00:54:41.27	338.41	28.61	-46.1	-49.5	15.1	0.00e+00	0	44	0	406847488	63	5427
2026-01-11 00:54:42.28	338.15	28.72	-46.0	-49.3	15.2	0.00e+00	0	44	0	408944640	63	5311
2026-01-11 00:54:43.28	337.89	28.83	-46.0	-49.5	15.0	0.00e+00	0	44	0	411041792	63	5437
2026-01-11 00:54:44.29	337.62	28.94	-45.8	-49.3	15.2	0.00e+00	0	44	0	412090368	63	5317
2026-01-11 00:54:45.29	337.35	29.05	-46.0	-49.7	14.8	0.00e+00	0	44	0	414187520	63	5576
2026-01-11 00:54:46.29	337.08	29.16	-46.0	-49.7	14.8	0.00e+00	0	44	0	416284672	63	5551
2026-01-11 00:54:47.30	336.81	29.27	-46.3	-50.1	14.4	7.00e-07	0	44	0	418381824	63	5831
2026-01-11 00:54:48.30	336.54	29.38	-46.3	-50.1	14.4	2.20e-06	0	44	0	419430400	63	5811
2026-01-11 00:54:49.31	336.26	29.49	-46.6	-50.4	14.2	2.20e-06	0	44	0	421527552	63	6006
2026-01-11 00:54:50.31	335.98	29.60	-46.4	-50.2	14.3	7.00e-07	0	44	0	423624704	63	5861
2026-01-11 00:54:51.31	335.71	29.70	-46.2	-49.9	14.5	0.00e+00	0	44	0	425721856	63	5714
2026-01-11 00:54:52.31	335.43	29.81	-45.9	-49.6	14.9	0.00e+00	0	44	0	427819008	63	5470
2026-01-11 00:54:53.32	335.14	29.92	-45.6	-49.1	15.5	0.00e+00	0	44	0	428867584	62	5470
2026-01-11 00:54:54.32	334.86	30.03	-45.8	-49.4	15.1	0.00e+00	0	44	0	430964736	62	5711
2026-01-11 00:54:55.33	334.57	30.13	-45.8	-49.6	15.0	0.00e+00	0	44	0	433061888	62	5831
2026-01-11 00:54:56.33	334.28	30.24	-45.9	-49.5	14.9	0.00e+00	0	44	0	435159040	62	5770
2026-01-11 00:54:57.33	333.99	30.34	-46.1	-49.9	14.6	0.00e+00	0	44	0	437256192	62	6040
2026-01-11 00:54:58.34	333.70	30.45	-46.4	-50.3	14.3	2.20e-06	0	44	0	438304768	63	5936
2026-01-11 00:54:59.34	333.40	30.55	-46.5	-50.4	14.0	3.80e-06	0	44	0	440401920	64	5702
2026-01-11 00:55:00.35	333.11	30.66	-46.9	-51.3	13.2	1.29e-05	0	44	0	442499072	64	6280
2026-01-11 00:55:01.35	332.81	30.76	-47.3	-52.0	12.5	5.26e-05	0	44	0	444596224	65	6421
2026-01-11 00:55:02.35	332.51	30.87	-47.4	-52.2	12.2	1.71e-04	0	44	0	446693376	65	6623
2026-01-11 00:55:03.36	332.21	30.97	-47.5	-52.5	12.0	2.82e-04	0	44	0	447741952	65	6827
2026-01-11 00:55:04.36	331.90	31.07	-47.2	-51.9	12.6	3.52e-04	0	44	0	449839104	65	6349
2026-01-11 00:55:05.37	331.60	31.17	-47.1	-51.5	12.9	7.40e-05	0	44	0	451936256	65	6095
2026-01-11 00:55:06.37	331.29	31.27	-46.7	-50.6	13.8	1.44e-05	0	44	0	454033408	65	5510
2026-01-11 00:55:07.37	330.98	31.37	-46.4	-50.0	14.4	3.80e-06	0	44	0	456130560	64	5456
2026-01-11 00:55:08.38	330.67	31.48	-46.2	-49.8	14.6	1.50e-06	0	44	0	457179136	64	5285
2026-01-11 00:55:09.38	330.35	31.57	-46.4	-50.1	14.3	0.00e+00	0	44	0	459276288	64	5525
2026-01-11 00:55:10.38	330.04	31.67	-46.8	-50.9	13.5	6.10e-06	0	44	0	461373440	64	6023
2026-01-11 00:55:11.38	329.72	31.77	-47.3	-51.8	12.6	3.12e-05	0	44	0	463470592	65	6331
2026-01-11 00:55:12.38	329.40	31.87	-47.6	-52.5	11.9	6.10e-05	0	44	0	465567744	65	6859
2026-01-11 00:55:13.39	329.08	31.96	-47.7	-52.6	11.9	3.52e-04	0	44	0	466616320	66	6505
2026-01-11 00:55:14.39	328.76	32.06	-47.7	-52.5	12.0	3.42e-04	0	44	0	468713472	66	6433
2026-01-11 00:55:15.39	328.44	32.15	-47.6	-52.3	12.1	3.65e-04	0	44	0	470810624	66	6313
2026-01-11 00:55:16.40	328.11	32.25	-47.7	-52.3	12.2	2.17e-04	0	44	0	472907776	66	6346
2026-01-11 00:55:17.40	327.78	32.34	-47.8	-52.6	11.9	7.99e-04	0	44	0	473956352	66	6527
2026-01-11 00:55:18.41	327.44	32.44	-47.8	-52.6	11.8	2.17e-04	0	44	0	476053504	66	6565
2026-01-11 00:55:19.41	327.11	32.53	-48.0	-53.1	11.3	3.94e-04	0	44	0	478150656	66	6926
2026-01-11 00:55:20.41	326.78	32.62	-48.0	-53.2	11.2	1.65e-03	0	44	0	480247808	67	6574
2026-01-11 00:55:21.42	326.44	32.71	-48.3	-54.0	10.4	3.68e-03	0	44	0	482344960	67	7282
2026-01-11 00:55:22.42	326.10	32.80	-48.4	-54.1	10.3	6.03e-03	0	44	0	484442112	67	7317
2026-01-11 00:55:23.42	325.76	32.89	-48.5	-54.3	10.0	8.74e-03	0	44	0	485490688	67	7482
2026-01-11 00:55:24.43	325.42	32.98	-48.1	-53.5	10.8	4.77e-03	0	44	0	487587840	67	6851
2026-01-11 00:55:25.43	325.08	33.06	-48.1	-53.4	11.0	1.33e-03	0	44	0	489684992	67	6758
2026-01-11 00:55:26.44	324.73	33.15	-47.6	-52.3	12.3	2.89e-04	0	44	0	491782144	67	5947
2026-01-11 00:55:27.44	324.38	33.23	-46.9	-51.0	13.4	6.56e-05	0	44	0	492830720	65	5725
2026-01-11 00:55:28.45	324.03	33.32	-47.2	-51.6	13.0	2.44e-05	0	44	0	494927872	65	6133
2026-01-11 00:55:29.45	323.68	33.40	-47.2	-51.6	12.9	5.18e-05	0	44	0	497025024	65	6139
2026-01-11 00:55:30.46	323.32	33.48	-47.5	-52.2	12.2	1.83e-04	0	44	0	499122176	65	6600
2026-01-11 00:55:31.46	322.97	33.56	-47.5	-52.2	12.3	1.05e-04	0	44	0	501219328	65	6586
2026-01-11 00:55:32.46	322.61	33.64	-47.7	-52.9	11.5	1.62e-04	0	44	0	502267904	66	6769
2026-01-11 00:55:33.47	322.25	33.72	-47.2	-51.9	12.7	2.43e-04	0	44	0	504365056	66	6004
2026-01-11 00:55:34.47	321.89	33.80	-47.0	-51.4	13.1	1.13e-04	0	44	0	506462208	66	5693
2026-01-11 00:55:35.47	321.53	33.88	-46.6	-50.7	13.7	2.51e-05	0	44	0	508559360	65	5566
2026-01-11 00:55:36.48	321.17	33.95	-46.4	-50.4	14.1	3.00e-06	0	44	0	510656512	64	5667
2026-01-11 00:55:37.48	320.80	34.03	-46.7	-51.0	13.4	3.00e-06	0	44	0	511705088	64	6118
2026-01-11 00:55:38.48	320.44	34.10	-47.1	-51.9	12.5	2.67e-05	0	44	0	513802240	64	6757
2026-01-11 00:55:39.49	320.06	34.17	-47.4	-52.5	11.9	2.73e-04	0	44	0	515899392	65	6840
2026-01-11 00:55:40.49	319.69	34.24	-47.6	-52.5	11.8	8.89e-04	0	44	0	517996544	66	6476
2026-01-11 00:55:41.49	319.32	34.31	-47.7	-52.6	11.8	5.12e-04	0	44	0	520093696	66	6565
2026-01-11 00:55:42.50	318.95	34.38	-47.3	-51.7	12.7	1.60e-04	0	44	0	521142272	66	5904
2026-01-11 00:55:43.50	318.57	34.45	-47.2	-51.4	13.2	2.44e-05	0	44	0	523239424	66	5658
2026-01-11 00:55:44.51	318.19	34.51	-46.8	-50.8	13.7	6.10e-06	0	44	0	525336576	65	5611
2026-01-11 00:55:45.51	317.82	34.58	-46.8	-50.6	13.9	1.50e-06	0	44	0	527433728	65	5502
2026-01-11 00:55:46.51	317.44	34.64	-46.5	-50.0	14.4	9.90e-06	0	44	0	529530880	64	5464
2026-01-11 00:55:47.51	317.06	34.70	-46.6	-50.3	14.2	3.00e-06	0	44	0	530579456	64	5653
2026-01-11 00:55:48.52	316.67	34.76	-46.6	-50.2	14.2	7.00e-07	0	44	0	532676608	64	5572
2026-01-11 00:55:49.52	316.29	34.82	-46.2	-49.6	14.9	2.20e-06	0	44	0	534773760	64	5184
2026-01-11 00:55:50.52	315.91	34.88	-45.4	-48.4	16.0	0.00e+00	0	44	0	536870912	62	5093
2026-01-11 00:55:51.53	315.52	34.94	-45.3	-48.3	16.2	0.00e+00	0	44	0	538968064	62	4991
2026-01-11 00:55:52.53	315.13	34.99	-44.5	-47.1	17.3	0.00e+00	0	44	0	540016640	61	4643
2026-01-11 00:55:53.53	314.74	35.05	-44.4	-47.0	17.4	0.00e+00	0	44	0	542113792	60	4850
2026-01-11 00:55:54.54	314.35	35.10	-44.5	-47.2	17.2	0.00e+00	0	44	0	544210944	60	4955
2026-01-11 00:55:55.54	313.96	35.15	-44.4	-47.0	17.3	0.00e+00	0	44	0	546308096	60	4853
2026-01-11 00:55:56.55	313.56	35.20	-44.3	-46.9	17.5	0.00e+00	0	44	0	547356672	60	4769
2026-01-11 00:55:57.55	313.17	35.25	-44.4	-47.0	17.3	0.00e+00	0	44	0	549453824	60	4833
2026-01-11 00:55:58.55	312.77	35.29	-44.8	-47.6	16.8	0.00e+00	0	44	0	551550976	60	5199
2026-01-11 00:55:59.56	312.37	35.34	-45.2	-48.1	16.1	0.00e+00	0	44	0	553648128	61	5204
2026-01-11 00:56:00.56	311.97	35.38	-46.2	-49.3	15.7	0.00e+00	0	44	0	555745280	62	5606
2026-01-11 00:56:01.57	311.57	35.43	-45.6	-48.7	15.8	0.00e+00	0	44	0	557842432	62	5262
2026-01-11 00:56:02.57	311.17	35.47	-45.1	-48.0	16.5	0.00e+00	0	44	0	558891008	62	4817
2026-01-11 00:56:03.57	310.77	35.51	-44.9	-47.7	16.7	0.00e+00	0	44	0	560988160	61	4974
2026-01-11 00:56:04.58	310.37	35.54	-44.7	-47.4	17.0	0.00e+00	0	44	0	563085312	61	4785
2026-01-11 00:56:05.58	309.97	35.58	-44.6	-47.3	17.1	0.00e+00	0	44	0	565182464	61	4733
2026-01-11 00:56:06.58	309.57	35.61	-44.6	-47.4	17.0	0.00e+00	0	44	0	566231040	60	5055
2026-01-11 00:56:07.59	309.16	35.65	-44.8	-47.6	16.8	0.00e+00	0	44	0	568328192	60	5195
2026-01-11 00:56:08.59	308.75	35.68	-44.9	-47.8	16.6	0.00e+00	0	44	0	570425344	60	5304
2026-01-11 00:56:09.59	308.35	35.71	-45.0	-47.8	16.6	0.00e+00	0	44	0	572522496	60	5331
2026-01-11 00:56:10.60	307.94	35.73	-45.1	-48.1	16.4	0.00e+00	0	44	0	574619648	60	5485
2026-01-11 00:56:11.60	307.53	35.76	-45.4	-48.4	16.0	0.00e+00	0	44	0	575668224	61	5402
2026-01-11 00:56:12.60	307.13	35.78	-45.3	-48.3	16.2	0.00e+00	0	44	0	577765376	61	5282
2026-01-11 00:56:13.61	306.71	35.81	-44.6	-47.3	17.1	0.00e+00	0	44	0	579862528	61	4716
2026-01-11 00:56:14.61	306.31	35.83	-44.0	-46.5	17.8	0.00e+00	0	44	0	581959680	60	4556
2026-01-11 00:56:15.61	305.90	35.85	-43.7	-46.1	18.1	0.00e+00	0	44	0	584056832	59	4612
2026-01-11 00:56:16.62	305.48	35.87	-43.7	-46.1	18.1	0.00e+00	0	44	0	585105408	59	4620
2026-01-11 00:56:17.62	305.07	35.88	-44.2	-46.8	17.5	0.00e+00	0	44	0	587202560	59	5038
2026-01-11 00:56:18.62	304.66	35.90	-45.0	-48.0	16.4	0.00e+00	0	44	0	589299712	60	5454
2026-01-11 00:56:19.62	304.25	35.91	-45.3	-48.4	16.1	0.00e+00	0	44	0	591396864	61	5376
2026-01-11 00:56:20.62	303.84	35.92	-45.6	-48.8	15.7	0.00e+00	0	44	0	593494016	61	5630
2026-01-11 00:56:21.63	303.43	35.93	-45.8	-49.0	15.5	0.00e+00	0	44	0	594542592	62	5447
2026-01-11 00:56:22.63	303.02	35.94	-45.8	-49.1	15.4	0.00e+00	0	44	0	596639744	62	5518
2026-01-11 00:56:23.64	302.60	35.94	-45.8	-49.1	15.5	0.00e+00	0	44	0	598736896	62	5472
2026-01-11 00:56:24.64	302.19	35.95	-45.5	-48.6	15.9	0.00e+00	0	44	0	600834048	62	5165
2026-01-11 00:56:25.65	301.77	35.95	-45.4	-48.5	16.0	0.00e+00	0	44	0	602931200	62	5108
2026-01-11 00:56:26.65	301.36	35.95	-45.6	-48.7	15.8	0.00e+00	0	44	0	603979776	62	5258
2026-01-11 00:56:27.65	300.95	35.95	-45.6	-48.7	15.8	0.00e+00	0	44	0	606076928	62	5229
2026-01-11 00:56:28.66	300.53	35.95	-45.7	-48.7	15.8	0.00e+00	0	44	0	608174080	62	5270
2026-01-11 00:56:29.66	300.12	35.95	-45.9	-49.1	15.5	0.00e+00	0	44	0	610271232	62	5480
2026-01-11 00:56:30.66	299.71	35.94	-45.8	-49.0	15.5	0.00e+00	0	44	0	611319808	62	5433
2026-01-11 00:56:31.67	299.30	35.93	-45.5	-48.4	16.0	0.00e+00	0	44	0	613416960	62	5094
2026-01-11 00:56:32.67	298.88	35.92	-45.0	-47.8	16.7	0.00e+00	0	44	0	615514112	62	4727
2026-01-11 00:56:33.67	298.47	35.91	-44.9	-47.7	16.7	0.00e+00	0	44	0	617611264	61	4965
2026-01-11 00:56:34.68	298.06	35.90	-45.3	-48.3	16.1	0.00e+00	0	44	0	619708416	61	5304
2026-01-11 00:56:35.68	297.65	35.89	-45.8	-48.9	15.6	0.00e+00	0	44	0	621805568	62	5383
2026-01-11 00:56:36.68	297.24	35.87	-45.7	-48.8	15.7	0.00e+00	0	44	0	622854144	62	5327
2026-01-11 00:56:37.69	296.82	35.85	-45.5	-48.5	16.0	0.00e+00	0	44	0	624951296	62	5117
2026-01-11 00:56:38.69	296.42	35.83	-45.6	-48.6	15.8	0.00e+00	0	44	0	627048448	62	5212
2026-01-11 00:56:39.69	296.01	35.81	-46.0	-49.2	15.3	0.00e+00	0	44	0	629145600	62	5559
2026-01-11 00:56:40.70	295.59	35.79	-46.5	-50.0	14.5	0.00e+00	0	44	0	630194176	63	5778
2026-01-11 00:56:41.70	295.19	35.77	-46.5	-50.0	14.5	0.00e+00	0	44	0	632291328	63	5762
2026-01-11 00:56:42.70	294.78	35.74	-46.5	-50.1	14.4	7.00e-07	0	44	0	634388480	63	5823
2026-01-11 00:56:43.71	294.37	35.71	-46.3	-49.7	14.8	0.00e+00	0	44	0	636485632	63	5561
2026-01-11 00:56:44.71	293.96	35.69	-46.2	-49.6	14.9	0.00e+00	0	44	0	638582784	63	5525
2026-01-11 00:56:45.71	293.56	35.66	-46.4	-49.9	14.7	0.00e+00	0	44	0	639631360	63	5679
2026-01-11 00:56:46.72	293.15	35.62	-46.9	-50.8	13.7	0.00e+00	0	44	0	641728512	64	5960
2026-01-11 00:56:47.72	292.75	35.59	-46.9	-50.8	13.7	1.06e-05	0	44	0	643825664	64	5946
2026-01-11 00:56:48.72	292.35	35.55	-47.2	-51.3	13.1	4.50e-05	0	44	0	645922816	65	5961
2026-01-11 00:56:49.72	291.94	35.52	-46.8	-50.6	13.8	1.06e-05	0	44	0	648019968	65	5521
2026-01-11 00:56:50.73	291.54	35.48	-46.5	-50.1	14.4	2.20e-06	0	44	0	649068544	64	5465
2026-01-11 00:56:51.73	291.14	35.44	-46.3	-49.9	14.6	0.00e+00	0	44	0	651165696	64	5349
2026-01-11 00:56:52.74	290.74	35.40	-46.0	-49.2	15.2	0.00e+00	0	44	0	653262848	63	5278
2026-01-11 00:56:53.74	290.34	35.35	-45.8	-48.9	15.5	0.00e+00	0	44	0	655360000	63	5067
2026-01-11 00:56:54.74	289.94	35.31	-46.0	-49.2	15.3	0.00e+00	0	44	0	657457152	63	5219
2026-01-11 00:56:55.74	289.55	35.26	-46.0	-49.3	15.2	0.00e+00	0	44	0	658505728	63	5290
2026-01-11 00:56:56.75	289.15	35.22	-46.8	-50.5	14.0	1.50e-06	0	44	0	660602880	64	5732
2026-01-11 00:56:57.75	288.76	35.17	-47.0	-50.9	13.5	1.50e-06	0	44	0	662700032	64	6054
2026-01-11 00:56:58.75	288.37	35.12	-46.8	-50.5	13.9	1.29e-05	0	44	0	664797184	64	5755
2026-01-11 00:56:59.76	287.97	35.06	-46.7	-50.4	14.1	2.20e-06	0	44	0	666894336	64	5664
2026-01-11 00:57:00.76	287.58	35.01	-46.3	-49.8	14.6	7.00e-07	0	44	0	667942912	64	5316
2026-01-11 00:57:01.76	287.19	34.96	-46.3	-49.8	14.7	7.00e-07	0	44	0	670040064	64	5284
2026-01-11 00:57:02.77	286.80	34.90	-46.0	-49.2	15.2	7.00e-07	0	44	0	672137216	63	5275
2026-01-11 00:57:03.77	286.42	34.84	-45.4	-48.3	16.1	0.00e+00	0	44	0	674234368	62	5031
2026-01-11 00:57:04.78	286.03	34.78	-45.5	-48.5	16.0	0.00e+00	0	44	0	676331520	62	5119
2026-01-11 00:57:05.78	285.65	34.72	-45.4	-48.3	16.2	0.00e+00	0	44	0	677380096	62	5033
2026-01-11 00:57:06.78	285.27	34.66	-45.7	-48.8	15.7	0.00e+00	0	44	0	679477248	62	5309
2026-01-11 00:57:07.79	284.88	34.60	-46.0	-49.3	15.1	0.00e+00	0	44	0	681574400	62	5649
2026-01-11 00:57:08.78	284.51	34.53	-46.2	-49.6	14.8	0.00e+00	0	44	0	683671552	63	5499
2026-01-11 00:57:09.79	284.13	34.47	-46.3	-49.7	14.7	0.00e+00	0	44	0	684720128	63	5585
2026-01-11 00:57:10.79	283.75	34.40	-46.1	-49.3	15.1	0.00e+00	0	44	0	686817280	63	5318
2026-01-11 00:57:11.79	283.38	34.33	-45.6	-48.7	15.8	0.00e+00	0	44	0	688914432	63	4941
2026-01-11 00:57:12.80	283.00	34.26	-45.6	-48.6	15.9	0.00e+00	0	44	0	691011584	62	5196
2026-01-11 00:57:13.80	282.63	34.19	-45.1	-47.9	16.5	0.00e+00	0	44	0	693108736	61	5056
2026-01-11 00:57:14.80	282.26	34.12	-45.1	-47.9	16.6	0.00e+00	0	44	0	694157312	61	5075
2026-01-11 00:57:15.81	281.89	34.05	-45.6	-48.6	15.8	0.00e+00	0	44	0	696254464	61	5522
2026-01-11 00:57:16.81	281.53	33.97	-46.2	-49.5	14.8	0.00e+00	0	44	0	698351616	63	5459
2026-01-11 00:57:17.81	281.16	33.90	-46.9	-50.9	13.5	2.20e-06	0	44	0	700448768	64	6023
2026-01-11 00:57:18.82	280.80	33.82	-46.9	-50.8	13.6	6.80e-06	0	44	0	702545920	64	5962
2026-01-11 00:57:19.82	280.43	33.74	-46.8	-50.7	13.9	6.80e-06	0	44	0	703594496	64	5860
2026-01-11 00:57:20.82	280.08	33.67	-46.2	-49.5	14.8	7.00e-07	0	44	0	705691648	64	5149
2026-01-11 00:57:21.82	279.72	33.59	-45.5	-48.5	16.0	0.00e+00	0	44	0	707788800	63	4816
2026-01-11 00:57:22.83	279.36	33.50	-45.2	-48.0	16.4	0.00e+00	0	44	0	709885952	61	5146
2026-01-11 00:57:23.83	279.01	33.42	-45.5	-48.5	16.0	0.00e+00	0	44	0	711983104	61	5406
2026-01-11 00:57:24.84	278.65	33.34	-46.2	-49.5	15.1	0.00e+00	0	44	0	713031680	62	5774
2026-01-11 00:57:25.84	278.30	33.26	-46.5	-50.0	14.5	0.00e+00	0	44	0	715128832	63	5768
2026-01-11 00:57:26.84	277.95	33.17	-46.7	-50.4	14.0	7.00e-07	0	44	0	717225984	64	5681
2026-01-11 00:57:27.85	277.60	33.09	-47.4	-51.7	12.7	3.80e-06	0	44	0	719323136	65	6272
2026-01-11 00:57:28.85	277.26	33.00	-47.8	-52.5	12.0	2.27e-04	0	44	0	721420288	66	6439
2026-01-11 00:57:29.85	276.92	32.91	-47.9	-52.9	11.6	4.78e-04	0	44	0	722468864	66	6726
2026-01-11 00:57:30.86	276.57	32.82	-47.9	-52.8	11.6	3.68e-04	0	44	0	724566016	66	6687
2026-01-11 00:57:31.86	276.23	32.73	-47.9	-52.7	11.7	4.35e-04	0	44	0	726663168	66	6635
2026-01-11 00:57:32.86	275.90	32.64	-47.7	-52.4	12.0	2.17e-04	0	44	0	728760320	66	6402
2026-01-11 00:57:33.87	275.56	32.55	-47.5	-52.0	12.4	1.27e-04	0	44	0	730857472	66	6082
2026-01-11 00:57:34.87	275.22	32.46	-47.4	-51.8	12.6	1.14e-04	0	44	0	731906048	66	5946
2026-01-11 00:57:35.88	274.89	32.37	-47.8	-52.5	11.9	1.78e-04	0	44	0	734003200	66	6453
2026-01-11 00:57:36.88	274.56	32.27	-47.7	-52.4	12.1	2.46e-04	0	44	0	736100352	66	6369
2026-01-11 00:57:37.88	274.23	32.18	-47.8	-52.6	11.9	3.17e-04	0	44	0	738197504	66	6530
2026-01-11 00:57:38.89	273.90	32.08	-47.5	-52.0	12.5	1.60e-04	0	44	0	740294656	66	6086
2026-01-11 00:57:39.89	273.58	31.99	-47.0	-51.0	13.4	1.98e-05	0	44	0	741343232	65	5763
2026-01-11 00:57:40.90	273.25	31.89	-46.5	-50.2	14.1	5.30e-06	0	44	0	743440384	65	5228
2026-01-11 00:57:41.90	272.93	31.79	-46.5	-50.1	14.3	7.00e-07	0	44	0	745537536	64	5485
2026-01-11 00:57:42.90	272.62	31.70	-46.4	-50.0	14.5	0.00e+00	0	44	0	747634688	64	5406
2026-01-11 00:57:43.91	272.30	31.60	-46.2	-49.6	14.8	0.00e+00	0	44	0	748683264	64	5187
2026-01-11 00:57:44.91	271.98	31.50	-45.9	-49.1	15.3	7.00e-07	0	44	0	750780416	63	5198
2026-01-11 00:57:45.91	271.67	31.40	-45.6	-48.6	15.8	0.00e+00	0	44	0	752877568	63	4908
2026-01-11 00:57:46.92	271.36	31.30	-45.9	-49.1	15.4	0.00e+00	0	44	0	754974720	62	5498
2026-01-11 00:57:47.92	271.05	31.20	-46.5	-50.0	14.4	0.00e+00	0	44	0	757071872	63	5784
2026-01-11 00:57:48.92	270.74	31.09	-47.0	-51.0	13.3	1.22e-05	0	44	0	758120448	64	6100
2026-01-11 00:57:49.93	270.43	30.99	-47.5	-52.0	12.5	3.96e-05	0	44	0	760217600	65	6437
2026-01-11 00:57:50.93	270.13	30.89	-47.6	-52.1	12.2	1.52e-04	0	44	0	762314752	65	6558
2026-01-11 00:57:51.93	269.83	30.79	-47.1	-51.2	13.2	1.40e-04	0	44	0	764411904	65	5866
2026-01-11 00:57:52.94	269.53	30.68	-46.8	-50.6	13.8	8.30e-06	0	44	0	766509056	65	5491
2026-01-11 00:57:53.94	269.23	30.58	-46.1	-49.4	14.9	7.00e-07	0	44	0	767557632	64	5082
2026-01-11 00:57:54.94	268.94	30.47	-46.0	-49.3	15.2	0.00e+00	0	44	0	769654784	63	5300
2026-01-11 00:57:55.95	268.64	30.37	-46.1	-49.4	15.0	0.00e+00	0	44	0	771751936	63	5375
2026-01-11 00:57:56.95	268.35	30.26	-46.8	-50.8	13.6	7.00e-07	0	44	0	773849088	64	5933
2026-01-11 00:57:57.95	268.06	30.15	-47.5	-52.1	12.3	2.21e-05	0	44	0	775946240	65	6514
2026-01-11 00:57:58.96	267.77	30.05	-48.1	-53.3	11.1	4.55e-04	0	44	0	776994816	66	7077
2026-01-11 00:57:59.96	267.49	29.94	-47.8	-52.6	11.7	9.57e-04	0	44	0	779091968	67	6176
2026-01-11 00:58:00.96	267.20	29.83	-47.8	-52.5	11.9	6.26e-04	0	44	0	781189120	67	6083
2026-01-11 00:58:01.97	266.92	29.72	-47.5	-51.9	12.5	2.79e-04	0	44	0	783286272	66	6040
2026-01-11 00:58:02.97	266.64	29.62	-47.3	-51.6	12.9	8.01e-05	0	44	0	785383424	66	5810
2026-01-11 00:58:03.97	266.36	29.51	-46.7	-50.5	13.9	3.00e-06	0	44	0	786432000	65	5454
2026-01-11 00:58:04.98	266.08	29.40	-46.8	-50.8	13.6	3.80e-06	0	44	0	788529152	65	5612
2026-01-11 00:58:05.98	265.81	29.29	-46.9	-50.8	13.6	2.20e-06	0	44	0	790626304	65	5634
2026-01-11 00:58:06.99	265.53	29.18	-50.1	-59.6	6.2	1.29e-05	0	44	0	792723456	70	11623
2026-01-11 00:58:07.99	265.26	29.07	-47.5	-51.7	13.0	1.27e-03	0	44	0	794820608	66	5884
2026-01-11 00:58:09.00	264.99	28.96	-47.3	-51.6	12.8	4.34e-05	0	44	0	795869184	66	5808
2026-01-11 00:58:10.00	264.73	28.85	-47.6	-52.1	12.3	1.91e-04	0	44	0	797966336	66	6167
2026-01-11 00:58:11.01	264.46	28.74	-47.3	-51.6	12.8	1.18e-04	0	44	0	800063488	66	5826
2026-01-11 00:58:12.01	264.20	28.63	-46.6	-50.4	13.9	2.44e-05	0	44	0	802160640	65	5372
2026-01-11 00:58:13.01	263.94	28.52	-46.1	-49.5	14.9	0.00e+00	0	44	0	803209216	64	5130
2026-01-11 00:58:14.02	263.67	28.40	-46.0	-49.3	15.1	0.00e+00	0	44	0	805306368	63	5333
2026-01-11 00:58:15.02	263.42	28.29	-45.7	-48.9	15.5	0.00e+00	0	44	0	807403520	63	5081
2026-01-11 00:58:16.02	263.16	28.18	-45.6	-48.8	15.6	0.00e+00	0	44	0	809500672	63	5019
2026-01-11 00:58:17.03	262.90	28.07	-45.7	-48.9	15.5	0.00e+00	0	44	0	811597824	63	5057
2026-01-11 00:58:18.03	262.65	27.96	-45.9	-49.2	15.3	0.00e+00	0	44	0	813694976	63	5257
2026-01-11 00:58:19.03	262.40	27.84	-46.1	-49.5	14.9	0.00e+00	0	44	0	814743552	63	5445
2026-01-11 00:58:20.04	262.15	27.73	-46.2	-49.7	14.7	0.00e+00	0	44	0	816840704	63	5543
2026-01-11 00:58:21.04	261.90	27.62	-46.0	-49.5	14.9	0.00e+00	0	44	0	818937856	63	5420
2026-01-11 00:58:22.04	261.66	27.51	-45.7	-49.0	15.4	0.00e+00	0	44	0	821035008	63	5114
2026-01-11 00:58:23.05	261.41	27.39	-45.4	-48.6	15.8	0.00e+00	0	44	0	822083584	62	5174
2026-01-11 00:58:24.05	261.17	27.28	-45.2	-48.2	16.2	0.00e+00	0	44	0	824180736	62	4972
2026-01-11 00:58:25.05	260.93	27.17	-45.0	-47.9	16.5	0.00e+00	0	44	0	826277888	61	5052
2026-01-11 00:58:26.06	260.69	27.05	-44.9	-47.8	16.5	0.00e+00	0	44	0	828375040	61	4989
2026-01-11 00:58:27.06	260.46	26.94	-45.0	-47.9	16.4	0.00e+00	0	44	0	830472192	61	5061
2026-01-11 00:58:28.06	260.22	26.83	-45.2	-48.2	16.2	0.00e+00	0	44	0	831520768	61	5225
2026-01-11 00:58:29.07	259.99	26.71	-45.2	-48.2	16.1	0.00e+00	0	44	0	833617920	61	5250
2026-01-11 00:58:30.07	259.75	26.60	-45.2	-48.2	16.2	0.00e+00	0	44	0	835715072	61	5240
2026-01-11 00:58:31.08	259.52	26.49	-45.1	-48.0	16.3	0.00e+00	0	44	0	837812224	61	5135
2026-01-11 00:58:32.08	259.29	26.37	-44.8	-47.7	16.6	0.00e+00	0	44	0	839909376	61	4941
2026-01-11 00:58:33.08	259.07	26.26	-44.4	-47.1	17.1	0.00e+00	0	44	0	840957952	60	4913
2026-01-11 00:58:34.09	258.84	26.15	-44.2	-46.8	17.5	0.00e+00	0	44	0	843055104	60	4754
2026-01-11 00:58:35.09	258.62	26.03	-43.9	-46.4	17.7	0.00e+00	0	44	0	845152256	59	4814
2026-01-11 00:58:36.10	258.39	25.92	-43.9	-46.4	17.8	0.00e+00	0	44	0	847249408	59	4776
2026-01-11 00:58:37.10	258.17	25.80	-44.0	-46.6	17.6	0.00e+00	0	44	0	849346560	59	4898
2026-01-11 00:58:38.11	257.95	25.69	-44.1	-46.8	17.4	0.00e+00	0	44	0	850395136	59	5004
2026-01-11 00:58:39.11	257.74	25.58	-44.6	-47.3	16.9	0.00e+00	0	44	0	852492288	59	5339
2026-01-11 00:58:40.11	257.52	25.46	-44.7	-47.6	16.7	0.00e+00	0	44	0	854589440	60	5214
2026-01-11 00:58:41.11	257.31	25.35	-44.9	-47.9	16.4	0.00e+00	0	44	0	856686592	60	5369
2026-01-11 00:58:42.12	257.09	25.24	-45.0	-47.9	16.4	0.00e+00	0	44	0	858783744	60	5393
2026-01-11 00:58:43.12	256.88	25.12	-44.6	-47.3	16.9	0.00e+00	0	44	0	859832320	60	5032
2026-01-11 00:58:44.12	256.67	25.01	-44.3	-47.0	17.3	0.00e+00	0	44	0	861929472	60	4827
2026-01-11 00:58:45.13	256.46	24.90	-43.9	-46.5	17.7	0.00e+00	0	44	0	864026624	59	4828
2026-01-11 00:58:46.13	256.26	24.78	-43.9	-46.5	17.7	0.00e+00	0	44	0	866123776	59	4822
2026-01-11 00:58:47.14	256.05	24.67	-44.0	-46.6	17.6	0.00e+00	0	44	0	868220928	59	4884
2026-01-11 00:58:48.14	255.85	24.56	-44.3	-46.9	17.2	0.00e+00	0	44	0	869269504	59	5097
2026-01-11 00:58:49.14	255.65	24.45	-44.2	-46.8	17.4	0.00e+00	0	44	0	871366656	59	5006
2026-01-11 00:58:50.15	255.44	24.33	-44.0	-46.5	17.7	0.00e+00	0	44	0	873463808	59	4856
2026-01-11 00:58:51.15	255.24	24.22	-44.2	-46.7	17.5	0.00e+00	0	44	0	875560960	59	4956
2026-01-11 00:58:52.15	255.05	24.11	-44.2	-46.7	17.5	0.00e+00	0	44	0	876609536	59	4964
2026-01-11 00:58:53.16	254.85	23.99	-44.0	-46.5	17.7	0.00e+00	0	44	0	878706688	59	4847
2026-01-11 00:58:54.16	254.65	23.88	-44.0	-46.6	17.6	0.00e+00	0	44	0	880803840	59	4880
2026-01-11 00:58:55.16	254.46	23.77	-44.1	-46.6	17.5	0.00e+00	0	44	0	882900992	59	4889
2026-01-11 00:58:56.17	254.27	23.66	-44.1	-46.6	17.6	0.00e+00	0	44	0	884998144	59	4898
2026-01-11 00:58:57.17	254.08	23.55	-44.0	-46.5	17.6	0.00e+00	0	44	0	887095296	59	4850
2026-01-11 00:58:58.17	253.89	23.43	-44.0	-46.6	17.6	0.00e+00	0	44	0	888143872	59	4886
2026-01-11 00:58:59.18	253.70	23.32	-43.9	-46.4	17.8	0.00e+00	0	44	0	890241024	59	4770
2026-01-11 00:59:00.18	253.51	23.21	-43.8	-46.3	17.8	0.00e+00	0	44	0	892338176	59	4711
2026-01-11 00:59:01.18	253.33	23.10	-44.1	-46.7	17.5	0.00e+00	0	44	0	894435328	59	4932
2026-01-11 00:59:02.19	253.14	22.99	-44.1	-46.6	17.5	0.00e+00	0	44	0	895483904	59	4921
2026-01-11 00:59:03.19	252.96	22.88	-44.3	-47.0	17.2	0.00e+00	0	44	0	897581056	59	5105
2026-01-11 00:59:04.20	252.78	22.77	-44.3	-46.9	17.3	0.00e+00	0	44	0	899678208	59	5076
2026-01-11 00:59:05.20	252.60	22.66	-44.4	-47.1	17.1	0.00e+00	0	44	0	901775360	59	5163
2026-01-11 00:59:06.20	252.42	22.55	-44.2	-46.7	17.3	0.00e+00	0	44	0	903872512	59	4977
2026-01-11 00:59:07.21	252.24	22.43	-44.5	-47.2	17.0	0.00e+00	0	44	0	904921088	59	5256
2026-01-11 00:59:08.21	252.06	22.32	-44.6	-47.4	16.8	0.00e+00	0	44	0	907018240	59	5369
2026-01-11 00:59:09.21	251.89	22.22	-44.5	-47.2	17.0	0.00e+00	0	44	0	909115392	60	4963
2026-01-11 00:59:10.22	251.71	22.10	-44.8	-47.7	16.6	0.00e+00	0	44	0	911212544	60	5222
2026-01-11 00:59:11.22	251.54	22.00	-44.9	-47.9	16.4	0.00e+00	0	44	0	913309696	60	5368
2026-01-11 00:59:12.23	251.37	21.89	-45.3	-48.4	15.9	0.00e+00	0	44	0	914358272	61	5384
2026-01-11 00:59:13.23	251.20	21.78	-45.1	-48.1	16.2	0.00e+00	0	44	0	916455424	61	5182
2026-01-11 00:59:14.23	251.03	21.67	-45.1	-48.1	16.3	0.00e+00	0	44	0	918552576	61	5206
2026-01-11 00:59:15.24	250.86	21.56	-45.0	-48.0	16.3	0.00e+00	0	44	0	920649728	61	5114
2026-01-11 00:59:16.24	250.69	21.45	-45.1	-48.0	16.3	0.00e+00	0	44	0	922746880	61	5123
2026-01-11 00:59:17.25	250.53	21.34	-45.1	-48.0	16.3	0.00e+00	0	44	0	923795456	61	5105
2026-01-11 00:59:18.25	250.36	21.23	-45.4	-48.4	15.8	0.00e+00	0	44	0	925892608	61	5391
2026-01-11 00:59:19.25	250.20	21.13	-45.5	-48.7	15.6	0.00e+00	0	44	0	927989760	61	5532
2026-01-11 00:59:20.26	250.04	21.02	-45.3	-48.4	15.9	0.00e+00	0	44	0	930086912	61	5352
2026-01-11 00:59:21.26	249.88	20.91	-45.7	-48.9	15.4	0.00e+00	0	44	0	932184064	61	5674
2026-01-11 00:59:22.27	249.72	20.80	-45.8	-49.1	15.1	0.00e+00	0	44	0	933232640	62	5495
2026-01-11 00:59:23.27	249.56	20.69	-45.7	-48.9	15.4	0.00e+00	0	44	0	935329792	62	5361
2026-01-11 00:59:24.27	249.40	20.59	-45.4	-48.5	15.8	0.00e+00	0	44	0	937426944	62	5108
2026-01-11 00:59:25.28	249.24	20.48	-45.4	-48.5	15.9	0.00e+00	0	44	0	939524096	62	5103
2026-01-11 00:59:26.28	249.09	20.37	-45.1	-48.0	16.2	0.00e+00	0	44	0	941621248	62	4849
2026-01-11 00:59:27.28	248.94	20.27	-45.0	-48.0	16.3	0.00e+00	0	44	0	942669824	62	4825
2026-01-11 00:59:28.29	248.78	20.16	-45.1	-48.1	16.2	0.00e+00	0	44	0	944766976	62	4888
2026-01-11 00:59:29.29	248.63	20.06	-45.1	-48.0	16.2	0.00e+00	0	44	0	946864128	61	5154
2026-01-11 00:59:30.29	248.48	19.95	-45.1	-48.1	16.1	0.00e+00	0	44	0	948961280	61	5199
2026-01-11 00:59:31.30	248.33	19.85	-45.3	-48.3	16.0	0.00e+00	0	44	0	950009856	61	5304
2026-01-11 00:59:32.30	248.18	19.74	-45.3	-48.3	16.0	0.00e+00	0	44	0	952107008	61	5326
2026-01-11 00:59:33.30	248.03	19.64	-45.1	-48.0	16.3	0.00e+00	0	44	0	954204160	61	5139
2026-01-11 00:59:34.31	247.88	19.53	-45.2	-48.1	16.1	0.00e+00	0	44	0	956301312	61	5210
2026-01-11 00:59:35.31	247.74	19.43	-45.0	-47.9	16.3	0.00e+00	0	44	0	958398464	61	5059
2026-01-11 00:59:36.32	247.59	19.32	-44.7	-47.5	16.7	0.00e+00	0	44	0	959447040	61	4854
2026-01-11 00:59:37.32	247.45	19.22	-44.8	-47.6	16.6	0.00e+00	0	44	0	961544192	61	4892
2026-01-11 00:59:38.32	247.31	19.12	-44.6	-47.4	16.8	0.00e+00	0	44	0	963641344	61	4776
2026-01-11 00:59:39.33	247.16	19.01	-44.5	-47.2	17.0	0.00e+00	0	44	0	965738496	60	4945
2026-01-11 00:59:40.33	247.02	18.91	-44.5	-47.2	17.0	0.00e+00	0	44	0	967835648	60	4941
2026-01-11 00:59:41.33	246.88	18.81	-44.6	-47.4	16.8	0.00e+00	0	44	0	968884224	60	5074
2026-01-11 00:59:42.33	246.75	18.70	-44.7	-47.5	16.7	0.00e+00	0	44	0	970981376	60	5158
2026-01-11 00:59:43.34	246.61	18.60	-44.8	-47.6	16.6	0.00e+00	0	44	0	973078528	60	5186
2026-01-11 00:59:44.34	246.47	18.50	-44.7	-47.5	16.7	0.00e+00	0	44	0	975175680	60	5107
2026-01-11 00:59:45.34	246.33	18.40	-44.8	-47.6	16.6	0.00e+00	0	44	0	977272832	60	5178
2026-01-11 00:59:46.35	246.20	18.30	-44.7	-47.4	16.7	0.00e+00	0	44	0	978321408	60	5096
2026-01-11 00:59:47.35	246.06	18.20	-44.6	-47.4	16.8	0.00e+00	0	44	0	980418560	60	5069
2026-01-11 00:59:48.35	245.93	18.09	-44.7	-47.4	16.7	0.00e+00	0	44	0	982515712	60	5085
2026-01-11 00:59:49.36	245.80	17.99	-44.4	-47.0	17.1	0.00e+00	0	44	0	984612864	60	4847
2026-01-11 00:59:50.36	245.67	17.89	-44.5	-47.2	16.9	0.00e+00	0	44	0	986710016	60	4968
2026-01-11 00:59:51.36	245.54	17.79	-44.5	-47.2	17.0	0.00e+00	0	44	0	987758592	60	4934
2026-01-11 00:59:52.37	245.40	17.69	-44.5	-47.1	17.0	0.00e+00	0	44	0	989855744	60	4925
2026-01-11 00:59:53.37	245.28	17.59	-44.4	-47.1	17.1	0.00e+00	0	44	0	991952896	60	4872
2026-01-11 00:59:54.37	245.15	17.49	-44.4	-47.1	17.0	0.00e+00	0	44	0	994050048	60	4885
2026-01-11 00:59:55.38	245.02	17.39	-44.5	-47.1	17.0	0.00e+00	0	44	0	996147200	60	4923
2026-01-11 00:59:56.38	244.89	17.29	-44.6	-47.3	16.9	0.00e+00	0	44	0	997195776	60	4987
2026-01-11 00:59:57.38	244.77	17.20	-45.0	-47.8	16.4	0.00e+00	0	44	0	999292928	60	5334
2026-01-11 00:59:58.38	244.64	17.10	-45.0	-47.9	16.3	0.00e+00	0	44	0	1001390080	60	5362
2026-01-11 00:59:59.38	244.52	17.00	-45.3	-48.3	15.9	0.00e+00	0	44	0	1003487232	61	5307
2026-01-11 01:00:00.39	244.40	16.90	-45.8	-49.0	15.2	0.00e+00	0	44	0	1005584384	62	5445
2026-01-11 01:00:01.39	244.27	16.80	-46.1	-49.4	14.8	0.00e+00	0	44	0	1006632960	62	5718
2026-01-11 01:00:02.40	244.15	16.71	-46.4	-49.9	14.3	0.00e+00	0	44	0	1008730112	63	5697
2026-01-11 01:00:03.40	244.03	16.61	-46.5	-50.2	14.1	0.00e+00	0	44	0	1010827264	63	5870
2026-01-11 01:00:04.40	243.91	16.51	-46.5	-50.1	14.1	3.00e-06	0	44	0	1012924416	63	5809
2026-01-11 01:00:05.41	243.79	16.41	-46.1	-49.5	14.7	7.00e-07	0	44	0	1013972992	63	5430
2026-01-11 01:00:06.41	243.67	16.32	-45.9	-49.2	15.0	0.00e+00	0	44	0	1016070144	63	5239
2026-01-11 01:00:07.41	243.56	16.22	-45.5	-48.5	15.7	0.00e+00	0	44	0	1018167296	62	5157
2026-01-11 01:00:08.42	243.44	16.13	-45.0	-47.9	16.3	0.00e+00	0	44	0	1020264448	62	4764
2026-01-11 01:00:09.42	243.32	16.03	-44.8	-47.6	16.5	0.00e+00	0	44	0	1022361600	61	4899
2026-01-11 01:00:10.42	243.21	15.94	-44.6	-47.3	16.8	0.00e+00	0	44	0	1023410176	60	5026
2026-01-11 01:00:11.43	243.09	15.84	-44.5	-47.2	16.9	0.00e+00	0	44	0	1025507328	60	4946
2026-01-11 01:00:12.43	242.98	15.75	-44.5	-47.2	16.9	0.00e+00	0	44	0	1027604480	60	4981
2026-01-11 01:00:13.43	242.87	15.65	-44.8	-47.7	16.5	0.00e+00	0	44	0	1029701632	60	5219
2026-01-11 01:00:14.44	242.75	15.56	-44.9	-47.8	16.4	0.00e+00	0	44	0	1031798784	60	5295
2026-01-11 01:00:15.44	242.64	15.46	-45.2	-48.2	15.9	0.00e+00	0	44	0	1032847360	61	5238
2026-01-11 01:00:16.44	242.53	15.37	-45.5	-48.7	15.5	0.00e+00	0	44	0	1034944512	61	5554
2026-01-11 01:00:17.45	242.42	15.27	-45.8	-49.1	15.1	0.00e+00	0	44	0	1037041664	62	5508
2026-01-11 01:00:18.45	242.31	15.18	-46.1	-49.5	14.7	0.00e+00	0	44	0	1039138816	62	5744
2026-01-11 01:00:19.45	242.20	15.09	-46.2	-49.7	14.5	0.00e+00	0	44	0	1041235968	63	5581
2026-01-11 01:00:20.45	242.09	15.00	-46.1	-49.6	14.6	0.00e+00	0	44	0	1042284544	63	5486
2026-01-11 01:00:21.45	241.99	14.90	-46.0	-49.3	14.8	0.00e+00	0	44	0	1044381696	63	5335
2026-01-11 01:00:22.46	241.88	14.81	-46.0	-49.4	14.8	7.00e-07	0	44	0	1046478848	63	5379
2026-01-11 01:00:23.46	241.77	14.72	-45.9	-49.2	15.0	0.00e+00	0	44	0	1048576000	63	5240
2026-01-11 01:00:24.46	241.67	14.63	-45.9	-49.3	14.9	0.00e+00	0	44	0	1050673152	63	5287
2026-01-11 01:00:25.47	241.56	14.53	-46.0	-49.4	14.8	0.00e+00	0	44	0	1051721728	63	5375
2026-01-11 01:00:26.47	241.46	14.44	-45.8	-49.2	15.0	0.00e+00	0	44	0	1053818880	63	5228
2026-01-11 01:00:27.47	241.36	14.35	-45.7	-49.0	15.2	0.00e+00	0	44	0	1055916032	63	5102
2026-01-11 01:00:28.48	241.25	14.26	-45.7	-49.0	15.1	7.00e-07	0	44	0	1058013184	63	5158
2026-01-11 01:00:29.48	241.15	14.17	-45.9	-49.3	14.8	7.00e-07	0	44	0	1060110336	63	5313
2026-01-11 01:00:30.48	241.05	14.08	-45.9	-49.3	14.9	7.00e-07	0	44	0	1061158912	63	5282
2026-01-11 01:00:31.48	240.95	13.99	-45.8	-49.2	14.8	7.00e-07	0	44	0	1063256064	63	5238
2026-01-11 01:00:32.49	240.85	13.90	-46.0	-49.5	14.7	1.50e-06	0	44	0	1065353216	63	5416
2026-01-11 01:00:33.49	240.75	13.81	-46.1	-49.6	14.5	0.00e+00	0	44	0	1067450368	63	5498
2026-01-11 01:00:34.49	240.65	13.72	-46.1	-49.6	14.6	1.50e-06	0	44	0	1068498944	63	5469
2026-01-11 01:00:35.50	240.55	13.63	-46.1	-49.6	14.6	1.50e-06	0	44	0	1070596096	63	5479
2026-01-11 01:00:36.50	240.45	13.54	-46.1	-49.5	14.6	1.50e-06	0	44	0	1072693248	63	5464
2026-01-11 01:00:37.50	240.35	13.45	-46.0	-49.5	14.6	2.20e-06	0	44	0	1074790400	63	5406
2026-01-11 01:00:38.50	240.26	13.37	-46.1	-49.6	14.5	1.50e-06	0	44	0	1076887552	63	5527
2026-01-11 01:00:39.51	240.16	13.28	-46.3	-49.9	14.3	0.00e+00	0	44	0	1077936128	63	5710
2026-01-11 01:00:40.51	240.07	13.19	-46.3	-49.9	14.3	7.00e-07	0	44	0	1080033280	63	5670
2026-01-11 01:00:41.51	239.97	13.10	-46.2	-49.8	14.4	7.00e-07	0	44	0	1082130432	63	5596
2026-01-11 01:00:42.52	239.88	13.01	-46.4	-50.0	14.1	7.00e-07	0	44	0	1084227584	63	5759
2026-01-11 01:00:43.52	239.78	12.93	-46.3	-49.9	14.2	7.00e-07	0	44	0	1086324736	63	5689
2026-01-11 01:00:44.52	239.69	12.84	-46.3	-49.8	14.3	7.00e-07	0	44	0	1087373312	63	5654
2026-01-11 01:00:45.53	239.60	12.75	-46.1	-49.7	14.4	0.00e+00	0	44	0	1089470464	63	5544
2026-01-11 01:00:46.53	239.51	12.67	-46.0	-49.4	14.7	7.00e-07	0	44	0	1091567616	63	5386
2026-01-11 01:00:47.53	239.41	12.58	-46.0	-49.4	14.7	0.00e+00	0	44	0	1093664768	63	5354
2026-01-11 01:00:48.54	239.32	12.49	-45.7	-48.9	15.2	0.00e+00	0	44	0	1095761920	63	5080
2026-01-11 01:00:49.54	239.23	12.41	-45.4	-48.6	15.5	0.00e+00	0	44	0	1096810496	62	5174
2026-01-11 01:00:50.54	239.14	12.32	-45.3	-48.4	15.7	0.00e+00	0	44	0	1098907648	62	5060
2026-01-11 01:00:51.55	239.05	12.24	-45.3	-48.4	15.4	0.00e+00	0	44	0	1101004800	62	5079
2026-01-11 01:00:52.55	238.96	12.15	-45.2	-48.3	15.8	0.00e+00	0	44	0	1103101952	62	4984
2026-01-11 01:00:53.55	238.88	12.07	-45.2	-48.2	15.8	0.00e+00	0	44	0	1105199104	62	4971
2026-01-11 01:00:54.56	238.79	11.98	-45.2	-48.2	15.8	0.00e+00	0	44	0	1106247680	62	4977
2026-01-11 01:00:55.56	238.70	11.90	-45.3	-48.4	15.7	0.00e+00	0	44	0	1108344832	62	5059
2026-01-11 01:00:56.56	238.61	11.81	-45.5	-48.8	15.3	0.00e+00	0	44	0	1110441984	62	5280
2026-01-11 01:00:57.56	238.53	11.73	-45.6	-48.9	15.1	0.00e+00	0	44	0	1112539136	62	5397
2026-01-11 01:00:58.57	238.44	11.64	-45.8	-49.2	14.8	0.00e+00	0	44	0	1114636288	62	5567
2026-01-11 01:00:59.57	238.36	11.56	-46.1	-49.7	14.4	0.00e+00	0	44	0	1115684864	62	5860
2026-01-11 01:01:00.57	238.27	11.48	-46.3	-50.0	14.1	7.00e-07	0	44	0	1117782016	63	5738
2026-01-11 01:01:01.58	238.19	11.39	-46.4	-50.2	13.8	1.50e-06	0	44	0	1119879168	63	5893
2026-01-11 01:01:02.58	238.10	11.31	-46.6	-50.7	13.3	7.60e-06	0	44	0	1121976320	64	5881
2026-01-11 01:01:03.58	238.02	11.23	-46.8	-50.9	12.9	2.44e-05	0	44	0	1124073472	64	6060
2026-01-11 01:01:04.59	237.94	11.15	-46.9	-51.2	12.8	4.88e-05	0	44	0	1125122048	64	6233
2026-01-11 01:01:05.59	237.85	11.06	-46.9	-51.2	12.7	6.48e-05	0	44	0	1127219200	64	6235
2026-01-11 01:01:06.60	237.77	10.98	-46.9	-51.2	12.7	6.02e-05	0	44	0	1129316352	64	6262
2026-01-11 01:01:07.60	237.69	10.90	-46.9	-51.3	12.7	1.03e-04	0	44	0	1131413504	64	6285
2026-01-11 01:01:08.60	237.61	10.82	-46.9	-51.2	12.7	8.46e-05	0	44	0	1132462080	64	6270
2026-01-11 01:01:09.60	237.53	10.74	-46.9	-51.3	12.5	8.31e-05	0	44	0	1134559232	64	6332
2026-01-11 01:01:10.61	237.45	10.66	-46.9	-51.2	12.7	8.08e-05	0	44	0	1136656384	64	6228
2026-01-11 01:01:11.61	237.37	10.57	-46.7	-50.8	13.1	3.28e-05	0	44	0	1138753536	64	5982
2026-01-11 01:01:12.62	237.29	10.49	-46.6	-50.7	13.2	2.67e-05	0	44	0	1140850688	64	5915
2026-01-11 01:01:13.62	237.21	10.41	-46.5	-50.6	13.3	2.21e-05	0	44	0	1142947840	64	5845
2026-01-11 01:01:14.63	237.13	10.33	-46.5	-50.6	13.4	1.98e-05	0	44	0	1143996416	64	5791
2026-01-11 01:01:15.63	237.06	10.25	-46.6	-50.7	13.2	1.37e-05	0	44	0	1146093568	64	5859
2026-01-11 01:01:16.63	236.98	10.17	-46.5	-50.6	13.4	1.29e-05	0	44	0	1148190720	64	5800
2026-01-11 01:01:17.64	236.90	10.09	-46.3	-50.1	13.8	5.30e-06	0	44	0	1150287872	64	5507
2026-01-11 01:01:18.64	236.82	10.01	-46.2	-50.1	13.8	3.80e-06	0	44	0	1151336448	64	5484
2026-01-11 01:01:19.64	236.75	9.93	-46.2	-50.0	13.9	1.50e-06	0	44	0	1153433600	64	5456
2026-01-11 01:01:20.65	236.67	9.85	-46.2	-50.0	13.9	0.00e+00	0	44	0	1155530752	64	5444
2026-01-11 01:01:21.65	236.60	9.78	-46.2	-50.0	13.9	6.10e-06	0	44	0	1157627904	64	5406
2026-01-11 01:01:22.65	236.52	9.70	-46.1	-49.8	14.0	4.50e-06	0	44	0	1159725056	64	5322
2026-01-11 01:01:23.66	236.45	9.62	-46.2	-50.0	14.0	1.50e-06	0	44	0	1160773632	63	5728
2026-01-11 01:01:24.66	236.37	9.54	-46.2	-49.9	14.0	4.50e-06	0	44	0	1162870784	63	5716
2026-01-11 01:01:25.66	236.30	9.46	-46.1	-49.7	14.2	7.00e-07	0	44	0	1164967936	63	5590
2026-01-11 01:01:26.67	236.23	9.38	-46.1	-49.8	14.2	3.80e-06	0	44	0	1167065088	63	5619
2026-01-11 01:01:27.67	236.15	9.31	-46.0	-49.6	14.3	7.00e-07	0	44	0	1169162240	63	5516
2026-01-11 01:01:28.67	236.08	9.23	-46.0	-49.6	14.4	7.00e-07	0	44	0	1170210816	63	5492
2026-01-11 01:01:29.68	236.01	9.15	-45.9	-49.5	14.5	1.50e-06	0	44	0	1172307968	63	5404
2026-01-11 01:01:30.68	235.94	9.07	-45.9	-49.4	14.5	7.00e-07	0	44	0	1174405120	63	5396
2026-01-11 01:01:31.68	235.87	9.00	-47.6	-52.7	11.7	7.00e-07	0	44	0	1176502272	65	7012
2026-01-11 01:01:32.69	235.80	8.92	-50.3	-65.3	3.8	1.45e+00	0	44	104	1176502272	71	21236
2026-01-11 01:01:33.69	235.73	8.84	-50.5	-65.6	3.8	1.49e+00	0	44	104	1176502272	71	21815
2026-01-11 01:01:34.70	235.66	8.77	-50.6	-65.7	3.8	1.49e+00	0	44	104	1176502272	71	22107
2026-01-11 01:01:35.70	235.59	8.69	-50.6	-65.8	3.8	1.49e+00	0	44	104	1176502272	71	22373
2026-01-11 01:01:36.71	235.52	8.61	-50.6	-65.9	3.8	1.49e+00	0	44	104	1176502272	71	22619
2026-01-11 01:01:37.71	235.45	8.54	-50.6	-65.9	3.8	1.49e+00	0	44	104	1176502272	72	21347
2026-01-11 01:01:38.71	235.38	8.46	-50.7	-65.9	3.8	1.49e+00	0	44	104	1176502272	72	21266
2026-01-11 01:01:39.72	235.31	8.39	-50.8	-66.0	3.8	1.49e+00	0	44	104	1176502272	72	21557
2026-01-11 01:01:40.72	235.24	8.31	-50.6	-66.0	3.8	1.49e+00	0	44	104	1176502272	72	21509
2026-01-11 01:01:41.73	235.18	8.24	-50.6	-65.9	3.8	1.49e+00	0	44	104	1176502272	72	21456
2026-01-11 01:01:42.73	235.11	8.16	-50.7	-66.0	3.8	1.49e+00	0	44	104	1176502272	72	21517
2026-01-11 01:01:43.74	235.04	8.09	-50.7	-66.0	3.8	1.49e+00	0	44	104	1176502272	72	21541
2026-01-11 01:01:44.74	234.97	8.01	-50.7	-65.9	3.8	1.49e+00	0	44	104	1176502272	72	21503
2026-01-11 01:01:45.74	234.91	7.94	-50.6	-66.0	3.8	1.49e+00	0	44	104	1176502272	72	21615
2026-01-11 01:01:46.75	234.84	7.86	-50.6	-66.0	3.8	1.49e+00	0	44	104	1176502272	72	21600
2026-01-11 01:01:47.75	234.78	7.79	-50.6	-66.0	3.8	1.49e+00	0	44	104	1176502272	72	21607
2026-01-11 01:01:48.76	234.71	7.72	-50.6	-66.0	3.8	1.49e+00	0	44	104	1176502272	72	21532
2026-01-11 01:01:49.76	234.65	7.64	-50.6	-66.0	3.8	1.49e+00	0	44	104	1176502272	72	21530
2026-01-11 01:01:50.77	234.58	7.57	-50.7	-65.9	3.8	1.49e+00	0	44	104	1176502272	72	21438
2026-01-11 01:01:51.77	234.52	7.50	-50.6	-65.9	3.8	1.49e+00	0	44	104	1176502272	72	21341
2026-01-11 01:01:52.78	234.46	7.42	-50.6	-65.9	3.8	1.49e+00	0	44	104	1176502272	72	21336
2026-01-11 01:01:53.78	234.39	7.35	-50.6	-65.9	3.8	1.49e+00	0	44	104	1176502272	72	21363
2026-01-11 01:01:54.78	234.33	7.28	-50.6	-65.9	3.8	1.49e+00	0	44	104	1176502272	72	21345
2026-01-11 01:01:55.79	234.27	7.20	-50.6	-65.9	3.8	1.49e+00	0	44	104	1176502272	72	21327
