passes_logs/2026/01/11/T1/T1__20260111_090109_SUOMI_NPP_rec.log

#Pass ID: 20260111_090109_SUOMI NPP
#Satellite: SUOMI NPP
#Configuration: NPP
#almurnet v.1.7.20251203
#Start time: 2026-01-11 09:01:11

#Version: 2.0.20230620
#Station: T1
#Location: 37.570604 lon 55.790049 lat
#TLE: 1 37849U 11061A   26010.94533966  .00000106  00000+0  71276-4 0  9997
#TLE: 2 37849  98.7807 313.0290 0002520  70.6146 289.5303 14.19524339736134

#Time	Az	El	Level	Level2	SNR	BER	BlckErr	Temp	State	Recorded	gain1	gain2
2026-01-11 09:01:11.00	129.41	5.08	-51.7	-66.6	3.8	1.49e+00	0	41	0	0	75	19562
2026-01-11 09:01:11.99	129.36	5.15	-51.7	-66.7	3.8	1.49e+00	0	41	104	0	75	19780
2026-01-11 09:01:12.98	129.31	5.22	-51.7	-66.7	3.8	1.49e+00	0	41	104	0	75	19841
2026-01-11 09:01:13.98	129.26	5.28	-51.7	-66.8	3.8	1.49e+00	0	42	104	0	75	19962
2026-01-11 09:01:14.97	129.21	5.35	-51.7	-66.8	3.8	1.49e+00	0	41	104	0	75	19953
2026-01-11 09:01:15.97	129.16	5.42	-51.7	-66.8	3.8	1.49e+00	0	41	104	0	75	19986
2026-01-11 09:01:16.97	129.11	5.49	-51.7	-66.8	3.8	1.49e+00	0	41	104	0	75	19954
2026-01-11 09:01:17.96	129.06	5.56	-51.7	-66.8	3.8	1.49e+00	0	42	104	0	75	20005
2026-01-11 09:01:18.96	129.00	5.63	-51.7	-66.8	3.8	1.49e+00	0	42	104	0	75	20019
2026-01-11 09:01:19.95	128.95	5.70	-51.7	-66.8	3.8	1.49e+00	0	42	104	0	75	20011
2026-01-11 09:01:20.95	128.90	5.77	-51.7	-66.8	3.8	1.49e+00	0	42	104	0	75	20026
2026-01-11 09:01:21.95	128.85	5.83	-51.7	-66.7	3.8	1.49e+00	0	42	104	0	75	19831
2026-01-11 09:01:22.94	128.79	5.90	-51.7	-66.6	3.8	1.49e+00	0	42	104	0	75	19568
2026-01-11 09:01:23.94	128.74	5.97	-51.7	-66.5	3.8	1.49e+00	0	42	104	0	75	19224
2026-01-11 09:01:24.93	128.69	6.04	-51.6	-66.2	3.8	1.49e+00	0	42	104	0	75	18668
2026-01-11 09:01:25.93	128.63	6.11	-51.6	-65.9	3.8	1.49e+00	0	42	104	0	75	18063
2026-01-11 09:01:26.92	128.58	6.18	-51.6	-65.6	3.8	1.49e+00	0	42	104	0	75	17443
2026-01-11 09:01:27.92	128.52	6.25	-51.6	-65.4	3.8	1.49e+00	0	42	104	0	75	16954
2026-01-11 09:01:28.92	128.47	6.32	-51.6	-65.4	3.8	1.49e+00	0	42	104	0	75	16944
2026-01-11 09:01:29.91	128.41	6.39	-51.6	-65.5	3.8	1.49e+00	0	42	104	0	75	17181
2026-01-11 09:01:30.91	128.36	6.47	-51.6	-65.9	3.8	1.49e+00	0	42	104	0	75	17889
2026-01-11 09:01:31.91	128.30	6.54	-51.6	-66.0	3.8	1.49e+00	0	42	104	0	75	18242
2026-01-11 09:01:32.90	128.24	6.61	-51.6	-66.4	3.8	1.49e+00	0	42	104	0	75	19112
2026-01-11 09:01:33.90	128.19	6.68	-51.7	-66.5	3.8	1.49e+00	0	42	104	0	75	19204
2026-01-11 09:01:34.89	128.13	6.75	-51.7	-66.5	3.8	1.49e+00	0	42	104	0	75	19257
2026-01-11 09:01:35.88	128.08	6.82	-51.6	-66.5	3.8	1.49e+00	0	42	104	0	75	19274
2026-01-11 09:01:36.88	128.02	6.89	-51.7	-66.5	3.8	1.49e+00	0	42	104	0	75	19204
2026-01-11 09:01:37.88	127.96	6.97	-51.6	-66.4	3.8	1.49e+00	0	42	104	0	75	19133
2026-01-11 09:01:38.87	127.90	7.04	-51.6	-66.4	3.8	1.49e+00	0	42	104	0	75	18982
2026-01-11 09:01:39.87	127.84	7.11	-51.6	-66.4	3.8	1.49e+00	0	42	104	0	75	19061
2026-01-11 09:01:40.87	127.79	7.18	-51.7	-66.5	3.8	1.49e+00	0	42	104	0	75	19340
2026-01-11 09:01:41.86	127.73	7.25	-51.7	-66.7	3.8	1.49e+00	0	42	104	0	75	19745
2026-01-11 09:01:42.85	127.67	7.33	-51.7	-66.8	3.8	1.49e+00	0	42	104	0	75	19965
2026-01-11 09:01:43.85	127.61	7.40	-51.6	-66.5	3.8	1.49e+00	0	42	104	0	75	19383
2026-01-11 09:01:44.84	127.55	7.47	-51.6	-65.7	3.8	1.49e+00	0	42	104	0	75	17602
2026-01-11 09:01:45.84	127.49	7.55	-51.5	-64.5	3.9	1.49e+00	0	43	104	0	75	15279
2026-01-11 09:01:46.84	127.43	7.62	-51.4	-63.2	4.2	1.46e+00	0	43	0	0	74	13993
2026-01-11 09:01:47.83	127.37	7.69	-51.3	-62.0	4.6	1.16e+00	0	43	0	1048576	74	12230
2026-01-11 09:01:48.82	127.31	7.77	-51.1	-60.7	5.3	7.36e-01	0	43	0	2097152	74	10415
2026-01-11 09:01:49.82	127.25	7.84	-50.7	-58.5	7.0	3.20e-01	0	43	0	4194304	73	8575
2026-01-11 09:01:50.82	127.19	7.92	-50.0	-56.0	9.3	3.78e-02	0	43	0	6291456	72	6854
2026-01-11 09:01:51.81	127.12	7.99	-49.0	-53.6	11.9	2.40e-03	0	43	0	8388608	70	5816
2026-01-11 09:01:52.81	127.06	8.07	-48.0	-51.7	13.8	5.56e-05	0	43	0	10485760	68	5259
2026-01-11 09:01:53.80	127.00	8.14	-47.2	-50.4	14.9	0.00e+00	0	43	0	11534336	66	5087
2026-01-11 09:01:54.80	126.94	8.22	-46.7	-49.7	15.7	0.00e+00	0	43	0	13631488	65	4940
2026-01-11 09:01:55.79	126.87	8.29	-46.5	-49.5	15.8	0.00e+00	0	43	0	15728640	65	4841
2026-01-11 09:01:56.78	126.81	8.37	-46.8	-49.9	15.5	0.00e+00	0	43	0	17825792	65	5055
2026-01-11 09:01:57.79	126.75	8.44	-47.5	-51.0	14.3	0.00e+00	0	43	0	18874368	65	5775
2026-01-11 09:01:58.78	126.68	8.52	-48.4	-52.7	12.7	1.44e-05	0	43	0	20971520	67	6206
2026-01-11 09:01:59.78	126.62	8.59	-49.4	-54.6	10.9	9.44e-04	0	43	0	23068672	69	6925
2026-01-11 09:02:00.77	126.55	8.67	-50.4	-57.3	8.1	1.46e-02	0	43	0	25165824	71	8456
2026-01-11 09:02:01.77	126.49	8.75	-50.9	-59.4	6.3	2.00e-01	0	43	0	27262976	72	10081
2026-01-11 09:02:02.77	126.42	8.82	-51.1	-60.7	5.3	3.99e-01	0	43	0	28311552	72	11789
2026-01-11 09:02:03.77	126.35	8.90	-51.3	-62.3	4.5	7.72e-01	0	43	0	30408704	73	13336
2026-01-11 09:02:04.77	126.29	8.98	-51.5	-64.2	3.9	1.31e+00	0	43	104	31457280	73	16590
2026-01-11 09:02:05.76	126.22	9.05	-51.6	-65.8	3.8	1.49e+00	0	43	104	31457280	73	19919
2026-01-11 09:02:06.76	126.15	9.13	-50.6	-58.1	7.2	1.49e+00	0	43	104	31457280	73	8201
2026-01-11 09:02:07.75	126.09	9.21	-49.8	-55.3	10.3	6.11e-02	0	43	0	32505856	71	6664
2026-01-11 09:02:08.75	126.02	9.29	-51.6	-66.3	3.8	1.08e+00	0	43	104	33554432	73	21239
2026-01-11 09:02:09.74	125.95	9.36	-50.5	-57.7	7.3	1.49e+00	0	43	104	33554432	73	7821
2026-01-11 09:02:10.74	125.88	9.44	-51.0	-59.7	6.2	5.35e-03	0	43	0	34603008	72	10431
2026-01-11 09:02:11.73	125.81	9.52	-50.0	-56.1	9.3	1.16e+00	0	43	0	35651584	72	6900
2026-01-11 09:02:12.73	125.74	9.60	-50.3	-56.9	8.7	3.17e-02	0	43	0	37748736	72	7612
2026-01-11 09:02:13.73	125.67	9.68	-50.5	-57.6	8.0	5.74e-02	0	43	0	39845888	72	8193
2026-01-11 09:02:14.72	125.60	9.76	-50.6	-57.7	7.8	9.54e-02	0	43	0	41943040	72	8365
2026-01-11 09:02:15.72	125.53	9.84	-50.0	-55.8	9.7	3.09e-02	0	43	0	44040192	72	6704
2026-01-11 09:02:16.71	125.46	9.92	-49.5	-54.5	11.2	4.05e-03	0	43	0	45088768	71	6080
2026-01-11 09:02:17.70	125.39	10.00	-48.8	-53.0	12.7	2.17e-04	0	43	0	47185920	69	5748
2026-01-11 09:02:18.70	125.32	10.08	-48.0	-51.6	14.2	2.44e-05	0	43	0	49283072	68	5163
2026-01-11 09:02:19.70	125.25	10.16	-47.5	-50.9	14.7	0.00e+00	0	43	0	51380224	67	5089
2026-01-11 09:02:20.69	125.18	10.24	-47.6	-51.0	14.5	0.00e+00	0	43	0	52428800	66	5443
2026-01-11 09:02:21.68	125.10	10.32	-47.7	-51.3	14.3	7.00e-07	0	43	0	54525952	66	5597
2026-01-11 09:02:22.68	125.03	10.40	-47.9	-51.7	13.9	1.50e-06	0	43	0	56623104	66	5859
2026-01-11 09:02:23.68	124.96	10.48	-47.9	-51.7	13.9	6.80e-06	0	43	0	58720256	66	5886
2026-01-11 09:02:24.68	124.88	10.56	-48.5	-52.8	12.8	4.27e-05	0	43	0	60817408	67	6310
2026-01-11 09:02:25.68	124.81	10.64	-48.5	-52.7	12.9	4.42e-05	0	43	0	61865984	67	6258
2026-01-11 09:02:26.67	124.73	10.72	-48.3	-52.2	13.3	1.29e-05	0	43	0	63963136	67	5918
2026-01-11 09:02:27.67	124.66	10.81	-48.0	-51.7	13.9	9.90e-06	0	43	0	66060288	67	5553
2026-01-11 09:02:28.67	124.58	10.89	-47.5	-50.8	14.8	0.00e+00	0	43	0	68157440	67	5024
2026-01-11 09:02:29.67	124.50	10.97	-47.0	-50.0	15.6	0.00e+00	0	43	0	70254592	66	4850
2026-01-11 09:02:30.66	124.43	11.05	-46.8	-49.8	15.8	0.00e+00	0	43	0	71303168	65	5006
2026-01-11 09:02:31.66	124.35	11.14	-46.6	-49.5	16.1	0.00e+00	0	43	0	73400320	65	4841
2026-01-11 09:02:32.66	124.27	11.22	-46.9	-50.0	15.6	0.00e+00	0	43	0	75497472	65	5122
2026-01-11 09:02:33.65	124.19	11.30	-47.2	-50.4	15.2	0.00e+00	0	43	0	77594624	65	5357
2026-01-11 09:02:34.65	124.11	11.39	-47.4	-50.8	14.8	0.00e+00	0	43	0	78643200	65	5610
2026-01-11 09:02:35.64	124.04	11.47	-47.6	-51.1	14.5	0.00e+00	0	43	0	80740352	65	5834
2026-01-11 09:02:36.64	123.96	11.55	-47.6	-51.1	14.5	0.00e+00	0	43	0	82837504	66	5506
2026-01-11 09:02:37.64	123.88	11.64	-47.7	-51.1	14.6	1.50e-06	0	43	0	84934656	66	5522
2026-01-11 09:02:38.64	123.80	11.72	-47.4	-50.7	14.9	0.00e+00	0	43	0	87031808	66	5246
2026-01-11 09:02:39.64	123.71	11.81	-47.1	-50.2	15.5	0.00e+00	0	43	0	88080384	66	4951
2026-01-11 09:02:40.63	123.63	11.89	-47.0	-50.1	15.6	0.00e+00	0	44	0	90177536	65	5167
2026-01-11 09:02:41.63	123.55	11.98	-46.9	-50.0	15.7	0.00e+00	0	43	0	92274688	65	5107
2026-01-11 09:02:42.62	123.47	12.06	-46.8	-49.8	15.8	0.00e+00	0	43	0	94371840	65	5015
2026-01-11 09:02:43.62	123.39	12.15	-46.9	-50.0	15.6	0.00e+00	0	43	0	95420416	65	5114
2026-01-11 09:02:44.61	123.30	12.23	-47.0	-50.0	15.6	0.00e+00	0	44	0	97517568	65	5157
2026-01-11 09:02:45.61	123.22	12.32	-47.2	-50.4	15.3	0.00e+00	0	43	0	99614720	65	5346
2026-01-11 09:02:46.61	123.13	12.41	-47.3	-50.5	15.1	0.00e+00	0	43	0	101711872	65	5448
2026-01-11 09:02:47.61	123.05	12.49	-47.2	-50.3	15.3	0.00e+00	0	44	0	103809024	65	5339
2026-01-11 09:02:48.61	122.96	12.58	-47.1	-50.3	15.3	0.00e+00	0	43	0	104857600	65	5313
2026-01-11 09:02:49.61	122.88	12.67	-47.2	-50.4	15.3	0.00e+00	0	43	0	106954752	65	5351
2026-01-11 09:02:50.60	122.79	12.76	-47.1	-50.2	15.4	0.00e+00	0	44	0	109051904	65	5272
2026-01-11 09:02:51.59	122.70	12.84	-47.3	-50.6	15.0	0.00e+00	0	43	0	111149056	65	5524
2026-01-11 09:02:52.59	122.62	12.93	-47.4	-50.7	14.9	0.00e+00	0	43	0	112197632	65	5579
2026-01-11 09:02:53.58	122.53	13.02	-47.3	-50.5	15.2	0.00e+00	0	43	0	114294784	65	5431
2026-01-11 09:02:54.58	122.44	13.11	-47.3	-50.6	15.1	0.00e+00	0	43	0	116391936	65	5499
2026-01-11 09:02:55.58	122.35	13.20	-47.2	-50.4	15.2	0.00e+00	0	43	0	118489088	65	5375
2026-01-11 09:02:56.57	122.26	13.28	-47.2	-50.5	15.2	0.00e+00	0	44	0	120586240	65	5413
2026-01-11 09:02:57.57	122.17	13.37	-47.0	-50.1	15.6	0.00e+00	0	43	0	121634816	65	5195
2026-01-11 09:02:58.57	122.08	13.46	-47.0	-50.0	15.6	0.00e+00	0	43	0	123731968	65	5146
2026-01-11 09:02:59.56	121.99	13.55	-46.8	-49.8	15.9	0.00e+00	0	43	0	125829120	65	5009
2026-01-11 09:03:00.55	121.90	13.64	-46.9	-49.9	15.8	0.00e+00	0	43	0	127926272	65	5053
2026-01-11 09:03:01.55	121.80	13.73	-46.8	-49.8	15.8	0.00e+00	0	43	0	128974848	65	5036
2026-01-11 09:03:02.54	121.71	13.82	-47.3	-50.5	15.2	0.00e+00	0	43	0	131072000	65	5449
2026-01-11 09:03:03.53	121.62	13.91	-47.3	-50.5	15.2	0.00e+00	0	44	0	133169152	65	5431
2026-01-11 09:03:04.53	121.52	14.00	-47.3	-50.6	15.2	0.00e+00	0	43	0	135266304	65	5472
2026-01-11 09:03:05.52	121.43	14.09	-47.4	-50.7	15.1	0.00e+00	0	43	0	137363456	65	5550
2026-01-11 09:03:06.52	121.33	14.19	-47.1	-50.3	15.5	0.00e+00	0	43	0	138412032	65	5293
2026-01-11 09:03:07.52	121.24	14.28	-47.0	-50.1	15.6	0.00e+00	0	44	0	140509184	65	5189
2026-01-11 09:03:08.52	121.14	14.37	-47.1	-50.2	15.5	0.00e+00	0	44	0	142606336	65	5270
2026-01-11 09:03:09.52	121.04	14.46	-46.9	-49.9	15.8	0.00e+00	0	44	0	144703488	65	5071
2026-01-11 09:03:10.52	120.94	14.56	-47.1	-50.3	15.5	0.00e+00	0	44	0	146800640	65	5293
2026-01-11 09:03:11.51	120.84	14.65	-47.1	-50.3	15.4	0.00e+00	0	43	0	147849216	65	5300
2026-01-11 09:03:12.51	120.75	14.74	-47.2	-50.4	15.3	0.00e+00	0	43	0	149946368	65	5398
2026-01-11 09:03:13.50	120.65	14.83	-47.3	-50.6	15.2	0.00e+00	0	44	0	152043520	65	5468
2026-01-11 09:03:14.50	120.55	14.93	-47.2	-50.4	15.3	0.00e+00	0	43	0	154140672	65	5389
2026-01-11 09:03:15.49	120.44	15.02	-46.9	-50.0	15.8	0.00e+00	0	44	0	155189248	65	5111
2026-01-11 09:03:16.49	120.34	15.12	-46.8	-49.8	15.9	0.00e+00	0	43	0	157286400	65	5001
2026-01-11 09:03:17.49	120.24	15.21	-46.7	-49.6	16.1	0.00e+00	0	44	0	159383552	65	4915
2026-01-11 09:03:18.48	120.14	15.30	-46.8	-49.8	15.9	0.00e+00	0	44	0	161480704	65	5032
2026-01-11 09:03:19.47	120.03	15.40	-46.7	-49.6	16.0	0.00e+00	0	43	0	163577856	65	4898
2026-01-11 09:03:20.47	119.93	15.49	-46.9	-50.0	15.7	0.00e+00	0	44	0	164626432	65	5135
2026-01-11 09:03:21.46	119.82	15.59	-47.0	-50.1	15.7	0.00e+00	0	43	0	166723584	65	5168
2026-01-11 09:03:22.46	119.72	15.69	-46.9	-49.9	15.9	0.00e+00	0	44	0	168820736	65	5065
2026-01-11 09:03:23.45	119.61	15.78	-46.5	-49.4	16.3	0.00e+00	0	44	0	170917888	65	4787
2026-01-11 09:03:24.45	119.50	15.88	-46.3	-49.0	16.7	0.00e+00	0	44	0	171966464	64	4838
2026-01-11 09:03:25.44	119.40	15.97	-46.0	-48.6	17.1	0.00e+00	0	44	0	174063616	63	4917
2026-01-11 09:03:26.44	119.29	16.07	-46.1	-48.7	17.1	0.00e+00	0	44	0	176160768	63	4934
2026-01-11 09:03:27.44	119.18	16.17	-46.2	-48.8	16.9	0.00e+00	0	43	0	178257920	63	5030
2026-01-11 09:03:28.43	119.07	16.27	-46.3	-49.0	16.8	0.00e+00	0	44	0	180355072	63	5133
2026-01-11 09:03:29.43	118.96	16.36	-46.6	-49.5	16.2	0.00e+00	0	44	0	181403648	63	5407
2026-01-11 09:03:30.42	118.85	16.46	-46.9	-49.8	15.9	0.00e+00	0	44	0	183500800	64	5335
2026-01-11 09:03:31.41	118.74	16.56	-46.6	-49.5	16.2	0.00e+00	0	44	0	185597952	64	5146
2026-01-11 09:03:32.40	118.62	16.66	-46.7	-49.6	16.1	0.00e+00	0	44	0	187695104	64	5192
2026-01-11 09:03:33.40	118.51	16.76	-46.4	-49.2	16.5	0.00e+00	0	44	0	188743680	64	4969
2026-01-11 09:03:34.40	118.39	16.86	-46.3	-49.1	16.6	0.00e+00	0	44	0	190840832	64	4904
2026-01-11 09:03:35.39	118.28	16.95	-46.3	-49.0	16.7	0.00e+00	0	44	0	192937984	64	4850
2026-01-11 09:03:36.39	118.16	17.05	-46.4	-49.2	16.5	0.00e+00	0	43	0	195035136	64	4977
2026-01-11 09:03:37.38	118.05	17.15	-46.7	-49.5	16.2	0.00e+00	0	43	0	197132288	64	5148
2026-01-11 09:03:38.37	117.93	17.25	-47.2	-50.3	15.5	0.00e+00	0	44	0	198180864	64	5612
2026-01-11 09:03:39.37	117.81	17.35	-47.2	-50.4	15.4	0.00e+00	0	44	0	200278016	65	5351
2026-01-11 09:03:40.36	117.69	17.45	-47.1	-50.2	15.6	0.00e+00	0	44	0	202375168	65	5232
2026-01-11 09:03:41.35	117.57	17.55	-46.7	-49.7	16.0	0.00e+00	0	44	0	204472320	65	4962
2026-01-11 09:03:42.35	117.45	17.66	-46.6	-49.5	16.2	0.00e+00	0	43	0	205520896	65	4847
2026-01-11 09:03:43.34	117.33	17.76	-46.5	-49.3	16.4	0.00e+00	0	44	0	207618048	65	4729
2026-01-11 09:03:44.33	117.21	17.86	-46.5	-49.3	16.4	0.00e+00	0	44	0	209715200	64	5038
2026-01-11 09:03:45.32	117.09	17.96	-46.6	-49.4	16.3	0.00e+00	0	44	0	211812352	64	5091
2026-01-11 09:03:46.32	116.96	18.06	-46.8	-49.8	16.0	0.00e+00	0	43	0	213909504	64	5297
2026-01-11 09:03:47.32	116.84	18.17	-46.8	-49.8	16.0	0.00e+00	0	44	0	214958080	64	5280
2026-01-11 09:03:48.32	116.71	18.27	-46.8	-49.8	15.9	0.00e+00	0	44	0	217055232	64	5313
2026-01-11 09:03:49.31	116.58	18.37	-46.8	-49.8	16.0	0.00e+00	0	44	0	219152384	64	5326
2026-01-11 09:03:50.31	116.45	18.48	-46.8	-49.7	16.1	0.00e+00	0	44	0	221249536	64	5256
2026-01-11 09:03:51.31	116.32	18.58	-46.8	-49.7	16.1	0.00e+00	0	44	0	223346688	64	5265
2026-01-11 09:03:52.31	116.19	18.69	-46.6	-49.5	16.2	0.00e+00	0	44	0	224395264	64	5153
2026-01-11 09:03:53.30	116.07	18.79	-46.9	-49.9	15.9	0.00e+00	0	44	0	226492416	64	5345
2026-01-11 09:03:54.30	115.93	18.90	-47.2	-50.4	15.5	0.00e+00	0	44	0	228589568	65	5368
2026-01-11 09:03:55.30	115.80	19.00	-47.3	-50.6	15.3	0.00e+00	0	44	0	230686720	65	5475
2026-01-11 09:03:56.29	115.67	19.11	-47.3	-50.6	15.2	0.00e+00	0	44	0	231735296	65	5490
2026-01-11 09:03:57.29	115.53	19.21	-47.4	-50.7	15.1	0.00e+00	0	44	0	233832448	65	5588
2026-01-11 09:03:58.28	115.40	19.32	-47.3	-50.6	15.3	0.00e+00	0	44	0	235929600	65	5479
2026-01-11 09:03:59.27	115.26	19.42	-47.3	-50.6	15.2	0.00e+00	0	44	0	238026752	65	5473
2026-01-11 09:04:00.27	115.13	19.53	-47.6	-50.9	15.0	1.50e-06	0	44	0	240123904	66	5355
2026-01-11 09:04:01.27	114.99	19.64	-47.5	-50.9	15.0	0.00e+00	0	44	0	241172480	66	5352
2026-01-11 09:04:02.26	114.85	19.74	-47.8	-51.3	14.7	0.00e+00	0	44	0	243269632	66	5605
2026-01-11 09:04:03.26	114.71	19.85	-47.5	-50.8	15.0	0.00e+00	0	44	0	245366784	66	5319
2026-01-11 09:04:04.26	114.57	19.96	-47.3	-50.4	15.4	0.00e+00	0	44	0	247463936	66	5091
2026-01-11 09:04:05.25	114.43	20.07	-47.4	-50.6	15.2	0.00e+00	0	44	0	248512512	66	5182
2026-01-11 09:04:06.25	114.28	20.18	-47.4	-50.7	15.2	0.00e+00	0	44	0	250609664	66	5219
2026-01-11 09:04:07.25	114.14	20.28	-47.5	-50.8	15.1	0.00e+00	0	44	0	252706816	66	5302
2026-01-11 09:04:08.25	113.99	20.39	-47.6	-51.0	14.9	0.00e+00	0	44	0	254803968	66	5431
2026-01-11 09:04:09.24	113.85	20.50	-47.3	-50.6	15.2	0.00e+00	0	44	0	256901120	66	5190
2026-01-11 09:04:10.23	113.70	20.61	-47.5	-50.9	15.1	0.00e+00	0	44	0	257949696	66	5341
2026-01-11 09:04:11.23	113.55	20.72	-47.2	-50.4	15.4	0.00e+00	0	44	0	260046848	66	5088
2026-01-11 09:04:12.23	113.40	20.83	-47.3	-50.5	15.3	0.00e+00	0	44	0	262144000	66	5152
2026-01-11 09:04:13.22	113.25	20.94	-47.5	-50.8	15.0	0.00e+00	0	44	0	264241152	66	5291
2026-01-11 09:04:14.22	113.10	21.05	-47.2	-50.4	15.5	0.00e+00	0	44	0	265289728	66	5062
2026-01-11 09:04:15.21	112.95	21.16	-47.2	-50.3	15.5	0.00e+00	0	44	0	267386880	66	5008
2026-01-11 09:04:16.21	112.79	21.27	-47.0	-50.1	15.7	0.00e+00	0	44	0	269484032	66	4911
2026-01-11 09:04:17.21	112.64	21.38	-47.0	-50.0	15.8	0.00e+00	0	44	0	271581184	65	5144
2026-01-11 09:04:18.21	112.48	21.50	-46.9	-50.0	15.8	0.00e+00	0	44	0	273678336	65	5120
2026-01-11 09:04:19.20	112.33	21.61	-46.7	-49.7	16.1	0.00e+00	0	44	0	274726912	65	4950
2026-01-11 09:04:20.20	112.17	21.72	-46.8	-49.8	16.0	0.00e+00	0	44	0	276824064	65	5013
2026-01-11 09:04:21.19	112.01	21.83	-47.3	-50.5	15.2	0.00e+00	0	44	0	278921216	65	5463
2026-01-11 09:04:22.19	111.85	21.94	-46.9	-50.0	15.8	0.00e+00	0	44	0	281018368	65	5119
2026-01-11 09:04:23.19	111.69	22.06	-46.6	-49.5	16.2	0.00e+00	0	44	0	282066944	65	4860
2026-01-11 09:04:24.18	111.52	22.17	-46.5	-49.3	16.5	0.00e+00	0	44	0	284164096	64	5030
2026-01-11 09:04:25.17	111.36	22.28	-46.1	-48.9	16.9	0.00e+00	0	44	0	286261248	64	4769
2026-01-11 09:04:26.17	111.19	22.40	-42.9	-49.0	15.6	8.70e-04	0	44	0	288358400	56	7697
2026-01-11 09:04:27.16	111.03	22.51	-40.7	-49.3	15.1	1.45e-02	0	44	0	290455552	54	8932
2026-01-11 09:04:28.16	110.86	22.62	-41.4	-49.7	14.6	1.45e-02	0	44	0	291504128	52	10448
2026-01-11 09:04:29.16	110.69	22.74	-40.6	-49.9	14.5	1.44e-02	0	44	0	293601280	53	10174
2026-01-11 09:04:30.15	110.52	22.85	-41.2	-49.3	15.1	1.43e-02	0	44	0	295698432	54	8917
2026-01-11 09:04:31.15	110.35	22.97	-42.5	-48.8	15.5	1.45e-02	0	44	0	297795584	54	8432
2026-01-11 09:04:32.14	110.18	23.08	-41.3	-48.7	15.7	1.39e-02	0	44	0	298844160	54	8334
2026-01-11 09:04:33.14	110.00	23.20	-41.9	-49.4	14.9	1.46e-02	0	44	0	300941312	53	9534
2026-01-11 09:04:34.13	109.83	23.31	-39.8	-50.0	14.3	1.49e-02	0	44	0	303038464	51	11509
2026-01-11 09:04:35.13	109.65	23.43	-39.2	-50.0	14.5	1.50e-02	0	44	0	305135616	51	11468
2026-01-11 09:04:36.11	109.47	23.54	-38.4	-49.8	14.4	1.49e-02	0	44	0	307232768	49	12614
2026-01-11 09:04:37.11	109.29	23.66	-38.0	-50.0	14.3	1.50e-02	0	44	0	308281344	48	13726
2026-01-11 09:04:38.11	109.11	23.78	-47.1	-50.1	15.7	9.91e-03	0	44	0	310378496	64	5512
2026-01-11 09:04:39.10	108.93	23.89	-47.5	-50.8	15.1	0.00e+00	0	44	0	312475648	65	5633
2026-01-11 09:04:40.10	108.75	24.01	-47.8	-51.2	14.7	0.00e+00	0	44	0	314572800	66	5586
2026-01-11 09:04:41.10	108.56	24.13	-47.9	-51.4	14.5	7.00e-07	0	44	0	316669952	66	5714
2026-01-11 09:04:42.10	108.37	24.25	-47.8	-51.3	14.7	0.00e+00	0	44	0	317718528	66	5614
2026-01-11 09:04:43.10	108.19	24.36	-47.9	-51.4	14.5	0.00e+00	0	44	0	319815680	66	5674
2026-01-11 09:04:44.10	108.00	24.48	-48.0	-51.5	14.4	0.00e+00	0	44	0	321912832	66	5778
2026-01-11 09:04:45.09	107.81	24.60	-48.4	-52.2	13.8	7.00e-07	0	44	0	324009984	67	5885
2026-01-11 09:04:46.09	107.61	24.72	-48.1	-52.0	13.6	1.50e-06	0	44	0	325058560	67	5778
2026-01-11 09:04:47.09	107.42	24.83	-48.1	-52.2	13.5	1.16e-02	0	44	0	327155712	67	5874
2026-01-11 09:04:48.09	107.22	24.95	-48.1	-52.1	13.8	9.51e-04	0	44	0	329252864	67	5834
2026-01-11 09:04:49.09	107.03	25.07	-48.0	-52.0	13.7	1.37e-04	0	44	0	331350016	67	5744
2026-01-11 09:04:50.08	106.83	25.19	-47.9	-51.8	13.9	9.33e-03	0	44	0	333447168	67	5596
2026-01-11 09:04:51.08	106.63	25.31	-47.8	-51.8	13.8	1.21e-02	0	44	0	334495744	67	5626
2026-01-11 09:04:52.07	106.43	25.43	-47.7	-51.7	13.9	1.17e-02	0	44	0	336592896	67	5551
2026-01-11 09:04:53.06	106.23	25.55	-47.5	-51.6	13.9	1.15e-02	0	44	0	338690048	66	5844
2026-01-11 09:04:54.06	106.02	25.67	-47.4	-52.0	13.6	1.17e-02	0	44	0	340787200	66	6094
2026-01-11 09:04:55.05	105.82	25.78	-47.7	-52.2	13.4	1.17e-02	0	44	0	341835776	66	6225
2026-01-11 09:04:56.04	105.61	25.90	-48.0	-52.3	13.4	1.17e-02	0	44	0	343932928	66	6292
2026-01-11 09:04:57.04	105.40	26.02	-47.8	-51.8	13.8	1.15e-02	0	44	0	346030080	66	5970
2026-01-11 09:04:58.03	105.19	26.14	-47.3	-51.3	14.3	1.16e-02	0	44	0	348127232	66	5594
2026-01-11 09:04:59.03	104.98	26.26	-46.8	-50.7	14.8	1.17e-02	0	44	0	350224384	65	5530
2026-01-11 09:05:00.03	104.77	26.38	-47.1	-50.8	14.7	1.16e-02	0	44	0	351272960	65	5625
2026-01-11 09:05:01.03	104.55	26.50	-46.6	-50.7	14.7	1.17e-02	0	44	0	353370112	65	5568
2026-01-11 09:05:02.02	104.34	26.62	-46.4	-50.7	14.6	1.19e-02	0	44	0	355467264	64	5912
2026-01-11 09:05:03.02	104.12	26.74	-47.9	-51.4	14.6	1.19e-02	0	44	0	357564416	66	5696
2026-01-11 09:05:04.01	103.90	26.86	-47.8	-51.2	14.7	0.00e+00	0	44	0	359661568	66	5572
2026-01-11 09:05:05.01	103.67	26.98	-47.8	-51.1	14.8	0.00e+00	0	44	0	360710144	66	5515
2026-01-11 09:05:06.00	103.45	27.10	-47.6	-50.9	15.1	0.00e+00	0	44	0	362807296	66	5345
2026-01-11 09:05:07.00	103.23	27.22	-47.6	-50.8	15.1	0.00e+00	0	44	0	364904448	66	5303
2026-01-11 09:05:07.99	103.00	27.34	-47.9	-51.4	14.6	7.00e-07	0	44	0	367001600	66	5666
2026-01-11 09:05:08.98	102.77	27.46	-47.9	-51.4	14.6	0.00e+00	0	44	0	368050176	67	5347
2026-01-11 09:05:09.98	102.54	27.58	-47.9	-51.4	14.6	0.00e+00	0	44	0	370147328	67	5358
2026-01-11 09:05:10.97	102.31	27.70	-47.9	-51.4	14.6	1.50e-06	0	44	0	372244480	67	5385
2026-01-11 09:05:11.96	102.08	27.82	-47.8	-51.2	14.7	0.00e+00	0	44	0	374341632	67	5268
2026-01-11 09:05:12.96	101.84	27.94	-47.7	-51.0	15.0	0.00e+00	0	44	0	376438784	67	5123
2026-01-11 09:05:13.96	101.60	28.06	-47.8	-51.2	14.8	0.00e+00	0	44	0	377487360	67	5224
2026-01-11 09:05:14.96	101.36	28.18	-47.9	-51.3	14.7	7.00e-07	0	44	0	379584512	67	5335
2026-01-11 09:05:15.95	101.12	28.30	-47.6	-50.9	15.1	0.00e+00	0	44	0	381681664	67	5069
2026-01-11 09:05:16.94	100.88	28.42	-47.2	-50.4	15.3	0.00e+00	0	44	0	383778816	66	5050
2026-01-11 09:05:17.93	100.64	28.54	-47.5	-50.9	14.8	1.90e-05	0	44	0	384827392	66	5401
2026-01-11 09:05:18.94	100.39	28.66	-47.8	-51.4	14.5	2.69e-04	0	44	0	386924544	66	5674
2026-01-11 09:05:19.93	100.14	28.78	-48.1	-51.8	14.0	1.40e-04	0	44	0	389021696	66	5987
2026-01-11 09:05:20.93	99.89	28.90	-47.8	-51.3	14.6	6.10e-06	0	44	0	391118848	66	5638
2026-01-11 09:05:21.93	99.64	29.02	-47.7	-51.0	14.9	0.00e+00	0	44	0	393216000	66	5456
2026-01-11 09:05:22.93	99.38	29.14	-47.8	-51.3	14.7	0.00e+00	0	44	0	394264576	66	5602
2026-01-11 09:05:23.93	99.13	29.26	-48.1	-51.6	14.3	0.00e+00	0	44	0	396361728	66	5849
2026-01-11 09:05:24.93	98.87	29.38	-48.2	-51.8	14.3	1.50e-06	0	44	0	398458880	67	5618
2026-01-11 09:05:25.93	98.61	29.50	-48.1	-51.6	14.3	2.20e-06	0	44	0	400556032	67	5507
2026-01-11 09:05:26.92	98.35	29.62	-47.7	-51.0	14.9	0.00e+00	0	44	0	401604608	67	5112
2026-01-11 09:05:27.92	98.08	29.74	-47.5	-50.7	15.2	0.00e+00	0	44	0	403701760	67	4938
2026-01-11 09:05:28.92	97.81	29.86	-47.6	-50.8	15.1	0.00e+00	0	44	0	405798912	66	5338
2026-01-11 09:05:29.91	97.55	29.98	-47.7	-51.0	15.0	0.00e+00	0	44	0	407896064	66	5414
2026-01-11 09:05:30.91	97.28	30.10	-47.9	-51.4	14.6	0.00e+00	0	44	0	409993216	66	5682
2026-01-11 09:05:31.91	97.00	30.22	-48.0	-51.6	14.4	7.00e-07	0	44	0	411041792	67	5481
2026-01-11 09:05:32.91	96.73	30.33	-47.9	-51.4	14.7	0.00e+00	0	44	0	413138944	67	5362
2026-01-11 09:05:33.91	96.45	30.45	-48.2	-51.8	14.2	2.20e-06	0	44	0	415236096	67	5617
2026-01-11 09:05:34.90	96.18	30.57	-48.3	-52.0	14.0	0.00e+00	0	44	0	417333248	67	5777
2026-01-11 09:05:35.90	95.90	30.69	-48.4	-52.2	13.8	4.50e-06	0	44	0	419430400	67	5863
2026-01-11 09:05:36.90	95.61	30.80	-48.7	-52.4	13.7	5.30e-06	0	44	0	420478976	68	5721
2026-01-11 09:05:37.90	95.33	30.92	-49.2	-53.4	12.8	1.60e-05	0	44	0	422576128	68	6370
2026-01-11 09:05:38.90	95.04	31.04	-49.5	-54.1	12.0	1.57e-04	0	44	0	424673280	69	6508
2026-01-11 09:05:39.90	94.75	31.15	-49.4	-53.8	12.3	3.10e-04	0	44	0	426770432	69	6333
2026-01-11 09:05:40.89	94.46	31.27	-49.8	-54.8	11.4	2.78e-04	0	44	0	427819008	70	6671
2026-01-11 09:05:41.89	94.17	31.38	-49.5	-54.0	12.1	2.97e-04	0	44	0	429916160	70	6102
2026-01-11 09:05:42.89	93.87	31.50	-49.3	-53.7	12.4	2.67e-04	0	44	0	432013312	70	5912
2026-01-11 09:05:43.89	93.58	31.61	-49.2	-53.5	12.7	1.14e-04	0	44	0	434110464	70	5770
2026-01-11 09:05:44.89	93.28	31.73	-48.9	-52.9	13.4	3.35e-05	0	44	0	436207616	69	5660
2026-01-11 09:05:45.89	92.97	31.84	-48.5	-52.1	14.1	3.80e-06	0	44	0	437256192	69	5193
2026-01-11 09:05:46.88	92.67	31.95	-48.4	-51.9	14.3	0.00e+00	0	44	0	439353344	68	5358
2026-01-11 09:05:47.88	92.37	32.07	-48.8	-52.6	13.6	3.80e-06	0	44	0	441450496	68	5837
2026-01-11 09:05:48.88	92.06	32.18	-48.9	-53.0	13.2	1.98e-05	0	44	0	443547648	68	6066
2026-01-11 09:05:49.88	91.75	32.29	-49.4	-54.1	12.0	6.02e-05	0	44	0	444596224	69	6528
2026-01-11 09:05:50.87	91.44	32.40	-49.6	-54.5	11.6	7.80e-04	0	44	0	446693376	70	6494
2026-01-11 09:05:51.87	91.13	32.51	-49.6	-54.4	11.7	1.04e-03	0	44	0	448790528	70	6419
2026-01-11 09:05:52.87	90.81	32.62	-49.7	-54.5	11.7	5.80e-04	0	44	0	450887680	70	6477
2026-01-11 09:05:53.87	90.49	32.73	-49.7	-54.6	11.6	8.18e-04	0	44	0	452984832	70	6507
2026-01-11 09:05:54.87	90.17	32.84	-49.5	-54.1	12.1	1.24e-03	0	44	0	454033408	70	6134
2026-01-11 09:05:55.87	89.85	32.95	-49.0	-53.6	12.4	2.81e-04	0	44	0	456130560	70	5819
2026-01-11 09:05:56.86	89.52	33.05	-48.9	-53.5	12.5	1.95e-04	0	44	0	458227712	69	6065
2026-01-11 09:05:57.86	89.20	33.16	-48.8	-53.3	12.7	1.07e-04	0	44	0	460324864	69	5970
2026-01-11 09:05:58.86	88.87	33.27	-49.0	-54.1	12.0	1.62e-04	0	44	0	462422016	69	6502
2026-01-11 09:05:59.85	88.54	33.37	-49.0	-54.2	11.8	7.05e-04	0	44	0	463470592	69	6609
2026-01-11 09:06:00.85	88.20	33.47	-49.5	-55.5	10.5	3.65e-03	0	44	0	465567744	69	7677
2026-01-11 09:06:01.84	87.87	33.58	-49.6	-55.7	10.2	9.79e-03	0	44	0	467664896	70	7400
2026-01-11 09:06:02.84	87.53	33.68	-49.5	-55.6	10.4	3.94e-03	0	44	0	469762048	70	7321
2026-01-11 09:06:03.84	87.19	33.78	-49.3	-54.9	11.0	5.38e-03	0	44	0	470810624	70	6788
2026-01-11 09:06:04.84	86.85	33.88	-49.1	-54.5	11.5	6.88e-04	0	44	0	472907776	70	6450
2026-01-11 09:06:05.84	86.51	33.98	-49.0	-54.1	11.9	2.94e-04	0	44	0	475004928	69	6545
2026-01-11 09:06:06.84	86.16	34.08	-48.7	-53.6	12.5	2.06e-04	0	44	0	477102080	69	6172
2026-01-11 09:06:07.84	85.81	34.18	-48.8	-53.7	12.4	2.12e-04	0	44	0	479199232	69	6213
2026-01-11 09:06:08.84	85.46	34.28	-48.8	-53.7	12.4	1.09e-04	0	44	0	480247808	68	6595
2026-01-11 09:06:09.84	85.11	34.38	-48.9	-54.0	12.0	3.11e-04	0	44	0	482344960	68	6868
2026-01-11 09:06:10.84	84.75	34.47	-49.0	-54.1	11.9	6.02e-04	0	44	0	484442112	69	6529
2026-01-11 09:06:11.84	84.39	34.57	-48.9	-53.8	12.2	2.52e-04	0	44	0	486539264	69	6320
2026-01-11 09:06:12.83	84.04	34.66	-48.5	-52.9	13.0	5.56e-05	0	44	0	488636416	69	5702
2026-01-11 09:06:13.83	83.68	34.76	-48.3	-52.5	13.5	2.74e-05	0	44	0	489684992	68	5728
2026-01-11 09:06:14.84	83.31	34.85	-48.1	-52.3	13.7	1.37e-05	0	44	0	491782144	68	5626
2026-01-11 09:06:15.83	82.95	34.94	-48.2	-52.5	13.5	9.10e-06	0	44	0	493879296	68	5766
2026-01-11 09:06:16.83	82.58	35.03	-48.3	-52.7	13.2	2.21e-05	0	44	0	495976448	68	5918
2026-01-11 09:06:17.83	82.21	35.12	-48.3	-52.9	13.0	3.28e-05	0	44	0	497025024	68	6001
2026-01-11 09:06:18.83	81.84	35.21	-48.3	-52.7	13.3	2.82e-05	0	44	0	499122176	68	5905
2026-01-11 09:06:19.83	81.47	35.29	-48.0	-52.1	13.9	1.29e-05	0	44	0	501219328	68	5490
2026-01-11 09:06:20.83	81.09	35.38	-47.7	-51.5	14.5	7.00e-07	0	44	0	503316480	67	5461
2026-01-11 09:06:21.83	80.71	35.46	-47.7	-51.6	14.3	7.00e-07	0	44	0	505413632	66	5836
2026-01-11 09:06:22.83	80.33	35.55	-47.9	-52.0	13.9	1.50e-06	0	44	0	506462208	66	6071
2026-01-11 09:06:23.82	79.95	35.63	-47.6	-51.5	14.5	1.50e-06	0	44	0	508559360	66	5729
2026-01-11 09:06:24.82	79.57	35.71	-47.5	-51.3	14.7	0.00e+00	0	44	0	510656512	66	5611
2026-01-11 09:06:25.82	79.19	35.79	-47.4	-51.2	14.8	0.00e+00	0	44	0	512753664	66	5532
2026-01-11 09:06:26.82	78.80	35.87	-47.4	-51.0	14.9	0.00e+00	0	44	0	514850816	66	5423
2026-01-11 09:06:27.82	78.41	35.94	-47.0	-50.3	15.6	0.00e+00	0	44	0	515899392	66	5012
2026-01-11 09:06:28.81	78.02	36.02	-46.5	-49.6	16.3	0.00e+00	0	44	0	517996544	64	5187
2026-01-11 09:06:29.81	77.63	36.09	-46.2	-49.1	16.7	0.00e+00	0	44	0	520093696	63	5217
2026-01-11 09:06:30.81	77.24	36.16	-46.2	-49.2	16.7	0.00e+00	0	44	0	522190848	63	5222
2026-01-11 09:06:31.81	76.84	36.23	-46.1	-49.0	16.9	0.00e+00	0	44	0	524288000	63	5144
2026-01-11 09:06:32.81	76.44	36.30	-46.2	-49.1	16.8	0.00e+00	0	44	0	525336576	63	5170
2026-01-11 09:06:33.81	76.04	36.37	-46.3	-49.3	16.5	0.00e+00	0	44	0	527433728	63	5323
2026-01-11 09:06:34.81	75.64	36.44	-46.5	-49.6	16.2	0.00e+00	0	44	0	529530880	63	5522
2026-01-11 09:06:35.80	75.24	36.51	-46.5	-49.6	16.3	0.00e+00	0	44	0	531628032	63	5524
2026-01-11 09:06:36.80	74.84	36.57	-46.4	-49.5	16.2	0.00e+00	0	44	0	532676608	64	5137
2026-01-11 09:06:37.80	74.43	36.63	-46.4	-49.4	16.4	0.00e+00	0	44	0	534773760	64	5063
2026-01-11 09:06:38.79	74.03	36.69	-46.2	-49.1	16.8	0.00e+00	0	44	0	536870912	64	4900
2026-01-11 09:06:39.79	73.62	36.75	-45.9	-48.7	17.1	0.00e+00	0	44	0	538968064	63	4964
2026-01-11 09:06:40.79	73.21	36.81	-45.6	-48.2	17.6	0.00e+00	0	44	0	541065216	63	4677
2026-01-11 09:06:41.79	72.80	36.87	-45.4	-48.0	17.8	0.00e+00	0	44	0	542113792	62	4826
2026-01-11 09:06:42.79	72.39	36.92	-45.6	-48.2	17.6	0.00e+00	0	44	0	544210944	62	4971
2026-01-11 09:06:43.78	71.98	36.97	-45.8	-48.5	17.4	0.00e+00	0	44	0	546308096	62	5127
2026-01-11 09:06:44.78	71.56	37.03	-45.8	-48.5	17.4	0.00e+00	0	44	0	548405248	62	5126
2026-01-11 09:06:45.78	71.14	37.08	-46.1	-48.9	17.1	0.00e+00	0	44	0	549453824	62	5347
2026-01-11 09:06:46.78	70.72	37.12	-46.4	-49.3	16.6	0.00e+00	0	44	0	551550976	63	5321
2026-01-11 09:06:47.78	70.30	37.17	-46.6	-49.7	16.3	0.00e+00	0	44	0	553648128	63	5538
2026-01-11 09:06:48.78	69.88	37.22	-46.6	-49.6	16.2	0.00e+00	0	44	0	555745280	64	5217
2026-01-11 09:06:49.78	69.46	37.26	-46.5	-49.5	16.4	0.00e+00	0	44	0	557842432	64	5135
2026-01-11 09:06:50.78	69.04	37.30	-46.0	-48.8	17.0	0.00e+00	0	44	0	558891008	64	4717
2026-01-11 09:06:51.77	68.62	37.34	-45.8	-48.5	17.4	0.00e+00	0	44	0	560988160	63	4827
2026-01-11 09:06:52.77	68.19	37.38	-45.7	-48.3	17.6	0.00e+00	0	44	0	563085312	63	4729
2026-01-11 09:06:53.77	67.77	37.41	-45.5	-48.1	17.7	0.00e+00	0	44	0	565182464	62	4919
2026-01-11 09:06:54.77	67.34	37.45	-45.1	-47.6	18.3	0.00e+00	0	44	0	567279616	62	4605
2026-01-11 09:06:55.76	66.92	37.48	-45.1	-47.5	18.3	0.00e+00	0	44	0	568328192	61	4855
2026-01-11 09:06:56.76	66.49	37.51	-45.4	-47.9	18.0	0.00e+00	0	44	0	570425344	61	5091
2026-01-11 09:06:57.76	66.06	37.54	-46.1	-48.8	17.2	0.00e+00	0	44	0	572522496	62	5293
2026-01-11 09:06:58.76	65.63	37.57	-46.3	-49.1	16.9	0.00e+00	0	44	0	574619648	63	5195
2026-01-11 09:06:59.76	65.20	37.59	-46.4	-49.2	16.8	0.00e+00	0	44	0	575668224	63	5262
2026-01-11 09:07:00.76	64.77	37.62	-46.4	-49.3	16.6	0.00e+00	0	44	0	577765376	63	5310
2026-01-11 09:07:01.75	64.34	37.64	-46.8	-49.9	16.0	0.00e+00	0	44	0	579862528	64	5344
2026-01-11 09:07:02.75	63.90	37.66	-46.8	-49.9	16.0	0.00e+00	0	44	0	581959680	64	5387
2026-01-11 09:07:03.74	63.48	37.68	-46.9	-50.1	15.9	0.00e+00	0	44	0	584056832	64	5468
2026-01-11 09:07:04.74	63.04	37.69	-47.3	-50.7	15.2	0.00e+00	0	44	0	585105408	65	5538
2026-01-11 09:07:05.74	62.61	37.71	-47.8	-51.5	14.5	0.00e+00	0	44	0	587202560	66	5765
2026-01-11 09:07:06.74	62.17	37.72	-48.0	-51.9	14.1	3.00e-06	0	44	0	589299712	66	5996
2026-01-11 09:07:07.73	61.74	37.73	-47.9	-51.6	14.4	7.00e-07	0	44	0	591396864	66	5848
2026-01-11 09:07:08.73	61.31	37.74	-47.6	-51.2	14.8	0.00e+00	0	44	0	592445440	66	5536
2026-01-11 09:07:09.73	60.87	37.75	-47.4	-50.9	15.2	0.00e+00	0	44	0	594542592	66	5351
2026-01-11 09:07:10.73	60.44	37.75	-47.4	-50.9	15.0	7.00e-07	0	44	0	596639744	66	5365
2026-01-11 09:07:11.72	60.01	37.75	-47.6	-51.1	14.9	0.00e+00	0	44	0	598736896	66	5496
2026-01-11 09:07:12.72	59.57	37.76	-47.4	-50.8	15.2	0.00e+00	0	44	0	600834048	66	5297
2026-01-11 09:07:13.72	59.14	37.76	-47.4	-50.7	15.2	0.00e+00	0	44	0	601882624	66	5278
2026-01-11 09:07:14.72	58.70	37.75	-46.9	-50.0	15.9	0.00e+00	0	44	0	603979776	65	5131
2026-01-11 09:07:15.72	58.27	37.75	-46.9	-49.9	16.0	0.00e+00	0	44	0	606076928	65	5077
2026-01-11 09:07:16.71	57.83	37.74	-46.8	-49.9	16.0	0.00e+00	0	44	0	608174080	65	5075
2026-01-11 09:07:17.71	57.40	37.73	-47.1	-50.3	15.7	0.00e+00	0	44	0	610271232	65	5301
2026-01-11 09:07:18.71	56.97	37.72	-47.2	-50.5	15.4	0.00e+00	0	44	0	611319808	65	5463
2026-01-11 09:07:19.71	56.53	37.71	-47.2	-50.6	15.3	0.00e+00	0	44	0	613416960	65	5484
2026-01-11 09:07:20.71	56.10	37.70	-47.2	-50.5	15.4	0.00e+00	0	44	0	615514112	65	5459
2026-01-11 09:07:21.71	55.66	37.68	-47.6	-51.2	14.8	0.00e+00	0	44	0	617611264	65	5871
2026-01-11 09:07:22.71	55.23	37.67	-48.4	-52.7	13.2	2.20e-06	0	44	0	619708416	67	6260
2026-01-11 09:07:23.71	54.80	37.65	-49.0	-53.7	12.4	8.54e-05	0	44	0	620756992	68	6639
2026-01-11 09:07:24.71	54.37	37.63	-48.9	-53.4	12.7	1.99e-04	0	44	0	622854144	68	6403
2026-01-11 09:07:25.71	53.93	37.60	-48.5	-52.6	13.5	2.13e-05	0	44	0	624951296	68	5837
2026-01-11 09:07:26.71	53.50	37.58	-48.4	-52.6	13.6	3.80e-06	0	44	0	627048448	68	5799
2026-01-11 09:07:27.70	53.08	37.55	-48.4	-52.5	13.7	9.90e-06	0	44	0	628097024	68	5727
2026-01-11 09:07:28.70	52.65	37.52	-48.7	-53.1	12.9	2.67e-05	0	44	0	630194176	68	6196
2026-01-11 09:07:29.70	52.22	37.49	-48.6	-52.9	13.1	1.06e-05	0	44	0	632291328	68	6045
2026-01-11 09:07:30.70	51.79	37.46	-48.5	-52.8	13.2	1.60e-05	0	44	0	634388480	68	5961
2026-01-11 09:07:31.70	51.36	37.43	-48.6	-53.0	13.1	3.35e-05	0	44	0	636485632	68	6088
2026-01-11 09:07:32.69	50.94	37.39	-48.5	-52.9	13.2	2.89e-05	0	44	0	637534208	68	6001
2026-01-11 09:07:33.69	50.52	37.35	-48.6	-53.0	13.2	5.87e-05	0	44	0	639631360	68	6089
2026-01-11 09:07:34.69	50.09	37.32	-48.6	-53.0	13.1	8.30e-06	0	44	0	641728512	68	6083
2026-01-11 09:07:35.68	49.67	37.28	-48.4	-52.6	13.4	1.44e-05	0	44	0	643825664	68	5814
2026-01-11 09:07:36.68	49.25	37.23	-48.3	-52.4	13.6	9.90e-06	0	44	0	644874240	68	5708
2026-01-11 09:07:37.67	48.84	37.19	-48.1	-52.2	13.9	3.80e-06	0	44	0	646971392	68	5548
2026-01-11 09:07:38.68	48.41	37.14	-47.8	-51.8	14.1	3.00e-06	0	44	0	649068544	67	5609
2026-01-11 09:07:39.67	48.00	37.10	-48.1	-52.4	13.6	5.30e-06	0	44	0	651165696	67	6025
2026-01-11 09:07:40.67	47.58	37.05	-48.4	-53.1	12.9	3.80e-06	0	44	0	653262848	67	6531
2026-01-11 09:07:41.67	47.16	37.00	-49.3	-54.8	11.1	6.75e-04	0	44	0	654311424	69	7118
2026-01-11 09:07:42.66	46.75	36.94	-49.7	-55.9	10.0	4.34e-03	0	44	0	656408576	69	8070
2026-01-11 09:07:43.66	46.34	36.89	-49.5	-55.4	10.5	8.80e-03	0	44	0	658505728	70	7162
2026-01-11 09:07:44.66	45.93	36.83	-49.0	-54.2	11.8	1.55e-03	0	44	0	660602880	70	6240
2026-01-11 09:07:45.66	45.52	36.78	-48.6	-53.1	12.9	1.47e-04	0	44	0	662700032	69	5832
2026-01-11 09:07:46.66	45.11	36.72	-48.3	-52.6	13.4	1.60e-05	0	44	0	663748608	68	5793
2026-01-11 09:07:47.66	44.70	36.66	-47.7	-51.6	14.2	5.30e-06	0	44	0	665845760	67	5513
2026-01-11 09:07:48.66	44.30	36.60	-47.1	-50.6	15.2	0.00e+00	0	44	0	667942912	66	5216
2026-01-11 09:07:49.66	43.89	36.53	-47.1	-50.6	15.2	0.00e+00	0	44	0	670040064	65	5478
2026-01-11 09:07:50.66	43.49	36.47	-47.5	-51.3	14.6	7.00e-07	0	44	0	672137216	65	5989
2026-01-11 09:07:51.65	43.09	36.40	-47.9	-52.1	13.8	2.20e-06	0	44	0	673185792	66	6171
2026-01-11 09:07:52.65	42.69	36.33	-47.4	-51.0	14.8	1.50e-06	0	44	0	675282944	66	5461
2026-01-11 09:07:53.65	42.30	36.26	-46.5	-49.7	16.2	0.00e+00	0	44	0	677380096	65	4932
2026-01-11 09:07:54.64	41.90	36.19	-46.0	-48.8	17.0	0.00e+00	0	44	0	679477248	63	5036
2026-01-11 09:07:55.64	41.51	36.12	-46.0	-48.9	17.0	0.00e+00	0	44	0	680525824	63	5059
2026-01-11 09:07:56.64	41.12	36.05	-46.0	-48.8	17.1	0.00e+00	0	44	0	682622976	63	5015
2026-01-11 09:07:57.64	40.73	35.97	-46.0	-48.9	17.0	0.00e+00	0	44	0	684720128	63	5050
2026-01-11 09:07:58.63	40.34	35.90	-46.2	-49.2	16.6	0.00e+00	0	44	0	686817280	63	5267
2026-01-11 09:07:59.63	39.96	35.82	-46.6	-49.7	16.2	0.00e+00	0	44	0	688914432	63	5559
2026-01-11 09:08:00.62	39.57	35.74	-46.7	-49.9	15.9	0.00e+00	0	44	0	689963008	64	5398
2026-01-11 09:08:01.62	39.19	35.66	-46.9	-50.3	15.5	0.00e+00	0	44	0	692060160	64	5642
2026-01-11 09:08:02.62	38.81	35.58	-47.1	-50.6	15.3	0.00e+00	0	44	0	694157312	65	5501
2026-01-11 09:08:03.61	38.43	35.50	-47.4	-51.0	14.9	0.00e+00	0	44	0	696254464	65	5748
2026-01-11 09:08:04.61	38.06	35.42	-47.0	-50.4	15.5	0.00e+00	0	44	0	697303040	65	5350
2026-01-11 09:08:05.61	37.68	35.33	-46.7	-49.9	16.0	0.00e+00	0	44	0	699400192	65	5071
2026-01-11 09:08:06.61	37.31	35.25	-46.8	-50.1	15.8	0.00e+00	0	44	0	701497344	65	5187
2026-01-11 09:08:07.61	36.94	35.16	-47.5	-51.2	14.8	0.00e+00	0	44	0	703594496	65	5859
2026-01-11 09:08:08.61	36.57	35.07	-47.6	-51.4	14.6	0.00e+00	0	44	0	705691648	66	5683
2026-01-11 09:08:09.61	36.20	34.98	-47.6	-51.3	14.6	0.00e+00	0	44	0	706740224	66	5651
2026-01-11 09:08:10.60	35.84	34.89	-47.6	-51.3	14.6	7.00e-07	0	44	0	708837376	66	5633
2026-01-11 09:08:11.60	35.47	34.80	-48.0	-52.0	14.0	7.00e-07	0	44	0	710934528	66	6092
2026-01-11 09:08:12.60	35.11	34.71	-47.8	-51.8	14.2	1.50e-06	0	44	0	713031680	66	5952
2026-01-11 09:08:13.60	34.75	34.62	-47.3	-50.9	15.1	0.00e+00	0	44	0	715128832	66	5346
2026-01-11 09:08:14.60	34.40	34.52	-47.1	-50.5	15.4	0.00e+00	0	44	0	716177408	66	5131
2026-01-11 09:08:15.59	34.04	34.43	-47.2	-50.6	15.4	0.00e+00	0	44	0	718274560	66	5179
2026-01-11 09:08:16.59	33.69	34.33	-47.1	-50.5	15.4	0.00e+00	0	44	0	720371712	66	5121
2026-01-11 09:08:17.59	33.34	34.23	-47.0	-50.2	15.8	0.00e+00	0	44	0	722468864	65	5225
2026-01-11 09:08:18.59	32.99	34.13	-46.3	-49.2	16.7	0.00e+00	0	44	0	723517440	64	4950
2026-01-11 09:08:19.58	32.65	34.04	-46.5	-49.5	16.3	0.00e+00	0	44	0	725614592	64	5134
2026-01-11 09:08:20.58	32.30	33.94	-47.1	-50.4	15.5	0.00e+00	0	44	0	727711744	64	5682
2026-01-11 09:08:21.57	31.97	33.84	-47.4	-50.9	15.0	0.00e+00	0	44	0	729808896	65	5704
2026-01-11 09:08:22.56	31.63	33.74	-47.0	-50.3	15.7	0.00e+00	0	44	0	731906048	65	5296
2026-01-11 09:08:23.56	31.29	33.63	-46.8	-49.9	15.8	0.00e+00	0	44	0	732954624	65	5069
2026-01-11 09:08:24.55	30.96	33.53	-46.6	-49.6	16.3	0.00e+00	0	44	0	735051776	65	4887
2026-01-11 09:08:25.55	30.62	33.43	-46.8	-49.9	16.0	0.00e+00	0	44	0	737148928	65	5083
2026-01-11 09:08:26.54	30.30	33.32	-47.2	-50.5	15.5	0.00e+00	0	44	0	739246080	65	5439
2026-01-11 09:08:27.53	29.97	33.22	-47.5	-51.0	15.0	0.00e+00	0	44	0	740294656	65	5736
2026-01-11 09:08:28.53	29.64	33.11	-47.6	-51.1	14.9	7.00e-07	0	44	0	742391808	65	5831
2026-01-11 09:08:29.53	29.32	33.01	-47.5	-51.0	15.0	0.00e+00	0	44	0	744488960	65	5736
2026-01-11 09:08:30.52	29.00	32.90	-47.4	-51.0	15.0	0.00e+00	0	44	0	746586112	65	5723
2026-01-11 09:08:31.51	28.68	32.79	-47.3	-50.8	15.2	0.00e+00	0	44	0	748683264	65	5597
2026-01-11 09:08:32.51	28.36	32.68	-47.0	-50.2	15.7	0.00e+00	0	44	0	749731840	65	5263
2026-01-11 09:08:33.50	28.05	32.58	-47.0	-50.3	15.6	0.00e+00	0	44	0	751828992	65	5316
2026-01-11 09:08:34.50	27.73	32.47	-47.3	-50.8	15.2	0.00e+00	0	44	0	753926144	65	5626
2026-01-11 09:08:35.49	27.42	32.36	-47.9	-51.7	14.3	0.00e+00	0	44	0	756023296	66	5893
2026-01-11 09:08:36.48	27.12	32.25	-48.1	-52.0	13.9	7.00e-07	0	44	0	757071872	66	6096
2026-01-11 09:08:37.48	26.81	32.14	-47.9	-51.7	14.3	1.50e-06	0	44	0	759169024	66	5904
2026-01-11 09:08:38.47	26.50	32.03	-48.2	-52.3	13.7	7.00e-07	0	44	0	761266176	67	5942
2026-01-11 09:08:39.46	26.20	31.91	-48.4	-52.9	13.0	1.06e-05	0	44	0	763363328	67	6358
2026-01-11 09:08:40.46	25.90	31.80	-48.9	-53.9	12.2	2.01e-04	0	44	0	765460480	68	6762
2026-01-11 09:08:41.45	25.61	31.69	-48.8	-53.6	12.6	1.81e-04	0	44	0	766509056	68	6520
2026-01-11 09:08:42.44	25.31	31.58	-48.6	-53.1	12.9	9.38e-05	0	44	0	768606208	68	6200
2026-01-11 09:08:43.43	25.02	31.46	-48.3	-52.5	13.6	3.81e-05	0	44	0	770703360	68	5752
2026-01-11 09:08:44.43	24.73	31.35	-48.5	-52.7	13.5	5.30e-06	0	44	0	772800512	68	5872
2026-01-11 09:08:45.42	24.44	31.23	-48.4	-52.5	13.7	7.60e-06	0	44	0	773849088	68	5748
2026-01-11 09:08:46.42	24.15	31.12	-48.9	-53.3	12.8	2.36e-05	0	44	0	775946240	68	6339
2026-01-11 09:08:47.41	23.86	31.00	-48.7	-52.9	13.2	2.21e-05	0	44	0	778043392	68	6014
2026-01-11 09:08:48.40	23.58	30.89	-48.1	-51.8	14.3	1.14e-05	0	44	0	780140544	68	5322
2026-01-11 09:08:49.40	23.30	30.77	-47.4	-50.8	15.2	0.00e+00	0	44	0	781189120	66	5315
2026-01-11 09:08:50.39	23.02	30.66	-47.1	-50.3	15.6	0.00e+00	0	44	0	783286272	66	5017
2026-01-11 09:08:51.38	22.74	30.54	-47.0	-50.1	15.8	0.00e+00	0	44	0	785383424	65	5200
2026-01-11 09:08:52.38	22.47	30.42	-46.9	-49.9	16.0	0.00e+00	0	44	0	787480576	65	5080
2026-01-11 09:08:53.37	22.19	30.31	-46.4	-49.2	16.6	0.00e+00	0	44	0	789577728	64	4980
2026-01-11 09:08:54.36	21.92	30.19	-46.4	-49.3	16.6	0.00e+00	0	44	0	790626304	64	5020
2026-01-11 09:08:55.36	21.65	30.07	-46.5	-49.5	16.5	0.00e+00	0	44	0	792723456	64	5111
2026-01-11 09:08:56.35	21.39	29.96	-46.6	-49.6	16.4	0.00e+00	0	44	0	794820608	64	5183
2026-01-11 09:08:57.35	21.12	29.84	-46.9	-50.1	15.9	0.00e+00	0	44	0	796917760	64	5478
2026-01-11 09:08:58.34	20.86	29.72	-47.1	-50.4	15.6	0.00e+00	0	44	0	797966336	65	5353
2026-01-11 09:08:59.33	20.60	29.60	-47.9	-51.5	14.5	0.00e+00	0	44	0	800063488	66	5767
2026-01-11 09:09:00.33	20.34	29.48	-48.2	-52.0	14.0	1.50e-06	0	44	0	802160640	66	6118
2026-01-11 09:09:01.32	20.08	29.36	-48.5	-52.7	13.3	3.80e-06	0	44	0	804257792	67	6229
2026-01-11 09:09:02.32	19.82	29.25	-48.8	-53.1	13.1	1.67e-05	0	44	0	806354944	68	6138
2026-01-11 09:09:03.31	19.57	29.13	-48.8	-53.0	13.1	2.74e-05	0	44	0	807403520	68	6098
2026-01-11 09:09:04.30	19.32	29.01	-48.4	-52.4	13.8	1.60e-05	0	44	0	809500672	68	5679
2026-01-11 09:09:05.29	19.07	28.89	-48.2	-52.1	14.1	7.60e-06	0	44	0	811597824	68	5491
2026-01-11 09:09:06.29	18.82	28.77	-47.7	-51.3	14.7	1.50e-06	0	44	0	813694976	67	5302
2026-01-11 09:09:07.28	18.58	28.65	-47.7	-51.3	14.7	7.00e-07	0	44	0	814743552	67	5313
2026-01-11 09:09:08.27	18.33	28.53	-47.8	-51.5	14.5	7.00e-07	0	44	0	816840704	67	5453
2026-01-11 09:09:09.27	18.09	28.41	-47.6	-51.2	14.8	0.00e+00	0	44	0	818937856	67	5272
2026-01-11 09:09:10.26	17.85	28.29	-47.2	-50.6	15.4	0.00e+00	0	44	0	821035008	66	5187
2026-01-11 09:09:11.25	17.61	28.17	-46.9	-50.1	15.8	0.00e+00	0	44	0	823132160	65	5174
2026-01-11 09:09:12.25	17.37	28.05	-46.8	-50.0	16.0	0.00e+00	0	44	0	824180736	65	5115
2026-01-11 09:09:13.24	17.14	27.93	-46.6	-49.6	16.3	0.00e+00	0	44	0	826277888	65	4895
2026-01-11 09:09:14.24	16.90	27.81	-46.3	-49.3	16.6	0.00e+00	0	44	0	828375040	64	4988
2026-01-11 09:09:15.23	16.67	27.70	-46.4	-49.4	16.5	0.00e+00	0	44	0	830472192	64	5068
2026-01-11 09:09:16.22	16.44	27.58	-46.4	-49.3	16.6	0.00e+00	0	44	0	831520768	64	5004
2026-01-11 09:09:17.21	16.22	27.46	-46.2	-49.0	16.9	0.00e+00	0	44	0	833617920	64	4857
2026-01-11 09:09:18.21	15.99	27.34	-46.2	-49.1	16.8	0.00e+00	0	44	0	835715072	64	4907
2026-01-11 09:09:19.20	15.76	27.22	-46.3	-49.2	16.7	0.00e+00	0	44	0	837812224	64	4935
2026-01-11 09:09:20.20	15.54	27.10	-46.8	-50.0	16.1	0.00e+00	0	44	0	839909376	64	5411
2026-01-11 09:09:21.19	15.32	26.98	-47.1	-50.4	15.5	0.00e+00	0	44	0	840957952	64	5720
2026-01-11 09:09:22.18	15.10	26.86	-47.5	-50.9	15.1	0.00e+00	0	44	0	843055104	65	5712
2026-01-11 09:09:23.17	14.88	26.74	-47.5	-50.9	15.1	0.00e+00	0	44	0	845152256	66	5399
2026-01-11 09:09:24.17	14.66	26.62	-47.6	-51.0	15.0	0.00e+00	0	44	0	847249408	66	5439
2026-01-11 09:09:25.16	14.45	26.50	-47.7	-51.3	14.7	0.00e+00	0	44	0	848297984	66	5629
2026-01-11 09:09:26.16	14.24	26.38	-47.7	-51.3	14.8	0.00e+00	0	44	0	850395136	66	5605
2026-01-11 09:09:27.15	14.03	26.26	-47.7	-51.2	14.8	0.00e+00	0	44	0	852492288	66	5587
2026-01-11 09:09:28.15	13.81	26.14	-47.4	-50.9	15.1	7.00e-07	0	44	0	854589440	66	5358
2026-01-11 09:09:29.14	13.61	26.03	-47.1	-50.4	15.6	0.00e+00	0	44	0	856686592	66	5064
2026-01-11 09:09:30.13	13.40	25.91	-47.0	-50.2	15.8	0.00e+00	0	44	0	857735168	65	5252
2026-01-11 09:09:31.13	13.19	25.79	-46.8	-49.9	15.9	0.00e+00	0	44	0	859832320	65	5093
2026-01-11 09:09:32.12	12.99	25.67	-46.6	-49.7	16.2	0.00e+00	0	44	0	861929472	65	4960
2026-01-11 09:09:33.12	12.79	25.55	-46.8	-50.0	16.0	0.00e+00	0	44	0	864026624	65	5115
2026-01-11 09:09:34.11	12.59	25.43	-46.7	-49.8	16.1	0.00e+00	0	44	0	865075200	65	5003
2026-01-11 09:09:35.10	12.39	25.32	-46.7	-49.9	16.1	0.00e+00	0	44	0	867172352	65	5052
2026-01-11 09:09:36.10	12.19	25.20	-46.7	-49.8	16.2	0.00e+00	0	44	0	869269504	65	5001
2026-01-11 09:09:37.09	12.00	25.08	-47.0	-50.2	15.8	0.00e+00	0	44	0	871366656	65	5220
2026-01-11 09:09:38.09	11.80	24.96	-47.1	-50.3	15.7	0.00e+00	0	44	0	873463808	65	5336
2026-01-11 09:09:39.08	11.61	24.85	-47.1	-50.3	15.7	0.00e+00	0	44	0	874512384	65	5310
2026-01-11 09:09:40.07	11.42	24.73	-47.2	-50.4	15.6	0.00e+00	0	44	0	876609536	65	5354
2026-01-11 09:09:41.07	11.23	24.61	-47.4	-50.7	15.3	0.00e+00	0	44	0	878706688	65	5573
2026-01-11 09:09:42.06	11.04	24.49	-47.3	-50.7	15.3	7.00e-07	0	44	0	880803840	65	5540
2026-01-11 09:09:43.05	10.85	24.38	-47.3	-50.6	15.4	0.00e+00	0	44	0	881852416	65	5525
2026-01-11 09:09:44.05	10.66	24.26	-47.7	-51.2	14.9	7.00e-07	0	44	0	883949568	65	5863
2026-01-11 09:09:45.04	10.48	24.15	-47.7	-51.3	14.7	0.00e+00	0	44	0	886046720	66	5630
2026-01-11 09:09:46.03	10.30	24.03	-47.8	-51.4	14.6	1.50e-06	0	44	0	888143872	66	5695
2026-01-11 09:09:47.02	10.12	23.91	-48.0	-51.6	14.3	0.00e+00	0	44	0	890241024	66	5842
2026-01-11 09:09:48.02	9.93	23.80	-48.1	-51.8	14.2	1.50e-06	0	44	0	891289600	66	5946
2026-01-11 09:09:49.01	9.76	23.68	-47.9	-51.5	14.5	3.00e-06	0	44	0	893386752	66	5735
2026-01-11 09:09:50.01	9.58	23.57	-48.0	-51.6	14.3	1.50e-06	0	44	0	895483904	66	5850
2026-01-11 09:09:51.00	9.40	23.45	-48.0	-51.7	14.4	7.00e-07	0	44	0	897581056	66	5860
2026-01-11 09:09:52.00	9.23	23.34	-47.9	-51.5	14.5	7.00e-07	0	44	0	898629632	66	5757
2026-01-11 09:09:52.99	9.05	23.22	-47.7	-51.3	14.7	0.00e+00	0	44	0	900726784	66	5598
2026-01-11 09:09:53.98	8.88	23.11	-47.4	-50.8	15.2	0.00e+00	0	44	0	902823936	66	5289
2026-01-11 09:09:54.98	8.71	22.99	-47.4	-50.8	15.2	0.00e+00	0	44	0	904921088	66	5287
2026-01-11 09:09:55.97	8.54	22.88	-47.2	-50.4	15.5	0.00e+00	0	44	0	907018240	66	5089
2026-01-11 09:09:56.96	8.37	22.77	-47.0	-50.1	15.8	0.00e+00	0	44	0	908066816	65	5217
2026-01-11 09:09:57.96	8.20	22.65	-46.6	-49.6	16.3	0.00e+00	0	44	0	910163968	65	4901
2026-01-11 09:09:58.95	8.04	22.54	-46.7	-49.8	16.1	0.00e+00	0	44	0	912261120	65	5024
2026-01-11 09:09:59.94	7.87	22.43	-46.6	-49.6	16.3	0.00e+00	0	44	0	914358272	65	4896
2026-01-11 09:10:00.94	7.71	22.31	-47.0	-50.2	15.7	0.00e+00	0	44	0	915406848	65	5270
2026-01-11 09:10:01.93	7.55	22.20	-47.1	-50.3	15.6	7.00e-07	0	44	0	917504000	65	5320
2026-01-11 09:10:02.93	7.38	22.09	-47.1	-50.3	15.7	0.00e+00	0	44	0	919601152	65	5295
2026-01-11 09:10:03.92	7.22	21.98	-47.2	-50.4	15.5	0.00e+00	0	44	0	921698304	65	5393
2026-01-11 09:10:04.91	7.07	21.87	-47.0	-50.1	15.8	0.00e+00	0	44	0	923795456	65	5205
2026-01-11 09:10:05.91	6.91	21.75	-46.7	-49.8	16.1	0.00e+00	0	44	0	924844032	65	5029
2026-01-11 09:10:06.90	6.75	21.64	-46.4	-49.5	16.4	0.00e+00	0	44	0	926941184	64	5107
2026-01-11 09:10:07.89	6.60	21.53	-46.4	-49.4	16.5	0.00e+00	0	44	0	929038336	64	5091
2026-01-11 09:10:08.89	6.44	21.42	-46.2	-49.3	16.7	0.00e+00	0	44	0	931135488	64	5001
2026-01-11 09:10:09.88	6.29	21.31	-46.2	-49.3	16.6	0.00e+00	0	44	0	932184064	64	5020
2026-01-11 09:10:10.87	6.14	21.20	-46.6	-50.0	15.9	0.00e+00	0	44	0	934281216	64	5443
2026-01-11 09:10:11.87	5.98	21.09	-46.9	-50.5	15.5	0.00e+00	0	44	0	936378368	64	5773
2026-01-11 09:10:12.86	5.83	20.98	-47.2	-51.1	14.7	0.00e+00	0	44	0	938475520	65	5849
2026-01-11 09:10:13.85	5.69	20.87	-47.6	-51.8	14.2	0.00e+00	0	44	0	940572672	65	6304
2026-01-11 09:10:14.84	5.54	20.76	-47.9	-52.4	13.6	8.30e-06	0	44	0	941621248	66	6373
2026-01-11 09:10:15.84	5.39	20.65	-48.0	-52.5	13.5	8.30e-06	0	44	0	943718400	66	6439
2026-01-11 09:10:16.83	5.25	20.55	-48.2	-52.8	13.2	1.37e-05	0	44	0	945815552	67	6306
2026-01-11 09:10:17.83	5.10	20.44	-48.2	-52.6	13.4	1.90e-05	0	44	0	947912704	67	6163
2026-01-11 09:10:18.82	4.96	20.33	-48.1	-52.5	13.6	5.30e-06	0	44	0	948961280	67	6067
2026-01-11 09:10:19.81	4.82	20.22	-48.0	-52.1	13.8	6.10e-06	0	44	0	951058432	67	5847
2026-01-11 09:10:20.81	4.67	20.11	-47.7	-51.7	14.3	7.00e-07	0	44	0	953155584	67	5535
2026-01-11 09:10:21.80	4.53	20.01	-47.6	-51.6	14.4	0.00e+00	0	44	0	955252736	67	5484
2026-01-11 09:10:22.80	4.39	19.90	-47.6	-51.5	14.5	1.50e-06	0	44	0	956301312	67	5426
2026-01-11 09:10:23.79	4.25	19.79	-47.4	-51.2	14.7	0.00e+00	0	44	0	958398464	66	5562
2026-01-11 09:10:24.78	4.12	19.69	-47.2	-50.8	15.1	0.00e+00	0	44	0	960495616	66	5319
2026-01-11 09:10:25.78	3.98	19.58	-47.2	-50.8	15.1	0.00e+00	0	44	0	962592768	66	5287
2026-01-11 09:10:26.77	3.84	19.48	-47.2	-50.7	15.2	0.00e+00	0	44	0	964689920	66	5245
2026-01-11 09:10:27.77	3.71	19.37	-47.5	-51.1	14.8	0.00e+00	0	44	0	965738496	66	5519
2026-01-11 09:10:28.76	3.58	19.26	-47.6	-51.3	14.7	0.00e+00	0	44	0	967835648	66	5616
2026-01-11 09:10:29.75	3.44	19.16	-47.7	-51.4	14.5	1.50e-06	0	44	0	969932800	66	5722
2026-01-11 09:10:30.75	3.31	19.05	-47.8	-51.5	14.4	7.00e-07	0	44	0	972029952	66	5766
2026-01-11 09:10:31.74	3.18	18.95	-47.7	-51.3	14.6	0.00e+00	0	44	0	973078528	66	5628
2026-01-11 09:10:32.74	3.05	18.85	-47.5	-51.1	14.8	0.00e+00	0	44	0	975175680	66	5477
2026-01-11 09:10:33.73	2.92	18.74	-47.2	-50.5	15.4	0.00e+00	0	44	0	977272832	66	5129
2026-01-11 09:10:34.72	2.79	18.64	-46.8	-50.0	15.8	0.00e+00	0	44	0	979369984	65	5122
2026-01-11 09:10:35.72	2.67	18.54	-46.5	-49.5	16.3	0.00e+00	0	44	0	981467136	64	5121
2026-01-11 09:10:36.71	2.54	18.43	-46.4	-49.4	16.5	0.00e+00	0	44	0	982515712	64	5068
2026-01-11 09:10:37.70	2.41	18.33	-46.4	-49.3	16.5	0.00e+00	0	44	0	984612864	64	5020
2026-01-11 09:10:38.69	2.29	18.23	-46.3	-49.3	16.6	0.00e+00	0	44	0	986710016	64	4987
2026-01-11 09:10:39.69	2.17	18.13	-46.4	-49.4	16.4	0.00e+00	0	44	0	988807168	64	5072
2026-01-11 09:10:40.68	2.04	18.02	-46.6	-49.7	16.2	0.00e+00	0	44	0	989855744	64	5239
2026-01-11 09:10:41.67	1.92	17.92	-46.7	-49.9	15.9	0.00e+00	0	44	0	991952896	64	5397
2026-01-11 09:10:42.67	1.80	17.82	-46.8	-50.1	15.7	0.00e+00	0	44	0	994050048	64	5525
2026-01-11 09:10:43.66	1.68	17.72	-47.1	-50.6	15.3	0.00e+00	0	44	0	996147200	64	5837
2026-01-11 09:10:44.66	1.56	17.62	-47.1	-50.8	15.1	7.00e-07	0	44	0	998244352	65	5612
2026-01-11 09:10:45.65	1.44	17.52	-47.2	-50.9	15.0	0.00e+00	0	44	0	999292928	65	5720
2026-01-11 09:10:46.64	1.32	17.42	-47.1	-50.8	15.1	0.00e+00	0	44	0	1001390080	65	5649
2026-01-11 09:10:47.63	1.21	17.32	-47.0	-50.7	15.2	0.00e+00	0	44	0	1003487232	65	5557
2026-01-11 09:10:48.63	1.09	17.22	-47.0	-50.6	15.3	0.00e+00	0	44	0	1005584384	65	5485
2026-01-11 09:10:49.62	0.97	17.12	-47.1	-50.7	15.2	0.00e+00	0	44	0	1006632960	65	5561
2026-01-11 09:10:50.61	0.86	17.02	-47.1	-50.7	15.2	0.00e+00	0	44	0	1008730112	65	5579
2026-01-11 09:10:51.60	0.75	16.92	-47.2	-50.8	15.1	0.00e+00	0	44	0	1010827264	65	5617
2026-01-11 09:10:52.60	0.63	16.82	-47.4	-51.1	14.8	0.00e+00	0	44	0	1012924416	65	5816
2026-01-11 09:10:53.59	0.52	16.73	-47.4	-51.0	14.9	0.00e+00	0	44	0	1015021568	65	5752
2026-01-11 09:10:54.58	0.41	16.63	-47.5	-51.2	14.7	0.00e+00	0	44	0	1016070144	65	5880
2026-01-11 09:10:55.58	0.30	16.53	-47.7	-51.6	14.3	0.00e+00	0	44	0	1018167296	66	5822
2026-01-11 09:10:56.57	0.19	16.43	-47.7	-51.7	14.2	0.00e+00	0	44	0	1020264448	66	5878
2026-01-11 09:10:57.56	0.08	16.34	-47.6	-51.6	14.3	0.00e+00	0	44	0	1022361600	66	5816
2026-01-11 09:10:58.56	359.97	16.24	-47.6	-51.6	14.3	0.00e+00	0	44	0	1023410176	66	5792
2026-01-11 09:10:59.55	359.86	16.14	-47.7	-51.7	14.2	7.00e-07	0	44	0	1025507328	66	5863
2026-01-11 09:11:00.54	359.75	16.05	-47.8	-51.9	14.1	7.00e-07	0	44	0	1027604480	66	5996
2026-01-11 09:11:01.54	359.65	15.95	-48.1	-52.1	13.9	4.50e-06	0	44	0	1029701632	66	6150
2026-01-11 09:11:02.53	359.54	15.86	-48.1	-52.1	13.8	4.50e-06	0	44	0	1031798784	66	6179
2026-01-11 09:11:03.53	359.44	15.76	-48.2	-52.1	13.7	3.00e-06	0	44	0	1032847360	67	5842
2026-01-11 09:11:04.52	359.33	15.67	-48.1	-52.1	13.8	4.50e-06	0	44	0	1034944512	67	5841
2026-01-11 09:11:05.52	359.23	15.57	-48.2	-52.4	13.5	6.10e-06	0	44	0	1037041664	67	6019
2026-01-11 09:11:06.51	359.12	15.48	-48.2	-52.7	13.2	1.44e-05	0	44	0	1039138816	67	6208
2026-01-11 09:11:07.50	359.02	15.38	-48.2	-52.8	13.1	2.21e-05	0	44	0	1040187392	67	6285
2026-01-11 09:11:08.49	358.92	15.29	-48.0	-52.7	13.2	2.21e-05	0	44	0	1042284544	67	6229
2026-01-11 09:11:09.49	358.82	15.19	-47.9	-52.6	13.3	1.22e-05	0	44	0	1044381696	67	6141
2026-01-11 09:11:10.48	358.72	15.10	-47.9	-52.3	13.6	1.22e-05	0	44	0	1046478848	67	5954
2026-01-11 09:11:11.47	358.62	15.01	-47.8	-52.1	13.7	7.60e-06	0	44	0	1048576000	67	5815
2026-01-11 09:11:12.47	358.52	14.91	-47.8	-51.8	14.1	1.50e-06	0	44	0	1049624576	67	5617
2026-01-11 09:11:13.46	358.42	14.82	-47.6	-51.4	14.5	2.20e-06	0	44	0	1051721728	67	5357
2026-01-11 09:11:14.45	358.32	14.73	-47.5	-51.2	14.6	1.50e-06	0	44	0	1053818880	66	5572
2026-01-11 09:11:15.45	358.22	14.64	-47.3	-50.7	15.2	0.00e+00	0	44	0	1055916032	66	5247
2026-01-11 09:11:16.44	358.13	14.55	-47.3	-50.7	15.1	0.00e+00	0	44	0	1056964608	66	5265
2026-01-11 09:11:17.43	358.03	14.45	-47.2	-50.6	15.2	0.00e+00	0	44	0	1059061760	66	5207
2026-01-11 09:11:18.43	357.94	14.36	-47.2	-50.6	15.2	0.00e+00	0	44	0	1061158912	66	5207
2026-01-11 09:11:19.42	357.84	14.27	-47.0	-50.4	15.4	0.00e+00	0	44	0	1063256064	65	5361
2026-01-11 09:11:20.41	357.75	14.18	-47.0	-50.4	15.4	0.00e+00	0	44	0	1065353216	65	5366
2026-01-11 09:11:21.41	357.65	14.09	-47.0	-50.4	15.4	0.00e+00	0	44	0	1066401792	65	5383
2026-01-11 09:11:22.40	357.56	14.00	-47.0	-50.5	15.3	0.00e+00	0	44	0	1068498944	65	5423
2026-01-11 09:11:23.39	357.47	13.91	-47.1	-50.6	15.2	7.00e-07	0	44	0	1070596096	65	5490
2026-01-11 09:11:24.39	357.38	13.82	-47.2	-50.6	15.2	0.00e+00	0	44	0	1072693248	65	5505
2026-01-11 09:11:25.38	357.29	13.73	-47.3	-50.8	15.1	0.00e+00	0	44	0	1073741824	65	5606
2026-01-11 09:11:26.37	357.19	13.64	-47.5	-51.0	14.8	0.00e+00	0	44	0	1075838976	65	5751
2026-01-11 09:11:27.37	357.10	13.55	-47.6	-51.2	14.6	7.00e-07	0	44	0	1077936128	65	5887
2026-01-11 09:11:28.36	357.01	13.46	-47.5	-51.0	14.8	0.00e+00	0	44	0	1080033280	65	5764
2026-01-11 09:11:29.36	356.93	13.37	-47.4	-50.9	14.9	0.00e+00	0	44	0	1082130432	65	5722
2026-01-11 09:11:30.35	356.84	13.29	-47.3	-50.9	14.9	0.00e+00	0	44	0	1083179008	65	5675
2026-01-11 09:11:31.34	356.75	13.20	-47.4	-51.1	14.8	0.00e+00	0	44	0	1085276160	65	5800
2026-01-11 09:11:32.34	356.66	13.11	-47.3	-51.0	14.8	7.00e-07	0	44	0	1087373312	65	5760
2026-01-11 09:11:33.33	356.57	13.02	-47.2	-51.1	14.7	7.00e-07	0	44	0	1089470464	65	5816
2026-01-11 09:11:34.33	356.49	12.94	-47.3	-51.3	14.5	0.00e+00	0	44	0	1090519040	65	5930
2026-01-11 09:11:35.32	356.40	12.85	-47.2	-51.4	14.4	0.00e+00	0	44	0	1092616192	65	6007
2026-01-11 09:11:36.31	356.32	12.76	-47.0	-51.2	14.5	0.00e+00	0	44	0	1094713344	65	5920
2026-01-11 09:11:37.30	356.23	12.68	-47.1	-51.8	14.0	0.00e+00	0	44	0	1096810496	65	6275
2026-01-11 09:11:38.30	356.15	12.59	-46.9	-51.6	14.2	2.20e-06	0	44	0	1097859072	65	6197
2026-01-11 09:11:39.29	356.06	12.50	-46.9	-51.9	13.9	0.00e+00	0	44	0	1099956224	65	6355
2026-01-11 09:11:40.28	355.98	12.42	-46.8	-52.1	13.7	6.10e-06	0	44	0	1102053376	65	6516
2026-01-11 09:11:41.27	355.90	12.33	-46.8	-52.3	13.5	6.10e-06	0	44	0	1104150528	65	6664
2026-01-11 09:11:42.27	355.82	12.25	-46.6	-52.2	13.6	7.60e-06	0	44	0	1106247680	65	6620
2026-01-11 09:11:43.26	355.73	12.16	-46.5	-52.3	13.5	6.80e-06	0	44	0	1107296256	65	6670
2026-01-11 09:11:44.25	355.65	12.08	-46.5	-52.4	13.4	1.06e-05	0	44	0	1109393408	64	7181
2026-01-11 09:11:45.25	355.57	11.99	-46.4	-52.3	13.5	7.60e-06	0	44	0	1111490560	64	7044
2026-01-11 09:11:46.24	355.49	11.91	-46.6	-52.5	13.3	1.44e-05	0	44	0	1113587712	64	7284
2026-01-11 09:11:47.23	355.41	11.82	-46.7	-52.5	13.3	1.60e-05	0	44	0	1114636288	64	7223
2026-01-11 09:11:48.23	355.33	11.74	-47.1	-52.3	13.4	1.52e-05	0	44	0	1116733440	64	7118
2026-01-11 09:11:49.22	355.25	11.66	-47.4	-52.6	13.2	1.98e-05	0	44	0	1118830592	65	6899
2026-01-11 09:11:50.21	355.18	11.57	-47.4	-52.5	13.2	1.67e-05	0	44	0	1120927744	65	6846
2026-01-11 09:11:51.20	355.10	11.49	-47.5	-52.5	13.3	1.75e-05	0	44	0	1123024896	65	6848
2026-01-11 09:11:52.20	355.02	11.41	-47.8	-52.9	12.9	2.82e-05	0	44	0	1124073472	66	6740
2026-01-11 09:11:53.19	354.94	11.32	-47.8	-52.9	12.9	3.73e-05	0	44	0	1126170624	66	6793
2026-01-11 09:11:54.18	354.87	11.24	-47.8	-52.9	12.8	5.41e-05	0	44	0	1128267776	66	6776
2026-01-11 09:11:55.17	354.79	11.16	-47.9	-53.0	12.8	4.42e-05	0	44	0	1130364928	66	6857
2026-01-11 09:11:56.17	354.72	11.08	-48.0	-53.2	12.6	7.62e-05	0	44	0	1131413504	66	7008
2026-01-11 09:11:57.16	354.64	11.00	-47.8	-53.1	12.7	7.85e-05	0	44	0	1133510656	66	6904
2026-01-11 09:11:58.16	354.57	10.91	-47.8	-53.4	12.4	1.10e-04	0	44	0	1135607808	66	7185
2026-01-11 09:11:59.15	354.49	10.83	-47.7	-53.5	12.2	1.92e-04	0	44	0	1137704960	66	7285
2026-01-11 09:12:00.14	354.42	10.75	-47.6	-53.4	12.3	1.66e-04	0	44	0	1139802112	66	7170
2026-01-11 09:12:01.14	354.34	10.67	-47.7	-53.7	12.1	2.47e-04	0	44	0	1140850688	66	7380
2026-01-11 09:12:02.13	354.27	10.59	-47.8	-53.7	12.2	2.46e-04	0	44	0	1142947840	66	7375
2026-01-11 09:12:03.12	354.20	10.51	-47.8	-53.4	12.3	1.79e-04	0	44	0	1145044992	66	7183
2026-01-11 09:12:04.12	354.13	10.43	-48.0	-53.5	12.3	1.54e-04	0	44	0	1147142144	66	7272
2026-01-11 09:12:05.11	354.05	10.35	-48.0	-53.2	12.5	1.33e-04	0	44	0	1148190720	66	7029
2026-01-11 09:12:06.11	353.98	10.27	-47.8	-53.0	12.8	1.16e-04	0	44	0	1150287872	66	6837
2026-01-11 09:12:07.10	353.91	10.19	-47.7	-53.0	12.8	6.63e-05	0	44	0	1152385024	66	6860
2026-01-11 09:12:08.09	353.84	10.11	-47.4	-52.7	13.0	4.27e-05	0	44	0	1154482176	66	6614
2026-01-11 09:12:09.09	353.77	10.03	-47.1	-52.4	13.3	1.67e-05	0	44	0	1156579328	66	6390
2026-01-11 09:12:10.08	353.70	9.95	-47.0	-52.4	13.3	8.30e-06	0	44	0	1157627904	66	6375
2026-01-11 09:12:11.07	353.63	9.87	-46.7	-52.4	13.3	1.37e-05	0	44	0	1159725056	65	6750
2026-01-11 09:12:12.07	353.56	9.79	-46.3	-52.2	13.6	8.30e-06	0	44	0	1161822208	64	6962
2026-01-11 09:12:13.06	353.49	9.71	-46.1	-51.9	13.8	3.80e-06	0	44	0	1163919360	64	6795
2026-01-11 09:12:14.05	353.43	9.64	-46.1	-51.9	13.8	1.50e-06	0	44	0	1164967936	64	6742
2026-01-11 09:12:15.05	353.36	9.56	-46.1	-51.8	13.8	5.30e-06	0	44	0	1167065088	64	6720
2026-01-11 09:12:16.04	353.29	9.48	-46.3	-52.0	13.7	3.00e-06	0	44	0	1169162240	64	6820
2026-01-11 09:12:17.04	353.22	9.40	-46.8	-52.0	13.7	3.80e-06	0	44	0	1171259392	64	6809
2026-01-11 09:12:18.03	353.16	9.33	-47.1	-52.1	13.5	3.80e-06	0	44	0	1173356544	64	6933
2026-01-11 09:12:19.02	353.09	9.25	-47.6	-52.2	13.4	1.14e-05	0	44	0	1174405120	65	6646
2026-01-11 09:12:20.02	353.03	9.17	-47.5	-52.0	13.7	3.80e-06	0	44	0	1176502272	65	6437
2026-01-11 09:12:21.01	352.96	9.09	-47.7	-52.1	13.7	7.60e-06	0	44	0	1178599424	65	6495
2026-01-11 09:12:22.01	352.89	9.02	-47.9	-52.2	13.5	1.14e-05	0	44	0	1180696576	66	6241
2026-01-11 09:12:23.00	352.83	8.94	-50.3	-65.3	4.0	2.53e-02	0	44	0	1181745152	71	21197
2026-01-11 09:12:23.99	352.77	8.86	-49.3	-67.1	3.8	1.49e+00	0	44	104	1181745152	69	29075
2026-01-11 09:12:24.99	352.70	8.79	-51.6	-67.3	3.8	1.49e+00	0	44	104	1181745152	74	22323
2026-01-11 09:12:25.98	352.64	8.71	-51.6	-67.4	3.8	1.49e+00	0	44	104	1181745152	74	22648
2026-01-11 09:12:26.97	352.57	8.64	-52.2	-67.5	3.8	1.49e+00	0	44	104	1181745152	75	21579
2026-01-11 09:12:27.97	352.51	8.56	-51.3	-67.6	3.8	1.49e+00	0	44	104	1181745152	74	23046
2026-01-11 09:12:28.96	352.45	8.49	-52.1	-67.6	3.8	1.49e+00	0	44	104	1181745152	74	23127
2026-01-11 09:12:29.95	352.39	8.41	-52.2	-67.6	3.8	1.49e+00	0	44	104	1181745152	75	21807
2026-01-11 09:12:30.95	352.32	8.34	-52.3	-67.6	3.8	1.49e+00	0	44	104	1181745152	75	21970
2026-01-11 09:12:31.94	352.26	8.26	-52.2	-67.6	3.8	1.49e+00	0	44	104	1181745152	75	21923
2026-01-11 09:12:32.94	352.20	8.19	-52.2	-67.6	3.8	1.49e+00	0	44	104	1181745152	75	21860
2026-01-11 09:12:33.93	352.14	8.11	-52.4	-67.7	3.8	1.49e+00	0	44	104	1181745152	75	22019
2026-01-11 09:12:34.92	352.08	8.04	-52.1	-67.7	3.8	1.49e+00	0	44	104	1181745152	75	22018
2026-01-11 09:12:35.91	352.02	7.97	-52.5	-67.7	3.8	1.49e+00	0	44	104	1181745152	75	22013
2026-01-11 09:12:36.91	351.96	7.89	-52.4	-67.6	3.8	1.49e+00	0	44	104	1181745152	75	21919
2026-01-11 09:12:37.90	351.90	7.82	-52.4	-67.6	3.8	1.49e+00	0	44	104	1181745152	75	21953
2026-01-11 09:12:38.90	351.84	7.74	-52.5	-67.7	3.8	1.49e+00	0	44	104	1181745152	75	22028
