passes_logs/2026/01/11/T1/T1__20260111_101112_NOAA_21_JPSS-2_rec.log

#Pass ID: 20260111_101112_NOAA 21 (JPSS-2)
#Satellite: NOAA 21 (JPSS-2)
#Configuration: NOAA 21
#almurnet v.1.7.20251203
#Start time: 2026-01-11 10:11:13

#Version: 2.0.20230620
#Station: T1
#Location: 37.570604 lon 55.790049 lat
#TLE: 1 54234U 22150A   26010.92456470  .00000095  00000+0  65865-4 0  9991
#TLE: 2 54234  98.7494 311.8737 0000784 316.5119  43.5995 14.19533975164234

#Time	Az	El	Level	Level2	SNR	BER	BlckErr	Temp	State	Recorded	gain1	gain2
2026-01-11 10:11:13.25	168.46	5.07	-50.9	-64.8	3.8	1.49e+00	0	37	0	0	72	18874
2026-01-11 10:11:14.24	168.48	5.14	-48.7	-64.6	3.8	1.49e+00	0	38	104	0	68	23169
2026-01-11 10:11:15.23	168.49	5.21	-48.7	-64.6	3.8	1.49e+00	0	38	104	0	68	23077
2026-01-11 10:11:16.23	168.51	5.28	-48.7	-64.6	3.8	1.49e+00	0	37	104	0	68	23253
2026-01-11 10:11:17.22	168.53	5.35	-48.7	-64.6	3.8	1.49e+00	0	38	104	0	68	23128
2026-01-11 10:11:18.21	168.54	5.43	-48.7	-64.6	3.8	1.49e+00	0	38	104	0	68	23175
2026-01-11 10:11:19.20	168.56	5.50	-48.7	-64.6	3.8	1.49e+00	0	38	104	0	68	23231
2026-01-11 10:11:20.20	168.58	5.57	-48.7	-64.6	3.8	1.49e+00	0	38	104	0	68	23243
2026-01-11 10:11:21.19	168.59	5.64	-48.8	-64.6	3.8	1.49e+00	0	38	104	0	68	23280
2026-01-11 10:11:22.18	168.61	5.72	-48.7	-64.6	3.8	1.49e+00	0	38	104	0	68	23290
2026-01-11 10:11:23.18	168.62	5.79	-48.7	-64.6	3.8	1.49e+00	0	38	104	0	68	23091
2026-01-11 10:11:24.17	168.64	5.86	-48.7	-64.5	3.8	1.49e+00	0	38	104	0	68	22862
2026-01-11 10:11:25.16	168.66	5.94	-48.9	-64.6	3.8	1.49e+00	0	38	104	0	68	23080
2026-01-11 10:11:26.16	168.67	6.01	-48.7	-64.2	3.8	1.49e+00	0	38	104	0	68	22255
2026-01-11 10:11:27.15	168.69	6.08	-48.7	-64.0	3.8	1.49e+00	0	38	104	0	68	21744
2026-01-11 10:11:28.14	168.71	6.16	-48.7	-63.8	3.8	1.49e+00	0	38	104	0	68	21197
2026-01-11 10:11:29.13	168.73	6.23	-48.7	-63.6	3.8	1.49e+00	0	38	104	0	68	20748
2026-01-11 10:11:30.13	168.74	6.31	-48.6	-63.4	3.8	1.49e+00	0	38	104	0	68	20092
2026-01-11 10:11:31.12	168.76	6.38	-48.6	-63.1	3.9	1.49e+00	0	38	104	0	68	19522
2026-01-11 10:11:32.11	168.78	6.46	-48.6	-62.8	3.9	1.48e+00	0	38	104	0	68	18800
2026-01-11 10:11:33.11	168.79	6.53	-48.6	-62.1	4.0	1.48e+00	0	38	104	0	68	17310
2026-01-11 10:11:34.10	168.81	6.61	-48.5	-61.5	4.1	1.47e+00	0	38	104	0	68	16216
2026-01-11 10:11:35.09	168.83	6.68	-48.5	-61.1	4.2	1.46e+00	0	38	104	0	68	15511
2026-01-11 10:11:36.08	168.85	6.76	-48.5	-61.2	4.0	1.40e+00	0	38	104	0	68	15625
2026-01-11 10:11:37.08	168.86	6.83	-48.4	-60.6	4.0	9.57e-01	0	38	104	0	68	14608
2026-01-11 10:11:38.07	168.88	6.91	-48.4	-59.4	5.0	7.73e-01	0	38	0	0	68	12753
2026-01-11 10:11:39.06	168.90	6.99	-48.3	-58.6	5.4	5.74e-01	0	38	0	0	68	11668
2026-01-11 10:11:40.06	168.92	7.06	-48.2	-57.9	5.9	3.89e-01	0	38	0	0	68	10755
2026-01-11 10:11:41.05	168.93	7.14	-48.1	-57.2	6.4	2.64e-01	0	38	0	0	68	9930
2026-01-11 10:11:42.04	168.95	7.22	-47.8	-56.3	7.1	1.43e-01	0	38	0	0	67	9421
2026-01-11 10:11:43.04	168.97	7.29	-47.7	-55.5	7.8	9.46e-02	0	39	0	0	67	8638
2026-01-11 10:11:44.03	168.99	7.37	-47.4	-54.6	8.7	3.91e-02	0	39	0	0	66	8234
2026-01-11 10:11:45.02	169.01	7.45	-47.2	-53.9	9.5	1.94e-02	0	39	0	0	66	7604
2026-01-11 10:11:46.01	169.02	7.53	-47.0	-53.0	10.4	5.60e-03	0	38	0	0	65	7265
2026-01-11 10:11:47.01	169.04	7.61	-46.7	-52.4	11.1	2.11e-03	0	39	0	0	65	6727
2026-01-11 10:11:48.00	169.06	7.68	-46.5	-51.8	11.6	9.74e-04	0	39	0	0	65	6324
2026-01-11 10:11:48.99	169.08	7.76	-46.3	-51.3	12.1	3.75e-04	0	39	0	0	64	6334
2026-01-11 10:11:49.98	169.10	7.84	-46.1	-51.0	12.5	1.41e-04	0	38	0	0	64	6062
2026-01-11 10:11:50.98	169.12	7.92	-46.0	-50.5	13.0	4.19e-05	0	39	0	0	63	6109
2026-01-11 10:11:51.97	169.14	8.00	-45.9	-50.3	13.3	3.20e-05	0	39	0	0	63	5942
2026-01-11 10:11:52.96	169.15	8.08	-45.9	-50.3	13.2	1.90e-05	0	39	0	0	63	5979
2026-01-11 10:11:53.96	169.17	8.16	-46.3	-50.9	10.0	1.90e-05	0	39	0	0	63	6352
2026-01-11 10:11:54.95	169.19	8.24	-46.0	-50.6	13.0	3.12e-05	0	39	0	0	63	6138
2026-01-11 10:11:55.94	169.21	8.32	-46.2	-51.0	12.6	9.00e-05	0	39	0	0	63	6462
2026-01-11 10:11:56.94	169.23	8.40	-46.3	-51.4	12.1	1.57e-04	0	39	0	0	64	6373
2026-01-11 10:11:57.93	169.25	8.48	-46.6	-52.1	11.4	6.35e-04	0	39	0	0	64	6893
2026-01-11 10:11:58.92	169.27	8.56	-47.0	-53.0	10.4	3.10e-03	0	39	0	0	64	7678
2026-01-11 10:11:59.91	169.29	8.64	-47.3	-54.1	9.3	5.20e-02	0	39	0	0	65	8236
2026-01-11 10:12:00.91	169.31	8.73	-47.6	-55.6	7.8	6.51e-02	0	39	0	0	65	9743
2026-01-11 10:12:01.90	169.33	8.81	-48.0	-57.3	6.3	1.84e-01	0	39	0	0	66	11190
2026-01-11 10:12:02.89	169.35	8.89	-48.2	-59.1	5.0	5.76e-01	0	39	0	0	67	13031
2026-01-11 10:12:03.89	169.37	8.97	-48.4	-61.3	4.2	1.46e+00	0	39	104	0	67	16768
2026-01-11 10:12:04.88	169.39	9.06	-48.5	-63.4	3.8	1.49e+00	0	39	104	0	67	21482
2026-01-11 10:12:05.87	169.41	9.14	-48.6	-58.6	5.4	1.44e+00	0	39	0	0	68	11635
2026-01-11 10:12:06.87	169.43	9.22	-47.6	-53.1	10.4	6.03e-02	0	39	0	0	67	6502
2026-01-11 10:12:07.86	169.45	9.31	-48.6	-63.8	3.8	1.49e+00	0	39	104	0	68	21179
2026-01-11 10:12:08.85	169.47	9.39	-48.6	-58.3	4.3	1.48e+00	0	39	104	0	68	11230
2026-01-11 10:12:09.84	169.49	9.47	-46.9	-50.7	12.8	6.97e-04	0	39	0	0	65	5538
2026-01-11 10:12:10.83	169.51	9.56	-46.6	-50.1	13.4	2.89e-05	0	39	0	0	65	5167
2026-01-11 10:12:11.83	169.53	9.64	-46.4	-49.7	13.8	9.10e-06	0	39	0	0	64	5237
2026-01-11 10:12:12.82	169.55	9.73	-45.8	-48.7	14.9	1.50e-06	0	39	0	0	63	4938
2026-01-11 10:12:13.81	169.57	9.81	-45.7	-48.5	15.1	0.00e+00	0	39	0	0	63	4846
2026-01-11 10:12:14.80	169.59	9.90	-45.8	-48.7	14.9	0.00e+00	0	39	0	0	63	4938
2026-01-11 10:12:15.80	169.62	9.99	-45.9	-48.8	14.9	0.00e+00	0	39	0	0	63	4995
2026-01-11 10:12:16.79	169.64	10.07	-45.7	-48.5	15.1	0.00e+00	0	39	0	0	63	4869
2026-01-11 10:12:17.78	169.66	10.16	-45.5	-48.4	15.2	0.00e+00	0	39	0	0	62	5070
2026-01-11 10:12:18.78	169.68	10.25	-45.2	-48.0	15.6	0.00e+00	0	39	0	0	62	4822
2026-01-11 10:12:19.77	169.70	10.33	-44.7	-47.3	16.3	0.00e+00	0	39	0	0	61	4728
2026-01-11 10:12:20.76	169.72	10.42	-44.4	-47.0	16.6	0.00e+00	0	39	0	0	60	4842
2026-01-11 10:12:21.76	169.74	10.51	-44.3	-46.9	16.7	0.00e+00	0	39	0	0	60	4793
2026-01-11 10:12:22.75	169.77	10.60	-44.4	-47.0	16.6	0.00e+00	0	39	0	0	60	4840
2026-01-11 10:12:23.74	169.79	10.69	-44.4	-47.0	16.6	0.00e+00	0	39	0	0	60	4829
2026-01-11 10:12:24.73	169.81	10.77	-44.3	-46.8	16.7	0.00e+00	0	39	0	0	60	4758
2026-01-11 10:12:25.73	169.83	10.86	-44.3	-46.9	16.7	0.00e+00	0	39	0	0	60	4786
2026-01-11 10:12:26.72	169.85	10.95	-44.3	-46.8	16.8	0.00e+00	0	39	0	0	60	4750
2026-01-11 10:12:27.71	169.88	11.04	-44.2	-46.8	16.8	0.00e+00	0	39	0	0	60	4732
2026-01-11 10:12:28.71	169.90	11.13	-44.2	-46.8	16.8	0.00e+00	0	39	0	0	60	4721
2026-01-11 10:12:29.70	169.92	11.22	-44.3	-46.8	16.8	0.00e+00	0	39	0	0	60	4747
2026-01-11 10:12:30.69	169.95	11.31	-44.2	-46.7	16.9	0.00e+00	0	39	0	0	60	4653
2026-01-11 10:12:31.69	169.97	11.41	-44.2	-46.7	17.0	3.15e-03	0	39	0	0	60	4658
2026-01-11 10:12:32.68	169.99	11.50	-44.2	-46.6	17.0	0.00e+00	0	39	0	0	60	4651
2026-01-11 10:12:33.67	170.01	11.59	-44.2	-46.7	16.9	0.00e+00	0	39	0	0	60	4658
2026-01-11 10:12:34.66	170.04	11.68	-44.2	-46.6	17.0	7.85e-03	0	39	0	0	60	4622
2026-01-11 10:12:35.66	170.06	11.77	-44.2	-46.5	17.1	0.00e+00	0	39	0	0	60	4591
2026-01-11 10:12:36.65	170.09	11.87	-44.2	-46.5	17.1	0.00e+00	0	39	0	0	60	4592
2026-01-11 10:12:37.64	170.11	11.96	-44.3	-46.6	17.0	0.00e+00	0	39	0	0	60	4616
2026-01-11 10:12:38.64	170.13	12.05	-44.2	-46.5	17.1	0.00e+00	0	39	0	0	60	4567
2026-01-11 10:12:39.63	170.16	12.15	-44.2	-46.4	17.2	0.00e+00	0	39	0	0	60	4533
2026-01-11 10:12:40.62	170.18	12.24	-44.2	-46.4	17.2	0.00e+00	0	39	0	0	60	4507
2026-01-11 10:12:41.61	170.20	12.33	-44.2	-46.4	17.3	0.00e+00	0	39	0	0	60	4517
2026-01-11 10:12:42.61	170.23	12.43	-44.2	-46.4	17.2	0.00e+00	0	39	0	0	60	4527
2026-01-11 10:12:43.60	170.25	12.52	-44.2	-46.4	17.3	0.00e+00	0	39	0	0	60	4501
2026-01-11 10:12:44.59	170.28	12.62	-44.2	-46.4	17.3	0.00e+00	0	39	0	0	60	4514
2026-01-11 10:12:45.58	170.30	12.72	-44.3	-46.4	17.2	0.00e+00	0	39	0	0	60	4533
2026-01-11 10:12:46.58	170.33	12.81	-44.3	-46.5	17.2	0.00e+00	0	39	0	0	60	4551
2026-01-11 10:12:47.57	170.35	12.91	-44.2	-46.3	17.3	0.00e+00	0	39	0	0	60	4465
2026-01-11 10:12:48.56	170.38	13.01	-44.1	-46.2	17.5	0.00e+00	0	39	0	0	60	4405
2026-01-11 10:12:49.56	170.40	13.10	-44.1	-46.3	17.4	0.00e+00	0	39	0	0	60	4447
2026-01-11 10:12:50.55	170.43	13.20	-44.1	-46.2	17.4	0.00e+00	0	40	0	0	60	4434
2026-01-11 10:12:51.54	170.46	13.30	-44.0	-46.1	17.5	0.00e+00	0	40	0	0	60	4368
2026-01-11 10:12:52.53	170.48	13.40	-44.0	-46.2	17.5	0.00e+00	0	39	0	0	60	4397
2026-01-11 10:12:53.53	170.51	13.50	-44.1	-46.3	17.4	0.00e+00	0	39	0	0	60	4461
2026-01-11 10:12:54.52	170.53	13.60	-44.1	-46.2	17.4	0.00e+00	0	39	0	0	60	4421
2026-01-11 10:12:55.51	170.56	13.70	-44.1	-46.2	17.4	0.00e+00	0	40	0	0	60	4419
2026-01-11 10:12:56.50	170.59	13.80	-43.9	-46.0	17.6	0.00e+00	0	39	0	0	59	4591
2026-01-11 10:12:57.50	170.61	13.90	-44.0	-46.1	17.5	0.00e+00	0	39	0	0	59	4604
2026-01-11 10:12:58.49	170.64	14.00	-44.1	-46.2	17.4	0.00e+00	0	40	0	0	59	4669
2026-01-11 10:12:59.48	170.67	14.10	-44.0	-46.1	17.5	0.00e+00	0	39	0	0	59	4617
2026-01-11 10:13:00.48	170.69	14.20	-43.9	-46.0	17.5	1.53e-03	0	40	0	0	59	4597
2026-01-11 10:13:01.47	170.72	14.31	-44.0	-46.1	17.5	0.00e+00	0	40	0	0	59	4644
2026-01-11 10:13:02.46	170.75	14.41	-44.1	-46.2	17.4	0.00e+00	0	40	0	0	59	4665
2026-01-11 10:13:03.46	170.78	14.51	-44.0	-46.1	17.5	5.53e-03	0	39	0	0	59	4624
2026-01-11 10:13:04.45	170.80	14.62	-44.1	-46.1	17.5	0.00e+00	0	40	0	0	59	4639
2026-01-11 10:13:05.44	170.83	14.72	-44.0	-46.0	17.6	0.00e+00	0	39	0	0	59	4582
2026-01-11 10:13:06.44	170.86	14.83	-44.0	-46.0	17.6	2.67e-04	0	39	0	0	59	4587
2026-01-11 10:13:07.43	170.89	14.93	-44.0	-46.0	17.6	0.00e+00	0	40	0	0	59	4585
2026-01-11 10:13:08.42	170.92	15.04	-44.1	-46.1	17.5	0.00e+00	0	39	0	0	59	4649
2026-01-11 10:13:09.41	170.95	15.14	-44.0	-46.1	17.6	0.00e+00	0	40	0	0	59	4605
2026-01-11 10:13:10.41	170.98	15.25	-43.9	-46.0	17.7	0.00e+00	0	40	0	0	59	4555
2026-01-11 10:13:11.40	171.00	15.36	-44.0	-46.0	17.6	0.00e+00	0	40	0	0	59	4581
2026-01-11 10:13:12.39	171.03	15.46	-44.1	-46.1	17.5	0.00e+00	0	40	0	0	59	4632
2026-01-11 10:13:13.39	171.06	15.57	-44.1	-46.1	17.5	0.00e+00	0	40	0	0	59	4623
2026-01-11 10:13:14.38	171.09	15.68	-44.0	-46.1	17.6	0.00e+00	0	40	0	0	59	4606
2026-01-11 10:13:15.37	171.12	15.79	-44.0	-46.0	17.7	0.00e+00	0	40	0	0	59	4558
2026-01-11 10:13:16.37	171.15	15.90	-44.1	-46.1	17.5	0.00e+00	0	40	0	0	59	4644
2026-01-11 10:13:17.36	171.18	16.01	-44.1	-46.1	17.6	0.00e+00	0	40	0	0	59	4632
2026-01-11 10:13:18.35	171.21	16.12	-44.2	-46.2	17.5	0.00e+00	0	40	0	0	59	4654
2026-01-11 10:13:19.34	171.24	16.23	-44.1	-46.1	17.5	0.00e+00	0	40	0	0	59	4644
2026-01-11 10:13:20.34	171.28	16.34	-44.1	-46.1	17.6	0.00e+00	0	40	0	0	59	4605
2026-01-11 10:13:21.33	171.31	16.45	-44.2	-46.3	17.4	0.00e+00	0	40	0	0	59	4714
2026-01-11 10:13:22.32	171.34	16.56	-44.2	-46.2	17.5	0.00e+00	0	40	0	0	59	4673
2026-01-11 10:13:23.31	171.37	16.67	-44.1	-46.1	17.5	0.00e+00	0	40	0	0	59	4640
2026-01-11 10:13:24.31	171.40	16.79	-44.2	-46.2	17.5	0.00e+00	0	40	0	0	59	4691
2026-01-11 10:13:25.30	171.43	16.90	-44.2	-46.2	17.5	0.00e+00	0	40	0	0	59	4687
2026-01-11 10:13:26.29	171.46	17.02	-44.2	-46.3	17.4	0.00e+00	0	40	0	0	59	4718
2026-01-11 10:13:27.29	171.50	17.13	-44.3	-46.3	17.4	0.00e+00	0	40	0	0	59	4745
2026-01-11 10:13:28.28	171.53	17.25	-44.2	-46.2	17.4	0.00e+00	0	40	0	0	59	4700
2026-01-11 10:13:29.27	171.56	17.36	-44.3	-46.3	17.4	0.00e+00	0	40	0	0	59	4753
2026-01-11 10:13:30.27	171.60	17.48	-44.3	-46.4	17.4	0.00e+00	0	40	0	0	59	4762
2026-01-11 10:13:31.26	171.63	17.60	-44.2	-46.3	17.4	0.00e+00	0	40	0	0	59	4706
2026-01-11 10:13:32.25	171.66	17.71	-44.3	-46.4	17.3	0.00e+00	0	40	0	0	59	4768
2026-01-11 10:13:33.24	171.70	17.83	-44.3	-46.3	17.4	0.00e+00	0	40	0	0	59	4755
2026-01-11 10:13:34.24	171.73	17.95	-44.3	-46.3	17.4	0.00e+00	0	40	0	0	59	4743
2026-01-11 10:13:35.23	171.76	18.07	-44.3	-46.3	17.3	0.00e+00	0	40	0	0	59	4756
2026-01-11 10:13:36.22	171.80	18.19	-44.3	-46.4	17.4	0.00e+00	0	40	0	0	59	4762
2026-01-11 10:13:37.21	171.83	18.31	-44.4	-46.4	17.3	0.00e+00	0	39	0	0	59	4804
2026-01-11 10:13:38.21	171.87	18.43	-44.3	-46.3	17.4	0.00e+00	0	40	0	0	59	4758
2026-01-11 10:13:39.20	171.90	18.55	-44.3	-46.3	17.4	0.00e+00	0	40	0	0	59	4750
2026-01-11 10:13:40.19	171.94	18.67	-44.2	-46.2	17.4	0.00e+00	0	40	0	0	59	4702
2026-01-11 10:13:41.19	171.98	18.80	-44.3	-46.3	17.4	0.00e+00	0	40	0	0	59	4736
2026-01-11 10:13:42.18	172.01	18.92	-44.2	-46.2	17.5	0.00e+00	0	40	0	0	59	4690
2026-01-11 10:13:43.17	172.05	19.05	-44.2	-46.3	17.4	0.00e+00	0	40	0	0	59	4710
2026-01-11 10:13:44.17	172.08	19.17	-44.1	-46.1	17.5	0.00e+00	0	39	0	0	59	4640
2026-01-11 10:13:45.16	172.12	19.30	-44.1	-46.2	17.5	0.00e+00	0	40	0	0	59	4652
2026-01-11 10:13:46.15	172.16	19.42	-44.1	-46.1	17.6	0.00e+00	0	40	0	0	59	4629
2026-01-11 10:13:47.15	172.20	19.55	-44.0	-46.0	17.6	0.00e+00	0	40	0	0	59	4578
2026-01-11 10:13:48.14	172.23	19.68	-43.9	-46.0	17.7	0.00e+00	0	40	0	0	59	4549
2026-01-11 10:13:49.13	172.27	19.80	-43.8	-45.8	17.8	0.00e+00	0	40	0	0	59	4488
2026-01-11 10:13:50.12	172.31	19.93	-43.8	-45.8	17.9	0.00e+00	0	40	0	0	59	4469
2026-01-11 10:13:51.12	172.35	20.06	-43.8	-45.8	17.9	0.00e+00	0	40	0	0	59	4455
2026-01-11 10:13:52.11	172.39	20.19	-43.7	-45.7	18.0	0.00e+00	0	40	0	0	59	4399
2026-01-11 10:13:53.10	172.43	20.32	-43.8	-45.7	17.9	0.00e+00	0	40	0	0	59	4431
2026-01-11 10:13:54.10	172.47	20.45	-43.7	-45.6	18.0	0.00e+00	0	40	0	0	59	4391
2026-01-11 10:13:55.09	172.51	20.58	-43.6	-45.6	18.1	0.00e+00	0	40	0	0	59	4352
2026-01-11 10:13:56.08	172.55	20.72	-43.6	-45.5	18.1	0.00e+00	0	40	0	0	59	4313
2026-01-11 10:13:57.07	172.59	20.85	-43.5	-45.4	18.3	0.00e+00	0	40	0	0	59	4249
2026-01-11 10:13:58.07	172.63	20.98	-43.3	-45.2	18.5	0.00e+00	0	39	0	0	58	4414
2026-01-11 10:13:59.06	172.67	21.12	-43.3	-45.1	18.5	0.00e+00	0	40	0	0	58	4385
2026-01-11 10:14:00.05	172.71	21.25	-43.4	-45.3	18.4	0.00e+00	0	40	0	0	58	4453
2026-01-11 10:14:01.05	172.75	21.39	-43.3	-45.2	18.5	0.00e+00	0	40	0	0	58	4398
2026-01-11 10:14:02.04	172.79	21.53	-43.3	-45.2	18.5	0.00e+00	0	40	0	0	58	4399
2026-01-11 10:14:03.03	172.84	21.66	-43.2	-45.0	18.6	0.00e+00	0	40	0	0	58	4327
2026-01-11 10:14:04.03	172.88	21.80	-43.2	-45.1	18.6	0.00e+00	0	40	0	0	58	4364
2026-01-11 10:14:05.02	172.92	21.94	-43.2	-45.1	18.6	0.00e+00	0	40	0	0	58	4346
2026-01-11 10:14:06.01	172.96	22.08	-43.0	-44.9	18.8	0.00e+00	0	40	0	0	58	4245
2026-01-11 10:14:07.01	173.01	22.22	-43.0	-44.8	18.8	0.00e+00	0	40	0	0	57	4448
2026-01-11 10:14:08.00	173.05	22.36	-43.0	-44.8	18.8	0.00e+00	0	40	0	0	57	4471
2026-01-11 10:14:08.99	173.10	22.50	-43.0	-44.8	18.9	0.00e+00	0	40	0	0	57	4460
2026-01-11 10:14:09.98	173.14	22.65	-42.9	-44.7	18.9	0.00e+00	0	40	0	0	57	4404
2026-01-11 10:14:10.98	173.19	22.79	-42.9	-44.7	18.9	0.00e+00	0	40	0	0	57	4437
2026-01-11 10:14:11.97	173.23	22.93	-42.8	-44.6	19.0	0.00e+00	0	40	0	0	57	4372
2026-01-11 10:14:12.96	173.28	23.08	-42.8	-44.6	18.9	0.00e+00	0	40	0	0	57	4391
2026-01-11 10:14:13.96	173.33	23.23	-42.8	-44.6	19.0	0.00e+00	0	40	0	0	57	4371
2026-01-11 10:14:14.95	173.37	23.37	-42.7	-44.5	19.1	0.00e+00	0	40	0	0	57	4321
2026-01-11 10:14:15.94	173.42	23.52	-42.7	-44.5	19.0	0.00e+00	0	40	0	0	57	4336
2026-01-11 10:14:16.93	173.47	23.67	-42.7	-44.5	19.1	0.00e+00	0	40	0	0	57	4302
2026-01-11 10:14:17.93	173.52	23.82	-42.7	-44.5	19.0	0.00e+00	0	40	0	0	57	4333
2026-01-11 10:14:18.92	173.57	23.97	-42.7	-44.5	19.1	0.00e+00	0	40	0	0	57	4319
2026-01-11 10:14:19.91	173.61	24.12	-42.6	-44.4	19.1	0.00e+00	0	40	0	0	57	4273
2026-01-11 10:14:20.91	173.66	24.27	-42.7	-44.4	19.1	0.00e+00	0	40	0	0	57	4290
2026-01-11 10:14:21.90	173.71	24.42	-42.7	-44.4	19.1	0.00e+00	0	40	0	0	57	4290
2026-01-11 10:14:22.89	173.76	24.57	-42.6	-44.4	19.2	0.00e+00	0	40	0	0	57	4275
2026-01-11 10:14:23.89	173.82	24.73	-42.6	-44.4	19.2	0.00e+00	0	40	0	0	57	4274
2026-01-11 10:14:24.88	173.87	24.88	-42.7	-44.4	19.2	0.00e+00	0	40	0	0	57	4278
2026-01-11 10:14:25.87	173.92	25.04	-42.7	-44.4	19.2	0.00e+00	0	40	0	0	57	4282
2026-01-11 10:14:26.86	173.97	25.20	-42.8	-44.6	19.1	0.00e+00	0	40	0	0	57	4361
2026-01-11 10:14:27.85	174.02	25.35	-42.9	-44.6	19.0	0.00e+00	0	40	0	0	57	4386
2026-01-11 10:14:28.85	174.08	25.51	-42.9	-44.8	18.9	0.00e+00	0	40	0	0	57	4446
2026-01-11 10:14:29.84	174.13	25.67	-43.1	-44.9	18.8	0.00e+00	0	40	0	0	57	4521
2026-01-11 10:14:30.83	174.18	25.83	-43.1	-45.0	18.7	0.00e+00	0	40	0	0	57	4549
2026-01-11 10:14:31.83	174.24	26.00	-43.3	-45.1	18.6	0.00e+00	0	40	0	0	57	4634
2026-01-11 10:14:32.82	174.30	26.16	-43.3	-45.2	18.5	0.00e+00	0	40	0	0	57	4680
2026-01-11 10:14:33.81	174.35	26.32	-43.4	-45.3	18.4	0.00e+00	0	40	0	0	57	4727
2026-01-11 10:14:34.81	174.41	26.49	-43.5	-45.4	18.3	0.00e+00	0	40	0	0	57	4791
2026-01-11 10:14:35.80	174.46	26.65	-43.6	-45.5	18.2	0.00e+00	0	40	0	0	57	4831
2026-01-11 10:14:36.79	174.52	26.82	-43.7	-45.6	18.1	0.00e+00	0	40	0	0	58	4625
2026-01-11 10:14:37.78	174.58	26.99	-43.8	-45.7	18.1	0.00e+00	0	40	0	0	58	4658
2026-01-11 10:14:38.78	174.64	27.16	-43.9	-45.9	17.9	0.00e+00	0	40	0	0	58	4760
2026-01-11 10:14:39.77	174.70	27.32	-43.9	-45.9	17.9	0.00e+00	0	40	0	0	58	4773
2026-01-11 10:14:40.76	174.76	27.49	-43.9	-45.9	17.9	0.00e+00	0	40	0	0	58	4762
2026-01-11 10:14:41.75	174.82	27.67	-43.9	-45.8	17.9	0.00e+00	0	40	0	0	58	4756
2026-01-11 10:14:42.75	174.88	27.84	-44.0	-46.0	17.8	0.00e+00	0	40	0	0	58	4815
2026-01-11 10:14:43.74	174.94	28.01	-43.9	-45.9	17.9	0.00e+00	0	40	0	0	58	4770
2026-01-11 10:14:44.73	175.00	28.19	-44.0	-45.9	17.9	0.00e+00	0	40	0	0	58	4791
2026-01-11 10:14:45.72	175.07	28.36	-44.1	-46.0	17.8	0.00e+00	0	40	0	0	58	4865
2026-01-11 10:14:46.72	175.13	28.54	-44.1	-46.0	17.7	0.00e+00	0	40	0	0	58	4848
2026-01-11 10:14:47.71	175.20	28.72	-44.1	-46.1	17.7	0.00e+00	0	40	0	0	58	4904
2026-01-11 10:14:48.70	175.26	28.90	-44.2	-46.2	17.6	0.00e+00	0	40	0	0	59	4660
2026-01-11 10:14:49.69	175.33	29.08	-44.2	-46.1	17.7	0.00e+00	0	40	0	0	59	4639
2026-01-11 10:14:50.69	175.39	29.26	-44.2	-46.2	17.6	0.00e+00	0	40	0	0	59	4670
2026-01-11 10:14:51.68	175.46	29.44	-44.1	-46.1	17.7	0.00e+00	0	40	0	0	59	4603
2026-01-11 10:14:52.67	175.53	29.62	-44.1	-46.1	17.7	0.00e+00	0	40	0	0	59	4630
2026-01-11 10:14:53.67	175.60	29.81	-44.0	-46.0	17.8	0.00e+00	0	40	0	0	59	4567
2026-01-11 10:14:54.66	175.67	30.00	-44.1	-46.0	17.7	0.00e+00	0	40	0	0	59	4594
2026-01-11 10:14:55.65	175.74	30.18	-44.0	-46.0	17.8	0.00e+00	0	40	0	0	59	4556
2026-01-11 10:14:56.64	175.81	30.37	-43.8	-45.7	18.0	0.00e+00	0	40	0	0	59	4439
2026-01-11 10:14:57.64	175.88	30.56	-43.7	-45.6	18.2	0.00e+00	0	40	0	0	59	4341
2026-01-11 10:14:58.63	175.95	30.75	-43.7	-45.6	18.1	0.00e+00	0	40	0	0	59	4377
2026-01-11 10:14:59.62	176.02	30.94	-43.5	-45.4	18.3	0.00e+00	0	40	0	0	59	4273
2026-01-11 10:15:00.62	176.10	31.14	-43.5	-45.3	18.4	0.00e+00	0	40	0	0	58	4480
2026-01-11 10:15:01.61	176.17	31.33	-43.4	-45.3	18.4	0.00e+00	0	40	0	0	58	4477
2026-01-11 10:15:02.60	176.25	31.53	-43.4	-45.2	18.5	0.00e+00	0	40	0	0	58	4427
2026-01-11 10:15:03.59	176.33	31.72	-43.3	-45.2	18.5	0.00e+00	0	40	0	0	58	4408
2026-01-11 10:15:04.59	176.41	31.92	-43.4	-45.2	18.5	0.00e+00	0	40	0	0	58	4427
2026-01-11 10:15:05.58	176.48	32.12	-43.4	-45.2	18.5	0.00e+00	0	40	0	0	58	4420
2026-01-11 10:15:06.57	176.56	32.32	-43.4	-45.3	18.5	0.00e+00	0	40	0	0	58	4456
2026-01-11 10:15:07.57	176.64	32.53	-43.5	-45.4	18.4	0.00e+00	0	40	0	0	58	4509
2026-01-11 10:15:08.56	176.73	32.73	-43.6	-45.4	18.3	0.00e+00	0	40	0	0	58	4540
2026-01-11 10:15:09.55	176.81	32.93	-43.6	-45.5	18.3	0.00e+00	0	40	0	0	58	4582
2026-01-11 10:15:10.54	176.89	33.14	-43.8	-45.7	18.1	0.00e+00	0	40	0	0	58	4657
2026-01-11 10:15:11.54	176.98	33.35	-43.8	-45.8	18.1	0.00e+00	0	40	0	0	58	4715
2026-01-11 10:15:12.53	177.06	33.55	-44.0	-46.0	17.9	0.00e+00	0	40	0	0	58	4833
2026-01-11 10:15:13.52	177.15	33.76	-44.1	-46.0	17.9	0.00e+00	0	40	0	0	58	4851
2026-01-11 10:15:14.52	177.24	33.98	-44.3	-46.3	17.6	0.00e+00	0	40	0	0	59	4719
2026-01-11 10:15:15.51	177.32	34.19	-44.5	-46.5	17.4	0.00e+00	0	40	0	0	59	4825
2026-01-11 10:15:16.50	177.41	34.40	-44.5	-46.5	17.3	0.00e+00	0	40	0	0	59	4869
2026-01-11 10:15:17.49	177.50	34.62	-44.7	-46.7	17.2	0.00e+00	0	40	0	0	59	4949
2026-01-11 10:15:18.49	177.60	34.84	-44.8	-46.9	17.0	0.00e+00	0	40	0	0	60	4785
2026-01-11 10:15:19.48	177.69	35.05	-44.9	-47.0	16.9	0.00e+00	0	40	0	0	60	4851
2026-01-11 10:15:20.47	177.79	35.27	-45.0	-47.1	16.9	0.00e+00	0	40	0	0	60	4871
2026-01-11 10:15:21.46	177.88	35.49	-45.1	-47.2	16.8	0.00e+00	0	40	0	0	60	4943
2026-01-11 10:15:22.46	177.98	35.72	-45.3	-47.4	16.5	0.00e+00	0	40	0	0	61	4802
2026-01-11 10:15:23.45	178.08	35.94	-45.4	-47.6	16.4	0.00e+00	0	40	0	0	61	4886
2026-01-11 10:15:24.44	178.18	36.17	-45.6	-47.9	16.1	0.00e+00	0	40	0	0	61	5057
2026-01-11 10:15:25.44	178.28	36.40	-45.7	-48.0	16.0	0.00e+00	0	40	0	0	62	4865
2026-01-11 10:15:26.43	178.38	36.63	-46.0	-48.4	15.6	0.00e+00	0	40	0	0	62	5060
2026-01-11 10:15:27.42	178.48	36.85	-46.2	-48.6	15.4	0.00e+00	0	40	0	0	63	4912
2026-01-11 10:15:28.42	178.59	37.09	-46.3	-48.8	15.2	0.00e+00	0	40	0	0	63	5014
2026-01-11 10:15:29.41	178.70	37.32	-46.4	-49.0	15.1	0.00e+00	0	40	0	0	63	5119
2026-01-11 10:15:30.40	178.80	37.56	-46.4	-48.9	15.1	7.00e-07	0	40	0	0	63	5070
2026-01-11 10:15:31.39	178.91	37.79	-46.4	-49.0	15.1	0.00e+00	0	40	0	0	63	5129
2026-01-11 10:15:32.39	179.03	38.03	-46.4	-49.0	15.1	0.00e+00	0	40	0	0	63	5103
2026-01-11 10:15:33.38	179.14	38.27	-46.3	-48.8	15.3	0.00e+00	0	40	0	0	63	5002
2026-01-11 10:15:34.37	179.25	38.51	-46.2	-48.6	15.4	0.00e+00	0	40	0	0	63	4910
2026-01-11 10:15:35.37	179.37	38.76	-46.1	-48.5	15.5	0.00e+00	0	40	0	0	63	4839
2026-01-11 10:15:36.36	179.49	39.00	-45.9	-48.3	15.7	0.00e+00	0	40	0	0	63	4738
2026-01-11 10:15:37.35	179.61	39.24	-45.9	-48.3	15.8	0.00e+00	0	40	0	0	63	4716
2026-01-11 10:15:38.34	179.73	39.49	-45.9	-48.3	15.8	0.00e+00	0	40	0	0	63	4722
2026-01-11 10:15:39.34	179.85	39.74	-46.0	-48.4	15.6	0.00e+00	0	40	0	0	63	4813
2026-01-11 10:15:40.33	179.98	39.99	-46.2	-48.7	15.4	0.00e+00	0	40	0	0	63	4956
2026-01-11 10:15:41.32	180.10	40.24	-46.2	-48.6	15.5	0.00e+00	0	40	0	0	63	4890
2026-01-11 10:15:42.31	180.23	40.50	-46.0	-48.3	15.7	0.00e+00	0	40	0	0	63	4724
2026-01-11 10:15:43.31	180.36	40.76	-45.9	-48.2	15.8	0.00e+00	0	40	0	0	63	4685
2026-01-11 10:15:44.30	180.50	41.01	-45.9	-48.1	15.9	0.00e+00	0	40	0	0	63	4639
2026-01-11 10:15:45.29	180.63	41.27	-45.9	-48.2	15.8	0.00e+00	0	40	0	0	63	4685
2026-01-11 10:15:46.29	180.77	41.53	-45.9	-48.2	15.8	0.00e+00	0	40	0	0	63	4695
2026-01-11 10:15:47.28	180.91	41.80	-46.1	-48.4	15.6	0.00e+00	0	40	0	0	63	4807
2026-01-11 10:15:48.27	181.05	42.06	-46.2	-48.6	15.5	0.00e+00	0	40	0	0	63	4899
2026-01-11 10:15:49.27	181.19	42.33	-46.1	-48.4	15.6	0.00e+00	0	40	0	0	63	4809
2026-01-11 10:15:50.26	181.34	42.59	-46.0	-48.3	15.8	0.00e+00	0	40	0	0	63	4736
2026-01-11 10:15:51.25	181.49	42.86	-45.9	-48.2	15.9	0.00e+00	0	40	0	0	63	4661
2026-01-11 10:15:52.24	181.64	43.13	-45.8	-48.0	16.0	0.00e+00	0	40	0	0	63	4578
2026-01-11 10:15:53.24	181.79	43.41	-45.7	-47.9	16.1	0.00e+00	0	40	0	0	63	4512
2026-01-11 10:15:54.23	181.95	43.68	-45.7	-47.9	16.1	0.00e+00	0	40	0	0	63	4522
2026-01-11 10:15:55.22	182.11	43.96	-45.7	-48.0	16.1	0.00e+00	0	40	0	0	63	4566
2026-01-11 10:15:56.22	182.27	44.24	-45.9	-48.2	15.9	0.00e+00	0	40	0	0	63	4686
2026-01-11 10:15:57.21	182.43	44.52	-45.8	-48.2	16.0	0.00e+00	0	40	0	0	63	4652
2026-01-11 10:15:58.20	182.60	44.80	-46.0	-48.3	15.8	0.00e+00	0	40	0	0	63	4718
2026-01-11 10:15:59.20	182.77	45.08	-45.8	-48.1	16.0	0.00e+00	0	40	0	0	63	4606
2026-01-11 10:16:00.19	182.94	45.37	-45.7	-47.9	16.2	0.00e+00	0	40	0	0	63	4512
2026-01-11 10:16:01.18	183.12	45.65	-45.6	-47.8	16.3	0.00e+00	0	40	0	0	63	4454
2026-01-11 10:16:02.17	183.30	45.94	-45.6	-47.8	16.3	0.00e+00	0	40	0	0	63	4473
2026-01-11 10:16:03.17	183.48	46.24	-45.5	-47.7	16.4	0.00e+00	0	40	0	0	62	4664
2026-01-11 10:16:04.16	183.67	46.53	-45.4	-47.5	16.6	0.00e+00	0	40	0	0	62	4564
2026-01-11 10:16:05.15	183.86	46.82	-45.4	-47.5	16.5	0.00e+00	0	40	0	0	62	4594
2026-01-11 10:16:06.14	184.05	47.11	-45.5	-47.7	16.3	0.00e+00	0	40	0	0	62	4689
2026-01-11 10:16:07.14	184.25	47.41	-45.5	-47.7	16.4	0.00e+00	0	40	0	0	62	4658
2026-01-11 10:16:08.13	184.45	47.71	-45.3	-47.4	16.6	0.00e+00	0	40	0	0	62	4515
2026-01-11 10:16:09.12	184.65	48.01	-45.3	-47.5	16.5	0.00e+00	0	40	0	0	62	4564
2026-01-11 10:16:10.12	184.86	48.32	-45.4	-47.6	16.4	0.00e+00	0	40	0	0	62	4636
2026-01-11 10:16:11.11	185.07	48.62	-45.7	-47.9	16.2	0.00e+00	0	40	0	0	62	4792
2026-01-11 10:16:12.10	185.29	48.93	-45.6	-47.8	16.2	0.00e+00	0	40	0	0	62	4749
2026-01-11 10:16:13.10	185.51	49.24	-45.9	-48.2	15.9	0.00e+00	0	40	0	0	62	4952
2026-01-11 10:16:14.09	185.73	49.54	-45.7	-48.0	16.1	0.00e+00	0	40	0	0	62	4825
2026-01-11 10:16:15.08	185.96	49.86	-45.7	-48.0	15.9	0.00e+00	0	40	0	0	62	4847
2026-01-11 10:16:16.08	186.20	50.17	-46.0	-48.3	15.7	0.00e+00	0	40	0	0	62	5033
2026-01-11 10:16:17.07	186.44	50.48	-46.1	-48.6	15.5	0.00e+00	0	40	0	0	62	5175
2026-01-11 10:16:18.06	186.68	50.80	-46.1	-48.5	15.5	0.00e+00	0	40	0	0	63	4861
2026-01-11 10:16:19.05	186.93	51.12	-46.0	-48.5	15.6	0.00e+00	0	40	0	0	63	4821
2026-01-11 10:16:20.05	187.18	51.44	-45.9	-48.3	15.8	0.00e+00	0	40	0	0	63	4734
2026-01-11 10:16:21.04	187.44	51.76	-45.7	-48.0	16.1	0.00e+00	0	40	0	0	63	4576
2026-01-11 10:16:22.03	187.71	52.08	-45.5	-47.7	16.4	0.00e+00	0	40	0	0	63	4407
2026-01-11 10:16:23.03	187.98	52.40	-45.6	-47.9	16.2	0.00e+00	0	40	0	0	63	4510
2026-01-11 10:16:24.02	188.26	52.73	-45.5	-47.8	16.3	0.00e+00	0	40	0	0	63	4455
2026-01-11 10:16:25.01	188.54	53.05	-45.1	-47.3	16.7	0.00e+00	0	40	0	0	62	4448
2026-01-11 10:16:26.00	188.83	53.38	-44.5	-46.6	17.3	0.00e+00	0	40	0	0	61	4370
2026-01-11 10:16:27.00	189.13	53.71	-44.0	-46.0	17.9	0.00e+00	0	40	0	0	60	4339
2026-01-11 10:16:27.99	189.43	54.04	-43.9	-45.8	18.1	0.00e+00	0	40	0	0	59	4475
2026-01-11 10:16:28.98	189.74	54.38	-43.7	-45.5	18.3	0.00e+00	0	40	0	0	59	4337
2026-01-11 10:16:29.98	190.06	54.71	-43.4	-45.2	18.6	0.00e+00	0	40	0	0	58	4427
2026-01-11 10:16:30.97	190.38	55.05	-43.4	-45.3	18.5	0.00e+00	0	40	0	0	58	4452
2026-01-11 10:16:31.96	190.71	55.38	-43.1	-44.9	18.9	0.00e+00	0	40	0	0	58	4244
2026-01-11 10:16:32.95	191.05	55.72	-43.2	-45.0	18.8	0.00e+00	0	40	0	0	58	4295
2026-01-11 10:16:33.95	191.40	56.06	-42.9	-44.6	18.9	0.00e+00	0	40	0	0	57	4378
2026-01-11 10:16:34.94	191.76	56.40	-43.0	-44.7	18.9	0.00e+00	0	40	0	0	57	4423
2026-01-11 10:16:35.93	192.12	56.74	-42.9	-44.7	18.9	0.00e+00	0	40	0	0	57	4402
2026-01-11 10:16:36.93	192.50	57.08	-43.0	-44.8	18.9	0.00e+00	0	40	0	0	57	4473
2026-01-11 10:16:37.92	192.88	57.42	-43.2	-45.0	18.7	0.00e+00	0	40	0	0	57	4591
2026-01-11 10:16:38.91	193.27	57.76	-43.3	-45.1	18.6	0.00e+00	0	40	0	0	57	4651
2026-01-11 10:16:39.90	193.67	58.11	-43.4	-45.2	18.5	0.00e+00	0	40	0	0	57	4680
2026-01-11 10:16:40.90	194.09	58.45	-43.3	-45.1	18.7	0.00e+00	0	40	0	0	57	4624
2026-01-11 10:16:41.89	194.51	58.80	-42.9	-44.7	19.1	0.00e+00	0	40	0	0	57	4428
2026-01-11 10:16:42.88	194.95	59.14	-42.8	-44.5	19.2	0.00e+00	0	40	0	0	57	4325
2026-01-11 10:16:43.88	195.40	59.49	-42.8	-44.6	19.2	0.00e+00	0	40	0	0	57	4342
2026-01-11 10:16:44.87	195.86	59.84	-42.8	-44.5	19.2	0.00e+00	0	40	0	0	57	4335
2026-01-11 10:16:45.86	196.33	60.18	-42.5	-44.2	19.5	0.00e+00	0	40	0	0	57	4189
2026-01-11 10:16:46.85	196.81	60.53	-42.3	-44.0	19.6	0.00e+00	0	40	0	0	56	4329
2026-01-11 10:16:47.85	197.31	60.88	-42.3	-44.0	19.6	0.00e+00	0	40	0	0	56	4336
2026-01-11 10:16:48.84	197.82	61.22	-42.1	-43.8	19.8	0.00e+00	0	40	0	0	56	4216
2026-01-11 10:16:49.83	198.35	61.57	-42.0	-43.7	20.0	0.00e+00	0	40	0	0	56	4152
2026-01-11 10:16:50.83	198.89	61.92	-42.0	-43.7	19.9	0.00e+00	0	40	0	0	56	4161
2026-01-11 10:16:51.82	199.44	62.26	-41.7	-43.4	20.0	0.00e+00	0	40	0	0	55	4274
2026-01-11 10:16:52.81	200.01	62.61	-41.7	-43.4	20.0	0.00e+00	0	40	0	0	55	4263
2026-01-11 10:16:53.80	200.60	62.95	-41.7	-43.3	19.9	0.00e+00	0	40	0	0	55	4228
2026-01-11 10:16:54.80	201.21	63.29	-41.9	-43.5	19.8	0.00e+00	0	40	0	0	55	4330
2026-01-11 10:16:55.79	201.83	63.64	-42.1	-43.9	19.6	0.00e+00	0	40	0	0	55	4495
2026-01-11 10:16:56.78	202.47	63.98	-42.4	-44.1	19.4	0.00e+00	0	40	0	0	55	4620
2026-01-11 10:16:57.78	203.14	64.32	-42.3	-44.1	19.5	0.00e+00	0	40	0	0	55	4616
2026-01-11 10:16:58.77	203.81	64.66	-42.2	-43.9	19.6	0.00e+00	0	40	0	0	55	4508
2026-01-11 10:16:59.76	204.51	64.99	-42.4	-44.1	19.4	0.00e+00	0	40	0	0	55	4629
2026-01-11 10:17:00.76	205.24	65.33	-42.4	-44.2	19.3	0.00e+00	0	40	0	0	55	4655
2026-01-11 10:17:01.75	205.98	65.66	-42.5	-44.3	19.2	0.00e+00	0	40	0	0	55	4708
2026-01-11 10:17:02.74	206.74	65.99	-42.3	-44.1	19.4	0.00e+00	0	40	0	0	55	4604
2026-01-11 10:17:03.73	207.53	66.32	-42.2	-43.9	19.6	0.00e+00	0	40	0	0	55	4500
2026-01-11 10:17:04.73	208.35	66.64	-42.0	-43.7	19.6	0.00e+00	0	40	0	0	55	4416
2026-01-11 10:17:05.72	209.19	66.96	-42.4	-44.1	19.3	0.00e+00	0	40	0	0	55	4636
2026-01-11 10:17:06.71	210.05	67.28	-42.9	-44.7	19.1	0.00e+00	0	40	0	0	56	4670
2026-01-11 10:17:07.71	210.94	67.60	-43.0	-44.8	18.9	0.00e+00	0	40	0	0	56	4745
2026-01-11 10:17:08.70	211.86	67.91	-42.9	-44.7	19.1	0.00e+00	0	40	0	0	56	4662
2026-01-11 10:17:09.69	212.80	68.21	-42.5	-44.3	19.4	0.00e+00	0	40	0	0	56	4460
2026-01-11 10:17:10.68	213.77	68.51	-42.4	-44.1	19.5	0.00e+00	0	40	0	0	56	4391
2026-01-11 10:17:11.68	214.79	68.81	-42.6	-44.3	19.5	0.00e+00	0	40	0	0	56	4474
2026-01-11 10:17:12.67	215.82	69.10	-42.6	-44.3	19.4	0.00e+00	0	40	0	0	56	4490
2026-01-11 10:17:13.66	216.88	69.39	-42.3	-44.0	19.7	0.00e+00	0	40	0	0	56	4320
2026-01-11 10:17:14.65	217.98	69.67	-42.1	-43.8	19.7	0.00e+00	0	40	0	0	56	4239
2026-01-11 10:17:15.65	219.11	69.94	-42.3	-44.0	19.5	0.00e+00	0	40	0	0	56	4314
2026-01-11 10:17:16.64	220.27	70.21	-42.3	-44.0	19.6	0.00e+00	0	40	0	0	56	4320
2026-01-11 10:17:17.63	221.47	70.47	-42.3	-44.1	19.6	0.00e+00	0	40	0	0	56	4350
2026-01-11 10:17:18.63	222.71	70.72	-42.5	-44.2	19.4	0.00e+00	0	40	0	0	56	4435
2026-01-11 10:17:19.62	223.97	70.97	-42.3	-44.0	19.4	0.00e+00	0	40	0	0	56	4307
2026-01-11 10:17:20.84	225.57	71.26	-42.3	-44.0	19.3	0.00e+00	0	40	0	0	56	4309
2026-01-11 10:17:21.69	226.71	71.45	-42.3	-44.0	19.4	0.00e+00	0	40	0	0	56	4295
2026-01-11 10:17:22.83	228.29	71.70	-42.6	-44.3	19.3	0.00e+00	0	40	0	0	56	4466
2026-01-11 10:17:23.68	229.49	71.88	-42.5	-44.2	19.3	0.00e+00	0	40	0	0	56	4427
2026-01-11 10:17:24.81	231.13	72.10	-42.4	-44.1	19.4	0.00e+00	0	40	0	0	56	4384
2026-01-11 10:17:25.66	232.39	72.26	-42.7	-44.4	19.1	0.00e+00	0	40	0	0	56	4542
2026-01-11 10:17:26.80	234.12	72.46	-42.9	-44.7	18.7	0.00e+00	0	40	0	0	56	4687
2026-01-11 10:17:27.65	235.44	72.60	-42.8	-44.6	18.9	0.00e+00	0	40	0	0	56	4642
2026-01-11 10:17:28.79	237.23	72.78	-42.8	-44.5	19.0	0.00e+00	0	40	0	0	56	4585
2026-01-11 10:17:29.64	238.60	72.90	-42.9	-44.6	18.9	0.00e+00	0	40	0	0	56	4648
2026-01-11 10:17:30.77	240.44	73.04	-42.4	-44.1	19.5	0.00e+00	0	40	0	0	56	4386
2026-01-11 10:17:31.62	241.85	73.14	-42.1	-43.8	19.8	0.00e+00	0	40	0	0	56	4211
2026-01-11 10:17:32.76	243.76	73.26	-42.2	-43.9	19.7	0.00e+00	0	40	0	0	56	4265
2026-01-11 10:17:33.61	245.21	73.33	-42.2	-43.9	19.7	0.00e+00	0	40	0	0	56	4257
2026-01-11 10:17:34.74	247.14	73.42	-41.8	-43.4	19.8	0.00e+00	0	40	0	0	55	4286
2026-01-11 10:17:35.60	248.63	73.47	-41.6	-43.2	20.0	0.00e+00	0	40	0	0	55	4175
2026-01-11 10:17:36.73	250.60	73.52	-41.6	-43.3	20.0	0.00e+00	0	40	0	0	55	4215
2026-01-11 10:17:37.58	252.09	73.55	-41.7	-43.4	19.9	0.00e+00	0	40	0	0	55	4259
2026-01-11 10:17:38.72	254.09	73.57	-42.3	-44.0	19.4	0.00e+00	0	40	0	0	55	4563
2026-01-11 10:17:39.57	255.58	73.57	-42.2	-43.9	19.5	0.00e+00	0	40	0	0	55	4544
2026-01-11 10:17:40.70	257.56	73.55	-41.9	-43.6	19.6	0.00e+00	0	39	0	0	55	4360
2026-01-11 10:17:41.55	259.05	73.53	-41.7	-43.4	19.8	0.00e+00	0	40	0	0	55	4275
2026-01-11 10:17:42.69	261.04	73.48	-41.9	-43.6	19.8	0.00e+00	0	40	0	0	55	4369
2026-01-11 10:17:43.54	262.52	73.44	-42.1	-43.8	19.7	0.00e+00	0	40	0	0	55	4489
2026-01-11 10:17:44.67	264.46	73.36	-42.3	-44.0	19.6	0.00e+00	0	40	0	0	55	4575
2026-01-11 10:17:45.53	265.92	73.29	-42.0	-43.7	19.8	0.00e+00	0	40	0	0	55	4431
2026-01-11 10:17:46.66	267.83	73.18	-42.0	-43.7	19.7	0.00e+00	0	40	0	0	55	4409
2026-01-11 10:17:47.51	269.24	73.08	-42.0	-43.7	19.7	0.00e+00	0	40	0	0	55	4403
2026-01-11 10:17:48.64	271.09	72.94	-42.8	-44.5	19.2	0.00e+00	0	40	0	0	56	4573
2026-01-11 10:17:49.49	272.46	72.83	-42.7	-44.5	19.3	0.00e+00	0	40	0	0	56	4570
2026-01-11 10:17:50.63	274.27	72.66	-42.6	-44.3	19.4	0.00e+00	0	40	0	0	56	4469
2026-01-11 10:17:51.48	275.59	72.52	-42.3	-44.0	19.7	0.00e+00	0	40	0	0	56	4320
2026-01-11 10:17:52.61	277.32	72.33	-41.7	-43.4	19.9	0.00e+00	0	40	0	0	55	4251
2026-01-11 10:17:53.47	278.60	72.17	-41.6	-43.2	20.0	0.00e+00	0	40	0	0	55	4187
2026-01-11 10:17:54.60	280.25	71.95	-42.0	-43.6	19.9	0.00e+00	0	40	0	0	55	4379
2026-01-11 10:17:55.45	281.47	71.77	-42.2	-43.9	19.7	0.00e+00	0	40	0	0	55	4508
2026-01-11 10:17:56.59	283.05	71.53	-43.0	-44.8	19.1	0.00e+00	0	40	0	0	56	4707
2026-01-11 10:17:57.44	284.21	71.34	-43.3	-45.1	18.7	0.00e+00	0	40	0	0	57	4626
2026-01-11 10:17:58.57	285.71	71.07	-42.9	-44.7	18.9	0.00e+00	0	40	0	0	57	4418
2026-01-11 10:17:59.42	286.80	70.87	-42.2	-43.8	19.5	0.00e+00	0	40	0	0	56	4239
2026-01-11 10:18:00.56	288.23	70.58	-41.9	-43.6	19.8	0.00e+00	0	40	0	0	55	4348
2026-01-11 10:18:01.41	289.27	70.37	-42.1	-43.7	19.7	0.00e+00	0	40	0	0	55	4440
2026-01-11 10:18:02.54	290.61	70.07	-42.5	-44.2	19.4	0.00e+00	0	40	0	0	55	4678
2026-01-11 10:18:03.39	291.59	69.83	-42.5	-44.2	19.1	0.00e+00	0	40	0	0	55	4691
2026-01-11 10:18:04.53	292.87	69.52	-42.2	-44.0	19.1	0.00e+00	0	40	0	0	55	4561
2026-01-11 10:18:05.38	293.80	69.28	-41.8	-43.5	19.7	0.00e+00	0	40	0	0	55	4309
2026-01-11 10:18:06.52	295.00	68.94	-41.8	-43.5	19.9	0.00e+00	0	40	0	0	55	4299
2026-01-11 10:18:07.37	295.87	68.69	-42.2	-43.9	19.6	0.00e+00	0	40	0	0	55	4532
2026-01-11 10:18:08.50	297.00	68.35	-43.2	-45.1	18.8	0.00e+00	0	40	0	0	57	4607
2026-01-11 10:18:09.35	297.82	68.09	-44.1	-46.1	17.9	0.00e+00	0	40	0	0	58	4890
2026-01-11 10:18:10.49	298.89	67.74	-43.4	-45.2	18.5	0.00e+00	0	40	0	0	58	4430
2026-01-11 10:18:11.34	299.66	67.47	-42.5	-44.2	19.2	0.00e+00	0	40	0	0	57	4172
2026-01-11 10:18:12.47	300.66	67.11	-42.2	-43.9	19.6	0.00e+00	0	40	0	0	56	4250
2026-01-11 10:18:13.32	301.39	66.84	-42.4	-44.1	19.5	0.00e+00	0	40	0	0	56	4388
2026-01-11 10:18:14.46	302.34	66.47	-43.1	-44.9	19.0	0.00e+00	0	40	0	0	56	4778
2026-01-11 10:18:15.31	303.02	66.19	-43.5	-45.4	18.4	0.00e+00	0	40	0	0	57	4786
2026-01-11 10:18:16.44	303.90	65.82	-43.8	-45.8	17.8	0.00e+00	0	40	0	0	58	4715
2026-01-11 10:18:17.29	304.55	65.54	-43.4	-45.3	18.2	0.00e+00	0	40	0	0	58	4481
2026-01-11 10:18:18.43	305.39	65.15	-42.7	-44.5	19.1	0.00e+00	0	40	0	0	57	4301
2026-01-11 10:18:19.28	306.00	64.87	-42.6	-44.3	19.3	0.00e+00	0	40	0	0	57	4225
2026-01-11 10:18:20.41	306.78	64.49	-43.0	-44.8	19.0	0.00e+00	0	40	0	0	56	4732
2026-01-11 10:18:21.26	307.36	64.20	-43.9	-45.8	18.2	0.00e+00	0	40	0	0	58	4709
2026-01-11 10:18:22.40	308.10	63.81	-45.0	-47.2	16.9	0.00e+00	0	40	0	0	60	4952
2026-01-11 10:18:23.25	308.64	63.51	-45.0	-47.2	16.8	0.00e+00	0	40	0	0	61	4663
2026-01-11 10:18:24.39	309.35	63.12	-43.8	-45.7	17.8	0.00e+00	0	40	0	0	59	4402
2026-01-11 10:18:25.24	309.86	62.83	-42.9	-44.6	19.0	0.00e+00	0	40	0	0	57	4390
2026-01-11 10:18:26.37	310.52	62.44	-42.2	-43.9	19.8	0.00e+00	0	40	0	0	56	4267
2026-01-11 10:18:27.22	311.00	62.14	-42.4	-44.2	19.6	0.00e+00	0	40	0	0	56	4404
2026-01-11 10:18:28.36	311.63	61.75	-43.4	-45.2	18.6	0.00e+00	0	40	0	0	57	4678
2026-01-11 10:18:29.21	312.09	61.45	-43.9	-45.8	18.1	0.00e+00	0	40	0	0	58	4728
2026-01-11 10:18:30.34	312.68	61.06	-44.2	-46.2	17.8	0.00e+00	0	40	0	0	59	4667
2026-01-11 10:18:31.19	313.11	60.76	-43.8	-45.7	18.1	0.00e+00	0	40	0	0	59	4399
2026-01-11 10:18:32.33	313.67	60.36	-43.3	-45.1	18.6	0.00e+00	0	40	0	0	58	4371
2026-01-11 10:18:33.18	314.08	60.07	-42.7	-44.5	19.2	0.00e+00	0	40	0	0	57	4316
2026-01-11 10:18:34.31	314.61	59.68	-42.5	-44.2	19.5	0.00e+00	0	40	0	0	57	4171
2026-01-11 10:18:35.17	315.00	59.38	-42.8	-44.5	19.2	0.00e+00	0	40	0	0	56	4589
2026-01-11 10:18:36.30	315.50	58.98	-44.0	-46.0	17.9	0.00e+00	0	40	0	0	58	4825
2026-01-11 10:18:37.15	315.87	58.69	-45.1	-47.3	16.9	0.00e+00	0	40	0	0	60	5017
2026-01-11 10:18:38.29	316.35	58.30	-45.2	-47.4	16.7	0.00e+00	0	40	0	0	61	4779
2026-01-11 10:18:39.13	316.70	58.01	-44.3	-46.3	17.5	0.00e+00	0	40	0	0	60	4487
2026-01-11 10:18:40.27	317.16	57.61	-43.3	-45.2	18.4	0.00e+00	0	40	0	0	58	4392
2026-01-11 10:18:41.12	317.49	57.32	-43.0	-44.9	18.7	0.00e+00	0	40	0	0	58	4247
2026-01-11 10:18:42.26	317.92	56.93	-42.8	-44.6	19.1	0.00e+00	0	40	0	0	57	4364
2026-01-11 10:18:43.11	318.24	56.64	-42.8	-44.6	19.1	0.00e+00	0	40	0	0	57	4374
2026-01-11 10:18:44.24	318.65	56.25	-43.5	-45.4	18.4	0.00e+00	0	40	0	0	57	4789
2026-01-11 10:18:45.09	318.95	55.96	-44.7	-46.8	17.2	0.00e+00	0	40	0	0	59	4990
2026-01-11 10:18:46.23	319.35	55.58	-45.9	-48.3	15.8	0.00e+00	0	40	0	0	62	5039
2026-01-11 10:18:47.08	319.63	55.29	-46.0	-48.4	15.7	0.00e+00	0	40	0	0	62	5077
2026-01-11 10:18:48.21	320.01	54.91	-45.3	-47.6	16.1	0.00e+00	0	40	0	0	62	4612
2026-01-11 10:18:49.07	320.29	54.62	-44.8	-47.0	16.6	0.00e+00	0	40	0	0	61	4562
2026-01-11 10:18:50.20	320.64	54.24	-43.9	-45.8	17.9	0.00e+00	0	40	0	0	59	4479
2026-01-11 10:18:51.05	320.90	53.96	-43.5	-45.3	18.4	0.00e+00	0	40	0	0	59	4238
2026-01-11 10:18:52.19	321.25	53.58	-43.4	-45.3	18.6	0.00e+00	0	40	0	0	58	4455
2026-01-11 10:18:53.04	321.50	53.30	-43.9	-45.8	18.1	0.00e+00	0	40	0	0	58	4757
2026-01-11 10:18:54.17	321.82	52.93	-44.9	-47.0	17.1	0.00e+00	0	40	0	0	60	4838
2026-01-11 10:18:55.02	322.06	52.65	-45.4	-47.7	16.3	0.00e+00	0	40	0	0	61	4978
2026-01-11 10:18:56.16	322.38	52.28	-46.0	-48.4	15.7	0.00e+00	0	40	0	0	62	5080
2026-01-11 10:18:57.01	322.61	52.01	-45.9	-48.3	15.8	0.00e+00	0	40	0	0	62	4997
2026-01-11 10:18:58.15	322.91	51.64	-45.8	-48.3	15.5	0.00e+00	0	40	0	0	62	4996
2026-01-11 10:18:59.00	323.13	51.37	-45.5	-47.9	15.8	0.00e+00	0	40	0	0	62	4765
2026-01-11 10:19:00.13	323.42	51.01	-45.0	-47.2	16.6	0.00e+00	0	40	0	0	62	4403
2026-01-11 10:19:00.98	323.63	50.73	-44.7	-46.8	17.1	0.00e+00	0	40	0	0	61	4467
2026-01-11 10:19:02.12	323.90	50.37	-44.6	-46.7	17.3	0.00e+00	0	40	0	0	61	4395
2026-01-11 10:19:02.97	324.11	50.11	-44.7	-46.7	17.2	0.00e+00	0	40	0	0	61	4421
2026-01-11 10:19:04.10	324.37	49.75	-45.5	-47.7	16.4	0.00e+00	0	40	0	0	61	4960
2026-01-11 10:19:04.95	324.57	49.49	-45.9	-48.2	15.9	0.00e+00	0	40	0	0	62	4939
2026-01-11 10:19:06.09	324.82	49.14	-46.2	-48.6	15.5	0.00e+00	0	40	0	0	63	4886
2026-01-11 10:19:06.94	325.01	48.87	-46.4	-48.9	15.2	0.00e+00	0	40	0	0	63	5078
2026-01-11 10:19:08.07	325.25	48.53	-46.8	-49.5	14.6	0.00e+00	0	40	0	0	64	5111
2026-01-11 10:19:08.93	325.43	48.27	-46.9	-49.7	14.4	1.50e-06	0	40	0	0	64	5220
2026-01-11 10:19:10.06	325.67	47.92	-46.5	-49.1	15.0	0.00e+00	0	40	0	0	64	4887
2026-01-11 10:19:10.91	325.84	47.67	-46.0	-48.4	15.6	0.00e+00	0	40	0	0	63	4779
2026-01-11 10:19:12.05	326.07	47.33	-45.9	-48.3	15.7	0.00e+00	0	40	0	0	63	4709
2026-01-11 10:19:12.90	326.24	47.07	-45.6	-47.9	16.0	0.00e+00	0	40	0	0	63	4509
2026-01-11 10:19:14.03	326.45	46.74	-45.3	-47.5	16.4	0.00e+00	0	40	0	0	62	4552
2026-01-11 10:19:14.88	326.62	46.49	-45.4	-47.6	16.4	0.00e+00	0	40	0	0	62	4601
2026-01-11 10:19:16.02	326.83	46.16	-45.5	-47.7	16.3	0.00e+00	0	40	0	0	62	4700
2026-01-11 10:19:16.87	326.98	45.91	-45.6	-47.9	16.1	0.00e+00	0	40	0	0	62	4786
2026-01-11 10:19:18.00	327.19	45.58	-46.0	-48.3	15.8	0.00e+00	0	40	0	0	62	5035
2026-01-11 10:19:18.85	327.33	45.34	-46.0	-48.5	15.6	0.00e+00	0	40	0	0	62	5113
2026-01-11 10:19:19.99	327.53	45.02	-45.7	-48.1	16.0	0.00e+00	0	40	0	0	62	4880
2026-01-11 10:19:20.84	327.68	44.77	-45.3	-47.5	16.5	0.00e+00	0	40	0	0	62	4582
2026-01-11 10:19:21.97	327.87	44.46	-45.1	-47.3	16.7	0.00e+00	0	40	0	0	62	4449
2026-01-11 10:19:22.83	328.01	44.22	-45.6	-47.8	16.2	0.00e+00	0	40	0	0	62	4748
2026-01-11 10:19:23.96	328.19	43.90	-46.5	-49.0	15.0	0.00e+00	0	40	0	0	63	5117
2026-01-11 10:19:24.81	328.32	43.67	-46.9	-49.6	14.4	0.00e+00	0	40	0	0	64	5179
2026-01-11 10:19:25.95	328.50	43.35	-47.1	-49.9	14.1	1.50e-06	0	40	0	0	64	5352
2026-01-11 10:19:26.80	328.63	43.12	-47.0	-49.7	14.2	7.00e-07	0	40	0	0	64	5278
2026-01-11 10:19:27.93	328.80	42.81	-46.6	-49.2	14.6	0.00e+00	0	40	0	0	64	4979
2026-01-11 10:19:28.78	328.93	42.59	-46.2	-48.6	15.2	0.00e+00	0	40	0	0	64	4642
2026-01-11 10:19:29.92	329.10	42.28	-46.0	-48.3	15.6	0.00e+00	0	40	0	0	63	4732
2026-01-11 10:19:30.77	329.22	42.05	-46.1	-48.5	15.4	0.00e+00	0	40	0	0	63	4858
2026-01-11 10:19:31.90	329.38	41.76	-46.5	-49.0	15.0	0.00e+00	0	40	0	0	63	5135
2026-01-11 10:19:32.75	329.50	41.53	-46.6	-49.2	14.9	7.00e-07	0	40	0	0	63	5239
2026-01-11 10:19:33.89	329.66	41.23	-46.5	-49.1	15.0	0.00e+00	0	40	0	0	63	5210
2026-01-11 10:19:34.74	329.77	41.01	-46.5	-49.2	14.9	0.00e+00	0	40	0	0	63	5257
2026-01-11 10:19:35.87	329.92	40.72	-46.5	-49.2	14.9	7.00e-07	0	40	0	0	63	5256
2026-01-11 10:19:36.72	330.03	40.51	-46.2	-48.8	15.3	0.00e+00	0	40	0	0	63	5005
2026-01-11 10:19:37.86	330.18	40.22	-45.6	-48.0	16.0	0.00e+00	0	40	0	0	63	4583
2026-01-11 10:19:38.71	330.29	40.00	-45.5	-47.9	16.1	0.00e+00	0	40	0	0	63	4528
2026-01-11 10:19:39.84	330.43	39.72	-45.6	-48.1	15.9	0.00e+00	0	40	0	0	63	4619
2026-01-11 10:19:40.70	330.54	39.50	-45.7	-48.2	15.8	0.00e+00	0	40	0	0	63	4684
2026-01-11 10:19:41.83	330.67	39.22	-46.0	-48.5	15.5	0.00e+00	0	40	0	0	63	4858
2026-01-11 10:19:42.68	330.77	39.01	-46.3	-48.9	15.2	0.00e+00	0	40	0	0	63	5072
2026-01-11 10:19:43.82	330.91	38.74	-46.6	-49.2	14.9	0.00e+00	0	40	0	0	63	5259
2026-01-11 10:19:44.67	331.01	38.53	-46.6	-49.3	14.7	1.50e-06	0	40	0	0	64	5011
2026-01-11 10:19:45.80	331.14	38.26	-46.5	-49.2	14.9	0.00e+00	0	40	0	0	64	4948
2026-01-11 10:19:46.65	331.23	38.05	-46.0	-48.5	15.5	0.00e+00	0	40	0	0	64	4584
2026-01-11 10:19:47.79	331.36	37.78	-45.5	-47.7	16.2	0.00e+00	0	40	0	0	63	4429
2026-01-11 10:19:48.64	331.46	37.58	-45.1	-47.3	16.6	0.00e+00	0	40	0	0	62	4445
2026-01-11 10:19:49.77	331.58	37.32	-45.0	-47.1	16.7	0.00e+00	0	40	0	0	61	4628
2026-01-11 10:19:50.62	331.67	37.12	-45.0	-47.1	16.7	0.00e+00	0	40	0	0	61	4636
2026-01-11 10:19:51.76	331.79	36.85	-45.1	-47.2	16.7	0.00e+00	0	40	0	0	61	4670
2026-01-11 10:19:52.61	331.88	36.66	-45.2	-47.3	16.6	0.00e+00	0	40	0	0	61	4752
2026-01-11 10:19:53.74	332.00	36.40	-45.2	-47.3	16.7	0.00e+00	0	40	0	0	61	4751
2026-01-11 10:19:54.60	332.08	36.20	-45.0	-47.2	16.8	0.00e+00	0	40	0	0	61	4655
2026-01-11 10:19:55.73	332.20	35.95	-44.9	-47.1	16.9	0.00e+00	0	40	0	0	61	4606
2026-01-11 10:19:56.58	332.28	35.76	-44.8	-46.9	17.0	0.00e+00	0	40	0	0	61	4531
2026-01-11 10:19:57.72	332.39	35.50	-44.7	-46.8	17.1	0.00e+00	0	40	0	0	61	4471
2026-01-11 10:19:58.57	332.47	35.32	-44.7	-46.8	17.0	0.00e+00	0	40	0	0	61	4456
2026-01-11 10:19:59.70	332.58	35.07	-44.8	-46.9	16.9	0.00e+00	0	40	0	0	61	4506
2026-01-11 10:20:00.55	332.66	34.88	-44.8	-46.9	16.8	0.00e+00	0	40	0	0	61	4531
2026-01-11 10:20:01.69	332.77	34.63	-44.8	-46.9	16.9	0.00e+00	0	40	0	0	61	4508
2026-01-11 10:20:02.54	332.84	34.45	-44.8	-47.0	16.8	0.00e+00	0	40	0	0	61	4561
2026-01-11 10:20:03.67	332.95	34.21	-45.0	-47.2	16.8	0.00e+00	0	40	0	0	61	4652
2026-01-11 10:20:04.52	333.02	34.03	-45.0	-47.2	16.8	0.00e+00	0	40	0	0	61	4670
2026-01-11 10:20:05.66	333.12	33.79	-45.0	-47.2	16.8	0.00e+00	0	40	0	0	61	4689
2026-01-11 10:20:06.51	333.20	33.61	-45.0	-47.2	16.8	0.00e+00	0	40	0	0	61	4672
2026-01-11 10:20:07.64	333.29	33.37	-45.0	-47.1	16.9	0.00e+00	0	40	0	0	61	4639
2026-01-11 10:20:08.50	333.37	33.19	-44.7	-46.8	17.1	0.00e+00	0	40	0	0	61	4493
2026-01-11 10:20:09.63	333.46	32.96	-44.6	-46.7	17.3	0.00e+00	0	40	0	0	61	4439
2026-01-11 10:20:10.48	333.53	32.79	-44.7	-46.9	17.1	0.00e+00	0	40	0	0	61	4512
2026-01-11 10:20:11.62	333.63	32.56	-44.8	-47.0	17.0	0.00e+00	0	40	0	0	61	4581
2026-01-11 10:20:12.47	333.70	32.38	-44.8	-47.1	16.9	0.00e+00	0	40	0	0	61	4625
2026-01-11 10:20:13.60	333.79	32.16	-45.0	-47.3	16.8	0.00e+00	0	40	0	0	61	4725
2026-01-11 10:20:14.45	333.85	31.99	-45.0	-47.3	16.7	0.00e+00	0	40	0	0	61	4734
2026-01-11 10:20:15.59	333.94	31.76	-44.9	-47.2	16.8	0.00e+00	0	40	0	0	61	4660
2026-01-11 10:20:16.44	334.01	31.59	-45.0	-47.3	16.7	0.00e+00	0	40	0	0	61	4750
2026-01-11 10:20:17.58	334.10	31.37	-44.9	-47.2	16.8	0.00e+00	0	40	0	0	61	4689
2026-01-11 10:20:18.43	334.16	31.21	-44.8	-47.1	16.9	0.00e+00	0	40	0	0	61	4608
2026-01-11 10:20:19.56	334.24	30.99	-44.5	-46.7	17.3	0.00e+00	0	39	0	0	61	4394
2026-01-11 10:20:20.41	334.31	30.82	-44.5	-46.6	17.3	0.00e+00	0	40	0	0	60	4647
2026-01-11 10:20:21.55	334.39	30.61	-44.3	-46.4	17.6	0.00e+00	0	40	0	0	60	4500
2026-01-11 10:20:22.40	334.45	30.45	-44.2	-46.3	17.7	0.00e+00	0	40	0	0	60	4458
2026-01-11 10:20:23.53	334.53	30.23	-44.2	-46.4	17.5	0.00e+00	0	40	0	0	60	4494
2026-01-11 10:20:24.38	334.59	30.07	-44.0	-46.0	17.8	0.00e+00	0	40	0	0	59	4584
2026-01-11 10:20:25.52	334.67	29.86	-43.8	-45.8	17.9	0.00e+00	0	40	0	0	59	4482
2026-01-11 10:20:26.37	334.73	29.71	-43.7	-45.7	18.0	0.00e+00	0	40	0	0	59	4421
2026-01-11 10:20:27.50	334.81	29.50	-43.7	-45.7	18.0	0.00e+00	0	40	0	0	59	4424
2026-01-11 10:20:28.36	334.87	29.34	-43.9	-45.9	17.8	0.00e+00	0	40	0	0	59	4497
2026-01-11 10:20:29.49	334.94	29.14	-43.9	-45.8	17.9	0.00e+00	0	40	0	0	59	4488
2026-01-11 10:20:30.34	335.00	28.98	-43.8	-45.8	18.0	0.00e+00	0	40	0	0	59	4447
2026-01-11 10:20:31.48	335.07	28.78	-43.9	-45.8	17.9	0.00e+00	0	40	0	0	59	4489
2026-01-11 10:20:32.33	335.13	28.63	-43.6	-45.6	18.2	0.00e+00	0	40	0	0	59	4346
2026-01-11 10:20:33.46	335.20	28.43	-43.4	-45.4	18.3	0.00e+00	0	40	0	0	58	4516
2026-01-11 10:20:34.31	335.26	28.28	-43.5	-45.5	18.2	0.00e+00	0	40	0	0	58	4561
2026-01-11 10:20:35.45	335.33	28.08	-43.3	-45.2	18.5	0.00e+00	0	40	0	0	58	4422
2026-01-11 10:20:36.30	335.38	27.93	-43.3	-45.2	18.5	0.00e+00	0	40	0	0	58	4399
2026-01-11 10:20:37.43	335.45	27.73	-43.2	-45.1	18.6	0.00e+00	0	40	0	0	58	4362
2026-01-11 10:20:38.28	335.50	27.59	-43.2	-45.1	18.5	0.00e+00	0	40	0	0	58	4370
2026-01-11 10:20:39.42	335.57	27.39	-43.2	-45.0	18.6	0.00e+00	0	39	0	0	58	4316
2026-01-11 10:20:40.27	335.62	27.25	-43.2	-45.1	18.6	0.00e+00	0	40	0	0	58	4349
2026-01-11 10:20:41.40	335.69	27.06	-43.1	-44.9	18.7	0.00e+00	0	40	0	0	58	4287
2026-01-11 10:20:42.26	335.74	26.92	-43.0	-44.8	18.8	0.00e+00	0	40	0	0	58	4220
2026-01-11 10:20:43.39	335.81	26.73	-42.9	-44.8	18.8	0.00e+00	0	40	0	0	57	4442
2026-01-11 10:20:44.24	335.86	26.59	-42.9	-44.8	18.8	0.00e+00	0	40	0	0	57	4453
2026-01-11 10:20:45.37	335.92	26.40	-43.0	-44.9	18.7	0.00e+00	0	40	0	0	57	4516
2026-01-11 10:20:46.23	335.97	26.26	-43.1	-44.9	18.7	0.00e+00	0	40	0	0	57	4534
2026-01-11 10:20:47.36	336.03	26.08	-43.1	-45.0	18.7	0.00e+00	0	40	0	0	57	4555
2026-01-11 10:20:48.21	336.08	25.94	-43.2	-45.0	18.7	0.00e+00	0	40	0	0	57	4578
2026-01-11 10:20:49.35	336.14	25.75	-43.2	-45.0	18.7	0.00e+00	0	40	0	0	57	4573
2026-01-11 10:20:50.20	336.19	25.62	-43.2	-45.0	18.6	0.00e+00	0	40	0	0	57	4594
2026-01-11 10:20:51.33	336.25	25.44	-43.3	-45.1	18.6	0.00e+00	0	40	0	0	57	4641
2026-01-11 10:20:52.18	336.30	25.31	-43.2	-45.1	18.6	0.00e+00	0	40	0	0	57	4619
2026-01-11 10:20:53.32	336.36	25.13	-43.0	-44.8	18.8	0.00e+00	0	40	0	0	57	4479
2026-01-11 10:20:54.17	336.40	24.99	-43.0	-44.9	18.8	0.00e+00	0	40	0	0	57	4497
2026-01-11 10:20:55.31	336.46	24.82	-43.0	-44.8	18.9	0.00e+00	0	40	0	0	57	4466
2026-01-11 10:20:56.16	336.50	24.68	-43.1	-44.9	18.7	0.00e+00	0	40	0	0	57	4534
2026-01-11 10:20:57.29	336.56	24.51	-43.1	-45.0	18.7	0.00e+00	0	40	0	0	57	4546
2026-01-11 10:20:58.14	336.61	24.38	-43.1	-45.0	18.7	0.00e+00	0	40	0	0	57	4566
2026-01-11 10:20:59.28	336.66	24.21	-43.3	-45.2	18.4	0.00e+00	0	40	0	0	57	4695
2026-01-11 10:21:00.13	336.71	24.08	-43.4	-45.3	18.4	0.00e+00	0	40	0	0	57	4724
2026-01-11 10:21:01.26	336.76	23.91	-43.4	-45.4	18.3	0.00e+00	0	40	0	0	57	4775
2026-01-11 10:21:02.11	336.80	23.78	-43.5	-45.5	18.2	0.00e+00	0	40	0	0	57	4843
2026-01-11 10:21:03.25	336.86	23.61	-43.6	-45.5	18.2	0.00e+00	0	40	0	0	57	4842
2026-01-11 10:21:04.10	336.90	23.49	-43.6	-45.5	18.2	0.00e+00	0	40	0	0	57	4851
2026-01-11 10:21:05.23	336.95	23.32	-43.5	-45.5	18.2	0.00e+00	0	40	0	0	57	4823
2026-01-11 10:21:06.09	336.99	23.20	-43.6	-45.5	18.1	0.00e+00	0	40	0	0	57	4868
2026-01-11 10:21:07.22	337.05	23.03	-43.5	-45.5	18.2	0.00e+00	0	40	0	0	57	4827
2026-01-11 10:21:08.07	337.09	22.91	-43.5	-45.4	18.3	0.00e+00	0	40	0	0	57	4800
2026-01-11 10:21:09.21	337.14	22.75	-43.5	-45.4	18.3	0.00e+00	0	40	0	0	57	4772
2026-01-11 10:21:10.06	337.18	22.63	-43.5	-45.5	18.2	0.00e+00	0	40	0	0	57	4817
2026-01-11 10:21:11.19	337.23	22.47	-43.5	-45.4	18.3	0.00e+00	0	40	0	0	57	4774
2026-01-11 10:21:12.04	337.27	22.35	-43.4	-45.3	18.3	0.00e+00	0	40	0	0	57	4746
2026-01-11 10:21:13.18	337.32	22.18	-43.4	-45.4	18.3	0.00e+00	0	40	0	0	57	4772
2026-01-11 10:21:14.03	337.36	22.07	-43.5	-45.5	18.2	0.00e+00	0	40	0	0	57	4815
2026-01-11 10:21:15.16	337.41	21.91	-43.4	-45.4	18.3	0.00e+00	0	40	0	0	57	4775
2026-01-11 10:21:16.01	337.44	21.79	-43.4	-45.3	18.3	0.00e+00	0	40	0	0	57	4759
2026-01-11 10:21:17.15	337.49	21.63	-43.3	-45.3	18.3	0.00e+00	0	40	0	0	57	4739
2026-01-11 10:21:18.00	337.53	21.52	-43.3	-45.2	18.4	0.00e+00	0	40	0	0	57	4697
2026-01-11 10:21:19.14	337.58	21.36	-43.4	-45.4	18.2	0.00e+00	0	40	0	0	57	4779
2026-01-11 10:21:19.99	337.61	21.25	-43.4	-45.4	18.2	0.00e+00	0	40	0	0	57	4774
2026-01-11 10:21:21.12	337.66	21.10	-43.4	-45.3	18.3	0.00e+00	0	40	0	0	57	4747
2026-01-11 10:21:21.97	337.70	20.98	-43.4	-45.4	18.2	0.00e+00	0	40	0	0	57	4771
2026-01-11 10:21:23.11	337.74	20.83	-43.5	-45.5	18.1	0.00e+00	0	40	0	0	57	4833
2026-01-11 10:21:23.96	337.78	20.72	-43.5	-45.5	18.2	0.00e+00	0	40	0	0	57	4815
2026-01-11 10:21:25.10	337.82	20.57	-43.6	-45.5	18.1	0.00e+00	0	40	0	0	57	4853
2026-01-11 10:21:25.95	337.86	20.46	-43.5	-45.5	18.1	0.00e+00	0	40	0	0	57	4831
2026-01-11 10:21:27.08	337.90	20.31	-43.4	-45.4	18.2	0.00e+00	0	40	0	0	57	4776
2026-01-11 10:21:27.93	337.94	20.20	-43.5	-45.4	18.2	0.00e+00	0	40	0	0	57	4794
2026-01-11 10:21:29.07	337.98	20.05	-43.4	-45.4	18.2	0.00e+00	0	40	0	0	57	4786
2026-01-11 10:21:29.92	338.02	19.94	-43.4	-45.4	18.2	0.00e+00	0	40	0	0	57	4781
2026-01-11 10:21:31.05	338.06	19.80	-43.4	-45.4	18.2	0.00e+00	0	40	0	0	57	4778
2026-01-11 10:21:31.91	338.09	19.69	-43.3	-45.3	18.2	0.00e+00	0	40	0	0	57	4752
2026-01-11 10:21:33.04	338.14	19.54	-43.3	-45.3	18.2	0.00e+00	0	39	0	0	57	4749
2026-01-11 10:21:33.89	338.17	19.44	-43.3	-45.3	18.2	0.00e+00	0	40	0	0	57	4741
2026-01-11 10:21:35.03	338.21	19.29	-43.2	-45.2	18.3	0.00e+00	0	40	0	0	57	4695
2026-01-11 10:21:35.88	338.24	19.19	-43.3	-45.3	18.3	0.00e+00	0	40	0	0	57	4714
2026-01-11 10:21:37.01	338.28	19.05	-43.2	-45.2	18.3	0.00e+00	0	40	0	0	57	4653
2026-01-11 10:21:37.86	338.32	18.94	-43.3	-45.3	18.2	0.00e+00	0	40	0	0	57	4715
2026-01-11 10:21:39.00	338.36	18.80	-43.4	-45.3	18.2	0.00e+00	0	40	0	0	57	4756
2026-01-11 10:21:39.85	338.39	18.70	-43.4	-45.3	18.2	0.00e+00	0	40	0	0	57	4719
2026-01-11 10:21:40.98	338.43	18.56	-43.4	-45.4	18.1	0.00e+00	0	40	0	0	57	4762
2026-01-11 10:21:41.83	338.46	18.46	-43.4	-45.4	18.1	0.00e+00	0	40	0	0	57	4764
2026-01-11 10:21:42.97	338.50	18.32	-43.4	-45.3	18.2	0.00e+00	0	40	0	0	57	4749
2026-01-11 10:21:43.82	338.53	18.22	-43.4	-45.3	18.2	0.00e+00	0	40	0	0	57	4749
2026-01-11 10:21:44.95	338.57	18.08	-43.5	-45.4	18.1	0.00e+00	0	40	0	0	57	4793
2026-01-11 10:21:45.80	338.60	17.98	-43.5	-45.5	18.0	0.00e+00	0	40	0	0	57	4821
2026-01-11 10:21:46.94	338.64	17.85	-43.5	-45.5	18.1	0.00e+00	0	40	0	0	57	4835
2026-01-11 10:21:47.79	338.67	17.75	-43.6	-45.5	18.0	0.00e+00	0	40	0	0	57	4867
2026-01-11 10:21:48.92	338.71	17.61	-43.6	-45.6	17.9	0.00e+00	0	40	0	0	57	4910
2026-01-11 10:21:49.78	338.74	17.51	-43.6	-45.7	17.9	0.00e+00	0	40	0	0	57	4940
2026-01-11 10:21:50.91	338.77	17.38	-43.7	-45.7	17.9	0.00e+00	0	40	0	0	57	4957
2026-01-11 10:21:51.76	338.80	17.28	-43.6	-45.7	18.0	0.00e+00	0	40	0	0	58	4660
2026-01-11 10:21:52.90	338.84	17.15	-43.7	-45.7	17.9	0.00e+00	0	40	0	0	58	4663
2026-01-11 10:21:53.75	338.87	17.06	-43.7	-45.7	17.9	0.00e+00	0	40	0	0	58	4705
2026-01-11 10:21:54.88	338.91	16.93	-43.8	-45.8	17.8	0.00e+00	0	40	0	0	58	4740
2026-01-11 10:21:55.73	338.93	16.83	-43.9	-45.9	17.8	0.00e+00	0	40	0	0	58	4769
2026-01-11 10:21:56.87	338.97	16.70	-43.9	-45.9	17.8	0.00e+00	0	40	0	0	58	4760
2026-01-11 10:21:57.72	339.00	16.61	-43.9	-45.9	17.8	0.00e+00	0	40	0	0	58	4785
2026-01-11 10:21:58.86	339.03	16.48	-43.9	-45.9	17.7	0.00e+00	0	40	0	0	58	4790
2026-01-11 10:21:59.71	339.06	16.38	-43.9	-46.0	17.7	0.00e+00	0	40	0	0	58	4820
2026-01-11 10:22:00.84	339.10	16.26	-44.0	-46.0	17.6	0.00e+00	0	40	0	0	58	4869
2026-01-11 10:22:01.69	339.12	16.17	-43.9	-45.9	17.7	0.00e+00	0	40	0	0	58	4804
2026-01-11 10:22:02.83	339.16	16.04	-43.9	-46.1	17.6	0.00e+00	0	40	0	0	58	4879
2026-01-11 10:22:03.68	339.19	15.95	-44.0	-46.1	17.6	0.00e+00	0	40	0	0	58	4884
2026-01-11 10:22:04.81	339.22	15.82	-43.9	-46.0	17.6	0.00e+00	0	40	0	0	58	4858
2026-01-11 10:22:05.67	339.25	15.73	-43.9	-46.0	17.6	0.00e+00	0	40	0	0	58	4869
2026-01-11 10:22:06.80	339.28	15.61	-43.9	-46.0	17.7	0.00e+00	0	40	0	0	58	4854
2026-01-11 10:22:07.65	339.31	15.52	-43.9	-46.1	17.6	0.00e+00	0	40	0	0	58	4894
2026-01-11 10:22:08.79	339.34	15.39	-44.0	-46.2	17.5	0.00e+00	0	40	0	0	58	4947
2026-01-11 10:22:09.64	339.37	15.30	-44.0	-46.1	17.5	0.00e+00	0	40	0	0	58	4926
2026-01-11 10:22:10.77	339.40	15.18	-43.9	-46.0	17.6	0.00e+00	0	40	0	0	58	4856
2026-01-11 10:22:11.62	339.43	15.09	-44.0	-46.1	17.5	0.00e+00	0	40	0	0	58	4900
2026-01-11 10:22:12.76	339.46	14.97	-44.0	-46.0	17.6	0.00e+00	0	40	0	0	58	4868
2026-01-11 10:22:13.61	339.48	14.89	-44.0	-46.1	17.5	0.00e+00	0	40	0	0	58	4884
2026-01-11 10:22:14.74	339.52	14.77	-44.1	-46.2	17.5	0.00e+00	0	40	0	0	58	4936
2026-01-11 10:22:15.59	339.54	14.68	-44.1	-46.2	17.4	0.00e+00	0	40	0	0	58	4977
2026-01-11 10:22:16.73	339.57	14.56	-44.0	-46.1	17.5	0.00e+00	0	40	0	0	58	4911
2026-01-11 10:22:17.58	339.60	14.47	-44.1	-46.2	17.4	0.00e+00	0	40	0	0	58	4959
2026-01-11 10:22:18.71	339.63	14.36	-44.0	-46.2	17.4	0.00e+00	0	40	0	0	58	4960
2026-01-11 10:22:19.57	339.65	14.27	-44.1	-46.3	17.3	0.00e+00	0	40	0	0	58	4987
2026-01-11 10:22:20.70	339.69	14.15	-44.1	-46.4	17.2	0.00e+00	0	40	0	0	59	4763
2026-01-11 10:22:21.55	339.71	14.07	-44.1	-46.4	17.2	0.00e+00	0	40	0	0	59	4770
2026-01-11 10:22:22.69	339.74	13.95	-44.3	-46.5	17.0	0.00e+00	0	40	0	0	59	4855
2026-01-11 10:22:23.54	339.76	13.87	-44.2	-46.5	17.1	0.00e+00	0	40	0	0	59	4847
2026-01-11 10:22:24.67	339.80	13.75	-44.3	-46.6	17.0	0.00e+00	0	39	0	0	59	4895
2026-01-11 10:22:25.52	339.82	13.67	-44.4	-46.7	16.9	0.00e+00	0	40	0	0	59	4930
2026-01-11 10:22:26.66	339.85	13.56	-44.4	-46.7	16.9	0.00e+00	0	40	0	0	59	4957
2026-01-11 10:22:27.51	339.87	13.47	-44.5	-46.7	16.8	0.00e+00	0	40	0	0	59	4980
2026-01-11 10:22:28.64	339.90	13.36	-44.6	-46.9	16.7	0.00e+00	0	40	0	0	59	5048
2026-01-11 10:22:29.50	339.92	13.28	-44.6	-46.9	16.7	0.00e+00	0	39	0	0	59	5054
2026-01-11 10:22:30.63	339.95	13.17	-44.7	-47.0	16.6	0.00e+00	0	40	0	0	59	5122
2026-01-11 10:22:31.48	339.98	13.08	-44.7	-47.1	16.6	0.00e+00	0	40	0	0	60	4889
2026-01-11 10:22:32.62	340.01	12.97	-44.7	-47.2	16.5	0.00e+00	0	40	0	0	60	4930
2026-01-11 10:22:33.47	340.03	12.89	-44.7	-47.2	16.5	0.00e+00	0	40	0	0	60	4927
2026-01-11 10:22:34.60	340.06	12.78	-44.7	-47.1	16.6	0.00e+00	0	40	0	0	60	4903
2026-01-11 10:22:35.45	340.08	12.70	-44.6	-47.2	16.5	0.00e+00	0	40	0	0	60	4927
2026-01-11 10:22:36.59	340.11	12.59	-44.6	-47.2	16.5	0.00e+00	0	40	0	0	60	4930
2026-01-11 10:22:37.44	340.13	12.51	-44.6	-47.2	16.5	0.00e+00	0	40	0	0	60	4928
2026-01-11 10:22:38.57	340.16	12.40	-44.6	-47.1	16.5	0.00e+00	0	40	0	0	60	4924
2026-01-11 10:22:39.42	340.18	12.32	-44.5	-47.1	16.5	0.00e+00	0	40	0	0	60	4917
2026-01-11 10:22:40.56	340.21	12.22	-44.6	-47.2	16.5	0.00e+00	0	40	0	0	60	4954
2026-01-11 10:22:41.41	340.23	12.14	-44.6	-47.2	16.5	0.00e+00	0	40	0	0	60	4948
2026-01-11 10:22:42.54	340.26	12.03	-44.6	-47.3	16.4	0.00e+00	0	40	0	0	60	4991
2026-01-11 10:22:43.39	340.28	11.95	-44.5	-47.2	16.5	0.00e+00	0	40	0	0	60	4932
2026-01-11 10:22:44.53	340.31	11.85	-44.5	-47.1	16.5	0.00e+00	0	40	0	0	60	4922
2026-01-11 10:22:45.38	340.33	11.77	-44.5	-47.1	16.5	0.00e+00	0	40	0	0	60	4919
2026-01-11 10:22:46.52	340.36	11.66	-44.5	-47.1	16.6	0.00e+00	0	40	0	0	60	4890
2026-01-11 10:22:47.37	340.38	11.59	-44.5	-47.1	16.5	0.00e+00	0	40	0	0	60	4894
2026-01-11 10:22:48.50	340.40	11.48	-44.6	-47.2	16.4	0.00e+00	0	40	0	0	60	4966
2026-01-11 10:22:49.35	340.42	11.40	-44.6	-47.2	16.4	0.00e+00	0	40	0	0	60	4969
2026-01-11 10:22:50.49	340.45	11.30	-44.7	-47.3	16.3	0.00e+00	0	40	0	0	60	5015
2026-01-11 10:22:51.34	340.47	11.22	-44.6	-47.3	16.3	0.00e+00	0	40	0	0	60	4993
2026-01-11 10:22:52.47	340.50	11.12	-44.5	-47.2	16.4	0.00e+00	0	40	0	0	60	4941
2026-01-11 10:22:53.32	340.52	11.05	-44.6	-47.3	16.3	0.00e+00	0	40	0	0	60	5005
2026-01-11 10:22:54.46	340.54	10.94	-44.6	-47.2	16.4	0.00e+00	0	40	0	0	60	4967
2026-01-11 10:22:55.31	340.56	10.87	-44.7	-47.3	16.3	0.00e+00	0	40	0	0	60	4999
2026-01-11 10:22:56.44	340.59	10.77	-44.8	-47.4	16.2	0.00e+00	0	40	0	0	60	5070
2026-01-11 10:22:57.29	340.61	10.69	-44.8	-47.4	16.2	0.00e+00	0	40	0	0	60	5053
2026-01-11 10:22:58.43	340.64	10.59	-44.8	-47.4	16.2	0.00e+00	0	40	0	0	60	5073
2026-01-11 10:22:59.28	340.66	10.52	-44.8	-47.3	16.3	0.00e+00	0	40	0	0	60	5033
2026-01-11 10:23:00.42	340.68	10.42	-44.9	-47.4	16.2	0.00e+00	0	40	0	0	60	5077
2026-01-11 10:23:01.27	340.70	10.35	-45.0	-47.5	16.0	0.00e+00	0	40	0	0	60	5155
2026-01-11 10:23:02.40	340.73	10.25	-45.0	-47.6	16.0	0.00e+00	0	40	0	0	60	5198
2026-01-11 10:23:03.25	340.74	10.17	-45.0	-47.6	15.9	0.00e+00	0	40	0	0	60	5206
2026-01-11 10:23:04.39	340.77	10.08	-45.1	-47.7	15.8	0.00e+00	0	40	0	0	60	5260
2026-01-11 10:23:05.24	340.79	10.00	-45.1	-47.7	15.9	0.00e+00	0	40	0	0	60	5231
2026-01-11 10:23:06.37	340.81	9.91	-45.0	-47.5	16.0	0.00e+00	0	40	0	0	60	5142
2026-01-11 10:23:07.22	340.83	9.83	-45.1	-47.7	15.8	0.00e+00	0	40	0	0	60	5227
2026-01-11 10:23:08.36	340.86	9.74	-45.0	-47.6	16.0	0.00e+00	0	40	0	0	60	5175
2026-01-11 10:23:09.21	340.88	9.66	-45.1	-47.7	15.9	0.00e+00	0	40	0	0	60	5230
2026-01-11 10:23:10.34	340.90	9.57	-45.0	-47.7	15.8	0.00e+00	0	40	0	0	60	5261
2026-01-11 10:23:11.20	340.92	9.50	-45.0	-47.7	15.8	0.00e+00	0	39	0	0	60	5266
2026-01-11 10:23:12.33	340.94	9.40	-45.1	-47.9	15.6	0.00e+00	0	40	0	0	60	5373
2026-01-11 10:23:13.18	340.96	9.33	-44.9	-47.6	15.9	0.00e+00	0	40	0	0	60	5217
2026-01-11 10:23:14.32	340.99	9.24	-44.9	-47.7	15.8	0.00e+00	0	40	0	0	60	5241
2026-01-11 10:23:15.17	341.00	9.16	-45.0	-47.8	15.7	0.00e+00	0	40	0	0	60	5305
2026-01-11 10:23:16.30	341.03	9.07	-44.9	-47.7	15.8	0.00e+00	0	40	0	0	60	5251
2026-01-11 10:23:17.15	341.05	9.00	-44.9	-47.8	15.7	0.00e+00	0	40	0	0	60	5288
2026-01-11 10:23:18.29	341.07	8.91	-50.7	-64.4	3.8	8.05e-03	0	40	104	0	72	18034
2026-01-11 10:23:19.14	341.09	8.84	-51.2	-65.0	3.8	1.49e+00	0	40	104	0	73	18162
2026-01-11 10:23:20.27	341.11	8.74	-51.7	-65.1	3.8	1.49e+00	0	40	104	0	74	17473
2026-01-11 10:23:21.12	341.13	8.68	-51.0	-65.2	3.8	1.49e+00	0	40	104	0	73	18573
2026-01-11 10:23:22.26	341.15	8.58	-51.6	-65.3	3.8	1.49e+00	0	40	104	0	74	17689
2026-01-11 10:23:23.11	341.17	8.51	-52.1	-65.3	3.8	1.49e+00	0	40	104	0	74	17767
2026-01-11 10:23:24.25	341.19	8.42	-51.8	-65.4	3.8	1.49e+00	0	40	104	0	75	16940
2026-01-11 10:23:25.10	341.21	8.35	-51.8	-65.4	3.8	1.49e+00	0	39	104	0	75	16908
2026-01-11 10:23:26.23	341.23	8.26	-52.3	-65.4	3.8	1.49e+00	0	40	104	0	75	17072
2026-01-11 10:23:27.08	341.25	8.20	-52.3	-65.4	3.8	1.49e+00	0	40	104	0	75	17003
2026-01-11 10:23:28.22	341.27	8.10	-51.9	-65.5	3.8	1.49e+00	0	40	104	0	75	17125
2026-01-11 10:23:29.07	341.29	8.04	-52.4	-65.5	3.8	1.49e+00	0	40	104	0	75	17127
2026-01-11 10:23:30.20	341.31	7.95	-52.4	-65.5	3.8	1.49e+00	0	40	104	0	75	17105
2026-01-11 10:23:31.05	341.33	7.88	-52.5	-65.5	3.8	1.49e+00	0	40	104	0	75	17138
2026-01-11 10:23:32.19	341.35	7.79	-52.3	-65.5	3.8	1.49e+00	0	40	104	0	75	17162
2026-01-11 10:23:33.04	341.37	7.72	-52.4	-65.5	3.8	1.49e+00	0	40	104	0	75	17145
2026-01-11 10:23:34.17	341.39	7.64	-52.3	-65.5	3.8	1.49e+00	0	40	104	0	75	17131
2026-01-11 10:23:35.03	341.40	7.57	-52.4	-65.5	3.8	1.49e+00	0	40	104	0	75	17133
2026-01-11 10:23:36.16	341.43	7.48	-52.3	-65.4	3.8	1.49e+00	0	40	104	0	75	17060
2026-01-11 10:23:37.01	341.44	7.41	-52.5	-65.4	3.8	1.49e+00	0	40	104	0	75	17082
2026-01-11 10:23:38.15	341.46	7.33	-52.4	-65.4	3.8	1.49e+00	0	40	104	0	75	17023
2026-01-11 10:23:39.00	341.48	7.26	-52.5	-65.5	3.8	1.49e+00	0	40	104	0	75	17097
2026-01-11 10:23:40.13	341.50	7.17	-52.5	-65.5	3.8	1.49e+00	0	40	104	0	75	17105
