passes_logs/2026/01/11/T1/T1__20260111_132628_FENGYUN_3E_rec.log

#Pass ID: 20260111_132628_FENGYUN 3E
#Satellite: FENGYUN 3E
#Configuration: FENGYUN 3E
#almurnet v.1.7.20251203
#Start time: 2026-01-11 13:26:30

#Version: 2.0.20230620
#Station: T1
#Location: 37.570604 lon 55.790049 lat
#TLE: 1 49008U 21062A   26010.98903141  .00000148  00000+0  90257-4 0  9995
#TLE: 2 49008  98.7490  16.1644 0001865 146.3673 213.7622 14.19884943234274

#Time	Az	El	Level	Level2	SNR	BER	BlckErr	Temp	State	Recorded	gain1	gain2
2026-01-11 13:26:30.71	136.17	5.15	-52.2	-62.9	3.8	8.46e-01	0	41	0	0	75	11850
2026-01-11 13:26:31.70	136.13	5.22	-52.2	-62.9	3.8	8.47e-01	0	41	104	0	75	11877
2026-01-11 13:26:32.70	136.09	5.29	-52.2	-62.8	3.8	8.47e-01	0	42	104	0	75	11767
2026-01-11 13:26:33.69	136.05	5.36	-52.2	-62.8	3.8	8.46e-01	0	42	104	0	75	11685
2026-01-11 13:26:34.69	136.01	5.43	-52.2	-62.7	3.8	8.46e-01	0	42	104	0	75	11560
2026-01-11 13:26:35.68	135.97	5.50	-52.2	-62.6	3.8	8.47e-01	0	42	104	0	75	11481
2026-01-11 13:26:36.68	135.92	5.57	-52.1	-62.3	3.8	8.46e-01	0	42	104	0	75	11099
2026-01-11 13:26:37.67	135.88	5.64	-52.1	-62.1	3.8	8.47e-01	0	42	104	0	75	10812
2026-01-11 13:26:38.67	135.84	5.71	-52.1	-61.8	3.8	8.46e-01	0	42	104	0	74	11141
2026-01-11 13:26:39.66	135.80	5.78	-52.0	-61.4	3.8	8.46e-01	0	42	104	0	74	10647
2026-01-11 13:26:40.66	135.76	5.85	-51.9	-61.2	3.8	8.47e-01	0	42	104	0	74	10304
2026-01-11 13:26:41.65	135.72	5.93	-51.9	-60.8	3.9	8.45e-01	0	42	104	0	74	9856
2026-01-11 13:26:42.65	135.68	6.00	-51.8	-60.5	3.8	8.44e-01	0	42	104	0	74	9587
2026-01-11 13:26:43.64	135.63	6.07	-51.8	-60.3	4.0	8.45e-01	0	42	104	0	74	9301
2026-01-11 13:26:44.64	135.59	6.14	-51.7	-60.0	4.0	8.42e-01	0	42	0	0	74	8985
2026-01-11 13:26:45.63	135.55	6.21	-51.7	-59.7	4.1	8.41e-01	0	42	0	0	74	8675
2026-01-11 13:26:46.63	135.51	6.28	-51.7	-59.7	4.1	8.40e-01	0	42	0	0	74	8710
2026-01-11 13:26:47.62	135.46	6.36	-51.7	-59.8	4.1	8.41e-01	0	42	0	0	74	8794
2026-01-11 13:26:48.62	135.42	6.43	-51.7	-60.0	4.1	8.42e-01	0	42	0	0	74	8983
2026-01-11 13:26:49.61	135.38	6.50	-51.8	-60.4	3.9	8.43e-01	0	42	104	0	74	9418
2026-01-11 13:26:50.61	135.33	6.57	-51.9	-60.8	3.8	8.45e-01	0	42	104	0	74	9832
2026-01-11 13:26:51.60	135.29	6.65	-51.9	-61.1	3.8	8.47e-01	0	43	104	0	74	10218
2026-01-11 13:26:52.59	135.24	6.72	-52.0	-61.7	3.8	8.46e-01	0	42	104	0	74	10960
2026-01-11 13:26:53.59	135.20	6.79	-52.1	-62.0	3.8	8.48e-01	0	42	104	0	74	11330
2026-01-11 13:26:54.58	135.15	6.87	-52.1	-62.3	3.8	8.47e-01	0	42	104	0	74	11793
2026-01-11 13:26:55.58	135.11	6.94	-52.1	-62.4	3.8	8.47e-01	0	42	104	0	74	11819
2026-01-11 13:26:56.57	135.06	7.01	-52.1	-62.1	3.8	8.47e-01	0	43	104	0	74	11502
2026-01-11 13:26:57.56	135.02	7.09	-52.0	-61.5	3.8	8.47e-01	0	43	104	0	74	10763
2026-01-11 13:26:58.56	134.97	7.16	-51.9	-60.7	3.9	8.46e-01	0	43	104	0	74	9731
2026-01-11 13:26:59.55	134.93	7.24	-51.6	-59.2	4.2	8.41e-01	0	43	0	0	74	8228
2026-01-11 13:27:00.55	134.88	7.31	-51.2	-57.7	4.8	7.98e-01	0	43	0	0	73	7348
2026-01-11 13:27:01.54	134.83	7.39	-50.7	-55.9	6.0	5.95e-01	0	43	0	1048576	72	6337
2026-01-11 13:27:02.54	134.79	7.46	-50.0	-54.3	7.4	1.67e-01	0	43	0	8388608	70	5875
2026-01-11 13:27:03.53	134.74	7.54	-49.1	-52.6	9.1	3.42e-02	0	43	0	15728640	69	5103
2026-01-11 13:27:04.52	134.69	7.61	-48.0	-50.9	10.7	6.11e-03	0	43	0	22020096	66	5015
2026-01-11 13:27:05.52	134.65	7.69	-47.0	-49.5	12.0	5.55e-04	0	43	0	29360128	64	4807
2026-01-11 13:27:06.51	134.60	7.76	-46.2	-48.4	13.3	6.63e-05	0	43	0	36700160	63	4471
2026-01-11 13:27:07.50	134.55	7.84	-45.5	-47.6	14.1	2.20e-06	0	43	0	44040192	61	4566
2026-01-11 13:27:08.50	134.50	7.92	-44.8	-46.7	14.9	0.00e+00	0	43	0	51380224	60	4376
2026-01-11 13:27:09.49	134.45	7.99	-44.1	-45.8	15.6	0.00e+00	0	43	0	58720256	59	4188
2026-01-11 13:27:10.49	134.41	8.07	-43.9	-45.7	15.9	0.00e+00	0	43	0	65011712	58	4351
2026-01-11 13:27:11.48	134.36	8.15	-43.7	-45.4	16.0	0.00e+00	0	43	0	72351744	58	4232
2026-01-11 13:27:12.48	134.31	8.22	-43.7	-45.4	16.1	0.00e+00	0	43	0	79691776	57	4449
2026-01-11 13:27:13.47	134.26	8.30	-43.8	-45.5	16.0	0.00e+00	0	43	0	87031808	57	4520
2026-01-11 13:27:14.47	134.21	8.38	-44.2	-46.0	15.5	0.00e+00	0	43	0	94371840	57	4765
2026-01-11 13:27:15.46	134.16	8.46	-44.8	-46.7	14.8	0.00e+00	0	43	0	101711872	59	4634
2026-01-11 13:27:16.46	134.11	8.54	-45.6	-47.6	14.0	0.00e+00	0	43	0	108003328	60	4860
2026-01-11 13:27:17.45	134.06	8.61	-46.4	-48.7	13.0	2.17e-05	0	43	0	115343360	62	4899
2026-01-11 13:27:18.45	134.00	8.69	-47.4	-50.1	11.5	3.79e-04	0	43	0	122683392	64	5145
2026-01-11 13:27:19.44	133.95	8.77	-48.7	-52.1	9.4	1.06e-02	0	43	0	130023424	66	5757
2026-01-11 13:27:20.44	133.90	8.85	-50.1	-54.6	7.1	8.19e-02	0	43	0	137363456	69	6453
2026-01-11 13:27:21.43	133.85	8.93	-51.2	-57.5	4.9	7.36e-01	0	43	0	142606336	71	8020
2026-01-11 13:27:22.43	133.80	9.01	-51.8	-60.2	4.0	8.38e-01	0	43	0	142606336	72	10307
2026-01-11 13:27:23.42	133.75	9.09	-51.1	-57.4	4.2	8.45e-01	0	43	104	142606336	73	7090
2026-01-11 13:27:24.42	133.69	9.17	-46.7	-49.1	12.7	4.69e-05	0	43	0	147849216	63	4846
2026-01-11 13:27:25.42	133.64	9.25	-51.3	-58.1	4.8	9.57e-03	0	44	0	154140672	72	8085
2026-01-11 13:27:26.42	133.59	9.33	-52.1	-62.3	3.8	8.45e-01	0	43	104	154140672	73	12469
2026-01-11 13:27:27.43	133.53	9.41	-47.5	-50.1	11.6	6.38e-04	0	43	0	158334976	65	4829
2026-01-11 13:27:28.43	133.48	9.49	-48.7	-51.9	9.8	1.21e-01	0	43	0	165675008	68	5008
2026-01-11 13:27:29.43	133.42	9.58	-47.1	-49.6	12.1	2.80e-04	0	43	0	173015040	64	4865
2026-01-11 13:27:30.43	133.37	9.66	-46.3	-48.4	13.4	3.54e-05	0	43	0	180355072	63	4485
2026-01-11 13:27:31.43	133.31	9.74	-46.2	-48.3	13.6	5.70e-06	0	43	0	186646528	62	4685
2026-01-11 13:27:32.43	133.26	9.82	-46.2	-48.4	13.4	1.37e-05	0	43	0	193986560	62	4736
2026-01-11 13:27:33.43	133.20	9.90	-45.7	-47.8	14.1	3.40e-06	0	44	0	201326592	62	4398
2026-01-11 13:27:34.43	133.14	9.99	-45.7	-47.7	14.1	5.70e-06	0	43	0	208666624	62	4390
2026-01-11 13:27:35.43	133.09	10.07	-45.1	-47.0	14.9	1.10e-06	0	44	0	216006656	60	4503
2026-01-11 13:27:36.43	133.03	10.15	-44.2	-46.0	15.7	0.00e+00	0	43	0	223346688	59	4254
2026-01-11 13:27:37.43	132.97	10.24	-43.8	-45.5	16.2	0.00e+00	0	43	0	230686720	58	4277
2026-01-11 13:27:38.43	132.92	10.32	-43.7	-45.4	16.3	0.00e+00	0	44	0	238026752	58	4208
2026-01-11 13:27:39.43	132.86	10.40	-43.5	-45.1	16.5	0.00e+00	0	43	0	245366784	57	4329
2026-01-11 13:27:40.43	132.80	10.49	-43.5	-45.1	16.6	0.00e+00	0	44	0	251658240	57	4310
2026-01-11 13:27:41.43	132.74	10.57	-43.5	-45.1	16.5	0.00e+00	0	43	0	258998272	57	4326
2026-01-11 13:27:42.43	132.68	10.66	-43.2	-44.8	16.8	0.00e+00	0	44	0	266338304	57	4165
2026-01-11 13:27:43.43	132.62	10.74	-43.3	-44.9	16.8	0.00e+00	0	43	0	273678336	57	4220
2026-01-11 13:27:44.43	132.56	10.83	-43.1	-44.6	17.0	0.00e+00	0	43	0	281018368	56	4336
2026-01-11 13:27:45.43	132.50	10.91	-42.9	-44.4	17.2	0.00e+00	0	43	0	288358400	56	4237
2026-01-11 13:27:46.43	132.44	11.00	-42.8	-44.3	17.3	0.00e+00	0	44	0	295698432	56	4184
2026-01-11 13:27:47.43	132.38	11.09	-42.7	-44.3	17.3	0.00e+00	0	44	0	303038464	56	4160
2026-01-11 13:27:48.43	132.32	11.17	-42.7	-44.2	17.4	0.00e+00	0	43	0	309329920	56	4116
2026-01-11 13:27:49.43	132.26	11.26	-42.6	-44.2	17.5	0.00e+00	0	44	0	316669952	56	4103
2026-01-11 13:27:50.43	132.20	11.35	-42.4	-43.9	17.5	0.00e+00	0	44	0	324009984	55	4241
2026-01-11 13:27:51.44	132.13	11.43	-42.2	-43.6	17.9	0.00e+00	0	44	0	331350016	55	4085
2026-01-11 13:27:52.44	132.07	11.52	-42.2	-43.7	17.8	0.00e+00	0	44	0	338690048	55	4120
2026-01-11 13:27:53.44	132.01	11.61	-42.3	-43.8	17.6	0.00e+00	0	44	0	346030080	54	4438
2026-01-11 13:27:54.44	131.94	11.70	-42.2	-43.7	17.8	0.00e+00	0	44	0	353370112	54	4360
2026-01-11 13:27:55.44	131.88	11.79	-42.2	-43.7	17.8	0.00e+00	0	44	0	360710144	54	4359
2026-01-11 13:27:56.44	131.82	11.88	-42.3	-43.8	17.7	0.00e+00	0	44	0	368050176	54	4393
2026-01-11 13:27:57.44	131.75	11.96	-42.1	-43.6	17.9	0.00e+00	0	44	0	374341632	54	4310
2026-01-11 13:27:58.44	131.69	12.05	-42.1	-43.5	18.0	0.00e+00	0	44	0	381681664	54	4270
2026-01-11 13:27:59.44	131.62	12.14	-42.1	-43.6	17.9	0.00e+00	0	44	0	389021696	54	4301
2026-01-11 13:28:00.44	131.56	12.23	-41.9	-43.4	18.1	0.00e+00	0	44	0	396361728	54	4201
2026-01-11 13:28:01.43	131.49	12.32	-42.0	-43.5	18.0	0.00e+00	0	44	0	403701760	54	4268
2026-01-11 13:28:02.43	131.42	12.41	-42.0	-43.5	18.0	0.00e+00	0	44	0	411041792	54	4270
2026-01-11 13:28:03.43	131.36	12.50	-42.1	-43.5	18.0	0.00e+00	0	44	0	418381824	54	4282
2026-01-11 13:28:04.43	131.29	12.59	-42.0	-43.5	18.0	0.00e+00	0	44	0	425721856	54	4264
2026-01-11 13:28:05.44	131.22	12.69	-42.0	-43.5	18.0	0.00e+00	0	44	0	432013312	54	4261
2026-01-11 13:28:06.44	131.15	12.78	-41.9	-43.3	18.2	0.00e+00	0	44	0	439353344	54	4191
2026-01-11 13:28:07.44	131.08	12.87	-41.8	-43.2	18.3	0.00e+00	0	44	0	446693376	54	4140
2026-01-11 13:28:08.45	131.01	12.96	-41.8	-43.2	18.3	0.00e+00	0	44	0	454033408	54	4144
2026-01-11 13:28:09.45	130.94	13.06	-41.7	-43.2	18.3	0.00e+00	0	44	0	461373440	54	4122
2026-01-11 13:28:10.45	130.87	13.15	-41.9	-43.4	18.1	0.00e+00	0	44	0	468713472	54	4216
2026-01-11 13:28:11.45	130.80	13.24	-41.9	-43.4	18.1	0.00e+00	0	44	0	476053504	54	4232
2026-01-11 13:28:12.45	130.73	13.33	-41.9	-43.4	18.2	0.00e+00	0	44	0	483393536	54	4211
2026-01-11 13:28:13.45	130.66	13.43	-41.8	-43.3	18.2	0.00e+00	0	44	0	490733568	54	4168
2026-01-11 13:28:14.45	130.59	13.52	-41.8	-43.3	18.2	0.00e+00	0	44	0	497025024	54	4181
2026-01-11 13:28:15.45	130.51	13.62	-41.8	-43.3	18.2	0.00e+00	0	44	0	504365056	54	4159
2026-01-11 13:28:16.45	130.44	13.71	-41.8	-43.3	18.3	0.00e+00	0	44	0	511705088	54	4146
2026-01-11 13:28:17.45	130.37	13.81	-41.8	-43.3	18.2	0.00e+00	0	44	0	519045120	54	4157
2026-01-11 13:28:18.45	130.29	13.90	-41.8	-43.2	18.3	0.00e+00	0	44	0	526385152	54	4136
2026-01-11 13:28:19.45	130.22	14.00	-41.8	-43.3	18.2	0.00e+00	0	44	0	533725184	54	4168
2026-01-11 13:28:20.45	130.14	14.09	-41.6	-43.1	18.4	0.00e+00	0	44	0	541065216	54	4086
2026-01-11 13:28:21.46	130.07	14.19	-41.6	-43.1	18.4	0.00e+00	0	44	0	548405248	53	4317
2026-01-11 13:28:22.46	129.99	14.29	-41.6	-43.0	18.4	0.00e+00	0	44	0	555745280	53	4277
2026-01-11 13:28:23.46	129.91	14.39	-41.6	-43.0	18.5	0.00e+00	0	44	0	562036736	53	4284
2026-01-11 13:28:24.46	129.84	14.48	-41.5	-43.0	18.5	0.00e+00	0	44	0	570425344	53	4248
2026-01-11 13:28:25.46	129.76	14.58	-41.4	-42.9	18.6	0.00e+00	0	44	0	577765376	53	4212
2026-01-11 13:28:26.46	129.68	14.68	-41.4	-42.9	18.6	0.00e+00	0	44	0	584056832	53	4215
2026-01-11 13:28:27.47	129.60	14.78	-41.5	-43.0	18.5	0.00e+00	0	44	0	591396864	53	4246
2026-01-11 13:28:28.46	129.52	14.88	-41.6	-43.1	18.4	0.00e+00	0	44	0	598736896	53	4305
2026-01-11 13:28:29.47	129.44	14.98	-41.4	-42.9	18.6	0.00e+00	0	44	0	606076928	53	4209
2026-01-11 13:28:30.47	129.36	15.08	-41.3	-42.8	18.7	0.00e+00	0	44	0	613416960	53	4152
2026-01-11 13:28:31.47	129.28	15.17	-41.2	-42.7	18.8	0.00e+00	0	44	0	620756992	53	4106
2026-01-11 13:28:32.47	129.20	15.28	-41.2	-42.6	18.9	0.00e+00	0	44	0	628097024	53	4072
2026-01-11 13:28:33.47	129.12	15.38	-41.1	-42.5	18.9	0.00e+00	0	44	0	635437056	52	4286
2026-01-11 13:28:34.47	129.03	15.48	-41.4	-42.8	18.6	0.00e+00	0	44	0	641728512	52	4434
2026-01-11 13:28:35.47	128.95	15.58	-41.1	-42.5	18.9	0.00e+00	0	44	0	649068544	52	4256
2026-01-11 13:28:36.47	128.87	15.68	-41.0	-42.4	19.0	0.00e+00	0	44	0	656408576	52	4231
2026-01-11 13:28:37.47	128.78	15.78	-41.0	-42.4	19.0	0.00e+00	0	44	0	663748608	52	4222
2026-01-11 13:28:38.47	128.70	15.88	-41.0	-42.5	18.9	0.00e+00	0	44	0	671088640	52	4243
2026-01-11 13:28:39.47	128.61	15.99	-41.1	-42.5	18.9	0.00e+00	0	44	0	678428672	52	4267
2026-01-11 13:28:40.47	128.53	16.09	-41.0	-42.4	19.0	0.00e+00	0	44	0	685768704	52	4211
2026-01-11 13:28:41.47	128.44	16.19	-41.1	-42.5	18.9	0.00e+00	0	44	0	693108736	52	4265
2026-01-11 13:28:42.47	128.35	16.30	-41.1	-42.5	18.9	0.00e+00	0	44	0	700448768	52	4265
2026-01-11 13:28:43.47	128.26	16.40	-41.1	-42.5	18.9	0.00e+00	0	44	0	706740224	52	4257
2026-01-11 13:28:44.48	128.18	16.51	-41.0	-42.5	19.0	0.00e+00	0	44	0	714080256	52	4245
2026-01-11 13:28:45.47	128.09	16.61	-41.0	-42.4	19.0	0.00e+00	0	44	0	721420288	52	4230
2026-01-11 13:28:46.47	128.00	16.72	-41.0	-42.4	19.0	0.00e+00	0	44	0	728760320	52	4219
2026-01-11 13:28:47.48	127.91	16.82	-40.9	-42.3	19.1	0.00e+00	0	44	0	736100352	52	4182
2026-01-11 13:28:48.47	127.82	16.93	-40.9	-42.3	19.1	0.00e+00	0	44	0	743440384	52	4179
2026-01-11 13:28:49.47	127.72	17.03	-40.8	-42.2	19.1	0.00e+00	0	44	0	750780416	52	4137
2026-01-11 13:28:50.48	127.63	17.14	-40.9	-42.3	19.1	0.00e+00	0	44	0	758120448	52	4165
2026-01-11 13:28:51.48	127.54	17.25	-40.8	-42.3	19.1	0.00e+00	0	44	0	765460480	52	4158
2026-01-11 13:28:52.48	127.44	17.36	-40.8	-42.2	19.2	0.00e+00	0	44	0	771751936	52	4118
2026-01-11 13:28:53.48	127.35	17.46	-40.8	-42.2	19.2	0.00e+00	0	44	0	779091968	52	4120
2026-01-11 13:28:54.48	127.25	17.57	-40.8	-42.2	19.2	0.00e+00	0	44	0	786432000	52	4128
2026-01-11 13:28:55.48	127.16	17.68	-40.5	-41.8	19.7	0.00e+00	0	44	0	793772032	51	4176
2026-01-11 13:28:56.49	127.06	17.79	-41.0	-42.4	19.1	0.00e+00	0	44	0	801112064	51	4484
2026-01-11 13:28:57.49	126.96	17.90	-40.9	-42.3	19.2	0.00e+00	0	44	0	808452096	51	4408
2026-01-11 13:28:58.49	126.86	18.01	-40.8	-42.2	19.3	0.00e+00	0	44	0	815792128	51	4359
2026-01-11 13:28:59.50	126.76	18.12	-40.8	-42.2	19.3	0.00e+00	0	44	0	823132160	51	4367
2026-01-11 13:29:00.50	126.66	18.23	-40.9	-42.3	19.2	0.00e+00	0	44	0	829423616	51	4415
2026-01-11 13:29:01.49	126.57	18.34	-40.9	-42.3	19.2	0.00e+00	0	44	0	836763648	51	4405
2026-01-11 13:29:02.50	126.46	18.46	-40.6	-41.9	19.5	0.00e+00	0	44	0	844103680	51	4230
2026-01-11 13:29:03.50	126.36	18.57	-40.4	-41.7	19.7	0.00e+00	0	44	0	851443712	51	4144
2026-01-11 13:29:04.50	126.26	18.68	-40.5	-41.9	19.6	0.00e+00	0	44	0	858783744	51	4209
2026-01-11 13:29:05.50	126.15	18.79	-40.3	-41.7	19.8	0.00e+00	0	44	0	866123776	51	4107
2026-01-11 13:29:06.50	126.05	18.91	-40.4	-41.7	19.7	0.00e+00	0	44	0	873463808	50	4382
2026-01-11 13:29:07.50	125.95	19.02	-40.3	-41.6	19.8	0.00e+00	0	44	0	880803840	50	4321
2026-01-11 13:29:08.50	125.84	19.13	-40.4	-41.8	19.7	0.00e+00	0	44	0	888143872	50	4396
2026-01-11 13:29:09.50	125.73	19.25	-40.4	-41.8	19.7	0.00e+00	0	44	0	894435328	50	4394
2026-01-11 13:29:10.50	125.63	19.36	-40.4	-41.7	19.8	0.00e+00	0	44	0	901775360	50	4368
2026-01-11 13:29:11.50	125.52	19.48	-40.3	-41.7	19.8	0.00e+00	0	44	0	909115392	50	4351
2026-01-11 13:29:12.51	125.41	19.60	-40.4	-41.8	19.7	0.00e+00	0	44	0	916455424	50	4425
2026-01-11 13:29:13.51	125.30	19.71	-40.5	-41.8	19.7	0.00e+00	0	44	0	923795456	50	4429
2026-01-11 13:29:14.51	125.19	19.83	-40.4	-41.7	19.8	0.00e+00	0	44	0	931135488	50	4383
2026-01-11 13:29:15.51	125.07	19.95	-40.5	-41.9	19.7	0.00e+00	0	44	0	938475520	50	4447
2026-01-11 13:29:16.51	124.96	20.06	-40.7	-42.1	19.4	0.00e+00	0	44	0	945815552	50	4579
2026-01-11 13:29:17.51	124.85	20.18	-40.4	-41.8	19.7	0.00e+00	0	44	0	953155584	50	4409
2026-01-11 13:29:18.52	124.73	20.30	-40.4	-41.8	19.7	0.00e+00	0	44	0	960495616	50	4417
2026-01-11 13:29:19.51	124.62	20.42	-40.4	-41.7	19.7	0.00e+00	0	44	0	967835648	50	4387
2026-01-11 13:29:20.51	124.50	20.54	-40.4	-41.7	19.8	0.00e+00	0	44	0	974127104	50	4389
2026-01-11 13:29:21.51	124.39	20.66	-40.1	-41.4	20.0	0.00e+00	0	44	0	981467136	50	4235
2026-01-11 13:29:22.51	124.27	20.78	-40.2	-41.6	19.9	0.00e+00	0	44	0	988807168	50	4305
2026-01-11 13:29:23.51	124.15	20.90	-40.2	-41.6	19.9	0.00e+00	0	44	0	996147200	50	4292
2026-01-11 13:29:24.51	124.03	21.02	-40.1	-41.4	20.0	0.00e+00	0	44	0	1003487232	50	4226
2026-01-11 13:29:25.51	123.91	21.14	-40.1	-41.4	20.1	0.00e+00	0	44	0	1010827264	50	4213
2026-01-11 13:29:26.51	123.79	21.26	-39.9	-41.2	20.2	0.00e+00	0	44	0	1018167296	50	4102
2026-01-11 13:29:27.52	123.66	21.39	-39.8	-41.1	20.3	0.00e+00	0	44	0	1025507328	49	4317
2026-01-11 13:29:28.52	123.54	21.51	-39.7	-41.0	20.4	0.00e+00	0	44	0	1032847360	49	4278
2026-01-11 13:29:29.52	123.41	21.63	-39.8	-41.1	20.3	0.00e+00	0	44	0	1039138816	49	4300
2026-01-11 13:29:30.53	123.29	21.76	-39.8	-41.1	20.3	0.00e+00	0	44	0	1046478848	49	4303
2026-01-11 13:29:31.53	123.16	21.88	-39.6	-40.9	20.5	0.00e+00	0	44	0	1053818880	49	4211
2026-01-11 13:29:32.53	123.03	22.01	-39.6	-40.9	20.4	0.00e+00	0	44	0	1061158912	49	4230
2026-01-11 13:29:33.53	122.90	22.13	-39.7	-41.0	20.4	0.00e+00	0	44	0	1068498944	49	4243
2026-01-11 13:29:34.53	122.77	22.26	-39.8	-41.1	20.3	0.00e+00	0	44	0	1075838976	49	4325
2026-01-11 13:29:35.53	122.64	22.39	-39.9	-41.2	20.2	0.00e+00	0	44	0	1083179008	49	4367
2026-01-11 13:29:36.54	122.51	22.51	-39.8	-41.2	20.2	0.00e+00	0	44	0	1090519040	49	4354
2026-01-11 13:29:37.53	122.38	22.64	-40.1	-41.5	20.0	0.00e+00	0	44	0	1097859072	50	4246
2026-01-11 13:29:38.53	122.24	22.77	-40.0	-41.4	20.0	0.00e+00	0	44	0	1104150528	50	4206
2026-01-11 13:29:39.53	122.11	22.89	-40.0	-41.4	20.0	0.00e+00	0	44	0	1111490560	50	4232
2026-01-11 13:29:40.53	121.97	23.02	-40.0	-41.4	20.0	0.00e+00	0	44	0	1118830592	50	4207
2026-01-11 13:29:41.53	121.83	23.15	-40.0	-41.4	20.0	0.00e+00	0	44	0	1126170624	50	4206
2026-01-11 13:29:42.53	121.69	23.28	-39.7	-41.1	20.3	0.00e+00	0	44	0	1133510656	50	4074
2026-01-11 13:29:43.53	121.55	23.41	-40.1	-41.5	19.9	0.00e+00	0	44	0	1140850688	50	4280
2026-01-11 13:29:44.53	121.41	23.54	-40.1	-41.5	19.9	0.00e+00	0	44	0	1148190720	50	4254
2026-01-11 13:29:45.53	121.27	23.67	-40.1	-41.5	19.9	0.00e+00	0	44	0	1155530752	50	4277
2026-01-11 13:29:46.53	121.12	23.80	-40.1	-41.5	20.0	0.00e+00	0	44	0	1162870784	50	4266
2026-01-11 13:29:47.53	120.98	23.93	-39.8	-41.2	20.2	0.00e+00	0	44	0	1169162240	50	4125
2026-01-11 13:29:48.54	120.83	24.07	-40.0	-41.4	20.0	0.00e+00	0	44	0	1176502272	50	4208
2026-01-11 13:29:49.54	120.68	24.20	-40.1	-41.4	20.0	0.00e+00	0	44	0	1183842304	50	4242
2026-01-11 13:29:50.54	120.53	24.33	-40.2	-41.5	20.0	0.00e+00	0	44	0	1191182336	50	4290
2026-01-11 13:29:51.54	120.38	24.47	-40.1	-41.5	20.0	0.00e+00	0	44	0	1198522368	50	4254
2026-01-11 13:29:52.54	120.23	24.60	-40.1	-41.5	20.0	0.00e+00	0	44	0	1205862400	50	4244
2026-01-11 13:29:53.54	120.08	24.74	-40.0	-41.3	20.1	0.00e+00	0	44	0	1213202432	50	4188
2026-01-11 13:29:54.54	119.93	24.87	-40.1	-41.5	20.1	0.00e+00	0	44	0	1220542464	50	4244
2026-01-11 13:29:55.54	119.77	25.01	-39.9	-41.2	20.1	0.00e+00	0	44	0	1226833920	50	4134
2026-01-11 13:29:56.54	119.61	25.14	-39.9	-41.2	20.1	0.00e+00	0	44	0	1234173952	50	4139
2026-01-11 13:29:57.54	119.46	25.28	-39.8	-41.1	20.2	0.00e+00	0	44	0	1241513984	50	4094
2026-01-11 13:29:58.54	119.30	25.42	-39.6	-41.0	20.0	0.00e+00	0	44	0	1248854016	50	4030
2026-01-11 13:29:59.54	119.14	25.55	-39.6	-41.0	19.5	1.18e-03	0	44	0	1256194048	49	4257
2026-01-11 13:30:00.54	118.97	25.69	-39.6	-41.1	19.4	2.43e-03	0	44	0	1263534080	49	4302
2026-01-11 13:30:01.54	118.81	25.83	-39.5	-41.0	19.7	8.06e-04	0	44	0	1270874112	49	4247
2026-01-11 13:30:02.54	118.64	25.97	-39.6	-41.0	19.8	9.61e-05	0	44	0	1278214144	49	4288
2026-01-11 13:30:03.54	118.48	26.11	-39.8	-41.2	20.1	3.40e-06	0	44	0	1285554176	49	4388
2026-01-11 13:30:04.55	118.31	26.25	-39.7	-41.1	20.1	0.00e+00	0	44	0	1291845632	49	4296
2026-01-11 13:30:05.55	118.14	26.39	-39.7	-41.2	19.3	5.63e-04	0	44	0	1299185664	49	4388
2026-01-11 13:30:06.55	117.97	26.53	-39.7	-41.3	19.2	5.87e-03	0	44	0	1306525696	49	4394
2026-01-11 13:30:07.55	117.79	26.67	-39.9	-41.3	20.1	0.00e+00	0	44	0	1313865728	49	4408
2026-01-11 13:30:08.55	117.62	26.81	-39.9	-41.3	20.1	0.00e+00	0	44	0	1321205760	49	4432
2026-01-11 13:30:09.55	117.44	26.95	-39.9	-41.3	20.1	0.00e+00	0	44	0	1328545792	49	4421
2026-01-11 13:30:10.55	117.27	27.09	-39.9	-41.3	20.1	0.00e+00	0	44	0	1335885824	49	4435
2026-01-11 13:30:11.55	117.09	27.24	-39.8	-41.1	20.2	0.00e+00	0	44	0	1343225856	49	4334
2026-01-11 13:30:12.55	116.91	27.38	-39.8	-41.1	20.2	0.00e+00	0	44	0	1350565888	49	4330
2026-01-11 13:30:13.56	116.72	27.52	-39.7	-41.0	20.3	0.00e+00	0	44	0	1356857344	49	4276
2026-01-11 13:30:14.55	116.54	27.67	-39.6	-41.0	20.4	0.00e+00	0	44	0	1364197376	49	4250
2026-01-11 13:30:15.55	116.36	27.81	-39.5	-40.8	20.6	0.00e+00	0	44	0	1371537408	49	4160
2026-01-11 13:30:16.55	116.17	27.96	-39.4	-40.7	20.6	0.00e+00	0	44	0	1378877440	49	4118
2026-01-11 13:30:17.55	115.98	28.10	-39.3	-40.6	20.7	0.00e+00	0	44	0	1386217472	49	4081
2026-01-11 13:30:18.56	115.79	28.25	-39.2	-40.5	20.8	0.00e+00	0	44	0	1393557504	49	4005
2026-01-11 13:30:19.56	115.59	28.39	-39.3	-40.5	20.8	0.00e+00	0	44	0	1400897536	48	4291
2026-01-11 13:30:20.56	115.40	28.54	-39.3	-40.6	20.7	0.00e+00	0	44	0	1408237568	48	4325
2026-01-11 13:30:21.56	115.20	28.69	-39.3	-40.6	20.8	0.00e+00	0	44	0	1415577600	48	4301
2026-01-11 13:30:22.56	115.00	28.83	-39.2	-40.5	20.9	0.00e+00	0	44	0	1422917632	48	4249
2026-01-11 13:30:23.57	114.80	28.98	-39.1	-40.3	21.0	0.00e+00	0	44	0	1430257664	48	4170
2026-01-11 13:30:24.56	114.60	29.13	-39.0	-40.2	21.1	0.00e+00	0	44	0	1436549120	48	4127
2026-01-11 13:30:25.57	114.40	29.28	-38.9	-40.1	21.2	0.00e+00	0	44	0	1443889152	48	4083
2026-01-11 13:30:26.57	114.19	29.43	-38.9	-40.2	21.1	0.00e+00	0	44	0	1451229184	48	4112
2026-01-11 13:30:27.57	113.98	29.58	-38.9	-40.2	21.1	0.00e+00	0	44	0	1458569216	48	4103
2026-01-11 13:30:28.57	113.77	29.73	-38.9	-40.2	21.1	0.00e+00	0	44	0	1465909248	48	4116
2026-01-11 13:30:29.57	113.56	29.88	-38.9	-40.2	21.1	0.00e+00	0	44	0	1473249280	48	4113
2026-01-11 13:30:30.57	113.35	30.03	-38.9	-40.2	21.2	0.00e+00	0	44	0	1480589312	48	4102
2026-01-11 13:30:31.57	113.13	30.18	-39.0	-40.3	21.0	0.00e+00	0	44	0	1487929344	48	4157
2026-01-11 13:30:32.58	112.91	30.33	-39.5	-40.4	21.4	0.00e+00	0	44	0	1495269376	48	4198
2026-01-11 13:30:33.58	112.70	30.48	-39.5	-40.4	21.4	0.00e+00	0	44	0	1501560832	48	4213
2026-01-11 13:30:34.58	112.47	30.63	-39.7	-40.6	21.2	0.00e+00	0	44	0	1508900864	48	4324
2026-01-11 13:30:35.58	112.25	30.78	-39.7	-40.6	21.3	0.00e+00	0	44	0	1516240896	48	4300
2026-01-11 13:30:36.58	112.02	30.93	-39.6	-40.5	21.3	0.00e+00	0	44	0	1523580928	48	4278
2026-01-11 13:30:37.58	111.80	31.09	-39.7	-40.6	21.2	0.00e+00	0	44	0	1530920960	48	4298
2026-01-11 13:30:38.59	111.56	31.24	-39.8	-40.7	21.1	0.00e+00	0	44	0	1538260992	49	4107
2026-01-11 13:30:39.59	111.33	31.39	-39.8	-40.7	21.1	0.00e+00	0	44	0	1545601024	49	4133
2026-01-11 13:30:40.60	111.09	31.55	-39.9	-40.8	21.1	0.00e+00	0	44	0	1552941056	49	4157
2026-01-11 13:30:41.60	110.86	31.70	-40.0	-40.9	21.0	0.00e+00	0	44	0	1559232512	49	4197
2026-01-11 13:30:42.60	110.62	31.86	-39.9	-40.8	21.1	0.00e+00	0	44	0	1566572544	49	4147
2026-01-11 13:30:43.60	110.38	32.01	-39.9	-40.8	21.0	0.00e+00	0	44	0	1573912576	49	4187
2026-01-11 13:30:44.60	110.13	32.16	-40.0	-40.9	20.9	0.00e+00	0	44	0	1581252608	49	4231
2026-01-11 13:30:45.60	109.89	32.32	-40.1	-41.0	20.9	0.00e+00	0	44	0	1588592640	50	4021
2026-01-11 13:30:46.60	109.64	32.47	-40.1	-41.0	20.9	0.00e+00	0	44	0	1595932672	50	4033
2026-01-11 13:30:47.61	109.39	32.63	-40.0	-40.9	21.0	0.00e+00	0	44	0	1603272704	50	3970
2026-01-11 13:30:48.61	109.13	32.78	-40.0	-40.9	21.0	0.00e+00	0	44	0	1610612736	50	3993
2026-01-11 13:30:49.61	108.88	32.94	-39.9	-40.8	21.1	0.00e+00	0	44	0	1617952768	50	3922
2026-01-11 13:30:50.61	108.62	33.09	-39.8	-40.6	21.2	0.00e+00	0	44	0	1625292800	50	3867
2026-01-11 13:30:51.61	108.36	33.25	-40.0	-40.9	21.0	0.00e+00	0	44	0	1632632832	50	3969
2026-01-11 13:30:52.61	108.09	33.40	-39.7	-40.6	21.3	0.00e+00	0	44	0	1639972864	50	3848
2026-01-11 13:30:53.61	107.83	33.56	-39.8	-40.6	21.2	0.00e+00	0	44	0	1646264320	50	3867
2026-01-11 13:30:54.61	107.56	33.71	-39.5	-40.4	21.4	0.00e+00	0	44	0	1653604352	49	3984
2026-01-11 13:30:55.61	107.29	33.87	-39.4	-40.3	21.5	0.00e+00	0	44	0	1660944384	49	3917
2026-01-11 13:30:56.61	107.02	34.02	-39.4	-40.3	21.5	0.00e+00	0	44	0	1668284416	49	3927
2026-01-11 13:30:57.62	106.74	34.18	-39.3	-40.2	21.6	0.00e+00	0	44	0	1675624448	49	3901
2026-01-11 13:30:58.62	106.46	34.34	-39.3	-40.2	21.6	0.00e+00	0	44	0	1682964480	49	3886
2026-01-11 13:30:59.62	106.18	34.49	-39.3	-40.2	21.6	0.00e+00	0	44	0	1690304512	49	3877
2026-01-11 13:31:00.62	105.89	34.65	-39.0	-39.9	21.8	0.00e+00	0	44	0	1697644544	48	3974
2026-01-11 13:31:01.62	105.61	34.80	-39.3	-40.1	21.6	0.00e+00	0	44	0	1704984576	48	4088
2026-01-11 13:31:02.62	105.32	34.96	-39.4	-40.3	21.5	0.00e+00	0	44	0	1711276032	48	4146
2026-01-11 13:31:03.62	105.02	35.11	-39.4	-40.3	21.5	0.00e+00	0	44	0	1718616064	48	4172
2026-01-11 13:31:04.62	104.73	35.27	-39.6	-40.5	21.4	0.00e+00	0	44	0	1725956096	48	4244
2026-01-11 13:31:05.62	104.43	35.42	-39.8	-40.6	21.2	0.00e+00	0	44	0	1733296128	48	4335
2026-01-11 13:31:06.62	104.13	35.58	-39.9	-40.8	21.1	0.00e+00	0	44	0	1740636160	49	4167
2026-01-11 13:31:07.62	103.82	35.73	-39.8	-40.7	21.2	0.00e+00	0	44	0	1747976192	49	4116
2026-01-11 13:31:08.62	103.52	35.89	-39.7	-40.6	21.2	0.00e+00	0	44	0	1755316224	49	4090
2026-01-11 13:31:09.62	103.21	36.04	-39.8	-40.7	21.1	0.00e+00	0	44	0	1762656256	49	4140
2026-01-11 13:31:10.62	102.90	36.20	-40.0	-40.9	21.0	0.00e+00	0	44	0	1768947712	49	4225
2026-01-11 13:31:11.63	102.58	36.35	-39.9	-40.9	21.1	0.00e+00	0	44	0	1776287744	49	4198
2026-01-11 13:31:12.63	102.26	36.51	-40.1	-41.1	20.9	0.00e+00	0	44	0	1783627776	49	4296
2026-01-11 13:31:13.63	101.94	36.66	-40.0	-40.9	21.0	0.00e+00	0	44	0	1790967808	49	4230
2026-01-11 13:31:14.63	101.61	36.81	-40.0	-40.9	20.9	0.00e+00	0	44	0	1798307840	49	4242
2026-01-11 13:31:15.63	101.28	36.97	-40.0	-40.9	21.0	0.00e+00	0	44	0	1805647872	49	4205
2026-01-11 13:31:16.63	100.95	37.12	-40.2	-41.1	20.9	0.00e+00	0	44	0	1812987904	50	4064
2026-01-11 13:31:17.63	100.62	37.27	-39.9	-40.8	21.1	0.00e+00	0	44	0	1820327936	50	3945
2026-01-11 13:31:18.63	100.28	37.42	-40.0	-40.8	21.1	0.00e+00	0	44	0	1827667968	50	3954
2026-01-11 13:31:19.63	99.94	37.57	-39.9	-40.8	21.1	0.00e+00	0	44	0	1833959424	50	3957
2026-01-11 13:31:20.63	99.60	37.72	-40.0	-40.9	21.1	0.00e+00	0	44	0	1841299456	50	3971
2026-01-11 13:31:21.63	99.25	37.87	-39.9	-40.8	21.1	0.00e+00	0	44	0	1848639488	50	3926
2026-01-11 13:31:22.63	98.90	38.02	-40.0	-40.9	21.0	0.00e+00	0	44	0	1855979520	50	3987
2026-01-11 13:31:23.63	98.55	38.17	-40.0	-40.9	21.0	0.00e+00	0	44	0	1863319552	50	4001
2026-01-11 13:31:24.63	98.19	38.32	-40.0	-40.9	21.1	0.00e+00	0	44	0	1870659584	50	3963
2026-01-11 13:31:25.63	97.83	38.47	-40.0	-40.9	21.0	0.00e+00	0	44	0	1877999616	50	3978
2026-01-11 13:31:26.63	97.47	38.61	-39.9	-40.8	21.1	0.00e+00	0	44	0	1885339648	50	3946
2026-01-11 13:31:27.63	97.10	38.76	-39.7	-40.6	21.3	0.00e+00	0	44	0	1892679680	50	3857
2026-01-11 13:31:28.63	96.73	38.91	-39.6	-40.4	21.4	0.00e+00	0	44	0	1898971136	49	4003
2026-01-11 13:31:29.63	96.36	39.05	-39.6	-40.5	21.4	0.00e+00	0	44	0	1906311168	49	4025
2026-01-11 13:31:30.63	95.98	39.20	-39.7	-40.6	21.2	0.00e+00	0	44	0	1913651200	49	4084
2026-01-11 13:31:31.63	95.60	39.34	-40.1	-41.0	21.0	0.00e+00	0	44	0	1920991232	49	4249
2026-01-11 13:31:32.63	95.22	39.48	-40.2	-41.1	20.9	0.00e+00	0	44	0	1928331264	49	4318
2026-01-11 13:31:33.63	94.83	39.62	-40.3	-41.2	20.8	0.00e+00	0	44	0	1935671296	49	4370
2026-01-11 13:31:34.63	94.44	39.76	-40.3	-41.2	20.8	0.00e+00	0	44	0	1943011328	50	4106
2026-01-11 13:31:35.63	94.05	39.90	-40.3	-41.2	20.8	0.00e+00	0	44	0	1950351360	50	4125
2026-01-11 13:31:36.63	93.65	40.04	-40.3	-41.2	20.8	0.00e+00	0	44	0	1956642816	50	4112
2026-01-11 13:31:37.63	93.25	40.18	-40.1	-41.0	20.9	0.00e+00	0	44	0	1963982848	50	4005
2026-01-11 13:31:38.63	92.85	40.32	-39.9	-40.8	21.1	0.00e+00	0	44	0	1971322880	50	3926
2026-01-11 13:31:39.64	92.44	40.45	-39.8	-40.7	21.2	0.00e+00	0	44	0	1978662912	50	3884
2026-01-11 13:31:40.64	92.03	40.59	-39.7	-40.6	21.3	0.00e+00	0	44	0	1986002944	50	3849
2026-01-11 13:31:41.64	91.62	40.72	-39.6	-40.5	21.4	0.00e+00	0	44	0	1993342976	49	4006
2026-01-11 13:31:42.64	91.20	40.85	-39.8	-40.6	21.3	0.00e+00	0	45	0	2000683008	49	4098
2026-01-11 13:31:43.64	90.78	40.98	-39.8	-40.7	21.2	0.00e+00	0	44	0	2008023040	49	4112
2026-01-11 13:31:44.64	90.36	41.11	-39.8	-40.6	21.3	0.00e+00	0	44	0	2015363072	49	4096
2026-01-11 13:31:45.64	89.93	41.24	-39.9	-40.8	21.1	0.00e+00	0	44	0	2021654528	49	4155
2026-01-11 13:31:46.64	89.50	41.37	-39.7	-40.5	21.3	0.00e+00	0	44	0	2028994560	49	4047
2026-01-11 13:31:47.64	89.06	41.49	-39.9	-40.8	21.1	0.00e+00	0	44	0	2036334592	49	4193
2026-01-11 13:31:48.65	88.62	41.62	-40.0	-40.9	21.1	0.00e+00	0	45	0	2043674624	49	4204
2026-01-11 13:31:49.64	88.19	41.74	-40.0	-41.0	21.0	0.00e+00	0	44	0	2051014656	49	4251
2026-01-11 13:31:50.65	87.74	41.86	-40.2	-41.1	20.9	0.00e+00	0	44	0	2058354688	49	4305
2026-01-11 13:31:51.65	87.29	41.98	-40.1	-41.0	20.9	0.00e+00	0	44	0	2065694720	50	4041
2026-01-11 13:31:52.65	86.84	42.10	-40.2	-41.1	20.9	0.00e+00	0	44	0	2073034752	50	4079
2026-01-11 13:31:53.65	86.39	42.21	-40.1	-41.0	21.0	0.00e+00	0	44	0	2079326208	50	4027
2026-01-11 13:31:54.65	85.93	42.33	-39.9	-40.8	21.1	0.00e+00	0	44	0	2086666240	50	3943
2026-01-11 13:31:55.65	85.47	42.44	-39.6	-40.5	21.4	0.00e+00	0	44	0	2094006272	50	3781
2026-01-11 13:31:56.65	85.00	42.55	-39.7	-40.6	21.3	0.00e+00	0	44	0	2101346304	49	4057
2026-01-11 13:31:57.65	84.54	42.66	-39.5	-40.3	21.5	0.00e+00	0	44	0	2108686336	49	3953
2026-01-11 13:31:58.65	84.07	42.76	-39.6	-40.4	21.4	0.00e+00	0	44	0	2116026368	49	4003
2026-01-11 13:31:59.66	83.59	42.87	-39.6	-40.5	21.4	0.00e+00	0	44	0	2123366400	49	4035
2026-01-11 13:32:00.66	83.11	42.97	-39.7	-40.6	21.3	0.00e+00	0	45	0	2130706432	49	4053
2026-01-11 13:32:01.65	82.64	43.07	-39.7	-40.6	21.3	0.00e+00	0	44	0	2138046464	49	4082
2026-01-11 13:32:02.65	82.16	43.17	-39.8	-40.7	21.2	0.00e+00	0	44	0	2144337920	49	4124
2026-01-11 13:32:03.65	81.67	43.27	-39.8	-40.7	21.2	0.00e+00	0	44	0	2151677952	49	4130
2026-01-11 13:32:04.66	81.18	43.37	-39.8	-40.7	21.2	0.00e+00	0	44	0	2159017984	49	4111
2026-01-11 13:32:05.66	80.69	43.46	-39.9	-40.8	21.2	0.00e+00	0	45	0	2166358016	49	4152
2026-01-11 13:32:06.66	80.20	43.55	-39.7	-40.6	21.3	0.00e+00	0	44	0	2173698048	49	4077
2026-01-11 13:32:07.66	79.70	43.64	-39.8	-40.6	21.3	0.00e+00	0	44	0	2181038080	49	4089
2026-01-11 13:32:08.66	79.20	43.73	-40.0	-40.9	21.0	0.00e+00	0	44	0	2188378112	49	4240
2026-01-11 13:32:09.66	78.70	43.81	-40.0	-40.9	21.0	0.00e+00	0	44	0	2195718144	49	4236
2026-01-11 13:32:10.66	78.19	43.89	-40.1	-41.0	21.0	0.00e+00	0	44	0	2203058176	49	4274
2026-01-11 13:32:11.66	77.69	43.97	-40.2	-41.2	20.9	0.00e+00	0	45	0	2209349632	49	4342
2026-01-11 13:32:12.66	77.18	44.05	-40.1	-41.0	20.9	0.00e+00	0	44	0	2216689664	49	4290
2026-01-11 13:32:13.66	76.66	44.12	-40.2	-41.1	20.9	0.00e+00	0	44	0	2224029696	49	4293
2026-01-11 13:32:14.65	76.15	44.19	-40.2	-41.1	20.9	0.00e+00	0	44	0	2231369728	50	4055
2026-01-11 13:32:15.65	75.64	44.26	-39.9	-40.8	21.1	0.00e+00	0	44	0	2238709760	50	3942
2026-01-11 13:32:16.66	75.11	44.33	-39.7	-40.6	21.3	0.00e+00	0	44	0	2246049792	50	3842
2026-01-11 13:32:17.66	74.59	44.40	-39.5	-40.4	21.5	0.00e+00	0	44	0	2253389824	49	3983
2026-01-11 13:32:18.66	74.07	44.46	-39.6	-40.5	21.4	0.00e+00	0	44	0	2260729856	49	4033
2026-01-11 13:32:19.66	73.54	44.52	-39.7	-40.6	21.3	0.00e+00	0	44	0	2267021312	49	4068
2026-01-11 13:32:20.66	73.02	44.58	-39.7	-40.5	21.3	0.00e+00	0	44	0	2275409920	49	4050
2026-01-11 13:32:21.66	72.49	44.63	-39.8	-40.7	21.2	0.00e+00	0	44	0	2281701376	49	4125
2026-01-11 13:32:22.66	71.96	44.68	-39.8	-40.7	21.3	0.00e+00	0	44	0	2289041408	49	4109
2026-01-11 13:32:23.66	71.43	44.73	-39.7	-40.5	21.4	0.00e+00	0	44	0	2296381440	49	4048
2026-01-11 13:32:24.66	70.89	44.78	-39.7	-40.5	21.4	0.00e+00	0	44	0	2303721472	49	4036
2026-01-11 13:32:25.66	70.36	44.82	-39.7	-40.6	21.4	0.00e+00	0	44	0	2311061504	49	4062
2026-01-11 13:32:26.66	69.82	44.86	-39.7	-40.6	21.3	0.00e+00	0	44	0	2318401536	49	4069
2026-01-11 13:32:27.66	69.28	44.90	-39.9	-40.8	21.2	0.00e+00	0	44	0	2325741568	49	4150
2026-01-11 13:32:28.67	68.74	44.94	-39.9	-40.8	21.2	0.00e+00	0	44	0	2333081600	49	4152
2026-01-11 13:32:29.67	68.20	44.97	-39.8	-40.6	21.2	0.00e+00	0	44	0	2340421632	49	4090
2026-01-11 13:32:30.67	67.65	45.00	-39.8	-40.7	21.2	0.00e+00	0	44	0	2347761664	49	4119
2026-01-11 13:32:31.67	67.11	45.03	-39.9	-40.8	21.1	0.00e+00	0	44	0	2354053120	49	4160
2026-01-11 13:32:32.66	66.57	45.05	-39.8	-40.7	21.3	0.00e+00	0	45	0	2361393152	49	4121
2026-01-11 13:32:33.66	66.03	45.07	-39.8	-40.7	21.3	0.00e+00	0	45	0	2368733184	49	4100
2026-01-11 13:32:34.66	65.48	45.09	-39.8	-40.6	21.3	0.00e+00	0	44	0	2376073216	49	4091
2026-01-11 13:32:35.66	64.94	45.10	-39.8	-40.7	21.2	0.00e+00	0	44	0	2383413248	49	4123
2026-01-11 13:32:36.66	64.39	45.12	-40.0	-40.9	21.1	0.00e+00	0	44	0	2390753280	49	4200
2026-01-11 13:32:37.66	63.85	45.13	-39.9	-40.8	21.2	0.00e+00	0	45	0	2398093312	49	4159
2026-01-11 13:32:38.66	63.30	45.13	-39.9	-40.8	21.2	0.00e+00	0	45	0	2405433344	49	4158
2026-01-11 13:32:39.66	62.75	45.14	-40.0	-40.9	21.1	0.00e+00	0	44	0	2412773376	49	4202
2026-01-11 13:32:40.66	62.21	45.14	-39.9	-40.8	21.2	0.00e+00	0	44	0	2419064832	49	4147
2026-01-11 13:32:41.66	61.66	45.14	-39.9	-40.8	21.2	0.00e+00	0	44	0	2426404864	49	4149
2026-01-11 13:32:42.66	61.11	45.13	-39.7	-40.6	21.3	0.00e+00	0	44	0	2433744896	49	4071
2026-01-11 13:32:43.67	60.56	45.12	-40.0	-40.8	21.1	0.00e+00	0	44	0	2441084928	49	4192
2026-01-11 13:32:44.66	60.02	45.11	-39.9	-40.8	21.2	0.00e+00	0	44	0	2448424960	49	4149
2026-01-11 13:32:45.66	59.47	45.10	-39.9	-40.7	21.2	0.00e+00	0	44	0	2455764992	49	4138
2026-01-11 13:32:46.67	58.92	45.08	-39.8	-40.7	21.3	0.00e+00	0	44	0	2463105024	49	4113
2026-01-11 13:32:47.67	58.38	45.07	-39.9	-40.8	21.2	0.00e+00	0	44	0	2470445056	49	4178
2026-01-11 13:32:48.67	57.84	45.04	-39.7	-40.6	21.4	0.00e+00	0	44	0	2476736512	49	4063
2026-01-11 13:32:49.67	57.29	45.02	-39.8	-40.7	21.2	0.00e+00	0	44	0	2484076544	49	4115
2026-01-11 13:32:50.66	56.76	44.99	-40.0	-40.9	21.1	0.00e+00	0	45	0	2491416576	49	4217
2026-01-11 13:32:51.66	56.21	44.96	-40.1	-41.0	21.0	0.00e+00	0	44	0	2498756608	49	4277
2026-01-11 13:32:52.66	55.67	44.93	-40.0	-40.9	21.0	0.00e+00	0	44	0	2506096640	49	4203
2026-01-11 13:32:53.66	55.14	44.89	-39.9	-40.7	21.2	0.00e+00	0	44	0	2513436672	49	4127
2026-01-11 13:32:54.67	54.59	44.85	-39.8	-40.7	21.3	0.00e+00	0	44	0	2520776704	49	4099
2026-01-11 13:32:55.67	54.06	44.81	-39.8	-40.6	21.2	0.00e+00	0	44	0	2528116736	49	4080
2026-01-11 13:32:56.67	53.52	44.77	-40.0	-40.9	21.1	0.00e+00	0	44	0	2535456768	49	4212
2026-01-11 13:32:57.67	52.99	44.72	-40.1	-41.0	21.0	0.00e+00	0	44	0	2541748224	49	4284
2026-01-11 13:32:58.68	52.45	44.67	-40.1	-41.0	21.0	0.00e+00	0	45	0	2549088256	49	4283
2026-01-11 13:32:59.68	51.92	44.62	-40.1	-41.1	20.9	0.00e+00	0	44	0	2556428288	49	4292
2026-01-11 13:33:00.68	51.40	44.56	-40.1	-41.0	21.0	0.00e+00	0	44	0	2563768320	49	4257
2026-01-11 13:33:01.68	50.87	44.50	-39.7	-40.6	21.3	0.00e+00	0	44	0	2571108352	49	4088
2026-01-11 13:33:02.69	50.34	44.44	-39.7	-40.6	21.3	0.00e+00	0	44	0	2578448384	49	4086
2026-01-11 13:33:03.69	49.82	44.38	-39.6	-40.4	21.4	0.00e+00	0	44	0	2585788416	49	4002
2026-01-11 13:33:04.69	49.30	44.31	-39.7	-40.5	21.4	0.00e+00	0	44	0	2593128448	49	4043
2026-01-11 13:33:05.69	48.78	44.24	-39.7	-40.5	21.4	0.00e+00	0	45	0	2600468480	49	4043
2026-01-11 13:33:06.68	48.27	44.17	-39.7	-40.6	21.3	0.00e+00	0	44	0	2606759936	49	4081
2026-01-11 13:33:07.68	47.76	44.10	-39.6	-40.5	21.4	0.00e+00	0	44	0	2614099968	49	4012
2026-01-11 13:33:08.68	47.25	44.03	-39.5	-40.4	21.5	0.00e+00	0	44	0	2621440000	49	3984
2026-01-11 13:33:09.68	46.74	43.95	-39.3	-40.2	21.6	0.00e+00	0	44	0	2628780032	49	3869
2026-01-11 13:33:10.68	46.23	43.87	-39.5	-40.3	21.6	0.00e+00	0	44	0	2636120064	49	3949
2026-01-11 13:33:11.68	45.73	43.79	-39.3	-40.2	21.7	0.00e+00	0	45	0	2643460096	49	3887
2026-01-11 13:33:12.68	45.23	43.70	-39.4	-40.2	21.6	0.00e+00	0	44	0	2650800128	49	3912
2026-01-11 13:33:13.69	44.73	43.61	-39.3	-40.2	21.7	0.00e+00	0	44	0	2658140160	49	3878
2026-01-11 13:33:14.69	44.23	43.52	-39.5	-40.4	21.5	0.00e+00	0	44	0	2664431616	49	3966
2026-01-11 13:33:15.69	43.74	43.43	-39.5	-40.4	21.5	0.00e+00	0	44	0	2671771648	49	3972
2026-01-11 13:33:16.69	43.25	43.34	-39.6	-40.4	21.4	0.00e+00	0	44	0	2679111680	49	3997
2026-01-11 13:33:17.69	42.76	43.24	-39.4	-40.3	21.6	0.00e+00	0	44	0	2686451712	49	3932
2026-01-11 13:33:18.69	42.28	43.15	-39.4	-40.3	21.6	0.00e+00	0	44	0	2693791744	49	3915
2026-01-11 13:33:19.69	41.80	43.05	-39.4	-40.2	21.6	0.00e+00	0	44	0	2701131776	49	3897
2026-01-11 13:33:20.69	41.32	42.95	-39.5	-40.3	21.6	0.00e+00	0	44	0	2708471808	49	3943
2026-01-11 13:33:21.69	40.85	42.84	-39.3	-40.1	21.7	0.00e+00	0	44	0	2715811840	49	3862
2026-01-11 13:33:22.69	40.38	42.74	-39.2	-40.1	21.7	0.00e+00	0	44	0	2723151872	49	3838
2026-01-11 13:33:23.69	39.91	42.63	-39.3	-40.1	21.8	0.00e+00	0	44	0	2729443328	49	3850
2026-01-11 13:33:24.69	39.44	42.52	-39.3	-40.1	21.7	0.00e+00	0	44	0	2736783360	49	3866
2026-01-11 13:33:25.69	38.98	42.41	-39.3	-40.2	21.6	0.00e+00	0	45	0	2744123392	49	3875
2026-01-11 13:33:26.69	38.52	42.30	-39.5	-40.3	21.6	0.00e+00	0	44	0	2751463424	49	3952
2026-01-11 13:33:27.69	38.07	42.18	-39.5	-40.4	21.5	0.00e+00	0	44	0	2758803456	49	3982
2026-01-11 13:33:28.69	37.62	42.07	-39.7	-40.5	21.4	0.00e+00	0	44	0	2766143488	49	4045
2026-01-11 13:33:29.69	37.17	41.95	-39.8	-40.7	21.3	0.00e+00	0	45	0	2773483520	49	4100
2026-01-11 13:33:30.69	36.72	41.83	-39.9	-40.8	21.2	0.00e+00	0	44	0	2780823552	49	4153
2026-01-11 13:33:31.70	36.28	41.71	-39.8	-40.7	21.2	0.00e+00	0	44	0	2787115008	49	4122
2026-01-11 13:33:32.70	35.84	41.59	-39.9	-40.8	21.2	0.00e+00	0	44	0	2794455040	49	4147
2026-01-11 13:33:33.70	35.40	41.46	-39.9	-40.8	21.1	0.00e+00	0	44	0	2801795072	49	4169
2026-01-11 13:33:34.70	34.97	41.34	-40.0	-40.9	21.0	0.00e+00	0	44	0	2809135104	49	4240
2026-01-11 13:33:35.70	34.54	41.21	-40.2	-41.1	20.9	0.00e+00	0	44	0	2816475136	49	4325
2026-01-11 13:33:36.71	34.11	41.08	-40.1	-41.0	20.9	0.00e+00	0	44	0	2823815168	49	4286
2026-01-11 13:33:37.71	33.69	40.95	-40.0	-40.9	21.0	0.00e+00	0	44	0	2831155200	49	4206
2026-01-11 13:33:38.71	33.27	40.82	-39.8	-40.7	21.2	0.00e+00	0	44	0	2838495232	49	4134
2026-01-11 13:33:39.71	32.86	40.69	-39.8	-40.7	21.2	0.00e+00	0	44	0	2845835264	49	4106
2026-01-11 13:33:40.71	32.45	40.56	-39.8	-40.7	21.2	0.00e+00	0	44	0	2853175296	49	4107
2026-01-11 13:33:41.71	32.04	40.42	-39.7	-40.6	21.3	0.00e+00	0	44	0	2860515328	49	4079
2026-01-11 13:33:42.71	31.63	40.29	-39.7	-40.5	21.1	0.00e+00	0	44	0	2867855360	49	4051
2026-01-11 13:33:43.72	31.23	40.15	-39.6	-40.5	21.4	0.00e+00	0	44	0	2874146816	49	4027
2026-01-11 13:33:44.71	30.83	40.01	-39.7	-40.6	21.2	0.00e+00	0	45	0	2881486848	49	4087
2026-01-11 13:33:45.72	30.44	39.87	-39.7	-40.6	21.2	0.00e+00	0	44	0	2888826880	49	4084
2026-01-11 13:33:46.72	30.04	39.73	-39.8	-40.7	21.2	0.00e+00	0	44	0	2896166912	49	4124
2026-01-11 13:33:47.71	29.66	39.59	-39.6	-40.5	21.3	0.00e+00	0	45	0	2903506944	49	4029
2026-01-11 13:33:48.72	29.27	39.45	-39.5	-40.4	21.5	0.00e+00	0	44	0	2910846976	49	3966
2026-01-11 13:33:49.72	28.89	39.31	-39.4	-40.3	21.5	0.00e+00	0	44	0	2918187008	49	3933
2026-01-11 13:33:50.71	28.52	39.17	-39.5	-40.4	21.5	0.00e+00	0	45	0	2925527040	49	3963
2026-01-11 13:33:51.71	28.14	39.02	-39.6	-40.5	21.4	0.00e+00	0	44	0	2932867072	49	4028
2026-01-11 13:33:52.71	27.77	38.88	-39.7	-40.5	21.3	0.00e+00	0	45	0	2939158528	49	4043
2026-01-11 13:33:53.71	27.40	38.73	-39.8	-40.7	21.3	0.00e+00	0	44	0	2946498560	49	4105
2026-01-11 13:33:54.72	27.04	38.59	-39.8	-40.6	21.3	0.00e+00	0	44	0	2953838592	49	4090
2026-01-11 13:33:55.72	26.68	38.44	-39.7	-40.5	21.4	0.00e+00	0	44	0	2961178624	49	4050
2026-01-11 13:33:56.72	26.32	38.29	-39.6	-40.4	21.4	0.00e+00	0	44	0	2968518656	49	3992
2026-01-11 13:33:57.72	25.96	38.14	-39.5	-40.4	21.5	0.00e+00	0	44	0	2975858688	49	3968
2026-01-11 13:33:58.72	25.61	38.00	-39.6	-40.5	21.4	0.00e+00	0	44	0	2983198720	49	4005
2026-01-11 13:33:59.72	25.26	37.85	-39.7	-40.6	21.3	0.00e+00	0	44	0	2990538752	49	4054
2026-01-11 13:34:00.72	24.92	37.70	-39.6	-40.5	21.4	0.00e+00	0	44	0	2996830208	49	4041
2026-01-11 13:34:01.72	24.58	37.55	-39.7	-40.6	21.3	0.00e+00	0	44	0	3004170240	49	4093
2026-01-11 13:34:02.72	24.24	37.40	-39.7	-40.6	21.3	0.00e+00	0	45	0	3011510272	49	4083
2026-01-11 13:34:03.73	23.90	37.24	-39.8	-40.7	21.2	0.00e+00	0	45	0	3018850304	49	4132
2026-01-11 13:34:04.73	23.57	37.09	-39.9	-40.8	21.2	0.00e+00	0	45	0	3026190336	49	4148
2026-01-11 13:34:05.73	23.24	36.94	-40.0	-40.9	21.1	0.00e+00	0	44	0	3033530368	49	4207
2026-01-11 13:34:06.73	22.91	36.79	-40.0	-40.9	21.0	0.00e+00	0	45	0	3040870400	49	4233
2026-01-11 13:34:07.74	22.59	36.63	-40.0	-40.9	21.1	0.00e+00	0	44	0	3048210432	49	4214
2026-01-11 13:34:08.74	22.27	36.48	-39.9	-40.8	21.0	0.00e+00	0	44	0	3055550464	49	4170
2026-01-11 13:34:09.74	21.95	36.33	-39.6	-40.5	21.4	0.00e+00	0	44	0	3061841920	49	4014
2026-01-11 13:34:10.74	21.64	36.17	-39.3	-40.2	21.6	0.00e+00	0	44	0	3069181952	49	3894
2026-01-11 13:34:11.74	21.33	36.02	-39.3	-40.2	21.7	0.00e+00	0	44	0	3076521984	49	3877
2026-01-11 13:34:12.74	21.02	35.87	-39.2	-40.1	21.7	0.00e+00	0	44	0	3083862016	49	3832
2026-01-11 13:34:13.75	20.71	35.71	-39.3	-40.2	21.6	0.00e+00	0	44	0	3091202048	49	3894
2026-01-11 13:34:14.74	20.41	35.56	-39.5	-40.4	21.5	0.00e+00	0	44	0	3098542080	49	3979
2026-01-11 13:34:15.74	20.11	35.40	-39.6	-40.5	21.4	0.00e+00	0	44	0	3105882112	49	4013
2026-01-11 13:34:16.75	19.81	35.25	-39.6	-40.5	21.4	0.00e+00	0	44	0	3113222144	49	4022
2026-01-11 13:34:17.75	19.52	35.09	-39.5	-40.4	21.5	0.00e+00	0	44	0	3120562176	49	3965
2026-01-11 13:34:18.75	19.23	34.94	-39.3	-40.1	21.7	0.00e+00	0	44	0	3126853632	49	3860
2026-01-11 13:34:19.75	18.94	34.78	-39.3	-40.2	21.7	0.00e+00	0	44	0	3134193664	49	3878
2026-01-11 13:34:20.75	18.66	34.63	-39.3	-40.2	21.6	0.00e+00	0	44	0	3141533696	49	3899
2026-01-11 13:34:21.75	18.37	34.47	-39.5	-40.4	21.5	0.00e+00	0	44	0	3148873728	49	3966
2026-01-11 13:34:22.75	18.09	34.32	-39.6	-40.5	21.4	0.00e+00	0	44	0	3156213760	49	4028
2026-01-11 13:34:23.75	17.82	34.16	-39.7	-40.6	21.3	0.00e+00	0	44	0	3163553792	49	4068
2026-01-11 13:34:24.75	17.54	34.01	-39.7	-40.5	21.3	0.00e+00	0	44	0	3170893824	49	4047
2026-01-11 13:34:25.75	17.27	33.85	-39.8	-40.7	21.2	0.00e+00	0	44	0	3178233856	49	4132
2026-01-11 13:34:26.74	17.00	33.70	-39.8	-40.6	21.3	0.00e+00	0	44	0	3184525312	49	4096
2026-01-11 13:34:27.74	16.74	33.55	-39.9	-40.7	21.1	0.00e+00	0	44	0	3191865344	49	4143
2026-01-11 13:34:28.74	16.47	33.39	-39.7	-40.6	21.3	0.00e+00	0	44	0	3199205376	49	4061
2026-01-11 13:34:29.74	16.21	33.24	-39.7	-40.6	21.2	0.00e+00	0	44	0	3206545408	49	4070
2026-01-11 13:34:30.75	15.95	33.08	-39.5	-40.4	21.5	0.00e+00	0	45	0	3213885440	49	3973
2026-01-11 13:34:31.75	15.69	32.93	-39.3	-40.2	21.6	0.00e+00	0	44	0	3221225472	49	3888
2026-01-11 13:34:32.75	15.44	32.77	-39.3	-40.1	21.7	0.00e+00	0	44	0	3228565504	49	3865
2026-01-11 13:34:33.75	15.19	32.62	-39.3	-40.1	21.7	0.00e+00	0	44	0	3235905536	49	3868
2026-01-11 13:34:34.76	14.94	32.46	-39.3	-40.2	21.6	0.00e+00	0	44	0	3243245568	49	3896
2026-01-11 13:34:35.76	14.69	32.31	-39.5	-40.3	21.5	0.00e+00	0	44	0	3249537024	49	3958
2026-01-11 13:34:36.76	14.45	32.16	-39.5	-40.4	21.4	0.00e+00	0	44	0	3256877056	49	3982
2026-01-11 13:34:37.76	14.20	32.00	-39.8	-40.7	21.2	0.00e+00	0	44	0	3265265664	49	4126
2026-01-11 13:34:38.76	13.96	31.85	-39.9	-40.8	21.1	0.00e+00	0	44	0	3271557120	49	4146
2026-01-11 13:34:39.76	13.73	31.70	-40.0	-40.9	21.0	0.00e+00	0	44	0	3278897152	49	4194
2026-01-11 13:34:40.76	13.49	31.54	-40.1	-41.0	20.9	0.00e+00	0	44	0	3286237184	49	4287
2026-01-11 13:34:41.77	13.26	31.39	-40.2	-41.1	20.9	0.00e+00	0	44	0	3293577216	49	4300
2026-01-11 13:34:42.77	13.03	31.24	-40.0	-40.9	21.0	0.00e+00	0	44	0	3300917248	49	4237
2026-01-11 13:34:43.77	12.80	31.09	-39.8	-40.7	21.2	0.00e+00	0	44	0	3308257280	49	4115
2026-01-11 13:34:44.77	12.57	30.93	-39.6	-40.5	21.3	0.00e+00	0	44	0	3315597312	49	4040
2026-01-11 13:34:45.77	12.35	30.78	-39.6	-40.5	21.4	0.00e+00	0	44	0	3322937344	49	4030
2026-01-11 13:34:46.77	12.12	30.63	-39.7	-40.6	21.3	0.00e+00	0	44	0	3329228800	49	4057
2026-01-11 13:34:47.77	11.90	30.48	-39.8	-40.7	21.2	0.00e+00	0	44	0	3336568832	49	4109
2026-01-11 13:34:48.77	11.69	30.33	-39.9	-40.8	21.1	0.00e+00	0	44	0	3343908864	49	4177
2026-01-11 13:34:49.77	11.47	30.18	-39.9	-40.8	21.1	0.00e+00	0	44	0	3351248896	49	4191
2026-01-11 13:34:50.77	11.26	30.03	-39.9	-40.8	21.0	0.00e+00	0	44	0	3358588928	49	4188
2026-01-11 13:34:51.77	11.04	29.88	-39.8	-40.6	21.2	0.00e+00	0	45	0	3365928960	49	4098
2026-01-11 13:34:52.77	10.83	29.73	-39.7	-40.5	21.3	0.00e+00	0	44	0	3373268992	49	4046
2026-01-11 13:34:53.77	10.63	29.58	-39.7	-40.5	21.3	0.00e+00	0	44	0	3380609024	49	4048
2026-01-11 13:34:54.78	10.42	29.43	-39.6	-40.5	21.3	0.00e+00	0	45	0	3387949056	49	4037
2026-01-11 13:34:55.78	10.21	29.29	-39.6	-40.5	21.4	0.00e+00	0	44	0	3394240512	49	4006
2026-01-11 13:34:56.78	10.01	29.14	-39.6	-40.5	21.4	0.00e+00	0	45	0	3401580544	49	4016
2026-01-11 13:34:57.78	9.81	28.99	-39.7	-40.6	21.2	0.00e+00	0	44	0	3408920576	49	4074
2026-01-11 13:34:58.79	9.61	28.84	-39.7	-40.6	21.2	0.00e+00	0	44	0	3416260608	49	4087
2026-01-11 13:34:59.79	9.41	28.70	-39.8	-40.7	21.2	0.00e+00	0	44	0	3423600640	49	4103
2026-01-11 13:35:00.79	9.22	28.55	-39.7	-40.6	21.3	0.00e+00	0	44	0	3430940672	49	4071
2026-01-11 13:35:01.79	9.03	28.41	-39.8	-40.7	21.2	0.00e+00	0	44	0	3438280704	49	4122
2026-01-11 13:35:02.79	8.83	28.26	-39.9	-40.7	21.1	0.00e+00	0	44	0	3445620736	49	4139
2026-01-11 13:35:03.79	8.65	28.12	-39.9	-40.8	21.1	0.00e+00	0	45	0	3452960768	49	4186
2026-01-11 13:35:04.79	8.46	27.97	-40.1	-41.0	20.9	0.00e+00	0	44	0	3459252224	49	4250
2026-01-11 13:35:05.79	8.27	27.83	-40.2	-41.1	20.9	0.00e+00	0	44	0	3466592256	49	4305
2026-01-11 13:35:06.79	8.09	27.68	-40.1	-41.0	20.9	0.00e+00	0	44	0	3473932288	49	4256
2026-01-11 13:35:07.79	7.90	27.54	-40.1	-41.0	20.9	0.00e+00	0	44	0	3481272320	49	4278
2026-01-11 13:35:08.79	7.72	27.40	-40.1	-41.0	21.0	0.00e+00	0	44	0	3488612352	49	4244
2026-01-11 13:35:09.80	7.54	27.25	-40.0	-40.9	21.0	0.00e+00	0	44	0	3495952384	49	4202
2026-01-11 13:35:10.80	7.36	27.11	-40.2	-41.1	20.8	0.00e+00	0	45	0	3503292416	49	4295
2026-01-11 13:35:11.79	7.19	26.97	-40.1	-41.0	20.9	0.00e+00	0	44	0	3510632448	49	4252
2026-01-11 13:35:12.80	7.01	26.83	-40.1	-41.0	20.9	0.00e+00	0	44	0	3516923904	49	4272
2026-01-11 13:35:13.80	6.84	26.69	-40.2	-41.1	20.8	0.00e+00	0	44	0	3524263936	49	4306
2026-01-11 13:35:14.79	6.67	26.55	-40.2	-41.1	20.8	0.00e+00	0	44	0	3531603968	49	4332
2026-01-11 13:35:15.80	6.50	26.41	-40.2	-41.1	20.8	0.00e+00	0	44	0	3538944000	49	4337
2026-01-11 13:35:16.80	6.33	26.27	-40.2	-41.1	20.8	0.00e+00	0	44	0	3546284032	49	4334
2026-01-11 13:35:17.80	6.16	26.13	-40.1	-41.0	20.9	0.00e+00	0	45	0	3553624064	49	4283
2026-01-11 13:35:18.80	6.00	25.99	-40.1	-41.0	20.9	0.00e+00	0	45	0	3560964096	49	4256
2026-01-11 13:35:19.80	5.83	25.85	-40.1	-41.0	20.9	0.00e+00	0	44	0	3568304128	49	4268
2026-01-11 13:35:20.80	5.67	25.72	-40.1	-41.0	20.9	0.00e+00	0	44	0	3575644160	49	4270
2026-01-11 13:35:21.80	5.51	25.58	-40.0	-40.9	21.0	0.00e+00	0	44	0	3581935616	49	4215
2026-01-11 13:35:22.81	5.35	25.44	-40.1	-41.0	20.9	0.00e+00	0	44	0	3589275648	49	4270
2026-01-11 13:35:23.80	5.19	25.31	-40.1	-41.0	20.9	0.00e+00	0	44	0	3596615680	49	4250
2026-01-11 13:35:24.80	5.04	25.17	-40.0	-40.8	21.0	0.00e+00	0	44	0	3603955712	49	4191
2026-01-11 13:35:25.81	4.88	25.03	-39.9	-40.8	21.0	0.00e+00	0	44	0	3611295744	49	4181
2026-01-11 13:35:26.81	4.72	24.90	-39.9	-40.7	21.1	0.00e+00	0	44	0	3618635776	49	4139
2026-01-11 13:35:27.81	4.57	24.77	-39.8	-40.7	21.2	0.00e+00	0	44	0	3625975808	49	4113
2026-01-11 13:35:28.81	4.42	24.63	-39.9	-40.7	21.1	0.00e+00	0	44	0	3633315840	49	4142
2026-01-11 13:35:29.81	4.27	24.50	-39.8	-40.6	21.2	0.00e+00	0	45	0	3640655872	49	4094
2026-01-11 13:35:30.81	4.12	24.37	-39.7	-40.6	21.2	0.00e+00	0	44	0	3647995904	49	4070
2026-01-11 13:35:31.82	3.97	24.23	-39.7	-40.6	21.3	0.00e+00	0	44	0	3655335936	49	4055
2026-01-11 13:35:32.82	3.83	24.10	-39.7	-40.6	21.2	0.00e+00	0	44	0	3662675968	49	4075
2026-01-11 13:35:33.82	3.68	23.97	-39.8	-40.7	21.1	0.00e+00	0	45	0	3668967424	49	4119
2026-01-11 13:35:34.82	3.54	23.84	-39.8	-40.7	21.1	0.00e+00	0	45	0	3676307456	49	4133
2026-01-11 13:35:35.82	3.39	23.71	-39.9	-40.8	21.1	0.00e+00	0	44	0	3683647488	49	4173
2026-01-11 13:35:36.82	3.25	23.58	-40.0	-40.9	21.0	0.00e+00	0	45	0	3690987520	49	4223
2026-01-11 13:35:37.83	3.11	23.45	-40.1	-41.0	20.8	0.00e+00	0	44	0	3698327552	49	4278
2026-01-11 13:35:38.82	2.97	23.32	-40.1	-41.1	20.8	0.00e+00	0	45	0	3705667584	49	4313
2026-01-11 13:35:39.82	2.84	23.19	-40.3	-41.3	20.7	0.00e+00	0	45	0	3713007616	49	4392
2026-01-11 13:35:40.82	2.70	23.06	-40.3	-41.3	20.7	0.00e+00	0	44	0	3720347648	50	4160
2026-01-11 13:35:41.82	2.56	22.93	-40.3	-41.3	20.6	0.00e+00	0	44	0	3726639104	50	4167
2026-01-11 13:35:42.82	2.43	22.81	-40.3	-41.2	20.7	0.00e+00	0	44	0	3733979136	50	4140
2026-01-11 13:35:43.82	2.30	22.68	-40.3	-41.2	20.6	0.00e+00	0	44	0	3741319168	50	4145
2026-01-11 13:35:44.82	2.16	22.55	-40.3	-41.3	20.6	0.00e+00	0	44	0	3748659200	50	4148
2026-01-11 13:35:45.82	2.03	22.43	-40.3	-41.2	20.7	0.00e+00	0	44	0	3755999232	50	4127
2026-01-11 13:35:46.83	1.90	22.30	-40.3	-41.2	20.7	0.00e+00	0	44	0	3763339264	50	4141
2026-01-11 13:35:47.83	1.77	22.17	-40.3	-41.2	20.7	0.00e+00	0	44	0	3770679296	50	4133
2026-01-11 13:35:48.83	1.64	22.05	-40.4	-41.3	20.6	0.00e+00	0	45	0	3778019328	50	4163
2026-01-11 13:35:49.83	1.52	21.93	-40.2	-41.2	20.7	0.00e+00	0	44	0	3785359360	50	4105
2026-01-11 13:35:50.83	1.39	21.80	-40.3	-41.2	20.7	0.00e+00	0	44	0	3791650816	50	4133
2026-01-11 13:35:51.83	1.27	21.68	-40.4	-41.3	20.6	0.00e+00	0	44	0	3798990848	50	4181
2026-01-11 13:35:52.83	1.14	21.56	-40.4	-41.4	20.6	0.00e+00	0	44	0	3806330880	50	4200
2026-01-11 13:35:53.83	1.02	21.43	-40.4	-41.3	20.6	0.00e+00	0	44	0	3813670912	50	4171
2026-01-11 13:35:54.83	0.90	21.31	-40.4	-41.4	20.6	0.00e+00	0	44	0	3821010944	50	4198
2026-01-11 13:35:55.83	0.78	21.19	-40.5	-41.4	20.5	0.00e+00	0	44	0	3828350976	50	4230
2026-01-11 13:35:56.83	0.66	21.07	-40.5	-41.5	20.5	0.00e+00	0	44	0	3835691008	50	4248
2026-01-11 13:35:57.84	0.54	20.95	-40.6	-41.6	20.4	0.00e+00	0	44	0	3843031040	50	4299
2026-01-11 13:35:58.84	0.42	20.83	-40.6	-41.6	20.4	0.00e+00	0	44	0	3849322496	50	4303
2026-01-11 13:35:59.84	0.30	20.71	-40.7	-41.7	20.3	0.00e+00	0	45	0	3856662528	50	4349
2026-01-11 13:36:00.84	0.19	20.59	-40.7	-41.7	20.3	0.00e+00	0	44	0	3864002560	50	4349
2026-01-11 13:36:01.84	0.07	20.47	-40.8	-41.8	20.2	0.00e+00	0	45	0	3871342592	51	4156
2026-01-11 13:36:02.84	359.96	20.35	-40.9	-41.8	20.0	0.00e+00	0	44	0	3878682624	51	4192
2026-01-11 13:36:03.84	359.84	20.23	-41.0	-42.0	20.0	0.00e+00	0	44	0	3886022656	51	4259
2026-01-11 13:36:04.84	359.73	20.12	-41.1	-42.0	19.9	0.00e+00	0	44	0	3893362688	51	4283
2026-01-11 13:36:05.84	359.62	20.00	-41.1	-42.0	19.9	0.00e+00	0	44	0	3900702720	51	4281
2026-01-11 13:36:06.84	359.51	19.88	-41.1	-42.1	19.8	0.00e+00	0	44	0	3908042752	51	4328
2026-01-11 13:36:07.84	359.40	19.77	-41.1	-42.1	19.9	0.00e+00	0	44	0	3914334208	51	4298
2026-01-11 13:36:08.84	359.29	19.65	-41.2	-42.2	19.8	0.00e+00	0	44	0	3921674240	51	4346
2026-01-11 13:36:09.84	359.18	19.54	-41.0	-42.0	20.0	0.00e+00	0	44	0	3929014272	51	4271
2026-01-11 13:36:10.84	359.08	19.42	-41.1	-42.1	19.9	0.00e+00	0	44	0	3936354304	51	4304
2026-01-11 13:36:11.83	358.97	19.31	-41.0	-42.0	20.0	0.00e+00	0	44	0	3943694336	51	4246
2026-01-11 13:36:12.84	358.86	19.19	-40.9	-41.9	20.0	0.00e+00	0	44	0	3951034368	51	4224
2026-01-11 13:36:13.84	358.76	19.08	-40.9	-41.9	20.0	0.00e+00	0	44	0	3958374400	51	4241
2026-01-11 13:36:14.84	358.66	18.97	-40.9	-41.9	20.0	0.00e+00	0	45	0	3965714432	51	4208
2026-01-11 13:36:15.84	358.55	18.85	-40.8	-41.8	20.1	0.00e+00	0	44	0	3973054464	51	4191
2026-01-11 13:36:16.84	358.45	18.74	-40.8	-41.9	20.1	0.00e+00	0	44	0	3979345920	51	4201
2026-01-11 13:36:17.84	358.35	18.63	-40.9	-41.9	20.0	0.00e+00	0	44	0	3986685952	51	4239
2026-01-11 13:36:18.84	358.25	18.52	-40.9	-42.0	20.0	0.00e+00	0	44	0	3994025984	51	4243
2026-01-11 13:36:19.84	358.15	18.41	-41.1	-42.1	19.9	0.00e+00	0	44	0	4001366016	51	4309
2026-01-11 13:36:20.85	358.05	18.29	-41.1	-42.1	19.8	0.00e+00	0	44	0	4008706048	51	4339
2026-01-11 13:36:21.85	357.95	18.18	-41.2	-42.3	19.7	0.00e+00	0	44	0	4016046080	51	4399
2026-01-11 13:36:22.85	357.85	18.07	-41.3	-42.3	19.6	0.00e+00	0	44	0	4023386112	52	4163
2026-01-11 13:36:23.85	357.75	17.96	-41.3	-42.4	19.5	0.00e+00	0	44	0	4030726144	52	4196
2026-01-11 13:36:24.85	357.66	17.86	-41.4	-42.5	19.4	0.00e+00	0	44	0	4037017600	52	4253
2026-01-11 13:36:25.86	357.56	17.75	-41.5	-42.5	19.4	0.00e+00	0	44	0	4044357632	52	4291
2026-01-11 13:36:26.86	357.47	17.64	-41.5	-42.5	19.4	0.00e+00	0	44	0	4051697664	52	4285
2026-01-11 13:36:27.86	357.37	17.53	-41.5	-42.6	19.3	0.00e+00	0	44	0	4059037696	52	4304
2026-01-11 13:36:28.86	357.28	17.42	-41.6	-42.6	19.3	0.00e+00	0	44	0	4066377728	52	4330
2026-01-11 13:36:29.86	357.18	17.31	-41.5	-42.6	19.3	0.00e+00	0	44	0	4073717760	52	4315
2026-01-11 13:36:30.86	357.09	17.21	-41.6	-42.6	19.3	0.00e+00	0	44	0	4081057792	52	4335
2026-01-11 13:36:31.86	357.00	17.10	-41.5	-42.6	19.3	0.00e+00	0	44	0	4088397824	52	4296
2026-01-11 13:36:32.85	356.91	17.00	-41.6	-42.6	19.3	0.00e+00	0	44	0	4095737856	52	4320
2026-01-11 13:36:33.86	356.82	16.89	-41.6	-42.7	19.2	0.00e+00	0	44	0	4102029312	52	4348
2026-01-11 13:36:34.86	356.73	16.78	-41.7	-42.7	19.2	0.00e+00	0	44	0	4109369344	52	4367
2026-01-11 13:36:35.86	356.64	16.68	-41.6	-42.6	19.2	0.00e+00	0	44	0	4116709376	52	4327
2026-01-11 13:36:36.86	356.55	16.58	-41.5	-42.5	19.3	0.00e+00	0	44	0	4124049408	52	4289
2026-01-11 13:36:37.86	356.47	16.47	-41.5	-42.6	19.2	0.00e+00	0	45	0	4131389440	52	4310
2026-01-11 13:36:38.86	356.38	16.37	-41.6	-42.7	19.2	0.00e+00	0	45	0	4138729472	52	4350
2026-01-11 13:36:39.86	356.29	16.26	-41.5	-42.7	19.2	0.00e+00	0	44	0	4146069504	52	4347
2026-01-11 13:36:40.86	356.21	16.16	-41.6	-42.7	19.2	0.00e+00	0	44	0	4153409536	52	4362
2026-01-11 13:36:41.86	356.12	16.06	-41.7	-42.8	19.1	0.00e+00	0	44	0	4160749568	52	4409
2026-01-11 13:36:42.86	356.04	15.96	-41.7	-42.8	19.1	0.00e+00	0	44	0	4167041024	52	4423
2026-01-11 13:36:43.86	355.95	15.85	-41.7	-42.8	19.1	0.00e+00	0	44	0	4175429632	52	4421
2026-01-11 13:36:44.86	355.87	15.75	-41.8	-42.9	19.0	0.00e+00	0	44	0	4182769664	53	4221
2026-01-11 13:36:45.87	355.79	15.65	-41.8	-42.9	19.0	0.00e+00	0	44	0	4189061120	53	4238
2026-01-11 13:36:46.87	355.70	15.55	-41.8	-42.9	19.0	0.00e+00	0	44	0	4196401152	53	4222
2026-01-11 13:36:47.87	355.62	15.45	-41.8	-42.9	19.0	0.00e+00	0	44	0	4203741184	53	4228
2026-01-11 13:36:48.87	355.54	15.35	-41.8	-42.9	19.0	0.00e+00	0	44	0	4211081216	53	4225
2026-01-11 13:36:49.87	355.46	15.25	-41.8	-42.9	19.0	0.00e+00	0	44	0	4218421248	53	4216
2026-01-11 13:36:50.87	355.38	15.15	-41.8	-42.9	18.9	0.00e+00	0	44	0	4225761280	53	4225
2026-01-11 13:36:51.87	355.30	15.05	-41.7	-42.8	18.9	0.00e+00	0	44	0	4233101312	53	4168
2026-01-11 13:36:52.87	355.22	14.95	-41.7	-42.8	18.7	0.00e+00	0	44	0	4240441344	53	4184
2026-01-11 13:36:53.87	355.14	14.85	-41.8	-42.9	18.6	0.00e+00	0	44	0	4246732800	53	4204
2026-01-11 13:36:54.87	355.07	14.76	-41.8	-42.9	18.6	0.00e+00	0	44	0	4254072832	53	4237
2026-01-11 13:36:55.87	354.99	14.66	-42.0	-43.1	18.6	0.00e+00	0	44	0	4261412864	53	4298
2026-01-11 13:36:56.88	354.91	14.56	-41.9	-43.0	18.7	0.00e+00	0	44	0	4268752896	53	4271
2026-01-11 13:36:57.88	354.84	14.46	-41.9	-43.0	18.7	0.00e+00	0	44	0	4276092928	53	4276
2026-01-11 13:36:58.88	354.76	14.37	-42.0	-43.1	18.7	0.00e+00	0	44	0	4283432960	53	4317
2026-01-11 13:36:59.88	354.69	14.27	-42.1	-43.1	18.7	0.00e+00	0	44	0	4290772992	53	4340
2026-01-11 13:37:00.88	354.61	14.17	-42.1	-43.2	18.7	0.00e+00	0	44	0	4298113024	53	4341
2026-01-11 13:37:01.89	354.54	14.08	-42.2	-43.3	18.5	0.00e+00	0	44	0	4305453056	53	4423
2026-01-11 13:37:02.89	354.46	13.98	-42.1	-43.3	18.5	0.00e+00	0	44	0	4311744512	53	4401
2026-01-11 13:37:03.89	354.39	13.89	-42.2	-43.4	18.3	0.00e+00	0	44	0	4319084544	53	4456
2026-01-11 13:37:04.89	354.32	13.79	-42.4	-43.5	18.2	0.00e+00	0	44	0	4326424576	54	4281
2026-01-11 13:37:05.89	354.25	13.70	-42.4	-43.5	18.1	0.00e+00	0	44	0	4333764608	54	4288
2026-01-11 13:37:06.89	354.17	13.60	-42.4	-43.6	18.2	0.00e+00	0	44	0	4341104640	54	4305
2026-01-11 13:37:07.89	354.10	13.51	-42.4	-43.6	18.1	0.00e+00	0	44	0	4348444672	54	4312
2026-01-11 13:37:08.89	354.03	13.42	-42.4	-43.7	18.2	0.00e+00	0	44	0	4355784704	54	4358
2026-01-11 13:37:09.89	353.96	13.32	-42.4	-43.7	17.9	0.00e+00	0	44	0	4363124736	54	4361
2026-01-11 13:37:10.89	353.89	13.23	-42.4	-43.7	17.7	0.00e+00	0	44	0	4369416192	54	4385
2026-01-11 13:37:11.89	353.82	13.14	-42.4	-43.7	17.5	0.00e+00	0	44	0	4376756224	54	4370
2026-01-11 13:37:12.89	353.75	13.05	-42.4	-43.8	17.3	1.10e-06	0	44	0	4384096256	54	4411
2026-01-11 13:37:13.89	353.69	12.95	-42.5	-43.9	17.6	0.00e+00	0	44	0	4391436288	54	4448
2026-01-11 13:37:14.88	353.62	12.86	-42.5	-43.9	17.3	0.00e+00	0	44	0	4398776320	54	4466
2026-01-11 13:37:15.88	353.55	12.77	-42.6	-44.1	17.3	0.00e+00	0	44	0	4406116352	54	4549
2026-01-11 13:37:16.89	353.48	12.68	-42.5	-44.0	17.3	0.00e+00	0	44	0	4413456384	54	4526
2026-01-11 13:37:17.88	353.42	12.59	-42.4	-44.0	17.2	0.00e+00	0	44	0	4420796416	54	4516
2026-01-11 13:37:18.88	353.35	12.50	-42.4	-44.0	17.0	0.00e+00	0	45	0	4428136448	54	4545
2026-01-11 13:37:19.88	353.29	12.41	-42.5	-44.2	16.9	0.00e+00	0	44	0	4434427904	54	4608
2026-01-11 13:37:20.88	353.22	12.32	-42.4	-44.1	16.6	0.00e+00	0	44	0	4441767936	54	4570
2026-01-11 13:37:21.88	353.16	12.23	-42.4	-44.2	16.2	4.11e-05	0	44	0	4449107968	54	4620
2026-01-11 13:37:22.88	353.09	12.14	-42.4	-44.1	16.1	8.58e-05	0	44	0	4456448000	54	4586
2026-01-11 13:37:23.88	353.03	12.05	-42.5	-44.2	15.7	8.06e-04	0	44	0	4463788032	54	4608
2026-01-11 13:37:24.89	352.96	11.96	-42.5	-44.3	15.5	1.79e-03	0	44	0	4471128064	54	4655
2026-01-11 13:37:25.89	352.90	11.88	-42.7	-44.3	15.4	1.95e-03	0	44	0	4478468096	54	4700
2026-01-11 13:37:26.89	352.84	11.79	-42.8	-44.3	15.5	2.17e-03	0	44	0	4485808128	55	4416
2026-01-11 13:37:27.89	352.77	11.70	-42.8	-44.3	15.6	1.22e-03	0	44	0	4493148160	55	4392
2026-01-11 13:37:28.89	352.71	11.61	-42.8	-44.3	15.6	5.02e-04	0	44	0	4499439616	55	4432
2026-01-11 13:37:29.89	352.65	11.52	-43.0	-44.4	17.5	0.00e+00	0	44	0	4506779648	55	4475
2026-01-11 13:37:30.89	352.59	11.44	-43.0	-44.4	17.5	0.00e+00	0	44	0	4514119680	55	4445
2026-01-11 13:37:31.89	352.53	11.35	-43.0	-44.4	17.6	0.00e+00	0	44	0	4521459712	55	4445
2026-01-11 13:37:32.89	352.47	11.26	-43.0	-44.5	17.4	0.00e+00	0	44	0	4528799744	55	4500
2026-01-11 13:37:33.89	352.41	11.18	-43.0	-44.4	17.5	0.00e+00	0	44	0	4536139776	55	4483
2026-01-11 13:37:34.89	352.35	11.09	-43.0	-44.5	17.5	0.00e+00	0	44	0	4543479808	55	4496
2026-01-11 13:37:35.90	352.29	11.01	-43.0	-44.6	17.3	0.00e+00	0	44	0	4550819840	55	4550
2026-01-11 13:37:36.90	352.23	10.92	-42.9	-44.5	17.4	0.00e+00	0	44	0	4557111296	55	4522
2026-01-11 13:37:37.89	352.17	10.84	-43.0	-44.6	17.3	0.00e+00	0	44	0	4564451328	55	4562
2026-01-11 13:37:38.90	352.11	10.75	-43.0	-44.5	17.3	0.00e+00	0	44	0	4571791360	55	4544
2026-01-11 13:37:39.89	352.05	10.67	-42.9	-44.5	16.9	1.10e-06	0	44	0	4579131392	55	4532
2026-01-11 13:37:40.89	352.00	10.58	-43.0	-44.6	16.9	0.00e+00	0	44	0	4586471424	55	4577
2026-01-11 13:37:41.89	351.94	10.50	-43.1	-44.6	16.7	0.00e+00	0	44	0	4593811456	55	4569
2026-01-11 13:37:42.90	351.88	10.41	-43.1	-44.6	16.6	3.40e-06	0	44	0	4601151488	55	4577
2026-01-11 13:37:43.90	351.83	10.33	-43.2	-44.6	16.7	1.10e-06	0	44	0	4608491520	55	4592
2026-01-11 13:37:44.89	351.77	10.25	-43.4	-44.8	16.8	1.10e-06	0	44	0	4615831552	56	4425
2026-01-11 13:37:45.90	351.71	10.16	-43.5	-44.8	16.9	0.00e+00	0	44	0	4622123008	56	4441
2026-01-11 13:37:46.89	351.66	10.08	-43.5	-44.9	17.0	0.00e+00	0	44	0	4629463040	56	4475
2026-01-11 13:37:47.89	351.60	10.00	-43.5	-44.9	17.1	0.00e+00	0	44	0	4636803072	56	4472
2026-01-11 13:37:48.89	351.55	9.92	-43.5	-44.9	17.1	0.00e+00	0	44	0	4644143104	56	4470
2026-01-11 13:37:49.89	351.49	9.84	-43.4	-44.9	17.0	0.00e+00	0	44	0	4651483136	56	4484
2026-01-11 13:37:50.89	351.44	9.75	-43.5	-45.0	16.9	0.00e+00	0	44	0	4658823168	56	4539
2026-01-11 13:37:51.89	351.39	9.67	-43.4	-45.0	16.9	0.00e+00	0	44	0	4666163200	56	4522
2026-01-11 13:37:52.90	351.33	9.59	-43.4	-45.0	16.8	0.00e+00	0	44	0	4673503232	56	4518
2026-01-11 13:37:53.90	351.28	9.51	-43.5	-45.2	16.5	0.00e+00	0	44	0	4680843264	56	4625
2026-01-11 13:37:54.89	351.23	9.43	-43.4	-45.1	16.9	0.00e+00	0	44	0	4687134720	56	4568
2026-01-11 13:37:55.89	351.17	9.35	-43.4	-45.0	17.0	0.00e+00	0	44	0	4694474752	56	4535
