passes_logs/2026/01/11/T1/T1__20260111_082959_KHAYYAM_rec.log

#Pass ID: 20260111_082959_KHAYYAM
#Satellite: KHAYYAM
#Configuration: KHAYYAM_480M
#almurnet v.1.7.20251203
#Start time: 2026-01-11 08:30:00

#Version: 2.0.20230620
#Station: T1
#Location: 37.570604 lon 55.790049 lat
#TLE: 1 53370U 22096A   26010.95337424  .00006048  00000+0  24667-3 0  9998
#TLE: 2 53370  97.3557 278.0363 0001314  97.6112 262.5275 15.24798026190621

#Time	Az	El	Level	Level2	SNR	BER	BlckErr	Temp	State	Recorded	gain1	gain2
2026-01-11 08:30:00.91	188.89	5.08	-51.3	-56.2	3.4	0.00e+00	0	46	0	0	74	25034
2026-01-11 08:30:01.90	188.96	5.15	-51.3	-56.2	3.7	0.00e+00	0	46	104	0	73	26527
2026-01-11 08:30:02.91	189.03	5.23	-51.3	-56.2	3.7	0.00e+00	0	46	104	0	73	26380
2026-01-11 08:30:03.91	189.10	5.31	-51.3	-56.3	3.7	0.00e+00	0	46	104	0	73	26632
2026-01-11 08:30:04.90	189.17	5.39	-51.3	-56.2	3.7	0.00e+00	0	46	104	0	73	26538
2026-01-11 08:30:05.90	189.24	5.47	-51.3	-56.2	3.7	0.00e+00	0	46	104	0	73	26479
2026-01-11 08:30:06.90	189.31	5.55	-51.3	-56.2	3.7	0.00e+00	0	47	104	0	73	26514
2026-01-11 08:30:07.90	189.39	5.63	-51.3	-56.2	3.7	0.00e+00	0	46	104	0	73	26479
2026-01-11 08:30:08.89	189.46	5.71	-51.3	-56.2	3.7	0.00e+00	0	46	104	0	73	26366
2026-01-11 08:30:09.89	189.53	5.79	-51.3	-56.3	3.7	0.00e+00	0	47	104	0	73	26595
2026-01-11 08:30:10.89	189.60	5.87	-51.3	-56.2	3.7	0.00e+00	0	47	104	0	73	26510
2026-01-11 08:30:11.89	189.68	5.95	-51.3	-56.2	3.7	0.00e+00	0	47	104	0	73	26440
2026-01-11 08:30:12.89	189.75	6.03	-51.3	-56.2	3.7	0.00e+00	0	47	104	0	73	26525
2026-01-11 08:30:13.89	189.83	6.11	-51.3	-56.3	3.7	0.00e+00	0	47	104	0	73	26614
2026-01-11 08:30:14.89	189.90	6.19	-51.3	-56.2	3.7	0.00e+00	0	47	104	0	73	26481
2026-01-11 08:30:15.89	189.98	6.27	-51.3	-56.2	3.7	0.00e+00	0	47	104	0	73	26571
2026-01-11 08:30:16.89	190.05	6.36	-51.3	-56.2	3.7	0.00e+00	0	47	104	0	73	26389
2026-01-11 08:30:17.89	190.13	6.44	-51.3	-56.2	3.7	0.00e+00	0	47	104	0	73	26494
2026-01-11 08:30:18.89	190.21	6.52	-51.3	-56.2	3.7	0.00e+00	0	47	104	0	73	26455
2026-01-11 08:30:19.89	190.28	6.61	-51.3	-56.2	3.6	0.00e+00	0	48	104	0	73	26491
2026-01-11 08:30:20.89	190.36	6.69	-51.3	-56.2	3.7	0.00e+00	0	48	104	0	73	26518
2026-01-11 08:30:21.88	190.44	6.77	-51.3	-56.2	3.7	0.00e+00	0	48	104	0	73	26499
2026-01-11 08:30:22.88	190.52	6.86	-51.3	-56.2	3.7	0.00e+00	0	48	104	0	73	26403
2026-01-11 08:30:23.88	190.60	6.94	-51.3	-56.2	3.7	0.00e+00	0	48	104	0	73	26444
2026-01-11 08:30:24.88	190.68	7.03	-51.3	-56.2	3.7	0.00e+00	0	48	104	0	73	26466
2026-01-11 08:30:25.88	190.76	7.11	-51.3	-56.2	3.7	0.00e+00	0	48	104	0	73	26516
2026-01-11 08:30:26.88	190.84	7.20	-51.3	-56.2	3.7	0.00e+00	0	48	104	0	73	26566
2026-01-11 08:30:27.88	190.93	7.28	-51.3	-56.2	3.7	0.00e+00	0	48	104	0	73	26518
2026-01-11 08:30:28.87	191.01	7.37	-51.3	-56.2	3.7	0.00e+00	0	48	104	0	73	26515
2026-01-11 08:30:29.88	191.09	7.46	-51.3	-56.3	3.7	0.00e+00	0	48	104	0	73	26660
2026-01-11 08:30:30.88	191.18	7.54	-51.3	-56.2	3.7	0.00e+00	0	48	104	0	73	26546
2026-01-11 08:30:31.87	191.26	7.63	-51.3	-56.2	3.7	0.00e+00	0	48	104	0	73	26573
2026-01-11 08:30:32.88	191.35	7.72	-51.3	-56.3	3.7	0.00e+00	0	49	104	0	73	26687
2026-01-11 08:30:33.88	191.43	7.81	-51.3	-56.2	3.7	0.00e+00	0	48	104	0	73	26519
2026-01-11 08:30:34.88	191.52	7.90	-51.3	-56.2	3.7	0.00e+00	0	48	104	0	73	26466
2026-01-11 08:30:35.88	191.61	7.99	-51.3	-56.3	3.7	0.00e+00	0	48	104	0	73	26630
2026-01-11 08:30:36.88	191.69	8.08	-51.3	-56.3	3.7	0.00e+00	0	49	104	0	73	26600
2026-01-11 08:30:37.88	191.78	8.17	-51.3	-56.2	3.7	0.00e+00	0	49	104	0	73	26573
2026-01-11 08:30:38.88	191.87	8.26	-51.3	-56.2	3.7	0.00e+00	0	49	104	0	73	26568
2026-01-11 08:30:39.88	191.96	8.35	-51.3	-56.3	3.7	0.00e+00	0	49	104	0	73	26591
2026-01-11 08:30:40.88	192.05	8.44	-51.3	-56.2	3.7	0.00e+00	0	49	104	0	73	26493
2026-01-11 08:30:41.88	192.14	8.53	-51.3	-56.3	3.7	0.00e+00	0	49	104	0	73	26585
2026-01-11 08:30:42.87	192.24	8.62	-51.4	-56.2	3.7	0.00e+00	0	49	104	0	73	26563
2026-01-11 08:30:43.87	192.33	8.71	-51.3	-56.2	3.7	0.00e+00	0	49	104	0	73	26574
2026-01-11 08:30:44.88	192.42	8.81	-51.3	-56.2	3.7	0.00e+00	0	49	104	0	73	26538
2026-01-11 08:30:45.87	192.52	8.90	-51.4	-56.3	3.7	0.00e+00	0	49	104	0	73	26618
2026-01-11 08:30:46.88	192.61	8.99	-51.4	-56.3	3.7	0.00e+00	0	49	104	0	73	26594
2026-01-11 08:30:47.88	192.71	9.09	-51.2	-56.3	3.7	0.00e+00	0	49	104	0	73	26764
2026-01-11 08:30:48.88	192.80	9.18	-51.3	-56.2	3.7	0.00e+00	0	49	104	0	73	26407
2026-01-11 08:30:49.87	192.90	9.27	-51.2	-56.3	3.7	0.00e+00	0	49	104	0	73	26810
2026-01-11 08:30:50.87	193.00	9.37	-51.4	-56.5	3.7	0.00e+00	0	49	104	0	73	27411
2026-01-11 08:30:51.87	193.10	9.46	-51.3	-56.3	3.7	0.00e+00	0	49	104	0	73	26870
2026-01-11 08:30:52.87	193.19	9.56	-51.2	-56.2	3.7	0.00e+00	0	49	104	0	73	26487
2026-01-11 08:30:53.87	193.29	9.66	-51.5	-56.5	3.7	0.00e+00	0	49	104	0	73	27209
2026-01-11 08:30:54.87	193.40	9.75	-51.8	-56.7	3.7	0.00e+00	0	49	104	0	74	26327
2026-01-11 08:30:55.87	193.50	9.85	-51.4	-56.5	3.7	0.00e+00	0	49	104	0	74	25729
2026-01-11 08:30:56.87	193.60	9.95	-51.4	-56.5	3.7	0.00e+00	0	49	104	0	74	25760
2026-01-11 08:30:57.87	193.70	10.05	-51.8	-56.7	3.7	0.00e+00	0	49	104	0	74	26520
2026-01-11 08:30:58.87	193.81	10.15	-51.7	-56.8	3.7	0.00e+00	0	50	104	0	74	26615
2026-01-11 08:30:59.86	193.91	10.24	-51.7	-56.6	3.7	0.00e+00	0	50	104	0	74	26229
2026-01-11 08:31:00.86	194.02	10.34	-51.8	-56.8	3.7	0.00e+00	0	50	104	0	74	26636
2026-01-11 08:31:01.86	194.12	10.44	-51.6	-56.7	3.7	0.00e+00	0	49	104	0	74	26434
2026-01-11 08:31:02.85	194.23	10.54	-51.8	-56.8	3.7	0.00e+00	0	50	104	0	74	26632
2026-01-11 08:31:03.85	194.34	10.64	-51.7	-56.7	3.7	0.00e+00	0	50	104	0	74	26409
2026-01-11 08:31:04.85	194.45	10.75	-51.8	-56.6	3.7	0.00e+00	0	50	104	0	74	26224
2026-01-11 08:31:05.85	194.56	10.85	-51.8	-56.7	3.7	0.00e+00	0	50	104	0	74	26511
2026-01-11 08:31:06.85	194.67	10.95	-51.7	-56.6	3.7	0.00e+00	0	50	104	0	74	26181
2026-01-11 08:31:07.85	194.78	11.05	-51.8	-56.7	3.7	0.00e+00	0	50	104	0	74	26520
2026-01-11 08:31:08.85	194.90	11.16	-51.5	-56.5	3.6	0.00e+00	0	50	104	0	74	25768
2026-01-11 08:31:09.85	195.01	11.26	-51.7	-56.5	3.7	0.00e+00	0	50	104	0	74	25867
2026-01-11 08:31:10.85	195.12	11.37	-51.8	-56.5	3.7	0.00e+00	0	50	104	0	74	25949
2026-01-11 08:31:11.85	195.24	11.47	-51.6	-56.5	3.7	0.00e+00	0	50	104	0	74	25862
2026-01-11 08:31:12.85	195.36	11.58	-51.7	-56.5	3.7	0.00e+00	0	50	104	0	74	25884
2026-01-11 08:31:13.85	195.48	11.68	-51.8	-56.5	3.7	0.00e+00	0	50	104	0	74	25908
2026-01-11 08:31:14.85	195.60	11.79	-52.1	-56.8	3.7	0.00e+00	0	50	104	0	74	26604
2026-01-11 08:31:15.85	195.72	11.90	-51.9	-56.6	3.7	0.00e+00	0	50	104	0	75	24673
2026-01-11 08:31:16.85	195.84	12.00	-52.1	-56.6	3.7	0.00e+00	0	50	104	0	75	24681
2026-01-11 08:31:17.85	195.96	12.11	-52.2	-56.9	3.7	0.00e+00	0	50	104	0	75	25500
2026-01-11 08:31:18.85	196.08	12.22	-52.3	-56.8	3.7	0.00e+00	0	50	104	0	75	25322
2026-01-11 08:31:19.84	196.20	12.33	-52.2	-56.8	3.7	0.00e+00	0	50	104	0	75	25178
2026-01-11 08:31:20.84	196.33	12.44	-52.0	-56.5	3.7	0.00e+00	0	50	104	0	75	24456
2026-01-11 08:31:21.85	196.46	12.55	-52.4	-57.0	3.7	0.00e+00	0	50	104	0	75	25841
2026-01-11 08:31:22.84	196.58	12.66	-52.0	-56.7	3.7	0.00e+00	0	50	104	0	75	24929
2026-01-11 08:31:23.84	196.71	12.77	-52.2	-56.7	3.7	0.00e+00	0	50	104	0	75	25061
2026-01-11 08:31:24.84	196.84	12.88	-52.0	-56.5	3.7	0.00e+00	0	50	104	0	75	24427
2026-01-11 08:31:25.84	196.97	13.00	-52.0	-56.8	3.7	0.00e+00	0	50	104	0	75	25095
2026-01-11 08:31:26.84	197.11	13.11	-51.9	-56.7	3.7	0.00e+00	0	50	104	0	75	24972
2026-01-11 08:31:27.84	197.24	13.22	-51.9	-56.6	3.7	0.00e+00	0	50	104	0	75	24631
2026-01-11 08:31:28.84	197.37	13.34	-51.7	-56.5	3.7	0.00e+00	0	50	104	0	75	24246
2026-01-11 08:31:29.84	197.51	13.45	-51.9	-56.8	3.7	0.00e+00	0	50	104	0	75	25151
2026-01-11 08:31:30.84	197.65	13.57	-52.0	-56.8	3.7	0.00e+00	0	50	104	0	75	25245
2026-01-11 08:31:31.85	197.79	13.69	-51.9	-56.7	3.7	0.00e+00	0	50	104	0	75	25010
2026-01-11 08:31:32.85	197.93	13.80	-51.8	-56.7	3.7	0.00e+00	0	50	104	0	75	25084
2026-01-11 08:31:33.85	198.07	13.92	-52.0	-56.8	3.7	0.00e+00	0	50	104	0	75	25315
2026-01-11 08:31:34.84	198.21	14.04	-52.2	-56.9	3.7	0.00e+00	0	50	104	0	75	25533
2026-01-11 08:31:35.84	198.35	14.16	-52.1	-56.8	3.7	0.00e+00	0	50	104	0	75	25353
2026-01-11 08:31:36.84	198.50	14.27	-52.2	-57.0	3.7	0.00e+00	0	50	104	0	75	25933
2026-01-11 08:31:37.84	198.64	14.39	-52.1	-56.8	3.7	0.00e+00	0	50	104	0	75	25239
2026-01-11 08:31:38.84	198.79	14.51	-52.7	-57.3	3.7	0.00e+00	0	50	104	0	76	25234
2026-01-11 08:31:39.84	198.94	14.64	-52.4	-57.1	3.7	0.00e+00	0	50	104	0	76	24685
2026-01-11 08:31:40.83	199.09	14.76	-52.7	-57.5	3.7	0.00e+00	0	51	104	0	76	25684
2026-01-11 08:31:41.83	199.24	14.88	-52.9	-57.3	3.7	0.00e+00	0	50	104	0	76	25143
2026-01-11 08:31:42.83	199.40	15.00	-53.2	-57.6	3.7	0.00e+00	0	50	104	0	77	24683
2026-01-11 08:31:43.83	199.55	15.13	-52.9	-57.3	3.7	0.00e+00	0	50	104	0	77	23910
2026-01-11 08:31:44.83	199.71	15.25	-53.1	-57.4	3.7	0.00e+00	0	51	104	0	77	24036
2026-01-11 08:31:45.84	199.87	15.38	-44.4	-45.6	10.6	6.44e-04	0	51	0	33554432	59	17433
2026-01-11 08:31:46.84	200.03	15.50	-36.6	-37.5	16.5	1.68e-02	0	51	0	100663296	45	15375
2026-01-11 08:31:47.83	200.19	15.63	-44.5	-45.7	10.3	0.00e+00	0	51	0	159383552	60	16641
2026-01-11 08:31:48.83	200.35	15.75	-37.4	-38.4	15.8	3.09e-03	0	51	0	218103808	47	15167
2026-01-11 08:31:49.83	200.51	15.88	-35.5	-36.4	16.9	0.00e+00	0	51	0	276824064	43	15154
2026-01-11 08:31:50.83	200.68	16.01	-34.3	-35.2	17.5	0.00e+00	0	51	0	335544320	40	15819
2026-01-11 08:31:51.83	200.85	16.14	-33.8	-34.7	17.8	0.00e+00	0	51	0	394264576	39	15670
2026-01-11 08:31:52.83	201.02	16.27	-33.8	-34.7	17.7	0.00e+00	0	51	0	452984832	39	15734
2026-01-11 08:31:53.83	201.19	16.40	-33.7	-34.6	17.8	0.00e+00	0	51	0	520093696	39	15503
2026-01-11 08:31:54.84	201.36	16.53	-33.4	-34.3	18.0	0.00e+00	0	51	0	578813952	38	15837
2026-01-11 08:31:55.84	201.54	16.67	-33.1	-34.0	18.3	0.00e+00	0	51	0	637534208	38	15352
2026-01-11 08:31:56.83	201.71	16.80	-33.0	-33.9	18.3	0.00e+00	0	51	0	696254464	38	15237
2026-01-11 08:31:57.83	201.89	16.93	-33.1	-34.0	18.3	0.00e+00	0	51	0	754974720	38	15311
2026-01-11 08:31:58.83	202.07	17.06	-33.2	-34.1	18.3	0.00e+00	0	51	0	813694976	38	15535
2026-01-11 08:31:59.84	202.25	17.20	-33.2	-34.1	18.2	0.00e+00	0	51	0	880803840	38	15600
2026-01-11 08:32:00.83	202.43	17.33	-33.1	-34.0	18.4	0.00e+00	0	52	0	939524096	38	15402
2026-01-11 08:32:01.83	202.62	17.47	-32.9	-33.8	18.5	0.00e+00	0	51	0	998244352	37	15938
2026-01-11 08:32:02.83	202.81	17.61	-32.9	-33.8	18.6	0.00e+00	0	52	0	1056964608	37	15849
2026-01-11 08:32:03.82	202.99	17.74	-33.0	-33.9	18.5	0.00e+00	0	52	0	1115684864	37	16020
2026-01-11 08:32:04.82	203.19	17.88	-32.8	-33.7	18.6	0.00e+00	0	52	0	1174405120	37	15717
2026-01-11 08:32:05.82	203.38	18.02	-32.8	-33.7	18.6	0.00e+00	0	52	0	1233125376	37	15760
2026-01-11 08:32:06.82	203.57	18.16	-32.8	-33.7	18.6	0.00e+00	0	52	0	1300234240	37	15768
2026-01-11 08:32:07.82	203.77	18.30	-32.8	-33.7	18.6	0.00e+00	0	52	0	1358954496	37	15721
2026-01-11 08:32:08.81	203.97	18.44	-32.5	-33.4	18.7	0.00e+00	0	52	0	1417674752	37	15235
2026-01-11 08:32:09.82	204.17	18.59	-32.5	-33.4	18.7	0.00e+00	0	52	0	1476395008	36	16031
2026-01-11 08:32:10.81	204.37	18.73	-32.4	-33.3	18.8	0.00e+00	0	52	0	1535115264	36	15955
2026-01-11 08:32:11.82	204.58	18.87	-32.4	-33.3	18.7	0.00e+00	0	52	0	1593835520	36	15931
2026-01-11 08:32:12.81	204.79	19.01	-32.3	-33.2	18.8	0.00e+00	0	52	0	1660944384	36	15710
2026-01-11 08:32:13.81	205.00	19.16	-32.4	-33.2	18.8	0.00e+00	0	52	0	1719664640	36	15832
2026-01-11 08:32:14.81	205.21	19.31	-32.3	-33.2	18.9	0.00e+00	0	52	0	1778384896	36	15715
2026-01-11 08:32:15.81	205.43	19.45	-32.1	-33.0	19.0	0.00e+00	0	52	0	1837105152	36	15368
2026-01-11 08:32:16.80	205.64	19.60	-32.2	-33.1	19.0	0.00e+00	0	52	0	1895825408	36	15480
2026-01-11 08:32:17.80	205.86	19.75	-32.1	-33.0	19.1	0.00e+00	0	52	0	1954545664	36	15337
2026-01-11 08:32:18.80	206.08	19.90	-32.1	-33.0	19.1	0.00e+00	0	52	0	2013265920	36	15313
2026-01-11 08:32:19.80	206.31	20.04	-30.7	-31.6	18.8	0.00e+00	0	52	0	2071986176	33	15537
2026-01-11 08:32:20.80	206.54	20.19	-30.8	-31.7	18.6	0.00e+00	0	52	0	2130706432	33	15672
2026-01-11 08:32:21.80	206.76	20.35	-30.6	-31.5	18.8	0.00e+00	0	52	0	2197815296	33	15356
2026-01-11 08:32:22.81	207.00	20.50	-30.6	-31.5	18.8	0.00e+00	0	52	0	2256535552	33	15330
2026-01-11 08:32:23.80	207.23	20.65	-30.5	-31.3	18.9	0.00e+00	0	52	0	2315255808	33	15106
2026-01-11 08:32:24.80	207.47	20.80	-30.4	-31.2	19.0	0.00e+00	0	52	0	2373976064	32	15826
2026-01-11 08:32:25.80	207.71	20.96	-30.3	-31.2	19.0	0.00e+00	0	52	0	2432696320	32	15760
2026-01-11 08:32:26.80	207.95	21.11	-30.2	-31.1	19.0	0.00e+00	0	52	0	2491416576	32	15476
2026-01-11 08:32:27.81	208.20	21.27	-30.2	-31.0	19.1	0.00e+00	0	52	0	2550136832	32	15447
2026-01-11 08:32:28.80	208.45	21.42	-30.1	-31.0	18.9	0.00e+00	0	52	0	2617245696	32	15332
2026-01-11 08:32:29.80	208.70	21.58	-30.1	-30.9	19.0	0.00e+00	0	52	0	2675965952	32	15294
2026-01-11 08:32:30.81	208.95	21.74	-30.0	-30.9	19.0	0.00e+00	0	52	0	2734686208	32	15202
2026-01-11 08:32:31.80	209.21	21.90	-29.8	-30.7	19.0	0.00e+00	0	52	0	2793406464	31	15747
2026-01-11 08:32:32.80	209.47	22.06	-29.9	-30.7	19.1	0.00e+00	0	52	0	2852126720	31	15776
2026-01-11 08:32:33.80	209.73	22.22	-29.7	-30.6	19.1	0.00e+00	0	52	0	2910846976	31	15577
2026-01-11 08:32:34.80	210.00	22.38	-29.7	-30.5	19.2	0.00e+00	0	52	0	2977955840	31	15445
2026-01-11 08:32:35.79	210.26	22.54	-29.6	-30.5	19.1	0.00e+00	0	52	0	3036676096	31	15385
2026-01-11 08:32:36.79	210.53	22.70	-29.5	-30.4	19.2	0.00e+00	0	52	0	3095396352	31	15218
2026-01-11 08:32:37.79	210.81	22.86	-29.5	-30.4	19.3	0.00e+00	0	52	0	3154116608	31	15207
2026-01-11 08:32:38.79	211.09	23.02	-29.5	-30.3	19.3	0.00e+00	0	52	0	3212836864	31	15068
2026-01-11 08:32:39.79	211.37	23.19	-29.4	-30.2	19.3	0.00e+00	0	52	0	3271557120	30	15832
2026-01-11 08:32:40.78	211.65	23.35	-29.2	-30.1	19.4	0.00e+00	0	52	0	3330277376	30	15496
2026-01-11 08:32:41.79	211.94	23.52	-29.3	-30.1	19.3	0.00e+00	0	52	0	3397386240	30	15609
2026-01-11 08:32:42.79	212.23	23.68	-29.3	-30.1	19.3	0.00e+00	0	52	0	3456106496	30	15609
2026-01-11 08:32:43.79	212.53	23.85	-29.2	-30.1	19.4	0.00e+00	0	52	0	3514826752	30	15482
2026-01-11 08:32:44.78	212.83	24.02	-29.0	-29.8	19.6	0.00e+00	0	52	0	3573547008	30	15104
2026-01-11 08:32:45.78	213.13	24.18	-28.9	-29.7	19.6	0.00e+00	0	52	0	3632267264	29	15781
2026-01-11 08:32:46.78	213.43	24.35	-28.9	-29.7	19.7	0.00e+00	0	52	0	3690987520	29	15821
2026-01-11 08:32:47.79	213.75	24.52	-29.1	-29.9	19.5	0.00e+00	0	52	0	3758096384	29	16142
2026-01-11 08:32:48.78	214.06	24.69	-28.9	-29.7	19.5	0.00e+00	0	52	0	3816816640	29	15816
2026-01-11 08:32:49.78	214.37	24.86	-28.7	-29.6	19.7	0.00e+00	0	52	0	3875536896	29	15511
2026-01-11 08:32:50.78	214.69	25.03	-28.7	-29.5	19.7	0.00e+00	0	52	0	3934257152	29	15395
2026-01-11 08:32:51.78	215.02	25.20	-28.7	-29.5	19.8	0.00e+00	0	52	0	3992977408	29	15440
2026-01-11 08:32:52.77	215.34	25.37	-28.5	-29.4	19.8	0.00e+00	0	52	0	4051697664	29	15191
2026-01-11 08:32:53.78	215.68	25.54	-28.5	-29.3	19.8	0.00e+00	0	52	0	4110417920	29	15116
2026-01-11 08:32:54.78	216.01	25.72	-28.5	-29.4	19.8	0.00e+00	0	52	0	4177526784	29	15145
2026-01-11 08:32:55.77	216.35	25.89	-28.6	-29.4	19.8	0.00e+00	0	52	0	4236247040	29	15251
2026-01-11 08:32:56.77	216.69	26.06	-28.3	-29.2	19.9	0.00e+00	0	52	0	4294967296	28	15689
2026-01-11 08:32:57.77	217.04	26.23	-28.3	-29.1	19.8	0.00e+00	0	52	0	4353687552	28	15610
2026-01-11 08:32:58.76	217.39	26.40	-28.3	-29.2	19.8	0.00e+00	0	52	0	4412407808	28	15679
2026-01-11 08:32:59.76	217.75	26.58	-28.4	-29.2	19.8	0.00e+00	0	52	0	4471128064	28	15819
2026-01-11 08:33:00.76	218.11	26.75	-28.1	-29.0	20.0	0.00e+00	0	53	0	4529848320	28	15351
2026-01-11 08:33:01.76	218.47	26.93	-28.2	-29.1	19.8	0.00e+00	0	52	0	4596957184	28	15479
2026-01-11 08:33:02.76	218.84	27.10	-28.1	-28.9	19.9	0.00e+00	0	52	0	4655677440	28	15218
2026-01-11 08:33:03.76	219.22	27.28	-28.0	-28.8	20.0	0.00e+00	0	52	0	4714397696	27	16005
2026-01-11 08:33:04.75	219.59	27.45	-28.0	-28.9	20.1	0.00e+00	0	53	0	4773117952	27	16043
2026-01-11 08:33:05.75	219.97	27.62	-28.1	-28.9	20.0	0.00e+00	0	53	0	4831838208	27	16102
2026-01-11 08:33:06.75	220.36	27.80	-28.1	-29.0	20.0	0.00e+00	0	52	0	4890558464	27	16233
2026-01-11 08:33:07.75	220.75	27.98	-28.0	-28.8	20.1	0.00e+00	0	52	0	4949278720	27	15948
2026-01-11 08:33:08.74	221.14	28.15	-28.0	-28.9	20.1	0.00e+00	0	53	0	5007998976	27	16097
2026-01-11 08:33:09.74	221.55	28.32	-28.0	-28.9	20.0	0.00e+00	0	52	0	5075107840	27	16042
2026-01-11 08:33:10.74	221.95	28.50	-27.7	-28.6	20.2	0.00e+00	0	52	0	5133828096	27	15504
2026-01-11 08:33:11.74	222.36	28.67	-27.9	-28.7	20.2	0.00e+00	0	52	0	5192548352	27	15770
2026-01-11 08:33:12.74	222.78	28.85	-27.7	-28.6	20.4	0.00e+00	0	52	0	5251268608	27	15519
2026-01-11 08:33:13.74	223.20	29.02	-27.8	-28.6	20.2	0.00e+00	0	53	0	5309988864	27	15585
2026-01-11 08:33:14.74	223.62	29.20	-27.6	-28.4	20.3	0.00e+00	0	52	0	5368709120	27	15265
2026-01-11 08:33:15.74	224.06	29.37	-27.6	-28.4	20.5	0.00e+00	0	53	0	5427429376	27	15274
2026-01-11 08:33:16.73	224.49	29.54	-27.5	-28.4	20.3	0.00e+00	0	53	0	5494538240	27	15198
2026-01-11 08:33:17.73	224.93	29.72	-27.3	-28.1	20.5	0.00e+00	0	53	0	5553258496	26	15652
2026-01-11 08:33:18.73	225.37	29.89	-27.2	-28.1	20.6	0.00e+00	0	53	0	5611978752	26	15544
2026-01-11 08:33:19.73	225.82	30.06	-27.4	-28.2	20.3	0.00e+00	0	53	0	5670699008	26	15826
2026-01-11 08:33:20.73	226.28	30.23	-27.1	-28.0	20.5	0.00e+00	0	53	0	5729419264	26	15310
2026-01-11 08:33:21.72	226.74	30.40	-27.1	-28.0	20.5	0.00e+00	0	52	0	5788139520	26	15302
2026-01-11 08:33:22.72	227.20	30.57	-27.1	-27.9	20.6	0.00e+00	0	53	0	5855248384	26	15265
2026-01-11 08:33:23.72	227.67	30.74	-27.0	-27.8	20.5	0.00e+00	0	52	0	5913968640	26	15070
2026-01-11 08:33:24.71	228.15	30.91	-27.0	-27.8	20.5	0.00e+00	0	53	0	5972688896	25	15959
2026-01-11 08:33:25.71	228.63	31.07	-27.0	-27.8	20.5	0.00e+00	0	52	0	6031409152	25	16006
2026-01-11 08:33:26.71	229.12	31.24	-26.9	-27.7	20.5	0.00e+00	0	53	0	6090129408	25	15824
2026-01-11 08:33:27.71	229.61	31.41	-26.8	-27.6	20.6	0.00e+00	0	52	0	6148849664	25	15563
2026-01-11 08:33:28.71	230.11	31.57	-26.9	-27.7	20.7	0.00e+00	0	52	0	6207569920	25	15741
2026-01-11 08:33:29.71	230.61	31.73	-26.7	-27.5	20.6	0.00e+00	0	53	0	6274678784	25	15397
2026-01-11 08:33:30.71	231.12	31.90	-26.7	-27.5	20.7	0.00e+00	0	53	0	6325010432	25	15391
2026-01-11 08:33:31.71	231.63	32.06	-26.7	-27.5	20.7	0.00e+00	0	53	0	6392119296	25	15413
2026-01-11 08:33:32.70	232.15	32.22	-26.6	-27.5	20.6	0.00e+00	0	53	0	6450839552	25	15348
2026-01-11 08:33:33.70	232.67	32.37	-26.5	-27.3	20.7	0.00e+00	0	53	0	6509559808	25	15092
2026-01-11 08:33:34.70	233.20	32.53	-26.6	-27.4	20.5	0.00e+00	0	53	0	6568280064	25	15227
2026-01-11 08:33:35.70	233.74	32.69	-26.4	-27.3	20.8	0.00e+00	0	53	0	6627000320	24	15867
2026-01-11 08:33:36.70	234.28	32.84	-26.5	-27.4	20.8	0.00e+00	0	53	0	6685720576	24	16031
2026-01-11 08:33:37.70	234.83	32.99	-26.5	-27.4	20.6	0.00e+00	0	53	0	6744440832	24	16075
2026-01-11 08:33:38.70	235.38	33.14	-26.4	-27.3	20.8	0.00e+00	0	53	0	6811549696	24	15838
2026-01-11 08:33:39.70	235.94	33.29	-26.4	-27.2	20.8	0.00e+00	0	53	0	6870269952	24	15766
2026-01-11 08:33:40.69	236.50	33.43	-26.5	-27.4	20.6	0.00e+00	0	53	0	6928990208	24	16054
2026-01-11 08:33:41.70	237.07	33.58	-26.2	-27.1	20.9	0.00e+00	0	53	0	6987710464	24	15529
2026-01-11 08:33:42.69	237.64	33.72	-26.4	-27.3	20.7	0.00e+00	0	53	0	7046430720	24	15840
2026-01-11 08:33:43.69	238.22	33.85	-26.4	-27.2	20.8	0.00e+00	0	53	0	7105150976	24	15755
2026-01-11 08:33:44.69	238.80	33.99	-26.1	-26.9	21.0	0.00e+00	0	53	0	7172259840	24	15260
2026-01-11 08:33:45.69	239.39	34.13	-26.2	-27.0	20.8	0.00e+00	0	53	0	7230980096	24	15380
2026-01-11 08:33:46.69	239.98	34.26	-26.0	-26.8	21.1	0.00e+00	0	53	0	7289700352	24	15066
2026-01-11 08:33:47.69	240.58	34.39	-26.1	-26.9	20.8	0.00e+00	0	53	0	7348420608	24	15256
2026-01-11 08:33:48.69	241.19	34.51	-26.1	-26.9	21.0	0.00e+00	0	53	0	7407140864	24	15295
2026-01-11 08:33:49.69	241.80	34.64	-25.9	-26.8	21.2	0.00e+00	0	53	0	7465861120	23	15876
2026-01-11 08:33:50.69	242.41	34.76	-26.1	-26.9	21.0	0.00e+00	0	53	0	7524581376	23	16135
2026-01-11 08:33:51.69	243.03	34.88	-26.1	-27.0	21.0	0.00e+00	0	53	0	7591690240	23	16229
2026-01-11 08:33:52.69	243.65	34.99	-26.0	-26.8	20.9	0.00e+00	0	53	0	7650410496	24	15068
2026-01-11 08:33:53.68	244.27	35.10	-25.9	-26.8	21.0	0.00e+00	0	53	0	7709130752	23	15850
2026-01-11 08:33:54.68	244.91	35.21	-26.1	-26.9	21.1	0.00e+00	0	53	0	7767851008	23	16082
2026-01-11 08:33:55.68	245.54	35.31	-25.8	-26.6	21.2	0.00e+00	0	53	0	7826571264	23	15586
2026-01-11 08:33:56.68	246.18	35.42	-25.9	-26.7	21.3	0.00e+00	0	53	0	7885291520	23	15801
2026-01-11 08:33:57.67	246.82	35.51	-25.7	-26.6	21.3	0.00e+00	0	53	0	7944011776	23	15502
2026-01-11 08:33:58.67	247.47	35.61	-25.8	-26.6	21.3	0.00e+00	0	53	0	8011120640	23	15636
2026-01-11 08:33:59.67	248.13	35.70	-25.9	-26.7	21.2	0.00e+00	0	53	0	8069840896	23	15755
2026-01-11 08:34:00.66	248.78	35.79	-25.6	-26.4	21.4	0.00e+00	0	53	0	8128561152	23	15274
2026-01-11 08:34:01.67	249.44	35.87	-25.7	-26.6	21.4	0.00e+00	0	53	0	8187281408	23	15498
2026-01-11 08:34:02.67	250.11	35.95	-25.8	-26.6	21.2	0.00e+00	0	53	0	8246001664	23	15611
2026-01-11 08:34:03.67	250.77	36.03	-25.6	-26.5	21.5	0.00e+00	0	53	0	8304721920	23	15330
2026-01-11 08:34:04.66	251.44	36.10	-25.7	-26.5	21.3	0.00e+00	0	53	0	8371830784	23	15412
2026-01-11 08:34:05.66	252.11	36.17	-25.5	-26.4	21.5	0.00e+00	0	53	0	8430551040	23	15126
2026-01-11 08:34:06.66	252.79	36.23	-25.5	-26.4	21.3	0.00e+00	0	53	0	8489271296	23	15177
2026-01-11 08:34:07.66	253.47	36.29	-25.7	-26.5	21.3	0.00e+00	0	53	0	8547991552	23	15421
2026-01-11 08:34:08.65	254.14	36.35	-25.5	-26.3	21.4	0.00e+00	0	53	0	8606711808	23	15038
2026-01-11 08:34:09.65	254.82	36.40	-25.6	-26.4	21.3	0.00e+00	0	53	0	8665432064	23	15268
2026-01-11 08:34:10.65	255.51	36.45	-25.7	-26.5	21.1	0.00e+00	0	53	0	8724152320	23	15449
2026-01-11 08:34:11.65	256.20	36.49	-25.5	-26.4	21.3	0.00e+00	0	53	0	8782872576	22	16092
2026-01-11 08:34:12.65	256.89	36.53	-25.7	-26.5	21.3	0.00e+00	0	53	0	8841592832	22	16297
2026-01-11 08:34:13.65	257.58	36.57	-25.4	-26.3	21.4	0.00e+00	0	53	0	8908701696	22	15887
2026-01-11 08:34:14.65	258.27	36.60	-25.6	-26.4	21.4	0.00e+00	0	53	0	8967421952	22	16169
2026-01-11 08:34:15.64	258.96	36.62	-25.7	-26.5	21.3	0.00e+00	0	53	0	9026142208	22	16315
2026-01-11 08:34:16.64	259.65	36.64	-25.4	-26.3	21.5	0.00e+00	0	53	0	9084862464	22	15864
2026-01-11 08:34:17.64	260.35	36.66	-25.5	-26.4	21.5	0.00e+00	0	53	0	9143582720	22	16080
2026-01-11 08:34:18.64	261.05	36.68	-25.7	-26.6	21.4	0.00e+00	0	53	0	9202302976	22	16450
2026-01-11 08:34:19.64	261.74	36.68	-25.5	-26.3	21.6	0.00e+00	0	53	0	9261023232	23	15045
2026-01-11 08:34:20.64	262.44	36.69	-25.6	-26.4	21.6	0.00e+00	0	53	0	9328132096	23	15275
2026-01-11 08:34:21.63	263.13	36.69	-25.7	-26.6	21.5	0.00e+00	0	53	0	9386852352	23	15513
2026-01-11 08:34:22.63	263.83	36.68	-25.5	-26.4	21.7	0.00e+00	0	53	0	9445572608	23	15147
2026-01-11 08:34:23.63	264.52	36.67	-25.6	-26.4	21.6	0.00e+00	0	53	0	9504292864	23	15293
2026-01-11 08:34:24.63	265.22	36.66	-25.8	-26.7	21.5	0.00e+00	0	53	0	9563013120	23	15695
2026-01-11 08:34:25.62	265.91	36.64	-25.6	-26.4	21.6	0.00e+00	0	53	0	9621733376	23	15227
2026-01-11 08:34:26.63	266.61	36.62	-25.7	-26.5	21.6	0.00e+00	0	53	0	9688842240	23	15388
2026-01-11 08:34:27.63	267.30	36.59	-25.8	-26.7	21.5	0.00e+00	0	53	0	9747562496	23	15662
2026-01-11 08:34:28.63	268.00	36.56	-25.6	-26.5	21.5	0.00e+00	0	53	0	9806282752	23	15327
2026-01-11 08:34:29.63	268.69	36.52	-25.8	-26.6	21.4	0.00e+00	0	53	0	9865003008	23	15588
2026-01-11 08:34:30.63	269.37	36.48	-25.9	-26.7	21.3	0.00e+00	0	53	0	9923723264	23	15754
2026-01-11 08:34:31.63	270.06	36.44	-25.8	-26.7	21.3	0.00e+00	0	53	0	9982443520	23	15680
2026-01-11 08:34:32.63	270.75	36.39	-25.8	-26.7	21.3	0.00e+00	0	53	0	10041163776	23	15690
2026-01-11 08:34:33.63	271.43	36.33	-26.1	-26.9	21.3	0.00e+00	0	53	0	10108272640	23	16132
2026-01-11 08:34:34.62	272.10	36.28	-25.8	-26.6	21.5	0.00e+00	0	53	0	10166992896	23	15547
2026-01-11 08:34:35.62	272.78	36.22	-26.0	-26.8	21.4	0.00e+00	0	53	0	10225713152	23	15956
2026-01-11 08:34:36.62	273.45	36.15	-26.1	-26.9	21.4	0.00e+00	0	53	0	10284433408	24	15244
2026-01-11 08:34:37.62	274.12	36.08	-25.9	-26.7	21.5	0.00e+00	0	53	0	10343153664	23	15811
2026-01-11 08:34:38.62	274.79	36.01	-25.9	-26.8	21.5	0.00e+00	0	53	0	10401873920	23	15885
2026-01-11 08:34:39.62	275.46	35.93	-26.0	-26.9	21.4	0.00e+00	0	53	0	10468982784	23	16081
2026-01-11 08:34:40.61	276.11	35.85	-26.2	-27.0	21.4	0.00e+00	0	53	0	10527703040	24	15409
2026-01-11 08:34:41.61	276.77	35.77	-25.9	-26.8	21.5	0.00e+00	0	53	0	10586423296	23	15879
2026-01-11 08:34:42.61	277.43	35.68	-26.0	-26.9	21.4	0.00e+00	0	53	0	10645143552	24	15151
2026-01-11 08:34:43.61	278.08	35.58	-26.2	-27.1	21.4	0.00e+00	0	53	0	10703863808	24	15534
2026-01-11 08:34:44.61	278.72	35.49	-26.1	-26.9	21.5	0.00e+00	0	53	0	10762584064	24	15249
2026-01-11 08:34:45.61	279.36	35.39	-26.2	-27.0	21.5	0.00e+00	0	53	0	10821304320	24	15365
2026-01-11 08:34:46.61	280.00	35.29	-26.3	-27.1	21.4	0.00e+00	0	53	0	10888413184	24	15623
2026-01-11 08:34:47.61	280.64	35.18	-26.4	-27.2	21.3	0.00e+00	0	53	0	10947133440	24	15719
2026-01-11 08:34:48.62	281.27	35.07	-26.2	-27.0	21.5	0.00e+00	0	53	0	11005853696	24	15461
2026-01-11 08:34:49.62	281.90	34.96	-26.5	-27.3	21.4	0.00e+00	0	53	0	11064573952	24	15970
2026-01-11 08:34:50.62	282.52	34.84	-54.1	-58.5	3.7	0.00e+00	0	53	104	11114905600	78	25735
2026-01-11 08:34:51.61	283.13	34.73	-54.2	-58.6	3.7	0.00e+00	0	52	104	11114905600	78	26021
2026-01-11 08:34:52.61	283.74	34.61	-54.1	-58.5	3.7	0.00e+00	0	52	104	11114905600	78	25723
2026-01-11 08:34:53.60	284.34	34.48	-54.0	-58.5	3.7	0.00e+00	0	52	104	11114905600	78	25721
2026-01-11 08:34:54.60	284.94	34.36	-53.9	-58.5	3.7	0.00e+00	0	52	104	11114905600	78	25752
2026-01-11 08:34:55.60	285.54	34.23	-53.9	-58.5	3.7	0.00e+00	0	53	104	11114905600	78	25733
2026-01-11 08:34:56.60	286.13	34.10	-53.9	-58.5	3.7	0.00e+00	0	53	104	11114905600	78	25822
2026-01-11 08:34:57.60	286.71	33.96	-54.0	-58.5	3.7	0.00e+00	0	52	104	11114905600	78	25779
2026-01-11 08:34:58.60	287.29	33.83	-54.1	-58.5	3.7	0.00e+00	0	52	104	11114905600	78	25963
2026-01-11 08:34:59.60	287.87	33.69	-54.1	-58.5	3.7	0.00e+00	0	52	104	11114905600	78	25932
2026-01-11 08:35:00.59	288.43	33.55	-54.1	-58.6	3.7	0.00e+00	0	52	104	11114905600	78	26018
2026-01-11 08:35:01.59	289.00	33.40	-54.0	-58.6	3.7	0.00e+00	0	52	104	11114905600	78	26059
2026-01-11 08:35:02.59	289.56	33.26	-54.0	-58.6	3.7	0.00e+00	0	52	104	11114905600	78	26046
2026-01-11 08:35:03.59	290.11	33.11	-53.9	-58.5	3.7	0.00e+00	0	52	104	11114905600	78	25766
2026-01-11 08:35:04.58	290.66	32.96	-53.8	-58.4	3.7	0.00e+00	0	52	104	11114905600	78	25564
2026-01-11 08:35:05.58	291.20	32.81	-53.7	-58.3	3.7	0.00e+00	0	53	104	11114905600	78	25353
2026-01-11 08:35:06.59	291.74	32.66	-53.9	-58.4	3.7	0.00e+00	0	52	104	11114905600	78	25403
2026-01-11 08:35:07.58	292.27	32.50	-54.0	-58.3	3.7	0.00e+00	0	52	104	11114905600	78	25383
2026-01-11 08:35:08.58	292.80	32.35	-54.0	-58.4	3.7	0.00e+00	0	52	104	11114905600	78	25457
2026-01-11 08:35:09.58	293.32	32.19	-53.8	-58.2	3.7	0.00e+00	0	52	104	11114905600	78	25023
2026-01-11 08:35:10.58	293.84	32.03	-53.6	-58.2	3.7	0.00e+00	0	52	104	11114905600	78	25038
2026-01-11 08:35:11.58	294.35	31.87	-53.5	-58.2	3.7	0.00e+00	0	52	104	11114905600	78	24950
2026-01-11 08:35:12.58	294.85	31.71	-53.5	-58.2	3.7	0.00e+00	0	52	104	11114905600	78	24839
2026-01-11 08:35:13.58	295.35	31.55	-53.7	-58.2	3.7	0.00e+00	0	52	104	11114905600	78	25012
2026-01-11 08:35:14.57	295.84	31.39	-54.0	-58.5	3.7	0.00e+00	0	52	104	11114905600	78	25726
2026-01-11 08:35:15.57	296.33	31.22	-54.0	-58.5	3.7	0.00e+00	0	52	104	11114905600	78	25694
2026-01-11 08:35:16.57	296.82	31.05	-53.9	-58.4	3.6	0.00e+00	0	52	104	11114905600	78	25418
2026-01-11 08:35:17.57	297.30	30.89	-53.7	-58.1	3.7	0.00e+00	0	52	104	11114905600	78	24725
2026-01-11 08:35:18.57	297.77	30.72	-53.6	-57.9	3.7	0.00e+00	0	52	104	11114905600	78	24161
2026-01-11 08:35:19.57	298.24	30.55	-53.7	-58.0	3.7	0.00e+00	0	52	104	11114905600	78	24489
2026-01-11 08:35:20.57	298.70	30.38	-53.8	-58.2	3.7	0.00e+00	0	52	104	11114905600	78	25005
2026-01-11 08:35:21.57	299.16	30.21	-53.7	-58.2	3.7	0.00e+00	0	52	104	11114905600	78	25080
2026-01-11 08:35:22.57	299.61	30.04	-53.5	-58.1	3.7	0.00e+00	0	52	104	11114905600	78	24576
2026-01-11 08:35:23.57	300.06	29.87	-53.5	-58.0	3.7	0.00e+00	0	52	104	11114905600	78	24460
2026-01-11 08:35:24.57	300.50	29.70	-53.5	-58.0	3.7	0.00e+00	0	52	104	11114905600	78	24368
2026-01-11 08:35:25.57	300.94	29.53	-53.3	-57.8	3.7	0.00e+00	0	52	104	11114905600	78	23736
2026-01-11 08:35:26.57	301.37	29.35	-53.2	-57.8	3.7	0.00e+00	0	52	104	11114905600	78	23845
2026-01-11 08:35:27.56	301.79	29.18	-53.2	-57.8	3.7	0.00e+00	0	52	104	11114905600	78	23943
2026-01-11 08:35:28.56	302.22	29.01	-53.4	-57.9	3.7	0.00e+00	0	52	104	11114905600	78	24122
2026-01-11 08:35:29.56	302.63	28.84	-53.6	-58.1	3.7	0.00e+00	0	52	104	11114905600	78	24525
2026-01-11 08:35:30.56	303.05	28.66	-53.7	-58.0	3.7	0.00e+00	0	52	104	11114905600	78	24491
2026-01-11 08:35:31.56	303.45	28.49	-53.7	-58.0	3.7	0.00e+00	0	52	104	11114905600	78	24495
2026-01-11 08:35:32.56	303.86	28.32	-53.7	-58.1	3.7	0.00e+00	0	52	104	11114905600	78	24731
2026-01-11 08:35:33.56	304.26	28.14	-53.9	-58.3	3.7	0.00e+00	0	52	104	11114905600	78	25378
2026-01-11 08:35:34.56	304.65	27.97	-53.7	-58.2	3.7	0.00e+00	0	52	104	11114905600	78	24934
2026-01-11 08:35:35.56	305.04	27.79	-53.7	-58.2	3.7	0.00e+00	0	52	104	11114905600	78	24934
2026-01-11 08:35:36.56	305.42	27.62	-53.7	-58.1	3.7	0.00e+00	0	52	104	11114905600	78	24599
2026-01-11 08:35:37.56	305.80	27.45	-53.8	-58.1	3.7	0.00e+00	0	52	104	11114905600	78	24762
2026-01-11 08:35:38.56	306.18	27.27	-53.8	-58.2	3.7	0.00e+00	0	52	104	11114905600	78	25086
2026-01-11 08:35:39.56	306.55	27.10	-53.9	-58.3	3.7	0.00e+00	0	52	104	11114905600	78	25311
2026-01-11 08:35:40.56	306.92	26.93	-53.9	-58.4	3.7	0.00e+00	0	52	104	11114905600	78	25454
2026-01-11 08:35:41.55	307.27	26.76	-53.8	-58.2	3.7	0.00e+00	0	52	104	11114905600	78	25060
2026-01-11 08:35:42.55	307.63	26.58	-53.5	-58.1	3.7	0.00e+00	0	52	104	11114905600	78	24746
2026-01-11 08:35:43.55	307.99	26.41	-53.4	-58.0	3.7	0.00e+00	0	52	104	11114905600	78	24349
2026-01-11 08:35:44.55	308.34	26.24	-53.4	-57.9	3.7	0.00e+00	0	52	104	11114905600	78	24225
2026-01-11 08:35:45.55	308.68	26.07	-53.7	-58.1	3.7	0.00e+00	0	52	104	11114905600	78	24779
2026-01-11 08:35:46.55	309.02	25.89	-53.8	-58.3	3.7	0.00e+00	0	52	104	11114905600	78	25237
2026-01-11 08:35:47.55	309.36	25.72	-53.8	-58.3	3.7	0.00e+00	0	52	104	11114905600	78	25312
2026-01-11 08:35:48.55	309.69	25.55	-53.8	-58.3	3.7	0.00e+00	0	52	104	11114905600	78	25308
2026-01-11 08:35:49.55	310.02	25.38	-53.4	-57.8	3.7	0.00e+00	0	52	104	11114905600	78	23857
2026-01-11 08:35:50.54	310.35	25.21	-53.1	-57.6	3.7	0.00e+00	0	52	104	11114905600	78	23345
2026-01-11 08:35:51.54	310.67	25.04	-53.0	-57.5	3.7	0.00e+00	0	52	104	11114905600	77	24369
2026-01-11 08:35:52.54	310.99	24.88	-53.0	-57.5	3.7	0.00e+00	0	52	104	11114905600	77	24377
2026-01-11 08:35:53.54	311.30	24.71	-52.8	-57.6	3.7	0.00e+00	0	52	104	11114905600	77	24644
2026-01-11 08:35:54.53	311.61	24.54	-52.5	-57.6	3.7	0.00e+00	0	52	104	11114905600	77	24543
2026-01-11 08:35:55.54	311.92	24.37	-52.5	-57.5	3.7	0.00e+00	0	52	104	11114905600	76	25970
2026-01-11 08:35:56.54	312.22	24.20	-52.5	-57.5	3.7	0.00e+00	0	52	104	11114905600	76	25894
2026-01-11 08:35:57.53	312.52	24.04	-52.5	-57.4	3.7	0.00e+00	0	52	104	11114905600	76	25547
2026-01-11 08:35:58.54	312.82	23.87	-52.9	-57.6	3.7	0.00e+00	0	52	104	11114905600	76	26054
2026-01-11 08:35:59.53	313.11	23.71	-52.9	-57.6	3.7	0.00e+00	0	52	104	11114905600	76	26138
2026-01-11 08:36:00.54	313.40	23.54	-52.9	-57.5	3.7	0.00e+00	0	52	104	11114905600	76	25973
2026-01-11 08:36:01.54	313.69	23.38	-53.1	-57.8	3.7	0.00e+00	0	52	104	11114905600	76	26661
2026-01-11 08:36:02.54	313.97	23.22	-53.2	-57.8	3.7	0.00e+00	0	52	104	11114905600	77	25112
2026-01-11 08:36:03.54	314.25	23.05	-53.1	-57.6	3.7	0.00e+00	0	52	104	11114905600	77	24786
2026-01-11 08:36:04.54	314.53	22.89	-53.2	-57.6	3.7	0.00e+00	0	52	104	11114905600	77	24595
2026-01-11 08:36:05.53	314.80	22.73	-53.2	-57.7	3.7	0.00e+00	0	52	104	11114905600	77	25030
2026-01-11 08:36:06.54	315.07	22.57	-53.2	-57.8	3.7	0.00e+00	0	52	104	11114905600	77	25159
2026-01-11 08:36:07.54	315.34	22.41	-53.3	-57.9	3.7	0.00e+00	0	52	104	11114905600	77	25476
2026-01-11 08:36:08.54	315.60	22.25	-53.2	-57.8	3.7	0.00e+00	0	52	104	11114905600	77	25353
2026-01-11 08:36:09.54	315.86	22.09	-52.9	-57.6	3.7	0.00e+00	0	52	104	11114905600	77	24547
2026-01-11 08:36:10.54	316.12	21.94	-52.6	-57.3	3.7	0.00e+00	0	52	104	11114905600	77	23908
2026-01-11 08:36:11.54	316.38	21.78	-52.6	-57.4	3.7	0.00e+00	0	52	104	11114905600	77	23975
2026-01-11 08:36:12.54	316.63	21.62	-52.5	-57.3	3.7	0.00e+00	0	52	104	11114905600	77	23923
2026-01-11 08:36:13.54	316.88	21.47	-52.9	-57.7	3.7	0.00e+00	0	52	104	11114905600	77	25001
2026-01-11 08:36:14.54	317.12	21.31	-53.3	-57.9	3.7	0.00e+00	0	52	104	11114905600	77	25430
2026-01-11 08:36:15.54	317.37	21.16	-53.3	-57.8	3.7	0.00e+00	0	52	104	11114905600	77	25357
2026-01-11 08:36:16.54	317.61	21.00	-53.3	-57.9	3.7	0.00e+00	0	52	104	11114905600	77	25542
2026-01-11 08:36:17.54	317.85	20.85	-53.2	-57.8	3.7	0.00e+00	0	52	104	11114905600	77	25225
2026-01-11 08:36:18.53	318.08	20.70	-53.2	-57.8	3.7	0.00e+00	0	52	104	11114905600	77	25343
2026-01-11 08:36:19.53	318.32	20.55	-53.1	-57.8	3.7	0.00e+00	0	52	104	11114905600	77	25208
2026-01-11 08:36:20.53	318.55	20.40	-53.1	-57.7	3.7	0.00e+00	0	52	104	11114905600	77	25060
2026-01-11 08:36:21.53	318.77	20.25	-53.1	-57.8	3.7	0.00e+00	0	52	104	11114905600	77	25108
2026-01-11 08:36:22.53	319.00	20.10	-52.9	-57.8	3.7	0.00e+00	0	52	104	11114905600	77	25109
2026-01-11 08:36:23.53	319.22	19.95	-52.7	-57.7	3.7	0.00e+00	0	52	104	11114905600	76	26363
2026-01-11 08:36:24.53	319.44	19.80	-52.4	-57.5	3.7	0.00e+00	0	52	104	11114905600	76	25972
2026-01-11 08:36:25.53	319.66	19.66	-52.3	-57.5	3.7	0.00e+00	0	52	104	11114905600	76	25936
2026-01-11 08:36:26.53	319.88	19.51	-52.1	-57.4	3.7	0.00e+00	0	52	104	11114905600	76	25511
2026-01-11 08:36:27.53	320.09	19.37	-52.0	-57.3	3.7	0.00e+00	0	52	104	11114905600	75	26608
2026-01-11 08:36:28.53	320.30	19.22	-51.9	-57.3	3.7	0.00e+00	0	52	104	11114905600	75	26726
2026-01-11 08:36:29.53	320.51	19.08	-52.0	-57.3	3.7	0.00e+00	0	52	104	11114905600	75	26652
2026-01-11 08:36:30.53	320.72	18.93	-52.4	-57.5	3.7	0.00e+00	0	52	104	11114905600	75	27291
2026-01-11 08:36:31.52	320.92	18.79	-52.7	-57.6	3.7	0.00e+00	0	52	104	11114905600	76	26273
2026-01-11 08:36:32.52	321.13	18.65	-52.7	-57.7	3.7	0.00e+00	0	52	104	11114905600	76	26522
2026-01-11 08:36:33.52	321.33	18.51	-53.2	-58.0	3.7	0.00e+00	0	52	104	11114905600	77	25962
2026-01-11 08:36:34.51	321.52	18.37	-53.6	-58.3	3.7	0.00e+00	0	52	104	11114905600	77	26684
2026-01-11 08:36:35.51	321.72	18.23	-53.5	-58.3	3.7	0.00e+00	0	52	104	11114905600	77	26642
2026-01-11 08:36:36.51	321.91	18.09	-53.4	-58.1	3.7	0.00e+00	0	52	104	11114905600	77	26266
2026-01-11 08:36:37.51	322.11	17.96	-53.6	-58.2	3.7	0.00e+00	0	52	104	11114905600	77	26505
2026-01-11 08:36:38.51	322.30	17.82	-53.6	-58.2	3.7	0.00e+00	0	52	104	11114905600	77	26489
2026-01-11 08:36:39.52	322.49	17.68	-53.7	-58.2	3.7	0.00e+00	0	52	104	11114905600	77	26461
2026-01-11 08:36:40.52	322.67	17.54	-53.6	-58.1	3.7	0.00e+00	0	52	104	11114905600	77	26214
2026-01-11 08:36:41.51	322.86	17.41	-53.0	-57.9	3.7	0.00e+00	0	52	104	11114905600	77	25661
2026-01-11 08:36:42.51	323.04	17.28	-52.3	-57.5	3.7	0.00e+00	0	52	104	11114905600	76	25958
2026-01-11 08:36:43.51	323.22	17.14	-51.9	-57.3	3.7	0.00e+00	0	52	104	11114905600	75	26739
2026-01-11 08:36:44.51	323.40	17.01	-52.0	-57.3	3.7	0.00e+00	0	52	104	11114905600	75	26689
2026-01-11 08:36:45.51	323.58	16.88	-52.1	-57.4	3.7	0.00e+00	0	52	104	11114905600	75	27000
2026-01-11 08:36:46.51	323.75	16.75	-52.5	-57.6	3.7	0.00e+00	0	52	104	11114905600	75	27711
2026-01-11 08:36:47.50	323.92	16.62	-52.7	-57.6	3.7	0.00e+00	0	52	104	11114905600	76	26229
2026-01-11 08:36:48.50	324.10	16.49	-53.1	-57.8	3.7	0.00e+00	0	52	104	11114905600	76	26725
2026-01-11 08:36:49.50	324.27	16.36	-53.1	-57.8	3.7	0.00e+00	0	52	104	11114905600	76	26796
2026-01-11 08:36:50.50	324.43	16.23	-53.2	-57.9	3.7	0.00e+00	0	52	104	11114905600	77	25577
2026-01-11 08:36:51.50	324.60	16.10	-53.2	-58.1	3.7	0.00e+00	0	52	104	11114905600	77	25991
2026-01-11 08:36:52.50	324.77	15.97	-53.2	-58.0	3.7	0.00e+00	0	52	104	11114905600	77	25865
2026-01-11 08:36:53.49	324.93	15.85	-53.2	-57.9	3.7	0.00e+00	0	52	104	11114905600	77	25641
2026-01-11 08:36:54.49	325.09	15.72	-52.9	-57.9	3.7	0.00e+00	0	52	104	11114905600	77	25459
2026-01-11 08:36:55.49	325.25	15.60	-52.3	-57.4	3.7	0.00e+00	0	52	104	11114905600	76	25488
2026-01-11 08:36:56.49	325.41	15.47	-51.8	-57.1	3.7	0.00e+00	0	52	104	11114905600	75	26020
2026-01-11 08:36:57.49	325.57	15.35	-51.3	-56.7	3.7	0.00e+00	0	52	104	11114905600	74	26418
2026-01-11 08:36:58.48	325.72	15.22	-50.9	-56.5	3.7	0.00e+00	0	52	104	11114905600	73	27250
2026-01-11 08:36:59.48	325.88	15.10	-50.8	-56.5	3.7	0.00e+00	0	52	104	11114905600	73	27365
2026-01-11 08:37:00.48	326.03	14.98	-50.7	-56.5	3.7	0.00e+00	0	52	104	11114905600	73	27280
2026-01-11 08:37:01.48	326.18	14.86	-50.5	-56.4	3.7	0.00e+00	0	52	104	11114905600	73	26953
2026-01-11 08:37:02.47	326.33	14.74	-51.1	-56.8	3.7	0.00e+00	0	52	104	11114905600	73	28264
2026-01-11 08:37:03.47	326.48	14.62	-51.5	-57.1	3.7	0.00e+00	0	52	104	11114905600	74	27526
2026-01-11 08:37:04.47	326.63	14.50	-50.8	-56.5	3.7	0.00e+00	0	52	104	11114905600	73	27479
2026-01-11 08:37:05.47	326.77	14.38	-51.1	-56.7	3.7	0.00e+00	0	52	104	11114905600	73	28133
2026-01-11 08:37:06.46	326.92	14.26	-51.4	-57.0	3.7	0.00e+00	0	52	104	11114905600	73	29128
2026-01-11 08:37:07.46	327.06	14.14	-51.6	-57.2	3.7	0.00e+00	0	52	104	11114905600	73	29608
2026-01-11 08:37:08.46	327.20	14.03	-52.0	-57.4	3.7	0.00e+00	0	52	104	11114905600	74	28597
2026-01-11 08:37:09.46	327.34	13.91	-52.5	-57.7	3.7	0.00e+00	0	52	104	11114905600	75	28109
2026-01-11 08:37:10.46	327.48	13.79	-52.9	-57.9	3.7	0.00e+00	0	52	104	11114905600	76	27085
2026-01-11 08:37:11.45	327.62	13.68	-52.4	-57.6	3.7	0.00e+00	0	52	104	11114905600	76	26134
2026-01-11 08:37:12.45	327.76	13.57	-52.5	-57.7	3.7	0.00e+00	0	52	104	11114905600	76	26364
2026-01-11 08:37:13.45	327.89	13.45	-52.4	-57.5	3.7	0.00e+00	0	52	104	11114905600	76	25964
2026-01-11 08:37:14.45	328.03	13.34	-52.5	-57.6	3.7	0.00e+00	0	52	104	11114905600	76	26213
2026-01-11 08:37:15.45	328.16	13.22	-52.3	-57.5	3.7	0.00e+00	0	52	104	11114905600	76	25810
2026-01-11 08:37:16.45	328.29	13.11	-52.6	-57.7	3.7	0.00e+00	0	52	104	11114905600	76	26461
2026-01-11 08:37:17.44	328.42	13.00	-53.3	-57.9	3.7	0.00e+00	0	52	104	11114905600	77	25557
2026-01-11 08:37:18.44	328.55	12.89	-53.3	-58.0	3.7	0.00e+00	0	52	104	11114905600	77	25709
2026-01-11 08:37:19.44	328.68	12.78	-53.1	-58.0	3.7	0.00e+00	0	52	104	11114905600	77	25767
2026-01-11 08:37:20.44	328.81	12.67	-53.1	-57.9	3.7	0.00e+00	0	52	104	11114905600	77	25643
2026-01-11 08:37:21.44	328.93	12.56	-52.0	-57.1	3.7	0.00e+00	0	52	104	11114905600	76	24631
2026-01-11 08:37:22.44	329.06	12.45	-51.5	-56.7	3.7	0.00e+00	0	52	104	11114905600	74	26348
2026-01-11 08:37:23.44	329.18	12.34	-51.1	-56.5	3.7	0.00e+00	0	52	104	11114905600	74	25818
2026-01-11 08:37:24.44	329.31	12.23	-51.4	-56.6	3.7	0.00e+00	0	52	104	11114905600	74	26192
2026-01-11 08:37:25.43	329.43	12.13	-52.0	-57.0	3.7	0.00e+00	0	52	104	11114905600	74	27501
2026-01-11 08:37:26.44	329.55	12.02	-52.4	-57.3	3.7	0.00e+00	0	52	104	11114905600	75	26824
2026-01-11 08:37:27.44	329.67	11.91	-52.5	-57.6	3.7	0.00e+00	0	52	104	11114905600	75	27647
2026-01-11 08:37:28.44	329.79	11.81	-53.0	-57.9	3.7	0.00e+00	0	52	104	11114905600	76	27031
2026-01-11 08:37:29.44	329.91	11.70	-53.0	-57.8	3.7	0.00e+00	0	52	104	11114905600	76	26867
2026-01-11 08:37:30.44	330.02	11.60	-52.7	-57.8	3.7	0.00e+00	0	52	104	11114905600	76	26645
2026-01-11 08:37:31.44	330.14	11.49	-53.0	-57.8	3.7	0.00e+00	0	52	104	11114905600	76	26668
2026-01-11 08:37:32.44	330.25	11.39	-52.4	-57.3	3.7	0.00e+00	0	52	104	11114905600	76	25130
2026-01-11 08:37:33.44	330.37	11.29	-52.3	-57.3	3.7	0.00e+00	0	52	104	11114905600	76	25137
2026-01-11 08:37:34.44	330.48	11.18	-52.5	-57.4	3.7	0.00e+00	0	52	104	11114905600	76	25492
2026-01-11 08:37:35.43	330.59	11.08	-52.2	-57.3	3.7	0.00e+00	0	52	104	11114905600	76	25191
2026-01-11 08:37:36.43	330.70	10.98	-52.2	-57.3	3.7	0.00e+00	0	52	104	11114905600	76	25245
2026-01-11 08:37:37.43	330.81	10.88	-52.2	-57.4	3.7	0.00e+00	0	52	104	11114905600	76	25386
2026-01-11 08:37:38.43	330.92	10.78	-52.7	-57.6	3.7	0.00e+00	0	52	104	11114905600	76	26086
2026-01-11 08:37:39.43	331.03	10.68	-53.1	-57.8	3.7	0.00e+00	0	52	104	11114905600	76	26868
2026-01-11 08:37:40.43	331.14	10.58	-52.5	-57.5	3.7	0.00e+00	0	52	104	11114905600	76	25783
2026-01-11 08:37:41.43	331.25	10.48	-52.2	-57.3	3.7	0.00e+00	0	52	104	11114905600	76	25211
2026-01-11 08:37:42.42	331.35	10.38	-52.8	-57.7	3.7	0.00e+00	0	52	104	11114905600	76	26551
2026-01-11 08:37:43.42	331.46	10.28	-53.1	-57.7	3.7	0.00e+00	0	52	104	11114905600	76	26536
2026-01-11 08:37:44.42	331.56	10.18	-53.1	-58.0	3.7	0.00e+00	0	52	104	11114905600	76	27417
2026-01-11 08:37:45.42	331.67	10.09	-53.1	-57.9	3.7	0.00e+00	0	52	104	11114905600	77	25614
2026-01-11 08:37:46.42	331.77	9.99	-53.0	-58.0	3.7	0.00e+00	0	52	104	11114905600	77	25731
2026-01-11 08:37:47.42	331.87	9.89	-52.3	-57.5	3.7	0.00e+00	0	52	104	11114905600	76	25841
2026-01-11 08:37:48.42	331.97	9.80	-52.0	-57.4	3.7	0.00e+00	0	52	104	11114905600	75	26996
2026-01-11 08:37:49.41	332.07	9.70	-52.5	-57.6	3.7	0.00e+00	0	51	104	11114905600	76	26238
2026-01-11 08:37:50.41	332.17	9.61	-51.7	-57.2	3.7	0.00e+00	0	52	104	11114905600	75	26458
2026-01-11 08:37:51.41	332.27	9.51	-51.8	-57.2	3.7	0.00e+00	0	52	104	11114905600	75	26331
2026-01-11 08:37:52.41	332.37	9.42	-51.9	-57.3	3.7	0.00e+00	0	52	104	11114905600	75	26878
2026-01-11 08:37:53.41	332.46	9.32	-52.2	-57.5	3.7	0.00e+00	0	52	104	11114905600	75	27327
2026-01-11 08:37:54.41	332.56	9.23	-52.6	-57.7	3.7	0.00e+00	0	52	104	11114905600	75	27872
2026-01-11 08:37:55.40	332.66	9.14	-52.6	-57.7	3.7	0.00e+00	0	52	104	11114905600	75	27927
2026-01-11 08:37:56.40	332.75	9.04	-52.7	-57.5	3.7	0.00e+00	0	52	104	11114905600	76	25874
2026-01-11 08:37:57.40	332.85	8.95	-52.6	-57.6	3.7	0.00e+00	0	52	104	11114905600	77	24612
2026-01-11 08:37:58.40	332.94	8.86	-51.6	-56.9	3.7	0.00e+00	0	52	104	11114905600	74	26915
2026-01-11 08:37:59.41	333.03	8.77	-51.6	-56.9	3.7	0.00e+00	0	52	104	11114905600	75	25462
2026-01-11 08:38:00.41	333.13	8.68	-53.6	-58.2	3.7	0.00e+00	0	52	104	11114905600	77	26545
2026-01-11 08:38:01.41	333.22	8.59	-53.5	-58.1	3.7	0.00e+00	0	52	104	11114905600	77	26269
2026-01-11 08:38:02.41	333.31	8.49	-52.4	-57.6	3.7	0.00e+00	0	52	104	11114905600	76	26068
2026-01-11 08:38:03.41	333.40	8.40	-53.1	-57.7	3.7	0.00e+00	0	52	104	11114905600	77	24923
2026-01-11 08:38:04.41	333.49	8.31	-52.4	-57.6	3.7	0.00e+00	0	52	104	11114905600	76	26041
2026-01-11 08:38:05.41	333.58	8.23	-53.9	-58.3	3.7	0.00e+00	0	52	104	11114905600	78	25227
2026-01-11 08:38:06.41	333.66	8.14	-53.8	-58.4	3.7	0.00e+00	0	52	104	11114905600	78	25655
2026-01-11 08:38:07.40	333.75	8.05	-53.8	-58.2	3.7	0.00e+00	0	52	104	11114905600	78	24994
2026-01-11 08:38:08.40	333.84	7.96	-53.2	-58.1	3.7	0.00e+00	0	52	104	11114905600	78	24629
2026-01-11 08:38:09.40	333.92	7.87	-53.9	-58.5	3.7	0.00e+00	0	52	104	11114905600	78	25794
2026-01-11 08:38:10.41	334.01	7.78	-53.7	-58.5	3.7	0.00e+00	0	52	104	11114905600	79	24269
2026-01-11 08:38:11.41	334.10	7.70	-54.0	-58.7	3.7	0.00e+00	0	52	104	11114905600	79	24949
2026-01-11 08:38:12.40	334.18	7.61	-54.2	-58.8	3.7	0.00e+00	0	52	104	11114905600	79	25364
2026-01-11 08:38:13.40	334.26	7.53	-54.3	-58.9	3.7	0.00e+00	0	52	104	11114905600	79	25479
2026-01-11 08:38:14.40	334.35	7.44	-54.5	-59.0	3.7	0.00e+00	0	52	104	11114905600	79	25747
2026-01-11 08:38:15.40	334.43	7.35	-54.1	-58.7	3.7	0.00e+00	0	52	104	11114905600	79	24958
2026-01-11 08:38:16.41	334.51	7.27	-54.2	-58.7	3.7	0.00e+00	0	52	104	11114905600	79	25043
2026-01-11 08:38:17.41	334.59	7.18	-54.0	-58.5	3.7	0.00e+00	0	52	104	11114905600	79	24472
2026-01-11 08:38:18.41	334.68	7.10	-54.0	-58.3	3.7	0.00e+00	0	52	104	11114905600	79	23753
2026-01-11 08:38:19.41	334.76	7.01	-53.4	-57.9	3.7	0.00e+00	0	52	104	11114905600	78	24161
2026-01-11 08:38:20.40	334.84	6.93	-53.7	-58.1	3.7	0.00e+00	0	52	104	11114905600	78	24763
2026-01-11 08:38:21.40	334.91	6.85	-53.7	-58.1	3.7	0.00e+00	0	52	104	11114905600	78	24716
2026-01-11 08:38:22.40	334.99	6.76	-53.7	-58.1	3.7	0.00e+00	0	52	104	11114905600	78	24623
2026-01-11 08:38:23.41	335.07	6.68	-53.7	-58.1	3.7	0.00e+00	0	52	104	11114905600	78	24634
2026-01-11 08:38:24.41	335.15	6.60	-53.7	-58.1	3.7	0.00e+00	0	52	104	11114905600	78	24640
2026-01-11 08:38:25.41	335.23	6.52	-53.7	-58.1	3.7	0.00e+00	0	52	104	11114905600	78	24666
2026-01-11 08:38:26.41	335.30	6.43	-53.7	-58.1	3.7	0.00e+00	0	52	104	11114905600	78	24675
2026-01-11 08:38:27.41	335.38	6.35	-53.7	-58.1	3.7	0.00e+00	0	52	104	11114905600	78	24615
2026-01-11 08:38:28.41	335.46	6.27	-53.7	-58.1	3.7	0.00e+00	0	52	104	11114905600	78	24658
2026-01-11 08:38:29.40	335.53	6.19	-53.7	-58.1	3.7	0.00e+00	0	52	104	11114905600	78	24638
2026-01-11 08:38:30.40	335.61	6.11	-53.7	-58.1	3.7	0.00e+00	0	52	104	11114905600	78	24639
2026-01-11 08:38:31.40	335.68	6.03	-53.7	-58.1	3.7	0.00e+00	0	52	104	11114905600	78	24620
2026-01-11 08:38:32.39	335.75	5.95	-53.7	-58.0	3.7	0.00e+00	0	52	104	11114905600	78	24521
2026-01-11 08:38:33.39	335.83	5.87	-53.7	-58.1	3.7	0.00e+00	0	52	104	11114905600	78	24550
2026-01-11 08:38:34.39	335.90	5.79	-53.7	-58.1	3.7	0.00e+00	0	52	104	11114905600	78	24554
2026-01-11 08:38:35.39	335.97	5.71	-53.7	-58.1	3.7	0.00e+00	0	52	104	11114905600	78	24547
2026-01-11 08:38:36.39	336.04	5.63	-53.7	-58.0	3.7	0.00e+00	0	52	104	11114905600	78	24496
2026-01-11 08:38:37.38	336.11	5.56	-53.7	-58.1	3.7	0.00e+00	0	52	104	11114905600	78	24552
2026-01-11 08:38:38.39	336.19	5.48	-53.7	-58.1	3.7	0.00e+00	0	52	104	11114905600	78	24600
2026-01-11 08:38:39.38	336.26	5.40	-53.7	-58.1	3.7	0.00e+00	0	52	104	11114905600	78	24563
2026-01-11 08:38:40.38	336.33	5.32	-53.7	-58.1	3.7	0.00e+00	0	52	104	11114905600	78	24590
2026-01-11 08:38:41.38	336.39	5.24	-53.7	-58.1	3.7	0.00e+00	0	52	104	11114905600	78	24560
2026-01-11 08:38:42.38	336.46	5.17	-53.7	-58.1	3.7	0.00e+00	0	52	104	11114905600	78	24562
2026-01-11 08:38:43.38	336.53	5.09	-53.7	-58.1	3.7	0.00e+00	0	52	104	11114905600	78	24554
2026-01-11 08:38:44.38	336.60	5.01	-53.7	-58.1	3.6	0.00e+00	0	52	104	11114905600	78	24533

#Closed at: 2026-01-11 08:38:45
#Recorded file [11114 MB]: D:/Data/31040_260111_113000.dat