passes_logs/2026/01/11/T1/T1__20260111_124101_AQUA_rec.log

#Pass ID: 20260111_124101_AQUA
#Satellite: AQUA
#Configuration: AQUA
#almurnet v.1.7.20251203
#Start time: 2026-01-11 12:41:02

#Version: 2.0.20230620
#Station: T1
#Location: 37.570604 lon 55.790049 lat
#TLE: 1 27424U 02022A   26010.91777001  .00001106  00000+0  23130-3 0  9995
#TLE: 2 27424  98.4077 337.2768 0002031  83.1713 340.5382 14.61814337260293

#Time	Az	El	Level	Level2	SNR	BER	BlckErr	Temp	State	Recorded	gain1	gain2
2026-01-11 12:41:02.43	196.12	5.11	-52.2	-73.5	3.8	7.44e-01	0	41	0	0	76	40617
2026-01-11 12:41:03.42	196.19	5.18	-52.2	-73.0	3.8	7.45e-01	0	41	104	0	74	43029
2026-01-11 12:41:04.41	196.26	5.25	-52.2	-73.1	3.8	7.46e-01	0	41	104	0	74	43828
2026-01-11 12:41:05.40	196.33	5.32	-52.2	-73.3	3.8	7.44e-01	0	41	104	0	74	44805
2026-01-11 12:41:06.39	196.40	5.39	-52.2	-73.5	3.8	7.43e-01	0	41	104	0	74	45556
2026-01-11 12:41:07.39	196.47	5.46	-52.2	-73.5	3.8	7.47e-01	0	41	104	0	75	43247
2026-01-11 12:41:08.38	196.55	5.53	-52.2	-73.4	3.8	7.46e-01	0	41	104	0	75	42535
2026-01-11 12:41:09.37	196.62	5.60	-52.2	-73.2	3.8	7.45e-01	0	41	104	0	75	41575
2026-01-11 12:41:10.37	196.69	5.67	-52.2	-73.0	3.8	7.44e-01	0	41	104	0	75	40948
2026-01-11 12:41:11.36	196.77	5.74	-52.2	-73.1	3.8	7.43e-01	0	41	104	0	75	40996
2026-01-11 12:41:12.35	196.84	5.81	-52.2	-73.1	3.8	7.44e-01	0	41	104	0	75	41265
2026-01-11 12:41:13.35	196.92	5.88	-52.1	-73.2	3.8	7.46e-01	0	41	104	0	75	41477
2026-01-11 12:41:14.34	196.99	5.95	-52.1	-72.9	3.8	7.45e-01	0	41	104	0	75	40407
2026-01-11 12:41:15.33	197.07	6.02	-52.1	-72.5	3.8	7.46e-01	0	42	104	0	75	38258
2026-01-11 12:41:16.33	197.15	6.09	-52.1	-71.9	3.8	7.42e-01	0	42	104	0	75	35702
2026-01-11 12:41:17.32	197.22	6.16	-52.1	-71.2	3.8	7.45e-01	0	42	104	0	75	33238
2026-01-11 12:41:18.31	197.30	6.23	-52.1	-71.1	4.0	7.48e-01	0	42	104	0	75	32582
2026-01-11 12:41:19.31	197.38	6.30	-52.1	-71.1	3.9	7.43e-01	0	42	104	0	75	32554
2026-01-11 12:41:20.30	197.45	6.37	-52.1	-71.5	3.8	7.42e-01	0	42	104	0	75	34400
2026-01-11 12:41:21.29	197.53	6.44	-52.1	-72.0	3.8	7.41e-01	0	42	104	0	75	36360
2026-01-11 12:41:22.28	197.61	6.52	-52.1	-72.4	3.8	7.47e-01	0	42	104	0	75	38167
2026-01-11 12:41:23.28	197.69	6.59	-52.1	-72.5	3.8	7.46e-01	0	42	104	0	75	38443
2026-01-11 12:41:24.27	197.77	6.66	-52.1	-72.2	3.8	7.45e-01	0	42	104	0	75	37198
2026-01-11 12:41:25.26	197.85	6.73	-52.1	-71.4	3.9	7.41e-01	0	42	104	0	75	33863
2026-01-11 12:41:26.26	197.93	6.81	-52.1	-71.0	3.8	7.43e-01	0	42	104	0	75	32339
2026-01-11 12:41:27.25	198.01	6.88	-52.1	-70.4	4.1	7.45e-01	0	42	104	0	75	30125
2026-01-11 12:41:28.24	198.09	6.95	-52.1	-69.5	4.3	7.30e-01	0	42	104	0	75	27270
2026-01-11 12:41:29.24	198.17	7.02	-52.1	-69.3	4.4	7.27e-01	0	42	104	0	75	26582
2026-01-11 12:41:30.23	198.25	7.10	-52.1	-69.5	4.2	7.43e-01	0	42	104	0	75	27228
2026-01-11 12:41:31.22	198.33	7.17	-52.0	-69.1	4.5	7.25e-01	0	42	104	0	75	25906
2026-01-11 12:41:32.22	198.42	7.24	-52.0	-68.9	4.4	7.21e-01	0	42	104	0	75	25327
2026-01-11 12:41:33.21	198.50	7.32	-52.0	-69.1	4.0	7.35e-01	0	42	104	0	75	25959
2026-01-11 12:41:34.20	198.58	7.39	-52.0	-68.3	4.9	7.14e-01	0	42	0	0	75	23589
2026-01-11 12:41:35.19	198.67	7.47	-52.0	-68.1	4.9	7.16e-01	0	42	104	0	75	23260
2026-01-11 12:41:36.19	198.75	7.54	-52.0	-68.5	4.8	7.17e-01	0	42	104	0	75	24203
2026-01-11 12:41:37.18	198.84	7.62	-52.1	-69.9	4.3	7.32e-01	0	42	104	0	75	28511
2026-01-11 12:41:38.17	198.92	7.69	-52.1	-72.2	3.8	7.46e-01	0	42	104	0	75	36956
2026-01-11 12:41:39.17	199.01	7.77	-52.1	-73.0	3.8	7.45e-01	0	42	104	0	75	40745
2026-01-11 12:41:40.16	199.09	7.84	-52.0	-68.6	4.6	7.23e-01	0	42	104	0	75	24643
2026-01-11 12:41:41.15	199.18	7.92	-51.8	-63.9	8.1	6.49e-01	0	42	0	524288	75	14322
2026-01-11 12:41:42.15	199.27	7.99	-51.3	-60.4	11.9	6.14e-01	0	42	0	2621440	74	10068
2026-01-11 12:41:43.14	199.35	8.07	-50.6	-57.7	14.6	6.07e-01	0	42	0	4718592	73	7840
2026-01-11 12:41:44.13	199.44	8.14	-49.9	-55.6	16.7	6.09e-01	0	42	0	6291456	71	6926
2026-01-11 12:41:45.12	199.53	8.22	-49.3	-54.1	18.2	6.07e-01	0	42	0	8388608	70	6190
2026-01-11 12:41:46.12	199.62	8.30	-48.8	-53.2	19.1	6.08e-01	0	42	0	9961472	69	5876
2026-01-11 12:41:47.11	199.71	8.37	-48.4	-52.4	19.9	6.08e-01	0	42	0	12058624	68	5693
2026-01-11 12:41:48.11	199.80	8.45	-48.2	-52.0	20.2	6.08e-01	0	42	0	13631488	68	5464
2026-01-11 12:41:49.10	199.89	8.53	-48.3	-52.2	20.1	6.06e-01	0	42	0	15728640	68	5592
2026-01-11 12:41:50.09	199.98	8.61	-48.3	-52.4	19.7	6.08e-01	0	42	0	17301504	68	5678
2026-01-11 12:41:51.08	200.07	8.68	-48.7	-53.0	19.3	6.07e-01	0	43	0	19398656	68	6099
2026-01-11 12:41:52.08	200.17	8.76	-49.2	-53.9	18.4	6.08e-01	0	42	0	20971520	69	6402
2026-01-11 12:41:53.07	200.26	8.84	-49.7	-55.0	17.4	6.06e-01	0	42	0	23068672	70	6855
2026-01-11 12:41:54.06	200.35	8.92	-50.2	-56.2	16.2	6.06e-01	0	43	0	25165824	71	7428
2026-01-11 12:41:55.06	200.44	9.00	-50.6	-57.4	15.0	6.07e-01	0	43	0	26738688	71	8551
2026-01-11 12:41:56.05	200.54	9.07	-51.0	-58.8	13.5	6.09e-01	0	43	0	28835840	72	9493
2026-01-11 12:41:57.04	200.63	9.15	-50.9	-58.8	13.6	6.11e-01	0	43	0	30408704	72	9426
2026-01-11 12:41:58.03	200.73	9.23	-51.3	-60.1	12.3	6.14e-01	0	42	0	32505856	73	10343
2026-01-11 12:41:59.03	200.82	9.31	-51.8	-63.1	9.4	6.31e-01	0	43	0	34078720	74	13756
2026-01-11 12:42:00.02	200.92	9.39	-49.8	-54.8	17.6	6.05e-01	0	43	0	36175872	71	6285
2026-01-11 12:42:01.01	201.02	9.47	-51.7	-63.0	9.4	6.33e-01	0	43	0	37748736	73	14431
2026-01-11 12:42:02.00	201.11	9.55	-50.0	-55.0	17.4	6.07e-01	0	43	0	39845888	72	6073
2026-01-11 12:42:02.99	201.21	9.63	-49.4	-53.7	18.7	6.08e-01	0	43	0	41943040	70	5885
2026-01-11 12:42:03.99	201.31	9.71	-48.7	-52.5	19.8	6.07e-01	0	43	0	43515904	69	5426
2026-01-11 12:42:04.98	201.41	9.79	-48.3	-51.8	20.5	6.07e-01	0	43	0	45613056	68	5322
2026-01-11 12:42:05.97	201.51	9.87	-48.3	-51.8	20.6	6.09e-01	0	43	0	47185920	68	5308
2026-01-11 12:42:06.96	201.61	9.95	-48.2	-51.6	20.7	6.07e-01	0	43	0	49283072	68	5218
2026-01-11 12:42:07.96	201.71	10.03	-48.2	-51.7	20.7	6.08e-01	0	42	0	50855936	68	5254
2026-01-11 12:42:08.95	201.81	10.11	-48.2	-51.7	20.7	6.05e-01	0	43	0	52953088	68	5241
2026-01-11 12:42:09.94	201.91	10.20	-48.1	-51.5	20.8	6.08e-01	0	43	0	54525952	68	5145
2026-01-11 12:42:10.94	202.02	10.28	-48.2	-51.7	20.7	6.07e-01	0	43	0	56623104	68	5247
2026-01-11 12:42:11.93	202.12	10.36	-48.0	-51.5	20.9	6.07e-01	0	43	0	58195968	68	5106
2026-01-11 12:42:12.92	202.22	10.44	-47.9	-51.5	20.8	6.06e-01	0	43	0	60293120	67	5403
2026-01-11 12:42:13.92	202.33	10.53	-47.8	-51.4	20.9	6.06e-01	0	43	0	62390272	67	5377
2026-01-11 12:42:14.91	202.43	10.61	-47.8	-51.5	20.8	6.05e-01	0	43	0	63963136	67	5411
2026-01-11 12:42:15.90	202.54	10.69	-47.7	-51.4	20.9	6.07e-01	0	43	0	66060288	67	5382
2026-01-11 12:42:16.90	202.64	10.77	-47.7	-51.3	21.0	6.08e-01	0	43	0	67633152	67	5290
2026-01-11 12:42:17.89	202.75	10.86	-47.6	-51.2	21.1	6.05e-01	0	43	0	69730304	67	5235
2026-01-11 12:42:18.88	202.86	10.94	-47.6	-51.1	21.1	6.05e-01	0	43	0	71303168	67	5214
2026-01-11 12:42:19.87	202.97	11.02	-47.7	-51.2	21.1	6.08e-01	0	43	0	73400320	67	5264
2026-01-11 12:42:20.87	203.08	11.11	-47.7	-51.3	21.0	6.07e-01	0	43	0	74973184	67	5298
2026-01-11 12:42:21.86	203.19	11.19	-47.7	-51.2	21.1	6.07e-01	0	43	0	77070336	67	5257
2026-01-11 12:42:22.85	203.30	11.28	-47.7	-51.2	21.1	6.08e-01	0	43	0	79167488	67	5251
2026-01-11 12:42:23.85	203.41	11.36	-47.8	-51.3	21.0	6.05e-01	0	43	0	80740352	67	5290
2026-01-11 12:42:24.84	203.52	11.45	-47.8	-51.2	21.1	6.05e-01	0	43	0	82837504	67	5255
2026-01-11 12:42:25.83	203.63	11.53	-47.8	-51.3	21.0	6.06e-01	0	43	0	84410368	67	5282
2026-01-11 12:42:26.82	203.74	11.62	-47.6	-51.0	21.3	6.09e-01	0	43	0	86507520	67	5121
2026-01-11 12:42:27.82	203.86	11.71	-47.7	-51.1	21.2	6.07e-01	0	43	0	88080384	67	5185
2026-01-11 12:42:28.81	203.97	11.79	-47.7	-51.0	21.3	6.07e-01	0	43	0	90177536	67	5125
2026-01-11 12:42:29.80	204.09	11.88	-47.7	-51.1	21.2	6.09e-01	0	43	0	91750400	67	5169
2026-01-11 12:42:30.79	204.20	11.96	-47.6	-50.9	21.4	6.05e-01	0	43	0	93847552	67	5078
2026-01-11 12:42:31.79	204.32	12.05	-47.7	-51.0	21.3	6.09e-01	0	43	0	95944704	67	5103
2026-01-11 12:42:32.78	204.43	12.14	-47.7	-50.9	21.5	6.06e-01	0	43	0	97517568	67	5056
2026-01-11 12:42:33.77	204.55	12.23	-47.8	-51.0	21.4	6.05e-01	0	43	0	99614720	67	5121
2026-01-11 12:42:34.77	204.67	12.31	-47.8	-51.0	21.3	6.07e-01	0	43	0	101187584	67	5140
2026-01-11 12:42:35.76	204.79	12.40	-47.8	-50.9	21.4	6.05e-01	0	43	0	103284736	67	5084
2026-01-11 12:42:36.75	204.91	12.49	-47.7	-50.8	21.5	6.08e-01	0	43	0	104857600	67	4999
2026-01-11 12:42:37.74	205.03	12.58	-47.7	-50.9	21.4	6.07e-01	0	43	0	106954752	67	5052
2026-01-11 12:42:38.74	205.15	12.67	-47.8	-51.0	21.4	6.05e-01	0	43	0	108527616	67	5107
2026-01-11 12:42:39.73	205.27	12.76	-47.7	-50.9	21.5	6.05e-01	0	43	0	110624768	67	5043
2026-01-11 12:42:40.72	205.40	12.84	-47.7	-50.9	21.4	6.09e-01	0	43	0	112197632	67	5097
2026-01-11 12:42:41.71	205.52	12.93	-47.7	-50.9	21.4	6.09e-01	0	43	0	114294784	67	5071
2026-01-11 12:42:42.71	205.65	13.02	-47.7	-50.8	21.5	6.04e-01	0	43	0	116391936	67	5010
2026-01-11 12:42:43.70	205.77	13.11	-47.7	-50.8	21.5	6.08e-01	0	43	0	117964800	67	5011
2026-01-11 12:42:44.69	205.90	13.20	-47.7	-50.8	21.6	6.08e-01	0	43	0	120061952	67	5002
2026-01-11 12:42:45.69	206.02	13.29	-47.6	-50.6	21.7	6.07e-01	0	43	0	121634816	67	4926
2026-01-11 12:42:46.68	206.15	13.38	-47.6	-50.7	21.6	6.05e-01	0	43	0	123731968	67	4949
2026-01-11 12:42:47.67	206.28	13.47	-47.6	-50.7	21.6	6.08e-01	0	43	0	125304832	67	4961
2026-01-11 12:42:48.66	206.41	13.57	-47.5	-50.6	21.7	6.06e-01	0	43	0	127401984	67	4914
2026-01-11 12:42:49.66	206.54	13.66	-47.6	-50.7	21.6	6.09e-01	0	43	0	128974848	67	4957
2026-01-11 12:42:50.65	206.67	13.75	-47.6	-50.7	21.6	6.06e-01	0	43	0	131072000	67	4949
2026-01-11 12:42:51.64	206.80	13.84	-47.6	-50.7	21.7	6.07e-01	0	43	0	133169152	67	4941
2026-01-11 12:42:52.64	206.94	13.93	-47.5	-50.6	21.7	6.06e-01	0	43	0	134742016	67	4896
2026-01-11 12:42:53.63	207.07	14.02	-47.4	-50.4	21.9	6.08e-01	0	43	0	136839168	66	5098
2026-01-11 12:42:54.62	207.20	14.12	-47.5	-50.5	21.8	6.07e-01	0	43	0	138412032	66	5117
2026-01-11 12:42:55.62	207.34	14.21	-47.5	-50.6	21.8	6.05e-01	0	43	0	140509184	66	5169
2026-01-11 12:42:56.61	207.48	14.30	-47.5	-50.5	21.8	6.07e-01	0	43	0	142082048	66	5143
2026-01-11 12:42:57.60	207.61	14.40	-47.6	-50.6	21.7	6.06e-01	0	43	0	144179200	66	5187
2026-01-11 12:42:58.60	207.75	14.49	-47.6	-50.6	21.7	6.07e-01	0	43	0	145752064	66	5190
2026-01-11 12:42:59.59	207.89	14.58	-47.6	-50.7	21.7	6.06e-01	0	43	0	147849216	66	5223
2026-01-11 12:43:00.58	208.03	14.68	-47.5	-50.5	21.8	6.07e-01	0	43	0	149946368	66	5142
2026-01-11 12:43:01.57	208.17	14.77	-47.6	-50.6	21.8	6.04e-01	0	43	0	151519232	66	5188
2026-01-11 12:43:02.57	208.31	14.87	-47.6	-50.6	21.8	6.05e-01	0	43	0	153616384	66	5167
2026-01-11 12:43:03.56	208.46	14.96	-47.6	-50.6	21.8	6.08e-01	0	43	0	155189248	66	5163
2026-01-11 12:43:04.55	208.60	15.06	-47.5	-50.4	21.9	6.07e-01	0	43	0	157286400	66	5085
2026-01-11 12:43:05.54	208.74	15.15	-47.5	-50.4	21.9	6.07e-01	0	43	0	158859264	66	5099
2026-01-11 12:43:06.54	208.89	15.25	-47.5	-50.4	21.9	6.07e-01	0	43	0	160956416	66	5079
2026-01-11 12:43:07.53	209.04	15.34	-47.5	-50.4	21.9	6.06e-01	0	43	0	162529280	66	5097
2026-01-11 12:43:08.52	209.18	15.44	-47.4	-50.4	21.9	6.07e-01	0	43	0	164626432	66	5072
2026-01-11 12:43:09.52	209.33	15.54	-47.5	-50.4	21.9	6.07e-01	0	43	0	166199296	66	5070
2026-01-11 12:43:10.51	209.48	15.63	-47.5	-50.5	21.9	6.07e-01	0	43	0	168296448	66	5110
2026-01-11 12:43:11.50	209.63	15.73	-47.5	-50.4	21.9	6.06e-01	0	43	0	170393600	66	5069
2026-01-11 12:43:12.49	209.78	15.83	-47.6	-50.4	21.9	6.08e-01	0	43	0	171966464	66	5097
2026-01-11 12:43:13.49	209.94	15.93	-47.5	-50.4	22.0	6.07e-01	0	43	0	174063616	66	5074
2026-01-11 12:43:14.48	210.09	16.02	-47.5	-50.4	22.0	6.05e-01	0	43	0	175636480	66	5073
2026-01-11 12:43:15.47	210.24	16.12	-47.6	-50.5	21.9	6.08e-01	0	43	0	177733632	66	5156
2026-01-11 12:43:16.47	210.40	16.22	-47.5	-50.5	21.9	6.08e-01	0	43	0	179306496	66	5105
2026-01-11 12:43:17.46	210.56	16.32	-47.5	-50.4	22.0	6.06e-01	0	43	0	181403648	66	5068
2026-01-11 12:43:18.45	210.71	16.42	-47.5	-50.4	22.0	6.07e-01	0	43	0	182976512	66	5075
2026-01-11 12:43:19.44	210.87	16.51	-47.6	-50.5	21.9	6.07e-01	0	43	0	185073664	66	5141
2026-01-11 12:43:20.44	211.03	16.61	-47.6	-50.5	21.9	6.08e-01	0	43	0	187170816	66	5143
2026-01-11 12:43:21.43	211.19	16.71	-47.5	-50.5	21.9	6.06e-01	0	43	0	188743680	66	5108
2026-01-11 12:43:22.42	211.35	16.81	-47.5	-50.4	22.0	6.07e-01	0	43	0	190840832	66	5071
2026-01-11 12:43:23.42	211.52	16.91	-47.5	-50.4	21.9	6.05e-01	0	43	0	192413696	66	5092
2026-01-11 12:43:24.41	211.68	17.01	-47.5	-50.4	22.0	6.08e-01	0	43	0	194510848	66	5049
2026-01-11 12:43:25.40	211.85	17.11	-47.4	-50.3	22.1	6.08e-01	0	43	0	196083712	66	5023
2026-01-11 12:43:26.39	212.01	17.21	-47.5	-50.4	22.0	6.08e-01	0	43	0	198180864	66	5062
2026-01-11 12:43:27.39	212.18	17.31	-47.5	-50.4	22.0	6.06e-01	0	43	0	199753728	66	5059
2026-01-11 12:43:28.38	212.35	17.42	-47.4	-50.4	22.0	6.05e-01	0	43	0	201850880	66	5046
2026-01-11 12:43:29.37	212.52	17.52	-47.4	-50.3	22.0	6.07e-01	0	43	0	203423744	66	5016
2026-01-11 12:43:30.37	212.69	17.62	-47.4	-50.3	22.1	6.09e-01	0	43	0	205520896	66	5013
2026-01-11 12:43:31.36	212.87	17.72	-47.4	-50.3	22.1	6.07e-01	0	43	0	207618048	66	5006
2026-01-11 12:43:32.35	213.04	17.82	-47.3	-50.2	22.1	6.06e-01	0	43	0	209190912	66	4967
2026-01-11 12:43:33.34	213.21	17.92	-47.3	-50.3	22.1	6.07e-01	0	43	0	211288064	66	4989
2026-01-11 12:43:34.34	213.39	18.03	-47.5	-50.4	22.0	6.09e-01	0	43	0	212860928	66	5081
2026-01-11 12:43:35.33	213.57	18.13	-47.4	-50.4	22.0	6.06e-01	0	43	0	214958080	66	5077
2026-01-11 12:43:36.32	213.75	18.23	-47.4	-50.3	22.1	6.07e-01	0	43	0	216530944	66	5027
2026-01-11 12:43:37.31	213.93	18.33	-47.4	-50.3	22.1	6.06e-01	0	43	0	218628096	66	5035
2026-01-11 12:43:38.31	214.11	18.44	-47.3	-50.3	22.1	6.05e-01	0	43	0	220200960	66	5022
2026-01-11 12:43:39.30	214.29	18.54	-47.3	-50.3	22.1	6.07e-01	0	43	0	222298112	66	5003
2026-01-11 12:43:40.29	214.47	18.64	-47.3	-50.3	22.1	6.08e-01	0	43	0	224395264	66	5015
2026-01-11 12:43:41.29	214.66	18.75	-47.3	-50.2	22.2	6.06e-01	0	43	0	225968128	66	4962
2026-01-11 12:43:42.28	214.85	18.85	-47.4	-50.3	22.1	6.07e-01	0	43	0	228065280	66	5016
2026-01-11 12:43:43.27	215.03	18.96	-47.4	-50.3	22.1	6.06e-01	0	43	0	229638144	66	5038
2026-01-11 12:43:44.26	215.22	19.06	-47.3	-50.3	22.1	6.07e-01	0	43	0	231735296	66	4986
2026-01-11 12:43:45.26	215.41	19.17	-47.4	-50.4	22.0	6.05e-01	0	43	0	233308160	66	5042
2026-01-11 12:43:46.25	215.60	19.27	-47.3	-50.2	22.2	6.09e-01	0	43	0	235405312	66	4978
2026-01-11 12:43:47.24	215.80	19.38	-47.3	-50.2	22.2	6.05e-01	0	43	0	236978176	66	4957
2026-01-11 12:43:48.24	215.99	19.48	-47.2	-50.1	22.3	6.09e-01	0	43	0	239075328	66	4882
2026-01-11 12:43:49.23	216.19	19.59	-47.2	-50.1	22.3	6.07e-01	0	43	0	240648192	66	4881
2026-01-11 12:43:50.22	216.38	19.69	-47.3	-50.1	22.3	6.05e-01	0	43	0	242745344	66	4912
2026-01-11 12:43:51.21	216.58	19.80	-47.3	-50.2	22.2	6.08e-01	0	43	0	244842496	66	4954
2026-01-11 12:43:52.21	216.78	19.90	-47.4	-50.2	22.2	6.07e-01	0	43	0	246415360	66	4977
2026-01-11 12:43:53.20	216.98	20.01	-47.4	-50.3	22.1	6.06e-01	0	43	0	248512512	66	5006
2026-01-11 12:43:54.19	217.19	20.12	-47.5	-50.4	22.0	6.08e-01	0	43	0	250085376	66	5058
2026-01-11 12:43:55.19	217.39	20.22	-47.6	-50.4	22.0	6.09e-01	0	43	0	252182528	66	5076
2026-01-11 12:43:56.18	217.60	20.33	-47.5	-50.4	22.0	6.06e-01	0	43	0	253755392	66	5071
2026-01-11 12:43:57.17	217.80	20.44	-47.5	-50.4	22.0	6.09e-01	0	43	0	255852544	66	5074
2026-01-11 12:43:58.17	218.01	20.54	-47.3	-50.1	22.3	6.06e-01	0	43	0	257425408	66	4922
2026-01-11 12:43:59.16	218.22	20.65	-47.3	-50.2	22.3	6.09e-01	0	43	0	259522560	66	4927
2026-01-11 12:44:00.15	218.43	20.76	-47.3	-50.2	22.2	6.05e-01	0	43	0	261619712	66	4943
2026-01-11 12:44:01.14	218.65	20.86	-47.4	-50.3	22.1	6.05e-01	0	43	0	263192576	66	5015
2026-01-11 12:44:02.14	218.86	20.97	-47.4	-50.3	22.1	6.06e-01	0	44	0	265289728	66	5034
2026-01-11 12:44:03.13	219.08	21.08	-47.4	-50.4	22.1	6.06e-01	0	44	0	266862592	66	5044
2026-01-11 12:44:04.12	219.30	21.19	-47.4	-50.3	22.1	6.06e-01	0	43	0	268959744	66	5013
2026-01-11 12:44:05.11	219.52	21.29	-47.5	-50.4	22.0	6.06e-01	0	43	0	270532608	66	5098
2026-01-11 12:44:06.11	219.74	21.40	-47.4	-50.4	22.1	6.05e-01	0	43	0	272629760	66	5056
2026-01-11 12:44:07.10	219.96	21.51	-47.5	-50.4	22.0	6.08e-01	0	44	0	274202624	66	5082
2026-01-11 12:44:08.09	220.18	21.62	-47.3	-50.2	22.2	6.07e-01	0	43	0	276299776	66	4957
2026-01-11 12:44:09.09	220.41	21.73	-47.3	-50.1	22.3	6.06e-01	0	43	0	278396928	66	4923
2026-01-11 12:44:10.08	220.64	21.83	-47.4	-50.3	22.2	6.08e-01	0	43	0	279969792	66	4995
2026-01-11 12:44:11.07	220.87	21.94	-47.5	-50.4	22.1	6.08e-01	0	44	0	282066944	66	5063
2026-01-11 12:44:12.07	221.10	22.05	-47.6	-50.5	21.9	6.04e-01	0	43	0	283639808	66	5143
2026-01-11 12:44:13.06	221.33	22.16	-47.6	-50.5	21.9	6.07e-01	0	43	0	285736960	66	5159
2026-01-11 12:44:14.05	221.56	22.27	-47.6	-50.4	22.0	6.08e-01	0	43	0	287309824	66	5092
2026-01-11 12:44:15.05	221.80	22.37	-47.6	-50.5	22.0	6.05e-01	0	43	0	289406976	66	5130
2026-01-11 12:44:16.04	222.04	22.48	-47.6	-50.4	22.0	6.08e-01	0	43	0	290979840	66	5092
2026-01-11 12:44:17.03	222.28	22.59	-47.6	-50.5	22.0	6.06e-01	0	43	0	293076992	66	5106
2026-01-11 12:44:18.03	222.52	22.70	-47.4	-50.2	22.2	6.08e-01	0	43	0	294649856	66	4981
2026-01-11 12:44:19.02	222.76	22.81	-47.4	-50.2	22.2	6.08e-01	0	43	0	296747008	66	4972
2026-01-11 12:44:20.01	223.00	22.91	-47.6	-50.4	22.0	6.07e-01	0	43	0	298844160	66	5098
2026-01-11 12:44:21.00	223.25	23.02	-47.7	-50.6	21.9	6.08e-01	0	43	0	300417024	66	5168
2026-01-11 12:44:22.00	223.50	23.13	-47.6	-50.5	21.9	6.06e-01	0	43	0	302514176	66	5148
2026-01-11 12:44:22.99	223.75	23.24	-47.5	-50.4	22.1	6.06e-01	0	43	0	304087040	66	5082
2026-01-11 12:44:23.98	224.00	23.35	-47.6	-50.5	22.0	6.05e-01	0	43	0	306184192	66	5101
2026-01-11 12:44:24.98	224.25	23.46	-47.6	-50.5	22.0	6.05e-01	0	43	0	307757056	66	5105
2026-01-11 12:44:25.97	224.51	23.56	-47.5	-50.3	22.1	6.06e-01	0	43	0	309854208	66	5034
2026-01-11 12:44:26.96	224.76	23.67	-47.4	-50.2	22.2	6.07e-01	0	43	0	311427072	66	4967
2026-01-11 12:44:27.95	225.02	23.78	-47.6	-50.4	22.1	6.06e-01	0	43	0	313524224	66	5085
2026-01-11 12:44:28.95	225.28	23.89	-47.7	-50.6	21.9	6.06e-01	0	43	0	315621376	66	5175
2026-01-11 12:44:29.94	225.55	23.99	-47.8	-50.7	21.8	6.08e-01	0	44	0	317194240	66	5231
2026-01-11 12:44:30.93	225.81	24.10	-47.7	-50.6	21.9	6.06e-01	0	43	0	319291392	66	5205
2026-01-11 12:44:31.93	226.08	24.21	-47.6	-50.5	21.9	6.07e-01	0	43	0	320864256	66	5152
2026-01-11 12:44:32.92	226.34	24.32	-47.7	-50.6	21.9	6.05e-01	0	44	0	322961408	66	5205
2026-01-11 12:44:33.91	226.61	24.42	-47.6	-50.5	22.0	6.06e-01	0	43	0	324534272	66	5150
2026-01-11 12:44:34.91	226.89	24.53	-47.5	-50.4	22.1	6.05e-01	0	43	0	326631424	66	5066
2026-01-11 12:44:35.90	227.16	24.64	-47.6	-50.5	22.0	6.04e-01	0	43	0	328204288	66	5133
2026-01-11 12:44:36.89	227.43	24.74	-47.7	-50.7	21.8	6.05e-01	0	43	0	330301440	66	5220
2026-01-11 12:44:37.89	227.71	24.85	-47.8	-50.7	21.8	6.06e-01	0	43	0	332398592	66	5233
2026-01-11 12:44:38.88	227.99	24.96	-47.8	-50.7	21.8	6.05e-01	0	43	0	333971456	66	5220
2026-01-11 12:44:39.87	228.27	25.06	-47.9	-50.8	21.7	6.08e-01	0	43	0	336068608	66	5297
2026-01-11 12:44:40.87	228.56	25.17	-47.9	-50.9	21.7	6.08e-01	0	43	0	337641472	66	5341
2026-01-11 12:44:41.86	228.84	25.27	-47.7	-50.6	21.8	6.08e-01	0	43	0	339738624	66	5217
2026-01-11 12:44:42.85	229.13	25.38	-47.6	-50.5	22.0	6.06e-01	0	43	0	341311488	66	5110
2026-01-11 12:44:43.84	229.41	25.48	-47.6	-50.5	22.0	6.05e-01	0	43	0	343408640	66	5132
2026-01-11 12:44:44.84	229.71	25.59	-47.6	-50.5	22.0	6.05e-01	0	43	0	344981504	66	5136
2026-01-11 12:44:45.83	230.00	25.69	-47.6	-50.4	22.0	6.07e-01	0	43	0	347078656	66	5099
2026-01-11 12:44:46.82	230.29	25.80	-47.6	-50.4	22.0	6.07e-01	0	43	0	348651520	66	5083
2026-01-11 12:44:47.81	230.59	25.90	-47.6	-50.5	22.0	6.09e-01	0	43	0	350748672	66	5138
2026-01-11 12:44:48.81	230.89	26.00	-47.7	-50.6	21.9	6.07e-01	0	43	0	352845824	66	5183
2026-01-11 12:44:49.80	231.19	26.11	-47.7	-50.6	21.8	6.09e-01	0	43	0	354418688	66	5210
2026-01-11 12:44:50.79	231.49	26.21	-47.6	-50.6	21.9	6.08e-01	0	43	0	356515840	66	5162
2026-01-11 12:44:51.79	231.80	26.31	-47.6	-50.6	21.9	6.06e-01	0	43	0	358088704	66	5190
2026-01-11 12:44:52.78	232.10	26.41	-47.7	-50.7	21.8	6.06e-01	0	43	0	360185856	66	5249
2026-01-11 12:44:53.77	232.41	26.51	-47.7	-50.8	21.7	6.08e-01	0	44	0	361758720	66	5291
2026-01-11 12:44:54.76	232.72	26.61	-47.5	-50.5	22.0	6.05e-01	0	43	0	363855872	66	5113
2026-01-11 12:44:55.76	233.04	26.71	-47.6	-50.6	21.9	6.06e-01	0	43	0	365428736	66	5168
2026-01-11 12:44:56.75	233.35	26.81	-47.6	-50.5	22.0	6.08e-01	0	43	0	367525888	66	5146
2026-01-11 12:44:57.74	233.67	26.91	-47.6	-50.5	22.0	6.07e-01	0	43	0	369623040	66	5152
2026-01-11 12:44:58.74	233.99	27.01	-47.6	-50.6	21.9	6.06e-01	0	43	0	371195904	66	5193
2026-01-11 12:44:59.73	234.31	27.11	-47.7	-50.7	21.8	6.04e-01	0	44	0	373293056	66	5262
2026-01-11 12:45:00.72	234.63	27.21	-47.6	-50.5	22.0	6.08e-01	0	43	0	374865920	66	5129
2026-01-11 12:45:01.71	234.95	27.31	-47.6	-50.5	22.0	6.06e-01	0	43	0	376963072	66	5119
2026-01-11 12:45:02.71	235.28	27.40	-47.6	-50.5	22.0	6.05e-01	0	43	0	378535936	66	5139
2026-01-11 12:45:03.70	235.61	27.50	-47.8	-50.7	21.8	6.07e-01	0	44	0	380633088	66	5249
2026-01-11 12:45:04.69	235.94	27.59	-47.8	-50.7	21.8	6.09e-01	0	43	0	382205952	66	5269
2026-01-11 12:45:05.69	236.27	27.69	-47.7	-50.6	21.9	6.06e-01	0	44	0	384303104	66	5195
2026-01-11 12:45:06.68	236.61	27.78	-47.5	-50.4	22.1	6.07e-01	0	43	0	385875968	66	5085
2026-01-11 12:45:07.67	236.94	27.88	-47.3	-50.2	22.3	6.07e-01	0	43	0	387973120	66	4954
2026-01-11 12:45:08.67	237.28	27.97	-47.4	-50.3	22.2	6.06e-01	0	43	0	390070272	66	4997
2026-01-11 12:45:09.66	237.62	28.06	-47.6	-50.5	21.9	6.06e-01	0	44	0	391643136	66	5151
2026-01-11 12:45:10.65	237.97	28.15	-47.6	-50.5	22.0	6.08e-01	0	43	0	393740288	66	5102
2026-01-11 12:45:11.65	238.31	28.24	-47.6	-50.4	22.1	6.06e-01	0	44	0	395313152	66	5052
2026-01-11 12:45:12.64	238.66	28.33	-47.7	-50.5	22.0	6.07e-01	0	43	0	397410304	66	5138
2026-01-11 12:45:13.63	239.01	28.42	-47.4	-50.2	22.3	6.09e-01	0	44	0	398983168	66	4944
2026-01-11 12:45:14.62	239.36	28.51	-47.6	-50.4	22.1	6.07e-01	0	44	0	401080320	66	5089
2026-01-11 12:45:15.62	239.71	28.60	-47.6	-50.5	22.0	6.06e-01	0	43	0	402653184	66	5131
2026-01-11 12:45:16.61	240.06	28.68	-47.6	-50.5	22.0	6.07e-01	0	43	0	404750336	66	5146
2026-01-11 12:45:17.60	240.42	28.77	-47.6	-50.5	22.0	6.08e-01	0	43	0	406847488	66	5137
2026-01-11 12:45:18.60	240.78	28.85	-47.4	-50.3	22.2	6.05e-01	0	43	0	408420352	66	4991
2026-01-11 12:45:19.59	241.14	28.94	-47.4	-50.3	22.2	6.08e-01	0	43	0	410517504	66	4986
2026-01-11 12:45:20.58	241.50	29.02	-47.5	-50.3	22.2	6.07e-01	0	43	0	412090368	66	5021
2026-01-11 12:45:21.58	241.87	29.10	-47.5	-50.3	22.1	6.06e-01	0	43	0	414187520	66	5021
2026-01-11 12:45:22.57	242.23	29.18	-47.5	-50.3	22.1	6.07e-01	0	43	0	415760384	66	5038
2026-01-11 12:45:23.56	242.60	29.26	-47.4	-50.2	22.3	6.05e-01	0	43	0	417857536	66	4931
2026-01-11 12:45:24.56	242.97	29.34	-47.4	-50.2	22.2	6.07e-01	0	44	0	419430400	66	4973
2026-01-11 12:45:25.55	243.34	29.42	-47.4	-50.3	22.2	6.08e-01	0	44	0	421527552	66	5004
2026-01-11 12:45:26.54	243.71	29.50	-47.4	-50.3	22.2	6.06e-01	0	44	0	423624704	66	5005
2026-01-11 12:45:27.53	244.09	29.57	-47.4	-50.3	22.2	6.07e-01	0	44	0	425197568	66	4999
2026-01-11 12:45:28.53	244.47	29.65	-47.2	-50.1	22.4	6.09e-01	0	43	0	427294720	66	4877
2026-01-11 12:45:29.52	244.85	29.72	-47.3	-50.2	22.3	6.08e-01	0	43	0	428867584	66	4934
2026-01-11 12:45:30.51	245.23	29.79	-47.4	-50.2	22.3	6.07e-01	0	44	0	430964736	66	4978
2026-01-11 12:45:31.50	245.61	29.87	-47.3	-50.1	22.4	6.06e-01	0	43	0	432537600	66	4897
2026-01-11 12:45:32.50	245.99	29.94	-47.3	-50.1	22.3	6.06e-01	0	43	0	434634752	66	4925
2026-01-11 12:45:33.49	246.38	30.01	-47.3	-50.2	22.4	6.06e-01	0	43	0	436207616	66	4935
2026-01-11 12:45:34.48	246.76	30.07	-47.4	-50.3	22.2	6.06e-01	0	43	0	438304768	66	4996
2026-01-11 12:45:35.48	247.16	30.14	-47.3	-50.1	22.4	6.07e-01	0	43	0	439877632	66	4906
2026-01-11 12:45:36.47	247.54	30.21	-47.1	-50.0	22.5	6.05e-01	0	43	0	441974784	66	4832
2026-01-11 12:45:37.46	247.94	30.27	-47.1	-50.0	22.5	6.06e-01	0	43	0	444071936	66	4834
2026-01-11 12:45:38.45	248.33	30.33	-47.2	-50.1	22.4	6.09e-01	0	43	0	445644800	66	4903
2026-01-11 12:45:39.45	248.73	30.39	-47.4	-50.3	22.3	6.07e-01	0	43	0	447741952	66	4992
2026-01-11 12:45:40.44	249.12	30.45	-47.1	-49.9	22.6	6.08e-01	0	44	0	449314816	66	4768
2026-01-11 12:45:41.43	249.52	30.51	-46.9	-49.7	22.7	6.06e-01	0	44	0	451411968	65	4940
2026-01-11 12:45:42.42	249.92	30.57	-47.3	-50.2	22.3	6.06e-01	0	44	0	452984832	65	5234
2026-01-11 12:45:43.42	250.32	30.63	-47.3	-50.2	22.2	6.07e-01	0	43	0	455081984	65	5278
2026-01-11 12:45:44.41	250.72	30.68	-47.2	-50.0	22.5	6.06e-01	0	43	0	456654848	65	5136
2026-01-11 12:45:45.40	251.13	30.74	-47.2	-50.0	22.4	6.04e-01	0	44	0	458752000	65	5159
2026-01-11 12:45:46.40	251.53	30.79	-47.0	-49.7	22.7	6.06e-01	0	44	0	460849152	65	4958
2026-01-11 12:45:47.39	251.94	30.84	-47.1	-49.9	22.5	6.06e-01	0	44	0	462422016	65	5064
2026-01-11 12:45:48.38	252.34	30.89	-47.3	-50.1	22.4	6.06e-01	0	44	0	464519168	65	5181
2026-01-11 12:45:49.38	252.76	30.94	-47.3	-50.1	22.3	6.09e-01	0	43	0	466092032	65	5208
2026-01-11 12:45:50.37	253.17	30.98	-47.0	-49.7	22.7	6.07e-01	0	44	0	468189184	65	4949
2026-01-11 12:45:51.36	253.58	31.03	-47.0	-49.7	22.8	6.07e-01	0	44	0	469762048	65	4939
2026-01-11 12:45:52.35	253.99	31.07	-47.1	-49.8	22.6	6.04e-01	0	44	0	471859200	65	5031
2026-01-11 12:45:53.35	254.40	31.11	-47.2	-49.9	22.5	6.06e-01	0	43	0	473432064	65	5092
2026-01-11 12:45:54.34	254.82	31.15	-47.0	-49.7	22.7	6.07e-01	0	44	0	475529216	65	4957
2026-01-11 12:45:55.33	255.23	31.19	-46.9	-49.6	22.8	6.07e-01	0	44	0	477626368	65	4918
2026-01-11 12:45:56.32	255.65	31.23	-46.9	-49.7	22.7	6.07e-01	0	43	0	479199232	65	4950
2026-01-11 12:45:57.32	256.07	31.26	-46.9	-49.7	22.7	6.08e-01	0	43	0	481296384	65	4948
2026-01-11 12:45:58.31	256.48	31.30	-47.0	-49.8	22.7	6.06e-01	0	43	0	482869248	65	4997
2026-01-11 12:45:59.30	256.90	31.33	-47.0	-49.7	22.7	6.06e-01	0	43	0	484966400	65	4958
2026-01-11 12:46:00.30	257.33	31.36	-47.0	-49.7	22.7	6.06e-01	0	43	0	486539264	65	4976
2026-01-11 12:46:01.29	257.75	31.39	-46.9	-49.6	22.8	6.06e-01	0	43	0	488636416	65	4918
2026-01-11 12:46:02.28	258.17	31.42	-46.8	-49.6	22.9	6.09e-01	0	44	0	490209280	65	4871
2026-01-11 12:46:03.28	258.59	31.45	-47.0	-49.7	22.8	6.06e-01	0	44	0	492306432	65	4946
2026-01-11 12:46:04.27	259.01	31.47	-46.9	-49.6	22.8	6.07e-01	0	43	0	493879296	65	4891
2026-01-11 12:46:05.26	259.44	31.49	-46.8	-49.5	22.9	6.06e-01	0	43	0	495976448	65	4821
2026-01-11 12:46:06.25	259.86	31.51	-46.9	-49.5	22.9	6.07e-01	0	44	0	498073600	65	4870
2026-01-11 12:46:07.25	260.29	31.53	-46.9	-49.7	22.7	6.06e-01	0	43	0	499646464	65	4967
2026-01-11 12:46:08.24	260.71	31.55	-46.9	-49.7	22.7	6.05e-01	0	44	0	501743616	65	4939
2026-01-11 12:46:09.23	261.13	31.57	-46.8	-49.6	22.9	6.04e-01	0	43	0	503316480	65	4879
2026-01-11 12:46:10.23	261.56	31.58	-46.8	-49.5	22.9	6.07e-01	0	44	0	505413632	65	4834
2026-01-11 12:46:11.22	261.99	31.60	-46.9	-49.6	22.9	6.07e-01	0	44	0	506986496	65	4877
2026-01-11 12:46:12.21	262.41	31.61	-47.0	-49.8	22.7	6.08e-01	0	43	0	509083648	65	5003
2026-01-11 12:46:13.21	262.84	31.62	-46.9	-49.6	22.8	6.06e-01	0	43	0	510656512	65	4889
2026-01-11 12:46:14.20	263.27	31.62	-46.8	-49.5	22.9	6.07e-01	0	43	0	512753664	65	4847
2026-01-11 12:46:15.19	263.70	31.63	-46.6	-49.3	23.1	6.07e-01	0	44	0	514850816	65	4711
2026-01-11 12:46:16.18	264.12	31.63	-46.7	-49.3	23.1	6.07e-01	0	43	0	516423680	65	4743
2026-01-11 12:46:17.18	264.55	31.64	-46.8	-49.5	22.9	6.06e-01	0	43	0	518520832	65	4839
2026-01-11 12:46:18.17	264.98	31.64	-46.8	-49.5	22.9	6.05e-01	0	44	0	520093696	65	4829
2026-01-11 12:46:19.16	265.41	31.64	-46.7	-49.4	23.0	6.05e-01	0	43	0	522190848	65	4761
2026-01-11 12:46:20.15	265.83	31.63	-46.6	-49.2	23.2	6.07e-01	0	43	0	523763712	65	4669
2026-01-11 12:46:21.15	266.26	31.63	-46.7	-49.4	23.0	6.05e-01	0	44	0	525860864	65	4784
2026-01-11 12:46:22.14	266.69	31.63	-46.8	-49.5	22.9	6.07e-01	0	43	0	527433728	65	4849
2026-01-11 12:46:23.13	267.12	31.62	-46.8	-49.5	22.9	6.07e-01	0	43	0	529530880	65	4841
2026-01-11 12:46:24.13	267.55	31.61	-46.9	-49.6	22.8	6.07e-01	0	43	0	531103744	65	4902
2026-01-11 12:46:25.12	267.97	31.60	-46.9	-49.6	22.8	6.06e-01	0	43	0	533200896	65	4919
2026-01-11 12:46:26.11	268.40	31.59	-46.6	-49.2	23.1	6.06e-01	0	43	0	535298048	65	4689
2026-01-11 12:46:27.10	268.82	31.57	-46.7	-49.4	23.1	6.05e-01	0	43	0	536870912	65	4764
2026-01-11 12:46:28.10	269.25	31.56	-46.7	-49.5	22.9	6.05e-01	0	44	0	538968064	65	4828
2026-01-11 12:46:29.09	269.67	31.54	-46.5	-49.2	23.2	6.05e-01	0	43	0	540540928	64	4929
2026-01-11 12:46:30.08	270.10	31.52	-46.4	-49.1	23.3	6.06e-01	0	43	0	542638080	64	4879
2026-01-11 12:46:31.07	270.52	31.50	-46.5	-49.1	23.2	6.06e-01	0	43	0	544210944	64	4923
2026-01-11 12:46:32.07	270.95	31.48	-46.5	-49.1	23.2	6.09e-01	0	43	0	546308096	64	4924
2026-01-11 12:46:33.06	271.37	31.45	-46.6	-49.2	23.1	6.06e-01	0	43	0	547880960	64	4976
2026-01-11 12:46:34.05	271.79	31.43	-46.6	-49.2	23.1	6.07e-01	0	43	0	549978112	64	4977
2026-01-11 12:46:35.05	272.21	31.40	-46.5	-49.1	23.3	6.07e-01	0	44	0	552075264	64	4875
2026-01-11 12:46:36.04	272.63	31.37	-46.5	-49.2	23.2	6.08e-01	0	43	0	553648128	64	4946
2026-01-11 12:46:37.03	273.05	31.34	-46.6	-49.2	23.1	6.05e-01	0	43	0	555745280	64	4982
2026-01-11 12:46:38.02	273.47	31.31	-46.6	-49.2	23.2	6.06e-01	0	43	0	557318144	64	4981
2026-01-11 12:46:39.02	273.89	31.27	-46.8	-49.6	22.8	6.06e-01	0	44	0	559415296	64	5189
2026-01-11 12:46:40.01	274.30	31.24	-46.9	-49.6	22.8	6.06e-01	0	44	0	560988160	64	5174
2026-01-11 12:46:41.00	274.72	31.20	-46.7	-49.3	23.1	6.07e-01	0	44	0	563085312	64	5033
2026-01-11 12:46:42.00	275.14	31.16	-46.9	-49.7	22.8	6.08e-01	0	43	0	564658176	64	5231
2026-01-11 12:46:42.99	275.55	31.12	-46.6	-49.2	23.1	6.05e-01	0	43	0	566755328	64	4970
2026-01-11 12:46:43.98	275.96	31.08	-46.6	-49.3	23.1	6.08e-01	0	43	0	568852480	64	5000
2026-01-11 12:46:44.98	276.38	31.04	-46.5	-49.2	23.2	6.05e-01	0	44	0	570425344	64	4931
2026-01-11 12:46:45.97	276.79	30.99	-46.4	-49.0	23.4	6.06e-01	0	43	0	571998208	64	4834
2026-01-11 12:46:46.96	277.20	30.95	-46.6	-49.2	23.2	6.07e-01	0	44	0	574095360	64	4956
2026-01-11 12:46:47.95	277.60	30.90	-46.4	-48.9	23.4	6.07e-01	0	43	0	576192512	64	4804
2026-01-11 12:46:48.95	278.01	30.85	-46.4	-49.0	23.4	6.09e-01	0	43	0	577765376	64	4845
2026-01-11 12:46:49.94	278.42	30.80	-46.5	-49.1	23.3	6.08e-01	0	43	0	579862528	64	4898
2026-01-11 12:46:50.93	278.82	30.75	-46.5	-49.1	23.3	6.06e-01	0	43	0	581435392	64	4891
2026-01-11 12:46:51.93	279.23	30.70	-46.5	-49.1	23.3	6.09e-01	0	43	0	583532544	64	4896
2026-01-11 12:46:52.92	279.63	30.64	-46.5	-49.1	23.2	6.08e-01	0	43	0	585105408	64	4921
2026-01-11 12:46:53.91	280.03	30.59	-46.5	-49.1	23.3	6.06e-01	0	44	0	587202560	64	4880
2026-01-11 12:46:54.91	280.43	30.53	-46.5	-49.1	23.3	6.07e-01	0	44	0	589299712	64	4904
2026-01-11 12:46:55.90	280.83	30.47	-46.3	-48.9	23.4	6.06e-01	0	44	0	590872576	64	4780
2026-01-11 12:46:56.89	281.22	30.41	-46.5	-49.1	23.2	6.07e-01	0	44	0	592969728	64	4910
2026-01-11 12:46:57.88	281.61	30.35	-46.5	-49.1	23.2	6.06e-01	0	44	0	594542592	64	4922
2026-01-11 12:46:58.88	282.01	30.29	-46.5	-49.1	23.2	6.03e-01	0	43	0	596639744	64	4902
2026-01-11 12:46:59.87	282.40	30.22	-46.5	-49.0	23.3	6.07e-01	0	44	0	598212608	64	4853
2026-01-11 12:47:00.86	282.79	30.16	-46.4	-48.9	23.4	6.08e-01	0	44	0	600309760	64	4811
2026-01-11 12:47:01.85	283.18	30.09	-46.5	-49.1	23.3	6.06e-01	0	43	0	601882624	64	4894
2026-01-11 12:47:02.85	283.56	30.02	-46.7	-49.3	23.0	6.06e-01	0	44	0	603979776	64	5031
2026-01-11 12:47:03.84	283.95	29.96	-46.7	-49.4	23.0	6.06e-01	0	44	0	606076928	64	5074
2026-01-11 12:47:04.83	284.33	29.89	-46.7	-49.3	23.0	6.06e-01	0	43	0	607649792	64	5038
2026-01-11 12:47:05.83	284.71	29.81	-46.5	-49.1	23.3	6.06e-01	0	44	0	609222656	64	4886
2026-01-11 12:47:06.82	285.09	29.74	-46.4	-49.0	23.4	6.08e-01	0	43	0	611319808	64	4831
2026-01-11 12:47:07.81	285.47	29.67	-46.6	-49.2	23.2	6.05e-01	0	43	0	613416960	64	4937
2026-01-11 12:47:08.81	285.85	29.59	-46.6	-49.2	23.2	6.06e-01	0	43	0	614989824	64	4950
2026-01-11 12:47:09.80	286.22	29.52	-46.6	-49.2	23.2	6.05e-01	0	43	0	617086976	64	4967
2026-01-11 12:47:10.79	286.59	29.44	-46.6	-49.3	23.1	6.06e-01	0	43	0	618659840	64	4991
2026-01-11 12:47:11.78	286.96	29.37	-46.5	-49.1	23.2	6.07e-01	0	43	0	620756992	64	4896
2026-01-11 12:47:12.78	287.33	29.29	-46.6	-49.2	23.2	6.06e-01	0	43	0	622329856	64	4951
2026-01-11 12:47:13.77	287.70	29.21	-46.7	-49.3	23.1	6.08e-01	0	44	0	624427008	64	4999
2026-01-11 12:47:14.76	288.07	29.13	-46.6	-49.3	23.1	6.09e-01	0	44	0	625999872	64	5002
2026-01-11 12:47:15.76	288.43	29.05	-46.6	-49.3	23.0	6.08e-01	0	44	0	628097024	64	5017
2026-01-11 12:47:16.75	288.79	28.96	-46.6	-49.3	23.0	6.08e-01	0	43	0	630194176	64	5035
2026-01-11 12:47:17.74	289.15	28.88	-46.5	-49.2	23.2	6.07e-01	0	43	0	631767040	64	4955
2026-01-11 12:47:18.73	289.51	28.80	-46.6	-49.2	23.1	6.07e-01	0	43	0	633864192	64	4962
2026-01-11 12:47:19.73	289.86	28.71	-46.5	-49.1	23.2	6.08e-01	0	43	0	635437056	64	4922
2026-01-11 12:47:20.71	290.21	28.63	-46.6	-49.2	23.2	6.07e-01	0	43	0	637534208	64	4938
2026-01-11 12:47:21.70	290.56	28.54	-46.6	-49.2	23.2	6.07e-01	0	44	0	639107072	64	4964
2026-01-11 12:47:22.69	290.91	28.45	-46.6	-49.2	23.2	6.06e-01	0	44	0	641204224	64	4960
2026-01-11 12:47:23.68	291.26	28.37	-46.6	-49.2	23.1	6.07e-01	0	43	0	643301376	64	4975
2026-01-11 12:47:24.68	291.61	28.28	-46.6	-49.3	23.1	6.08e-01	0	43	0	644874240	64	5028
2026-01-11 12:47:25.67	291.95	28.19	-46.7	-49.4	22.9	6.09e-01	0	44	0	646971392	64	5089
2026-01-11 12:47:26.66	292.29	28.10	-46.6	-49.3	23.0	6.06e-01	0	44	0	648544256	64	5029
2026-01-11 12:47:27.65	292.63	28.01	-46.6	-49.3	23.0	6.07e-01	0	43	0	650641408	64	5015
2026-01-11 12:47:28.65	292.97	27.91	-46.6	-49.2	23.1	6.06e-01	0	44	0	652214272	64	4979
2026-01-11 12:47:29.64	293.31	27.82	-46.7	-49.4	23.0	6.05e-01	0	43	0	654311424	64	5046
2026-01-11 12:47:30.63	293.64	27.73	-46.8	-49.4	22.9	6.05e-01	0	44	0	655884288	64	5085
2026-01-11 12:47:31.63	293.97	27.63	-46.7	-49.3	23.0	6.07e-01	0	44	0	657981440	64	5021
2026-01-11 12:47:32.62	294.30	27.54	-46.7	-49.3	23.0	6.09e-01	0	43	0	660078592	64	5029
2026-01-11 12:47:33.61	294.63	27.44	-46.7	-49.4	23.0	6.08e-01	0	43	0	661651456	64	5084
2026-01-11 12:47:34.60	294.96	27.35	-46.8	-49.5	22.9	6.05e-01	0	44	0	663224320	64	5105
2026-01-11 12:47:35.60	295.28	27.25	-46.7	-49.3	23.1	6.07e-01	0	43	0	665321472	64	5025
2026-01-11 12:47:36.59	295.60	27.15	-46.8	-49.4	22.9	6.07e-01	0	44	0	667418624	64	5094
2026-01-11 12:47:37.58	295.92	27.06	-46.9	-49.7	22.7	6.06e-01	0	44	0	668991488	64	5227
2026-01-11 12:47:38.58	296.24	26.96	-46.9	-49.6	22.8	6.06e-01	0	44	0	671088640	64	5180
2026-01-11 12:47:39.57	296.56	26.86	-46.7	-49.4	23.0	6.04e-01	0	43	0	672661504	64	5069
2026-01-11 12:47:40.56	296.87	26.76	-46.8	-49.5	22.9	6.07e-01	0	44	0	674758656	64	5102
2026-01-11 12:47:41.55	297.18	26.66	-46.7	-49.4	23.0	6.07e-01	0	44	0	676331520	64	5079
2026-01-11 12:47:42.55	297.49	26.56	-46.9	-49.7	22.7	6.03e-01	0	44	0	678428672	64	5226
2026-01-11 12:47:43.54	297.80	26.46	-46.8	-49.5	22.9	6.07e-01	0	44	0	680001536	64	5126
2026-01-11 12:47:44.53	298.11	26.36	-46.9	-49.6	22.8	6.07e-01	0	44	0	682098688	64	5167
2026-01-11 12:47:45.53	298.41	26.26	-46.7	-49.4	23.0	6.07e-01	0	43	0	684195840	64	5082
2026-01-11 12:47:46.52	298.71	26.16	-46.8	-49.6	22.8	6.05e-01	0	44	0	685768704	64	5190
2026-01-11 12:47:47.51	299.01	26.06	-46.9	-49.7	22.7	6.06e-01	0	44	0	687865856	64	5274
2026-01-11 12:47:48.50	299.31	25.95	-46.8	-49.7	22.7	6.08e-01	0	44	0	689438720	64	5236
2026-01-11 12:47:49.50	299.61	25.85	-46.7	-49.5	22.8	6.06e-01	0	43	0	691535872	64	5119
2026-01-11 12:47:50.49	299.90	25.75	-46.6	-49.4	23.0	6.08e-01	0	44	0	693108736	64	5056
2026-01-11 12:47:51.48	300.19	25.64	-46.9	-49.6	22.8	6.05e-01	0	44	0	695205888	64	5200
2026-01-11 12:47:52.47	300.48	25.54	-47.0	-49.8	22.6	6.06e-01	0	44	0	696778752	64	5340
2026-01-11 12:47:53.47	300.77	25.44	-47.1	-49.9	22.5	6.07e-01	0	43	0	698875904	64	5367
2026-01-11 12:47:54.46	301.06	25.33	-47.0	-49.8	22.6	6.05e-01	0	43	0	700448768	64	5291
2026-01-11 12:47:55.45	301.34	25.23	-46.9	-49.7	22.7	6.07e-01	0	44	0	702545920	64	5222
2026-01-11 12:47:56.45	301.62	25.12	-46.9	-49.6	22.8	6.05e-01	0	43	0	704643072	64	5181
2026-01-11 12:47:57.44	301.90	25.02	-46.9	-49.6	22.8	6.04e-01	0	44	0	706215936	64	5183
2026-01-11 12:47:58.43	302.18	24.91	-46.9	-49.6	22.6	6.07e-01	0	43	0	708313088	64	5217
2026-01-11 12:47:59.43	302.46	24.81	-46.8	-49.5	22.8	6.05e-01	0	44	0	709885952	64	5152
2026-01-11 12:48:00.42	302.73	24.70	-46.8	-49.6	22.8	6.08e-01	0	44	0	711983104	64	5161
2026-01-11 12:48:01.41	303.01	24.59	-46.8	-49.6	22.8	6.05e-01	0	43	0	713555968	64	5181
2026-01-11 12:48:02.41	303.28	24.49	-47.0	-49.8	22.6	6.08e-01	0	43	0	715653120	64	5302
2026-01-11 12:48:03.40	303.55	24.38	-47.1	-49.9	22.6	6.07e-01	0	43	0	717225984	64	5345
2026-01-11 12:48:04.39	303.81	24.28	-47.1	-49.8	22.5	6.08e-01	0	44	0	719323136	64	5338
2026-01-11 12:48:05.38	304.08	24.17	-47.1	-49.8	22.5	6.07e-01	0	43	0	721420288	64	5338
2026-01-11 12:48:06.38	304.34	24.06	-47.2	-50.0	22.3	6.04e-01	0	43	0	722993152	65	5111
2026-01-11 12:48:07.37	304.60	23.96	-47.1	-49.9	22.5	6.08e-01	0	43	0	725090304	65	5063
2026-01-11 12:48:08.36	304.86	23.85	-47.1	-49.9	22.5	6.06e-01	0	44	0	726663168	65	5078
2026-01-11 12:48:09.36	305.12	23.74	-47.0	-49.7	22.6	6.07e-01	0	44	0	728760320	65	4978
2026-01-11 12:48:10.35	305.38	23.63	-46.9	-49.6	22.8	6.07e-01	0	44	0	730333184	65	4903
2026-01-11 12:48:11.34	305.63	23.53	-47.0	-49.7	22.6	6.06e-01	0	43	0	732430336	65	4973
2026-01-11 12:48:12.33	305.88	23.42	-47.1	-49.8	22.5	6.06e-01	0	44	0	734003200	65	5041
2026-01-11 12:48:13.32	306.13	23.31	-47.0	-49.8	22.6	6.08e-01	0	43	0	736100352	65	4992
2026-01-11 12:48:14.32	306.39	23.21	-47.0	-49.8	22.6	6.06e-01	0	44	0	738197504	65	4989
2026-01-11 12:48:15.31	306.63	23.10	-47.0	-49.8	22.6	6.05e-01	0	43	0	739770368	65	4992
2026-01-11 12:48:16.30	306.88	22.99	-47.0	-49.7	22.6	6.06e-01	0	44	0	741867520	65	4974
2026-01-11 12:48:17.29	307.12	22.88	-47.0	-49.8	22.6	6.05e-01	0	43	0	743440384	65	5002
2026-01-11 12:48:18.29	307.36	22.78	-46.8	-49.6	22.8	6.08e-01	0	43	0	745537536	65	4871
2026-01-11 12:48:19.28	307.60	22.67	-46.8	-49.5	22.8	6.06e-01	0	43	0	747110400	65	4865
2026-01-11 12:48:20.27	307.84	22.56	-46.8	-49.6	22.8	6.07e-01	0	43	0	749207552	65	4897
2026-01-11 12:48:21.27	308.08	22.45	-46.9	-49.7	22.6	6.08e-01	0	44	0	750780416	65	4961
2026-01-11 12:48:22.26	308.31	22.35	-46.8	-49.6	22.7	6.05e-01	0	44	0	752877568	65	4915
2026-01-11 12:48:23.25	308.55	22.24	-46.8	-49.6	22.7	6.07e-01	0	43	0	754450432	65	4913
2026-01-11 12:48:24.25	308.78	22.13	-47.0	-49.8	22.6	6.07e-01	0	43	0	756547584	65	5011
2026-01-11 12:48:25.24	309.01	22.03	-46.9	-49.7	22.6	6.05e-01	0	44	0	758644736	65	4981
2026-01-11 12:48:26.23	309.24	21.92	-46.9	-49.8	22.6	6.06e-01	0	43	0	760217600	65	4997
2026-01-11 12:48:27.23	309.47	21.81	-46.9	-49.7	22.6	6.05e-01	0	43	0	762314752	65	4967
2026-01-11 12:48:28.22	309.69	21.70	-46.7	-49.6	22.7	6.09e-01	0	44	0	763887616	65	4905
2026-01-11 12:48:29.21	309.92	21.60	-46.7	-49.6	22.7	6.05e-01	0	43	0	765984768	65	4910
2026-01-11 12:48:30.20	310.14	21.49	-46.6	-49.5	22.8	6.06e-01	0	43	0	767557632	65	4869
2026-01-11 12:48:31.20	310.36	21.38	-46.6	-49.6	22.7	6.08e-01	0	43	0	769654784	65	4903
2026-01-11 12:48:32.19	310.58	21.28	-46.6	-49.6	22.7	6.07e-01	0	44	0	771227648	65	4906
2026-01-11 12:48:33.18	310.80	21.17	-46.6	-49.6	22.7	6.06e-01	0	44	0	773324800	65	4911
2026-01-11 12:48:34.17	311.01	21.06	-46.7	-49.7	22.6	6.05e-01	0	43	0	775421952	65	4979
2026-01-11 12:48:35.17	311.23	20.96	-46.7	-49.6	22.7	6.07e-01	0	44	0	776994816	65	4911
2026-01-11 12:48:36.16	311.44	20.85	-46.7	-49.6	22.7	6.05e-01	0	43	0	779091968	65	4890
2026-01-11 12:48:37.15	311.65	20.74	-46.8	-49.7	22.7	6.07e-01	0	44	0	780664832	65	4931
2026-01-11 12:48:38.15	311.86	20.64	-46.9	-49.7	22.6	6.06e-01	0	43	0	782761984	65	4950
2026-01-11 12:48:39.14	312.07	20.53	-46.7	-49.5	22.8	6.07e-01	0	43	0	784334848	65	4834
2026-01-11 12:48:40.13	312.28	20.43	-46.6	-49.4	22.9	6.06e-01	0	44	0	786432000	65	4760
2026-01-11 12:48:41.12	312.48	20.32	-46.6	-49.4	22.9	6.05e-01	0	44	0	788004864	65	4779
2026-01-11 12:48:42.12	312.69	20.21	-46.7	-49.5	22.8	6.06e-01	0	43	0	790102016	65	4832
2026-01-11 12:48:43.11	312.89	20.11	-46.6	-49.4	22.8	6.09e-01	0	44	0	791674880	65	4797
2026-01-11 12:48:44.10	313.09	20.00	-46.7	-49.5	22.8	6.04e-01	0	43	0	793772032	65	4815
2026-01-11 12:48:45.10	313.29	19.90	-46.7	-49.5	22.8	6.08e-01	0	44	0	795869184	65	4837
2026-01-11 12:48:46.09	313.49	19.79	-46.7	-49.6	22.7	6.08e-01	0	44	0	797442048	65	4894
2026-01-11 12:48:47.08	313.68	19.69	-46.6	-49.4	22.8	6.08e-01	0	44	0	799539200	65	4803
2026-01-11 12:48:48.07	313.88	19.59	-46.6	-49.5	22.8	6.06e-01	0	44	0	801112064	65	4829
2026-01-11 12:48:49.07	314.08	19.48	-46.6	-49.5	22.8	6.09e-01	0	44	0	803209216	65	4862
2026-01-11 12:48:50.06	314.27	19.38	-46.5	-49.5	22.8	6.07e-01	0	44	0	804782080	65	4815
2026-01-11 12:48:51.05	314.46	19.27	-46.5	-49.5	22.8	6.08e-01	0	44	0	806879232	64	5102
2026-01-11 12:48:52.05	314.65	19.17	-46.4	-49.4	22.8	6.04e-01	0	43	0	808452096	64	5087
2026-01-11 12:48:53.04	314.84	19.06	-46.4	-49.4	22.9	6.07e-01	0	44	0	810549248	64	5070
2026-01-11 12:48:54.03	315.03	18.96	-46.5	-49.5	22.8	6.09e-01	0	44	0	812646400	64	5103
2026-01-11 12:48:55.02	315.21	18.86	-46.7	-49.5	22.8	6.06e-01	0	44	0	814219264	64	5124
2026-01-11 12:48:56.02	315.40	18.75	-46.7	-49.5	22.8	6.07e-01	0	44	0	816316416	64	5106
2026-01-11 12:48:57.01	315.58	18.65	-46.7	-49.4	22.9	6.10e-01	0	43	0	817889280	64	5070
2026-01-11 12:48:58.00	315.76	18.55	-46.7	-49.5	22.8	6.06e-01	0	44	0	819986432	64	5117
2026-01-11 12:48:59.00	315.94	18.45	-46.7	-49.4	22.9	6.08e-01	0	43	0	821559296	64	5052
2026-01-11 12:48:59.99	316.12	18.34	-46.7	-49.4	22.9	6.07e-01	0	44	0	823656448	64	5055
2026-01-11 12:49:00.98	316.30	18.24	-46.7	-49.4	22.8	6.06e-01	0	44	0	825229312	64	5083
2026-01-11 12:49:01.97	316.48	18.14	-46.7	-49.5	22.8	6.06e-01	0	44	0	827326464	64	5131
2026-01-11 12:49:02.97	316.66	18.04	-46.7	-49.4	22.8	6.06e-01	0	44	0	829423616	64	5087
2026-01-11 12:49:03.96	316.83	17.94	-46.7	-49.5	22.8	6.08e-01	0	44	0	830996480	64	5109
2026-01-11 12:49:04.95	317.00	17.84	-46.7	-49.5	22.7	6.09e-01	0	44	0	833093632	64	5142
2026-01-11 12:49:05.94	317.18	17.74	-46.6	-49.5	22.7	6.06e-01	0	44	0	834666496	64	5129
2026-01-11 12:49:06.94	317.35	17.63	-46.5	-49.5	22.8	6.10e-01	0	44	0	836763648	64	5107
2026-01-11 12:49:07.93	317.52	17.53	-46.5	-49.5	22.8	6.06e-01	0	44	0	838336512	64	5118
2026-01-11 12:49:08.92	317.69	17.43	-46.5	-49.5	22.8	6.07e-01	0	43	0	840433664	64	5106
2026-01-11 12:49:09.92	317.86	17.33	-46.4	-49.3	22.9	6.06e-01	0	44	0	842006528	64	5039
2026-01-11 12:49:10.91	318.02	17.23	-46.4	-49.4	22.8	6.08e-01	0	44	0	844103680	64	5054
2026-01-11 12:49:11.90	318.19	17.14	-46.2	-49.3	22.9	6.07e-01	0	44	0	845676544	64	4993
2026-01-11 12:49:12.89	318.35	17.04	-46.4	-49.4	22.8	6.05e-01	0	44	0	847773696	64	5084
2026-01-11 12:49:13.89	318.51	16.94	-46.3	-49.3	22.9	6.06e-01	0	44	0	849870848	64	5026
2026-01-11 12:49:14.88	318.68	16.84	-46.3	-49.3	22.9	6.05e-01	0	44	0	851443712	64	5007
2026-01-11 12:49:15.87	318.84	16.74	-46.3	-49.4	22.8	6.06e-01	0	43	0	853540864	64	5060
2026-01-11 12:49:16.87	319.00	16.64	-46.3	-49.4	22.8	6.08e-01	0	43	0	855113728	64	5095
2026-01-11 12:49:17.86	319.16	16.54	-46.3	-49.4	22.9	6.08e-01	0	44	0	857210880	64	5058
2026-01-11 12:49:18.85	319.31	16.44	-46.5	-49.6	22.7	6.06e-01	0	44	0	858783744	64	5162
2026-01-11 12:49:19.84	319.47	16.35	-46.4	-49.5	22.7	6.06e-01	0	44	0	860880896	64	5108
2026-01-11 12:49:20.84	319.63	16.25	-46.5	-49.6	22.6	6.08e-01	0	44	0	862453760	64	5176
2026-01-11 12:49:21.83	319.78	16.15	-46.6	-49.6	22.6	6.07e-01	0	44	0	864550912	64	5177
2026-01-11 12:49:22.82	319.93	16.06	-46.5	-49.5	22.7	6.06e-01	0	44	0	866648064	64	5117
2026-01-11 12:49:23.82	320.09	15.96	-46.7	-49.6	22.6	6.04e-01	0	44	0	868220928	64	5212
2026-01-11 12:49:24.81	320.24	15.86	-46.6	-49.5	22.7	6.08e-01	0	43	0	870318080	64	5132
2026-01-11 12:49:25.80	320.39	15.77	-46.6	-49.5	22.8	6.06e-01	0	44	0	871890944	64	5109
2026-01-11 12:49:26.80	320.54	15.67	-46.6	-49.5	22.8	6.09e-01	0	44	0	873988096	64	5112
2026-01-11 12:49:27.79	320.69	15.57	-46.7	-49.5	22.7	6.05e-01	0	44	0	875560960	64	5154
2026-01-11 12:49:28.78	320.84	15.48	-46.7	-49.5	22.7	6.08e-01	0	43	0	877658112	64	5144
2026-01-11 12:49:29.77	320.98	15.38	-46.6	-49.5	22.7	6.09e-01	0	44	0	879230976	64	5133
2026-01-11 12:49:30.77	321.13	15.29	-46.6	-49.5	22.7	6.06e-01	0	44	0	881328128	64	5121
2026-01-11 12:49:31.76	321.27	15.19	-46.5	-49.5	22.7	6.06e-01	0	43	0	882900992	64	5149
2026-01-11 12:49:32.75	321.42	15.10	-46.5	-49.6	22.6	6.07e-01	0	44	0	884998144	64	5186
2026-01-11 12:49:33.75	321.56	15.00	-46.4	-49.5	22.7	6.07e-01	0	44	0	887095296	64	5103
2026-01-11 12:49:34.74	321.70	14.91	-46.5	-49.5	22.7	6.07e-01	0	43	0	888668160	64	5157
2026-01-11 12:49:35.73	321.84	14.82	-46.6	-49.5	22.6	6.08e-01	0	43	0	890765312	64	5148
2026-01-11 12:49:36.73	321.98	14.72	-46.7	-49.6	22.6	6.08e-01	0	44	0	892338176	64	5217
2026-01-11 12:49:37.72	322.12	14.63	-46.8	-49.7	22.5	6.05e-01	0	44	0	894435328	64	5272
2026-01-11 12:49:38.71	322.26	14.54	-46.9	-49.8	22.4	6.09e-01	0	44	0	896008192	64	5303
2026-01-11 12:49:39.70	322.40	14.45	-46.9	-49.7	22.5	6.07e-01	0	44	0	898105344	64	5231
2026-01-11 12:49:40.70	322.54	14.35	-47.0	-49.8	22.4	6.09e-01	0	44	0	899678208	64	5303
2026-01-11 12:49:41.69	322.67	14.26	-46.9	-49.7	22.5	6.09e-01	0	44	0	901775360	64	5268
2026-01-11 12:49:42.68	322.80	14.17	-46.9	-49.7	22.5	6.05e-01	0	44	0	903872512	64	5247
2026-01-11 12:49:43.68	322.94	14.08	-46.9	-49.8	22.4	6.07e-01	0	43	0	905445376	64	5283
2026-01-11 12:49:44.67	323.07	13.98	-46.8	-49.7	22.6	6.07e-01	0	44	0	907542528	64	5221
2026-01-11 12:49:45.66	323.20	13.89	-46.8	-49.6	22.6	6.10e-01	0	44	0	909115392	64	5188
2026-01-11 12:49:46.65	323.34	13.80	-46.8	-49.7	22.5	6.07e-01	0	44	0	911212544	64	5221
2026-01-11 12:49:47.65	323.47	13.71	-46.8	-49.7	22.5	6.07e-01	0	44	0	912785408	64	5251
2026-01-11 12:49:48.64	323.60	13.62	-46.6	-49.6	22.6	6.06e-01	0	44	0	914882560	64	5186
2026-01-11 12:49:49.63	323.72	13.53	-46.5	-49.6	22.6	6.07e-01	0	44	0	916455424	64	5177
2026-01-11 12:49:50.63	323.85	13.44	-46.5	-49.7	22.5	6.07e-01	0	44	0	918552576	64	5244
2026-01-11 12:49:51.62	323.98	13.35	-46.4	-49.8	22.4	6.01e-01	0	44	0	920649728	64	5281
2026-01-11 12:49:52.61	324.11	13.26	-46.4	-50.0	22.2	6.03e-01	0	44	0	922222592	64	5424
2026-01-11 12:49:53.61	324.23	13.17	-46.2	-49.8	22.3	6.04e-01	0	44	0	924319744	64	5323
2026-01-11 12:49:54.60	324.36	13.08	-46.2	-49.8	22.3	6.02e-01	0	44	0	925892608	64	5329
2026-01-11 12:49:55.59	324.48	13.00	-46.3	-50.0	22.2	6.00e-01	0	44	0	927989760	64	5444
2026-01-11 12:49:56.59	324.61	12.91	-46.2	-50.0	22.2	6.04e-01	0	44	0	929562624	64	5425
2026-01-11 12:49:57.58	324.73	12.82	-46.2	-50.0	22.2	6.03e-01	0	44	0	931659776	64	5422
2026-01-11 12:49:58.57	324.85	12.73	-46.3	-50.1	22.1	6.00e-01	0	43	0	933232640	64	5474
2026-01-11 12:49:59.56	324.97	12.64	-46.3	-50.0	22.1	6.03e-01	0	44	0	935329792	64	5447
2026-01-11 12:50:00.56	325.09	12.55	-46.3	-50.0	22.1	6.02e-01	0	44	0	936902656	64	5449
2026-01-11 12:50:01.55	325.21	12.47	-46.3	-50.0	22.1	6.03e-01	0	44	0	938999808	64	5455
2026-01-11 12:50:02.54	325.33	12.38	-46.4	-50.0	22.1	6.00e-01	0	43	0	941096960	64	5440
2026-01-11 12:50:03.54	325.45	12.29	-46.4	-50.0	22.2	6.00e-01	0	44	0	942669824	64	5430
2026-01-11 12:50:04.53	325.57	12.21	-46.6	-50.1	22.1	6.02e-01	0	44	0	944766976	64	5480
2026-01-11 12:50:05.52	325.68	12.12	-46.7	-50.1	22.1	6.00e-01	0	44	0	946339840	64	5475
2026-01-11 12:50:06.51	325.80	12.04	-46.9	-50.1	22.1	6.02e-01	0	44	0	948436992	64	5471
2026-01-11 12:50:07.51	325.91	11.95	-46.9	-50.1	22.1	6.04e-01	0	44	0	950009856	64	5483
2026-01-11 12:50:08.50	326.03	11.86	-47.0	-50.2	22.0	6.05e-01	0	44	0	952107008	64	5530
2026-01-11 12:50:09.49	326.14	11.78	-47.0	-50.1	22.0	6.01e-01	0	44	0	953679872	64	5522
2026-01-11 12:50:10.49	326.26	11.69	-46.9	-50.1	22.1	6.02e-01	0	44	0	955777024	64	5473
2026-01-11 12:50:11.48	326.37	11.61	-46.9	-50.1	22.0	6.01e-01	0	44	0	957874176	64	5510
2026-01-11 12:50:12.47	326.48	11.52	-46.9	-50.2	21.9	6.01e-01	0	44	0	959447040	64	5580
2026-01-11 12:50:13.46	326.59	11.44	-46.9	-50.2	21.9	6.03e-01	0	44	0	961544192	64	5562
2026-01-11 12:50:14.46	326.70	11.36	-46.9	-50.2	21.9	6.03e-01	0	44	0	963117056	64	5565
2026-01-11 12:50:15.45	326.81	11.27	-46.9	-50.2	21.9	5.99e-01	0	44	0	965214208	64	5534
2026-01-11 12:50:16.44	326.92	11.19	-47.1	-50.3	21.9	6.03e-01	0	44	0	966787072	64	5603
2026-01-11 12:50:17.44	327.03	11.10	-47.2	-50.3	21.8	6.01e-01	0	44	0	968884224	65	5302
2026-01-11 12:50:18.43	327.14	11.02	-47.2	-50.2	21.9	6.00e-01	0	44	0	970457088	65	5275
2026-01-11 12:50:19.42	327.24	10.94	-47.4	-50.4	21.7	6.02e-01	0	44	0	972554240	65	5389
2026-01-11 12:50:20.42	327.35	10.86	-47.3	-50.5	21.6	6.00e-01	0	44	0	974651392	65	5431
2026-01-11 12:50:21.41	327.46	10.77	-47.2	-50.5	21.7	6.03e-01	0	44	0	976224256	65	5404
2026-01-11 12:50:22.40	327.56	10.69	-47.1	-50.5	21.7	5.98e-01	0	44	0	978321408	65	5414
2026-01-11 12:50:23.39	327.67	10.61	-47.1	-50.5	21.7	6.00e-01	0	44	0	979894272	65	5423
2026-01-11 12:50:24.39	327.77	10.53	-47.1	-50.5	21.6	6.04e-01	0	44	0	981991424	65	5446
2026-01-11 12:50:25.38	327.88	10.45	-47.0	-50.6	21.5	6.00e-01	0	44	0	983564288	65	5467
2026-01-11 12:50:26.37	327.98	10.36	-47.0	-50.5	21.5	6.00e-01	0	44	0	985661440	65	5457
2026-01-11 12:50:27.37	328.08	10.28	-47.0	-50.6	21.5	6.00e-01	0	44	0	987234304	65	5474
2026-01-11 12:50:28.36	328.18	10.20	-47.0	-50.6	21.5	6.00e-01	0	44	0	989331456	65	5491
2026-01-11 12:50:29.35	328.28	10.12	-47.2	-50.7	21.3	6.01e-01	0	43	0	990904320	65	5578
2026-01-11 12:50:30.35	328.39	10.04	-47.1	-50.5	21.5	6.00e-01	0	44	0	993001472	65	5461
2026-01-11 12:50:31.34	328.49	9.96	-47.3	-50.7	21.4	6.02e-01	0	44	0	995098624	65	5552
2026-01-11 12:50:32.33	328.59	9.88	-47.3	-50.6	21.5	6.03e-01	0	44	0	996671488	65	5508
2026-01-11 12:50:33.32	328.68	9.80	-47.4	-50.7	21.4	6.01e-01	0	44	0	998768640	65	5545
2026-01-11 12:50:34.32	328.78	9.72	-47.5	-50.8	21.3	6.03e-01	0	43	0	1000341504	65	5637
2026-01-11 12:50:35.31	328.88	9.64	-47.5	-50.7	21.4	6.02e-01	0	44	0	1002438656	65	5592
2026-01-11 12:50:36.30	328.98	9.56	-47.5	-50.8	21.3	6.03e-01	0	44	0	1004011520	65	5629
2026-01-11 12:50:37.30	329.08	9.48	-47.4	-50.8	21.3	6.01e-01	0	44	0	1006108672	65	5598
2026-01-11 12:50:38.29	329.17	9.41	-47.4	-50.8	21.3	6.03e-01	0	44	0	1007681536	65	5627
2026-01-11 12:50:39.28	329.27	9.33	-47.4	-50.9	21.2	6.02e-01	0	44	0	1009778688	65	5690
2026-01-11 12:50:40.27	329.36	9.25	-47.4	-51.0	21.2	6.00e-01	0	44	0	1011875840	65	5749
2026-01-11 12:50:41.27	329.46	9.17	-47.3	-51.0	21.2	6.02e-01	0	44	0	1013448704	65	5726
2026-01-11 12:50:42.26	329.55	9.09	-47.1	-50.9	21.1	6.02e-01	0	44	0	1015545856	65	5718
2026-01-11 12:50:43.25	329.65	9.02	-47.1	-51.0	21.0	6.00e-01	0	44	0	1017118720	65	5761
2026-01-11 12:50:44.25	329.74	8.94	-51.9	-73.3	3.6	7.51e-01	0	44	104	1018691584	76	39821
2026-01-11 12:50:45.24	329.83	8.86	-52.9	-73.6	3.8	7.44e-01	0	44	104	1018691584	76	41262
2026-01-11 12:50:46.23	329.92	8.78	-53.0	-73.8	3.9	7.47e-01	0	44	104	1018691584	76	42162
2026-01-11 12:50:47.23	330.02	8.71	-53.2	-74.2	3.8	7.46e-01	0	44	104	1018691584	77	41871
2026-01-11 12:50:48.22	330.11	8.63	-51.8	-73.9	3.7	7.49e-01	0	44	104	1018691584	75	45380
2026-01-11 12:50:49.21	330.20	8.55	-53.0	-74.1	3.8	7.46e-01	0	44	104	1018691584	76	43516
2026-01-11 12:50:50.20	330.29	8.48	-53.2	-74.1	3.8	7.47e-01	0	44	104	1018691584	77	41143
2026-01-11 12:50:51.20	330.38	8.40	-53.2	-74.1	3.8	7.43e-01	0	44	104	1018691584	77	41395
2026-01-11 12:50:52.19	330.47	8.33	-53.9	-74.2	3.8	7.45e-01	0	44	104	1018691584	78	39274
2026-01-11 12:50:53.18	330.55	8.25	-53.7	-74.2	3.8	7.49e-01	0	44	104	1018691584	78	39385
2026-01-11 12:50:54.18	330.64	8.17	-53.8	-74.2	3.8	7.47e-01	0	43	104	1018691584	78	39477
2026-01-11 12:50:55.17	330.73	8.10	-53.2	-74.2	3.8	7.46e-01	0	43	104	1018691584	78	39565
2026-01-11 12:50:56.16	330.82	8.02	-53.7	-74.2	3.8	7.49e-01	0	44	104	1018691584	78	39536
2026-01-11 12:50:57.15	330.91	7.95	-54.0	-74.3	3.8	7.48e-01	0	44	104	1018691584	78	39629
2026-01-11 12:50:58.15	330.99	7.87	-54.0	-74.3	3.8	7.47e-01	0	44	104	1018691584	78	39657
2026-01-11 12:50:59.14	331.08	7.80	-54.3	-74.3	3.8	7.46e-01	0	44	104	1018691584	79	37498
2026-01-11 12:51:00.13	331.16	7.73	-54.2	-74.3	3.8	7.48e-01	0	44	104	1018691584	79	37449
2026-01-11 12:51:01.13	331.25	7.65	-54.1	-74.2	3.8	7.47e-01	0	44	104	1018691584	79	37344
2026-01-11 12:51:02.12	331.33	7.58	-54.2	-74.2	3.8	7.46e-01	0	44	104	1018691584	79	37374
2026-01-11 12:51:03.11	331.42	7.50	-54.2	-74.2	3.8	7.45e-01	0	44	104	1018691584	79	37183
2026-01-11 12:51:04.10	331.50	7.43	-53.7	-74.2	3.8	7.44e-01	0	44	104	1018691584	79	37254
2026-01-11 12:51:05.10	331.58	7.36	-53.8	-74.2	3.8	7.47e-01	0	43	104	1018691584	79	37296
2026-01-11 12:51:06.09	331.67	7.28	-53.8	-74.2	3.8	7.44e-01	0	44	104	1018691584	78	39435
2026-01-11 12:51:07.09	331.75	7.21	-53.6	-74.2	3.8	7.47e-01	0	44	104	1018691584	78	39465
2026-01-11 12:51:08.08	331.83	7.14	-53.6	-74.2	3.8	7.45e-01	0	44	104	1018691584	78	39401
2026-01-11 12:51:09.07	331.91	7.07	-53.6	-74.2	3.8	7.45e-01	0	44	104	1018691584	78	39208
2026-01-11 12:51:10.06	331.99	6.99	-53.6	-74.2	3.8	7.46e-01	0	44	104	1018691584	78	39374
2026-01-11 12:51:11.06	332.08	6.92	-53.6	-74.2	3.8	7.44e-01	0	44	104	1018691584	78	39400
2026-01-11 12:51:12.05	332.16	6.85	-53.6	-74.2	3.8	7.45e-01	0	44	104	1018691584	78	39360
2026-01-11 12:51:13.04	332.24	6.78	-53.6	-74.2	3.8	7.45e-01	0	44	104	1018691584	78	39299
2026-01-11 12:51:14.03	332.32	6.71	-53.6	-74.2	3.8	7.47e-01	0	44	104	1018691584	78	39313
2026-01-11 12:51:15.03	332.39	6.64	-53.6	-74.2	3.8	7.50e-01	0	44	104	1018691584	78	39436
2026-01-11 12:51:16.02	332.47	6.56	-53.6	-74.2	3.8	7.46e-01	0	44	104	1018691584	78	39405
2026-01-11 12:51:17.01	332.55	6.49	-53.6	-74.2	3.8	7.43e-01	0	44	104	1018691584	78	39299
2026-01-11 12:51:18.01	332.63	6.42	-53.6	-74.2	3.8	7.44e-01	0	44	104	1018691584	78	39156
2026-01-11 12:51:19.00	332.71	6.35	-53.6	-74.2	3.8	7.46e-01	0	44	104	1018691584	78	39253
2026-01-11 12:51:19.99	332.78	6.28	-53.6	-74.2	3.8	7.48e-01	0	44	104	1018691584	78	39240
2026-01-11 12:51:20.99	332.86	6.21	-53.6	-74.2	3.8	7.47e-01	0	44	104	1018691584	78	39308
2026-01-11 12:51:21.98	332.94	6.14	-53.6	-74.2	3.8	7.45e-01	0	44	104	1018691584	78	39279
2026-01-11 12:51:22.97	333.01	6.07	-53.6	-74.2	3.8	7.44e-01	0	44	104	1018691584	78	39178
2026-01-11 12:51:23.97	333.09	6.00	-53.6	-74.2	3.8	7.46e-01	0	44	104	1018691584	78	39191
2026-01-11 12:51:24.96	333.17	5.93	-53.6	-74.1	3.8	7.45e-01	0	44	104	1018691584	78	39135
2026-01-11 12:51:25.95	333.24	5.86	-53.6	-74.2	3.8	7.43e-01	0	44	104	1018691584	78	39208
2026-01-11 12:51:26.94	333.31	5.79	-53.6	-74.2	3.8	7.47e-01	0	44	104	1018691584	78	39176
2026-01-11 12:51:27.94	333.39	5.72	-53.6	-74.2	3.8	7.45e-01	0	44	104	1018691584	78	39192
2026-01-11 12:51:28.93	333.46	5.65	-53.6	-74.2	3.8	7.48e-01	0	44	104	1018691584	78	39161
2026-01-11 12:51:29.92	333.54	5.59	-53.6	-74.1	3.8	7.46e-01	0	44	104	1018691584	78	39080
2026-01-11 12:51:30.92	333.61	5.52	-53.6	-74.2	3.8	7.45e-01	0	44	104	1018691584	78	39224
2026-01-11 12:51:31.91	333.68	5.45	-53.6	-74.2	3.8	7.47e-01	0	44	104	1018691584	78	39282
2026-01-11 12:51:32.90	333.75	5.38	-53.6	-74.1	3.8	7.46e-01	0	44	104	1018691584	78	39119
2026-01-11 12:51:33.90	333.83	5.31	-53.6	-74.2	3.8	7.46e-01	0	44	104	1018691584	78	39174
2026-01-11 12:51:34.89	333.90	5.24	-53.6	-74.2	3.8	7.49e-01	0	44	104	1018691584	78	39137
2026-01-11 12:51:35.88	333.97	5.18	-53.6	-74.2	3.8	7.46e-01	0	44	104	1018691584	78	39154
2026-01-11 12:51:36.88	334.04	5.11	-53.6	-74.2	3.8	7.46e-01	0	44	104	1018691584	78	39182
2026-01-11 12:51:37.87	334.11	5.04	-53.6	-74.1	3.8	7.45e-01	0	44	104	1018691584	78	39093
2026-01-11 12:51:38.86	334.18	4.97	-53.6	-74.1	3.8	7.42e-01	0	44	104	1018691584	78	39075

#Closed at: 2026-01-11 12:51:39
#Recorded file [1018 MB]: D:/Data/31040_260111_154102.dat