passes_logs/2026/01/11/T1/T1__20260111_115402_NOAA_21_JPSS-2_rec.log

#Pass ID: 20260111_115402_NOAA 21 (JPSS-2)
#Satellite: NOAA 21 (JPSS-2)
#Configuration: NOAA 21
#almurnet v.1.7.20251203
#Start time: 2026-01-11 11:54:04

#Version: 2.0.20230620
#Station: T1
#Location: 37.570604 lon 55.790049 lat
#TLE: 1 54234U 22150A   26010.92456470  .00000095  00000+0  65865-4 0  9991
#TLE: 2 54234  98.7494 311.8737 0000784 316.5119  43.5995 14.19533975164234

#Time	Az	El	Level	Level2	SNR	BER	BlckErr	Temp	State	Recorded	gain1	gain2
2026-01-11 11:54:04.27	227.50	5.09	-51.9	-65.0	3.8	1.49e+00	0	43	0	0	75	16202
2026-01-11 11:54:05.26	227.60	5.13	-51.9	-64.9	3.8	1.49e+00	0	43	104	0	75	16103
2026-01-11 11:54:06.25	227.71	5.18	-51.9	-64.9	3.8	1.49e+00	0	43	104	0	75	16098
2026-01-11 11:54:07.24	227.82	5.23	-51.9	-64.9	3.8	1.49e+00	0	43	104	0	75	16111
2026-01-11 11:54:08.23	227.93	5.28	-51.9	-65.0	3.8	1.49e+00	0	43	104	0	75	16206
2026-01-11 11:54:09.23	228.04	5.33	-51.9	-65.0	3.8	1.49e+00	0	43	104	0	75	16226
2026-01-11 11:54:10.22	228.15	5.38	-51.9	-65.0	3.8	1.49e+00	0	43	104	0	75	16132
2026-01-11 11:54:11.21	228.26	5.43	-51.9	-64.9	3.8	1.49e+00	0	43	104	0	75	16108
2026-01-11 11:54:12.21	228.37	5.48	-51.9	-64.9	3.8	1.49e+00	0	43	104	0	75	16074
2026-01-11 11:54:13.20	228.48	5.53	-51.9	-65.0	3.8	1.49e+00	0	43	104	0	75	16199
2026-01-11 11:54:14.19	228.60	5.58	-51.9	-65.0	3.8	1.49e+00	0	43	104	0	75	16166
2026-01-11 11:54:15.19	228.71	5.64	-51.9	-65.0	3.8	1.49e+00	0	43	104	0	75	16151
2026-01-11 11:54:16.18	228.82	5.69	-51.9	-64.9	3.8	1.49e+00	0	43	104	0	75	16120
2026-01-11 11:54:17.17	228.93	5.73	-51.9	-65.0	3.8	1.49e+00	0	43	104	0	75	16140
2026-01-11 11:54:18.16	229.05	5.78	-51.9	-65.0	3.8	1.49e+00	0	43	104	0	75	16160
2026-01-11 11:54:19.16	229.16	5.84	-51.9	-64.9	3.8	1.49e+00	0	43	104	0	75	16074
2026-01-11 11:54:20.15	229.27	5.89	-51.9	-64.9	3.8	1.49e+00	0	43	104	0	75	16088
2026-01-11 11:54:21.14	229.39	5.94	-51.9	-64.9	3.8	1.49e+00	0	43	104	0	75	16018
2026-01-11 11:54:22.14	229.50	5.99	-51.9	-64.9	3.8	1.49e+00	0	43	104	0	75	16001
2026-01-11 11:54:23.13	229.62	6.04	-51.9	-64.9	3.8	1.49e+00	0	43	104	0	75	15980
2026-01-11 11:54:24.12	229.73	6.09	-51.9	-64.8	3.8	1.49e+00	0	43	104	0	75	15903
2026-01-11 11:54:25.11	229.85	6.14	-51.9	-64.8	3.8	1.49e+00	0	43	104	0	75	15931
2026-01-11 11:54:26.11	229.97	6.19	-51.9	-64.8	3.8	1.49e+00	0	43	104	0	75	15856
2026-01-11 11:54:27.10	230.08	6.24	-51.9	-64.8	3.8	1.49e+00	0	43	104	0	75	15925
2026-01-11 11:54:28.09	230.20	6.29	-51.9	-64.9	3.8	1.49e+00	0	43	104	0	75	16012
2026-01-11 11:54:29.08	230.32	6.34	-51.9	-64.9	3.8	1.49e+00	0	43	104	0	75	16053
2026-01-11 11:54:30.08	230.44	6.39	-51.9	-64.9	3.8	1.49e+00	0	43	104	0	75	16091
2026-01-11 11:54:31.07	230.55	6.44	-51.9	-64.9	3.8	1.49e+00	0	43	104	0	75	16111
2026-01-11 11:54:32.06	230.67	6.49	-51.9	-65.0	3.8	1.49e+00	0	43	104	0	75	16129
2026-01-11 11:54:33.06	230.79	6.54	-51.8	-64.9	3.8	1.49e+00	0	43	104	0	75	16115
2026-01-11 11:54:34.05	230.91	6.59	-51.8	-64.9	3.8	1.49e+00	0	43	104	0	75	16056
2026-01-11 11:54:35.04	231.03	6.64	-51.8	-64.9	3.8	1.49e+00	0	43	104	0	75	16085
2026-01-11 11:54:36.04	231.15	6.69	-51.9	-64.9	3.8	1.49e+00	0	43	104	0	75	16113
2026-01-11 11:54:37.03	231.27	6.74	-51.8	-64.9	3.8	1.49e+00	0	43	104	0	75	16108
2026-01-11 11:54:38.02	231.39	6.79	-51.8	-64.8	3.8	1.49e+00	0	43	104	0	75	15927
2026-01-11 11:54:39.02	231.52	6.84	-51.8	-64.8	3.8	1.49e+00	0	43	104	0	75	15872
2026-01-11 11:54:40.01	231.64	6.89	-51.8	-64.8	3.8	1.49e+00	0	43	104	0	75	15827
2026-01-11 11:54:41.00	231.76	6.94	-51.8	-64.8	3.8	1.49e+00	0	43	104	0	75	15763
2026-01-11 11:54:41.99	231.88	6.99	-51.8	-64.8	3.8	1.49e+00	0	43	104	0	75	15823
2026-01-11 11:54:42.99	232.00	7.04	-51.8	-64.8	3.8	1.49e+00	0	43	104	0	75	15880
2026-01-11 11:54:43.98	232.13	7.09	-51.8	-64.7	3.8	1.49e+00	0	43	104	0	75	15674
2026-01-11 11:54:44.97	232.25	7.14	-51.8	-64.6	3.8	1.49e+00	0	43	104	0	75	15535
2026-01-11 11:54:45.97	232.38	7.19	-51.8	-64.6	3.8	1.49e+00	0	43	104	0	75	15406
2026-01-11 11:54:46.96	232.50	7.24	-51.8	-64.5	3.8	1.49e+00	0	43	104	0	75	15376
2026-01-11 11:54:47.95	232.63	7.29	-51.8	-64.6	3.8	1.49e+00	0	43	104	0	75	15479
2026-01-11 11:54:48.94	232.75	7.33	-51.8	-64.7	3.8	1.49e+00	0	43	104	0	75	15671
2026-01-11 11:54:49.94	232.88	7.38	-51.8	-64.7	3.8	1.49e+00	0	43	104	0	75	15709
2026-01-11 11:54:50.93	233.00	7.43	-51.8	-64.6	3.8	1.49e+00	0	43	104	0	75	15564
2026-01-11 11:54:51.92	233.13	7.48	-51.8	-64.5	3.8	1.49e+00	0	43	104	0	75	15333
2026-01-11 11:54:52.92	233.26	7.53	-51.8	-64.5	3.8	1.49e+00	0	43	104	0	75	15309
2026-01-11 11:54:53.91	233.39	7.58	-51.8	-64.6	3.8	1.49e+00	0	43	104	0	75	15414
2026-01-11 11:54:54.90	233.51	7.63	-51.8	-64.7	3.8	1.49e+00	0	43	104	0	75	15598
2026-01-11 11:54:55.90	233.64	7.68	-51.8	-64.8	3.8	1.49e+00	0	43	104	0	75	15791
2026-01-11 11:54:56.89	233.77	7.73	-51.8	-64.8	3.8	1.49e+00	0	43	104	0	75	15852
2026-01-11 11:54:57.88	233.90	7.78	-51.8	-64.7	3.8	1.49e+00	0	43	104	0	75	15716
2026-01-11 11:54:58.87	234.03	7.83	-51.8	-64.6	3.8	1.49e+00	0	43	104	0	75	15471
2026-01-11 11:54:59.87	234.16	7.88	-51.8	-64.4	3.8	1.49e+00	0	43	104	0	75	15184
2026-01-11 11:55:00.86	234.29	7.93	-51.8	-64.3	3.8	1.49e+00	0	43	104	0	75	15040
2026-01-11 11:55:01.85	234.42	7.98	-51.8	-64.3	3.8	1.49e+00	0	43	104	0	75	14910
2026-01-11 11:55:02.85	234.55	8.03	-51.8	-64.5	3.8	1.49e+00	0	43	104	0	75	15237
2026-01-11 11:55:03.84	234.68	8.08	-51.8	-64.6	3.8	1.49e+00	0	43	104	0	75	15442
2026-01-11 11:55:04.83	234.82	8.13	-51.8	-64.5	3.8	1.49e+00	0	43	104	0	75	15274
2026-01-11 11:55:05.82	234.95	8.18	-51.8	-63.9	3.8	1.49e+00	0	43	104	0	75	14322
2026-01-11 11:55:06.82	235.08	8.23	-51.7	-63.2	3.8	1.49e+00	0	43	104	0	75	13241
2026-01-11 11:55:07.81	235.22	8.28	-51.6	-62.6	3.9	1.49e+00	0	43	104	0	75	12269
2026-01-11 11:55:08.80	235.35	8.33	-51.7	-63.3	3.8	1.49e+00	0	43	104	0	75	13367
2026-01-11 11:55:09.80	235.49	8.38	-51.8	-64.4	3.8	1.49e+00	0	43	104	0	75	15187
2026-01-11 11:55:10.79	235.62	8.42	-51.8	-64.4	3.8	1.49e+00	0	43	104	0	75	15163
2026-01-11 11:55:11.78	235.75	8.47	-51.4	-61.2	4.0	1.48e+00	0	43	104	0	74	11078
2026-01-11 11:55:12.78	235.89	8.52	-50.4	-56.4	7.2	2.69e-01	0	43	0	0	72	7160
2026-01-11 11:55:13.77	236.03	8.57	-49.2	-53.5	10.1	1.11e-02	0	43	0	0	70	5736
2026-01-11 11:55:14.76	236.16	8.62	-47.7	-51.0	12.5	1.97e-04	0	43	0	0	67	5151
2026-01-11 11:55:15.75	236.30	8.67	-46.8	-49.6	14.0	7.60e-06	0	43	0	0	65	4887
2026-01-11 11:55:16.75	236.44	8.72	-46.0	-48.6	15.0	0.00e+00	0	43	0	0	64	4612
2026-01-11 11:55:17.74	236.58	8.77	-46.0	-48.5	15.1	0.00e+00	0	43	0	0	63	4851
2026-01-11 11:55:18.73	236.71	8.82	-46.1	-48.6	15.0	0.00e+00	0	43	0	0	63	4887
2026-01-11 11:55:19.72	236.85	8.87	-46.5	-49.2	14.5	3.00e-06	0	43	0	0	63	5222
2026-01-11 11:55:20.72	236.99	8.91	-47.1	-50.0	13.5	3.00e-06	0	43	0	0	64	5440
2026-01-11 11:55:21.71	237.13	8.96	-47.8	-51.1	12.4	6.40e-05	0	43	0	0	66	5521
2026-01-11 11:55:22.70	237.27	9.01	-48.5	-52.4	11.1	9.96e-04	0	43	0	0	67	6027
2026-01-11 11:55:23.70	237.41	9.06	-50.2	-55.6	8.3	5.77e-03	0	43	0	0	70	7330
2026-01-11 11:55:24.69	237.56	9.11	-46.7	-49.5	14.1	1.05e-01	0	43	0	0	65	4837
2026-01-11 11:55:25.68	237.70	9.16	-49.5	-54.2	9.5	2.46e-04	0	43	0	0	69	6584
2026-01-11 11:55:26.68	237.84	9.21	-49.2	-53.3	10.3	2.99e-02	0	43	0	0	70	5655
2026-01-11 11:55:27.67	237.98	9.25	-46.5	-49.3	14.3	1.01e-04	0	43	0	0	65	4706
2026-01-11 11:55:28.66	238.12	9.30	-46.6	-49.3	14.3	2.20e-06	0	43	0	0	65	4730
2026-01-11 11:55:29.65	238.27	9.35	-46.5	-49.2	14.4	0.00e+00	0	43	0	0	64	4966
2026-01-11 11:55:30.65	238.41	9.40	-46.5	-49.2	14.4	1.50e-06	0	43	0	0	64	4929
2026-01-11 11:55:31.64	238.56	9.45	-46.0	-48.5	15.1	0.00e+00	0	43	0	0	64	4572
2026-01-11 11:55:32.63	238.70	9.49	-45.7	-48.0	15.6	0.00e+00	0	43	0	0	63	4598
2026-01-11 11:55:33.63	238.85	9.54	-45.4	-47.7	16.0	0.00e+00	0	43	0	0	62	4652
2026-01-11 11:55:34.62	238.99	9.59	-45.2	-47.4	16.2	0.00e+00	0	43	0	0	62	4545
2026-01-11 11:55:35.61	239.14	9.64	-45.2	-47.4	16.2	0.00e+00	0	43	0	0	62	4511
2026-01-11 11:55:36.60	239.28	9.69	-45.1	-47.3	16.3	0.00e+00	0	43	0	0	62	4465
2026-01-11 11:55:37.60	239.43	9.73	-45.0	-47.2	16.4	0.00e+00	0	43	0	0	62	4426
2026-01-11 11:55:38.59	239.58	9.78	-45.0	-47.2	16.4	0.00e+00	0	43	0	0	62	4430
2026-01-11 11:55:39.58	239.73	9.83	-45.0	-47.3	16.4	0.00e+00	0	43	0	0	62	4446
2026-01-11 11:55:40.57	239.88	9.88	-45.0	-47.2	16.4	0.00e+00	0	43	0	0	61	4654
2026-01-11 11:55:41.57	240.03	9.92	-45.0	-47.2	16.4	0.00e+00	0	43	0	0	61	4681
2026-01-11 11:55:42.56	240.17	9.97	-45.0	-47.2	16.3	0.00e+00	0	43	0	0	61	4695
2026-01-11 11:55:43.55	240.32	10.02	-45.0	-47.1	16.5	0.00e+00	0	43	0	0	61	4637
2026-01-11 11:55:44.55	240.48	10.06	-45.1	-47.3	16.3	0.00e+00	0	43	0	0	61	4732
2026-01-11 11:55:45.54	240.63	10.11	-45.1	-47.3	16.3	0.00e+00	0	43	0	0	61	4752
2026-01-11 11:55:46.53	240.78	10.16	-45.1	-47.3	16.3	0.00e+00	0	43	0	0	61	4735
2026-01-11 11:55:47.53	240.93	10.21	-45.0	-47.2	16.4	0.00e+00	0	43	0	0	61	4701
2026-01-11 11:55:48.52	241.08	10.25	-45.2	-47.4	16.3	0.00e+00	0	43	0	0	61	4777
2026-01-11 11:55:49.51	241.23	10.30	-45.0	-47.2	16.4	0.00e+00	0	43	0	0	61	4694
2026-01-11 11:55:50.50	241.39	10.35	-45.0	-47.2	16.5	0.00e+00	0	43	0	0	61	4686
2026-01-11 11:55:51.50	241.54	10.39	-45.1	-47.3	16.4	0.00e+00	0	43	0	0	61	4718
2026-01-11 11:55:52.49	241.69	10.44	-45.0	-47.2	16.5	0.00e+00	0	43	0	0	61	4667
2026-01-11 11:55:53.48	241.85	10.48	-44.9	-47.1	16.5	0.00e+00	0	43	0	0	61	4631
2026-01-11 11:55:54.48	242.01	10.53	-44.9	-47.1	16.5	0.00e+00	0	43	0	0	61	4627
2026-01-11 11:55:55.47	242.16	10.58	-44.9	-47.0	16.6	0.00e+00	0	43	0	0	61	4591
2026-01-11 11:55:56.46	242.32	10.62	-44.9	-47.1	16.6	0.00e+00	0	43	0	0	61	4613
2026-01-11 11:55:57.46	242.47	10.67	-44.9	-47.0	16.7	0.00e+00	0	43	0	0	61	4573
2026-01-11 11:55:58.45	242.63	10.71	-44.8	-47.0	16.7	0.00e+00	0	43	0	0	61	4565
2026-01-11 11:55:59.44	242.79	10.76	-44.8	-46.9	16.7	0.00e+00	0	43	0	0	61	4535
2026-01-11 11:56:00.43	242.94	10.81	-44.8	-46.9	16.8	0.00e+00	0	43	0	0	61	4517
2026-01-11 11:56:01.43	243.10	10.85	-44.7	-46.9	16.8	0.00e+00	0	43	0	0	61	4495
2026-01-11 11:56:02.42	243.26	10.90	-44.7	-46.8	16.9	0.00e+00	0	43	0	0	61	4443
2026-01-11 11:56:03.41	243.42	10.94	-44.7	-46.7	16.9	0.00e+00	0	43	0	0	61	4436
2026-01-11 11:56:04.41	243.58	10.99	-44.7	-46.7	16.9	0.00e+00	0	43	0	0	61	4436
2026-01-11 11:56:05.40	243.74	11.03	-44.7	-46.8	16.9	0.00e+00	0	43	0	0	61	4451
2026-01-11 11:56:06.39	243.90	11.08	-44.6	-46.7	16.9	0.00e+00	0	43	0	0	61	4429
2026-01-11 11:56:07.39	244.07	11.12	-44.7	-46.8	16.8	0.00e+00	0	43	0	0	61	4482
2026-01-11 11:56:08.38	244.23	11.17	-44.6	-46.7	17.0	0.00e+00	0	43	0	0	61	4395
2026-01-11 11:56:09.37	244.39	11.21	-44.6	-46.7	16.9	0.00e+00	0	43	0	0	61	4419
2026-01-11 11:56:10.36	244.55	11.26	-44.6	-46.7	16.9	0.00e+00	0	43	0	0	61	4425
2026-01-11 11:56:11.36	244.71	11.30	-44.7	-46.8	16.8	0.00e+00	0	43	0	0	61	4493
2026-01-11 11:56:12.35	244.88	11.34	-44.8	-46.9	16.8	0.00e+00	0	43	0	0	61	4533
2026-01-11 11:56:13.34	245.04	11.39	-44.7	-46.9	16.8	0.00e+00	0	43	0	0	61	4495
2026-01-11 11:56:14.34	245.21	11.43	-44.7	-46.9	16.8	0.00e+00	0	43	0	0	61	4499
2026-01-11 11:56:15.33	245.37	11.48	-44.8	-47.0	16.7	0.00e+00	0	43	0	0	61	4559
2026-01-11 11:56:16.32	245.54	11.52	-44.8	-46.9	16.7	0.00e+00	0	43	0	0	61	4534
2026-01-11 11:56:17.31	245.70	11.56	-44.7	-46.8	16.8	0.00e+00	0	43	0	0	61	4469
2026-01-11 11:56:18.31	245.87	11.61	-44.6	-46.7	16.9	0.00e+00	0	43	0	0	61	4432
2026-01-11 11:56:19.30	246.04	11.65	-44.7	-46.8	16.9	0.00e+00	0	43	0	0	61	4449
2026-01-11 11:56:20.29	246.20	11.69	-44.6	-46.7	17.0	0.00e+00	0	43	0	0	61	4424
2026-01-11 11:56:21.29	246.37	11.74	-44.6	-46.7	17.0	0.00e+00	0	43	0	0	61	4406
2026-01-11 11:56:22.28	246.54	11.78	-44.7	-46.8	16.9	0.00e+00	0	43	0	0	61	4454
2026-01-11 11:56:23.27	246.71	11.82	-44.7	-46.8	16.9	0.00e+00	0	43	0	0	61	4472
2026-01-11 11:56:24.26	246.88	11.86	-44.8	-46.9	16.8	0.00e+00	0	43	0	0	61	4515
2026-01-11 11:56:25.26	247.05	11.91	-44.8	-47.0	16.7	0.00e+00	0	43	0	0	61	4556
2026-01-11 11:56:26.25	247.22	11.95	-44.8	-47.0	16.7	0.00e+00	0	43	0	0	61	4546
2026-01-11 11:56:27.24	247.39	11.99	-44.9	-47.0	16.6	0.00e+00	0	43	0	0	61	4597
2026-01-11 11:56:28.24	247.56	12.03	-45.0	-47.1	16.5	0.00e+00	0	43	0	0	61	4648
2026-01-11 11:56:29.23	247.73	12.07	-45.0	-47.1	16.5	0.00e+00	0	43	0	0	61	4638
2026-01-11 11:56:30.22	247.90	12.11	-45.0	-47.2	16.5	0.00e+00	0	43	0	0	61	4669
2026-01-11 11:56:31.22	248.08	12.16	-45.1	-47.3	16.4	0.00e+00	0	43	0	0	61	4718
2026-01-11 11:56:32.21	248.25	12.20	-45.0	-47.2	16.5	0.00e+00	0	43	0	0	61	4670
2026-01-11 11:56:33.20	248.42	12.24	-45.0	-47.2	16.5	0.00e+00	0	43	0	0	61	4692
2026-01-11 11:56:34.20	248.60	12.28	-45.0	-47.2	16.6	0.00e+00	0	43	0	0	61	4652
2026-01-11 11:56:35.19	248.77	12.32	-44.9	-47.1	16.7	0.00e+00	0	43	0	0	61	4600
2026-01-11 11:56:36.18	248.95	12.36	-45.0	-47.2	16.5	0.00e+00	0	43	0	0	61	4674
2026-01-11 11:56:37.17	249.12	12.40	-45.0	-47.2	16.5	0.00e+00	0	43	0	0	61	4672
2026-01-11 11:56:38.17	249.30	12.44	-44.9	-47.1	16.7	0.00e+00	0	43	0	0	61	4618
2026-01-11 11:56:39.16	249.48	12.48	-45.0	-47.1	16.6	0.00e+00	0	43	0	0	61	4646
2026-01-11 11:56:40.15	249.65	12.52	-44.9	-47.0	16.7	0.00e+00	0	43	0	0	61	4573
2026-01-11 11:56:41.15	249.83	12.56	-44.9	-47.0	16.8	0.00e+00	0	43	0	0	61	4568
2026-01-11 11:56:42.14	250.01	12.60	-44.8	-47.0	16.8	0.00e+00	0	43	0	0	61	4552
2026-01-11 11:56:43.13	250.19	12.64	-44.6	-46.7	17.0	0.00e+00	0	43	0	0	61	4438
2026-01-11 11:56:44.13	250.37	12.68	-44.7	-46.8	16.9	0.00e+00	0	43	0	0	61	4452
2026-01-11 11:56:45.12	250.54	12.72	-44.8	-47.0	16.8	0.00e+00	0	43	0	0	61	4552
2026-01-11 11:56:46.11	250.72	12.76	-44.9	-47.1	16.7	0.00e+00	0	43	0	0	61	4601
2026-01-11 11:56:47.10	250.90	12.79	-44.9	-47.1	16.7	0.00e+00	0	43	0	0	61	4605
2026-01-11 11:56:48.10	251.09	12.83	-44.8	-46.9	16.8	0.00e+00	0	43	0	0	61	4535
2026-01-11 11:56:49.09	251.27	12.87	-44.8	-46.9	16.9	0.00e+00	0	43	0	0	61	4514
2026-01-11 11:56:50.08	251.45	12.91	-44.8	-47.0	16.8	0.00e+00	0	43	0	0	61	4553
2026-01-11 11:56:51.08	251.63	12.95	-44.9	-47.0	16.8	0.00e+00	0	43	0	0	61	4581
2026-01-11 11:56:52.07	251.81	12.98	-44.9	-47.1	16.7	0.00e+00	0	43	0	0	61	4610
2026-01-11 11:56:53.06	251.99	13.02	-44.7	-46.8	16.9	0.00e+00	0	43	0	0	61	4484
2026-01-11 11:56:54.05	252.18	13.06	-44.7	-46.8	16.9	0.00e+00	0	43	0	0	61	4482
2026-01-11 11:56:55.05	252.36	13.09	-44.8	-46.9	16.8	0.00e+00	0	43	0	0	61	4545
2026-01-11 11:56:56.04	252.54	13.13	-44.8	-46.9	16.9	0.00e+00	0	43	0	0	61	4507
2026-01-11 11:56:57.03	252.73	13.17	-44.8	-47.0	16.8	0.00e+00	0	43	0	0	61	4558
2026-01-11 11:56:58.03	252.92	13.20	-44.9	-47.0	16.8	0.00e+00	0	43	0	0	61	4577
2026-01-11 11:56:59.02	253.10	13.24	-44.9	-47.0	16.7	0.00e+00	0	43	0	0	61	4564
2026-01-11 11:57:00.01	253.29	13.28	-44.9	-47.0	16.7	0.00e+00	0	43	0	0	61	4589
2026-01-11 11:57:01.00	253.47	13.31	-44.8	-47.0	16.7	0.00e+00	0	43	0	0	61	4556
2026-01-11 11:57:02.00	253.66	13.35	-44.8	-46.9	16.8	0.00e+00	0	43	0	0	61	4526
2026-01-11 11:57:02.99	253.85	13.38	-44.8	-46.9	16.8	0.00e+00	0	43	0	0	61	4537
2026-01-11 11:57:03.98	254.03	13.42	-44.8	-47.0	16.8	0.00e+00	0	43	0	0	61	4562
2026-01-11 11:57:04.98	254.22	13.45	-44.7	-46.9	16.9	0.00e+00	0	43	0	0	61	4515
2026-01-11 11:57:05.97	254.41	13.49	-44.7	-46.8	16.9	0.00e+00	0	43	0	0	61	4462
2026-01-11 11:57:06.96	254.60	13.52	-44.6	-46.8	17.0	0.00e+00	0	43	0	0	61	4456
2026-01-11 11:57:07.95	254.79	13.55	-44.5	-46.6	17.2	0.00e+00	0	43	0	0	60	4604
2026-01-11 11:57:08.94	254.98	13.59	-44.5	-46.6	17.1	0.00e+00	0	43	0	0	60	4631
2026-01-11 11:57:09.94	255.17	13.62	-44.5	-46.6	17.1	0.00e+00	0	43	0	0	60	4651
2026-01-11 11:57:10.93	255.36	13.65	-44.4	-46.5	17.2	0.00e+00	0	43	0	0	60	4591
2026-01-11 11:57:11.92	255.55	13.69	-44.5	-46.5	17.2	0.00e+00	0	43	0	0	60	4582
2026-01-11 11:57:12.92	255.74	13.72	-44.5	-46.5	17.2	0.00e+00	0	43	0	0	60	4590
2026-01-11 11:57:13.91	255.93	13.75	-44.5	-46.6	17.1	0.00e+00	0	43	0	0	60	4607
2026-01-11 11:57:14.90	256.12	13.78	-44.6	-46.7	17.1	0.00e+00	0	43	0	0	60	4654
2026-01-11 11:57:15.90	256.32	13.82	-44.5	-46.6	17.1	0.00e+00	0	43	0	0	60	4641
2026-01-11 11:57:16.89	256.51	13.85	-44.5	-46.6	17.1	0.00e+00	0	43	0	0	60	4617
2026-01-11 11:57:17.88	256.70	13.88	-44.5	-46.6	17.1	0.00e+00	0	43	0	0	60	4610
2026-01-11 11:57:18.87	256.90	13.91	-44.5	-46.6	17.2	0.00e+00	0	43	0	0	60	4606
2026-01-11 11:57:19.87	257.09	13.94	-44.4	-46.4	17.3	0.00e+00	0	43	0	0	60	4520
2026-01-11 11:57:20.86	257.28	13.97	-44.4	-46.5	17.2	0.00e+00	0	43	0	0	60	4547
2026-01-11 11:57:21.85	257.48	14.00	-44.4	-46.5	17.2	0.00e+00	0	43	0	0	60	4577
2026-01-11 11:57:22.85	257.68	14.03	-44.3	-46.3	17.3	0.00e+00	0	43	0	0	60	4487
2026-01-11 11:57:23.84	257.87	14.06	-44.3	-46.3	17.3	0.00e+00	0	43	0	0	60	4490
2026-01-11 11:57:24.83	258.07	14.09	-44.4	-46.4	17.2	0.00e+00	0	43	0	0	60	4535
2026-01-11 11:57:25.82	258.26	14.12	-44.5	-46.5	17.1	0.00e+00	0	43	0	0	60	4591
2026-01-11 11:57:26.82	258.46	14.15	-44.5	-46.6	17.2	0.00e+00	0	43	0	0	60	4628
2026-01-11 11:57:27.81	258.66	14.18	-44.5	-46.6	17.1	0.00e+00	0	43	0	0	60	4646
2026-01-11 11:57:28.80	258.85	14.21	-44.6	-46.7	17.1	0.00e+00	0	43	0	0	60	4667
2026-01-11 11:57:29.80	259.05	14.23	-44.7	-46.8	16.9	0.00e+00	0	43	0	0	60	4756
2026-01-11 11:57:30.79	259.25	14.26	-44.6	-46.7	17.1	0.00e+00	0	43	0	0	60	4660
2026-01-11 11:57:31.78	259.45	14.29	-44.6	-46.7	17.1	0.00e+00	0	43	0	0	60	4687
2026-01-11 11:57:32.77	259.65	14.32	-44.5	-46.6	17.1	0.00e+00	0	43	0	0	60	4610
2026-01-11 11:57:33.77	259.85	14.34	-44.4	-46.5	17.3	0.00e+00	0	43	0	0	60	4550
2026-01-11 11:57:34.76	260.05	14.37	-44.4	-46.5	17.2	0.00e+00	0	43	0	0	60	4567
2026-01-11 11:57:35.75	260.25	14.40	-44.4	-46.5	17.2	0.00e+00	0	43	0	0	60	4561
2026-01-11 11:57:36.75	260.45	14.42	-44.5	-46.5	17.1	0.00e+00	0	43	0	0	60	4598
2026-01-11 11:57:37.74	260.65	14.45	-44.3	-46.4	17.3	0.00e+00	0	43	0	0	60	4521
2026-01-11 11:57:38.73	260.85	14.47	-44.3	-46.4	17.3	0.00e+00	0	43	0	0	60	4504
2026-01-11 11:57:39.73	261.05	14.50	-44.3	-46.3	17.3	0.00e+00	0	43	0	0	60	4490
2026-01-11 11:57:40.72	261.25	14.52	-44.2	-46.2	17.5	0.00e+00	0	43	0	0	60	4411
2026-01-11 11:57:41.71	261.45	14.55	-44.2	-46.2	17.5	0.00e+00	0	43	0	0	60	4403
2026-01-11 11:57:42.70	261.66	14.57	-44.1	-46.0	17.7	0.00e+00	0	43	0	0	60	4337
2026-01-11 11:57:43.70	261.86	14.60	-44.2	-46.2	17.5	0.00e+00	0	43	0	0	60	4402
2026-01-11 11:57:44.69	262.06	14.62	-44.2	-46.2	17.5	0.00e+00	0	43	0	0	60	4411
2026-01-11 11:57:45.68	262.26	14.64	-44.2	-46.2	17.5	0.00e+00	0	43	0	0	60	4411
2026-01-11 11:57:46.67	262.47	14.67	-44.2	-46.2	17.5	0.00e+00	0	43	0	0	60	4413
2026-01-11 11:57:47.67	262.67	14.69	-44.3	-46.4	17.3	0.00e+00	0	43	0	0	60	4511
2026-01-11 11:57:48.66	262.88	14.71	-44.4	-46.5	17.2	0.00e+00	0	43	0	0	60	4549
2026-01-11 11:57:49.65	263.08	14.73	-44.4	-46.5	17.3	0.00e+00	0	43	0	0	60	4555
2026-01-11 11:57:50.65	263.29	14.76	-44.4	-46.5	17.2	0.00e+00	0	43	0	0	60	4593
2026-01-11 11:57:51.64	263.49	14.78	-44.4	-46.5	17.2	0.00e+00	0	43	0	0	60	4567
2026-01-11 11:57:52.63	263.70	14.80	-44.3	-46.4	17.3	0.00e+00	0	43	0	0	60	4534
2026-01-11 11:57:53.62	263.90	14.82	-44.1	-46.2	17.5	0.00e+00	0	43	0	0	60	4394
2026-01-11 11:57:54.62	264.11	14.84	-44.1	-46.1	17.5	0.00e+00	0	43	0	0	60	4386
2026-01-11 11:57:55.61	264.31	14.86	-44.1	-46.1	17.6	0.00e+00	0	43	0	0	60	4341
2026-01-11 11:57:56.60	264.52	14.88	-44.1	-46.0	17.6	0.00e+00	0	43	0	0	60	4333
2026-01-11 11:57:57.60	264.73	14.90	-44.0	-46.0	17.6	0.00e+00	0	43	0	0	60	4314
2026-01-11 11:57:58.59	264.93	14.92	-44.2	-46.1	17.5	0.00e+00	0	43	0	0	60	4382
2026-01-11 11:57:59.58	265.14	14.94	-44.0	-46.0	17.7	0.00e+00	0	43	0	0	60	4327
2026-01-11 11:58:00.58	265.35	14.96	-44.1	-46.0	17.7	0.00e+00	0	43	0	0	60	4331
2026-01-11 11:58:01.57	265.56	14.97	-44.1	-46.0	17.7	0.00e+00	0	43	0	0	60	4328
2026-01-11 11:58:02.56	265.76	14.99	-44.1	-46.1	17.7	0.00e+00	0	43	0	0	60	4343
2026-01-11 11:58:03.55	265.97	15.01	-44.1	-46.1	17.7	0.00e+00	0	43	0	0	60	4370
2026-01-11 11:58:04.55	266.18	15.03	-44.2	-46.2	17.6	0.00e+00	0	43	0	0	60	4395
2026-01-11 11:58:05.54	266.39	15.04	-44.1	-46.1	17.6	0.00e+00	0	43	0	0	60	4367
2026-01-11 11:58:06.53	266.60	15.06	-44.1	-46.1	17.6	0.00e+00	0	43	0	0	60	4384
2026-01-11 11:58:07.53	266.81	15.08	-44.3	-46.3	17.4	0.00e+00	0	43	0	0	60	4466
2026-01-11 11:58:08.52	267.02	15.09	-44.3	-46.4	17.3	0.00e+00	0	43	0	0	60	4514
2026-01-11 11:58:09.51	267.22	15.11	-44.3	-46.3	17.4	0.00e+00	0	43	0	0	60	4492
2026-01-11 11:58:10.50	267.43	15.12	-44.3	-46.3	17.4	0.00e+00	0	43	0	0	60	4461
2026-01-11 11:58:11.50	267.64	15.14	-44.2	-46.2	17.5	0.00e+00	0	43	0	0	60	4404
2026-01-11 11:58:12.49	267.85	15.15	-44.2	-46.2	17.5	0.00e+00	0	43	0	0	60	4396
2026-01-11 11:58:13.48	268.06	15.17	-44.2	-46.2	17.4	0.00e+00	0	43	0	0	60	4438
2026-01-11 11:58:14.48	268.28	15.18	-44.1	-46.1	17.6	0.00e+00	0	43	0	0	60	4361
2026-01-11 11:58:15.47	268.49	15.19	-44.1	-46.1	17.5	0.00e+00	0	43	0	0	60	4368
2026-01-11 11:58:16.46	268.70	15.21	-44.1	-46.1	17.6	0.00e+00	0	43	0	0	60	4345
2026-01-11 11:58:17.45	268.91	15.22	-44.2	-46.1	17.5	0.00e+00	0	43	0	0	60	4388
2026-01-11 11:58:18.45	269.12	15.23	-44.1	-46.0	17.7	0.00e+00	0	43	0	0	60	4329
2026-01-11 11:58:19.44	269.33	15.24	-44.2	-46.2	17.6	0.00e+00	0	43	0	0	60	4406
2026-01-11 11:58:20.43	269.54	15.25	-44.1	-46.1	17.6	0.00e+00	0	43	0	0	60	4365
2026-01-11 11:58:21.43	269.75	15.26	-44.0	-46.0	17.7	0.00e+00	0	43	0	0	60	4317
2026-01-11 11:58:22.42	269.96	15.28	-44.1	-46.1	17.6	0.00e+00	0	43	0	0	60	4367
2026-01-11 11:58:23.41	270.18	15.29	-44.1	-46.1	17.6	0.00e+00	0	43	0	0	60	4344
2026-01-11 11:58:24.41	270.39	15.30	-44.0	-46.0	17.7	0.00e+00	0	43	0	0	60	4327
2026-01-11 11:58:25.40	270.60	15.31	-44.2	-46.2	17.5	0.00e+00	0	43	0	0	60	4409
2026-01-11 11:58:26.39	270.81	15.31	-44.2	-46.2	17.5	0.00e+00	0	43	0	0	60	4424
2026-01-11 11:58:27.39	271.03	15.32	-44.2	-46.2	17.5	0.00e+00	0	43	0	0	60	4434
2026-01-11 11:58:28.38	271.24	15.33	-44.2	-46.3	17.4	0.00e+00	0	43	0	0	60	4460
2026-01-11 11:58:29.37	271.45	15.34	-44.4	-46.4	17.4	0.00e+00	0	43	0	0	60	4518
2026-01-11 11:58:30.36	271.66	15.35	-44.3	-46.3	17.4	0.00e+00	0	43	0	0	60	4480
2026-01-11 11:58:31.36	271.88	15.36	-44.3	-46.3	17.4	0.00e+00	0	43	0	0	60	4483
2026-01-11 11:58:32.35	272.09	15.36	-44.2	-46.2	17.5	0.00e+00	0	43	0	0	60	4406
2026-01-11 11:58:33.34	272.30	15.37	-44.3	-46.3	17.4	0.00e+00	0	43	0	0	60	4449
2026-01-11 11:58:34.34	272.51	15.38	-44.4	-46.4	17.3	0.00e+00	0	43	0	0	60	4512
2026-01-11 11:58:35.33	272.73	15.38	-44.4	-46.5	17.2	0.00e+00	0	43	0	0	60	4564
2026-01-11 11:58:36.32	272.94	15.39	-44.4	-46.5	17.2	0.00e+00	0	43	0	0	60	4560
2026-01-11 11:58:37.31	273.15	15.39	-44.5	-46.5	17.1	0.00e+00	0	43	0	0	60	4595
2026-01-11 11:58:38.31	273.37	15.40	-44.4	-46.5	17.2	0.00e+00	0	43	0	0	60	4567
2026-01-11 11:58:39.30	273.58	15.40	-44.4	-46.4	17.3	0.00e+00	0	43	0	0	60	4542
2026-01-11 11:58:40.29	273.79	15.41	-44.3	-46.4	17.3	0.00e+00	0	43	0	0	60	4498
2026-01-11 11:58:41.29	274.01	15.41	-44.5	-46.5	17.2	0.00e+00	0	43	0	0	60	4571
2026-01-11 11:58:42.28	274.22	15.41	-44.3	-46.3	17.4	0.00e+00	0	43	0	0	60	4453
2026-01-11 11:58:43.27	274.43	15.42	-44.2	-46.1	17.5	0.00e+00	0	43	0	0	60	4385
2026-01-11 11:58:44.26	274.65	15.42	-44.2	-46.2	17.5	0.00e+00	0	43	0	0	60	4405
2026-01-11 11:58:45.26	274.86	15.42	-44.3	-46.3	17.5	0.00e+00	0	43	0	0	60	4445
2026-01-11 11:58:46.25	275.08	15.42	-44.3	-46.3	17.4	0.00e+00	0	43	0	0	60	4472
2026-01-11 11:58:47.24	275.29	15.43	-44.4	-46.4	17.3	0.00e+00	0	43	0	0	60	4544
2026-01-11 11:58:48.24	275.50	15.43	-44.4	-46.4	17.4	0.00e+00	0	43	0	0	60	4512
2026-01-11 11:58:49.23	275.72	15.43	-44.5	-46.5	17.2	0.00e+00	0	43	0	0	60	4588
2026-01-11 11:58:50.22	275.93	15.43	-44.5	-46.6	17.2	0.00e+00	0	43	0	0	60	4600
2026-01-11 11:58:51.22	276.15	15.43	-44.5	-46.5	17.2	0.00e+00	0	43	0	0	60	4593
2026-01-11 11:58:52.21	276.36	15.43	-44.4	-46.5	17.2	0.00e+00	0	43	0	0	60	4584
2026-01-11 11:58:53.20	276.57	15.43	-44.4	-46.5	17.2	0.00e+00	0	43	0	0	60	4576
2026-01-11 11:58:54.20	276.79	15.43	-44.5	-46.5	17.2	0.00e+00	0	43	0	0	60	4594
2026-01-11 11:58:55.19	277.00	15.42	-44.4	-46.4	17.3	0.00e+00	0	43	0	0	60	4528
2026-01-11 11:58:56.18	277.21	15.42	-44.4	-46.5	17.3	0.00e+00	0	43	0	0	60	4565
2026-01-11 11:58:57.17	277.43	15.42	-44.4	-46.4	17.3	0.00e+00	0	43	0	0	60	4540
2026-01-11 11:58:58.17	277.64	15.42	-44.5	-46.6	17.2	0.00e+00	0	43	0	0	60	4605
2026-01-11 11:58:59.16	277.85	15.41	-44.5	-46.5	17.2	0.00e+00	0	43	0	0	60	4593
2026-01-11 11:59:00.15	278.07	15.41	-44.4	-46.4	17.3	0.00e+00	0	43	0	0	60	4537
2026-01-11 11:59:01.15	278.28	15.41	-44.4	-46.5	17.2	0.00e+00	0	43	0	0	60	4591
2026-01-11 11:59:02.14	278.49	15.40	-44.4	-46.5	17.2	0.00e+00	0	43	0	0	60	4578
2026-01-11 11:59:03.13	278.71	15.40	-44.4	-46.5	17.2	0.00e+00	0	43	0	0	60	4567
2026-01-11 11:59:04.12	278.92	15.39	-44.5	-46.6	17.2	0.00e+00	0	43	0	0	60	4605
2026-01-11 11:59:05.12	279.13	15.39	-44.4	-46.4	17.3	0.00e+00	0	43	0	0	60	4532
2026-01-11 11:59:06.11	279.35	15.38	-44.3	-46.3	17.4	0.00e+00	0	43	0	0	60	4477
2026-01-11 11:59:07.10	279.56	15.38	-44.3	-46.3	17.4	0.00e+00	0	43	0	0	60	4479
2026-01-11 11:59:08.10	279.77	15.37	-44.3	-46.3	17.4	0.00e+00	0	43	0	0	60	4476
2026-01-11 11:59:09.09	279.99	15.37	-44.2	-46.2	17.5	0.00e+00	0	43	0	0	60	4439
2026-01-11 11:59:10.08	280.20	15.36	-44.2	-46.3	17.5	0.00e+00	0	43	0	0	60	4443
2026-01-11 11:59:11.08	280.41	15.35	-44.2	-46.1	17.6	0.00e+00	0	43	0	0	60	4386
2026-01-11 11:59:12.07	280.62	15.34	-44.1	-46.1	17.6	0.00e+00	0	43	0	0	60	4352
2026-01-11 11:59:13.06	280.84	15.33	-44.2	-46.2	17.6	0.00e+00	0	43	0	0	60	4396
2026-01-11 11:59:14.05	281.05	15.33	-44.1	-46.1	17.7	0.00e+00	0	43	0	0	60	4370
2026-01-11 11:59:15.05	281.26	15.32	-44.2	-46.1	17.6	0.00e+00	0	43	0	0	60	4389
2026-01-11 11:59:16.04	281.47	15.31	-44.1	-46.1	17.6	0.00e+00	0	43	0	0	60	4363
2026-01-11 11:59:17.03	281.68	15.30	-44.2	-46.2	17.5	0.00e+00	0	43	0	0	60	4418
2026-01-11 11:59:18.03	281.90	15.29	-44.3	-46.3	17.5	0.00e+00	0	43	0	0	60	4455
2026-01-11 11:59:19.02	282.11	15.28	-44.3	-46.3	17.5	0.00e+00	0	43	0	0	60	4471
2026-01-11 11:59:20.01	282.32	15.27	-44.3	-46.4	17.4	0.00e+00	0	43	0	0	60	4496
2026-01-11 11:59:21.01	282.53	15.26	-44.3	-46.3	17.5	0.00e+00	0	43	0	0	60	4459
2026-01-11 11:59:22.00	282.74	15.25	-44.3	-46.3	17.4	0.00e+00	0	43	0	0	60	4487
2026-01-11 11:59:22.99	282.95	15.23	-44.3	-46.3	17.4	0.00e+00	0	43	0	0	60	4471
2026-01-11 11:59:23.99	283.16	15.22	-44.3	-46.3	17.4	0.00e+00	0	43	0	0	60	4467
2026-01-11 11:59:24.98	283.37	15.21	-44.4	-46.5	17.2	0.00e+00	0	43	0	0	60	4559
2026-01-11 11:59:25.97	283.58	15.20	-44.4	-46.5	17.3	0.00e+00	0	43	0	0	60	4555
2026-01-11 11:59:26.96	283.79	15.18	-44.5	-46.5	17.2	0.00e+00	0	43	0	0	60	4580
2026-01-11 11:59:27.95	284.00	15.17	-44.5	-46.6	17.2	0.00e+00	0	43	0	0	60	4618
2026-01-11 11:59:28.95	284.21	15.16	-44.5	-46.6	17.2	0.00e+00	0	43	0	0	60	4610
2026-01-11 11:59:29.94	284.42	15.14	-44.6	-46.6	17.1	0.00e+00	0	43	0	0	60	4635
2026-01-11 11:59:30.93	284.63	15.13	-44.5	-46.5	17.2	0.00e+00	0	43	0	0	60	4588
2026-01-11 11:59:31.93	284.84	15.11	-44.4	-46.4	17.3	0.00e+00	0	43	0	0	60	4541
2026-01-11 11:59:32.92	285.05	15.10	-44.4	-46.5	17.3	0.00e+00	0	43	0	0	60	4548
2026-01-11 11:59:33.91	285.26	15.08	-44.4	-46.5	17.3	0.00e+00	0	43	0	0	60	4549
2026-01-11 11:59:34.91	285.47	15.07	-44.5	-46.6	17.2	0.00e+00	0	43	0	0	60	4619
2026-01-11 11:59:35.90	285.68	15.05	-44.6	-46.6	17.1	0.00e+00	0	43	0	0	60	4638
2026-01-11 11:59:36.89	285.88	15.03	-44.6	-46.7	17.0	0.00e+00	0	43	0	0	60	4677
2026-01-11 11:59:37.88	286.09	15.02	-44.6	-46.7	17.0	0.00e+00	0	43	0	0	60	4684
2026-01-11 11:59:38.88	286.30	15.00	-44.6	-46.7	17.1	0.00e+00	0	43	0	0	60	4673
2026-01-11 11:59:39.87	286.51	14.98	-44.6	-46.6	17.1	0.00e+00	0	43	0	0	60	4635
2026-01-11 11:59:40.86	286.71	14.96	-44.5	-46.5	17.2	0.00e+00	0	43	0	0	60	4575
2026-01-11 11:59:41.86	286.92	14.94	-44.5	-46.5	17.2	0.00e+00	0	43	0	0	60	4593
2026-01-11 11:59:42.85	287.13	14.93	-44.5	-46.5	17.2	0.00e+00	0	43	0	0	60	4575
2026-01-11 11:59:43.84	287.33	14.91	-44.5	-46.5	17.2	0.00e+00	0	43	0	0	60	4592
2026-01-11 11:59:44.84	287.54	14.89	-44.6	-46.6	17.1	0.00e+00	0	43	0	0	60	4647
2026-01-11 11:59:45.83	287.75	14.87	-44.6	-46.6	17.1	0.00e+00	0	43	0	0	60	4650
2026-01-11 11:59:46.82	287.95	14.85	-44.5	-46.6	17.2	0.00e+00	0	43	0	0	60	4601
2026-01-11 11:59:47.81	288.16	14.83	-44.5	-46.5	17.3	0.00e+00	0	43	0	0	60	4574
2026-01-11 11:59:48.81	288.36	14.81	-44.5	-46.6	17.2	0.00e+00	0	43	0	0	60	4637
2026-01-11 11:59:49.80	288.57	14.79	-44.5	-46.6	17.2	0.00e+00	0	43	0	0	60	4606
2026-01-11 11:59:50.79	288.77	14.76	-44.5	-46.6	17.2	0.00e+00	0	43	0	0	60	4628
2026-01-11 11:59:51.79	288.98	14.74	-44.7	-46.8	17.0	0.00e+00	0	43	0	0	60	4730
2026-01-11 11:59:52.78	289.18	14.72	-44.7	-46.8	17.0	0.00e+00	0	43	0	0	60	4721
2026-01-11 11:59:53.77	289.38	14.70	-44.8	-47.0	16.8	0.00e+00	0	43	0	0	60	4820
2026-01-11 11:59:54.76	289.59	14.68	-44.7	-46.8	17.0	0.00e+00	0	43	0	0	60	4716
2026-01-11 11:59:55.76	289.79	14.65	-44.7	-46.8	16.9	0.00e+00	0	43	0	0	60	4739
2026-01-11 11:59:56.75	289.99	14.63	-44.7	-46.8	17.0	0.00e+00	0	43	0	0	60	4727
2026-01-11 11:59:57.74	290.20	14.61	-44.5	-46.6	17.2	0.00e+00	0	43	0	0	60	4618
2026-01-11 11:59:58.74	290.40	14.58	-44.6	-46.7	17.1	0.00e+00	0	43	0	0	60	4652
2026-01-11 11:59:59.73	290.60	14.56	-44.5	-46.6	17.1	0.00e+00	0	43	0	0	60	4618
2026-01-11 12:00:00.72	290.80	14.53	-44.5	-46.5	17.2	0.00e+00	0	43	0	0	60	4578
2026-01-11 12:00:01.71	291.00	14.51	-44.5	-46.5	17.2	0.00e+00	0	43	0	0	60	4585
2026-01-11 12:00:02.71	291.20	14.49	-44.5	-46.6	17.2	0.00e+00	0	43	0	0	60	4625
2026-01-11 12:00:03.70	291.40	14.46	-44.6	-46.6	17.2	0.00e+00	0	43	0	0	60	4628
2026-01-11 12:00:04.69	291.60	14.43	-44.7	-46.7	17.1	0.00e+00	0	43	0	0	60	4693
2026-01-11 12:00:05.68	291.80	14.41	-44.6	-46.6	17.2	0.00e+00	0	43	0	0	60	4627
2026-01-11 12:00:06.68	292.00	14.38	-44.6	-46.6	17.1	0.00e+00	0	43	0	0	60	4651
2026-01-11 12:00:07.67	292.20	14.36	-44.6	-46.6	17.2	0.00e+00	0	43	0	0	60	4634
2026-01-11 12:00:08.66	292.40	14.33	-44.6	-46.7	17.1	0.00e+00	0	43	0	0	60	4679
2026-01-11 12:00:09.66	292.60	14.30	-44.7	-46.8	17.0	0.00e+00	0	43	0	0	60	4718
2026-01-11 12:00:10.65	292.80	14.27	-44.7	-46.8	16.9	0.00e+00	0	43	0	0	60	4743
2026-01-11 12:00:11.64	292.99	14.25	-44.7	-46.8	17.0	0.00e+00	0	43	0	0	60	4721
2026-01-11 12:00:12.64	293.19	14.22	-44.6	-46.7	17.0	0.00e+00	0	43	0	0	60	4695
2026-01-11 12:00:13.63	293.39	14.19	-44.6	-46.7	17.1	0.00e+00	0	43	0	0	60	4670
2026-01-11 12:00:14.62	293.58	14.16	-44.6	-46.7	17.0	0.00e+00	0	43	0	0	60	4695
2026-01-11 12:00:15.62	293.78	14.13	-44.6	-46.7	17.1	0.00e+00	0	43	0	0	60	4685
2026-01-11 12:00:16.61	293.98	14.10	-44.6	-46.7	17.0	0.00e+00	0	43	0	0	60	4691
2026-01-11 12:00:17.60	294.17	14.08	-44.6	-46.6	17.1	0.00e+00	0	43	0	0	60	4638
2026-01-11 12:00:18.59	294.37	14.05	-44.6	-46.7	17.1	0.00e+00	0	43	0	0	60	4664
2026-01-11 12:00:19.59	294.56	14.02	-44.6	-46.7	17.1	0.00e+00	0	43	0	0	60	4673
2026-01-11 12:00:20.58	294.76	13.99	-44.7	-46.7	17.0	0.00e+00	0	43	0	0	60	4696
2026-01-11 12:00:21.57	294.95	13.96	-44.8	-46.9	16.9	0.00e+00	0	43	0	0	60	4761
2026-01-11 12:00:22.57	295.14	13.93	-44.7	-46.8	17.0	0.00e+00	0	43	0	0	60	4718
2026-01-11 12:00:23.56	295.34	13.89	-44.7	-46.8	16.9	0.00e+00	0	43	0	0	60	4746
2026-01-11 12:00:24.55	295.53	13.86	-44.7	-46.8	16.9	0.00e+00	0	43	0	0	60	4729
2026-01-11 12:00:25.54	295.72	13.83	-44.7	-46.8	16.9	0.00e+00	0	43	0	0	60	4751
2026-01-11 12:00:26.54	295.91	13.80	-44.8	-46.9	16.8	0.00e+00	0	43	0	0	60	4787
2026-01-11 12:00:27.53	296.10	13.77	-44.9	-47.0	16.7	0.00e+00	0	43	0	0	60	4856
2026-01-11 12:00:28.52	296.29	13.74	-44.8	-47.0	16.8	0.00e+00	0	43	0	0	60	4817
2026-01-11 12:00:29.52	296.49	13.70	-44.9	-47.0	16.7	0.00e+00	0	43	0	0	60	4842
2026-01-11 12:00:30.51	296.68	13.67	-44.9	-47.0	16.7	0.00e+00	0	43	0	0	60	4851
2026-01-11 12:00:31.50	296.87	13.64	-44.8	-47.0	16.7	0.00e+00	0	43	0	0	60	4831
2026-01-11 12:00:32.50	297.06	13.61	-44.9	-47.0	16.8	0.00e+00	0	43	0	0	60	4830
2026-01-11 12:00:33.49	297.24	13.57	-44.9	-47.0	16.7	0.00e+00	0	43	0	0	60	4858
2026-01-11 12:00:34.48	297.43	13.54	-44.9	-47.0	16.7	0.00e+00	0	43	0	0	60	4847
2026-01-11 12:00:35.48	297.62	13.50	-44.9	-47.0	16.7	0.00e+00	0	43	0	0	60	4864
2026-01-11 12:00:36.47	297.81	13.47	-44.9	-47.0	16.7	0.00e+00	0	43	0	0	60	4840
2026-01-11 12:00:37.46	298.00	13.44	-44.8	-46.9	16.8	0.00e+00	0	43	0	0	60	4797
2026-01-11 12:00:38.45	298.18	13.40	-44.8	-46.9	16.8	0.00e+00	0	43	0	0	60	4785
2026-01-11 12:00:39.45	298.37	13.37	-44.8	-46.9	16.7	0.00e+00	0	43	0	0	60	4813
2026-01-11 12:00:40.44	298.56	13.33	-44.7	-46.8	16.9	0.00e+00	0	43	0	0	60	4743
2026-01-11 12:00:41.43	298.74	13.30	-44.7	-46.8	16.8	0.00e+00	0	43	0	0	60	4739
2026-01-11 12:00:42.42	298.93	13.26	-44.8	-46.9	16.7	0.00e+00	0	43	0	0	60	4808
2026-01-11 12:00:43.42	299.11	13.23	-44.8	-46.9	16.8	0.00e+00	0	43	0	0	60	4780
2026-01-11 12:00:44.41	299.29	13.19	-44.9	-47.1	16.6	0.00e+00	0	43	0	0	60	4877
2026-01-11 12:00:45.40	299.48	13.15	-44.9	-47.0	16.7	0.00e+00	0	43	0	0	60	4851
2026-01-11 12:00:46.40	299.66	13.12	-44.9	-47.1	16.6	0.00e+00	0	43	0	0	60	4875
2026-01-11 12:00:47.39	299.85	13.08	-44.8	-47.0	16.7	0.00e+00	0	43	0	0	60	4837
2026-01-11 12:00:48.38	300.03	13.05	-44.9	-47.1	16.6	0.00e+00	0	43	0	0	60	4882
2026-01-11 12:00:49.38	300.21	13.01	-44.9	-47.0	16.6	0.00e+00	0	43	0	0	60	4867
2026-01-11 12:00:50.37	300.39	12.97	-44.9	-47.1	16.6	0.00e+00	0	43	0	0	60	4882
2026-01-11 12:00:51.36	300.57	12.93	-44.9	-47.0	16.6	0.00e+00	0	43	0	0	60	4857
2026-01-11 12:00:52.35	300.75	12.90	-44.8	-46.9	16.7	0.00e+00	0	43	0	0	60	4810
2026-01-11 12:00:53.35	300.93	12.86	-44.8	-46.9	16.7	0.00e+00	0	43	0	0	60	4785
2026-01-11 12:00:54.34	301.11	12.82	-44.8	-46.9	16.7	0.00e+00	0	43	0	0	60	4766
2026-01-11 12:00:55.33	301.29	12.78	-44.6	-46.7	16.9	0.00e+00	0	43	0	0	60	4655
2026-01-11 12:00:56.32	301.47	12.74	-44.7	-46.7	16.8	0.00e+00	0	43	0	0	60	4704
2026-01-11 12:00:57.32	301.65	12.71	-44.6	-46.7	16.8	0.00e+00	0	43	0	0	60	4703
2026-01-11 12:00:58.31	301.83	12.67	-44.7	-46.8	16.7	0.00e+00	0	43	0	0	60	4754
2026-01-11 12:00:59.30	302.00	12.63	-44.7	-46.9	16.8	0.00e+00	0	43	0	0	60	4772
2026-01-11 12:01:00.30	302.18	12.59	-44.6	-46.7	16.9	0.00e+00	0	43	0	0	60	4705
2026-01-11 12:01:01.29	302.36	12.55	-44.6	-46.7	16.9	0.00e+00	0	43	0	0	60	4688
2026-01-11 12:01:02.28	302.53	12.51	-44.7	-46.8	16.9	0.00e+00	0	43	0	0	60	4710
2026-01-11 12:01:03.28	302.71	12.47	-44.7	-46.8	16.9	0.00e+00	0	43	0	0	60	4717
2026-01-11 12:01:04.27	302.89	12.43	-44.7	-46.9	16.8	0.00e+00	0	43	0	0	60	4765
2026-01-11 12:01:05.26	303.06	12.39	-44.8	-47.0	16.7	0.00e+00	0	43	0	0	60	4818
2026-01-11 12:01:06.25	303.23	12.35	-44.9	-47.0	16.7	0.00e+00	0	43	0	0	60	4852
2026-01-11 12:01:07.25	303.41	12.31	-44.9	-47.0	16.7	0.00e+00	0	43	0	0	60	4859
2026-01-11 12:01:08.24	303.58	12.27	-44.8	-47.0	16.7	0.00e+00	0	43	0	0	60	4817
2026-01-11 12:01:09.23	303.75	12.23	-44.8	-47.0	16.6	0.00e+00	0	43	0	0	60	4852
2026-01-11 12:01:10.23	303.93	12.19	-44.7	-46.9	16.7	0.00e+00	0	43	0	0	60	4799
2026-01-11 12:01:11.22	304.10	12.15	-44.8	-47.0	16.6	0.00e+00	0	43	0	0	60	4839
2026-01-11 12:01:12.21	304.27	12.11	-44.8	-46.9	16.7	0.00e+00	0	43	0	0	60	4799
2026-01-11 12:01:13.21	304.44	12.07	-44.8	-47.0	16.7	0.00e+00	0	43	0	0	60	4819
2026-01-11 12:01:14.20	304.61	12.02	-44.8	-47.0	16.7	0.00e+00	0	43	0	0	60	4821
2026-01-11 12:01:15.19	304.78	11.98	-44.8	-46.9	16.7	0.00e+00	0	43	0	0	60	4800
2026-01-11 12:01:16.19	304.95	11.94	-44.8	-46.9	16.7	0.00e+00	0	43	0	0	60	4810
2026-01-11 12:01:17.18	305.12	11.90	-44.8	-47.0	16.7	0.00e+00	0	43	0	0	60	4833
2026-01-11 12:01:18.17	305.29	11.86	-44.9	-47.0	16.6	0.00e+00	0	43	0	0	60	4854
2026-01-11 12:01:19.16	305.46	11.82	-44.9	-47.0	16.6	0.00e+00	0	43	0	0	60	4857
2026-01-11 12:01:20.16	305.63	11.77	-44.9	-47.1	16.5	0.00e+00	0	43	0	0	60	4911
2026-01-11 12:01:21.15	305.79	11.73	-45.0	-47.2	16.4	0.00e+00	0	43	0	0	60	4963
2026-01-11 12:01:22.14	305.96	11.69	-45.1	-47.3	16.3	0.00e+00	0	43	0	0	60	5007
2026-01-11 12:01:23.14	306.13	11.65	-45.1	-47.4	16.3	0.00e+00	0	43	0	0	60	5071
2026-01-11 12:01:24.13	306.29	11.60	-45.2	-47.4	16.2	0.00e+00	0	43	0	0	60	5098
2026-01-11 12:01:25.12	306.46	11.56	-45.2	-47.5	16.1	0.00e+00	0	43	0	0	61	4836
2026-01-11 12:01:26.11	306.62	11.52	-45.3	-47.5	16.1	0.00e+00	0	43	0	0	61	4858
2026-01-11 12:01:27.11	306.79	11.47	-45.1	-47.3	16.3	0.00e+00	0	43	0	0	61	4743
2026-01-11 12:01:28.10	306.95	11.43	-45.0	-47.3	16.3	0.00e+00	0	43	0	0	61	4714
2026-01-11 12:01:29.09	307.11	11.39	-45.2	-47.4	16.2	0.00e+00	0	43	0	0	61	4797
2026-01-11 12:01:30.08	307.28	11.34	-45.1	-47.4	16.2	0.00e+00	0	43	0	0	61	4777
2026-01-11 12:01:31.08	307.44	11.30	-45.2	-47.4	16.2	0.00e+00	0	43	0	0	61	4797
2026-01-11 12:01:32.07	307.60	11.26	-45.2	-47.4	16.2	0.00e+00	0	43	0	0	61	4801
2026-01-11 12:01:33.06	307.76	11.21	-45.0	-47.3	16.3	0.00e+00	0	43	0	0	61	4716
2026-01-11 12:01:34.06	307.93	11.17	-45.0	-47.2	16.4	0.00e+00	0	43	0	0	61	4695
2026-01-11 12:01:35.05	308.09	11.12	-45.0	-47.3	16.3	0.00e+00	0	43	0	0	61	4727
2026-01-11 12:01:36.04	308.25	11.08	-45.1	-47.4	16.2	0.00e+00	0	43	0	0	61	4792
2026-01-11 12:01:37.04	308.41	11.03	-45.2	-47.5	16.2	0.00e+00	0	43	0	0	61	4836
2026-01-11 12:01:38.03	308.56	10.99	-45.2	-47.5	16.1	0.00e+00	0	43	0	0	61	4869
2026-01-11 12:01:39.02	308.72	10.94	-45.2	-47.6	16.0	0.00e+00	0	43	0	0	61	4905
2026-01-11 12:01:40.01	308.88	10.90	-45.3	-47.7	15.9	0.00e+00	0	43	0	0	61	4946
2026-01-11 12:01:41.01	309.04	10.85	-45.4	-47.7	15.9	0.00e+00	0	43	0	0	61	4975
2026-01-11 12:01:42.00	309.20	10.81	-45.4	-47.8	15.8	0.00e+00	0	43	0	0	61	4996
2026-01-11 12:01:42.99	309.35	10.76	-45.4	-47.8	15.8	0.00e+00	0	43	0	0	61	5002
2026-01-11 12:01:43.98	309.51	10.72	-45.6	-47.9	15.7	0.00e+00	0	43	0	0	61	5097
2026-01-11 12:01:44.98	309.67	10.67	-45.6	-48.0	15.6	0.00e+00	0	43	0	0	61	5113
2026-01-11 12:01:45.97	309.82	10.63	-45.6	-48.0	15.6	0.00e+00	0	43	0	0	61	5134
2026-01-11 12:01:46.96	309.98	10.58	-45.6	-48.1	15.5	0.00e+00	0	43	0	0	61	5195
2026-01-11 12:01:47.96	310.13	10.54	-45.6	-48.1	15.5	0.00e+00	0	43	0	0	61	5168
2026-01-11 12:01:48.95	310.28	10.49	-45.6	-48.1	15.6	0.00e+00	0	43	0	0	62	4879
2026-01-11 12:01:49.94	310.44	10.45	-45.5	-47.9	15.7	0.00e+00	0	43	0	0	62	4810
2026-01-11 12:01:50.93	310.59	10.40	-45.6	-48.0	15.6	0.00e+00	0	43	0	0	62	4850
2026-01-11 12:01:51.92	310.74	10.35	-45.5	-47.9	15.7	0.00e+00	0	43	0	0	62	4776
2026-01-11 12:01:52.92	310.90	10.31	-45.5	-47.9	15.7	0.00e+00	0	43	0	0	62	4786
2026-01-11 12:01:53.91	311.05	10.26	-45.5	-47.9	15.7	0.00e+00	0	43	0	0	62	4808
2026-01-11 12:01:54.90	311.20	10.22	-45.4	-47.8	15.9	7.00e-07	0	43	0	0	62	4708
2026-01-11 12:01:55.89	311.35	10.17	-45.4	-47.8	15.8	0.00e+00	0	43	0	0	62	4753
2026-01-11 12:01:56.89	311.50	10.12	-45.5	-47.9	15.7	0.00e+00	0	43	0	0	62	4762
2026-01-11 12:01:57.88	311.65	10.08	-45.5	-47.9	15.7	0.00e+00	0	43	0	0	62	4783
2026-01-11 12:01:58.87	311.80	10.03	-45.5	-48.0	15.6	0.00e+00	0	43	0	0	62	4832
2026-01-11 12:01:59.86	311.95	9.98	-45.5	-47.9	15.7	0.00e+00	0	43	0	0	62	4805
2026-01-11 12:02:00.86	312.10	9.94	-45.5	-48.0	15.6	0.00e+00	0	43	0	0	62	4819
2026-01-11 12:02:01.85	312.24	9.89	-45.5	-48.0	15.6	0.00e+00	0	43	0	0	62	4815
2026-01-11 12:02:02.84	312.39	9.84	-45.6	-48.1	15.5	0.00e+00	0	43	0	0	62	4889
2026-01-11 12:02:03.83	312.54	9.80	-45.6	-48.0	15.5	0.00e+00	0	44	0	0	62	4861
2026-01-11 12:02:04.83	312.69	9.75	-45.5	-48.0	15.6	0.00e+00	0	43	0	0	62	4826
2026-01-11 12:02:05.82	312.83	9.70	-45.6	-48.1	15.4	0.00e+00	0	44	0	0	62	4903
2026-01-11 12:02:06.81	312.98	9.65	-45.5	-47.9	15.6	0.00e+00	0	43	0	0	62	4805
2026-01-11 12:02:07.81	313.12	9.61	-45.5	-47.9	15.6	0.00e+00	0	43	0	0	62	4812
2026-01-11 12:02:08.80	313.27	9.56	-45.5	-47.9	15.7	0.00e+00	0	43	0	0	62	4790
2026-01-11 12:02:09.79	313.41	9.51	-45.6	-48.0	15.5	0.00e+00	0	43	0	0	62	4861
2026-01-11 12:02:10.78	313.55	9.46	-45.7	-48.1	15.4	0.00e+00	0	43	0	0	62	4909
2026-01-11 12:02:11.78	313.70	9.42	-45.7	-48.2	15.4	0.00e+00	0	43	0	0	62	4946
2026-01-11 12:02:12.77	313.84	9.37	-45.6	-48.0	15.5	0.00e+00	0	43	0	0	62	4870
2026-01-11 12:02:13.76	313.98	9.32	-45.6	-48.0	15.6	0.00e+00	0	43	0	0	62	4856
2026-01-11 12:02:14.76	314.13	9.27	-45.7	-48.2	15.4	0.00e+00	0	43	0	0	62	4930
2026-01-11 12:02:15.75	314.27	9.23	-45.7	-48.2	15.3	0.00e+00	0	44	0	0	62	4964
2026-01-11 12:02:16.74	314.41	9.18	-45.7	-48.3	15.3	0.00e+00	0	43	0	0	62	4995
2026-01-11 12:02:17.74	314.55	9.13	-45.6	-48.1	15.5	0.00e+00	0	43	0	0	62	4921
2026-01-11 12:02:18.73	314.69	9.08	-45.7	-48.3	15.3	0.00e+00	0	43	0	0	62	4988
2026-01-11 12:02:19.72	314.83	9.03	-45.7	-48.3	15.3	0.00e+00	0	43	0	0	62	4991
2026-01-11 12:02:20.71	314.97	8.99	-49.3	-53.9	10.4	1.76e-04	0	43	0	0	68	6785
2026-01-11 12:02:21.71	315.11	8.94	-51.4	-64.7	3.8	1.49e+00	0	43	104	0	74	16694
2026-01-11 12:02:22.70	315.25	8.89	-52.0	-65.2	3.8	1.49e+00	0	43	104	0	74	17647
2026-01-11 12:02:23.69	315.38	8.84	-52.2	-65.3	3.8	1.49e+00	0	43	104	0	75	16849
2026-01-11 12:02:24.69	315.52	8.79	-52.4	-65.4	3.8	1.49e+00	0	43	104	0	75	17008
2026-01-11 12:02:25.68	315.66	8.74	-52.5	-65.5	3.8	1.49e+00	0	43	104	0	75	17093
2026-01-11 12:02:26.67	315.80	8.70	-52.5	-65.5	3.8	1.49e+00	0	43	104	0	75	17212
2026-01-11 12:02:27.66	315.93	8.65	-52.3	-65.5	3.8	1.49e+00	0	43	104	0	75	17258
2026-01-11 12:02:28.66	316.07	8.60	-52.5	-65.6	3.8	1.49e+00	0	43	104	0	75	17302
2026-01-11 12:02:29.65	316.20	8.55	-52.6	-65.6	3.8	1.49e+00	0	43	104	0	75	17315
2026-01-11 12:02:30.64	316.34	8.50	-52.6	-65.6	3.8	1.49e+00	0	43	104	0	75	17338
2026-01-11 12:02:31.64	316.47	8.45	-52.6	-65.6	3.8	1.49e+00	0	43	104	0	75	17341
2026-01-11 12:02:32.63	316.61	8.41	-52.6	-65.6	3.8	1.49e+00	0	43	104	0	75	17373
2026-01-11 12:02:33.62	316.74	8.36	-52.6	-65.6	3.8	1.49e+00	0	43	104	0	76	16460
2026-01-11 12:02:34.62	316.88	8.31	-52.6	-65.7	3.8	1.49e+00	0	43	104	0	76	16512
2026-01-11 12:02:35.61	317.01	8.26	-52.6	-65.7	3.8	1.49e+00	0	43	104	0	76	16519
2026-01-11 12:02:36.60	317.14	8.21	-52.6	-65.6	3.8	1.49e+00	0	43	104	0	76	16395
2026-01-11 12:02:37.59	317.27	8.16	-52.6	-65.6	3.8	1.49e+00	0	43	104	0	76	16469
2026-01-11 12:02:38.59	317.40	8.11	-52.6	-65.6	3.8	1.49e+00	0	43	104	0	76	16452
2026-01-11 12:02:39.58	317.53	8.06	-52.6	-65.6	3.8	1.49e+00	0	43	104	0	76	16441
2026-01-11 12:02:40.57	317.66	8.01	-52.5	-65.6	3.8	1.49e+00	0	43	104	0	76	16411
2026-01-11 12:02:41.57	317.80	7.97	-52.5	-65.6	3.8	1.49e+00	0	43	104	0	76	16411
2026-01-11 12:02:42.56	317.93	7.92	-52.4	-65.6	3.8	1.49e+00	0	43	104	0	76	16340
2026-01-11 12:02:43.55	318.05	7.87	-52.4	-65.6	3.8	1.49e+00	0	43	104	0	76	16382
2026-01-11 12:02:44.55	318.18	7.82	-52.4	-65.6	3.8	1.49e+00	0	43	104	0	76	16316
2026-01-11 12:02:45.54	318.31	7.77	-52.4	-65.6	3.8	1.49e+00	0	43	104	0	76	16368
2026-01-11 12:02:46.53	318.44	7.72	-52.4	-65.6	3.8	1.49e+00	0	43	104	0	76	16338
2026-01-11 12:02:47.52	318.57	7.67	-52.4	-65.6	3.8	1.49e+00	0	43	104	0	76	16363
2026-01-11 12:02:48.52	318.70	7.62	-52.4	-65.5	3.8	1.49e+00	0	43	104	0	76	16305
2026-01-11 12:02:49.51	318.82	7.57	-52.4	-65.6	3.8	1.49e+00	0	43	104	0	76	16367
2026-01-11 12:02:50.50	318.95	7.52	-52.4	-65.5	3.8	1.49e+00	0	43	104	0	76	16289
2026-01-11 12:02:51.50	319.08	7.48	-52.4	-65.6	3.8	1.49e+00	0	43	104	0	76	16342
2026-01-11 12:02:52.49	319.20	7.43	-52.4	-65.6	3.8	1.49e+00	0	43	104	0	76	16328
2026-01-11 12:02:53.48	319.33	7.38	-52.4	-65.6	3.8	1.49e+00	0	43	104	0	76	16322
2026-01-11 12:02:54.48	319.45	7.33	-52.4	-65.5	3.8	1.49e+00	0	43	104	0	76	16311
2026-01-11 12:02:55.47	319.58	7.28	-52.4	-65.5	3.8	1.49e+00	0	43	104	0	76	16302
2026-01-11 12:02:56.46	319.70	7.23	-52.4	-65.5	3.8	1.49e+00	0	43	104	0	76	16271
2026-01-11 12:02:57.46	319.82	7.18	-52.4	-65.6	3.8	1.49e+00	0	43	104	0	76	16318
2026-01-11 12:02:58.45	319.95	7.13	-52.4	-65.5	3.8	1.49e+00	0	43	104	0	76	16286
2026-01-11 12:02:59.44	320.07	7.08	-52.4	-65.6	3.8	1.49e+00	0	43	104	0	76	16334
2026-01-11 12:03:00.43	320.19	7.03	-52.4	-65.5	3.8	1.49e+00	0	43	104	0	76	16308
2026-01-11 12:03:01.43	320.31	6.98	-52.4	-65.5	3.8	1.49e+00	0	43	104	0	76	16278
2026-01-11 12:03:02.42	320.44	6.93	-52.4	-65.5	3.8	1.49e+00	0	43	104	0	76	16288
2026-01-11 12:03:03.41	320.56	6.88	-52.4	-65.5	3.8	1.49e+00	0	43	104	0	76	16295
2026-01-11 12:03:04.41	320.68	6.83	-52.4	-65.6	3.8	1.49e+00	0	43	104	0	76	16355
2026-01-11 12:03:05.40	320.80	6.79	-52.4	-65.5	3.8	1.49e+00	0	43	104	0	76	16306
2026-01-11 12:03:06.39	320.92	6.74	-52.4	-65.6	3.8	1.49e+00	0	43	104	0	76	16335
2026-01-11 12:03:07.39	321.04	6.69	-52.4	-65.6	3.8	1.49e+00	0	43	104	0	76	16324
2026-01-11 12:03:08.38	321.16	6.64	-52.4	-65.6	3.8	1.49e+00	0	43	104	0	76	16321
2026-01-11 12:03:09.37	321.28	6.59	-52.4	-65.5	3.8	1.49e+00	0	43	104	0	76	16284
2026-01-11 12:03:10.36	321.39	6.54	-52.4	-65.5	3.8	1.49e+00	0	43	104	0	76	16310
2026-01-11 12:03:11.36	321.51	6.49	-52.4	-65.5	3.8	1.49
