passes_logs/2026/01/11/T1/T1__20260111_231151_NOAA_20_JPSS-1_rec.log

#Pass ID: 20260111_231151_NOAA 20 (JPSS-1)
#Satellite: NOAA 20 (JPSS-1)
#Configuration: NOAA 20
#almurnet v.1.7.20251203
#Start time: 2026-01-11 23:11:52

#Version: 2.0.20230620
#Station: T1
#Location: 37.570604 lon 55.790049 lat
#TLE: 1 43013U 17073A   26011.31235446  .00000090  00000+0  63634-4 0  9991
#TLE: 2 43013  98.7632 312.2907 0001646  44.6084 315.5224 14.19535308422217

#Time	Az	El	Level	Level2	SNR	BER	BlckErr	Temp	State	Recorded	gain1	gain2
2026-01-11 23:11:52.82	19.89	5.09	-47.4	-65.3	3.8	1.49e+00	0	36	0	0	66	28027
2026-01-11 23:11:53.81	19.92	5.16	-47.4	-65.1	3.8	1.49e+00	0	36	104	0	65	29276
2026-01-11 23:11:54.80	19.95	5.23	-47.4	-65.1	3.8	1.49e+00	0	36	104	0	65	29308
2026-01-11 23:11:55.80	19.98	5.30	-47.4	-65.1	3.8	1.49e+00	0	36	104	0	65	29079
2026-01-11 23:11:56.79	20.01	5.37	-47.4	-65.1	3.8	1.49e+00	0	36	104	0	65	29060
2026-01-11 23:11:57.78	20.04	5.44	-47.4	-65.0	3.8	1.49e+00	0	37	104	0	65	28963
2026-01-11 23:11:58.78	20.07	5.51	-47.4	-65.0	3.8	1.49e+00	0	37	104	0	65	28795
2026-01-11 23:11:59.77	20.11	5.58	-47.4	-64.9	3.8	1.49e+00	0	37	104	0	65	28619
2026-01-11 23:12:00.77	20.14	5.65	-47.4	-64.9	3.8	1.49e+00	0	37	104	0	65	28442
2026-01-11 23:12:01.76	20.17	5.73	-47.4	-64.8	3.8	1.49e+00	0	37	104	0	65	28246
2026-01-11 23:12:02.75	20.20	5.80	-47.4	-64.8	3.8	1.49e+00	0	37	104	0	65	28246
2026-01-11 23:12:03.75	20.23	5.87	-47.4	-64.8	3.8	1.49e+00	0	37	104	0	65	28064
2026-01-11 23:12:04.74	20.27	5.94	-47.4	-64.8	3.8	1.49e+00	0	37	104	0	65	28117
2026-01-11 23:12:05.73	20.30	6.01	-47.4	-64.8	3.8	1.49e+00	0	37	104	0	65	28082
2026-01-11 23:12:06.73	20.33	6.08	-47.3	-64.8	3.8	1.49e+00	0	37	104	0	65	28326
2026-01-11 23:12:07.72	20.36	6.15	-47.3	-64.9	3.8	1.49e+00	0	37	104	0	65	28556
2026-01-11 23:12:08.71	20.40	6.23	-47.3	-65.0	3.8	1.49e+00	0	37	104	0	65	28740
2026-01-11 23:12:09.71	20.43	6.30	-47.3	-65.1	3.8	1.49e+00	0	37	104	0	65	29035
2026-01-11 23:12:10.70	20.46	6.37	-47.3	-65.1	3.8	1.49e+00	0	37	104	0	65	29148
2026-01-11 23:12:11.69	20.50	6.44	-47.2	-65.1	3.8	1.49e+00	0	37	104	0	65	29299
2026-01-11 23:12:12.69	20.53	6.52	-47.3	-65.1	3.8	1.49e+00	0	37	104	0	65	29177
2026-01-11 23:12:13.68	20.56	6.59	-47.3	-65.0	3.8	1.49e+00	0	37	104	0	65	28992
2026-01-11 23:12:14.67	20.60	6.66	-47.3	-64.9	3.8	1.49e+00	0	37	104	0	65	28597
2026-01-11 23:12:15.67	20.63	6.74	-47.3	-64.8	3.8	1.49e+00	0	37	104	0	65	28073
2026-01-11 23:12:16.66	20.66	6.81	-47.4	-64.6	3.8	1.49e+00	0	37	104	0	65	27504
2026-01-11 23:12:17.65	20.70	6.89	-47.3	-64.4	3.8	1.49e+00	0	37	104	0	65	26990
2026-01-11 23:12:18.65	20.73	6.96	-47.4	-64.4	3.8	1.49e+00	0	37	104	0	65	26819
2026-01-11 23:12:19.64	20.77	7.03	-47.3	-64.3	3.8	1.49e+00	0	37	104	0	65	26484
2026-01-11 23:12:20.64	20.80	7.11	-47.3	-64.2	3.8	1.49e+00	0	37	104	0	65	26262
2026-01-11 23:12:21.63	20.84	7.18	-47.4	-64.1	3.8	1.49e+00	0	38	104	0	65	26131
2026-01-11 23:12:22.62	20.87	7.26	-47.4	-64.1	3.8	1.49e+00	0	38	104	0	65	25879
2026-01-11 23:12:23.62	20.91	7.34	-47.4	-63.9	3.8	1.49e+00	0	38	104	0	65	25300
2026-01-11 23:12:24.61	20.94	7.41	-47.4	-63.6	3.8	1.49e+00	0	38	104	0	65	24650
2026-01-11 23:12:25.60	20.98	7.49	-47.3	-63.3	3.8	1.49e+00	0	38	104	0	65	23849
2026-01-11 23:12:26.59	21.01	7.56	-47.3	-62.9	3.8	1.48e+00	0	38	104	0	65	22667
2026-01-11 23:12:27.59	21.05	7.64	-47.3	-62.4	3.9	1.46e+00	0	38	104	0	65	21333
2026-01-11 23:12:28.58	21.08	7.71	-47.3	-61.8	4.2	1.44e+00	0	38	0	0	65	19848
2026-01-11 23:12:29.58	21.12	7.79	-47.2	-61.4	4.2	1.37e+00	0	38	0	0	65	19136
2026-01-11 23:12:30.57	21.15	7.87	-47.2	-61.1	4.3	1.33e+00	0	38	0	0	65	18458
2026-01-11 23:12:31.56	21.19	7.95	-47.2	-60.9	4.4	1.29e+00	0	38	0	2097152	65	18027
2026-01-11 23:12:32.56	21.23	8.02	-47.2	-60.8	4.4	1.21e+00	0	38	0	3145728	65	17844
2026-01-11 23:12:33.55	21.26	8.10	-47.2	-61.1	4.4	1.19e+00	0	38	0	5242880	65	18317
2026-01-11 23:12:34.54	21.30	8.18	-47.2	-60.9	4.4	1.24e+00	0	38	0	7340032	65	17974
2026-01-11 23:12:35.54	21.34	8.26	-47.2	-61.1	4.4	1.32e+00	0	38	0	8388608	65	18352
2026-01-11 23:12:36.53	21.38	8.33	-47.2	-61.1	4.4	1.29e+00	0	38	0	10485760	65	18320
2026-01-11 23:12:37.52	21.41	8.41	-47.2	-61.0	4.4	1.31e+00	0	38	0	11534336	65	18129
2026-01-11 23:12:38.52	21.45	8.49	-47.2	-60.7	4.5	1.13e+00	0	38	0	13631488	65	17658
2026-01-11 23:12:39.51	21.49	8.57	-47.2	-60.7	4.5	1.04e+00	0	38	0	15728640	65	17509
2026-01-11 23:12:40.50	21.53	8.65	-47.2	-60.6	4.5	1.00e+00	0	38	0	16777216	65	17332
2026-01-11 23:12:41.50	21.56	8.73	-47.1	-60.5	4.6	9.94e-01	0	38	0	18874368	65	17255
2026-01-11 23:12:42.49	21.60	8.81	-47.2	-60.7	4.5	1.01e+00	0	38	0	20971520	65	17648
2026-01-11 23:12:43.48	21.64	8.89	-47.2	-61.1	4.4	1.12e+00	0	38	0	23068672	65	18342
2026-01-11 23:12:44.48	21.68	8.97	-47.2	-61.5	4.2	1.36e+00	0	38	0	23068672	65	19263
2026-01-11 23:12:45.47	21.72	9.05	-47.3	-62.2	4.0	1.42e+00	0	38	0	23068672	65	20879
2026-01-11 23:12:46.47	21.76	9.13	-47.7	-65.0	3.8	1.48e+00	0	38	104	23068672	65	29004
2026-01-11 23:12:47.46	21.80	9.21	-47.7	-64.7	3.8	1.49e+00	0	38	104	23068672	66	26181
2026-01-11 23:12:48.46	21.84	9.29	-46.2	-52.9	11.0	2.37e-03	0	38	0	23068672	64	7628
2026-01-11 23:12:49.45	21.88	9.37	-46.2	-52.9	11.0	6.79e-03	0	38	0	25165824	64	7623
2026-01-11 23:12:50.44	21.92	9.46	-46.2	-54.0	9.8	2.07e-02	0	38	0	27262976	64	8617
2026-01-11 23:12:51.44	21.96	9.54	-46.3	-53.0	11.0	1.54e-03	0	38	0	29360128	64	7635
2026-01-11 23:12:52.43	22.00	9.62	-46.2	-52.4	11.6	1.29e-03	0	38	0	31457280	64	7127
2026-01-11 23:12:53.43	22.04	9.70	-46.3	-52.2	11.8	3.64e-04	0	38	0	32505856	64	7000
2026-01-11 23:12:54.42	22.08	9.79	-46.1	-51.7	12.3	2.64e-04	0	38	0	34603008	64	6630
2026-01-11 23:12:55.42	22.12	9.87	-46.4	-52.0	12.0	2.20e-04	0	38	0	36700160	64	6831
2026-01-11 23:12:56.41	22.16	9.95	-46.4	-51.9	12.2	1.77e-04	0	38	0	38797312	64	6746
2026-01-11 23:12:57.45	22.20	10.04	-46.5	-51.9	12.1	2.46e-04	0	38	0	40894464	64	6758
2026-01-11 23:12:58.48	22.25	10.13	-46.4	-51.4	12.6	1.39e-04	0	38	0	41943040	64	6399
2026-01-11 23:12:59.48	22.29	10.21	-46.4	-51.3	12.8	4.88e-05	0	38	0	44040192	64	6307
2026-01-11 23:13:00.54	22.33	10.30	-46.6	-51.4	12.7	8.54e-05	0	38	0	46137344	64	6418
2026-01-11 23:13:01.39	22.37	10.37	-46.4	-51.0	13.1	7.40e-05	0	38	0	48234496	64	6072
2026-01-11 23:13:02.53	22.42	10.47	-46.2	-50.6	13.5	1.52e-05	0	38	0	50331648	64	5806
2026-01-11 23:13:03.38	22.45	10.55	-46.3	-50.6	13.4	1.22e-05	0	38	0	51380224	64	5852
2026-01-11 23:13:04.52	22.50	10.64	-46.1	-50.1	14.0	1.06e-05	0	38	0	53477376	64	5470
2026-01-11 23:13:05.37	22.54	10.72	-46.2	-50.1	14.1	7.00e-07	0	38	0	55574528	63	5811
2026-01-11 23:13:06.51	22.59	10.82	-46.0	-49.9	14.3	1.50e-06	0	38	0	57671680	63	5682
2026-01-11 23:13:07.36	22.63	10.89	-46.0	-49.8	14.4	7.00e-07	0	38	0	58720256	63	5601
2026-01-11 23:13:08.50	22.68	10.99	-46.0	-49.7	14.5	1.50e-06	0	38	0	60817408	63	5587
2026-01-11 23:13:09.35	22.71	11.06	-46.0	-49.7	14.5	0.00e+00	0	38	0	62914560	63	5548
2026-01-11 23:13:10.49	22.76	11.16	-45.8	-49.4	14.8	7.00e-07	0	38	0	65011712	63	5364
2026-01-11 23:13:11.34	22.80	11.24	-45.8	-49.4	14.9	0.00e+00	0	38	0	66060288	63	5348
2026-01-11 23:13:12.48	22.85	11.34	-45.8	-49.3	14.9	0.00e+00	0	38	0	68157440	63	5320
2026-01-11 23:13:13.33	22.89	11.42	-45.8	-49.3	14.9	0.00e+00	0	38	0	70254592	63	5330
2026-01-11 23:13:14.60	22.95	11.53	-45.7	-49.2	15.0	0.00e+00	0	39	0	72351744	63	5263
2026-01-11 23:13:15.37	22.98	11.60	-45.7	-49.2	15.0	0.00e+00	0	38	0	74448896	63	5268
2026-01-11 23:13:16.81	23.05	11.73	-45.8	-49.3	14.9	0.00e+00	0	38	0	76546048	63	5289
2026-01-11 23:13:17.52	23.08	11.79	-45.8	-49.2	15.0	0.00e+00	0	39	0	77594624	63	5255
2026-01-11 23:13:18.80	23.14	11.91	-45.8	-49.2	15.0	0.00e+00	0	38	0	80740352	63	5274
2026-01-11 23:13:19.53	23.18	11.97	-45.8	-49.3	15.0	0.00e+00	0	38	0	81788928	63	5281
2026-01-11 23:13:20.81	23.24	12.09	-45.7	-49.1	15.2	0.00e+00	0	38	0	83886080	63	5162
2026-01-11 23:13:21.52	23.27	12.15	-45.7	-49.1	15.1	7.00e-07	0	38	0	85983232	63	5202
2026-01-11 23:13:22.80	23.33	12.27	-45.7	-49.1	15.1	0.00e+00	0	38	0	88080384	63	5193
2026-01-11 23:13:23.54	23.37	12.34	-45.7	-49.1	15.1	0.00e+00	0	38	0	89128960	63	5175
2026-01-11 23:13:24.82	23.43	12.46	-45.6	-49.0	15.3	0.00e+00	0	38	0	91226112	63	5102
2026-01-11 23:13:25.54	23.46	12.53	-45.6	-49.0	15.3	0.00e+00	0	38	0	93323264	63	5121
2026-01-11 23:13:26.82	23.53	12.64	-45.5	-48.9	15.4	0.00e+00	0	38	0	95420416	63	5069
2026-01-11 23:13:27.54	23.56	12.71	-45.5	-48.8	15.4	0.00e+00	0	38	0	96468992	63	5028
2026-01-11 23:13:28.82	23.62	12.83	-45.5	-48.8	15.4	0.00e+00	0	38	0	99614720	63	5039
2026-01-11 23:13:29.69	23.67	12.91	-45.5	-48.9	15.4	0.00e+00	0	39	0	100663296	62	5343
2026-01-11 23:13:31.13	23.74	13.05	-45.4	-48.8	15.4	0.00e+00	0	38	0	103809024	62	5335
2026-01-11 23:13:31.84	23.77	13.12	-45.4	-48.8	15.5	0.00e+00	0	39	0	104857600	62	5321
2026-01-11 23:13:33.12	23.84	13.24	-45.5	-48.9	15.4	0.00e+00	0	39	0	106954752	62	5367
2026-01-11 23:13:33.83	23.88	13.31	-45.5	-48.9	15.4	0.00e+00	0	38	0	109051904	62	5361
2026-01-11 23:13:35.11	23.94	13.43	-45.5	-48.9	15.4	0.00e+00	0	38	0	111149056	62	5356
2026-01-11 23:13:35.82	23.98	13.50	-45.4	-48.8	15.5	0.00e+00	0	39	0	112197632	62	5309
2026-01-11 23:13:37.10	24.04	13.62	-45.4	-48.8	15.5	0.00e+00	0	38	0	114294784	62	5323
2026-01-11 23:13:37.85	24.08	13.70	-45.3	-48.7	15.6	0.00e+00	0	39	0	116391936	62	5255
2026-01-11 23:13:39.13	24.15	13.82	-45.2	-48.6	15.7	0.00e+00	0	39	0	118489088	62	5167
2026-01-11 23:13:39.86	24.19	13.89	-45.3	-48.6	15.7	0.00e+00	0	39	0	119537664	62	5181
2026-01-11 23:13:41.14	24.26	14.02	-45.3	-48.7	15.7	0.00e+00	0	38	0	122683392	62	5224
2026-01-11 23:13:41.86	24.29	14.09	-45.2	-48.5	15.8	0.00e+00	0	39	0	123731968	62	5159
2026-01-11 23:13:43.14	24.36	14.22	-45.1	-48.4	15.9	0.00e+00	0	38	0	125829120	62	5064
2026-01-11 23:13:43.85	24.40	14.29	-45.1	-48.4	15.9	0.00e+00	0	39	0	127926272	62	5068
2026-01-11 23:13:45.13	24.47	14.41	-45.2	-48.4	15.9	0.00e+00	0	39	0	130023424	62	5091
2026-01-11 23:13:45.84	24.51	14.48	-45.1	-48.4	15.9	0.00e+00	0	38	0	131072000	62	5058
2026-01-11 23:13:47.14	24.58	14.62	-45.1	-48.3	16.0	0.00e+00	0	38	0	133169152	62	5028
2026-01-11 23:13:47.85	24.62	14.69	-45.1	-48.3	16.0	0.00e+00	0	39	0	135266304	62	5004
2026-01-11 23:13:49.21	24.70	14.83	-45.1	-48.3	16.0	0.00e+00	0	38	0	137363456	62	5005
2026-01-11 23:13:49.92	24.74	14.90	-45.1	-48.2	16.0	0.00e+00	0	39	0	138412032	62	4980
2026-01-11 23:13:51.20	24.81	15.03	-45.1	-48.2	16.1	0.00e+00	0	38	0	141557760	62	4978
2026-01-11 23:13:51.91	24.85	15.10	-45.1	-48.2	16.1	0.00e+00	0	38	0	142606336	62	4974
2026-01-11 23:13:53.19	24.92	15.23	-45.2	-48.3	16.1	0.00e+00	0	38	0	144703488	62	5001
2026-01-11 23:13:53.92	24.96	15.31	-45.2	-48.3	16.0	0.00e+00	0	38	0	145752064	62	5001
2026-01-11 23:13:55.20	25.04	15.44	-45.1	-48.2	16.2	0.00e+00	0	38	0	148897792	62	4938
2026-01-11 23:13:55.91	25.08	15.52	-45.1	-48.2	16.1	0.00e+00	0	39	0	149946368	62	4941
2026-01-11 23:13:57.21	25.15	15.65	-45.1	-48.2	16.2	0.00e+00	0	38	0	152043520	62	4935
2026-01-11 23:13:57.92	25.20	15.73	-45.1	-48.1	16.2	0.00e+00	0	39	0	154140672	62	4894
2026-01-11 23:13:59.19	25.27	15.86	-45.1	-48.1	16.2	0.00e+00	0	39	0	156237824	62	4902
2026-01-11 23:14:00.06	25.32	15.95	-45.1	-48.2	16.2	0.00e+00	0	39	0	157286400	62	4934
2026-01-11 23:14:01.50	25.41	16.11	-45.0	-48.1	16.3	0.00e+00	0	39	0	160432128	62	4874
2026-01-11 23:14:02.21	25.45	16.18	-44.9	-48.0	16.3	0.00e+00	0	39	0	161480704	61	5109
2026-01-11 23:14:03.49	25.53	16.32	-44.9	-48.0	16.4	0.00e+00	0	39	0	164626432	61	5101
2026-01-11 23:14:04.20	25.58	16.40	-44.8	-47.9	16.4	0.00e+00	0	39	0	165675008	61	5059
2026-01-11 23:14:05.48	25.66	16.54	-44.7	-47.7	16.6	0.00e+00	0	38	0	167772160	61	4974
2026-01-11 23:14:06.19	25.70	16.61	-44.7	-47.8	16.5	0.00e+00	0	39	0	168820736	61	5007
2026-01-11 23:14:07.82	25.80	16.79	-44.7	-47.8	16.5	0.00e+00	0	39	0	171966464	61	5013
2026-01-11 23:14:08.39	25.84	16.85	-44.7	-47.8	16.5	0.00e+00	0	39	0	173015040	61	5028
2026-01-11 23:14:10.10	25.95	17.04	-44.7	-47.9	16.4	0.00e+00	0	39	0	176160768	61	5070
2026-01-11 23:14:10.73	25.99	17.11	-44.7	-47.8	16.5	0.00e+00	0	39	0	178257920	61	5038
2026-01-11 23:14:12.17	26.08	17.27	-44.6	-47.7	16.6	0.00e+00	0	39	0	180355072	61	4974
2026-01-11 23:14:12.88	26.13	17.35	-44.6	-47.7	16.6	0.00e+00	0	38	0	181403648	61	4982
2026-01-11 23:14:14.16	26.21	17.50	-44.5	-47.6	16.7	0.00e+00	0	39	0	184549376	61	4922
2026-01-11 23:14:14.89	26.26	17.58	-44.6	-47.7	16.6	0.00e+00	0	38	0	185597952	61	4939
2026-01-11 23:14:16.16	26.34	17.72	-44.5	-47.6	16.7	0.00e+00	0	39	0	187695104	61	4895
2026-01-11 23:14:17.06	26.40	17.83	-44.5	-47.6	16.8	0.00e+00	0	39	0	189792256	61	4881
2026-01-11 23:14:18.40	26.49	17.98	-44.4	-47.5	16.9	0.00e+00	0	39	0	191889408	60	5123
2026-01-11 23:14:19.12	26.54	18.06	-44.5	-47.5	16.8	0.00e+00	0	39	0	193986560	60	5146
2026-01-11 23:14:20.39	26.63	18.21	-44.5	-47.6	16.8	0.00e+00	0	39	0	196083712	60	5168
2026-01-11 23:14:21.10	26.68	18.29	-44.4	-47.5	16.9	0.00e+00	0	39	0	197132288	60	5113
2026-01-11 23:14:22.40	26.77	18.44	-44.4	-47.4	16.9	0.00e+00	0	39	0	199229440	60	5069
2026-01-11 23:14:23.11	26.82	18.53	-44.4	-47.4	17.0	0.00e+00	0	39	0	201326592	60	5071
2026-01-11 23:14:24.39	26.91	18.68	-44.3	-47.2	17.1	0.00e+00	0	39	0	203423744	60	4982
2026-01-11 23:14:25.10	26.96	18.76	-44.3	-47.2	17.1	0.00e+00	0	39	0	204472320	60	4967
2026-01-11 23:14:26.38	27.05	18.91	-44.3	-47.2	17.1	0.00e+00	0	39	0	207618048	60	4982
2026-01-11 23:14:27.11	27.11	19.00	-44.4	-47.3	17.0	0.00e+00	0	39	0	208666624	60	4996
2026-01-11 23:14:28.39	27.20	19.15	-44.3	-47.2	17.2	0.00e+00	0	39	0	210763776	60	4929
2026-01-11 23:14:29.11	27.25	19.24	-44.3	-47.2	17.2	0.00e+00	0	39	0	211812352	60	4950
2026-01-11 23:14:30.39	27.35	19.39	-44.4	-47.1	17.2	0.00e+00	0	39	0	214958080	60	4923
2026-01-11 23:14:31.10	27.40	19.48	-44.4	-47.2	17.2	0.00e+00	0	39	0	216006656	60	4927
2026-01-11 23:14:32.38	27.49	19.64	-44.4	-47.1	17.2	0.00e+00	0	39	0	218103808	60	4915
2026-01-11 23:14:33.11	27.55	19.73	-44.3	-47.1	17.3	0.00e+00	0	39	0	220200960	60	4873
2026-01-11 23:14:34.39	27.65	19.88	-44.3	-47.0	17.3	0.00e+00	0	39	0	222298112	60	4837
2026-01-11 23:14:35.11	27.70	19.97	-44.4	-47.2	17.2	0.00e+00	0	39	0	223346688	60	4930
2026-01-11 23:14:36.39	27.80	20.13	-44.3	-47.0	17.3	0.00e+00	0	39	0	225443840	60	4854
2026-01-11 23:14:37.12	27.86	20.22	-44.3	-47.1	17.3	0.00e+00	0	39	0	227540992	60	4875
2026-01-11 23:14:38.40	27.96	20.38	-44.3	-47.0	17.3	0.00e+00	0	39	0	229638144	60	4854
2026-01-11 23:14:39.13	28.02	20.47	-44.2	-46.9	17.4	0.00e+00	0	39	0	230686720	60	4789
2026-01-11 23:14:40.75	28.15	20.68	-44.2	-46.9	17.5	0.00e+00	0	39	0	233832448	60	4785
2026-01-11 23:14:41.32	28.19	20.75	-44.2	-46.8	17.5	0.00e+00	0	39	0	234881024	60	4759
2026-01-11 23:14:43.03	28.33	20.97	-44.2	-46.9	17.3	0.00e+00	0	39	0	238026752	60	4760
2026-01-11 23:14:43.59	28.38	21.04	-44.2	-46.9	17.4	0.00e+00	0	39	0	239075328	60	4775
2026-01-11 23:14:45.30	28.52	21.26	-44.2	-46.8	17.5	0.00e+00	0	39	0	242221056	60	4759
2026-01-11 23:14:45.87	28.57	21.34	-44.1	-46.8	17.5	0.00e+00	0	39	0	243269632	60	4725
2026-01-11 23:14:47.57	28.71	21.56	-44.2	-46.9	17.5	0.00e+00	0	39	0	246415360	60	4767
2026-01-11 23:14:48.14	28.76	21.64	-44.1	-46.8	17.5	0.00e+00	0	39	0	248512512	60	4726
2026-01-11 23:14:49.85	28.90	21.86	-44.0	-46.6	17.7	0.00e+00	0	39	0	251658240	60	4632
2026-01-11 23:14:50.42	28.95	21.94	-44.0	-46.6	17.7	0.00e+00	0	39	0	252706816	60	4629
2026-01-11 23:14:52.12	29.10	22.16	-44.1	-46.7	17.6	0.00e+00	0	39	0	255852544	59	4956
2026-01-11 23:14:52.69	29.15	22.24	-44.1	-46.7	17.6	0.00e+00	0	39	0	256901120	59	4932
2026-01-11 23:14:54.59	29.32	22.50	-44.1	-46.7	17.6	0.00e+00	0	39	0	260046848	59	4933
2026-01-11 23:14:55.50	29.40	22.62	-44.0	-46.6	17.7	0.00e+00	0	39	0	262144000	59	4881
2026-01-11 23:14:56.50	29.49	22.76	-44.0	-46.5	17.8	0.00e+00	0	39	0	263192576	59	4850
2026-01-11 23:14:57.49	29.58	22.89	-43.9	-46.4	17.9	0.00e+00	0	39	0	265289728	59	4810
2026-01-11 23:14:58.50	29.68	23.03	-44.0	-46.5	17.8	0.00e+00	0	39	0	267386880	59	4819
2026-01-11 23:14:59.50	29.77	23.17	-43.9	-46.4	17.9	0.00e+00	0	39	0	269484032	59	4773
2026-01-11 23:15:00.49	29.86	23.31	-43.9	-46.4	17.9	0.00e+00	0	39	0	271581184	59	4787
2026-01-11 23:15:01.49	29.96	23.45	-43.9	-46.5	17.9	0.00e+00	0	39	0	272629760	59	4815
2026-01-11 23:15:02.48	30.05	23.59	-43.9	-46.4	17.9	0.00e+00	0	39	0	274726912	59	4797
2026-01-11 23:15:03.48	30.15	23.73	-44.0	-46.5	17.9	0.00e+00	0	39	0	276824064	59	4816
2026-01-11 23:15:04.47	30.25	23.87	-44.0	-46.5	17.8	0.00e+00	0	39	0	278921216	59	4841
2026-01-11 23:15:05.47	30.34	24.02	-44.0	-46.5	17.8	0.00e+00	0	39	0	279969792	59	4846
2026-01-11 23:15:06.46	30.44	24.16	-44.0	-46.6	17.8	0.00e+00	0	39	0	282066944	59	4879
2026-01-11 23:15:07.45	30.54	24.30	-44.0	-46.5	17.8	0.00e+00	0	39	0	284164096	59	4857
2026-01-11 23:15:08.45	30.64	24.45	-44.1	-46.7	17.7	0.00e+00	0	39	0	286261248	59	4947
2026-01-11 23:15:09.44	30.74	24.59	-44.1	-46.7	17.6	0.00e+00	0	39	0	288358400	59	4964
2026-01-11 23:15:10.44	30.84	24.74	-44.1	-46.8	17.6	0.00e+00	0	39	0	289406976	59	4994
2026-01-11 23:15:11.43	30.95	24.88	-44.0	-46.7	17.6	0.00e+00	0	39	0	291504128	59	4962
2026-01-11 23:15:12.43	31.05	25.03	-44.1	-46.8	17.5	0.00e+00	0	39	0	293601280	59	4999
2026-01-11 23:15:13.43	31.16	25.18	-44.2	-46.9	17.5	0.00e+00	0	39	0	295698432	59	5073
2026-01-11 23:15:14.46	31.27	25.33	-44.2	-47.0	17.4	0.00e+00	0	39	0	297795584	59	5136
2026-01-11 23:15:15.49	31.38	25.49	-44.1	-46.9	17.5	0.00e+00	0	39	0	298844160	59	5044
2026-01-11 23:15:16.48	31.48	25.64	-44.2	-47.0	17.3	0.00e+00	0	39	0	300941312	59	5124
2026-01-11 23:15:17.54	31.60	25.80	-44.3	-47.1	17.3	0.00e+00	0	39	0	303038464	59	5175
2026-01-11 23:15:18.44	31.70	25.93	-44.3	-47.0	17.3	0.00e+00	0	39	0	305135616	59	5141
2026-01-11 23:15:19.48	31.81	26.09	-44.4	-47.1	17.2	0.00e+00	0	39	0	307232768	59	5208
2026-01-11 23:15:20.48	31.93	26.25	-44.5	-47.2	17.1	0.00e+00	0	39	0	308281344	59	5266
2026-01-11 23:15:21.47	32.04	26.40	-44.6	-47.4	17.0	0.00e+00	0	39	0	310378496	59	5367
2026-01-11 23:15:22.46	32.15	26.55	-44.6	-47.4	17.0	0.00e+00	0	39	0	312475648	60	5080
2026-01-11 23:15:23.46	32.27	26.71	-44.8	-47.6	16.8	0.00e+00	0	39	0	314572800	60	5191
2026-01-11 23:15:24.45	32.38	26.87	-44.8	-47.7	16.8	0.00e+00	0	39	0	315621376	60	5236
2026-01-11 23:15:25.45	32.50	27.02	-44.9	-47.8	16.6	0.00e+00	0	39	0	317718528	60	5336
2026-01-11 23:15:26.44	32.62	27.18	-45.0	-48.0	16.5	0.00e+00	0	39	0	319815680	60	5420
2026-01-11 23:15:27.44	32.74	27.34	-45.2	-48.1	16.4	0.00e+00	0	39	0	321912832	60	5513
2026-01-11 23:15:28.43	32.86	27.50	-45.2	-48.2	16.2	0.00e+00	0	39	0	324009984	61	5267
2026-01-11 23:15:29.43	32.98	27.66	-45.3	-48.4	16.1	0.00e+00	0	39	0	325058560	61	5363
2026-01-11 23:15:30.42	33.10	27.82	-45.4	-48.5	16.0	0.00e+00	0	39	0	327155712	61	5408
2026-01-11 23:15:31.41	33.22	27.98	-45.5	-48.7	15.8	0.00e+00	0	39	0	329252864	61	5542
2026-01-11 23:15:32.41	33.35	28.15	-45.6	-48.7	15.8	0.00e+00	0	39	0	331350016	61	5582
2026-01-11 23:15:33.40	33.48	28.31	-45.7	-48.9	15.6	0.00e+00	0	39	0	332398592	61	5660
2026-01-11 23:15:34.48	33.62	28.49	-45.8	-49.0	15.5	0.00e+00	0	39	0	334495744	62	5425
2026-01-11 23:15:35.33	33.73	28.63	-45.8	-49.0	15.5	0.00e+00	0	39	0	336592896	62	5462
2026-01-11 23:15:36.69	33.90	28.86	-45.9	-49.1	15.4	0.00e+00	0	39	0	338690048	62	5503
2026-01-11 23:15:37.39	34.00	28.97	-46.0	-49.2	15.3	0.00e+00	0	39	0	340787200	62	5591
2026-01-11 23:15:38.68	34.17	29.19	-46.0	-49.4	15.1	0.00e+00	0	39	0	342884352	62	5675
2026-01-11 23:15:39.40	34.27	29.31	-46.1	-49.4	15.1	0.00e+00	0	39	0	343932928	62	5716
2026-01-11 23:15:40.68	34.44	29.53	-46.2	-49.5	15.0	0.00e+00	0	39	0	346030080	62	5782
2026-01-11 23:15:41.40	34.54	29.65	-46.3	-49.7	14.9	7.00e-07	0	39	0	348127232	63	5530
2026-01-11 23:15:42.68	34.72	29.87	-46.4	-49.9	14.7	0.00e+00	0	39	0	350224384	63	5667
2026-01-11 23:15:43.40	34.82	30.00	-46.5	-50.0	14.5	7.00e-07	0	39	0	351272960	63	5755
2026-01-11 23:15:44.68	35.00	30.22	-46.6	-50.2	14.3	7.00e-07	0	39	0	354418688	63	5894
2026-01-11 23:15:45.39	35.11	30.35	-46.7	-50.4	14.0	1.50e-06	0	39	0	355467264	64	5680
2026-01-11 23:15:46.66	35.29	30.57	-46.8	-50.7	13.8	1.50e-06	0	39	0	357564416	64	5873
2026-01-11 23:15:47.37	35.39	30.69	-47.0	-51.0	13.4	5.30e-06	0	39	0	358612992	64	6090
2026-01-11 23:15:48.75	35.60	30.94	-47.1	-51.1	13.4	1.14e-05	0	39	0	361758720	64	6180
2026-01-11 23:15:49.46	35.71	31.07	-47.1	-51.2	13.2	2.21e-05	0	39	0	362807296	65	5905
2026-01-11 23:15:50.74	35.90	31.30	-47.1	-51.2	13.2	2.59e-05	0	39	0	364904448	65	5908
2026-01-11 23:15:51.47	36.01	31.43	-47.1	-51.2	13.2	2.44e-05	0	39	0	367001600	65	5905
2026-01-11 23:15:52.75	36.21	31.66	-47.0	-51.0	13.4	2.44e-05	0	39	0	369098752	65	5774
2026-01-11 23:15:53.47	36.32	31.79	-46.8	-50.7	13.7	9.10e-06	0	39	0	370147328	65	5541
2026-01-11 23:15:54.75	36.53	32.02	-46.7	-50.5	13.9	3.00e-06	0	39	0	373293056	65	5446
2026-01-11 23:15:55.47	36.64	32.16	-46.7	-50.4	14.1	3.80e-06	0	39	0	374341632	65	5363
2026-01-11 23:15:56.75	36.85	32.39	-46.7	-50.4	14.1	7.00e-07	0	39	0	376438784	65	5369
2026-01-11 23:15:57.48	36.97	32.53	-46.8	-50.6	13.8	3.00e-06	0	39	0	378535936	65	5477
2026-01-11 23:15:58.76	37.18	32.77	-46.7	-50.4	14.1	3.80e-06	0	39	0	380633088	65	5352
2026-01-11 23:15:59.47	37.30	32.90	-46.7	-50.4	14.0	3.00e-06	0	39	0	381681664	65	5395
2026-01-11 23:16:00.76	37.52	33.14	-46.7	-50.5	14.0	3.80e-06	0	39	0	383778816	65	5407
2026-01-11 23:16:01.57	37.66	33.30	-46.7	-50.3	14.1	2.20e-06	0	39	0	385875968	65	5331
2026-01-11 23:16:02.70	37.86	33.51	-46.6	-50.3	14.2	3.80e-06	0	39	0	387973120	65	5301
2026-01-11 23:16:03.56	38.01	33.68	-46.6	-50.2	14.3	7.00e-07	0	39	0	389021696	65	5275
2026-01-11 23:16:04.69	38.21	33.89	-46.4	-49.9	14.5	1.50e-06	0	39	0	391118848	64	5391
2026-01-11 23:16:05.82	38.41	34.11	-46.4	-49.9	14.6	0.00e+00	0	39	0	393216000	64	5371
2026-01-11 23:16:06.67	38.57	34.28	-46.4	-49.9	14.6	2.20e-06	0	39	0	395313152	64	5381
2026-01-11 23:16:07.80	38.77	34.50	-46.4	-49.9	14.5	0.00e+00	0	39	0	397410304	64	5395
2026-01-11 23:16:08.65	38.93	34.66	-46.4	-49.9	14.6	0.00e+00	0	39	0	398458880	64	5378
2026-01-11 23:16:09.79	39.15	34.89	-46.2	-49.7	14.8	0.00e+00	0	39	0	401604608	64	5245
2026-01-11 23:16:10.65	39.31	35.06	-46.3	-49.7	14.8	0.00e+00	0	39	0	402653184	64	5247
2026-01-11 23:16:11.78	39.53	35.28	-46.2	-49.5	14.9	0.00e+00	0	39	0	404750336	64	5142
2026-01-11 23:16:12.63	39.70	35.45	-46.0	-49.3	15.1	0.00e+00	0	39	0	406847488	64	5034
2026-01-11 23:16:13.77	39.92	35.68	-46.0	-49.2	15.3	0.00e+00	0	39	0	408944640	63	5271
2026-01-11 23:16:14.62	40.09	35.85	-45.9	-49.1	15.4	0.00e+00	0	39	0	409993216	63	5206
2026-01-11 23:16:15.76	40.32	36.08	-45.8	-49.0	15.5	0.00e+00	0	39	0	412090368	63	5138
2026-01-11 23:16:16.61	40.50	36.25	-45.9	-49.0	15.5	0.00e+00	0	39	0	414187520	63	5150
2026-01-11 23:16:17.75	40.73	36.49	-45.8	-49.0	15.5	0.00e+00	0	39	0	416284672	63	5146
2026-01-11 23:16:18.60	40.91	36.66	-45.8	-49.0	15.6	0.00e+00	0	39	0	417333248	63	5112
2026-01-11 23:16:19.73	41.15	36.89	-45.7	-48.9	15.7	0.00e+00	0	39	0	419430400	63	5072
2026-01-11 23:16:20.59	41.34	37.07	-45.6	-48.7	15.9	0.00e+00	0	39	0	421527552	63	4943
2026-01-11 23:16:21.72	41.58	37.30	-45.6	-48.6	15.9	0.00e+00	0	39	0	423624704	63	4917
2026-01-11 23:16:22.58	41.77	37.48	-45.5	-48.5	16.0	0.00e+00	0	39	0	424673280	63	4867
2026-01-11 23:16:23.72	42.03	37.72	-45.4	-48.4	16.2	0.00e+00	0	39	0	426770432	62	5061
2026-01-11 23:16:24.57	42.22	37.90	-45.2	-48.1	16.5	0.00e+00	0	39	0	428867584	62	4907
2026-01-11 23:16:25.71	42.48	38.14	-45.2	-48.0	16.5	0.00e+00	0	39	0	430964736	62	4865
2026-01-11 23:16:26.56	42.68	38.32	-45.2	-48.1	16.4	0.00e+00	0	39	0	432013312	62	4903
2026-01-11 23:16:27.70	42.94	38.56	-45.4	-48.3	16.2	0.00e+00	0	39	0	435159040	62	5038
2026-01-11 23:16:28.55	43.15	38.74	-45.5	-48.5	16.1	0.00e+00	0	39	0	436207616	62	5123
2026-01-11 23:16:29.69	43.42	38.99	-45.6	-48.6	15.9	0.00e+00	0	39	0	438304768	62	5203
2026-01-11 23:16:30.54	43.63	39.17	-45.7	-48.8	15.8	0.00e+00	0	39	0	440401920	62	5287
2026-01-11 23:16:31.68	43.91	39.41	-45.8	-48.9	15.7	0.00e+00	0	39	0	442499072	62	5341
2026-01-11 23:16:32.62	44.15	39.62	-45.6	-48.7	15.8	0.00e+00	0	39	0	443547648	62	5247
2026-01-11 23:16:33.79	44.44	39.87	-45.6	-48.7	15.9	0.00e+00	0	39	0	445644800	62	5230
2026-01-11 23:16:34.65	44.67	40.06	-45.5	-48.5	16.0	0.00e+00	0	39	0	447741952	62	5159
2026-01-11 23:16:35.97	45.01	40.35	-45.4	-48.3	16.2	0.00e+00	0	39	0	449839104	62	5011
2026-01-11 23:16:36.68	45.20	40.50	-45.1	-48.0	16.6	0.00e+00	0	39	0	451936256	62	4840
2026-01-11 23:16:37.96	45.54	40.78	-45.2	-48.0	16.5	0.00e+00	0	39	0	454033408	62	4863
2026-01-11 23:16:38.67	45.74	40.94	-45.2	-48.0	16.5	0.00e+00	0	39	0	455081984	62	4865
2026-01-11 23:16:39.95	46.09	41.22	-45.2	-48.0	16.5	0.00e+00	0	39	0	457179136	62	4867
2026-01-11 23:16:40.66	46.29	41.38	-45.1	-48.0	16.6	0.00e+00	0	39	0	459276288	62	4825
2026-01-11 23:16:41.94	46.65	41.67	-45.2	-48.0	16.5	0.00e+00	0	39	0	461373440	62	4856
2026-01-11 23:16:42.66	46.86	41.83	-45.2	-48.1	16.5	0.00e+00	0	39	0	462422016	62	4902
2026-01-11 23:16:43.93	47.23	42.11	-45.5	-48.5	16.1	0.00e+00	0	39	0	465567744	62	5137
2026-01-11 23:16:44.65	47.44	42.27	-45.6	-48.7	15.9	0.00e+00	0	39	0	466616320	62	5241
2026-01-11 23:16:45.92	47.82	42.56	-45.7	-48.8	15.8	0.00e+00	0	39	0	468713472	62	5307
2026-01-11 23:16:46.63	48.03	42.72	-45.7	-48.8	15.8	0.00e+00	0	39	0	469762048	62	5306
2026-01-11 23:16:47.92	48.43	43.01	-45.8	-48.9	15.8	0.00e+00	0	39	0	472907776	62	5363
2026-01-11 23:16:48.63	48.65	43.17	-45.7	-48.8	15.7	0.00e+00	0	39	0	473956352	62	5327
2026-01-11 23:16:49.91	49.06	43.46	-45.9	-49.1	15.5	0.00e+00	0	39	0	476053504	62	5500
2026-01-11 23:16:50.63	49.29	43.62	-46.0	-49.3	15.3	0.00e+00	0	39	0	478150656	62	5594
2026-01-11 23:16:52.04	49.75	43.94	-46.5	-50.0	14.6	7.00e-07	0	39	0	480247808	63	5745
2026-01-11 23:16:52.75	49.98	44.11	-46.6	-50.2	14.3	0.00e+00	0	39	0	481296384	63	5907
2026-01-11 23:16:54.03	50.41	44.40	-46.5	-50.1	14.5	0.00e+00	0	39	0	484442112	64	5486
2026-01-11 23:16:54.74	50.65	44.56	-46.3	-49.8	14.7	0.00e+00	0	39	0	485490688	64	5301
2026-01-11 23:16:56.02	51.09	44.85	-46.2	-49.6	14.8	0.00e+00	0	39	0	487587840	64	5213
2026-01-11 23:16:56.73	51.34	45.01	-46.3	-49.7	14.9	0.00e+00	0	39	0	488636416	64	5241
2026-01-11 23:16:58.01	51.80	45.31	-46.6	-50.1	14.3	0.00e+00	0	39	0	491782144	64	5520
2026-01-11 23:16:58.71	52.05	45.47	-46.8	-50.6	14.0	1.50e-06	0	39	0	492830720	64	5795
2026-01-11 23:16:59.99	52.51	45.76	-47.3	-51.4	13.1	7.60e-06	0	39	0	494927872	65	6024
2026-01-11 23:17:00.70	52.78	45.92	-47.4	-51.7	12.8	2.82e-05	0	39	0	497025024	65	6225
2026-01-11 23:17:01.98	53.26	46.22	-47.4	-51.6	12.9	6.17e-05	0	39	0	499122176	65	6156
2026-01-11 23:17:02.71	53.53	46.38	-47.2	-51.2	13.4	3.81e-05	0	39	0	500170752	65	5878
2026-01-11 23:17:03.99	54.03	46.68	-47.2	-51.2	13.3	1.37e-05	0	39	0	502267904	65	5890
2026-01-11 23:17:04.71	54.31	46.84	-47.3	-51.3	13.2	2.28e-05	0	39	0	504365056	65	5967
2026-01-11 23:17:05.99	54.82	47.14	-47.7	-52.1	12.4	9.00e-05	0	39	0	506462208	65	6517
2026-01-11 23:17:06.71	55.11	47.30	-47.9	-52.6	12.0	2.32e-04	0	39	0	507510784	66	6512
2026-01-11 23:17:07.99	55.64	47.59	-48.4	-53.7	10.8	2.11e-03	0	39	0	510656512	67	6996
2026-01-11 23:17:08.73	55.94	47.76	-48.5	-53.8	10.6	2.64e-03	0	39	0	511705088	67	7098
2026-01-11 23:17:10.01	56.48	48.05	-48.2	-53.3	11.1	2.36e-03	0	39	0	513802240	67	6660
2026-01-11 23:17:10.75	56.80	48.22	-48.0	-52.8	11.7	7.45e-04	0	39	0	515899392	67	6287
2026-01-11 23:17:12.03	57.35	48.51	-47.7	-52.1	12.4	2.07e-04	0	39	0	517996544	67	5855
2026-01-11 23:17:12.79	57.69	48.68	-47.6	-52.0	12.6	1.11e-04	0	39	0	519045120	67	5749
2026-01-11 23:17:14.11	58.28	48.98	-47.7	-52.1	12.4	1.33e-04	0	39	0	521142272	67	5808
2026-01-11 23:17:14.83	58.61	49.14	-47.8	-52.3	12.2	1.43e-04	0	39	0	523239424	67	5974
2026-01-11 23:17:16.11	59.20	49.43	-47.8	-52.4	12.1	3.94e-04	0	39	0	525336576	67	6035
2026-01-11 23:17:17.16	59.69	49.66	-47.6	-52.0	12.4	1.99e-04	0	39	0	527433728	67	5737
2026-01-11 23:17:18.36	60.26	49.93	-47.2	-51.2	13.3	4.11e-05	0	39	0	529530880	66	5545
2026-01-11 23:17:19.22	60.68	50.11	-46.9	-50.7	13.8	1.22e-05	0	39	0	531628032	65	5533
2026-01-11 23:17:20.35	61.23	50.36	-46.4	-50.0	14.6	2.20e-06	0	39	0	533725184	64	5411
2026-01-11 23:17:21.18	61.64	50.54	-46.4	-49.9	14.7	0.00e+00	0	39	0	534773760	64	5353
2026-01-11 23:17:22.32	62.22	50.79	-46.2	-49.6	14.9	0.00e+00	0	39	0	536870912	64	5165
2026-01-11 23:17:23.17	62.65	50.98	-46.2	-49.5	15.1	0.00e+00	0	39	0	538968064	64	5124
2026-01-11 23:17:24.31	63.24	51.22	-46.0	-49.3	15.3	0.00e+00	0	39	0	541065216	64	4988
2026-01-11 23:17:25.16	63.69	51.40	-45.9	-49.1	15.6	0.00e+00	0	39	0	542113792	63	5180
2026-01-11 23:17:26.30	64.30	51.64	-45.3	-48.2	16.4	0.00e+00	0	39	0	544210944	62	4958
2026-01-11 23:17:27.15	64.76	51.82	-45.1	-47.9	16.7	0.00e+00	0	39	0	546308096	62	4790
2026-01-11 23:17:28.29	65.38	52.06	-45.0	-47.8	16.7	0.00e+00	0	39	0	548405248	61	5040
2026-01-11 23:17:29.14	65.86	52.23	-45.2	-48.1	16.5	0.00e+00	0	39	0	549453824	61	5192
2026-01-11 23:17:30.38	66.56	52.49	-45.2	-48.1	16.5	0.00e+00	0	39	0	552599552	61	5164
2026-01-11 23:17:31.23	67.04	52.66	-45.0	-47.8	16.8	0.00e+00	0	39	0	553648128	61	5003
2026-01-11 23:17:32.37	67.71	52.89	-44.7	-47.4	17.1	0.00e+00	0	39	0	555745280	61	4806
2026-01-11 23:17:33.22	68.21	53.05	-44.6	-47.3	17.2	0.00e+00	0	39	0	557842432	61	4742
2026-01-11 23:17:34.36	68.89	53.28	-44.6	-47.2	17.3	0.00e+00	0	39	0	559939584	61	4687
2026-01-11 23:17:35.21	69.40	53.44	-44.8	-47.5	17.1	0.00e+00	0	39	0	560988160	61	4857
2026-01-11 23:17:36.35	70.10	53.66	-45.2	-48.1	16.5	0.00e+00	0	39	0	563085312	61	5212
2026-01-11 23:17:37.20	70.62	53.82	-45.6	-48.6	16.0	0.00e+00	0	39	0	565182464	61	5497
2026-01-11 23:17:38.34	71.34	54.03	-45.6	-48.7	15.9	0.00e+00	0	39	0	567279616	61	5550
2026-01-11 23:17:39.19	71.88	54.19	-45.3	-48.3	16.3	0.00e+00	0	39	0	568328192	61	5297
2026-01-11 23:17:40.33	72.61	54.39	-44.8	-47.6	17.0	0.00e+00	0	39	0	570425344	61	4876
2026-01-11 23:17:41.18	73.17	54.54	-44.7	-47.5	17.1	0.00e+00	0	39	0	572522496	61	4818
2026-01-11 23:17:42.32	73.92	54.74	-45.0	-47.8	16.8	0.00e+00	0	39	0	574619648	61	4999
2026-01-11 23:17:43.17	74.49	54.89	-45.3	-48.3	16.3	0.00e+00	0	39	0	576716800	61	5297
2026-01-11 23:17:44.31	75.26	55.08	-45.4	-48.4	16.2	0.00e+00	0	39	0	578813952	61	5357
2026-01-11 23:17:45.16	75.84	55.22	-45.3	-48.2	16.4	0.00e+00	0	39	0	579862528	61	5258
2026-01-11 23:17:46.30	76.63	55.40	-45.1	-48.0	16.6	0.00e+00	0	39	0	581959680	61	5104
2026-01-11 23:17:47.15	77.22	55.53	-44.9	-47.7	16.9	0.00e+00	0	39	0	584056832	61	4943
2026-01-11 23:17:48.29	78.03	55.71	-45.0	-47.8	16.8	0.00e+00	0	39	0	586153984	61	5006
2026-01-11 23:17:49.14	78.64	55.84	-45.2	-48.0	16.5	0.00e+00	0	39	0	587202560	61	5156
2026-01-11 23:17:50.39	79.54	56.02	-45.3	-48.2	16.3	0.00e+00	0	39	0	589299712	61	5277
2026-01-11 23:17:51.24	80.16	56.14	-45.2	-48.1	16.4	0.00e+00	0	39	0	591396864	61	5169
2026-01-11 23:17:52.38	81.00	56.29	-45.2	-48.2	16.4	0.00e+00	0	39	0	593494016	61	5235
2026-01-11 23:17:53.23	81.63	56.41	-45.2	-48.1	16.4	0.00e+00	0	39	0	594542592	61	5215
2026-01-11 23:17:54.37	82.49	56.55	-45.6	-48.7	15.9	7.00e-07	0	39	0	597688320	61	5566
2026-01-11 23:17:55.25	83.16	56.66	-45.7	-48.9	15.7	0.00e+00	0	39	0	598736896	62	5349
2026-01-11 23:17:56.56	84.16	56.82	-45.6	-48.8	15.8	0.00e+00	0	39	0	600834048	62	5294
2026-01-11 23:17:57.27	84.71	56.90	-45.6	-48.8	15.8	0.00e+00	0	39	0	602931200	62	5317
2026-01-11 23:17:58.55	85.71	57.04	-46.2	-49.7	14.9	0.00e+00	0	39	0	605028352	62	5857
2026-01-11 23:17:59.26	86.27	57.11	-46.3	-49.9	14.6	0.00e+00	0	39	0	606076928	63	5708
2026-01-11 23:18:00.54	87.28	57.24	-46.7	-50.5	14.0	0.00e+00	0	39	0	609222656	64	5786
2026-01-11 23:18:01.27	87.86	57.31	-47.1	-51.2	13.3	2.20e-06	0	39	0	610271232	64	6246
2026-01-11 23:18:02.55	88.89	57.42	-48.0	-53.0	11.4	1.88e-04	0	39	0	612368384	66	6877
2026-01-11 23:18:03.26	89.46	57.48	-48.2	-53.4	11.0	1.35e-03	0	39	0	613416960	67	6772
2026-01-11 23:18:04.54	90.50	57.59	-47.6	-52.2	12.3	4.90e-04	0	39	0	616562688	67	5865
2026-01-11 23:18:05.25	91.08	57.64	-47.3	-51.8	12.8	6.86e-05	0	39	0	617611264	66	5924
2026-01-11 23:18:06.52	92.12	57.73	-47.1	-51.1	13.4	3.66e-05	0	39	0	619708416	66	5500
2026-01-11 23:18:07.23	92.71	57.77	-47.0	-50.9	13.5	9.10e-06	0	39	0	621805568	65	5719
2026-01-11 23:18:08.52	93.78	57.85	-47.5	-51.7	12.7	3.12e-05	0	39	0	623902720	65	6268
2026-01-11 23:18:09.25	94.38	57.88	-47.8	-52.4	12.1	1.88e-04	0	39	0	624951296	66	6394
2026-01-11 23:18:10.54	95.46	57.94	-47.6	-52.0	12.4	1.65e-04	0	39	0	627048448	66	6129
2026-01-11 23:18:11.25	96.06	57.97	-47.3	-51.6	12.8	1.01e-04	0	39	0	629145600	66	5840
2026-01-11 23:18:12.52	97.12	58.02	-47.4	-51.8	12.8	1.90e-05	0	39	0	631242752	66	5949
2026-01-11 23:18:13.23	97.72	58.04	-47.5	-51.8	12.8	9.84e-05	0	39	0	632291328	66	5943
2026-01-11 23:18:14.51	98.80	58.07	-47.1	-51.0	13.6	2.05e-05	0	39	0	635437056	66	5448
2026-01-11 23:18:15.22	99.40	58.08	-47.0	-50.9	13.6	1.52e-05	0	39	0	636485632	66	5364
2026-01-11 23:18:16.50	100.48	58.10	-47.5	-51.8	12.8	2.67e-05	0	39	0	638582784	66	5926
2026-01-11 23:18:17.24	101.11	58.11	-47.3	-51.5	13.0	7.24e-05	0	39	0	639631360	66	5735
2026-01-11 23:18:18.52	102.20	58.11	-46.8	-50.5	14.0	6.10e-06	0	39	0	642777088	65	5427
2026-01-11 23:18:19.24	102.81	58.10	-46.3	-49.7	14.8	0.00e+00	0	39	0	643825664	64	5250
2026-01-11 23:18:20.52	103.89	58.09	-45.7	-48.8	15.8	0.00e+00	0	39	0	645922816	63	4993
2026-01-11 23:18:21.23	104.49	58.08	-45.4	-48.4	16.3	0.00e+00	0	39	0	648019968	62	5050
2026-01-11 23:18:22.51	105.57	58.05	-46.0	-49.2	15.4	0.00e+00	0	39	0	650117120	62	5536
2026-01-11 23:18:23.23	106.18	58.03	-46.5	-49.9	14.8	0.00e+00	0	39	0	651165696	63	5691
2026-01-11 23:18:24.51	107.26	57.99	-46.7	-50.4	14.2	2.20e-06	0	39	0	653262848	64	5684
2026-01-11 23:18:25.24	107.87	57.96	-46.4	-50.0	14.5	1.50e-06	0	39	0	655360000	64	5426
2026-01-11 23:18:26.52	108.94	57.90	-46.9	-50.9	13.7	1.50e-06	0	39	0	657457152	64	5997
2026-01-11 23:18:27.24	109.54	57.86	-47.3	-51.6	13.0	2.05e-05	0	39	0	658505728	65	6167
2026-01-11 23:18:28.52	110.60	57.79	-47.5	-52.0	12.5	1.40e-04	0	39	0	661651456	65	6491
2026-01-11 23:18:29.24	111.20	57.75	-47.6	-52.0	12.5	1.06e-04	0	39	0	662700032	65	6484
2026-01-11 23:18:30.52	112.25	57.66	-48.0	-52.9	11.6	2.29e-04	0	39	0	664797184	66	6743
2026-01-11 23:18:31.23	112.83	57.61	-48.5	-53.9	10.6	1.43e-03	0	39	0	665845760	67	7125
2026-01-11 23:18:32.69	114.02	57.50	-48.8	-54.5	10.1	8.96e-03	0	39	0	668991488	68	7257
2026-01-11 23:18:33.39	114.59	57.44	-48.4	-53.5	11.1	4.65e-03	0	39	0	670040064	68	6443
2026-01-11 23:18:34.68	115.62	57.32	-47.7	-52.1	12.4	1.39e-04	0	39	0	673185792	67	5824
2026-01-11 23:18:35.39	116.19	57.26	-48.0	-52.8	11.8	1.23e-04	0	39	0	674234368	67	6299
2026-01-11 23:18:36.67	117.20	57.13	-48.6	-54.2	10.2	2.24e-03	0	39	0	676331520	67	7401
2026-01-11 23:18:37.38	117.76	57.06	-48.5	-53.8	10.6	5.68e-03	0	39	0	677380096	67	7092
2026-01-11 23:18:38.66	118.76	56.92	-47.8	-52.3	12.3	4.30e-04	0	39	0	680525824	67	5927
2026-01-11 23:18:39.39	119.33	56.83	-47.6	-51.9	12.7	9.46e-05	0	39	0	681574400	67	5672
2026-01-11 23:18:40.67	120.31	56.68	-47.4	-51.6	12.9	3.58e-05	0	39	0	683671552	66	5825
2026-01-11 23:18:41.40	120.87	56.59	-47.2	-51.2	13.3	4.50e-05	0	39	0	685768704	66	5591
2026-01-11 23:18:42.68	121.83	56.43	-46.3	-49.7	14.8	0.00e+00	0	39	0	687865856	64	5275
2026-01-11 23:18:43.46	122.42	56.33	-45.8	-48.9	15.7	0.00e+00	0	39	0	688914432	63	5097
2026-01-11 23:18:44.74	123.36	56.15	-45.7	-48.8	15.8	0.00e+00	0	39	0	692060160	63	4990
2026-01-11 23:18:45.49	123.91	56.05	-45.7	-48.8	15.9	0.00e+00	0	39	0	693108736	63	4988
2026-01-11 23:18:46.77	124.84	55.86	-45.3	-48.3	16.3	0.00e+00	0	39	0	695205888	62	5004
2026-01-11 23:18:47.58	125.42	55.74	-44.9	-47.6	16.9	0.00e+00	0	39	0	697303040	61	4915
2026-01-11 23:18:49.00	126.43	55.52	-44.1	-46.6	17.9	0.00e+00	0	39	0	699400192	60	4621
2026-01-11 23:18:49.71	126.92	55.41	-43.8	-46.2	18.2	0.00e+00	0	39	0	701497344	59	4700
2026-01-11 23:18:50.99	127.81	55.20	-43.3	-45.7	18.7	0.00e+00	0	39	0	703594496	58	4682
2026-01-11 23:18:51.71	128.30	55.08	-43.2	-45.6	18.8	0.00e+00	0	39	0	704643072	58	4613
2026-01-11 23:18:52.99	129.17	54.87	-43.0	-45.3	19.1	0.00e+00	0	39	0	706740224	58	4485
2026-01-11 23:18:53.73	129.67	54.74	-43.0	-45.4	19.1	0.00e+00	0	39	0	708837376	58	4500
2026-01-11 23:18:55.02	130.52	54.52	-43.2	-45.6	18.8	0.00e+00	0	39	0	710934528	58	4603
2026-01-11 23:18:55.74	130.99	54.39	-43.3	-45.6	18.8	0.00e+00	0	39	0	711983104	58	4629
2026-01-11 23:18:57.02	131.81	54.16	-43.2	-45.4	19.0	0.00e+00	0	39	0	715128832	58	4532
2026-01-11 23:18:57.74	132.27	54.03	-43.3	-45.6	18.8	0.00e+00	0	39	0	716177408	58	4625
2026-01-11 23:18:59.02	133.08	53.79	-44.2	-46.8	17.8	0.00e+00	0	39	0	718274560	59	4985
2026-01-11 23:18:59.75	133.53	53.65	-44.2	-46.8	17.7	0.00e+00	0	39	0	719323136	59	5010
2026-01-11 23:19:01.05	134.33	53.40	-43.6	-46.0	18.4	0.00e+00	0	39	0	722468864	59	4573
2026-01-11 23:19:01.76	134.76	53.26	-43.6	-46.0	18.5	0.00e+00	0	39	0	723517440	59	4559
2026-01-11 23:19:03.10	135.55	53.00	-44.4	-47.0	17.5	0.00e+00	0	39	0	725614592	59	5125
2026-01-11 23:19:03.81	135.97	52.86	-44.8	-47.5	17.0	0.00e+00	0	39	0	727711744	60	5139
2026-01-11 23:19:05.09	136.71	52.60	-44.9	-47.8	16.8	0.00e+00	0	39	0	729808896	60	5299
2026-01-11 23:19:06.15	137.32	52.38	-44.7	-47.4	17.1	0.00e+00	0	39	0	731906048	60	5094
2026-01-11 23:19:07.36	138.00	52.14	-44.6	-47.2	17.4	0.00e+00	0	39	0	734003200	60	4958
2026-01-11 23:19:08.33	138.54	51.93	-44.5	-47.1	17.4	0.00e+00	0	39	0	736100352	60	4900
2026-01-11 23:19:09.32	139.08	51.73	-45.1	-47.9	16.6	0.00e+00	0	39	0	738197504	60	5401
2026-01-11 23:19:10.32	139.62	51.52	-45.9	-49.1	15.5	0.00e+00	0	39	0	739246080	62	5518
2026-01-11 23:19:11.31	140.14	51.30	-45.6	-48.7	16.0	0.00e+00	0	39	0	741343232	62	5219
2026-01-11 23:19:12.31	140.67	51.09	-45.2	-48.0	16.6	0.00e+00	0	39	0	743440384	62	4869
2026-01-11 23:19:13.31	141.18	50.87	-45.4	-48.3	16.3	0.00e+00	0	39	0	745537536	62	5017
2026-01-11 23:19:14.30	141.69	50.66	-46.1	-49.4	15.3	0.00e+00	0	39	0	746586112	62	5662
2026-01-11 23:19:15.29	142.18	50.44	-46.5	-50.0	14.7	7.00e-07	0	39	0	748683264	63	5746
2026-01-11 23:19:16.29	142.68	50.22	-46.4	-49.8	14.8	0.00e+00	0	39	0	750780416	63	5644
2026-01-11 23:19:17.29	143.17	50.00	-46.1	-49.3	15.3	0.00e+00	0	39	0	752877568	63	5323
2026-01-11 23:19:18.28	143.64	49.78	-45.9	-49.0	15.6	0.00e+00	0	39	0	754974720	63	5118
2026-01-11 23:19:19.27	144.11	49.56	-46.0	-49.2	15.4	0.00e+00	0	39	0	756023296	63	5273
2026-01-11 23:19:20.27	144.58	49.34	-47.1	-50.9	13.7	0.00e+00	0	39	0	758120448	64	6051
2026-01-11 23:19:21.33	145.07	49.10	-47.9	-52.7	11.9	2.74e-04	0	39	0	760217600	66	6600
2026-01-11 23:19:22.24	145.48	48.89	-47.6	-52.1	12.4	2.81e-04	0	39	0	762314752	66	6159
2026-01-11 23:19:23.37	145.98	48.64	-46.6	-50.2	14.3	8.30e-06	0	39	0	764411904	65	5266
2026-01-11 23:19:24.22	146.36	48.45	-46.4	-49.8	14.7	7.00e-07	0	39	0	765460480	64	5326
2026-01-11 23:19:25.36	146.85	48.19	-46.9	-50.7	13.9	1.50e-06	0	39	0	767557632	64	5899
2026-01-11 23:19:26.21	147.22	47.99	-47.5	-51.8	12.8	2.36e-05	0	39	0	769654784	65	6275
2026-01-11 23:19:27.62	147.81	47.67	-47.8	-52.2	12.3	2.01e-04	0	39	0	771751936	66	6263
2026-01-11 23:19:28.71	148.26	47.42	-48.0	-52.6	11.9	4.70e-04	0	39	0	773849088	66	6568
2026-01-11 23:19:29.56	148.61	47.23	-48.0	-52.8	11.6	5.48e-04	0	39	0	775946240	66	6656
2026-01-11 23:19:30.70	149.07	46.96	-47.6	-52.1	12.3	3.71e-04	0	39	0	778043392	66	6175
2026-01-11 23:19:31.55	149.40	46.77	-47.2	-51.3	13.2	4.50e-05	0	39	0	779091968	66	5616
2026-01-11 23:19:32.69	149.85	46.51	-47.4	-51.5	13.0	3.20e-05	0	39	0	781189120	66	5771
2026-01-11 23:19:33.54	150.18	46.31	-47.8	-52.4	12.1	1.54e-04	0	39	0	783286272	66	6357
2026-01-11 23:19:34.68	150.61	46.05	-48.1	-52.9	11.5	1.05e-03	0	39	0	785383424	67	6388
2026-01-11 23:19:35.53	150.93	45.85	-47.5	-51.6	12.9	2.67e-04	0	39	0	786432000	66	5854
2026-01-11 23:19:36.67	151.35	45.59	-46.7	-50.3	14.2	3.00e-06	0	39	0	788529152	65	5310
2026-01-11 23:19:37.58	151.68	45.38	-46.7	-50.3	14.2	2.20e-06	0	39	0	790626304	65	5305
2026-01-11 23:19:38.75	152.10	45.11	-46.8	-50.5	14.0	7.00e-07	0	39	0	792723456	65	5414
2026-01-11 23:19:39.61	152.40	44.92	-46.8	-50.6	14.0	3.00e-06	0	39	0	794820608	65	5465
2026-01-11 23:19:40.96	152.87	44.61	-46.9	-50.6	13.8	3.80e-06	0	39	0	796917760	65	5513
2026-01-11 23:19:41.67	153.11	44.44	-47.1	-51.1	13.4	9.90e-06	0	39	0	797966336	65	5799
2026-01-11 23:19:42.95	153.54	44.15	-47.6	-52.1	12.4	7.70e-05	0	39	0	801112064	65	6520
2026-01-11 23:19:43.68	153.79	43.98	-47.4	-51.7	12.7	1.42e-04	0	39	0	802160640	65	6252
2026-01-11 23:19:44.95	154.20	43.69	-46.2	-49.6	14.9	0.00e+00	0	39	0	804257792	64	5186
2026-01-11 23:19:45.68	154.44	43.52	-45.8	-48.9	15.6	0.00e+00	0	39	0	806354944	63	5063
2026-01-11 23:19:46.96	154.85	43.23	-46.2	-49.6	15.0	0.00e+00	0	39	0	808452096	63	5505
2026-01-11 23:19:47.69	155.08	43.07	-46.7	-50.3	14.2	7.00e-07	0	39	0	809500672	64	5648
2026-01-11 23:19:48.96	155.47	42.78	-46.8	-50.7	13.8	4.50e-06	0	39	0	811597824	64	5871
2026-01-11 23:19:49.69	155.69	42.61	-46.3	-49.8	14.6	1.50e-06	0	39	0	813694976	64	5336
2026-01-11 23:19:50.97	156.08	42.32	-45.5	-48.5	16.0	0.00e+00	0	39	0	815792128	63	4869
2026-01-11 23:19:51.71	156.30	42.16	-45.4	-48.3	16.3	0.00e+00	0	39	0	816840704	62	5008
2026-01-11 23:19:52.99	156.67	41.87	-45.9	-49.1	15.5	0.00e+00	0	39	0	819986432	62	5504
2026-01-11 23:19:53.72	156.88	41.71	-46.5	-49.9	14.6	0.00e+00	0	39	0	821035008	63	5719
2026-01-11 23:19:55.00	157.25	41.42	-46.6	-50.2	14.4	0.00e+00	0	39	0	823132160	63	5862
2026-01-11 23:19:55.72	157.45	41.26	-46.5	-50.1	14.4	7.00e-07	0	39	0	825229312	64	5477
2026-01-11 23:19:57.00	157.81	40.97	-46.5	-50.0	14.5	1.50e-06	0	39	0	827326464	64	5443
2026-01-11 23:19:57.71	158.00	40.82	-46.6	-50.2	14.4	1.50e-06	0	39	0	828375040	64	5540
2026-01-11 23:19:58.99	158.35	40.53	-46.6	-50.3	14.2	2.20e-06	0	39	0	830472192	64	5599
2026-01-11 23:19:59.72	158.54	40.37	-46.2	-49.7	14.8	1.50e-06	0	39	0	832569344	64	5232
2026-01-11 23:20:01.00	158.88	40.09	-45.9	-49.1	15.5	0.00e+00	0	39	0	834666496	63	5160
2026-01-11 23:20:01.73	159.07	39.93	-45.7	-48.8	15.7	0.00e+00	0	39	0	835715072	63	5013
2026-01-11 23:20:03.25	159.46	39.60	-45.9	-49.1	15.4	0.00e+00	0	39	0	838860800	63	5202
2026-01-11 23:20:03.96	159.64	39.44	-46.4	-49.9	14.7	0.00e+00	0	39	0	839909376	63	5680
2026-01-11 23:20:05.24	159.96	39.17	-47.1	-51.1	13.3	8.30e-06	0	39	0	843055104	64	6189
2026-01-11 23:20:06.28	160.21	38.94	-46.9	-50.8	13.7	1.75e-05	0	39	0	844103680	64	5974
2026-01-11 23:20:07.21	160.44	38.74	-46.2	-49.6	14.9	7.00e-07	0	39	0	846200832	64	5171
2026-01-11 23:20:08.20	160.67	38.53	-45.8	-48.9	15.6	0.00e+00	0	39	0	848297984	63	5083
2026-01-11 23:20:09.20	160.91	38.32	-45.6	-48.6	15.9	0.00e+00	0	39	0	850395136	63	4916
2026-01-11 23:20:10.20	161.14	38.10	-45.2	-48.0	16.5	0.00e+00	0	39	0	851443712	62	4855
2026-01-11 23:20:11.19	161.37	37.89	-45.0	-47.9	16.7	0.00e+00	0	39	0	853540864	62	4761
2026-01-11 23:20:12.27	161.61	37.67	-45.2	-48.1	16.4	0.00e+00	0	39	0	855638016	62	4907
2026-01-11 23:20:13.12	161.80	37.49	-45.6	-48.6	16.0	0.00e+00	0	39	0	857735168	62	5192
2026-01-11 23:20:14.48	162.10	37.20	-46.3	-49.8	14.8	0.00e+00	0	39	0	859832320	63	5605
2026-01-11 23:20:15.19	162.26	37.05	-46.7	-50.5	14.0	7.00e-07	0	39	0	860880896	64	5753
2026-01-11 23:20:16.47	162.53	36.79	-46.5	-50.2	14.2	7.00e-07	0	39	0	864026624	64	5555
2026-01-11 23:20:17.18	162.69	36.64	-46.1	-49.6	14.8	7.00e-07	0	39	0	865075200	64	5211
2026-01-11 23:20:18.46	162.95	36.38	-45.6	-48.8	15.8	0.00e+00	0	39	0	867172352	63	4988
2026-01-11 23:20:19.17	163.10	36.23	-45.5	-48.5	16.0	0.00e+00	0	39	0	868220928	62	5129
2026-01-11 23:20:20.45	163.37	35.97	-44.9	-47.7	16.7	0.00e+00	0	39	0	871366656	61	4978
2026-01-11 23:20:21.16	163.51	35.83	-45.0	-47.9	16.6	0.00e+00	0	39	0	872415232	61	5077
2026-01-11 23:20:22.44	163.77	35.57	-45.7	-48.8	15.8	0.00e+00	0	39	0	874512384	62	5283
2026-01-11 23:20:23.17	163.91	35.42	-46.1	-49.4	15.1	0.00e+00	0	39	0	876609536	62	5706
2026-01-11 23:20:24.45	164.16	35.17	-46.8	-50.5	14.0	0.00e+00	0	39	0	878706688	64	5784
2026-01-11 23:20:25.16	164.30	35.02	-46.9	-50.8	13.7	9.10e-06	0	39	0	879755264	64	5938
2026-01-11 23:20:26.44	164.54	34.77	-46.7	-50.4	14.0	3.00e-06	0	39	0	881852416	64	5717
2026-01-11 23:20:27.15	164.67	34.63	-46.5	-50.2	14.3	7.00e-07	0	39	0	883949568	64	5540
2026-01-11 23:20:28.42	164.91	34.38	-46.1	-49.5	15.0	0.00e+00	0	39	0	886046720	64	5120
2026-01-11 23:20:29.13	165.04	34.24	-45.9	-49.3	15.3	7.00e-07	0	39	0	887095296	63	5284
2026-01-11 23:20:30.42	165.28	33.99	-45.6	-48.7	15.8	0.00e+00	0	39	0	890241024	63	4945
2026-01-11 23:20:31.12	165.40	33.85	-45.6	-48.6	15.9	0.00e+00	0	39	0	891289600	62	5197
2026-01-11 23:20:32.40	165.63	33.61	-45.7	-48.9	15.7	0.00e+00	0	39	0	893386752	62	5342
2026-01-11 23:20:33.13	165.76	33.46	-46.0	-49.3	15.3	0.00e+00	0	39	0	894435328	62	5640
2026-01-11 23:20:34.73	166.04	33.16	-46.5	-50.0	14.6	7.00e-07	0	39	0	897581056	63	5772
2026-01-11 23:20:35.30	166.13	33.05	-46.3	-49.8	14.7	1.50e-06	0	39	0	898629632	63	5620
2026-01-11 23:20:37.24	166.46	32.68	-46.6	-50.2	14.4	3.00e-06	0	39	0	902823936	63	5861
2026-01-11 23:20:37.81	166.56	32.58	-46.6	-50.2	14.3	7.00e-07	0	39	0	903872512	63	5903
2026-01-11 23:20:39.51	166.84	32.26	-46.3	-49.8	14.7	7.00e-07	0	39	0	907018240	63	5643
2026-01-11 23:20:40.08	166.93	32.15	-46.4	-49.8	14.7	0.00e+00	0	39	0	908066816	63	5655
2026-01-11 23:20:41.78	167.20	31.84	-46.5	-50.0	14.5	7.00e-07	0	39	0	911212544	63	5753
2026-01-11 23:20:42.36	167.29	31.73	-46.5	-50.1	14.5	0.00e+00	0	39	0	912261120	63	5806
2026-01-11 23:20:44.03	167.55	31.43	-46.6	-50.4	14.0	1.50e-06	0	39	0	915406848	64	5684
2026-01-11 23:20:44.60	167.64	31.32	-46.6	-50.4	14.0	1.50e-06	0	39	0	916455424	64	5688
2026-01-11 23:20:46.51	167.93	30.98	-46.6	-50.4	14.1	0.00e+00	0	39	0	919601152	64	5659
2026-01-11 23:20:47.08	168.02	30.88	-46.5	-50.2	14.3	1.50e-06	0	39	0	920649728	64	5530
2026-01-11 23:20:48.78	168.27	30.57	-46.3	-50.0	14.5	0.00e+00	0	39	0	923795456	64	5415
2026-01-11 23:20:49.48	168.37	30.45	-46.1	-49.7	14.7	7.00e-07	0	39	0	925892608	64	5227
2026-01-11 23:20:50.90	168.58	30.20	-46.1	-49.6	14.8	0.00e+00	0	39	0	927989760	64	5197
2026-01-11 23:20:51.61	168.68	30.07	-46.1	-49.6	14.8	7.00e-07	0	39	0	930086912	64	5176
2026-01-11 23:20:52.88	168.86	29.85	-46.3	-49.9	14.5	0.00e+00	0	39	0	932184064	64	5367
2026-01-11 23:20:53.61	168.97	29.73	-46.4	-50.0	14.4	0.00e+00	0	39	0	933232640	64	5433
2026-01-11 23:20:54.89	169.14	29.50	-46.7	-50.6	13.9	1.50e-06	0	39	0	935329792	64	5792
2026-01-11 23:20:55.62	169.24	29.38	-46.9	-50.8	13.6	3.00e-06	0	39	0	937426944	64	5944
2026-01-11 23:20:56.91	169.42	29.16	-47.0	-51.0	13.4	1.06e-05	0	39	0	939524096	64	6096
2026-01-11 23:20:57.62	169.51	29.04	-47.0	-51.1	13.4	1.06e-05	0	39	0	940572672	64	6138
2026-01-11 23:20:58.90	169.69	28.82	-46.9	-50.9	13.5	6.80e-06	0	39	0	942669824	64	6013
2026-01-11 23:20:59.64	169.78	28.70	-46.8	-50.6	13.8	7.60e-06	0	39	0	944766976	64	5841
2026-01-11 23:21:00.92	169.95	28.48	-46.6	-50.3	14.1	1.50e-06	0	39	0	946864128	64	5639
2026-01-11 23:21:01.64	170.04	28.36	-46.4	-50.0	14.4	0.00e+00	0	39	0	947912704	64	5436
2026-01-11 23:21:03.14	170.23	28.11	-46.2	-49.7	14.7	3.80e-06	0	39	0	951058432	64	5251
2026-01-11 23:21:03.86	170.33	27.99	-46.2	-49.7	14.7	0.00e+00	0	39	0	952107008	64	5235
2026-01-11 23:21:05.20	170.49	27.77	-46.2	-49.7	14.7	0.00e+00	0	39	0	955252736	64	5238
2026-01-11 23:21:05.91	170.58	27.66	-46.2	-49.6	14.8	0.00e+00	0	39	0	956301312	64	5173
2026-01-11 23:21:07.19	170.74	27.45	-46.1	-49.5	14.8	0.00e+00	0	39	0	958398464	64	5158
2026-01-11 23:21:07.90	170.82	27.34	-46.2	-49.6	14.8	0.00e+00	0	39	0	960495616	64	5197
2026-01-11 23:21:09.17	170.98	27.13	-46.0	-49.4	15.0	0.00e+00	0	39	0	962592768	64	5083
2026-01-11 23:21:09.89	171.06	27.02	-46.0	-49.4	15.0	0.00e+00	0	39	0	963641344	64	5062
2026-01-11 23:21:11.17	171.21	26.81	-46.0	-49.3	15.2	0.00e+00	0	39	0	965738496	63	5321
2026-01-11 23:21:11.88	171.30	26.70	-46.0	-49.3	15.2	0.00e+00	0	39	0	967835648	63	5322
2026-01-11 23:21:13.16	171.45	26.50	-45.9	-49.2	15.3	0.00e+00	0	39	0	969932800	63	5238
2026-01-11 23:21:13.90	171.53	26.38	-45.8	-49.1	15.4	0.00e+00	0	39	0	970981376	63	5160
2026-01-11 23:21:15.18	171.68	26.18	-45.7	-49.0	15.5	0.00e+00	0	39	0	974127104	63	5107
2026-01-11 23:21:15.90	171.76	26.07	-45.7	-48.9	15.6	0.00e+00	0	39	0	975175680	63	5064
2026-01-11 23:21:17.17	171.90	25.87	-45.6	-48.8	15.7	0.00e+00	0	39	0	977272832	63	5004
2026-01-11 23:21:17.89	171.98	25.76	-45.6	-48.8	15.6	0.00e+00	0	39	0	978321408	63	5027
2026-01-11 23:21:19.16	172.12	25.57	-45.5	-48.6	15.8	0.00e+00	0	39	0	981467136	63	4921
2026-01-11 23:21:20.10	172.22	25.43	-45.4	-48.5	16.0	0.00e+00	0	39	0	982515712	62	5123
2026-01-11 23:21:21.09	172.32	25.28	-45.4	-48.5	15.9	0.00e+00	0	39	0	984612864	62	5135
2026-01-11 23:21:22.42	172.47	25.08	-45.3	-48.4	16.0	0.00e+00	0	39	0	987758592	62	5091
2026-01-11 23:21:23.16	172.54	24.97	-45.2	-48.3	16.2	0.00e+00	0	39	0	988807168	62	5002
2026-01-11 23:21:24.76	172.71	24.73	-45.1	-48.1	16.4	0.00e+00	0	39	0	991952896	62	4881
2026-01-11 23:21:25.34	172.77	24.64	-45.1	-48.1	16.3	0.00e+00	0	39	0	993001472	62	4911
2026-01-11 23:21:26.90	172.93	24.41	-45.1	-48.1	16.3	0.00e+00	0	40	0	996147200	62	4908
2026-01-11 23:21:27.61	173.00	24.31	-45.2	-48.3	16.1	0.00e+00	0	39	0	997195776	62	5010
2026-01-11 23:21:28.89	173.13	24.12	-45.3	-48.4	16.1	0.00e+00	0	40	0	999292928	62	5065
2026-01-11 23:21:29.61	173.20	24.02	-45.4	-48.6	15.9	0.00e+00	0	39	0	1000341504	62	5162
2026-01-11 23:21:30.89	173.33	23.83	-45.5	-48.8	15.7	0.00e+00	0	39	0	1003487232	62	5289
2026-01-11 23:21:31.62	173.40	23.73	-45.6	-48.9	15.6	0.00e+00	0	39	0	1004535808	62	5341
2026-01-11 23:21:33.02	173.53	23.53	-45.6	-48.9	15.5	0.00e+00	0	39	0	1007681536	62	5386
2026-01-11 23:21:33.73	173.60	23.43	-45.6	-48.9	15.6	0.00e+00	0	39	0	1008730112	62	5342
2026-01-11 23:21:35.01	173.72	23.25	-45.5	-48.7	15.7	0.00e+00	0	39	0	1010827264	62	5267
2026-01-11 23:21:35.72	173.79	23.15	-45.5	-48.7	15.8	0.00e+00	0	39	0	1011875840	62	5245
2026-01-11 23:21:37.00	173.91	22.97	-45.3	-48.5	16.0	0.00e+00	0	39	0	1015021568	62	5118
2026-01-11 23:21:37.73	173.97	22.87	-45.1	-48.2	16.2	0.00e+00	0	39	0	1016070144	62	4975
2026-01-11 23:21:39.01	174.09	22.69	-44.9	-47.8	16.5	0.00e+00	0	39	0	1018167296	61	5040
2026-01-11 23:21:39.72	174.16	22.59	-44.8	-47.8	16.6	0.00e+00	0	39	0	1020264448	61	4985
2026-01-11 23:21:41.00	174.27	22.42	-44.7	-47.6	16.8	0.00e+00	0	39	0	1022361600	61	4887
2026-01-11 23:21:41.71	174.34	22.32	-44.7	-47.6	16.8	0.00e+00	0	39	0	1023410176	61	4879
2026-01-11 23:21:42.99	174.45	22.15	-44.5	-47.3	17.1	0.00e+00	0	39	0	1025507328	61	4732
2026-01-11 23:21:43.72	174.51	22.05	-44.4	-47.2	17.1	0.00e+00	0	39	0	1027604480	60	4969
2026-01-11 23:21:45.00	174.62	21.88	-44.2	-47.0	17.4	0.00e+00	0	39	0	1029701632	60	4834
2026-01-11 23:21:45.71	174.69	21.78	-44.2	-46.9	17.4	0.00e+00	0	39	0	1030750208	60	4792
2026-01-11 23:21:46.99	174.80	21.61	-44.3	-47.0	17.3	0.00e+00	0	39	0	1032847360	60	4863
2026-01-11 23:21:47.72	174.86	21.51	-44.3	-47.0	17.3	0.00e+00	0	39	0	1034944512	60	4864
2026-01-11 23:21:49.00	174.97	21.35	-44.4	-47.2	17.2	0.00e+00	0	39	0	1037041664	60	4933
2026-01-11 23:21:49.72	175.03	21.25	-44.3	-47.1	17.3	0.00e+00	0	39	0	1038090240	60	4891
2026-01-11 23:21:51.03	175.13	21.08	-44.5	-47.3	17.1	0.00e+00	0	39	0	1041235968	60	4993
2026-01-11 23:21:51.74	175.19	20.99	-44.5	-47.3	17.1	0.00e+00	0	39	0	1042284544	60	4988
2026-01-11 23:21:53.10	175.30	20.81	-44.6	-47.4	17.0	0.00e+00	0	39	0	1044381696	60	5046
2026-01-11 23:21:53.81	175.36	20.72	-44.5	-47.4	17.0	0.00e+00	0	39	0	1046478848	60	5050
2026-01-11 23:21:55.16	175.47	20.55	-44.6	-47.5	16.9	0.00e+00	0	39	0	1048576000	60	5101
2026-01-11 23:21:56.13	175.55	20.42	-44.6	-47.5	16.8	0.00e+00	0	39	0	1050673152	60	5135
2026-01-11 23:21:57.44	175.65	20.26	-44.7	-47.6	16.7	0.00e+00	0	39	0	1052770304	60	5199
2026-01-11 23:21:58.19	175.71	20.16	-44.7	-47.6	16.7	0.00e+00	0	39	0	1053818880	60	5194
2026-01-11 23:21:59.46	175.81	20.00	-44.7	-47.6	16.7	0.00e+00	0	39	0	1056964608	60	5211
2026-01-11 23:22:00.17	175.86	19.91	-44.7	-47.6	16.8	0.00e+00	0	39	0	1058013184	60	5190
2026-01-11 23:22:01.45	175.96	19.76	-44.6	-47.5	16.8	0.00e+00	0	39	0	1060110336	60	5145
2026-01-11 23:22:02.18	176.01	19.66	-44.6	-47.5	16.9	0.00e+00	0	39	0	1062207488	60	5124
2026-01-11 23:22:03.46	176.11	19.51	-44.6	-47.4	16.9	0.00e+00	0	39	0	1064304640	60	5100
2026-01-11 23:22:04.17	176.16	19.42	-44.5	-47.4	17.0	0.00e+00	0	39	0	1065353216	60	5066
2026-01-11 23:22:05.45	176.26	19.26	-44.6	-47.5	16.9	0.00e+00	0	39	0	1067450368	60	5111
2026-01-11 23:22:06.17	176.31	19.18	-44.5	-47.3	17.0	0.00e+00	0	40	0	1069547520	60	4999
2026-01-11 23:22:07.45	176.40	19.02	-44.5	-47.2	17.1	0.00e+00	0	39	0	1071644672	60	4965
2026-01-11 23:22:08.18	176.46	18.93	-44.5	-47.2	17.1	0.00e+00	0	39	0	1072693248	60	4971
2026-01-11 23:22:09.46	176.55	18.78	-44.3	-47.1	17.2	0.00e+00	0	39	0	1075838976	60	4872
2026-01-11 23:22:10.17	176.60	18.69	-44.4	-47.1	17.2	0.00e+00	0	39	0	1076887552	60	4921
2026-01-11 23:22:11.45	176.69	18.54	-44.4	-47.1	17.2	0.00e+00	0	39	0	1078984704	60	4904
2026-01-11 23:22:12.18	176.74	18.46	-44.4	-47.1	16.9	0.00e+00	0	39	0	1081081856	60	4888
2026-01-11 23:22:13.45	176.83	18.31	-44.5	-47.2	17.1	0.00e+00	0	39	0	1083179008	60	4980
2026-01-11 23:22:14.18	176.88	18.22	-44.4	-47.1	17.2	0.00e+00	0	40	0	1084227584	60	4923
2026-01-11 23:22:15.78	176.99	18.03	-44.5	-47.3	17.1	0.00e+00	0	39	0	1087373312	60	5005
2026-01-11 23:22:16.34	177.03	17.97	-44.5	-47.3	17.0	0.00e+00	0	39	0	1088421888	60	5025
2026-01-11 23:22:18.05	177.14	17.77	-44.6	-47.4	17.0	0.00e+00	0	40	0	1091567616	60	5049
2026-01-11 23:22:18.62	177.18	17.71	-44.6	-47.4	16.9	0.00e+00	0	39	0	1092616192	60	5089
2026-01-11 23:22:20.32	177.30	17.51	-44.6	-47.5	16.8	0.00e+00	0	39	0	1095761920	60	5144
2026-01-11 23:22:20.89	177.33	17.45	-44.7	-47.6	16.7	0.00e+00	0	40	0	1096810496	60	5200
2026-01-11 23:22:22.60	177.44	17.25	-44.8	-47.7	16.6	0.00e+00	0	39	0	1099956224	60	5264
2026-01-11 23:22:23.31	177.49	17.17	-44.8	-47.7	16.6	0.00e+00	0	39	0	1101004800	60	5279
2026-01-11 23:22:24.59	177.57	17.03	-44.8	-47.8	16.5	0.00e+00	0	39	0	1104150528	60	5340
2026-01-11 23:22:25.33	177.62	16.95	-44.9	-47.9	16.4	0.00e+00	0	39	0	1105199104	60	5376
2026-01-11 23:22:26.61	177.70	16.80	-44.9	-47.9	16.4	0.00e+00	0	39	0	1107296256	60	5373
2026-01-11 23:22:27.56	177.76	16.70	-44.9	-48.0	16.3	0.00e+00	0	39	0	1109393408	60	5410
2026-01-11 23:22:28.55	177.82	16.59	-44.9	-47.9	16.4	0.00e+00	0	39	0	1111490560	60	5382
2026-01-11 23:22:29.55	177.89	16.48	-44.9	-47.9	16.4	0.00e+00	0	39	0	1113587712	60	5395
2026-01-11 23:22:30.54	177.95	16.37	-44.9	-48.0	16.3	0.00e+00	0	39	0	1114636288	60	5419
2026-01-11 23:22:31.54	178.01	16.26	-44.9	-47.9	16.4	0.00e+00	0	39	0	1116733440	60	5394
2026-01-11 23:22:32.53	178.07	16.15	-44.9	-48.0	16.3	0.00e+00	0	39	0	1118830592	60	5435
2026-01-11 23:22:33.52	178.13	16.05	-44.9	-48.0	16.3	0.00e+00	0	39	0	1120927744	60	5405
2026-01-11 23:22:34.52	178.19	15.94	-44.9	-47.9	16.4	0.00e+00	0	39	0	1121976320	60	5400
2026-01-11 23:22:35.51	178.25	15.83	-44.9	-48.0	16.4	0.00e+00	0	39	0	1124073472	60	5411
2026-01-11 23:22:36.51	178.31	15.73	-44.9	-48.0	16.3	0.00e+00	0	39	0	1126170624	60	5417
2026-01-11 23:22:37.50	178.36	15.62	-44.8	-47.9	16.4	0.00e+00	0	40	0	1128267776	60	5390
2026-01-11 23:22:38.50	178.42	15.52	-44.9	-48.0	16.3	0.00e+00	0	39	0	1130364928	60	5424
2026-01-11 23:22:39.49	178.48	15.41	-44.9	-48.1	16.2	0.00e+00	0	39	0	1131413504	60	5475
2026-01-11 23:22:40.49	178.54	15.31	-45.0	-48.1	16.2	0.00e+00	0	39	0	1133510656	60	5515
2026-01-11 23:22:41.48	178.59	15.20	-45.0	-48.1	16.2	0.00e+00	0	39	0	1135607808	60	5519
2026-01-11 23:22:42.48	178.65	15.10	-45.0	-48.2	16.1	0.00e+00	0	39	0	1137704960	60	5558
2026-01-11 23:22:43.48	178.71	15.00	-45.0	-48.2	16.0	0.00e+00	0	40	0	1139802112	60	5588
2026-01-11 23:22:44.47	178.76	14.89	-45.0	-48.2	16.1	0.00e+00	0	40	0	1140850688	60	5590
2026-01-11 23:22:45.46	178.82	14.79	-45.1	-48.3	16.0	0.00e+00	0	39	0	1142947840	60	5637
2026-01-11 23:22:46.46	178.87	14.69	-45.1	-48.3	16.0	0.00e+00	0	39	0	1145044992	60	5649
2026-01-11 23:22:47.45	178.93	14.59	-45.1	-48.4	15.9	0.00e+00	0	39	0	1147142144	60	5672
2026-01-11 23:22:48.45	178.98	14.49	-45.2	-48.5	15.8	0.00e+00	0	39	0	1148190720	61	5430
2026-01-11 23:22:49.44	179.04	14.39	-45.2	-48.5	15.8	0.00e+00	0	39	0	1150287872	61	5442
2026-01-11 23:22:50.44	179.09	14.29	-45.2	-48.6	15.7	0.00e+00	0	40	0	1152385024	61	5472
2026-01-11 23:22:51.43	179.14	14.19	-45.3	-48.6	15.6	0.00e+00	0	39	0	1154482176	61	5513
2026-01-11 23:22:52.43	179.20	14.09	-45.3	-48.7	15.5	0.00e+00	0	39	0	1156579328	61	5573
2026-01-11 23:22:53.42	179.25	13.99	-45.3	-48.8	15.5	0.00e+00	0	39	0	1157627904	61	5622
2026-01-11 23:22:54.45	179.30	13.89	-45.3	-48.8	15.5	0.00e+00	0	40	0	1159725056	61	5644
2026-01-11 23:22:55.45	179.36	13.79	-45.3	-48.8	15.4	0.00e+00	0	39	0	1161822208	61	5635
2026-01-11 23:22:56.44	179.41	13.69	-45.4	-48.9	15.3	0.00e+00	0	39	0	1163919360	61	5721
2026-01-11 23:22:57.44	179.46	13.59	-45.4	-49.0	15.3	0.00e+00	0	39	0	1164967936	61	5729
2026-01-11 23:22:58.43	179.51	13.49	-45.4	-48.9	15.3	0.00e+00	0	39	0	1167065088	61	5720
2026-01-11 23:22:59.43	179.56	13.40	-45.5	-49.1	15.2	0.00e+00	0	39	0	1169162240	61	5794
2026-01-11 23:23:00.42	179.61	13.30	-45.5	-49.1	15.1	0.00e+00	0	39	0	1171259392	61	5854
2026-01-11 23:23:01.42	179.66	13.20	-45.5	-49.1	15.2	4.62e-04	0	39	0	1173356544	61	5825
2026-01-11 23:23:02.41	179.71	13.11	-45.5	-49.1	15.1	0.00e+00	0	39	0	1174405120	61	5823
2026-01-11 23:23:03.41	179.76	13.01	-45.5	-49.1	15.2	0.00e+00	0	39	0	1176502272	61	5799
2026-01-11 23:23:04.40	179.81	12.92	-45.6	-49.2	15.0	5.46e-04	0	39	0	1178599424	61	5899
2026-01-11 23:23:05.39	179.86	12.82	-45.6	-49.2	15.0	0.00e+00	0	39	0	1180696576	61	5913
2026-01-11 23:23:06.39	179.91	12.73	-45.5	-49.2	15.1	0.00e+00	0	40	0	1181745152	61	5873
2026-01-11 23:23:07.38	179.96	12.64	-45.6	-49.3	14.9	7.50e-04	0	39	0	1183842304	61	5948
2026-01-11 23:23:08.38	180.01	12.54	-45.5	-49.2	15.0	0.00e+00	0	39	0	1185939456	61	5886
2026-01-11 23:23:09.37	180.05	12.45	-45.5	-49.2	15.0	0.00e+00	0	39	0	1188036608	61	5893
2026-01-11 23:23:10.37	180.10	12.35	-45.5	-49.2	15.0	0.00e+00	0	39	0	1190133760	61	5919
2026-01-11 23:23:11.36	180.15	12.26	-45.5	-49.2	15.0	0.00e+00	0	40	0	1191182336	61	5905
2026-01-11 23:23:12.44	180.20	12.16	-45.5	-49.2	15.0	0.00e+00	0	40	0	1193279488	61	5918
2026-01-11 23:23:13.32	180.24	12.08	-45.6	-49.3	14.9	7.28e-04	0	40	0	1195376640	61	5987
2026-01-11 23:23:14.46	180.29	11.98	-45.6	-49.3	14.9	7.00e-07	0	39	0	1197473792	61	5985
2026-01-11 23:23:15.39	180.34	11.89	-45.6	-49.4	14.8	0.00e+00	0	40	0	1199570944	61	6038
2026-01-11 23:23:16.56	180.39	11.78	-45.7	-49.4	14.8	0.00e+00	0	39	0	1201668096	62	5681
2026-01-11 23:23:17.41	180.43	11.71	-45.7	-49.4	14.8	0.00e+00	0	39	0	1202716672	62	5689
2026-01-11 23:23:18.55	180.48	11.60	-45.7	-49.4	14.8	0.00e+00	0	40	0	1204813824	62	5696
2026-01-11 23:23:19.40	180.52	11.53	-45.6	-49.4	14.8	0.00e+00	0	40	0	1206910976	62	5662
2026-01-11 23:23:20.54	180.57	11.42	-45.8	-49.5	14.7	0.00e+00	0	40	0	1209008128	62	5767
2026-01-11 23:23:21.39	180.61	11.35	-45.7	-49.5	14.7	4.04e-05	0	39	0	1210056704	62	5744
2026-01-11 23:23:22.52	180.66	11.25	-45.7	-49.3	14.9	0.00e+00	0	40	0	1212153856	62	5633
2026-01-11 23:23:23.37	180.70	11.17	-45.8	-49.4	14.8	0.00e+00	0	40	0	1214251008	62	5698
2026-01-11 23:23:24.51	180.75	11.07	-45.7	-49.4	14.8	1.25e-03	0	39	0	1216348160	62	5687
2026-01-11 23:23:25.36	180.78	10.99	-45.7	-49.4	14.8	0.00e+00	0	40	0	1217396736	62	5661
2026-01-11 23:23:26.50	180.83	10.89	-45.8	-49.5	14.7	0.00e+00	0	40	0	1219493888	62	5728
2026-01-11 23:23:27.35	180.87	10.82	-45.7	-49.3	14.8	0.00e+00	0	40	0	1221591040	62	5630
2026-01-11 23:23:28.49	180.92	10.72	-45.7	-49.3	14.8	7.00e-07	0	39	0	1223688192	62	5653
2026-01-11 23:23:29.34	180.96	10.64	-45.7	-49.3	14.8	0.00e+00	0	40	0	1224736768	62	5629
2026-01-11 23:23:30.48	181.01	10.54	-45.6	-49.2	14.9	0.00e+00	0	40	0	1227882496	62	5558
2026-01-11 23:23:31.33	181.04	10.47	-45.7	-49.3	14.9	0.00e+00	0	40	0	1228931072	62	5628
2026-01-11 23:23:32.47	181.09	10.37	-45.7	-49.4	14.8	7.00e-07	0	39	0	1231028224	62	5657
2026-01-11 23:23:33.32	181.12	10.30	-45.6	-49.2	14.9	3.73e-05	0	39	0	1233125376	62	5579
2026-01-11 23:23:34.66	181.18	10.18	-45.6	-49.2	15.0	0.00e+00	0	40	0	1235222528	62	5534
