passes_logs/2026/01/11/T1/T1__20260111_150646_FENGYUN_3E_rec.log

#Pass ID: 20260111_150646_FENGYUN 3E
#Satellite: FENGYUN 3E
#Configuration: FENGYUN 3E
#almurnet v.1.7.20251203
#Start time: 2026-01-11 15:06:48

#Version: 2.0.20230620
#Station: T1
#Location: 37.570604 lon 55.790049 lat
#TLE: 1 49008U 21062A   26010.98903141  .00000148  00000+0  90257-4 0  9995
#TLE: 2 49008  98.7490  16.1644 0001865 146.3673 213.7622 14.19884943234274

#Time	Az	El	Level	Level2	SNR	BER	BlckErr	Temp	State	Recorded	gain1	gain2
2026-01-11 15:06:48.28	189.22	5.10	-51.5	-63.0	3.8	8.47e-01	0	37	0	0	73	13437
2026-01-11 15:06:49.27	189.27	5.17	-51.4	-62.8	3.8	8.46e-01	0	37	104	0	73	13211
2026-01-11 15:06:50.26	189.32	5.24	-51.4	-62.8	3.8	8.47e-01	0	37	104	0	73	13246
2026-01-11 15:06:51.26	189.38	5.30	-51.4	-62.7	3.8	8.47e-01	0	37	104	0	73	12999
2026-01-11 15:06:52.25	189.43	5.37	-51.4	-62.8	3.8	8.46e-01	0	37	104	0	73	13241
2026-01-11 15:06:53.24	189.48	5.44	-51.4	-62.7	3.8	8.46e-01	0	37	104	0	73	13086
2026-01-11 15:06:54.24	189.53	5.51	-51.4	-62.5	3.8	8.48e-01	0	37	104	0	73	12761
2026-01-11 15:06:55.23	189.59	5.58	-51.4	-62.3	3.8	8.46e-01	0	37	104	0	73	12515
2026-01-11 15:06:56.22	189.64	5.65	-51.3	-62.2	3.8	8.46e-01	0	37	104	0	73	12265
2026-01-11 15:06:57.21	189.69	5.71	-51.3	-62.4	3.8	8.46e-01	0	38	104	0	73	12561
2026-01-11 15:06:58.21	189.75	5.78	-51.3	-62.1	3.8	8.47e-01	0	37	104	0	73	12169
2026-01-11 15:06:59.20	189.80	5.85	-51.3	-62.2	3.8	8.46e-01	0	37	104	0	73	12240
2026-01-11 15:07:00.19	189.86	5.92	-51.3	-62.0	3.8	8.47e-01	0	38	104	0	73	12060
2026-01-11 15:07:01.19	189.91	5.99	-51.3	-62.1	3.8	8.46e-01	0	38	104	0	73	12112
2026-01-11 15:07:02.18	189.96	6.06	-51.2	-61.7	3.8	8.47e-01	0	38	104	0	73	11575
2026-01-11 15:07:03.17	190.02	6.13	-51.3	-61.9	3.8	8.47e-01	0	38	104	0	73	11851
2026-01-11 15:07:04.17	190.08	6.20	-51.2	-61.4	3.8	8.47e-01	0	38	104	0	73	11179
2026-01-11 15:07:05.16	190.13	6.27	-51.2	-60.9	3.8	8.46e-01	0	38	104	0	73	10567
2026-01-11 15:07:06.15	190.19	6.34	-51.2	-61.3	3.8	8.46e-01	0	38	104	0	73	11129
2026-01-11 15:07:07.15	190.24	6.41	-51.1	-60.6	3.8	8.45e-01	0	38	104	0	73	10257
2026-01-11 15:07:08.14	190.30	6.48	-51.1	-60.5	4.0	8.46e-01	0	38	104	0	73	10168
2026-01-11 15:07:09.13	190.36	6.55	-51.1	-60.4	4.0	8.44e-01	0	38	104	0	73	10050
2026-01-11 15:07:10.12	190.41	6.62	-51.1	-60.5	3.9	8.43e-01	0	38	104	0	73	10112
2026-01-11 15:07:11.12	190.47	6.69	-51.2	-61.1	3.8	8.46e-01	0	38	104	0	73	10781
2026-01-11 15:07:12.11	190.53	6.76	-51.1	-60.2	4.0	8.44e-01	0	38	104	0	73	9822
2026-01-11 15:07:13.10	190.58	6.84	-51.0	-59.9	4.1	8.41e-01	0	38	0	0	72	10029
2026-01-11 15:07:14.10	190.64	6.91	-51.1	-60.6	3.8	8.43e-01	0	38	104	0	72	10900
2026-01-11 15:07:15.09	190.70	6.98	-51.2	-61.0	3.8	8.46e-01	0	38	104	0	72	11311
2026-01-11 15:07:16.08	190.76	7.05	-51.2	-60.7	3.9	8.45e-01	0	38	104	0	72	10977
2026-01-11 15:07:17.08	190.82	7.12	-51.1	-60.7	3.8	8.45e-01	0	38	104	0	72	10919
2026-01-11 15:07:18.07	190.88	7.20	-51.2	-61.0	3.8	8.46e-01	0	38	104	0	72	11307
2026-01-11 15:07:19.06	190.93	7.27	-51.2	-61.6	3.8	8.46e-01	0	38	104	0	72	12143
2026-01-11 15:07:20.06	190.99	7.34	-51.4	-62.5	3.8	8.47e-01	0	38	104	0	72	13448
2026-01-11 15:07:21.05	191.05	7.41	-51.4	-62.8	3.8	8.47e-01	0	38	104	0	72	14038
2026-01-11 15:07:22.04	191.11	7.49	-51.3	-61.9	3.8	8.47e-01	0	38	104	0	72	12578
2026-01-11 15:07:23.04	191.17	7.56	-50.9	-59.2	4.2	8.43e-01	0	38	0	0	72	9241
2026-01-11 15:07:24.03	191.24	7.63	-50.3	-56.5	5.6	6.88e-01	0	38	0	0	71	7162
2026-01-11 15:07:25.02	191.30	7.71	-49.2	-53.6	8.1	1.11e-01	0	39	0	6291456	69	5762
2026-01-11 15:07:26.02	191.36	7.78	-48.0	-51.5	10.1	1.30e-02	0	39	0	13631488	66	5349
2026-01-11 15:07:27.01	191.42	7.85	-47.0	-49.8	11.8	6.26e-04	0	38	0	20971520	64	4983
2026-01-11 15:07:28.00	191.48	7.93	-46.0	-48.4	13.3	1.71e-05	0	39	0	28311552	62	4729
2026-01-11 15:07:29.00	191.54	8.00	-45.0	-47.1	14.6	0.00e+00	0	39	0	35651584	60	4576
2026-01-11 15:07:29.99	191.61	8.08	-44.4	-46.4	15.2	0.00e+00	0	39	0	42991616	59	4490
2026-01-11 15:07:30.98	191.67	8.15	-43.8	-45.7	15.9	0.00e+00	0	39	0	49283072	58	4371
2026-01-11 15:07:31.97	191.73	8.23	-43.4	-45.2	16.3	0.00e+00	0	39	0	56623104	57	4364
2026-01-11 15:07:32.97	191.79	8.30	-43.3	-45.1	16.4	0.00e+00	0	39	0	63963136	57	4332
2026-01-11 15:07:33.96	191.86	8.38	-43.5	-45.3	16.2	0.00e+00	0	39	0	71303168	57	4427
2026-01-11 15:07:34.95	191.92	8.45	-43.4	-45.2	16.3	0.00e+00	0	39	0	78643200	57	4350
2026-01-11 15:07:35.95	191.99	8.53	-43.9	-45.8	15.7	0.00e+00	0	39	0	85983232	57	4682
2026-01-11 15:07:36.94	192.05	8.60	-44.2	-46.1	15.5	0.00e+00	0	39	0	92274688	57	4851
2026-01-11 15:07:37.94	192.12	8.68	-44.8	-46.9	14.7	0.00e+00	0	39	0	99614720	59	4708
2026-01-11 15:07:38.93	192.18	8.76	-45.4	-47.7	14.0	2.20e-06	0	39	0	106954752	60	4925
2026-01-11 15:07:39.92	192.25	8.83	-46.1	-48.6	13.2	9.10e-06	0	39	0	114294784	61	5114
2026-01-11 15:07:40.91	192.31	8.91	-46.8	-49.6	12.2	2.05e-04	0	39	0	121634816	63	5105
2026-01-11 15:07:41.91	192.38	8.99	-47.5	-50.7	10.9	8.74e-04	0	39	0	128974848	64	5506
2026-01-11 15:07:42.90	192.45	9.06	-48.0	-51.6	10.1	4.69e-03	0	39	0	135266304	65	5726
2026-01-11 15:07:43.89	192.51	9.14	-47.8	-51.2	10.5	4.04e-03	0	39	0	142606336	65	5507
2026-01-11 15:07:44.89	192.58	9.22	-48.5	-52.3	9.3	1.05e-02	0	39	0	149946368	66	5903
2026-01-11 15:07:45.88	192.65	9.30	-49.9	-55.2	6.8	5.07e-02	0	39	0	157286400	69	6940
2026-01-11 15:07:46.88	192.72	9.37	-45.6	-47.9	14.0	9.60e-04	0	39	0	164626432	62	4456
2026-01-11 15:07:47.87	192.78	9.45	-49.7	-54.8	7.0	7.71e-02	0	39	0	170917888	68	7000
2026-01-11 15:07:48.87	192.85	9.53	-46.1	-48.6	13.2	3.06e-03	0	39	0	178257920	63	4570
2026-01-11 15:07:49.86	192.92	9.61	-45.1	-47.3	14.6	1.10e-06	0	39	0	185597952	60	4664
2026-01-11 15:07:50.86	192.99	9.69	-45.0	-47.0	14.8	0.00e+00	0	39	0	192937984	60	4544
2026-01-11 15:07:51.85	193.06	9.77	-44.7	-46.8	15.1	0.00e+00	0	39	0	200278016	60	4414
2026-01-11 15:07:52.85	193.13	9.85	-44.3	-46.2	15.6	0.00e+00	0	39	0	207618048	59	4341
2026-01-11 15:07:53.84	193.20	9.93	-44.3	-46.2	15.5	0.00e+00	0	39	0	214958080	59	4352
2026-01-11 15:07:54.84	193.27	10.01	-44.1	-46.0	15.7	0.00e+00	0	39	0	222298112	58	4528
2026-01-11 15:07:55.83	193.34	10.09	-44.2	-46.1	15.6	0.00e+00	0	39	0	229638144	58	4554
2026-01-11 15:07:56.83	193.42	10.17	-44.0	-45.9	15.8	0.00e+00	0	39	0	235929600	58	4471
2026-01-11 15:07:57.82	193.49	10.25	-44.0	-45.9	15.8	0.00e+00	0	39	0	243269632	58	4451
2026-01-11 15:07:58.82	193.56	10.33	-44.0	-45.9	15.8	0.00e+00	0	39	0	250609664	58	4444
2026-01-11 15:07:59.81	193.63	10.41	-43.8	-45.7	16.0	0.00e+00	0	39	0	257949696	58	4355
2026-01-11 15:08:00.81	193.71	10.49	-43.4	-45.2	16.5	0.00e+00	0	39	0	265289728	57	4360
2026-01-11 15:08:01.80	193.78	10.57	-43.2	-44.9	16.7	0.00e+00	0	39	0	272629760	56	4482
2026-01-11 15:08:02.80	193.85	10.65	-43.0	-44.8	16.9	0.00e+00	0	39	0	278921216	56	4406
2026-01-11 15:08:03.79	193.93	10.73	-42.8	-44.5	17.2	0.00e+00	0	39	0	286261248	56	4255
2026-01-11 15:08:04.79	194.00	10.82	-42.8	-44.5	17.2	0.00e+00	0	39	0	293601280	56	4250
2026-01-11 15:08:05.78	194.08	10.90	-42.9	-44.5	17.1	0.00e+00	0	40	0	300941312	56	4290
2026-01-11 15:08:06.78	194.15	10.98	-43.0	-44.8	16.9	0.00e+00	0	39	0	308281344	56	4395
2026-01-11 15:08:07.77	194.23	11.06	-42.3	-44.0	17.5	0.00e+00	0	39	0	314572800	55	4251
2026-01-11 15:08:08.77	194.31	11.15	-42.5	-44.1	17.4	0.00e+00	0	39	0	321912832	55	4319
2026-01-11 15:08:09.76	194.38	11.23	-42.3	-43.9	17.6	0.00e+00	0	39	0	329252864	55	4226
2026-01-11 15:08:10.75	194.46	11.31	-42.0	-43.6	17.9	0.00e+00	0	39	0	336592896	54	4320
2026-01-11 15:08:11.75	194.54	11.40	-42.1	-43.7	17.8	0.00e+00	0	39	0	343932928	54	4367
2026-01-11 15:08:12.74	194.62	11.48	-42.0	-43.6	17.8	0.00e+00	0	39	0	351272960	54	4325
2026-01-11 15:08:13.74	194.69	11.57	-42.1	-43.7	17.8	0.00e+00	0	39	0	358612992	54	4366
2026-01-11 15:08:14.73	194.77	11.65	-42.2	-43.8	17.7	0.00e+00	0	39	0	365953024	54	4425
2026-01-11 15:08:15.73	194.85	11.73	-42.3	-43.9	17.7	0.00e+00	0	39	0	372244480	54	4465
2026-01-11 15:08:16.72	194.93	11.82	-42.1	-43.7	17.8	0.00e+00	0	39	0	379584512	54	4374
2026-01-11 15:08:17.72	195.01	11.90	-42.0	-43.6	17.9	0.00e+00	0	39	0	386924544	54	4300
2026-01-11 15:08:18.71	195.09	11.99	-42.2	-43.8	17.8	0.00e+00	0	39	0	394264576	54	4396
2026-01-11 15:08:19.70	195.17	12.08	-42.1	-43.7	17.9	0.00e+00	0	39	0	401604608	54	4342
2026-01-11 15:08:20.70	195.26	12.16	-41.9	-43.5	18.0	0.00e+00	0	39	0	408944640	54	4271
2026-01-11 15:08:21.69	195.34	12.25	-41.9	-43.5	18.0	0.00e+00	0	40	0	416284672	54	4265
2026-01-11 15:08:22.69	195.42	12.33	-42.0	-43.6	17.9	0.00e+00	0	39	0	422576128	54	4323
2026-01-11 15:08:23.69	195.50	12.42	-41.9	-43.4	18.1	0.00e+00	0	40	0	429916160	54	4224
2026-01-11 15:08:24.68	195.59	12.51	-41.8	-43.4	18.1	0.00e+00	0	39	0	437256192	54	4209
2026-01-11 15:08:25.68	195.67	12.60	-42.0	-43.5	17.9	0.00e+00	0	39	0	444596224	54	4288
2026-01-11 15:08:26.67	195.76	12.68	-42.0	-43.6	18.0	0.00e+00	0	39	0	451936256	54	4298
2026-01-11 15:08:27.67	195.84	12.77	-41.7	-43.3	18.2	0.00e+00	0	40	0	458227712	54	4146
2026-01-11 15:08:28.66	195.93	12.86	-42.0	-43.6	17.9	0.00e+00	0	40	0	465567744	54	4335
2026-01-11 15:08:29.65	196.01	12.95	-41.9	-43.6	18.0	0.00e+00	0	40	0	472907776	54	4292
2026-01-11 15:08:30.65	196.10	13.04	-41.8	-43.4	18.1	0.00e+00	0	39	0	480247808	54	4226
2026-01-11 15:08:31.64	196.18	13.12	-41.7	-43.3	18.3	0.00e+00	0	39	0	487587840	54	4147
2026-01-11 15:08:32.64	196.27	13.21	-41.9	-43.5	18.0	0.00e+00	0	40	0	494927872	54	4284
2026-01-11 15:08:33.63	196.36	13.30	-41.9	-43.5	18.0	0.00e+00	0	39	0	501219328	54	4271
2026-01-11 15:08:34.62	196.45	13.39	-41.9	-43.5	18.0	0.00e+00	0	39	0	508559360	54	4264
2026-01-11 15:08:35.62	196.54	13.48	-41.9	-43.5	18.0	0.00e+00	0	40	0	515899392	54	4278
2026-01-11 15:08:36.61	196.63	13.57	-41.9	-43.5	18.0	0.00e+00	0	40	0	523239424	54	4287
2026-01-11 15:08:37.60	196.72	13.66	-42.0	-43.6	17.9	0.00e+00	0	40	0	530579456	54	4311
2026-01-11 15:08:38.60	196.81	13.75	-42.0	-43.6	17.9	0.00e+00	0	40	0	537919488	54	4332
2026-01-11 15:08:39.59	196.90	13.84	-41.9	-43.5	18.0	0.00e+00	0	39	0	545259520	54	4261
2026-01-11 15:08:40.59	196.99	13.93	-41.9	-43.5	18.0	0.00e+00	0	40	0	552599552	54	4286
2026-01-11 15:08:41.58	197.08	14.03	-41.9	-43.5	18.0	0.00e+00	0	40	0	559939584	54	4262
2026-01-11 15:08:42.58	197.17	14.12	-41.8	-43.4	18.1	0.00e+00	0	40	0	566231040	54	4222
2026-01-11 15:08:43.58	197.27	14.21	-42.0	-43.6	17.9	0.00e+00	0	40	0	573571072	54	4329
2026-01-11 15:08:44.57	197.36	14.30	-41.6	-43.1	18.4	0.00e+00	0	40	0	580911104	54	4087
2026-01-11 15:08:45.57	197.46	14.40	-41.6	-43.2	18.3	0.00e+00	0	40	0	588251136	54	4108
2026-01-11 15:08:46.56	197.55	14.49	-41.6	-43.1	18.4	0.00e+00	0	40	0	595591168	53	4324
2026-01-11 15:08:47.56	197.65	14.58	-41.5	-43.0	18.4	0.00e+00	0	40	0	601882624	53	4245
2026-01-11 15:08:48.55	197.74	14.67	-41.5	-43.0	18.5	0.00e+00	0	40	0	609222656	53	4247
2026-01-11 15:08:49.54	197.84	14.77	-41.4	-42.9	18.6	0.00e+00	0	40	0	616562688	53	4206
2026-01-11 15:08:50.54	197.94	14.86	-41.4	-42.9	18.6	0.00e+00	0	40	0	623902720	53	4195
2026-01-11 15:08:51.53	198.03	14.96	-41.4	-42.8	18.6	0.00e+00	0	40	0	631242752	53	4193
2026-01-11 15:08:52.53	198.13	15.05	-41.4	-42.9	18.6	0.00e+00	0	40	0	638582784	53	4195
2026-01-11 15:08:53.52	198.23	15.15	-41.3	-42.7	18.7	0.00e+00	0	40	0	644874240	53	4122
2026-01-11 15:08:54.52	198.33	15.24	-41.4	-42.8	18.6	0.00e+00	0	40	0	652214272	53	4182
2026-01-11 15:08:55.52	198.43	15.34	-41.3	-42.7	18.7	0.00e+00	0	40	0	659554304	53	4136
2026-01-11 15:08:56.51	198.53	15.43	-41.3	-42.8	18.6	0.00e+00	0	40	0	666894336	53	4155
2026-01-11 15:08:57.51	198.63	15.53	-41.2	-42.6	18.8	0.00e+00	0	40	0	674234368	53	4098
2026-01-11 15:08:58.50	198.74	15.63	-41.1	-42.5	18.9	0.00e+00	0	40	0	681574400	53	4032
2026-01-11 15:08:59.50	198.84	15.72	-41.2	-42.6	18.8	0.00e+00	0	40	0	688914432	52	4297
2026-01-11 15:09:00.49	198.94	15.82	-41.2	-42.6	18.8	0.00e+00	0	40	0	696254464	52	4337
2026-01-11 15:09:01.49	199.05	15.92	-41.1	-42.5	18.9	0.00e+00	0	40	0	703594496	52	4259
2026-01-11 15:09:02.48	199.15	16.01	-41.1	-42.4	19.0	0.00e+00	0	40	0	709885952	52	4232
2026-01-11 15:09:03.48	199.26	16.11	-41.1	-42.5	18.9	0.00e+00	0	40	0	717225984	52	4254
2026-01-11 15:09:04.47	199.36	16.21	-41.2	-42.6	18.9	0.00e+00	0	40	0	724566016	52	4324
2026-01-11 15:09:05.46	199.47	16.31	-41.1	-42.5	19.0	0.00e+00	0	40	0	731906048	52	4268
2026-01-11 15:09:06.46	199.58	16.41	-41.1	-42.4	19.0	0.00e+00	0	40	0	739246080	52	4240
2026-01-11 15:09:07.45	199.68	16.51	-41.1	-42.5	18.9	0.00e+00	0	40	0	745537536	52	4273
2026-01-11 15:09:08.45	199.79	16.61	-41.1	-42.5	19.0	0.00e+00	0	40	0	752877568	52	4269
2026-01-11 15:09:09.44	199.90	16.71	-41.1	-42.5	18.9	0.00e+00	0	40	0	760217600	52	4265
2026-01-11 15:09:10.44	200.01	16.81	-41.0	-42.4	19.0	0.00e+00	0	40	0	767557632	52	4235
2026-01-11 15:09:11.43	200.12	16.91	-41.1	-42.5	19.0	0.00e+00	0	40	0	774897664	52	4262
2026-01-11 15:09:12.42	200.23	17.01	-41.0	-42.4	19.0	0.00e+00	0	40	0	782237696	52	4227
2026-01-11 15:09:13.42	200.35	17.11	-40.9	-42.3	19.1	0.00e+00	0	40	0	788529152	52	4172
2026-01-11 15:09:14.41	200.46	17.21	-41.0	-42.4	19.1	0.00e+00	0	40	0	795869184	52	4208
2026-01-11 15:09:15.41	200.57	17.31	-40.9	-42.3	19.1	0.00e+00	0	40	0	803209216	52	4164
2026-01-11 15:09:16.40	200.69	17.41	-40.9	-42.3	19.2	0.00e+00	0	40	0	810549248	52	4154
2026-01-11 15:09:17.39	200.80	17.52	-40.7	-42.1	19.3	0.00e+00	0	40	0	817889280	52	4079
2026-01-11 15:09:18.39	200.92	17.62	-40.7	-42.1	19.3	0.00e+00	0	40	0	825229312	52	4059
2026-01-11 15:09:19.39	201.04	17.72	-40.7	-42.0	19.4	0.00e+00	0	40	0	832569344	52	4042
2026-01-11 15:09:20.38	201.15	17.82	-40.8	-42.2	19.3	0.00e+00	0	40	0	839909376	51	4344
2026-01-11 15:09:21.37	201.27	17.93	-40.7	-42.0	19.4	0.00e+00	0	40	0	846200832	51	4282
2026-01-11 15:09:22.37	201.39	18.03	-40.7	-42.0	19.5	0.00e+00	0	40	0	853540864	51	4265
2026-01-11 15:09:23.36	201.51	18.14	-40.6	-41.9	19.5	0.00e+00	0	40	0	860880896	51	4227
2026-01-11 15:09:24.36	201.63	18.24	-40.6	-41.9	19.6	0.00e+00	0	40	0	868220928	51	4227
2026-01-11 15:09:25.35	201.75	18.35	-40.4	-41.7	19.7	0.00e+00	0	40	0	875560960	51	4115
2026-01-11 15:09:26.35	201.88	18.45	-40.4	-41.7	19.7	0.00e+00	0	40	0	882900992	51	4143
2026-01-11 15:09:27.34	202.00	18.56	-40.4	-41.7	19.8	0.00e+00	0	40	0	889192448	51	4119
2026-01-11 15:09:28.34	202.12	18.66	-40.4	-41.7	19.7	0.00e+00	0	40	0	896532480	51	4136
2026-01-11 15:09:29.33	202.25	18.77	-40.5	-41.9	19.6	0.00e+00	0	40	0	903872512	51	4202
2026-01-11 15:09:30.33	202.37	18.88	-40.5	-41.9	19.6	0.00e+00	0	40	0	911212544	51	4207
2026-01-11 15:09:31.32	202.50	18.98	-40.6	-41.9	19.6	0.00e+00	0	40	0	918552576	51	4218
2026-01-11 15:09:32.32	202.63	19.09	-40.6	-41.9	19.6	0.00e+00	0	40	0	925892608	51	4216
2026-01-11 15:09:33.32	202.76	19.20	-40.6	-42.0	19.5	0.00e+00	0	40	0	932184064	51	4262
2026-01-11 15:09:34.31	202.89	19.30	-40.5	-41.8	19.7	0.00e+00	0	40	0	939524096	51	4180
2026-01-11 15:09:35.30	203.02	19.41	-40.5	-41.8	19.7	0.00e+00	0	40	0	946864128	51	4192
2026-01-11 15:09:36.30	203.15	19.52	-40.5	-41.9	19.7	0.00e+00	0	40	0	954204160	51	4194
2026-01-11 15:09:37.29	203.28	19.63	-40.4	-41.8	19.7	0.00e+00	0	40	0	961544192	51	4159
2026-01-11 15:09:38.29	203.41	19.74	-40.4	-41.8	19.7	0.00e+00	0	40	0	968884224	51	4165
2026-01-11 15:09:39.28	203.54	19.85	-40.4	-41.8	19.7	0.00e+00	0	40	0	976224256	51	4159
2026-01-11 15:09:40.28	203.68	19.96	-40.3	-41.6	19.9	0.00e+00	0	40	0	982515712	51	4084
2026-01-11 15:09:41.27	203.82	20.07	-40.6	-41.9	19.6	0.00e+00	0	40	0	989855744	51	4234
2026-01-11 15:09:42.27	203.95	20.18	-40.3	-41.6	19.9	0.00e+00	0	40	0	997195776	51	4087
2026-01-11 15:09:43.26	204.09	20.29	-40.2	-41.6	19.9	0.00e+00	0	40	0	1004535808	51	4061
2026-01-11 15:09:44.26	204.23	20.40	-40.3	-41.6	19.9	0.00e+00	0	40	0	1011875840	51	4072
2026-01-11 15:09:45.25	204.37	20.51	-40.4	-41.7	19.8	0.00e+00	0	40	0	1019215872	51	4127
2026-01-11 15:09:46.25	204.51	20.62	-40.3	-41.6	19.9	0.00e+00	0	40	0	1026555904	51	4065
2026-01-11 15:09:47.24	204.65	20.74	-40.2	-41.5	20.0	0.00e+00	0	40	0	1032847360	51	4034
2026-01-11 15:09:48.24	204.79	20.85	-40.2	-41.5	20.0	0.00e+00	0	40	0	1040187392	51	4024
2026-01-11 15:09:49.23	204.94	20.96	-40.0	-41.3	20.2	0.00e+00	0	40	0	1047527424	50	4158
2026-01-11 15:09:50.22	205.08	21.07	-40.1	-41.4	20.1	0.00e+00	0	40	0	1054867456	50	4217
2026-01-11 15:09:51.22	205.23	21.19	-39.8	-41.0	20.4	0.00e+00	0	40	0	1062207488	50	4043
2026-01-11 15:09:52.21	205.37	21.30	-39.8	-41.1	20.4	0.00e+00	0	40	0	1069547520	50	4057
2026-01-11 15:09:53.21	205.52	21.42	-39.8	-41.1	20.3	0.00e+00	0	40	0	1075838976	50	4063
2026-01-11 15:09:54.20	205.67	21.53	-40.0	-41.2	20.2	0.00e+00	0	40	0	1083179008	50	4143
2026-01-11 15:09:55.19	205.82	21.64	-39.9	-41.2	20.3	0.00e+00	0	40	0	1090519040	50	4116
2026-01-11 15:09:56.19	205.97	21.76	-39.9	-41.2	20.3	0.00e+00	0	40	0	1097859072	50	4101
2026-01-11 15:09:57.18	206.12	21.87	-39.8	-41.1	20.3	0.00e+00	0	40	0	1105199104	50	4072
2026-01-11 15:09:58.18	206.27	21.99	-39.9	-41.2	20.2	0.00e+00	0	40	0	1111490560	50	4117
2026-01-11 15:09:59.17	206.43	22.11	-40.0	-41.3	20.2	0.00e+00	0	40	0	1118830592	50	4165
2026-01-11 15:10:00.17	206.58	22.22	-40.1	-41.4	20.1	0.00e+00	0	40	0	1126170624	50	4230
2026-01-11 15:10:01.16	206.74	22.34	-40.0	-41.3	20.1	0.00e+00	0	40	0	1133510656	50	4185
2026-01-11 15:10:02.16	206.90	22.46	-39.9	-41.2	20.3	0.00e+00	0	40	0	1140850688	50	4108
2026-01-11 15:10:03.15	207.05	22.57	-39.9	-41.2	20.2	0.00e+00	0	40	0	1148190720	50	4107
2026-01-11 15:10:04.14	207.21	22.69	-39.8	-41.1	20.3	0.00e+00	0	40	0	1155530752	50	4094
2026-01-11 15:10:05.14	207.38	22.81	-39.9	-41.2	20.2	0.00e+00	0	40	0	1162870784	50	4112
2026-01-11 15:10:06.13	207.54	22.93	-39.8	-41.1	20.3	0.00e+00	0	40	0	1170210816	50	4091
2026-01-11 15:10:07.13	207.70	23.05	-39.9	-41.2	20.2	0.00e+00	0	40	0	1176502272	50	4124
2026-01-11 15:10:08.13	207.87	23.17	-40.0	-41.3	20.2	0.00e+00	0	40	0	1183842304	50	4173
2026-01-11 15:10:09.12	208.03	23.28	-40.0	-41.3	20.2	0.00e+00	0	40	0	1191182336	50	4176
2026-01-11 15:10:10.12	208.20	23.40	-39.9	-41.2	20.3	0.00e+00	0	40	0	1198522368	50	4108
2026-01-11 15:10:11.11	208.37	23.52	-39.7	-41.0	20.4	0.00e+00	0	40	0	1205862400	49	4249
2026-01-11 15:10:12.11	208.54	23.64	-39.7	-41.0	20.4	0.00e+00	0	40	0	1213202432	49	4284
2026-01-11 15:10:13.10	208.71	23.76	-39.7	-41.0	20.4	0.00e+00	0	40	0	1219493888	49	4271
2026-01-11 15:10:14.10	208.88	23.89	-39.7	-41.0	20.4	0.00e+00	0	40	0	1226833920	49	4250
2026-01-11 15:10:15.09	209.05	24.01	-39.7	-41.0	20.4	0.00e+00	0	40	0	1234173952	49	4268
2026-01-11 15:10:16.09	209.23	24.13	-39.7	-41.0	20.4	0.00e+00	0	40	0	1241513984	49	4255
2026-01-11 15:10:17.08	209.41	24.25	-39.7	-41.0	20.3	0.00e+00	0	40	0	1248854016	49	4291
2026-01-11 15:10:18.08	209.58	24.37	-39.7	-41.0	20.4	0.00e+00	0	40	0	1256194048	49	4259
2026-01-11 15:10:19.07	209.76	24.49	-39.7	-41.0	20.3	0.00e+00	0	40	0	1262485504	49	4279
2026-01-11 15:10:20.07	209.94	24.62	-39.7	-41.1	20.3	0.00e+00	0	40	0	1269825536	49	4304
2026-01-11 15:10:21.06	210.12	24.74	-39.6	-41.0	20.4	0.00e+00	0	40	0	1277165568	49	4243
2026-01-11 15:10:22.06	210.31	24.86	-39.7	-41.0	20.4	0.00e+00	0	40	0	1284505600	49	4259
2026-01-11 15:10:23.05	210.49	24.99	-39.7	-41.0	20.4	0.00e+00	0	40	0	1291845632	49	4289
2026-01-11 15:10:24.04	210.68	25.11	-39.6	-40.9	20.4	0.00e+00	0	40	0	1299185664	49	4229
2026-01-11 15:10:25.04	210.86	25.23	-39.5	-40.8	20.6	0.00e+00	0	40	0	1306525696	49	4166
2026-01-11 15:10:26.03	211.05	25.36	-39.5	-40.7	20.6	0.00e+00	0	40	0	1312817152	49	4139
2026-01-11 15:10:27.03	211.24	25.48	-39.5	-40.7	20.6	0.00e+00	0	40	0	1320157184	49	4138
2026-01-11 15:10:28.02	211.43	25.61	-39.5	-40.7	20.6	0.00e+00	0	40	0	1327497216	49	4144
2026-01-11 15:10:29.02	211.63	25.73	-39.4	-40.7	20.7	0.00e+00	0	40	0	1334837248	49	4112
2026-01-11 15:10:30.01	211.82	25.86	-39.5	-40.7	20.6	0.00e+00	0	40	0	1342177280	49	4145
2026-01-11 15:10:31.01	212.02	25.98	-39.5	-40.8	20.5	0.00e+00	0	40	0	1349517312	49	4174
2026-01-11 15:10:32.00	212.21	26.11	-39.4	-40.7	20.6	0.00e+00	0	40	0	1356857344	49	4140
2026-01-11 15:10:32.99	212.41	26.23	-39.5	-40.8	20.5	0.00e+00	0	40	0	1363148800	49	4180
2026-01-11 15:10:33.99	212.61	26.36	-39.6	-41.0	20.4	0.00e+00	0	40	0	1370488832	49	4245
2026-01-11 15:10:34.98	212.82	26.48	-39.5	-40.8	20.5	0.00e+00	0	40	0	1377828864	49	4164
2026-01-11 15:10:35.98	213.02	26.61	-39.4	-40.7	20.6	0.00e+00	0	41	0	1385168896	49	4134
2026-01-11 15:10:36.97	213.22	26.74	-39.5	-40.8	20.5	0.00e+00	0	40	0	1392508928	49	4166
2026-01-11 15:10:37.97	213.43	26.86	-39.4	-40.7	20.6	0.00e+00	0	40	0	1398800384	49	4115
2026-01-11 15:10:38.96	213.64	26.99	-39.3	-40.6	20.6	0.00e+00	0	40	0	1406140416	49	4084
2026-01-11 15:10:39.95	213.85	27.12	-39.4	-40.7	20.6	0.00e+00	0	40	0	1413480448	49	4126
2026-01-11 15:10:40.95	214.06	27.25	-39.3	-40.6	20.6	0.00e+00	0	40	0	1420820480	49	4081
2026-01-11 15:10:41.94	214.28	27.37	-39.3	-40.6	20.6	0.00e+00	0	40	0	1428160512	49	4082
2026-01-11 15:10:42.94	214.49	27.50	-39.4	-40.7	20.6	0.00e+00	0	40	0	1435500544	49	4100
2026-01-11 15:10:43.94	214.71	27.63	-39.3	-40.6	20.7	0.00e+00	0	40	0	1442840576	49	4059
2026-01-11 15:10:44.93	214.93	27.76	-39.3	-40.6	20.7	0.00e+00	0	40	0	1450180608	49	4083
2026-01-11 15:10:45.93	215.15	27.89	-39.3	-40.6	20.7	0.00e+00	0	40	0	1456472064	49	4086
2026-01-11 15:10:46.92	215.37	28.01	-39.3	-40.6	20.8	0.00e+00	0	40	0	1463812096	49	4058
2026-01-11 15:10:47.92	215.59	28.14	-39.3	-40.5	20.8	0.00e+00	0	40	0	1471152128	49	4049
2026-01-11 15:10:48.91	215.82	28.27	-39.3	-40.5	20.8	0.00e+00	0	40	0	1478492160	49	4031
2026-01-11 15:10:49.91	216.05	28.40	-39.2	-40.4	20.9	0.00e+00	0	40	0	1485832192	49	3984
2026-01-11 15:10:50.90	216.28	28.53	-39.2	-40.5	20.9	0.00e+00	0	40	0	1493172224	49	4008
2026-01-11 15:10:51.89	216.51	28.66	-39.3	-40.6	20.8	0.00e+00	0	40	0	1500512256	49	4072
2026-01-11 15:10:52.89	216.74	28.79	-39.4	-40.7	20.7	0.00e+00	0	40	0	1506803712	49	4115
2026-01-11 15:10:53.88	216.97	28.92	-39.4	-40.7	20.8	0.00e+00	0	40	0	1514143744	49	4101
2026-01-11 15:10:54.88	217.21	29.05	-39.4	-40.6	20.8	0.00e+00	0	40	0	1521483776	49	4084
2026-01-11 15:10:55.87	217.45	29.18	-39.4	-40.6	20.8	0.00e+00	0	40	0	1528823808	49	4096
2026-01-11 15:10:56.87	217.69	29.31	-39.5	-40.8	20.7	0.00e+00	0	40	0	1536163840	49	4167
2026-01-11 15:10:57.86	217.93	29.43	-39.5	-40.8	20.6	0.00e+00	0	40	0	1542455296	49	4179
2026-01-11 15:10:58.86	218.18	29.57	-39.6	-41.0	20.5	0.00e+00	0	40	0	1549795328	49	4243
2026-01-11 15:10:59.85	218.42	29.69	-39.6	-40.9	20.5	0.00e+00	0	40	0	1557135360	49	4230
2026-01-11 15:11:00.85	218.67	29.82	-39.6	-41.0	20.5	0.00e+00	0	40	0	1564475392	49	4245
2026-01-11 15:11:01.84	218.92	29.95	-39.5	-40.8	20.6	0.00e+00	0	40	0	1571815424	49	4185
2026-01-11 15:11:02.83	219.17	30.08	-39.4	-40.8	20.6	0.00e+00	0	40	0	1579155456	49	4157
2026-01-11 15:11:03.83	219.42	30.21	-39.4	-40.8	20.6	0.00e+00	0	40	0	1585446912	49	4154
2026-01-11 15:11:04.82	219.68	30.34	-39.5	-40.9	20.5	0.00e+00	0	40	0	1592786944	49	4218
2026-01-11 15:11:05.82	219.94	30.47	-39.5	-40.9	20.5	0.00e+00	0	40	0	1600126976	49	4215
2026-01-11 15:11:06.81	220.20	30.60	-39.4	-40.8	20.5	0.00e+00	0	40	0	1607467008	49	4167
2026-01-11 15:11:07.81	220.46	30.73	-39.4	-40.7	20.6	0.00e+00	0	40	0	1614807040	49	4136
2026-01-11 15:11:08.80	220.72	30.86	-39.3	-40.7	20.7	0.00e+00	0	40	0	1622147072	49	4116
2026-01-11 15:11:09.80	220.99	30.99	-39.4	-40.8	20.5	0.00e+00	0	40	0	1629487104	49	4164
2026-01-11 15:11:10.79	221.26	31.12	-39.4	-40.7	20.6	0.00e+00	0	40	0	1636827136	49	4140
2026-01-11 15:11:11.78	221.53	31.25	-39.5	-40.9	20.5	0.00e+00	0	40	0	1644167168	49	4202
2026-01-11 15:11:12.78	221.80	31.38	-39.6	-40.9	20.4	0.00e+00	0	40	0	1650458624	49	4237
2026-01-11 15:11:13.77	222.07	31.51	-39.5	-40.9	20.4	0.00e+00	0	40	0	1657798656	49	4209
2026-01-11 15:11:14.77	222.35	31.63	-39.5	-40.8	20.5	0.00e+00	0	40	0	1665138688	49	4177
2026-01-11 15:11:15.76	222.63	31.76	-39.6	-41.0	20.4	0.00e+00	0	40	0	1672478720	49	4254
2026-01-11 15:11:16.75	222.91	31.89	-39.3	-40.6	20.7	0.00e+00	0	40	0	1679818752	49	4056
2026-01-11 15:11:17.75	223.19	32.02	-39.2	-40.5	20.9	0.00e+00	0	40	0	1686110208	49	4010
2026-01-11 15:11:18.74	223.48	32.15	-39.2	-40.5	20.8	0.00e+00	0	40	0	1693450240	49	4011
2026-01-11 15:11:19.74	223.77	32.27	-39.3	-40.6	20.7	0.00e+00	0	40	0	1700790272	49	4053
2026-01-11 15:11:20.73	224.06	32.40	-39.2	-40.4	20.9	0.00e+00	0	40	0	1708130304	49	3992
2026-01-11 15:11:21.73	224.35	32.53	-39.3	-40.5	20.8	0.00e+00	0	41	0	1715470336	49	4042
2026-01-11 15:11:22.72	224.64	32.66	-39.3	-40.5	20.8	0.00e+00	0	40	0	1722810368	49	4050
2026-01-11 15:11:23.72	224.94	32.78	-39.2	-40.5	20.9	0.00e+00	0	40	0	1729101824	49	4021
2026-01-11 15:11:24.72	225.24	32.91	-39.3	-40.6	20.8	0.00e+00	0	40	0	1736441856	49	4069
2026-01-11 15:11:25.71	225.54	33.04	-39.3	-40.5	20.9	0.00e+00	0	40	0	1743781888	49	4035
2026-01-11 15:11:26.71	225.85	33.16	-39.3	-40.6	20.8	0.00e+00	0	40	0	1751121920	49	4059
2026-01-11 15:11:27.70	226.15	33.29	-39.3	-40.5	20.9	0.00e+00	0	41	0	1758461952	49	4047
2026-01-11 15:11:28.70	226.46	33.41	-39.4	-40.8	20.7	0.00e+00	0	40	0	1765801984	49	4147
2026-01-11 15:11:29.69	226.77	33.54	-39.6	-40.9	20.5	0.00e+00	0	40	0	1773142016	49	4239
2026-01-11 15:11:30.69	227.08	33.66	-39.5	-40.9	20.5	0.00e+00	0	40	0	1780482048	49	4202
2026-01-11 15:11:31.68	227.40	33.78	-39.4	-40.8	20.6	0.00e+00	0	40	0	1786773504	49	4149
2026-01-11 15:11:32.68	227.72	33.91	-39.4	-40.7	20.6	0.00e+00	0	40	0	1794113536	49	4126
2026-01-11 15:11:33.67	228.04	34.03	-39.3	-40.6	20.7	0.00e+00	0	40	0	1801453568	49	4064
2026-01-11 15:11:34.66	228.36	34.15	-39.3	-40.6	20.7	0.00e+00	0	40	0	1808793600	49	4075
2026-01-11 15:11:35.66	228.68	34.27	-39.2	-40.5	20.8	0.00e+00	0	40	0	1816133632	49	4032
2026-01-11 15:11:36.65	229.01	34.39	-39.2	-40.5	20.8	0.00e+00	0	40	0	1823473664	48	4268
2026-01-11 15:11:37.65	229.34	34.52	-39.1	-40.4	20.9	0.00e+00	0	41	0	1829765120	48	4221
2026-01-11 15:11:38.64	229.67	34.63	-39.1	-40.4	20.9	0.00e+00	0	41	0	1837105152	48	4196
2026-01-11 15:11:39.64	230.01	34.75	-39.0	-40.3	21.0	0.00e+00	0	40	0	1844445184	48	4164
2026-01-11 15:11:40.63	230.34	34.87	-39.0	-40.3	21.0	0.00e+00	0	40	0	1851785216	48	4163
2026-01-11 15:11:41.63	230.68	34.99	-39.3	-40.5	20.8	0.00e+00	0	40	0	1859125248	48	4285
2026-01-11 15:11:42.62	231.02	35.11	-39.2	-40.5	20.9	0.00e+00	0	40	0	1866465280	48	4246
2026-01-11 15:11:43.62	231.37	35.23	-39.2	-40.5	20.9	0.00e+00	0	40	0	1872756736	48	4257
2026-01-11 15:11:44.61	231.71	35.34	-39.3	-40.5	20.9	0.00e+00	0	40	0	1880096768	48	4285
2026-01-11 15:11:45.60	232.06	35.46	-39.2	-40.5	20.9	0.00e+00	0	40	0	1887436800	48	4260
2026-01-11 15:11:46.60	232.41	35.57	-39.4	-40.6	20.8	0.00e+00	0	40	0	1894776832	48	4335
2026-01-11 15:11:47.60	232.77	35.69	-39.3	-40.6	20.8	0.00e+00	0	40	0	1902116864	48	4296
2026-01-11 15:11:48.59	233.12	35.80	-39.3	-40.6	20.8	0.00e+00	0	40	0	1909456896	48	4333
2026-01-11 15:11:49.59	233.48	35.91	-39.2	-40.5	20.8	0.00e+00	0	40	0	1916796928	48	4286
2026-01-11 15:11:50.58	233.84	36.02	-39.1	-40.3	21.1	0.00e+00	0	40	0	1924136960	48	4169
2026-01-11 15:11:51.58	234.21	36.13	-39.1	-40.4	21.0	0.00e+00	0	40	0	1930428416	48	4195
2026-01-11 15:11:52.57	234.57	36.24	-39.1	-40.4	21.0	0.00e+00	0	40	0	1937768448	48	4209
2026-01-11 15:11:53.57	234.94	36.35	-39.3	-40.6	20.8	0.00e+00	0	40	0	1945108480	48	4319
2026-01-11 15:11:54.56	235.31	36.46	-39.3	-40.7	20.7	0.00e+00	0	40	0	1952448512	48	4354
2026-01-11 15:11:55.55	235.68	36.56	-39.3	-40.6	20.8	0.00e+00	0	40	0	1959788544	48	4338
2026-01-11 15:11:56.55	236.06	36.67	-39.3	-40.6	20.8	0.00e+00	0	40	0	1967128576	48	4320
2026-01-11 15:11:57.54	236.43	36.77	-39.3	-40.6	20.8	0.00e+00	0	40	0	1973420032	48	4295
2026-01-11 15:11:58.54	236.82	36.88	-39.3	-40.5	20.9	0.00e+00	0	40	0	1980760064	48	4281
2026-01-11 15:11:59.53	237.20	36.98	-39.4	-40.6	20.8	0.00e+00	0	40	0	1988100096	48	4324
2026-01-11 15:12:00.52	237.58	37.08	-39.3	-40.6	20.8	0.00e+00	0	41	0	1995440128	48	4292
2026-01-11 15:12:01.52	237.97	37.18	-39.3	-40.5	20.9	0.00e+00	0	40	0	2002780160	48	4262
2026-01-11 15:12:02.51	238.36	37.28	-39.2	-40.4	20.9	0.00e+00	0	40	0	2010120192	48	4219
2026-01-11 15:12:03.51	238.75	37.38	-39.2	-40.4	21.0	0.00e+00	0	40	0	2016411648	48	4220
2026-01-11 15:12:04.50	239.14	37.48	-39.2	-40.4	21.0	0.00e+00	0	40	0	2023751680	48	4236
2026-01-11 15:12:05.50	239.54	37.57	-39.2	-40.4	21.1	0.00e+00	0	40	0	2031091712	48	4203
2026-01-11 15:12:06.49	239.94	37.67	-39.1	-40.3	21.1	0.00e+00	0	40	0	2038431744	48	4162
2026-01-11 15:12:07.49	240.34	37.76	-39.3	-40.5	21.0	0.00e+00	0	40	0	2045771776	48	4262
2026-01-11 15:12:08.48	240.74	37.85	-39.2	-40.5	21.0	0.00e+00	0	40	0	2053111808	48	4243
2026-01-11 15:12:09.48	241.15	37.94	-39.2	-40.5	20.9	0.00e+00	0	40	0	2059403264	48	4268
2026-01-11 15:12:10.47	241.56	38.03	-39.4	-40.6	20.8	0.00e+00	0	40	0	2066743296	48	4333
2026-01-11 15:12:11.47	241.97	38.12	-39.3	-40.6	20.9	0.00e+00	0	40	0	2074083328	48	4303
2026-01-11 15:12:12.46	242.38	38.20	-39.4	-40.7	20.7	0.00e+00	0	40	0	2081423360	48	4374
2026-01-11 15:12:13.46	242.79	38.29	-39.5	-40.9	20.6	0.00e+00	0	41	0	2088763392	48	4451
2026-01-11 15:12:14.45	243.21	38.37	-39.4	-40.7	20.7	0.00e+00	0	40	0	2096103424	48	4374
2026-01-11 15:12:15.45	243.63	38.46	-39.5	-40.8	20.6	0.00e+00	0	40	0	2103443456	48	4409
2026-01-11 15:12:16.44	244.05	38.54	-39.4	-40.7	20.6	0.00e+00	0	41	0	2110783488	48	4384
2026-01-11 15:12:17.43	244.47	38.61	-39.5	-40.9	20.5	0.00e+00	0	40	0	2117074944	48	4444
2026-01-11 15:12:18.43	244.90	38.69	-39.6	-40.9	20.5	0.00e+00	0	40	0	2124414976	48	4446
2026-01-11 15:12:19.42	245.32	38.77	-39.7	-41.0	20.4	0.00e+00	0	41	0	2131755008	48	4524
2026-01-11 15:12:20.42	245.75	38.84	-39.7	-41.0	20.5	0.00e+00	0	40	0	2139095040	48	4501
2026-01-11 15:12:21.41	246.18	38.91	-39.5	-40.7	20.7	0.00e+00	0	40	0	2146435072	48	4373
2026-01-11 15:12:22.41	246.61	38.98	-39.3	-40.6	20.9	0.00e+00	0	41	0	2153775104	48	4293
2026-01-11 15:12:23.40	247.04	39.05	-39.2	-40.4	21.1	0.00e+00	0	40	0	2160066560	48	4197
2026-01-11 15:12:24.40	247.48	39.12	-39.0	-40.2	21.2	0.00e+00	0	40	0	2167406592	48	4132
2026-01-11 15:12:25.39	247.92	39.19	-39.1	-40.3	21.1	0.00e+00	0	40	0	2174746624	48	4185
2026-01-11 15:12:26.39	248.36	39.25	-39.3	-40.6	20.9	0.00e+00	0	40	0	2182086656	48	4299
2026-01-11 15:12:27.38	248.80	39.31	-39.5	-40.8	20.7	0.00e+00	0	40	0	2189426688	48	4392
2026-01-11 15:12:28.38	249.24	39.37	-39.5	-40.7	20.7	0.00e+00	0	41	0	2196766720	48	4388
2026-01-11 15:12:29.37	249.69	39.43	-39.4	-40.6	20.9	0.00e+00	0	40	0	2203058176	48	4330
2026-01-11 15:12:30.37	250.13	39.49	-39.5	-40.4	21.4	0.00e+00	0	40	0	2210398208	48	4221
2026-01-11 15:12:31.36	250.58	39.55	-39.4	-40.2	21.6	0.00e+00	0	40	0	2217738240	48	4133
2026-01-11 15:12:32.36	251.03	39.60	-39.4	-40.3	21.6	0.00e+00	0	40	0	2225078272	48	4154
2026-01-11 15:12:33.35	251.48	39.65	-39.5	-40.4	21.5	0.00e+00	0	41	0	2232418304	48	4232
2026-01-11 15:12:34.35	251.93	39.70	-39.8	-40.7	21.2	0.00e+00	0	40	0	2239758336	48	4349
2026-01-11 15:12:35.34	252.38	39.75	-39.8	-40.7	21.3	0.00e+00	0	40	0	2247098368	49	4110
2026-01-11 15:12:36.34	252.84	39.79	-39.9	-40.8	21.1	0.00e+00	0	40	0	2254438400	49	4182
2026-01-11 15:12:37.33	253.29	39.84	-39.6	-40.5	21.4	0.00e+00	0	40	0	2260729856	49	4028
2026-01-11 15:12:38.33	253.75	39.88	-39.5	-40.4	21.5	0.00e+00	0	40	0	2268069888	49	3962
2026-01-11 15:12:39.32	254.21	39.92	-39.4	-40.3	21.6	0.00e+00	0	40	0	2275409920	49	3915
2026-01-11 15:12:40.32	254.67	39.96	-39.2	-40.0	21.8	0.00e+00	0	41	0	2282749952	49	3807
2026-01-11 15:12:41.31	255.12	39.99	-39.2	-40.0	21.8	0.00e+00	0	40	0	2290089984	49	3823
2026-01-11 15:12:42.31	255.59	40.03	-39.4	-40.2	21.6	0.00e+00	0	40	0	2297430016	49	3909
2026-01-11 15:12:43.30	256.05	40.06	-39.5	-40.3	21.5	0.00e+00	0	40	0	2303721472	49	3945
2026-01-11 15:12:44.30	256.51	40.09	-39.6	-40.4	21.4	0.00e+00	0	40	0	2311061504	49	3997
2026-01-11 15:12:45.29	256.97	40.12	-39.6	-40.5	21.4	0.00e+00	0	40	0	2318401536	49	4029
2026-01-11 15:12:46.29	257.44	40.14	-39.7	-40.6	21.3	0.00e+00	0	40	0	2325741568	49	4091
2026-01-11 15:12:47.28	257.90	40.17	-40.0	-40.9	21.1	0.00e+00	0	40	0	2333081600	49	4199
2026-01-11 15:12:48.28	258.37	40.19	-39.9	-40.8	21.1	0.00e+00	0	41	0	2340421632	49	4153
2026-01-11 15:12:49.27	258.83	40.21	-39.9	-40.8	21.2	0.00e+00	0	40	0	2346713088	49	4151
2026-01-11 15:12:50.27	259.30	40.23	-39.8	-40.7	21.2	0.00e+00	0	40	0	2354053120	49	4128
2026-01-11 15:12:51.26	259.77	40.24	-39.9	-40.9	21.1	0.00e+00	0	41	0	2361393152	49	4201
2026-01-11 15:12:52.26	260.24	40.26	-40.1	-41.0	20.9	0.00e+00	0	41	0	2368733184	49	4281
2026-01-11 15:12:53.25	260.70	40.27	-40.1	-41.1	20.9	0.00e+00	0	40	0	2376073216	49	4293
2026-01-11 15:12:54.25	261.17	40.28	-40.0	-41.0	21.0	0.00e+00	0	41	0	2383413248	49	4244
2026-01-11 15:12:55.24	261.64	40.28	-39.9	-40.8	21.1	0.00e+00	0	41	0	2390753280	49	4173
2026-01-11 15:12:56.24	262.11	40.29	-39.9	-40.8	21.1	0.00e+00	0	41	0	2398093312	49	4189
2026-01-11 15:12:57.23	262.58	40.29	-39.8	-40.7	21.2	0.00e+00	0	41	0	2404384768	49	4120
2026-01-11 15:12:58.23	263.05	40.29	-39.8	-40.7	21.2	0.00e+00	0	41	0	2411724800	49	4143
2026-01-11 15:12:59.22	263.51	40.29	-39.8	-40.7	21.2	0.00e+00	0	41	0	2419064832	49	4141
2026-01-11 15:13:00.22	263.98	40.29	-39.7	-40.7	21.3	0.00e+00	0	41	0	2426404864	49	4101
2026-01-11 15:13:01.21	264.45	40.28	-39.7	-40.6	21.3	0.00e+00	0	41	0	2433744896	49	4077
2026-01-11 15:13:02.21	264.92	40.27	-39.7	-40.6	21.3	0.00e+00	0	41	0	2441084928	49	4086
2026-01-11 15:13:03.20	265.39	40.26	-39.7	-40.6	21.3	0.00e+00	0	40	0	2447376384	49	4089
2026-01-11 15:13:04.20	265.86	40.25	-39.8	-40.7	21.3	0.00e+00	0	41	0	2454716416	49	4103
2026-01-11 15:13:05.19	266.32	40.24	-39.7	-40.6	21.3	0.00e+00	0	41	0	2462056448	49	4082
2026-01-11 15:13:06.19	266.79	40.22	-39.7	-40.6	21.3	0.00e+00	0	41	0	2469396480	49	4082
2026-01-11 15:13:07.18	267.25	40.20	-39.7	-40.6	21.3	0.00e+00	0	41	0	2476736512	49	4078
2026-01-11 15:13:08.18	267.72	40.18	-39.7	-40.6	21.3	0.00e+00	0	40	0	2484076544	49	4069
2026-01-11 15:13:09.17	268.18	40.16	-39.7	-40.6	21.3	0.00e+00	0	41	0	2490368000	49	4059
2026-01-11 15:13:10.17	268.65	40.14	-39.5	-40.4	21.5	0.00e+00	0	41	0	2497708032	49	3994
2026-01-11 15:13:11.17	269.12	40.11	-39.7	-40.6	21.3	0.00e+00	0	41	0	2505048064	49	4085
2026-01-11 15:13:12.16	269.58	40.08	-39.8	-40.7	21.3	0.00e+00	0	41	0	2512388096	49	4119
2026-01-11 15:13:13.16	270.04	40.05	-39.9	-40.8	21.2	0.00e+00	0	41	0	2519728128	49	4173
2026-01-11 15:13:14.15	270.50	40.02	-40.0	-40.9	21.0	0.00e+00	0	40	0	2527068160	49	4242
2026-01-11 15:13:15.14	270.96	39.99	-40.0	-41.0	21.0	0.00e+00	0	41	0	2534408192	49	4256
2026-01-11 15:13:16.14	271.42	39.95	-39.9	-40.8	21.1	0.00e+00	0	40	0	2541748224	49	4183
2026-01-11 15:13:17.13	271.87	39.91	-39.9	-40.8	21.2	0.00e+00	0	41	0	2548039680	49	4155
2026-01-11 15:13:18.13	272.33	39.87	-39.8	-40.7	21.3	0.00e+00	0	41	0	2555379712	49	4106
2026-01-11 15:13:19.12	272.79	39.83	-39.9	-40.7	21.2	0.00e+00	0	41	0	2562719744	49	4145
2026-01-11 15:13:20.12	273.24	39.78	-39.9	-40.8	21.1	0.00e+00	0	41	0	2570059776	49	4184
2026-01-11 15:13:21.11	273.70	39.74	-40.0	-40.9	21.1	0.00e+00	0	41	0	2577399808	49	4213
2026-01-11 15:13:22.11	274.15	39.69	-39.8	-40.7	21.2	0.00e+00	0	41	0	2584739840	49	4123
2026-01-11 15:13:23.10	274.60	39.64	-39.7	-40.6	21.3	0.00e+00	0	41	0	2591031296	49	4072
2026-01-11 15:13:24.10	275.05	39.59	-39.7	-40.6	21.3	0.00e+00	0	41	0	2598371328	49	4094
2026-01-11 15:13:25.09	275.50	39.53	-39.7	-40.6	21.3	0.00e+00	0	40	0	2605711360	49	4057
2026-01-11 15:13:26.09	275.94	39.48	-39.8	-40.7	21.3	0.00e+00	0	41	0	2613051392	49	4101
2026-01-11 15:13:27.08	276.39	39.42	-39.9	-40.8	21.1	0.00e+00	0	41	0	2620391424	49	4177
2026-01-11 15:13:28.08	276.83	39.36	-39.9	-40.8	21.1	0.00e+00	0	41	0	2627731456	49	4175
2026-01-11 15:13:29.07	277.27	39.30	-39.7	-40.6	21.4	0.00e+00	0	40	0	2634022912	49	4067
2026-01-11 15:13:30.07	277.71	39.24	-39.6	-40.5	21.4	0.00e+00	0	41	0	2641362944	49	4030
2026-01-11 15:13:31.06	278.15	39.17	-39.4	-40.3	21.6	0.00e+00	0	41	0	2648702976	49	3927
2026-01-11 15:13:32.06	278.59	39.11	-39.3	-40.2	21.7	0.00e+00	0	41	0	2656043008	49	3871
2026-01-11 15:13:33.05	279.02	39.04	-39.3	-40.1	21.7	0.00e+00	0	40	0	2663383040	49	3861
2026-01-11 15:13:34.05	279.46	38.97	-39.5	-40.3	21.6	0.00e+00	0	41	0	2670723072	49	3940
2026-01-11 15:13:35.04	279.88	38.90	-39.6	-40.5	21.4	0.00e+00	0	41	0	2678063104	49	4031
2026-01-11 15:13:36.04	280.32	38.83	-39.8	-40.7	21.3	0.00e+00	0	41	0	2685403136	49	4100
2026-01-11 15:13:37.03	280.74	38.75	-39.8	-40.7	21.2	0.00e+00	0	41	0	2691694592	49	4138
2026-01-11 15:13:38.03	281.17	38.67	-39.9	-40.8	21.1	0.00e+00	0	41	0	2699034624	49	4162
2026-01-11 15:13:39.02	281.59	38.60	-39.9	-40.8	21.2	0.00e+00	0	41	0	2706374656	49	4157
2026-01-11 15:13:40.02	282.01	38.52	-39.8	-40.7	21.2	0.00e+00	0	41	0	2713714688	49	4123
2026-01-11 15:13:41.01	282.43	38.44	-39.6	-40.5	21.4	0.00e+00	0	41	0	2721054720	49	4018
2026-01-11 15:13:42.01	282.85	38.36	-39.5	-40.4	21.5	0.00e+00	0	40	0	2728394752	49	3972
2026-01-11 15:13:43.00	283.26	38.27	-39.4	-40.3	21.6	0.00e+00	0	41	0	2734686208	49	3932
2026-01-11 15:13:43.99	283.67	38.19	-39.5	-40.4	21.5	0.00e+00	0	41	0	2742026240	49	3960
2026-01-11 15:13:44.99	284.08	38.10	-39.5	-40.4	21.5	0.00e+00	0	40	0	2749366272	49	3969
2026-01-11 15:13:45.98	284.49	38.01	-39.5	-40.4	21.5	0.00e+00	0	40	0	2756706304	49	3968
2026-01-11 15:13:46.98	284.90	37.92	-39.5	-40.4	21.5	0.00e+00	0	41	0	2764046336	49	3960
2026-01-11 15:13:47.97	285.30	37.83	-39.7	-40.6	21.3	0.00e+00	0	41	0	2771386368	49	4078
2026-01-11 15:13:48.97	285.71	37.74	-39.7	-40.5	21.3	0.00e+00	0	41	0	2777677824	49	4051
2026-01-11 15:13:49.96	286.10	37.65	-39.8	-40.6	21.3	0.00e+00	0	41	0	2785017856	49	4092
2026-01-11 15:13:50.96	286.50	37.56	-39.8	-40.7	21.3	0.00e+00	0	41	0	2792357888	49	4102
2026-01-11 15:13:51.95	286.90	37.46	-39.9	-40.8	21.1	0.00e+00	0	41	0	2799697920	49	4152
2026-01-11 15:13:52.94	287.29	37.36	-40.0	-40.9	21.1	0.00e+00	0	41	0	2807037952	49	4203
2026-01-11 15:13:53.94	287.68	37.27	-40.1	-41.0	21.0	0.00e+00	0	41	0	2814377984	49	4260
2026-01-11 15:13:54.94	288.07	37.17	-40.0	-40.9	21.1	0.00e+00	0	41	0	2821718016	49	4213
2026-01-11 15:13:55.93	288.45	37.07	-40.0	-40.9	21.0	0.00e+00	0	41	0	2828009472	49	4242
2026-01-11 15:13:56.93	288.84	36.96	-40.0	-40.9	21.0	0.00e+00	0	41	0	2835349504	49	4239
2026-01-11 15:13:57.92	289.22	36.86	-39.9	-40.8	21.1	0.00e+00	0	41	0	2842689536	49	4172
2026-01-11 15:13:58.91	289.59	36.76	-39.7	-40.6	21.3	0.00e+00	0	41	0	2850029568	49	4074
2026-01-11 15:13:59.91	289.97	36.66	-39.6	-40.4	21.4	0.00e+00	0	41	0	2857369600	49	4003
2026-01-11 15:14:00.91	290.35	36.55	-39.6	-40.4	21.5	0.00e+00	0	41	0	2864709632	49	3997
2026-01-11 15:14:01.90	290.72	36.44	-39.6	-40.5	21.4	0.00e+00	0	40	0	2872049664	49	4041
2026-01-11 15:14:02.90	291.09	36.34	-39.8	-40.7	21.2	0.00e+00	0	40	0	2878341120	49	4138
2026-01-11 15:14:03.89	291.45	36.23	-39.8	-40.7	21.0	0.00e+00	0	41	0	2885681152	49	4141
2026-01-11 15:14:04.89	291.82	36.12	-40.0	-40.9	21.0	0.00e+00	0	41	0	2893021184	49	4233
2026-01-11 15:14:05.88	292.18	36.01	-39.8	-40.7	21.2	0.00e+00	0	41	0	2900361216	49	4125
2026-01-11 15:14:06.88	292.54	35.90	-39.7	-40.6	21.3	0.00e+00	0	41	0	2907701248	49	4075
2026-01-11 15:14:07.87	292.90	35.79	-39.6	-40.5	21.4	0.00e+00	0	41	0	2913992704	49	4023
2026-01-11 15:14:08.87	293.25	35.67	-39.7	-40.5	20.9	0.00e+00	0	41	0	2921332736	49	4036
2026-01-11 15:14:09.86	293.60	35.56	-39.7	-40.6	21.4	0.00e+00	0	41	0	2928672768	49	4052
2026-01-11 15:14:10.86	293.95	35.44	-39.7	-40.5	21.4	0.00e+00	0	41	0	2936012800	49	4046
2026-01-11 15:14:11.85	294.30	35.33	-39.7	-40.6	21.4	0.00e+00	0	41	0	2943352832	49	4057
2026-01-11 15:14:12.85	294.65	35.21	-39.6	-40.5	21.4	0.00e+00	0	41	0	2950692864	49	4030
2026-01-11 15:14:13.84	294.99	35.10	-39.6	-40.5	21.4	0.00e+00	0	41	0	2958032896	49	4044
2026-01-11 15:14:14.84	295.33	34.98	-39.6	-40.5	21.4	0.00e+00	0	41	0	2965372928	49	4018
2026-01-11 15:14:15.83	295.66	34.86	-39.7	-40.5	21.4	0.00e+00	0	41	0	2972712960	49	4050
2026-01-11 15:14:16.83	296.00	34.74	-39.7	-40.6	21.3	0.00e+00	0	41	0	2979004416	49	4073
2026-01-11 15:14:17.82	296.33	34.63	-39.6	-40.5	21.4	0.00e+00	0	41	0	2986344448	49	4036
2026-01-11 15:14:18.82	296.66	34.51	-39.8	-40.6	21.3	0.00e+00	0	41	0	2993684480	49	4092
2026-01-11 15:14:19.81	296.99	34.39	-39.7	-40.5	21.3	0.00e+00	0	41	0	3001024512	49	4050
2026-01-11 15:14:20.81	297.32	34.26	-39.7	-40.5	21.3	0.00e+00	0	41	0	3008364544	49	4050
2026-01-11 15:14:21.80	297.64	34.14	-39.7	-40.6	21.3	0.00e+00	0	41	0	3015704576	49	4083
2026-01-11 15:14:22.80	297.96	34.02	-39.7	-40.6	21.3	0.00e+00	0	41	0	3021996032	49	4078
2026-01-11 15:14:23.79	298.28	33.90	-39.8	-40.7	21.2	0.00e+00	0	41	0	3029336064	49	4104
2026-01-11 15:14:24.79	298.60	33.78	-39.8	-40.7	21.2	0.00e+00	0	41	0	3036676096	49	4137
2026-01-11 15:14:25.78	298.91	33.65	-40.0	-40.9	21.1	0.00e+00	0	41	0	3044016128	49	4202
2026-01-11 15:14:26.77	299.22	33.53	-39.9	-40.8	21.1	0.00e+00	0	41	0	3051356160	49	4157
2026-01-11 15:14:27.77	299.53	33.41	-40.0	-40.9	21.0	0.00e+00	0	41	0	3057647616	49	4202
2026-01-11 15:14:28.76	299.83	33.28	-40.0	-40.9	21.0	0.00e+00	0	41	0	3064987648	49	4227
2026-01-11 15:14:29.75	300.14	33.16	-39.9	-40.8	20.9	0.00e+00	0	41	0	3072327680	49	4167
2026-01-11 15:14:30.75	300.44	33.03	-39.8	-40.7	21.2	0.00e+00	0	41	0	3079667712	49	4111
2026-01-11 15:14:31.74	300.74	32.91	-39.8	-40.7	21.2	0.00e+00	0	41	0	3087007744	49	4099
2026-01-11 15:14:32.74	301.04	32.78	-39.9	-40.8	21.1	0.00e+00	0	41	0	3094347776	49	4164
2026-01-11 15:14:33.73	301.33	32.66	-39.7	-40.6	21.3	0.00e+00	0	41	0	3100639232	49	4073
2026-01-11 15:14:34.73	301.63	32.53	-39.7	-40.6	21.3	0.00e+00	0	41	0	3107979264	49	4084
2026-01-11 15:14:35.72	301.92	32.40	-39.8	-40.7	21.2	0.00e+00	0	41	0	3115319296	49	4099
2026-01-11 15:14:36.71	302.20	32.28	-39.7	-40.6	21.3	0.00e+00	0	41	0	3122659328	49	4092
2026-01-11 15:14:37.71	302.49	32.15	-39.8	-40.7	21.2	0.00e+00	0	41	0	3129999360	49	4117
2026-01-11 15:14:38.71	302.78	32.02	-39.8	-40.8	21.1	0.00e+00	0	41	0	3137339392	49	4146
2026-01-11 15:14:39.70	303.06	31.90	-39.9	-40.8	21.1	0.00e+00	0	41	0	3144679424	49	4178
2026-01-11 15:14:40.70	303.34	31.77	-39.9	-40.8	21.0	0.00e+00	0	41	0	3152019456	49	4192
2026-01-11 15:14:41.69	303.62	31.64	-40.1	-41.0	20.9	0.00e+00	0	41	0	3159359488	49	4265
2026-01-11 15:14:42.68	303.89	31.51	-40.1	-41.1	20.9	0.00e+00	0	41	0	3165650944	49	4294
2026-01-11 15:14:43.68	304.16	31.38	-40.3	-41.2	20.8	0.00e+00	0	41	0	3172990976	50	4118
2026-01-11 15:14:44.67	304.43	31.26	-40.2	-41.2	20.8	0.00e+00	0	41	0	3180331008	50	4104
2026-01-11 15:14:45.67	304.71	31.13	-39.9	-40.8	21.1	0.00e+00	0	41	0	3187671040	50	3954
2026-01-11 15:14:46.66	304.97	31.00	-39.9	-40.8	21.1	0.00e+00	0	41	0	3195011072	50	3921
2026-01-11 15:14:47.66	305.24	30.87	-40.0	-40.9	21.1	0.00e+00	0	41	0	3201302528	50	3970
2026-01-11 15:14:48.66	305.50	30.74	-39.7	-40.6	21.3	0.00e+00	0	41	0	3208642560	50	3850
2026-01-11 15:14:49.65	305.76	30.61	-39.7	-40.5	21.3	0.00e+00	0	41	0	3215982592	50	3823
2026-01-11 15:14:50.65	306.02	30.48	-39.7	-40.6	21.3	0.00e+00	0	41	0	3223322624	50	3827
2026-01-11 15:14:51.64	306.28	30.36	-39.8	-40.7	21.2	0.00e+00	0	41	0	3230662656	50	3880
2026-01-11 15:14:52.64	306.53	30.23	-39.9	-40.8	21.1	0.00e+00	0	41	0	3238002688	50	3924
2026-01-11 15:14:53.63	306.78	30.10	-40.0	-40.9	21.0	0.00e+00	0	41	0	3245342720	50	3990
2026-01-11 15:14:54.63	307.04	29.97	-40.1	-41.0	21.0	0.00e+00	0	41	0	3251634176	50	4007
2026-01-11 15:14:55.63	307.29	29.84	-40.2	-41.1	20.9	0.00e+00	0	41	0	3258974208	50	4061
2026-01-11 15:14:56.62	307.53	29.71	-40.2	-41.1	20.8	0.00e+00	0	41	0	3266314240	50	4061
2026-01-11 15:14:57.61	307.78	29.58	-40.0	-41.0	21.0	0.00e+00	0	41	0	3273654272	50	4008
2026-01-11 15:14:58.61	308.02	29.45	-40.0	-41.0	21.0	0.00e+00	0	41	0	3280994304	50	4006
2026-01-11 15:14:59.60	308.26	29.33	-40.0	-41.0	21.0	0.00e+00	0	41	0	3288334336	50	4008
2026-01-11 15:15:00.59	308.50	29.20	-40.0	-40.9	21.0	0.00e+00	0	41	0	3295674368	50	3971
2026-01-11 15:15:01.59	308.74	29.07	-39.9	-40.8	21.1	0.00e+00	0	41	0	3303014400	50	3931
2026-01-11 15:15:02.58	308.97	28.94	-39.8	-40.7	21.2	0.00e+00	0	41	0	3309305856	50	3905
2026-01-11 15:15:03.58	309.21	28.81	-39.8	-40.7	21.2	0.00e+00	0	41	0	3316645888	50	3901
2026-01-11 15:15:04.57	309.44	28.68	-40.0	-40.9	21.1	0.00e+00	0	41	0	3323985920	50	3966
2026-01-11 15:15:05.57	309.67	28.55	-39.8	-40.7	21.2	0.00e+00	0	41	0	3331325952	50	3904
2026-01-11 15:15:06.56	309.90	28.43	-39.9	-40.8	21.1	0.00e+00	0	41	0	3338665984	50	3928
2026-01-11 15:15:07.55	310.12	28.30	-40.0	-40.9	21.0	0.00e+00	0	41	0	3344957440	50	3974
2026-01-11 15:15:08.55	310.35	28.17	-40.0	-40.9	21.0	0.00e+00	0	41	0	3352297472	50	4003
2026-01-11 15:15:09.54	310.57	28.04	-40.2	-41.1	20.8	0.00e+00	0	41	0	3359637504	50	4079
2026-01-11 15:15:10.54	310.79	27.92	-40.2	-41.1	20.8	0.00e+00	0	41	0	3366977536	50	4089
2026-01-11 15:15:11.53	311.01	27.79	-40.2	-41.2	20.8	0.00e+00	0	41	0	3374317568	50	4104
2026-01-11 15:15:12.53	311.23	27.66	-40.1	-41.0	20.9	0.00e+00	0	41	0	3381657600	50	4048
2026-01-11 15:15:13.52	311.44	27.53	-40.1	-41.0	21.0	0.00e+00	0	41	0	3387949056	50	4014
2026-01-11 15:15:14.51	311.66	27.41	-40.1	-41.0	20.9	0.00e+00	0	41	0	3395289088	50	4045
2026-01-11 15:15:15.51	311.87	27.28	-40.2	-41.1	20.8	0.00e+00	0	41	0	3402629120	50	4097
2026-01-11 15:15:16.51	312.08	27.15	-40.0	-40.9	21.0	0.00e+00	0	41	0	3409969152	50	3989
2026-01-11 15:15:17.50	312.29	27.03	-39.9	-40.8	21.1	0.00e+00	0	41	0	3417309184	50	3939
2026-01-11 15:15:18.50	312.50	26.90	-39.9	-40.8	21.1	0.00e+00	0	41	0	3424649216	50	3940
2026-01-11 15:15:19.49	312.71	26.78	-39.9	-40.8	21.1	0.00e+00	0	41	0	3431989248	50	3932
2026-01-11 15:15:20.48	312.91	26.65	-39.9	-40.8	21.1	0.00e+00	0	41	0	3439329280	50	3945
2026-01-11 15:15:21.48	313.11	26.52	-39.9	-40.8	21.1	0.00e+00	0	41	0	3445620736	50	3958
2026-01-11 15:15:22.47	313.31	26.40	-39.9	-40.8	21.1	0.00e+00	0	41	0	3452960768	50	3932
2026-01-11 15:15:23.47	313.51	26.27	-40.0	-40.9	20.9	0.00e+00	0	41	0	3460300800	50	3998
2026-01-11 15:15:24.46	313.71	26.15	-40.0	-40.9	21.0	0.00e+00	0	41	0	3467640832	50	3980
2026-01-11 15:15:25.46	313.91	26.02	-40.0	-40.9	21.0	0.00e+00	0	41	0	3474980864	50	3995
2026-01-11 15:15:26.46	314.11	25.90	-40.1	-41.0	20.9	0.00e+00	0	41	0	3482320896	50	4043
2026-01-11 15:15:27.45	314.30	25.77	-40.2	-41.1	20.8	0.00e+00	0	41	0	3488612352	50	4060
2026-01-11 15:15:28.44	314.49	25.65	-40.2	-41.1	20.7	0.00e+00	0	41	0	3495952384	50	4080
2026-01-11 15:15:29.44	314.68	25.53	-40.2	-41.1	20.8	0.00e+00	0	41	0	3503292416	50	4077
2026-01-11 15:15:30.43	314.87	25.40	-40.2	-41.1	20.8	0.00e+00	0	41	0	3510632448	50	4074
2026-01-11 15:15:31.43	315.06	25.28	-40.2	-41.1	20.8	0.00e+00	0	41	0	3517972480	50	4094
2026-01-11 15:15:32.42	315.25	25.16	-40.1	-41.0	20.9	0.00e+00	0	41	0	3525312512	50	4050
2026-01-11 15:15:33.42	315.43	25.03	-40.1	-41.1	20.8	0.00e+00	0	41	0	3531603968	50	4067
2026-01-11 15:15:34.41	315.62	24.91	-40.2	-41.2	20.7	0.00e+00	0	41	0	3538944000	50	4115
2026-01-11 15:15:35.40	315.80	24.79	-40.2	-41.1	20.8	0.00e+00	0	41	0	3546284032	50	4089
2026-01-11 15:15:36.40	315.98	24.67	-40.2	-41.2	20.8	0.00e+00	0	41	0	3553624064	50	4100
2026-01-11 15:15:37.39	316.16	24.55	-40.2	-41.1	20.7	0.00e+00	0	41	0	3560964096	50	4096
2026-01-11 15:15:38.39	316.34	24.43	-40.2	-41.2	20.7	0.00e+00	0	41	0	3568304128	50	4107
2026-01-11 15:15:39.38	316.51	24.31	-40.3	-41.3	20.6	0.00e+00	0	41	0	3574595584	50	4161
2026-01-11 15:15:40.38	316.69	24.18	-40.4	-41.3	20.6	0.00e+00	0	41	0	3581935616	50	4180
2026-01-11 15:15:41.37	316.86	24.06	-40.4	-41.3	20.6	0.00e+00	0	41	0	3589275648	50	4184
2026-01-11 15:15:42.37	317.04	23.94	-40.5	-41.5	20.4	0.00e+00	0	41	0	3596615680	50	4262
2026-01-11 15:15:43.36	317.21	23.82	-40.5	-41.4	20.5	0.00e+00	0	41	0	3603955712	50	4230
2026-01-11 15:15:44.35	317.38	23.70	-40.3	-41.3	20.6	0.00e+00	0	41	0	3611295744	50	4162
2026-01-11 15:15:45.35	317.55	23.59	-40.2	-41.1	20.8	0.00e+00	0	41	0	3618635776	50	4094
2026-01-11 15:15:46.34	317.72	23.47	-40.2	-41.1	20.8	0.00e+00	0	41	0	3625975808	50	4069
2026-01-11 15:15:47.34	317.88	23.35	-40.2	-41.1	20.7	0.00e+00	0	41	0	3632267264	50	4092
2026-01-11 15:15:48.33	318.05	23.23	-40.2	-41.1	20.8	0.00e+00	0	41	0	3639607296	50	4082
2026-01-11 15:15:49.33	318.21	23.11	-40.2	-41.1	20.7	0.00e+00	0	41	0	3646947328	50	4086
2026-01-11 15:15:50.32	318.38	22.99	-40.1	-41.0	20.8	0.00e+00	0	41	0	3654287360	50	4037
2026-01-11 15:15:51.31	318.54	22.88	-40.0	-40.9	20.9	0.00e+00	0	41	0	3661627392	50	3996
2026-01-11 15:15:52.31	318.70	22.76	-40.1	-41.0	20.9	0.00e+00	0	41	0	3668967424	50	4033
2026-01-11 15:15:53.30	318.86	22.64	-40.1	-41.1	20.8	0.00e+00	0	41	0	3675258880	50	4061
2026-01-11 15:15:54.30	319.02	22.53	-40.2	-41.2	20.7	0.00e+00	0	41	0	3682598912	50	4111
2026-01-11 15:15:55.29	319.17	22.41	-40.4	-41.3	20.6	0.00e+00	0	41	0	3689938944	50	4166
2026-01-11 15:15:56.29	319.33	22.29	-40.4	-41.4	20.5	0.00e+00	0	41	0	3697278976	50	4214
2026-01-11 15:15:57.28	319.48	22.18	-40.5	-41.4	20.5	0.00e+00	0	41	0	3704619008	50	4233
2026-01-11 15:15:58.28	319.64	22.06	-40.6	-41.5	20.3	0.00e+00	0	41	0	3711959040	50	4291
2026-01-11 15:15:59.27	319.79	21.95	-40.6	-41.5	20.4	0.00e+00	0	41	0	3718250496	50	4283
2026-01-11 15:16:00.27	319.94	21.83	-40.6	-41.6	20.3	0.00e+00	0	41	0	3725590528	50	4298
2026-01-11 15:16:01.27	320.09	21.72	-40.7	-41.7	20.2	0.00e+00	0	41	0	3732930560	50	4346
2026-01-11 15:16:02.26	320.24	21.61	-40.6	-41.6	20.3	0.00e+00	0	41	0	3740270592	50	4322
2026-01-11 15:16:03.26	320.39	21.49	-40.5	-41.5	20.4	0.00e+00	0	41	0	3747610624	50	4256
2026-01-11 15:16:04.25	320.54	21.38	-40.5	-41.4	20.4	0.00e+00	0	41	0	3754950656	50	4237
2026-01-11 15:16:05.24	320.69	21.27	-40.5	-41.5	20.4	0.00e+00	0	41	0	3762290688	50	4244
2026-01-11 15:16:06.24	320.83	21.15	-40.5	-41.4	20.4	0.00e+00	0	41	0	3769630720	50	4229
2026-01-11 15:16:07.23	320.97	21.04	-40.5	-41.4	20.4	0.00e+00	0	41	0	3775922176	50	4238
2026-01-11 15:16:08.23	321.12	20.93	-40.4	-41.4	20.5	0.00e+00	0	41	0	3783262208	50	4220
2026-01-11 15:16:09.22	321.26	20.82	-40.5	-41.4	20.4	0.00e+00	0	41	0	3790602240	50	4240
2026-01-11 15:16:10.22	321.40	20.71	-40.5	-41.5	20.4	0.00e+00	0	41	0	3797942272	50	4253
2026-01-11 15:16:11.21	321.54	20.60	-40.6	-41.6	20.3	0.00e+00	0	41	0	3805282304	50	4293
2026-01-11 15:16:12.20	321.68	20.48	-40.7	-41.6	20.2	0.00e+00	0	41	0	3812622336	50	4336
2026-01-11 15:16:13.20	321.82	20.37	-40.8	-41.7	20.2	0.00e+00	0	41	0	3818913792	50	4377
2026-01-11 15:16:14.19	321.96	20.26	-40.9	-41.9	20.0	0.00e+00	0	41	0	3826253824	51	4196
2026-01-11 15:16:15.19	322.09	20.15	-40.8	-41.8	20.1	0.00e+00	0	41	0	3833593856	51	4176
2026-01-11 15:16:16.19	322.23	20.04	-40.9	-41.9	20.0	0.00e+00	0	41	0	3840933888	51	4226
2026-01-11 15:16:17.18	322.36	19.94	-41.0	-41.9	19.9	0.00e+00	0	41	0	3848273920	51	4240
2026-01-11 15:16:18.18	322.50	19.83	-41.0	-41.9	20.0	0.00e+00	0	41	0	3855613952	51	4236
2026-01-11 15:16:19.17	322.63	19.72	-41.2	-42.2	19.7	0.00e+00	0	41	0	3861905408	51	4341
2026-01-11 15:16:20.16	322.76	19.61	-41.1	-42.1	19.8	0.00e+00	0	41	0	3869245440	51	4310
2026-01-11 15:16:21.16	322.89	19.50	-41.0	-42.0	19.9	0.00e+00	0	41	0	3876585472	51	4284
2026-01-11 15:16:22.15	323.02	19.40	-41.1	-42.1	19.8	0.00e+00	0	41	0	3883925504	51	4296
2026-01-11 15:16:23.15	323.15	19.29	-41.1	-42.1	19.8	0.00e+00	0	41	0	3891265536	51	4301
2026-01-11 15:16:24.14	323.28	19.18	-41.1	-42.2	19.8	0.00e+00	0	41	0	3898605568	51	4350
2026-01-11 15:16:25.14	323.41	19.08	-41.0	-42.1	19.8	0.00e+00	0	41	0	3905945600	51	4296
2026-01-11 15:16:26.13	323.53	18.97	-41.1	-42.1	19.8	0.00e+00	0	41	0	3912237056	51	4338
2026-01-11 15:16:27.12	323.66	18.86	-41.1	-42.2	19.7	0.00e+00	0	41	0	3919577088	51	4347
2026-01-11 15:16:28.12	323.79	18.76	-40.9	-42.0	19.9	0.00e+00	0	41	0	3926917120	51	4255
2026-01-11 15:16:29.12	323.91	18.65	-40.9	-42.0	19.9	0.00e+00	0	41	0	3934257152	51	4246
2026-01-11 15:16:30.11	324.03	18.55	-41.0	-41.9	19.9	0.00e+00	0	41	0	3941597184	51	4240
2026-01-11 15:16:31.11	324.16	18.44	-40.9	-41.9	20.0	0.00e+00	0	41	0	3948937216	51	4210
2026-01-11 15:16:32.10	324.28	18.34	-40.9	-41.9	20.0	0.00e+00	0	41	0	3956277248	51	4214
2026-01-11 15:16:33.09	324.40	18.24	-41.0	-41.9	19.9	0.00e+00	0	41	0	3962568704	51	4238
2026-01-11 15:16:34.09	324.52	18.13	-40.9	-41.9	20.0	0.00e+00	0	41	0	3969908736	51	4209
2026-01-11 15:16:35.08	324.64	18.03	-41.0	-42.0	19.9	0.00e+00	0	41	0	3977248768	51	4258
2026-01-11 15:16:36.08	324.76	17.93	-41.1	-42.0	19.8	0.00e+00	0	41	0	3984588800	51	4291
2026-01-11 15:16:37.07	324.87	17.82	-41.2	-42.2	19.7	0.00e+00	0	41	0	3991928832	51	4342
2026-01-11 15:16:38.07	324.99	17.72	-41.2	-42.2	19.7	0.00e+00	0	41	0	3998220288	51	4369
2026-01-11 15:16:39.06	325.11	17.62	-41.2	-42.2	19.6	0.00e+00	0	41	0	4005560320	52	4145
2026-01-11 15:16:40.06	325.22	17.52	-41.3	-42.3	19.5	0.00e+00	0	41	0	4012900352	52	4178
2026-01-11 15:16:41.05	325.34	17.42	-41.4	-42.4	19.4	0.00e+00	0	41	0	4020240384	52	4219
2026-01-11 15:16:42.05	325.45	17.32	-41.3	-42.4	19.4	0.00e+00	0	41	0	4027580416	52	4217
2026-01-11 15:16:43.04	325.56	17.22	-41.4	-42.5	19.3	0.00e+00	0	41	0	4034920448	52	4276
2026-01-11 15:16:44.03	325.68	17.12	-41.4	-42.5	19.3	0.00e+00	0	41	0	4042260480	52	4279
2026-01-11 15:16:45.03	325.79	17.02	-41.4	-42.6	19.2	0.00e+00	0	41	0	4048551936	52	4296
2026-01-11 15:16:46.02	325.90	16.92	-41.4	-42.6	19.2	0.00e+00	0	41	0	4055891968	52	4298
2026-01-11 15:16:47.02	326.01	16.82	-41.5	-42.6	19.2	0.00e+00	0	41	0	4063232000	52	4330
2026-01-11 15:16:48.01	326.12	16.72	-41.4	-42.6	19.2	0.00e+00	0	41	0	4070572032	52	4317
2026-01-11 15:16:49.01	326.23	16.62	-41.5	-42.6	19.2	0.00e+00	0	41	0	4077912064	52	4329
2026-01-11 15:16:50.00	326.34	16.52	-41.5	-42.7	19.1	0.00e+00	0	41	0	4085252096	52	4361
2026-01-11 15:16:51.00	326.44	16.42	-41.5	-42.7	19.1	0.00e+00	0	41	0	4092592128	52	4358
2026-01-11 15:16:51.99	326.55	16.32	-41.7	-42.8	19.0	0.00e+00	0	41	0	4099932160	52	4417
2026-01-11 15:16:52.98	326.66	16.23	-41.6	-42.7	19.1	0.00e+00	0	41	0	4106223616	52	4355
2026-01-11 15:16:53.98	326.76	16.13	-41.6	-42.7	19.1	0.00e+00	0	41	0	4113563648	52	4366
2026-01-11 15:16:54.97	326.87	16.03	-41.6	-42.7	19.1	0.00e+00	0	41	0	4120903680	52	4372
2026-01-11 15:16:55.97	326.97	15.94	-41.6	-42.7	19.1	0.00e+00	0	41	0	4128243712	52	4353
2026-01-11 15:16:56.96	327.08	15.84	-41.6	-42.7	19.1	0.00e+00	0	41	0	4135583744	52	4372
2026-01-11 15:16:57.96	327.18	15.74	-41.7	-42.8	19.0	0.00e+00	0	41	0	4141875200	52	4393
2026-01-11 15:16:58.95	327.28	15.65	-41.7	-42.8	19.0	0.00e+00	0	41	0	4149215232	53	4179
2026-01-11 15:16:59.95	327.38	15.55	-41.7	-42.8	19.0	0.00e+00	0	41	0	4156555264	53	4157
2026-01-11 15:17:00.94	327.48	15.46	-41.7	-42.8	19.0	0.00e+00	0	41	0	4163895296	53	4164
2026-01-11 15:17:01.94	327.59	15.36	-41.8	-42.9	18.9	0.00e+00	0	41	0	4171235328	53	4220
2026-01-11 15:17:02.93	327.69	15.27	-41.7	-42.8	19.0	0.00e+00	0	41	0	4178575360	53	4166
2026-01-11 15:17:03.93	327.78	15.17	-41.7	-42.8	18.9	0.00e+00	0	41	0	4184866816	53	4183
2026-01-11 15:17:04.92	327.88	15.08	-41.8	-42.9	18.9	0.00e+00	0	41	0	4192206848	53	4194
2026-01-11 15:17:05.92	327.98	14.98	-41.7	-42.8	19.0	0.00e+00	0	41	0	4199546880	53	4157
2026-01-11 15:17:06.91	328.08	14.89	-41.8	-42.9	18.9	0.00e+00	0	41	0	4206886912	53	4207
2026-01-11 15:17:07.91	328.18	14.80	-41.8	-42.9	18.9	0.00e+00	0	41	0	4214226944	53	4199
2026-01-11 15:17:08.90	328.27	14.71	-41.8	-42.9	18.9	0.00e+00	0	41	0	4221566976	53	4208
2026-01-11 15:17:09.90	328.37	14.61	-41.8	-42.9	18.9	0.00e+00	0	41	0	4228907008	53	4209
2026-01-11 15:17:10.89	328.46	14.52	-41.8	-42.9	18.8	0.00e+00	0	41	0	4236247040	53	4218
2026-01-11 15:17:11.89	328.56	14.43	-42.0	-43.0	18.7	0.00e+00	0	41	0	4243587072	53	4284
2026-01-11 15:17:12.88	328.65	14.34	-42.0	-43.1	18.7	0.00e+00	0	41	0	4249878528	53	4298
2026-01-11 15:17:13.88	328.75	14.25	-42.0	-43.1	18.6	0.00e+00	0	41	0	4257218560	53	4318
2026-01-11 15:17:14.87	328.84	14.15	-42.0	-43.1	18.6	0.00e+00	0	41	0	4264558592	53	4328
2026-01-11 15:17:15.87	328.93	14.06	-42.0	-43.2	18.5	0.00e+00	0	41	0	4271898624	53	4372
2026-01-11 15:17:16.86	329.02	13.97	-42.2	-43.4	18.4	0.00e+00	0	41	0	4279238656	53	4447
2026-01-11 15:17:17.85	329.12	13.88	-42.2	-43.4	18.4	0.00e+00	0	41	0	4285530112	53	4465
2026-01-11 15:17:18.85	329.21	13.79	-42.2	-43.4	18.3	0.00e+00	0	41	0	4292870144	53	4473
2026-01-11 15:17:19.84	329.30	13.70	-42.3	-43.5	18.2	0.00e+00	0	41	0	4300210176	54	4285
2026-01-11 15:17:20.82	329.39	13.61	-42.5	-43.7	18.1	0.00e+00	0	41	0	4307550208	54	4384
2026-01-11 15:17:21.81	329.47	13.53	-42.3	-43.5	18.3	0.00e+00	0	41	0	4314890240	54	4273
2026-01-11 15:17:22.81	329.56	13.44	-42.5	-43.7	18.1	0.00e+00	0	41	0	4322230272	54	4345
2026-01-11 15:17:23.81	329.65	13.35	-42.5	-43.7	18.1	0.00e+00	0	41	0	4328521728	54	4368
2026-01-11 15:17:24.80	329.74	13.26	-42.6	-43.8	18.0	0.00e+00	0	41	0	4335861760	54	4403
2026-01-11 15:17:25.80	329.83	13.17	-42.5	-43.7	18.1	0.00e+00	0	41	0	4343201792	54	4363
2026-01-11 15:17:26.79	329.91	13.08	-42.6	-43.8	18.0	0.00e+00	0	41	0	4350541824	54	4404
2026-01-11 15:17:27.79	330.00	12.99	-42.7	-43.9	17.9	0.00e+00	0	41	0	4357881856	54	4444
2026-01-11 15:17:28.78	330.09	12.91	-42.5	-43.7	18.1	0.00e+00	0	41	0	4365221888	54	4352
2026-01-11 15:17:29.78	330.17	12.82	-42.7	-43.9	17.9	0.00e+00	0	41	0	4372561920	54	4478
2026-01-11 15:17:30.77	330.26	12.73	-42.6	-43.8	17.9	0.00e+00	0	41	0	4379901952	54	4441
2026-01-11 15:17:31.77	330.34	12.65	-42.5	-43.7	18.0	0.00e+00	0	41	0	4387241984	54	4374
2026-01-11 15:17:32.76	330.43	12.56	-42.4	-43.6	18.1	0.00e+00	0	41	0	4393533440	54	4325
2026-01-11 15:17:33.76	330.51	12.47	-42.4	-43.6	18.0	0.00e+00	0	41	0	4400873472	54	4335
2026-01-11 15:17:34.75	330.59	12.39	-42.5	-43.7	18.0	0.00e+00	0	41	0	4408213504	54	4369
2026-01-11 15:17:35.75	330.67	12.30	-42.5	-43.8	18.0	0.00e+00	0	41	0	4415553536	54	4401
2026-01-11 15:17:36.74	330.76	12.22	-42.5	-43.8	18.0	0.00e+00	0	41	0	4422893568	54	4402
2026-01-11 15:17:37.74	330.84	12.13	-42.7	-43.9	17.8	0.00e+00	0	41	0	4429185024	54	4467
2026-01-11 15:17:38.73	330.92	12.05	-42.6	-43.8	17.9	0.00e+00	0	41	0	4436525056	54	4432
2026-01-11 15:17:39.73	331.00	11.96	-42.7	-43.9	17.8	0.00e+00	0	41	0	4443865088	54	4459
2026-01-11 15:17:40.72	331.08	11.88	-42.6	-43.8	17.9	0.00e+00	0	41	0	4451205120	54	4422
2026-01-11 15:17:41.71	331.16	11.79	-42.8	-44.0	17.7	0.00e+00	0	41	0	4458545152	55	4262
2026-01-11 15:17:42.71	331.24	11.71	-42.9	-44.1	17.7	0.00e+00	0	41	0	4465885184	55	4300
2026-01-11 15:17:43.71	331.32	11.63	-42.9	-44.1	17.6	0.00e+00	0	41	0	4472176640	55	4332
2026-01-11 15:17:44.70	331.40	11.54	-42.9	-44.1	17.6	0.00e+00	0	41	0	4479516672	55	4322
2026-01-11 15:17:45.69	331.48	11.46	-42.9	-44.1	17.6	0.00e+00	0	41	0	4486856704	55	4306
2026-01-11 15:17:46.69	331.55	11.38	-43.0	-44.2	17.5	0.00e+00	0	41	0	4494196736	55	4365
2026-01-11 15:17:47.69	331.63	11.29	-42.9	-44.1	17.6	0.00e+00	0	41	0	4501536768	55	4325
2026-01-11 15:17:48.68	331.71	11.21	-43.0	-44.2	17.5	0.00e+00	0	41	0	4508876800	55	4386
2026-01-11 15:17:49.67	331.79	11.13	-42.9	-44.2	17.5	0.00e+00	0	41	0	4516216832	55	4349
2026-01-11 15:17:50.67	331.86	11.05	-42.8	-44.1	17.6	0.00e+00	0	41	0	4523556864	55	4316
2026-01-11 15:17:51.67	331.94	10.97	-42.9	-44.2	17.5	0.00e+00	0	41	0	4530896896	55	4357
2026-01-11 15:17:52.66	332.01	10.88	-42.9	-44.1	17.6	0.00e+00	0	41	0	4537188352	55	4333
2026-01-11 15:17:53.66	332.09	10.80	-43.0	-44.2	17.5	0.00e+00	0	41	0	4544528384	55	4384
2026-01-11 15:17:54.66	332.16	10.72	-42.8	-44.1	17.6	0.00e+00	0	41	0	4551868416	55	4296
2026-01-11 15:17:55.65	332.24	10.64	-42.9	-44.2	17.5	0.00e+00	0	41	0	4559208448	55	4350
2026-01-11 15:17:56.65	332.31	10.56	-43.0	-44.3	17.4	0.00e+00	0	41	0	4566548480	55	4415
2026-01-11 15:17:57.64	332.39	10.48	-43.1	-44.4	17.3	0.00e+00	0	41	0	4572839936	55	4446
2026-01-11 15:17:58.64	332.46	10.40	-42.9	-44.2	17.5	0.00e+00	0	41	0	4580179968	55	4360
2026-01-11 15:17:59.63	332.53	10.32	-43.0	-44.3	17.4	0.00e+00	0	41	0	4587520000	55	4398
2026-01-11 15:18:00.63	332.60	10.24	-42.9	-44.2	17.5	0.00e+00	0	41	0	4594860032	55	4356
2026-01-11 15:18:01.62	332.68	10.16	-42.9	-44.2	17.5	0.00e+00	0	41	0	4602200064	55	4359
2026-01-11 15:18:02.62	332.75	10.08	-43.0	-44.3	17.4	0.00e+00	0	41	0	4609540096	55	4412
2026-01-11 15:18:03.61	332.82	10.00	-43.1	-44.4	17.3	0.00e+00	0	41	0	4615831552	55	4464
2026-01-11 15:18:04.61	332.89	9.92	-43.0	-44.3	17.3	0.00e+00	0	41	0	4623171584	55	4409
2026-01-11 15:18:05.60	332.96	9.84	-43.1	-44.4	17.2	0.00e+00	0	41	0	4630511616	55	4482
