passes_logs/2026/01/11/T1/T1__20260111_030716_AQUA_rec.log

#Pass ID: 20260111_030716_AQUA
#Satellite: AQUA
#Configuration: AQUA
#almurnet v.1.7.20251203
#Start time: 2026-01-11 03:07:16

#Version: 2.0.20230620
#Station: T1
#Location: 37.570604 lon 55.790049 lat
#TLE: 1 27424U 02022A   26009.89520876  .00001045  00000+0  21914-3 0  9996
#TLE: 2 27424  98.4076 336.2372 0002032  84.5955   1.0356 14.61811442260144

#Time	Az	El	Level	Level2	SNR	BER	BlckErr	Temp	State	Recorded	gain1	gain2
2026-01-11 03:07:16.14	1.01	5.00	-51.1	-71.9	3.8	7.47e-01	0	38	0	0	73	40151
2026-01-11 03:07:17.14	0.90	5.06	-46.4	-70.9	3.7	7.50e-01	0	38	104	0	64	60455
2026-01-11 03:07:18.15	0.80	5.12	-46.3	-71.1	3.7	7.49e-01	0	38	104	0	63	65535
2026-01-11 03:07:19.15	0.69	5.18	-46.3	-71.1	3.7	7.51e-01	0	39	104	0	63	65535
2026-01-11 03:07:20.16	0.58	5.24	-46.2	-71.1	3.7	7.51e-01	0	39	104	0	63	65535
2026-01-11 03:07:21.16	0.47	5.29	-46.3	-71.1	3.7	7.48e-01	0	39	104	0	63	65534
2026-01-11 03:07:22.17	0.37	5.35	-46.2	-71.1	3.7	7.50e-01	0	39	104	0	63	65534
2026-01-11 03:07:23.17	0.26	5.41	-46.2	-71.1	3.7	7.54e-01	0	39	104	0	63	65533
2026-01-11 03:07:24.18	0.15	5.47	-46.2	-71.1	3.7	7.48e-01	0	39	104	0	63	65535
2026-01-11 03:07:25.18	0.04	5.53	-46.3	-71.1	3.7	7.52e-01	0	39	104	0	63	65535
2026-01-11 03:07:26.18	359.93	5.59	-46.2	-71.1	3.7	7.48e-01	0	39	104	0	63	65533
2026-01-11 03:07:27.19	359.82	5.65	-46.2	-71.1	3.7	7.54e-01	0	39	104	0	63	65532
2026-01-11 03:07:28.19	359.71	5.71	-46.2	-71.1	3.7	7.51e-01	0	39	104	0	63	65535
2026-01-11 03:07:29.20	359.59	5.77	-46.2	-71.1	3.7	7.51e-01	0	39	104	0	63	65534
2026-01-11 03:07:30.20	359.48	5.83	-46.2	-71.1	3.7	7.51e-01	0	39	104	0	63	65534
2026-01-11 03:07:31.21	359.37	5.89	-46.3	-71.1	3.7	7.48e-01	0	39	104	0	63	65535
2026-01-11 03:07:32.21	359.26	5.95	-46.3	-71.1	3.7	7.50e-01	0	39	104	0	63	65534
2026-01-11 03:07:33.22	359.14	6.01	-46.2	-71.1	3.7	7.50e-01	0	39	104	0	63	65533
2026-01-11 03:07:34.22	359.03	6.07	-46.3	-71.1	3.7	7.46e-01	0	39	104	0	63	65535
2026-01-11 03:07:35.22	358.91	6.13	-46.3	-71.1	3.7	7.50e-01	0	39	104	0	63	65534
2026-01-11 03:07:36.23	358.80	6.19	-46.3	-71.1	3.7	7.51e-01	0	39	104	0	63	65534
2026-01-11 03:07:37.23	358.68	6.25	-46.3	-71.1	3.7	7.51e-01	0	39	104	0	63	65535
2026-01-11 03:07:38.24	358.56	6.31	-46.3	-71.1	3.7	7.53e-01	0	39	104	0	63	65534
2026-01-11 03:07:39.24	358.45	6.37	-46.3	-71.1	3.7	7.48e-01	0	39	104	0	63	65534
2026-01-11 03:07:40.25	358.33	6.43	-46.3	-71.1	3.7	7.51e-01	0	39	104	0	63	65534
2026-01-11 03:07:41.25	358.21	6.49	-46.3	-71.1	3.7	7.51e-01	0	39	104	0	63	65533
2026-01-11 03:07:42.25	358.09	6.55	-46.3	-71.1	3.7	7.51e-01	0	39	104	0	63	65534
2026-01-11 03:07:43.26	357.97	6.61	-46.3	-71.1	3.7	7.52e-01	0	39	104	0	63	65535
2026-01-11 03:07:44.26	357.85	6.67	-46.2	-71.1	3.7	7.50e-01	0	40	104	0	63	65534
2026-01-11 03:07:45.27	357.73	6.73	-46.2	-71.1	3.7	7.50e-01	0	39	104	0	63	65535
2026-01-11 03:07:46.27	357.61	6.79	-46.2	-71.1	3.7	7.52e-01	0	40	104	0	63	65534
2026-01-11 03:07:47.28	357.49	6.85	-46.2	-71.1	3.7	7.51e-01	0	40	104	0	63	65534
2026-01-11 03:07:48.28	357.37	6.91	-46.3	-71.1	3.7	7.54e-01	0	40	104	0	63	65533
2026-01-11 03:07:49.29	357.25	6.98	-46.3	-71.1	3.7	7.50e-01	0	40	104	0	63	65534
2026-01-11 03:07:50.29	357.12	7.04	-46.3	-71.1	3.7	7.50e-01	0	40	104	0	63	65535
2026-01-11 03:07:51.29	357.00	7.10	-46.3	-71.1	3.7	7.51e-01	0	40	104	0	63	65534
2026-01-11 03:07:52.30	356.88	7.16	-46.3	-71.1	3.7	7.49e-01	0	40	104	0	63	65534
2026-01-11 03:07:53.30	356.75	7.22	-46.3	-71.1	3.7	7.51e-01	0	40	104	0	63	65535
2026-01-11 03:07:54.31	356.62	7.28	-46.4	-71.1	3.7	7.48e-01	0	40	104	0	63	65534
2026-01-11 03:07:55.31	356.50	7.34	-46.3	-71.1	3.7	7.50e-01	0	40	104	0	63	65535
2026-01-11 03:07:56.32	356.37	7.40	-46.3	-71.1	3.7	7.49e-01	0	40	104	0	63	65533
2026-01-11 03:07:57.32	356.24	7.46	-46.3	-71.1	3.7	7.52e-01	0	40	104	0	63	65534
2026-01-11 03:07:58.33	356.12	7.52	-46.3	-71.1	3.7	7.47e-01	0	40	104	0	63	65535
2026-01-11 03:07:59.33	355.99	7.58	-46.3	-71.1	3.8	7.47e-01	0	40	104	0	63	65533
2026-01-11 03:08:00.34	355.86	7.65	-46.3	-71.1	3.8	7.42e-01	0	40	104	0	63	64988
2026-01-11 03:08:01.34	355.73	7.71	-46.3	-70.8	3.8	7.47e-01	0	40	104	0	63	63470
2026-01-11 03:08:02.34	355.60	7.77	-46.3	-70.7	3.8	7.44e-01	0	40	104	0	63	62117
2026-01-11 03:08:03.35	355.47	7.83	-46.3	-70.6	3.8	7.45e-01	0	40	104	0	63	61452
2026-01-11 03:08:04.35	355.34	7.89	-46.3	-70.7	3.8	7.45e-01	0	40	104	0	63	62044
2026-01-11 03:08:05.36	355.20	7.95	-46.3	-70.8	3.8	7.46e-01	0	40	104	0	63	63303
2026-01-11 03:08:06.36	355.07	8.01	-46.3	-71.0	3.8	7.49e-01	0	40	104	0	63	64710
2026-01-11 03:08:07.37	354.94	8.07	-46.3	-71.1	3.8	7.48e-01	0	40	104	0	63	65115
2026-01-11 03:08:08.37	354.80	8.13	-46.3	-71.0	3.8	7.46e-01	0	40	104	0	63	64363
2026-01-11 03:08:09.38	354.67	8.20	-46.3	-70.8	3.8	7.45e-01	0	40	104	0	63	63286
2026-01-11 03:08:10.38	354.53	8.26	-46.3	-70.8	3.8	7.45e-01	0	40	104	0	63	63425
2026-01-11 03:08:11.38	354.40	8.32	-46.4	-71.0	3.8	7.47e-01	0	40	104	0	63	64891
2026-01-11 03:08:12.39	354.26	8.38	-46.4	-71.1	3.8	7.43e-01	0	40	104	0	63	65218
2026-01-11 03:08:13.39	354.12	8.44	-46.4	-70.5	3.8	7.49e-01	0	40	104	0	63	61039
2026-01-11 03:08:14.40	353.99	8.50	-46.3	-69.2	3.8	7.47e-01	0	40	104	0	63	52669
2026-01-11 03:08:15.40	353.85	8.56	-46.1	-67.8	3.8	7.44e-01	0	40	104	0	63	44921
2026-01-11 03:08:16.41	353.71	8.63	-46.0	-66.7	3.8	7.41e-01	0	40	104	0	63	39282
2026-01-11 03:08:17.41	353.57	8.69	-45.9	-65.9	3.8	7.45e-01	0	40	104	0	63	35748
2026-01-11 03:08:18.41	353.43	8.75	-45.8	-65.3	3.8	7.42e-01	0	40	104	0	63	33361
2026-01-11 03:08:19.42	353.29	8.81	-45.7	-64.5	3.8	7.43e-01	0	40	104	0	63	30424
2026-01-11 03:08:20.42	353.15	8.87	-45.5	-63.6	3.8	7.45e-01	0	40	104	0	63	27524
2026-01-11 03:08:21.42	353.00	8.93	-45.3	-62.7	3.8	7.45e-01	0	40	104	0	62	26449
2026-01-11 03:08:22.43	352.86	8.99	-45.2	-62.0	3.8	7.46e-01	0	41	104	0	62	24277
2026-01-11 03:08:23.43	352.72	9.06	-45.1	-62.3	3.8	7.42e-01	0	40	104	0	62	25052
2026-01-11 03:08:24.44	352.57	9.12	-46.3	-65.9	3.8	7.50e-01	0	41	104	0	63	35804
2026-01-11 03:08:25.44	352.43	9.18	-46.0	-64.8	3.9	7.43e-01	0	40	104	0	64	29924
2026-01-11 03:08:26.44	352.28	9.24	-45.4	-59.2	3.8	7.47e-01	0	40	104	0	62	17600
2026-01-11 03:08:27.45	352.13	9.30	-44.9	-59.1	3.8	7.42e-01	0	40	104	0	61	18499
2026-01-11 03:08:28.45	351.99	9.36	-45.6	-59.3	3.8	7.49e-01	0	41	104	0	63	16758
2026-01-11 03:08:29.45	351.84	9.43	-44.8	-58.9	3.8	7.48e-01	0	41	104	0	61	17987
2026-01-11 03:08:30.46	351.69	9.49	-44.4	-58.8	3.8	7.46e-01	0	41	104	0	60	18835
2026-01-11 03:08:31.46	351.54	9.55	-44.5	-58.9	3.8	7.49e-01	0	41	104	0	60	19125
2026-01-11 03:08:32.46	351.39	9.61	-44.5	-58.6	3.8	7.42e-01	0	41	104	0	60	18515
2026-01-11 03:08:33.47	351.24	9.67	-45.4	-58.9	3.8	7.45e-01	0	40	104	0	61	18057
2026-01-11 03:08:34.47	351.09	9.73	-46.7	-60.2	3.8	7.44e-01	0	40	104	0	63	18629
2026-01-11 03:08:35.47	350.94	9.79	-46.2	-65.6	4.0	7.42e-01	0	41	104	0	64	32842
2026-01-11 03:08:36.48	350.79	9.86	-46.0	-59.3	3.8	7.43e-01	0	40	104	0	63	16751
2026-01-11 03:08:37.48	350.63	9.92	-46.1	-58.8	3.8	7.49e-01	0	41	104	0	63	15932
2026-01-11 03:08:38.48	350.48	9.98	-45.6	-58.6	3.8	7.45e-01	0	41	104	0	63	15580
2026-01-11 03:08:39.49	350.32	10.04	-45.2	-58.8	3.8	7.45e-01	0	41	104	0	62	16735
2026-01-11 03:08:40.49	350.17	10.10	-44.6	-58.7	3.8	7.48e-01	0	41	104	0	61	17648
2026-01-11 03:08:41.49	350.01	10.16	-44.2	-58.7	3.8	7.47e-01	0	41	104	0	60	18720
2026-01-11 03:08:42.50	349.85	10.22	-44.3	-59.2	3.8	7.44e-01	0	41	104	0	59	20838
2026-01-11 03:08:43.50	349.70	10.29	-44.5	-61.3	3.8	7.48e-01	0	41	104	0	60	25249
2026-01-11 03:08:44.50	349.54	10.35	-45.8	-64.9	4.0	7.41e-01	0	41	104	0	63	32067
2026-01-11 03:08:45.51	349.38	10.41	-43.7	-59.2	3.9	7.47e-01	0	40	104	0	59	20899
2026-01-11 03:08:46.51	349.22	10.47	-43.5	-58.6	3.8	7.46e-01	0	41	104	0	58	20751
2026-01-11 03:08:47.52	349.06	10.53	-43.6	-58.6	3.8	7.47e-01	0	41	104	0	58	20694
2026-01-11 03:08:48.52	348.90	10.59	-43.6	-58.5	3.8	7.47e-01	0	41	104	0	58	20440
2026-01-11 03:08:49.52	348.74	10.65	-43.7	-58.6	3.8	7.46e-01	0	41	104	0	58	20558
2026-01-11 03:08:50.52	348.57	10.71	-43.8	-58.8	3.8	7.46e-01	0	41	104	0	58	21068
2026-01-11 03:08:51.53	348.41	10.77	-43.7	-59.1	3.8	7.45e-01	0	41	104	0	58	21890
2026-01-11 03:08:52.53	348.24	10.84	-44.2	-61.0	3.8	7.46e-01	0	41	104	0	58	27139
2026-01-11 03:08:53.53	348.08	10.90	-44.5	-64.5	4.0	7.41e-01	0	41	104	0	61	34290
2026-01-11 03:08:54.54	347.91	10.96	-43.5	-59.3	3.9	7.42e-01	0	41	104	0	59	21235
2026-01-11 03:08:55.54	347.75	11.02	-43.2	-58.5	3.8	7.47e-01	0	41	104	0	58	20310
2026-01-11 03:08:56.54	347.58	11.08	-43.2	-58.5	3.8	7.49e-01	0	41	104	0	58	20504
2026-01-11 03:08:57.55	347.41	11.14	-43.3	-58.4	3.8	7.47e-01	0	41	104	0	58	20284
2026-01-11 03:08:58.55	347.24	11.20	-43.5	-58.5	3.8	7.47e-01	0	41	104	0	58	20325
2026-01-11 03:08:59.55	347.07	11.26	-43.9	-58.8	3.8	7.44e-01	0	41	104	0	58	21156
2026-01-11 03:09:00.55	346.90	11.32	-44.5	-59.7	3.7	7.46e-01	0	41	104	0	59	22024
2026-01-11 03:09:01.56	346.73	11.38	-45.9	-61.5	3.8	7.49e-01	0	41	104	0	62	23041
2026-01-11 03:09:02.56	346.56	11.44	-49.9	-61.9	9.3	6.39e-01	0	41	0	524288	70	15160
2026-01-11 03:09:03.56	346.39	11.50	-48.3	-54.7	14.8	6.03e-01	0	41	0	524288	68	7441
2026-01-11 03:09:04.57	346.21	11.56	-46.4	-51.7	18.6	6.02e-01	0	41	0	2621440	64	6640
2026-01-11 03:09:05.57	346.04	11.62	-46.8	-52.0	18.2	6.05e-01	0	41	0	4718592	64	6874
2026-01-11 03:09:06.57	345.86	11.68	-46.8	-51.6	18.7	5.99e-01	0	41	0	6291456	64	6499
2026-01-11 03:09:07.58	345.69	11.74	-47.0	-51.7	18.5	6.00e-01	0	41	0	8388608	64	6621
2026-01-11 03:09:08.58	345.51	11.80	-47.1	-51.9	18.4	6.01e-01	0	41	0	9961472	64	6764
2026-01-11 03:09:09.58	345.33	11.86	-47.0	-51.9	18.5	6.02e-01	0	41	0	12058624	64	6725
2026-01-11 03:09:10.58	345.16	11.92	-46.9	-51.8	18.5	6.00e-01	0	41	0	13631488	64	6678
2026-01-11 03:09:11.59	344.97	11.98	-46.8	-51.5	18.8	6.03e-01	0	41	0	15728640	64	6439
2026-01-11 03:09:12.59	344.80	12.04	-46.7	-51.5	18.9	6.02e-01	0	41	0	17825792	64	6429
2026-01-11 03:09:13.59	344.62	12.10	-46.6	-51.2	19.1	6.02e-01	0	41	0	19398656	64	6266
2026-01-11 03:09:14.59	344.43	12.16	-46.5	-51.2	19.1	6.01e-01	0	41	0	21495808	64	6220
2026-01-11 03:09:15.60	344.25	12.22	-46.7	-51.4	18.9	6.01e-01	0	41	0	23068672	64	6377
2026-01-11 03:09:16.60	344.07	12.28	-46.7	-51.2	19.1	5.99e-01	0	41	0	25165824	64	6220
2026-01-11 03:09:17.60	343.88	12.34	-46.6	-51.2	19.2	6.03e-01	0	41	0	27262976	64	6213
2026-01-11 03:09:18.61	343.70	12.39	-46.4	-51.1	19.3	6.02e-01	0	41	0	28835840	64	6201
2026-01-11 03:09:19.61	343.51	12.45	-46.1	-51.2	19.2	6.03e-01	0	41	0	30932992	64	6216
2026-01-11 03:09:20.62	343.33	12.51	-46.0	-51.1	19.3	6.02e-01	0	41	0	32505856	63	6532
2026-01-11 03:09:21.62	343.14	12.57	-45.8	-51.2	19.3	6.02e-01	0	41	0	34603008	63	6611
2026-01-11 03:09:22.63	342.95	12.63	-45.6	-51.0	19.3	6.03e-01	0	41	0	36175872	63	6460
2026-01-11 03:09:23.63	342.76	12.69	-45.2	-50.5	19.9	6.00e-01	0	41	0	38273024	62	6427
2026-01-11 03:09:24.63	342.57	12.74	-45.0	-50.2	20.1	6.03e-01	0	41	0	40370176	61	6590
2026-01-11 03:09:25.64	342.38	12.80	-44.9	-50.2	20.2	6.03e-01	0	41	0	41943040	61	6599
2026-01-11 03:09:26.64	342.19	12.86	-45.0	-50.1	20.1	6.01e-01	0	41	0	44040192	61	6563
2026-01-11 03:09:27.64	342.00	12.92	-44.9	-49.8	20.4	6.00e-01	0	41	0	45613056	61	6345
2026-01-11 03:09:28.65	341.81	12.98	-45.0	-49.7	20.6	6.03e-01	0	41	0	47710208	61	6232
2026-01-11 03:09:29.65	341.61	13.03	-44.9	-49.5	20.8	6.03e-01	0	41	0	49807360	61	6070
2026-01-11 03:09:30.66	341.42	13.09	-45.1	-49.4	20.9	6.00e-01	0	41	0	51380224	61	6060
2026-01-11 03:09:31.66	341.22	13.15	-45.2	-49.4	21.0	6.03e-01	0	41	0	53477376	61	6010
2026-01-11 03:09:32.66	341.03	13.20	-45.2	-49.2	21.1	6.02e-01	0	41	0	55050240	61	5873
2026-01-11 03:09:33.67	340.83	13.26	-45.3	-49.1	21.1	6.03e-01	0	41	0	57147392	61	5829
2026-01-11 03:09:34.67	340.63	13.32	-45.4	-49.2	21.2	6.00e-01	0	41	0	59244544	61	5863
2026-01-11 03:09:35.67	340.43	13.37	-45.4	-49.1	21.2	6.04e-01	0	41	0	60817408	61	5850
2026-01-11 03:09:36.67	340.23	13.43	-45.2	-48.8	21.4	6.03e-01	0	41	0	62914560	61	5649
2026-01-11 03:09:37.68	340.03	13.49	-45.0	-48.6	21.6	6.01e-01	0	41	0	64487424	61	5527
2026-01-11 03:09:38.68	339.83	13.54	-44.8	-48.4	21.8	6.02e-01	0	41	0	66584576	61	5394
2026-01-11 03:09:39.68	339.63	13.60	-44.8	-48.3	21.9	6.01e-01	0	41	0	68157440	61	5327
2026-01-11 03:09:40.69	339.43	13.65	-44.7	-48.3	21.9	6.01e-01	0	41	0	70254592	61	5313
2026-01-11 03:09:41.69	339.22	13.71	-44.9	-48.5	21.8	6.02e-01	0	41	0	72351744	61	5422
2026-01-11 03:09:42.69	339.02	13.76	-44.9	-48.4	21.9	6.00e-01	0	41	0	73924608	61	5357
2026-01-11 03:09:43.69	338.81	13.82	-44.8	-48.2	22.0	6.03e-01	0	41	0	76021760	61	5258
2026-01-11 03:09:44.70	338.61	13.87	-44.7	-48.2	22.0	6.03e-01	0	41	0	78118912	61	5258
2026-01-11 03:09:45.70	338.40	13.93	-44.6	-48.3	22.0	6.01e-01	0	41	0	79691776	61	5288
2026-01-11 03:09:46.71	338.19	13.98	-44.4	-48.2	22.0	6.04e-01	0	41	0	81788928	60	5586
2026-01-11 03:09:47.71	337.98	14.03	-44.4	-48.3	21.9	6.00e-01	0	41	0	83361792	60	5616
2026-01-11 03:09:48.71	337.77	14.09	-44.4	-48.2	21.9	6.02e-01	0	41	0	85458944	60	5585
2026-01-11 03:09:49.72	337.56	14.14	-44.5	-48.1	22.1	6.01e-01	0	41	0	87031808	60	5489
2026-01-11 03:09:50.72	337.35	14.19	-44.7	-48.1	22.1	6.00e-01	0	41	0	89128960	60	5521
2026-01-11 03:09:51.73	337.14	14.25	-44.9	-48.1	22.1	6.01e-01	0	41	0	91226112	60	5512
2026-01-11 03:09:52.73	336.93	14.30	-45.0	-48.1	22.1	6.00e-01	0	41	0	92798976	60	5504
2026-01-11 03:09:53.73	336.71	14.35	-45.0	-48.1	22.1	6.02e-01	0	41	0	94896128	60	5488
2026-01-11 03:09:54.74	336.50	14.40	-44.8	-48.0	22.2	6.01e-01	0	41	0	96468992	60	5450
2026-01-11 03:09:55.74	336.28	14.46	-44.8	-48.1	22.2	6.02e-01	0	41	0	98566144	60	5485
2026-01-11 03:09:56.74	336.07	14.51	-44.9	-48.2	22.0	6.03e-01	0	41	0	100139008	60	5592
2026-01-11 03:09:57.74	335.85	14.56	-45.0	-48.2	22.1	6.03e-01	0	41	0	102236160	60	5581
2026-01-11 03:09:58.75	335.63	14.61	-45.2	-48.2	22.0	6.01e-01	0	41	0	104333312	60	5572
2026-01-11 03:09:59.75	335.42	14.66	-45.3	-48.2	22.0	6.03e-01	0	41	0	105906176	61	5260
2026-01-11 03:10:00.76	335.20	14.71	-45.1	-48.1	22.1	6.00e-01	0	41	0	108003328	61	5214
2026-01-11 03:10:01.76	334.98	14.76	-44.9	-48.1	22.1	6.01e-01	0	41	0	109576192	61	5218
2026-01-11 03:10:02.76	334.76	14.81	-44.7	-48.1	22.2	6.02e-01	0	41	0	111673344	61	5166
2026-01-11 03:10:03.77	334.53	14.86	-44.6	-48.2	22.1	6.05e-01	0	41	0	113770496	61	5240
2026-01-11 03:10:04.77	334.31	14.91	-44.5	-48.2	22.1	6.02e-01	0	41	0	115343360	60	5564
2026-01-11 03:10:05.77	334.09	14.96	-44.7	-48.3	22.0	6.02e-01	0	41	0	117440512	60	5634
2026-01-11 03:10:06.78	333.86	15.01	-45.1	-48.4	21.9	6.02e-01	0	41	0	119013376	60	5673
2026-01-11 03:10:07.79	333.64	15.06	-45.2	-48.3	22.0	6.03e-01	0	41	0	121110528	60	5621
2026-01-11 03:10:08.79	333.41	15.11	-45.3	-48.2	22.0	6.02e-01	0	41	0	123207680	61	5276
2026-01-11 03:10:09.79	333.19	15.15	-45.2	-48.1	22.2	6.04e-01	0	41	0	124780544	61	5198
2026-01-11 03:10:10.80	332.96	15.20	-45.0	-48.1	22.2	6.00e-01	0	41	0	126877696	61	5204
2026-01-11 03:10:11.80	332.73	15.25	-44.8	-48.1	22.1	6.02e-01	0	41	0	128450560	61	5180
2026-01-11 03:10:12.80	332.50	15.30	-44.7	-48.2	22.1	6.02e-01	0	41	0	130547712	61	5238
2026-01-11 03:10:13.80	332.27	15.34	-44.7	-48.3	21.6	6.02e-01	0	41	0	132644864	61	5309
2026-01-11 03:10:14.81	332.04	15.39	-44.8	-48.3	22.0	6.01e-01	0	41	0	134217728	61	5285
2026-01-11 03:10:15.81	331.81	15.43	-44.9	-48.2	22.1	6.03e-01	0	41	0	136314880	61	5256
2026-01-11 03:10:16.81	331.58	15.48	-45.1	-48.2	22.1	6.03e-01	0	41	0	137887744	61	5220
2026-01-11 03:10:17.81	331.35	15.53	-45.2	-48.2	22.1	6.01e-01	0	41	0	139984896	61	5231
2026-01-11 03:10:18.82	331.11	15.57	-45.0	-48.1	22.1	6.02e-01	0	41	0	141557760	61	5208
2026-01-11 03:10:19.82	330.88	15.61	-44.9	-48.1	22.2	6.00e-01	0	41	0	143654912	61	5195
2026-01-11 03:10:20.82	330.64	15.66	-44.8	-48.2	22.1	6.03e-01	0	41	0	145752064	61	5230
2026-01-11 03:10:21.83	330.41	15.70	-44.8	-48.2	22.1	6.02e-01	0	41	0	147324928	61	5246
2026-01-11 03:10:22.83	330.17	15.75	-44.9	-48.3	22.0	6.02e-01	0	41	0	149422080	61	5282
2026-01-11 03:10:23.83	329.94	15.79	-45.1	-48.3	22.0	6.02e-01	0	41	0	150994944	61	5314
2026-01-11 03:10:24.84	329.70	15.83	-45.2	-48.2	22.1	6.00e-01	0	41	0	153092096	61	5279
2026-01-11 03:10:25.84	329.46	15.87	-45.3	-48.3	22.0	6.02e-01	0	41	0	154664960	61	5303
2026-01-11 03:10:26.84	329.22	15.91	-45.1	-48.1	22.2	6.00e-01	0	42	0	156762112	61	5197
2026-01-11 03:10:27.84	328.98	15.96	-45.1	-48.2	22.1	5.99e-01	0	41	0	158859264	61	5242
2026-01-11 03:10:28.85	328.74	16.00	-45.1	-48.2	22.1	6.03e-01	0	41	0	160432128	61	5278
2026-01-11 03:10:29.85	328.50	16.04	-45.2	-48.3	22.0	6.00e-01	0	41	0	162529280	61	5305
2026-01-11 03:10:30.85	328.26	16.08	-45.2	-48.4	22.0	6.02e-01	0	41	0	164626432	61	5354
2026-01-11 03:10:31.86	328.01	16.12	-45.1	-48.1	22.1	6.05e-01	0	42	0	166199296	61	5216
2026-01-11 03:10:32.86	327.77	16.16	-45.0	-48.1	22.2	6.00e-01	0	41	0	168296448	61	5210
2026-01-11 03:10:33.86	327.53	16.19	-44.9	-48.2	22.1	6.02e-01	0	41	0	169869312	61	5251
2026-01-11 03:10:34.87	327.28	16.23	-45.0	-48.3	22.0	6.01e-01	0	41	0	171966464	61	5328
2026-01-11 03:10:35.87	327.03	16.27	-44.8	-48.3	22.0	6.03e-01	0	41	0	173539328	61	5292
2026-01-11 03:10:36.87	326.79	16.31	-44.8	-48.3	22.0	6.01e-01	0	42	0	175636480	61	5325
2026-01-11 03:10:37.87	326.54	16.35	-44.7	-48.3	22.0	6.03e-01	0	41	0	177733632	61	5313
2026-01-11 03:10:38.88	326.29	16.38	-44.6	-48.3	22.0	6.02e-01	0	42	0	179306496	61	5292
2026-01-11 03:10:39.88	326.05	16.42	-44.5	-48.3	22.0	6.02e-01	0	41	0	181403648	61	5332
2026-01-11 03:10:40.89	325.79	16.45	-44.6	-48.4	21.9	6.02e-01	0	41	0	182976512	61	5358
2026-01-11 03:10:41.89	325.55	16.49	-44.6	-48.3	22.0	6.04e-01	0	41	0	185073664	61	5301
2026-01-11 03:10:42.89	325.30	16.52	-44.9	-48.4	21.9	6.03e-01	0	41	0	186646528	61	5371
2026-01-11 03:10:43.90	325.04	16.56	-45.1	-48.3	22.0	6.02e-01	0	41	0	188743680	61	5332
2026-01-11 03:10:44.90	324.79	16.59	-45.3	-48.4	21.9	6.04e-01	0	41	0	190840832	61	5397
2026-01-11 03:10:45.90	324.54	16.63	-45.4	-48.4	21.5	6.04e-01	0	41	0	192413696	61	5382
2026-01-11 03:10:46.90	324.29	16.66	-45.4	-48.5	21.9	6.01e-01	0	41	0	194510848	61	5416
2026-01-11 03:10:47.91	324.04	16.69	-45.4	-48.4	21.9	6.04e-01	0	41	0	196608000	61	5397
2026-01-11 03:10:48.91	323.78	16.72	-45.4	-48.4	22.0	6.03e-01	0	41	0	198180864	61	5349
2026-01-11 03:10:49.91	323.53	16.75	-45.4	-48.6	21.7	6.00e-01	0	41	0	200278016	61	5506
2026-01-11 03:10:50.92	323.27	16.78	-45.2	-48.4	21.9	6.03e-01	0	41	0	201850880	61	5391
2026-01-11 03:10:51.92	323.02	16.81	-45.1	-48.4	22.0	6.02e-01	0	42	0	203948032	61	5372
2026-01-11 03:10:52.92	322.76	16.84	-44.9	-48.3	22.0	6.01e-01	0	42	0	205520896	61	5323
2026-01-11 03:10:53.93	322.50	16.87	-44.9	-48.3	22.1	6.03e-01	0	41	0	207618048	61	5298
2026-01-11 03:10:54.93	322.25	16.90	-45.0	-48.4	21.9	6.01e-01	0	41	0	209715200	61	5359
2026-01-11 03:10:55.93	321.99	16.93	-45.1	-48.3	22.0	6.02e-01	0	41	0	211288064	61	5316
2026-01-11 03:10:56.94	321.73	16.96	-45.5	-48.7	21.7	6.02e-01	0	41	0	213385216	61	5544
2026-01-11 03:10:57.94	321.47	16.99	-45.4	-48.4	21.9	6.02e-01	0	41	0	214958080	61	5354
2026-01-11 03:10:58.95	321.21	17.01	-45.4	-48.5	21.9	6.02e-01	0	41	0	217055232	61	5416
2026-01-11 03:10:59.95	320.95	17.04	-45.2	-48.2	22.1	6.02e-01	0	41	0	219152384	61	5259
2026-01-11 03:11:00.95	320.69	17.06	-45.2	-48.3	22.1	6.01e-01	0	41	0	220725248	61	5316
2026-01-11 03:11:01.96	320.43	17.09	-45.3	-48.4	21.9	6.03e-01	0	41	0	222822400	61	5401
2026-01-11 03:11:02.96	320.17	17.11	-45.2	-48.3	22.1	6.03e-01	0	41	0	224395264	61	5308
2026-01-11 03:11:03.96	319.91	17.14	-45.3	-48.5	21.8	6.00e-01	0	41	0	226492416	61	5455
2026-01-11 03:11:04.97	319.65	17.16	-45.3	-48.6	21.8	6.00e-01	0	41	0	228589568	61	5482
2026-01-11 03:11:05.97	319.39	17.18	-45.3	-48.5	21.8	6.01e-01	0	41	0	230162432	61	5452
2026-01-11 03:11:06.97	319.12	17.21	-45.1	-48.3	22.1	6.01e-01	0	42	0	232259584	61	5280
2026-01-11 03:11:07.98	318.86	17.23	-45.2	-48.5	21.9	5.98e-01	0	41	0	233832448	61	5415
2026-01-11 03:11:08.98	318.60	17.25	-45.3	-48.5	21.8	6.02e-01	0	42	0	235929600	61	5447
2026-01-11 03:11:09.98	318.33	17.27	-45.4	-48.8	21.7	6.01e-01	0	41	0	237502464	61	5596
2026-01-11 03:11:10.99	318.07	17.29	-45.2	-48.6	21.7	5.99e-01	0	41	0	239599616	61	5493
2026-01-11 03:11:11.99	317.80	17.31	-45.4	-48.7	21.7	6.00e-01	0	41	0	241696768	61	5571
2026-01-11 03:11:12.99	317.54	17.33	-45.3	-48.5	21.8	5.99e-01	0	41	0	243269632	61	5419
2026-01-11 03:11:14.00	317.27	17.35	-45.3	-48.5	21.9	6.01e-01	0	41	0	245366784	61	5433
2026-01-11 03:11:15.00	317.01	17.36	-45.3	-48.5	21.8	6.01e-01	0	41	0	246939648	61	5453
2026-01-11 03:11:16.00	316.74	17.38	-45.4	-48.6	21.8	6.00e-01	0	41	0	249036800	61	5494
2026-01-11 03:11:17.01	316.47	17.40	-45.3	-48.4	22.0	6.00e-01	0	41	0	251133952	61	5354
2026-01-11 03:11:18.01	316.21	17.41	-45.5	-48.6	21.8	6.03e-01	0	41	0	252706816	61	5482
2026-01-11 03:11:19.02	315.94	17.43	-45.5	-48.6	21.7	6.01e-01	0	41	0	254803968	61	5479
2026-01-11 03:11:20.02	315.67	17.44	-45.6	-48.7	21.7	6.01e-01	0	41	0	256376832	61	5542
2026-01-11 03:11:21.02	315.40	17.46	-45.7	-48.8	21.6	6.03e-01	0	41	0	258473984	62	5288
2026-01-11 03:11:22.02	315.14	17.47	-45.8	-48.9	21.6	6.04e-01	0	42	0	260046848	62	5353
2026-01-11 03:11:23.03	314.87	17.48	-45.6	-48.7	21.7	6.00e-01	0	41	0	262144000	62	5238
2026-01-11 03:11:24.03	314.60	17.49	-45.6	-48.9	21.5	6.00e-01	0	41	0	264241152	62	5381
2026-01-11 03:11:25.03	314.33	17.51	-45.3	-48.7	21.6	6.03e-01	0	41	0	265814016	62	5279
2026-01-11 03:11:26.03	314.06	17.52	-45.5	-48.9	21.5	6.02e-01	0	42	0	267911168	62	5393
2026-01-11 03:11:27.03	313.79	17.53	-45.4	-48.7	21.6	6.02e-01	0	41	0	269484032	62	5256
2026-01-11 03:11:28.04	313.52	17.54	-45.9	-49.3	21.2	6.01e-01	0	41	0	271581184	62	5616
2026-01-11 03:11:29.04	313.25	17.55	-45.4	-48.6	21.8	6.04e-01	0	41	0	273678336	62	5177
2026-01-11 03:11:30.04	312.99	17.55	-45.7	-49.0	21.5	6.03e-01	0	41	0	275251200	62	5412
2026-01-11 03:11:31.04	312.72	17.56	-45.6	-48.7	21.7	6.04e-01	0	42	0	277348352	62	5231
2026-01-11 03:11:32.05	312.45	17.57	-46.1	-49.4	21.1	6.02e-01	0	42	0	278921216	62	5670
2026-01-11 03:11:33.05	312.18	17.58	-45.5	-48.4	22.0	6.03e-01	0	41	0	281018368	62	5066
2026-01-11 03:11:34.05	311.91	17.58	-45.8	-48.9	21.6	6.03e-01	0	41	0	283115520	62	5367
2026-01-11 03:11:35.06	311.63	17.59	-45.5	-48.4	21.9	6.03e-01	0	41	0	284688384	62	5096
2026-01-11 03:11:36.06	311.36	17.59	-46.0	-49.2	21.3	6.01e-01	0	41	0	286785536	62	5543
2026-01-11 03:11:37.06	311.09	17.60	-45.4	-48.3	22.0	6.01e-01	0	42	0	288358400	62	5012
2026-01-11 03:11:38.07	310.82	17.60	-45.8	-49.0	21.4	6.03e-01	0	41	0	290455552	62	5454
2026-01-11 03:11:39.07	310.55	17.60	-45.4	-48.4	22.0	6.00e-01	0	42	0	292028416	62	5046
2026-01-11 03:11:40.07	310.28	17.61	-46.0	-49.4	21.1	5.99e-01	0	41	0	294125568	62	5684
2026-01-11 03:11:41.08	310.01	17.61	-45.5	-48.6	21.8	6.02e-01	0	42	0	296222720	62	5209
2026-01-11 03:11:42.08	309.74	17.61	-46.2	-49.7	20.8	6.02e-01	0	42	0	297795584	62	5880
2026-01-11 03:11:43.08	309.47	17.61	-45.8	-49.1	21.4	6.01e-01	0	42	0	299892736	62	5471
2026-01-11 03:11:44.09	309.20	17.61	-46.4	-50.0	20.5	6.02e-01	0	42	0	301465600	63	5759
2026-01-11 03:11:45.09	308.93	17.61	-46.0	-49.4	21.1	6.01e-01	0	42	0	303562752	63	5359
2026-01-11 03:11:46.09	308.66	17.61	-46.1	-49.5	20.9	6.02e-01	0	41	0	305135616	63	5436
2026-01-11 03:11:47.10	308.38	17.61	-45.8	-49.0	21.5	6.01e-01	0	41	0	307232768	63	5111
2026-01-11 03:11:48.10	308.11	17.60	-45.8	-48.9	21.5	6.01e-01	0	41	0	309329920	63	5078
2026-01-11 03:11:49.10	307.84	17.60	-45.9	-49.0	21.4	6.02e-01	0	42	0	310902784	63	5107
2026-01-11 03:11:50.11	307.57	17.60	-45.9	-48.9	21.5	6.03e-01	0	42	0	312999936	63	5077
2026-01-11 03:11:51.11	307.30	17.59	-45.7	-48.7	21.7	6.00e-01	0	41	0	315097088	63	4927
2026-01-11 03:11:52.11	307.03	17.59	-46.2	-49.4	21.1	6.02e-01	0	42	0	316669952	63	5356
2026-01-11 03:11:53.12	306.76	17.58	-46.0	-49.1	21.4	6.01e-01	0	41	0	318767104	63	5164
2026-01-11 03:11:54.12	306.49	17.57	-46.1	-49.2	21.1	6.02e-01	0	41	0	320339968	63	5275
2026-01-11 03:11:55.13	306.22	17.57	-46.0	-49.1	21.4	6.00e-01	0	42	0	322437120	63	5184
2026-01-11 03:11:56.13	305.95	17.56	-45.5	-48.5	21.9	6.03e-01	0	41	0	324009984	63	4824
2026-01-11 03:11:57.13	305.68	17.55	-46.0	-49.1	21.3	5.99e-01	0	42	0	326107136	63	5218
2026-01-11 03:11:58.14	305.41	17.54	-45.5	-48.5	21.9	6.02e-01	0	42	0	328204288	63	4845
2026-01-11 03:11:59.14	305.14	17.53	-46.1	-49.4	21.1	6.03e-01	0	42	0	329777152	63	5342
2026-01-11 03:12:00.14	304.87	17.52	-45.9	-48.9	21.5	5.99e-01	0	42	0	331874304	63	5098
2026-01-11 03:12:01.14	304.60	17.51	-46.2	-49.4	21.1	6.02e-01	0	42	0	333447168	63	5364
2026-01-11 03:12:02.15	304.33	17.50	-45.9	-48.9	21.5	6.02e-01	0	42	0	335544320	63	5078
2026-01-11 03:12:03.15	304.06	17.49	-45.9	-48.8	21.6	6.01e-01	0	41	0	337641472	63	5022
2026-01-11 03:12:04.15	303.80	17.48	-46.4	-49.6	20.9	6.03e-01	0	42	0	339214336	63	5511
2026-01-11 03:12:05.16	303.53	17.46	-45.8	-48.7	21.7	6.04e-01	0	42	0	341311488	63	4938
2026-01-11 03:12:06.16	303.26	17.45	-46.6	-49.9	19.9	5.99e-01	0	41	0	342884352	63	5703
2026-01-11 03:12:07.16	302.99	17.43	-46.3	-49.5	21.0	6.01e-01	0	42	0	344981504	63	5434
2026-01-11 03:12:08.17	302.72	17.42	-46.3	-49.4	21.0	6.02e-01	0	41	0	347078656	63	5393
2026-01-11 03:12:09.17	302.46	17.40	-46.9	-50.4	20.0	6.01e-01	0	41	0	348651520	64	5697
2026-01-11 03:12:10.18	302.19	17.39	-46.5	-49.8	20.5	6.02e-01	0	41	0	350748672	64	5289
2026-01-11 03:12:11.18	301.92	17.37	-46.6	-50.1	20.4	6.01e-01	0	42	0	352321536	64	5477
2026-01-11 03:12:12.18	301.66	17.35	-46.5	-50.0	20.3	6.00e-01	0	41	0	354418688	64	5414
2026-01-11 03:12:13.18	301.39	17.34	-46.5	-49.9	20.5	6.03e-01	0	42	0	355991552	64	5377
2026-01-11 03:12:14.19	301.12	17.32	-47.3	-51.3	19.1	6.00e-01	0	42	0	358088704	65	5931
2026-01-11 03:12:15.19	300.86	17.30	-46.4	-49.7	20.4	6.01e-01	0	41	0	360185856	64	5276
2026-01-11 03:12:16.19	300.59	17.28	-46.9	-50.5	19.9	6.05e-01	0	42	0	361758720	64	5755
2026-01-11 03:12:17.20	300.33	17.26	-46.8	-50.4	20.0	5.99e-01	0	42	0	363855872	65	5355
2026-01-11 03:12:18.20	300.06	17.24	-46.6	-50.0	20.4	6.03e-01	0	42	0	365428736	65	5114
2026-01-11 03:12:19.20	299.80	17.22	-46.8	-50.3	20.2	6.01e-01	0	42	0	367525888	65	5306
2026-01-11 03:12:20.21	299.54	17.19	-46.7	-50.1	20.2	6.03e-01	0	41	0	369623040	65	5209
2026-01-11 03:12:21.21	299.27	17.17	-46.6	-50.1	20.4	6.03e-01	0	42	0	371195904	64	5465
2026-01-11 03:12:22.21	299.01	17.15	-47.6	-51.6	18.9	5.99e-01	0	42	0	373293056	65	6195
2026-01-11 03:12:23.22	298.75	17.12	-46.7	-50.1	20.3	6.03e-01	0	41	0	374865920	65	5202
2026-01-11 03:12:24.22	298.49	17.10	-47.7	-51.9	18.6	6.01e-01	0	41	0	376963072	65	6359
2026-01-11 03:12:25.22	298.23	17.08	-47.1	-50.9	19.5	6.00e-01	0	41	0	379060224	66	5386
2026-01-11 03:12:26.23	297.96	17.05	-47.0	-50.8	19.7	6.00e-01	0	41	0	380633088	65	5615
2026-01-11 03:12:27.23	297.70	17.02	-47.2	-51.1	19.4	5.99e-01	0	42	0	382730240	65	5822
2026-01-11 03:12:28.24	297.44	17.00	-47.2	-51.1	19.3	6.03e-01	0	41	0	384303104	65	5822
2026-01-11 03:12:29.24	297.18	16.97	-46.2	-49.6	20.7	6.00e-01	0	41	0	386400256	64	5190
2026-01-11 03:12:30.24	296.93	16.94	-46.6	-50.0	20.4	6.02e-01	0	42	0	387973120	64	5458
2026-01-11 03:12:31.24	296.67	16.92	-46.2	-49.5	20.7	6.03e-01	0	41	0	390070272	64	5123
2026-01-11 03:12:32.25	296.41	16.89	-45.3	-48.2	22.1	6.02e-01	0	42	0	392167424	62	4958
2026-01-11 03:12:33.25	296.15	16.86	-46.7	-50.2	20.2	6.00e-01	0	42	0	393740288	64	5551
2026-01-11 03:12:34.26	295.89	16.83	-45.8	-48.7	21.6	6.01e-01	0	42	0	395837440	63	4980
2026-01-11 03:12:35.26	295.64	16.80	-46.3	-49.6	20.9	6.02e-01	0	41	0	397410304	63	5492
2026-01-11 03:12:36.26	295.38	16.77	-46.3	-49.6	20.7	6.01e-01	0	42	0	399507456	63	5524
2026-01-11 03:12:37.26	295.13	16.74	-46.0	-49.1	21.3	6.01e-01	0	42	0	401604608	63	5171
2026-01-11 03:12:38.27	294.87	16.70	-45.7	-48.7	21.7	6.02e-01	0	42	0	403177472	63	4941
2026-01-11 03:12:39.27	294.62	16.67	-46.0	-49.2	21.3	6.01e-01	0	42	0	405274624	63	5230
2026-01-11 03:12:40.27	294.37	16.64	-46.1	-49.2	21.2	6.03e-01	0	42	0	406847488	63	5245
2026-01-11 03:12:41.27	294.11	16.61	-45.9	-48.9	21.5	6.00e-01	0	42	0	408944640	63	5048
2026-01-11 03:12:42.28	293.86	16.57	-46.2	-49.4	21.0	6.01e-01	0	42	0	410517504	63	5374
2026-01-11 03:12:43.28	293.61	16.54	-46.1	-49.2	21.2	6.02e-01	0	42	0	412614656	63	5226
2026-01-11 03:12:44.28	293.36	16.50	-46.2	-49.3	21.2	6.03e-01	0	42	0	414711808	63	5281
2026-01-11 03:12:45.29	293.11	16.47	-46.1	-49.1	21.2	6.04e-01	0	42	0	416284672	63	5207
2026-01-11 03:12:46.29	292.86	16.43	-45.9	-48.9	21.5	6.00e-01	0	41	0	418381824	63	5058
2026-01-11 03:12:47.29	292.61	16.40	-46.0	-49.1	21.2	5.99e-01	0	41	0	420478976	63	5194
2026-01-11 03:12:48.30	292.36	16.36	-45.4	-48.2	22.1	6.00e-01	0	42	0	422051840	62	4981
2026-01-11 03:12:49.30	292.11	16.32	-45.9	-48.9	21.5	6.00e-01	0	41	0	424148992	62	5391
2026-01-11 03:12:50.31	291.86	16.29	-45.8	-48.8	21.5	6.02e-01	0	42	0	425721856	62	5340
2026-01-11 03:12:51.31	291.62	16.25	-45.6	-48.5	21.8	6.01e-01	0	42	0	427819008	62	5135
2026-01-11 03:12:52.31	291.37	16.21	-46.1	-49.2	21.2	6.02e-01	0	41	0	429391872	62	5569
2026-01-11 03:12:53.31	291.13	16.17	-46.2	-49.3	21.0	6.00e-01	0	42	0	431489024	63	5299
2026-01-11 03:12:54.32	290.88	16.13	-46.2	-49.3	21.1	6.02e-01	0	41	0	433586176	63	5319
2026-01-11 03:12:55.32	290.64	16.09	-45.9	-48.9	21.4	6.04e-01	0	42	0	435159040	63	5080
2026-01-11 03:12:56.32	290.39	16.05	-45.6	-48.6	21.8	6.02e-01	0	42	0	437256192	63	4890
2026-01-11 03:12:57.32	290.15	16.01	-45.8	-48.9	21.5	6.00e-01	0	42	0	438829056	63	5058
2026-01-11 03:12:58.33	289.91	15.97	-45.9	-49.0	21.4	6.00e-01	0	42	0	440926208	63	5117
2026-01-11 03:12:59.33	289.67	15.93	-45.9	-48.9	21.4	6.03e-01	0	41	0	442499072	63	5098
2026-01-11 03:13:00.33	289.43	15.89	-45.8	-48.8	21.5	6.01e-01	0	42	0	444596224	63	5039
2026-01-11 03:13:01.34	289.19	15.85	-46.0	-49.3	21.2	6.02e-01	0	42	0	446693376	63	5285
2026-01-11 03:13:02.34	288.95	15.81	-46.1	-49.4	21.0	6.04e-01	0	42	0	448266240	63	5369
2026-01-11 03:13:03.34	288.71	15.76	-46.0	-49.2	21.2	6.03e-01	0	42	0	450363392	63	5247
2026-01-11 03:13:04.34	288.47	15.72	-46.1	-49.3	21.1	6.01e-01	0	42	0	451936256	63	5335
2026-01-11 03:13:05.34	288.24	15.68	-46.4	-49.7	20.7	6.00e-01	0	42	0	454033408	63	5567
2026-01-11 03:13:06.34	288.00	15.63	-45.6	-48.5	21.8	6.02e-01	0	42	0	455606272	63	4832
2026-01-11 03:13:07.35	287.77	15.59	-45.4	-48.2	22.1	6.02e-01	0	42	0	457703424	62	4952
2026-01-11 03:13:08.35	287.53	15.54	-45.9	-49.0	21.4	6.02e-01	0	42	0	459800576	62	5405
2026-01-11 03:13:09.35	287.30	15.50	-46.0	-49.0	21.2	6.04e-01	0	42	0	461373440	62	5463
2026-01-11 03:13:10.36	287.06	15.45	-45.5	-48.4	21.8	6.01e-01	0	42	0	463470592	62	5073
2026-01-11 03:13:11.36	286.83	15.41	-45.8	-48.7	21.6	6.03e-01	0	42	0	465567744	62	5275
2026-01-11 03:13:12.36	286.60	15.36	-46.2	-49.3	21.1	6.03e-01	0	42	0	467140608	63	5332
2026-01-11 03:13:13.36	286.37	15.31	-45.7	-48.7	21.6	6.00e-01	0	42	0	469237760	63	4950
2026-01-11 03:13:14.37	286.14	15.27	-45.6	-48.5	21.8	6.02e-01	0	42	0	470810624	63	4842
2026-01-11 03:13:15.37	285.91	15.22	-46.0	-49.0	21.3	6.04e-01	0	42	0	472907776	63	5156
2026-01-11 03:13:16.37	285.68	15.17	-46.2	-49.3	21.1	6.02e-01	0	42	0	474480640	63	5320
2026-01-11 03:13:17.37	285.46	15.13	-45.8	-48.8	21.5	6.03e-01	0	42	0	476577792	63	5029
2026-01-11 03:13:18.38	285.23	15.08	-45.6	-48.5	21.8	6.01e-01	0	42	0	478674944	63	4842
2026-01-11 03:13:19.38	285.00	15.03	-45.9	-49.0	21.3	6.04e-01	0	42	0	480247808	63	5152
2026-01-11 03:13:20.39	284.78	14.98	-45.9	-49.0	21.4	6.02e-01	0	42	0	482344960	63	5118
2026-01-11 03:13:21.39	284.55	14.93	-45.5	-48.5	21.8	6.01e-01	0	42	0	483917824	63	4823
2026-01-11 03:13:22.39	284.33	14.88	-45.5	-48.4	21.9	6.02e-01	0	41	0	486014976	63	4805
2026-01-11 03:13:23.39	284.11	14.83	-45.7	-48.8	21.6	6.00e-01	0	42	0	487587840	63	5005
2026-01-11 03:13:24.39	283.89	14.78	-46.0	-49.2	21.2	6.02e-01	0	42	0	489684992	63	5251
2026-01-11 03:13:25.40	283.66	14.73	-45.9	-49.0	21.3	6.02e-01	0	42	0	491782144	63	5102
2026-01-11 03:13:26.40	283.44	14.68	-45.7	-48.7	21.7	6.03e-01	0	42	0	493355008	63	4935
2026-01-11 03:13:27.40	283.22	14.63	-45.7	-48.7	21.7	6.02e-01	0	42	0	495452160	63	4938
2026-01-11 03:13:28.41	283.00	14.58	-46.0	-49.0	21.3	6.01e-01	0	41	0	497549312	63	5143
2026-01-11 03:13:29.41	282.79	14.53	-45.8	-48.8	21.5	6.04e-01	0	42	0	499122176	63	5034
2026-01-11 03:13:30.41	282.57	14.48	-45.7	-48.7	21.6	6.02e-01	0	41	0	501219328	63	4962
2026-01-11 03:13:31.41	282.35	14.42	-45.7	-48.7	21.6	6.04e-01	0	41	0	502792192	63	4949
2026-01-11 03:13:32.42	282.14	14.37	-45.8	-48.9	21.5	6.02e-01	0	42	0	504889344	63	5048
2026-01-11 03:13:33.42	281.92	14.32	-45.9	-49.0	21.4	6.01e-01	0	41	0	506462208	63	5124
2026-01-11 03:13:34.42	281.71	14.27	-46.0	-49.1	21.3	6.02e-01	0	42	0	508559360	63	5178
2026-01-11 03:13:35.42	281.50	14.21	-46.0	-49.0	21.4	6.04e-01	0	42	0	510656512	63	5133
2026-01-11 03:13:36.42	281.28	14.16	-46.0	-49.0	21.4	6.01e-01	0	42	0	512229376	63	5120
2026-01-11 03:13:37.43	281.07	14.11	-45.9	-48.9	21.4	5.98e-01	0	42	0	514326528	63	5071
2026-01-11 03:13:38.43	280.86	14.05	-45.9	-48.9	21.5	6.04e-01	0	41	0	515899392	63	5060
2026-01-11 03:13:39.43	280.65	14.00	-45.8	-48.8	21.5	5.99e-01	0	42	0	517996544	63	5021
2026-01-11 03:13:40.44	280.44	13.94	-45.9	-49.0	21.4	6.03e-01	0	42	0	519569408	63	5131
2026-01-11 03:13:41.44	280.23	13.89	-45.9	-49.0	21.4	6.02e-01	0	42	0	521666560	63	5116
2026-01-11 03:13:42.44	280.03	13.84	-45.8	-48.9	21.4	6.01e-01	0	42	0	523763712	63	5070
2026-01-11 03:13:43.44	279.82	13.78	-45.7	-48.8	21.6	6.03e-01	0	42	0	525336576	63	4987
2026-01-11 03:13:44.45	279.61	13.73	-45.9	-48.9	21.5	6.04e-01	0	42	0	527433728	63	5080
2026-01-11 03:13:45.45	279.41	13.67	-45.9	-49.0	21.3	6.01e-01	0	42	0	529006592	63	5132
2026-01-11 03:13:46.46	279.20	13.61	-45.8	-48.9	21.4	6.02e-01	0	42	0	531103744	63	5068
2026-01-11 03:13:47.46	279.00	13.56	-45.7	-48.7	21.7	6.02e-01	0	42	0	533200896	63	4942
2026-01-11 03:13:48.46	278.80	13.50	-45.7	-48.7	21.6	6.02e-01	0	42	0	534773760	63	4980
2026-01-11 03:13:49.46	278.60	13.45	-45.7	-48.8	21.6	6.00e-01	0	42	0	536870912	63	4987
2026-01-11 03:13:50.47	278.39	13.39	-45.9	-49.0	21.4	6.03e-01	0	42	0	538443776	63	5122
2026-01-11 03:13:51.47	278.20	13.33	-45.9	-49.0	21.3	6.00e-01	0	41	0	540540928	63	5142
2026-01-11 03:13:52.47	278.00	13.28	-45.9	-49.0	21.4	6.01e-01	0	42	0	542638080	63	5110
2026-01-11 03:13:53.48	277.80	13.22	-45.8	-48.8	21.5	6.02e-01	0	42	0	544210944	63	5019
2026-01-11 03:13:54.48	277.60	13.16	-45.7	-48.8	21.5	6.03e-01	0	42	0	546308096	63	5010
2026-01-11 03:13:55.48	277.40	13.11	-45.7	-48.9	21.4	6.03e-01	0	42	0	547880960	63	5063
2026-01-11 03:13:56.48	277.21	13.05	-45.7	-48.9	21.4	6.01e-01	0	42	0	549978112	63	5059
2026-01-11 03:13:57.49	277.01	12.99	-45.9	-49.0	21.3	6.04e-01	0	42	0	551550976	63	5104
2026-01-11 03:13:58.49	276.82	12.94	-45.8	-48.9	21.4	6.03e-01	0	41	0	553648128	63	5061
2026-01-11 03:13:59.49	276.63	12.88	-45.8	-48.9	21.4	6.00e-01	0	41	0	555745280	63	5057
2026-01-11 03:14:00.49	276.43	12.82	-45.9	-48.9	21.3	6.02e-01	0	42	0	557318144	63	5085
2026-01-11 03:14:01.50	276.24	12.76	-45.8	-48.9	21.4	6.02e-01	0	42	0	559415296	63	5060
2026-01-11 03:14:02.50	276.05	12.70	-45.9	-49.0	21.3	6.01e-01	0	42	0	560988160	63	5149
2026-01-11 03:14:03.50	275.86	12.65	-45.9	-49.1	21.2	6.01e-01	0	41	0	563085312	63	5170
2026-01-11 03:14:04.51	275.67	12.59	-45.8	-49.0	21.2	6.01e-01	0	41	0	565182464	63	5151
2026-01-11 03:14:05.51	275.48	12.53	-45.8	-49.0	21.3	6.00e-01	0	42	0	566755328	63	5108
2026-01-11 03:14:06.52	275.29	12.47	-45.8	-48.9	21.4	6.01e-01	0	42	0	568852480	63	5090
2026-01-11 03:14:07.52	275.11	12.41	-45.8	-49.0	21.3	6.03e-01	0	42	0	570425344	63	5122
2026-01-11 03:14:08.53	274.92	12.35	-45.9	-49.1	21.2	6.02e-01	0	42	0	572522496	63	5193
2026-01-11 03:14:09.53	274.73	12.29	-45.9	-49.0	21.3	6.03e-01	0	42	0	574619648	63	5113
2026-01-11 03:14:10.53	274.55	12.23	-46.0	-49.1	21.2	6.01e-01	0	42	0	576192512	63	5191
2026-01-11 03:14:11.54	274.36	12.17	-46.0	-49.2	21.0	6.01e-01	0	42	0	578289664	63	5274
2026-01-11 03:14:12.54	274.18	12.11	-46.0	-49.2	21.1	6.01e-01	0	42	0	579862528	63	5224
2026-01-11 03:14:13.54	274.00	12.05	-45.9	-49.1	21.2	6.04e-01	0	42	0	581959680	63	5164
2026-01-11 03:14:14.55	273.82	11.99	-45.9	-49.2	21.1	6.00e-01	0	42	0	584056832	63	5221
2026-01-11 03:14:15.55	273.64	11.93	-45.8	-48.9	21.3	6.02e-01	0	41	0	585629696	63	5092
2026-01-11 03:14:16.55	273.46	11.88	-45.7	-48.9	21.4	6.03e-01	0	42	0	587726848	63	5054
2026-01-11 03:14:17.56	273.28	11.81	-45.9	-49.1	21.1	5.98e-01	0	41	0	589299712	63	5215
2026-01-11 03:14:18.56	273.10	11.76	-46.0	-49.3	21.0	6.01e-01	0	42	0	591396864	63	5302
2026-01-11 03:14:19.56	272.92	11.70	-45.9	-49.2	21.0	6.02e-01	0	42	0	592969728	63	5272
2026-01-11 03:14:20.57	272.75	11.63	-45.9	-49.1	21.1	6.04e-01	0	42	0	595066880	63	5185
2026-01-11 03:14:21.57	272.57	11.57	-45.9	-49.1	21.1	6.02e-01	0	42	0	597164032	63	5204
2026-01-11 03:14:22.57	272.40	11.51	-45.9	-49.1	21.1	6.00e-01	0	42	0	598736896	63	5196
2026-01-11 03:14:23.58	272.22	11.45	-45.9	-49.1	21.1	6.02e-01	0	42	0	600834048	63	5166
2026-01-11 03:14:24.58	272.05	11.39	-45.9	-49.1	21.1	6.01e-01	0	42	0	602406912	63	5205
2026-01-11 03:14:25.58	271.87	11.33	-45.9	-49.2	21.0	6.03e-01	0	42	0	604504064	63	5225
2026-01-11 03:14:26.59	271.70	11.27	-45.9	-49.2	21.0	6.04e-01	0	42	0	606076928	63	5230
2026-01-11 03:14:27.59	271.53	11.21	-46.0	-49.3	20.9	6.00e-01	0	42	0	608174080	63	5301
2026-01-11 03:14:28.59	271.36	11.15	-45.9	-49.1	21.0	6.02e-01	0	41	0	610271232	63	5218
2026-01-11 03:14:29.60	271.19	11.09	-46.0	-49.2	21.0	6.01e-01	0	42	0	611844096	63	5260
2026-01-11 03:14:30.60	271.02	11.03	-46.0	-49.3	20.9	6.03e-01	0	42	0	613941248	63	5332
2026-01-11 03:14:31.61	270.85	10.97	-46.1	-49.4	20.8	6.01e-01	0	42	0	616038400	63	5364
2026-01-11 03:14:32.61	270.69	10.91	-46.1	-49.4	20.8	6.00e-01	0	42	0	617611264	63	5364
2026-01-11 03:14:33.61	270.52	10.85	-46.1	-49.4	20.8	6.02e-01	0	42	0	619708416	63	5383
2026-01-11 03:14:34.62	270.35	10.78	-46.1	-49.4	20.8	6.03e-01	0	42	0	621281280	63	5360
2026-01-11 03:14:35.62	270.19	10.72	-46.2	-49.5	20.7	6.02e-01	0	42	0	623378432	63	5423
2026-01-11 03:14:36.62	270.02	10.66	-46.2	-49.6	20.6	5.97e-01	0	41	0	624951296	63	5471
2026-01-11 03:14:37.63	269.86	10.60	-46.2	-49.5	20.6	6.04e-01	0	42	0	627048448	63	5462
2026-01-11 03:14:38.63	269.70	10.54	-46.1	-49.4	20.7	6.02e-01	0	42	0	629145600	63	5397
2026-01-11 03:14:39.63	269.54	10.48	-46.0	-49.2	20.9	6.03e-01	0	42	0	630718464	63	5273
2026-01-11 03:14:40.64	269.37	10.42	-46.0	-49.2	20.9	6.02e-01	0	42	0	632815616	63	5253
2026-01-11 03:14:41.64	269.21	10.35	-46.0	-49.2	20.9	6.01e-01	0	42	0	634388480	63	5272
2026-01-11 03:14:42.65	269.05	10.29	-46.2	-49.5	20.7	6.01e-01	0	42	0	636485632	63	5409
2026-01-11 03:14:43.65	268.89	10.23	-46.3	-49.6	20.6	6.01e-01	0	42	0	638582784	63	5486
2026-01-11 03:14:44.65	268.74	10.17	-46.2	-49.6	20.6	6.03e-01	0	42	0	640155648	63	5475
2026-01-11 03:14:45.66	268.58	10.11	-46.3	-49.7	20.5	6.01e-01	0	42	0	642252800	63	5547
2026-01-11 03:14:46.66	268.42	10.05	-46.1	-49.5	20.5	6.02e-01	0	42	0	643825664	63	5454
2026-01-11 03:14:47.66	268.26	9.99	-46.2	-49.7	20.4	6.02e-01	0	42	0	645922816	63	5568
2026-01-11 03:14:48.66	268.11	9.92	-46.1	-49.5	20.6	6.04e-01	0	42	0	648019968	63	5412
2026-01-11 03:14:49.67	267.95	9.86	-46.1	-49.5	20.6	6.04e-01	0	42	0	649592832	63	5415
2026-01-11 03:14:50.67	267.80	9.80	-46.2	-49.6	20.4	6.02e-01	0	42	0	651689984	63	5525
2026-01-11 03:14:51.67	267.65	9.74	-46.3	-49.8	20.3	6.02e-01	0	42	0	653262848	63	5635
2026-01-11 03:14:52.68	267.49	9.68	-46.4	-49.9	20.2	6.00e-01	0	42	0	655360000	63	5685
2026-01-11 03:14:53.68	267.34	9.62	-46.3	-49.8	20.4	6.03e-01	0	42	0	656932864	63	5602
2026-01-11 03:14:54.68	267.19	9.55	-46.4	-49.8	20.3	6.01e-01	0	42	0	659030016	63	5637
2026-01-11 03:14:55.69	267.04	9.49	-46.4	-49.8	20.3	6.04e-01	0	42	0	661127168	63	5611
2026-01-11 03:14:56.69	266.89	9.43	-46.3	-49.7	20.4	6.01e-01	0	42	0	662700032	63	5582
2026-01-11 03:14:57.69	266.74	9.37	-46.3	-49.7	20.4	6.03e-01	0	42	0	664797184	63	5588
2026-01-11 03:14:58.70	266.59	9.31	-46.3	-49.8	20.3	6.05e-01	0	42	0	666370048	63	5607
2026-01-11 03:14:59.70	266.44	9.24	-46.3	-49.8	20.3	6.01e-01	0	42	0	668467200	63	5637
2026-01-11 03:15:00.71	266.30	9.18	-46.3	-49.8	20.2	6.00e-01	0	42	0	670564352	63	5645
2026-01-11 03:15:01.71	266.15	9.12	-46.3	-49.8	20.3	6.00e-01	0	42	0	672137216	63	5638
2026-01-11 03:15:02.71	266.01	9.06	-46.3	-49.8	20.3	6.01e-01	0	42	0	674234368	63	5617
2026-01-11 03:15:03.71	265.86	9.00	-48.9	-54.7	16.7	6.05e-01	0	42	0	675807232	68	7413
2026-01-11 03:15:04.72	265.72	8.94	-51.2	-70.0	3.9	7.49e-01	0	42	104	676855808	72	34294
2026-01-11 03:15:05.72	265.57	8.87	-51.5	-71.3	3.8	7.44e-01	0	42	104	676855808	73	37739
2026-01-11 03:15:06.73	265.43	8.81	-51.9	-71.9	3.8	7.44e-01	0	42	104	676855808	74	37836
2026-01-11 03:15:07.73	265.29	8.75	-51.7	-71.9	3.8	7.48e-01	0	42	104	676855808	74	38171
2026-01-11 03:15:08.74	265.14	8.69	-51.7	-72.0	3.8	7.47e-01	0	42	104	676855808	74	38385
2026-01-11 03:15:09.74	265.00	8.63	-51.9	-72.0	3.8	7.45e-01	0	42	104	676855808	74	38523
2026-01-11 03:15:10.75	264.86	8.57	-51.9	-72.0	3.8	7.45e-01	0	42	104	676855808	74	38667
2026-01-11 03:15:11.75	264.72	8.50	-52.1	-72.1	3.8	7.49e-01	0	42	104	676855808	74	38716
2026-01-11 03:15:12.75	264.58	8.44	-52.0	-72.1	3.8	7.44e-01	0	42	104	676855808	74	38911
2026-01-11 03:15:13.76	264.44	8.38	-52.0	-72.1	3.8	7.48e-01	0	42	104	676855808	74	38930
2026-01-11 03:15:14.76	264.31	8.32	-52.0	-72.1	3.8	7.46e-01	0	42	104	676855808	74	39042
2026-01-11 03:15:15.77	264.17	8.26	-52.0	-72.1	3.8	7.44e-01	0	42	104	676855808	74	39031
2026-01-11 03:15:16.77	264.03	8.20	-52.0	-72.1	3.8	7.47e-01	0	42	104	676855808	74	38959
2026-01-11 03:15:17.78	263.89	8.13	-52.0	-72.1	3.8	7.45e-01	0	42	104	676855808	74	38971
2026-01-11 03:15:18.78	263.76	8.07	-52.0	-72.1	3.8	7.48e-01	0	42	104	676855808	74	38800
2026-01-11 03:15:19.78	263.63	8.01	-52.0	-72.1	3.8	7.41e-01	0	42	104	676855808	74	38848
2026-01-11 03:15:20.79	263.49	7.95	-51.8	-72.1	3.8	7.46e-01	0	42	104	676855808	74	38933
2026-01-11 03:15:21.79	263.36	7.89	-52.0	-72.1	3.8	7.47e-01	0	42	104	676855808	74	39048
2026-01-11 03:15:22.80	263.22	7.83	-52.1	-72.1	3.8	7.44e-01	0	42	104	676855808	74	39064
2026-01-11 03:15:23.80	263.09	7.77	-52.2	-72.4	3.8	7.46e-01	0	42	104	676855808	75	37912
2026-01-11 03:15:24.80	262.96	7.70	-52.1	-72.1	3.8	7.43e-01	0	42	104	676855808	75	36788
2026-01-11 03:15:25.81	262.83	7.64	-51.9	-72.1	3.8	7.47e-01	0	42	104	676855808	75	36864
2026-01-11 03:15:26.81	262.70	7.58	-51.7	-72.1	3.8	7.45e-01	0	42	104	676855808	75	36752
2026-01-11 03:15:27.82	262.57	7.52	-51.5	-72.1	3.8	7.45e-01	0	42	104	676855808	75	36767
2026-01-11 03:15:28.82	262.44	7.46	-51.6	-72.1	3.8	7.45e-01	0	42	104	676855808	75	36667
2026-01-11 03:15:29.83	262.31	7.40	-51.5	-72.1	3.8	7.41e-01	0	42	104	676855808	75	36580
2026-01-11 03:15:30.83	262.18	7.34	-51.5	-72.1	3.8	7.48e-01	0	42	104	676855808	74	38784
2026-01-11 03:15:31.83	262.06	7.28	-51.5	-72.1	3.8	7.45e-01	0	42	104	676855808	74	38692
2026-01-11 03:15:32.84	261.93	7.21	-51.5	-72.0	3.8	7.46e-01	0	42	104	676855808	74	38684
2026-01-11 03:15:33.84	261.80	7.15	-51.5	-72.0	3.8	7.48e-01	0	42	104	676855808	74	38684
2026-01-11 03:15:34.85	261.68	7.09	-51.5	-72.0	3.8	7.45e-01	0	42	104	676855808	74	38567
2026-01-11 03:15:35.85	261.55	7.03	-51.6	-72.1	3.8	7.47e-01	0	42	104	676855808	74	38701
2026-01-11 03:15:36.86	261.43	6.97	-51.7	-72.0	3.8	7.45e-01	0	42	104	676855808	74	38654
2026-01-11 03:15:37.86	261.30	6.91	-51.7	-72.0	3.8	7.47e-01	0	42	104	676855808	74	38669
2026-01-11 03:15:38.87	261.18	6.85	-51.7	-72.0	3.8	7.45e-01	0	42	104	676855808	74	38635
2026-01-11 03:15:39.87	261.06	6.79	-51.6	-72.0	3.8	7.47e-01	0	42	104	676855808	74	38617
2026-01-11 03:15:40.87	260.93	6.73	-51.6	-72.0	3.8	7.47e-01	0	42	104	676855808	74	38578
2026-01-11 03:15:41.88	260.81	6.67	-51.6	-72.0	3.8	7.45e-01	0	42	104	676855808	74	38609
2026-01-11 03:15:42.88	260.69	6.61	-51.6	-72.0	3.8	7.47e-01	0	42	104	676855808	74	38666
2026-01-11 03:15:43.89	260.57	6.54	-51.6	-72.0	3.8	7.46e-01	0	42	104	676855808	74	38559
2026-01-11 03:15:44.89	260.45	6.48	-51.6	-72.0	3.8	7.45e-01	0	42	104	676855808	74	38560
2026-01-11 03:15:45.90	260.33	6.42	-51.6	-72.0	3.8	7.48e-01	0	42	104	676855808	74	38646
2026-01-11 03:15:46.90	260.21	6.36	-51.6	-72.0	3.8	7.46e-01	0	42	104	676855808	74	38659
2026-01-11 03:15:47.91	260.09	6.30	-51.7	-72.0	3.8	7.48e-01	0	42	104	676855808	74	38667
2026-01-11 03:15:48.91	259.98	6.24	-51.6	-72.0	3.8	7.48e-01	0	42	104	676855808	74	38633
2026-01-11 03:15:49.91	259.86	6.18	-51.6	-72.0	3.8	7.48e-01	0	42	104	676855808	74	38614
2026-01-11 03:15:50.92	259.74	6.12	-51.6	-72.0	3.8	7.48e-01	0	42	104	676855808	74	38558
2026-01-11 03:15:51.92	259.63	6.06	-51.6	-72.0	3.8	7.45e-01	0	42	104	676855808	74	38607
2026-01-11 03:15:52.93	259.51	6.00	-51.6	-72.0	3.8	7.44e-01	0	42	104	676855808	74	38618
2026-01-11 03:15:53.93	259.39	5.94	-51.6	-72.0	3.8	7.44e-01	0	42	104	676855808	74	38532
2026-01-11 03:15:54.93	259.28	5.88	-51.6	-72.0	3.8	7.45e-01	0	42	104	676855808	74	38585
2026-01-11 03:15:55.94	259.17	5.82	-51.6	-72.0	3.8	7.46e-01	0	42	104	676855808	74	38514
2026-01-11 03:15:56.94	259.05	5.76	-51.6	-72.0	3.8	7.46e-01	0	42	104	676855808	74	38564
2026-01-11 03:15:57.95	258.94	5.70	-51.6	-72.0	3.8	7.46e-01	0	42	104	676855808	74	38520
2026-01-11 03:15:58.95	258.83	5.64	-51.6	-72.0	3.8	7.46e-01	0	42	104	676855808	74	38658
2026-01-11 03:15:59.96	258.71	5.58	-51.6	-72.0	3.8	7.45e-01	0	42	104	676855808	74	38531
2026-01-11 03:16:00.96	258.60	5.52	-51.7	-72.0	3.8	7.46e-01	0	42	104	676855808	74	38584
2026-01-11 03:16:01.96	258.49	5.46	-51.6	-72.0	3.8	7.47e-01	0	42	104	676855808	74	38526
2026-01-11 03:16:02.97	258.38	5.40	-51.6	-72.0	3.8	7.46e-01	0	42	104	676855808	74	38567
2026-01-11 03:16:03.97	258.27	5.34	-51.6	-72.0	3.8	7.45e-01	0	42	104	676855808	74	38584
2026-01-11 03:16:04.98	258.16	5.28	-51.6	-72.0	3.8	7.43e-01	0	42	104	676855808	74	38658
2026-01-11 03:16:05.98	258.05	5.22	-51.6	-72.0	3.8	7.48e-01	0	42	104	676855808	74	38602
2026-01-11 03:16:06.99	257.94	5.16	-51.6	-72.0	3.8	7.44e-01	0	42	104	676855808	74	38540
2026-01-11 03:16:07.99	257.84	5.11	-51.6	-72.0	3.8	7.46e-01	0	42	104	676855808	74	38604
2026-01-11 03:16:09.00	257.73	5.05	-51.6	-72.0	3.8	7.49e-01	0	42	104	676855808	74	38649
2026-01-11 03:16:10.00	257.62	4.99	-51.6	-72.0	3.8	7.45e-01	0	42	104	676855808	74	38488

#Closed at: 2026-01-11 03:16:11
#Recorded file [676 MB]: D:/Data/31040_260111_060716.dat