passes_logs/2026/01/11/T1/T1__20260111_225114_SUOMI_NPP_rec.log

#Pass ID: 20260111_225114_SUOMI NPP
#Satellite: SUOMI NPP
#Configuration: NPP
#almurnet v.1.7.20251203
#Start time: 2026-01-11 22:51:15

#Version: 2.0.20230620
#Station: T1
#Location: 37.570604 lon 55.790049 lat
#TLE: 1 37849U 11061A   26011.29776829  .00000112  00000+0  74065-4 0  9999
#TLE: 2 37849  98.7807 313.3784 0002522  70.0451 290.0996 14.19524507736187

#Time	Az	El	Level	Level2	SNR	BER	BlckErr	Temp	State	Recorded	gain1	gain2
2026-01-11 22:51:15.91	23.42	5.08	-49.6	-65.4	3.8	1.49e+00	0	36	0	0	70	22680
2026-01-11 22:51:16.90	23.47	5.14	-49.6	-65.4	3.8	1.49e+00	0	37	104	0	69	23905
2026-01-11 22:51:17.89	23.53	5.21	-49.6	-65.4	3.8	1.49e+00	0	37	104	0	69	23904
2026-01-11 22:51:18.89	23.58	5.28	-49.6	-65.3	3.8	1.49e+00	0	37	104	0	69	23834
2026-01-11 22:51:19.88	23.63	5.34	-49.6	-65.4	3.8	1.49e+00	0	37	104	0	69	23900
2026-01-11 22:51:20.87	23.69	5.41	-49.6	-65.4	3.8	1.49e+00	0	37	104	0	69	23950
2026-01-11 22:51:21.87	23.74	5.48	-49.6	-65.4	3.8	1.49e+00	0	37	104	0	69	23946
2026-01-11 22:51:22.86	23.80	5.54	-49.6	-65.4	3.8	1.49e+00	0	37	104	0	69	23902
2026-01-11 22:51:23.85	23.85	5.61	-49.6	-65.3	3.8	1.49e+00	0	37	104	0	69	23795
2026-01-11 22:51:24.85	23.91	5.68	-49.6	-65.3	3.8	1.49e+00	0	37	104	0	69	23826
2026-01-11 22:51:25.84	23.97	5.75	-49.6	-65.4	3.8	1.49e+00	0	37	104	0	69	23965
2026-01-11 22:51:26.83	24.02	5.81	-49.6	-65.3	3.8	1.49e+00	0	37	104	0	69	23854
2026-01-11 22:51:27.83	24.08	5.88	-49.6	-65.4	3.8	1.49e+00	0	37	104	0	69	23879
2026-01-11 22:51:28.82	24.14	5.95	-49.6	-65.4	3.8	1.49e+00	0	37	104	0	69	23893
2026-01-11 22:51:29.81	24.19	6.02	-49.6	-65.4	3.8	1.49e+00	0	37	104	0	69	23857
2026-01-11 22:51:30.81	24.25	6.09	-49.6	-65.4	3.8	1.49e+00	0	37	104	0	69	23930
2026-01-11 22:51:31.80	24.31	6.16	-49.6	-65.4	3.8	1.49e+00	0	37	104	0	69	23862
2026-01-11 22:51:32.79	24.37	6.22	-49.6	-65.4	3.8	1.49e+00	0	37	104	0	69	23873
2026-01-11 22:51:33.78	24.42	6.29	-49.6	-65.4	3.8	1.49e+00	0	37	104	0	69	23960
2026-01-11 22:51:34.78	24.48	6.36	-49.6	-65.4	3.8	1.49e+00	0	37	104	0	69	23952
2026-01-11 22:51:35.77	24.54	6.43	-49.6	-65.4	3.8	1.49e+00	0	37	104	0	69	23872
2026-01-11 22:51:36.76	24.60	6.50	-49.6	-65.4	3.8	1.49e+00	0	37	104	0	69	24057
2026-01-11 22:51:37.76	24.66	6.57	-49.6	-65.3	3.8	1.49e+00	0	37	104	0	69	23744
2026-01-11 22:51:38.75	24.72	6.64	-49.6	-65.3	3.8	1.49e+00	0	38	104	0	69	23711
2026-01-11 22:51:39.74	24.78	6.71	-49.6	-65.3	3.8	1.49e+00	0	38	104	0	69	23817
2026-01-11 22:51:40.74	24.84	6.78	-49.6	-65.3	3.8	1.49e+00	0	38	104	0	69	23776
2026-01-11 22:51:41.73	24.90	6.85	-49.6	-65.3	3.8	1.49e+00	0	38	104	0	69	23770
2026-01-11 22:51:42.72	24.96	6.92	-49.6	-65.4	3.8	1.49e+00	0	37	104	0	69	23906
2026-01-11 22:51:43.72	25.02	6.99	-49.6	-65.3	3.8	1.49e+00	0	38	104	0	69	23811
2026-01-11 22:51:44.71	25.08	7.06	-49.6	-65.4	3.8	1.49e+00	0	38	104	0	69	23897
2026-01-11 22:51:45.70	25.14	7.13	-49.6	-65.3	3.8	1.49e+00	0	38	104	0	69	23797
2026-01-11 22:51:46.69	25.20	7.20	-49.6	-65.3	3.8	1.49e+00	0	38	104	0	69	23815
2026-01-11 22:51:47.69	25.26	7.27	-49.6	-65.3	3.8	1.49e+00	0	38	104	0	69	23605
2026-01-11 22:51:48.68	25.33	7.35	-49.6	-65.2	3.8	1.49e+00	0	38	104	0	69	23369
2026-01-11 22:51:49.67	25.39	7.42	-49.6	-65.1	3.8	1.49e+00	0	38	104	0	69	23074
2026-01-11 22:51:50.67	25.45	7.49	-49.6	-65.0	3.8	1.49e+00	0	38	104	0	69	22801
2026-01-11 22:51:51.66	25.51	7.56	-49.6	-64.9	3.8	1.49e+00	0	38	104	0	69	22638
2026-01-11 22:51:52.65	25.58	7.63	-49.6	-64.8	3.8	1.49e+00	0	38	104	0	69	22520
2026-01-11 22:51:53.65	25.64	7.71	-49.6	-64.8	3.8	1.49e+00	0	38	104	0	69	22273
2026-01-11 22:51:54.64	25.70	7.78	-49.6	-64.8	3.8	1.49e+00	0	38	104	0	69	22396
2026-01-11 22:51:55.64	25.77	7.85	-49.6	-64.7	3.8	1.49e+00	0	38	104	0	69	22120
2026-01-11 22:51:56.63	25.83	7.92	-49.6	-64.6	3.8	1.49e+00	0	38	104	0	69	21909
2026-01-11 22:51:57.62	25.90	8.00	-49.6	-64.6	3.8	1.49e+00	0	38	104	0	69	21769
2026-01-11 22:51:58.62	25.96	8.07	-49.6	-64.4	3.8	1.49e+00	0	38	104	0	69	21342
2026-01-11 22:51:59.61	26.03	8.14	-49.6	-64.3	3.8	1.49e+00	0	38	104	0	69	21199
2026-01-11 22:52:00.60	26.09	8.22	-49.6	-64.3	3.8	1.49e+00	0	38	104	0	69	21153
2026-01-11 22:52:01.59	26.16	8.29	-49.6	-64.5	3.8	1.49e+00	0	38	104	0	69	21529
2026-01-11 22:52:02.59	26.22	8.36	-49.6	-64.6	3.8	1.49e+00	0	38	104	0	69	21871
2026-01-11 22:52:03.58	26.29	8.44	-49.6	-64.8	3.8	1.49e+00	0	38	104	0	69	22358
2026-01-11 22:52:04.58	26.36	8.51	-49.6	-64.7	3.8	1.49e+00	0	38	104	0	69	22204
2026-01-11 22:52:05.57	26.42	8.59	-49.6	-64.6	3.8	1.49e+00	0	38	104	0	69	21780
2026-01-11 22:52:06.56	26.49	8.66	-49.6	-64.3	3.8	1.49e+00	0	38	104	0	69	21025
2026-01-11 22:52:07.56	26.56	8.74	-49.6	-64.0	3.8	1.49e+00	0	38	104	0	69	20451
2026-01-11 22:52:08.55	26.63	8.81	-49.5	-63.7	3.8	1.49e+00	0	38	104	0	69	19812
2026-01-11 22:52:09.54	26.70	8.89	-49.5	-63.6	3.8	1.49e+00	0	38	104	0	69	19406
2026-01-11 22:52:10.54	26.77	8.96	-49.5	-63.6	3.8	1.49e+00	0	38	104	0	69	19530
2026-01-11 22:52:11.53	26.83	9.04	-49.5	-63.6	3.9	1.49e+00	0	38	104	0	69	19534
2026-01-11 22:52:12.52	26.90	9.11	-49.6	-64.0	3.8	1.49e+00	0	38	104	0	69	20430
2026-01-11 22:52:13.52	26.97	9.19	-49.8	-64.0	3.8	1.49e+00	0	38	104	0	70	19376
2026-01-11 22:52:14.51	27.04	9.26	-49.7	-64.1	3.8	1.49e+00	0	38	104	0	70	19454
2026-01-11 22:52:15.51	27.11	9.34	-49.5	-62.1	4.1	1.46e+00	0	38	0	0	70	15489
2026-01-11 22:52:16.50	27.18	9.42	-49.5	-62.5	4.0	1.31e+00	0	38	0	0	70	16155
2026-01-11 22:52:17.50	27.26	9.50	-48.0	-54.0	10.1	5.21e-02	0	38	0	2097152	68	6874
2026-01-11 22:52:18.49	27.33	9.57	-47.5	-53.0	10.9	5.65e-03	0	38	0	4194304	67	6423
2026-01-11 22:52:19.49	27.40	9.65	-46.7	-51.4	12.6	2.94e-04	0	38	0	6291456	65	6014
2026-01-11 22:52:20.48	27.47	9.73	-46.4	-50.5	13.6	3.50e-05	0	38	0	7340032	64	5737
2026-01-11 22:52:21.48	27.54	9.81	-46.3	-50.4	13.7	3.80e-06	0	38	0	9437184	64	5682
2026-01-11 22:52:22.47	27.62	9.88	-46.3	-50.3	13.7	3.80e-06	0	39	0	11534336	64	5645
2026-01-11 22:52:23.47	27.69	9.96	-46.3	-50.3	13.7	6.10e-06	0	38	0	13631488	64	5640
2026-01-11 22:52:24.46	27.76	10.04	-46.2	-50.2	13.8	3.80e-06	0	38	0	14680064	64	5564
2026-01-11 22:52:25.45	27.84	10.12	-46.1	-50.0	14.0	1.50e-06	0	38	0	16777216	64	5461
2026-01-11 22:52:26.45	27.91	10.20	-46.1	-50.0	14.0	3.00e-06	0	38	0	18874368	64	5434
2026-01-11 22:52:27.44	27.99	10.28	-46.0	-49.9	14.1	1.50e-06	0	39	0	20971520	64	5380
2026-01-11 22:52:28.44	28.06	10.36	-46.1	-50.0	14.1	2.20e-06	0	39	0	23068672	64	5415
2026-01-11 22:52:29.43	28.14	10.43	-46.0	-49.8	14.3	7.00e-07	0	38	0	24117248	64	5333
2026-01-11 22:52:30.43	28.22	10.51	-46.0	-49.8	14.3	7.00e-07	0	38	0	26214400	64	5305
2026-01-11 22:52:31.42	28.29	10.59	-46.0	-49.7	14.4	7.00e-07	0	39	0	28311552	63	5564
2026-01-11 22:52:32.42	28.37	10.67	-46.1	-50.0	14.2	0.00e+00	0	38	0	30408704	63	5733
2026-01-11 22:52:33.42	28.45	10.75	-46.1	-49.9	14.3	0.00e+00	0	39	0	31457280	63	5709
2026-01-11 22:52:34.43	28.52	10.84	-45.9	-49.7	14.5	7.00e-07	0	39	0	33554432	63	5555
2026-01-11 22:52:35.45	28.60	10.92	-45.9	-49.7	14.5	0.00e+00	0	39	0	35651584	63	5542
2026-01-11 22:52:36.45	28.68	11.00	-45.9	-49.6	14.5	0.00e+00	0	39	0	37748736	63	5513
2026-01-11 22:52:37.52	28.77	11.09	-45.8	-49.6	14.6	0.00e+00	0	39	0	39845888	63	5465
2026-01-11 22:52:38.38	28.84	11.16	-45.7	-49.4	14.7	0.00e+00	0	39	0	40894464	63	5390
2026-01-11 22:52:39.51	28.93	11.25	-45.8	-49.6	14.5	0.00e+00	0	39	0	42991616	63	5510
2026-01-11 22:52:40.37	29.00	11.32	-45.6	-49.3	14.9	0.00e+00	0	39	0	45088768	63	5302
2026-01-11 22:52:41.51	29.09	11.42	-45.7	-49.4	14.8	0.00e+00	0	39	0	47185920	63	5343
2026-01-11 22:52:42.36	29.16	11.49	-45.9	-49.7	14.6	0.00e+00	0	39	0	48234496	63	5533
2026-01-11 22:52:43.50	29.25	11.58	-45.7	-49.4	14.8	0.00e+00	0	39	0	50331648	63	5359
2026-01-11 22:52:44.35	29.32	11.65	-45.8	-49.5	14.7	0.00e+00	0	39	0	52428800	63	5451
2026-01-11 22:52:45.49	29.42	11.75	-45.8	-49.5	14.7	7.00e-07	0	39	0	54525952	63	5459
2026-01-11 22:52:46.34	29.49	11.82	-45.8	-49.5	14.7	0.00e+00	0	39	0	56623104	63	5412
2026-01-11 22:52:47.48	29.58	11.91	-45.8	-49.5	14.7	0.00e+00	0	39	0	58720256	63	5416
2026-01-11 22:52:48.33	29.65	11.99	-45.8	-49.3	14.9	0.00e+00	0	39	0	59768832	63	5319
2026-01-11 22:52:49.47	29.75	12.08	-45.9	-49.4	14.8	0.00e+00	0	38	0	61865984	63	5360
2026-01-11 22:52:50.32	29.82	12.15	-45.9	-49.4	14.9	0.00e+00	0	39	0	63963136	63	5342
2026-01-11 22:52:51.46	29.92	12.25	-45.9	-49.5	14.7	0.00e+00	0	39	0	66060288	63	5403
2026-01-11 22:52:52.32	29.99	12.32	-45.8	-49.3	14.9	0.00e+00	0	39	0	67108864	63	5311
2026-01-11 22:52:53.45	30.09	12.42	-45.9	-49.3	14.9	0.00e+00	0	39	0	69206016	63	5335
2026-01-11 22:52:54.30	30.16	12.49	-45.9	-49.4	14.8	0.00e+00	0	39	0	71303168	63	5363
2026-01-11 22:52:55.62	30.28	12.61	-45.9	-49.3	14.9	0.00e+00	0	39	0	73400320	63	5322
2026-01-11 22:52:56.33	30.34	12.67	-45.9	-49.2	15.0	0.00e+00	0	39	0	74448896	63	5260
2026-01-11 22:52:57.61	30.46	12.78	-45.8	-49.1	15.1	0.00e+00	0	39	0	77594624	63	5200
2026-01-11 22:52:58.32	30.52	12.84	-45.8	-49.1	15.2	0.00e+00	0	39	0	78643200	63	5165
2026-01-11 22:52:59.60	30.63	12.95	-45.9	-49.3	14.9	0.00e+00	0	39	0	80740352	63	5304
2026-01-11 22:53:00.31	30.70	13.01	-45.9	-49.2	15.0	0.00e+00	0	39	0	81788928	63	5263
2026-01-11 22:53:01.59	30.81	13.12	-45.9	-49.2	15.0	0.00e+00	0	39	0	84934656	63	5263
2026-01-11 22:53:02.30	30.88	13.19	-45.7	-49.0	15.2	0.00e+00	0	39	0	85983232	63	5145
2026-01-11 22:53:03.58	30.99	13.30	-45.8	-49.1	15.1	0.00e+00	0	39	0	88080384	63	5210
2026-01-11 22:53:04.49	31.08	13.38	-45.8	-49.1	15.1	0.00e+00	0	39	0	90177536	63	5216
2026-01-11 22:53:05.49	31.17	13.47	-45.7	-49.0	15.3	0.00e+00	0	39	0	92274688	63	5115
2026-01-11 22:53:06.48	31.26	13.56	-45.7	-49.0	15.3	0.00e+00	0	39	0	94371840	63	5112
2026-01-11 22:53:07.48	31.36	13.65	-45.7	-48.9	15.3	0.00e+00	0	39	0	95420416	63	5096
2026-01-11 22:53:08.47	31.45	13.73	-45.7	-49.0	15.3	0.00e+00	0	39	0	97517568	63	5106
2026-01-11 22:53:09.47	31.54	13.82	-45.6	-48.8	15.5	0.00e+00	0	39	0	99614720	63	5013
2026-01-11 22:53:10.46	31.64	13.91	-45.5	-48.7	15.5	0.00e+00	0	39	0	101711872	63	4983
2026-01-11 22:53:11.46	31.73	14.00	-45.5	-48.7	15.5	0.00e+00	0	39	0	102760448	63	4969
2026-01-11 22:53:12.45	31.83	14.09	-45.3	-48.5	15.8	0.00e+00	0	39	0	104857600	62	5112
2026-01-11 22:53:13.45	31.92	14.18	-45.5	-48.8	15.5	0.00e+00	0	39	0	106954752	62	5280
2026-01-11 22:53:14.44	32.02	14.27	-45.5	-48.7	15.5	0.00e+00	0	39	0	109051904	62	5242
2026-01-11 22:53:15.44	32.12	14.36	-45.2	-48.4	15.9	0.00e+00	0	39	0	111149056	62	5057
2026-01-11 22:53:16.44	32.22	14.45	-45.3	-48.6	15.7	0.00e+00	0	39	0	112197632	62	5164
2026-01-11 22:53:17.43	32.32	14.54	-45.4	-48.6	15.7	0.00e+00	0	39	0	114294784	62	5173
2026-01-11 22:53:18.42	32.41	14.64	-45.4	-48.6	15.6	0.00e+00	0	39	0	116391936	62	5209
2026-01-11 22:53:19.42	32.51	14.73	-45.6	-48.9	15.4	0.00e+00	0	39	0	118489088	62	5345
2026-01-11 22:53:20.41	32.61	14.82	-45.6	-48.9	15.4	0.00e+00	0	39	0	120586240	62	5381
2026-01-11 22:53:21.41	32.72	14.91	-45.6	-48.9	15.4	0.00e+00	0	39	0	121634816	62	5374
2026-01-11 22:53:22.40	32.82	15.00	-45.8	-49.2	15.1	0.00e+00	0	39	0	123731968	62	5586
2026-01-11 22:53:23.40	32.92	15.10	-45.8	-49.2	15.2	0.00e+00	0	39	0	125829120	62	5539
2026-01-11 22:53:24.40	33.02	15.19	-45.9	-49.2	15.0	0.00e+00	0	39	0	127926272	62	5582
2026-01-11 22:53:25.39	33.13	15.28	-45.9	-49.2	15.1	0.00e+00	0	39	0	128974848	62	5590
2026-01-11 22:53:26.39	33.23	15.38	-45.7	-49.0	15.3	0.00e+00	0	39	0	131072000	62	5423
2026-01-11 22:53:27.38	33.33	15.47	-45.8	-49.2	15.1	0.00e+00	0	39	0	133169152	62	5545
2026-01-11 22:53:28.38	33.44	15.57	-45.8	-49.1	15.2	0.00e+00	0	39	0	135266304	62	5505
2026-01-11 22:53:29.37	33.54	15.66	-45.7	-48.9	15.4	0.00e+00	0	39	0	137363456	62	5385
2026-01-11 22:53:30.37	33.65	15.76	-45.6	-48.8	15.5	0.00e+00	0	39	0	138412032	62	5332
2026-01-11 22:53:31.36	33.76	15.85	-45.7	-49.0	15.3	7.00e-07	0	39	0	140509184	62	5425
2026-01-11 22:53:32.36	33.87	15.95	-45.6	-48.9	15.5	0.00e+00	0	39	0	142606336	62	5341
2026-01-11 22:53:33.35	33.97	16.04	-45.4	-48.5	15.7	0.00e+00	0	39	0	144703488	62	5151
2026-01-11 22:53:34.35	34.08	16.14	-45.3	-48.5	15.8	0.00e+00	0	39	0	145752064	62	5105
2026-01-11 22:53:35.34	34.19	16.23	-45.4	-48.7	15.5	0.00e+00	0	39	0	147849216	62	5222
2026-01-11 22:53:36.52	34.32	16.35	-45.3	-48.6	15.7	0.00e+00	0	39	0	149946368	62	5185
2026-01-11 22:53:37.39	34.42	16.43	-45.4	-48.6	15.6	0.00e+00	0	39	0	152043520	62	5217
2026-01-11 22:53:38.53	34.55	16.54	-45.4	-48.6	15.7	0.00e+00	0	39	0	154140672	62	5199
2026-01-11 22:53:39.41	34.65	16.63	-45.4	-48.7	15.6	0.00e+00	0	39	0	155189248	62	5257
2026-01-11 22:53:40.55	34.78	16.74	-45.5	-48.8	15.5	0.00e+00	0	39	0	157286400	62	5290
2026-01-11 22:53:41.40	34.88	16.82	-45.5	-48.7	15.6	0.00e+00	0	39	0	159383552	62	5276
2026-01-11 22:53:42.54	35.01	16.94	-45.6	-49.0	15.3	0.00e+00	0	39	0	161480704	62	5404
2026-01-11 22:53:43.39	35.11	17.02	-45.6	-48.9	15.4	0.00e+00	0	39	0	163577856	62	5367
2026-01-11 22:53:44.53	35.24	17.13	-45.5	-48.8	15.5	0.00e+00	0	39	0	165675008	62	5301
2026-01-11 22:53:45.38	35.34	17.22	-45.6	-49.0	15.3	0.00e+00	0	39	0	166723584	62	5438
2026-01-11 22:53:46.52	35.47	17.33	-45.6	-49.0	15.3	0.00e+00	0	39	0	168820736	62	5458
2026-01-11 22:53:47.37	35.58	17.42	-45.7	-49.2	15.2	0.00e+00	0	39	0	170917888	62	5532
2026-01-11 22:53:48.51	35.71	17.53	-45.8	-49.3	15.1	0.00e+00	0	39	0	173015040	62	5637
2026-01-11 22:53:49.37	35.82	17.62	-45.8	-49.3	15.1	7.00e-07	0	39	0	174063616	62	5594
2026-01-11 22:53:50.50	35.95	17.73	-46.0	-49.6	14.8	0.00e+00	0	39	0	176160768	62	5791
2026-01-11 22:53:51.36	36.06	17.82	-46.2	-49.8	14.6	0.00e+00	0	39	0	178257920	62	5944
2026-01-11 22:53:52.59	36.21	17.95	-46.2	-49.8	14.6	7.00e-07	0	39	0	180355072	63	5599
2026-01-11 22:53:53.44	36.32	18.03	-46.1	-49.7	14.7	7.00e-07	0	39	0	182452224	63	5564
2026-01-11 22:53:54.57	36.46	18.15	-46.2	-49.8	14.6	7.00e-07	0	39	0	184549376	63	5609
2026-01-11 22:53:55.43	36.56	18.24	-46.3	-49.9	14.5	1.50e-06	0	39	0	185597952	63	5666
2026-01-11 22:53:56.56	36.71	18.35	-46.2	-49.7	14.6	7.00e-07	0	39	0	187695104	63	5591
2026-01-11 22:53:57.42	36.82	18.44	-46.2	-49.7	14.6	0.00e+00	0	39	0	189792256	63	5574
2026-01-11 22:53:58.55	36.96	18.56	-46.0	-49.4	14.9	7.00e-07	0	39	0	191889408	63	5369
2026-01-11 22:53:59.40	37.07	18.65	-46.0	-49.4	15.0	0.00e+00	0	39	0	192937984	63	5372
2026-01-11 22:54:00.54	37.22	18.76	-46.0	-49.3	15.0	0.00e+00	0	39	0	195035136	63	5331
2026-01-11 22:54:01.39	37.33	18.85	-46.0	-49.3	15.0	0.00e+00	0	39	0	197132288	63	5320
2026-01-11 22:54:02.53	37.48	18.97	-46.0	-49.4	15.0	0.00e+00	0	39	0	199229440	63	5363
2026-01-11 22:54:03.38	37.59	19.06	-45.9	-49.3	15.1	0.00e+00	0	39	0	200278016	63	5284
2026-01-11 22:54:04.52	37.74	19.18	-45.9	-49.3	15.1	0.00e+00	0	39	0	202375168	63	5287
2026-01-11 22:54:05.37	37.86	19.27	-46.0	-49.4	14.9	7.00e-07	0	39	0	204472320	63	5379
2026-01-11 22:54:06.51	38.01	19.39	-46.0	-49.4	15.0	0.00e+00	0	39	0	206569472	63	5353
2026-01-11 22:54:07.36	38.12	19.48	-46.0	-49.4	15.0	0.00e+00	0	39	0	207618048	63	5353
2026-01-11 22:54:08.50	38.28	19.60	-46.2	-49.7	14.7	0.00e+00	0	39	0	209715200	63	5554
2026-01-11 22:54:09.35	38.40	19.69	-46.1	-49.6	14.8	0.00e+00	0	39	0	211812352	63	5495
2026-01-11 22:54:10.53	38.56	19.82	-46.0	-49.3	15.1	0.00e+00	0	39	0	213909504	63	5306
2026-01-11 22:54:11.39	38.68	19.91	-46.2	-49.6	14.8	0.00e+00	0	39	0	216006656	63	5494
2026-01-11 22:54:12.53	38.84	20.04	-46.1	-49.6	14.7	0.00e+00	0	39	0	218103808	63	5500
2026-01-11 22:54:13.38	38.96	20.13	-46.2	-49.7	14.7	7.00e-07	0	39	0	219152384	63	5590
2026-01-11 22:54:14.63	39.14	20.26	-46.2	-49.7	14.7	7.00e-07	0	39	0	221249536	63	5570
2026-01-11 22:54:15.48	39.26	20.36	-46.2	-49.7	14.7	0.00e+00	0	39	0	223346688	63	5530
2026-01-11 22:54:16.62	39.43	20.48	-46.2	-49.6	14.8	0.00e+00	0	39	0	225443840	63	5516
2026-01-11 22:54:17.47	39.55	20.57	-46.3	-49.7	14.7	0.00e+00	0	39	0	227540992	63	5584
2026-01-11 22:54:18.61	39.72	20.70	-46.3	-49.8	14.6	0.00e+00	0	39	0	229638144	63	5600
2026-01-11 22:54:19.47	39.84	20.79	-46.2	-49.6	14.7	0.00e+00	0	39	0	230686720	63	5528
2026-01-11 22:54:20.60	40.01	20.92	-46.2	-49.6	14.8	0.00e+00	0	39	0	232783872	63	5499
2026-01-11 22:54:21.46	40.14	21.01	-46.1	-49.4	15.0	0.00e+00	0	39	0	234881024	63	5397
2026-01-11 22:54:22.60	40.31	21.14	-46.0	-49.3	15.1	0.00e+00	0	39	0	236978176	63	5307
2026-01-11 22:54:23.59	40.46	21.25	-46.1	-49.5	14.9	0.00e+00	0	39	0	238026752	63	5422
2026-01-11 22:54:24.76	40.64	21.38	-46.0	-49.2	15.2	0.00e+00	0	39	0	241172480	63	5246
2026-01-11 22:54:25.61	40.77	21.47	-45.8	-49.0	15.4	0.00e+00	0	39	0	242221056	63	5131
2026-01-11 22:54:26.75	40.95	21.60	-45.9	-49.1	15.3	0.00e+00	0	39	0	244318208	63	5177
2026-01-11 22:54:27.73	41.10	21.71	-46.1	-49.4	15.0	7.00e-07	0	39	0	246415360	63	5359
2026-01-11 22:54:28.72	41.26	21.82	-46.0	-49.2	15.1	0.00e+00	0	39	0	248512512	63	5252
2026-01-11 22:54:29.72	41.41	21.94	-46.1	-49.4	15.0	0.00e+00	0	39	0	249561088	63	5356
2026-01-11 22:54:30.71	41.57	22.05	-46.1	-49.4	15.0	0.00e+00	0	39	0	251658240	63	5397
2026-01-11 22:54:31.71	41.73	22.16	-45.9	-49.1	15.3	0.00e+00	0	39	0	253755392	63	5217
2026-01-11 22:54:32.70	41.89	22.27	-46.1	-49.5	14.9	0.00e+00	0	39	0	255852544	63	5452
2026-01-11 22:54:33.70	42.06	22.39	-46.2	-49.6	14.8	0.00e+00	0	39	0	257949696	63	5465
2026-01-11 22:54:34.69	42.22	22.50	-46.1	-49.4	14.9	0.00e+00	0	39	0	258998272	63	5377
2026-01-11 22:54:35.68	42.38	22.61	-46.3	-49.7	14.7	0.00e+00	0	39	0	261095424	63	5547
2026-01-11 22:54:36.68	42.55	22.73	-46.1	-49.4	15.0	0.00e+00	0	39	0	263192576	63	5384
2026-01-11 22:54:37.67	42.71	22.84	-45.9	-49.1	15.3	0.00e+00	0	39	0	265289728	63	5213
2026-01-11 22:54:38.66	42.88	22.96	-46.1	-49.4	15.1	0.00e+00	0	39	0	266338304	63	5348
2026-01-11 22:54:39.66	43.05	23.07	-45.8	-48.9	15.3	0.00e+00	0	39	0	268435456	63	5100
2026-01-11 22:54:40.65	43.22	23.19	-45.7	-48.8	15.6	0.00e+00	0	39	0	270532608	63	5029
2026-01-11 22:54:41.74	43.41	23.31	-45.7	-48.8	15.6	0.00e+00	0	39	0	272629760	63	4998
2026-01-11 22:54:42.61	43.56	23.42	-45.6	-48.6	15.8	0.00e+00	0	39	0	273678336	63	4914
2026-01-11 22:54:43.93	43.79	23.57	-45.7	-48.8	15.6	0.00e+00	0	39	0	276824064	63	5032
2026-01-11 22:54:44.64	43.92	23.65	-45.8	-49.1	15.4	7.00e-07	0	39	0	277872640	63	5163
2026-01-11 22:54:46.13	44.18	23.83	-46.1	-49.5	14.9	0.00e+00	0	39	0	281018368	63	5455
2026-01-11 22:54:46.84	44.31	23.91	-46.2	-49.6	14.8	0.00e+00	0	39	0	282066944	63	5517
2026-01-11 22:54:48.18	44.55	24.07	-46.4	-50.0	14.4	7.00e-07	0	39	0	284164096	63	5788
2026-01-11 22:54:49.15	44.73	24.18	-46.3	-49.9	14.6	0.00e+00	0	39	0	286261248	63	5670
2026-01-11 22:54:50.46	44.97	24.34	-46.2	-49.7	14.7	0.00e+00	0	39	0	288358400	63	5578
2026-01-11 22:54:51.17	45.10	24.42	-46.1	-49.5	14.9	7.00e-07	0	39	0	290455552	63	5454
2026-01-11 22:54:52.45	45.34	24.57	-46.0	-49.3	15.0	0.00e+00	0	39	0	292552704	63	5338
2026-01-11 22:54:53.17	45.47	24.66	-45.8	-49.0	15.4	0.00e+00	0	39	0	293601280	63	5143
2026-01-11 22:54:54.45	45.71	24.81	-45.6	-48.7	15.7	0.00e+00	0	39	0	296747008	63	4972
2026-01-11 22:54:55.17	45.85	24.90	-45.6	-48.7	15.7	0.00e+00	0	39	0	297795584	63	4975
2026-01-11 22:54:56.44	46.10	25.05	-45.4	-48.5	15.9	0.00e+00	0	39	0	299892736	62	5130
2026-01-11 22:54:57.17	46.24	25.14	-45.5	-48.5	15.8	0.00e+00	0	39	0	301989888	62	5145
2026-01-11 22:54:58.45	46.49	25.29	-45.5	-48.5	15.9	0.00e+00	0	39	0	304087040	62	5156
2026-01-11 22:54:59.19	46.63	25.38	-45.5	-48.7	15.7	0.00e+00	0	39	0	305135616	62	5234
2026-01-11 22:55:00.47	46.89	25.54	-45.6	-48.7	15.7	0.00e+00	0	39	0	307232768	62	5277
2026-01-11 22:55:01.21	47.03	25.63	-45.6	-48.7	15.7	0.00e+00	0	39	0	309329920	62	5271
2026-01-11 22:55:02.49	47.29	25.78	-45.7	-48.8	15.6	0.00e+00	0	39	0	311427072	62	5334
2026-01-11 22:55:03.20	47.43	25.87	-45.6	-48.8	15.7	0.00e+00	0	39	0	312475648	62	5293
2026-01-11 22:55:04.48	47.69	26.02	-45.6	-48.7	15.8	0.00e+00	0	39	0	315621376	62	5219
2026-01-11 22:55:05.23	47.85	26.11	-45.8	-49.0	15.5	0.00e+00	0	39	0	316669952	62	5429
2026-01-11 22:55:06.51	48.11	26.27	-45.6	-48.7	15.8	0.00e+00	0	39	0	318767104	62	5221
2026-01-11 22:55:07.22	48.26	26.35	-45.5	-48.5	15.9	0.00e+00	0	39	0	319815680	62	5129
2026-01-11 22:55:08.72	48.58	26.54	-45.5	-48.5	15.9	0.00e+00	0	39	0	322961408	62	5127
2026-01-11 22:55:09.43	48.73	26.62	-45.5	-48.5	15.9	0.00e+00	0	39	0	324009984	62	5132
2026-01-11 22:55:10.77	49.01	26.79	-45.5	-48.6	15.8	0.00e+00	0	39	0	327155712	62	5178
2026-01-11 22:55:11.48	49.17	26.88	-45.5	-48.5	15.8	0.00e+00	0	39	0	328204288	62	5151
2026-01-11 22:55:12.82	49.46	27.04	-45.4	-48.3	16.1	0.00e+00	0	39	0	331350016	62	5034
2026-01-11 22:55:13.53	49.61	27.13	-45.3	-48.3	16.1	0.00e+00	0	39	0	332398592	62	5003
2026-01-11 22:55:14.81	49.90	27.28	-45.2	-48.2	16.2	0.00e+00	0	39	0	334495744	62	4933
2026-01-11 22:55:15.52	50.05	27.37	-45.3	-48.2	16.2	0.00e+00	0	39	0	335544320	62	4943
2026-01-11 22:55:16.80	50.34	27.53	-45.2	-48.2	16.2	0.00e+00	0	39	0	338690048	62	4927
2026-01-11 22:55:17.54	50.51	27.62	-45.3	-48.2	16.2	0.00e+00	0	39	0	339738624	62	4936
2026-01-11 22:55:18.82	50.80	27.78	-45.2	-48.1	16.3	0.00e+00	0	39	0	341835776	62	4873
2026-01-11 22:55:19.53	50.96	27.87	-45.2	-48.1	16.1	0.00e+00	0	39	0	342884352	62	4902
2026-01-11 22:55:20.81	51.25	28.02	-45.3	-48.3	16.1	0.00e+00	0	39	0	346030080	62	5000
2026-01-11 22:55:21.52	51.42	28.11	-45.4	-48.4	16.0	0.00e+00	0	39	0	347078656	62	5068
2026-01-11 22:55:22.81	51.72	28.27	-45.5	-48.6	15.9	0.00e+00	0	39	0	349175808	62	5164
2026-01-11 22:55:23.55	51.90	28.36	-45.6	-48.7	15.7	0.00e+00	0	39	0	351272960	62	5251
2026-01-11 22:55:24.82	52.20	28.52	-45.6	-48.6	15.8	0.00e+00	0	39	0	353370112	62	5216
2026-01-11 22:55:25.60	52.38	28.62	-45.8	-48.9	15.6	0.00e+00	0	39	0	354418688	62	5377
2026-01-11 22:55:27.21	52.77	28.82	-45.9	-49.1	15.4	0.00e+00	0	39	0	357564416	62	5498
2026-01-11 22:55:27.78	52.91	28.89	-45.9	-49.0	15.4	0.00e+00	0	39	0	358612992	62	5460
2026-01-11 22:55:29.70	53.39	29.12	-46.1	-49.3	15.1	0.00e+00	0	39	0	362807296	63	5319
2026-01-11 22:55:30.27	53.53	29.19	-46.3	-49.7	14.8	0.00e+00	0	39	0	363855872	63	5534
2026-01-11 22:55:31.98	53.96	29.41	-46.2	-49.5	15.0	0.00e+00	0	39	0	367001600	63	5425
2026-01-11 22:55:32.55	54.10	29.48	-46.3	-49.6	14.9	0.00e+00	0	39	0	368050176	63	5505
2026-01-11 22:55:34.25	54.53	29.69	-46.5	-50.0	14.5	0.00e+00	0	39	0	371195904	63	5783
2026-01-11 22:55:34.82	54.68	29.76	-46.5	-50.1	14.5	7.00e-07	0	39	0	372244480	63	5803
2026-01-11 22:55:36.53	55.12	29.97	-46.7	-50.4	14.1	0.00e+00	0	39	0	375390208	64	5711
2026-01-11 22:55:37.09	55.27	30.04	-46.5	-50.1	14.3	1.50e-06	0	39	0	376438784	64	5482
2026-01-11 22:55:38.80	55.72	30.25	-46.5	-50.1	14.3	2.20e-06	0	39	0	379584512	64	5519
2026-01-11 22:55:39.43	55.89	30.32	-46.6	-50.3	14.2	2.20e-06	0	39	0	380633088	64	5611
2026-01-11 22:55:40.98	56.30	30.51	-46.7	-50.3	14.0	1.50e-06	0	39	0	383778816	64	5636
2026-01-11 22:55:41.68	56.49	30.60	-46.8	-50.5	13.9	3.80e-06	0	39	0	384827392	64	5780
2026-01-11 22:55:42.96	56.84	30.76	-47.3	-51.4	13.0	1.90e-05	0	39	0	386924544	65	6019
2026-01-11 22:55:43.69	57.04	30.85	-47.6	-52.0	12.4	4.27e-05	0	39	0	389021696	65	6462
2026-01-11 22:55:44.96	57.39	31.00	-47.7	-52.2	12.2	1.11e-04	0	39	0	391118848	66	6235
2026-01-11 22:55:45.68	57.59	31.09	-47.7	-52.2	12.2	2.58e-04	0	39	0	392167424	66	6259
2026-01-11 22:55:46.95	57.95	31.24	-48.0	-52.8	11.6	4.14e-04	0	39	0	394264576	66	6649
2026-01-11 22:55:47.68	58.16	31.33	-48.0	-52.8	11.6	7.19e-04	0	39	0	396361728	66	6674
2026-01-11 22:55:48.96	58.52	31.49	-47.8	-52.4	12.1	4.05e-04	0	39	0	398458880	66	6348
2026-01-11 22:55:49.69	58.73	31.58	-47.8	-52.3	12.1	2.66e-04	0	39	0	399507456	66	6324
2026-01-11 22:55:50.97	59.10	31.73	-47.8	-52.3	12.1	2.44e-04	0	39	0	402653184	66	6318
2026-01-11 22:55:51.69	59.31	31.82	-47.7	-52.2	12.2	1.95e-04	0	39	0	403701760	66	6232
2026-01-11 22:55:52.97	59.69	31.97	-48.0	-52.7	11.7	2.91e-04	0	39	0	405798912	66	6639
2026-01-11 22:55:53.70	59.90	32.06	-48.1	-52.9	11.5	6.34e-04	0	39	0	407896064	66	6788
2026-01-11 22:55:55.02	60.30	32.22	-48.3	-53.5	10.9	1.43e-03	0	39	0	409993216	67	6822
2026-01-11 22:55:55.73	60.51	32.30	-48.2	-53.3	11.1	1.40e-03	0	39	0	411041792	67	6664
2026-01-11 22:55:57.06	60.91	32.46	-48.1	-53.1	11.3	1.39e-03	0	39	0	414187520	67	6504
2026-01-11 22:55:57.77	61.13	32.54	-48.1	-53.0	11.4	1.02e-03	0	39	0	415236096	67	6444
2026-01-11 22:55:59.05	61.52	32.69	-47.7	-52.3	12.1	8.51e-04	0	39	0	417333248	67	5947
2026-01-11 22:55:59.79	61.75	32.78	-47.8	-52.3	12.2	4.36e-04	0	39	0	418381824	67	5957
2026-01-11 22:56:01.16	62.18	32.94	-48.2	-53.3	11.1	1.09e-03	0	39	0	421527552	67	6664
2026-01-11 22:56:02.14	62.48	33.05	-48.2	-53.3	11.1	1.15e-03	0	39	0	423624704	67	6685
2026-01-11 22:56:03.47	62.90	33.21	-48.5	-53.8	10.5	2.42e-03	0	39	0	425721856	67	7092
2026-01-11 22:56:04.21	63.14	33.29	-48.8	-54.4	10.2	5.40e-03	0	39	0	426770432	68	7139
2026-01-11 22:56:05.49	63.55	33.44	-48.9	-54.6	9.8	8.89e-03	0	39	0	429916160	68	7364
2026-01-11 22:56:06.28	63.81	33.53	-48.8	-54.4	10.0	5.82e-03	0	39	0	430964736	68	7183
2026-01-11 22:56:07.46	64.19	33.66	-48.6	-53.8	10.6	6.02e-03	0	39	0	433061888	68	6689
2026-01-11 22:56:08.31	64.47	33.76	-48.5	-53.8	10.8	3.06e-03	0	39	0	435159040	68	6653
2026-01-11 22:56:09.45	64.84	33.89	-48.2	-53.1	11.4	1.69e-03	0	39	0	437256192	68	6188
2026-01-11 22:56:10.30	65.13	33.98	-48.1	-52.8	11.8	6.64e-04	0	39	0	438304768	68	5955
2026-01-11 22:56:11.44	65.51	34.11	-48.2	-53.1	11.5	6.26e-04	0	39	0	440401920	68	6160
2026-01-11 22:56:12.29	65.79	34.20	-48.2	-53.0	11.6	8.25e-04	0	39	0	442499072	68	6115
2026-01-11 22:56:13.43	66.18	34.33	-48.5	-53.7	10.9	1.32e-03	0	39	0	444596224	68	6591
2026-01-11 22:56:14.28	66.47	34.42	-48.7	-54.2	10.4	2.47e-03	0	39	0	445644800	68	6976
2026-01-11 22:56:15.42	66.86	34.55	-49.0	-55.1	9.4	1.12e-02	0	39	0	447741952	68	7733
2026-01-11 22:56:16.27	67.16	34.64	-49.0	-54.9	9.5	1.51e-02	0	39	0	449839104	68	7626
2026-01-11 22:56:17.50	67.58	34.77	-48.5	-53.7	10.8	9.40e-03	0	39	0	451936256	69	6263
2026-01-11 22:56:18.36	67.89	34.86	-47.9	-52.5	12.0	1.60e-03	0	39	0	454033408	67	6075
2026-01-11 22:56:19.49	68.28	34.98	-47.2	-51.1	13.3	5.64e-05	0	39	0	456130560	66	5506
2026-01-11 22:56:20.34	68.59	35.07	-46.6	-50.2	14.2	3.00e-06	0	39	0	457179136	65	5234
2026-01-11 22:56:21.61	69.04	35.20	-46.8	-50.6	13.9	0.00e+00	0	39	0	459276288	64	5789
2026-01-11 22:56:22.38	69.32	35.28	-47.2	-51.2	13.2	1.14e-05	0	39	0	461373440	65	5886
2026-01-11 22:56:23.66	69.78	35.41	-47.7	-52.1	12.4	1.94e-04	0	39	0	463470592	66	6138
2026-01-11 22:56:24.39	70.05	35.48	-47.9	-52.5	12.0	2.80e-04	0	39	0	464519168	66	6448
2026-01-11 22:56:25.66	70.51	35.61	-47.4	-51.6	12.9	1.61e-04	0	39	0	467664896	66	5792
2026-01-11 22:56:26.39	70.78	35.68	-47.1	-51.1	13.3	2.74e-05	0	39	0	468713472	66	5509
2026-01-11 22:56:27.67	71.25	35.80	-46.6	-50.3	14.1	3.80e-06	0	39	0	470810624	65	5305
2026-01-11 22:56:28.41	71.53	35.87	-46.3	-49.7	14.8	0.00e+00	0	39	0	472907776	64	5276
2026-01-11 22:56:29.68	72.01	36.00	-46.2	-49.6	14.8	0.00e+00	0	39	0	475004928	64	5162
2026-01-11 22:56:30.41	72.28	36.06	-46.3	-49.7	14.8	0.00e+00	0	39	0	476053504	63	5563
2026-01-11 22:56:31.69	72.77	36.18	-46.3	-49.7	14.8	0.00e+00	0	39	0	479199232	63	5571
2026-01-11 22:56:32.48	73.07	36.26	-46.4	-49.8	14.7	0.00e+00	0	39	0	480247808	63	5646
2026-01-11 22:56:33.68	73.53	36.37	-46.3	-49.7	14.9	0.00e+00	0	39	0	482344960	63	5532
2026-01-11 22:56:34.62	73.89	36.45	-46.3	-49.7	14.8	0.00e+00	0	39	0	484442112	63	5565
2026-01-11 22:56:35.62	74.28	36.54	-46.1	-49.3	15.2	0.00e+00	0	39	0	486539264	63	5333
2026-01-11 22:56:36.61	74.67	36.63	-45.7	-48.8	15.7	0.00e+00	0	39	0	487587840	63	5019
2026-01-11 22:56:37.61	75.06	36.71	-45.5	-48.5	16.0	0.00e+00	0	39	0	489684992	62	5118
2026-01-11 22:56:38.61	75.45	36.80	-45.1	-48.0	16.5	0.00e+00	0	39	0	491782144	62	4821
2026-01-11 22:56:39.60	75.85	36.88	-45.1	-47.9	16.4	0.00e+00	0	39	0	493879296	61	5100
2026-01-11 22:56:40.60	76.25	36.96	-45.5	-48.5	16.0	0.00e+00	0	39	0	494927872	61	5411
2026-01-11 22:56:41.59	76.64	37.04	-46.1	-49.4	15.2	0.00e+00	0	39	0	497025024	62	5661
2026-01-11 22:56:42.59	77.04	37.12	-46.4	-49.9	14.7	0.00e+00	0	39	0	499122176	63	5670
2026-01-11 22:56:43.58	77.44	37.20	-46.2	-49.5	15.0	0.00e+00	0	39	0	501219328	63	5441
2026-01-11 22:56:44.58	77.85	37.28	-46.2	-49.5	15.0	7.00e-07	0	39	0	503316480	63	5425
2026-01-11 22:56:45.57	78.25	37.35	-46.5	-49.9	14.6	0.00e+00	0	39	0	504365056	63	5681
2026-01-11 22:56:46.57	78.66	37.43	-46.6	-50.2	14.2	0.00e+00	0	39	0	506462208	64	5559
2026-01-11 22:56:47.56	79.07	37.50	-46.6	-50.3	14.1	0.00e+00	0	39	0	508559360	64	5644
2026-01-11 22:56:48.56	79.49	37.57	-46.3	-49.8	14.6	3.00e-06	0	39	0	510656512	64	5316
2026-01-11 22:56:49.55	79.90	37.64	-46.0	-49.3	15.1	0.00e+00	0	39	0	511705088	63	5307
2026-01-11 22:56:50.55	80.31	37.71	-45.5	-48.5	16.0	0.00e+00	0	39	0	513802240	62	5144
2026-01-11 22:56:51.54	80.73	37.77	-45.5	-48.5	16.0	0.00e+00	0	39	0	515899392	62	5138
2026-01-11 22:56:52.54	81.15	37.84	-45.7	-48.9	15.7	0.00e+00	0	39	0	517996544	62	5348
2026-01-11 22:56:53.53	81.57	37.90	-46.0	-49.3	15.2	0.00e+00	0	39	0	520093696	62	5597
2026-01-11 22:56:54.53	81.99	37.96	-46.4	-50.0	14.6	7.00e-07	0	39	0	521142272	63	5741
2026-01-11 22:56:55.52	82.41	38.02	-46.5	-50.2	14.4	7.00e-07	0	39	0	523239424	63	5909
2026-01-11 22:56:56.51	82.83	38.08	-46.4	-50.2	14.3	7.00e-07	0	39	0	525336576	63	5903
2026-01-11 22:56:57.51	83.26	38.14	-46.7	-50.7	13.8	3.00e-06	0	39	0	527433728	64	5897
2026-01-11 22:56:58.50	83.69	38.19	-46.8	-50.8	13.6	4.50e-06	0	39	0	528482304	64	5934
2026-01-11 22:56:59.50	84.12	38.24	-46.7	-50.6	13.9	7.60e-06	0	39	0	530579456	64	5841
2026-01-11 22:57:00.49	84.55	38.30	-46.3	-49.9	14.5	4.50e-06	0	39	0	532676608	64	5364
2026-01-11 22:57:01.55	85.01	38.35	-46.0	-49.4	15.1	0.00e+00	0	39	0	534773760	63	5364
2026-01-11 22:57:02.47	85.41	38.39	-45.8	-49.1	15.4	0.00e+00	0	39	0	536870912	63	5195
2026-01-11 22:57:03.46	85.84	38.44	-45.6	-48.9	15.6	0.00e+00	0	39	0	537919488	63	5058
2026-01-11 22:57:04.46	86.28	38.49	-45.7	-49.0	15.4	0.00e+00	0	39	0	540016640	62	5454
2026-01-11 22:57:05.45	86.71	38.53	-45.9	-49.2	15.3	0.00e+00	0	39	0	542113792	62	5585
2026-01-11 22:57:06.45	87.15	38.57	-46.1	-49.6	14.9	7.00e-07	0	39	0	544210944	63	5526
2026-01-11 22:57:07.44	87.59	38.61	-46.3	-49.8	14.7	0.00e+00	0	39	0	545259520	63	5644
2026-01-11 22:57:08.44	88.03	38.65	-46.5	-50.4	14.0	3.80e-06	0	39	0	547356672	64	5673
2026-01-11 22:57:09.43	88.47	38.68	-46.9	-51.1	13.3	6.10e-06	0	39	0	549453824	64	6189
2026-01-11 22:57:10.43	88.91	38.72	-46.8	-50.9	13.5	1.44e-05	0	39	0	551550976	64	6031
2026-01-11 22:57:11.42	89.35	38.75	-46.5	-50.3	14.1	3.80e-06	0	39	0	553648128	64	5612
2026-01-11 22:57:12.42	89.80	38.78	-46.5	-50.1	14.3	0.00e+00	0	39	0	554696704	64	5523
2026-01-11 22:57:13.41	90.24	38.81	-46.5	-50.1	14.3	0.00e+00	0	39	0	556793856	64	5472
2026-01-11 22:57:14.41	90.69	38.83	-46.7	-50.4	14.1	1.50e-06	0	39	0	558891008	64	5658
2026-01-11 22:57:15.40	91.13	38.86	-46.5	-50.0	14.5	3.80e-06	0	39	0	560988160	64	5450
2026-01-11 22:57:16.47	91.61	38.88	-46.3	-49.9	14.5	0.00e+00	0	39	0	563085312	64	5385
2026-01-11 22:57:17.33	92.00	38.90	-46.6	-50.3	14.1	0.00e+00	0	39	0	564133888	64	5649
2026-01-11 22:57:18.46	92.51	38.92	-47.3	-51.8	12.7	2.67e-05	0	39	0	566231040	65	6304
2026-01-11 22:57:19.32	92.89	38.94	-48.2	-53.6	10.8	7.39e-04	0	39	0	568328192	66	7295
2026-01-11 22:57:20.45	93.40	38.95	-48.6	-54.5	9.8	7.64e-03	0	39	0	570425344	67	7668
2026-01-11 22:57:21.31	93.79	38.97	-48.1	-53.1	11.4	5.36e-03	0	39	0	571473920	67	6502
2026-01-11 22:57:22.45	94.31	38.98	-47.0	-51.0	13.5	6.71e-05	0	39	0	573571072	66	5446
2026-01-11 22:57:23.30	94.69	38.99	-46.5	-50.0	14.4	2.20e-06	0	39	0	575668224	64	5455
2026-01-11 22:57:24.43	95.20	39.00	-46.1	-49.3	15.3	0.00e+00	0	39	0	577765376	63	5330
2026-01-11 22:57:25.29	95.59	39.00	-45.9	-49.0	15.4	0.00e+00	0	39	0	578813952	63	5153
2026-01-11 22:57:26.42	96.10	39.00	-45.5	-48.5	16.0	0.00e+00	0	39	0	580911104	62	5115
2026-01-11 22:57:27.28	96.49	39.01	-45.0	-47.9	16.6	0.00e+00	0	39	0	583008256	62	4772
2026-01-11 22:57:28.41	97.00	39.00	-44.9	-47.7	16.7	0.00e+00	0	39	0	585105408	61	4953
2026-01-11 22:57:29.27	97.39	39.00	-45.1	-48.0	16.4	0.00e+00	0	39	0	586153984	61	5139
2026-01-11 22:57:30.48	97.94	39.00	-45.6	-48.6	15.9	0.00e+00	0	39	0	589299712	61	5501
2026-01-11 22:57:31.33	98.32	38.99	-45.4	-48.4	16.1	0.00e+00	0	39	0	590348288	61	5359
2026-01-11 22:57:32.53	98.87	38.98	-45.2	-48.1	16.3	0.00e+00	0	39	0	592445440	61	5194
2026-01-11 22:57:33.39	99.26	38.97	-45.3	-48.3	16.2	0.00e+00	0	39	0	594542592	61	5294
2026-01-11 22:57:34.52	99.77	38.96	-46.0	-49.3	15.2	0.00e+00	0	39	0	596639744	62	5647
2026-01-11 22:57:35.37	100.15	38.95	-46.2	-49.6	15.0	0.00e+00	0	39	0	597688320	63	5485
2026-01-11 22:57:36.59	100.70	38.93	-46.0	-49.3	15.2	0.00e+00	0	39	0	600834048	63	5301
2026-01-11 22:57:37.44	101.08	38.91	-45.8	-49.0	15.5	0.00e+00	0	39	0	601882624	63	5133
2026-01-11 22:57:38.58	101.59	38.89	-45.7	-48.9	15.6	0.00e+00	0	39	0	603979776	63	5056
2026-01-11 22:57:39.43	101.98	38.87	-45.6	-48.7	15.8	0.00e+00	0	39	0	606076928	63	4940
2026-01-11 22:57:40.57	102.49	38.84	-45.5	-48.6	15.9	0.00e+00	0	39	0	608174080	62	5187
2026-01-11 22:57:41.42	102.87	38.82	-45.6	-48.7	15.8	0.00e+00	0	39	0	609222656	62	5264
2026-01-11 22:57:42.56	103.38	38.79	-46.1	-49.4	15.1	0.00e+00	0	39	0	611319808	62	5710
2026-01-11 22:57:43.41	103.76	38.76	-46.6	-50.3	14.3	0.00e+00	0	39	0	613416960	63	5942
2026-01-11 22:57:44.55	104.27	38.72	-46.5	-50.1	14.4	0.00e+00	0	39	0	615514112	63	5811
2026-01-11 22:57:45.40	104.64	38.70	-46.5	-50.0	14.6	0.00e+00	0	39	0	616562688	63	5740
2026-01-11 22:57:46.54	105.15	38.66	-46.0	-49.3	15.2	0.00e+00	0	39	0	618659840	63	5287
2026-01-11 22:57:47.39	105.53	38.62	-45.9	-49.1	15.3	0.00e+00	0	39	0	620756992	63	5209
2026-01-11 22:57:48.53	106.03	38.58	-45.7	-48.8	15.7	0.00e+00	0	39	0	622854144	63	5026
2026-01-11 22:57:49.38	106.41	38.54	-45.7	-48.9	15.6	0.00e+00	0	39	0	623902720	63	5071
2026-01-11 22:57:50.52	106.91	38.50	-45.4	-48.5	16.0	0.00e+00	0	39	0	625999872	62	5113
2026-01-11 22:57:51.37	107.28	38.46	-45.2	-48.1	16.3	0.00e+00	0	39	0	628097024	62	4914
2026-01-11 22:57:52.62	107.83	38.40	-45.5	-48.6	16.0	0.00e+00	0	39	0	630194176	62	5163
2026-01-11 22:57:53.47	108.20	38.36	-46.2	-49.5	15.0	0.00e+00	0	39	0	632291328	63	5456
2026-01-11 22:57:54.61	108.69	38.30	-46.5	-50.1	14.4	7.00e-07	0	39	0	634388480	63	5813
2026-01-11 22:57:55.46	109.06	38.26	-46.1	-49.4	15.0	7.00e-07	0	39	0	635437056	63	5401
2026-01-11 22:57:56.60	109.55	38.20	-45.4	-48.4	16.1	0.00e+00	0	39	0	637534208	62	5085
2026-01-11 22:57:57.45	109.92	38.15	-44.9	-47.8	16.7	0.00e+00	0	39	0	639631360	61	4985
2026-01-11 22:57:58.59	110.41	38.08	-45.3	-48.3	16.2	0.00e+00	0	39	0	641728512	61	5293
2026-01-11 22:57:59.44	110.77	38.03	-45.9	-49.2	15.3	0.00e+00	0	39	0	642777088	62	5540
2026-01-11 22:58:00.58	111.26	37.97	-45.5	-48.6	15.9	0.00e+00	0	39	0	644874240	62	5176
2026-01-11 22:58:01.43	111.62	37.91	-45.0	-47.9	16.6	0.00e+00	0	39	0	646971392	62	4765
2026-01-11 22:58:02.56	112.10	37.84	-44.6	-47.3	17.1	0.00e+00	0	39	0	649068544	61	4722
2026-01-11 22:58:03.42	112.46	37.79	-45.0	-47.8	16.6	0.00e+00	0	39	0	651165696	61	5038
2026-01-11 22:58:04.55	112.93	37.71	-45.8	-48.9	15.6	0.00e+00	0	39	0	653262848	62	5389
2026-01-11 22:58:05.41	113.29	37.65	-46.4	-49.9	14.6	0.00e+00	0	39	0	654311424	63	5704
2026-01-11 22:58:06.54	113.76	37.57	-46.5	-50.2	14.3	7.00e-07	0	39	0	656408576	63	5895
2026-01-11 22:58:07.40	114.12	37.51	-46.2	-49.7	14.8	0.00e+00	0	39	0	658505728	63	5557
2026-01-11 22:58:08.53	114.59	37.43	-45.2	-48.3	16.2	0.00e+00	0	39	0	660602880	62	4990
2026-01-11 22:58:09.39	114.94	37.37	-45.0	-48.0	16.4	0.00e+00	0	39	0	661651456	61	5154
2026-01-11 22:58:10.52	115.40	37.28	-45.4	-48.5	16.0	0.00e+00	0	39	0	663748608	61	5426
2026-01-11 22:58:11.38	115.75	37.21	-45.3	-48.4	16.1	0.00e+00	0	39	0	665845760	61	5355
2026-01-11 22:58:12.51	116.21	37.13	-44.4	-47.1	17.3	0.00e+00	0	39	0	667942912	60	4871
2026-01-11 22:58:13.37	116.56	37.06	-43.6	-46.0	18.2	0.00e+00	0	39	0	668991488	59	4585
2026-01-11 22:58:14.50	117.01	36.97	-43.6	-46.0	18.2	0.00e+00	0	39	0	671088640	59	4577
2026-01-11 22:58:15.35	117.35	36.90	-44.2	-46.8	17.6	0.00e+00	0	39	0	673185792	59	5001
2026-01-11 22:58:16.65	117.87	36.79	-45.6	-48.6	15.9	0.00e+00	0	39	0	675282944	61	5506
2026-01-11 22:58:17.36	118.15	36.73	-46.2	-49.6	14.8	0.00e+00	0	39	0	676331520	63	5510
2026-01-11 22:58:18.86	118.74	36.60	-45.5	-48.4	16.0	0.00e+00	0	39	0	679477248	62	5080
2026-01-11 22:58:19.57	119.02	36.53	-44.9	-47.7	16.7	0.00e+00	0	39	0	680525824	61	4956
2026-01-11 22:58:20.85	119.51	36.42	-44.5	-47.1	17.3	0.00e+00	0	39	0	683671552	60	4890
2026-01-11 22:58:21.58	119.80	36.35	-44.4	-47.0	17.4	0.00e+00	0	39	0	684720128	60	4831
2026-01-11 22:58:22.86	120.29	36.24	-43.8	-46.3	18.0	0.00e+00	0	39	0	686817280	59	4726
2026-01-11 22:58:23.58	120.56	36.17	-43.2	-45.5	18.6	0.00e+00	0	39	0	688914432	58	4597
2026-01-11 22:58:24.86	121.05	36.05	-42.5	-44.6	19.4	0.00e+00	0	39	0	691011584	57	4384
2026-01-11 22:58:25.57	121.32	35.98	-42.7	-44.9	19.2	0.00e+00	0	39	0	692060160	57	4535
2026-01-11 22:58:26.85	121.80	35.86	-43.8	-46.2	18.0	0.00e+00	0	39	0	694157312	58	4959
2026-01-11 22:58:27.56	122.06	35.79	-44.4	-47.1	17.3	0.00e+00	0	39	0	696254464	59	5174
2026-01-11 22:58:28.84	122.54	35.67	-44.9	-47.8	16.6	0.00e+00	0	39	0	698351616	60	5309
2026-01-11 22:58:29.57	122.81	35.59	-45.1	-48.0	16.4	0.00e+00	0	39	0	699400192	60	5416
2026-01-11 22:58:30.84	123.28	35.47	-45.1	-48.0	16.4	0.00e+00	0	39	0	702545920	61	5152
2026-01-11 22:58:31.55	123.54	35.39	-45.2	-48.2	16.3	0.00e+00	0	39	0	703594496	61	5228
2026-01-11 22:58:32.83	124.00	35.26	-45.9	-49.1	15.4	0.00e+00	0	39	0	705691648	62	5514
2026-01-11 22:58:33.54	124.26	35.19	-46.3	-49.7	14.8	0.00e+00	0	39	0	706740224	63	5550
2026-01-11 22:58:34.82	124.71	35.06	-46.3	-49.7	14.8	0.00e+00	0	39	0	709885952	63	5578
2026-01-11 22:58:35.53	124.97	34.98	-46.1	-49.4	15.1	0.00e+00	0	39	0	710934528	63	5387
2026-01-11 22:58:36.81	125.42	34.85	-45.4	-48.4	15.9	0.00e+00	0	39	0	713031680	63	4803
2026-01-11 22:58:37.53	125.67	34.77	-45.8	-48.9	15.6	0.00e+00	0	39	0	715128832	62	5398
2026-01-11 22:58:38.80	126.12	34.64	-46.5	-49.9	14.5	0.00e+00	0	39	0	717225984	63	5706
2026-01-11 22:58:39.51	126.36	34.56	-46.9	-50.7	13.7	7.00e-07	0	39	0	718274560	64	5884
2026-01-11 22:58:40.80	126.81	34.42	-47.5	-51.9	12.6	8.85e-05	0	39	0	720371712	65	6364
2026-01-11 22:58:41.52	127.06	34.34	-47.4	-51.7	12.8	1.43e-04	0	39	0	722468864	65	6247
2026-01-11 22:58:42.80	127.49	34.20	-47.1	-51.1	13.4	1.90e-05	0	39	0	724566016	65	5811
2026-01-11 22:58:43.51	127.73	34.12	-47.4	-51.6	12.9	1.37e-05	0	39	0	725614592	65	6162
2026-01-11 22:58:44.79	128.16	33.98	-48.2	-53.4	11.1	2.96e-04	0	39	0	728760320	67	6724
2026-01-11 22:58:45.62	128.44	33.88	-48.6	-54.3	10.1	2.07e-03	0	39	0	729808896	67	7487
2026-01-11 22:58:46.76	128.82	33.76	-48.7	-54.2	10.3	9.15e-03	0	39	0	731906048	68	7033
2026-01-11 22:58:47.61	129.09	33.66	-48.1	-53.0	11.5	2.36e-03	0	39	0	734003200	68	6100
2026-01-11 22:58:48.75	129.47	33.53	-47.5	-51.8	12.6	2.20e-04	0	39	0	736100352	66	5964
2026-01-11 22:58:49.60	129.74	33.43	-46.9	-50.7	13.8	2.74e-05	0	39	0	737148928	65	5535
2026-01-11 22:58:50.74	130.11	33.30	-46.9	-50.7	13.7	3.80e-06	0	39	0	739246080	65	5572
2026-01-11 22:58:51.59	130.38	33.20	-47.0	-50.8	13.6	7.60e-06	0	39	0	741343232	65	5641
2026-01-11 22:58:52.73	130.74	33.07	-47.8	-52.4	12.1	1.65e-04	0	39	0	743440384	66	6352
2026-01-11 22:58:53.58	131.01	32.97	-48.2	-53.1	11.3	9.03e-04	0	39	0	744488960	66	6930
2026-01-11 22:58:54.72	131.37	32.84	-47.8	-52.5	11.9	5.92e-04	0	39	0	746586112	67	6072
2026-01-11 22:58:55.57	131.63	32.74	-47.9	-52.7	11.7	3.58e-04	0	39	0	748683264	67	6241
2026-01-11 22:58:56.71	131.99	32.60	-48.3	-53.7	10.7	2.24e-03	0	39	0	750780416	67	6994
2026-01-11 22:58:57.59	132.26	32.50	-49.2	-56.4	8.2	2.30e-02	0	39	0	751828992	69	8520
2026-01-11 22:58:58.90	132.66	32.34	-49.5	-58.2	6.4	2.01e-01	0	39	0	754974720	69	10505
2026-01-11 22:58:59.61	132.87	32.26	-49.2	-56.9	7.6	1.45e-01	0	40	0	756023296	69	8992
2026-01-11 22:59:01.11	133.32	32.08	-47.6	-52.4	12.0	1.59e-03	0	39	0	759169024	67	6031
2026-01-11 22:59:01.83	133.53	31.99	-47.1	-51.3	13.1	2.29e-04	0	39	0	760217600	66	5614
2026-01-11 22:59:03.17	133.93	31.83	-47.0	-51.0	13.5	2.28e-05	0	39	0	762314752	65	5735
2026-01-11 22:59:03.88	134.14	31.74	-47.5	-51.8	12.6	1.60e-05	0	39	0	764411904	65	6315
2026-01-11 22:59:05.16	134.51	31.59	-48.0	-52.8	11.7	4.08e-04	0	39	0	766509056	66	6678
2026-01-11 22:59:05.88	134.72	31.50	-48.3	-53.6	10.8	1.42e-03	0	39	0	767557632	67	6885
2026-01-11 22:59:07.16	135.08	31.34	-48.3	-53.4	10.9	2.70e-03	0	39	0	769654784	67	6735
2026-01-11 22:59:07.88	135.29	31.26	-47.7	-52.3	12.1	1.28e-03	0	39	0	771751936	67	5925
2026-01-11 22:59:09.16	135.65	31.10	-47.4	-51.6	12.7	7.32e-05	0	39	0	773849088	66	5847
2026-01-11 22:59:09.87	135.85	31.01	-48.0	-52.8	11.5	2.53e-04	0	39	0	774897664	66	6701
2026-01-11 22:59:11.15	136.21	30.85	-48.0	-52.9	11.4	6.47e-04	0	39	0	778043392	66	6766
2026-01-11 22:59:12.03	136.45	30.75	-48.4	-53.8	10.5	2.29e-03	0	39	0	779091968	67	7075
2026-01-11 22:59:13.17	136.76	30.61	-48.3	-53.6	10.7	4.16e-03	0	39	0	781189120	67	6897
2026-01-11 22:59:14.03	136.99	30.50	-47.8	-52.4	11.9	1.79e-03	0	39	0	783286272	67	6045
2026-01-11 22:59:15.16	137.30	30.36	-46.7	-50.5	13.9	2.28e-05	0	39	0	785383424	65	5452
2026-01-11 22:59:16.02	137.53	30.25	-46.1	-49.4	15.0	0.00e+00	0	39	0	786432000	64	5057
2026-01-11 22:59:17.15	137.83	30.11	-45.9	-49.1	15.3	0.00e+00	0	39	0	788529152	63	5189
2026-01-11 22:59:18.00	138.05	30.01	-46.2	-49.4	15.0	0.00e+00	0	39	0	790626304	63	5401
2026-01-11 22:59:19.14	138.35	29.87	-47.2	-51.3	13.2	5.30e-06	0	39	0	792723456	65	5962
2026-01-11 22:59:20.00	138.58	29.76	-47.8	-52.3	12.1	1.24e-04	0	39	0	793772032	66	6332
2026-01-11 22:59:21.14	138.87	29.62	-47.4	-51.8	12.6	2.22e-04	0	39	0	795869184	66	5944
2026-01-11 22:59:22.43	139.20	29.46	-46.3	-49.8	14.5	7.00e-07	0	39	0	799014912	64	5331
2026-01-11 22:59:23.14	139.38	29.37	-45.9	-49.2	15.3	0.00e+00	0	39	0	800063488	63	5231
2026-01-11 22:59:24.42	139.70	29.21	-45.4	-48.5	15.9	0.00e+00	0	39	0	802160640	62	5104
2026-01-11 22:59:25.13	139.88	29.12	-45.7	-48.8	15.6	0.00e+00	0	39	0	804257792	62	5329
2026-01-11 22:59:26.47	140.21	28.96	-46.4	-49.9	14.6	7.00e-07	0	39	0	806354944	63	5675
2026-01-11 22:59:27.18	140.39	28.87	-46.6	-50.3	14.2	7.00e-07	0	39	0	807403520	63	5951
2026-01-11 22:59:28.45	140.70	28.71	-46.5	-50.1	14.3	1.50e-06	0	39	0	810549248	64	5480
2026-01-11 22:59:29.16	140.87	28.62	-46.0	-49.3	15.1	0.00e+00	0	39	0	811597824	63	5326
2026-01-11 22:59:30.44	141.18	28.46	-44.7	-47.5	16.8	0.00e+00	0	39	0	813694976	61	4844
2026-01-11 22:59:31.16	141.35	28.37	-44.5	-47.2	17.1	0.00e+00	0	39	0	814743552	60	4940
2026-01-11 22:59:32.43	141.65	28.21	-44.2	-46.8	17.5	0.00e+00	0	39	0	817889280	60	4717
2026-01-11 22:59:33.17	141.82	28.12	-44.1	-46.7	17.6	0.00e+00	0	39	0	818937856	60	4679
2026-01-11 22:59:34.45	142.12	27.96	-44.7	-47.5	16.9	0.00e+00	0	39	0	821035008	60	5106
2026-01-11 22:59:35.16	142.29	27.87	-44.9	-47.7	16.6	0.00e+00	0	39	0	823132160	60	5248
2026-01-11 22:59:36.44	142.58	27.71	-45.4	-48.5	15.9	0.00e+00	0	39	0	825229312	61	5417
2026-01-11 22:59:37.17	142.75	27.62	-45.4	-48.5	15.9	0.00e+00	0	39	0	826277888	62	5127
2026-01-11 22:59:38.45	143.04	27.47	-44.8	-47.6	16.8	0.00e+00	0	39	0	828375040	61	4889
2026-01-11 22:59:39.16	143.19	27.38	-44.4	-47.0	17.3	0.00e+00	0	39	0	830472192	60	4843
2026-01-11 22:59:40.44	143.48	27.22	-43.8	-46.3	17.9	0.00e+00	0	39	0	832569344	59	4711
2026-01-11 22:59:41.15	143.64	27.13	-43.6	-46.0	18.1	0.00e+00	0	39	0	833617920	59	4597
2026-01-11 22:59:42.43	143.92	26.97	-43.6	-46.0	18.1	0.00e+00	0	39	0	836763648	59	4586
2026-01-11 22:59:43.17	144.08	26.88	-44.1	-46.7	17.5	0.00e+00	0	39	0	837812224	59	4964
2026-01-11 22:59:44.45	144.36	26.72	-44.9	-47.9	16.5	0.00e+00	0	39	0	839909376	60	5350
2026-01-11 22:59:45.17	144.51	26.63	-45.0	-48.0	16.4	0.00e+00	0	39	0	842006528	60	5440
2026-01-11 22:59:46.45	144.78	26.48	-45.1	-48.1	16.3	0.00e+00	0	39	0	844103680	61	5172
2026-01-11 22:59:47.16	144.93	26.39	-44.7	-47.5	16.8	0.00e+00	0	39	0	845152256	61	4870
2026-01-11 22:59:48.44	145.20	26.23	-44.2	-46.9	17.4	0.00e+00	0	39	0	847249408	60	4802
2026-01-11 22:59:49.17	145.35	26.14	-44.0	-46.5	17.7	0.00e+00	0	39	0	849346560	60	4590
2026-01-11 22:59:50.45	145.62	25.99	-43.5	-45.9	18.2	0.00e+00	0	39	0	851443712	58	4779
2026-01-11 22:59:51.16	145.76	25.90	-43.6	-46.0	18.2	0.00e+00	0	39	0	852492288	58	4866
2026-01-11 22:59:52.44	146.02	25.74	-44.2	-46.8	17.5	0.00e+00	0	39	0	854589440	58	5297
2026-01-11 22:59:53.15	146.17	25.66	-44.3	-46.9	17.3	0.00e+00	0	39	0	856686592	59	5089
2026-01-11 22:59:54.43	146.42	25.50	-44.7	-47.5	16.8	0.00e+00	0	39	0	858783744	60	5124
2026-01-11 22:59:55.14	146.57	25.41	-44.8	-47.7	16.6	0.00e+00	0	39	0	859832320	60	5246
2026-01-11 22:59:56.42	146.82	25.26	-44.5	-47.2	17.1	0.00e+00	0	39	0	862978048	60	4980
2026-01-11 22:59:57.13	146.96	25.17	-44.1	-46.7	17.6	0.00e+00	0	39	0	864026624	60	4677
2026-01-11 22:59:58.41	147.21	25.02	-43.7	-46.2	18.0	0.00e+00	0	39	0	866123776	59	4662
2026-01-11 22:59:59.12	147.34	24.93	-43.3	-45.8	18.4	0.00e+00	0	39	0	867172352	58	4716
2026-01-11 23:00:00.40	147.59	24.78	-43.2	-45.6	18.5	0.00e+00	0	39	0	870318080	58	4639
2026-01-11 23:00:01.14	147.73	24.69	-43.2	-45.6	18.5	0.00e+00	0	39	0	871366656	58	4617
2026-01-11 23:00:02.41	147.97	24.54	-43.3	-45.7	18.4	0.00e+00	0	39	0	873463808	58	4678
2026-01-11 23:00:03.13	148.11	24.45	-43.6	-46.1	18.1	0.00e+00	0	39	0	875560960	58	4912
2026-01-11 23:00:04.40	148.34	24.30	-43.8	-46.4	17.8	0.00e+00	0	39	0	877658112	58	5069
2026-01-11 23:00:05.12	148.47	24.21	-43.9	-46.5	17.6	0.00e+00	0	39	0	878706688	58	5156
2026-01-11 23:00:06.39	148.71	24.06	-44.0	-46.6	17.6	0.00e+00	0	39	0	880803840	58	5163
2026-01-11 23:00:07.12	148.84	23.98	-44.0	-46.6	17.6	0.00e+00	0	39	0	882900992	58	5177
2026-01-11 23:00:08.40	149.07	23.82	-44.1	-46.6	17.6	0.00e+00	0	39	0	884998144	58	5218
2026-01-11 23:00:09.11	149.20	23.74	-44.1	-46.6	17.6	0.00e+00	0	39	0	886046720	58	5193
2026-01-11 23:00:10.56	149.46	23.57	-44.3	-46.9	17.3	0.00e+00	0	39	0	889192448	59	5047
2026-01-11 23:00:11.27	149.58	23.48	-44.5	-47.2	17.0	0.00e+00	0	39	0	890241024	59	5233
2026-01-11 23:00:12.55	149.81	23.33	-44.6	-47.3	16.9	0.00e+00	0	39	0	892338176	59	5329
2026-01-11 23:00:13.26	149.93	23.25	-44.6	-47.3	16.9	0.00e+00	0	39	0	894435328	60	5029
2026-01-11 23:00:14.65	150.17	23.09	-44.7	-47.5	16.9	0.00e+00	0	39	0	896532480	60	5119
2026-01-11 23:00:15.36	150.29	23.01	-44.6	-47.3	17.0	0.00e+00	0	39	0	897581056	60	5034
2026-01-11 23:00:16.64	150.51	22.86	-44.3	-47.0	17.2	0.00e+00	0	39	0	900726784	60	4836
2026-01-11 23:00:17.70	150.69	22.73	-44.3	-47.0	17.2	0.00e+00	0	39	0	902823936	60	4848
2026-01-11 23:00:18.87	150.88	22.60	-44.3	-47.0	17.3	0.00e+00	0	39	0	904921088	60	4855
2026-01-11 23:00:19.72	151.03	22.50	-44.3	-46.9	17.3	0.00e+00	0	39	0	905969664	60	4814
2026-01-11 23:00:20.85	151.21	22.37	-44.4	-47.0	17.3	0.00e+00	0	39	0	908066816	60	4861
2026-01-11 23:00:21.71	151.35	22.27	-44.4	-47.1	17.2	0.00e+00	0	39	0	910163968	60	4896
2026-01-11 23:00:22.85	151.54	22.14	-44.7	-47.5	16.9	0.00e+00	0	39	0	912261120	60	5102
2026-01-11 23:00:23.70	151.68	22.04	-44.8	-47.6	16.7	0.00e+00	0	39	0	913309696	60	5198
2026-01-11 23:00:24.84	151.86	21.91	-44.4	-47.1	17.1	0.00e+00	0	39	0	915406848	60	4912
2026-01-11 23:00:25.69	151.99	21.82	-44.5	-47.3	17.0	0.00e+00	0	39	0	917504000	60	4990
2026-01-11 23:00:26.83	152.17	21.69	-44.3	-47.0	17.3	0.00e+00	0	39	0	919601152	60	4821
2026-01-11 23:00:27.68	152.31	21.59	-44.5	-47.2	17.1	0.00e+00	0	39	0	920649728	60	4949
2026-01-11 23:00:28.90	152.50	21.45	-44.6	-47.3	16.9	0.00e+00	0	39	0	923795456	60	5037
2026-01-11 23:00:29.75	152.63	21.36	-44.6	-47.3	17.0	0.00e+00	0	39	0	924844032	60	5001
2026-01-11 23:00:30.89	152.80	21.23	-45.0	-47.8	16.5	0.00e+00	0	39	0	926941184	60	5312
2026-01-11 23:00:31.74	152.93	21.13	-45.2	-48.1	16.3	0.00e+00	0	39	0	929038336	60	5479
2026-01-11 23:00:33.01	153.12	20.99	-45.5	-48.5	15.8	0.00e+00	0	39	0	931135488	61	5460
2026-01-11 23:00:33.74	153.23	20.91	-45.7	-48.9	15.5	0.00e+00	0	39	0	932184064	61	5663
2026-01-11 23:00:35.21	153.45	20.75	-45.8	-49.1	15.2	0.00e+00	0	39	0	935329792	62	5528
2026-01-11 23:00:35.91	153.56	20.67	-45.9	-49.3	15.1	0.00e+00	0	39	0	936378368	62	5608
2026-01-11 23:00:37.19	153.75	20.53	-46.0	-49.5	14.9	0.00e+00	0	39	0	938475520	62	5741
2026-01-11 23:00:38.30	153.91	20.41	-45.9	-49.3	15.0	0.00e+00	0	39	0	940572672	62	5638
2026-01-11 23:00:39.15	154.03	20.31	-45.8	-49.2	15.2	0.00e+00	0	39	0	942669824	62	5535
2026-01-11 23:00:40.29	154.19	20.19	-45.3	-48.5	15.9	0.00e+00	0	39	0	944766976	62	5113
2026-01-11 23:00:41.14	154.32	20.09	-45.5	-48.6	15.7	0.00e+00	0	39	0	946864128	62	5194
2026-01-11 23:00:42.31	154.48	19.97	-45.5	-48.6	15.7	0.00e+00	0	39	0	948961280	62	5186
2026-01-11 23:00:43.16	154.60	19.88	-45.4	-48.4	15.9	0.00e+00	0	39	0	950009856	62	5095
2026-01-11 23:00:44.38	154.77	19.74	-45.7	-48.9	15.5	0.00e+00	0	39	0	952107008	62	5353
2026-01-11 23:00:45.23	154.89	19.65	-45.7	-49.0	15.2	0.00e+00	0	39	0	954204160	62	5438
2026-01-11 23:00:46.37	155.05	19.53	-45.8	-49.1	15.2	0.00e+00	0	39	0	956301312	62	5504
2026-01-11 23:00:47.22	155.16	19.44	-45.8	-49.2	15.1	0.00e+00	0	39	0	957349888	62	5544
2026-01-11 23:00:48.36	155.32	19.32	-45.5	-48.8	15.5	0.00e+00	0	39	0	959447040	62	5304
2026-01-11 23:00:49.22	155.43	19.22	-45.6	-49.0	15.2	0.00e+00	0	39	0	961544192	62	5418
2026-01-11 23:00:50.35	155.59	19.10	-45.8	-49.2	15.1	0.00e+00	0	39	0	963641344	62	5546
2026-01-11 23:00:51.30	155.71	19.00	-45.5	-48.8	15.5	0.00e+00	0	39	0	965738496	62	5312
2026-01-11 23:00:52.47	155.87	18.88	-45.5	-48.8	15.5	0.00e+00	0	39	0	967835648	62	5303
2026-01-11 23:00:53.33	155.98	18.79	-45.6	-48.8	15.5	0.00e+00	0	39	0	968884224	62	5313
2026-01-11 23:00:54.46	156.13	18.67	-45.3	-48.4	15.9	0.00e+00	0	39	0	970981376	62	5068
2026-01-11 23:00:55.32	156.24	18.58	-45.2	-48.3	15.9	0.00e+00	0	39	0	973078528	62	5023
2026-01-11 23:00:56.46	156.39	18.46	-45.2	-48.3	16.0	0.00e+00	0	39	0	975175680	62	5017
2026-01-11 23:00:57.31	156.49	18.37	-45.3	-48.4	15.9	0.00e+00	0	39	0	976224256	62	5048
2026-01-11 23:00:58.45	156.64	18.25	-45.3	-48.4	15.8	0.00e+00	0	39	0	978321408	62	5099
2026-01-11 23:00:59.30	156.75	18.16	-45.5	-48.8	15.6	0.00e+00	0	39	0	980418560	62	5283
2026-01-11 23:01:00.44	156.89	18.05	-45.6	-48.9	15.4	7.00e-07	0	39	0	982515712	62	5385
2026-01-11 23:01:01.29	157.00	17.96	-46.0	-49.5	14.8	0.00e+00	0	39	0	984612864	62	5749
2026-01-11 23:01:02.43	157.14	17.84	-46.0	-49.5	14.8	7.00e-07	0	39	0	986710016	63	5443
2026-01-11 23:01:03.28	157.24	17.76	-45.9	-49.3	14.9	0.00e+00	0	39	0	987758592	63	5324
2026-01-11 23:01:04.42	157.38	17.64	-45.9	-49.3	14.9	0.00e+00	0	39	0	989855744	63	5324
2026-01-11 23:01:05.27	157.48	17.55	-45.8	-49.2	15.0	7.00e-07	0	39	0	991952896	63	5273
2026-01-11 23:01:06.41	157.62	17.44	-45.8	-49.2	15.1	0.00e+00	0	39	0	994050048	63	5263
2026-01-11 23:01:07.26	157.72	17.35	-45.8	-49.2	15.1	0.00e+00	0	39	0	995098624	63	5227
2026-01-11 23:01:08.40	157.86	17.24	-45.5	-48.7	15.6	0.00e+00	0	39	0	997195776	62	5273
2026-01-11 23:01:09.26	157.96	17.15	-45.5	-48.7	15.5	0.00e+00	0	39	0	999292928	62	5278
2026-01-11 23:01:10.62	158.12	17.01	-45.2	-48.3	15.9	0.00e+00	0	39	0	1001390080	62	4984
2026-01-11 23:01:11.33	158.20	16.94	-45.0	-48.1	16.2	3.92e-03	0	39	0	1003487232	62	4884
2026-01-11 23:01:12.61	158.35	16.81	-45.0	-48.0	16.2	0.00e+00	0	39	0	1005584384	61	5138
2026-01-11 23:01:13.35	158.44	16.74	-45.0	-48.0	16.1	0.00e+00	0	39	0	1006632960	61	5155
2026-01-11 23:01:14.63	158.58	16.61	-45.4	-48.6	15.6	0.00e+00	0	39	0	1008730112	61	5506
2026-01-11 23:01:15.35	158.67	16.54	-45.4	-48.7	15.5	0.00e+00	0	39	0	1010827264	61	5587
2026-01-11 23:01:16.63	158.81	16.42	-45.4	-48.7	15.5	0.00e+00	0	39	0	1012924416	61	5561
2026-01-11 23:01:17.36	158.89	16.34	-45.7	-49.1	15.1	0.00e+00	0	39	0	1013972992	62	5497
2026-01-11 23:01:18.64	159.03	16.22	-45.7	-49.0	15.2	0.00e+00	0	39	0	1017118720	62	5442
2026-01-11 23:01:19.35	159.11	16.15	-45.8	-49.2	15.1	0.00e+00	0	39	0	1018167296	62	5562
2026-01-11 23:01:20.63	159.25	16.03	-46.1	-49.7	14.6	0.00e+00	0	39	0	1020264448	62	5907
2026-01-11 23:01:21.35	159.33	15.96	-46.2	-49.9	14.3	7.00e-07	0	39	0	1021313024	63	5679
2026-01-11 23:01:22.63	159.47	15.83	-46.5	-50.3	14.0	1.50e-06	0	39	0	1024458752	63	5969
2026-01-11 23:01:23.58	159.58	15.74	-46.3	-49.9	14.3	1.50e-06	0	39	0	1025507328	63	5714
2026-01-11 23:01:24.58	159.68	15.64	-46.2	-49.9	14.3	0.00e+00	0	39	0	1027604480	63	5692
2026-01-11 23:01:25.57	159.79	15.55	-46.2	-49.8	14.3	7.00e-07	0	39	0	1029701632	63	5654
2026-01-11 23:01:26.57	159.89	15.45	-46.1	-49.6	14.6	0.00e+00	0	39	0	1031798784	63	5523
2026-01-11 23:01:27.56	160.00	15.36	-46.2	-49.8	14.5	7.00e-07	0	39	0	1033895936	63	5620
2026-01-11 23:01:28.56	160.10	15.26	-46.2	-49.9	14.3	0.00e+00	0	39	0	1034944512	63	5672
2026-01-11 23:01:29.55	160.21	15.17	-46.1	-49.7	14.5	7.00e-07	0	39	0	1037041664	63	5560
2026-01-11 23:01:30.55	160.31	15.08	-46.2	-49.9	14.4	0.00e+00	0	39	0	1039138816	63	5702
2026-01-11 23:01:31.54	160.41	14.98	-46.0	-49.6	14.6	7.00e-07	0	39	0	1041235968	63	5482
2026-01-11 23:01:32.54	160.51	14.89	-46.2	-49.8	14.4	0.00e+00	0	39	0	1042284544	63	5595
2026-01-11 23:01:33.53	160.62	14.80	-46.5	-50.2	14.0	7.00e-07	0	39	0	1044381696	63	5917
2026-01-11 23:01:34.53	160.72	14.70	-46.3	-50.0	14.2	1.50e-06	0	39	0	1046478848	63	5769
2026-01-11 23:01:35.52	160.82	14.61	-46.3	-50.1	14.1	1.50e-06	0	39	0	1048576000	63	5830
2026-01-11 23:01:36.52	160.92	14.52	-46.5	-50.4	13.8	3.80e-06	0	39	0	1050673152	63	6013
2026-01-11 23:01:37.51	161.01	14.43	-46.4	-50.3	13.9	3.00e-06	0	39	0	1051721728	63	5979
2026-01-11 23:01:38.51	161.11	14.33	-46.6	-50.5	13.7	8.30e-06	0	39	0	1053818880	63	6127
2026-01-11 23:01:39.51	161.21	14.24	-46.5	-50.4	13.8	1.06e-05	0	39	0	1055916032	63	6050
2026-01-11 23:01:40.50	161.31	14.15	-46.4	-50.3	13.9	5.30e-06	0	39	0	1058013184	63	5971
2026-01-11 23:01:41.50	161.40	14.06	-46.5	-50.4	13.8	6.10e-06	0	39	0	1059061760	63	6006
2026-01-11 23:01:42.49	161.50	13.97	-46.3	-50.0	14.2	4.50e-06	0	39	0	1061158912	63	5762
2026-01-11 23:01:43.49	161.60	13.88	-46.2	-49.9	14.3	7.00e-07	0	39	0	1063256064	63	5680
2026-01-11 23:01:44.48	161.69	13.79	-46.2	-49.9	14.3	0.00e+00	0	39	0	1065353216	63	5696
2026-01-11 23:01:45.48	161.78	13.70	-46.2	-49.8	14.4	0.00e+00	0	39	0	1067450368	63	5623
2026-01-11 23:01:46.54	161.88	13.60	-46.2	-49.8	14.4	0.00e+00	0	39	0	1068498944	63	5612
2026-01-11 23:01:47.42	161.97	13.52	-46.0	-49.5	14.7	0.00e+00	0	39	0	1070596096	63	5426
2026-01-11 23:01:48.56	162.07	13.42	-45.9	-49.4	14.8	0.00e+00	0	39	0	1072693248	63	5357
2026-01-11 23:01:49.41	162.15	13.35	-46.0	-49.5	14.7	0.00e+00	0	39	0	1074790400	63	5424
2026-01-11 23:01:50.55	162.26	13.24	-45.7	-49.0	15.1	0.00e+00	0	39	0	1076887552	63	5132
2026-01-11 23:01:51.40	162.33	13.17	-45.5	-48.8	15.3	0.00e+00	0	39	0	1077936128	63	5025
2026-01-11 23:01:52.54	162.44	13.07	-45.5	-48.7	15.4	0.00e+00	0	39	0	1080033280	62	5254
2026-01-11 23:01:53.39	162.51	12.99	-45.4	-48.6	15.5	0.00e+00	0	39	0	1082130432	62	5215
2026-01-11 23:01:54.53	162.62	12.89	-45.6	-48.9	15.3	0.00e+00	0	39	0	1084227584	62	5364
2026-01-11 23:01:55.38	162.69	12.82	-45.5	-48.7	15.4	0.00e+00	0	39	0	1085276160	62	5243
2026-01-11 23:01:56.52	162.79	12.72	-45.4	-48.6	15.5	0.00e+00	0	39	0	1087373312	62	5214
2026-01-11 23:01:57.38	162.87	12.64	-45.4	-48.6	15.5	0.00e+00	0	39	0	1089470464	62	5179
2026-01-11 23:01:58.51	162.97	12.54	-45.3	-48.5	15.6	0.00e+00	0	39	0	1091567616	62	5114
2026-01-11 23:01:59.36	163.04	12.47	-45.4	-48.7	15.4	0.00e+00	0	39	0	1092616192	62	5249
2026-01-11 23:02:00.61	163.15	12.36	-45.4	-48.7	15.4	7.09e-05	0	39	0	1095761920	62	5233
2026-01-11 23:02:01.46	163.23	12.29	-45.3	-48.6	15.5	0.00e+00	0	39	0	1096810496	62	5180
2026-01-11 23:02:02.60	163.32	12.19	-45.5	-48.9	15.2	0.00e+00	0	39	0	1098907648	62	5362
2026-01-11 23:02:03.45	163.40	12.12	-45.5	-48.9	15.2	1.21e-03	0	39	0	1101004800	62	5355
2026-01-11 23:02:04.59	163.49	12.02	-45.8	-49.3	14.8	0.00e+00	0	39	0	1103101952	62	5606
2026-01-11 23:02:05.44	163.56	11.95	-46.0	-49.6	14.6	0.00e+00	0	39	0	1104150528	62	5794
2026-01-11 23:02:06.58	163.66	11.85	-46.0	-49.6	14.6	0.00e+00	0	39	0	1106247680	62	5790
2026-01-11 23:02:07.43	163.73	11.78	-46.1	-49.7	14.4	2.20e-06	0	39	0	1108344832	62	5910
2026-01-11 23:02:08.57	163.83	11.68	-46.2	-49.9	14.2	0.00e+00	0	39	0	1110441984	63	5715
2026-01-11 23:02:09.42	163.90	11.61	-46.2	-50.0	14.1	4.50e-06	0	39	0	1111490560	63	5738
2026-01-11 23:02:10.55	163.99	11.52	-46.4	-50.3	13.8	0.00e+00	0	39	0	1113587712	63	5943
2026-01-11 23:02:11.41	164.06	11.44	-46.5	-50.4	13.7	3.80e-06	0	39	0	1115684864	63	6019
2026-01-11 23:02:12.54	164.15	11.35	-46.6	-50.7	13.4	9.10e-06	0	39	0	1117782016	63	6214
2026-01-11 23:02:13.40	164.22	11.28	-46.7	-50.9	13.1	1.98e-05	0	39	0	1118830592	64	6007
2026-01-11 23:02:14.54	164.31	11.18	-46.7	-51.0	13.0	2.97e-05	0	39	0	1121976320	64	6102
2026-01-11 23:02:15.39	164.38	11.11	-46.8	-51.1	12.9	3.89e-05	0	39	0	1123024896	64	6150
2026-01-11 23:02:16.61	164.48	11.01	-46.8	-51.2	12.8	5.95e-05	0	39	0	1125122048	64	6258
2026-01-11 23:02:17.87	164.58	10.91	-46.8	-51.1	12.9	1.17e-02	0	39	0	1128267776	64	6189
2026-01-11 23:02:18.66	164.64	10.84	-46.8	-51.3	12.7	6.94e-05	0	39	0	1129316352	64	6332
2026-01-11 23:02:19.86	164.73	10.75	-46.7	-51.2	12.8	7.62e-05	0	39	0	1131413504	64	6233
2026-01-11 23:02:20.71	164.80	10.68	-46.6	-51.1	12.9	2.36e-02	0	39	0	1133510656	64	6137
2026-01-11 23:02:21.85	164.89	10.58	-46.6	-51.1	12.8	9.76e-05	0	39	0	1135607808	64	6200
2026-01-11 23:02:22.70	164.95	10.51	-46.5	-51.1	12.8	7.17e-05	0	39	0	1136656384	64	6177
2026-01-11 23:02:23.84	165.04	10.42	-46.6	-51.2	12.7	1.94e-02	0	39	0	1138753536	64	6250
2026-01-11 23:02:24.69	165.10	10.35	-46.4	-51.1	12.9	7.32e-05	0	39	0	1140850688	64	6167
2026-01-11 23:02:25.83	165.19	10.26	-46.3	-51.0	12.9	4.42e-05	0	39	0	1142947840	64	6075
2026-01-11 23:02:26.68	165.25	10.19	-46.2	-51.2	12.8	4.80e-05	0	39	0	1143996416	64	6208
2026-01-11 23:02:27.82	165.34	10.10	-46.1	-51.2	12.8	4.27e-05	0	39	0	1146093568	64	6208
2026-01-11 23:02:28.67	165.40	10.03	-46.0	-51.1	13.0	2.59e-05	0	39	0	1148190720	63	6496
2026-01-11 23:02:30.03	165.50	9.93	-45.8	-50.8	13.2	3.58e-05	0	39	0	1150287872	63	6309
2026-01-11 23:02:30.74	165.56	9.87	-45.7	-50.8	13.1	2.13e-05	0	39	0	1152385024	63	6335
2026-01-11 23:02:32.02	165.65	9.77	-45.7	-51.0	13.1	1.60e-05	0	39	0	1154482176	63	6430
2026-01-11 23:02:32.73	165.70	9.71	-45.5	-50.8	13.2	2.36e-05	0	39	0	1155530752	63	6326
2026-01-11 23:02:34.01	165.79	9.61	-45.4	-50.6	13.4	9.90e-06	0	39	0	1157627904	62	6516
2026-01-11 23:02:34.72	165.85	9.56	-45.4	-50.6	13.3	9.90e-06	0	39	0	1159725056	62	6570
2026-01-11 23:02:35.99	165.94	9.46	-45.4	-50.6	13.4	1.90e-05	0	39	0	1161822208	62	6552
2026-01-11 23:02:36.72	165.99	9.40	-45.4	-50.5	13.5	1.90e-05	0	39	0	1162870784	62	6483
2026-01-11 23:02:38.00	166.08	9.30	-45.6	-50.6	13.4	4.76e-02	0	39	0	1164967936	63	6192
2026-01-11 23:02:38.71	166.13	9.24	-45.6	-50.6	13.4	1.60e-05	0	39	0	1167065088	63	6132
2026-01-11 23:02:40.03	166.22	9.14	-45.8	-50.9	13.1	2.89e-05	0	39	0	1169162240	63	6410
2026-01-11 23:02:40.74	166.27	9.09	-45.7	-50.8	13.2	3.60e-02	0	39	0	1170210816	63	6291
2026-01-11 23:02:42.08	166.37	8.98	-47.9	-62.5	3.9	2.45e-03	0	39	104	1172307968	66	20346
2026-01-11 23:02:42.79	166.41	8.93	-50.0	-64.9	3.8	1.49e+00	0	39	104	1172307968	70	21367
2026-01-11 23:02:44.09	166.50	8.83	-50.0	-65.6	3.8	1.49e+00	0	39	104	1172307968	71	21930
2026-01-11 23:02:44.80	166.55	8.78	-50.4	-65.7	3.8	1.49e+00	0	39	104	1172307968	71	22048
2026-01-11 23:02:46.07	166.64	8.68	-50.3	-65.8	3.8	1.49e+00	0	39	104	1172307968	71	22368
2026-01-11 23:02:46.78	166.69	8.62	-50.4	-65.8	3.8	1.49e+00	0	39	104	1172307968	71	22495
2026-01-11 23:02:48.06	166.77	8.53	-50.7	-65.9	3.8	1.49e+00	0	39	104	1172307968	71	22643
2026-01-11 23:02:48.78	166.82	8.47	-50.7	-65.9	3.8	1.49e+00	0	39	104	1172307968	71	22643
2026-01-11 23:02:50.06	166.91	8.38	-50.7	-65.9	3.8	1.49e+00	0	39	104	1172307968	72	21365
2026-01-11 23:02:50.78	166.96	8.32	-50.6	-65.9	3.8	1.49e+00	0	39	104	1172307968	72	21331
2026-01-11 23:02:52.06	167.04	8.23	-50.7	-65.9	3.8	1.49e+00	0	39	104	1172307968	72	21453
2026-01-11 23:02:52.77	167.09	8.17	-50.8	-65.9	3.8	1.49e+00	0	39	104	1172307968	72	21435
2026-01-11 23:02:54.05	167.17	8.08	-50.8	-65.9	3.8	1.49e+00	0	39	104	1172307968	72	21446
