passes_logs/2026/01/11/T1/T1__20260111_033538_FENGYUN_3E_rec.log

#Pass ID: 20260111_033538_FENGYUN 3E
#Satellite: FENGYUN 3E
#Configuration: FENGYUN 3E
#almurnet v.1.7.20251203
#Start time: 2026-01-11 03:35:40

#Version: 2.0.20230620
#Station: T1
#Location: 37.570604 lon 55.790049 lat
#TLE: 1 49008U 21062A   26010.00248113 -.00000186  00000+0 -66867-4 0  9993
#TLE: 2 49008  98.7487  15.1892 0001787 147.8079 212.3207 14.19883469234134

#Time	Az	El	Level	Level2	SNR	BER	BlckErr	Temp	State	Recorded	gain1	gain2
2026-01-11 03:35:40.98	18.99	5.15	-48.6	-61.0	3.8	8.47e-01	0	41	0	0	66	16045
2026-01-11 03:35:41.98	19.02	5.22	-48.6	-60.7	3.8	8.47e-01	0	41	104	0	66	15542
2026-01-11 03:35:42.98	19.04	5.29	-48.6	-60.6	3.8	8.48e-01	0	41	104	0	66	15353
2026-01-11 03:35:43.99	19.07	5.36	-48.6	-60.6	3.8	8.46e-01	0	41	104	0	66	15285
2026-01-11 03:35:44.99	19.09	5.44	-48.6	-60.5	3.8	8.47e-01	0	41	104	0	66	15117
2026-01-11 03:35:46.00	19.12	5.51	-48.6	-60.3	3.8	8.47e-01	0	41	104	0	66	14854
2026-01-11 03:35:47.00	19.14	5.58	-48.6	-60.2	3.8	8.47e-01	0	41	104	0	66	14673
2026-01-11 03:35:48.00	19.17	5.65	-48.5	-60.2	3.8	8.46e-01	0	41	104	0	66	14569
2026-01-11 03:35:49.01	19.19	5.72	-48.5	-60.0	3.8	8.47e-01	0	41	104	0	66	14320
2026-01-11 03:35:50.01	19.22	5.80	-48.5	-59.9	3.8	8.46e-01	0	41	104	0	66	14056
2026-01-11 03:35:51.02	19.24	5.87	-48.5	-59.8	3.8	8.47e-01	0	41	104	0	66	13919
2026-01-11 03:35:52.02	19.27	5.94	-48.5	-59.8	3.8	8.46e-01	0	41	104	0	66	13981
2026-01-11 03:35:53.03	19.30	6.02	-48.5	-59.7	3.8	8.46e-01	0	41	104	0	66	13843
2026-01-11 03:35:54.03	19.32	6.09	-48.5	-59.9	3.8	8.46e-01	0	41	104	0	66	14203
2026-01-11 03:35:55.03	19.35	6.16	-48.5	-60.0	3.8	8.47e-01	0	41	104	0	66	14365
2026-01-11 03:35:56.04	19.37	6.24	-48.5	-60.3	3.8	8.47e-01	0	41	104	0	66	14778
2026-01-11 03:35:57.04	19.40	6.31	-48.5	-60.4	3.8	8.46e-01	0	41	104	0	66	15026
2026-01-11 03:35:58.05	19.43	6.38	-48.6	-60.7	3.8	8.46e-01	0	41	104	0	66	15412
2026-01-11 03:35:59.05	19.45	6.46	-48.6	-60.6	3.8	8.47e-01	0	41	104	0	66	15329
2026-01-11 03:36:00.05	19.48	6.53	-48.6	-60.5	3.8	8.47e-01	0	41	104	0	66	15184
2026-01-11 03:36:01.06	19.51	6.61	-48.5	-60.3	3.8	8.47e-01	0	41	104	0	66	14746
2026-01-11 03:36:02.06	19.53	6.68	-48.5	-60.0	3.8	8.47e-01	0	41	104	0	66	14263
2026-01-11 03:36:03.07	19.56	6.76	-48.5	-59.6	3.8	8.47e-01	0	41	104	0	66	13651
2026-01-11 03:36:04.07	19.59	6.83	-48.4	-59.1	3.8	8.46e-01	0	42	104	0	66	12922
2026-01-11 03:36:05.08	19.61	6.91	-48.4	-58.8	3.9	8.45e-01	0	42	104	0	66	12425
2026-01-11 03:36:06.08	19.64	6.98	-48.3	-58.6	3.8	8.44e-01	0	41	104	0	66	12132
2026-01-11 03:36:07.09	19.67	7.06	-48.3	-58.4	4.0	8.44e-01	0	42	104	0	66	11903
2026-01-11 03:36:08.09	19.70	7.14	-48.3	-58.4	4.0	8.44e-01	0	42	0	0	66	11823
2026-01-11 03:36:09.09	19.72	7.21	-48.3	-58.3	4.0	8.42e-01	0	42	0	0	66	11771
2026-01-11 03:36:10.10	19.75	7.29	-48.3	-58.3	3.9	8.44e-01	0	42	104	0	66	11738
2026-01-11 03:36:11.10	19.78	7.37	-48.3	-58.1	4.1	8.41e-01	0	42	0	0	66	11438
2026-01-11 03:36:12.11	19.81	7.44	-48.3	-57.6	4.2	8.39e-01	0	42	0	0	66	10826
2026-01-11 03:36:13.11	19.84	7.52	-48.2	-57.0	4.4	8.32e-01	0	42	0	0	66	10112
2026-01-11 03:36:14.12	19.86	7.60	-48.0	-56.2	4.7	8.20e-01	0	42	0	0	66	9243
2026-01-11 03:36:15.12	19.89	7.68	-47.9	-55.5	5.0	7.75e-01	0	42	0	0	66	8521
2026-01-11 03:36:16.12	19.92	7.76	-47.7	-54.8	5.5	7.24e-01	0	42	0	0	66	7820
2026-01-11 03:36:17.13	19.95	7.83	-47.6	-54.3	5.8	4.97e-01	0	42	0	4194304	66	7427
2026-01-11 03:36:18.13	19.98	7.91	-47.5	-53.9	6.1	3.15e-01	0	42	0	11534336	65	7524
2026-01-11 03:36:19.14	20.01	7.99	-47.4	-53.7	6.2	2.66e-01	0	42	0	18874368	65	7322
2026-01-11 03:36:20.14	20.04	8.07	-47.4	-53.4	6.5	2.52e-01	0	42	0	25165824	65	7090
2026-01-11 03:36:21.14	20.06	8.15	-47.3	-53.1	6.8	2.01e-01	0	42	0	32505856	65	6846
2026-01-11 03:36:22.15	20.09	8.23	-47.3	-53.0	6.8	1.94e-01	0	42	0	39845888	65	6783
2026-01-11 03:36:23.16	20.12	8.31	-47.2	-52.9	7.0	1.72e-01	0	42	0	47185920	65	6664
2026-01-11 03:36:24.16	20.15	8.39	-47.2	-52.8	7.1	1.86e-01	0	42	0	54525952	65	6581
2026-01-11 03:36:25.16	20.18	8.47	-47.2	-52.8	7.0	1.55e-01	0	42	0	61865984	65	6600
2026-01-11 03:36:26.17	20.21	8.55	-47.1	-52.5	7.4	1.26e-01	0	42	0	69206016	64	6766
2026-01-11 03:36:27.17	20.24	8.63	-47.0	-52.2	7.6	1.11e-01	0	42	0	76546048	64	6540
2026-01-11 03:36:28.18	20.27	8.71	-46.9	-52.0	7.8	9.65e-02	0	42	0	83886080	64	6401
2026-01-11 03:36:29.18	20.30	8.79	-47.0	-52.1	7.7	9.01e-02	0	42	0	91226112	64	6431
2026-01-11 03:36:30.18	20.33	8.87	-47.0	-52.2	7.6	1.06e-01	0	42	0	98566144	64	6520
2026-01-11 03:36:31.19	20.36	8.96	-47.2	-52.7	7.1	1.29e-01	0	42	0	105906176	64	6958
2026-01-11 03:36:32.19	20.39	9.04	-47.3	-53.1	6.7	1.70e-01	0	42	0	112197632	64	7285
2026-01-11 03:36:33.20	20.43	9.12	-47.8	-55.9	4.8	8.15e-01	0	42	0	115343360	65	9476
2026-01-11 03:36:34.20	20.46	9.20	-46.7	-52.2	7.7	7.64e-02	0	42	0	120586240	63	6907
2026-01-11 03:36:35.20	20.49	9.29	-48.0	-56.7	4.5	7.91e-01	0	42	0	124780544	65	10368
2026-01-11 03:36:36.21	20.52	9.37	-47.8	-60.1	3.8	8.47e-01	0	42	104	124780544	66	14517
2026-01-11 03:36:37.21	20.55	9.45	-43.4	-45.5	14.5	0.00e+00	0	42	0	127926272	57	4504
2026-01-11 03:36:38.21	20.58	9.54	-43.4	-45.5	14.5	0.00e+00	0	42	0	135266304	57	4507
2026-01-11 03:36:39.21	20.61	9.62	-42.6	-44.4	15.6	0.00e+00	0	42	0	142606336	56	4196
2026-01-11 03:36:40.22	20.65	9.71	-42.3	-44.1	15.8	0.00e+00	0	42	0	149946368	55	4293
2026-01-11 03:36:41.22	20.68	9.79	-42.1	-43.7	16.1	0.00e+00	0	42	0	157286400	55	4124
2026-01-11 03:36:42.22	20.71	9.87	-41.6	-43.2	16.7	0.00e+00	0	42	0	164626432	54	4106
2026-01-11 03:36:43.23	20.74	9.96	-41.2	-42.6	17.2	0.00e+00	0	42	0	171966464	53	4068
2026-01-11 03:36:44.23	20.77	10.05	-40.9	-42.3	17.5	0.00e+00	0	42	0	178257920	52	4159
2026-01-11 03:36:45.23	20.81	10.13	-40.9	-42.3	17.5	0.00e+00	0	42	0	186646528	52	4147
2026-01-11 03:36:46.24	20.84	10.22	-40.7	-42.0	17.8	0.00e+00	0	42	0	193986560	51	4267
2026-01-11 03:36:47.24	20.87	10.30	-40.6	-42.0	17.8	0.00e+00	0	42	0	200278016	51	4249
2026-01-11 03:36:48.24	20.91	10.39	-40.7	-42.1	17.7	0.00e+00	0	42	0	207618048	51	4315
2026-01-11 03:36:49.25	20.94	10.48	-40.8	-42.1	17.6	0.00e+00	0	42	0	214958080	51	4339
2026-01-11 03:36:50.25	20.97	10.56	-40.5	-41.8	18.0	0.00e+00	0	42	0	222298112	51	4192
2026-01-11 03:36:51.25	21.01	10.65	-40.5	-41.8	18.1	0.00e+00	0	42	0	229638144	51	4151
2026-01-11 03:36:52.26	21.04	10.74	-40.5	-41.8	18.0	0.00e+00	0	42	0	236978176	51	4171
2026-01-11 03:36:53.26	21.08	10.83	-40.5	-41.9	18.0	0.00e+00	0	42	0	244318208	51	4197
2026-01-11 03:36:54.26	21.11	10.92	-40.7	-42.0	17.9	0.00e+00	0	42	0	251658240	51	4266
2026-01-11 03:36:55.27	21.14	11.01	-40.6	-42.0	18.0	0.00e+00	0	42	0	257949696	51	4252
2026-01-11 03:36:56.28	21.18	11.09	-40.5	-41.8	18.1	0.00e+00	0	42	0	265289728	51	4176
2026-01-11 03:36:57.28	21.21	11.18	-40.3	-41.6	18.4	0.00e+00	0	42	0	272629760	51	4053
2026-01-11 03:36:58.28	21.25	11.27	-40.4	-41.7	18.3	0.00e+00	0	43	0	279969792	51	4102
2026-01-11 03:36:59.29	21.28	11.36	-40.2	-41.5	18.4	0.00e+00	0	43	0	287309824	51	4024
2026-01-11 03:37:00.29	21.32	11.45	-40.1	-41.4	18.6	0.00e+00	0	43	0	294649856	51	3960
2026-01-11 03:37:01.30	21.36	11.55	-40.3	-41.6	18.4	0.00e+00	0	43	0	301989888	50	4317
2026-01-11 03:37:02.30	21.39	11.64	-40.1	-41.3	18.6	0.00e+00	0	43	0	309329920	50	4180
2026-01-11 03:37:03.30	21.43	11.73	-40.0	-41.2	18.7	0.00e+00	0	43	0	316669952	50	4145
2026-01-11 03:37:04.31	21.46	11.82	-40.1	-41.3	18.7	0.00e+00	0	42	0	324009984	50	4156
2026-01-11 03:37:05.31	21.50	11.91	-40.0	-41.2	18.8	0.00e+00	0	43	0	331350016	50	4114
2026-01-11 03:37:06.31	21.54	12.00	-39.9	-41.1	18.8	0.00e+00	0	42	0	338690048	50	4087
2026-01-11 03:37:07.31	21.57	12.10	-40.0	-41.2	18.8	0.00e+00	0	43	0	344981504	50	4105
2026-01-11 03:37:08.32	21.61	12.19	-39.9	-41.0	18.9	0.00e+00	0	42	0	352321536	50	4044
2026-01-11 03:37:09.32	21.65	12.28	-39.8	-41.0	19.0	0.00e+00	0	43	0	359661568	50	4016
2026-01-11 03:37:10.32	21.68	12.38	-39.9	-41.1	19.0	0.00e+00	0	43	0	367001600	50	4052
2026-01-11 03:37:11.33	21.72	12.47	-39.8	-40.9	19.0	0.00e+00	0	42	0	374341632	50	3999
2026-01-11 03:37:12.33	21.76	12.56	-39.9	-41.0	19.0	0.00e+00	0	43	0	381681664	50	4033
2026-01-11 03:37:13.33	21.80	12.66	-39.9	-41.1	19.0	0.00e+00	0	43	0	389021696	50	4053
2026-01-11 03:37:14.33	21.84	12.75	-40.0	-41.1	18.9	0.00e+00	0	43	0	396361728	50	4061
2026-01-11 03:37:15.34	21.87	12.85	-40.1	-41.2	18.8	0.00e+00	0	43	0	403701760	50	4116
2026-01-11 03:37:16.34	21.91	12.95	-40.2	-41.3	18.7	0.00e+00	0	43	0	411041792	50	4192
2026-01-11 03:37:17.34	21.95	13.04	-40.0	-41.1	18.9	0.00e+00	0	43	0	418381824	50	4093
2026-01-11 03:37:18.34	21.99	13.14	-40.0	-41.1	18.9	0.00e+00	0	43	0	424673280	50	4056
2026-01-11 03:37:19.35	22.03	13.24	-39.8	-40.9	19.1	0.00e+00	0	43	0	432013312	50	3971
2026-01-11 03:37:20.35	22.07	13.33	-39.9	-41.0	19.1	0.00e+00	0	43	0	439353344	50	4020
2026-01-11 03:37:21.35	22.11	13.43	-40.0	-41.0	19.0	0.00e+00	0	43	0	446693376	50	4042
2026-01-11 03:37:22.36	22.15	13.53	-39.8	-40.9	19.2	0.00e+00	0	43	0	454033408	50	3963
2026-01-11 03:37:23.36	22.19	13.63	-39.8	-40.9	19.1	0.00e+00	0	43	0	461373440	50	3977
2026-01-11 03:37:24.36	22.23	13.73	-39.8	-40.9	19.1	0.00e+00	0	43	0	468713472	50	3976
2026-01-11 03:37:25.36	22.27	13.82	-39.9	-41.0	19.0	0.00e+00	0	43	0	476053504	50	4023
2026-01-11 03:37:26.37	22.31	13.92	-39.9	-41.0	19.0	0.00e+00	0	43	0	483393536	50	4029
2026-01-11 03:37:27.37	22.35	14.02	-39.9	-40.9	19.1	0.00e+00	0	43	0	489684992	50	3992
2026-01-11 03:37:28.37	22.40	14.12	-40.0	-41.1	19.0	0.00e+00	0	43	0	497025024	50	4056
2026-01-11 03:37:29.37	22.44	14.23	-39.8	-40.9	19.2	0.00e+00	0	43	0	504365056	50	3961
2026-01-11 03:37:30.38	22.48	14.33	-39.7	-40.8	19.2	0.00e+00	0	43	0	511705088	50	3936
2026-01-11 03:37:31.38	22.52	14.43	-39.8	-40.9	19.2	0.00e+00	0	43	0	519045120	50	3971
2026-01-11 03:37:32.38	22.56	14.53	-39.7	-40.7	19.3	0.00e+00	0	43	0	526385152	50	3910
2026-01-11 03:37:33.39	22.61	14.63	-39.7	-40.7	19.3	0.00e+00	0	43	0	533725184	50	3899
2026-01-11 03:37:34.39	22.65	14.74	-39.7	-40.8	19.2	0.00e+00	0	43	0	541065216	50	3933
2026-01-11 03:37:35.39	22.69	14.84	-39.8	-40.8	19.2	0.00e+00	0	43	0	548405248	50	3951
2026-01-11 03:37:36.39	22.74	14.94	-39.7	-40.7	19.3	0.00e+00	0	43	0	555745280	49	4141
2026-01-11 03:37:37.40	22.78	15.05	-39.9	-40.9	19.1	0.00e+00	0	43	0	563085312	49	4232
2026-01-11 03:37:38.40	22.83	15.15	-39.6	-40.7	19.3	0.00e+00	0	43	0	570425344	49	4103
2026-01-11 03:37:39.41	22.87	15.26	-39.5	-40.6	19.4	0.00e+00	0	43	0	576716800	49	4082
2026-01-11 03:37:40.41	22.91	15.36	-39.5	-40.5	19.5	0.00e+00	0	43	0	584056832	49	4044
2026-01-11 03:37:41.41	22.96	15.47	-39.5	-40.5	19.4	0.00e+00	0	43	0	591396864	49	4051
2026-01-11 03:37:42.41	23.01	15.58	-39.4	-40.4	19.5	0.00e+00	0	43	0	598736896	49	3995
2026-01-11 03:37:43.42	23.05	15.68	-39.4	-40.4	19.5	0.00e+00	0	43	0	606076928	49	3998
2026-01-11 03:37:44.42	23.10	15.79	-39.4	-40.5	19.5	0.00e+00	0	43	0	613416960	49	4016
2026-01-11 03:37:45.42	23.14	15.90	-39.3	-40.3	19.7	0.00e+00	0	43	0	620756992	49	3949
2026-01-11 03:37:46.43	23.19	16.01	-39.3	-40.3	19.7	0.00e+00	0	43	0	628097024	49	3939
2026-01-11 03:37:47.43	23.24	16.12	-39.2	-40.3	19.7	0.00e+00	0	43	0	634388480	49	3920
2026-01-11 03:37:48.43	23.28	16.23	-39.3	-40.4	19.7	0.00e+00	0	43	0	642777088	48	4195
2026-01-11 03:37:49.43	23.33	16.34	-39.2	-40.2	19.8	0.00e+00	0	43	0	650117120	48	4129
2026-01-11 03:37:50.44	23.38	16.45	-39.2	-40.2	19.8	0.00e+00	0	43	0	656408576	48	4113
2026-01-11 03:37:51.44	23.43	16.56	-39.1	-40.1	19.9	0.00e+00	0	43	0	663748608	48	4079
2026-01-11 03:37:52.44	23.48	16.67	-39.1	-40.1	19.9	0.00e+00	0	43	0	671088640	48	4053
2026-01-11 03:37:53.45	23.52	16.78	-39.0	-40.0	20.1	0.00e+00	0	43	0	678428672	48	4015
2026-01-11 03:37:54.45	23.57	16.89	-39.0	-40.0	20.1	0.00e+00	0	43	0	685768704	48	4010
2026-01-11 03:37:55.45	23.62	17.00	-39.0	-39.9	20.1	0.00e+00	0	43	0	693108736	48	3999
2026-01-11 03:37:56.46	23.67	17.12	-39.0	-40.0	20.1	0.00e+00	0	43	0	700448768	48	4027
2026-01-11 03:37:57.46	23.72	17.23	-38.9	-39.9	20.2	0.00e+00	0	43	0	707788800	48	3980
2026-01-11 03:37:58.46	23.77	17.35	-38.7	-39.6	20.3	0.00e+00	0	43	0	715128832	48	3858
2026-01-11 03:37:59.47	23.82	17.46	-39.0	-40.0	20.1	0.00e+00	0	43	0	721420288	48	4013
2026-01-11 03:38:00.47	23.88	17.58	-39.0	-39.9	20.1	0.00e+00	0	43	0	728760320	48	3998
2026-01-11 03:38:01.47	23.93	17.69	-39.0	-39.9	20.1	0.00e+00	0	43	0	736100352	48	4000
2026-01-11 03:38:02.48	23.98	17.81	-38.9	-39.8	20.2	0.00e+00	0	43	0	743440384	48	3954
2026-01-11 03:38:03.48	24.03	17.93	-38.8	-39.8	20.3	0.00e+00	0	43	0	750780416	48	3933
2026-01-11 03:38:04.48	24.08	18.04	-38.8	-39.7	20.3	0.00e+00	0	43	0	758120448	48	3895
2026-01-11 03:38:05.48	24.14	18.16	-38.8	-39.8	20.2	0.00e+00	0	43	0	765460480	48	3937
2026-01-11 03:38:06.49	24.19	18.28	-38.9	-39.8	20.2	0.00e+00	0	43	0	772800512	48	3949
2026-01-11 03:38:07.49	24.24	18.40	-38.8	-39.8	20.3	0.00e+00	0	43	0	780140544	48	3928
2026-01-11 03:38:08.49	24.30	18.52	-38.8	-39.8	20.2	0.00e+00	0	43	0	787480576	48	3922
2026-01-11 03:38:09.50	24.35	18.64	-38.8	-39.7	20.3	0.00e+00	0	43	0	794820608	48	3909
2026-01-11 03:38:10.50	24.41	18.76	-38.8	-39.7	20.3	0.00e+00	0	43	0	802160640	48	3898
2026-01-11 03:38:11.50	24.46	18.88	-38.8	-39.8	20.3	0.00e+00	0	43	0	808452096	48	3918
2026-01-11 03:38:12.50	24.52	19.00	-38.7	-39.7	20.4	0.00e+00	0	43	0	815792128	48	3876
2026-01-11 03:38:13.51	24.58	19.13	-38.6	-39.5	20.5	0.00e+00	0	43	0	823132160	48	3823
2026-01-11 03:38:14.51	24.63	19.25	-38.6	-39.6	20.1	0.00e+00	0	43	0	830472192	47	4092
2026-01-11 03:38:15.51	24.69	19.37	-38.5	-39.5	20.2	0.00e+00	0	43	0	837812224	47	4041
2026-01-11 03:38:16.52	24.75	19.50	-38.6	-39.6	20.1	0.00e+00	0	43	0	845152256	47	4095
2026-01-11 03:38:17.52	24.80	19.62	-38.5	-39.5	20.3	0.00e+00	0	43	0	852492288	47	4029
2026-01-11 03:38:18.52	24.86	19.75	-38.5	-39.5	20.2	0.00e+00	0	43	0	859832320	47	4035
2026-01-11 03:38:19.53	24.92	19.87	-38.9	-39.9	19.9	0.00e+00	0	43	0	866123776	47	4226
2026-01-11 03:38:20.53	24.98	20.00	-38.6	-39.6	20.2	0.00e+00	0	43	0	873463808	47	4063
2026-01-11 03:38:21.53	25.04	20.13	-38.5	-39.5	20.2	0.00e+00	0	43	0	880803840	47	4050
2026-01-11 03:38:22.54	25.10	20.26	-38.4	-39.4	20.4	0.00e+00	0	43	0	888143872	47	3978
2026-01-11 03:38:23.54	25.16	20.38	-38.4	-39.4	20.4	0.00e+00	0	43	0	895483904	47	3994
2026-01-11 03:38:24.54	25.22	20.51	-38.4	-39.4	20.3	0.00e+00	0	43	0	902823936	47	3970
2026-01-11 03:38:25.55	25.29	20.64	-38.4	-39.4	20.3	0.00e+00	0	43	0	910163968	47	3990
2026-01-11 03:38:26.55	25.35	20.77	-38.5	-39.5	20.2	0.00e+00	0	43	0	917504000	47	4031
2026-01-11 03:38:27.55	25.41	20.91	-38.4	-39.4	20.3	0.00e+00	0	43	0	924844032	47	3977
2026-01-11 03:38:28.56	25.47	21.04	-38.3	-39.3	20.4	0.00e+00	0	43	0	932184064	47	3932
2026-01-11 03:38:29.56	25.54	21.17	-38.5	-39.5	20.3	0.00e+00	0	43	0	939524096	47	4006
2026-01-11 03:38:30.57	25.60	21.31	-38.3	-39.3	20.4	0.00e+00	0	43	0	946864128	47	3939
2026-01-11 03:38:31.57	25.67	21.44	-38.4	-39.4	20.3	0.00e+00	0	43	0	953155584	47	3971
2026-01-11 03:38:32.58	25.73	21.57	-38.5	-39.5	20.3	0.00e+00	0	43	0	960495616	47	4013
2026-01-11 03:38:33.58	25.80	21.71	-38.4	-39.4	20.3	0.00e+00	0	43	0	967835648	47	3980
2026-01-11 03:38:34.58	25.86	21.84	-38.5	-39.5	20.3	0.00e+00	0	43	0	975175680	47	4016
2026-01-11 03:38:35.58	25.93	21.98	-38.3	-39.3	20.4	0.00e+00	0	43	0	982515712	47	3918
2026-01-11 03:38:36.59	26.00	22.12	-38.4	-39.3	20.4	0.00e+00	0	43	0	989855744	47	3954
2026-01-11 03:38:37.59	26.07	22.26	-38.3	-39.3	20.4	0.00e+00	0	43	0	997195776	47	3946
2026-01-11 03:38:38.59	26.13	22.40	-38.3	-39.3	20.4	0.00e+00	0	43	0	1004535808	47	3928
2026-01-11 03:38:39.60	26.20	22.54	-38.4	-39.4	20.3	0.00e+00	0	43	0	1011875840	47	3966
2026-01-11 03:38:40.60	26.27	22.68	-38.4	-39.4	20.3	0.00e+00	0	43	0	1019215872	47	3983
2026-01-11 03:38:41.61	26.34	22.82	-38.5	-39.4	20.3	0.00e+00	0	43	0	1026555904	47	3989
2026-01-11 03:38:42.61	26.41	22.96	-38.4	-39.3	20.4	0.00e+00	0	43	0	1033895936	47	3955
2026-01-11 03:38:43.61	26.49	23.10	-38.2	-39.1	20.6	0.00e+00	0	43	0	1040187392	47	3864
2026-01-11 03:38:44.62	26.56	23.25	-38.2	-39.1	20.6	0.00e+00	0	43	0	1047527424	47	3868
2026-01-11 03:38:45.62	26.63	23.39	-37.9	-38.9	20.9	0.00e+00	0	43	0	1054867456	46	3963
2026-01-11 03:38:46.63	26.70	23.54	-38.2	-39.1	20.6	0.00e+00	0	43	0	1062207488	46	4098
2026-01-11 03:38:47.63	26.78	23.68	-38.2	-39.1	20.7	0.00e+00	0	43	0	1069547520	46	4081
2026-01-11 03:38:48.63	26.85	23.83	-38.1	-39.1	20.7	0.00e+00	0	43	0	1076887552	46	4055
2026-01-11 03:38:49.64	26.93	23.98	-38.1	-39.0	20.7	0.00e+00	0	43	0	1084227584	46	4042
2026-01-11 03:38:50.64	27.00	24.12	-38.0	-38.9	20.8	0.00e+00	0	43	0	1091567616	46	3992
2026-01-11 03:38:51.64	27.08	24.27	-37.9	-38.8	21.0	0.00e+00	0	43	0	1098907648	46	3948
2026-01-11 03:38:52.65	27.16	24.42	-37.9	-38.9	20.9	0.00e+00	0	43	0	1106247680	46	3959
2026-01-11 03:38:53.65	27.24	24.57	-37.9	-38.7	21.0	0.00e+00	0	43	0	1113587712	46	3912
2026-01-11 03:38:54.65	27.32	24.72	-37.8	-38.7	21.0	0.00e+00	0	43	0	1119879168	46	3886
2026-01-11 03:38:55.66	27.40	24.88	-37.8	-38.7	21.0	0.00e+00	0	43	0	1127219200	46	3889
2026-01-11 03:38:56.66	27.48	25.03	-37.7	-38.6	21.1	0.00e+00	0	43	0	1134559232	46	3850
2026-01-11 03:38:57.66	27.56	25.18	-37.8	-38.7	21.0	0.00e+00	0	43	0	1141899264	46	3894
2026-01-11 03:38:58.66	27.64	25.34	-37.8	-38.7	21.0	0.00e+00	0	43	0	1149239296	46	3898
2026-01-11 03:38:59.67	27.72	25.49	-37.8	-38.7	21.1	0.00e+00	0	43	0	1156579328	46	3885
2026-01-11 03:39:00.65	27.80	25.64	-37.8	-38.6	21.1	0.00e+00	0	43	0	1163919360	46	3864
2026-01-11 03:39:01.65	27.89	25.80	-37.9	-38.8	21.0	0.00e+00	0	43	0	1171259392	46	3926
2026-01-11 03:39:02.66	27.97	25.96	-37.6	-38.5	21.3	0.00e+00	0	43	0	1178599424	45	4019
2026-01-11 03:39:03.66	28.06	26.12	-37.5	-38.4	21.3	0.00e+00	0	43	0	1184890880	45	4000
2026-01-11 03:39:04.67	28.14	26.28	-37.6	-38.5	21.2	0.00e+00	0	43	0	1192230912	45	4024
2026-01-11 03:39:05.67	28.23	26.44	-37.5	-38.4	21.3	0.00e+00	0	43	0	1199570944	45	3992
2026-01-11 03:39:06.67	28.32	26.60	-38.0	-39.0	20.8	0.00e+00	0	43	0	1206910976	45	4258
2026-01-11 03:39:07.68	28.41	26.77	-37.5	-38.5	21.3	0.00e+00	0	43	0	1214251008	45	4013
2026-01-11 03:39:08.68	28.50	26.93	-37.5	-38.4	21.3	0.00e+00	0	43	0	1221591040	45	3989
2026-01-11 03:39:09.68	28.59	27.09	-37.5	-38.5	21.3	0.00e+00	0	43	0	1228931072	45	4018
2026-01-11 03:39:10.69	28.68	27.26	-37.5	-38.4	21.3	0.00e+00	0	43	0	1236271104	45	4003
2026-01-11 03:39:11.69	28.77	27.42	-37.6	-38.5	21.2	0.00e+00	0	43	0	1243611136	45	4034
2026-01-11 03:39:12.69	28.87	27.59	-37.5	-38.5	21.3	0.00e+00	0	43	0	1250951168	45	4011
2026-01-11 03:39:13.70	28.96	27.76	-37.5	-38.5	21.3	0.00e+00	0	43	0	1258291200	45	4008
2026-01-11 03:39:14.70	29.06	27.93	-37.6	-38.6	21.2	0.00e+00	0	43	0	1264582656	45	4056
2026-01-11 03:39:15.71	29.16	28.10	-37.4	-38.4	21.4	0.00e+00	0	43	0	1271922688	45	3970
2026-01-11 03:39:16.71	29.25	28.27	-37.5	-38.4	21.3	0.00e+00	0	43	0	1279262720	45	3984
2026-01-11 03:39:17.71	29.35	28.44	-37.4	-38.3	21.4	0.00e+00	0	43	0	1286602752	44	4188
2026-01-11 03:39:18.72	29.45	28.62	-37.4	-38.3	21.4	0.00e+00	0	43	0	1293942784	44	4178
2026-01-11 03:39:19.72	29.55	28.79	-37.3	-38.2	21.5	0.00e+00	0	43	0	1301282816	44	4133
2026-01-11 03:39:20.72	29.65	28.96	-37.3	-38.2	21.5	0.00e+00	0	43	0	1308622848	44	4106
2026-01-11 03:39:21.73	29.76	29.14	-37.2	-38.1	21.5	0.00e+00	0	43	0	1315962880	44	4073
2026-01-11 03:39:22.73	29.86	29.32	-37.3	-38.2	21.5	0.00e+00	0	43	0	1323302912	44	4131
2026-01-11 03:39:23.73	29.96	29.50	-37.0	-37.9	21.8	0.00e+00	0	43	0	1329594368	44	3975
2026-01-11 03:39:24.73	30.07	29.67	-37.1	-38.0	21.7	0.00e+00	0	43	0	1337982976	44	4017
2026-01-11 03:39:25.73	30.18	29.85	-37.0	-37.9	21.7	0.00e+00	0	43	0	1345323008	44	3994
2026-01-11 03:39:26.74	30.29	30.04	-37.0	-37.9	21.8	0.00e+00	0	43	0	1351614464	44	3990
2026-01-11 03:39:27.74	30.39	30.22	-36.9	-37.8	21.8	0.00e+00	0	43	0	1358954496	44	3944
2026-01-11 03:39:28.75	30.51	30.40	-37.2	-38.0	21.7	0.00e+00	0	43	0	1366294528	44	4051
2026-01-11 03:39:29.75	30.62	30.59	-37.2	-38.0	21.7	0.00e+00	0	43	0	1373634560	44	4042
2026-01-11 03:39:30.75	30.73	30.77	-37.4	-38.3	21.5	0.00e+00	0	43	0	1380974592	44	4155
2026-01-11 03:39:31.76	30.85	30.96	-37.5	-38.4	21.3	0.00e+00	0	43	0	1388314624	44	4231
2026-01-11 03:39:32.76	30.96	31.15	-37.5	-38.3	21.4	0.00e+00	0	43	0	1395654656	44	4190
2026-01-11 03:39:33.76	31.08	31.33	-37.5	-38.4	21.4	0.00e+00	0	43	0	1402994688	45	3967
2026-01-11 03:39:34.77	31.20	31.53	-37.7	-38.6	21.2	0.00e+00	0	43	0	1410334720	45	4056
2026-01-11 03:39:35.77	31.32	31.72	-37.6	-38.5	21.2	0.00e+00	0	43	0	1416626176	45	4039
2026-01-11 03:39:36.77	31.44	31.91	-37.7	-38.6	21.2	0.00e+00	0	43	0	1423966208	45	4073
2026-01-11 03:39:37.78	31.56	32.10	-37.5	-38.4	21.3	0.00e+00	0	43	0	1431306240	45	3998
2026-01-11 03:39:38.78	31.68	32.30	-37.5	-38.4	21.4	0.00e+00	0	43	0	1438646272	45	3961
2026-01-11 03:39:39.78	31.81	32.49	-37.6	-38.5	21.3	0.00e+00	0	43	0	1445986304	45	4016
2026-01-11 03:39:40.78	31.93	32.69	-37.4	-38.3	21.5	0.00e+00	0	43	0	1453326336	45	3918
2026-01-11 03:39:41.79	32.06	32.89	-37.3	-38.2	21.5	0.00e+00	0	43	0	1460666368	45	3888
2026-01-11 03:39:42.79	32.19	33.08	-37.4	-38.3	21.5	0.00e+00	0	43	0	1468006400	45	3918
2026-01-11 03:39:43.79	32.32	33.28	-37.1	-38.0	21.6	0.00e+00	0	43	0	1475346432	45	3798
2026-01-11 03:39:44.80	32.46	33.49	-37.4	-38.3	21.3	0.00e+00	0	43	0	1482686464	45	3927
2026-01-11 03:39:45.80	32.59	33.69	-37.6	-38.4	21.2	0.00e+00	0	43	0	1490026496	45	4004
2026-01-11 03:39:46.80	32.73	33.89	-37.4	-38.3	21.4	0.00e+00	0	43	0	1496317952	45	3932
2026-01-11 03:39:47.80	32.87	34.10	-37.4	-38.3	21.4	0.00e+00	0	43	0	1503657984	45	3954
2026-01-11 03:39:48.81	33.01	34.30	-37.3	-38.2	21.5	0.00e+00	0	43	0	1510998016	45	3889
2026-01-11 03:39:49.81	33.15	34.51	-37.2	-38.1	21.6	0.00e+00	0	43	0	1518338048	45	3848
2026-01-11 03:39:50.82	33.29	34.72	-37.2	-38.1	21.5	0.00e+00	0	43	0	1525678080	45	3859
2026-01-11 03:39:51.82	33.44	34.93	-37.2	-38.1	21.6	0.00e+00	0	43	0	1533018112	45	3828
2026-01-11 03:39:52.82	33.58	35.14	-37.2	-38.1	21.5	0.00e+00	0	43	0	1540358144	45	3846
2026-01-11 03:39:53.83	33.73	35.35	-37.3	-38.2	21.5	0.00e+00	0	43	0	1547698176	45	3903
2026-01-11 03:39:54.83	33.88	35.56	-37.3	-38.1	21.4	0.00e+00	0	43	0	1555038208	44	4098
2026-01-11 03:39:55.83	34.03	35.78	-37.3	-38.2	21.5	0.00e+00	0	43	0	1562378240	44	4122
2026-01-11 03:39:56.84	34.19	36.00	-37.4	-38.3	21.4	0.00e+00	0	43	0	1569718272	44	4171
2026-01-11 03:39:57.84	34.34	36.21	-37.4	-38.3	21.4	0.00e+00	0	43	0	1577058304	44	4156
2026-01-11 03:39:58.84	34.50	36.43	-37.3	-38.2	21.5	0.00e+00	0	43	0	1583349760	44	4127
2026-01-11 03:39:59.85	34.66	36.65	-37.4	-38.2	21.5	0.00e+00	0	43	0	1590689792	44	4142
2026-01-11 03:40:00.85	34.83	36.87	-37.5	-38.4	21.4	0.00e+00	0	43	0	1598029824	44	4224
2026-01-11 03:40:01.86	34.99	37.09	-37.5	-38.4	21.4	0.00e+00	0	43	0	1605369856	44	4227
2026-01-11 03:40:02.86	35.16	37.32	-37.6	-38.5	21.3	0.00e+00	0	43	0	1612709888	44	4251
2026-01-11 03:40:03.86	35.33	37.54	-37.5	-38.4	21.3	0.00e+00	0	43	0	1620049920	44	4215
2026-01-11 03:40:04.87	35.50	37.77	-37.6	-38.5	21.2	0.00e+00	0	43	0	1627389952	44	4271
2026-01-11 03:40:05.87	35.67	37.99	-37.5	-38.3	21.3	0.00e+00	0	43	0	1634729984	44	4192
2026-01-11 03:40:06.87	35.85	38.22	-37.3	-38.2	21.5	0.00e+00	0	43	0	1642070016	44	4118
2026-01-11 03:40:07.87	36.03	38.45	-37.5	-38.4	21.4	0.00e+00	0	43	0	1648361472	44	4196
2026-01-11 03:40:08.88	36.21	38.68	-37.4	-38.3	21.4	0.00e+00	0	43	0	1655701504	44	4170
2026-01-11 03:40:09.88	36.39	38.91	-37.3	-38.1	21.5	0.00e+00	0	43	0	1663041536	45	3850
2026-01-11 03:40:10.88	36.58	39.15	-37.5	-38.4	21.3	0.00e+00	0	43	0	1670381568	45	3970
2026-01-11 03:40:11.89	36.77	39.38	-37.6	-38.5	21.2	0.00e+00	0	43	0	1677721600	45	4031
2026-01-11 03:40:12.89	36.96	39.62	-37.7	-38.6	21.2	0.00e+00	0	43	0	1685061632	45	4061
2026-01-11 03:40:13.89	37.15	39.86	-37.6	-38.5	21.3	0.00e+00	0	43	0	1692401664	45	4011
2026-01-11 03:40:14.89	37.35	40.09	-37.6	-38.5	21.3	0.00e+00	0	43	0	1699741696	45	4042
2026-01-11 03:40:15.90	37.55	40.33	-37.6	-38.5	21.3	0.00e+00	0	43	0	1707081728	45	4022
2026-01-11 03:40:16.90	37.75	40.57	-37.8	-38.7	21.1	0.00e+00	0	43	0	1714421760	45	4121
2026-01-11 03:40:17.91	37.96	40.82	-37.9	-38.8	21.0	0.00e+00	0	43	0	1721761792	45	4176
2026-01-11 03:40:18.91	38.17	41.06	-38.0	-39.0	20.9	0.00e+00	0	43	0	1728053248	45	4245
2026-01-11 03:40:19.91	38.38	41.31	-38.0	-38.9	20.9	0.00e+00	0	43	0	1735393280	45	4219
2026-01-11 03:40:20.92	38.60	41.55	-37.8	-38.7	21.1	0.00e+00	0	43	0	1742733312	45	4145
2026-01-11 03:40:21.92	38.82	41.80	-37.7	-38.6	21.2	0.00e+00	0	43	0	1750073344	45	4084
2026-01-11 03:40:22.92	39.04	42.05	-37.7	-38.6	21.2	0.00e+00	0	43	0	1757413376	45	4095
2026-01-11 03:40:23.92	39.26	42.30	-37.8	-38.7	21.0	0.00e+00	0	43	0	1764753408	45	4142
2026-01-11 03:40:24.92	39.49	42.55	-37.7	-38.6	21.2	0.00e+00	0	43	0	1772093440	45	4091
2026-01-11 03:40:25.93	39.73	42.80	-38.3	-39.3	20.6	0.00e+00	0	43	0	1779433472	46	4152
2026-01-11 03:40:26.93	39.96	43.05	-38.0	-38.9	21.0	0.00e+00	0	43	0	1786773504	45	4209
2026-01-11 03:40:27.94	40.20	43.31	-38.0	-38.9	20.9	0.00e+00	0	43	0	1794113536	45	4242
2026-01-11 03:40:28.94	40.45	43.56	-38.0	-38.9	21.0	0.00e+00	0	43	0	1801453568	45	4211
2026-01-11 03:40:29.94	40.69	43.82	-38.0	-38.9	21.0	0.00e+00	0	43	0	1808793600	45	4209
2026-01-11 03:40:30.94	40.94	44.08	-37.6	-38.5	21.3	0.00e+00	0	43	0	1815085056	46	3802
2026-01-11 03:40:31.95	41.20	44.34	-38.1	-39.0	20.8	0.00e+00	0	43	0	1822425088	46	4040
2026-01-11 03:40:32.95	41.46	44.60	-38.0	-38.9	20.9	0.00e+00	0	43	0	1829765120	46	3999
2026-01-11 03:40:33.95	41.72	44.86	-38.0	-38.9	21.0	0.00e+00	0	43	0	1837105152	46	3970
2026-01-11 03:40:34.96	41.99	45.12	-37.9	-38.8	21.0	0.00e+00	0	43	0	1844445184	46	3947
2026-01-11 03:40:35.96	42.26	45.38	-37.8	-38.7	21.2	0.00e+00	0	43	0	1851785216	45	4111
2026-01-11 03:40:36.96	42.54	45.65	-37.9	-38.8	21.0	0.00e+00	0	43	0	1859125248	45	4178
2026-01-11 03:40:37.97	42.82	45.91	-38.1	-39.0	20.9	0.00e+00	0	43	0	1866465280	45	4251
2026-01-11 03:40:38.97	43.11	46.18	-38.2	-39.1	20.8	0.00e+00	0	43	0	1872756736	45	4321
2026-01-11 03:40:39.97	43.40	46.45	-38.4	-39.4	20.6	0.00e+00	0	43	0	1880096768	46	4194
2026-01-11 03:40:40.98	43.70	46.72	-38.2	-39.1	20.8	0.00e+00	0	43	0	1887436800	46	4063
2026-01-11 03:40:41.98	44.00	46.99	-38.6	-39.6	20.3	0.00e+00	0	43	0	1894776832	47	4072
2026-01-11 03:40:42.98	44.30	47.26	-38.4	-39.3	20.6	0.00e+00	0	43	0	1902116864	47	3941
2026-01-11 03:40:43.98	44.61	47.53	-38.4	-39.3	20.6	0.00e+00	0	43	0	1909456896	47	3926
2026-01-11 03:40:44.99	44.93	47.80	-38.2	-39.1	20.8	0.00e+00	0	43	0	1916796928	47	3845
2026-01-11 03:40:45.99	45.25	48.07	-38.3	-39.2	20.6	0.00e+00	0	43	0	1924136960	47	3907
2026-01-11 03:40:46.99	45.58	48.34	-38.7	-39.7	20.3	0.00e+00	0	43	0	1931476992	47	4108
2026-01-11 03:40:48.00	45.92	48.62	-38.6	-39.5	20.4	0.00e+00	0	43	0	1938817024	47	4034
2026-01-11 03:40:49.00	46.26	48.89	-38.6	-39.5	20.4	0.00e+00	0	43	0	1946157056	47	4038
2026-01-11 03:40:50.00	46.60	49.17	-38.6	-39.5	20.4	0.00e+00	0	43	0	1953497088	47	4043
2026-01-11 03:40:51.01	46.96	49.45	-38.6	-39.6	20.4	0.00e+00	0	43	0	1959788544	47	4066
2026-01-11 03:40:52.01	47.31	49.72	-38.5	-39.4	20.4	0.00e+00	0	43	0	1967128576	47	4001
2026-01-11 03:40:53.01	47.68	50.00	-39.0	-39.9	20.3	0.00e+00	0	43	0	1974468608	48	3979
2026-01-11 03:40:54.02	48.05	50.28	-39.1	-40.0	20.2	0.00e+00	0	43	0	1981808640	48	4048
2026-01-11 03:40:55.02	48.43	50.56	-39.2	-40.1	20.2	0.00e+00	0	43	0	1989148672	48	4069
2026-01-11 03:40:56.02	48.82	50.83	-39.4	-40.4	19.9	0.00e+00	0	43	0	1996488704	48	4207
2026-01-11 03:40:57.03	49.21	51.11	-39.4	-40.4	19.9	0.00e+00	0	43	0	2003828736	48	4224
2026-01-11 03:40:58.03	49.61	51.39	-39.5	-40.4	19.8	0.00e+00	0	43	0	2011168768	49	3994
2026-01-11 03:40:59.03	50.02	51.67	-39.5	-40.5	19.8	0.00e+00	0	43	0	2018508800	49	4018
2026-01-11 03:41:00.03	50.43	51.95	-39.2	-40.2	20.1	0.00e+00	0	43	0	2025848832	49	3893
2026-01-11 03:41:01.04	50.86	52.23	-39.1	-40.1	20.2	0.00e+00	0	43	0	2033188864	48	4052
2026-01-11 03:41:02.04	51.29	52.51	-38.9	-39.9	20.4	0.00e+00	0	43	0	2040528896	48	3968
2026-01-11 03:41:03.04	51.72	52.79	-38.8	-39.7	20.5	0.00e+00	0	44	0	2046820352	48	3910
2026-01-11 03:41:04.05	52.18	53.07	-39.1	-40.0	20.2	0.00e+00	0	43	0	2054160384	48	4038
2026-01-11 03:41:05.05	52.63	53.35	-39.2	-40.2	20.1	0.00e+00	0	43	0	2061500416	48	4104
2026-01-11 03:41:06.05	53.09	53.63	-39.3	-40.3	20.0	0.00e+00	0	43	0	2068840448	48	4179
2026-01-11 03:41:07.06	53.57	53.91	-39.3	-40.2	20.0	0.00e+00	0	43	0	2076180480	48	4134
2026-01-11 03:41:08.06	54.05	54.18	-39.2	-40.2	20.1	0.00e+00	0	43	0	2083520512	48	4108
2026-01-11 03:41:09.06	54.54	54.46	-39.3	-40.3	20.0	0.00e+00	0	43	0	2090860544	48	4163
2026-01-11 03:41:10.07	55.05	54.74	-39.6	-40.6	19.7	0.00e+00	0	43	0	2098200576	48	4309
2026-01-11 03:41:11.07	55.56	55.01	-39.8	-40.8	19.5	0.00e+00	0	43	0	2104492032	49	4170
2026-01-11 03:41:12.07	56.08	55.29	-39.3	-40.3	20.0	0.00e+00	0	43	0	2111832064	49	3922
2026-01-11 03:41:13.08	56.62	55.57	-39.0	-39.9	20.3	0.00e+00	0	43	0	2119172096	48	3979
2026-01-11 03:41:14.08	57.16	55.84	-39.3	-40.3	20.0	0.00e+00	0	43	0	2126512128	48	4163
2026-01-11 03:41:15.08	57.71	56.11	-39.2	-40.2	20.1	0.00e+00	0	43	0	2133852160	48	4123
2026-01-11 03:41:16.08	58.27	56.38	-39.0	-40.0	20.3	0.00e+00	0	43	0	2141192192	48	4021
2026-01-11 03:41:17.09	58.85	56.65	-39.4	-40.4	19.9	0.00e+00	0	43	0	2148532224	48	4234
2026-01-11 03:41:18.09	59.43	56.92	-39.1	-40.0	20.3	0.00e+00	0	43	0	2155872256	48	4038
2026-01-11 03:41:19.09	60.03	57.18	-39.5	-40.5	19.8	0.00e+00	0	43	0	2163212288	48	4270
2026-01-11 03:41:20.10	60.64	57.45	-39.4	-40.4	19.9	0.00e+00	0	43	0	2170552320	49	3965
2026-01-11 03:41:21.10	61.26	57.71	-39.2	-40.2	20.0	0.00e+00	0	43	0	2177892352	49	3895
2026-01-11 03:41:22.10	61.89	57.97	-39.4	-40.3	20.0	0.00e+00	0	43	0	2185232384	49	3953
2026-01-11 03:41:23.11	62.55	58.23	-39.4	-40.4	20.0	0.00e+00	0	43	0	2191523840	49	3971
2026-01-11 03:41:24.11	63.20	58.49	-39.2	-40.1	20.1	0.00e+00	0	43	0	2198863872	48	4081
2026-01-11 03:41:25.11	63.87	58.74	-39.1	-40.1	20.2	0.00e+00	0	43	0	2206203904	48	4057
2026-01-11 03:41:26.12	64.56	59.00	-38.9	-39.9	20.4	0.00e+00	0	43	0	2213543936	48	3959
2026-01-11 03:41:27.12	65.25	59.24	-38.9	-39.8	20.5	0.00e+00	0	43	0	2220883968	48	3943
2026-01-11 03:41:28.13	65.97	59.49	-39.0	-39.9	20.3	0.00e+00	0	43	0	2228224000	48	4003
2026-01-11 03:41:29.13	66.69	59.73	-39.0	-40.0	20.3	0.00e+00	0	43	0	2235564032	48	4023
2026-01-11 03:41:30.13	67.43	59.97	-38.9	-39.9	20.4	0.00e+00	0	43	0	2242904064	48	3962
2026-01-11 03:41:31.14	68.18	60.21	-38.9	-39.8	20.4	0.00e+00	0	43	0	2250244096	48	3932
2026-01-11 03:41:32.14	68.94	60.44	-39.0	-39.9	20.4	0.00e+00	0	43	0	2257584128	48	3984
2026-01-11 03:41:33.15	69.73	60.67	-39.0	-39.9	20.3	0.00e+00	0	43	0	2264924160	48	3979
2026-01-11 03:41:34.15	70.52	60.90	-38.9	-39.9	20.3	0.00e+00	0	43	0	2272264192	48	3974
2026-01-11 03:41:35.15	71.32	61.12	-39.0	-39.9	20.3	0.00e+00	0	43	0	2278555648	48	3990
2026-01-11 03:41:36.16	72.15	61.34	-39.0	-39.9	20.4	0.00e+00	0	43	0	2285895680	48	3979
2026-01-11 03:41:37.16	72.98	61.55	-38.8	-39.8	20.5	0.00e+00	0	43	0	2293235712	48	3918
2026-01-11 03:41:38.16	73.83	61.76	-38.8	-39.7	20.5	0.00e+00	0	43	0	2300575744	48	3890
2026-01-11 03:41:39.17	74.70	61.96	-38.2	-39.1	20.7	0.00e+00	0	43	0	2307915776	47	3863
2026-01-11 03:41:40.17	75.58	62.16	-38.1	-39.0	20.9	0.00e+00	0	43	0	2315255808	46	4032
2026-01-11 03:41:41.18	76.47	62.35	-38.3	-39.2	20.6	0.00e+00	0	43	0	2322595840	46	4145
2026-01-11 03:41:42.18	77.38	62.54	-38.5	-39.4	20.5	0.00e+00	0	43	0	2329935872	46	4240
2026-01-11 03:41:43.18	78.30	62.72	-38.4	-39.3	20.6	0.00e+00	0	43	0	2337275904	46	4180
2026-01-11 03:41:44.19	79.24	62.90	-38.1	-39.0	20.9	0.00e+00	0	43	0	2344615936	46	4010
2026-01-11 03:41:45.19	80.18	63.07	-37.9	-38.8	21.1	0.00e+00	0	43	0	2351955968	46	3920
2026-01-11 03:41:46.19	81.14	63.23	-37.8	-38.7	21.1	0.00e+00	0	43	0	2358247424	46	3913
2026-01-11 03:41:47.20	82.12	63.39	-37.9	-38.8	21.1	0.00e+00	0	43	0	2365587456	46	3928
2026-01-11 03:41:48.20	83.10	63.54	-38.0	-38.9	21.0	0.00e+00	0	43	0	2372927488	46	3969
2026-01-11 03:41:49.20	84.10	63.68	-38.0	-39.0	20.9	0.00e+00	0	44	0	2380267520	46	4014
2026-01-11 03:41:50.21	85.12	63.82	-38.0	-38.9	20.9	0.00e+00	0	43	0	2387607552	46	3968
2026-01-11 03:41:51.21	86.14	63.95	-37.8	-38.7	21.1	0.00e+00	0	43	0	2394947584	46	3881
2026-01-11 03:41:52.22	87.18	64.08	-37.8	-38.7	21.1	0.00e+00	0	43	0	2402287616	46	3884
2026-01-11 03:41:53.22	88.22	64.19	-37.9	-38.8	21.1	0.00e+00	0	44	0	2409627648	46	3947
2026-01-11 03:41:54.22	89.27	64.30	-37.9	-38.9	21.0	0.00e+00	0	43	0	2416967680	46	3959
2026-01-11 03:41:55.23	90.35	64.40	-37.8	-38.7	21.1	0.00e+00	0	43	0	2423259136	46	3894
2026-01-11 03:41:56.23	91.42	64.49	-37.6	-38.5	21.3	0.00e+00	0	43	0	2431647744	45	4017
2026-01-11 03:41:57.23	92.50	64.58	-37.6	-38.5	21.3	0.00e+00	0	43	0	2438987776	45	4043
2026-01-11 03:41:58.24	93.60	64.66	-37.6	-38.5	21.3	0.00e+00	0	43	0	2445279232	45	4035
2026-01-11 03:41:59.24	94.69	64.73	-37.9	-38.8	21.0	0.00e+00	0	43	0	2452619264	45	4183
2026-01-11 03:42:00.24	95.79	64.79	-38.1	-39.1	20.8	0.00e+00	0	43	0	2459959296	45	4315
2026-01-11 03:42:01.25	96.91	64.84	-38.2	-39.1	20.8	0.00e+00	0	43	0	2467299328	45	4324
2026-01-11 03:42:02.25	98.02	64.88	-38.0	-38.9	20.9	0.00e+00	0	43	0	2474639360	45	4227
2026-01-11 03:42:03.26	99.14	64.92	-37.7	-38.7	21.2	0.00e+00	0	44	0	2481979392	45	4102
2026-01-11 03:42:04.26	100.26	64.95	-37.7	-38.6	21.3	0.00e+00	0	44	0	2489319424	45	4058
2026-01-11 03:42:05.26	101.38	64.96	-37.7	-38.7	21.2	0.00e+00	0	43	0	2496659456	45	4114
2026-01-11 03:42:06.26	102.50	64.97	-37.6	-38.5	21.4	0.00e+00	0	43	0	2502950912	45	4012
2026-01-11 03:42:07.27	103.64	64.97	-37.9	-38.8	21.1	0.00e+00	0	43	0	2510290944	45	4175
2026-01-11 03:42:08.27	104.76	64.97	-37.8	-38.7	21.1	0.00e+00	0	43	0	2517630976	45	4143
2026-01-11 03:42:09.27	105.88	64.95	-37.7	-38.6	21.3	0.00e+00	0	43	0	2524971008	45	4069
2026-01-11 03:42:10.28	107.01	64.93	-37.6	-38.5	21.3	0.00e+00	0	43	0	2532311040	45	4035
2026-01-11 03:42:11.28	108.12	64.89	-37.7	-38.6	21.2	0.00e+00	0	43	0	2539651072	45	4071
2026-01-11 03:42:12.29	109.25	64.85	-37.7	-38.6	21.2	0.00e+00	0	43	0	2546991104	45	4065
2026-01-11 03:42:13.29	110.35	64.80	-37.9	-38.8	21.1	0.00e+00	0	43	0	2554331136	45	4161
2026-01-11 03:42:14.29	111.46	64.74	-37.7	-38.6	21.2	0.00e+00	0	43	0	2561671168	45	4083
2026-01-11 03:42:15.30	112.56	64.68	-37.8	-38.7	21.2	0.00e+00	0	43	0	2569011200	45	4122
2026-01-11 03:42:16.30	113.65	64.60	-37.8	-38.7	20.9	0.00e+00	0	43	0	2576351232	45	4117
2026-01-11 03:42:17.31	114.75	64.52	-37.7	-38.6	21.3	0.00e+00	0	43	0	2583691264	45	4059
2026-01-11 03:42:18.31	115.82	64.43	-37.8	-38.7	21.2	0.00e+00	0	43	0	2589982720	45	4099
2026-01-11 03:42:19.31	116.89	64.33	-38.0	-39.0	20.9	0.00e+00	0	43	0	2597322752	45	4260
2026-01-11 03:42:20.32	117.95	64.22	-38.1	-39.0	20.8	0.00e+00	0	43	0	2604662784	46	4046
2026-01-11 03:42:21.32	119.00	64.11	-38.2	-39.2	20.8	0.00e+00	0	43	0	2612002816	46	4100
2026-01-11 03:42:22.32	120.03	63.99	-38.1	-39.0	20.9	0.00e+00	0	43	0	2619342848	46	4026
2026-01-11 03:42:23.33	121.07	63.86	-38.2	-39.1	20.8	0.00e+00	0	43	0	2626682880	46	4068
2026-01-11 03:42:24.33	122.08	63.72	-38.1	-39.0	20.9	0.00e+00	0	43	0	2634022912	46	4046
2026-01-11 03:42:25.33	123.08	63.58	-38.2	-39.2	20.8	0.00e+00	0	43	0	2641362944	46	4105
2026-01-11 03:42:26.34	124.08	63.43	-38.4	-39.3	20.6	0.00e+00	0	43	0	2648702976	46	4183
2026-01-11 03:42:27.34	125.06	63.27	-38.3	-39.3	20.6	0.00e+00	0	43	0	2656043008	46	4154
2026-01-11 03:42:28.34	126.02	63.11	-38.4	-39.3	20.6	0.00e+00	0	44	0	2663383040	46	4182
2026-01-11 03:42:29.35	126.98	62.94	-38.4	-39.3	20.6	0.00e+00	0	43	0	2670723072	46	4178
2026-01-11 03:42:30.35	127.91	62.77	-38.5	-39.5	20.5	0.00e+00	0	43	0	2677014528	46	4268
2026-01-11 03:42:31.35	128.84	62.59	-38.7	-39.6	20.4	0.00e+00	0	43	0	2684354560	46	4315
2026-01-11 03:42:32.35	129.75	62.40	-38.9	-39.9	20.1	0.00e+00	0	43	0	2691694592	47	4201
2026-01-11 03:42:33.36	130.65	62.21	-39.0	-39.9	20.0	0.00e+00	0	43	0	2699034624	47	4242
2026-01-11 03:42:34.36	131.53	62.01	-39.0	-40.0	19.9	0.00e+00	0	43	0	2706374656	47	4284
2026-01-11 03:42:35.36	132.40	61.81	-39.0	-40.0	20.0	0.00e+00	0	43	0	2713714688	47	4247
2026-01-11 03:42:36.37	133.26	61.60	-38.9	-39.9	20.1	0.00e+00	0	43	0	2721054720	47	4222
2026-01-11 03:42:37.37	134.10	61.39	-38.9	-39.9	20.0	0.00e+00	0	43	0	2728394752	47	4198
2026-01-11 03:42:38.37	134.92	61.18	-38.7	-39.7	20.3	0.00e+00	0	43	0	2734686208	47	4121
2026-01-11 03:42:39.37	135.73	60.96	-38.7	-39.6	20.3	0.00e+00	0	43	0	2742026240	47	4091
2026-01-11 03:42:40.37	136.53	60.73	-38.8	-39.8	20.1	0.00e+00	0	43	0	2749366272	47	4171
2026-01-11 03:42:41.38	137.31	60.50	-38.9	-39.9	20.1	0.00e+00	0	43	0	2756706304	47	4230
2026-01-11 03:42:42.38	138.08	60.27	-39.2	-40.2	19.8	0.00e+00	0	43	0	2764046336	47	4354
2026-01-11 03:42:43.39	138.84	60.03	-39.2	-40.2	19.8	0.00e+00	0	43	0	2771386368	47	4359
2026-01-11 03:42:44.39	139.58	59.79	-39.3	-40.2	19.8	0.00e+00	0	43	0	2778726400	48	4145
2026-01-11 03:42:45.39	140.31	59.55	-39.3	-40.3	20.0	0.00e+00	0	43	0	2786066432	48	4158
2026-01-11 03:42:46.39	141.02	59.31	-39.3	-40.3	20.0	0.00e+00	0	43	0	2793406464	48	4161
2026-01-11 03:42:47.40	141.73	59.06	-39.3	-40.3	20.0	0.00e+00	0	43	0	2800746496	48	4173
2026-01-11 03:42:48.40	142.42	58.81	-39.4	-40.4	19.9	0.00e+00	0	43	0	2808086528	48	4217
2026-01-11 03:42:49.41	143.10	58.55	-39.3	-40.3	19.9	0.00e+00	0	43	0	2815426560	48	4173
2026-01-11 03:42:50.41	143.76	58.29	-39.1	-40.0	20.2	0.00e+00	0	43	0	2821718016	48	4024
2026-01-11 03:42:51.41	144.41	58.04	-39.1	-40.0	20.2	0.00e+00	0	43	0	2829058048	48	4034
2026-01-11 03:42:52.42	145.05	57.77	-39.2	-40.1	20.2	0.00e+00	0	43	0	2836398080	48	4096
2026-01-11 03:42:53.42	145.67	57.51	-39.4	-40.4	19.9	0.00e+00	0	43	0	2843738112	48	4212
2026-01-11 03:42:54.42	146.29	57.24	-39.4	-40.4	19.9	0.00e+00	0	43	0	2851078144	48	4202
2026-01-11 03:42:55.43	146.89	56.98	-39.4	-40.4	19.8	0.00e+00	0	43	0	2858418176	48	4221
2026-01-11 03:42:56.43	147.48	56.71	-39.4	-40.4	19.9	0.00e+00	0	43	0	2865758208	48	4229
2026-01-11 03:42:57.43	148.06	56.44	-39.4	-40.4	19.9	0.00e+00	0	43	0	2873098240	48	4197
2026-01-11 03:42:58.44	148.63	56.17	-39.2	-40.1	20.1	0.00e+00	0	43	0	2880438272	48	4083
2026-01-11 03:42:59.44	149.19	55.89	-39.2	-40.1	20.1	0.00e+00	0	43	0	2887778304	48	4097
2026-01-11 03:43:00.45	149.74	55.62	-39.1	-40.0	20.1	0.00e+00	0	43	0	2895118336	48	4040
2026-01-11 03:43:01.45	150.27	55.34	-39.3	-40.3	19.9	0.00e+00	0	43	0	2901409792	48	4170
2026-01-11 03:43:02.45	150.79	55.07	-39.5	-40.5	19.9	0.00e+00	0	43	0	2908749824	48	4252
2026-01-11 03:43:03.46	151.31	54.79	-39.4	-40.4	19.9	0.00e+00	0	44	0	2916089856	48	4211
2026-01-11 03:43:04.46	151.82	54.51	-39.1	-40.0	20.3	0.00e+00	0	43	0	2923429888	48	4044
2026-01-11 03:43:05.46	152.31	54.23	-38.7	-39.6	20.3	0.00e+00	0	43	0	2930769920	48	3835
2026-01-11 03:43:06.47	152.80	53.95	-39.0	-39.9	20.3	0.00e+00	0	43	0	2938109952	48	3974
2026-01-11 03:43:07.47	153.28	53.67	-39.3	-40.3	20.0	0.00e+00	0	43	0	2945449984	48	4157
2026-01-11 03:43:08.47	153.74	53.39	-39.6	-40.6	19.7	0.00e+00	0	43	0	2952790016	48	4324
2026-01-11 03:43:09.48	154.21	53.11	-39.6	-40.5	19.8	0.00e+00	0	43	0	2960130048	48	4287
2026-01-11 03:43:10.48	154.66	52.83	-39.4	-40.4	19.9	0.00e+00	0	44	0	2967470080	48	4208
2026-01-11 03:43:11.48	155.10	52.55	-39.5	-40.4	19.9	0.00e+00	0	43	0	2974810112	48	4235
2026-01-11 03:43:12.49	155.53	52.27	-39.6	-40.6	19.7	0.00e+00	0	43	0	2982150144	48	4311
2026-01-11 03:43:13.49	155.96	51.99	-39.7	-40.7	19.6	0.00e+00	0	43	0	2988441600	48	4391
2026-01-11 03:43:14.49	156.38	51.71	-39.8	-40.8	19.5	0.00e+00	0	44	0	2995781632	49	4156
2026-01-11 03:43:15.50	156.79	51.43	-39.6	-40.6	19.7	0.00e+00	0	43	0	3003121664	49	4088
2026-01-11 03:43:16.50	157.19	51.15	-39.5	-40.5	19.8	0.00e+00	0	43	0	3010461696	49	4016
2026-01-11 03:43:17.50	157.58	50.87	-39.5	-40.5	19.8	0.00e+00	0	44	0	3017801728	49	4032
2026-01-11 03:43:18.51	157.98	50.59	-39.4	-40.3	20.0	0.00e+00	0	43	0	3025141760	49	3953
2026-01-11 03:43:19.51	158.36	50.31	-39.4	-40.4	19.7	0.00e+00	0	44	0	3032481792	49	3973
2026-01-11 03:43:20.51	158.73	50.03	-39.4	-40.4	19.9	0.00e+00	0	43	0	3039821824	49	3961
2026-01-11 03:43:21.52	159.10	49.75	-39.6	-40.6	19.7	0.00e+00	0	43	0	3047161856	49	4070
2026-01-11 03:43:22.52	159.46	49.47	-39.7	-40.8	19.5	0.00e+00	0	44	0	3053453312	49	4155
2026-01-11 03:43:23.52	159.81	49.20	-39.8	-40.8	19.5	0.00e+00	0	43	0	3060793344	49	4190
2026-01-11 03:43:24.53	160.16	48.92	-39.8	-40.9	19.3	0.00e+00	0	43	0	3068133376	49	4202
2026-01-11 03:43:25.53	160.50	48.64	-39.7	-40.7	19.4	0.00e+00	0	43	0	3075473408	49	4112
2026-01-11 03:43:26.53	160.84	48.37	-39.6	-40.6	19.6	0.00e+00	0	43	0	3082813440	49	4090
2026-01-11 03:43:27.54	161.17	48.09	-39.3	-40.3	19.9	0.00e+00	0	43	0	3090153472	49	3939
2026-01-11 03:43:28.54	161.49	47.82	-39.1	-40.1	20.2	0.00e+00	0	43	0	3097493504	49	3833
2026-01-11 03:43:29.55	161.82	47.54	-39.0	-39.9	20.3	0.00e+00	0	43	0	3104833536	48	4003
2026-01-11 03:43:30.55	162.13	47.27	-38.9	-39.8	20.4	0.00e+00	0	43	0	3112173568	48	3942
2026-01-11 03:43:31.55	162.44	47.00	-38.7	-39.7	20.5	0.00e+00	0	43	0	3119513600	48	3875
2026-01-11 03:43:32.56	162.74	46.73	-38.4	-39.4	20.5	0.00e+00	0	43	0	3126853632	47	3966
2026-01-11 03:43:33.56	163.04	46.46	-38.2	-39.1	20.8	0.00e+00	0	43	0	3133145088	47	3848
2026-01-11 03:43:34.56	163.33	46.19	-38.0	-38.9	20.8	0.00e+00	0	44	0	3140485120	46	3981
2026-01-11 03:43:35.56	163.62	45.92	-37.9	-38.8	21.0	0.00e+00	0	43	0	3147825152	46	3941
2026-01-11 03:43:36.57	163.90	45.65	-37.9	-38.8	21.1	0.00e+00	0	44	0	3155165184	46	3915
2026-01-11 03:43:37.57	164.18	45.39	-37.8	-38.7	21.2	0.00e+00	0	43	0	3162505216	46	3869
2026-01-11 03:43:38.58	164.45	45.12	-37.8	-38.6	21.1	0.00e+00	0	43	0	3169845248	46	3865
2026-01-11 03:43:39.58	164.72	44.86	-37.6	-38.5	21.3	0.00e+00	0	43	0	3177185280	46	3810
2026-01-11 03:43:40.58	164.99	44.60	-37.7	-38.6	21.3	0.00e+00	0	44	0	3184525312	46	3843
2026-01-11 03:43:41.59	165.25	44.33	-37.7	-38.6	21.2	0.00e+00	0	43	0	3191865344	46	3837
2026-01-11 03:43:42.59	165.51	44.07	-37.7	-38.6	21.2	0.00e+00	0	43	0	3199205376	46	3857
2026-01-11 03:43:43.59	165.76	43.81	-37.8	-38.7	21.1	0.00e+00	0	44	0	3206545408	46	3889
2026-01-11 03:43:44.60	166.01	43.55	-37.9	-38.8	21.0	0.00e+00	0	43	0	3213885440	46	3954
2026-01-11 03:43:45.60	166.25	43.30	-37.8	-38.7	19.3	0.00e+00	0	43	0	3220176896	46	3899
2026-01-11 03:43:46.60	166.49	43.04	-38.1	-39.1	20.7	0.00e+00	0	43	0	3227516928	46	4061
2026-01-11 03:43:47.61	166.73	42.79	-38.1	-39.0	20.8	0.00e+00	0	43	0	3234856960	46	4034
2026-01-11 03:43:48.61	166.96	42.53	-37.9	-38.8	21.0	0.00e+00	0	43	0	3242196992	46	3955
2026-01-11 03:43:49.62	167.19	42.28	-37.9	-38.9	21.0	0.00e+00	0	43	0	3249537024	46	3959
2026-01-11 03:43:50.62	167.42	42.03	-37.9	-38.8	21.1	0.00e+00	0	43	0	3256877056	46	3938
2026-01-11 03:43:51.62	167.64	41.78	-37.7	-38.6	21.2	0.00e+00	0	43	0	3264217088	46	3857
2026-01-11 03:43:52.63	167.86	41.53	-37.7	-38.6	21.3	0.00e+00	0	43	0	3271557120	46	3833
2026-01-11 03:43:53.63	168.08	41.28	-37.7	-38.6	21.2	0.00e+00	0	43	0	3278897152	46	3864
2026-01-11 03:43:54.64	168.29	41.03	-37.7	-38.6	21.3	0.00e+00	0	43	0	3286237184	46	3828
2026-01-11 03:43:55.64	168.50	40.79	-37.6	-38.5	20.9	0.00e+00	0	43	0	3293577216	45	4050
2026-01-11 03:43:56.64	168.71	40.55	-37.6	-38.5	21.1	0.00e+00	0	43	0	3300917248	45	4022
2026-01-11 03:43:57.65	168.91	40.30	-37.7	-38.6	21.2	0.00e+00	0	43	0	3307208704	45	4062
2026-01-11 03:43:58.65	169.11	40.06	-37.7	-38.6	21.2	0.00e+00	0	43	0	3314548736	45	4056
2026-01-11 03:43:59.65	169.31	39.82	-37.6	-38.5	21.2	0.00e+00	0	43	0	3321888768	45	4046
2026-01-11 03:44:00.65	169.51	39.58	-37.5	-38.4	21.4	0.00e+00	0	43	0	3329228800	45	3985
2026-01-11 03:44:01.65	169.70	39.35	-37.5	-38.4	21.3	0.00e+00	0	43	0	3336568832	45	3995
2026-01-11 03:44:02.66	169.89	39.11	-37.5	-38.4	21.4	0.00e+00	0	43	0	3343908864	45	3978
2026-01-11 03:44:03.66	170.08	38.88	-37.5	-38.4	21.4	0.00e+00	0	43	0	3351248896	45	3986
2026-01-11 03:44:04.66	170.26	38.64	-37.7	-38.6	21.2	0.00e+00	0	43	0	3358588928	45	4070
2026-01-11 03:44:05.67	170.44	38.41	-37.8	-38.7	21.1	0.00e+00	0	43	0	3364880384	45	4107
2026-01-11 03:44:06.67	170.62	38.18	-37.6	-38.5	21.1	0.00e+00	0	43	0	3372220416	45	4048
2026-01-11 03:44:07.67	170.80	37.95	-37.8	-38.7	21.1	0.00e+00	0	43	0	3379560448	45	4120
2026-01-11 03:44:08.67	170.97	37.72	-37.9	-38.8	21.0	0.00e+00	0	43	0	3386900480	45	4166
2026-01-11 03:44:09.67	171.14	37.50	-37.9	-38.9	20.9	0.00e+00	0	43	0	3394240512	45	4203
2026-01-11 03:44:10.68	171.31	37.27	-37.9	-38.8	21.0	0.00e+00	0	43	0	3401580544	45	4170
2026-01-11 03:44:11.68	171.48	37.04	-37.8	-38.7	21.0	0.00e+00	0	43	0	3408920576	45	4141
2026-01-11 03:44:12.68	171.65	36.82	-37.8	-38.7	21.1	0.00e+00	0	44	0	3416260608	45	4112
2026-01-11 03:44:13.69	171.81	36.60	-37.8	-38.7	21.1	0.00e+00	0	43	0	3423600640	45	4133
2026-01-11 03:44:14.69	171.97	36.38	-37.7	-38.6	21.1	0.00e+00	0	43	0	3430940672	45	4094
2026-01-11 03:44:15.69	172.13	36.16	-37.6	-38.5	21.2	0.00e+00	0	44	0	3438280704	45	4034
2026-01-11 03:44:16.70	172.29	35.94	-37.3	-38.2	21.6	0.00e+00	0	43	0	3445620736	45	3873
2026-01-11 03:44:17.70	172.44	35.72	-37.3	-38.2	21.5	0.00e+00	0	43	0	3451912192	45	3871
2026-01-11 03:44:18.71	172.59	35.50	-37.2	-38.0	21.6	0.00e+00	0	43	0	3459252224	45	3812
2026-01-11 03:44:19.71	172.74	35.29	-37.1	-38.0	21.7	0.00e+00	0	43	0	3466592256	45	3818
2026-01-11 03:44:20.72	172.89	35.08	-37.2	-38.1	21.6	0.00e+00	0	43	0	3473932288	45	3839
2026-01-11 03:44:21.72	173.04	34.86	-37.3	-38.2	21.5	0.00e+00	0	43	0	3481272320	45	3888
2026-01-11 03:44:22.72	173.19	34.65	-37.4	-38.3	21.4	0.00e+00	0	43	0	3488612352	45	3937
2026-01-11 03:44:23.73	173.33	34.44	-37.5	-38.4	21.4	0.00e+00	0	43	0	3495952384	45	3968
2026-01-11 03:44:24.73	173.47	34.23	-37.5	-38.4	21.3	0.00e+00	0	43	0	3503292416	45	3982
2026-01-11 03:44:25.73	173.61	34.03	-37.4	-38.3	21.4	0.00e+00	0	44	0	3510632448	45	3919
2026-01-11 03:44:26.74	173.75	33.82	-37.5	-38.4	21.3	0.00e+00	0	43	0	3517972480	45	3973
2026-01-11 03:44:27.74	173.88	33.62	-37.4	-38.3	21.4	0.00e+00	0	43	0	3525312512	45	3946
2026-01-11 03:44:28.74	174.02	33.41	-37.4	-38.2	21.5	0.00e+00	0	44	0	3531603968	45	3908
2026-01-11 03:44:29.75	174.15	33.21	-37.4	-38.3	21.4	0.00e+00	0	43	0	3538944000	45	3938
2026-01-11 03:44:30.75	174.28	33.01	-37.6	-38.5	21.2	0.00e+00	0	43	0	3546284032	45	4020
2026-01-11 03:44:31.75	174.41	32.81	-37.4	-38.3	21.4	0.00e+00	0	43	0	3553624064	45	3935
2026-01-11 03:44:32.76	174.54	32.61	-37.3	-38.2	21.5	0.00e+00	0	43	0	3560964096	45	3881
2026-01-11 03:44:33.76	174.67	32.41	-37.3	-38.2	21.5	0.00e+00	0	43	0	3568304128	45	3899
2026-01-11 03:44:34.76	174.79	32.21	-37.3	-38.2	21.5	0.00e+00	0	43	0	3575644160	45	3903
2026-01-11 03:44:35.77	174.92	32.02	-37.3	-38.2	21.5	0.00e+00	0	43	0	3582984192	45	3893
2026-01-11 03:44:36.77	175.04	31.82	-37.3	-38.2	21.5	0.00e+00	0	43	0	3590324224	45	3886
2026-01-11 03:44:37.77	175.16	31.63	-37.3	-38.2	21.5	0.00e+00	0	43	0	3596615680	45	3883
2026-01-11 03:44:38.77	175.28	31.44	-37.3	-38.2	21.4	0.00e+00	0	43	0	3603955712	45	3901
2026-01-11 03:44:39.78	175.40	31.25	-37.3	-38.2	21.5	0.00e+00	0	43	0	3611295744	45	3873
2026-01-11 03:44:40.78	175.52	31.06	-37.4	-38.3	21.4	0.00e+00	0	43	0	3618635776	45	3914
2026-01-11 03:44:41.78	175.63	30.87	-37.4	-38.3	21.4	0.00e+00	0	43	0	3625975808	45	3928
2026-01-11 03:44:42.79	175.75	30.68	-37.5	-38.4	21.3	0.00e+00	0	44	0	3633315840	45	3980
2026-01-11 03:44:43.79	175.86	30.49	-37.6	-38.5	21.3	0.00e+00	0	43	0	3640655872	45	4029
2026-01-11 03:44:44.79	175.97	30.31	-37.5	-38.5	21.3	0.00e+00	0	43	0	3647995904	45	4010
2026-01-11 03:44:45.80	176.08	30.12	-37.6	-38.5	21.2	0.00e+00	0	43	0	3655335936	45	4045
2026-01-11 03:44:46.80	176.19	29.94	-37.5	-38.4	21.3	0.00e+00	0	43	0	3662675968	45	4004
2026-01-11 03:44:47.81	176.30	29.76	-37.7	-38.6	21.1	0.00e+00	0	43	0	3670016000	45	4061
2026-01-11 03:44:48.81	176.41	29.58	-37.7	-38.7	21.1	0.00e+00	0	43	0	3677356032	45	4100
2026-01-11 03:44:49.81	176.51	29.40	-37.7	-38.7	21.1	0.00e+00	0	43	0	3683647488	45	4101
2026-01-11 03:44:50.81	176.62	29.22	-37.6	-38.5	21.2	0.00e+00	0	44	0	3690987520	45	4009
2026-01-11 03:44:51.82	176.72	29.04	-37.5	-38.4	21.3	0.00e+00	0	43	0	3698327552	45	3998
2026-01-11 03:44:52.82	176.82	28.86	-37.5	-38.4	21.3	0.00e+00	0	43	0	3705667584	45	3989
2026-01-11 03:44:53.82	176.93	28.69	-37.6	-38.5	21.2	0.00e+00	0	43	0	3713007616	45	4023
2026-01-11 03:44:54.83	177.03	28.51	-37.6	-38.5	21.2	0.00e+00	0	43	0	3720347648	45	4025
2026-01-11 03:44:55.83	177.13	28.34	-37.7	-38.6	21.1	0.00e+00	0	43	0	3727687680	45	4068
2026-01-11 03:44:56.83	177.22	28.16	-37.7	-38.7	21.0	0.00e+00	0	43	0	3735027712	45	4108
2026-01-11 03:44:57.83	177.32	27.99	-37.8	-38.7	20.9	0.00e+00	0	43	0	3742367744	45	4136
2026-01-11 03:44:58.84	177.42	27.82	-37.9	-38.8	20.9	0.00e+00	0	43	0	3749707776	45	4177
2026-01-11 03:44:59.84	177.51	27.65	-38.0	-38.9	20.8	0.00e+00	0	43	0	3757047808	45	4233
2026-01-11 03:45:00.84	177.61	27.48	-38.1	-39.0	20.7	0.00e+00	0	43	0	3763339264	45	4286
2026-01-11 03:45:01.85	177.70	27.31	-38.1	-39.0	20.7	0.00e+00	0	43	0	3770679296	45	4291
2026-01-11 03:45:02.85	177.79	27.15	-38.2	-39.2	20.6	0.00e+00	0	43	0	3778019328	45	4341
2026-01-11 03:45:03.85	177.88	26.98	-38.3	-39.2	20.6	0.00e+00	0	43	0	3785359360	45	4363
2026-01-11 03:45:04.85	177.97	26.82	-38.3	-39.2	20.5	0.00e+00	0	44	0	3792699392	46	4139
2026-01-11 03:45:05.86	178.06	26.65	-38.4	-39.3	20.5	0.00e+00	0	44	0	3800039424	46	4188
2026-01-11 03:45:06.86	178.15	26.49	-38.4	-39.4	20.4	0.00e+00	0	43	0	3807379456	46	4196
2026-01-11 03:45:07.87	178.24	26.32	-38.4	-39.3	20.5	0.00e+00	0	43	0	3814719488	46	4181
2026-01-11 03:45:08.87	178.33	26.16	-38.4	-39.4	20.4	0.00e+00	0	43	0	3822059520	46	4199
2026-01-11 03:45:09.87	178.41	26.00	-38.3	-39.3	20.5	0.00e+00	0	43	0	3828350976	46	4152
2026-01-11 03:45:10.88	178.50	25.84	-38.4	-39.4	20.4	0.00e+00	0	43	0	3835691008	46	4207
2026-01-11 03:45:11.88	178.59	25.68	-38.3	-39.3	20.5	0.00e+00	0	43	0	3843031040	46	4166
2026-01-11 03:45:12.88	178.67	25.53	-38.2	-39.2	20.6	0.00e+00	0	43	0	3850371072	46	4120
2026-01-11 03:45:13.88	178.75	25.37	-38.3	-39.2	20.6	0.00e+00	0	43	0	3857711104	46	4142
2026-01-11 03:45:14.89	178.83	25.21	-38.2	-39.1	20.7	0.00e+00	0	43	0	3865051136	46	4078
2026-01-11 03:45:15.89	178.92	25.06	-38.1	-39.0	20.8	0.00e+00	0	43	0	3872391168	46	4032
2026-01-11 03:45:16.89	179.00	24.90	-38.0	-39.0	20.8	0.00e+00	0	43	0	3879731200	46	4018
2026-01-11 03:45:17.90	179.08	24.75	-38.0	-38.9	20.8	0.00e+00	0	44	0	3887071232	46	3986
2026-01-11 03:45:18.90	179.16	24.59	-38.0	-38.9	20.8	0.00e+00	0	44	0	3894411264	46	3971
2026-01-11 03:45:19.90	179.23	24.44	-38.0	-39.0	20.8	0.00e+00	0	43	0	3901751296	46	4008
2026-01-11 03:45:20.91	179.31	24.29	-37.9	-38.8	21.0	0.00e+00	0	43	0	3908042752	46	3931
2026-01-11 03:45:21.91	179.39	24.14	-37.8	-38.7	21.0	0.00e+00	0	44	0	3915382784	46	3885
2026-01-11 03:45:22.91	179.46	23.99	-37.8	-38.7	21.0	0.00e+00	0	44	0	3922722816	46	3896
2026-01-11 03:45:23.92	179.54	23.84	-37.7	-38.6	21.0	0.00e+00	0	43	0	3930062848	46	3868
2026-01-11 03:45:24.92	179.62	23.69	-37.7	-38.7	21.1	0.00e+00	0	43	0	3937402880	46	3872
2026-01-11 03:45:25.92	179.69	23.55	-37.8	-38.7	21.1	0.00e+00	0	43	0	3944742912	46	3885
2026-01-11 03:45:26.93	179.76	23.40	-37.9	-38.8	20.9	0.00e+00	0	44	0	3952082944	46	3948
2026-01-11 03:45:27.93	179.84	23.25	-37.8	-38.7	21.0	0.00e+00	0	43	0	3959422976	46	3898
2026-01-11 03:45:28.93	179.91	23.11	-37.8	-38.7	21.0	0.00e+00	0	43	0	3966763008	46	3892
2026-01-11 03:45:29.93	179.98	22.97	-37.9	-38.8	20.9	0.00e+00	0	44	0	3974103040	46	3929
2026-01-11 03:45:30.94	180.05	22.82	-37.9	-38.8	20.9	0.00e+00	0	43	0	3981443072	46	3945
2026-01-11 03:45:31.94	180.12	22.68	-38.0	-38.9	20.8	0.00e+00	0	43	0	3988783104	46	3999
2026-01-11 03:45:32.94	180.19	22.54	-37.9	-38.9	20.8	0.00e+00	0	44	0	3995074560	46	3980
2026-01-11 03:45:33.95	180.26	22.40	-38.0	-39.0	20.8	0.00e+00	0	43	0	4002414592	46	4024
2026-01-11 03:45:34.95	180.33	22.26	-38.1	-39.0	20.7	0.00e+00	0	44	0	4009754624	46	4050
2026-01-11 03:45:35.95	180.40	22.12	-38.2	-39.2	20.5	0.00e+00	0	43	0	4017094656	46	4125
2026-01-11 03:45:36.96	180.47	21.98	-38.3	-39.2	20.5	0.00e+00	0	43	0	4024434688	46	4136
2026-01-11 03:45:37.96	180.53	21.84	-38.4	-39.3	20.4	0.00e+00	0	44	0	4031774720	46	4192
2026-01-11 03:45:38.96	180.60	21.70	-38.5	-39.5	20.3	0.00e+00	0	44	0	4039114752	46	4253
2026-01-11 03:45:39.97	180.67	21.56	-38.4	-39.4	20.3	0.00e+00	0	44	0	4046454784	46	4207
2026-01-11 03:45:40.97	180.73	21.43	-38.5	-39.5	20.3	0.00e+00	0	43	0	4053794816	46	4257
2026-01-11 03:45:41.97	180.79	21.29	-38.5	-39.5	20.0	0.00e+00	0	43	0	4060086272	46	4269
2026-01-11 03:45:42.97	180.86	21.16	-38.7	-39.7	20.1	0.00e+00	0	44	0	4067426304	46	4350
2026-01-11 03:45:43.97	180.92	21.03	-38.6	-39.6	20.1	0.00e+00	0	43	0	4074766336	46	4319
2026-01-11 03:45:44.98	180.99	20.89	-38.6	-39.7	20.2	0.00e+00	0	43	0	4082106368	46	4342
2026-01-11 03:45:45.98	181.05	20.76	-38.8	-39.8	20.0	0.00e+00	0	44	0	4089446400	47	4174
2026-01-11 03:45:46.98	181.11	20.63	-38.7	-39.7	20.0	0.00e+00	0	44	0	4096786432	47	4141
2026-01-11 03:45:47.99	181.17	20.50	-38.7	-39.7	20.0	0.00e+00	0	44	0	4104126464	47	4128
2026-01-11 03:45:48.99	181.23	20.37	-38.7	-39.7	20.0	0.00e+00	0	44	0	4111466496	47	4134
2026-01-11 03:45:49.99	181.29	20.24	-38.7	-39.7	19.8	0.00e+00	0	43	0	4118806528	47	4143
2026-01-11 03:45:50.99	181.35	20.11	-38.6	-39.6	19.7	0.00e+00	0	44	0	4126146560	47	4094
2026-01-11 03:45:52.00	181.41	19.98	-38.7	-39.7	19.6	0.00e+00	0	43	0	4133486592	47	4126
2026-01-11 03:45:53.00	181.47	19.85	-38.7	-39.8	19.5	0.00e+00	0	43	0	4139778048	47	4149
2026-01-11 03:45:54.01	181.53	19.72	-38.6	-39.6	19.5	0.00e+00	0	43	0	4147118080	47	4096
2026-01-11 03:45:55.01	181.59	19.59	-38.6	-39.7	19.5	0.00e+00	0	44	0	4154458112	47	4119
2026-01-11 03:45:56.01	181.65	19.47	-38.5	-39.5	19.7	0.00e+00	0	43	0	4161798144	47	4037
2026-01-11 03:45:57.02	181.71	19.34	-38.5	-39.6	19.7	0.00e+00	0	43	0	4169138176	47	4052
2026-01-11 03:45:58.02	181.76	19.22	-38.5	-39.6	19.8	0.00e+00	0	43	0	4176478208	47	4053
2026-01-11 03:45:59.02	181.82	19.09	-38.7	-39.7	19.5	0.00e+00	0	43	0	4183818240	47	4114
2026-01-11 03:46:00.03	181.88	18.97	-38.5	-39.5	20.0	0.00e+00	0	43	0	4191158272	47	4041
2026-01-11 03:46:01.03	181.93	18.85	-38.6	-39.6	20.0	0.00e+00	0	44	0	4198498304	47	4065
2026-01-11 03:46:02.04	181.99	18.72	-38.5	-39.5	20.1	0.00e+00	0	44	0	4205838336	47	4040
2026-01-11 03:46:03.04	182.04	18.60	-38.6	-39.7	20.0	0.00e+00	0	43	0	4213178368	47	4100
2026-01-11 03:46:04.04	182.10	18.48	-38.7	-39.7	20.0	0.00e+00	0	44	0	4220518400	47	4104
2026-01-11 03:46:05.05	182.15	18.36	-38.7	-39.6	20.1	0.00e+00	0	44	0	4226809856	47	4097
2026-01-11 03:46:06.05	182.20	18.24	-38.7	-39.7	20.0	0.00e+00	0	43	0	4234149888	47	4123
2026-01-11 03:46:07.05	182.26	18.12	-38.8	-39.8	20.0	0.00e+00	0	43	0	4241489920	47	4174
2026-01-11 03:46:08.05	182.31	18.00	-38.8	-39.8	20.0	0.00e+00	0	43	0	4248829952	47	4177
2026-01-11 03:46:09.06	182.36	17.88	-38.9	-39.8	19.9	0.00e+00	0	43	0	4256169984	47	4192
2026-01-11 03:46:10.06	182.41	17.76	-38.9	-39.9	19.8	0.00e+00	0	44	0	4263510016	47	4209
2026-01-11 03:46:11.07	182.47	17.64	-39.0	-40.0	19.8	0.00e+00	0	44	0	4270850048	47	4261
2026-01-11 03:46:12.07	182.52	17.53	-38.9	-39.9	19.8	0.00e+00	0	44	0	4278190080	47	4227
2026-01-11 03:46:13.07	182.57	17.41	-39.0	-40.0	19.7	0.00e+00	0	44	0	4284481536	47	4276
2026-01-11 03:46:14.07	182.62	17.30	-39.1	-40.1	19.7	0.00e+00	0	44	0	4291821568	47	4319
2026-01-11 03:46:15.08	182.67	17.18	-39.1	-40.1	19.7	0.00e+00	0	44	0	4299161600	47	4309
2026-01-11 03:46:16.08	182.72	17.07	-39.2	-40.2	19.6	0.00e+00	0	43	0	4306501632	47	4362
2026-01-11 03:46:17.08	182.77	16.95	-39.3	-40.3	19.5	0.00e+00	0	43	0	4313841664	47	4409
2026-01-11 03:46:18.09	182.82	16.84	-39.4	-40.4	19.7	0.00e+00	0	43	0	4321181696	48	4194
2026-01-11 03:46:19.09	182.87	16.72	-39.4	-40.4	19.7	0.00e+00	0	43	0	4328521728	48	4207
2026-01-11 03:46:20.09	182.91	16.61	-39.4	-40.4	19.6	0.00e+00	0	43	0	4335861760	48	4217
2026-01-11 03:46:21.10	182.96	16.50	-39.5	-40.5	19.6	0.00e+00	0	43	0	4343201792	48	4276
2026-01-11 03:46:22.10	183.01	16.39	-39.5	-40.5	19.6	0.00e+00	0	43	0	4350541824	48	4266
2026-01-11 03:46:23.10	183.06	16.28	-39.5	-40.5	19.5	0.00e+00	0	43	0	4357881856	48	4279
2026-01-11 03:46:24.10	183.10	16.17	-39.5	-40.5	19.5	0.00e+00	0	44	0	4365221888	48	4283
2026-01-11 03:46:25.10	183.15	16.06	-39.5	-40.5	19.5	0.00e+00	0	44	0	4371513344	48	4284
2026-01-11 03:46:26.11	183.20	15.94	-39.6	-40.6	19.5	0.00e+00	0	43	0	4378853376	48	4314
2026-01-11 03:46:27.11	183.24	15.84	-39.6	-40.6	19.4	0.00e+00	0	43	0	4386193408	48	4317
2026-01-11 03:46:28.11	183.29	15.73	-39.6	-40.6	19.4	0.00e+00	0	43	0	4393533440	48	4327
2026-01-11 03:46:29.11	183.33	15.62	-39.5	-40.5	19.5	0.00e+00	0	43	0	4400873472	48	4290
2026-01-11 03:46:30.12	183.38	15.51	-39.6	-40.6	19.4	0.00e+00	0	44	0	4408213504	48	4319
2026-01-11 03:46:31.12	183.42	15.40	-39.5	-40.6	19.4	0.00e+00	0	44	0	4415553536	48	4306
2026-01-11 03:46:32.12	183.47	15.30	-39.6	-40.7	19.4	0.00e+00	0	44	0	4422893568	48	4341
2026-01-11 03:46:33.13	183.51	15.19	-39.8	-40.8	19.3	0.00e+00	0	43	0	4430233600	48	4414
2026-01-11 03:46:34.13	183.56	15.08	-39.6	-40.7	19.4	0.00e+00	0	43	0	4437573632	48	4345
2026-01-11 03:46:35.13	183.60	14.98	-39.7	-40.8	19.3	0.00e+00	0	44	0	4444913664	48	4404
2026-01-11 03:46:36.14	183.65	14.87	-39.7	-40.7	19.3	0.00e+00	0	43	0	4452253696	49	4144
2026-01-11 03:46:37.14	183.69	14.77	-39.8	-40.8	19.2	0.00e+00	0	43	0	4458545152	49	4187
2026-01-11 03:46:38.14	183.73	14.66	-39.7	-40.8	19.3	0.00e+00	0	43	0	4465885184	49	4160
2026-01-11 03:46:39.15	183.77	14.56	-39.8	-40.9	19.2	0.00e+00	0	43	0	4473225216	49	4199
2026-01-11 03:46:40.15	183.82	14.46	-39.8	-40.8	19.2	0.00e+00	0	44	0	4480565248	49	4180
2026-01-11 03:46:41.15	183.86	14.35	-39.8	-40.9	19.2	0.00e+00	0	44	0	4487905280	49	4200
2026-01-11 03:46:42.16	183.90	14.25	-39.8	-40.8	18.9	0.00e+00	0	44	0	4495245312	49	4193
2026-01-11 03:46:43.16	183.94	14.15	-39.8	-40.8	19.2	0.00e+00	0	43	0	4502585344	49	4190
2026-01-11 03:46:44.16	183.98	14.05	-39.9	-40.9	19.1	0.00e+00	0	43	0	4509925376	49	4241
2026-01-11 03:46:45.17	184.02	13.94	-39.9	-41.0	19.1	0.00e+00	0	43	0	4516216832	49	4252
2026-01-11 03:46:46.17	184.06	13.84	-40.0	-41.1	19.0	0.00e+00	0	43	0	4523556864	49	4302
2026-01-11 03:46:47.18	184.11	13.74	-40.0	-41.1	19.0	0.00e+00	0	43	0	4530896896	49	4299
2026-01-11 03:46:48.18	184.15	13.64	-40.1	-41.2	18.8	0.00e+00	0	44	0	4538236928	49	4360
2026-01-11 03:46:49.18	184.19	13.54	-40.0	-41.1	18.9	0.00e+00	0	44	0	4545576960	49	4330
2026-01-11 03:46:50.18	184.22	13.44	-39.9	-41.1	19.0	0.00e+00	0	44	0	4552916992	49	4298
2026-01-11 03:46:51.19	184.26	13.34	-40.1	-41.2	18.8	0.00e+00	0	43	0	4560257024	49	4361
2026-01-11 03:46:52.19	184.30	13.25	-40.1	-41.3	18.8	0.00e+00	0	43	0	4567597056	49	4404
2026-01-11 03:46:53.19	184.34	13.15	-40.2	-41.3	18.6	0.00e+00	0	43	0	4574937088	49	4440
2026-01-11 03:46:54.20	184.38	13.05	-40.2	-41.3	18.7	0.00e+00	0	44	0	4582277120	49	4424
2026-01-11 03:46:55.20	184.42	12.95	-40.2	-41.3	18.7	0.00e+00	0	43	0	4589617152	49	4432
2026-01-11 03:46:56.21	184.46	12.85	-40.2	-41.3	18.7	0.00e+00	0	43	0	4596957184	49	4427
2026-01-11 03:46:57.21	184.50	12.76	-40.2	-41.3	18.7	0.00e+00	0	43	0	4603248640	49	4427
2026-01-11 03:46:58.21	184.53	12.66	-40.2	-41.4	18.6	0.00e+00	0	43	0	4610588672	49	4455
2026-01-11 03:46:59.21	184.57	12.57	-40.3	-41.4	18.5	0.00e+00	0	44	0	4617928704	50	4230
2026-01-11 03:47:00.21	184.61	12.47	-40.3	-41.5	18.5	0.00e+00	0	44	0	4625268736	50	4253
2026-01-11 03:47:01.22	184.65	12.37	-40.3	-41.5	18.5	0.00e+00	0	43	0	4632608768	50	4263
2026-01-11 03:47:02.22	184.68	12.28	-40.5	-41.6	18.4	0.00e+00	0	43	0	4639948800	50	4331
2026-01-11 03:47:03.23	184.72	12.18	-40.5	-41.6	18.4	0.00e+00	0	43	0	4647288832	50	4334
2026-01-11 03:47:04.23	184.76	12.09	-40.5	-41.7	18.3	0.00e+00	0	43	0	4654628864	50	4352
2026-01-11 03:47:05.23	184.79	12.00	-40.4	-41.6	17.2	0.00e+00	0	43	0	4660920320	50	4310
2026-01-11 03:47:06.24	184.83	11.90	-40.4	-41.6	18.4	0.00e+00	0	43	0	4669308928	50	4324
2026-01-11 03:47:07.24	184.87	11.81	-40.5	-41.6	18.3	0.00e+00	0	44	0	4676648960	50	4331
2026-01-11 03:47:08.24	184.90	11.72	-40.6	-41.8	18.2	0.00e+00	0	43	0	4682940416	50	4394
