passes_logs/2026/01/11/T1/T1__20260111_092127_NOAA_20_JPSS-1_rec.log

#Pass ID: 20260111_092127_NOAA 20 (JPSS-1)
#Satellite: NOAA 20 (JPSS-1)
#Configuration: NOAA 20
#almurnet v.1.7.20251203
#Start time: 2026-01-11 09:21:29

#Version: 2.0.20230620
#Station: T1
#Location: 37.570604 lon 55.790049 lat
#TLE: 1 43013U 17073A   26010.88944318  .00000078  00000+0  57801-4 0  9992
#TLE: 2 43013  98.7631 311.8723 0001655  45.1140 315.0170 14.19535117422152

#Time	Az	El	Level	Level2	SNR	BER	BlckErr	Temp	State	Recorded	gain1	gain2
2026-01-11 09:21:29.21	142.36	5.15	-51.4	-66.6	3.8	1.49e+00	0	41	0	0	74	20733
2026-01-11 09:21:30.20	142.33	5.22	-51.4	-66.5	3.8	1.49e+00	0	41	104	0	74	20386
2026-01-11 09:21:31.19	142.30	5.29	-51.4	-66.4	3.8	1.49e+00	0	41	104	0	74	20246
2026-01-11 09:21:32.19	142.27	5.36	-51.4	-66.3	3.8	1.49e+00	0	41	104	0	74	19929
2026-01-11 09:21:33.18	142.24	5.43	-51.4	-66.3	3.8	1.49e+00	0	42	104	0	74	19842
2026-01-11 09:21:34.17	142.21	5.50	-51.4	-66.1	3.8	1.49e+00	0	41	104	0	74	19486
2026-01-11 09:21:35.17	142.18	5.57	-51.4	-65.9	3.8	1.49e+00	0	42	104	0	74	19082
2026-01-11 09:21:36.16	142.15	5.64	-51.4	-65.7	3.8	1.49e+00	0	42	104	0	74	18726
2026-01-11 09:21:37.15	142.12	5.71	-51.4	-65.6	3.8	1.49e+00	0	42	104	0	74	18419
2026-01-11 09:21:38.15	142.09	5.79	-51.3	-65.3	3.8	1.49e+00	0	42	104	0	74	17744
2026-01-11 09:21:39.14	142.06	5.86	-51.4	-65.2	3.8	1.49e+00	0	42	104	0	74	17617
2026-01-11 09:21:40.13	142.03	5.93	-51.3	-64.9	3.8	1.49e+00	0	42	104	0	74	17018
2026-01-11 09:21:41.13	142.00	6.00	-51.3	-64.8	3.9	1.49e+00	0	42	104	0	74	16859
2026-01-11 09:21:42.12	141.97	6.08	-51.3	-64.8	3.8	1.49e+00	0	42	104	0	74	16804
2026-01-11 09:21:43.12	141.94	6.15	-51.3	-64.8	3.8	1.49e+00	0	42	104	0	74	16830
2026-01-11 09:21:44.11	141.91	6.22	-51.3	-65.0	3.8	1.49e+00	0	42	104	0	74	17124
2026-01-11 09:21:45.10	141.87	6.30	-51.3	-65.1	3.8	1.49e+00	0	42	104	0	74	17391
2026-01-11 09:21:46.10	141.84	6.37	-51.3	-65.3	3.8	1.49e+00	0	42	104	0	74	17764
2026-01-11 09:21:47.09	141.81	6.44	-51.3	-65.4	3.8	1.49e+00	0	42	104	0	74	18045
2026-01-11 09:21:48.08	141.78	6.52	-51.4	-65.5	3.8	1.49e+00	0	42	104	0	74	18301
2026-01-11 09:21:49.08	141.75	6.59	-51.3	-65.5	3.8	1.49e+00	0	42	104	0	74	18132
2026-01-11 09:21:50.07	141.71	6.66	-51.3	-65.2	3.8	1.49e+00	0	42	104	0	74	17532
2026-01-11 09:21:51.07	141.68	6.74	-51.3	-64.9	3.8	1.49e+00	0	42	104	0	74	16912
2026-01-11 09:21:52.06	141.65	6.81	-51.3	-64.3	4.0	1.48e+00	0	42	104	0	74	15774
2026-01-11 09:21:53.05	141.61	6.89	-51.2	-63.6	4.1	1.46e+00	0	42	0	0	74	14682
2026-01-11 09:21:54.05	141.58	6.96	-51.1	-62.6	4.4	1.38e+00	0	42	0	0	74	13097
2026-01-11 09:21:55.04	141.55	7.04	-51.0	-61.7	4.7	9.43e-01	0	42	0	1048576	74	11810
2026-01-11 09:21:56.04	141.51	7.12	-50.9	-60.5	5.4	6.77e-01	0	42	0	3145728	73	10877
2026-01-11 09:21:57.03	141.48	7.19	-50.7	-59.7	6.0	4.23e-01	0	42	0	5242880	73	9847
2026-01-11 09:21:58.02	141.45	7.27	-50.5	-58.4	7.0	2.60e-01	0	42	0	7340032	73	8500
2026-01-11 09:21:59.02	141.41	7.34	-50.2	-57.3	8.1	7.78e-02	0	42	0	9437184	72	7950
2026-01-11 09:22:00.01	141.38	7.42	-49.9	-56.3	9.2	3.58e-02	0	43	0	10485760	71	7470
2026-01-11 09:22:01.01	141.34	7.50	-49.6	-55.3	10.2	1.15e-02	0	43	0	12582912	71	6682
2026-01-11 09:22:02.00	141.31	7.57	-49.2	-54.4	11.1	3.21e-03	0	43	0	14680064	70	6364
2026-01-11 09:22:03.00	141.27	7.65	-48.8	-53.4	12.1	4.66e-04	0	43	0	16777216	69	6059
2026-01-11 09:22:03.99	141.24	7.73	-48.5	-52.8	12.8	1.43e-04	0	43	0	17825792	69	5627
2026-01-11 09:22:04.98	141.20	7.81	-48.1	-52.1	13.4	3.28e-05	0	43	0	19922944	68	5526
2026-01-11 09:22:05.98	141.17	7.88	-47.7	-51.5	13.9	2.20e-06	0	42	0	22020096	67	5439
2026-01-11 09:22:06.97	141.13	7.96	-47.5	-51.3	14.2	0.00e+00	0	43	0	24117248	67	5280
2026-01-11 09:22:07.96	141.09	8.04	-47.4	-51.0	14.4	2.20e-06	0	43	0	26214400	66	5435
2026-01-11 09:22:08.96	141.06	8.12	-47.4	-51.0	14.5	1.50e-06	0	43	0	27262976	66	5411
2026-01-11 09:22:09.95	141.02	8.20	-47.5	-51.2	14.2	0.00e+00	0	43	0	29360128	66	5549
2026-01-11 09:22:10.95	140.98	8.28	-47.7	-51.6	13.8	1.50e-06	0	43	0	31457280	66	5812
2026-01-11 09:22:11.94	140.95	8.36	-48.0	-52.0	13.4	7.60e-06	0	43	0	33554432	66	6110
2026-01-11 09:22:12.93	140.91	8.44	-48.3	-52.7	12.7	5.11e-05	0	43	0	34603008	67	6215
2026-01-11 09:22:13.93	140.87	8.52	-49.0	-53.8	11.7	2.55e-04	0	43	0	36700160	68	6691
2026-01-11 09:22:14.92	140.84	8.60	-49.5	-55.1	10.4	1.66e-03	0	43	0	38797312	69	7322
2026-01-11 09:22:15.91	140.80	8.68	-50.1	-56.6	8.8	9.45e-03	0	43	0	40894464	70	8258
2026-01-11 09:22:16.91	140.76	8.76	-50.5	-58.3	7.1	1.00e-01	0	43	0	42991616	71	9494
2026-01-11 09:22:17.90	140.72	8.84	-50.8	-60.5	5.4	3.42e-01	0	43	0	44040192	72	11486
2026-01-11 09:22:18.90	140.68	8.92	-51.1	-62.9	4.3	8.59e-01	0	43	0	46137344	72	15069
2026-01-11 09:22:19.89	140.64	9.00	-51.3	-65.1	3.8	1.45e+00	0	43	104	46137344	73	18330
2026-01-11 09:22:20.88	140.61	9.08	-50.1	-56.6	8.8	5.91e-01	0	43	0	46137344	72	7307
2026-01-11 09:22:21.88	140.57	9.16	-49.6	-55.2	10.3	1.68e-02	0	43	0	48234496	71	6645
2026-01-11 09:22:22.87	140.53	9.24	-51.3	-65.6	3.8	4.15e-01	0	43	104	49283072	73	19403
2026-01-11 09:22:23.86	140.49	9.33	-50.1	-56.3	9.1	7.95e-01	0	43	0	49283072	72	7108
2026-01-11 09:22:24.86	140.45	9.41	-50.2	-57.0	8.6	1.06e-02	0	43	0	50331648	71	8104
2026-01-11 09:22:25.85	140.41	9.49	-49.8	-55.5	10.1	3.96e-02	0	43	0	52428800	71	6828
2026-01-11 09:22:26.84	140.37	9.57	-49.7	-55.2	10.4	8.09e-03	0	43	0	54525952	71	6601
2026-01-11 09:22:27.84	140.33	9.66	-49.2	-54.0	11.7	1.11e-03	0	43	0	56623104	70	6107
2026-01-11 09:22:28.83	140.29	9.74	-48.7	-53.1	12.7	2.01e-04	0	43	0	57671680	69	5812
2026-01-11 09:22:29.82	140.24	9.82	-48.4	-52.3	13.5	2.74e-05	0	43	0	59768832	68	5647
2026-01-11 09:22:30.82	140.20	9.91	-48.0	-51.7	14.1	6.80e-06	0	43	0	61865984	68	5254
2026-01-11 09:22:31.81	140.16	9.99	-47.7	-51.3	14.4	7.00e-07	0	43	0	63963136	67	5321
2026-01-11 09:22:32.81	140.12	10.08	-47.6	-51.1	14.6	0.00e+00	0	43	0	65011712	67	5203
2026-01-11 09:22:33.80	140.08	10.16	-47.4	-50.8	14.9	0.00e+00	0	43	0	67108864	66	5302
2026-01-11 09:22:34.79	140.04	10.25	-47.2	-50.5	15.2	0.00e+00	0	43	0	69206016	66	5128
2026-01-11 09:22:35.79	139.99	10.33	-47.1	-50.4	15.3	0.00e+00	0	43	0	71303168	66	5061
2026-01-11 09:22:36.78	139.95	10.42	-47.0	-50.2	15.5	0.00e+00	0	43	0	73400320	66	4936
2026-01-11 09:22:37.77	139.91	10.50	-47.0	-50.2	15.4	0.00e+00	0	43	0	74448896	65	5273
2026-01-11 09:22:38.76	139.86	10.59	-47.0	-50.1	15.6	0.00e+00	0	43	0	76546048	65	5200
2026-01-11 09:22:39.76	139.82	10.68	-47.0	-50.1	15.6	0.00e+00	0	43	0	78643200	65	5210
2026-01-11 09:22:40.75	139.78	10.76	-46.9	-50.0	15.7	0.00e+00	0	43	0	80740352	65	5136
2026-01-11 09:22:41.74	139.73	10.85	-46.9	-50.0	15.7	0.00e+00	0	43	0	81788928	65	5124
2026-01-11 09:22:42.74	139.69	10.94	-46.9	-50.0	15.7	0.00e+00	0	43	0	83886080	65	5135
2026-01-11 09:22:43.73	139.64	11.03	-46.9	-50.0	15.7	0.00e+00	0	43	0	85983232	65	5123
2026-01-11 09:22:44.72	139.60	11.11	-46.9	-50.0	15.6	0.00e+00	0	43	0	88080384	65	5147
2026-01-11 09:22:45.72	139.55	11.20	-46.9	-50.0	15.7	0.00e+00	0	43	0	90177536	65	5125
2026-01-11 09:22:46.71	139.51	11.29	-46.9	-50.0	15.7	0.00e+00	0	43	0	91226112	65	5156
2026-01-11 09:22:47.70	139.46	11.38	-46.9	-50.1	15.6	0.00e+00	0	43	0	93323264	65	5188
2026-01-11 09:22:48.70	139.41	11.47	-46.9	-50.0	15.7	0.00e+00	0	43	0	95420416	65	5145
2026-01-11 09:22:49.69	139.37	11.56	-46.9	-50.0	15.7	0.00e+00	0	43	0	97517568	65	5137
2026-01-11 09:22:50.68	139.32	11.65	-46.8	-50.0	15.7	0.00e+00	0	43	0	98566144	65	5112
2026-01-11 09:22:51.68	139.27	11.74	-46.8	-49.9	15.8	0.00e+00	0	43	0	100663296	65	5093
2026-01-11 09:22:52.67	139.23	11.83	-46.7	-49.8	15.9	0.00e+00	0	43	0	102760448	65	5006
2026-01-11 09:22:53.67	139.18	11.92	-46.7	-49.7	16.0	0.00e+00	0	43	0	104857600	65	4960
2026-01-11 09:22:54.66	139.13	12.01	-46.7	-49.7	16.0	0.00e+00	0	43	0	106954752	65	4950
2026-01-11 09:22:55.65	139.08	12.10	-46.7	-49.6	16.1	0.00e+00	0	43	0	108003328	65	4911
2026-01-11 09:22:56.65	139.03	12.19	-46.7	-49.7	16.0	0.00e+00	0	43	0	110100480	65	4964
2026-01-11 09:22:57.64	138.98	12.29	-46.5	-49.4	16.4	0.00e+00	0	43	0	112197632	65	4786
2026-01-11 09:22:58.63	138.94	12.38	-46.5	-49.4	16.4	0.00e+00	0	43	0	114294784	65	4785
2026-01-11 09:22:59.63	138.89	12.47	-46.6	-49.5	16.3	0.00e+00	0	43	0	115343360	65	4825
2026-01-11 09:23:00.62	138.84	12.56	-46.5	-49.4	16.3	0.00e+00	0	43	0	117440512	65	4801
2026-01-11 09:23:01.61	138.79	12.66	-46.7	-49.7	16.1	0.00e+00	0	43	0	119537664	65	4933
2026-01-11 09:23:02.61	138.73	12.75	-46.7	-49.7	16.0	0.00e+00	0	44	0	121634816	65	4973
2026-01-11 09:23:03.60	138.68	12.85	-46.7	-49.8	16.0	0.00e+00	0	43	0	123731968	65	4994
2026-01-11 09:23:04.59	138.63	12.94	-46.9	-50.0	15.8	0.00e+00	0	43	0	124780544	65	5104
2026-01-11 09:23:05.59	138.58	13.03	-46.8	-49.9	15.9	0.00e+00	0	43	0	126877696	65	5090
2026-01-11 09:23:06.58	138.53	13.13	-46.8	-49.8	15.9	0.00e+00	0	43	0	128974848	65	5036
2026-01-11 09:23:07.57	138.48	13.22	-46.7	-49.8	16.0	0.00e+00	0	43	0	131072000	65	5000
2026-01-11 09:23:08.56	138.42	13.32	-46.7	-49.7	16.1	0.00e+00	0	43	0	133169152	65	4959
2026-01-11 09:23:09.56	138.37	13.42	-46.7	-49.7	16.1	0.00e+00	0	43	0	134217728	65	4970
2026-01-11 09:23:10.55	138.32	13.51	-46.5	-49.5	16.3	0.00e+00	0	43	0	136314880	65	4820
2026-01-11 09:23:11.54	138.26	13.61	-46.4	-49.2	16.5	0.00e+00	0	43	0	138412032	64	4979
2026-01-11 09:23:12.53	138.21	13.71	-46.5	-49.3	16.4	0.00e+00	0	43	0	140509184	64	5029
2026-01-11 09:23:13.53	138.16	13.80	-46.4	-49.3	16.5	0.00e+00	0	44	0	141557760	64	5013
2026-01-11 09:23:14.52	138.10	13.90	-46.4	-49.2	16.6	0.00e+00	0	43	0	143654912	64	4966
2026-01-11 09:23:15.51	138.05	14.00	-46.4	-49.2	16.5	0.00e+00	0	43	0	145752064	64	4972
2026-01-11 09:23:16.51	137.99	14.10	-46.4	-49.2	16.6	0.00e+00	0	44	0	147849216	64	4957
2026-01-11 09:23:17.50	137.93	14.20	-46.4	-49.2	16.6	0.00e+00	0	44	0	148897792	64	4953
2026-01-11 09:23:18.49	137.88	14.30	-46.4	-49.2	16.5	0.00e+00	0	43	0	150994944	64	4982
2026-01-11 09:23:19.49	137.82	14.40	-46.3	-49.1	16.7	0.00e+00	0	43	0	153092096	64	4909
2026-01-11 09:23:20.48	137.76	14.50	-46.4	-49.2	16.6	0.00e+00	0	43	0	155189248	64	4953
2026-01-11 09:23:21.48	137.70	14.60	-46.3	-49.1	16.8	0.00e+00	0	43	0	157286400	64	4872
2026-01-11 09:23:22.47	137.65	14.70	-46.2	-48.9	16.9	0.00e+00	0	44	0	158334976	64	4794
2026-01-11 09:23:23.46	137.59	14.80	-46.2	-49.0	16.8	0.00e+00	0	43	0	160432128	64	4827
2026-01-11 09:23:24.46	137.53	14.90	-46.3	-49.1	16.7	0.00e+00	0	43	0	162529280	64	4875
2026-01-11 09:23:25.45	137.47	15.00	-46.3	-49.1	16.7	0.00e+00	0	43	0	164626432	64	4892
2026-01-11 09:23:26.44	137.41	15.11	-46.4	-49.3	16.6	0.00e+00	0	44	0	165675008	64	4989
2026-01-11 09:23:27.44	137.35	15.21	-46.4	-49.3	16.6	0.00e+00	0	44	0	167772160	64	4992
2026-01-11 09:23:28.43	137.29	15.31	-46.5	-49.4	16.5	0.00e+00	0	44	0	169869312	64	5042
2026-01-11 09:23:29.43	137.23	15.42	-46.4	-49.3	16.5	0.00e+00	0	43	0	171966464	64	5011
2026-01-11 09:23:30.42	137.17	15.52	-46.3	-49.2	16.6	0.00e+00	0	44	0	174063616	64	4948
2026-01-11 09:23:31.41	137.11	15.63	-46.2	-49.1	16.8	0.00e+00	0	43	0	175112192	64	4879
2026-01-11 09:23:32.41	137.04	15.73	-46.2	-49.0	16.8	0.00e+00	0	43	0	177209344	64	4819
2026-01-11 09:23:33.40	136.98	15.84	-46.1	-48.9	16.9	0.00e+00	0	44	0	179306496	64	4774
2026-01-11 09:23:34.39	136.92	15.94	-46.1	-48.8	17.0	0.00e+00	0	44	0	181403648	64	4744
2026-01-11 09:23:35.39	136.85	16.05	-46.0	-48.8	17.0	0.00e+00	0	43	0	182452224	64	4709
2026-01-11 09:23:36.38	136.79	16.16	-46.0	-48.7	17.1	0.00e+00	0	44	0	184549376	64	4689
2026-01-11 09:23:37.37	136.72	16.26	-46.0	-48.8	17.0	0.00e+00	0	43	0	186646528	64	4711
2026-01-11 09:23:38.37	136.66	16.37	-46.2	-48.9	16.9	0.00e+00	0	43	0	188743680	64	4806
2026-01-11 09:23:39.36	136.59	16.48	-46.2	-49.0	16.8	0.00e+00	0	44	0	190840832	64	4829
2026-01-11 09:23:40.36	136.53	16.59	-46.3	-49.1	16.7	0.00e+00	0	44	0	191889408	64	4906
2026-01-11 09:23:41.35	136.46	16.70	-46.4	-49.3	16.5	0.00e+00	0	43	0	193986560	64	5020
2026-01-11 09:23:42.34	136.39	16.80	-46.4	-49.3	16.6	0.00e+00	0	44	0	196083712	64	5015
2026-01-11 09:23:43.34	136.32	16.92	-46.3	-49.1	16.7	0.00e+00	0	43	0	198180864	64	4892
2026-01-11 09:23:44.33	136.26	17.03	-46.3	-49.0	16.8	0.00e+00	0	44	0	199229440	64	4854
2026-01-11 09:23:45.32	136.19	17.14	-46.1	-48.8	17.1	0.00e+00	0	44	0	201326592	64	4726
2026-01-11 09:23:46.32	136.12	17.25	-46.0	-48.7	17.2	0.00e+00	0	44	0	203423744	64	4655
2026-01-11 09:23:47.31	136.05	17.36	-46.1	-48.7	17.2	0.00e+00	0	43	0	205520896	63	4958
2026-01-11 09:23:48.30	135.98	17.47	-46.1	-48.7	17.2	0.00e+00	0	44	0	206569472	63	4981
2026-01-11 09:23:49.30	135.91	17.58	-46.1	-48.8	17.1	0.00e+00	0	44	0	208666624	63	5014
2026-01-11 09:23:50.29	135.84	17.70	-46.2	-49.0	17.0	0.00e+00	0	44	0	210763776	63	5105
2026-01-11 09:23:51.28	135.76	17.81	-46.2	-49.0	16.9	0.00e+00	0	44	0	212860928	63	5135
2026-01-11 09:23:52.28	135.69	17.92	-46.3	-49.0	16.9	0.00e+00	0	44	0	214958080	63	5148
2026-01-11 09:23:53.27	135.62	18.04	-46.3	-49.1	16.8	0.00e+00	0	43	0	216006656	63	5212
2026-01-11 09:23:54.26	135.54	18.15	-46.2	-48.9	17.0	0.00e+00	0	44	0	218103808	63	5072
2026-01-11 09:23:55.26	135.47	18.27	-46.2	-49.0	17.0	0.00e+00	0	44	0	220200960	63	5106
2026-01-11 09:23:56.25	135.40	18.38	-46.2	-48.9	17.0	0.00e+00	0	43	0	222298112	63	5098
2026-01-11 09:23:57.25	135.32	18.50	-46.2	-48.9	17.0	0.00e+00	0	44	0	223346688	63	5083
2026-01-11 09:23:58.24	135.24	18.62	-46.2	-48.9	17.0	0.00e+00	0	43	0	225443840	63	5091
2026-01-11 09:23:59.23	135.17	18.73	-46.2	-49.0	17.0	0.00e+00	0	44	0	227540992	63	5114
2026-01-11 09:24:00.23	135.09	18.85	-46.2	-48.9	17.1	0.00e+00	0	43	0	229638144	63	5068
2026-01-11 09:24:01.22	135.01	18.97	-46.2	-49.0	17.0	0.00e+00	0	44	0	231735296	63	5102
2026-01-11 09:24:02.21	134.93	19.09	-46.3	-49.0	16.9	0.00e+00	0	44	0	232783872	63	5142
2026-01-11 09:24:03.21	134.85	19.21	-46.3	-49.0	17.0	0.00e+00	0	44	0	234881024	63	5137
2026-01-11 09:24:04.20	134.77	19.33	-46.3	-49.0	17.0	0.00e+00	0	43	0	236978176	63	5127
2026-01-11 09:24:05.20	134.69	19.45	-46.3	-49.0	17.0	0.00e+00	0	43	0	239075328	63	5120
2026-01-11 09:24:06.19	134.61	19.57	-46.2	-49.0	17.0	0.00e+00	0	44	0	240123904	63	5116
2026-01-11 09:24:07.18	134.53	19.69	-46.4	-49.2	16.8	0.00e+00	0	44	0	242221056	63	5225
2026-01-11 09:24:08.18	134.45	19.82	-46.4	-49.2	16.8	0.00e+00	0	44	0	244318208	63	5245
2026-01-11 09:24:09.17	134.37	19.94	-46.5	-49.4	16.6	0.00e+00	0	44	0	246415360	63	5374
2026-01-11 09:24:10.16	134.28	20.06	-46.6	-49.5	16.5	0.00e+00	0	44	0	248512512	63	5458
2026-01-11 09:24:11.16	134.20	20.19	-46.7	-49.6	16.4	0.00e+00	0	44	0	249561088	63	5494
2026-01-11 09:24:12.15	134.11	20.31	-46.6	-49.6	16.3	0.00e+00	0	44	0	251658240	64	5190
2026-01-11 09:24:13.14	134.03	20.43	-46.5	-49.4	16.5	0.00e+00	0	44	0	253755392	64	5066
2026-01-11 09:24:14.14	133.94	20.56	-46.5	-49.4	16.5	0.00e+00	0	44	0	255852544	64	5086
2026-01-11 09:24:15.13	133.85	20.69	-46.5	-49.4	16.5	0.00e+00	0	44	0	257949696	64	5060
2026-01-11 09:24:16.12	133.76	20.81	-46.6	-49.5	16.4	0.00e+00	0	44	0	258998272	64	5130
2026-01-11 09:24:17.12	133.68	20.94	-46.7	-49.7	16.2	0.00e+00	0	44	0	261095424	64	5227
2026-01-11 09:24:18.11	133.59	21.07	-46.8	-49.8	16.1	0.00e+00	0	44	0	263192576	64	5325
2026-01-11 09:24:19.10	133.50	21.19	-46.8	-49.9	16.0	0.00e+00	0	44	0	265289728	64	5372
2026-01-11 09:24:20.10	133.40	21.32	-46.9	-50.0	15.9	0.00e+00	0	44	0	266338304	64	5438
2026-01-11 09:24:21.09	133.31	21.45	-47.0	-50.1	15.9	0.00e+00	0	44	0	268435456	64	5467
2026-01-11 09:24:22.08	133.22	21.58	-46.9	-49.9	16.0	0.00e+00	0	44	0	270532608	64	5371
2026-01-11 09:24:23.08	133.13	21.71	-46.9	-49.8	16.1	0.00e+00	0	44	0	272629760	64	5325
2026-01-11 09:24:24.07	133.03	21.84	-46.9	-49.9	16.0	0.00e+00	0	44	0	274726912	64	5382
2026-01-11 09:24:25.07	132.94	21.98	-46.9	-50.0	15.9	0.00e+00	0	44	0	275775488	64	5408
2026-01-11 09:24:26.06	132.84	22.11	-46.9	-49.9	16.0	0.00e+00	0	44	0	277872640	64	5374
2026-01-11 09:24:27.05	132.74	22.24	-46.8	-49.8	16.1	0.00e+00	0	44	0	279969792	64	5321
2026-01-11 09:24:28.05	132.65	22.38	-46.9	-49.9	16.1	0.00e+00	0	44	0	282066944	64	5360
2026-01-11 09:24:29.04	132.55	22.51	-47.0	-50.1	15.9	0.00e+00	0	44	0	283115520	64	5493
2026-01-11 09:24:30.03	132.45	22.64	-46.9	-49.9	16.0	0.00e+00	0	44	0	285212672	64	5392
2026-01-11 09:24:31.03	132.35	22.78	-46.9	-49.9	16.0	0.00e+00	0	44	0	287309824	64	5387
2026-01-11 09:24:32.02	132.25	22.91	-46.9	-49.9	16.0	0.00e+00	0	44	0	289406976	64	5374
2026-01-11 09:24:33.01	132.15	23.05	-46.9	-49.9	16.0	0.00e+00	0	44	0	291504128	64	5388
2026-01-11 09:24:34.01	132.04	23.19	-47.0	-50.1	15.9	0.00e+00	0	44	0	292552704	64	5466
2026-01-11 09:24:35.00	131.94	23.33	-47.0	-50.1	15.9	0.00e+00	0	44	0	294649856	64	5476
2026-01-11 09:24:35.99	131.83	23.46	-47.2	-50.3	15.7	0.00e+00	0	44	0	296747008	65	5303
2026-01-11 09:24:36.98	131.73	23.60	-47.2	-50.4	15.6	0.00e+00	0	44	0	298844160	65	5344
2026-01-11 09:24:37.98	131.62	23.74	-47.2	-50.3	15.6	0.00e+00	0	44	0	299892736	65	5323
2026-01-11 09:24:38.97	131.51	23.88	-47.3	-50.4	15.5	0.00e+00	0	44	0	301989888	65	5400
2026-01-11 09:24:39.96	131.40	24.02	-47.3	-50.4	15.5	0.00e+00	0	44	0	304087040	65	5399
2026-01-11 09:24:40.96	131.29	24.17	-47.4	-50.6	15.4	0.00e+00	0	44	0	306184192	65	5515
2026-01-11 09:24:41.95	131.18	24.31	-47.4	-50.7	15.3	7.00e-07	0	44	0	307232768	65	5546
2026-01-11 09:24:42.94	131.07	24.45	-47.4	-50.6	15.4	0.00e+00	0	44	0	309329920	65	5506
2026-01-11 09:24:43.94	130.96	24.60	-47.5	-50.8	15.2	0.00e+00	0	44	0	311427072	65	5601
2026-01-11 09:24:44.93	130.84	24.74	-47.5	-50.7	15.3	0.00e+00	0	44	0	313524224	65	5575
2026-01-11 09:24:45.92	130.73	24.88	-47.4	-50.6	15.4	0.00e+00	0	44	0	315621376	65	5490
2026-01-11 09:24:46.92	130.61	25.03	-47.4	-50.6	15.4	0.00e+00	0	44	0	316669952	65	5526
2026-01-11 09:24:47.91	130.50	25.18	-47.4	-50.6	15.4	0.00e+00	0	44	0	318767104	65	5466
2026-01-11 09:24:48.90	130.38	25.32	-47.4	-50.6	15.4	0.00e+00	0	44	0	320864256	65	5512
2026-01-11 09:24:49.90	130.26	25.47	-47.5	-50.7	15.3	0.00e+00	0	44	0	322961408	65	5539
2026-01-11 09:24:50.89	130.14	25.62	-47.6	-50.9	15.1	0.00e+00	0	44	0	324009984	65	5662
2026-01-11 09:24:51.89	130.02	25.77	-47.7	-51.1	15.0	0.00e+00	0	44	0	326107136	66	5468
2026-01-11 09:24:52.88	129.89	25.92	-47.8	-51.3	14.8	0.00e+00	0	44	0	328204288	66	5593
2026-01-11 09:24:53.87	129.77	26.07	-47.8	-51.3	14.7	0.00e+00	0	44	0	330301440	66	5622
2026-01-11 09:24:54.87	129.64	26.22	-47.9	-51.4	14.6	7.00e-07	0	44	0	332398592	66	5680
2026-01-11 09:24:55.86	129.52	26.37	-47.8	-51.3	14.7	0.00e+00	0	44	0	333447168	66	5629
2026-01-11 09:24:56.85	129.39	26.52	-47.8	-51.4	14.6	0.00e+00	0	44	0	335544320	66	5683
2026-01-11 09:24:57.85	129.26	26.68	-47.9	-51.5	14.5	0.00e+00	0	43	0	337641472	66	5771
2026-01-11 09:24:58.84	129.13	26.83	-47.8	-51.4	14.7	1.50e-06	0	44	0	339738624	66	5661
2026-01-11 09:24:59.83	129.00	26.99	-47.7	-51.1	14.9	0.00e+00	0	44	0	340787200	66	5506
2026-01-11 09:25:00.83	128.87	27.14	-47.6	-51.1	14.9	0.00e+00	0	44	0	342884352	66	5467
2026-01-11 09:25:01.82	128.73	27.30	-47.6	-51.0	15.1	0.00e+00	0	44	0	344981504	66	5427
2026-01-11 09:25:02.82	128.60	27.46	-47.7	-51.0	15.0	0.00e+00	0	44	0	347078656	66	5453
2026-01-11 09:25:03.81	128.46	27.61	-47.8	-51.1	14.9	0.00e+00	0	44	0	348127232	66	5527
2026-01-11 09:25:04.80	128.32	27.77	-47.8	-51.3	14.8	0.00e+00	0	44	0	350224384	66	5600
2026-01-11 09:25:05.79	128.18	27.93	-47.8	-51.2	14.8	0.00e+00	0	44	0	352321536	66	5574
2026-01-11 09:25:06.79	128.04	28.09	-47.7	-51.0	15.0	0.00e+00	0	44	0	354418688	66	5462
2026-01-11 09:25:07.78	127.90	28.25	-47.7	-51.0	15.1	0.00e+00	0	44	0	356515840	66	5421
2026-01-11 09:25:08.77	127.75	28.41	-47.7	-50.9	15.1	0.00e+00	0	44	0	357564416	66	5390
2026-01-11 09:25:09.77	127.61	28.57	-47.7	-51.0	15.1	0.00e+00	0	44	0	359661568	66	5425
2026-01-11 09:25:10.76	127.46	28.74	-47.7	-51.0	15.1	0.00e+00	0	44	0	361758720	66	5427
2026-01-11 09:25:11.75	127.31	28.90	-47.6	-50.9	15.2	0.00e+00	0	44	0	363855872	66	5353
2026-01-11 09:25:12.74	127.16	29.06	-47.7	-50.9	15.1	0.00e+00	0	44	0	365953024	66	5380
2026-01-11 09:25:13.74	127.01	29.23	-47.6	-50.9	15.2	7.00e-07	0	44	0	367001600	66	5347
2026-01-11 09:25:14.73	126.86	29.39	-47.6	-50.8	15.2	7.00e-07	0	44	0	369098752	66	5339
2026-01-11 09:25:15.73	126.70	29.56	-47.6	-50.8	15.2	7.00e-07	0	44	0	371195904	66	5325
2026-01-11 09:25:16.72	126.55	29.73	-47.6	-50.9	15.1	0.00e+00	0	44	0	373293056	66	5384
2026-01-11 09:25:17.71	126.39	29.89	-47.7	-51.0	15.1	0.00e+00	0	44	0	374341632	66	5449
2026-01-11 09:25:18.71	126.23	30.06	-47.8	-51.2	14.9	0.00e+00	0	44	0	376438784	66	5563
2026-01-11 09:25:19.70	126.07	30.23	-47.7	-51.1	15.0	0.00e+00	0	44	0	378535936	66	5477
2026-01-11 09:25:20.70	125.90	30.40	-47.8	-51.1	15.0	0.00e+00	0	44	0	380633088	66	5500
2026-01-11 09:25:21.69	125.74	30.57	-47.8	-51.2	14.9	0.00e+00	0	44	0	382730240	66	5545
2026-01-11 09:25:22.68	125.57	30.74	-47.9	-51.4	14.7	0.00e+00	0	44	0	383778816	66	5658
2026-01-11 09:25:23.67	125.40	30.92	-48.1	-51.5	14.5	0.00e+00	0	44	0	385875968	66	5787
2026-01-11 09:25:24.66	125.24	31.09	-48.2	-51.7	14.3	7.00e-07	0	44	0	387973120	66	5915
2026-01-11 09:25:25.66	125.06	31.26	-48.1	-51.6	14.5	7.00e-07	0	44	0	390070272	66	5816
2026-01-11 09:25:26.65	124.89	31.44	-48.0	-51.5	14.6	0.00e+00	0	44	0	391118848	66	5737
2026-01-11 09:25:27.64	124.71	31.61	-48.0	-51.5	14.6	7.00e-07	0	44	0	393216000	66	5751
2026-01-11 09:25:28.64	124.53	31.79	-48.0	-51.4	14.6	0.00e+00	0	44	0	395313152	66	5708
2026-01-11 09:25:29.63	124.35	31.96	-48.2	-51.7	14.4	1.50e-06	0	44	0	397410304	66	5889
2026-01-11 09:25:30.62	124.17	32.14	-48.3	-52.0	14.1	1.50e-06	0	44	0	399507456	67	5743
2026-01-11 09:25:31.62	123.99	32.32	-48.5	-52.2	13.9	5.30e-06	0	44	0	400556032	67	5907
2026-01-11 09:25:32.61	123.80	32.50	-48.5	-52.2	13.9	3.80e-06	0	44	0	402653184	67	5888
2026-01-11 09:25:33.60	123.62	32.68	-48.3	-51.9	14.2	2.20e-06	0	44	0	404750336	67	5676
2026-01-11 09:25:34.60	123.42	32.86	-48.3	-51.9	14.2	1.50e-06	0	44	0	406847488	67	5661
2026-01-11 09:25:35.59	123.23	33.04	-48.4	-52.1	14.0	2.20e-06	0	44	0	407896064	67	5792
2026-01-11 09:25:36.59	123.04	33.22	-48.5	-52.4	13.7	7.00e-07	0	44	0	409993216	67	6012
2026-01-11 09:25:37.58	122.84	33.40	-48.6	-52.6	13.5	1.22e-05	0	44	0	412090368	67	6158
2026-01-11 09:25:38.57	122.64	33.59	-48.9	-53.0	13.2	1.90e-05	0	44	0	414187520	68	6109
2026-01-11 09:25:39.56	122.44	33.77	-48.7	-52.7	13.5	1.90e-05	0	44	0	416284672	68	5894
2026-01-11 09:25:40.56	122.24	33.95	-48.5	-52.4	13.8	5.30e-06	0	44	0	417333248	68	5710
2026-01-11 09:25:41.55	122.03	34.14	-48.5	-52.2	14.1	3.80e-06	0	44	0	419430400	68	5575
2026-01-11 09:25:42.55	121.82	34.33	-48.4	-52.2	14.1	2.20e-06	0	44	0	421527552	68	5564
2026-01-11 09:25:43.54	121.61	34.51	-48.5	-52.3	13.9	1.50e-06	0	44	0	423624704	68	5639
2026-01-11 09:25:44.53	121.40	34.70	-48.6	-52.4	13.8	2.20e-06	0	44	0	424673280	68	5722
2026-01-11 09:25:45.53	121.18	34.89	-48.5	-52.2	14.1	5.30e-06	0	44	0	426770432	68	5545
2026-01-11 09:25:46.52	120.96	35.07	-48.2	-51.8	14.5	0.00e+00	0	44	0	428867584	68	5304
2026-01-11 09:25:47.52	120.74	35.26	-48.3	-51.8	14.5	0.00e+00	0	44	0	430964736	68	5319
2026-01-11 09:25:48.51	120.52	35.45	-48.1	-51.6	14.7	0.00e+00	0	44	0	433061888	68	5178
2026-01-11 09:25:49.50	120.29	35.64	-48.0	-51.4	14.8	0.00e+00	0	44	0	434110464	68	5092
2026-01-11 09:25:50.50	120.06	35.84	-48.0	-51.4	14.8	0.00e+00	0	44	0	436207616	68	5085
2026-01-11 09:25:51.49	119.83	36.03	-47.8	-51.1	15.0	0.00e+00	0	44	0	438304768	67	5185
2026-01-11 09:25:52.49	119.60	36.22	-47.7	-51.0	15.1	0.00e+00	0	44	0	440401920	67	5129
2026-01-11 09:25:53.48	119.36	36.41	-47.8	-51.1	15.0	7.00e-07	0	44	0	441450496	67	5197
2026-01-11 09:25:54.47	119.12	36.61	-47.9	-51.3	14.8	0.00e+00	0	44	0	443547648	67	5310
2026-01-11 09:25:55.47	118.88	36.80	-47.8	-51.2	15.0	1.50e-06	0	44	0	445644800	67	5219
2026-01-11 09:25:56.46	118.63	36.99	-47.9	-51.3	14.8	0.00e+00	0	44	0	447741952	67	5306
2026-01-11 09:25:57.45	118.39	37.19	-47.9	-51.3	14.9	0.00e+00	0	44	0	448790528	67	5317
2026-01-11 09:25:58.45	118.13	37.39	-47.9	-51.3	14.8	0.00e+00	0	44	0	450887680	67	5327
2026-01-11 09:25:59.44	117.88	37.58	-48.0	-51.4	14.7	0.00e+00	0	44	0	452984832	67	5390
2026-01-11 09:26:00.43	117.62	37.78	-47.9	-51.4	14.7	0.00e+00	0	44	0	455081984	67	5344
2026-01-11 09:26:01.43	117.36	37.97	-47.9	-51.3	14.8	0.00e+00	0	44	0	457179136	67	5320
2026-01-11 09:26:02.42	117.10	38.17	-48.0	-51.5	14.7	0.00e+00	0	44	0	458227712	67	5405
2026-01-11 09:26:03.41	116.83	38.37	-48.0	-51.4	14.7	0.00e+00	0	44	0	460324864	67	5388
2026-01-11 09:26:04.41	116.56	38.57	-48.0	-51.5	14.6	7.00e-07	0	44	0	462422016	67	5412
2026-01-11 09:26:05.40	116.29	38.77	-48.1	-51.7	14.4	7.00e-07	0	44	0	464519168	67	5569
2026-01-11 09:26:06.39	116.01	38.96	-48.2	-52.0	14.1	7.00e-07	0	44	0	465567744	67	5769
2026-01-11 09:26:07.39	115.73	39.17	-48.2	-51.9	14.2	0.00e+00	0	44	0	467664896	67	5670
2026-01-11 09:26:08.38	115.44	39.37	-48.3	-52.0	14.1	7.00e-07	0	44	0	469762048	67	5784
2026-01-11 09:26:09.37	115.16	39.56	-48.2	-51.9	14.2	0.00e+00	0	44	0	471859200	67	5702
2026-01-11 09:26:10.37	114.86	39.77	-48.2	-51.8	14.3	0.00e+00	0	44	0	473956352	67	5606
2026-01-11 09:26:11.36	114.57	39.97	-48.2	-51.7	14.4	1.50e-06	0	44	0	475004928	67	5574
2026-01-11 09:26:12.35	114.27	40.17	-48.3	-51.9	14.2	7.00e-07	0	44	0	477102080	67	5686
2026-01-11 09:26:13.35	113.97	40.37	-48.3	-51.8	14.2	0.00e+00	0	44	0	479199232	67	5656
2026-01-11 09:26:14.34	113.66	40.57	-48.2	-51.7	14.4	7.00e-07	0	44	0	481296384	67	5530
2026-01-11 09:26:15.34	113.35	40.77	-48.1	-51.5	14.6	0.00e+00	0	44	0	482344960	67	5434
2026-01-11 09:26:16.33	113.04	40.97	-48.0	-51.5	14.7	0.00e+00	0	44	0	484442112	67	5405
2026-01-11 09:26:17.32	112.72	41.18	-48.0	-51.4	14.8	0.00e+00	0	44	0	486539264	67	5357
2026-01-11 09:26:18.32	112.39	41.38	-47.9	-51.3	14.8	0.00e+00	0	44	0	488636416	67	5298
2026-01-11 09:26:19.31	112.07	41.58	-48.0	-51.3	14.8	0.00e+00	0	44	0	490733568	67	5316
2026-01-11 09:26:20.30	111.74	41.78	-48.0	-51.3	14.9	0.00e+00	0	44	0	491782144	67	5302
2026-01-11 09:26:21.30	111.40	41.99	-48.4	-51.9	14.2	7.00e-07	0	44	0	493879296	67	5721
2026-01-11 09:26:22.29	111.07	42.19	-48.9	-52.8	13.6	6.10e-06	0	44	0	495976448	68	5924
2026-01-11 09:26:23.28	110.72	42.39	-49.1	-53.1	13.3	1.14e-05	0	44	0	498073600	68	6145
2026-01-11 09:26:24.28	110.37	42.59	-49.0	-53.0	13.2	2.05e-05	0	44	0	499122176	68	6118
2026-01-11 09:26:25.27	110.02	42.79	-49.2	-53.3	13.0	3.28e-05	0	44	0	501219328	69	5931
2026-01-11 09:26:26.26	109.67	43.00	-49.2	-53.2	13.1	5.18e-05	0	44	0	503316480	69	5915
2026-01-11 09:26:27.26	109.31	43.20	-48.9	-52.9	13.4	3.20e-05	0	44	0	505413632	69	5665
2026-01-11 09:26:28.25	108.94	43.40	-48.8	-52.6	13.7	3.80e-06	0	44	0	507510784	69	5522
2026-01-11 09:26:29.24	108.57	43.60	-48.5	-52.1	14.1	7.00e-07	0	44	0	508559360	69	5206
2026-01-11 09:26:30.24	108.19	43.80	-48.3	-51.8	14.5	7.00e-07	0	44	0	510656512	68	5339
2026-01-11 09:26:31.23	107.82	44.00	-48.4	-52.0	14.3	7.00e-07	0	44	0	512753664	68	5447
2026-01-11 09:26:32.22	107.43	44.20	-48.6	-52.2	14.1	1.50e-06	0	44	0	514850816	68	5592
2026-01-11 09:26:33.22	107.04	44.40	-48.7	-52.5	13.8	2.20e-06	0	44	0	515899392	68	5736
2026-01-11 09:26:34.21	106.65	44.60	-48.8	-52.6	13.8	2.20e-06	0	44	0	517996544	68	5798
2026-01-11 09:26:35.20	106.25	44.80	-48.7	-52.4	13.9	4.50e-06	0	44	0	520093696	68	5717
2026-01-11 09:26:36.20	105.84	45.00	-48.6	-52.3	14.0	2.20e-06	0	44	0	522190848	68	5645
2026-01-11 09:26:37.19	105.44	45.20	-49.0	-53.1	13.2	7.60e-06	0	44	0	524288000	68	6148
2026-01-11 09:26:38.18	105.02	45.39	-49.3	-53.7	12.6	4.11e-05	0	44	0	525336576	69	6224
2026-01-11 09:26:39.18	104.60	45.59	-49.2	-53.5	12.8	6.79e-05	0	44	0	527433728	69	6090
2026-01-11 09:26:40.17	104.18	45.78	-48.9	-53.0	13.4	3.35e-05	0	44	0	529530880	69	5748
2026-01-11 09:26:41.16	103.75	45.98	-48.6	-52.4	13.9	6.10e-06	0	44	0	531628032	69	5397
2026-01-11 09:26:42.16	103.31	46.17	-48.5	-52.2	14.2	3.00e-06	0	44	0	532676608	68	5548
2026-01-11 09:26:43.15	102.87	46.36	-48.2	-51.7	14.6	7.00e-07	0	44	0	534773760	68	5273
2026-01-11 09:26:44.15	102.42	46.56	-48.3	-51.8	14.6	0.00e+00	0	44	0	536870912	68	5340
2026-01-11 09:26:45.14	101.97	46.75	-48.1	-51.5	14.8	0.00e+00	0	44	0	538968064	68	5123
2026-01-11 09:26:46.13	101.52	46.94	-47.8	-51.0	15.1	0.00e+00	0	44	0	541065216	67	5154
2026-01-11 09:26:47.13	101.05	47.12	-47.7	-51.0	15.2	0.00e+00	0	44	0	542113792	67	5101
2026-01-11 09:26:48.12	100.58	47.31	-47.7	-50.9	15.3	0.00e+00	0	44	0	544210944	67	5073
2026-01-11 09:26:49.11	100.11	47.50	-47.9	-51.2	15.0	0.00e+00	0	44	0	546308096	67	5243
2026-01-11 09:26:50.11	99.63	47.68	-48.1	-51.5	14.8	1.50e-06	0	44	0	548405248	67	5417
2026-01-11 09:26:51.10	99.15	47.86	-48.1	-51.7	14.5	7.00e-07	0	44	0	549453824	67	5529
2026-01-11 09:26:52.09	98.66	48.04	-47.9	-51.2	14.9	7.00e-07	0	44	0	551550976	67	5255
2026-01-11 09:26:53.09	98.16	48.23	-47.6	-50.9	15.2	0.00e+00	0	44	0	553648128	67	5063
2026-01-11 09:26:54.08	97.65	48.40	-47.5	-50.7	15.5	0.00e+00	0	44	0	555745280	66	5254
2026-01-11 09:26:55.08	97.14	48.58	-47.5	-50.7	15.4	0.00e+00	0	44	0	557842432	66	5254
2026-01-11 09:26:56.07	96.63	48.75	-47.6	-50.9	15.3	0.00e+00	0	44	0	558891008	66	5379
2026-01-11 09:26:57.07	96.11	48.93	-47.7	-50.9	15.3	0.00e+00	0	44	0	560988160	66	5393
2026-01-11 09:26:58.06	95.58	49.10	-47.7	-50.9	15.2	0.00e+00	0	44	0	563085312	66	5397
2026-01-11 09:26:59.05	95.05	49.27	-47.9	-51.2	15.0	0.00e+00	0	44	0	565182464	66	5566
2026-01-11 09:27:00.05	94.51	49.44	-48.2	-51.8	14.4	0.00e+00	0	44	0	566231040	67	5639
2026-01-11 09:27:01.04	93.97	49.60	-48.3	-52.1	14.1	7.00e-07	0	44	0	568328192	67	5793
2026-01-11 09:27:02.03	93.42	49.76	-48.4	-52.3	13.8	3.80e-06	0	44	0	570425344	67	5988
2026-01-11 09:27:03.03	92.86	49.92	-48.2	-51.9	14.3	7.00e-07	0	44	0	572522496	67	5657
2026-01-11 09:27:04.02	92.30	50.08	-48.1	-51.7	14.5	1.50e-06	0	44	0	574619648	67	5529
2026-01-11 09:27:05.02	91.73	50.24	-48.2	-51.7	14.5	0.00e+00	0	44	0	575668224	67	5572
2026-01-11 09:27:06.01	91.16	50.39	-48.1	-51.7	14.4	0.00e+00	0	44	0	577765376	67	5576
2026-01-11 09:27:07.00	90.58	50.54	-48.1	-51.6	14.6	1.50e-06	0	44	0	579862528	67	5519
2026-01-11 09:27:08.00	89.99	50.69	-48.0	-51.5	14.7	0.00e+00	0	44	0	581959680	67	5448
2026-01-11 09:27:08.99	89.41	50.83	-47.9	-51.3	14.8	0.00e+00	0	44	0	583008256	67	5301
2026-01-11 09:27:09.98	88.81	50.97	-47.9	-51.4	14.8	0.00e+00	0	44	0	585105408	67	5352
2026-01-11 09:27:10.98	88.21	51.12	-47.6	-50.9	15.3	0.00e+00	0	44	0	587202560	67	5050
2026-01-11 09:27:11.97	87.60	51.25	-47.7	-51.0	15.2	1.50e-06	0	44	0	589299712	67	5133
2026-01-11 09:27:12.97	86.98	51.39	-48.0	-51.5	14.8	0.00e+00	0	44	0	591396864	67	5412
2026-01-11 09:27:13.96	86.37	51.52	-47.8	-51.3	14.8	0.00e+00	0	44	0	592445440	67	5322
2026-01-11 09:27:14.95	85.75	51.64	-47.7	-51.1	15.2	0.00e+00	0	44	0	594542592	67	5167
2026-01-11 09:27:15.95	85.11	51.77	-47.3	-50.6	15.6	0.00e+00	0	44	0	596639744	66	5190
2026-01-11 09:27:16.94	84.48	51.89	-47.0	-50.1	16.1	0.00e+00	0	44	0	598736896	66	4872
2026-01-11 09:27:17.93	83.84	52.00	-46.6	-49.5	16.6	0.00e+00	0	44	0	599785472	65	4843
2026-01-11 09:27:18.93	83.20	52.12	-46.7	-49.6	16.5	0.00e+00	0	44	0	601882624	65	4922
2026-01-11 09:27:19.92	82.55	52.23	-46.9	-49.9	16.3	0.00e+00	0	44	0	603979776	65	5044
2026-01-11 09:27:20.91	81.90	52.33	-46.9	-49.9	16.3	0.00e+00	0	44	0	606076928	65	5045
2026-01-11 09:27:21.91	81.24	52.44	-46.5	-49.3	16.9	0.00e+00	0	44	0	607125504	64	5012
2026-01-11 09:27:22.90	80.58	52.54	-46.1	-48.7	17.5	0.00e+00	0	44	0	609222656	63	4946
2026-01-11 09:27:23.89	79.91	52.63	-45.3	-47.7	18.4	0.00e+00	0	44	0	611319808	62	4695
2026-01-11 09:27:24.88	79.24	52.72	-45.1	-47.4	18.7	0.00e+00	0	44	0	613416960	62	4538
2026-01-11 09:27:25.88	78.56	52.81	-44.8	-47.1	19.0	0.00e+00	0	44	0	615514112	61	4630
2026-01-11 09:27:26.87	77.88	52.89	-44.7	-47.0	19.1	0.00e+00	0	44	0	616562688	61	4563
2026-01-11 09:27:27.86	77.20	52.97	-44.8	-47.0	19.0	0.00e+00	0	44	0	618659840	61	4590
2026-01-11 09:27:28.86	76.51	53.05	-44.5	-46.7	19.4	0.00e+00	0	44	0	620756992	60	4664
2026-01-11 09:27:29.85	75.82	53.12	-44.1	-46.3	19.7	0.00e+00	0	44	0	622854144	60	4459
2026-01-11 09:27:30.84	75.13	53.19	-44.2	-46.4	19.6	0.00e+00	0	44	0	623902720	60	4497
2026-01-11 09:27:31.84	74.43	53.25	-44.2	-46.4	19.6	0.00e+00	0	44	0	625999872	60	4497
2026-01-11 09:27:32.83	73.73	53.31	-43.8	-46.0	20.0	0.00e+00	0	44	0	628097024	59	4549
2026-01-11 09:27:33.83	73.03	53.36	-43.6	-45.7	20.2	0.00e+00	0	44	0	630194176	59	4393
2026-01-11 09:27:34.82	72.32	53.41	-43.8	-45.9	20.0	0.00e+00	0	44	0	632291328	59	4521
2026-01-11 09:27:35.82	71.61	53.46	-44.1	-46.3	19.7	0.00e+00	0	44	0	633339904	59	4713
2026-01-11 09:27:36.81	70.90	53.50	-44.0	-46.2	19.7	0.00e+00	0	44	0	635437056	59	4673
2026-01-11 09:27:37.80	70.20	53.54	-43.9	-46.0	19.8	0.00e+00	0	44	0	637534208	59	4591
2026-01-11 09:27:38.80	69.48	53.57	-44.1	-46.2	19.7	0.00e+00	0	44	0	639631360	59	4679
2026-01-11 09:27:39.79	68.77	53.60	-44.1	-46.2	19.7	0.00e+00	0	44	0	640679936	59	4705
2026-01-11 09:27:40.78	68.05	53.62	-44.1	-46.2	19.7	0.00e+00	0	44	0	642777088	59	4704
2026-01-11 09:27:41.77	67.34	53.64	-44.3	-46.5	19.5	0.00e+00	0	44	0	644874240	59	4842
2026-01-11 09:27:42.77	66.62	53.65	-44.5	-46.7	19.3	0.00e+00	0	44	0	646971392	59	4942
2026-01-11 09:27:43.76	65.90	53.66	-44.5	-46.8	19.3	0.00e+00	0	44	0	649068544	59	4984
2026-01-11 09:27:44.75	65.19	53.67	-44.6	-46.8	19.2	0.00e+00	0	44	0	650117120	59	4998
2026-01-11 09:27:45.75	64.46	53.67	-44.7	-47.0	19.1	0.00e+00	0	44	0	652214272	60	4838
2026-01-11 09:27:46.74	63.75	53.66	-44.8	-47.0	19.0	0.00e+00	0	44	0	654311424	60	4866
2026-01-11 09:27:47.73	63.03	53.66	-44.6	-46.9	19.2	0.00e+00	0	44	0	656408576	60	4779
2026-01-11 09:27:48.73	62.31	53.64	-44.7	-46.9	19.2	0.00e+00	0	44	0	657457152	60	4790
2026-01-11 09:27:49.72	61.59	53.62	-44.6	-46.9	19.2	0.00e+00	0	44	0	659554304	60	4764
2026-01-11 09:27:50.71	60.88	53.60	-44.5	-46.7	19.4	0.00e+00	0	44	0	661651456	60	4652
2026-01-11 09:27:51.71	60.16	53.57	-44.6	-46.8	19.2	0.00e+00	0	44	0	663748608	60	4746
2026-01-11 09:27:52.70	59.45	53.54	-44.5	-46.7	19.4	0.00e+00	0	44	0	665845760	60	4699
2026-01-11 09:27:53.69	58.74	53.51	-44.3	-46.5	19.5	0.00e+00	0	44	0	666894336	60	4574
2026-01-11 09:27:54.68	58.04	53.47	-44.2	-46.4	19.7	0.00e+00	0	44	0	668991488	60	4502
2026-01-11 09:27:55.68	57.32	53.42	-44.1	-46.3	19.8	0.00e+00	0	44	0	671088640	60	4449
2026-01-11 09:27:56.67	56.62	53.37	-44.1	-46.3	19.7	0.00e+00	0	44	0	673185792	60	4448
2026-01-11 09:27:57.66	55.92	53.32	-44.0	-46.1	19.9	0.00e+00	0	44	0	674234368	60	4364
2026-01-11 09:27:58.66	55.22	53.26	-44.2	-46.3	19.7	0.00e+00	0	44	0	676331520	60	4474
2026-01-11 09:27:59.65	54.52	53.20	-44.1	-46.2	19.8	0.00e+00	0	44	0	678428672	60	4441
2026-01-11 09:28:00.64	53.83	53.13	-44.0	-46.1	19.9	0.00e+00	0	44	0	680525824	60	4389
2026-01-11 09:28:01.64	53.14	53.06	-44.1	-46.2	19.8	0.00e+00	0	44	0	682622976	60	4440
2026-01-11 09:28:02.63	52.45	52.99	-44.0	-46.1	19.9	0.00e+00	0	44	0	683671552	59	4605
2026-01-11 09:28:03.62	51.77	52.91	-43.9	-46.0	19.9	0.00e+00	0	44	0	685768704	59	4578
2026-01-11 09:28:04.62	51.09	52.83	-44.0	-46.1	19.9	0.00e+00	0	44	0	687865856	59	4625
2026-01-11 09:28:05.61	50.41	52.74	-44.2	-46.4	19.6	0.00e+00	0	44	0	689963008	59	4770
2026-01-11 09:28:06.60	49.74	52.65	-44.6	-46.8	19.2	0.00e+00	0	44	0	691011584	59	4994
2026-01-11 09:28:07.60	49.07	52.56	-44.9	-47.1	19.0	0.00e+00	0	44	0	693108736	60	4924
2026-01-11 09:28:08.59	48.41	52.46	-45.0	-47.3	18.8	0.00e+00	0	44	0	695205888	60	5025
2026-01-11 09:28:09.59	47.75	52.35	-45.2	-47.5	18.6	0.00e+00	0	44	0	697303040	61	4869
2026-01-11 09:28:10.58	47.10	52.25	-45.2	-47.6	18.5	0.00e+00	0	44	0	699400192	61	4893
2026-01-11 09:28:11.58	46.44	52.14	-45.5	-47.9	18.2	0.00e+00	0	44	0	700448768	61	5100
2026-01-11 09:28:12.57	45.80	52.03	-46.0	-48.6	17.7	0.00e+00	0	44	0	702545920	62	5167
2026-01-11 09:28:13.56	45.17	51.91	-46.3	-48.9	17.3	0.00e+00	0	44	0	704643072	63	5069
2026-01-11 09:28:14.56	44.53	51.79	-46.6	-49.4	16.9	0.00e+00	0	44	0	706740224	63	5350
2026-01-11 09:28:15.55	43.90	51.67	-46.7	-49.5	16.7	0.00e+00	0	44	0	707788800	64	5139
2026-01-11 09:28:16.54	43.28	51.54	-46.7	-49.5	16.7	0.00e+00	0	44	0	709885952	64	5112
2026-01-11 09:28:17.53	42.66	51.41	-46.7	-49.5	16.7	0.00e+00	0	44	0	711983104	64	5140
2026-01-11 09:28:18.53	42.05	51.28	-46.8	-49.7	16.5	0.00e+00	0	44	0	714080256	64	5247
2026-01-11 09:28:19.52	41.44	51.14	-47.0	-50.0	16.2	0.00e+00	0	44	0	716177408	64	5412
2026-01-11 09:28:20.51	40.84	51.01	-47.2	-50.1	16.1	0.00e+00	0	44	0	717225984	65	5208
2026-01-11 09:28:21.51	40.24	50.86	-47.2	-50.2	16.0	0.00e+00	0	44	0	719323136	65	5238
2026-01-11 09:28:22.50	39.65	50.72	-47.3	-50.3	15.9	0.00e+00	0	44	0	721420288	65	5295
2026-01-11 09:28:23.49	39.07	50.57	-47.1	-50.0	16.2	0.00e+00	0	44	0	723517440	65	5144
2026-01-11 09:28:24.49	38.49	50.42	-47.1	-50.1	16.1	0.00e+00	0	44	0	724566016	65	5170
2026-01-11 09:28:25.48	37.92	50.27	-47.2	-50.3	16.0	0.00e+00	0	44	0	726663168	65	5293
2026-01-11 09:28:26.48	37.35	50.12	-47.2	-50.2	16.0	0.00e+00	0	44	0	728760320	65	5271
2026-01-11 09:28:27.47	36.79	49.96	-47.2	-50.2	16.1	0.00e+00	0	44	0	730857472	65	5232
2026-01-11 09:28:28.46	36.23	49.80	-47.4	-50.6	15.7	0.00e+00	0	44	0	732954624	65	5478
2026-01-11 09:28:29.46	35.68	49.64	-47.5	-50.7	15.5	0.00e+00	0	44	0	734003200	65	5544
2026-01-11 09:28:30.45	35.14	49.47	-47.6	-50.7	15.5	0.00e+00	0	44	0	736100352	65	5580
2026-01-11 09:28:31.44	34.60	49.31	-47.5	-50.6	15.6	7.00e-07	0	44	0	738197504	65	5498
2026-01-11 09:28:32.44	34.07	49.14	-47.4	-50.5	15.6	0.00e+00	0	44	0	740294656	65	5450
2026-01-11 09:28:33.43	33.54	48.97	-47.5	-50.6	15.6	0.00e+00	0	44	0	741343232	65	5520
2026-01-11 09:28:34.42	33.02	48.80	-47.6	-50.8	15.3	0.00e+00	0	44	0	743440384	65	5651
2026-01-11 09:28:35.42	32.51	48.62	-47.9	-51.3	14.9	0.00e+00	0	44	0	745537536	66	5639
2026-01-11 09:28:36.41	32.00	48.45	-48.3	-52.1	14.2	0.00e+00	0	44	0	747634688	67	5817
2026-01-11 09:28:37.40	31.50	48.27	-48.6	-52.5	13.7	7.00e-07	0	44	0	748683264	67	6108
2026-01-11 09:28:38.40	31.00	48.09	-48.6	-52.6	13.6	4.50e-06	0	44	0	750780416	67	6139
2026-01-11 09:28:39.39	30.51	47.91	-48.6	-52.6	13.6	9.10e-06	0	44	0	752877568	67	6144
2026-01-11 09:28:40.39	30.02	47.73	-49.1	-53.4	13.0	9.10e-06	0	44	0	754974720	68	6353
2026-01-11 09:28:41.38	29.54	47.55	-49.4	-53.8	12.5	7.09e-05	0	44	0	757071872	69	6312
2026-01-11 09:28:42.37	29.07	47.36	-49.6	-54.2	12.1	1.62e-04	0	44	0	758120448	69	6633
2026-01-11 09:28:43.37	28.60	47.18	-49.7	-54.4	12.0	3.00e-04	0	44	0	760217600	70	6381
2026-01-11 09:28:44.36	28.14	46.99	-49.9	-54.7	11.6	4.65e-04	0	44	0	762314752	70	6629
2026-01-11 09:28:45.35	27.68	46.80	-49.7	-54.3	12.0	5.77e-04	0	44	0	764411904	70	6334
2026-01-11 09:28:46.35	27.23	46.61	-49.6	-54.0	12.3	2.40e-04	0	44	0	765460480	70	6094
2026-01-11 09:28:47.34	26.78	46.42	-49.5	-53.9	12.4	1.11e-04	0	44	0	767557632	70	6050
2026-01-11 09:28:48.34	26.34	46.23	-49.7	-54.4	12.0	1.98e-04	0	44	0	769654784	70	6381
2026-01-11 09:28:49.33	25.91	46.04	-49.7	-54.3	12.0	2.68e-04	0	44	0	771751936	70	6317
2026-01-11 09:28:50.32	25.48	45.84	-49.6	-54.1	12.2	2.04e-04	0	44	0	773849088	70	6173
2026-01-11 09:28:51.32	25.05	45.65	-49.4	-53.7	12.7	8.46e-05	0	44	0	774897664	70	5915
2026-01-11 09:28:52.31	24.63	45.45	-49.1	-53.1	13.2	3.66e-05	0	44	0	776994816	70	5512
2026-01-11 09:28:53.30	24.22	45.26	-49.2	-53.3	13.1	2.05e-05	0	44	0	779091968	70	5601
2026-01-11 09:28:54.29	23.81	45.06	-49.2	-53.4	13.0	3.89e-05	0	44	0	781189120	70	5680
2026-01-11 09:28:55.29	23.40	44.86	-49.0	-53.1	13.2	3.58e-05	0	44	0	782237696	70	5516
2026-01-11 09:28:56.28	23.01	44.67	-48.8	-52.8	13.6	1.06e-05	0	44	0	784334848	69	5610
2026-01-11 09:28:57.27	22.61	44.47	-48.6	-52.3	14.1	5.30e-06	0	44	0	786432000	69	5283
2026-01-11 09:28:58.26	22.23	44.27	-48.6	-52.3	14.2	2.20e-06	0	44	0	788529152	68	5603
2026-01-11 09:28:59.26	21.84	44.07	-48.6	-52.3	14.1	2.20e-06	0	44	0	790626304	68	5625
2026-01-11 09:29:00.25	21.46	43.87	-48.6	-52.3	14.1	5.30e-06	0	44	0	791674880	68	5617
2026-01-11 09:29:01.25	21.08	43.67	-48.8	-52.6	13.9	2.20e-06	0	44	0	793772032	68	5789
2026-01-11 09:29:02.24	20.72	43.47	-48.8	-52.6	13.7	3.00e-06	0	44	0	795869184	68	5851
2026-01-11 09:29:03.23	20.35	43.27	-48.8	-52.6	13.8	2.20e-06	0	44	0	797966336	68	5804
2026-01-11 09:29:04.23	19.99	43.07	-48.5	-52.2	14.2	5.30e-06	0	44	0	799014912	68	5535
2026-01-11 09:29:05.22	19.63	42.87	-48.3	-51.8	14.5	0.00e+00	0	44	0	801112064	68	5327
2026-01-11 09:29:06.21	19.28	42.67	-48.4	-51.9	14.4	1.50e-06	0	44	0	803209216	68	5386
2026-01-11 09:29:07.21	18.93	42.46	-48.6	-52.3	14.1	2.20e-06	0	44	0	805306368	68	5597
2026-01-11 09:29:08.20	18.59	42.26	-48.6	-52.3	14.1	7.00e-07	0	44	0	807403520	68	5620
2026-01-11 09:29:09.19	18.25	42.06	-48.9	-52.8	13.6	7.00e-07	0	44	0	808452096	68	5968
2026-01-11 09:29:10.19	17.92	41.86	-49.2	-53.3	13.0	1.90e-05	0	44	0	810549248	69	5948
2026-01-11 09:29:11.18	17.59	41.66	-49.3	-53.6	12.8	5.26e-05	0	44	0	812646400	69	6136
2026-01-11 09:29:12.17	17.26	41.46	-49.2	-53.4	12.9	4.57e-05	0	44	0	814743552	69	6031
2026-01-11 09:29:13.17	16.94	41.26	-49.2	-53.3	13.0	5.18e-05	0	44	0	815792128	69	5970
2026-01-11 09:29:14.16	16.62	41.06	-49.2	-53.4	12.9	2.67e-05	0	44	0	817889280	69	6025
2026-01-11 09:29:15.15	16.31	40.86	-49.3	-53.7	12.7	5.26e-05	0	44	0	819986432	69	6203
2026-01-11 09:29:16.15	16.00	40.65	-49.3	-53.5	12.8	6.40e-05	0	44	0	822083584	69	6127
2026-01-11 09:29:17.14	15.69	40.45	-49.3	-53.6	12.7	6.33e-05	0	44	0	824180736	69	6202
2026-01-11 09:29:18.13	15.39	40.25	-49.1	-53.5	12.8	6.33e-05	0	44	0	825229312	69	6092
2026-01-11 09:29:19.13	15.09	40.05	-49.0	-53.4	13.0	4.42e-05	0	44	0	827326464	69	6015
2026-01-11 09:29:20.12	14.80	39.85	-48.9	-53.2	13.1	3.73e-05	0	44	0	829423616	69	5914
2026-01-11 09:29:21.11	14.51	39.65	-48.9	-53.3	13.1	5.03e-05	0	44	0	831520768	69	5959
2026-01-11 09:29:22.11	14.22	39.45	-49.1	-53.5	12.9	5.03e-05	0	44	0	832569344	69	6076
2026-01-11 09:29:23.10	13.93	39.25	-49.1	-53.5	12.9	5.41e-05	0	44	0	834666496	69	6092
2026-01-11 09:29:24.09	13.66	39.06	-49.4	-53.9	12.5	6.86e-05	0	44	0	836763648	69	6362
2026-01-11 09:29:25.08	13.38	38.86	-49.3	-53.6	12.7	1.03e-04	0	44	0	838860800	69	6173
2026-01-11 09:29:26.08	13.10	38.66	-49.2	-53.4	13.0	5.41e-05	0	44	0	840957952	69	6027
2026-01-11 09:29:27.07	12.83	38.46	-49.0	-52.9	13.4	1.29e-05	0	44	0	842006528	69	5713
2026-01-11 09:29:28.06	12.57	38.27	-48.9	-52.8	13.6	1.14e-05	0	44	0	844103680	69	5649
2026-01-11 09:29:29.06	12.30	38.07	-49.2	-53.4	13.0	2.44e-05	0	44	0	846200832	69	6002
2026-01-11 09:29:30.05	12.04	37.87	-49.3	-53.5	12.9	3.58e-05	0	44	0	848297984	69	6075
2026-01-11 09:29:31.04	11.79	37.68	-49.1	-53.3	13.1	4.04e-05	0	44	0	849346560	69	5949
2026-01-11 09:29:32.04	11.53	37.48	-49.1	-53.3	13.1	2.13e-05	0	44	0	851443712	69	5939
2026-01-11 09:29:33.03	11.28	37.29	-49.2	-53.5	12.8	4.65e-05	0	44	0	853540864	69	6095
2026-01-11 09:29:34.02	11.03	37.09	-49.1	-53.3	13.1	3.43e-05	0	44	0	855638016	69	5948
2026-01-11 09:29:35.02	10.78	36.90	-49.1	-53.3	13.0	5.26e-05	0	44	0	857735168	69	5968
2026-01-11 09:29:36.01	10.54	36.71	-49.0	-53.2	13.2	2.74e-05	0	44	0	858783744	69	5857
2026-01-11 09:29:37.00	10.30	36.51	-48.9	-52.9	13.5	2.82e-05	0	44	0	860880896	69	5665
2026-01-11 09:29:38.00	10.07	36.32	-48.7	-52.6	13.8	4.50e-06	0	44	0	862978048	69	5479
2026-01-11 09:29:38.99	9.83	36.13	-48.7	-52.5	13.8	3.80e-06	0	44	0	865075200	69	5429
2026-01-11 09:29:39.98	9.60	35.94	-48.7	-52.5	13.9	3.80e-06	0	44	0	866123776	69	5414
2026-01-11 09:29:40.98	9.37	35.75	-48.7	-52.5	13.9	3.00e-06	0	44	0	868220928	69	5438
2026-01-11 09:29:41.97	9.15	35.56	-48.5	-52.2	14.1	3.80e-06	0	44	0	870318080	69	5227
2026-01-11 09:29:42.96	8.93	35.37	-48.4	-52.1	14.3	7.00e-07	0	44	0	872415232	68	5494
2026-01-11 09:29:43.96	8.70	35.18	-48.3	-52.0	14.3	7.00e-07	0	44	0	873463808	68	5448
2026-01-11 09:29:44.95	8.49	34.99	-48.5	-52.2	14.2	1.50e-06	0	44	0	875560960	68	5581
2026-01-11 09:29:45.94	8.27	34.81	-48.4	-52.1	14.2	0.00e+00	0	44	0	877658112	68	5517
2026-01-11 09:29:46.94	8.06	34.62	-48.6	-52.5	13.9	7.00e-07	0	44	0	879755264	68	5744
2026-01-11 09:29:47.93	7.85	34.43	-48.6	-52.5	13.9	2.20e-06	0	44	0	881852416	68	5742
2026-01-11 09:29:48.93	7.64	34.25	-48.7	-52.6	13.8	6.10e-06	0	44	0	882900992	68	5798
2026-01-11 09:29:49.92	7.43	34.06	-48.8	-52.8	13.6	6.80e-06	0	44	0	884998144	68	5926
2026-01-11 09:29:50.91	7.23	33.88	-48.9	-53.0	13.4	6.80e-06	0	44	0	887095296	68	6103
2026-01-11 09:29:51.91	7.03	33.70	-48.9	-52.9	13.5	1.60e-05	0	44	0	889192448	68	6049
2026-01-11 09:29:52.90	6.83	33.52	-48.8	-52.7	13.6	7.60e-06	0	44	0	890241024	68	5918
2026-01-11 09:29:53.89	6.63	33.33	-48.8	-52.7	13.6	3.00e-06	0	44	0	892338176	68	5914
2026-01-11 09:29:54.89	6.44	33.15	-49.0	-53.1	13.3	1.22e-05	0	44	0	894435328	68	6199
2026-01-11 09:29:55.88	6.25	32.97	-49.0	-53.2	13.2	2.89e-05	0	44	0	896532480	68	6207
2026-01-11 09:29:56.87	6.06	32.79	-49.1	-53.2	13.2	1.60e-05	0	44	0	898629632	68	6211
2026-01-11 09:29:57.87	5.87	32.61	-49.1	-53.3	13.1	2.36e-05	0	44	0	899678208	68	6297
2026-01-11 09:29:58.86	5.68	32.44	-49.1	-53.2	13.2	2.05e-05	0	44	0	901775360	68	6233
2026-01-11 09:29:59.85	5.50	32.26	-49.2	-53.3	13.0	3.58e-05	0	44	0	903872512	69	5950
2026-01-11 09:30:00.85	5.32	32.08	-49.1	-53.2	13.1	4.11e-05	0	44	0	905969664	69	5922
2026-01-11 09:30:01.84	5.14	31.91	-49.1	-53.1	13.2	2.44e-05	0	44	0	907018240	69	5852
2026-01-11 09:30:02.84	4.96	31.73	-49.0	-53.1	13.3	1.67e-05	0	44	0	909115392	69	5803
2026-01-11 09:30:03.83	4.79	31.56	-49.0	-53.1	13.2	2.44e-05	0	44	0	911212544	69	5802
2026-01-11 09:30:04.83	4.61	31.38	-49.0	-53.0	13.3	1.37e-05	0	44	0	913309696	69	5763
2026-01-11 09:30:05.82	4.44	31.21	-49.1	-53.2	13.1	1.37e-05	0	44	0	915406848	69	5896
2026-01-11 09:30:06.81	4.27	31.04	-49.3	-53.7	12.7	5.11e-05	0	44	0	916455424	69	6207
2026-01-11 09:30:07.81	4.10	30.86	-49.5	-54.0	12.3	1.24e-04	0	44	0	918552576	69	6446
2026-01-11 09:30:08.80	3.94	30.69	-49.5	-54.0	12.3	1.52e-04	0	44	0	920649728	69	6460
2026-01-11 09:30:09.80	3.77	30.52	-49.4	-53.9	12.4	1.42e-04	0	44	0	922746880	69	6388
2026-01-11 09:30:10.79	3.61	30.35	-49.2	-53.5	12.8	6.56e-05	0	44	0	923795456	69	6097
2026-01-11 09:30:11.78	3.45	30.19	-49.0	-53.1	13.3	2.51e-05	0	44	0	925892608	69	5809
2026-01-11 09:30:12.77	3.29	30.02	-48.7	-52.6	13.8	1.60e-05	0	44	0	927989760	69	5484
2026-01-11 09:30:13.77	3.13	29.85	-48.8	-52.7	13.6	4.50e-06	0	44	0	930086912	69	5569
2026-01-11 09:30:14.76	2.97	29.68	-48.7	-52.5	13.8	2.20e-06	0	44	0	932184064	69	5422
2026-01-11 09:30:15.75	2.82	29.52	-48.7	-52.6	13.8	6.10e-06	0	44	0	933232640	69	5471
2026-01-11 09:30:16.75	2.67	29.35	-48.8	-52.6	13.7	6.10e-06	0	44	0	935329792	69	5523
2026-01-11 09:30:17.74	2.52	29.19	-48.9	-52.8	13.6	7.60e-06	0	44	0	937426944	69	5607
2026-01-11 09:30:18.73	2.37	29.03	-48.7	-52.4	13.9	3.00e-06	0	44	0	939524096	69	5391
2026-01-11 09:30:19.73	2.22	28.86	-48.5	-52.2	14.1	7.00e-07	0	44	0	940572672	69	5264
2026-01-11 09:30:20.72	2.07	28.70	-48.5	-52.1	14.2	1.50e-06	0	44	0	942669824	68	5515
2026-01-11 09:30:21.71	1.93	28.54	-48.5	-52.1	14.2	1.50e-06	0	44	0	944766976	68	5511
2026-01-11 09:30:22.71	1.78	28.38	-48.3	-51.8	14.5	7.00e-07	0	44	0	946864128	68	5334
2026-01-11 09:30:23.70	1.64	28.22	-48.2	-51.7	14.6	0.00e+00	0	44	0	948961280	68	5268
2026-01-11 09:30:24.70	1.50	28.06	-48.1	-51.5	14.8	0.00e+00	0	44	0	950009856	68	5150
2026-01-11 09:30:25.69	1.36	27.90	-48.0	-51.4	14.9	0.00e+00	0	44	0	952107008	68	5061
2026-01-11 09:30:26.68	1.22	27.74	-48.1	-51.5	14.9	0.00e+00	0	44	0	954204160	68	5117
2026-01-11 09:30:27.68	1.09	27.59	-48.2	-51.6	14.7	0.00e+00	0	44	0	956301312	68	5188
2026-01-11 09:30:28.67	0.95	27.43	-48.2	-51.6	14.7	1.50e-06	0	44	0	957349888	68	5204
2026-01-11 09:30:29.67	0.82	27.27	-48.1	-51.6	14.8	0.00e+00	0	44	0	959447040	68	5179
2026-01-11 09:30:30.66	0.68	27.12	-48.1	-51.6	14.8	0.00e+00	0	44	0	961544192	68	5180
2026-01-11 09:30:31.65	0.55	26.97	-48.1	-51.6	14.7	0.00e+00	0	44	0	963641344	68	5196
2026-01-11 09:30:32.64	0.42	26.81	-48.1	-51.6	14.8	0.00e+00	0	44	0	965738496	68	5163
2026-01-11 09:30:33.64	0.30	26.66	-47.7	-51.1	15.1	0.00e+00	0	44	0	966787072	67	5185
2026-01-11 09:30:34.63	0.17	26.51	-47.5	-50.7	15.5	0.00e+00	0	44	0	968884224	66	5265
2026-01-11 09:30:35.63	0.04	26.36	-47.3	-50.6	15.6	0.00e+00	0	44	0	970981376	66	5176
2026-01-11 09:30:36.62	359.92	26.21	-47.3	-50.5	15.7	0.00e+00	0	44	0	973078528	66	5127
2026-01-11 09:30:37.61	359.79	26.06	-47.3	-50.5	15.7	0.00e+00	0	44	0	974127104	66	5127
2026-01-11 09:30:38.61	359.67	25.91	-47.3	-50.5	15.7	0.00e+00	0	44	0	976224256	66	5105
2026-01-11 09:30:39.60	359.55	25.76	-47.4	-50.6	15.6	0.00e+00	0	44	0	978321408	66	5182
2026-01-11 09:30:40.59	359.43	25.61	-47.4	-50.6	15.5	0.00e+00	0	44	0	980418560	66	5211
2026-01-11 09:30:41.59	359.31	25.46	-47.5	-50.7	15.5	0.00e+00	0	44	0	982515712	66	5248
2026-01-11 09:30:42.58	359.19	25.32	-47.4	-50.7	15.5	0.00e+00	0	44	0	983564288	66	5226
2026-01-11 09:30:43.57	359.08	25.17	-47.3	-50.5	15.7	0.00e+00	0	44	0	985661440	66	5128
2026-01-11 09:30:44.57	358.96	25.02	-47.2	-50.5	15.6	0.00e+00	0	44	0	987758592	66	5125
2026-01-11 09:30:45.56	358.85	24.88	-47.0	-50.3	15.9	0.00e+00	0	44	0	989855744	66	4996
2026-01-11 09:30:46.56	358.73	24.74	-46.9	-50.3	15.9	0.00e+00	0	44	0	990904320	65	5301
2026-01-11 09:30:47.55	358.62	24.59	-47.0	-50.4	15.8	0.00e+00	0	44	0	993001472	65	5346
2026-01-11 09:30:48.54	358.51	24.45	-46.7	-50.0	16.2	0.00e+00	0	44	0	995098624	65	5103
2026-01-11 09:30:49.54	358.40	24.31	-46.7	-49.9	16.2	0.00e+00	0	44	0	997195776	65	5067
2026-01-11 09:30:50.53	358.29	24.17	-46.7	-49.9	16.2	0.00e+00	0	44	0	999292928	65	5096
2026-01-11 09:30:51.52	358.18	24.03	-46.7	-49.9	16.2	0.00e+00	0	44	0	1000341504	65	5096
2026-01-11 09:30:52.52	358.07	23.89	-46.8	-50.1	16.0	0.00e+00	0	44	0	1002438656	65	5182
2026-01-11 09:30:53.51	357.97	23.75	-47.0	-50.4	15.8	0.00e+00	0	44	0	1004535808	65	5362
2026-01-11 09:30:54.51	357.86	23.61	-47.2	-50.6	15.5	0.00e+00	0	44	0	1006632960	65	5502
2026-01-11 09:30:55.50	357.76	23.47	-47.3	-50.7	15.4	0.00e+00	0	44	0	1007681536	65	5561
2026-01-11 09:30:56.49	357.65	23.33	-47.4	-50.8	15.3	0.00e+00	0	44	0	1009778688	65	5654
2026-01-11 09:30:57.48	357.55	23.20	-47.6	-51.0	15.1	0.00e+00	0	44	0	1011875840	65	5763
2026-01-11 09:30:58.48	357.45	23.06	-47.7	-51.1	15.0	0.00e+00	0	44	0	1013972992	65	5838
2026-01-11 09:30:59.47	357.35	22.92	-47.6	-51.0	15.1	0.00e+00	0	44	0	1016070144	66	5460
2026-01-11 09:31:00.47	357.25	22.79	-47.6	-51.1	15.1	0.00e+00	0	44	0	1017118720	66	5481
2026-01-11 09:31:01.46	357.15	22.66	-47.7	-51.1	15.0	0.00e+00	0	44	0	1019215872	66	5516
2026-01-11 09:31:02.45	357.05	22.52	-47.6	-51.1	15.0	0.00e+00	0	44	0	1021313024	66	5496
2026-01-11 09:31:03.45	356.96	22.39	-47.6	-51.0	15.1	0.00e+00	0	44	0	1023410176	66	5448
2026-01-11 09:31:04.44	356.86	22.26	-47.4	-50.8	15.4	0.00e+00	0	44	0	1024458752	66	5283
2026-01-11 09:31:05.43	356.76	22.12	-47.5	-50.9	15.3	0.00e+00	0	44	0	1026555904	66	5344
2026-01-11 09:31:06.43	356.67	21.99	-47.5	-50.8	15.3	0.00e+00	0	44	0	1028653056	66	5318
2026-01-11 09:31:07.42	356.58	21.86	-47.6	-50.9	15.2	0.00e+00	0	44	0	1030750208	66	5394
2026-01-11 09:31:08.42	356.48	21.73	-47.5	-50.8	15.4	0.00e+00	0	44	0	1032847360	66	5282
2026-01-11 09:31:09.41	356.39	21.60	-47.6	-50.9	15.3	0.00e+00	0	44	0	1033895936	66	5348
2026-01-11 09:31:10.40	356.30	21.47	-47.6	-50.9	15.2	0.00e+00	0	44	0	1035993088	66	5369
2026-01-11 09:31:11.40	356.21	21.34	-47.6	-50.8	15.3	0.00e+00	0	44	0	1038090240	66	5339
2026-01-11 09:31:12.39	356.12	21.22	-47.6	-50.9	15.3	0.00e+00	0	44	0	1040187392	66	5357
2026-01-11 09:31:13.38	356.03	21.09	-47.5	-50.8	15.3	0.00e+00	0	44	0	1041235968	66	5299
2026-01-11 09:31:14.38	355.94	20.96	-47.6	-50.8	15.3	0.00e+00	0	44	0	1043333120	66	5329
2026-01-11 09:31:15.37	355.85	20.84	-47.5	-50.8	15.3	0.00e+00	0	44	0	1045430272	66	5305
2026-01-11 09:31:16.37	355.77	20.71	-47.4	-50.6	15.5	0.00e+00	0	44	0	1047527424	66	5199
2026-01-11 09:31:17.36	355.68	20.59	-47.4	-50.6	15.5	0.00e+00	0	44	0	1048576000	66	5214
2026-01-11 09:31:18.35	355.60	20.46	-47.2	-50.4	15.7	0.00e+00	0	44	0	1050673152	66	5073
2026-01-11 09:31:19.35	355.51	20.34	-47.2	-50.4	15.7	0.00e+00	0	44	0	1052770304	66	5097
2026-01-11 09:31:20.34	355.43	20.21	-47.1	-50.3	15.8	0.00e+00	0	44	0	1054867456	66	5011
2026-01-11 09:31:21.34	355.34	20.09	-47.1	-50.3	15.8	0.00e+00	0	44	0	1056964608	66	5021
2026-01-11 09:31:22.33	355.26	19.97	-47.0	-50.3	15.8	0.00e+00	0	44	0	1058013184	66	4997
2026-01-11 09:31:23.32	355.18	19.85	-47.0	-50.4	15.7	0.00e+00	0	44	0	1060110336	66	5053
2026-01-11 09:31:24.32	355.10	19.73	-46.9	-50.3	15.8	0.00e+00	0	44	0	1062207488	65	5299
2026-01-11 09:31:25.31	355.02	19.61	-46.9	-50.3	15.7	0.00e+00	0	44	0	1064304640	65	5332
2026-01-11 09:31:26.31	354.94	19.48	-46.9	-50.3	15.8	0.00e+00	0	44	0	1065353216	65	5322
2026-01-11 09:31:27.30	354.86	19.36	-47.0	-50.4	15.7	0.00e+00	0	44	0	1067450368	65	5374
2026-01-11 09:31:28.29	354.78	19.25	-47.0	-50.5	15.6	0.00e+00	0	44	0	1069547520	65	5423
2026-01-11 09:31:29.29	354.70	19.13	-47.1	-50.6	15.5	0.00e+00	0	44	0	1071644672	65	5513
2026-01-11 09:31:30.28	354.63	19.01	-47.0	-50.4	15.7	0.00e+00	0	44	0	1073741824	65	5400
2026-01-11 09:31:31.27	354.55	18.89	-47.2	-50.5	15.6	0.00e+00	0	44	0	1074790400	65	5462
2026-01-11 09:31:32.27	354.47	18.77	-47.2	-50.5	15.6	0.00e+00	0	44	0	1076887552	65	5440
2026-01-11 09:31:33.26	354.40	18.66	-47.2	-50.5	15.5	0.00e+00	0	44	0	1078984704	65	5464
2026-01-11 09:31:34.25	354.32	18.54	-47.2	-50.5	15.5	0.00e+00	0	44	0	1081081856	65	5464
2026-01-11 09:31:35.25	354.25	18.43	-47.2	-50.5	15.6	0.00e+00	0	44	0	1082130432	65	5461
2026-01-11 09:31:36.24	354.18	18.31	-47.2	-50.6	15.6	0.00e+00	0	44	0	1084227584	65	5475
2026-01-11 09:31:37.23	354.10	18.20	-47.2	-50.7	15.4	0.00e+00	0	44	0	1086324736	65	5534
2026-01-11 09:31:38.23	354.03	18.08	-47.2	-50.7	15.4	0.00e+00	0	44	0	1088421888	65	5557
2026-01-11 09:31:39.22	353.96	17.97	-47.2	-50.7	15.4	0.00e+00	0	44	0	1090519040	65	5563
2026-01-11 09:31:40.21	353.89	17.86	-47.3	-50.8	15.3	0.00e+00	0	44	0	1091567616	65	5620
2026-01-11 09:31:41.20	353.82	17.74	-47.3	-50.8	15.3	0.00e+00	0	44	0	1093664768	65	5623
2026-01-11 09:31:42.20	353.75	17.63	-47.4	-50.8	15.3	0.00e+00	0	44	0	1095761920	65	5619
2026-01-11 09:31:43.19	353.68	17.52	-47.4	-50.7	15.4	0.00e+00	0	44	0	1097859072	65	5571
2026-01-11 09:31:44.18	353.61	17.41	-47.4	-50.7	15.3	7.00e-07	0	44	0	1098907648	65	5572
2026-01-11 09:31:45.18	353.54	17.30	-47.4	-50.7	15.4	0.00e+00	0	44	0	1101004800	65	5557
2026-01-11 09:31:46.17	353.47	17.19	-47.4	-50.7	15.3	0.00e+00	0	44	0	1103101952	65	5584
2026-01-11 09:31:47.17	353.40	17.08	-47.3	-50.7	15.4	0.00e+00	0	44	0	1105199104	65	5531
2026-01-11 09:31:48.16	353.34	16.97	-47.3	-50.7	15.4	0.00e+00	0	44	0	1107296256	65	5586
2026-01-11 09:31:49.15	353.27	16.86	-47.4	-50.9	15.2	0.00e+00	0	44	0	1108344832	65	5657
2026-01-11 09:31:50.15	353.20	16.75	-47.3	-50.8	15.3	0.00e+00	0	44	0	1110441984	65	5598
2026-01-11 09:31:51.14	353.14	16.64	-47.2	-50.7	15.3	0.00e+00	0	44	0	1112539136	65	5590
2026-01-11 09:31:52.13	353.07	16.53	-47.2	-50.7	15.4	0.00e+00	0	44	0	1114636288	65	5541
2026-01-11 09:31:53.13	353.01	16.43	-47.2	-50.8	15.2	0.00e+00	0	44	0	1115684864	65	5646
2026-01-11 09:31:54.12	352.94	16.32	-47.2	-50.8	15.3	0.00e+00	0	44	0	1117782016	65	5642
2026-01-11 09:31:55.12	352.88	16.21	-47.3	-50.9	15.2	7.00e-07	0	44	0	1119879168	65	5677
2026-01-11 09:31:56.11	352.82	16.11	-47.3	-50.9	15.2	0.00e+00	0	44	0	1121976320	65	5715
2026-01-11 09:31:57.10	352.76	16.00	-47.4	-50.9	15.1	0.00e+00	0	44	0	1124073472	65	5717
2026-01-11 09:31:58.10	352.69	15.90	-47.4	-50.9	15.2	0.00e+00	0	44	0	1125122048	65	5712
2026-01-11 09:31:59.09	352.63	15.79	-47.4	-50.9	15.2	0.00e+00	0	44	0	1127219200	65	5691
2026-01-11 09:32:00.09	352.57	15.69	-47.4	-50.9	15.1	0.00e+00	0	44	0	1129316352	65	5721
2026-01-11 09:32:01.08	352.51	15.58	-47.4	-50.9	15.2	0.00e+00	0	44	0	1131413504	65	5696
2026-01-11 09:32:02.07	352.45	15.48	-47.5	-50.9	15.2	0.00e+00	0	44	0	1132462080	65	5686
2026-01-11 09:32:03.07	352.39	15.38	-47.4	-50.9	15.2	0.00e+00	0	44	0	1134559232	65	5659
2026-01-11 09:32:04.06	352.33	15.27	-47.4	-50.9	15.2	0.00e+00	0	44	0	1136656384	65	5671
2026-01-11 09:32:05.05	352.27	15.17	-47.4	-50.8	15.2	0.00e+00	0	44	0	1138753536	65	5635
2026-01-11 09:32:06.05	352.21	15.07	-47.3	-50.8	15.2	7.00e-07	0	44	0	1140850688	65	5613
2026-01-11 09:32:07.04	352.15	14.97	-47.4	-50.9	15.2	0.00e+00	0	44	0	1141899264	65	5677
2026-01-11 09:32:08.03	352.10	14.87	-47.4	-50.9	15.2	0.00e+00	0	44	0	1143996416	65	5662
2026-01-11 09:32:09.03	352.04	14.77	-47.4	-50.9	15.2	7.00e-07	0	44	0	1146093568	65	5678
2026-01-11 09:32:10.02	351.98	14.67	-47.5	-51.0	15.0	0.00e+00	0	44	0	1148190720	65	5762
2026-01-11 09:32:11.01	351.93	14.57	-47.4	-50.9	15.2	0.00e+00	0	44	0	1149239296	65	5659
2026-01-11 09:32:12.01	351.87	14.47	-47.4	-50.8	15.2	0.00e+00	0	44	0	1151336448	65	5626
2026-01-11 09:32:13.00	351.81	14.37	-47.4	-50.8	15.2	0.00e+00	0	44	0	1153433600	65	5638
2026-01-11 09:32:14.00	351.76	14.27	-47.4	-50.9	15.1	0.00e+00	0	44	0	1155530752	65	5713
2026-01-11 09:32:14.99	351.70	14.17	-47.4	-51.0	15.1	0.00e+00	0	44	0	1157627904	65	5756
2026-01-11 09:32:15.98	351.65	14.07	-47.4	-51.0	15.0	0.00e+00	0	44	0	1158676480	65	5783
2026-01-11 09:32:16.98	351.60	13.97	-47.4	-51.1	15.0	0.00e+00	0	44	0	1160773632	65	5808
2026-01-11 09:32:17.97	351.54	13.88	-47.5	-51.2	14.8	7.00e-07	0	44	0	1162870784	65	5903
2026-01-11 09:32:18.96	351.49	13.78	-47.6	-51.3	14.8	7.00e-07	0	44	0	1164967936	65	5937
2026-01-11 09:32:19.96	351.43	13.68	-47.6	-51.3	14.7	1.50e-06	0	44	0	1166016512	65	5960
2026-01-11 09:32:20.95	351.38	13.59	-47.6	-51.3	14.7	1.50e-06	0	44	0	1168113664	65	5976
2026-01-11 09:32:21.94	351.33	13.49	-47.6	-51.4	14.6	0.00e+00	0	44	0	1170210816	65	6015
2026-01-11 09:32:22.94	351.28	13.39	-47.7	-51.5	14.5	0.00e+00	0	44	0	1172307968	66	5770
2026-01-11 09:32:23.93	351.23	13.30	-47.5	-51.6	14.4	0.00e+00	0	44	0	1174405120	66	5834
2026-01-11 09:32:24.92	351.18	13.20	-47.5	-51.7	14.4	1.50e-06	0	44	0	1175453696	66	5885
2026-01-11 09:32:25.92	351.12	13.11	-47.5	-51.8	14.3	2.20e-06	0	44	0	1177550848	66	5947
2026-01-11 09:32:26.91	351.07	13.02	-47.3	-51.9	14.2	0.00e+00	0	44	0	1179648000	66	5995
2026-01-11 09:32:27.90	351.02	12.92	-47.2	-51.8	14.2	0.00e+00	0	44	0	1181745152	66	5942
2026-01-11 09:32:28.90	350.97	12.83	-47.0	-51.8	14.3	7.00e-07	0	44	0	1182793728	66	5927
2026-01-11 09:32:29.89	350.92	12.74	-46.8	-51.6	14.4	7.00e-07	0	44	0	1184890880	65	6192
2026-01-11 09:32:30.89	350.88	12.64	-46.6	-51.8	14.2	7.00e-07	0	44	0	1186988032	65	6303
2026-01-11 09:32:31.88	350.83	12.55	-46.4	-51.7	14.3	0.00e+00	0	44	0	1189085184	64	6617
2026-01-11 09:32:32.87	350.78	12.46	-46.4	-51.7	14.2	0.00e+00	0	44	0	1191182336	64	6646
2026-01-11 09:32:33.87	350.73	12.37	-46.3	-51.6	14.4	7.00e-07	0	44	0	1192230912	64	6514
2026-01-11 09:32:34.86	350.68	12.27	-46.2	-51.4	14.6	1.50e-06	0	44	0	1194328064	64	6386
2026-01-11 09:32:35.85	350.64	12.18	-46.3	-51.4	14.5	7.00e-07	0	44	0	1196425216	64	6395
2026-01-11 09:32:36.85	350.59	12.09	-46.5	-51.5	14.5	7.00e-07	0	44	0	1198522368	64	6445
2026-01-11 09:32:37.84	350.54	12.00	-46.6	-51.3	14.6	0.00e+00	0	44	0	1199570944	64	6325
2026-01-11 09:32:38.83	350.49	11.91	-46.7	-51.3	14.7	0.00e+00	0	44	0	1201668096	64	6316
2026-01-11 09:32:39.83	350.45	11.82	-46.9	-51.5	14.5	0.00e+00	0	44	0	1203765248	64	6437
2026-01-11 09:32:40.82	350.40	11.73	-47.0	-51.4	14.6	0.00e+00	0	44	0	1205862400	64	6382
2026-01-11 09:32:41.81	350.36	11.64	-47.0	-51.4	14.5	0.00e+00	0	44	0	1206910976	64	6409
2026-01-11 09:32:42.80	350.31	11.55	-47.1	-51.5	14.4	1.50e-06	0	44	0	1209008128	64	6471
2026-01-11 09:32:43.80	350.27	11.46	-47.1	-51.4	14.6	0.00e+00	0	44	0	1211105280	64	6364
2026-01-11 09:32:44.79	350.22	11.38	-47.1	-51.5	14.5	0.00e+00	0	44	0	1213202432	64	6434
2026-01-11 09:32:45.78	350.18	11.29	-47.1	-51.4	14.6	0.00e+00	0	44	0	1215299584	64	6392
2026-01-11 09:32:46.78	350.13	11.20	-47.0	-51.6	14.4	0.00e+00	0	44	0	1216348160	64	6501
2026-01-11 09:32:47.77	350.09	11.11	-47.0	-51.7	14.3	1.50e-06	0	44	0	1218445312	64	6575
2026-01-11 09:32:48.76	350.05	11.03	-46.8	-51.7	14.2	7.00e-07	0	44	0	1220542464	64	6609
2026-01-11 09:32:49.76	350.00	10.94	-46.8	-51.8	14.2	7.00e-07	0	44	0	1222639616	64	6673
2026-01-11 09:32:50.75	349.96	10.85	-46.8	-51.8	14.1	1.50e-06	0	44	0	1223688192	64	6719
2026-01-11 09:32:51.74	349.92	10.77	-46.7	-51.9	14.1	1.50e-06	0	44	0	1225785344	64	6733
2026-01-11 09:32:52.73	349.87	10.68	-46.7	-52.0	14.0	7.00e-07	0	44	0	1227882496	64	6817
