passes_logs/2026/01/11/T1/T1__20260111_110312_AQUA_rec.log

#Pass ID: 20260111_110312_AQUA
#Satellite: AQUA
#Configuration: AQUA
#almurnet v.1.7.20251203
#Start time: 2026-01-11 11:03:13

#Version: 2.0.20230620
#Station: T1
#Location: 37.570604 lon 55.790049 lat
#TLE: 1 27424U 02022A   26010.91777001  .00001106  00000+0  23130-3 0  9995
#TLE: 2 27424  98.4077 337.2768 0002031  83.1713 340.5382 14.61814337260293

#Time	Az	El	Level	Level2	SNR	BER	BlckErr	Temp	State	Recorded	gain1	gain2
2026-01-11 11:03:13.31	140.32	5.05	-53.1	-73.3	3.8	7.43e-01	0	37	0	0	78	35639
2026-01-11 11:03:14.30	140.28	5.12	-53.1	-73.4	3.8	7.48e-01	0	37	104	0	76	40149
2026-01-11 11:03:15.29	140.24	5.19	-53.2	-73.4	3.8	7.44e-01	0	37	104	0	76	40078
2026-01-11 11:03:16.29	140.20	5.27	-53.1	-73.3	3.8	7.48e-01	0	37	104	0	76	40036
2026-01-11 11:03:17.28	140.16	5.34	-53.2	-73.3	3.8	7.48e-01	0	37	104	0	76	39909
2026-01-11 11:03:18.27	140.12	5.41	-53.1	-73.3	3.8	7.46e-01	0	37	104	0	76	39673
2026-01-11 11:03:19.26	140.08	5.49	-53.1	-73.1	3.8	7.44e-01	0	37	104	0	76	39048
2026-01-11 11:03:20.26	140.03	5.56	-53.1	-72.8	3.8	7.46e-01	0	37	104	0	76	37686
2026-01-11 11:03:21.25	139.99	5.64	-53.1	-72.4	3.8	7.45e-01	0	37	104	0	76	35788
2026-01-11 11:03:22.24	139.95	5.71	-53.1	-71.8	3.8	7.45e-01	0	37	104	0	76	33525
2026-01-11 11:03:23.24	139.91	5.79	-53.1	-70.9	4.0	7.39e-01	0	37	104	0	76	30041
2026-01-11 11:03:24.23	139.87	5.86	-53.1	-69.9	4.1	7.35e-01	0	37	104	0	76	27003
2026-01-11 11:03:25.22	139.82	5.94	-53.0	-69.3	4.0	7.33e-01	0	38	104	0	76	24985
2026-01-11 11:03:26.22	139.78	6.01	-53.0	-68.8	3.9	7.38e-01	0	37	104	0	76	23825
2026-01-11 11:03:27.21	139.74	6.09	-53.0	-67.6	5.1	7.05e-01	0	37	0	0	76	20750
2026-01-11 11:03:28.20	139.69	6.17	-53.0	-67.3	5.3	7.02e-01	0	38	0	0	76	19978
2026-01-11 11:03:29.19	139.65	6.24	-52.9	-66.9	5.5	6.97e-01	0	38	0	524288	76	19161
2026-01-11 11:03:30.19	139.61	6.32	-52.9	-66.8	5.6	6.93e-01	0	38	0	1572864	76	18862
2026-01-11 11:03:31.18	139.56	6.40	-52.9	-66.9	5.6	6.94e-01	0	38	0	2621440	76	19104
2026-01-11 11:03:32.17	139.52	6.47	-53.0	-67.2	5.4	7.01e-01	0	38	0	3670016	76	19769
2026-01-11 11:03:33.17	139.47	6.55	-53.0	-67.6	5.1	7.08e-01	0	38	0	3670016	76	20765
2026-01-11 11:03:34.16	139.43	6.63	-53.0	-68.3	4.8	7.14e-01	0	38	104	3670016	76	22398
2026-01-11 11:03:35.15	139.38	6.70	-53.0	-69.6	3.8	7.38e-01	0	38	104	3670016	76	26118
2026-01-11 11:03:36.14	139.34	6.78	-53.1	-70.4	4.1	7.37e-01	0	38	104	3670016	76	28355
2026-01-11 11:03:37.14	139.29	6.86	-53.1	-71.3	3.9	7.44e-01	0	38	104	3670016	76	31609
2026-01-11 11:03:38.13	139.25	6.94	-53.1	-71.8	3.8	7.45e-01	0	38	104	3670016	76	33548
2026-01-11 11:03:39.12	139.20	7.02	-53.1	-71.7	3.8	7.45e-01	0	38	104	3670016	76	33192
2026-01-11 11:03:40.12	139.15	7.10	-53.1	-70.6	4.0	7.39e-01	0	38	104	3670016	76	29105
2026-01-11 11:03:41.11	139.11	7.18	-53.0	-69.5	3.9	7.36e-01	0	38	104	3670016	76	25828
2026-01-11 11:03:42.10	139.06	7.26	-53.0	-67.4	5.2	7.06e-01	0	38	0	3670016	76	20202
2026-01-11 11:03:43.09	139.01	7.34	-52.8	-65.4	6.7	6.70e-01	0	38	0	4718592	76	15984
2026-01-11 11:03:44.09	138.96	7.42	-52.6	-63.1	8.9	6.36e-01	0	38	0	6291456	76	12295
2026-01-11 11:03:45.08	138.91	7.50	-52.2	-60.9	11.1	6.18e-01	0	38	0	8388608	76	9595
2026-01-11 11:03:46.07	138.87	7.58	-51.7	-58.8	13.3	6.09e-01	0	38	0	9961472	75	7981
2026-01-11 11:03:47.07	138.82	7.66	-51.1	-57.0	15.1	6.09e-01	0	38	0	12058624	74	6877
2026-01-11 11:03:48.06	138.77	7.74	-50.5	-55.6	16.5	6.07e-01	0	38	0	13631488	73	6167
2026-01-11 11:03:49.05	138.72	7.82	-50.0	-54.5	17.7	6.07e-01	0	38	0	15728640	71	6063
2026-01-11 11:03:50.05	138.67	7.90	-49.2	-53.2	19.0	6.07e-01	0	38	0	17825792	70	5548
2026-01-11 11:03:51.04	138.62	7.98	-48.8	-52.4	19.7	6.07e-01	0	38	0	19398656	69	5400
2026-01-11 11:03:52.03	138.57	8.07	-48.4	-51.9	20.2	6.08e-01	0	38	0	21495808	68	5361
2026-01-11 11:03:53.03	138.52	8.15	-48.2	-51.5	20.5	6.07e-01	0	38	0	23068672	68	5158
2026-01-11 11:03:54.02	138.47	8.23	-48.1	-51.5	20.6	6.06e-01	0	38	0	25165824	68	5130
2026-01-11 11:03:55.01	138.42	8.32	-48.3	-51.7	20.4	6.07e-01	0	38	0	26738688	68	5246
2026-01-11 11:03:56.01	138.36	8.40	-48.6	-52.1	20.0	6.07e-01	0	38	0	28835840	68	5521
2026-01-11 11:03:57.00	138.31	8.48	-49.2	-53.0	19.2	6.06e-01	0	39	0	30408704	68	6130
2026-01-11 11:03:57.99	138.26	8.57	-49.8	-54.1	18.2	6.08e-01	0	39	0	32505856	70	6154
2026-01-11 11:03:58.98	138.21	8.65	-50.5	-55.6	16.6	6.07e-01	0	39	0	34603008	71	6948
2026-01-11 11:03:59.98	138.15	8.74	-51.3	-57.5	14.8	6.09e-01	0	39	0	36175872	73	7648
2026-01-11 11:04:00.97	138.10	8.82	-52.0	-59.9	12.3	6.14e-01	0	39	0	38273024	74	9593
2026-01-11 11:04:01.96	138.05	8.90	-52.5	-63.0	9.2	6.36e-01	0	39	0	39845888	75	12819
2026-01-11 11:04:02.96	137.99	8.99	-52.9	-66.7	5.8	6.93e-01	0	39	0	41943040	76	18529
2026-01-11 11:04:03.95	137.94	9.08	-53.1	-71.1	3.9	7.43e-01	0	39	104	41943040	76	30812
2026-01-11 11:04:04.94	137.88	9.16	-52.7	-63.8	8.2	6.45e-01	0	39	0	42467328	76	13347
2026-01-11 11:04:05.94	137.83	9.25	-51.0	-56.7	15.5	6.08e-01	0	39	0	44040192	74	6587
2026-01-11 11:04:06.93	137.77	9.34	-53.0	-68.9	4.5	7.23e-01	0	39	104	45088768	76	23974
2026-01-11 11:04:07.92	137.72	9.42	-51.0	-56.6	15.4	6.09e-01	0	39	0	45088768	74	6532
2026-01-11 11:04:08.92	137.66	9.51	-52.3	-60.9	11.6	6.16e-01	0	39	0	47185920	75	10094
2026-01-11 11:04:09.91	137.60	9.60	-50.9	-56.3	15.9	6.07e-01	0	39	0	48758784	73	6716
2026-01-11 11:04:10.90	137.55	9.68	-51.0	-56.6	15.8	6.08e-01	0	39	0	50855936	73	6883
2026-01-11 11:04:11.89	137.49	9.77	-51.1	-56.7	15.7	6.06e-01	0	39	0	52428800	73	6987
2026-01-11 11:04:12.89	137.43	9.86	-50.7	-55.8	16.5	6.08e-01	0	39	0	54525952	73	6320
2026-01-11 11:04:13.88	137.37	9.95	-50.2	-54.6	17.6	6.06e-01	0	39	0	56098816	72	5848
2026-01-11 11:04:14.87	137.31	10.04	-49.6	-53.6	18.8	6.08e-01	0	39	0	58195968	71	5465
2026-01-11 11:04:15.87	137.25	10.13	-49.2	-53.0	19.4	6.05e-01	0	39	0	59768832	70	5409
2026-01-11 11:04:16.86	137.19	10.22	-48.9	-52.5	19.8	6.07e-01	0	39	0	61865984	69	5446
2026-01-11 11:04:17.85	137.14	10.31	-48.8	-52.3	20.0	6.07e-01	0	39	0	63438848	69	5301
2026-01-11 11:04:18.85	137.07	10.40	-48.8	-52.4	19.9	6.07e-01	0	39	0	65536000	69	5341
2026-01-11 11:04:19.84	137.01	10.49	-48.5	-52.0	20.3	6.06e-01	0	39	0	67633152	69	5113
2026-01-11 11:04:20.83	136.95	10.58	-48.3	-51.6	20.7	6.06e-01	0	39	0	69206016	68	5181
2026-01-11 11:04:21.82	136.89	10.67	-48.0	-51.2	21.0	6.08e-01	0	39	0	71303168	68	4957
2026-01-11 11:04:22.82	136.83	10.77	-47.8	-50.9	21.2	6.07e-01	0	39	0	72876032	67	5078
2026-01-11 11:04:23.81	136.77	10.86	-47.8	-50.9	21.3	6.07e-01	0	39	0	74973184	67	5056
2026-01-11 11:04:24.81	136.70	10.95	-47.9	-51.1	21.0	6.07e-01	0	39	0	76546048	67	5193
2026-01-11 11:04:25.80	136.64	11.04	-47.7	-50.8	21.3	6.08e-01	0	39	0	78643200	67	5002
2026-01-11 11:04:26.79	136.58	11.14	-47.7	-50.7	21.5	6.07e-01	0	39	0	80216064	67	4965
2026-01-11 11:04:27.78	136.51	11.23	-47.7	-50.8	21.4	6.07e-01	0	39	0	82313216	67	5018
2026-01-11 11:04:28.78	136.45	11.33	-47.8	-50.9	21.3	6.07e-01	0	39	0	84410368	67	5062
2026-01-11 11:04:29.77	136.38	11.42	-47.7	-50.8	21.4	6.08e-01	0	39	0	85983232	67	4985
2026-01-11 11:04:30.76	136.32	11.51	-47.5	-50.5	21.6	6.05e-01	0	39	0	88080384	67	4854
2026-01-11 11:04:31.75	136.25	11.61	-47.5	-50.6	21.6	6.07e-01	0	39	0	89653248	67	4889
2026-01-11 11:04:32.75	136.18	11.71	-47.5	-50.5	21.6	6.07e-01	0	39	0	91750400	67	4863
2026-01-11 11:04:33.74	136.12	11.80	-47.5	-50.5	21.7	6.07e-01	0	39	0	93323264	67	4851
2026-01-11 11:04:34.73	136.05	11.90	-47.5	-50.5	21.6	6.06e-01	0	39	0	95420416	67	4863
2026-01-11 11:04:35.73	135.98	11.99	-47.5	-50.5	21.7	6.07e-01	0	39	0	96993280	67	4845
2026-01-11 11:04:36.72	135.91	12.09	-47.5	-50.5	21.6	6.08e-01	0	39	0	99090432	66	5148
2026-01-11 11:04:37.71	135.84	12.19	-47.4	-50.4	21.8	6.06e-01	0	39	0	101187584	66	5072
2026-01-11 11:04:38.70	135.77	12.29	-47.4	-50.4	21.8	6.04e-01	0	39	0	102760448	66	5063
2026-01-11 11:04:39.70	135.70	12.39	-47.4	-50.4	21.8	6.08e-01	0	39	0	104857600	66	5044
2026-01-11 11:04:40.69	135.63	12.48	-47.4	-50.4	21.8	6.06e-01	0	39	0	106430464	66	5050
2026-01-11 11:04:41.68	135.56	12.58	-47.3	-50.3	21.9	6.07e-01	0	39	0	108527616	66	4987
2026-01-11 11:04:42.68	135.49	12.68	-47.3	-50.3	21.9	6.07e-01	0	39	0	110100480	66	4998
2026-01-11 11:04:43.67	135.42	12.78	-47.2	-50.2	22.0	6.05e-01	0	39	0	112197632	66	4929
2026-01-11 11:04:44.66	135.34	12.88	-47.2	-50.2	22.0	6.05e-01	0	39	0	113770496	66	4936
2026-01-11 11:04:45.65	135.27	12.98	-47.1	-50.0	22.1	6.06e-01	0	39	0	115867648	66	4855
2026-01-11 11:04:46.65	135.20	13.09	-47.1	-50.0	22.1	6.06e-01	0	39	0	117440512	66	4859
2026-01-11 11:04:47.64	135.12	13.19	-47.2	-50.1	22.1	6.07e-01	0	39	0	119537664	66	4874
2026-01-11 11:04:48.63	135.05	13.29	-47.2	-50.1	22.1	6.08e-01	0	39	0	121634816	66	4900
2026-01-11 11:04:49.63	134.97	13.39	-47.2	-50.1	22.1	6.06e-01	0	39	0	123207680	66	4889
2026-01-11 11:04:50.62	134.90	13.49	-47.1	-50.0	22.2	6.07e-01	0	39	0	125304832	66	4846
2026-01-11 11:04:51.61	134.82	13.60	-47.1	-49.9	22.2	6.07e-01	0	39	0	126877696	66	4814
2026-01-11 11:04:52.61	134.74	13.70	-47.0	-49.8	22.3	6.06e-01	0	39	0	128974848	66	4742
2026-01-11 11:04:53.60	134.66	13.81	-47.0	-49.8	22.3	6.07e-01	0	39	0	130547712	66	4755
2026-01-11 11:04:54.59	134.59	13.91	-47.0	-49.8	22.4	6.06e-01	0	40	0	132644864	65	5014
2026-01-11 11:04:55.58	134.51	14.01	-47.0	-49.8	22.3	6.08e-01	0	39	0	134217728	65	5038
2026-01-11 11:04:56.58	134.43	14.12	-46.9	-49.8	22.4	6.06e-01	0	39	0	136314880	65	4995
2026-01-11 11:04:57.57	134.35	14.23	-47.0	-49.9	22.3	6.05e-01	0	39	0	138412032	65	5073
2026-01-11 11:04:58.56	134.26	14.33	-47.0	-50.0	22.2	6.06e-01	0	39	0	139984896	65	5118
2026-01-11 11:04:59.55	134.18	14.44	-46.9	-49.8	22.4	6.08e-01	0	39	0	142082048	65	5002
2026-01-11 11:05:00.55	134.10	14.55	-46.9	-49.9	22.3	6.06e-01	0	39	0	143654912	65	5044
2026-01-11 11:05:01.54	134.02	14.66	-46.9	-49.8	22.4	6.07e-01	0	39	0	145752064	65	5018
2026-01-11 11:05:02.53	133.93	14.76	-46.9	-49.8	22.4	6.05e-01	0	40	0	147324928	65	5011
2026-01-11 11:05:03.53	133.85	14.87	-46.9	-49.7	22.5	6.08e-01	0	39	0	149422080	65	4961
2026-01-11 11:05:04.52	133.76	14.98	-46.9	-49.8	22.5	6.06e-01	0	39	0	150994944	65	4984
2026-01-11 11:05:05.51	133.68	15.09	-46.8	-49.6	22.5	6.06e-01	0	40	0	153092096	65	4919
2026-01-11 11:05:06.51	133.59	15.20	-46.9	-49.7	22.5	6.06e-01	0	40	0	154664960	65	4955
2026-01-11 11:05:07.50	133.50	15.31	-47.0	-49.8	22.4	6.07e-01	0	40	0	156762112	65	5015
2026-01-11 11:05:08.49	133.42	15.42	-47.0	-49.8	22.4	6.06e-01	0	40	0	158859264	65	5032
2026-01-11 11:05:09.48	133.33	15.54	-46.9	-49.7	22.5	6.07e-01	0	40	0	160432128	65	4949
2026-01-11 11:05:10.48	133.24	15.65	-46.9	-49.6	22.6	6.06e-01	0	39	0	162529280	65	4925
2026-01-11 11:05:11.47	133.15	15.76	-46.9	-49.7	22.5	6.07e-01	0	40	0	164102144	65	4960
2026-01-11 11:05:12.46	133.06	15.87	-47.0	-49.7	22.4	6.07e-01	0	40	0	166199296	65	4980
2026-01-11 11:05:13.46	132.97	15.99	-46.9	-49.7	22.5	6.06e-01	0	39	0	167772160	65	4929
2026-01-11 11:05:14.45	132.87	16.10	-46.9	-49.7	22.6	6.07e-01	0	40	0	169869312	65	4938
2026-01-11 11:05:15.45	132.78	16.22	-46.8	-49.5	22.7	6.05e-01	0	40	0	171442176	65	4866
2026-01-11 11:05:16.44	132.69	16.33	-46.8	-49.5	22.7	6.07e-01	0	40	0	173539328	65	4854
2026-01-11 11:05:17.43	132.59	16.45	-46.8	-49.6	22.6	6.09e-01	0	40	0	175636480	65	4917
2026-01-11 11:05:18.42	132.50	16.57	-46.8	-49.6	22.6	6.04e-01	0	39	0	177209344	65	4888
2026-01-11 11:05:19.42	132.40	16.68	-46.9	-49.7	22.5	6.07e-01	0	40	0	179306496	65	4945
2026-01-11 11:05:20.41	132.30	16.80	-46.9	-49.7	22.5	6.08e-01	0	40	0	180879360	65	4953
2026-01-11 11:05:21.40	132.20	16.92	-46.8	-49.6	22.6	6.06e-01	0	39	0	182976512	65	4910
2026-01-11 11:05:22.40	132.11	17.04	-46.9	-49.7	22.6	6.07e-01	0	40	0	184549376	65	4933
2026-01-11 11:05:23.39	132.01	17.16	-46.9	-49.7	22.5	6.08e-01	0	40	0	186646528	65	4968
2026-01-11 11:05:24.38	131.91	17.28	-46.8	-49.7	22.6	6.09e-01	0	40	0	188219392	65	4941
2026-01-11 11:05:25.37	131.80	17.40	-46.9	-49.8	22.5	6.08e-01	0	40	0	190316544	65	4985
2026-01-11 11:05:26.37	131.70	17.52	-46.8	-49.6	22.6	6.06e-01	0	40	0	192413696	65	4914
2026-01-11 11:05:27.36	131.60	17.64	-46.8	-49.6	22.7	6.06e-01	0	40	0	193986560	65	4889
2026-01-11 11:05:28.35	131.50	17.76	-46.8	-49.6	22.6	6.06e-01	0	40	0	196083712	65	4904
2026-01-11 11:05:29.35	131.39	17.88	-46.8	-49.6	22.7	6.07e-01	0	40	0	197656576	65	4872
2026-01-11 11:05:30.34	131.28	18.01	-46.9	-49.6	22.6	6.08e-01	0	40	0	199753728	65	4926
2026-01-11 11:05:31.33	131.18	18.13	-46.8	-49.6	22.7	6.08e-01	0	40	0	201326592	65	4900
2026-01-11 11:05:32.32	131.07	18.25	-46.8	-49.6	22.6	6.06e-01	0	40	0	203423744	65	4916
2026-01-11 11:05:33.32	130.96	18.38	-46.9	-49.7	22.6	6.07e-01	0	40	0	204996608	65	4941
2026-01-11 11:05:34.31	130.85	18.50	-47.0	-49.8	22.5	6.07e-01	0	40	0	207093760	65	5009
2026-01-11 11:05:35.30	130.74	18.63	-47.0	-49.9	22.4	6.08e-01	0	40	0	208666624	65	5047
2026-01-11 11:05:36.29	130.63	18.76	-47.0	-49.8	22.5	6.06e-01	0	40	0	210763776	65	5016
2026-01-11 11:05:37.29	130.52	18.88	-47.0	-49.9	22.4	6.05e-01	0	40	0	212860928	65	5070
2026-01-11 11:05:38.28	130.40	19.01	-47.0	-49.8	22.4	6.07e-01	0	40	0	214433792	65	5030
2026-01-11 11:05:39.27	130.29	19.14	-46.9	-49.8	22.5	6.08e-01	0	40	0	216530944	65	4998
2026-01-11 11:05:40.27	130.17	19.27	-47.0	-49.9	22.4	6.08e-01	0	40	0	218103808	65	5056
2026-01-11 11:05:41.26	130.05	19.40	-47.0	-49.9	22.4	6.08e-01	0	40	0	220200960	65	5060
2026-01-11 11:05:42.25	129.94	19.53	-46.9	-49.8	22.5	6.05e-01	0	40	0	221773824	65	5012
2026-01-11 11:05:43.25	129.82	19.66	-47.0	-49.8	22.5	6.07e-01	0	40	0	223870976	65	5008
2026-01-11 11:05:44.24	129.70	19.79	-47.0	-49.8	22.4	6.08e-01	0	40	0	225443840	65	5038
2026-01-11 11:05:45.23	129.58	19.92	-46.9	-49.7	22.5	6.07e-01	0	40	0	227540992	65	4975
2026-01-11 11:05:46.22	129.45	20.06	-46.9	-49.8	22.5	6.06e-01	0	40	0	229638144	65	4984
2026-01-11 11:05:47.22	129.33	20.19	-47.1	-49.9	22.4	6.07e-01	0	40	0	231211008	65	5071
2026-01-11 11:05:48.21	129.21	20.33	-47.0	-49.8	22.5	6.08e-01	0	40	0	233308160	65	4999
2026-01-11 11:05:49.20	129.08	20.46	-47.1	-49.9	22.4	6.06e-01	0	40	0	234881024	65	5050
2026-01-11 11:05:50.19	128.95	20.59	-47.1	-49.9	22.4	6.08e-01	0	40	0	236978176	65	5069
2026-01-11 11:05:51.19	128.82	20.73	-47.1	-49.8	22.4	6.08e-01	0	40	0	238551040	65	5030
2026-01-11 11:05:52.18	128.70	20.87	-47.1	-49.8	22.5	6.08e-01	0	40	0	240648192	65	5041
2026-01-11 11:05:53.17	128.56	21.01	-47.1	-49.8	22.4	6.06e-01	0	40	0	242221056	65	5040
2026-01-11 11:05:54.17	128.43	21.14	-47.1	-49.8	22.5	6.07e-01	0	40	0	244318208	65	5037
2026-01-11 11:05:55.16	128.30	21.28	-47.1	-49.9	22.5	6.08e-01	0	40	0	245891072	65	5046
2026-01-11 11:05:56.15	128.16	21.42	-47.1	-49.9	22.4	6.05e-01	0	40	0	247988224	65	5090
2026-01-11 11:05:57.15	128.03	21.56	-47.2	-50.0	22.4	6.08e-01	0	40	0	250085376	65	5119
2026-01-11 11:05:58.14	127.89	21.70	-47.2	-50.0	22.3	6.06e-01	0	40	0	251658240	65	5156
2026-01-11 11:05:59.13	127.75	21.84	-47.1	-49.9	22.4	6.06e-01	0	40	0	253755392	65	5082
2026-01-11 11:06:00.12	127.61	21.99	-47.1	-50.0	22.4	6.06e-01	0	40	0	255328256	65	5112
2026-01-11 11:06:01.12	127.47	22.13	-47.0	-49.9	22.4	6.09e-01	0	40	0	257425408	65	5098
2026-01-11 11:06:02.11	127.33	22.27	-47.1	-50.0	22.3	6.07e-01	0	40	0	258998272	65	5153
2026-01-11 11:06:03.10	127.19	22.42	-47.0	-49.9	22.4	6.08e-01	0	40	0	261095424	65	5100
2026-01-11 11:06:04.10	127.04	22.56	-47.0	-50.0	22.3	6.06e-01	0	40	0	262668288	65	5135
2026-01-11 11:06:05.09	126.89	22.71	-47.2	-50.1	22.2	6.07e-01	0	40	0	264765440	65	5210
2026-01-11 11:06:06.08	126.74	22.85	-47.0	-49.9	22.4	6.09e-01	0	40	0	266862592	65	5097
2026-01-11 11:06:07.07	126.60	23.00	-47.1	-49.9	22.4	6.07e-01	0	40	0	268435456	65	5082
2026-01-11 11:06:08.07	126.44	23.15	-47.2	-50.0	22.3	6.05e-01	0	40	0	270532608	65	5149
2026-01-11 11:06:09.06	126.29	23.30	-47.1	-50.0	22.4	6.06e-01	0	40	0	272105472	65	5112
2026-01-11 11:06:10.05	126.14	23.45	-47.2	-50.0	22.3	6.08e-01	0	40	0	274202624	65	5111
2026-01-11 11:06:11.05	125.98	23.60	-47.2	-50.0	22.3	6.06e-01	0	40	0	275775488	65	5156
2026-01-11 11:06:12.04	125.82	23.75	-47.4	-50.2	22.2	6.07e-01	0	40	0	277872640	65	5243
2026-01-11 11:06:13.03	125.66	23.90	-47.2	-50.0	22.3	6.07e-01	0	40	0	279445504	65	5152
2026-01-11 11:06:14.02	125.50	24.05	-47.2	-50.0	22.3	6.06e-01	0	40	0	281542656	65	5147
2026-01-11 11:06:15.02	125.34	24.21	-47.2	-50.0	22.4	6.06e-01	0	40	0	283639808	65	5109
2026-01-11 11:06:16.01	125.18	24.36	-47.1	-49.9	22.5	6.08e-01	0	40	0	285212672	65	5049
2026-01-11 11:06:17.00	125.01	24.51	-47.2	-50.0	22.3	6.07e-01	0	40	0	287309824	65	5148
2026-01-11 11:06:18.00	124.84	24.67	-47.3	-50.2	22.2	6.07e-01	0	40	0	288882688	65	5236
2026-01-11 11:06:18.99	124.67	24.82	-47.3	-50.2	22.2	6.05e-01	0	40	0	290979840	65	5260
2026-01-11 11:06:19.98	124.50	24.98	-47.4	-50.3	22.0	6.05e-01	0	40	0	292552704	65	5330
2026-01-11 11:06:20.97	124.33	25.14	-47.3	-50.1	22.3	6.08e-01	0	40	0	294649856	65	5201
2026-01-11 11:06:21.97	124.15	25.30	-47.3	-50.1	22.3	6.09e-01	0	40	0	296222720	65	5189
2026-01-11 11:06:22.96	123.98	25.45	-47.2	-50.1	22.3	6.06e-01	0	40	0	298319872	65	5187
2026-01-11 11:06:23.95	123.80	25.61	-47.0	-49.8	22.5	6.09e-01	0	40	0	299892736	65	5015
2026-01-11 11:06:24.95	123.62	25.77	-46.9	-49.6	22.7	6.07e-01	0	40	0	301989888	65	4900
2026-01-11 11:06:25.94	123.44	25.93	-46.9	-49.7	22.6	6.07e-01	0	40	0	304087040	65	4938
2026-01-11 11:06:26.93	123.25	26.10	-47.0	-49.8	22.5	6.07e-01	0	40	0	305659904	65	5013
2026-01-11 11:06:27.92	123.07	26.26	-46.9	-49.7	22.6	6.07e-01	0	40	0	307757056	65	4937
2026-01-11 11:06:28.92	122.88	26.42	-46.9	-49.6	22.7	6.07e-01	0	40	0	309329920	65	4919
2026-01-11 11:06:29.91	122.69	26.59	-46.9	-49.6	22.7	6.07e-01	0	40	0	311427072	65	4910
2026-01-11 11:06:30.90	122.49	26.75	-47.1	-49.8	22.5	6.07e-01	0	40	0	312999936	65	5013
2026-01-11 11:06:31.89	122.30	26.91	-47.2	-49.9	22.4	6.09e-01	0	40	0	315097088	65	5083
2026-01-11 11:06:32.89	122.10	27.08	-47.2	-49.9	22.4	6.04e-01	0	40	0	316669952	65	5074
2026-01-11 11:06:33.88	121.90	27.25	-47.1	-49.9	22.4	6.06e-01	0	40	0	318767104	65	5064
2026-01-11 11:06:34.87	121.70	27.42	-47.1	-49.9	22.4	6.09e-01	0	40	0	320864256	65	5073
2026-01-11 11:06:35.87	121.50	27.58	-47.0	-49.7	22.7	6.03e-01	0	40	0	322437120	65	4930
2026-01-11 11:06:36.86	121.29	27.75	-46.8	-49.5	22.8	6.06e-01	0	40	0	324534272	65	4851
2026-01-11 11:06:37.85	121.09	27.92	-46.9	-49.6	22.7	6.05e-01	0	40	0	326107136	65	4900
2026-01-11 11:06:38.84	120.88	28.09	-46.9	-49.6	22.7	6.07e-01	0	40	0	328204288	65	4915
2026-01-11 11:06:39.84	120.66	28.26	-46.8	-49.4	22.9	6.08e-01	0	40	0	329777152	65	4814
2026-01-11 11:06:40.83	120.45	28.44	-46.5	-49.2	23.1	6.07e-01	0	40	0	331874304	65	4670
2026-01-11 11:06:41.82	120.23	28.61	-46.5	-49.2	23.2	6.06e-01	0	40	0	333447168	64	4927
2026-01-11 11:06:42.82	120.01	28.78	-46.6	-49.3	23.0	6.05e-01	0	40	0	335544320	64	5030
2026-01-11 11:06:43.81	119.79	28.96	-46.3	-49.1	23.2	6.06e-01	0	40	0	337117184	64	4880
2026-01-11 11:06:44.80	119.56	29.13	-46.4	-49.2	23.1	6.09e-01	0	40	0	339214336	64	4974
2026-01-11 11:06:45.79	119.34	29.30	-46.6	-49.5	22.9	6.08e-01	0	40	0	341311488	64	5105
2026-01-11 11:06:46.79	119.11	29.48	-46.7	-49.5	22.8	6.04e-01	0	40	0	342884352	64	5133
2026-01-11 11:06:47.78	118.87	29.66	-46.7	-49.5	22.9	6.04e-01	0	40	0	344981504	64	5122
2026-01-11 11:06:48.77	118.64	29.83	-46.8	-49.6	22.7	6.07e-01	0	40	0	346554368	64	5181
2026-01-11 11:06:49.77	118.40	30.01	-46.6	-49.2	23.0	6.08e-01	0	40	0	348651520	64	4980
2026-01-11 11:06:50.76	118.16	30.19	-46.3	-48.9	23.4	6.07e-01	0	40	0	350224384	64	4762
2026-01-11 11:06:51.75	117.92	30.37	-46.2	-48.7	23.6	6.04e-01	0	40	0	352321536	64	4677
2026-01-11 11:06:52.75	117.67	30.55	-46.3	-48.9	23.4	6.07e-01	0	40	0	353894400	64	4768
2026-01-11 11:06:53.74	117.42	30.73	-46.4	-49.0	23.3	6.07e-01	0	40	0	355991552	64	4859
2026-01-11 11:06:54.73	117.17	30.91	-46.7	-49.4	22.9	6.07e-01	0	40	0	358088704	64	5090
2026-01-11 11:06:55.72	116.91	31.09	-46.7	-49.4	22.9	6.05e-01	0	40	0	359661568	64	5076
2026-01-11 11:06:56.72	116.65	31.28	-46.6	-49.3	23.0	6.06e-01	0	40	0	361758720	64	5015
2026-01-11 11:06:57.71	116.39	31.46	-46.6	-49.3	23.0	6.07e-01	0	40	0	363331584	64	5015
2026-01-11 11:06:58.70	116.13	31.64	-46.6	-49.3	23.0	6.06e-01	0	40	0	365428736	64	5005
2026-01-11 11:06:59.70	115.86	31.83	-46.5	-49.2	23.1	6.05e-01	0	40	0	367001600	64	4950
2026-01-11 11:07:00.69	115.59	32.01	-46.4	-49.1	23.2	6.08e-01	0	40	0	369098752	64	4921
2026-01-11 11:07:01.68	115.32	32.19	-46.3	-49.1	23.2	6.09e-01	0	40	0	370671616	64	4872
2026-01-11 11:07:02.67	115.04	32.38	-46.4	-49.2	21.7	6.05e-01	0	40	0	372768768	64	4948
2026-01-11 11:07:03.67	114.76	32.57	-46.7	-49.4	22.9	6.07e-01	0	40	0	374865920	64	5098
2026-01-11 11:07:04.66	114.48	32.75	-46.8	-49.5	22.8	6.05e-01	0	40	0	376438784	64	5143
2026-01-11 11:07:05.66	114.19	32.94	-46.7	-49.4	23.0	6.06e-01	0	40	0	378535936	64	5060
2026-01-11 11:07:06.65	113.90	33.13	-46.7	-49.4	22.9	6.07e-01	0	40	0	380108800	64	5073
2026-01-11 11:07:07.64	113.61	33.31	-46.7	-49.5	22.9	6.07e-01	0	40	0	382205952	64	5127
2026-01-11 11:07:08.64	113.31	33.50	-46.6	-49.5	22.9	6.07e-01	0	40	0	383778816	64	5116
2026-01-11 11:07:09.63	113.01	33.69	-46.6	-49.5	22.9	6.07e-01	0	40	0	385875968	64	5122
2026-01-11 11:07:10.62	112.70	33.88	-46.7	-49.6	22.8	6.07e-01	0	40	0	387448832	64	5161
2026-01-11 11:07:11.62	112.39	34.07	-46.9	-49.7	22.7	6.06e-01	0	40	0	389545984	64	5256
2026-01-11 11:07:12.61	112.08	34.26	-47.2	-50.0	22.4	6.08e-01	0	40	0	391118848	64	5435
2026-01-11 11:07:13.60	111.77	34.45	-47.3	-50.0	22.4	6.08e-01	0	40	0	393216000	65	5159
2026-01-11 11:07:14.59	111.45	34.63	-47.3	-50.1	22.3	6.07e-01	0	40	0	395313152	65	5197
2026-01-11 11:07:15.59	111.12	34.83	-47.3	-50.1	22.3	6.05e-01	0	40	0	396886016	65	5218
2026-01-11 11:07:16.58	110.79	35.01	-47.2	-49.9	22.5	6.06e-01	0	40	0	398983168	65	5084
2026-01-11 11:07:17.57	110.46	35.20	-47.2	-49.9	22.5	6.06e-01	0	40	0	400556032	65	5092
2026-01-11 11:07:18.57	110.13	35.40	-47.5	-50.3	22.1	6.06e-01	0	40	0	402653184	65	5331
2026-01-11 11:07:19.56	109.79	35.59	-47.7	-50.7	21.8	6.05e-01	0	40	0	404226048	66	5244
2026-01-11 11:07:20.55	109.45	35.78	-47.7	-50.7	21.8	6.07e-01	0	40	0	406323200	66	5229
2026-01-11 11:07:21.54	109.10	35.97	-47.7	-50.6	21.9	6.08e-01	0	40	0	407896064	66	5163
2026-01-11 11:07:22.54	108.75	36.16	-47.7	-50.5	21.9	6.09e-01	0	40	0	409993216	66	5154
2026-01-11 11:07:23.53	108.39	36.35	-47.6	-50.5	22.0	6.05e-01	0	40	0	412090368	66	5106
2026-01-11 11:07:24.52	108.03	36.54	-47.8	-50.7	21.8	6.09e-01	0	40	0	413663232	66	5255
2026-01-11 11:07:25.52	107.66	36.73	-47.9	-50.9	21.6	6.08e-01	0	40	0	415760384	66	5389
2026-01-11 11:07:26.51	107.30	36.92	-48.0	-51.1	21.5	6.05e-01	0	40	0	417333248	66	5474
2026-01-11 11:07:27.50	106.92	37.11	-47.9	-51.0	21.5	6.08e-01	0	40	0	419430400	66	5422
2026-01-11 11:07:28.49	106.55	37.30	-47.9	-51.0	21.5	6.06e-01	0	40	0	421003264	66	5428
2026-01-11 11:07:29.49	106.16	37.49	-47.9	-50.9	21.6	6.07e-01	0	40	0	423100416	66	5387
2026-01-11 11:07:30.48	105.78	37.68	-48.0	-51.0	21.5	6.08e-01	0	40	0	424673280	66	5456
2026-01-11 11:07:31.47	105.38	37.87	-48.2	-51.3	21.3	6.06e-01	0	40	0	426770432	66	5604
2026-01-11 11:07:32.47	104.99	38.06	-48.2	-51.3	21.2	6.07e-01	0	40	0	428867584	67	5324
2026-01-11 11:07:33.46	104.59	38.24	-48.2	-51.3	21.3	6.07e-01	0	40	0	430440448	67	5315
2026-01-11 11:07:34.45	104.18	38.43	-48.1	-51.2	21.3	6.08e-01	0	40	0	432537600	67	5270
2026-01-11 11:07:35.44	103.77	38.62	-48.0	-51.1	21.4	6.08e-01	0	40	0	434110464	67	5177
2026-01-11 11:07:36.43	103.36	38.80	-48.0	-51.2	21.3	6.10e-01	0	40	0	436207616	67	5276
2026-01-11 11:07:37.43	102.93	38.99	-48.1	-51.3	21.2	6.05e-01	0	40	0	437780480	67	5314
2026-01-11 11:07:38.42	102.51	39.17	-48.2	-51.3	21.2	6.06e-01	0	40	0	439877632	67	5337
2026-01-11 11:07:39.42	102.08	39.36	-48.3	-51.5	21.1	6.08e-01	0	40	0	441450496	67	5403
2026-01-11 11:07:40.41	101.64	39.54	-48.2	-51.2	21.3	6.09e-01	0	40	0	443547648	67	5276
2026-01-11 11:07:41.40	101.20	39.73	-48.0	-51.1	21.5	6.07e-01	0	40	0	445120512	67	5163
2026-01-11 11:07:42.39	100.76	39.91	-48.1	-51.2	21.4	6.05e-01	0	40	0	447217664	67	5227
2026-01-11 11:07:43.39	100.30	40.09	-48.1	-51.3	21.3	6.07e-01	0	40	0	449314816	67	5318
2026-01-11 11:07:44.38	99.85	40.27	-48.2	-51.4	21.1	6.04e-01	0	40	0	450887680	67	5388
2026-01-11 11:07:45.37	99.39	40.45	-48.2	-51.4	21.2	6.04e-01	0	40	0	452984832	67	5375
2026-01-11 11:07:46.37	98.92	40.63	-48.1	-51.1	21.4	6.07e-01	0	40	0	454557696	67	5205
2026-01-11 11:07:47.36	98.45	40.80	-47.8	-50.8	21.7	6.06e-01	0	40	0	456654848	67	5000
2026-01-11 11:07:48.35	97.98	40.98	-48.0	-51.0	21.5	6.08e-01	0	40	0	458227712	67	5121
2026-01-11 11:07:49.35	97.49	41.15	-48.1	-51.2	21.4	6.06e-01	0	40	0	460324864	67	5250
2026-01-11 11:07:50.34	97.01	41.32	-48.1	-51.2	21.3	6.07e-01	0	40	0	461897728	67	5265
2026-01-11 11:07:51.33	96.51	41.49	-47.9	-51.0	21.6	6.08e-01	0	40	0	463994880	67	5111
2026-01-11 11:07:52.33	96.01	41.66	-47.7	-50.7	21.8	6.08e-01	0	40	0	466092032	67	4971
2026-01-11 11:07:53.32	95.51	41.83	-47.8	-50.7	21.8	6.05e-01	0	40	0	467664896	67	4961
2026-01-11 11:07:54.31	95.00	42.00	-48.0	-51.0	21.5	6.06e-01	0	40	0	469762048	67	5132
2026-01-11 11:07:55.30	94.49	42.16	-47.9	-50.8	21.8	6.07e-01	0	40	0	471334912	67	5012
2026-01-11 11:07:56.30	93.97	42.32	-47.8	-50.8	21.7	6.05e-01	0	40	0	473432064	67	5004
2026-01-11 11:07:57.29	93.45	42.48	-47.6	-50.6	21.9	6.04e-01	0	40	0	475004928	67	4893
2026-01-11 11:07:58.28	92.92	42.64	-47.6	-50.6	21.9	6.07e-01	0	40	0	477102080	67	4898
2026-01-11 11:07:59.28	92.38	42.80	-47.7	-50.7	21.8	6.08e-01	0	40	0	478674944	67	4972
2026-01-11 11:08:00.27	91.84	42.95	-47.6	-50.6	21.9	6.07e-01	0	40	0	480772096	67	4913
2026-01-11 11:08:01.26	91.30	43.10	-47.7	-50.6	21.9	6.08e-01	0	40	0	482869248	67	4895
2026-01-11 11:08:02.26	90.74	43.25	-47.7	-50.6	21.9	6.08e-01	0	40	0	484442112	67	4902
2026-01-11 11:08:03.25	90.19	43.40	-47.7	-50.7	21.8	6.06e-01	0	40	0	486539264	67	4967
2026-01-11 11:08:04.24	89.63	43.55	-47.5	-50.6	21.9	6.07e-01	0	40	0	488112128	67	4899
2026-01-11 11:08:05.23	89.06	43.69	-47.5	-50.6	22.0	6.06e-01	0	40	0	490209280	66	5163
2026-01-11 11:08:06.23	88.49	43.83	-47.5	-50.6	21.9	6.06e-01	0	40	0	491782144	66	5179
2026-01-11 11:08:07.22	87.91	43.97	-47.5	-50.5	22.0	6.07e-01	0	40	0	493879296	66	5102
2026-01-11 11:08:08.21	87.33	44.10	-47.6	-50.6	21.9	6.06e-01	0	40	0	495452160	66	5204
2026-01-11 11:08:09.21	86.74	44.23	-47.3	-50.3	22.1	6.06e-01	0	40	0	497549312	66	5032
2026-01-11 11:08:10.20	86.15	44.36	-47.4	-50.5	22.0	6.05e-01	0	40	0	499122176	66	5132
2026-01-11 11:08:11.19	85.56	44.49	-47.5	-50.5	22.0	6.06e-01	0	40	0	501219328	66	5145
2026-01-11 11:08:12.19	84.95	44.61	-47.5	-50.5	22.0	6.07e-01	0	40	0	503316480	66	5132
2026-01-11 11:08:13.18	84.35	44.73	-47.3	-50.3	22.2	6.07e-01	0	40	0	504889344	66	5009
2026-01-11 11:08:14.17	83.74	44.85	-47.4	-50.6	21.9	6.07e-01	0	40	0	506986496	66	5186
2026-01-11 11:08:15.16	83.13	44.96	-47.5	-50.7	21.9	6.08e-01	0	40	0	508559360	66	5232
2026-01-11 11:08:16.16	82.51	45.07	-47.3	-50.3	22.2	6.07e-01	0	40	0	510656512	66	5035
2026-01-11 11:08:17.15	81.88	45.18	-47.5	-50.5	22.0	6.07e-01	0	40	0	512229376	66	5142
2026-01-11 11:08:18.14	81.26	45.28	-47.6	-50.5	22.0	6.07e-01	0	40	0	514326528	66	5136
2026-01-11 11:08:19.14	80.62	45.38	-47.7	-50.7	21.9	6.06e-01	0	40	0	515899392	66	5258
2026-01-11 11:08:20.13	79.99	45.47	-47.6	-50.6	21.9	6.05e-01	0	40	0	517996544	66	5198
2026-01-11 11:08:21.12	79.35	45.57	-47.5	-50.4	22.2	6.06e-01	0	40	0	520093696	66	5052
2026-01-11 11:08:22.11	78.71	45.66	-47.6	-50.5	22.0	6.08e-01	0	40	0	521666560	66	5152
2026-01-11 11:08:23.11	78.06	45.74	-47.8	-50.7	21.9	6.09e-01	0	40	0	523239424	66	5237
2026-01-11 11:08:24.10	77.41	45.82	-47.5	-50.3	22.2	6.07e-01	0	40	0	525336576	66	5011
2026-01-11 11:08:25.10	76.75	45.90	-47.8	-50.8	21.7	6.03e-01	0	40	0	527433728	66	5311
2026-01-11 11:08:26.09	76.10	45.97	-47.5	-50.4	22.1	6.09e-01	0	40	0	529006592	66	5086
2026-01-11 11:08:27.08	75.44	46.04	-47.5	-50.4	22.1	6.07e-01	0	40	0	531103744	66	5060
2026-01-11 11:08:28.07	74.78	46.11	-47.6	-50.6	22.0	6.04e-01	0	40	0	532676608	66	5168
2026-01-11 11:08:29.07	74.11	46.17	-47.3	-50.2	22.3	6.05e-01	0	40	0	534773760	66	4952
2026-01-11 11:08:30.06	73.44	46.23	-47.5	-50.4	22.1	6.06e-01	0	40	0	536346624	66	5081
2026-01-11 11:08:31.05	72.78	46.28	-47.6	-50.5	22.0	6.08e-01	0	40	0	538443776	66	5156
2026-01-11 11:08:32.05	72.10	46.33	-47.6	-50.4	22.1	6.08e-01	0	40	0	540016640	66	5091
2026-01-11 11:08:33.04	71.43	46.37	-47.6	-50.5	22.0	6.05e-01	0	40	0	542113792	66	5132
2026-01-11 11:08:34.03	70.75	46.41	-47.9	-50.9	21.7	6.09e-01	0	40	0	544210944	66	5343
2026-01-11 11:08:35.02	70.08	46.45	-47.7	-50.6	22.0	6.06e-01	0	40	0	545783808	66	5170
2026-01-11 11:08:36.02	69.39	46.48	-47.8	-50.7	21.9	6.06e-01	0	40	0	547880960	66	5252
2026-01-11 11:08:37.01	68.72	46.51	-47.7	-50.7	21.9	6.06e-01	0	40	0	549453824	66	5236
2026-01-11 11:08:38.00	68.04	46.53	-47.6	-50.5	22.0	6.06e-01	0	40	0	551550976	66	5156
2026-01-11 11:08:39.00	67.35	46.55	-47.5	-50.4	22.1	6.08e-01	0	40	0	553123840	66	5074
2026-01-11 11:08:39.99	66.67	46.56	-47.4	-50.2	22.3	6.06e-01	0	40	0	555220992	66	4958
2026-01-11 11:08:40.98	65.99	46.57	-47.4	-50.3	22.3	6.08e-01	0	40	0	557318144	66	4999
2026-01-11 11:08:41.97	65.30	46.58	-47.5	-50.4	22.2	6.07e-01	0	40	0	558891008	66	5044
2026-01-11 11:08:42.97	64.62	46.58	-47.6	-50.5	22.1	6.08e-01	0	40	0	560988160	66	5111
2026-01-11 11:08:43.96	63.93	46.57	-47.5	-50.2	22.2	6.08e-01	0	40	0	562561024	66	4970
2026-01-11 11:08:44.95	63.25	46.56	-47.3	-50.1	22.4	6.07e-01	0	40	0	564658176	66	4894
2026-01-11 11:08:45.95	62.56	46.55	-47.6	-50.5	22.1	6.07e-01	0	40	0	566231040	66	5114
2026-01-11 11:08:46.94	61.88	46.53	-47.5	-50.4	22.1	6.07e-01	0	40	0	568328192	66	5073
2026-01-11 11:08:47.93	61.20	46.51	-47.3	-50.1	22.4	6.08e-01	0	40	0	569901056	66	4888
2026-01-11 11:08:48.93	60.52	46.49	-47.5	-50.3	22.2	6.05e-01	0	40	0	571998208	66	5039
2026-01-11 11:08:49.92	59.84	46.46	-47.6	-50.4	22.0	6.07e-01	0	40	0	574095360	66	5100
2026-01-11 11:08:50.91	59.17	46.42	-47.4	-50.1	22.4	6.06e-01	0	40	0	575668224	66	4918
2026-01-11 11:08:51.91	58.49	46.38	-47.4	-50.2	22.3	6.04e-01	0	40	0	577241088	66	4948
2026-01-11 11:08:52.90	57.81	46.34	-47.5	-50.2	22.3	6.07e-01	0	40	0	579338240	66	4980
2026-01-11 11:08:53.89	57.14	46.29	-47.6	-50.4	22.1	6.07e-01	0	40	0	581435392	66	5082
2026-01-11 11:08:54.88	56.47	46.24	-47.0	-49.6	22.8	6.07e-01	0	40	0	583008256	66	4649
2026-01-11 11:08:55.88	55.80	46.19	-47.2	-49.9	22.6	6.08e-01	0	40	0	585105408	65	5084
2026-01-11 11:08:56.87	55.14	46.13	-47.6	-50.6	22.0	6.06e-01	0	40	0	586678272	65	5474
2026-01-11 11:08:57.86	54.48	46.06	-47.0	-49.7	22.7	6.06e-01	0	40	0	588775424	65	4980
2026-01-11 11:08:58.86	53.81	45.99	-47.0	-49.7	22.8	6.07e-01	0	40	0	590348288	65	4930
2026-01-11 11:08:59.85	53.16	45.92	-47.3	-50.0	22.5	6.06e-01	0	40	0	592445440	65	5155
2026-01-11 11:09:00.84	52.51	45.85	-47.2	-50.0	22.5	6.07e-01	0	40	0	594018304	65	5116
2026-01-11 11:09:01.84	51.85	45.77	-47.0	-49.7	22.7	6.08e-01	0	40	0	596115456	65	4966
2026-01-11 11:09:02.83	51.21	45.68	-47.1	-49.9	22.6	6.07e-01	0	40	0	598212608	65	5050
2026-01-11 11:09:03.82	50.57	45.59	-47.1	-49.9	22.6	6.07e-01	0	40	0	599785472	65	5054
2026-01-11 11:09:04.81	49.93	45.50	-47.3	-50.1	22.4	6.08e-01	0	40	0	601882624	65	5191
2026-01-11 11:09:05.80	49.29	45.41	-47.2	-49.9	22.5	6.09e-01	0	40	0	603455488	65	5076
2026-01-11 11:09:06.80	48.66	45.31	-47.1	-49.9	22.7	6.07e-01	0	40	0	605552640	65	5061
2026-01-11 11:09:07.79	48.03	45.21	-47.3	-50.1	22.4	6.07e-01	0	40	0	607125504	65	5205
2026-01-11 11:09:08.78	47.41	45.10	-47.2	-50.1	22.4	6.07e-01	0	40	0	609222656	65	5178
2026-01-11 11:09:09.78	46.79	44.99	-47.1	-49.8	22.7	6.06e-01	0	40	0	611319808	65	5006
2026-01-11 11:09:10.77	46.17	44.88	-47.0	-49.7	22.7	6.07e-01	0	40	0	612892672	65	4948
2026-01-11 11:09:11.76	45.57	44.77	-47.3	-50.0	22.5	6.08e-01	0	40	0	614989824	65	5132
2026-01-11 11:09:12.76	44.96	44.65	-47.4	-50.2	22.3	6.08e-01	0	40	0	616562688	65	5235
2026-01-11 11:09:13.75	44.36	44.53	-47.1	-49.9	22.6	6.08e-01	0	40	0	618659840	65	5044
2026-01-11 11:09:14.74	43.76	44.40	-47.3	-50.0	22.4	6.07e-01	0	40	0	620232704	65	5155
2026-01-11 11:09:15.73	43.17	44.27	-47.1	-49.8	22.6	6.06e-01	0	40	0	622329856	65	5029
2026-01-11 11:09:16.73	42.58	44.14	-47.3	-50.1	22.4	6.05e-01	0	40	0	623902720	65	5185
2026-01-11 11:09:17.72	42.00	44.01	-47.0	-49.8	22.6	6.07e-01	0	40	0	625999872	65	5004
2026-01-11 11:09:18.71	41.43	43.87	-46.9	-49.6	22.9	6.05e-01	0	40	0	628097024	65	4880
2026-01-11 11:09:19.71	40.85	43.73	-46.9	-49.6	22.9	6.07e-01	0	40	0	629669888	65	4901
2026-01-11 11:09:20.70	40.28	43.59	-47.2	-50.0	22.5	6.06e-01	0	40	0	631242752	65	5127
2026-01-11 11:09:21.69	39.72	43.45	-46.9	-49.6	22.9	6.05e-01	0	40	0	633339904	65	4883
2026-01-11 11:09:22.69	39.16	43.30	-47.2	-50.0	22.5	6.07e-01	0	40	0	635437056	65	5144
2026-01-11 11:09:23.68	38.62	43.16	-47.1	-49.9	22.6	6.07e-01	0	40	0	637009920	65	5047
2026-01-11 11:09:24.67	38.07	43.00	-47.1	-49.9	22.5	6.09e-01	0	40	0	639107072	65	5080
2026-01-11 11:09:25.66	37.53	42.85	-47.2	-50.0	22.5	6.06e-01	0	40	0	640679936	65	5149
2026-01-11 11:09:26.66	36.99	42.70	-47.0	-49.7	22.7	6.06e-01	0	40	0	642777088	65	4982
2026-01-11 11:09:27.65	36.46	42.54	-47.1	-50.0	22.5	6.07e-01	0	40	0	644349952	65	5151
2026-01-11 11:09:28.64	35.94	42.38	-47.5	-50.6	21.9	6.07e-01	0	40	0	646447104	65	5511
2026-01-11 11:09:29.64	35.42	42.22	-47.2	-50.2	22.3	6.07e-01	0	40	0	648019968	65	5259
2026-01-11 11:09:30.63	34.91	42.05	-47.2	-50.2	22.3	6.06e-01	0	40	0	650117120	65	5250
2026-01-11 11:09:31.62	34.40	41.89	-47.1	-50.1	22.3	6.06e-01	0	40	0	652214272	65	5215
2026-01-11 11:09:32.61	33.90	41.72	-47.2	-50.3	22.3	6.08e-01	0	40	0	653787136	65	5303
2026-01-11 11:09:33.61	33.40	41.56	-47.6	-51.0	21.6	6.06e-01	0	40	0	655884288	65	5731
2026-01-11 11:09:34.60	32.90	41.39	-47.5	-50.7	21.8	6.05e-01	0	40	0	657457152	65	5558
2026-01-11 11:09:35.59	32.42	41.22	-47.9	-60.2	3.7	7.47e-01	0	40	104	659030016	66	15701
2026-01-11 11:09:36.59	31.93	41.04	-48.0	-60.4	3.9	7.43e-01	0	40	104	659030016	66	16065
2026-01-11 11:09:37.58	31.46	40.87	-48.0	-60.4	3.9	7.45e-01	0	40	104	659030016	66	15989
2026-01-11 11:09:38.57	30.99	40.69	-48.4	-61.2	3.8	7.46e-01	0	40	104	659030016	67	16658
2026-01-11 11:09:39.57	30.52	40.52	-47.9	-60.4	3.9	7.41e-01	0	40	104	659030016	67	15173
2026-01-11 11:09:40.56	30.06	40.34	-52.1	-68.9	3.7	7.54e-01	0	41	104	659030016	74	26775
2026-01-11 11:09:41.55	29.60	40.16	-51.5	-68.2	4.1	7.39e-01	0	41	104	659030016	75	23439
2026-01-11 11:09:42.54	29.15	39.98	-49.5	-63.3	3.9	7.43e-01	0	40	104	659030016	69	18824
2026-01-11 11:09:43.54	28.70	39.80	-49.7	-63.3	3.8	7.47e-01	0	40	104	659030016	71	16854
2026-01-11 11:09:44.53	28.27	39.62	-48.9	-61.5	3.9	7.48e-01	0	40	104	659030016	69	15389
2026-01-11 11:09:45.52	27.83	39.44	-48.9	-61.5	3.8	7.48e-01	0	41	104	659030016	69	15354
2026-01-11 11:09:46.52	27.40	39.25	-48.9	-61.5	3.8	7.49e-01	0	40	104	659030016	69	15277
2026-01-11 11:09:47.51	26.97	39.07	-49.4	-62.1	3.9	7.42e-01	0	41	104	659030016	69	16407
2026-01-11 11:09:48.50	26.55	38.88	-49.4	-62.2	3.8	7.42e-01	0	40	104	659030016	70	15669
2026-01-11 11:09:49.50	26.14	38.70	-52.6	-68.1	3.7	7.47e-01	0	40	104	659030016	75	23297
2026-01-11 11:09:50.49	25.73	38.51	-53.2	-70.9	3.9	7.38e-01	0	41	104	659030016	78	26812
2026-01-11 11:09:51.48	25.32	38.33	-49.7	-62.6	3.5	7.54e-01	0	40	104	659030016	70	16457
2026-01-11 11:09:52.47	24.92	38.14	-50.6	-64.5	4.1	7.37e-01	0	41	104	659030016	73	17122
2026-01-11 11:09:53.47	24.52	37.95	-49.2	-62.1	4.1	7.36e-01	0	40	104	659030016	70	15422
2026-01-11 11:09:54.46	24.13	37.76	-49.1	-61.8	3.5	7.57e-01	0	41	104	659030016	70	14965
2026-01-11 11:09:55.45	23.74	37.57	-48.8	-61.1	4.0	7.37e-01	0	41	104	659030016	69	14684
2026-01-11 11:09:56.45	23.36	37.38	-49.2	-61.7	3.8	7.48e-01	0	40	104	659030016	69	15700
2026-01-11 11:09:57.44	22.98	37.20	-49.6	-62.4	3.8	7.47e-01	0	40	104	659030016	71	15212
2026-01-11 11:09:58.43	22.61	37.01	-51.9	-66.8	3.8	7.45e-01	0	40	104	659030016	74	21140
2026-01-11 11:09:59.43	22.24	36.82	-53.4	-72.3	3.8	7.41e-01	0	40	104	659030016	78	31527
2026-01-11 11:10:00.42	21.87	36.63	-49.3	-62.3	3.8	7.45e-01	0	41	104	659030016	70	15892
2026-01-11 11:10:01.41	21.51	36.44	-50.7	-65.5	3.9	7.42e-01	0	40	104	659030016	73	19251
2026-01-11 11:10:02.40	21.16	36.25	-48.7	-61.7	3.8	7.45e-01	0	41	104	659030016	69	15678
2026-01-11 11:10:03.40	20.80	36.06	-48.5	-61.5	3.8	7.48e-01	0	41	104	659030016	69	15318
2026-01-11 11:10:04.39	20.46	35.87	-48.5	-61.3	3.8	7.44e-01	0	40	104	659030016	68	15842
2026-01-11 11:10:05.38	20.12	35.68	-48.5	-61.2	3.8	7.46e-01	0	41	104	659030016	68	15757
2026-01-11 11:10:06.37	19.78	35.49	-48.8	-62.0	3.8	7.47e-01	0	40	104	659030016	69	16131
2026-01-11 11:10:07.37	19.44	35.30	-50.9	-65.0	3.8	7.44e-01	0	40	104	659030016	72	19302
2026-01-11 11:10:08.36	19.11	35.11	-53.0	-73.0	3.8	7.40e-01	0	40	104	659030016	76	38627
2026-01-11 11:10:09.35	18.78	34.92	-48.8	-61.4	3.8	7.46e-01	0	41	104	659030016	69	15075
2026-01-11 11:10:10.35	18.46	34.73	-51.1	-65.3	3.9	7.43e-01	0	41	104	659030016	74	17701
2026-01-11 11:10:11.34	18.14	34.54	-48.8	-61.4	3.8	7.46e-01	0	41	104	659030016	69	15138
2026-01-11 11:10:12.33	17.82	34.36	-48.5	-60.8	3.8	7.45e-01	0	41	104	659030016	69	14111
2026-01-11 11:10:13.33	17.51	34.17	-48.4	-60.7	3.8	7.46e-01	0	41	104	659030016	68	14783
2026-01-11 11:10:14.32	17.20	33.98	-48.3	-60.7	3.8	7.47e-01	0	40	104	659030016	68	14835
2026-01-11 11:10:15.31	16.90	33.79	-50.9	-64.8	3.9	7.41e-01	0	41	104	659030016	73	17763
2026-01-11 11:10:16.31	16.60	33.60	-49.7	-63.0	3.8	7.47e-01	0	40	104	659030016	70	17244
2026-01-11 11:10:17.30	16.30	33.42	-53.6	-73.7	3.8	7.46e-01	0	41	104	659030016	77	39296
2026-01-11 11:10:18.29	16.01	33.23	-48.4	-60.9	3.8	7.43e-01	0	41	104	659030016	68	15194
2026-01-11 11:10:19.29	15.71	33.04	-51.0	-64.5	3.8	7.45e-01	0	40	104	659030016	73	17262
2026-01-11 11:10:20.28	15.43	32.86	-48.1	-60.1	3.8	7.46e-01	0	41	104	659030016	68	13868
2026-01-11 11:10:21.27	15.14	32.67	-48.2	-60.9	3.8	7.45e-01	0	40	104	659030016	68	15115
2026-01-11 11:10:22.26	14.87	32.49	-48.1	-60.7	3.8	7.40e-01	0	40	104	659030016	68	14834
2026-01-11 11:10:23.26	14.59	32.30	-48.2	-60.5	3.8	7.45e-01	0	40	104	659030016	68	14521
2026-01-11 11:10:24.25	14.31	32.12	-47.9	-60.0	3.8	7.47e-01	0	40	104	659030016	67	14497
2026-01-11 11:10:25.24	14.04	31.94	-49.0	-61.7	3.8	7.44e-01	0	40	104	659030016	68	16693
2026-01-11 11:10:26.24	13.77	31.75	-53.5	-73.7	3.8	7.45e-01	0	40	104	659030016	77	39437
2026-01-11 11:10:27.23	13.51	31.57	-48.1	-60.5	3.8	7.47e-01	0	41	104	659030016	68	14475
2026-01-11 11:10:28.22	13.25	31.39	-50.6	-64.5	3.8	7.42e-01	0	40	104	659030016	72	18176
2026-01-11 11:10:29.21	12.99	31.21	-47.8	-60.2	3.8	7.46e-01	0	40	104	659030016	67	14868
2026-01-11 11:10:30.21	12.74	31.02	-47.6	-60.1	3.8	7.46e-01	0	41	104	659030016	67	14621
2026-01-11 11:10:31.20	12.49	30.84	-47.6	-60.0	3.8	7.46e-01	0	41	104	659030016	67	14456
2026-01-11 11:10:32.19	12.24	30.67	-47.4	-59.5	3.8	7.41e-01	0	41	104	659030016	66	14412
2026-01-11 11:10:33.19	11.99	30.48	-48.4	-60.7	3.8	7.46e-01	0	41	104	659030016	67	15612
2026-01-11 11:10:34.18	11.75	30.31	-48.4	-60.8	3.8	7.46e-01	0	40	104	659030016	67	15925
2026-01-11 11:10:35.17	11.51	30.13	-53.3	-73.7	3.8	7.46e-01	0	41	104	659030016	77	39528
2026-01-11 11:10:36.16	11.27	29.95	-48.3	-60.7	3.8	7.42e-01	0	41	104	659030016	68	14716
2026-01-11 11:10:37.16	11.03	29.78	-50.9	-64.5	3.8	7.46e-01	0	41	104	659030016	72	18098
2026-01-11 11:10:38.15	10.80	29.60	-47.9	-60.0	3.8	7.48e-01	0	41	104	659030016	67	14435
2026-01-11 11:10:39.14	10.57	29.42	-47.7	-60.0	3.8	7.46e-01	0	41	104	659030016	67	14517
2026-01-11 11:10:40.13	10.34	29.25	-47.6	-60.0	3.8	7.44e-01	0	41	104	659030016	67	14428
2026-01-11 11:10:41.13	10.12	29.08	-47.4	-59.5	3.8	7.46e-01	0	40	104	659030016	66	14512
2026-01-11 11:10:42.12	9.90	28.90	-48.9	-61.5	3.8	7.46e-01	0	41	104	659030016	68	16188
2026-01-11 11:10:43.11	9.68	28.73	-48.2	-60.4	3.8	7.46e-01	0	41	104	659030016	66	16096
2026-01-11 11:10:44.11	9.46	28.56	-53.8	-73.7	3.8	7.46e-01	0	41	104	659030016	78	37298
2026-01-11 11:10:45.10	9.24	28.39	-48.4	-60.8	3.8	7.45e-01	0	41	104	659030016	68	14946
2026-01-11 11:10:46.09	9.03	28.22	-50.8	-64.4	3.8	7.42e-01	0	40	104	659030016	72	18044
2026-01-11 11:10:47.08	8.82	28.05	-48.1	-60.1	3.8	7.43e-01	0	41	104	659030016	68	13857
2026-01-11 11:10:48.08	8.61	27.88	-47.9	-59.8	3.8	7.45e-01	0	41	104	659030016	67	14171
2026-01-11 11:10:49.07	8.41	27.71	-47.6	-59.7	3.8	7.44e-01	0	41	104	659030016	67	14044
2026-01-11 11:10:50.06	8.21	27.54	-47.6	-60.0	3.8	7.44e-01	0	41	104	659030016	67	14420
2026-01-11 11:10:51.06	8.00	27.37	-48.2	-60.7	3.8	7.42e-01	0	41	104	659030016	67	15693
2026-01-11 11:10:52.05	7.81	27.21	-48.1	-60.3	3.8	7.43e-01	0	41	104	659030016	67	14918
2026-01-11 11:10:53.04	7.61	27.04	-53.7	-73.7	3.8	7.45e-01	0	41	104	659030016	78	37025
2026-01-11 11:10:54.03	7.42	26.88	-48.6	-60.8	3.8	7.46e-01	0	40	104	659030016	69	14097
2026-01-11 11:10:55.03	7.22	26.71	-50.6	-64.1	3.8	7.46e-01	0	41	104	659030016	71	18353
2026-01-11 11:10:56.02	7.03	26.55	-48.1	-60.5	3.8	7.43e-01	0	41	104	659030016	68	14380
2026-01-11 11:10:57.01	6.85	26.39	-48.0	-60.4	3.8	7.47e-01	0	40	104	659030016	68	14332
2026-01-11 11:10:58.01	6.66	26.23	-47.7	-60.0	3.8	7.45e-01	0	41	104	659030016	67	14492
2026-01-11 11:10:59.00	6.48	26.07	-47.7	-59.9	3.8	7.47e-01	0	41	104	659030016	67	14261
2026-01-11 11:10:59.99	6.29	25.91	-49.2	-61.6	3.8	7.45e-01	0	41	104	659030016	68	16448
2026-01-11 11:11:00.99	6.11	25.74	-48.0	-60.1	3.8	7.44e-01	0	41	104	659030016	67	14636
2026-01-11 11:11:01.98	5.93	25.59	-53.6	-73.7	3.8	7.49e-01	0	41	104	659030016	77	39166
2026-01-11 11:11:02.97	5.76	25.43	-49.0	-61.6	3.8	7.46e-01	0	41	104	659030016	70	14684
2026-01-11 11:11:03.96	5.58	25.27	-50.5	-64.1	3.8	7.44e-01	0	41	104	659030016	71	18400
2026-01-11 11:11:04.95	5.41	25.11	-48.3	-60.8	3.8	7.44e-01	0	41	104	659030016	68	14925
2026-01-11 11:11:05.95	5.24	24.96	-48.2	-60.6	3.8	7.42e-01	0	41	104	659030016	68	14579
2026-01-11 11:11:06.94	5.07	24.80	-48.2	-60.4	3.8	7.44e-01	0	41	104	659030016	68	14322
2026-01-11 11:11:07.93	4.90	24.65	-48.0	-60.2	3.8	7.47e-01	0	41	104	659030016	68	13969
2026-01-11 11:11:08.93	4.74	24.49	-48.1	-60.4	3.8	7.44e-01	0	41	104	659030016	67	15181
2026-01-11 11:11:09.92	4.57	24.34	-47.9	-60.2	3.8	7.44e-01	0	41	104	659030016	67	14762
2026-01-11 11:11:10.91	4.41	24.19	-53.8	-73.5	3.7	7.45e-01	0	41	104	659030016	78	36317
2026-01-11 11:11:11.91	4.25	24.04	-48.9	-61.6	3.8	7.45e-01	0	41	104	659030016	69	15475
2026-01-11 11:11:12.90	4.09	23.89	-49.6	-62.7	3.8	7.47e-01	0	41	104	659030016	69	17608
2026-01-11 11:11:13.89	3.94	23.74	-48.0	-60.4	3.8	7.46e-01	0	41	104	659030016	68	14258
2026-01-11 11:11:14.88	3.78	23.59	-48.0	-60.4	3.8	7.45e-01	0	41	104	659030016	68	14328
2026-01-11 11:11:15.88	3.62	23.44	-47.8	-60.4	3.8	7.45e-01	0	41	104	659030016	67	15122
2026-01-11 11:11:16.87	3.47	23.29	-47.6	-60.4	3.8	7.44e-01	0	41	104	659030016	67	15156
2026-01-11 11:11:17.86	3.32	23.14	-48.1	-61.2	3.8	7.46e-01	0	41	104	659030016	66	17672
2026-01-11 11:11:18.86	3.17	22.99	-47.3	-60.1	3.8	7.44e-01	0	41	104	659030016	66	15540
2026-01-11 11:11:19.85	3.02	22.85	-52.7	-72.5	3.7	7.50e-01	0	41	104	659030016	75	38352
2026-01-11 11:11:20.84	2.88	22.70	-48.6	-61.9	3.8	7.46e-01	0	41	104	659030016	69	15966
2026-01-11 11:11:21.84	2.73	22.56	-48.5	-62.0	3.8	7.45e-01	0	41	104	659030016	67	18275
2026-01-11 11:11:22.83	2.59	22.41	-47.8	-60.9	3.8	7.47e-01	0	41	104	659030016	67	16028
2026-01-11 11:11:23.82	2.45	22.27	-47.6	-60.6	3.8	7.47e-01	0	41	104	659030016	67	15502
2026-01-11 11:11:24.81	2.31	22.13	-47.6	-60.4	3.8	7.46e-01	0	41	104	659030016	67	15176
2026-01-11 11:11:25.81	2.17	21.99	-47.6	-60.2	3.8	7.44e-01	0	41	104	659030016	67	14818
2026-01-11 11:11:26.80	2.03	21.85	-47.6	-59.8	3.8	7.44e-01	0	41	104	659030016	67	14183
2026-01-11 11:11:27.79	1.89	21.71	-47.6	-59.7	3.8	7.48e-01	0	41	104	659030016	67	14038
2026-01-11 11:11:28.78	1.76	21.57	-52.0	-71.4	3.7	7.51e-01	0	41	104	659030016	74	35922
2026-01-11 11:11:29.78	1.62	21.43	-49.1	-62.0	3.8	7.44e-01	0	41	104	659030016	70	15289
2026-01-11 11:11:30.77	1.49	21.29	-48.6	-61.3	3.8	7.46e-01	0	40	104	659030016	67	16846
2026-01-11 11:11:31.76	1.36	21.15	-48.1	-60.8	3.8	7.46e-01	0	41	104	659030016	68	14957
2026-01-11 11:11:32.76	1.23	21.01	-47.8	-60.6	3.8	7.45e-01	0	41	104	659030016	67	15424
2026-01-11 11:11:33.75	1.10	20.88	-47.7	-60.3	3.8	7.46e-01	0	41	104	659030016	67	14974
2026-01-11 11:11:34.74	0.97	20.74	-47.8	-60.2	3.8	7.45e-01	0	41	104	659030016	67	14822
2026-01-11 11:11:35.73	0.84	20.61	-48.6	-61.2	3.8	7.43e-01	0	41	104	659030016	67	16595
2026-01-11 11:11:36.73	0.72	20.47	-47.6	-59.8	3.8	7.43e-01	0	41	104	659030016	67	14185
2026-01-11 11:11:37.72	0.59	20.34	-52.3	-69.9	3.7	7.47e-01	0	41	104	659030016	75	28411
2026-01-11 11:11:38.71	0.47	20.21	-49.6	-62.7	3.8	7.44e-01	0	41	104	659030016	71	15626
2026-01-11 11:11:39.71	0.35	20.07	-48.2	-60.5	3.8	7.47e-01	0	41	104	659030016	67	15316
2026-01-11 11:11:40.70	0.23	19.94	-48.3	-60.7	3.8	7.45e-01	0	41	104	659030016	68	14839
2026-01-11 11:11:41.69	0.11	19.81	-48.0	-60.4	3.8	7.49e-01	0	41	104	659030016	68	14245
2026-01-11 11:11:42.69	359.99	19.68	-47.9	-60.3	3.8	7.41e-01	0	40	104	659030016	67	14971
2026-01-11 11:11:43.68	359.87	19.55	-47.7	-60.0	3.8	7.47e-01	0	41	104	659030016	67	14502
2026-01-11 11:11:44.67	359.76	19.42	-48.1	-60.5	3.8	7.45e-01	0	41	104	659030016	67	15319
2026-01-11 11:11:45.67	359.64	19.29	-47.7	-60.0	3.8	7.48e-01	0	41	104	659030016	67	14472
2026-01-11 11:11:46.66	359.53	19.16	-52.0	-67.4	3.8	7.48e-01	0	41	104	659030016	74	22615
2026-01-11 11:11:47.65	359.41	19.03	-50.3	-63.8	3.9	7.44e-01	0	41	104	659030016	72	16803
2026-01-11 11:11:48.64	359.30	18.91	-47.7	-60.5	3.8	7.45e-01	0	41	104	659030016	67	15362
2026-01-11 11:11:49.64	359.19	18.78	-47.6	-60.7	3.8	7.47e-01	0	41	104	659030016	67	15689
2026-01-11 11:11:50.63	359.08	18.66	-47.3	-60.3	3.8	7.49e-01	0	41	104	659030016	66	15895
2026-01-11 11:11:51.62	358.97	18.53	-47.2	-60.3	3.8	7.47e-01	0	41	104	659030016	66	15817
2026-01-11 11:11:52.62	358.86	18.41	-47.2	-60.3	3.8	7.48e-01	0	41	104	659030016	66	15796
2026-01-11 11:11:53.61	358.75	18.28	-47.2	-60.2	3.8	7.45e-01	0	41	104	659030016	66	15605
2026-01-11 11:11:54.60	358.65	18.16	-47.3	-60.0	3.8	7.47e-01	0	41	104	659030016	66	15381
2026-01-11 11:11:55.59	358.54	18.04	-50.0	-65.5	3.8	7.50e-01	0	41	104	659030016	70	23025
2026-01-11 11:11:56.59	358.44	17.91	-49.5	-64.8	3.9	7.45e-01	0	41	104	659030016	71	19848
2026-01-11 11:11:57.58	358.33	17.79	-47.6	-60.2	3.9	7.44e-01	0	41	104	659030016	67	14762
2026-01-11 11:11:58.57	358.23	17.67	-48.0	-60.8	3.8	7.48e-01	0	41	104	659030016	68	14901
2026-01-11 11:11:59.56	358.13	17.55	-47.5	-60.0	3.8	7.46e-01	0	41	104	659030016	67	14438
2026-01-11 11:12:00.56	358.03	17.43	-47.4	-60.0	3.8	7.47e-01	0	41	104	659030016	66	15234
2026-01-11 11:12:01.55	357.93	17.31	-47.3	-60.0	3.8	7.46e-01	0	41	104	659030016	66	15275
2026-01-11 11:12:02.54	357.83	17.19	-47.4	-60.0	3.8	7.47e-01	0	40	104	659030016	66	15397
2026-01-11 11:12:03.54	357.73	17.07	-47.4	-59.8	3.8	7.42e-01	0	41	104	659030016	66	15016
2026-01-11 11:12:04.53	357.63	16.96	-50.1	-64.2	3.8	7.45e-01	0	40	104	659030016	70	19738
2026-01-11 11:12:05.52	357.54	16.84	-50.7	-66.1	3.9	7.45e-01	0	41	104	659030016	73	20563
2026-01-11 11:12:06.51	357.44	16.72	-47.7	-60.1	3.8	7.44e-01	0	41	104	659030016	67	14589
2026-01-11 11:12:07.51	357.35	16.61	-48.1	-60.7	3.9	7.42e-01	0	41	104	659030016	67	15699
2026-01-11 11:12:08.50	357.25	16.49	-47.6	-59.9	3.8	7.46e-01	0	41	104	659030016	67	14321
2026-01-11 11:12:09.49	357.16	16.38	-47.4	-60.0	3.8	7.45e-01	0	41	104	659030016	66	15254
2026-01-11 11:12:10.49	357.07	16.26	-47.3	-60.1	3.8	7.47e-01	0	41	104	659030016	66	15530
2026-01-11 11:12:11.48	356.98	16.15	-47.2	-60.2	3.8	7.41e-01	0	41	104	659030016	66	15669
2026-01-11 11:12:12.47	356.88	16.03	-47.2	-60.3	3.8	7.45e-01	0	41	104	659030016	66	15842
2026-01-11 11:12:13.47	356.79	15.92	-49.2	-63.2	3.8	7.52e-01	0	41	104	659030016	68	19748
2026-01-11 11:12:14.46	356.70	15.81	-51.4	-69.1	3.9	7.42e-01	0	41	104	659030016	75	25925
2026-01-11 11:12:15.45	356.62	15.69	-47.5	-60.7	3.9	7.46e-01	0	41	104	659030016	67	15749
2026-01-11 11:12:16.44	356.53	15.58	-48.0	-60.8	3.9	7.45e-01	0	41	104	659030016	67	15801
2026-01-11 11:12:17.43	356.44	15.47	-47.5	-60.1	3.8	7.46e-01	0	41	104	659030016	66	15562
2026-01-11 11:12:18.43	356.35	15.36	-47.7	-60.1	3.8	7.43e-01	0	41	104	659030016	66	15486
2026-01-11 11:12:19.42	356.27	15.25	-47.7	-60.1	3.8	7.41e-01	0	41	104	659030016	66	15530
2026-01-11 11:12:20.41	356.18	15.14	-47.7	-60.1	3.8	7.48e-01	0	41	104	659030016	66	15481
2026-01-11 11:12:21.41	356.10	15.03	-47.7	-60.1	3.8	7.45e-01	0	41	104	659030016	66	15447
2026-01-11 11:12:22.40	356.01	14.92	-48.5	-61.2	3.8	7.47e-01	0	41	104	659030016	67	16560
2026-01-11 11:12:23.39	355.93	14.82	-52.1	-70.2	3.9	7.40e-01	0	41	104	659030016	75	29622
2026-01-11 11:12:24.39	355.85	14.71	-48.3	-61.0	3.9	7.45e-01	0	41	104	659030016	68	15329
2026-01-11 11:12:25.38	355.77	14.60	-47.9	-60.7	3.8	7.46e-01	0	41	104	659030016	67	15634
2026-01-11 11:12:26.37	355.69	14.49	-47.5	-60.1	3.8	7.46e-01	0	41	104	659030016	66	15430
2026-01-11 11:12:27.37	355.61	14.39	-47.6	-60.1	3.8	7.45e-01	0	41	104	659030016	66	15466
2026-01-11 11:12:28.36	355.53	14.28	-47.8	-60.1	3.8	7.48e-01	0	41	104	659030016	66	15571
2026-01-11 11:12:29.35	355.45	14.18	-47.8	-60.1	3.9	7.46e-01	0	41	104	659030016	66	15565
2026-01-11 11:12:30.34	355.37	14.07	-47.9	-60.2	3.8	7.41e-01	0	41	104	659030016	66	15591
2026-01-11 11:12:31.34	355.29	13.97	-48.3	-60.9	3.8	7.43e-01	0	41	104	659030016	67	15973
2026-01-11 11:12:32.33	355.21	13.86	-52.2	-71.2	3.9	7.45e-01	0	41	104	659030016	75	33003
2026-01-11 11:12:33.32	355.14	13.76	-48.8	-61.4	3.8	7.49e-01	0	41	104	659030016	69	15198
2026-01-11 11:12:34.31	355.06	13.66	-48.3	-61.0	3.9	7.41e-01	0	41	104	659030016	67	16239
2026-01-11 11:12:35.31	354.98	13.55	-47.7	-60.2	3.8	7.44e-01	0	41	104	659030016	67	14798
2026-01-11 11:12:36.30	354.91	13.45	-47.6	-60.1	3.8	7.44e-01	0	41	104	659030016	67	14558
2026-01-11 11:12:37.29	354.84	13.35	-47.5	-60.1	3.8	7.41e-01	0	41	104	659030016	67	14636
2026-01-11 11:12:38.28	354.76	13.25	-47.4	-60.1	3.8	7.46e-01	0	41	104	659030016	66	15476
2026-01-11 11:12:39.28	354.69	13.15	-47.2	-60.0	3.8	7.44e-01	0	41	104	659030016	66	15341
2026-01-11 11:12:40.27	354.62	13.05	-47.5	-60.4	3.8	7.45e-01	0	41	104	659030016	66	16015
2026-01-11 11:12:41.26	354.54	12.95	-52.4	-71.8	3.9	7.43e-01	0	41	104	659030016	76	33461
2026-01-11 11:12:42.26	354.47	12.85	-48.8	-62.6	3.9	7.47e-01	0	41	104	659030016	69	17364
2026-01-11 11:12:43.25	354.40	12.75	-46.3	-60.8	3.8	7.48e-01	0	41	104	659030016	64	18934
2026-01-11 11:12:44.24	354.33	12.65	-46.2	-60.3	3.8	7.43e-01	0	41	104	659030016	64	17702
2026-01-11 11:12:45.24	354.26	12.55	-45.9	-60.4	3.8	7.47e-01	0	41	104	659030016	63	19109
2026-01-11 11:12:46.23	354.19	12.45	-45.7	-60.5	3.8	7.46e-01	0	41	104	659030016	63	19213
2026-01-11 11:12:47.22	354.12	12.35	-45.6	-60.5	3.8	7.45e-01	0	41	104	659030016	63	19262
2026-01-11 11:12:48.21	354.05	12.26	-46.1	-61.2	3.8	7.46e-01	0	41	104	659030016	63	20915
2026-01-11 11:12:49.21	353.99	12.16	-45.6	-60.6	3.8	7.47e-01	0	41	104	659030016	63	19568
2026-01-11 11:12:50.20	353.92	12.06	-49.8	-72.6	3.8	7.42e-01	0	41	104	659030016	70	52138
2026-01-11 11:12:51.19	353.85	11.97	-46.6	-63.2	3.9	7.45e-01	0	41	104	659030016	65	23568
2026-01-11 11:12:52.19	353.78	11.87	-47.1	-61.0	3.8	7.43e-01	0	41	104	659030016	64	19191
2026-01-11 11:12:53.18	353.72	11.78	-46.6	-60.4	3.8	7.44e-01	0	41	104	659030016	64	18016
2026-01-11 11:12:54.17	353.65	11.68	-46.8	-60.4	3.8	7.47e-01	0	41	104	659030016	64	17986
2026-01-11 11:12:55.16	353.59	11.59	-47.1	-60.4	3.8	7.43e-01	0	41	104	659030016	64	17917
2026-01-11 11:12:56.16	353.52	11.49	-47.2	-60.4	3.8	7.45e-01	0	41	104	659030016	65	16997
2026-01-11 11:12:57.15	353.46	11.40	-47.3	-61.3	3.8	7.45e-01	0	41	104	659030016	65	18745
2026-01-11 11:12:58.14	353.40	11.31	-47.2	-60.8	3.8	7.48e-01	0	41	104	659030016	65	17691
2026-01-11 11:12:59.14	353.33	11.21	-48.8	-72.4	3.8	7.50e-01	0	41	104	659030016	68	56937
2026-01-11 11:13:00.13	353.27	11.12	-48.7	-63.7	3.8	7.45e-01	0	41	104	659030016	68	20905
2026-01-11 11:13:01.12	353.21	11.03	-46.8	-61.1	3.8	7.46e-01	0	41	104	659030016	65	18347
2026-01-11 11:13:02.12	353.15	10.93	-46.5	-60.5	3.8	7.46e-01	0	41	104	659030016	65	17204
2026-01-11 11:13:03.11	353.09	10.84	-46.7	-60.8	3.8	7.45e-01	0	41	104	659030016	65	17692
2026-01-11 11:13:04.10	353.02	10.75	-46.6	-60.5	3.8	7.44e-01	0	41	104	659030016	65	17217
2026-01-11 11:13:05.10	352.96	10.66	-46.6	-60.6	3.8	7.44e-01	0	41	104	659030016	65	17372
2026-01-11 11:13:06.09	352.90	10.57	-48.1	-61.6	3.8	7.47e-01	0	41	104	659030016	66	18383
2026-01-11 11:13:07.08	352.84	10.48	-47.2	-61.0	3.8	7.45e-01	0	41	104	659030016	66	17237
2026-01-11 11:13:08.07	352.79	10.39	-49.6	-72.2	3.7	7.47e-01	0	41	104	659030016	69	52339
2026-01-11 11:13:09.07	352.73	10.30	-48.0	-63.9	3.8	7.47e-01	0	41	104	659030016	67	22757
2026-01-11 11:13:10.06	352.67	10.21	-47.2	-61.7	3.8	7.46e-01	0	41	104	659030016	66	18673
2026-01-11 11:13:11.05	352.61	10.12	-47.2	-60.9	3.8	7.43e-01	0	41	104	659030016	66	16894
2026-01-11 11:13:12.05	352.55	10.03	-47.0	-61.0	3.8	7.48e-01	0	41	104	659030016	65	18131
2026-01-11 11:13:13.04	352.50	9.94	-46.8	-60.7	3.8	7.42e-01	0	41	104	659030016	65	17581
2026-01-11 11:13:14.03	352.44	9.86	-46.4	-60.8	3.8	7.46e-01	0	41	104	659030016	64	18747
2026-01-11 11:13:15.03	352.38	9.77	-46.5	-61.6	3.8	7.45e-01	0	41	104	659030016	64	20659
2026-01-11 11:13:16.02	352.33	9.68	-46.6	-61.1	3.8	7.46e-01	0	41	104	659030016	64	19591
2026-01-11 11:13:17.01	352.27	9.59	-50.8	-71.9	3.8	7.49e-01	0	41	104	659030016	72	42856
2026-01-11 11:13:18.00	352.22	9.51	-50.1	-65.1	3.8	7.48e-01	0	41	104	659030016	72	19527
2026-01-11 11:13:19.00	352.16	9.42	-47.1	-61.0	3.8	7.46e-01	0	41	104	659030016	64	19195
2026-01-11 11:13:19.99	352.11	9.33	-47.5	-61.0	3.8	7.44e-01	0	41	104	659030016	65	18146
2026-01-11 11:13:20.98	352.05	9.25	-48.2	-61.1	3.8	7.46e-01	0	41	104	659030016	67	16452
2026-01-11 11:13:21.98	352.00	9.16	-48.3	-61.0	3.8	7.44e-01	0	41	104	659030016	67	16296
2026-01-11 11:13:22.97	351.95	9.08	-48.3	-61.0	3.8	7.46e-01	0	41	104	659030016	67	16307
2026-01-11 11:13:23.96	351.89	8.99	-50.8	-71.2	3.7	7.52e-01	0	41	104	659030016	71	41596
2026-01-11 11:13:24.95	351.84	8.91	-48.3	-73.5	3.8	7.43e-01	0	41	104	659030016	68	64883
2026-01-11 11:13:25.95	351.79	8.82	-53.2	-73.8	3.8	7.45e-01	0	41	104	659030016	77	39733
2026-01-11 11:13:26.94	351.74	8.74	-51.7	-73.9	3.8	7.46e-01	0	41	104	659030016	74	47638
2026-01-11 11:13:27.93	351.68	8.65	-53.8	-74.0	3.8	7.44e-01	0	41	104	659030016	78	38648
2026-01-11 11:13:28.93	351.63	8.57	-51.0	-73.5	3.8	7.46e-01	0	41	104	659030016	74	45720
2026-01-11 11:13:29.92	351.58	8.49	-53.4	-74.0	3.8	7.49e-01	0	41	104	659030016	77	40941
2026-01-11 11:13:30.91	351.53	8.40	-53.6	-74.1	3.8	7.44e-01	0	41	104	659030016	78	38816
2026-01-11 11:13:31.90	351.48	8.32	-53.7	-74.1	3.8	7.47e-01	0	41	104	659030016	78	39056
2026-01-11 11:13:32.90	351.43	8.24	-53.5	-74.1	3.8	7.48e-01	0	41	104	659030016	78	39005
2026-01-11 11:13:33.89	351.38	8.16	-53.6	-74.2	3.8	7.48e-01	0	41	104	659030016	78	39220
2026-01-11 11:13:34.88	351.33	8.08	-54.1	-74.2	3.8	7.49e-01	0	41	104	659030016	79	36990
2026-01-11 11:13:35.88	351.28	7.99	-53.3	-74.1	3.7	7.47e-01	0	41	104	659030016	78	39115
2026-01-11 11:13:36.87	351.24	7.91	-54.2	-74.2	3.8	7.46e-01	0	41	104	659030016	79	37016
2026-01-11 11:13:37.86	351.19	7.83	-53.8	-74.2	3.8	7.48e-01	0	41	104	659030016	79	37126
2026-01-11 11:13:38.86	351.14	7.75	-53.8	-74.2	3.8	7.48e-01	0	41	104	659030016	79	37238
2026-01-11 11:13:39.85	351.09	7.67	-54.1	-74.2	3.8	7.46e-01	0	41	104	659030016	79	37131
2026-01-11 11:13:40.84	351.05	7.59	-53.5	-74.2	3.8	7.45e-01	0	41	104	659030016	79	37201
2026-01-11 11:13:41.84	351.00	7.51	-53.9	-74.2	3.8	7.45e-01	0	41	104	659030016	78	39369
2026-01-11 11:13:42.83	350.95	7.43	-54.0	-74.2	3.8	7.45e-01	0	41	104	659030016	79	37287
2026-01-11 11:13:43.82	350.91	7.35	-53.7	-74.2	3.8	7.47e-01	0	41	104	659030016	79	37316
2026-01-11 11:13:44.82	350.86	7.27	-53.8	-74.2	3.8	7.47e-01	0	41	104	659030016	79	37253
2026-01-11 11:13:45.81	350.81	7.19	-54.2	-74.2	3.8	7.47e-01	0	41	104	659030016	79	37253
2026-01-11 11:13:46.80	350.77	7.11	-54.4	-74.3	3.8	7.46e-01	0	41	104	659030016	79	37458
2026-01-11 11:13:47.79	350.72	7.04	-54.1	-74.2	3.8	7.51e-01	0	41	104	659030016	79	37231
2026-01-11 11:13:48.79	350.68	6.96	-54.1	-74.2	3.8	7.47e-01	0	41	104	659030016	79	37322
2026-01-11 11:13:49.78	350.63	6.88	-54.0	-74.2	3.8	7.46e-01	0	41	104	659030016	79	37287
2026-01-11 11:13:50.77	350.59	6.80	-54.1	-74.2	3.8	7.46e-01	0	41	104	659030016	79	37283
2026-01-11 11:13:51.77	350.54	6.72	-53.5	-74.2	3.8	7.50e-01	0	41	104	659030016	79	37281
2026-01-11 11:13:52.76	350.50	6.65	-53.7	-74.2	3.8	7.45e-01	0	41	104	659030016	78	39360
2026-01-11 11:13:53.75	350.46	6.57	-53.7	-74.2	3.8	7.48e-01	0	41	104	659030016	78	39357
2026-01-11 11:13:54.75	350.41	6.49	-53.7	-74.2	3.8	7.44e-01	0	41	104	659030016	78	39445
2026-01-11 11:13:55.74	350.37	6.42	-53.7	-74.2	3.8	7.47e-01	0	41	104	659030016	78	39387
2026-01-11 11:13:56.73	350.33	6.34	-53.6	-74.2	3.8	7.45e-01	0	41	104	659030016	78	39244
2026-01-11 11:13:57.72	350.29	6.27	-53.7	-74.2	3.8	7.45e-01	0	41	104	659030016	78	39295
2026-01-11 11:13:58.72	350.24	6.19	-53.6	-74.2	3.8	7.49e-01	0	41	104	659030016	78	39378
2026-01-11 11:13:59.71	350.20	6.11	-53.7	-74.2	3.8	7.43e-01	0	41	104	659030016	78	39243
2026-01-11 11:14:00.70	350.16	6.04	-53.6	-74.2	3.8	7.45e-01	0	41	104	659030016	78	39217
2026-01-11 11:14:01.70	350.12	5.96	-53.6	-74.2	3.8	7.46e-01	0	41	104	659030016	78	39334
2026-01-11 11:14:02.69	350.08	5.89	-53.6	-74.2	3.8	7.46e-01	0	41	104	659030016	78	39301
2026-01-11 11:14:03.68	350.04	5.81	-53.6	-74.2	3.8	7.44e-01	0	41	104	659030016	78	39223
2026-01-11 11:14:04.67	350.00	5.74	-53.7	-74.2	3.8	7
