passes_logs/2026/01/11/T1/T1__20260111_012914_AQUA_rec.log

#Pass ID: 20260111_012914_AQUA
#Satellite: AQUA
#Configuration: AQUA
#almurnet v.1.7.20251203
#Start time: 2026-01-11 01:29:17

#Version: 2.0.20230620
#Station: T1
#Location: 37.570604 lon 55.790049 lat
#TLE: 1 27424U 02022A   26009.89520876  .00001045  00000+0  21914-3 0  9996
#TLE: 2 27424  98.4076 336.2372 0002032  84.5955   1.0356 14.61811442260144

#Time	Az	El	Level	Level2	SNR	BER	BlckErr	Temp	State	Recorded	gain1	gain2
2026-01-11 01:29:17.04	14.68	5.17	-50.5	-69.5	3.8	7.45e-01	0	40	0	0	71	34381
2026-01-11 01:29:18.04	14.68	5.24	-50.5	-69.9	3.8	7.44e-01	0	41	104	0	71	35754
2026-01-11 01:29:19.05	14.67	5.32	-50.5	-70.3	3.8	7.44e-01	0	41	104	0	71	37378
2026-01-11 01:29:20.05	14.67	5.40	-50.5	-70.2	3.8	7.44e-01	0	41	104	0	71	37257
2026-01-11 01:29:21.06	14.66	5.47	-50.5	-70.1	3.8	7.46e-01	0	41	104	0	71	36584
2026-01-11 01:29:22.06	14.66	5.55	-50.5	-69.8	3.9	7.44e-01	0	41	104	0	71	35571
2026-01-11 01:29:23.07	14.65	5.63	-50.4	-69.1	4.0	7.40e-01	0	41	104	0	71	32926
2026-01-11 01:29:24.07	14.65	5.70	-50.5	-68.7	4.1	7.37e-01	0	41	104	0	71	31097
2026-01-11 01:29:25.08	14.64	5.78	-50.4	-68.4	4.1	7.38e-01	0	41	104	0	71	30324
2026-01-11 01:29:26.08	14.64	5.86	-50.4	-68.4	3.9	7.36e-01	0	41	104	0	71	30229
2026-01-11 01:29:27.08	14.63	5.93	-50.4	-68.4	4.1	7.45e-01	0	41	104	0	71	30300
2026-01-11 01:29:28.09	14.63	6.01	-50.4	-67.9	4.3	7.32e-01	0	41	104	0	71	28530
2026-01-11 01:29:29.09	14.62	6.09	-50.4	-68.3	4.2	7.33e-01	0	41	104	0	71	29793
2026-01-11 01:29:30.10	14.61	6.17	-50.4	-68.7	4.0	7.37e-01	0	41	104	0	71	31331
2026-01-11 01:29:31.10	14.61	6.25	-50.5	-69.2	3.8	7.46e-01	0	41	104	0	71	32970
2026-01-11 01:29:32.11	14.60	6.33	-50.4	-69.2	4.0	7.44e-01	0	41	104	0	71	33084
2026-01-11 01:29:33.11	14.60	6.41	-50.4	-69.1	4.0	7.44e-01	0	41	104	0	71	32895
2026-01-11 01:29:34.12	14.59	6.49	-50.4	-69.3	3.9	7.40e-01	0	41	104	0	71	33601
2026-01-11 01:29:35.12	14.58	6.57	-50.4	-69.3	3.8	7.45e-01	0	41	104	0	71	33469
2026-01-11 01:29:36.12	14.58	6.65	-50.4	-69.4	3.8	7.44e-01	0	41	104	0	71	33990
2026-01-11 01:29:37.13	14.57	6.73	-50.4	-69.3	3.9	7.42e-01	0	41	104	0	71	33654
2026-01-11 01:29:38.13	14.57	6.81	-50.5	-69.7	3.9	7.44e-01	0	41	104	0	71	35051
2026-01-11 01:29:39.14	14.56	6.89	-50.5	-70.5	3.8	7.45e-01	0	41	104	0	71	38486
2026-01-11 01:29:40.14	14.55	6.97	-50.5	-71.1	3.8	7.50e-01	0	41	104	0	71	41406
2026-01-11 01:29:41.15	14.55	7.05	-50.5	-71.5	3.8	7.46e-01	0	41	104	0	71	43199
2026-01-11 01:29:42.15	14.54	7.13	-50.5	-70.8	3.8	7.47e-01	0	41	104	0	71	39996
2026-01-11 01:29:43.15	14.53	7.22	-50.4	-68.9	3.9	7.39e-01	0	41	104	0	71	31958
2026-01-11 01:29:44.16	14.53	7.30	-50.4	-66.4	4.8	7.15e-01	0	41	104	0	71	23884
2026-01-11 01:29:45.16	14.52	7.38	-50.3	-64.2	6.2	6.80e-01	0	41	0	524288	71	18657
2026-01-11 01:29:46.17	14.51	7.46	-50.1	-62.2	8.1	6.45e-01	0	41	0	2621440	71	14856
2026-01-11 01:29:47.17	14.51	7.55	-50.0	-60.7	9.6	6.24e-01	0	41	0	4194304	71	12510
2026-01-11 01:29:48.17	14.50	7.63	-49.8	-59.8	10.7	6.17e-01	0	42	0	6291456	71	11187
2026-01-11 01:29:49.18	14.49	7.72	-49.7	-58.8	11.7	6.09e-01	0	42	0	8388608	71	9945
2026-01-11 01:29:50.18	14.49	7.80	-49.5	-57.8	12.6	6.03e-01	0	42	0	9961472	71	8945
2026-01-11 01:29:51.19	14.48	7.88	-49.4	-57.3	13.3	6.02e-01	0	42	0	12058624	70	8907
2026-01-11 01:29:52.19	14.47	7.97	-49.3	-56.9	13.6	6.04e-01	0	42	0	13631488	70	8506
2026-01-11 01:29:53.20	14.47	8.05	-49.1	-56.5	14.0	6.03e-01	0	42	0	15728640	70	8114
2026-01-11 01:29:54.20	14.46	8.14	-49.1	-56.3	14.2	6.02e-01	0	42	0	17825792	70	7926
2026-01-11 01:29:55.20	14.45	8.23	-49.0	-56.0	14.5	6.05e-01	0	42	0	19398656	70	7714
2026-01-11 01:29:56.21	14.44	8.31	-49.0	-56.1	14.4	6.02e-01	0	42	0	21495808	70	7792
2026-01-11 01:29:57.21	14.44	8.40	-48.9	-55.6	14.9	6.04e-01	0	42	0	23068672	69	7806
2026-01-11 01:29:58.22	14.43	8.49	-49.0	-55.9	14.6	6.01e-01	0	42	0	25165824	69	8080
2026-01-11 01:29:59.22	14.42	8.57	-49.0	-55.9	14.6	6.04e-01	0	42	0	26738688	69	8078
2026-01-11 01:30:00.23	14.41	8.66	-49.0	-56.0	14.6	6.04e-01	0	42	0	28835840	69	8096
2026-01-11 01:30:01.23	14.41	8.75	-49.1	-56.4	14.1	6.05e-01	0	42	0	30932992	69	8544
2026-01-11 01:30:02.24	14.40	8.84	-49.2	-56.8	13.7	6.05e-01	0	42	0	32505856	69	8964
2026-01-11 01:30:03.24	14.39	8.93	-49.4	-57.7	12.8	6.06e-01	0	42	0	34603008	69	9910
2026-01-11 01:30:04.24	14.38	9.01	-49.6	-58.6	11.9	6.09e-01	0	42	0	36175872	69	10970
2026-01-11 01:30:05.25	14.37	9.10	-49.6	-58.5	11.4	6.08e-01	0	42	0	38273024	70	10222
2026-01-11 01:30:06.25	14.37	9.19	-47.7	-53.2	17.3	6.03e-01	0	42	0	40370176	67	6613
2026-01-11 01:30:07.25	14.36	9.28	-49.4	-56.6	14.0	6.04e-01	0	42	0	41943040	69	8711
2026-01-11 01:30:08.26	14.35	9.37	-50.3	-66.6	4.9	7.15e-01	0	42	0	42991616	71	24440
2026-01-11 01:30:09.26	14.34	9.46	-49.6	-62.6	7.4	6.50e-01	0	42	0	42991616	70	16387
2026-01-11 01:30:10.26	14.33	9.55	-46.4	-50.7	19.6	6.01e-01	0	42	0	45088768	64	5913
2026-01-11 01:30:11.27	14.32	9.65	-46.2	-50.5	19.9	6.02e-01	0	42	0	46661632	64	5758
2026-01-11 01:30:12.27	14.32	9.74	-45.7	-49.8	20.7	6.03e-01	0	42	0	48758784	63	5608
2026-01-11 01:30:13.27	14.31	9.83	-45.6	-49.5	20.9	6.01e-01	0	42	0	50855936	63	5461
2026-01-11 01:30:14.27	14.30	9.92	-45.7	-49.6	20.9	5.99e-01	0	42	0	52428800	63	5487
2026-01-11 01:30:15.28	14.29	10.02	-45.8	-49.6	20.9	6.02e-01	0	42	0	54525952	63	5476
2026-01-11 01:30:16.28	14.28	10.11	-45.6	-49.4	21.0	6.01e-01	0	42	0	56098816	63	5368
2026-01-11 01:30:17.28	14.27	10.20	-45.7	-49.5	20.9	6.00e-01	0	42	0	58195968	63	5451
2026-01-11 01:30:18.29	14.26	10.30	-45.7	-49.5	21.0	6.00e-01	0	42	0	59768832	63	5432
2026-01-11 01:30:19.29	14.25	10.39	-45.7	-49.4	21.1	6.04e-01	0	42	0	61865984	63	5353
2026-01-11 01:30:20.29	14.24	10.49	-45.6	-49.3	21.2	6.01e-01	0	42	0	63963136	63	5295
2026-01-11 01:30:21.30	14.23	10.58	-45.8	-49.4	21.1	5.99e-01	0	42	0	65536000	63	5349
2026-01-11 01:30:22.30	14.22	10.68	-45.7	-49.3	21.1	6.01e-01	0	42	0	67633152	63	5326
2026-01-11 01:30:23.30	14.21	10.77	-45.6	-49.1	21.3	6.01e-01	0	42	0	69730304	63	5212
2026-01-11 01:30:24.31	14.20	10.87	-45.7	-49.2	21.3	6.02e-01	0	42	0	71303168	63	5269
2026-01-11 01:30:25.31	14.19	10.97	-45.7	-49.2	21.2	6.00e-01	0	42	0	73400320	63	5265
2026-01-11 01:30:26.32	14.18	11.06	-45.7	-49.3	21.2	6.01e-01	0	42	0	74973184	63	5290
2026-01-11 01:30:27.32	14.17	11.16	-45.6	-49.1	21.4	6.00e-01	0	42	0	77070336	63	5164
2026-01-11 01:30:28.32	14.16	11.26	-45.7	-49.1	21.3	6.02e-01	0	42	0	78643200	63	5215
2026-01-11 01:30:29.33	14.15	11.36	-45.6	-49.1	21.3	6.02e-01	0	42	0	80740352	63	5160
2026-01-11 01:30:30.33	14.14	11.46	-45.5	-49.0	21.5	6.03e-01	0	42	0	82837504	63	5104
2026-01-11 01:30:31.33	14.13	11.56	-45.6	-49.0	21.5	6.01e-01	0	42	0	84410368	63	5141
2026-01-11 01:30:32.33	14.12	11.66	-45.7	-49.1	21.3	6.02e-01	0	42	0	86507520	63	5200
2026-01-11 01:30:33.33	14.11	11.76	-45.7	-49.2	21.4	6.00e-01	0	42	0	88080384	63	5226
2026-01-11 01:30:34.34	14.10	11.86	-45.6	-48.9	21.5	6.02e-01	0	42	0	90177536	63	5085
2026-01-11 01:30:35.34	14.09	11.96	-45.7	-49.0	21.5	6.00e-01	0	42	0	91750400	63	5137
2026-01-11 01:30:36.34	14.08	12.06	-45.7	-49.0	21.5	6.01e-01	0	42	0	93847552	63	5130
2026-01-11 01:30:37.35	14.07	12.16	-45.5	-48.7	21.8	6.02e-01	0	42	0	95944704	63	4948
2026-01-11 01:30:38.35	14.06	12.27	-45.5	-48.7	21.8	6.02e-01	0	42	0	97517568	62	5229
2026-01-11 01:30:39.35	14.05	12.37	-45.5	-48.7	21.8	6.02e-01	0	42	0	99614720	62	5275
2026-01-11 01:30:40.36	14.03	12.47	-45.4	-48.7	21.8	6.02e-01	0	42	0	101187584	62	5252
2026-01-11 01:30:41.36	14.02	12.58	-45.4	-48.6	21.8	6.00e-01	0	42	0	103284736	62	5218
2026-01-11 01:30:42.36	14.01	12.68	-45.3	-48.6	21.8	6.00e-01	0	42	0	105381888	62	5184
2026-01-11 01:30:43.37	14.00	12.79	-45.4	-48.7	21.8	6.01e-01	0	42	0	106954752	62	5225
2026-01-11 01:30:44.37	13.99	12.89	-45.2	-48.4	22.0	6.03e-01	0	42	0	109051904	62	5081
2026-01-11 01:30:45.37	13.97	13.00	-45.3	-48.6	21.9	6.02e-01	0	42	0	110624768	62	5172
2026-01-11 01:30:46.38	13.96	13.11	-45.4	-48.6	21.9	6.02e-01	0	42	0	112721920	62	5180
2026-01-11 01:30:47.38	13.95	13.22	-45.3	-48.5	22.0	6.00e-01	0	42	0	114819072	62	5149
2026-01-11 01:30:48.39	13.94	13.32	-45.2	-48.4	22.1	6.03e-01	0	42	0	116391936	62	5065
2026-01-11 01:30:49.39	13.93	13.43	-45.2	-48.4	22.1	6.00e-01	0	42	0	118489088	62	5074
2026-01-11 01:30:50.40	13.91	13.54	-45.3	-48.4	22.0	6.02e-01	0	43	0	120061952	62	5098
2026-01-11 01:30:51.40	13.90	13.65	-45.3	-48.4	22.1	6.00e-01	0	42	0	122159104	62	5063
2026-01-11 01:30:52.40	13.89	13.76	-45.2	-48.4	22.1	6.01e-01	0	42	0	124256256	62	5050
2026-01-11 01:30:53.40	13.87	13.87	-45.1	-48.3	22.2	5.99e-01	0	42	0	125829120	62	5012
2026-01-11 01:30:54.41	13.86	13.98	-45.1	-48.3	22.2	6.02e-01	0	43	0	127926272	62	5019
2026-01-11 01:30:55.41	13.85	14.09	-45.2	-48.4	22.1	6.03e-01	0	42	0	129499136	62	5075
2026-01-11 01:30:56.41	13.83	14.21	-45.1	-48.2	22.3	6.02e-01	0	42	0	131596288	62	4975
2026-01-11 01:30:57.41	13.82	14.32	-45.0	-48.2	22.3	6.02e-01	0	42	0	133169152	62	4979
2026-01-11 01:30:58.42	13.81	14.43	-44.9	-48.3	22.2	6.03e-01	0	42	0	135266304	61	5282
2026-01-11 01:30:59.42	13.79	14.55	-44.9	-48.3	22.2	6.03e-01	0	42	0	137363456	61	5300
2026-01-11 01:31:00.42	13.78	14.66	-44.8	-48.3	22.2	6.01e-01	0	42	0	138936320	61	5288
2026-01-11 01:31:01.43	13.76	14.78	-44.9	-48.3	22.2	6.02e-01	0	42	0	141033472	61	5304
2026-01-11 01:31:02.43	13.75	14.89	-45.0	-48.4	22.1	6.01e-01	0	42	0	142606336	61	5381
2026-01-11 01:31:03.43	13.73	15.01	-44.9	-48.4	22.1	6.02e-01	0	42	0	144703488	61	5348
2026-01-11 01:31:04.44	13.72	15.13	-44.9	-48.3	22.2	6.01e-01	0	42	0	146276352	61	5333
2026-01-11 01:31:05.44	13.70	15.24	-44.9	-48.4	22.2	6.01e-01	0	42	0	148373504	61	5343
2026-01-11 01:31:06.44	13.69	15.36	-44.7	-48.2	22.3	6.00e-01	0	42	0	150470656	61	5272
2026-01-11 01:31:07.44	13.67	15.48	-44.8	-48.3	22.2	5.99e-01	0	42	0	152043520	61	5304
2026-01-11 01:31:08.45	13.66	15.60	-44.8	-48.3	22.3	6.02e-01	0	42	0	154140672	61	5290
2026-01-11 01:31:09.45	13.64	15.72	-44.9	-48.3	22.2	6.01e-01	0	42	0	156237824	61	5309
2026-01-11 01:31:10.45	13.63	15.84	-44.7	-48.1	22.4	6.03e-01	0	42	0	157810688	61	5205
2026-01-11 01:31:11.46	13.61	15.96	-44.7	-48.1	22.4	6.02e-01	0	42	0	159907840	61	5174
2026-01-11 01:31:12.46	13.60	16.09	-44.7	-48.0	22.5	6.03e-01	0	42	0	161480704	61	5154
2026-01-11 01:31:13.46	13.58	16.21	-44.7	-48.0	22.5	6.02e-01	0	42	0	163577856	61	5133
2026-01-11 01:31:14.47	13.56	16.33	-44.8	-48.1	22.5	6.00e-01	0	42	0	165150720	61	5168
2026-01-11 01:31:15.47	13.55	16.46	-44.6	-48.0	22.6	6.01e-01	0	42	0	167247872	61	5105
2026-01-11 01:31:16.47	13.53	16.58	-44.7	-48.0	22.5	6.01e-01	0	42	0	169345024	61	5140
2026-01-11 01:31:17.48	13.51	16.71	-44.8	-48.0	22.5	6.02e-01	0	42	0	170917888	61	5128
2026-01-11 01:31:18.48	13.50	16.84	-44.7	-47.9	22.6	6.02e-01	0	42	0	173015040	61	5065
2026-01-11 01:31:19.48	13.48	16.96	-44.7	-47.8	22.7	6.01e-01	0	42	0	174587904	61	5039
2026-01-11 01:31:20.49	13.46	17.09	-44.7	-47.9	22.6	5.99e-01	0	42	0	176685056	61	5075
2026-01-11 01:31:21.49	13.44	17.22	-44.9	-48.1	22.4	6.03e-01	0	43	0	178257920	61	5176
2026-01-11 01:31:22.49	13.42	17.35	-44.8	-47.9	22.6	6.02e-01	0	42	0	180355072	61	5094
2026-01-11 01:31:23.49	13.41	17.48	-44.9	-48.0	22.5	6.04e-01	0	42	0	182452224	61	5156
2026-01-11 01:31:24.50	13.39	17.61	-44.9	-48.1	22.5	6.01e-01	0	43	0	184025088	61	5179
2026-01-11 01:31:25.50	13.37	17.74	-45.0	-48.1	22.5	6.01e-01	0	42	0	186122240	61	5179
2026-01-11 01:31:26.50	13.35	17.87	-45.0	-48.1	22.4	6.03e-01	0	42	0	188219392	61	5181
2026-01-11 01:31:27.51	13.33	18.01	-45.0	-48.1	22.5	5.98e-01	0	42	0	189792256	61	5173
2026-01-11 01:31:28.51	13.31	18.14	-45.1	-48.2	22.4	6.02e-01	0	42	0	191889408	61	5227
2026-01-11 01:31:29.52	13.29	18.28	-45.1	-48.1	22.4	6.03e-01	0	42	0	193462272	61	5218
2026-01-11 01:31:30.52	13.27	18.41	-45.2	-48.3	22.3	6.00e-01	0	42	0	195559424	61	5296
2026-01-11 01:31:31.52	13.25	18.55	-45.2	-48.2	22.4	6.02e-01	0	42	0	197132288	61	5253
2026-01-11 01:31:32.53	13.23	18.69	-45.2	-48.2	22.3	6.03e-01	0	42	0	199229440	61	5271
2026-01-11 01:31:33.53	13.21	18.82	-45.3	-48.3	22.3	6.00e-01	0	42	0	201326592	61	5325
2026-01-11 01:31:34.54	13.19	18.96	-45.2	-48.3	22.3	6.00e-01	0	42	0	202899456	61	5330
2026-01-11 01:31:35.54	13.17	19.10	-45.3	-48.3	22.3	6.02e-01	0	42	0	204996608	61	5299
2026-01-11 01:31:36.54	13.15	19.24	-45.3	-48.3	22.3	6.00e-01	0	42	0	206569472	61	5303
2026-01-11 01:31:37.54	13.13	19.39	-45.3	-48.3	22.3	6.02e-01	0	43	0	208666624	61	5326
2026-01-11 01:31:38.55	13.11	19.53	-45.3	-48.3	22.3	6.03e-01	0	42	0	210763776	61	5289
2026-01-11 01:31:39.55	13.09	19.67	-45.4	-48.4	22.2	6.01e-01	0	42	0	212336640	61	5383
2026-01-11 01:31:40.55	13.06	19.82	-45.3	-48.3	22.3	6.02e-01	0	42	0	214433792	61	5308
2026-01-11 01:31:41.56	13.04	19.96	-45.3	-48.2	22.4	6.02e-01	0	42	0	216006656	61	5277
2026-01-11 01:31:42.56	13.02	20.11	-45.4	-48.3	22.3	6.01e-01	0	42	0	218103808	61	5335
2026-01-11 01:31:43.57	13.00	20.26	-45.3	-48.3	22.3	6.01e-01	0	43	0	220200960	61	5305
2026-01-11 01:31:44.57	12.97	20.40	-45.2	-48.3	22.2	6.01e-01	0	42	0	221773824	61	5332
2026-01-11 01:31:45.57	12.95	20.55	-45.2	-48.3	22.2	6.02e-01	0	42	0	223870976	61	5339
2026-01-11 01:31:46.58	12.93	20.70	-45.2	-48.4	22.2	6.01e-01	0	42	0	225443840	61	5366
2026-01-11 01:31:47.58	12.90	20.86	-45.1	-48.5	22.2	5.98e-01	0	42	0	227540992	61	5403
2026-01-11 01:31:48.58	12.88	21.01	-45.1	-48.4	22.2	6.00e-01	0	42	0	229113856	61	5388
2026-01-11 01:31:49.59	12.85	21.16	-45.2	-48.5	22.1	6.00e-01	0	42	0	231211008	61	5427
2026-01-11 01:31:50.59	12.83	21.31	-45.4	-48.5	22.1	6.02e-01	0	42	0	233308160	61	5460
2026-01-11 01:31:51.59	12.80	21.47	-45.4	-48.5	22.2	6.02e-01	0	42	0	234881024	61	5412
2026-01-11 01:31:52.60	12.78	21.63	-45.5	-48.6	22.1	6.00e-01	0	42	0	236978176	61	5468
2026-01-11 01:31:53.60	12.75	21.78	-45.5	-48.5	22.2	6.02e-01	0	43	0	238551040	61	5415
2026-01-11 01:31:54.60	12.73	21.94	-45.6	-48.5	22.2	6.01e-01	0	43	0	240648192	61	5423
2026-01-11 01:31:55.61	12.70	22.10	-45.7	-48.6	22.1	6.02e-01	0	42	0	242745344	62	5165
2026-01-11 01:31:56.61	12.67	22.26	-45.7	-48.5	22.2	6.01e-01	0	42	0	244318208	62	5126
2026-01-11 01:31:57.61	12.65	22.42	-45.7	-48.6	22.1	6.03e-01	0	42	0	246415360	62	5172
2026-01-11 01:31:58.62	12.62	22.59	-45.7	-48.7	22.0	6.00e-01	0	42	0	247988224	62	5219
2026-01-11 01:31:59.62	12.59	22.75	-45.7	-48.7	22.0	6.02e-01	0	42	0	250085376	62	5220
2026-01-11 01:32:00.63	12.56	22.92	-45.5	-48.5	22.2	6.01e-01	0	43	0	251658240	62	5132
2026-01-11 01:32:01.63	12.54	23.08	-45.5	-48.5	22.2	6.02e-01	0	42	0	253755392	62	5132
2026-01-11 01:32:02.63	12.51	23.25	-45.5	-48.6	22.1	6.00e-01	0	42	0	255852544	62	5170
2026-01-11 01:32:03.63	12.48	23.42	-45.3	-48.4	22.2	6.01e-01	0	42	0	257425408	62	5090
2026-01-11 01:32:04.64	12.45	23.59	-45.3	-48.4	22.2	6.02e-01	0	42	0	259522560	62	5092
2026-01-11 01:32:05.64	12.42	23.76	-45.3	-48.4	22.3	5.99e-01	0	42	0	261095424	62	5064
2026-01-11 01:32:06.65	12.39	23.93	-45.2	-48.4	22.3	6.01e-01	0	43	0	263192576	62	5044
2026-01-11 01:32:07.65	12.36	24.10	-45.1	-48.2	22.5	6.04e-01	0	42	0	265289728	62	4944
2026-01-11 01:32:08.65	12.33	24.28	-45.1	-48.2	22.5	6.01e-01	0	42	0	266862592	62	4962
2026-01-11 01:32:09.66	12.29	24.45	-45.3	-48.3	22.3	6.01e-01	0	42	0	268959744	62	5037
2026-01-11 01:32:10.66	12.26	24.63	-45.4	-48.4	22.3	6.05e-01	0	42	0	270532608	62	5055
2026-01-11 01:32:11.66	12.23	24.81	-45.3	-48.2	22.4	6.02e-01	0	43	0	272629760	62	4968
2026-01-11 01:32:12.66	12.20	24.99	-45.4	-48.3	22.4	6.02e-01	0	42	0	274726912	62	5024
2026-01-11 01:32:13.67	12.16	25.17	-45.4	-48.3	22.4	6.03e-01	0	42	0	276299776	62	5017
2026-01-11 01:32:14.67	12.13	25.35	-45.3	-48.3	22.4	6.00e-01	0	42	0	278396928	62	5001
2026-01-11 01:32:15.67	12.10	25.54	-45.4	-48.4	22.2	6.02e-01	0	42	0	279969792	62	5070
2026-01-11 01:32:16.68	12.06	25.72	-45.3	-48.3	22.3	6.01e-01	0	42	0	282066944	62	5021
2026-01-11 01:32:17.68	12.03	25.91	-45.1	-48.2	22.4	6.03e-01	0	43	0	283639808	62	4957
2026-01-11 01:32:18.68	11.99	26.10	-45.1	-48.2	22.4	6.03e-01	0	43	0	285736960	62	4974
2026-01-11 01:32:19.68	11.96	26.28	-45.2	-48.3	22.3	6.02e-01	0	43	0	287834112	62	4988
2026-01-11 01:32:20.69	11.92	26.48	-45.1	-48.2	22.4	6.01e-01	0	43	0	289406976	62	4983
2026-01-11 01:32:21.69	11.88	26.67	-45.1	-48.1	22.5	6.02e-01	0	42	0	291504128	62	4920
2026-01-11 01:32:22.69	11.84	26.86	-45.1	-48.0	22.6	6.03e-01	0	43	0	293076992	62	4847
2026-01-11 01:32:23.70	11.81	27.06	-45.2	-48.0	22.6	6.03e-01	0	42	0	295174144	62	4859
2026-01-11 01:32:24.70	11.77	27.25	-45.2	-48.1	22.6	6.01e-01	0	43	0	297271296	62	4883
2026-01-11 01:32:25.70	11.73	27.45	-45.2	-47.9	22.7	6.03e-01	0	42	0	298844160	62	4814
2026-01-11 01:32:26.71	11.69	27.65	-45.1	-47.9	22.8	6.02e-01	0	42	0	300941312	62	4786
2026-01-11 01:32:27.71	11.65	27.85	-45.1	-47.9	22.7	6.00e-01	0	42	0	302514176	62	4803
2026-01-11 01:32:28.71	11.61	28.06	-45.1	-47.9	22.7	6.01e-01	0	43	0	304611328	62	4811
2026-01-11 01:32:29.71	11.57	28.26	-45.1	-48.0	22.7	6.02e-01	0	43	0	306708480	62	4840
2026-01-11 01:32:30.71	11.52	28.47	-45.1	-47.9	22.7	5.99e-01	0	42	0	308281344	62	4808
2026-01-11 01:32:31.72	11.48	28.67	-45.0	-47.8	22.8	6.03e-01	0	42	0	310378496	62	4724
2026-01-11 01:32:32.72	11.44	28.88	-44.9	-47.7	23.0	6.01e-01	0	42	0	311951360	61	4939
2026-01-11 01:32:33.72	11.39	29.09	-45.0	-47.7	22.9	6.03e-01	0	42	0	314048512	61	4961
2026-01-11 01:32:34.73	11.35	29.31	-44.9	-47.6	23.0	6.00e-01	0	42	0	315621376	61	4871
2026-01-11 01:32:35.73	11.30	29.52	-44.9	-47.6	23.0	6.02e-01	0	42	0	317718528	61	4874
2026-01-11 01:32:36.74	11.26	29.74	-44.9	-47.6	23.1	6.00e-01	0	42	0	319815680	61	4877
2026-01-11 01:32:37.74	11.21	29.96	-44.9	-47.6	23.1	6.03e-01	0	42	0	321388544	61	4877
2026-01-11 01:32:38.74	11.16	30.18	-44.9	-47.6	23.0	6.02e-01	0	42	0	323485696	61	4901
2026-01-11 01:32:39.75	11.12	30.40	-44.9	-47.6	23.0	6.02e-01	0	42	0	325058560	61	4916
2026-01-11 01:32:40.75	11.07	30.62	-45.0	-47.7	22.9	6.00e-01	0	42	0	327155712	61	4965
2026-01-11 01:32:41.75	11.02	30.85	-45.0	-47.8	22.9	6.04e-01	0	42	0	329252864	61	4989
2026-01-11 01:32:42.76	10.97	31.08	-44.9	-47.6	23.0	6.04e-01	0	42	0	330825728	61	4906
2026-01-11 01:32:43.76	10.92	31.31	-45.0	-47.7	23.0	5.99e-01	0	43	0	332922880	61	4953
2026-01-11 01:32:44.76	10.87	31.54	-44.8	-47.5	23.1	6.02e-01	0	42	0	334495744	61	4846
2026-01-11 01:32:45.77	10.81	31.77	-44.7	-47.4	23.2	6.02e-01	0	42	0	336592896	61	4796
2026-01-11 01:32:46.77	10.76	32.00	-44.7	-47.5	23.1	5.99e-01	0	42	0	338690048	61	4816
2026-01-11 01:32:47.78	10.70	32.24	-44.7	-47.5	23.1	6.02e-01	0	42	0	340262912	61	4831
2026-01-11 01:32:48.78	10.65	32.48	-44.8	-47.6	23.1	6.03e-01	0	42	0	342360064	61	4873
2026-01-11 01:32:49.78	10.59	32.72	-45.0	-47.7	22.9	6.03e-01	0	42	0	343932928	61	4975
2026-01-11 01:32:50.79	10.53	32.97	-45.0	-47.8	22.8	6.03e-01	0	42	0	346030080	61	5029
2026-01-11 01:32:51.79	10.48	33.21	-45.0	-47.8	22.9	6.02e-01	0	42	0	347602944	61	5013
2026-01-11 01:32:52.80	10.42	33.46	-45.0	-47.9	22.8	6.00e-01	0	42	0	349700096	61	5048
2026-01-11 01:32:53.80	10.36	33.71	-44.9	-47.8	22.8	6.02e-01	0	42	0	351797248	61	5019
2026-01-11 01:32:54.80	10.30	33.96	-45.1	-48.0	22.7	6.02e-01	0	42	0	353370112	61	5124
2026-01-11 01:32:55.80	10.23	34.21	-45.3	-48.3	22.4	6.01e-01	0	42	0	355467264	61	5325
2026-01-11 01:32:56.80	10.17	34.47	-45.5	-48.5	22.2	6.03e-01	0	42	0	357040128	61	5464
2026-01-11 01:32:57.81	10.11	34.73	-45.5	-48.6	22.1	5.99e-01	0	42	0	359137280	61	5516
2026-01-11 01:32:58.81	10.04	34.99	-45.6	-48.6	22.1	6.02e-01	0	42	0	361234432	61	5526
2026-01-11 01:32:59.81	9.98	35.25	-45.7	-48.8	21.9	6.02e-01	0	43	0	362807296	62	5292
2026-01-11 01:33:00.82	9.91	35.51	-46.0	-48.9	21.8	6.04e-01	0	42	0	364904448	62	5400
2026-01-11 01:33:01.82	9.84	35.78	-46.2	-49.2	21.6	6.00e-01	0	42	0	366477312	63	5250
2026-01-11 01:33:02.82	9.77	36.05	-46.3	-49.3	21.6	5.99e-01	0	42	0	368574464	63	5295
2026-01-11 01:33:03.83	9.70	36.32	-46.4	-49.4	21.4	6.01e-01	0	42	0	370671616	63	5393
2026-01-11 01:33:04.83	9.62	36.60	-46.3	-49.4	21.4	6.03e-01	0	42	0	372244480	63	5395
2026-01-11 01:33:05.84	9.55	36.88	-46.3	-49.5	21.3	6.02e-01	0	42	0	374341632	63	5455
2026-01-11 01:33:06.84	9.47	37.15	-46.3	-49.6	21.3	6.05e-01	0	42	0	375914496	63	5488
2026-01-11 01:33:07.84	9.40	37.43	-46.4	-49.7	21.2	6.01e-01	0	42	0	378011648	63	5558
2026-01-11 01:33:08.85	9.32	37.72	-46.5	-49.9	21.0	6.03e-01	0	42	0	379584512	63	5664
2026-01-11 01:33:09.85	9.24	38.01	-46.7	-50.1	20.8	6.03e-01	0	42	0	381681664	64	5469
2026-01-11 01:33:10.85	9.16	38.29	-46.7	-50.0	20.7	6.01e-01	0	42	0	383778816	64	5423
2026-01-11 01:33:11.85	9.08	38.59	-46.7	-50.0	20.8	6.02e-01	0	42	0	385351680	64	5410
2026-01-11 01:33:12.86	8.99	38.88	-46.6	-49.9	20.9	6.02e-01	0	42	0	387448832	64	5384
2026-01-11 01:33:13.86	8.90	39.18	-46.6	-49.9	20.8	6.02e-01	0	43	0	389021696	64	5394
2026-01-11 01:33:14.87	8.82	39.48	-46.6	-49.9	20.9	6.02e-01	0	42	0	391118848	64	5353
2026-01-11 01:33:15.87	8.73	39.78	-46.5	-49.8	21.0	6.00e-01	0	42	0	393216000	64	5303
2026-01-11 01:33:16.87	8.64	40.09	-46.5	-49.7	21.1	6.03e-01	0	42	0	394788864	64	5261
2026-01-11 01:33:17.88	8.54	40.40	-46.5	-49.7	21.1	6.00e-01	0	42	0	396886016	64	5255
2026-01-11 01:33:18.87	8.45	40.70	-46.6	-49.8	21.0	6.00e-01	0	42	0	398458880	64	5324
2026-01-11 01:33:19.88	8.35	41.02	-46.6	-49.9	20.9	6.00e-01	0	42	0	400556032	64	5347
2026-01-11 01:33:20.88	8.25	41.33	-46.4	-49.8	21.0	6.00e-01	0	42	0	402128896	64	5298
2026-01-11 01:33:21.89	8.15	41.65	-46.3	-49.6	21.1	6.03e-01	0	42	0	404226048	64	5197
2026-01-11 01:33:22.89	8.05	41.97	-46.0	-49.3	21.5	6.01e-01	0	42	0	406323200	64	5018
2026-01-11 01:33:23.90	7.94	42.30	-45.9	-49.1	21.7	5.99e-01	0	42	0	407896064	63	5212
2026-01-11 01:33:24.90	7.83	42.63	-46.0	-49.2	21.7	6.02e-01	0	42	0	409993216	63	5223
2026-01-11 01:33:25.90	7.72	42.96	-45.8	-48.9	20.6	6.02e-01	0	42	0	412090368	63	5062
2026-01-11 01:33:26.90	7.61	43.29	-45.6	-48.5	22.3	6.02e-01	0	42	0	413663232	63	4856
2026-01-11 01:33:27.90	7.50	43.63	-45.9	-48.8	22.0	6.02e-01	0	42	0	415760384	63	5014
2026-01-11 01:33:28.91	7.38	43.97	-46.0	-49.0	21.8	5.96e-01	0	42	0	417333248	63	5119
2026-01-11 01:33:29.91	7.26	44.31	-45.8	-48.7	22.1	6.03e-01	0	42	0	419430400	63	4927
2026-01-11 01:33:30.91	7.14	44.65	-45.6	-48.5	22.3	6.01e-01	0	42	0	421003264	63	4817
2026-01-11 01:33:31.92	7.01	45.00	-45.7	-48.5	22.2	6.02e-01	0	42	0	423100416	63	4847
2026-01-11 01:33:32.92	6.88	45.36	-45.4	-48.2	22.5	6.01e-01	0	42	0	425197568	62	4946
2026-01-11 01:33:33.92	6.75	45.71	-45.3	-48.1	22.6	6.03e-01	0	42	0	426770432	62	4886
2026-01-11 01:33:34.92	6.62	46.07	-45.6	-48.4	22.4	6.03e-01	0	42	0	428867584	62	5063
2026-01-11 01:33:35.93	6.48	46.43	-45.6	-48.4	22.3	6.00e-01	0	42	0	430440448	62	5093
2026-01-11 01:33:36.93	6.34	46.79	-45.5	-48.3	22.4	5.98e-01	0	42	0	432537600	62	5039
2026-01-11 01:33:37.94	6.19	47.16	-45.3	-48.1	22.7	6.01e-01	0	42	0	434110464	62	4876
2026-01-11 01:33:38.94	6.04	47.53	-45.6	-48.4	22.3	5.98e-01	0	42	0	436207616	62	5098
2026-01-11 01:33:39.94	5.89	47.91	-45.6	-48.4	22.3	5.99e-01	0	42	0	438304768	62	5088
2026-01-11 01:33:40.95	5.73	48.28	-45.5	-48.3	22.4	6.01e-01	0	42	0	439877632	62	5026
2026-01-11 01:33:41.95	5.57	48.66	-45.7	-48.5	21.8	6.02e-01	0	42	0	441974784	62	5134
2026-01-11 01:33:42.95	5.41	49.05	-45.7	-48.5	22.2	5.99e-01	0	42	0	444071936	62	5158
2026-01-11 01:33:43.95	5.24	49.43	-45.4	-48.1	22.6	6.04e-01	0	42	0	445644800	62	4898
2026-01-11 01:33:44.96	5.07	49.82	-45.3	-48.0	22.7	6.03e-01	0	42	0	447741952	62	4842
2026-01-11 01:33:45.96	4.89	50.22	-45.2	-47.9	22.8	6.02e-01	0	42	0	449314816	62	4792
2026-01-11 01:33:46.96	4.71	50.61	-45.1	-47.8	22.9	6.02e-01	0	42	0	451411968	62	4715
2026-01-11 01:33:47.97	4.52	51.01	-45.1	-47.8	22.9	5.98e-01	0	42	0	452984832	62	4724
2026-01-11 01:33:48.97	4.33	51.42	-45.1	-47.8	22.9	6.01e-01	0	42	0	455081984	62	4733
2026-01-11 01:33:49.97	4.13	51.82	-44.9	-47.5	23.2	5.99e-01	0	42	0	457179136	61	4844
2026-01-11 01:33:50.97	3.93	52.23	-44.8	-47.4	23.2	6.00e-01	0	43	0	458752000	61	4781
2026-01-11 01:33:51.98	3.72	52.64	-44.9	-47.6	23.1	6.02e-01	0	42	0	460849152	61	4886
2026-01-11 01:33:52.98	3.50	53.06	-44.7	-47.3	23.3	5.98e-01	0	42	0	462422016	61	4729
2026-01-11 01:33:53.98	3.28	53.48	-44.5	-47.0	23.5	6.01e-01	0	42	0	464519168	60	4845
2026-01-11 01:33:54.98	3.05	53.90	-44.5	-47.1	23.5	6.04e-01	0	42	0	466092032	60	4882
2026-01-11 01:33:55.99	2.81	54.33	-44.8	-47.4	23.3	6.00e-01	0	42	0	468189184	60	5068
2026-01-11 01:33:56.99	2.57	54.75	-44.8	-47.5	23.2	6.03e-01	0	42	0	470286336	60	5136
2026-01-11 01:33:57.99	2.32	55.18	-44.6	-47.3	23.3	6.02e-01	0	42	0	471859200	60	5006
2026-01-11 01:33:59.00	2.06	55.62	-44.6	-47.2	23.4	6.03e-01	0	42	0	473956352	60	4962
2026-01-11 01:34:00.00	1.79	56.06	-45.0	-47.7	23.0	6.02e-01	0	42	0	476053504	60	5241
2026-01-11 01:34:01.01	1.51	56.50	-45.1	-47.8	22.9	6.02e-01	0	42	0	477626368	60	5308
2026-01-11 01:34:02.01	1.23	56.95	-45.2	-47.9	22.8	6.01e-01	0	42	0	479723520	60	5363
2026-01-11 01:34:03.01	0.94	57.39	-45.8	-48.7	22.1	6.04e-01	0	42	0	481296384	62	5234
2026-01-11 01:34:04.02	0.63	57.85	-45.7	-48.5	22.3	6.01e-01	0	42	0	483393536	62	5135
2026-01-11 01:34:05.02	0.31	58.30	-45.9	-48.8	22.0	6.01e-01	0	42	0	484966400	62	5306
2026-01-11 01:34:06.02	359.99	58.75	-46.0	-48.9	21.9	6.01e-01	0	42	0	487063552	62	5377
2026-01-11 01:34:07.02	359.65	59.21	-46.0	-49.0	21.8	6.01e-01	0	42	0	489160704	62	5410
2026-01-11 01:34:08.03	359.30	59.67	-46.0	-49.0	21.9	6.02e-01	0	42	0	490733568	62	5420
2026-01-11 01:34:09.03	358.94	60.13	-46.1	-49.1	21.7	6.01e-01	0	42	0	492830720	63	5175
2026-01-11 01:34:10.03	358.56	60.60	-46.1	-49.1	21.8	6.00e-01	0	42	0	494403584	63	5173
2026-01-11 01:34:11.04	358.17	61.07	-46.2	-49.2	21.6	6.02e-01	0	42	0	496500736	63	5222
2026-01-11 01:34:12.04	357.76	61.54	-46.4	-49.3	21.5	6.01e-01	0	42	0	498073600	63	5332
2026-01-11 01:34:13.04	357.34	62.01	-46.4	-49.4	21.4	6.02e-01	0	42	0	500170752	63	5369
2026-01-11 01:34:14.05	356.90	62.49	-46.5	-49.7	20.7	6.01e-01	0	42	0	502267904	63	5543
2026-01-11 01:34:15.05	356.44	62.97	-46.5	-49.7	21.1	5.99e-01	0	42	0	503840768	63	5530
2026-01-11 01:34:16.06	355.96	63.45	-46.7	-49.9	21.0	6.00e-01	0	42	0	505937920	63	5681
2026-01-11 01:34:17.06	355.46	63.93	-47.0	-50.3	20.6	6.02e-01	0	42	0	507510784	64	5605
2026-01-11 01:34:18.06	354.95	64.41	-47.2	-50.5	20.4	6.03e-01	0	42	0	509607936	64	5741
2026-01-11 01:34:19.06	354.41	64.89	-47.4	-50.8	20.1	5.99e-01	0	42	0	511705088	65	5632
2026-01-11 01:34:20.07	353.84	65.38	-47.8	-51.5	19.4	6.02e-01	0	42	0	513277952	66	5788
2026-01-11 01:34:21.07	353.25	65.86	-47.8	-51.8	19.0	6.00e-01	0	42	0	515375104	66	5949
2026-01-11 01:34:22.07	352.64	66.34	-47.8	-51.9	19.0	6.00e-01	0	42	0	516947968	66	6037
2026-01-11 01:34:23.08	351.99	66.83	-48.1	-52.3	18.6	6.02e-01	0	42	0	519045120	67	5969
2026-01-11 01:34:24.08	351.32	67.32	-48.4	-52.6	18.3	6.02e-01	0	43	0	521142272	67	6188
2026-01-11 01:34:25.09	350.60	67.81	-48.5	-52.6	18.3	6.01e-01	0	43	0	522715136	67	6183
2026-01-11 01:34:26.09	349.86	68.29	-48.8	-53.0	18.1	6.02e-01	0	42	0	524812288	68	6063
2026-01-11 01:34:27.09	349.08	68.77	-48.5	-52.6	18.4	6.00e-01	0	42	0	526385152	68	5797
2026-01-11 01:34:28.09	348.26	69.26	-48.2	-52.1	18.9	6.00e-01	0	42	0	528482304	68	5487
2026-01-11 01:34:29.10	347.39	69.74	-48.7	-53.0	18.0	6.02e-01	0	43	0	530579456	68	6099
2026-01-11 01:34:30.10	346.49	70.22	-48.1	-51.9	19.0	6.02e-01	0	42	0	532152320	68	5385
2026-01-11 01:34:31.10	345.53	70.70	-48.0	-51.8	19.1	6.02e-01	0	42	0	534249472	67	5646
2026-01-11 01:34:32.10	344.53	71.17	-48.3	-52.2	18.8	6.02e-01	0	42	0	535822336	67	5878
2026-01-11 01:34:33.11	343.46	71.64	-48.3	-52.3	18.7	6.00e-01	0	42	0	537919488	67	5930
2026-01-11 01:34:34.11	342.34	72.11	-47.7	-51.2	19.7	6.03e-01	0	42	0	539492352	67	5266
2026-01-11 01:34:35.11	341.15	72.57	-48.3	-52.3	18.7	5.99e-01	0	43	0	541589504	67	5924
2026-01-11 01:34:36.12	339.89	73.03	-48.3	-52.3	18.6	6.00e-01	0	42	0	543686656	67	5974
2026-01-11 01:34:37.12	338.56	73.48	-48.1	-52.0	19.0	6.03e-01	0	42	0	545259520	67	5729
2026-01-11 01:34:38.12	337.16	73.92	-48.9	-53.2	17.9	6.00e-01	0	42	0	547356672	68	6250
2026-01-11 01:34:39.13	335.66	74.36	-48.2	-52.0	19.0	6.02e-01	0	42	0	548929536	68	5444
2026-01-11 01:34:40.13	334.09	74.78	-48.1	-51.9	19.1	6.01e-01	0	42	0	551026688	68	5390
2026-01-11 01:34:41.14	332.41	75.20	-47.9	-51.7	19.2	6.00e-01	0	42	0	552599552	67	5531
2026-01-11 01:34:42.14	330.64	75.60	-47.8	-51.6	19.2	6.02e-01	0	42	0	554696704	67	5504
2026-01-11 01:34:43.14	328.77	75.99	-47.2	-50.5	20.3	6.00e-01	0	42	0	556793856	66	5150
2026-01-11 01:34:44.14	326.79	76.37	-47.8	-51.5	19.4	6.00e-01	0	42	0	558366720	66	5762
2026-01-11 01:34:45.14	324.70	76.72	-47.2	-50.9	20.0	6.01e-01	0	42	0	560463872	66	5348
2026-01-11 01:34:46.15	322.47	77.07	-47.1	-50.6	20.2	5.99e-01	0	42	0	562561024	65	5519
2026-01-11 01:34:47.15	320.14	77.39	-47.3	-50.9	19.9	6.00e-01	0	42	0	564133888	65	5671
2026-01-11 01:34:48.15	317.69	77.70	-47.4	-50.9	19.9	6.02e-01	0	42	0	566231040	65	5720
2026-01-11 01:34:49.16	315.09	77.98	-46.8	-50.1	20.7	6.03e-01	0	42	0	567803904	65	5167
2026-01-11 01:34:50.16	312.39	78.23	-47.2	-50.9	19.9	6.03e-01	0	42	0	569901056	65	5686
2026-01-11 01:34:51.17	309.55	78.46	-47.2	-50.8	20.0	6.02e-01	0	42	0	571473920	65	5646
2026-01-11 01:34:52.17	306.63	78.66	-46.5	-49.7	21.1	6.03e-01	0	42	0	573571072	65	4932
2026-01-11 01:34:53.17	303.60	78.83	-47.3	-50.8	20.0	6.00e-01	0	42	0	575668224	65	5625
2026-01-11 01:34:54.17	300.49	78.97	-46.9	-50.2	20.6	6.01e-01	0	42	0	577241088	65	5257
2026-01-11 01:34:55.17	297.31	79.08	-46.5	-49.6	21.1	6.02e-01	0	42	0	579338240	65	4903
2026-01-11 01:34:56.18	294.04	79.15	-46.6	-49.9	20.9	6.03e-01	0	42	0	580911104	64	5349
2026-01-11 01:34:57.18	290.77	79.19	-46.5	-49.8	21.0	6.02e-01	0	42	0	583008256	64	5304
2026-01-11 01:34:58.18	287.49	79.20	-46.3	-49.4	21.4	6.02e-01	0	42	0	584581120	64	5044
2026-01-11 01:34:59.19	284.18	79.17	-46.8	-50.0	20.9	6.00e-01	0	42	0	586678272	64	5444
2026-01-11 01:35:00.19	280.93	79.10	-46.8	-50.2	20.5	6.02e-01	0	42	0	588775424	64	5571
2026-01-11 01:35:01.19	277.74	79.00	-46.1	-49.4	21.4	6.01e-01	0	42	0	590348288	64	5045
2026-01-11 01:35:02.20	274.58	78.87	-46.8	-50.4	20.5	6.03e-01	0	42	0	592445440	64	5673
2026-01-11 01:35:03.20	271.54	78.70	-46.6	-49.8	20.9	6.02e-01	0	42	0	594542592	64	5316
2026-01-11 01:35:04.20	268.59	78.51	-46.7	-50.0	20.8	6.01e-01	0	42	0	596115456	64	5456
2026-01-11 01:35:05.20	265.75	78.29	-46.9	-50.4	20.4	6.00e-01	0	42	0	598212608	64	5708
2026-01-11 01:35:06.21	263.00	78.03	-46.8	-50.2	20.6	6.03e-01	0	42	0	599785472	64	5549
2026-01-11 01:35:07.21	260.40	77.76	-46.9	-50.2	20.7	6.03e-01	0	42	0	601882624	64	5576
2026-01-11 01:35:08.21	257.92	77.46	-46.8	-50.2	20.5	6.03e-01	0	42	0	603455488	64	5592
2026-01-11 01:35:09.22	255.53	77.14	-47.0	-50.6	20.2	6.02e-01	0	42	0	605552640	64	5835
2026-01-11 01:35:10.22	253.30	76.80	-46.9	-50.5	20.4	6.02e-01	0	42	0	607649792	64	5725
2026-01-11 01:35:11.22	251.18	76.44	-47.3	-50.9	20.0	6.00e-01	0	42	0	609222656	65	5670
2026-01-11 01:35:12.23	249.16	76.07	-47.2	-50.6	20.2	6.03e-01	0	42	0	611319808	65	5517
2026-01-11 01:35:13.23	247.26	75.68	-47.9	-51.9	19.1	6.01e-01	0	42	0	612892672	66	6001
2026-01-11 01:35:14.23	245.48	75.28	-47.5	-51.2	19.8	6.02e-01	0	42	0	614989824	66	5561
2026-01-11 01:35:15.23	243.79	74.87	-47.7	-51.5	19.4	6.04e-01	0	42	0	616562688	66	5788
2026-01-11 01:35:16.24	242.18	74.44	-48.1	-52.0	18.9	6.00e-01	0	42	0	618659840	67	5757
2026-01-11 01:35:17.24	240.67	74.01	-48.1	-51.9	19.0	6.02e-01	0	42	0	620756992	67	5682
2026-01-11 01:35:18.24	239.25	73.57	-48.0	-51.8	19.1	6.01e-01	0	42	0	622329856	67	5613
2026-01-11 01:35:19.25	237.90	73.12	-48.3	-52.4	18.6	5.99e-01	0	42	0	624427008	67	5995
2026-01-11 01:35:20.25	236.63	72.66	-48.6	-52.8	18.2	6.03e-01	0	42	0	625999872	67	6314
2026-01-11 01:35:21.26	235.42	72.20	-48.4	-52.3	18.5	6.02e-01	0	42	0	628097024	68	5619
2026-01-11 01:35:22.26	234.29	71.73	-48.6	-52.7	18.4	6.00e-01	0	42	0	630194176	68	5857
2026-01-11 01:35:23.26	233.21	71.26	-49.0	-53.3	17.8	6.02e-01	0	42	0	631767040	68	6316
2026-01-11 01:35:24.27	232.18	70.78	-48.9	-53.2	17.7	6.01e-01	0	42	0	633864192	68	6249
2026-01-11 01:35:25.27	231.22	70.31	-49.1	-53.5	17.6	6.02e-01	0	42	0	635437056	68	6485
2026-01-11 01:35:26.27	230.30	69.83	-49.1	-53.5	17.6	6.01e-01	0	42	0	637534208	69	6090
2026-01-11 01:35:27.27	229.43	69.35	-49.8	-54.9	16.3	6.00e-01	0	42	0	639631360	70	6726
2026-01-11 01:35:28.27	228.60	68.87	-49.5	-54.4	16.6	6.01e-01	0	42	0	641204224	70	6366
2026-01-11 01:35:29.28	227.81	68.38	-49.4	-54.3	16.8	6.00e-01	0	42	0	643301376	70	6294
2026-01-11 01:35:30.28	227.06	67.89	-50.0	-55.4	15.7	6.02e-01	0	42	0	644874240	70	7174
2026-01-11 01:35:31.28	226.34	67.41	-49.8	-54.9	16.1	6.01e-01	0	42	0	646971392	71	6379
2026-01-11 01:35:32.29	225.66	66.91	-48.8	-53.1	17.9	6.04e-01	0	42	0	648544256	69	5809
2026-01-11 01:35:33.29	225.01	66.43	-48.8	-53.3	17.9	6.03e-01	0	42	0	650641408	69	5975
2026-01-11 01:35:34.29	224.38	65.94	-48.9	-53.5	17.6	6.01e-01	0	42	0	652738560	69	6069
2026-01-11 01:35:35.30	223.78	65.45	-48.8	-53.2	17.9	6.04e-01	0	42	0	654311424	69	5898
2026-01-11 01:35:36.30	223.22	64.97	-48.1	-51.8	19.2	6.02e-01	0	42	0	656408576	68	5310
2026-01-11 01:35:37.30	222.67	64.49	-47.7	-51.3	19.7	6.02e-01	0	42	0	657981440	67	5286
2026-01-11 01:35:38.30	222.15	64.01	-48.0	-51.9	19.0	6.00e-01	0	42	0	660078592	67	5679
2026-01-11 01:35:39.31	221.65	63.52	-47.6	-51.1	19.6	6.02e-01	0	42	0	662175744	67	5201
2026-01-11 01:35:40.31	221.17	63.04	-47.2	-50.5	20.3	6.00e-01	0	42	0	663748608	66	5140
2026-01-11 01:35:41.31	220.71	62.56	-47.0	-50.2	20.6	6.00e-01	0	42	0	665845760	65	5236
2026-01-11 01:35:42.32	220.26	62.08	-47.2	-50.5	20.3	6.01e-01	0	42	0	667418624	65	5413
2026-01-11 01:35:43.32	219.83	61.61	-47.0	-50.3	20.5	6.01e-01	0	42	0	669515776	65	5317
2026-01-11 01:35:44.32	219.42	61.14	-47.1	-50.5	20.2	6.01e-01	0	42	0	671612928	65	5447
2026-01-11 01:35:45.33	219.03	60.67	-46.9	-50.2	20.5	6.02e-01	0	42	0	673185792	65	5249
2026-01-11 01:35:46.33	218.65	60.20	-46.3	-49.3	21.4	6.02e-01	0	42	0	675282944	64	5020
2026-01-11 01:35:47.33	218.28	59.74	-46.5	-49.6	21.2	6.02e-01	0	42	0	676855808	64	5194
2026-01-11 01:35:48.34	217.92	59.27	-46.7	-49.9	20.9	6.00e-01	0	42	0	678952960	64	5373
2026-01-11 01:35:49.34	217.58	58.81	-46.6	-50.0	20.8	6.02e-01	0	42	0	680525824	64	5408
2026-01-11 01:35:50.34	217.26	58.35	-45.9	-48.9	21.8	6.00e-01	0	42	0	682622976	63	5086
2026-01-11 01:35:51.35	216.94	57.90	-45.8	-48.8	22.0	6.01e-01	0	42	0	684720128	63	5039
2026-01-11 01:35:52.35	216.63	57.45	-45.6	-48.4	22.3	6.02e-01	0	42	0	686292992	63	4796
2026-01-11 01:35:53.35	216.33	57.00	-45.7	-48.6	22.2	6.00e-01	0	42	0	688390144	63	4883
2026-01-11 01:35:54.35	216.05	56.55	-45.5	-48.2	22.4	6.03e-01	0	42	0	689963008	63	4699
2026-01-11 01:35:55.35	215.77	56.11	-45.3	-48.1	22.6	6.02e-01	0	42	0	692060160	62	4905
2026-01-11 01:35:56.36	215.50	55.67	-45.1	-47.7	22.9	6.02e-01	0	42	0	694157312	62	4705
2026-01-11 01:35:57.36	215.24	55.23	-44.5	-47.1	23.4	6.03e-01	0	42	0	695730176	61	4618
2026-01-11 01:35:58.36	214.98	54.80	-44.4	-46.9	23.7	6.02e-01	0	42	0	697827328	60	4772
2026-01-11 01:35:59.36	214.74	54.37	-44.7	-47.3	23.4	6.00e-01	0	42	0	699400192	60	4991
2026-01-11 01:36:00.37	214.50	53.94	-45.1	-47.8	22.8	6.02e-01	0	42	0	701497344	61	5034
2026-01-11 01:36:01.37	214.27	53.52	-44.6	-47.1	23.4	6.00e-01	0	42	0	703070208	61	4651
2026-01-11 01:36:02.37	214.05	53.10	-44.5	-47.0	23.6	6.03e-01	0	42	0	705167360	61	4559
2026-01-11 01:36:03.38	213.83	52.68	-44.5	-47.0	23.6	6.01e-01	0	42	0	707264512	61	4572
2026-01-11 01:36:04.38	213.62	52.26	-44.5	-47.1	23.6	6.03e-01	0	42	0	708837376	61	4601
2026-01-11 01:36:05.38	213.41	51.85	-44.9	-47.5	23.1	6.00e-01	0	42	0	710934528	61	4836
2026-01-11 01:36:06.38	213.21	51.44	-45.2	-48.0	22.7	6.01e-01	0	42	0	712507392	61	5111
2026-01-11 01:36:07.39	213.02	51.04	-45.4	-48.3	22.4	6.03e-01	0	42	0	714604544	61	5282
2026-01-11 01:36:08.39	212.83	50.64	-45.1	-47.9	22.8	6.00e-01	0	42	0	716701696	61	5045
2026-01-11 01:36:09.39	212.65	50.24	-45.1	-47.8	22.8	6.02e-01	0	42	0	718274560	61	5023
2026-01-11 01:36:10.39	212.47	49.85	-45.0	-47.7	22.9	6.00e-01	0	42	0	720371712	61	4965
2026-01-11 01:36:11.40	212.29	49.45	-45.0	-47.7	22.9	6.01e-01	0	42	0	721944576	61	4971
2026-01-11 01:36:12.40	212.12	49.06	-45.4	-48.2	22.5	6.02e-01	0	42	0	724041728	61	5262
2026-01-11 01:36:13.40	211.96	48.68	-45.6	-48.4	22.2	6.01e-01	0	42	0	726138880	61	5366
2026-01-11 01:36:14.41	211.79	48.29	-45.7	-48.6	22.1	5.99e-01	0	42	0	727711744	62	5178
2026-01-11 01:36:15.41	211.64	47.92	-45.5	-48.3	22.4	6.03e-01	0	42	0	729808896	62	5007
2026-01-11 01:36:16.41	211.48	47.54	-45.3	-48.2	22.5	6.02e-01	0	42	0	731381760	62	4944
2026-01-11 01:36:17.42	211.33	47.17	-45.5	-48.4	22.4	5.99e-01	0	42	0	733478912	62	5066
2026-01-11 01:36:18.42	211.19	46.80	-45.3	-48.1	22.5	6.02e-01	0	42	0	735051776	62	4905
2026-01-11 01:36:19.42	211.05	46.43	-45.1	-47.8	22.8	6.02e-01	0	42	0	737148928	62	4757
2026-01-11 01:36:20.42	210.91	46.07	-45.0	-47.7	22.9	6.04e-01	0	42	0	739246080	62	4673
2026-01-11 01:36:21.43	210.77	45.71	-45.2	-47.9	22.8	6.02e-01	0	42	0	740818944	62	4764
2026-01-11 01:36:22.43	210.64	45.35	-45.4	-48.2	22.5	6.00e-01	0	42	0	742916096	62	4934
2026-01-11 01:36:23.43	210.51	45.00	-45.6	-48.4	22.3	6.02e-01	0	42	0	744488960	62	5069
2026-01-11 01:36:24.44	210.38	44.65	-45.4	-48.3	22.3	6.02e-01	0	42	0	746586112	62	5016
2026-01-11 01:36:25.44	210.26	44.30	-45.3	-48.3	22.4	6.01e-01	0	42	0	748158976	62	4984
2026-01-11 01:36:26.44	210.14	43.96	-45.2	-48.2	22.5	6.04e-01	0	42	0	750256128	62	4960
2026-01-11 01:36:27.44	210.02	43.62	-45.1	-48.0	22.6	6.01e-01	0	42	0	752353280	62	4866
2026-01-11 01:36:28.44	209.90	43.28	-44.9	-47.7	22.9	6.00e-01	0	42	0	753926144	61	4943
2026-01-11 01:36:29.45	209.79	42.94	-45.1	-47.9	22.7	6.04e-01	0	42	0	756023296	61	5094
2026-01-11 01:36:30.45	209.68	42.61	-45.5	-48.4	22.3	6.01e-01	0	42	0	758120448	61	5347
2026-01-11 01:36:31.45	209.57	42.28	-45.7	-48.7	22.0	5.98e-01	0	42	0	759693312	62	5243
2026-01-11 01:36:32.46	209.46	41.95	-45.9	-48.9	21.9	6.01e-01	0	42	0	761790464	62	5352
2026-01-11 01:36:33.46	209.36	41.63	-46.2	-49.2	21.5	6.01e-01	0	42	0	763363328	63	5266
2026-01-11 01:36:34.46	209.26	41.31	-46.4	-49.5	21.3	5.99e-01	0	42	0	765460480	63	5439
2026-01-11 01:36:35.47	209.16	40.99	-46.4	-49.6	21.2	6.02e-01	0	42	0	767033344	63	5480
2026-01-11 01:36:36.47	209.06	40.68	-46.4	-49.6	21.2	6.02e-01	0	42	0	769130496	63	5483
2026-01-11 01:36:37.47	208.96	40.37	-46.4	-49.5	21.2	6.00e-01	0	42	0	771227648	63	5463
2026-01-11 01:36:38.47	208.87	40.06	-46.6	-49.8	21.0	6.01e-01	0	42	0	772800512	63	5647
2026-01-11 01:36:39.48	208.78	39.75	-46.4	-49.5	21.2	6.01e-01	0	42	0	774897664	63	5455
2026-01-11 01:36:40.48	208.69	39.45	-46.5	-49.6	21.1	6.01e-01	0	42	0	776470528	63	5519
2026-01-11 01:36:41.48	208.60	39.14	-46.7	-49.9	20.9	6.01e-01	0	42	0	778567680	64	5364
2026-01-11 01:36:42.49	208.51	38.84	-46.8	-50.1	20.6	6.01e-01	0	42	0	780140544	64	5505
2026-01-11 01:36:43.49	208.43	38.55	-46.8	-50.2	20.5	6.03e-01	0	42	0	782237696	64	5558
2026-01-11 01:36:44.49	208.34	38.26	-46.7	-50.1	20.6	6.01e-01	0	42	0	784334848	64	5476
2026-01-11 01:36:45.50	208.26	37.96	-46.6	-49.9	20.8	6.01e-01	0	42	0	785907712	64	5389
2026-01-11 01:36:46.50	208.18	37.68	-46.4	-49.7	20.9	6.01e-01	0	42	0	788004864	64	5276
2026-01-11 01:36:47.50	208.10	37.39	-46.6	-49.9	20.8	6.01e-01	0	42	0	790102016	64	5389
2026-01-11 01:36:48.51	208.03	37.11	-46.5	-49.9	20.8	6.01e-01	0	42	0	791674880	64	5358
2026-01-11 01:36:49.51	207.95	36.83	-46.4	-49.7	21.0	6.04e-01	0	42	0	793772032	64	5228
2026-01-11 01:36:50.52	207.87	36.55	-46.3	-49.5	21.2	6.02e-01	0	42	0	795344896	64	5134
2026-01-11 01:36:51.52	207.80	36.27	-46.2	-49.3	21.3	6.01e-01	0	42	0	797442048	64	5016
2026-01-11 01:36:52.52	207.73	36.00	-46.0	-49.1	21.5	6.03e-01	0	42	0	799014912	64	4909
2026-01-11 01:36:53.53	207.66	35.73	-45.9	-48.9	21.8	6.03e-01	0	42	0	801112064	63	5092
2026-01-11 01:36:54.53	207.59	35.46	-45.9	-48.9	21.8	6.01e-01	0	42	0	803209216	63	5066
2026-01-11 01:36:55.53	207.52	35.19	-46.0	-49.0	21.7	6.01e-01	0	42	0	804782080	63	5134
2026-01-11 01:36:56.54	207.45	34.93	-46.0	-49.0	21.8	6.00e-01	0	42	0	806879232	63	5109
2026-01-11 01:36:57.54	207.39	34.67	-45.9	-48.8	21.9	6.01e-01	0	42	0	808452096	63	5026
2026-01-11 01:36:58.54	207.32	34.41	-45.9	-48.8	21.9	6.04e-01	0	42	0	810549248	63	5017
2026-01-11 01:36:59.55	207.26	34.15	-45.7	-48.6	22.1	6.01e-01	0	42	0	812646400	63	4893
2026-01-11 01:37:00.55	207.19	33.89	-45.6	-48.4	22.2	6.00e-01	0	42	0	814219264	63	4813
2026-01-11 01:37:01.55	207.13	33.64	-45.3	-48.0	22.6	6.02e-01	0	42	0	816316416	62	4845
2026-01-11 01:37:02.56	207.07	33.39	-45.1	-47.8	22.8	6.01e-01	0	42	0	817889280	62	4743
2026-01-11 01:37:03.56	207.01	33.14	-45.2	-47.9	22.7	6.01e-01	0	42	0	819986432	62	4766
2026-01-11 01:37:04.56	206.95	32.90	-44.9	-47.6	23.0	6.02e-01	0	42	0	821559296	61	4877
2026-01-11 01:37:05.57	206.90	32.65	-44.9	-47.5	23.0	6.00e-01	0	42	0	823656448	61	4837
2026-01-11 01:37:06.57	206.84	32.41	-44.9	-47.5	23.0	6.03e-01	0	42	0	825753600	61	4864
2026-01-11 01:37:07.57	206.78	32.17	-44.9	-47.7	22.9	5.99e-01	0	42	0	827326464	61	4934
2026-01-11 01:37:08.58	206.73	31.93	-44.9	-47.7	22.8	6.02e-01	0	42	0	829423616	61	4956
2026-01-11 01:37:09.58	206.67	31.70	-45.0	-47.8	22.8	6.03e-01	0	42	0	830996480	61	4999
2026-01-11 01:37:10.58	206.62	31.46	-44.9	-47.6	22.9	5.98e-01	0	42	0	833093632	61	4907
2026-01-11 01:37:11.59	206.57	31.23	-44.8	-47.5	23.1	6.01e-01	0	42	0	835190784	61	4831
2026-01-11 01:37:12.59	206.52	31.00	-44.9	-47.6	23.0	6.01e-01	0	42	0	836763648	61	4874
2026-01-11 01:37:13.59	206.47	30.77	-44.9	-47.6	23.0	6.02e-01	0	42	0	838860800	61	4892
2026-01-11 01:37:14.60	206.41	30.54	-44.8	-47.5	23.0	6.01e-01	0	42	0	840433664	61	4840
2026-01-11 01:37:15.60	206.37	30.32	-44.8	-47.4	23.1	6.01e-01	0	42	0	842530816	61	4803
2026-01-11 01:37:16.60	206.32	30.10	-44.8	-47.4	23.1	6.00e-01	0	42	0	844627968	61	4774
2026-01-11 01:37:17.60	206.27	29.88	-44.7	-47.3	23.2	5.99e-01	0	42	0	846200832	61	4719
2026-01-11 01:37:18.61	206.22	29.66	-44.8	-47.4	23.1	6.00e-01	0	42	0	848297984	61	4769
2026-01-11 01:37:19.61	206.18	29.44	-44.7	-47.3	23.2	6.02e-01	0	42	0	849870848	61	4731
2026-01-11 01:37:20.61	206.13	29.22	-44.7	-47.3	23.3	6.00e-01	0	42	0	851968000	61	4708
2026-01-11 01:37:21.61	206.08	29.01	-44.8	-47.4	23.1	6.02e-01	0	42	0	853540864	61	4775
2026-01-11 01:37:22.62	206.04	28.80	-44.8	-47.4	23.1	5.97e-01	0	42	0	855638016	61	4789
2026-01-11 01:37:23.62	206.00	28.59	-44.8	-47.5	23.1	6.00e-01	0	42	0	857735168	61	4838
2026-01-11 01:37:24.63	205.95	28.38	-44.8	-47.5	23.0	6.02e-01	0	42	0	859308032	61	4840
2026-01-11 01:37:25.63	205.91	28.17	-44.8	-47.4	23.0	6.04e-01	0	42	0	861405184	61	4805
2026-01-11 01:37:26.63	205.87	27.96	-44.7	-47.4	23.1	6.02e-01	0	42	0	862978048	61	4802
2026-01-11 01:37:27.64	205.83	27.76	-44.8	-47.5	23.0	6.00e-01	0	42	0	865075200	61	4822
2026-01-11 01:37:28.64	205.79	27.56	-44.9	-47.6	22.9	6.03e-01	0	42	0	867172352	61	4895
2026-01-11 01:37:29.64	205.75	27.36	-45.0	-47.7	22.8	6.02e-01	0	42	0	868745216	61	4979
2026-01-11 01:37:30.64	205.71	27.16	-45.1	-47.9	22.6	6.01e-01	0	42	0	870842368	61	5058
2026-01-11 01:37:31.65	205.67	26.96	-45.2	-47.9	22.6	6.03e-01	0	42	0	872415232	61	5087
2026-01-11 01:37:32.65	205.63	26.76	-45.2	-48.0	22.6	6.01e-01	0	42	0	874512384	61	5129
2026-01-11 01:37:33.65	205.59	26.57	-45.3	-48.1	22.4	6.04e-01	0	42	0	876609536	61	5200
2026-01-11 01:37:34.66	205.55	26.38	-45.4	-48.2	22.3	6.02e-01	0	42	0	878182400	61	5255
2026-01-11 01:37:35.66	205.51	26.18	-45.5	-48.3	22.3	6.02e-01	0	42	0	880279552	61	5295
2026-01-11 01:37:36.66	205.48	25.99	-45.6	-48.4	22.2	6.02e-01	0	42	0	881852416	61	5367
2026-01-11 01:37:37.67	205.44	25.80	-45.5	-48.4	22.2	5.99e-01	0	42	0	883949568	61	5342
2026-01-11 01:37:38.67	205.41	25.62	-45.5	-48.3	22.2	6.02e-01	0	42	0	885522432	61	5315
2026-01-11 01:37:39.68	205.37	25.43	-45.5	-48.3	22.2	6.02e-01	0	42	0	887619584	61	5334
2026-01-11 01:37:40.68	205.34	25.25	-45.5	-48.3	22.2	6.03e-01	0	42	0	889716736	61	5317
2026-01-11 01:37:41.68	205.30	25.06	-45.5	-48.3	22.2	6.05e-01	0	42	0	891289600	61	5337
2026-01-11 01:37:42.68	205.27	24.88	-45.6	-48.5	22.1	6.01e-01	0	42	0	893386752	61	5422
2026-01-11 01:37:43.69	205.23	24.70	-45.5	-48.5	22.1	6.03e-01	0	42	0	894959616	61	5412
2026-01-11 01:37:44.69	205.20	24.52	-45.6	-48.5	22.0	6.02e-01	0	42	0	897056768	61	5433
2026-01-11 01:37:45.70	205.17	24.34	-45.6	-48.6	22.0	6.01e-01	0	42	0	899153920	61	5484
2026-01-11 01:37:46.70	205.14	24.17	-45.6	-48.5	22.0	6.01e-01	0	42	0	900726784	61	5456
2026-01-11 01:37:47.70	205.11	23.99	-45.5	-48.5	22.1	6.01e-01	0	42	0	902823936	61	5427
2026-01-11 01:37:48.71	205.07	23.82	-45.5	-48.5	22.0	6.02e-01	0	42	0	904396800	61	5429
2026-01-11 01:37:49.71	205.04	23.64	-45.5	-48.5	22.0	6.01e-01	0	42	0	906493952	61	5447
2026-01-11 01:37:50.71	205.01	23.47	-45.5	-48.5	22.1	6.00e-01	0	42	0	908591104	61	5407
2026-01-11 01:37:51.72	204.98	23.30	-45.6	-48.6	22.0	5.99e-01	0	42	0	910163968	61	5483
2026-01-11 01:37:52.72	204.95	23.13	-45.6	-48.6	22.0	6.02e-01	0	42	0	912261120	61	5482
2026-01-11 01:37:53.72	204.92	22.97	-45.6	-48.6	21.9	6.02e-01	0	42	0	913833984	61	5514
2026-01-11 01:37:54.73	204.89	22.80	-45.6	-48.6	21.9	5.98e-01	0	42	0	915931136	61	5522
2026-01-11 01:37:55.73	204.87	22.63	-45.7	-48.7	21.8	5.99e-01	0	42	0	917504000	62	5263
2026-01-11 01:37:56.73	204.84	22.47	-45.7	-48.7	21.8	6.01e-01	0	42	0	919601152	62	5265
2026-01-11 01:37:57.73	204.81	22.31	-45.7	-48.7	21.8	6.01e-01	0	42	0	921698304	62	5267
2026-01-11 01:37:58.74	204.78	22.14	-45.8	-48.8	21.8	5.99e-01	0	42	0	923271168	62	5294
2026-01-11 01:37:59.74	204.75	21.98	-45.9	-48.9	21.7	6.01e-01	0	42	0	925368320	62	5368
2026-01-11 01:38:00.74	204.73	21.82	-45.9	-48.9	21.7	6.05e-01	0	42	0	926941184	62	5368
2026-01-11 01:38:01.75	204.70	21.66	-45.8	-48.8	21.7	6.02e-01	0	42	0	929038336	62	5338
2026-01-11 01:38:02.75	204.67	21.50	-45.8	-48.8	21.7	6.01e-01	0	42	0	931135488	62	5331
2026-01-11 01:38:03.75	204.65	21.35	-45.8	-48.8	21.7	6.02e-01	0	42	0	932708352	62	5305
2026-01-11 01:38:04.75	204.62	21.19	-45.8	-48.8	21.7	6.02e-01	0	42	0	934805504	62	5318
2026-01-11 01:38:05.76	204.60	21.04	-45.8	-48.8	21.8	6.00e-01	0	42	0	936378368	62	5304
2026-01-11 01:38:06.76	204.57	20.88	-45.8	-48.8	21.7	6.02e-01	0	42	0	938475520	62	5334
2026-01-11 01:38:07.76	204.55	20.73	-45.8	-48.8	21.7	6.02e-01	0	42	0	940572672	62	5325
2026-01-11 01:38:08.77	204.52	20.58	-45.7	-48.8	21.8	6.02e-01	0	42	0	942145536	62	5281
2026-01-11 01:38:09.77	204.50	20.43	-45.7	-48.7	21.8	6.04e-01	0	42	0	944242688	62	5253
2026-01-11 01:38:10.77	204.47	20.28	-45.7	-48.7	21.8	6.00e-01	0	42	0	945815552	62	5269
2026-01-11 01:38:11.78	204.45	20.13	-45.7	-48.7	21.8	6.00e-01	0	42	0	947912704	62	5265
2026-01-11 01:38:12.78	204.43	19.98	-45.7	-48.8	21.7	6.00e-01	0	42	0	949485568	62	5314
2026-01-11 01:38:13.78	204.40	19.84	-45.6	-48.7	21.8	6.02e-01	0	42	0	951582720	62	5230
2026-01-11 01:38:14.79	204.38	19.69	-45.7	-48.7	21.8	5.99e-01	0	42	0	953679872	62	5260
2026-01-11 01:38:15.79	204.36	19.54	-45.6	-48.6	21.9	6.03e-01	0	42	0	955252736	62	5185
2026-01-11 01:38:16.80	204.33	19.40	-45.6	-48.6	21.9	6.03e-01	0	42	0	957349888	62	5194
2026-01-11 01:38:17.80	204.31	19.26	-45.6	-48.5	21.9	6.01e-01	0	42	0	958922752	62	5151
2026-01-11 01:38:18.81	204.29	19.11	-45.5	-48.6	21.9	6.02e-01	0	42	0	961019904	62	5163
2026-01-11 01:38:19.81	204.27	18.97	-45.4	-48.4	22.0	5.99e-01	0	42	0	963117056	62	5078
2026-01-11 01:38:20.81	204.25	18.83	-45.4	-48.3	22.1	6.01e-01	0	42	0	964689920	62	5027
2026-01-11 01:38:21.81	204.23	18.69	-45.4	-48.3	22.1	6.02e-01	0	42	0	966787072	62	5037
2026-01-11 01:38:22.81	204.21	18.55	-45.4	-48.3	22.1	6.04e-01	0	42	0	968359936	62	5009
2026-01-11 01:38:23.82	204.18	18.42	-45.4	-48.4	22.0	6.00e-01	0	42	0	970457088	62	5062
2026-01-11 01:38:24.82	204.16	18.28	-45.3	-48.2	22.2	6.00e-01	0	42	0	972029952	62	4978
2026-01-11 01:38:25.82	204.14	18.14	-45.3	-48.2	22.2	6.05e-01	0	42	0	974127104	62	4931
2026-01-11 01:38:26.83	204.12	18.01	-45.3	-48.2	22.2	6.04e-01	0	42	0	976224256	62	4977
2026-01-11 01:38:27.83	204.10	17.87	-45.4	-48.2	22.1	6.02e-01	0	42	0	977797120	62	4982
2026-01-11 01:38:28.83	204.08	17.74	-45.5	-48.4	22.0	6.01e-01	0	42	0	979894272	62	5097
2026-01-11 01:38:29.83	204.06	17.61	-45.5	-48.5	22.0	6.02e-01	0	42	0	981467136	62	5102
2026-01-11 01:38:30.84	204.05	17.47	-45.5	-48.4	22.0	6.02e-01	0	42	0	983564288	62	5086
2026-01-11 01:38:31.84	204.03	17.34	-45.5	-48.4	21.9	6.00e-01	0	42	0	985661440	62	5098
2026-01-11 01:38:32.84	204.01	17.21	-45.6	-48.6	21.9	6.03e-01	0	42	0	987234304	62	5161
2026-01-11 01:38:33.85	203.99	17.08	-45.6	-48.5	21.9	6.02e-01	0	42	0	989331456	62	5146
2026-01-11 01:38:34.85	203.97	16.95	-45.6	-48.5	21.8	6.02e-01	0	42	0	990904320	62	5147
2026-01-11 01:38:35.85	203.95	16.82	-45.5	-48.4	22.0	6.01e-01	0	42	0	993001472	62	5081
2026-01-11 01:38:36.86	203.93	16.70	-45.5	-48.4	22.0	6.05e-01	0	42	0	995098624	62	5074
2026-01-11 01:38:37.86	203.92	16.57	-45.5	-48.5	21.9	6.02e-01	0	42	0	996671488	62	5131
2026-01-11 01:38:38.86	203.90	16.44	-45.6	-48.6	21.8	6.03e-01	0	42	0	998768640	62	5181
2026-01-11 01:38:39.86	203.88	16.32	-45.5	-48.5	21.9	6.02e-01	0	42	0	1000341504	62	5103
2026-01-11 01:38:40.87	203.86	16.19	-45.5	-48.4	21.9	5.99e-01	0	42	0	1002438656	62	5087
2026-01-11 01:38:41.87	203.85	16.07	-45.4	-48.4	21.9	6.03e-01	0	42	0	1004011520	62	5081
2026-01-11 01:38:42.87	203.83	15.95	-45.5	-48.5	21.9	5.99e-01	0	42	0	1006108672	62	5110
2026-01-11 01:38:43.88	203.81	15.82	-45.5	-48.5	21.9	6.00e-01	0	42	0	1008205824	62	5102
2026-01-11 01:38:44.88	203.80	15.70	-45.5	-48.5	21.9	5.98e-01	0	42	0	1009778688	62	5133
2026-01-11 01:38:45.88	203.78	15.58	-45.6	-48.6	21.7	6.01e-01	0	42	0	1011875840	62	5187
2026-01-11 01:38:46.89	203.76	15.46	-45.6	-48.5	21.8	6.00e-01	0	42	0	1013448704	62	5158
2026-01-11 01:38:47.89	203.75	15.34	-45.5	-48.5	21.9	6.01e-01	0	42	0	1015545856	62	5110
2026-01-11 01:38:48.90	203.73	15.22	-45.6	-48.6	21.8	6.00e-01	0	42	0	1017643008	62	5177
2026-01-11 01:38:49.90	203.71	15.10	-45.6	-48.6	21.8	6.03e-01	0	42	0	1019215872	62	5169
2026-01-11 01:38:50.90	203.70	14.98	-45.6	-48.6	21.7	6.00e-01	0	42	0	1021313024	62	5211
2026-01-11 01:38:51.91	203.68	14.86	-45.6	-48.6	21.8	6.01e-01	0	42	0	1022885888	62	5191
2026-01-11 01:38:52.91	203.67	14.75	-45.6	-48.7	21.6	5.99e-01	0	42	0	1024983040	62	5253
2026-01-11 01:38:53.91	203.65	14.63	-45.7	-48.8	21.6	6.00e-01	0	42	0	1027080192	62	5281
2026-01-11 01:38:54.92	203.64	14.51	-45.6	-48.7	21.7	6.03e-01	0	42	0	1028653056	62	5239
2026-01-11 01:38:55.92	203.62	14.40	-45.6	-48.7	21.7	6.00e-01	0	42	0	1030750208	62	5234
2026-01-11 01:38:56.92	203.61	14.29	-45.6	-48.7	21.7	6.00e-01	0	42	0	1032323072	62	5240
2026-01-11 01:38:57.93	203.59	14.17	-45.6	-48.8	21.6	6.01e-01	0	42	0	1034420224	62	5296
2026-01-11 01:38:58.93	203.58	14.06	-45.7	-48.8	21.5	6.04e-01	0	42	0	1035993088	62	5321
2026-01-11 01:38:59.94	203.56	13.94	-45.7	-48.8	21.6	6.01e-01	0	42	0	1038090240	62	5297
2026-01-11 01:39:00.91	203.55	13.84	-45.6	-48.7	21.6	6.01e-01	0	42	0	1040187392	62	5246
2026-01-11 01:39:01.91	203.54	13.72	-45.6	-48.7	21.6	5.99e-01	0	42	0	1041760256	62	5268
2026-01-11 01:39:02.92	203.52	13.61	-45.6	-48.7	21.6	6.01e-01	0	42	0	1043857408	62	5270
2026-01-11 01:39:03.92	203.51	13.50	-45.6	-48.8	21.5	6.01e-01	0	42	0	1045430272	62	5316
2026-01-11 01:39:04.92	203.49	13.39	-45.6	-48.8	21.5	6.01e-01	0	42	0	1047527424	62	5286
2026-01-11 01:39:05.93	203.48	13.28	-45.5	-48.7	21.6	6.03e-01	0	42	0	1049100288	62	5230
2026-01-11 01:39:06.93	203.47	13.17	-45.4	-48.6	21.7	6.02e-01	0	42	0	1051197440	62	5171
2026-01-11 01:39:07.93	203.45	13.07	-45.5	-48.7	21.5	6.01e-01	0	42	0	1053294592	62	5269
2026-01-11 01:39:08.94	203.44	12.96	-45.5	-48.7	21.6	6.03e-01	0	42	0	1054867456	62	5239
2026-01-11 01:39:09.94	203.43	12.85	-45.5	-48.7	21.6	5.99e-01	0	42	0	1056964608	62	5235
2026-01-11 01:39:10.94	203.42	12.75	-45.4	-48.7	21.6	6.01e-01	0	42	0	1058537472	62	5224
2026-01-11 01:39:11.95	203.40	12.64	-45.4	-48.6	21.6	6.02e-01	0	42	0	1060634624	62	5205
2026-01-11 01:39:12.95	203.39	12.53	-45.4	-48.7	21.5	6.01e-01	0	41	0	1062731776	62	5264
2026-01-11 01:39:13.95	203.38	12.43	-45.4	-48.7	21.5	6.02e-01	0	42	0	1064304640	62	5264
2026-01-11 01:39:14.96	203.36	12.32	-45.5	-48.8	21.4	6.02e-01	0	42	0	1066401792	62	5339
2026-01-11 01:39:15.96	203.35	12.22	-45.6	-49.0	21.3	6.01e-01	0	42	0	1067974656	62	5418
2026-01-11 01:39:16.96	203.34	12.12	-45.5	-48.9	21.4	6.02e-01	0	42	0	1070071808	62	5353
2026-01-11 01:39:17.96	203.33	12.01	-45.4	-48.8	21.4	6.02e-01	0	42	0	1072168960	62	5307
2026-01-11 01:39:18.97	203.32	11.91	-45.4	-48.9	21.4	6.02e-01	0	42	0	1073741824	62	5357
2026-01-11 01:39:19.97	203.30	11.81	-45.4	-48.9	21.3	6.04e-01	0	42	0	1075838976	62	5367
2026-01-11 01:39:20.97	203.29	11.71	-45.5	-49.0	21.2	6.04e-01	0	42	0	1077411840	62	5415
2026-01-11 01:39:21.98	203.28	11.60	-45.5	-49.0	21.2	6.02e-01	0	42	0	1079508992	62	5450
2026-01-11 01:39:22.98	203.27	11.50	-45.5	-49.0	21.2	6.02e-01	0	41	0	1081081856	62	5457
2026-01-11 01:39:23.99	203.26	11.40	-45.5	-49.1	21.2	6.00e-01	0	41	0	1083179008	62	5469
2026-01-11 01:39:24.99	203.25	11.30	-45.5	-49.0	21.2	6.03e-01	0	42	0	1085276160	62	5442
2026-01-11 01:39:25.99	203.23	11.20	-45.5	-49.1	21.1	6.00e-01	0	42	0	1086849024	62	5472
2026-01-11 01:39:27.00	203.22	11.10	-45.6	-49.2	21.1	6.00e-01	0	42	0	1088946176	62	5537
2026-01-11 01:39:28.00	203.21	11.01	-45.6	-49.2	21.1	6.01e-01	0	42	0	1090519040	62	5536
2026-01-11 01:39:29.00	203.20	10.91	-45.6	-49.2	21.0	6.01e-01	0	42	0	1092616192	62	5581
2026-01-11 01:39:30.00	203.19	10.81	-45.6	-49.2	21.0	6.02e-01	0	42	0	1094713344	62	5590
2026-01-11 01:39:31.01	203.18	10.71	-45.6	-49.3	21.0	6.03e-01	0	42	0	1096286208	62	5602
2026-01-11 01:39:32.01	203.17	10.62	-45.6	-49.3	20.9	6.02e-01	0	42	0	1098383360	62	5619
2026-01-11 01:39:33.01	203.16	10.52	-45.6	-49.3	20.9	6.02e-01	0	42	0	1099956224	62	5628
2026-01-11 01:39:34.02	203.15	10.42	-45.6	-49.4	20.8	6.00e-01	0	42	0	1102053376	62	5687
2026-01-11 01:39:35.02	203.14	10.33	-45.7	-49.4	20.8	6.02e-01	0	41	0	1104150528	62	5712
2026-01-11 01:39:36.02	203.13	10.23	-45.7	-49.4	20.8	6.02e-01	0	41	0	1105723392	62	5697
2026-01-11 01:39:37.02	203.12	10.14	-45.6	-49.4	20.8	6.01e-01	0	42	0	1107820544	62	5661
2026-01-11 01:39:38.03	203.11	10.04	-45.7	-49.4	20.8	6.00e-01	0	41	0	1109393408	62	5696
2026-01-11 01:39:39.03	203.10	9.95	-45.7	-49.4	20.8	6.01e-01	0	42	0	1111490560	62	5721
2026-01-11 01:39:40.03	203.09	9.86	-45.7	-49.4	20.8	6.02e-01	0	41	0	1113063424	62	5707
2026-01-11 01:39:41.04	203.08	9.76	-45.6	-49.4	20.8	6.01e-01	0	41	0	1115160576	62	5688
2026-01-11 01:39:42.04	203.07	9.67	-45.7	-49.5	20.7	6.00e-01	0	42	0	1117257728	62	5746
2026-01-11 01:39:43.05	203.06	9.58	-45.7	-49.5	20.7	6.01e-01	0	42	0	1118830592	62	5726
2026-01-11 01:39:44.05	203.05	9.49	-45.7	-49.5	20.7	5.99e-01	0	42	0	1120927744	62	5746
2026-01-11 01:39:45.05	203.04	9.39	-45.8	-49.6	20.6	6.00e-01	0	42	0	1122500608	62	5813
2026-01-11 01:39:46.05	203.03	9.30	-45.8	-49.6	20.7	6.02e-01	0	42	0	1124597760	62	5806
2026-01-11 01:39:47.06	203.02	9.21	-45.8	-49.5	20.7	5.98e-01	0	42	0	1126694912	62	5766
2026-01-11 01:39:48.06	203.01	9.12	-45.9	-49.6	20.6	6.02e-01	0	42	0	1128267776	62	5825
2026-01-11 01:39:49.06	203.00	9.03	-45.9	-49.8	20.4	6.03e-01	0	42	0	1130364928	62	5937
2026-01-11 01:39:50.07	202.99	8.94	-50.1	-69.5	3.9	7.55e-01	0	42	104	1131937792	70	36325
2026-01-11 01:39:51.07	202.98	8.85	-51.3	-70.1	3.9	7.44e-01	0	42	104	1131937792	73	32796
2026-01-11 01:39:52.08	202.97	8.76	-51.5	-71.7	3.8	7.46e-01	0	42	104	1131937792	73	39517
2026-01-11 01:39:53.08	202.97	8.67	-51.7	-71.8	3.8	7.44e-01	0	42	104	1131937792	74	37760
2026-01-11 01:39:54.08	202.96	8.59	-51.8	-71.9	3.8	7.47e-01	0	42	104	1131937792	74	38165
2026-01-11 01:39:55.09	202.95	8.50	-51.8	-72.0	3.8	7.45e-01	0	41	104	1131937792	74	38505
2026-01-11 01:39:56.09	202.94	8.41	-51.8	-72.1	3.8	7.47e-01	0	42	104	1131937792	74	38726
2026-01-11 01:39:57.10	202.93	8.32	-52.1	-72.1	3.8	7.48e-01	0	42	104	1131937792	74	39084
2026-01-11 01:39:58.10	202.92	8.23	-51.7	-72.2	3.8	7.45e-01	0	42	104	1131937792	74	39139
2026-01-11 01:39:59.10	202.91	8.15	-52.3	-72.2	3.8	7.44e-01	0	42	104	1131937792	75	36993
2026-01-11 01:40:00.11	202.91	8.06	-52.2	-72.2	3.8	7.47e-01	0	42	104	1131937792	75	37020
2026-01-11 01:40:01.12	202.90	7.97	-52.1	-72.2	3.8	7.49e-01	0	42	104	1131937792	75	37001
2026-01-11 01:40:02.12	202.89	7.89	-52.0	-72.2	3.8	7.48e-01	0	42	104	1131937792	75	37059
2026-01-11 01:40:03.12	202.88	7.80	-52.1	-72.2	3.8	7.46e-01	0	42	104	1131937792	75	37031
2026-01-11 01:40:04.13	202.87	7.72	-52.3	-72.2	3.8	7.45e-01	0	42	104	1131937792	75	36994
2026-01-11 01:40:05.13	202.86	7.63	-52.3	-72.2	3.8	7.47e-01	0	42	104	1131937792	75	36985
2026-01-11 01:40:06.14	202.86	7.55	-52.2	-72.2	3.8	7.45e-01	0	41	104	1131937792	75	37027
2026-01-11 01:40:07.14	202.85	7.46	-52.2	-72.2	3.8	7.45e-01	0	42	104	1131937792	75	36974
2026-01-11 01:40:08.14	202.84	7.38	-52.1	-72.2	3.8	7.45e-01	0	42	104	1131937792	75	37040
2026-01-11 01:40:09.15	202.83	7.30	-51.7	-72.2	3.8	7.46e-01	0	42	104	1131937792	75	37036
2026-01-11 01:40:10.15	202.83	7.21	-51.8	-72.2	3.8	7.46e-01	0	42	104	1131937792	75	37022
2026-01-11 01:40:11.16	202.82	7.13	-51.3	-72.2	3.8	7.43e-01	0	42	104	1131937792	74	39177
2026-01-11 01:40:12.16	202.81	7.05	-51.7	-72.1	3.8	7.47e-01	0	42	104	1131937792	74	38935
2026-01-11 01:40:13.17	202.80	6.97	-51.7	-72.1	3.8	7.47e-01	0	42	104	1131937792	74	38919
2026-01-11 01:40:14.17	202.80	6.88	-51.7	-72.1	3.8	7.45e-01	0	42	104	1131937792	74	39027
2026-01-11 01:40:15.18	202.79	6.80	-51.7	-72.1	3.8	7.45e-01	0	42	104	1131937792	74	38955
2026-01-11 01:40:16.18	202.78	6.72	-51.7	-72.1	3.8	7.44e-01	0	42	104	1131937792	74	38930
2026-01-11 01:40:17.18	202.77	6.64	-51.7	-72.1	3.8	7.44e-01	0	41	104	1131937792	74	38920
2026-01-11 01:40:18.19	202.77	6.56	-51.7	-72.1	3.8	7.45e-01	0	41	104	1131937792	74	38957
2026-01-11 01:40:19.19	202.76	6.48	-51.7	-72.1	3.8	7.44e-01	0	41	104	1131937792	74	38903
2026-01-11 01:40:20.20	202.75	6.40	-51.7	-72.1	3.8	7.45e-01	0	42	104	1131937792	74	38889
2026-01-11 01:40:21.20	202.74	6.32	-51.7	-72.1	3.8	7.47e-01	0	42	104	1131937792	74	38966
2026-01-11 01:40:22.21	202.74	6.24	-51.7	-72.1	3.8	7.44e-01	0	41	104	1131937792	74	38981
2026-01-11 01:40:23.21	202.73	6.16	-51.7	-72.1	3.8	7.47e-01	0	41	104	1131937792	74	39005
2026-01-11 01:40:24.22	202.72	6.08	-51.7	-72.1	3.8	7.50e-01	0	42	104	1131937792	74	38982
2026-01-11 01:40:25.22	202.72	6.00	-51.7	-72.1	3.8	7.48e-01	0	42	104	1131937792	74	38961
2026-01-11 01:40:26.22	202.71	5.92	-51.7	-72.1	3.8	7.45e-01	0	42	104	1131937792	74	38976
2026-01-11 01:40:27.23	202.70	5.84	-51.7	-72.1	3.8	7.48e-01	0	42	104	1131937792	74	38879
2026-01-11 01:40:28.23	202.70	5.76	-51.7	-72.1	3.8	7.50e-01	0	42	104	1131937792	74	39015
2026-01-11 01:40:29.24	202.69	5.69	-51.7	-72.1	3.8	7.45e-01	0	42	104	1131937792	74	38884
2026-01-11 01:40:30.24	202.68	5.61	-51.7	-72.1	3.8	7.46e-01	0	42	104	1131937792	74	38879
2026-01-11 01:40:31.25	202.68	5.53	-51.7	-72.1	3.8	7.46e-01	0	42	104	1131937792	74	38860
2026-01-11 01:40:32.25	202.67	5.45	-51.7	-72.1	3.8	7.46e-01	0	42	104	1131937792	74	38913
2026-01-11 01:40:33.26	202.66	5.38	-51.7	-72.1	3.8	7.43e-01	0	42	104	1131937792	74	38940
2026-01-11 01:40:34.26	202.66	5.30	-51.7	-72.1	3.8	7.45e-01	0	42	104	1131937792	74	38892
2026-01-11 01:40:35.26	202.65	5.22	-51.7	-72.1	3.8	7.47e-01	0	42	104	1131937792	74	38818
2026-01-11 01:40:36.27	202.65	5.15	-51.7	-72.1	3.8	7.45e-01	0	42	104	1131937792	74	38888
2026-01-11 01:40:37.28	202.64	5.07	-51.7	-72.1	3.8	7.45e-01	0	42	104	1131937792	74	38911
2026-01-11 01:40:38.28	202.63	4.99	-51.7	-72.1	3.8	7.46e-01	0	42	104	1131937792	74	38877

#Closed at: 2026-01-11 01:40:39
#Recorded file [1131 MB]: D:/Data/31040_260111_042917.dat