passes_logs/2026/01/11/T1/T1__20260111_074357_NOAA_20_JPSS-1_rec.log

#Pass ID: 20260111_074357_NOAA 20 (JPSS-1)
#Satellite: NOAA 20 (JPSS-1)
#Configuration: NOAA 20
#almurnet v.1.7.20251203
#Start time: 2026-01-11 07:43:57

#Version: 2.0.20230620
#Station: T1
#Location: 37.570604 lon 55.790049 lat
#TLE: 1 43013U 17073A   26010.88944318  .00000078  00000+0  57801-4 0  9992
#TLE: 2 43013  98.7631 311.8723 0001655  45.1140 315.0170 14.19535117422152

#Time	Az	El	Level	Level2	SNR	BER	BlckErr	Temp	State	Recorded	gain1	gain2
2026-01-11 07:43:57.66	89.35	5.02	-50.0	-65.4	3.8	1.49e+00	0	40	0	0	72	20183
2026-01-11 07:43:58.65	89.24	5.08	-50.0	-65.4	3.8	1.49e+00	0	40	104	0	72	20199
2026-01-11 07:43:59.66	89.14	5.13	-50.0	-65.4	3.8	1.49e+00	0	40	104	0	72	20181
2026-01-11 07:44:00.66	89.03	5.18	-50.0	-65.4	3.8	1.49e+00	0	40	104	0	72	20132
2026-01-11 07:44:01.66	88.92	5.23	-50.0	-65.4	3.8	1.49e+00	0	40	104	0	72	20181
2026-01-11 07:44:02.66	88.81	5.28	-50.0	-65.4	3.8	1.49e+00	0	40	104	0	72	20113
2026-01-11 07:44:03.67	88.71	5.33	-50.0	-65.4	3.8	1.49e+00	0	40	104	0	72	20105
2026-01-11 07:44:04.67	88.60	5.38	-50.0	-65.3	3.8	1.49e+00	0	40	104	0	72	20063
2026-01-11 07:44:05.67	88.49	5.44	-50.0	-65.4	3.8	1.49e+00	0	40	104	0	72	20142
2026-01-11 07:44:06.68	88.38	5.49	-50.0	-65.4	3.8	1.49e+00	0	40	104	0	72	20190
2026-01-11 07:44:07.68	88.27	5.54	-50.0	-65.4	3.8	1.49e+00	0	40	104	0	72	20171
2026-01-11 07:44:08.68	88.16	5.59	-50.0	-65.4	3.8	1.49e+00	0	40	104	0	72	20092
2026-01-11 07:44:09.69	88.05	5.64	-50.0	-65.4	3.8	1.49e+00	0	41	104	0	72	20211
2026-01-11 07:44:10.69	87.94	5.69	-50.0	-65.4	3.8	1.49e+00	0	40	104	0	72	20224
2026-01-11 07:44:11.69	87.82	5.75	-50.0	-65.4	3.8	1.49e+00	0	41	104	0	72	20121
2026-01-11 07:44:12.70	87.71	5.80	-50.0	-65.4	3.8	1.49e+00	0	41	104	0	72	20173
2026-01-11 07:44:13.70	87.60	5.85	-50.0	-65.4	3.8	1.49e+00	0	41	104	0	72	20081
2026-01-11 07:44:14.70	87.49	5.90	-50.0	-65.3	3.8	1.49e+00	0	41	104	0	72	20057
2026-01-11 07:44:15.71	87.37	5.95	-50.0	-65.3	3.8	1.49e+00	0	41	104	0	72	20030
2026-01-11 07:44:16.71	87.26	6.00	-50.0	-65.4	3.8	1.49e+00	0	41	104	0	71	21263
2026-01-11 07:44:17.71	87.15	6.06	-50.0	-65.3	3.8	1.49e+00	0	41	104	0	71	21161
2026-01-11 07:44:18.71	87.03	6.11	-50.0	-65.3	3.8	1.49e+00	0	41	104	0	71	21150
2026-01-11 07:44:19.72	86.92	6.16	-50.0	-65.3	3.8	1.49e+00	0	41	104	0	71	21211
2026-01-11 07:44:20.72	86.80	6.21	-50.0	-65.4	3.8	1.49e+00	0	41	104	0	71	21269
2026-01-11 07:44:21.73	86.69	6.26	-50.0	-65.3	3.8	1.49e+00	0	41	104	0	71	21125
2026-01-11 07:44:22.73	86.57	6.31	-50.0	-65.3	3.8	1.49e+00	0	41	104	0	71	21186
2026-01-11 07:44:23.73	86.45	6.37	-50.0	-65.3	3.8	1.49e+00	0	41	104	0	71	21204
2026-01-11 07:44:24.73	86.34	6.42	-50.0	-65.3	3.8	1.49e+00	0	41	104	0	71	21193
2026-01-11 07:44:25.73	86.22	6.47	-50.0	-65.3	3.8	1.49e+00	0	41	104	0	71	21241
2026-01-11 07:44:26.74	86.10	6.52	-50.0	-65.3	3.8	1.49e+00	0	41	104	0	71	21215
2026-01-11 07:44:27.74	85.98	6.57	-50.0	-65.4	3.8	1.49e+00	0	41	104	0	71	21269
2026-01-11 07:44:28.74	85.87	6.62	-50.0	-65.3	3.8	1.49e+00	0	41	104	0	71	21247
2026-01-11 07:44:29.74	85.75	6.67	-50.0	-65.3	3.8	1.49e+00	0	41	104	0	71	21193
2026-01-11 07:44:30.74	85.63	6.73	-50.0	-65.4	3.8	1.49e+00	0	41	104	0	71	21277
2026-01-11 07:44:31.74	85.51	6.78	-50.0	-65.3	3.8	1.49e+00	0	41	104	0	71	21212
2026-01-11 07:44:32.75	85.39	6.83	-50.0	-65.3	3.8	1.49e+00	0	41	104	0	71	21235
2026-01-11 07:44:33.75	85.27	6.88	-50.0	-65.3	3.8	1.49e+00	0	41	104	0	71	21114
2026-01-11 07:44:34.75	85.15	6.93	-50.0	-65.2	3.8	1.49e+00	0	41	104	0	71	20971
2026-01-11 07:44:35.76	85.03	6.98	-50.0	-65.1	3.8	1.49e+00	0	41	104	0	71	20776
2026-01-11 07:44:36.76	84.90	7.03	-50.0	-65.1	3.8	1.49e+00	0	41	104	0	71	20722
2026-01-11 07:44:37.76	84.78	7.09	-50.0	-65.1	3.8	1.49e+00	0	42	104	0	71	20568
2026-01-11 07:44:38.77	84.66	7.14	-50.0	-65.0	3.8	1.49e+00	0	42	104	0	71	20515
2026-01-11 07:44:39.77	84.53	7.19	-50.0	-65.1	3.8	1.49e+00	0	41	104	0	71	20664
2026-01-11 07:44:40.77	84.41	7.24	-50.0	-65.1	3.8	1.49e+00	0	41	104	0	71	20565
2026-01-11 07:44:41.77	84.29	7.29	-50.0	-65.1	3.8	1.49e+00	0	41	104	0	71	20562
2026-01-11 07:44:42.77	84.16	7.34	-50.0	-65.1	3.8	1.49e+00	0	42	104	0	71	20580
2026-01-11 07:44:43.77	84.04	7.39	-50.0	-65.0	3.8	1.49e+00	0	42	104	0	71	20501
2026-01-11 07:44:44.78	83.91	7.44	-50.0	-65.0	3.8	1.49e+00	0	42	104	0	71	20511
2026-01-11 07:44:45.78	83.79	7.50	-50.0	-65.0	3.8	1.49e+00	0	42	104	0	71	20408
2026-01-11 07:44:46.78	83.66	7.55	-50.0	-64.9	3.8	1.49e+00	0	42	104	0	71	20112
2026-01-11 07:44:47.79	83.53	7.60	-50.0	-64.8	3.8	1.49e+00	0	42	104	0	71	19928
2026-01-11 07:44:48.79	83.41	7.65	-50.0	-64.7	3.8	1.49e+00	0	42	104	0	71	19750
2026-01-11 07:44:49.79	83.28	7.70	-50.0	-64.8	3.8	1.49e+00	0	42	104	0	71	19866
2026-01-11 07:44:50.79	83.15	7.75	-50.0	-64.9	3.8	1.49e+00	0	42	104	0	71	20117
2026-01-11 07:44:51.80	83.02	7.80	-50.0	-65.1	3.8	1.49e+00	0	42	104	0	71	20562
2026-01-11 07:44:52.80	82.89	7.85	-50.0	-65.3	3.8	1.49e+00	0	42	104	0	71	21060
2026-01-11 07:44:53.80	82.76	7.90	-50.0	-65.3	3.8	1.49e+00	0	42	104	0	71	21139
2026-01-11 07:44:54.81	82.63	7.95	-50.0	-65.4	3.8	1.49e+00	0	42	104	0	71	21327
2026-01-11 07:44:55.81	82.50	8.01	-50.0	-65.4	3.8	1.49e+00	0	42	104	0	71	21399
2026-01-11 07:44:56.81	82.37	8.06	-50.0	-65.3	3.8	1.49e+00	0	42	104	0	71	21167
2026-01-11 07:44:57.82	82.24	8.11	-50.0	-65.0	3.8	1.49e+00	0	42	104	0	71	20419
2026-01-11 07:44:58.82	82.11	8.16	-49.9	-64.3	3.8	1.49e+00	0	42	104	0	71	18843
2026-01-11 07:44:59.82	81.98	8.21	-49.9	-63.7	3.8	1.49e+00	0	42	104	0	71	17518
2026-01-11 07:45:00.82	81.84	8.26	-49.9	-63.4	3.9	1.49e+00	0	42	104	0	71	16902
2026-01-11 07:45:01.82	81.71	8.31	-49.9	-63.9	3.8	1.49e+00	0	42	104	0	71	18024
2026-01-11 07:45:02.82	81.58	8.36	-50.0	-64.9	3.8	1.49e+00	0	42	104	0	71	20293
2026-01-11 07:45:03.83	81.44	8.41	-50.0	-65.0	3.8	1.49e+00	0	42	104	0	71	20444
2026-01-11 07:45:04.83	81.31	8.46	-49.8	-62.4	4.1	1.49e+00	0	42	104	0	71	15096
2026-01-11 07:45:05.83	81.17	8.51	-49.4	-58.9	5.5	6.54e-01	0	42	0	1048576	70	10773
2026-01-11 07:45:06.84	81.04	8.56	-48.9	-56.3	7.7	1.61e-01	0	42	0	3145728	69	8417
2026-01-11 07:45:07.84	80.90	8.61	-48.4	-54.6	9.5	3.49e-02	0	42	0	4194304	68	7308
2026-01-11 07:45:08.84	80.76	8.66	-48.0	-53.6	10.5	8.24e-03	0	42	0	6291456	68	6570
2026-01-11 07:45:09.84	80.63	8.71	-47.8	-53.2	10.7	2.81e-03	0	42	0	8388608	67	6594
2026-01-11 07:45:10.85	80.49	8.76	-47.9	-53.6	10.3	3.57e-03	0	42	0	10485760	67	6913
2026-01-11 07:45:11.85	80.35	8.81	-48.4	-54.8	9.1	1.02e-02	0	42	0	11534336	67	7983
2026-01-11 07:45:12.85	80.21	8.86	-49.0	-56.9	7.2	9.42e-02	0	42	0	13631488	68	9503
2026-01-11 07:45:13.85	80.07	8.91	-49.5	-59.3	5.3	3.58e-01	0	42	0	15728640	69	11930
2026-01-11 07:45:14.86	79.93	8.96	-49.8	-62.5	4.0	1.09e+00	0	42	0	16777216	70	16204
2026-01-11 07:45:15.86	79.79	9.01	-50.0	-65.0	3.8	1.49e+00	0	42	104	16777216	70	21632
2026-01-11 07:45:16.86	79.65	9.06	-49.8	-60.9	4.5	1.47e+00	0	42	104	16777216	70	13436
2026-01-11 07:45:17.86	79.51	9.11	-49.8	-60.2	4.8	1.12e+00	0	42	0	17825792	70	12406
2026-01-11 07:45:18.86	79.37	9.16	-50.0	-63.8	3.8	1.31e+00	0	42	104	18874368	70	18875
2026-01-11 07:45:19.86	79.23	9.21	-48.3	-54.2	9.6	1.39e+00	0	42	104	18874368	68	7008
2026-01-11 07:45:20.87	79.09	9.26	-50.1	-64.8	3.8	5.03e-01	0	42	104	18874368	70	21232
2026-01-11 07:45:21.87	78.94	9.31	-48.5	-54.5	9.3	1.46e+00	0	42	104	18874368	69	6826
2026-01-11 07:45:22.87	78.80	9.36	-47.5	-52.4	11.6	1.40e-03	0	42	0	19922944	67	6019
2026-01-11 07:45:23.87	78.66	9.41	-46.9	-51.1	13.0	9.38e-05	0	42	0	22020096	65	5833
2026-01-11 07:45:24.87	78.51	9.46	-46.5	-50.4	13.7	9.90e-06	0	42	0	23068672	65	5362
2026-01-11 07:45:25.87	78.37	9.51	-46.4	-50.1	14.0	3.00e-06	0	42	0	25165824	64	5521
2026-01-11 07:45:26.88	78.22	9.56	-46.3	-50.1	14.1	7.00e-07	0	42	0	27262976	64	5466
2026-01-11 07:45:27.88	78.08	9.61	-46.3	-50.0	14.2	0.00e+00	0	42	0	29360128	64	5417
2026-01-11 07:45:28.88	77.93	9.65	-46.3	-50.1	14.1	7.00e-07	0	42	0	31457280	64	5474
2026-01-11 07:45:29.88	77.78	9.70	-46.2	-49.8	14.3	7.00e-07	0	42	0	32505856	64	5328
2026-01-11 07:45:30.88	77.64	9.75	-46.2	-49.8	14.3	0.00e+00	0	42	0	34603008	64	5331
2026-01-11 07:45:31.88	77.49	9.80	-46.1	-49.7	14.4	0.00e+00	0	42	0	36700160	64	5250
2026-01-11 07:45:32.89	77.34	9.85	-46.0	-49.6	14.5	0.00e+00	0	42	0	38797312	64	5196
2026-01-11 07:45:33.89	77.19	9.90	-46.0	-49.7	14.5	0.00e+00	0	42	0	40894464	64	5234
2026-01-11 07:45:34.89	77.04	9.95	-46.0	-49.6	14.6	7.00e-07	0	42	0	41943040	64	5164
2026-01-11 07:45:35.89	76.89	9.99	-46.0	-49.5	14.8	7.00e-07	0	42	0	44040192	63	5437
2026-01-11 07:45:36.89	76.74	10.04	-46.0	-49.4	14.8	0.00e+00	0	42	0	46137344	63	5393
2026-01-11 07:45:37.89	76.59	10.09	-45.9	-49.3	15.0	0.00e+00	0	42	0	48234496	63	5293
2026-01-11 07:45:38.89	76.44	10.14	-45.9	-49.2	15.0	0.00e+00	0	42	0	50331648	63	5270
2026-01-11 07:45:39.90	76.29	10.19	-45.8	-49.1	15.1	0.00e+00	0	42	0	51380224	63	5205
2026-01-11 07:45:40.90	76.14	10.23	-45.9	-49.2	15.0	0.00e+00	0	43	0	53477376	63	5248
2026-01-11 07:45:41.90	75.99	10.28	-45.9	-49.3	15.0	7.00e-07	0	42	0	55574528	63	5290
2026-01-11 07:45:42.90	75.83	10.33	-45.9	-49.2	15.0	0.00e+00	0	42	0	57671680	63	5263
2026-01-11 07:45:43.90	75.68	10.38	-45.9	-49.2	15.0	0.00e+00	0	43	0	58720256	63	5271
2026-01-11 07:45:44.91	75.52	10.42	-45.8	-49.1	15.2	0.00e+00	0	42	0	60817408	63	5174
2026-01-11 07:45:45.91	75.37	10.47	-45.8	-49.1	15.1	0.00e+00	0	42	0	62914560	63	5212
2026-01-11 07:45:46.92	75.21	10.52	-45.8	-49.1	15.2	7.00e-07	0	42	0	65011712	63	5188
2026-01-11 07:45:47.92	75.06	10.56	-45.7	-49.1	15.2	0.00e+00	0	42	0	67108864	63	5169
2026-01-11 07:45:48.93	74.90	10.61	-45.7	-49.0	15.3	0.00e+00	0	42	0	68157440	63	5136
2026-01-11 07:45:49.92	74.74	10.66	-45.7	-49.0	15.3	0.00e+00	0	43	0	70254592	63	5121
2026-01-11 07:45:50.93	74.59	10.71	-45.7	-49.0	15.3	0.00e+00	0	42	0	72351744	63	5145
2026-01-11 07:45:51.93	74.43	10.75	-45.6	-48.8	15.5	0.00e+00	0	42	0	74448896	63	5025
2026-01-11 07:45:52.93	74.27	10.80	-45.5	-48.7	15.6	0.00e+00	0	42	0	76546048	63	4975
2026-01-11 07:45:53.93	74.11	10.84	-45.6	-48.8	15.5	0.00e+00	0	43	0	77594624	63	5009
2026-01-11 07:45:54.93	73.95	10.89	-45.6	-48.8	15.5	0.00e+00	0	42	0	79691776	63	5001
2026-01-11 07:45:55.93	73.79	10.94	-45.6	-48.8	15.5	0.00e+00	0	43	0	81788928	63	5038
2026-01-11 07:45:56.94	73.63	10.98	-45.6	-48.7	15.6	0.00e+00	0	43	0	83886080	63	4981
2026-01-11 07:45:57.94	73.47	11.03	-45.6	-48.8	15.5	0.00e+00	0	43	0	85983232	63	5010
2026-01-11 07:45:58.94	73.31	11.07	-45.5	-48.7	15.6	0.00e+00	0	43	0	87031808	63	4947
2026-01-11 07:45:59.94	73.15	11.12	-45.5	-48.6	15.7	0.00e+00	0	42	0	89128960	63	4912
2026-01-11 07:46:00.93	72.99	11.16	-45.5	-48.6	15.7	0.00e+00	0	43	0	91226112	62	5213
2026-01-11 07:46:01.93	72.83	11.21	-45.6	-48.8	15.6	0.00e+00	0	43	0	93323264	62	5284
2026-01-11 07:46:02.94	72.66	11.25	-45.5	-48.7	15.6	0.00e+00	0	42	0	95420416	62	5272
2026-01-11 07:46:03.94	72.50	11.30	-45.5	-48.7	15.6	0.00e+00	0	42	0	96468992	62	5250
2026-01-11 07:46:04.94	72.33	11.34	-45.5	-48.7	15.6	0.00e+00	0	43	0	98566144	62	5268
2026-01-11 07:46:05.94	72.17	11.39	-45.6	-48.8	15.5	0.00e+00	0	42	0	100663296	62	5297
2026-01-11 07:46:06.94	72.00	11.43	-45.4	-48.5	15.8	0.00e+00	0	42	0	102760448	62	5136
2026-01-11 07:46:07.94	71.84	11.48	-45.2	-48.3	16.1	0.00e+00	0	42	0	103809024	62	4984
2026-01-11 07:46:08.95	71.67	11.52	-45.3	-48.4	15.9	0.00e+00	0	43	0	105906176	62	5065
2026-01-11 07:46:09.95	71.50	11.57	-45.4	-48.5	15.9	0.00e+00	0	42	0	108003328	62	5104
2026-01-11 07:46:10.94	71.34	11.61	-45.2	-48.3	16.1	0.00e+00	0	43	0	110100480	62	5003
2026-01-11 07:46:11.94	71.17	11.65	-45.2	-48.3	16.0	0.00e+00	0	42	0	112197632	62	4989
2026-01-11 07:46:12.94	71.00	11.70	-45.3	-48.4	16.0	0.00e+00	0	42	0	113246208	62	5048
2026-01-11 07:46:13.94	70.83	11.74	-45.3	-48.3	16.0	0.00e+00	0	42	0	115343360	62	5025
2026-01-11 07:46:14.95	70.66	11.78	-45.5	-48.6	15.7	0.00e+00	0	43	0	117440512	62	5193
2026-01-11 07:46:15.95	70.49	11.83	-45.4	-48.5	15.9	0.00e+00	0	43	0	119537664	62	5102
2026-01-11 07:46:16.95	70.32	11.87	-45.3	-48.4	16.0	0.00e+00	0	43	0	121634816	62	5068
2026-01-11 07:46:17.95	70.15	11.91	-45.4	-48.5	15.9	0.00e+00	0	43	0	122683392	62	5116
2026-01-11 07:46:18.96	69.98	11.95	-45.5	-48.5	15.8	0.00e+00	0	43	0	124780544	62	5157
2026-01-11 07:46:19.96	69.81	12.00	-45.5	-48.6	15.7	0.00e+00	0	42	0	126877696	62	5198
2026-01-11 07:46:20.96	69.64	12.04	-45.6	-48.8	15.6	0.00e+00	0	43	0	128974848	62	5285
2026-01-11 07:46:21.97	69.46	12.08	-45.6	-48.7	15.6	0.00e+00	0	43	0	131072000	62	5250
2026-01-11 07:46:22.97	69.29	12.12	-45.5	-48.6	15.7	0.00e+00	0	43	0	132120576	62	5196
2026-01-11 07:46:23.97	69.12	12.16	-45.6	-48.7	15.6	0.00e+00	0	43	0	134217728	62	5248
2026-01-11 07:46:24.97	68.94	12.21	-45.6	-48.8	15.5	0.00e+00	0	43	0	136314880	62	5327
2026-01-11 07:46:25.98	68.76	12.25	-45.7	-49.0	15.4	0.00e+00	0	43	0	138412032	62	5441
2026-01-11 07:46:26.98	68.59	12.29	-45.7	-48.9	15.5	0.00e+00	0	42	0	140509184	62	5353
2026-01-11 07:46:27.98	68.41	12.33	-45.7	-49.0	15.3	0.00e+00	0	43	0	141557760	62	5440
2026-01-11 07:46:28.98	68.24	12.37	-45.8	-49.0	15.3	0.00e+00	0	43	0	143654912	62	5439
2026-01-11 07:46:29.98	68.06	12.41	-45.7	-49.0	15.4	0.00e+00	0	43	0	145752064	62	5427
2026-01-11 07:46:30.99	67.88	12.45	-45.6	-48.9	15.5	0.00e+00	0	43	0	147849216	62	5349
2026-01-11 07:46:31.99	67.71	12.49	-45.8	-49.1	15.3	0.00e+00	0	42	0	148897792	62	5502
2026-01-11 07:46:32.99	67.53	12.53	-45.7	-48.9	15.4	0.00e+00	0	43	0	150994944	62	5396
2026-01-11 07:46:33.99	67.35	12.57	-45.7	-48.9	15.4	0.00e+00	0	43	0	153092096	62	5373
2026-01-11 07:46:34.99	67.17	12.61	-45.6	-48.9	15.5	0.00e+00	0	42	0	155189248	62	5356
2026-01-11 07:46:35.99	66.99	12.65	-45.5	-48.7	15.6	0.00e+00	0	43	0	157286400	62	5263
2026-01-11 07:46:36.99	66.81	12.69	-45.6	-48.7	15.6	0.00e+00	0	43	0	158334976	62	5278
2026-01-11 07:46:37.99	66.63	12.73	-45.5	-48.6	15.7	0.00e+00	0	42	0	160432128	62	5207
2026-01-11 07:46:38.99	66.45	12.76	-45.4	-48.5	15.9	0.00e+00	0	43	0	162529280	62	5125
2026-01-11 07:46:40.00	66.27	12.80	-45.5	-48.6	15.8	0.00e+00	0	43	0	164626432	62	5179
2026-01-11 07:46:40.99	66.09	12.84	-45.5	-48.6	15.8	0.00e+00	0	43	0	166723584	62	5173
2026-01-11 07:46:41.99	65.90	12.88	-45.5	-48.6	15.8	0.00e+00	0	43	0	167772160	62	5214
2026-01-11 07:46:42.99	65.72	12.92	-45.7	-48.8	15.6	0.00e+00	0	43	0	169869312	62	5319
2026-01-11 07:46:44.00	65.54	12.95	-45.6	-48.7	15.7	0.00e+00	0	43	0	171966464	62	5270
2026-01-11 07:46:45.00	65.35	12.99	-45.6	-48.7	15.7	0.00e+00	0	43	0	174063616	62	5239
2026-01-11 07:46:46.01	65.17	13.03	-45.6	-48.7	15.7	7.00e-07	0	43	0	176160768	62	5260
2026-01-11 07:46:47.01	64.98	13.07	-45.6	-48.8	15.6	0.00e+00	0	43	0	177209344	62	5315
2026-01-11 07:46:48.00	64.80	13.10	-45.5	-48.7	15.7	0.00e+00	0	43	0	179306496	62	5228
2026-01-11 07:46:49.00	64.61	13.14	-45.6	-48.8	15.6	0.00e+00	0	43	0	181403648	62	5288
2026-01-11 07:46:50.00	64.43	13.17	-45.5	-48.6	15.8	0.00e+00	0	43	0	183500800	62	5206
2026-01-11 07:46:51.00	64.24	13.21	-45.4	-48.4	16.0	0.00e+00	0	43	0	184549376	62	5090
2026-01-11 07:46:52.00	64.05	13.24	-45.4	-48.5	15.9	0.00e+00	0	43	0	186646528	62	5113
2026-01-11 07:46:53.00	63.87	13.28	-45.5	-48.6	15.8	0.00e+00	0	43	0	188743680	62	5186
2026-01-11 07:46:54.01	63.68	13.32	-45.4	-48.5	15.9	0.00e+00	0	43	0	190840832	62	5109
2026-01-11 07:46:55.00	63.49	13.35	-45.4	-48.4	16.0	0.00e+00	0	43	0	192937984	62	5090
2026-01-11 07:46:56.00	63.30	13.38	-45.4	-48.5	15.9	0.00e+00	0	43	0	193986560	62	5117
2026-01-11 07:46:57.01	63.11	13.42	-45.4	-48.5	15.9	0.00e+00	0	43	0	196083712	62	5147
2026-01-11 07:46:58.01	62.92	13.45	-45.4	-48.4	16.0	0.00e+00	0	43	0	198180864	62	5059
2026-01-11 07:46:59.01	62.73	13.49	-45.3	-48.3	16.1	0.00e+00	0	43	0	200278016	62	4996
2026-01-11 07:47:00.01	62.54	13.52	-45.3	-48.3	16.1	0.00e+00	0	43	0	202375168	62	5006
2026-01-11 07:47:01.01	62.35	13.55	-45.3	-48.4	16.1	0.00e+00	0	43	0	203423744	62	5052
2026-01-11 07:47:02.01	62.16	13.59	-45.3	-48.2	16.2	0.00e+00	0	43	0	205520896	62	4983
2026-01-11 07:47:03.01	61.97	13.62	-45.1	-48.0	16.4	0.00e+00	0	43	0	207618048	62	4842
2026-01-11 07:47:04.01	61.77	13.65	-45.1	-48.1	16.3	0.00e+00	0	43	0	209715200	62	4889
2026-01-11 07:47:05.01	61.58	13.68	-45.2	-48.2	16.3	0.00e+00	0	43	0	211812352	62	4935
2026-01-11 07:47:06.02	61.39	13.71	-45.2	-48.2	16.2	0.00e+00	0	43	0	212860928	62	4929
2026-01-11 07:47:07.02	61.19	13.75	-45.3	-48.3	16.1	0.00e+00	0	43	0	214958080	62	4996
2026-01-11 07:47:08.02	61.00	13.78	-45.2	-48.1	16.3	0.00e+00	0	43	0	217055232	62	4920
2026-01-11 07:47:09.02	60.80	13.81	-45.2	-48.3	16.1	0.00e+00	0	43	0	219152384	62	4997
2026-01-11 07:47:10.02	60.61	13.84	-45.3	-48.4	16.1	0.00e+00	0	43	0	221249536	62	5054
2026-01-11 07:47:11.02	60.41	13.87	-45.4	-48.4	16.0	0.00e+00	0	43	0	222298112	62	5095
2026-01-11 07:47:12.02	60.22	13.90	-45.2	-48.2	16.2	0.00e+00	0	43	0	224395264	62	4937
2026-01-11 07:47:13.03	60.02	13.93	-45.1	-48.1	16.3	0.00e+00	0	43	0	226492416	62	4900
2026-01-11 07:47:14.03	59.83	13.96	-45.3	-48.2	16.2	0.00e+00	0	43	0	228589568	62	4971
2026-01-11 07:47:15.03	59.63	13.99	-45.3	-48.3	16.2	0.00e+00	0	43	0	229638144	62	4992
2026-01-11 07:47:16.03	59.43	14.02	-45.3	-48.2	16.2	0.00e+00	0	43	0	231735296	62	4980
2026-01-11 07:47:17.03	59.23	14.05	-45.3	-48.2	16.2	0.00e+00	0	43	0	233832448	62	4980
2026-01-11 07:47:18.03	59.04	14.07	-45.3	-48.2	16.2	0.00e+00	0	43	0	235929600	62	4962
2026-01-11 07:47:19.04	58.84	14.10	-45.3	-48.2	16.2	0.00e+00	0	43	0	238026752	62	4981
2026-01-11 07:47:20.02	58.64	14.13	-45.4	-48.4	16.0	0.00e+00	0	43	0	239075328	62	5061
2026-01-11 07:47:21.02	58.44	14.16	-45.4	-48.4	16.0	0.00e+00	0	43	0	241172480	62	5070
2026-01-11 07:47:22.02	58.24	14.18	-45.4	-48.4	16.0	0.00e+00	0	43	0	243269632	62	5064
2026-01-11 07:47:23.02	58.04	14.21	-45.4	-48.5	15.9	0.00e+00	0	43	0	245366784	62	5109
2026-01-11 07:47:24.02	57.84	14.24	-45.4	-48.5	16.0	0.00e+00	0	43	0	247463936	62	5108
2026-01-11 07:47:25.02	57.64	14.26	-45.4	-48.4	16.1	0.00e+00	0	43	0	248512512	62	5065
2026-01-11 07:47:26.02	57.44	14.29	-45.4	-48.4	16.0	0.00e+00	0	43	0	250609664	62	5097
2026-01-11 07:47:27.02	57.24	14.31	-45.5	-48.6	15.9	0.00e+00	0	43	0	252706816	62	5163
2026-01-11 07:47:28.03	57.04	14.34	-45.5	-48.6	15.8	0.00e+00	0	43	0	254803968	62	5182
2026-01-11 07:47:29.03	56.84	14.36	-45.5	-48.5	15.9	0.00e+00	0	43	0	255852544	62	5156
2026-01-11 07:47:30.03	56.64	14.39	-45.4	-48.4	16.0	0.00e+00	0	43	0	257949696	62	5093
2026-01-11 07:47:31.03	56.43	14.41	-45.3	-48.4	16.1	0.00e+00	0	43	0	260046848	62	5056
2026-01-11 07:47:32.03	56.23	14.44	-45.5	-48.6	15.9	0.00e+00	0	43	0	262144000	62	5191
2026-01-11 07:47:33.03	56.03	14.46	-45.6	-48.8	15.7	0.00e+00	0	43	0	264241152	62	5298
2026-01-11 07:47:34.04	55.82	14.48	-45.6	-48.9	15.6	0.00e+00	0	43	0	265289728	62	5344
2026-01-11 07:47:35.03	55.62	14.50	-45.6	-48.8	15.7	0.00e+00	0	43	0	267386880	62	5285
2026-01-11 07:47:36.04	55.41	14.53	-45.5	-48.7	15.8	0.00e+00	0	43	0	269484032	62	5226
2026-01-11 07:47:37.03	55.21	14.55	-45.5	-48.6	15.8	0.00e+00	0	43	0	271581184	62	5211
2026-01-11 07:47:38.03	55.01	14.57	-45.6	-48.7	15.7	0.00e+00	0	43	0	273678336	62	5260
2026-01-11 07:47:39.03	54.80	14.59	-45.7	-48.9	15.6	0.00e+00	0	43	0	274726912	62	5348
2026-01-11 07:47:40.03	54.60	14.61	-45.5	-48.6	15.8	0.00e+00	0	43	0	276824064	62	5208
2026-01-11 07:47:41.03	54.39	14.63	-45.4	-48.5	15.9	0.00e+00	0	43	0	278921216	62	5139
2026-01-11 07:47:42.04	54.18	14.65	-45.3	-48.3	16.1	0.00e+00	0	43	0	281018368	62	5021
2026-01-11 07:47:43.04	53.98	14.67	-45.2	-48.2	16.2	0.00e+00	0	43	0	283115520	62	4975
2026-01-11 07:47:44.04	53.77	14.69	-45.3	-48.4	16.1	0.00e+00	0	43	0	284164096	62	5045
2026-01-11 07:47:45.04	53.57	14.71	-45.3	-48.3	16.1	0.00e+00	0	43	0	286261248	62	5019
2026-01-11 07:47:46.04	53.36	14.73	-45.2	-48.2	16.2	0.00e+00	0	43	0	288358400	62	4970
2026-01-11 07:47:47.04	53.15	14.75	-45.2	-48.1	16.3	0.00e+00	0	43	0	290455552	62	4914
2026-01-11 07:47:48.05	52.94	14.77	-45.1	-48.1	16.4	0.00e+00	0	43	0	292552704	62	4880
2026-01-11 07:47:49.05	52.73	14.79	-45.1	-48.0	16.4	0.00e+00	0	43	0	293601280	62	4868
2026-01-11 07:47:50.05	52.53	14.80	-45.1	-48.1	16.4	0.00e+00	0	43	0	295698432	62	4876
2026-01-11 07:47:51.05	52.32	14.82	-45.2	-48.2	16.3	0.00e+00	0	43	0	297795584	62	4951
2026-01-11 07:47:52.05	52.11	14.84	-45.2	-48.2	16.3	0.00e+00	0	43	0	299892736	62	4944
2026-01-11 07:47:53.05	51.90	14.85	-45.2	-48.2	16.3	0.00e+00	0	43	0	300941312	62	4943
2026-01-11 07:47:54.06	51.69	14.87	-45.2	-48.2	16.3	0.00e+00	0	43	0	303038464	62	4943
2026-01-11 07:47:55.05	51.48	14.89	-45.2	-48.2	16.2	0.00e+00	0	43	0	305135616	62	4971
2026-01-11 07:47:56.05	51.28	14.90	-45.4	-48.4	16.1	0.00e+00	0	43	0	307232768	62	5061
2026-01-11 07:47:57.06	51.06	14.92	-45.4	-48.5	16.0	0.00e+00	0	43	0	309329920	62	5109
2026-01-11 07:47:58.06	50.85	14.93	-45.4	-48.5	15.9	0.00e+00	0	43	0	310378496	62	5156
2026-01-11 07:47:59.06	50.64	14.94	-45.4	-48.5	16.0	0.00e+00	0	43	0	312475648	62	5114
2026-01-11 07:48:00.06	50.43	14.96	-45.4	-48.5	16.0	0.00e+00	0	43	0	314572800	62	5112
2026-01-11 07:48:01.07	50.22	14.97	-45.4	-48.5	16.0	0.00e+00	0	43	0	316669952	62	5121
2026-01-11 07:48:02.07	50.01	14.99	-45.5	-48.6	15.9	0.00e+00	0	43	0	318767104	62	5174
2026-01-11 07:48:03.07	49.80	15.00	-45.4	-48.5	15.9	0.00e+00	0	43	0	319815680	62	5122
2026-01-11 07:48:04.08	49.59	15.01	-45.4	-48.5	15.9	0.00e+00	0	43	0	321912832	62	5127
2026-01-11 07:48:05.08	49.38	15.02	-45.4	-48.5	16.0	0.00e+00	0	43	0	324009984	62	5135
2026-01-11 07:48:06.08	49.17	15.03	-45.5	-48.6	15.9	0.00e+00	0	43	0	326107136	62	5164
2026-01-11 07:48:07.08	48.96	15.04	-45.5	-48.6	15.9	0.00e+00	0	43	0	328204288	62	5205
2026-01-11 07:48:08.08	48.74	15.05	-45.4	-48.5	16.0	0.00e+00	0	43	0	329252864	62	5114
2026-01-11 07:48:09.09	48.53	15.07	-45.4	-48.5	16.0	0.00e+00	0	43	0	331350016	62	5128
2026-01-11 07:48:10.09	48.32	15.08	-45.4	-48.5	16.0	0.00e+00	0	43	0	333447168	62	5128
2026-01-11 07:48:11.09	48.11	15.08	-45.5	-48.5	16.0	0.00e+00	0	43	0	335544320	62	5138
2026-01-11 07:48:12.09	47.89	15.09	-45.5	-48.6	15.9	0.00e+00	0	43	0	336592896	62	5190
2026-01-11 07:48:13.10	47.68	15.10	-45.4	-48.4	16.1	0.00e+00	0	43	0	338690048	62	5051
2026-01-11 07:48:14.10	47.47	15.11	-45.3	-48.3	16.2	0.00e+00	0	43	0	340787200	62	4992
2026-01-11 07:48:15.10	47.26	15.12	-45.3	-48.4	16.1	0.00e+00	0	43	0	342884352	62	5050
2026-01-11 07:48:16.10	47.04	15.13	-45.3	-48.4	16.1	0.00e+00	0	43	0	344981504	62	5047
2026-01-11 07:48:17.10	46.83	15.13	-45.4	-48.4	16.1	0.00e+00	0	43	0	346030080	62	5079
2026-01-11 07:48:18.10	46.62	15.14	-45.3	-48.3	16.1	0.00e+00	0	43	0	348127232	62	5037
2026-01-11 07:48:19.11	46.40	15.15	-45.3	-48.3	16.2	0.00e+00	0	43	0	350224384	62	5006
2026-01-11 07:48:20.10	46.19	15.15	-45.3	-48.3	16.1	0.00e+00	0	43	0	352321536	62	5024
2026-01-11 07:48:21.10	45.98	15.16	-45.3	-48.3	16.2	0.00e+00	0	43	0	354418688	62	5005
2026-01-11 07:48:22.11	45.77	15.16	-45.3	-48.4	16.1	0.00e+00	0	43	0	355467264	62	5058
2026-01-11 07:48:23.10	45.55	15.17	-45.4	-48.4	16.1	0.00e+00	0	43	0	357564416	62	5063
2026-01-11 07:48:24.11	45.34	15.17	-45.4	-48.4	16.1	0.00e+00	0	43	0	359661568	62	5070
2026-01-11 07:48:25.11	45.13	15.18	-45.4	-48.5	16.0	0.00e+00	0	43	0	361758720	62	5109
2026-01-11 07:48:26.11	44.91	15.18	-45.4	-48.5	16.0	0.00e+00	0	43	0	363855872	62	5115
2026-01-11 07:48:27.11	44.70	15.18	-45.4	-48.4	16.0	0.00e+00	0	43	0	364904448	62	5096
2026-01-11 07:48:28.11	44.49	15.19	-45.3	-48.3	16.2	0.00e+00	0	43	0	367001600	62	5012
2026-01-11 07:48:29.11	44.27	15.19	-45.3	-48.3	16.2	0.00e+00	0	43	0	369098752	62	5018
2026-01-11 07:48:30.12	44.06	15.19	-45.4	-48.4	16.1	0.00e+00	0	43	0	371195904	62	5057
2026-01-11 07:48:31.12	43.85	15.19	-45.4	-48.4	16.1	0.00e+00	0	43	0	373293056	62	5065
2026-01-11 07:48:32.12	43.63	15.19	-45.3	-48.3	16.2	0.00e+00	0	43	0	374341632	62	4986
2026-01-11 07:48:33.12	43.42	15.19	-45.3	-48.3	16.2	0.00e+00	0	43	0	376438784	62	5005
2026-01-11 07:48:34.12	43.21	15.19	-45.3	-48.3	16.2	0.00e+00	0	43	0	378535936	62	4997
2026-01-11 07:48:35.12	42.99	15.19	-45.4	-48.4	16.1	0.00e+00	0	43	0	380633088	62	5045
2026-01-11 07:48:36.13	42.78	15.19	-45.4	-48.4	16.1	0.00e+00	0	43	0	381681664	62	5065
2026-01-11 07:48:37.13	42.56	15.19	-45.4	-48.5	16.0	0.00e+00	0	43	0	383778816	62	5113
2026-01-11 07:48:38.13	42.35	15.19	-45.5	-48.6	15.9	0.00e+00	0	43	0	385875968	62	5176
2026-01-11 07:48:39.14	42.13	15.19	-45.6	-48.7	15.8	0.00e+00	0	43	0	387973120	62	5226
2026-01-11 07:48:40.14	41.92	15.19	-45.6	-48.7	15.8	0.00e+00	0	43	0	390070272	62	5220
2026-01-11 07:48:41.14	41.71	15.19	-45.5	-48.6	15.9	0.00e+00	0	43	0	391118848	62	5169
2026-01-11 07:48:42.14	41.49	15.18	-45.4	-48.4	16.0	0.00e+00	0	43	0	393216000	62	5094
2026-01-11 07:48:43.15	41.28	15.18	-45.4	-48.4	16.0	0.00e+00	0	43	0	395313152	62	5087
2026-01-11 07:48:44.15	41.07	15.18	-45.5	-48.6	15.9	0.00e+00	0	43	0	397410304	62	5173
2026-01-11 07:48:45.15	40.85	15.17	-45.6	-48.7	15.7	0.00e+00	0	43	0	399507456	62	5279
2026-01-11 07:48:46.15	40.64	15.17	-45.7	-48.8	15.7	0.00e+00	0	43	0	400556032	62	5325
2026-01-11 07:48:47.15	40.43	15.16	-45.7	-48.8	15.7	0.00e+00	0	43	0	402653184	62	5309
2026-01-11 07:48:48.15	40.21	15.16	-45.7	-48.8	15.7	0.00e+00	0	43	0	404750336	62	5283
2026-01-11 07:48:49.15	40.00	15.15	-45.6	-48.6	15.9	0.00e+00	0	43	0	406847488	62	5197
2026-01-11 07:48:50.15	39.79	15.15	-45.5	-48.5	16.0	0.00e+00	0	43	0	408944640	62	5123
2026-01-11 07:48:51.15	39.58	15.14	-45.4	-48.4	16.0	0.00e+00	0	43	0	409993216	62	5086
2026-01-11 07:48:52.15	39.36	15.13	-45.4	-48.4	16.0	0.00e+00	0	43	0	412090368	62	5079
2026-01-11 07:48:53.15	39.15	15.13	-45.4	-48.5	16.0	0.00e+00	0	43	0	414187520	62	5142
2026-01-11 07:48:54.15	38.94	15.12	-45.5	-48.6	15.8	0.00e+00	0	43	0	416284672	62	5217
2026-01-11 07:48:55.15	38.73	15.11	-45.5	-48.7	15.8	0.00e+00	0	43	0	418381824	62	5242
2026-01-11 07:48:56.15	38.52	15.10	-45.6	-48.8	15.6	0.00e+00	0	43	0	419430400	62	5320
2026-01-11 07:48:57.15	38.30	15.09	-45.5	-48.7	15.7	0.00e+00	0	43	0	421527552	62	5271
2026-01-11 07:48:58.15	38.09	15.09	-45.5	-48.7	15.8	0.00e+00	0	43	0	423624704	62	5250
2026-01-11 07:48:59.15	37.88	15.08	-45.4	-48.6	15.9	0.00e+00	0	43	0	425721856	62	5196
2026-01-11 07:49:00.15	37.67	15.07	-45.5	-48.7	15.8	0.00e+00	0	43	0	426770432	62	5254
2026-01-11 07:49:01.15	37.46	15.06	-45.4	-48.6	15.8	0.00e+00	0	43	0	428867584	62	5200
2026-01-11 07:49:02.15	37.25	15.04	-45.4	-48.5	16.0	0.00e+00	0	43	0	430964736	62	5137
2026-01-11 07:49:03.16	37.03	15.03	-45.4	-48.5	16.0	0.00e+00	0	43	0	433061888	62	5117
2026-01-11 07:49:04.16	36.82	15.02	-45.4	-48.5	16.0	0.00e+00	0	43	0	435159040	62	5139
2026-01-11 07:49:05.16	36.61	15.01	-45.3	-48.3	16.1	0.00e+00	0	43	0	436207616	62	5036
2026-01-11 07:49:06.16	36.40	15.00	-45.3	-48.3	16.2	0.00e+00	0	43	0	438304768	62	5005
2026-01-11 07:49:07.16	36.19	14.99	-45.2	-48.2	16.3	0.00e+00	0	43	0	440401920	62	4972
2026-01-11 07:49:08.16	35.98	14.97	-45.2	-48.3	16.2	0.00e+00	0	43	0	442499072	62	4984
2026-01-11 07:49:09.16	35.77	14.96	-45.2	-48.4	16.1	0.00e+00	0	43	0	444596224	62	5064
2026-01-11 07:49:10.17	35.56	14.95	-45.2	-48.3	16.2	0.00e+00	0	43	0	445644800	62	5016
2026-01-11 07:49:11.16	35.35	14.93	-45.2	-48.3	16.2	0.00e+00	0	43	0	447741952	62	5024
2026-01-11 07:49:12.17	35.14	14.92	-45.1	-48.2	16.3	0.00e+00	0	43	0	449839104	62	4959
2026-01-11 07:49:13.17	34.93	14.90	-45.1	-48.2	16.3	0.00e+00	0	43	0	451936256	62	4928
2026-01-11 07:49:14.17	34.72	14.89	-45.1	-48.2	16.3	0.00e+00	0	43	0	454033408	62	4968
2026-01-11 07:49:15.18	34.51	14.87	-45.1	-48.1	16.3	0.00e+00	0	43	0	455081984	62	4909
2026-01-11 07:49:16.18	34.30	14.86	-45.1	-48.1	16.4	0.00e+00	0	43	0	457179136	62	4904
2026-01-11 07:49:17.18	34.10	14.84	-45.1	-48.2	16.3	0.00e+00	0	43	0	459276288	62	4943
2026-01-11 07:49:18.18	33.89	14.82	-45.2	-48.2	16.3	0.00e+00	0	43	0	461373440	62	4941
2026-01-11 07:49:19.18	33.68	14.81	-45.1	-48.2	16.3	0.00e+00	0	43	0	462422016	62	4930
2026-01-11 07:49:20.19	33.47	14.79	-45.3	-48.3	16.2	0.00e+00	0	43	0	464519168	62	5014
2026-01-11 07:49:21.19	33.26	14.77	-45.2	-48.3	16.2	0.00e+00	0	43	0	466616320	62	4994
2026-01-11 07:49:22.19	33.06	14.75	-45.2	-48.2	16.2	0.00e+00	0	43	0	468713472	62	4972
2026-01-11 07:49:23.19	32.85	14.73	-45.2	-48.2	16.2	0.00e+00	0	43	0	470810624	62	4963
2026-01-11 07:49:24.20	32.64	14.71	-45.3	-48.3	16.1	0.00e+00	0	43	0	471859200	62	5035
2026-01-11 07:49:25.20	32.43	14.70	-45.2	-48.3	16.2	0.00e+00	0	43	0	473956352	62	5004
2026-01-11 07:49:26.20	32.23	14.68	-45.2	-48.3	16.1	0.00e+00	0	43	0	476053504	62	5028
2026-01-11 07:49:27.20	32.02	14.66	-45.2	-48.3	16.1	0.00e+00	0	43	0	478150656	62	5040
2026-01-11 07:49:28.20	31.82	14.64	-45.2	-48.3	16.2	0.00e+00	0	43	0	480247808	62	5027
2026-01-11 07:49:29.20	31.61	14.61	-45.2	-48.3	16.2	0.00e+00	0	43	0	481296384	62	5013
2026-01-11 07:49:30.20	31.41	14.59	-45.3	-48.3	16.2	0.00e+00	0	43	0	483393536	62	5026
2026-01-11 07:49:31.20	31.20	14.57	-45.3	-48.3	16.2	0.00e+00	0	43	0	485490688	62	5000
2026-01-11 07:49:32.20	31.00	14.55	-45.3	-48.3	16.2	0.00e+00	0	43	0	487587840	62	4992
2026-01-11 07:49:33.20	30.80	14.53	-45.3	-48.3	16.2	0.00e+00	0	43	0	489684992	62	5001
2026-01-11 07:49:34.20	30.59	14.51	-45.3	-48.3	16.2	0.00e+00	0	43	0	490733568	62	5010
2026-01-11 07:49:35.20	30.39	14.48	-45.4	-48.5	16.0	0.00e+00	0	43	0	492830720	62	5105
2026-01-11 07:49:36.20	30.19	14.46	-45.4	-48.5	16.0	0.00e+00	0	43	0	494927872	62	5125
2026-01-11 07:49:37.20	29.98	14.44	-45.6	-48.7	15.8	0.00e+00	0	43	0	497025024	62	5265
2026-01-11 07:49:38.20	29.78	14.41	-45.5	-48.7	15.8	0.00e+00	0	43	0	499122176	62	5247
2026-01-11 07:49:39.20	29.58	14.39	-45.6	-48.8	15.7	0.00e+00	0	43	0	500170752	62	5311
2026-01-11 07:49:40.20	29.38	14.37	-45.5	-48.7	15.7	0.00e+00	0	43	0	502267904	62	5262
2026-01-11 07:49:41.20	29.18	14.34	-45.5	-48.7	15.7	0.00e+00	0	43	0	504365056	62	5266
2026-01-11 07:49:42.20	28.98	14.32	-45.3	-48.6	15.9	0.00e+00	0	43	0	506462208	62	5167
2026-01-11 07:49:43.20	28.77	14.29	-45.2	-48.5	15.9	0.00e+00	0	43	0	507510784	62	5156
2026-01-11 07:49:44.20	28.57	14.26	-45.1	-48.4	16.0	0.00e+00	0	43	0	509607936	62	5096
2026-01-11 07:49:45.20	28.37	14.24	-45.1	-48.4	16.1	0.00e+00	0	43	0	511705088	62	5083
2026-01-11 07:49:46.20	28.17	14.21	-45.1	-48.5	16.0	0.00e+00	0	43	0	513802240	62	5127
2026-01-11 07:49:47.20	27.98	14.19	-45.1	-48.6	15.9	0.00e+00	0	43	0	515899392	62	5165
2026-01-11 07:49:48.20	27.78	14.16	-45.2	-48.7	15.8	0.00e+00	0	43	0	516947968	62	5240
2026-01-11 07:49:49.21	27.58	14.13	-45.3	-48.7	15.7	0.00e+00	0	43	0	519045120	62	5265
2026-01-11 07:49:50.21	27.38	14.10	-45.3	-48.6	15.9	0.00e+00	0	43	0	521142272	62	5197
2026-01-11 07:49:51.21	27.18	14.08	-45.3	-48.5	15.9	0.00e+00	0	43	0	523239424	62	5156
2026-01-11 07:49:52.22	26.98	14.05	-45.3	-48.5	16.0	0.00e+00	0	43	0	525336576	62	5115
2026-01-11 07:49:53.21	26.79	14.02	-45.3	-48.4	16.0	0.00e+00	0	43	0	526385152	62	5084
2026-01-11 07:49:54.22	26.59	13.99	-45.2	-48.3	16.1	0.00e+00	0	43	0	528482304	62	5041
2026-01-11 07:49:55.22	26.39	13.96	-45.1	-48.3	16.2	0.00e+00	0	43	0	530579456	62	5008
2026-01-11 07:49:56.22	26.20	13.93	-45.1	-48.3	16.2	0.00e+00	0	43	0	532676608	62	5013
2026-01-11 07:49:57.22	26.00	13.90	-45.1	-48.2	16.3	0.00e+00	0	43	0	533725184	62	4957
2026-01-11 07:49:58.22	25.81	13.87	-45.1	-48.2	16.3	0.00e+00	0	43	0	535822336	62	4935
2026-01-11 07:49:59.22	25.61	13.84	-45.1	-48.2	16.2	0.00e+00	0	43	0	537919488	62	4979
2026-01-11 07:50:00.22	25.42	13.81	-45.1	-48.2	16.3	0.00e+00	0	43	0	540016640	62	4948
2026-01-11 07:50:01.22	25.22	13.78	-45.1	-48.2	16.2	0.00e+00	0	43	0	542113792	62	4953
2026-01-11 07:50:02.22	25.03	13.75	-45.1	-48.3	16.2	0.00e+00	0	43	0	543162368	62	5011
2026-01-11 07:50:03.22	24.84	13.72	-45.2	-48.3	16.1	0.00e+00	0	43	0	545259520	62	5034
2026-01-11 07:50:04.21	24.65	13.69	-45.2	-48.3	16.1	0.00e+00	0	43	0	547356672	62	5030
2026-01-11 07:50:05.22	24.45	13.65	-45.1	-48.3	16.2	0.00e+00	0	43	0	549453824	62	5018
2026-01-11 07:50:06.21	24.26	13.62	-45.0	-48.2	16.3	0.00e+00	0	43	0	551550976	62	4933
2026-01-11 07:50:07.22	24.07	13.59	-45.1	-48.3	16.2	0.00e+00	0	43	0	552599552	62	4987
2026-01-11 07:50:08.21	23.88	13.56	-45.1	-48.2	16.2	0.00e+00	0	43	0	554696704	62	4953
2026-01-11 07:50:09.22	23.69	13.52	-45.2	-48.4	16.1	0.00e+00	0	43	0	556793856	62	5066
2026-01-11 07:50:10.22	23.50	13.49	-45.3	-48.4	16.0	0.00e+00	0	43	0	558891008	62	5080
2026-01-11 07:50:11.22	23.31	13.46	-45.2	-48.3	16.2	0.00e+00	0	43	0	560988160	62	5026
2026-01-11 07:50:12.22	23.12	13.42	-45.2	-48.2	16.2	0.00e+00	0	43	0	562036736	62	4982
2026-01-11 07:50:13.23	22.93	13.39	-45.2	-48.2	16.2	0.00e+00	0	43	0	564133888	62	4981
2026-01-11 07:50:14.23	22.74	13.35	-45.2	-48.3	16.2	0.00e+00	0	43	0	566231040	62	5012
2026-01-11 07:50:15.23	22.56	13.32	-45.1	-48.1	16.3	0.00e+00	0	43	0	568328192	62	4914
2026-01-11 07:50:16.23	22.37	13.29	-45.1	-48.2	16.3	0.00e+00	0	43	0	569376768	62	4931
2026-01-11 07:50:17.23	22.18	13.25	-45.0	-48.1	16.3	0.00e+00	0	43	0	571473920	62	4919
2026-01-11 07:50:18.24	21.99	13.21	-45.1	-48.2	16.2	0.00e+00	0	43	0	573571072	62	4983
2026-01-11 07:50:19.24	21.81	13.18	-45.0	-48.2	16.2	0.00e+00	0	43	0	575668224	62	4976
2026-01-11 07:50:20.25	21.62	13.14	-45.1	-48.4	16.1	0.00e+00	0	43	0	577765376	62	5082
2026-01-11 07:50:21.25	21.44	13.11	-44.9	-48.2	16.2	0.00e+00	0	43	0	578813952	61	5266
2026-01-11 07:50:22.25	21.25	13.07	-44.8	-48.2	16.2	0.00e+00	0	43	0	580911104	61	5250
2026-01-11 07:50:23.25	21.07	13.03	-44.8	-48.3	16.2	0.00e+00	0	43	0	583008256	61	5316
2026-01-11 07:50:24.25	20.88	13.00	-44.8	-48.3	16.2	0.00e+00	0	43	0	585105408	61	5288
2026-01-11 07:50:25.25	20.70	12.96	-44.8	-48.4	16.1	0.00e+00	0	43	0	587202560	61	5357
2026-01-11 07:50:26.25	20.52	12.92	-44.8	-48.3	16.1	0.00e+00	0	43	0	588251136	61	5331
2026-01-11 07:50:27.26	20.33	12.88	-44.9	-48.3	16.2	0.00e+00	0	43	0	590348288	61	5298
2026-01-11 07:50:28.26	20.15	12.85	-44.9	-48.2	16.2	0.00e+00	0	43	0	592445440	61	5279
2026-01-11 07:50:29.26	19.97	12.81	-45.1	-48.4	16.1	0.00e+00	0	43	0	594542592	61	5344
2026-01-11 07:50:30.27	19.79	12.77	-45.1	-48.4	16.1	0.00e+00	0	43	0	596639744	61	5352
2026-01-11 07:50:31.27	19.61	12.73	-45.3	-48.6	15.9	0.00e+00	0	43	0	597688320	61	5476
2026-01-11 07:50:32.27	19.43	12.69	-45.3	-48.6	15.8	0.00e+00	0	43	0	599785472	61	5528
2026-01-11 07:50:33.27	19.25	12.65	-45.5	-48.8	15.7	0.00e+00	0	43	0	601882624	61	5596
2026-01-11 07:50:34.27	19.07	12.62	-45.5	-48.8	15.6	0.00e+00	0	43	0	603979776	61	5629
2026-01-11 07:50:35.27	18.89	12.58	-45.7	-49.0	15.5	0.00e+00	0	43	0	606076928	62	5423
2026-01-11 07:50:36.27	18.72	12.54	-45.8	-49.1	15.3	0.00e+00	0	43	0	607125504	62	5520
2026-01-11 07:50:37.28	18.54	12.50	-46.0	-49.3	15.2	0.00e+00	0	43	0	609222656	62	5625
2026-01-11 07:50:38.27	18.36	12.46	-46.0	-49.3	15.2	0.00e+00	0	43	0	611319808	62	5608
2026-01-11 07:50:39.27	18.19	12.42	-45.9	-49.3	15.2	0.00e+00	0	43	0	613416960	62	5599
2026-01-11 07:50:40.27	18.01	12.38	-46.0	-49.3	15.2	0.00e+00	0	43	0	614465536	62	5635
2026-01-11 07:50:41.27	17.83	12.34	-46.0	-49.4	15.1	0.00e+00	0	43	0	616562688	62	5688
2026-01-11 07:50:42.28	17.66	12.30	-46.0	-49.5	15.0	0.00e+00	0	43	0	618659840	62	5744
2026-01-11 07:50:43.28	17.48	12.25	-46.0	-49.7	14.8	0.00e+00	0	43	0	620756992	62	5866
2026-01-11 07:50:44.28	17.31	12.21	-45.8	-49.6	14.9	0.00e+00	0	43	0	622854144	62	5818
2026-01-11 07:50:45.28	17.14	12.17	-45.8	-49.7	14.8	7.00e-07	0	43	0	623902720	62	5885
2026-01-11 07:50:46.28	16.96	12.13	-45.8	-49.7	14.7	0.00e+00	0	43	0	625999872	62	5919
2026-01-11 07:50:47.28	16.79	12.09	-45.8	-49.9	14.6	0.00e+00	0	43	0	628097024	62	6024
2026-01-11 07:50:48.28	16.62	12.05	-45.8	-50.1	14.4	7.00e-07	0	43	0	630194176	62	6164
2026-01-11 07:50:49.29	16.45	12.00	-45.8	-50.2	14.3	0.00e+00	0	43	0	632291328	62	6253
2026-01-11 07:50:50.29	16.27	11.96	-45.8	-50.3	14.1	7.00e-07	0	43	0	633339904	62	6347
2026-01-11 07:50:51.29	16.10	11.92	-45.6	-50.2	14.3	7.00e-07	0	43	0	635437056	62	6205
2026-01-11 07:50:52.29	15.93	11.88	-45.6	-50.3	14.2	0.00e+00	0	43	0	637534208	62	6277
2026-01-11 07:50:53.29	15.77	11.84	-45.7	-50.5	14.0	3.00e-06	0	43	0	639631360	62	6431
2026-01-11 07:50:54.30	15.59	11.79	-45.7	-50.4	14.1	1.50e-06	0	43	0	641728512	62	6371
2026-01-11 07:50:55.30	15.43	11.75	-45.8	-50.5	14.0	7.00e-07	0	43	0	642777088	62	6428
2026-01-11 07:50:56.30	15.26	11.71	-45.9	-50.6	13.9	3.00e-06	0	43	0	644874240	62	6511
2026-01-11 07:50:57.30	15.09	11.66	-46.1	-50.6	13.9	3.80e-06	0	43	0	646971392	62	6558
2026-01-11 07:50:58.30	14.92	11.62	-46.2	-50.6	13.8	8.30e-06	0	43	0	649068544	63	6196
2026-01-11 07:50:59.30	14.76	11.58	-46.4	-50.7	13.7	1.50e-06	0	43	0	651165696	63	6266
2026-01-11 07:51:00.31	14.59	11.53	-46.4	-50.4	14.0	3.80e-06	0	43	0	652214272	63	6039
2026-01-11 07:51:01.31	14.43	11.49	-46.6	-50.6	13.9	1.50e-06	0	43	0	654311424	63	6149
2026-01-11 07:51:02.31	14.26	11.44	-46.6	-50.5	13.9	3.80e-06	0	43	0	656408576	63	6115
2026-01-11 07:51:03.31	14.10	11.40	-46.7	-50.7	13.8	5.30e-06	0	43	0	658505728	63	6231
2026-01-11 07:51:04.31	13.93	11.35	-46.6	-50.7	13.7	4.50e-06	0	43	0	659554304	64	5917
2026-01-11 07:51:05.31	13.77	11.31	-46.6	-50.9	13.5	5.30e-06	0	43	0	661651456	64	6032
2026-01-11 07:51:06.31	13.61	11.26	-46.7	-51.1	13.3	1.90e-05	0	43	0	663748608	64	6169
2026-01-11 07:51:07.31	13.44	11.22	-46.7	-51.2	13.2	2.36e-05	0	43	0	665845760	64	6246
2026-01-11 07:51:08.31	13.28	11.18	-46.7	-51.3	13.1	2.89e-05	0	43	0	667942912	64	6280
2026-01-11 07:51:09.31	13.12	11.13	-46.7	-51.2	13.1	3.20e-05	0	43	0	668991488	64	6253
2026-01-11 07:51:10.31	12.96	11.08	-46.6	-51.2	13.1	1.98e-05	0	43	0	671088640	64	6267
2026-01-11 07:51:11.31	12.80	11.04	-46.5	-51.3	13.1	2.67e-05	0	43	0	673185792	64	6303
2026-01-11 07:51:12.31	12.64	10.99	-46.3	-51.4	13.0	2.97e-05	0	43	0	675282944	64	6375
2026-01-11 07:51:13.31	12.48	10.95	-46.2	-51.2	13.1	2.82e-05	0	43	0	677380096	64	6267
2026-01-11 07:51:14.31	12.32	10.90	-46.1	-51.3	13.1	2.82e-05	0	43	0	678428672	64	6313
2026-01-11 07:51:15.31	12.16	10.86	-46.0	-51.6	12.9	3.96e-05	0	43	0	680525824	63	6884
2026-01-11 07:51:16.31	12.01	10.81	-45.9	-51.6	12.9	5.34e-05	0	43	0	682622976	63	6893
2026-01-11 07:51:17.31	11.85	10.76	-45.8	-51.6	12.9	4.42e-05	0	43	0	684720128	63	6888
2026-01-11 07:51:18.32	11.69	10.72	-45.8	-51.6	12.8	3.89e-05	0	43	0	686817280	63	6941
2026-01-11 07:51:19.32	11.54	10.67	-46.0	-51.6	12.8	6.48e-05	0	43	0	687865856	63	6946
2026-01-11 07:51:20.32	11.38	10.62	-46.3	-51.8	12.7	5.34e-05	0	43	0	689963008	63	7046
2026-01-11 07:51:21.32	11.22	10.58	-46.4	-51.7	12.7	7.01e-05	0	43	0	692060160	63	7021
2026-01-11 07:51:22.32	11.07	10.53	-46.5	-51.7	12.7	8.08e-05	0	43	0	694157312	63	7023
2026-01-11 07:51:23.32	10.92	10.48	-46.5	-51.8	12.6	8.39e-05	0	43	0	695205888	63	7066
2026-01-11 07:51:24.32	10.76	10.44	-46.4	-51.7	12.7	7.55e-05	0	43	0	697303040	63	6965
2026-01-11 07:51:25.32	10.61	10.39	-46.3	-51.6	12.8	6.25e-05	0	43	0	699400192	63	6931
2026-01-11 07:51:26.32	10.46	10.34	-46.1	-51.4	13.0	4.57e-05	0	43	0	701497344	63	6761
2026-01-11 07:51:27.32	10.30	10.30	-45.9	-51.3	13.1	2.51e-05	0	43	0	703594496	63	6685
2026-01-11 07:51:28.32	10.15	10.25	-45.7	-51.2	13.2	1.98e-05	0	43	0	704643072	63	6604
2026-01-11 07:51:29.33	10.00	10.20	-45.7	-51.3	13.2	2.28e-05	0	43	0	706740224	63	6648
2026-01-11 07:51:30.33	9.85	10.15	-45.9	-51.5	12.9	2.97e-05	0	43	0	708837376	63	6832
2026-01-11 07:51:31.33	9.70	10.10	-46.0	-51.4	13.0	3.35e-05	0	43	0	710934528	63	6780
2026-01-11 07:51:32.33	9.55	10.06	-46.2	-51.5	12.9	2.74e-05	0	43	0	713031680	63	6847
2026-01-11 07:51:33.34	9.40	10.01	-46.3	-51.5	12.9	5.03e-05	0	43	0	714080256	63	6870
2026-01-11 07:51:34.34	9.25	9.96	-46.4	-51.5	12.9	4.11e-05	0	43	0	716177408	63	6835
2026-01-11 07:51:35.34	9.10	9.91	-46.4	-51.3	13.1	2.97e-05	0	43	0	718274560	63	6711
2026-01-11 07:51:36.34	8.96	9.86	-46.3	-51.3	13.1	2.05e-05	0	43	0	720371712	63	6667
2026-01-11 07:51:37.34	8.81	9.82	-46.2	-51.1	13.3	2.44e-05	0	43	0	721420288	63	6527
2026-01-11 07:51:38.34	8.66	9.77	-46.1	-51.0	13.5	1.98e-05	0	43	0	723517440	63	6423
2026-01-11 07:51:39.34	8.52	9.72	-46.1	-50.9	13.5	9.90e-06	0	43	0	725614592	63	6363
2026-01-11 07:51:40.34	8.37	9.67	-46.3	-50.9	13.5	1.22e-05	0	43	0	727711744	63	6371
2026-01-11 07:51:41.34	8.22	9.62	-46.4	-51.0	13.4	3.80e-06	0	43	0	729808896	63	6490
2026-01-11 07:51:42.34	8.08	9.57	-46.3	-50.9	13.5	9.90e-06	0	43	0	730857472	63	6384
2026-01-11 07:51:43.34	7.94	9.52	-46.3	-50.8	13.6	9.10e-06	0	43	0	732954624	63	6335
2026-01-11 07:51:44.34	7.79	9.48	-46.2	-50.7	13.7	6.10e-06	0	43	0	735051776	63	6242
2026-01-11 07:51:45.34	7.65	9.43	-46.2	-50.7	13.7	1.06e-05	0	43	0	737148928	63	6262
2026-01-11 07:51:46.34	7.51	9.38	-46.2	-50.7	13.7	3.80e-06	0	43	0	739246080	63	6206
2026-01-11 07:51:47.34	7.36	9.33	-46.2	-50.7	13.7	3.00e-06	0	43	0	740294656	63	6241
2026-01-11 07:51:48.34	7.22	9.28	-46.0	-50.7	13.7	2.20e-06	0	43	0	742391808	63	6227
2026-01-11 07:51:49.34	7.08	9.23	-45.9	-50.6	13.8	3.80e-06	0	43	0	744488960	63	6200
2026-01-11 07:51:50.34	6.94	9.18	-45.8	-50.5	13.8	6.80e-06	0	43	0	746586112	63	6129
2026-01-11 07:51:51.34	6.80	9.13	-45.7	-50.5	13.9	4.50e-06	0	43	0	748683264	63	6107
2026-01-11 07:51:52.34	6.66	9.08	-45.6	-50.6	13.8	3.00e-06	0	43	0	749731840	63	6168
2026-01-11 07:51:53.34	6.52	9.03	-45.4	-50.3	14.0	3.80e-06	0	43	0	751828992	62	6344
2026-01-11 07:51:54.34	6.38	8.98	-49.2	-64.4	3.8	1.29e-01	0	43	104	753926144	69	21425
2026-01-11 07:51:55.35	6.24	8.93	-49.7	-65.7	3.8	1.49e+00	0	43	104	753926144	70	23575
2026-01-11 07:51:56.35	6.11	8.88	-49.7	-65.9	3.8	1.49e+00	0	43	104	753926144	70	24092
2026-01-11 07:51:57.35	5.97	8.83	-50.3	-66.0	3.8	1.49e+00	0	43	104	753926144	71	22918
2026-01-11 07:51:58.35	5.83	8.78	-50.7	-66.0	3.8	1.49e+00	0	43	104	753926144	72	21618
2026-01-11 07:51:59.35	5.70	8.73	-50.6	-66.1	3.8	1.49e+00	0	43	104	753926144	72	21797
2026-01-11 07:52:00.36	5.56	8.68	-50.8	-66.1	3.8	1.49e+00	0	43	104	753926144	72	21908
2026-01-11 07:52:01.36	5.42	8.63	-50.7	-66.2	3.8	1.49e+00	0	43	104	753926144	72	22021
2026-01-11 07:52:02.36	5.29	8.58	-50.9	-66.2	3.8	1.49e+00	0	43	104	753926144	72	22012
2026-01-11 07:52:03.36	5.15	8.53	-50.8	-66.2	3.8	1.49e+00	0	43	104	753926144	72	22042
2026-01-11 07:52:04.36	5.02	8.48	-50.6	-66.2	3.8	1.49e+00	0	43	104	753926144	72	22259
2026-01-11 07:52:05.36	4.89	8.43	-51.0	-66.2	3.8	1.49e+00	0	43	104	753926144	72	22240
2026-01-11 07:52:06.36	4.75	8.38	-50.9	-66.2	3.8	1.49e+00	0	43	104	753926144	72	22207
2026-01-11 07:52:07.37	4.62	8.33	-51.0	-66.3	3.8	1.49e+00	0	43	104	753926144	72	22326
2026-01-11 07:52:08.37	4.49	8.28	-51.0	-66.2	3.8	1.49e+00	0	43	104	753926144	72	22188
2026-01-11 07:52:09.37	4.36	8.23	-51.0	-66.2	3.8	1.49e+00	0	43	104	753926144	72	22233
2026-01-11 07:52:10.37	4.22	8.18	-51.0	-66.2	3.8	1.49e+00	0	43	104	753926144	72	22216
2026-01-11 07:52:11.37	4.09	8.13	-50.9	-66.2	3.8	1.49e+00	0	43	104	753926144	72	22197
2026-01-11 07:52:12.37	3.96	8.08	-50.8	-66.2	3.8	1.49e+00	0	43	104	753926144	72	22121
2026-01-11 07:52:13.38	3.83	8.03	-51.0	-66.2	3.8	1.49e+00	0	43	104	753926144	72	22176
2026-01-11 07:52:14.38	3.70	7.98	-51.0	-66.2	3.8	1.49e+00	0	43	104	753926144	72	22237
2026-01-11 07:52:15.38	3.57	7.93	-51.1	-66.2	3.8	1.49e+00	0	43	104	753926144	72	22162
2026-01-11 07:52:16.38	3.45	7.88	-51.0	-66.2	3.8	1.49e+00	0	43	104	753926144	72	22150
2026-01-11 07:52:17.39	3.32	7.83	-51.0	-66.2	3.8	1.49e+00	0	43	104	753926144	72	22229
2026-01-11 07:52:18.39	3.19	7.78	-51.0	-66.2	3.8	1.49e+00	0	43	104	753926144	72	22200
2026-01-11 07:52:19.39	3.06	7.72	-51.0	-66.2	3.8	1.49e+00	0	43	104	753926144	72	22235
2026-01-11 07:52:20.39	2.94	7.67	-50.9	-66.2	3.8	1.49e+00	0	43	104	753926144	72	22199
2026-01-11 07:52:21.40	2.81	7.62	-50.9	-66.2	3.8	1.49e+00	0	43	104	753926144	72	22051
2026-01-11 07:52:22.40	2.68	7.57	-50.9	-66.2	3.8	1.49e+00	0	43	104	753926144	72	22178
2026-01-11 07:52:23.40	2.56	7.52	-50.9	-66.2	3.8	1.49e+00	0	43	104	753926144	72	22112
2026-01-11 07:52:24.40	2.43	7.47	-50.9	-66.2	3.8	1.49e+00	0	43	104	753926144	72	22118
2026-01-11 07:52:25.40	2.31	7.42	-50.9	-66.2	3.8	1.49e+00	0	43	104	753926144	72	22029
2026-01-11 07:52:26.40	2.19	7.37	-50.9	-66.2	3.8	1.49e+00	0	43	104	753926144	72	22083
2026-01-11 07:52:27.40	2.06	7.32	-50.9	-66.2	3.8	1.49e+00	0	43	104	753926144	72	22100
2026-01-11 07:52:28.41	1.94	7.27	-50.9	-66.2	3.8	1.49e+00	0	43	104	753926144	72	22104
2026-01-11 07:52:29.41	1.82	7.21	-50.9	-66.2	3.8	1.49e+00	0	43	104	753926144	72	22124
2026-01-11 07:52:30.41	1.69	7.16	-50.9	-66.2	3.8	1.49e+00	0	43	104	753926144	72	22045
2026-01-11 07:52:31.41	1.57	7.11	-50.9	-66.2	3.8	1.49e+00	0	43	104	753926144	72	22151
2026-01-11 07:52:32.41	1.45	7.06	-50.9	-66.2	3.8	1.49e+00	0	43	104	753926144	72	22017
2026-01-11 07:52:33.41	1.33	7.01	-50.9	-66.2	3.8	1.49e+00	0	43	104	753926144	72	22095
2026-01-11 07:52:34.41	1.21	6.96	-50.9	-66.2	3.8	1.49e+00	0	43	104	753926144	72	22060
2026-01-11 07:52:35.41	1.09	6.91	-50.9	-66.2	3.8	1.49e+00	0	43	104	753926144	72	22065
2026-01-11 07:52:36.42	0.97	6.86	-50.9	-66.2	3.8	1.49e+00	0	43	104	753926144	72	22110
2026-01-11 07:52:37.42	0.85	6.81	-50.9	-66.2	3.8	1.49e+00	0	43	104	753926144	72	22186
2026-01-11 07:52:38.42	0.73	6.75	-50.9	-66.2	3.8	1.49e+00	0	43	104	753926144	72	22082
2026-01-11 07:52:39.42	0.61	6.70	-50.9	-66.2	3.8	1.49e+00	0	43	104	753926144	72	22077
2026-01-11 07:52:40.42	0.50	6.65	-50.9	-66.2	3.8	1.49e+00	0	43	104	753926144	72	22054
2026-01-11 07:52:41.43	0.38	6.60	-50.9	-66.2	3.8	1.49e+00	0	43	104	753926144	72	22118
2026-01-11 07:52:42.43	0.26	6.55	-50.9	-66.2	3.8	1.49e+00	0	43	104	753926144	72	22048
2026-01-11 07:52:43.43	0.14	6.50	-50.9	-66.2	3.8	1.49e+00	0	43	104	753926144	72	22118
2026-01-11 07:52:44.43	0.03	6.45	-50.9	-66.2	3.8	1.49e+00	0	43	104	753926144	72	22082
2026-01-11 07:52:45.43	359.91	6.40	-50.9	-66.2	3.8	1.49e+00	0	43	104	753926144	72	22075
2026-01-11 07:52:46.44	359.80	6.34	-50.9	-66.2	3.8	1.49e+00	0	43	104	753926144	72	22185
2026-01-11 07:52:47.44	359.68	6.29	-50.9	-66.2	3.8	1.49e+00	0	43	104	753926144	72	22087
2026-01-11 07:52:48.44	359.57	6.24	-50.9	-66.2	3.8	1.49e+00	0	43	104	753926144	72	22078
2026-01-11 07:52:49.44	359.45	6.19	-50.9	-66.2	3.8	1.49e+00	0	43	104	753926144	72	22071
2026-01-11 07:52:50.44	359.34	6.14	-50.9	-66.2	3.8	1.49e+00	0	43	104	753926144	72	22052
2026-01-11 07:52:51.45	359.23	6.09	-50.9	-66.2	3.8	1.49e+00	0	43	104	753926144	72	22125
2026-01-11 07:52:52.45	359.11	6.04	-50.9	-66.1	3.8	1.49e+00	0	43	104	753926144	72	21992
2026-01-11 07:52:53.45	359.00	5.98	-50.9	-66.2	3.8	1.49e+00	0	43	104	753926144	72	22116
2026-01-11 07:52:54.45	358.89	5.93	-50.9	-66.2	3.8	1.49e+00	0	43	104	753926144	72	22093
2026-01-11 07:52:55.46	358.78	5.88	-50.9	-66.2	3.8	1.49e+00	0	43	104	753926144	72	22106
2026-01-11 07:52:56.46	358.67	5.83	-50.9	-66.2	3.8	1.49e+00	0	43	104	753926144	72	22066
2026-01-11 07:52:57.46	358.55	5.78	-50.9	-66.2	3.8	1.49e+00	0	43	104	753926144	72	22092
2026-01-11 07:52:58.46	358.44	5.73	-50.9	-66.2	3.8	1.49e+00	0	43	104	753926144	72	22086
2026-01-11 07:52:59.46	358.33	5.68	-50.9	-66.2	3.8	1.49e+00	0	43	104	753926144	72	22197
2026-01-11 07:53:00.47	358.22	5.62	-50.9	-66.2	3.8	1.49e+00	0	43	104	753926144	72	22122
2026-01-11 07:53:01.47	358.11	5.57	-50.9	-66.2	3.8	1.49e+00	0	43	104	753926144	72	22203
2026-01-11 07:53:02.47	358.01	5.52	-50.9	-66.2	3.8	1.49e+00	0	43	104	753926144	72	22122
2026-01-11 07:53:03.47	357.90	5.47	-50.9	-66.2	3.8	1.49e+00	0	43	104	753926144	72	22166
2026-01-11 07:53:04.48	357.79	5.42	-50.9	-66.2	3.8	1.49e+00	0	43	104	753926144	72	22127
2026-01-11 07:53:05.48	357.68	5.37	-50.9	-66.2	3.8	1.49e+00	0	43	104	753926144	72	22067
2026-01-11 07:53:06.48	357.57	5.32	-50.9	-66.2	3.8	1.49e+00	0	43	104	753926144	72	22050
2026-01-11 07:53:07.48	357.47	5.26	-50.9	-66.2	3.8	1.49e+00	0	43	104	753926144	72	22106
2026-01-11 07:53:08.48	357.36	5.21	-50.9	-66.2	3.8	1.49e+00	0	43	104	753926144	72	22144
2026-01-11 07:53:09.48	357.26	5.16	-50.9	-66.2	3.8	1.49e+00	0	43	104	753926144	72	22210
2026-01-11 07:53:10.48	357.15	5.11	-50.9	-66.2	3.8	1.49e+00	0	43	104	753926144	72	22133
2026-01-11 07:53:11.49	357.04	5.06	-50.9	-66.2	3.8	1.49e+00	0	43	104	753926144	72	22155
2026-01-11 07:53:12.49	356.94	5.01	-50.9	-66.2	3.8	1.49e+00	0	43	10
