passes_logs/2026/01/11/T1/T1__20260111_235135_FENGYUN_3D_rec.log

#Pass ID: 20260111_235135_FENGYUN 3D
#Satellite: FENGYUN 3D
#Configuration: FENGYUN 3D
#almurnet v.1.7.20251203
#Start time: 2026-01-11 23:51:36

#Version: 2.0.20230620
#Station: T1
#Location: 37.570604 lon 55.790049 lat
#TLE: 1 43010U 17072A   26011.26828046  .00000354  00000+0  18908-3 0  9991
#TLE: 2 43010  98.9936 343.0270 0002205 114.1788 245.9618 14.19695184422722

#Time	Az	El	Level	Level2	SNR	BER	BlckErr	Temp	State	Recorded	gain1	gain2
2026-01-11 23:51:36.91	35.92	5.07	-50.0	-62.2	3.8	8.47e-01	0	39	0	0	72	13963
2026-01-11 23:51:37.90	36.03	5.12	-50.0	-62.3	3.8	8.46e-01	0	40	104	0	71	14934
2026-01-11 23:51:38.89	36.14	5.17	-50.0	-62.2	3.8	8.46e-01	0	39	104	0	71	14870
2026-01-11 23:51:39.89	36.25	5.22	-50.0	-62.3	3.8	8.47e-01	0	40	104	0	71	14881
2026-01-11 23:51:40.88	36.35	5.27	-50.0	-62.2	3.8	8.46e-01	0	40	104	0	71	14813
2026-01-11 23:51:41.87	36.46	5.32	-50.0	-62.2	3.8	8.47e-01	0	39	104	0	71	14868
2026-01-11 23:51:42.87	36.57	5.37	-50.0	-62.2	3.8	8.47e-01	0	40	104	0	71	14867
2026-01-11 23:51:43.86	36.68	5.42	-50.0	-62.2	3.8	8.48e-01	0	40	104	0	71	14820
2026-01-11 23:51:44.86	36.80	5.46	-50.0	-62.2	3.8	8.48e-01	0	40	104	0	71	14833
2026-01-11 23:51:45.85	36.91	5.51	-50.0	-62.2	3.8	8.47e-01	0	40	104	0	71	14836
2026-01-11 23:51:46.84	37.02	5.56	-50.0	-62.2	3.8	8.46e-01	0	40	104	0	71	14825
2026-01-11 23:51:47.84	37.13	5.61	-50.0	-62.2	3.8	8.47e-01	0	40	104	0	71	14810
2026-01-11 23:51:48.83	37.24	5.66	-50.0	-62.2	3.8	8.46e-01	0	40	104	0	71	14858
2026-01-11 23:51:49.82	37.36	5.71	-50.0	-62.2	3.8	8.47e-01	0	40	104	0	71	14844
2026-01-11 23:51:50.82	37.47	5.76	-50.0	-62.2	3.8	8.48e-01	0	40	104	0	71	14806
2026-01-11 23:51:51.81	37.58	5.81	-50.0	-62.2	3.8	8.46e-01	0	40	104	0	71	14806
2026-01-11 23:51:52.80	37.70	5.86	-50.0	-62.2	3.8	8.47e-01	0	40	104	0	71	14850
2026-01-11 23:51:53.80	37.81	5.91	-50.0	-62.2	3.8	8.47e-01	0	40	104	0	71	14814
2026-01-11 23:51:54.79	37.93	5.96	-50.0	-62.2	3.8	8.47e-01	0	40	104	0	71	14836
2026-01-11 23:51:55.78	38.04	6.01	-50.0	-62.2	3.8	8.48e-01	0	40	104	0	71	14837
2026-01-11 23:51:56.78	38.16	6.06	-50.0	-62.2	3.8	8.46e-01	0	40	104	0	71	14806
2026-01-11 23:51:57.77	38.27	6.10	-50.0	-62.2	3.8	8.47e-01	0	40	104	0	71	14802
2026-01-11 23:51:58.76	38.39	6.15	-50.0	-62.2	3.8	8.48e-01	0	40	104	0	71	14809
2026-01-11 23:51:59.76	38.50	6.20	-50.0	-62.2	3.8	8.47e-01	0	40	104	0	71	14759
2026-01-11 23:52:00.75	38.62	6.25	-50.0	-62.2	3.8	8.46e-01	0	40	104	0	71	14786
2026-01-11 23:52:01.74	38.74	6.30	-50.0	-62.2	3.8	8.46e-01	0	41	104	0	71	14814
2026-01-11 23:52:02.74	38.86	6.35	-50.0	-62.2	3.8	8.47e-01	0	41	104	0	71	14784
2026-01-11 23:52:03.73	38.97	6.40	-50.0	-62.2	3.8	8.46e-01	0	40	104	0	71	14765
2026-01-11 23:52:04.72	39.09	6.45	-50.0	-62.2	3.8	8.48e-01	0	41	104	0	71	14794
2026-01-11 23:52:05.72	39.21	6.50	-50.0	-62.2	3.8	8.47e-01	0	41	104	0	71	14748
2026-01-11 23:52:06.71	39.33	6.55	-50.0	-62.2	3.8	8.47e-01	0	40	104	0	71	14769
2026-01-11 23:52:07.71	39.45	6.60	-50.0	-62.2	3.8	8.47e-01	0	41	104	0	71	14768
2026-01-11 23:52:08.70	39.57	6.65	-50.0	-62.2	3.8	8.48e-01	0	40	104	0	71	14739
2026-01-11 23:52:09.69	39.69	6.70	-50.0	-62.2	3.8	8.47e-01	0	40	104	0	71	14731
2026-01-11 23:52:10.69	39.81	6.74	-50.0	-62.1	3.8	8.47e-01	0	41	104	0	71	14689
2026-01-11 23:52:11.68	39.93	6.79	-50.0	-62.1	3.8	8.47e-01	0	41	104	0	71	14649
2026-01-11 23:52:12.67	40.05	6.84	-50.0	-62.1	3.8	8.47e-01	0	41	104	0	71	14657
2026-01-11 23:52:13.67	40.18	6.89	-50.0	-62.1	3.8	8.46e-01	0	41	104	0	71	14698
2026-01-11 23:52:14.66	40.30	6.94	-50.0	-62.2	3.8	8.48e-01	0	41	104	0	71	14781
2026-01-11 23:52:15.65	40.42	6.99	-50.0	-62.2	3.8	8.47e-01	0	41	104	0	71	14850
2026-01-11 23:52:16.65	40.54	7.04	-50.0	-62.2	3.8	8.46e-01	0	41	104	0	71	14855
2026-01-11 23:52:17.64	40.67	7.09	-50.0	-62.2	3.8	8.46e-01	0	41	104	0	71	14791
2026-01-11 23:52:18.63	40.79	7.14	-50.0	-62.2	3.8	8.47e-01	0	41	104	0	71	14826
2026-01-11 23:52:19.63	40.92	7.19	-50.0	-62.2	3.8	8.47e-01	0	41	104	0	71	14812
2026-01-11 23:52:20.62	41.04	7.24	-50.0	-62.2	3.8	8.47e-01	0	41	104	0	71	14717
2026-01-11 23:52:21.61	41.16	7.28	-50.0	-62.2	3.8	8.47e-01	0	41	104	0	71	14808
2026-01-11 23:52:22.61	41.29	7.33	-50.0	-62.1	3.8	8.47e-01	0	41	104	0	71	14701
2026-01-11 23:52:23.60	41.42	7.38	-50.0	-62.2	3.8	8.46e-01	0	41	104	0	71	14737
2026-01-11 23:52:24.59	41.54	7.43	-50.0	-62.1	3.8	8.47e-01	0	41	104	0	71	14703
2026-01-11 23:52:25.58	41.67	7.48	-50.0	-62.1	3.8	8.47e-01	0	41	104	0	71	14659
2026-01-11 23:52:26.58	41.80	7.53	-50.0	-62.1	3.8	8.47e-01	0	41	104	0	71	14689
2026-01-11 23:52:27.57	41.92	7.58	-50.0	-62.0	3.8	8.48e-01	0	41	104	0	71	14501
2026-01-11 23:52:28.56	42.05	7.63	-50.0	-62.0	3.8	8.47e-01	0	41	104	0	71	14480
2026-01-11 23:52:29.56	42.18	7.68	-50.0	-62.0	3.8	8.45e-01	0	41	104	0	71	14508
2026-01-11 23:52:30.55	42.31	7.72	-50.0	-62.1	3.8	8.47e-01	0	41	104	0	71	14610
2026-01-11 23:52:31.54	42.44	7.77	-50.0	-62.1	3.8	8.46e-01	0	41	104	0	71	14603
2026-01-11 23:52:32.54	42.57	7.82	-50.0	-62.2	3.8	8.46e-01	0	41	104	0	71	14781
2026-01-11 23:52:33.53	42.70	7.87	-50.0	-62.2	3.8	8.47e-01	0	41	104	0	71	14756
2026-01-11 23:52:34.53	42.83	7.92	-50.0	-62.2	3.8	8.47e-01	0	41	104	0	71	14810
2026-01-11 23:52:35.52	42.96	7.97	-50.0	-62.2	3.8	8.46e-01	0	41	104	0	71	14731
2026-01-11 23:52:36.51	43.09	8.02	-50.0	-62.2	3.8	8.47e-01	0	41	104	0	71	14803
2026-01-11 23:52:37.51	43.22	8.07	-50.0	-62.2	3.8	8.47e-01	0	41	104	0	71	14754
2026-01-11 23:52:38.50	43.35	8.11	-50.0	-62.1	3.8	8.46e-01	0	41	104	0	71	14615
2026-01-11 23:52:39.49	43.49	8.16	-50.0	-62.1	3.8	8.47e-01	0	41	104	0	71	14629
2026-01-11 23:52:40.49	43.62	8.21	-50.0	-62.1	3.8	8.48e-01	0	41	104	0	71	14548
2026-01-11 23:52:41.48	43.75	8.26	-50.0	-62.1	3.8	8.48e-01	0	41	104	0	71	14660
2026-01-11 23:52:42.47	43.89	8.31	-50.0	-62.1	3.8	8.46e-01	0	41	104	0	71	14597
2026-01-11 23:52:43.47	44.02	8.36	-50.0	-62.1	3.8	8.47e-01	0	41	104	0	71	14621
2026-01-11 23:52:44.46	44.16	8.40	-50.0	-62.1	3.8	8.47e-01	0	41	104	0	71	14602
2026-01-11 23:52:45.45	44.29	8.45	-50.0	-62.2	3.8	8.47e-01	0	41	104	0	71	14727
2026-01-11 23:52:46.45	44.43	8.50	-50.0	-62.2	3.8	8.46e-01	0	41	104	0	71	14719
2026-01-11 23:52:47.44	44.56	8.55	-50.0	-62.2	3.8	8.47e-01	0	41	104	0	71	14784
2026-01-11 23:52:48.43	44.70	8.60	-50.0	-62.1	3.8	8.46e-01	0	41	104	0	71	14679
2026-01-11 23:52:49.43	44.84	8.65	-50.0	-62.1	3.8	8.47e-01	0	41	104	0	71	14566
2026-01-11 23:52:50.42	44.97	8.69	-50.0	-62.0	3.8	8.48e-01	0	42	104	0	71	14502
2026-01-11 23:52:51.42	45.11	8.74	-50.0	-61.9	3.8	8.47e-01	0	42	104	0	71	14310
2026-01-11 23:52:52.41	45.25	8.79	-49.9	-61.8	3.8	8.46e-01	0	41	104	0	71	14101
2026-01-11 23:52:53.40	45.39	8.84	-49.9	-61.6	3.8	8.46e-01	0	41	104	0	71	13826
2026-01-11 23:52:54.40	45.53	8.89	-49.9	-61.5	3.8	8.47e-01	0	41	104	0	71	13697
2026-01-11 23:52:55.39	45.67	8.93	-49.9	-61.7	3.8	8.47e-01	0	42	104	0	71	14001
2026-01-11 23:52:56.38	45.81	8.98	-49.9	-61.7	3.8	8.46e-01	0	42	104	0	71	13903
2026-01-11 23:52:57.38	45.95	9.03	-49.5	-58.6	3.9	8.46e-01	0	42	104	0	71	9743
2026-01-11 23:52:58.47	46.10	9.08	-49.4	-58.1	4.5	2.91e-01	0	42	0	3145728	69	10302
2026-01-11 23:52:59.32	46.22	9.12	-49.9	-61.7	3.8	8.47e-01	0	42	104	3145728	70	14771
2026-01-11 23:53:00.45	46.39	9.18	-49.4	-58.0	4.4	7.70e-01	0	42	0	3145728	70	9626
2026-01-11 23:53:01.31	46.51	9.22	-49.0	-56.6	5.0	7.21e-01	0	42	0	3145728	69	8702
2026-01-11 23:53:02.44	46.67	9.27	-44.0	-46.6	14.4	1.10e-06	0	42	0	7340032	59	4878
2026-01-11 23:53:03.30	46.79	9.31	-43.9	-46.5	14.4	0.00e+00	0	42	0	12582912	59	4855
2026-01-11 23:53:04.43	46.96	9.37	-44.2	-46.8	14.1	3.40e-06	0	41	0	18874368	59	5038
2026-01-11 23:53:05.29	47.08	9.41	-43.7	-46.3	14.8	0.00e+00	0	41	0	24117248	59	4709
2026-01-11 23:53:06.42	47.25	9.46	-43.4	-45.8	15.2	0.00e+00	0	42	0	30408704	58	4727
2026-01-11 23:53:07.28	47.37	9.50	-42.7	-45.0	16.0	0.00e+00	0	42	0	34603008	57	4565
2026-01-11 23:53:08.41	47.54	9.55	-42.7	-44.9	16.0	0.00e+00	0	42	0	40894464	57	4534
2026-01-11 23:53:09.26	47.66	9.60	-42.5	-44.8	16.3	0.00e+00	0	42	0	46137344	56	4711
2026-01-11 23:53:10.40	47.83	9.65	-42.5	-44.7	16.2	0.00e+00	0	41	0	52428800	56	4705
2026-01-11 23:53:11.25	47.96	9.69	-42.3	-44.5	16.5	0.00e+00	0	42	0	57671680	56	4574
2026-01-11 23:53:12.39	48.13	9.74	-42.3	-44.4	16.6	0.00e+00	0	42	0	63963136	56	4543
2026-01-11 23:53:13.24	48.25	9.78	-42.1	-44.3	16.7	0.00e+00	0	42	0	68157440	56	4475
2026-01-11 23:53:14.38	48.42	9.84	-42.3	-44.5	16.5	0.00e+00	0	42	0	74448896	56	4574
2026-01-11 23:53:15.23	48.55	9.88	-42.0	-44.1	16.9	0.00e+00	0	42	0	79691776	56	4352
2026-01-11 23:53:16.37	48.72	9.93	-41.7	-43.8	17.0	0.00e+00	0	42	0	85983232	55	4475
2026-01-11 23:53:17.30	48.86	9.97	-41.6	-43.8	17.1	0.00e+00	0	42	0	91226112	55	4444
2026-01-11 23:53:18.47	49.04	10.03	-41.6	-43.7	17.1	0.00e+00	0	42	0	97517568	55	4431
2026-01-11 23:53:19.32	49.17	10.07	-41.6	-43.7	17.1	0.00e+00	0	42	0	102760448	55	4427
2026-01-11 23:53:20.66	49.37	10.13	-41.6	-43.7	17.2	0.00e+00	0	42	0	110100480	55	4434
2026-01-11 23:53:21.37	49.48	10.16	-41.6	-43.7	17.2	0.00e+00	0	42	0	114294784	55	4426
2026-01-11 23:53:22.65	49.67	10.22	-41.5	-43.6	17.3	0.00e+00	0	42	0	121634816	55	4351
2026-01-11 23:53:23.38	49.79	10.25	-41.4	-43.5	17.3	0.00e+00	0	42	0	125829120	54	4583
2026-01-11 23:53:24.66	49.98	10.31	-41.4	-43.5	17.5	0.00e+00	0	42	0	132120576	54	4547
2026-01-11 23:53:25.39	50.10	10.35	-41.3	-43.4	17.5	0.00e+00	0	42	0	136314880	54	4533
2026-01-11 23:53:26.67	50.29	10.41	-41.4	-43.5	17.4	0.00e+00	0	42	0	143654912	54	4556
2026-01-11 23:53:27.46	50.42	10.44	-41.4	-43.5	17.4	0.00e+00	0	42	0	147849216	54	4581
2026-01-11 23:53:28.63	50.60	10.50	-41.5	-43.6	17.3	0.00e+00	0	42	0	155189248	54	4622
2026-01-11 23:53:29.48	50.73	10.53	-41.6	-43.6	17.3	0.00e+00	0	42	0	159383552	54	4649
2026-01-11 23:53:30.62	50.91	10.59	-41.5	-43.6	17.3	0.00e+00	0	42	0	166723584	54	4618
2026-01-11 23:53:31.71	51.08	10.63	-41.4	-43.5	17.5	0.00e+00	0	42	0	171966464	54	4549
2026-01-11 23:53:32.56	51.22	10.67	-41.5	-43.6	17.4	0.00e+00	0	42	0	177209344	54	4608
2026-01-11 23:53:33.70	51.40	10.72	-41.4	-43.5	17.4	0.00e+00	0	42	0	183500800	54	4573
2026-01-11 23:53:34.55	51.53	10.76	-41.5	-43.5	17.4	0.00e+00	0	42	0	188743680	54	4588
2026-01-11 23:53:35.69	51.71	10.81	-41.4	-43.4	17.5	0.00e+00	0	42	0	195035136	54	4540
2026-01-11 23:53:36.54	51.85	10.85	-41.3	-43.4	17.5	0.00e+00	0	42	0	199229440	54	4504
2026-01-11 23:53:37.68	52.03	10.90	-41.4	-43.5	17.3	0.00e+00	0	42	0	205520896	54	4570
2026-01-11 23:53:38.53	52.17	10.94	-41.3	-43.4	17.4	0.00e+00	0	42	0	210763776	54	4528
2026-01-11 23:53:39.67	52.35	10.99	-41.3	-43.4	17.3	0.00e+00	0	42	0	217055232	54	4533
2026-01-11 23:53:40.52	52.49	11.03	-41.2	-43.3	17.4	0.00e+00	0	42	0	222298112	54	4488
2026-01-11 23:53:41.66	52.67	11.08	-41.1	-43.2	17.6	0.00e+00	0	42	0	228589568	54	4410
2026-01-11 23:53:42.56	52.82	11.12	-41.1	-43.2	17.6	0.00e+00	0	42	0	232783872	54	4397
2026-01-11 23:53:43.60	52.99	11.17	-41.0	-43.1	17.7	0.00e+00	0	42	0	239075328	54	4356
2026-01-11 23:53:44.73	53.17	11.21	-41.0	-43.1	17.7	0.00e+00	0	42	0	245366784	54	4350
2026-01-11 23:53:45.62	53.32	11.25	-40.9	-43.0	17.8	0.00e+00	0	42	0	250609664	53	4567
2026-01-11 23:53:46.93	53.54	11.31	-41.0	-43.0	17.8	0.00e+00	0	42	0	257949696	53	4576
2026-01-11 23:53:47.64	53.65	11.34	-41.0	-43.1	17.7	0.00e+00	0	42	0	262144000	53	4637
2026-01-11 23:53:49.14	53.90	11.41	-41.0	-43.0	17.8	0.00e+00	0	42	0	270532608	53	4592
2026-01-11 23:53:49.84	54.02	11.44	-41.0	-43.0	17.8	0.00e+00	0	42	0	274726912	53	4584
2026-01-11 23:53:51.22	54.25	11.50	-41.0	-43.1	17.7	0.00e+00	0	42	0	282066944	53	4617
2026-01-11 23:53:51.93	54.37	11.53	-41.0	-43.1	17.6	0.00e+00	0	42	0	286261248	53	4627
2026-01-11 23:53:53.21	54.58	11.58	-41.1	-43.2	17.5	0.00e+00	0	42	0	293601280	53	4695
2026-01-11 23:53:53.93	54.70	11.61	-41.1	-43.2	17.6	0.00e+00	0	42	0	297795584	53	4661
2026-01-11 23:53:55.21	54.92	11.67	-41.1	-43.2	17.6	0.00e+00	0	42	0	304087040	53	4680
2026-01-11 23:53:55.92	55.04	11.70	-41.2	-43.3	17.5	0.00e+00	0	42	0	308281344	53	4747
2026-01-11 23:53:57.20	55.25	11.75	-41.1	-43.2	17.5	0.00e+00	0	42	0	315621376	53	4697
2026-01-11 23:53:57.91	55.37	11.78	-41.1	-43.2	17.6	0.00e+00	0	42	0	319815680	53	4685
2026-01-11 23:53:59.19	55.59	11.83	-41.1	-43.2	17.6	0.00e+00	0	42	0	327155712	53	4685
2026-01-11 23:53:59.99	55.73	11.87	-41.1	-43.2	17.6	0.00e+00	0	42	0	331350016	53	4690
2026-01-11 23:54:01.13	55.92	11.91	-41.1	-43.2	17.6	0.00e+00	0	42	0	337641472	53	4676
2026-01-11 23:54:01.98	56.07	11.95	-41.1	-43.2	17.5	0.00e+00	0	42	0	342884352	53	4696
2026-01-11 23:54:03.12	56.27	12.00	-41.1	-43.1	17.6	0.00e+00	0	42	0	349175808	53	4645
2026-01-11 23:54:03.97	56.41	12.03	-41.0	-43.1	17.7	0.00e+00	0	42	0	354418688	53	4603
2026-01-11 23:54:05.11	56.61	12.08	-40.9	-43.0	17.8	0.00e+00	0	42	0	359661568	53	4546
2026-01-11 23:54:05.96	56.76	12.11	-40.8	-42.9	17.9	0.00e+00	0	42	0	364904448	53	4510
2026-01-11 23:54:07.10	56.96	12.16	-40.9	-42.9	17.9	0.00e+00	0	42	0	371195904	53	4536
2026-01-11 23:54:07.95	57.11	12.19	-40.8	-42.9	17.9	0.00e+00	0	42	0	376438784	53	4511
2026-01-11 23:54:09.09	57.31	12.24	-40.9	-42.9	17.9	0.00e+00	0	42	0	382730240	53	4526
2026-01-11 23:54:09.94	57.45	12.27	-40.9	-43.0	17.8	0.00e+00	0	42	0	386924544	53	4571
2026-01-11 23:54:11.08	57.66	12.32	-41.0	-43.1	17.7	0.00e+00	0	42	0	394264576	53	4634
2026-01-11 23:54:11.93	57.81	12.35	-41.1	-43.1	17.7	0.00e+00	0	42	0	398458880	53	4651
2026-01-11 23:54:13.07	58.01	12.40	-41.0	-43.1	17.7	0.00e+00	0	42	0	404750336	53	4643
2026-01-11 23:54:14.02	58.18	12.43	-41.0	-43.1	17.7	0.00e+00	0	42	0	409993216	53	4644
2026-01-11 23:54:15.01	58.35	12.47	-40.9	-43.0	17.8	0.00e+00	0	42	0	416284672	53	4584
2026-01-11 23:54:16.01	58.53	12.51	-40.8	-42.9	17.9	0.00e+00	0	42	0	421527552	53	4507
2026-01-11 23:54:17.00	58.71	12.55	-40.8	-42.9	17.9	0.00e+00	0	42	0	426770432	53	4515
2026-01-11 23:54:18.00	58.89	12.59	-40.9	-42.9	17.9	0.00e+00	0	42	0	433061888	53	4519
2026-01-11 23:54:18.99	59.06	12.63	-40.8	-42.9	17.9	0.00e+00	0	42	0	438304768	53	4496
2026-01-11 23:54:19.99	59.24	12.66	-40.6	-42.6	18.2	0.00e+00	0	42	0	443547648	53	4368
2026-01-11 23:54:20.98	59.42	12.70	-40.5	-42.5	18.3	0.00e+00	0	42	0	449839104	53	4317
2026-01-11 23:54:21.98	59.60	12.74	-40.6	-42.5	18.3	0.00e+00	0	42	0	455081984	53	4339
2026-01-11 23:54:22.97	59.78	12.78	-40.7	-42.7	18.1	0.00e+00	0	42	0	460324864	53	4418
2026-01-11 23:54:23.97	59.97	12.81	-40.8	-42.8	18.0	0.00e+00	0	42	0	466616320	53	4477
2026-01-11 23:54:24.96	60.15	12.85	-40.8	-42.9	17.9	0.00e+00	0	42	0	471859200	53	4515
2026-01-11 23:54:25.96	60.33	12.89	-40.9	-42.9	17.9	0.00e+00	0	42	0	477102080	53	4540
2026-01-11 23:54:26.97	60.51	12.93	-40.9	-43.0	17.8	0.00e+00	0	42	0	483393536	53	4561
2026-01-11 23:54:28.00	60.70	12.96	-40.8	-42.9	17.9	0.00e+00	0	42	0	488636416	53	4515
2026-01-11 23:54:28.99	60.89	13.00	-40.8	-42.9	18.0	0.00e+00	0	42	0	494927872	53	4498
2026-01-11 23:54:29.99	61.07	13.03	-40.8	-42.8	18.0	0.00e+00	0	42	0	500170752	53	4477
2026-01-11 23:54:30.98	61.25	13.07	-40.7	-42.8	18.0	0.00e+00	0	42	0	505413632	53	4461
2026-01-11 23:54:31.97	61.44	13.11	-40.8	-42.9	18.0	0.00e+00	0	42	0	511705088	53	4504
2026-01-11 23:54:32.97	61.62	13.14	-40.6	-42.6	18.2	0.00e+00	0	42	0	516947968	53	4364
2026-01-11 23:54:33.96	61.81	13.18	-40.5	-42.5	18.3	0.00e+00	0	42	0	522190848	53	4323
2026-01-11 23:54:34.96	62.00	13.21	-40.6	-42.6	18.2	0.00e+00	0	42	0	528482304	52	4613
2026-01-11 23:54:35.95	62.18	13.25	-40.5	-42.5	18.3	0.00e+00	0	42	0	533725184	52	4579
2026-01-11 23:54:36.95	62.37	13.28	-40.5	-42.5	18.3	0.00e+00	0	42	0	538968064	52	4567
2026-01-11 23:54:37.94	62.55	13.31	-40.6	-42.6	18.2	0.00e+00	0	42	0	545259520	52	4615
2026-01-11 23:54:38.94	62.74	13.35	-40.6	-42.7	18.1	0.00e+00	0	42	0	550502400	52	4653
2026-01-11 23:54:39.93	62.93	13.38	-40.7	-42.7	18.1	0.00e+00	0	42	0	555745280	52	4682
2026-01-11 23:54:40.92	63.12	13.42	-40.7	-42.8	18.0	0.00e+00	0	42	0	562036736	52	4728
2026-01-11 23:54:41.95	63.31	13.45	-40.6	-42.6	18.1	0.00e+00	0	42	0	567279616	52	4648
2026-01-11 23:54:42.98	63.51	13.48	-40.6	-42.6	18.1	0.00e+00	0	42	0	573571072	52	4651
2026-01-11 23:54:43.97	63.70	13.52	-40.7	-42.7	18.1	0.00e+00	0	42	0	578813952	52	4679
2026-01-11 23:54:44.97	63.89	13.55	-40.7	-42.7	18.1	0.00e+00	0	42	0	584056832	52	4685
2026-01-11 23:54:45.96	64.08	13.58	-40.6	-42.7	18.1	0.00e+00	0	42	0	590348288	52	4662
2026-01-11 23:54:46.96	64.27	13.61	-40.6	-42.6	18.2	0.00e+00	0	42	0	595591168	52	4629
2026-01-11 23:54:47.95	64.46	13.64	-40.6	-42.6	18.2	0.00e+00	0	42	0	600834048	52	4635
2026-01-11 23:54:48.95	64.65	13.68	-40.6	-42.6	18.1	0.00e+00	0	42	0	607125504	52	4640
2026-01-11 23:54:49.94	64.85	13.71	-40.5	-42.6	18.2	0.00e+00	0	42	0	612368384	52	4602
2026-01-11 23:54:50.94	65.04	13.74	-40.5	-42.5	18.3	0.00e+00	0	42	0	617611264	52	4570
2026-01-11 23:54:51.93	65.23	13.77	-40.5	-42.5	18.3	0.00e+00	0	42	0	623902720	52	4562
2026-01-11 23:54:52.93	65.42	13.80	-40.5	-42.5	18.3	0.00e+00	0	42	0	629145600	52	4566
2026-01-11 23:54:53.92	65.62	13.83	-40.5	-42.5	18.3	0.00e+00	0	42	0	634388480	52	4557
2026-01-11 23:54:54.92	65.81	13.86	-40.5	-42.5	18.3	0.00e+00	0	42	0	640679936	52	4569
2026-01-11 23:54:55.92	66.01	13.89	-40.6	-42.6	18.2	0.00e+00	0	42	0	645922816	52	4646
2026-01-11 23:54:56.91	66.20	13.92	-40.5	-42.5	18.3	0.00e+00	0	42	0	652214272	52	4598
2026-01-11 23:54:57.91	66.40	13.95	-40.5	-42.5	18.3	0.00e+00	0	42	0	657457152	52	4559
2026-01-11 23:54:58.90	66.59	13.98	-40.4	-42.3	18.4	0.00e+00	0	42	0	662700032	52	4485
2026-01-11 23:54:59.96	66.80	14.01	-40.2	-42.2	18.6	0.00e+00	0	42	0	668991488	52	4425
2026-01-11 23:55:00.86	66.98	14.03	-40.2	-42.1	18.6	0.00e+00	0	42	0	673185792	52	4374
2026-01-11 23:55:01.96	67.20	14.06	-40.2	-42.2	18.6	0.00e+00	0	42	0	679477248	52	4399
2026-01-11 23:55:02.81	67.37	14.09	-40.2	-42.1	18.7	0.00e+00	0	42	0	684720128	52	4379
2026-01-11 23:55:03.95	67.59	14.12	-40.2	-42.2	18.6	0.00e+00	0	42	0	691011584	52	4397
2026-01-11 23:55:04.80	67.76	14.14	-40.3	-42.2	18.6	0.00e+00	0	42	0	696254464	52	4440
2026-01-11 23:55:05.94	67.99	14.17	-40.3	-42.3	18.5	0.00e+00	0	42	0	702545920	52	4463
2026-01-11 23:55:06.80	68.16	14.20	-40.3	-42.3	18.5	0.00e+00	0	42	0	706740224	52	4480
2026-01-11 23:55:07.93	68.39	14.23	-40.3	-42.3	18.5	0.00e+00	0	42	0	714080256	52	4458
2026-01-11 23:55:08.79	68.56	14.25	-40.3	-42.3	18.5	0.00e+00	0	42	0	718274560	52	4442
2026-01-11 23:55:09.92	68.78	14.28	-40.3	-42.3	18.5	0.00e+00	0	42	0	724566016	52	4474
2026-01-11 23:55:10.78	68.96	14.30	-40.3	-42.3	18.5	0.00e+00	0	42	0	729808896	52	4459
2026-01-11 23:55:11.92	69.19	14.33	-40.4	-42.4	18.4	0.00e+00	0	42	0	736100352	52	4500
2026-01-11 23:55:12.77	69.36	14.35	-40.4	-42.4	18.4	0.00e+00	0	42	0	741343232	52	4501
2026-01-11 23:55:14.00	69.61	14.38	-40.2	-42.2	18.6	0.00e+00	0	42	0	747634688	52	4404
2026-01-11 23:55:14.86	69.78	14.40	-40.2	-42.2	18.5	0.00e+00	0	42	0	752877568	52	4419
2026-01-11 23:55:16.07	70.03	14.43	-40.2	-42.1	18.6	0.00e+00	0	42	0	759169024	52	4390
2026-01-11 23:55:16.92	70.20	14.45	-40.3	-42.3	18.5	0.00e+00	0	42	0	764411904	52	4442
2026-01-11 23:55:18.06	70.43	14.48	-40.2	-42.2	18.5	0.00e+00	0	42	0	770703360	52	4426
2026-01-11 23:55:18.91	70.60	14.50	-40.2	-42.3	18.5	0.00e+00	0	42	0	774897664	52	4447
2026-01-11 23:55:20.05	70.84	14.52	-40.4	-42.4	18.4	0.00e+00	0	42	0	781189120	52	4506
2026-01-11 23:55:20.90	71.01	14.54	-40.4	-42.4	18.4	0.00e+00	0	42	0	786432000	52	4533
2026-01-11 23:55:22.04	71.24	14.57	-40.5	-42.5	18.3	0.00e+00	0	42	0	792723456	52	4577
2026-01-11 23:55:22.89	71.42	14.59	-40.5	-42.6	18.2	0.00e+00	0	42	0	797966336	52	4620
2026-01-11 23:55:24.03	71.65	14.61	-40.6	-42.6	18.2	0.00e+00	0	42	0	804257792	52	4636
2026-01-11 23:55:24.88	71.83	14.63	-40.5	-42.6	18.2	0.00e+00	0	42	0	809500672	52	4614
2026-01-11 23:55:26.02	72.06	14.65	-40.7	-42.7	18.1	0.00e+00	0	42	0	815792128	52	4683
2026-01-11 23:55:26.87	72.24	14.67	-40.4	-42.4	18.4	0.00e+00	0	42	0	819986432	52	4534
2026-01-11 23:55:28.01	72.47	14.69	-40.3	-42.3	18.5	0.00e+00	0	42	0	826277888	52	4453
2026-01-11 23:55:28.86	72.65	14.71	-40.1	-42.1	18.6	0.00e+00	0	43	0	831520768	52	4370
2026-01-11 23:55:30.00	72.88	14.73	-40.1	-42.1	18.7	0.00e+00	0	42	0	837812224	52	4365
2026-01-11 23:55:30.85	73.06	14.75	-40.1	-42.1	18.7	0.00e+00	0	42	0	842006528	52	4355
2026-01-11 23:55:31.99	73.29	14.77	-40.2	-42.2	18.6	0.00e+00	0	42	0	849346560	52	4398
2026-01-11 23:55:32.84	73.47	14.79	-40.2	-42.2	18.6	0.00e+00	0	42	0	853540864	52	4429
2026-01-11 23:55:34.02	73.72	14.81	-40.3	-42.3	18.5	0.00e+00	0	42	0	860880896	52	4461
2026-01-11 23:55:34.88	73.90	14.82	-40.3	-42.3	18.5	0.00e+00	0	42	0	865075200	52	4489
2026-01-11 23:55:36.01	74.13	14.84	-40.3	-42.3	18.4	0.00e+00	0	43	0	871366656	52	4467
2026-01-11 23:55:36.87	74.31	14.86	-40.3	-42.3	18.5	0.00e+00	0	42	0	876609536	52	4465
2026-01-11 23:55:38.11	74.57	14.88	-40.2	-42.2	18.6	0.00e+00	0	42	0	883949568	52	4407
2026-01-11 23:55:38.97	74.75	14.89	-40.1	-42.0	18.7	0.00e+00	0	42	0	888143872	52	4339
2026-01-11 23:55:40.10	74.99	14.91	-40.1	-42.0	18.7	0.00e+00	0	42	0	894435328	52	4337
2026-01-11 23:55:40.96	75.17	14.93	-40.2	-42.2	18.6	0.00e+00	0	42	0	899678208	52	4401
2026-01-11 23:55:42.10	75.41	14.94	-40.1	-42.1	18.7	0.00e+00	0	42	0	905969664	52	4353
2026-01-11 23:55:42.95	75.58	14.96	-40.1	-42.1	18.7	0.00e+00	0	42	0	910163968	52	4347
2026-01-11 23:55:44.09	75.82	14.97	-40.0	-42.0	18.7	0.00e+00	0	42	0	916455424	52	4314
2026-01-11 23:55:45.02	76.02	14.99	-40.0	-42.0	18.8	0.00e+00	0	42	0	922746880	52	4302
2026-01-11 23:55:46.02	76.23	15.00	-40.0	-41.9	18.9	0.00e+00	0	42	0	927989760	51	4543
2026-01-11 23:55:47.01	76.44	15.01	-40.0	-41.9	18.9	0.00e+00	0	42	0	933232640	51	4529
2026-01-11 23:55:48.01	76.65	15.03	-40.0	-41.9	18.9	0.00e+00	0	42	0	938475520	51	4531
2026-01-11 23:55:49.00	76.86	15.04	-40.0	-42.0	18.9	0.00e+00	0	42	0	944766976	51	4553
2026-01-11 23:55:50.00	77.07	15.05	-40.1	-42.1	18.7	0.00e+00	0	42	0	950009856	51	4624
2026-01-11 23:55:51.00	77.28	15.07	-40.2	-42.2	18.7	0.00e+00	0	42	0	956301312	51	4658
2026-01-11 23:55:51.99	77.49	15.08	-40.2	-42.1	18.7	0.00e+00	0	42	0	961544192	51	4650
2026-01-11 23:55:52.98	77.70	15.09	-40.2	-42.1	18.7	0.00e+00	0	42	0	966787072	51	4637
2026-01-11 23:55:53.98	77.91	15.10	-40.2	-42.2	18.7	0.00e+00	0	42	0	973078528	51	4670
2026-01-11 23:55:54.97	78.12	15.11	-40.2	-42.2	18.7	0.00e+00	0	42	0	978321408	51	4680
2026-01-11 23:55:55.97	78.34	15.12	-40.2	-42.2	18.7	0.00e+00	0	42	0	983564288	51	4676
2026-01-11 23:55:56.96	78.55	15.13	-40.2	-42.2	18.6	0.00e+00	0	42	0	988807168	51	4686
2026-01-11 23:55:57.96	78.76	15.14	-40.2	-42.2	18.7	0.00e+00	0	42	0	995098624	51	4690
2026-01-11 23:55:58.95	78.97	15.15	-40.3	-42.3	18.6	0.00e+00	0	42	0	1000341504	51	4712
2026-01-11 23:55:59.94	79.18	15.16	-40.4	-42.4	18.5	0.00e+00	0	42	0	1006632960	51	4776
2026-01-11 23:56:00.94	79.39	15.17	-40.3	-42.3	18.6	0.00e+00	0	42	0	1011875840	51	4711
2026-01-11 23:56:01.93	79.61	15.18	-40.3	-42.4	18.5	0.00e+00	0	42	0	1017118720	51	4761
2026-01-11 23:56:02.93	79.82	15.19	-40.4	-42.3	18.5	0.00e+00	0	42	0	1023410176	51	4753
2026-01-11 23:56:03.92	80.03	15.19	-40.3	-42.3	18.6	0.00e+00	0	42	0	1028653056	51	4720
2026-01-11 23:56:04.92	80.24	15.20	-40.2	-42.2	18.6	0.00e+00	0	42	0	1033895936	51	4677
2026-01-11 23:56:05.92	80.46	15.21	-40.2	-42.2	18.6	0.00e+00	0	42	0	1040187392	51	4702
2026-01-11 23:56:06.91	80.67	15.21	-40.2	-42.2	18.6	0.00e+00	0	43	0	1045430272	51	4695
2026-01-11 23:56:07.91	80.88	15.22	-40.2	-42.2	18.7	0.00e+00	0	42	0	1050673152	51	4685
2026-01-11 23:56:08.90	81.09	15.23	-40.2	-42.2	18.7	0.00e+00	0	42	0	1056964608	51	4682
2026-01-11 23:56:09.90	81.31	15.23	-40.3	-42.3	18.6	0.00e+00	0	42	0	1062207488	51	4713
2026-01-11 23:56:10.91	81.52	15.24	-40.1	-42.1	18.8	0.00e+00	0	43	0	1067450368	51	4636
2026-01-11 23:56:11.90	81.74	15.24	-40.1	-42.1	18.7	0.00e+00	0	42	0	1073741824	51	4638
2026-01-11 23:56:12.90	81.95	15.24	-40.1	-42.1	18.8	0.00e+00	0	42	0	1078984704	51	4618
2026-01-11 23:56:13.90	82.17	15.25	-40.1	-42.1	18.7	0.00e+00	0	42	0	1084227584	51	4643
2026-01-11 23:56:14.89	82.38	15.25	-40.1	-42.1	18.7	0.00e+00	0	42	0	1090519040	51	4648
2026-01-11 23:56:15.88	82.59	15.26	-40.2	-42.2	18.7	0.00e+00	0	43	0	1095761920	51	4662
2026-01-11 23:56:16.88	82.80	15.26	-40.2	-42.2	18.6	0.00e+00	0	42	0	1101004800	51	4702
2026-01-11 23:56:17.88	83.02	15.26	-40.2	-42.2	18.7	0.00e+00	0	43	0	1107296256	51	4656
2026-01-11 23:56:18.87	83.23	15.26	-40.3	-42.3	18.6	0.00e+00	0	42	0	1112539136	51	4725
2026-01-11 23:56:19.86	83.44	15.26	-40.3	-42.3	18.5	0.00e+00	0	42	0	1118830592	51	4742
2026-01-11 23:56:20.86	83.66	15.27	-40.3	-42.3	18.6	0.00e+00	0	42	0	1124073472	51	4744
2026-01-11 23:56:21.85	83.87	15.27	-40.3	-42.3	18.5	0.00e+00	0	42	0	1129316352	51	4753
2026-01-11 23:56:22.85	84.09	15.27	-40.3	-42.4	18.5	0.00e+00	0	42	0	1134559232	51	4774
2026-01-11 23:56:23.84	84.30	15.27	-40.2	-42.3	18.5	0.00e+00	0	42	0	1140850688	51	4722
2026-01-11 23:56:24.83	84.51	15.27	-40.2	-42.3	18.6	0.00e+00	0	42	0	1146093568	51	4733
2026-01-11 23:56:25.87	84.73	15.27	-40.3	-42.4	18.5	0.00e+00	0	43	0	1152385024	51	4768
2026-01-11 23:56:26.83	84.94	15.27	-40.3	-42.4	18.5	0.00e+00	0	42	0	1157627904	51	4764
2026-01-11 23:56:27.83	85.15	15.26	-40.3	-42.4	18.5	0.00e+00	0	42	0	1162870784	51	4762
2026-01-11 23:56:28.93	85.39	15.26	-40.3	-42.4	18.5	0.00e+00	0	42	0	1169162240	51	4773
2026-01-11 23:56:29.82	85.58	15.26	-40.4	-42.4	18.5	0.00e+00	0	42	0	1174405120	51	4801
2026-01-11 23:56:30.96	85.83	15.26	-40.4	-42.4	18.5	0.00e+00	0	42	0	1180696576	51	4782
2026-01-11 23:56:31.81	86.01	15.26	-40.4	-42.5	18.4	0.00e+00	0	42	0	1184890880	51	4816
2026-01-11 23:56:32.95	86.25	15.25	-40.2	-42.2	18.7	0.00e+00	0	42	0	1192230912	51	4675
2026-01-11 23:56:33.80	86.44	15.25	-40.1	-42.1	18.8	0.00e+00	0	42	0	1196425216	51	4616
2026-01-11 23:56:34.94	86.68	15.24	-40.1	-42.1	18.8	0.00e+00	0	42	0	1202716672	51	4612
2026-01-11 23:56:35.79	86.86	15.24	-40.3	-42.3	18.5	0.00e+00	0	42	0	1207959552	51	4739
2026-01-11 23:56:36.93	87.11	15.24	-40.2	-42.2	18.6	0.00e+00	0	42	0	1214251008	51	4703
2026-01-11 23:56:37.78	87.29	15.23	-40.3	-42.3	18.6	0.00e+00	0	42	0	1219493888	51	4718
2026-01-11 23:56:38.91	87.53	15.23	-40.2	-42.2	18.6	0.00e+00	0	42	0	1224736768	51	4662
2026-01-11 23:56:39.76	87.71	15.22	-40.2	-42.2	18.6	0.00e+00	0	42	0	1229979648	51	4700
2026-01-11 23:56:40.90	87.96	15.21	-40.3	-42.3	18.5	0.00e+00	0	42	0	1236271104	51	4759
2026-01-11 23:56:41.75	88.14	15.21	-40.4	-42.4	18.4	0.00e+00	0	42	0	1241513984	51	4801
2026-01-11 23:56:42.89	88.38	15.20	-40.4	-42.4	18.5	0.00e+00	0	42	0	1247805440	51	4786
2026-01-11 23:56:43.75	88.57	15.19	-40.4	-42.4	18.4	0.00e+00	0	42	0	1251999744	51	4812
2026-01-11 23:56:44.99	88.83	15.18	-40.3	-42.3	18.5	0.00e+00	0	42	0	1259339776	51	4735
2026-01-11 23:56:45.84	89.01	15.18	-40.2	-42.2	18.6	0.00e+00	0	42	0	1264582656	51	4705
2026-01-11 23:56:47.05	89.27	15.17	-40.3	-42.3	18.5	0.00e+00	0	42	0	1270874112	51	4740
2026-01-11 23:56:47.90	89.45	15.16	-40.3	-42.4	18.5	0.00e+00	0	42	0	1276116992	51	4771
2026-01-11 23:56:49.10	89.71	15.15	-40.3	-42.3	18.5	0.00e+00	0	43	0	1282408448	51	4749
2026-01-11 23:56:50.36	89.98	15.14	-40.4	-42.4	18.5	0.00e+00	0	42	0	1289748480	51	4761
2026-01-11 23:56:51.17	90.15	15.13	-40.2	-42.2	18.6	0.00e+00	0	42	0	1293942784	51	4700
2026-01-11 23:56:52.30	90.39	15.12	-40.3	-42.3	18.6	0.00e+00	0	42	0	1300234240	51	4708
2026-01-11 23:56:53.15	90.57	15.11	-40.2	-42.2	18.6	0.00e+00	0	42	0	1305477120	51	4680
2026-01-11 23:56:54.29	90.81	15.09	-40.3	-42.3	18.6	0.00e+00	0	42	0	1311768576	51	4728
2026-01-11 23:56:55.14	90.99	15.08	-40.3	-42.3	18.6	0.00e+00	0	43	0	1317011456	51	4727
2026-01-11 23:56:56.28	91.23	15.07	-40.3	-42.3	18.5	0.00e+00	0	42	0	1323302912	51	4736
2026-01-11 23:56:57.14	91.42	15.06	-40.4	-42.4	18.5	0.00e+00	0	43	0	1327497216	51	4766
2026-01-11 23:56:58.27	91.66	15.05	-40.4	-42.4	18.4	0.00e+00	0	42	0	1334837248	51	4792
2026-01-11 23:56:59.12	91.84	15.04	-40.4	-42.4	18.5	0.00e+00	0	42	0	1339031552	51	4778
2026-01-11 23:57:00.26	92.08	15.02	-40.4	-42.4	18.4	0.00e+00	0	43	0	1345323008	51	4801
2026-01-11 23:57:01.11	92.26	15.01	-40.4	-42.4	18.5	0.00e+00	0	43	0	1350565888	51	4780
2026-01-11 23:57:02.25	92.50	14.99	-40.4	-42.4	18.5	0.00e+00	0	43	0	1356857344	51	4779
2026-01-11 23:57:03.10	92.68	14.98	-40.4	-42.4	18.4	0.00e+00	0	43	0	1361051648	51	4800
2026-01-11 23:57:04.24	92.92	14.96	-40.6	-42.6	18.3	0.00e+00	0	43	0	1367343104	51	4891
2026-01-11 23:57:05.09	93.10	14.95	-40.4	-42.4	18.4	0.00e+00	0	42	0	1372585984	51	4795
2026-01-11 23:57:06.23	93.34	14.93	-40.3	-42.3	18.5	0.00e+00	0	42	0	1378877440	51	4750
2026-01-11 23:57:07.08	93.51	14.92	-40.4	-42.4	18.4	0.00e+00	0	43	0	1384120320	51	4802
2026-01-11 23:57:08.22	93.75	14.90	-40.4	-42.5	18.4	0.00e+00	0	42	0	1390411776	51	4819
2026-01-11 23:57:09.07	93.93	14.89	-40.4	-42.4	18.5	0.00e+00	0	42	0	1394606080	51	4779
2026-01-11 23:57:10.21	94.17	14.87	-40.4	-42.4	18.4	0.00e+00	0	42	0	1400897536	51	4794
2026-01-11 23:57:11.06	94.35	14.85	-40.4	-42.5	18.4	0.00e+00	0	43	0	1406140416	51	4823
2026-01-11 23:57:12.20	94.59	14.83	-40.4	-42.4	18.5	0.00e+00	0	43	0	1412431872	51	4785
2026-01-11 23:57:13.05	94.77	14.82	-40.4	-42.4	18.4	0.00e+00	0	43	0	1417674752	51	4800
2026-01-11 23:57:14.29	95.02	14.80	-40.5	-42.5	18.4	0.00e+00	0	42	0	1423966208	51	4823
2026-01-11 23:57:15.14	95.20	14.78	-40.5	-42.5	18.4	0.00e+00	0	43	0	1429209088	51	4847
2026-01-11 23:57:16.28	95.44	14.76	-40.6	-42.7	18.2	0.00e+00	0	42	0	1435500544	51	4928
2026-01-11 23:57:17.13	95.61	14.74	-40.7	-42.7	18.1	0.00e+00	0	43	0	1440743424	52	4680
2026-01-11 23:57:18.39	95.88	14.72	-40.6	-42.6	18.2	0.00e+00	0	42	0	1447034880	52	4643
2026-01-11 23:57:19.18	96.04	14.70	-40.6	-42.7	18.2	0.00e+00	0	43	0	1452277760	52	4655
2026-01-11 23:57:20.38	96.29	14.68	-40.6	-42.6	18.2	0.00e+00	0	42	0	1458569216	52	4632
2026-01-11 23:57:21.23	96.46	14.66	-40.6	-42.7	18.1	0.00e+00	0	42	0	1463812096	52	4656
2026-01-11 23:57:22.50	96.73	14.64	-40.7	-42.7	18.1	0.00e+00	0	43	0	1470103552	52	4705
2026-01-11 23:57:23.30	96.89	14.62	-40.7	-42.8	18.1	0.00e+00	0	42	0	1475346432	52	4719
2026-01-11 23:57:24.44	97.13	14.59	-40.7	-42.7	18.1	0.00e+00	0	42	0	1481637888	52	4685
2026-01-11 23:57:25.29	97.30	14.58	-40.7	-42.7	18.1	0.00e+00	0	43	0	1485832192	52	4695
2026-01-11 23:57:26.60	97.57	14.55	-40.6	-42.7	18.1	0.00e+00	0	42	0	1493172224	52	4653
2026-01-11 23:57:27.31	97.71	14.53	-40.6	-42.6	18.2	0.00e+00	0	42	0	1497366528	52	4639
2026-01-11 23:57:28.59	97.98	14.50	-40.6	-42.6	18.2	0.00e+00	0	43	0	1504706560	52	4637
2026-01-11 23:57:29.32	98.13	14.48	-40.5	-42.6	18.2	0.00e+00	0	43	0	1508900864	52	4604
2026-01-11 23:57:30.59	98.38	14.45	-40.5	-42.5	18.3	0.00e+00	0	42	0	1516240896	52	4570
2026-01-11 23:57:31.32	98.53	14.44	-40.5	-42.5	18.3	0.00e+00	0	43	0	1520435200	52	4593
2026-01-11 23:57:32.60	98.79	14.41	-40.6	-42.6	18.2	0.00e+00	0	42	0	1527775232	52	4612
2026-01-11 23:57:33.32	98.94	14.39	-40.6	-42.6	18.1	0.00e+00	0	42	0	1531969536	52	4650
2026-01-11 23:57:34.60	99.20	14.36	-40.6	-42.6	18.2	0.00e+00	0	43	0	1538260992	52	4626
2026-01-11 23:57:35.34	99.35	14.34	-40.5	-42.6	18.2	0.00e+00	0	42	0	1542455296	52	4603
2026-01-11 23:57:36.62	99.61	14.31	-40.6	-42.6	18.2	0.00e+00	0	42	0	1549795328	52	4619
2026-01-11 23:57:37.35	99.76	14.29	-40.6	-42.6	18.2	0.00e+00	0	42	0	1553989632	52	4632
2026-01-11 23:57:38.62	100.01	14.25	-40.5	-42.5	18.3	0.00e+00	0	43	0	1561329664	52	4548
2026-01-11 23:57:39.35	100.16	14.24	-40.5	-42.5	18.3	0.00e+00	0	42	0	1565523968	52	4553
2026-01-11 23:57:40.64	100.42	14.20	-40.6	-42.7	18.1	0.00e+00	0	42	0	1572864000	52	4652
2026-01-11 23:57:41.36	100.56	14.18	-40.6	-42.7	18.1	0.00e+00	0	42	0	1576009728	52	4664
2026-01-11 23:57:42.63	100.82	14.15	-40.7	-42.7	18.1	0.00e+00	0	42	0	1583349760	52	4676
2026-01-11 23:57:43.34	100.96	14.13	-40.7	-42.7	18.1	0.00e+00	0	42	0	1587544064	52	4699
2026-01-11 23:57:44.75	101.24	14.09	-40.6	-42.7	18.1	0.00e+00	0	42	0	1595932672	52	4653
2026-01-11 23:57:45.46	101.38	14.07	-40.8	-42.8	18.0	0.00e+00	0	43	0	1599078400	52	4733
2026-01-11 23:57:46.74	101.63	14.03	-40.7	-42.7	18.0	0.00e+00	0	42	0	1606418432	52	4698
2026-01-11 23:57:47.45	101.77	14.01	-40.7	-42.7	18.1	0.00e+00	0	43	0	1610612736	52	4694
2026-01-11 23:57:48.73	102.03	13.98	-40.7	-42.8	18.1	0.00e+00	0	42	0	1617952768	52	4709
2026-01-11 23:57:49.45	102.17	13.95	-40.7	-42.7	18.1	0.00e+00	0	43	0	1622147072	52	4685
2026-01-11 23:57:50.73	102.42	13.92	-40.7	-42.7	18.1	0.00e+00	0	42	0	1629487104	52	4685
2026-01-11 23:57:51.44	102.56	13.90	-40.6	-42.7	18.1	0.00e+00	0	42	0	1633681408	52	4661
2026-01-11 23:57:52.72	102.81	13.86	-40.6	-42.7	18.1	0.00e+00	0	43	0	1641021440	52	4655
2026-01-11 23:57:53.51	102.97	13.83	-40.6	-42.7	18.1	0.00e+00	0	42	0	1645215744	52	4657
2026-01-11 23:57:54.68	103.20	13.80	-40.7	-42.7	18.1	0.00e+00	0	43	0	1651507200	52	4684
2026-01-11 23:57:55.69	103.39	13.77	-40.7	-42.8	18.0	0.00e+00	0	42	0	1656750080	52	4710
2026-01-11 23:57:56.85	103.62	13.73	-40.8	-42.8	17.9	0.00e+00	0	42	0	1664090112	52	4754
2026-01-11 23:57:57.74	103.79	13.70	-40.8	-42.9	17.9	0.00e+00	0	42	0	1668284416	52	4766
2026-01-11 23:57:59.05	104.05	13.66	-40.9	-42.9	17.9	0.00e+00	0	42	0	1675624448	52	4804
2026-01-11 23:57:59.75	104.18	13.64	-40.8	-42.9	17.9	0.00e+00	0	42	0	1679818752	52	4804
2026-01-11 23:58:01.27	104.47	13.59	-40.7	-42.8	18.0	0.00e+00	0	43	0	1688207360	52	4728
2026-01-11 23:58:01.98	104.61	13.57	-40.8	-42.8	18.0	0.00e+00	0	42	0	1692401664	52	4753
2026-01-11 23:58:03.26	104.86	13.52	-40.7	-42.7	18.0	0.00e+00	0	43	0	1699741696	52	4705
2026-01-11 23:58:03.97	104.99	13.50	-40.7	-42.8	18.0	0.00e+00	0	42	0	1703936000	52	4727
2026-01-11 23:58:05.25	105.24	13.46	-40.8	-42.9	17.9	0.00e+00	0	42	0	1711276032	52	4789
2026-01-11 23:58:05.97	105.38	13.43	-40.9	-43.0	17.8	0.00e+00	0	42	0	1715470336	52	4842
2026-01-11 23:58:07.25	105.62	13.39	-40.9	-43.0	17.8	0.00e+00	0	43	0	1721761792	52	4868
2026-01-11 23:58:07.96	105.75	13.37	-40.9	-43.0	17.8	0.00e+00	0	42	0	1725956096	52	4857
2026-01-11 23:58:09.24	106.00	13.32	-40.9	-43.0	17.8	0.00e+00	0	43	0	1733296128	52	4858
2026-01-11 23:58:10.00	106.14	13.30	-41.0	-43.1	17.7	0.00e+00	0	42	0	1737490432	52	4877
2026-01-11 23:58:11.28	106.38	13.25	-41.0	-43.1	17.7	0.00e+00	0	43	0	1744830464	52	4912
2026-01-11 23:58:12.07	106.53	13.23	-41.1	-43.2	17.6	0.00e+00	0	43	0	1749024768	52	4935
2026-01-11 23:58:13.55	106.81	13.17	-41.0	-43.1	17.7	0.00e+00	0	42	0	1757413376	52	4925
2026-01-11 23:58:14.26	106.94	13.15	-41.1	-43.2	17.6	0.00e+00	0	42	0	1761607680	52	4939
2026-01-11 23:58:15.73	107.22	13.10	-40.9	-43.0	17.8	0.00e+00	0	43	0	1769996288	52	4858
2026-01-11 23:58:16.44	107.35	13.07	-40.9	-43.0	17.8	0.00e+00	0	42	0	1774190592	52	4861
2026-01-11 23:58:17.75	107.59	13.02	-40.9	-43.0	17.8	0.00e+00	0	43	0	1781530624	52	4824
2026-01-11 23:58:18.46	107.73	13.00	-40.9	-43.0	17.8	0.00e+00	0	43	0	1785724928	52	4816
2026-01-11 23:58:19.74	107.96	12.95	-40.9	-42.9	17.9	0.00e+00	0	43	0	1792016384	52	4788
2026-01-11 23:58:20.48	108.10	12.92	-40.9	-42.9	17.8	0.00e+00	0	43	0	1796210688	52	4812
2026-01-11 23:58:21.76	108.33	12.88	-40.8	-42.9	17.9	0.00e+00	0	43	0	1803550720	52	4782
2026-01-11 23:58:22.49	108.47	12.85	-40.9	-42.9	17.8	0.00e+00	0	43	0	1807745024	52	4806
2026-01-11 23:58:23.76	108.70	12.80	-41.0	-43.1	17.7	0.00e+00	0	43	0	1815085056	52	4875
2026-01-11 23:58:24.49	108.83	12.77	-41.0	-43.1	17.7	0.00e+00	0	43	0	1819279360	52	4905
2026-01-11 23:58:25.77	109.07	12.72	-41.1	-43.1	17.6	0.00e+00	0	43	0	1826619392	52	4920
2026-01-11 23:58:26.49	109.20	12.70	-41.1	-43.3	17.5	0.00e+00	0	43	0	1830813696	52	4985
2026-01-11 23:58:27.77	109.43	12.65	-41.2	-43.3	17.5	0.00e+00	0	43	0	1838153728	53	4744
2026-01-11 23:58:28.48	109.56	12.62	-41.2	-43.3	17.5	0.00e+00	0	43	0	1841299456	53	4748
2026-01-11 23:58:29.76	109.79	12.57	-41.0	-43.1	17.7	0.00e+00	0	42	0	1848639488	53	4650
2026-01-11 23:58:30.47	109.92	12.54	-41.1	-43.2	17.6	0.00e+00	0	43	0	1852833792	53	4656
2026-01-11 23:58:31.75	110.15	12.49	-41.0	-43.1	17.7	0.00e+00	0	43	0	1860173824	53	4622
2026-01-11 23:58:32.49	110.28	12.46	-41.1	-43.2	17.6	0.00e+00	0	43	0	1864368128	53	4659
2026-01-11 23:58:33.77	110.51	12.41	-41.0	-43.1	17.6	0.00e+00	0	43	0	1871708160	53	4648
2026-01-11 23:58:34.72	110.68	12.38	-41.0	-43.1	17.7	0.00e+00	0	43	0	1876951040	53	4630
2026-01-11 23:58:35.71	110.86	12.34	-41.1	-43.2	17.6	0.00e+00	0	42	0	1882193920	53	4660
2026-01-11 23:58:36.71	111.03	12.30	-41.2	-43.3	17.5	0.00e+00	0	42	0	1887436800	53	4739
2026-01-11 23:58:37.70	111.21	12.26	-41.2	-43.3	17.5	0.00e+00	0	43	0	1893728256	53	4730
2026-01-11 23:58:38.70	111.38	12.22	-41.1	-43.3	17.5	0.00e+00	0	43	0	1898971136	53	4710
2026-01-11 23:58:39.70	111.56	12.18	-41.2	-43.4	17.4	0.00e+00	0	43	0	1904214016	53	4761
2026-01-11 23:58:40.69	111.73	12.14	-41.2	-43.3	17.5	0.00e+00	0	42	0	1910505472	53	4741
2026-01-11 23:58:41.69	111.91	12.10	-41.2	-43.4	17.4	0.00e+00	0	43	0	1915748352	53	4779
2026-01-11 23:58:42.68	112.08	12.05	-41.3	-43.5	17.3	0.00e+00	0	43	0	1922039808	53	4822
2026-01-11 23:58:43.75	112.27	12.01	-41.4	-43.6	17.2	0.00e+00	0	43	0	1927282688	53	4891
2026-01-11 23:58:44.64	112.42	11.97	-41.4	-43.5	17.3	0.00e+00	0	43	0	1932525568	53	4856
2026-01-11 23:58:45.77	112.62	11.93	-41.3	-43.5	17.3	0.00e+00	0	43	0	1938817024	53	4826
2026-01-11 23:58:46.62	112.76	11.89	-41.4	-43.6	17.2	0.00e+00	0	43	0	1944059904	53	4882
2026-01-11 23:58:48.00	113.00	11.83	-41.4	-43.5	17.3	0.00e+00	0	43	0	1951399936	53	4860
2026-01-11 23:58:48.71	113.12	11.80	-41.4	-43.5	17.2	0.00e+00	0	43	0	1955594240	53	4857
2026-01-11 23:58:49.99	113.34	11.75	-41.3	-43.5	17.3	0.00e+00	0	43	0	1962934272	53	4843
2026-01-11 23:58:50.71	113.46	11.72	-41.4	-43.5	17.3	0.00e+00	0	43	0	1967128576	53	4849
2026-01-11 23:58:51.99	113.68	11.66	-41.5	-43.6	17.1	0.00e+00	0	43	0	1973420032	53	4915
2026-01-11 23:58:52.70	113.80	11.63	-41.5	-43.6	17.1	0.00e+00	0	42	0	1977614336	53	4908
2026-01-11 23:58:53.98	114.02	11.58	-41.5	-43.6	17.1	0.00e+00	0	43	0	1984954368	53	4908
2026-01-11 23:58:54.71	114.14	11.55	-41.5	-43.6	17.1	0.00e+00	0	43	0	1989148672	53	4912
2026-01-11 23:58:55.99	114.36	11.49	-41.5	-43.6	17.1	0.00e+00	0	43	0	1996488704	53	4908
2026-01-11 23:58:56.73	114.48	11.46	-41.6	-43.7	17.1	0.00e+00	0	43	0	2000683008	53	4969
2026-01-11 23:58:58.01	114.70	11.40	-41.6	-43.7	17.1	0.00e+00	0	42	0	2008023040	53	4973
2026-01-11 23:58:58.72	114.81	11.37	-41.6	-43.7	17.0	0.00e+00	0	43	0	2012217344	53	4970
2026-01-11 23:59:00.06	115.04	11.32	-41.6	-43.7	17.1	0.00e+00	0	43	0	2019557376	53	4970
2026-01-11 23:59:00.77	115.15	11.28	-41.5	-43.7	17.1	0.00e+00	0	43	0	2023751680	53	4959
2026-01-11 23:59:02.10	115.37	11.23	-41.6	-43.8	17.0	0.00e+00	0	43	0	2031091712	53	4993
2026-01-11 23:59:03.04	115.53	11.18	-41.6	-43.8	17.0	0.00e+00	0	43	0	2036334592	53	5007
2026-01-11 23:59:04.04	115.69	11.14	-41.7	-43.8	16.9	0.00e+00	0	43	0	2041577472	53	5034
2026-01-11 23:59:05.03	115.86	11.10	-41.6	-43.8	17.0	0.00e+00	0	43	0	2046820352	54	4731
2026-01-11 23:59:06.03	116.02	11.05	-41.6	-43.8	16.9	0.00e+00	0	43	0	2053111808	54	4757
2026-01-11 23:59:07.02	116.18	11.01	-41.7	-43.8	16.9	0.00e+00	0	43	0	2058354688	54	4750
2026-01-11 23:59:08.01	116.34	10.96	-41.6	-43.8	17.0	0.00e+00	0	43	0	2064646144	54	4740
2026-01-11 23:59:09.01	116.50	10.92	-41.7	-43.9	16.9	0.00e+00	0	43	0	2069889024	54	4763
2026-01-11 23:59:10.00	116.66	10.87	-41.6	-43.8	17.0	0.00e+00	0	43	0	2075131904	54	4728
2026-01-11 23:59:11.00	116.82	10.83	-41.6	-43.8	16.9	0.00e+00	0	42	0	2080374784	54	4729
2026-01-11 23:59:12.00	116.98	10.78	-41.6	-43.8	17.0	0.00e+00	0	43	0	2086666240	54	4720
2026-01-11 23:59:12.99	117.14	10.74	-41.7	-43.9	16.9	0.00e+00	0	43	0	2091909120	54	4788
2026-01-11 23:59:13.99	117.30	10.69	-41.7	-43.9	16.9	0.00e+00	0	43	0	2097152000	54	4787
2026-01-11 23:59:14.98	117.46	10.65	-41.6	-43.9	16.9	0.00e+00	0	43	0	2103443456	54	4761
2026-01-11 23:59:15.97	117.62	10.60	-41.6	-43.7	17.0	0.00e+00	0	43	0	2108686336	54	4697
2026-01-11 23:59:16.97	117.77	10.56	-41.6	-43.8	16.9	0.00e+00	0	43	0	2114977792	54	4742
2026-01-11 23:59:17.96	117.93	10.51	-41.7	-43.9	16.9	0.00e+00	0	43	0	2120220672	54	4768
2026-01-11 23:59:18.95	118.09	10.47	-41.7	-43.9	16.8	0.00e+00	0	43	0	2125463552	54	4792
2026-01-11 23:59:19.95	118.24	10.42	-41.7	-43.9	16.8	0.00e+00	0	43	0	2130706432	54	4800
2026-01-11 23:59:20.94	118.40	10.37	-41.8	-44.0	16.8	0.00e+00	0	43	0	2136997888	54	4839
2026-01-11 23:59:21.94	118.55	10.33	-41.9	-44.1	16.6	0.00e+00	0	43	0	2142240768	54	4921
2026-01-11 23:59:22.93	118.71	10.28	-41.8	-44.0	16.8	0.00e+00	0	43	0	2147483648	54	4854
2026-01-11 23:59:23.94	118.86	10.23	-41.8	-44.0	16.8	0.00e+00	0	42	0	2153775104	54	4829
2026-01-11 23:59:24.95	119.02	10.19	-41.8	-44.1	16.7	0.00e+00	0	43	0	2159017984	54	4878
2026-01-11 23:59:25.97	119.18	10.14	-41.8	-44.1	16.7	0.00e+00	0	43	0	2165309440	54	4879
2026-01-11 23:59:26.99	119.33	10.09	-41.8	-44.0	16.7	0.00e+00	0	43	0	2170552320	54	4854
2026-01-11 23:59:27.99	119.48	10.05	-41.8	-44.1	16.7	0.00e+00	0	42	0	2176843776	54	4880
2026-01-11 23:59:28.98	119.64	10.00	-41.9	-44.1	16.6	0.00e+00	0	43	0	2182086656	54	4907
2026-01-11 23:59:29.98	119.79	9.95	-42.0	-44.2	16.5	0.00e+00	0	43	0	2187329536	54	4943
2026-01-11 23:59:30.97	119.94	9.90	-41.9	-44.1	16.6	0.00e+00	0	43	0	2193620992	54	4907
2026-01-11 23:59:31.97	120.09	9.86	-42.0	-44.2	16.5	0.00e+00	0	43	0	2198863872	54	4979
2026-01-11 23:59:32.96	120.24	9.81	-42.0	-44.2	16.5	0.00e+00	0	43	0	2204106752	54	4976
2026-01-11 23:59:33.96	120.39	9.76	-42.0	-44.2	16.5	0.00e+00	0	43	0	2210398208	54	4977
2026-01-11 23:59:34.95	120.54	9.72	-42.0	-44.2	16.5	0.00e+00	0	43	0	2215641088	54	4971
2026-01-11 23:59:35.95	120.68	9.67	-42.1	-44.3	16.4	0.00e+00	0	43	0	2220883968	54	5024
2026-01-11 23:59:36.94	120.83	9.62	-42.1	-44.3	16.4	0.00e+00	0	43	0	2227175424	54	5026
2026-01-11 23:59:37.94	120.98	9.57	-42.2	-44.5	16.3	0.00e+00	0	43	0	2232418304	54	5111
2026-01-11 23:59:38.93	121.13	9.53	-42.1	-44.4	16.3	0.00e+00	0	42	0	2237661184	54	5081
2026-01-11 23:59:39.93	121.27	9.48	-42.2	-44.5	16.2	0.00e+00	0	42	0	2243952640	55	4855
2026-01-11 23:59:40.92	121.42	9.43	-42.2	-44.6	16.1	0.00e+00	0	43	0	2249195520	55	4880
2026-01-11 23:59:41.92	121.56	9.38	-42.2	-44.5	16.2	0.00e+00	0	43	0	2254438400	55	4859
2026-01-11 23:59:42.98	121.72	9.33	-42.2	-44.5	16.1	0.00e+00	0	43	0	2260729856	55	4869
2026-01-11 23:59:43.85	121.85	9.29	-42.3	-44.6	16.1	0.00e+00	0	43	0	2265972736	55	4878
2026-01-11 23:59:44.99	122.01	9.24	-42.2	-44.5	16.1	0.00e+00	0	42	0	2272264192	55	4866
2026-01-11 23:59:45.84	122.13	9.19	-42.2	-44.5	16.1	0.00e+00	0	43	0	2276458496	55	4866
2026-01-11 23:59:46.97	122.30	9.14	-42.3	-44.6	16.0	0.00e+00	0	43	0	2283798528	55	4920
2026-01-11 23:59:47.83	122.42	9.10	-42.2	-44.5	16.2	0.00e+00	0	43	0	2287992832	55	4862
2026-01-11 23:59:48.96	122.58	9.04	-42.2	-44.4	16.2	0.00e+00	0	43	0	2294284288	55	4813
2026-01-11 23:59:49.81	122.70	9.00	-49.2	-56.2	5.8	0.00e+00	0	43	0	2299527168	68	8813
2026-01-11 23:59:50.95	122.86	8.95	-50.5	-62.4	3.8	8.47e-01	0	43	104	2299527168	71	15099
2026-01-11 23:59:51.80	122.98	8.91	-50.6	-62.7	3.8	8.46e-01	0	43	104	2299527168	71	15651
2026-01-11 23:59:52.94	123.15	8.85	-50.7	-62.8	3.8	8.47e-01	0	43	104	2299527168	71	15792
2026-01-11 23:59:53.79	123.27	8.81	-50.6	-62.8	3.8	8.48e-01	0	43	104	2299527168	71	15845
2026-01-11 23:59:54.92	123.42	8.75	-50.6	-62.9	3.8	8.47e-01	0	43	104	2299527168	71	15964
2026-01-11 23:59:55.77	123.54	8.71	-50.6	-62.8	3.8	8.48e-01	0	43	104	2299527168	72	15047
2026-01-11 23:59:56.91	123.70	8.66	-50.7	-62.9	3.8	8.47e-01	0	43	104	2299527168	72	15100
2026-01-11 23:59:57.76	123.82	8.62	-50.6	-62.9	3.8	8.48e-01	0	43	104	2299527168	72	15133
2026-01-11 23:59:58.90	123.98	8.56	-50.8	-62.9	3.8	8.47e-01	0	43	104	2299527168	72	15084
2026-01-11 23:59:59.75	124.10	8.52	-50.7	-62.9	3.8	8.47e-01	0	43	104	2299527168	72	15124
2026-01-12 00:00:00.88	124.25	8.46	-50.7	-62.9	3.8	8.47e-01	0	43	104	2299527168	72	15127
2026-01-12 00:00:01.73	124.37	8.42	-50.6	-62.9	3.8	8.47e-01	0	43	104	2299527168	72	15167
2026-01-12 00:00:02.87	124.52	8.36	-50.5	-62.9	3.8	8.47e-01	0	43	104	2299527168	72	15156
2026-01-12 00:00:03.72	124.64	8.32	-50.6	-62.9	3.8	8.46e-01	0	43	104	2299527168	72	15118
2026-01-12 00:00:04.86	124.79	8.27	-50.5	-62.9	3.8	8.47e-01	0	43	104	2299527168	72	15177
2026-01-12 00:00:05.71	124.91	8.22	-50.4	-62.9	3.8	8.47e-01	0	43	104	2299527168	72	15181
2026-01-12 00:00:06.84	125.06	8.17	-50.3	-62.9	3.8	8.47e-01	0	43	104	2299527168	72	15186
2026-01-12 00:00:07.70	125.18	8.13	-50.4	-62.9	3.8	8.47e-01	0	43	104	2299527168	72	15151
2026-01-12 00:00:08.83	125.33	8.07	-50.5	-62.9	3.8	8.47e-01	0	43	104	2299527168	72	15210
2026-01-12 00:00:09.68	125.44	8.03	-50.6	-63.0	3.8	8.47e-01	0	43	104	2299527168	72	15254
2026-01-12 00:00:10.82	125.59	7.97	-50.6	-62.9	3.8	8.46e-01	0	43	104	2299527168	72	15162
2026-01-12 00:00:11.67	125.71	7.93	-50.6	-62.9	3.8	8.47e-01	0	43	104	2299527168	72	15149
2026-01-12 00:00:12.81	125.86	7.87	-50.6	-62.9	3.8	8.46e-01	0	43	104	2299527168	72	15087
2026-01-12 00:00:13.66	125.97	7.83	-50.6	-62.8	3.8	8.47e-01	0	43	104	2299527168	72	15036
2026-01-12 00:00:14.79	126.12	7.78	-50.6	-62.9	3.8	8.47e-01	0	43	104	2299527168	72	15104
2026-01-12 00:00:15.64	126.23	7.73	-50.6	-62.9	3.8	8.47e-01	0	43	104	2299527168	72	15098
2026-01-12 00:00:16.78	126.38	7.68	-50.6	-62.9	3.8	8.47e-01	0	43	104	2299527168	72	15066
2026-01-12 00:00:17.63	126.49	7.63	-50.6	-62.9	3.8	8.46e-01	0	43	104	2299527168	72	15068
2026-01-12 00:00:18.77	126.64	7.58	-50.6	-62.9	3.8	8.46e-01	0	43	104	2299527168	72	15086
2026-01-12 00:00:19.62	126.75	7.54	-50.6	-62.8	3.8	8.47e-01	0	43	104	2299527168	72	15005
2026-01-12 00:00:20.75	126.89	7.48	-50.6	-62.9	3.8	8.46e-01	0	43	104	2299527168	72	15061
2026-01-12 00:00:21.60	127.00	7.44	-50.6	-62.9	3.8	8.46e-01	0	43	104	2299527168	72	15059
2026-01-12 00:00:22.74	127.15	7.38	-50.6	-62.9	3.8	8.48e-01	0	43	104	2299527168	72	15064
2026-01-12 00:00:23.59	127.26	7.34	-50.6	-62.8	3.8	8.47e-01	0	43	104	2299527168	72	15035
2026-01-12 00:00:24.72	127.40	7.28	-50.6	-62.8	3.8	8.47e-01	0	43	104	2299527168	72	15047
2026-01-12 00:00:25.58	127.51	7.24	-50.6	-62.8	3.8	8.46e-01	0	43	104	2299527168	72	15006
2026-01-12 00:00:26.71	127.65	7.18	-50.6	-62.8	3.8	8.47e-01	0	43	104	2299527168	72	15042
2026-01-12 00:00:27.56	127.76	7.14	-50.6	-62.9	3.8	8.47e-01	0	43	104	2299527168	72	15057
2026-01-12 00:00:28.70	127.90	7.08	-50.6	-62.8	3.8	8.46e-01	0	43	104	2299527168	72	15028
2026-01-12 00:00:29.55	128.01	7.04	-50.6	-62.8	3.8	8.46e-01	0	43	104	2299527168	72	15042
2026-01-12 00:00:30.68	128.15	6.98	-50.6	-62.9	3.8	8.46e-01	0	43	104	2299527168	72	15105
2026-01-12 00:00:31.53	128.26	6.94	-50.6	-62.9	3.8	8.47e-01	0	43	104	2299527168	72	15053
2026-01-12 00:00:32.67	128.40	6.88	-50.6	-62.8	3.8	8.47e-01	0	43	104	2299527168	72	15042
2026-01-12 00:00:33.52	128.50	6.84	-50.6	-62.8	3.8	8.46e-01	0	43	104	2299527168	72	14997
2026-01-12 00:00:34.66	128.64	6.78	-50.6	-62.9	3.8	8.46e-01	0	43	104	2299527168	72	15059
2026-01-12 00:00:35.51	128.75	6.74	-50.6	-62.8	3.8	8.47e-01	0	43	104	2299527168	72	15039
2026-01-12 00:00:36.64	128.88	6.69	-50.6	-62.8	3.8	8.46e-01	0	42	104	2299527168	72	15005
2026-01-12 00:00:37.50	128.99	6.64	-50.6	-62.8	3.8	8.47e-01	0	43	104	2299527168	72	15008
2026-01-12 00:00:38.63	129.13	6.59	-50.6	-62.9	3.8	8.47e-01	0	43	104	2299527168	72	15075
2026-01-12 00:00:39.48	129.23	6.54	-50.6	-62.8	3.8	8.48e-01	0	43	104	2299527168	72	15023
2026-01-12 00:00:40.62	129.37	6.49	-50.6	-62.8	3.8	8.48e-01	0	43	104	2299527168	72	15048
2026-01-12 00:00:41.47	129.47	6.44	-50.6	-62.8	3.8	8.47e-01	0	43	104	2299527168	72	15044
2026-01-12 00:00:42.61	129.61	6.39	-50.6	-62.8	3.8	8.48e-01	0	43	104	2299527168	72	15042
2026-01-12 00:00:43.46	129.71	6.34	-50.6	-62.8	3.8	8.47e-01	0	43	104	2299527168	72	14988
2026-01-12 00:00:44.59	129.84	6.29	-50.6	-62.9	3.8	8.47e-01	0	43	104	2299527168	72	15062
2026-01-12 00:00:45.45	129.94	6.24	-50.6	-62.8	3.8	8.48e-01	0	43	104	2299527168	72	15028
2026-01-12 00:00:46.58	130.08	6.19	-50.6	-62.8	3.8	8.46e-01	0	43	104	2299527168	72	15002
2026-01-12 00:00:47.43	130.18	6.14	-50.6	-62.9	3.8	8.47e-01	0	43	104	2299527168	72	15074
2026-01-12 00:00:48.57	130.31	6.09	-50.6	-62.9	3.8	8.46e-01	0	43	104	2299527168	72	15069
2026-01-12 00:00:49.42	130.41	6.04	-50.6	-62.9	3.8	8.48e-01	0	43	104	2299527168	72	15060
2026-01-12 00:00:50.55	130.54	5.99	-50.6	-62.8	3.8	8.47e-01	0	43	104	2299527168	72	15000
2026-01-12 00:00:51.41	130.64	5.94	-50.6	-62.9	3.8	8.47e-01	0	43	104	2299527168	72	15067
2026-01-12 00:00:52.54	130.78	5.89	-50.6	-62.8	3.8	8.47e-01	0	43	104	2299527168	72	14983
2026-01-12 00:00:53.39	130.87	5.85	-50.6	-62.8	3.8	8.47e-01	0	43	104	2299527168	72	15012
2026-01-12 00:00:54.52	131.00	5.79	-50.6	-62.8	3.8	8.46e-01	0	43	104	2299527168	72	15015
2026-01-12 00:00:55.38	131.10	5.75	-50.6	-62.8	3.8	8.46e-01	0	43	104	2299527168	72	15038
2026-01-12 00:00:56.51	131.23	5.69	-50.6	-62.8	3.8	8.46e-01	0	43	104	2299527168	72	15033
2026-01-12 00:00:57.36	131.33	5.65	-50.6	-62.8	3.8	8.46e-01	0	43	104	2299527168	72	15043
2026-01-12 00:00:58.50	131.46	5.59	-50.6	-62.8	3.8	8.47e-01	0	43	104	2299527168	72	15030
2026-01-12 00:00:59.35	131.56	5.55	-50.6	-62.8	3.8	8.47e-01	0	43	104	2299527168	72	14985
2026-01-12 00:01:00.48	131.68	5.49	-50.6	-62.8	3.8	8.46e-01	0	43	104	2299527168	72	14974
2026-01-12 00:01:01.34	131.78	5.45	-50.6	-62.9	3.8	8.46e-01	0	43	104	2299527168	72	15063
2026-01-12 00:01:02.47	131.91	5.39	-50.6	-62.8	3.8	8.46e-01	0	43	104	2299527168	72	14974
2026-01-12 00:01:03.32	132.00	5.35	-50.6	-62.8	3.8	8.46e-01	0	43	104	2299527168	72	15046
2026-01-12 00:01:04.46	132.13	5.29	-50.6	-62.9	3.8	8.48e-01	0	43	104	2299527168	72	15054
2026-01-12 00:01:05.31	132.22	5.25	-50.6	-62.8	3.8	8.46e-01	0	43	104	2299527168	72	14979
2026-01-12 00:01:06.44	132.35	5.19	-50.6	-62.9	3.8	8.46e-01	0	43	104	2299527168	72	15080
2026-01-12 00:01:07.29	132.44	5.15	-50.6	-62.8	3.8	8.46e-01	0	43	104	2299527168	72	15030
2026-01-12 00:01:08.43	132.57	5.09	-50.6	-62.8	3.8	8.46e-01	0	43	104	2299527168	72	15011
2026-01-12 00:01:09.28	132.66	5.05	-50.6	-62.8	3.8	8.48e-01	0	43	104	2299527168	72	15043
2026-01-12 00:01:10.42	132.79	4.99	-50.6	-62.8	3.8	8.47e-01	0	43	104	2299527168	72	15032

#Closed at: 2026-01-12 00:01:11
#Recorded file [2299 MB]: D:/Data/31040_260112_025136.dat