passes_logs/2026/01/06/R3.2S_Murmansk/R3.2S_Murmansk__20260106_064839_NOAA_21_JPSS-2_rec.log

#Pass ID: 20260106_064839_NOAA 21 (JPSS-2)
#Satellite: NOAA 21 (JPSS-2)
#Configuration: NOAA-21
#almurnet v.1.7.20251203
#Start time: 2026-01-06 06:48:41

#Version: 2.2.20231116
#Station: R3.2S_Murmansk
#Location: 33.079688 lon 68.888172 lat
#TLE: 1 54234U 22150A   26005.42670836  .00000142  00000+0  88292-4 0  9996
#TLE: 2 54234  98.7490 306.4427 0001045 340.6622  19.4514 14.19532269163451

#Time	Az	El	Level	Level2	SNR	BER	BlckErr	Temp	State	Recorded	gain1	gain2
2026-01-06 06:48:41.26	91.12	2.09	-57.9	-71.7	3.8	1.49e+00	0	24	0	0	82	17248
2026-01-06 06:48:42.24	91.06	2.15	-57.9	-71.7	3.8	1.49e+00	0	24	104	0	80	19172
2026-01-06 06:48:43.23	91.01	2.21	-57.9	-71.6	3.8	1.49e+00	0	24	104	0	80	19125
2026-01-06 06:48:44.23	90.96	2.26	-57.9	-71.6	3.8	1.49e+00	0	24	104	0	80	19140
2026-01-06 06:48:45.23	90.90	2.32	-57.9	-71.6	3.8	1.49e+00	0	24	104	0	80	19061
2026-01-06 06:48:46.22	90.85	2.38	-57.9	-71.6	3.8	1.49e+00	0	24	104	0	80	19149
2026-01-06 06:48:47.22	90.79	2.44	-57.9	-71.6	3.8	1.49e+00	0	24	104	0	80	19151
2026-01-06 06:48:48.21	90.74	2.50	-57.9	-71.6	3.8	1.49e+00	0	24	104	0	80	19154
2026-01-06 06:48:49.21	90.68	2.56	-57.9	-71.6	3.8	1.49e+00	0	24	104	0	80	19143
2026-01-06 06:48:50.20	90.63	2.62	-57.9	-71.7	3.8	1.49e+00	0	24	104	0	80	19227
2026-01-06 06:48:51.19	90.57	2.68	-57.9	-71.7	3.8	1.49e+00	0	24	104	0	80	19234
2026-01-06 06:48:52.19	90.52	2.74	-57.9	-71.7	3.8	1.49e+00	0	24	104	0	80	19180
2026-01-06 06:48:53.19	90.46	2.80	-57.9	-71.7	3.8	1.49e+00	0	24	104	0	80	19225
2026-01-06 06:48:54.18	90.41	2.86	-57.9	-71.7	3.8	1.49e+00	0	24	104	0	80	19248
2026-01-06 06:48:55.17	90.35	2.92	-57.9	-71.7	3.8	1.49e+00	0	24	104	0	80	19253
2026-01-06 06:48:56.16	90.29	2.98	-57.9	-71.7	3.8	1.49e+00	0	24	104	0	80	19208
2026-01-06 06:48:57.16	90.24	3.04	-57.9	-71.7	3.8	1.49e+00	0	24	104	0	80	19189
2026-01-06 06:48:58.15	90.18	3.10	-57.9	-71.6	3.8	1.49e+00	0	24	104	0	80	19103
2026-01-06 06:48:59.15	90.12	3.16	-57.9	-71.6	3.8	1.49e+00	0	24	104	0	80	19024
2026-01-06 06:49:00.14	90.07	3.22	-57.9	-71.6	3.8	1.49e+00	0	24	104	0	80	19108
2026-01-06 06:49:01.14	90.01	3.29	-57.9	-71.6	3.8	1.49e+00	0	24	104	0	80	19122
2026-01-06 06:49:02.13	89.95	3.35	-57.9	-71.6	3.8	1.49e+00	0	24	104	0	80	19133
2026-01-06 06:49:03.12	89.89	3.41	-57.9	-71.7	3.8	1.49e+00	0	25	104	0	80	19170
2026-01-06 06:49:04.11	89.83	3.47	-57.9	-71.7	3.8	1.49e+00	0	25	104	0	80	19292
2026-01-06 06:49:05.11	89.78	3.53	-57.9	-71.7	3.8	1.49e+00	0	25	104	0	80	19215
2026-01-06 06:49:06.11	89.72	3.59	-57.9	-71.6	3.8	1.49e+00	0	25	104	0	80	19077
2026-01-06 06:49:07.11	89.66	3.65	-57.9	-71.5	3.8	1.49e+00	0	25	104	0	80	18866
2026-01-06 06:49:08.10	89.60	3.71	-57.9	-71.5	3.8	1.49e+00	0	25	104	0	80	18768
2026-01-06 06:49:09.10	89.54	3.78	-57.9	-71.4	3.8	1.49e+00	0	25	104	0	80	18721
2026-01-06 06:49:10.09	89.48	3.84	-57.9	-71.4	3.8	1.49e+00	0	25	104	0	80	18711
2026-01-06 06:49:11.09	89.42	3.90	-57.9	-71.5	3.8	1.49e+00	0	25	104	0	80	18862
2026-01-06 06:49:12.08	89.36	3.96	-57.9	-71.6	3.8	1.49e+00	0	25	104	0	80	19107
2026-01-06 06:49:13.07	89.30	4.02	-57.9	-71.7	3.8	1.49e+00	0	25	104	0	80	19258
2026-01-06 06:49:14.07	89.23	4.09	-57.9	-71.6	3.9	1.49e+00	0	25	104	0	80	19133
2026-01-06 06:49:15.06	89.17	4.15	-57.9	-71.4	3.8	1.49e+00	0	25	104	0	80	18613
2026-01-06 06:49:16.05	89.11	4.21	-57.9	-71.0	3.9	1.49e+00	0	25	104	0	80	17821
2026-01-06 06:49:17.04	89.05	4.27	-57.8	-70.4	3.8	1.49e+00	0	25	104	0	80	16512
2026-01-06 06:49:18.04	88.99	4.34	-57.8	-69.6	3.9	1.49e+00	0	25	104	0	80	15177
2026-01-06 06:49:19.03	88.92	4.40	-57.6	-67.9	4.3	1.47e+00	0	25	104	0	80	12447
2026-01-06 06:49:20.03	88.86	4.46	-57.6	-67.7	4.0	1.17e+00	0	25	104	0	80	12175
2026-01-06 06:49:21.01	88.80	4.52	-57.4	-66.3	4.9	7.43e-01	0	25	0	0	80	10319
2026-01-06 06:49:22.02	88.73	4.59	-57.3	-65.3	5.4	5.52e-01	0	25	0	3145728	80	9237
2026-01-06 06:49:23.00	88.67	4.65	-57.1	-64.2	6.1	3.15e-01	0	25	0	6291456	80	8111
2026-01-06 06:49:24.00	88.61	4.71	-56.9	-63.2	6.8	1.76e-01	0	25	0	9437184	80	7241
2026-01-06 06:49:24.99	88.54	4.78	-56.7	-62.6	7.4	8.01e-02	0	25	0	12582912	80	6763
2026-01-06 06:49:25.99	88.48	4.84	-56.5	-61.9	8.0	4.72e-02	0	25	0	15728640	79	6588
2026-01-06 06:49:26.98	88.41	4.90	-56.4	-61.8	8.0	3.97e-02	0	25	0	18874368	79	6530
2026-01-06 06:49:27.97	88.35	4.97	-56.3	-61.5	8.3	2.55e-02	0	25	0	22020096	79	6347
2026-01-06 06:49:28.97	88.28	5.03	-56.3	-61.5	8.3	2.65e-02	0	25	0	25165824	79	6302
2026-01-06 06:49:29.96	88.22	5.10	-56.5	-62.1	7.8	4.67e-02	0	25	0	28311552	79	6754
2026-01-06 06:49:30.95	88.15	5.16	-56.9	-63.2	6.9	9.49e-02	0	25	0	31457280	79	7659
2026-01-06 06:49:31.94	88.09	5.22	-57.0	-63.8	6.4	2.68e-02	0	25	0	34603008	79	8239
2026-01-06 06:49:32.94	88.02	5.29	-53.6	-56.1	12.4	1.72e-04	0	25	0	37748736	73	4797
2026-01-06 06:49:33.93	87.95	5.35	-57.6	-68.3	3.9	2.34e-01	0	25	104	40894464	80	13050
2026-01-06 06:49:34.93	87.88	5.42	-53.7	-56.2	12.4	5.27e-04	0	25	0	41943040	74	4587
2026-01-06 06:49:35.92	87.82	5.48	-53.7	-56.2	12.3	7.00e-07	0	25	0	45088768	73	4868
2026-01-06 06:49:36.91	87.75	5.55	-53.1	-55.4	12.8	0.00e+00	0	25	0	48234496	72	4673
2026-01-06 06:49:37.91	87.68	5.61	-53.2	-55.6	12.7	0.00e+00	0	25	0	51380224	72	4781
2026-01-06 06:49:38.91	87.61	5.68	-53.0	-55.3	12.9	0.00e+00	0	25	0	54525952	72	4601
2026-01-06 06:49:39.90	87.54	5.74	-53.1	-55.3	12.8	7.00e-07	0	25	0	57671680	72	4649
2026-01-06 06:49:40.89	87.47	5.81	-52.7	-54.8	13.2	0.00e+00	0	25	0	60817408	72	4353
2026-01-06 06:49:41.88	87.41	5.87	-52.6	-54.6	13.2	0.00e+00	0	25	0	63963136	71	4538
2026-01-06 06:49:42.86	87.34	5.94	-52.6	-54.6	13.2	0.00e+00	0	25	0	67108864	71	4531
2026-01-06 06:49:43.86	87.27	6.00	-52.4	-54.4	13.4	0.00e+00	0	25	0	70254592	71	4436
2026-01-06 06:49:44.85	87.20	6.07	-52.5	-54.5	13.3	0.00e+00	0	25	0	72351744	71	4453
2026-01-06 06:49:45.84	87.13	6.14	-52.0	-53.8	13.6	0.00e+00	0	25	0	75497472	70	4391
2026-01-06 06:49:46.84	87.05	6.20	-51.8	-53.6	13.8	0.00e+00	0	25	0	78643200	70	4255
2026-01-06 06:49:47.83	86.98	6.27	-51.6	-53.5	13.7	0.00e+00	0	25	0	81788928	69	4442
2026-01-06 06:49:48.82	86.91	6.33	-51.6	-53.3	13.8	0.00e+00	0	25	0	84934656	69	4380
2026-01-06 06:49:49.80	86.84	6.40	-51.5	-53.2	13.9	0.00e+00	0	25	0	88080384	69	4339
2026-01-06 06:49:50.78	86.77	6.47	-51.5	-53.3	13.8	0.00e+00	0	25	0	91226112	69	4351
2026-01-06 06:49:51.77	86.70	6.53	-51.4	-53.1	14.0	0.00e+00	0	25	0	94371840	69	4264
2026-01-06 06:49:52.77	86.62	6.60	-51.2	-52.9	14.1	0.00e+00	0	25	0	97517568	69	4159
2026-01-06 06:49:53.75	86.55	6.67	-51.3	-53.0	14.0	0.00e+00	0	25	0	100663296	69	4197
2026-01-06 06:49:54.74	86.48	6.73	-51.3	-52.9	14.1	0.00e+00	0	25	0	103809024	69	4185
2026-01-06 06:49:55.72	86.40	6.80	-51.3	-53.0	14.0	0.00e+00	0	25	0	106954752	69	4219
2026-01-06 06:49:56.71	86.33	6.87	-51.3	-53.0	14.0	0.00e+00	0	25	0	110100480	69	4200
2026-01-06 06:49:57.70	86.25	6.93	-51.0	-52.6	14.1	0.00e+00	0	25	0	113246208	68	4283
2026-01-06 06:49:58.69	86.18	7.00	-51.2	-52.8	14.0	0.00e+00	0	25	0	116391936	68	4387
2026-01-06 06:49:59.68	86.10	7.07	-51.3	-52.9	13.9	0.00e+00	0	25	0	119537664	68	4433
2026-01-06 06:50:00.68	86.03	7.14	-51.1	-52.8	14.0	0.00e+00	0	25	0	122683392	68	4354
2026-01-06 06:50:01.68	85.95	7.21	-51.2	-52.8	14.0	0.00e+00	0	26	0	125829120	68	4376
2026-01-06 06:50:02.67	85.87	7.27	-51.0	-52.6	14.1	0.00e+00	0	25	0	128974848	68	4277
2026-01-06 06:50:03.67	85.80	7.34	-51.2	-52.8	14.0	0.00e+00	0	25	0	132120576	68	4360
2026-01-06 06:50:04.66	85.72	7.41	-51.1	-52.7	14.0	0.00e+00	0	25	0	135266304	68	4315
2026-01-06 06:50:05.65	85.64	7.48	-51.0	-52.6	14.0	0.00e+00	0	25	0	138412032	68	4284
2026-01-06 06:50:06.64	85.56	7.55	-51.1	-52.7	14.0	0.00e+00	0	25	0	140509184	68	4322
2026-01-06 06:50:07.64	85.48	7.62	-51.1	-52.7	14.0	0.00e+00	0	25	0	143654912	68	4311
2026-01-06 06:50:08.63	85.41	7.68	-51.0	-52.6	14.1	0.00e+00	0	26	0	146800640	68	4257
2026-01-06 06:50:09.63	85.33	7.75	-51.1	-52.7	14.0	0.00e+00	0	25	0	149946368	68	4305
2026-01-06 06:50:10.62	85.25	7.82	-51.0	-52.7	14.0	0.00e+00	0	25	0	153092096	68	4298
2026-01-06 06:50:11.61	85.17	7.89	-51.1	-52.8	14.0	0.00e+00	0	25	0	156237824	68	4350
2026-01-06 06:50:12.61	85.08	7.96	-51.1	-52.8	14.0	0.00e+00	0	25	0	159383552	68	4351
2026-01-06 06:50:13.60	85.00	8.03	-51.2	-52.9	14.0	0.00e+00	0	25	0	162529280	68	4404
2026-01-06 06:50:14.60	84.92	8.10	-51.2	-52.8	14.0	0.00e+00	0	26	0	165675008	68	4386
2026-01-06 06:50:15.59	84.84	8.17	-51.1	-52.7	14.1	0.00e+00	0	26	0	168820736	68	4300
2026-01-06 06:50:16.58	84.76	8.24	-51.0	-52.6	14.2	0.00e+00	0	25	0	171966464	68	4264
2026-01-06 06:50:17.58	84.68	8.31	-51.0	-52.6	14.1	0.00e+00	0	25	0	175112192	68	4249
2026-01-06 06:50:18.57	84.59	8.38	-50.9	-52.4	14.2	0.00e+00	0	25	0	178257920	68	4189
2026-01-06 06:50:19.56	84.51	8.45	-50.9	-52.5	14.2	0.00e+00	0	26	0	181403648	68	4199
2026-01-06 06:50:20.54	84.43	8.52	-50.9	-52.4	14.2	0.00e+00	0	25	0	184549376	68	4191
2026-01-06 06:50:21.53	84.34	8.59	-50.7	-52.2	14.3	0.00e+00	0	25	0	187695104	68	4082
2026-01-06 06:50:22.52	84.26	8.66	-50.7	-52.2	14.3	0.00e+00	0	25	0	190840832	68	4096
2026-01-06 06:50:23.51	84.17	8.73	-50.7	-52.3	14.3	0.00e+00	0	25	0	193986560	68	4100
2026-01-06 06:50:24.49	84.09	8.80	-50.7	-52.2	14.3	0.00e+00	0	26	0	197132288	68	4085
2026-01-06 06:50:25.48	84.00	8.87	-50.8	-52.4	14.3	0.00e+00	0	26	0	200278016	68	4164
2026-01-06 06:50:26.48	83.92	8.95	-50.5	-52.0	14.3	0.00e+00	0	25	0	203423744	67	4238
2026-01-06 06:50:27.47	83.83	9.02	-50.5	-52.1	14.2	0.00e+00	0	26	0	206569472	67	4244
2026-01-06 06:50:28.46	83.74	9.09	-50.4	-51.9	14.3	0.00e+00	0	25	0	209715200	67	4184
2026-01-06 06:50:29.44	83.66	9.16	-50.5	-52.0	14.3	0.00e+00	0	26	0	211812352	67	4208
2026-01-06 06:50:30.43	83.57	9.23	-50.5	-52.0	14.3	0.00e+00	0	26	0	214958080	67	4222
2026-01-06 06:50:31.42	83.48	9.30	-50.4	-51.9	14.3	0.00e+00	0	25	0	218103808	67	4179
2026-01-06 06:50:32.41	83.39	9.37	-50.5	-52.0	14.3	0.00e+00	0	25	0	221249536	67	4202
2026-01-06 06:50:33.41	83.30	9.45	-50.4	-51.9	14.3	0.00e+00	0	26	0	224395264	67	4175
2026-01-06 06:50:34.39	83.21	9.52	-50.5	-52.0	14.3	0.00e+00	0	25	0	227540992	67	4217
2026-01-06 06:50:35.38	83.12	9.59	-50.3	-51.8	14.4	0.00e+00	0	25	0	230686720	67	4122
2026-01-06 06:50:36.38	83.03	9.66	-50.5	-52.0	14.3	0.00e+00	0	26	0	233832448	67	4197
2026-01-06 06:50:37.38	82.94	9.74	-50.6	-52.1	14.3	0.00e+00	0	26	0	236978176	67	4255
2026-01-06 06:50:38.37	82.85	9.81	-50.4	-51.9	14.3	0.00e+00	0	26	0	240123904	67	4176
2026-01-06 06:50:39.36	82.75	9.88	-50.1	-51.6	14.4	0.00e+00	0	26	0	243269632	66	4258
2026-01-06 06:50:40.36	82.66	9.96	-50.2	-51.7	14.3	0.00e+00	0	25	0	246415360	66	4313
2026-01-06 06:50:41.35	82.57	10.03	-50.2	-51.6	14.4	0.00e+00	0	26	0	249561088	66	4270
2026-01-06 06:50:42.34	82.47	10.10	-50.3	-51.8	14.3	0.00e+00	0	26	0	252706816	66	4357
2026-01-06 06:50:43.33	82.38	10.18	-50.2	-51.7	14.3	0.00e+00	0	26	0	255852544	66	4310
2026-01-06 06:50:44.32	82.29	10.25	-50.3	-51.8	14.3	0.00e+00	0	26	0	258998272	66	4351
2026-01-06 06:50:45.32	82.19	10.33	-50.2	-51.6	14.3	0.00e+00	0	26	0	262144000	66	4291
2026-01-06 06:50:46.31	82.09	10.40	-50.1	-51.6	14.4	0.00e+00	0	25	0	265289728	66	4250
2026-01-06 06:50:47.30	82.00	10.47	-50.2	-51.6	14.4	0.00e+00	0	26	0	268435456	66	4269
2026-01-06 06:50:48.29	81.90	10.55	-50.2	-51.6	14.4	0.00e+00	0	26	0	271581184	66	4290
2026-01-06 06:50:49.28	81.81	10.62	-50.1	-51.5	14.4	0.00e+00	0	26	0	274726912	66	4228
2026-01-06 06:50:50.27	81.71	10.70	-49.9	-51.4	14.5	0.00e+00	0	26	0	277872640	66	4151
2026-01-06 06:50:51.27	81.61	10.77	-50.1	-51.5	14.4	0.00e+00	0	26	0	281018368	66	4231
2026-01-06 06:50:52.25	81.51	10.85	-50.0	-51.5	14.4	0.00e+00	0	26	0	283115520	66	4194
2026-01-06 06:50:53.25	81.41	10.92	-49.9	-51.3	14.5	0.00e+00	0	26	0	286261248	66	4140
2026-01-06 06:50:54.24	81.31	11.00	-49.8	-51.2	14.6	0.00e+00	0	25	0	289406976	66	4066
2026-01-06 06:50:55.23	81.21	11.07	-49.9	-51.3	14.6	0.00e+00	0	26	0	292552704	66	4107
2026-01-06 06:50:56.22	81.11	11.15	-49.9	-51.3	14.5	0.00e+00	0	26	0	295698432	66	4127
2026-01-06 06:50:57.22	81.01	11.22	-49.8	-51.2	14.6	0.00e+00	0	26	0	298844160	66	4059
2026-01-06 06:50:58.21	80.91	11.30	-49.8	-51.2	14.6	0.00e+00	0	26	0	301989888	66	4088
2026-01-06 06:50:59.20	80.80	11.38	-49.9	-51.2	14.5	0.00e+00	0	25	0	305135616	66	4098
2026-01-06 06:51:00.20	80.70	11.45	-49.8	-51.2	14.6	0.00e+00	0	26	0	308281344	66	4090
2026-01-06 06:51:01.19	80.60	11.53	-49.8	-51.2	14.6	0.00e+00	0	26	0	311427072	66	4069
2026-01-06 06:51:02.19	80.49	11.61	-49.8	-51.2	14.6	0.00e+00	0	26	0	314572800	66	4070
2026-01-06 06:51:03.18	80.39	11.68	-49.7	-51.1	14.7	0.00e+00	0	26	0	317718528	66	4015
2026-01-06 06:51:04.17	80.28	11.76	-49.7	-51.1	14.5	0.00e+00	0	26	0	320864256	65	4253
2026-01-06 06:51:05.17	80.18	11.84	-49.5	-50.8	14.6	0.00e+00	0	25	0	324009984	65	4141
2026-01-06 06:51:06.17	80.07	11.91	-49.5	-50.8	14.6	0.00e+00	0	26	0	327155712	65	4118
2026-01-06 06:51:07.16	79.96	11.99	-49.5	-50.8	14.6	0.00e+00	0	25	0	330301440	65	4122
2026-01-06 06:51:08.15	79.86	12.07	-49.4	-50.7	14.7	0.00e+00	0	25	0	333447168	65	4072
2026-01-06 06:51:09.13	79.75	12.14	-49.3	-50.6	14.7	0.00e+00	0	26	0	336592896	65	4038
2026-01-06 06:51:10.13	79.64	12.22	-49.3	-50.7	14.7	0.00e+00	0	26	0	339738624	65	4056
2026-01-06 06:51:11.11	79.53	12.30	-49.2	-50.5	14.8	0.00e+00	0	26	0	342884352	65	3979
2026-01-06 06:51:12.11	79.42	12.38	-49.2	-50.5	14.8	0.00e+00	0	26	0	346030080	65	3986
2026-01-06 06:51:13.10	79.31	12.45	-49.2	-50.5	14.6	0.00e+00	0	26	0	348127232	64	4205
2026-01-06 06:51:14.09	79.20	12.53	-49.2	-50.5	14.6	0.00e+00	0	26	0	351272960	64	4224
2026-01-06 06:51:15.09	79.09	12.61	-49.3	-50.6	14.6	0.00e+00	0	26	0	354418688	64	4259
2026-01-06 06:51:16.09	78.97	12.69	-49.3	-50.7	14.6	0.00e+00	0	26	0	357564416	64	4311
2026-01-06 06:51:17.08	78.86	12.77	-49.3	-50.7	14.6	0.00e+00	0	26	0	360710144	64	4307
2026-01-06 06:51:18.07	78.75	12.85	-49.4	-50.7	14.6	0.00e+00	0	26	0	363855872	64	4312
2026-01-06 06:51:19.06	78.63	12.93	-49.4	-50.7	14.5	0.00e+00	0	25	0	367001600	64	4318
2026-01-06 06:51:20.06	78.52	13.01	-49.4	-50.7	14.6	0.00e+00	0	26	0	370147328	64	4315
2026-01-06 06:51:21.04	78.40	13.08	-49.3	-50.6	14.6	0.00e+00	0	26	0	373293056	64	4276
2026-01-06 06:51:22.03	78.29	13.16	-49.1	-50.4	14.7	0.00e+00	0	26	0	376438784	64	4184
2026-01-06 06:51:23.03	78.17	13.24	-49.2	-50.5	14.7	0.00e+00	0	26	0	379584512	64	4212
2026-01-06 06:51:24.03	78.05	13.32	-49.1	-50.4	14.7	0.00e+00	0	26	0	382730240	64	4167
2026-01-06 06:51:25.02	77.94	13.40	-49.2	-50.5	14.6	0.00e+00	0	26	0	385875968	64	4220
2026-01-06 06:51:26.02	77.82	13.48	-49.2	-50.5	14.7	0.00e+00	0	26	0	389021696	64	4196
2026-01-06 06:51:27.01	77.70	13.56	-49.0	-50.3	14.7	0.00e+00	0	26	0	392167424	64	4131
2026-01-06 06:51:28.01	77.58	13.64	-49.0	-50.2	14.8	0.00e+00	0	26	0	395313152	64	4087
2026-01-06 06:51:28.99	77.46	13.72	-49.0	-50.3	14.7	0.00e+00	0	26	0	398458880	64	4116
2026-01-06 06:51:29.99	77.33	13.80	-49.0	-50.3	14.7	0.00e+00	0	26	0	401604608	64	4101
2026-01-06 06:51:30.98	77.21	13.88	-49.1	-50.4	14.7	0.00e+00	0	26	0	404750336	64	4158
2026-01-06 06:51:31.96	77.09	13.96	-49.1	-50.4	14.7	0.00e+00	0	26	0	407896064	64	4175
2026-01-06 06:51:32.95	76.97	14.04	-49.1	-50.4	14.7	0.00e+00	0	26	0	411041792	64	4192
2026-01-06 06:51:33.94	76.85	14.12	-49.1	-50.4	14.7	0.00e+00	0	26	0	414187520	64	4183
2026-01-06 06:51:34.92	76.72	14.20	-49.2	-50.5	14.7	0.00e+00	0	26	0	417333248	64	4210
2026-01-06 06:51:35.91	76.60	14.28	-49.3	-50.6	14.6	0.00e+00	0	26	0	420478976	64	4256
2026-01-06 06:51:36.89	76.47	14.37	-49.4	-50.7	14.6	0.00e+00	0	26	0	422576128	64	4317
2026-01-06 06:51:37.88	76.35	14.45	-49.4	-50.7	14.6	0.00e+00	0	26	0	425721856	64	4319
2026-01-06 06:51:38.87	76.22	14.53	-49.6	-50.9	14.5	0.00e+00	0	26	0	428867584	64	4441
2026-01-06 06:51:39.86	76.09	14.61	-49.3	-50.7	14.6	0.00e+00	0	26	0	432013312	64	4294
2026-01-06 06:51:40.85	75.96	14.69	-49.2	-50.5	14.6	0.00e+00	0	25	0	435159040	64	4231
2026-01-06 06:51:41.84	75.83	14.77	-49.2	-50.6	14.6	0.00e+00	0	26	0	438304768	64	4243
2026-01-06 06:51:42.83	75.70	14.85	-49.3	-50.6	14.6	0.00e+00	0	26	0	441450496	64	4267
2026-01-06 06:51:43.82	75.57	14.94	-49.3	-50.6	14.6	0.00e+00	0	26	0	444596224	64	4269
2026-01-06 06:51:44.81	75.44	15.02	-49.3	-50.6	14.6	0.00e+00	0	26	0	447741952	64	4265
2026-01-06 06:51:45.80	75.31	15.10	-49.3	-50.6	14.6	0.00e+00	0	26	0	450887680	64	4274
2026-01-06 06:51:46.79	75.18	15.18	-49.5	-50.8	14.6	0.00e+00	0	26	0	454033408	64	4357
2026-01-06 06:51:47.78	75.04	15.26	-49.2	-50.5	14.6	0.00e+00	0	26	0	457179136	64	4232
2026-01-06 06:51:48.77	74.91	15.35	-49.3	-50.6	14.6	0.00e+00	0	26	0	460324864	64	4245
2026-01-06 06:51:49.76	74.77	15.43	-49.3	-50.6	14.6	0.00e+00	0	26	0	463470592	64	4248
2026-01-06 06:51:50.74	74.64	15.51	-49.4	-50.7	14.6	0.00e+00	0	26	0	466616320	64	4322
2026-01-06 06:51:51.74	74.50	15.60	-49.4	-50.7	14.5	0.00e+00	0	26	0	469762048	64	4340
2026-01-06 06:51:52.72	74.36	15.68	-49.4	-50.7	14.6	0.00e+00	0	26	0	472907776	64	4331
2026-01-06 06:51:53.71	74.22	15.76	-49.6	-50.9	14.5	0.00e+00	0	26	0	476053504	64	4434
2026-01-06 06:51:54.70	74.09	15.84	-49.4	-50.8	14.6	0.00e+00	0	26	0	479199232	64	4345
2026-01-06 06:51:55.70	73.94	15.93	-49.3	-50.6	14.6	0.00e+00	0	26	0	481296384	64	4291
2026-01-06 06:51:56.69	73.80	16.01	-49.3	-50.6	14.6	0.00e+00	0	26	0	484442112	64	4278
2026-01-06 06:51:57.68	73.66	16.10	-49.2	-50.5	14.6	0.00e+00	0	26	0	487587840	64	4227
2026-01-06 06:51:58.67	73.52	16.18	-49.2	-50.5	14.6	0.00e+00	0	26	0	490733568	64	4236
2026-01-06 06:51:59.66	73.38	16.26	-49.2	-50.5	14.7	0.00e+00	0	26	0	493879296	64	4194
2026-01-06 06:52:00.64	73.23	16.35	-49.2	-50.4	14.7	0.00e+00	0	26	0	497025024	64	4192
2026-01-06 06:52:01.63	73.09	16.43	-49.2	-50.5	14.7	0.00e+00	0	26	0	500170752	64	4216
2026-01-06 06:52:02.62	72.94	16.51	-49.2	-50.5	14.7	0.00e+00	0	26	0	503316480	64	4220
2026-01-06 06:52:03.60	72.80	16.60	-49.3	-50.6	14.6	0.00e+00	0	26	0	506462208	64	4274
2026-01-06 06:52:04.59	72.65	16.68	-49.3	-50.6	14.6	0.00e+00	0	26	0	509607936	64	4245
2026-01-06 06:52:05.58	72.50	16.77	-49.4	-50.7	14.6	0.00e+00	0	26	0	512753664	64	4303
2026-01-06 06:52:06.57	72.35	16.85	-49.4	-50.8	14.5	0.00e+00	0	26	0	515899392	64	4341
2026-01-06 06:52:07.56	72.20	16.93	-49.3	-50.6	14.6	0.00e+00	0	26	0	519045120	64	4286
2026-01-06 06:52:08.55	72.05	17.02	-49.4	-50.7	14.6	0.00e+00	0	26	0	522190848	64	4310
2026-01-06 06:52:09.54	71.90	17.10	-49.5	-50.8	14.5	0.00e+00	0	26	0	525336576	64	4351
2026-01-06 06:52:10.52	71.75	17.19	-49.5	-50.8	14.6	0.00e+00	0	26	0	528482304	64	4348
2026-01-06 06:52:11.52	71.60	17.27	-49.3	-50.6	14.6	0.00e+00	0	26	0	531628032	64	4261
2026-01-06 06:52:12.51	71.44	17.36	-49.3	-50.6	14.6	0.00e+00	0	26	0	534773760	64	4250
2026-01-06 06:52:13.51	71.29	17.44	-49.4	-50.7	14.6	0.00e+00	0	25	0	537919488	64	4314
2026-01-06 06:52:14.49	71.13	17.53	-49.4	-50.7	14.6	0.00e+00	0	26	0	540016640	64	4311
2026-01-06 06:52:15.48	70.97	17.61	-49.3	-50.6	14.6	0.00e+00	0	26	0	543162368	64	4264
2026-01-06 06:52:16.48	70.81	17.70	-49.3	-50.6	14.6	0.00e+00	0	26	0	546308096	64	4284
2026-01-06 06:52:17.46	70.66	17.78	-49.4	-50.7	14.6	0.00e+00	0	26	0	549453824	64	4326
2026-01-06 06:52:18.45	70.50	17.87	-49.5	-50.8	14.5	0.00e+00	0	26	0	552599552	64	4373
2026-01-06 06:52:19.45	70.34	17.96	-49.6	-50.9	14.5	0.00e+00	0	26	0	555745280	64	4440
2026-01-06 06:52:20.44	70.18	18.04	-49.5	-50.8	14.5	0.00e+00	0	26	0	558891008	64	4382
2026-01-06 06:52:21.44	70.01	18.13	-49.5	-50.9	14.5	0.00e+00	0	26	0	562036736	64	4392
2026-01-06 06:52:22.43	69.85	18.21	-49.3	-50.6	14.6	0.00e+00	0	26	0	565182464	64	4286
2026-01-06 06:52:23.41	69.69	18.30	-49.2	-50.5	14.7	0.00e+00	0	26	0	568328192	64	4212
2026-01-06 06:52:24.41	69.52	18.38	-49.3	-50.5	14.7	0.00e+00	0	26	0	571473920	64	4240
2026-01-06 06:52:25.40	69.35	18.47	-49.2	-50.5	14.7	0.00e+00	0	26	0	574619648	64	4227
2026-01-06 06:52:26.39	69.19	18.56	-49.2	-50.5	14.7	0.00e+00	0	26	0	577765376	64	4198
2026-01-06 06:52:27.39	69.02	18.64	-49.2	-50.5	14.7	0.00e+00	0	26	0	580911104	64	4214
2026-01-06 06:52:28.38	68.85	18.73	-49.2	-50.5	14.7	0.00e+00	0	26	0	584056832	64	4198
2026-01-06 06:52:29.38	68.68	18.82	-49.2	-50.4	14.7	0.00e+00	0	26	0	587202560	64	4183
2026-01-06 06:52:30.38	68.50	18.90	-49.1	-50.4	14.7	0.00e+00	0	26	0	590348288	64	4180
2026-01-06 06:52:31.37	68.33	18.99	-49.2	-50.5	14.7	0.00e+00	0	26	0	593494016	64	4201
2026-01-06 06:52:32.36	68.16	19.07	-49.1	-50.4	14.7	0.00e+00	0	26	0	596639744	64	4164
2026-01-06 06:52:33.35	67.98	19.16	-49.1	-50.3	14.7	0.00e+00	0	26	0	599785472	64	4144
2026-01-06 06:52:34.35	67.81	19.25	-49.1	-50.3	14.8	0.00e+00	0	25	0	602931200	64	4125
2026-01-06 06:52:35.34	67.63	19.33	-49.0	-50.3	14.7	0.00e+00	0	26	0	606076928	64	4122
2026-01-06 06:52:36.34	67.45	19.42	-49.1	-50.3	14.7	0.00e+00	0	26	0	609222656	64	4133
2026-01-06 06:52:37.33	67.27	19.51	-49.0	-50.2	14.8	0.00e+00	0	26	0	612368384	64	4077
2026-01-06 06:52:38.32	67.10	19.59	-48.9	-50.2	14.8	0.00e+00	0	26	0	615514112	64	4053
2026-01-06 06:52:39.31	66.92	19.68	-48.9	-50.2	14.8	0.00e+00	0	26	0	618659840	64	4053
2026-01-06 06:52:40.31	66.73	19.77	-48.9	-50.2	14.8	0.00e+00	0	26	0	621805568	64	4053
2026-01-06 06:52:41.30	66.55	19.85	-49.0	-50.3	14.8	0.00e+00	0	26	0	623902720	64	4121
2026-01-06 06:52:42.29	66.37	19.94	-49.0	-50.3	14.7	0.00e+00	0	26	0	627048448	64	4124
2026-01-06 06:52:43.28	66.18	20.02	-49.1	-50.4	14.7	0.00e+00	0	26	0	630194176	64	4149
2026-01-06 06:52:44.27	66.00	20.11	-48.9	-50.1	14.8	0.00e+00	0	26	0	633339904	64	4049
2026-01-06 06:52:45.26	65.81	20.20	-48.8	-50.0	14.9	0.00e+00	0	26	0	636485632	64	3997
2026-01-06 06:52:46.25	65.63	20.28	-48.8	-50.0	14.9	0.00e+00	0	26	0	639631360	64	4000
2026-01-06 06:52:47.25	65.44	20.37	-48.7	-49.9	14.9	0.00e+00	0	26	0	642777088	63	4176
2026-01-06 06:52:48.24	65.25	20.45	-48.8	-50.0	14.8	0.00e+00	0	26	0	645922816	63	4216
2026-01-06 06:52:49.23	65.06	20.54	-48.9	-50.1	14.7	0.00e+00	0	26	0	649068544	63	4268
2026-01-06 06:52:50.22	64.86	20.63	-48.8	-50.0	14.7	0.00e+00	0	26	0	652214272	63	4238
2026-01-06 06:52:51.21	64.67	20.71	-48.8	-50.0	14.8	0.00e+00	0	26	0	655360000	63	4223
2026-01-06 06:52:52.21	64.48	20.80	-48.8	-50.1	14.7	0.00e+00	0	26	0	658505728	63	4268
2026-01-06 06:52:53.21	64.28	20.88	-48.6	-49.9	14.8	0.00e+00	0	26	0	661651456	63	4155
2026-01-06 06:52:54.20	64.08	20.97	-48.5	-49.8	14.8	0.00e+00	0	26	0	664797184	63	4106
2026-01-06 06:52:55.19	63.89	21.06	-48.7	-49.9	14.8	0.00e+00	0	26	0	667942912	63	4162
2026-01-06 06:52:56.17	63.69	21.14	-48.7	-49.9	14.8	0.00e+00	0	26	0	671088640	63	4161
2026-01-06 06:52:57.16	63.49	21.23	-48.8	-50.0	14.8	0.00e+00	0	26	0	674234368	63	4224
2026-01-06 06:52:58.15	63.29	21.31	-48.8	-50.0	14.8	0.00e+00	0	26	0	677380096	63	4232
2026-01-06 06:52:59.15	63.09	21.40	-48.7	-50.0	14.8	0.00e+00	0	26	0	680525824	63	4197
2026-01-06 06:53:00.14	62.88	21.48	-48.7	-49.9	14.8	0.00e+00	0	26	0	683671552	63	4164
2026-01-06 06:53:01.14	62.68	21.57	-48.6	-49.9	14.8	0.00e+00	0	26	0	685768704	63	4153
2026-01-06 06:53:02.14	62.47	21.65	-48.7	-49.9	14.8	0.00e+00	0	26	0	688914432	63	4181
2026-01-06 06:53:03.13	62.27	21.74	-48.6	-49.8	14.8	0.00e+00	0	26	0	692060160	63	4111
2026-01-06 06:53:04.12	62.06	21.82	-48.5	-49.7	14.9	0.00e+00	0	26	0	695205888	63	4089
2026-01-06 06:53:05.11	61.85	21.91	-48.4	-49.6	14.9	0.00e+00	0	26	0	698351616	63	4005
2026-01-06 06:53:06.11	61.64	21.99	-48.4	-49.6	14.9	0.00e+00	0	26	0	701497344	63	4007
2026-01-06 06:53:07.11	61.43	22.08	-48.5	-49.7	14.9	0.00e+00	0	26	0	704643072	63	4056
2026-01-06 06:53:08.10	61.21	22.16	-48.5	-49.7	14.9	0.00e+00	0	26	0	707788800	63	4060
2026-01-06 06:53:09.10	61.00	22.25	-48.5	-49.7	14.9	0.00e+00	0	26	0	710934528	63	4060
2026-01-06 06:53:10.09	60.78	22.33	-48.4	-49.6	14.9	0.00e+00	0	26	0	714080256	63	4031
2026-01-06 06:53:11.08	60.57	22.41	-48.4	-49.6	14.9	0.00e+00	0	26	0	717225984	63	4014
2026-01-06 06:53:12.08	60.35	22.50	-48.2	-49.4	15.0	0.00e+00	0	26	0	720371712	63	3939
2026-01-06 06:53:13.08	60.13	22.58	-48.1	-49.2	14.9	0.00e+00	0	26	0	723517440	62	4095
2026-01-06 06:53:14.07	59.91	22.66	-48.2	-49.4	14.9	0.00e+00	0	26	0	726663168	62	4158
2026-01-06 06:53:15.06	59.69	22.75	-48.3	-49.4	14.8	0.00e+00	0	26	0	729808896	62	4191
2026-01-06 06:53:16.05	59.47	22.83	-48.4	-49.6	14.8	0.00e+00	0	26	0	732954624	62	4262
2026-01-06 06:53:17.05	59.25	22.91	-48.4	-49.6	14.8	0.00e+00	0	26	0	736100352	62	4268
2026-01-06 06:53:18.04	59.02	23.00	-48.4	-49.6	14.8	0.00e+00	0	26	0	739246080	62	4257
2026-01-06 06:53:19.03	58.80	23.08	-48.5	-49.7	14.8	0.00e+00	0	26	0	742391808	62	4324
2026-01-06 06:53:20.03	58.57	23.16	-48.4	-49.6	14.8	0.00e+00	0	26	0	745537536	62	4273
2026-01-06 06:53:21.02	58.34	23.24	-48.4	-49.6	14.8	0.00e+00	0	26	0	748683264	62	4291
2026-01-06 06:53:22.02	58.11	23.32	-48.4	-49.5	14.8	0.00e+00	0	26	0	751828992	62	4232
2026-01-06 06:53:23.01	57.88	23.41	-48.4	-49.6	14.8	0.00e+00	0	26	0	754974720	62	4281
2026-01-06 06:53:24.00	57.65	23.49	-48.4	-49.6	14.8	0.00e+00	0	26	0	758120448	62	4275
2026-01-06 06:53:25.00	57.42	23.57	-48.5	-49.7	14.8	0.00e+00	0	26	0	761266176	62	4334
2026-01-06 06:53:25.99	57.18	23.65	-48.6	-49.9	14.7	0.00e+00	0	26	0	764411904	62	4393
2026-01-06 06:53:26.98	56.95	23.73	-48.7	-49.9	14.7	0.00e+00	0	26	0	767557632	62	4424
2026-01-06 06:53:27.98	56.71	23.81	-48.8	-50.0	14.7	0.00e+00	0	26	0	770703360	62	4463
2026-01-06 06:53:28.97	56.48	23.89	-48.9	-50.2	14.7	0.00e+00	0	26	0	772800512	63	4301
2026-01-06 06:53:29.96	56.24	23.97	-49.0	-50.3	14.7	0.00e+00	0	26	0	775946240	63	4364
2026-01-06 06:53:30.96	56.00	24.05	-49.0	-50.2	14.7	0.00e+00	0	26	0	779091968	63	4333
2026-01-06 06:53:31.95	55.75	24.13	-48.9	-50.2	14.7	0.00e+00	0	26	0	782237696	63	4305
2026-01-06 06:53:32.94	55.51	24.21	-49.0	-50.3	14.7	0.00e+00	0	26	0	785383424	63	4367
2026-01-06 06:53:33.93	55.27	24.28	-49.1	-50.3	14.7	0.00e+00	0	26	0	788529152	63	4370
2026-01-06 06:53:34.93	55.02	24.36	-49.0	-50.3	14.7	0.00e+00	0	26	0	791674880	63	4347
2026-01-06 06:53:35.92	54.78	24.44	-48.9	-50.2	14.7	0.00e+00	0	26	0	794820608	63	4301
2026-01-06 06:53:36.91	54.53	24.52	-49.0	-50.2	14.7	0.00e+00	0	26	0	797966336	63	4331
2026-01-06 06:53:37.91	54.28	24.59	-48.8	-50.1	14.8	0.00e+00	0	26	0	801112064	63	4247
2026-01-06 06:53:38.90	54.03	24.67	-48.8	-50.0	14.8	0.00e+00	0	26	0	804257792	63	4207
2026-01-06 06:53:39.90	53.78	24.75	-48.8	-50.0	14.8	0.00e+00	0	26	0	807403520	63	4233
2026-01-06 06:53:40.89	53.53	24.82	-48.9	-50.1	14.7	0.00e+00	0	26	0	810549248	63	4256
2026-01-06 06:53:41.89	53.27	24.90	-49.0	-50.2	14.7	0.00e+00	0	26	0	813694976	63	4339
2026-01-06 06:53:42.88	53.02	24.97	-49.0	-50.3	14.7	0.00e+00	0	26	0	816840704	63	4342
2026-01-06 06:53:43.88	52.76	25.05	-48.9	-50.2	14.7	0.00e+00	0	26	0	819986432	63	4299
2026-01-06 06:53:44.88	52.50	25.12	-48.8	-50.0	14.8	0.00e+00	0	26	0	823132160	63	4233
2026-01-06 06:53:45.87	52.25	25.20	-48.8	-50.0	14.8	0.00e+00	0	26	0	826277888	63	4226
2026-01-06 06:53:46.87	51.98	25.27	-48.8	-50.1	14.7	0.00e+00	0	26	0	829423616	63	4258
2026-01-06 06:53:47.86	51.72	25.34	-48.9	-50.2	14.7	0.00e+00	0	26	0	832569344	63	4301
2026-01-06 06:53:48.84	51.47	25.41	-49.2	-50.5	14.6	0.00e+00	0	26	0	835715072	63	4455
2026-01-06 06:53:49.84	51.20	25.49	-49.4	-50.7	14.5	0.00e+00	0	26	0	838860800	63	4567
2026-01-06 06:53:50.83	50.94	25.56	-49.3	-50.6	14.6	0.00e+00	0	26	0	842006528	63	4515
2026-01-06 06:53:51.82	50.67	25.63	-49.3	-50.6	14.6	0.00e+00	0	26	0	845152256	63	4522
2026-01-06 06:53:52.81	50.41	25.70	-49.2	-50.5	14.6	0.00e+00	0	26	0	848297984	63	4485
2026-01-06 06:53:53.81	50.14	25.77	-49.3	-50.5	14.6	0.00e+00	0	26	0	851443712	63	4490
2026-01-06 06:53:54.81	49.87	25.84	-49.2	-50.5	14.6	0.00e+00	0	26	0	854589440	63	4446
2026-01-06 06:53:55.80	49.60	25.91	-49.2	-50.5	14.6	0.00e+00	0	26	0	856686592	63	4459
2026-01-06 06:53:56.79	49.33	25.97	-49.2	-50.5	14.6	0.00e+00	0	26	0	859832320	63	4462
2026-01-06 06:53:57.77	49.06	26.04	-49.1	-50.3	14.7	0.00e+00	0	26	0	862978048	63	4374
2026-01-06 06:53:58.76	48.78	26.11	-48.9	-50.1	14.7	0.00e+00	0	26	0	866123776	63	4285
2026-01-06 06:53:59.75	48.51	26.18	-48.8	-50.0	14.8	0.00e+00	0	26	0	869269504	63	4235
2026-01-06 06:54:00.74	48.23	26.24	-48.7	-49.9	14.8	0.00e+00	0	26	0	872415232	63	4185
2026-01-06 06:54:01.73	47.96	26.31	-48.8	-50.0	14.8	0.00e+00	0	26	0	875560960	63	4242
2026-01-06 06:54:02.72	47.68	26.37	-48.7	-50.0	14.8	0.00e+00	0	26	0	878706688	63	4194
2026-01-06 06:54:03.70	47.40	26.43	-48.9	-50.1	14.8	0.00e+00	0	26	0	881852416	63	4274
2026-01-06 06:54:04.69	47.12	26.50	-48.9	-50.2	14.7	0.00e+00	0	26	0	884998144	63	4292
2026-01-06 06:54:05.69	46.84	26.56	-48.9	-50.2	14.7	0.00e+00	0	26	0	888143872	63	4296
2026-01-06 06:54:06.68	46.56	26.62	-49.0	-50.2	14.7	0.00e+00	0	26	0	891289600	63	4325
2026-01-06 06:54:07.67	46.28	26.69	-48.8	-50.1	14.8	0.00e+00	0	26	0	894435328	63	4248
2026-01-06 06:54:08.67	45.99	26.75	-48.8	-50.0	14.8	0.00e+00	0	26	0	897581056	63	4232
2026-01-06 06:54:09.66	45.70	26.81	-48.8	-50.0	14.8	0.00e+00	0	26	0	900726784	63	4242
2026-01-06 06:54:10.66	45.41	26.87	-48.8	-50.0	14.8	0.00e+00	0	26	0	903872512	63	4229
2026-01-06 06:54:11.65	45.13	26.93	-48.7	-50.0	14.8	0.00e+00	0	26	0	907018240	63	4196
2026-01-06 06:54:12.65	44.83	26.99	-48.7	-49.9	14.8	0.00e+00	0	26	0	910163968	63	4181
2026-01-06 06:54:13.64	44.54	27.04	-48.8	-50.1	14.7	0.00e+00	0	26	0	913309696	63	4256
2026-01-06 06:54:14.63	44.25	27.10	-48.9	-50.1	14.7	0.00e+00	0	26	0	916455424	63	4267
2026-01-06 06:54:15.61	43.96	27.16	-48.8	-50.0	14.8	0.00e+00	0	26	0	919601152	63	4206
2026-01-06 06:54:16.61	43.67	27.21	-48.8	-50.0	14.8	0.00e+00	0	26	0	922746880	63	4219
2026-01-06 06:54:17.60	43.38	27.27	-48.7	-49.9	14.8	0.00e+00	0	26	0	924844032	63	4174
2026-01-06 06:54:18.59	43.08	27.32	-48.7	-49.9	14.8	0.00e+00	0	26	0	927989760	63	4187
2026-01-06 06:54:19.59	42.78	27.38	-48.8	-50.1	14.8	0.00e+00	0	26	0	931135488	63	4250
2026-01-06 06:54:20.58	42.48	27.43	-48.8	-50.0	14.8	0.00e+00	0	26	0	934281216	63	4227
2026-01-06 06:54:21.58	42.18	27.48	-48.7	-49.9	14.8	0.00e+00	0	26	0	937426944	63	4191
2026-01-06 06:54:22.58	41.88	27.53	-48.8	-50.0	14.8	0.00e+00	0	26	0	940572672	63	4230
2026-01-06 06:54:23.56	41.59	27.58	-48.7	-50.0	14.8	0.00e+00	0	26	0	943718400	63	4194
2026-01-06 06:54:24.56	41.28	27.63	-48.7	-50.0	14.8	0.00e+00	0	26	0	946864128	63	4196
2026-01-06 06:54:25.55	40.98	27.68	-48.8	-50.0	14.8	0.00e+00	0	26	0	950009856	63	4238
2026-01-06 06:54:26.55	40.67	27.73	-48.9	-50.1	14.7	0.00e+00	0	26	0	953155584	63	4272
2026-01-06 06:54:27.54	40.37	27.78	-49.0	-50.2	14.7	0.00e+00	0	26	0	956301312	63	4326
2026-01-06 06:54:28.53	40.07	27.82	-48.9	-50.1	14.8	0.00e+00	0	26	0	959447040	63	4265
2026-01-06 06:54:29.53	39.76	27.87	-48.8	-50.0	14.8	0.00e+00	0	26	0	962592768	63	4239
2026-01-06 06:54:30.52	39.45	27.91	-48.9	-50.1	14.7	0.00e+00	0	26	0	965738496	63	4258
2026-01-06 06:54:31.52	39.14	27.96	-48.8	-50.1	14.8	0.00e+00	0	26	0	968884224	63	4252
2026-01-06 06:54:32.51	38.83	28.00	-49.0	-50.2	14.7	0.00e+00	0	26	0	972029952	63	4327
2026-01-06 06:54:33.50	38.53	28.04	-48.9	-50.2	14.7	0.00e+00	0	26	0	975175680	63	4299
2026-01-06 06:54:34.48	38.22	28.08	-48.9	-50.1	14.8	0.00e+00	0	26	0	978321408	63	4265
2026-01-06 06:54:35.48	37.91	28.12	-48.9	-50.1	14.8	0.00e+00	0	26	0	981467136	63	4267
2026-01-06 06:54:36.47	37.60	28.16	-48.8	-50.0	14.8	0.00e+00	0	26	0	984612864	63	4226
2026-01-06 06:54:37.46	37.28	28.20	-48.7	-49.9	14.8	0.00e+00	0	26	0	987758592	63	4150
2026-01-06 06:54:38.45	36.97	28.24	-48.7	-49.9	14.8	0.00e+00	0	26	0	990904320	63	4159
2026-01-06 06:54:39.45	36.66	28.28	-48.7	-49.9	14.8	0.00e+00	0	26	0	993001472	63	4179
2026-01-06 06:54:40.44	36.34	28.31	-48.7	-49.9	14.8	0.00e+00	0	26	0	996147200	63	4188
2026-01-06 06:54:41.43	36.03	28.35	-48.8	-50.0	14.8	0.00e+00	0	26	0	999292928	63	4225
2026-01-06 06:54:42.43	35.71	28.38	-48.9	-50.1	14.8	0.00e+00	0	26	0	1002438656	63	4249
2026-01-06 06:54:43.41	35.40	28.42	-48.7	-49.9	14.8	0.00e+00	0	26	0	1005584384	63	4170
2026-01-06 06:54:44.40	35.08	28.45	-48.8	-50.0	14.8	0.00e+00	0	26	0	1008730112	63	4204
2026-01-06 06:54:45.39	34.76	28.48	-48.8	-50.0	14.8	0.00e+00	0	26	0	1011875840	63	4211
2026-01-06 06:54:46.38	34.44	28.51	-49.1	-50.3	14.7	0.00e+00	0	26	0	1015021568	63	4373
2026-01-06 06:54:47.37	34.13	28.54	-49.1	-50.4	14.7	0.00e+00	0	26	0	1018167296	63	4398
2026-01-06 06:54:48.36	33.81	28.57	-49.1	-50.3	14.7	0.00e+00	0	26	0	1021313024	63	4369
2026-01-06 06:54:49.36	33.48	28.59	-49.0	-50.3	14.7	0.00e+00	0	26	0	1024458752	63	4353
2026-01-06 06:54:50.34	33.17	28.62	-49.2	-50.5	14.6	0.00e+00	0	26	0	1027604480	63	4446
2026-01-06 06:54:51.33	32.85	28.65	-49.1	-50.4	14.7	0.00e+00	0	26	0	1030750208	63	4394
2026-01-06 06:54:52.32	32.52	28.67	-49.1	-50.3	14.7	0.00e+00	0	26	0	1033895936	63	4389
2026-01-06 06:54:53.32	32.20	28.69	-49.1	-50.4	14.7	0.00e+00	0	26	0	1037041664	63	4406
2026-01-06 06:54:54.31	31.88	28.72	-49.2	-50.5	14.6	0.00e+00	0	26	0	1040187392	63	4465
2026-01-06 06:54:55.31	31.55	28.74	-49.2	-50.5	14.6	0.00e+00	0	26	0	1043333120	63	4463
2026-01-06 06:54:56.30	31.23	28.76	-49.3	-50.5	14.6	0.00e+00	0	26	0	1046478848	63	4485
2026-01-06 06:54:57.30	30.90	28.78	-49.1	-50.3	14.7	0.00e+00	0	26	0	1049624576	63	4378
2026-01-06 06:54:58.29	30.58	28.80	-49.1	-50.4	14.7	0.00e+00	0	26	0	1052770304	63	4400
2026-01-06 06:54:59.28	30.25	28.81	-49.1	-50.4	14.7	0.00e+00	0	26	0	1055916032	63	4412
2026-01-06 06:55:00.28	29.93	28.83	-49.2	-50.4	14.7	0.00e+00	0	26	0	1059061760	63	4440
2026-01-06 06:55:01.27	29.60	28.85	-49.1	-50.3	14.7	0.00e+00	0	26	0	1062207488	63	4390
2026-01-06 06:55:02.25	29.28	28.86	-49.0	-50.2	14.7	0.00e+00	0	26	0	1065353216	63	4334
2026-01-06 06:55:03.24	28.96	28.87	-48.8	-50.0	14.8	0.00e+00	0	26	0	1067450368	63	4210
2026-01-06 06:55:04.23	28.63	28.89	-48.8	-50.0	14.8	0.00e+00	0	26	0	1070596096	63	4238
2026-01-06 06:55:05.23	28.30	28.90	-48.8	-50.0	14.8	0.00e+00	0	26	0	1073741824	63	4219
2026-01-06 06:55:06.21	27.98	28.91	-48.9	-50.2	14.7	0.00e+00	0	26	0	1076887552	63	4301
2026-01-06 06:55:07.20	27.65	28.92	-49.0	-50.2	14.7	0.00e+00	0	26	0	1080033280	63	4324
2026-01-06 06:55:08.19	27.33	28.92	-49.1	-50.3	14.7	0.00e+00	0	26	0	1083179008	63	4389
2026-01-06 06:55:09.18	27.00	28.93	-49.1	-50.4	14.6	0.00e+00	0	26	0	1086324736	63	4413
2026-01-06 06:55:10.18	26.67	28.94	-49.3	-50.6	14.6	0.00e+00	0	26	0	1089470464	63	4496
2026-01-06 06:55:11.17	26.34	28.94	-49.2	-50.4	14.7	0.00e+00	0	26	0	1092616192	63	4437
2026-01-06 06:55:12.16	26.02	28.95	-49.2	-50.4	14.6	0.00e+00	0	26	0	1095761920	63	4430
2026-01-06 06:55:13.16	25.69	28.95	-49.1	-50.3	14.7	0.00e+00	0	26	0	1098907648	63	4368
2026-01-06 06:55:14.14	25.36	28.95	-49.1	-50.3	14.7	0.00e+00	0	26	0	1102053376	63	4388
2026-01-06 06:55:15.14	25.03	28.95	-48.9	-50.1	14.8	0.00e+00	0	26	0	1105199104	63	4281
2026-01-06 06:55:16.14	24.70	28.95	-48.9	-50.1	14.8	0.00e+00	0	26	0	1108344832	63	4271
2026-01-06 06:55:17.12	24.38	28.95	-49.0	-50.3	14.7	0.00e+00	0	26	0	1111490560	63	4349
2026-01-06 06:55:18.11	24.05	28.95	-49.1	-50.3	14.7	0.00e+00	0	26	0	1114636288	63	4382
2026-01-06 06:55:19.11	23.72	28.95	-49.1	-50.4	14.7	0.00e+00	0	26	0	1117782016	63	4401
2026-01-06 06:55:20.10	23.39	28.94	-49.1	-50.3	14.7	0.00e+00	0	26	0	1120927744	63	4384
2026-01-06 06:55:21.10	23.06	28.94	-49.0	-50.3	14.7	0.00e+00	0	26	0	1124073472	63	4341
2026-01-06 06:55:22.10	22.73	28.93	-48.9	-50.1	14.7	0.00e+00	0	26	0	1127219200	63	4280
2026-01-06 06:55:23.09	22.41	28.92	-49.0	-50.3	14.7	0.00e+00	0	26	0	1130364928	63	4358
2026-01-06 06:55:24.09	22.08	28.91	-48.9	-50.2	14.7	0.00e+00	0	26	0	1133510656	63	4297
2026-01-06 06:55:25.09	21.75	28.90	-49.1	-50.4	14.7	0.00e+00	0	26	0	1135607808	63	4402
2026-01-06 06:55:26.09	21.42	28.89	-49.0	-50.2	14.7	0.00e+00	0	26	0	1138753536	63	4326
2026-01-06 06:55:27.08	21.09	28.88	-48.9	-50.1	14.7	0.00e+00	0	26	0	1141899264	63	4266
2026-01-06 06:55:28.07	20.77	28.87	-48.9	-50.1	14.8	0.00e+00	0	26	0	1145044992	63	4265
2026-01-06 06:55:29.06	20.44	28.85	-48.7	-49.9	14.8	0.00e+00	0	26	0	1148190720	63	4186
2026-01-06 06:55:30.04	20.12	28.84	-48.7	-49.9	14.8	0.00e+00	0	26	0	1151336448	63	4147
2026-01-06 06:55:31.02	19.80	28.82	-48.7	-49.9	14.8	0.00e+00	0	26	0	1154482176	63	4185
2026-01-06 06:55:32.01	19.48	28.81	-48.7	-49.9	14.8	0.00e+00	0	26	0	1157627904	63	4163
2026-01-06 06:55:33.00	19.15	28.79	-48.7	-49.9	14.8	0.00e+00	0	26	0	1160773632	63	4162
2026-01-06 06:55:33.99	18.83	28.77	-48.6	-49.8	14.9	0.00e+00	0	26	0	1163919360	63	4104
2026-01-06 06:55:34.98	18.51	28.75	-48.7	-49.9	14.8	0.00e+00	0	26	0	1167065088	63	4182
2026-01-06 06:55:35.97	18.18	28.73	-48.6	-49.8	14.9	0.00e+00	0	26	0	1170210816	63	4134
2026-01-06 06:55:36.97	17.86	28.71	-48.5	-49.7	14.9	0.00e+00	0	26	0	1173356544	63	4084
2026-01-06 06:55:37.95	17.54	28.69	-48.6	-49.8	14.9	0.00e+00	0	26	0	1176502272	63	4111
2026-01-06 06:55:38.94	17.22	28.66	-48.7	-49.9	14.8	0.00e+00	0	26	0	1179648000	63	4172
2026-01-06 06:55:39.94	16.89	28.64	-48.8	-50.1	14.8	0.00e+00	0	26	0	1182793728	63	4243
2026-01-06 06:55:40.93	16.57	28.61	-49.0	-50.3	14.7	0.00e+00	0	26	0	1185939456	63	4341
2026-01-06 06:55:41.92	16.25	28.58	-49.0	-50.3	14.7	0.00e+00	0	26	0	1189085184	63	4350
2026-01-06 06:55:42.91	15.93	28.56	-49.1	-50.4	14.7	0.00e+00	0	26	0	1192230912	63	4399
2026-01-06 06:55:43.90	15.62	28.53	-49.2	-50.5	14.6	0.00e+00	0	26	0	1195376640	63	4461
2026-01-06 06:55:44.89	15.30	28.50	-49.2	-50.5	14.6	0.00e+00	0	26	0	1198522368	63	4459
2026-01-06 06:55:45.88	14.98	28.47	-49.2	-50.4	14.6	0.00e+00	0	26	0	1200619520	63	4439
2026-01-06 06:55:46.88	14.66	28.44	-49.0	-50.3	14.7	0.00e+00	0	26	0	1203765248	63	4341
2026-01-06 06:55:47.87	14.34	28.40	-49.0	-50.2	14.7	0.00e+00	0	26	0	1206910976	63	4329
2026-01-06 06:55:48.86	14.03	28.37	-48.9	-50.1	14.7	0.00e+00	0	26	0	1210056704	63	4285
2026-01-06 06:55:49.85	13.71	28.34	-48.9	-50.1	14.8	0.00e+00	0	26	0	1213202432	63	4244
2026-01-06 06:55:50.84	13.40	28.30	-48.7	-49.9	14.8	0.00e+00	0	26	0	1216348160	63	4183
2026-01-06 06:55:51.84	13.08	28.26	-48.8	-50.0	14.8	0.00e+00	0	26	0	1219493888	63	4234
2026-01-06 06:55:52.83	12.77	28.23	-49.0	-50.2	14.7	0.00e+00	0	26	0	1222639616	63	4312
2026-01-06 06:55:53.82	12.46	28.19	-49.0	-50.3	14.7	0.00e+00	0	26	0	1225785344	63	4341
2026-01-06 06:55:54.81	12.15	28.15	-49.1	-50.3	14.7	0.00e+00	0	26	0	1228931072	63	4375
2026-01-06 06:55:55.80	11.84	28.11	-49.1	-50.3	14.7	0.00e+00	0	26	0	1232076800	63	4378
2026-01-06 06:55:56.79	11.53	28.07	-49.1	-50.3	14.7	0.00e+00	0	26	0	1235222528	63	4362
2026-01-06 06:55:57.78	11.22	28.03	-49.1	-50.3	14.7	0.00e+00	0	26	0	1238368256	63	4389
2026-01-06 06:55:58.76	10.91	27.99	-49.0	-50.2	14.7	0.00e+00	0	26	0	1241513984	63	4324
2026-01-06 06:55:59.75	10.61	27.94	-48.9	-50.1	14.8	0.00e+00	0	26	0	1244659712	63	4288
2026-01-06 06:56:00.74	10.30	27.90	-49.0	-50.3	14.7	0.00e+00	0	26	0	1247805440	63	4342
2026-01-06 06:56:01.73	9.99	27.85	-49.0	-50.2	14.7	0.00e+00	0	26	0	1250951168	63	4311
2026-01-06 06:56:02.73	9.69	27.81	-48.9	-50.1	14.7	0.00e+00	0	26	0	1254096896	63	4288
2026-01-06 06:56:03.72	9.38	27.76	-49.0	-50.3	14.7	0.00e+00	0	26	0	1257242624	63	4354
2026-01-06 06:56:04.71	9.08	27.71	-49.0	-50.2	14.7	0.00e+00	0	26	0	1260388352	63	4338
2026-01-06 06:56:05.71	8.78	27.66	-48.9	-50.1	14.8	0.00e+00	0	26	0	1263534080	63	4278
2026-01-06 06:56:06.70	8.47	27.62	-48.9	-50.2	14.7	0.00e+00	0	26	0	1265631232	63	4301
2026-01-06 06:56:07.69	8.17	27.57	-48.9	-50.2	14.7	0.00e+00	0	26	0	1268776960	63	4302
2026-01-06 06:56:08.69	7.87	27.52	-49.1	-50.3	14.7	0.00e+00	0	26	0	1271922688	63	4391
2026-01-06 06:56:09.68	7.57	27.46	-49.1	-50.3	14.7	0.00e+00	0	26	0	1275068416	63	4373
2026-01-06 06:56:10.67	7.28	27.41	-49.2	-50.4	14.6	0.00e+00	0	26	0	1278214144	63	4439
2026-01-06 06:56:11.67	6.98	27.36	-49.3	-50.6	14.6	0.00e+00	0	26	0	1281359872	63	4505
2026-01-06 06:56:12.66	6.68	27.30	-49.4	-50.6	14.6	0.00e+00	0	26	0	1284505600	63	4542
2026-01-06 06:56:13.65	6.39	27.25	-49.4	-50.6	14.6	0.00e+00	0	26	0	1287651328	63	4542
2026-01-06 06:56:14.64	6.10	27.20	-49.4	-50.6	14.6	0.00e+00	0	26	0	1290797056	63	4528
2026-01-06 06:56:15.63	5.80	27.14	-49.3	-50.5	14.6	0.00e+00	0	26	0	1293942784	63	4490
2026-01-06 06:56:16.63	5.51	27.08	-49.2	-50.4	14.6	0.00e+00	0	26	0	1297088512	63	4440
2026-01-06 06:56:17.62	5.22	27.03	-49.2	-50.4	14.6	0.00e+00	0	26	0	1300234240	63	4426
2026-01-06 06:56:18.61	4.93	26.97	-49.2	-50.4	14.7	0.00e+00	0	26	0	1303379968	63	4441
2026-01-06 06:56:19.61	4.64	26.91	-49.3	-50.5	14.6	0.00e+00	0	26	0	1306525696	63	4482
2026-01-06 06:56:20.60	4.35	26.85	-49.3	-50.6	14.6	0.00e+00	0	26	0	1309671424	63	4495
2026-01-06 06:56:21.59	4.07	26.79	-49.3	-50.6	14.6	0.00e+00	0	26	0	1312817152	63	4535
2026-01-06 06:56:22.58	3.78	26.73	-49.3	-50.6	14.6	0.00e+00	0	26	0	1315962880	63	4496
2026-01-06 06:56:23.58	3.50	26.67	-49.0	-50.2	14.7	0.00e+00	0	26	0	1319108608	63	4309
2026-01-06 06:56:24.58	3.21	26.60	-48.8	-50.0	14.8	0.00e+00	0	26	0	1322254336	63	4233
2026-01-06 06:56:25.57	2.93	26.54	-48.7	-49.9	14.8	0.00e+00	0	26	0	1325400064	63	4171
2026-01-06 06:56:26.56	2.65	26.48	-48.7	-49.9	14.8	0.00e+00	0	26	0	1328545792	63	4180
2026-01-06 06:56:27.55	2.37	26.42	-48.6	-49.8	14.9	0.00e+00	0	26	0	1331691520	63	4116
2026-01-06 06:56:28.54	2.09	26.35	-48.7	-49.9	14.8	0.00e+00	0	26	0	1334837248	63	4179
2026-01-06 06:56:29.53	1.82	26.29	-49.0	-50.2	14.7	0.00e+00	0	26	0	1337982976	63	4308
2026-01-06 06:56:30.53	1.54	26.22	-49.2	-50.5	14.6	0.00e+00	0	26	0	1341128704	63	4455
2026-01-06 06:56:31.52	1.26	26.15	-49.4	-50.7	14.6	0.00e+00	0	26	0	1344274432	63	4548
2026-01-06 06:56:32.52	0.99	26.09	-49.3	-50.5	14.6	0.00e+00	0	26	0	1347420160	63	4485
2026-01-06 06:56:33.52	0.71	26.02	-49.1	-50.3	14.7	0.00e+00	0	26	0	1349517312	63	4366
2026-01-06 06:56:34.51	0.44	25.95	-48.9	-50.1	14.8	0.00e+00	0	26	0	1352663040	63	4268
2026-01-06 06:56:35.50	0.17	25.88	-48.8	-50.0	14.8	0.00e+00	0	26	0	1355808768	63	4206
2026-01-06 06:56:36.50	359.90	25.81	-48.7	-49.9	14.8	0.00e+00	0	26	0	1358954496	63	4153
2026-01-06 06:56:37.49	359.63	25.74	-48.3	-49.4	15.0	0.00e+00	0	26	0	1362100224	63	3952
2026-01-06 06:56:38.48	359.37	25.67	-48.3	-49.5	15.0	0.00e+00	0	26	0	1365245952	63	3961
2026-01-06 06:56:39.47	359.10	25.60	-48.7	-49.9	14.9	0.00e+00	0	26	0	1368391680	63	4149
2026-01-06 06:56:40.47	358.84	25.53	-49.0	-50.2	14.7	0.00e+00	0	26	0	1371537408	63	4312
2026-01-06 06:56:41.47	358.57	25.46	-49.1	-50.4	14.7	0.00e+00	0	26	0	1374683136	63	4423
2026-01-06 06:56:42.46	358.31	25.39	-49.2	-50.5	14.6	0.00e+00	0	26	0	1377828864	63	4460
2026-01-06 06:56:43.45	358.05	25.32	-49.3	-50.5	14.6	0.00e+00	0	26	0	1380974592	63	4493
2026-01-06 06:56:44.45	357.79	25.24	-49.2	-50.5	14.6	0.00e+00	0	26	0	1384120320	63	4455
2026-01-06 06:56:45.44	357.53	25.17	-49.3	-50.5	14.6	0.00e+00	0	26	0	1387266048	63	4491
2026-01-06 06:56:46.43	357.27	25.10	-49.1	-50.3	14.7	0.00e+00	0	26	0	1390411776	63	4389
2026-01-06 06:56:47.43	357.01	25.02	-49.1	-50.3	14.7	0.00e+00	0	26	0	1393557504	63	4375
2026-01-06 06:56:48.42	356.76	24.95	-49.0	-50.2	14.7	0.00e+00	0	26	0	1396703232	63	4311
2026-01-06 06:56:49.42	356.50	24.87	-49.0	-50.3	14.7	0.00e+00	0	26	0	1399848960	63	4350
2026-01-06 06:56:50.42	356.25	24.80	-49.1	-50.3	14.7	0.00e+00	0	26	0	1402994688	63	4385
2026-01-06 06:56:51.41	356.00	24.72	-49.0	-50.3	14.7	0.00e+00	0	26	0	1406140416	63	4343
2026-01-06 06:56:52.41	355.75	24.64	-49.1	-50.3	14.6	0.00e+00	0	26	0	1409286144	63	4386
2026-01-06 06:56:53.41	355.50	24.57	-48.6	-49.8	14.8	0.00e+00	0	26	0	1412431872	63	4141
2026-01-06 06:56:54.40	355.25	24.49	-48.4	-49.5	14.9	0.00e+00	0	26	0	1415577600	63	4003
2026-01-06 06:56:55.40	355.00	24.41	-48.4	-49.6	14.9	0.00e+00	0	26	0	1418723328	63	4024
2026-01-06 06:56:56.39	354.76	24.34	-48.3	-49.5	15.0	0.00e+00	0	26	0	1421869056	63	3982
2026-01-06 06:56:57.39	354.51	24.26	-48.2	-49.4	15.0	0.00e+00	0	26	0	1425014784	63	3934
2026-01-06 06:56:58.38	354.27	24.18	-48.3	-49.5	15.0	0.00e+00	0	26	0	1428160512	63	3977
2026-01-06 06:56:59.37	354.03	24.10	-48.5	-49.7	14.9	0.00e+00	0	26	0	1431306240	63	4057
2026-01-06 06:57:00.37	353.79	24.02	-48.6	-49.7	14.9	0.00e+00	0	26	0	1434451968	63	4089
2026-01-06 06:57:01.36	353.55	23.94	-48.5	-49.7	14.9	0.00e+00	0	26	0	1436549120	63	4063
2026-01-06 06:57:02.36	353.31	23.86	-48.5	-49.6	14.9	0.00e+00	0	26	0	1439694848	63	4041
2026-01-06 06:57:03.36	353.07	23.78	-48.5	-49.7	14.9	0.00e+00	0	26	0	1442840576	63	4054
2026-01-06 06:57:04.35	352.84	23.70	-48.5	-49.7	14.9	0.00e+00	0	26	0	1445986304	63	4063
2026-01-06 06:57:05.35	352.60	23.62	-48.4	-49.6	14.9	0.00e+00	0	26	0	1449132032	63	4011
2026-01-06 06:57:06.35	352.37	23.54	-48.5	-49.7	14.9	0.00e+00	0	26	0	1452277760	63	4066
2026-01-06 06:57:07.35	352.13	23.46	-48.5	-49.7	14.9	0.00e+00	0	26	0	1455423488	63	4058
2026-01-06 06:57:08.34	351.90	23.38	-48.5	-49.7	14.9	0.00e+00	0	26	0	1458569216	63	4056
2026-01-06 06:57:09.33	351.68	23.30	-48.6	-49.8	14.9	0.00e+00	0	26	0	1461714944	63	4109
2026-01-06 06:57:10.32	351.45	23.22	-48.7	-49.9	14.8	0.00e+00	0	26	0	1464860672	63	4188
2026-01-06 06:57:11.31	351.22	23.13	-48.6	-49.8	14.8	0.00e+00	0	26	0	1468006400	63	4139
2026-01-06 06:57:12.29	351.00	23.05	-48.6	-49.8	14.8	0.00e+00	0	26	0	1471152128	63	4133
2026-01-06 06:57:13.28	350.78	22.97	-48.5	-49.7	14.9	0.00e+00	0	26	0	1474297856	63	4068
2026-01-06 06:57:14.27	350.55	22.89	-48.4	-49.6	14.9	0.00e+00	0	26	0	1477443584	63	4028
2026-01-06 06:57:15.26	350.33	22.81	-48.5	-49.7	14.9	0.00e+00	0	26	0	1480589312	63	4076
2026-01-06 06:57:16.26	350.11	22.72	-48.6	-49.8	14.8	0.00e+00	0	26	0	1483735040	63	4131
2026-01-06 06:57:17.25	349.89	22.64	-48.6	-49.8	14.8	0.00e+00	0	26	0	1486880768	63	4135
2026-01-06 06:57:18.24	349.67	22.56	-48.7	-49.9	14.8	0.00e+00	0	26	0	1490026496	63	4156
2026-01-06 06:57:19.23	349.45	22.47	-48.8	-50.0	14.8	0.00e+00	0	26	0	1493172224	63	4224
2026-01-06 06:57:20.23	349.24	22.39	-48.8	-50.0	14.8	0.00e+00	0	26	0	1496317952	63	4218
2026-01-06 06:57:21.22	349.02	22.31	-48.8	-50.0	14.8	0.00e+00	0	26	0	1499463680	63	4216
2026-01-06 06:57:22.21	348.81	22.22	-48.7	-49.9	14.8	0.00e+00	0	26	0	1502609408	63	4181
2026-01-06 06:57:23.20	348.60	22.14	-48.5	-49.7	14.9	0.00e+00	0	26	0	1504706560	63	4086
2026-01-06 06:57:24.18	348.39	22.06	-48.5	-49.7	14.9	0.00e+00	0	26	0	1507852288	63	4072
2026-01-06 06:57:25.17	348.18	21.97	-48.6	-49.7	14.9	0.00e+00	0	26	0	1510998016	63	4092
2026-01-06 06:57:26.17	347.97	21.89	-48.5	-49.7	14.9	0.00e+00	0	26	0	1514143744	63	4062
2026-01-06 06:57:27.16	347.76	21.80	-48.6	-49.8	14.8	0.00e+00	0	26	0	1517289472	63	4135
2026-01-06 06:57:28.15	347.55	21.72	-48.7	-49.9	14.8	0.00e+00	0	26	0	1520435200	63	4159
2026-01-06 06:57:29.14	347.35	21.63	-48.7	-49.9	14.8	0.00e+00	0	26	0	1523580928	63	4169
2026-01-06 06:57:30.14	347.14	21.55	-48.8	-50.1	14.7	0.00e+00	0	26	0	1526726656	63	4247
2026-01-06 06:57:31.13	346.94	21.46	-49.0	-50.2	14.7	0.00e+00	0	26	0	1529872384	63	4318
2026-01-06 06:57:32.12	346.74	21.38	-49.0	-50.3	14.7	0.00e+00	0	26	0	1533018112	63	4358
2026-01-06 06:57:33.11	346.54	21.29	-49.1	-50.4	14.6	0.00e+00	0	26	0	1536163840	63	4408
2026-01-06 06:57:34.11	346.34	21.21	-49.2	-50.5	14.6	0.00e+00	0	26	0	1539309568	63	4458
2026-01-06 06:57:35.09	346.14	21.12	-49.2	-50.5	14.6	0.00e+00	0	26	0	1542455296	63	4463
2026-01-06 06:57:36.08	345.94	21.04	-49.2	-50.5	14.6	0.00e+00	0	26	0	1545601024	63	4451
2026-01-06 06:57:37.07	345.75	20.95	-49.2	-50.4	14.6	0.00e+00	0	26	0	1548746752	63	4419
2026-01-06 06:57:38.06	345.55	20.87	-49.1	-50.4	14.6	0.00e+00	0	26	0	1551892480	63	4402
2026-01-06 06:57:39.05	345.36	20.78	-49.2	-50.5	14.6	0.00e+00	0	26	0	1555038208	63	4443
2026-01-06 06:57:40.04	345.17	20.70	-49.1	-50.4	14.6	0.00e+00	0	26	0	1558183936	63	4404
2026-01-06 06:57:41.03	344.97	20.61	-49.2	-50.5	14.6	0.00e+00	0	26	0	1561329664	63	4461
2026-01-06 06:57:42.03	344.78	20.52	-49.1	-50.4	14.6	0.00e+00	0	26	0	1564475392	63	4392
2026-01-06 06:57:43.02	344.59	20.44	-49.1	-50.4	14.7	0.00e+00	0	26	0	1567621120	63	4402
2026-01-06 06:57:44.00	344.40	20.35	-49.2	-50.4	14.6	0.00e+00	0	26	0	1570766848	63	4436
2026-01-06 06:57:44.99	344.22	20.27	-49.0	-50.3	14.7	0.00e+00	0	26	0	1572864000	63	4352
2026-01-06 06:57:45.98	344.03	20.18	-48.9	-50.1	14.7	0.00e+00	0	26	0	1576009728	63	4255
2026-01-06 06:57:46.97	343.85	20.10	-48.8	-50.0	14.8	0.00e+00	0	26	0	1579155456	63	4228
2026-01-06 06:57:47.95	343.66	20.01	-48.8	-50.0	14.8	0.00e+00	0	26	0	1582301184	63	4242
2026-01-06 06:57:48.95	343.48	19.92	-48.8	-50.0	14.8	0.00e+00	0	26	0	1585446912	63	4240
2026-01-06 06:57:49.94	343.30	19.84	-48.8	-50.1	14.7	0.00e+00	0	26	0	1588592640	63	4247
2026-01-06 06:57:50.93	343.11	19.75	-48.9	-50.2	14.7	0.00e+00	0	26	0	1591738368	63	4304
2026-01-06 06:57:51.92	342.93	19.67	-48.8	-50.0	14.8	0.00e+00	0	26	0	1594884096	63	4222
2026-01-06 06:57:52.92	342.75	19.58	-48.8	-50.0	14.8	0.00e+00	0	26	0	1598029824	63	4208
2026-01-06 06:57:53.91	342.57	19.49	-48.8	-50.1	14.7	0.00e+00	0	26	0	1601175552	63	4246
2026-01-06 06:57:54.91	342.40	19.41	-48.9	-50.1	14.7	0.00e+00	0	26	0	1604321280	63	4272
2026-01-06 06:57:55.90	342.22	19.32	-48.8	-50.0	14.8	0.00e+00	0	26	0	1607467008	63	4232
2026-01-06 06:57:56.89	342.04	19.24	-48.8	-50.0	14.8	0.00e+00	0	26	0	1610612736	63	4234
2026-01-06 06:57:57.88	341.87	19.15	-48.9	-50.1	14.7	0.00e+00	0	26	0	1613758464	63	4260
2026-01-06 06:57:58.87	341.70	19.06	-48.9	-50.2	14.7	0.00e+00	0	26	0	1616904192	63	4292
2026-01-06 06:57:59.86	341.53	18.98	-48.9	-50.1	14.7	0.00e+00	0	26	0	1620049920	63	4278
2026-01-06 06:58:00.84	341.36	18.89	-49.0	-50.2	14.7	0.00e+00	0	26	0	1623195648	63	4334
2026-01-06 06:58:01.83	341.19	18.81	-49.0	-50.3	14.7	0.00e+00	0	26	0	1626341376	63	4352
2026-01-06 06:58:02.82	341.02	18.72	-49.1	-50.3	14.6	0.00e+00	0	26	0	1629487104	63	4375
2026-01-06 06:58:03.81	340.85	18.64	-49.0	-50.3	14.6	0.00e+00	0	26	0	1632632832	63	4361
2026-01-06 06:58:04.80	340.68	18.55	-48.9	-50.2	14.7	0.00e+00	0	26	0	1635778560	63	4310
2026-01-06 06:58:05.80	340.51	18.46	-49.0	-50.2	14.7	0.00e+00	0	26	0	1637875712	63	4320
2026-01-06 06:58:06.79	340.35	18.38	-48.9	-50.2	14.7	0.00e+00	0	26	0	1641021440	63	4306
2026-01-06 06:58:07.79	340.18	18.29	-48.9	-50.2	14.7	0.00e+00	0	26	0	1644167168	63	4307
2026-01-06 06:58:08.78	340.02	18.21	-49.1	-50.3	14.6	0.00e+00	0	26	0	1647312896	63	4370
2026-01-06 06:58:09.78	339.85	18.12	-49.1	-50.3	14.6	0.00e+00	0	26	0	1650458624	63	4386
2026-01-06 06:58:10.77	339.69	18.03	-49.3	-50.6	14.6	0.00e+00	0	26	0	1653604352	63	4509
2026-01-06 06:58:11.76	339.53	17.95	-49.4	-50.7	14.5	0.00e+00	0	26	0	1656750080	63	4577
2026-01-06 06:58:12.74	339.37	17.87	-49.5	-50.8	14.6	0.00e+00	0	26	0	1659895808	64	4390
2026-01-06 06:58:13.73	339.21	17.78	-49.5	-50.9	14.5	0.00e+00	0	26	0	1663041536	64	4400
2026-01-06 06:58:14.73	339.06	17.69	-49.6	-51.0	14.5	0.00e+00	0	26	0	1666187264	64	4450
2026-01-06 06:58:15.73	338.90	17.61	-49.7	-51.0	14.5	0.00e+00	0	26	0	1669332992	64	4465
2026-01-06 06:58:16.71	338.74	17.52	-49.7	-51.0	14.5	0.00e+00	0	26	0	1672478720	64	4482
2026-01-06 06:58:17.70	338.59	17.44	-49.6	-50.9	14.5	0.00e+00	0	26	0	1675624448	64	4421
2026-01-06 06:58:18.70	338.43	17.35	-49.5	-50.8	14.5	0.00e+00	0	26	0	1678770176	64	4386
2026-01-06 06:58:19.69	338.28	17.27	-49.4	-50.7	14.6	0.00e+00	0	26	0	1681915904	64	4318
2026-01-06 06:58:20.67	338.13	17.19	-49.3	-50.5	14.6	0.00e+00	0	26	0	1685061632	64	4238
2026-01-06 06:58:21.66	337.97	17.10	-49.1	-50.4	14.7	0.00e+00	0	26	0	1688207360	64	4158
2026-01-06 06:58:22.64	337.83	17.02	-49.1	-50.3	14.7	0.00e+00	0	26	0	1691353088	64	4119
2026-01-06 06:58:23.63	337.68	16.93	-49.1	-50.3	14.7	0.00e+00	0	26	0	1694498816	64	4131
2026-01-06 06:58:24.62	337.53	16.85	-49.1	-50.4	14.7	0.00e+00	0	26	0	1697644544	64	4152
2026-01-06 06:58:25.61	337.38	16.76	-49.1	-50.4	14.7	0.00e+00	0	26	0	1700790272	64	4165
2026-01-06 06:58:26.59	337.23	16.68	-49.2	-50.5	14.7	0.00e+00	0	26	0	1702887424	64	4207
2026-01-06 06:58:27.59	337.08	16.60	-49.4	-50.7	14.6	0.00e+00	0	26	0	1706033152	64	4328
2026-01-06 06:58:28.58	336.94	16.51	-49.5	-50.8	14.5	0.00e+00	0	26	0	1709178880	64	4386
2026-01-06 06:58:29.58	336.79	16.43	-49.6	-51.0	14.5	0.00e+00	0	26	0	1712324608	64	4446
2026-01-06 06:58:30.57	336.65	16.34	-49.6	-50.9	14.5	0.00e+00	0	26	0	1715470336	64	4439
2026-01-06 06:58:31.56	336.50	16.26	-49.7	-51.0	14.5	0.00e+00	0	26	0	1718616064	64	4459
2026-01-06 06:58:32.55	336.36	16.18	-49.5	-50.8	14.6	0.00e+00	0	26	0	1721761792	64	4363
2026-01-06 06:58:33.55	336.22	16.09	-49.5	-50.8	14.5	0.00e+00	0	26	0	1724907520	64	4368
2026-01-06 06:58:34.53	336.08	16.01	-49.4	-50.7	14.6	0.00e+00	0	26	0	1728053248	64	4328
2026-01-06 06:58:35.52	335.94	15.93	-49.4	-50.7	14.6	0.00e+00	0	26	0	1731198976	64	4325
2026-01-06 06:58:36.51	335.80	15.84	-49.1	-50.4	14.7	0.00e+00	0	26	0	1734344704	64	4146
2026-01-06 06:58:37.51	335.66	15.76	-49.0	-50.3	14.8	0.00e+00	0	26	0	1737490432	64	4100
2026-01-06 06:58:38.50	335.52	15.68	-49.0	-50.2	14.8	0.00e+00	0	26	0	1740636160	64	4066
2026-01-06 06:58:39.49	335.39	15.59	-49.1	-50.3	14.7	0.00e+00	0	26	0	1743781888	64	4135
2026-01-06 06:58:40.49	335.25	15.51	-49.2	-50.5	14.6	0.00e+00	0	26	0	1746927616	64	4209
2026-01-06 06:58:41.49	335.11	15.43	-49.3	-50.6	14.6	0.00e+00	0	26	0	1750073344	64	4270
2026-01-06 06:58:42.47	334.98	15.35	-49.5	-50.8	14.5	0.00e+00	0	26	0	1753219072	64	4359
2026-01-06 06:58:43.47	334.84	15.26	-49.6	-50.9	14.5	0.00e+00	0	26	0	1756364800	64	4430
2026-01-06 06:58:44.47	334.71	15.18	-49.6	-51.0	14.5	0.00e+00	0	26	0	1759510528	64	4461
2026-01-06 06:58:45.46	334.58	15.10	-49.7	-51.0	14.4	0.00e+00	0	26	0	1762656256	64	4485
2026-01-06 06:58:46.45	334.44	15.02	-49.7	-51.0	14.4	0.00e+00	0	26	0	1765801984	64	4479
2026-01-06 06:58:47.45	334.31	14.93	-49.7	-51.0	14.5	0.00e+00	0	26	0	1768947712	64	4471
2026-01-06 06:58:48.44	334.18	14.85	-49.5	-50.8	14.5	0.00e+00	0	26	0	1772093440	64	4391
2026-01-06 06:58:49.43	334.05	14.77	-49.3	-50.6	14.6	0.00e+00	0	26	0	1774190592	64	4266
2026-01-06 06:58:50.42	333.92	14.69	-49.4	-50.7	14.6	0.00e+00	0	26	0	1777336320	64	4298
2026-01-06 06:58:51.41	333.80	14.61	-49.1	-50.3	14.7	0.00e+00	0	26	0	1780482048	64	4143
2026-01-06 06:58:52.40	333.67	14.53	-49.1	-50.3	14.7	0.00e+00	0	26	0	1783627776	64	4125
2026-01-06 06:58:53.40	333.54	14.44	-49.0	-50.2	14.7	0.00e+00	0	26	0	1786773504	64	4098
2026-01-06 06:58:54.39	333.41	14.36	-49.0	-50.3	14.7	0.00e+00	0	26	0	1789919232	64	4112
2026-01-06 06:58:55.38	333.29	14.28	-49.0	-50.2	14.8	0.00e+00	0	26	0	1793064960	64	4077
2026-01-06 06:58:56.38	333.16	14.20	-49.0	-50.3	14.7	0.00e+00	0	26	0	1796210688	64	4102
2026-01-06 06:58:57.37	333.04	14.12	-49.0	-50.3	14.7	0.00e+00	0	26	0	1799356416	64	4109
2026-01-06 06:58:58.36	332.92	14.04	-49.2	-50.5	14.6	0.00e+00	0	26	0	1802502144	64	4197
2026-01-06 06:58:59.35	332.80	13.96	-49.3	-50.6	14.6	0.00e+00	0	26	0	1805647872	64	4279
2026-01-06 06:59:00.35	332.67	13.88	-49.5	-50.8	14.5	0.00e+00	0	26	0	1808793600	64	4354
2026-01-06 06:59:01.34	332.55	13.80	-49.5	-50.8	14.5	0.00e+00	0	26	0	1811939328	64	4368
2026-01-06 06:59:02.33	332.43	13.72	-49.6	-50.9	14.5	0.00e+00	0	26	0	1815085056	64	4418
2026-01-06 06:59:03.33	332.31	13.64	-49.7	-51.0	14.4	0.00e+00	0	26	0	1818230784	64	4475
2026-01-06 06:59:04.32	332.19	13.56	-49.7	-51.0	14.4	0.00e+00	0	26	0	1821376512	64	4485
2026-01-06 06:59:05.31	332.07	13.48	-49.8	-51.2	14.4	0.00e+00	0	26	0	1824522240	64	4554
2026-01-06 06:59:06.29	331.96	13.40	-49.7	-51.1	14.4	0.00e+00	0	26	0	1827667968	64	4500
2026-01-06 06:59:07.28	331.84	13.32	-49.8	-51.1	14.4	0.00e+00	0	26	0	1830813696	64	4545
2026-01-06 06:59:08.27	331.72	13.24	-49.7	-51.1	14.4	0.00e+00	0	26	0	1833959424	64	4518
2026-01-06 06:59:09.26	331.61	13.16	-49.5	-50.8	14.5	0.00e+00	0	26	0	1837105152	64	4359
2026-01-06 06:59:10.26	331.49	13.08	-49.3	-50.6	14.6	0.00e+00	0	26	0	1840250880	64	4287
2026-01-06 06:59:11.25	331.38	13.00	-49.3	-50.6	14.6	0.00e+00	0	26	0	1842348032	64	4283
2026-01-06 06:59:12.25	331.26	12.92	-49.2	-50.5	14.6	0.00e+00	0	26	0	1845493760	64	4211
2026-01-06 06:59:13.24	331.15	12.85	-49.2	-50.5	14.6	0.00e+00	0	26	0	1848639488	64	4218
2026-01-06 06:59:14.23	331.04	12.77	-49.2	-50.4	14.7	0.00e+00	0	26	0	1851785216	64	4185
2026-01-06 06:59:15.22	330.92	12.69	-49.1	-50.3	14.7	0.00e+00	0	26	0	1854930944	64	4142
2026-01-06 06:59:16.21	330.81	12.61	-49.2	-50.5	14.6	0.00e+00	0	26	0	1858076672	64	4205
2026-01-06 06:59:17.20	330.70	12.53	-49.2	-50.5	14.6	0.00e+00	0	26	0	1861222400	64	4207
2026-01-06 06:59:18.20	330.59	12.46	-49.3	-50.6	14.6	0.00e+00	0	26	0	1864368128	64	4282
2026-01-06 06:59:19.20	330.48	12.38	-49.5	-50.8	14.5	0.00e+00	0	26	0	1867513856	64	4386
2026-01-06 06:59:20.20	330.37	12.30	-49.7	-51.0	14.4	0.00e+00	0	26	0	1870659584	64	4479
2026-01-06 06:59:21.20	330.26	12.22	-49.8	-51.2	14.4	0.00e+00	0	26	0	1873805312	64	4560
2026-01-06 06:59:22.19	330.15	12.14	-49.9	-51.3	14.3	0.00e+00	0	26	0	1876951040	64	4622
2026-01-06 06:59:23.18	330.04	12.07	-50.1	-51.6	14.3	0.00e+00	0	26	0	1880096768	65	4496
2026-01-06 06:59:24.18	329.94	11.99	-50.3	-51.7	14.2	0.00e+00	0	26	0	1883242496	65	4577
2026-01-06 06:59:25.17	329.83	11.91	-50.3	-51.8	14.2	0.00e+00	0	26	0	1886388224	65	4619
2026-01-06 06:59:26.17	329.72	11.83	-50.4	-51.9	14.2	0.00e+00	0	26	0	1889533952	65	4668
2026-01-06 06:59:27.18	329.62	11.76	-50.4	-51.8	14.2	0.00e+00	0	26	0	1892679680	65	4646
2026-01-06 06:59:28.18	329.51	11.68	-50.4	-51.9	14.2	0.00e+00	0	26	0	1895825408	65	4662
2026-01-06 06:59:29.18	329.41	11.60	-50.3	-51.7	14.2	0.00e+00	0	26	0	1898971136	65	4592
2026-01-06 06:59:30.18	329.30	11.53	-50.3	-51.8	14.2	0.00e+00	0	26	0	1902116864	65	4607
2026-01-06 06:59:31.18	329.20	11.45	-50.2	-51.6	14.3	0.00e+00	0	26	0	1905262592	65	4512
2026-01-06 06:59:32.18	329.10	11.37	-50.1	-51.5	14.3	0.00e+00	0	26	0	1908408320	65	4466
2026-01-06 06:59:33.18	328.99	11.30	-50.2	-51.6	14.3	0.00e+00	0	26	0	1911554048	65	4511
2026-01-06 06:59:34.18	328.89	11.22	-49.9	-51.3	14.4	0.00e+00	0	26	0	1914699776	65	4372
2026-01-06 06:59:35.18	328.79	11.14	-49.9	-51.3	14.4	0.00e+00	0	26	0	1917845504	65	4363
2026-01-06 06:59:36.17	328.69	11.07	-49.9	-51.3	14.4	0.00e+00	0	26	0	1920991232	65	4377
2026-01-06 06:59:37.17	328.59	10.99	-49.9	-51.3	14.4	0.00e+00	0	26	0	1924136960	65	4361
2026-01-06 06:59:38.16	328.49	10.92	-50.0	-51.4	14.4	0.00e+00	0	26	0	1927282688	65	4403
2026-01-06 06:59:39.16	328.39	10.84	-50.0	-51.4	14.3	0.00e+00	0	26	0	1930428416	65	4429
2026-01-06 06:59:40.17	328.29	10.77	-50.1	-51.5	14.3	0.00e+00	0	26	0	1933574144	65	4486
2026-01-06 06:59:41.17	328.19	10.69	-50.2	-51.6	14.3	0.00e+00	0	26	0	1936719872	65	4514
2026-01-06 06:59:42.16	328.10	10.62	-50.3	-51.7	14.2	0.00e+00	0	26	0	1939865600	65	4574
2026-01-06 06:59:43.17	328.00	10.54	-50.4	-51.9	14.1	0.00e+00	0	26	0	1943011328	65	4658
2026-01-06 06:59:44.17	327.90	10.47	-50.5	-52.0	14.2	0.00e+00	0	26	0	1946157056	66	4484
2026-01-06 06:59:45.16	327.81	10.39	-50.7	-52.2	14.1	0.00e+00	0	26	0	1949302784	66	4558
2026-01-06 06:59:46.16	327.71	10.32	-50.8	-52.3	14.0	0.00e+00	0	26	0	1952448512	66	4641
2026-01-06 06:59:47.16	327.61	10.24	-50.8	-52.4	14.0	0.00e+00	0	26	0	1955594240	66	4687
2026-01-06 06:59:48.16	327.52	10.17	-50.9	-52.4	14.0	0.00e+00	0	26	0	1958739968	66	4701
2026-01-06 06:59:49.16	327.43	10.10	-51.0	-52.5	14.0	0.00e+00	0	26	0	1961885696	67	4483
2026-01-06 06:59:50.16	327.33	10.02	-51.0	-52.6	14.0	0.00e+00	0	26	0	1965031424	67	4531
2026-01-06 06:59:51.16	327.24	9.95	-51.0	-52.6	14.0	0.00e+00	0	26	0	1968177152	67	4511
2026-01-06 06:59:52.15	327.15	9.88	-51.1	-52.7	14.0	0.00e+00	0	26	0	1971322880	67	4562
2026-01-06 06:59:53.15	327.05	9.80	-51.2	-52.8	13.9	0.00e+00	0	26	0	1973420032	67	4618
2026-01-06 06:59:54.15	326.96	9.73	-51.1	-52.8	13.9	0.00e+00	0	26	0	1976565760	67	4605
2026-01-06 06:59:55.16	326.87	9.66	-51.0	-52.6	14.0	0.00e+00	0	26	0	1979711488	67	4535
2026-01-06 06:59:56.16	326.78	9.58	-50.9	-52.5	14.1	0.00e+00	0	26	0	1982857216	67	4449
2026-01-06 06:59:57.16	326.69	9.51	-50.7	-52.2	14.2	0.00e+00	0	26	0	1986002944	67	4317
2026-01-06 06:59:58.17	326.60	9.44	-50.7	-52.2	14.2	0.00e+00	0	26	0	1989148672	67	4331
2026-01-06 06:59:59.17	326.51	9.36	-50.6	-52.2	14.2	0.00e+00	0	26	0	1992294400	67	4296
2026-01-06 07:00:00.17	326.42	9.29	-50.6	-52.1	14.2	0.00e+00	0	26	0	1995440128	67	4280
2026-01-06 07:00:01.17	326.33	9.22	-50.7	-52.2	14.1	0.00e+00	0	26	0	1998585856	67	4338
2026-01-06 07:00:02.18	326.24	9.15	-50.7	-52.2	14.1	0.00e+00	0	26	0	2001731584	67	4335
2026-01-06 07:00:03.18	326.15	9.07	-50.8	-52.3	14.1	0.00e+00	0	26	0	2004877312	67	4384
2026-01-06 07:00:04.18	326.07	9.00	-50.8	-52.3	14.1	0.00e+00	0	26	0	2008023040	67	4383
2026-01-06 07:00:05.18	325.98	8.93	-50.8	-52.4	14.1	0.00e+00	0	26	0	2011168768	67	4401
2026-01-06 07:00:06.18	325.89	8.86	-50.7	-52.3	14.1	0.00e+00	0	26	0	2014314496	67	4355
