passes_logs/2026/01/06/R3.2S_Murmansk/R3.2S_Murmansk__20260106_010041_NOAA_20_JPSS-1_rec.log

#Pass ID: 20260106_010041_NOAA 20 (JPSS-1)
#Satellite: NOAA 20 (JPSS-1)
#Configuration: NOAA 20
#almurnet v.1.7.20251203
#Start time: 2026-01-06 01:00:43

#Version: 2.2.20231116
#Station: R3.2S_Murmansk
#Location: 33.079688 lon 68.888172 lat
#TLE: 1 43013U 17073A   26005.46207808  .00000128  00000+0  81791-4 0  9997
#TLE: 2 43013  98.7627 306.5027 0001826  53.0458 307.0885 14.19533487421381

#Time	Az	El	Level	Level2	SNR	BER	BlckErr	Temp	State	Recorded	gain1	gain2
2026-01-06 01:00:43.23	25.81	2.11	-58.0	-73.9	3.8	1.49e+00	0	24	0	0	82	22231
2026-01-06 01:00:44.22	25.80	2.17	-57.9	-73.9	3.8	1.49e+00	0	25	104	0	81	23474
2026-01-06 01:00:45.22	25.80	2.23	-57.9	-73.9	3.8	1.49e+00	0	24	104	0	81	23505
2026-01-06 01:00:46.22	25.79	2.30	-57.9	-73.9	3.8	1.49e+00	0	24	104	0	81	23535
2026-01-06 01:00:47.22	25.79	2.36	-57.9	-73.9	3.8	1.49e+00	0	25	104	0	81	23419
2026-01-06 01:00:48.22	25.78	2.43	-58.0	-73.9	3.8	1.49e+00	0	25	104	0	81	23554
2026-01-06 01:00:49.22	25.78	2.49	-57.9	-73.9	3.8	1.49e+00	0	25	104	0	81	23553
2026-01-06 01:00:50.23	25.77	2.56	-58.0	-73.9	3.8	1.49e+00	0	25	104	0	81	23451
2026-01-06 01:00:51.22	25.77	2.62	-57.9	-73.9	3.8	1.49e+00	0	25	104	0	81	23395
2026-01-06 01:00:52.22	25.76	2.69	-58.0	-73.9	3.8	1.49e+00	0	25	104	0	81	23379
2026-01-06 01:00:53.22	25.75	2.75	-57.9	-73.9	3.8	1.49e+00	0	25	104	0	81	23331
2026-01-06 01:00:54.22	25.75	2.82	-57.9	-73.9	3.8	1.49e+00	0	25	104	0	81	23329
2026-01-06 01:00:55.21	25.74	2.88	-57.9	-73.8	3.8	1.49e+00	0	25	104	0	81	23274
2026-01-06 01:00:56.21	25.74	2.95	-58.0	-73.8	3.8	1.49e+00	0	25	104	0	81	23280
2026-01-06 01:00:57.21	25.73	3.02	-57.9	-73.9	3.8	1.49e+00	0	25	104	0	81	23318
2026-01-06 01:00:58.21	25.73	3.08	-57.9	-73.8	3.8	1.49e+00	0	25	104	0	81	23274
2026-01-06 01:00:59.21	25.72	3.15	-58.0	-73.9	3.8	1.49e+00	0	25	104	0	81	23333
2026-01-06 01:01:00.21	25.72	3.21	-58.0	-73.9	3.8	1.49e+00	0	25	104	0	81	23404
2026-01-06 01:01:01.21	25.71	3.28	-57.9	-73.9	3.8	1.49e+00	0	25	104	0	81	23385
2026-01-06 01:01:02.20	25.71	3.35	-57.9	-73.9	3.8	1.49e+00	0	25	104	0	81	23351
2026-01-06 01:01:03.20	25.70	3.41	-58.0	-73.8	3.8	1.49e+00	0	25	104	0	81	23307
2026-01-06 01:01:04.20	25.69	3.48	-58.0	-73.7	3.8	1.49e+00	0	25	104	0	81	23009
2026-01-06 01:01:05.21	25.69	3.55	-57.9	-73.7	3.8	1.49e+00	0	25	104	0	81	22879
2026-01-06 01:01:06.20	25.68	3.62	-57.9	-73.7	3.8	1.49e+00	0	25	104	0	81	22892
2026-01-06 01:01:07.20	25.68	3.68	-57.9	-73.8	3.8	1.49e+00	0	25	104	0	81	23077
2026-01-06 01:01:08.20	25.67	3.75	-57.9	-73.9	3.8	1.49e+00	0	25	104	0	81	23385
2026-01-06 01:01:09.21	25.67	3.82	-58.0	-73.9	3.8	1.49e+00	0	25	104	0	81	23492
2026-01-06 01:01:10.21	25.66	3.89	-57.9	-73.8	3.8	1.49e+00	0	25	104	0	81	23210
2026-01-06 01:01:11.21	25.65	3.96	-57.9	-73.3	3.8	1.49e+00	0	25	104	0	81	21771
2026-01-06 01:01:12.21	25.65	4.02	-57.9	-72.4	3.8	1.49e+00	0	25	104	0	81	19652
2026-01-06 01:01:13.22	25.64	4.09	-57.8	-71.1	3.9	1.49e+00	0	25	104	0	81	17047
2026-01-06 01:01:14.23	25.63	4.16	-57.7	-69.6	4.5	1.37e+00	23	25	0	0	81	14233
2026-01-06 01:01:15.23	25.63	4.23	-57.7	-68.6	4.8	8.98e-01	0	25	0	2097152	81	12751
2026-01-06 01:01:16.23	25.62	4.30	-57.6	-67.9	5.2	6.13e-01	0	25	0	3145728	81	11734
2026-01-06 01:01:17.23	25.62	4.37	-57.6	-67.6	5.4	5.23e-01	0	25	0	5242880	81	11400
2026-01-06 01:01:18.24	25.61	4.44	-57.5	-66.9	5.7	4.35e-01	0	25	0	7340032	81	10504
2026-01-06 01:01:19.24	25.60	4.51	-57.4	-66.5	6.1	2.99e-01	0	25	0	9437184	81	9957
2026-01-06 01:01:20.25	25.60	4.58	-57.4	-65.9	6.4	2.23e-01	0	25	0	11534336	81	9387
2026-01-06 01:01:21.24	25.59	4.65	-57.3	-65.3	6.9	1.44e-01	0	25	0	12582912	81	8732
2026-01-06 01:01:22.24	25.58	4.72	-57.3	-65.4	6.9	1.15e-01	0	26	0	14680064	81	8769
2026-01-06 01:01:23.25	25.58	4.79	-57.3	-65.5	6.8	1.31e-01	0	26	0	16777216	81	8873
2026-01-06 01:01:24.25	25.57	4.86	-57.3	-65.6	6.7	1.37e-01	0	25	0	18874368	81	8972
2026-01-06 01:01:25.25	25.56	4.93	-57.3	-65.5	6.7	1.40e-01	0	26	0	20971520	81	8928
2026-01-06 01:01:26.25	25.56	5.01	-57.3	-65.5	6.8	1.45e-01	0	26	0	22020096	81	8931
2026-01-06 01:01:27.25	25.55	5.08	-57.4	-66.3	6.2	1.72e-01	0	26	0	24117248	81	9814
2026-01-06 01:01:28.26	25.54	5.15	-57.9	-70.1	4.0	1.24e+00	0	26	104	25165824	81	15104
2026-01-06 01:01:29.24	25.54	5.22	-56.8	-63.1	8.9	2.14e-01	0	26	0	26214400	79	7610
2026-01-06 01:01:30.24	25.53	5.29	-57.7	-68.5	4.9	8.69e-01	0	26	0	28311552	80	13395
2026-01-06 01:01:31.23	25.52	5.36	-55.9	-60.1	11.4	5.18e-03	0	26	0	29360128	78	5657
2026-01-06 01:01:32.23	25.51	5.43	-57.6	-68.1	5.0	2.31e-01	0	26	0	31457280	80	12675
2026-01-06 01:01:33.22	25.51	5.51	-55.8	-59.9	11.6	3.73e-05	0	26	0	33554432	78	5563
2026-01-06 01:01:34.21	25.50	5.58	-55.8	-59.8	11.6	1.29e-05	0	26	0	35651584	78	5527
2026-01-06 01:01:35.21	25.49	5.65	-55.7	-59.7	11.7	1.60e-05	0	26	0	36700160	78	5452
2026-01-06 01:01:36.20	25.48	5.72	-55.6	-59.6	11.8	9.10e-06	0	26	0	38797312	77	5680
2026-01-06 01:01:37.20	25.48	5.80	-55.5	-59.2	12.0	8.30e-06	0	26	0	40894464	77	5425
2026-01-06 01:01:38.20	25.47	5.87	-55.3	-58.8	12.4	1.50e-06	0	26	0	42991616	77	5178
2026-01-06 01:01:39.20	25.46	5.94	-55.1	-58.5	12.5	1.50e-06	0	26	0	45088768	76	5303
2026-01-06 01:01:40.20	25.45	6.02	-55.1	-58.5	12.5	0.00e+00	0	26	0	46137344	76	5306
2026-01-06 01:01:41.20	25.45	6.09	-55.1	-58.5	12.4	7.00e-07	0	26	0	48234496	76	5329
2026-01-06 01:01:42.20	25.44	6.16	-55.1	-58.4	12.5	0.00e+00	0	26	0	50331648	76	5268
2026-01-06 01:01:43.20	25.43	6.24	-55.2	-58.5	12.5	0.00e+00	0	26	0	52428800	76	5335
2026-01-06 01:01:44.19	25.42	6.31	-55.0	-58.2	12.7	0.00e+00	0	26	0	54525952	76	5145
2026-01-06 01:01:45.19	25.42	6.39	-55.0	-58.3	12.7	0.00e+00	0	26	0	55574528	76	5174
2026-01-06 01:01:46.19	25.41	6.46	-55.1	-58.4	12.6	0.00e+00	0	26	0	57671680	76	5219
2026-01-06 01:01:47.19	25.40	6.54	-55.0	-58.2	12.7	7.00e-07	0	26	0	59768832	76	5129
2026-01-06 01:01:48.19	25.39	6.61	-54.9	-58.1	12.8	0.00e+00	0	26	0	61865984	76	5045
2026-01-06 01:01:49.18	25.38	6.69	-54.9	-58.1	12.8	0.00e+00	0	26	0	62914560	76	5084
2026-01-06 01:01:50.19	25.37	6.76	-55.0	-58.1	12.8	0.00e+00	0	26	0	65011712	76	5084
2026-01-06 01:01:51.19	25.37	6.84	-55.0	-58.2	12.7	0.00e+00	0	26	0	67108864	76	5137
2026-01-06 01:01:52.19	25.36	6.92	-55.0	-58.1	12.8	0.00e+00	0	26	0	69206016	76	5088
2026-01-06 01:01:53.19	25.35	6.99	-54.9	-58.1	12.9	0.00e+00	0	26	0	71303168	76	5047
2026-01-06 01:01:54.19	25.34	7.07	-54.9	-58.0	12.9	0.00e+00	0	26	0	72351744	76	5028
2026-01-06 01:01:55.18	25.33	7.15	-54.9	-58.0	12.9	0.00e+00	0	26	0	74448896	76	5007
2026-01-06 01:01:56.18	25.32	7.22	-54.9	-58.0	12.9	0.00e+00	0	26	0	76546048	76	4991
2026-01-06 01:01:57.18	25.32	7.30	-54.9	-58.0	12.9	0.00e+00	0	26	0	78643200	76	5026
2026-01-06 01:01:58.18	25.31	7.38	-54.9	-57.9	13.0	0.00e+00	0	26	0	80740352	76	4974
2026-01-06 01:01:59.18	25.30	7.46	-54.8	-57.8	13.0	0.00e+00	0	26	0	81788928	76	4919
2026-01-06 01:02:00.17	25.29	7.54	-54.8	-57.9	13.0	0.00e+00	0	26	0	83886080	76	4928
2026-01-06 01:02:01.18	25.28	7.61	-54.9	-57.9	13.0	0.00e+00	0	26	0	85983232	76	4935
2026-01-06 01:02:02.18	25.27	7.69	-54.7	-57.7	13.1	0.00e+00	0	26	0	88080384	76	4831
2026-01-06 01:02:03.19	25.26	7.77	-54.8	-57.7	13.1	0.00e+00	0	26	0	90177536	76	4852
2026-01-06 01:02:04.18	25.25	7.85	-54.8	-57.7	13.2	0.00e+00	0	26	0	91226112	76	4831
2026-01-06 01:02:05.17	25.24	7.93	-54.7	-57.5	13.2	0.00e+00	0	26	0	93323264	76	4753
2026-01-06 01:02:06.17	25.23	8.01	-54.7	-57.6	13.1	0.00e+00	0	26	0	95420416	75	5077
2026-01-06 01:02:07.17	25.22	8.09	-54.6	-57.5	13.1	0.00e+00	0	26	0	97517568	75	5014
2026-01-06 01:02:08.17	25.21	8.17	-54.5	-57.4	13.2	0.00e+00	0	26	0	98566144	75	4963
2026-01-06 01:02:09.17	25.20	8.25	-54.6	-57.5	13.1	0.00e+00	0	26	0	100663296	75	5020
2026-01-06 01:02:10.17	25.20	8.33	-54.7	-57.6	13.1	0.00e+00	0	26	0	102760448	75	5072
2026-01-06 01:02:11.17	25.19	8.41	-54.6	-57.5	13.2	0.00e+00	0	26	0	104857600	75	4994
2026-01-06 01:02:12.17	25.18	8.49	-54.5	-57.4	13.2	0.00e+00	0	26	0	106954752	75	4952
2026-01-06 01:02:13.17	25.17	8.57	-54.6	-57.4	13.2	0.00e+00	0	26	0	108003328	75	4978
2026-01-06 01:02:14.17	25.16	8.66	-54.5	-57.2	13.3	0.00e+00	0	26	0	110100480	75	4853
2026-01-06 01:02:15.16	25.15	8.74	-54.5	-57.3	13.3	0.00e+00	0	26	0	112197632	75	4879
2026-01-06 01:02:16.16	25.14	8.82	-54.5	-57.3	13.3	0.00e+00	0	26	0	114294784	75	4923
2026-01-06 01:02:17.16	25.13	8.90	-54.5	-57.4	13.3	0.00e+00	0	26	0	115343360	75	4931
2026-01-06 01:02:18.17	25.11	8.99	-54.5	-57.2	13.3	0.00e+00	0	26	0	117440512	75	4859
2026-01-06 01:02:19.15	25.10	9.07	-54.4	-57.2	13.4	0.00e+00	0	26	0	119537664	75	4820
2026-01-06 01:02:20.16	25.09	9.15	-54.4	-57.1	13.4	0.00e+00	0	26	0	121634816	75	4782
2026-01-06 01:02:21.16	25.08	9.24	-54.4	-57.1	13.4	0.00e+00	0	26	0	123731968	75	4795
2026-01-06 01:02:22.17	25.07	9.32	-54.4	-57.1	13.5	0.00e+00	0	26	0	124780544	75	4763
2026-01-06 01:02:23.17	25.06	9.40	-54.4	-57.1	13.4	0.00e+00	0	26	0	126877696	75	4789
2026-01-06 01:02:24.17	25.05	9.49	-54.4	-57.1	13.5	0.00e+00	0	26	0	128974848	75	4760
2026-01-06 01:02:25.16	25.04	9.57	-54.3	-57.0	13.5	0.00e+00	0	26	0	131072000	75	4748
2026-01-06 01:02:26.16	25.03	9.66	-54.4	-57.0	13.5	0.00e+00	0	26	0	133169152	75	4758
2026-01-06 01:02:27.16	25.02	9.74	-54.4	-57.0	13.5	0.00e+00	0	26	0	134217728	75	4759
2026-01-06 01:02:28.17	25.01	9.83	-54.4	-57.1	13.5	0.00e+00	0	26	0	136314880	75	4790
2026-01-06 01:02:29.17	25.00	9.92	-54.4	-57.0	13.5	0.00e+00	0	26	0	138412032	75	4746
2026-01-06 01:02:30.17	24.98	10.00	-54.3	-56.8	13.6	0.00e+00	0	26	0	140509184	75	4647
2026-01-06 01:02:31.18	24.97	10.09	-54.3	-56.9	13.6	0.00e+00	0	26	0	142606336	75	4653
2026-01-06 01:02:32.18	24.96	10.18	-54.3	-57.0	13.5	0.00e+00	0	26	0	143654912	75	4734
2026-01-06 01:02:33.18	24.95	10.26	-54.3	-56.9	13.6	0.00e+00	0	26	0	145752064	75	4659
2026-01-06 01:02:34.18	24.94	10.35	-54.2	-56.7	13.7	0.00e+00	0	26	0	147849216	75	4594
2026-01-06 01:02:35.18	24.93	10.44	-54.2	-56.7	13.7	0.00e+00	0	26	0	149946368	75	4575
2026-01-06 01:02:36.18	24.91	10.53	-54.1	-56.6	13.6	0.00e+00	0	26	0	152043520	74	4813
2026-01-06 01:02:37.19	24.90	10.62	-54.1	-56.7	13.6	0.00e+00	0	26	0	153092096	74	4816
2026-01-06 01:02:38.18	24.89	10.70	-54.0	-56.5	13.7	0.00e+00	0	26	0	155189248	74	4750
2026-01-06 01:02:39.18	24.88	10.79	-54.1	-56.6	13.6	0.00e+00	0	26	0	157286400	74	4812
2026-01-06 01:02:40.18	24.86	10.88	-54.1	-56.7	13.6	0.00e+00	0	26	0	159383552	74	4820
2026-01-06 01:02:41.17	24.85	10.97	-54.1	-56.7	13.6	0.00e+00	0	26	0	160432128	74	4828
2026-01-06 01:02:42.17	24.84	11.06	-54.1	-56.6	13.6	0.00e+00	0	26	0	162529280	74	4791
2026-01-06 01:02:43.17	24.83	11.15	-54.1	-56.6	13.7	0.00e+00	0	26	0	164626432	74	4763
2026-01-06 01:02:44.17	24.81	11.24	-54.1	-56.6	13.7	0.00e+00	0	26	0	166723584	74	4779
2026-01-06 01:02:45.17	24.80	11.33	-54.1	-56.6	13.6	0.00e+00	0	26	0	168820736	74	4782
2026-01-06 01:02:46.17	24.79	11.42	-54.0	-56.5	13.7	0.00e+00	0	26	0	169869312	74	4717
2026-01-06 01:02:47.17	24.78	11.52	-54.0	-56.5	13.7	0.00e+00	0	26	0	171966464	74	4714
2026-01-06 01:02:48.18	24.76	11.61	-54.1	-56.6	13.7	0.00e+00	0	26	0	174063616	74	4787
2026-01-06 01:02:49.17	24.75	11.70	-54.1	-56.5	13.7	0.00e+00	0	26	0	176160768	74	4739
2026-01-06 01:02:50.17	24.74	11.79	-53.9	-56.3	13.8	0.00e+00	0	26	0	177209344	74	4617
2026-01-06 01:02:51.17	24.72	11.89	-53.9	-56.3	13.9	0.00e+00	0	26	0	179306496	74	4607
2026-01-06 01:02:52.17	24.71	11.98	-53.9	-56.2	13.9	0.00e+00	0	26	0	181403648	74	4588
2026-01-06 01:02:53.17	24.69	12.07	-53.9	-56.3	13.8	0.00e+00	0	26	0	183500800	74	4637
2026-01-06 01:02:54.17	24.68	12.17	-53.8	-56.1	14.0	0.00e+00	0	26	0	185597952	74	4516
2026-01-06 01:02:55.16	24.67	12.26	-53.8	-56.1	14.0	0.00e+00	0	26	0	186646528	74	4499
2026-01-06 01:02:56.16	24.65	12.36	-53.8	-56.1	14.0	0.00e+00	0	26	0	188743680	74	4496
2026-01-06 01:02:57.16	24.64	12.45	-53.8	-56.1	13.9	0.00e+00	0	26	0	190840832	74	4530
2026-01-06 01:02:58.16	24.62	12.55	-53.7	-56.0	14.0	0.00e+00	0	26	0	192937984	74	4462
2026-01-06 01:02:59.16	24.61	12.64	-53.7	-56.0	14.0	0.00e+00	0	26	0	195035136	74	4454
2026-01-06 01:03:00.16	24.60	12.74	-53.7	-56.0	14.0	0.00e+00	0	26	0	196083712	74	4487
2026-01-06 01:03:01.15	24.58	12.84	-53.6	-55.9	13.9	0.00e+00	0	26	0	198180864	73	4687
2026-01-06 01:03:02.15	24.57	12.93	-53.6	-55.8	14.0	0.00e+00	0	26	0	200278016	73	4624
2026-01-06 01:03:03.14	24.55	13.03	-53.6	-55.8	14.0	0.00e+00	0	26	0	202375168	73	4642
2026-01-06 01:03:04.14	24.54	13.13	-53.5	-55.7	14.0	0.00e+00	0	26	0	204472320	73	4588
2026-01-06 01:03:05.14	24.52	13.22	-53.5	-55.7	14.1	0.00e+00	0	26	0	205520896	73	4549
2026-01-06 01:03:06.14	24.51	13.32	-53.5	-55.7	14.1	0.00e+00	0	26	0	207618048	73	4568
2026-01-06 01:03:07.15	24.49	13.42	-53.5	-55.7	14.1	0.00e+00	0	26	0	209715200	73	4546
2026-01-06 01:03:08.15	24.47	13.52	-53.4	-55.5	14.1	0.00e+00	0	26	0	211812352	73	4489
2026-01-06 01:03:09.15	24.46	13.62	-53.4	-55.5	14.2	0.00e+00	0	26	0	212860928	73	4480
2026-01-06 01:03:10.15	24.44	13.72	-53.3	-55.5	14.2	0.00e+00	0	26	0	214958080	73	4457
2026-01-06 01:03:11.15	24.43	13.82	-53.4	-55.5	14.2	0.00e+00	0	26	0	217055232	73	4481
2026-01-06 01:03:12.16	24.41	13.93	-53.4	-55.5	14.2	0.00e+00	0	26	0	219152384	73	4469
2026-01-06 01:03:13.16	24.39	14.03	-53.3	-55.5	14.2	0.00e+00	0	26	0	221249536	73	4450
2026-01-06 01:03:14.16	24.38	14.13	-53.3	-55.5	14.2	0.00e+00	0	26	0	222298112	73	4445
2026-01-06 01:03:15.16	24.36	14.23	-53.2	-55.3	14.3	0.00e+00	0	26	0	224395264	73	4375
2026-01-06 01:03:16.16	24.34	14.33	-53.2	-55.3	14.3	0.00e+00	0	26	0	226492416	73	4375
2026-01-06 01:03:17.16	24.33	14.44	-53.2	-55.3	14.3	0.00e+00	0	26	0	228589568	73	4378
2026-01-06 01:03:18.16	24.31	14.54	-53.2	-55.3	14.3	0.00e+00	0	26	0	230686720	73	4356
2026-01-06 01:03:19.16	24.29	14.65	-53.2	-55.3	14.3	0.00e+00	0	26	0	231735296	73	4353
2026-01-06 01:03:20.16	24.28	14.75	-53.1	-55.2	14.2	0.00e+00	0	26	0	233832448	72	4560
2026-01-06 01:03:21.16	24.26	14.86	-53.1	-55.1	14.2	0.00e+00	0	26	0	235929600	72	4536
2026-01-06 01:03:22.15	24.24	14.96	-53.1	-55.1	14.3	0.00e+00	0	26	0	238026752	72	4542
2026-01-06 01:03:23.15	24.22	15.07	-53.1	-55.1	14.3	0.00e+00	0	26	0	239075328	72	4513
2026-01-06 01:03:24.14	24.21	15.17	-53.0	-55.0	14.3	0.00e+00	0	26	0	241172480	72	4491
2026-01-06 01:03:25.14	24.19	15.28	-53.0	-55.1	14.3	0.00e+00	0	26	0	243269632	72	4501
2026-01-06 01:03:26.15	24.17	15.39	-53.0	-55.0	14.3	0.00e+00	0	26	0	245366784	72	4492
2026-01-06 01:03:27.14	24.15	15.49	-52.9	-54.9	14.4	0.00e+00	0	26	0	247463936	72	4432
2026-01-06 01:03:28.13	24.13	15.60	-52.9	-54.9	14.4	0.00e+00	0	26	0	248512512	72	4401
2026-01-06 01:03:29.13	24.11	15.71	-53.0	-55.0	14.3	0.00e+00	0	26	0	250609664	72	4458
2026-01-06 01:03:30.13	24.09	15.82	-52.9	-54.9	14.4	0.00e+00	0	26	0	252706816	72	4416
2026-01-06 01:03:31.13	24.08	15.93	-52.9	-54.9	14.4	0.00e+00	0	26	0	254803968	72	4420
2026-01-06 01:03:32.13	24.06	16.04	-53.0	-55.0	14.4	0.00e+00	0	26	0	256901120	72	4447
2026-01-06 01:03:33.12	24.04	16.15	-52.9	-54.8	14.4	0.00e+00	0	26	0	257949696	72	4373
2026-01-06 01:03:34.12	24.02	16.26	-52.8	-54.8	14.4	0.00e+00	0	26	0	260046848	72	4360
2026-01-06 01:03:35.12	24.00	16.37	-52.8	-54.8	14.4	0.00e+00	0	26	0	262144000	72	4343
2026-01-06 01:03:36.12	23.98	16.48	-52.8	-54.7	14.5	0.00e+00	0	26	0	264241152	72	4316
2026-01-06 01:03:37.13	23.96	16.60	-52.8	-54.7	14.5	0.00e+00	0	26	0	266338304	72	4314
2026-01-06 01:03:38.13	23.94	16.71	-52.7	-54.6	14.5	0.00e+00	0	26	0	267386880	72	4261
2026-01-06 01:03:39.12	23.92	16.82	-52.6	-54.5	14.4	0.00e+00	0	26	0	269484032	71	4465
2026-01-06 01:03:40.13	23.90	16.94	-52.6	-54.5	14.4	0.00e+00	0	26	0	271581184	71	4479
2026-01-06 01:03:41.14	23.88	17.05	-52.6	-54.5	14.5	0.00e+00	0	26	0	273678336	71	4462
2026-01-06 01:03:42.14	23.85	17.17	-52.5	-54.4	14.5	0.00e+00	0	26	0	274726912	71	4410
2026-01-06 01:03:43.14	23.83	17.29	-52.5	-54.3	14.5	0.00e+00	0	26	0	276824064	71	4382
2026-01-06 01:03:44.14	23.81	17.40	-52.5	-54.4	14.5	0.00e+00	0	26	0	278921216	71	4399
2026-01-06 01:03:45.13	23.79	17.52	-52.4	-54.3	14.6	0.00e+00	0	26	0	281018368	71	4341
2026-01-06 01:03:46.12	23.77	17.63	-52.3	-54.1	14.6	0.00e+00	0	26	0	283115520	71	4278
2026-01-06 01:03:47.13	23.75	17.75	-52.4	-54.2	14.6	0.00e+00	0	26	0	284164096	71	4294
2026-01-06 01:03:48.13	23.72	17.87	-52.3	-54.1	14.6	0.00e+00	0	26	0	286261248	71	4283
2026-01-06 01:03:49.13	23.70	17.99	-52.3	-54.2	14.6	0.00e+00	0	26	0	288358400	71	4293
2026-01-06 01:03:50.12	23.68	18.11	-52.2	-54.0	14.7	0.00e+00	0	26	0	290455552	71	4207
2026-01-06 01:03:51.12	23.66	18.23	-52.3	-54.0	14.7	0.00e+00	0	26	0	291504128	71	4235
2026-01-06 01:03:52.11	23.63	18.35	-52.2	-54.0	14.7	0.00e+00	0	26	0	293601280	71	4207
2026-01-06 01:03:53.11	23.61	18.47	-52.2	-54.0	14.7	0.00e+00	0	26	0	295698432	71	4203
2026-01-06 01:03:54.10	23.59	18.59	-52.1	-53.9	14.6	0.00e+00	0	26	0	297795584	70	4415
2026-01-06 01:03:55.10	23.56	18.72	-52.2	-53.9	14.6	0.00e+00	0	26	0	299892736	70	4419
2026-01-06 01:03:56.10	23.54	18.84	-52.1	-53.8	14.6	0.00e+00	0	26	0	300941312	70	4379
2026-01-06 01:03:57.09	23.52	18.96	-52.1	-53.8	14.6	0.00e+00	0	26	0	303038464	70	4375
2026-01-06 01:03:58.09	23.49	19.09	-52.0	-53.7	14.7	0.00e+00	0	26	0	305135616	70	4319
2026-01-06 01:03:59.09	23.47	19.21	-52.0	-53.7	14.7	0.00e+00	0	26	0	307232768	70	4323
2026-01-06 01:04:00.09	23.44	19.34	-52.0	-53.7	14.7	0.00e+00	0	26	0	309329920	70	4326
2026-01-06 01:04:01.09	23.42	19.46	-52.1	-53.8	14.7	0.00e+00	0	26	0	310378496	70	4367
2026-01-06 01:04:02.10	23.39	19.59	-52.1	-53.9	14.6	0.00e+00	0	26	0	312475648	70	4401
2026-01-06 01:04:03.10	23.36	19.72	-52.0	-53.7	14.7	0.00e+00	0	26	0	314572800	70	4302
2026-01-06 01:04:04.10	23.34	19.85	-51.9	-53.6	14.7	0.00e+00	0	26	0	316669952	70	4283
2026-01-06 01:04:05.10	23.31	19.98	-52.0	-53.7	14.7	0.00e+00	0	26	0	318767104	70	4314
2026-01-06 01:04:06.09	23.29	20.11	-51.9	-53.5	14.8	0.00e+00	0	26	0	319815680	70	4240
2026-01-06 01:04:07.10	23.26	20.24	-51.9	-53.6	14.8	0.00e+00	0	26	0	321912832	70	4246
2026-01-06 01:04:08.10	23.23	20.37	-51.9	-53.6	14.7	0.00e+00	0	26	0	324009984	70	4280
2026-01-06 01:04:09.11	23.21	20.50	-52.0	-53.7	14.7	0.00e+00	0	26	0	326107136	70	4326
2026-01-06 01:04:10.11	23.18	20.64	-52.0	-53.7	14.7	0.00e+00	0	26	0	327155712	70	4304
2026-01-06 01:04:11.10	23.15	20.77	-51.9	-53.5	14.8	0.00e+00	0	26	0	329252864	70	4238
2026-01-06 01:04:12.10	23.12	20.90	-51.8	-53.5	14.8	0.00e+00	0	26	0	331350016	70	4201
2026-01-06 01:04:13.10	23.09	21.04	-51.8	-53.5	14.8	0.00e+00	0	26	0	333447168	70	4197
2026-01-06 01:04:14.09	23.07	21.17	-51.7	-53.3	14.9	0.00e+00	0	26	0	335544320	70	4134
2026-01-06 01:04:15.10	23.04	21.31	-51.8	-53.4	14.8	0.00e+00	0	26	0	336592896	70	4176
2026-01-06 01:04:16.10	23.01	21.44	-51.9	-53.6	14.8	0.00e+00	0	27	0	338690048	70	4261
2026-01-06 01:04:17.10	22.98	21.58	-51.8	-53.5	14.8	0.00e+00	0	26	0	340787200	70	4215
2026-01-06 01:04:18.10	22.95	21.72	-51.7	-53.3	14.9	0.00e+00	0	26	0	342884352	70	4142
2026-01-06 01:04:19.09	22.92	21.86	-51.7	-53.3	14.9	0.00e+00	0	26	0	344981504	70	4139
2026-01-06 01:04:20.09	22.89	22.00	-51.8	-53.4	14.8	0.00e+00	0	26	0	346030080	70	4179
2026-01-06 01:04:21.09	22.86	22.14	-51.8	-53.4	14.8	0.00e+00	0	26	0	348127232	70	4186
2026-01-06 01:04:22.09	22.83	22.28	-51.6	-53.3	14.8	0.00e+00	0	26	0	350224384	69	4349
2026-01-06 01:04:23.09	22.80	22.42	-51.7	-53.3	14.7	0.00e+00	0	26	0	352321536	69	4359
2026-01-06 01:04:24.08	22.76	22.56	-51.7	-53.3	14.7	0.00e+00	0	26	0	353370112	69	4385
2026-01-06 01:04:25.08	22.73	22.71	-51.7	-53.4	14.7	0.00e+00	0	26	0	355467264	69	4400
2026-01-06 01:04:26.07	22.70	22.85	-51.7	-53.4	14.7	0.00e+00	0	26	0	357564416	69	4398
2026-01-06 01:04:27.07	22.67	22.99	-51.8	-53.4	14.7	0.00e+00	0	26	0	359661568	69	4440
2026-01-06 01:04:28.07	22.63	23.14	-51.8	-53.4	14.7	0.00e+00	0	26	0	361758720	69	4429
2026-01-06 01:04:29.07	22.60	23.29	-51.8	-53.4	14.7	0.00e+00	0	26	0	362807296	69	4425
2026-01-06 01:04:30.07	22.57	23.44	-51.8	-53.4	14.7	0.00e+00	0	26	0	364904448	69	4431
2026-01-06 01:04:31.07	22.53	23.58	-51.8	-53.4	14.7	0.00e+00	0	26	0	367001600	69	4429
2026-01-06 01:04:32.07	22.50	23.73	-51.8	-53.4	14.7	0.00e+00	0	26	0	369098752	69	4435
2026-01-06 01:04:33.07	22.46	23.88	-51.9	-53.5	14.7	0.00e+00	0	26	0	370147328	69	4479
2026-01-06 01:04:34.07	22.43	24.03	-51.9	-53.5	14.6	0.00e+00	0	26	0	372244480	69	4491
2026-01-06 01:04:35.07	22.39	24.19	-51.9	-53.5	14.6	0.00e+00	0	26	0	374341632	69	4481
2026-01-06 01:04:36.06	22.36	24.34	-51.9	-53.5	14.6	0.00e+00	0	26	0	376438784	69	4490
2026-01-06 01:04:37.05	22.32	24.49	-51.9	-53.6	14.6	0.00e+00	0	26	0	378535936	69	4537
2026-01-06 01:04:38.05	22.29	24.64	-51.9	-53.5	14.6	0.00e+00	0	26	0	379584512	69	4491
2026-01-06 01:04:39.04	22.25	24.80	-52.0	-53.7	14.6	0.00e+00	0	26	0	381681664	69	4583
2026-01-06 01:04:40.05	22.21	24.96	-52.0	-53.7	14.6	0.00e+00	0	26	0	383778816	69	4564
2026-01-06 01:04:41.04	22.17	25.11	-52.0	-53.7	14.6	0.00e+00	0	26	0	385875968	69	4598
2026-01-06 01:04:42.05	22.14	25.27	-52.0	-53.7	14.6	0.00e+00	0	26	0	387973120	69	4590
2026-01-06 01:04:43.04	22.10	25.43	-52.1	-53.8	14.5	0.00e+00	0	26	0	389021696	69	4637
2026-01-06 01:04:44.04	22.06	25.59	-52.1	-53.9	14.5	0.00e+00	0	26	0	391118848	69	4660
2026-01-06 01:04:45.05	22.02	25.75	-52.2	-54.0	14.5	0.00e+00	0	26	0	393216000	69	4706
2026-01-06 01:04:46.05	21.98	25.91	-52.2	-54.0	14.5	0.00e+00	0	26	0	395313152	69	4709
2026-01-06 01:04:47.05	21.94	26.08	-52.3	-54.1	14.4	0.00e+00	0	26	0	397410304	69	4780
2026-01-06 01:04:48.05	21.90	26.24	-52.3	-54.1	14.5	0.00e+00	0	26	0	398458880	69	4764
2026-01-06 01:04:49.05	21.86	26.41	-52.3	-54.1	14.4	0.00e+00	0	26	0	400556032	69	4786
2026-01-06 01:04:50.04	21.81	26.57	-52.4	-54.1	14.4	0.00e+00	0	26	0	402653184	69	4812
2026-01-06 01:04:51.04	21.77	26.74	-52.5	-54.3	14.5	0.00e+00	0	26	0	404750336	70	4611
2026-01-06 01:04:52.03	21.73	26.90	-52.5	-54.4	14.4	0.00e+00	0	26	0	405798912	70	4656
2026-01-06 01:04:53.02	21.69	27.07	-52.6	-54.4	14.4	0.00e+00	0	26	0	407896064	70	4673
2026-01-06 01:04:54.01	21.64	27.24	-52.6	-54.5	14.4	0.00e+00	0	26	0	409993216	70	4708
2026-01-06 01:04:55.01	21.60	27.41	-52.7	-54.6	14.3	0.00e+00	0	26	0	412090368	70	4789
2026-01-06 01:04:56.01	21.55	27.58	-52.8	-54.7	14.3	0.00e+00	0	26	0	414187520	70	4865
2026-01-06 01:04:57.01	21.51	27.76	-52.9	-54.8	14.3	0.00e+00	0	26	0	415236096	70	4875
2026-01-06 01:04:58.01	21.46	27.93	-53.0	-54.9	14.3	0.00e+00	0	26	0	417333248	71	4695
2026-01-06 01:04:59.00	21.42	28.10	-53.1	-55.1	14.3	0.00e+00	0	26	0	419430400	71	4760
2026-01-06 01:05:00.00	21.37	28.28	-53.2	-55.1	14.2	0.00e+00	0	26	0	421527552	71	4804
2026-01-06 01:05:01.00	21.32	28.46	-53.3	-55.4	14.1	0.00e+00	0	26	0	422576128	71	4930
2026-01-06 01:05:02.01	21.27	28.64	-53.4	-55.4	14.1	0.00e+00	0	26	0	424673280	71	4966
2026-01-06 01:05:03.01	21.22	28.82	-53.7	-55.8	14.0	0.00e+00	0	26	0	426770432	72	4883
2026-01-06 01:05:04.00	21.17	29.00	-53.8	-55.9	14.0	0.00e+00	0	26	0	428867584	72	4978
2026-01-06 01:05:05.00	21.12	29.18	-53.9	-56.1	13.9	0.00e+00	0	26	0	430964736	72	5067
2026-01-06 01:05:05.99	21.07	29.36	-54.0	-56.2	13.9	0.00e+00	0	26	0	432013312	73	4861
2026-01-06 01:05:06.98	21.02	29.54	-54.0	-56.2	13.9	0.00e+00	0	26	0	434110464	73	4853
2026-01-06 01:05:07.99	20.97	29.73	-54.1	-56.3	13.9	0.00e+00	0	26	0	436207616	73	4895
2026-01-06 01:05:08.99	20.92	29.92	-54.1	-56.4	13.9	0.00e+00	0	26	0	438304768	73	4940
2026-01-06 01:05:09.99	20.87	30.11	-54.2	-56.5	13.8	0.00e+00	0	26	0	440401920	73	4985
2026-01-06 01:05:10.98	20.81	30.29	-54.2	-56.5	13.8	0.00e+00	0	26	0	441450496	73	5025
2026-01-06 01:05:11.98	20.76	30.48	-54.2	-56.5	13.8	0.00e+00	0	26	0	443547648	73	5028
2026-01-06 01:05:12.98	20.70	30.68	-54.3	-56.7	13.7	0.00e+00	0	26	0	445644800	73	5101
2026-01-06 01:05:13.98	20.65	30.87	-54.3	-56.7	13.7	0.00e+00	0	27	0	447741952	73	5125
2026-01-06 01:05:14.98	20.59	31.06	-54.3	-56.6	13.7	0.00e+00	0	26	0	449839104	73	5075
2026-01-06 01:05:15.98	20.53	31.26	-54.5	-56.9	13.7	0.00e+00	0	26	0	450887680	74	4958
2026-01-06 01:05:16.99	20.47	31.46	-54.5	-56.8	13.7	0.00e+00	0	26	0	452984832	74	4921
2026-01-06 01:05:17.98	20.42	31.65	-54.6	-57.0	13.6	0.00e+00	0	27	0	455081984	74	5002
2026-01-06 01:05:18.98	20.36	31.85	-54.6	-57.0	13.6	0.00e+00	0	26	0	457179136	74	5023
2026-01-06 01:05:19.99	20.30	32.05	-54.5	-56.9	13.7	0.00e+00	0	26	0	458227712	74	4967
2026-01-06 01:05:20.98	20.23	32.25	-54.6	-57.0	13.6	0.00e+00	0	26	0	460324864	74	5031
2026-01-06 01:05:21.99	20.17	32.46	-54.6	-57.1	13.6	0.00e+00	0	26	0	462422016	74	5060
2026-01-06 01:05:22.98	20.11	32.66	-54.7	-57.2	13.5	0.00e+00	0	26	0	464519168	74	5150
2026-01-06 01:05:23.99	20.05	32.87	-54.7	-57.1	13.6	0.00e+00	0	26	0	466616320	74	5085
2026-01-06 01:05:24.98	19.98	33.08	-54.7	-57.1	13.6	0.00e+00	0	26	0	467664896	74	5089
2026-01-06 01:05:25.98	19.92	33.28	-54.6	-57.0	13.7	0.00e+00	0	26	0	469762048	74	5026
2026-01-06 01:05:26.98	19.85	33.49	-54.5	-56.9	13.7	0.00e+00	0	26	0	471859200	74	4953
2026-01-06 01:05:27.98	19.78	33.71	-54.5	-56.9	13.7	0.00e+00	0	26	0	473956352	74	4928
2026-01-06 01:05:28.98	19.71	33.92	-54.4	-56.7	13.8	0.00e+00	0	26	0	476053504	74	4848
2026-01-06 01:05:29.98	19.64	34.13	-54.2	-56.5	13.9	0.00e+00	0	26	0	477102080	74	4730
2026-01-06 01:05:30.98	19.57	34.35	-54.2	-56.5	13.9	0.00e+00	0	26	0	479199232	74	4720
2026-01-06 01:05:31.98	19.50	34.57	-54.1	-56.3	14.0	0.00e+00	0	26	0	481296384	74	4631
2026-01-06 01:05:32.97	19.43	34.78	-54.0	-56.1	14.1	0.00e+00	0	26	0	483393536	74	4527
2026-01-06 01:05:33.96	19.36	35.00	-53.6	-55.6	14.2	0.00e+00	0	26	0	484442112	73	4545
2026-01-06 01:05:34.96	19.29	35.22	-53.5	-55.5	14.3	0.00e+00	0	26	0	486539264	73	4449
2026-01-06 01:05:35.95	19.21	35.44	-53.3	-55.2	14.5	0.00e+00	0	27	0	488636416	73	4313
2026-01-06 01:05:36.95	19.13	35.67	-53.2	-55.1	14.5	0.00e+00	0	26	0	490733568	73	4254
2026-01-06 01:05:37.95	19.06	35.90	-52.9	-54.8	14.5	0.00e+00	0	26	0	492830720	72	4343
2026-01-06 01:05:38.95	18.98	36.12	-52.7	-54.5	14.7	0.00e+00	0	26	0	493879296	72	4195
2026-01-06 01:05:39.95	18.90	36.35	-52.6	-54.4	14.6	0.00e+00	0	26	0	495976448	71	4406
2026-01-06 01:05:40.96	18.82	36.59	-52.5	-54.3	14.6	0.00e+00	0	26	0	498073600	71	4357
2026-01-06 01:05:41.95	18.74	36.82	-52.7	-54.5	14.5	0.00e+00	0	26	0	500170752	71	4475
2026-01-06 01:05:42.95	18.65	37.05	-52.4	-54.2	14.7	0.00e+00	0	26	0	501219328	71	4293
2026-01-06 01:05:43.95	18.57	37.29	-52.4	-54.2	14.7	0.00e+00	0	26	0	503316480	71	4294
2026-01-06 01:05:44.95	18.48	37.52	-52.4	-54.2	14.7	0.00e+00	0	26	0	505413632	71	4303
2026-01-06 01:05:45.94	18.39	37.76	-52.3	-54.0	14.8	0.00e+00	0	26	0	507510784	71	4223
2026-01-06 01:05:46.94	18.31	38.00	-52.3	-54.0	14.7	0.00e+00	0	26	0	509607936	71	4218
2026-01-06 01:05:47.95	18.22	38.24	-52.4	-54.1	14.7	0.00e+00	0	26	0	510656512	71	4260
2026-01-06 01:05:48.95	18.12	38.49	-52.4	-54.1	14.7	0.00e+00	0	26	0	512753664	71	4290
2026-01-06 01:05:49.94	18.03	38.73	-52.8	-54.6	14.5	0.00e+00	0	26	0	514850816	71	4534
2026-01-06 01:05:50.93	17.94	38.98	-52.9	-54.7	14.5	0.00e+00	0	26	0	516947968	71	4574
2026-01-06 01:05:51.93	17.84	39.23	-52.9	-54.8	14.4	0.00e+00	0	27	0	519045120	71	4621
2026-01-06 01:05:52.93	17.75	39.48	-53.0	-54.9	14.3	0.00e+00	0	26	0	520093696	71	4689
2026-01-06 01:05:53.93	17.65	39.73	-53.2	-55.1	14.3	0.00e+00	0	26	0	522190848	71	4798
2026-01-06 01:05:54.93	17.55	39.98	-53.4	-55.4	14.2	0.00e+00	0	26	0	524288000	71	4962
2026-01-06 01:05:55.92	17.44	40.24	-53.7	-55.7	14.2	0.00e+00	0	26	0	526385152	72	4834
2026-01-06 01:05:56.91	17.34	40.49	-53.8	-55.9	14.0	0.00e+00	0	26	0	527433728	72	4938
2026-01-06 01:05:57.90	17.24	40.75	-54.0	-56.1	14.0	0.00e+00	0	26	0	529530880	73	4784
2026-01-06 01:05:58.90	17.13	41.01	-54.2	-56.4	13.9	0.00e+00	0	26	0	531628032	73	4981
2026-01-06 01:05:59.90	17.02	41.27	-54.2	-56.4	13.9	0.00e+00	0	27	0	533725184	73	4973
2026-01-06 01:06:00.89	16.91	41.53	-54.2	-56.4	13.9	0.00e+00	0	26	0	535822336	73	4949
2026-01-06 01:06:01.89	16.80	41.80	-54.1	-56.3	13.9	0.00e+00	0	27	0	536870912	73	4915
2026-01-06 01:06:02.89	16.68	42.07	-54.2	-56.4	13.9	0.00e+00	0	26	0	538968064	73	4930
2026-01-06 01:06:03.89	16.57	42.34	-54.3	-56.6	13.8	0.00e+00	0	26	0	541065216	73	5062
2026-01-06 01:06:04.88	16.45	42.61	-54.4	-56.6	13.9	0.00e+00	0	26	0	543162368	74	4797
2026-01-06 01:06:05.88	16.33	42.88	-54.2	-56.4	14.0	0.00e+00	0	26	0	545259520	74	4681
2026-01-06 01:06:06.87	16.20	43.15	-54.3	-56.5	13.9	0.00e+00	0	26	0	546308096	74	4739
2026-01-06 01:06:07.86	16.08	43.43	-54.4	-56.6	13.9	0.00e+00	0	26	0	548405248	74	4783
2026-01-06 01:06:08.86	15.95	43.71	-54.3	-56.6	14.0	0.00e+00	0	26	0	550502400	74	4780
2026-01-06 01:06:09.85	15.82	43.99	-54.5	-56.9	13.8	0.00e+00	0	26	0	552599552	74	4928
2026-01-06 01:06:10.85	15.69	44.27	-54.5	-56.8	13.7	0.00e+00	0	26	0	553648128	74	4915
2026-01-06 01:06:11.84	15.56	44.55	-54.4	-56.6	13.9	0.00e+00	0	26	0	555745280	74	4792
2026-01-06 01:06:12.84	15.42	44.84	-54.5	-56.8	13.8	0.00e+00	0	26	0	557842432	74	4900
2026-01-06 01:06:13.84	15.28	45.13	-54.6	-57.0	13.7	0.00e+00	0	26	0	559939584	74	5015
2026-01-06 01:06:14.84	15.14	45.42	-54.6	-56.9	13.8	0.00e+00	0	26	0	562036736	74	4981
2026-01-06 01:06:15.84	14.99	45.71	-54.6	-56.9	13.8	0.00e+00	0	26	0	563085312	74	4968
2026-01-06 01:06:16.83	14.85	46.00	-54.6	-56.9	13.7	0.00e+00	0	26	0	565182464	74	4978
2026-01-06 01:06:17.83	14.70	46.30	-54.4	-56.7	13.8	0.00e+00	0	26	0	567279616	74	4849
2026-01-06 01:06:18.83	14.54	46.60	-54.4	-56.7	13.8	0.00e+00	0	26	0	569376768	74	4831
2026-01-06 01:06:19.83	14.39	46.90	-54.8	-57.3	13.6	0.00e+00	0	27	0	570425344	74	5194
2026-01-06 01:06:20.83	14.23	47.20	-54.8	-57.2	13.6	0.00e+00	0	26	0	572522496	74	5134
2026-01-06 01:06:21.83	14.06	47.50	-55.0	-57.5	13.6	0.00e+00	0	26	0	574619648	75	4987
2026-01-06 01:06:22.82	13.90	47.81	-54.9	-57.4	13.6	0.00e+00	0	26	0	576716800	75	4976
2026-01-06 01:06:23.81	13.73	48.11	-55.0	-57.6	13.5	0.00e+00	0	26	0	578813952	75	5052
2026-01-06 01:06:24.81	13.56	48.42	-55.0	-57.6	13.5	0.00e+00	0	26	0	579862528	75	5060
2026-01-06 01:06:25.81	13.38	48.73	-54.8	-57.3	13.7	0.00e+00	0	26	0	581959680	75	4893
2026-01-06 01:06:26.81	13.20	49.05	-54.8	-57.2	13.7	0.00e+00	0	26	0	584056832	75	4816
2026-01-06 01:06:27.81	13.02	49.36	-54.5	-56.7	14.0	0.00e+00	0	26	0	586153984	75	4591
2026-01-06 01:06:28.80	12.83	49.68	-54.3	-56.5	14.1	0.00e+00	0	26	0	587202560	75	4480
2026-01-06 01:06:29.80	12.64	50.00	-54.3	-56.5	14.1	0.00e+00	0	26	0	589299712	75	4464
2026-01-06 01:06:30.80	12.44	50.32	-54.2	-56.4	14.1	0.00e+00	0	27	0	591396864	74	4657
2026-01-06 01:06:31.79	12.24	50.64	-53.5	-55.4	14.4	0.00e+00	0	26	0	593494016	73	4402
2026-01-06 01:06:32.79	12.04	50.96	-52.9	-54.6	14.6	0.00e+00	0	26	0	595591168	72	4278
2026-01-06 01:06:33.78	11.83	51.29	-52.6	-54.3	14.6	0.00e+00	0	26	0	596639744	71	4359
2026-01-06 01:06:34.79	11.61	51.62	-52.3	-54.0	14.8	0.00e+00	0	26	0	598736896	71	4210
2026-01-06 01:06:35.78	11.39	51.95	-52.0	-53.6	14.8	0.00e+00	0	26	0	600834048	70	4275
2026-01-06 01:06:36.78	11.17	52.28	-51.7	-53.2	15.0	0.00e+00	0	26	0	602931200	70	4098
2026-01-06 01:06:37.78	10.94	52.61	-51.6	-53.1	14.9	0.00e+00	0	26	0	605028352	69	4248
2026-01-06 01:06:38.78	10.71	52.95	-51.4	-52.9	15.0	0.00e+00	0	26	0	606076928	69	4161
2026-01-06 01:06:39.77	10.47	53.28	-51.6	-53.1	14.9	0.00e+00	0	26	0	608174080	69	4259
2026-01-06 01:06:40.77	10.22	53.62	-51.8	-53.3	14.8	0.00e+00	0	26	0	610271232	69	4379
2026-01-06 01:06:41.76	9.97	53.96	-51.7	-53.3	14.8	0.00e+00	0	26	0	612368384	69	4367
2026-01-06 01:06:42.74	9.72	54.30	-51.5	-53.0	14.9	0.00e+00	0	26	0	613416960	69	4195
2026-01-06 01:06:43.75	9.45	54.64	-51.5	-53.0	14.9	0.00e+00	0	26	0	615514112	69	4194
2026-01-06 01:06:44.75	9.18	54.99	-51.7	-53.3	14.8	0.00e+00	0	26	0	617611264	69	4345
2026-01-06 01:06:45.75	8.90	55.34	-52.1	-53.7	14.7	0.00e+00	0	26	0	619708416	69	4565
2026-01-06 01:06:46.74	8.62	55.68	-52.4	-54.0	14.6	0.00e+00	0	26	0	621805568	69	4746
2026-01-06 01:06:47.74	8.33	56.03	-52.6	-54.3	14.5	0.00e+00	0	26	0	622854144	70	4644
2026-01-06 01:06:48.74	8.03	56.39	-53.0	-54.8	14.4	0.00e+00	0	26	0	624951296	71	4629
2026-01-06 01:06:49.74	7.72	56.74	-53.4	-55.3	14.3	0.00e+00	0	26	0	627048448	71	4921
2026-01-06 01:06:50.73	7.41	57.09	-53.7	-55.7	14.2	0.00e+00	0	26	0	629145600	72	4826
2026-01-06 01:06:51.73	7.08	57.45	-54.0	-56.1	14.1	0.00e+00	0	26	0	631242752	73	4796
2026-01-06 01:06:52.72	6.75	57.80	-54.5	-56.8	13.9	0.00e+00	0	27	0	632291328	74	4909
2026-01-06 01:06:53.71	6.42	58.16	-54.8	-57.2	13.7	0.00e+00	0	26	0	634388480	74	5118
2026-01-06 01:06:54.71	6.06	58.52	-54.6	-56.9	13.9	0.00e+00	0	26	0	636485632	75	4659
2026-01-06 01:06:55.71	5.70	58.88	-54.2	-56.3	14.2	0.00e+00	0	26	0	638582784	75	4375
2026-01-06 01:06:56.71	5.33	59.24	-53.8	-55.8	14.3	0.00e+00	0	26	0	639631360	74	4377
2026-01-06 01:06:57.71	4.95	59.61	-53.6	-55.6	14.3	0.00e+00	0	26	0	641728512	73	4509
2026-01-06 01:06:58.70	4.56	59.97	-53.2	-55.1	14.6	0.00e+00	0	26	0	643825664	73	4258
2026-01-06 01:06:59.69	4.16	60.33	-52.7	-54.4	14.7	0.00e+00	0	27	0	645922816	72	4193
2026-01-06 01:07:00.69	3.75	60.70	-52.6	-54.3	14.7	0.00e+00	0	26	0	648019968	71	4363
2026-01-06 01:07:01.69	3.32	61.06	-51.9	-53.5	14.9	0.00e+00	0	26	0	649068544	70	4212
2026-01-06 01:07:02.68	2.88	61.43	-51.1	-52.5	15.0	0.00e+00	0	26	0	651165696	68	4210
2026-01-06 01:07:03.67	2.43	61.79	-50.9	-52.3	15.1	0.00e+00	0	26	0	653262848	68	4119
2026-01-06 01:07:04.67	1.97	62.16	-51.0	-52.4	15.1	0.00e+00	0	26	0	655360000	68	4158
2026-01-06 01:07:05.67	1.48	62.53	-51.2	-52.7	14.9	0.00e+00	0	26	0	656408576	68	4308
2026-01-06 01:07:06.67	0.99	62.90	-51.4	-52.9	14.9	0.00e+00	0	26	0	658505728	68	4428
2026-01-06 01:07:07.67	0.47	63.27	-51.7	-53.3	14.7	0.00e+00	0	26	0	660602880	68	4602
2026-01-06 01:07:08.67	359.94	63.64	-51.9	-53.4	14.7	0.00e+00	0	26	0	662700032	68	4698
2026-01-06 01:07:09.68	359.39	64.01	-52.1	-53.7	14.6	0.00e+00	0	26	0	664797184	69	4595
2026-01-06 01:07:10.69	358.82	64.38	-52.3	-53.9	14.6	0.00e+00	0	26	0	665845760	69	4694
2026-01-06 01:07:11.69	358.24	64.75	-52.5	-54.2	14.6	0.00e+00	0	26	0	667942912	70	4579
2026-01-06 01:07:12.69	357.64	65.12	-52.7	-54.4	14.5	0.00e+00	0	26	0	670040064	70	4701
2026-01-06 01:07:13.69	357.01	65.48	-53.1	-54.9	14.4	0.00e+00	0	26	0	672137216	71	4662
2026-01-06 01:07:14.70	356.36	65.85	-53.6	-55.5	14.3	0.00e+00	0	26	0	674234368	72	4736
2026-01-06 01:07:15.70	355.70	66.22	-54.0	-56.1	14.1	0.00e+00	0	26	0	675282944	73	4766
2026-01-06 01:07:16.70	355.01	66.58	-54.3	-56.4	14.0	0.00e+00	0	27	0	677380096	73	4969
2026-01-06 01:07:17.70	354.30	66.94	-54.4	-56.5	13.9	0.00e+00	0	26	0	679477248	73	5041
2026-01-06 01:07:18.70	353.56	67.30	-54.3	-56.4	14.1	0.00e+00	0	27	0	681574400	74	4671
2026-01-06 01:07:19.69	352.80	67.65	-54.2	-56.2	14.2	0.00e+00	0	26	0	682622976	74	4590
2026-01-06 01:07:20.70	352.00	68.01	-54.5	-56.7	14.0	0.00e+00	0	26	0	684720128	74	4819
2026-01-06 01:07:21.70	351.18	68.36	-54.8	-57.1	13.7	0.00e+00	0	26	0	686817280	74	5092
2026-01-06 01:07:22.69	350.34	68.71	-54.7	-57.1	13.8	0.00e+00	0	27	0	688914432	74	5050
2026-01-06 01:07:23.69	349.47	69.06	-54.4	-56.6	14.1	0.00e+00	0	26	0	691011584	75	4514
2026-01-06 01:07:24.70	348.55	69.40	-53.5	-55.4	14.4	0.00e+00	0	27	0	692060160	73	4435
2026-01-06 01:07:25.70	347.60	69.74	-53.1	-54.8	14.6	0.00e+00	0	26	0	694157312	72	4384
2026-01-06 01:07:26.69	346.63	70.07	-52.7	-54.4	14.8	0.00e+00	0	26	0	696254464	72	4172
2026-01-06 01:07:27.69	345.62	70.40	-52.5	-54.1	14.8	0.00e+00	0	26	0	698351616	71	4266
2026-01-06 01:07:28.68	344.58	70.73	-52.1	-53.7	14.8	0.00e+00	0	26	0	700448768	70	4315
2026-01-06 01:07:29.68	343.49	71.05	-52.1	-53.7	14.8	0.00e+00	0	27	0	701497344	70	4318
2026-01-06 01:07:30.68	342.36	71.36	-52.3	-54.0	14.7	0.00e+00	0	26	0	703594496	70	4445
2026-01-06 01:07:31.68	341.19	71.67	-52.6	-54.3	14.6	0.00e+00	0	26	0	705691648	70	4627
2026-01-06 01:07:32.67	339.99	71.97	-53.3	-55.1	14.4	0.00e+00	0	26	0	707788800	71	4780
2026-01-06 01:07:33.68	338.73	72.26	-53.1	-55.0	14.4	0.00e+00	0	26	0	709885952	71	4708
2026-01-06 01:07:34.67	337.44	72.55	-53.0	-54.7	14.5	0.00e+00	0	26	0	710934528	71	4584
2026-01-06 01:07:35.67	336.10	72.83	-52.7	-54.4	14.6	0.00e+00	0	26	0	713031680	71	4422
2026-01-06 01:07:36.67	334.71	73.10	-52.5	-54.1	14.8	0.00e+00	0	26	0	715128832	71	4266
2026-01-06 01:07:37.67	333.27	73.36	-52.5	-54.1	14.8	0.00e+00	0	26	0	717225984	71	4281
2026-01-06 01:07:38.66	331.80	73.61	-53.2	-55.0	14.4	0.00e+00	0	26	0	718274560	71	4707
2026-01-06 01:07:39.66	330.27	73.85	-53.9	-55.9	14.2	0.00e+00	0	26	0	720371712	73	4705
2026-01-06 01:07:40.66	328.69	74.08	-54.5	-56.7	14.0	0.00e+00	0	26	0	722468864	74	4845
2026-01-06 01:07:41.66	327.06	74.30	-55.2	-57.7	13.5	0.00e+00	0	27	0	724566016	75	5121
2026-01-06 01:07:42.65	325.41	74.50	-54.9	-57.2	13.9	0.00e+00	0	27	0	726663168	76	4563
2026-01-06 01:07:43.66	323.67	74.70	-54.5	-56.6	14.1	0.00e+00	0	26	0	727711744	75	4530
2026-01-06 01:07:44.66	321.91	74.88	-54.7	-57.0	13.9	0.00e+00	0	26	0	729808896	75	4745
2026-01-06 01:07:45.66	320.11	75.04	-55.2	-57.7	13.6	0.00e+00	0	26	0	731906048	75	5102
2026-01-06 01:07:46.66	318.26	75.20	-55.6	-58.2	13.5	0.00e+00	0	26	0	734003200	76	5136
2026-01-06 01:07:47.66	316.38	75.33	-56.1	-58.9	13.1	0.00e+00	0	26	0	735051776	77	5254
2026-01-06 01:07:48.66	314.46	75.45	-56.4	-59.4	12.8	0.00e+00	0	26	0	737148928	77	5584
2026-01-06 01:07:49.66	312.51	75.56	-56.5	-59.7	12.8	0.00e+00	0	26	0	739246080	78	5438
2026-01-06 01:07:50.67	310.51	75.65	-57.1	-60.8	12.1	1.50e-06	0	26	0	741343232	79	5790
2026-01-06 01:07:51.67	308.51	75.72	-56.6	-59.9	12.7	0.00e+00	0	26	0	743440384	79	5219
2026-01-06 01:07:52.67	306.49	75.78	-56.1	-59.0	13.2	0.00e+00	0	27	0	745537536	78	5013
2026-01-06 01:07:53.68	304.44	75.81	-55.8	-58.6	13.4	0.00e+00	0	26	0	746586112	78	4761
2026-01-06 01:07:54.68	302.40	75.83	-55.6	-58.2	13.6	0.00e+00	0	27	0	748683264	77	4822
2026-01-06 01:07:55.68	300.35	75.84	-55.3	-57.7	13.8	0.00e+00	0	27	0	750780416	77	4548
2026-01-06 01:07:56.68	298.31	75.82	-55.1	-57.5	13.8	0.00e+00	0	26	0	752877568	76	4709
2026-01-06 01:07:57.68	296.28	75.79	-55.2	-57.6	13.7	0.00e+00	0	26	0	753926144	76	4808
2026-01-06 01:07:58.68	294.25	75.74	-55.3	-57.8	13.7	0.00e+00	0	26	0	756023296	76	4889
2026-01-06 01:07:59.67	292.26	75.68	-55.3	-57.7	13.7	0.00e+00	0	27	0	758120448	76	4843
2026-01-06 01:08:00.67	290.28	75.59	-55.2	-57.5	13.8	0.00e+00	0	26	0	760217600	76	4754
2026-01-06 01:08:01.67	288.32	75.49	-55.3	-57.7	13.7	0.00e+00	0	26	0	762314752	76	4841
2026-01-06 01:08:02.66	286.41	75.38	-55.5	-58.0	13.6	0.00e+00	0	26	0	763363328	76	4996
2026-01-06 01:08:03.66	284.51	75.25	-55.5	-58.1	13.5	0.00e+00	0	27	0	765460480	76	5080
2026-01-06 01:08:04.66	282.65	75.10	-55.8	-58.5	13.3	0.00e+00	0	26	0	767557632	76	5313
2026-01-06 01:08:05.66	280.83	74.94	-55.9	-58.7	13.3	0.00e+00	0	26	0	769654784	77	5157
2026-01-06 01:08:06.66	279.05	74.76	-56.1	-59.0	13.1	0.00e+00	0	26	0	770703360	77	5339
2026-01-06 01:08:07.66	277.31	74.58	-56.2	-59.1	13.0	0.00e+00	0	26	0	772800512	77	5377
2026-01-06 01:08:08.66	275.62	74.37	-55.8	-58.5	13.4	0.00e+00	0	26	0	774897664	77	4993
2026-01-06 01:08:09.65	274.00	74.16	-55.4	-57.9	13.7	0.00e+00	0	26	0	776994816	77	4697
2026-01-06 01:08:10.66	272.38	73.93	-55.1	-57.4	13.9	0.00e+00	0	26	0	779091968	76	4691
2026-01-06 01:08:11.65	270.85	73.70	-54.5	-56.6	14.1	0.00e+00	0	26	0	780140544	75	4531
2026-01-06 01:08:12.66	269.33	73.45	-54.6	-56.7	14.1	0.00e+00	0	26	0	782237696	75	4585
2026-01-06 01:08:13.66	267.88	73.19	-54.4	-56.6	14.2	0.00e+00	0	26	0	784334848	75	4507
2026-01-06 01:08:14.66	266.47	72.92	-54.1	-56.1	14.3	0.00e+00	0	27	0	786432000	74	4507
2026-01-06 01:08:15.67	265.10	72.64	-53.9	-55.9	14.4	0.00e+00	0	26	0	788529152	74	4426
2026-01-06 01:08:16.68	263.77	72.36	-53.8	-55.7	14.5	0.00e+00	0	26	0	789577728	74	4337
2026-01-06 01:08:17.68	262.50	72.06	-53.2	-55.0	14.6	0.00e+00	0	27	0	791674880	73	4223
2026-01-06 01:08:18.68	261.27	71.77	-53.1	-54.9	14.6	0.00e+00	0	26	0	793772032	72	4407
2026-01-06 01:08:19.68	260.09	71.46	-53.3	-55.1	14.5	0.00e+00	0	26	0	795869184	72	4496
2026-01-06 01:08:20.69	258.94	71.14	-53.6	-55.4	14.4	0.00e+00	0	26	0	797966336	72	4676
2026-01-06 01:08:21.69	257.83	70.82	-54.0	-55.9	14.2	0.00e+00	0	26	0	799014912	73	4699
2026-01-06 01:08:22.69	256.77	70.50	-54.4	-56.5	14.0	0.00e+00	0	26	0	801112064	73	5030
2026-01-06 01:08:23.68	255.75	70.17	-54.7	-57.0	13.8	0.00e+00	0	26	0	803209216	74	5012
2026-01-06 01:08:24.67	254.77	69.84	-55.4	-57.9	13.4	0.00e+00	0	26	0	805306368	75	5264
2026-01-06 01:08:25.66	253.83	69.51	-55.8	-58.5	13.3	0.00e+00	0	27	0	806354944	76	5296
2026-01-06 01:08:26.66	252.91	69.17	-55.9	-58.7	13.1	0.00e+00	0	26	0	808452096	76	5410
2026-01-06 01:08:27.67	252.01	68.82	-55.8	-58.5	13.3	0.00e+00	0	26	0	810549248	77	5039
2026-01-06 01:08:28.66	251.16	68.47	-55.5	-58.1	13.5	0.00e+00	0	26	0	812646400	77	4761
2026-01-06 01:08:29.65	250.34	68.12	-55.8	-58.5	13.3	0.00e+00	0	26	0	814743552	77	5040
2026-01-06 01:08:30.65	249.54	67.77	-56.1	-59.0	13.0	0.00e+00	0	26	0	815792128	77	5306
2026-01-06 01:08:31.64	248.77	67.41	-55.5	-58.1	13.5	0.00e+00	0	26	0	817889280	77	4785
2026-01-06 01:08:32.64	248.02	67.06	-54.8	-57.1	14.0	0.00e+00	0	26	0	819986432	76	4517
2026-01-06 01:08:33.63	247.31	66.70	-54.5	-56.7	14.1	0.00e+00	0	26	0	822083584	75	4548
2026-01-06 01:08:34.63	246.61	66.34	-54.0	-55.9	14.3	0.00e+00	0	27	0	824180736	74	4440
2026-01-06 01:08:35.62	245.94	65.97	-53.6	-55.5	14.4	0.00e+00	0	26	0	825229312	73	4461
2026-01-06 01:08:36.61	245.30	65.61	-52.8	-54.5	14.7	0.00e+00	0	26	0	827326464	72	4221
2026-01-06 01:08:37.60	244.67	65.25	-52.1	-53.6	14.8	0.00e+00	0	26	0	829423616	70	4286
2026-01-06 01:08:38.60	244.06	64.88	-51.9	-53.4	14.9	0.00e+00	0	27	0	831520768	70	4189
2026-01-06 01:08:39.59	243.48	64.52	-51.4	-52.9	15.0	0.00e+00	0	26	0	832569344	69	4168
2026-01-06 01:08:40.59	242.90	64.15	-51.2	-52.6	15.0	0.00e+00	0	26	0	834666496	68	4279
2026-01-06 01:08:41.59	242.35	63.78	-51.1	-52.5	15.0	0.00e+00	0	26	0	836763648	68	4235
2026-01-06 01:08:42.58	241.82	63.41	-50.9	-52.3	15.1	0.00e+00	0	26	0	838860800	68	4133
2026-01-06 01:08:43.59	241.29	63.04	-50.3	-51.7	15.2	0.00e+00	0	26	0	840957952	67	4052
2026-01-06 01:08:44.58	240.79	62.67	-50.4	-51.8	15.1	0.00e+00	0	26	0	842006528	67	4109
2026-01-06 01:08:45.57	240.31	62.31	-50.5	-51.9	15.1	0.00e+00	0	26	0	844103680	67	4148
2026-01-06 01:08:46.57	239.83	61.94	-50.8	-52.3	14.9	0.00e+00	0	26	0	846200832	67	4344
2026-01-06 01:08:47.55	239.38	61.58	-51.8	-53.3	14.7	0.00e+00	0	26	0	848297984	68	4621
2026-01-06 01:08:48.56	238.93	61.21	-52.8	-54.6	14.5	0.00e+00	0	26	0	849346560	70	4783
2026-01-06 01:08:49.56	238.50	60.84	-53.4	-55.3	14.3	0.00e+00	0	26	0	851443712	71	4872
2026-01-06 01:08:50.55	238.08	60.47	-53.7	-55.7	14.2	0.00e+00	0	26	0	853540864	72	4844
2026-01-06 01:08:51.55	237.67	60.11	-53.9	-55.9	14.2	0.00e+00	0	26	0	855638016	73	4693
2026-01-06 01:08:52.55	237.27	59.74	-54.1	-56.2	14.1	0.00e+00	0	26	0	857735168	73	4855
2026-01-06 01:08:53.55	236.89	59.38	-55.2	-57.6	13.5	0.00e+00	0	26	0	858783744	75	5093
2026-01-06 01:08:54.54	236.52	59.02	-56.4	-59.6	12.7	0.00e+00	0	26	0	860880896	77	5659
2026-01-06 01:08:55.53	236.15	58.66	-57.1	-60.7	12.0	0.00e+00	0	26	0	862978048	79	5786
2026-01-06 01:08:56.53	235.80	58.30	-57.0	-60.5	12.2	1.50e-06	0	27	0	865075200	79	5653
2026-01-06 01:08:57.52	235.46	57.94	-56.3	-59.3	12.9	7.00e-07	0	26	0	866123776	79	4906
2026-01-06 01:08:58.51	235.12	57.58	-55.7	-58.4	13.5	0.00e+00	0	26	0	868220928	78	4666
2026-01-06 01:08:59.50	234.80	57.23	-55.2	-57.6	13.8	0.00e+00	0	26	0	870318080	77	4523
2026-01-06 01:09:00.49	234.48	56.88	-55.2	-57.6	13.7	0.00e+00	0	26	0	872415232	76	4802
2026-01-06 01:09:01.49	234.17	56.52	-55.4	-57.9	13.5	0.00e+00	0	26	0	874512384	76	4966
2026-01-06 01:09:02.49	233.86	56.17	-55.1	-57.5	13.8	0.00e+00	0	26	0	875560960	76	4742
2026-01-06 01:09:03.48	233.57	55.82	-54.5	-56.7	14.0	0.00e+00	0	27	0	877658112	75	4584
2026-01-06 01:09:04.48	233.28	55.47	-54.0	-56.0	14.3	0.00e+00	0	27	0	879755264	74	4466
2026-01-06 01:09:05.48	233.00	55.12	-53.8	-55.7	14.4	0.00e+00	0	26	0	881852416	74	4327
2026-01-06 01:09:06.48	232.73	54.77	-53.2	-55.0	14.6	0.00e+00	0	27	0	882900992	73	4224
2026-01-06 01:09:07.47	232.46	54.43	-52.8	-54.6	14.7	0.00e+00	0	26	0	884998144	72	4244
2026-01-06 01:09:08.47	232.20	54.08	-52.8	-54.5	14.7	0.00e+00	0	26	0	887095296	72	4231
2026-01-06 01:09:09.46	231.95	53.74	-52.7	-54.5	14.7	0.00e+00	0	26	0	889192448	72	4198
2026-01-06 01:09:10.46	231.70	53.40	-52.5	-54.2	14.7	0.00e+00	0	26	0	891289600	71	4292
2026-01-06 01:09:11.46	231.46	53.06	-52.4	-54.1	14.8	0.00e+00	0	26	0	892338176	71	4254
2026-01-06 01:09:12.46	231.22	52.73	-52.7	-54.4	14.6	0.00e+00	0	26	0	894435328	71	4425
2026-01-06 01:09:13.46	230.99	52.39	-52.7	-54.4	14.6	0.00e+00	0	27	0	896532480	71	4417
2026-01-06 01:09:14.46	230.76	52.06	-52.8	-54.6	14.6	0.00e+00	0	26	0	898629632	71	4497
2026-01-06 01:09:15.46	230.54	51.73	-52.8	-54.6	14.5	0.00e+00	0	26	0	899678208	71	4519
2026-01-06 01:09:16.45	230.32	51.40	-53.1	-55.0	14.4	0.00e+00	0	26	0	901775360	71	4710
2026-01-06 01:09:17.45	230.11	51.07	-53.3	-55.2	14.3	0.00e+00	0	27	0	903872512	71	4852
2026-01-06 01:09:18.45	229.90	50.74	-53.7	-55.6	14.2	0.00e+00	0	26	0	905969664	72	4807
2026-01-06 01:09:19.45	229.70	50.42	-53.8	-55.8	14.1	0.00e+00	0	26	0	908066816	72	4893
2026-01-06 01:09:20.44	229.50	50.10	-54.1	-56.2	14.1	0.00e+00	0	26	0	909115392	73	4826
2026-01-06 01:09:21.44	229.31	49.78	-54.2	-56.3	14.0	0.00e+00	0	27	0	911212544	73	4907
2026-01-06 01:09:22.43	229.12	49.46	-54.8	-57.1	13.7	0.00e+00	0	26	0	913309696	74	5085
2026-01-06 01:09:23.43	228.93	49.15	-55.1	-57.6	13.6	0.00e+00	0	26	0	915406848	75	5043
2026-01-06 01:09:24.43	228.75	48.83	-55.3	-57.8	13.4	0.00e+00	0	26	0	917504000	75	5205
2026-01-06 01:09:25.43	228.57	48.52	-55.1	-57.6	13.6	0.00e+00	0	26	0	918552576	75	5092
2026-01-06 01:09:26.43	228.40	48.21	-54.9	-57.3	13.7	0.00e+00	0	26	0	920649728	75	4888
2026-01-06 01:09:27.43	228.23	47.90	-54.5	-56.7	14.0	0.00e+00	0	27	0	922746880	75	4554
2026-01-06 01:09:28.42	228.06	47.59	-54.4	-56.6	14.1	0.00e+00	0	26	0	924844032	75	4498
2026-01-06 01:09:29.41	227.90	47.29	-54.0	-56.1	14.2	0.00e+00	0	27	0	925892608	74	4521
2026-01-06 01:09:30.40	227.74	46.99	-54.1	-56.2	14.2	0.00e+00	0	27	0	927989760	74	4560
2026-01-06 01:09:31.40	227.58	46.69	-54.0	-56.1	14.2	0.00e+00	0	26	0	930086912	74	4515
2026-01-06 01:09:32.41	227.42	46.38	-54.1	-56.1	14.2	0.00e+00	0	26	0	932184064	74	4533
2026-01-06 01:09:33.40	227.27	46.09	-54.2	-56.2	14.1	0.00e+00	0	26	0	934281216	74	4596
2026-01-06 01:09:34.39	227.12	45.80	-54.2	-56.3	14.1	0.00e+00	0	27	0	935329792	74	4650
2026-01-06 01:09:35.39	226.98	45.50	-54.5	-56.7	13.9	0.00e+00	0	26	0	937426944	74	4858
2026-01-06 01:09:36.39	226.83	45.21	-54.8	-57.1	13.7	0.00e+00	0	26	0	939524096	74	5081
2026-01-06 01:09:37.38	226.69	44.92	-54.6	-56.8	13.8	0.00e+00	0	27	0	941621248	74	4917
2026-01-06 01:09:38.38	226.55	44.63	-54.3	-56.5	14.0	0.00e+00	0	26	0	943718400	74	4729
2026-01-06 01:09:39.38	226.42	44.35	-54.2	-56.4	14.1	0.00e+00	0	26	0	944766976	74	4657
2026-01-06 01:09:40.37	226.29	44.07	-54.3	-56.4	14.0	0.00e+00	0	26	0	946864128	74	4703
2026-01-06 01:09:41.37	226.15	43.78	-54.5	-56.8	13.9	0.00e+00	0	27	0	948961280	74	4885
2026-01-06 01:09:42.36	226.03	43.51	-54.8	-57.2	13.6	0.00e+00	0	27	0	951058432	74	5159
2026-01-06 01:09:43.35	225.90	43.23	-55.2	-57.7	13.5	0.00e+00	0	26	0	952107008	75	5134
2026-01-06 01:09:44.35	225.78	42.95	-55.3	-57.8	13.4	0.00e+00	0	27	0	954204160	75	5208
2026-01-06 01:09:45.35	225.65	42.68	-55.4	-58.0	13.4	0.00e+00	0	27	0	956301312	76	5010
2026-01-06 01:09:46.34	225.54	42.41	-55.5	-58.1	13.4	0.00e+00	0	26	0	958398464	76	5098
2026-01-06 01:09:47.34	225.42	42.13	-55.5	-58.2	13.3	0.00e+00	0	26	0	960495616	76	5151
2026-01-06 01:09:48.35	225.30	41.86	-55.3	-57.8	13.5	0.00e+00	0	26	0	961544192	76	4912
2026-01-06 01:09:49.35	225.19	41.59	-55.1	-57.6	13.6	0.00e+00	0	26	0	963641344	76	4792
2026-01-06 01:09:50.35	225.07	41.33	-54.9	-57.3	13.8	0.00e+00	0	27	0	965738496	76	4627
2026-01-06 01:09:51.34	224.96	41.07	-55.1	-57.5	13.7	0.00e+00	0	26	0	967835648	76	4757
2026-01-06 01:09:52.34	224.86	40.80	-54.9	-57.3	13.8	0.00e+00	0	26	0	968884224	76	4635
2026-01-06 01:09:53.34	224.75	40.54	-55.1	-57.6	13.7	0.00e+00	0	27	0	970981376	76	4776
2026-01-06 01:09:54.34	224.64	40.28	-55.2	-57.8	13.6	0.00e+00	0	26	0	973078528	76	4874
2026-01-06 01:09:55.34	224.54	40.03	-55.3	-57.9	13.5	0.00e+00	0	27	0	975175680	76	4966
2026-01-06 01:09:56.34	224.44	39.77	-55.4	-58.0	13.4	0.00e+00	0	26	0	977272832	76	5024
2026-01-06 01:09:57.33	224.34	39.52	-55.3	-57.9	13.4	0.00e+00	0	26	0	978321408	76	4972
2026-01-06 01:09:58.33	224.24	39.27	-55.3	-57.8	13.5	0.00e+00	0	26	0	980418560	76	4905
2026-01-06 01:09:59.33	224.15	39.02	-55.0	-57.3	13.8	0.00e+00	0	27	0	982515712	76	4649
2026-01-06 01:10:00.33	224.05	38.77	-54.6	-56.9	13.9	0.00e+00	0	26	0	984612864	75	4691
2026-01-06 01:10:01.34	223.96	38.52	-54.4	-56.6	14.1	0.00e+00	0	26	0	986710016	75	4521
2026-01-06 01:10:02.34	223.86	38.28	-54.3	-56.5	14.1	0.00e+00	0	26	0	987758592	75	4448
2026-01-06 01:10:03.34	223.77	38.03	-54.2	-56.3	14.2	0.00e+00	0	26	0	989855744	75	4385
2026-01-06 01:10:04.33	223.68	37.79	-54.1	-56.2	14.1	0.00e+00	0	26	0	991952896	74	4597
2026-01-06 01:10:05.33	223.60	37.55	-54.0	-56.1	14.2	0.00e+00	0	26	0	994050048	74	4522
2026-01-06 01:10:06.32	223.51	37.32	-54.0	-56.0	14.2	0.00e+00	0	26	0	995098624	74	4475
2026-01-06 01:10:07.32	223.43	37.08	-53.9	-55.9	14.3	0.00e+00	0	27	0	997195776	74	4402
2026-01-06 01:10:08.32	223.34	36.84	-54.0	-56.1	14.2	0.00e+00	0	26	0	999292928	74	4540
2026-01-06 01:10:09.32	223.26	36.61	-54.3	-56.5	14.0	0.00e+00	0	26	0	1001390080	74	4745
2026-01-06 01:10:10.31	223.18	36.38	-54.5	-56.8	13.8	0.00e+00	0	26	0	1003487232	74	4878
2026-01-06 01:10:11.32	223.10	36.15	-54.6	-57.0	13.7	0.00e+00	0	27	0	1004535808	74	5004
2026-01-06 01:10:12.32	223.02	35.92	-54.6	-57.0	13.7	0.00e+00	0	26	0	1006632960	74	5000
2026-01-06 01:10:13.32	222.94	35.69	-54.6	-56.9	13.8	0.00e+00	0	26	0	1008730112	74	4955
2026-01-06 01:10:14.32	222.86	35.47	-54.4	-56.7	13.9	0.00e+00	0	26	0	1010827264	74	4820
2026-01-06 01:10:15.32	222.78	35.24	-54.5	-56.8	13.8	0.00e+00	0	26	0	1012924416	74	4887
2026-01-06 01:10:16.32	222.71	35.02	-54.5	-56.8	13.9	0.00e+00	0	26	0	1013972992	74	4881
2026-01-06 01:10:17.32	222.64	34.80	-54.6	-57.0	13.7	0.00e+00	0	27	0	1016070144	74	5020
2026-01-06 01:10:18.32	222.56	34.58	-54.7	-57.1	13.7	0.00e+00	0	27	0	1018167296	74	5056
2026-01-06 01:10:19.32	222.49	34.36	-54.8	-57.3	13.6	0.00e+00	0	26	0	1020264448	74	5160
2026-01-06 01:10:20.32	222.42	34.14	-54.9	-57.4	13.6	0.00e+00	0	26	0	1021313024	75	4952
2026-01-06 01:10:21.32	222.35	33.93	-54.9	-57.4	13.6	0.00e+00	0	26	0	1023410176	75	4947
2026-01-06 01:10:22.32	222.28	33.71	-55.1	-57.6	13.5	0.00e+00	0	26	0	1025507328	75	5088
2026-01-06 01:10:23.33	222.21	33.50	-55.2	-57.9	13.3	0.00e+00	0	27	0	1027604480	75	5256
2026-01-06 01:10:24.32	222.15	33.29	-55.4	-58.1	13.2	0.00e+00	0	26	0	1029701632	75	5364
2026-01-06 01:10:25.33	222.08	33.08	-55.6	-58.4	13.2	0.00e+00	0	27	0	1030750208	76	5219
2026-01-06 01:10:26.33	222.02	32.87	-55.7	-58.5	13.1	0.00e+00	0	27	0	1032847360	76	5307
2026-01-06 01:10:27.33	221.95	32.66	-55.6	-58.4	13.2	0.00e+00	0	26	0	1034944512	76	5223
2026-01-06 01:10:28.33	221.89	32.46	-55.4	-58.0	13.4	0.00e+00	0	27	0	1037041664	76	5032
2026-01-06 01:10:29.33	221.82	32.25	-55.1	-57.7	13.6	0.00e+00	0	26	0	1039138816	76	4830
2026-01-06 01:10:30.33	221.76	32.05	-55.1	-57.7	13.6	0.00e+00	0	26	0	1040187392	76	4815
2026-01-06 01:10:31.33	221.70	31.85	-55.1	-57.6	13.6	0.00e+00	0	26	0	1042284544	76	4774
2026-01-06 01:10:32.34	221.64	31.65	-55.0	-57.5	13.6	0.00e+00	0	26	0	1044381696	76	4733
2026-01-06 01:10:33.34	221.58	31.45	-55.2	-57.7	13.5	0.00e+00	0	27	0	1046478848	76	4864
2026-01-06 01:10:34.34	221.52	31.25	-55.1	-57.6	13.6	0.00e+00	0	26	0	1048576000	76	4803
2026-01-06 01:10:35.35	221.46	31.05	-55.2	-57.8	13.5	0.00e+00	0	27	0	1049624576	76	4895
2026-01-06 01:10:36.35	221.41	30.86	-55.3	-57.9	13.4	0.00e+00	0	27	0	1051721728	76	4940
2026-01-06 01:10:37.35	221.35	30.66	-55.4	-58.1	13.3	0.00e+00	0	27	0	1053818880	76	5043
2026-01-06 01:10:38.34	221.30	30.47	-55.4	-58.0	13.4	0.00e+00	0	27	0	1055916032	76	5015
2026-01-06 01:10:39.34	221.24	30.28	-55.5	-58.3	13.2	0.00e+00	0	27	0	1056964608	76	5161
2026-01-06 01:10:40.34	221.19	30.09	-55.6	-58.4	13.1	0.00e+00	0	27	0	1059061760	76	5262
2026-01-06 01:10:41.34	221.13	29.90	-55.6	-58.4	13.1	0.00e+00	0	26	0	1061158912	76	5239
2026-01-06 01:10:42.24	221.08	29.73	-55.6	-58.4	13.1	0.00e+00	0	26	0	1063256064	76	5265
2026-01-06 01:10:43.28	221.03	29.54	-55.5	-58.3	13.2	0.00e+00	0	26	0	1065353216	76	5208
2026-01-06 01:10:44.20	220.98	29.37	-55.5	-58.3	13.2	0.00e+00	0	27	0	1066401792	76	5171
2026-01-06 01:10:45.20	220.93	29.18	-55.4	-58.1	13.3	0.00e+00	0	27	0	1068498944	76	5064
2026-01-06 01:10:46.21	220.88	29.00	-55.4	-58.1	13.3	0.00e+00	0	27	0	1070596096	76	5050
2026-01-06 01:10:47.20	220.83	28.82	-55.5	-58.2	13.2	0.00e+00	0	26	0	1072693248	76	5146
2026-01-06 01:10:48.20	220.78	28.64	-55.4	-58.1	13.3	0.00e+00	0	27	0	1073741824	76	5063
2026-01-06 01:10:49.20	220.73	28.46	-55.4	-58.1	13.3	0.00e+00	0	26	0	1075838976	76	5094
2026-01-06 01:10:50.21	220.68	28.28	-55.1	-57.7	13.5	0.00e+00	0	26	0	1077936128	76	4854
2026-01-06 01:10:51.20	220.64	28.10	-55.1	-57.7	13.5	0.00e+00	0	27	0	1080033280	76	4858
2026-01-06 01:10:52.20	220.59	27.93	-55.1	-57.7	13.5	0.00e+00	0	27	0	1082130432	76	4863
2026-01-06 01:10:53.20	220.54	27.75	-54.8	-57.2	13.8	0.00e+00	0	27	0	1083179008	76	4597
2026-01-06 01:10:54.20	220.50	27.58	-54.5	-56.8	13.9	0.00e+00	0	27	0	1085276160	75	4623
2026-01-06 01:10:55.20	220.45	27.41	-54.3	-56.5	14.0	0.00e+00	0	26	0	1087373312	75	4488
2026-01-06 01:10:56.20	220.41	27.23	-54.2	-56.4	14.1	0.00e+00	0	27	0	1089470464	75	4425
2026-01-06 01:10:57.21	220.36	27.06	-54.1	-56.3	14.0	0.00e+00	0	27	0	1091567616	74	4636
2026-01-06 01:10:58.21	220.32	26.89	-54.2	-56.5	13.9	0.00e+00	0	26	0	1092616192	74	4720
2026-01-06 01:10:59.21	220.27	26.72	-54.2	-56.4	14.0	0.00e+00	0	26	0	1094713344	74	4682
2026-01-06 01:11:00.21	220.23	26.55	-54.2	-56.5	13.9	0.00e+00	0	27	0	1096810496	74	4715
2026-01-06 01:11:01.20	220.19	26.39	-54.3	-56.6	13.8	0.00e+00	0	26	0	1098907648	74	4812
2026-01-06 01:11:02.20	220.15	26.22	-54.4	-56.7	13.8	0.00e+00	0	27	0	1101004800	74	4829
2026-01-06 01:11:03.20	220.11	26.06	-54.4	-56.8	13.8	0.00e+00	0	26	0	1102053376	74	4879
2026-01-06 01:11:04.20	220.06	25.89	-54.5	-56.8	13.7	0.00e+00	0	26	0	1104150528	74	4923
2026-01-06 01:11:05.20	220.02	25.73	-54.4	-56.8	13.8	0.00e+00	0	26	0	1106247680	74	4904
2026-01-06 01:11:06.20	219.98	25.57	-54.5	-56.8	13.7	0.00e+00	0	27	0	1108344832	74	4925
2026-01-06 01:11:07.20	219.94	25.41	-54.3	-56.6	13.9	0.00e+00	0	27	0	1109393408	74	4774
2026-01-06 01:11:08.20	219.90	25.25	-54.3	-56.7	13.8	0.00e+00	0	26	0	1111490560	74	4820
2026-01-06 01:11:09.20	219.87	25.09	-54.2	-56.5	13.9	0.00e+00	0	26	0	1113587712	74	4736
2026-01-06 01:11:10.20	219.83	24.93	-54.0	-56.2	14.1	0.00e+00	0	26	0	1115684864	74	4569
2026-01-06 01:11:11.20	219.79	24.78	-53.7	-55.7	14.3	0.00e+00	0	27	0	1117782016	74	4333
2026-01-06 01:11:12.20	219.75	24.62	-53.6	-55.7	14.2	0.00e+00	0	27	0	1118830592	73	4564
2026-01-06 01:11:13.21	219.71	24.46	-53.5	-55.6	14.3	0.00e+00	0	26	0	1120927744	73	4508
2026-01-06 01:11:14.21	219.68	24.31	-53.6	-55.6	14.2	0.00e+00	0	27	0	1123024896	73	4517
2026-01-06 01:11:15.22	219.64	24.15	-53.4	-55.4	14.3	0.00e+00	0	26	0	1125122048	73	4432
2026-01-06 01:11:16.22	219.61	24.00	-53.2	-55.1	14.5	0.00e+00	0	27	0	1127219200	73	4290
2026-01-06 01:11:17.22	219.57	23.85	-53.0	-54.8	14.5	0.00e+00	0	26	0	1128267776	72	4388
2026-01-06 01:11:18.22	219.53	23.70	-52.9	-54.7	14.5	0.00e+00	0	26	0	1130364928	72	4333
2026-01-06 01:11:19.22	219.50	23.55	-52.9	-54.8	14.5	0.00e+00	0	27	0	1132462080	72	4352
2026-01-06 01:11:20.22	219.46	23.40	-52.9	-54.8	14.5	0.00e+00	0	27	0	1134559232	72	4344
2026-01-06 01:11:21.21	219.43	23.25	-53.0	-54.9	14.4	0.00e+00	0	26	0	1136656384	72	4414
2026-01-06 01:11:22.22	219.40	23.10	-53.0	-54.9	14.4	0.00e+00	0	27	0	1137704960	72	4419
2026-01-06 01:11:23.21	219.36	22.96	-53.0	-54.9	14.5	0.00e+00	0	27	0	1139802112	72	4400
2026-01-06 01:11:24.21	219.33	22.81	-53.0	-54.9	14.5	0.00e+00	0	26	0	1141899264	72	4397
2026-01-06 01:11:25.21	219.30	22.67	-53.0	-54.9	14.4	0.00e+00	0	26	0	1143996416	72	4431
2026-01-06 01:11:26.21	219.27	22.52	-53.0	-54.9	14.4	0.00e+00	0	26	0	1145044992	72	4430
2026-01-06 01:11:27.21	219.23	22.38	-53.0	-54.9	14.4	0.00e+00	0	26	0	1147142144	72	4437
2026-01-06 01:11:28.20	219.20	22.24	-53.1	-55.0	14.4	0.00e+00	0	26	0	1149239296	72	4490
2026-01-06 01:11:29.21	219.17	22.09	-53.1	-55.0	14.3	0.00e+00	0	27	0	1151336448	72	4490
2026-01-06 01:11:30.21	219.14	21.95	-53.1	-55.0	14.3	0.00e+00	0	26	0	1153433600	72	4488
2026-01-06 01:11:31.21	219.11	21.81	-53.1	-55.0	14.3	0.00e+00	0	27	0	1154482176	72	4478
2026-01-06 01:11:32.21	219.08	21.67	-53.1	-55.0	14.3	0.00e+00	0	26	0	1156579328	72	4466
2026-01-06 01:11:33.21	219.05	21.54	-53.1	-55.0	14.4	0.00e+00	0	26	0	1158676480	72	4471
2026-01-06 01:11:34.21	219.02	21.40	-53.2	-55.2	14.3	0.00e+00	0	26	0	1160773632	72	4556
2026-01-06 01:11:35.21	218.99	21.26	-53.2	-55.1	14.3	0.00e+00	0	27	0	1162870784	72	4517
2026-01-06 01:11:36.21	218.96	21.12	-53.3	-55.3	14.2	0.00e+00	0	26	0	1163919360	72	4635
2026-01-06 01:11:37.21	218.93	20.99	-53.2	-55.2	14.3	0.00e+00	0	26	0	1166016512	72	4577
2026-01-06 01:11:38.20	218.90	20.85	-53.3	-55.3	14.3	0.00e+00	0	26	0	1168113664	72	4601
2026-01-06 01:11:39.20	218.87	20.72	-53.4	-55.4	14.2	0.00e+00	0	26	0	1170210816	72	4662
2026-01-06 01:11:40.19	218.84	20.59	-53.4	-55.4	14.2	0.00e+00	0	27	0	1171259392	72	4696
2026-01-06 01:11:41.18	218.82	20.46	-53.5	-55.5	14.1	0.00e+00	0	26	0	1173356544	72	4757
2026-01-06 01:11:42.19	218.79	20.32	-53.6	-55.7	14.1	0.00e+00	0	27	0	1175453696	72	4833
2026-01-06 01:11:43.19	218.76	20.19	-53.7	-55.8	14.0	0.00e+00	0	27	0	1177550848	72	4906
2026-01-06 01:11:44.19	218.73	20.06	-53.7	-55.9	14.0	0.00e+00	0	26	0	1179648000	72	4936
2026-01-06 01:11:45.18	218.71	19.93	-53.8	-56.0	13.9	0.00e+00	0	27	0	1180696576	72	5005
2026-01-06 01:11:46.17	218.68	19.80	-53.8	-56.0	13.9	0.00e+00	0	27	0	1182793728	72	5008
2026-01-06 01:11:47.16	218.65	19.67	-53.9	-56.1	13.8	0.00e+00	0	26	0	1184890880	72	5099
2026-01-06 01:11:48.16	218.63	19.55	-53.8	-56.0	14.0	0.00e+00	0	26	0	1186988032	73	4752
2026-01-06 01:11:49.16	218.60	19.42	-54.0	-56.2	13.9	0.00e+00	0	27	0	1188036608	73	4870
2026-01-06 01:11:50.16	218.58	19.29	-53.9	-56.1	13.9	0.00e+00	0	26	0	1190133760	73	4803
2026-01-06 01:11:51.16	218.55	19.16	-54.0	-56.3	13.8	0.00e+00	0	26	0	1192230912	73	4886
2026-01-06 01:11:52.16	218.53	19.04	-53.9	-56.1	13.9	0.00e+00	0	26	0	1194328064	73	4810
2026-01-06 01:11:53.16	218.50	18.91	-53.9	-56.1	13.9	0.00e+00	0	27	0	1196425216	73	4801
2026-01-06 01:11:54.16	218.48	18.79	-53.9	-56.2	13.9	0.00e+00	0	26	0	1197473792	73	4822
2026-01-06 01:11:55.16	218.45	18.67	-53.9	-56.1	13.9	0.00e+00	0	26	0	1199570944	73	4805
2026-01-06 01:11:56.15	218.43	18.54	-53.9	-56.2	13.9	0.00e+00	0	27	0	1201668096	73	4833
2026-01-06 01:11:57.14	218.40	18.42	-53.9	-56.2	13.9	0.00e+00	0	27	0	1203765248	73	4822
2026-01-06 01:11:58.14	218.38	18.30	-53.9	-56.1	13.9	0.00e+00	0	27	0	1205862400	73	4793
2026-01-06 01:11:59.14	218.36	18.18	-53.9	-56.2	13.9	0.00e+00	0	26	0	1206910976	73	4828
2026-01-06 01:12:00.12	218.33	18.06	-53.9	-56.1	13.9	0.00e+00	0	26	0	1209008128	73	4804
2026-01-06 01:12:01.12	218.31	17.94	-53.9	-56.1	13.9	0.00e+00	0	27	0	1211105280	73	4772
2026-01-06 01:12:02.12	218.29	17.82	-53.9	-56.2	13.9	0.00e+00	0	26	0	1213202432	73	4830
2026-01-06 01:12:03.11	218.27	17.70	-53.8	-56.0	14.0	0.00e+00	0	26	0	1214251008	73	4749
2026-01-06 01:12:04.11	218.24	17.58	-53.9	-56.1	13.9	0.00e+00	0	26	0	1216348160	73	4781
2026-01-06 01:12:05.10	218.22	17.47	-53.8	-56.0	14.0	0.00e+00	0	27	0	1218445312	73	4730
2026-01-06 01:12:06.09	218.20	17.35	-53.8	-56.0	14.0	0.00e+00	0	26	0	1220542464	73	4748
2026-01-06 01:12:07.08	218.18	17.23	-53.8	-56.0	14.0	0.00e+00	0	26	0	1221591040	73	4727
2026-01-06 01:12:08.08	218.16	17.12	-53.8	-56.0	14.0	0.00e+00	0	26	0	1223688192	73	4753
2026-01-06 01:12:09.08	218.13	17.00	-53.9	-56.1	13.9	0.00e+00	0	27	0	1225785344	73	4774
2026-01-06 01:12:10.07	218.11	16.89	-53.8	-56.1	13.9	0.00e+00	0	26	0	1227882496	73	4765
2026-01-06 01:12:11.06	218.09	16.77	-53.8	-56.0	14.0	0.00e+00	0	27	0	1229979648	73	4708
2026-01-06 01:12:12.05	218.07	16.66	-53.8	-56.0	13.9	0.00e+00	0	27	0	1231028224	73	4746
