passes_logs/2026/01/06/R3.2S_Murmansk/R3.2S_Murmansk__20260106_230121_NOAA_20_JPSS-1_rec.log

#Pass ID: 20260106_230121_NOAA 20 (JPSS-1)
#Satellite: NOAA 20 (JPSS-1)
#Configuration: NOAA 20
#almurnet v.1.7.20251203
#Start time: 2026-01-06 23:01:22

#Version: 2.2.20231116
#Station: R3.2S_Murmansk
#Location: 33.079688 lon 68.888172 lat
#TLE: 1 43013U 17073A   26006.30790171  .00000126  00000+0  80695-4 0  9991
#TLE: 2 43013  98.7629 307.3394 0001808  51.8724 308.2615 14.19533762421505

#Time	Az	El	Level	Level2	SNR	BER	BlckErr	Temp	State	Recorded	gain1	gain2
2026-01-06 23:01:22.72	19.90	2.07	-58.2	-74.1	3.8	1.49e+00	0	25	0	0	82	22756
2026-01-06 23:01:23.72	19.95	2.13	-58.1	-74.0	3.8	1.49e+00	0	25	104	0	81	23718
2026-01-06 23:01:24.73	20.00	2.19	-58.1	-73.9	3.8	1.49e+00	0	25	104	0	81	23578
2026-01-06 23:01:25.73	20.05	2.25	-58.1	-73.9	3.8	1.49e+00	0	25	104	0	81	23377
2026-01-06 23:01:26.73	20.11	2.31	-58.1	-73.9	3.8	1.49e+00	0	25	104	0	81	23530
2026-01-06 23:01:27.73	20.16	2.37	-58.1	-73.7	3.8	1.49e+00	0	25	104	0	81	22942
2026-01-06 23:01:28.73	20.21	2.43	-58.1	-73.7	3.8	1.49e+00	0	25	104	0	81	22912
2026-01-06 23:01:29.74	20.26	2.49	-58.1	-73.5	3.8	1.49e+00	0	25	104	0	81	22362
2026-01-06 23:01:30.73	20.31	2.55	-58.1	-73.5	3.8	1.49e+00	0	25	104	0	81	22345
2026-01-06 23:01:31.73	20.36	2.61	-58.1	-73.3	3.8	1.49e+00	0	25	104	0	81	21949
2026-01-06 23:01:32.73	20.42	2.67	-58.1	-73.3	3.8	1.49e+00	0	25	104	0	81	21815
2026-01-06 23:01:33.73	20.47	2.73	-58.1	-73.2	3.8	1.49e+00	0	25	104	0	81	21702
2026-01-06 23:01:34.72	20.52	2.79	-58.1	-73.0	3.8	1.49e+00	0	25	104	0	81	21079
2026-01-06 23:01:35.73	20.57	2.85	-58.1	-73.2	3.8	1.49e+00	0	25	104	0	81	21672
2026-01-06 23:01:36.72	20.63	2.91	-58.1	-73.0	3.8	1.49e+00	0	25	104	0	81	21137
2026-01-06 23:01:37.72	20.68	2.97	-58.1	-72.9	3.8	1.49e+00	0	26	104	0	81	20913
2026-01-06 23:01:38.72	20.73	3.03	-58.1	-72.9	3.8	1.49e+00	0	25	104	0	81	20959
2026-01-06 23:01:39.72	20.79	3.10	-58.1	-72.6	3.8	1.49e+00	0	25	104	0	81	20167
2026-01-06 23:01:40.72	20.84	3.16	-58.1	-72.0	3.8	1.49e+00	0	25	104	0	81	18873
2026-01-06 23:01:41.72	20.90	3.22	-58.0	-71.5	3.9	1.48e+00	0	26	104	0	81	17707
2026-01-06 23:01:42.71	20.95	3.28	-58.0	-70.8	4.1	1.41e+00	0	26	0	0	81	16402
2026-01-06 23:01:43.72	21.01	3.34	-57.9	-70.1	4.3	1.35e+00	45	26	0	0	81	15164
2026-01-06 23:01:44.72	21.06	3.40	-57.9	-69.4	4.6	1.06e+00	0	26	0	1048576	81	13903
2026-01-06 23:01:45.72	21.11	3.46	-57.9	-68.9	4.8	8.97e-01	0	26	0	3145728	81	13198
2026-01-06 23:01:46.72	21.17	3.53	-57.9	-68.8	4.9	7.62e-01	0	26	0	5242880	81	13057
2026-01-06 23:01:47.72	21.23	3.59	-57.8	-68.5	5.0	6.95e-01	0	26	0	7340032	81	12525
2026-01-06 23:01:48.71	21.28	3.65	-57.8	-68.3	5.1	6.65e-01	0	26	0	9437184	81	12335
2026-01-06 23:01:49.72	21.34	3.71	-57.8	-68.1	5.2	6.64e-01	0	26	0	10485760	81	11972
2026-01-06 23:01:50.71	21.39	3.78	-57.8	-67.6	5.4	5.08e-01	0	26	0	12582912	81	11415
2026-01-06 23:01:51.71	21.45	3.84	-57.6	-66.5	6.2	3.24e-01	0	26	0	14680064	81	9964
2026-01-06 23:01:52.71	21.51	3.90	-57.5	-65.5	7.0	1.15e-01	0	26	0	16777216	81	8912
2026-01-06 23:01:53.70	21.56	3.96	-57.1	-63.7	8.4	7.18e-02	0	26	0	17825792	80	7695
2026-01-06 23:01:54.70	21.62	4.03	-57.0	-63.4	8.7	2.86e-02	0	26	0	19922944	80	7429
2026-01-06 23:01:55.70	21.68	4.09	-56.5	-61.7	10.2	1.71e-03	0	26	0	22020096	79	6462
2026-01-06 23:01:56.70	21.73	4.15	-56.3	-61.2	10.6	4.84e-04	0	26	0	24117248	79	6087
2026-01-06 23:01:57.70	21.79	4.22	-55.8	-60.0	11.4	1.79e-04	0	26	0	26214400	78	5655
2026-01-06 23:01:58.69	21.85	4.28	-55.5	-59.5	11.8	1.52e-05	0	26	0	27262976	77	5618
2026-01-06 23:01:59.70	21.91	4.34	-55.6	-59.5	11.7	9.10e-06	0	26	0	29360128	77	5649
2026-01-06 23:02:00.69	21.96	4.41	-55.4	-59.2	11.9	7.00e-07	0	26	0	31457280	76	5771
2026-01-06 23:02:01.70	22.02	4.47	-55.2	-58.8	12.1	1.50e-06	0	26	0	33554432	76	5495
2026-01-06 23:02:02.69	22.08	4.54	-55.5	-59.5	11.7	0.00e+00	0	26	0	35651584	76	5972
2026-01-06 23:02:03.69	22.14	4.60	-55.4	-59.2	11.9	1.50e-06	0	26	0	36700160	76	5755
2026-01-06 23:02:04.69	22.20	4.66	-55.6	-59.5	11.6	2.21e-05	0	26	0	38797312	76	5991
2026-01-06 23:02:05.69	22.26	4.73	-56.1	-60.8	10.8	9.46e-05	0	26	0	40894464	77	6511
2026-01-06 23:02:06.69	22.32	4.79	-56.2	-61.1	10.5	4.79e-04	0	26	0	42991616	77	6788
2026-01-06 23:02:07.69	22.38	4.86	-56.7	-62.4	9.5	2.29e-03	0	26	0	44040192	78	7418
2026-01-06 23:02:08.69	22.44	4.92	-57.0	-63.6	8.6	6.61e-03	0	26	0	46137344	79	7999
2026-01-06 23:02:09.69	22.50	4.99	-57.2	-64.4	7.9	3.17e-02	0	26	0	48234496	79	8838
2026-01-06 23:02:10.69	22.56	5.05	-55.8	-59.8	11.6	4.56e-02	0	26	0	50331648	78	5499
2026-01-06 23:02:11.69	22.62	5.12	-57.5	-66.2	6.5	2.67e-05	0	26	0	52428800	80	10248
2026-01-06 23:02:12.68	22.68	5.18	-57.4	-64.7	7.8	1.20e-01	0	26	0	53477376	80	8654
2026-01-06 23:02:13.68	22.74	5.25	-56.4	-61.2	10.6	1.20e-01	0	26	0	55574528	79	6069
2026-01-06 23:02:14.68	22.81	5.31	-57.8	-67.2	5.9	7.33e-04	0	27	0	57671680	80	11477
2026-01-06 23:02:15.69	22.87	5.38	-56.5	-61.6	10.2	6.62e-01	0	26	0	59768832	79	6382
2026-01-06 23:02:16.69	22.93	5.45	-55.6	-59.4	11.9	4.50e-06	0	26	0	61865984	77	5561
2026-01-06 23:02:17.70	22.99	5.51	-55.5	-59.3	12.0	3.00e-06	0	26	0	62914560	77	5495
2026-01-06 23:02:18.70	23.06	5.58	-55.4	-59.1	12.2	2.20e-06	0	27	0	65011712	77	5366
2026-01-06 23:02:19.70	23.12	5.65	-55.5	-59.2	12.1	1.50e-06	0	26	0	67108864	77	5429
2026-01-06 23:02:20.70	23.18	5.71	-55.5	-59.2	12.1	2.20e-06	0	26	0	69206016	77	5422
2026-01-06 23:02:21.70	23.25	5.78	-55.4	-59.0	12.2	2.20e-06	0	26	0	71303168	77	5294
2026-01-06 23:02:22.70	23.31	5.85	-55.5	-59.1	12.2	1.50e-06	0	26	0	72351744	77	5365
2026-01-06 23:02:23.70	23.37	5.91	-55.5	-59.2	12.1	0.00e+00	0	26	0	74448896	77	5452
2026-01-06 23:02:24.70	23.44	5.98	-55.5	-59.2	12.1	7.00e-07	0	27	0	76546048	77	5440
2026-01-06 23:02:25.70	23.50	6.05	-55.3	-58.7	12.5	7.00e-07	0	27	0	78643200	77	5114
2026-01-06 23:02:26.70	23.57	6.12	-55.2	-58.6	12.5	0.00e+00	0	26	0	79691776	77	5072
2026-01-06 23:02:27.71	23.63	6.18	-55.2	-58.5	12.6	0.00e+00	0	26	0	81788928	77	5026
2026-01-06 23:02:28.70	23.70	6.25	-55.1	-58.3	12.6	0.00e+00	0	26	0	83886080	76	5177
2026-01-06 23:02:29.69	23.76	6.32	-54.9	-58.0	12.9	0.00e+00	0	26	0	85983232	76	5018
2026-01-06 23:02:30.69	23.83	6.39	-55.0	-58.2	12.7	0.00e+00	0	26	0	88080384	76	5140
2026-01-06 23:02:31.69	23.90	6.45	-54.7	-57.7	13.1	0.00e+00	0	27	0	89128960	76	4815
2026-01-06 23:02:32.69	23.96	6.52	-54.7	-57.8	12.9	0.00e+00	0	27	0	91226112	75	5173
2026-01-06 23:02:33.68	24.03	6.59	-54.5	-57.4	13.1	0.00e+00	0	26	0	93323264	75	4954
2026-01-06 23:02:34.68	24.10	6.66	-54.6	-57.6	13.0	0.00e+00	0	27	0	95420416	75	5045
2026-01-06 23:02:35.68	24.16	6.73	-54.6	-57.6	13.0	0.00e+00	0	27	0	97517568	75	5072
2026-01-06 23:02:36.68	24.23	6.80	-54.6	-57.5	13.0	0.00e+00	0	26	0	98566144	75	5036
2026-01-06 23:02:37.69	24.30	6.87	-54.7	-57.7	13.0	0.00e+00	0	26	0	100663296	75	5101
2026-01-06 23:02:38.69	24.37	6.94	-54.7	-57.7	12.9	0.00e+00	0	27	0	102760448	75	5150
2026-01-06 23:02:39.69	24.44	7.00	-54.7	-57.7	12.9	0.00e+00	0	27	0	104857600	75	5149
2026-01-06 23:02:40.69	24.51	7.07	-54.4	-57.2	13.2	0.00e+00	0	27	0	106954752	75	4862
2026-01-06 23:02:41.69	24.58	7.14	-54.2	-56.9	13.5	0.00e+00	0	27	0	108003328	75	4661
2026-01-06 23:02:42.69	24.65	7.21	-54.3	-57.0	13.4	0.00e+00	0	27	0	110100480	75	4741
2026-01-06 23:02:43.69	24.72	7.28	-54.2	-56.9	13.5	0.00e+00	0	27	0	112197632	75	4655
2026-01-06 23:02:44.69	24.79	7.35	-54.2	-56.9	13.3	0.00e+00	0	27	0	114294784	74	4967
2026-01-06 23:02:45.69	24.86	7.42	-54.3	-57.1	13.2	0.00e+00	0	27	0	115343360	74	5063
2026-01-06 23:02:46.69	24.93	7.49	-54.2	-56.9	13.4	0.00e+00	0	27	0	117440512	74	4940
2026-01-06 23:02:47.69	25.00	7.57	-54.2	-56.9	13.4	0.00e+00	0	27	0	119537664	74	4981
2026-01-06 23:02:48.67	25.07	7.63	-54.1	-56.7	13.5	0.00e+00	0	27	0	121634816	74	4833
2026-01-06 23:02:49.67	25.14	7.71	-54.2	-56.9	13.4	0.00e+00	0	27	0	123731968	74	4932
2026-01-06 23:02:50.66	25.21	7.78	-54.1	-56.7	13.5	0.00e+00	0	27	0	124780544	74	4855
2026-01-06 23:02:51.66	25.28	7.85	-54.2	-56.8	13.5	0.00e+00	0	27	0	126877696	74	4885
2026-01-06 23:02:52.66	25.36	7.92	-54.1	-56.7	13.5	0.00e+00	0	27	0	128974848	74	4852
2026-01-06 23:02:53.67	25.43	7.99	-54.1	-56.8	13.4	0.00e+00	0	27	0	131072000	74	4882
2026-01-06 23:02:54.67	25.50	8.06	-54.2	-56.8	13.5	0.00e+00	0	27	0	132120576	74	4899
2026-01-06 23:02:55.67	25.58	8.13	-54.2	-56.8	13.5	0.00e+00	0	27	0	134217728	74	4882
2026-01-06 23:02:56.67	25.65	8.21	-54.1	-56.7	13.5	0.00e+00	0	27	0	136314880	74	4830
2026-01-06 23:02:57.67	25.73	8.28	-54.0	-56.6	13.6	0.00e+00	0	27	0	138412032	74	4770
2026-01-06 23:02:58.67	25.80	8.35	-54.2	-56.8	13.5	0.00e+00	0	27	0	140509184	74	4903
2026-01-06 23:02:59.67	25.88	8.42	-54.2	-56.8	13.4	0.00e+00	0	27	0	141557760	74	4905
2026-01-06 23:03:00.68	25.95	8.50	-54.1	-56.7	13.5	0.00e+00	0	27	0	143654912	74	4844
2026-01-06 23:03:01.68	26.03	8.57	-54.3	-57.0	13.3	0.00e+00	0	27	0	145752064	74	5036
2026-01-06 23:03:02.69	26.11	8.64	-54.1	-56.6	13.6	0.00e+00	0	27	0	147849216	74	4794
2026-01-06 23:03:03.69	26.18	8.72	-53.9	-56.4	13.7	0.00e+00	0	27	0	149946368	74	4681
2026-01-06 23:03:04.69	26.26	8.79	-54.0	-56.5	13.6	0.00e+00	0	27	0	150994944	74	4750
2026-01-06 23:03:05.68	26.34	8.86	-53.9	-56.4	13.7	0.00e+00	0	27	0	153092096	74	4673
2026-01-06 23:03:06.68	26.41	8.94	-53.9	-56.4	13.7	0.00e+00	0	27	0	155189248	74	4664
2026-01-06 23:03:07.69	26.49	9.01	-53.9	-56.4	13.7	0.00e+00	0	27	0	157286400	74	4687
2026-01-06 23:03:08.68	26.57	9.09	-53.8	-56.2	13.8	0.00e+00	0	27	0	159383552	74	4598
2026-01-06 23:03:09.68	26.65	9.16	-53.8	-56.2	13.8	0.00e+00	0	27	0	160432128	74	4568
2026-01-06 23:03:10.69	26.73	9.24	-53.7	-56.1	13.9	0.00e+00	0	27	0	162529280	74	4520
2026-01-06 23:03:11.68	26.81	9.31	-53.6	-55.9	13.9	0.00e+00	0	27	0	164626432	73	4663
2026-01-06 23:03:12.68	26.89	9.39	-53.6	-55.9	13.9	0.00e+00	0	27	0	166723584	73	4682
2026-01-06 23:03:13.67	26.97	9.46	-53.6	-56.0	13.9	0.00e+00	0	27	0	168820736	73	4706
2026-01-06 23:03:14.67	27.05	9.54	-53.5	-55.8	13.9	0.00e+00	0	27	0	169869312	73	4632
2026-01-06 23:03:15.67	27.13	9.61	-53.4	-55.6	14.0	0.00e+00	0	27	0	171966464	73	4545
2026-01-06 23:03:16.67	27.21	9.69	-53.3	-55.4	14.1	0.00e+00	0	27	0	174063616	73	4440
2026-01-06 23:03:17.67	27.29	9.76	-53.3	-55.5	14.1	0.00e+00	0	27	0	176160768	73	4442
2026-01-06 23:03:18.67	27.38	9.84	-53.2	-55.3	14.1	0.00e+00	0	27	0	177209344	72	4621
2026-01-06 23:03:19.67	27.46	9.91	-53.1	-55.2	14.1	0.00e+00	0	27	0	179306496	72	4563
2026-01-06 23:03:20.65	27.54	9.99	-53.1	-55.2	14.1	0.00e+00	0	27	0	181403648	72	4590
2026-01-06 23:03:21.65	27.62	10.07	-53.0	-55.0	14.2	0.00e+00	0	27	0	183500800	72	4485
2026-01-06 23:03:22.65	27.71	10.14	-53.0	-55.1	14.2	0.00e+00	0	27	0	185597952	72	4510
2026-01-06 23:03:23.65	27.79	10.22	-53.1	-55.2	14.1	0.00e+00	0	27	0	186646528	72	4593
2026-01-06 23:03:24.65	27.88	10.30	-53.1	-55.2	14.1	0.00e+00	0	27	0	188743680	72	4576
2026-01-06 23:03:25.64	27.96	10.37	-52.9	-55.0	14.2	0.00e+00	0	27	0	190840832	72	4453
2026-01-06 23:03:26.65	28.05	10.45	-52.9	-54.9	14.3	0.00e+00	0	27	0	192937984	72	4413
2026-01-06 23:03:27.65	28.13	10.53	-52.8	-54.9	14.3	0.00e+00	0	27	0	193986560	72	4397
2026-01-06 23:03:28.64	28.22	10.61	-52.8	-54.8	14.3	0.00e+00	0	27	0	196083712	72	4381
2026-01-06 23:03:29.64	28.31	10.68	-52.9	-54.9	14.3	0.00e+00	0	27	0	198180864	72	4438
2026-01-06 23:03:30.65	28.39	10.76	-52.8	-54.8	14.3	0.00e+00	0	27	0	200278016	72	4369
2026-01-06 23:03:31.65	28.48	10.84	-52.8	-54.8	14.3	0.00e+00	0	27	0	202375168	72	4364
2026-01-06 23:03:32.65	28.57	10.92	-52.8	-54.8	14.3	0.00e+00	0	27	0	203423744	72	4370
2026-01-06 23:03:33.64	28.66	11.00	-52.9	-54.9	14.3	0.00e+00	0	27	0	205520896	72	4411
2026-01-06 23:03:34.64	28.75	11.08	-53.0	-55.0	14.3	0.00e+00	0	27	0	207618048	72	4458
2026-01-06 23:03:35.63	28.84	11.16	-52.9	-54.9	14.3	0.00e+00	0	27	0	209715200	72	4420
2026-01-06 23:03:36.62	28.93	11.23	-52.9	-54.9	14.3	0.00e+00	0	27	0	211812352	72	4410
2026-01-06 23:03:37.63	29.02	11.32	-52.8	-54.8	14.3	0.00e+00	0	27	0	212860928	72	4381
2026-01-06 23:03:38.63	29.11	11.40	-52.8	-54.8	14.3	0.00e+00	0	27	0	214958080	72	4388
2026-01-06 23:03:39.63	29.20	11.48	-52.8	-54.7	14.4	0.00e+00	0	27	0	217055232	72	4338
2026-01-06 23:03:40.62	29.29	11.55	-52.9	-54.9	14.3	0.00e+00	0	27	0	219152384	72	4407
2026-01-06 23:03:41.61	29.38	11.63	-52.9	-54.9	14.3	0.00e+00	0	27	0	220200960	72	4410
2026-01-06 23:03:42.61	29.48	11.72	-52.8	-54.8	14.4	0.00e+00	0	27	0	222298112	72	4347
2026-01-06 23:03:43.61	29.57	11.80	-52.8	-54.8	14.3	0.00e+00	0	27	0	224395264	72	4380
2026-01-06 23:03:44.61	29.66	11.88	-52.7	-54.7	14.4	0.00e+00	0	27	0	226492416	72	4302
2026-01-06 23:03:45.61	29.76	11.96	-52.7	-54.7	14.3	0.00e+00	0	27	0	228589568	71	4577
2026-01-06 23:03:46.61	29.85	12.04	-52.8	-54.8	14.2	0.00e+00	0	27	0	229638144	71	4639
2026-01-06 23:03:47.60	29.95	12.12	-52.8	-54.8	14.3	0.00e+00	0	27	0	231735296	71	4601
2026-01-06 23:03:48.59	30.04	12.20	-52.7	-54.7	14.3	0.00e+00	0	27	0	233832448	71	4548
2026-01-06 23:03:49.59	30.14	12.28	-52.7	-54.7	14.3	0.00e+00	0	27	0	235929600	71	4569
2026-01-06 23:03:50.59	30.23	12.37	-52.7	-54.6	14.3	0.00e+00	0	27	0	236978176	71	4545
2026-01-06 23:03:51.58	30.33	12.45	-52.7	-54.6	14.3	0.00e+00	0	27	0	239075328	71	4522
2026-01-06 23:03:52.58	30.43	12.53	-52.8	-54.8	14.3	0.00e+00	0	27	0	241172480	71	4614
2026-01-06 23:03:53.58	30.53	12.61	-52.7	-54.6	14.3	0.00e+00	0	27	0	243269632	71	4528
2026-01-06 23:03:54.57	30.63	12.70	-52.9	-54.9	14.2	0.00e+00	0	27	0	245366784	71	4671
2026-01-06 23:03:55.56	30.72	12.78	-52.7	-54.7	14.3	0.00e+00	0	27	0	246415360	71	4551
2026-01-06 23:03:56.56	30.82	12.86	-52.6	-54.6	14.3	0.00e+00	0	27	0	248512512	71	4513
2026-01-06 23:03:57.57	30.93	12.95	-52.6	-54.6	14.4	0.00e+00	0	27	0	250609664	71	4495
2026-01-06 23:03:58.56	31.03	13.03	-52.6	-54.6	14.3	0.00e+00	0	27	0	252706816	71	4514
2026-01-06 23:03:59.57	31.13	13.11	-52.6	-54.5	14.4	0.00e+00	0	27	0	254803968	71	4487
2026-01-06 23:04:00.57	31.23	13.20	-52.7	-54.6	14.3	0.00e+00	0	27	0	255852544	71	4529
2026-01-06 23:04:01.57	31.33	13.28	-52.6	-54.5	14.4	0.00e+00	0	27	0	257949696	71	4483
2026-01-06 23:04:02.57	31.44	13.37	-52.6	-54.5	14.4	0.00e+00	0	27	0	260046848	71	4474
2026-01-06 23:04:03.56	31.54	13.45	-52.5	-54.4	14.4	0.00e+00	0	27	0	262144000	71	4405
2026-01-06 23:04:04.56	31.64	13.54	-52.4	-54.3	14.5	0.00e+00	0	27	0	263192576	71	4375
2026-01-06 23:04:05.56	31.75	13.62	-52.5	-54.4	14.5	0.00e+00	0	27	0	265289728	71	4397
2026-01-06 23:04:06.57	31.86	13.71	-52.5	-54.4	14.5	0.00e+00	0	27	0	267386880	71	4408
2026-01-06 23:04:07.56	31.96	13.80	-52.5	-54.3	14.5	0.00e+00	0	27	0	269484032	71	4385
2026-01-06 23:04:08.57	32.07	13.88	-52.4	-54.2	14.5	0.00e+00	0	27	0	271581184	71	4334
2026-01-06 23:04:09.57	32.18	13.97	-52.4	-54.2	14.5	0.00e+00	0	27	0	272629760	71	4317
2026-01-06 23:04:10.57	32.29	14.06	-52.3	-54.2	14.6	0.00e+00	0	27	0	274726912	71	4301
2026-01-06 23:04:11.57	32.39	14.14	-52.3	-54.2	14.5	0.00e+00	0	27	0	276824064	71	4302
2026-01-06 23:04:12.57	32.50	14.23	-52.4	-54.2	14.5	0.00e+00	0	27	0	278921216	71	4323
2026-01-06 23:04:13.57	32.61	14.32	-52.4	-54.2	14.5	0.00e+00	0	27	0	281018368	71	4337
2026-01-06 23:04:14.57	32.72	14.40	-52.6	-54.5	14.4	0.00e+00	0	27	0	282066944	71	4444
2026-01-06 23:04:15.57	32.83	14.49	-52.4	-54.3	14.5	0.00e+00	0	27	0	284164096	71	4361
2026-01-06 23:04:16.56	32.95	14.58	-52.5	-54.4	14.5	0.00e+00	0	27	0	286261248	71	4417
2026-01-06 23:04:17.56	33.06	14.67	-52.5	-54.4	14.5	0.00e+00	0	27	0	288358400	71	4425
2026-01-06 23:04:18.56	33.17	14.75	-52.6	-54.4	14.4	0.00e+00	0	27	0	289406976	71	4435
2026-01-06 23:04:19.55	33.28	14.84	-52.7	-54.6	14.3	0.00e+00	0	27	0	291504128	71	4525
2026-01-06 23:04:20.55	33.40	14.93	-52.7	-54.7	14.3	0.00e+00	0	27	0	293601280	71	4568
2026-01-06 23:04:21.55	33.51	15.02	-52.8	-54.8	14.3	0.00e+00	0	27	0	295698432	71	4615
2026-01-06 23:04:22.56	33.63	15.11	-52.8	-54.8	14.3	0.00e+00	0	27	0	297795584	71	4609
2026-01-06 23:04:23.56	33.75	15.20	-52.9	-54.9	14.2	0.00e+00	0	27	0	298844160	71	4670
2026-01-06 23:04:24.56	33.86	15.29	-53.0	-54.9	14.2	0.00e+00	0	27	0	300941312	71	4702
2026-01-06 23:04:25.56	33.98	15.38	-52.9	-54.9	14.2	0.00e+00	0	27	0	303038464	71	4691
2026-01-06 23:04:26.56	34.10	15.47	-53.1	-55.1	14.1	0.00e+00	0	27	0	305135616	71	4791
2026-01-06 23:04:27.56	34.22	15.56	-53.0	-55.1	14.2	0.00e+00	0	27	0	307232768	71	4764
2026-01-06 23:04:28.57	34.34	15.65	-53.2	-55.2	14.1	0.00e+00	0	27	0	308281344	71	4869
2026-01-06 23:04:29.56	34.46	15.74	-53.2	-55.3	14.0	0.00e+00	0	27	0	310378496	71	4908
2026-01-06 23:04:30.56	34.58	15.83	-53.2	-55.3	14.1	0.00e+00	0	27	0	312475648	71	4892
2026-01-06 23:04:31.55	34.70	15.92	-53.2	-55.3	14.1	0.00e+00	0	27	0	314572800	71	4880
2026-01-06 23:04:32.55	34.82	16.01	-53.4	-55.5	14.0	0.00e+00	0	27	0	316669952	71	5017
2026-01-06 23:04:33.55	34.94	16.11	-53.3	-55.4	14.1	0.00e+00	0	27	0	317718528	72	4685
2026-01-06 23:04:34.55	35.07	16.20	-53.3	-55.4	14.1	0.00e+00	0	27	0	319815680	72	4682
2026-01-06 23:04:35.55	35.19	16.29	-53.3	-55.4	14.1	0.00e+00	0	27	0	321912832	72	4684
2026-01-06 23:04:36.56	35.32	16.38	-53.3	-55.3	14.1	0.00e+00	0	27	0	324009984	72	4641
2026-01-06 23:04:37.55	35.44	16.47	-53.3	-55.4	14.1	0.00e+00	0	27	0	325058560	72	4654
2026-01-06 23:04:38.55	35.57	16.57	-53.2	-55.2	14.2	0.00e+00	0	27	0	327155712	72	4571
2026-01-06 23:04:39.56	35.70	16.66	-53.2	-55.2	14.2	0.00e+00	0	27	0	329252864	72	4590
2026-01-06 23:04:40.56	35.83	16.75	-53.3	-55.4	14.1	0.00e+00	0	27	0	331350016	72	4656
2026-01-06 23:04:41.55	35.96	16.85	-53.2	-55.2	14.2	0.00e+00	0	27	0	333447168	72	4559
2026-01-06 23:04:42.55	36.09	16.94	-53.1	-55.2	14.2	0.00e+00	0	27	0	334495744	72	4553
2026-01-06 23:04:43.55	36.22	17.04	-53.1	-55.1	14.2	0.00e+00	0	27	0	336592896	72	4545
2026-01-06 23:04:44.54	36.35	17.13	-53.3	-55.3	14.1	0.00e+00	0	27	0	338690048	72	4641
2026-01-06 23:04:45.54	36.48	17.22	-53.3	-55.4	14.1	0.00e+00	0	27	0	340787200	72	4666
2026-01-06 23:04:46.54	36.61	17.32	-53.4	-55.5	14.1	0.00e+00	0	27	0	342884352	72	4714
2026-01-06 23:04:47.53	36.75	17.41	-53.4	-55.6	14.0	0.00e+00	0	27	0	343932928	72	4780
2026-01-06 23:04:48.53	36.88	17.51	-53.5	-55.7	14.0	0.00e+00	0	27	0	346030080	72	4824
2026-01-06 23:04:49.52	37.02	17.60	-53.4	-55.6	14.0	0.00e+00	0	27	0	348127232	72	4774
2026-01-06 23:04:50.52	37.15	17.70	-53.5	-55.6	14.0	0.00e+00	0	27	0	350224384	72	4792
2026-01-06 23:04:51.51	37.29	17.79	-53.5	-55.7	14.0	0.00e+00	0	27	0	351272960	72	4835
2026-01-06 23:04:52.51	37.43	17.89	-53.3	-55.4	14.1	0.00e+00	0	27	0	353370112	72	4690
2026-01-06 23:04:53.51	37.56	17.98	-53.3	-55.3	14.2	0.00e+00	0	27	0	355467264	72	4646
2026-01-06 23:04:54.50	37.70	18.08	-53.3	-55.4	14.1	0.00e+00	0	27	0	357564416	72	4696
2026-01-06 23:04:55.49	37.84	18.17	-53.4	-55.5	14.1	0.00e+00	0	27	0	359661568	72	4728
2026-01-06 23:04:56.49	37.98	18.27	-53.5	-55.6	14.0	0.00e+00	0	27	0	360710144	72	4774
2026-01-06 23:04:57.49	38.13	18.37	-53.5	-55.7	14.0	0.00e+00	0	27	0	362807296	72	4818
2026-01-06 23:04:58.49	38.27	18.47	-53.5	-55.6	14.0	0.00e+00	0	27	0	364904448	72	4814
2026-01-06 23:04:59.49	38.41	18.56	-53.6	-55.7	14.0	0.00e+00	0	27	0	367001600	72	4859
2026-01-06 23:05:00.50	38.56	18.66	-53.5	-55.6	14.0	0.00e+00	0	27	0	368050176	72	4811
2026-01-06 23:05:01.49	38.70	18.76	-53.5	-55.7	14.0	0.00e+00	0	27	0	370147328	72	4826
2026-01-06 23:05:02.49	38.85	18.86	-53.5	-55.6	14.1	0.00e+00	0	27	0	372244480	72	4769
2026-01-06 23:05:03.50	39.00	18.96	-53.4	-55.5	14.1	0.00e+00	0	27	0	374341632	72	4743
2026-01-06 23:05:04.50	39.15	19.05	-53.4	-55.5	14.1	0.00e+00	0	27	0	376438784	72	4752
2026-01-06 23:05:05.50	39.30	19.15	-53.2	-55.3	14.2	0.00e+00	0	27	0	377487360	72	4620
2026-01-06 23:05:06.51	39.45	19.25	-53.1	-55.1	14.3	0.00e+00	0	27	0	379584512	72	4534
2026-01-06 23:05:07.51	39.60	19.35	-53.1	-55.1	14.2	0.00e+00	0	27	0	381681664	72	4542
2026-01-06 23:05:08.52	39.76	19.45	-53.1	-55.1	14.3	0.00e+00	0	27	0	383778816	72	4526
2026-01-06 23:05:09.52	39.91	19.55	-53.1	-55.1	14.3	0.00e+00	0	27	0	385875968	72	4494
2026-01-06 23:05:10.52	40.06	19.65	-53.0	-54.9	14.4	0.00e+00	0	27	0	386924544	72	4421
2026-01-06 23:05:11.53	40.22	19.75	-53.1	-55.0	14.3	0.00e+00	0	27	0	389021696	72	4474
2026-01-06 23:05:12.52	40.38	19.85	-53.0	-55.0	14.3	0.00e+00	0	27	0	391118848	72	4473
2026-01-06 23:05:13.52	40.53	19.95	-53.1	-55.1	14.3	0.00e+00	0	27	0	393216000	72	4540
2026-01-06 23:05:14.52	40.69	20.05	-53.1	-55.1	14.3	0.00e+00	0	27	0	395313152	72	4532
2026-01-06 23:05:15.52	40.85	20.15	-53.2	-55.2	14.3	0.00e+00	0	27	0	396361728	72	4553
2026-01-06 23:05:16.51	41.01	20.25	-53.2	-55.2	14.2	0.00e+00	0	27	0	398458880	72	4595
2026-01-06 23:05:17.51	41.17	20.35	-53.1	-55.1	14.3	0.00e+00	0	27	0	400556032	72	4538
2026-01-06 23:05:18.51	41.33	20.46	-53.0	-55.0	14.3	0.00e+00	0	27	0	402653184	72	4466
2026-01-06 23:05:19.51	41.50	20.56	-53.0	-54.9	14.4	0.00e+00	0	27	0	403701760	72	4415
2026-01-06 23:05:20.50	41.66	20.66	-52.9	-54.8	14.4	0.00e+00	0	27	0	405798912	72	4345
2026-01-06 23:05:21.51	41.83	20.76	-52.7	-54.6	14.5	0.00e+00	0	27	0	407896064	72	4255
2026-01-06 23:05:22.51	41.99	20.86	-52.8	-54.6	14.5	0.00e+00	0	27	0	409993216	72	4291
2026-01-06 23:05:23.51	42.16	20.97	-52.5	-54.3	14.5	0.00e+00	0	27	0	412090368	71	4372
2026-01-06 23:05:24.51	42.33	21.07	-52.5	-54.3	14.5	0.00e+00	0	27	0	413138944	71	4383
2026-01-06 23:05:25.50	42.50	21.17	-52.4	-54.2	14.6	0.00e+00	0	27	0	415236096	71	4327
2026-01-06 23:05:26.50	42.67	21.27	-52.4	-54.2	14.6	0.00e+00	0	27	0	417333248	71	4308
2026-01-06 23:05:27.50	42.84	21.38	-52.5	-54.4	14.5	0.00e+00	0	27	0	419430400	71	4393
2026-01-06 23:05:28.51	43.02	21.48	-52.4	-54.2	14.6	0.00e+00	0	27	0	421527552	71	4304
2026-01-06 23:05:29.50	43.19	21.58	-52.4	-54.2	14.6	0.00e+00	0	27	0	422576128	71	4300
2026-01-06 23:05:30.51	43.37	21.69	-52.3	-54.1	14.6	0.00e+00	0	27	0	424673280	71	4252
2026-01-06 23:05:31.52	43.54	21.79	-52.1	-53.8	14.6	0.00e+00	0	27	0	426770432	70	4380
2026-01-06 23:05:32.51	43.72	21.89	-51.9	-53.6	14.7	0.00e+00	0	27	0	428867584	70	4261
2026-01-06 23:05:33.51	43.90	22.00	-51.9	-53.6	14.7	0.00e+00	0	27	0	430964736	70	4261
2026-01-06 23:05:34.50	44.08	22.10	-52.0	-53.6	14.7	0.00e+00	0	27	0	432013312	70	4289
2026-01-06 23:05:35.51	44.26	22.21	-51.8	-53.5	14.8	0.00e+00	0	27	0	434110464	70	4205
2026-01-06 23:05:36.51	44.44	22.31	-51.7	-53.4	14.8	0.00e+00	0	27	0	436207616	70	4160
2026-01-06 23:05:37.50	44.63	22.41	-51.7	-53.4	14.8	0.00e+00	0	27	0	438304768	70	4154
2026-01-06 23:05:38.50	44.81	22.52	-51.8	-53.4	14.8	0.00e+00	0	27	0	439353344	70	4170
2026-01-06 23:05:39.50	45.00	22.62	-51.8	-53.4	14.8	0.00e+00	0	27	0	441450496	70	4161
2026-01-06 23:05:40.49	45.18	22.73	-51.7	-53.3	14.8	0.00e+00	0	27	0	443547648	70	4131
2026-01-06 23:05:41.49	45.37	22.83	-51.6	-53.2	14.8	0.00e+00	0	27	0	445644800	69	4333
2026-01-06 23:05:42.50	45.56	22.94	-51.6	-53.2	14.8	0.00e+00	0	27	0	447741952	69	4336
2026-01-06 23:05:43.49	45.75	23.04	-51.5	-53.1	14.8	0.00e+00	0	27	0	448790528	69	4275
2026-01-06 23:05:44.49	45.94	23.15	-51.4	-53.0	14.8	0.00e+00	0	27	0	450887680	69	4218
2026-01-06 23:05:45.48	46.14	23.25	-51.3	-52.8	14.9	0.00e+00	0	27	0	452984832	69	4120
2026-01-06 23:05:46.48	46.33	23.36	-51.1	-52.6	14.9	0.00e+00	0	27	0	455081984	68	4290
2026-01-06 23:05:47.49	46.53	23.46	-51.2	-52.7	14.8	0.00e+00	0	27	0	457179136	68	4317
2026-01-06 23:05:48.48	46.72	23.57	-51.0	-52.5	14.9	0.00e+00	0	27	0	458227712	68	4217
2026-01-06 23:05:49.47	46.92	23.67	-51.0	-52.5	14.9	0.00e+00	0	27	0	460324864	68	4201
2026-01-06 23:05:50.47	47.12	23.78	-51.0	-52.5	14.9	0.00e+00	0	27	0	462422016	68	4232
2026-01-06 23:05:51.47	47.32	23.88	-51.0	-52.5	14.9	0.00e+00	0	27	0	464519168	68	4224
2026-01-06 23:05:52.47	47.52	23.99	-50.8	-52.3	15.0	0.00e+00	0	27	0	465567744	68	4125
2026-01-06 23:05:53.47	47.73	24.10	-50.9	-52.3	15.0	0.00e+00	0	27	0	467664896	68	4138
2026-01-06 23:05:54.46	47.93	24.20	-50.9	-52.4	15.0	0.00e+00	0	27	0	469762048	68	4161
2026-01-06 23:05:55.46	48.14	24.31	-50.9	-52.4	14.9	0.00e+00	0	27	0	471859200	68	4188
2026-01-06 23:05:56.46	48.35	24.41	-51.0	-52.5	14.9	0.00e+00	0	27	0	473956352	68	4229
2026-01-06 23:05:57.46	48.56	24.52	-51.1	-52.6	14.9	0.00e+00	0	27	0	475004928	68	4274
2026-01-06 23:05:58.46	48.77	24.63	-51.2	-52.7	14.8	0.00e+00	0	27	0	477102080	68	4340
2026-01-06 23:05:59.47	48.98	24.73	-51.4	-52.9	14.7	0.00e+00	0	27	0	479199232	68	4432
2026-01-06 23:06:00.47	49.19	24.84	-51.4	-52.9	14.8	0.00e+00	0	27	0	481296384	68	4441
2026-01-06 23:06:01.47	49.41	24.95	-51.5	-53.1	14.7	0.00e+00	0	27	0	482344960	68	4505
2026-01-06 23:06:02.47	49.63	25.05	-51.6	-53.1	14.7	0.00e+00	0	27	0	484442112	68	4545
2026-01-06 23:06:03.47	49.84	25.16	-51.5	-53.1	14.7	0.00e+00	0	27	0	486539264	68	4522
2026-01-06 23:06:04.47	50.06	25.27	-51.5	-53.1	14.7	0.00e+00	0	27	0	488636416	68	4499
2026-01-06 23:06:05.47	50.28	25.37	-51.4	-53.0	14.7	0.00e+00	0	27	0	490733568	68	4455
2026-01-06 23:06:06.47	50.51	25.48	-51.5	-53.1	14.7	0.00e+00	0	27	0	492830720	68	4519
2026-01-06 23:06:07.47	50.73	25.59	-51.6	-53.2	14.6	0.00e+00	0	27	0	493879296	68	4587
2026-01-06 23:06:08.47	50.96	25.69	-51.7	-53.4	14.6	0.00e+00	0	27	0	495976448	68	4671
2026-01-06 23:06:09.47	51.18	25.80	-51.9	-53.6	14.5	0.00e+00	0	27	0	498073600	68	4771
2026-01-06 23:06:10.47	51.41	25.91	-52.0	-53.7	14.6	0.00e+00	0	27	0	500170752	69	4556
2026-01-06 23:06:11.47	51.64	26.01	-52.1	-53.8	14.5	0.00e+00	0	27	0	501219328	69	4617
2026-01-06 23:06:12.47	51.87	26.12	-52.3	-54.1	14.4	0.00e+00	0	27	0	503316480	69	4769
2026-01-06 23:06:13.48	52.11	26.23	-52.4	-54.1	14.4	0.00e+00	0	27	0	505413632	69	4806
2026-01-06 23:06:14.48	52.34	26.33	-52.5	-54.3	14.5	0.00e+00	0	27	0	507510784	70	4603
2026-01-06 23:06:15.48	52.58	26.44	-52.6	-54.4	14.4	0.00e+00	0	27	0	509607936	70	4669
2026-01-06 23:06:16.48	52.81	26.54	-52.6	-54.5	14.4	0.00e+00	0	27	0	510656512	70	4723
2026-01-06 23:06:17.48	53.05	26.65	-52.8	-54.6	14.3	0.00e+00	0	27	0	512753664	70	4807
2026-01-06 23:06:18.48	53.29	26.76	-52.8	-54.7	14.3	0.00e+00	0	27	0	514850816	70	4861
2026-01-06 23:06:19.48	53.54	26.86	-53.0	-54.8	14.3	0.00e+00	0	27	0	516947968	71	4647
2026-01-06 23:06:20.48	53.78	26.97	-53.1	-55.0	14.2	0.00e+00	0	27	0	519045120	71	4757
2026-01-06 23:06:21.49	54.03	27.07	-53.2	-55.2	14.1	0.00e+00	0	27	0	520093696	71	4848
2026-01-06 23:06:22.49	54.27	27.18	-53.4	-55.5	14.1	0.00e+00	0	27	0	522190848	71	5004
2026-01-06 23:06:23.50	54.52	27.28	-53.4	-55.5	14.2	0.00e+00	0	27	0	524288000	72	4726
2026-01-06 23:06:24.49	54.77	27.39	-53.6	-55.7	14.1	0.00e+00	0	27	0	526385152	72	4816
2026-01-06 23:06:25.49	55.02	27.49	-53.7	-55.9	14.0	0.00e+00	0	27	0	527433728	72	4931
2026-01-06 23:06:26.48	55.27	27.60	-53.8	-56.0	13.9	0.00e+00	0	27	0	529530880	72	4998
2026-01-06 23:06:27.50	55.53	27.70	-53.8	-56.0	13.9	0.00e+00	0	27	0	531628032	72	5030
2026-01-06 23:06:28.49	55.79	27.81	-53.8	-55.9	13.9	0.00e+00	0	27	0	533725184	72	4975
2026-01-06 23:06:29.49	56.05	27.91	-53.8	-55.9	13.9	0.00e+00	0	27	0	535822336	72	4981
2026-01-06 23:06:30.50	56.31	28.02	-53.8	-55.9	13.9	0.00e+00	0	27	0	536870912	72	4971
2026-01-06 23:06:31.50	56.57	28.12	-53.8	-56.0	13.9	0.00e+00	0	27	0	538968064	72	4985
2026-01-06 23:06:32.50	56.83	28.22	-53.7	-55.8	14.0	0.00e+00	0	27	0	541065216	72	4920
2026-01-06 23:06:33.50	57.10	28.32	-53.8	-56.0	13.9	0.00e+00	0	27	0	543162368	72	5002
2026-01-06 23:06:34.50	57.36	28.43	-54.0	-56.2	13.9	0.00e+00	0	27	0	545259520	73	4828
2026-01-06 23:06:35.50	57.63	28.53	-54.1	-56.3	13.9	0.00e+00	0	27	0	546308096	73	4906
2026-01-06 23:06:36.50	57.90	28.63	-54.2	-56.5	13.8	0.00e+00	0	27	0	548405248	73	4985
2026-01-06 23:06:37.50	58.17	28.73	-54.3	-56.7	13.7	0.00e+00	0	27	0	550502400	73	5129
2026-01-06 23:06:38.50	58.45	28.84	-54.7	-57.2	13.5	0.00e+00	0	27	0	552599552	74	5101
2026-01-06 23:06:39.49	58.72	28.94	-55.1	-57.9	13.2	0.00e+00	0	27	0	554696704	75	5239
2026-01-06 23:06:40.49	59.00	29.04	-55.5	-58.4	13.0	0.00e+00	0	27	0	555745280	76	5256
2026-01-06 23:06:41.49	59.27	29.14	-55.7	-58.8	12.8	0.00e+00	0	27	0	557842432	76	5471
2026-01-06 23:06:42.48	59.55	29.24	-55.7	-58.8	12.8	0.00e+00	0	27	0	559939584	76	5473
2026-01-06 23:06:43.47	59.83	29.34	-55.6	-58.6	12.9	0.00e+00	0	27	0	562036736	76	5375
2026-01-06 23:06:44.47	60.11	29.43	-55.4	-58.2	13.2	0.00e+00	0	27	0	563085312	76	5141
2026-01-06 23:06:45.46	60.40	29.53	-55.2	-58.0	13.3	0.00e+00	0	27	0	565182464	76	4990
2026-01-06 23:06:46.46	60.68	29.63	-55.3	-58.0	13.3	0.00e+00	0	27	0	567279616	76	4993
2026-01-06 23:06:47.46	60.97	29.73	-55.5	-58.3	13.1	0.00e+00	0	27	0	569376768	76	5181
2026-01-06 23:06:48.47	61.27	29.83	-55.8	-58.9	12.7	0.00e+00	0	27	0	571473920	76	5571
2026-01-06 23:06:49.47	61.56	29.93	-56.2	-59.5	12.4	0.00e+00	0	27	0	572522496	77	5636
2026-01-06 23:06:50.46	61.85	30.02	-56.5	-60.1	12.2	0.00e+00	0	27	0	574619648	78	5673
2026-01-06 23:06:51.45	62.14	30.12	-56.5	-60.2	12.1	0.00e+00	0	27	0	576716800	78	5733
2026-01-06 23:06:52.46	62.44	30.21	-56.5	-60.1	12.1	3.00e-06	0	27	0	578813952	78	5681
2026-01-06 23:06:53.45	62.74	30.31	-56.2	-59.5	12.5	7.00e-07	0	27	0	579862528	78	5323
2026-01-06 23:06:54.45	63.04	30.40	-55.9	-59.0	12.9	0.00e+00	0	27	0	581959680	78	5001
2026-01-06 23:06:55.45	63.34	30.50	-55.8	-58.8	13.0	0.00e+00	0	27	0	584056832	78	4898
2026-01-06 23:06:56.45	63.64	30.59	-55.9	-58.9	13.0	0.00e+00	0	27	0	586153984	78	4966
2026-01-06 23:06:57.45	63.95	30.68	-55.9	-59.0	12.9	0.00e+00	0	27	0	588251136	78	5000
2026-01-06 23:06:58.44	64.26	30.78	-56.0	-59.1	12.8	0.00e+00	0	27	0	589299712	78	5097
2026-01-06 23:06:59.44	64.56	30.87	-56.1	-59.3	12.7	0.00e+00	0	27	0	591396864	78	5204
2026-01-06 23:07:00.44	64.88	30.96	-56.0	-59.1	12.8	0.00e+00	0	28	0	593494016	78	5070
2026-01-06 23:07:01.43	65.19	31.05	-55.9	-58.9	12.9	0.00e+00	0	27	0	595591168	78	4973
2026-01-06 23:07:02.43	65.50	31.14	-55.5	-58.4	13.1	0.00e+00	0	27	0	597688320	77	4950
2026-01-06 23:07:03.42	65.81	31.23	-55.1	-57.7	13.5	0.00e+00	0	27	0	598736896	76	4843
2026-01-06 23:07:04.42	66.13	31.32	-54.9	-57.5	13.6	0.00e+00	0	27	0	600834048	76	4707
2026-01-06 23:07:05.42	66.45	31.40	-54.8	-57.2	13.8	0.00e+00	0	28	0	602931200	76	4575
2026-01-06 23:07:06.42	66.77	31.49	-54.5	-56.9	13.8	0.00e+00	0	27	0	605028352	75	4705
2026-01-06 23:07:07.42	67.10	31.58	-54.4	-56.8	13.8	0.00e+00	0	27	0	606076928	75	4620
2026-01-06 23:07:08.42	67.42	31.66	-54.4	-56.7	13.9	0.00e+00	0	27	0	608174080	75	4571
2026-01-06 23:07:09.42	67.75	31.75	-54.4	-56.7	13.9	0.00e+00	0	27	0	610271232	75	4591
2026-01-06 23:07:10.42	68.08	31.83	-54.3	-56.6	13.9	0.00e+00	0	27	0	612368384	75	4533
2026-01-06 23:07:11.42	68.41	31.92	-54.2	-56.4	14.0	0.00e+00	0	27	0	614465536	75	4427
2026-01-06 23:07:12.42	68.74	32.00	-54.1	-56.4	14.0	0.00e+00	0	27	0	615514112	74	4660
2026-01-06 23:07:13.42	69.07	32.08	-54.2	-56.5	13.9	0.00e+00	0	27	0	617611264	74	4710
2026-01-06 23:07:14.42	69.41	32.16	-54.2	-56.4	13.9	0.00e+00	0	27	0	619708416	74	4672
2026-01-06 23:07:15.42	69.74	32.24	-54.3	-56.5	13.9	0.00e+00	0	28	0	621805568	74	4748
2026-01-06 23:07:16.41	70.08	32.32	-54.3	-56.6	13.8	0.00e+00	0	27	0	623902720	74	4802
2026-01-06 23:07:17.42	70.42	32.40	-54.2	-56.4	13.9	0.00e+00	0	27	0	624951296	74	4687
2026-01-06 23:07:18.41	70.76	32.48	-54.0	-56.2	14.0	0.00e+00	0	27	0	627048448	74	4594
2026-01-06 23:07:19.41	71.10	32.56	-54.0	-56.2	14.0	0.00e+00	0	27	0	629145600	74	4580
2026-01-06 23:07:20.42	71.45	32.63	-53.9	-56.0	14.1	0.00e+00	0	28	0	631242752	74	4471
2026-01-06 23:07:21.42	71.80	32.71	-53.8	-55.8	14.2	0.00e+00	0	27	0	632291328	74	4387
2026-01-06 23:07:22.41	72.14	32.78	-53.7	-55.8	14.3	0.00e+00	0	27	0	634388480	74	4354
2026-01-06 23:07:23.41	72.49	32.86	-53.7	-55.8	14.2	0.00e+00	0	27	0	636485632	73	4607
2026-01-06 23:07:24.42	72.84	32.93	-53.7	-55.8	14.1	0.00e+00	0	28	0	638582784	73	4608
2026-01-06 23:07:25.41	73.19	33.00	-53.9	-56.1	14.0	0.00e+00	0	27	0	640679936	73	4775
2026-01-06 23:07:26.42	73.55	33.07	-54.1	-56.4	13.8	0.00e+00	0	27	0	641728512	73	4938
2026-01-06 23:07:27.42	73.91	33.14	-54.3	-56.7	13.7	0.00e+00	0	28	0	643825664	73	5117
2026-01-06 23:07:28.41	74.26	33.21	-54.3	-56.6	13.7	0.00e+00	0	27	0	645922816	73	5088
2026-01-06 23:07:29.42	74.62	33.27	-54.2	-56.6	13.8	0.00e+00	0	27	0	648019968	73	5044
2026-01-06 23:07:30.41	74.98	33.34	-54.3	-56.7	13.7	0.00e+00	0	27	0	650117120	73	5109
2026-01-06 23:07:31.42	75.34	33.40	-54.4	-56.7	13.7	0.00e+00	0	27	0	651165696	73	5150
2026-01-06 23:07:32.41	75.70	33.47	-54.6	-57.0	13.6	0.00e+00	0	28	0	653262848	74	5037
2026-01-06 23:07:33.42	76.07	33.53	-54.9	-57.5	13.4	0.00e+00	0	28	0	655360000	74	5280
2026-01-06 23:07:34.41	76.43	33.59	-55.3	-58.1	13.1	0.00e+00	0	27	0	657457152	75	5385
2026-01-06 23:07:35.41	76.80	33.65	-55.7	-58.8	12.9	0.00e+00	0	27	0	658505728	76	5468
2026-01-06 23:07:36.41	77.17	33.71	-56.0	-59.1	12.7	0.00e+00	0	28	0	660602880	77	5377
2026-01-06 23:07:37.41	77.54	33.77	-55.9	-59.1	12.7	0.00e+00	0	28	0	662700032	77	5364
2026-01-06 23:07:38.41	77.91	33.82	-55.9	-59.0	12.8	0.00e+00	0	28	0	664797184	77	5286
2026-01-06 23:07:39.41	78.28	33.88	-55.7	-58.6	13.1	0.00e+00	0	27	0	666894336	77	5071
2026-01-06 23:07:40.41	78.65	33.93	-55.2	-57.8	13.5	0.00e+00	0	27	0	667942912	77	4649
2026-01-06 23:07:41.42	79.03	33.99	-55.1	-57.7	13.5	0.00e+00	0	28	0	670040064	76	4819
2026-01-06 23:07:42.42	79.41	34.04	-55.0	-57.6	13.6	0.00e+00	0	27	0	672137216	76	4776
2026-01-06 23:07:43.42	79.78	34.09	-55.2	-57.9	13.4	0.00e+00	0	28	0	674234368	76	4936
2026-01-06 23:07:44.42	80.16	34.14	-55.4	-58.1	13.2	0.00e+00	0	28	0	676331520	76	5064
2026-01-06 23:07:45.42	80.54	34.19	-55.5	-58.4	13.1	0.00e+00	0	27	0	677380096	76	5251
2026-01-06 23:07:46.41	80.92	34.23	-55.5	-58.3	13.1	0.00e+00	0	27	0	679477248	76	5193
2026-01-06 23:07:47.41	81.30	34.28	-55.2	-57.9	13.4	0.00e+00	0	27	0	681574400	76	4955
2026-01-06 23:07:48.41	81.68	34.32	-55.0	-57.5	13.6	0.00e+00	0	27	0	683671552	76	4742
2026-01-06 23:07:49.41	82.06	34.37	-54.3	-56.6	13.9	0.00e+00	0	28	0	685768704	75	4539
2026-01-06 23:07:50.41	82.45	34.41	-54.1	-56.3	14.0	0.00e+00	0	27	0	686817280	74	4651
2026-01-06 23:07:51.41	82.83	34.45	-54.2	-56.4	13.9	0.00e+00	0	28	0	688914432	74	4683
2026-01-06 23:07:52.41	83.22	34.48	-54.4	-56.7	13.8	0.00e+00	0	27	0	691011584	74	4859
2026-01-06 23:07:53.41	83.61	34.52	-54.8	-57.3	13.5	0.00e+00	0	28	0	693108736	74	5192
2026-01-06 23:07:54.42	84.00	34.56	-54.9	-57.5	13.5	0.00e+00	0	28	0	694157312	75	5010
2026-01-06 23:07:55.41	84.38	34.59	-54.9	-57.5	13.5	0.00e+00	0	28	0	696254464	75	5022
2026-01-06 23:07:56.41	84.77	34.63	-54.8	-57.3	13.6	0.00e+00	0	27	0	698351616	75	4906
2026-01-06 23:07:57.41	85.16	34.66	-54.7	-57.1	13.7	0.00e+00	0	27	0	700448768	75	4779
2026-01-06 23:07:58.42	85.56	34.69	-54.7	-57.1	13.7	0.00e+00	0	28	0	702545920	75	4814
2026-01-06 23:07:59.41	85.95	34.72	-54.8	-57.4	13.5	0.00e+00	0	27	0	703594496	75	4930
2026-01-06 23:08:00.41	86.34	34.74	-54.9	-57.5	13.5	0.00e+00	0	28	0	705691648	75	4984
2026-01-06 23:08:01.41	86.73	34.77	-54.9	-57.4	13.5	0.00e+00	0	28	0	707788800	75	4935
2026-01-06 23:08:02.40	87.12	34.79	-54.8	-57.4	13.5	0.00e+00	0	27	0	709885952	75	4936
2026-01-06 23:08:03.40	87.52	34.82	-54.8	-57.2	13.7	0.00e+00	0	27	0	711983104	75	4864
2026-01-06 23:08:04.40	87.91	34.84	-54.7	-57.1	13.7	0.00e+00	0	27	0	713031680	75	4803
2026-01-06 23:08:05.40	88.31	34.86	-54.8	-57.3	13.6	0.00e+00	0	28	0	715128832	75	4917
2026-01-06 23:08:06.41	88.71	34.88	-55.0	-57.7	13.4	0.00e+00	0	27	0	717225984	75	5112
2026-01-06 23:08:07.41	89.10	34.89	-55.6	-58.4	13.1	0.00e+00	0	28	0	719323136	76	5252
2026-01-06 23:08:08.41	89.50	34.91	-55.8	-58.9	12.8	0.00e+00	0	27	0	720371712	76	5531
2026-01-06 23:08:09.41	89.90	34.92	-55.7	-58.6	12.9	0.00e+00	0	28	0	722468864	76	5357
2026-01-06 23:08:10.40	90.29	34.93	-55.6	-58.4	13.1	0.00e+00	0	28	0	724566016	76	5261
2026-01-06 23:08:11.40	90.69	34.95	-55.4	-58.1	13.3	0.00e+00	0	28	0	726663168	76	5070
2026-01-06 23:08:12.40	91.08	34.96	-55.1	-57.6	13.6	0.00e+00	0	28	0	728760320	76	4796
2026-01-06 23:08:13.40	91.48	34.96	-55.0	-57.5	13.6	0.00e+00	0	27	0	729808896	76	4730
2026-01-06 23:08:14.40	91.88	34.97	-54.9	-57.4	13.7	0.00e+00	0	28	0	731906048	76	4655
2026-01-06 23:08:15.41	92.28	34.97	-54.8	-57.2	13.7	0.00e+00	0	28	0	734003200	76	4567
2026-01-06 23:08:16.41	92.68	34.98	-54.8	-57.2	13.8	0.00e+00	0	28	0	736100352	76	4566
2026-01-06 23:08:17.42	93.08	34.98	-54.6	-56.9	13.8	0.00e+00	0	28	0	738197504	75	4685
2026-01-06 23:08:18.41	93.48	34.98	-54.4	-56.7	13.9	0.00e+00	0	27	0	739246080	75	4583
2026-01-06 23:08:19.41	93.88	34.98	-54.3	-56.6	14.0	0.00e+00	0	28	0	741343232	75	4508
2026-01-06 23:08:20.41	94.28	34.98	-54.2	-56.4	14.1	0.00e+00	0	28	0	743440384	75	4436
2026-01-06 23:08:21.41	94.67	34.97	-54.0	-56.1	14.1	0.00e+00	0	28	0	745537536	74	4528
2026-01-06 23:08:22.41	95.07	34.97	-53.6	-55.6	14.3	0.00e+00	0	28	0	747634688	73	4496
2026-01-06 23:08:23.41	95.47	34.96	-53.5	-55.5	14.3	0.00e+00	0	28	0	748683264	73	4467
2026-01-06 23:08:24.40	95.87	34.95	-53.8	-55.8	14.1	0.00e+00	0	27	0	750780416	73	4644
2026-01-06 23:08:25.40	96.26	34.94	-54.3	-56.5	13.8	0.00e+00	0	28	0	752877568	73	5029
2026-01-06 23:08:26.40	96.66	34.93	-54.9	-57.5	13.5	0.00e+00	0	28	0	754974720	75	5005
2026-01-06 23:08:27.40	97.06	34.92	-55.5	-58.4	13.1	0.00e+00	0	28	0	756023296	76	5237
2026-01-06 23:08:28.40	97.45	34.90	-55.8	-58.8	12.9	0.00e+00	0	27	0	758120448	76	5478
2026-01-06 23:08:29.40	97.85	34.88	-55.3	-57.9	13.4	0.00e+00	0	28	0	760217600	76	4975
2026-01-06 23:08:30.41	98.25	34.87	-54.9	-57.4	13.7	0.00e+00	0	28	0	762314752	76	4678
2026-01-06 23:08:31.41	98.65	34.85	-54.7	-57.1	13.9	0.00e+00	0	28	0	764411904	76	4503
2026-01-06 23:08:32.41	99.04	34.83	-54.6	-57.0	13.8	0.00e+00	0	28	0	765460480	75	4717
2026-01-06 23:08:33.41	99.44	34.80	-54.6	-56.9	13.8	0.00e+00	0	28	0	767557632	75	4675
2026-01-06 23:08:34.41	99.83	34.78	-54.9	-57.4	13.6	0.00e+00	0	28	0	769654784	75	4963
2026-01-06 23:08:35.41	100.23	34.76	-55.5	-58.3	13.1	0.00e+00	0	28	0	771751936	76	5200
2026-01-06 23:08:36.41	100.62	34.73	-55.9	-59.0	12.8	0.00e+00	0	27	0	773849088	76	5622
2026-01-06 23:08:37.40	101.01	34.70	-56.2	-59.5	12.5	0.00e+00	0	28	0	774897664	77	5605
2026-01-06 23:08:38.40	101.40	34.67	-56.1	-59.2	12.7	0.00e+00	0	28	0	776994816	77	5443
2026-01-06 23:08:39.40	101.79	34.64	-56.3	-59.7	12.4	0.00e+00	0	28	0	779091968	77	5743
2026-01-06 23:08:40.40	102.18	34.61	-56.5	-60.1	12.2	0.00e+00	0	28	0	781189120	78	5672
2026-01-06 23:08:41.41	102.57	34.57	-56.9	-60.8	11.7	1.50e-06	0	28	0	782237696	79	5833
2026-01-06 23:08:42.41	102.96	34.54	-57.1	-61.1	11.6	1.67e-05	0	28	0	784334848	79	6043
2026-01-06 23:08:43.41	103.35	34.50	-56.6	-60.2	12.3	6.10e-06	0	28	0	786432000	79	5420
2026-01-06 23:08:44.41	103.74	34.46	-56.1	-59.3	12.7	7.00e-07	0	28	0	788529152	78	5183
2026-01-06 23:08:45.40	104.12	34.43	-55.9	-58.9	13.0	0.00e+00	0	28	0	790626304	78	4930
2026-01-06 23:08:46.40	104.50	34.39	-55.4	-58.1	13.3	0.00e+00	0	28	0	791674880	77	4797
2026-01-06 23:08:47.41	104.89	34.34	-55.5	-58.2	13.3	0.00e+00	0	28	0	793772032	77	4864
2026-01-06 23:08:48.41	105.28	34.30	-55.4	-58.2	13.3	0.00e+00	0	28	0	795869184	77	4818
2026-01-06 23:08:49.40	105.65	34.25	-55.2	-57.7	13.6	0.00e+00	0	28	0	797966336	77	4592
2026-01-06 23:08:50.40	106.04	34.21	-54.9	-57.4	13.7	0.00e+00	0	28	0	800063488	76	4672
2026-01-06 23:08:51.39	106.41	34.16	-54.4	-56.7	13.9	0.00e+00	0	28	0	801112064	75	4585
2026-01-06 23:08:52.39	106.79	34.11	-54.5	-56.8	13.9	0.00e+00	0	28	0	803209216	75	4601
2026-01-06 23:08:53.39	107.17	34.06	-54.6	-57.0	13.8	0.00e+00	0	28	0	805306368	75	4706
2026-01-06 23:08:54.39	107.55	34.01	-55.0	-57.6	13.4	0.00e+00	0	28	0	807403520	75	5078
2026-01-06 23:08:55.38	107.92	33.96	-55.0	-57.6	13.5	0.00e+00	0	27	0	809500672	75	5060
2026-01-06 23:08:56.37	108.29	33.91	-54.8	-57.3	13.6	0.00e+00	0	28	0	810549248	75	4909
2026-01-06 23:08:57.37	108.66	33.85	-54.7	-57.1	13.7	0.00e+00	0	28	0	812646400	75	4786
2026-01-06 23:08:58.37	109.03	33.80	-54.6	-56.9	13.8	0.00e+00	0	28	0	814743552	75	4703
2026-01-06 23:08:59.37	109.40	33.74	-54.8	-57.3	13.6	0.00e+00	0	28	0	816840704	75	4917
2026-01-06 23:09:00.36	109.77	33.68	-55.1	-57.8	13.4	0.00e+00	0	28	0	817889280	75	5162
2026-01-06 23:09:01.36	110.14	33.62	-55.6	-58.5	13.0	0.00e+00	0	28	0	819986432	76	5298
2026-01-06 23:09:02.36	110.51	33.56	-55.3	-57.9	13.4	0.00e+00	0	28	0	822083584	76	4977
2026-01-06 23:09:03.35	110.87	33.50	-54.8	-57.2	13.7	0.00e+00	0	28	0	824180736	76	4586
2026-01-06 23:09:04.35	111.23	33.44	-54.3	-56.6	13.9	0.00e+00	0	28	0	826277888	75	4506
2026-01-06 23:09:05.35	111.59	33.37	-54.3	-56.6	13.9	0.00e+00	0	28	0	827326464	75	4523
2026-01-06 23:09:06.36	111.96	33.30	-54.1	-56.3	14.0	0.00e+00	0	28	0	829423616	74	4600
2026-01-06 23:09:07.36	112.32	33.24	-53.9	-56.0	14.2	0.00e+00	0	28	0	831520768	74	4452
2026-01-06 23:09:08.35	112.67	33.17	-53.9	-56.1	14.1	0.00e+00	0	28	0	833617920	74	4498
2026-01-06 23:09:09.35	113.03	33.10	-53.9	-56.1	14.1	0.00e+00	0	28	0	834666496	74	4501
2026-01-06 23:09:10.35	113.39	33.03	-54.1	-56.2	14.0	0.00e+00	0	28	0	836763648	74	4581
2026-01-06 23:09:11.34	113.74	32.96	-54.1	-56.3	14.0	0.00e+00	0	28	0	838860800	74	4613
2026-01-06 23:09:12.34	114.09	32.89	-54.2	-56.4	13.9	0.00e+00	0	28	0	840957952	74	4702
2026-01-06 23:09:13.34	114.44	32.82	-54.4	-56.8	13.8	0.00e+00	0	28	0	843055104	74	4875
2026-01-06 23:09:14.33	114.79	32.75	-54.5	-56.9	13.7	0.00e+00	0	28	0	844103680	74	4954
2026-01-06 23:09:15.34	115.14	32.67	-54.4	-56.7	13.8	0.00e+00	0	28	0	846200832	74	4843
2026-01-06 23:09:16.34	115.48	32.59	-54.2	-56.5	13.9	0.00e+00	0	28	0	848297984	74	4716
2026-01-06 23:09:17.34	115.83	32.52	-54.1	-56.3	14.0	0.00e+00	0	28	0	850395136	74	4619
2026-01-06 23:09:18.33	116.17	32.44	-54.1	-56.4	14.0	0.00e+00	0	28	0	852492288	74	4656
2026-01-06 23:09:19.33	116.51	32.36	-54.5	-56.8	13.7	0.00e+00	0	28	0	853540864	74	4912
2026-01-06 23:09:20.34	116.85	32.28	-54.5	-56.9	13.7	0.00e+00	0	28	0	855638016	74	4944
2026-01-06 23:09:21.34	117.19	32.20	-54.4	-56.8	13.7	0.00e+00	0	28	0	857735168	74	4903
2026-01-06 23:09:22.33	117.52	32.12	-54.3	-56.7	13.8	0.00e+00	0	28	0	859832320	74	4831
2026-01-06 23:09:23.33	117.86	32.04	-54.5	-56.8	13.7	0.00e+00	0	28	0	861929472	74	4918
2026-01-06 23:09:24.34	118.19	31.96	-54.7	-57.2	13.5	0.00e+00	0	28	0	862978048	74	5122
2026-01-06 23:09:25.34	118.53	31.87	-54.9	-57.5	13.4	0.00e+00	0	28	0	865075200	74	5288
2026-01-06 23:09:26.34	118.86	31.79	-54.8	-57.4	13.5	0.00e+00	0	28	0	867172352	75	4944
2026-01-06 23:09:27.35	119.19	31.70	-54.8	-57.2	13.6	0.00e+00	0	28	0	869269504	75	4868
2026-01-06 23:09:28.35	119.51	31.62	-54.8	-57.3	13.6	0.00e+00	0	28	0	870318080	75	4881
2026-01-06 23:09:29.35	119.84	31.53	-54.9	-57.4	13.5	0.00e+00	0	28	0	872415232	75	4966
2026-01-06 23:09:30.36	120.16	31.44	-55.1	-57.7	13.4	0.00e+00	0	28	0	874512384	75	5152
2026-01-06 23:09:31.35	120.48	31.35	-55.6	-58.4	13.1	0.00e+00	0	28	0	876609536	76	5270
2026-01-06 23:09:32.36	120.81	31.26	-55.8	-58.8	12.9	0.00e+00	0	28	0	878706688	76	5490
2026-01-06 23:09:33.35	121.12	31.18	-55.5	-58.4	13.1	0.00e+00	0	28	0	879755264	76	5238
2026-01-06 23:09:34.36	121.44	31.09	-55.1	-57.7	13.5	0.00e+00	0	28	0	881852416	76	4822
2026-01-06 23:09:35.36	121.75	30.99	-54.5	-56.9	13.8	0.00e+00	0	28	0	883949568	75	4680
2026-01-06 23:09:36.36	122.07	30.90	-54.2	-56.5	14.0	0.00e+00	0	28	0	886046720	75	4460
2026-01-06 23:09:37.36	122.38	30.81	-54.2	-56.4	13.9	0.00e+00	0	28	0	888143872	74	4686
2026-01-06 23:09:38.36	122.69	30.72	-54.7	-57.2	13.6	0.00e+00	0	28	0	889192448	74	5111
2026-01-06 23:09:39.35	122.99	30.63	-54.8	-57.3	13.5	0.00e+00	0	28	0	891289600	74	5168
2026-01-06 23:09:40.36	123.30	30.53	-54.4	-56.7	13.8	0.00e+00	0	28	0	893386752	74	4839
2026-01-06 23:09:41.36	123.60	30.44	-54.1	-56.3	14.0	0.00e+00	0	28	0	895483904	74	4600
2026-01-06 23:09:42.36	123.91	30.34	-54.0	-56.2	14.0	0.00e+00	0	28	0	896532480	74	4566
2026-01-06 23:09:43.35	124.20	30.25	-54.0	-56.2	14.0	0.00e+00	0	28	0	898629632	74	4588
2026-01-06 23:09:44.35	124.50	30.15	-54.4	-56.7	13.8	0.00e+00	0	28	0	900726784	74	4829
2026-01-06 23:09:45.36	124.80	30.05	-54.9	-57.5	13.4	0.00e+00	0	28	0	902823936	74	5285
2026-01-06 23:09:46.36	125.10	29.96	-55.1	-57.9	13.3	0.00e+00	0	28	0	904921088	75	5229
2026-01-06 23:09:47.37	125.40	29.86	-54.9	-57.5	13.4	0.00e+00	0	28	0	905969664	75	5024
2026-01-06 23:09:48.37	125.69	29.76	-54.6	-57.1	13.6	0.00e+00	0	28	0	908066816	75	4777
2026-01-06 23:09:49.36	125.97	29.66	-54.1	-56.3	14.0	0.00e+00	0	28	0	910163968	74	4646
2026-01-06 23:09:50.36	126.26	29.56	-54.2	-56.4	13.9	0.00e+00	0	28	0	912261120	74	4703
2026-01-06 23:09:51.36	126.55	29.46	-54.8	-57.4	13.4	0.00e+00	0	28	0	914358272	74	5260
2026-01-06 23:09:52.36	126.83	29.36	-55.6	-58.5	13.0	0.00e+00	0	28	0	915406848	76	5298
2026-01-06 23:09:53.36	127.12	29.26	-55.5	-58.3	13.1	0.00e+00	0	28	0	917504000	76	5207
2026-01-06 23:09:54.36	127.40	29.16	-54.7	-57.1	13.8	0.00e+00	0	28	0	919601152	76	4541
2026-01-06 23:09:55.36	127.68	29.06	-53.8	-55.9	14.2	0.00e+00	0	28	0	921698304	74	4433
2026-01-06 23:09:56.35	127.95	28.96	-53.7	-55.8	14.1	0.00e+00	0	28	0	923795456	73	4615
2026-01-06 23:09:57.36	128.23	28.86	-53.5	-55.6	14.2	0.00e+00	0	28	0	924844032	73	4496
2026-01-06 23:09:58.36	128.51	28.76	-54.0	-56.2	13.9	0.00e+00	0	28	0	926941184	73	4844
2026-01-06 23:09:59.36	128.78	28.66	-54.6	-57.1	13.6	0.00e+00	0	28	0	929038336	74	5064
2026-01-06 23:10:00.36	129.05	28.55	-54.7	-57.2	13.5	0.00e+00	0	28	0	931135488	74	5145
2026-01-06 23:10:01.35	129.32	28.45	-54.2	-56.4	13.9	0.00e+00	0	28	0	932184064	74	4688
2026-01-06 23:10:02.35	129.59	28.35	-53.6	-55.7	14.3	0.00e+00	0	27	0	934281216	73	4565
2026-01-06 23:10:03.35	129.85	28.25	-53.6	-55.7	14.2	0.00e+00	0	28	0	936378368	73	4572
2026-01-06 23:10:04.35	130.12	28.14	-53.8	-55.9	14.1	0.00e+00	0	28	0	938475520	73	4660
2026-01-06 23:10:05.35	130.38	28.04	-54.4	-56.8	13.7	0.00e+00	0	28	0	940572672	73	5190
2026-01-06 23:10:06.35	130.64	27.93	-55.3	-58.1	13.1	0.00e+00	0	28	0	941621248	75	5365
2026-01-06 23:10:07.35	130.90	27.83	-55.3	-58.1	13.1	0.00e+00	0	28	0	943718400	75	5375
2026-01-06 23:10:08.35	131.16	27.72	-54.8	-57.4	13.5	0.00e+00	0	28	0	945815552	75	4961
2026-01-06 23:10:09.35	131.41	27.62	-54.2	-56.5	13.9	0.00e+00	0	28	0	947912704	75	4482
2026-01-06 23:10:10.36	131.67	27.51	-54.1	-56.3	14.0	0.00e+00	0	28	0	950009856	74	4613
2026-01-06 23:10:11.36	131.93	27.41	-53.9	-56.1	14.1	0.00e+00	0	28	0	951058432	74	4515
2026-01-06 23:10:12.35	132.17	27.30	-54.0	-56.2	14.0	0.00e+00	0	28	0	953155584	74	4587
2026-01-06 23:10:13.35	132.42	27.20	-54.6	-57.1	13.5	0.00e+00	0	28	0	955252736	74	5095
2026-01-06 23:10:14.35	132.67	27.09	-55.0	-57.7	13.3	0.00e+00	0	28	0	957349888	75	5140
2026-01-06 23:10:15.35	132.92	26.99	-54.6	-57.1	13.6	0.00e+00	0	28	0	958398464	75	4783
2026-01-06 23:10:16.34	133.16	26.88	-53.8	-55.9	14.2	0.00e+00	0	28	0	960495616	74	4412
2026-01-06 23:10:17.34	133.40	26.78	-53.1	-55.0	14.3	0.00e+00	0	28	0	962592768	72	4474
2026-01-06 23:10:18.34	133.65	26.67	-53.0	-54.8	14.4	0.00e+00	0	28	0	964689920	72	4377
2026-01-06 23:10:19.34	133.89	26.56	-52.8	-54.6	14.5	0.00e+00	0	28	0	966787072	72	4271
2026-01-06 23:10:20.34	134.12	26.46	-53.2	-55.2	14.3	0.00e+00	0	28	0	967835648	72	4552
2026-01-06 23:10:21.34	134.36	26.35	-53.9	-56.1	13.9	0.00e+00	0	27	0	969932800	72	5056
2026-01-06 23:10:22.33	134.59	26.25	-54.0	-56.3	13.9	0.00e+00	0	28	0	972029952	73	4886
2026-01-06 23:10:23.32	134.83	26.14	-53.6	-55.7	14.1	0.00e+00	0	28	0	974127104	73	4590
2026-01-06 23:10:24.33	135.06	26.03	-53.2	-55.1	14.4	0.00e+00	0	28	0	976224256	73	4261
2026-01-06 23:10:25.33	135.29	25.92	-52.9	-54.8	14.4	0.00e+00	0	28	0	977272832	72	4371
2026-01-06 23:10:26.33	135.52	25.82	-52.7	-54.5	14.6	0.00e+00	0	28	0	979369984	72	4229
2026-01-06 23:10:27.33	135.75	25.71	-52.7	-54.6	14.4	0.00e+00	0	28	0	981467136	71	4517
2026-01-06 23:10:28.33	135.98	25.60	-53.2	-55.2	14.2	0.00e+00	0	28	0	983564288	71	4830
2026-01-06 23:10:29.32	136.20	25.50	-53.5	-55.6	14.1	0.00e+00	0	28	0	985661440	72	4797
2026-01-06 23:10:30.33	136.42	25.39	-53.6	-55.7	14.1	0.00e+00	0	28	0	986710016	72	4824
2026-01-06 23:10:31.33	136.65	25.28	-53.4	-55.5	14.1	0.00e+00	0	28	0	988807168	72	4717
2026-01-06 23:10:32.33	136.87	25.18	-53.2	-55.2	14.3	0.00e+00	0	28	0	990904320	72	4552
2026-01-06 23:10:33.33	137.09	25.07	-52.6	-54.5	14.5	0.00e+00	0	28	0	993001472	71	4444
2026-01-06 23:10:34.33	137.30	24.96	-52.1	-53.8	14.6	0.00e+00	0	28	0	994050048	70	4382
2026-01-06 23:10:35.33	137.52	24.85	-52.1	-53.8	14.7	0.00e+00	0	28	0	996147200	70	4341
2026-01-06 23:10:36.33	137.73	24.75	-52.1	-53.8	14.6	0.00e+00	0	28	0	998244352	70	4386
2026-01-06 23:10:37.34	137.95	24.64	-52.2	-53.9	14.6	0.00e+00	0	27	0	1000341504	70	4420
2026-01-06 23:10:38.34	138.16	24.53	-52.4	-54.1	14.5	0.00e+00	0	28	0	1002438656	70	4538
2026-01-06 23:10:39.35	138.37	24.42	-52.3	-54.1	14.5	0.00e+00	0	28	0	1003487232	70	4500
2026-01-06 23:10:40.35	138.58	24.32	-52.0	-53.7	14.7	0.00e+00	0	28	0	1005584384	70	4333
2026-01-06 23:10:41.35	138.79	24.21	-51.8	-53.4	14.8	0.00e+00	0	28	0	1007681536	70	4184
2026-01-06 23:10:42.35	139.00	24.10	-51.7	-53.3	14.7	0.00e+00	0	28	0	1009778688	69	4355
2026-01-06 23:10:43.35	139.20	24.00	-51.4	-53.0	14.8	0.00e+00	0	28	0	1011875840	69	4213
2026-01-06 23:10:44.34	139.40	23.89	-51.4	-52.9	14.9	0.00e+00	0	28	0	1012924416	69	4187
2026-01-06 23:10:45.35	139.61	23.78	-51.6	-53.2	14.8	0.00e+00	0	28	0	1015021568	69	4305
2026-01-06 23:10:46.36	139.81	23.68	-51.8	-53.5	14.6	0.00e+00	0	28	0	1017118720	69	4472
2026-01-06 23:10:47.35	140.01	23.57	-52.0	-53.7	14.6	0.00e+00	0	28	0	1019215872	69	4550
2026-01-06 23:10:48.35	140.21	23.47	-51.9	-53.6	14.6	0.00e+00	0	28	0	1021313024	69	4533
2026-01-06 23:10:49.35	140.41	23.36	-51.8	-53.5	14.6	0.00e+00	0	28	0	1022361600	69	4452
2026-01-06 23:10:50.35	140.60	23.25	-51.5	-53.1	14.8	0.00e+00	0	28	0	1024458752	69	4273
2026-01-06 23:10:51.35	140.80	23.15	-51.3	-52.8	14.9	0.00e+00	0	28	0	1026555904	69	4145
2026-01-06 23:10:52.35	140.99	23.04	-51.0	-52.5	14.9	0.00e+00	0	28	0	1028653056	68	4201
2026-01-06 23:10:53.34	141.18	22.94	-50.9	-52.4	14.9	0.00e+00	0	27	0	1029701632	68	4188
2026-01-06 23:10:54.34	141.37	22.83	-50.9	-52.4	14.9	0.00e+00	0	28	0	1031798784	68	4168
2026-01-06 23:10:55.34	141.56	22.72	-51.0	-52.5	14.9	0.00e+00	0	28	0	1033895936	68	4229
2026-01-06 23:10:56.33	141.74	22.62	-51.2	-52.7	14.8	0.00e+00	0	28	0	1035993088	68	4329
2026-01-06 23:10:57.33	141.93	22.51	-51.3	-52.9	14.8	0.00e+00	0	28	0	1038090240	68	4402
2026-01-06 23:10:58.33	142.12	22.41	-51.4	-53.0	14.7	0.00e+00	0	28	0	1039138816	68	4444
2026-01-06 23:10:59.34	142.30	22.30	-51.2	-52.8	14.8	0.00e+00	0	28	0	1041235968	68	4366
2026-01-06 23:11:00.33	142.49	22.20	-51.2	-52.8	14.8	0.00e+00	0	28	0	1043333120	68	4347
2026-01-06 23:11:01.33	142.67	22.09	-51.2	-52.8	14.8	0.00e+00	0	28	0	1045430272	68	4355
2026-01-06 23:11:02.32	142.85	21.99	-51.3	-52.8	14.8	0.00e+00	0	28	0	1047527424	68	4391
2026-01-06 23:11:03.32	143.03	21.89	-50.9	-52.4	14.9	0.00e+00	0	28	0	1048576000	68	4181
2026-01-06 23:11:04.32	143.20	21.78	-50.9	-52.4	14.9	0.00e+00	0	28	0	1050673152	68	4166
2026-01-06 23:11:05.31	143.38	21.68	-51.0	-52.6	14.9	0.00e+00	0	28	0	1052770304	68	4243
2026-01-06 23:11:06.31	143.56	21.58	-51.3	-52.9	14.8	0.00e+00	0	28	0	1054867456	68	4396
2026-01-06 23:11:07.31	143.73	21.47	-51.6	-53.3	14.6	0.00e+00	0	28	0	1055916032	68	4623
2026-01-06 23:11:08.31	143.91	21.37	-51.8	-53.5	14.5	0.00e+00	0	28	0	1058013184	68	4726
2026-01-06 23:11:09.30	144.08	21.26	-51.9	-53.6	14.5	0.00e+00	0	27	0	1060110336	68	4772
2026-01-06 23:11:10.30	144.25	21.16	-51.8	-53.5	14.5	0.00e+00	0	28	0	1062207488	68	4717
2026-01-06 23:11:11.30	144.42	21.06	-51.7	-53.3	14.6	0.00e+00	0	28	0	1064304640	68	4636
2026-01-06 23:11:12.30	144.59	20.96	-51.7	-53.3	14.6	0.00e+00	0	27	0	1065353216	68	4632
2026-01-06 23:11:13.30	144.76	20.85	-51.6	-53.3	14.6	0.00e+00	0	28	0	1067450368	68	4617
2026-01-06 23:11:14.30	144.92	20.75	-51.5	-53.1	14.6	0.00e+00	0	28	0	1069547520	68	4517
2026-01-06 23:11:15.30	145.09	20.65	-51.3	-52.9	14.7	0.00e+00	0	28	0	1071644672	68	4433
2026-01-06 23:11:16.30	145.26	20.54	-51.2	-52.8	14.8	0.00e+00	0	28	0	1072693248	68	4363
2026-01-06 23:11:17.29	145.42	20.44	-51.4	-53.0	14.7	0.00e+00	0	28	0	1074790400	68	4449
2026-01-06 23:11:18.28	145.58	20.34	-51.5	-53.1	14.6	0.00e+00	0	28	0	1076887552	68	4528
2026-01-06 23:11:19.28	145.74	20.24	-51.5	-53.1	14.7	0.00e+00	0	28	0	1078984704	68	4523
2026-01-06 23:11:20.29	145.90	20.14	-51.5	-53.2	14.6	0.00e+00	0	28	0	1081081856	68	4555
2026-01-06 23:11:21.29	146.06	20.04	-51.6	-53.2	14.6	0.00e+00	0	28	0	1082130432	68	4590
2026-01-06 23:11:22.29	146.22	19.94	-51.6	-53.3	14.6	0.00e+00	0	28	0	1084227584	68	4636
2026-01-06 23:11:23.28	146.38	19.84	-51.6	-53.2	14.6	0.00e+00	0	28	0	1086324736	68	4580
2026-01-06 23:11:24.28	146.54	19.73	-51.6	-53.3	14.6	0.00e+00	0	28	0	1088421888	68	4610
2026-01-06 23:11:25.28	146.69	19.63	-51.8	-53.5	14.5	0.00e+00	0	28	0	1090519040	68	4707
2026-01-06 23:11:26.27	146.85	19.53	-51.8	-53.5	14.5	0.00e+00	0	28	0	1091567616	68	4712
2026-01-06 23:11:27.28	147.00	19.43	-51.8	-53.5	14.5	0.00e+00	0	28	0	1093664768	68	4710
2026-01-06 23:11:28.28	147.16	19.33	-51.9	-53.6	14.6	0.00e+00	0	28	0	1095761920	69	4542
2026-01-06 23:11:29.29	147.31	19.23	-52.0	-53.7	14.5	0.00e+00	0	28	0	1097859072	69	4559
2026-01-06 23:11:30.29	147.46	19.13	-52.0	-53.8	14.5	0.00e+00	0	27	0	1099956224	69	4607
2026-01-06 23:11:31.29	147.61	19.03	-52.0	-53.7	14.5	0.00e+00	0	28	0	1101004800	69	4575
2026-01-06 23:11:32.29	147.76	18.93	-51.9	-53.6	14.6	0.00e+00	0	28	0	1103101952	69	4499
2026-01-06 23:11:33.30	147.91	18.83	-51.9	-53.5	14.6	0.00e+00	0	28	0	1105199104	69	4486
2026-01-06 23:11:34.29	148.05	18.74	-51.8	-53.5	14.6	0.00e+00	0	28	0	1107296256	69	4454
2026-01-06 23:11:35.30	148.20	18.64	-51.8	-53.5	14.6	0.00e+00	0	28	0	1108344832	69	4478
2026-01-06 23:11:36.29	148.35	18.54	-52.0	-53.7	14.5	0.00e+00	0	28	0	1110441984	69	4556
2026-01-06 23:11:37.29	148.49	18.44	-52.1	-53.9	14.5	0.00e+00	0	28	0	1112539136	69	4671
2026-01-06 23:11:38.29	148.64	18.34	-52.5	-54.4	14.4	0.00e+00	0	28	0	1114636288	70	4664
2026-01-06 23:11:39.29	148.78	18.25	-52.7	-54.6	14.3	0.00e+00	0	28	0	1116733440	70	4767
2026-01-06 23:11:40.28	148.92	18.15	-53.0	-55.0	14.2	0.00e+00	0	28	0	1117782016	71	4728
2026-01-06 23:11:41.28	149.06	18.05	-53.2	-55.3	14.1	0.00e+00	0	28	0	1119879168	71	4872
2026-01-06 23:11:42.29	149.20	17.95	-53.1	-55.2	14.1	0.00e+00	0	28	0	1121976320	71	4834
2026-01-06 23:11:43.29	149.34	17.86	-53.1	-55.1	14.2	0.00e+00	0	28	0	1124073472	71	4794
2026-01-06 23:11:44.29	149.48	17.76	-52.9	-54.8	14.3	0.00e+00	0	28	0	1126170624	71	4648
2026-01-06 23:11:45.30	149.62	17.66	-52.7	-54.6	14.4	0.00e+00	0	27	0	1127219200	71	4511
2026-01-06 23:11:46.29	149.75	17.57	-52.7	-54.6	14.4	0.00e+00	0	28	0	1129316352	71	4517
2026-01-06 23:11:47.30	149.89	17.47	-52.5	-54.4	14.4	0.00e+00	0	28	0	1131413504	71	4414
2026-01-06 23:11:48.30	150.03	17.38	-52.6	-54.5	14.4	0.00e+00	0	28	0	1133510656	71	4453
2026-01-06 23:11:49.30	150.16	17.28	-52.8	-54.7	14.3	0.00e+00	0	28	0	1134559232	71	4592
2026-01-06 23:11:50.30	150.29	17.19	-52.9	-54.9	14.2	0.00e+00	0	28	0	1136656384	71	4660
2026-01-06 23:11:51.30	150.43	17.09	-53.2	-55.2	14.1	0.00e+00	0	28	0	1138753536	71	4852
2026-01-06 23:11:52.29	150.56	17.00	-53.4	-55.5	14.0	0.00e+00	0	28	0	1140850688	71	5015
2026-01-06 23:11:53.28	150.69	16.90	-53.5	-55.7	13.9	0.00e+00	0	28	0	1142947840	72	4856
2026-01-06 23:11:54.27	150.82	16.81	-53.8	-56.1	13.8	0.00e+00	0	28	0	1143996416	72	5060
2026-01-06 23:11:55.26	150.94	16.72	-53.6	-55.9	13.9	0.00e+00	0	28	0	1146093568	72	4946
2026-01-06 23:11:56.26	151.07	16.62	-53.6	-55.9	13.9	0.00e+00	0	28	0	1148190720	72	4939
2026-01-06 23:11:57.25	151.20	16.53	-53.6	-55.8	13.9	0.00e+00	0	28	0	1150287872	72	4893
2026-01-06 23:11:58.24	151.33	16.44	-53.6	-55.8	13.9	0.00e+00	0	28	0	1151336448	72	4891
2026-01-06 23:11:59.24	151.45	16.34	-53.4	-55.5	14.0	0.00e+00	0	28	0	1153433600	72	4735
2026-01-06 23:12:00.25	151.58	16.25	-53.3	-55.5	14.1	0.00e+00	0	28	0	1155530752	72	4706
2026-01-06 23:12:01.24	151.70	16.16	-53.2	-55.3	14.1	0.00e+00	0	28	0	1157627904	72	4599
2026-01-06 23:12:02.24	151.83	16.07	-53.0	-55.0	14.3	0.00e+00	0	28	0	1159725056	72	4471
2026-01-06 23:12:03.24	151.95	15.97	-52.9	-54.8	14.4	0.00e+00	0	28	0	1160773632	72	4369
2026-01-06 23:12:04.24	152.07	15.88	-52.9	-54.9	14.3	0.00e+00	0	28	0	1162870784	72	4414
2026-01-06 23:12:05.24	152.19	15.79	-53.1	-55.1	14.2	0.00e+00	0	28	0	1164967936	72	4526
2026-01-06 23:12:06.24	152.32	15.70	-53.1	-55.2	14.2	0.00e+00	0	28	0	1167065088	72	4555
2026-01-06 23:12:07.23	152.44	15.61	-53.2	-55.3	14.1	0.00e+00	0	28	0	1169162240	72	4605
2026-01-06 23:12:08.22	152.55	15.52	-53.3	-55.3	14.1	0.00e+00	0	28	0	1170210816	72	4650
2026-01-06 23:12:09.22	152.67	15.43	-53.3	-55.4	14.1	0.00e+00	0	28	0	1172307968	72	4660
2026-01-06 23:12:10.21	152.79	15.34	-53.3	-55.4	14.1	0.00e+00	0	28	0	1174405120	72	4682
2026-01-06 23:12:11.21	152.91	15.25	-53.3	-55.4	14.1	0.00e+00	0	28	0	1176502272	72	4680
2026-01-06 23:12:12.21	153.03	15.16	-53.2	-55.3	14.1	0.00e+00	0	28	0	1177550848	72	4634
2026-01-06 23:12:13.21	153.14	15.07	-53.0	-55.0	14.3	0.00e+00	0	28	0	1179648000	72	4447
2026-01-06 23:12:14.21	153.26	14.98	-52.7	-54.7	14.4	0.00e+00	0	28	0	1181745152	72	4293
2026-01-06 23:12:15.20	153.37	14.89	-52.6	-54.5	14.4	0.00e+00	0	28	0	1183842304	71	4480
2026-01-06 23:12:16.20	153.49	14.80	-52.5	-54.4	14.4	0.00e+00	0	28	0	1185939456	71	4422
2026-01-06 23:12:17.20	153.60	14.71	-52.5	-54.4	14.4	0.00e+00	0	28	0	1186988032	71	4402
2026-01-06 23:12:18.20	153.71	14.62	-52.5	-54.3	14.5	0.00e+00	0	28	0	1189085184	71	4378
2026-01-06 23:12:19.20	153.83	14.53	-52.5	-54.4	14.4	0.00e+00	0	28	0	1191182336	71	4395
2026-01-06 23:12:20.21	153.94	14.44	-52.6	-54.5	14.4	0.00e+00	0	28	0	1193279488	71	4464
2026-01-06 23:12:21.21	154.05	14.35	-52.6	-54.5	14.4	0.00e+00	0	28	0	1195376640	71	4463
2026-01-06 23:12:22.21	154.16	14.27	-52.6	-54.6	14.4	0.00e+00	0	28	0	1196425216	71	4501
2026-01-06 23:12:23.21	154.27	14.18	-52.8	-54.7	14.3	0.00e+00	0	28	0	1198522368	71	4560
2026-01-06 23:12:24.21	154.38	14.09	-52.9	-54.9	14.2	0.00e+00	0	28	0	1200619520	71	4659
2026-01-06 23:12:25.21	154.49	14.00	-52.9	-54.9	14.2	0.00e+00	0	28	0	1202716672	71	4702
2026-01-06 23:12:26.20	154.60	13.92	-53.0	-55.1	14.1	0.00e+00	0	28	0	1203765248	71	4781
2026-01-06 23:12:27.21	154.70	13.83	-53.2	-55.2	14.0	0.00e+00	0	28	0	1205862400	71	4867
2026-01-06 23:12:28.21	154.81	13.74	-53.2	-55.3	14.0	0.00e+00	0	28	0	1207959552	71	4922
2026-01-06 23:12:29.21	154.92	13.66	-53.2	-55.3	14.0	0.00e+00	0	28	0	1210056704	71	4915
2026-01-06 23:12:30.21	155.02	13.57	-53.3	-55.5	13.9	0.00e+00	0	28	0	1212153856	71	5022
2026-01-06 23:12:31.21	155.13	13.48	-53.2	-55.3	14.0	0.00e+00	0	28	0	1213202432	71	4895
2026-01-06 23:12:32.20	155.23	13.40	-53.3	-55.4	14.0	0.00e+00	0	28	0	1215299584	71	4951
2026-01-06 23:12:33.21	155.34	13.31	-53.0	-55.1	14.1	0.00e+00	0	28	0	1217396736	71	4798
2026-01-06 23:12:34.21	155.44	13.23	-52.9	-54.9	14.2	0.00e+00	0	28	0	1219493888	71	4695
2026-01-06 23:12:35.22	155.54	13.14	-52.8	-54.8	14.2	0.00e+00	0	28	0	1221591040	71	4608
2026-01-06 23:12:36.23	155.65	13.06	-52.8	-54.7	14.3	0.00e+00	0	28	0	1222639616	71	4588
2026-01-06 23:12:37.23	155.75	12.97	-52.7	-54.6	14.2	0.00e+00	0	28	0	1224736768	71	4528
2026-01-06 23:12:38.22	155.85	12.89	-52.6	-54.5	14.4	0.00e+00	0	28	0	1226833920	71	4488
2026-01-06 23:12:39.22	155.95	12.80	-52.7	-54.7	14.3	0.00e+00	0	28	0	1228931072	71	4563
2026-01-06 23:12:40.22	156.05	12.72	-52.9	-54.8	14.2	0.00e+00	0	28	0	1231028224	71	4647
2026-01-06 23:12:41.22	156.15	12.63	-52.8	-54.8	14.2	0.00e+00	0	28	0	1232076800	71	4616
2026-01-06 23:12:42.23	156.25	12.55	-52.8	-54.8	14.2	0.00e+00	0	28	0	1234173952	71	4640
2026-01-06 23:12:43.23	156.35	12.47	-52.9	-55.0	14.1	0.00e+00	0	28	0	1236271104	71	4714
2026-01-06 23:12:44.23	156.45	12.38	-52.9	-55.0	14.1	0.00e+00	0	28	0	1238368256	71	4707
2026-01-06 23:12:45.22	156.54	12.30	-53.0	-55.1	14.1	0.00e+00	0	28	0	1239416832	71	4770
2026-01-06 23:12:46.22	156.64	12.22	-53.1	-55.2	14.0	0.00e+00	0	28	0	1241513984	71	4831
2026-01-06 23:12:47.22	156.74	12.14	-53.1	-55.3	14.0	0.00e+00	0	27	0	1243611136	71	4874
2026-01-06 23:12:48.22	156.83	12.05	-53.2	-55.4	13.9	0.00e+00	0	28	0	1245708288	71	4956
2026-01-06 23:12:49.21	156.93	11.97	-53.2	-55.4	14.0	0.00e+00	0	28	0	1247805440	71	4936
2026-01-06 23:12:50.22	157.02	11.89	-53.2	-55.3	14.0	0.00e+00	0	28	0	1248854016	71	4904
2026-01-06 23:12:51.21	157.12	11.81	-53.2	-55.3	14.0	0.00e+00	0	28	0	1250951168	71	4903
2026-01-06 23:12:52.22	157.21	11.73	-53.2	-55.3	14.0	0.00e+00	0	28	0	1253048320	71	4925
