passes_logs/2026/01/06/R3.2S_Murmansk/R3.2S_Murmansk__20260106_091743_NOAA_20_JPSS-1_rec.log

#Pass ID: 20260106_091743_NOAA 20 (JPSS-1)
#Satellite: NOAA 20 (JPSS-1)
#Configuration: NOAA 20
#almurnet v.1.7.20251203
#Start time: 2026-01-06 09:17:45

#Version: 2.2.20231116
#Station: R3.2S_Murmansk
#Location: 33.079688 lon 68.888172 lat
#TLE: 1 43013U 17073A   26005.46207808  .00000128  00000+0  81791-4 0  9997
#TLE: 2 43013  98.7627 306.5027 0001826  53.0458 307.0885 14.19533487421381

#Time	Az	El	Level	Level2	SNR	BER	BlckErr	Temp	State	Recorded	gain1	gain2
2026-01-06 09:17:45.53	146.24	2.12	-58.0	-74.1	3.8	1.49e+00	0	25	0	0	81	23889
2026-01-06 09:17:46.53	146.24	2.18	-58.1	-74.0	3.8	1.49e+00	0	25	104	0	81	23845
2026-01-06 09:17:47.53	146.24	2.24	-58.1	-74.0	3.8	1.49e+00	0	25	104	0	81	23816
2026-01-06 09:17:48.52	146.23	2.31	-58.1	-74.0	3.8	1.49e+00	0	26	104	0	81	23839
2026-01-06 09:17:49.51	146.23	2.37	-58.1	-74.0	3.8	1.49e+00	0	25	104	0	81	23805
2026-01-06 09:17:50.50	146.23	2.44	-58.1	-74.0	3.8	1.49e+00	0	26	104	0	81	23718
2026-01-06 09:17:51.49	146.22	2.50	-58.1	-74.0	3.8	1.49e+00	0	26	104	0	81	23784
2026-01-06 09:17:52.49	146.22	2.57	-58.1	-74.1	3.8	1.49e+00	0	26	104	0	81	23874
2026-01-06 09:17:53.48	146.22	2.63	-58.1	-74.0	3.8	1.49e+00	0	26	104	0	81	23728
2026-01-06 09:17:54.47	146.21	2.70	-58.1	-74.0	3.8	1.49e+00	0	26	104	0	81	23729
2026-01-06 09:17:55.46	146.21	2.76	-58.1	-74.0	3.8	1.49e+00	0	26	104	0	81	23706
2026-01-06 09:17:56.46	146.21	2.83	-58.1	-74.0	3.8	1.49e+00	0	26	104	0	81	23691
2026-01-06 09:17:57.46	146.20	2.90	-58.1	-74.0	3.8	1.49e+00	0	26	104	0	81	23621
2026-01-06 09:17:58.46	146.20	2.96	-58.1	-73.9	3.8	1.49e+00	0	26	104	0	81	23479
2026-01-06 09:17:59.46	146.20	3.03	-58.1	-73.9	3.8	1.49e+00	0	26	104	0	81	23544
2026-01-06 09:18:00.45	146.19	3.09	-58.1	-73.9	3.8	1.49e+00	0	26	104	0	81	23326
2026-01-06 09:18:01.45	146.19	3.16	-58.1	-73.9	3.8	1.49e+00	0	26	104	0	81	23384
2026-01-06 09:18:02.45	146.19	3.23	-58.1	-73.9	3.8	1.49e+00	0	26	104	0	81	23411
2026-01-06 09:18:03.44	146.18	3.30	-58.1	-73.8	3.8	1.49e+00	0	26	104	0	81	23295
2026-01-06 09:18:04.43	146.18	3.36	-58.1	-73.8	3.8	1.49e+00	0	26	104	0	81	23188
2026-01-06 09:18:05.43	146.18	3.43	-58.1	-73.7	3.8	1.49e+00	0	26	104	0	81	22986
2026-01-06 09:18:06.42	146.17	3.50	-58.1	-73.8	3.8	1.49e+00	0	26	104	0	81	23064
2026-01-06 09:18:07.41	146.17	3.56	-58.1	-73.6	3.9	1.49e+00	0	26	104	0	81	22601
2026-01-06 09:18:08.41	146.16	3.63	-58.1	-73.4	3.8	1.49e+00	0	26	104	0	81	22200
2026-01-06 09:18:09.41	146.16	3.70	-58.0	-73.2	3.8	1.49e+00	0	26	104	0	81	21600
2026-01-06 09:18:10.40	146.16	3.77	-58.0	-72.8	3.8	1.49e+00	0	26	104	0	81	20600
2026-01-06 09:18:11.39	146.15	3.84	-58.0	-71.9	3.8	1.49e+00	0	26	104	0	81	18698
2026-01-06 09:18:12.37	146.15	3.90	-57.9	-70.7	4.2	1.44e+00	0	26	0	0	81	16238
2026-01-06 09:18:13.36	146.14	3.97	-57.8	-68.8	4.8	1.13e+00	0	26	0	0	81	12972
2026-01-06 09:18:14.36	146.14	4.04	-57.7	-67.3	5.6	5.17e-01	0	26	0	2097152	81	10934
2026-01-06 09:18:15.36	146.14	4.11	-57.3	-65.1	7.1	2.56e-01	0	26	0	4194304	81	8492
2026-01-06 09:18:16.35	146.13	4.18	-57.1	-63.9	8.2	3.72e-02	0	26	0	6291456	80	7847
2026-01-06 09:18:17.35	146.13	4.25	-56.6	-62.3	9.6	1.14e-02	0	26	0	7340032	79	6908
2026-01-06 09:18:18.34	146.12	4.32	-56.6	-62.1	9.7	3.77e-03	0	26	0	9437184	79	6800
2026-01-06 09:18:19.33	146.12	4.39	-56.2	-61.1	10.5	1.50e-03	0	26	0	11534336	79	6060
2026-01-06 09:18:20.33	146.12	4.46	-55.9	-60.3	11.2	1.10e-04	0	26	0	13631488	78	5799
2026-01-06 09:18:21.33	146.11	4.53	-55.8	-60.3	11.2	8.69e-05	0	26	0	15728640	78	5789
2026-01-06 09:18:22.33	146.11	4.60	-55.4	-59.2	11.9	2.59e-05	0	26	0	16777216	77	5430
2026-01-06 09:18:23.32	146.10	4.67	-55.2	-58.8	12.1	7.00e-07	0	26	0	18874368	76	5499
2026-01-06 09:18:24.32	146.10	4.74	-55.0	-58.5	12.3	7.00e-07	0	26	0	20971520	76	5335
2026-01-06 09:18:25.32	146.09	4.81	-55.1	-58.8	12.1	0.00e+00	0	26	0	23068672	76	5492
2026-01-06 09:18:26.31	146.09	4.88	-55.2	-59.0	12.0	9.10e-06	0	26	0	24117248	76	5596
2026-01-06 09:18:27.30	146.08	4.95	-55.6	-59.7	11.5	6.10e-06	0	26	0	26214400	76	6062
2026-01-06 09:18:28.30	146.08	5.02	-55.9	-60.3	11.0	1.98e-05	0	27	0	28311552	76	6554
2026-01-06 09:18:29.29	146.08	5.09	-55.9	-60.4	11.0	9.00e-05	0	27	0	30408704	76	6581
2026-01-06 09:18:30.30	146.07	5.16	-55.9	-60.2	11.2	3.75e-04	0	26	0	32505856	77	6111
2026-01-06 09:18:31.29	146.07	5.24	-55.2	-58.6	12.5	9.10e-06	0	26	0	33554432	77	5054
2026-01-06 09:18:32.29	146.06	5.31	-57.3	-66.6	5.7	3.18e-01	0	27	0	35651584	79	11349
2026-01-06 09:18:33.29	146.06	5.38	-56.0	-60.3	11.2	5.58e-03	0	26	0	37748736	78	5837
2026-01-06 09:18:34.28	146.05	5.45	-56.0	-60.4	11.1	1.01e-04	0	27	0	39845888	77	6228
2026-01-06 09:18:35.27	146.05	5.53	-55.5	-59.3	12.0	1.50e-06	0	27	0	40894464	77	5474
2026-01-06 09:18:36.26	146.04	5.60	-55.1	-58.4	12.5	1.50e-06	0	27	0	42991616	76	5255
2026-01-06 09:18:37.25	146.04	5.67	-55.4	-59.1	12.0	2.20e-06	0	26	0	45088768	76	5676
2026-01-06 09:18:38.25	146.03	5.74	-55.1	-58.4	12.6	0.00e+00	0	27	0	47185920	76	5240
2026-01-06 09:18:39.23	146.03	5.82	-55.2	-58.6	12.4	0.00e+00	0	27	0	49283072	76	5374
2026-01-06 09:18:40.22	146.02	5.89	-55.1	-58.4	12.6	0.00e+00	0	27	0	50331648	76	5269
2026-01-06 09:18:41.21	146.02	5.96	-55.2	-58.5	12.5	7.00e-07	0	27	0	52428800	76	5289
2026-01-06 09:18:42.21	146.01	6.04	-55.1	-58.4	12.6	0.00e+00	0	27	0	54525952	76	5247
2026-01-06 09:18:43.19	146.01	6.11	-55.2	-58.5	12.5	7.00e-07	0	27	0	56623104	76	5323
2026-01-06 09:18:44.18	146.00	6.18	-55.1	-58.4	12.6	0.00e+00	0	27	0	57671680	76	5268
2026-01-06 09:18:45.18	146.00	6.26	-55.2	-58.5	12.5	0.00e+00	0	27	0	59768832	76	5329
2026-01-06 09:18:46.17	145.99	6.33	-55.1	-58.4	12.6	0.00e+00	0	27	0	61865984	76	5230
2026-01-06 09:18:47.17	145.99	6.41	-55.2	-58.4	12.6	0.00e+00	0	27	0	63963136	76	5273
2026-01-06 09:18:48.16	145.98	6.48	-55.1	-58.3	12.6	7.00e-07	0	27	0	66060288	76	5195
2026-01-06 09:18:49.15	145.98	6.56	-55.2	-58.6	12.5	0.00e+00	0	27	0	67108864	76	5350
2026-01-06 09:18:50.14	145.97	6.63	-55.1	-58.3	12.7	7.00e-07	0	27	0	69206016	76	5182
2026-01-06 09:18:51.14	145.97	6.71	-54.9	-58.0	12.9	0.00e+00	0	27	0	71303168	76	4994
2026-01-06 09:18:52.13	145.96	6.79	-54.8	-57.8	13.0	0.00e+00	0	27	0	73400320	76	4899
2026-01-06 09:18:53.13	145.95	6.86	-54.9	-57.9	13.0	0.00e+00	0	27	0	74448896	76	4958
2026-01-06 09:18:54.11	145.95	6.94	-54.9	-58.0	12.9	0.00e+00	0	27	0	76546048	76	5002
2026-01-06 09:18:55.10	145.94	7.02	-54.9	-57.9	12.9	0.00e+00	0	27	0	78643200	76	4978
2026-01-06 09:18:56.09	145.94	7.09	-55.0	-58.0	12.9	0.00e+00	0	27	0	80740352	76	4993
2026-01-06 09:18:57.07	145.93	7.17	-54.9	-57.9	13.0	0.00e+00	0	27	0	81788928	76	4972
2026-01-06 09:18:58.06	145.93	7.25	-55.0	-58.1	12.9	0.00e+00	0	27	0	83886080	76	5075
2026-01-06 09:18:59.05	145.92	7.32	-54.8	-57.8	13.1	0.00e+00	0	27	0	85983232	76	4883
2026-01-06 09:19:00.04	145.91	7.40	-54.9	-57.9	13.0	0.00e+00	0	27	0	88080384	76	4938
2026-01-06 09:19:01.02	145.91	7.48	-55.0	-58.1	12.9	0.00e+00	0	27	0	90177536	76	5048
2026-01-06 09:19:02.01	145.90	7.56	-54.9	-57.8	13.1	0.00e+00	0	27	0	91226112	76	4893
2026-01-06 09:19:03.00	145.90	7.63	-54.9	-57.8	13.1	0.00e+00	0	27	0	93323264	76	4904
2026-01-06 09:19:04.00	145.89	7.71	-55.1	-58.1	12.9	0.00e+00	0	27	0	95420416	76	5076
2026-01-06 09:19:04.99	145.88	7.79	-54.8	-57.7	13.2	0.00e+00	0	27	0	97517568	76	4847
2026-01-06 09:19:05.98	145.88	7.87	-54.8	-57.6	13.2	0.00e+00	0	27	0	98566144	76	4788
2026-01-06 09:19:06.97	145.87	7.95	-54.8	-57.7	13.2	0.00e+00	0	27	0	100663296	76	4836
2026-01-06 09:19:07.96	145.87	8.03	-54.8	-57.7	13.2	0.00e+00	0	27	0	102760448	76	4827
2026-01-06 09:19:08.96	145.86	8.11	-54.8	-57.6	13.2	0.00e+00	0	27	0	104857600	76	4783
2026-01-06 09:19:09.94	145.85	8.19	-54.8	-57.6	13.2	0.00e+00	0	27	0	106954752	76	4796
2026-01-06 09:19:10.94	145.85	8.27	-54.8	-57.6	13.3	0.00e+00	0	27	0	108003328	76	4764
2026-01-06 09:19:11.94	145.84	8.35	-54.8	-57.5	13.3	0.00e+00	0	27	0	110100480	76	4758
2026-01-06 09:19:12.93	145.83	8.43	-54.7	-57.5	13.3	0.00e+00	0	27	0	112197632	76	4743
2026-01-06 09:19:13.92	145.83	8.52	-54.6	-57.3	13.3	0.00e+00	0	27	0	114294784	75	4922
2026-01-06 09:19:14.92	145.82	8.60	-54.7	-57.5	13.2	0.00e+00	0	27	0	115343360	75	5023
2026-01-06 09:19:15.91	145.81	8.68	-54.6	-57.3	13.3	0.00e+00	0	27	0	117440512	75	4915
2026-01-06 09:19:16.90	145.81	8.76	-54.5	-57.1	13.4	0.00e+00	0	27	0	119537664	75	4809
2026-01-06 09:19:17.89	145.80	8.84	-54.6	-57.3	13.3	0.00e+00	0	27	0	121634816	75	4895
2026-01-06 09:19:18.87	145.79	8.93	-54.5	-57.2	13.4	0.00e+00	0	27	0	122683392	75	4832
2026-01-06 09:19:19.87	145.79	9.01	-54.5	-57.2	13.4	0.00e+00	0	27	0	124780544	75	4843
2026-01-06 09:19:20.86	145.78	9.09	-54.5	-57.2	13.4	0.00e+00	0	27	0	126877696	75	4870
2026-01-06 09:19:21.85	145.77	9.17	-54.5	-57.1	13.4	0.00e+00	0	27	0	128974848	75	4810
2026-01-06 09:19:22.84	145.76	9.26	-54.5	-57.2	13.4	0.00e+00	0	27	0	131072000	75	4848
2026-01-06 09:19:23.83	145.76	9.34	-54.6	-57.4	13.3	0.00e+00	0	27	0	132120576	75	4945
2026-01-06 09:19:24.83	145.75	9.43	-54.6	-57.3	13.3	0.00e+00	0	27	0	134217728	75	4920
2026-01-06 09:19:25.83	145.74	9.51	-54.5	-57.2	13.4	0.00e+00	0	27	0	136314880	75	4859
2026-01-06 09:19:26.82	145.74	9.60	-54.5	-57.1	13.4	0.00e+00	0	27	0	138412032	75	4794
2026-01-06 09:19:27.82	145.73	9.68	-54.5	-57.2	13.4	0.00e+00	0	27	0	139460608	75	4833
2026-01-06 09:19:28.81	145.72	9.77	-54.4	-57.1	13.5	0.00e+00	0	27	0	141557760	75	4766
2026-01-06 09:19:29.80	145.71	9.85	-54.5	-57.1	13.5	0.00e+00	0	27	0	143654912	75	4793
2026-01-06 09:19:30.79	145.71	9.94	-54.5	-57.1	13.5	0.00e+00	0	27	0	145752064	75	4782
2026-01-06 09:19:31.79	145.70	10.03	-54.5	-57.1	13.5	0.00e+00	0	27	0	147849216	75	4781
2026-01-06 09:19:32.78	145.69	10.11	-54.5	-57.2	13.4	0.00e+00	0	27	0	148897792	75	4836
2026-01-06 09:19:33.77	145.68	10.20	-54.4	-57.0	13.5	0.00e+00	0	27	0	150994944	75	4718
2026-01-06 09:19:34.76	145.67	10.29	-54.3	-56.9	13.6	0.00e+00	0	27	0	153092096	75	4661
2026-01-06 09:19:35.76	145.67	10.38	-54.4	-57.0	13.5	0.00e+00	0	27	0	155189248	75	4749
2026-01-06 09:19:36.76	145.66	10.46	-54.3	-56.9	13.6	0.00e+00	0	27	0	156237824	75	4669
2026-01-06 09:19:37.76	145.65	10.55	-54.3	-56.9	13.6	0.00e+00	0	27	0	158334976	75	4663
2026-01-06 09:19:38.74	145.64	10.64	-54.3	-56.8	13.6	0.00e+00	0	27	0	160432128	75	4638
2026-01-06 09:19:39.74	145.63	10.73	-54.3	-56.8	13.7	0.00e+00	0	27	0	162529280	75	4613
2026-01-06 09:19:40.73	145.63	10.82	-54.2	-56.7	13.7	0.00e+00	0	27	0	164626432	75	4560
2026-01-06 09:19:41.72	145.62	10.91	-54.2	-56.7	13.7	0.00e+00	0	27	0	165675008	75	4568
2026-01-06 09:19:42.71	145.61	11.00	-54.3	-56.8	13.7	0.00e+00	0	27	0	167772160	75	4616
2026-01-06 09:19:43.71	145.60	11.09	-54.2	-56.7	13.7	0.00e+00	0	27	0	169869312	75	4578
2026-01-06 09:19:44.70	145.59	11.18	-54.1	-56.5	13.7	0.00e+00	0	27	0	171966464	74	4740
2026-01-06 09:19:45.70	145.58	11.27	-54.2	-56.6	13.7	0.00e+00	0	27	0	173015040	74	4801
2026-01-06 09:19:46.69	145.57	11.36	-54.2	-56.6	13.7	0.00e+00	0	27	0	175112192	74	4791
2026-01-06 09:19:47.68	145.56	11.45	-54.2	-56.7	13.6	0.00e+00	0	27	0	177209344	74	4835
2026-01-06 09:19:48.67	145.56	11.54	-54.1	-56.5	13.7	0.00e+00	0	27	0	179306496	74	4755
2026-01-06 09:19:49.66	145.55	11.64	-54.1	-56.5	13.7	0.00e+00	0	27	0	181403648	74	4728
2026-01-06 09:19:50.66	145.54	11.73	-54.0	-56.4	13.8	0.00e+00	0	27	0	182452224	74	4668
2026-01-06 09:19:51.65	145.53	11.82	-54.1	-56.4	13.8	0.00e+00	0	27	0	184549376	74	4705
2026-01-06 09:19:52.64	145.52	11.92	-54.0	-56.4	13.8	0.00e+00	0	27	0	186646528	74	4656
2026-01-06 09:19:53.64	145.51	12.01	-54.0	-56.3	13.9	0.00e+00	0	27	0	188743680	74	4627
2026-01-06 09:19:54.62	145.50	12.10	-54.0	-56.3	13.8	0.00e+00	0	27	0	189792256	74	4632
2026-01-06 09:19:55.61	145.49	12.20	-54.0	-56.4	13.8	0.00e+00	0	27	0	191889408	74	4662
2026-01-06 09:19:56.60	145.48	12.29	-54.1	-56.4	13.8	0.00e+00	0	27	0	193986560	74	4700
2026-01-06 09:19:57.59	145.47	12.39	-54.0	-56.3	13.9	0.00e+00	0	27	0	196083712	74	4622
2026-01-06 09:19:58.58	145.46	12.48	-53.9	-56.1	13.9	0.00e+00	0	27	0	197132288	74	4545
2026-01-06 09:19:59.58	145.45	12.58	-53.9	-56.2	13.9	0.00e+00	0	27	0	199229440	74	4553
2026-01-06 09:20:00.57	145.44	12.67	-53.9	-56.2	13.9	0.00e+00	0	27	0	201326592	74	4585
2026-01-06 09:20:01.57	145.43	12.77	-54.0	-56.3	13.9	0.00e+00	0	27	0	203423744	74	4619
2026-01-06 09:20:02.56	145.42	12.87	-54.0	-56.4	13.8	0.00e+00	0	27	0	205520896	74	4684
2026-01-06 09:20:03.55	145.41	12.97	-53.9	-56.2	13.9	0.00e+00	0	27	0	206569472	74	4569
2026-01-06 09:20:04.54	145.40	13.06	-53.8	-56.0	14.0	0.00e+00	0	27	0	208666624	74	4462
2026-01-06 09:20:05.54	145.39	13.16	-53.8	-56.1	14.0	0.00e+00	0	27	0	210763776	74	4518
2026-01-06 09:20:06.52	145.38	13.26	-53.7	-55.9	14.0	0.00e+00	0	27	0	212860928	73	4675
2026-01-06 09:20:07.52	145.37	13.36	-53.7	-56.0	13.9	0.00e+00	0	27	0	213909504	73	4719
2026-01-06 09:20:08.51	145.36	13.46	-53.8	-56.0	13.9	0.00e+00	0	27	0	216006656	73	4720
2026-01-06 09:20:09.50	145.35	13.56	-53.6	-55.9	14.0	0.00e+00	0	27	0	218103808	73	4652
2026-01-06 09:20:10.49	145.34	13.66	-53.7	-55.9	14.0	0.00e+00	0	27	0	220200960	73	4654
2026-01-06 09:20:11.49	145.33	13.76	-53.7	-55.9	14.0	0.00e+00	0	27	0	222298112	73	4692
2026-01-06 09:20:12.50	145.32	13.86	-53.6	-55.7	14.0	0.00e+00	0	27	0	223346688	73	4598
2026-01-06 09:20:13.49	145.31	13.96	-53.6	-55.8	14.1	0.00e+00	0	27	0	225443840	73	4604
2026-01-06 09:20:14.48	145.29	14.06	-53.6	-55.8	14.0	0.00e+00	0	27	0	227540992	73	4612
2026-01-06 09:20:15.48	145.28	14.17	-53.5	-55.6	14.1	0.00e+00	0	27	0	229638144	73	4530
2026-01-06 09:20:16.47	145.27	14.27	-53.5	-55.6	14.1	0.00e+00	0	27	0	230686720	73	4533
2026-01-06 09:20:17.46	145.26	14.37	-53.5	-55.6	14.1	0.00e+00	0	27	0	232783872	73	4501
2026-01-06 09:20:18.45	145.25	14.48	-53.6	-55.7	14.1	0.00e+00	0	27	0	234881024	73	4572
2026-01-06 09:20:19.44	145.24	14.58	-53.5	-55.6	14.1	0.00e+00	0	27	0	236978176	73	4506
2026-01-06 09:20:20.43	145.23	14.68	-53.4	-55.5	14.2	0.00e+00	0	27	0	239075328	73	4469
2026-01-06 09:20:21.43	145.21	14.79	-53.6	-55.7	14.1	0.00e+00	0	27	0	240123904	73	4564
2026-01-06 09:20:22.42	145.20	14.89	-53.4	-55.5	14.2	0.00e+00	0	27	0	242221056	73	4468
2026-01-06 09:20:23.41	145.19	15.00	-53.3	-55.4	14.2	0.00e+00	0	27	0	244318208	73	4394
2026-01-06 09:20:24.41	145.18	15.11	-53.3	-55.3	14.3	0.00e+00	0	27	0	246415360	73	4381
2026-01-06 09:20:25.40	145.17	15.21	-53.3	-55.3	14.3	0.00e+00	0	27	0	247463936	73	4351
2026-01-06 09:20:26.40	145.15	15.32	-53.2	-55.2	14.3	0.00e+00	0	27	0	249561088	73	4334
2026-01-06 09:20:27.39	145.14	15.43	-53.1	-55.1	14.2	0.00e+00	0	27	0	251658240	72	4528
2026-01-06 09:20:28.39	145.13	15.54	-53.1	-55.1	14.2	0.00e+00	0	27	0	253755392	72	4517
2026-01-06 09:20:29.38	145.11	15.65	-53.1	-55.1	14.2	0.00e+00	0	27	0	255852544	72	4533
2026-01-06 09:20:30.37	145.10	15.76	-53.1	-55.1	14.3	0.00e+00	0	27	0	256901120	72	4521
2026-01-06 09:20:31.36	145.09	15.86	-53.2	-55.1	14.2	0.00e+00	0	27	0	258998272	72	4545
2026-01-06 09:20:32.35	145.08	15.97	-53.1	-55.1	14.3	0.00e+00	0	27	0	261095424	72	4498
2026-01-06 09:20:33.35	145.06	16.09	-53.0	-55.0	14.3	0.00e+00	0	28	0	263192576	72	4462
2026-01-06 09:20:34.34	145.05	16.20	-53.0	-55.0	14.3	0.00e+00	0	27	0	264241152	72	4464
2026-01-06 09:20:35.33	145.04	16.31	-53.0	-55.0	14.3	0.00e+00	0	27	0	266338304	72	4444
2026-01-06 09:20:36.32	145.02	16.42	-53.0	-54.9	14.4	0.00e+00	0	27	0	268435456	72	4396
2026-01-06 09:20:37.31	145.01	16.53	-53.0	-54.9	14.4	0.00e+00	0	28	0	270532608	72	4409
2026-01-06 09:20:38.30	144.99	16.65	-53.1	-55.0	14.3	0.00e+00	0	27	0	272629760	72	4464
2026-01-06 09:20:39.30	144.98	16.76	-52.9	-54.7	14.4	0.00e+00	0	27	0	273678336	72	4340
2026-01-06 09:20:40.29	144.97	16.87	-53.0	-54.9	14.4	0.00e+00	0	27	0	275775488	72	4415
2026-01-06 09:20:41.28	144.95	16.99	-52.9	-54.8	14.4	0.00e+00	0	27	0	277872640	72	4378
2026-01-06 09:20:42.28	144.94	17.10	-52.9	-54.7	14.4	0.00e+00	0	27	0	279969792	72	4332
2026-01-06 09:20:43.27	144.92	17.22	-52.9	-54.8	14.4	0.00e+00	0	28	0	281018368	72	4355
2026-01-06 09:20:44.26	144.91	17.34	-52.8	-54.6	14.5	0.00e+00	0	27	0	283115520	72	4273
2026-01-06 09:20:45.25	144.89	17.45	-52.8	-54.7	14.5	0.00e+00	0	27	0	285212672	72	4321
2026-01-06 09:20:46.24	144.88	17.57	-52.7	-54.6	14.5	0.00e+00	0	28	0	287309824	72	4257
2026-01-06 09:20:47.23	144.86	17.69	-52.8	-54.6	14.5	0.00e+00	0	28	0	289406976	72	4291
2026-01-06 09:20:48.22	144.85	17.81	-52.9	-54.7	14.5	0.00e+00	0	27	0	290455552	72	4338
2026-01-06 09:20:49.21	144.83	17.93	-52.8	-54.7	14.5	0.00e+00	0	28	0	292552704	72	4313
2026-01-06 09:20:50.20	144.82	18.04	-52.7	-54.6	14.5	0.00e+00	0	27	0	294649856	72	4262
2026-01-06 09:20:51.19	144.80	18.16	-52.6	-54.4	14.5	0.00e+00	0	27	0	296747008	71	4431
2026-01-06 09:20:52.19	144.78	18.29	-52.6	-54.4	14.5	0.00e+00	0	28	0	297795584	71	4439
2026-01-06 09:20:53.18	144.77	18.41	-52.6	-54.4	14.5	0.00e+00	0	28	0	299892736	71	4427
2026-01-06 09:20:54.18	144.75	18.53	-52.7	-54.5	14.5	0.00e+00	0	28	0	301989888	71	4448
2026-01-06 09:20:55.18	144.74	18.65	-52.7	-54.5	14.5	0.00e+00	0	28	0	304087040	71	4459
2026-01-06 09:20:56.17	144.72	18.78	-52.6	-54.4	14.5	0.00e+00	0	27	0	305135616	71	4418
2026-01-06 09:20:57.16	144.70	18.90	-52.6	-54.4	14.5	0.00e+00	0	28	0	307232768	71	4425
2026-01-06 09:20:58.16	144.69	19.03	-52.6	-54.4	14.5	0.00e+00	0	28	0	309329920	71	4425
2026-01-06 09:20:59.14	144.67	19.15	-52.5	-54.3	14.5	0.00e+00	0	28	0	311427072	71	4361
2026-01-06 09:21:00.13	144.65	19.28	-52.4	-54.1	14.6	0.00e+00	0	27	0	312475648	71	4286
2026-01-06 09:21:01.13	144.63	19.40	-52.3	-54.1	14.6	0.00e+00	0	28	0	314572800	71	4254
2026-01-06 09:21:02.12	144.62	19.53	-52.3	-54.0	14.7	0.00e+00	0	27	0	316669952	71	4235
2026-01-06 09:21:03.11	144.60	19.66	-52.4	-54.1	14.6	0.00e+00	0	28	0	318767104	71	4263
2026-01-06 09:21:04.11	144.58	19.79	-52.3	-54.1	14.6	0.00e+00	0	27	0	320864256	71	4254
2026-01-06 09:21:05.09	144.56	19.91	-52.3	-54.1	14.7	0.00e+00	0	27	0	321912832	71	4245
2026-01-06 09:21:06.08	144.54	20.04	-52.3	-54.0	14.7	0.00e+00	0	28	0	324009984	71	4204
2026-01-06 09:21:07.08	144.53	20.18	-52.2	-53.9	14.7	0.00e+00	0	27	0	326107136	71	4183
2026-01-06 09:21:08.07	144.51	20.31	-52.2	-53.9	14.7	0.00e+00	0	28	0	328204288	71	4189
2026-01-06 09:21:09.06	144.49	20.44	-52.2	-53.9	14.6	0.00e+00	0	28	0	330301440	70	4405
2026-01-06 09:21:10.05	144.47	20.57	-52.1	-53.8	14.7	0.00e+00	0	28	0	331350016	70	4348
2026-01-06 09:21:11.05	144.45	20.70	-52.1	-53.8	14.6	0.00e+00	0	28	0	333447168	70	4373
2026-01-06 09:21:12.06	144.43	20.84	-52.1	-53.8	14.6	0.00e+00	0	28	0	335544320	70	4381
2026-01-06 09:21:13.05	144.41	20.97	-52.1	-53.8	14.6	0.00e+00	0	28	0	337641472	70	4360
2026-01-06 09:21:14.04	144.39	21.11	-52.1	-53.7	14.7	0.00e+00	0	27	0	338690048	70	4330
2026-01-06 09:21:15.02	144.37	21.24	-52.1	-53.8	14.7	0.00e+00	0	28	0	340787200	70	4346
2026-01-06 09:21:16.02	144.35	21.38	-52.1	-53.8	14.7	0.00e+00	0	28	0	342884352	70	4363
2026-01-06 09:21:17.02	144.33	21.52	-52.1	-53.8	14.6	0.00e+00	0	27	0	344981504	70	4358
2026-01-06 09:21:18.02	144.31	21.66	-51.9	-53.6	14.7	0.00e+00	0	27	0	347078656	70	4250
2026-01-06 09:21:19.02	144.29	21.80	-52.0	-53.6	14.7	0.00e+00	0	28	0	348127232	70	4280
2026-01-06 09:21:20.01	144.27	21.94	-51.9	-53.6	14.7	0.00e+00	0	28	0	350224384	70	4259
2026-01-06 09:21:21.00	144.25	22.08	-52.0	-53.6	14.7	0.00e+00	0	28	0	352321536	70	4261
2026-01-06 09:21:21.99	144.23	22.22	-51.9	-53.5	14.8	0.00e+00	0	27	0	354418688	70	4234
2026-01-06 09:21:22.99	144.20	22.36	-51.9	-53.6	14.7	0.00e+00	0	28	0	355467264	70	4261
2026-01-06 09:21:23.98	144.18	22.51	-51.9	-53.5	14.8	0.00e+00	0	28	0	357564416	70	4230
2026-01-06 09:21:24.98	144.16	22.65	-51.9	-53.5	14.8	0.00e+00	0	27	0	359661568	70	4232
2026-01-06 09:21:25.97	144.14	22.80	-51.9	-53.5	14.8	0.00e+00	0	28	0	361758720	70	4221
2026-01-06 09:21:26.97	144.11	22.94	-51.9	-53.5	14.8	0.00e+00	0	27	0	363855872	70	4240
2026-01-06 09:21:27.95	144.09	23.09	-52.0	-53.6	14.7	0.00e+00	0	27	0	364904448	70	4278
2026-01-06 09:21:28.95	144.07	23.23	-52.0	-53.6	14.7	0.00e+00	0	28	0	367001600	70	4269
2026-01-06 09:21:29.95	144.04	23.38	-51.9	-53.5	14.8	0.00e+00	0	28	0	369098752	70	4222
2026-01-06 09:21:30.94	144.02	23.53	-51.9	-53.5	14.8	0.00e+00	0	28	0	371195904	70	4242
2026-01-06 09:21:31.94	144.00	23.68	-51.9	-53.6	14.7	0.00e+00	0	28	0	372244480	70	4252
2026-01-06 09:21:32.92	143.97	23.83	-52.0	-53.7	14.7	0.00e+00	0	28	0	374341632	70	4303
2026-01-06 09:21:33.91	143.95	23.98	-52.0	-53.6	14.7	0.00e+00	0	27	0	376438784	70	4274
2026-01-06 09:21:34.91	143.92	24.13	-52.1	-53.7	14.7	0.00e+00	0	27	0	378535936	70	4330
2026-01-06 09:21:35.90	143.90	24.29	-52.0	-53.7	14.7	0.00e+00	0	28	0	380633088	70	4292
2026-01-06 09:21:36.90	143.87	24.44	-52.1	-53.7	14.7	0.00e+00	0	27	0	381681664	70	4321
2026-01-06 09:21:37.90	143.85	24.60	-52.1	-53.7	14.7	0.00e+00	0	28	0	383778816	70	4319
2026-01-06 09:21:38.89	143.82	24.75	-52.2	-53.8	14.6	0.00e+00	0	27	0	385875968	70	4387
2026-01-06 09:21:39.88	143.80	24.91	-52.2	-53.9	14.7	0.00e+00	0	27	0	387973120	70	4393
2026-01-06 09:21:40.88	143.77	25.07	-52.3	-54.0	14.6	0.00e+00	0	28	0	389021696	70	4445
2026-01-06 09:21:41.88	143.74	25.23	-52.3	-53.9	14.6	0.00e+00	0	28	0	391118848	70	4439
2026-01-06 09:21:42.87	143.71	25.39	-52.4	-54.1	14.5	0.00e+00	0	27	0	393216000	70	4512
2026-01-06 09:21:43.86	143.69	25.55	-52.4	-54.1	14.5	0.00e+00	0	27	0	395313152	70	4523
2026-01-06 09:21:44.85	143.66	25.71	-52.4	-54.1	14.5	0.00e+00	0	28	0	397410304	70	4507
2026-01-06 09:21:45.84	143.63	25.87	-52.4	-54.2	14.5	0.00e+00	0	28	0	398458880	70	4557
2026-01-06 09:21:46.83	143.60	26.03	-52.5	-54.3	14.5	0.00e+00	0	28	0	400556032	70	4616
2026-01-06 09:21:47.82	143.57	26.20	-52.5	-54.3	14.5	0.00e+00	0	27	0	402653184	70	4604
2026-01-06 09:21:48.81	143.55	26.36	-52.7	-54.5	14.4	0.00e+00	0	28	0	404750336	70	4711
2026-01-06 09:21:49.80	143.52	26.53	-52.7	-54.5	14.4	0.00e+00	0	28	0	405798912	70	4748
2026-01-06 09:21:50.80	143.49	26.70	-52.8	-54.6	14.3	0.00e+00	0	28	0	407896064	70	4796
2026-01-06 09:21:51.79	143.46	26.87	-52.8	-54.6	14.3	0.00e+00	0	28	0	409993216	70	4807
2026-01-06 09:21:52.79	143.43	27.04	-52.9	-54.7	14.3	0.00e+00	0	27	0	412090368	70	4831
2026-01-06 09:21:53.78	143.40	27.21	-53.0	-54.8	14.4	0.00e+00	0	28	0	413138944	71	4630
2026-01-06 09:21:54.77	143.36	27.38	-53.0	-54.8	14.4	0.00e+00	0	27	0	415236096	71	4637
2026-01-06 09:21:55.75	143.33	27.55	-53.0	-54.9	14.3	0.00e+00	0	28	0	417333248	71	4675
2026-01-06 09:21:56.74	143.30	27.72	-53.1	-55.1	14.3	0.00e+00	0	28	0	419430400	71	4765
2026-01-06 09:21:57.73	143.27	27.90	-53.2	-55.2	14.2	0.00e+00	0	28	0	421527552	71	4829
2026-01-06 09:21:58.73	143.24	28.07	-53.3	-55.3	14.2	0.00e+00	0	28	0	422576128	71	4906
2026-01-06 09:21:59.72	143.20	28.25	-53.6	-55.6	14.1	0.00e+00	0	28	0	424673280	72	4787
2026-01-06 09:22:00.72	143.17	28.43	-53.6	-55.6	14.1	0.00e+00	0	28	0	426770432	72	4784
2026-01-06 09:22:01.71	143.14	28.61	-53.7	-55.8	14.0	0.00e+00	0	27	0	428867584	72	4912
2026-01-06 09:22:02.71	143.10	28.79	-53.9	-56.0	14.0	0.00e+00	0	28	0	429916160	72	5004
2026-01-06 09:22:03.70	143.07	28.97	-54.0	-56.2	13.9	0.00e+00	0	28	0	432013312	73	4853
2026-01-06 09:22:04.69	143.03	29.15	-54.1	-56.4	13.9	0.00e+00	0	28	0	434110464	73	4931
2026-01-06 09:22:05.68	143.00	29.34	-54.1	-56.3	13.9	0.00e+00	0	28	0	436207616	73	4922
2026-01-06 09:22:06.67	142.96	29.52	-54.4	-56.7	13.7	0.00e+00	0	27	0	437256192	73	5134
2026-01-06 09:22:07.65	142.92	29.70	-54.5	-56.9	13.7	0.00e+00	0	28	0	439353344	74	4949
2026-01-06 09:22:08.64	142.89	29.89	-54.7	-57.1	13.6	0.00e+00	0	28	0	441450496	74	5068
2026-01-06 09:22:09.64	142.85	30.08	-54.7	-57.2	13.6	0.00e+00	0	27	0	443547648	74	5116
2026-01-06 09:22:10.63	142.81	30.27	-54.7	-57.1	13.6	0.00e+00	0	28	0	445644800	74	5066
2026-01-06 09:22:11.62	142.77	30.46	-54.7	-57.1	13.6	0.00e+00	0	27	0	446693376	74	5058
2026-01-06 09:22:12.62	142.73	30.66	-54.8	-57.3	13.5	0.00e+00	0	28	0	448790528	74	5171
2026-01-06 09:22:13.61	142.70	30.85	-54.8	-57.3	13.5	0.00e+00	0	27	0	450887680	74	5177
2026-01-06 09:22:14.61	142.65	31.05	-54.8	-57.3	13.6	0.00e+00	0	28	0	452984832	75	4903
2026-01-06 09:22:15.60	142.61	31.24	-54.9	-57.3	13.6	0.00e+00	0	27	0	455081984	75	4915
2026-01-06 09:22:16.60	142.57	31.44	-54.9	-57.4	13.6	0.00e+00	0	27	0	456130560	75	4936
2026-01-06 09:22:17.59	142.53	31.64	-54.9	-57.4	13.6	0.00e+00	0	27	0	458227712	75	4950
2026-01-06 09:22:18.58	142.49	31.84	-54.9	-57.4	13.6	0.00e+00	0	27	0	460324864	75	4966
2026-01-06 09:22:19.58	142.45	32.04	-54.9	-57.5	13.5	0.00e+00	0	27	0	462422016	75	4989
2026-01-06 09:22:20.56	142.40	32.24	-55.0	-57.5	13.5	0.00e+00	0	27	0	463470592	75	5027
2026-01-06 09:22:21.56	142.36	32.45	-55.1	-57.6	13.4	0.00e+00	0	28	0	465567744	75	5097
2026-01-06 09:22:22.55	142.32	32.65	-55.0	-57.6	13.4	0.00e+00	0	28	0	467664896	75	5083
2026-01-06 09:22:23.54	142.27	32.86	-55.0	-57.5	13.5	0.00e+00	0	28	0	469762048	75	5018
2026-01-06 09:22:24.53	142.23	33.07	-55.0	-57.5	13.5	0.00e+00	0	28	0	471859200	75	5041
2026-01-06 09:22:25.52	142.18	33.28	-55.0	-57.5	13.5	0.00e+00	0	28	0	472907776	75	5037
2026-01-06 09:22:26.51	142.13	33.49	-54.9	-57.4	13.6	0.00e+00	0	27	0	475004928	75	4959
2026-01-06 09:22:27.51	142.08	33.70	-54.9	-57.4	13.6	0.00e+00	0	27	0	477102080	75	4946
2026-01-06 09:22:28.50	142.04	33.92	-54.9	-57.4	13.6	0.00e+00	0	27	0	479199232	75	4946
2026-01-06 09:22:29.50	141.99	34.13	-54.6	-57.0	13.8	0.00e+00	0	28	0	480247808	75	4732
2026-01-06 09:22:30.49	141.94	34.35	-54.4	-56.7	13.9	0.00e+00	0	27	0	482344960	75	4573
2026-01-06 09:22:31.48	141.89	34.57	-54.3	-56.5	14.0	0.00e+00	0	27	0	484442112	75	4481
2026-01-06 09:22:32.47	141.84	34.79	-53.7	-56.0	14.1	0.00e+00	0	28	0	486539264	74	4484
2026-01-06 09:22:33.47	141.78	35.01	-54.1	-56.2	14.1	0.00e+00	0	28	0	487587840	74	4556
2026-01-06 09:22:34.46	141.73	35.23	-53.9	-55.9	14.2	0.00e+00	0	28	0	489684992	74	4419
2026-01-06 09:22:35.46	141.68	35.46	-53.7	-55.6	14.2	0.00e+00	0	28	0	491782144	73	4543
2026-01-06 09:22:36.45	141.62	35.69	-53.5	-55.4	14.4	0.00e+00	0	28	0	493879296	73	4415
2026-01-06 09:22:37.44	141.57	35.91	-53.3	-55.2	14.5	0.00e+00	0	27	0	495976448	73	4312
2026-01-06 09:22:38.43	141.51	36.14	-53.1	-54.9	14.4	0.00e+00	0	28	0	497025024	72	4419
2026-01-06 09:22:39.43	141.46	36.38	-52.9	-54.7	14.5	0.00e+00	0	27	0	499122176	72	4300
2026-01-06 09:22:40.43	141.40	36.61	-52.9	-54.6	14.6	0.00e+00	0	27	0	501219328	72	4288
2026-01-06 09:22:41.42	141.34	36.85	-52.7	-54.5	14.6	0.00e+00	0	28	0	503316480	72	4199
2026-01-06 09:22:42.41	141.28	37.08	-52.6	-54.4	14.6	0.00e+00	0	28	0	504365056	71	4406
2026-01-06 09:22:43.40	141.22	37.32	-52.7	-54.4	14.6	0.00e+00	0	28	0	506462208	71	4429
2026-01-06 09:22:44.39	141.16	37.56	-52.7	-54.4	14.6	0.00e+00	0	27	0	508559360	71	4416
2026-01-06 09:22:45.38	141.10	37.80	-52.7	-54.4	14.6	0.00e+00	0	28	0	510656512	71	4419
2026-01-06 09:22:46.37	141.03	38.04	-52.6	-54.3	14.6	0.00e+00	0	28	0	511705088	71	4370
2026-01-06 09:22:47.37	140.97	38.29	-52.5	-54.2	14.6	0.00e+00	0	27	0	513802240	71	4331
2026-01-06 09:22:48.36	140.90	38.53	-52.5	-54.2	14.7	0.00e+00	0	27	0	515899392	71	4322
2026-01-06 09:22:49.35	140.84	38.78	-52.7	-54.4	14.6	0.00e+00	0	27	0	517996544	71	4434
2026-01-06 09:22:50.34	140.77	39.03	-52.8	-54.6	14.5	0.00e+00	0	27	0	520093696	71	4500
2026-01-06 09:22:51.34	140.70	39.28	-52.7	-54.5	14.6	0.00e+00	0	27	0	521142272	71	4446
2026-01-06 09:22:52.33	140.63	39.53	-53.0	-54.8	14.4	0.00e+00	0	28	0	523239424	71	4618
2026-01-06 09:22:53.33	140.56	39.79	-53.1	-55.0	14.3	0.00e+00	0	27	0	525336576	71	4732
2026-01-06 09:22:54.32	140.49	40.05	-53.5	-55.4	14.2	0.00e+00	0	27	0	527433728	72	4689
2026-01-06 09:22:55.31	140.42	40.31	-53.6	-55.6	14.2	0.00e+00	0	28	0	528482304	72	4786
2026-01-06 09:22:56.31	140.34	40.57	-53.8	-55.8	14.1	0.00e+00	0	28	0	530579456	72	4905
2026-01-06 09:22:57.31	140.27	40.83	-53.8	-55.9	14.0	0.00e+00	0	27	0	532676608	72	4931
2026-01-06 09:22:58.31	140.19	41.10	-53.9	-56.0	14.0	0.00e+00	0	28	0	534773760	72	5024
2026-01-06 09:22:59.30	140.11	41.37	-53.9	-55.9	14.1	0.00e+00	0	27	0	536870912	73	4686
2026-01-06 09:23:00.30	140.03	41.64	-53.8	-55.9	14.2	0.00e+00	0	28	0	537919488	73	4657
2026-01-06 09:23:01.29	139.95	41.91	-53.9	-56.0	14.1	0.00e+00	0	27	0	540016640	73	4740
2026-01-06 09:23:02.27	139.87	42.17	-54.2	-56.4	13.9	0.00e+00	0	28	0	542113792	73	4933
2026-01-06 09:23:03.26	139.79	42.45	-54.3	-56.6	13.8	0.00e+00	0	28	0	544210944	73	5068
2026-01-06 09:23:04.25	139.70	42.72	-54.5	-56.7	13.8	0.00e+00	0	28	0	545259520	74	4867
2026-01-06 09:23:05.25	139.61	43.00	-54.5	-56.8	13.8	0.00e+00	0	28	0	547356672	74	4896
2026-01-06 09:23:06.24	139.53	43.28	-54.3	-56.5	13.9	0.00e+00	0	28	0	549453824	74	4747
2026-01-06 09:23:07.23	139.44	43.56	-54.3	-56.5	13.9	0.00e+00	0	28	0	551550976	74	4741
2026-01-06 09:23:08.22	139.34	43.85	-54.3	-56.5	14.0	0.00e+00	0	27	0	553648128	74	4722
2026-01-06 09:23:09.22	139.25	44.13	-54.4	-56.6	13.9	0.00e+00	0	28	0	554696704	74	4781
2026-01-06 09:23:10.21	139.16	44.42	-54.5	-56.7	13.8	0.00e+00	0	28	0	556793856	74	4858
2026-01-06 09:23:11.21	139.06	44.71	-54.4	-56.6	13.9	0.00e+00	0	28	0	558891008	74	4783
2026-01-06 09:23:12.20	138.96	45.01	-54.4	-56.6	13.8	0.00e+00	0	28	0	560988160	74	4798
2026-01-06 09:23:13.19	138.86	45.30	-54.5	-56.8	13.8	0.00e+00	0	28	0	563085312	74	4872
2026-01-06 09:23:14.19	138.75	45.60	-54.6	-56.9	13.7	0.00e+00	0	28	0	564133888	74	4973
2026-01-06 09:23:15.19	138.65	45.90	-54.7	-57.1	13.7	0.00e+00	0	28	0	566231040	74	5066
2026-01-06 09:23:16.19	138.54	46.20	-54.7	-57.1	13.7	0.00e+00	0	28	0	568328192	74	5065
2026-01-06 09:23:17.18	138.43	46.50	-54.9	-57.3	13.6	0.00e+00	0	28	0	570425344	74	5213
2026-01-06 09:23:18.18	138.32	46.81	-54.9	-57.3	13.6	0.00e+00	0	28	0	571473920	74	5191
2026-01-06 09:23:19.17	138.21	47.11	-55.2	-57.9	13.4	0.00e+00	0	28	0	573571072	75	5227
2026-01-06 09:23:20.16	138.09	47.42	-55.6	-58.4	13.2	0.00e+00	0	28	0	575668224	76	5262
2026-01-06 09:23:21.16	137.97	47.74	-55.9	-58.8	12.9	0.00e+00	0	28	0	577765376	76	5483
2026-01-06 09:23:22.16	137.85	48.05	-56.1	-59.2	12.8	0.00e+00	0	28	0	579862528	77	5423
2026-01-06 09:23:23.16	137.73	48.37	-56.0	-58.9	12.9	0.00e+00	0	28	0	580911104	77	5262
2026-01-06 09:23:24.15	137.60	48.69	-55.8	-58.6	13.2	0.00e+00	0	28	0	583008256	77	5048
2026-01-06 09:23:25.15	137.47	49.01	-55.3	-57.8	13.6	0.00e+00	0	28	0	585105408	77	4612
2026-01-06 09:23:26.15	137.34	49.33	-54.9	-57.3	13.8	0.00e+00	0	28	0	587202560	76	4609
2026-01-06 09:23:27.13	137.21	49.65	-54.7	-56.9	14.0	0.00e+00	0	28	0	588251136	76	4439
2026-01-06 09:23:28.13	137.07	49.98	-54.4	-56.6	14.0	0.00e+00	0	28	0	590348288	75	4540
2026-01-06 09:23:29.12	136.93	50.31	-54.0	-56.0	14.2	0.00e+00	0	28	0	592445440	74	4477
2026-01-06 09:23:30.11	136.79	50.64	-53.3	-55.2	14.5	0.00e+00	0	28	0	594542592	73	4293
2026-01-06 09:23:31.11	136.64	50.97	-52.9	-54.7	14.6	0.00e+00	0	28	0	596639744	72	4301
2026-01-06 09:23:32.10	136.49	51.30	-52.5	-54.1	14.7	0.00e+00	0	28	0	597688320	71	4283
2026-01-06 09:23:33.10	136.34	51.64	-52.2	-53.8	14.8	0.00e+00	0	28	0	599785472	71	4122
2026-01-06 09:23:34.10	136.18	51.99	-51.9	-53.5	14.8	0.00e+00	0	28	0	601882624	70	4222
2026-01-06 09:23:35.08	136.02	52.32	-51.9	-53.5	14.9	0.00e+00	0	28	0	603979776	70	4194
2026-01-06 09:23:36.08	135.85	52.67	-52.0	-53.6	14.8	0.00e+00	0	28	0	605028352	70	4256
2026-01-06 09:23:37.07	135.68	53.01	-52.0	-53.6	14.8	0.00e+00	0	28	0	607125504	70	4275
2026-01-06 09:23:38.06	135.51	53.36	-52.0	-53.6	14.8	0.00e+00	0	28	0	609222656	70	4254
2026-01-06 09:23:39.06	135.33	53.71	-52.1	-53.7	14.8	0.00e+00	0	28	0	611319808	70	4294
2026-01-06 09:23:40.05	135.15	54.06	-52.1	-53.7	14.8	0.00e+00	0	28	0	613416960	70	4302
2026-01-06 09:23:41.04	134.97	54.41	-52.1	-53.6	14.8	0.00e+00	0	28	0	614465536	70	4283
2026-01-06 09:23:42.03	134.78	54.77	-52.0	-53.6	14.8	0.00e+00	0	28	0	616562688	70	4247
2026-01-06 09:23:43.02	134.58	55.13	-52.2	-53.8	14.7	0.00e+00	0	28	0	618659840	70	4361
2026-01-06 09:23:44.01	134.38	55.49	-52.3	-53.9	14.7	0.00e+00	0	28	0	620756992	70	4407
2026-01-06 09:23:45.02	134.17	55.85	-52.5	-54.1	14.6	0.00e+00	0	28	0	621805568	70	4532
2026-01-06 09:23:46.01	133.96	56.22	-52.7	-54.4	14.5	0.00e+00	0	28	0	623902720	70	4680
2026-01-06 09:23:47.01	133.74	56.59	-53.3	-55.1	14.3	0.00e+00	0	28	0	625999872	71	4789
2026-01-06 09:23:48.01	133.52	56.96	-53.7	-55.7	14.2	0.00e+00	0	28	0	628097024	72	4852
2026-01-06 09:23:49.00	133.29	57.33	-54.1	-56.1	14.1	0.00e+00	0	28	0	630194176	73	4791
2026-01-06 09:23:50.00	133.05	57.70	-54.5	-56.7	13.9	0.00e+00	0	28	0	631242752	74	4827
2026-01-06 09:23:50.99	132.81	58.07	-54.8	-57.2	13.7	0.00e+00	0	28	0	633339904	74	5123
2026-01-06 09:23:51.98	132.56	58.45	-55.2	-57.8	13.4	0.00e+00	0	28	0	635437056	75	5181
2026-01-06 09:23:52.97	132.30	58.83	-55.2	-57.7	13.5	0.00e+00	0	28	0	637534208	75	5105
2026-01-06 09:23:53.96	132.04	59.20	-55.0	-57.4	13.7	0.00e+00	0	28	0	638582784	75	4938
2026-01-06 09:23:54.95	131.77	59.59	-54.8	-57.1	13.8	0.00e+00	0	28	0	640679936	75	4805
2026-01-06 09:23:55.94	131.49	59.97	-54.3	-56.5	14.1	0.00e+00	0	28	0	642777088	75	4457
2026-01-06 09:23:56.93	131.20	60.35	-53.9	-56.0	14.3	0.00e+00	0	28	0	644874240	74	4443
2026-01-06 09:23:57.92	130.90	60.74	-53.4	-55.3	14.5	0.00e+00	0	28	0	645922816	73	4363
2026-01-06 09:23:58.91	130.60	61.12	-52.6	-54.3	14.6	0.00e+00	0	28	0	648019968	71	4390
2026-01-06 09:23:59.90	130.28	61.51	-52.1	-53.7	14.9	0.00e+00	0	28	0	650117120	70	4306
2026-01-06 09:24:00.88	129.96	61.90	-51.8	-53.4	14.9	0.00e+00	0	28	0	652214272	70	4152
2026-01-06 09:24:01.87	129.62	62.29	-51.7	-53.2	15.0	0.00e+00	0	28	0	653262848	70	4085
2026-01-06 09:24:02.87	129.27	62.69	-51.6	-53.1	14.9	0.00e+00	0	28	0	655360000	69	4244
2026-01-06 09:24:03.86	128.91	63.08	-51.8	-53.3	14.8	0.00e+00	0	28	0	657457152	69	4359
2026-01-06 09:24:04.85	128.54	63.48	-51.9	-53.5	14.7	0.00e+00	0	28	0	659554304	69	4456
2026-01-06 09:24:05.85	128.15	63.88	-51.7	-53.2	14.9	0.00e+00	0	28	0	661651456	69	4300
2026-01-06 09:24:06.84	127.75	64.27	-51.9	-53.5	14.8	0.00e+00	0	28	0	662700032	69	4452
2026-01-06 09:24:07.84	127.33	64.68	-52.4	-54.0	14.6	0.00e+00	0	28	0	664797184	69	4742
2026-01-06 09:24:08.83	126.90	65.07	-52.7	-54.4	14.6	0.00e+00	0	28	0	666894336	70	4653
2026-01-06 09:24:09.83	126.45	65.48	-52.9	-54.6	14.4	0.00e+00	0	28	0	668991488	70	4771
2026-01-06 09:24:10.82	125.99	65.88	-53.1	-54.9	14.5	0.00e+00	0	28	0	671088640	71	4686
2026-01-06 09:24:11.81	125.52	66.28	-53.9	-55.9	14.1	0.00e+00	0	28	0	672137216	72	4970
2026-01-06 09:24:12.81	125.01	66.69	-54.4	-56.6	13.9	0.00e+00	0	28	0	674234368	73	5064
2026-01-06 09:24:13.80	124.50	67.09	-54.1	-56.1	14.1	0.00e+00	0	28	0	676331520	73	4804
2026-01-06 09:24:14.80	123.96	67.49	-54.1	-56.2	14.1	0.00e+00	0	28	0	678428672	73	4837
2026-01-06 09:24:15.80	123.40	67.90	-54.1	-56.2	14.1	0.00e+00	0	28	0	679477248	73	4834
2026-01-06 09:24:16.80	122.81	68.31	-53.8	-55.7	14.3	0.00e+00	0	28	0	681574400	73	4584
2026-01-06 09:24:17.79	122.21	68.71	-53.2	-55.0	14.6	0.00e+00	0	28	0	683671552	73	4209
2026-01-06 09:24:18.79	121.57	69.11	-53.1	-54.8	14.6	0.00e+00	0	28	0	685768704	72	4376
2026-01-06 09:24:19.78	120.91	69.51	-52.7	-54.4	14.7	0.00e+00	0	28	0	687865856	72	4183
2026-01-06 09:24:20.78	120.22	69.92	-52.6	-54.2	14.7	0.00e+00	0	28	0	688914432	71	4326
2026-01-06 09:24:21.76	119.51	70.31	-52.6	-54.2	14.7	0.00e+00	0	28	0	691011584	71	4319
2026-01-06 09:24:22.76	118.76	70.71	-52.8	-54.5	14.6	0.00e+00	0	28	0	693108736	71	4469
2026-01-06 09:24:23.75	117.98	71.11	-52.8	-54.5	14.6	0.00e+00	0	28	0	695205888	71	4449
2026-01-06 09:24:24.75	117.16	71.50	-52.6	-54.2	14.7	0.00e+00	0	28	0	696254464	71	4332
2026-01-06 09:24:25.74	116.30	71.89	-52.5	-54.1	14.8	0.00e+00	0	28	0	698351616	71	4282
2026-01-06 09:24:26.74	115.40	72.29	-53.0	-54.8	14.5	0.00e+00	0	28	0	700448768	71	4600
2026-01-06 09:24:27.73	114.46	72.67	-53.4	-55.2	14.4	0.00e+00	0	28	0	702545920	72	4556
2026-01-06 09:24:28.72	113.48	73.05	-53.7	-55.5	14.3	0.00e+00	0	28	0	704643072	72	4757
2026-01-06 09:24:29.71	112.46	73.43	-54.0	-55.9	14.2	0.00e+00	0	28	0	705691648	73	4703
2026-01-06 09:24:30.70	111.38	73.80	-54.8	-57.0	13.8	0.00e+00	0	28	0	707788800	74	5023
2026-01-06 09:24:31.70	110.23	74.18	-55.2	-57.6	13.6	0.00e+00	0	28	0	709885952	75	5068
2026-01-06 09:24:32.69	109.05	74.54	-55.3	-57.8	13.5	0.00e+00	0	28	0	711983104	75	5184
2026-01-06 09:24:33.68	107.80	74.90	-55.3	-57.7	13.7	0.00e+00	0	28	0	713031680	76	4845
2026-01-06 09:24:34.67	106.49	75.25	-55.5	-58.0	13.5	0.00e+00	0	28	0	715128832	76	5011
2026-01-06 09:24:35.66	105.11	75.60	-56.2	-59.1	13.0	0.00e+00	0	28	0	717225984	77	5348
2026-01-06 09:24:36.65	103.67	75.93	-55.9	-58.7	13.3	0.00e+00	0	28	0	719323136	77	5107
2026-01-06 09:24:37.65	102.13	76.27	-55.2	-57.6	13.9	0.00e+00	0	28	0	721420288	77	4506
2026-01-06 09:24:38.65	100.52	76.59	-54.7	-56.9	14.1	0.00e+00	0	28	0	722468864	76	4411
2026-01-06 09:24:39.64	98.85	76.90	-54.7	-56.9	14.0	0.00e+00	0	28	0	724566016	75	4686
2026-01-06 09:24:40.63	97.09	77.20	-54.8	-57.0	14.0	0.00e+00	0	28	0	726663168	75	4731
2026-01-06 09:24:41.62	95.25	77.49	-54.6	-56.7	14.1	0.00e+00	0	28	0	728760320	75	4598
2026-01-06 09:24:42.61	93.32	77.76	-54.0	-55.9	14.3	0.00e+00	0	28	0	729808896	74	4407
2026-01-06 09:24:43.60	91.30	78.02	-53.7	-55.6	14.5	0.00e+00	0	28	0	731906048	74	4252
2026-01-06 09:24:44.59	89.19	78.27	-54.0	-56.0	14.2	0.00e+00	0	28	0	734003200	73	4722
2026-01-06 09:24:45.58	86.99	78.50	-54.3	-56.4	14.1	0.00e+00	0	28	0	736100352	73	4950
2026-01-06 09:24:46.57	84.71	78.71	-54.2	-56.2	14.1	0.00e+00	0	28	0	737148928	73	4865
2026-01-06 09:24:47.57	82.31	78.91	-53.8	-55.7	14.3	0.00e+00	0	28	0	739246080	73	4591
2026-01-06 09:24:48.57	79.83	79.08	-53.7	-55.6	14.4	0.00e+00	0	28	0	741343232	73	4499
2026-01-06 09:24:49.56	77.30	79.24	-53.9	-55.9	14.3	0.00e+00	0	28	0	743440384	73	4666
2026-01-06 09:24:50.56	74.67	79.37	-54.5	-56.6	14.1	0.00e+00	0	28	0	745537536	74	4768
2026-01-06 09:24:51.55	72.01	79.49	-54.1	-56.1	14.3	0.00e+00	0	28	0	746586112	74	4513
2026-01-06 09:24:52.54	69.29	79.58	-54.0	-56.0	14.4	0.00e+00	0	28	0	748683264	74	4461
2026-01-06 09:24:53.53	66.53	79.64	-53.6	-55.5	14.4	0.00e+00	0	28	0	750780416	73	4474
2026-01-06 09:24:54.51	63.77	79.68	-53.4	-55.1	14.6	0.00e+00	0	28	0	752877568	73	4291
2026-01-06 09:24:55.51	60.94	79.70	-53.3	-55.0	14.7	0.00e+00	0	28	0	753926144	73	4236
2026-01-06 09:24:56.50	58.13	79.69	-52.9	-54.6	14.7	0.00e+00	0	28	0	756023296	72	4250
2026-01-06 09:24:57.50	55.30	79.66	-52.5	-54.1	14.8	0.00e+00	0	28	0	758120448	71	4283
2026-01-06 09:24:58.49	52.53	79.61	-52.3	-53.9	14.9	0.00e+00	0	28	0	760217600	71	4159
2026-01-06 09:24:59.48	49.80	79.53	-52.5	-54.0	14.8	0.00e+00	0	28	0	761266176	71	4238
2026-01-06 09:25:00.47	47.11	79.42	-52.0	-53.5	14.9	0.00e+00	0	28	0	763363328	70	4236
2026-01-06 09:25:01.47	44.45	79.30	-52.2	-53.8	14.9	0.00e+00	0	29	0	765460480	70	4358
2026-01-06 09:25:02.46	41.89	79.15	-53.1	-54.8	14.6	0.00e+00	0	28	0	767557632	71	4613
2026-01-06 09:25:03.46	39.38	78.98	-53.2	-54.9	14.5	0.00e+00	0	29	0	769654784	71	4667
2026-01-06 09:25:04.45	36.97	78.80	-53.2	-55.0	14.5	0.00e+00	0	29	0	770703360	71	4728
2026-01-06 09:25:05.44	34.65	78.59	-53.7	-55.5	14.4	0.00e+00	0	29	0	772800512	72	4734
2026-01-06 09:25:06.43	32.41	78.37	-54.1	-56.1	14.3	0.00e+00	0	28	0	774897664	73	4788
2026-01-06 09:25:07.43	30.25	78.13	-54.8	-56.9	14.0	0.00e+00	0	29	0	776994816	74	4955
2026-01-06 09:25:08.42	28.19	77.87	-55.8	-58.3	13.5	0.00e+00	0	28	0	778043392	76	5195
2026-01-06 09:25:09.42	26.21	77.60	-56.3	-59.1	13.1	0.00e+00	0	29	0	780140544	77	5376
2026-01-06 09:25:10.42	24.31	77.32	-56.6	-59.6	12.9	0.00e+00	0	28	0	782237696	78	5402
2026-01-06 09:25:11.42	22.50	77.02	-57.0	-60.2	12.7	0.00e+00	0	28	0	784334848	79	5444
2026-01-06 09:25:12.41	20.79	76.72	-56.6	-59.6	13.0	0.00e+00	0	28	0	786432000	79	5075
2026-01-06 09:25:13.40	19.17	76.40	-56.3	-59.0	13.4	0.00e+00	0	29	0	787480576	79	4746
2026-01-06 09:25:14.40	17.60	76.07	-56.4	-59.3	13.2	0.00e+00	0	29	0	789577728	79	4874
2026-01-06 09:25:15.40	16.12	75.73	-56.5	-59.4	13.1	0.00e+00	0	29	0	791674880	79	4965
2026-01-06 09:25:16.39	14.71	75.39	-56.5	-59.5	13.1	0.00e+00	0	29	0	793772032	79	5020
2026-01-06 09:25:17.39	13.37	75.04	-56.0	-58.6	13.5	0.00e+00	0	29	0	795869184	78	4814
2026-01-06 09:25:18.38	12.09	74.68	-55.2	-57.5	14.0	0.00e+00	0	29	0	796917760	77	4469
2026-01-06 09:25:19.38	10.87	74.32	-54.5	-56.6	14.3	0.00e+00	0	29	0	799014912	75	4510
2026-01-06 09:25:20.37	9.72	73.95	-54.3	-56.2	14.4	0.00e+00	0	29	0	801112064	75	4338
2026-01-06 09:25:21.37	8.61	73.58	-54.1	-56.0	14.4	0.00e+00	0	29	0	803209216	74	4491
2026-01-06 09:25:22.36	7.57	73.20	-53.4	-55.1	14.7	0.00e+00	0	29	0	804257792	73	4282
2026-01-06 09:25:23.35	6.57	72.82	-52.8	-54.4	14.9	0.00e+00	0	29	0	806354944	72	4162
2026-01-06 09:25:24.35	5.61	72.43	-52.6	-54.2	14.9	0.00e+00	0	29	0	808452096	71	4310
2026-01-06 09:25:25.35	4.69	72.04	-52.5	-54.1	14.9	0.00e+00	0	29	0	810549248	71	4260
2026-01-06 09:25:26.33	3.83	71.66	-52.3	-53.9	15.0	0.00e+00	0	29	0	812646400	71	4146
2026-01-06 09:25:27.33	2.99	71.26	-52.6	-54.1	14.9	0.00e+00	0	29	0	813694976	71	4287
2026-01-06 09:25:28.32	2.20	70.87	-52.7	-54.4	14.8	0.00e+00	0	29	0	815792128	71	4392
2026-01-06 09:25:29.31	1.44	70.47	-53.4	-55.1	14.6	0.00e+00	0	29	0	817889280	71	4802
2026-01-06 09:25:30.31	0.71	70.07	-53.7	-55.5	14.5	0.00e+00	0	29	0	819986432	72	4741
2026-01-06 09:25:31.30	0.02	69.67	-53.8	-55.6	14.5	0.00e+00	0	29	0	821035008	73	4527
2026-01-06 09:25:32.29	359.35	69.27	-53.7	-55.5	14.6	0.00e+00	0	29	0	823132160	73	4467
2026-01-06 09:25:33.28	358.71	68.87	-54.6	-56.6	14.2	0.00e+00	0	29	0	825229312	74	4793
2026-01-06 09:25:34.28	358.09	68.47	-55.7	-58.1	13.7	0.00e+00	0	29	0	827326464	76	5088
2026-01-06 09:25:35.26	357.51	68.07	-56.7	-59.7	13.0	0.00e+00	0	29	0	829423616	78	5414
2026-01-06 09:25:36.26	356.94	67.67	-56.7	-59.7	12.8	0.00e+00	0	29	0	830472192	78	5460
2026-01-06 09:25:37.25	356.39	67.27	-56.0	-58.6	13.6	0.00e+00	0	29	0	832569344	78	4781
2026-01-06 09:25:38.24	355.87	66.86	-55.6	-57.9	13.9	0.00e+00	0	29	0	834666496	77	4673
2026-01-06 09:25:39.24	355.36	66.46	-55.7	-58.1	13.8	0.00e+00	0	29	0	836763648	77	4811
2026-01-06 09:25:40.23	354.88	66.06	-55.1	-57.3	14.1	0.00e+00	0	29	0	837812224	76	4612
2026-01-06 09:25:41.22	354.41	65.66	-54.2	-56.1	14.5	0.00e+00	0	29	0	839909376	75	4255
2026-01-06 09:25:42.21	353.96	65.26	-53.5	-55.2	14.7	0.00e+00	0	29	0	842006528	73	4316
2026-01-06 09:25:43.20	353.52	64.86	-53.0	-54.7	14.9	0.00e+00	0	29	0	844103680	72	4307
2026-01-06 09:25:44.19	353.11	64.46	-52.7	-54.3	15.0	0.00e+00	0	29	0	846200832	72	4130
2026-01-06 09:25:45.19	352.70	64.06	-52.4	-53.9	15.1	0.00e+00	0	29	0	847249408	71	4175
2026-01-06 09:25:46.19	352.30	63.66	-52.1	-53.5	15.1	0.00e+00	0	29	0	849346560	70	4240
2026-01-06 09:25:47.18	351.93	63.27	-51.7	-53.1	15.3	0.00e+00	0	29	0	851443712	70	4039
2026-01-06 09:25:48.17	351.56	62.87	-51.5	-52.8	15.3	0.00e+00	0	29	0	853540864	69	4145
2026-01-06 09:25:49.16	351.21	62.48	-51.6	-53.0	15.2	0.00e+00	0	29	0	854589440	69	4197
2026-01-06 09:25:50.16	350.86	62.09	-51.8	-53.3	15.1	0.00e+00	0	29	0	856686592	69	4341
2026-01-06 09:25:51.16	350.53	61.69	-52.1	-53.6	15.0	0.00e+00	0	29	0	858783744	69	4529
2026-01-06 09:25:52.15	350.21	61.30	-52.8	-54.5	14.8	0.00e+00	0	29	0	860880896	70	4708
2026-01-06 09:25:53.14	349.90	60.92	-53.5	-55.2	14.7	0.00e+00	0	29	0	862978048	72	4585
2026-01-06 09:25:54.13	349.60	60.53	-53.6	-55.4	14.7	0.00e+00	0	29	0	864026624	72	4652
2026-01-06 09:25:55.13	349.30	60.14	-53.7	-55.5	14.7	0.00e+00	0	29	0	866123776	72	4733
2026-01-06 09:25:56.12	349.02	59.76	-54.3	-56.2	14.4	0.00e+00	0	29	0	868220928	73	4837
2026-01-06 09:25:57.11	348.75	59.38	-55.3	-57.6	14.0	0.00e+00	0	29	0	870318080	75	5057
2026-01-06 09:25:58.11	348.48	59.00	-56.0	-58.5	13.7	0.00e+00	0	29	0	871366656	77	5028
2026-01-06 09:25:59.10	348.22	58.62	-56.2	-58.9	13.4	0.00e+00	0	29	0	873463808	77	5248
2026-01-06 09:26:00.09	347.97	58.25	-56.2	-58.9	13.5	0.00e+00	0	29	0	875560960	77	5238
2026-01-06 09:26:01.08	347.72	57.88	-56.0	-58.6	13.6	0.00e+00	0	29	0	877658112	77	5054
2026-01-06 09:26:02.07	347.48	57.50	-55.6	-58.0	13.9	0.00e+00	0	29	0	878706688	77	4745
2026-01-06 09:26:03.06	347.25	57.14	-55.6	-58.0	14.0	0.00e+00	0	29	0	880803840	77	4719
2026-01-06 09:26:04.05	347.03	56.77	-55.1	-57.3	14.2	0.00e+00	0	29	0	882900992	76	4608
2026-01-06 09:26:05.04	346.81	56.40	-55.0	-57.1	14.4	0.00e+00	0	30	0	884998144	76	4497
2026-01-06 09:26:06.03	346.60	56.04	-54.3	-56.2	14.6	0.00e+00	0	30	0	886046720	75	4325
2026-01-06 09:26:07.02	346.39	55.68	-53.6	-55.4	14.8	0.00e+00	0	29	0	888143872	73	4405
2026-01-06 09:26:08.01	346.19	55.32	-53.1	-54.8	14.9	0.00e+00	0	30	0	890241024	72	4341
2026-01-06 09:26:09.00	345.99	54.96	-52.7	-54.3	15.1	0.00e+00	0	30	0	892338176	72	4117
2026-01-06 09:26:09.99	345.80	54.61	-52.6	-54.1	15.1	0.00e+00	0	30	0	894435328	71	4280
2026-01-06 09:26:10.98	345.61	54.25	-52.2	-53.7	15.3	0.00e+00	0	29	0	895483904	71	4083
2026-01-06 09:26:11.97	345.43	53.90	-52.2	-53.6	15.2	0.00e+00	0	30	0	897581056	70	4287
2026-01-06 09:26:12.96	345.25	53.55	-52.3	-53.8	15.2	0.00e+00	0	29	0	899678208	70	4390
2026-01-06 09:26:13.94	345.08	53.21	-52.5	-54.0	15.1	0.00e+00	0	30	0	901775360	70	4468
2026-01-06 09:26:14.94	344.90	52.86	-52.4	-53.9	15.1	0.00e+00	0	30	0	902823936	70	4437
2026-01-06 09:26:15.93	344.74	52.52	-52.6	-54.2	15.0	0.00e+00	0	30	0	904921088	70	4561
2026-01-06 09:26:16.93	344.58	52.18	-52.6	-54.2	15.0	0.00e+00	0	30	0	907018240	70	4564
2026-01-06 09:26:17.92	344.42	51.84	-52.8	-54.4	15.0	0.00e+00	0	30	0	909115392	70	4682
2026-01-06 09:26:18.91	344.26	51.50	-52.8	-54.4	15.0	0.00e+00	0	30	0	911212544	71	4429
2026-01-06 09:26:19.91	344.11	51.17	-53.4	-55.1	14.8	0.00e+00	0	30	0	912261120	71	4810
2026-01-06 09:26:20.90	343.96	50.83	-54.3	-56.3	14.5	0.00e+00	0	30	0	914358272	73	4887
2026-01-06 09:26:21.89	343.82	50.51	-55.2	-57.4	14.1	0.00e+00	0	30	0	916455424	75	4958
2026-01-06 09:26:22.88	343.68	50.18	-55.6	-57.9	14.0	0.00e+00	0	30	0	918552576	76	4974
2026-01-06 09:26:23.87	343.54	49.85	-55.9	-58.3	13.8	0.00e+00	0	30	0	919601152	76	5209
2026-01-06 09:26:24.86	343.41	49.53	-56.1	-58.8	13.7	0.00e+00	0	30	0	921698304	77	5163
2026-01-06 09:26:25.85	343.27	49.21	-56.5	-59.4	13.4	0.00e+00	0	30	0	923795456	78	5235
2026-01-06 09:26:26.84	343.14	48.89	-56.5	-59.3	13.4	0.00e+00	0	30	0	925892608	78	5183
2026-01-06 09:26:27.84	343.02	48.57	-56.5	-59.2	13.6	0.00e+00	0	30	0	927989760	78	5131
2026-01-06 09:26:28.83	342.89	48.26	-56.5	-59.2	13.6	0.00e+00	0	30	0	929038336	78	5131
2026-01-06 09:26:29.83	342.77	47.94	-56.8	-59.7	13.3	0.00e+00	0	30	0	931135488	78	5439
2026-01-06 09:26:30.82	342.65	47.63	-57.1	-60.2	13.1	0.00e+00	0	31	0	933232640	79	5405
2026-01-06 09:26:31.81	342.54	47.32	-57.0	-60.2	13.1	0.00e+00	0	30	0	935329792	79	5413
2026-01-06 09:26:32.81	342.42	47.01	-56.7	-59.5	13.4	0.00e+00	0	31	0	936378368	79	5024
2026-01-06 09:26:33.80	342.31	46.71	-56.1	-58.6	14.0	0.00e+00	0	30	0	938475520	78	4790
2026-01-06 09:26:34.80	342.20	46.40	-55.7	-58.0	14.3	0.00e+00	0	31	0	940572672	78	4465
2026-01-06 09:26:35.78	342.09	46.11	-55.2	-57.3	14.7	0.00e+00	0	31	0	942669824	77	4378
2026-01-06 09:26:36.78	341.99	45.81	-55.2	-57.4	14.6	0.00e+00	0	31	0	943718400	76	4659
2026-01-06 09:26:37.78	341.88	45.51	-55.2	-57.3	14.6	0.00e+00	0	31	0	945815552	76	4610
2026-01-06 09:26:38.77	341.78	45.21	-55.2	-57.4	14.6	0.00e+00	0	31	0	947912704	76	4658
2026-01-06 09:26:39.76	341.68	44.92	-55.5	-57.7	14.4	0.00e+00	0	31	0	950009856	76	4856
2026-01-06 09:26:40.77	341.58	44.63	-56.2	-58.7	14.1	0.00e+00	0	31	0	952107008	77	5140
2026-01-06 09:26:41.75	341.49	44.34	-56.4	-59.1	13.9	0.00e+00	0	31	0	953155584	77	5353
2026-01-06 09:26:42.74	341.39	44.06	-56.7	-59.5	13.6	0.00e+00	0	31	0	955252736	78	5340
2026-01-06 09:26:43.74	341.30	43.77	-56.4	-59.1	13.9	0.00e+00	0	31	0	957349888	78	5093
2026-01-06 09:26:44.73	341.21	43.49	-56.4	-59.1	13.9	0.00e+00	0	31	0	959447040	78	5054
2026-01-06 09:26:45.73	341.12	43.21	-56.0	-58.4	14.3	0.00e+00	0	31	0	960495616	78	4672
2026-01-06 09:26:46.73	341.03	42.93	-55.6	-57.8	14.5	0.00e+00	0	31	0	962592768	77	4649
2026-01-06 09:26:47.72	340.95	42.65	-55.4	-57.6	14.6	0.00e+00	0	31	0	964689920	77	4538
2026-01-06 09:26:48.72	340.86	42.38	-55.6	-57.8	14.5	0.00e+00	0	31	0	966787072	77	4643
2026-01-06 09:26:49.71	340.78	42.10	-55.6	-57.8	14.5	0.00e+00	0	31	0	968884224	77	4635
2026-01-06 09:26:50.70	340.70	41.83	-55.6	-57.9	14.5	0.00e+00	0	31	0	969932800	77	4693
2026-01-06 09:26:51.69	340.62	41.57	-55.8	-58.2	14.3	0.00e+00	0	31	0	972029952	77	4851
2026-01-06 09:26:52.69	340.54	41.30	-56.2	-58.7	14.1	0.00e+00	0	31	0	974127104	77	5119
2026-01-06 09:26:53.68	340.46	41.03	-56.3	-59.0	14.0	0.00e+00	0	31	0	976224256	77	5291
2026-01-06 09:26:54.68	340.39	40.77	-56.5	-59.2	13.9	0.00e+00	0	31	0	977272832	78	5106
2026-01-06 09:26:55.67	340.31	40.51	-56.5	-59.2	13.9	0.00e+00	0	31	0	979369984	78	5158
2026-01-06 09:26:56.67	340.24	40.25	-56.5	-59.1	13.9	0.00e+00	0	31	0	981467136	78	5089
2026-01-06 09:26:57.66	340.16	39.99	-56.5	-59.2	13.9	0.00e+00	0	31	0	983564288	78	5120
2026-01-06 09:26:58.65	340.09	39.74	-56.3	-58.9	14.1	0.00e+00	0	31	0	985661440	78	4962
2026-01-06 09:26:59.64	340.02	39.48	-56.1	-58.6	14.2	0.00e+00	0	31	0	986710016	78	4800
2026-01-06 09:27:00.64	339.96	39.23	-56.0	-58.5	14.3	0.00e+00	0	31	0	988807168	78	4741
2026-01-06 09:27:01.63	339.89	38.98	-55.9	-58.3	14.5	0.00e+00	0	31	0	990904320	78	4613
2026-01-06 09:27:02.63	339.82	38.73	-55.8	-58.1	14.6	0.00e+00	0	31	0	993001472	78	4535
2026-01-06 09:27:03.63	339.76	38.48	-55.8	-58.1	14.6	0.00e+00	0	31	0	994050048	78	4534
2026-01-06 09:27:04.63	339.69	38.24	-55.9	-58.3	14.5	0.00e+00	0	31	0	996147200	78	4627
2026-01-06 09:27:05.61	339.63	38.00	-56.0	-58.5	14.5	0.00e+00	0	31	0	998244352	78	4737
2026-01-06 09:27:06.61	339.57	37.75	-56.1	-58.5	14.4	0.00e+00	0	32	0	1000341504	78	4747
2026-01-06 09:27:07.60	339.50	37.51	-56.0	-58.5	14.5	0.00e+00	0	31	0	1002438656	78	4727
2026-01-06 09:27:08.60	339.44	37.27	-56.0	-58.4	14.5	0.00e+00	0	31	0	1003487232	78	4696
2026-01-06 09:27:09.59	339.38	37.04	-55.9	-58.3	14.5	0.00e+00	0	31	0	1005584384	78	4626
2026-01-06 09:27:10.59	339.32	36.80	-55.9	-58.2	14.6	0.00e+00	0	32	0	1007681536	78	4583
2026-01-06 09:27:11.58	339.27	36.57	-55.4	-57.6	14.8	0.00e+00	0	32	0	1009778688	77	4540
2026-01-06 09:27:12.57	339.21	36.34	-55.4	-57.6	14.9	0.00e+00	0	32	0	1010827264	77	4499
2026-01-06 09:27:13.55	339.16	36.11	-55.2	-57.3	14.9	0.00e+00	0	32	0	1012924416	76	4631
2026-01-06 09:27:14.55	339.10	35.88	-55.1	-57.2	14.9	0.00e+00	0	32	0	1015021568	76	4578
2026-01-06 09:27:15.54	339.05	35.66	-55.1	-57.3	14.8	0.00e+00	0	32	0	1017118720	76	4602
2026-01-06 09:27:16.54	338.99	35.43	-55.0	-57.1	14.9	0.00e+00	0	32	0	1019215872	76	4500
2026-01-06 09:27:17.54	338.94	35.20	-55.0	-57.1	14.8	0.00e+00	0	31	0	1020264448	76	4514
2026-01-06 09:27:18.53	338.89	34.98	-55.0	-57.1	14.8	0.00e+00	0	32	0	1022361600	76	4521
2026-01-06 09:27:19.52	338.84	34.76	-55.0	-57.1	14.7	0.00e+00	0	32	0	1024458752	76	4527
2026-01-06 09:27:20.51	338.79	34.54	-55.1	-57.2	14.7	0.00e+00	0	31	0	1026555904	76	4567
2026-01-06 09:27:21.51	338.74	34.32	-55.1	-57.2	14.7	0.00e+00	0	32	0	1027604480	76	4575
2026-01-06 09:27:22.51	338.69	34.11	-54.9	-57.0	14.7	0.00e+00	0	32	0	1029701632	76	4492
2026-01-06 09:27:23.50	338.64	33.89	-55.0	-57.1	14.7	0.00e+00	0	31	0	1031798784	76	4508
2026-01-06 09:27:24.50	338.59	33.68	-55.1	-57.2	14.6	0.00e+00	0	31	0	1033895936	76	4589
2026-01-06 09:27:25.49	338.54	33.47	-55.5	-57.8	14.3	0.00e+00	0	31	0	1035993088	76	4879
2026-01-06 09:27:26.47	338.50	33.26	-55.8	-58.3	14.0	0.00e+00	0	31	0	1037041664	76	5210
2026-01-06 09:27:27.47	338.45	33.05	-56.1	-58.8	13.8	0.00e+00	0	31	0	1039138816	77	5177
2026-01-06 09:27:28.46	338.41	32.84	-56.4	-59.2	13.5	0.00e+00	0	31	0	1041235968	77	5447
2026-01-06 09:27:29.47	338.36	32.63	-56.6	-59.6	13.3	0.00e+00	0	31	0	1043333120	78	5358
2026-01-06 09:27:30.46	338.32	32.43	-56.7	-59.6	13.2	0.00e+00	0	31	0	1045430272	78	5378
2026-01-06 09:27:31.45	338.27	32.23	-56.5	-59.4	13.4	0.00e+00	0	31	0	1046478848	78	5252
2026-01-06 09:27:32.45	338.23	32.02	-56.4	-59.2	13.5	0.00e+00	0	31	0	1048576000	78	5133
2026-01-06 09:27:33.43	338.19	31.83	-56.4	-59.1	13.6	0.00e+00	0	31	0	1050673152	78	5082
2026-01-06 09:27:34.44	338.15	31.62	-56.1	-58.7	13.8	0.00e+00	0	31	0	1052770304	78	4855
2026-01-06 09:27:35.44	338.11	31.42	-55.9	-58.4	14.0	0.00e+00	0	31	0	1053818880	78	4666
2026-01-06 09:27:36.43	338.07	31.23	-55.8	-58.3	14.0	0.00e+00	0	31	0	1055916032	78	4622
2026-01-06 09:27:37.42	338.03	31.03	-55.7	-58.1	14.1	0.00e+00	0	31	0	1058013184	78	4535
2026-01-06 09:27:38.41	337.99	30.84	-55.4	-57.7	14.2	0.00e+00	0	31	0	1060110336	77	4580
2026-01-06 09:27:39.41	337.95	30.65	-55.4	-57.8	14.2	0.00e+00	0	31	0	1062207488	77	4604
2026-01-06 09:27:40.41	337.91	30.45	-55.3	-57.5	14.3	0.00e+00	0	31	0	1063256064	77	4478
2026-01-06 09:27:41.40	337.87	30.26	-55.2	-57.5	14.3	0.00e+00	0	31	0	1065353216	77	4473
2026-01-06 09:27:42.39	337.83	30.08	-55.3	-57.6	14.2	0.00e+00	0	31	0	1067450368	77	4531
2026-01-06 09:27:43.38	337.80	29.89	-55.3	-57.6	14.2	0.00e+00	0	31	0	1069547520	77	4540
2026-01-06 09:27:44.37	337.76	29.70	-55.4	-57.7	14.2	0.00e+00	0	31	0	1070596096	77	4560
2026-01-06 09:27:45.37	337.73	29.52	-55.4	-57.7	14.2	0.00e+00	0	31	0	1072693248	77	4590
2026-01-06 09:27:46.36	337.69	29.33	-55.5	-57.9	14.1	0.00e+00	0	31	0	1074790400	77	4677
2026-01-06 09:27:47.35	337.65	29.15	-55.4	-57.8	14.1	0.00e+00	0	31	0	1076887552	77	4610
2026-01-06 09:27:48.35	337.62	28.97	-55.5	-57.9	14.0	0.00e+00	0	31	0	1078984704	77	4681
2026-01-06 09:27:49.35	337.59	28.79	-55.5	-57.9	14.0	0.00e+00	0	31	0	1080033280	77	4665
2026-01-06 09:27:50.34	337.55	28.61	-55.3	-57.6	14.2	0.00e+00	0	31	0	1082130432	77	4514
2026-01-06 09:27:51.34	337.52	28.43	-55.2	-57.5	14.2	0.00e+00	0	31	0	1084227584	77	4489
2026-01-06 09:27:52.33	337.49	28.25	-55.1	-57.4	14.2	0.00e+00	0	31	0	1086324736	76	4679
2026-01-06 09:27:53.33	337.45	28.07	-55.1	-57.4	14.2	0.00e+00	0	31	0	1087373312	76	4690
2026-01-06 09:27:54.31	337.42	27.90	-55.0	-57.3	14.2	0.00e+00	0	31	0	1089470464	76	4615
2026-01-06 09:27:55.30	337.39	27.73	-54.9	-57.1	14.3	0.00e+00	0	31	0	1091567616	76	4495
2026-01-06 09:27:56.30	337.36	27.55	-54.9	-57.1	14.3	0.00e+00	0	31	0	1093664768	76	4517
2026-01-06 09:27:57.29	337.33	27.38	-54.8	-57.0	14.3	0.00e+00	0	31	0	1095761920	76	4455
2026-01-06 09:27:58.29	337.30	27.21	-54.7	-56.8	14.4	0.00e+00	0	31	0	1096810496	76	4365
2026-01-06 09:27:59.27	337.27	27.04	-54.5	-56.6	14.4	0.00e+00	0	31	0	1098907648	75	4525
2026-01-06 09:28:00.27	337.24	26.87	-54.5	-56.6	14.4	0.00e+00	0	31	0	1101004800	75	4542
2026-01-06 09:28:01.27	337.21	26.71	-54.4	-56.5	14.4	0.00e+00	0	30	0	1103101952	75	4478
2026-01-06 09:28:02.26	337.18	26.54	-54.4	-56.5	14.5	0.00e+00	0	30	0	1104150528	75	4445
2026-01-06 09:28:03.25	337.15	26.37	-54.4	-56.4	14.5	0.00e+00	0	30	0	1106247680	75	4440
2026-01-06 09:28:04.25	337.12	26.21	-54.3	-56.3	14.5	0.00e+00	0	30	0	1108344832	75	4387
2026-01-06 09:28:05.24	337.09	26.05	-54.2	-56.3	14.6	0.00e+00	0	30	0	1110441984	75	4343
2026-01-06 09:28:06.23	337.06	25.88	-54.1	-56.1	14.5	0.00e+00	0	30	0	1112539136	74	4524
2026-01-06 09:28:07.22	337.04	25.72	-54.2	-56.2	14.5	0.00e+00	0	30	0	1113587712	74	4561
2026-01-06 09:28:08.22	337.01	25.56	-53.9	-55.9	14.6	0.00e+00	0	31	0	1115684864	74	4414
2026-01-06 09:28:09.21	336.98	25.40	-54.1	-56.0	14.6	0.00e+00	0	30	0	1117782016	74	4488
2026-01-06 09:28:10.20	336.96	25.24	-54.1	-56.1	14.5	0.00e+00	0	30	0	1119879168	74	4524
2026-01-06 09:28:11.18	336.93	25.09	-54.0	-56.0	14.6	0.00e+00	0	30	0	1120927744	74	4461
2026-01-06 09:28:12.18	336.90	24.93	-54.1	-56.1	14.5	0.00e+00	0	30	0	1123024896	74	4532
2026-01-06 09:28:13.17	336.88	24.78	-54.0	-56.0	14.6	0.00e+00	0	30	0	1125122048	74	4455
2026-01-06 09:28:14.16	336.85	24.62	-54.1	-56.1	14.5	0.00e+00	0	30	0	1127219200	74	4507
2026-01-06 09:28:15.15	336.83	24.47	-54.0	-56.0	14.6	0.00e+00	0	30	0	1128267776	74	4452
2026-01-06 09:28:16.14	336.80	24.31	-54.1	-56.1	14.6	0.00e+00	0	30	0	1130364928	74	4500
2026-01-06 09:28:17.14	336.78	24.16	-54.0	-56.0	14.6	0.00e+00	0	30	0	1132462080	74	4450
2026-01-06 09:28:18.13	336.76	24.01	-53.9	-55.8	14.6	0.00e+00	0	30	0	1134559232	74	4385
2026-01-06 09:28:19.13	336.73	23.86	-53.9	-55.9	14.6	0.00e+00	0	30	0	1135607808	74	4422
2026-01-06 09:28:20.12	336.71	23.71	-53.9	-55.8	14.6	0.00e+00	0	30	0	1137704960	74	4382
2026-01-06 09:28:21.12	336.68	23.56	-53.9	-55.9	14.6	0.00e+00	0	30	0	1139802112	74	4392
2026-01-06 09:28:22.12	336.66	23.41	-53.9	-55.9	14.6	0.00e+00	0	30	0	1141899264	74	4404
2026-01-06 09:28:23.10	336.64	23.27	-53.8	-55.7	14.7	0.00e+00	0	30	0	1143996416	74	4304
2026-01-06 09:28:24.09	336.62	23.12	-53.8	-55.8	14.7	0.00e+00	0	30	0	1145044992	74	4356
2026-01-06 09:28:25.08	336.59	22.98	-53.8	-55.8	14.6	0.00e+00	0	30	0	1147142144	74	4365
2026-01-06 09:28:26.08	336.57	22.83	-53.9	-55.9	14.6	0.00e+00	0	30	0	1149239296	74	4411
2026-01-06 09:28:27.07	336.55	22.69	-53.9	-55.9	14.6	0.00e+00	0	30	0	1151336448	74	4416
2026-01-06 09:28:28.07	336.53	22.54	-53.9	-55.9	14.5	0.00e+00	0	30	0	1152385024	74	4422
2026-01-06 09:28:29.06	336.51	22.40	-53.8	-55.8	14.6	0.00e+00	0	30	0	1154482176	74	4350
2026-01-06 09:28:30.06	336.48	22.26	-53.8	-55.7	14.6	0.00e+00	0	30	0	1156579328	74	4305
2026-01-06 09:28:31.05	336.46	22.12	-53.8	-55.8	14.6	0.00e+00	0	30	0	1158676480	74	4354
2026-01-06 09:28:32.04	336.44	21.98	-53.7	-55.7	14.7	0.00e+00	0	30	0	1160773632	74	4296
2026-01-06 09:28:33.03	336.42	21.84	-53.7	-55.6	14.7	0.00e+00	0	30	0	1161822208	74	4259
2026-01-06 09:28:34.02	336.40	21.70	-53.6	-55.5	14.7	0.00e+00	0	30	0	1163919360	73	4480
2026-01-06 09:28:35.01	336.38	21.56	-53.5	-55.4	14.7	0.00e+00	0	30	0	1166016512	73	4426
2026-01-06 09:28:36.01	336.36	21.43	-53.7	-55.6	14.6	0.00e+00	0	30	0	1168113664	73	4502
2026-01-06 09:28:37.01	336.34	21.29	-53.7	-55.6	14.6	0.00e+00	0	30	0	1169162240	73	4514
2026-01-06 09:28:38.00	336.32	21.15	-53.5	-55.4	14.7	0.00e+00	0	30	0	1171259392	73	4413
2026-01-06 09:28:38.99	336.30	21.02	-53.5	-55.4	14.7	0.00e+00	0	30	0	1173356544	73	4431
2026-01-06 09:28:39.99	336.28	20.88	-53.6	-55.5	14.6	0.00e+00	0	30	0	1175453696	73	4485
2026-01-06 09:28:40.99	336.26	20.75	-53.6	-55.5	14.6	0.00e+00	0	30	0	1177550848	73	4482
2026-01-06 09:28:41.98	336.25	20.62	-53.7	-55.6	14.5	0.00e+00	0	30	0	1178599424	73	4539
2026-01-06 09:28:42.97	336.23	20.49	-53.7	-55.6	14.6	0.00e+00	0	30	0	1180696576	73	4523
2026-01-06 09:28:43.96	336.21	20.36	-53.8	-55.7	14.5	0.00e+00	0	29	0	1182793728	73	4580
2026-01-06 09:28:44.95	336.19	20.23	-53.9	-55.9	14.4	0.00e+00	0	30	0	1184890880	73	4658
2026-01-06 09:28:45.95	336.17	20.10	-53.9	-55.9	14.4	0.00e+00	0	29	0	1186988032	73	4659
2026-01-06 09:28:46.94	336.16	19.97	-53.9	-55.9	14.4	0.00e+00	0	30	0	1188036608	73	4685
2026-01-06 09:28:47.94	336.14	19.84	-53.9	-55.9	14.4	0.00e+00	0	29	0	1190133760	73	4693
2026-01-06 09:28:48.94	336.12	19.71	-54.0	-56.0	14.4	0.00e+00	0	30	0	1192230912	73	4740
2026-01-06 09:28:49.94	336.10	19.58	-54.0	-56.1	14.3	0.00e+00	0	29	0	1194328064	73	4775
2026-01-06 09:28:50.93	336.09	19.45	-54.0	-56.1	14.3	0.00e+00	0	29	0	1195376640	73	4781
2026-01-06 09:28:51.92	336.07	19.33	-54.2	-56.3	14.2	0.00e+00	0	29	0	1197473792	73	4875
2026-01-06 09:28:52.92	336.05	19.20	-54.0	-56.1	14.3	0.00e+00	0	29	0	1199570944	73	4766
2026-01-06 09:28:53.91	336.04	19.08	-54.1	-56.2	14.3	0.00e+00	0	29	0	1201668096	73	4827
2026-01-06 09:28:54.90	336.02	18.95	-54.0	-56.1	14.3	0.00e+00	0	29	0	1203765248	73	4761
2026-01-06 09:28:55.90	336.00	18.83	-54.0	-56.0	14.3	0.00e+00	0	29	0	1204813824	73	4752
2026-01-06 09:28:56.89	335.99	18.71	-54.2	-56.3	14.2	0.00e+00	0	29	0	1206910976	73	4883
2026-01-06 09:28:57.88	335.97	18.59	-54.1	-56.2	14.2	0.00e+00	0	29	0	1209008128	73	4863
2026-01-06 09:28:58.87	335.96	18.46	-54.1	-56.2	14.2	0.00e+00	0	29	0	1211105280	73	4854
2026-01-06 09:28:59.87	335.94	18.34	-54.1	-56.3	14.2	0.00e+00	0	29	0	1212153856	73	4881
2026-01-06 09:29:00.86	335.93	18.22	-54.1	-56.2	14.2	0.00e+00	0	29	0	1214251008	73	4842
2026-01-06 09:29:01.86	335.91	18.10	-54.2	-56.4	14.1	0.00e+00	0	29	0	1216348160	73	4951
2026-01-06 09:29:02.85	335.90	17.98	-54.2	-56.3	14.1	0.00e+00	0	29	0	1218445312	73	4900
2026-01-06 09:29:03.85	335.88	17.86	-54.2	-56.4	14.1	0.00e+00	0	29	0	1220542464	73	4935
2026-01-06 09:29:04.84	335.87	17.75	-54.2	-56.3	14.1	0.00e+00	0	29	0	1221591040	73	4916
2026-01-06 09:29:05.84	335.85	17.63	-54.3	-56.5	14.1	0.00e+00	0	29	0	1223688192	73	4992
2026-01-06 09:29:06.84	335.84	17.51	-54.3	-56.4	14.1	0.00e+00	0	29	0	1225785344	73	4967
