passes_logs/2026/01/06/R3.2S_Murmansk/R3.2S_Murmansk__20260106_015039_NOAA_21_JPSS-2_rec.log

#Pass ID: 20260106_015039_NOAA 21 (JPSS-2)
#Satellite: NOAA 21 (JPSS-2)
#Configuration: NOAA-21
#almurnet v.1.7.20251203
#Start time: 2026-01-06 01:50:41

#Version: 2.2.20231116
#Station: R3.2S_Murmansk
#Location: 33.079688 lon 68.888172 lat
#TLE: 1 54234U 22150A   26005.42670836  .00000142  00000+0  88292-4 0  9996
#TLE: 2 54234  98.7490 306.4427 0001045 340.6622  19.4514 14.19532269163451

#Time	Az	El	Level	Level2	SNR	BER	BlckErr	Temp	State	Recorded	gain1	gain2
2026-01-06 01:50:41.21	29.82	2.09	-58.0	-71.8	3.8	1.49e+00	0	25	0	0	82	17380
2026-01-06 01:50:42.21	29.79	2.15	-58.0	-71.8	3.8	1.49e+00	0	25	104	0	81	18370
2026-01-06 01:50:43.22	29.77	2.22	-58.0	-71.8	3.8	1.49e+00	0	25	104	0	81	18336
2026-01-06 01:50:44.23	29.74	2.28	-58.0	-71.8	3.8	1.49e+00	0	24	104	0	81	18403
2026-01-06 01:50:45.22	29.72	2.34	-58.0	-71.8	3.8	1.49e+00	0	25	104	0	81	18363
2026-01-06 01:50:46.23	29.69	2.41	-58.0	-71.8	3.8	1.49e+00	0	25	104	0	81	18402
2026-01-06 01:50:47.23	29.66	2.47	-58.0	-71.8	3.8	1.49e+00	0	25	104	0	81	18351
2026-01-06 01:50:48.24	29.64	2.54	-58.0	-71.8	3.8	1.49e+00	0	25	104	0	81	18375
2026-01-06 01:50:49.24	29.61	2.60	-58.0	-71.8	3.8	1.49e+00	0	25	104	0	81	18350
2026-01-06 01:50:50.24	29.59	2.66	-58.0	-71.8	3.8	1.49e+00	0	25	104	0	81	18348
2026-01-06 01:50:51.25	29.56	2.73	-58.0	-71.8	3.8	1.49e+00	0	25	104	0	81	18338
2026-01-06 01:50:52.26	29.53	2.79	-58.0	-71.8	3.8	1.49e+00	0	25	104	0	81	18360
2026-01-06 01:50:53.26	29.51	2.86	-58.0	-71.8	3.9	1.49e+00	0	25	104	0	81	18352
2026-01-06 01:50:54.26	29.48	2.92	-58.0	-71.8	3.8	1.49e+00	0	25	104	0	81	18393
2026-01-06 01:50:55.26	29.45	2.99	-58.0	-71.8	3.8	1.49e+00	0	25	104	0	81	18346
2026-01-06 01:50:56.27	29.43	3.05	-58.0	-71.8	3.8	1.49e+00	0	25	104	0	81	18393
2026-01-06 01:50:57.27	29.40	3.12	-58.0	-71.8	3.8	1.49e+00	0	25	104	0	81	18372
2026-01-06 01:50:58.27	29.37	3.18	-58.0	-71.8	3.8	1.49e+00	0	25	104	0	81	18318
2026-01-06 01:50:59.27	29.35	3.25	-58.0	-71.7	3.8	1.49e+00	0	25	104	0	81	18266
2026-01-06 01:51:00.28	29.32	3.32	-58.0	-71.7	3.8	1.49e+00	0	25	104	0	81	18273
2026-01-06 01:51:01.28	29.29	3.38	-58.0	-71.7	3.8	1.49e+00	0	25	104	0	81	18137
2026-01-06 01:51:02.28	29.26	3.45	-58.0	-71.6	3.8	1.49e+00	0	25	104	0	81	18032
2026-01-06 01:51:03.29	29.23	3.51	-58.0	-71.5	3.8	1.49e+00	0	25	104	0	81	17804
2026-01-06 01:51:04.29	29.21	3.58	-58.0	-71.3	3.8	1.49e+00	0	25	104	0	81	17405
2026-01-06 01:51:05.30	29.18	3.65	-58.0	-71.1	3.8	1.49e+00	0	25	104	0	81	17076
2026-01-06 01:51:06.30	29.15	3.71	-57.9	-70.8	3.8	1.49e+00	0	25	104	0	81	16408
2026-01-06 01:51:07.31	29.12	3.78	-57.9	-70.6	3.8	1.49e+00	0	25	104	0	81	15977
2026-01-06 01:51:08.31	29.09	3.85	-57.9	-70.4	3.8	1.49e+00	0	25	104	0	81	15644
2026-01-06 01:51:09.31	29.06	3.91	-57.9	-70.3	3.8	1.49e+00	0	25	104	0	81	15454
2026-01-06 01:51:10.32	29.03	3.98	-57.9	-70.2	3.8	1.49e+00	0	25	104	0	81	15248
2026-01-06 01:51:11.32	29.01	4.05	-57.9	-70.2	3.8	1.49e+00	0	25	104	0	81	15291
2026-01-06 01:51:12.32	28.98	4.12	-57.9	-70.5	3.8	1.49e+00	0	25	104	0	81	15800
2026-01-06 01:51:13.33	28.95	4.18	-57.9	-70.7	3.8	1.49e+00	0	25	104	0	81	16210
2026-01-06 01:51:14.33	28.92	4.25	-58.0	-70.9	3.8	1.49e+00	0	25	104	0	81	16694
2026-01-06 01:51:15.34	28.89	4.32	-58.0	-71.0	3.8	1.49e+00	0	25	104	0	81	16817
2026-01-06 01:51:16.34	28.86	4.39	-57.9	-70.6	3.8	1.49e+00	0	25	104	0	81	16113
2026-01-06 01:51:17.34	28.83	4.46	-57.9	-69.7	3.9	1.49e+00	0	26	104	0	81	14483
2026-01-06 01:51:18.35	28.80	4.53	-57.7	-68.5	3.9	1.46e+00	0	26	104	0	81	12618
2026-01-06 01:51:19.35	28.77	4.59	-57.6	-66.7	4.7	1.20e+00	0	26	104	0	81	10215
2026-01-06 01:51:20.36	28.74	4.66	-57.3	-65.1	5.6	4.64e-01	0	25	0	2097152	81	8467
2026-01-06 01:51:21.36	28.71	4.73	-57.0	-63.5	6.7	2.39e-01	0	25	0	5242880	80	7464
2026-01-06 01:51:22.37	28.67	4.80	-56.7	-62.5	7.5	9.23e-02	0	26	0	8388608	80	6661
2026-01-06 01:51:23.37	28.64	4.87	-56.5	-61.9	7.9	5.14e-02	0	26	0	11534336	79	6641
2026-01-06 01:51:24.38	28.61	4.94	-56.1	-60.8	8.9	1.58e-02	0	26	0	14680064	78	6202
2026-01-06 01:51:25.38	28.58	5.01	-56.0	-60.4	9.3	7.86e-03	0	26	0	17825792	78	5876
2026-01-06 01:51:26.39	28.55	5.08	-56.4	-61.6	8.4	1.18e-02	0	25	0	20971520	78	6745
2026-01-06 01:51:27.39	28.52	5.15	-57.8	-67.4	4.5	1.47e+00	2	26	104	22020096	80	11786
2026-01-06 01:51:28.39	28.49	5.22	-56.7	-62.1	7.8	8.86e-01	0	26	0	22020096	80	6413
2026-01-06 01:51:29.39	28.45	5.29	-55.7	-59.8	9.7	4.43e-02	0	26	0	25165824	78	5466
2026-01-06 01:51:30.40	28.42	5.36	-54.2	-57.1	11.8	0.00e+00	0	26	0	28311552	73	5381
2026-01-06 01:51:31.40	28.39	5.43	-56.6	-62.1	7.7	2.00e-01	0	26	0	31457280	79	6797
2026-01-06 01:51:32.40	28.36	5.50	-52.4	-54.3	13.3	0.00e+00	0	26	0	34603008	71	4386
2026-01-06 01:51:33.41	28.32	5.58	-51.8	-53.6	13.7	0.00e+00	0	26	0	37748736	70	4289
2026-01-06 01:51:34.40	28.29	5.65	-51.9	-53.7	13.7	0.00e+00	0	26	0	40894464	70	4304
2026-01-06 01:51:35.41	28.26	5.72	-51.8	-53.7	13.7	0.00e+00	0	26	0	44040192	70	4297
2026-01-06 01:51:36.40	28.23	5.79	-51.7	-53.5	13.8	0.00e+00	0	26	0	47185920	70	4200
2026-01-06 01:51:37.41	28.19	5.86	-51.8	-53.6	13.7	0.00e+00	0	26	0	50331648	70	4264
2026-01-06 01:51:38.41	28.16	5.93	-51.8	-53.7	13.7	0.00e+00	0	26	0	53477376	70	4293
2026-01-06 01:51:39.42	28.12	6.01	-51.8	-53.6	13.7	0.00e+00	0	26	0	56623104	70	4283
2026-01-06 01:51:40.42	28.09	6.08	-51.6	-53.3	13.8	0.00e+00	0	26	0	59768832	69	4364
2026-01-06 01:51:41.42	28.06	6.15	-51.6	-53.4	13.7	0.00e+00	0	26	0	62914560	69	4408
2026-01-06 01:51:42.42	28.02	6.22	-51.6	-53.3	13.8	0.00e+00	0	26	0	66060288	69	4386
2026-01-06 01:51:43.43	27.99	6.30	-51.6	-53.4	13.8	0.00e+00	0	26	0	69206016	69	4393
2026-01-06 01:51:44.43	27.95	6.37	-51.5	-53.2	13.8	0.00e+00	0	26	0	72351744	69	4338
2026-01-06 01:51:45.43	27.92	6.44	-51.5	-53.2	13.9	0.00e+00	0	26	0	75497472	69	4293
2026-01-06 01:51:46.43	27.88	6.52	-51.5	-53.3	13.9	0.00e+00	0	26	0	78643200	69	4354
2026-01-06 01:51:47.44	27.85	6.59	-51.5	-53.2	13.9	0.00e+00	0	26	0	81788928	69	4323
2026-01-06 01:51:48.44	27.81	6.67	-51.4	-53.1	13.9	0.00e+00	0	26	0	84934656	69	4284
2026-01-06 01:51:49.45	27.78	6.74	-51.4	-53.1	14.0	0.00e+00	0	26	0	88080384	69	4243
2026-01-06 01:51:50.45	27.74	6.81	-51.5	-53.1	13.9	0.00e+00	0	26	0	91226112	69	4287
2026-01-06 01:51:51.45	27.70	6.89	-51.3	-53.0	14.0	0.00e+00	0	26	0	94371840	69	4209
2026-01-06 01:51:52.45	27.67	6.96	-51.4	-53.0	14.0	0.00e+00	0	26	0	97517568	69	4218
2026-01-06 01:51:53.45	27.63	7.04	-51.4	-53.0	14.0	0.00e+00	0	26	0	100663296	69	4223
2026-01-06 01:51:54.45	27.59	7.11	-51.5	-53.1	13.9	0.00e+00	0	26	0	103809024	69	4284
2026-01-06 01:51:55.46	27.56	7.19	-51.3	-52.9	14.1	0.00e+00	0	26	0	106954752	69	4162
2026-01-06 01:51:56.46	27.52	7.26	-51.2	-52.8	14.1	0.00e+00	0	26	0	110100480	69	4142
2026-01-06 01:51:57.46	27.48	7.34	-51.2	-52.8	14.1	0.00e+00	0	26	0	113246208	69	4128
2026-01-06 01:51:58.46	27.44	7.42	-51.1	-52.8	14.0	0.00e+00	0	26	0	116391936	68	4342
2026-01-06 01:51:59.47	27.41	7.49	-51.2	-52.8	14.0	0.00e+00	0	26	0	119537664	68	4367
2026-01-06 01:52:00.47	27.37	7.57	-51.0	-52.6	14.1	0.00e+00	0	26	0	122683392	68	4267
2026-01-06 01:52:01.47	27.33	7.65	-51.1	-52.7	14.1	0.00e+00	0	26	0	125829120	68	4321
2026-01-06 01:52:02.47	27.29	7.72	-51.1	-52.7	14.1	0.00e+00	0	26	0	128974848	68	4322
2026-01-06 01:52:03.47	27.25	7.80	-51.0	-52.6	14.1	0.00e+00	0	26	0	132120576	68	4265
2026-01-06 01:52:04.47	27.21	7.88	-51.0	-52.6	14.1	0.00e+00	0	26	0	135266304	68	4259
2026-01-06 01:52:05.48	27.17	7.95	-50.9	-52.5	14.2	0.00e+00	0	26	0	137363456	68	4218
2026-01-06 01:52:06.48	27.14	8.03	-51.0	-52.5	14.1	0.00e+00	0	26	0	140509184	68	4237
2026-01-06 01:52:07.49	27.10	8.11	-50.9	-52.4	14.2	0.00e+00	0	26	0	143654912	68	4189
2026-01-06 01:52:08.49	27.06	8.19	-50.9	-52.4	14.2	0.00e+00	0	26	0	146800640	68	4186
2026-01-06 01:52:09.49	27.02	8.27	-50.9	-52.5	14.2	0.00e+00	0	26	0	149946368	68	4205
2026-01-06 01:52:10.50	26.97	8.35	-50.8	-52.3	14.3	0.00e+00	0	26	0	153092096	68	4124
2026-01-06 01:52:11.50	26.93	8.43	-50.7	-52.2	14.3	0.00e+00	0	26	0	156237824	68	4089
2026-01-06 01:52:12.50	26.89	8.50	-50.8	-52.3	14.3	0.00e+00	0	26	0	160432128	68	4100
2026-01-06 01:52:13.50	26.85	8.58	-50.8	-52.3	14.3	0.00e+00	0	26	0	162529280	68	4103
2026-01-06 01:52:14.50	26.81	8.66	-50.7	-52.2	14.4	0.00e+00	0	26	0	165675008	68	4077
2026-01-06 01:52:15.50	26.77	8.74	-50.5	-52.0	14.3	0.00e+00	0	26	0	168820736	67	4236
2026-01-06 01:52:16.51	26.73	8.82	-50.4	-51.9	14.3	0.00e+00	0	26	0	171966464	67	4163
2026-01-06 01:52:17.51	26.69	8.90	-50.5	-51.9	14.3	0.00e+00	0	26	0	175112192	67	4183
2026-01-06 01:52:18.51	26.64	8.98	-50.5	-51.9	14.3	0.00e+00	0	26	0	178257920	67	4180
2026-01-06 01:52:19.51	26.60	9.06	-50.5	-52.0	14.3	0.00e+00	0	26	0	181403648	67	4194
2026-01-06 01:52:20.51	26.56	9.15	-50.4	-51.9	14.3	0.00e+00	0	26	0	184549376	67	4170
2026-01-06 01:52:21.51	26.51	9.23	-50.3	-51.8	14.4	0.00e+00	0	26	0	187695104	67	4106
2026-01-06 01:52:22.52	26.47	9.31	-50.4	-51.8	14.4	0.00e+00	0	26	0	190840832	67	4127
2026-01-06 01:52:23.52	26.43	9.39	-50.4	-51.9	14.3	0.00e+00	0	26	0	193986560	67	4161
2026-01-06 01:52:24.51	26.38	9.47	-50.3	-51.8	14.4	0.00e+00	0	26	0	197132288	67	4100
2026-01-06 01:52:25.51	26.34	9.55	-50.3	-51.8	14.4	0.00e+00	0	26	0	200278016	67	4108
2026-01-06 01:52:26.51	26.30	9.64	-50.3	-51.8	14.4	0.00e+00	0	26	0	203423744	67	4100
2026-01-06 01:52:27.51	26.25	9.72	-50.4	-51.8	14.4	0.00e+00	0	26	0	206569472	67	4136
2026-01-06 01:52:28.51	26.21	9.80	-50.3	-51.7	14.4	0.00e+00	0	26	0	209715200	67	4085
2026-01-06 01:52:29.52	26.16	9.89	-50.2	-51.6	14.5	0.00e+00	0	26	0	212860928	67	4027
2026-01-06 01:52:30.52	26.11	9.97	-50.1	-51.5	14.4	0.00e+00	0	26	0	216006656	66	4233
2026-01-06 01:52:31.52	26.07	10.05	-50.1	-51.5	14.4	0.00e+00	0	26	0	219152384	66	4212
2026-01-06 01:52:32.52	26.02	10.14	-50.0	-51.4	14.4	0.00e+00	0	26	0	222298112	66	4180
2026-01-06 01:52:33.52	25.98	10.22	-50.1	-51.5	14.4	0.00e+00	0	26	0	225443840	66	4196
2026-01-06 01:52:34.53	25.93	10.31	-50.1	-51.5	14.4	0.00e+00	0	26	0	228589568	66	4200
2026-01-06 01:52:35.53	25.88	10.39	-50.0	-51.4	14.4	0.00e+00	0	26	0	231735296	66	4178
2026-01-06 01:52:36.54	25.83	10.48	-50.1	-51.5	14.4	0.00e+00	0	26	0	234881024	66	4200
2026-01-06 01:52:37.54	25.79	10.56	-50.0	-51.4	14.5	0.00e+00	0	26	0	238026752	66	4151
2026-01-06 01:52:38.55	25.74	10.65	-49.9	-51.3	14.5	0.00e+00	0	26	0	241172480	66	4103
2026-01-06 01:52:39.55	25.69	10.73	-49.9	-51.2	14.5	0.00e+00	0	26	0	244318208	66	4092
2026-01-06 01:52:40.55	25.64	10.82	-49.9	-51.3	14.5	0.00e+00	0	26	0	247463936	66	4130
2026-01-06 01:52:41.56	25.59	10.91	-49.9	-51.3	14.5	0.00e+00	0	26	0	250609664	66	4106
2026-01-06 01:52:42.57	25.54	11.00	-49.8	-51.2	14.6	0.00e+00	0	26	0	253755392	66	4057
2026-01-06 01:52:43.57	25.49	11.08	-49.8	-51.2	14.6	0.00e+00	0	26	0	256901120	66	4089
2026-01-06 01:52:44.58	25.44	11.17	-49.9	-51.2	14.6	0.00e+00	0	26	0	260046848	66	4080
2026-01-06 01:52:45.58	25.39	11.26	-49.9	-51.2	14.6	0.00e+00	0	26	0	263192576	66	4089
2026-01-06 01:52:46.59	25.34	11.35	-49.8	-51.1	14.6	0.00e+00	0	26	0	266338304	66	4032
2026-01-06 01:52:47.59	25.29	11.43	-49.7	-51.1	14.6	0.00e+00	0	26	0	269484032	66	4017
2026-01-06 01:52:48.59	25.24	11.52	-49.8	-51.1	14.6	0.00e+00	0	26	0	272629760	66	4027
2026-01-06 01:52:49.59	25.19	11.61	-49.9	-51.2	14.6	0.00e+00	0	26	0	275775488	66	4081
2026-01-06 01:52:50.59	25.14	11.70	-49.8	-51.2	14.6	0.00e+00	0	26	0	278921216	66	4055
2026-01-06 01:52:51.60	25.09	11.79	-49.8	-51.1	14.6	0.00e+00	0	26	0	282066944	66	4051
2026-01-06 01:52:52.61	25.03	11.88	-49.9	-51.3	14.5	0.00e+00	0	26	0	285212672	66	4110
2026-01-06 01:52:53.61	24.98	11.97	-49.7	-51.0	14.6	0.00e+00	0	26	0	288358400	66	4004
2026-01-06 01:52:54.61	24.93	12.06	-49.6	-51.0	14.5	0.00e+00	0	26	0	291504128	65	4194
2026-01-06 01:52:55.61	24.87	12.15	-49.7	-51.1	14.5	0.00e+00	0	26	0	294649856	65	4243
2026-01-06 01:52:56.61	24.82	12.24	-49.7	-51.0	14.5	0.00e+00	0	26	0	297795584	65	4215
2026-01-06 01:52:57.62	24.76	12.34	-49.6	-51.0	14.5	0.00e+00	0	26	0	300941312	65	4206
2026-01-06 01:52:58.62	24.71	12.43	-49.6	-50.9	14.6	0.00e+00	0	26	0	304087040	65	4184
2026-01-06 01:52:59.62	24.66	12.52	-49.6	-50.9	14.6	0.00e+00	0	26	0	307232768	65	4170
2026-01-06 01:53:00.62	24.60	12.61	-49.6	-50.9	14.6	0.00e+00	0	26	0	310378496	65	4157
2026-01-06 01:53:01.63	24.54	12.70	-49.6	-50.9	14.6	0.00e+00	0	26	0	313524224	65	4186
2026-01-06 01:53:02.63	24.49	12.80	-49.5	-50.8	14.6	0.00e+00	0	26	0	316669952	65	4145
2026-01-06 01:53:03.64	24.43	12.89	-49.5	-50.8	14.6	0.00e+00	0	26	0	319815680	65	4137
2026-01-06 01:53:04.64	24.37	12.98	-49.5	-50.8	14.6	0.00e+00	0	26	0	322961408	65	4112
2026-01-06 01:53:05.64	24.32	13.08	-49.5	-50.8	14.6	0.00e+00	0	26	0	326107136	65	4131
2026-01-06 01:53:06.64	24.26	13.17	-49.6	-50.9	14.6	0.00e+00	0	26	0	329252864	65	4175
2026-01-06 01:53:07.65	24.20	13.27	-49.5	-50.8	14.6	0.00e+00	0	26	0	332398592	65	4100
2026-01-06 01:53:08.65	24.14	13.36	-49.4	-50.7	14.7	0.00e+00	0	26	0	335544320	65	4084
2026-01-06 01:53:09.66	24.08	13.46	-49.5	-50.8	14.6	0.00e+00	0	26	0	338690048	65	4135
2026-01-06 01:53:10.66	24.02	13.55	-49.4	-50.7	14.7	0.00e+00	0	26	0	341835776	65	4071
2026-01-06 01:53:11.66	23.96	13.65	-49.4	-50.7	14.6	0.00e+00	0	26	0	344981504	65	4095
2026-01-06 01:53:12.67	23.90	13.75	-49.4	-50.7	14.7	0.00e+00	0	26	0	348127232	65	4064
2026-01-06 01:53:13.68	23.84	13.84	-49.3	-50.6	14.7	0.00e+00	0	26	0	351272960	65	4037
2026-01-06 01:53:14.69	23.78	13.94	-49.4	-50.7	14.7	0.00e+00	0	26	0	354418688	65	4082
2026-01-06 01:53:15.69	23.72	14.04	-49.5	-50.8	14.6	0.00e+00	0	26	0	357564416	65	4130
2026-01-06 01:53:16.70	23.66	14.14	-49.5	-50.8	14.6	0.00e+00	0	26	0	360710144	65	4106
2026-01-06 01:53:17.71	23.60	14.24	-49.3	-50.6	14.7	0.00e+00	0	26	0	363855872	65	4017
2026-01-06 01:53:18.71	23.53	14.33	-49.4	-50.7	14.7	0.00e+00	0	26	0	367001600	65	4061
2026-01-06 01:53:19.72	23.47	14.43	-49.3	-50.6	14.7	0.00e+00	0	26	0	370147328	65	4029
2026-01-06 01:53:20.72	23.41	14.53	-49.2	-50.5	14.7	0.00e+00	0	26	0	373293056	65	3990
2026-01-06 01:53:21.72	23.34	14.63	-49.2	-50.5	14.8	0.00e+00	0	26	0	376438784	65	3980
2026-01-06 01:53:22.73	23.28	14.73	-49.4	-50.7	14.7	0.00e+00	0	26	0	379584512	65	4066
2026-01-06 01:53:23.72	23.21	14.83	-49.3	-50.6	14.7	0.00e+00	0	26	0	382730240	65	4024
2026-01-06 01:53:24.73	23.15	14.93	-49.4	-50.6	14.7	0.00e+00	0	26	0	385875968	65	4039
2026-01-06 01:53:25.73	23.08	15.03	-49.3	-50.6	14.7	0.00e+00	0	26	0	389021696	65	4007
2026-01-06 01:53:26.74	23.01	15.14	-49.2	-50.5	14.8	0.00e+00	0	26	0	392167424	65	3961
2026-01-06 01:53:27.74	22.95	15.24	-49.3	-50.5	14.7	0.00e+00	0	26	0	395313152	65	3997
2026-01-06 01:53:28.74	22.88	15.34	-49.3	-50.5	14.7	0.00e+00	0	26	0	398458880	65	3993
2026-01-06 01:53:29.75	22.81	15.44	-49.3	-50.6	14.7	0.00e+00	0	26	0	401604608	65	4023
2026-01-06 01:53:30.75	22.74	15.55	-49.5	-50.8	14.6	0.00e+00	0	26	0	404750336	65	4104
2026-01-06 01:53:31.76	22.68	15.65	-49.5	-50.8	14.6	0.00e+00	0	26	0	407896064	65	4130
2026-01-06 01:53:32.76	22.61	15.75	-49.5	-50.8	14.6	0.00e+00	0	26	0	411041792	65	4134
2026-01-06 01:53:33.76	22.54	15.86	-49.4	-50.7	14.7	0.00e+00	0	26	0	414187520	65	4091
2026-01-06 01:53:34.77	22.47	15.96	-49.4	-50.7	14.7	0.00e+00	0	26	0	417333248	65	4088
2026-01-06 01:53:35.77	22.39	16.07	-49.5	-50.8	14.6	0.00e+00	0	26	0	420478976	65	4130
2026-01-06 01:53:36.78	22.32	16.17	-49.5	-50.8	14.6	0.00e+00	0	26	0	423624704	65	4131
2026-01-06 01:53:37.79	22.25	16.28	-49.5	-50.8	14.6	0.00e+00	0	26	0	426770432	65	4134
2026-01-06 01:53:38.79	22.18	16.39	-49.7	-51.0	14.6	0.00e+00	0	26	0	429916160	65	4214
2026-01-06 01:53:39.80	22.10	16.49	-49.5	-50.8	14.6	0.00e+00	0	26	0	433061888	65	4126
2026-01-06 01:53:40.81	22.03	16.60	-49.6	-50.9	14.6	0.00e+00	0	26	0	436207616	65	4165
2026-01-06 01:53:41.81	21.96	16.71	-49.6	-51.0	14.6	0.00e+00	0	26	0	439353344	65	4195
2026-01-06 01:53:42.81	21.88	16.82	-49.6	-50.9	14.6	0.00e+00	0	26	0	442499072	65	4173
2026-01-06 01:53:43.80	21.81	16.92	-49.5	-50.8	14.7	0.00e+00	0	26	0	445644800	65	4116
2026-01-06 01:53:44.80	21.73	17.03	-49.6	-50.9	14.6	0.00e+00	0	26	0	447741952	65	4162
2026-01-06 01:53:45.80	21.66	17.14	-49.5	-50.8	14.6	0.00e+00	0	26	0	451936256	65	4122
2026-01-06 01:53:46.80	21.58	17.25	-49.6	-50.9	14.6	0.00e+00	0	26	0	455081984	65	4162
2026-01-06 01:53:47.81	21.50	17.36	-49.4	-50.7	14.7	0.00e+00	0	26	0	458227712	65	4088
2026-01-06 01:53:48.81	21.42	17.47	-49.5	-50.7	14.7	0.00e+00	0	26	0	461373440	65	4097
2026-01-06 01:53:49.82	21.34	17.58	-49.5	-50.8	14.7	0.00e+00	0	26	0	463470592	65	4107
2026-01-06 01:53:50.81	21.27	17.69	-49.5	-50.7	14.7	0.00e+00	0	26	0	466616320	65	4096
2026-01-06 01:53:51.82	21.19	17.81	-49.5	-50.8	14.6	0.00e+00	0	26	0	469762048	65	4133
2026-01-06 01:53:52.83	21.10	17.92	-49.5	-50.8	14.6	0.00e+00	0	26	0	472907776	65	4144
2026-01-06 01:53:53.83	21.02	18.03	-49.5	-50.8	14.6	0.00e+00	0	26	0	476053504	65	4136
2026-01-06 01:53:54.83	20.94	18.15	-49.7	-51.0	14.6	0.00e+00	0	26	0	479199232	65	4207
2026-01-06 01:53:55.83	20.86	18.26	-49.6	-50.9	14.6	0.00e+00	0	26	0	482344960	65	4187
2026-01-06 01:53:56.83	20.78	18.37	-49.6	-50.9	14.6	0.00e+00	0	26	0	485490688	65	4193
2026-01-06 01:53:57.84	20.69	18.49	-49.7	-51.0	14.5	0.00e+00	0	26	0	488636416	65	4222
2026-01-06 01:53:58.84	20.61	18.60	-49.7	-51.1	14.5	0.00e+00	0	26	0	491782144	65	4247
2026-01-06 01:53:59.85	20.52	18.72	-49.8	-51.2	14.5	0.00e+00	0	26	0	494927872	65	4296
2026-01-06 01:54:00.84	20.44	18.83	-49.8	-51.2	14.5	0.00e+00	0	26	0	498073600	65	4296
2026-01-06 01:54:01.85	20.35	18.95	-49.8	-51.1	14.5	0.00e+00	0	26	0	501219328	65	4288
2026-01-06 01:54:02.86	20.26	19.07	-49.9	-51.2	14.5	0.00e+00	0	26	0	504365056	65	4329
2026-01-06 01:54:03.86	20.17	19.19	-49.8	-51.1	14.5	0.00e+00	0	26	0	507510784	65	4289
2026-01-06 01:54:04.86	20.09	19.30	-49.8	-51.2	14.5	0.00e+00	0	26	0	510656512	65	4297
2026-01-06 01:54:05.86	20.00	19.42	-49.9	-51.3	14.5	0.00e+00	0	26	0	513802240	65	4345
2026-01-06 01:54:06.86	19.91	19.54	-49.9	-51.2	14.5	0.00e+00	0	26	0	516947968	65	4321
2026-01-06 01:54:07.86	19.82	19.66	-49.8	-51.1	14.5	0.00e+00	0	26	0	520093696	65	4275
2026-01-06 01:54:08.87	19.72	19.78	-49.7	-51.0	14.6	0.00e+00	0	26	0	523239424	65	4227
2026-01-06 01:54:09.87	19.63	19.90	-49.7	-51.0	14.6	0.00e+00	0	26	0	526385152	65	4228
2026-01-06 01:54:10.87	19.54	20.02	-49.7	-51.0	14.6	0.00e+00	0	26	0	529530880	65	4204
2026-01-06 01:54:11.87	19.45	20.14	-49.3	-50.6	14.7	0.00e+00	0	26	0	532676608	65	4033
2026-01-06 01:54:12.87	19.35	20.26	-49.2	-50.4	14.8	0.00e+00	0	26	0	535822336	65	3950
2026-01-06 01:54:13.88	19.26	20.39	-49.2	-50.4	14.8	0.00e+00	0	26	0	538968064	65	3932
2026-01-06 01:54:14.88	19.16	20.51	-49.0	-50.3	14.7	0.00e+00	0	26	0	542113792	64	4105
2026-01-06 01:54:15.89	19.06	20.63	-49.1	-50.3	14.7	0.00e+00	0	26	0	545259520	64	4125
2026-01-06 01:54:16.89	18.96	20.76	-49.0	-50.3	14.7	0.00e+00	0	26	0	548405248	64	4099
2026-01-06 01:54:17.90	18.87	20.88	-48.8	-50.0	14.8	0.00e+00	0	26	0	551550976	64	4000
2026-01-06 01:54:18.89	18.77	21.01	-48.9	-50.1	14.8	0.00e+00	0	26	0	554696704	64	4027
2026-01-06 01:54:19.90	18.67	21.13	-48.9	-50.1	14.8	0.00e+00	0	26	0	557842432	64	4028
2026-01-06 01:54:20.89	18.57	21.26	-48.9	-50.2	14.8	0.00e+00	0	26	0	560988160	64	4062
2026-01-06 01:54:21.90	18.46	21.38	-48.8	-50.0	14.9	0.00e+00	0	26	0	564133888	64	3977
2026-01-06 01:54:22.90	18.36	21.51	-48.7	-49.9	14.8	0.00e+00	0	26	0	567279616	63	4152
2026-01-06 01:54:23.89	18.26	21.64	-48.7	-49.9	14.8	0.00e+00	0	26	0	570425344	63	4153
2026-01-06 01:54:24.90	18.15	21.77	-48.8	-50.0	14.7	0.00e+00	0	26	0	573571072	63	4215
2026-01-06 01:54:25.90	18.05	21.89	-48.8	-50.0	14.7	0.00e+00	0	26	0	576716800	63	4239
2026-01-06 01:54:26.90	17.94	22.02	-48.7	-49.9	14.8	0.00e+00	0	26	0	579862528	63	4172
2026-01-06 01:54:27.91	17.83	22.15	-48.7	-49.9	14.8	0.00e+00	0	26	0	583008256	63	4151
2026-01-06 01:54:28.91	17.73	22.28	-48.6	-49.8	14.8	0.00e+00	0	27	0	586153984	63	4127
2026-01-06 01:54:29.92	17.62	22.42	-48.4	-49.6	14.9	0.00e+00	0	26	0	589299712	63	4025
2026-01-06 01:54:30.93	17.51	22.55	-48.4	-49.6	14.9	0.00e+00	0	26	0	592445440	63	4041
2026-01-06 01:54:31.93	17.39	22.68	-48.4	-49.6	14.9	0.00e+00	0	26	0	595591168	63	4007
2026-01-06 01:54:32.94	17.28	22.81	-48.3	-49.5	14.9	0.00e+00	0	26	0	598736896	63	3971
2026-01-06 01:54:33.94	17.17	22.95	-48.4	-49.6	14.9	0.00e+00	0	26	0	601882624	63	4008
2026-01-06 01:54:34.94	17.06	23.08	-48.3	-49.5	14.9	0.00e+00	0	26	0	605028352	63	3985
2026-01-06 01:54:35.94	16.94	23.21	-48.3	-49.5	14.9	0.00e+00	0	26	0	608174080	63	3961
2026-01-06 01:54:36.94	16.82	23.35	-48.4	-49.6	14.9	0.00e+00	0	26	0	611319808	63	4014
2026-01-06 01:54:37.94	16.71	23.48	-48.4	-49.6	14.9	0.00e+00	0	26	0	614465536	63	4024
2026-01-06 01:54:38.94	16.59	23.62	-48.5	-49.7	14.8	0.00e+00	0	26	0	617611264	63	4091
2026-01-06 01:54:39.95	16.47	23.76	-48.6	-49.8	14.8	0.00e+00	0	26	0	620756992	63	4107
2026-01-06 01:54:40.96	16.35	23.90	-48.8	-50.0	14.7	0.00e+00	0	26	0	623902720	63	4216
2026-01-06 01:54:41.96	16.23	24.03	-48.7	-49.9	14.8	0.00e+00	0	26	0	627048448	63	4180
2026-01-06 01:54:42.96	16.11	24.17	-48.8	-50.0	14.7	0.00e+00	0	26	0	630194176	63	4229
2026-01-06 01:54:43.96	15.98	24.31	-48.8	-50.0	14.7	0.00e+00	0	26	0	633339904	63	4236
2026-01-06 01:54:44.97	15.86	24.45	-48.9	-50.1	14.7	0.00e+00	0	26	0	636485632	63	4261
2026-01-06 01:54:45.97	15.73	24.59	-48.9	-50.1	14.7	0.00e+00	0	26	0	639631360	63	4285
2026-01-06 01:54:46.97	15.60	24.73	-48.9	-50.2	14.7	0.00e+00	0	26	0	642777088	63	4293
2026-01-06 01:54:47.97	15.48	24.87	-48.8	-50.0	14.7	0.00e+00	0	26	0	645922816	63	4236
2026-01-06 01:54:48.98	15.35	25.01	-48.8	-50.0	14.8	0.00e+00	0	26	0	649068544	63	4196
2026-01-06 01:54:49.98	15.22	25.16	-48.7	-49.9	14.8	0.00e+00	0	26	0	652214272	63	4160
2026-01-06 01:54:50.97	15.08	25.30	-48.8	-50.0	14.7	0.00e+00	0	26	0	655360000	63	4212
2026-01-06 01:54:51.98	14.95	25.44	-48.9	-50.0	14.7	0.00e+00	0	26	0	658505728	63	4239
2026-01-06 01:54:52.98	14.82	25.59	-49.0	-50.2	14.7	0.00e+00	0	26	0	661651456	63	4299
2026-01-06 01:54:53.98	14.68	25.73	-49.0	-50.3	14.7	0.00e+00	0	26	0	664797184	63	4347
2026-01-06 01:54:54.99	14.54	25.88	-49.1	-50.4	14.6	0.00e+00	0	26	0	667942912	63	4401
2026-01-06 01:54:55.99	14.41	26.02	-49.2	-50.4	14.6	0.00e+00	0	26	0	671088640	63	4432
2026-01-06 01:54:56.99	14.27	26.17	-49.4	-50.6	14.5	0.00e+00	0	26	0	674234368	63	4532
2026-01-06 01:54:58.00	14.12	26.32	-49.3	-50.6	14.6	0.00e+00	0	26	0	677380096	63	4514
2026-01-06 01:54:59.00	13.98	26.47	-49.4	-50.7	14.6	0.00e+00	0	26	0	680525824	64	4303
2026-01-06 01:55:00.00	13.84	26.61	-49.4	-50.6	14.6	0.00e+00	0	26	0	683671552	64	4287
2026-01-06 01:55:01.00	13.70	26.76	-49.4	-50.7	14.6	0.00e+00	0	26	0	686817280	64	4309
2026-01-06 01:55:02.00	13.55	26.91	-49.5	-50.8	14.6	0.00e+00	0	26	0	689963008	64	4361
2026-01-06 01:55:03.00	13.40	27.06	-49.5	-50.8	14.6	0.00e+00	0	26	0	693108736	64	4357
2026-01-06 01:55:04.00	13.25	27.21	-49.4	-50.7	14.6	0.00e+00	0	26	0	696254464	64	4313
2026-01-06 01:55:05.01	13.10	27.37	-49.5	-50.7	14.6	0.00e+00	0	26	0	699400192	64	4318
2026-01-06 01:55:06.01	12.95	27.52	-49.5	-50.8	14.6	0.00e+00	0	26	0	702545920	64	4366
2026-01-06 01:55:07.02	12.79	27.67	-49.4	-50.7	14.6	0.00e+00	0	26	0	705691648	64	4302
2026-01-06 01:55:08.02	12.64	27.83	-49.4	-50.6	14.6	0.00e+00	0	26	0	708837376	64	4264
2026-01-06 01:55:09.03	12.48	27.98	-49.3	-50.5	14.7	0.00e+00	0	26	0	711983104	64	4237
2026-01-06 01:55:10.03	12.32	28.13	-49.3	-50.5	14.7	0.00e+00	0	26	0	714080256	64	4233
2026-01-06 01:55:11.04	12.16	28.29	-49.3	-50.6	14.7	0.00e+00	0	26	0	717225984	64	4243
2026-01-06 01:55:12.05	12.00	28.45	-49.4	-50.6	14.6	0.00e+00	0	26	0	720371712	64	4287
2026-01-06 01:55:13.05	11.84	28.60	-49.5	-50.7	14.6	0.00e+00	0	26	0	723517440	64	4337
2026-01-06 01:55:14.05	11.67	28.76	-49.5	-50.8	14.6	0.00e+00	0	26	0	726663168	64	4367
2026-01-06 01:55:15.06	11.51	28.92	-49.6	-50.9	14.6	0.00e+00	0	26	0	730857472	64	4409
2026-01-06 01:55:16.06	11.34	29.08	-49.5	-50.8	14.6	0.00e+00	0	26	0	734003200	64	4353
2026-01-06 01:55:17.06	11.17	29.24	-49.5	-50.8	14.6	0.00e+00	0	26	0	737148928	64	4383
2026-01-06 01:55:18.06	11.00	29.40	-49.4	-50.7	14.6	0.00e+00	0	26	0	739246080	64	4320
2026-01-06 01:55:19.06	10.83	29.56	-49.5	-50.7	14.6	0.00e+00	0	26	0	742391808	64	4323
2026-01-06 01:55:20.06	10.65	29.72	-49.4	-50.7	14.6	0.00e+00	0	26	0	745537536	64	4292
2026-01-06 01:55:21.07	10.47	29.88	-49.3	-50.6	14.7	0.00e+00	0	26	0	748683264	64	4254
2026-01-06 01:55:22.07	10.30	30.04	-49.4	-50.6	14.6	0.00e+00	0	26	0	751828992	64	4285
2026-01-06 01:55:23.08	10.11	30.21	-49.4	-50.7	14.6	0.00e+00	0	26	0	754974720	64	4298
2026-01-06 01:55:24.09	9.93	30.37	-49.5	-50.8	14.6	0.00e+00	0	26	0	758120448	64	4364
2026-01-06 01:55:25.09	9.75	30.53	-49.7	-51.0	14.5	0.00e+00	0	26	0	761266176	64	4469
2026-01-06 01:55:26.09	9.56	30.70	-49.9	-51.2	14.4	0.00e+00	0	27	0	764411904	64	4573
2026-01-06 01:55:27.08	9.38	30.86	-50.0	-51.3	14.5	0.00e+00	0	26	0	767557632	65	4364
2026-01-06 01:55:28.09	9.18	31.03	-50.0	-51.3	14.5	0.00e+00	0	26	0	770703360	65	4373
2026-01-06 01:55:29.09	8.99	31.19	-49.8	-51.1	14.5	0.00e+00	0	26	0	773849088	65	4287
2026-01-06 01:55:30.10	8.80	31.36	-49.8	-51.1	14.6	0.00e+00	0	26	0	776994816	65	4272
2026-01-06 01:55:31.09	8.60	31.53	-49.6	-50.8	14.7	0.00e+00	0	26	0	780140544	65	4145
2026-01-06 01:55:32.10	8.40	31.70	-49.5	-50.7	14.7	0.00e+00	0	26	0	783286272	65	4086
2026-01-06 01:55:33.10	8.20	31.86	-49.5	-50.7	14.7	0.00e+00	0	26	0	786432000	65	4092
2026-01-06 01:55:34.10	8.00	32.03	-49.6	-50.8	14.7	0.00e+00	0	26	0	789577728	65	4128
2026-01-06 01:55:35.11	7.80	32.20	-49.4	-50.6	14.8	0.00e+00	0	26	0	792723456	65	4030
2026-01-06 01:55:36.11	7.59	32.37	-49.4	-50.7	14.7	0.00e+00	0	26	0	795869184	65	4065
2026-01-06 01:55:37.11	7.38	32.54	-49.3	-50.5	14.8	0.00e+00	0	26	0	799014912	65	3985
2026-01-06 01:55:38.11	7.17	32.71	-49.3	-50.5	14.8	0.00e+00	0	26	0	802160640	65	4004
2026-01-06 01:55:39.11	6.96	32.89	-49.5	-50.7	14.7	0.00e+00	0	26	0	805306368	65	4078
2026-01-06 01:55:40.12	6.74	33.06	-49.7	-50.9	14.6	0.00e+00	0	26	0	808452096	65	4189
2026-01-06 01:55:41.12	6.52	33.23	-49.7	-51.0	14.6	0.00e+00	0	26	0	811597824	65	4224
2026-01-06 01:55:42.13	6.30	33.41	-49.6	-50.9	14.7	0.00e+00	0	26	0	814743552	65	4176
2026-01-06 01:55:43.14	6.08	33.58	-49.7	-50.9	14.6	0.00e+00	0	26	0	817889280	65	4180
2026-01-06 01:55:44.14	5.85	33.76	-49.6	-50.9	14.7	0.00e+00	0	26	0	821035008	65	4168
2026-01-06 01:55:45.15	5.62	33.93	-49.7	-51.0	14.6	0.00e+00	0	26	0	824180736	65	4200
2026-01-06 01:55:46.15	5.39	34.11	-49.8	-51.0	14.6	0.00e+00	0	26	0	827326464	65	4235
2026-01-06 01:55:47.15	5.16	34.28	-49.9	-51.2	14.5	0.00e+00	0	27	0	830472192	65	4330
2026-01-06 01:55:48.15	4.93	34.46	-50.0	-51.3	14.5	0.00e+00	0	26	0	833617920	65	4341
2026-01-06 01:55:49.15	4.69	34.63	-50.0	-51.4	14.5	0.00e+00	0	26	0	836763648	65	4395
2026-01-06 01:55:50.16	4.45	34.81	-50.1	-51.5	14.4	0.00e+00	0	26	0	839909376	65	4442
2026-01-06 01:55:51.16	4.21	34.99	-50.2	-51.6	14.4	0.00e+00	0	26	0	843055104	65	4507
2026-01-06 01:55:52.17	3.96	35.17	-50.4	-51.8	14.3	0.00e+00	0	27	0	846200832	65	4606
2026-01-06 01:55:53.16	3.71	35.34	-50.6	-52.0	14.4	0.00e+00	0	26	0	849346560	66	4446
2026-01-06 01:55:54.17	3.46	35.52	-50.5	-51.8	14.4	0.00e+00	0	26	0	852492288	66	4378
2026-01-06 01:55:55.16	3.21	35.70	-50.5	-51.8	14.4	0.00e+00	0	26	0	855638016	66	4385
2026-01-06 01:55:56.17	2.95	35.88	-50.5	-51.8	14.4	0.00e+00	0	26	0	858783744	66	4375
2026-01-06 01:55:57.17	2.69	36.06	-50.5	-51.9	14.4	0.00e+00	0	26	0	861929472	66	4422
2026-01-06 01:55:58.17	2.43	36.24	-50.6	-52.0	14.4	0.00e+00	0	26	0	865075200	66	4447
2026-01-06 01:55:59.18	2.16	36.42	-50.8	-52.2	14.3	0.00e+00	0	26	0	868220928	66	4585
2026-01-06 01:56:00.19	1.89	36.60	-50.9	-52.3	14.3	0.00e+00	0	26	0	871366656	67	4381
2026-01-06 01:56:01.18	1.62	36.78	-51.1	-52.5	14.3	0.00e+00	0	26	0	874512384	67	4459
2026-01-06 01:56:02.18	1.35	36.96	-51.0	-52.4	14.3	0.00e+00	0	26	0	877658112	67	4421
2026-01-06 01:56:03.18	1.07	37.14	-51.0	-52.5	14.3	0.00e+00	0	26	0	880803840	67	4443
2026-01-06 01:56:04.18	0.79	37.32	-51.2	-52.6	14.2	0.00e+00	0	26	0	883949568	67	4540
2026-01-06 01:56:05.19	0.50	37.51	-51.1	-52.5	14.3	0.00e+00	0	26	0	887095296	67	4462
2026-01-06 01:56:06.19	0.22	37.69	-51.0	-52.4	14.3	0.00e+00	0	26	0	890241024	67	4409
2026-01-06 01:56:07.19	359.93	37.87	-51.0	-52.4	14.3	0.00e+00	0	26	0	893386752	67	4415
2026-01-06 01:56:08.19	359.63	38.05	-51.0	-52.4	14.3	0.00e+00	0	26	0	896532480	67	4439
2026-01-06 01:56:09.19	359.34	38.23	-51.0	-52.5	14.3	0.00e+00	0	26	0	899678208	67	4443
2026-01-06 01:56:10.20	359.03	38.42	-51.1	-52.5	14.2	0.00e+00	0	26	0	902823936	67	4493
2026-01-06 01:56:11.20	358.73	38.60	-51.1	-52.6	14.2	0.00e+00	0	26	0	905969664	67	4525
2026-01-06 01:56:12.20	358.42	38.78	-51.2	-52.6	14.2	0.00e+00	0	26	0	909115392	67	4529
2026-01-06 01:56:13.20	358.11	38.96	-51.3	-52.8	14.1	0.00e+00	0	26	0	912261120	67	4624
2026-01-06 01:56:14.21	357.79	39.15	-51.5	-53.0	14.2	0.00e+00	0	26	0	915406848	68	4491
2026-01-06 01:56:15.22	357.47	39.33	-51.5	-53.0	14.2	0.00e+00	0	26	0	918552576	68	4443
2026-01-06 01:56:16.22	357.15	39.51	-51.4	-52.8	14.3	0.00e+00	0	26	0	921698304	68	4376
2026-01-06 01:56:17.22	356.83	39.70	-51.3	-52.7	14.3	0.00e+00	0	26	0	924844032	68	4318
2026-01-06 01:56:18.23	356.50	39.88	-51.2	-52.7	14.3	0.00e+00	0	26	0	927989760	68	4297
2026-01-06 01:56:19.24	356.16	40.06	-51.3	-52.7	14.3	0.00e+00	0	26	0	931135488	68	4337
2026-01-06 01:56:20.24	355.82	40.24	-51.3	-52.7	14.3	0.00e+00	0	26	0	934281216	68	4326
2026-01-06 01:56:21.25	355.48	40.43	-51.4	-52.8	14.3	0.00e+00	0	26	0	937426944	68	4371
2026-01-06 01:56:22.25	355.14	40.61	-51.5	-52.9	14.2	0.00e+00	0	26	0	940572672	68	4431
2026-01-06 01:56:23.26	354.79	40.79	-51.5	-53.0	14.2	0.00e+00	0	26	0	943718400	68	4482
2026-01-06 01:56:24.27	354.43	40.97	-51.6	-53.1	14.2	0.00e+00	0	26	0	946864128	68	4494
2026-01-06 01:56:25.27	354.07	41.15	-51.7	-53.1	14.1	0.00e+00	0	26	0	950009856	68	4542
2026-01-06 01:56:26.27	353.71	41.33	-51.7	-53.2	14.1	0.00e+00	0	26	0	953155584	68	4556
2026-01-06 01:56:27.28	353.35	41.51	-52.0	-53.6	14.0	0.00e+00	0	26	0	956301312	69	4521
2026-01-06 01:56:28.27	352.98	41.69	-52.1	-53.7	14.0	0.00e+00	0	26	0	959447040	69	4547
2026-01-06 01:56:29.28	352.61	41.87	-52.1	-53.7	14.0	0.00e+00	0	26	0	962592768	69	4570
2026-01-06 01:56:30.28	352.23	42.05	-52.3	-53.9	13.9	0.00e+00	0	26	0	965738496	69	4688
2026-01-06 01:56:31.28	351.85	42.22	-52.3	-53.9	13.9	0.00e+00	0	26	0	968884224	69	4701
2026-01-06 01:56:32.28	351.47	42.40	-52.3	-53.9	14.0	0.00e+00	0	26	0	972029952	70	4422
2026-01-06 01:56:33.29	351.07	42.58	-52.1	-53.7	14.1	0.00e+00	0	26	0	975175680	70	4294
2026-01-06 01:56:34.28	350.68	42.75	-51.9	-53.4	14.3	0.00e+00	0	26	0	978321408	70	4146
2026-01-06 01:56:35.28	350.29	42.93	-51.9	-53.4	14.3	0.00e+00	0	26	0	981467136	70	4161
2026-01-06 01:56:36.28	349.88	43.10	-52.1	-53.6	14.1	0.00e+00	0	27	0	984612864	70	4280
2026-01-06 01:56:37.28	349.48	43.27	-52.1	-53.7	14.1	0.00e+00	0	26	0	987758592	70	4322
2026-01-06 01:56:38.28	349.07	43.45	-52.2	-53.8	14.0	0.00e+00	0	27	0	990904320	70	4391
2026-01-06 01:56:39.29	348.65	43.62	-52.5	-54.2	13.9	0.00e+00	0	27	0	993001472	70	4548
2026-01-06 01:56:40.30	348.22	43.79	-52.6	-54.3	13.8	0.00e+00	0	27	0	996147200	70	4641
2026-01-06 01:56:41.30	347.80	43.96	-52.6	-54.3	13.8	0.00e+00	0	26	0	1000341504	70	4631
2026-01-06 01:56:42.30	347.37	44.13	-52.7	-54.4	13.8	0.00e+00	0	26	0	1002438656	70	4652
2026-01-06 01:56:43.31	346.93	44.30	-52.7	-54.4	13.7	0.00e+00	0	26	0	1006632960	70	4694
2026-01-06 01:56:44.31	346.50	44.46	-52.6	-54.3	13.8	0.00e+00	0	26	0	1009778688	70	4623
2026-01-06 01:56:45.31	346.05	44.63	-52.5	-54.1	13.9	0.00e+00	0	26	0	1012924416	70	4541
2026-01-06 01:56:46.32	345.60	44.79	-52.4	-54.0	13.9	0.00e+00	0	26	0	1015021568	70	4489
2026-01-06 01:56:47.32	345.15	44.95	-52.4	-54.0	14.0	0.00e+00	0	26	0	1018167296	70	4454
2026-01-06 01:56:48.32	344.69	45.11	-52.3	-53.9	14.0	0.00e+00	0	26	0	1021313024	70	4403
2026-01-06 01:56:49.32	344.23	45.27	-52.2	-53.8	14.0	0.00e+00	0	26	0	1024458752	70	4375
2026-01-06 01:56:50.32	343.76	45.43	-52.1	-53.7	14.1	0.00e+00	0	26	0	1027604480	70	4294
2026-01-06 01:56:51.32	343.29	45.59	-52.3	-53.9	14.0	0.00e+00	0	26	0	1030750208	70	4405
2026-01-06 01:56:52.33	342.81	45.74	-52.2	-53.8	14.1	0.00e+00	0	26	0	1033895936	70	4376
2026-01-06 01:56:53.33	342.33	45.90	-51.8	-53.2	14.4	0.00e+00	0	26	0	1037041664	70	4083
2026-01-06 01:56:54.33	341.85	46.05	-51.4	-52.8	14.4	0.00e+00	0	26	0	1040187392	69	4126
2026-01-06 01:56:55.34	341.35	46.20	-51.4	-52.9	14.3	0.00e+00	0	27	0	1043333120	69	4146
2026-01-06 01:56:56.34	340.86	46.35	-51.8	-53.3	14.2	0.00e+00	0	26	0	1046478848	69	4344
2026-01-06 01:56:57.36	340.35	46.50	-52.1	-53.7	14.0	0.00e+00	0	26	0	1049624576	69	4555
2026-01-06 01:56:58.35	339.85	46.64	-52.1	-53.7	14.0	0.00e+00	0	26	0	1052770304	69	4588
2026-01-06 01:56:59.35	339.35	46.78	-52.0	-53.5	14.1	0.00e+00	0	26	0	1055916032	69	4468
2026-01-06 01:57:00.36	338.83	46.92	-52.0	-53.5	14.1	0.00e+00	0	26	0	1059061760	69	4448
2026-01-06 01:57:01.36	338.31	47.06	-52.0	-53.6	14.1	0.00e+00	0	26	0	1062207488	69	4510
2026-01-06 01:57:02.36	337.79	47.20	-52.4	-54.0	13.9	0.00e+00	0	26	0	1065353216	69	4748
2026-01-06 01:57:03.37	337.26	47.33	-52.7	-54.4	13.8	0.00e+00	0	26	0	1068498944	70	4669
2026-01-06 01:57:04.37	336.72	47.46	-52.7	-54.4	13.8	0.00e+00	0	26	0	1071644672	70	4653
2026-01-06 01:57:05.38	336.18	47.59	-52.5	-54.2	13.9	0.00e+00	0	27	0	1074790400	70	4558
2026-01-06 01:57:06.38	335.64	47.72	-52.5	-54.2	13.9	0.00e+00	0	26	0	1077936128	70	4548
2026-01-06 01:57:07.38	335.10	47.84	-52.7	-54.4	13.8	0.00e+00	0	26	0	1081081856	70	4676
2026-01-06 01:57:08.38	334.55	47.97	-52.6	-54.2	13.8	0.00e+00	0	26	0	1084227584	70	4592
2026-01-06 01:57:09.39	333.99	48.09	-52.3	-53.9	14.0	0.00e+00	0	26	0	1087373312	70	4428
2026-01-06 01:57:10.40	333.43	48.20	-52.2	-53.8	14.1	0.00e+00	0	26	0	1090519040	70	4351
2026-01-06 01:57:11.40	332.87	48.32	-52.1	-53.6	14.2	0.00e+00	0	26	0	1093664768	70	4249
2026-01-06 01:57:12.40	332.30	48.43	-52.2	-53.8	14.1	0.00e+00	0	27	0	1096810496	70	4361
2026-01-06 01:57:13.40	331.73	48.54	-52.4	-54.0	14.0	0.00e+00	0	26	0	1099956224	70	4464
2026-01-06 01:57:14.41	331.15	48.64	-52.1	-53.7	14.1	0.00e+00	0	26	0	1103101952	70	4314
2026-01-06 01:57:15.41	330.57	48.75	-52.1	-53.7	14.1	0.00e+00	0	26	0	1106247680	70	4310
2026-01-06 01:57:16.41	329.99	48.85	-51.9	-53.4	14.3	0.00e+00	0	26	0	1109393408	70	4175
2026-01-06 01:57:17.42	329.40	48.94	-51.8	-53.3	14.3	0.00e+00	0	26	0	1112539136	70	4132
2026-01-06 01:57:18.42	328.81	49.04	-51.9	-53.4	14.3	0.00e+00	0	26	0	1115684864	70	4186
2026-01-06 01:57:19.43	328.21	49.13	-51.6	-53.1	14.3	0.00e+00	0	26	0	1118830592	69	4264
2026-01-06 01:57:20.44	327.61	49.22	-51.5	-53.0	14.4	0.00e+00	0	26	0	1121976320	69	4200
2026-01-06 01:57:21.44	327.01	49.30	-51.5	-53.0	14.4	0.00e+00	0	26	0	1125122048	69	4196
2026-01-06 01:57:22.45	326.40	49.38	-51.7	-53.1	14.3	0.00e+00	0	26	0	1128267776	69	4287
2026-01-06 01:57:23.45	325.79	49.46	-51.9	-53.4	14.1	0.00e+00	0	27	0	1131413504	69	4415
2026-01-06 01:57:24.45	325.18	49.53	-51.6	-53.1	14.3	0.00e+00	0	26	0	1134559232	69	4275
2026-01-06 01:57:25.46	324.57	49.61	-51.6	-53.0	14.3	0.00e+00	0	26	0	1137704960	69	4217
2026-01-06 01:57:26.46	323.95	49.67	-51.7	-53.2	14.3	0.00e+00	0	26	0	1140850688	69	4319
2026-01-06 01:57:27.47	323.33	49.74	-51.6	-53.1	14.3	0.00e+00	0	26	0	1143996416	69	4259
2026-01-06 01:57:28.47	322.71	49.80	-51.6	-53.1	14.3	0.00e+00	0	26	0	1147142144	69	4270
2026-01-06 01:57:29.47	322.08	49.86	-51.8	-53.3	14.2	0.00e+00	0	26	0	1150287872	69	4366
2026-01-06 01:57:30.48	321.45	49.91	-51.7	-53.2	14.3	0.00e+00	0	27	0	1153433600	69	4301
2026-01-06 01:57:31.48	320.83	49.96	-51.9	-53.4	14.2	0.00e+00	0	26	0	1156579328	69	4408
2026-01-06 01:57:32.49	320.19	50.01	-52.1	-53.6	14.1	0.00e+00	0	26	0	1159725056	69	4501
2026-01-06 01:57:33.49	319.56	50.05	-52.0	-53.5	14.0	0.00e+00	0	26	0	1162870784	69	4491
2026-01-06 01:57:34.50	318.92	50.09	-51.9	-53.4	14.1	0.00e+00	0	27	0	1166016512	69	4420
2026-01-06 01:57:35.51	318.28	50.12	-51.8	-53.2	14.2	0.00e+00	0	26	0	1169162240	69	4340
2026-01-06 01:57:36.51	317.64	50.15	-51.7	-53.1	14.2	0.00e+00	0	26	0	1172307968	69	4291
2026-01-06 01:57:37.51	317.01	50.18	-51.6	-53.0	14.3	0.00e+00	0	26	0	1175453696	69	4206
2026-01-06 01:57:38.51	316.37	50.20	-51.4	-52.9	14.4	0.00e+00	0	26	0	1178599424	69	4146
2026-01-06 01:57:39.52	315.72	50.22	-51.6	-53.0	14.4	0.00e+00	0	26	0	1181745152	69	4233
2026-01-06 01:57:40.52	315.08	50.24	-51.7	-53.1	14.3	0.00e+00	0	26	0	1184890880	69	4268
2026-01-06 01:57:41.52	314.44	50.25	-51.5	-53.0	14.4	0.00e+00	0	26	0	1188036608	69	4205
2026-01-06 01:57:42.53	313.80	50.26	-51.7	-53.2	14.3	0.00e+00	0	26	0	1191182336	69	4325
2026-01-06 01:57:43.53	313.16	50.27	-51.8	-53.2	14.3	0.00e+00	0	26	0	1194328064	69	4329
2026-01-06 01:57:44.54	312.51	50.27	-51.7	-53.2	14.3	0.00e+00	0	26	0	1197473792	69	4315
2026-01-06 01:57:45.54	311.87	50.26	-51.6	-53.0	14.3	0.00e+00	0	26	0	1200619520	69	4226
2026-01-06 01:57:46.54	311.23	50.26	-51.4	-52.8	14.4	0.00e+00	0	26	0	1203765248	69	4138
2026-01-06 01:57:47.55	310.58	50.25	-51.6	-53.0	14.3	0.00e+00	0	26	0	1206910976	69	4230
2026-01-06 01:57:48.56	309.93	50.23	-51.7	-53.2	14.3	0.00e+00	0	26	0	1210056704	69	4304
2026-01-06 01:57:49.57	309.29	50.21	-51.8	-53.3	14.2	0.00e+00	0	26	0	1213202432	69	4381
2026-01-06 01:57:50.57	308.65	50.19	-52.0	-53.5	14.1	0.00e+00	0	26	0	1216348160	69	4489
2026-01-06 01:57:51.58	308.00	50.17	-52.0	-53.6	14.1	0.00e+00	0	26	0	1219493888	69	4498
2026-01-06 01:57:52.59	307.36	50.14	-51.9	-53.4	14.2	0.00e+00	0	26	0	1222639616	69	4393
2026-01-06 01:57:53.60	306.72	50.10	-52.0	-53.5	14.2	0.00e+00	0	26	0	1225785344	69	4457
2026-01-06 01:57:54.60	306.09	50.06	-52.1	-53.6	14.1	0.00e+00	0	26	0	1228931072	69	4537
2026-01-06 01:57:55.60	305.46	50.02	-52.2	-53.7	14.0	0.00e+00	0	26	0	1232076800	69	4596
2026-01-06 01:57:56.60	304.83	49.98	-52.1	-53.6	14.1	0.00e+00	0	26	0	1235222528	69	4520
2026-01-06 01:57:57.60	304.20	49.93	-52.2	-53.8	14.0	0.00e+00	0	26	0	1238368256	69	4628
2026-01-06 01:57:58.60	303.57	49.88	-52.0	-53.5	14.1	0.00e+00	0	26	0	1241513984	69	4483
2026-01-06 01:57:59.60	302.95	49.82	-51.6	-53.1	14.3	0.00e+00	0	26	0	1244659712	69	4263
2026-01-06 01:58:00.60	302.33	49.76	-51.7	-53.2	14.3	0.00e+00	0	27	0	1247805440	69	4317
2026-01-06 01:58:01.61	301.70	49.70	-51.7	-53.1	14.3	0.00e+00	0	26	0	1250951168	69	4280
2026-01-06 01:58:02.61	301.08	49.64	-51.8	-53.3	14.2	0.00e+00	0	27	0	1254096896	69	4368
2026-01-06 01:58:03.61	300.47	49.57	-52.0	-53.5	14.1	0.00e+00	0	26	0	1257242624	69	4457
2026-01-06 01:58:04.62	299.85	49.49	-51.8	-53.3	14.2	0.00e+00	0	26	0	1260388352	69	4362
2026-01-06 01:58:05.62	299.24	49.42	-51.7	-53.2	14.3	0.00e+00	0	26	0	1263534080	69	4300
2026-01-06 01:58:06.62	298.64	49.34	-51.6	-53.1	14.3	0.00e+00	0	26	0	1266679808	69	4246
2026-01-06 01:58:07.63	298.03	49.25	-51.7	-53.2	14.2	0.00e+00	0	27	0	1269825536	69	4297
2026-01-06 01:58:08.62	297.44	49.17	-52.0	-53.5	14.1	0.00e+00	0	27	0	1272971264	69	4450
2026-01-06 01:58:09.62	296.85	49.08	-52.0	-53.5	14.1	0.00e+00	0	26	0	1276116992	69	4469
2026-01-06 01:58:10.62	296.25	48.99	-51.9	-53.4	14.1	0.00e+00	0	26	0	1279262720	69	4428
2026-01-06 01:58:11.63	295.66	48.89	-51.6	-53.1	14.3	0.00e+00	0	26	0	1282408448	69	4255
2026-01-06 01:58:12.63	295.08	48.79	-51.5	-52.9	14.4	0.00e+00	0	27	0	1285554176	69	4171
2026-01-06 01:58:13.63	294.50	48.69	-51.3	-52.7	14.5	0.00e+00	0	26	0	1288699904	69	4093
2026-01-06 01:58:14.63	293.92	48.59	-51.5	-52.9	14.4	0.00e+00	0	26	0	1291845632	69	4188
2026-01-06 01:58:15.64	293.34	48.48	-51.6	-53.1	14.3	0.00e+00	0	26	0	1294991360	69	4253
2026-01-06 01:58:16.64	292.77	48.37	-51.9	-53.5	14.1	0.00e+00	0	26	0	1298137088	69	4444
2026-01-06 01:58:17.64	292.21	48.26	-51.7	-53.2	14.2	0.00e+00	0	27	0	1301282816	69	4297
2026-01-06 01:58:18.65	291.64	48.14	-51.6	-53.0	14.3	0.00e+00	0	26	0	1304428544	69	4236
2026-01-06 01:58:19.65	291.09	48.02	-51.5	-52.9	14.4	0.00e+00	0	26	0	1307574272	69	4161
2026-01-06 01:58:20.65	290.54	47.90	-50.8	-52.1	14.6	0.00e+00	0	26	0	1310720000	68	4047
2026-01-06 01:58:21.65	289.99	47.78	-50.8	-52.1	14.7	0.00e+00	0	26	0	1313865728	68	4017
2026-01-06 01:58:22.65	289.45	47.65	-51.2	-52.5	14.4	0.00e+00	0	26	0	1317011456	68	4239
2026-01-06 01:58:23.66	288.90	47.52	-51.7	-53.2	14.2	0.00e+00	0	27	0	1320157184	68	4574
2026-01-06 01:58:24.67	288.36	47.39	-52.2	-53.8	14.0	0.00e+00	0	26	0	1323302912	69	4607
2026-01-06 01:58:25.67	287.83	47.26	-52.6	-54.3	13.9	0.00e+00	0	26	0	1326448640	70	4618
2026-01-06 01:58:26.67	287.31	47.12	-52.4	-54.0	14.0	0.00e+00	0	26	0	1329594368	70	4470
2026-01-06 01:58:27.67	286.79	46.98	-52.1	-53.6	14.2	0.00e+00	0	26	0	1332740096	70	4290
2026-01-06 01:58:28.67	286.27	46.85	-51.8	-53.2	14.4	0.00e+00	0	27	0	1335885824	70	4091
2026-01-06 01:58:29.67	285.76	46.70	-51.2	-52.5	14.6	0.00e+00	0	27	0	1339031552	69	4003
2026-01-06 01:58:30.68	285.25	46.56	-51.7	-53.1	14.3	0.00e+00	0	26	0	1341128704	69	4272
2026-01-06 01:58:31.68	284.75	46.41	-52.3	-53.9	13.9	0.00e+00	0	26	0	1344274432	69	4696
2026-01-06 01:58:32.68	284.25	46.27	-52.8	-54.5	13.6	0.00e+00	0	26	0	1347420160	70	4740
2026-01-06 01:58:33.69	283.75	46.12	-52.4	-54.0	13.9	0.00e+00	0	26	0	1350565888	70	4465
2026-01-06 01:58:34.69	283.27	45.96	-51.7	-53.2	14.3	0.00e+00	0	26	0	1353711616	70	4057
2026-01-06 01:58:35.70	282.78	45.81	-51.3	-52.7	14.5	0.00e+00	0	26	0	1356857344	69	4070
2026-01-06 01:58:36.70	282.30	45.66	-51.3	-52.7	14.4	0.00e+00	0	26	0	1360003072	69	4086
2026-01-06 01:58:37.70	281.83	45.50	-52.0	-53.5	14.1	0.00e+00	0	26	0	1363148800	69	4443
2026-01-06 01:58:38.70	281.36	45.34	-53.2	-55.0	13.5	0.00e+00	0	26	0	1366294528	71	4756
2026-01-06 01:58:39.70	280.89	45.18	-54.2	-56.3	13.0	0.00e+00	0	27	0	1369440256	73	4900
2026-01-06 01:58:40.70	280.43	45.02	-53.5	-55.4	13.3	0.00e+00	0	26	0	1372585984	73	4434
2026-01-06 01:58:41.70	279.98	44.86	-52.2	-53.8	14.0	0.00e+00	0	27	0	1375731712	71	4108
2026-01-06 01:58:42.71	279.52	44.70	-50.9	-52.3	14.4	0.00e+00	0	26	0	1378877440	68	4112
2026-01-06 01:58:43.71	279.08	44.53	-50.7	-52.0	14.6	0.00e+00	0	26	0	1382023168	68	3990
2026-01-06 01:58:44.72	278.63	44.37	-51.1	-52.5	14.4	0.00e+00	0	27	0	1385168896	68	4207
2026-01-06 01:58:45.72	278.20	44.20	-51.5	-52.9	14.2	0.00e+00	0	26	0	1388314624	68	4435
2026-01-06 01:58:46.72	277.77	44.03	-52.6	-54.3	13.8	0.00e+00	0	26	0	1391460352	70	4617
2026-01-06 01:58:47.73	277.33	43.86	-53.7	-55.7	13.3	0.00e+00	0	26	0	1394606080	72	4863
2026-01-06 01:58:48.73	276.91	43.69	-54.0	-56.1	13.1	0.00e+00	0	26	0	1397751808	73	4771
2026-01-06 01:58:49.73	276.49	43.52	-52.7	-54.4	13.7	0.00e+00	0	26	0	1400897536	72	4177
2026-01-06 01:58:50.74	276.08	43.35	-51.2	-53.0	14.1	0.00e+00	0	26	0	1404043264	69	4237
2026-01-06 01:58:51.74	275.67	43.17	-51.5	-53.0	14.2	0.00e+00	0	26	0	1407188992	69	4200
2026-01-06 01:58:52.75	275.26	43.00	-52.0	-53.5	14.0	0.00e+00	0	26	0	1410334720	69	4492
2026-01-06 01:58:53.75	274.86	42.82	-52.3	-53.9	13.7	0.00e+00	0	26	0	1413480448	69	4692
2026-01-06 01:58:54.76	274.46	42.65	-52.5	-54.2	13.7	0.00e+00	0	27	0	1416626176	70	4550
2026-01-06 01:58:55.76	274.07	42.47	-52.7	-54.3	13.7	0.00e+00	0	27	0	1419771904	70	4648
2026-01-06 01:58:56.76	273.68	42.29	-52.7	-54.3	13.8	0.00e+00	0	26	0	1422917632	70	4642
2026-01-06 01:58:57.76	273.30	42.12	-52.4	-54.0	14.0	0.00e+00	0	26	0	1426063360	70	4482
2026-01-06 01:58:58.77	272.91	41.94	-51.9	-53.4	14.2	0.00e+00	0	26	0	1429209088	70	4181
2026-01-06 01:58:59.76	272.54	41.76	-51.4	-52.7	14.4	0.00e+00	0	26	0	1432354816	69	4098
2026-01-06 01:59:00.77	272.17	41.58	-51.0	-52.4	14.5	0.00e+00	0	26	0	1435500544	68	4172
2026-01-06 01:59:01.77	271.80	41.40	-51.5	-53.0	14.2	0.00e+00	0	26	0	1438646272	68	4465
2026-01-06 01:59:02.78	271.44	41.22	-52.2	-53.7	14.0	0.00e+00	0	26	0	1441792000	69	4583
2026-01-06 01:59:03.78	271.08	41.04	-52.9	-54.6	13.7	0.00e+00	0	26	0	1444937728	70	4788
2026-01-06 01:59:04.79	270.72	40.86	-53.5	-55.4	13.4	0.00e+00	0	26	0	1448083456	72	4696
2026-01-06 01:59:05.80	270.37	40.67	-53.3	-55.2	13.5	0.00e+00	0	27	0	1451229184	72	4567
2026-01-06 01:59:06.80	270.02	40.49	-52.5	-54.1	14.0	0.00e+00	0	26	0	1454374912	71	4279
2026-01-06 01:59:07.81	269.68	40.31	-51.9	-53.4	14.2	0.00e+00	0	27	0	1457520640	70	4191
2026-01-06 01:59:08.81	269.34	40.13	-51.8	-53.3	14.3	0.00e+00	0	26	0	1460666368	70	4127
2026-01-06 01:59:09.81	269.00	39.94	-51.8	-53.3	14.3	0.00e+00	0	26	0	1463812096	70	4142
2026-01-06 01:59:10.81	268.67	39.76	-51.7	-53.2	14.3	0.00e+00	0	26	0	1466957824	70	4058
2026-01-06 01:59:11.81	268.35	39.58	-51.8	-53.3	14.2	0.00e+00	0	26	0	1470103552	69	4349
2026-01-06 01:59:12.81	268.02	39.40	-52.1	-53.7	13.9	0.00e+00	0	26	0	1473249280	69	4572
2026-01-06 01:59:13.81	267.70	39.22	-52.5	-54.2	13.8	0.00e+00	0	27	0	1476395008	70	4553
2026-01-06 01:59:14.82	267.38	39.03	-52.8	-54.6	13.7	0.00e+00	0	27	0	1479540736	70	4790
2026-01-06 01:59:15.82	267.07	38.85	-52.6	-54.3	13.8	0.00e+00	0	27	0	1482686464	70	4622
2026-01-06 01:59:16.83	266.76	38.66	-52.2	-53.7	14.0	0.00e+00	0	27	0	1485832192	70	4331
2026-01-06 01:59:17.83	266.45	38.48	-51.8	-53.3	14.2	0.00e+00	0	26	0	1488977920	70	4131
2026-01-06 01:59:18.83	266.15	38.30	-51.6	-53.1	14.3	0.00e+00	0	27	0	1492123648	69	4247
2026-01-06 01:59:19.83	265.85	38.12	-51.0	-52.4	14.5	0.00e+00	0	27	0	1495269376	68	4169
2026-01-06 01:59:20.83	265.56	37.93	-51.2	-52.6	14.4	0.00e+00	0	26	0	1498415104	68	4270
2026-01-06 01:59:21.82	265.27	37.75	-51.5	-53.0	14.2	0.00e+00	0	27	0	1501560832	68	4449
2026-01-06 01:59:22.83	264.97	37.57	-51.6	-53.1	14.1	0.00e+00	0	26	0	1504706560	68	4515
2026-01-06 01:59:23.83	264.69	37.39	-51.8	-53.4	14.0	0.00e+00	0	26	0	1507852288	68	4654
2026-01-06 01:59:24.84	264.40	37.21	-52.0	-53.6	14.1	0.00e+00	0	26	0	1510998016	69	4507
2026-01-06 01:59:25.84	264.12	37.02	-51.8	-53.3	14.2	0.00e+00	0	27	0	1514143744	69	4370
2026-01-06 01:59:26.85	263.85	36.84	-51.6	-53.0	14.3	0.00e+00	0	26	0	1517289472	69	4241
2026-01-06 01:59:27.85	263.57	36.66	-51.5	-53.0	14.3	0.00e+00	0	26	0	1520435200	69	4194
2026-01-06 01:59:28.86	263.30	36.48	-51.3	-52.8	14.4	0.00e+00	0	26	0	1523580928	69	4104
2026-01-06 01:59:29.86	263.03	36.30	-50.4	-51.7	14.6	0.00e+00	0	27	0	1526726656	67	4068
2026-01-06 01:59:30.86	262.77	36.12	-50.0	-51.2	14.7	0.00e+00	0	27	0	1529872384	66	4083
2026-01-06 01:59:31.87	262.50	35.94	-49.7	-51.0	14.8	0.00e+00	0	26	0	1533018112	66	3976
2026-01-06 01:59:32.87	262.25	35.76	-49.8	-51.0	14.8	0.00e+00	0	27	0	1536163840	66	3981
2026-01-06 01:59:33.87	261.99	35.58	-50.0	-51.2	14.7	0.00e+00	0	27	0	1539309568	66	4083
2026-01-06 01:59:34.88	261.74	35.40	-50.2	-51.4	14.6	0.00e+00	0	26	0	1542455296	66	4192
2026-01-06 01:59:35.88	261.49	35.22	-50.2	-51.5	14.6	0.00e+00	0	27	0	1545601024	66	4203
2026-01-06 01:59:36.88	261.24	35.04	-50.1	-51.4	14.6	0.00e+00	0	27	0	1548746752	66	4152
2026-01-06 01:59:37.88	260.99	34.86	-50.0	-51.2	14.7	0.00e+00	0	26	0	1551892480	66	4097
2026-01-06 01:59:38.89	260.75	34.68	-50.0	-51.3	14.6	0.00e+00	0	26	0	1555038208	66	4134
2026-01-06 01:59:39.89	260.51	34.51	-49.8	-51.1	14.7	0.00e+00	0	26	0	1558183936	66	4018
2026-01-06 01:59:40.90	260.27	34.33	-50.0	-51.3	14.7	0.00e+00	0	26	0	1561329664	66	4104
2026-01-06 01:59:41.91	260.04	34.15	-50.4	-51.7	14.5	0.00e+00	0	26	0	1564475392	66	4320
2026-01-06 01:59:42.91	259.81	33.98	-50.7	-52.1	14.3	0.00e+00	0	26	0	1567621120	66	4540
2026-01-06 01:59:43.91	259.58	33.80	-50.8	-52.3	14.2	0.00e+00	0	26	0	1570766848	66	4605
2026-01-06 01:59:44.93	259.35	33.62	-50.7	-52.1	14.3	0.00e+00	0	26	0	1573912576	66	4522
2026-01-06 01:59:45.93	259.12	33.45	-50.6	-52.0	14.3	0.00e+00	0	27	0	1577058304	66	4490
2026-01-06 01:59:46.93	258.90	33.27	-50.6	-52.0	14.4	0.00e+00	0	27	0	1580204032	66	4456
2026-01-06 01:59:47.93	258.68	33.10	-50.5	-51.9	14.4	0.00e+00	0	26	0	1583349760	66	4413
2026-01-06 01:59:48.93	258.47	32.93	-50.1	-51.5	14.6	0.00e+00	0	27	0	1586495488	66	4198
2026-01-06 01:59:49.93	258.25	32.76	-50.1	-51.5	14.6	0.00e+00	0	27	0	1589641216	66	4195
2026-01-06 01:59:50.93	258.04	32.59	-50.2	-51.6	14.5	0.00e+00	0	26	0	1592786944	66	4250
2026-01-06 01:59:51.93	257.83	32.41	-50.1	-51.4	14.6	0.00e+00	0	26	0	1595932672	66	4173
2026-01-06 01:59:52.92	257.62	32.25	-49.9	-51.1	14.7	0.00e+00	0	26	0	1599078400	66	4042
2026-01-06 01:59:53.93	257.42	32.07	-49.5	-50.8	14.7	0.00e+00	0	26	0	1602224128	65	4112
2026-01-06 01:59:54.93	257.21	31.90	-49.6	-50.8	14.7	0.00e+00	0	27	0	1605369856	65	4135
2026-01-06 01:59:55.93	257.01	31.74	-49.6	-50.8	14.7	0.00e+00	0	26	0	1608515584	65	4135
2026-01-06 01:59:56.93	256.81	31.57	-49.7	-50.9	14.7	0.00e+00	0	27	0	1611661312	65	4185
2026-01-06 01:59:57.94	256.61	31.40	-49.8	-51.1	14.6	0.00e+00	0	26	0	1614807040	65	4244
2026-01-06 01:59:58.94	256.42	31.23	-49.9	-51.2	14.6	0.00e+00	0	27	0	1616904192	65	4292
2026-01-06 01:59:59.94	256.23	31.06	-49.8	-51.1	14.6	0.00e+00	0	26	0	1620049920	65	4265
2026-01-06 02:00:00.94	256.04	30.90	-49.7	-51.0	14.6	0.00e+00	0	27	0	1623195648	65	4218
2026-01-06 02:00:01.95	255.85	30.73	-49.5	-50.7	14.7	0.00e+00	0	27	0	1626341376	65	4090
2026-01-06 02:00:02.95	255.66	30.57	-49.3	-50.5	14.8	0.00e+00	0	27	0	1629487104	65	3992
2026-01-06 02:00:03.95	255.47	30.40	-49.4	-50.6	14.8	0.00e+00	0	27	0	1632632832	65	4034
2026-01-06 02:00:04.96	255.29	30.24	-49.4	-50.6	14.8	0.00e+00	0	27	0	1636827136	65	4036
2026-01-06 02:00:05.96	255.11	30.07	-49.4	-50.6	14.8	0.00e+00	0	26	0	1638924288	65	4034
2026-01-06 02:00:06.96	254.93	29.91	-49.5	-50.7	14.7	0.00e+00	0	26	0	1642070016	65	4097
2026-01-06 02:00:07.97	254.75	29.75	-49.6	-50.9	14.7	0.00e+00	0	26	0	1645215744	65	4162
2026-01-06 02:00:08.98	254.57	29.59	-49.7	-51.0	14.6	0.00e+00	0	27	0	1648361472	65	4220
2026-01-06 02:00:09.98	254.40	29.43	-49.9	-51.1	14.6	0.00e+00	0	27	0	1651507200	65	4287
2026-01-06 02:00:10.98	254.22	29.27	-49.8	-51.0	14.6	0.00e+00	0	27	0	1654652928	65	4238
2026-01-06 02:00:11.99	254.05	29.10	-49.7	-51.0	14.6	0.00e+00	0	27	0	1657798656	65	4221
2026-01-06 02:00:13.00	253.88	28.94	-49.8	-51.1	14.6	0.00e+00	0	27	0	1660944384	65	4260
2026-01-06 02:00:14.00	253.72	28.79	-49.7	-51.0	14.6	0.00e+00	0	26	0	1664090112	65	4230
2026-01-06 02:00:15.01	253.55	28.63	-49.6	-50.9	14.6	0.00e+00	0	27	0	1667235840	65	4168
2026-01-06 02:00:16.01	253.38	28.47	-49.7	-50.9	14.6	0.00e+00	0	27	0	1670381568	65	4193
2026-01-06 02:00:17.01	253.22	28.31	-49.6	-50.9	14.6	0.00e+00	0	26	0	1673527296	65	4174
2026-01-06 02:00:18.01	253.06	28.16	-49.5	-50.8	14.7	0.00e+00	0	26	0	1676673024	65	4122
2026-01-06 02:00:19.00	252.90	28.00	-49.6	-50.8	14.7	0.00e+00	0	26	0	1679818752	65	4123
2026-01-06 02:00:20.00	252.75	27.85	-49.4	-50.6	14.8	0.00e+00	0	27	0	1682964480	65	4032
2026-01-06 02:00:21.01	252.59	27.69	-49.2	-50.4	14.9	0.00e+00	0	27	0	1686110208	65	3928
2026-01-06 02:00:22.01	252.44	27.54	-49.1	-50.3	14.7	0.00e+00	0	27	0	1689255936	64	4133
2026-01-06 02:00:23.01	252.28	27.39	-49.0	-50.2	14.8	0.00e+00	0	26	0	1692401664	64	4062
2026-01-06 02:00:24.01	252.13	27.24	-48.9	-50.1	14.8	0.00e+00	0	26	0	1695547392	64	4011
2026-01-06 02:00:25.01	251.98	27.09	-48.7	-49.8	14.9	0.00e+00	0	27	0	1698693120	64	3905
2026-01-06 02:00:26.01	251.83	26.94	-48.7	-49.9	14.8	0.00e+00	0	27	0	1701838848	63	4160
2026-01-06 02:00:27.02	251.68	26.78	-48.9	-50.0	14.7	0.00e+00	0	26	0	1704984576	63	4236
2026-01-06 02:00:28.02	251.54	26.63	-48.9	-50.0	14.7	0.00e+00	0	27	0	1708130304	63	4240
2026-01-06 02:00:29.02	251.39	26.49	-49.0	-50.2	14.7	0.00e+00	0	27	0	1711276032	63	4325
2026-01-06 02:00:30.01	251.25	26.34	-49.1	-50.3	14.7	0.00e+00	0	26	0	1714421760	63	4349
2026-01-06 02:00:31.02	251.11	26.19	-49.1	-50.3	14.7	0.00e+00	0	27	0	1717567488	63	4384
2026-01-06 02:00:32.02	250.97	26.04	-49.1	-50.3	14.6	0.00e+00	0	26	0	1720713216	63	4385
2026-01-06 02:00:33.03	250.83	25.89	-49.2	-50.4	14.6	0.00e+00	0	27	0	1723858944	63	4411
2026-01-06 02:00:34.03	250.69	25.75	-49.3	-50.6	14.6	0.00e+00	0	26	0	1727004672	63	4497
2026-01-06 02:00:35.04	250.55	25.60	-49.4	-50.7	14.6	0.00e+00	0	27	0	1730150400	63	4568
2026-01-06 02:00:36.03	250.42	25.46	-49.6	-50.9	14.6	0.00e+00	0	27	0	1733296128	64	4403
2026-01-06 02:00:37.03	250.29	25.31	-49.6	-51.0	14.5	0.00e+00	0	26	0	1736441856	64	4442
2026-01-06 02:00:38.03	250.15	25.17	-49.8	-51.1	14.5	0.00e+00	0	26	0	1739587584	64	4529
2026-01-06 02:00:39.02	250.02	25.03	-49.8	-51.1	14.5	0.00e+00	0	27	0	1742733312	64	4526
2026-01-06 02:00:40.03	249.89	24.89	-49.9	-51.2	14.4	0.00e+00	0	27	0	1745879040	64	4580
2026-01-06 02:00:41.03	249.76	24.74	-49.9	-51.3	14.5	0.00e+00	0	27	0	1749024768	65	4347
2026-01-06 02:00:42.03	249.64	24.60	-49.8	-51.1	14.6	0.00e+00	0	26	0	1752170496	65	4277
2026-01-06 02:00:43.04	249.51	24.46	-49.8	-51.2	14.6	0.00e+00	0	27	0	1755316224	65	4292
2026-01-06 02:00:44.05	249.38	24.32	-49.8	-51.0	14.6	0.00e+00	0	26	0	1758461952	65	4241
2026-01-06 02:00:45.04	249.26	24.18	-49.6	-50.8	14.7	0.00e+00	0	27	0	1761607680	65	4143
2026-01-06 02:00:46.04	249.14	24.04	-49.6	-50.8	14.7	0.00e+00	0	27	0	1764753408	65	4136
2026-01-06 02:00:47.04	249.01	23.91	-49.5	-50.7	14.7	0.00e+00	0	26	0	1767899136	65	4090
2026-01-06 02:00:48.04	248.89	23.77	-49.5	-50.8	14.7	0.00e+00	0	26	0	1771044864	65	4106
2026-01-06 02:00:49.03	248.77	23.63	-49.3	-50.6	14.8	0.00e+00	0	27	0	1774190592	65	4024
2026-01-06 02:00:50.03	248.65	23.50	-49.3	-50.5	14.8	0.00e+00	0	27	0	1777336320	65	3970
2026-01-06 02:00:51.02	248.54	23.36	-49.3	-50.6	14.8	0.00e+00	0	26	0	1780482048	65	4020
2026-01-06 02:00:52.02	248.42	23.23	-49.3	-50.5	14.8	0.00e+00	0	26	0	1783627776	65	3978
2026-01-06 02:00:53.01	248.31	23.09	-49.0	-50.2	14.8	0.00e+00	0	27	0	1786773504	64	4086
2026-01-06 02:00:54.01	248.19	22.96	-49.1	-50.3	14.7	0.00e+00	0	26	0	1789919232	64	4114
2026-01-06 02:00:55.01	248.08	22.83	-49.1	-50.3	14.7	0.00e+00	0	27	0	1793064960	64	4134
2026-01-06 02:00:56.00	247.97	22.69	-49.1	-50.3	14.7	0.00e+00	0	26	0	1796210688	64	4130
2026-01-06 02:00:57.00	247.85	22.56	-49.1	-50.4	14.7	0.00e+00	0	27	0	1798307840	64	4146
2026-01-06 02:00:57.98	247.75	22.43	-49.2	-50.4	14.7	0.00e+00	0	26	0	1801453568	64	4192
2026-01-06 02:00:58.99	247.64	22.30	-49.3	-50.5	14.7	0.00e+00	0	26	0	1804599296	64	4229
2026-01-06 02:00:59.99	247.53	22.17	-49.3	-50.5	14.7	0.00e+00	0	27	0	1807745024	64	4222
2026-01-06 02:01:00.98	247.42	22.04	-49.3	-50.5	14.7	0.00e+00	0	27	0	1810890752	64	4242
2026-01-06 02:01:01.98	247.31	21.91	-49.3	-50.5	14.6	0.00e+00	0	27	0	1814036480	64	4240
2026-01-06 02:01:02.97	247.21	21.78	-49.2	-50.5	14.7	0.00e+00	0	27	0	1817182208	64	4200
2026-01-06 02:01:03.96	247.10	21.66	-49.2	-50.4	14.7	0.00e+00	0	26	0	1820327936	64	4182
2026-01-06 02:01:04.95	247.00	21.53	-49.2	-50.5	14.6	0.00e+00	0	26	0	1823473664	64	4202
2026-01-06 02:01:05.94	246.90	21.40	-49.2	-50.4	14.7	0.00e+00	0	27	0	1826619392	64	4161
2026-01-06 02:01:06.94	246.79	21.28	-49.1	-50.4	14.7	0.00e+00	0	27	0	1829765120	64	4159
2026-01-06 02:01:07.93	246.69	21.15	-49.2	-50.4	14.7	0.00e+00	0	26	0	1832910848	64	4174
2026-01-06 02:01:08.93	246.59	21.03	-49.2	-50.4	14.7	0.00e+00	0	27	0	1836056576	64	4175
2026-01-06 02:01:09.93	246.49	20.90	-49.2	-50.4	14.7	0.00e+00	0	27	0	1839202304	64	4180
2026-01-06 02:01:10.92	246.39	20.78	-48.9	-50.1	14.8	0.00e+00	0	27	0	1842348032	64	4026
2026-01-06 02:01:11.92	246.30	20.65	-48.7	-49.9	14.9	0.00e+00	0	26	0	1845493760	64	3941
2026-01-06 02:01:12.92	246.20	20.53	-48.7	-49.8	14.8	0.00e+00	0	26	0	1848639488	63	4136
2026-01-06 02:01:13.92	246.10	20.41	-48.6	-49.8	14.8	0.00e+00	0	27	0	1851785216	63	4117
2026-01-06 02:01:14.91	246.01	20.28	-48.6	-49.8	14.8	0.00e+00	0	27	0	1854930944	63	4120
2026-01-06 02:01:15.91	245.91	20.16	-48.7	-49.9	14.8	0.00e+00	0	27	0	1858076672	63	4154
2026-01-06 02:01:16.91	245.82	20.04	-48.8	-49.9	14.7	0.00e+00	0	26	0	1861222400	63	4192
2026-01-06 02:01:17.89	245.72	19.92	-48.8	-50.0	14.7	0.00e+00	0	27	0	1864368128	63	4225
2026-01-06 02:01:18.89	245.63	19.80	-48.9	-50.1	14.7	0.00e+00	0	27	0	1867513856	63	4279
2026-01-06 02:01:19.88	245.54	19.68	-49.0	-50.2	14.7	0.00e+00	0	27	0	1870659584	63	4308
2026-01-06 02:01:20.88	245.45	19.56	-49.2	-50.4	14.6	0.00e+00	0	27	0	1873805312	63	4414
2026-01-06 02:01:21.87	245.36	19.44	-49.1	-50.3	14.6	0.00e+00	0	26	0	1876951040	63	4385
2026-01-06 02:01:22.87	245.27	19.33	-49.2	-50.5	14.6	0.00e+00	0	26	0	1880096768	63	4451
2026-01-06 02:01:23.86	245.18	19.21	-49.2	-50.5	14.6	0.00e+00	0	26	0	1883242496	63	4461
2026-01-06 02:01:24.85	245.09	19.09	-49.2	-50.5	14.6	0.00e+00	0	27	0	1885339648	63	4472
2026-01-06 02:01:25.84	245.01	18.98	-49.3	-50.5	14.6	0.00e+00	0	26	0	1888485376	63	4482
2026-01-06 02:01:26.84	244.92	18.86	-49.3	-50.5	14.6	0.00e+00	0	27	0	1891631104	63	4473
2026-01-06 02:01:27.83	244.83	18.74	-49.3	-50.6	14.5	0.00e+00	0	26	0	1894776832	63	4512
2026-01-06 02:01:28.82	244.75	18.63	-49.3	-50.6	14.5	0.00e+00	0	26	0	1897922560	63	4512
2026-01-06 02:01:29.83	244.66	18.51	-49.4	-50.7	14.5	0.00e+00	0	27	0	1901068288	63	4550
2026-01-06 02:01:30.82	244.58	18.40	-49.4	-50.7	14.6	0.00e+00	0	26	0	1904214016	64	4305
2026-01-06 02:01:31.81	244.49	18.29	-49.4	-50.7	14.6	0.00e+00	0	27	0	1907359744	64	4317
2026-01-06 02:01:32.80	244.41	18.17	-49.4	-50.7	14.6	0.00e+00	0	27	0	1910505472	64	4314
2026-01-06 02:01:33.80	244.33	18.06	-49.5	-50.8	14.5	0.00e+00	0	26	0	1913651200	64	4344
2026-01-06 02:01:34.79	244.25	17.95	-49.5	-50.8	14.5	0.00e+00	0	26	0	1916796928	64	4356
2026-01-06 02:01:35.79	244.17	17.84	-49.6	-50.9	14.5	0.00e+00	0	26	0	1919942656	64	4403
2026-01-06 02:01:36.78	244.09	17.72	-49.6	-50.9	14.5	0.00e+00	0	26	0	1923088384	64	4424
2026-01-06 02:01:37.78	244.01	17.61	-49.6	-50.9	14.5	0.00e+00	0	26	0	1926234112	64	4424
2026-01-06 02:01:38.78	243.93	17.50	-49.6	-50.9	14.5	0.00e+00	0	26	0	1929379840	64	4417
2026-01-06 02:01:39.78	243.85	17.39	-49.6	-50.9	14.5	0.00e+00	0	26	0	1932525568	64	4439
2026-01-06 02:01:40.78	243.77	17.28	-49.7	-51.0	14.4	0.00e+00	0	26	0	1935671296	64	4492
2026-01-06 02:01:41.77	243.69	17.17	-49.7	-51.0	14.5	0.00e+00	0	27	0	1938817024	64	4492
2026-01-06 02:01:42.76	243.62	17.06	-49.7	-51.0	14.5	0.00e+00	0	26	0	1941962752	64	4492
2026-01-06 02:01:43.76	243.54	16.95	-49.7	-51.0	14.5	0.00e+00	0	26	0	1945108480	64	4450
2026-01-06 02:01:44.75	243.47	16.85	-49.7	-51.1	14.4	0.00e+00	0	26	0	1948254208	64	4497
2026-01-06 02:01:45.74	243.39	16.74	-49.6	-51.0	14.5	0.00e+00	0	27	0	1951399936	64	4444
2026-01-06 02:01:46.74	243.32	16.63	-49.6	-50.9	14.5	0.00e+00	0	27	0	1954545664	64	4410
2026-01-06 02:01:47.74	243.24	16.52	-49.6	-50.9	14.5	0.00e+00	0	27	0	1957691392	64	4423
2026-01-06 02:01:48.74	243.17	16.42	-49.5	-50.8	14.5	0.00e+00	0	27	0	1960837120	64	4366
2026-01-06 02:01:49.74	243.09	16.31	-49.4	-50.7	14.6	0.00e+00	0	27	0	1963982848	64	4302
2026-01-06 02:01:50.74	243.02	16.20	-49.5	-50.7	14.6	0.00e+00	0	26	0	1967128576	64	4330
2026-01-06 02:01:51.73	242.95	16.10	-49.4	-50.6	14.6	0.00e+00	0	27	0	1970274304	64	4277
2026-01-06 02:01:52.72	242.88	15.99	-49.4	-50.6	14.6	0.00e+00	0	27	0	1973420032	64	4277
2026-01-06 02:01:53.72	242.81	15.89	-49.3	-50.6	14.6	0.00e+00	0	26	0	1976565760	64	4262
2026-01-06 02:01:54.72	242.74	15.79	-49.3	-50.6	14.6	0.00e+00	0	26	0	1979711488	64	4244
2026-01-06 02:01:55.72	242.67	15.68	-49.3	-50.6	14.6	0.00e+00	0	26	0	1982857216	64	4251
2026-01-06 02:01:56.71	242.60	15.58	-49.4	-50.7	14.6	0.00e+00	0	26	0	1986002944	64	4301
2026-01-06 02:01:57.71	242.53	15.47	-49.4	-50.7	14.6	0.00e+00	0	27	0	1989148672	64	4292
2026-01-06 02:01:58.71	242.46	15.37	-49.4	-50.7	14.6	0.00e+00	0	27	0	1992294400	64	4292
2026-01-06 02:01:59.70	242.39	15.27	-49.5	-50.8	14.5	0.00e+00	0	27	0	1994391552	64	4362
2026-01-06 02:02:00.70	242.33	15.17	-49.6	-50.9	14.5	0.00e+00	0	26	0	1997537280	64	4403
2026-01-06 02:02:01.70	242.26	15.07	-49.6	-50.9	14.5	0.00e+00	0	26	0	2000683008	64	4426
2026-01-06 02:02:02.69	242.19	14.97	-49.7	-51.0	14.5	0.00e+00	0	26	0	2003828736	64	4460
2026-01-06 02:02:03.69	242.13	14.86	-49.8	-51.1	14.4	0.00e+00	0	27	0	2006974464	64	4515
2026-01-06 02:02:04.69	242.06	14.76	-49.8	-51.2	14.4	0.00e+00	0	27	0	2010120192	64	4549
2026-01-06 02:02:05.69	242.00	14.66	-49.9	-51.2	14.4	0.00e+00	0	27	0	2013265920	64	4591
2026-01-06 02:02:06.69	241.93	14.56	-50.0	-51.3	14.4	0.00e+00	0	27	0	2016411648	65	4381
2026-01-06 02:02:07.69	241.87	14.46	-50.1	-51.5	14.4	0.00e+00	0	26	0	2019557376	65	4447
2026-01-06 02:02:08.68	241.80	14.37	-50.1	-51.5	14.4	0.00e+00	0	26	0	2022703104	65	4450
2026-01-06 02:02:09.67	241.74	14.27	-50.2	-51.6	14.3	0.00e+00	0	26	0	2025848832	65	4497
2026-01-06 02:02:10.67	241.68	14.17	-50.2	-51.6	14.3	0.00e+00	0	27	0	2028994560	65	4535
