passes_logs/2026/01/06/R3.2S_Murmansk/R3.2S_Murmansk__20260106_035959_SUOMI_NPP_rec.log

#Pass ID: 20260106_035959_SUOMI NPP
#Satellite: SUOMI NPP
#Configuration: NPP
#almurnet v.1.7.20251203
#Start time: 2026-01-06 04:00:00

#Version: 2.2.20231116
#Station: R3.2S_Murmansk
#Location: 33.079688 lon 68.888172 lat
#TLE: 1 37849U 11061A   26004.95404768  .00000136  00000+0  85334-4 0  9991
#TLE: 2 37849  98.7801 307.0898 0002575  80.6707 279.4760 14.19522289735281

#Time	Az	El	Level	Level2	SNR	BER	BlckErr	Temp	State	Recorded	gain1	gain2
2026-01-06 04:00:00.63	46.29	2.07	-57.9	-73.9	3.8	1.49e+00	0	24	0	0	82	22064
2026-01-06 04:00:01.64	46.23	2.13	-57.8	-73.8	3.8	1.49e+00	0	24	104	0	80	24648
2026-01-06 04:00:02.64	46.17	2.19	-57.8	-73.8	3.8	1.49e+00	0	24	104	0	80	24573
2026-01-06 04:00:03.63	46.11	2.25	-57.8	-73.8	3.8	1.49e+00	0	24	104	0	80	24518
2026-01-06 04:00:04.63	46.05	2.31	-57.8	-73.8	3.8	1.49e+00	0	24	104	0	80	24569
2026-01-06 04:00:05.63	45.99	2.36	-57.8	-73.8	3.8	1.49e+00	0	24	104	0	80	24668
2026-01-06 04:00:06.63	45.93	2.42	-57.8	-73.8	3.8	1.49e+00	0	24	104	0	80	24519
2026-01-06 04:00:07.63	45.87	2.48	-57.8	-73.8	3.8	1.49e+00	0	24	104	0	80	24633
2026-01-06 04:00:08.63	45.81	2.54	-57.8	-73.8	3.8	1.49e+00	0	24	104	0	80	24603
2026-01-06 04:00:09.62	45.75	2.60	-57.8	-73.8	3.8	1.49e+00	0	24	104	0	80	24612
2026-01-06 04:00:10.61	45.69	2.66	-57.8	-73.8	3.8	1.49e+00	0	24	104	0	80	24635
2026-01-06 04:00:11.61	45.63	2.72	-57.8	-73.8	3.8	1.49e+00	0	24	104	0	80	24570
2026-01-06 04:00:12.60	45.57	2.77	-57.8	-73.8	3.8	1.49e+00	0	24	104	0	80	24618
2026-01-06 04:00:13.61	45.51	2.83	-57.8	-73.8	3.8	1.49e+00	0	24	104	0	80	24671
2026-01-06 04:00:14.60	45.45	2.89	-57.8	-73.8	3.8	1.49e+00	0	24	104	0	80	24646
2026-01-06 04:00:15.60	45.38	2.95	-57.8	-73.9	3.8	1.49e+00	0	25	104	0	80	24758
2026-01-06 04:00:16.61	45.32	3.01	-57.8	-73.9	3.8	1.49e+00	0	24	104	0	80	24728
2026-01-06 04:00:17.61	45.26	3.07	-57.8	-73.9	3.8	1.49e+00	0	24	104	0	80	24732
2026-01-06 04:00:18.61	45.20	3.13	-57.9	-73.9	3.8	1.49e+00	0	24	104	0	80	24715
2026-01-06 04:00:19.62	45.13	3.19	-57.8	-73.8	3.8	1.49e+00	0	24	104	0	80	24678
2026-01-06 04:00:20.62	45.07	3.25	-57.9	-73.8	3.8	1.49e+00	0	24	104	0	80	24593
2026-01-06 04:00:21.62	45.01	3.31	-57.8	-73.8	3.8	1.49e+00	0	25	104	0	80	24541
2026-01-06 04:00:22.62	44.94	3.37	-57.8	-73.8	3.8	1.49e+00	0	25	104	0	80	24426
2026-01-06 04:00:23.61	44.88	3.43	-57.8	-73.8	3.8	1.49e+00	0	25	104	0	80	24567
2026-01-06 04:00:24.62	44.81	3.49	-57.9	-73.9	3.8	1.49e+00	0	25	104	0	80	24707
2026-01-06 04:00:25.62	44.75	3.55	-57.8	-73.8	3.8	1.49e+00	0	25	104	0	80	24662
2026-01-06 04:00:26.62	44.68	3.61	-57.8	-73.9	3.8	1.49e+00	0	25	104	0	80	24704
2026-01-06 04:00:27.61	44.62	3.67	-57.8	-73.9	3.8	1.49e+00	0	25	104	0	80	24710
2026-01-06 04:00:28.61	44.55	3.73	-57.8	-73.8	3.8	1.49e+00	0	25	104	0	80	24668
2026-01-06 04:00:29.60	44.49	3.79	-57.9	-73.8	3.8	1.49e+00	0	25	104	0	80	24658
2026-01-06 04:00:30.60	44.42	3.85	-57.8	-73.8	3.8	1.49e+00	0	25	104	0	80	24542
2026-01-06 04:00:31.60	44.35	3.91	-57.8	-73.8	3.8	1.49e+00	0	25	104	0	80	24568
2026-01-06 04:00:32.60	44.29	3.97	-57.8	-73.8	3.8	1.49e+00	0	25	104	0	80	24595
2026-01-06 04:00:33.60	44.22	4.03	-57.9	-73.9	3.8	1.49e+00	0	25	104	0	80	24712
2026-01-06 04:00:34.61	44.15	4.10	-57.9	-73.9	3.8	1.49e+00	0	25	104	0	80	24740
2026-01-06 04:00:35.62	44.08	4.16	-57.8	-73.8	3.8	1.49e+00	0	25	104	0	80	24537
2026-01-06 04:00:36.61	44.02	4.22	-57.9	-73.6	3.8	1.49e+00	0	25	104	0	80	24121
2026-01-06 04:00:37.62	43.95	4.28	-57.8	-73.3	3.8	1.49e+00	0	25	104	0	80	23289
2026-01-06 04:00:38.61	43.88	4.34	-57.8	-72.9	3.8	1.49e+00	0	25	104	0	80	22124
2026-01-06 04:00:39.61	43.81	4.40	-57.8	-72.5	3.8	1.49e+00	0	25	104	0	80	21018
2026-01-06 04:00:40.61	43.74	4.46	-57.8	-71.9	3.8	1.49e+00	0	25	104	0	80	19783
2026-01-06 04:00:41.61	43.67	4.53	-57.7	-71.3	3.9	1.49e+00	0	25	104	0	80	18475
2026-01-06 04:00:42.61	43.60	4.59	-57.7	-70.7	4.1	1.47e+00	0	25	0	0	80	17114
2026-01-06 04:00:43.61	43.53	4.65	-57.6	-69.7	4.4	1.38e+00	67	25	0	0	80	15345
2026-01-06 04:00:44.60	43.46	4.71	-57.6	-68.8	4.7	9.22e-01	0	25	0	2097152	80	13811
2026-01-06 04:00:45.61	43.39	4.77	-57.5	-68.2	4.9	8.31e-01	0	25	0	3145728	80	12939
2026-01-06 04:00:46.61	43.32	4.84	-57.4	-67.3	5.5	5.36e-01	0	25	0	5242880	80	11556
2026-01-06 04:00:47.61	43.25	4.90	-57.4	-67.3	5.5	4.61e-01	0	25	0	7340032	80	11664
2026-01-06 04:00:48.61	43.18	4.96	-57.3	-66.8	5.8	3.33e-01	0	25	0	9437184	80	10940
2026-01-06 04:00:49.61	43.10	5.02	-57.3	-66.5	6.0	3.12e-01	0	25	0	11534336	80	10542
2026-01-06 04:00:50.61	43.03	5.09	-57.2	-65.5	6.8	2.21e-01	0	25	0	12582912	80	9421
2026-01-06 04:00:51.61	42.96	5.15	-57.6	-67.9	5.3	2.19e-01	0	25	0	14680064	80	12511
2026-01-06 04:00:52.61	42.89	5.21	-57.4	-66.7	5.9	6.19e-01	0	25	0	16777216	80	10885
2026-01-06 04:00:53.61	42.81	5.28	-56.5	-62.6	9.0	6.98e-01	0	25	0	18874368	79	7203
2026-01-06 04:00:54.60	42.74	5.34	-57.5	-68.4	5.0	5.94e-02	0	25	0	19922944	80	13164
2026-01-06 04:00:55.60	42.66	5.40	-57.1	-65.1	6.9	1.49e+00	0	25	104	20971520	80	9043
2026-01-06 04:00:56.60	42.59	5.46	-55.6	-60.1	11.2	7.35e-04	0	25	0	22020096	77	6012
2026-01-06 04:00:57.60	42.52	5.53	-55.0	-58.9	12.1	3.80e-06	0	25	0	24117248	76	5537
2026-01-06 04:00:58.60	42.44	5.59	-55.0	-58.9	12.1	3.00e-06	0	25	0	25165824	76	5562
2026-01-06 04:00:59.59	42.37	5.65	-54.8	-58.5	12.4	7.00e-07	0	25	0	27262976	76	5298
2026-01-06 04:01:00.59	42.29	5.72	-54.8	-58.5	12.4	3.00e-06	0	25	0	29360128	76	5335
2026-01-06 04:01:01.59	42.21	5.78	-54.8	-58.5	12.4	0.00e+00	0	25	0	31457280	76	5307
2026-01-06 04:01:02.59	42.14	5.85	-54.8	-58.5	12.4	7.00e-07	0	25	0	33554432	76	5286
2026-01-06 04:01:03.59	42.06	5.91	-54.8	-58.5	12.5	7.00e-07	0	25	0	34603008	76	5291
2026-01-06 04:01:04.59	41.98	5.97	-54.2	-57.6	12.9	0.00e+00	0	25	0	36700160	75	5062
2026-01-06 04:01:05.60	41.91	6.04	-54.3	-57.7	12.7	0.00e+00	0	25	0	38797312	74	5463
2026-01-06 04:01:06.60	41.83	6.10	-54.3	-57.7	12.7	0.00e+00	0	25	0	40894464	74	5461
2026-01-06 04:01:07.60	41.75	6.17	-54.0	-57.2	13.0	0.00e+00	0	25	0	42991616	74	5151
2026-01-06 04:01:08.60	41.67	6.23	-54.1	-57.3	13.0	0.00e+00	0	25	0	44040192	74	5212
2026-01-06 04:01:09.60	41.59	6.30	-53.9	-57.0	13.2	0.00e+00	0	25	0	46137344	74	5033
2026-01-06 04:01:10.61	41.51	6.36	-54.0	-57.2	13.1	0.00e+00	0	25	0	48234496	74	5128
2026-01-06 04:01:11.61	41.43	6.43	-54.0	-57.2	13.1	0.00e+00	0	25	0	50331648	74	5102
2026-01-06 04:01:12.61	41.35	6.49	-53.9	-57.1	13.2	0.00e+00	0	25	0	52428800	74	5049
2026-01-06 04:01:13.61	41.27	6.56	-53.9	-57.0	13.2	0.00e+00	0	26	0	53477376	74	5026
2026-01-06 04:01:14.61	41.19	6.62	-53.9	-57.0	13.2	0.00e+00	0	25	0	55574528	74	5033
2026-01-06 04:01:15.61	41.11	6.69	-54.0	-57.1	13.2	0.00e+00	0	25	0	57671680	74	5059
2026-01-06 04:01:16.61	41.03	6.75	-53.9	-57.0	13.3	0.00e+00	0	26	0	59768832	74	5002
2026-01-06 04:01:17.60	40.95	6.82	-53.9	-56.9	13.3	0.00e+00	0	26	0	60817408	74	4949
2026-01-06 04:01:18.61	40.86	6.89	-53.7	-56.7	13.3	0.00e+00	0	25	0	62914560	73	5140
2026-01-06 04:01:19.60	40.78	6.95	-53.9	-56.9	13.1	0.00e+00	0	26	0	65011712	73	5265
2026-01-06 04:01:20.60	40.70	7.02	-53.7	-56.6	13.3	0.00e+00	0	26	0	67108864	73	5082
2026-01-06 04:01:21.60	40.61	7.08	-53.8	-56.9	13.2	0.00e+00	0	25	0	69206016	73	5251
2026-01-06 04:01:22.60	40.53	7.15	-53.8	-56.9	13.2	0.00e+00	0	26	0	70254592	73	5265
2026-01-06 04:01:23.60	40.45	7.22	-53.7	-56.7	13.3	0.00e+00	0	26	0	72351744	73	5139
2026-01-06 04:01:24.61	40.36	7.28	-54.0	-57.1	13.1	0.00e+00	0	26	0	74448896	73	5398
2026-01-06 04:01:25.61	40.27	7.35	-53.7	-56.8	13.3	0.00e+00	0	26	0	76546048	73	5182
2026-01-06 04:01:26.61	40.19	7.42	-53.8	-56.8	13.3	0.00e+00	0	26	0	78643200	73	5198
2026-01-06 04:01:27.61	40.10	7.48	-53.8	-56.9	13.2	0.00e+00	0	25	0	79691776	73	5222
2026-01-06 04:01:28.61	40.02	7.55	-53.8	-56.8	13.3	0.00e+00	0	26	0	81788928	73	5197
2026-01-06 04:01:29.60	39.93	7.61	-53.7	-56.7	13.3	0.00e+00	0	26	0	83886080	73	5133
2026-01-06 04:01:30.61	39.84	7.68	-53.9	-57.0	13.2	0.00e+00	0	26	0	85983232	73	5294
2026-01-06 04:01:31.60	39.76	7.75	-53.8	-56.8	13.3	0.00e+00	0	26	0	87031808	73	5206
2026-01-06 04:01:32.60	39.67	7.82	-54.0	-57.0	13.2	0.00e+00	0	25	0	89128960	73	5321
2026-01-06 04:01:33.60	39.58	7.88	-53.8	-56.8	13.3	0.00e+00	0	26	0	91226112	73	5188
2026-01-06 04:01:34.60	39.49	7.95	-53.8	-56.8	13.3	0.00e+00	0	26	0	93323264	73	5181
2026-01-06 04:01:35.60	39.40	8.02	-53.7	-56.7	13.3	0.00e+00	0	26	0	95420416	73	5109
2026-01-06 04:01:36.60	39.31	8.09	-54.0	-57.0	13.2	0.00e+00	0	26	0	96468992	73	5314
2026-01-06 04:01:37.60	39.22	8.15	-53.9	-56.9	13.2	0.00e+00	0	26	0	98566144	73	5260
2026-01-06 04:01:38.60	39.13	8.22	-53.9	-56.9	13.2	0.00e+00	0	26	0	100663296	73	5251
2026-01-06 04:01:39.60	39.04	8.29	-53.8	-56.7	13.4	0.00e+00	0	26	0	102760448	73	5106
2026-01-06 04:01:40.59	38.95	8.36	-53.9	-56.9	13.3	0.00e+00	0	26	0	104857600	73	5225
2026-01-06 04:01:41.60	38.86	8.43	-53.8	-56.7	13.4	0.00e+00	0	26	0	105906176	73	5115
2026-01-06 04:01:42.60	38.76	8.50	-53.8	-56.6	13.4	0.00e+00	0	25	0	108003328	73	5099
2026-01-06 04:01:43.60	38.67	8.56	-53.8	-56.7	13.3	0.00e+00	0	26	0	110100480	73	5153
2026-01-06 04:01:44.59	38.58	8.63	-53.8	-56.6	13.4	0.00e+00	0	25	0	112197632	73	5082
2026-01-06 04:01:45.59	38.48	8.70	-53.6	-56.4	13.5	0.00e+00	0	26	0	114294784	73	4982
2026-01-06 04:01:46.59	38.39	8.77	-53.7	-56.6	13.4	0.00e+00	0	26	0	115343360	73	5075
2026-01-06 04:01:47.59	38.30	8.84	-53.9	-56.8	13.3	0.00e+00	0	26	0	117440512	73	5215
2026-01-06 04:01:48.59	38.20	8.91	-53.7	-56.5	13.4	0.00e+00	0	26	0	119537664	73	5032
2026-01-06 04:01:49.59	38.10	8.98	-53.9	-56.9	13.2	0.00e+00	0	26	0	121634816	73	5268
2026-01-06 04:01:50.59	38.01	9.05	-53.9	-56.8	13.3	0.00e+00	0	26	0	122683392	73	5214
2026-01-06 04:01:51.58	37.91	9.11	-53.8	-56.7	13.3	0.00e+00	0	26	0	124780544	73	5134
2026-01-06 04:01:52.58	37.82	9.18	-53.8	-56.8	13.3	0.00e+00	0	26	0	126877696	73	5211
2026-01-06 04:01:53.58	37.72	9.25	-54.0	-57.2	13.1	0.00e+00	0	26	0	128974848	73	5403
2026-01-06 04:01:54.58	37.62	9.32	-54.0	-57.2	13.1	0.00e+00	0	26	0	131072000	73	5405
2026-01-06 04:01:55.57	37.52	9.39	-54.0	-57.2	13.1	0.00e+00	0	26	0	132120576	73	5422
2026-01-06 04:01:56.56	37.42	9.46	-54.1	-57.3	13.0	0.00e+00	0	26	0	134217728	73	5501
2026-01-06 04:01:57.57	37.32	9.53	-54.0	-57.1	13.1	0.00e+00	0	26	0	136314880	73	5399
2026-01-06 04:01:58.56	37.23	9.60	-53.9	-57.1	13.2	0.00e+00	0	26	0	138412032	73	5357
2026-01-06 04:01:59.55	37.13	9.67	-53.9	-57.0	13.2	0.00e+00	0	26	0	139460608	73	5290
2026-01-06 04:02:00.55	37.03	9.74	-53.8	-56.9	13.3	0.00e+00	0	26	0	141557760	73	5264
2026-01-06 04:02:01.55	36.92	9.81	-53.6	-56.6	13.4	0.00e+00	0	26	0	143654912	73	5076
2026-01-06 04:02:02.55	36.82	9.88	-53.7	-56.7	13.4	0.00e+00	0	26	0	145752064	73	5133
2026-01-06 04:02:03.55	36.72	9.95	-53.6	-56.5	13.5	0.00e+00	0	26	0	147849216	73	5038
2026-01-06 04:02:04.55	36.62	10.02	-53.6	-56.6	13.4	0.00e+00	0	26	0	148897792	73	5074
2026-01-06 04:02:05.55	36.51	10.10	-53.7	-56.8	13.4	0.00e+00	0	26	0	150994944	73	5164
2026-01-06 04:02:06.55	36.41	10.17	-53.6	-56.4	13.5	0.00e+00	0	26	0	153092096	73	4979
2026-01-06 04:02:07.54	36.31	10.24	-53.6	-56.4	13.6	0.00e+00	0	26	0	155189248	73	4970
2026-01-06 04:02:08.54	36.20	10.31	-53.6	-56.5	13.5	0.00e+00	0	26	0	157286400	73	5013
2026-01-06 04:02:09.54	36.09	10.38	-53.6	-56.4	13.6	0.00e+00	0	26	0	158334976	73	4964
2026-01-06 04:02:10.54	35.99	10.45	-53.4	-56.3	13.7	0.00e+00	0	26	0	160432128	73	4881
2026-01-06 04:02:11.54	35.88	10.52	-53.6	-56.5	13.5	0.00e+00	0	26	0	162529280	73	5003
2026-01-06 04:02:12.53	35.78	10.59	-53.6	-56.5	13.5	0.00e+00	0	26	0	164626432	73	5017
2026-01-06 04:02:13.51	35.67	10.66	-53.6	-56.5	13.5	0.00e+00	0	26	0	165675008	73	5004
2026-01-06 04:02:14.50	35.56	10.74	-53.6	-56.5	13.5	0.00e+00	0	26	0	167772160	73	5011
2026-01-06 04:02:15.50	35.45	10.81	-53.5	-56.4	13.6	0.00e+00	0	26	0	169869312	73	4939
2026-01-06 04:02:16.50	35.34	10.88	-53.6	-56.5	13.6	0.00e+00	0	26	0	171966464	73	5000
2026-01-06 04:02:17.50	35.23	10.95	-53.6	-56.4	13.6	0.00e+00	0	26	0	174063616	73	4940
2026-01-06 04:02:18.49	35.12	11.02	-53.4	-56.2	13.7	0.00e+00	0	26	0	175112192	73	4843
2026-01-06 04:02:19.48	35.01	11.10	-53.5	-56.3	13.6	0.00e+00	0	26	0	177209344	73	4911
2026-01-06 04:02:20.48	34.90	11.17	-53.5	-56.2	13.7	0.00e+00	0	26	0	179306496	73	4834
2026-01-06 04:02:21.48	34.79	11.24	-53.5	-56.2	13.7	0.00e+00	0	26	0	181403648	73	4865
2026-01-06 04:02:22.49	34.68	11.31	-53.5	-56.1	13.7	0.00e+00	0	26	0	183500800	73	4796
2026-01-06 04:02:23.48	34.56	11.39	-53.4	-56.1	13.7	0.00e+00	0	26	0	184549376	73	4779
2026-01-06 04:02:24.48	34.45	11.46	-53.5	-56.2	13.7	0.00e+00	0	26	0	186646528	73	4828
2026-01-06 04:02:25.48	34.34	11.53	-53.4	-56.0	13.8	0.00e+00	0	26	0	188743680	73	4736
2026-01-06 04:02:26.48	34.22	11.61	-53.3	-55.9	13.9	0.00e+00	0	26	0	190840832	73	4663
2026-01-06 04:02:27.48	34.11	11.68	-53.6	-56.2	13.7	0.00e+00	0	26	0	191889408	73	4857
2026-01-06 04:02:28.48	33.99	11.75	-53.4	-56.0	13.8	0.00e+00	0	26	0	193986560	73	4730
2026-01-06 04:02:29.48	33.87	11.83	-53.4	-56.0	13.9	0.00e+00	0	26	0	196083712	73	4715
2026-01-06 04:02:30.47	33.76	11.90	-53.4	-56.0	13.9	0.00e+00	0	26	0	198180864	73	4732
2026-01-06 04:02:31.47	33.64	11.97	-53.4	-55.9	13.8	0.00e+00	0	26	0	200278016	73	4659
2026-01-06 04:02:32.46	33.52	12.05	-53.4	-56.0	13.8	0.00e+00	0	26	0	201326592	73	4714
2026-01-06 04:02:33.46	33.40	12.12	-53.5	-56.2	13.7	0.00e+00	0	26	0	203423744	73	4822
2026-01-06 04:02:34.46	33.28	12.19	-53.5	-56.1	13.8	0.00e+00	0	26	0	205520896	73	4779
2026-01-06 04:02:35.47	33.16	12.27	-53.6	-56.3	13.6	0.00e+00	0	26	0	207618048	73	4900
2026-01-06 04:02:36.47	33.04	12.34	-53.6	-56.3	13.6	0.00e+00	0	26	0	208666624	73	4888
2026-01-06 04:02:37.46	32.92	12.42	-53.7	-56.4	13.6	0.00e+00	0	26	0	210763776	73	4940
2026-01-06 04:02:38.46	32.79	12.49	-53.7	-56.4	13.6	0.00e+00	0	26	0	212860928	73	4932
2026-01-06 04:02:39.45	32.67	12.56	-53.6	-56.2	13.6	0.00e+00	0	26	0	214958080	73	4863
2026-01-06 04:02:40.44	32.55	12.64	-53.8	-56.5	13.5	0.00e+00	0	26	0	217055232	73	5020
2026-01-06 04:02:41.44	32.43	12.71	-53.8	-56.6	13.5	0.00e+00	0	26	0	218103808	73	5066
2026-01-06 04:02:42.43	32.30	12.79	-53.9	-56.7	13.4	0.00e+00	0	26	0	220200960	73	5157
2026-01-06 04:02:43.43	32.18	12.86	-53.9	-56.8	13.4	0.00e+00	0	26	0	222298112	73	5164
2026-01-06 04:02:44.43	32.05	12.94	-54.0	-56.9	13.3	0.00e+00	0	26	0	224395264	73	5274
2026-01-06 04:02:45.44	31.92	13.01	-53.7	-56.5	13.5	0.00e+00	0	26	0	226492416	73	4994
2026-01-06 04:02:46.44	31.79	13.09	-53.5	-56.1	13.8	0.00e+00	0	26	0	227540992	73	4783
2026-01-06 04:02:47.44	31.67	13.16	-53.5	-56.0	13.7	0.00e+00	0	26	0	229638144	73	4758
2026-01-06 04:02:48.45	31.54	13.24	-53.4	-55.9	13.8	0.00e+00	0	26	0	231735296	73	4700
2026-01-06 04:02:49.46	31.40	13.31	-53.3	-55.7	13.9	0.00e+00	0	26	0	233832448	73	4580
2026-01-06 04:02:50.46	31.27	13.39	-53.3	-55.7	14.0	0.00e+00	0	26	0	234881024	73	4570
2026-01-06 04:02:51.47	31.14	13.47	-53.3	-55.7	14.0	0.00e+00	0	26	0	236978176	73	4584
2026-01-06 04:02:52.48	31.01	13.54	-53.2	-55.7	13.9	0.00e+00	0	26	0	239075328	72	4825
2026-01-06 04:02:53.47	30.88	13.62	-52.8	-55.1	14.1	0.00e+00	0	26	0	241172480	72	4539
2026-01-06 04:02:54.47	30.74	13.69	-52.9	-55.3	14.1	0.00e+00	0	26	0	243269632	72	4621
2026-01-06 04:02:55.46	30.61	13.77	-53.0	-55.3	14.0	0.00e+00	0	26	0	244318208	72	4629
2026-01-06 04:02:56.46	30.48	13.84	-52.5	-54.7	14.2	0.00e+00	0	26	0	246415360	71	4596
2026-01-06 04:02:57.45	30.34	13.92	-52.5	-54.7	14.2	0.00e+00	0	26	0	248512512	71	4574
2026-01-06 04:02:58.45	30.21	14.00	-52.4	-54.6	14.3	0.00e+00	0	26	0	250609664	71	4529
2026-01-06 04:02:59.45	30.07	14.07	-52.5	-54.8	14.2	0.00e+00	0	26	0	252706816	71	4601
2026-01-06 04:03:00.44	29.94	14.15	-52.5	-54.8	14.2	0.00e+00	0	26	0	253755392	71	4620
2026-01-06 04:03:01.44	29.80	14.22	-52.5	-54.8	14.2	0.00e+00	0	26	0	255852544	71	4603
2026-01-06 04:03:02.44	29.66	14.30	-52.7	-55.0	14.1	0.00e+00	0	26	0	257949696	71	4723
2026-01-06 04:03:03.44	29.52	14.38	-52.7	-55.0	14.1	0.00e+00	0	26	0	260046848	71	4737
2026-01-06 04:03:04.44	29.38	14.45	-52.7	-54.9	14.1	0.00e+00	0	26	0	262144000	71	4701
2026-01-06 04:03:05.44	29.24	14.53	-52.8	-55.2	14.1	0.00e+00	0	26	0	263192576	71	4819
2026-01-06 04:03:06.45	29.09	14.61	-52.7	-54.9	14.2	0.00e+00	0	26	0	265289728	71	4685
2026-01-06 04:03:07.45	28.95	14.68	-52.7	-55.0	14.1	0.00e+00	0	26	0	267386880	71	4733
2026-01-06 04:03:08.45	28.81	14.76	-52.6	-54.8	14.2	0.00e+00	0	26	0	269484032	71	4608
2026-01-06 04:03:09.44	28.67	14.84	-52.7	-54.9	14.2	0.00e+00	0	26	0	270532608	71	4684
2026-01-06 04:03:10.44	28.52	14.91	-52.6	-54.9	14.2	0.00e+00	0	26	0	272629760	71	4654
2026-01-06 04:03:11.43	28.38	14.99	-52.7	-54.9	14.1	0.00e+00	0	26	0	274726912	71	4704
2026-01-06 04:03:12.43	28.23	15.07	-52.6	-54.8	14.2	0.00e+00	0	26	0	276824064	71	4634
2026-01-06 04:03:13.43	28.08	15.14	-52.8	-55.1	14.1	0.00e+00	0	26	0	278921216	71	4796
2026-01-06 04:03:14.44	27.93	15.22	-52.7	-54.9	14.2	0.00e+00	0	26	0	279969792	71	4686
2026-01-06 04:03:15.43	27.79	15.30	-52.6	-54.8	14.2	0.00e+00	0	26	0	282066944	71	4639
2026-01-06 04:03:16.43	27.64	15.38	-52.7	-54.9	14.2	0.00e+00	0	26	0	284164096	71	4685
2026-01-06 04:03:17.43	27.49	15.45	-52.4	-54.6	14.3	0.00e+00	0	26	0	286261248	71	4510
2026-01-06 04:03:18.42	27.34	15.53	-52.5	-54.8	14.2	0.00e+00	0	26	0	287309824	71	4606
2026-01-06 04:03:19.41	27.19	15.61	-52.6	-54.9	14.2	0.00e+00	0	26	0	289406976	71	4654
2026-01-06 04:03:20.41	27.03	15.68	-52.6	-54.9	14.2	0.00e+00	0	26	0	291504128	71	4656
2026-01-06 04:03:21.41	26.88	15.76	-52.6	-55.0	14.1	0.00e+00	0	26	0	293601280	71	4716
2026-01-06 04:03:22.41	26.73	15.84	-52.5	-54.8	14.2	0.00e+00	0	26	0	295698432	71	4625
2026-01-06 04:03:23.41	26.57	15.92	-52.7	-55.0	14.1	0.00e+00	0	26	0	296747008	71	4741
2026-01-06 04:03:24.41	26.42	15.99	-52.6	-54.9	14.1	0.00e+00	0	26	0	298844160	71	4692
2026-01-06 04:03:25.41	26.26	16.07	-52.5	-54.9	14.2	0.00e+00	0	26	0	300941312	71	4663
2026-01-06 04:03:26.41	26.10	16.15	-52.6	-55.0	14.1	0.00e+00	0	26	0	303038464	71	4721
2026-01-06 04:03:27.41	25.94	16.23	-52.7	-55.1	14.1	0.00e+00	0	26	0	305135616	71	4778
2026-01-06 04:03:28.41	25.78	16.30	-52.9	-55.5	13.9	0.00e+00	0	26	0	306184192	71	4984
2026-01-06 04:03:29.41	25.62	16.38	-52.9	-55.5	13.9	0.00e+00	0	26	0	308281344	71	5002
2026-01-06 04:03:30.40	25.47	16.46	-53.0	-55.6	13.8	0.00e+00	0	26	0	310378496	71	5061
2026-01-06 04:03:31.40	25.30	16.54	-53.2	-55.9	13.6	0.00e+00	0	26	0	312475648	71	5272
2026-01-06 04:03:32.40	25.14	16.61	-53.2	-55.9	13.6	0.00e+00	0	26	0	314572800	71	5259
2026-01-06 04:03:33.40	24.98	16.69	-53.3	-55.9	13.7	0.00e+00	0	26	0	315621376	71	5266
2026-01-06 04:03:34.40	24.81	16.77	-53.3	-55.9	13.7	0.00e+00	0	26	0	317718528	71	5264
2026-01-06 04:03:35.40	24.65	16.85	-53.3	-56.0	13.6	0.00e+00	0	26	0	319815680	71	5321
2026-01-06 04:03:36.39	24.48	16.92	-53.4	-56.1	13.7	0.00e+00	0	26	0	321912832	72	5048
2026-01-06 04:03:37.40	24.31	17.00	-53.4	-56.1	13.7	0.00e+00	0	26	0	322961408	72	5059
2026-01-06 04:03:38.40	24.15	17.08	-53.4	-56.0	13.7	0.00e+00	0	26	0	325058560	72	5031
2026-01-06 04:03:39.39	23.98	17.16	-53.4	-56.0	13.7	0.00e+00	0	26	0	327155712	72	5033
2026-01-06 04:03:40.38	23.81	17.23	-53.4	-56.1	13.7	0.00e+00	0	26	0	329252864	72	5044
2026-01-06 04:03:41.38	23.64	17.31	-53.3	-55.8	13.8	0.00e+00	0	26	0	331350016	72	4912
2026-01-06 04:03:42.37	23.47	17.39	-53.2	-55.7	13.9	0.00e+00	0	26	0	332398592	72	4823
2026-01-06 04:03:43.36	23.30	17.47	-53.1	-55.6	14.0	0.00e+00	0	26	0	334495744	72	4776
2026-01-06 04:03:44.36	23.13	17.54	-53.0	-55.4	14.1	0.00e+00	0	26	0	336592896	72	4673
2026-01-06 04:03:45.35	22.96	17.62	-53.1	-55.5	14.0	0.00e+00	0	26	0	338690048	72	4727
2026-01-06 04:03:46.35	22.78	17.70	-53.0	-55.4	14.0	0.00e+00	0	26	0	339738624	72	4666
2026-01-06 04:03:47.34	22.61	17.77	-53.0	-55.5	14.0	0.00e+00	0	26	0	341835776	72	4713
2026-01-06 04:03:48.33	22.43	17.85	-53.1	-55.5	14.0	0.00e+00	0	26	0	343932928	72	4753
2026-01-06 04:03:49.32	22.26	17.93	-53.1	-55.6	13.9	0.00e+00	0	26	0	346030080	72	4803
2026-01-06 04:03:50.32	22.08	18.00	-52.9	-55.3	14.1	0.00e+00	0	26	0	348127232	72	4618
2026-01-06 04:03:51.32	21.90	18.08	-52.8	-55.1	14.2	0.00e+00	0	26	0	349175808	72	4536
2026-01-06 04:03:52.31	21.72	18.16	-52.5	-54.8	14.2	0.00e+00	0	26	0	351272960	71	4644
2026-01-06 04:03:53.32	21.54	18.24	-52.6	-55.0	14.1	0.00e+00	0	26	0	353370112	71	4732
2026-01-06 04:03:54.32	21.35	18.31	-52.6	-54.9	14.2	0.00e+00	0	26	0	355467264	71	4681
2026-01-06 04:03:55.32	21.17	18.39	-52.7	-55.1	14.1	0.00e+00	0	26	0	356515840	71	4795
2026-01-06 04:03:56.32	20.99	18.47	-52.9	-55.4	13.9	0.00e+00	0	26	0	358612992	71	4934
2026-01-06 04:03:57.32	20.80	18.54	-53.0	-55.5	13.9	0.00e+00	0	26	0	360710144	71	5037
2026-01-06 04:03:58.31	20.62	18.62	-53.1	-55.7	13.8	0.00e+00	0	26	0	362807296	71	5149
2026-01-06 04:03:59.32	20.43	18.70	-53.1	-55.6	13.9	0.00e+00	0	26	0	364904448	71	5069
2026-01-06 04:04:00.32	20.24	18.77	-53.2	-55.8	13.8	0.00e+00	0	26	0	365953024	71	5173
2026-01-06 04:04:01.31	20.05	18.85	-53.1	-55.6	13.9	0.00e+00	0	26	0	368050176	71	5057
2026-01-06 04:04:02.31	19.86	18.93	-53.0	-55.5	13.9	0.00e+00	0	26	0	370147328	71	5018
2026-01-06 04:04:03.32	19.67	19.00	-53.0	-55.4	14.0	0.00e+00	0	26	0	372244480	71	4960
2026-01-06 04:04:04.33	19.48	19.08	-52.8	-55.1	14.1	0.00e+00	0	26	0	374341632	71	4779
2026-01-06 04:04:05.33	19.28	19.16	-52.7	-55.0	14.1	0.00e+00	0	26	0	375390208	71	4737
2026-01-06 04:04:06.33	19.09	19.23	-52.6	-54.8	14.2	0.00e+00	0	26	0	377487360	71	4637
2026-01-06 04:04:07.32	18.90	19.31	-52.4	-54.6	14.4	0.00e+00	0	26	0	379584512	71	4501
2026-01-06 04:04:08.32	18.70	19.38	-52.4	-54.6	14.4	0.00e+00	0	26	0	381681664	71	4520
2026-01-06 04:04:09.30	18.51	19.46	-52.4	-54.6	14.4	0.00e+00	0	26	0	382730240	71	4511
2026-01-06 04:04:10.30	18.31	19.53	-52.6	-54.9	14.2	0.00e+00	0	26	0	384827392	71	4663
2026-01-06 04:04:11.30	18.11	19.61	-52.9	-55.3	14.0	0.00e+00	0	26	0	386924544	71	4872
2026-01-06 04:04:12.30	17.91	19.69	-52.9	-55.3	14.0	0.00e+00	0	26	0	389021696	71	4898
2026-01-06 04:04:13.30	17.71	19.76	-53.0	-55.4	14.0	0.00e+00	0	26	0	391118848	71	4982
2026-01-06 04:04:14.29	17.51	19.83	-52.8	-55.1	14.1	0.00e+00	0	26	0	392167424	71	4795
2026-01-06 04:04:15.29	17.31	19.91	-52.7	-55.0	14.2	0.00e+00	0	26	0	394264576	71	4722
2026-01-06 04:04:16.29	17.10	19.98	-52.7	-55.0	14.2	0.00e+00	0	26	0	396361728	71	4730
2026-01-06 04:04:17.28	16.90	20.06	-52.9	-55.2	14.1	0.00e+00	0	26	0	398458880	71	4865
2026-01-06 04:04:18.27	16.70	20.13	-53.0	-55.5	14.0	0.00e+00	0	26	0	399507456	71	5002
2026-01-06 04:04:19.27	16.49	20.21	-52.9	-55.3	14.0	0.00e+00	0	26	0	401604608	71	4918
2026-01-06 04:04:20.27	16.28	20.28	-52.7	-55.0	14.2	0.00e+00	0	26	0	403701760	71	4715
2026-01-06 04:04:21.26	16.08	20.35	-52.3	-54.4	14.5	0.00e+00	0	26	0	405798912	71	4420
2026-01-06 04:04:22.26	15.87	20.43	-52.3	-54.4	14.5	0.00e+00	0	26	0	407896064	71	4428
2026-01-06 04:04:23.26	15.66	20.50	-52.1	-54.3	14.4	0.00e+00	0	26	0	408944640	70	4620
2026-01-06 04:04:24.26	15.44	20.57	-52.1	-54.2	14.4	0.00e+00	0	26	0	411041792	70	4589
2026-01-06 04:04:25.26	15.23	20.65	-52.2	-54.5	14.3	0.00e+00	0	26	0	413138944	70	4753
2026-01-06 04:04:26.26	15.02	20.72	-52.2	-54.5	14.3	0.00e+00	0	26	0	415236096	70	4707
2026-01-06 04:04:27.26	14.80	20.79	-52.1	-54.4	14.4	0.00e+00	0	26	0	417333248	70	4666
2026-01-06 04:04:28.26	14.59	20.87	-51.9	-54.1	14.5	0.00e+00	0	26	0	418381824	70	4499
2026-01-06 04:04:29.26	14.37	20.94	-51.7	-53.7	14.6	0.00e+00	0	26	0	420478976	70	4335
2026-01-06 04:04:30.26	14.15	21.01	-51.5	-53.5	14.6	0.00e+00	0	26	0	422576128	69	4487
2026-01-06 04:04:31.26	13.93	21.08	-51.5	-53.5	14.6	0.00e+00	0	26	0	424673280	69	4451
2026-01-06 04:04:32.26	13.71	21.15	-51.5	-53.5	14.5	0.00e+00	0	26	0	426770432	69	4485
2026-01-06 04:04:33.26	13.49	21.22	-51.4	-53.4	14.6	0.00e+00	0	26	0	427819008	69	4423
2026-01-06 04:04:34.27	13.27	21.30	-51.5	-53.5	14.6	0.00e+00	0	26	0	429916160	69	4462
2026-01-06 04:04:35.27	13.04	21.37	-51.2	-53.1	14.8	0.00e+00	0	26	0	432013312	69	4286
2026-01-06 04:04:36.27	12.82	21.44	-51.1	-53.0	14.7	0.00e+00	0	26	0	434110464	68	4444
2026-01-06 04:04:37.26	12.60	21.51	-51.2	-53.1	14.6	0.00e+00	0	26	0	435159040	68	4525
2026-01-06 04:04:38.25	12.37	21.58	-51.3	-53.2	14.6	0.00e+00	0	26	0	437256192	68	4585
2026-01-06 04:04:39.25	12.14	21.65	-51.6	-53.7	14.4	0.00e+00	0	26	0	439353344	68	4824
2026-01-06 04:04:40.25	11.92	21.72	-51.9	-54.0	14.3	0.00e+00	0	26	0	441450496	68	4999
2026-01-06 04:04:41.24	11.69	21.78	-51.9	-53.9	14.4	0.00e+00	0	26	0	443547648	69	4701
2026-01-06 04:04:42.24	11.46	21.85	-51.6	-53.6	14.5	0.00e+00	0	26	0	444596224	69	4516
2026-01-06 04:04:43.24	11.23	21.92	-51.6	-53.6	14.6	0.00e+00	0	26	0	446693376	69	4508
2026-01-06 04:04:44.24	11.00	21.99	-51.6	-53.5	14.6	0.00e+00	0	26	0	448790528	69	4467
2026-01-06 04:04:45.24	10.76	22.06	-51.4	-53.3	14.7	0.00e+00	0	26	0	450887680	69	4374
2026-01-06 04:04:46.24	10.53	22.12	-51.3	-53.2	14.7	0.00e+00	0	26	0	452984832	69	4326
2026-01-06 04:04:47.23	10.29	22.19	-51.3	-53.2	14.7	0.00e+00	0	26	0	454033408	69	4314
2026-01-06 04:04:48.23	10.06	22.26	-51.3	-53.2	14.8	0.00e+00	0	26	0	456130560	69	4310
2026-01-06 04:04:49.23	9.82	22.32	-51.2	-53.2	14.8	0.00e+00	0	26	0	458227712	69	4297
2026-01-06 04:04:50.23	9.58	22.39	-51.1	-53.1	14.7	0.00e+00	0	26	0	460324864	68	4501
2026-01-06 04:04:51.23	9.34	22.46	-51.1	-53.0	14.7	0.00e+00	0	26	0	461373440	68	4451
2026-01-06 04:04:52.23	9.10	22.52	-51.0	-52.8	14.8	0.00e+00	0	26	0	463470592	68	4390
2026-01-06 04:04:53.23	8.86	22.59	-51.1	-52.9	14.7	0.00e+00	0	26	0	465567744	68	4429
2026-01-06 04:04:54.23	8.62	22.65	-51.1	-53.0	14.7	0.00e+00	0	26	0	467664896	68	4458
2026-01-06 04:04:55.23	8.37	22.71	-51.2	-53.0	14.7	0.00e+00	0	26	0	469762048	68	4471
2026-01-06 04:04:56.22	8.13	22.78	-51.0	-52.8	14.7	0.00e+00	0	26	0	470810624	68	4371
2026-01-06 04:04:57.22	7.88	22.84	-50.5	-52.2	15.0	0.00e+00	0	26	0	472907776	67	4305
2026-01-06 04:04:58.22	7.64	22.90	-50.4	-52.0	14.9	0.00e+00	0	26	0	475004928	67	4217
2026-01-06 04:04:59.21	7.39	22.97	-50.5	-52.2	14.9	0.00e+00	0	26	0	477102080	67	4302
2026-01-06 04:05:00.21	7.14	23.03	-50.9	-52.6	14.7	0.00e+00	0	26	0	479199232	67	4543
2026-01-06 04:05:01.21	6.89	23.09	-51.0	-52.8	14.6	0.00e+00	0	26	0	480247808	67	4634
2026-01-06 04:05:02.21	6.64	23.15	-51.2	-53.1	14.5	0.00e+00	0	26	0	482344960	67	4771
2026-01-06 04:05:03.20	6.39	23.21	-51.2	-53.0	14.5	0.00e+00	0	26	0	484442112	67	4757
2026-01-06 04:05:04.21	6.14	23.27	-50.9	-52.6	14.7	0.00e+00	0	26	0	486539264	67	4531
2026-01-06 04:05:05.21	5.88	23.33	-50.8	-52.5	14.8	0.00e+00	0	26	0	487587840	67	4475
2026-01-06 04:05:06.20	5.63	23.39	-50.9	-52.7	14.7	0.00e+00	0	26	0	489684992	67	4560
2026-01-06 04:05:07.20	5.38	23.45	-51.2	-53.0	14.5	0.00e+00	0	26	0	491782144	67	4749
2026-01-06 04:05:08.21	5.12	23.51	-51.4	-53.3	14.5	0.00e+00	0	26	0	493879296	67	4882
2026-01-06 04:05:09.20	4.86	23.57	-51.6	-53.6	14.5	0.00e+00	0	26	0	495976448	68	4767
2026-01-06 04:05:10.20	4.60	23.62	-51.2	-53.0	14.7	0.00e+00	0	26	0	497025024	68	4474
2026-01-06 04:05:11.20	4.34	23.68	-51.1	-53.0	14.7	0.00e+00	0	26	0	499122176	68	4442
2026-01-06 04:05:12.20	4.08	23.74	-50.9	-52.7	14.9	0.00e+00	0	26	0	501219328	68	4297
2026-01-06 04:05:13.19	3.82	23.79	-51.1	-52.8	14.8	0.00e+00	0	26	0	503316480	68	4381
2026-01-06 04:05:14.19	3.56	23.85	-51.2	-53.0	14.7	0.00e+00	0	26	0	505413632	68	4487
2026-01-06 04:05:15.19	3.30	23.90	-51.4	-53.3	14.6	0.00e+00	0	26	0	506462208	68	4637
2026-01-06 04:05:16.19	3.03	23.96	-51.5	-53.4	14.6	0.00e+00	0	26	0	508559360	68	4657
2026-01-06 04:05:17.18	2.77	24.01	-51.4	-53.2	14.6	0.00e+00	0	26	0	510656512	68	4558
2026-01-06 04:05:18.18	2.51	24.06	-51.0	-52.7	14.8	0.00e+00	0	26	0	512753664	68	4310
2026-01-06 04:05:19.17	2.24	24.11	-50.9	-52.6	14.9	0.00e+00	0	26	0	513802240	68	4266
2026-01-06 04:05:20.17	1.97	24.17	-51.1	-52.8	14.8	0.00e+00	0	26	0	515899392	68	4356
2026-01-06 04:05:21.17	1.70	24.22	-51.1	-52.9	14.8	0.00e+00	0	26	0	517996544	68	4402
2026-01-06 04:05:22.17	1.44	24.27	-51.3	-53.0	14.7	0.00e+00	0	26	0	520093696	68	4475
2026-01-06 04:05:23.16	1.17	24.32	-51.2	-52.9	14.7	0.00e+00	0	26	0	522190848	68	4422
2026-01-06 04:05:24.16	0.90	24.37	-51.0	-52.7	14.9	0.00e+00	0	26	0	523239424	68	4305
2026-01-06 04:05:25.15	0.63	24.42	-50.9	-52.6	14.9	0.00e+00	0	26	0	525336576	68	4250
2026-01-06 04:05:26.15	0.35	24.46	-51.0	-52.7	14.8	0.00e+00	0	26	0	527433728	68	4325
2026-01-06 04:05:27.15	0.08	24.51	-51.2	-52.9	14.7	0.00e+00	0	26	0	529530880	68	4422
2026-01-06 04:05:28.15	359.80	24.56	-51.3	-53.1	14.7	0.00e+00	0	26	0	530579456	68	4525
2026-01-06 04:05:29.15	359.53	24.61	-51.5	-53.4	14.6	0.00e+00	0	26	0	532676608	68	4658
2026-01-06 04:05:30.15	359.25	24.65	-51.3	-53.1	14.7	0.00e+00	0	26	0	534773760	68	4530
2026-01-06 04:05:31.15	358.98	24.70	-51.1	-52.8	14.8	0.00e+00	0	26	0	536870912	68	4378
2026-01-06 04:05:32.15	358.70	24.74	-50.9	-52.6	14.9	0.00e+00	0	26	0	538968064	68	4270
2026-01-06 04:05:33.15	358.42	24.79	-51.1	-52.8	14.8	0.00e+00	0	26	0	540016640	68	4385
2026-01-06 04:05:34.15	358.14	24.83	-51.0	-52.7	14.8	0.00e+00	0	26	0	542113792	68	4297
2026-01-06 04:05:35.16	357.86	24.87	-51.1	-52.8	14.8	0.00e+00	0	26	0	544210944	68	4364
2026-01-06 04:05:36.16	357.58	24.91	-51.1	-52.9	14.8	0.00e+00	0	26	0	546308096	68	4394
2026-01-06 04:05:37.17	357.29	24.96	-50.9	-52.6	14.9	0.00e+00	0	26	0	548405248	68	4271
2026-01-06 04:05:38.16	357.01	25.00	-51.2	-52.9	14.7	0.00e+00	0	26	0	549453824	68	4440
2026-01-06 04:05:39.16	356.73	25.03	-51.3	-53.0	14.7	0.00e+00	0	26	0	551550976	68	4491
2026-01-06 04:05:40.15	356.45	25.07	-51.5	-53.3	14.6	0.00e+00	0	26	0	553648128	68	4606
2026-01-06 04:05:41.15	356.16	25.11	-51.7	-53.6	14.5	0.00e+00	0	26	0	555745280	68	4763
2026-01-06 04:05:42.15	355.88	25.15	-52.0	-54.0	14.4	0.00e+00	0	26	0	557842432	69	4707
2026-01-06 04:05:43.15	355.59	25.19	-52.3	-54.3	14.3	0.00e+00	0	26	0	558891008	69	4916
2026-01-06 04:05:44.15	355.30	25.22	-52.6	-54.7	14.2	0.00e+00	0	26	0	560988160	70	4856
2026-01-06 04:05:45.15	355.02	25.26	-53.1	-55.4	14.1	0.00e+00	0	26	0	563085312	71	4948
2026-01-06 04:05:46.14	354.73	25.29	-53.0	-55.3	14.0	0.00e+00	0	26	0	565182464	71	4890
2026-01-06 04:05:47.14	354.44	25.33	-53.1	-55.4	14.0	0.00e+00	0	26	0	566231040	71	4981
2026-01-06 04:05:48.13	354.16	25.36	-52.7	-54.9	14.2	0.00e+00	0	26	0	568328192	71	4686
2026-01-06 04:05:49.13	353.87	25.39	-52.7	-54.9	14.2	0.00e+00	0	26	0	570425344	71	4665
2026-01-06 04:05:50.12	353.58	25.42	-52.7	-54.8	14.3	0.00e+00	0	26	0	572522496	71	4648
2026-01-06 04:05:51.13	353.28	25.45	-52.6	-54.8	14.3	0.00e+00	0	26	0	574619648	71	4628
2026-01-06 04:05:52.13	352.99	25.48	-52.6	-54.8	14.3	0.00e+00	0	26	0	575668224	71	4620
2026-01-06 04:05:53.13	352.70	25.51	-52.3	-54.5	14.5	0.00e+00	0	26	0	577765376	71	4444
2026-01-06 04:05:54.13	352.41	25.54	-52.3	-54.4	14.5	0.00e+00	0	26	0	579862528	71	4435
2026-01-06 04:05:55.14	352.11	25.57	-52.6	-54.9	14.3	0.00e+00	0	26	0	581959680	71	4667
2026-01-06 04:05:56.13	351.82	25.60	-52.9	-55.2	14.1	0.00e+00	0	26	0	583008256	71	4859
2026-01-06 04:05:57.14	351.52	25.62	-53.1	-55.6	13.9	0.00e+00	0	26	0	585105408	71	5071
2026-01-06 04:05:58.14	351.23	25.65	-52.9	-55.3	14.0	0.00e+00	0	26	0	587202560	71	4903
2026-01-06 04:05:59.13	350.94	25.67	-52.7	-54.9	14.2	0.00e+00	0	26	0	589299712	71	4703
2026-01-06 04:06:00.13	350.64	25.70	-52.5	-54.6	14.3	0.00e+00	0	26	0	591396864	71	4532
2026-01-06 04:06:01.13	350.34	25.72	-52.6	-54.8	14.3	0.00e+00	0	26	0	592445440	71	4650
2026-01-06 04:06:02.12	350.05	25.74	-52.9	-55.3	14.1	0.00e+00	0	26	0	594542592	71	4898
2026-01-06 04:06:03.12	349.75	25.76	-53.3	-55.9	13.8	0.00e+00	0	26	0	596639744	71	5267
2026-01-06 04:06:04.12	349.46	25.78	-53.4	-56.1	13.8	0.00e+00	0	26	0	598736896	72	5064
2026-01-06 04:06:05.12	349.16	25.80	-53.3	-55.8	13.9	0.00e+00	0	26	0	600834048	72	4902
2026-01-06 04:06:06.13	348.86	25.82	-52.9	-55.3	14.2	0.00e+00	0	26	0	601882624	72	4631
2026-01-06 04:06:07.12	348.56	25.84	-52.7	-55.0	14.3	0.00e+00	0	26	0	603979776	72	4474
2026-01-06 04:06:08.12	348.26	25.86	-52.6	-54.9	14.2	0.00e+00	0	26	0	606076928	71	4669
2026-01-06 04:06:09.13	347.96	25.87	-52.6	-54.9	14.2	0.00e+00	0	26	0	608174080	71	4679
2026-01-06 04:06:10.12	347.66	25.89	-52.6	-54.9	14.3	0.00e+00	0	26	0	609222656	71	4677
2026-01-06 04:06:11.11	347.37	25.90	-52.6	-54.9	14.3	0.00e+00	0	26	0	611319808	71	4675
2026-01-06 04:06:12.11	347.07	25.92	-52.4	-54.6	14.4	0.00e+00	0	26	0	613416960	71	4531
2026-01-06 04:06:13.11	346.77	25.93	-52.6	-54.8	14.3	0.00e+00	0	26	0	615514112	71	4651
2026-01-06 04:06:14.11	346.47	25.94	-52.6	-54.9	14.2	0.00e+00	0	26	0	617611264	71	4695
2026-01-06 04:06:15.11	346.17	25.95	-52.7	-55.0	14.2	0.00e+00	0	26	0	618659840	71	4743
2026-01-06 04:06:16.10	345.87	25.96	-52.7	-55.1	14.1	0.00e+00	0	26	0	620756992	71	4802
2026-01-06 04:06:17.09	345.57	25.97	-53.1	-55.6	13.9	0.00e+00	0	26	0	622854144	71	5054
2026-01-06 04:06:18.09	345.27	25.98	-53.1	-55.5	13.9	0.00e+00	0	26	0	624951296	71	5034
2026-01-06 04:06:19.08	344.97	25.99	-53.1	-55.6	14.0	0.00e+00	0	26	0	627048448	71	5057
2026-01-06 04:06:20.08	344.67	25.99	-53.4	-55.9	13.8	0.00e+00	0	26	0	628097024	71	5249
2026-01-06 04:06:21.08	344.37	26.00	-53.4	-56.0	13.8	0.00e+00	0	26	0	630194176	71	5286
2026-01-06 04:06:22.08	344.07	26.00	-52.7	-55.0	14.2	0.00e+00	0	26	0	632291328	71	4711
2026-01-06 04:06:23.08	343.76	26.01	-52.4	-54.5	14.4	0.00e+00	0	26	0	634388480	71	4487
2026-01-06 04:06:24.08	343.46	26.01	-52.2	-54.2	14.4	0.00e+00	0	26	0	635437056	70	4574
2026-01-06 04:06:25.07	343.16	26.01	-52.1	-54.1	14.4	0.00e+00	0	26	0	637534208	70	4545
2026-01-06 04:06:26.06	342.86	26.02	-52.0	-54.0	14.5	0.00e+00	0	26	0	639631360	70	4490
2026-01-06 04:06:27.06	342.56	26.02	-52.5	-54.6	14.3	0.00e+00	0	26	0	641728512	70	4814
2026-01-06 04:06:28.06	342.26	26.02	-52.7	-55.0	14.1	0.00e+00	0	26	0	643825664	70	5010
2026-01-06 04:06:29.06	341.96	26.02	-52.9	-55.2	14.1	0.00e+00	0	26	0	644874240	71	4869
2026-01-06 04:06:30.05	341.66	26.01	-53.1	-55.7	13.9	0.00e+00	0	26	0	646971392	71	5111
2026-01-06 04:06:31.06	341.35	26.01	-53.0	-55.5	14.0	0.00e+00	0	26	0	649068544	71	5010
2026-01-06 04:06:32.06	341.05	26.01	-52.9	-55.3	14.0	0.00e+00	0	26	0	651165696	71	4924
2026-01-06 04:06:33.06	340.75	26.00	-52.6	-54.9	14.2	0.00e+00	0	26	0	653262848	71	4695
2026-01-06 04:06:34.05	340.45	26.00	-52.6	-54.9	14.2	0.00e+00	0	26	0	654311424	71	4701
2026-01-06 04:06:35.05	340.15	25.99	-52.6	-54.9	14.3	0.00e+00	0	26	0	656408576	71	4660
2026-01-06 04:06:36.05	339.85	25.98	-52.7	-55.0	14.2	0.00e+00	0	26	0	658505728	71	4747
2026-01-06 04:06:37.05	339.55	25.98	-52.5	-54.7	14.4	0.00e+00	0	26	0	660602880	71	4550
2026-01-06 04:06:38.04	339.25	25.97	-52.3	-54.4	14.5	0.00e+00	0	26	0	661651456	71	4404
2026-01-06 04:06:39.04	338.95	25.96	-52.0	-54.1	14.5	0.00e+00	0	26	0	663748608	70	4501
2026-01-06 04:06:40.03	338.65	25.95	-51.7	-53.6	14.7	0.00e+00	0	26	0	665845760	70	4274
2026-01-06 04:06:41.03	338.35	25.93	-51.3	-53.2	14.8	0.00e+00	0	26	0	667942912	69	4316
2026-01-06 04:06:42.02	338.05	25.92	-51.4	-53.3	14.8	0.00e+00	0	26	0	670040064	69	4358
2026-01-06 04:06:43.02	337.75	25.91	-51.4	-53.3	14.7	0.00e+00	0	26	0	671088640	69	4350
2026-01-06 04:06:44.02	337.45	25.90	-51.6	-53.5	14.7	0.00e+00	0	26	0	673185792	69	4447
2026-01-06 04:06:45.02	337.15	25.88	-51.8	-53.7	14.5	0.00e+00	0	26	0	675282944	69	4582
2026-01-06 04:06:46.02	336.85	25.86	-52.0	-54.0	14.4	0.00e+00	0	26	0	677380096	69	4741
2026-01-06 04:06:47.02	336.55	25.85	-51.9	-53.9	14.5	0.00e+00	0	26	0	678428672	69	4696
2026-01-06 04:06:48.01	336.26	25.83	-51.8	-53.7	14.6	0.00e+00	0	26	0	680525824	69	4584
2026-01-06 04:06:49.02	335.96	25.81	-51.3	-53.0	14.9	0.00e+00	0	26	0	682622976	69	4232
2026-01-06 04:06:50.02	335.66	25.79	-50.7	-52.4	15.0	0.00e+00	0	26	0	684720128	68	4163
2026-01-06 04:06:51.02	335.36	25.77	-50.4	-52.0	15.0	0.00e+00	0	26	0	686817280	67	4196
2026-01-06 04:06:52.03	335.06	25.75	-50.3	-51.9	15.0	0.00e+00	0	26	0	687865856	67	4166
2026-01-06 04:06:53.03	334.76	25.73	-50.5	-52.1	14.9	0.00e+00	0	26	0	689963008	67	4290
2026-01-06 04:06:54.03	334.47	25.71	-50.7	-52.4	14.8	0.00e+00	0	26	0	692060160	67	4393
2026-01-06 04:06:55.03	334.17	25.68	-50.7	-52.3	14.9	0.00e+00	0	26	0	694157312	67	4366
2026-01-06 04:06:56.03	333.87	25.66	-50.5	-52.1	14.9	0.00e+00	0	26	0	696254464	67	4255
2026-01-06 04:06:57.03	333.58	25.64	-50.5	-52.1	14.9	0.00e+00	0	26	0	697303040	67	4284
2026-01-06 04:06:58.03	333.29	25.61	-50.7	-52.3	14.8	0.00e+00	0	26	0	699400192	67	4364
2026-01-06 04:06:59.03	332.99	25.58	-50.9	-52.6	14.7	0.00e+00	0	26	0	701497344	67	4514
2026-01-06 04:07:00.04	332.69	25.56	-50.9	-52.6	14.7	0.00e+00	0	26	0	703594496	67	4527
2026-01-06 04:07:01.04	332.40	25.53	-51.2	-52.9	14.6	0.00e+00	0	26	0	705691648	67	4695
2026-01-06 04:07:02.04	332.11	25.50	-51.0	-52.6	14.7	0.00e+00	0	26	0	706740224	67	4535
2026-01-06 04:07:03.04	331.82	25.47	-50.9	-52.5	14.7	0.00e+00	0	26	0	708837376	67	4466
2026-01-06 04:07:04.04	331.53	25.44	-51.0	-52.6	14.7	0.00e+00	0	26	0	710934528	67	4536
2026-01-06 04:07:05.04	331.23	25.41	-51.0	-52.7	14.7	0.00e+00	0	26	0	713031680	67	4584
2026-01-06 04:07:06.04	330.94	25.37	-51.1	-52.8	14.7	0.00e+00	0	26	0	715128832	67	4617
2026-01-06 04:07:07.03	330.66	25.34	-51.0	-52.7	14.7	0.00e+00	0	26	0	716177408	67	4568
2026-01-06 04:07:08.03	330.37	25.31	-51.3	-53.0	14.6	0.00e+00	0	26	0	718274560	67	4740
2026-01-06 04:07:09.04	330.08	25.27	-51.6	-53.4	14.6	0.00e+00	0	26	0	720371712	68	4668
2026-01-06 04:07:10.04	329.79	25.24	-51.9	-53.7	14.5	0.00e+00	0	26	0	722468864	69	4586
2026-01-06 04:07:11.04	329.50	25.20	-51.9	-53.7	14.6	0.00e+00	0	26	0	723517440	69	4555
2026-01-06 04:07:12.04	329.21	25.17	-52.0	-53.8	14.6	0.00e+00	0	26	0	725614592	69	4601
2026-01-06 04:07:13.03	328.93	25.13	-51.8	-53.6	14.6	0.00e+00	0	26	0	727711744	69	4529
2026-01-06 04:07:14.03	328.65	25.09	-52.0	-53.8	14.5	0.00e+00	0	26	0	729808896	69	4605
2026-01-06 04:07:15.02	328.37	25.05	-52.2	-54.1	14.4	0.00e+00	0	26	0	731906048	69	4792
2026-01-06 04:07:16.02	328.08	25.01	-52.2	-54.1	14.4	0.00e+00	0	26	0	732954624	69	4802
2026-01-06 04:07:17.01	327.80	24.97	-51.9	-53.7	14.6	0.00e+00	0	26	0	735051776	69	4554
2026-01-06 04:07:18.00	327.52	24.93	-51.6	-53.4	14.7	0.00e+00	0	26	0	737148928	69	4401
2026-01-06 04:07:19.00	327.24	24.89	-51.7	-53.4	14.7	0.00e+00	0	26	0	739246080	69	4419
2026-01-06 04:07:19.99	326.96	24.85	-51.7	-53.4	14.7	0.00e+00	0	26	0	740294656	69	4418
2026-01-06 04:07:20.99	326.68	24.81	-52.0	-53.8	14.5	0.00e+00	0	26	0	742391808	69	4644
2026-01-06 04:07:21.99	326.40	24.76	-52.1	-54.0	14.5	0.00e+00	0	26	0	744488960	69	4720
2026-01-06 04:07:22.99	326.12	24.72	-52.5	-54.5	14.3	0.00e+00	0	26	0	746586112	70	4738
2026-01-06 04:07:23.98	325.85	24.67	-52.6	-54.7	14.3	0.00e+00	0	26	0	748683264	70	4816
2026-01-06 04:07:24.97	325.57	24.63	-52.6	-54.7	14.2	0.00e+00	0	26	0	749731840	70	4842
2026-01-06 04:07:25.96	325.30	24.58	-52.7	-54.8	14.2	0.00e+00	0	26	0	751828992	70	4901
2026-01-06 04:07:26.96	325.03	24.54	-52.7	-54.8	14.2	0.00e+00	0	26	0	753926144	70	4890
2026-01-06 04:07:27.95	324.75	24.49	-52.5	-54.6	14.3	0.00e+00	0	26	0	756023296	70	4764
2026-01-06 04:07:28.94	324.48	24.44	-52.6	-54.7	14.3	0.00e+00	0	26	0	757071872	70	4865
2026-01-06 04:07:29.95	324.21	24.39	-52.8	-55.0	14.1	0.00e+00	0	26	0	759169024	70	5001
2026-01-06 04:07:30.95	323.94	24.34	-52.9	-55.2	14.2	0.00e+00	0	26	0	761266176	71	4834
2026-01-06 04:07:31.95	323.66	24.29	-52.9	-55.2	14.2	0.00e+00	0	26	0	763363328	71	4856
2026-01-06 04:07:32.94	323.40	24.24	-53.1	-55.5	14.0	0.00e+00	0	26	0	765460480	71	5029
2026-01-06 04:07:33.94	323.13	24.19	-52.9	-55.1	14.2	0.00e+00	0	26	0	766509056	71	4806
2026-01-06 04:07:34.93	322.86	24.14	-52.9	-55.2	14.1	0.00e+00	0	26	0	768606208	71	4835
2026-01-06 04:07:35.93	322.59	24.09	-53.0	-55.3	14.1	0.00e+00	0	26	0	770703360	71	4889
2026-01-06 04:07:36.93	322.33	24.04	-52.8	-55.1	14.2	0.00e+00	0	26	0	772800512	71	4767
2026-01-06 04:07:37.92	322.06	23.98	-52.9	-55.3	14.1	0.00e+00	0	26	0	773849088	71	4875
2026-01-06 04:07:38.92	321.80	23.93	-53.1	-55.5	14.0	0.00e+00	0	26	0	775946240	71	5014
2026-01-06 04:07:39.92	321.54	23.87	-53.2	-55.7	13.9	0.00e+00	0	26	0	778043392	71	5118
2026-01-06 04:07:40.92	321.27	23.82	-53.2	-55.7	13.9	0.00e+00	0	26	0	780140544	71	5133
2026-01-06 04:07:41.93	321.01	23.76	-53.1	-55.5	13.9	0.00e+00	0	26	0	782237696	71	5041
2026-01-06 04:07:42.93	320.75	23.71	-52.9	-55.2	14.1	0.00e+00	0	26	0	783286272	71	4861
2026-01-06 04:07:43.93	320.49	23.65	-52.7	-54.9	14.3	0.00e+00	0	26	0	785383424	71	4693
2026-01-06 04:07:44.93	320.23	23.59	-52.4	-54.6	14.4	0.00e+00	0	26	0	787480576	71	4506
2026-01-06 04:07:45.94	319.97	23.54	-52.3	-54.4	14.5	0.00e+00	0	26	0	789577728	71	4437
2026-01-06 04:07:46.94	319.71	23.48	-52.3	-54.4	14.6	0.00e+00	0	26	0	791674880	71	4392
2026-01-06 04:07:47.93	319.45	23.42	-52.2	-54.3	14.4	0.00e+00	0	26	0	792723456	70	4640
2026-01-06 04:07:48.93	319.20	23.36	-52.6	-54.9	14.2	0.00e+00	0	26	0	794820608	70	4940
2026-01-06 04:07:49.93	318.94	23.30	-52.5	-54.7	14.2	0.00e+00	0	26	0	796917760	70	4823
2026-01-06 04:07:50.92	318.69	23.24	-52.8	-55.2	14.0	0.00e+00	0	26	0	799014912	70	5135
2026-01-06 04:07:51.92	318.44	23.18	-53.1	-55.6	13.9	0.00e+00	0	26	0	801112064	71	5076
2026-01-06 04:07:52.91	318.19	23.12	-53.5	-56.3	13.7	0.00e+00	0	26	0	802160640	72	5186
2026-01-06 04:07:53.92	317.94	23.06	-53.5	-56.3	13.7	0.00e+00	0	26	0	804257792	72	5172
2026-01-06 04:07:54.91	317.69	23.00	-53.2	-55.7	13.9	0.00e+00	0	26	0	806354944	72	4850
2026-01-06 04:07:55.92	317.44	22.93	-52.7	-55.0	14.3	0.00e+00	0	26	0	808452096	72	4466
2026-01-06 04:07:56.92	317.19	22.87	-52.6	-55.0	14.2	0.00e+00	0	26	0	809500672	71	4707
2026-01-06 04:07:57.92	316.95	22.81	-52.5	-54.8	14.3	0.00e+00	0	26	0	811597824	71	4620
2026-01-06 04:07:58.91	316.70	22.74	-52.8	-55.2	14.1	0.00e+00	0	26	0	813694976	71	4841
2026-01-06 04:07:59.92	316.46	22.68	-53.1	-55.7	13.9	0.00e+00	0	26	0	815792128	71	5107
2026-01-06 04:08:00.92	316.21	22.62	-53.3	-55.9	13.7	0.00e+00	0	26	0	817889280	71	5254
2026-01-06 04:08:01.91	315.97	22.55	-53.6	-56.4	13.7	0.00e+00	0	26	0	818937856	72	5233
2026-01-06 04:08:02.90	315.73	22.49	-53.5	-56.3	13.7	0.00e+00	0	26	0	821035008	72	5184
2026-01-06 04:08:03.91	315.49	22.42	-53.5	-56.2	13.7	0.00e+00	0	26	0	823132160	72	5153
2026-01-06 04:08:04.91	315.25	22.35	-53.5	-56.2	13.7	0.00e+00	0	26	0	825229312	72	5147
2026-01-06 04:08:05.90	315.02	22.29	-52.8	-55.3	14.2	0.00e+00	0	26	0	827326464	72	4608
2026-01-06 04:08:06.91	314.78	22.22	-52.6	-55.0	14.2	0.00e+00	0	26	0	828375040	71	4707
2026-01-06 04:08:07.90	314.54	22.16	-52.4	-54.6	14.4	0.00e+00	0	26	0	830472192	71	4523
2026-01-06 04:08:08.91	314.30	22.09	-52.0	-54.1	14.5	0.00e+00	0	26	0	832569344	70	4502
2026-01-06 04:08:09.91	314.07	22.02	-51.9	-53.8	14.6	0.00e+00	0	26	0	834666496	70	4391
2026-01-06 04:08:10.91	313.84	21.95	-51.7	-53.7	14.6	0.00e+00	0	26	0	835715072	69	4563
2026-01-06 04:08:11.91	313.61	21.88	-51.9	-53.9	14.5	0.00e+00	0	26	0	837812224	69	4692
2026-01-06 04:08:12.91	313.37	21.81	-52.1	-54.3	14.4	0.00e+00	0	26	0	839909376	69	4875
2026-01-06 04:08:13.91	313.14	21.75	-52.1	-54.3	14.3	0.00e+00	0	26	0	842006528	69	4911
2026-01-06 04:08:14.90	312.92	21.68	-52.3	-54.6	14.1	0.00e+00	0	26	0	844103680	69	5057
2026-01-06 04:08:15.90	312.69	21.61	-52.2	-54.4	14.2	0.00e+00	0	26	0	845152256	69	4977
2026-01-06 04:08:16.90	312.46	21.54	-52.1	-54.3	14.3	0.00e+00	0	26	0	847249408	69	4888
2026-01-06 04:08:17.90	312.24	21.47	-52.0	-54.1	14.4	0.00e+00	0	26	0	849346560	69	4795
2026-01-06 04:08:18.89	312.01	21.40	-51.9	-53.9	14.4	0.00e+00	0	26	0	851443712	69	4705
2026-01-06 04:08:19.88	311.79	21.33	-51.5	-53.4	14.7	0.00e+00	0	26	0	853540864	69	4431
2026-01-06 04:08:20.88	311.57	21.26	-51.4	-53.3	14.7	0.00e+00	0	26	0	854589440	69	4350
2026-01-06 04:08:21.87	311.35	21.19	-51.2	-53.0	14.7	0.00e+00	0	26	0	856686592	68	4472
2026-01-06 04:08:22.86	311.13	21.12	-50.9	-52.6	14.9	0.00e+00	0	26	0	858783744	68	4286
2026-01-06 04:08:23.86	310.91	21.04	-50.9	-52.7	14.8	0.00e+00	0	26	0	860880896	68	4310
2026-01-06 04:08:24.86	310.69	20.97	-51.1	-53.0	14.7	0.00e+00	0	26	0	861929472	68	4467
2026-01-06 04:08:25.85	310.48	20.90	-51.5	-53.4	14.5	0.00e+00	0	26	0	864026624	68	4703
2026-01-06 04:08:26.85	310.26	20.83	-51.7	-53.7	14.4	0.00e+00	0	26	0	866123776	68	4844
2026-01-06 04:08:27.85	310.04	20.76	-51.8	-53.9	14.3	0.00e+00	0	26	0	868220928	68	4951
2026-01-06 04:08:28.85	309.83	20.68	-51.7	-53.8	14.4	0.00e+00	0	26	0	870318080	68	4897
2026-01-06 04:08:29.85	309.62	20.61	-51.9	-54.0	14.4	0.00e+00	0	26	0	871366656	69	4759
2026-01-06 04:08:30.85	309.40	20.54	-51.8	-53.9	14.4	0.00e+00	0	26	0	873463808	69	4681
2026-01-06 04:08:31.85	309.19	20.46	-52.1	-54.3	14.3	0.00e+00	0	26	0	875560960	69	4878
2026-01-06 04:08:32.84	308.98	20.39	-52.1	-54.2	14.3	0.00e+00	0	26	0	877658112	69	4868
2026-01-06 04:08:33.84	308.77	20.32	-52.0	-54.2	14.3	0.00e+00	0	26	0	879755264	69	4842
2026-01-06 04:08:34.83	308.57	20.24	-51.9	-54.1	14.4	0.00e+00	0	26	0	880803840	69	4768
2026-01-06 04:08:35.82	308.36	20.17	-51.9	-54.1	14.4	0.00e+00	0	26	0	882900992	69	4760
2026-01-06 04:08:36.82	308.15	20.09	-52.0	-54.1	14.3	0.00e+00	0	26	0	884998144	69	4804
2026-01-06 04:08:37.82	307.95	20.02	-51.9	-54.0	14.4	0.00e+00	0	26	0	887095296	69	4751
2026-01-06 04:08:38.82	307.74	19.95	-51.8	-53.9	14.4	0.00e+00	0	26	0	888143872	69	4684
2026-01-06 04:08:39.82	307.54	19.87	-51.6	-53.7	14.5	0.00e+00	0	26	0	890241024	69	4584
2026-01-06 04:08:40.82	307.34	19.80	-51.7	-53.8	14.5	0.00e+00	0	26	0	892338176	69	4618
2026-01-06 04:08:41.81	307.14	19.72	-51.6	-53.7	14.5	0.00e+00	0	26	0	894435328	69	4573
2026-01-06 04:08:42.81	306.94	19.65	-51.6	-53.7	14.5	0.00e+00	0	26	0	896532480	69	4572
2026-01-06 04:08:43.81	306.74	19.57	-51.7	-53.7	14.5	0.00e+00	0	26	0	897581056	69	4586
2026-01-06 04:08:44.81	306.54	19.49	-51.9	-54.1	14.4	0.00e+00	0	26	0	899678208	69	4776
2026-01-06 04:08:45.82	306.34	19.42	-52.2	-54.4	14.2	0.00e+00	0	26	0	901775360	69	4966
2026-01-06 04:08:46.81	306.15	19.34	-52.3	-54.6	14.1	0.00e+00	0	26	0	903872512	69	5081
2026-01-06 04:08:47.81	305.95	19.27	-52.2	-54.5	14.2	0.00e+00	0	26	0	904921088	69	4997
2026-01-06 04:08:48.80	305.76	19.19	-51.9	-54.0	14.4	0.00e+00	0	26	0	907018240	69	4717
2026-01-06 04:08:49.80	305.56	19.12	-51.7	-53.7	14.5	0.00e+00	0	26	0	909115392	69	4583
2026-01-06 04:08:50.80	305.37	19.04	-51.6	-53.6	14.6	0.00e+00	0	26	0	911212544	69	4500
2026-01-06 04:08:51.80	305.18	18.96	-51.7	-53.7	14.5	0.00e+00	0	26	0	913309696	69	4553
2026-01-06 04:08:52.80	304.99	18.89	-51.8	-53.8	14.5	0.00e+00	0	26	0	914358272	69	4630
2026-01-06 04:08:53.80	304.80	18.81	-51.9	-54.0	14.4	0.00e+00	0	26	0	916455424	69	4721
2026-01-06 04:08:54.79	304.61	18.73	-52.0	-54.1	14.4	0.00e+00	0	26	0	918552576	69	4768
2026-01-06 04:08:55.79	304.42	18.66	-52.0	-54.1	14.3	0.00e+00	0	26	0	920649728	69	4805
2026-01-06 04:08:56.79	304.24	18.58	-51.9	-53.9	14.4	0.00e+00	0	26	0	922746880	69	4688
2026-01-06 04:08:57.78	304.05	18.50	-51.8	-53.7	14.5	0.00e+00	0	26	0	923795456	69	4585
2026-01-06 04:08:58.78	303.87	18.43	-51.3	-53.2	14.8	0.00e+00	0	26	0	925892608	69	4294
2026-01-06 04:08:59.77	303.69	18.35	-51.2	-53.0	14.8	0.00e+00	0	26	0	927989760	69	4230
2026-01-06 04:09:00.77	303.50	18.27	-51.1	-52.9	14.7	0.00e+00	0	26	0	930086912	68	4431
2026-01-06 04:09:01.76	303.32	18.20	-51.0	-52.8	14.8	0.00e+00	0	26	0	931135488	68	4370
2026-01-06 04:09:02.76	303.14	18.12	-51.0	-52.8	14.8	0.00e+00	0	26	0	933232640	68	4361
2026-01-06 04:09:03.75	302.96	18.04	-51.0	-52.7	14.8	0.00e+00	0	26	0	935329792	68	4308
2026-01-06 04:09:04.75	302.78	17.97	-51.1	-52.8	14.8	0.00e+00	0	26	0	937426944	68	4365
2026-01-06 04:09:05.75	302.61	17.89	-51.1	-52.9	14.8	0.00e+00	0	26	0	939524096	68	4404
2026-01-06 04:09:06.75	302.43	17.81	-51.4	-53.2	14.6	0.00e+00	0	26	0	940572672	68	4578
2026-01-06 04:09:07.76	302.25	17.73	-51.4	-53.2	14.6	0.00e+00	0	26	0	942669824	68	4559
2026-01-06 04:09:08.76	302.07	17.65	-51.6	-53.5	14.5	0.00e+00	0	26	0	944766976	68	4729
2026-01-06 04:09:09.76	301.90	17.58	-51.6	-53.5	14.5	0.00e+00	0	26	0	946864128	68	4720
2026-01-06 04:09:10.77	301.72	17.50	-51.6	-53.5	14.5	0.00e+00	0	26	0	948961280	68	4740
2026-01-06 04:09:11.77	301.55	17.42	-51.4	-53.2	14.6	0.00e+00	0	26	0	950009856	68	4573
2026-01-06 04:09:12.77	301.38	17.34	-51.2	-53.0	14.7	0.00e+00	0	26	0	952107008	68	4459
2026-01-06 04:09:13.77	301.21	17.27	-51.2	-52.9	14.8	0.00e+00	0	26	0	954204160	68	4426
2026-01-06 04:09:14.77	301.04	17.19	-51.1	-52.8	14.8	0.00e+00	0	26	0	956301312	68	4361
2026-01-06 04:09:15.77	300.87	17.11	-51.2	-52.9	14.8	0.00e+00	0	26	0	957349888	68	4406
2026-01-06 04:09:16.77	300.70	17.03	-51.2	-52.9	14.8	0.00e+00	0	26	0	959447040	68	4407
2026-01-06 04:09:17.75	300.54	16.96	-51.3	-53.0	14.7	0.00e+00	0	26	0	961544192	68	4464
2026-01-06 04:09:18.75	300.37	16.88	-51.3	-53.1	14.7	0.00e+00	0	26	0	963641344	68	4498
2026-01-06 04:09:19.74	300.20	16.80	-51.2	-52.9	14.7	0.00e+00	0	26	0	965738496	68	4424
2026-01-06 04:09:20.73	300.04	16.72	-51.3	-53.1	14.7	0.00e+00	0	26	0	966787072	68	4509
2026-01-06 04:09:21.72	299.88	16.65	-51.5	-53.3	14.6	0.00e+00	0	26	0	968884224	68	4647
2026-01-06 04:09:22.72	299.72	16.57	-51.7	-53.5	14.5	0.00e+00	0	26	0	970981376	68	4744
2026-01-06 04:09:23.72	299.55	16.49	-51.7	-53.5	14.5	0.00e+00	0	26	0	973078528	68	4747
2026-01-06 04:09:24.71	299.39	16.41	-51.7	-53.6	14.5	0.00e+00	0	26	0	974127104	68	4766
2026-01-06 04:09:25.71	299.23	16.34	-51.7	-53.5	14.5	0.00e+00	0	26	0	976224256	68	4735
2026-01-06 04:09:26.71	299.07	16.26	-51.6	-53.4	14.6	0.00e+00	0	26	0	978321408	68	4665
2026-01-06 04:09:27.70	298.91	16.18	-51.7	-53.5	14.5	0.00e+00	0	26	0	980418560	68	4725
2026-01-06 04:09:28.69	298.76	16.11	-51.2	-53.0	14.7	0.00e+00	0	26	0	982515712	68	4445
2026-01-06 04:09:29.68	298.60	16.03	-51.0	-52.7	14.8	0.00e+00	0	26	0	983564288	68	4302
2026-01-06 04:09:30.69	298.44	15.95	-50.8	-52.4	14.9	0.00e+00	0	26	0	985661440	68	4180
2026-01-06 04:09:31.67	298.29	15.87	-51.1	-52.7	14.8	0.00e+00	0	26	0	987758592	68	4329
2026-01-06 04:09:32.67	298.14	15.80	-51.5	-53.2	14.6	0.00e+00	0	26	0	989855744	68	4590
2026-01-06 04:09:33.68	297.98	15.72	-51.6	-53.4	14.6	0.00e+00	0	26	0	990904320	68	4677
2026-01-06 04:09:34.67	297.83	15.64	-51.9	-53.8	14.4	0.00e+00	0	26	0	993001472	68	4921
2026-01-06 04:09:35.68	297.68	15.56	-52.1	-54.1	14.3	0.00e+00	0	26	0	995098624	69	4807
2026-01-06 04:09:36.68	297.52	15.49	-52.2	-54.2	14.3	0.00e+00	0	26	0	997195776	69	4852
2026-01-06 04:09:37.68	297.37	15.41	-52.3	-54.3	14.3	0.00e+00	0	26	0	999292928	69	4889
2026-01-06 04:09:38.69	297.22	15.33	-52.4	-54.5	14.2	0.00e+00	0	26	0	1000341504	69	4984
2026-01-06 04:09:39.69	297.07	15.25	-52.0	-54.0	14.4	0.00e+00	0	26	0	1002438656	69	4709
2026-01-06 04:09:40.69	296.92	15.18	-52.0	-54.0	14.4	0.00e+00	0	26	0	1004535808	69	4717
2026-01-06 04:09:41.69	296.78	15.10	-52.0	-53.9	14.5	0.00e+00	0	26	0	1006632960	69	4661
2026-01-06 04:09:42.69	296.63	15.02	-51.7	-53.5	14.6	0.00e+00	0	26	0	1008730112	69	4473
2026-01-06 04:09:43.70	296.48	14.94	-51.7	-53.5	14.6	0.00e+00	0	26	0	1009778688	69	4467
2026-01-06 04:09:44.70	296.34	14.87	-51.8	-53.6	14.6	0.00e+00	0	26	0	1011875840	69	4534
2026-01-06 04:09:45.70	296.19	14.79	-51.6	-53.4	14.6	0.00e+00	0	26	0	1013972992	69	4431
2026-01-06 04:09:46.70	296.05	14.71	-51.5	-53.3	14.7	0.00e+00	0	26	0	1016070144	69	4378
2026-01-06 04:09:47.71	295.90	14.64	-51.7	-53.5	14.6	0.00e+00	0	26	0	1018167296	69	4450
2026-01-06 04:09:48.71	295.76	14.56	-51.7	-53.5	14.6	0.00e+00	0	26	0	1019215872	69	4493
2026-01-06 04:09:49.70	295.62	14.48	-51.7	-53.5	14.6	0.00e+00	0	26	0	1021313024	69	4447
2026-01-06 04:09:50.71	295.48	14.41	-51.9	-53.8	14.5	0.00e+00	0	26	0	1023410176	69	4601
2026-01-06 04:09:51.71	295.34	14.33	-51.9	-53.8	14.5	0.00e+00	0	26	0	1025507328	69	4628
2026-01-06 04:09:52.70	295.20	14.25	-52.2	-54.2	14.3	0.00e+00	0	26	0	1027604480	69	4862
2026-01-06 04:09:53.70	295.06	14.18	-52.6	-54.7	14.2	0.00e+00	0	26	0	1028653056	70	4841
2026-01-06 04:09:54.69	294.92	14.10	-53.0	-55.3	14.0	0.00e+00	0	26	0	1030750208	71	4899
2026-01-06 04:09:55.69	294.79	14.02	-52.8	-55.0	14.2	0.00e+00	0	26	0	1032847360	71	4707
2026-01-06 04:09:56.68	294.65	13.95	-52.8	-55.0	14.2	0.00e+00	0	26	0	1034944512	71	4714
2026-01-06 04:09:57.69	294.51	13.87	-52.7	-54.8	14.2	0.00e+00	0	26	0	1035993088	71	4636
2026-01-06 04:09:58.68	294.38	13.80	-52.6	-54.6	14.4	0.00e+00	0	26	0	1038090240	71	4528
2026-01-06 04:09:59.68	294.25	13.72	-52.5	-54.6	14.4	0.00e+00	0	26	0	1040187392	71	4509
2026-01-06 04:10:00.68	294.11	13.65	-52.3	-54.2	14.6	0.00e+00	0	26	0	1042284544	71	4315
2026-01-06 04:10:01.68	293.98	13.57	-51.8	-53.6	14.7	0.00e+00	0	26	0	1044381696	70	4271
2026-01-06 04:10:02.68	293.85	13.49	-51.4	-53.2	14.7	0.00e+00	0	26	0	1045430272	69	4297
2026-01-06 04:10:03.69	293.71	13.42	-51.6	-53.4	14.6	0.00e+00	0	26	0	1047527424	69	4437
2026-01-06 04:10:04.69	293.58	13.34	-51.7	-53.5	14.6	0.00e+00	0	26	0	1049624576	69	4484
2026-01-06 04:10:05.69	293.45	13.27	-51.8	-53.6	14.6	0.00e+00	0	26	0	1051721728	69	4515
2026-01-06 04:10:06.68	293.32	13.19	-51.9	-53.8	14.4	0.00e+00	0	26	0	1052770304	69	4646
2026-01-06 04:10:07.69	293.19	13.12	-51.9	-53.7	14.5	0.00e+00	0	26	0	1054867456	69	4588
2026-01-06 04:10:08.69	293.07	13.04	-51.8	-53.6	14.5	0.00e+00	0	26	0	1056964608	69	4538
2026-01-06 04:10:09.69	292.94	12.96	-52.0	-53.8	14.5	0.00e+00	0	26	0	1059061760	69	4642
2026-01-06 04:10:10.69	292.81	12.89	-52.0	-53.9	14.4	0.00e+00	0	26	0	1061158912	69	4686
2026-01-06 04:10:11.69	292.69	12.81	-52.0	-53.8	14.4	0.00e+00	0	26	0	1063256064	69	4650
2026-01-06 04:10:12.69	292.56	12.74	-51.9	-53.8	14.5	0.00e+00	0	26	0	1064304640	69	4610
2026-01-06 04:10:13.69	292.43	12.67	-52.0	-53.9	14.4	0.00e+00	0	26	0	1066401792	69	4697
2026-01-06 04:10:14.68	292.31	12.59	-52.0	-53.9	14.4	0.00e+00	0	26	0	1068498944	69	4655
2026-01-06 04:10:15.68	292.19	12.52	-52.0	-54.0	14.4	0.00e+00	0	26	0	1070596096	69	4710
2026-01-06 04:10:16.67	292.07	12.44	-52.2	-54.2	14.3	0.00e+00	0	26	0	1071644672	69	4816
2026-01-06 04:10:17.68	291.94	12.37	-52.4	-54.5	14.2	0.00e+00	0	26	0	1073741824	69	4985
2026-01-06 04:10:18.67	291.82	12.29	-52.4	-54.5	14.3	0.00e+00	0	26	0	1075838976	70	4730
2026-01-06 04:10:19.67	291.70	12.22	-52.5	-54.6	14.2	0.00e+00	0	26	0	1077936128	70	4778
2026-01-06 04:10:20.67	291.58	12.15	-52.6	-54.8	14.1	0.00e+00	0	26	0	1080033280	70	4905
2026-01-06 04:10:21.66	291.46	12.07	-52.6	-54.8	14.2	0.00e+00	0	26	0	1081081856	70	4883
2026-01-06 04:10:22.66	291.34	12.00	-52.7	-54.9	14.1	0.00e+00	0	26	0	1083179008	70	4978
2026-01-06 04:10:23.65	291.22	11.93	-52.6	-54.8	14.1	0.00e+00	0	26	0	1085276160	70	4877
2026-01-06 04:10:24.64	291.11	11.85	-52.7	-54.9	14.1	0.00e+00	0	26	0	1087373312	70	4948
2026-01-06 04:10:25.63	290.99	11.78	-52.8	-55.0	14.0	0.00e+00	0	26	0	1088421888	70	5041
2026-01-06 04:10:26.63	290.87	11.71	-52.9	-55.2	14.1	0.00e+00	0	26	0	1090519040	71	4820
2026-01-06 04:10:27.63	290.76	11.63	-53.2	-55.6	13.8	0.00e+00	0	26	0	1092616192	71	5070
2026-01-06 04:10:28.63	290.64	11.56	-53.1	-55.5	13.9	0.00e+00	0	26	0	1094713344	71	5018
2026-01-06 04:10:29.62	290.53	11.49	-53.4	-55.9	13.8	0.00e+00	0	26	0	1096810496	72	4973
2026-01-06 04:10:30.62	290.41	11.41	-53.4	-55.9	13.8	0.00e+00	0	26	0	1097859072	72	4975
2026-01-06 04:10:31.61	290.30	11.34	-53.7	-56.3	13.6	0.00e+00	0	26	0	1099956224	72	5162
2026-01-06 04:10:32.61	290.19	11.27	-53.8	-56.4	13.6	0.00e+00	0	26	0	1102053376	72	5224
2026-01-06 04:10:33.60	290.08	11.20	-53.5	-55.9	13.8	0.00e+00	0	26	0	1104150528	72	4975
2026-01-06 04:10:34.59	289.97	11.12	-53.6	-56.1	13.7	0.00e+00	0	26	0	1105199104	72	5059
2026-01-06 04:10:35.59	289.85	11.05	-53.3	-55.6	13.9	0.00e+00	0	26	0	1107296256	72	4813
2026-01-06 04:10:36.59	289.74	10.98	-53.2	-55.5	14.0	0.00e+00	0	26	0	1109393408	72	4718
2026-01-06 04:10:37.59	289.63	10.91	-52.9	-55.1	14.2	0.00e+00	0	26	0	1111490560	72	4525
2026-01-06 04:10:38.59	289.52	10.83	-53.0	-55.2	14.2	0.00e+00	0	26	0	1113587712	72	4573
2026-01-06 04:10:39.58	289.41	10.76	-53.0	-55.2	14.2	0.00e+00	0	26	0	1114636288	72	4546
2026-01-06 04:10:40.58	289.31	10.69	-52.9	-55.1	14.2	0.00e+00	0	26	0	1116733440	72	4516
2026-01-06 04:10:41.58	289.20	10.62	-53.0	-55.1	14.2	0.00e+00	0	26	0	1118830592	72	4530
2026-01-06 04:10:42.58	289.09	10.55	-52.8	-54.9	14.3	0.00e+00	0	26	0	1120927744	72	4401
2026-01-06 04:10:43.58	288.98	10.48	-52.9	-55.0	14.2	0.00e+00	0	26	0	1121976320	72	4469
2026-01-06 04:10:44.58	288.88	10.40	-53.0	-55.3	14.1	0.00e+00	0	26	0	1124073472	72	4600
2026-01-06 04:10:45.58	288.77	10.33	-53.2	-55.5	14.0	0.00e+00	0	26	0	1126170624	72	4734
2026-01-06 04:10:46.58	288.66	10.26	-53.2	-55.4	14.0	0.00e+00	0	26	0	1128267776	72	4700
2026-01-06 04:10:47.58	288.56	10.19	-53.4	-55.8	13.9	0.00e+00	0	26	0	1130364928	72	4881
2026-01-06 04:10:48.58	288.45	10.12	-53.5	-55.9	13.8	0.00e+00	0	26	0	1131413504	72	4971
2026-01-06 04:10:49.57	288.35	10.05	-53.4	-55.8	13.9	0.00e+00	0	26	0	1133510656	72	4874
2026-01-06 04:10:50.56	288.25	9.98	-53.5	-56.0	13.8	0.00e+00	0	26	0	1135607808	72	5010
2026-01-06 04:10:51.56	288.15	9.91	-53.4	-55.8	13.9	0.00e+00	0	26	0	1137704960	72	4888
2026-01-06 04:10:52.55	288.04	9.84	-53.4	-55.9	13.8	0.00e+00	0	26	0	1139802112	72	4939
2026-01-06 04:10:53.55	287.94	9.77	-53.2	-55.6	13.9	0.00e+00	0	26	0	1140850688	72	4768
2026-01-06 04:10:54.55	287.84	9.70	-53.3	-55.6	13.9	0.00e+00	0	26	0	1142947840	72	4807
2026-01-06 04:10:55.55	287.74	9.63	-53.3	-55.6	13.9	0.00e+00	0	26	0	1145044992	72	4787
2026-01-06 04:10:56.55	287.64	9.56	-53.0	-55.3	14.1	0.00e+00	0	26	0	1147142144	72	4615
2026-01-06 04:10:57.55	287.54	9.49	-52.9	-55.2	14.1	0.00e+00	0	26	0	1148190720	72	4549
2026-01-06 04:10:58.54	287.44	9.42	-52.9	-55.1	14.2	0.00e+00	0	26	0	1150287872	72	4503
2026-01-06 04:10:59.54	287.34	9.35	-52.9	-55.1	14.1	0.00e+00	0	26	0	1152385024	72	4540
2026-01-06 04:11:00.53	287.24	9.28	-53.0	-55.2	14.1	0.00e+00	0	26	0	1154482176	72	4597
2026-01-06 04:11:01.53	287.15	9.21	-53.0	-55.3	14.1	0.00e+00	0	26	0	1156579328	72	4610
2026-01-06 04:11:02.54	287.05	9.14	-53.1	-55.5	14.0	0.00e+00	0	26	0	1157627904	72	4716
2026-01-06 04:11:03.54	286.95	9.07	-53.2	-55.6	13.9	0.00e+00	0	26	0	1159725056	72	4780
2026-01-06 04:11:04.54	286.85	9.00	-53.2	-55.5	13.9	0.00e+00	0	26	0	1161822208	72	4750
2026-01-06 04:11:05.53	286.76	8.93	-53.3	-55.7	13.8	0.00e+00	0	26	0	1163919360	72	4856
2026-01-06 04:11:06.53	286.66	8.86	-53.6	-56.2	13.6	0.00e+00	0	26	0	1164967936	72	5129
2026-01-06 04:11:07.53	286.57	8.79	-53.6	-56.3	13.6	0.00e+00	0	26	0	1167065088	72	5164
2026-01-06 04:11:08.52	286.47	8.72	-53.7	-56.4	13.5	0.00e+00	0	26	0	1169162240	72	5245
2026-01-06 04:11:09.52	286.38	8.65	-54.0	-56.7	13.3	0.00e+00	0	26	0	1171259392	73	5156
2026-01-06 04:11:10.52	286.29	8.59	-54.0	-56.8	13.3	0.00e+00	0	26	0	1173356544	73	5206
2026-01-06 04:11:11.52	286.19	8.52	-54.0	-56.9	13.2	0.00e+00	0	26	0	1174405120	73	5226
2026-01-06 04:11:12.51	286.10	8.45	-54.2	-57.0	13.2	0.00e+00	0	26	0	1176502272	73	5339
2026-01-06 04:11:13.51	286.01	8.38	-54.4	-57.3	13.0	0.00e+00	0	26	0	1178599424	73	5520
2026-01-06 04:11:14.41	285.93	8.32	-54.4	-57.4	13.1	0.00e+00	0	26	0	1180696576	74	5259
2026-01-06 04:11:15.48	285.83	8.25	-54.4	-57.4	13.1	0.00e+00	0	26	0	1182793728	74	5278
2026-01-06 04:11:16.34	285.75	8.19	-54.5	-57.6	13.0	0.00e+00	0	26	0	1183842304	74	5392
2026-01-06 04:11:17.48	285.65	8.11	-54.5	-57.5	13.0	0.00e+00	0	26	0	1185939456	74	5315
2026-01-06 04:11:18.33	285.57	8.05	-54.5	-57.6	12.9	7.00e-07	0	26	0	1188036608	74	5399
2026-01-06 04:11:19.47	285.47	7.98	-54.7	-57.9	12.8	0.00e+00	0	26	0	1190133760	74	5538
2026-01-06 04:11:20.33	285.39	7.92	-54.6	-57.7	12.9	0.00e+00	0	26	0	1191182336	74	5447
2026-01-06 04:11:21.47	285.29	7.84	-54.6	-57.7	12.9	0.00e+00	0	26	0	1193279488	74	5420
2026-01-06 04:11:22.33	285.21	7.78	-54.6	-57.8	12.8	0.00e+00	0	26	0	1195376640	74	5493
2026-01-06 04:11:23.47	285.11	7.71	-54.5	-57.6	13.0	0.00e+00	0	26	0	1197473792	74	5359
2026-01-06 04:11:24.32	285.04	7.65	-54.6	-57.7	12.9	0.00e+00	0	26	0	1198522368	74	5419
2026-01-06 04:11:25.46	284.94	7.57	-54.7	-57.9	12.8	0.00e+00	0	26	0	1201668096	74	5545
2026-01-06 04:11:26.32	284.86	7.51	-54.4	-57.4	13.1	0.00e+00	0	26	0	1202716672	74	5229
2026-01-06 04:11:27.46	284.76	7.44	-54.4	-57.5	13.0	0.00e+00	0	26	0	1204813824	74	5309
2026-01-06 04:11:28.31	284.69	7.38	-54.6	-57.7	12.8	0.00e+00	0	26	0	1206910976	74	5452
2026-01-06 04:11:29.45	284.59	7.31	-54.5	-57.7	12.9	0.00e+00	0	26	0	1209008128	74	5417
2026-01-06 04:11:30.30	284.52	7.25	-54.7	-57.9	12.8	0.00e+00	0	26	0	1210056704	74	5551
2026-01-06 04:11:31.44	284.42	7.17	-54.9	-58.3	12.5	0.00e+00	0	26	0	1212153856	74	5809
