passes_logs/2026/01/06/R3.2S_Murmansk/R3.2S_Murmansk__20260106_235127_NOAA_21_JPSS-2_rec.log

#Pass ID: 20260106_235127_NOAA 21 (JPSS-2)
#Satellite: NOAA 21 (JPSS-2)
#Configuration: NOAA-21
#almurnet v.1.7.20251203
#Start time: 2026-01-06 23:51:26

#Version: 2.2.20231116
#Station: R3.2S_Murmansk
#Location: 33.079688 lon 68.888172 lat
#TLE: 1 54234U 22150A   26005.56767909  .00000152  00000+0  92756-4 0  9990
#TLE: 2 54234  98.7490 306.5820 0001036 340.2747  19.8389 14.19532370163472

#Time	Az	El	Level	Level2	SNR	BER	BlckErr	Temp	State	Recorded	gain1	gain2
2026-01-06 23:51:26.99	21.75	1.98	-58.1	-71.4	3.8	1.49e+00	0	25	0	0	82	16546
2026-01-06 23:51:27.99	21.78	2.04	-58.0	-70.9	3.8	1.49e+00	0	25	104	0	81	16658
2026-01-06 23:51:28.98	21.81	2.10	-58.0	-70.8	3.8	1.49e+00	0	25	104	0	81	16326
2026-01-06 23:51:29.99	21.83	2.17	-58.0	-71.0	3.8	1.49e+00	0	25	104	0	81	16722
2026-01-06 23:51:30.97	21.86	2.23	-58.0	-70.3	3.8	1.49e+00	0	25	104	0	81	15564
2026-01-06 23:51:31.97	21.88	2.29	-58.0	-70.4	3.9	1.49e+00	0	25	104	0	81	15656
2026-01-06 23:51:32.97	21.91	2.36	-58.0	-70.4	3.9	1.49e+00	0	25	104	0	81	15737
2026-01-06 23:51:33.97	21.94	2.42	-58.0	-70.5	3.8	1.49e+00	0	25	104	0	81	15841
2026-01-06 23:51:34.97	21.97	2.48	-58.0	-70.5	3.9	1.49e+00	0	25	104	0	81	15821
2026-01-06 23:51:35.97	21.99	2.55	-58.0	-70.5	3.8	1.49e+00	0	25	104	0	81	15905
2026-01-06 23:51:36.97	22.02	2.61	-58.0	-70.3	3.9	1.49e+00	0	25	104	0	81	15452
2026-01-06 23:51:37.97	22.05	2.67	-58.0	-70.2	3.8	1.49e+00	0	25	104	0	81	15398
2026-01-06 23:51:38.97	22.07	2.74	-57.9	-69.7	3.9	1.48e+00	0	25	104	0	81	14414
2026-01-06 23:51:39.97	22.10	2.80	-57.9	-68.7	4.1	1.48e+00	0	25	104	0	81	12891
2026-01-06 23:51:40.97	22.13	2.87	-57.9	-68.7	3.9	1.47e+00	0	25	104	0	81	12889
2026-01-06 23:51:41.97	22.16	2.93	-57.8	-67.7	4.4	1.47e+00	0	25	104	0	81	11464
2026-01-06 23:51:42.98	22.19	3.00	-57.9	-68.4	4.0	1.42e+00	0	25	104	0	81	12479
2026-01-06 23:51:43.98	22.21	3.06	-57.7	-66.6	4.8	1.15e+00	0	26	104	0	81	10165
2026-01-06 23:51:44.97	22.24	3.13	-57.7	-67.1	4.6	1.41e+00	0	25	104	1048576	81	10682
2026-01-06 23:51:45.97	22.27	3.19	-57.6	-66.1	5.1	5.84e-01	0	26	0	1048576	81	9538
2026-01-06 23:51:46.97	22.30	3.26	-57.6	-66.3	4.9	1.16e+00	2	26	104	3145728	81	9827
2026-01-06 23:51:47.97	22.33	3.32	-57.6	-66.2	5.0	7.06e-01	0	26	0	5242880	81	9649
2026-01-06 23:51:48.96	22.35	3.39	-57.5	-65.8	5.2	5.48e-01	0	26	0	8388608	81	9197
2026-01-06 23:51:49.96	22.38	3.45	-57.5	-65.4	5.4	5.21e-01	0	26	0	11534336	81	8805
2026-01-06 23:51:50.96	22.41	3.52	-57.3	-64.7	5.9	3.23e-01	0	26	0	14680064	81	8154
2026-01-06 23:51:51.95	22.44	3.58	-57.3	-64.3	6.2	3.55e-01	0	26	0	17825792	81	7795
2026-01-06 23:51:52.95	22.47	3.65	-57.0	-63.3	6.9	1.34e-01	0	26	0	20971520	80	7325
2026-01-06 23:51:53.95	22.50	3.72	-56.6	-62.1	8.0	7.53e-02	0	26	0	24117248	79	6737
2026-01-06 23:51:54.95	22.53	3.78	-56.1	-60.6	9.2	1.11e-02	0	26	0	27262976	78	6048
2026-01-06 23:51:55.94	22.56	3.85	-55.9	-60.1	9.6	3.22e-03	0	26	0	30408704	78	5685
2026-01-06 23:51:56.95	22.58	3.92	-55.1	-58.5	10.8	2.82e-04	0	26	0	33554432	76	5298
2026-01-06 23:51:57.95	22.61	3.98	-54.7	-57.8	11.3	1.02e-04	0	26	0	36700160	76	4926
2026-01-06 23:51:58.95	22.64	4.05	-54.1	-56.8	11.9	1.37e-05	0	26	0	39845888	74	4920
2026-01-06 23:51:59.94	22.67	4.12	-54.0	-56.6	12.0	4.50e-06	0	26	0	42991616	74	4808
2026-01-06 23:52:00.94	22.70	4.18	-53.5	-55.9	12.5	0.00e+00	0	26	0	46137344	73	4681
2026-01-06 23:52:01.95	22.73	4.25	-53.4	-55.8	12.5	7.00e-07	0	26	0	49283072	73	4631
2026-01-06 23:52:02.96	22.76	4.32	-53.0	-55.2	12.9	0.00e+00	0	26	0	52428800	72	4577
2026-01-06 23:52:03.95	22.79	4.39	-53.2	-55.5	12.6	0.00e+00	0	26	0	55574528	72	4759
2026-01-06 23:52:04.96	22.82	4.46	-53.2	-55.6	12.6	0.00e+00	0	26	0	58720256	72	4788
2026-01-06 23:52:05.96	22.85	4.52	-53.2	-55.5	12.7	0.00e+00	0	26	0	61865984	72	4724
2026-01-06 23:52:06.96	22.88	4.59	-53.7	-56.2	12.2	0.00e+00	0	26	0	63963136	72	5133
2026-01-06 23:52:07.95	22.91	4.66	-53.6	-56.1	12.3	0.00e+00	0	26	0	67108864	72	5067
2026-01-06 23:52:08.96	22.95	4.73	-54.5	-57.5	11.5	2.67e-05	0	26	0	70254592	74	5291
2026-01-06 23:52:09.96	22.98	4.80	-54.7	-57.9	11.1	3.12e-05	0	26	0	73400320	74	5552
2026-01-06 23:52:10.95	23.01	4.87	-55.1	-58.6	10.6	9.84e-05	0	26	0	76546048	75	5689
2026-01-06 23:52:11.96	23.04	4.94	-55.5	-59.3	10.2	9.18e-04	0	26	0	79691776	76	5842
2026-01-06 23:52:12.96	23.07	5.01	-56.0	-60.4	9.3	5.57e-03	0	26	0	82837504	77	6231
2026-01-06 23:52:13.96	23.10	5.08	-52.4	-54.3	13.4	0.00e+00	0	26	0	85983232	71	4371
2026-01-06 23:52:14.96	23.13	5.15	-52.9	-55.0	12.9	0.00e+00	0	26	0	89128960	71	4735
2026-01-06 23:52:15.96	23.16	5.22	-57.5	-65.7	5.3	1.17e-01	0	26	0	92274688	80	9701
2026-01-06 23:52:16.96	23.20	5.29	-53.8	-56.3	12.4	5.41e-05	0	27	0	95420416	74	4602
2026-01-06 23:52:17.97	23.23	5.36	-57.1	-63.0	7.5	1.13e-02	0	26	0	98566144	79	7481
2026-01-06 23:52:18.97	23.26	5.43	-53.1	-55.3	12.9	7.40e-05	0	27	0	101711872	72	4621
2026-01-06 23:52:19.97	23.29	5.50	-53.0	-55.2	13.0	0.00e+00	0	26	0	104857600	72	4552
2026-01-06 23:52:20.97	23.32	5.57	-52.8	-54.8	13.2	0.00e+00	0	26	0	108003328	72	4386
2026-01-06 23:52:21.98	23.36	5.64	-53.1	-55.3	12.9	0.00e+00	0	27	0	111149056	72	4640
2026-01-06 23:52:22.97	23.39	5.71	-53.3	-55.6	12.7	0.00e+00	0	27	0	114294784	72	4778
2026-01-06 23:52:23.96	23.42	5.78	-53.2	-55.4	12.8	0.00e+00	0	27	0	117440512	72	4699
2026-01-06 23:52:24.97	23.45	5.86	-53.2	-55.5	12.8	0.00e+00	0	27	0	120586240	72	4710
2026-01-06 23:52:25.97	23.49	5.93	-53.3	-55.6	12.7	0.00e+00	0	26	0	123731968	72	4793
2026-01-06 23:52:26.97	23.52	6.00	-53.1	-55.3	12.9	0.00e+00	0	26	0	126877696	72	4645
2026-01-06 23:52:27.97	23.55	6.07	-53.1	-55.2	13.0	0.00e+00	0	27	0	130023424	72	4577
2026-01-06 23:52:28.97	23.59	6.15	-52.7	-54.7	13.2	0.00e+00	0	27	0	133169152	71	4584
2026-01-06 23:52:29.96	23.62	6.22	-52.4	-54.3	13.5	0.00e+00	0	26	0	136314880	71	4376
2026-01-06 23:52:30.95	23.65	6.29	-52.3	-54.1	13.5	0.00e+00	0	27	0	139460608	71	4291
2026-01-06 23:52:31.95	23.69	6.36	-52.0	-53.8	13.6	0.00e+00	0	27	0	142606336	70	4380
2026-01-06 23:52:32.96	23.72	6.44	-52.1	-53.9	13.6	0.00e+00	0	27	0	145752064	70	4414
2026-01-06 23:52:33.96	23.76	6.51	-52.1	-54.0	13.5	0.00e+00	0	27	0	148897792	70	4467
2026-01-06 23:52:34.96	23.79	6.58	-51.9	-53.7	13.7	0.00e+00	0	27	0	152043520	70	4302
2026-01-06 23:52:35.97	23.82	6.66	-51.9	-53.7	13.7	0.00e+00	0	27	0	155189248	70	4300
2026-01-06 23:52:36.97	23.86	6.73	-51.7	-53.5	13.8	0.00e+00	0	27	0	158334976	70	4200
2026-01-06 23:52:37.97	23.89	6.81	-51.5	-53.1	13.9	0.00e+00	0	27	0	161480704	69	4284
2026-01-06 23:52:38.98	23.93	6.88	-51.6	-53.3	13.8	0.00e+00	0	27	0	164626432	69	4367
2026-01-06 23:52:39.97	23.96	6.96	-51.5	-53.2	13.9	0.00e+00	0	27	0	167772160	69	4308
2026-01-06 23:52:40.96	24.00	7.03	-51.5	-53.1	13.9	0.00e+00	0	27	0	170917888	69	4290
2026-01-06 23:52:41.97	24.03	7.11	-51.4	-53.1	13.9	0.00e+00	0	27	0	174063616	69	4267
2026-01-06 23:52:42.97	24.07	7.18	-51.5	-53.2	13.9	0.00e+00	0	27	0	177209344	69	4312
2026-01-06 23:52:43.97	24.10	7.26	-51.4	-53.1	13.9	0.00e+00	0	27	0	180355072	69	4270
2026-01-06 23:52:44.97	24.14	7.33	-51.4	-53.0	14.0	0.00e+00	0	27	0	183500800	69	4216
2026-01-06 23:52:45.97	24.18	7.41	-51.3	-52.9	14.1	0.00e+00	0	27	0	186646528	69	4156
2026-01-06 23:52:46.97	24.21	7.48	-51.3	-53.0	14.0	0.00e+00	0	27	0	189792256	69	4194
2026-01-06 23:52:47.98	24.25	7.56	-51.4	-53.0	14.0	0.00e+00	0	27	0	192937984	69	4216
2026-01-06 23:52:48.99	24.29	7.64	-51.4	-53.0	14.0	0.00e+00	0	27	0	196083712	69	4211
2026-01-06 23:52:49.98	24.32	7.71	-51.3	-52.9	14.1	0.00e+00	0	27	0	199229440	69	4176
2026-01-06 23:52:50.99	24.36	7.79	-51.4	-53.0	14.0	0.00e+00	0	27	0	202375168	69	4232
2026-01-06 23:52:51.98	24.40	7.87	-51.5	-53.1	13.9	0.00e+00	0	27	0	205520896	69	4288
2026-01-06 23:52:52.99	24.43	7.95	-51.2	-52.8	14.1	0.00e+00	0	27	0	208666624	69	4139
2026-01-06 23:52:53.99	24.47	8.03	-51.4	-53.0	14.0	0.00e+00	0	27	0	211812352	69	4237
2026-01-06 23:52:54.98	24.51	8.10	-51.3	-52.9	14.0	0.00e+00	0	27	0	214958080	69	4173
2026-01-06 23:52:55.98	24.54	8.18	-51.1	-52.7	14.1	0.00e+00	0	27	0	218103808	68	4299
2026-01-06 23:52:56.97	24.58	8.26	-51.2	-52.8	14.0	0.00e+00	0	27	0	221249536	68	4361
2026-01-06 23:52:57.97	24.62	8.34	-51.1	-52.7	14.1	0.00e+00	0	27	0	223346688	68	4305
2026-01-06 23:52:58.97	24.66	8.42	-51.2	-52.8	14.0	0.00e+00	0	27	0	226492416	68	4391
2026-01-06 23:52:59.97	24.70	8.50	-51.1	-52.7	14.0	0.00e+00	0	27	0	229638144	68	4326
2026-01-06 23:53:00.97	24.74	8.57	-51.0	-52.6	14.1	0.00e+00	0	27	0	232783872	68	4264
2026-01-06 23:53:01.97	24.77	8.65	-51.1	-52.6	14.1	0.00e+00	0	27	0	235929600	68	4284
2026-01-06 23:53:02.97	24.81	8.73	-51.1	-52.7	14.1	0.00e+00	0	27	0	239075328	68	4298
2026-01-06 23:53:03.96	24.85	8.81	-50.9	-52.4	14.2	0.00e+00	0	27	0	242221056	68	4164
2026-01-06 23:53:04.96	24.89	8.89	-50.9	-52.5	14.2	0.00e+00	0	27	0	245366784	68	4197
2026-01-06 23:53:05.96	24.93	8.97	-51.1	-52.7	14.1	0.00e+00	0	27	0	248512512	68	4302
2026-01-06 23:53:06.97	24.97	9.06	-50.9	-52.4	14.2	0.00e+00	0	27	0	251658240	68	4164
2026-01-06 23:53:07.96	25.01	9.14	-50.8	-52.3	14.2	0.00e+00	0	27	0	254803968	68	4136
2026-01-06 23:53:08.96	25.05	9.22	-50.9	-52.4	14.2	0.00e+00	0	27	0	257949696	68	4172
2026-01-06 23:53:09.96	25.09	9.30	-50.8	-52.3	14.3	0.00e+00	0	27	0	261095424	68	4105
2026-01-06 23:53:10.96	25.13	9.38	-50.6	-52.1	14.2	0.00e+00	0	27	0	264241152	67	4256
2026-01-06 23:53:11.96	25.17	9.46	-50.4	-51.9	14.3	0.00e+00	0	27	0	267386880	67	4159
2026-01-06 23:53:12.97	25.21	9.55	-50.4	-51.8	14.3	0.00e+00	0	27	0	270532608	67	4139
2026-01-06 23:53:13.97	25.25	9.63	-50.5	-52.0	14.3	0.00e+00	0	27	0	273678336	67	4194
2026-01-06 23:53:14.97	25.29	9.71	-50.5	-52.0	14.3	0.00e+00	0	27	0	276824064	67	4197
2026-01-06 23:53:15.98	25.34	9.80	-50.4	-51.8	14.3	0.00e+00	0	27	0	279969792	67	4136
2026-01-06 23:53:16.98	25.38	9.88	-50.5	-51.9	14.3	0.00e+00	0	27	0	283115520	67	4191
2026-01-06 23:53:17.98	25.42	9.96	-50.4	-51.9	14.3	0.00e+00	0	27	0	286261248	67	4155
2026-01-06 23:53:18.99	25.46	10.05	-50.4	-51.8	14.3	0.00e+00	0	27	0	289406976	67	4142
2026-01-06 23:53:19.98	25.50	10.13	-50.3	-51.7	14.4	0.00e+00	0	27	0	292552704	67	4083
2026-01-06 23:53:20.98	25.55	10.22	-50.3	-51.7	14.4	0.00e+00	0	27	0	295698432	67	4089
2026-01-06 23:53:21.99	25.59	10.30	-50.3	-51.7	14.4	0.00e+00	0	27	0	298844160	67	4058
2026-01-06 23:53:22.99	25.63	10.39	-50.1	-51.5	14.4	0.00e+00	0	27	0	301989888	66	4234
2026-01-06 23:53:24.00	25.68	10.47	-50.2	-51.6	14.3	0.00e+00	0	27	0	305135616	66	4267
2026-01-06 23:53:24.99	25.72	10.56	-50.2	-51.6	14.3	0.00e+00	0	27	0	308281344	66	4283
2026-01-06 23:53:25.99	25.76	10.65	-50.2	-51.6	14.3	0.00e+00	0	27	0	311427072	66	4262
2026-01-06 23:53:26.99	25.81	10.73	-50.2	-51.6	14.3	0.00e+00	0	27	0	314572800	66	4246
2026-01-06 23:53:27.99	25.85	10.82	-50.2	-51.7	14.3	0.00e+00	0	27	0	317718528	66	4299
2026-01-06 23:53:29.00	25.90	10.91	-50.2	-51.6	14.4	0.00e+00	0	27	0	320864256	66	4245
2026-01-06 23:53:30.00	25.94	10.99	-50.1	-51.5	14.4	0.00e+00	0	27	0	324009984	66	4230
2026-01-06 23:53:31.01	25.99	11.08	-50.2	-51.6	14.3	0.00e+00	0	27	0	327155712	66	4283
2026-01-06 23:53:32.01	26.03	11.17	-50.0	-51.4	14.4	0.00e+00	0	27	0	330301440	66	4147
2026-01-06 23:53:33.01	26.08	11.26	-50.1	-51.5	14.4	0.00e+00	0	27	0	333447168	66	4209
2026-01-06 23:53:34.01	26.12	11.35	-50.1	-51.4	14.4	0.00e+00	0	27	0	336592896	66	4180
2026-01-06 23:53:35.01	26.17	11.43	-49.9	-51.3	14.5	0.00e+00	0	27	0	339738624	66	4102
2026-01-06 23:53:36.01	26.21	11.52	-50.0	-51.3	14.5	0.00e+00	0	28	0	342884352	66	4127
2026-01-06 23:53:37.00	26.26	11.61	-50.0	-51.3	14.5	0.00e+00	0	28	0	346030080	66	4140
2026-01-06 23:53:38.00	26.31	11.70	-49.9	-51.3	14.5	0.00e+00	0	27	0	349175808	66	4122
2026-01-06 23:53:38.99	26.35	11.79	-50.0	-51.3	14.5	0.00e+00	0	28	0	352321536	66	4142
2026-01-06 23:53:40.00	26.40	11.88	-50.0	-51.3	14.5	0.00e+00	0	28	0	355467264	66	4129
2026-01-06 23:53:41.00	26.45	11.97	-50.1	-51.4	14.4	0.00e+00	0	28	0	358612992	66	4178
2026-01-06 23:53:42.00	26.50	12.06	-50.0	-51.3	14.5	0.00e+00	0	27	0	361758720	66	4127
2026-01-06 23:53:43.00	26.54	12.15	-49.8	-51.1	14.6	0.00e+00	0	27	0	364904448	66	4037
2026-01-06 23:53:43.99	26.59	12.25	-49.7	-51.0	14.6	0.00e+00	0	27	0	368050176	66	3996
2026-01-06 23:53:45.00	26.64	12.34	-49.8	-51.1	14.6	0.00e+00	0	27	0	371195904	66	4035
2026-01-06 23:53:46.00	26.69	12.43	-49.8	-51.1	14.6	0.00e+00	0	27	0	374341632	66	4046
2026-01-06 23:53:47.00	26.74	12.52	-49.8	-51.1	14.6	0.00e+00	0	27	0	377487360	66	4034
2026-01-06 23:53:48.00	26.79	12.62	-49.8	-51.2	14.6	0.00e+00	0	27	0	380633088	66	4056
2026-01-06 23:53:49.01	26.84	12.71	-49.8	-51.1	14.6	0.00e+00	0	27	0	383778816	66	4030
2026-01-06 23:53:50.01	26.89	12.80	-49.9	-51.2	14.5	0.00e+00	0	27	0	386924544	66	4078
2026-01-06 23:53:51.01	26.94	12.90	-49.8	-51.1	14.6	0.00e+00	0	28	0	390070272	66	4048
2026-01-06 23:53:52.01	26.99	12.99	-49.8	-51.1	14.6	0.00e+00	0	28	0	393216000	66	4026
2026-01-06 23:53:53.00	27.04	13.09	-49.9	-51.2	14.5	0.00e+00	0	27	0	396361728	66	4066
2026-01-06 23:53:54.01	27.09	13.18	-49.9	-51.3	14.5	0.00e+00	0	27	0	399507456	66	4107
2026-01-06 23:53:55.01	27.14	13.28	-49.9	-51.2	14.5	0.00e+00	0	28	0	402653184	66	4078
2026-01-06 23:53:56.01	27.19	13.37	-49.6	-50.9	14.6	0.00e+00	0	28	0	404750336	65	4155
2026-01-06 23:53:57.01	27.24	13.47	-49.7	-51.0	14.5	0.00e+00	0	28	0	407896064	65	4234
2026-01-06 23:53:58.02	27.30	13.57	-49.7	-51.0	14.5	0.00e+00	0	28	0	411041792	65	4207
2026-01-06 23:53:59.02	27.35	13.66	-49.8	-51.1	14.5	0.00e+00	0	28	0	414187520	65	4277
2026-01-06 23:54:00.02	27.40	13.76	-49.7	-51.0	14.5	0.00e+00	0	28	0	417333248	65	4204
2026-01-06 23:54:01.02	27.46	13.86	-49.7	-51.0	14.5	0.00e+00	0	28	0	420478976	65	4232
2026-01-06 23:54:02.02	27.51	13.96	-49.6	-50.9	14.5	0.00e+00	0	28	0	423624704	65	4188
2026-01-06 23:54:03.02	27.56	14.05	-49.7	-51.0	14.5	0.00e+00	0	28	0	426770432	65	4214
2026-01-06 23:54:04.01	27.62	14.15	-49.7	-51.0	14.5	0.00e+00	0	28	0	429916160	65	4206
2026-01-06 23:54:05.02	27.67	14.25	-49.6	-51.0	14.5	0.00e+00	0	28	0	433061888	65	4195
2026-01-06 23:54:06.02	27.73	14.35	-49.8	-51.1	14.5	0.00e+00	0	28	0	436207616	65	4262
2026-01-06 23:54:07.02	27.78	14.45	-49.7	-51.0	14.5	0.00e+00	0	28	0	439353344	65	4241
2026-01-06 23:54:08.02	27.84	14.55	-49.8	-51.2	14.5	0.00e+00	0	28	0	442499072	65	4302
2026-01-06 23:54:09.03	27.89	14.65	-49.7	-51.0	14.5	0.00e+00	0	28	0	445644800	65	4241
2026-01-06 23:54:10.03	27.95	14.75	-49.8	-51.1	14.5	0.00e+00	0	28	0	448790528	65	4267
2026-01-06 23:54:11.02	28.01	14.85	-49.7	-51.1	14.5	0.00e+00	0	28	0	451936256	65	4248
2026-01-06 23:54:12.02	28.06	14.96	-49.7	-51.1	14.5	0.00e+00	0	28	0	455081984	65	4245
2026-01-06 23:54:13.02	28.12	15.06	-49.7	-51.0	14.5	0.00e+00	0	28	0	458227712	65	4213
2026-01-06 23:54:14.02	28.18	15.16	-49.6	-50.9	14.5	0.00e+00	0	27	0	461373440	65	4182
2026-01-06 23:54:15.01	28.23	15.26	-49.6	-50.9	14.5	0.00e+00	0	28	0	464519168	65	4192
2026-01-06 23:54:16.01	28.29	15.37	-49.6	-50.9	14.6	0.00e+00	0	27	0	467664896	65	4146
2026-01-06 23:54:17.01	28.35	15.47	-49.6	-50.9	14.6	0.00e+00	0	28	0	470810624	65	4160
2026-01-06 23:54:18.01	28.41	15.57	-49.6	-50.9	14.6	0.00e+00	0	28	0	473956352	65	4161
2026-01-06 23:54:19.01	28.47	15.68	-49.7	-51.0	14.5	0.00e+00	0	28	0	477102080	65	4206
2026-01-06 23:54:20.02	28.53	15.78	-49.5	-50.8	14.6	0.00e+00	0	28	0	480247808	65	4130
2026-01-06 23:54:21.02	28.59	15.89	-49.5	-50.8	14.6	0.00e+00	0	28	0	483393536	65	4111
2026-01-06 23:54:22.02	28.65	16.00	-49.6	-50.9	14.6	0.00e+00	0	27	0	486539264	65	4146
2026-01-06 23:54:23.03	28.71	16.10	-49.6	-50.9	14.5	0.00e+00	0	28	0	489684992	65	4183
2026-01-06 23:54:24.02	28.77	16.21	-49.5	-50.8	14.6	0.00e+00	0	28	0	492830720	65	4124
2026-01-06 23:54:25.02	28.84	16.32	-49.6	-50.9	14.6	0.00e+00	0	28	0	495976448	65	4178
2026-01-06 23:54:26.03	28.90	16.43	-49.5	-50.8	14.6	0.00e+00	0	28	0	499122176	65	4130
2026-01-06 23:54:27.03	28.96	16.53	-49.6	-50.9	14.6	0.00e+00	0	28	0	502267904	65	4178
2026-01-06 23:54:28.03	29.02	16.64	-49.5	-50.8	14.6	0.00e+00	0	28	0	505413632	65	4113
2026-01-06 23:54:29.04	29.09	16.75	-49.5	-50.8	14.6	0.00e+00	0	28	0	508559360	65	4124
2026-01-06 23:54:30.05	29.15	16.86	-49.6	-50.9	14.6	0.00e+00	0	28	0	511705088	65	4183
2026-01-06 23:54:31.05	29.22	16.97	-49.5	-50.8	14.6	0.00e+00	0	28	0	514850816	65	4134
2026-01-06 23:54:32.05	29.28	17.08	-49.6	-50.9	14.6	0.00e+00	0	28	0	517996544	65	4167
2026-01-06 23:54:33.04	29.35	17.19	-49.5	-50.8	14.6	0.00e+00	0	28	0	521142272	65	4130
2026-01-06 23:54:34.05	29.41	17.31	-49.6	-50.8	14.6	0.00e+00	0	28	0	524288000	65	4142
2026-01-06 23:54:35.04	29.48	17.42	-49.6	-50.9	14.6	0.00e+00	0	28	0	527433728	65	4147
2026-01-06 23:54:36.04	29.55	17.53	-49.6	-50.9	14.6	0.00e+00	0	28	0	530579456	65	4175
2026-01-06 23:54:37.05	29.61	17.64	-49.6	-50.9	14.6	0.00e+00	0	28	0	533725184	65	4176
2026-01-06 23:54:38.05	29.68	17.76	-49.7	-51.0	14.5	0.00e+00	0	28	0	536870912	65	4212
2026-01-06 23:54:39.06	29.75	17.87	-49.7	-51.0	14.5	0.00e+00	0	28	0	540016640	65	4221
2026-01-06 23:54:40.06	29.82	17.99	-49.7	-51.0	14.5	0.00e+00	0	28	0	543162368	65	4240
2026-01-06 23:54:41.06	29.89	18.10	-49.7	-51.0	14.6	0.00e+00	0	28	0	546308096	65	4205
2026-01-06 23:54:42.07	29.96	18.22	-49.8	-51.1	14.5	0.00e+00	0	28	0	549453824	65	4254
2026-01-06 23:54:43.07	30.03	18.33	-49.8	-51.1	14.5	0.00e+00	0	28	0	552599552	65	4276
2026-01-06 23:54:44.08	30.10	18.45	-49.9	-51.2	14.5	0.00e+00	0	28	0	555745280	65	4313
2026-01-06 23:54:45.08	30.17	18.57	-49.9	-51.2	14.5	0.00e+00	0	28	0	558891008	65	4309
2026-01-06 23:54:46.09	30.24	18.69	-49.9	-51.2	14.5	0.00e+00	0	28	0	562036736	65	4321
2026-01-06 23:54:47.09	30.31	18.80	-49.9	-51.3	14.4	0.00e+00	0	28	0	565182464	65	4351
2026-01-06 23:54:48.09	30.39	18.92	-50.0	-51.3	14.4	0.00e+00	0	28	0	568328192	65	4377
2026-01-06 23:54:49.09	30.46	19.04	-49.9	-51.2	14.5	0.00e+00	0	28	0	571473920	65	4326
2026-01-06 23:54:50.09	30.53	19.16	-49.8	-51.2	14.5	0.00e+00	0	28	0	574619648	65	4300
2026-01-06 23:54:51.09	30.61	19.28	-49.8	-51.2	14.5	0.00e+00	0	28	0	577765376	65	4299
2026-01-06 23:54:52.09	30.68	19.40	-49.9	-51.2	14.4	0.00e+00	0	28	0	580911104	65	4339
2026-01-06 23:54:53.09	30.76	19.52	-50.0	-51.3	14.4	0.00e+00	0	28	0	584056832	65	4376
2026-01-06 23:54:54.09	30.83	19.64	-49.9	-51.2	14.5	0.00e+00	0	28	0	586153984	65	4339
2026-01-06 23:54:55.09	30.91	19.77	-49.8	-51.1	14.5	0.00e+00	0	28	0	590348288	65	4286
2026-01-06 23:54:56.10	30.99	19.89	-49.8	-51.1	14.5	0.00e+00	0	28	0	593494016	65	4256
2026-01-06 23:54:57.09	31.06	20.01	-49.8	-51.1	14.5	0.00e+00	0	28	0	596639744	65	4270
2026-01-06 23:54:58.09	31.14	20.14	-49.6	-50.9	14.6	0.00e+00	0	28	0	598736896	65	4182
2026-01-06 23:54:59.09	31.22	20.26	-49.7	-51.0	14.6	0.00e+00	0	28	0	601882624	65	4207
2026-01-06 23:55:00.08	31.30	20.39	-49.7	-51.0	14.6	0.00e+00	0	28	0	605028352	65	4208
2026-01-06 23:55:01.09	31.38	20.51	-49.7	-51.0	14.6	0.00e+00	0	28	0	608174080	65	4200
2026-01-06 23:55:02.09	31.46	20.64	-49.6	-50.8	14.6	0.00e+00	0	28	0	611319808	65	4144
2026-01-06 23:55:03.08	31.54	20.76	-49.5	-50.8	14.6	0.00e+00	0	28	0	614465536	65	4102
2026-01-06 23:55:04.09	31.62	20.89	-49.4	-50.7	14.7	0.00e+00	0	28	0	617611264	65	4057
2026-01-06 23:55:05.08	31.71	21.02	-49.4	-50.6	14.7	0.00e+00	0	28	0	620756992	65	4047
2026-01-06 23:55:06.09	31.79	21.15	-49.2	-50.5	14.8	0.00e+00	0	28	0	623902720	65	3967
2026-01-06 23:55:07.09	31.87	21.28	-49.1	-50.3	14.7	0.00e+00	0	28	0	627048448	64	4131
2026-01-06 23:55:08.10	31.96	21.41	-49.2	-50.4	14.7	0.00e+00	0	28	0	630194176	64	4183
2026-01-06 23:55:09.11	32.05	21.54	-49.0	-50.2	14.7	0.00e+00	0	28	0	633339904	64	4072
2026-01-06 23:55:10.10	32.13	21.67	-48.9	-50.1	14.8	0.00e+00	0	28	0	636485632	64	4007
2026-01-06 23:55:11.10	32.22	21.80	-48.8	-50.0	14.8	0.00e+00	0	28	0	639631360	64	3995
2026-01-06 23:55:12.10	32.30	21.94	-48.7	-49.9	14.9	0.00e+00	0	28	0	642777088	64	3938
2026-01-06 23:55:13.11	32.39	22.07	-48.8	-50.0	14.8	0.00e+00	0	28	0	645922816	64	3963
2026-01-06 23:55:14.11	32.48	22.20	-48.6	-49.8	14.8	0.00e+00	0	28	0	649068544	63	4126
2026-01-06 23:55:15.11	32.57	22.34	-48.5	-49.7	14.8	0.00e+00	0	28	0	652214272	63	4052
2026-01-06 23:55:16.12	32.66	22.47	-48.6	-49.7	14.8	0.00e+00	0	28	0	655360000	63	4086
2026-01-06 23:55:17.12	32.75	22.61	-48.5	-49.7	14.8	0.00e+00	0	28	0	658505728	63	4057
2026-01-06 23:55:18.13	32.85	22.75	-48.5	-49.6	14.8	0.00e+00	0	28	0	661651456	63	4045
2026-01-06 23:55:19.13	32.94	22.88	-48.5	-49.6	14.8	0.00e+00	0	28	0	664797184	63	4030
2026-01-06 23:55:20.14	33.03	23.02	-48.4	-49.6	14.9	0.00e+00	0	28	0	667942912	63	4019
2026-01-06 23:55:21.14	33.13	23.16	-48.4	-49.6	14.9	0.00e+00	0	28	0	671088640	63	4020
2026-01-06 23:55:22.14	33.22	23.30	-48.5	-49.7	14.8	0.00e+00	0	28	0	674234368	63	4069
2026-01-06 23:55:23.14	33.32	23.44	-48.4	-49.6	14.9	0.00e+00	0	28	0	677380096	63	4005
2026-01-06 23:55:24.14	33.41	23.58	-48.5	-49.6	14.8	0.00e+00	0	28	0	680525824	63	4031
2026-01-06 23:55:25.15	33.51	23.72	-48.4	-49.6	14.9	0.00e+00	0	28	0	683671552	63	4016
2026-01-06 23:55:26.15	33.61	23.86	-48.6	-49.7	14.8	0.00e+00	0	28	0	686817280	63	4091
2026-01-06 23:55:27.15	33.71	24.01	-48.6	-49.8	14.8	0.00e+00	0	28	0	689963008	63	4125
2026-01-06 23:55:28.15	33.81	24.15	-48.5	-49.7	14.8	0.00e+00	0	28	0	693108736	63	4080
2026-01-06 23:55:29.15	33.91	24.29	-48.6	-49.8	14.8	0.00e+00	0	28	0	696254464	63	4121
2026-01-06 23:55:30.15	34.01	24.44	-48.6	-49.8	14.8	0.00e+00	0	28	0	699400192	63	4114
2026-01-06 23:55:31.15	34.11	24.58	-48.6	-49.7	14.8	0.00e+00	0	28	0	702545920	63	4098
2026-01-06 23:55:32.14	34.21	24.73	-48.6	-49.8	14.8	0.00e+00	0	28	0	705691648	63	4133
2026-01-06 23:55:33.14	34.32	24.87	-48.7	-49.8	14.8	0.00e+00	0	28	0	708837376	63	4144
2026-01-06 23:55:34.14	34.42	25.02	-48.6	-49.8	14.8	0.00e+00	0	28	0	711983104	63	4128
2026-01-06 23:55:35.13	34.53	25.17	-48.7	-49.9	14.7	0.00e+00	0	28	0	715128832	63	4179
2026-01-06 23:55:36.13	34.64	25.31	-48.8	-49.9	14.7	0.00e+00	0	28	0	718274560	63	4187
2026-01-06 23:55:37.14	34.75	25.47	-48.9	-50.1	14.7	0.00e+00	0	28	0	721420288	63	4259
2026-01-06 23:55:38.14	34.85	25.62	-49.0	-50.2	14.7	0.00e+00	0	28	0	724566016	63	4306
2026-01-06 23:55:39.13	34.96	25.77	-49.1	-50.3	14.7	0.00e+00	0	28	0	727711744	63	4349
2026-01-06 23:55:40.13	35.07	25.92	-49.2	-50.4	14.6	0.00e+00	0	28	0	730857472	63	4426
2026-01-06 23:55:41.14	35.19	26.07	-49.3	-50.5	14.6	0.00e+00	0	28	0	734003200	63	4464
2026-01-06 23:55:42.14	35.30	26.22	-49.4	-50.7	14.5	0.00e+00	0	28	0	737148928	63	4547
2026-01-06 23:55:43.13	35.41	26.38	-49.3	-50.6	14.6	0.00e+00	0	28	0	740294656	64	4253
2026-01-06 23:55:44.13	35.53	26.53	-49.4	-50.6	14.6	0.00e+00	0	28	0	743440384	64	4281
2026-01-06 23:55:45.13	35.65	26.69	-49.4	-50.7	14.6	0.00e+00	0	28	0	746586112	64	4305
2026-01-06 23:55:46.13	35.76	26.84	-49.4	-50.7	14.6	0.00e+00	0	28	0	749731840	64	4301
2026-01-06 23:55:47.13	35.88	27.00	-49.5	-50.8	14.6	0.00e+00	0	28	0	752877568	64	4348
2026-01-06 23:55:48.13	36.00	27.16	-49.4	-50.6	14.6	0.00e+00	0	28	0	756023296	64	4280
2026-01-06 23:55:49.13	36.12	27.32	-49.4	-50.7	14.6	0.00e+00	0	28	0	759169024	64	4302
2026-01-06 23:55:50.13	36.24	27.48	-49.5	-50.8	14.6	0.00e+00	0	28	0	762314752	64	4356
2026-01-06 23:55:51.13	36.37	27.64	-49.6	-50.8	14.6	0.00e+00	0	28	0	765460480	64	4374
2026-01-06 23:55:52.13	36.49	27.80	-49.6	-50.9	14.5	0.00e+00	0	28	0	767557632	64	4397
2026-01-06 23:55:53.12	36.62	27.96	-49.6	-50.9	14.5	0.00e+00	0	28	0	770703360	64	4393
2026-01-06 23:55:54.12	36.74	28.12	-49.7	-50.9	14.5	0.00e+00	0	28	0	773849088	64	4439
2026-01-06 23:55:55.12	36.87	28.28	-49.7	-50.9	14.5	0.00e+00	0	28	0	776994816	64	4428
2026-01-06 23:55:56.13	37.00	28.45	-49.6	-50.8	14.5	0.00e+00	0	28	0	780140544	64	4388
2026-01-06 23:55:57.13	37.13	28.62	-49.7	-50.9	14.5	0.00e+00	0	28	0	783286272	64	4431
2026-01-06 23:55:58.12	37.26	28.78	-49.7	-51.0	14.5	0.00e+00	0	28	0	786432000	64	4448
2026-01-06 23:55:59.11	37.39	28.95	-49.6	-50.9	14.5	0.00e+00	0	28	0	789577728	64	4411
2026-01-06 23:56:00.12	37.53	29.12	-49.7	-50.9	14.5	0.00e+00	0	28	0	792723456	64	4430
2026-01-06 23:56:01.11	37.67	29.28	-49.6	-50.9	14.5	0.00e+00	0	28	0	795869184	64	4405
2026-01-06 23:56:02.10	37.80	29.45	-49.7	-50.9	14.5	0.00e+00	0	28	0	799014912	64	4441
2026-01-06 23:56:03.10	37.94	29.62	-49.6	-50.9	14.5	0.00e+00	0	28	0	802160640	64	4407
2026-01-06 23:56:04.10	38.08	29.79	-49.6	-50.8	14.5	0.00e+00	0	28	0	805306368	64	4387
2026-01-06 23:56:05.09	38.22	29.96	-49.7	-51.0	14.5	0.00e+00	0	28	0	808452096	64	4460
2026-01-06 23:56:06.10	38.36	30.14	-49.8	-51.1	14.5	0.00e+00	0	28	0	811597824	64	4524
2026-01-06 23:56:07.10	38.51	30.31	-49.8	-51.2	14.4	0.00e+00	0	28	0	814743552	64	4550
2026-01-06 23:56:08.10	38.66	30.48	-49.7	-51.0	14.5	0.00e+00	0	28	0	817889280	64	4455
2026-01-06 23:56:09.10	38.80	30.66	-49.6	-50.9	14.5	0.00e+00	0	28	0	821035008	64	4423
2026-01-06 23:56:10.10	38.95	30.84	-49.5	-50.8	14.6	0.00e+00	0	28	0	824180736	64	4354
2026-01-06 23:56:11.10	39.10	31.01	-49.4	-50.6	14.6	0.00e+00	0	28	0	827326464	64	4289
2026-01-06 23:56:12.10	39.26	31.19	-49.4	-50.6	14.6	0.00e+00	0	28	0	830472192	64	4277
2026-01-06 23:56:13.10	39.41	31.37	-49.3	-50.6	14.6	0.00e+00	0	28	0	833617920	64	4249
2026-01-06 23:56:14.10	39.57	31.55	-49.3	-50.5	14.6	0.00e+00	0	28	0	836763648	64	4235
2026-01-06 23:56:15.10	39.72	31.73	-49.3	-50.5	14.7	0.00e+00	0	28	0	839909376	64	4225
2026-01-06 23:56:16.10	39.88	31.91	-49.3	-50.6	14.6	0.00e+00	0	28	0	843055104	64	4258
2026-01-06 23:56:17.10	40.04	32.09	-49.5	-50.7	14.6	0.00e+00	0	28	0	846200832	64	4320
2026-01-06 23:56:18.10	40.20	32.28	-49.5	-50.7	14.6	0.00e+00	0	28	0	849346560	64	4334
2026-01-06 23:56:19.10	40.37	32.46	-49.5	-50.8	14.6	0.00e+00	0	28	0	852492288	64	4374
2026-01-06 23:56:20.09	40.53	32.64	-49.5	-50.8	14.6	0.00e+00	0	28	0	855638016	64	4365
2026-01-06 23:56:21.09	40.70	32.83	-49.5	-50.7	14.6	0.00e+00	0	28	0	858783744	64	4337
2026-01-06 23:56:22.09	40.87	33.02	-49.5	-50.7	14.6	0.00e+00	0	28	0	861929472	64	4334
2026-01-06 23:56:23.10	41.05	33.21	-49.6	-50.9	14.5	0.00e+00	0	28	0	865075200	64	4396
2026-01-06 23:56:24.09	41.22	33.39	-49.6	-50.9	14.5	0.00e+00	0	28	0	868220928	64	4411
2026-01-06 23:56:25.09	41.39	33.58	-49.8	-51.1	14.5	0.00e+00	0	28	0	871366656	64	4534
2026-01-06 23:56:26.09	41.57	33.77	-50.0	-51.3	14.5	0.00e+00	0	28	0	874512384	65	4359
2026-01-06 23:56:27.09	41.75	33.97	-50.3	-51.7	14.4	0.00e+00	0	28	0	877658112	65	4557
2026-01-06 23:56:28.09	41.93	34.16	-50.6	-52.0	14.3	0.00e+00	0	28	0	880803840	66	4469
2026-01-06 23:56:29.09	42.12	34.35	-50.8	-52.2	14.3	0.00e+00	0	28	0	883949568	66	4590
2026-01-06 23:56:30.10	42.30	34.55	-51.0	-52.4	14.3	0.00e+00	0	28	0	887095296	67	4429
2026-01-06 23:56:31.09	42.49	34.74	-51.1	-52.6	14.2	0.00e+00	0	28	0	890241024	67	4510
2026-01-06 23:56:32.09	42.68	34.94	-51.3	-52.7	14.1	0.00e+00	0	28	0	893386752	67	4585
2026-01-06 23:56:33.08	42.87	35.13	-51.2	-52.7	14.1	0.00e+00	0	28	0	896532480	67	4579
2026-01-06 23:56:34.08	43.07	35.33	-51.2	-52.7	14.1	0.00e+00	0	28	0	899678208	67	4552
2026-01-06 23:56:35.08	43.27	35.53	-51.3	-52.8	14.1	0.00e+00	0	28	0	901775360	67	4601
2026-01-06 23:56:36.08	43.47	35.72	-51.3	-52.7	14.1	0.00e+00	0	28	0	904921088	67	4588
2026-01-06 23:56:37.07	43.67	35.92	-51.3	-52.7	14.1	0.00e+00	0	28	0	908066816	67	4595
2026-01-06 23:56:38.06	43.87	36.12	-51.2	-52.7	14.1	0.00e+00	0	28	0	911212544	67	4565
2026-01-06 23:56:39.06	44.07	36.32	-51.3	-52.8	14.1	0.00e+00	0	28	0	914358272	67	4620
2026-01-06 23:56:40.07	44.29	36.53	-51.4	-52.9	14.1	0.00e+00	0	28	0	917504000	67	4676
2026-01-06 23:56:41.07	44.50	36.73	-51.6	-53.1	14.1	0.00e+00	0	28	0	920649728	68	4499
2026-01-06 23:56:42.07	44.71	36.94	-51.5	-53.0	14.1	0.00e+00	0	28	0	923795456	68	4465
2026-01-06 23:56:43.07	44.93	37.14	-51.5	-53.0	14.2	0.00e+00	0	28	0	926941184	68	4479
2026-01-06 23:56:44.07	45.15	37.35	-51.5	-53.0	14.2	0.00e+00	0	28	0	930086912	68	4457
2026-01-06 23:56:45.06	45.37	37.55	-51.6	-53.0	14.1	0.00e+00	0	28	0	933232640	68	4479
2026-01-06 23:56:46.07	45.60	37.76	-51.2	-52.6	14.3	0.00e+00	0	28	0	936378368	68	4254
2026-01-06 23:56:47.07	45.83	37.97	-50.9	-52.2	14.5	0.00e+00	0	28	0	939524096	68	4080
2026-01-06 23:56:48.07	46.06	38.18	-51.0	-52.4	14.4	0.00e+00	0	28	0	942669824	68	4148
2026-01-06 23:56:49.07	46.29	38.39	-50.9	-52.2	14.5	0.00e+00	0	28	0	945815552	68	4083
2026-01-06 23:56:50.07	46.53	38.60	-51.2	-52.6	14.3	0.00e+00	0	28	0	948961280	68	4272
2026-01-06 23:56:51.08	46.77	38.82	-51.4	-52.8	14.2	0.00e+00	0	28	0	952107008	68	4377
2026-01-06 23:56:52.08	47.02	39.03	-51.7	-53.2	14.1	0.00e+00	0	28	0	955252736	68	4554
2026-01-06 23:56:53.08	47.26	39.24	-51.7	-53.2	14.0	0.00e+00	0	28	0	958398464	68	4574
2026-01-06 23:56:54.09	47.52	39.46	-51.6	-53.2	14.0	0.00e+00	0	28	0	961544192	68	4547
2026-01-06 23:56:55.08	47.77	39.67	-51.7	-53.2	14.1	0.00e+00	0	28	0	964689920	68	4553
2026-01-06 23:56:56.08	48.02	39.89	-51.4	-52.8	14.2	0.00e+00	0	28	0	967835648	68	4384
2026-01-06 23:56:57.08	48.28	40.10	-51.4	-52.9	14.2	0.00e+00	0	28	0	970981376	68	4402
2026-01-06 23:56:58.08	48.55	40.32	-51.6	-53.1	14.1	0.00e+00	0	28	0	974127104	68	4534
2026-01-06 23:56:59.07	48.81	40.53	-51.8	-53.3	14.0	0.00e+00	0	28	0	977272832	68	4607
2026-01-06 23:57:00.06	49.08	40.75	-52.0	-53.5	14.0	0.00e+00	0	28	0	980418560	69	4484
2026-01-06 23:57:01.06	49.35	40.97	-52.2	-53.8	13.9	0.00e+00	0	28	0	983564288	69	4605
2026-01-06 23:57:02.06	49.63	41.19	-52.2	-53.8	13.9	0.00e+00	0	28	0	986710016	69	4623
2026-01-06 23:57:03.06	49.91	41.41	-52.2	-53.8	13.9	0.00e+00	0	28	0	989855744	69	4633
2026-01-06 23:57:04.06	50.20	41.63	-52.1	-53.7	13.9	0.00e+00	0	28	0	993001472	69	4546
2026-01-06 23:57:05.06	50.48	41.85	-52.1	-53.6	14.0	0.00e+00	0	28	0	996147200	69	4537
2026-01-06 23:57:06.07	50.78	42.07	-51.9	-53.4	14.1	0.00e+00	0	28	0	999292928	69	4427
2026-01-06 23:57:07.07	51.08	42.30	-51.9	-53.4	14.1	0.00e+00	0	28	0	1002438656	69	4403
2026-01-06 23:57:08.07	51.38	42.52	-52.0	-53.5	14.0	0.00e+00	0	28	0	1005584384	69	4488
2026-01-06 23:57:09.07	51.68	42.74	-52.3	-53.9	13.9	0.00e+00	0	28	0	1008730112	69	4667
2026-01-06 23:57:10.07	51.99	42.97	-52.6	-54.2	13.8	0.00e+00	0	28	0	1011875840	70	4595
2026-01-06 23:57:11.07	52.31	43.19	-52.7	-54.4	13.7	0.00e+00	0	28	0	1015021568	70	4705
2026-01-06 23:57:12.07	52.62	43.41	-52.8	-54.5	13.7	0.00e+00	0	28	0	1018167296	70	4759
2026-01-06 23:57:13.06	52.94	43.64	-52.6	-54.3	13.8	0.00e+00	0	28	0	1021313024	70	4620
2026-01-06 23:57:14.06	53.27	43.86	-52.2	-53.8	14.0	0.00e+00	0	28	0	1024458752	70	4379
2026-01-06 23:57:15.07	53.60	44.09	-52.3	-53.9	14.0	0.00e+00	0	28	0	1027604480	70	4403
2026-01-06 23:57:16.06	53.94	44.31	-52.2	-53.8	14.0	0.00e+00	0	28	0	1030750208	70	4367
2026-01-06 23:57:17.04	54.27	44.53	-52.2	-53.7	14.0	0.00e+00	0	28	0	1033895936	70	4340
2026-01-06 23:57:18.05	54.62	44.76	-52.3	-54.0	13.9	0.00e+00	0	28	0	1037041664	70	4443
2026-01-06 23:57:19.05	54.97	44.99	-52.2	-53.8	14.0	0.00e+00	0	28	0	1040187392	70	4350
2026-01-06 23:57:20.05	55.33	45.21	-52.1	-53.6	14.1	0.00e+00	0	28	0	1043333120	70	4281
2026-01-06 23:57:21.06	55.69	45.44	-52.1	-53.6	14.1	0.00e+00	0	28	0	1046478848	70	4272
2026-01-06 23:57:22.05	56.05	45.67	-51.7	-53.2	14.3	0.00e+00	0	28	0	1049624576	70	4093
2026-01-06 23:57:23.05	56.42	45.89	-51.7	-53.1	14.2	0.00e+00	0	28	0	1052770304	69	4291
2026-01-06 23:57:24.05	56.80	46.12	-51.5	-53.0	14.3	0.00e+00	0	28	0	1055916032	69	4208
2026-01-06 23:57:25.05	57.18	46.35	-51.8	-53.3	14.1	0.00e+00	0	28	0	1059061760	69	4353
2026-01-06 23:57:26.05	57.57	46.57	-52.0	-53.5	14.0	0.00e+00	0	28	0	1061158912	69	4472
2026-01-06 23:57:27.05	57.96	46.80	-52.3	-53.9	13.9	0.00e+00	0	28	0	1064304640	69	4692
2026-01-06 23:57:28.05	58.36	47.03	-52.3	-53.9	13.9	0.00e+00	0	28	0	1067450368	69	4693
2026-01-06 23:57:29.05	58.76	47.25	-52.3	-53.9	13.9	0.00e+00	0	28	0	1070596096	69	4671
2026-01-06 23:57:30.04	59.17	47.47	-52.1	-53.7	14.0	0.00e+00	0	28	0	1073741824	69	4564
2026-01-06 23:57:31.04	59.58	47.70	-51.6	-53.1	14.3	0.00e+00	0	28	0	1076887552	69	4245
2026-01-06 23:57:32.05	60.01	47.93	-51.4	-52.8	14.4	0.00e+00	0	28	0	1080033280	69	4116
2026-01-06 23:57:33.05	60.43	48.15	-51.4	-52.7	14.4	0.00e+00	0	28	0	1083179008	69	4096
2026-01-06 23:57:34.04	60.86	48.37	-51.4	-52.8	14.3	0.00e+00	0	28	0	1086324736	69	4113
2026-01-06 23:57:35.04	61.30	48.59	-51.4	-52.8	14.4	0.00e+00	0	28	0	1089470464	69	4107
2026-01-06 23:57:36.04	61.75	48.82	-51.3	-52.7	14.4	0.00e+00	0	28	0	1092616192	69	4075
2026-01-06 23:57:37.04	62.20	49.04	-51.1	-52.5	14.4	0.00e+00	0	28	0	1095761920	68	4208
2026-01-06 23:57:38.05	62.67	49.26	-50.9	-52.3	14.5	0.00e+00	0	28	0	1098907648	68	4115
2026-01-06 23:57:39.05	63.13	49.48	-50.9	-52.3	14.5	0.00e+00	0	28	0	1102053376	68	4111
2026-01-06 23:57:40.06	63.61	49.70	-50.8	-52.1	14.5	0.00e+00	0	28	0	1105199104	68	4041
2026-01-06 23:57:41.06	64.09	49.92	-50.9	-52.2	14.5	0.00e+00	0	28	0	1108344832	68	4078
2026-01-06 23:57:42.05	64.57	50.13	-50.9	-52.2	14.5	0.00e+00	0	28	0	1111490560	68	4093
2026-01-06 23:57:43.04	65.06	50.35	-51.1	-52.4	14.4	0.00e+00	0	28	0	1114636288	68	4190
2026-01-06 23:57:44.05	65.56	50.56	-51.3	-52.6	14.3	0.00e+00	0	28	0	1117782016	68	4285
2026-01-06 23:57:45.05	66.07	50.78	-51.4	-52.8	14.3	0.00e+00	0	28	0	1120927744	68	4361
2026-01-06 23:57:46.05	66.58	50.99	-51.5	-52.9	14.2	0.00e+00	0	28	0	1124073472	68	4439
2026-01-06 23:57:47.05	67.11	51.20	-51.6	-53.0	14.2	0.00e+00	0	28	0	1127219200	68	4482
2026-01-06 23:57:48.05	67.63	51.41	-51.5	-53.0	14.2	0.00e+00	0	28	0	1130364928	68	4454
2026-01-06 23:57:49.05	68.17	51.62	-51.2	-52.6	14.3	0.00e+00	0	28	0	1133510656	68	4255
2026-01-06 23:57:50.05	68.71	51.82	-51.0	-52.4	14.4	0.00e+00	0	28	0	1136656384	68	4157
2026-01-06 23:57:51.05	69.27	52.03	-50.9	-52.2	14.5	0.00e+00	0	28	0	1139802112	68	4085
2026-01-06 23:57:52.05	69.82	52.23	-50.4	-51.7	14.6	0.00e+00	0	28	0	1142947840	67	4072
2026-01-06 23:57:53.05	70.39	52.43	-50.2	-51.5	14.6	0.00e+00	0	28	0	1146093568	66	4194
2026-01-06 23:57:54.04	70.96	52.62	-50.3	-51.5	14.5	0.00e+00	0	28	0	1149239296	66	4241
2026-01-06 23:57:55.04	71.54	52.82	-50.1	-51.4	14.6	0.00e+00	0	28	0	1152385024	66	4171
2026-01-06 23:57:56.04	72.13	53.01	-50.2	-51.5	14.5	0.00e+00	0	28	0	1155530752	66	4215
2026-01-06 23:57:57.04	72.73	53.20	-50.4	-51.7	14.4	0.00e+00	0	28	0	1158676480	66	4333
2026-01-06 23:57:58.04	73.33	53.39	-50.6	-52.0	14.4	0.00e+00	0	28	0	1161822208	66	4449
2026-01-06 23:57:59.04	73.94	53.58	-50.8	-52.1	14.3	0.00e+00	0	28	0	1164967936	66	4533
2026-01-06 23:58:00.04	74.56	53.76	-51.0	-52.4	14.3	0.00e+00	0	28	0	1168113664	67	4415
2026-01-06 23:58:01.04	75.19	53.94	-50.8	-52.2	14.4	0.00e+00	0	28	0	1171259392	67	4304
2026-01-06 23:58:02.04	75.83	54.12	-50.6	-51.9	14.5	0.00e+00	0	28	0	1174405120	67	4193
2026-01-06 23:58:03.04	76.47	54.30	-50.6	-52.0	14.5	0.00e+00	0	28	0	1177550848	67	4207
2026-01-06 23:58:04.03	77.12	54.47	-50.4	-51.8	14.6	0.00e+00	0	28	0	1180696576	67	4104
2026-01-06 23:58:05.03	77.77	54.64	-50.3	-51.6	14.6	0.00e+00	0	28	0	1183842304	67	4021
2026-01-06 23:58:06.03	78.44	54.80	-50.1	-51.4	14.6	0.00e+00	0	28	0	1186988032	66	4182
2026-01-06 23:58:07.03	79.12	54.97	-49.9	-51.1	14.7	0.00e+00	0	28	0	1190133760	66	4037
2026-01-06 23:58:08.03	79.80	55.12	-49.5	-50.7	14.7	0.00e+00	0	28	0	1193279488	65	4075
2026-01-06 23:58:09.03	80.49	55.28	-49.3	-50.5	14.8	0.00e+00	0	28	0	1195376640	65	3993
2026-01-06 23:58:10.04	81.19	55.43	-49.5	-50.7	14.8	0.00e+00	0	28	0	1198522368	65	4064
2026-01-06 23:58:11.04	81.90	55.58	-49.6	-50.8	14.7	0.00e+00	0	28	0	1201668096	65	4107
2026-01-06 23:58:12.05	82.62	55.73	-49.9	-51.2	14.6	0.00e+00	0	28	0	1205862400	65	4293
2026-01-06 23:58:13.05	83.34	55.87	-49.9	-51.2	14.5	0.00e+00	0	28	0	1209008128	65	4325
2026-01-06 23:58:14.05	84.06	56.00	-49.4	-50.6	14.8	0.00e+00	0	28	0	1212153856	65	4036
2026-01-06 23:58:15.05	84.80	56.14	-49.0	-50.2	14.8	0.00e+00	0	28	0	1215299584	64	4072
2026-01-06 23:58:16.05	85.54	56.27	-49.0	-50.1	14.8	0.00e+00	0	28	0	1218445312	64	4048
2026-01-06 23:58:17.05	86.28	56.39	-49.1	-50.3	14.8	0.00e+00	0	28	0	1220542464	64	4112
2026-01-06 23:58:18.05	87.04	56.51	-49.0	-50.2	14.8	0.00e+00	0	28	0	1223688192	64	4067
2026-01-06 23:58:19.05	87.80	56.62	-49.0	-50.1	14.8	0.00e+00	0	28	0	1226833920	64	4046
2026-01-06 23:58:20.05	88.56	56.73	-48.9	-50.1	14.8	0.00e+00	0	28	0	1229979648	64	4008
2026-01-06 23:58:21.05	89.34	56.84	-49.1	-50.2	14.8	0.00e+00	0	28	0	1233125376	64	4094
2026-01-06 23:58:22.05	90.11	56.94	-49.1	-50.3	14.8	0.00e+00	0	28	0	1236271104	64	4126
2026-01-06 23:58:23.05	90.90	57.04	-49.2	-50.4	14.7	0.00e+00	0	28	0	1239416832	64	4155
2026-01-06 23:58:24.05	91.69	57.13	-49.4	-50.6	14.7	0.00e+00	0	28	0	1242562560	64	4255
2026-01-06 23:58:25.06	92.49	57.21	-49.5	-50.8	14.6	0.00e+00	0	28	0	1245708288	64	4348
2026-01-06 23:58:26.06	93.29	57.29	-49.6	-50.8	14.6	0.00e+00	0	28	0	1248854016	64	4373
2026-01-06 23:58:27.07	94.10	57.37	-49.2	-50.4	14.7	0.00e+00	0	28	0	1251999744	64	4182
2026-01-06 23:58:28.08	94.92	57.44	-48.9	-50.0	14.9	0.00e+00	0	28	0	1255145472	64	4000
2026-01-06 23:58:29.07	95.72	57.51	-48.9	-50.1	14.8	0.00e+00	0	28	0	1258291200	64	4024
2026-01-06 23:58:30.07	96.54	57.57	-49.1	-50.2	14.8	0.00e+00	0	28	0	1261436928	64	4092
2026-01-06 23:58:31.07	97.36	57.62	-49.0	-50.2	14.8	0.00e+00	0	28	0	1264582656	64	4057
2026-01-06 23:58:32.07	98.18	57.67	-49.2	-50.4	14.7	0.00e+00	0	28	0	1267728384	64	4154
2026-01-06 23:58:33.08	99.01	57.71	-49.1	-50.3	14.7	0.00e+00	0	28	0	1270874112	64	4139
2026-01-06 23:58:34.08	99.84	57.75	-49.1	-50.3	14.7	0.00e+00	0	28	0	1274019840	64	4140
2026-01-06 23:58:35.08	100.67	57.78	-49.1	-50.2	14.7	0.00e+00	0	28	0	1277165568	64	4097
2026-01-06 23:58:36.08	101.50	57.81	-48.9	-50.0	14.8	0.00e+00	0	28	0	1280311296	64	3999
2026-01-06 23:58:37.08	102.34	57.83	-49.0	-50.1	14.8	0.00e+00	0	28	0	1283457024	64	4031
2026-01-06 23:58:38.08	103.17	57.85	-49.0	-50.2	14.8	0.00e+00	0	28	0	1286602752	64	4076
2026-01-06 23:58:39.07	104.00	57.86	-49.1	-50.3	14.7	0.00e+00	0	28	0	1289748480	64	4129
2026-01-06 23:58:40.07	104.83	57.86	-49.1	-50.3	14.7	0.00e+00	0	28	0	1292894208	64	4120
2026-01-06 23:58:41.07	105.67	57.86	-49.2	-50.4	14.7	0.00e+00	0	28	0	1296039936	64	4188
2026-01-06 23:58:42.06	106.50	57.85	-49.1	-50.3	14.7	0.00e+00	0	28	0	1299185664	64	4136
2026-01-06 23:58:43.07	107.34	57.84	-49.1	-50.3	14.8	0.00e+00	0	28	0	1302331392	64	4110
2026-01-06 23:58:44.07	108.17	57.82	-49.3	-50.5	14.7	0.00e+00	0	28	0	1305477120	64	4226
2026-01-06 23:58:45.07	109.01	57.80	-49.3	-50.5	14.7	0.00e+00	0	28	0	1308622848	64	4233
2026-01-06 23:58:46.07	109.84	57.77	-49.4	-50.6	14.6	0.00e+00	0	28	0	1311768576	64	4258
2026-01-06 23:58:47.07	110.67	57.73	-49.4	-50.6	14.6	0.00e+00	0	28	0	1314914304	64	4291
2026-01-06 23:58:48.07	111.49	57.69	-49.6	-50.9	14.5	0.00e+00	0	28	0	1318060032	64	4421
2026-01-06 23:58:49.06	112.31	57.65	-49.5	-50.7	14.6	0.00e+00	0	28	0	1321205760	64	4335
2026-01-06 23:58:50.06	113.13	57.60	-49.4	-50.7	14.6	0.00e+00	0	28	0	1324351488	64	4294
2026-01-06 23:58:51.07	113.96	57.54	-49.4	-50.6	14.6	0.00e+00	0	28	0	1327497216	64	4283
2026-01-06 23:58:52.07	114.77	57.48	-49.2	-50.4	14.7	0.00e+00	0	28	0	1330642944	64	4154
2026-01-06 23:58:53.07	115.58	57.41	-49.0	-50.2	14.8	0.00e+00	0	28	0	1333788672	64	4083
2026-01-06 23:58:54.08	116.40	57.33	-48.8	-50.0	14.9	0.00e+00	0	28	0	1336934400	64	3974
2026-01-06 23:58:55.08	117.20	57.26	-49.1	-50.3	14.7	0.00e+00	0	28	0	1340080128	64	4135
2026-01-06 23:58:56.09	118.00	57.17	-49.3	-50.5	14.7	0.00e+00	0	28	0	1343225856	64	4232
2026-01-06 23:58:57.09	118.80	57.08	-49.3	-50.4	14.7	0.00e+00	0	28	0	1346371584	64	4193
2026-01-06 23:58:58.09	119.58	56.99	-49.3	-50.5	14.7	0.00e+00	0	28	0	1349517312	64	4224
2026-01-06 23:58:59.08	120.36	56.89	-49.2	-50.4	14.7	0.00e+00	0	28	0	1352663040	64	4148
2026-01-06 23:59:00.08	121.13	56.79	-49.2	-50.3	14.8	0.00e+00	0	28	0	1355808768	64	4144
2026-01-06 23:59:01.07	121.90	56.68	-49.3	-50.5	14.7	0.00e+00	0	28	0	1358954496	64	4215
2026-01-06 23:59:02.08	122.67	56.57	-49.4	-50.6	14.6	0.00e+00	0	28	0	1362100224	64	4274
2026-01-06 23:59:03.07	123.42	56.45	-49.6	-50.8	14.6	0.00e+00	0	28	0	1365245952	64	4365
2026-01-06 23:59:04.06	124.16	56.33	-49.7	-50.9	14.5	0.00e+00	0	28	0	1368391680	64	4428
2026-01-06 23:59:05.06	124.91	56.21	-49.6	-50.8	14.6	0.00e+00	0	28	0	1371537408	64	4384
2026-01-06 23:59:06.06	125.65	56.08	-49.8	-51.1	14.5	0.00e+00	0	28	0	1374683136	64	4494
2026-01-06 23:59:07.04	126.36	55.95	-50.5	-51.9	14.4	0.00e+00	0	28	0	1376780288	66	4425
2026-01-06 23:59:08.04	127.09	55.81	-50.8	-52.2	14.2	0.00e+00	0	28	0	1379926016	66	4588
2026-01-06 23:59:09.04	127.80	55.67	-50.8	-52.1	14.3	0.00e+00	0	28	0	1383071744	66	4541
2026-01-06 23:59:10.04	128.51	55.52	-50.6	-52.0	14.3	0.00e+00	0	28	0	1386217472	66	4481
2026-01-06 23:59:11.04	129.22	55.37	-50.3	-51.7	14.5	0.00e+00	0	28	0	1389363200	66	4295
2026-01-06 23:59:12.04	129.91	55.22	-50.1	-51.4	14.5	0.00e+00	0	28	0	1392508928	66	4173
2026-01-06 23:59:13.05	130.61	55.06	-49.8	-51.1	14.7	0.00e+00	0	28	0	1395654656	66	4033
2026-01-06 23:59:14.05	131.29	54.90	-50.0	-51.3	14.6	0.00e+00	0	28	0	1398800384	66	4120
2026-01-06 23:59:15.05	131.96	54.73	-50.1	-51.4	14.6	0.00e+00	0	28	0	1401946112	66	4170
2026-01-06 23:59:16.05	132.62	54.56	-50.0	-51.3	14.6	0.00e+00	0	28	0	1405091840	66	4121
2026-01-06 23:59:17.06	133.29	54.39	-50.1	-51.4	14.6	0.00e+00	0	28	0	1408237568	66	4179
2026-01-06 23:59:18.06	133.94	54.22	-50.1	-51.3	14.6	0.00e+00	0	28	0	1411383296	66	4143
2026-01-06 23:59:19.06	134.58	54.04	-50.3	-51.6	14.4	0.00e+00	0	28	0	1414529024	66	4285
2026-01-06 23:59:20.05	135.20	53.86	-50.5	-51.9	14.4	0.00e+00	0	28	0	1417674752	66	4396
2026-01-06 23:59:21.06	135.84	53.68	-50.5	-51.9	14.4	0.00e+00	0	28	0	1420820480	66	4409
2026-01-06 23:59:22.06	136.45	53.49	-50.8	-52.2	14.3	0.00e+00	0	28	0	1423966208	66	4551
2026-01-06 23:59:23.06	137.06	53.31	-51.0	-52.5	14.3	0.00e+00	0	28	0	1427111936	67	4461
2026-01-06 23:59:24.05	137.66	53.12	-51.0	-52.4	14.3	0.00e+00	0	28	0	1430257664	67	4403
2026-01-06 23:59:25.05	138.25	52.92	-50.7	-52.1	14.4	0.00e+00	0	28	0	1433403392	67	4265
2026-01-06 23:59:26.05	138.84	52.73	-50.5	-51.8	14.5	0.00e+00	0	28	0	1436549120	67	4135
2026-01-06 23:59:27.05	139.42	52.53	-50.5	-51.9	14.5	0.00e+00	0	28	0	1439694848	67	4148
2026-01-06 23:59:28.06	140.00	52.33	-50.2	-51.5	14.7	0.00e+00	0	28	0	1442840576	67	3972
2026-01-06 23:59:29.06	140.56	52.13	-50.2	-51.5	14.5	0.00e+00	0	28	0	1445986304	66	4197
2026-01-06 23:59:30.07	141.12	51.92	-50.7	-52.0	14.3	0.00e+00	0	28	0	1449132032	66	4480
2026-01-06 23:59:31.07	141.67	51.72	-51.1	-52.5	14.2	0.00e+00	0	28	0	1452277760	67	4459
2026-01-06 23:59:32.07	142.21	51.51	-50.9	-52.3	14.3	0.00e+00	0	28	0	1455423488	67	4373
2026-01-06 23:59:33.07	142.74	51.30	-50.9	-52.3	14.3	0.00e+00	0	28	0	1458569216	67	4344
2026-01-06 23:59:34.06	143.27	51.10	-51.0	-52.4	14.2	0.00e+00	0	28	0	1461714944	67	4422
2026-01-06 23:59:35.06	143.78	50.88	-51.2	-52.7	14.1	0.00e+00	0	28	0	1464860672	67	4555
2026-01-06 23:59:36.06	144.30	50.67	-50.7	-52.1	14.4	0.00e+00	0	28	0	1468006400	67	4264
2026-01-06 23:59:37.06	144.80	50.46	-50.7	-52.1	14.4	0.00e+00	0	28	0	1471152128	67	4248
2026-01-06 23:59:38.06	145.30	50.24	-51.0	-52.5	14.2	0.00e+00	0	28	0	1474297856	67	4450
2026-01-06 23:59:39.06	145.79	50.02	-51.4	-52.9	14.1	0.00e+00	0	28	0	1477443584	67	4652
2026-01-06 23:59:40.07	146.28	49.80	-51.7	-53.1	14.1	0.00e+00	0	28	0	1480589312	68	4543
2026-01-06 23:59:41.07	146.75	49.58	-51.6	-53.0	14.2	0.00e+00	0	28	0	1483735040	68	4485
2026-01-06 23:59:42.07	147.22	49.36	-51.6	-53.1	14.1	0.00e+00	0	28	0	1486880768	68	4524
2026-01-06 23:59:43.07	147.69	49.14	-51.7	-53.2	14.1	0.00e+00	0	28	0	1490026496	68	4587
2026-01-06 23:59:44.07	148.15	48.92	-51.5	-53.0	14.2	0.00e+00	0	28	0	1493172224	68	4454
2026-01-06 23:59:45.07	148.60	48.70	-51.4	-52.9	14.2	0.00e+00	0	28	0	1496317952	68	4406
2026-01-06 23:59:46.07	149.04	48.48	-51.5	-52.9	14.2	0.00e+00	0	28	0	1499463680	68	4422
2026-01-06 23:59:47.07	149.48	48.25	-51.4	-52.8	14.2	0.00e+00	0	28	0	1502609408	68	4388
2026-01-06 23:59:48.07	149.91	48.03	-51.4	-52.8	14.2	0.00e+00	0	28	0	1505755136	68	4381
2026-01-06 23:59:49.08	150.34	47.80	-51.6	-53.1	14.1	0.00e+00	0	28	0	1508900864	68	4508
2026-01-06 23:59:50.08	150.76	47.57	-52.1	-53.6	14.0	0.00e+00	0	28	0	1512046592	69	4542
2026-01-06 23:59:51.08	151.17	47.35	-52.5	-54.1	13.9	0.00e+00	0	28	0	1515192320	70	4530
2026-01-06 23:59:52.07	151.57	47.13	-52.5	-54.1	13.8	0.00e+00	0	28	0	1518338048	70	4526
2026-01-06 23:59:53.08	151.98	46.90	-52.0	-53.6	14.1	0.00e+00	0	28	0	1521483776	70	4258
2026-01-06 23:59:54.08	152.38	46.67	-51.5	-53.0	14.3	0.00e+00	0	28	0	1524629504	69	4212
2026-01-06 23:59:55.08	152.77	46.44	-51.3	-52.8	14.4	0.00e+00	0	28	0	1527775232	69	4102
2026-01-06 23:59:56.08	153.15	46.22	-51.3	-52.8	14.4	0.00e+00	0	28	0	1530920960	69	4102
2026-01-06 23:59:57.08	153.53	45.99	-51.7	-53.1	14.2	0.00e+00	0	28	0	1534066688	69	4281
2026-01-06 23:59:58.08	153.90	45.76	-51.9	-53.5	14.0	0.00e+00	0	28	0	1536163840	69	4442
2026-01-06 23:59:59.08	154.27	45.53	-52.2	-53.8	13.9	0.00e+00	0	28	0	1539309568	69	4648
2026-01-07 00:00:00.08	154.64	45.31	-52.7	-54.4	13.7	0.00e+00	0	28	0	1542455296	70	4695
2026-01-07 00:00:01.08	155.00	45.08	-53.1	-54.9	13.6	0.00e+00	0	28	0	1545601024	71	4656
2026-01-07 00:00:02.08	155.35	44.85	-52.8	-54.5	13.8	0.00e+00	0	28	0	1548746752	71	4462
2026-01-07 00:00:03.08	155.70	44.63	-52.0	-53.5	14.1	0.00e+00	0	28	0	1551892480	70	4225
2026-01-07 00:00:04.07	156.04	44.40	-51.6	-53.0	14.2	0.00e+00	0	28	0	1555038208	69	4214
2026-01-07 00:00:05.07	156.38	44.17	-51.4	-52.7	14.4	0.00e+00	0	28	0	1558183936	69	4094
2026-01-07 00:00:06.07	156.71	43.95	-51.4	-52.8	14.3	0.00e+00	0	28	0	1561329664	69	4118
2026-01-07 00:00:07.07	157.04	43.72	-51.4	-52.8	14.3	0.00e+00	0	28	0	1564475392	69	4145
2026-01-07 00:00:08.07	157.37	43.50	-51.6	-53.0	14.2	0.00e+00	0	28	0	1567621120	69	4213
2026-01-07 00:00:09.07	157.69	43.27	-52.1	-53.7	14.0	0.00e+00	0	28	0	1570766848	69	4549
2026-01-07 00:00:10.07	158.00	43.05	-52.7	-54.3	13.8	0.00e+00	0	28	0	1573912576	70	4644
2026-01-07 00:00:11.07	158.31	42.82	-52.9	-54.6	13.6	0.00e+00	0	28	0	1577058304	70	4800
2026-01-07 00:00:12.05	158.62	42.60	-52.9	-54.7	13.6	0.00e+00	0	28	0	1580204032	71	4579
2026-01-07 00:00:13.05	158.92	42.38	-52.8	-54.5	13.7	0.00e+00	0	28	0	1583349760	71	4458
2026-01-07 00:00:14.05	159.22	42.15	-52.5	-54.2	13.9	0.00e+00	0	28	0	1586495488	71	4304
2026-01-07 00:00:15.05	159.51	41.93	-52.4	-54.0	14.0	0.00e+00	0	28	0	1589641216	71	4229
2026-01-07 00:00:16.05	159.80	41.71	-52.1	-53.7	14.1	0.00e+00	0	28	0	1592786944	70	4298
2026-01-07 00:00:17.05	160.09	41.49	-51.8	-53.3	14.3	0.00e+00	0	28	0	1595932672	70	4103
2026-01-07 00:00:18.05	160.38	41.27	-51.6	-53.0	14.3	0.00e+00	0	28	0	1599078400	69	4242
2026-01-07 00:00:19.04	160.65	41.05	-51.8	-53.3	14.1	0.00e+00	0	28	0	1602224128	69	4354
2026-01-07 00:00:20.05	160.93	40.83	-52.2	-53.8	13.9	0.00e+00	0	28	0	1605369856	69	4646
2026-01-07 00:00:21.05	161.20	40.61	-52.6	-54.3	13.8	0.00e+00	0	28	0	1608515584	70	4634
2026-01-07 00:00:22.04	161.47	40.39	-52.8	-54.6	13.6	0.00e+00	0	28	0	1611661312	70	4773
2026-01-07 00:00:23.04	161.74	40.17	-52.5	-54.2	13.8	0.00e+00	0	28	0	1614807040	70	4590
2026-01-07 00:00:24.04	162.00	39.95	-52.1	-53.7	14.1	0.00e+00	0	28	0	1617952768	70	4306
2026-01-07 00:00:25.04	162.26	39.74	-51.9	-53.5	14.2	0.00e+00	0	28	0	1621098496	70	4196
2026-01-07 00:00:26.04	162.51	39.52	-51.3	-52.7	14.4	0.00e+00	0	28	0	1624244224	69	4086
2026-01-07 00:00:27.04	162.76	39.31	-51.0	-52.4	14.4	0.00e+00	0	28	0	1627389952	68	4164
2026-01-07 00:00:28.04	163.01	39.09	-51.1	-52.5	14.4	0.00e+00	0	28	0	1630535680	68	4227
2026-01-07 00:00:29.04	163.26	38.88	-51.2	-52.6	14.3	0.00e+00	0	28	0	1633681408	68	4274
2026-01-07 00:00:30.05	163.50	38.66	-51.4	-52.8	14.2	0.00e+00	0	28	0	1636827136	68	4388
2026-01-07 00:00:31.05	163.74	38.45	-51.4	-52.8	14.2	0.00e+00	0	28	0	1639972864	68	4381
2026-01-07 00:00:32.05	163.98	38.24	-51.2	-52.7	14.3	0.00e+00	0	28	0	1643118592	68	4298
2026-01-07 00:00:33.05	164.21	38.03	-51.3	-52.7	14.3	0.00e+00	0	28	0	1646264320	68	4317
2026-01-07 00:00:34.04	164.44	37.82	-51.4	-52.8	14.2	0.00e+00	0	28	0	1649410048	68	4370
2026-01-07 00:00:35.04	164.67	37.61	-51.5	-52.9	14.2	0.00e+00	0	28	0	1652555776	68	4424
2026-01-07 00:00:36.04	164.89	37.40	-51.1	-52.5	14.4	0.00e+00	0	28	0	1655701504	68	4199
2026-01-07 00:00:37.04	165.11	37.20	-51.1	-52.5	14.4	0.00e+00	0	28	0	1658847232	68	4202
2026-01-07 00:00:38.04	165.33	36.99	-51.1	-52.5	14.4	0.00e+00	0	28	0	1661992960	68	4220
2026-01-07 00:00:39.04	165.55	36.79	-51.1	-52.5	14.4	0.00e+00	0	28	0	1665138688	68	4202
2026-01-07 00:00:40.03	165.76	36.58	-51.0	-52.3	14.4	0.00e+00	0	28	0	1668284416	68	4140
2026-01-07 00:00:41.03	165.97	36.38	-50.7	-52.0	14.6	0.00e+00	0	28	0	1670381568	68	4001
2026-01-07 00:00:42.04	166.18	36.17	-50.3	-51.6	14.6	0.00e+00	0	28	0	1673527296	67	4020
2026-01-07 00:00:43.03	166.38	35.97	-50.3	-51.6	14.6	0.00e+00	0	28	0	1676673024	67	4017
2026-01-07 00:00:44.03	166.59	35.77	-50.4	-51.7	14.6	0.00e+00	0	28	0	1679818752	67	4055
2026-01-07 00:00:45.03	166.79	35.57	-50.5	-51.8	14.5	0.00e+00	0	28	0	1682964480	67	4120
2026-01-07 00:00:46.03	166.99	35.37	-50.7	-52.1	14.3	0.00e+00	0	28	0	1686110208	67	4279
2026-01-07 00:00:47.03	167.18	35.17	-50.9	-52.4	14.2	0.00e+00	0	28	0	1689255936	67	4413
2026-01-07 00:00:48.03	167.38	34.97	-51.1	-52.6	14.1	0.00e+00	0	28	0	1692401664	67	4525
2026-01-07 00:00:49.03	167.57	34.78	-51.1	-52.6	14.2	0.00e+00	0	28	0	1695547392	67	4525
2026-01-07 00:00:50.03	167.76	34.58	-51.0	-52.4	14.2	0.00e+00	0	28	0	1698693120	67	4437
2026-01-07 00:00:51.03	167.95	34.39	-50.7	-52.1	14.4	0.00e+00	0	28	0	1701838848	67	4275
2026-01-07 00:00:52.03	168.13	34.19	-50.5	-51.9	14.5	0.00e+00	0	28	0	1704984576	67	4153
2026-01-07 00:00:53.03	168.32	34.00	-50.4	-51.8	14.5	0.00e+00	0	28	0	1708130304	67	4101
2026-01-07 00:00:54.03	168.50	33.81	-50.3	-51.6	14.6	0.00e+00	0	28	0	1711276032	67	4044
2026-01-07 00:00:55.02	168.67	33.62	-50.4	-51.8	14.5	0.00e+00	0	28	0	1714421760	67	4111
2026-01-07 00:00:56.02	168.85	33.43	-50.7	-52.1	14.4	0.00e+00	0	28	0	1717567488	67	4249
2026-01-07 00:00:57.02	169.02	33.24	-50.7	-52.1	14.3	0.00e+00	0	28	0	1720713216	67	4282
2026-01-07 00:00:58.02	169.20	33.05	-50.9	-52.3	14.3	0.00e+00	0	28	0	1723858944	67	4351
2026-01-07 00:00:59.02	169.37	32.86	-51.0	-52.5	14.2	0.00e+00	0	28	0	1727004672	67	4465
2026-01-07 00:01:00.02	169.54	32.67	-50.9	-52.4	14.3	0.00e+00	0	28	0	1730150400	67	4405
2026-01-07 00:01:01.01	169.70	32.49	-50.9	-52.3	14.3	0.00e+00	0	28	0	1733296128	67	4386
2026-01-07 00:01:02.01	169.87	32.30	-50.7	-52.1	14.4	0.00e+00	0	28	0	1736441856	67	4266
2026-01-07 00:01:03.01	170.03	32.12	-50.7	-52.1	14.4	0.00e+00	0	28	0	1739587584	67	4253
2026-01-07 00:01:04.02	170.20	31.93	-50.2	-51.5	14.6	0.00e+00	0	28	0	1742733312	67	4000
2026-01-07 00:01:05.02	170.36	31.75	-50.1	-51.4	14.5	0.00e+00	0	28	0	1745879040	66	4150
2026-01-07 00:01:06.01	170.51	31.57	-50.0	-51.3	14.6	0.00e+00	0	28	0	1749024768	66	4106
2026-01-07 00:01:07.01	170.67	31.39	-50.0	-51.3	14.6	0.00e+00	0	28	0	1752170496	66	4100
2026-01-07 00:01:08.01	170.82	31.21	-49.9	-51.2	14.6	0.00e+00	0	28	0	1755316224	66	4085
2026-01-07 00:01:09.00	170.98	31.03	-49.8	-51.0	14.7	0.00e+00	0	28	0	1758461952	66	3980
2026-01-07 00:01:10.00	171.13	30.85	-49.6	-50.9	14.6	0.00e+00	0	28	0	1761607680	65	4164
2026-01-07 00:01:11.00	171.28	30.68	-49.6	-50.9	14.6	0.00e+00	0	28	0	1764753408	65	4152
2026-01-07 00:01:12.00	171.43	30.50	-49.6	-50.9	14.6	0.00e+00	0	28	0	1767899136	65	4170
2026-01-07 00:01:13.00	171.57	30.32	-49.5	-50.8	14.6	0.00e+00	0	28	0	1771044864	65	4107
2026-01-07 00:01:14.00	171.72	30.15	-49.5	-50.7	14.7	0.00e+00	0	28	0	1774190592	65	4072
2026-01-07 00:01:15.00	171.86	29.97	-49.5	-50.7	14.7	0.00e+00	0	28	0	1777336320	65	4075
2026-01-07 00:01:15.99	172.00	29.80	-49.5	-50.7	14.7	0.00e+00	0	28	0	1780482048	65	4083
2026-01-07 00:01:16.99	172.14	29.63	-49.6	-50.8	14.7	0.00e+00	0	28	0	1783627776	65	4127
2026-01-07 00:01:17.99	172.28	29.46	-49.4	-50.7	14.7	0.00e+00	0	28	0	1786773504	65	4069
2026-01-07 00:01:18.99	172.42	29.29	-49.5	-50.8	14.6	0.00e+00	0	28	0	1789919232	65	4125
2026-01-07 00:01:19.99	172.56	29.12	-49.7	-50.9	14.6	0.00e+00	0	28	0	1793064960	65	4186
2026-01-07 00:01:20.99	172.69	28.95	-49.6	-50.9	14.6	0.00e+00	0	28	0	1796210688	65	4182
2026-01-07 00:01:21.98	172.82	28.78	-49.7	-51.0	14.6	0.00e+00	0	28	0	1799356416	65	4196
2026-01-07 00:01:22.99	172.96	28.62	-49.8	-51.1	14.5	0.00e+00	0	28	0	1801453568	65	4263
2026-01-07 00:01:23.98	173.09	28.45	-49.7	-51.0	14.6	0.00e+00	0	28	0	1804599296	65	4239
2026-01-07 00:01:24.98	173.22	28.29	-49.9	-51.2	14.5	0.00e+00	0	28	0	1807745024	65	4310
2026-01-07 00:01:25.99	173.35	28.12	-49.9	-51.2	14.5	0.00e+00	0	28	0	1810890752	65	4307
2026-01-07 00:01:26.99	173.48	27.96	-49.8	-51.1	14.6	0.00e+00	0	28	0	1815085056	65	4260
2026-01-07 00:01:28.00	173.60	27.79	-49.7	-51.0	14.6	0.00e+00	0	28	0	1818230784	65	4203
2026-01-07 00:01:29.00	173.73	27.63	-49.7	-51.0	14.6	0.00e+00	0	28	0	1821376512	65	4209
2026-01-07 00:01:30.00	173.85	27.47	-49.6	-50.9	14.6	0.00e+00	0	28	0	1824522240	65	4179
2026-01-07 00:01:31.00	173.97	27.31	-49.4	-50.7	14.7	0.00e+00	0	28	0	1826619392	65	4058
2026-01-07 00:01:32.01	174.10	27.15	-49.4	-50.6	14.7	0.00e+00	0	28	0	1829765120	65	4019
2026-01-07 00:01:33.01	174.22	26.99	-49.3	-50.5	14.8	0.00e+00	0	28	0	1832910848	65	3974
2026-01-07 00:01:34.01	174.33	26.83	-49.1	-50.3	14.7	0.00e+00	0	28	0	1836056576	64	4129
2026-01-07 00:01:35.02	174.45	26.67	-49.1	-50.3	14.7	0.00e+00	0	28	0	1839202304	64	4119
2026-01-07 00:01:36.02	174.57	26.51	-49.1	-50.3	14.7	0.00e+00	0	28	0	1842348032	64	4137
2026-01-07 00:01:37.01	174.68	26.36	-49.1	-50.4	14.7	0.00e+00	0	28	0	1845493760	64	4156
2026-01-07 00:01:38.01	174.80	26.21	-49.0	-50.2	14.8	0.00e+00	0	28	0	1848639488	64	4072
2026-01-07 00:01:39.01	174.91	26.05	-49.0	-50.2	14.7	0.00e+00	0	28	0	1851785216	64	4091
2026-01-07 00:01:40.01	175.03	25.90	-48.9	-50.1	14.8	0.00e+00	0	28	0	1854930944	64	4012
2026-01-07 00:01:41.01	175.14	25.74	-48.7	-49.9	14.9	0.00e+00	0	28	0	1858076672	64	3931
2026-01-07 00:01:42.01	175.25	25.59	-48.6	-49.8	14.8	0.00e+00	0	28	0	1861222400	63	4130
2026-01-07 00:01:43.00	175.36	25.44	-48.6	-49.8	14.8	0.00e+00	0	28	0	1864368128	63	4112
2026-01-07 00:01:44.00	175.46	25.29	-48.6	-49.8	14.8	0.00e+00	0	28	0	1867513856	63	4128
2026-01-07 00:01:44.99	175.57	25.14	-48.6	-49.8	14.8	0.00e+00	0	28	0	1870659584	63	4114
2026-01-07 00:01:45.99	175.68	25.00	-48.7	-49.9	14.8	0.00e+00	0	28	0	1873805312	63	4151
2026-01-07 00:01:46.99	175.78	24.85	-48.8	-49.9	14.7	0.00e+00	0	28	0	1876951040	63	4191
2026-01-07 00:01:47.99	175.89	24.70	-48.8	-50.0	14.7	0.00e+00	0	28	0	1880096768	63	4201
2026-01-07 00:01:48.99	175.99	24.55	-48.9	-50.1	14.7	0.00e+00	0	28	0	1883242496	63	4257
2026-01-07 00:01:49.99	176.09	24.41	-49.0	-50.2	14.6	0.00e+00	0	28	0	1886388224	63	4332
2026-01-07 00:01:50.99	176.19	24.26	-49.0	-50.3	14.6	0.00e+00	0	28	0	1889533952	63	4343
2026-01-07 00:01:51.99	176.30	24.12	-49.1	-50.4	14.6	0.00e+00	0	28	0	1892679680	63	4405
2026-01-07 00:01:53.00	176.40	23.97	-49.2	-50.4	14.6	0.00e+00	0	28	0	1895825408	63	4433
2026-01-07 00:01:53.99	176.49	23.83	-49.1	-50.4	14.6	0.00e+00	0	28	0	1898971136	63	4408
2026-01-07 00:01:54.99	176.59	23.69	-49.2	-50.5	14.6	0.00e+00	0	28	0	1902116864	63	4451
2026-01-07 00:01:55.99	176.69	23.55	-49.4	-50.7	14.5	0.00e+00	0	28	0	1905262592	63	4550
2026-01-07 00:01:57.00	176.79	23.40	-49.4	-50.7	14.6	0.00e+00	0	28	0	1908408320	64	4321
2026-01-07 00:01:58.00	176.88	23.26	-49.5	-50.8	14.5	0.00e+00	0	28	0	1911554048	64	4385
2026-01-07 00:01:59.00	176.98	23.12	-49.6	-50.9	14.5	0.00e+00	0	28	0	1914699776	64	4399
2026-01-07 00:02:00.00	177.07	22.99	-49.6	-50.9	14.5	0.00e+00	0	28	0	1917845504	64	4427
2026-01-07 00:02:01.00	177.17	22.85	-49.7	-51.0	14.5	0.00e+00	0	28	0	1920991232	64	4459
2026-01-07 00:02:02.01	177.26	22.71	-49.7	-51.1	14.5	0.00e+00	0	28	0	1924136960	64	4494
2026-01-07 00:02:03.01	177.35	22.57	-49.6	-50.9	14.5	0.00e+00	0	28	0	1927282688	64	4422
2026-01-07 00:02:04.01	177.44	22.43	-49.6	-50.9	14.5	0.00e+00	0	28	0	1930428416	64	4425
2026-01-07 00:02:05.00	177.53	22.30	-49.6	-50.9	14.5	0.00e+00	0	28	0	1933574144	64	4428
2026-01-07 00:02:06.00	177.62	22.17	-49.7	-51.0	14.4	0.00e+00	0	28	0	1936719872	64	4465
2026-01-07 00:02:06.99	177.71	22.03	-49.7	-51.0	14.4	0.00e+00	0	28	0	1939865600	64	4477
2026-01-07 00:02:07.99	177.80	21.90	-49.7	-51.0	14.5	0.00e+00	0	28	0	1943011328	64	4455
2026-01-07 00:02:08.99	177.88	21.77	-49.7	-51.0	14.4	0.00e+00	0	28	0	1946157056	64	4489
2026-01-07 00:02:09.99	177.97	21.63	-49.6	-50.9	14.5	0.00e+00	0	28	0	1949302784	64	4416
2026-01-07 00:02:10.99	178.06	21.50	-49.6	-50.9	14.5	0.00e+00	0	28	0	1952448512	64	4427
2026-01-07 00:02:11.98	178.14	21.37	-49.6	-50.9	14.5	0.00e+00	0	28	0	1955594240	64	4425
2026-01-07 00:02:12.98	178.23	21.24	-49.4	-50.7	14.6	0.00e+00	0	28	0	1958739968	64	4325
2026-01-07 00:02:13.98	178.31	21.11	-49.4	-50.7	14.6	0.00e+00	0	28	0	1960837120	64	4295
2026-01-07 00:02:14.98	178.39	20.98	-49.2	-50.5	14.6	0.00e+00	0	28	0	1963982848	64	4206
2026-01-07 00:02:15.98	178.47	20.85	-49.2	-50.4	14.7	0.00e+00	0	28	0	1967128576	64	4169
2026-01-07 00:02:16.98	178.56	20.72	-49.1	-50.3	14.7	0.00e+00	0	28	0	1970274304	64	4108
2026-01-07 00:02:17.97	178.64	20.60	-48.9	-50.1	14.8	0.00e+00	0	28	0	1973420032	64	4017
2026-01-07 00:02:18.97	178.72	20.47	-48.9	-50.1	14.8	0.00e+00	0	28	0	1976565760	64	4011
2026-01-07 00:02:19.97	178.80	20.34	-49.0	-50.2	14.8	0.00e+00	0	28	0	1979711488	64	4052
2026-01-07 00:02:20.97	178.88	20.22	-48.9	-50.1	14.8	0.00e+00	0	28	0	1982857216	64	4008
2026-01-07 00:02:21.96	178.96	20.09	-48.8	-50.0	14.8	0.00e+00	0	28	0	1986002944	64	3986
2026-01-07 00:02:22.96	179.03	19.97	-48.9	-50.1	14.8	0.00e+00	0	28	0	1989148672	64	4013
2026-01-07 00:02:23.95	179.11	19.85	-48.9	-50.1	14.8	0.00e+00	0	28	0	1992294400	64	4047
2026-01-07 00:02:24.95	179.19	19.72	-49.0	-50.2	14.7	0.00e+00	0	28	0	1995440128	64	4079
2026-01-07 00:02:25.95	179.26	19.60	-49.1	-50.4	14.7	0.00e+00	0	28	0	1998585856	64	4153
2026-01-07 00:02:26.95	179.34	19.48	-49.2	-50.4	14.6	0.00e+00	0	28	0	2001731584	64	4192
2026-01-07 00:02:27.95	179.41	19.36	-49.3	-50.5	14.6	0.00e+00	0	28	0	2004877312	64	4231
2026-01-07 00:02:28.95	179.49	19.24	-49.4	-50.7	14.6	0.00e+00	0	28	0	2008023040	64	4293
2026-01-07 00:02:29.95	179.56	19.11	-49.4	-50.6	14.6	0.00e+00	0	28	0	2011168768	64	4287
2026-01-07 00:02:30.95	179.64	18.99	-49.4	-50.7	14.6	0.00e+00	0	28	0	2014314496	64	4299
2026-01-07 00:02:31.95	179.71	18.87	-49.5	-50.8	14.5	0.00e+00	0	28	0	2017460224	64	4369
2026-01-07 00:02:32.95	179.78	18.76	-49.4	-50.6	14.6	0.00e+00	0	28	0	2020605952	64	4286
2026-01-07 00:02:33.95	179.85	18.64	-49.4	-50.7	14.5	0.00e+00	0	28	0	2023751680	64	4323
2026-01-07 00:02:34.95	179.93	18.52	-49.5	-50.7	14.5	0.00e+00	0	28	0	2026897408	64	4336
2026-01-07 00:02:35.95	180.00	18.40	-49.5	-50.8	14.5	0.00e+00	0	28	0	2030043136	64	4390
2026-01-07 00:02:36.95	180.07	18.28	-49.4	-50.7	14.6	0.00e+00	0	28	0	2033188864	64	4298
2026-01-07 00:02:37.95	180.14	18.17	-49.5	-50.8	14.5	0.00e+00	0	28	0	2036334592	64	4347
2026-01-07 00:02:38.95	180.21	18.05	-49.5	-50.8	14.5	0.00e+00	0	28	0	2039480320	64	4371
2026-01-07 00:02:39.95	180.28	17.94	-49.6	-50.9	14.5	0.00e+00	0	28	0	2042626048	64	4402
2026-01-07 00:02:40.95	180.34	17.82	-49.6	-50.9	14.5	0.00e+00	0	28	0	2045771776	64	4436
2026-01-07 00:02:41.96	180.41	17.71	-49.7	-51.1	14.4	0.00e+00	0	28	0	2048917504	64	4508
2026-01-07 00:02:42.95	180.48	17.59	-49.9	-51.2	14.4	0.00e+00	0	28	0	2052063232	64	4572
2026-01-07 00:02:43.95	180.55	17.48	-49.9	-51.2	14.4	0.00e+00	0	28	0	2055208960	64	4580
2026-01-07 00:02:44.96	180.61	17.36	-49.8	-51.2	14.4	0.00e+00	0	28	0	2058354688	64	4549
2026-01-07 00:02:45.95	180.68	17.25	-49.6	-50.9	14.5	0.00e+00	0	28	0	2061500416	64	4393
2026-01-07 00:02:46.95	180.74	17.14	-49.6	-50.9	14.5	0.00e+00	0	28	0	2064646144	64	4422
2026-01-07 00:02:47.94	180.81	17.03	-49.7	-51.0	14.4	0.00e+00	0	28	0	2067791872	64	4478
2026-01-07 00:02:48.95	180.87	16.92	-49.8	-51.2	14.4	0.00e+00	0	28	0	2070937600	64	4546
2026-01-07 00:02:49.94	180.94	16.81	-50.0	-51.3	14.4	0.00e+00	0	28	0	2074083328	65	4362
2026-01-07 00:02:50.95	181.00	16.70	-50.0	-51.4	14.4	0.00e+00	0	28	0	2077229056	65	4418
2026-01-07 00:02:51.95	181.07	16.59	-50.0	-51.3	14.4	0.00e+00	0	28	0	2080374784	65	4376
2026-01-07 00:02:52.96	181.13	16.48	-50.0	-51.4	14.4	0.00e+00	0	28	0	2083520512	65	4396
2026-01-07 00:02:53.96	181.19	16.37	-50.1	-51.5	14.4	0.00e+00	0	28	0	2086666240	65	4446
