passes_logs/2026/01/06/R3.2S_Murmansk/R3.2S_Murmansk__20260106_131905_FENGYUN_3D_rec.log

#Pass ID: 20260106_131905_FENGYUN 3D
#Satellite: FENGYUN 3D
#Configuration: FENGYUN 3D
#almurnet v.1.7.20251203
#Start time: 2026-01-06 13:19:06

#Version: 2.2.20231116
#Station: R3.2S_Murmansk
#Location: 33.079688 lon 68.888172 lat
#TLE: 1 43010U 17072A   26005.48915933 -.00000051  00000+0 -21983-5 0  9995
#TLE: 2 43010  98.9919 337.1582 0002001 124.6377 235.4988 14.19691925421909

#Time	Az	El	Level	Level2	SNR	BER	BlckErr	Temp	State	Recorded	gain1	gain2
2026-01-06 13:19:06.84	195.75	2.11	-58.7	-71.5	3.8	8.44e-01	0	26	0	0	84	15049
2026-01-06 13:19:07.83	195.81	2.16	-58.5	-71.4	3.8	8.45e-01	0	26	104	0	82	16599
2026-01-06 13:19:08.83	195.86	2.22	-58.5	-71.5	3.8	8.45e-01	0	26	104	0	82	16695
2026-01-06 13:19:09.83	195.91	2.28	-58.5	-71.4	3.8	8.46e-01	0	26	104	0	82	16683
2026-01-06 13:19:10.83	195.97	2.34	-58.5	-71.5	3.8	8.44e-01	0	26	104	0	82	16713
2026-01-06 13:19:11.83	196.02	2.40	-58.5	-71.5	3.8	8.47e-01	0	26	104	0	82	16796
2026-01-06 13:19:12.83	196.08	2.46	-58.5	-71.5	3.8	8.45e-01	0	26	104	0	82	16797
2026-01-06 13:19:13.84	196.13	2.52	-58.5	-71.5	3.8	8.46e-01	0	26	104	0	82	16869
2026-01-06 13:19:14.84	196.19	2.58	-58.5	-71.5	3.8	8.45e-01	0	26	104	0	82	16772
2026-01-06 13:19:15.84	196.24	2.64	-58.5	-71.5	3.8	8.46e-01	0	26	104	0	82	16723
2026-01-06 13:19:16.85	196.30	2.71	-58.5	-71.5	3.8	8.45e-01	0	26	104	0	82	16753
2026-01-06 13:19:17.85	196.36	2.77	-58.5	-71.5	3.8	8.45e-01	0	26	104	0	82	16834
2026-01-06 13:19:18.84	196.41	2.83	-58.5	-71.5	3.8	8.45e-01	0	26	104	0	82	16724
2026-01-06 13:19:19.84	196.47	2.89	-58.5	-71.5	3.8	8.45e-01	0	26	104	0	82	16696
2026-01-06 13:19:20.85	196.53	2.95	-58.5	-71.3	3.8	8.46e-01	0	26	104	0	82	16492
2026-01-06 13:19:21.85	196.58	3.01	-58.5	-71.3	3.8	8.46e-01	0	26	104	0	82	16388
2026-01-06 13:19:22.85	196.64	3.07	-58.5	-71.2	3.8	8.45e-01	0	26	104	0	82	16265
2026-01-06 13:19:23.85	196.70	3.13	-58.5	-71.1	3.8	8.46e-01	0	26	104	0	82	16052
2026-01-06 13:19:24.86	196.76	3.19	-58.5	-71.3	3.8	8.46e-01	0	26	104	0	82	16447
2026-01-06 13:19:25.86	196.81	3.25	-58.5	-71.4	3.8	8.44e-01	0	26	104	0	82	16510
2026-01-06 13:19:26.87	196.87	3.32	-58.5	-71.4	3.8	8.45e-01	0	26	104	0	82	16575
2026-01-06 13:19:27.87	196.93	3.38	-58.5	-71.4	3.8	8.46e-01	0	26	104	0	82	16643
2026-01-06 13:19:28.87	196.99	3.44	-58.5	-71.3	3.8	8.45e-01	0	26	104	0	82	16388
2026-01-06 13:19:29.87	197.05	3.50	-58.5	-71.3	3.8	8.45e-01	0	26	104	0	82	16334
2026-01-06 13:19:30.88	197.11	3.56	-58.5	-71.0	3.8	8.45e-01	0	26	104	0	82	15937
2026-01-06 13:19:31.87	197.17	3.63	-58.5	-71.0	3.8	8.45e-01	0	26	104	0	82	15795
2026-01-06 13:19:32.86	197.22	3.69	-58.5	-71.0	3.8	8.45e-01	0	26	104	0	82	15923
2026-01-06 13:19:33.86	197.28	3.75	-58.5	-71.2	3.8	8.45e-01	0	26	104	0	82	16275
2026-01-06 13:19:34.85	197.34	3.81	-58.5	-71.5	3.8	8.46e-01	0	26	104	0	82	16820
2026-01-06 13:19:35.85	197.40	3.87	-58.5	-71.6	3.8	8.46e-01	0	27	104	0	82	16970
2026-01-06 13:19:36.85	197.46	3.94	-58.5	-71.3	3.8	8.46e-01	0	27	104	0	82	16350
2026-01-06 13:19:37.86	197.52	4.00	-58.5	-70.5	3.8	8.46e-01	0	26	104	0	82	14882
2026-01-06 13:19:38.85	197.58	4.06	-58.3	-69.1	4.0	8.44e-01	0	27	104	0	82	12707
2026-01-06 13:19:39.85	197.65	4.13	-58.1	-67.2	4.4	8.32e-01	0	27	0	0	82	10249
2026-01-06 13:19:40.84	197.71	4.19	-58.0	-66.1	4.9	8.10e-01	0	27	0	0	82	9063
2026-01-06 13:19:41.84	197.77	4.25	-57.7	-64.8	5.6	5.70e-01	0	27	0	0	82	7786
2026-01-06 13:19:42.83	197.83	4.31	-57.5	-63.9	6.2	2.99e-01	0	27	0	6291456	81	7448
2026-01-06 13:19:43.83	197.89	4.38	-57.5	-64.1	6.0	2.66e-01	0	27	0	11534336	81	7625
2026-01-06 13:19:44.83	197.95	4.44	-57.3	-63.4	6.5	2.22e-01	0	27	0	16777216	81	7001
2026-01-06 13:19:45.83	198.02	4.51	-57.0	-62.3	7.4	9.72e-02	0	27	0	23068672	80	6547
2026-01-06 13:19:46.83	198.08	4.57	-56.7	-61.6	8.0	5.85e-02	0	27	0	28311552	80	6022
2026-01-06 13:19:47.82	198.14	4.63	-56.3	-60.6	9.0	1.84e-02	0	27	0	33554432	79	5667
2026-01-06 13:19:48.83	198.21	4.70	-55.6	-59.2	10.0	3.14e-03	0	27	0	39845888	77	5440
2026-01-06 13:19:49.83	198.27	4.76	-54.7	-57.7	11.2	3.73e-04	0	27	0	45088768	76	4853
2026-01-06 13:19:50.82	198.33	4.83	-54.4	-57.3	11.4	4.11e-05	0	27	0	50331648	75	4876
2026-01-06 13:19:51.82	198.40	4.89	-53.8	-56.4	12.0	4.50e-06	0	27	0	56623104	74	4658
2026-01-06 13:19:52.82	198.46	4.96	-53.0	-55.3	12.6	1.10e-06	0	27	0	61865984	72	4625
2026-01-06 13:19:53.82	198.53	5.02	-52.8	-55.0	12.8	0.00e+00	0	27	0	68157440	72	4453
2026-01-06 13:19:54.82	198.59	5.09	-52.9	-55.1	12.6	0.00e+00	0	27	0	73400320	71	4774
2026-01-06 13:19:55.82	198.66	5.15	-58.1	-67.3	4.4	1.17e-03	0	27	0	78643200	81	11027
2026-01-06 13:19:56.81	198.72	5.21	-50.5	-52.2	13.8	1.68e-02	0	27	0	78643200	67	4303
2026-01-06 13:19:57.81	198.79	5.28	-53.8	-56.3	12.0	0.00e+00	0	27	0	84934656	72	5174
2026-01-06 13:19:58.81	198.85	5.35	-50.1	-51.7	14.1	0.00e+00	0	27	0	90177536	66	4302
2026-01-06 13:19:59.82	198.92	5.41	-50.0	-51.6	14.1	0.00e+00	0	27	0	95420416	66	4276
2026-01-06 13:20:00.81	198.99	5.48	-49.9	-51.4	14.2	0.00e+00	0	27	0	101711872	66	4175
2026-01-06 13:20:01.82	199.05	5.54	-50.4	-52.0	13.9	0.00e+00	0	27	0	106954752	66	4469
2026-01-06 13:20:02.82	199.12	5.61	-50.1	-51.7	14.1	0.00e+00	0	27	0	112197632	66	4310
2026-01-06 13:20:03.82	199.19	5.68	-50.0	-51.6	14.1	0.00e+00	0	27	0	118489088	66	4280
2026-01-06 13:20:04.82	199.26	5.74	-49.9	-51.4	14.2	0.00e+00	0	27	0	123731968	66	4191
2026-01-06 13:20:05.82	199.32	5.81	-50.0	-51.6	14.1	0.00e+00	0	27	0	130023424	66	4245
2026-01-06 13:20:06.81	199.39	5.87	-49.7	-51.3	14.3	0.00e+00	0	27	0	135266304	66	4121
2026-01-06 13:20:07.80	199.46	5.94	-49.4	-50.9	14.3	0.00e+00	0	27	0	140509184	65	4182
2026-01-06 13:20:08.80	199.53	6.01	-49.9	-51.5	14.0	0.00e+00	0	27	0	146800640	65	4476
2026-01-06 13:20:09.80	199.60	6.07	-49.8	-51.4	14.1	0.00e+00	0	27	0	152043520	65	4415
2026-01-06 13:20:10.80	199.67	6.14	-49.9	-51.5	14.1	0.00e+00	0	27	0	157286400	65	4485
2026-01-06 13:20:11.80	199.74	6.21	-49.9	-51.4	14.1	0.00e+00	0	27	0	163577856	65	4429
2026-01-06 13:20:12.80	199.81	6.28	-49.7	-51.3	14.2	0.00e+00	0	27	0	168820736	65	4359
2026-01-06 13:20:13.80	199.88	6.34	-50.1	-51.7	14.0	0.00e+00	0	27	0	174063616	65	4585
2026-01-06 13:20:14.81	199.95	6.41	-50.0	-51.6	14.0	0.00e+00	0	27	0	180355072	65	4530
2026-01-06 13:20:15.81	200.02	6.48	-50.0	-51.6	14.0	0.00e+00	0	27	0	185597952	65	4533
2026-01-06 13:20:16.81	200.09	6.55	-49.8	-51.4	14.1	0.00e+00	0	27	0	191889408	65	4408
2026-01-06 13:20:17.81	200.16	6.62	-49.8	-51.4	14.2	0.00e+00	0	27	0	197132288	65	4396
2026-01-06 13:20:18.81	200.23	6.68	-49.8	-51.3	14.2	0.00e+00	0	27	0	202375168	65	4380
2026-01-06 13:20:19.81	200.31	6.75	-49.9	-51.5	14.1	0.00e+00	0	27	0	208666624	65	4467
2026-01-06 13:20:20.80	200.38	6.82	-49.8	-51.3	14.2	0.00e+00	0	27	0	213909504	65	4371
2026-01-06 13:20:21.80	200.45	6.89	-49.7	-51.3	14.2	0.00e+00	0	28	0	219152384	65	4341
2026-01-06 13:20:22.79	200.52	6.96	-57.7	-64.8	5.6	5.94e-01	0	27	0	223346688	81	8219
2026-01-06 13:20:23.79	200.60	7.03	-57.8	-65.1	5.5	6.48e-01	0	27	0	226492416	81	8500
2026-01-06 13:20:24.79	200.67	7.10	-57.6	-64.3	6.0	3.36e-01	0	27	0	232783872	81	7756
2026-01-06 13:20:25.80	200.75	7.17	-57.5	-64.0	6.2	3.33e-01	0	27	0	238026752	81	7526
2026-01-06 13:20:26.79	200.82	7.23	-57.6	-64.3	6.0	3.50e-01	0	27	0	243269632	81	7759
2026-01-06 13:20:27.79	200.90	7.30	-57.0	-62.1	7.7	1.82e-01	0	27	0	249561088	80	6360
2026-01-06 13:20:28.78	200.97	7.37	-57.8	-64.8	5.7	2.06e-01	0	28	0	254803968	80	8722
2026-01-06 13:20:29.78	201.05	7.44	-58.5	-70.2	3.8	8.29e-01	0	27	104	255852544	82	14525
2026-01-06 13:20:30.78	201.12	7.51	-58.6	-69.8	3.9	8.45e-01	0	27	104	255852544	82	13869
2026-01-06 13:20:31.77	201.20	7.58	-57.7	-64.1	6.2	6.33e-01	0	27	0	257949696	82	7176
2026-01-06 13:20:32.76	201.27	7.65	-57.6	-64.1	6.1	2.65e-01	0	28	0	264241152	81	7607
2026-01-06 13:20:33.76	201.35	7.72	-57.6	-64.1	6.1	2.55e-01	0	27	0	269484032	81	7584
2026-01-06 13:20:34.76	201.43	7.79	-57.7	-64.3	6.0	2.92e-01	0	27	0	274726912	81	7776
2026-01-06 13:20:35.76	201.51	7.86	-57.4	-63.2	6.8	1.61e-01	0	27	0	281018368	81	6847
2026-01-06 13:20:36.75	201.58	7.93	-57.2	-62.6	7.4	1.06e-01	0	28	0	286261248	81	6361
2026-01-06 13:20:37.75	201.66	8.00	-56.9	-61.8	8.1	4.58e-02	0	27	0	292552704	80	6135
2026-01-06 13:20:38.74	201.74	8.08	-56.8	-61.4	8.4	2.69e-02	0	27	0	297795584	80	5896
2026-01-06 13:20:39.74	201.82	8.15	-56.8	-61.6	8.3	3.00e-02	0	28	0	303038464	80	6014
2026-01-06 13:20:40.74	201.90	8.22	-56.5	-60.8	8.9	1.71e-02	0	28	0	309329920	79	5831
2026-01-06 13:20:41.74	201.98	8.29	-56.4	-60.6	9.1	1.10e-02	0	28	0	314572800	79	5706
2026-01-06 13:20:42.73	202.06	8.36	-56.3	-60.3	9.4	7.19e-03	0	28	0	319815680	79	5507
2026-01-06 13:20:43.73	202.14	8.43	-56.3	-60.2	9.5	5.66e-03	0	28	0	325058560	79	5454
2026-01-06 13:20:44.73	202.22	8.51	-56.2	-60.1	9.7	4.36e-03	0	27	0	331350016	79	5344
2026-01-06 13:20:45.73	202.30	8.58	-56.1	-59.8	9.9	3.45e-03	0	28	0	336592896	78	5478
2026-01-06 13:20:46.73	202.38	8.65	-55.7	-59.1	10.4	1.58e-03	0	28	0	342884352	78	5071
2026-01-06 13:20:47.73	202.46	8.72	-54.9	-57.8	11.3	1.06e-04	0	28	0	348127232	76	4894
2026-01-06 13:20:48.72	202.55	8.80	-54.0	-56.4	12.2	1.25e-05	0	28	0	353370112	74	4695
2026-01-06 13:20:49.72	202.63	8.87	-53.1	-55.2	13.0	0.00e+00	0	28	0	359661568	72	4559
2026-01-06 13:20:50.72	202.71	8.94	-52.2	-54.0	13.5	0.00e+00	0	28	0	364904448	71	4219
2026-01-06 13:20:51.71	202.80	9.01	-51.4	-53.0	13.9	0.00e+00	0	28	0	370147328	69	4240
2026-01-06 13:20:52.71	202.88	9.09	-50.5	-52.0	14.2	0.00e+00	0	28	0	376438784	67	4201
2026-01-06 13:20:53.71	202.96	9.16	-49.8	-51.1	14.5	0.00e+00	0	28	0	381681664	66	4045
2026-01-06 13:20:54.71	203.05	9.23	-49.2	-50.6	14.6	0.00e+00	0	28	0	387973120	65	4013
2026-01-06 13:20:55.71	203.13	9.31	-49.0	-50.3	14.6	0.00e+00	0	28	0	393216000	64	4109
2026-01-06 13:20:56.71	203.22	9.38	-48.8	-50.1	14.7	0.00e+00	0	28	0	398458880	64	4030
2026-01-06 13:20:57.71	203.31	9.46	-48.8	-50.1	14.7	0.00e+00	0	28	0	404750336	64	4033
2026-01-06 13:20:58.70	203.39	9.53	-48.8	-50.1	14.7	0.00e+00	0	28	0	409993216	64	4023
2026-01-06 13:20:59.70	203.48	9.61	-48.7	-49.9	14.8	0.00e+00	0	28	0	415236096	64	3950
2026-01-06 13:21:00.70	203.57	9.68	-48.9	-50.2	14.6	0.00e+00	0	28	0	421527552	63	4301
2026-01-06 13:21:01.70	203.65	9.76	-48.9	-50.2	14.6	0.00e+00	0	28	0	426770432	63	4310
2026-01-06 13:21:02.69	203.74	9.83	-48.7	-50.0	14.6	0.00e+00	0	28	0	432013312	63	4222
2026-01-06 13:21:03.70	203.83	9.91	-48.6	-49.8	14.7	0.00e+00	0	28	0	438304768	63	4143
2026-01-06 13:21:04.69	203.92	9.98	-48.5	-49.7	14.7	0.00e+00	0	28	0	443547648	63	4097
2026-01-06 13:21:05.69	204.01	10.06	-48.7	-49.9	14.7	0.00e+00	0	28	0	449839104	63	4184
2026-01-06 13:21:06.70	204.10	10.13	-48.4	-49.6	14.8	0.00e+00	0	28	0	455081984	63	4037
2026-01-06 13:21:07.69	204.19	10.21	-48.5	-49.7	14.8	0.00e+00	0	28	0	460324864	63	4091
2026-01-06 13:21:08.69	204.28	10.28	-48.4	-49.6	14.8	0.00e+00	0	28	0	466616320	63	4034
2026-01-06 13:21:09.70	204.37	10.36	-48.5	-49.7	14.8	0.00e+00	0	28	0	471859200	63	4086
2026-01-06 13:21:10.69	204.46	10.44	-48.5	-49.7	14.8	0.00e+00	0	28	0	477102080	63	4091
2026-01-06 13:21:11.68	204.56	10.51	-48.6	-49.9	14.7	0.00e+00	0	28	0	482344960	63	4159
2026-01-06 13:21:12.68	204.65	10.59	-48.6	-49.9	14.7	0.00e+00	0	28	0	488636416	63	4146
2026-01-06 13:21:13.68	204.74	10.67	-48.4	-49.6	14.8	0.00e+00	0	28	0	493879296	63	4048
2026-01-06 13:21:14.68	204.84	10.75	-48.3	-49.5	14.9	0.00e+00	0	28	0	500170752	63	3979
2026-01-06 13:21:15.67	204.93	10.82	-48.5	-49.7	14.8	0.00e+00	0	28	0	505413632	63	4067
2026-01-06 13:21:16.67	205.02	10.90	-48.3	-49.5	14.9	0.00e+00	0	28	0	510656512	63	3998
2026-01-06 13:21:17.68	205.12	10.98	-48.1	-49.3	14.8	0.00e+00	0	28	0	516947968	62	4145
2026-01-06 13:21:18.67	205.21	11.06	-48.2	-49.4	14.8	0.00e+00	0	28	0	522190848	62	4169
2026-01-06 13:21:19.67	205.31	11.13	-48.3	-49.5	14.7	0.00e+00	0	28	0	527433728	62	4215
2026-01-06 13:21:20.68	205.41	11.21	-48.3	-49.5	14.8	0.00e+00	0	28	0	533725184	62	4198
2026-01-06 13:21:21.69	205.51	11.29	-48.2	-49.4	14.8	0.00e+00	0	28	0	538968064	62	4150
2026-01-06 13:21:22.69	205.60	11.37	-48.1	-49.3	14.8	0.00e+00	0	28	0	545259520	62	4106
2026-01-06 13:21:23.69	205.70	11.45	-48.0	-49.2	14.9	0.00e+00	0	28	0	550502400	62	4075
2026-01-06 13:21:24.69	205.80	11.53	-48.1	-49.3	14.8	0.00e+00	0	28	0	555745280	62	4099
2026-01-06 13:21:25.69	205.90	11.61	-48.0	-49.2	14.9	0.00e+00	0	28	0	562036736	62	4066
2026-01-06 13:21:26.69	206.00	11.69	-48.0	-49.2	14.9	0.00e+00	0	28	0	567279616	62	4053
2026-01-06 13:21:27.70	206.10	11.77	-48.0	-49.1	14.9	0.00e+00	0	28	0	573571072	62	4039
2026-01-06 13:21:28.70	206.20	11.85	-48.0	-49.1	14.9	0.00e+00	0	28	0	578813952	62	4046
2026-01-06 13:21:29.71	206.30	11.93	-47.9	-49.1	14.9	0.00e+00	0	28	0	584056832	62	4029
2026-01-06 13:21:30.71	206.41	12.01	-47.9	-49.1	14.9	0.00e+00	0	28	0	590348288	62	4016
2026-01-06 13:21:31.71	206.51	12.09	-48.0	-49.2	14.9	0.00e+00	0	28	0	595591168	62	4078
2026-01-06 13:21:32.70	206.61	12.17	-48.0	-49.2	14.9	0.00e+00	0	28	0	600834048	62	4066
2026-01-06 13:21:33.70	206.71	12.25	-47.9	-49.1	14.9	0.00e+00	0	28	0	607125504	62	4023
2026-01-06 13:21:34.70	206.82	12.33	-47.9	-49.1	14.9	0.00e+00	0	28	0	612368384	62	4006
2026-01-06 13:21:35.70	206.92	12.41	-48.1	-49.2	14.9	0.00e+00	0	28	0	617611264	62	4098
2026-01-06 13:21:36.70	207.03	12.49	-47.9	-49.0	14.9	0.00e+00	0	28	0	623902720	62	3995
2026-01-06 13:21:37.70	207.13	12.57	-47.9	-49.0	14.9	0.00e+00	0	28	0	629145600	62	3995
2026-01-06 13:21:38.69	207.24	12.65	-47.9	-49.0	14.9	0.00e+00	0	28	0	635437056	62	3999
2026-01-06 13:21:39.70	207.35	12.74	-47.8	-48.9	15.0	0.00e+00	0	28	0	640679936	62	3943
2026-01-06 13:21:40.70	207.45	12.82	-47.8	-49.0	15.0	0.00e+00	0	28	0	645922816	62	3974
2026-01-06 13:21:41.70	207.56	12.90	-47.9	-49.0	14.9	0.00e+00	0	28	0	652214272	62	4003
2026-01-06 13:21:42.70	207.67	12.98	-47.9	-49.1	14.9	0.00e+00	0	28	0	657457152	62	4022
2026-01-06 13:21:43.70	207.78	13.07	-47.8	-49.0	14.9	0.00e+00	0	28	0	662700032	62	3988
2026-01-06 13:21:44.69	207.89	13.15	-47.8	-49.0	15.0	0.00e+00	0	28	0	668991488	62	3967
2026-01-06 13:21:45.69	208.00	13.23	-47.9	-49.1	14.9	0.00e+00	0	28	0	674234368	62	4020
2026-01-06 13:21:46.68	208.11	13.31	-47.8	-49.0	14.9	0.00e+00	0	28	0	679477248	62	3989
2026-01-06 13:21:47.67	208.22	13.40	-47.9	-49.1	14.9	0.00e+00	0	28	0	685768704	62	4008
2026-01-06 13:21:48.67	208.33	13.48	-48.0	-49.1	14.9	0.00e+00	0	28	0	691011584	62	4051
2026-01-06 13:21:49.66	208.44	13.56	-48.1	-49.2	14.9	0.00e+00	0	28	0	696254464	62	4094
2026-01-06 13:21:50.65	208.55	13.65	-47.8	-49.0	15.0	0.00e+00	0	28	0	702545920	62	3989
2026-01-06 13:21:51.66	208.67	13.73	-47.8	-49.0	15.0	0.00e+00	0	28	0	707788800	62	3981
2026-01-06 13:21:52.66	208.78	13.82	-47.8	-48.9	15.0	0.00e+00	0	28	0	713031680	62	3950
2026-01-06 13:21:53.66	208.90	13.90	-47.6	-48.8	14.9	0.00e+00	0	28	0	719323136	61	4109
2026-01-06 13:21:54.66	209.01	13.98	-47.5	-48.7	14.9	0.00e+00	0	28	0	724566016	61	4072
2026-01-06 13:21:55.66	209.13	14.07	-47.6	-48.8	14.9	0.00e+00	0	28	0	729808896	61	4102
2026-01-06 13:21:56.66	209.25	14.15	-47.6	-48.7	14.9	0.00e+00	0	28	0	736100352	61	4091
2026-01-06 13:21:57.66	209.36	14.24	-47.5	-48.6	15.0	0.00e+00	0	28	0	741343232	61	4039
2026-01-06 13:21:58.65	209.48	14.32	-47.6	-48.7	14.9	0.00e+00	0	28	0	747634688	61	4086
2026-01-06 13:21:59.65	209.60	14.41	-47.6	-48.7	14.9	0.00e+00	0	28	0	752877568	61	4098
2026-01-06 13:22:00.65	209.72	14.50	-47.3	-48.5	15.0	0.00e+00	0	28	0	758120448	61	3972
2026-01-06 13:22:01.65	209.84	14.58	-47.3	-48.5	15.0	0.00e+00	0	28	0	764411904	61	3975
2026-01-06 13:22:02.65	209.96	14.67	-47.4	-48.5	15.0	0.00e+00	0	28	0	769654784	61	4002
2026-01-06 13:22:03.65	210.08	14.75	-47.5	-48.6	15.0	0.00e+00	0	28	0	774897664	61	4035
2026-01-06 13:22:04.65	210.20	14.84	-47.4	-48.6	15.0	0.00e+00	0	28	0	781189120	61	4014
2026-01-06 13:22:05.64	210.33	14.93	-47.3	-48.4	15.1	0.00e+00	0	28	0	786432000	61	3956
2026-01-06 13:22:06.64	210.45	15.01	-47.4	-48.5	15.0	0.00e+00	0	28	0	791674880	61	3990
2026-01-06 13:22:07.65	210.58	15.10	-47.5	-48.6	15.0	0.00e+00	0	28	0	797966336	61	4028
2026-01-06 13:22:08.65	210.70	15.19	-47.4	-48.6	15.0	0.00e+00	0	28	0	803209216	61	4007
2026-01-06 13:22:09.65	210.83	15.28	-47.4	-48.5	15.0	0.00e+00	0	28	0	809500672	61	3989
2026-01-06 13:22:10.65	210.95	15.36	-47.4	-48.5	15.0	0.00e+00	0	28	0	814743552	61	3994
2026-01-06 13:22:11.65	211.08	15.45	-47.5	-48.7	15.0	0.00e+00	0	28	0	819986432	61	4071
2026-01-06 13:22:12.64	211.21	15.54	-47.5	-48.6	15.0	0.00e+00	0	28	0	826277888	61	4026
2026-01-06 13:22:13.65	211.34	15.63	-47.5	-48.6	15.0	0.00e+00	0	28	0	831520768	61	4028
2026-01-06 13:22:14.64	211.46	15.72	-47.5	-48.6	15.0	0.00e+00	0	28	0	836763648	61	4032
2026-01-06 13:22:15.64	211.59	15.80	-47.3	-48.4	15.1	0.00e+00	0	28	0	843055104	61	3932
2026-01-06 13:22:16.65	211.73	15.89	-47.2	-48.3	15.1	0.00e+00	0	28	0	848297984	61	3912
2026-01-06 13:22:17.65	211.86	15.98	-47.2	-48.3	15.1	0.00e+00	0	28	0	853540864	61	3896
2026-01-06 13:22:18.65	211.99	16.07	-47.2	-48.4	14.9	0.00e+00	0	28	0	859832320	60	4154
2026-01-06 13:22:19.65	212.12	16.16	-47.2	-48.3	15.0	0.00e+00	0	28	0	865075200	60	4124
2026-01-06 13:22:20.65	212.26	16.25	-47.2	-48.3	15.0	0.00e+00	0	28	0	871366656	60	4136
2026-01-06 13:22:21.65	212.39	16.34	-47.2	-48.3	15.0	0.00e+00	0	28	0	876609536	60	4112
2026-01-06 13:22:22.64	212.53	16.43	-47.0	-48.1	15.0	0.00e+00	0	28	0	881852416	60	4031
2026-01-06 13:22:23.64	212.66	16.52	-47.0	-48.1	15.0	0.00e+00	0	28	0	888143872	60	4047
2026-01-06 13:22:24.64	212.80	16.61	-47.0	-48.1	15.0	0.00e+00	0	28	0	893386752	60	4050
2026-01-06 13:22:25.64	212.94	16.70	-47.0	-48.1	15.0	0.00e+00	0	28	0	898629632	60	4051
2026-01-06 13:22:26.64	213.08	16.79	-47.1	-48.2	15.0	0.00e+00	0	28	0	904921088	60	4076
2026-01-06 13:22:27.63	213.21	16.88	-47.1	-48.2	15.0	0.00e+00	0	28	0	910163968	60	4088
2026-01-06 13:22:28.64	213.36	16.97	-47.1	-48.2	15.0	0.00e+00	0	28	0	915406848	60	4095
2026-01-06 13:22:29.64	213.50	17.07	-47.1	-48.2	15.0	0.00e+00	0	28	0	921698304	60	4065
2026-01-06 13:22:30.64	213.64	17.16	-47.1	-48.2	15.0	0.00e+00	0	28	0	926941184	60	4086
2026-01-06 13:22:31.65	213.78	17.25	-47.1	-48.2	15.0	0.00e+00	0	28	0	933232640	60	4080
2026-01-06 13:22:32.65	213.93	17.34	-47.1	-48.2	15.0	0.00e+00	0	28	0	938475520	60	4092
2026-01-06 13:22:33.64	214.07	17.43	-47.1	-48.2	15.0	0.00e+00	0	28	0	943718400	60	4081
2026-01-06 13:22:34.64	214.22	17.52	-47.1	-48.2	15.0	0.00e+00	0	28	0	950009856	60	4063
2026-01-06 13:22:35.63	214.36	17.62	-47.0	-48.1	15.0	0.00e+00	0	28	0	955252736	60	4050
2026-01-06 13:22:36.62	214.51	17.71	-47.0	-48.1	15.0	0.00e+00	0	28	0	960495616	60	4039
2026-01-06 13:22:37.62	214.65	17.80	-47.0	-48.1	15.1	0.00e+00	0	28	0	966787072	60	4034
2026-01-06 13:22:38.61	214.80	17.89	-47.0	-48.1	15.0	0.00e+00	0	28	0	972029952	60	4026
2026-01-06 13:22:39.61	214.95	17.98	-47.0	-48.1	15.1	0.00e+00	0	28	0	977272832	60	4009
2026-01-06 13:22:40.62	215.10	18.08	-46.9	-48.0	15.1	0.00e+00	0	28	0	983564288	60	4000
2026-01-06 13:22:41.61	215.25	18.17	-47.0	-48.1	15.1	0.00e+00	0	28	0	988807168	60	4033
2026-01-06 13:22:42.61	215.40	18.26	-46.9	-48.0	15.1	0.00e+00	0	28	0	994050048	60	3985
2026-01-06 13:22:43.61	215.56	18.36	-46.8	-47.9	15.1	0.00e+00	0	28	0	1000341504	60	3941
2026-01-06 13:22:44.61	215.71	18.45	-46.7	-47.8	15.2	0.00e+00	0	28	0	1005584384	60	3884
2026-01-06 13:22:45.61	215.87	18.54	-47.0	-48.2	15.0	0.00e+00	0	28	0	1010827264	59	4295
2026-01-06 13:22:46.61	216.02	18.64	-46.9	-48.0	15.0	0.00e+00	0	28	0	1017118720	59	4205
2026-01-06 13:22:47.61	216.18	18.73	-46.8	-47.9	15.0	0.00e+00	0	28	0	1022361600	59	4193
2026-01-06 13:22:48.61	216.34	18.83	-46.9	-48.0	15.0	0.00e+00	0	28	0	1028653056	59	4240
2026-01-06 13:22:49.60	216.50	18.92	-46.9	-48.0	15.0	0.00e+00	0	28	0	1033895936	59	4201
2026-01-06 13:22:50.60	216.66	19.02	-46.9	-48.1	15.0	0.00e+00	0	28	0	1039138816	59	4249
2026-01-06 13:22:51.60	216.82	19.11	-47.0	-48.1	15.0	0.00e+00	0	28	0	1045430272	59	4267
2026-01-06 13:22:52.59	216.98	19.20	-47.0	-48.1	15.0	0.00e+00	0	28	0	1050673152	59	4288
2026-01-06 13:22:53.59	217.14	19.30	-46.9	-48.0	15.0	0.00e+00	0	28	0	1055916032	59	4237
2026-01-06 13:22:54.59	217.30	19.39	-46.9	-48.0	15.0	0.00e+00	0	28	0	1062207488	59	4227
2026-01-06 13:22:55.59	217.47	19.49	-46.8	-48.0	15.0	0.00e+00	0	28	0	1067450368	59	4198
2026-01-06 13:22:56.58	217.63	19.58	-46.8	-47.9	15.0	0.00e+00	0	28	0	1072693248	59	4175
2026-01-06 13:22:57.59	217.80	19.68	-46.8	-48.0	15.0	0.00e+00	0	28	0	1078984704	59	4198
2026-01-06 13:22:58.59	217.97	19.78	-46.8	-47.9	15.0	0.00e+00	0	28	0	1084227584	59	4162
2026-01-06 13:22:59.58	218.13	19.87	-46.8	-47.9	15.0	0.00e+00	0	28	0	1089470464	59	4180
2026-01-06 13:23:00.58	218.30	19.97	-46.8	-47.9	15.0	0.00e+00	0	28	0	1095761920	59	4183
2026-01-06 13:23:01.59	218.48	20.07	-46.9	-48.0	15.0	0.00e+00	0	28	0	1101004800	59	4215
2026-01-06 13:23:02.58	218.65	20.16	-46.9	-48.0	15.0	0.00e+00	0	28	0	1106247680	59	4224
2026-01-06 13:23:03.58	218.82	20.26	-47.0	-48.1	15.0	0.00e+00	0	28	0	1112539136	59	4254
2026-01-06 13:23:04.58	218.99	20.35	-46.9	-48.0	15.0	0.00e+00	0	28	0	1117782016	59	4229
2026-01-06 13:23:05.58	219.17	20.45	-46.8	-48.0	15.0	0.00e+00	0	28	0	1123024896	59	4201
2026-01-06 13:23:06.58	219.34	20.55	-46.8	-47.9	15.0	0.00e+00	0	28	0	1129316352	59	4173
2026-01-06 13:23:07.58	219.52	20.64	-46.8	-47.9	15.0	0.00e+00	0	28	0	1134559232	59	4169
2026-01-06 13:23:08.57	219.70	20.74	-46.7	-47.8	15.0	0.00e+00	0	28	0	1140850688	59	4144
2026-01-06 13:23:09.57	219.88	20.84	-46.8	-47.9	15.0	0.00e+00	0	28	0	1146093568	59	4168
2026-01-06 13:23:10.58	220.06	20.93	-46.7	-47.8	15.1	0.00e+00	0	28	0	1151336448	59	4112
2026-01-06 13:23:11.58	220.24	21.03	-46.6	-47.7	15.1	0.00e+00	0	28	0	1157627904	59	4063
2026-01-06 13:23:12.58	220.42	21.13	-46.7	-47.8	15.1	0.00e+00	0	28	0	1162870784	59	4121
2026-01-06 13:23:13.58	220.61	21.23	-46.7	-47.8	15.1	0.00e+00	0	28	0	1168113664	59	4120
2026-01-06 13:23:14.58	220.79	21.32	-46.7	-47.8	15.1	0.00e+00	0	28	0	1174405120	59	4105
2026-01-06 13:23:15.57	220.98	21.42	-46.8	-47.9	15.0	0.00e+00	0	28	0	1179648000	59	4149
2026-01-06 13:23:16.57	221.16	21.52	-46.7	-47.8	15.1	0.00e+00	0	28	0	1184890880	59	4139
2026-01-06 13:23:17.56	221.35	21.62	-46.6	-47.7	15.1	0.00e+00	0	28	0	1191182336	59	4077
2026-01-06 13:23:18.57	221.54	21.71	-46.6	-47.7	15.1	0.00e+00	0	28	0	1196425216	59	4077
2026-01-06 13:23:19.56	221.73	21.81	-46.5	-47.6	15.1	0.00e+00	0	28	0	1202716672	59	4026
2026-01-06 13:23:20.56	221.92	21.91	-46.5	-47.5	15.2	0.00e+00	0	28	0	1207959552	59	4003
2026-01-06 13:23:21.56	222.11	22.01	-46.4	-47.5	15.2	0.00e+00	0	28	0	1213202432	59	3985
2026-01-06 13:23:22.56	222.31	22.10	-46.4	-47.5	15.2	0.00e+00	0	28	0	1219493888	59	3988
2026-01-06 13:23:23.56	222.50	22.20	-46.5	-47.6	15.2	0.00e+00	0	28	0	1224736768	59	4009
2026-01-06 13:23:24.56	222.70	22.30	-46.3	-47.4	15.2	0.00e+00	0	28	0	1229979648	59	3916
2026-01-06 13:23:25.56	222.90	22.40	-46.2	-47.3	15.3	0.00e+00	0	28	0	1236271104	59	3873
2026-01-06 13:23:26.55	223.09	22.50	-46.2	-47.3	15.1	0.00e+00	0	28	0	1241513984	58	4099
2026-01-06 13:23:27.54	223.29	22.59	-46.2	-47.2	15.1	0.00e+00	0	28	0	1246756864	58	4089
2026-01-06 13:23:28.54	223.49	22.69	-46.2	-47.3	15.1	0.00e+00	0	28	0	1253048320	58	4119
2026-01-06 13:23:29.54	223.70	22.79	-46.3	-47.3	15.1	0.00e+00	0	28	0	1258291200	58	4144
2026-01-06 13:23:30.53	223.90	22.89	-46.3	-47.4	15.1	0.00e+00	0	28	0	1263534080	58	4162
2026-01-06 13:23:31.52	224.10	22.98	-46.4	-47.5	15.1	0.00e+00	0	28	0	1269825536	58	4215
2026-01-06 13:23:32.52	224.31	23.08	-46.3	-47.4	15.0	0.00e+00	0	28	0	1275068416	58	4175
2026-01-06 13:23:33.52	224.52	23.18	-46.4	-47.4	15.0	0.00e+00	0	28	0	1280311296	58	4190
2026-01-06 13:23:34.52	224.73	23.28	-46.2	-47.3	15.1	0.00e+00	0	28	0	1286602752	58	4110
2026-01-06 13:23:35.53	224.94	23.38	-46.2	-47.3	15.1	0.00e+00	0	28	0	1291845632	58	4122
2026-01-06 13:23:36.53	225.15	23.48	-46.2	-47.3	15.1	0.00e+00	0	28	0	1297088512	58	4118
2026-01-06 13:23:37.53	225.36	23.57	-46.2	-47.3	15.1	0.00e+00	0	28	0	1303379968	58	4123
2026-01-06 13:23:38.53	225.58	23.67	-46.1	-47.2	15.2	0.00e+00	0	28	0	1308622848	58	4064
2026-01-06 13:23:39.52	225.79	23.77	-46.0	-47.0	15.2	0.00e+00	0	28	0	1314914304	58	4001
2026-01-06 13:23:40.51	226.00	23.87	-45.9	-47.0	15.2	0.00e+00	0	28	0	1320157184	58	3974
2026-01-06 13:23:41.51	226.22	23.97	-45.9	-47.0	15.2	0.00e+00	0	28	0	1325400064	58	3970
2026-01-06 13:23:42.51	226.44	24.06	-46.0	-47.1	15.2	0.00e+00	0	28	0	1331691520	58	4012
2026-01-06 13:23:43.51	226.66	24.16	-45.9	-46.9	15.2	0.00e+00	0	28	0	1336934400	58	3951
2026-01-06 13:23:44.51	226.88	24.26	-45.9	-46.9	15.2	0.00e+00	0	28	0	1342177280	58	3952
2026-01-06 13:23:45.50	227.10	24.36	-45.9	-46.9	15.2	0.00e+00	0	28	0	1348468736	58	3942
2026-01-06 13:23:46.50	227.33	24.45	-45.9	-47.0	15.2	0.00e+00	0	28	0	1353711616	58	3979
2026-01-06 13:23:47.50	227.56	24.55	-45.8	-46.9	15.3	0.00e+00	0	28	0	1358954496	58	3914
2026-01-06 13:23:48.50	227.78	24.65	-45.9	-47.0	15.2	0.00e+00	0	28	0	1365245952	58	3978
2026-01-06 13:23:49.50	228.01	24.75	-45.9	-47.0	15.2	0.00e+00	0	28	0	1370488832	58	3985
2026-01-06 13:23:50.50	228.24	24.84	-45.8	-46.9	15.2	0.00e+00	0	28	0	1376780288	58	3942
2026-01-06 13:23:51.50	228.47	24.94	-45.8	-46.9	15.3	0.00e+00	0	28	0	1382023168	58	3938
2026-01-06 13:23:52.49	228.70	25.04	-45.8	-46.9	15.3	0.00e+00	0	28	0	1387266048	58	3926
2026-01-06 13:23:53.50	228.94	25.13	-45.8	-46.8	15.3	0.00e+00	0	28	0	1393557504	58	3903
2026-01-06 13:23:54.49	229.17	25.23	-45.8	-46.8	15.3	0.00e+00	0	28	0	1398800384	58	3899
2026-01-06 13:23:55.49	229.41	25.33	-45.8	-46.8	15.3	0.00e+00	0	28	0	1404043264	58	3907
2026-01-06 13:23:56.49	229.65	25.42	-45.8	-46.9	15.3	0.00e+00	0	28	0	1410334720	58	3918
2026-01-06 13:23:57.49	229.89	25.52	-45.9	-47.0	15.2	0.00e+00	0	28	0	1415577600	58	3986
2026-01-06 13:23:58.49	230.13	25.62	-46.0	-47.0	15.2	0.00e+00	0	28	0	1420820480	58	3994
2026-01-06 13:23:59.48	230.37	25.71	-45.9	-47.0	15.3	0.00e+00	0	28	0	1427111936	58	3959
2026-01-06 13:24:00.48	230.62	25.81	-45.8	-46.9	15.3	0.00e+00	0	28	0	1432354816	58	3916
2026-01-06 13:24:01.48	230.86	25.90	-45.6	-46.6	15.2	0.00e+00	0	28	0	1437597696	57	4049
2026-01-06 13:24:02.48	231.11	26.00	-45.5	-46.5	15.2	0.00e+00	0	28	0	1443889152	57	3983
2026-01-06 13:24:03.48	231.36	26.09	-45.7	-46.7	15.2	0.00e+00	0	28	0	1449132032	57	4092
2026-01-06 13:24:04.48	231.61	26.19	-45.8	-46.9	15.1	0.00e+00	0	28	0	1454374912	57	4160
2026-01-06 13:24:05.49	231.86	26.28	-45.9	-47.0	15.1	0.00e+00	0	28	0	1460666368	57	4223
2026-01-06 13:24:06.49	232.12	26.38	-45.9	-47.0	15.1	0.00e+00	0	28	0	1465909248	57	4222
2026-01-06 13:24:07.49	232.37	26.47	-45.8	-46.9	15.1	0.00e+00	0	28	0	1472200704	57	4178
2026-01-06 13:24:08.49	232.63	26.56	-45.8	-46.9	15.1	0.00e+00	0	28	0	1477443584	57	4173
2026-01-06 13:24:09.49	232.88	26.66	-45.6	-46.6	15.2	0.00e+00	0	28	0	1482686464	57	4035
2026-01-06 13:24:10.49	233.14	26.75	-45.4	-46.5	15.2	0.00e+00	0	28	0	1488977920	57	3973
2026-01-06 13:24:11.49	233.40	26.84	-45.5	-46.5	15.2	0.00e+00	0	28	0	1494220800	57	3990
2026-01-06 13:24:12.49	233.67	26.94	-45.4	-46.4	15.3	0.00e+00	0	28	0	1500512256	57	3929
2026-01-06 13:24:13.49	233.93	27.03	-45.3	-46.3	15.3	0.00e+00	0	28	0	1505755136	57	3904
2026-01-06 13:24:14.50	234.20	27.12	-45.4	-46.4	15.3	0.00e+00	0	28	0	1510998016	57	3952
2026-01-06 13:24:15.50	234.46	27.21	-45.5	-46.5	15.2	0.00e+00	0	28	0	1517289472	57	3992
2026-01-06 13:24:16.50	234.73	27.31	-45.4	-46.5	15.2	0.00e+00	0	28	0	1522532352	57	3984
2026-01-06 13:24:17.49	235.00	27.40	-45.4	-46.5	15.2	0.00e+00	0	28	0	1527775232	57	3975
2026-01-06 13:24:18.50	235.27	27.49	-45.4	-46.4	15.3	0.00e+00	0	28	0	1534066688	57	3945
2026-01-06 13:24:19.49	235.54	27.58	-45.3	-46.3	15.3	0.00e+00	0	28	0	1539309568	57	3912
2026-01-06 13:24:20.48	235.81	27.67	-45.3	-46.3	15.3	0.00e+00	0	28	0	1544552448	57	3906
2026-01-06 13:24:21.49	236.09	27.76	-45.4	-46.4	15.3	0.00e+00	0	28	0	1550843904	57	3945
2026-01-06 13:24:22.48	236.37	27.84	-45.4	-46.5	15.3	0.00e+00	0	28	0	1556086784	57	3959
2026-01-06 13:24:23.48	236.64	27.93	-45.5	-46.6	15.2	0.00e+00	0	28	0	1561329664	57	4008
2026-01-06 13:24:24.48	236.92	28.02	-45.5	-46.5	15.2	0.00e+00	0	28	0	1567621120	57	3986
2026-01-06 13:24:25.47	237.20	28.11	-45.5	-46.5	15.2	0.00e+00	0	28	0	1572864000	57	3994
2026-01-06 13:24:26.47	237.49	28.19	-45.3	-46.3	15.3	0.00e+00	0	28	0	1578106880	57	3883
2026-01-06 13:24:27.47	237.77	28.28	-45.3	-46.4	15.3	0.00e+00	0	28	0	1584398336	57	3916
2026-01-06 13:24:28.48	238.06	28.37	-45.2	-46.2	15.3	0.00e+00	0	28	0	1589641216	57	3864
2026-01-06 13:24:29.46	238.34	28.45	-45.5	-46.5	15.2	0.00e+00	0	28	0	1595932672	57	3983
2026-01-06 13:24:30.46	238.63	28.54	-45.5	-46.6	15.2	0.00e+00	0	28	0	1601175552	57	4025
2026-01-06 13:24:31.46	238.92	28.62	-45.7	-46.7	15.2	0.00e+00	0	28	0	1606418432	57	4087
2026-01-06 13:24:32.45	239.21	28.71	-45.6	-46.6	15.2	0.00e+00	0	28	0	1612709888	57	4037
2026-01-06 13:24:33.45	239.50	28.79	-45.4	-46.4	15.3	0.00e+00	0	28	0	1617952768	57	3933
2026-01-06 13:24:34.45	239.80	28.87	-45.3	-46.3	15.3	0.00e+00	0	28	0	1623195648	57	3909
2026-01-06 13:24:35.45	240.09	28.96	-45.3	-46.3	15.3	0.00e+00	0	28	0	1629487104	57	3898
2026-01-06 13:24:36.45	240.39	29.04	-45.2	-46.3	15.3	0.00e+00	0	28	0	1634729984	57	3869
2026-01-06 13:24:37.45	240.69	29.12	-45.1	-46.1	15.2	0.00e+00	0	28	0	1639972864	56	4050
2026-01-06 13:24:38.45	240.99	29.20	-45.2	-46.2	15.2	0.00e+00	0	28	0	1646264320	56	4077
2026-01-06 13:24:39.44	241.29	29.28	-45.3	-46.3	15.2	0.00e+00	0	28	0	1651507200	56	4116
2026-01-06 13:24:40.44	241.60	29.36	-45.5	-46.5	15.1	0.00e+00	0	28	0	1657798656	56	4231
2026-01-06 13:24:41.45	241.90	29.44	-45.5	-46.5	15.1	0.00e+00	0	28	0	1663041536	56	4237
2026-01-06 13:24:42.44	242.21	29.52	-45.6	-46.7	15.1	0.00e+00	0	28	0	1668284416	56	4314
2026-01-06 13:24:43.43	242.51	29.59	-45.5	-46.6	15.1	0.00e+00	0	28	0	1673527296	56	4274
2026-01-06 13:24:44.43	242.82	29.67	-45.6	-46.6	15.1	0.00e+00	0	28	0	1679818752	56	4285
2026-01-06 13:24:45.43	243.13	29.75	-45.5	-46.6	15.1	0.00e+00	0	28	0	1685061632	56	4252
2026-01-06 13:24:46.43	243.45	29.82	-45.4	-46.5	15.1	0.00e+00	0	28	0	1690304512	56	4207
2026-01-06 13:24:47.42	243.76	29.90	-45.5	-46.5	15.1	0.00e+00	0	28	0	1696595968	56	4216
2026-01-06 13:24:48.42	244.07	29.97	-45.4	-46.5	15.1	0.00e+00	0	28	0	1701838848	56	4214
2026-01-06 13:24:49.42	244.39	30.04	-45.5	-46.6	15.1	0.00e+00	0	28	0	1708130304	56	4254
2026-01-06 13:24:50.42	244.71	30.12	-45.6	-46.6	15.1	0.00e+00	0	28	0	1713373184	56	4289
2026-01-06 13:24:51.41	245.02	30.19	-45.5	-46.6	15.1	0.00e+00	0	28	0	1718616064	56	4250
2026-01-06 13:24:52.41	245.35	30.26	-45.5	-46.6	15.1	0.00e+00	0	28	0	1724907520	56	4250
2026-01-06 13:24:53.41	245.67	30.33	-45.4	-46.4	15.1	0.00e+00	0	28	0	1730150400	56	4170
2026-01-06 13:24:54.41	245.99	30.40	-45.3	-46.4	15.1	0.00e+00	0	28	0	1735393280	56	4162
2026-01-06 13:24:55.40	246.31	30.47	-45.5	-46.5	15.1	0.00e+00	0	28	0	1741684736	56	4223
2026-01-06 13:24:56.41	246.64	30.54	-45.4	-46.5	15.1	0.00e+00	0	28	0	1746927616	56	4215
2026-01-06 13:24:57.41	246.97	30.60	-45.3	-46.3	15.2	0.00e+00	0	28	0	1752170496	56	4122
2026-01-06 13:24:58.40	247.30	30.67	-45.1	-46.2	15.2	0.00e+00	0	28	0	1758461952	56	4053
2026-01-06 13:24:59.40	247.63	30.73	-45.2	-46.3	15.2	0.00e+00	0	28	0	1763704832	56	4102
2026-01-06 13:25:00.39	247.96	30.80	-45.4	-46.5	15.2	0.00e+00	0	28	0	1769996288	56	4195
2026-01-06 13:25:01.39	248.29	30.86	-45.5	-46.6	15.1	0.00e+00	0	28	0	1775239168	56	4252
2026-01-06 13:25:02.39	248.62	30.92	-45.5	-46.5	15.1	0.00e+00	0	28	0	1780482048	56	4230
2026-01-06 13:25:03.39	248.96	30.98	-45.5	-46.5	15.1	0.00e+00	0	28	0	1786773504	56	4233
2026-01-06 13:25:04.39	249.30	31.04	-45.4	-46.5	15.1	0.00e+00	0	28	0	1792016384	56	4205
2026-01-06 13:25:05.38	249.63	31.10	-45.5	-46.5	15.1	0.00e+00	0	28	0	1797259264	56	4231
2026-01-06 13:25:06.38	249.97	31.16	-45.3	-46.4	15.1	0.00e+00	0	28	0	1802502144	56	4158
2026-01-06 13:25:07.39	250.31	31.22	-45.3	-46.3	15.2	0.00e+00	0	28	0	1808793600	56	4136
2026-01-06 13:25:08.38	250.65	31.28	-45.3	-46.4	15.2	0.00e+00	0	28	0	1814036480	56	4162
2026-01-06 13:25:09.39	251.00	31.33	-45.4	-46.4	15.2	0.00e+00	0	28	0	1820327936	56	4184
2026-01-06 13:25:10.38	251.34	31.39	-45.5	-46.5	15.1	0.00e+00	0	28	0	1825570816	56	4237
2026-01-06 13:25:11.37	251.68	31.44	-45.5	-46.6	15.1	0.00e+00	0	28	0	1830813696	56	4246
2026-01-06 13:25:12.36	252.02	31.49	-45.4	-46.5	15.1	0.00e+00	0	29	0	1837105152	56	4212
2026-01-06 13:25:13.36	252.37	31.55	-45.5	-46.5	15.1	0.00e+00	0	28	0	1842348032	56	4215
2026-01-06 13:25:14.37	252.72	31.60	-45.4	-46.5	15.1	0.00e+00	0	28	0	1847590912	56	4210
2026-01-06 13:25:15.38	253.07	31.65	-45.5	-46.6	15.1	0.00e+00	0	28	0	1853882368	56	4253
2026-01-06 13:25:16.37	253.42	31.69	-45.5	-46.5	15.1	0.00e+00	0	28	0	1859125248	56	4241
2026-01-06 13:25:17.37	253.77	31.74	-45.5	-46.6	15.1	0.00e+00	0	28	0	1864368128	56	4272
2026-01-06 13:25:18.37	254.12	31.79	-45.5	-46.5	15.1	0.00e+00	0	28	0	1870659584	56	4236
2026-01-06 13:25:19.37	254.48	31.83	-45.5	-46.5	15.1	0.00e+00	0	28	0	1875902464	56	4224
2026-01-06 13:25:20.37	254.83	31.88	-45.5	-46.6	15.1	0.00e+00	0	28	0	1882193920	56	4260
2026-01-06 13:25:21.37	255.19	31.92	-45.3	-46.3	15.1	0.00e+00	0	28	0	1887436800	56	4133
2026-01-06 13:25:22.37	255.54	31.96	-45.1	-46.1	15.2	0.00e+00	0	28	0	1892679680	56	4018
2026-01-06 13:25:23.37	255.90	32.00	-45.2	-46.2	15.2	0.00e+00	0	28	0	1898971136	56	4098
2026-01-06 13:25:24.37	256.26	32.04	-45.4	-46.5	15.1	0.00e+00	0	28	0	1904214016	56	4203
2026-01-06 13:25:25.37	256.62	32.08	-45.5	-46.6	15.1	0.00e+00	0	28	0	1909456896	56	4249
2026-01-06 13:25:26.36	256.97	32.12	-45.5	-46.5	15.1	0.00e+00	0	28	0	1915748352	56	4220
2026-01-06 13:25:27.36	257.33	32.16	-45.4	-46.4	15.1	0.00e+00	0	28	0	1920991232	56	4176
2026-01-06 13:25:28.37	257.70	32.19	-45.4	-46.4	15.1	0.00e+00	0	28	0	1926234112	56	4177
2026-01-06 13:25:29.37	258.06	32.22	-45.4	-46.5	15.1	0.00e+00	0	28	0	1932525568	56	4199
2026-01-06 13:25:30.37	258.42	32.26	-45.6	-46.6	15.1	0.00e+00	0	28	0	1937768448	56	4288
2026-01-06 13:25:31.38	258.79	32.29	-45.6	-46.7	15.1	0.00e+00	0	28	0	1944059904	56	4313
2026-01-06 13:25:32.38	259.15	32.32	-45.5	-46.6	15.1	0.00e+00	0	28	0	1949302784	56	4264
2026-01-06 13:25:33.37	259.52	32.35	-45.6	-46.6	15.1	0.00e+00	0	28	0	1954545664	56	4284
2026-01-06 13:25:34.37	259.88	32.37	-45.6	-46.7	15.1	0.00e+00	0	28	0	1960837120	56	4292
2026-01-06 13:25:35.37	260.25	32.40	-45.5	-46.6	15.1	0.00e+00	0	28	0	1966080000	56	4255
2026-01-06 13:25:36.37	260.61	32.43	-45.6	-46.6	15.1	0.00e+00	0	28	0	1971322880	56	4288
2026-01-06 13:25:37.36	260.98	32.45	-45.4	-46.5	15.1	0.00e+00	0	28	0	1977614336	56	4197
2026-01-06 13:25:38.36	261.34	32.47	-45.5	-46.5	15.1	0.00e+00	0	28	0	1982857216	56	4232
2026-01-06 13:25:39.36	261.71	32.49	-45.5	-46.5	15.1	0.00e+00	0	28	0	1988100096	56	4227
2026-01-06 13:25:40.35	262.08	32.51	-45.3	-46.3	15.2	0.00e+00	0	28	0	1994391552	56	4137
2026-01-06 13:25:41.35	262.44	32.53	-45.2	-46.2	15.2	0.00e+00	0	28	0	1999634432	56	4088
2026-01-06 13:25:42.35	262.81	32.55	-45.2	-46.3	15.2	0.00e+00	0	28	0	2005925888	56	4099
2026-01-06 13:25:43.35	263.18	32.57	-45.3	-46.3	15.2	0.00e+00	0	28	0	2011168768	56	4145
2026-01-06 13:25:44.35	263.55	32.58	-45.4	-46.5	15.1	0.00e+00	0	28	0	2016411648	56	4206
2026-01-06 13:25:45.35	263.92	32.59	-45.4	-46.4	15.1	0.00e+00	0	28	0	2022703104	56	4191
2026-01-06 13:25:46.36	264.30	32.61	-45.3	-46.3	15.2	0.00e+00	0	28	0	2027945984	56	4131
2026-01-06 13:25:47.35	264.66	32.62	-45.2	-46.2	15.2	0.00e+00	0	28	0	2033188864	56	4095
2026-01-06 13:25:48.35	265.04	32.63	-45.4	-46.4	15.2	0.00e+00	0	28	0	2039480320	56	4176
2026-01-06 13:25:49.34	265.40	32.64	-45.5	-46.6	15.1	0.00e+00	0	28	0	2044723200	56	4263
2026-01-06 13:25:50.34	265.77	32.64	-45.6	-46.6	15.1	0.00e+00	0	29	0	2051014656	56	4291
2026-01-06 13:25:51.34	266.15	32.65	-45.6	-46.7	15.1	0.00e+00	0	28	0	2056257536	56	4313
2026-01-06 13:25:52.34	266.52	32.65	-45.5	-46.6	15.1	0.00e+00	0	28	0	2061500416	56	4264
2026-01-06 13:25:53.34	266.89	32.66	-45.6	-46.6	15.1	0.00e+00	0	28	0	2067791872	56	4279
2026-01-06 13:25:54.34	267.26	32.66	-45.5	-46.6	15.1	0.00e+00	0	28	0	2073034752	56	4259
2026-01-06 13:25:55.34	267.63	32.66	-45.6	-46.6	15.1	0.00e+00	0	28	0	2078277632	56	4288
2026-01-06 13:25:56.34	268.00	32.66	-45.5	-46.6	15.1	0.00e+00	0	28	0	2084569088	56	4248
2026-01-06 13:25:57.34	268.38	32.66	-45.4	-46.4	15.1	0.00e+00	0	28	0	2089811968	56	4174
2026-01-06 13:25:58.34	268.75	32.65	-45.4	-46.4	15.1	0.00e+00	0	28	0	2095054848	56	4192
2026-01-06 13:25:59.34	269.12	32.65	-45.4	-46.4	15.1	0.00e+00	0	28	0	2101346304	56	4187
2026-01-06 13:26:00.33	269.49	32.64	-45.4	-46.4	15.1	0.00e+00	0	28	0	2106589184	56	4180
2026-01-06 13:26:01.33	269.86	32.64	-45.4	-46.4	15.1	0.00e+00	0	28	0	2111832064	56	4193
2026-01-06 13:26:02.33	270.23	32.63	-45.5	-46.5	15.1	0.00e+00	0	28	0	2118123520	56	4231
2026-01-06 13:26:03.33	270.60	32.62	-45.5	-46.5	15.1	0.00e+00	0	28	0	2123366400	56	4236
2026-01-06 13:26:04.32	270.97	32.61	-45.5	-46.5	15.1	0.00e+00	0	28	0	2128609280	56	4224
2026-01-06 13:26:05.32	271.34	32.59	-45.5	-46.6	15.1	0.00e+00	0	28	0	2134900736	56	4258
2026-01-06 13:26:06.31	271.70	32.58	-45.6	-46.6	15.1	0.00e+00	0	28	0	2140143616	56	4281
2026-01-06 13:26:07.30	272.07	32.57	-45.7	-46.7	15.1	0.00e+00	0	28	0	2145386496	56	4337
2026-01-06 13:26:08.29	272.44	32.55	-45.6	-46.7	15.1	0.00e+00	0	28	0	2151677952	56	4325
2026-01-06 13:26:09.29	272.80	32.53	-45.6	-46.7	15.1	0.00e+00	0	28	0	2156920832	56	4303
2026-01-06 13:26:10.29	273.17	32.51	-45.7	-46.7	15.1	0.00e+00	0	28	0	2163212288	56	4329
2026-01-06 13:26:11.29	273.54	32.49	-45.7	-46.7	15.1	0.00e+00	0	28	0	2168455168	56	4313
2026-01-06 13:26:12.30	273.91	32.47	-45.7	-46.8	15.1	0.00e+00	0	28	0	2173698048	56	4348
2026-01-06 13:26:13.30	274.28	32.45	-45.7	-46.8	15.1	0.00e+00	0	28	0	2179989504	56	4360
2026-01-06 13:26:14.30	274.65	32.42	-45.7	-46.8	15.1	0.00e+00	0	28	0	2185232384	56	4349
2026-01-06 13:26:15.30	275.01	32.40	-45.7	-46.7	15.1	0.00e+00	0	28	0	2190475264	56	4323
2026-01-06 13:26:16.30	275.38	32.37	-45.5	-46.5	15.1	0.00e+00	0	28	0	2196766720	56	4235
2026-01-06 13:26:17.30	275.74	32.35	-45.5	-46.5	15.1	0.00e+00	0	28	0	2202009600	56	4217
2026-01-06 13:26:18.29	276.10	32.32	-45.5	-46.5	15.1	0.00e+00	0	28	0	2207252480	56	4232
2026-01-06 13:26:19.29	276.47	32.29	-45.5	-46.6	15.1	0.00e+00	0	28	0	2213543936	56	4247
2026-01-06 13:26:20.28	276.83	32.26	-45.6	-46.7	15.1	0.00e+00	0	28	0	2218786816	56	4300
2026-01-06 13:26:21.28	277.19	32.22	-45.4	-46.5	15.1	0.00e+00	0	28	0	2224029696	56	4212
2026-01-06 13:26:22.27	277.55	32.19	-45.4	-46.5	15.1	0.00e+00	0	28	0	2230321152	56	4212
2026-01-06 13:26:23.27	277.91	32.16	-45.6	-46.6	15.1	0.00e+00	0	28	0	2235564032	56	4271
2026-01-06 13:26:24.27	278.27	32.12	-45.7	-46.8	15.1	0.00e+00	0	28	0	2240806912	56	4354
2026-01-06 13:26:25.26	278.62	32.08	-45.8	-46.9	15.0	0.00e+00	0	28	0	2247098368	56	4421
2026-01-06 13:26:26.25	278.98	32.04	-45.8	-46.9	15.1	0.00e+00	0	28	0	2252341248	56	4412
2026-01-06 13:26:27.25	279.34	32.00	-45.7	-46.7	15.1	0.00e+00	0	28	0	2257584128	56	4333
2026-01-06 13:26:28.25	279.69	31.96	-45.6	-46.6	15.1	0.00e+00	0	28	0	2263875584	56	4286
2026-01-06 13:26:29.25	280.05	31.92	-45.5	-46.6	15.1	0.00e+00	0	28	0	2269118464	56	4252
2026-01-06 13:26:30.25	280.40	31.88	-45.7	-46.8	15.1	0.00e+00	0	28	0	2275409920	56	4343
2026-01-06 13:26:31.24	280.75	31.84	-45.8	-46.8	15.1	0.00e+00	0	28	0	2280652800	56	4389
2026-01-06 13:26:32.25	281.11	31.79	-45.8	-46.9	15.1	0.00e+00	0	28	0	2285895680	56	4420
2026-01-06 13:26:33.25	281.46	31.74	-45.8	-46.9	15.1	0.00e+00	0	28	0	2292187136	56	4415
2026-01-06 13:26:34.24	281.81	31.70	-45.8	-46.8	15.1	0.00e+00	0	28	0	2297430016	56	4378
2026-01-06 13:26:35.24	282.16	31.65	-45.7	-46.8	15.1	0.00e+00	0	28	0	2302672896	56	4355
2026-01-06 13:26:36.24	282.51	31.60	-45.7	-46.8	15.1	0.00e+00	0	28	0	2308964352	56	4349
2026-01-06 13:26:37.25	282.86	31.55	-45.7	-46.8	15.1	0.00e+00	0	28	0	2314207232	56	4346
2026-01-06 13:26:38.25	283.21	31.50	-45.6	-46.7	15.1	0.00e+00	0	28	0	2319450112	56	4299
2026-01-06 13:26:39.24	283.55	31.44	-45.6	-46.7	15.1	0.00e+00	0	28	0	2325741568	56	4295
2026-01-06 13:26:40.23	283.89	31.39	-45.7	-46.8	15.1	0.00e+00	0	28	0	2330984448	56	4341
2026-01-06 13:26:41.23	284.23	31.34	-45.5	-46.5	15.1	0.00e+00	0	28	0	2336227328	56	4235
2026-01-06 13:26:42.23	284.57	31.28	-45.6	-46.7	15.1	0.00e+00	0	28	0	2342518784	56	4306
2026-01-06 13:26:43.23	284.92	31.22	-45.7	-46.8	15.1	0.00e+00	0	28	0	2347761664	56	4354
2026-01-06 13:26:44.23	285.26	31.17	-45.8	-46.8	15.1	0.00e+00	0	28	0	2353004544	56	4389
2026-01-06 13:26:45.23	285.59	31.11	-45.8	-46.9	15.1	0.00e+00	0	28	0	2359296000	56	4429
2026-01-06 13:26:46.23	285.93	31.05	-45.9	-46.9	15.0	0.00e+00	0	28	0	2364538880	56	4437
2026-01-06 13:26:47.23	286.27	30.99	-45.7	-46.8	15.1	0.00e+00	0	28	0	2369781760	56	4354
2026-01-06 13:26:48.22	286.60	30.93	-45.8	-46.8	15.1	0.00e+00	0	28	0	2376073216	56	4377
2026-01-06 13:26:49.22	286.93	30.86	-45.9	-46.9	15.1	0.00e+00	0	28	0	2381316096	57	4182
2026-01-06 13:26:50.22	287.27	30.80	-46.0	-47.1	15.1	0.00e+00	0	28	0	2387607552	57	4260
2026-01-06 13:26:51.21	287.59	30.74	-46.1	-47.2	15.1	0.00e+00	0	28	0	2392850432	57	4337
2026-01-06 13:26:52.19	287.92	30.67	-46.0	-47.1	15.1	0.00e+00	0	28	0	2398093312	57	4266
2026-01-06 13:26:53.19	288.25	30.61	-45.7	-46.8	15.1	0.00e+00	0	28	0	2404384768	57	4115
2026-01-06 13:26:54.18	288.57	30.54	-45.8	-46.8	15.1	0.00e+00	0	28	0	2409627648	57	4119
2026-01-06 13:26:55.18	288.89	30.47	-45.8	-46.9	15.1	0.00e+00	0	28	0	2414870528	57	4147
2026-01-06 13:26:56.17	289.22	30.41	-45.8	-46.9	15.1	0.00e+00	0	28	0	2420113408	57	4166
2026-01-06 13:26:57.17	289.54	30.34	-45.9	-46.9	15.1	0.00e+00	0	28	0	2426404864	57	4191
2026-01-06 13:26:58.17	289.86	30.27	-45.9	-47.0	15.1	0.00e+00	0	28	0	2431647744	57	4220
2026-01-06 13:26:59.17	290.18	30.20	-45.9	-47.0	15.1	0.00e+00	0	28	0	2437939200	57	4233
2026-01-06 13:27:00.17	290.50	30.13	-45.9	-47.0	15.1	0.00e+00	0	28	0	2443182080	57	4209
2026-01-06 13:27:01.15	290.81	30.05	-46.0	-47.1	15.1	0.00e+00	0	28	0	2448424960	57	4253
2026-01-06 13:27:02.15	291.13	29.98	-45.8	-46.9	15.1	0.00e+00	0	28	0	2454716416	57	4164
2026-01-06 13:27:03.16	291.45	29.91	-45.7	-46.8	15.1	0.00e+00	0	28	0	2459959296	57	4114
2026-01-06 13:27:04.16	291.76	29.83	-45.8	-46.9	15.1	0.00e+00	0	28	0	2465202176	57	4161
2026-01-06 13:27:05.15	292.07	29.76	-45.9	-46.9	15.1	0.00e+00	0	28	0	2471493632	57	4193
2026-01-06 13:27:06.15	292.38	29.68	-46.0	-47.1	15.1	0.00e+00	0	28	0	2476736512	57	4275
2026-01-06 13:27:07.14	292.68	29.61	-46.0	-47.1	15.1	0.00e+00	0	28	0	2481979392	57	4257
2026-01-06 13:27:08.15	293.00	29.53	-46.0	-47.1	15.1	0.00e+00	0	28	0	2488270848	57	4269
2026-01-06 13:27:09.15	293.30	29.45	-46.0	-47.0	15.1	0.00e+00	0	28	0	2493513728	57	4231
2026-01-06 13:27:10.15	293.61	29.37	-45.9	-47.0	15.1	0.00e+00	0	28	0	2499805184	57	4199
2026-01-06 13:27:11.15	293.91	29.29	-45.8	-46.9	15.1	0.00e+00	0	28	0	2505048064	57	4175
2026-01-06 13:27:12.15	294.21	29.21	-45.9	-47.0	15.1	0.00e+00	0	28	0	2510290944	57	4230
2026-01-06 13:27:13.15	294.51	29.13	-45.9	-47.0	15.1	0.00e+00	0	28	0	2516582400	57	4222
2026-01-06 13:27:14.15	294.81	29.05	-45.9	-47.0	15.1	0.00e+00	0	28	0	2521825280	57	4195
2026-01-06 13:27:15.15	295.11	28.97	-45.9	-46.9	15.1	0.00e+00	0	28	0	2527068160	57	4183
2026-01-06 13:27:16.15	295.40	28.89	-45.9	-46.9	15.1	0.00e+00	0	28	0	2533359616	57	4175
2026-01-06 13:27:17.15	295.70	28.80	-45.9	-46.9	15.1	0.00e+00	0	28	0	2538602496	57	4181
2026-01-06 13:27:18.15	295.99	28.72	-45.9	-46.9	15.1	0.00e+00	0	28	0	2543845376	57	4175
2026-01-06 13:27:19.13	296.28	28.64	-45.9	-47.0	15.1	0.00e+00	0	28	0	2550136832	57	4197
2026-01-06 13:27:20.14	296.57	28.55	-45.9	-46.9	15.1	0.00e+00	0	28	0	2555379712	57	4189
2026-01-06 13:27:21.13	296.85	28.47	-45.9	-47.0	15.1	0.00e+00	0	28	0	2560622592	57	4204
2026-01-06 13:27:22.13	297.14	28.38	-46.0	-47.1	15.1	0.00e+00	0	28	0	2566914048	57	4252
2026-01-06 13:27:23.13	297.43	28.30	-46.0	-47.1	15.1	0.00e+00	0	28	0	2572156928	57	4266
2026-01-06 13:27:24.13	297.71	28.21	-46.0	-47.1	15.1	0.00e+00	0	28	0	2578448384	57	4264
2026-01-06 13:27:25.14	298.00	28.12	-46.0	-47.1	15.1	0.00e+00	0	28	0	2583691264	57	4271
2026-01-06 13:27:26.14	298.28	28.04	-46.0	-47.1	15.1	0.00e+00	0	28	0	2588934144	57	4276
2026-01-06 13:27:27.14	298.56	27.95	-45.9	-47.0	15.1	0.00e+00	0	28	0	2595225600	57	4220
2026-01-06 13:27:28.14	298.83	27.86	-46.0	-47.1	15.1	0.00e+00	0	28	0	2600468480	57	4244
2026-01-06 13:27:29.14	299.11	27.77	-45.9	-47.0	15.1	0.00e+00	0	28	0	2606759936	57	4206
2026-01-06 13:27:30.13	299.38	27.68	-45.9	-47.0	15.1	0.00e+00	0	28	0	2612002816	57	4210
2026-01-06 13:27:31.14	299.66	27.59	-46.0	-47.1	15.1	0.00e+00	0	28	0	2617245696	57	4258
2026-01-06 13:27:32.14	299.93	27.50	-46.1	-47.1	15.1	0.00e+00	0	28	0	2623537152	57	4287
2026-01-06 13:27:33.13	300.20	27.41	-46.0	-47.1	15.1	0.00e+00	0	28	0	2628780032	57	4278
2026-01-06 13:27:34.13	300.47	27.32	-46.1	-47.2	15.1	0.00e+00	0	28	0	2634022912	57	4298
2026-01-06 13:27:35.13	300.73	27.23	-46.1	-47.2	15.0	0.00e+00	0	28	0	2640314368	57	4301
2026-01-06 13:27:36.13	301.00	27.14	-46.1	-47.1	15.1	0.00e+00	0	28	0	2645557248	57	4279
2026-01-06 13:27:37.13	301.26	27.05	-46.1	-47.2	15.0	0.00e+00	0	28	0	2650800128	57	4327
2026-01-06 13:27:38.14	301.53	26.96	-46.3	-47.4	15.0	0.00e+00	0	28	0	2657091584	57	4400
2026-01-06 13:27:39.13	301.79	26.87	-46.3	-47.4	15.0	0.00e+00	0	28	0	2662334464	57	4437
2026-01-06 13:27:40.13	302.05	26.77	-46.2	-47.3	15.0	0.00e+00	0	28	0	2667577344	57	4343
2026-01-06 13:27:41.12	302.30	26.68	-46.1	-47.1	15.1	0.00e+00	0	28	0	2673868800	57	4273
2026-01-06 13:27:42.12	302.56	26.59	-46.1	-47.1	15.0	0.00e+00	0	28	0	2679111680	57	4284
2026-01-06 13:27:43.11	302.81	26.50	-46.0	-47.1	15.1	0.00e+00	0	28	0	2684354560	57	4250
2026-01-06 13:27:44.10	303.07	26.40	-46.2	-47.3	15.0	0.00e+00	0	28	0	2690646016	57	4345
2026-01-06 13:27:45.10	303.32	26.31	-46.3	-47.4	15.0	0.00e+00	0	28	0	2695888896	57	4399
2026-01-06 13:27:46.10	303.57	26.21	-46.4	-47.5	15.0	0.00e+00	0	28	0	2701131776	57	4451
2026-01-06 13:27:47.09	303.82	26.12	-46.3	-47.4	15.0	0.00e+00	0	28	0	2707423232	57	4415
2026-01-06 13:27:48.08	304.06	26.03	-46.3	-47.4	15.0	0.00e+00	0	28	0	2712666112	57	4429
2026-01-06 13:27:49.08	304.31	25.93	-46.3	-47.4	15.0	0.00e+00	0	28	0	2717908992	57	4400
2026-01-06 13:27:50.07	304.55	25.84	-46.1	-47.1	15.0	0.00e+00	0	28	0	2724200448	57	4284
2026-01-06 13:27:51.07	304.80	25.74	-46.0	-47.1	15.1	0.00e+00	0	28	0	2729443328	57	4271
2026-01-06 13:27:52.07	305.04	25.65	-46.0	-47.1	15.1	0.00e+00	0	28	0	2734686208	57	4257
2026-01-06 13:27:53.07	305.28	25.55	-46.0	-47.0	15.1	0.00e+00	0	28	0	2740977664	57	4229
2026-01-06 13:27:54.06	305.52	25.46	-46.0	-47.1	15.1	0.00e+00	0	28	0	2746220544	57	4247
2026-01-06 13:27:55.07	305.76	25.36	-46.2	-47.2	15.0	0.00e+00	0	28	0	2751463424	57	4332
2026-01-06 13:27:56.06	305.99	25.27	-46.2	-47.2	15.0	0.00e+00	0	28	0	2757754880	57	4332
2026-01-06 13:27:57.06	306.23	25.17	-46.2	-47.3	15.0	0.00e+00	0	28	0	2762997760	57	4344
2026-01-06 13:27:58.06	306.46	25.07	-46.2	-47.3	15.0	0.00e+00	0	28	0	2769289216	57	4353
2026-01-06 13:27:59.06	306.69	24.98	-46.2	-47.3	15.0	0.00e+00	0	28	0	2774532096	57	4368
2026-01-06 13:28:00.05	306.92	24.88	-46.2	-47.3	15.0	0.00e+00	0	28	0	2779774976	57	4365
2026-01-06 13:28:01.05	307.15	24.78	-46.4	-47.5	15.0	0.00e+00	0	28	0	2786066432	57	4464
2026-01-06 13:28:02.05	307.38	24.69	-46.5	-47.5	15.0	0.00e+00	0	28	0	2791309312	58	4240
2026-01-06 13:28:03.05	307.61	24.59	-46.4	-47.5	15.0	0.00e+00	0	28	0	2796552192	58	4239
2026-01-06 13:28:04.05	307.83	24.49	-46.5	-47.5	15.0	0.00e+00	0	28	0	2802843648	58	4242
2026-01-06 13:28:05.04	308.06	24.40	-46.4	-47.5	15.0	0.00e+00	0	28	0	2808086528	58	4234
2026-01-06 13:28:06.05	308.28	24.30	-46.4	-47.5	15.0	0.00e+00	0	28	0	2813329408	58	4219
2026-01-06 13:28:07.04	308.50	24.20	-46.3	-47.4	15.1	0.00e+00	0	28	0	2819620864	58	4164
2026-01-06 13:28:08.04	308.72	24.10	-46.3	-47.4	15.1	0.00e+00	0	28	0	2824863744	58	4151
2026-01-06 13:28:09.05	308.94	24.01	-46.3	-47.4	15.1	0.00e+00	0	28	0	2831155200	58	4185
2026-01-06 13:28:10.04	309.16	23.91	-46.4	-47.5	15.0	0.00e+00	0	28	0	2836398080	58	4232
2026-01-06 13:28:11.04	309.37	23.81	-46.4	-47.5	15.0	0.00e+00	0	28	0	2841640960	58	4232
2026-01-06 13:28:12.04	309.59	23.71	-46.5	-47.6	15.0	0.00e+00	0	28	0	2847932416	58	4257
2026-01-06 13:28:13.04	309.80	23.62	-46.6	-47.7	15.0	0.00e+00	0	28	0	2853175296	58	4302
2026-01-06 13:28:14.04	310.01	23.52	-46.5	-47.6	15.0	0.00e+00	0	28	0	2858418176	58	4262
2026-01-06 13:28:15.04	310.23	23.42	-46.5	-47.6	15.0	0.00e+00	0	28	0	2864709632	58	4245
2026-01-06 13:28:16.04	310.44	23.32	-46.3	-47.4	15.1	0.00e+00	0	28	0	2869952512	58	4146
2026-01-06 13:28:17.04	310.64	23.23	-46.2	-47.3	15.1	0.00e+00	0	28	0	2875195392	58	4107
2026-01-06 13:28:18.04	310.85	23.13	-46.3	-47.3	15.1	0.00e+00	0	28	0	2881486848	58	4137
2026-01-06 13:28:19.03	311.06	23.03	-46.3	-47.4	15.1	0.00e+00	0	28	0	2886729728	58	4146
2026-01-06 13:28:20.03	311.26	22.93	-46.2	-47.3	15.1	0.00e+00	0	28	0	2891972608	58	4126
2026-01-06 13:28:21.04	311.47	22.84	-46.3	-47.4	15.1	0.00e+00	0	28	0	2898264064	58	4173
2026-01-06 13:28:22.03	311.67	22.74	-46.4	-47.5	15.0	0.00e+00	0	28	0	2903506944	58	4227
2026-01-06 13:28:23.02	311.86	22.64	-46.5	-47.6	15.0	0.00e+00	0	28	0	2908749824	58	4284
2026-01-06 13:28:24.03	312.07	22.54	-46.6	-47.7	15.0	0.00e+00	0	28	0	2915041280	58	4333
2026-01-06 13:28:25.02	312.26	22.45	-46.8	-47.9	15.0	0.00e+00	0	28	0	2920284160	58	4403
2026-01-06 13:28:26.03	312.46	22.35	-46.8	-47.9	15.0	0.00e+00	0	28	0	2925527040	58	4440
2026-01-06 13:28:27.02	312.66	22.25	-46.9	-48.0	15.0	0.00e+00	0	28	0	2931818496	59	4223
2026-01-06 13:28:28.01	312.85	22.16	-47.0	-48.1	15.0	0.00e+00	0	28	0	2937061376	59	4252
2026-01-06 13:28:29.02	313.05	22.06	-46.9	-48.0	15.0	0.00e+00	0	28	0	2943352832	59	4231
2026-01-06 13:28:30.02	313.24	21.96	-46.9	-48.0	15.0	0.00e+00	0	28	0	2948595712	59	4208
2026-01-06 13:28:31.01	313.43	21.86	-47.0	-48.1	15.0	0.00e+00	0	28	0	2953838592	59	4243
2026-01-06 13:28:32.01	313.62	21.77	-46.8	-47.9	15.0	0.00e+00	0	28	0	2960130048	59	4182
2026-01-06 13:28:33.01	313.81	21.67	-46.7	-47.8	15.1	0.00e+00	0	28	0	2965372928	59	4121
2026-01-06 13:28:34.02	314.00	21.57	-46.8	-47.8	15.0	0.00e+00	0	28	0	2970615808	59	4140
2026-01-06 13:28:35.02	314.18	21.47	-46.8	-47.8	15.0	0.00e+00	0	28	0	2976907264	59	4143
2026-01-06 13:28:36.01	314.37	21.38	-46.8	-47.9	15.0	0.00e+00	0	28	0	2982150144	59	4172
2026-01-06 13:28:37.01	314.55	21.28	-47.0	-48.1	15.0	0.00e+00	0	28	0	2987393024	59	4253
2026-01-06 13:28:38.00	314.73	21.18	-47.1	-48.2	14.9	0.00e+00	0	28	0	2993684480	59	4315
2026-01-06 13:28:39.00	314.92	21.09	-47.2	-48.4	14.9	0.00e+00	0	28	0	2998927360	59	4401
2026-01-06 13:28:39.99	315.10	20.99	-47.4	-48.5	14.9	0.00e+00	0	28	0	3005218816	59	4480
2026-01-06 13:28:40.99	315.28	20.89	-47.1	-48.2	15.0	0.00e+00	0	28	0	3010461696	60	4094
2026-01-06 13:28:41.99	315.46	20.80	-47.0	-48.1	15.1	0.00e+00	0	28	0	3015704576	60	4039
2026-01-06 13:28:43.00	315.64	20.70	-47.0	-48.1	15.0	0.00e+00	0	28	0	3021996032	60	4051
2026-01-06 13:28:43.99	315.81	20.61	-47.0	-48.1	15.1	0.00e+00	0	28	0	3027238912	60	4033
2026-01-06 13:28:44.99	315.99	20.51	-46.9	-48.0	15.1	0.00e+00	0	28	0	3032481792	60	3987
2026-01-06 13:28:45.98	316.16	20.41	-46.9	-48.0	15.1	0.00e+00	0	28	0	3038773248	60	3993
2026-01-06 13:28:46.98	316.33	20.32	-47.0	-48.1	15.1	0.00e+00	0	28	0	3044016128	60	4007
2026-01-06 13:28:47.98	316.51	20.22	-46.9	-48.0	15.1	0.00e+00	0	28	0	3049259008	60	3962
2026-01-06 13:28:48.97	316.68	20.13	-47.0	-48.1	15.1	0.00e+00	0	28	0	3055550464	60	4034
2026-01-06 13:28:49.97	316.85	20.03	-47.0	-48.1	15.1	0.00e+00	0	28	0	3060793344	60	4042
2026-01-06 13:28:50.97	317.02	19.94	-47.0	-48.1	15.1	0.00e+00	0	28	0	3066036224	60	4027
2026-01-06 13:28:51.98	317.19	19.84	-47.0	-48.1	15.1	0.00e+00	0	28	0	3072327680	60	4025
2026-01-06 13:28:52.97	317.35	19.75	-46.9	-48.0	15.1	0.00e+00	0	28	0	3077570560	60	3994
2026-01-06 13:28:53.97	317.52	19.65	-46.9	-48.0	15.1	0.00e+00	0	28	0	3082813440	60	3967
2026-01-06 13:28:54.97	317.68	19.56	-46.9	-48.0	15.1	0.00e+00	0	28	0	3089104896	60	3962
2026-01-06 13:28:55.96	317.85	19.46	-46.8	-47.9	15.1	0.00e+00	0	28	0	3094347776	60	3914
2026-01-06 13:28:56.96	318.01	19.37	-46.9	-48.0	15.1	0.00e+00	0	28	0	3099590656	60	3959
2026-01-06 13:28:57.95	318.17	19.27	-47.0	-48.1	15.1	0.00e+00	0	28	0	3105882112	60	4012
2026-01-06 13:28:58.95	318.33	19.18	-47.0	-48.1	15.0	0.00e+00	0	28	0	3111124992	60	4042
2026-01-06 13:28:59.95	318.49	19.09	-47.1	-48.2	15.0	0.00e+00	0	28	0	3117416448	60	4064
2026-01-06 13:29:00.94	318.65	18.99	-47.1	-48.2	15.0	0.00e+00	0	28	0	3122659328	60	4077
2026-01-06 13:29:01.94	318.81	18.90	-47.1	-48.3	15.0	0.00e+00	0	28	0	3127902208	60	4115
2026-01-06 13:29:02.93	318.97	18.80	-47.1	-48.3	15.0	0.00e+00	0	28	0	3133145088	60	4103
2026-01-06 13:29:03.92	319.12	18.71	-47.1	-48.2	15.0	0.00e+00	0	28	0	3139436544	60	4084
2026-01-06 13:29:04.92	319.28	18.62	-47.1	-48.3	15.0	0.00e+00	0	28	0	3144679424	60	4102
2026-01-06 13:29:05.92	319.43	18.53	-47.2	-48.3	15.0	0.00e+00	0	28	0	3150970880	60	4118
2026-01-06 13:29:06.92	319.59	18.43	-47.2	-48.3	15.0	0.00e+00	0	28	0	3156213760	60	4132
2026-01-06 13:29:07.91	319.74	18.34	-47.2	-48.3	15.0	0.00e+00	0	28	0	3161456640	60	4118
2026-01-06 13:29:08.92	319.89	18.25	-47.2	-48.3	15.0	0.00e+00	0	28	0	3167748096	60	4116
2026-01-06 13:29:09.91	320.04	18.15	-47.3	-48.4	14.9	0.00e+00	0	28	0	3172990976	60	4156
2026-01-06 13:29:10.91	320.19	18.06	-47.3	-48.4	14.9	0.00e+00	0	28	0	3178233856	60	4175
2026-01-06 13:29:11.90	320.34	17.97	-47.3	-48.4	14.9	0.00e+00	0	28	0	3184525312	60	4191
2026-01-06 13:29:12.91	320.49	17.88	-47.4	-48.5	14.9	0.00e+00	0	28	0	3189768192	60	4232
2026-01-06 13:29:13.90	320.64	17.79	-47.4	-48.5	14.9	0.00e+00	0	28	0	3195011072	60	4219
2026-01-06 13:29:14.90	320.79	17.69	-47.4	-48.6	14.9	0.00e+00	0	28	0	3201302528	60	4248
2026-01-06 13:29:15.90	320.93	17.60	-47.5	-48.7	14.9	0.00e+00	0	28	0	3206545408	60	4294
2026-01-06 13:29:16.91	321.08	17.51	-47.6	-48.8	14.8	0.00e+00	0	28	0	3212836864	60	4350
2026-01-06 13:29:17.91	321.22	17.42	-47.5	-48.7	14.8	0.00e+00	0	28	0	3218079744	60	4307
2026-01-06 13:29:18.90	321.36	17.33	-47.6	-48.8	14.8	0.00e+00	0	28	0	3223322624	60	4349
2026-01-06 13:29:19.91	321.51	17.24	-47.7	-48.9	14.8	0.00e+00	0	28	0	3229614080	60	4414
2026-01-06 13:29:20.91	321.65	17.14	-47.6	-48.8	14.8	0.00e+00	0	28	0	3234856960	60	4373
2026-01-06 13:29:21.91	321.79	17.05	-47.5	-48.7	14.9	0.00e+00	0	28	0	3240099840	60	4292
2026-01-06 13:29:22.90	321.93	16.96	-47.5	-48.7	14.9	0.00e+00	0	28	0	3246391296	60	4301
2026-01-06 13:29:23.90	322.07	16.87	-47.5	-48.6	14.9	0.00e+00	0	28	0	3251634176	60	4291
2026-01-06 13:29:24.90	322.21	16.78	-47.6	-48.8	14.8	0.00e+00	0	28	0	3256877056	60	4346
2026-01-06 13:29:25.91	322.35	16.69	-47.6	-48.7	14.8	0.00e+00	0	28	0	3263168512	60	4340
2026-01-06 13:29:26.90	322.48	16.60	-47.6	-48.7	14.8	0.00e+00	0	28	0	3268411392	60	4322
2026-01-06 13:29:27.90	322.62	16.51	-47.6	-48.8	14.8	0.00e+00	0	28	0	3274702848	60	4368
2026-01-06 13:29:28.89	322.75	16.43	-47.7	-48.8	14.8	0.00e+00	0	28	0	3279945728	60	4386
2026-01-06 13:29:29.89	322.89	16.34	-47.7	-48.8	14.8	0.00e+00	0	28	0	3285188608	60	4385
2026-01-06 13:29:30.89	323.02	16.25	-47.8	-48.9	14.8	0.00e+00	0	28	0	3291480064	60	4437
2026-01-06 13:29:31.90	323.16	16.16	-47.8	-48.9	14.8	0.00e+00	0	28	0	3296722944	60	4424
2026-01-06 13:29:32.90	323.29	16.07	-47.7	-48.9	14.8	0.00e+00	0	28	0	3301965824	60	4407
2026-01-06 13:29:33.91	323.42	15.98	-47.8	-49.0	14.7	0.00e+00	0	28	0	3308257280	60	4466
2026-01-06 13:29:34.90	323.55	15.89	-47.7	-48.8	14.8	0.00e+00	0	28	0	3313500160	60	4390
2026-01-06 13:29:35.90	323.68	15.80	-47.7	-48.8	14.8	0.00e+00	0	28	0	3318743040	60	4370
2026-01-06 13:29:36.90	323.81	15.72	-47.6	-48.8	14.8	0.00e+00	0	28	0	3325034496	60	4366
2026-01-06 13:29:37.88	323.94	15.63	-47.6	-48.7	14.8	0.00e+00	0	28	0	3330277376	60	4337
2026-01-06 13:29:38.88	324.07	15.54	-47.6	-48.8	14.8	0.00e+00	0	28	0	3335520256	60	4348
2026-01-06 13:29:39.87	324.19	15.46	-47.7	-48.9	14.8	0.00e+00	0	28	0	3341811712	60	4400
2026-01-06 13:29:40.88	324.32	15.37	-47.7	-48.9	14.8	0.00e+00	0	28	0	3347054592	60	4409
2026-01-06 13:29:41.87	324.45	15.28	-47.8	-49.0	14.8	0.00e+00	0	28	0	3352297472	60	4452
2026-01-06 13:29:42.86	324.57	15.20	-47.9	-49.0	14.7	0.00e+00	0	28	0	3358588928	60	4490
2026-01-06 13:29:43.85	324.69	15.11	-47.8	-49.0	14.7	0.00e+00	0	28	0	3363831808	60	4455
2026-01-06 13:29:44.85	324.82	15.02	-47.8	-49.0	14.7	0.00e+00	0	28	0	3369074688	60	4485
2026-01-06 13:29:45.85	324.94	14.94	-47.9	-49.1	14.7	0.00e+00	0	28	0	3375366144	60	4517
2026-01-06 13:29:46.85	325.06	14.85	-48.0	-49.2	14.8	0.00e+00	0	28	0	3380609024	61	4313
2026-01-06 13:29:47.86	325.19	14.76	-48.0	-49.2	14.8	0.00e+00	0	28	0	3386900480	61	4325
2026-01-06 13:29:48.86	325.31	14.68	-48.0	-49.3	14.7	0.00e+00	0	28	0	3392143360	61	4347
2026-01-06 13:29:49.86	325.43	14.59	-48.0	-49.2	14.8	0.00e+00	0	28	0	3397386240	61	4302
2026-01-06 13:29:50.85	325.55	14.51	-48.0	-49.2	14.8	0.00e+00	0	28	0	3403677696	61	4320
2026-01-06 13:29:51.85	325.66	14.42	-48.1	-49.3	14.7	0.00e+00	0	28	0	3408920576	61	4368
2026-01-06 13:29:52.84	325.78	14.34	-48.1	-49.3	14.8	0.00e+00	0	28	0	3414163456	61	4349
2026-01-06 13:29:53.84	325.90	14.25	-48.0	-49.2	14.8	0.00e+00	0	28	0	3420454912	61	4317
2026-01-06 13:29:54.83	326.02	14.17	-48.0	-49.2	14.8	0.00e+00	0	28	0	3425697792	61	4303
2026-01-06 13:29:55.83	326.13	14.09	-47.9	-49.1	14.8	0.00e+00	0	28	0	3430940672	61	4260
2026-01-06 13:29:56.84	326.25	14.00	-47.9	-49.0	14.8	0.00e+00	0	28	0	3437232128	61	4236
2026-01-06 13:29:57.83	326.36	13.92	-47.9	-49.1	14.8	0.00e+00	0	28	0	3442475008	61	4277
2026-01-06 13:29:58.83	326.48	13.83	-47.9	-49.1	14.8	0.00e+00	0	28	0	3447717888	61	4271
2026-01-06 13:29:59.83	326.59	13.75	-47.9	-49.1	14.8	0.00e+00	0	28	0	3454009344	61	4255
2026-01-06 13:30:00.83	326.71	13.67	-47.9	-49.1	14.8	0.00e+00	0	28	0	3459252224	61	4254
2026-01-06 13:30:01.82	326.82	13.58	-48.0	-49.2	14.7	0.00e+00	0	28	0	3464495104	61	4326
2026-01-06 13:30:02.82	326.93	13.50	-48.1	-49.3	14.7	0.00e+00	0	28	0	3470786560	61	4351
2026-01-06 13:30:03.82	327.04	13.42	-48.2	-49.3	14.7	0.00e+00	0	28	0	3476029440	61	4388
2026-01-06 13:30:04.82	327.15	13.33	-48.2	-49.4	14.7	0.00e+00	0	28	0	3481272320	61	4399
2026-01-06 13:30:05.82	327.26	13.25	-48.0	-49.2	14.7	0.00e+00	0	28	0	3487563776	61	4328
2026-01-06 13:30:06.82	327.37	13.17	-48.1	-49.3	14.7	0.00e+00	0	28	0	3492806656	61	4353
2026-01-06 13:30:07.81	327.48	13.09	-48.2	-49.4	14.7	0.00e+00	0	28	0	3499098112	61	4404
2026-01-06 13:30:08.81	327.59	13.01	-48.2	-49.4	14.7	0.00e+00	0	28	0	3504340992	61	4436
2026-01-06 13:30:09.81	327.70	12.92	-48.2	-49.4	14.7	0.00e+00	0	28	0	3509583872	61	4411
2026-01-06 13:30:10.80	327.80	12.84	-48.2	-49.4	14.7	0.00e+00	0	28	0	3515875328	61	4433
2026-01-06 13:30:11.80	327.91	12.76	-48.3	-49.6	14.6	0.00e+00	0	28	0	3521118208	61	4506
2026-01-06 13:30:12.80	328.02	12.68	-48.4	-49.7	14.6	0.00e+00	0	28	0	3526361088	61	4548
2026-01-06 13:30:13.80	328.12	12.60	-48.4	-49.6	14.7	0.00e+00	0	28	0	3532652544	62	4272
2026-01-06 13:30:14.81	328.23	12.52	-48.5	-49.7	14.7	0.00e+00	0	28	0	3537895424	62	4332
2026-01-06 13:30:15.81	328.34	12.44	-48.6	-49.8	14.6	0.00e+00	0	28	0	3543138304	62	4370
2026-01-06 13:30:16.81	328.44	12.36	-48.5	-49.8	14.6	0.00e+00	0	28	0	3549429760	62	4350
2026-01-06 13:30:17.81	328.54	12.28	-48.5	-49.8	14.6	0.00e+00	0	28	0	3554672640	62	4363
2026-01-06 13:30:18.80	328.65	12.20	-48.7	-49.9	14.6	0.00e+00	0	28	0	3560964096	62	4440
2026-01-06 13:30:19.80	328.75	12.12	-48.6	-49.9	14.6	0.00e+00	0	28	0	3566206976	62	4411
2026-01-06 13:30:20.81	328.85	12.04	-48.6	-49.8	14.6	0.00e+00	0	28	0	3571449856	62	4389
2026-01-06 13:30:21.81	328.95	11.96	-48.6	-49.9	14.6	0.00e+00	0	28	0	3577741312	62	4417
2026-01-06 13:30:22.80	329.05	11.88	-48.8	-50.0	14.6	0.00e+00	0	28	0	3582984192	62	4478
2026-01-06 13:30:23.80	329.15	11.80	-48.7	-50.0	14.6	0.00e+00	0	28	0	3588227072	62	4464
2026-01-06 13:30:24.80	329.25	11.72	-48.7	-50.0	14.6	0.00e+00	0	28	0	3594518528	62	4476
2026-01-06 13:30:25.80	329.35	11.64	-48.7	-50.0	14.6	0.00e+00	0	28	0	3599761408	62	4452
2026-01-06 13:30:26.80	329.45	11.56	-48.8	-50.1	14.5	0.00e+00	0	28	0	3605004288	62	4504
2026-01-06 13:30:27.80	329.55	11.48	-48.8	-50.1	14.5	0.00e+00	0	28	0	3611295744	62	4498
