passes_logs/2026/01/06/R3.2S_Murmansk/R3.2S_Murmansk__20260106_174111_TY-39_rec.log

#Pass ID: 20260106_174111_TY-39
#Satellite: TY-39
#Configuration: TY-39
#almurnet v.1.7.20251203
#Start time: 2026-01-06 17:41:11

#Version: 2.2.20231116
#Station: R3.2S_Murmansk
#Location: 33.079688 lon 68.888172 lat
#TLE: 1 51832U 22019J   26005.60812338  .00003126  00000-0  14986-3 0  9990
#TLE: 2 51832  97.3660  72.5273 0010440  80.2600 279.9813 15.19590096213104

#Time	Az	El	Level	Level2	SNR	BER	BlckErr	Temp	State	Recorded	gain1	gain2
2026-01-06 17:41:11.90	141.92	2.01	-57.2	-60.4	3.7	0.00e+00	0	28	0	0	81	20445
2026-01-06 17:41:12.89	141.90	2.08	-57.2	-60.5	3.7	0.00e+00	0	28	104	0	81	20639
2026-01-06 17:41:13.89	141.88	2.15	-57.2	-60.5	3.6	0.00e+00	0	28	104	0	81	20704
2026-01-06 17:41:14.89	141.86	2.22	-57.2	-60.4	3.7	0.00e+00	0	28	104	0	81	20521
2026-01-06 17:41:15.88	141.83	2.29	-57.2	-60.4	3.6	0.00e+00	0	28	104	0	81	20627
2026-01-06 17:41:16.87	141.81	2.36	-57.2	-60.5	3.6	0.00e+00	0	28	104	0	81	20634
2026-01-06 17:41:17.87	141.79	2.43	-57.2	-60.5	3.6	0.00e+00	0	28	104	0	81	20677
2026-01-06 17:41:18.86	141.77	2.50	-57.2	-60.5	3.7	0.00e+00	0	28	104	0	81	20700
2026-01-06 17:41:19.86	141.75	2.57	-57.3	-60.5	3.6	0.00e+00	0	28	104	0	81	20769
2026-01-06 17:41:20.85	141.72	2.64	-57.3	-60.4	3.7	0.00e+00	0	28	104	0	81	20536
2026-01-06 17:41:21.85	141.70	2.71	-57.3	-60.5	3.6	0.00e+00	0	28	104	0	81	20741
2026-01-06 17:41:22.84	141.68	2.79	-57.3	-60.5	3.7	0.00e+00	0	28	104	0	81	20726
2026-01-06 17:41:23.84	141.65	2.86	-57.3	-60.5	3.7	0.00e+00	0	28	104	0	81	20758
2026-01-06 17:41:24.84	141.63	2.93	-57.3	-60.5	3.7	0.00e+00	0	28	104	0	81	20680
2026-01-06 17:41:25.83	141.61	3.00	-57.3	-60.5	3.7	0.00e+00	0	28	104	0	81	20692
2026-01-06 17:41:26.82	141.58	3.07	-57.3	-60.5	3.7	0.00e+00	0	28	104	0	81	20760
2026-01-06 17:41:27.81	141.56	3.15	-57.3	-60.5	3.6	0.00e+00	0	29	104	0	81	20774
2026-01-06 17:41:28.80	141.54	3.22	-57.3	-60.4	3.7	0.00e+00	0	29	104	0	81	20612
2026-01-06 17:41:29.80	141.51	3.29	-57.3	-60.5	3.7	0.00e+00	0	28	104	0	81	20848
2026-01-06 17:41:30.78	141.49	3.37	-57.3	-60.5	3.7	0.00e+00	0	29	104	0	81	20840
2026-01-06 17:41:31.77	141.46	3.44	-57.3	-60.5	3.7	0.00e+00	0	29	104	0	81	20772
2026-01-06 17:41:32.76	141.44	3.51	-57.3	-60.5	3.7	0.00e+00	0	29	104	0	81	20846
2026-01-06 17:41:33.75	141.41	3.59	-57.3	-60.6	3.7	0.00e+00	0	29	104	0	81	20877
2026-01-06 17:41:34.74	141.39	3.66	-57.3	-60.5	3.7	0.00e+00	0	29	104	0	81	20761
2026-01-06 17:41:35.72	141.36	3.74	-57.3	-60.5	3.6	0.00e+00	0	29	104	0	81	20760
2026-01-06 17:41:36.71	141.34	3.81	-57.3	-60.5	3.7	0.00e+00	0	29	104	0	81	20746
2026-01-06 17:41:37.70	141.31	3.89	-57.3	-60.5	3.6	0.00e+00	0	29	104	0	81	20801
2026-01-06 17:41:38.70	141.29	3.96	-57.3	-60.5	3.7	0.00e+00	0	29	104	0	81	20789
2026-01-06 17:41:39.69	141.26	4.04	-57.3	-60.5	3.6	0.00e+00	0	29	104	0	81	20688
2026-01-06 17:41:40.69	141.24	4.12	-57.3	-60.5	3.7	0.00e+00	0	29	104	0	81	20772
2026-01-06 17:41:41.68	141.21	4.19	-57.3	-60.6	3.7	0.00e+00	0	29	104	0	81	21014
2026-01-06 17:41:42.68	141.18	4.27	-57.3	-60.5	3.6	0.00e+00	0	29	104	0	81	20770
2026-01-06 17:41:43.68	141.16	4.35	-57.3	-60.5	3.6	0.00e+00	0	29	104	0	81	20823
2026-01-06 17:41:44.67	141.13	4.42	-57.3	-60.5	3.6	0.00e+00	0	29	104	0	81	20869
2026-01-06 17:41:45.66	141.10	4.50	-57.3	-60.5	3.6	0.00e+00	0	29	104	0	81	20782
2026-01-06 17:41:46.66	141.07	4.58	-57.3	-60.6	3.6	0.00e+00	0	29	104	0	81	20874
2026-01-06 17:41:47.66	141.05	4.66	-57.3	-60.5	3.7	0.00e+00	0	29	104	0	81	20836
2026-01-06 17:41:48.65	141.02	4.74	-57.3	-60.5	3.7	0.00e+00	0	29	104	0	81	20814
2026-01-06 17:41:49.64	140.99	4.82	-57.3	-60.5	3.6	0.00e+00	0	29	104	0	81	20824
2026-01-06 17:41:50.64	140.96	4.89	-57.3	-60.6	3.7	0.00e+00	0	29	104	0	81	20948
2026-01-06 17:41:51.64	140.93	4.97	-57.3	-60.5	3.6	0.00e+00	0	29	104	0	81	20755
2026-01-06 17:41:52.63	140.91	5.05	-57.3	-60.5	3.7	0.00e+00	0	29	104	0	81	20727
2026-01-06 17:41:53.62	140.88	5.13	-57.5	-60.7	3.6	0.00e+00	0	29	104	0	81	21261
2026-01-06 17:41:54.61	140.85	5.21	-57.4	-60.6	3.7	0.00e+00	0	29	104	0	81	20990
2026-01-06 17:41:55.59	140.82	5.29	-57.5	-60.7	3.6	0.00e+00	0	29	104	0	81	21253
2026-01-06 17:41:56.57	140.79	5.37	-57.4	-60.7	3.7	0.00e+00	0	30	104	0	81	21212
2026-01-06 17:41:57.56	140.76	5.46	-57.5	-60.7	3.6	0.00e+00	0	29	104	0	81	21236
2026-01-06 17:41:58.56	140.73	5.54	-57.5	-60.7	3.6	0.00e+00	0	30	104	0	81	21230
2026-01-06 17:41:59.56	140.70	5.62	-57.5	-60.8	3.7	0.00e+00	0	30	104	0	81	21433
2026-01-06 17:42:00.55	140.67	5.70	-57.5	-60.7	3.6	0.00e+00	0	30	104	0	81	21344
2026-01-06 17:42:01.55	140.64	5.79	-57.5	-60.7	3.7	0.00e+00	0	30	104	0	81	21203
2026-01-06 17:42:02.54	140.61	5.87	-57.5	-60.8	3.6	0.00e+00	0	29	104	0	81	21437
2026-01-06 17:42:03.52	140.58	5.95	-57.5	-60.7	3.6	0.00e+00	0	30	104	0	81	21336
2026-01-06 17:42:04.52	140.54	6.04	-57.5	-60.8	3.7	0.00e+00	0	30	104	0	81	21430
2026-01-06 17:42:05.51	140.51	6.12	-57.5	-60.7	3.6	0.00e+00	0	30	104	0	81	21307
2026-01-06 17:42:06.51	140.48	6.20	-57.5	-60.8	3.6	0.00e+00	0	30	104	0	81	21422
2026-01-06 17:42:07.50	140.45	6.29	-57.6	-60.9	3.7	0.00e+00	0	30	104	0	81	21640
2026-01-06 17:42:08.49	140.42	6.37	-57.6	-60.8	3.7	0.00e+00	0	30	104	0	81	21525
2026-01-06 17:42:09.48	140.38	6.46	-57.6	-60.8	3.6	0.00e+00	0	30	104	0	81	21405
2026-01-06 17:42:10.48	140.35	6.55	-45.4	-45.7	10.8	1.51e-02	0	30	0	16777216	58	14234
2026-01-06 17:42:11.47	140.32	6.63	-44.7	-45.0	11.1	2.15e-04	0	31	0	92274688	56	14760
2026-01-06 17:42:12.47	140.28	6.72	-44.7	-45.0	11.2	2.50e-04	0	30	0	167772160	56	14707
2026-01-06 17:42:13.46	140.25	6.81	-47.1	-47.5	9.8	2.41e-01	0	31	0	243269632	61	14751
2026-01-06 17:42:14.45	140.22	6.89	-44.3	-44.6	11.3	7.07e-04	0	31	0	318767104	55	14852
2026-01-06 17:42:15.45	140.18	6.98	-44.4	-44.7	11.2	0.00e+00	0	31	0	385875968	55	15025
2026-01-06 17:42:16.45	140.15	7.07	-44.4	-44.7	11.2	0.00e+00	0	31	0	461373440	55	15101
2026-01-06 17:42:17.44	140.11	7.16	-44.2	-44.6	11.3	1.38e-05	0	31	0	536870912	55	14840
2026-01-06 17:42:18.43	140.08	7.25	-44.2	-44.5	11.4	0.00e+00	0	31	0	612368384	55	14723
2026-01-06 17:42:19.41	140.04	7.34	-44.2	-44.5	11.3	0.00e+00	0	31	0	687865856	55	14746
2026-01-06 17:42:20.41	140.00	7.43	-44.1	-44.4	11.4	0.00e+00	0	31	0	763363328	55	14589
2026-01-06 17:42:21.40	139.97	7.52	-44.4	-44.7	11.3	6.90e-06	0	31	0	838860800	55	15035
2026-01-06 17:42:22.40	139.93	7.61	-44.4	-44.7	11.3	6.90e-06	0	31	0	905969664	55	14998
2026-01-06 17:42:23.40	139.89	7.70	-44.4	-44.7	11.2	6.90e-06	0	31	0	981467136	55	15097
2026-01-06 17:42:24.39	139.86	7.79	-44.2	-44.5	11.4	6.90e-06	0	31	0	1056964608	55	14625
2026-01-06 17:42:25.37	139.82	7.88	-44.3	-44.6	11.4	6.90e-06	0	31	0	1132462080	55	14846
2026-01-06 17:42:26.36	139.78	7.97	-44.2	-44.5	11.4	0.00e+00	0	31	0	1207959552	55	14723
2026-01-06 17:42:27.35	139.75	8.07	-44.1	-44.4	11.5	6.90e-06	0	31	0	1283457024	55	14497
2026-01-06 17:42:28.35	139.71	8.16	-43.8	-44.1	11.5	0.00e+00	0	31	0	1358954496	54	14942
2026-01-06 17:42:29.35	139.67	8.26	-43.8	-44.2	11.5	6.90e-06	0	31	0	1434451968	54	14966
2026-01-06 17:42:30.34	139.63	8.35	-43.8	-44.2	11.5	0.00e+00	0	31	0	1509949440	54	14971
2026-01-06 17:42:31.33	139.59	8.44	-43.8	-44.1	11.5	0.00e+00	0	31	0	1585446912	54	14903
2026-01-06 17:42:32.33	139.55	8.54	-43.8	-44.1	11.6	0.00e+00	0	31	0	1652555776	54	14841
2026-01-06 17:42:33.32	139.51	8.64	-43.7	-44.0	11.6	0.00e+00	0	31	0	1728053248	54	14731
2026-01-06 17:42:34.32	139.47	8.73	-43.7	-44.0	11.6	0.00e+00	0	31	0	1803550720	54	14739
2026-01-06 17:42:35.31	139.43	8.83	-43.7	-44.0	11.7	0.00e+00	0	31	0	1879048192	54	14673
2026-01-06 17:42:36.31	139.39	8.93	-43.7	-44.0	11.7	0.00e+00	0	31	0	1954545664	54	14669
2026-01-06 17:42:37.30	139.34	9.02	-43.7	-44.0	11.7	0.00e+00	0	31	0	2030043136	54	14657
2026-01-06 17:42:38.30	139.30	9.12	-43.6	-44.0	11.7	0.00e+00	0	31	0	2105540608	54	14624
2026-01-06 17:42:39.29	139.26	9.22	-43.5	-43.8	11.8	0.00e+00	0	31	0	2181038080	54	14369
2026-01-06 17:42:40.28	139.22	9.32	-43.6	-43.9	11.7	0.00e+00	0	31	0	2256535552	54	14485
2026-01-06 17:42:41.26	139.18	9.42	-43.5	-43.8	11.8	0.00e+00	0	31	0	2323644416	54	14337
2026-01-06 17:42:42.26	139.13	9.52	-43.5	-43.8	11.8	0.00e+00	0	31	0	2399141888	54	14299
2026-01-06 17:42:43.25	139.09	9.62	-43.4	-43.7	11.9	0.00e+00	0	31	0	2474639360	54	14126
2026-01-06 17:42:44.24	139.04	9.72	-43.3	-43.6	11.8	0.00e+00	0	31	0	2550136832	53	14900
2026-01-06 17:42:45.22	139.00	9.82	-43.2	-43.5	11.8	0.00e+00	0	31	0	2625634304	53	14745
2026-01-06 17:42:46.21	138.95	9.92	-43.3	-43.6	11.7	0.00e+00	0	31	0	2701131776	53	14929
2026-01-06 17:42:47.20	138.91	10.03	-43.2	-43.5	11.8	6.90e-06	0	31	0	2768240640	53	14647
2026-01-06 17:42:48.19	138.86	10.13	-43.2	-43.5	11.8	0.00e+00	0	31	0	2843738112	53	14749
2026-01-06 17:42:49.17	138.82	10.23	-43.1	-43.4	11.9	0.00e+00	0	31	0	2919235584	53	14586
2026-01-06 17:42:50.16	138.77	10.33	-43.2	-43.5	11.8	0.00e+00	0	31	0	2994733056	53	14639
2026-01-06 17:42:51.15	138.72	10.44	-43.1	-43.4	11.9	0.00e+00	0	31	0	3070230528	53	14458
2026-01-06 17:42:52.15	138.68	10.55	-43.1	-43.4	11.9	0.00e+00	0	31	0	3137339392	53	14498
2026-01-06 17:42:53.14	138.63	10.65	-43.0	-43.3	11.9	0.00e+00	0	31	0	3212836864	53	14431
2026-01-06 17:42:54.14	138.58	10.76	-43.0	-43.3	12.0	0.00e+00	0	31	0	3288334336	53	14283
2026-01-06 17:42:55.12	138.53	10.87	-42.9	-43.2	12.0	0.00e+00	0	31	0	3363831808	53	14211
2026-01-06 17:42:56.11	138.48	10.97	-43.0	-43.3	12.0	0.00e+00	0	31	0	3439329280	53	14311
2026-01-06 17:42:57.10	138.43	11.08	-42.9	-43.2	12.0	0.00e+00	0	31	0	3514826752	53	14179
2026-01-06 17:42:58.09	138.38	11.19	-43.0	-43.3	12.0	0.00e+00	0	31	0	3590324224	53	14369
2026-01-06 17:42:59.08	138.33	11.30	-43.0	-43.3	12.0	0.00e+00	0	31	0	3665821696	53	14290
2026-01-06 17:43:00.08	138.28	11.41	-42.8	-43.1	11.9	0.00e+00	0	31	0	3741319168	52	14896
2026-01-06 17:43:01.07	138.23	11.52	-42.8	-43.1	12.0	0.00e+00	0	32	0	3808428032	52	14805
2026-01-06 17:43:02.06	138.17	11.63	-42.7	-43.0	12.0	0.00e+00	0	31	0	3883925504	52	14699
2026-01-06 17:43:03.05	138.12	11.75	-42.7	-43.0	12.0	0.00e+00	0	32	0	3959422976	52	14687
2026-01-06 17:43:04.05	138.07	11.86	-42.8	-43.1	12.0	0.00e+00	0	31	0	4034920448	52	14803
2026-01-06 17:43:05.04	138.01	11.97	-42.6	-42.9	12.1	0.00e+00	0	31	0	4110417920	52	14455
2026-01-06 17:43:06.03	137.96	12.09	-42.6	-43.0	12.0	0.00e+00	0	31	0	4185915392	52	14620
2026-01-06 17:43:07.03	137.90	12.20	-42.6	-42.9	12.1	0.00e+00	0	32	0	4261412864	52	14535
2026-01-06 17:43:08.03	137.85	12.32	-42.6	-42.9	12.1	0.00e+00	0	32	0	4336910336	52	14524
2026-01-06 17:43:09.03	137.79	12.44	-42.5	-42.8	12.1	0.00e+00	0	31	0	4412407808	52	14379
2026-01-06 17:43:10.02	137.73	12.56	-42.5	-42.8	12.1	0.00e+00	0	32	0	4487905280	52	14399
2026-01-06 17:43:11.03	137.68	12.68	-42.4	-42.7	12.2	0.00e+00	0	32	0	4555014144	52	14210
2026-01-06 17:43:12.02	137.62	12.79	-42.4	-42.7	12.0	0.00e+00	0	32	0	4630511616	51	15105
2026-01-06 17:43:13.01	137.56	12.91	-42.4	-42.6	12.1	0.00e+00	0	32	0	4706009088	51	14931
2026-01-06 17:43:14.01	137.50	13.03	-42.3	-42.6	12.1	0.00e+00	0	32	0	4781506560	51	14877
2026-01-06 17:43:15.01	137.44	13.16	-42.3	-42.6	12.1	0.00e+00	0	32	0	4857004032	51	14843
2026-01-06 17:43:16.01	137.38	13.28	-42.3	-42.6	12.1	0.00e+00	0	32	0	4932501504	51	14782
2026-01-06 17:43:16.99	137.32	13.40	-42.2	-42.5	12.2	0.00e+00	0	32	0	5007998976	51	14726
2026-01-06 17:43:17.99	137.26	13.52	-42.2	-42.5	12.2	0.00e+00	0	32	0	5083496448	51	14735
2026-01-06 17:43:18.99	137.19	13.65	-42.2	-42.5	12.2	0.00e+00	0	32	0	5158993920	51	14678
2026-01-06 17:43:19.99	137.13	13.78	-42.1	-42.4	12.2	0.00e+00	0	32	0	5226102784	51	14539
2026-01-06 17:43:20.98	137.07	13.90	-42.1	-42.4	12.2	0.00e+00	0	32	0	5301600256	51	14570
2026-01-06 17:43:21.98	137.00	14.03	-42.1	-42.4	12.2	0.00e+00	0	32	0	5377097728	51	14604
2026-01-06 17:43:22.97	136.94	14.16	-42.1	-42.3	12.3	0.00e+00	0	32	0	5452595200	51	14412
2026-01-06 17:43:23.98	136.87	14.29	-42.0	-42.3	12.3	0.00e+00	0	32	0	5528092672	51	14346
2026-01-06 17:43:24.97	136.80	14.41	-42.0	-42.3	12.3	0.00e+00	0	32	0	5603590144	51	14369
2026-01-06 17:43:25.95	136.74	14.54	-41.8	-42.1	12.3	0.00e+00	0	32	0	5679087616	50	14835
2026-01-06 17:43:26.95	136.67	14.67	-41.8	-42.1	12.2	0.00e+00	0	32	0	5754585088	50	14909
2026-01-06 17:43:27.95	136.60	14.81	-41.8	-42.1	12.2	0.00e+00	0	32	0	5830082560	50	14912
2026-01-06 17:43:28.94	136.53	14.94	-41.8	-42.1	12.3	0.00e+00	0	32	0	5897191424	50	14803
2026-01-06 17:43:29.95	136.46	15.08	-41.8	-42.1	12.2	0.00e+00	0	32	0	5972688896	50	14799
2026-01-06 17:43:30.94	136.39	15.21	-41.7	-41.9	12.3	0.00e+00	0	32	0	6048186368	50	14580
2026-01-06 17:43:31.94	136.31	15.35	-41.6	-41.9	12.3	0.00e+00	0	32	0	6123683840	50	14547
2026-01-06 17:43:32.94	136.24	15.48	-41.6	-41.9	12.3	0.00e+00	0	32	0	6199181312	50	14506
2026-01-06 17:43:33.94	136.17	15.62	-41.6	-41.9	12.4	0.00e+00	0	32	0	6274678784	50	14443
2026-01-06 17:43:34.93	136.09	15.76	-41.5	-41.8	12.4	0.00e+00	0	32	0	6350176256	50	14400
2026-01-06 17:43:35.92	136.02	15.90	-41.6	-41.9	12.4	0.00e+00	0	32	0	6425673728	50	14462
2026-01-06 17:43:36.92	135.94	16.04	-41.5	-41.8	12.4	0.00e+00	0	32	0	6501171200	50	14294
2026-01-06 17:43:37.91	135.86	16.18	-41.4	-41.7	12.5	0.00e+00	0	32	0	6576668672	50	14206
2026-01-06 17:43:38.90	135.79	16.32	-41.4	-41.7	12.4	0.00e+00	0	32	0	6652166144	50	14161
2026-01-06 17:43:39.90	135.71	16.47	-41.2	-41.5	12.4	0.00e+00	0	32	0	6727663616	49	14740
2026-01-06 17:43:40.89	135.63	16.61	-41.3	-41.6	12.4	0.00e+00	0	32	0	6794772480	49	14800
2026-01-06 17:43:41.89	135.55	16.76	-41.3	-41.6	12.4	0.00e+00	0	32	0	6870269952	49	14806
2026-01-06 17:43:42.89	135.46	16.91	-41.2	-41.5	12.4	0.00e+00	0	32	0	6945767424	49	14658
2026-01-06 17:43:43.89	135.38	17.05	-41.2	-41.5	12.4	0.00e+00	0	32	0	7021264896	49	14684
2026-01-06 17:43:44.89	135.30	17.20	-41.2	-41.5	12.4	0.00e+00	0	32	0	7096762368	49	14741
2026-01-06 17:43:45.88	135.21	17.35	-41.1	-41.4	12.5	0.00e+00	0	32	0	7172259840	49	14487
2026-01-06 17:43:46.87	135.13	17.50	-41.2	-41.5	12.5	0.00e+00	0	32	0	7247757312	49	14614
2026-01-06 17:43:47.86	135.04	17.66	-41.0	-41.3	12.5	0.00e+00	0	32	0	7323254784	49	14352
2026-01-06 17:43:48.58	134.98	17.77	-41.0	-41.3	12.5	0.00e+00	0	32	0	7398752256	49	14311
2026-01-06 17:43:49.87	134.86	17.97	-41.0	-41.3	12.5	0.00e+00	0	32	0	7491026944	49	14337
2026-01-06 17:43:50.59	134.79	18.08	-41.0	-41.3	12.5	0.00e+00	0	32	0	7549747200	49	14318
2026-01-06 17:43:51.87	134.68	18.28	-41.0	-41.3	12.6	0.00e+00	0	32	0	7642021888	49	14280
2026-01-06 17:43:52.59	134.61	18.40	-40.7	-41.0	12.5	0.00e+00	0	32	0	7700742144	48	14686
2026-01-06 17:43:53.87	134.49	18.60	-40.7	-40.9	12.6	0.00e+00	0	32	0	7793016832	48	14601
2026-01-06 17:43:54.58	134.42	18.72	-40.7	-40.9	12.5	0.00e+00	0	32	0	7851737088	48	14594
2026-01-06 17:43:55.87	134.30	18.93	-40.7	-40.9	12.5	0.00e+00	0	32	0	7944011776	48	14596
2026-01-06 17:43:56.58	134.23	19.04	-40.6	-40.9	12.6	0.00e+00	0	32	0	7994343424	48	14520
2026-01-06 17:43:57.86	134.10	19.25	-40.6	-40.9	12.6	0.00e+00	0	32	0	8095006720	48	14492
2026-01-06 17:43:58.58	134.03	19.37	-40.6	-40.8	12.6	0.00e+00	0	32	0	8145338368	48	14417
2026-01-06 17:43:59.87	133.90	19.59	-40.4	-40.7	12.6	0.00e+00	0	32	0	8237613056	48	14224
2026-01-06 17:44:00.59	133.83	19.71	-40.5	-40.7	12.7	0.00e+00	0	32	0	8296333312	48	14258
2026-01-06 17:44:01.89	133.69	19.94	-40.4	-40.7	12.7	0.00e+00	0	32	0	8396996608	48	14173
2026-01-06 17:44:02.60	133.62	20.06	-40.5	-40.7	12.7	0.00e+00	0	32	0	8447328256	48	14255
2026-01-06 17:44:03.90	133.48	20.28	-40.6	-40.9	12.6	0.00e+00	0	32	0	8547991552	48	14479
2026-01-06 17:44:04.63	133.40	20.41	-40.4	-40.7	12.6	0.00e+00	0	32	0	8598323200	48	14211
2026-01-06 17:44:05.90	133.26	20.64	-40.5	-40.8	12.6	0.00e+00	0	32	0	8698986496	48	14317
2026-01-06 17:44:06.65	133.17	20.77	-39.5	-39.8	12.5	0.00e+00	0	32	0	8749318144	46	14368
2026-01-06 17:44:07.93	133.03	21.00	-39.3	-39.6	12.5	0.00e+00	0	32	0	8849981440	45	14814
2026-01-06 17:44:08.64	132.95	21.13	-39.2	-39.5	12.5	0.00e+00	0	32	0	8900313088	45	14730
2026-01-06 17:44:09.94	132.80	21.36	-39.2	-39.5	12.5	0.00e+00	0	32	0	9000976384	45	14704
2026-01-06 17:44:10.65	132.71	21.49	-39.2	-39.5	12.5	0.00e+00	0	32	0	9051308032	45	14734
2026-01-06 17:44:11.96	132.56	21.74	-39.2	-39.4	12.6	0.00e+00	0	32	0	9151971328	45	14575
2026-01-06 17:44:12.68	132.47	21.87	-39.1	-39.4	12.6	0.00e+00	0	32	0	9202302976	45	14572
2026-01-06 17:44:13.97	132.31	22.12	-39.1	-39.4	12.6	0.00e+00	0	32	0	9302966272	45	14461
2026-01-06 17:44:14.70	132.22	22.26	-39.0	-39.2	12.7	0.00e+00	0	32	0	9353297920	45	14271
2026-01-06 17:44:15.99	132.06	22.50	-39.1	-39.4	12.6	0.00e+00	0	32	0	9453961216	45	14450
2026-01-06 17:44:16.70	131.97	22.64	-39.0	-39.2	12.7	0.00e+00	0	32	0	9504292864	45	14259
2026-01-06 17:44:17.99	131.80	22.89	-38.9	-39.2	12.7	0.00e+00	0	32	0	9604956160	45	14165
2026-01-06 17:44:18.70	131.71	23.03	-38.8	-39.1	12.6	0.00e+00	0	32	0	9655287808	44	14838
2026-01-06 17:44:19.98	131.54	23.29	-38.8	-39.1	12.6	0.00e+00	0	32	0	9747562496	44	14904
2026-01-06 17:44:20.69	131.44	23.43	-38.8	-39.1	12.6	0.00e+00	0	32	0	9806282752	44	14840
2026-01-06 17:44:21.98	131.26	23.69	-38.7	-39.0	12.6	0.00e+00	0	32	0	9898557440	44	14681
2026-01-06 17:44:22.69	131.16	23.84	-38.6	-38.9	12.7	0.00e+00	0	32	0	9957277696	44	14513
2026-01-06 17:44:23.98	130.98	24.10	-38.7	-38.9	12.7	0.00e+00	0	32	0	10049552384	44	14564
2026-01-06 17:44:24.70	130.88	24.25	-38.6	-38.9	12.7	0.00e+00	0	32	0	10108272640	44	14547
2026-01-06 17:44:25.99	130.69	24.52	-38.5	-38.8	12.7	0.00e+00	0	32	0	10200547328	44	14401
2026-01-06 17:44:26.71	130.58	24.67	-38.6	-38.9	12.7	0.00e+00	0	32	0	10259267584	44	14443
2026-01-06 17:44:28.01	130.38	24.95	-38.4	-38.7	12.8	0.00e+00	0	32	0	10351542272	44	14196
2026-01-06 17:44:28.71	130.28	25.10	-38.4	-38.7	12.8	0.00e+00	0	32	0	10401873920	44	14160
2026-01-06 17:44:30.02	130.07	25.39	-38.6	-38.9	12.7	0.00e+00	0	32	0	10502537216	44	14445
2026-01-06 17:44:30.73	129.96	25.54	-38.4	-38.7	12.8	0.00e+00	0	32	0	10561257472	44	14194
2026-01-06 17:44:32.06	129.75	25.84	-38.5	-38.7	12.8	0.00e+00	0	32	0	10653532160	44	14260
2026-01-06 17:44:32.77	129.63	26.00	-38.3	-38.6	12.7	0.00e+00	0	33	0	10712252416	43	14855
2026-01-06 17:44:34.06	129.42	26.29	-38.3	-38.6	12.7	0.00e+00	0	32	0	10804527104	43	14803
2026-01-06 17:44:34.77	129.30	26.45	-38.1	-38.3	12.8	0.00e+00	0	32	0	10854858752	43	14409
2026-01-06 17:44:36.08	129.07	26.75	-38.0	-38.3	12.8	0.00e+00	0	32	0	10963910656	43	14403
2026-01-06 17:44:36.80	128.95	26.92	-38.0	-38.3	12.8	0.00e+00	0	33	0	11014242304	43	14313
2026-01-06 17:44:38.07	128.72	27.21	-38.0	-38.2	12.8	0.00e+00	0	32	0	11106516992	43	14236
2026-01-06 17:44:38.80	128.59	27.39	-37.9	-38.1	12.9	0.00e+00	0	32	0	11165237248	43	14102
2026-01-06 17:44:40.08	128.36	27.69	-37.8	-38.0	12.8	0.00e+00	0	32	0	11257511936	42	14748
2026-01-06 17:44:40.79	128.23	27.86	-37.7	-37.9	12.8	0.00e+00	0	32	0	11316232192	42	14601
2026-01-06 17:44:42.10	127.98	28.18	-37.7	-38.0	12.8	0.00e+00	0	32	0	11408506880	42	14660
2026-01-06 17:44:42.80	127.84	28.35	-37.8	-38.0	12.8	0.00e+00	0	32	0	11458838528	42	14721
2026-01-06 17:44:44.11	127.59	28.68	-37.6	-37.9	12.8	0.00e+00	0	32	0	11559501824	42	14464
2026-01-06 17:44:44.82	127.45	28.85	-37.7	-37.9	12.8	0.00e+00	0	32	0	11609833472	42	14554
2026-01-06 17:44:46.11	127.18	29.18	-37.7	-38.0	12.8	0.00e+00	0	32	0	11710496768	42	14608
2026-01-06 17:44:46.83	127.04	29.36	-37.6	-37.8	12.9	0.00e+00	0	33	0	11760828416	42	14408
2026-01-06 17:44:48.11	126.77	29.69	-37.4	-37.7	12.9	0.00e+00	0	32	0	11861491712	42	14178
2026-01-06 17:44:48.84	126.61	29.88	-37.5	-37.7	12.9	0.00e+00	0	32	0	11920211968	42	14267
2026-01-06 17:44:50.12	126.33	30.21	-37.5	-37.7	12.9	0.00e+00	0	33	0	12012486656	42	14245
2026-01-06 17:44:50.86	126.17	30.41	-37.2	-37.5	12.8	0.00e+00	0	33	0	12062818304	41	14704
2026-01-06 17:44:52.14	125.88	30.75	-37.1	-37.4	12.9	0.00e+00	0	32	0	12163481600	41	14445
2026-01-06 17:44:52.86	125.72	30.94	-37.1	-37.4	12.9	0.00e+00	0	33	0	12213813248	41	14479
2026-01-06 17:44:54.14	125.42	31.29	-37.0	-37.3	12.9	0.00e+00	0	32	0	12314476544	41	14381
2026-01-06 17:44:54.86	125.25	31.48	-37.1	-37.4	12.9	0.00e+00	0	32	0	12364808192	41	14445
2026-01-06 17:44:56.15	124.93	31.84	-36.9	-37.2	13.0	0.00e+00	0	33	0	12465471488	41	14196
2026-01-06 17:44:56.88	124.75	32.04	-37.0	-37.3	13.0	0.00e+00	0	32	0	12524191744	41	14298
2026-01-06 17:44:58.16	124.43	32.40	-36.9	-37.2	13.0	0.00e+00	0	33	0	12616466432	41	14210
2026-01-06 17:44:58.88	124.25	32.61	-36.9	-37.2	13.0	0.00e+00	0	32	0	12666798080	41	14166
2026-01-06 17:45:00.16	123.91	32.97	-36.7	-36.9	12.9	0.00e+00	0	32	0	12767461376	40	14596
2026-01-06 17:45:00.88	123.72	33.18	-36.6	-36.9	12.9	0.00e+00	0	33	0	12817793024	40	14505
2026-01-06 17:45:02.17	123.37	33.56	-36.6	-36.9	13.0	0.00e+00	0	33	0	12910067712	40	14445
2026-01-06 17:45:02.89	123.17	33.77	-36.6	-36.9	12.9	0.00e+00	0	32	0	12968787968	40	14469
2026-01-06 17:45:04.17	122.81	34.15	-36.6	-36.8	13.0	0.00e+00	0	32	0	13061062656	40	14435
2026-01-06 17:45:04.89	122.60	34.36	-36.6	-36.8	13.0	0.00e+00	0	32	0	13119782912	40	14398
2026-01-06 17:45:06.18	122.22	34.75	-36.5	-36.7	13.0	0.00e+00	0	33	0	13212057600	40	14228
2026-01-06 17:45:06.89	122.01	34.97	-36.3	-36.6	12.9	0.00e+00	0	32	0	13270777856	39	14896
2026-01-06 17:45:08.18	121.61	35.36	-36.4	-36.6	12.9	0.00e+00	0	33	0	13363052544	39	14916
2026-01-06 17:45:08.89	121.39	35.58	-36.3	-36.5	13.0	0.00e+00	0	32	0	13421772800	39	14757
2026-01-06 17:45:10.17	120.98	35.98	-36.3	-36.5	13.0	0.00e+00	0	32	0	13514047488	39	14753
2026-01-06 17:45:10.89	120.75	36.21	-36.3	-36.5	13.0	0.00e+00	0	32	0	13572767744	39	14710
2026-01-06 17:45:12.18	120.32	36.61	-36.2	-36.4	13.0	0.00e+00	0	33	0	13665042432	39	14606
2026-01-06 17:45:12.91	120.07	36.85	-36.1	-36.3	13.0	0.00e+00	0	32	0	13723762688	39	14423
2026-01-06 17:45:14.19	119.63	37.26	-36.1	-36.3	13.0	0.00e+00	0	32	0	13816037376	39	14371
2026-01-06 17:45:14.91	119.38	37.49	-36.0	-36.2	13.1	0.00e+00	0	32	0	13866369024	39	14245
2026-01-06 17:45:16.19	118.92	37.91	-35.9	-36.2	13.1	0.00e+00	0	33	0	13967032320	39	14218
2026-01-06 17:45:16.92	118.65	38.15	-35.9	-36.2	13.1	0.00e+00	0	32	0	14017363968	39	14184
2026-01-06 17:45:18.21	118.16	38.58	-35.9	-36.2	13.1	0.00e+00	0	33	0	14118027264	39	14195
2026-01-06 17:45:18.93	117.88	38.82	-35.8	-36.0	13.0	0.00e+00	0	32	0	14176747520	38	14736
2026-01-06 17:45:20.22	117.37	39.25	-35.8	-36.1	13.0	0.00e+00	0	33	0	14269022208	38	14817
2026-01-06 17:45:20.93	117.09	39.49	-35.7	-36.0	13.0	0.00e+00	0	33	0	14327742464	38	14698
2026-01-06 17:45:22.22	116.56	39.93	-35.7	-35.9	13.0	0.00e+00	0	33	0	14420017152	38	14604
2026-01-06 17:45:22.94	116.26	40.17	-35.8	-36.0	13.0	0.00e+00	0	33	0	14470348800	38	14728
2026-01-06 17:45:24.23	115.70	40.62	-35.7	-36.0	13.0	0.00e+00	0	32	0	14571012096	38	14673
2026-01-06 17:45:24.95	115.38	40.87	-35.8	-36.1	13.0	0.00e+00	0	33	0	14621343744	38	14869
2026-01-06 17:45:26.23	114.81	41.31	-35.5	-35.8	13.1	0.00e+00	0	33	0	14722007040	38	14364
2026-01-06 17:45:26.95	114.48	41.57	-35.5	-35.8	13.1	0.00e+00	0	33	0	14772338688	38	14326
2026-01-06 17:45:28.24	113.87	42.02	-35.5	-35.8	13.1	0.00e+00	0	33	0	14873001984	38	14306
2026-01-06 17:45:28.95	113.53	42.27	-35.5	-35.8	13.1	0.00e+00	0	33	0	14923333632	38	14311
2026-01-06 17:45:30.24	112.89	42.73	-35.4	-35.7	13.1	0.00e+00	0	32	0	15023996928	38	14199
2026-01-06 17:45:30.95	112.53	42.98	-35.3	-35.5	13.0	0.00e+00	0	32	0	15074328576	37	14751
2026-01-06 17:45:32.23	111.87	43.44	-35.1	-35.4	13.1	0.00e+00	0	33	0	15174991872	37	14462
2026-01-06 17:45:32.97	111.48	43.70	-35.2	-35.4	13.1	0.00e+00	0	33	0	15225323520	37	14572
2026-01-06 17:45:34.25	110.79	44.17	-35.2	-35.4	13.1	0.00e+00	0	33	0	15317598208	37	14557
2026-01-06 17:45:34.97	110.39	44.43	-35.1	-35.3	13.0	0.00e+00	0	33	0	15376318464	37	14409
2026-01-06 17:45:36.26	109.66	44.89	-35.1	-35.4	13.1	0.00e+00	0	32	0	15468593152	37	14515
2026-01-06 17:45:36.98	109.24	45.15	-35.0	-35.2	13.1	0.00e+00	0	32	0	15527313408	37	14238
2026-01-06 17:45:38.27	108.47	45.62	-35.0	-35.2	13.1	0.00e+00	0	33	0	15619588096	37	14196
2026-01-06 17:45:38.98	108.04	45.88	-34.9	-35.2	13.2	0.00e+00	0	33	0	15669919744	37	14142
2026-01-06 17:45:40.27	107.23	46.35	-34.7	-35.0	13.1	0.00e+00	0	33	0	15770583040	36	14617
2026-01-06 17:45:40.99	106.77	46.61	-34.7	-34.9	13.1	0.00e+00	0	33	0	15829303296	36	14587
2026-01-06 17:45:42.27	105.93	47.07	-34.7	-35.0	13.1	0.00e+00	0	33	0	15921577984	36	14617
2026-01-06 17:45:42.99	105.45	47.33	-34.6	-34.9	13.1	0.00e+00	0	33	0	15980298240	36	14466
2026-01-06 17:45:44.28	104.56	47.80	-34.6	-34.9	13.1	0.00e+00	0	33	0	16072572928	36	14465
2026-01-06 17:45:45.00	104.06	48.06	-34.6	-34.8	13.1	0.00e+00	0	33	0	16131293184	36	14405
2026-01-06 17:45:46.29	103.13	48.52	-34.6	-34.8	13.1	0.00e+00	0	33	0	16223567872	36	14422
2026-01-06 17:45:47.01	102.59	48.77	-34.5	-34.8	13.1	0.00e+00	0	33	0	16273899520	36	14288
2026-01-06 17:45:48.28	101.63	49.23	-34.5	-34.8	13.2	0.00e+00	0	33	0	16374562816	36	14283
2026-01-06 17:45:49.02	101.06	49.49	-34.4	-34.7	13.2	0.00e+00	0	32	0	16424894464	36	14138
2026-01-06 17:45:50.30	100.05	49.93	-34.4	-34.7	13.2	0.00e+00	0	33	0	16525557760	36	14141
2026-01-06 17:45:51.04	99.44	50.19	-34.5	-34.8	13.1	0.00e+00	0	33	0	16584278016	36	14286
2026-01-06 17:45:52.32	98.38	50.63	-31.8	-32.0	13.0	0.00e+00	0	32	0	16676552704	30	14728
2026-01-06 17:45:53.08	97.73	50.89	-31.8	-32.0	13.0	0.00e+00	0	33	0	16735272960	30	14768
2026-01-06 17:45:54.38	96.60	51.33	-31.7	-31.9	13.0	0.00e+00	0	32	0	16827547648	30	14596
2026-01-06 17:45:55.09	95.96	51.56	-31.6	-31.9	13.1	0.00e+00	0	32	0	16886267904	30	14451
2026-01-06 17:45:56.39	94.78	51.99	-31.7	-31.9	13.1	0.00e+00	0	33	0	16978542592	30	14568
2026-01-06 17:45:57.11	94.10	52.22	-31.6	-31.9	13.1	0.00e+00	0	33	0	17037262848	30	14451
2026-01-06 17:45:58.40	92.87	52.62	-31.5	-31.8	13.1	0.00e+00	0	33	0	17129537536	30	14379
2026-01-06 17:45:59.12	92.17	52.85	-31.6	-31.9	13.0	0.00e+00	0	33	0	17188257792	30	14501
2026-01-06 17:46:00.41	90.88	53.24	-31.5	-31.8	13.1	0.00e+00	0	33	0	17280532480	30	14385
2026-01-06 17:46:01.12	90.16	53.45	-31.6	-31.9	13.1	0.00e+00	0	33	0	17339252736	30	14441
2026-01-06 17:46:02.41	88.82	53.82	-31.6	-31.8	13.1	0.00e+00	0	33	0	17431527424	30	14405
2026-01-06 17:46:03.12	88.07	54.02	-31.4	-31.7	13.1	0.00e+00	0	33	0	17481859072	30	14203
2026-01-06 17:46:04.43	86.65	54.38	-31.4	-31.7	13.1	0.00e+00	0	33	0	17582522368	30	14205
2026-01-06 17:46:05.15	85.85	54.57	-31.4	-31.7	13.1	0.00e+00	0	33	0	17641242624	30	14189
2026-01-06 17:46:06.44	84.40	54.89	-31.3	-31.6	13.1	0.00e+00	0	33	0	17733517312	29	14882
2026-01-06 17:46:07.16	83.58	55.07	-31.4	-31.6	13.0	0.00e+00	0	33	0	17792237568	29	14905
2026-01-06 17:46:08.46	82.07	55.38	-31.3	-31.5	13.1	0.00e+00	0	33	0	17884512256	29	14764
2026-01-06 17:46:09.17	81.23	55.53	-31.3	-31.5	13.0	0.00e+00	0	33	0	17934843904	29	14774
2026-01-06 17:46:10.46	79.68	55.81	-31.3	-31.5	13.0	0.00e+00	0	33	0	18035507200	29	14757
2026-01-06 17:46:11.18	78.80	55.95	-31.3	-31.5	13.1	0.00e+00	0	33	0	18085838848	29	14730
2026-01-06 17:46:12.46	77.21	56.20	-31.2	-31.5	13.1	0.00e+00	0	33	0	18186502144	29	14643
2026-01-06 17:46:13.21	76.27	56.33	-31.3	-31.6	13.0	0.00e+00	0	33	0	18245222400	29	14836
2026-01-06 17:46:14.49	74.64	56.54	-31.2	-31.4	13.1	0.00e+00	0	33	0	18337497088	29	14565
2026-01-06 17:46:15.21	73.72	56.65	-31.1	-31.4	13.1	0.00e+00	0	33	0	18396217344	29	14525
2026-01-06 17:46:16.50	72.04	56.82	-31.2	-31.4	13.1	0.00e+00	0	33	0	18488492032	29	14600
2026-01-06 17:46:17.21	71.11	56.91	-31.1	-31.4	13.1	0.00e+00	0	33	0	18538823680	29	14519
2026-01-06 17:46:18.49	69.41	57.05	-31.2	-31.4	13.1	0.00e+00	0	33	0	18639486976	29	14546
2026-01-06 17:46:19.22	68.44	57.12	-31.2	-31.5	13.0	0.00e+00	0	33	0	18689818624	29	14625
2026-01-06 17:46:20.51	66.71	57.22	-31.2	-31.4	13.1	0.00e+00	0	33	0	18790481920	29	14590
2026-01-06 17:46:21.23	65.74	57.27	-31.1	-31.4	13.1	0.00e+00	0	33	0	18849202176	29	14493
2026-01-06 17:46:22.52	63.99	57.33	-31.2	-31.4	13.1	0.00e+00	0	33	0	18941476864	29	14567
2026-01-06 17:46:23.23	63.02	57.36	-31.2	-31.4	13.1	0.00e+00	0	33	0	18991808512	29	14582
2026-01-06 17:46:24.53	61.25	57.38	-31.2	-31.4	13.1	0.00e+00	0	33	0	19092471808	29	14547
2026-01-06 17:46:25.24	60.28	57.39	-31.2	-31.4	13.0	0.00e+00	0	33	0	19142803456	29	14563
2026-01-06 17:46:26.52	58.54	57.37	-31.2	-31.5	13.1	0.00e+00	0	33	0	19243466752	29	14639
2026-01-06 17:46:27.25	57.54	57.35	-31.2	-31.5	13.1	0.00e+00	0	33	0	19293798400	29	14689
2026-01-06 17:46:28.54	55.79	57.30	-31.3	-31.5	13.0	0.00e+00	0	33	0	19394461696	29	14744
2026-01-06 17:46:29.25	54.83	57.26	-31.2	-31.5	13.0	0.00e+00	0	33	0	19444793344	29	14717
2026-01-06 17:46:30.54	53.09	57.17	-31.2	-31.5	13.0	0.00e+00	0	33	0	19545456640	29	14713
2026-01-06 17:46:31.25	52.14	57.11	-31.2	-31.5	13.0	0.00e+00	0	32	0	19595788288	29	14688
2026-01-06 17:46:32.53	50.44	56.98	-31.2	-31.5	13.0	0.00e+00	0	33	0	19696451584	29	14658
2026-01-06 17:46:33.25	49.49	56.90	-31.3	-31.6	13.0	0.00e+00	0	33	0	19746783232	29	14822
2026-01-06 17:46:34.54	47.81	56.73	-31.3	-31.5	13.0	0.00e+00	0	33	0	19847446528	29	14728
2026-01-06 17:46:35.25	46.89	56.63	-31.4	-31.6	13.0	0.00e+00	0	33	0	19897778176	29	14901
2026-01-06 17:46:36.53	45.25	56.43	-31.4	-31.7	13.0	0.00e+00	0	33	0	19990052864	29	15030
2026-01-06 17:46:37.26	44.33	56.31	-31.3	-31.6	13.0	0.00e+00	0	33	0	20048773120	29	14830
2026-01-06 17:46:38.53	42.74	56.08	-31.4	-31.6	13.0	0.00e+00	0	33	0	20141047808	29	14920
2026-01-06 17:46:39.28	41.82	55.93	-31.3	-31.6	13.0	0.00e+00	0	33	0	20199768064	29	14821
2026-01-06 17:46:40.56	40.27	55.67	-31.4	-31.6	13.0	0.00e+00	0	33	0	20292042752	29	14936
2026-01-06 17:46:41.28	39.41	55.51	-31.4	-31.6	13.0	0.00e+00	0	33	0	20342374400	29	14939
2026-01-06 17:46:42.57	37.89	55.22	-31.5	-31.8	13.0	0.00e+00	0	33	0	20443037696	29	15168
2026-01-06 17:46:43.28	37.07	55.05	-31.4	-31.7	13.0	0.00e+00	0	33	0	20501757952	29	14973
2026-01-06 17:46:44.57	35.60	54.73	-31.5	-31.8	13.0	0.00e+00	0	33	0	20594032640	29	15223
2026-01-06 17:46:45.28	34.81	54.55	-31.5	-31.8	13.0	0.00e+00	0	33	0	20652752896	29	15177
2026-01-06 17:46:46.58	33.39	54.20	-31.5	-31.8	13.0	0.00e+00	0	32	0	20745027584	29	15222
2026-01-06 17:46:47.31	32.61	54.00	-31.5	-31.8	13.0	0.00e+00	0	33	0	20795359232	29	15215
2026-01-06 17:46:48.58	31.27	53.64	-31.5	-31.7	13.0	0.00e+00	0	33	0	20896022528	29	15117
2026-01-06 17:46:49.31	30.52	53.43	-31.6	-31.8	13.0	0.00e+00	0	33	0	20946354176	29	15282
2026-01-06 17:46:50.59	29.23	53.05	-31.6	-31.9	13.0	0.00e+00	0	33	0	21047017472	29	15314
2026-01-06 17:46:51.34	28.49	52.82	-31.6	-31.8	13.0	0.00e+00	0	33	0	21105737728	29	15271
2026-01-06 17:46:52.63	27.24	52.42	-31.7	-32.0	12.9	0.00e+00	0	33	0	21198012416	29	15557
2026-01-06 17:46:53.35	26.56	52.19	-31.6	-31.9	12.9	0.00e+00	0	33	0	21256732672	29	15452
2026-01-06 17:46:54.63	25.37	51.78	-31.7	-32.0	13.0	0.00e+00	0	33	0	21349007360	29	15476
2026-01-06 17:46:55.34	24.73	51.54	-31.8	-32.0	12.9	0.00e+00	0	33	0	21407727616	29	15629
2026-01-06 17:46:56.64	23.58	51.11	-31.7	-32.0	12.9	0.00e+00	0	33	0	21500002304	29	15579
2026-01-06 17:46:57.36	22.96	50.87	-31.8	-32.1	12.9	0.00e+00	0	33	0	21550333952	29	15681
2026-01-06 17:46:58.64	21.88	50.43	-31.9	-32.1	12.9	0.00e+00	0	33	0	21650997248	29	15805
2026-01-06 17:46:59.36	21.29	50.19	-31.9	-32.1	12.9	0.00e+00	0	33	0	21701328896	29	15829
2026-01-06 17:47:00.65	20.25	49.74	-32.0	-32.3	12.9	0.00e+00	0	33	0	21801992192	29	16022
2026-01-06 17:47:01.36	19.69	49.49	-31.9	-32.2	12.9	0.00e+00	0	33	0	21852323840	29	15969
2026-01-06 17:47:02.65	18.70	49.04	-32.2	-32.4	12.9	0.00e+00	0	32	0	21952987136	30	15465
2026-01-06 17:47:03.37	18.16	48.78	-32.2	-32.5	12.9	0.00e+00	0	33	0	22003318784	30	15493
2026-01-06 17:47:04.65	17.22	48.32	-32.4	-32.6	12.9	0.00e+00	0	33	0	22103982080	30	15810
2026-01-06 17:47:05.38	16.70	48.06	-32.2	-32.5	12.9	0.00e+00	0	33	0	22154313728	30	15543
2026-01-06 17:47:06.67	15.80	47.60	-32.3	-32.5	12.9	0.00e+00	0	33	0	22254977024	30	15627
2026-01-06 17:47:07.39	15.31	47.34	-32.3	-32.6	12.9	0.00e+00	0	33	0	22305308672	30	15758
2026-01-06 17:47:08.68	14.45	46.88	-32.4	-32.7	12.8	0.00e+00	0	33	0	22405971968	30	15880
2026-01-06 17:47:09.41	13.98	46.61	-32.3	-32.6	12.9	0.00e+00	0	33	0	22456303616	30	15778
2026-01-06 17:47:10.70	13.16	46.14	-32.4	-32.6	12.9	0.00e+00	0	33	0	22556966912	30	15795
2026-01-06 17:47:11.42	12.72	45.88	-32.5	-32.8	12.8	0.00e+00	0	33	0	22607298560	30	16042
2026-01-06 17:47:12.71	11.94	45.42	-32.5	-32.8	12.9	0.00e+00	0	33	0	22707961856	30	16037
2026-01-06 17:47:13.43	11.51	45.16	-32.6	-32.9	12.8	0.00e+00	0	33	0	22758293504	30	16257
2026-01-06 17:47:14.73	10.77	44.69	-32.5	-32.8	12.8	0.00e+00	0	33	0	22858956800	30	16145
2026-01-06 17:47:15.44	10.37	44.43	-32.7	-32.9	12.9	0.00e+00	0	33	0	22909288448	31	15417
2026-01-06 17:47:16.74	9.65	43.96	-32.8	-33.0	12.9	0.00e+00	0	33	0	23009951744	31	15645
2026-01-06 17:47:17.45	9.27	43.71	-32.7	-33.0	12.9	0.00e+00	0	33	0	23060283392	31	15592
2026-01-06 17:47:18.74	8.60	43.25	-32.8	-33.1	12.8	0.00e+00	0	33	0	23160946688	31	15705
2026-01-06 17:47:19.45	8.23	43.00	-32.9	-33.2	12.9	0.00e+00	0	33	0	23211278336	31	15854
2026-01-06 17:47:20.74	7.59	42.54	-32.9	-33.2	12.8	0.00e+00	0	33	0	23311941632	31	15975
2026-01-06 17:47:21.45	7.24	42.29	-32.9	-33.2	12.8	0.00e+00	0	33	0	23362273280	31	15944
2026-01-06 17:47:22.74	6.63	41.83	-33.1	-33.3	12.8	0.00e+00	0	33	0	23462936576	31	16183
2026-01-06 17:47:23.45	6.30	41.59	-33.1	-33.3	12.8	0.00e+00	0	33	0	23513268224	31	16196
2026-01-06 17:47:24.75	5.70	41.13	-33.2	-33.4	12.8	0.00e+00	0	33	0	23605542912	32	15461
2026-01-06 17:47:25.46	5.39	40.89	-33.2	-33.5	12.8	0.00e+00	0	33	0	23664263168	32	15516
2026-01-06 17:47:26.76	4.82	40.44	-33.2	-33.5	12.8	0.00e+00	0	33	0	23756537856	32	15525
2026-01-06 17:47:27.48	4.51	40.19	-33.2	-33.5	12.8	0.00e+00	0	33	0	23815258112	32	15615
2026-01-06 17:47:28.76	3.98	39.76	-33.3	-33.6	12.8	0.00e+00	0	33	0	23907532800	32	15709
2026-01-06 17:47:29.47	3.69	39.52	-33.3	-33.6	12.8	0.00e+00	0	33	0	23957864448	32	15727
2026-01-06 17:47:30.76	3.18	39.08	-33.5	-33.7	12.8	0.00e+00	0	33	0	24058527744	32	15983
2026-01-06 17:47:31.47	2.90	38.84	-33.4	-33.7	12.8	0.00e+00	0	33	0	24108859392	32	15936
2026-01-06 17:47:32.77	2.40	38.41	-33.6	-33.8	12.7	0.00e+00	0	33	0	24209522688	32	16194
2026-01-06 17:47:33.49	2.13	38.18	-33.5	-33.8	12.8	0.00e+00	0	33	0	24268242944	33	15237
2026-01-06 17:47:34.78	1.66	37.75	-33.7	-34.0	12.8	0.00e+00	0	33	0	24360517632	33	15503
2026-01-06 17:47:35.49	1.41	37.52	-33.6	-33.9	12.8	0.00e+00	0	33	0	24419237888	33	15425
2026-01-06 17:47:36.79	0.95	37.11	-33.7	-34.0	12.8	0.00e+00	0	33	0	24511512576	33	15592
2026-01-06 17:47:37.50	0.71	36.88	-33.8	-34.1	12.8	0.00e+00	0	33	0	24561844224	33	15694
2026-01-06 17:47:38.83	0.26	36.46	-33.8	-34.1	12.7	0.00e+00	0	33	0	24662507520	33	15764
2026-01-06 17:47:39.54	0.03	36.23	-33.8	-34.1	12.7	0.00e+00	0	33	0	24721227776	33	15754
2026-01-06 17:47:40.85	359.61	35.82	-33.9	-34.2	12.7	0.00e+00	0	33	0	24813502464	33	15876
2026-01-06 17:47:41.57	359.38	35.60	-33.9	-34.2	12.7	0.00e+00	0	33	0	24872222720	33	15993
2026-01-06 17:47:42.86	358.98	35.21	-34.0	-34.2	12.7	0.00e+00	0	33	0	24964497408	33	15995
2026-01-06 17:47:43.58	358.76	34.99	-34.0	-34.3	12.7	0.00e+00	0	33	0	25014829056	33	16170
2026-01-06 17:47:44.86	358.38	34.60	-34.1	-34.4	12.7	0.00e+00	0	33	0	25115492352	33	16280
2026-01-06 17:47:45.58	358.17	34.39	-34.2	-34.5	12.7	0.00e+00	0	33	0	25165824000	34	15597
2026-01-06 17:47:46.86	357.81	34.01	-34.2	-34.5	12.7	0.00e+00	0	33	0	25266487296	34	15575
2026-01-06 17:47:47.59	357.60	33.79	-34.3	-34.6	12.7	0.00e+00	0	33	0	25325207552	34	15784
2026-01-06 17:47:48.88	357.25	33.41	-34.3	-34.6	12.7	0.00e+00	0	33	0	25417482240	34	15766
2026-01-06 17:47:49.59	357.06	33.21	-34.3	-34.6	12.7	0.00e+00	0	33	0	25476202496	34	15738
2026-01-06 17:47:50.88	356.72	32.84	-34.5	-34.7	12.6	0.00e+00	0	33	0	25568477184	34	16010
2026-01-06 17:47:51.60	356.53	32.63	-34.4	-34.7	12.7	0.00e+00	0	33	0	25618808832	34	15951
2026-01-06 17:47:52.89	356.20	32.27	-34.5	-34.8	12.6	0.00e+00	0	33	0	25719472128	34	16120
2026-01-06 17:47:53.61	356.02	32.07	-34.6	-34.9	12.6	0.00e+00	0	33	0	25769803776	34	16280
2026-01-06 17:47:54.90	355.71	31.71	-34.7	-34.9	12.7	0.00e+00	0	33	0	25870467072	35	15442
2026-01-06 17:47:55.61	355.54	31.52	-34.7	-35.0	12.6	0.00e+00	0	33	0	25920798720	35	15507
2026-01-06 17:47:56.90	355.23	31.17	-34.8	-35.1	12.6	0.00e+00	0	33	0	26021462016	35	15747
2026-01-06 17:47:57.62	355.07	30.98	-34.8	-35.1	12.6	0.00e+00	0	33	0	26071793664	35	15802
2026-01-06 17:47:58.90	354.78	30.63	-34.8	-35.1	12.6	0.00e+00	0	33	0	26172456960	35	15749
2026-01-06 17:47:59.65	354.61	30.44	-34.9	-35.1	12.6	0.00e+00	0	33	0	26222788608	35	15820
2026-01-06 17:48:00.93	354.33	30.10	-34.9	-35.2	12.6	0.00e+00	0	33	0	26323451904	35	15859
2026-01-06 17:48:01.66	354.17	29.91	-35.0	-35.3	12.6	0.00e+00	0	33	0	26373783552	35	16033
2026-01-06 17:48:02.94	353.90	29.58	-35.0	-35.3	12.6	0.00e+00	0	33	0	26474446848	35	16174
2026-01-06 17:48:03.67	353.75	29.40	-35.1	-35.3	12.6	0.00e+00	0	33	0	26524778496	35	16200
2026-01-06 17:48:04.94	353.49	29.08	-37.7	-37.9	12.8	0.00e+00	0	33	0	26625441792	41	15426
2026-01-06 17:48:05.66	353.35	28.90	-37.7	-37.9	12.8	0.00e+00	0	33	0	26675773440	41	15462
2026-01-06 17:48:06.96	353.09	28.57	-37.7	-38.0	12.7	0.00e+00	0	33	0	26776436736	41	15526
2026-01-06 17:48:07.68	352.95	28.40	-37.8	-38.1	12.7	0.00e+00	0	33	0	26826768384	41	15737
2026-01-06 17:48:08.95	352.71	28.09	-37.9	-38.2	12.7	0.00e+00	0	33	0	26927431680	41	15835
2026-01-06 17:48:09.69	352.57	27.91	-37.9	-38.2	12.7	0.00e+00	0	33	0	26977763328	41	15864
2026-01-06 17:48:10.98	352.33	27.60	-38.0	-38.2	12.7	0.00e+00	0	33	0	27070038016	41	15995
2026-01-06 17:48:11.69	352.20	27.43	-38.0	-38.3	12.7	0.00e+00	0	33	0	27128758272	41	16062
2026-01-06 17:48:12.97	351.97	27.13	-38.0	-38.3	12.7	0.00e+00	0	33	0	27221032960	41	16059
2026-01-06 17:48:13.69	351.85	26.97	-38.0	-38.3	12.7	0.00e+00	0	33	0	27279753216	41	16112
2026-01-06 17:48:14.98	351.63	26.67	-38.2	-38.4	12.7	0.00e+00	0	33	0	27372027904	42	15437
2026-01-06 17:48:15.69	351.50	26.51	-38.2	-38.5	12.7	0.00e+00	0	33	0	27430748160	42	15488
2026-01-06 17:48:16.97	351.29	26.22	-38.3	-38.6	12.7	0.00e+00	0	33	0	27523022848	42	15670
2026-01-06 17:48:17.70	351.17	26.05	-38.3	-38.6	12.7	0.00e+00	0	33	0	27581743104	42	15665
2026-01-06 17:48:18.97	350.97	25.77	-38.4	-38.7	12.6	0.00e+00	0	33	0	27674017792	42	15879
2026-01-06 17:48:19.70	350.85	25.61	-38.4	-38.7	12.7	0.00e+00	0	33	0	27732738048	42	15837
2026-01-06 17:48:20.98	350.65	25.33	-38.5	-38.8	12.6	0.00e+00	0	33	0	27825012736	42	16140
2026-01-06 17:48:21.70	350.54	25.18	-38.5	-38.8	12.6	0.00e+00	0	33	0	27883732992	42	16033
2026-01-06 17:48:22.99	350.34	24.90	-38.6	-38.9	12.6	0.00e+00	0	33	0	27976007680	42	16225
2026-01-06 17:48:23.70	350.23	24.75	-38.6	-38.9	12.6	0.00e+00	0	33	0	28026339328	42	16264
2026-01-06 17:48:24.99	350.04	24.48	-38.7	-39.0	12.6	0.00e+00	0	33	0	28127002624	43	15485
2026-01-06 17:48:25.70	349.94	24.33	-38.6	-38.9	12.6	0.00e+00	0	33	0	28177334272	43	15414
2026-01-06 17:48:27.00	349.76	24.06	-38.8	-39.0	12.6	0.00e+00	0	33	0	28277997568	43	15629
2026-01-06 17:48:27.71	349.66	23.92	-38.7	-39.0	12.6	0.00e+00	0	33	0	28328329216	43	15574
2026-01-06 17:48:28.99	349.48	23.66	-38.9	-39.2	12.6	0.00e+00	0	33	0	28428992512	43	15860
2026-01-06 17:48:29.72	349.38	23.51	-39.0	-39.3	12.5	0.00e+00	0	33	0	28479324160	43	16022
2026-01-06 17:48:31.01	349.20	23.25	-39.0	-39.3	12.5	0.00e+00	0	33	0	28579987456	43	16049
2026-01-06 17:48:31.72	349.11	23.11	-39.0	-39.3	12.5	0.00e+00	0	33	0	28630319104	43	16118
2026-01-06 17:48:33.00	348.94	22.86	-39.1	-39.4	12.6	0.00e+00	0	33	0	28730982400	44	15364
2026-01-06 17:48:33.72	348.85	22.72	-39.0	-39.3	12.6	0.00e+00	0	33	0	28781314048	44	15242
2026-01-06 17:48:35.00	348.69	22.47	-39.1	-39.4	12.6	0.00e+00	0	33	0	28873588736	44	15376
2026-01-06 17:48:35.73	348.60	22.33	-39.1	-39.4	12.6	0.00e+00	0	33	0	28932308992	44	15379
2026-01-06 17:48:37.01	348.44	22.09	-39.2	-39.5	12.5	0.00e+00	0	33	0	29024583680	44	15516
2026-01-06 17:48:37.75	348.35	21.95	-39.3	-39.5	12.5	0.00e+00	0	33	0	29083303936	44	15632
2026-01-06 17:48:39.03	348.19	21.71	-39.3	-39.5	12.5	0.00e+00	0	33	0	29175578624	44	15635
2026-01-06 17:48:39.77	348.11	21.58	-39.4	-39.7	12.4	0.00e+00	0	33	0	29234298880	44	15869
2026-01-06 17:48:41.05	347.96	21.34	-39.4	-39.7	12.5	0.00e+00	0	33	0	29334962176	44	15839
2026-01-06 17:48:41.77	347.87	21.21	-39.4	-39.7	12.5	0.00e+00	0	33	0	29385293824	44	15893
2026-01-06 17:48:43.05	347.73	20.98	-39.4	-39.7	12.4	0.00e+00	0	33	0	29477568512	44	15950
2026-01-06 17:48:43.77	347.65	20.85	-39.4	-39.7	12.4	0.00e+00	0	33	0	29536288768	44	15973
2026-01-06 17:48:45.05	347.51	20.63	-39.5	-39.8	12.4	0.00e+00	0	33	0	29628563456	44	16071
2026-01-06 17:48:45.77	347.43	20.50	-39.6	-39.9	12.4	0.00e+00	0	33	0	29687283712	44	16206
2026-01-06 17:48:47.05	347.29	20.28	-39.6	-39.9	12.4	0.00e+00	0	33	0	29779558400	44	16223
2026-01-06 17:48:47.76	347.22	20.15	-39.7	-40.0	12.4	0.00e+00	0	33	0	29829890048	45	15507
2026-01-06 17:48:49.04	347.08	19.93	-39.8	-40.1	12.4	0.00e+00	0	33	0	29930553344	45	15686
2026-01-06 17:48:49.78	347.00	19.81	-39.8	-40.0	12.4	0.00e+00	0	33	0	29989273600	45	15619
2026-01-06 17:48:51.06	346.87	19.59	-39.8	-40.0	12.4	0.00e+00	0	33	0	30081548288	45	15631
2026-01-06 17:48:51.79	346.80	19.47	-39.8	-40.1	12.4	0.00e+00	0	33	0	30140268544	45	15752
2026-01-06 17:48:53.08	346.67	19.26	-40.0	-40.3	12.3	0.00e+00	0	33	0	30232543232	45	16028
2026-01-06 17:48:53.79	346.60	19.14	-39.9	-40.2	12.4	0.00e+00	0	33	0	30291263488	45	15970
2026-01-06 17:48:55.09	346.48	18.93	-40.0	-40.3	12.3	0.00e+00	0	33	0	30383538176	45	16196
2026-01-06 17:48:55.80	346.41	18.81	-40.0	-40.3	12.3	0.00e+00	0	33	0	30433869824	45	16147
2026-01-06 17:48:57.09	346.29	18.61	-40.1	-40.4	12.3	0.00e+00	0	33	0	30534533120	45	16264
2026-01-06 17:48:57.80	346.22	18.49	-40.2	-40.5	12.3	0.00e+00	0	33	0	30584864768	46	15492
2026-01-06 17:48:59.08	346.10	18.29	-40.3	-40.6	12.3	0.00e+00	0	33	0	30685528064	46	15654
2026-01-06 17:48:59.81	346.04	18.17	-40.3	-40.6	12.3	0.00e+00	0	33	0	30735859712	46	15665
2026-01-06 17:49:01.10	345.92	17.97	-40.2	-40.5	12.3	0.00e+00	0	33	0	30836523008	46	15566
2026-01-06 17:49:01.83	345.86	17.86	-40.3	-40.6	12.3	0.00e+00	0	33	0	30886854656	46	15813
2026-01-06 17:49:03.11	345.74	17.66	-40.4	-40.7	12.3	0.00e+00	0	33	0	30987517952	46	15880
2026-01-06 17:49:03.84	345.68	17.55	-40.4	-40.6	12.3	0.00e+00	0	33	0	31037849600	46	15815
2026-01-06 17:49:05.12	345.57	17.36	-40.5	-40.8	12.2	0.00e+00	0	33	0	31138512896	46	16033
2026-01-06 17:49:05.84	345.51	17.25	-40.4	-40.7	12.2	0.00e+00	0	33	0	31188844544	46	15938
2026-01-06 17:49:07.13	345.40	17.06	-40.6	-40.8	12.2	0.00e+00	0	33	0	31281119232	46	16194
2026-01-06 17:49:07.85	345.34	16.95	-40.5	-40.8	12.2	0.00e+00	0	33	0	31339839488	46	16037
2026-01-06 17:49:09.13	345.24	16.77	-40.6	-40.9	12.2	0.00e+00	0	33	0	31440502784	47	15411
2026-01-06 17:49:09.85	345.18	16.66	-40.7	-41.0	12.2	0.00e+00	0	33	0	31490834432	47	15614
2026-01-06 17:49:11.14	345.08	16.47	-40.6	-40.9	12.2	0.00e+00	0	33	0	31591497728	47	15450
2026-01-06 17:49:11.87	345.02	16.37	-40.8	-41.1	12.2	0.00e+00	0	33	0	31641829376	47	15704
2026-01-06 17:49:13.16	344.92	16.19	-40.8	-41.1	12.2	0.00e+00	0	33	0	31742492672	47	15704
2026-01-06 17:49:13.87	344.87	16.08	-40.8	-41.1	12.2	0.00e+00	0	33	0	31792824320	47	15719
2026-01-06 17:49:15.17	344.77	15.90	-40.8	-41.1	12.2	0.00e+00	0	33	0	31885099008	47	15785
2026-01-06 17:49:15.89	344.72	15.80	-40.9	-41.2	12.1	0.00e+00	0	33	0	31943819264	47	15835
2026-01-06 17:49:17.17	344.62	15.62	-40.9	-41.2	12.1	0.00e+00	0	33	0	32036093952	47	15959
2026-01-06 17:49:17.90	344.57	15.52	-41.0	-41.2	12.1	0.00e+00	0	33	0	32094814208	47	16008
2026-01-06 17:49:19.17	344.48	15.35	-41.0	-41.3	12.1	0.00e+00	0	33	0	32187088896	47	16176
2026-01-06 17:49:19.89	344.42	15.25	-41.1	-41.4	12.1	0.00e+00	0	33	0	32245809152	47	16225
2026-01-06 17:49:21.17	344.33	15.08	-41.9	-42.2	12.2	0.00e+00	0	33	0	32338083840	49	15930
2026-01-06 17:49:21.91	344.28	14.98	-41.9	-42.2	12.2	0.00e+00	0	33	0	32396804096	49	15839
2026-01-06 17:49:23.19	344.19	14.81	-41.9	-42.2	12.2	0.00e+00	0	33	0	32489078784	49	15992
2026-01-06 17:49:23.91	344.14	14.72	-42.0	-42.3	12.1	0.00e+00	0	33	0	32547799040	49	16165
2026-01-06 17:49:25.19	344.06	14.55	-42.0	-42.3	12.2	0.00e+00	0	33	0	32640073728	50	15294
2026-01-06 17:49:25.90	344.01	14.46	-42.2	-42.5	12.2	0.00e+00	0	33	0	32698793984	50	15497
2026-01-06 17:49:27.19	343.92	14.29	-42.1	-42.4	12.2	0.00e+00	0	33	0	32791068672	50	15377
2026-01-06 17:49:27.92	343.88	14.20	-42.1	-42.4	12.2	0.00e+00	0	33	0	32841400320	50	15328
2026-01-06 17:49:29.20	343.79	14.03	-42.1	-42.4	12.2	0.00e+00	0	33	0	32942063616	50	15356
2026-01-06 17:49:29.93	343.75	13.94	-42.2	-42.5	12.2	0.00e+00	0	33	0	32992395264	50	15566
2026-01-06 17:49:31.22	343.66	13.78	-42.3	-42.6	12.1	0.00e+00	0	33	0	33093058560	50	15706
2026-01-06 17:49:31.93	343.62	13.69	-42.2	-42.5	12.2	0.00e+00	0	33	0	33151778816	50	15575
2026-01-06 17:49:33.24	343.54	13.53	-42.4	-42.7	12.1	0.00e+00	0	33	0	33244053504	50	15839
2026-01-06 17:49:33.96	343.50	13.44	-42.4	-42.7	12.1	0.00e+00	0	33	0	33302773760	50	15875
2026-01-06 17:49:35.24	343.42	13.28	-42.4	-42.7	12.1	0.00e+00	0	33	0	33395048448	50	15892
2026-01-06 17:49:35.96	343.37	13.19	-42.5	-42.8	12.1	0.00e+00	0	33	0	33445380096	50	16093
2026-01-06 17:49:37.25	343.30	13.04	-42.6	-42.9	12.0	0.00e+00	0	33	0	33546043392	50	16218
2026-01-06 17:49:37.96	343.26	12.95	-42.5	-42.9	12.0	0.00e+00	0	33	0	33596375040	50	16206
2026-01-06 17:49:39.25	343.18	12.80	-42.5	-42.8	12.1	0.00e+00	0	33	0	33697038336	51	15275
2026-01-06 17:49:39.98	343.14	12.71	-42.7	-43.0	12.1	0.00e+00	0	33	0	33747369984	51	15511
2026-01-06 17:49:41.26	343.07	12.56	-42.7	-43.0	12.0	0.00e+00	0	33	0	33848033280	51	15629
2026-01-06 17:49:41.98	343.03	12.47	-42.7	-43.0	12.0	0.00e+00	0	33	0	33898364928	51	15539
2026-01-06 17:49:43.26	342.95	12.32	-42.7	-43.0	12.0	0.00e+00	0	33	0	33999028224	51	15645
2026-01-06 17:49:43.98	342.91	12.24	-42.7	-43.0	12.0	0.00e+00	0	33	0	34049359872	51	15554
2026-01-06 17:49:45.26	342.84	12.09	-42.8	-43.1	12.0	0.00e+00	0	33	0	34150023168	51	15671
2026-01-06 17:49:46.01	342.80	12.01	-42.9	-43.2	11.9	0.00e+00	0	33	0	34200354816	51	15939
2026-01-06 17:49:47.29	342.73	11.86	-58.6	-61.9	3.6	0.00e+00	0	33	104	34284240896	82	22952
2026-01-06 17:49:48.01	342.70	11.78	-58.6	-61.9	3.7	0.00e+00	0	33	104	34284240896	82	22996
2026-01-06 17:49:49.30	342.63	11.64	-58.6	-61.9	3.7	0.00e+00	0	33	104	34284240896	83	21683
2026-01-06 17:49:50.02	342.59	11.55	-58.6	-61.9	3.6	0.00e+00	0	33	104	34284240896	83	21681
2026-01-06 17:49:51.31	342.52	11.41	-58.6	-61.9	3.6	0.00e+00	0	33	104	34284240896	83	21655
2026-01-06 17:49:52.04	342.49	11.33	-58.6	-61.8	3.7	0.00e+00	0	33	104	34284240896	83	21508
2026-01-06 17:49:53.32	342.42	11.19	-58.6	-61.8	3.7	0.00e+00	0	33	104	34284240896	83	21574
2026-01-06 17:49:54.04	342.39	11.11	-58.6	-61.8	3.7	0.00e+00	0	33	104	34284240896	83	21402
2026-01-06 17:49:55.33	342.32	10.97	-58.6	-61.8	3.7	0.00e+00	0	33	104	34284240896	83	21456
2026-01-06 17:49:56.06	342.29	10.89	-58.6	-61.8	3.7	0.00e+00	0	32	104	34284240896	83	21556
2026-01-06 17:49:57.34	342.23	10.75	-58.5	-61.8	3.7	0.00e+00	0	33	104	34284240896	83	21423
2026-01-06 17:49:58.07	342.19	10.68	-58.5	-61.8	3.7	0.00e+00	0	33	104	34284240896	83	21402
2026-01-06 17:49:59.36	342.13	10.54	-58.4	-61.8	3.7	0.00e+00	0	33	104	34284240896	83	21386
2026-01-06 17:50:00.07	342.10	10.46	-58.4	-61.8	3.7	0.00e+00	0	33	104	34284240896	83	21397
2026-01-06 17:50:01.37	342.03	10.33	-58.5	-61.7	3.6	0.00e+00	0	33	104	34284240896	83	21217
2026-01-06 17:50:02.08	342.00	10.25	-58.5	-61.7	3.7	0.00e+00	0	32	104	34284240896	83	21259
2026-01-06 17:50:03.40	341.94	10.12	-58.5	-61.7	3.6	0.00e+00	0	32	104	34284240896	83	21318
2026-01-06 17:50:04.11	341.91	10.04	-58.5	-61.8	3.7	0.00e+00	0	32	104	34284240896	83	21389
2026-01-06 17:50:05.40	341.85	9.91	-58.5	-61.7	3.7	0.00e+00	0	32	104	34284240896	83	21126
2026-01-06 17:50:06.11	341.82	9.84	-58.4	-61.6	3.6	0.00e+00	0	33	104	34284240896	83	21075
2026-01-06 17:50:07.41	341.76	9.71	-58.5	-61.7	3.6	0.00e+00	0	32	104	34284240896	83	21197
2026-01-06 17:50:08.12	341.73	9.63	-58.4	-61.7	3.7	0.00e+00	0	32	104	34284240896	83	21305
2026-01-06 17:50:09.44	341.67	9.50	-58.4	-61.6	3.6	0.00e+00	0	32	104	34284240896	83	21092
2026-01-06 17:50:10.16	341.64	9.43	-58.4	-61.7	3.7	0.00e+00	0	32	104	34284240896	83	21157
2026-01-06 17:50:11.46	341.59	9.30	-58.4	-61.7	3.7	0.00e+00	0	32	104	34284240896	83	21176
2026-01-06 17:50:12.18	341.56	9.23	-58.4	-61.7	3.6	0.00e+00	0	32	104	34284240896	83	21119
2026-01-06 17:50:13.47	341.50	9.10	-58.3	-61.6	3.7	0.00e+00	0	32	104	34284240896	83	20975
2026-01-06 17:50:14.18	341.48	9.03	-58.3	-61.6	3.7	0.00e+00	0	32	104	34284240896	83	20898
2026-01-06 17:50:15.48	341.42	8.91	-58.4	-61.6	3.7	0.00e+00	0	32	104	34284240896	83	20979
2026-01-06 17:50:16.19	341.39	8.84	-58.4	-61.6	3.6	0.00e+00	0	32	104	34284240896	83	21035
2026-01-06 17:50:17.49	341.34	8.71	-58.3	-61.6	3.7	0.00e+00	0	32	104	34284240896	83	20899
2026-01-06 17:50:18.20	341.31	8.64	-58.3	-61.5	3.6	0.00e+00	0	32	104	34284240896	83	20777
2026-01-06 17:50:19.51	341.26	8.52	-58.4	-61.5	3.6	0.00e+00	0	32	104	34284240896	83	20832
2026-01-06 17:50:20.22	341.23	8.45	-58.3	-61.6	3.6	0.00e+00	0	32	104	34284240896	83	20969
2026-01-06 17:50:21.51	341.18	8.33	-58.2	-61.4	3.7	0.00e+00	0	32	104	34284240896	83	20623
2026-01-06 17:50:22.23	341.16	8.26	-58.2	-61.4	3.6	0.00e+00	0	32	104	34284240896	83	20575
2026-01-06 17:50:23.51	341.11	8.14	-58.3	-61.5	3.7	0.00e+00	0	32	104	34284240896	83	20798
2026-01-06 17:50:24.24	341.08	8.07	-58.3	-61.5	3.7	0.00e+00	0	32	104	34284240896	83	20737
2026-01-06 17:50:25.53	341.03	7.95	-58.2	-61.4	3.7	0.00e+00	0	32	104	34284240896	83	20606
2026-01-06 17:50:26.25	341.00	7.89	-58.2	-61.4	3.7	0.00e+00	0	32	104	34284240896	83	20504
2026-01-06 17:50:27.55	340.96	7.77	-58.3	-61.5	3.7	0.00e+00	0	32	104	34284240896	83	20718
2026-01-06 17:50:28.26	340.93	7.70	-58.2	-61.5	3.6	0.00e+00	0	32	104	34284240896	83	20659
2026-01-06 17:50:29.55	340.88	7.58	-58.1	-61.4	3.7	0.00e+00	0	32	104	34284240896	83	20531
2026-01-06 17:50:30.27	340.86	7.52	-58.1	-61.4	3.6	0.00e+00	0	32	104	34284240896	83	20399
2026-01-06 17:50:31.55	340.81	7.40	-58.2	-61.4	3.7	0.00e+00	0	32	104	34284240896	83	20549
2026-01-06 17:50:32.27	340.79	7.34	-58.2	-61.4	3.7	0.00e+00	0	32	104	34284240896	83	20494
2026-01-06 17:50:33.56	340.74	7.22	-58.1	-61.3	3.7	0.00e+00	0	32	104	34284240896	83	20376
2026-01-06 17:50:34.28	340.72	7.16	-58.1	-61.3	3.7	0.00e+00	0	32	104	34284240896	83	20209
2026-01-06 17:50:35.57	340.67	7.04	-58.2	-61.4	3.7	0.00e+00	0	32	104	34284240896	83	20513
2026-01-06 17:50:36.28	340.65	6.98	-58.1	-61.4	3.7	0.00e+00	0	32	104	34284240896	83	20491
2026-01-06 17:50:37.58	340.61	6.87	-58.1	-61.3	3.7	0.00e+00	0	32	104	34284240896	83	20281
2026-01-06 17:50:38.30	340.58	6.81	-58.0	-61.3	3.6	0.00e+00	0	32	104	34284240896	83	20210
2026-01-06 17:50:39.58	340.54	6.69	-58.1	-61.4	3.7	0.00e+00	0	32	104	34284240896	83	20420
2026-01-06 17:50:40.31	340.51	6.63	-58.1	-61.3	3.6	0.00e+00	0	32	104	34284240896	83	20281
2026-01-06 17:50:41.60	340.47	6.52	-58.0	-61.3	3.7	0.00e+00	0	32	104	34284240896	83	20165
2026-01-06 17:50:42.32	340.45	6.46	-58.0	-61.2	3.6	0.00e+00	0	32	104	34284240896	83	19989
2026-01-06 17:50:43.60	340.41	6.35	-58.1	-61.3	3.7	0.00e+00	0	32	104	34284240896	83	20369
2026-01-06 17:50:44.31	340.39	6.29	-58.1	-61.3	3.7	0.00e+00	0	32	104	34284240896	83	20208
2026-01-06 17:50:45.61	340.35	6.18	-58.0	-61.2	3.6	0.00e+00	0	32	104	34284240896	83	20126
2026-01-06 17:50:46.32	340.32	6.12	-57.9	-61.2	3.6	0.00e+00	0	32	104	34284240896	83	20015
2026-01-06 17:50:47.61	340.28	6.01	-58.1	-61.3	3.7	0.00e+00	0	32	104	34284240896	83	20377
2026-01-06 17:50:48.32	340.26	5.95	-58.0	-61.2	3.6	0.00e+00	0	32	104	34284240896	83	20125
2026-01-06 17:50:49.61	340.22	5.84	-57.9	-61.1	3.6	0.00e+00	0	32	104	34284240896	83	19858
2026-01-06 17:50:50.32	340.20	5.78	-57.8	-61.1	3.7	0.00e+00	0	32	104	34284240896	82	20937
2026-01-06 17:50:51.61	340.16	5.68	-58.0	-61.2	3.7	0.00e+00	0	32	104	34284240896	82	21318
2026-01-06 17:50:52.32	340.14	5.62	-57.9	-61.2	3.7	0.00e+00	0	32	104	34284240896	82	21164
2026-01-06 17:50:53.61	340.10	5.51	-57.8	-61.0	3.7	0.00e+00	0	32	104	34284240896	82	20833
2026-01-06 17:50:54.33	340.08	5.45	-57.8	-61.0	3.6	0.00e+00	0	32	104	34284240896	82	20704
2026-01-06 17:50:55.62	340.04	5.35	-57.9	-61.2	3.6	0.00e+00	0	32	104	34284240896	82	21217
2026-01-06 17:50:56.33	340.02	5.29	-57.9	-61.1	3.6	0.00e+00	0	32	104	34284240896	82	20901
2026-01-06 17:50:57.62	339.99	5.19	-57.8	-61.0	3.7	0.00e+00	0	32	104	34284240896	82	20751
2026-01-06 17:50:58.34	339.97	5.13	-57.7	-60.9	3.6	0.00e+00	0	32	104	34284240896	82	20593
2026-01-06 17:50:59.64	339.93	5.03	-57.9	-61.1	3.7	0.00e+00	0	32	104	34284240896	82	21059
2026-01-06 17:51:00.35	339.91	4.97	-58.3	-61.5	3.7	0.00e+00	0	32	104	34284240896	82	22046
2026-01-06 17:51:01.64	339.87	4.87	-58.8	-62.0	3.6	0.00e+00	0	32	104	34284240896	83	21973
2026-01-06 17:51:02.37	339.85	4.81	-58.9	-62.2	3.7	0.00e+00	0	32	104	34284240896	83	22488
2026-01-06 17:51:03.65	339.82	4.71	-59.3	-62.6	3.7	0.00e+00	0	32	104	34284240896	84	22171
2026-01-06 17:51:04.37	339.80	4.65	-59.4	-62.7	3.7	0.00e+00	0	32	104	34284240896	84	22430
2026-01-06 17:51:05.65	339.77	4.55	-59.6	-62.8	3.7	0.00e+00	0	32	104	34284240896	84	22822
2026-01-06 17:51:06.36	339.75	4.50	-59.7	-62.9	3.7	0.00e+00	0	32	104	34284240896	85	21790
2026-01-06 17:51:07.66	339.71	4.40	-59.8	-63.0	3.6	0.00e+00	0	32	104	34284240896	85	22090
2026-01-06 17:51:08.37	339.69	4.34	-59.8	-63.1	3.7	0.00e+00	0	32	104	34284240896	85	22208
2026-01-06 17:51:09.67	339.66	4.24	-59.9	-63.1	3.6	0.00e+00	0	32	104	34284240896	85	22337
2026-01-06 17:51:10.38	339.64	4.19	-59.9	-63.2	3.6	0.00e+00	0	32	104	34284240896	85	22415
2026-01-06 17:51:11.66	339.61	4.09	-60.0	-63.2	3.7	0.00e+00	0	32	104	34284240896	85	22562
2026-01-06 17:51:12.39	339.59	4.03	-60.0	-63.3	3.7	0.00e+00	0	32	104	34284240896	85	22627
2026-01-06 17:51:13.67	339.56	3.94	-60.0	-63.3	3.7	0.00e+00	0	32	104	34284240896	85	22689
2026-01-06 17:51:14.42	339.54	3.88	-60.1	-63.3	3.7	0.00e+00	0	32	104	34284240896	85	22860
2026-01-06 17:51:15.69	339.51	3.78	-60.2	-63.4	3.6	0.00e+00	0	32	104	34284240896	86	21710
2026-01-06 17:51:16.41	339.49	3.73	-60.2	-63.4	3.7	0.00e+00	0	32	104	34284240896	86	21790
2026-01-06 17:51:17.68	339.46	3.63	-60.2	-63.4	3.6	0.00e+00	0	32	104	34284240896	86	21856
2026-01-06 17:51:18.42	339.44	3.58	-60.2	-63.4	3.7	0.00e+00	0	32	104	34284240896	86	21840
2026-01-06 17:51:19.70	339.41	3.48	-60.2	-63.5	3.7	0.00e+00	0	32	104	34284240896	86	21972
2026-01-06 17:51:20.42	339.39	3.43	-60.2	-63.5	3.7	0.00e+00	0	32	104	34284240896	86	21858
2026-01-06 17:51:21.71	339.36	3.34	-60.2	-63.4	3.6	0.00e+00	0	32	104	34284240896	86	21763
2026-01-06 17:51:22.42	339.35	3.28	-60.2	-63.5	3.7	0.00e+00	0	31	104	34284240896	86	21920
2026-01-06 17:51:23.72	339.32	3.19	-60.2	-63.4	3.6	0.00e+00	0	32	104	34284240896	86	21725
2026-01-06 17:51:24.45	339.30	3.14	-60.2	-63.4	3.6	0.00e+00	0	32	104	34284240896	86	21856
2026-01-06 17:51:25.73	339.27	3.04	-60.2	-63.4	3.7	0.00e+00	0	32	104	34284240896	86	21676
2026-01-06 17:51:26.45	339.25	2.99	-60.2	-63.4	3.6	0.00e+00	0	32	104	34284240896	86	21681
2026-01-06 17:51:27.74	339.22	2.90	-60.1	-63.4	3.7	0.00e+00	0	32	104	34284240896	86	21738
2026-01-06 17:51:28.45	339.21	2.85	-60.1	-63.3	3.6	0.00e+00	0	32	104	34284240896	86	21590
2026-01-06 17:51:29.74	339.18	2.75	-60.1	-63.4	3.7	0.00e+00	0	31	104	34284240896	86	21702
2026-01-06 17:51:30.46	339.16	2.70	-60.1	-63.3	3.6	0.00e+00	0	32	104	34284240896	86	21543
2026-01-06 17:51:31.75	339.13	2.61	-60.1	-63.3	3.7	0.00e+00	0	32	104	34284240896	86	21546
2026-01-06 17:51:32.46	339.12	2.56	-60.1	-63.3	3.7	0.00e+00	0	32	104	34284240896	86	21523
2026-01-06 17:51:33.77	339.09	2.47	-60.1	-63.3	3.7	0.00e+00	0	31	104	34284240896	86	21483
2026-01-06 17:51:34.47	339.08	2.42	-60.1	-63.4	3.6	0.00e+00	0	32	104	34284240896	86	21613
2026-01-06 17:51:35.79	339.05	2.32	-60.1	-63.3	3.6	0.00e+00	0	31	104	34284240896	86	21586
2026-01-06 17:51:36.50	339.03	2.27	-60.1	-63.3	3.7	0.00e+00	0	31	104	34284240896	86	21536
2026-01-06 17:51:37.84	339.00	2.18	-60.0	-63.3	3.7	0.00e+00	0	32	104	34284240896	86	21467
2026-01-06 17:51:38.55	338.99	2.13	-60.1	-63.3	3.6	0.00e+00	0	32	104	34284240896	86	21458
2026-01-06 17:51:39.86	338.96	2.04	-60.1	-63.3	3.7	0.00e+00	0	31	104	34284240896	86	21484
2026-01-06 17:51:40.57	338.95	1.99	-60.1	-63.3	3.7	0.00e+00	0	31	104	34284240896	86	21479

#Closed at: 2026-01-06 17:51:40
#Recorded file [34284 MB]: D:/lorett/data/31004_260106_204111.dat