passes_logs/2026/01/06/R3.2S_Murmansk/R3.2S_Murmansk__20260106_044449_AQUA_rec.log

#Pass ID: 20260106_044449_AQUA
#Satellite: AQUA
#Configuration: AQUA
#almurnet v.1.7.20251203
#Start time: 2026-01-06 04:44:51

#Version: 2.2.20231116
#Station: R3.2S_Murmansk
#Location: 33.079688 lon 68.888172 lat
#TLE: 1 27424U 02022A   26004.96787593  .00001598  00000+0  32997-3 0  9996
#TLE: 2 27424  98.4069 331.2279 0002002  90.2377   0.6092 14.61798176259425

#Time	Az	El	Level	Level2	SNR	BER	BlckErr	Temp	State	Recorded	gain1	gain2
2026-01-06 04:44:51.24	34.94	2.13	-57.1	-76.5	3.8	7.43e-01	0	24	0	0	83	32726
2026-01-06 04:44:52.24	34.88	2.19	-57.1	-76.5	3.8	7.45e-01	0	24	104	0	81	36524
2026-01-06 04:44:53.24	34.81	2.25	-57.1	-76.4	3.8	7.44e-01	0	24	104	0	81	36430
2026-01-06 04:44:54.25	34.75	2.32	-57.1	-76.4	3.8	7.42e-01	0	24	104	0	81	36405
2026-01-06 04:44:55.25	34.69	2.38	-57.1	-76.4	3.8	7.44e-01	0	24	104	0	81	36376
2026-01-06 04:44:56.25	34.63	2.44	-57.0	-76.4	3.8	7.45e-01	0	24	104	0	81	36353
2026-01-06 04:44:57.25	34.56	2.50	-57.1	-76.4	3.8	7.47e-01	0	24	104	0	81	36433
2026-01-06 04:44:58.25	34.50	2.56	-57.1	-76.4	3.8	7.48e-01	0	24	104	0	81	36461
2026-01-06 04:44:59.25	34.44	2.62	-57.1	-76.4	3.8	7.47e-01	0	24	104	0	81	36458
2026-01-06 04:45:00.25	34.37	2.69	-57.1	-76.4	3.8	7.45e-01	0	24	104	0	81	36393
2026-01-06 04:45:01.25	34.31	2.75	-57.1	-76.4	3.8	7.49e-01	0	24	104	0	81	36433
2026-01-06 04:45:02.24	34.24	2.81	-57.1	-76.4	3.8	7.47e-01	0	24	104	0	81	36357
2026-01-06 04:45:03.25	34.18	2.87	-57.1	-76.4	3.8	7.44e-01	0	24	104	0	81	36488
2026-01-06 04:45:04.24	34.11	2.93	-57.1	-76.4	3.8	7.45e-01	0	24	104	0	81	36439
2026-01-06 04:45:05.24	34.05	3.00	-57.1	-76.4	3.8	7.46e-01	0	24	104	0	81	36267
2026-01-06 04:45:06.23	33.98	3.06	-57.1	-76.4	3.8	7.47e-01	0	24	104	0	81	36464
2026-01-06 04:45:07.21	33.92	3.12	-57.1	-76.4	3.8	7.45e-01	0	24	104	0	81	36423
2026-01-06 04:45:08.21	33.85	3.18	-57.1	-76.4	3.8	7.50e-01	0	24	104	0	81	36512
2026-01-06 04:45:09.21	33.78	3.25	-57.1	-76.4	3.8	7.48e-01	0	24	104	0	81	36426
2026-01-06 04:45:10.20	33.72	3.31	-57.1	-76.4	3.8	7.47e-01	0	24	104	0	81	36269
2026-01-06 04:45:11.19	33.65	3.37	-57.1	-76.4	3.8	7.47e-01	0	24	104	0	81	36392
2026-01-06 04:45:12.19	33.58	3.43	-57.1	-76.4	3.8	7.46e-01	0	24	104	0	81	36253
2026-01-06 04:45:13.18	33.51	3.50	-57.1	-76.4	3.8	7.46e-01	0	24	104	0	81	36477
2026-01-06 04:45:14.18	33.45	3.56	-57.1	-76.4	3.8	7.44e-01	0	24	104	0	81	36300
2026-01-06 04:45:15.17	33.38	3.62	-57.1	-76.4	3.8	7.45e-01	0	25	104	0	81	36368
2026-01-06 04:45:16.18	33.31	3.69	-57.1	-76.4	3.8	7.47e-01	0	24	104	0	81	36486
2026-01-06 04:45:17.18	33.24	3.75	-57.1	-76.4	3.8	7.47e-01	0	25	104	0	81	36369
2026-01-06 04:45:18.18	33.17	3.82	-57.1	-76.4	3.8	7.44e-01	0	24	104	0	81	36355
2026-01-06 04:45:19.17	33.10	3.88	-57.1	-76.4	3.8	7.45e-01	0	24	104	0	81	36151
2026-01-06 04:45:20.17	33.03	3.94	-57.1	-76.3	3.8	7.46e-01	0	25	104	0	81	36073
2026-01-06 04:45:21.17	32.96	4.01	-57.1	-76.4	3.8	7.48e-01	0	25	104	0	81	36122
2026-01-06 04:45:22.16	32.89	4.07	-57.1	-76.4	3.8	7.47e-01	0	25	104	0	81	36441
2026-01-06 04:45:23.16	32.81	4.14	-57.1	-76.5	3.8	7.46e-01	0	25	104	0	81	36531
2026-01-06 04:45:24.16	32.74	4.20	-57.1	-76.5	3.8	7.48e-01	0	25	104	0	81	36559
2026-01-06 04:45:25.17	32.67	4.27	-57.1	-76.4	3.8	7.48e-01	0	25	104	0	81	36227
2026-01-06 04:45:26.17	32.60	4.33	-57.0	-76.2	3.8	7.47e-01	0	25	104	0	81	35523
2026-01-06 04:45:27.16	32.52	4.40	-57.0	-75.9	3.8	7.47e-01	0	25	104	0	81	34233
2026-01-06 04:45:28.15	32.45	4.46	-56.9	-75.3	3.8	7.45e-01	0	25	104	0	81	32152
2026-01-06 04:45:29.16	32.37	4.53	-56.8	-74.8	3.8	7.46e-01	0	25	104	0	81	30326
2026-01-06 04:45:30.16	32.30	4.60	-56.7	-74.1	3.8	7.44e-01	0	25	104	0	81	27733
2026-01-06 04:45:31.16	32.23	4.66	-56.6	-73.5	3.8	7.47e-01	0	25	104	0	81	26012
2026-01-06 04:45:32.16	32.15	4.73	-56.4	-72.6	3.8	7.44e-01	0	25	104	0	81	23343
2026-01-06 04:45:33.16	32.07	4.79	-56.2	-71.9	3.8	7.47e-01	0	25	104	0	81	21702
2026-01-06 04:45:34.16	32.00	4.86	-55.9	-71.1	3.8	7.48e-01	0	25	104	0	81	19648
2026-01-06 04:45:35.16	31.92	4.93	-55.9	-71.0	3.8	7.44e-01	0	25	104	0	81	19608
2026-01-06 04:45:36.15	31.85	4.99	-55.7	-70.4	3.8	7.46e-01	0	25	104	0	80	19370
2026-01-06 04:45:37.16	31.77	5.06	-55.6	-70.1	3.8	7.45e-01	0	25	104	0	80	18656
2026-01-06 04:45:38.15	31.69	5.13	-55.8	-70.5	3.8	7.48e-01	0	25	104	0	80	19497
2026-01-06 04:45:39.15	31.61	5.19	-56.2	-71.8	3.8	7.43e-01	0	25	104	0	80	22593
2026-01-06 04:45:40.15	31.54	5.26	-56.1	-71.6	3.8	7.48e-01	0	25	104	0	80	22154
2026-01-06 04:45:41.14	31.46	5.33	-53.2	-65.6	3.8	7.46e-01	0	25	104	0	74	15729
2026-01-06 04:45:42.15	31.38	5.39	-56.8	-75.6	3.8	7.46e-01	0	25	104	0	81	33038
2026-01-06 04:45:43.14	31.30	5.46	-53.0	-65.4	3.8	7.44e-01	0	25	104	0	75	14403
2026-01-06 04:45:44.14	31.22	5.53	-52.8	-65.0	3.8	7.47e-01	0	25	104	0	74	14559
2026-01-06 04:45:45.15	31.14	5.60	-52.7	-64.9	3.8	7.49e-01	0	25	104	0	74	14450
2026-01-06 04:45:46.15	31.06	5.66	-57.1	-73.8	3.8	7.44e-01	0	25	104	0	82	25472
2026-01-06 04:45:47.14	30.98	5.73	-53.5	-66.0	3.8	7.46e-01	0	25	104	0	76	14592
2026-01-06 04:45:48.14	30.89	5.80	-57.0	-75.4	3.8	7.47e-01	0	25	104	0	81	32331
2026-01-06 04:45:49.14	30.81	5.87	-56.3	-71.5	3.9	7.44e-01	0	25	104	0	81	20752
2026-01-06 04:45:50.14	30.73	5.94	-53.7	-66.4	3.8	7.44e-01	0	25	104	0	75	16295
2026-01-06 04:45:51.14	30.65	6.01	-52.9	-65.1	3.8	7.47e-01	0	25	104	0	75	14008
2026-01-06 04:45:52.13	30.56	6.07	-52.4	-64.5	3.8	7.45e-01	0	25	104	0	74	13793
2026-01-06 04:45:53.13	30.48	6.14	-51.8	-63.7	3.8	7.47e-01	0	25	104	0	72	14067
2026-01-06 04:45:54.14	30.39	6.21	-52.0	-63.9	3.8	7.46e-01	0	25	104	0	72	14419
2026-01-06 04:45:55.13	30.31	6.28	-53.3	-65.7	3.8	7.46e-01	0	25	104	0	74	15882
2026-01-06 04:45:56.14	30.22	6.35	-57.2	-75.5	3.8	7.43e-01	0	25	104	0	82	30794
2026-01-06 04:45:57.13	30.14	6.42	-56.5	-71.9	3.9	7.45e-01	0	25	104	0	81	21559
2026-01-06 04:45:58.13	30.05	6.49	-53.6	-66.3	3.8	7.46e-01	0	25	104	0	75	15990
2026-01-06 04:45:59.13	29.96	6.56	-52.9	-65.1	3.8	7.44e-01	0	25	104	0	74	14856
2026-01-06 04:46:00.13	29.88	6.63	-52.7	-64.9	3.8	7.46e-01	0	25	104	0	74	14455
2026-01-06 04:46:01.14	29.79	6.70	-52.5	-64.7	3.8	7.45e-01	0	25	104	0	74	14048
2026-01-06 04:46:02.13	29.70	6.77	-53.0	-65.2	3.9	7.45e-01	0	25	104	0	74	14920
2026-01-06 04:46:03.12	29.61	6.84	-52.9	-65.1	3.9	7.45e-01	0	25	104	0	74	14829
2026-01-06 04:46:04.12	29.52	6.91	-57.4	-75.9	3.8	7.46e-01	0	25	104	0	82	32348
2026-01-06 04:46:05.12	29.43	6.98	-56.8	-72.5	3.8	7.43e-01	0	25	104	0	81	23135
2026-01-06 04:46:06.13	29.34	7.05	-53.5	-66.0	3.8	7.51e-01	0	25	104	0	74	16369
2026-01-06 04:46:07.13	29.25	7.12	-52.5	-64.6	3.8	7.45e-01	0	25	104	0	74	13974
2026-01-06 04:46:08.13	29.16	7.19	-52.7	-64.9	3.9	7.45e-01	0	25	104	0	74	14439
2026-01-06 04:46:09.12	29.07	7.27	-52.5	-64.5	3.8	7.47e-01	0	25	104	0	74	13848
2026-01-06 04:46:10.12	28.98	7.34	-52.1	-64.0	3.8	7.46e-01	0	25	104	0	73	13798
2026-01-06 04:46:11.12	28.89	7.41	-52.9	-65.1	3.8	7.47e-01	0	25	104	0	73	15751
2026-01-06 04:46:12.12	28.79	7.48	-57.4	-75.8	3.8	7.45e-01	0	25	104	0	82	32167
2026-01-06 04:46:13.11	28.70	7.55	-56.8	-72.5	3.8	7.44e-01	0	25	104	0	81	23186
2026-01-06 04:46:14.11	28.61	7.62	-53.3	-65.7	3.8	7.43e-01	0	25	104	0	74	15852
2026-01-06 04:46:15.11	28.51	7.70	-52.5	-64.6	3.8	7.49e-01	0	25	104	0	74	13953
2026-01-06 04:46:16.11	28.42	7.77	-52.0	-63.8	3.8	7.47e-01	0	25	104	0	73	13569
2026-01-06 04:46:17.10	28.32	7.84	-51.5	-63.2	3.8	7.46e-01	0	25	104	0	72	13363
2026-01-06 04:46:18.10	28.22	7.91	-52.2	-64.1	3.8	7.44e-01	0	25	104	0	72	14803
2026-01-06 04:46:19.10	28.13	7.99	-52.7	-64.8	3.8	7.43e-01	0	25	104	0	73	15097
2026-01-06 04:46:20.10	28.03	8.06	-57.5	-75.8	3.8	7.44e-01	0	25	104	0	82	31966
2026-01-06 04:46:21.10	27.93	8.13	-56.8	-72.4	3.8	7.44e-01	0	26	104	0	81	22799
2026-01-06 04:46:22.09	27.83	8.20	-52.9	-65.1	3.8	7.43e-01	0	25	104	0	73	15660
2026-01-06 04:46:23.09	27.74	8.28	-52.2	-64.2	3.9	7.45e-01	0	25	104	0	73	14113
2026-01-06 04:46:24.08	27.64	8.35	-51.5	-63.3	3.9	7.43e-01	0	25	104	0	72	13442
2026-01-06 04:46:25.07	27.54	8.42	-51.1	-62.8	3.8	7.50e-01	0	25	104	0	71	13499
2026-01-06 04:46:26.07	27.44	8.50	-51.6	-63.4	3.8	7.44e-01	0	25	104	0	71	14485
2026-01-06 04:46:27.08	27.33	8.57	-52.5	-64.6	3.9	7.44e-01	0	25	104	0	72	15649
2026-01-06 04:46:28.07	27.23	8.65	-57.6	-75.9	3.8	7.44e-01	0	26	104	0	82	32401
2026-01-06 04:46:29.06	27.13	8.72	-56.9	-72.6	3.8	7.47e-01	0	25	104	0	81	23495
2026-01-06 04:46:30.06	27.03	8.80	-52.5	-64.6	3.8	7.44e-01	0	25	104	0	72	15623
2026-01-06 04:46:31.07	26.92	8.87	-51.8	-63.7	3.8	7.44e-01	0	25	104	0	72	14047
2026-01-06 04:46:32.06	26.82	8.95	-51.5	-63.2	3.9	7.44e-01	0	25	104	0	72	13300
2026-01-06 04:46:33.06	26.72	9.02	-50.9	-62.4	3.8	7.46e-01	0	25	104	0	71	12954
2026-01-06 04:46:34.05	26.61	9.10	-51.9	-63.7	3.9	7.44e-01	0	25	104	0	71	15044
2026-01-06 04:46:35.05	26.50	9.17	-52.5	-64.4	3.8	7.46e-01	0	25	104	0	72	15399
2026-01-06 04:46:36.04	26.40	9.25	-57.7	-75.9	3.9	7.48e-01	0	25	104	0	83	30462
2026-01-06 04:46:37.03	26.29	9.32	-57.0	-72.5	3.8	7.47e-01	0	25	104	0	81	23222
2026-01-06 04:46:38.03	26.18	9.40	-52.5	-64.5	3.8	7.44e-01	0	25	104	0	72	15442
2026-01-06 04:46:39.03	26.08	9.47	-51.8	-63.6	3.9	7.45e-01	0	25	104	0	72	13941
2026-01-06 04:46:40.03	25.97	9.55	-51.4	-63.0	3.8	7.47e-01	0	25	104	0	72	13071
2026-01-06 04:46:41.03	25.86	9.63	-50.8	-62.4	3.8	7.45e-01	0	26	104	0	70	13585
2026-01-06 04:46:42.03	25.75	9.70	-51.5	-63.3	3.9	7.46e-01	0	26	104	0	70	15110
2026-01-06 04:46:43.02	25.64	9.78	-52.5	-64.4	3.9	7.45e-01	0	25	104	0	72	15398
2026-01-06 04:46:44.03	25.52	9.86	-57.7	-75.6	3.7	7.45e-01	0	25	104	0	83	29516
2026-01-06 04:46:45.03	25.41	9.93	-57.1	-72.7	3.8	7.47e-01	0	26	104	0	81	23638
2026-01-06 04:46:46.03	25.30	10.01	-52.1	-64.0	3.9	7.44e-01	0	25	104	0	72	14599
2026-01-06 04:46:47.03	25.18	10.09	-51.7	-63.4	3.8	7.45e-01	0	26	104	0	72	13725
2026-01-06 04:46:48.03	25.07	10.17	-51.6	-63.3	3.8	7.49e-01	0	25	104	0	72	13470
2026-01-06 04:46:49.03	24.95	10.24	-51.5	-63.2	3.9	7.47e-01	0	26	104	0	72	13408
2026-01-06 04:46:50.03	24.84	10.32	-52.6	-64.6	3.8	7.47e-01	0	25	104	0	72	15653
2026-01-06 04:46:51.02	24.72	10.40	-52.4	-64.4	3.9	7.44e-01	0	26	104	0	72	15282
2026-01-06 04:46:52.02	24.60	10.48	-57.7	-75.6	3.9	7.48e-01	0	25	104	0	83	29649
2026-01-06 04:46:53.02	24.49	10.56	-57.1	-72.8	3.8	7.50e-01	0	26	104	0	81	23974
2026-01-06 04:46:54.02	24.37	10.63	-52.1	-64.0	3.8	7.46e-01	0	25	104	0	72	14543
2026-01-06 04:46:55.02	24.25	10.71	-51.6	-63.2	3.9	7.47e-01	0	26	104	0	72	13401
2026-01-06 04:46:56.02	24.13	10.79	-51.6	-63.3	3.8	7.44e-01	0	26	104	0	72	13467
2026-01-06 04:46:57.03	24.01	10.87	-51.4	-63.1	3.8	7.46e-01	0	26	104	0	72	13192
2026-01-06 04:46:58.02	23.89	10.95	-53.0	-65.1	3.9	7.42e-01	0	26	104	0	73	15687
2026-01-06 04:46:59.02	23.76	11.03	-52.4	-64.3	3.9	7.46e-01	0	26	104	0	73	14243
2026-01-06 04:47:00.02	23.64	11.11	-57.8	-75.5	3.8	7.49e-01	0	26	104	0	83	29314
2026-01-06 04:47:01.02	23.52	11.19	-57.3	-73.0	3.8	7.47e-01	0	26	104	0	82	23177
2026-01-06 04:47:02.02	23.39	11.27	-52.0	-63.8	3.9	7.50e-01	0	26	104	0	72	14271
2026-01-06 04:47:03.01	23.27	11.35	-51.5	-63.2	3.9	7.45e-01	0	26	104	0	72	13271
2026-01-06 04:47:04.01	23.14	11.43	-51.4	-63.0	3.9	7.47e-01	0	26	104	0	71	13780
2026-01-06 04:47:05.01	23.01	11.51	-51.1	-62.7	3.9	7.43e-01	0	26	104	0	71	13276
2026-01-06 04:47:06.01	22.89	11.59	-50.5	-62.0	3.9	7.45e-01	0	26	104	0	70	13042
2026-01-06 04:47:07.02	22.76	11.67	-52.2	-64.0	3.9	7.46e-01	0	26	104	0	72	14684
2026-01-06 04:47:08.01	22.63	11.75	-57.8	-75.4	3.8	7.50e-01	0	26	104	0	83	28867
2026-01-06 04:47:09.02	22.50	11.83	-57.3	-73.2	3.8	7.45e-01	0	26	104	0	82	23619
2026-01-06 04:47:10.02	22.37	11.91	-51.7	-63.5	3.8	7.48e-01	0	26	104	0	71	14588
2026-01-06 04:47:11.01	22.24	11.99	-51.3	-62.9	3.9	7.45e-01	0	26	104	0	71	13702
2026-01-06 04:47:12.01	22.11	12.08	-51.1	-62.6	3.9	7.45e-01	0	26	104	0	71	13257
2026-01-06 04:47:13.01	21.97	12.16	-51.1	-62.6	3.9	7.45e-01	0	26	104	0	71	13242
2026-01-06 04:47:14.01	21.84	12.24	-52.5	-64.4	3.9	7.47e-01	0	26	104	0	72	15336
2026-01-06 04:47:15.01	21.70	12.32	-51.9	-63.7	3.8	7.44e-01	0	26	104	0	72	14118
2026-01-06 04:47:16.01	21.57	12.40	-57.8	-75.3	3.8	7.50e-01	0	26	104	0	83	28454
2026-01-06 04:47:17.00	21.43	12.48	-57.4	-73.2	3.8	7.49e-01	0	26	104	0	82	23675
2026-01-06 04:47:18.00	21.30	12.57	-51.4	-63.0	3.8	7.44e-01	0	26	104	0	70	14662
2026-01-06 04:47:18.99	21.16	12.65	-51.0	-62.6	3.9	7.42e-01	0	26	104	0	70	13970
2026-01-06 04:47:19.98	21.02	12.73	-50.8	-62.2	3.9	7.48e-01	0	26	104	0	70	13383
2026-01-06 04:47:20.98	20.88	12.81	-50.2	-61.6	3.9	7.48e-01	0	26	104	0	69	13191
2026-01-06 04:47:21.97	20.74	12.90	-50.6	-62.1	3.8	7.46e-01	0	26	104	0	69	13970
2026-01-06 04:47:22.97	20.60	12.98	-51.9	-63.7	3.9	7.43e-01	0	26	104	0	71	15016
2026-01-06 04:47:23.96	20.46	13.06	-57.8	-74.9	3.8	7.49e-01	0	26	104	0	83	27093
2026-01-06 04:47:24.96	20.32	13.14	-57.4	-73.0	3.8	7.42e-01	0	26	104	0	82	23221
2026-01-06 04:47:25.96	20.17	13.23	-51.3	-62.8	3.9	7.41e-01	0	26	104	0	71	13568
2026-01-06 04:47:26.95	20.03	13.31	-51.0	-62.5	3.8	7.45e-01	0	26	104	0	71	13078
2026-01-06 04:47:27.95	19.88	13.40	-50.6	-62.1	3.9	7.43e-01	0	26	104	0	70	13202
2026-01-06 04:47:28.95	19.73	13.48	-50.0	-61.4	3.9	7.47e-01	0	26	104	0	69	12867
2026-01-06 04:47:29.95	19.59	13.56	-50.3	-61.7	3.9	7.48e-01	0	26	104	0	69	13372
2026-01-06 04:47:30.95	19.44	13.65	-52.0	-63.7	3.9	7.45e-01	0	26	104	0	71	15033
2026-01-06 04:47:31.94	19.29	13.73	-57.8	-74.9	3.8	7.48e-01	0	26	104	0	83	27250
2026-01-06 04:47:32.94	19.14	13.82	-57.4	-73.1	3.8	7.46e-01	0	26	104	0	82	23407
2026-01-06 04:47:33.93	18.99	13.90	-51.2	-62.8	3.8	7.44e-01	0	26	104	0	71	13494
2026-01-06 04:47:34.92	18.84	13.98	-50.8	-62.3	3.9	7.49e-01	0	25	104	0	70	13544
2026-01-06 04:47:35.93	18.68	14.07	-50.8	-62.2	3.9	7.46e-01	0	26	104	0	70	13378
2026-01-06 04:47:36.94	18.53	14.16	-50.5	-61.9	3.9	7.47e-01	0	26	104	0	70	12903
2026-01-06 04:47:37.94	18.37	14.24	-51.0	-62.6	3.8	7.46e-01	0	26	104	0	69	14791
2026-01-06 04:47:38.94	18.22	14.33	-51.9	-63.6	3.9	7.46e-01	0	26	104	0	71	14854
2026-01-06 04:47:39.93	18.06	14.41	-57.8	-74.8	3.8	7.42e-01	0	26	104	0	83	26805
2026-01-06 04:47:40.94	17.90	14.50	-57.5	-73.3	3.8	7.48e-01	0	26	104	0	82	24066
2026-01-06 04:47:41.93	17.74	14.58	-50.9	-62.4	3.8	7.43e-01	0	26	104	0	70	13586
2026-01-06 04:47:42.93	17.58	14.67	-50.6	-62.0	3.8	7.44e-01	0	26	104	0	70	13006
2026-01-06 04:47:43.92	17.42	14.75	-50.2	-61.6	3.8	7.49e-01	0	26	104	0	69	13222
2026-01-06 04:47:44.91	17.26	14.84	-49.8	-61.1	3.9	7.46e-01	0	26	104	0	68	13183
2026-01-06 04:47:45.91	17.10	14.93	-50.2	-61.5	3.8	7.46e-01	0	26	104	0	68	13885
2026-01-06 04:47:46.91	16.93	15.01	-51.9	-63.6	3.8	7.45e-01	0	26	104	0	71	14722
2026-01-06 04:47:47.90	16.77	15.10	-57.8	-74.3	3.8	7.46e-01	0	26	104	0	83	25560
2026-01-06 04:47:48.91	16.60	15.18	-57.5	-73.0	3.8	7.48e-01	0	26	104	0	82	23268
2026-01-06 04:47:49.90	16.44	15.27	-50.8	-62.3	3.8	7.45e-01	0	26	104	0	70	13548
2026-01-06 04:47:50.90	16.27	15.36	-50.6	-62.1	3.8	7.46e-01	0	26	104	0	70	13134
2026-01-06 04:47:51.90	16.10	15.44	-50.4	-61.8	3.9	7.45e-01	0	26	104	0	70	12800
2026-01-06 04:47:52.89	15.93	15.53	-49.9	-61.2	3.9	7.46e-01	0	26	104	0	69	12551
2026-01-06 04:47:53.89	15.76	15.62	-50.3	-61.8	3.8	7.45e-01	0	26	104	0	68	14281
2026-01-06 04:47:54.89	15.58	15.70	-51.9	-63.6	3.9	7.47e-01	0	26	104	0	71	14825
2026-01-06 04:47:55.89	15.41	15.79	-57.8	-74.2	3.7	7.47e-01	0	26	104	0	83	24993
2026-01-06 04:47:56.89	15.23	15.88	-57.5	-73.0	3.8	7.48e-01	0	26	104	0	82	23229
2026-01-06 04:47:57.89	15.06	15.97	-50.6	-62.0	3.9	7.43e-01	0	26	104	0	70	13072
2026-01-06 04:47:58.89	14.88	16.05	-50.4	-61.8	3.8	7.43e-01	0	26	104	0	70	12803
2026-01-06 04:47:59.88	14.70	16.14	-50.4	-61.8	3.9	7.45e-01	0	26	104	0	70	12785
2026-01-06 04:48:00.88	14.52	16.23	-49.8	-61.1	3.8	7.43e-01	0	26	104	0	68	13259
2026-01-06 04:48:01.88	14.34	16.32	-50.1	-61.4	3.8	7.47e-01	0	26	104	0	68	13589
2026-01-06 04:48:02.88	14.16	16.40	-51.8	-63.5	3.8	7.46e-01	0	26	104	0	71	14644
2026-01-06 04:48:03.88	13.98	16.49	-57.6	-73.7	3.8	7.49e-01	0	26	104	0	82	25008
2026-01-06 04:48:04.88	13.79	16.58	-57.5	-72.9	3.8	7.45e-01	0	26	104	0	82	23040
2026-01-06 04:48:05.88	13.61	16.67	-50.5	-61.9	3.8	7.45e-01	0	26	104	0	70	12936
2026-01-06 04:48:06.88	13.42	16.76	-50.6	-62.1	3.8	7.43e-01	0	26	104	0	70	13180
2026-01-06 04:48:07.88	13.23	16.84	-50.8	-62.2	3.9	7.46e-01	0	26	104	0	70	13369
2026-01-06 04:48:08.89	13.04	16.93	-50.2	-61.6	3.8	7.45e-01	0	26	104	0	69	13112
2026-01-06 04:48:09.88	12.86	17.02	-49.6	-60.9	3.8	7.43e-01	0	26	104	0	68	12898
2026-01-06 04:48:10.87	12.67	17.11	-51.8	-63.5	3.9	7.48e-01	0	26	104	0	71	14563
2026-01-06 04:48:11.87	12.47	17.20	-57.6	-73.5	3.8	7.48e-01	0	26	104	0	82	24536
2026-01-06 04:48:12.86	12.28	17.28	-57.6	-73.1	3.8	7.45e-01	0	26	104	0	82	23500
2026-01-06 04:48:13.86	12.09	17.37	-50.6	-61.9	3.9	7.41e-01	0	26	104	0	70	12953
2026-01-06 04:48:14.86	11.89	17.46	-50.7	-62.2	3.9	7.48e-01	0	26	104	0	70	13322
2026-01-06 04:48:15.86	11.69	17.55	-50.7	-62.2	3.8	7.46e-01	0	26	104	0	70	13366
2026-01-06 04:48:16.85	11.50	17.64	-50.3	-61.7	3.9	7.44e-01	0	26	104	0	69	13331
2026-01-06 04:48:17.84	11.30	17.72	-50.0	-61.4	3.8	7.46e-01	0	26	104	0	69	12884
2026-01-06 04:48:18.84	11.10	17.81	-51.9	-63.6	3.8	7.42e-01	0	26	104	0	71	14841
2026-01-06 04:48:19.84	10.89	17.90	-57.7	-73.8	3.8	7.46e-01	0	26	104	0	83	24027
2026-01-06 04:48:20.83	10.69	17.99	-57.4	-72.6	3.8	7.46e-01	0	26	104	0	82	22052
2026-01-06 04:48:21.83	10.49	18.08	-50.2	-61.6	3.9	7.46e-01	0	26	104	0	69	13146
2026-01-06 04:48:22.82	10.28	18.16	-50.3	-61.7	3.9	7.48e-01	0	26	104	0	69	13383
2026-01-06 04:48:23.82	10.08	18.25	-50.6	-62.0	3.9	7.46e-01	0	26	104	0	69	13752
2026-01-06 04:48:24.81	9.87	18.34	-50.2	-61.6	3.9	7.50e-01	0	26	104	0	69	13194
2026-01-06 04:48:25.82	9.66	18.43	-49.7	-61.1	3.9	7.48e-01	0	26	104	0	68	13173
2026-01-06 04:48:26.81	9.45	18.51	-51.7	-63.4	3.9	7.44e-01	0	26	104	0	71	14481
2026-01-06 04:48:27.81	9.23	18.60	-57.5	-72.8	3.8	7.49e-01	0	26	104	0	82	22550
2026-01-06 04:48:28.81	9.02	18.69	-57.5	-72.8	3.8	7.48e-01	0	26	104	0	82	22525
2026-01-06 04:48:29.81	8.81	18.78	-50.3	-61.6	3.8	7.46e-01	0	26	104	0	69	13203
2026-01-06 04:48:30.81	8.59	18.87	-50.3	-61.7	3.8	7.45e-01	0	26	104	0	69	13396
2026-01-06 04:48:31.81	8.37	18.95	-50.3	-61.7	3.9	7.42e-01	0	26	104	0	69	13355
2026-01-06 04:48:32.81	8.15	19.04	-50.1	-61.4	3.9	7.44e-01	0	26	104	0	69	12905
2026-01-06 04:48:33.81	7.93	19.13	-51.1	-62.7	3.9	7.48e-01	0	26	104	0	69	14911
2026-01-06 04:48:34.80	7.71	19.22	-52.3	-64.1	3.9	7.48e-01	0	26	104	0	72	14750
2026-01-06 04:48:35.80	7.49	19.30	-57.5	-72.8	3.8	7.46e-01	0	26	104	0	82	22567
2026-01-06 04:48:36.81	7.26	19.39	-57.6	-72.8	3.9	7.46e-01	0	26	104	0	82	22731
2026-01-06 04:48:37.81	7.03	19.48	-50.8	-62.2	3.8	7.47e-01	0	26	104	0	70	13371
2026-01-06 04:48:38.81	6.81	19.57	-51.0	-62.5	3.8	7.43e-01	0	26	104	0	70	13738
2026-01-06 04:48:39.80	6.58	19.65	-51.2	-62.8	3.8	7.45e-01	0	26	104	0	70	14309
2026-01-06 04:48:40.81	6.35	19.74	-50.5	-62.0	3.9	7.43e-01	0	26	104	0	70	13009
2026-01-06 04:48:41.81	6.11	19.83	-50.0	-61.4	3.9	7.47e-01	0	26	104	0	69	12918
2026-01-06 04:48:42.81	5.88	19.92	-52.0	-63.7	3.8	7.46e-01	0	26	104	0	71	14914
2026-01-06 04:48:43.82	5.64	20.00	-57.5	-72.7	3.8	7.48e-01	0	26	104	0	82	22308
2026-01-06 04:48:44.82	5.41	20.09	-57.7	-73.4	3.8	7.43e-01	0	26	104	0	83	22885
2026-01-06 04:48:45.82	5.17	20.18	-50.3	-61.7	3.8	7.46e-01	0	26	104	0	69	13312
2026-01-06 04:48:46.82	4.93	20.26	-50.5	-61.9	3.9	7.47e-01	0	26	104	0	69	13617
2026-01-06 04:48:47.82	4.69	20.35	-50.7	-62.2	3.8	7.45e-01	0	26	104	0	69	14113
2026-01-06 04:48:48.81	4.45	20.43	-50.4	-61.8	3.8	7.48e-01	0	26	104	0	69	13482
2026-01-06 04:48:49.81	4.21	20.52	-50.0	-61.4	3.8	7.46e-01	0	26	104	0	69	12921
2026-01-06 04:48:50.82	3.96	20.60	-52.6	-64.3	3.8	7.48e-01	0	26	104	0	72	15105
2026-01-06 04:48:51.82	3.71	20.69	-57.5	-72.8	3.8	7.47e-01	0	26	104	0	82	22641
2026-01-06 04:48:52.82	3.47	20.77	-57.7	-73.3	3.8	7.45e-01	0	26	104	0	83	22720
2026-01-06 04:48:53.82	3.22	20.86	-50.8	-62.2	3.9	7.46e-01	0	26	104	0	70	13335
2026-01-06 04:48:54.82	2.97	20.94	-50.7	-62.1	3.9	7.45e-01	0	26	104	0	70	13225
2026-01-06 04:48:55.82	2.71	21.03	-50.7	-62.1	3.8	7.43e-01	0	26	104	0	70	13237
2026-01-06 04:48:56.82	2.46	21.11	-50.4	-61.8	3.8	7.46e-01	0	26	104	0	70	12691
2026-01-06 04:48:57.82	2.21	21.19	-51.3	-62.9	3.9	7.47e-01	0	26	104	0	70	14489
2026-01-06 04:48:58.82	1.95	21.28	-52.5	-64.3	3.8	7.45e-01	0	26	104	0	72	15146
2026-01-06 04:48:59.83	1.69	21.36	-57.6	-72.7	3.8	7.47e-01	0	26	104	0	82	22494
2026-01-06 04:49:00.83	1.43	21.44	-57.8	-73.4	3.8	7.46e-01	0	26	104	0	83	22982
2026-01-06 04:49:01.83	1.17	21.52	-50.8	-62.2	3.9	7.45e-01	0	26	104	0	70	13289
2026-01-06 04:49:02.82	0.91	21.61	-50.8	-62.3	3.9	7.43e-01	0	26	104	0	70	13415
2026-01-06 04:49:03.82	0.65	21.69	-50.6	-62.0	3.9	7.46e-01	0	26	104	0	70	12968
2026-01-06 04:49:04.82	0.38	21.77	-50.2	-61.5	3.8	7.47e-01	0	26	104	0	69	13075
2026-01-06 04:49:05.83	0.11	21.85	-50.2	-61.6	3.8	7.46e-01	0	26	104	0	69	13175
2026-01-06 04:49:06.82	359.85	21.93	-52.4	-64.1	3.9	7.46e-01	0	26	104	0	72	14744
2026-01-06 04:49:07.82	359.58	22.01	-57.5	-72.7	3.7	7.48e-01	0	26	104	0	82	22280
2026-01-06 04:49:08.82	359.30	22.09	-57.9	-73.6	3.8	7.44e-01	0	26	104	0	83	23431
2026-01-06 04:49:09.82	359.03	22.17	-50.8	-62.3	3.9	7.46e-01	0	26	104	0	70	13468
2026-01-06 04:49:10.82	358.76	22.25	-50.8	-62.3	3.9	7.42e-01	0	26	104	0	70	13538
2026-01-06 04:49:11.81	358.49	22.33	-50.6	-61.9	3.8	7.45e-01	0	26	104	0	70	12924
2026-01-06 04:49:12.82	358.21	22.41	-50.2	-61.5	3.9	7.46e-01	0	26	104	0	69	13073
2026-01-06 04:49:13.81	357.93	22.48	-50.2	-61.6	3.9	7.46e-01	0	26	104	0	69	13119
2026-01-06 04:49:14.80	357.65	22.56	-52.4	-64.2	3.8	7.46e-01	0	26	104	0	72	15003
2026-01-06 04:49:15.80	357.37	22.64	-57.6	-72.7	3.8	7.49e-01	0	26	104	0	82	22502
2026-01-06 04:49:16.80	357.09	22.71	-57.9	-73.7	3.8	7.47e-01	0	26	104	0	83	23666
2026-01-06 04:49:17.81	356.80	22.79	-50.7	-62.2	3.8	7.49e-01	0	26	104	0	70	13330
2026-01-06 04:49:18.81	356.51	22.86	-50.9	-62.3	3.8	7.43e-01	0	26	104	0	70	13491
2026-01-06 04:49:19.80	356.23	22.94	-50.7	-62.2	3.9	7.41e-01	0	26	104	0	70	13320
2026-01-06 04:49:20.80	355.94	23.01	-50.4	-61.8	3.9	7.45e-01	0	26	104	0	70	12712
2026-01-06 04:49:21.80	355.65	23.09	-50.3	-61.7	3.8	7.46e-01	0	26	104	0	69	13261
2026-01-06 04:49:22.80	355.36	23.16	-52.4	-64.1	3.9	7.48e-01	0	26	104	0	72	14863
2026-01-06 04:49:23.80	355.07	23.23	-57.6	-72.8	3.8	7.52e-01	0	26	104	0	82	22692
2026-01-06 04:49:24.80	354.77	23.31	-57.9	-73.7	3.8	7.48e-01	0	26	104	0	83	23838
2026-01-06 04:49:25.79	354.48	23.38	-50.8	-62.1	3.8	7.46e-01	0	26	104	0	70	13233
2026-01-06 04:49:26.79	354.18	23.45	-50.8	-62.2	3.9	7.48e-01	0	26	104	0	70	13405
2026-01-06 04:49:27.79	353.88	23.52	-50.9	-62.3	3.8	7.42e-01	0	26	104	0	70	13550
2026-01-06 04:49:28.79	353.58	23.59	-50.5	-61.9	3.8	7.49e-01	0	26	104	0	70	12928
2026-01-06 04:49:29.78	353.28	23.66	-51.3	-62.8	3.8	7.46e-01	0	26	104	0	70	14305
2026-01-06 04:49:30.78	352.98	23.73	-52.4	-64.3	3.8	7.47e-01	0	26	104	0	72	15067
2026-01-06 04:49:31.78	352.68	23.79	-57.6	-72.9	3.8	7.47e-01	0	26	104	0	82	22891
2026-01-06 04:49:32.78	352.37	23.86	-57.8	-73.3	3.8	7.46e-01	0	26	104	0	83	22616
2026-01-06 04:49:33.78	352.06	23.93	-50.7	-62.1	3.8	7.45e-01	0	26	104	0	70	13139
2026-01-06 04:49:34.77	351.76	23.99	-50.7	-62.1	3.8	7.48e-01	0	26	104	0	70	13110
2026-01-06 04:49:35.77	351.45	24.06	-50.6	-62.0	3.8	7.47e-01	0	26	104	0	70	12976
2026-01-06 04:49:36.77	351.14	24.12	-50.3	-61.6	3.8	7.44e-01	0	26	104	0	69	13220
2026-01-06 04:49:37.77	350.82	24.19	-50.7	-62.1	3.8	7.46e-01	0	26	104	0	69	13950
2026-01-06 04:49:38.77	350.51	24.25	-52.5	-64.2	3.8	7.47e-01	0	26	104	0	72	15034
2026-01-06 04:49:39.78	350.19	24.31	-57.3	-72.0	3.8	7.46e-01	0	26	104	0	82	20699
2026-01-06 04:49:40.78	349.87	24.37	-57.9	-73.5	3.8	7.47e-01	0	26	104	0	83	23072
2026-01-06 04:49:41.77	349.56	24.43	-50.6	-62.0	3.8	7.46e-01	0	26	104	0	70	13042
2026-01-06 04:49:42.78	349.24	24.49	-50.7	-62.1	3.8	7.50e-01	0	26	104	0	70	13209
2026-01-06 04:49:43.78	348.92	24.55	-50.5	-61.9	3.9	7.45e-01	0	26	104	0	70	12906
2026-01-06 04:49:44.78	348.59	24.61	-50.4	-61.8	3.8	7.41e-01	0	26	104	0	70	12758
2026-01-06 04:49:45.79	348.27	24.67	-51.4	-63.0	3.8	7.47e-01	0	26	104	0	70	14578
2026-01-06 04:49:46.78	347.95	24.73	-52.7	-64.8	3.9	7.43e-01	0	26	104	0	73	15088
2026-01-06 04:49:47.79	347.62	24.78	-57.7	-73.2	3.8	7.45e-01	0	26	104	0	83	22263
2026-01-06 04:49:48.79	347.29	24.84	-58.1	-74.1	3.8	7.47e-01	0	26	104	0	83	24889
2026-01-06 04:49:49.79	346.96	24.89	-50.6	-61.9	3.9	7.47e-01	0	26	104	0	70	12884
2026-01-06 04:49:50.79	346.63	24.95	-50.7	-62.1	3.8	7.45e-01	0	26	104	0	70	13217
2026-01-06 04:49:51.79	346.30	25.00	-50.7	-62.2	3.8	7.41e-01	0	26	104	0	70	13330
2026-01-06 04:49:52.79	345.97	25.05	-50.6	-62.0	3.9	7.44e-01	0	26	104	0	70	13032
2026-01-06 04:49:53.79	345.64	25.10	-51.9	-63.5	3.9	7.46e-01	0	26	104	0	71	14583
2026-01-06 04:49:54.80	345.30	25.15	-52.5	-64.2	3.9	7.41e-01	0	26	104	0	72	15037
2026-01-06 04:49:55.79	344.97	25.20	-57.7	-73.1	3.8	7.49e-01	0	26	104	0	83	22240
2026-01-06 04:49:56.80	344.63	25.25	-58.4	-74.6	3.8	7.47e-01	0	26	104	0	84	24953
2026-01-06 04:49:57.80	344.30	25.30	-50.6	-62.0	3.8	7.45e-01	0	26	104	0	70	12963
2026-01-06 04:49:58.79	343.96	25.34	-50.6	-61.9	3.9	7.46e-01	0	26	104	0	70	12927
2026-01-06 04:49:59.79	343.62	25.39	-50.5	-61.8	3.8	7.43e-01	0	26	104	0	70	12739
2026-01-06 04:50:00.79	343.28	25.43	-50.3	-61.6	3.9	7.46e-01	0	26	104	0	69	13186
2026-01-06 04:50:01.80	342.94	25.47	-50.5	-61.9	3.8	7.46e-01	0	26	104	0	69	13642
2026-01-06 04:50:02.80	342.60	25.52	-52.5	-64.3	3.9	7.46e-01	0	26	104	0	72	15055
2026-01-06 04:50:03.79	342.26	25.56	-57.7	-73.0	3.8	7.49e-01	0	26	104	0	83	21913
2026-01-06 04:50:04.80	341.91	25.60	-58.4	-74.6	3.8	7.48e-01	0	26	104	0	84	24915
2026-01-06 04:50:05.79	341.57	25.64	-50.5	-61.9	3.8	7.45e-01	0	26	104	0	70	12839
2026-01-06 04:50:06.79	341.22	25.67	-50.5	-61.9	3.8	7.44e-01	0	26	104	0	70	12864
2026-01-06 04:50:07.79	340.87	25.71	-50.6	-61.9	3.8	7.46e-01	0	26	104	0	70	12881
2026-01-06 04:50:08.79	340.53	25.75	-50.4	-61.7	3.9	7.44e-01	0	26	104	0	70	12647
2026-01-06 04:50:09.79	340.18	25.78	-51.0	-62.5	3.8	7.45e-01	0	26	104	0	69	14578
2026-01-06 04:50:10.79	339.83	25.81	-52.5	-64.3	3.8	7.47e-01	0	26	104	0	72	15110
2026-01-06 04:50:11.79	339.48	25.85	-57.7	-73.0	3.8	7.49e-01	0	26	104	0	83	21926
2026-01-06 04:50:12.78	339.13	25.88	-58.4	-74.4	3.8	7.45e-01	0	26	104	0	84	24277
2026-01-06 04:50:13.79	338.78	25.91	-50.5	-61.8	3.8	7.43e-01	0	26	104	0	70	12793
2026-01-06 04:50:14.78	338.43	25.94	-50.6	-62.0	3.9	7.45e-01	0	26	104	0	70	13029
2026-01-06 04:50:15.78	338.08	25.97	-50.6	-62.0	3.9	7.46e-01	0	26	104	0	70	13029
2026-01-06 04:50:16.78	337.73	25.99	-50.5	-61.8	3.9	7.47e-01	0	26	104	0	70	12741
2026-01-06 04:50:17.78	337.37	26.02	-50.9	-62.3	3.8	7.43e-01	0	26	104	0	69	14278
2026-01-06 04:50:18.76	337.02	26.04	-52.4	-64.0	3.9	7.45e-01	0	26	104	0	72	14668
2026-01-06 04:50:19.77	336.67	26.07	-57.5	-72.1	3.8	7.44e-01	0	26	104	0	82	20869
2026-01-06 04:50:20.77	336.31	26.09	-58.4	-74.4	3.8	7.45e-01	0	26	104	0	84	24239
2026-01-06 04:50:21.77	335.95	26.11	-50.5	-61.8	3.9	7.44e-01	0	26	104	0	70	12666
2026-01-06 04:50:22.76	335.60	26.13	-50.7	-62.0	3.9	7.46e-01	0	26	104	0	70	13104
2026-01-06 04:50:23.75	335.25	26.15	-50.9	-62.3	3.8	7.46e-01	0	26	104	0	70	13549
2026-01-06 04:50:24.74	334.89	26.17	-50.8	-62.2	3.8	7.44e-01	0	26	104	0	70	13263
2026-01-06 04:50:25.73	334.54	26.18	-50.2	-61.5	3.8	7.45e-01	0	26	104	0	69	13088
2026-01-06 04:50:26.73	334.18	26.20	-53.3	-65.1	3.9	7.47e-01	0	26	104	0	74	14864
2026-01-06 04:50:27.73	333.82	26.21	-57.4	-71.9	3.8	7.48e-01	0	26	104	0	82	20452
2026-01-06 04:50:28.72	333.47	26.23	-52.1	-63.7	3.8	7.46e-01	0	26	104	0	73	13407
2026-01-06 04:50:29.71	333.11	26.24	-56.9	-70.8	3.8	7.46e-01	0	26	104	0	81	18970
2026-01-06 04:50:30.71	332.75	26.25	-51.7	-63.2	3.8	7.44e-01	0	26	104	0	72	13314
2026-01-06 04:50:31.70	332.40	26.26	-50.8	-62.1	3.8	7.45e-01	0	26	104	0	70	13136
2026-01-06 04:50:32.69	332.04	26.27	-50.7	-62.1	3.9	7.46e-01	0	26	104	0	70	13155
2026-01-06 04:50:33.69	331.68	26.27	-57.2	-71.8	3.8	7.46e-01	0	26	104	0	82	20151
2026-01-06 04:50:34.68	331.32	26.28	-53.8	-65.7	3.9	7.48e-01	0	26	104	0	76	14165
2026-01-06 04:50:35.68	330.96	26.29	-57.3	-71.6	3.8	7.51e-01	0	26	104	0	82	19727
2026-01-06 04:50:36.68	330.60	26.29	-57.9	-73.0	3.8	7.49e-01	0	26	104	0	83	21890
2026-01-06 04:50:37.68	330.24	26.29	-50.7	-62.0	3.8	7.47e-01	0	26	104	0	70	13096
2026-01-06 04:50:38.68	329.88	26.29	-50.7	-62.0	3.8	7.45e-01	0	26	104	0	70	12982
2026-01-06 04:50:39.68	329.52	26.29	-50.9	-62.3	3.8	7.46e-01	0	26	104	0	70	13467
2026-01-06 04:50:40.68	329.16	26.29	-50.9	-62.3	3.8	7.42e-01	0	26	104	0	70	13445
2026-01-06 04:50:41.68	328.80	26.29	-51.1	-62.6	3.8	7.46e-01	0	26	104	0	70	13918
2026-01-06 04:50:42.68	328.44	26.29	-53.3	-65.2	3.8	7.43e-01	0	26	104	0	74	14973
2026-01-06 04:50:43.68	328.08	26.28	-57.5	-72.0	3.8	7.46e-01	0	26	104	0	82	20774
2026-01-06 04:50:44.68	327.72	26.27	-52.0	-63.7	3.8	7.44e-01	0	26	104	0	73	13265
2026-01-06 04:50:45.68	327.36	26.27	-56.9	-70.8	3.8	7.43e-01	0	26	104	0	81	19027
2026-01-06 04:50:46.68	327.00	26.26	-51.7	-63.1	3.9	7.48e-01	0	26	104	0	72	13216
2026-01-06 04:50:47.68	326.64	26.25	-50.8	-62.4	3.9	7.48e-01	0	26	104	0	70	13595
2026-01-06 04:50:48.68	326.28	26.24	-50.5	-61.9	3.8	7.44e-01	0	26	104	0	70	12811
2026-01-06 04:50:49.68	325.92	26.23	-57.5	-72.0	3.8	7.46e-01	0	26	104	0	82	20580
2026-01-06 04:50:50.69	325.56	26.21	-53.5	-65.3	3.9	7.45e-01	0	26	104	0	76	13561
2026-01-06 04:50:51.68	325.20	26.20	-57.0	-71.0	3.8	7.46e-01	0	26	104	0	81	19550
2026-01-06 04:50:52.69	324.84	26.18	-58.4	-74.4	3.8	7.48e-01	0	26	104	0	84	24199
2026-01-06 04:50:53.69	324.48	26.17	-50.6	-61.8	3.8	7.44e-01	0	26	104	0	70	12699
2026-01-06 04:50:54.68	324.13	26.15	-50.6	-61.9	3.9	7.42e-01	0	26	104	0	70	12937
2026-01-06 04:50:55.69	323.77	26.13	-50.7	-62.2	3.8	7.43e-01	0	26	104	0	70	13264
2026-01-06 04:50:56.69	323.41	26.11	-50.9	-62.3	3.8	7.45e-01	0	26	104	0	70	13540
2026-01-06 04:50:57.69	323.05	26.09	-52.2	-64.1	3.8	7.45e-01	0	26	104	0	72	14776
2026-01-06 04:50:58.69	322.70	26.06	-52.6	-64.2	3.8	7.46e-01	0	26	104	0	73	14110
2026-01-06 04:50:59.69	322.34	26.04	-57.4	-71.7	3.8	7.47e-01	0	26	104	0	82	19849
2026-01-06 04:51:00.68	321.99	26.02	-58.1	-73.6	3.8	7.48e-01	0	26	104	0	83	23514
2026-01-06 04:51:01.68	321.64	25.99	-51.0	-62.5	3.8	7.46e-01	0	26	104	0	71	13057
2026-01-06 04:51:02.69	321.28	25.96	-50.8	-62.2	3.8	7.48e-01	0	26	104	0	70	13390
2026-01-06 04:51:03.68	320.93	25.93	-50.7	-61.9	3.8	7.47e-01	0	26	104	0	70	12819
2026-01-06 04:51:04.68	320.58	25.91	-50.7	-62.0	3.9	7.45e-01	0	26	104	0	70	12979
2026-01-06 04:51:05.68	320.23	25.88	-52.9	-65.1	3.8	7.47e-01	0	26	104	0	73	15743
2026-01-06 04:51:06.67	319.88	25.84	-52.9	-64.8	3.8	7.47e-01	0	26	104	0	75	13525
2026-01-06 04:51:07.67	319.53	25.81	-57.1	-70.8	3.8	7.48e-01	0	26	104	0	81	18986
2026-01-06 04:51:08.67	319.18	25.78	-58.1	-73.3	3.8	7.46e-01	0	26	104	0	83	22733
2026-01-06 04:51:09.67	318.83	25.74	-50.9	-62.8	3.9	7.46e-01	0	26	104	0	71	13495
2026-01-06 04:51:10.66	318.49	25.71	-51.1	-63.0	4.0	7.45e-01	0	26	104	0	70	14669
2026-01-06 04:51:11.65	318.15	25.67	-51.7	-62.8	3.8	7.47e-01	0	26	104	0	71	13490
2026-01-06 04:51:12.65	317.80	25.63	-50.7	-52.4	15.3	6.05e-01	0	26	0	524288	70	4314
2026-01-06 04:51:13.65	317.46	25.59	-51.6	-53.6	15.2	6.06e-01	0	26	0	2097152	72	4397
2026-01-06 04:51:14.65	317.11	25.55	-51.6	-53.7	15.1	6.03e-01	0	26	0	4194304	70	4986
2026-01-06 04:51:15.66	316.77	25.51	-50.7	-52.5	15.3	6.01e-01	0	26	0	5767168	69	4610
2026-01-06 04:51:16.66	316.42	25.47	-51.0	-52.8	15.5	6.02e-01	0	26	0	7864320	71	4274
2026-01-06 04:51:17.65	316.09	25.43	-51.8	-53.8	15.1	6.05e-01	0	26	0	9961472	71	4776
2026-01-06 04:51:18.66	315.74	25.38	-50.9	-52.6	15.4	6.02e-01	0	26	0	11534336	70	4440
2026-01-06 04:51:19.65	315.41	25.34	-50.1	-51.7	15.5	6.05e-01	0	26	0	13631488	69	4200
2026-01-06 04:51:20.65	315.07	25.29	-50.8	-52.6	15.3	6.03e-01	0	26	0	15204352	70	4400
2026-01-06 04:51:21.65	314.73	25.24	-52.0	-54.1	15.1	6.05e-01	0	26	0	17301504	71	4945
2026-01-06 04:51:22.65	314.39	25.20	-50.9	-52.6	15.3	6.03e-01	0	26	0	18874368	69	4705
2026-01-06 04:51:23.64	314.06	25.15	-50.5	-52.2	15.5	6.03e-01	0	26	0	20971520	70	4230
2026-01-06 04:51:24.63	313.73	25.10	-51.1	-53.0	15.3	6.04e-01	0	26	0	22544384	70	4615
2026-01-06 04:51:25.62	313.40	25.05	-50.8	-52.6	15.4	6.03e-01	0	26	0	24641536	70	4414
2026-01-06 04:51:26.62	313.07	25.00	-50.3	-51.8	15.6	6.02e-01	0	26	0	26738688	69	4291
2026-01-06 04:51:27.62	312.74	24.94	-50.8	-52.6	15.3	6.04e-01	0	26	0	28311552	70	4406
2026-01-06 04:51:28.61	312.41	24.89	-51.2	-53.1	15.2	6.04e-01	0	26	0	30408704	70	4687
2026-01-06 04:51:29.60	312.09	24.84	-51.4	-53.3	15.2	6.04e-01	0	26	0	31981568	70	4769
2026-01-06 04:51:30.59	311.77	24.78	-51.1	-53.0	15.3	6.03e-01	0	26	0	34078720	70	4601
2026-01-06 04:51:31.58	311.44	24.73	-50.1	-51.8	15.5	6.03e-01	0	26	0	35651584	69	4255
2026-01-06 04:51:32.58	311.12	24.67	-50.2	-51.8	15.4	6.03e-01	0	26	0	37748736	69	4283
2026-01-06 04:51:33.58	310.79	24.61	-51.0	-52.8	15.3	6.05e-01	0	26	0	39321600	70	4544
2026-01-06 04:51:34.57	310.48	24.55	-50.8	-52.6	15.4	6.03e-01	0	26	0	41418752	70	4414
2026-01-06 04:51:35.57	310.15	24.49	-50.8	-52.5	15.4	6.04e-01	0	26	0	43515904	70	4370
2026-01-06 04:51:36.56	309.84	24.44	-51.3	-53.2	15.2	6.05e-01	0	26	0	45088768	70	4735
2026-01-06 04:51:37.55	309.52	24.37	-50.8	-52.5	15.4	6.04e-01	0	26	0	47185920	70	4390
2026-01-06 04:51:38.55	309.21	24.31	-50.7	-52.4	15.4	6.03e-01	0	26	0	48758784	70	4340
2026-01-06 04:51:39.55	308.89	24.25	-50.9	-52.7	15.4	6.04e-01	0	26	0	50855936	70	4474
2026-01-06 04:51:40.55	308.57	24.19	-50.8	-52.6	15.4	6.04e-01	0	26	0	52428800	70	4426
2026-01-06 04:51:41.55	308.26	24.12	-51.0	-52.9	15.3	6.02e-01	0	26	0	54525952	70	4549
2026-01-06 04:51:42.55	307.95	24.06	-50.3	-52.0	15.5	6.01e-01	0	26	0	56623104	69	4370
2026-01-06 04:51:43.54	307.64	23.99	-50.1	-51.7	15.5	6.03e-01	0	26	0	58195968	69	4229
2026-01-06 04:51:44.54	307.33	23.93	-51.2	-53.1	15.2	6.03e-01	0	26	0	60293120	70	4692
2026-01-06 04:51:45.54	307.03	23.86	-50.8	-52.6	15.4	6.04e-01	0	26	0	61865984	70	4395
2026-01-06 04:51:46.54	306.72	23.79	-50.3	-51.9	15.6	6.05e-01	0	26	0	63963136	69	4338
2026-01-06 04:51:47.54	306.41	23.73	-50.4	-52.2	15.4	6.04e-01	0	26	0	66060288	69	4455
2026-01-06 04:51:48.54	306.11	23.66	-50.5	-52.3	15.4	6.03e-01	0	26	0	67633152	69	4494
2026-01-06 04:51:49.54	305.81	23.59	-50.5	-52.2	15.4	6.04e-01	0	26	0	69730304	69	4475
2026-01-06 04:51:50.54	305.51	23.52	-50.4	-52.2	15.3	6.03e-01	0	26	0	71303168	69	4456
2026-01-06 04:51:51.54	305.21	23.45	-51.0	-52.9	15.2	6.06e-01	0	26	0	73400320	69	4818
2026-01-06 04:51:52.55	304.91	23.38	-49.6	-51.1	15.6	6.05e-01	0	26	0	74973184	68	4172
2026-01-06 04:51:53.56	304.61	23.30	-51.0	-52.9	15.3	6.06e-01	0	26	0	77070336	70	4573
2026-01-06 04:51:54.55	304.32	23.23	-50.3	-52.0	15.3	6.03e-01	0	26	0	79167488	68	4638
2026-01-06 04:51:55.56	304.02	23.16	-50.1	-51.8	15.5	6.06e-01	0	26	0	80740352	69	4252
2026-01-06 04:51:56.55	303.73	23.09	-51.1	-53.0	15.2	6.01e-01	0	26	0	82837504	69	4908
2026-01-06 04:51:57.54	303.44	23.01	-50.1	-51.7	15.5	6.05e-01	0	26	0	84410368	69	4241
2026-01-06 04:51:58.55	303.15	22.94	-50.4	-52.1	15.4	6.02e-01	0	26	0	86507520	69	4406
2026-01-06 04:51:59.54	302.86	22.86	-50.8	-52.7	15.3	6.06e-01	0	26	0	88080384	69	4709
2026-01-06 04:52:00.54	302.58	22.79	-50.0	-51.6	15.6	6.03e-01	0	26	0	90177536	69	4159
2026-01-06 04:52:01.55	302.29	22.71	-50.7	-52.5	15.3	6.04e-01	0	26	0	92274688	69	4634
2026-01-06 04:52:02.55	302.01	22.63	-50.8	-52.6	15.3	6.07e-01	0	26	0	93847552	69	4654
2026-01-06 04:52:03.55	301.72	22.56	-50.5	-52.1	15.5	6.01e-01	0	26	0	95944704	70	4188
2026-01-06 04:52:04.55	301.44	22.48	-51.1	-53.0	15.2	6.04e-01	0	26	0	97517568	69	4879
2026-01-06 04:52:05.56	301.16	22.40	-50.4	-52.1	15.6	6.03e-01	0	26	0	99614720	70	4152
2026-01-06 04:52:06.56	300.88	22.32	-51.5	-53.5	15.2	6.03e-01	0	26	0	101187584	71	4642
2026-01-06 04:52:07.55	300.61	22.24	-50.9	-52.6	15.4	6.05e-01	0	26	0	103284736	70	4423
2026-01-06 04:52:08.55	300.34	22.16	-51.5	-53.4	15.2	6.04e-01	0	26	0	105381888	71	4589
2026-01-06 04:52:09.56	300.06	22.08	-51.1	-52.9	15.5	6.05e-01	0	26	0	106954752	71	4319
2026-01-06 04:52:10.56	299.79	22.00	-51.3	-53.2	15.4	6.03e-01	0	26	0	109051904	71	4489
2026-01-06 04:52:11.55	299.52	21.92	-50.5	-52.2	15.5	6.04e-01	0	26	0	110624768	70	4223
2026-01-06 04:52:12.55	299.25	21.84	-50.6	-52.3	15.5	6.04e-01	0	26	0	112721920	70	4267
2026-01-06 04:52:13.55	298.99	21.76	-50.6	-52.3	15.5	6.04e-01	0	26	0	114819072	70	4262
2026-01-06 04:52:14.55	298.72	21.68	-50.3	-52.0	15.4	6.02e-01	0	26	0	116391936	69	4351
2026-01-06 04:52:15.54	298.46	21.60	-50.3	-52.0	15.5	6.03e-01	0	26	0	118489088	69	4345
2026-01-06 04:52:16.54	298.20	21.52	-50.2	-51.8	15.5	6.06e-01	0	26	0	120061952	69	4274
2026-01-06 04:52:17.54	297.93	21.44	-50.5	-52.2	15.4	6.04e-01	0	26	0	122159104	69	4478
2026-01-06 04:52:18.54	297.67	21.35	-50.4	-52.1	15.4	6.03e-01	0	26	0	123731968	69	4402
2026-01-06 04:52:19.53	297.42	21.27	-50.8	-52.7	15.2	6.03e-01	0	26	0	125829120	69	4718
2026-01-06 04:52:20.53	297.16	21.19	-50.1	-51.7	15.5	6.03e-01	0	26	0	127401984	69	4224
2026-01-06 04:52:21.52	296.91	21.10	-51.1	-53.0	15.2	6.04e-01	0	26	0	129499136	69	4886
2026-01-06 04:52:22.52	296.65	21.02	-50.2	-51.8	15.5	6.03e-01	0	26	0	131596288	69	4283
2026-01-06 04:52:23.51	296.40	20.94	-50.7	-52.4	15.3	6.03e-01	0	26	0	133169152	69	4583
2026-01-06 04:52:24.51	296.15	20.85	-50.6	-52.3	15.3	6.03e-01	0	26	0	135266304	69	4534
2026-01-06 04:52:25.51	295.90	20.77	-50.1	-51.7	15.5	6.04e-01	0	26	0	136839168	69	4219
2026-01-06 04:52:26.50	295.66	20.68	-50.5	-52.2	15.4	6.05e-01	0	26	0	138936320	69	4483
2026-01-06 04:52:27.50	295.41	20.60	-50.3	-52.0	15.4	6.03e-01	0	26	0	140509184	69	4353
2026-01-06 04:52:28.50	295.17	20.51	-50.3	-52.0	15.4	6.04e-01	0	26	0	142606336	69	4373
2026-01-06 04:52:29.49	294.92	20.43	-50.4	-52.1	15.4	6.02e-01	0	26	0	144703488	69	4400
2026-01-06 04:52:30.49	294.68	20.34	-50.4	-52.1	15.4	6.03e-01	0	26	0	146276352	69	4438
2026-01-06 04:52:31.48	294.44	20.26	-50.6	-52.3	15.4	6.03e-01	0	26	0	148373504	69	4543
2026-01-06 04:52:32.48	294.20	20.17	-50.5	-52.2	15.4	6.02e-01	0	26	0	149946368	69	4449
2026-01-06 04:52:33.47	293.97	20.09	-50.6	-52.3	15.4	6.04e-01	0	26	0	152043520	69	4540
2026-01-06 04:52:34.47	293.73	20.00	-50.5	-52.3	15.4	6.04e-01	0	26	0	153616384	69	4525
2026-01-06 04:52:35.47	293.50	19.91	-49.9	-51.5	15.6	6.00e-01	0	26	0	155713536	69	4122
2026-01-06 04:52:36.47	293.26	19.83	-50.6	-52.4	15.3	6.04e-01	0	26	0	157286400	69	4578
2026-01-06 04:52:37.47	293.03	19.74	-50.6	-52.4	15.3	6.04e-01	0	26	0	159383552	69	4573
2026-01-06 04:52:38.47	292.80	19.65	-50.2	-51.8	15.5	6.05e-01	0	26	0	161480704	69	4266
2026-01-06 04:52:39.47	292.57	19.56	-50.4	-52.2	15.4	6.03e-01	0	26	0	163053568	69	4447
2026-01-06 04:52:40.47	292.34	19.48	-50.1	-51.8	15.5	6.03e-01	0	26	0	165150720	69	4276
2026-01-06 04:52:41.47	292.11	19.39	-50.2	-51.9	15.5	6.03e-01	0	26	0	166723584	69	4306
2026-01-06 04:52:42.48	291.88	19.30	-50.7	-52.5	15.3	6.05e-01	0	26	0	168820736	69	4607
2026-01-06 04:52:43.48	291.66	19.21	-50.4	-52.2	15.4	6.05e-01	0	26	0	170393600	69	4452
2026-01-06 04:52:44.47	291.44	19.13	-50.4	-52.1	15.4	6.03e-01	0	26	0	172490752	69	4417
2026-01-06 04:52:45.47	291.22	19.04	-50.8	-52.6	15.2	6.05e-01	0	26	0	174587904	69	4687
2026-01-06 04:52:46.47	291.00	18.95	-50.5	-52.3	15.4	6.02e-01	0	26	0	176160768	69	4499
2026-01-06 04:52:47.47	290.78	18.86	-50.0	-51.7	15.5	6.03e-01	0	26	0	178257920	69	4206
2026-01-06 04:52:48.47	290.56	18.77	-50.3	-52.0	15.4	6.05e-01	0	26	0	179830784	69	4381
2026-01-06 04:52:49.48	290.34	18.69	-50.3	-52.1	15.4	6.04e-01	0	26	0	181927936	69	4405
2026-01-06 04:52:50.48	290.13	18.60	-50.1	-51.7	15.5	6.02e-01	0	26	0	183500800	69	4238
2026-01-06 04:52:51.46	289.92	18.51	-50.2	-51.9	15.5	6.03e-01	0	26	0	185597952	69	4302
2026-01-06 04:52:52.46	289.71	18.42	-50.5	-52.2	15.4	6.04e-01	0	26	0	187695104	69	4493
2026-01-06 04:52:53.47	289.50	18.33	-50.3	-52.0	15.4	6.02e-01	0	26	0	189267968	69	4382
2026-01-06 04:52:54.47	289.29	18.24	-50.4	-52.1	15.4	6.03e-01	0	26	0	191365120	69	4396
2026-01-06 04:52:55.46	289.08	18.16	-50.5	-52.2	15.4	6.05e-01	0	26	0	192937984	69	4490
2026-01-06 04:52:56.46	288.87	18.07	-50.8	-52.6	15.3	6.06e-01	0	26	0	195035136	69	4673
2026-01-06 04:52:57.47	288.66	17.98	-50.1	-51.7	15.5	6.06e-01	0	26	0	197132288	69	4240
2026-01-06 04:52:58.46	288.46	17.89	-50.0	-51.6	15.6	6.02e-01	0	26	0	198705152	69	4177
2026-01-06 04:52:59.46	288.26	17.80	-50.3	-52.1	15.4	6.04e-01	0	26	0	200802304	69	4412
2026-01-06 04:53:00.46	288.06	17.71	-50.3	-52.1	15.4	6.02e-01	0	26	0	202375168	69	4408
2026-01-06 04:53:01.46	287.86	17.63	-50.2	-51.9	15.5	6.04e-01	0	26	0	204472320	69	4298
2026-01-06 04:53:02.46	287.66	17.54	-50.2	-51.9	15.5	6.01e-01	0	26	0	206045184	69	4324
2026-01-06 04:53:03.47	287.46	17.45	-50.8	-52.6	15.3	6.03e-01	0	26	0	208142336	69	4689
2026-01-06 04:53:04.47	287.26	17.36	-50.5	-52.3	15.3	6.01e-01	0	26	0	210239488	69	4518
2026-01-06 04:53:05.47	287.07	17.27	-49.9	-51.5	15.6	6.04e-01	0	26	0	211812352	69	4140
2026-01-06 04:53:06.47	286.87	17.18	-49.8	-51.5	15.5	6.03e-01	0	26	0	213909504	68	4344
2026-01-06 04:53:07.46	286.68	17.09	-50.2	-51.9	15.4	6.03e-01	0	26	0	215482368	68	4558
2026-01-06 04:53:08.46	286.49	17.01	-50.5	-52.3	15.2	6.05e-01	0	26	0	217579520	68	4809
2026-01-06 04:53:09.46	286.30	16.92	-50.4	-52.1	15.3	6.03e-01	0	26	0	219152384	68	4686
2026-01-06 04:53:10.45	286.11	16.83	-50.1	-51.7	15.4	6.04e-01	0	26	0	221249536	68	4483
2026-01-06 04:53:11.45	285.92	16.74	-50.2	-51.9	15.3	6.05e-01	0	26	0	223346688	68	4591
2026-01-06 04:53:12.45	285.73	16.65	-50.5	-52.2	15.2	6.03e-01	0	26	0	224919552	68	4754
2026-01-06 04:53:13.44	285.55	16.57	-50.6	-52.4	15.3	6.04e-01	0	26	0	227016704	69	4579
2026-01-06 04:53:14.44	285.37	16.48	-50.2	-51.9	15.5	6.02e-01	0	26	0	228589568	69	4315
2026-01-06 04:53:15.43	285.18	16.39	-50.0	-51.6	15.6	6.05e-01	0	26	0	230686720	69	4183
2026-01-06 04:53:16.44	285.00	16.30	-50.0	-51.7	15.6	6.05e-01	0	26	0	232259584	69	4201
2026-01-06 04:53:17.44	284.82	16.21	-50.5	-52.3	15.4	6.05e-01	0	26	0	234356736	69	4494
2026-01-06 04:53:18.43	284.64	16.13	-50.6	-52.5	15.3	6.01e-01	0	26	0	236453888	69	4617
2026-01-06 04:53:19.43	284.46	16.04	-50.5	-52.3	15.3	6.02e-01	0	26	0	238026752	69	4524
2026-01-06 04:53:20.43	284.28	15.95	-50.2	-51.9	15.4	6.04e-01	0	26	0	240123904	69	4333
2026-01-06 04:53:21.43	284.11	15.86	-50.2	-51.9	15.5	6.04e-01	0	26	0	241696768	69	4292
2026-01-06 04:53:22.43	283.93	15.78	-50.1	-51.8	15.5	6.03e-01	0	26	0	243793920	69	4284
2026-01-06 04:53:23.43	283.76	15.69	-50.3	-52.1	15.4	6.03e-01	0	26	0	245366784	69	4394
2026-01-06 04:53:24.42	283.58	15.60	-50.4	-52.2	15.4	6.02e-01	0	26	0	247463936	69	4453
2026-01-06 04:53:25.42	283.41	15.52	-50.4	-52.2	15.4	6.04e-01	0	26	0	249036800	69	4478
2026-01-06 04:53:26.41	283.24	15.43	-50.3	-52.0	15.4	6.04e-01	0	26	0	251133952	69	4375
2026-01-06 04:53:27.41	283.07	15.34	-50.0	-51.7	15.5	6.03e-01	0	26	0	253231104	69	4221
2026-01-06 04:53:28.40	282.90	15.26	-50.1	-51.8	15.5	6.03e-01	0	26	0	254803968	69	4251
2026-01-06 04:53:29.40	282.74	15.17	-50.3	-52.0	15.4	6.04e-01	0	26	0	256901120	69	4358
2026-01-06 04:53:30.40	282.57	15.08	-50.5	-52.3	15.4	6.03e-01	0	26	0	258473984	69	4514
2026-01-06 04:53:31.39	282.40	15.00	-50.6	-52.4	15.3	6.04e-01	0	26	0	260571136	69	4582
2026-01-06 04:53:32.39	282.24	14.91	-50.4	-52.2	15.4	6.05e-01	0	26	0	262144000	69	4469
2026-01-06 04:53:33.38	282.08	14.82	-50.4	-52.1	15.4	6.04e-01	0	26	0	264241152	69	4425
2026-01-06 04:53:34.38	281.91	14.74	-50.3	-52.1	15.4	6.04e-01	0	26	0	265814016	69	4396
2026-01-06 04:53:35.38	281.75	14.65	-50.2	-51.9	15.5	6.06e-01	0	26	0	267911168	69	4339
2026-01-06 04:53:36.38	281.59	14.57	-50.2	-51.9	15.5	6.04e-01	0	26	0	270008320	69	4308
2026-01-06 04:53:37.38	281.43	14.48	-50.3	-52.0	15.4	6.02e-01	0	26	0	271581184	69	4366
2026-01-06 04:53:38.38	281.27	14.39	-50.3	-52.0	15.4	6.04e-01	0	26	0	273678336	69	4366
2026-01-06 04:53:39.37	281.12	14.31	-50.4	-52.2	15.4	6.05e-01	0	26	0	275251200	69	4443
2026-01-06 04:53:40.37	280.96	14.22	-50.5	-52.3	15.4	6.04e-01	0	26	0	277348352	69	4507
2026-01-06 04:53:41.37	280.80	14.14	-50.5	-52.3	15.4	6.04e-01	0	26	0	278921216	69	4504
2026-01-06 04:53:42.36	280.65	14.05	-50.5	-52.3	15.4	6.04e-01	0	26	0	281018368	69	4500
2026-01-06 04:53:43.35	280.50	13.97	-50.3	-52.1	15.4	6.03e-01	0	26	0	283115520	69	4399
2026-01-06 04:53:44.34	280.35	13.88	-50.3	-52.0	15.4	6.05e-01	0	26	0	284688384	69	4389
2026-01-06 04:53:45.34	280.19	13.80	-50.3	-52.0	15.4	6.03e-01	0	26	0	286785536	69	4385
2026-01-06 04:53:46.33	280.04	13.72	-50.4	-52.2	15.4	6.03e-01	0	26	0	288358400	69	4442
2026-01-06 04:53:47.33	279.89	13.63	-50.5	-52.2	15.4	6.03e-01	0	26	0	290455552	69	4492
2026-01-06 04:53:48.32	279.75	13.55	-50.5	-52.3	15.3	6.05e-01	0	26	0	292028416	69	4528
2026-01-06 04:53:49.32	279.60	13.46	-50.6	-52.5	15.3	6.02e-01	0	26	0	294125568	69	4610
2026-01-06 04:53:50.33	279.45	13.38	-50.7	-52.5	15.3	6.02e-01	0	26	0	296222720	69	4647
2026-01-06 04:53:51.33	279.30	13.29	-50.6	-52.5	15.3	6.00e-01	0	26	0	297795584	69	4605
2026-01-06 04:53:52.33	279.16	13.21	-50.6	-52.4	15.3	6.03e-01	0	26	0	299892736	69	4572
2026-01-06 04:53:53.32	279.01	13.13	-50.6	-52.4	15.3	6.02e-01	0	26	0	301465600	69	4586
2026-01-06 04:53:54.32	278.87	13.04	-50.6	-52.5	15.3	6.04e-01	0	26	0	303562752	69	4600
2026-01-06 04:53:55.31	278.73	12.96	-50.5	-52.3	15.4	6.04e-01	0	26	0	305135616	69	4509
2026-01-06 04:53:56.31	278.59	12.88	-50.4	-52.2	15.4	6.03e-01	0	26	0	307232768	69	4449
2026-01-06 04:53:57.31	278.44	12.79	-50.5	-52.3	15.4	6.05e-01	0	26	0	309329920	69	4496
2026-01-06 04:53:58.31	278.30	12.71	-50.5	-52.2	15.3	6.01e-01	0	26	0	310902784	69	4493
2026-01-06 04:53:59.31	278.16	12.63	-50.7	-52.5	15.3	6.02e-01	0	26	0	312999936	69	4647
2026-01-06 04:54:00.31	278.03	12.55	-50.6	-52.5	15.3	6.03e-01	0	26	0	314572800	69	4615
2026-01-06 04:54:01.30	277.89	12.46	-50.7	-52.6	15.3	6.00e-01	0	26	0	316669952	69	4656
2026-01-06 04:54:02.30	277.75	12.38	-50.7	-52.5	15.3	6.05e-01	0	26	0	318242816	69	4641
2026-01-06 04:54:03.29	277.62	12.30	-50.6	-52.4	15.3	6.03e-01	0	26	0	320339968	69	4558
2026-01-06 04:54:04.28	277.48	12.22	-50.6	-52.4	15.3	6.04e-01	0	26	0	321912832	69	4558
2026-01-06 04:54:05.28	277.35	12.14	-50.7	-52.6	15.3	6.01e-01	0	26	0	324009984	69	4654
2026-01-06 04:54:06.28	277.22	12.05	-50.5	-52.3	15.3	6.05e-01	0	26	0	326107136	69	4542
2026-01-06 04:54:07.28	277.08	11.97	-50.5	-52.3	15.3	6.02e-01	0	26	0	327680000	69	4542
2026-01-06 04:54:08.27	276.95	11.89	-50.6	-52.4	15.3	6.02e-01	0	26	0	329777152	69	4591
2026-01-06 04:54:09.27	276.82	11.81	-50.6	-52.4	15.3	6.05e-01	0	26	0	331350016	69	4595
2026-01-06 04:54:10.27	276.69	11.73	-50.5	-52.4	15.3	6.05e-01	0	26	0	333447168	69	4549
2026-01-06 04:54:11.27	276.56	11.65	-50.7	-52.6	15.3	6.02e-01	0	26	0	335020032	69	4670
2026-01-06 04:54:12.27	276.43	11.57	-50.7	-52.6	15.3	6.04e-01	0	26	0	337117184	69	4673
2026-01-06 04:54:13.27	276.30	11.49	-50.8	-52.6	15.2	6.05e-01	0	26	0	339214336	69	4703
2026-01-06 04:54:14.27	276.18	11.41	-50.8	-52.6	15.2	6.04e-01	0	26	0	340787200	69	4701
2026-01-06 04:54:15.26	276.05	11.33	-50.7	-52.5	15.3	6.05e-01	0	26	0	342884352	69	4635
2026-01-06 04:54:16.27	275.92	11.25	-50.6	-52.5	15.3	6.02e-01	0	26	0	344457216	69	4599
2026-01-06 04:54:17.27	275.80	11.17	-50.5	-52.4	15.3	6.06e-01	0	26	0	346554368	69	4555
2026-01-06 04:54:18.27	275.67	11.09	-50.6	-52.5	15.3	6.04e-01	0	26	0	348127232	69	4618
2026-01-06 04:54:19.27	275.55	11.01	-50.7	-52.6	15.3	6.02e-01	0	26	0	350224384	69	4667
2026-01-06 04:54:20.27	275.43	10.93	-50.8	-52.6	15.2	6.04e-01	0	26	0	352321536	69	4690
2026-01-06 04:54:21.27	275.31	10.85	-50.8	-52.7	15.2	6.05e-01	0	26	0	353894400	69	4716
2026-01-06 04:54:22.26	275.19	10.77	-50.8	-52.7	15.2	6.02e-01	0	26	0	355991552	69	4736
2026-01-06 04:54:23.26	275.07	10.69	-50.8	-52.7	15.2	6.04e-01	0	26	0	357564416	69	4741
2026-01-06 04:54:24.26	274.95	10.61	-50.8	-52.7	15.2	6.04e-01	0	26	0	359661568	69	4707
2026-01-06 04:54:25.25	274.83	10.53	-50.8	-52.7	15.2	6.04e-01	0	26	0	361234432	69	4726
2026-01-06 04:54:26.25	274.71	10.45	-50.9	-52.8	15.2	6.04e-01	0	26	0	363331584	69	4773
2026-01-06 04:54:27.24	274.59	10.38	-50.8	-52.7	15.2	6.05e-01	0	26	0	365428736	69	4742
2026-01-06 04:54:28.23	274.48	10.30	-50.9	-52.8	15.2	6.03e-01	0	26	0	367001600	69	4801
2026-01-06 04:54:29.23	274.36	10.22	-50.9	-52.8	15.2	6.05e-01	0	26	0	369098752	69	4792
2026-01-06 04:54:30.23	274.24	10.14	-51.0	-52.9	15.2	6.04e-01	0	26	0	370671616	69	4843
2026-01-06 04:54:31.23	274.13	10.06	-50.9	-52.8	15.2	6.02e-01	0	26	0	372768768	69	4773
2026-01-06 04:54:32.23	274.01	9.99	-50.8	-52.6	15.3	6.04e-01	0	26	0	374341632	69	4705
2026-01-06 04:54:33.23	273.90	9.91	-50.7	-52.6	15.3	6.02e-01	0	26	0	376438784	69	4658
2026-01-06 04:54:34.21	273.79	9.83	-50.8	-52.7	15.2	6.00e-01	0	26	0	378535936	69	4744
2026-01-06 04:54:35.21	273.68	9.76	-50.9	-52.8	15.2	6.03e-01	0	26	0	380108800	69	4788
2026-01-06 04:54:36.21	273.57	9.68	-50.8	-52.8	15.2	6.03e-01	0	26	0	382205952	69	4766
2026-01-06 04:54:37.21	273.45	9.60	-51.0	-52.9	15.2	6.04e-01	0	26	0	383778816	69	4859
2026-01-06 04:54:38.21	273.34	9.53	-51.0	-52.9	15.2	6.05e-01	0	26	0	385875968	69	4858
2026-01-06 04:54:39.20	273.24	9.45	-50.9	-52.8	15.2	6.03e-01	0	26	0	387448832	69	4789
2026-01-06 04:54:40.20	273.13	9.37	-51.0	-53.0	15.1	6.03e-01	0	26	0	389545984	69	4883
2026-01-06 04:54:41.20	273.02	9.30	-51.0	-53.0	15.1	6.04e-01	0	26	0	391643136	69	4897
2026-01-06 04:54:42.19	272.91	9.22	-51.1	-53.1	15.1	6.04e-01	0	26	0	393216000	69	4933
2026-01-06 04:54:43.18	272.80	9.15	-51.0	-52.9	15.1	6.02e-01	0	26	0	395313152	69	4858
2026-01-06 04:54:44.18	272.70	9.07	-51.1	-53.1	15.2	6.04e-01	0	26	0	396886016	70	4684
2026-01-06 04:54:45.18	272.59	9.00	-51.2	-53.2	15.2	6.05e-01	0	26	0	398983168	70	4726
2026-01-06 04:54:46.18	272.49	8.92	-51.1	-53.1	15.2	6.04e-01	0	26	0	400556032	70	4661
2026-01-06 04:54:47.18	272.38	8.85	-51.1	-53.1	15.2	6.03e-01	0	26	0	402653184	70	4676
2026-01-06 04:54:48.18	272.28	8.77	-51.1	-53.1	15.2	6.02e-01	0	26	0	404750336	70	4686
2026-01-06 04:54:49.19	272.17	8.70	-51.2	-53.2	15.2	6.03e-01	0	26	0	406323200	70	4752
2026-01-06 04:54:50.19	272.07	8.62	-51.2	-53.2	15.2	6.03e-01	0	26	0	408420352	70	4714
2026-01-06 04:54:51.18	271.97	8.55	-50.9	-52.9	15.3	6.07e-01	0	26	0	409993216	70	4566
2026-01-06 04:54:52.18	271.87	8.47	-51.0	-53.0	15.2	6.03e-01	0	26	0	412090368	70	4606
2026-01-06 04:54:53.17	271.77	8.40	-51.0	-53.0	15.2	6.04e-01	0	26	0	413663232	70	4613
2026-01-06 04:54:54.17	271.66	8.33	-51.0	-52.9	15.3	6.04e-01	0	26	0	415760384	70	4578
2026-01-06 04:54:55.16	271.57	8.25	-51.1	-53.1	15.2	6.04e-01	0	26	0	417333248	70	4673
2026-01-06 04:54:56.16	271.47	8.18	-51.2	-53.2	15.2	6.02e-01	0	26	0	419430400	70	4714
2026-01-06 04:54:57.16	271.37	8.11	-51.2	-53.3	15.1	6.03e-01	0	26	0	421527552	70	4784
2026-01-06 04:54:58.16	271.27	8.03	-51.4	-53.5	15.1	6.02e-01	0	26	0	423100416	70	4905
2026-01-06 04:54:59.15	271.17	7.96	-51.6	-53.8	15.0	6.02e-01	0	26	0	425197568	70	5077
2026-01-06 04:55:00.15	271.07	7.89	-51.8	-54.0	15.0	6.04e-01	0	26	0	426770432	71	4915
2026-01-06 04:55:01.15	270.98	7.81	-52.0	-54.3	14.9	6.04e-01	0	26	0	428867584	71	5095
2026-01-06 04:55:02.15	270.88	7.74	-52.1	-54.5	14.9	6.03e-01	0	26	0	430440448	71	5185
2026-01-06 04:55:03.15	270.78	7.67	-52.1	-54.5	15.0	6.02e-01	0	26	0	432537600	72	4879
2026-01-06 04:55:04.15	270.69	7.60	-52.2	-54.6	14.9	6.03e-01	0	26	0	434634752	72	4957
2026-01-06 04:55:05.15	270.59	7.52	-51.9	-54.2	15.1	6.03e-01	0	26	0	436207616	72	4752
2026-01-06 04:55:06.15	270.50	7.45	-52.0	-54.3	15.0	6.03e-01	0	26	0	438304768	72	4808
2026-01-06 04:55:07.14	270.41	7.38	-52.1	-54.6	14.9	6.05e-01	0	26	0	439877632	72	4931
2026-01-06 04:55:08.14	270.31	7.31	-52.1	-54.5	15.0	6.03e-01	0	26	0	441974784	72	4922
2026-01-06 04:55:09.14	270.22	7.24	-52.3	-54.9	14.8	6.03e-01	0	26	0	443547648	72	5106
2026-01-06 04:55:10.13	270.13	7.17	-52.5	-55.2	14.7	6.02e-01	0	26	0	445644800	72	5282
2026-01-06 04:55:11.14	270.04	7.09	-53.0	-55.8	14.6	6.05e-01	0	26	0	447741952	73	5373
2026-01-06 04:55:12.14	269.95	7.02	-53.3	-56.3	14.5	6.04e-01	0	26	0	449314816	74	5378
2026-01-06 04:55:13.13	269.86	6.95	-53.7	-57.0	14.3	6.02e-01	0	26	0	451411968	75	5488
2026-01-06 04:55:14.13	269.77	6.88	-54.1	-57.8	13.9	6.01e-01	0	26	0	452984832	75	6006
2026-01-06 04:55:15.13	269.68	6.81	-54.4	-58.2	13.9	6.03e-01	0	26	0	455081984	76	5961
2026-01-06 04:55:16.12	269.59	6.74	-54.6	-58.5	13.7	6.04e-01	0	26	0	456654848	76	6194
2026-01-06 04:55:17.12	269.50	6.67	-54.4	-58.2	13.9	6.05e-01	0	26	0	458752000	76	5942
2026-01-06 04:55:18.12	269.41	6.60	-54.3	-58.0	13.9	6.04e-01	0	26	0	460324864	76	5847
2026-01-06 04:55:19.11	269.32	6.53	-54.2	-57.8	14.0	6.03e-01	0	26	0	462422016	76	5679
2026-01-06 04:55:20.12	269.24	6.46	-54.1	-57.6	14.2	6.02e-01	0	26	0	464519168	76	5531
2026-01-06 04:55:21.12	269.15	6.39	-54.1	-57.5	14.2	6.03e-01	0	26	0	466092032	76	5516
2026-01-06 04:55:22.12	269.06	6.32	-53.8	-57.1	14.4	6.04e-01	0	26	0	468189184	76	5257
2026-01-06 04:55:23.11	268.98	6.25	-53.9	-57.3	14.3	6.04e-01	0	26	0	469762048	76	5380
2026-01-06 04:55:24.11	268.89	6.18	-54.0	-57.4	14.3	6.05e-01	0	26	0	471859200	76	5432
2026-01-06 04:55:25.11	268.81	6.11	-54.2	-57.7	14.1	6.04e-01	0	26	0	473956352	76	5636
2026-01-06 04:55:26.11	268.72	6.04	-54.2	-57.8	14.1	6.01e-01	0	26	0	475529216	76	5680
2026-01-06 04:55:27.12	268.64	5.97	-54.0	-57.4	14.2	6.03e-01	0	26	0	477626368	76	5456
2026-01-06 04:55:28.11	268.56	5.91	-54.2	-57.7	14.1	6.06e-01	0	26	0	479199232	76	5608
2026-01-06 04:55:29.12	268.47	5.84	-54.0	-57.4	14.2	6.03e-01	0	26	0	481296384	76	5457
2026-01-06 04:55:30.10	268.39	5.77	-54.0	-57.3	14.3	6.04e-01	0	26	0	482869248	76	5402
2026-01-06 04:55:31.10	268.31	5.70	-53.9	-57.2	14.3	6.03e-01	0	26	0	484966400	76	5328
2026-01-06 04:55:32.10	268.23	5.63	-53.8	-57.0	14.4	6.04e-01	0	26	0	487063552	76	5201
2026-01-06 04:55:33.09	268.15	5.57	-53.8	-57.0	14.5	6.04e-01	0	26	0	488636416	76	5163
2026-01-06 04:55:34.08	268.07	5.50	-53.6	-56.6	14.6	6.04e-01	0	26	0	490733568	76	4962
2026-01-06 04:55:35.07	267.99	5.43	-53.5	-56.6	14.6	6.02e-01	0	26	0	492306432	76	4936
2026-01-06 04:55:36.07	267.91	5.36	-52.9	-55.6	14.9	6.04e-01	0	26	0	494403584	75	4682
2026-01-06 04:55:37.07	267.83	5.30	-52.3	-54.7	15.0	6.01e-01	0	26	0	495976448	73	4749
2026-01-06 04:55:38.07	267.75	5.23	-52.1	-54.5	15.1	6.04e-01	0	26	0	498073600	73	4645
2026-01-06 04:55:39.07	267.67	5.16	-52.0	-54.4	15.1	6.04e-01	0	26	0	499646464	73	4567
2026-01-06 04:55:40.07	267.59	5.10	-51.6	-53.8	15.2	6.04e-01	0	26	0	501743616	72	4535
2026-01-06 04:55:41.06	267.51	5.03	-51.6	-53.8	15.2	6.07e-01	0	26	0	503840768	72	4525
2026-01-06 04:55:42.05	267.44	4.96	-58.0	-76.0	3.8	7.50e-01	0	26	104	504889344	83	30861
2026-01-06 04:55:43.06	267.36	4.90	-58.6	-77.9	3.8	7.45e-01	0	26	104	504889344	84	36165
2026-01-06 04:55:44.06	267.28	4.83	-58.8	-78.2	3.8	7.46e-01	0	26	104	504889344	85	35360
2026-01-06 04:55:45.05	267.20	4.76	-59.0	-78.3	3.8	7.49e-01	0	26	104	504889344	85	36012
2026-01-06 04:55:46.06	267.13	4.70	-59.1	-78.5	3.8	7.45e-01	0	26	104	504889344	85	36568
2026-01-06 04:55:47.06	267.05	4.63	-59.2	-78.6	3.8	7.43e-01	0	26	104	504889344	86	35165
2026-01-06 04:55:48.06	266.98	4.56	-59.3	-78.7	3.8	7.48e-01	0	26	104	504889344	86	35514
2026-01-06 04:55:49.06	266.90	4.50	-59.4	-78.8	3.8	7.45e-01	0	26	104	504889344	86	35795
2026-01-06 04:55:50.06	266.83	4.43	-59.5	-78.9	3.8	7.42e-01	0	26	104	504889344	86	36126
2026-01-06 04:55:51.06	266.75	4.37	-59.6	-79.0	3.8	7.46e-01	0	26	104	504889344	86	36605
2026-01-06 04:55:52.06	266.68	4.30	-59.6	-79.0	3.8	7.46e-01	0	26	104	504889344	87	34820
2026-01-06 04:55:53.06	266.61	4.24	-59.7	-79.1	3.8	7.51e-01	0	26	104	504889344	87	34974
2026-01-06 04:55:54.06	266.53	4.17	-59.7	-79.1	3.8	7.49e-01	0	26	104	504889344	87	35027
2026-01-06 04:55:55.06	266.46	4.11	-59.8	-79.2	3.8	7.50e-01	0	26	104	504889344	87	35398
2026-01-06 04:55:56.06	266.39	4.04	-59.8	-79.2	3.8	7.47e-01	0	26	104	504889344	87	35530
2026-01-06 04:55:57.06	266.32	3.98	-59.9	-79.3	3.8	7.47e-01	0	26	104	504889344	87	35709
2026-01-06 04:55:58.06	266.24	3.91	-59.9	-79.3	3.8	7.47e-01	0	26	104	504889344	87	35787
2026-01-06 04:55:59.07	266.17	3.85	-59.9	-79.3	3.8	7.47e-01	0	26	104	504889344	87	35991
2026-01-06 04:56:00.07	266.10	3.78	-60.0	-79.3	3.8	7.43e-01	0	26	104	504889344	87	35990
2026-01-06 04:56:01.07	266.03	3.72	-60.0	-79.4	3.8	7.46e-01	0	26	104	504889344	87	36140
2026-01-06 04:56:02.07	265.96	3.65	-60.0	-79.4	3.8	7.48e-01	0	26	104	504889344	87	36194
2026-01-06 04:56:03.07	265.89	3.59	-60.0	-79.3	3.8	7.50e-01	0	26	104	504889344	87	36105
2026-01-06 04:56:04.06	265.82	3.53	-59.9	-79.3	3.8	7.47e-01	0	26	104	504889344	87	36064
2026-01-06 04:56:05.06	265.75	3.46	-59.9	-79.3	3.8	7.48e-01	0	26	104	504889344	87	35987
2026-01-06 04:56:06.07	265.68	3.40	-59.9	-79.3	3.8	7.44e-01	0	26	104	504889344	87	35747
2026-01-06 04:56:07.07	265.61	3.34	-59.9	-79.3	3.8	7.48e-01	0	26	104	504889344	87	35738
2026-01-06 04:56:08.07	265.55	3.27	-59.8	-79.2	3.8	7.47e-01	0	26	104	504889344	87	35595
2026-01-06 04:56:09.07	265.48	3.21	-59.8	-79.2	3.8	7.47e-01	0	26	104	504889344	87	35578
2026-01-06 04:56:10.07	265.41	3.15	-59.8	-79.2	3.8	7.48e-01	0	26	104	504889344	87	35492
2026-01-06 04:56:11.07	265.34	3.08	-59.8	-79.2	3.8	7.45e-01	0	26	104	504889344	87	35447
2026-01-06 04:56:12.08	265.28	3.02	-59.8	-79.2	3.8	7.44e-01	0	26	104	504889344	87	35410
2026-01-06 04:56:13.07	265.21	2.96	-59.8	-79.2	3.8	7.45e-01	0	26	104	504889344	87	35370
2026-01-06 04:56:14.07	265.15	2.90	-59.8	-79.2	3.8	7.45e-01	0	26	104	504889344	87	35376
2026-01-06 04:56:15.07	265.08	2.83	-59.8	-79.2	3.8	7.51e-01	0	26	104	504889344	87	35348
2026-01-06 04:56:16.08	265.01	2.77	-59.8	-79.2	3.8	7.45e-01	0	26	104	504889344	87	35310
2026-01-06 04:56:17.08	264.95	2.71	-59.8	-79.2	3.8	7.48e-01	0	26	104	504889344	87	35319
2026-01-06 04:56:18.09	264.88	2.64	-59.8	-79.1	3.8	7.47e-01	0	26	104	504889344	87	35274
2026-01-06 04:56:19.08	264.82	2.58	-59.8	-79.1	3.8	7.45e-01	0	26	104	504889344	87	35191
2026-01-06 04:56:20.08	264.75	2.52	-59.8	-79.1	3.8	7.48e-01	0	26	104	504889344	87	35192
2026-01-06 04:56:21.08	264.69	2.46	-59.7	-79.1	3.8	7.47e-01	0	26	104	504889344	87	35222
2026-01-06 04:56:22.08	264.63	2.40	-59.7	-79.1	3.8	7.46e-01	0	26	104	504889344	87	35189
2026-01-06 04:56:23.07	264.56	2.34	-59.7	-79.1	3.8	7.46e-01	0	26	104	504889344	87	35202
2026-01-06 04:56:24.07	264.50	2.28	-59.7	-79.1	3.8	7.45e-01	0	26	104	504889344	87	35043
2026-01-06 04:56:25.07	264.44	2.21	-59.7	-79.1	3.8	7.48e-01	0	26	104	504889344	87	35084
2026-01-06 04:56:26.07	264.38	2.15	-59.7	-79.1	3.8	7.45e-01	0	26	104	504889344	87	35136
2026-01-06 04:56:27.07	264.31	2.09	-59.7	-79.1	3.8	7.46e-01	0	26	104	504889344	87	35062
2026-01-06 04:56:28.06	264.25	2.03	-59.7	-79.1	3.8	7.46e-01	0	26	104	504889344	87	35040
2026-01-06 04:56:29.05	264.19	1.97	-59.7	-79.1	3.8	7.48e-01	0	26	104	504889344	87	35063

#Closed at: 2026-01-06 04:56:29
#Recorded file [504 MB]: D:/lorett/data/31004_260106_074451.dat