passes_logs/2026/01/06/R3.2S_Murmansk/R3.2S_Murmansk__20260106_024053_NOAA_20_JPSS-1_rec.log

#Pass ID: 20260106_024053_NOAA 20 (JPSS-1)
#Satellite: NOAA 20 (JPSS-1)
#Configuration: NOAA 20
#almurnet v.1.7.20251203
#Start time: 2026-01-06 02:40:53

#Version: 2.2.20231116
#Station: R3.2S_Murmansk
#Location: 33.079688 lon 68.888172 lat
#TLE: 1 43013U 17073A   26005.46207808  .00000128  00000+0  81791-4 0  9997
#TLE: 2 43013  98.7627 306.5027 0001826  53.0458 307.0885 14.19533487421381

#Time	Az	El	Level	Level2	SNR	BER	BlckErr	Temp	State	Recorded	gain1	gain2
2026-01-06 02:40:53.85	35.18	2.04	-57.9	-73.9	3.8	1.49e+00	0	24	0	0	82	22011
2026-01-06 02:40:54.85	35.14	2.10	-57.8	-73.8	3.8	1.49e+00	0	24	104	0	80	24627
2026-01-06 02:40:55.85	35.10	2.16	-57.8	-73.8	3.8	1.49e+00	0	24	104	0	80	24561
2026-01-06 02:40:56.85	35.06	2.23	-57.8	-73.8	3.8	1.49e+00	0	24	104	0	80	24628
2026-01-06 02:40:57.85	35.01	2.29	-57.8	-73.8	3.8	1.49e+00	0	24	104	0	80	24549
2026-01-06 02:40:58.85	34.97	2.35	-57.8	-73.8	3.8	1.49e+00	0	24	104	0	80	24600
2026-01-06 02:40:59.84	34.93	2.41	-57.8	-73.8	3.8	1.49e+00	0	24	104	0	80	24646
2026-01-06 02:41:00.83	34.89	2.47	-57.8	-73.8	3.8	1.49e+00	0	24	104	0	80	24567
2026-01-06 02:41:01.83	34.85	2.53	-57.8	-73.8	3.8	1.49e+00	0	24	104	0	80	24596
2026-01-06 02:41:02.83	34.80	2.59	-57.8	-73.8	3.8	1.49e+00	0	24	104	0	80	24475
2026-01-06 02:41:03.78	34.76	2.65	-57.8	-73.8	3.8	1.49e+00	0	24	104	0	80	24512
2026-01-06 02:41:04.77	34.72	2.71	-57.8	-73.8	3.8	1.49e+00	0	24	104	0	80	24492
2026-01-06 02:41:05.77	34.67	2.78	-57.8	-73.8	3.8	1.49e+00	0	24	104	0	80	24441
2026-01-06 02:41:06.76	34.63	2.84	-57.8	-73.8	3.9	1.49e+00	0	24	104	0	80	24424
2026-01-06 02:41:07.75	34.59	2.90	-57.8	-73.8	3.8	1.49e+00	0	24	104	0	80	24434
2026-01-06 02:41:08.75	34.54	2.96	-57.8	-73.8	3.8	1.49e+00	0	25	104	0	80	24440
2026-01-06 02:41:09.75	34.50	3.03	-57.8	-73.7	3.8	1.49e+00	0	25	104	0	80	24383
2026-01-06 02:41:10.75	34.45	3.09	-57.8	-73.7	3.8	1.49e+00	0	25	104	0	80	24378
2026-01-06 02:41:11.75	34.41	3.15	-57.8	-73.8	3.8	1.49e+00	0	25	104	0	80	24519
2026-01-06 02:41:12.75	34.36	3.22	-57.8	-73.8	3.8	1.49e+00	0	25	104	0	80	24557
2026-01-06 02:41:13.75	34.32	3.28	-57.8	-73.8	3.8	1.49e+00	0	25	104	0	80	24555
2026-01-06 02:41:14.74	34.27	3.34	-57.8	-73.8	3.8	1.49e+00	0	25	104	0	80	24618
2026-01-06 02:41:15.74	34.23	3.40	-57.8	-73.8	3.8	1.49e+00	0	25	104	0	80	24545
2026-01-06 02:41:16.73	34.18	3.47	-57.8	-73.8	3.8	1.49e+00	0	25	104	0	80	24517
2026-01-06 02:41:17.73	34.14	3.53	-57.8	-73.8	3.8	1.49e+00	0	25	104	0	80	24470
2026-01-06 02:41:18.72	34.09	3.59	-57.8	-73.8	3.8	1.49e+00	0	25	104	0	80	24435
2026-01-06 02:41:19.71	34.04	3.66	-57.8	-73.8	3.8	1.49e+00	0	25	104	0	80	24590
2026-01-06 02:41:20.71	34.00	3.72	-57.8	-73.8	3.8	1.49e+00	0	25	104	0	80	24465
2026-01-06 02:41:21.70	33.95	3.79	-57.8	-73.7	3.8	1.49e+00	0	25	104	0	80	24260
2026-01-06 02:41:22.70	33.90	3.85	-57.8	-73.6	3.8	1.49e+00	0	25	104	0	80	24055
2026-01-06 02:41:23.70	33.86	3.92	-57.8	-73.5	3.8	1.49e+00	0	25	104	0	80	23637
2026-01-06 02:41:24.70	33.81	3.98	-57.8	-73.2	3.8	1.49e+00	0	25	104	0	80	22999
2026-01-06 02:41:25.69	33.76	4.04	-57.8	-72.9	3.8	1.49e+00	0	25	104	0	80	22202
2026-01-06 02:41:26.68	33.71	4.11	-57.8	-72.7	3.8	1.49e+00	0	25	104	0	80	21532
2026-01-06 02:41:27.68	33.66	4.17	-57.8	-72.4	3.8	1.49e+00	0	25	104	0	80	20990
2026-01-06 02:41:28.68	33.62	4.24	-57.7	-72.1	3.8	1.49e+00	0	25	104	0	80	20142
2026-01-06 02:41:29.67	33.57	4.30	-57.7	-71.6	3.9	1.49e+00	0	25	104	0	80	19009
2026-01-06 02:41:30.66	33.52	4.37	-57.7	-71.1	3.9	1.46e+00	0	25	104	0	80	18025
2026-01-06 02:41:31.67	33.47	4.43	-57.7	-70.5	4.1	1.43e+00	0	25	0	0	80	16780
2026-01-06 02:41:32.66	33.42	4.50	-57.6	-69.8	4.3	1.38e+00	52	25	0	0	80	15439
2026-01-06 02:41:33.67	33.37	4.57	-57.6	-68.9	4.6	1.13e+00	0	25	0	1048576	80	14016
2026-01-06 02:41:34.66	33.32	4.63	-57.5	-68.3	4.9	7.99e-01	0	25	0	3145728	80	13044
2026-01-06 02:41:35.66	33.27	4.70	-57.4	-67.6	5.3	5.82e-01	0	25	0	5242880	80	11978
2026-01-06 02:41:36.67	33.22	4.76	-57.4	-66.8	5.8	4.35e-01	0	25	0	7340032	80	10932
2026-01-06 02:41:37.66	33.17	4.83	-57.3	-66.6	5.9	3.18e-01	0	25	0	9437184	80	10665
2026-01-06 02:41:38.66	33.12	4.90	-57.3	-66.1	6.2	2.55e-01	0	25	0	10485760	80	10072
2026-01-06 02:41:39.67	33.06	4.96	-57.3	-66.2	6.2	2.25e-01	0	25	0	12582912	80	10214
2026-01-06 02:41:40.67	33.01	5.03	-57.2	-65.8	6.4	2.24e-01	0	25	0	14680064	80	9782
2026-01-06 02:41:41.67	32.96	5.10	-57.4	-66.3	6.2	1.99e-01	0	25	0	16777216	80	10315
2026-01-06 02:41:42.67	32.91	5.17	-56.3	-61.4	10.2	1.53e-01	0	25	0	17825792	79	6229
2026-01-06 02:41:43.67	32.86	5.23	-57.5	-69.0	4.7	1.99e-03	0	25	0	19922944	80	14079
2026-01-06 02:41:44.66	32.80	5.30	-57.4	-65.6	6.8	5.08e-01	0	25	0	19922944	80	9552
2026-01-06 02:41:45.66	32.75	5.37	-56.3	-61.5	10.4	1.76e-02	0	25	0	22020096	78	6659
2026-01-06 02:41:46.66	32.70	5.44	-56.0	-60.8	10.8	1.45e-02	0	25	0	23068672	78	6161
2026-01-06 02:41:47.66	32.65	5.50	-55.8	-60.1	11.4	1.53e-04	0	25	0	25165824	78	5666
2026-01-06 02:41:48.65	32.59	5.57	-55.6	-59.7	11.5	2.13e-05	0	25	0	27262976	77	5764
2026-01-06 02:41:49.65	32.54	5.64	-55.6	-59.6	11.7	1.60e-05	0	25	0	29360128	77	5713
2026-01-06 02:41:50.64	32.48	5.71	-55.2	-58.8	12.3	5.30e-06	0	25	0	30408704	77	5163
2026-01-06 02:41:51.65	32.43	5.78	-54.8	-58.0	12.8	0.00e+00	0	25	0	32505856	76	5004
2026-01-06 02:41:52.64	32.37	5.84	-54.7	-57.8	12.9	0.00e+00	0	25	0	34603008	76	4896
2026-01-06 02:41:53.64	32.32	5.91	-54.3	-57.3	13.2	0.00e+00	0	25	0	36700160	75	4902
2026-01-06 02:41:54.63	32.27	5.98	-54.3	-57.2	13.2	0.00e+00	0	25	0	38797312	75	4856
2026-01-06 02:41:55.62	32.21	6.05	-54.3	-57.3	13.2	0.00e+00	0	25	0	39845888	75	4882
2026-01-06 02:41:56.61	32.15	6.12	-54.3	-57.2	13.2	0.00e+00	0	25	0	41943040	75	4850
2026-01-06 02:41:57.61	32.10	6.19	-54.3	-57.2	13.3	0.00e+00	0	25	0	44040192	75	4823
2026-01-06 02:41:58.61	32.04	6.26	-54.3	-57.2	13.2	0.00e+00	0	25	0	46137344	75	4840
2026-01-06 02:41:59.61	31.99	6.33	-54.3	-57.2	13.2	0.00e+00	0	26	0	47185920	75	4848
2026-01-06 02:42:00.61	31.93	6.40	-54.3	-57.2	13.3	0.00e+00	0	25	0	49283072	75	4824
2026-01-06 02:42:01.60	31.87	6.47	-54.1	-56.9	13.3	0.00e+00	0	26	0	51380224	74	4983
2026-01-06 02:42:02.59	31.81	6.54	-54.2	-57.1	13.2	0.00e+00	0	26	0	53477376	74	5049
2026-01-06 02:42:03.60	31.76	6.61	-54.2	-57.0	13.3	0.00e+00	0	25	0	55574528	74	5020
2026-01-06 02:42:04.59	31.70	6.68	-54.2	-57.1	13.2	0.00e+00	0	26	0	56623104	74	5055
2026-01-06 02:42:05.58	31.64	6.75	-54.0	-56.8	13.4	0.00e+00	0	25	0	58720256	74	4871
2026-01-06 02:42:06.57	31.58	6.82	-54.0	-56.7	13.5	0.00e+00	0	26	0	60817408	74	4854
2026-01-06 02:42:07.57	31.52	6.89	-54.1	-56.8	13.4	0.00e+00	0	26	0	62914560	74	4896
2026-01-06 02:42:08.57	31.46	6.96	-54.1	-56.8	13.4	0.00e+00	0	25	0	63963136	74	4895
2026-01-06 02:42:09.57	31.40	7.03	-54.0	-56.7	13.5	0.00e+00	0	26	0	66060288	74	4838
2026-01-06 02:42:10.57	31.34	7.10	-54.0	-56.7	13.5	0.00e+00	0	25	0	68157440	74	4817
2026-01-06 02:42:11.57	31.28	7.17	-53.9	-56.5	13.6	0.00e+00	0	26	0	70254592	74	4757
2026-01-06 02:42:12.56	31.22	7.25	-53.9	-56.5	13.6	0.00e+00	0	26	0	72351744	74	4715
2026-01-06 02:42:13.57	31.16	7.32	-54.0	-56.7	13.5	0.00e+00	0	25	0	73400320	74	4830
2026-01-06 02:42:14.55	31.10	7.39	-53.9	-56.5	13.7	0.00e+00	0	26	0	75497472	74	4709
2026-01-06 02:42:15.55	31.04	7.46	-53.8	-56.4	13.7	0.00e+00	0	26	0	77594624	74	4671
2026-01-06 02:42:16.55	30.98	7.53	-53.9	-56.5	13.7	0.00e+00	0	26	0	79691776	74	4735
2026-01-06 02:42:17.54	30.92	7.61	-53.8	-56.3	13.8	0.00e+00	0	26	0	81788928	74	4627
2026-01-06 02:42:18.54	30.85	7.68	-53.7	-56.2	13.8	0.00e+00	0	26	0	82837504	74	4554
2026-01-06 02:42:19.55	30.79	7.75	-53.7	-56.2	13.8	0.00e+00	0	26	0	84934656	74	4591
2026-01-06 02:42:20.54	30.73	7.83	-53.7	-56.2	13.8	0.00e+00	0	26	0	87031808	74	4581
2026-01-06 02:42:21.55	30.66	7.90	-53.8	-56.2	13.8	0.00e+00	0	26	0	89128960	74	4590
2026-01-06 02:42:22.55	30.60	7.97	-53.7	-56.2	13.8	0.00e+00	0	25	0	91226112	74	4569
2026-01-06 02:42:23.54	30.54	8.05	-53.6	-56.0	13.8	0.00e+00	0	26	0	92274688	73	4715
2026-01-06 02:42:24.54	30.47	8.12	-53.6	-56.0	13.8	0.00e+00	0	26	0	94371840	73	4746
2026-01-06 02:42:25.53	30.41	8.19	-53.6	-56.0	13.8	0.00e+00	0	26	0	96468992	73	4747
2026-01-06 02:42:26.52	30.34	8.27	-53.6	-56.1	13.8	0.00e+00	0	26	0	98566144	73	4773
2026-01-06 02:42:27.52	30.28	8.34	-53.6	-56.0	13.8	0.00e+00	0	26	0	99614720	73	4729
2026-01-06 02:42:28.51	30.21	8.42	-53.6	-56.0	13.8	0.00e+00	0	26	0	101711872	73	4709
2026-01-06 02:42:29.51	30.14	8.49	-53.5	-55.9	13.9	0.00e+00	0	26	0	103809024	73	4694
2026-01-06 02:42:30.51	30.08	8.57	-53.6	-55.9	13.9	0.00e+00	0	26	0	105906176	73	4705
2026-01-06 02:42:31.51	30.01	8.64	-53.6	-56.0	13.9	0.00e+00	0	26	0	108003328	73	4718
2026-01-06 02:42:32.51	29.94	8.72	-53.6	-56.1	13.8	0.00e+00	0	26	0	109051904	73	4765
2026-01-06 02:42:33.51	29.87	8.79	-53.6	-56.0	13.8	0.00e+00	0	26	0	111149056	73	4727
2026-01-06 02:42:34.51	29.81	8.87	-53.6	-56.0	13.8	0.00e+00	0	25	0	113246208	73	4739
2026-01-06 02:42:35.50	29.74	8.94	-53.6	-56.0	13.8	0.00e+00	0	26	0	115343360	73	4749
2026-01-06 02:42:36.50	29.67	9.02	-53.6	-56.0	13.8	0.00e+00	0	26	0	116391936	73	4754
2026-01-06 02:42:37.50	29.60	9.10	-53.6	-56.0	13.8	0.00e+00	0	26	0	118489088	73	4745
2026-01-06 02:42:38.50	29.53	9.17	-53.7	-56.2	13.8	0.00e+00	0	26	0	120586240	73	4823
2026-01-06 02:42:39.50	29.46	9.25	-53.6	-56.0	13.9	0.00e+00	0	26	0	122683392	73	4722
2026-01-06 02:42:40.49	29.39	9.33	-53.6	-55.9	13.9	0.00e+00	0	26	0	124780544	73	4691
2026-01-06 02:42:41.50	29.32	9.40	-53.6	-55.9	13.9	0.00e+00	0	26	0	125829120	73	4698
2026-01-06 02:42:42.51	29.25	9.48	-53.6	-56.0	13.9	0.00e+00	0	26	0	127926272	73	4738
2026-01-06 02:42:43.51	29.17	9.56	-53.7	-56.1	13.8	0.00e+00	0	26	0	130023424	73	4777
2026-01-06 02:42:44.51	29.10	9.64	-53.7	-56.1	13.8	0.00e+00	0	26	0	132120576	73	4803
2026-01-06 02:42:45.51	29.03	9.72	-53.7	-56.1	13.8	0.00e+00	0	26	0	134217728	73	4779
2026-01-06 02:42:46.51	28.96	9.79	-53.6	-55.9	13.9	0.00e+00	0	26	0	135266304	73	4683
2026-01-06 02:42:47.50	28.88	9.87	-53.6	-55.9	13.9	0.00e+00	0	26	0	137363456	73	4703
2026-01-06 02:42:48.48	28.81	9.95	-53.5	-55.8	14.0	0.00e+00	0	26	0	139460608	73	4631
2026-01-06 02:42:49.48	28.74	10.03	-53.5	-55.9	13.9	0.00e+00	0	26	0	141557760	73	4674
2026-01-06 02:42:50.48	28.66	10.11	-53.5	-55.8	14.0	0.00e+00	0	26	0	142606336	73	4641
2026-01-06 02:42:51.48	28.59	10.18	-53.5	-55.9	14.0	0.00e+00	0	26	0	144703488	73	4665
2026-01-06 02:42:52.47	28.51	10.26	-53.5	-55.9	14.0	0.00e+00	0	26	0	146800640	73	4659
2026-01-06 02:42:53.47	28.44	10.34	-53.5	-55.9	14.0	0.00e+00	0	26	0	148897792	73	4656
2026-01-06 02:42:54.47	28.36	10.42	-53.5	-55.8	14.0	0.00e+00	0	26	0	150994944	73	4609
2026-01-06 02:42:55.47	28.28	10.50	-53.5	-55.9	14.0	0.00e+00	0	26	0	152043520	73	4654
2026-01-06 02:42:56.47	28.21	10.58	-53.6	-56.0	13.9	0.00e+00	0	26	0	154140672	73	4729
2026-01-06 02:42:57.46	28.13	10.66	-53.5	-55.8	14.0	0.00e+00	0	26	0	156237824	73	4648
2026-01-06 02:42:58.46	28.05	10.74	-53.6	-55.9	13.9	0.00e+00	0	26	0	158334976	73	4671
2026-01-06 02:42:59.46	27.97	10.82	-53.6	-55.9	13.9	0.00e+00	0	26	0	160432128	73	4671
2026-01-06 02:43:00.46	27.89	10.90	-53.5	-55.8	14.0	0.00e+00	0	26	0	161480704	73	4602
2026-01-06 02:43:01.46	27.81	10.99	-53.4	-55.6	14.1	0.00e+00	0	26	0	163577856	73	4539
2026-01-06 02:43:02.45	27.74	11.07	-53.4	-55.6	14.1	0.00e+00	0	26	0	165675008	73	4543
2026-01-06 02:43:03.45	27.66	11.15	-53.4	-55.6	14.1	0.00e+00	0	26	0	167772160	73	4510
2026-01-06 02:43:04.45	27.57	11.23	-53.3	-55.5	14.1	0.00e+00	0	26	0	168820736	73	4493
2026-01-06 02:43:05.45	27.49	11.31	-53.3	-55.5	14.2	0.00e+00	0	26	0	170917888	73	4492
2026-01-06 02:43:06.45	27.41	11.39	-53.4	-55.6	14.1	0.00e+00	0	26	0	173015040	73	4544
2026-01-06 02:43:07.44	27.33	11.48	-53.3	-55.5	14.2	0.00e+00	0	26	0	175112192	73	4485
2026-01-06 02:43:08.43	27.25	11.56	-53.3	-55.4	14.2	0.00e+00	0	26	0	177209344	73	4425
2026-01-06 02:43:09.42	27.17	11.64	-53.3	-55.5	14.2	0.00e+00	0	26	0	178257920	73	4457
2026-01-06 02:43:10.41	27.08	11.72	-53.3	-55.5	14.2	0.00e+00	0	26	0	180355072	73	4484
2026-01-06 02:43:11.41	27.00	11.81	-53.2	-55.4	14.3	0.00e+00	0	26	0	182452224	73	4393
2026-01-06 02:43:12.41	26.91	11.89	-53.2	-55.3	14.3	0.00e+00	0	26	0	184549376	73	4380
2026-01-06 02:43:13.41	26.83	11.97	-53.2	-55.4	14.2	0.00e+00	0	26	0	185597952	73	4417
2026-01-06 02:43:14.41	26.74	12.06	-53.3	-55.5	14.2	0.00e+00	0	26	0	187695104	73	4453
2026-01-06 02:43:15.41	26.66	12.14	-53.3	-55.5	14.2	0.00e+00	0	26	0	189792256	73	4493
2026-01-06 02:43:16.41	26.57	12.23	-53.3	-55.4	14.2	0.00e+00	0	26	0	191889408	73	4432
2026-01-06 02:43:17.41	26.48	12.31	-53.2	-55.3	14.3	0.00e+00	0	26	0	193986560	73	4391
2026-01-06 02:43:18.40	26.40	12.40	-53.2	-55.4	14.1	0.00e+00	0	26	0	195035136	72	4673
2026-01-06 02:43:19.40	26.31	12.48	-53.2	-55.4	14.1	0.00e+00	0	26	0	197132288	72	4662
2026-01-06 02:43:20.40	26.22	12.57	-53.1	-55.2	14.2	0.00e+00	0	26	0	199229440	72	4588
2026-01-06 02:43:21.40	26.13	12.65	-53.2	-55.3	14.1	0.00e+00	0	26	0	201326592	72	4640
2026-01-06 02:43:22.40	26.04	12.74	-53.2	-55.3	14.1	0.00e+00	0	26	0	203423744	72	4645
2026-01-06 02:43:23.39	25.95	12.82	-53.2	-55.4	14.1	0.00e+00	0	26	0	204472320	72	4658
2026-01-06 02:43:24.38	25.86	12.91	-53.2	-55.3	14.1	0.00e+00	0	26	0	206569472	72	4631
2026-01-06 02:43:25.38	25.77	12.99	-53.2	-55.4	14.1	0.00e+00	0	26	0	208666624	72	4660
2026-01-06 02:43:26.38	25.67	13.08	-53.2	-55.4	14.1	0.00e+00	0	26	0	210763776	72	4659
2026-01-06 02:43:27.38	25.58	13.17	-53.1	-55.1	14.3	0.00e+00	0	26	0	211812352	72	4540
2026-01-06 02:43:28.37	25.49	13.25	-53.1	-55.2	14.3	0.00e+00	0	26	0	213909504	72	4550
2026-01-06 02:43:29.37	25.40	13.34	-53.1	-55.2	14.2	0.00e+00	0	26	0	216006656	72	4581
2026-01-06 02:43:30.37	25.30	13.43	-53.0	-55.1	14.3	0.00e+00	0	26	0	218103808	72	4508
2026-01-06 02:43:31.36	25.21	13.52	-53.0	-55.0	14.3	0.00e+00	0	26	0	220200960	72	4492
2026-01-06 02:43:32.35	25.11	13.60	-53.0	-55.0	14.3	0.00e+00	0	26	0	221249536	72	4491
2026-01-06 02:43:33.35	25.02	13.69	-53.0	-55.0	14.3	0.00e+00	0	26	0	223346688	72	4465
2026-01-06 02:43:34.35	24.92	13.78	-53.0	-55.0	14.3	0.00e+00	0	26	0	225443840	72	4467
2026-01-06 02:43:35.35	24.82	13.87	-53.0	-55.0	14.3	0.00e+00	0	26	0	227540992	72	4483
2026-01-06 02:43:36.35	24.72	13.96	-52.9	-54.9	14.4	0.00e+00	0	26	0	228589568	72	4407
2026-01-06 02:43:37.34	24.63	14.05	-53.0	-55.0	14.3	0.00e+00	0	26	0	230686720	72	4469
2026-01-06 02:43:38.34	24.53	14.14	-53.0	-55.0	14.3	0.00e+00	0	26	0	232783872	72	4457
2026-01-06 02:43:39.33	24.43	14.23	-53.0	-55.0	14.3	0.00e+00	0	26	0	234881024	72	4477
2026-01-06 02:43:40.33	24.33	14.32	-53.0	-55.0	14.4	0.00e+00	0	26	0	236978176	72	4454
2026-01-06 02:43:41.33	24.23	14.41	-52.9	-54.9	14.4	0.00e+00	0	26	0	238026752	72	4439
2026-01-06 02:43:42.33	24.12	14.50	-52.9	-54.9	14.4	0.00e+00	0	26	0	240123904	72	4397
2026-01-06 02:43:43.33	24.02	14.59	-52.8	-54.8	14.5	0.00e+00	0	26	0	242221056	72	4352
2026-01-06 02:43:44.34	23.92	14.68	-52.9	-54.8	14.4	0.00e+00	0	26	0	244318208	72	4391
2026-01-06 02:43:45.35	23.81	14.77	-52.9	-54.9	14.4	0.00e+00	0	26	0	246415360	72	4405
2026-01-06 02:43:46.34	23.71	14.86	-52.9	-54.9	14.4	0.00e+00	0	26	0	247463936	72	4417
2026-01-06 02:43:47.34	23.60	14.95	-52.9	-54.9	14.4	0.00e+00	0	26	0	249561088	72	4394
2026-01-06 02:43:48.34	23.50	15.05	-52.9	-54.9	14.4	0.00e+00	0	26	0	251658240	72	4427
2026-01-06 02:43:49.33	23.39	15.14	-52.8	-54.8	14.5	0.00e+00	0	26	0	253755392	72	4364
2026-01-06 02:43:50.33	23.29	15.23	-52.8	-54.8	14.5	0.00e+00	0	26	0	254803968	72	4372
2026-01-06 02:43:51.33	23.18	15.32	-52.9	-54.8	14.4	0.00e+00	0	26	0	256901120	72	4376
2026-01-06 02:43:52.33	23.07	15.42	-52.9	-54.8	14.5	0.00e+00	0	26	0	258998272	72	4380
2026-01-06 02:43:53.33	22.96	15.51	-52.9	-54.9	14.4	0.00e+00	0	26	0	261095424	72	4412
2026-01-06 02:43:54.33	22.85	15.60	-52.9	-54.8	14.5	0.00e+00	0	26	0	263192576	72	4384
2026-01-06 02:43:55.34	22.74	15.70	-52.8	-54.7	14.5	0.00e+00	0	26	0	264241152	72	4314
2026-01-06 02:43:56.33	22.63	15.79	-52.8	-54.7	14.5	0.00e+00	0	26	0	266338304	72	4336
2026-01-06 02:43:57.33	22.52	15.89	-52.9	-54.9	14.4	0.00e+00	0	26	0	268435456	72	4396
2026-01-06 02:43:58.33	22.40	15.98	-52.9	-54.9	14.4	0.00e+00	0	26	0	270532608	72	4396
2026-01-06 02:43:59.34	22.29	16.08	-52.9	-54.8	14.4	0.00e+00	0	26	0	272629760	72	4391
2026-01-06 02:44:00.33	22.18	16.17	-52.9	-54.8	14.4	0.00e+00	0	26	0	273678336	72	4390
2026-01-06 02:44:01.33	22.06	16.27	-52.9	-54.9	14.4	0.00e+00	0	26	0	275775488	72	4413
2026-01-06 02:44:02.32	21.95	16.36	-52.9	-54.9	14.4	0.00e+00	0	26	0	277872640	72	4416
2026-01-06 02:44:03.32	21.83	16.46	-52.9	-54.9	14.4	0.00e+00	0	26	0	279969792	72	4411
2026-01-06 02:44:04.31	21.71	16.55	-52.9	-54.8	14.5	0.00e+00	0	26	0	281018368	72	4374
2026-01-06 02:44:05.30	21.60	16.65	-52.8	-54.8	14.5	0.00e+00	0	26	0	283115520	72	4364
2026-01-06 02:44:06.31	21.48	16.74	-52.8	-54.8	14.4	0.00e+00	0	26	0	285212672	72	4368
2026-01-06 02:44:07.30	21.36	16.84	-52.9	-54.9	14.4	0.00e+00	0	26	0	287309824	72	4394
2026-01-06 02:44:08.30	21.24	16.94	-52.9	-54.9	14.4	0.00e+00	0	26	0	289406976	72	4424
2026-01-06 02:44:09.29	21.12	17.03	-52.8	-54.7	14.5	0.00e+00	0	26	0	290455552	72	4309
2026-01-06 02:44:10.28	21.00	17.13	-52.7	-54.7	14.5	0.00e+00	0	26	0	292552704	72	4294
2026-01-06 02:44:11.27	20.88	17.23	-52.8	-54.7	14.5	0.00e+00	0	26	0	294649856	72	4311
2026-01-06 02:44:12.26	20.75	17.32	-52.8	-54.7	14.5	0.00e+00	0	26	0	296747008	72	4329
2026-01-06 02:44:13.26	20.63	17.42	-52.7	-54.7	14.6	0.00e+00	0	26	0	297795584	72	4296
2026-01-06 02:44:14.26	20.50	17.52	-52.7	-54.6	14.6	0.00e+00	0	26	0	299892736	72	4276
2026-01-06 02:44:15.25	20.38	17.62	-52.7	-54.6	14.5	0.00e+00	0	26	0	301989888	72	4290
2026-01-06 02:44:16.25	20.25	17.72	-52.8	-54.7	14.5	0.00e+00	0	26	0	304087040	72	4313
2026-01-06 02:44:17.25	20.13	17.82	-52.7	-54.6	14.5	0.00e+00	0	26	0	306184192	71	4515
2026-01-06 02:44:18.24	20.00	17.91	-52.7	-54.6	14.5	0.00e+00	0	26	0	307232768	71	4495
2026-01-06 02:44:19.24	19.87	18.01	-52.7	-54.6	14.4	0.00e+00	0	26	0	309329920	71	4535
2026-01-06 02:44:20.23	19.74	18.11	-52.7	-54.6	14.4	0.00e+00	0	26	0	311427072	71	4536
2026-01-06 02:44:21.23	19.61	18.21	-52.7	-54.6	14.4	0.00e+00	0	26	0	313524224	71	4537
2026-01-06 02:44:22.23	19.48	18.31	-52.8	-54.7	14.4	0.00e+00	0	26	0	314572800	71	4583
2026-01-06 02:44:23.23	19.34	18.42	-52.8	-54.8	14.4	0.00e+00	0	26	0	316669952	71	4601
2026-01-06 02:44:24.23	19.21	18.52	-52.9	-54.9	14.3	0.00e+00	0	26	0	318767104	71	4681
2026-01-06 02:44:25.23	19.07	18.62	-52.9	-54.9	14.3	0.00e+00	0	26	0	320864256	71	4652
2026-01-06 02:44:26.22	18.94	18.72	-53.0	-55.0	14.3	0.00e+00	0	26	0	322961408	71	4733
2026-01-06 02:44:27.21	18.80	18.82	-52.9	-54.9	14.3	0.00e+00	0	26	0	324009984	71	4690
2026-01-06 02:44:28.21	18.67	18.92	-53.0	-55.0	14.3	0.00e+00	0	26	0	326107136	71	4724
2026-01-06 02:44:29.21	18.53	19.02	-52.9	-54.9	14.3	0.00e+00	0	26	0	328204288	71	4673
2026-01-06 02:44:30.20	18.39	19.12	-53.0	-55.0	14.3	0.00e+00	0	26	0	330301440	71	4731
2026-01-06 02:44:31.20	18.25	19.23	-53.2	-55.2	14.2	0.00e+00	0	26	0	332398592	71	4849
2026-01-06 02:44:32.20	18.11	19.33	-53.2	-55.2	14.2	0.00e+00	0	26	0	333447168	71	4865
2026-01-06 02:44:33.20	17.96	19.43	-53.2	-55.3	14.2	0.00e+00	0	26	0	335544320	71	4900
2026-01-06 02:44:34.20	17.82	19.54	-53.2	-55.3	14.2	0.00e+00	0	26	0	337641472	71	4873
2026-01-06 02:44:35.19	17.68	19.64	-53.3	-55.3	14.1	0.00e+00	0	26	0	339738624	71	4925
2026-01-06 02:44:36.19	17.53	19.74	-53.4	-55.5	14.0	0.00e+00	0	26	0	341835776	71	5000
2026-01-06 02:44:37.19	17.39	19.85	-53.4	-55.5	14.2	0.00e+00	0	26	0	342884352	72	4706
2026-01-06 02:44:38.19	17.24	19.95	-53.4	-55.5	14.2	0.00e+00	0	26	0	344981504	72	4708
2026-01-06 02:44:39.19	17.09	20.06	-53.5	-55.6	14.1	0.00e+00	0	26	0	347078656	72	4799
2026-01-06 02:44:40.18	16.94	20.16	-53.5	-55.6	14.1	0.00e+00	0	26	0	349175808	72	4801
2026-01-06 02:44:41.17	16.79	20.27	-53.5	-55.6	14.1	0.00e+00	0	26	0	350224384	72	4772
2026-01-06 02:44:42.16	16.64	20.37	-53.5	-55.6	14.1	0.00e+00	0	26	0	352321536	72	4795
2026-01-06 02:44:43.16	16.49	20.47	-53.6	-55.7	14.0	0.00e+00	0	26	0	354418688	72	4860
2026-01-06 02:44:44.16	16.34	20.58	-53.6	-55.7	14.0	0.00e+00	0	26	0	356515840	72	4869
2026-01-06 02:44:45.15	16.18	20.69	-53.4	-55.5	14.2	0.00e+00	0	26	0	358612992	72	4740
2026-01-06 02:44:46.15	16.03	20.79	-53.3	-55.4	14.2	0.00e+00	0	26	0	359661568	72	4681
2026-01-06 02:44:47.15	15.87	20.90	-53.4	-55.4	14.2	0.00e+00	0	26	0	361758720	72	4704
2026-01-06 02:44:48.15	15.71	21.01	-53.3	-55.4	14.2	0.00e+00	0	26	0	363855872	72	4660
2026-01-06 02:44:49.15	15.55	21.11	-53.2	-55.2	14.3	0.00e+00	0	26	0	365953024	72	4567
2026-01-06 02:44:50.14	15.39	21.22	-53.2	-55.2	14.3	0.00e+00	0	26	0	367001600	72	4559
2026-01-06 02:44:51.14	15.23	21.33	-53.1	-55.1	14.3	0.00e+00	0	26	0	369098752	72	4532
2026-01-06 02:44:52.13	15.07	21.43	-53.1	-55.0	14.4	0.00e+00	0	26	0	371195904	72	4475
2026-01-06 02:44:53.12	14.91	21.54	-53.0	-54.9	14.4	0.00e+00	0	26	0	373293056	72	4430
2026-01-06 02:44:54.12	14.74	21.65	-53.0	-54.9	14.5	0.00e+00	0	26	0	375390208	72	4412
2026-01-06 02:44:55.12	14.58	21.75	-53.0	-54.9	14.4	0.00e+00	0	26	0	376438784	72	4435
2026-01-06 02:44:56.11	14.41	21.86	-53.0	-54.9	14.5	0.00e+00	0	26	0	378535936	72	4428
2026-01-06 02:44:57.12	14.24	21.97	-52.9	-54.8	14.5	0.00e+00	0	26	0	380633088	72	4389
2026-01-06 02:44:58.11	14.07	22.08	-52.9	-54.8	14.5	0.00e+00	0	26	0	382730240	72	4364
2026-01-06 02:44:59.11	13.90	22.19	-53.0	-54.9	14.5	0.00e+00	0	26	0	383778816	72	4410
2026-01-06 02:45:00.11	13.73	22.30	-52.9	-54.8	14.5	0.00e+00	0	26	0	385875968	72	4378
2026-01-06 02:45:01.10	13.56	22.41	-52.9	-54.9	14.5	0.00e+00	0	26	0	387973120	72	4399
2026-01-06 02:45:02.09	13.39	22.51	-52.9	-54.8	14.5	0.00e+00	0	26	0	390070272	72	4380
2026-01-06 02:45:03.08	13.21	22.62	-53.0	-55.0	14.4	0.00e+00	0	26	0	392167424	72	4443
2026-01-06 02:45:04.06	13.04	22.73	-52.9	-54.8	14.5	0.00e+00	0	26	0	393216000	72	4362
2026-01-06 02:45:05.05	12.86	22.84	-52.9	-54.8	14.5	0.00e+00	0	26	0	395313152	72	4386
2026-01-06 02:45:06.05	12.68	22.95	-52.9	-54.8	14.5	0.00e+00	0	26	0	397410304	72	4371
2026-01-06 02:45:07.04	12.50	23.06	-53.1	-55.0	14.4	0.00e+00	0	26	0	399507456	72	4481
2026-01-06 02:45:08.04	12.32	23.17	-53.0	-54.9	14.5	0.00e+00	0	26	0	400556032	72	4398
2026-01-06 02:45:09.04	12.14	23.28	-52.9	-54.8	14.5	0.00e+00	0	26	0	402653184	72	4377
2026-01-06 02:45:10.03	11.95	23.39	-52.8	-54.7	14.6	0.00e+00	0	26	0	404750336	72	4316
2026-01-06 02:45:11.02	11.77	23.50	-52.9	-54.8	14.5	0.00e+00	0	26	0	406847488	72	4349
2026-01-06 02:45:12.02	11.58	23.61	-52.9	-54.7	14.5	0.00e+00	0	26	0	408944640	72	4337
2026-01-06 02:45:13.01	11.39	23.72	-52.9	-54.8	14.5	0.00e+00	0	26	0	409993216	72	4379
2026-01-06 02:45:14.01	11.20	23.83	-52.9	-54.8	14.5	0.00e+00	0	26	0	412090368	72	4388
2026-01-06 02:45:15.01	11.01	23.94	-53.0	-54.9	14.5	0.00e+00	0	26	0	414187520	72	4409
2026-01-06 02:45:16.00	10.82	24.05	-52.9	-54.8	14.5	0.00e+00	0	26	0	416284672	72	4360
2026-01-06 02:45:16.99	10.63	24.16	-53.0	-54.9	14.5	0.00e+00	0	26	0	417333248	72	4440
2026-01-06 02:45:17.99	10.43	24.27	-53.1	-55.1	14.4	0.00e+00	0	26	0	419430400	72	4497
2026-01-06 02:45:18.99	10.23	24.39	-53.2	-55.2	14.3	0.00e+00	0	26	0	421527552	72	4590
2026-01-06 02:45:19.99	10.04	24.50	-53.3	-55.4	14.3	0.00e+00	0	26	0	423624704	72	4654
2026-01-06 02:45:20.99	9.84	24.61	-53.4	-55.5	14.2	0.00e+00	0	26	0	425721856	72	4711
2026-01-06 02:45:21.98	9.64	24.72	-53.5	-55.6	14.1	0.00e+00	0	26	0	426770432	72	4795
2026-01-06 02:45:22.98	9.43	24.83	-53.7	-55.9	14.0	0.00e+00	0	26	0	428867584	72	4940
2026-01-06 02:45:23.98	9.23	24.95	-53.8	-56.0	14.0	0.00e+00	0	26	0	430964736	72	4998
2026-01-06 02:45:24.97	9.02	25.06	-53.8	-56.0	13.9	0.00e+00	0	26	0	433061888	72	5030
2026-01-06 02:45:25.96	8.82	25.17	-53.8	-56.0	13.9	0.00e+00	0	26	0	434110464	72	5018
2026-01-06 02:45:26.95	8.61	25.28	-53.8	-56.0	13.9	0.00e+00	0	26	0	436207616	72	5033
2026-01-06 02:45:27.96	8.40	25.39	-53.8	-56.0	13.9	0.00e+00	0	26	0	438304768	72	5022
2026-01-06 02:45:28.94	8.19	25.50	-53.8	-56.1	13.9	0.00e+00	0	26	0	440401920	72	5043
2026-01-06 02:45:29.94	7.98	25.62	-53.9	-56.2	14.0	0.00e+00	0	26	0	442499072	73	4837
2026-01-06 02:45:30.94	7.76	25.73	-54.0	-56.3	13.9	0.00e+00	0	26	0	443547648	73	4883
2026-01-06 02:45:31.93	7.55	25.84	-54.1	-56.5	13.8	0.00e+00	0	26	0	445644800	73	4997
2026-01-06 02:45:32.93	7.33	25.95	-54.2	-56.5	13.8	0.00e+00	0	26	0	447741952	73	5036
2026-01-06 02:45:33.92	7.11	26.07	-54.0	-56.3	13.9	0.00e+00	0	26	0	449839104	73	4893
2026-01-06 02:45:34.92	6.89	26.18	-54.0	-56.3	13.9	0.00e+00	0	26	0	450887680	73	4882
2026-01-06 02:45:35.92	6.67	26.29	-53.9	-56.1	14.0	0.00e+00	0	26	0	452984832	73	4770
2026-01-06 02:45:36.92	6.44	26.40	-53.9	-56.2	14.0	0.00e+00	0	26	0	455081984	73	4819
2026-01-06 02:45:37.91	6.22	26.52	-54.0	-56.3	13.9	0.00e+00	0	26	0	457179136	73	4880
2026-01-06 02:45:38.92	5.99	26.63	-54.1	-56.4	13.9	0.00e+00	0	26	0	459276288	73	4956
2026-01-06 02:45:39.91	5.76	26.74	-54.1	-56.4	13.8	0.00e+00	0	26	0	460324864	73	4971
2026-01-06 02:45:40.90	5.53	26.85	-54.2	-56.5	13.8	0.00e+00	0	26	0	462422016	73	5016
2026-01-06 02:45:41.90	5.30	26.97	-54.2	-56.5	13.8	0.00e+00	0	26	0	464519168	73	5035
2026-01-06 02:45:42.90	5.07	27.08	-54.1	-56.4	13.9	0.00e+00	0	26	0	466616320	73	4947
2026-01-06 02:45:43.89	4.83	27.19	-54.1	-56.4	13.8	0.00e+00	0	26	0	467664896	73	4973
2026-01-06 02:45:44.88	4.60	27.30	-54.2	-56.5	13.8	0.00e+00	0	26	0	469762048	73	5040
2026-01-06 02:45:45.88	4.36	27.41	-54.2	-56.6	13.8	0.00e+00	0	26	0	471859200	73	5046
2026-01-06 02:45:46.87	4.12	27.52	-54.1	-56.4	13.9	0.00e+00	0	26	0	473956352	73	4932
2026-01-06 02:45:47.87	3.88	27.64	-54.2	-56.6	13.8	0.00e+00	0	26	0	476053504	73	5050
2026-01-06 02:45:48.86	3.63	27.75	-54.1	-56.4	13.9	0.00e+00	0	26	0	477102080	73	4949
2026-01-06 02:45:49.85	3.39	27.86	-54.1	-56.3	13.9	0.00e+00	0	26	0	479199232	73	4914
2026-01-06 02:45:50.85	3.14	27.97	-54.0	-56.2	14.0	0.00e+00	0	26	0	481296384	73	4850
2026-01-06 02:45:51.84	2.90	28.08	-54.0	-56.3	13.9	0.00e+00	0	26	0	483393536	73	4888
2026-01-06 02:45:52.83	2.65	28.19	-54.1	-56.4	13.9	0.00e+00	0	26	0	484442112	73	4943
2026-01-06 02:45:53.83	2.39	28.30	-54.1	-56.4	13.9	0.00e+00	0	26	0	486539264	73	4948
2026-01-06 02:45:54.82	2.14	28.41	-54.1	-56.4	13.9	0.00e+00	0	26	0	488636416	73	4950
2026-01-06 02:45:55.81	1.89	28.52	-54.1	-56.4	13.9	0.00e+00	0	26	0	490733568	73	4967
2026-01-06 02:45:56.82	1.63	28.63	-54.1	-56.3	13.9	0.00e+00	0	26	0	492830720	73	4911
2026-01-06 02:45:57.82	1.36	28.74	-54.1	-56.3	13.9	0.00e+00	0	26	0	493879296	73	4921
2026-01-06 02:45:58.81	1.10	28.85	-54.2	-56.5	13.8	0.00e+00	0	26	0	495976448	73	5025
2026-01-06 02:45:59.81	0.84	28.96	-54.1	-56.4	13.9	0.00e+00	0	26	0	498073600	73	4928
2026-01-06 02:46:00.81	0.57	29.07	-53.9	-56.1	14.0	0.00e+00	0	26	0	500170752	73	4811
2026-01-06 02:46:01.81	0.31	29.18	-53.9	-56.1	14.0	0.00e+00	0	26	0	502267904	73	4797
2026-01-06 02:46:02.80	0.04	29.29	-53.9	-56.0	14.1	0.00e+00	0	26	0	503316480	73	4750
2026-01-06 02:46:03.79	359.77	29.40	-53.9	-56.1	14.1	0.00e+00	0	26	0	505413632	73	4760
2026-01-06 02:46:04.79	359.50	29.50	-54.0	-56.2	14.0	0.00e+00	0	26	0	507510784	73	4841
2026-01-06 02:46:05.79	359.22	29.61	-54.2	-56.5	13.8	0.00e+00	0	26	0	509607936	73	4998
2026-01-06 02:46:06.78	358.95	29.72	-54.0	-56.3	13.9	0.00e+00	0	26	0	510656512	73	4898
2026-01-06 02:46:07.78	358.67	29.83	-54.0	-56.3	14.0	0.00e+00	0	26	0	512753664	73	4879
2026-01-06 02:46:08.78	358.39	29.93	-54.1	-56.4	13.9	0.00e+00	0	26	0	514850816	73	4969
2026-01-06 02:46:09.77	358.11	30.04	-54.3	-56.7	13.8	0.00e+00	0	26	0	516947968	73	5101
2026-01-06 02:46:10.77	357.83	30.14	-54.6	-57.0	13.7	0.00e+00	0	26	0	519045120	74	5016
2026-01-06 02:46:11.76	357.54	30.25	-54.7	-57.2	13.5	0.00e+00	0	26	0	520093696	74	5155
2026-01-06 02:46:12.75	357.26	30.35	-55.0	-57.7	13.4	0.00e+00	0	26	0	522190848	75	5135
2026-01-06 02:46:13.75	356.97	30.46	-55.2	-57.9	13.3	0.00e+00	0	26	0	524288000	75	5242
2026-01-06 02:46:14.73	356.68	30.56	-55.2	-57.9	13.3	0.00e+00	0	26	0	526385152	75	5273
2026-01-06 02:46:15.72	356.39	30.66	-55.2	-58.0	13.3	0.00e+00	0	26	0	527433728	75	5286
2026-01-06 02:46:16.72	356.09	30.77	-55.5	-58.4	13.1	0.00e+00	0	26	0	529530880	76	5244
2026-01-06 02:46:17.71	355.80	30.87	-55.9	-59.0	12.8	0.00e+00	0	26	0	531628032	76	5623
2026-01-06 02:46:18.71	355.50	30.97	-56.0	-59.3	12.7	0.00e+00	0	26	0	533725184	77	5477
2026-01-06 02:46:19.71	355.20	31.07	-56.1	-59.3	12.7	0.00e+00	0	26	0	535822336	77	5499
2026-01-06 02:46:20.70	354.90	31.18	-56.0	-59.2	12.7	0.00e+00	0	26	0	536870912	77	5437
2026-01-06 02:46:21.70	354.59	31.28	-56.0	-59.2	12.8	0.00e+00	0	26	0	538968064	77	5404
2026-01-06 02:46:22.70	354.28	31.38	-56.1	-59.4	12.6	0.00e+00	0	26	0	541065216	77	5563
2026-01-06 02:46:23.70	353.97	31.48	-56.2	-59.5	12.6	0.00e+00	0	26	0	543162368	77	5628
2026-01-06 02:46:24.70	353.66	31.58	-56.3	-59.7	12.4	0.00e+00	0	26	0	545259520	77	5745
2026-01-06 02:46:25.69	353.35	31.67	-56.3	-59.8	12.4	0.00e+00	0	26	0	546308096	77	5799
2026-01-06 02:46:26.68	353.04	31.77	-56.4	-59.9	12.4	0.00e+00	0	26	0	548405248	77	5866
2026-01-06 02:46:27.67	352.73	31.87	-56.5	-59.9	12.4	7.00e-07	0	26	0	550502400	78	5573
2026-01-06 02:46:28.68	352.41	31.96	-56.6	-60.2	12.2	7.00e-07	0	26	0	552599552	78	5761
2026-01-06 02:46:29.66	352.09	32.06	-56.8	-60.7	11.8	3.00e-06	0	26	0	553648128	78	6101
2026-01-06 02:46:30.66	351.77	32.15	-56.8	-60.5	11.9	4.50e-06	0	26	0	555745280	78	5992
2026-01-06 02:46:31.66	351.44	32.25	-56.7	-60.4	12.0	3.80e-06	0	26	0	557842432	78	5913
2026-01-06 02:46:32.65	351.12	32.34	-56.8	-60.5	12.0	3.00e-06	0	26	0	559939584	78	5975
2026-01-06 02:46:33.65	350.79	32.43	-56.8	-60.7	11.8	1.50e-06	0	26	0	562036736	78	6080
2026-01-06 02:46:34.64	350.47	32.52	-56.9	-60.9	11.7	8.30e-06	0	26	0	563085312	78	6223
2026-01-06 02:46:35.64	350.13	32.62	-56.9	-60.7	11.9	6.80e-06	0	26	0	565182464	79	5780
2026-01-06 02:46:36.63	349.80	32.70	-56.8	-60.6	12.0	3.80e-06	0	26	0	567279616	79	5683
2026-01-06 02:46:37.63	349.47	32.79	-56.5	-60.0	12.4	3.80e-06	0	26	0	569376768	79	5335
2026-01-06 02:46:38.63	349.13	32.88	-56.3	-59.6	12.7	7.00e-07	0	26	0	570425344	79	5072
2026-01-06 02:46:39.63	348.79	32.97	-56.1	-59.3	12.8	0.00e+00	0	26	0	572522496	78	5203
2026-01-06 02:46:40.62	348.45	33.06	-56.1	-59.3	12.8	0.00e+00	0	26	0	574619648	78	5160
2026-01-06 02:46:41.62	348.11	33.14	-55.9	-59.0	13.0	0.00e+00	0	26	0	576716800	78	5001
2026-01-06 02:46:42.62	347.77	33.23	-55.8	-58.8	13.1	0.00e+00	0	26	0	578813952	78	4899
2026-01-06 02:46:43.62	347.42	33.31	-55.6	-58.4	13.3	0.00e+00	0	26	0	579862528	77	4977
2026-01-06 02:46:44.62	347.07	33.40	-55.6	-58.5	13.2	0.00e+00	0	26	0	581959680	77	5002
2026-01-06 02:46:45.62	346.72	33.48	-55.6	-58.4	13.3	0.00e+00	0	26	0	584056832	77	4932
2026-01-06 02:46:46.60	346.37	33.56	-55.6	-58.5	13.2	0.00e+00	0	26	0	586153984	77	4989
2026-01-06 02:46:47.60	346.02	33.64	-55.5	-58.3	13.4	0.00e+00	0	26	0	587202560	77	4875
2026-01-06 02:46:48.60	345.66	33.72	-55.6	-58.4	13.3	0.00e+00	0	26	0	589299712	77	4934
2026-01-06 02:46:49.60	345.31	33.80	-55.4	-58.2	13.4	0.00e+00	0	26	0	591396864	77	4826
2026-01-06 02:46:50.60	344.95	33.87	-55.1	-57.7	13.6	0.00e+00	0	26	0	593494016	76	4840
2026-01-06 02:46:51.59	344.59	33.95	-55.0	-57.4	13.7	0.00e+00	0	26	0	595591168	76	4699
2026-01-06 02:46:52.59	344.23	34.02	-54.8	-57.2	13.9	0.00e+00	0	26	0	596639744	76	4555
2026-01-06 02:46:53.59	343.86	34.10	-54.7	-57.0	14.0	0.00e+00	0	26	0	598736896	76	4474
2026-01-06 02:46:54.57	343.51	34.17	-54.5	-56.9	13.9	0.00e+00	0	26	0	600834048	75	4660
2026-01-06 02:46:55.57	343.14	34.24	-54.3	-56.5	14.1	0.00e+00	0	26	0	602931200	75	4490
2026-01-06 02:46:56.57	342.77	34.31	-53.9	-56.1	14.3	0.00e+00	0	26	0	603979776	74	4494
2026-01-06 02:46:57.56	342.40	34.38	-53.9	-56.0	14.3	0.00e+00	0	26	0	606076928	74	4456
2026-01-06 02:46:58.56	342.03	34.44	-54.0	-56.1	14.2	0.00e+00	0	26	0	608174080	74	4520
2026-01-06 02:46:59.57	341.65	34.51	-54.0	-56.2	14.2	0.00e+00	0	26	0	610271232	74	4563
2026-01-06 02:47:00.56	341.28	34.58	-53.9	-56.0	14.3	0.00e+00	0	26	0	612368384	74	4449
2026-01-06 02:47:01.56	340.90	34.64	-53.8	-55.9	14.3	0.00e+00	0	26	0	613416960	74	4419
2026-01-06 02:47:02.56	340.53	34.70	-53.6	-55.5	14.3	0.00e+00	0	26	0	615514112	73	4480
2026-01-06 02:47:03.56	340.15	34.76	-53.5	-55.4	14.4	0.00e+00	0	26	0	617611264	73	4433
2026-01-06 02:47:04.56	339.77	34.82	-53.5	-55.5	14.4	0.00e+00	0	26	0	619708416	73	4464
2026-01-06 02:47:05.56	339.38	34.88	-53.6	-55.6	14.4	0.00e+00	0	26	0	621805568	73	4516
2026-01-06 02:47:06.56	339.00	34.94	-53.5	-55.4	14.4	0.00e+00	0	26	0	622854144	73	4427
2026-01-06 02:47:07.56	338.61	35.00	-53.3	-55.2	14.5	0.00e+00	0	26	0	624951296	73	4300
2026-01-06 02:47:08.55	338.23	35.05	-53.3	-55.2	14.6	0.00e+00	0	26	0	627048448	73	4297
2026-01-06 02:47:09.56	337.84	35.10	-53.1	-54.9	14.5	0.00e+00	0	26	0	629145600	72	4436
2026-01-06 02:47:10.56	337.45	35.16	-53.2	-55.0	14.5	0.00e+00	0	26	0	631242752	72	4480
2026-01-06 02:47:11.56	337.06	35.21	-53.2	-55.1	14.5	0.00e+00	0	26	0	632291328	72	4503
2026-01-06 02:47:12.55	336.67	35.26	-53.3	-55.2	14.4	0.00e+00	0	26	0	634388480	72	4562
2026-01-06 02:47:13.55	336.28	35.30	-53.1	-55.0	14.5	0.00e+00	0	26	0	636485632	72	4468
2026-01-06 02:47:14.54	335.89	35.35	-53.0	-54.8	14.6	0.00e+00	0	26	0	638582784	72	4365
2026-01-06 02:47:15.53	335.50	35.39	-52.6	-54.3	14.7	0.00e+00	0	26	0	639631360	71	4378
2026-01-06 02:47:16.53	335.10	35.44	-52.4	-54.1	14.8	0.00e+00	0	26	0	641728512	71	4251
2026-01-06 02:47:17.52	334.71	35.48	-52.4	-54.1	14.8	0.00e+00	0	26	0	643825664	71	4271
2026-01-06 02:47:18.52	334.31	35.52	-52.6	-54.3	14.7	0.00e+00	0	26	0	645922816	71	4379
2026-01-06 02:47:19.52	333.91	35.56	-52.7	-54.5	14.6	0.00e+00	0	26	0	648019968	71	4461
2026-01-06 02:47:20.52	333.51	35.59	-52.8	-54.6	14.6	0.00e+00	0	26	0	649068544	71	4496
2026-01-06 02:47:21.52	333.11	35.63	-52.8	-54.6	14.6	0.00e+00	0	26	0	651165696	71	4512
2026-01-06 02:47:22.52	332.71	35.66	-52.7	-54.4	14.6	0.00e+00	0	26	0	653262848	71	4419
2026-01-06 02:47:23.52	332.31	35.69	-52.6	-54.4	14.7	0.00e+00	0	26	0	655360000	71	4403
2026-01-06 02:47:24.51	331.91	35.72	-52.5	-54.2	14.7	0.00e+00	0	26	0	656408576	71	4325
2026-01-06 02:47:25.51	331.50	35.75	-52.5	-54.2	14.7	0.00e+00	0	26	0	658505728	71	4331
2026-01-06 02:47:26.51	331.10	35.78	-52.3	-54.0	14.9	0.00e+00	0	26	0	660602880	71	4211
2026-01-06 02:47:27.49	330.70	35.81	-52.1	-53.7	14.8	0.00e+00	0	26	0	662700032	70	4336
2026-01-06 02:47:28.47	330.30	35.83	-52.1	-53.7	14.8	0.00e+00	0	26	0	664797184	70	4315
2026-01-06 02:47:29.47	329.90	35.85	-52.0	-53.7	14.8	0.00e+00	0	26	0	665845760	70	4298
2026-01-06 02:47:30.47	329.49	35.87	-51.9	-53.5	14.9	0.00e+00	0	26	0	667942912	70	4234
2026-01-06 02:47:31.47	329.08	35.89	-52.2	-53.9	14.8	0.00e+00	0	26	0	670040064	70	4403
2026-01-06 02:47:32.47	328.67	35.91	-52.4	-54.2	14.6	0.00e+00	0	26	0	672137216	70	4547
2026-01-06 02:47:33.46	328.27	35.93	-52.7	-54.4	14.5	0.00e+00	0	26	0	673185792	70	4705
2026-01-06 02:47:34.45	327.86	35.94	-52.8	-54.6	14.4	0.00e+00	0	26	0	675282944	70	4785
2026-01-06 02:47:35.45	327.46	35.95	-53.0	-54.8	14.5	0.00e+00	0	26	0	677380096	71	4619
2026-01-06 02:47:36.45	327.05	35.97	-53.2	-55.0	14.4	0.00e+00	0	26	0	679477248	71	4756
2026-01-06 02:47:37.44	326.64	35.98	-53.3	-55.2	14.3	0.00e+00	0	26	0	681574400	71	4853
2026-01-06 02:47:38.44	326.23	35.98	-53.2	-55.1	14.4	0.00e+00	0	26	0	682622976	71	4802
2026-01-06 02:47:39.44	325.82	35.99	-53.0	-54.9	14.4	0.00e+00	0	26	0	684720128	71	4683
2026-01-06 02:47:40.44	325.41	35.99	-53.0	-54.8	14.5	0.00e+00	0	26	0	686817280	71	4611
2026-01-06 02:47:41.44	325.00	36.00	-53.0	-54.8	14.5	0.00e+00	0	26	0	688914432	71	4623
2026-01-06 02:47:42.44	324.59	36.00	-53.0	-54.9	14.4	0.00e+00	0	26	0	689963008	71	4678
2026-01-06 02:47:43.43	324.18	36.00	-53.1	-54.9	14.4	0.00e+00	0	26	0	692060160	71	4691
2026-01-06 02:47:44.43	323.77	36.00	-53.0	-54.9	14.5	0.00e+00	0	26	0	694157312	71	4676
2026-01-06 02:47:45.42	323.36	35.99	-53.0	-54.9	14.4	0.00e+00	0	26	0	696254464	71	4663
2026-01-06 02:47:46.42	322.95	35.99	-53.1	-55.0	14.4	0.00e+00	0	26	0	698351616	71	4743
2026-01-06 02:47:47.42	322.54	35.98	-53.1	-55.0	14.4	0.00e+00	0	26	0	699400192	71	4715
2026-01-06 02:47:48.41	322.14	35.97	-53.1	-55.0	14.4	0.00e+00	0	26	0	701497344	71	4729
2026-01-06 02:47:49.41	321.73	35.96	-53.3	-55.2	14.3	0.00e+00	0	26	0	703594496	71	4857
2026-01-06 02:47:50.41	321.32	35.95	-53.6	-55.6	14.3	0.00e+00	0	26	0	705691648	72	4775
2026-01-06 02:47:51.40	320.91	35.93	-53.7	-55.8	14.1	0.00e+00	0	26	0	707788800	72	4893
2026-01-06 02:47:52.40	320.50	35.92	-53.7	-55.7	14.2	0.00e+00	0	26	0	708837376	72	4848
2026-01-06 02:47:53.39	320.10	35.90	-53.8	-55.8	14.1	0.00e+00	0	26	0	710934528	72	4911
2026-01-06 02:47:54.39	319.69	35.88	-53.7	-55.8	14.1	0.00e+00	0	26	0	713031680	72	4875
2026-01-06 02:47:55.39	319.28	35.86	-53.4	-55.4	14.3	0.00e+00	0	26	0	715128832	72	4658
2026-01-06 02:47:56.40	318.87	35.84	-53.4	-55.4	14.4	0.00e+00	0	26	0	717225984	72	4657
2026-01-06 02:47:57.39	318.47	35.82	-53.5	-55.5	14.3	0.00e+00	0	26	0	718274560	72	4706
2026-01-06 02:47:58.39	318.06	35.79	-53.7	-55.7	14.2	0.00e+00	0	26	0	720371712	72	4861
2026-01-06 02:47:59.39	317.66	35.76	-54.1	-56.3	14.1	0.00e+00	0	26	0	722468864	73	4903
2026-01-06 02:48:00.39	317.25	35.74	-54.2	-56.4	14.0	0.00e+00	0	26	0	724566016	73	4960
2026-01-06 02:48:01.39	316.85	35.71	-54.3	-56.5	13.8	0.00e+00	0	26	0	725614592	73	5031
2026-01-06 02:48:02.39	316.45	35.67	-54.5	-56.8	13.9	0.00e+00	0	26	0	727711744	74	4908
2026-01-06 02:48:03.39	316.05	35.64	-54.6	-57.0	13.7	0.00e+00	0	26	0	729808896	74	5003
2026-01-06 02:48:04.38	315.65	35.61	-54.8	-57.2	13.7	0.00e+00	0	26	0	731906048	74	5131
2026-01-06 02:48:05.37	315.25	35.57	-54.7	-57.1	13.7	0.00e+00	0	26	0	734003200	74	5077
2026-01-06 02:48:06.37	314.85	35.53	-54.6	-57.0	13.8	0.00e+00	0	26	0	735051776	74	4991
2026-01-06 02:48:07.36	314.46	35.49	-54.6	-56.9	13.8	0.00e+00	0	26	0	737148928	74	4938
2026-01-06 02:48:08.36	314.06	35.45	-54.4	-56.6	14.0	0.00e+00	0	26	0	739246080	74	4793
2026-01-06 02:48:09.35	313.67	35.41	-54.4	-56.6	14.0	0.00e+00	0	26	0	741343232	74	4785
2026-01-06 02:48:10.35	313.27	35.37	-54.4	-56.7	13.9	0.00e+00	0	26	0	742391808	74	4838
2026-01-06 02:48:11.35	312.88	35.32	-54.6	-56.8	13.9	0.00e+00	0	26	0	744488960	74	4918
2026-01-06 02:48:12.35	312.48	35.27	-54.8	-57.2	13.7	0.00e+00	0	26	0	746586112	74	5102
2026-01-06 02:48:13.35	312.09	35.22	-54.9	-57.4	13.6	0.00e+00	0	26	0	748683264	74	5240
2026-01-06 02:48:14.35	311.70	35.17	-54.9	-57.3	13.7	0.00e+00	0	26	0	750780416	75	4891
2026-01-06 02:48:15.34	311.31	35.12	-54.7	-57.1	13.9	0.00e+00	0	26	0	751828992	75	4777
2026-01-06 02:48:16.33	310.93	35.07	-54.7	-57.0	13.9	0.00e+00	0	26	0	753926144	75	4724
2026-01-06 02:48:17.33	310.54	35.02	-54.6	-57.0	13.9	0.00e+00	0	26	0	756023296	75	4707
2026-01-06 02:48:18.32	310.16	34.96	-54.7	-57.1	13.9	0.00e+00	0	26	0	758120448	75	4775
2026-01-06 02:48:19.31	309.78	34.91	-54.8	-57.2	13.9	0.00e+00	0	26	0	759169024	75	4815
2026-01-06 02:48:20.31	309.40	34.85	-54.8	-57.2	13.8	0.00e+00	0	26	0	761266176	75	4831
2026-01-06 02:48:21.31	309.01	34.79	-54.8	-57.2	13.8	0.00e+00	0	26	0	763363328	75	4862
2026-01-06 02:48:22.30	308.64	34.73	-54.8	-57.2	13.8	0.00e+00	0	26	0	765460480	75	4864
2026-01-06 02:48:23.30	308.26	34.67	-54.7	-57.0	13.9	0.00e+00	0	26	0	767557632	75	4720
2026-01-06 02:48:24.29	307.88	34.60	-54.6	-56.8	14.0	0.00e+00	0	26	0	768606208	75	4651
2026-01-06 02:48:25.28	307.51	34.54	-54.6	-56.8	14.0	0.00e+00	0	26	0	770703360	75	4646
2026-01-06 02:48:26.29	307.13	34.47	-54.3	-56.5	14.2	0.00e+00	0	26	0	772800512	75	4449
2026-01-06 02:48:27.29	306.76	34.40	-54.2	-56.3	14.3	0.00e+00	0	26	0	774897664	75	4356
2026-01-06 02:48:28.28	306.39	34.34	-54.2	-56.3	14.2	0.00e+00	0	26	0	775946240	74	4616
2026-01-06 02:48:29.27	306.03	34.27	-54.1	-56.3	14.2	0.00e+00	0	26	0	778043392	74	4608
2026-01-06 02:48:30.27	305.66	34.20	-54.2	-56.3	14.1	0.00e+00	0	26	0	780140544	74	4628
2026-01-06 02:48:31.27	305.29	34.12	-54.1	-56.2	14.2	0.00e+00	0	26	0	782237696	74	4596
2026-01-06 02:48:32.26	304.93	34.05	-54.1	-56.1	14.2	0.00e+00	0	26	0	784334848	74	4537
2026-01-06 02:48:33.26	304.57	33.98	-54.0	-56.1	14.3	0.00e+00	0	26	0	785383424	74	4506
2026-01-06 02:48:34.24	304.21	33.90	-54.0	-56.0	14.3	0.00e+00	0	26	0	787480576	74	4484
2026-01-06 02:48:35.24	303.85	33.83	-53.9	-56.0	14.3	0.00e+00	0	26	0	789577728	74	4465
2026-01-06 02:48:36.23	303.50	33.75	-54.0	-56.1	14.3	0.00e+00	0	26	0	791674880	74	4516
2026-01-06 02:48:37.22	303.14	33.67	-54.2	-56.3	14.2	0.00e+00	0	26	0	792723456	74	4620
2026-01-06 02:48:38.22	302.79	33.59	-54.3	-56.6	14.0	0.00e+00	0	26	0	794820608	74	4761
2026-01-06 02:48:39.22	302.43	33.51	-54.4	-56.6	14.0	0.00e+00	0	26	0	796917760	74	4797
2026-01-06 02:48:40.23	302.08	33.43	-54.5	-56.8	13.9	0.00e+00	0	26	0	799014912	74	4899
2026-01-06 02:48:41.22	301.73	33.35	-54.6	-56.9	13.9	0.00e+00	0	26	0	801112064	74	4941
2026-01-06 02:48:42.21	301.39	33.26	-54.7	-57.0	13.8	0.00e+00	0	26	0	802160640	74	5010
2026-01-06 02:48:43.21	301.04	33.18	-54.7	-57.0	13.8	0.00e+00	0	26	0	804257792	74	5031
2026-01-06 02:48:44.21	300.70	33.09	-54.8	-57.1	13.7	0.00e+00	0	26	0	806354944	74	5093
2026-01-06 02:48:45.20	300.36	33.01	-54.7	-57.1	13.7	0.00e+00	0	26	0	808452096	74	5069
2026-01-06 02:48:46.20	300.02	32.92	-54.8	-57.1	13.7	0.00e+00	0	26	0	810549248	74	5092
2026-01-06 02:48:47.19	299.68	32.83	-54.7	-57.0	13.8	0.00e+00	0	26	0	811597824	74	5022
2026-01-06 02:48:48.18	299.35	32.74	-54.9	-57.3	13.6	0.00e+00	0	26	0	813694976	74	5193
2026-01-06 02:48:49.18	299.01	32.65	-55.0	-57.5	13.7	0.00e+00	0	26	0	815792128	75	4996
2026-01-06 02:48:50.18	298.68	32.56	-55.1	-57.6	13.6	0.00e+00	0	26	0	817889280	75	5077
2026-01-06 02:48:51.19	298.35	32.47	-55.1	-57.6	13.5	0.00e+00	0	26	0	818937856	75	5099
2026-01-06 02:48:52.19	298.02	32.38	-55.1	-57.6	13.5	0.00e+00	0	26	0	821035008	75	5097
2026-01-06 02:48:53.19	297.69	32.28	-55.0	-57.5	13.6	0.00e+00	0	26	0	823132160	75	4992
2026-01-06 02:48:54.19	297.36	32.19	-54.9	-57.4	13.7	0.00e+00	0	26	0	825229312	75	4960
2026-01-06 02:48:55.18	297.04	32.09	-55.0	-57.4	13.7	0.00e+00	0	26	0	827326464	75	4966
2026-01-06 02:48:56.18	296.72	32.00	-55.1	-57.6	13.6	0.00e+00	0	26	0	828375040	75	5080
2026-01-06 02:48:57.17	296.40	31.90	-55.1	-57.6	13.6	0.00e+00	0	26	0	830472192	75	5075
2026-01-06 02:48:58.17	296.09	31.81	-55.1	-57.6	13.6	0.00e+00	0	26	0	832569344	75	5077
2026-01-06 02:48:59.16	295.77	31.71	-55.2	-57.8	13.5	0.00e+00	0	26	0	834666496	75	5197
2026-01-06 02:49:00.16	295.46	31.61	-55.0	-57.6	13.6	0.00e+00	0	26	0	835715072	75	5046
2026-01-06 02:49:01.16	295.15	31.51	-54.9	-57.4	13.7	0.00e+00	0	26	0	837812224	75	4959
2026-01-06 02:49:02.15	294.84	31.41	-54.8	-57.1	13.8	0.00e+00	0	26	0	839909376	75	4813
2026-01-06 02:49:03.16	294.53	31.31	-54.7	-57.0	13.9	0.00e+00	0	26	0	842006528	75	4746
2026-01-06 02:49:04.15	294.22	31.21	-54.8	-57.2	13.8	0.00e+00	0	26	0	844103680	75	4816
2026-01-06 02:49:05.15	293.92	31.11	-54.9	-57.3	13.7	0.00e+00	0	26	0	845152256	75	4900
2026-01-06 02:49:06.15	293.62	31.01	-54.9	-57.4	13.7	0.00e+00	0	26	0	847249408	75	4959
2026-01-06 02:49:07.14	293.32	30.91	-55.0	-57.5	13.6	0.00e+00	0	26	0	849346560	75	5018
2026-01-06 02:49:08.14	293.02	30.80	-54.8	-57.3	13.7	0.00e+00	0	26	0	851443712	75	4875
2026-01-06 02:49:09.14	292.72	30.70	-54.7	-57.1	13.8	0.00e+00	0	26	0	853540864	75	4781
2026-01-06 02:49:10.14	292.43	30.60	-54.5	-56.8	14.0	0.00e+00	0	26	0	854589440	75	4639
2026-01-06 02:49:11.14	292.13	30.49	-54.6	-56.9	13.9	0.00e+00	0	26	0	856686592	75	4690
2026-01-06 02:49:12.14	291.84	30.39	-54.7	-57.2	13.8	0.00e+00	0	26	0	858783744	75	4818
2026-01-06 02:49:13.14	291.55	30.28	-54.8	-57.3	13.7	0.00e+00	0	26	0	860880896	75	4887
2026-01-06 02:49:14.14	291.27	30.18	-54.8	-57.2	13.7	0.00e+00	0	26	0	861929472	75	4854
2026-01-06 02:49:15.14	290.98	30.07	-54.9	-57.4	13.7	0.00e+00	0	26	0	864026624	75	4931
2026-01-06 02:49:16.14	290.70	29.96	-54.8	-57.2	13.7	0.00e+00	0	26	0	866123776	75	4841
2026-01-06 02:49:17.13	290.42	29.86	-54.8	-57.2	13.7	0.00e+00	0	26	0	868220928	75	4869
2026-01-06 02:49:18.13	290.14	29.75	-54.7	-57.0	13.8	0.00e+00	0	26	0	870318080	75	4757
2026-01-06 02:49:19.13	289.86	29.64	-54.4	-56.6	14.0	0.00e+00	0	26	0	871366656	75	4523
2026-01-06 02:49:20.12	289.59	29.53	-54.2	-56.4	14.2	0.00e+00	0	26	0	873463808	75	4434
2026-01-06 02:49:21.12	289.31	29.43	-54.2	-56.4	14.0	0.00e+00	0	26	0	875560960	74	4689
2026-01-06 02:49:22.12	289.04	29.32	-54.3	-56.5	14.0	0.00e+00	0	26	0	877658112	74	4738
2026-01-06 02:49:23.12	288.77	29.21	-54.6	-57.0	13.8	0.00e+00	0	26	0	879755264	74	4991
2026-01-06 02:49:24.11	288.50	29.10	-54.4	-56.8	13.9	0.00e+00	0	26	0	880803840	74	4889
2026-01-06 02:49:25.11	288.23	28.99	-54.4	-56.7	13.9	0.00e+00	0	26	0	882900992	74	4819
2026-01-06 02:49:26.10	287.97	28.88	-54.2	-56.4	14.0	0.00e+00	0	26	0	884998144	74	4671
2026-01-06 02:49:27.09	287.71	28.77	-54.1	-56.2	14.1	0.00e+00	0	26	0	887095296	74	4587
2026-01-06 02:49:28.08	287.45	28.66	-54.1	-56.2	14.1	0.00e+00	0	26	0	888143872	74	4592
2026-01-06 02:49:29.08	287.19	28.55	-53.8	-55.9	14.3	0.00e+00	0	26	0	890241024	74	4438
2026-01-06 02:49:30.07	286.94	28.44	-53.7	-55.7	14.4	0.00e+00	0	26	0	892338176	74	4331
2026-01-06 02:49:31.06	286.68	28.33	-53.7	-55.8	14.2	0.00e+00	0	26	0	894435328	73	4616
2026-01-06 02:49:32.06	286.43	28.22	-53.7	-55.7	14.2	0.00e+00	0	26	0	896532480	73	4579
2026-01-06 02:49:33.06	286.18	28.11	-53.7	-55.7	14.2	0.00e+00	0	26	0	897581056	73	4596
2026-01-06 02:49:34.06	285.93	28.00	-53.6	-55.6	14.3	0.00e+00	0	26	0	899678208	73	4544
2026-01-06 02:49:35.06	285.68	27.89	-53.4	-55.4	14.4	0.00e+00	0	26	0	901775360	73	4418
2026-01-06 02:49:36.06	285.43	27.77	-53.2	-55.1	14.6	0.00e+00	0	26	0	903872512	73	4256
2026-01-06 02:49:37.04	285.19	27.66	-52.9	-54.7	14.6	0.00e+00	0	26	0	904921088	72	4327
2026-01-06 02:49:38.04	284.94	27.55	-52.7	-54.5	14.7	0.00e+00	0	26	0	907018240	72	4203
2026-01-06 02:49:39.04	284.70	27.44	-52.7	-54.5	14.6	0.00e+00	0	26	0	909115392	71	4492
2026-01-06 02:49:40.03	284.46	27.33	-52.5	-54.3	14.7	0.00e+00	0	26	0	911212544	71	4341
2026-01-06 02:49:41.03	284.23	27.22	-52.3	-54.0	14.8	0.00e+00	0	26	0	913309696	71	4241
2026-01-06 02:49:42.02	283.99	27.10	-52.2	-53.9	14.8	0.00e+00	0	26	0	914358272	71	4178
2026-01-06 02:49:43.01	283.76	26.99	-52.3	-54.0	14.8	0.00e+00	0	26	0	916455424	71	4216
2026-01-06 02:49:44.01	283.52	26.88	-52.3	-54.0	14.8	0.00e+00	0	26	0	918552576	71	4236
2026-01-06 02:49:45.01	283.29	26.77	-52.3	-54.1	14.8	0.00e+00	0	26	0	920649728	71	4244
2026-01-06 02:49:46.01	283.06	26.65	-52.0	-53.6	14.8	0.00e+00	0	26	0	921698304	70	4281
2026-01-06 02:49:47.01	282.83	26.54	-51.9	-53.5	14.9	0.00e+00	0	26	0	923795456	70	4236
2026-01-06 02:49:48.00	282.61	26.43	-51.8	-53.5	14.9	0.00e+00	0	26	0	925892608	70	4195
2026-01-06 02:49:49.00	282.38	26.32	-51.9	-53.5	14.9	0.00e+00	0	26	0	927989760	70	4241
2026-01-06 02:49:49.99	282.16	26.20	-52.0	-53.7	14.8	0.00e+00	0	26	0	930086912	70	4312
2026-01-06 02:49:50.99	281.94	26.09	-52.0	-53.7	14.8	0.00e+00	0	26	0	931135488	70	4294
2026-01-06 02:49:51.98	281.72	25.98	-52.1	-53.8	14.7	0.00e+00	0	26	0	933232640	70	4386
2026-01-06 02:49:52.97	281.50	25.87	-52.0	-53.6	14.8	0.00e+00	0	26	0	935329792	70	4290
2026-01-06 02:49:53.98	281.28	25.75	-51.9	-53.6	14.8	0.00e+00	0	26	0	937426944	70	4250
2026-01-06 02:49:54.98	281.07	25.64	-51.8	-53.4	14.9	0.00e+00	0	26	0	938475520	70	4149
2026-01-06 02:49:55.97	280.85	25.53	-51.8	-53.4	15.0	0.00e+00	0	26	0	940572672	70	4149
2026-01-06 02:49:56.96	280.64	25.42	-51.8	-53.4	14.9	0.00e+00	0	26	0	942669824	70	4166
2026-01-06 02:49:57.96	280.43	25.30	-51.7	-53.3	15.0	0.00e+00	0	26	0	944766976	70	4140
2026-01-06 02:49:58.95	280.22	25.19	-51.8	-53.4	14.9	0.00e+00	0	26	0	946864128	70	4191
2026-01-06 02:49:59.94	280.02	25.08	-51.7	-53.3	15.0	0.00e+00	0	26	0	947912704	70	4122
2026-01-06 02:50:00.94	279.81	24.97	-51.8	-53.4	14.9	0.00e+00	0	26	0	950009856	70	4147
2026-01-06 02:50:01.94	279.60	24.86	-51.6	-53.2	14.9	0.00e+00	0	26	0	952107008	69	4295
2026-01-06 02:50:02.94	279.40	24.74	-51.6	-53.2	14.9	0.00e+00	0	26	0	954204160	69	4306
2026-01-06 02:50:03.94	279.20	24.63	-51.7	-53.3	14.8	0.00e+00	0	26	0	955252736	69	4350
2026-01-06 02:50:04.94	279.00	24.52	-51.7	-53.3	14.8	0.00e+00	0	26	0	957349888	69	4383
2026-01-06 02:50:05.93	278.80	24.41	-51.6	-53.2	14.8	0.00e+00	0	26	0	959447040	69	4340
2026-01-06 02:50:06.93	278.60	24.29	-51.7	-53.4	14.8	0.00e+00	0	26	0	961544192	69	4400
2026-01-06 02:50:07.91	278.41	24.19	-51.8	-53.4	14.8	0.00e+00	0	26	0	963641344	69	4409
2026-01-06 02:50:08.91	278.21	24.07	-51.9	-53.6	14.7	0.00e+00	0	26	0	964689920	69	4495
2026-01-06 02:50:09.91	278.02	23.96	-51.9	-53.6	14.7	0.00e+00	0	26	0	966787072	69	4510
2026-01-06 02:50:10.91	277.83	23.85	-52.0	-53.7	14.6	0.00e+00	0	26	0	968884224	69	4596
2026-01-06 02:50:11.92	277.63	23.74	-52.1	-53.8	14.6	0.00e+00	0	26	0	970981376	69	4647
2026-01-06 02:50:12.91	277.45	23.63	-52.2	-54.0	14.5	0.00e+00	0	26	0	973078528	69	4727
2026-01-06 02:50:13.91	277.26	23.52	-52.1	-53.8	14.6	0.00e+00	0	26	0	974127104	69	4624
2026-01-06 02:50:14.90	277.07	23.41	-52.2	-53.9	14.6	0.00e+00	0	26	0	976224256	69	4680
2026-01-06 02:50:15.90	276.89	23.29	-52.2	-53.9	14.6	0.00e+00	0	26	0	978321408	69	4687
2026-01-06 02:50:16.90	276.70	23.18	-52.2	-53.9	14.6	0.00e+00	0	26	0	980418560	69	4679
2026-01-06 02:50:17.89	276.52	23.07	-52.2	-54.0	14.5	0.00e+00	0	26	0	981467136	69	4721
2026-01-06 02:50:18.88	276.34	22.96	-52.4	-54.1	14.5	0.00e+00	0	26	0	983564288	69	4810
2026-01-06 02:50:19.88	276.16	22.85	-52.3	-54.0	14.5	0.00e+00	0	26	0	985661440	69	4748
2026-01-06 02:50:20.88	275.98	22.74	-52.3	-54.0	14.5	0.00e+00	0	26	0	987758592	69	4756
2026-01-06 02:50:21.88	275.80	22.63	-52.2	-54.0	14.5	0.00e+00	0	26	0	989855744	69	4726
2026-01-06 02:50:22.87	275.63	22.52	-52.2	-53.9	14.6	0.00e+00	0	26	0	990904320	69	4700
2026-01-06 02:50:23.87	275.45	22.42	-52.2	-53.9	14.5	0.00e+00	0	26	0	993001472	69	4698
2026-01-06 02:50:24.87	275.28	22.31	-52.4	-54.1	14.5	0.00e+00	0	26	0	995098624	69	4805
2026-01-06 02:50:25.87	275.10	22.20	-52.3	-54.1	14.5	0.00e+00	0	26	0	997195776	69	4761
2026-01-06 02:50:26.87	274.93	22.09	-52.4	-54.1	14.5	0.00e+00	0	26	0	999292928	69	4803
2026-01-06 02:50:27.87	274.76	21.98	-52.5	-54.3	14.5	0.00e+00	0	26	0	1000341504	70	4620
2026-01-06 02:50:28.86	274.59	21.87	-52.5	-54.3	14.5	0.00e+00	0	26	0	1002438656	70	4611
2026-01-06 02:50:29.86	274.43	21.76	-52.6	-54.4	14.5	0.00e+00	0	26	0	1004535808	70	4667
2026-01-06 02:50:30.86	274.26	21.65	-52.5	-54.3	14.5	0.00e+00	0	26	0	1006632960	70	4617
2026-01-06 02:50:31.86	274.09	21.55	-52.6	-54.4	14.5	0.00e+00	0	26	0	1007681536	70	4662
2026-01-06 02:50:32.86	273.93	21.44	-52.5	-54.3	14.5	0.00e+00	0	26	0	1009778688	70	4647
2026-01-06 02:50:33.86	273.77	21.33	-52.5	-54.3	14.5	0.00e+00	0	26	0	1011875840	70	4647
2026-01-06 02:50:34.85	273.60	21.22	-52.6	-54.5	14.4	0.00e+00	0	26	0	1013972992	70	4706
2026-01-06 02:50:35.85	273.44	21.12	-52.6	-54.5	14.4	0.00e+00	0	26	0	1016070144	70	4717
2026-01-06 02:50:36.85	273.28	21.01	-52.7	-54.6	14.4	0.00e+00	0	26	0	1017118720	70	4772
2026-01-06 02:50:37.84	273.13	20.90	-52.8	-54.7	14.3	0.00e+00	0	26	0	1019215872	70	4847
2026-01-06 02:50:38.84	272.97	20.80	-52.8	-54.7	14.3	0.00e+00	0	26	0	1021313024	70	4853
2026-01-06 02:50:39.84	272.81	20.69	-52.9	-54.8	14.3	0.00e+00	0	26	0	1023410176	70	4879
2026-01-06 02:50:40.84	272.66	20.58	-52.8	-54.7	14.3	0.00e+00	0	26	0	1024458752	70	4841
2026-01-06 02:50:41.84	272.50	20.48	-52.9	-54.8	14.3	0.00e+00	0	26	0	1026555904	70	4891
2026-01-06 02:50:42.84	272.35	20.37	-53.0	-54.9	14.4	0.00e+00	0	26	0	1028653056	71	4669
2026-01-06 02:50:43.83	272.20	20.27	-53.0	-54.9	14.4	0.00e+00	0	26	0	1030750208	71	4670
2026-01-06 02:50:44.83	272.05	20.16	-53.0	-54.9	14.4	0.00e+00	0	26	0	1032847360	71	4661
2026-01-06 02:50:45.83	271.90	20.06	-53.0	-54.9	14.3	0.00e+00	0	26	0	1033895936	71	4687
2026-01-06 02:50:46.83	271.75	19.95	-53.0	-54.9	14.3	0.00e+00	0	26	0	1035993088	71	4692
2026-01-06 02:50:47.83	271.60	19.85	-53.1	-55.1	14.3	0.00e+00	0	26	0	1038090240	71	4767
2026-01-06 02:50:48.82	271.45	19.74	-53.2	-55.3	14.2	0.00e+00	0	26	0	1040187392	71	4873
2026-01-06 02:50:49.81	271.31	19.64	-53.3	-55.3	14.2	0.00e+00	0	26	0	1042284544	71	4894
2026-01-06 02:50:50.81	271.16	19.54	-53.3	-55.3	14.1	0.00e+00	0	26	0	1043333120	71	4926
2026-01-06 02:50:51.81	271.02	19.43	-53.4	-55.5	14.1	0.00e+00	0	26	0	1045430272	71	4991
2026-01-06 02:50:52.81	270.87	19.33	-53.4	-55.4	14.1	0.00e+00	0	26	0	1047527424	71	4970
2026-01-06 02:50:53.81	270.73	19.23	-53.4	-55.4	14.1	0.00e+00	0	26	0	1049624576	71	4977
2026-01-06 02:50:54.81	270.59	19.12	-53.3	-55.3	14.3	0.00e+00	0	26	0	1051721728	72	4649
2026-01-06 02:50:55.81	270.45	19.02	-53.2	-55.2	14.3	0.00e+00	0	26	0	1052770304	72	4579
2026-01-06 02:50:56.81	270.31	18.92	-53.2	-55.1	14.4	0.00e+00	0	26	0	1054867456	72	4526
2026-01-06 02:50:57.81	270.17	18.81	-53.2	-55.1	14.4	0.00e+00	0	26	0	1056964608	72	4527
2026-01-06 02:50:58.81	270.04	18.71	-53.1	-55.1	14.4	0.00e+00	0	26	0	1059061760	72	4527
2026-01-06 02:50:59.81	269.90	18.61	-53.2	-55.2	14.3	0.00e+00	0	26	0	1060110336	72	4577
2026-01-06 02:51:00.81	269.76	18.51	-53.3	-55.3	14.3	0.00e+00	0	26	0	1062207488	72	4616
2026-01-06 02:51:01.81	269.63	18.41	-53.4	-55.5	14.2	0.00e+00	0	26	0	1064304640	72	4713
2026-01-06 02:51:02.81	269.50	18.31	-53.4	-55.5	14.2	0.00e+00	0	26	0	1066401792	72	4724
2026-01-06 02:51:03.81	269.36	18.21	-53.5	-55.6	14.1	0.00e+00	0	26	0	1068498944	72	4779
2026-01-06 02:51:04.80	269.23	18.11	-53.5	-55.6	14.1	0.00e+00	0	26	0	1069547520	72	4807
2026-01-06 02:51:05.80	269.10	18.01	-53.6	-55.7	14.1	0.00e+00	0	26	0	1071644672	72	4856
2026-01-06 02:51:06.79	268.97	17.91	-53.6	-55.7	14.1	0.00e+00	0	26	0	1073741824	72	4841
2026-01-06 02:51:07.79	268.84	17.81	-53.6	-55.8	14.0	0.00e+00	0	26	0	1075838976	72	4878
2026-01-06 02:51:08.79	268.71	17.71	-53.6	-55.7	14.1	0.00e+00	0	26	0	1076887552	72	4851
2026-01-06 02:51:09.78	268.59	17.61	-53.5	-55.6	14.1	0.00e+00	0	26	0	1078984704	72	4795
2026-01-06 02:51:10.78	268.46	17.51	-53.6	-55.7	14.1	0.00e+00	0	26	0	1081081856	72	4859
2026-01-06 02:51:11.79	268.33	17.41	-53.6	-55.7	14.0	0.00e+00	0	26	0	1083179008	72	4851
2026-01-06 02:51:12.78	268.21	17.31	-53.6	-55.8	14.0	0.00e+00	0	26	0	1085276160	72	4892
2026-01-06 02:51:13.78	268.09	17.22	-53.7	-55.8	14.0	0.00e+00	0	26	0	1086324736	72	4921
2026-01-06 02:51:14.78	267.96	17.12	-53.9	-56.1	13.9	0.00e+00	0	26	0	1088421888	72	5088
2026-01-06 02:51:15.78	267.84	17.02	-53.8	-56.1	13.9	0.00e+00	0	26	0	1090519040	72	5044
2026-01-06 02:51:16.78	267.72	16.92	-54.0	-56.3	13.9	0.00e+00	0	26	0	1092616192	73	4884
2026-01-06 02:51:17.78	267.60	16.82	-54.0	-56.4	13.8	0.00e+00	0	26	0	1094713344	73	4942
2026-01-06 02:51:18.79	267.48	16.73	-54.0	-56.3	13.9	0.00e+00	0	26	0	1095761920	73	4880
2026-01-06 02:51:19.78	267.36	16.63	-53.9	-56.1	14.0	0.00e+00	0	26	0	1097859072	73	4799
2026-01-06 02:51:20.78	267.24	16.53	-53.8	-56.0	14.0	0.00e+00	0	26	0	1099956224	73	4735
2026-01-06 02:51:21.79	267.12	16.44	-53.8	-56.0	14.0	0.00e+00	0	26	0	1102053376	73	4759
2026-01-06 02:51:22.79	267.00	16.34	-53.6	-55.7	14.2	0.00e+00	0	26	0	1103101952	73	4555
2026-01-06 02:51:23.79	266.89	16.25	-53.4	-55.5	14.3	0.00e+00	0	26	0	1105199104	73	4470
2026-01-06 02:51:24.79	266.77	16.15	-53.5	-55.6	14.2	0.00e+00	0	26	0	1107296256	73	4519
2026-01-06 02:51:25.79	266.66	16.05	-53.5	-55.6	14.2	0.00e+00	0	26	0	1109393408	73	4526
2026-01-06 02:51:26.79	266.54	15.96	-53.3	-55.4	14.3	0.00e+00	0	26	0	1111490560	73	4418
2026-01-06 02:51:27.79	266.43	15.86	-53.3	-55.3	14.4	0.00e+00	0	26	0	1112539136	73	4365
2026-01-06 02:51:28.79	266.32	15.77	-53.3	-55.4	14.3	0.00e+00	0	26	0	1114636288	73	4392
2026-01-06 02:51:29.79	266.21	15.68	-53.4	-55.5	14.3	0.00e+00	0	26	0	1116733440	73	4479
2026-01-06 02:51:30.79	266.09	15.58	-53.5	-55.7	14.2	0.00e+00	0	26	0	1118830592	73	4557
2026-01-06 02:51:31.79	265.98	15.49	-53.6	-55.7	14.2	0.00e+00	0	26	0	1120927744	73	4577
2026-01-06 02:51:32.80	265.87	15.39	-53.6	-55.8	14.1	0.00e+00	0	26	0	1121976320	73	4638
2026-01-06 02:51:33.80	265.76	15.30	-53.8	-56.0	14.0	0.00e+00	0	26	0	1124073472	73	4752
2026-01-06 02:51:34.81	265.66	15.21	-53.8	-56.0	14.0	0.00e+00	0	26	0	1126170624	73	4752
2026-01-06 02:51:35.80	265.55	15.12	-53.8	-56.0	14.0	0.00e+00	0	26	0	1128267776	73	4745
2026-01-06 02:51:36.81	265.44	15.02	-53.8	-56.0	14.0	0.00e+00	0	26	0	1130364928	73	4737
2026-01-06 02:51:37.81	265.33	14.93	-53.9	-56.1	13.9	0.00e+00	0	26	0	1131413504	73	4804
2026-01-06 02:51:38.81	265.23	14.84	-53.7	-56.0	14.0	0.00e+00	0	26	0	1133510656	73	4720
2026-01-06 02:51:39.82	265.12	14.74	-53.7	-55.9	14.0	0.00e+00	0	26	0	1135607808	73	4665
2026-01-06 02:51:40.82	265.02	14.65	-53.7	-55.8	14.1	0.00e+00	0	26	0	1137704960	73	4645
2026-01-06 02:51:41.82	264.92	14.56	-53.6	-55.8	14.1	0.00e+00	0	26	0	1139802112	73	4607
2026-01-06 02:51:42.82	264.81	14.47	-53.6	-55.8	14.1	0.00e+00	0	26	0	1140850688	73	4645
2026-01-06 02:51:43.82	264.71	14.38	-53.7	-55.9	14.1	0.00e+00	0	26	0	1142947840	73	4658
2026-01-06 02:51:44.83	264.61	14.29	-53.6	-55.8	14.1	0.00e+00	0	26	0	1145044992	73	4645
2026-01-06 02:51:45.83	264.51	14.20	-53.7	-55.9	14.1	0.00e+00	0	26	0	1147142144	73	4673
2026-01-06 02:51:46.84	264.41	14.11	-53.8	-56.0	14.0	0.00e+00	0	26	0	1148190720	73	4735
2026-01-06 02:51:47.84	264.31	14.02	-53.8	-56.1	13.9	0.00e+00	0	26	0	1150287872	73	4768
2026-01-06 02:51:48.84	264.21	13.93	-53.8	-56.1	13.9	0.00e+00	0	26	0	1152385024	73	4787
2026-01-06 02:51:49.84	264.11	13.84	-53.8	-56.0	14.0	0.00e+00	0	26	0	1154482176	73	4751
2026-01-06 02:51:50.84	264.01	13.75	-53.7	-56.0	14.0	0.00e+00	0	26	0	1156579328	73	4709
2026-01-06 02:51:51.84	263.91	13.66	-53.7	-55.9	14.1	0.00e+00	0	26	0	1157627904	73	4675
2026-01-06 02:51:52.84	263.82	13.57	-53.6	-55.8	14.1	0.00e+00	0	26	0	1159725056	73	4629
2026-01-06 02:51:53.84	263.72	13.48	-53.6	-55.8	14.1	0.00e+00	0	26	0	1161822208	73	4641
2026-01-06 02:51:54.85	263.62	13.40	-53.5	-55.7	14.1	0.00e+00	0	26	0	1163919360	73	4563
2026-01-06 02:51:55.85	263.53	13.31	-53.6	-55.7	14.2	0.00e+00	0	26	0	1166016512	73	4584
2026-01-06 02:51:56.86	263.43	13.22	-53.6	-55.8	14.1	0.00e+00	0	26	0	1167065088	73	4606
2026-01-06 02:51:57.86	263.34	13.13	-53.5	-55.7	14.2	0.00e+00	0	26	0	1169162240	73	4569
2026-01-06 02:51:58.86	263.25	13.04	-53.7	-55.9	14.0	0.00e+00	0	26	0	1171259392	73	4664
2026-01-06 02:51:59.86	263.15	12.96	-53.6	-55.8	14.1	0.00e+00	0	26	0	1173356544	73	4641
2026-01-06 02:52:00.86	263.06	12.87	-53.6	-55.9	14.1	0.00e+00	0	26	0	1175453696	73	4658
2026-01-06 02:52:01.87	262.97	12.78	-53.7	-56.0	14.0	0.00e+00	0	26	0	1176502272	73	4735
2026-01-06 02:52:02.86	262.88	12.70	-53.9	-56.2	13.9	0.00e+00	0	26	0	1178599424	73	4841
2026-01-06 02:52:03.86	262.79	12.61	-54.0	-56.4	13.8	0.00e+00	0	26	0	1180696576	73	4936
2026-01-06 02:52:04.86	262.70	12.53	-54.0	-56.4	13.8	0.00e+00	0	26	0	1182793728	73	4941
2026-01-06 02:52:05.87	262.61	12.44	-54.1	-56.5	13.7	0.00e+00	0	26	0	1184890880	73	5003
2026-01-06 02:52:06.87	262.52	12.35	-54.1	-56.5	13.7	0.00e+00	0	26	0	1185939456	73	5041
2026-01-06 02:52:07.88	262.43	12.27	-54.2	-56.7	13.6	0.00e+00	0	26	0	1188036608	73	5101
2026-01-06 02:52:08.88	262.34	12.18	-54.2	-56.7	13.6	0.00e+00	0	26	0	1190133760	73	5118
2026-01-06 02:52:09.88	262.26	12.10	-54.2	-56.8	13.5	0.00e+00	0	26	0	1192230912	73	5164
2026-01-06 02:52:10.88	262.17	12.01	-54.3	-56.9	13.5	0.00e+00	0	26	0	1193279488	73	5221
2026-01-06 02:52:11.89	262.08	11.93	-54.3	-56.9	13.5	0.00e+00	0	26	0	1195376640	73	5238
2026-01-06 02:52:12.89	262.00	11.85	-54.3	-56.8	13.5	0.00e+00	0	26	0	1197473792	73	5197
2026-01-06 02:52:13.90	261.91	11.76	-54.2	-56.8	13.5	0.00e+00	0	26	0	1199570944	73	5163
2026-01-06 02:52:14.90	261.83	11.68	-54.3	-56.8	13.5	0.00e+00	0	26	0	1201668096	73	5194
2026-01-06 02:52:15.90	261.74	11.59	-54.3	-56.9	13.5	0.00e+00	0	26	0	1203765248	73	5222
2026-01-06 02:52:16.90	261.66	11.51	-54.3	-56.8	13.5	0.00e+00	0	26	0	1204813824	73	5218
2026-01-06 02:52:17.90	261.57	11.43	-54.3	-56.9	13.5	0.00e+00	0	26	0	1206910976	73	5241
2026-01-06 02:52:18.91	261.49	11.35	-54.3	-56.9	13.5	0.00e+00	0	26	0	1209008128	73	5233
2026-01-06 02:52:19.91	261.41	11.26	-54.4	-57.0	13.4	0.00e+00	0	26	0	1211105280	73	5326
2026-01-06 02:52:20.91	261.33	11.18	-54.5	-57.1	13.5	0.00e+00	0	26	0	1212153856	74	5072
2026-01-06 02:52:21.92	261.25	11.10	-54.4	-57.0	13.5	0.00e+00	0	26	0	1214251008	74	4992
