passes_logs/2026/01/06/R3.2S_Murmansk/R3.2S_Murmansk__20260106_124831_AQUA_rec.log

#Pass ID: 20260106_124831_AQUA
#Satellite: AQUA
#Configuration: AQUA
#almurnet v.1.7.20251203
#Start time: 2026-01-06 12:48:32

#Version: 2.2.20231116
#Station: R3.2S_Murmansk
#Location: 33.079688 lon 68.888172 lat
#TLE: 1 27424U 02022A   26004.96787593  .00001598  00000+0  32997-3 0  9996
#TLE: 2 27424  98.4069 331.2279 0002002  90.2377   0.6092 14.61798176259425

#Time	Az	El	Level	Level2	SNR	BER	BlckErr	Temp	State	Recorded	gain1	gain2
2026-01-06 12:48:32.72	192.59	2.10	-58.3	-77.3	3.8	7.46e-01	0	26	0	0	85	31846
2026-01-06 12:48:33.72	192.65	2.17	-58.1	-77.0	3.8	7.46e-01	0	26	104	0	83	34751
2026-01-06 12:48:34.71	192.70	2.23	-58.1	-77.2	3.8	7.45e-01	0	26	104	0	83	35394
2026-01-06 12:48:35.71	192.76	2.29	-58.1	-77.2	3.8	7.48e-01	0	26	104	0	83	35462
2026-01-06 12:48:36.71	192.82	2.35	-58.1	-77.3	3.8	7.47e-01	0	26	104	0	83	35872
2026-01-06 12:48:37.69	192.87	2.41	-58.1	-77.3	3.8	7.48e-01	0	26	104	0	83	36092
2026-01-06 12:48:38.69	192.93	2.48	-58.1	-77.3	3.8	7.45e-01	0	26	104	0	83	35921
2026-01-06 12:48:39.69	192.98	2.54	-58.1	-77.2	3.8	7.47e-01	0	26	104	0	83	35494
2026-01-06 12:48:40.70	193.04	2.60	-58.1	-77.2	3.8	7.48e-01	0	26	104	0	83	35521
2026-01-06 12:48:41.69	193.10	2.67	-58.1	-77.2	3.8	7.47e-01	0	26	104	0	83	35286
2026-01-06 12:48:42.69	193.16	2.73	-58.1	-77.2	3.8	7.46e-01	0	26	104	0	83	35458
2026-01-06 12:48:43.70	193.22	2.80	-58.1	-77.2	3.8	7.47e-01	0	26	104	0	83	35430
2026-01-06 12:48:44.69	193.27	2.86	-58.1	-77.1	3.8	7.47e-01	0	26	104	0	83	35182
2026-01-06 12:48:45.68	193.33	2.92	-58.1	-77.2	3.8	7.46e-01	0	26	104	0	83	35539
2026-01-06 12:48:46.68	193.39	2.99	-58.1	-77.0	3.8	7.48e-01	0	26	104	0	83	34838
2026-01-06 12:48:47.68	193.45	3.05	-58.1	-76.9	3.9	7.43e-01	0	26	104	0	83	34276
2026-01-06 12:48:48.67	193.51	3.12	-58.1	-76.8	3.8	7.42e-01	0	26	104	0	83	33881
2026-01-06 12:48:49.66	193.57	3.18	-58.1	-76.9	3.8	7.40e-01	0	26	104	0	83	34448
2026-01-06 12:48:50.65	193.63	3.24	-58.1	-77.1	3.8	7.46e-01	0	26	104	0	83	35094
2026-01-06 12:48:51.65	193.69	3.31	-58.1	-76.5	3.8	7.45e-01	0	26	104	0	83	32823
2026-01-06 12:48:52.65	193.75	3.37	-58.1	-76.4	3.8	7.46e-01	0	26	104	0	83	32528
2026-01-06 12:48:53.65	193.81	3.44	-58.1	-76.5	3.8	7.44e-01	0	26	104	0	83	32849
2026-01-06 12:48:54.64	193.87	3.50	-58.1	-75.9	3.8	7.43e-01	0	26	104	0	83	30616
2026-01-06 12:48:55.64	193.93	3.57	-58.1	-75.8	3.9	7.41e-01	0	27	104	0	83	30158
2026-01-06 12:48:56.63	193.99	3.63	-58.1	-75.7	3.8	7.46e-01	0	26	104	0	83	29746
2026-01-06 12:48:57.63	194.05	3.70	-58.1	-76.3	3.8	7.48e-01	0	27	104	0	83	31876
2026-01-06 12:48:58.63	194.12	3.77	-58.1	-76.8	3.8	7.46e-01	0	26	104	0	83	33846
2026-01-06 12:48:59.61	194.18	3.83	-58.1	-77.4	3.8	7.45e-01	0	27	104	0	83	36418
2026-01-06 12:49:00.60	194.24	3.90	-58.1	-76.9	3.8	7.44e-01	0	27	104	0	83	34271
2026-01-06 12:49:01.60	194.30	3.96	-58.1	-76.0	3.9	7.44e-01	0	27	104	0	83	30765
2026-01-06 12:49:02.59	194.37	4.03	-58.0	-71.9	4.9	7.12e-01	0	27	104	0	83	19295
2026-01-06 12:49:03.59	194.43	4.10	-57.9	-70.1	5.9	6.80e-01	13	27	0	524288	83	15735
2026-01-06 12:49:04.59	194.49	4.16	-57.7	-68.2	7.4	6.50e-01	91	27	0	2097152	83	12580
2026-01-06 12:49:05.59	194.56	4.23	-57.5	-66.4	8.9	6.29e-01	0	27	0	4194304	83	10288
2026-01-06 12:49:06.58	194.62	4.30	-57.4	-66.3	9.1	6.28e-01	0	27	0	5767168	83	10095
2026-01-06 12:49:07.58	194.69	4.36	-57.2	-65.0	10.1	6.18e-01	0	27	0	7864320	83	8693
2026-01-06 12:49:08.57	194.75	4.43	-57.2	-64.9	10.2	6.17e-01	0	27	0	9437184	83	8564
2026-01-06 12:49:09.57	194.82	4.50	-57.0	-64.2	10.8	6.16e-01	0	27	0	11534336	83	7902
2026-01-06 12:49:10.57	194.88	4.57	-56.9	-63.6	11.2	6.09e-01	0	27	0	13631488	83	7443
2026-01-06 12:49:11.57	194.95	4.63	-56.6	-62.6	11.9	6.11e-01	0	27	0	15204352	82	6976
2026-01-06 12:49:12.58	195.02	4.70	-56.3	-61.7	12.4	6.07e-01	0	27	0	17301504	81	6681
2026-01-06 12:49:13.57	195.08	4.77	-56.0	-61.0	12.8	6.08e-01	0	27	0	18874368	81	6197
2026-01-06 12:49:14.57	195.15	4.84	-55.1	-59.0	13.8	6.07e-01	0	27	0	20971520	79	5489
2026-01-06 12:49:15.56	195.22	4.91	-55.2	-59.2	13.7	6.06e-01	0	27	0	22544384	79	5621
2026-01-06 12:49:16.56	195.28	4.98	-55.1	-58.9	13.8	6.06e-01	0	27	0	24641536	78	5761
2026-01-06 12:49:17.56	195.35	5.05	-55.1	-59.0	13.8	6.07e-01	0	27	0	26214400	78	5815
2026-01-06 12:49:18.55	195.42	5.11	-55.7	-60.2	13.2	6.08e-01	0	27	0	28311552	79	6323
2026-01-06 12:49:19.54	195.49	5.18	-55.0	-58.7	14.0	6.05e-01	0	27	0	30408704	79	5314
2026-01-06 12:49:20.54	195.56	5.25	-57.6	-67.5	8.9	6.36e-01	0	27	0	31981568	82	12288
2026-01-06 12:49:21.54	195.63	5.32	-54.4	-57.7	13.7	6.06e-01	0	27	0	32505856	78	4989
2026-01-06 12:49:22.53	195.69	5.39	-52.2	-54.5	15.0	6.06e-01	0	27	0	34603008	73	4634
2026-01-06 12:49:23.52	195.76	5.46	-52.3	-54.6	15.0	6.07e-01	0	27	0	36175872	73	4671
2026-01-06 12:49:24.51	195.83	5.53	-52.1	-54.3	15.1	6.06e-01	0	27	0	38273024	73	4522
2026-01-06 12:49:25.51	195.90	5.60	-52.2	-54.5	15.0	6.09e-01	0	27	0	39845888	73	4621
2026-01-06 12:49:26.51	195.98	5.67	-52.2	-54.5	15.1	6.07e-01	0	27	0	41943040	73	4617
2026-01-06 12:49:27.49	196.05	5.74	-52.3	-54.7	15.0	6.06e-01	0	27	0	43515904	73	4721
2026-01-06 12:49:28.49	196.12	5.81	-52.0	-54.3	15.1	6.08e-01	0	27	0	45613056	73	4496
2026-01-06 12:49:29.49	196.19	5.88	-51.9	-54.1	15.2	6.07e-01	0	27	0	47710208	73	4430
2026-01-06 12:49:30.50	196.26	5.96	-52.2	-54.5	15.1	6.06e-01	0	27	0	49283072	73	4622
2026-01-06 12:49:31.49	196.34	6.03	-52.1	-54.3	15.1	6.07e-01	0	27	0	51380224	73	4501
2026-01-06 12:49:32.49	196.41	6.10	-52.4	-54.7	15.0	6.07e-01	0	27	0	52953088	73	4722
2026-01-06 12:49:33.49	196.48	6.17	-52.2	-54.4	15.1	6.08e-01	0	27	0	55050240	73	4578
2026-01-06 12:49:34.48	196.56	6.24	-52.1	-54.2	15.2	6.05e-01	0	27	0	56623104	73	4491
2026-01-06 12:49:35.48	196.63	6.31	-52.0	-54.2	15.2	6.05e-01	0	27	0	58720256	73	4455
2026-01-06 12:49:36.48	196.70	6.39	-52.1	-54.3	15.1	6.08e-01	0	27	0	60817408	73	4524
2026-01-06 12:49:37.47	196.78	6.46	-52.0	-54.2	15.2	6.07e-01	0	27	0	62390272	73	4466
2026-01-06 12:49:38.47	196.85	6.53	-52.2	-54.4	15.1	6.06e-01	0	27	0	64487424	73	4564
2026-01-06 12:49:39.47	196.93	6.60	-52.2	-54.4	15.1	6.07e-01	0	27	0	66060288	73	4560
2026-01-06 12:49:40.46	197.01	6.68	-52.1	-54.2	15.1	6.08e-01	0	27	0	68157440	73	4493
2026-01-06 12:49:41.46	197.08	6.75	-51.9	-54.1	15.2	6.08e-01	0	27	0	69730304	73	4408
2026-01-06 12:49:42.45	197.16	6.82	-52.0	-54.1	15.1	6.08e-01	0	27	0	71827456	72	4677
2026-01-06 12:49:43.45	197.24	6.90	-52.0	-54.1	15.1	6.06e-01	0	27	0	73924608	72	4681
2026-01-06 12:49:44.45	197.32	6.97	-51.9	-54.1	15.1	6.09e-01	0	27	0	75497472	72	4652
2026-01-06 12:49:45.44	197.39	7.04	-51.9	-54.0	15.1	6.06e-01	0	27	0	77594624	72	4628
2026-01-06 12:49:46.44	197.47	7.12	-51.9	-54.0	15.1	6.05e-01	0	27	0	79167488	72	4648
2026-01-06 12:49:47.43	197.55	7.19	-51.9	-54.0	15.1	6.07e-01	0	28	0	81264640	72	4626
2026-01-06 12:49:48.42	197.63	7.27	-51.9	-54.0	15.1	6.06e-01	0	27	0	82837504	72	4641
2026-01-06 12:49:49.41	197.71	7.34	-51.9	-54.0	15.1	6.07e-01	0	27	0	84934656	72	4630
2026-01-06 12:49:50.41	197.79	7.42	-52.0	-54.1	15.1	6.04e-01	0	28	0	86507520	72	4669
2026-01-06 12:49:51.41	197.87	7.49	-51.8	-53.9	15.2	6.04e-01	0	28	0	88604672	72	4546
2026-01-06 12:49:52.40	197.95	7.57	-51.9	-54.1	15.1	6.06e-01	0	27	0	90701824	72	4655
2026-01-06 12:49:53.40	198.03	7.64	-52.0	-54.1	15.1	6.06e-01	0	27	0	92274688	72	4696
2026-01-06 12:49:54.39	198.11	7.72	-52.0	-54.2	15.1	6.06e-01	0	28	0	94371840	72	4709
2026-01-06 12:49:55.39	198.20	7.79	-52.0	-54.2	15.0	6.07e-01	0	28	0	95944704	72	4733
2026-01-06 12:49:56.37	198.28	7.87	-51.7	-53.7	15.2	6.05e-01	0	28	0	98041856	72	4491
2026-01-06 12:49:57.37	198.36	7.94	-51.7	-53.7	15.2	6.07e-01	0	28	0	99614720	72	4458
2026-01-06 12:49:58.36	198.44	8.02	-51.8	-53.9	15.2	6.07e-01	0	28	0	101711872	72	4575
2026-01-06 12:49:59.35	198.53	8.10	-51.7	-53.7	15.2	6.07e-01	0	28	0	103284736	72	4460
2026-01-06 12:50:00.35	198.61	8.17	-51.8	-53.9	15.1	6.07e-01	0	28	0	105381888	72	4578
2026-01-06 12:50:01.34	198.70	8.25	-51.8	-53.9	15.1	6.02e-01	0	28	0	107479040	72	4576
2026-01-06 12:50:02.33	198.78	8.33	-51.6	-53.7	15.2	6.07e-01	0	28	0	109051904	72	4444
2026-01-06 12:50:03.32	198.87	8.41	-51.6	-53.6	15.3	6.06e-01	0	28	0	111149056	72	4410
2026-01-06 12:50:04.32	198.95	8.48	-51.7	-53.7	15.2	6.07e-01	0	28	0	112721920	72	4493
2026-01-06 12:50:05.31	199.04	8.56	-51.6	-53.6	15.3	6.05e-01	0	28	0	114819072	72	4406
2026-01-06 12:50:06.31	199.13	8.64	-51.5	-53.5	15.3	6.07e-01	0	28	0	116391936	72	4382
2026-01-06 12:50:07.31	199.22	8.72	-51.6	-53.6	15.3	6.06e-01	0	28	0	118489088	72	4392
2026-01-06 12:50:08.31	199.31	8.80	-51.5	-53.5	15.3	6.06e-01	0	28	0	120061952	72	4374
2026-01-06 12:50:09.31	199.39	8.88	-51.6	-53.6	15.3	6.05e-01	0	28	0	122159104	72	4400
2026-01-06 12:50:10.31	199.48	8.96	-51.4	-53.4	15.3	6.07e-01	0	28	0	124256256	72	4297
2026-01-06 12:50:11.31	199.57	9.04	-51.4	-53.3	15.3	6.04e-01	0	28	0	125829120	72	4289
2026-01-06 12:50:12.31	199.67	9.12	-51.4	-53.4	15.2	6.06e-01	0	28	0	127926272	71	4573
2026-01-06 12:50:13.30	199.76	9.20	-51.3	-53.3	15.2	6.06e-01	0	28	0	129499136	71	4504
2026-01-06 12:50:14.30	199.85	9.28	-51.5	-53.5	15.2	6.06e-01	0	28	0	131596288	71	4605
2026-01-06 12:50:15.29	199.94	9.36	-51.4	-53.3	15.2	6.06e-01	0	28	0	133169152	71	4536
2026-01-06 12:50:16.29	200.03	9.44	-51.4	-53.3	15.2	6.07e-01	0	28	0	135266304	71	4512
2026-01-06 12:50:17.29	200.12	9.52	-51.3	-53.3	15.2	6.05e-01	0	28	0	137363456	71	4501
2026-01-06 12:50:18.29	200.22	9.60	-51.3	-53.2	15.3	6.06e-01	0	28	0	138936320	71	4456
2026-01-06 12:50:19.29	200.31	9.68	-51.3	-53.3	15.3	6.06e-01	0	28	0	141033472	71	4496
2026-01-06 12:50:20.28	200.41	9.76	-51.4	-53.3	15.3	6.05e-01	0	28	0	142606336	71	4522
2026-01-06 12:50:21.28	200.50	9.84	-51.4	-53.4	15.2	6.07e-01	0	28	0	144703488	71	4564
2026-01-06 12:50:22.28	200.60	9.93	-51.3	-53.3	15.2	6.07e-01	0	28	0	146276352	71	4507
2026-01-06 12:50:23.28	200.70	10.01	-51.2	-53.1	15.3	6.07e-01	0	28	0	148373504	71	4410
2026-01-06 12:50:24.28	200.79	10.09	-51.2	-53.1	15.3	6.06e-01	0	28	0	150470656	71	4423
2026-01-06 12:50:25.27	200.89	10.17	-51.2	-53.1	15.3	6.04e-01	0	28	0	152043520	71	4441
2026-01-06 12:50:26.27	200.99	10.26	-51.4	-53.3	15.2	6.08e-01	0	28	0	154140672	71	4530
2026-01-06 12:50:27.27	201.09	10.34	-51.1	-52.9	15.4	6.05e-01	0	28	0	155713536	71	4335
2026-01-06 12:50:28.27	201.19	10.42	-51.2	-53.1	15.3	6.06e-01	0	28	0	157810688	71	4394
2026-01-06 12:50:29.26	201.29	10.51	-51.2	-53.1	15.3	6.07e-01	0	28	0	159383552	71	4409
2026-01-06 12:50:30.26	201.39	10.59	-51.2	-53.1	15.3	6.04e-01	0	28	0	161480704	71	4424
2026-01-06 12:50:31.26	201.49	10.68	-51.0	-52.8	15.4	6.08e-01	0	28	0	163053568	71	4288
2026-01-06 12:50:32.25	201.59	10.76	-51.1	-52.9	15.4	6.07e-01	0	28	0	165150720	71	4338
2026-01-06 12:50:33.24	201.69	10.84	-51.1	-52.9	15.4	6.04e-01	0	28	0	167247872	71	4331
2026-01-06 12:50:34.24	201.79	10.93	-51.1	-53.0	15.3	6.07e-01	0	28	0	168820736	71	4375
2026-01-06 12:50:35.24	201.90	11.01	-51.2	-53.1	15.3	6.05e-01	0	28	0	170917888	71	4403
2026-01-06 12:50:36.23	202.00	11.10	-51.0	-52.8	15.4	6.06e-01	0	28	0	172490752	71	4284
2026-01-06 12:50:37.23	202.11	11.19	-51.0	-52.8	15.4	6.07e-01	0	28	0	174587904	71	4281
2026-01-06 12:50:38.24	202.21	11.27	-51.0	-52.9	15.4	6.04e-01	0	28	0	176160768	71	4304
2026-01-06 12:50:39.24	202.32	11.36	-50.9	-52.7	15.4	6.09e-01	0	28	0	178257920	71	4227
2026-01-06 12:50:40.23	202.42	11.44	-51.0	-52.8	15.4	6.07e-01	0	28	0	180355072	71	4282
2026-01-06 12:50:41.23	202.53	11.53	-50.9	-52.7	15.4	6.06e-01	0	28	0	181927936	71	4235
2026-01-06 12:50:42.23	202.64	11.62	-50.9	-52.7	15.4	6.08e-01	0	28	0	184025088	71	4235
2026-01-06 12:50:43.22	202.75	11.71	-50.9	-52.7	15.3	6.06e-01	0	28	0	185597952	70	4459
2026-01-06 12:50:44.21	202.86	11.79	-50.9	-52.7	15.3	6.06e-01	0	28	0	187695104	70	4480
2026-01-06 12:50:45.20	202.97	11.88	-51.0	-52.8	15.3	6.07e-01	0	28	0	189267968	70	4532
2026-01-06 12:50:46.19	203.08	11.97	-50.9	-52.7	15.3	6.04e-01	0	28	0	191365120	70	4447
2026-01-06 12:50:47.19	203.19	12.06	-50.8	-52.6	15.3	6.09e-01	0	28	0	192937984	70	4410
2026-01-06 12:50:48.19	203.30	12.14	-50.8	-52.6	15.3	6.06e-01	0	28	0	195035136	70	4427
2026-01-06 12:50:49.18	203.41	12.23	-50.8	-52.6	15.3	6.04e-01	0	28	0	197132288	70	4404
2026-01-06 12:50:50.18	203.53	12.32	-50.8	-52.6	15.3	6.07e-01	0	28	0	198705152	70	4429
2026-01-06 12:50:51.18	203.64	12.41	-50.7	-52.5	15.4	6.05e-01	0	28	0	200802304	70	4380
2026-01-06 12:50:52.19	203.76	12.50	-50.6	-52.4	15.4	6.09e-01	0	28	0	202375168	70	4304
2026-01-06 12:50:53.18	203.87	12.59	-50.6	-52.3	15.4	6.05e-01	0	28	0	204472320	70	4288
2026-01-06 12:50:54.18	203.99	12.68	-50.6	-52.4	15.4	6.07e-01	0	28	0	206569472	70	4300
2026-01-06 12:50:55.17	204.10	12.77	-50.6	-52.4	15.4	6.06e-01	0	28	0	208142336	70	4306
2026-01-06 12:50:56.17	204.22	12.86	-50.6	-52.4	15.4	6.06e-01	0	28	0	210239488	70	4304
2026-01-06 12:50:57.16	204.34	12.95	-50.7	-52.5	15.4	6.05e-01	0	28	0	211812352	70	4345
2026-01-06 12:50:58.16	204.46	13.05	-50.8	-52.6	15.4	6.07e-01	0	28	0	213909504	70	4401
2026-01-06 12:50:59.16	204.58	13.14	-50.7	-52.4	15.4	6.06e-01	0	28	0	215482368	70	4338
2026-01-06 12:51:00.16	204.70	13.23	-50.7	-52.4	15.4	6.05e-01	0	28	0	217579520	70	4319
2026-01-06 12:51:01.16	204.82	13.32	-50.7	-52.4	15.4	6.05e-01	0	28	0	219152384	70	4326
2026-01-06 12:51:02.16	204.95	13.41	-50.6	-52.4	15.4	6.07e-01	0	28	0	221249536	70	4314
2026-01-06 12:51:03.16	205.07	13.51	-50.6	-52.4	15.4	6.06e-01	0	28	0	223346688	70	4315
2026-01-06 12:51:04.16	205.19	13.60	-50.6	-52.4	15.4	6.05e-01	0	28	0	224919552	70	4304
2026-01-06 12:51:05.16	205.32	13.69	-50.6	-52.4	15.4	6.05e-01	0	28	0	227016704	70	4297
2026-01-06 12:51:06.15	205.44	13.79	-50.5	-52.2	15.5	6.07e-01	0	28	0	228589568	70	4216
2026-01-06 12:51:07.16	205.57	13.88	-50.5	-52.3	15.4	6.09e-01	0	28	0	230686720	70	4248
2026-01-06 12:51:08.16	205.70	13.98	-50.5	-52.2	15.4	6.06e-01	0	28	0	232259584	70	4241
2026-01-06 12:51:09.15	205.83	14.07	-50.5	-52.2	15.4	6.06e-01	0	28	0	234356736	70	4237
2026-01-06 12:51:10.16	205.96	14.17	-50.6	-52.3	15.4	6.07e-01	0	28	0	236453888	70	4274
2026-01-06 12:51:11.15	206.09	14.26	-50.6	-52.3	15.4	6.07e-01	0	28	0	238026752	70	4272
2026-01-06 12:51:12.14	206.22	14.36	-50.5	-52.3	15.4	6.06e-01	0	28	0	240123904	70	4251
2026-01-06 12:51:13.15	206.35	14.45	-50.4	-52.1	15.5	6.06e-01	0	28	0	241696768	70	4191
2026-01-06 12:51:14.15	206.48	14.55	-50.4	-52.1	15.5	6.07e-01	0	28	0	243793920	70	4182
2026-01-06 12:51:15.15	206.62	14.64	-50.4	-52.2	15.5	6.06e-01	0	28	0	245366784	70	4196
2026-01-06 12:51:16.15	206.75	14.74	-50.3	-52.0	15.4	6.07e-01	0	28	0	247463936	69	4367
2026-01-06 12:51:17.14	206.88	14.84	-50.4	-52.1	15.4	6.08e-01	0	28	0	249561088	69	4416
2026-01-06 12:51:18.14	207.02	14.93	-50.4	-52.1	15.4	6.06e-01	0	28	0	251133952	69	4405
2026-01-06 12:51:19.13	207.16	15.03	-50.4	-52.1	15.4	6.06e-01	0	28	0	253231104	69	4402
2026-01-06 12:51:20.13	207.30	15.13	-50.4	-52.2	15.3	6.06e-01	0	28	0	254803968	69	4446
2026-01-06 12:51:21.14	207.44	15.23	-50.5	-52.3	15.3	6.05e-01	0	28	0	256901120	69	4499
2026-01-06 12:51:22.13	207.57	15.33	-50.4	-52.1	15.4	6.08e-01	0	28	0	258473984	69	4426
2026-01-06 12:51:23.13	207.72	15.42	-50.4	-52.1	15.4	6.08e-01	0	28	0	260571136	69	4417
2026-01-06 12:51:24.14	207.86	15.52	-50.5	-52.2	15.3	6.06e-01	0	28	0	262668288	69	4459
2026-01-06 12:51:25.14	208.00	15.62	-50.3	-52.0	15.4	6.06e-01	0	28	0	264241152	69	4365
2026-01-06 12:51:26.15	208.15	15.72	-50.4	-52.1	15.4	6.06e-01	0	28	0	266338304	69	4406
2026-01-06 12:51:27.15	208.29	15.82	-50.3	-52.0	15.4	6.06e-01	0	28	0	267911168	69	4352
2026-01-06 12:51:28.15	208.44	15.92	-50.3	-52.0	15.4	6.05e-01	0	28	0	270008320	69	4387
2026-01-06 12:51:29.15	208.59	16.02	-50.3	-52.0	15.4	6.05e-01	0	28	0	272105472	69	4366
2026-01-06 12:51:30.14	208.73	16.12	-50.2	-51.9	15.4	6.08e-01	0	28	0	273678336	69	4328
2026-01-06 12:51:31.15	208.88	16.23	-50.3	-52.0	15.4	6.06e-01	0	28	0	275775488	69	4354
2026-01-06 12:51:32.14	209.03	16.33	-50.3	-51.9	15.4	6.05e-01	0	28	0	277348352	69	4335
2026-01-06 12:51:33.14	209.18	16.43	-50.3	-51.9	15.4	6.06e-01	0	28	0	279445504	69	4328
2026-01-06 12:51:34.15	209.34	16.53	-50.3	-51.9	15.4	6.08e-01	0	28	0	281018368	69	4333
2026-01-06 12:51:35.14	209.49	16.63	-50.3	-52.0	15.4	6.08e-01	0	28	0	283115520	69	4341
2026-01-06 12:51:36.13	209.64	16.73	-50.4	-52.1	15.4	6.07e-01	0	28	0	285212672	69	4401
2026-01-06 12:51:37.12	209.80	16.84	-50.4	-52.1	15.3	6.08e-01	0	28	0	286785536	69	4430
2026-01-06 12:51:38.13	209.95	16.94	-50.4	-52.1	15.4	6.08e-01	0	28	0	288882688	69	4432
2026-01-06 12:51:39.14	210.11	17.04	-50.4	-52.1	15.3	6.08e-01	0	28	0	290455552	69	4437
2026-01-06 12:51:40.14	210.27	17.15	-50.5	-52.2	15.3	6.05e-01	0	28	0	292552704	69	4448
2026-01-06 12:51:41.14	210.43	17.25	-50.3	-51.9	15.4	6.07e-01	0	28	0	294125568	69	4340
2026-01-06 12:51:42.14	210.59	17.36	-50.2	-51.9	15.4	6.05e-01	0	28	0	296222720	69	4308
2026-01-06 12:51:43.13	210.75	17.46	-50.3	-52.0	15.4	6.04e-01	0	28	0	298319872	69	4364
2026-01-06 12:51:44.13	210.92	17.56	-50.4	-52.1	15.4	6.07e-01	0	28	0	299892736	69	4425
2026-01-06 12:51:45.13	211.08	17.67	-50.4	-52.1	15.4	6.04e-01	0	28	0	301989888	69	4411
2026-01-06 12:51:46.13	211.25	17.77	-50.3	-52.0	15.4	6.08e-01	0	28	0	303562752	69	4366
2026-01-06 12:51:47.12	211.41	17.88	-50.4	-52.0	15.4	6.08e-01	0	28	0	305659904	69	4372
2026-01-06 12:51:48.11	211.58	17.98	-50.3	-52.0	15.4	6.05e-01	0	28	0	307232768	69	4362
2026-01-06 12:51:49.11	211.75	18.09	-50.3	-52.0	15.4	6.06e-01	0	28	0	309329920	69	4355
2026-01-06 12:51:50.11	211.92	18.20	-50.5	-52.2	15.3	6.05e-01	0	28	0	310902784	69	4449
2026-01-06 12:51:51.11	212.09	18.30	-50.4	-52.1	15.4	6.06e-01	0	28	0	312999936	69	4396
2026-01-06 12:51:52.11	212.26	18.41	-50.4	-52.1	15.4	6.06e-01	0	28	0	315097088	69	4403
2026-01-06 12:51:53.11	212.44	18.52	-50.3	-51.9	15.4	6.07e-01	0	28	0	316669952	69	4334
2026-01-06 12:51:54.11	212.61	18.62	-50.3	-51.9	15.4	6.06e-01	0	28	0	318767104	69	4333
2026-01-06 12:51:55.11	212.79	18.73	-50.3	-52.0	15.4	6.07e-01	0	28	0	320339968	69	4371
2026-01-06 12:51:56.11	212.97	18.84	-50.4	-52.0	15.4	6.07e-01	0	28	0	322437120	69	4384
2026-01-06 12:51:57.11	213.15	18.95	-50.4	-52.1	15.4	6.07e-01	0	28	0	324009984	69	4399
2026-01-06 12:51:58.10	213.33	19.06	-50.4	-52.0	15.4	6.07e-01	0	28	0	326107136	69	4385
2026-01-06 12:51:59.09	213.51	19.16	-50.3	-51.9	15.4	6.06e-01	0	28	0	328204288	69	4322
2026-01-06 12:52:00.09	213.69	19.27	-50.3	-52.0	15.4	6.06e-01	0	28	0	329777152	69	4342
2026-01-06 12:52:01.09	213.87	19.38	-50.2	-51.9	15.4	6.06e-01	0	28	0	331874304	69	4299
2026-01-06 12:52:02.09	214.06	19.49	-50.2	-51.8	15.4	6.07e-01	0	28	0	333447168	69	4270
2026-01-06 12:52:03.08	214.25	19.60	-50.2	-51.9	15.4	6.06e-01	0	28	0	335544320	69	4295
2026-01-06 12:52:04.08	214.43	19.71	-50.4	-52.1	15.4	6.05e-01	0	28	0	337641472	69	4398
2026-01-06 12:52:05.08	214.62	19.82	-50.3	-52.0	15.4	6.06e-01	0	28	0	339214336	69	4377
2026-01-06 12:52:06.07	214.81	19.93	-50.3	-52.0	15.4	6.07e-01	0	28	0	341311488	69	4357
2026-01-06 12:52:07.07	215.01	20.04	-50.2	-51.9	15.4	6.07e-01	0	28	0	342884352	69	4293
2026-01-06 12:52:08.07	215.20	20.15	-50.2	-51.8	15.4	6.08e-01	0	28	0	344981504	69	4290
2026-01-06 12:52:09.06	215.40	20.26	-50.3	-51.9	15.4	6.07e-01	0	28	0	346554368	69	4339
2026-01-06 12:52:10.06	215.59	20.37	-50.3	-51.9	15.4	6.05e-01	0	28	0	348651520	69	4328
2026-01-06 12:52:11.06	215.79	20.48	-50.3	-51.9	15.4	6.07e-01	0	28	0	350224384	69	4327
2026-01-06 12:52:12.05	215.99	20.59	-50.2	-51.9	15.4	6.05e-01	0	28	0	352321536	69	4298
2026-01-06 12:52:13.06	216.19	20.71	-50.3	-52.0	15.4	6.04e-01	0	28	0	354418688	69	4364
2026-01-06 12:52:14.06	216.40	20.82	-50.3	-51.9	15.4	6.06e-01	0	28	0	355991552	69	4336
2026-01-06 12:52:15.06	216.60	20.93	-50.3	-52.0	15.4	6.05e-01	0	28	0	358088704	69	4347
2026-01-06 12:52:16.06	216.81	21.04	-50.4	-52.1	15.4	6.06e-01	0	28	0	359661568	69	4402
2026-01-06 12:52:17.07	217.02	21.16	-50.4	-52.1	15.4	6.07e-01	0	28	0	361758720	69	4432
2026-01-06 12:52:18.07	217.23	21.27	-50.3	-52.0	15.4	6.03e-01	0	28	0	363855872	69	4368
2026-01-06 12:52:19.07	217.44	21.38	-50.3	-52.0	15.4	6.07e-01	0	28	0	365428736	69	4363
2026-01-06 12:52:20.06	217.65	21.50	-50.2	-51.9	15.4	6.06e-01	0	28	0	367525888	69	4311
2026-01-06 12:52:21.06	217.86	21.61	-50.3	-52.0	15.4	6.07e-01	0	28	0	369098752	69	4349
2026-01-06 12:52:22.06	218.08	21.72	-50.4	-52.1	15.4	6.08e-01	0	28	0	371195904	69	4397
2026-01-06 12:52:23.06	218.30	21.84	-50.4	-52.1	15.4	6.06e-01	0	28	0	372768768	69	4420
2026-01-06 12:52:24.06	218.52	21.95	-50.4	-52.1	15.4	6.07e-01	0	28	0	374865920	69	4402
2026-01-06 12:52:25.05	218.73	22.07	-50.5	-52.2	15.4	6.06e-01	0	28	0	376438784	69	4450
2026-01-06 12:52:26.05	218.96	22.18	-50.5	-52.2	15.4	6.07e-01	0	28	0	378535936	69	4450
2026-01-06 12:52:27.04	219.18	22.29	-50.6	-52.3	15.3	6.08e-01	0	28	0	380633088	69	4496
2026-01-06 12:52:28.04	219.40	22.41	-50.5	-52.2	15.4	6.07e-01	0	28	0	382205952	69	4446
2026-01-06 12:52:29.03	219.63	22.52	-50.4	-52.0	15.4	6.07e-01	0	28	0	384303104	69	4382
2026-01-06 12:52:30.03	219.86	22.64	-50.4	-52.0	15.4	6.07e-01	0	28	0	385875968	69	4380
2026-01-06 12:52:31.03	220.09	22.75	-50.4	-52.1	15.4	6.09e-01	0	28	0	387973120	69	4431
2026-01-06 12:52:32.02	220.32	22.86	-50.7	-52.4	15.3	6.06e-01	0	28	0	389545984	69	4555
2026-01-06 12:52:33.02	220.55	22.98	-50.7	-52.5	15.3	6.07e-01	0	28	0	391643136	69	4612
2026-01-06 12:52:34.01	220.79	23.09	-50.7	-52.4	15.3	6.08e-01	0	28	0	393216000	69	4581
2026-01-06 12:52:35.01	221.03	23.21	-50.7	-52.4	15.3	6.07e-01	0	28	0	395313152	69	4557
2026-01-06 12:52:36.01	221.27	23.32	-50.6	-52.3	15.3	6.05e-01	0	28	0	397410304	69	4515
2026-01-06 12:52:37.01	221.51	23.44	-50.8	-52.5	15.3	6.05e-01	0	28	0	398983168	69	4626
2026-01-06 12:52:38.01	221.75	23.56	-50.7	-52.4	15.3	6.07e-01	0	28	0	401080320	69	4563
2026-01-06 12:52:39.00	221.99	23.67	-50.7	-52.4	15.3	6.07e-01	0	28	0	402653184	69	4555
2026-01-06 12:52:40.01	222.24	23.79	-50.5	-52.2	15.4	6.07e-01	0	28	0	404750336	69	4465
2026-01-06 12:52:41.00	222.49	23.90	-50.7	-52.4	15.3	6.06e-01	0	28	0	406323200	69	4556
2026-01-06 12:52:41.99	222.74	24.02	-50.7	-52.4	15.3	6.06e-01	0	28	0	408420352	69	4568
2026-01-06 12:52:43.00	222.99	24.13	-50.6	-52.3	15.3	6.06e-01	0	28	0	410517504	69	4520
2026-01-06 12:52:43.99	223.25	24.25	-50.6	-52.2	15.3	6.06e-01	0	28	0	412090368	69	4487
2026-01-06 12:52:44.98	223.50	24.36	-50.5	-52.2	15.4	6.05e-01	0	29	0	414187520	69	4462
2026-01-06 12:52:45.97	223.76	24.48	-50.6	-52.3	15.3	6.06e-01	0	28	0	415760384	69	4500
2026-01-06 12:52:46.96	224.01	24.59	-50.5	-52.2	15.4	6.08e-01	0	28	0	417857536	69	4464
2026-01-06 12:52:47.95	224.27	24.70	-50.5	-52.2	15.4	6.07e-01	0	28	0	419430400	69	4458
2026-01-06 12:52:48.96	224.54	24.82	-50.6	-52.3	15.3	6.07e-01	0	28	0	421527552	69	4534
2026-01-06 12:52:49.95	224.80	24.94	-50.7	-52.4	15.3	6.06e-01	0	28	0	423100416	69	4591
2026-01-06 12:52:50.95	225.07	25.05	-50.6	-52.3	15.3	6.06e-01	0	28	0	425197568	69	4533
2026-01-06 12:52:51.93	225.34	25.16	-50.5	-52.1	15.4	6.05e-01	0	28	0	427294720	69	4438
2026-01-06 12:52:52.93	225.61	25.28	-50.5	-52.2	15.4	6.08e-01	0	28	0	428867584	69	4461
2026-01-06 12:52:53.93	225.88	25.39	-50.6	-52.2	15.3	6.08e-01	0	28	0	430964736	69	4490
2026-01-06 12:52:54.93	226.16	25.51	-50.7	-52.4	15.3	6.08e-01	0	28	0	432537600	69	4560
2026-01-06 12:52:55.92	226.43	25.62	-50.7	-52.4	15.3	6.06e-01	0	28	0	434634752	69	4563
2026-01-06 12:52:56.90	226.71	25.73	-50.7	-52.4	15.3	6.07e-01	0	28	0	436207616	69	4587
2026-01-06 12:52:57.90	226.99	25.85	-50.7	-52.4	15.3	6.09e-01	0	28	0	438304768	69	4556
2026-01-06 12:52:58.90	227.28	25.96	-50.8	-52.5	15.3	6.06e-01	0	28	0	439877632	69	4612
2026-01-06 12:52:59.89	227.56	26.08	-50.7	-52.5	15.3	6.05e-01	0	28	0	441974784	69	4605
2026-01-06 12:53:00.88	227.85	26.19	-50.6	-52.3	15.3	6.07e-01	0	28	0	444071936	69	4528
2026-01-06 12:53:01.88	228.14	26.30	-50.6	-52.3	15.4	6.06e-01	0	28	0	445644800	69	4515
2026-01-06 12:53:02.87	228.43	26.41	-50.6	-52.3	15.3	6.06e-01	0	28	0	447741952	69	4515
2026-01-06 12:53:03.86	228.72	26.53	-50.6	-52.2	15.3	6.07e-01	0	28	0	449314816	69	4489
2026-01-06 12:53:04.86	229.02	26.64	-50.7	-52.4	15.3	6.07e-01	0	28	0	451411968	69	4576
2026-01-06 12:53:05.86	229.32	26.75	-50.6	-52.3	15.3	6.06e-01	0	28	0	452984832	69	4532
2026-01-06 12:53:06.86	229.62	26.86	-50.6	-52.3	15.4	6.08e-01	0	28	0	455081984	69	4500
2026-01-06 12:53:07.84	229.91	26.97	-50.5	-52.1	15.4	6.06e-01	0	28	0	457179136	69	4428
2026-01-06 12:53:08.85	230.22	27.09	-50.5	-52.1	15.4	6.07e-01	0	28	0	458752000	69	4427
2026-01-06 12:53:09.84	230.53	27.20	-50.7	-52.4	15.3	6.08e-01	0	28	0	460849152	69	4547
2026-01-06 12:53:10.83	230.83	27.31	-50.6	-52.3	15.3	6.06e-01	0	28	0	462422016	69	4515
2026-01-06 12:53:11.83	231.15	27.42	-50.6	-52.3	15.3	6.05e-01	0	28	0	464519168	69	4530
2026-01-06 12:53:12.83	231.46	27.53	-50.6	-52.3	15.3	6.03e-01	0	28	0	466092032	69	4533
2026-01-06 12:53:13.82	231.77	27.64	-50.8	-52.5	15.3	6.06e-01	0	29	0	468189184	69	4629
2026-01-06 12:53:14.81	232.09	27.74	-50.7	-52.4	15.3	6.06e-01	0	28	0	469762048	69	4592
2026-01-06 12:53:15.81	232.41	27.85	-50.7	-52.4	15.3	6.07e-01	0	28	0	471859200	69	4548
2026-01-06 12:53:16.81	232.73	27.96	-50.6	-52.3	15.3	6.06e-01	0	28	0	473956352	69	4538
2026-01-06 12:53:17.80	233.06	28.07	-50.6	-52.3	15.3	6.05e-01	0	28	0	475529216	69	4503
2026-01-06 12:53:18.80	233.38	28.18	-50.6	-52.3	15.4	6.04e-01	0	29	0	477626368	69	4503
2026-01-06 12:53:19.79	233.71	28.28	-50.7	-52.4	15.3	6.07e-01	0	28	0	479199232	69	4575
2026-01-06 12:53:20.78	234.04	28.39	-50.7	-52.4	15.3	6.07e-01	0	28	0	481296384	69	4570
2026-01-06 12:53:21.77	234.37	28.49	-50.7	-52.3	15.3	6.08e-01	0	28	0	482869248	69	4543
2026-01-06 12:53:22.76	234.70	28.60	-50.8	-52.5	15.3	6.08e-01	0	28	0	484966400	69	4605
2026-01-06 12:53:23.76	235.04	28.70	-50.5	-52.2	15.4	6.06e-01	0	28	0	486539264	69	4455
2026-01-06 12:53:24.76	235.38	28.80	-50.4	-52.1	15.4	6.05e-01	0	28	0	488636416	69	4416
2026-01-06 12:53:25.76	235.73	28.91	-50.5	-52.2	15.4	6.06e-01	0	28	0	490733568	69	4454
2026-01-06 12:53:26.76	236.07	29.01	-50.6	-52.3	15.3	6.04e-01	0	28	0	492306432	69	4529
2026-01-06 12:53:27.75	236.42	29.11	-50.6	-52.3	15.3	6.06e-01	0	28	0	494403584	69	4525
2026-01-06 12:53:28.75	236.77	29.21	-50.4	-52.1	15.4	6.06e-01	0	28	0	495976448	69	4401
2026-01-06 12:53:29.74	237.12	29.31	-50.4	-52.0	15.4	6.06e-01	0	28	0	498073600	69	4383
2026-01-06 12:53:30.74	237.47	29.41	-50.3	-51.9	15.4	6.07e-01	0	28	0	499646464	69	4321
2026-01-06 12:53:31.73	237.82	29.51	-50.3	-52.0	15.4	6.08e-01	0	28	0	501743616	69	4346
2026-01-06 12:53:32.72	238.18	29.61	-50.5	-52.2	15.4	6.05e-01	0	29	0	503840768	69	4460
2026-01-06 12:53:33.72	238.54	29.70	-50.5	-52.1	15.4	6.07e-01	0	29	0	505413632	69	4433
2026-01-06 12:53:34.71	238.90	29.80	-50.5	-52.1	15.4	6.07e-01	0	28	0	507510784	69	4418
2026-01-06 12:53:35.70	239.26	29.89	-50.5	-52.1	15.4	6.07e-01	0	29	0	509083648	69	4430
2026-01-06 12:53:36.69	239.63	29.99	-50.3	-51.9	15.4	6.07e-01	0	28	0	511180800	69	4336
2026-01-06 12:53:37.68	239.99	30.08	-50.6	-52.3	15.3	6.07e-01	0	28	0	512753664	69	4520
2026-01-06 12:53:38.68	240.36	30.17	-50.6	-52.3	15.4	6.07e-01	0	28	0	514850816	69	4533
2026-01-06 12:53:39.68	240.74	30.26	-50.6	-52.3	15.3	6.05e-01	0	29	0	516423680	69	4524
2026-01-06 12:53:40.67	241.11	30.36	-50.5	-52.2	15.4	6.08e-01	0	29	0	518520832	69	4458
2026-01-06 12:53:41.67	241.49	30.45	-50.4	-52.0	15.4	6.07e-01	0	28	0	520617984	69	4367
2026-01-06 12:53:42.66	241.86	30.53	-50.4	-52.0	15.4	6.04e-01	0	28	0	522190848	69	4391
2026-01-06 12:53:43.66	242.25	30.62	-50.3	-51.9	15.4	6.07e-01	0	28	0	524288000	69	4304
2026-01-06 12:53:44.65	242.63	30.71	-50.4	-52.0	15.4	6.06e-01	0	28	0	525860864	69	4388
2026-01-06 12:53:45.64	243.01	30.79	-50.3	-52.0	15.4	6.07e-01	0	28	0	527958016	69	4359
2026-01-06 12:53:46.65	243.40	30.88	-50.3	-52.0	15.4	6.05e-01	0	28	0	529530880	69	4358
2026-01-06 12:53:47.64	243.79	30.96	-50.3	-52.0	15.4	6.07e-01	0	28	0	531628032	69	4356
2026-01-06 12:53:48.63	244.18	31.04	-50.3	-52.0	15.4	6.04e-01	0	28	0	533200896	69	4344
2026-01-06 12:53:49.63	244.57	31.12	-50.3	-51.9	15.4	6.07e-01	0	28	0	535298048	69	4326
2026-01-06 12:53:50.63	244.97	31.20	-50.2	-51.8	15.5	6.05e-01	0	29	0	537395200	69	4268
2026-01-06 12:53:51.63	245.37	31.28	-50.3	-51.9	15.4	6.07e-01	0	28	0	538968064	69	4307
2026-01-06 12:53:52.62	245.77	31.36	-50.3	-51.9	15.4	6.07e-01	0	28	0	541065216	69	4326
2026-01-06 12:53:53.61	246.17	31.43	-50.2	-51.9	15.4	6.06e-01	0	29	0	542638080	69	4294
2026-01-06 12:53:54.61	246.57	31.51	-50.2	-51.8	15.5	6.07e-01	0	28	0	544735232	69	4283
2026-01-06 12:53:55.60	246.97	31.58	-50.2	-51.8	15.5	6.06e-01	0	28	0	546308096	69	4249
2026-01-06 12:53:56.60	247.38	31.65	-50.1	-51.7	15.5	6.07e-01	0	28	0	548405248	69	4226
2026-01-06 12:53:57.60	247.79	31.72	-50.2	-51.8	15.4	6.07e-01	0	28	0	549978112	69	4279
2026-01-06 12:53:58.59	248.20	31.79	-50.2	-51.9	15.4	6.06e-01	0	28	0	552075264	69	4298
2026-01-06 12:53:59.58	248.61	31.86	-50.1	-51.7	15.5	6.07e-01	0	28	0	554172416	69	4216
2026-01-06 12:54:00.59	249.03	31.93	-50.2	-51.7	15.5	6.08e-01	0	28	0	555745280	69	4241
2026-01-06 12:54:01.58	249.44	31.99	-50.3	-51.9	15.4	6.07e-01	0	28	0	557842432	69	4307
2026-01-06 12:54:02.58	249.86	32.06	-50.2	-51.8	15.5	6.08e-01	0	28	0	559415296	69	4246
2026-01-06 12:54:03.57	250.27	32.12	-50.2	-51.8	15.5	6.04e-01	0	28	0	561512448	69	4273
2026-01-06 12:54:04.56	250.69	32.18	-50.3	-51.9	15.5	6.07e-01	0	28	0	563085312	69	4305
2026-01-06 12:54:05.57	251.12	32.24	-50.3	-51.9	15.4	6.07e-01	0	28	0	565182464	69	4335
2026-01-06 12:54:06.56	251.54	32.30	-50.2	-51.8	15.5	6.07e-01	0	29	0	566755328	69	4254
2026-01-06 12:54:07.55	251.96	32.35	-50.0	-51.6	15.5	6.07e-01	0	28	0	568852480	69	4154
2026-01-06 12:54:08.54	252.39	32.41	-50.1	-51.7	15.5	6.06e-01	0	28	0	570949632	69	4213
2026-01-06 12:54:09.54	252.82	32.46	-50.1	-51.7	15.5	6.06e-01	0	28	0	572522496	69	4224
2026-01-06 12:54:10.53	253.24	32.51	-50.1	-51.7	15.5	6.07e-01	0	29	0	574619648	69	4229
2026-01-06 12:54:11.53	253.68	32.56	-50.1	-51.7	15.5	6.06e-01	0	28	0	576192512	69	4206
2026-01-06 12:54:12.53	254.11	32.61	-50.0	-51.5	15.5	6.03e-01	0	29	0	578289664	69	4136
2026-01-06 12:54:13.53	254.54	32.65	-50.0	-51.6	15.5	6.03e-01	0	28	0	579862528	69	4157
2026-01-06 12:54:14.53	254.98	32.70	-50.1	-51.7	15.5	6.03e-01	0	28	0	581959680	69	4242
2026-01-06 12:54:15.53	255.42	32.74	-50.0	-51.6	15.5	6.03e-01	0	28	0	584056832	69	4173
2026-01-06 12:54:16.52	255.85	32.78	-49.8	-51.4	15.4	6.05e-01	0	28	0	585629696	68	4314
2026-01-06 12:54:17.52	256.29	32.82	-49.9	-51.5	15.4	6.03e-01	0	29	0	587726848	68	4357
2026-01-06 12:54:18.51	256.73	32.86	-49.9	-51.5	15.4	6.01e-01	0	28	0	589299712	68	4374
2026-01-06 12:54:19.51	257.17	32.89	-50.0	-51.6	15.4	6.01e-01	0	29	0	591396864	68	4399
2026-01-06 12:54:20.51	257.61	32.93	-50.0	-51.6	15.4	6.03e-01	0	29	0	592969728	68	4428
2026-01-06 12:54:21.50	258.05	32.96	-50.0	-51.6	15.4	6.04e-01	0	29	0	595066880	68	4413
2026-01-06 12:54:22.50	258.49	32.99	-50.0	-51.6	15.4	6.01e-01	0	28	0	596639744	68	4411
2026-01-06 12:54:23.50	258.94	33.02	-49.9	-51.4	15.4	6.03e-01	0	29	0	598736896	68	4332
2026-01-06 12:54:24.49	259.38	33.05	-49.8	-51.4	15.5	6.05e-01	0	28	0	600834048	68	4311
2026-01-06 12:54:25.49	259.83	33.07	-50.1	-51.7	15.4	6.04e-01	0	28	0	602406912	68	4448
2026-01-06 12:54:26.48	260.27	33.10	-49.8	-51.4	15.5	6.02e-01	0	29	0	604504064	68	4306
2026-01-06 12:54:27.47	260.71	33.12	-49.9	-51.5	15.4	6.02e-01	0	28	0	606076928	68	4362
2026-01-06 12:54:28.48	261.17	33.14	-50.2	-51.8	15.3	6.03e-01	0	29	0	608174080	68	4499
2026-01-06 12:54:29.48	261.61	33.16	-49.9	-51.5	15.4	6.05e-01	0	29	0	610271232	68	4368
2026-01-06 12:54:30.47	262.06	33.17	-49.9	-51.5	15.4	6.01e-01	0	28	0	611844096	68	4373
2026-01-06 12:54:31.47	262.51	33.19	-49.7	-51.3	15.5	6.05e-01	0	29	0	613941248	68	4250
2026-01-06 12:54:32.47	262.96	33.20	-49.9	-51.4	15.4	6.03e-01	0	28	0	615514112	68	4333
2026-01-06 12:54:33.48	263.41	33.21	-49.9	-51.5	15.5	6.03e-01	0	28	0	617611264	68	4347
2026-01-06 12:54:34.47	263.86	33.22	-50.0	-51.6	15.4	6.04e-01	0	28	0	619184128	68	4393
2026-01-06 12:54:35.47	264.31	33.22	-50.0	-51.6	15.4	6.04e-01	0	28	0	621281280	68	4411
2026-01-06 12:54:36.47	264.76	33.23	-49.8	-51.4	15.5	6.04e-01	0	28	0	622854144	68	4303
2026-01-06 12:54:37.47	265.21	33.23	-49.7	-51.2	15.5	6.02e-01	0	29	0	624951296	68	4228
2026-01-06 12:54:38.48	265.67	33.23	-49.7	-51.3	15.5	6.04e-01	0	29	0	627048448	68	4251
2026-01-06 12:54:39.47	266.11	33.23	-49.8	-51.3	15.5	6.03e-01	0	28	0	628621312	68	4291
2026-01-06 12:54:40.47	266.57	33.23	-49.8	-51.4	15.4	6.02e-01	0	28	0	630718464	68	4311
2026-01-06 12:54:41.47	267.02	33.22	-49.8	-51.4	15.4	6.03e-01	0	28	0	632291328	68	4302
2026-01-06 12:54:42.47	267.47	33.22	-49.8	-51.4	15.5	6.03e-01	0	28	0	634388480	68	4295
2026-01-06 12:54:43.46	267.91	33.21	-49.9	-51.4	15.5	6.02e-01	0	28	0	635961344	68	4329
2026-01-06 12:54:44.47	268.37	33.20	-49.9	-51.5	15.4	6.03e-01	0	28	0	638058496	68	4358
2026-01-06 12:54:45.46	268.81	33.18	-49.9	-51.5	15.4	6.01e-01	0	28	0	640155648	68	4347
2026-01-06 12:54:46.47	269.27	33.17	-49.8	-51.4	15.4	6.02e-01	0	28	0	641728512	68	4319
2026-01-06 12:54:47.47	269.72	33.15	-49.8	-51.3	15.5	6.03e-01	0	28	0	643825664	68	4269
2026-01-06 12:54:48.47	270.17	33.14	-49.8	-51.3	15.5	6.03e-01	0	28	0	645398528	68	4288
2026-01-06 12:54:49.47	270.61	33.12	-50.1	-51.7	15.4	6.03e-01	0	28	0	647495680	68	4461
2026-01-06 12:54:50.47	271.06	33.09	-50.2	-51.8	15.4	6.02e-01	0	29	0	649592832	68	4531
2026-01-06 12:54:51.46	271.50	33.07	-50.1	-51.7	15.4	6.02e-01	0	28	0	651165696	68	4461
2026-01-06 12:54:52.47	271.95	33.05	-49.5	-51.0	15.5	6.03e-01	0	29	0	653262848	68	4138
2026-01-06 12:54:53.47	272.40	33.02	-49.6	-51.2	15.5	6.01e-01	0	28	0	654835712	68	4209
2026-01-06 12:54:54.47	272.84	32.99	-49.9	-51.4	15.5	6.02e-01	0	28	0	656932864	68	4325
2026-01-06 12:54:55.48	273.29	32.96	-49.7	-51.2	15.5	6.01e-01	0	28	0	658505728	68	4217
2026-01-06 12:54:56.49	273.74	32.92	-49.7	-51.2	15.5	6.03e-01	0	28	0	660602880	68	4222
2026-01-06 12:54:57.49	274.18	32.89	-49.7	-51.2	15.5	6.04e-01	0	29	0	662700032	68	4236
2026-01-06 12:54:58.48	274.62	32.85	-49.5	-51.0	15.6	6.01e-01	0	29	0	664272896	68	4105
2026-01-06 12:54:59.48	275.06	32.82	-49.6	-51.1	15.5	6.03e-01	0	28	0	666370048	68	4181
2026-01-06 12:55:00.48	275.50	32.78	-49.7	-51.3	15.5	6.04e-01	0	29	0	667942912	68	4253
2026-01-06 12:55:01.47	275.93	32.74	-49.6	-51.1	15.5	6.01e-01	0	29	0	670040064	68	4160
2026-01-06 12:55:02.47	276.37	32.69	-49.5	-51.1	15.5	6.01e-01	0	29	0	672137216	68	4149
2026-01-06 12:55:03.47	276.80	32.65	-49.5	-51.1	15.6	6.02e-01	0	29	0	673710080	68	4151
2026-01-06 12:55:04.47	277.24	32.60	-49.6	-51.1	15.5	6.02e-01	0	29	0	675807232	68	4168
2026-01-06 12:55:05.47	277.67	32.55	-49.6	-51.2	15.5	6.03e-01	0	29	0	677380096	68	4198
2026-01-06 12:55:06.48	278.10	32.50	-49.4	-51.0	15.6	6.03e-01	0	28	0	679477248	68	4103
2026-01-06 12:55:07.48	278.53	32.45	-49.3	-50.8	15.5	6.03e-01	0	28	0	681050112	67	4281
2026-01-06 12:55:08.48	278.96	32.40	-49.5	-51.1	15.4	6.05e-01	0	28	0	683147264	67	4400
2026-01-06 12:55:09.48	279.39	32.34	-49.4	-50.9	15.5	6.04e-01	0	29	0	685244416	67	4336
2026-01-06 12:55:10.49	279.82	32.29	-49.4	-50.9	15.5	6.02e-01	0	28	0	686817280	67	4321
2026-01-06 12:55:11.49	280.24	32.23	-49.3	-50.8	15.5	6.03e-01	0	28	0	688914432	67	4246
2026-01-06 12:55:12.48	280.66	32.17	-49.3	-50.8	15.5	6.03e-01	0	28	0	690487296	67	4260
2026-01-06 12:55:13.48	281.08	32.11	-49.4	-50.9	15.5	6.01e-01	0	28	0	692584448	67	4322
2026-01-06 12:55:14.48	281.50	32.05	-49.6	-51.1	15.4	6.02e-01	0	28	0	694157312	67	4432
2026-01-06 12:55:15.47	281.92	31.98	-49.6	-51.2	15.4	6.04e-01	0	28	0	696254464	67	4448
2026-01-06 12:55:16.47	282.33	31.92	-49.4	-50.9	15.5	6.04e-01	0	28	0	698351616	67	4333
2026-01-06 12:55:17.48	282.75	31.85	-49.4	-50.9	15.5	6.06e-01	0	29	0	699924480	67	4320
2026-01-06 12:55:18.49	283.17	31.78	-49.3	-50.8	15.5	6.03e-01	0	28	0	702021632	67	4290
2026-01-06 12:55:19.50	283.58	31.71	-49.5	-51.1	15.4	6.02e-01	0	28	0	703594496	67	4412
2026-01-06 12:55:20.50	283.99	31.64	-49.5	-51.0	15.4	6.04e-01	0	28	0	705691648	67	4364
2026-01-06 12:55:21.50	284.40	31.57	-49.5	-51.0	15.4	6.04e-01	0	29	0	707264512	67	4370
2026-01-06 12:55:22.50	284.80	31.49	-49.4	-50.9	15.5	6.01e-01	0	28	0	709361664	67	4339
2026-01-06 12:55:23.50	285.21	31.42	-49.3	-50.8	15.5	6.04e-01	0	28	0	711458816	67	4266
2026-01-06 12:55:24.50	285.61	31.34	-49.3	-50.8	15.5	6.04e-01	0	28	0	713031680	67	4273
2026-01-06 12:55:25.51	286.01	31.26	-49.4	-51.0	15.5	6.01e-01	0	28	0	715128832	67	4345
2026-01-06 12:55:26.51	286.41	31.18	-49.3	-50.9	15.4	6.03e-01	0	29	0	716701696	67	4296
2026-01-06 12:55:27.51	286.80	31.10	-49.2	-50.7	15.5	6.02e-01	0	28	0	718798848	67	4222
2026-01-06 12:55:28.51	287.20	31.02	-49.3	-50.8	15.5	6.06e-01	0	29	0	720896000	67	4243
2026-01-06 12:55:29.51	287.59	30.94	-49.3	-50.9	15.5	6.05e-01	0	28	0	722468864	67	4295
2026-01-06 12:55:30.52	287.98	30.86	-49.4	-50.9	15.5	6.01e-01	0	28	0	724566016	67	4318
2026-01-06 12:55:31.53	288.37	30.77	-49.4	-50.9	15.5	6.02e-01	0	28	0	726138880	67	4302
2026-01-06 12:55:32.52	288.75	30.69	-49.3	-50.8	15.5	6.01e-01	0	29	0	728236032	67	4283
2026-01-06 12:55:33.53	289.14	30.60	-49.4	-50.9	15.4	6.02e-01	0	29	0	730333184	67	4326
2026-01-06 12:55:34.53	289.52	30.51	-49.4	-50.9	15.5	6.02e-01	0	28	0	731906048	67	4329
2026-01-06 12:55:35.53	289.90	30.42	-49.4	-50.9	15.5	6.04e-01	0	28	0	734003200	67	4325
2026-01-06 12:55:36.53	290.28	30.33	-49.3	-50.8	15.5	6.04e-01	0	28	0	735576064	67	4282
2026-01-06 12:55:37.53	290.65	30.24	-49.2	-50.7	15.5	6.04e-01	0	28	0	737673216	67	4226
2026-01-06 12:55:38.53	291.02	30.15	-49.3	-50.8	15.5	6.03e-01	0	28	0	739246080	67	4272
2026-01-06 12:55:39.53	291.39	30.06	-49.4	-50.9	15.4	6.02e-01	0	28	0	741343232	67	4326
2026-01-06 12:55:40.53	291.76	29.96	-49.4	-50.9	15.4	6.06e-01	0	28	0	743440384	67	4318
2026-01-06 12:55:41.53	292.13	29.87	-49.5	-51.0	15.4	6.04e-01	0	28	0	745013248	67	4365
2026-01-06 12:55:42.54	292.50	29.77	-49.5	-51.0	15.4	6.00e-01	0	29	0	747110400	67	4359
2026-01-06 12:55:43.53	292.85	29.68	-49.4	-51.0	15.5	6.05e-01	0	28	0	748683264	67	4345
2026-01-06 12:55:44.53	293.21	29.58	-49.4	-50.9	15.5	6.02e-01	0	28	0	750780416	67	4324
2026-01-06 12:55:45.53	293.57	29.48	-49.5	-51.0	15.4	6.04e-01	0	29	0	752353280	67	4353
2026-01-06 12:55:46.54	293.93	29.38	-49.5	-51.1	15.4	6.02e-01	0	29	0	754450432	67	4398
2026-01-06 12:55:47.55	294.28	29.28	-49.5	-51.0	15.4	6.04e-01	0	28	0	756547584	67	4386
2026-01-06 12:55:48.54	294.63	29.18	-49.5	-51.0	15.4	6.04e-01	0	28	0	758120448	67	4368
2026-01-06 12:55:49.54	294.98	29.08	-49.5	-51.1	15.4	6.02e-01	0	28	0	760217600	67	4398
2026-01-06 12:55:50.55	295.33	28.98	-49.6	-51.1	15.4	6.01e-01	0	29	0	761790464	67	4432
2026-01-06 12:55:51.56	295.67	28.87	-49.5	-51.1	15.4	6.02e-01	0	29	0	763887616	67	4394
2026-01-06 12:55:52.56	296.02	28.77	-49.4	-50.9	15.5	6.03e-01	0	28	0	765984768	67	4304
2026-01-06 12:55:53.56	296.36	28.67	-49.5	-51.0	15.4	6.05e-01	0	29	0	767557632	67	4375
2026-01-06 12:55:54.56	296.69	28.56	-49.6	-51.2	15.4	6.02e-01	0	29	0	769654784	67	4452
2026-01-06 12:55:55.56	297.03	28.46	-49.7	-51.2	15.4	6.03e-01	0	29	0	771227648	67	4479
2026-01-06 12:55:56.57	297.36	28.35	-49.7	-51.2	15.4	6.02e-01	0	28	0	773324800	67	4472
2026-01-06 12:55:57.57	297.69	28.25	-49.6	-51.1	15.4	6.04e-01	0	29	0	775421952	67	4432
2026-01-06 12:55:58.57	298.02	28.14	-49.6	-51.2	15.4	6.01e-01	0	28	0	776994816	67	4443
2026-01-06 12:55:59.57	298.35	28.03	-49.8	-51.4	15.4	6.02e-01	0	29	0	779091968	67	4556
2026-01-06 12:56:00.57	298.67	27.92	-49.6	-51.2	15.4	6.03e-01	0	28	0	780664832	67	4470
2026-01-06 12:56:01.57	298.99	27.82	-49.6	-51.1	15.4	6.04e-01	0	28	0	782761984	67	4417
2026-01-06 12:56:02.57	299.31	27.71	-49.8	-51.3	15.4	6.05e-01	0	28	0	784334848	67	4544
2026-01-06 12:56:03.58	299.63	27.60	-49.8	-51.4	15.4	6.03e-01	0	28	0	786432000	67	4559
2026-01-06 12:56:04.58	299.94	27.49	-49.8	-51.3	15.3	6.05e-01	0	28	0	788529152	67	4539
2026-01-06 12:56:05.58	300.26	27.38	-49.7	-51.3	15.4	6.04e-01	0	28	0	790102016	67	4518
2026-01-06 12:56:06.58	300.57	27.27	-49.7	-51.2	15.4	6.04e-01	0	28	0	792199168	67	4474
2026-01-06 12:56:07.58	300.87	27.16	-49.8	-51.3	15.4	6.04e-01	0	28	0	793772032	67	4535
2026-01-06 12:56:08.58	301.18	27.05	-49.9	-51.5	15.4	6.02e-01	0	29	0	795869184	67	4616
2026-01-06 12:56:09.58	301.48	26.94	-49.9	-51.5	15.4	6.03e-01	0	29	0	797442048	67	4624
2026-01-06 12:56:10.58	301.79	26.82	-49.9	-51.5	15.3	6.03e-01	0	29	0	799539200	67	4600
2026-01-06 12:56:11.58	302.08	26.71	-49.7	-51.2	15.4	6.02e-01	0	28	0	801636352	67	4473
2026-01-06 12:56:12.58	302.38	26.60	-49.7	-51.3	15.4	6.05e-01	0	28	0	803209216	67	4508
2026-01-06 12:56:13.58	302.68	26.49	-49.9	-51.4	15.3	6.03e-01	0	29	0	805306368	67	4590
2026-01-06 12:56:14.58	302.97	26.37	-49.9	-51.5	15.3	5.99e-01	0	28	0	806879232	67	4625
2026-01-06 12:56:15.58	303.26	26.26	-50.0	-51.6	15.3	6.04e-01	0	28	0	808976384	67	4659
2026-01-06 12:56:16.58	303.55	26.15	-49.9	-51.5	15.4	6.02e-01	0	28	0	811073536	67	4606
2026-01-06 12:56:17.58	303.84	26.04	-49.9	-51.5	15.3	6.03e-01	0	28	0	812646400	67	4627
2026-01-06 12:56:18.59	304.12	25.92	-50.0	-51.6	15.3	6.04e-01	0	29	0	814743552	67	4704
2026-01-06 12:56:19.59	304.41	25.81	-50.0	-51.6	15.3	6.03e-01	0	29	0	816316416	67	4696
2026-01-06 12:56:20.60	304.69	25.69	-50.0	-51.6	15.3	6.03e-01	0	29	0	818413568	67	4672
2026-01-06 12:56:21.60	304.97	25.58	-50.0	-51.6	15.3	6.03e-01	0	29	0	819986432	67	4703
2026-01-06 12:56:22.60	305.24	25.46	-50.0	-51.7	15.3	6.02e-01	0	29	0	822083584	67	4706
2026-01-06 12:56:23.59	305.51	25.35	-50.0	-51.6	15.3	6.00e-01	0	29	0	824180736	67	4680
2026-01-06 12:56:24.59	305.79	25.24	-50.1	-51.7	15.3	6.04e-01	0	28	0	825753600	67	4712
2026-01-06 12:56:25.59	306.06	25.12	-50.1	-51.7	15.4	6.02e-01	0	28	0	827850752	68	4461
2026-01-06 12:56:26.60	306.33	25.01	-50.1	-51.8	15.4	6.03e-01	0	29	0	829423616	68	4494
2026-01-06 12:56:27.59	306.59	24.89	-50.1	-51.7	15.4	6.02e-01	0	29	0	831520768	68	4489
2026-01-06 12:56:28.59	306.86	24.78	-50.2	-51.8	15.4	6.04e-01	0	29	0	833093632	68	4495
2026-01-06 12:56:29.59	307.12	24.66	-50.0	-51.6	15.4	6.03e-01	0	29	0	835190784	68	4429
2026-01-06 12:56:30.59	307.38	24.55	-50.1	-51.7	15.4	6.01e-01	0	28	0	837287936	68	4461
2026-01-06 12:56:31.58	307.63	24.43	-50.1	-51.7	15.4	6.04e-01	0	28	0	838860800	68	4463
2026-01-06 12:56:32.57	307.89	24.32	-50.2	-51.8	15.4	6.04e-01	0	28	0	840957952	68	4499
2026-01-06 12:56:33.56	308.14	24.21	-50.2	-51.8	15.4	6.03e-01	0	28	0	842530816	68	4501
2026-01-06 12:56:34.57	308.39	24.09	-50.1	-51.7	15.4	6.03e-01	0	29	0	844627968	68	4489
2026-01-06 12:56:35.56	308.64	23.98	-50.1	-51.7	15.4	6.04e-01	0	29	0	846200832	68	4472
2026-01-06 12:56:36.55	308.89	23.86	-50.1	-51.7	15.4	6.05e-01	0	28	0	848297984	68	4480
2026-01-06 12:56:37.55	309.14	23.75	-50.1	-51.7	15.4	6.05e-01	0	28	0	849870848	68	4491
2026-01-06 12:56:38.55	309.38	23.63	-50.1	-51.7	15.4	6.03e-01	0	29	0	851968000	68	4491
2026-01-06 12:56:39.54	309.62	23.52	-50.2	-51.8	15.4	6.03e-01	0	29	0	854065152	68	4515
2026-01-06 12:56:40.53	309.86	23.41	-50.2	-51.9	15.4	6.03e-01	0	29	0	855638016	68	4547
2026-01-06 12:56:41.52	310.10	23.29	-50.2	-51.8	15.4	6.02e-01	0	28	0	857735168	68	4542
2026-01-06 12:56:42.52	310.34	23.18	-50.2	-51.8	15.4	6.02e-01	0	28	0	859308032	68	4504
2026-01-06 12:56:43.52	310.57	23.06	-50.2	-51.8	15.4	6.04e-01	0	29	0	861405184	68	4539
2026-01-06 12:56:44.51	310.81	22.95	-50.2	-51.8	15.4	6.03e-01	0	29	0	862978048	68	4528
2026-01-06 12:56:45.51	311.04	22.83	-50.1	-51.7	15.4	6.02e-01	0	29	0	865075200	68	4484
2026-01-06 12:56:46.51	311.27	22.72	-50.1	-51.7	15.4	6.01e-01	0	29	0	866648064	68	4465
2026-01-06 12:56:47.51	311.50	22.61	-50.1	-51.8	15.4	6.05e-01	0	29	0	868745216	68	4496
2026-01-06 12:56:48.50	311.72	22.49	-50.3	-51.9	15.3	6.03e-01	0	29	0	870842368	68	4570
2026-01-06 12:56:49.50	311.95	22.38	-50.2	-51.9	15.4	6.02e-01	0	29	0	872415232	68	4550
2026-01-06 12:56:50.50	312.17	22.27	-50.3	-51.9	15.4	6.00e-01	0	29	0	874512384	68	4589
2026-01-06 12:56:51.49	312.39	22.15	-50.2	-51.8	15.4	6.03e-01	0	29	0	876085248	68	4534
2026-01-06 12:56:52.49	312.61	22.04	-50.2	-51.8	15.4	6.03e-01	0	28	0	878182400	68	4540
2026-01-06 12:56:53.49	312.83	21.93	-50.1	-51.7	15.4	6.02e-01	0	28	0	879755264	68	4476
2026-01-06 12:56:54.48	313.05	21.81	-50.0	-51.6	15.4	6.04e-01	0	29	0	881852416	68	4417
2026-01-06 12:56:55.48	313.26	21.70	-50.0	-51.6	15.4	6.04e-01	0	29	0	883949568	68	4440
2026-01-06 12:56:56.47	313.48	21.59	-50.2	-51.8	15.4	6.04e-01	0	28	0	885522432	68	4510
2026-01-06 12:56:57.47	313.69	21.48	-50.1	-51.8	15.4	6.03e-01	0	29	0	887619584	68	4498
2026-01-06 12:56:58.47	313.90	21.36	-50.1	-51.7	15.4	6.04e-01	0	28	0	889192448	68	4452
2026-01-06 12:56:59.46	314.11	21.25	-50.0	-51.6	15.4	6.02e-01	0	29	0	891289600	68	4399
2026-01-06 12:57:00.45	314.31	21.14	-50.0	-51.6	15.4	6.02e-01	0	29	0	892862464	68	4411
2026-01-06 12:57:01.45	314.52	21.03	-50.0	-51.6	15.4	6.04e-01	0	28	0	894959616	68	4426
2026-01-06 12:57:02.45	314.72	20.92	-50.0	-51.6	15.4	6.07e-01	0	28	0	896532480	68	4416
2026-01-06 12:57:03.44	314.93	20.81	-49.9	-51.5	15.4	6.00e-01	0	29	0	898629632	68	4378
2026-01-06 12:57:04.44	315.13	20.69	-50.0	-51.7	15.4	6.04e-01	0	29	0	900726784	68	4444
2026-01-06 12:57:05.44	315.33	20.58	-50.1	-51.7	15.4	6.03e-01	0	29	0	902299648	68	4447
2026-01-06 12:57:06.43	315.53	20.47	-50.1	-51.7	15.4	6.03e-01	0	29	0	904396800	68	4485
2026-01-06 12:57:07.42	315.72	20.36	-50.1	-51.7	15.4	6.04e-01	0	29	0	905969664	68	4481
2026-01-06 12:57:08.42	315.92	20.25	-50.1	-51.7	15.4	6.03e-01	0	28	0	908066816	68	4493
2026-01-06 12:57:09.42	316.11	20.14	-50.0	-51.6	15.4	6.05e-01	0	28	0	910163968	68	4438
2026-01-06 12:57:10.41	316.30	20.03	-50.0	-51.6	15.4	6.03e-01	0	28	0	911736832	68	4415
2026-01-06 12:57:11.40	316.49	19.93	-50.1	-51.7	15.4	6.03e-01	0	29	0	913309696	68	4451
2026-01-06 12:57:12.40	316.68	19.82	-50.0	-51.6	15.4	6.04e-01	0	29	0	915406848	68	4439
2026-01-06 12:57:13.40	316.87	19.71	-50.0	-51.6	15.4	6.02e-01	0	29	0	917504000	68	4411
2026-01-06 12:57:14.39	317.06	19.60	-50.0	-51.6	15.4	6.03e-01	0	29	0	919076864	68	4408
2026-01-06 12:57:15.38	317.24	19.49	-49.9	-51.4	15.5	6.03e-01	0	29	0	921174016	68	4337
2026-01-06 12:57:16.38	317.43	19.38	-49.9	-51.4	15.4	6.03e-01	0	29	0	922746880	68	4340
2026-01-06 12:57:17.37	317.61	19.27	-49.9	-51.4	15.4	6.03e-01	0	29	0	924844032	68	4338
2026-01-06 12:57:18.37	317.79	19.17	-49.8	-51.4	15.5	6.03e-01	0	29	0	926941184	68	4331
2026-01-06 12:57:19.36	317.97	19.06	-49.9	-51.5	15.4	6.02e-01	0	28	0	928514048	68	4355
2026-01-06 12:57:20.36	318.15	18.95	-49.9	-51.4	15.4	6.04e-01	0	28	0	930611200	68	4339
2026-01-06 12:57:21.35	318.33	18.84	-49.9	-51.5	15.4	6.03e-01	0	28	0	932184064	68	4344
2026-01-06 12:57:22.35	318.50	18.74	-49.8	-51.4	15.5	6.00e-01	0	29	0	934281216	68	4317
2026-01-06 12:57:23.35	318.68	18.63	-49.9	-51.5	15.4	6.04e-01	0	29	0	935854080	68	4371
2026-01-06 12:57:24.35	318.85	18.52	-49.9	-51.5	15.4	6.02e-01	0	29	0	937951232	68	4375
2026-01-06 12:57:25.35	319.03	18.42	-49.9	-51.5	15.4	6.04e-01	0	29	0	939524096	68	4386
2026-01-06 12:57:26.34	319.20	18.31	-49.9	-51.5	15.5	6.03e-01	0	29	0	941621248	68	4352
2026-01-06 12:57:27.33	319.37	18.21	-50.0	-51.6	15.4	6.05e-01	0	29	0	943718400	68	4407
2026-01-06 12:57:28.32	319.53	18.10	-50.0	-51.6	15.4	6.02e-01	0	28	0	945291264	68	4398
2026-01-06 12:57:29.32	319.70	18.00	-49.9	-51.5	15.4	6.02e-01	0	29	0	947388416	68	4364
2026-01-06 12:57:30.31	319.87	17.89	-50.0	-51.6	15.5	6.03e-01	0	28	0	948961280	68	4392
2026-01-06 12:57:31.31	320.03	17.79	-49.8	-51.4	15.5	6.02e-01	0	28	0	951058432	68	4310
2026-01-06 12:57:32.31	320.20	17.68	-49.7	-51.3	15.5	6.03e-01	0	29	0	952631296	68	4267
2026-01-06 12:57:33.30	320.36	17.58	-49.7	-51.3	15.5	6.04e-01	0	29	0	954728448	68	4271
2026-01-06 12:57:34.30	320.52	17.48	-49.8	-51.4	15.5	6.02e-01	0	29	0	956301312	68	4320
2026-01-06 12:57:35.30	320.68	17.37	-49.9	-51.5	15.4	6.04e-01	0	29	0	958398464	68	4345
2026-01-06 12:57:36.29	320.84	17.27	-49.9	-51.5	15.4	6.03e-01	0	28	0	960495616	68	4387
2026-01-06 12:57:37.28	321.00	17.17	-49.8	-51.4	15.5	6.04e-01	0	29	0	962068480	68	4332
2026-01-06 12:57:38.28	321.16	17.07	-49.8	-51.4	15.4	6.02e-01	0	29	0	964165632	68	4339
2026-01-06 12:57:39.27	321.31	16.96	-49.9	-51.5	15.4	6.03e-01	0	29	0	965738496	68	4380
2026-01-06 12:57:40.27	321.47	16.86	-49.9	-51.6	15.4	6.04e-01	0	28	0	967835648	68	4396
2026-01-06 12:57:41.26	321.62	16.76	-49.8	-51.4	15.5	6.03e-01	0	29	0	969408512	68	4301
2026-01-06 12:57:42.26	321.78	16.66	-49.8	-51.4	15.4	6.02e-01	0	28	0	971505664	68	4317
2026-01-06 12:57:43.25	321.93	16.56	-49.8	-51.4	15.5	6.05e-01	0	29	0	973078528	68	4307
2026-01-06 12:57:44.25	322.08	16.46	-49.8	-51.4	15.4	6.04e-01	0	29	0	975175680	68	4328
2026-01-06 12:57:45.25	322.23	16.36	-49.8	-51.4	15.5	6.01e-01	0	29	0	977272832	68	4308
2026-01-06 12:57:46.24	322.38	16.26	-49.7	-51.3	15.5	6.01e-01	0	29	0	978845696	68	4268
2026-01-06 12:57:47.24	322.53	16.16	-49.8	-51.3	15.5	6.02e-01	0	29	0	980942848	68	4289
2026-01-06 12:57:48.24	322.67	16.06	-49.7	-51.3	15.5	6.04e-01	0	29	0	982515712	68	4281
2026-01-06 12:57:49.24	322.82	15.96	-49.8	-51.4	15.5	6.02e-01	0	28	0	984612864	68	4299
2026-01-06 12:57:50.24	322.97	15.86	-50.0	-51.6	15.4	6.03e-01	0	29	0	986185728	68	4416
2026-01-06 12:57:51.24	323.11	15.76	-49.9	-51.6	15.4	6.03e-01	0	28	0	988282880	68	4395
2026-01-06 12:57:52.23	323.25	15.66	-49.9	-51.5	15.4	6.04e-01	0	28	0	990380032	68	4369
2026-01-06 12:57:53.22	323.39	15.56	-50.0	-51.6	15.4	6.02e-01	0	29	0	991952896	68	4421
2026-01-06 12:57:54.23	323.54	15.46	-50.0	-51.6	15.4	6.02e-01	0	29	0	994050048	68	4434
2026-01-06 12:57:55.22	323.68	15.37	-49.9	-51.6	15.4	6.03e-01	0	29	0	995622912	68	4410
2026-01-06 12:57:56.20	323.81	15.27	-50.0	-51.7	15.4	6.00e-01	0	29	0	997720064	68	4453
2026-01-06 12:57:57.20	323.95	15.17	-50.0	-51.7	15.4	6.02e-01	0	29	0	999292928	68	4454
2026-01-06 12:57:58.19	324.09	15.08	-49.8	-51.4	15.5	6.02e-01	0	29	0	1001390080	68	4333
2026-01-06 12:57:59.20	324.23	14.98	-49.8	-51.4	15.5	6.02e-01	0	28	0	1002962944	68	4306
2026-01-06 12:58:00.19	324.36	14.88	-49.8	-51.4	15.4	6.02e-01	0	28	0	1005060096	68	4327
2026-01-06 12:58:01.19	324.50	14.79	-49.8	-51.4	15.4	6.01e-01	0	29	0	1007157248	68	4331
2026-01-06 12:58:02.19	324.63	14.69	-49.9	-51.5	15.4	6.03e-01	0	29	0	1008730112	68	4360
2026-01-06 12:58:03.19	324.76	14.60	-49.9	-51.5	15.4	6.05e-01	0	29	0	1010827264	68	4390
2026-01-06 12:58:04.19	324.90	14.50	-50.0	-51.6	15.4	6.02e-01	0	28	0	1012400128	68	4410
2026-01-06 12:58:05.18	325.03	14.41	-50.1	-51.7	15.4	6.05e-01	0	29	0	1014497280	68	4477
2026-01-06 12:58:06.18	325.16	14.31	-50.0	-51.7	15.4	6.02e-01	0	29	0	1016070144	68	4455
2026-01-06 12:58:07.18	325.29	14.22	-50.0	-51.7	15.4	6.05e-01	0	29	0	1018167296	68	4442
2026-01-06 12:58:08.17	325.41	14.12	-50.1	-51.7	15.4	6.02e-01	0	28	0	1019740160	68	4473
2026-01-06 12:58:09.16	325.54	14.03	-50.0	-51.6	15.4	6.02e-01	0	28	0	1021837312	68	4426
2026-01-06 12:58:10.16	325.67	13.94	-50.1	-51.8	15.4	6.04e-01	0	29	0	1023934464	68	4499
2026-01-06 12:58:11.16	325.79	13.84	-50.0	-51.7	15.4	6.03e-01	0	29	0	1025507328	68	4458
2026-01-06 12:58:12.15	325.92	13.75	-50.0	-51.7	15.4	6.02e-01	0	29	0	1027604480	68	4466
2026-01-06 12:58:13.15	326.04	13.66	-50.1	-51.8	15.4	6.02e-01	0	29	0	1029177344	68	4504
2026-01-06 12:58:14.15	326.17	13.56	-50.1	-51.8	15.3	6.02e-01	0	29	0	1031274496	68	4531
2026-01-06 12:58:15.15	326.29	13.47	-50.1	-51.7	15.4	6.02e-01	0	29	0	1032847360	68	4478
2026-01-06 12:58:16.15	326.41	13.38	-50.0	-51.6	15.4	6.02e-01	0	29	0	1034944512	68	4435
2026-01-06 12:58:17.15	326.54	13.29	-50.0	-51.6	15.4	6.03e-01	0	29	0	1037041664	68	4425
2026-01-06 12:58:18.14	326.66	13.20	-50.0	-51.7	15.4	6.03e-01	0	29	0	1038614528	68	4468
2026-01-06 12:58:19.14	326.78	13.11	-50.1	-51.8	15.4	6.03e-01	0	28	0	1040711680	68	4506
2026-01-06 12:58:20.15	326.90	13.01	-50.1	-51.8	15.4	6.04e-01	0	29	0	1042284544	68	4503
2026-01-06 12:58:21.14	327.01	12.92	-49.9	-51.6	15.4	6.03e-01	0	29	0	1044381696	68	4402
2026-01-06 12:58:22.14	327.13	12.83	-50.0	-51.6	15.4	6.04e-01	0	28	0	1046478848	68	4440
2026-01-06 12:58:23.14	327.25	12.74	-50.0	-51.6	15.4	6.03e-01	0	29	0	1048051712	68	4424
2026-01-06 12:58:24.14	327.36	12.65	-50.0	-51.7	15.4	6.03e-01	0	29	0	1050148864	68	4459
2026-01-06 12:58:25.14	327.48	12.56	-50.1	-51.7	15.4	6.04e-01	0	29	0	1051721728	68	4485
2026-01-06 12:58:26.14	327.60	12.48	-50.1	-51.7	15.4	6.06e-01	0	29	0	1053818880	68	4484
2026-01-06 12:58:27.14	327.71	12.39	-50.1	-51.7	15.4	6.05e-01	0	28	0	1055391744	68	4487
2026-01-06 12:58:28.14	327.82	12.30	-50.1	-51.7	15.4	6.02e-01	0	29	0	1057488896	68	4475
2026-01-06 12:58:29.15	327.94	12.21	-50.0	-51.7	15.4	6.05e-01	0	28	0	1059586048	68	4468
2026-01-06 12:58:30.14	328.05	12.12	-50.1	-51.8	15.3	6.03e-01	0	29	0	1061158912	68	4517
2026-01-06 12:58:31.14	328.16	12.03	-50.2	-51.8	15.3	6.03e-01	0	28	0	1063256064	68	4537
2026-01-06 12:58:32.13	328.27	11.95	-50.2	-51.9	15.3	6.03e-01	0	28	0	1064828928	68	4583
2026-01-06 12:58:33.13	328.38	11.86	-50.3	-52.0	15.3	6.02e-01	0	28	0	1066926080	68	4650
2026-01-06 12:58:34.13	328.49	11.77	-50.2	-51.9	15.3	6.04e-01	0	29	0	1068498944	68	4581
2026-01-06 12:58:35.12	328.60	11.68	-50.1	-51.8	15.3	6.05e-01	0	29	0	1070596096	68	4537
2026-01-06 12:58:36.13	328.71	11.60	-50.2	-51.9	15.3	6.03e-01	0	28	0	1072693248	68	4589
2026-01-06 12:58:37.12	328.81	11.51	-50.2	-51.9	15.3	6.03e-01	0	29	0	1074266112	68	4589
2026-01-06 12:58:38.12	328.92	11.43	-50.3	-52.0	15.3	6.02e-01	0	29	0	1076363264	68	4610
2026-01-06 12:58:39.12	329.03	11.34	-50.3	-52.1	15.3	6.02e-01	0	29	0	1077936128	68	4659
2026-01-06 12:58:40.12	329.13	11.25	-50.4	-52.1	15.3	6.05e-01	0	29	0	1080033280	68	4702
2026-01-06 12:58:41.12	329.24	11.17	-50.4	-52.2	15.3	6.03e-01	0	29	0	1081606144	68	4712
2026-01-06 12:58:42.13	329.34	11.08	-50.4	-52.1	15.3	6.04e-01	0	29	0	1083703296	68	4693
2026-01-06 12:58:43.13	329.45	11.00	-50.4	-52.2	15.3	6.03e-01	0	28	0	1085800448	68	4714
2026-01-06 12:58:44.13	329.55	10.91	-50.5	-52.3	15.2	6.00e-01	0	29	0	1087373312	68	4799
2026-01-06 12:58:45.14	329.65	10.83	-50.6	-52.4	15.2	6.01e-01	0	28	0	1089470464	68	4835
2026-01-06 12:58:46.14	329.75	10.74	-50.5	-52.2	15.3	6.03e-01	0	28	0	1091043328	68	4750
2026-01-06 12:58:47.14	329.85	10.66	-50.5	-52.3	15.2	6.03e-01	0	29	0	1093140480	68	4786
2026-01-06 12:58:48.14	329.96	10.58	-50.6	-52.4	15.3	6.02e-01	0	28	0	1094713344	69	4581
2026-01-06 12:58:49.15	330.06	10.49	-50.7	-52.5	15.3	6.05e-01	0	29	0	1096810496	69	4624
2026-01-06 12:58:50.15	330.16	10.41	-50.7	-52.5	15.3	6.02e-01	0	29	0	1098907648	69	4613
2026-01-06 12:58:51.15	330.25	10.33	-50.6	-52.3	15.3	6.03e-01	0	29	0	1100480512	69	4545
2026-01-06 12:58:52.15	330.35	10.24	-50.6	-52.4	15.3	6.01e-01	0	29	0	1102577664	69	4549
2026-01-06 12:58:53.16	330.45	10.16	-50.6	-52.4	15.3	6.03e-01	0	28	0	1104150528	69	4580
2026-01-06 12:58:54.16	330.55	10.08	-50.6	-52.4	15.3	6.03e-01	0	28	0	1106247680	69	4563
2026-01-06 12:58:55.15	330.64	10.00	-50.6	-52.4	15.3	6.03e-01	0	29	0	1108344832	69	4591
2026-01-06 12:58:56.16	330.74	9.91	-50.6	-52.4	15.3	6.03e-01	0	28	0	1109917696	69	4554
2026-01-06 12:58:57.16	330.84	9.83	-50.7	-52.5	15.3	6.05e-01	0	28	0	1112014848	69	4627
2026-01-06 12:58:58.17	330.93	9.75	-50.6	-52.4	15.3	6.03e-01	0	28	0	1113587712	69	4584
2026-01-06 12:58:59.17	331.03	9.67	-50.6	-52.4	15.3	6.04e-01	0	29	0	1115684864	69	4580
2026-01-06 12:59:00.17	331.12	9.59	-50.7	-52.6	15.3	6.03e-01	0	29	0	1117782016	69	4654
2026-01-06 12:59:01.17	331.21	9.51	-50.7	-52.5	15.3	6.03e-01	0	29	0	1119354880	69	4630
2026-01-06 12:59:02.18	331.31	9.43	-50.7	-52.6	15.3	6.02e-01	0	29	0	1121452032	69	4652
2026-01-06 12:59:03.18	331.40	9.35	-50.8	-52.6	15.3	6.02e-01	0	29	0	1123024896	69	4687
2026-01-06 12:59:04.19	331.49	9.27	-50.7	-52.5	15.3	6.04e-01	0	29	0	1125122048	69	4633
2026-01-06 12:59:05.19	331.59	9.19	-50.7	-52.5	15.3	6.01e-01	0	29	0	1126694912	69	4625
2026-01-06 12:59:06.19	331.68	9.11	-50.7	-52.6	15.2	6.02e-01	0	29	0	1128792064	69	4664
2026-01-06 12:59:07.19	331.77	9.03	-50.7	-52.5	15.3	6.02e-01	0	28	0	1130889216	69	4625
2026-01-06 12:59:08.19	331.86	8.95	-50.7	-52.5	15.3	6.04e-01	0	28	0	1132462080	69	4629
2026-01-06 12:59:09.20	331.95	8.87	-50.8	-52.6	15.2	6.04e-01	0	29	0	1134559232	69	4697
2026-01-06 12:59:10.20	332.03	8.79	-50.8	-52.7	15.2	6.04e-01	0	29	0	1136132096	69	4730
2026-01-06 12:59:11.20	332.12	8.71	-50.9	-52.7	15.2	6.03e-01	0	29	0	1138229248	69	4738
2026-01-06 12:59:12.20	332.21	8.63	-51.0	-52.8	15.2	6.02e-01	0	29	0	1139802112	69	4810
2026-01-06 12:59:13.20	332.30	8.56	-51.0	-52.8	15.2	6.03e-01	0	28	0	1141899264	69	4809
2026-01-06 12:59:14.20	332.38	8.48	-51.1	-52.9	15.2	6.03e-01	0	28	0	1143996416	69	4865
2026-01-06 12:59:15.20	332.47	8.40	-51.0	-52.9	15.2	6.03e-01	0	29	0	1145569280	69	4845
2026-01-06 12:59:16.20	332.56	8.32	-51.1	-53.0	15.1	6.04e-01	0	29	0	1147666432	69	4882
2026-01-06 12:59:17.20	332.64	8.25	-50.9	-52.8	15.2	6.04e-01	0	29	0	1149239296	69	4780
2026-01-06 12:59:18.20	332.73	8.17	-51.0	-52.9	15.2	6.03e-01	0	29	0	1151336448	69	4827
2026-01-06 12:59:19.19	332.81	8.09	-51.0	-52.9	15.2	6.03e-01	0	28	0	1153433600	69	4838
2026-01-06 12:59:20.19	332.90	8.02	-51.0	-52.9	15.2	6.02e-01	0	28	0	1155006464	69	4841
2026-01-06 12:59:21.19	332.98	7.94	-51.0	-52.8	15.2	6.02e-01	0	28	0	1157103616	69	4814
2026-01-06 12:59:22.19	333.06	7.87	-51.3	-53.2	15.2	6.03e-01	0	29	0	1158676480	70	4731
2026-01-06 12:59:23.18	333.14	7.79	-51.2	-53.1	15.2	6.02e-01	0	28	0	1160773632	70	4684
2026-01-06 12:59:24.18	333.23	7.72	-51.2	-53.1	15.2	6.04e-01	0	28	0	1162346496	70	4681
2026-01-06 12:59:25.19	333.31	7.64	-51.4	-53.4	15.2	6.02e-01	0	28	0	1164443648	70	4831
2026-01-06 12:59:26.19	333.39	7.56	-51.4	-53.4	15.1	6.04e-01	0	28	0	1166540800	70	4859
2026-01-06 12:59:27.19	333.47	7.49	-51.3	-53.2	15.2	6.03e-01	0	29	0	1168113664	70	4759
2026-01-06 12:59:28.19	333.55	7.41	-51.2	-53.2	15.2	6.04e-01	0	28	0	1170210816	70	4707
2026-01-06 12:59:29.20	333.63	7.34	-51.3	-53.3	15.2	6.04e-01	0	29	0	1171783680	70	4769
2026-01-06 12:59:30.19	333.71	7.27	-51.3	-53.3	15.2	6.02e-01	0	29	0	1173880832	70	4772
2026-01-06 12:59:31.19	333.79	7.19	-51.3	-53.2	15.2	6.01e-01	0	28	0	1175453696	70	4745
2026-01-06 12:59:32.19	333.87	7.12	-51.3	-53.3	15.2	6.04e-01	0	29	0	1177550848	70	4766
2026-01-06 12:59:33.19	333.95	7.04	-51.4	-53.4	15.1	6.00e-01	0	28	0	1179648000	70	4849
2026-01-06 12:59:34.19	334.03	6.97	-51.3	-53.3	15.2	6.02e-01	0	28	0	1181220864	70	4782
2026-01-06 12:59:35.19	334.10	6.90	-51.3	-53.2	15.2	6.04e-01	0	28	0	1183318016	70	4748
2026-01-06 12:59:36.19	334.18	6.82	-51.1	-53.1	15.2	6.00e-01	0	28	0	1184890880	70	4658
2026-01-06 12:59:37.18	334.26	6.75	-51.4	-53.5	15.1	6.03e-01	0	29	0	1186988032	70	4878
2026-01-06 12:59:38.19	334.34	6.68	-51.4	-53.4	15.1	6.05e-01	0	29	0	1188560896	70	4870
2026-01-06 12:59:39.19	334.41	6.61	-51.4	-53.4	15.1	6.04e-01	0	29	0	1190658048	70	4848
2026-01-06 12:59:40.19	334.49	6.53	-51.4	-53.5	15.1	6.05e-01	0	29	0	1192755200	70	4884
2026-01-06 12:59:41.18	334.56	6.46	-51.3	-53.4	15.1	6.03e-01	0	29	0	1194328064	70	4827
2026-01-06 12:59:42.18	334.64	6.39	-51.4	-53.4	15.1	6.04e-01	0	28	0	1196425216	70	4832
2026-01-06 12:59:43.17	334.71	6.32	-51.5	-53.6	15.1	6.03e-01	0	28	0	1197998080	70	4927
2026-01-06 12:59:44.18	334.79	6.25	-51.5	-53.6	15.1	6.02e-01	0	28	0	1200095232	70	4958
2026-01-06 12:59:45.17	334.86	6.18	-51.3	-53.7	15.1	6.02e-01	0	28	0	1202192384	70	4994
2026-01-06 12:59:46.17	334.93	6.10	-51.1	-53.3	15.2	6.02e-01	0	28	0	1203765248	70	4804
2026-01-06 12:59:47.17	335.01	6.03	-51.4	-53.6	15.1	6.02e-01	0	29	0	1205862400	70	4979
2026-01-06 12:59:48.17	335.08	5.96	-51.5	-53.7	15.0	6.04e-01	0	29	0	1207435264	70	5015
2026-01-06 12:59:49.17	335.15	5.89	-51.5	-53.6	15.0	6.02e-01	0	28	0	1209532416	70	4943
2026-01-06 12:59:50.18	335.22	5.82	-51.5	-53.7	15.0	6.01e-01	0	29	0	1211105280	70	4987
2026-01-06 12:59:51.19	335.30	5.75	-51.6	-53.7	15.1	6.05e-01	0	29	0	1213202432	71	4756
2026-01-06 12:59:52.19	335.37	5.68	-51.6	-53.8	15.1	6.02e-01	0	28	0	1215299584	71	4767
2026-01-06 12:59:53.19	335.44	5.61	-51.8	-54.0	15.0	6.03e-01	0	29	0	1216872448	71	4877
2026-01-06 12:59:54.19	335.51	5.54	-51.5	-53.6	15.1	6.02e-01	0	28	0	1218969600	71	4702
2026-01-06 12:59:55.19	335.58	5.47	-51.6	-53.8	15.1	6.03e-01	0	29	0	1220542464	71	4760
2026-01-06 12:59:56.19	335.65	5.40	-51.9	-54.1	15.0	6.02e-01	0	29	0	1222639616	71	4929
2026-01-06 12:59:57.19	335.72	5.33	-51.8	-54.0	15.0	6.02e-01	0	29	0	1224212480	71	4881
2026-01-06 12:59:58.18	335.79	5.26	-51.7	-53.9	15.0	6.02e-01	0	29	0	1226309632	71	4827
