passes_logs/2026/01/06/R3.2S_Murmansk/R3.2S_Murmansk__20260106_085704_SUOMI_NPP_rec.log

#Pass ID: 20260106_085704_SUOMI NPP
#Satellite: SUOMI NPP
#Configuration: NPP
#almurnet v.1.7.20251203
#Start time: 2026-01-06 08:57:06

#Version: 2.2.20231116
#Station: R3.2S_Murmansk
#Location: 33.079688 lon 68.888172 lat
#TLE: 1 37849U 11061A   26004.95404768  .00000136  00000+0  85334-4 0  9991
#TLE: 2 37849  98.7801 307.0898 0002575  80.6707 279.4760 14.19522289735281

#Time	Az	El	Level	Level2	SNR	BER	BlckErr	Temp	State	Recorded	gain1	gain2
2026-01-06 08:57:06.01	136.43	2.11	-57.7	-73.7	3.8	1.49e+00	0	24	0	0	81	22804
2026-01-06 08:57:07.00	136.41	2.17	-57.7	-73.7	3.8	1.49e+00	0	24	104	0	80	24159
2026-01-06 08:57:08.00	136.40	2.24	-57.6	-73.7	3.8	1.49e+00	0	24	104	0	80	24134
2026-01-06 08:57:08.99	136.39	2.30	-57.6	-73.7	3.8	1.49e+00	0	24	104	0	80	24139
2026-01-06 08:57:09.98	136.37	2.37	-57.6	-73.7	3.8	1.49e+00	0	24	104	0	80	24161
2026-01-06 08:57:10.97	136.36	2.43	-57.6	-73.6	3.8	1.49e+00	0	24	104	0	80	24121
2026-01-06 08:57:11.96	136.35	2.50	-57.7	-73.6	3.8	1.49e+00	0	24	104	0	80	24093
2026-01-06 08:57:12.96	136.33	2.56	-57.7	-73.6	3.8	1.49e+00	0	24	104	0	80	24093
2026-01-06 08:57:13.95	136.32	2.63	-57.7	-73.7	3.8	1.49e+00	0	24	104	0	80	24146
2026-01-06 08:57:14.94	136.30	2.69	-57.6	-73.7	3.8	1.49e+00	0	24	104	0	80	24133
2026-01-06 08:57:15.93	136.29	2.75	-57.7	-73.7	3.8	1.49e+00	0	24	104	0	80	24136
2026-01-06 08:57:16.94	136.27	2.82	-57.7	-73.6	3.8	1.49e+00	0	24	104	0	80	24121
2026-01-06 08:57:17.93	136.26	2.89	-57.7	-73.6	3.8	1.49e+00	0	24	104	0	80	23999
2026-01-06 08:57:18.91	136.25	2.95	-57.7	-73.6	3.8	1.49e+00	0	24	104	0	80	23944
2026-01-06 08:57:19.91	136.23	3.02	-57.7	-73.5	3.8	1.49e+00	0	24	104	0	80	23757
2026-01-06 08:57:20.90	136.22	3.08	-57.7	-73.5	3.8	1.49e+00	0	24	104	0	80	23728
2026-01-06 08:57:21.90	136.20	3.15	-57.7	-73.4	3.8	1.49e+00	0	24	104	0	80	23522
2026-01-06 08:57:22.89	136.19	3.22	-57.6	-73.3	3.8	1.49e+00	0	24	104	0	80	23157
2026-01-06 08:57:23.88	136.17	3.28	-57.6	-73.0	3.8	1.49e+00	0	24	104	0	80	22349
2026-01-06 08:57:24.87	136.16	3.35	-57.6	-72.4	3.8	1.49e+00	0	24	104	0	80	20973
2026-01-06 08:57:25.88	136.14	3.42	-57.6	-72.1	3.8	1.49e+00	0	24	104	0	80	20156
2026-01-06 08:57:26.87	136.13	3.48	-57.6	-71.7	3.8	1.49e+00	0	24	104	0	80	19327
2026-01-06 08:57:27.87	136.11	3.55	-57.6	-71.4	3.8	1.49e+00	0	24	104	0	80	18556
2026-01-06 08:57:28.87	136.09	3.62	-57.6	-71.0	4.0	1.47e+00	0	24	104	0	80	17695
2026-01-06 08:57:29.86	136.08	3.68	-57.6	-71.0	3.9	1.47e+00	0	24	104	0	80	17707
2026-01-06 08:57:30.86	136.06	3.75	-57.5	-70.2	4.2	1.40e+00	0	24	0	0	80	16306
2026-01-06 08:57:31.85	136.05	3.82	-57.5	-70.0	4.2	1.41e+00	0	25	0	0	80	15854
2026-01-06 08:57:32.84	136.03	3.89	-57.5	-69.3	4.5	1.18e+00	27	24	0	0	80	14609
2026-01-06 08:57:33.84	136.02	3.96	-57.3	-67.8	5.1	7.86e-01	0	24	0	2097152	80	12338
2026-01-06 08:57:34.83	136.00	4.02	-57.2	-66.4	5.9	3.85e-01	0	24	0	4194304	80	10511
2026-01-06 08:57:35.81	135.98	4.09	-57.0	-65.2	6.8	2.07e-01	0	25	0	6291456	80	9115
2026-01-06 08:57:36.80	135.97	4.16	-56.6	-63.4	8.3	4.29e-02	0	24	0	8388608	79	7819
2026-01-06 08:57:37.79	135.95	4.23	-56.3	-62.1	9.4	1.39e-02	0	24	0	9437184	79	6764
2026-01-06 08:57:38.78	135.94	4.30	-56.2	-61.8	9.8	5.06e-03	0	25	0	11534336	79	6513
2026-01-06 08:57:39.78	135.92	4.36	-55.6	-60.2	10.9	1.12e-03	0	25	0	13631488	77	6092
2026-01-06 08:57:40.77	135.90	4.43	-55.3	-59.4	11.6	2.51e-05	0	25	0	15728640	77	5581
2026-01-06 08:57:41.75	135.89	4.50	-54.8	-58.4	12.2	2.05e-05	0	25	0	16777216	76	5279
2026-01-06 08:57:42.74	135.87	4.57	-54.4	-57.7	12.6	7.00e-07	0	25	0	18874368	75	5158
2026-01-06 08:57:43.74	135.85	4.64	-54.0	-57.1	12.9	0.00e+00	0	25	0	20971520	74	5091
2026-01-06 08:57:44.72	135.84	4.71	-53.4	-56.1	13.5	0.00e+00	0	25	0	23068672	73	4787
2026-01-06 08:57:45.72	135.82	4.78	-53.5	-56.4	13.3	0.00e+00	0	25	0	25165824	73	4949
2026-01-06 08:57:46.71	135.80	4.85	-53.7	-56.7	13.1	0.00e+00	0	25	0	26214400	73	5133
2026-01-06 08:57:47.71	135.79	4.92	-53.4	-56.1	13.4	0.00e+00	0	25	0	28311552	73	4786
2026-01-06 08:57:48.70	135.77	4.99	-53.4	-56.1	13.4	0.00e+00	0	25	0	30408704	73	4802
2026-01-06 08:57:49.69	135.75	5.06	-54.1	-57.4	12.6	0.00e+00	0	25	0	32505856	73	5539
2026-01-06 08:57:50.68	135.73	5.13	-54.7	-58.2	12.4	0.00e+00	0	25	0	33554432	74	5735
2026-01-06 08:57:51.67	135.72	5.20	-54.7	-58.5	12.1	0.00e+00	0	25	0	35651584	74	5980
2026-01-06 08:57:52.67	135.70	5.28	-54.8	-58.2	12.5	1.02e-02	0	25	0	37748736	76	5151
2026-01-06 08:57:53.66	135.68	5.35	-53.8	-56.7	13.2	0.00e+00	0	25	0	39845888	73	5133
2026-01-06 08:57:54.65	135.66	5.42	-53.7	-56.6	13.2	9.10e-06	0	25	0	40894464	74	4806
2026-01-06 08:57:55.65	135.65	5.49	-53.4	-56.0	13.5	0.00e+00	0	25	0	42991616	73	4750
2026-01-06 08:57:56.64	135.63	5.56	-53.3	-55.9	13.5	0.00e+00	0	25	0	45088768	72	4947
2026-01-06 08:57:57.63	135.61	5.64	-53.2	-55.7	13.6	0.00e+00	0	25	0	47185920	72	4847
2026-01-06 08:57:58.63	135.59	5.71	-53.0	-55.4	13.8	0.00e+00	0	25	0	49283072	72	4696
2026-01-06 08:57:59.62	135.57	5.78	-53.0	-55.4	13.8	0.00e+00	0	25	0	50331648	72	4670
2026-01-06 08:58:00.61	135.55	5.85	-52.8	-55.1	14.0	0.00e+00	0	25	0	52428800	72	4544
2026-01-06 08:58:01.61	135.54	5.93	-53.3	-55.8	13.6	0.00e+00	0	25	0	54525952	72	4884
2026-01-06 08:58:02.60	135.52	6.00	-53.3	-55.9	13.6	0.00e+00	0	25	0	56623104	72	4943
2026-01-06 08:58:03.59	135.50	6.07	-53.2	-55.7	13.7	0.00e+00	0	25	0	57671680	72	4866
2026-01-06 08:58:04.58	135.48	6.15	-53.0	-55.4	13.8	0.00e+00	0	25	0	59768832	72	4675
2026-01-06 08:58:05.57	135.46	6.22	-53.3	-55.8	13.6	0.00e+00	0	25	0	61865984	72	4879
2026-01-06 08:58:06.57	135.44	6.29	-53.1	-55.5	13.8	0.00e+00	0	25	0	63963136	72	4717
2026-01-06 08:58:07.56	135.42	6.37	-53.1	-55.5	13.8	0.00e+00	0	25	0	66060288	72	4708
2026-01-06 08:58:08.56	135.40	6.44	-53.1	-55.5	13.8	0.00e+00	0	25	0	67108864	72	4758
2026-01-06 08:58:09.55	135.38	6.52	-53.1	-55.5	13.8	0.00e+00	0	25	0	69206016	72	4720
2026-01-06 08:58:10.54	135.36	6.59	-53.2	-55.7	13.7	0.00e+00	0	25	0	71303168	72	4817
2026-01-06 08:58:11.53	135.34	6.67	-53.2	-55.8	13.7	0.00e+00	0	26	0	73400320	72	4881
2026-01-06 08:58:12.52	135.32	6.74	-53.3	-55.9	13.6	0.00e+00	0	25	0	74448896	72	4954
2026-01-06 08:58:13.51	135.30	6.82	-53.0	-55.4	13.9	0.00e+00	0	25	0	76546048	72	4682
2026-01-06 08:58:14.51	135.28	6.89	-53.2	-55.7	13.8	0.00e+00	0	25	0	78643200	72	4819
2026-01-06 08:58:15.51	135.26	6.97	-52.9	-55.2	14.0	0.00e+00	0	25	0	80740352	72	4590
2026-01-06 08:58:16.50	135.24	7.05	-53.0	-55.4	13.9	0.00e+00	0	26	0	82837504	72	4682
2026-01-06 08:58:17.48	135.22	7.12	-52.9	-55.3	14.0	0.00e+00	0	26	0	83886080	72	4601
2026-01-06 08:58:18.48	135.20	7.20	-53.1	-55.4	13.9	0.00e+00	0	26	0	85983232	72	4673
2026-01-06 08:58:19.46	135.18	7.28	-53.0	-55.4	13.9	0.00e+00	0	26	0	88080384	72	4656
2026-01-06 08:58:20.46	135.16	7.35	-53.0	-55.4	13.9	0.00e+00	0	26	0	90177536	72	4658
2026-01-06 08:58:21.45	135.14	7.43	-52.9	-55.1	14.0	0.00e+00	0	26	0	91226112	72	4519
2026-01-06 08:58:22.44	135.12	7.51	-52.8	-55.0	14.1	0.00e+00	0	26	0	93323264	72	4470
2026-01-06 08:58:23.44	135.10	7.59	-52.9	-55.1	14.1	0.00e+00	0	26	0	95420416	72	4502
2026-01-06 08:58:24.44	135.08	7.66	-52.7	-54.8	14.1	0.00e+00	0	26	0	97517568	71	4634
2026-01-06 08:58:25.43	135.06	7.74	-52.8	-54.9	14.0	0.00e+00	0	26	0	99614720	71	4697
2026-01-06 08:58:26.42	135.03	7.82	-52.6	-54.8	14.1	0.00e+00	0	26	0	100663296	71	4615
2026-01-06 08:58:27.41	135.01	7.90	-52.6	-54.7	14.2	0.00e+00	0	26	0	102760448	71	4573
2026-01-06 08:58:28.40	134.99	7.98	-52.7	-54.8	14.1	0.00e+00	0	26	0	104857600	71	4634
2026-01-06 08:58:29.39	134.97	8.06	-52.7	-54.8	14.1	0.00e+00	0	26	0	106954752	71	4621
2026-01-06 08:58:30.39	134.95	8.14	-52.5	-54.6	14.2	0.00e+00	0	26	0	108003328	71	4501
2026-01-06 08:58:31.38	134.92	8.22	-52.6	-54.7	14.1	0.00e+00	0	26	0	110100480	71	4595
2026-01-06 08:58:32.37	134.90	8.30	-52.8	-54.9	14.0	0.00e+00	0	26	0	112197632	71	4694
2026-01-06 08:58:33.36	134.88	8.38	-52.6	-54.7	14.1	0.00e+00	0	26	0	114294784	71	4583
2026-01-06 08:58:34.35	134.86	8.46	-52.6	-54.8	14.2	0.00e+00	0	26	0	115343360	71	4599
2026-01-06 08:58:35.35	134.83	8.54	-52.7	-54.9	14.1	0.00e+00	0	26	0	117440512	71	4653
2026-01-06 08:58:36.35	134.81	8.62	-52.7	-54.8	14.1	0.00e+00	0	26	0	119537664	71	4646
2026-01-06 08:58:37.33	134.79	8.70	-52.7	-54.9	14.1	0.00e+00	0	26	0	121634816	71	4656
2026-01-06 08:58:38.32	134.76	8.78	-52.7	-54.9	14.1	0.00e+00	0	26	0	123731968	71	4666
2026-01-06 08:58:39.32	134.74	8.86	-52.7	-54.9	14.1	0.00e+00	0	26	0	124780544	71	4676
2026-01-06 08:58:40.31	134.72	8.95	-52.8	-54.9	14.1	0.00e+00	0	26	0	126877696	71	4692
2026-01-06 08:58:41.31	134.69	9.03	-52.8	-54.9	14.0	0.00e+00	0	26	0	128974848	71	4694
2026-01-06 08:58:42.30	134.67	9.11	-52.6	-54.7	14.2	0.00e+00	0	26	0	131072000	71	4562
2026-01-06 08:58:43.30	134.65	9.19	-52.5	-54.5	14.3	0.00e+00	0	26	0	132120576	71	4470
2026-01-06 08:58:44.30	134.62	9.28	-52.5	-54.5	14.3	0.00e+00	0	26	0	134217728	71	4473
2026-01-06 08:58:45.29	134.60	9.36	-52.4	-54.3	14.3	0.00e+00	0	26	0	136314880	71	4388
2026-01-06 08:58:46.28	134.57	9.44	-52.2	-54.2	14.4	0.00e+00	0	26	0	138412032	71	4311
2026-01-06 08:58:47.27	134.55	9.53	-52.3	-54.3	14.4	0.00e+00	0	26	0	140509184	71	4369
2026-01-06 08:58:48.28	134.52	9.61	-52.4	-54.4	14.3	0.00e+00	0	26	0	141557760	71	4423
2026-01-06 08:58:49.26	134.50	9.70	-52.4	-54.3	14.4	0.00e+00	0	26	0	143654912	71	4387
2026-01-06 08:58:50.26	134.47	9.78	-52.3	-54.2	14.4	0.00e+00	0	26	0	145752064	71	4326
2026-01-06 08:58:51.25	134.45	9.87	-52.3	-54.3	14.4	0.00e+00	0	26	0	147849216	71	4356
2026-01-06 08:58:52.25	134.42	9.95	-52.2	-54.1	14.5	0.00e+00	0	26	0	148897792	71	4248
2026-01-06 08:58:53.24	134.40	10.04	-52.2	-54.2	14.3	0.00e+00	0	27	0	150994944	70	4549
2026-01-06 08:58:54.23	134.37	10.12	-52.2	-54.2	14.3	0.00e+00	0	26	0	153092096	70	4564
2026-01-06 08:58:55.23	134.34	10.21	-52.1	-54.0	14.4	0.00e+00	0	26	0	155189248	70	4457
2026-01-06 08:58:56.22	134.32	10.30	-52.2	-54.1	14.3	0.00e+00	0	26	0	157286400	70	4539
2026-01-06 08:58:57.22	134.29	10.39	-52.2	-54.1	14.3	0.00e+00	0	26	0	158334976	70	4542
2026-01-06 08:58:58.22	134.26	10.47	-52.1	-54.0	14.4	0.00e+00	0	26	0	160432128	70	4457
2026-01-06 08:58:59.21	134.24	10.56	-52.0	-53.8	14.5	0.00e+00	0	26	0	162529280	70	4381
2026-01-06 08:59:00.21	134.21	10.65	-51.9	-53.7	14.5	0.00e+00	0	26	0	164626432	70	4321
2026-01-06 08:59:01.19	134.18	10.74	-51.9	-53.7	14.5	0.00e+00	0	27	0	165675008	70	4327
2026-01-06 08:59:02.18	134.16	10.82	-52.0	-53.8	14.5	0.00e+00	0	27	0	167772160	70	4364
2026-01-06 08:59:03.17	134.13	10.91	-51.9	-53.7	14.5	0.00e+00	0	26	0	169869312	70	4301
2026-01-06 08:59:04.16	134.10	11.00	-51.6	-53.4	14.6	0.00e+00	0	27	0	171966464	69	4396
2026-01-06 08:59:05.15	134.07	11.09	-51.7	-53.4	14.5	0.00e+00	0	26	0	174063616	69	4423
2026-01-06 08:59:06.15	134.05	11.18	-51.5	-53.2	14.6	0.00e+00	0	27	0	175112192	69	4333
2026-01-06 08:59:07.14	134.02	11.27	-51.7	-53.5	14.5	0.00e+00	0	27	0	177209344	69	4442
2026-01-06 08:59:08.14	133.99	11.36	-51.7	-53.4	14.5	0.00e+00	0	27	0	179306496	69	4421
2026-01-06 08:59:09.13	133.96	11.45	-51.6	-53.3	14.6	0.00e+00	0	27	0	181403648	69	4353
2026-01-06 08:59:10.13	133.93	11.54	-51.6	-53.4	14.6	0.00e+00	0	27	0	182452224	69	4397
2026-01-06 08:59:11.12	133.90	11.63	-51.6	-53.4	14.6	0.00e+00	0	27	0	184549376	69	4396
2026-01-06 08:59:12.11	133.87	11.72	-51.4	-53.1	14.7	0.00e+00	0	27	0	186646528	69	4284
2026-01-06 08:59:13.11	133.84	11.82	-51.5	-53.2	14.6	0.00e+00	0	27	0	188743680	69	4312
2026-01-06 08:59:14.10	133.81	11.91	-51.4	-53.1	14.7	0.00e+00	0	27	0	190840832	69	4290
2026-01-06 08:59:15.08	133.79	12.00	-51.4	-53.0	14.7	0.00e+00	0	27	0	191889408	69	4233
2026-01-06 08:59:16.08	133.76	12.09	-51.5	-53.2	14.7	0.00e+00	0	27	0	193986560	69	4296
2026-01-06 08:59:17.07	133.73	12.19	-51.4	-53.0	14.7	0.00e+00	0	27	0	196083712	69	4238
2026-01-06 08:59:18.06	133.69	12.28	-51.3	-53.0	14.7	0.00e+00	0	27	0	198180864	69	4209
2026-01-06 08:59:19.06	133.66	12.38	-51.2	-52.8	14.8	0.00e+00	0	27	0	199229440	69	4145
2026-01-06 08:59:20.05	133.63	12.47	-51.2	-52.9	14.7	0.00e+00	0	27	0	201326592	68	4399
2026-01-06 08:59:21.03	133.60	12.56	-51.2	-52.8	14.7	0.00e+00	0	27	0	203423744	68	4372
2026-01-06 08:59:22.02	133.57	12.66	-51.1	-52.8	14.7	0.00e+00	0	27	0	205520896	68	4347
2026-01-06 08:59:23.01	133.54	12.75	-51.3	-52.9	14.6	0.00e+00	0	27	0	207618048	68	4437
2026-01-06 08:59:24.00	133.51	12.85	-51.2	-52.9	14.7	0.00e+00	0	27	0	208666624	68	4400
2026-01-06 08:59:24.99	133.48	12.94	-51.2	-52.8	14.7	0.00e+00	0	27	0	210763776	68	4378
2026-01-06 08:59:25.99	133.44	13.04	-51.2	-52.8	14.7	0.00e+00	0	27	0	212860928	68	4382
2026-01-06 08:59:26.98	133.41	13.14	-51.1	-52.8	14.7	0.00e+00	0	27	0	214958080	68	4346
2026-01-06 08:59:27.97	133.38	13.23	-51.0	-52.8	14.7	0.00e+00	0	27	0	216006656	68	4386
2026-01-06 08:59:28.97	133.35	13.33	-51.0	-52.8	14.7	0.00e+00	0	27	0	218103808	68	4345
2026-01-06 08:59:29.96	133.31	13.43	-51.1	-53.0	14.6	0.00e+00	0	27	0	220200960	68	4448
2026-01-06 08:59:30.95	133.28	13.53	-51.1	-52.9	14.7	0.00e+00	0	27	0	222298112	68	4422
2026-01-06 08:59:31.95	133.25	13.63	-51.0	-52.8	14.7	0.00e+00	0	27	0	223346688	68	4374
2026-01-06 08:59:32.94	133.21	13.73	-51.2	-53.0	14.6	0.00e+00	0	27	0	225443840	68	4455
2026-01-06 08:59:33.93	133.18	13.83	-51.2	-53.0	14.6	0.00e+00	0	27	0	227540992	68	4467
2026-01-06 08:59:34.92	133.14	13.93	-51.1	-52.9	14.7	0.00e+00	0	27	0	229638144	68	4422
2026-01-06 08:59:35.91	133.11	14.03	-51.1	-52.9	14.7	0.00e+00	0	27	0	231735296	68	4416
2026-01-06 08:59:36.91	133.07	14.13	-51.2	-53.0	14.6	0.00e+00	0	27	0	232783872	68	4481
2026-01-06 08:59:37.90	133.04	14.23	-51.2	-53.0	14.6	0.00e+00	0	27	0	234881024	68	4448
2026-01-06 08:59:38.90	133.00	14.33	-51.0	-52.8	14.7	0.00e+00	0	27	0	236978176	68	4387
2026-01-06 08:59:39.89	132.97	14.43	-51.2	-53.0	14.6	0.00e+00	0	27	0	239075328	68	4480
2026-01-06 08:59:40.89	132.93	14.54	-51.2	-53.1	14.6	0.00e+00	0	27	0	240123904	68	4510
2026-01-06 08:59:41.87	132.90	14.64	-51.2	-53.0	14.6	0.00e+00	0	27	0	242221056	68	4488
2026-01-06 08:59:42.88	132.86	14.74	-51.2	-53.0	14.6	0.00e+00	0	27	0	244318208	68	4466
2026-01-06 08:59:43.87	132.82	14.85	-51.2	-53.0	14.6	0.00e+00	0	27	0	246415360	68	4460
2026-01-06 08:59:44.87	132.78	14.95	-51.1	-52.9	14.7	0.00e+00	0	27	0	248512512	68	4426
2026-01-06 08:59:45.86	132.75	15.05	-51.2	-53.0	14.6	0.00e+00	0	27	0	249561088	68	4475
2026-01-06 08:59:46.85	132.71	15.16	-51.0	-52.8	14.7	0.00e+00	0	27	0	251658240	68	4371
2026-01-06 08:59:47.84	132.67	15.26	-51.1	-52.9	14.7	0.00e+00	0	27	0	253755392	68	4417
2026-01-06 08:59:48.83	132.63	15.37	-51.0	-52.8	14.7	0.00e+00	0	27	0	255852544	68	4355
2026-01-06 08:59:49.82	132.60	15.48	-51.2	-53.0	14.6	0.00e+00	0	27	0	256901120	68	4456
2026-01-06 08:59:50.82	132.56	15.58	-51.1	-52.8	14.7	0.00e+00	0	27	0	258998272	68	4387
2026-01-06 08:59:51.81	132.52	15.69	-51.1	-52.9	14.7	0.00e+00	0	27	0	261095424	68	4414
2026-01-06 08:59:52.80	132.48	15.80	-51.2	-53.0	14.6	0.00e+00	0	27	0	263192576	68	4464
2026-01-06 08:59:53.80	132.44	15.91	-51.2	-53.0	14.6	0.00e+00	0	27	0	265289728	68	4479
2026-01-06 08:59:54.79	132.40	16.02	-51.0	-52.7	14.7	0.00e+00	0	27	0	266338304	68	4330
2026-01-06 08:59:55.78	132.36	16.12	-51.0	-52.7	14.7	0.00e+00	0	27	0	268435456	68	4333
2026-01-06 08:59:56.77	132.32	16.23	-51.1	-52.9	14.7	0.00e+00	0	27	0	270532608	68	4392
2026-01-06 08:59:57.75	132.28	16.34	-51.1	-52.9	14.7	0.00e+00	0	27	0	272629760	68	4420
2026-01-06 08:59:58.75	132.24	16.45	-50.9	-52.7	14.8	0.00e+00	0	27	0	273678336	68	4320
2026-01-06 08:59:59.74	132.19	16.56	-50.9	-52.6	14.8	0.00e+00	0	27	0	275775488	68	4257
2026-01-06 09:00:00.73	132.15	16.68	-51.0	-52.7	14.7	0.00e+00	0	27	0	277872640	68	4329
2026-01-06 09:00:01.72	132.11	16.79	-50.9	-52.7	14.8	0.00e+00	0	27	0	279969792	68	4312
2026-01-06 09:00:02.71	132.07	16.90	-51.0	-52.7	14.8	0.00e+00	0	27	0	282066944	68	4324
2026-01-06 09:00:03.70	132.02	17.01	-50.9	-52.7	14.8	0.00e+00	0	27	0	283115520	68	4306
2026-01-06 09:00:04.70	131.98	17.13	-50.9	-52.7	14.8	0.00e+00	0	27	0	285212672	68	4298
2026-01-06 09:00:05.69	131.94	17.24	-51.0	-52.8	14.7	0.00e+00	0	27	0	287309824	68	4377
2026-01-06 09:00:06.68	131.89	17.35	-51.1	-52.9	14.7	0.00e+00	0	27	0	289406976	68	4408
2026-01-06 09:00:07.68	131.85	17.47	-51.2	-53.0	14.7	0.00e+00	0	27	0	290455552	68	4448
2026-01-06 09:00:08.67	131.80	17.59	-51.3	-53.1	14.6	0.00e+00	0	27	0	292552704	68	4530
2026-01-06 09:00:09.66	131.76	17.70	-51.0	-52.8	14.7	0.00e+00	0	27	0	294649856	68	4348
2026-01-06 09:00:10.66	131.71	17.82	-51.0	-52.7	14.8	0.00e+00	0	27	0	296747008	68	4316
2026-01-06 09:00:11.65	131.67	17.94	-51.0	-52.7	14.8	0.00e+00	0	27	0	297795584	68	4336
2026-01-06 09:00:12.65	131.62	18.05	-51.0	-52.7	14.8	0.00e+00	0	27	0	299892736	68	4320
2026-01-06 09:00:13.63	131.57	18.17	-51.0	-52.8	14.7	0.00e+00	0	27	0	301989888	68	4358
2026-01-06 09:00:14.62	131.53	18.29	-51.0	-52.7	14.8	0.00e+00	0	27	0	304087040	68	4338
2026-01-06 09:00:15.62	131.48	18.41	-51.0	-52.7	14.8	0.00e+00	0	27	0	306184192	68	4320
2026-01-06 09:00:16.61	131.43	18.53	-51.1	-52.9	14.7	0.00e+00	0	27	0	307232768	68	4438
2026-01-06 09:00:17.60	131.38	18.65	-51.3	-53.1	14.6	0.00e+00	0	27	0	309329920	68	4532
2026-01-06 09:00:18.60	131.34	18.77	-51.3	-53.2	14.6	0.00e+00	0	27	0	311427072	68	4569
2026-01-06 09:00:19.59	131.29	18.89	-51.4	-53.2	14.6	0.00e+00	0	27	0	313524224	68	4593
2026-01-06 09:00:20.58	131.24	19.01	-51.5	-53.4	14.5	0.00e+00	0	27	0	314572800	68	4673
2026-01-06 09:00:21.57	131.19	19.14	-51.5	-53.4	14.5	0.00e+00	0	27	0	316669952	68	4685
2026-01-06 09:00:22.56	131.14	19.26	-51.4	-53.3	14.5	0.00e+00	0	27	0	318767104	68	4624
2026-01-06 09:00:23.55	131.09	19.38	-51.5	-53.4	14.5	0.00e+00	0	27	0	320864256	68	4673
2026-01-06 09:00:24.55	131.03	19.51	-51.5	-53.4	14.5	0.00e+00	0	27	0	322961408	68	4681
2026-01-06 09:00:25.53	130.98	19.63	-51.4	-53.2	14.6	0.00e+00	0	27	0	324009984	68	4562
2026-01-06 09:00:26.52	130.93	19.76	-51.3	-53.2	14.6	0.00e+00	0	27	0	326107136	68	4546
2026-01-06 09:00:27.52	130.88	19.88	-51.5	-53.3	14.5	0.00e+00	0	27	0	328204288	68	4637
2026-01-06 09:00:28.52	130.83	20.01	-51.6	-53.5	14.5	0.00e+00	0	27	0	330301440	68	4737
2026-01-06 09:00:29.51	130.77	20.14	-51.4	-53.2	14.6	0.00e+00	0	27	0	331350016	68	4565
2026-01-06 09:00:30.51	130.72	20.27	-51.6	-53.4	14.5	0.00e+00	0	27	0	333447168	68	4683
2026-01-06 09:00:31.50	130.66	20.40	-51.5	-53.3	14.5	0.00e+00	0	27	0	335544320	68	4636
2026-01-06 09:00:32.49	130.61	20.53	-51.5	-53.4	14.5	0.00e+00	0	27	0	337641472	68	4670
2026-01-06 09:00:33.48	130.55	20.66	-51.4	-53.2	14.6	0.00e+00	0	27	0	339738624	68	4597
2026-01-06 09:00:34.48	130.50	20.79	-51.6	-53.4	14.5	0.00e+00	0	27	0	340787200	68	4688
2026-01-06 09:00:35.47	130.44	20.92	-51.5	-53.3	14.5	0.00e+00	0	27	0	342884352	68	4610
2026-01-06 09:00:36.47	130.38	21.05	-51.5	-53.3	14.5	0.00e+00	0	27	0	344981504	68	4630
2026-01-06 09:00:37.47	130.33	21.19	-51.5	-53.3	14.5	0.00e+00	0	27	0	347078656	68	4631
2026-01-06 09:00:38.47	130.27	21.32	-51.5	-53.3	14.5	0.00e+00	0	27	0	348127232	68	4636
2026-01-06 09:00:39.46	130.21	21.45	-51.5	-53.3	14.6	0.00e+00	0	27	0	350224384	68	4602
2026-01-06 09:00:40.46	130.15	21.59	-51.6	-53.5	14.5	0.00e+00	0	27	0	352321536	68	4735
2026-01-06 09:00:41.46	130.09	21.73	-51.6	-53.4	14.5	0.00e+00	0	27	0	354418688	68	4704
2026-01-06 09:00:42.46	130.03	21.86	-51.5	-53.4	14.5	0.00e+00	0	27	0	356515840	68	4663
2026-01-06 09:00:43.46	129.97	22.00	-51.8	-53.7	14.4	0.00e+00	0	27	0	357564416	68	4869
2026-01-06 09:00:44.45	129.91	22.14	-52.0	-54.0	14.4	0.00e+00	0	27	0	359661568	69	4706
2026-01-06 09:00:45.44	129.84	22.28	-51.9	-53.9	14.4	0.00e+00	0	27	0	361758720	69	4677
2026-01-06 09:00:46.44	129.78	22.42	-51.9	-53.9	14.4	0.00e+00	0	27	0	363855872	69	4656
2026-01-06 09:00:47.44	129.72	22.56	-51.7	-53.6	14.5	0.00e+00	0	27	0	364904448	69	4518
2026-01-06 09:00:48.43	129.65	22.70	-51.8	-53.8	14.5	0.00e+00	0	27	0	367001600	69	4614
2026-01-06 09:00:49.42	129.59	22.84	-51.7	-53.7	14.5	0.00e+00	0	27	0	369098752	69	4560
2026-01-06 09:00:50.42	129.53	22.98	-51.5	-53.3	14.7	0.00e+00	0	27	0	371195904	69	4376
2026-01-06 09:00:51.41	129.46	23.12	-51.6	-53.5	14.6	0.00e+00	0	27	0	373293056	69	4481
2026-01-06 09:00:52.40	129.39	23.27	-51.4	-53.3	14.7	0.00e+00	0	27	0	374341632	69	4370
2026-01-06 09:00:53.39	129.33	23.41	-51.4	-53.2	14.7	0.00e+00	0	27	0	376438784	69	4319
2026-01-06 09:00:54.38	129.26	23.55	-51.5	-53.4	14.6	0.00e+00	0	27	0	378535936	69	4437
2026-01-06 09:00:55.37	129.19	23.70	-51.7	-53.6	14.5	0.00e+00	0	27	0	380633088	69	4542
2026-01-06 09:00:56.37	129.12	23.85	-51.9	-53.9	14.4	0.00e+00	0	27	0	381681664	69	4692
2026-01-06 09:00:57.36	129.05	23.99	-51.9	-54.0	14.4	0.00e+00	0	27	0	383778816	69	4725
2026-01-06 09:00:58.35	128.98	24.14	-52.0	-54.0	14.4	0.00e+00	0	27	0	385875968	69	4732
2026-01-06 09:00:59.34	128.91	24.29	-52.3	-54.4	14.2	0.00e+00	0	27	0	387973120	69	4963
2026-01-06 09:01:00.34	128.84	24.44	-52.3	-54.5	14.2	0.00e+00	0	27	0	390070272	69	5017
2026-01-06 09:01:01.33	128.77	24.59	-52.3	-54.4	14.4	0.00e+00	0	27	0	391118848	70	4691
2026-01-06 09:01:02.33	128.70	24.74	-52.7	-54.9	14.1	0.00e+00	0	27	0	393216000	70	4981
2026-01-06 09:01:03.32	128.62	24.90	-52.1	-54.6	14.0	4.56e-04	0	27	0	395313152	70	4792
2026-01-06 09:01:04.31	128.55	25.05	-52.1	-54.5	14.0	1.31e-02	0	27	0	397410304	70	4747
2026-01-06 09:01:05.31	128.47	25.20	-52.3	-54.7	13.9	1.34e-02	0	27	0	398458880	70	4866
2026-01-06 09:01:06.29	128.40	25.36	-52.3	-54.6	13.9	1.29e-02	0	27	0	400556032	70	4787
2026-01-06 09:01:07.28	128.32	25.51	-52.3	-54.6	14.0	7.71e-03	0	27	0	402653184	70	4803
2026-01-06 09:01:08.27	128.24	25.67	-52.4	-54.7	14.0	1.99e-03	0	27	0	404750336	70	4850
2026-01-06 09:01:09.27	128.16	25.82	-52.5	-54.8	14.1	8.69e-05	0	27	0	406847488	70	4890
2026-01-06 09:01:10.26	128.09	25.98	-52.6	-55.0	14.0	1.06e-05	0	27	0	407896064	70	5003
2026-01-06 09:01:11.26	128.01	26.14	-52.6	-54.9	14.0	8.46e-05	0	27	0	409993216	70	4966
2026-01-06 09:01:12.25	127.92	26.30	-52.9	-55.2	13.8	1.29e-05	0	27	0	412090368	70	5142
2026-01-06 09:01:13.25	127.84	26.46	-53.0	-55.4	13.8	1.35e-04	0	27	0	414187520	71	4975
2026-01-06 09:01:14.24	127.76	26.62	-52.8	-55.2	13.9	5.02e-03	0	27	0	415236096	71	4829
2026-01-06 09:01:15.22	127.68	26.78	-52.7	-55.2	13.8	1.29e-02	0	27	0	417333248	71	4844
2026-01-06 09:01:16.22	127.59	26.95	-52.7	-55.1	13.8	1.37e-02	0	27	0	419430400	71	4813
2026-01-06 09:01:17.20	127.51	27.11	-52.5	-54.8	14.0	9.09e-03	0	27	0	421527552	71	4629
2026-01-06 09:01:18.20	127.42	27.28	-52.6	-55.0	14.1	8.32e-04	0	27	0	422576128	71	4735
2026-01-06 09:01:19.18	127.34	27.44	-52.6	-54.9	14.0	2.37e-03	0	27	0	424673280	71	4696
2026-01-06 09:01:20.18	127.25	27.61	-52.4	-54.7	14.1	2.75e-03	0	27	0	426770432	71	4563
2026-01-06 09:01:21.17	127.16	27.78	-52.5	-54.8	14.1	5.00e-03	0	27	0	428867584	71	4602
2026-01-06 09:01:22.17	127.07	27.95	-52.6	-54.7	14.3	4.42e-05	0	27	0	430964736	71	4558
2026-01-06 09:01:23.16	126.98	28.12	-52.5	-54.5	14.4	0.00e+00	0	27	0	432013312	71	4492
2026-01-06 09:01:24.15	126.89	28.29	-52.5	-54.6	14.4	0.00e+00	0	27	0	434110464	71	4511
2026-01-06 09:01:25.14	126.79	28.46	-52.1	-54.1	14.5	0.00e+00	0	27	0	436207616	70	4499
2026-01-06 09:01:26.12	126.70	28.63	-52.1	-54.0	14.5	0.00e+00	0	27	0	438304768	70	4489
2026-01-06 09:01:27.11	126.61	28.80	-52.3	-54.3	14.4	0.00e+00	0	27	0	439353344	70	4628
2026-01-06 09:01:28.11	126.51	28.98	-52.4	-54.5	14.4	0.00e+00	0	27	0	441450496	70	4717
2026-01-06 09:01:29.10	126.41	29.15	-52.4	-54.5	14.3	0.00e+00	0	27	0	443547648	70	4709
2026-01-06 09:01:30.10	126.31	29.33	-52.7	-54.9	14.2	0.00e+00	0	27	0	445644800	70	4935
2026-01-06 09:01:31.09	126.21	29.51	-53.0	-55.3	14.1	0.00e+00	0	27	0	447741952	71	4910
2026-01-06 09:01:32.08	126.11	29.69	-53.2	-55.6	13.9	0.00e+00	0	27	0	448790528	71	5044
2026-01-06 09:01:33.08	126.01	29.87	-53.5	-56.0	13.8	0.00e+00	0	27	0	450887680	72	5008
2026-01-06 09:01:34.07	125.91	30.05	-53.5	-56.0	13.8	0.00e+00	0	27	0	452984832	72	5041
2026-01-06 09:01:35.07	125.80	30.23	-53.6	-56.2	13.8	0.00e+00	0	27	0	455081984	72	5105
2026-01-06 09:01:36.06	125.70	30.41	-53.7	-56.3	13.7	0.00e+00	0	27	0	456130560	72	5197
2026-01-06 09:01:37.06	125.59	30.60	-53.7	-56.3	13.7	0.00e+00	0	27	0	458227712	72	5187
2026-01-06 09:01:38.04	125.49	30.78	-53.6	-56.2	13.8	0.00e+00	0	27	0	460324864	72	5123
2026-01-06 09:01:39.04	125.38	30.97	-53.9	-56.7	13.6	0.00e+00	0	27	0	462422016	73	5135
2026-01-06 09:01:40.03	125.27	31.16	-54.1	-57.0	13.5	0.00e+00	0	27	0	464519168	73	5300
2026-01-06 09:01:41.03	125.15	31.35	-54.5	-57.5	13.3	0.00e+00	0	27	0	465567744	74	5288
2026-01-06 09:01:42.02	125.04	31.54	-54.5	-57.5	13.3	0.00e+00	0	27	0	467664896	74	5315
2026-01-06 09:01:43.00	124.93	31.72	-54.8	-57.9	13.1	0.00e+00	0	27	0	469762048	74	5574
2026-01-06 09:01:44.00	124.81	31.92	-54.5	-57.5	13.4	0.00e+00	0	27	0	471859200	74	5286
2026-01-06 09:01:44.99	124.69	32.11	-54.7	-57.8	13.2	0.00e+00	0	27	0	472907776	75	5181
2026-01-06 09:01:45.98	124.58	32.30	-54.8	-57.9	13.2	0.00e+00	0	27	0	475004928	75	5266
2026-01-06 09:01:46.97	124.46	32.50	-54.7	-57.7	13.3	0.00e+00	0	27	0	477102080	75	5155
2026-01-06 09:01:47.97	124.33	32.69	-54.8	-57.9	13.2	0.00e+00	0	27	0	479199232	75	5249
2026-01-06 09:01:48.97	124.21	32.89	-54.9	-58.1	13.0	0.00e+00	0	27	0	481296384	75	5392
2026-01-06 09:01:49.96	124.09	33.09	-54.7	-57.9	13.2	0.00e+00	0	27	0	482344960	75	5270
2026-01-06 09:01:50.96	123.96	33.29	-54.7	-57.9	13.1	0.00e+00	0	27	0	484442112	75	5271
2026-01-06 09:01:51.95	123.83	33.49	-54.5	-57.8	13.2	0.00e+00	0	27	0	486539264	75	5194
2026-01-06 09:01:52.94	123.70	33.69	-54.9	-58.5	12.7	0.00e+00	0	27	0	488636416	75	5648
2026-01-06 09:01:53.93	123.57	33.89	-55.1	-59.0	12.5	0.00e+00	0	27	0	489684992	75	5968
2026-01-06 09:01:54.92	123.44	34.10	-55.1	-59.2	12.3	0.00e+00	0	27	0	491782144	75	6066
2026-01-06 09:01:55.91	123.30	34.30	-55.0	-59.0	12.5	0.00e+00	0	27	0	493879296	75	5959
2026-01-06 09:01:56.90	123.17	34.51	-54.7	-58.4	12.8	0.00e+00	0	27	0	495976448	75	5566
2026-01-06 09:01:57.90	123.03	34.72	-54.9	-58.9	12.6	0.00e+00	0	27	0	497025024	75	5858
2026-01-06 09:01:58.90	122.89	34.93	-55.0	-59.0	12.5	0.00e+00	0	27	0	499122176	75	5986
2026-01-06 09:01:59.90	122.75	35.14	-54.5	-57.9	13.2	0.00e+00	0	27	0	501219328	75	5247
2026-01-06 09:02:00.89	122.60	35.35	-55.1	-59.3	12.3	0.00e+00	0	27	0	503316480	75	6187
2026-01-06 09:02:01.88	122.46	35.56	-55.3	-59.8	12.0	0.00e+00	0	27	0	505413632	75	6521
2026-01-06 09:02:02.88	122.31	35.78	-55.4	-59.8	12.0	0.00e+00	0	27	0	506462208	75	6519
2026-01-06 09:02:03.87	122.16	35.99	-55.5	-60.1	11.9	9.10e-06	0	27	0	508559360	76	6375
2026-01-06 09:02:04.86	122.01	36.21	-55.5	-60.1	11.9	7.60e-06	0	27	0	510656512	76	6354
2026-01-06 09:02:05.85	121.86	36.42	-55.3	-59.7	12.2	7.00e-07	0	27	0	512753664	76	6078
2026-01-06 09:02:06.84	121.70	36.64	-55.1	-59.2	12.5	0.00e+00	0	27	0	513802240	76	5751
2026-01-06 09:02:07.84	121.54	36.86	-54.1	-57.2	13.4	0.00e+00	0	27	0	515899392	74	5153
2026-01-06 09:02:08.82	121.38	37.08	-54.0	-57.3	13.4	0.00e+00	0	27	0	517996544	74	5163
2026-01-06 09:02:09.81	121.22	37.30	-53.9	-57.0	13.6	0.00e+00	0	27	0	520093696	74	5034
2026-01-06 09:02:10.82	121.06	37.53	-53.7	-56.7	13.6	0.00e+00	0	27	0	522190848	73	5112
2026-01-06 09:02:11.81	120.89	37.75	-53.3	-56.1	13.9	0.00e+00	0	27	0	523239424	73	4782
2026-01-06 09:02:12.79	120.72	37.97	-53.7	-56.8	13.6	0.00e+00	0	27	0	525336576	73	5161
2026-01-06 09:02:13.80	120.55	38.21	-53.8	-56.9	13.5	0.00e+00	0	27	0	527433728	73	5230
2026-01-06 09:02:14.79	120.37	38.43	-53.6	-56.6	13.7	0.00e+00	0	27	0	529530880	73	5049
2026-01-06 09:02:15.78	120.20	38.66	-53.2	-55.9	14.0	0.00e+00	0	27	0	530579456	73	4697
2026-01-06 09:02:16.77	120.02	38.89	-53.0	-55.6	14.1	0.00e+00	0	27	0	532676608	72	4781
2026-01-06 09:02:17.77	119.84	39.13	-52.9	-55.4	14.2	0.00e+00	0	27	0	534773760	72	4662
2026-01-06 09:02:18.76	119.65	39.36	-52.8	-55.3	14.2	0.00e+00	0	27	0	536870912	72	4638
2026-01-06 09:02:19.76	119.46	39.59	-53.0	-55.5	14.1	0.00e+00	0	27	0	537919488	72	4740
2026-01-06 09:02:20.75	119.28	39.83	-53.1	-55.7	14.0	0.00e+00	0	27	0	540016640	72	4851
2026-01-06 09:02:21.74	119.08	40.07	-53.0	-55.6	14.1	0.00e+00	0	27	0	542113792	72	4765
2026-01-06 09:02:22.74	118.89	40.30	-53.0	-55.5	14.1	0.00e+00	0	27	0	544210944	72	4745
2026-01-06 09:02:23.73	118.69	40.54	-53.0	-55.5	14.2	0.00e+00	0	27	0	546308096	72	4711
2026-01-06 09:02:24.72	118.49	40.78	-53.0	-55.6	14.1	0.00e+00	0	27	0	547356672	72	4761
2026-01-06 09:02:25.72	118.28	41.03	-53.2	-55.7	14.1	0.00e+00	0	27	0	549453824	72	4855
2026-01-06 09:02:26.71	118.07	41.27	-53.8	-56.5	13.7	0.00e+00	0	27	0	551550976	73	5031
2026-01-06 09:02:27.70	117.86	41.51	-53.8	-56.7	13.7	0.00e+00	0	27	0	553648128	73	5101
2026-01-06 09:02:28.70	117.65	41.76	-53.6	-56.2	13.9	0.00e+00	0	27	0	555745280	73	4829
2026-01-06 09:02:29.69	117.43	42.00	-53.4	-55.8	14.1	0.00e+00	0	27	0	556793856	73	4620
2026-01-06 09:02:30.68	117.21	42.25	-53.1	-55.3	14.2	0.00e+00	0	27	0	558891008	72	4650
2026-01-06 09:02:31.67	116.99	42.50	-53.2	-55.5	14.1	0.00e+00	0	27	0	560988160	72	4740
2026-01-06 09:02:32.66	116.76	42.75	-53.4	-55.8	14.0	0.00e+00	0	27	0	563085312	72	4877
2026-01-06 09:02:33.65	116.53	43.00	-53.6	-56.0	13.9	0.00e+00	0	27	0	564133888	72	5032
2026-01-06 09:02:34.64	116.30	43.25	-53.5	-56.0	13.9	0.00e+00	0	27	0	566231040	72	5008
2026-01-06 09:02:35.64	116.05	43.51	-53.5	-56.0	13.9	0.00e+00	0	27	0	568328192	72	4996
2026-01-06 09:02:36.64	115.81	43.76	-53.4	-55.9	13.9	0.00e+00	0	27	0	570425344	72	4983
2026-01-06 09:02:37.64	115.56	44.02	-53.2	-55.8	14.0	0.00e+00	0	27	0	572522496	72	4882
2026-01-06 09:02:38.64	115.31	44.28	-53.2	-55.8	14.0	0.00e+00	0	27	0	573571072	72	4886
2026-01-06 09:02:39.63	115.05	44.53	-53.0	-55.4	14.2	0.00e+00	0	27	0	575668224	72	4694
2026-01-06 09:02:40.62	114.80	44.79	-53.1	-55.7	14.0	0.00e+00	0	27	0	577765376	72	4862
2026-01-06 09:02:41.61	114.53	45.05	-52.8	-55.3	14.3	0.00e+00	0	27	0	579862528	72	4604
2026-01-06 09:02:42.61	114.26	45.31	-52.5	-54.8	14.4	0.00e+00	0	27	0	580911104	71	4629
2026-01-06 09:02:43.60	113.99	45.57	-52.3	-54.7	14.4	0.00e+00	0	27	0	583008256	71	4548
2026-01-06 09:02:44.59	113.72	45.84	-52.3	-54.6	14.4	0.00e+00	0	27	0	585105408	71	4530
2026-01-06 09:02:45.59	113.43	46.10	-52.6	-55.0	14.3	0.00e+00	0	27	0	587202560	71	4749
2026-01-06 09:02:46.58	113.15	46.36	-53.0	-55.5	14.0	0.00e+00	0	27	0	589299712	71	5039
2026-01-06 09:02:47.58	112.85	46.63	-53.2	-55.9	13.9	0.00e+00	0	27	0	590348288	72	4963
2026-01-06 09:02:48.58	112.55	46.90	-53.1	-55.6	14.1	0.00e+00	0	27	0	592445440	72	4804
2026-01-06 09:02:49.58	112.25	47.17	-52.7	-55.0	14.4	0.00e+00	0	27	0	594542592	72	4486
2026-01-06 09:02:50.57	111.94	47.44	-52.5	-54.8	14.3	0.00e+00	0	27	0	596639744	71	4645
2026-01-06 09:02:51.56	111.63	47.70	-52.4	-54.8	14.3	0.00e+00	0	27	0	597688320	71	4647
2026-01-06 09:02:52.55	111.32	47.97	-52.4	-54.9	14.3	0.00e+00	0	27	0	599785472	71	4678
2026-01-06 09:02:53.55	110.99	48.24	-52.3	-54.7	14.4	0.00e+00	0	27	0	601882624	71	4554
2026-01-06 09:02:54.54	110.66	48.51	-52.4	-54.8	14.1	0.00e+00	0	27	0	603979776	70	4900
2026-01-06 09:02:55.54	110.32	48.79	-52.5	-54.9	14.0	0.00e+00	0	27	0	606076928	70	4949
2026-01-06 09:02:56.53	109.98	49.06	-52.3	-54.8	14.1	0.00e+00	0	27	0	607125504	70	4884
2026-01-06 09:02:57.52	109.64	49.33	-52.2	-54.7	14.2	0.00e+00	0	27	0	609222656	70	4819
2026-01-06 09:02:58.51	109.29	49.60	-51.9	-54.2	14.4	0.00e+00	0	27	0	611319808	70	4574
2026-01-06 09:02:59.50	108.93	49.88	-52.0	-54.5	14.3	0.00e+00	0	27	0	613416960	70	4706
2026-01-06 09:03:00.50	108.56	50.15	-51.8	-54.2	14.4	0.00e+00	0	27	0	614465536	70	4550
2026-01-06 09:03:01.50	108.18	50.43	-52.4	-54.9	14.1	0.00e+00	0	27	0	616562688	70	4936
2026-01-06 09:03:02.50	107.80	50.70	-51.9	-54.1	14.4	0.00e+00	0	27	0	618659840	70	4532
2026-01-06 09:03:03.49	107.41	50.98	-51.9	-53.9	14.6	0.00e+00	0	27	0	620756992	70	4415
2026-01-06 09:03:04.48	107.02	51.25	-51.7	-53.6	14.6	0.00e+00	0	27	0	622854144	69	4541
2026-01-06 09:03:05.48	106.61	51.53	-51.3	-53.2	14.7	0.00e+00	0	27	0	623902720	69	4299
2026-01-06 09:03:06.46	106.21	51.80	-51.8	-53.8	14.2	0.00e+00	0	27	0	625999872	68	4913
2026-01-06 09:03:07.46	105.79	52.08	-52.0	-54.1	14.3	0.00e+00	0	27	0	628097024	69	4798
2026-01-06 09:03:08.46	105.36	52.35	-51.9	-54.0	14.3	0.00e+00	0	27	0	630194176	69	4729
2026-01-06 09:03:09.46	104.92	52.63	-51.5	-53.5	14.6	0.00e+00	0	27	0	631242752	69	4451
2026-01-06 09:03:10.45	104.48	52.90	-51.6	-53.6	14.6	0.00e+00	0	27	0	633339904	69	4500
2026-01-06 09:03:11.44	104.04	53.18	-51.4	-53.4	14.6	0.00e+00	0	27	0	635437056	69	4413
2026-01-06 09:03:12.44	103.57	53.45	-51.5	-53.6	14.5	0.00e+00	0	27	0	637534208	69	4496
2026-01-06 09:03:13.43	103.11	53.73	-51.9	-54.1	14.3	0.00e+00	0	27	0	639631360	69	4775
2026-01-06 09:03:14.43	102.63	54.00	-52.3	-54.8	14.0	0.00e+00	0	27	0	640679936	69	5203
2026-01-06 09:03:15.42	102.15	54.27	-52.7	-55.3	14.0	0.00e+00	0	27	0	642777088	70	5169
2026-01-06 09:03:16.41	101.65	54.55	-52.5	-55.1	14.2	0.00e+00	0	27	0	644874240	70	5075
2026-01-06 09:03:17.39	101.15	54.81	-52.4	-54.9	14.2	0.00e+00	0	27	0	646971392	70	4977
2026-01-06 09:03:18.39	100.64	55.08	-52.3	-54.8	14.2	0.00e+00	0	27	0	648019968	70	4879
2026-01-06 09:03:19.38	100.11	55.35	-52.3	-54.8	14.2	0.00e+00	0	27	0	650117120	70	4897
2026-01-06 09:03:20.38	99.58	55.62	-52.3	-54.7	14.3	0.00e+00	0	27	0	652214272	70	4841
2026-01-06 09:03:21.37	99.03	55.89	-52.3	-54.6	14.4	0.00e+00	0	27	0	654311424	70	4785
2026-01-06 09:03:22.37	98.48	56.16	-52.3	-54.6	14.3	0.00e+00	0	27	0	656408576	70	4812
2026-01-06 09:03:23.36	97.91	56.42	-52.0	-54.1	14.5	0.00e+00	0	27	0	657457152	70	4543
2026-01-06 09:03:24.35	97.34	56.68	-52.0	-54.0	14.6	0.00e+00	0	27	0	659554304	70	4471
2026-01-06 09:03:25.33	96.76	56.94	-51.7	-53.6	14.6	0.00e+00	0	27	0	661651456	69	4511
2026-01-06 09:03:26.32	96.16	57.20	-51.7	-53.6	14.6	0.00e+00	0	27	0	663748608	69	4520
2026-01-06 09:03:27.31	95.55	57.45	-52.1	-54.1	14.4	0.00e+00	0	27	0	664797184	69	4812
2026-01-06 09:03:28.30	94.93	57.71	-52.3	-54.4	14.4	0.00e+00	0	27	0	666894336	70	4686
2026-01-06 09:03:29.30	94.29	57.96	-52.6	-54.7	14.3	0.00e+00	0	27	0	668991488	70	4846
2026-01-06 09:03:30.29	93.65	58.21	-52.4	-54.3	14.4	0.00e+00	0	27	0	671088640	70	4651
2026-01-06 09:03:31.28	93.00	58.46	-52.0	-53.9	14.6	0.00e+00	0	27	0	672137216	70	4438
2026-01-06 09:03:32.27	92.33	58.71	-52.3	-54.3	14.5	0.00e+00	0	27	0	674234368	70	4606
2026-01-06 09:03:33.27	91.64	58.95	-53.0	-55.3	14.2	0.00e+00	0	27	0	676331520	71	4898
2026-01-06 09:03:34.27	90.94	59.19	-53.2	-55.8	14.0	0.00e+00	0	27	0	678428672	71	5163
2026-01-06 09:03:35.27	90.23	59.43	-53.3	-55.7	14.0	0.00e+00	0	28	0	680525824	72	4862
2026-01-06 09:03:36.26	89.51	59.67	-52.9	-55.2	14.3	0.00e+00	0	27	0	681574400	72	4561
2026-01-06 09:03:37.26	88.77	59.90	-52.5	-54.6	14.4	0.00e+00	0	27	0	683671552	71	4544
2026-01-06 09:03:38.25	88.02	60.13	-52.5	-54.7	14.5	0.00e+00	0	27	0	685768704	71	4582
2026-01-06 09:03:39.24	87.26	60.35	-52.4	-54.6	14.3	0.00e+00	0	27	0	687865856	70	4791
2026-01-06 09:03:40.24	86.48	60.57	-51.8	-53.9	14.6	0.00e+00	0	27	0	688914432	70	4435
2026-01-06 09:03:41.23	85.70	60.78	-51.3	-53.2	14.8	0.00e+00	0	27	0	691011584	69	4321
2026-01-06 09:03:42.23	84.89	61.00	-51.1	-53.0	14.8	0.00e+00	0	27	0	693108736	68	4454
2026-01-06 09:03:43.22	84.08	61.20	-51.1	-53.0	14.8	0.00e+00	0	27	0	695205888	68	4450
2026-01-06 09:03:44.21	83.25	61.41	-50.3	-52.1	15.0	0.00e+00	0	27	0	697303040	67	4253
2026-01-06 09:03:45.20	82.41	61.60	-50.0	-51.6	15.0	0.00e+00	0	27	0	698351616	66	4261
2026-01-06 09:03:46.19	81.56	61.80	-50.4	-52.2	14.7	0.00e+00	0	27	0	700448768	66	4570
2026-01-06 09:03:47.18	80.69	61.98	-50.9	-52.9	14.6	0.00e+00	0	27	0	702545920	67	4683
2026-01-06 09:03:48.18	79.80	62.17	-50.7	-52.7	14.7	0.00e+00	0	27	0	704643072	67	4572
2026-01-06 09:03:49.17	78.91	62.34	-50.6	-52.5	14.8	0.00e+00	0	27	0	705691648	67	4487
2026-01-06 09:03:50.17	78.00	62.52	-50.7	-52.6	14.8	0.00e+00	0	27	0	707788800	67	4509
2026-01-06 09:03:51.16	77.08	62.68	-50.8	-52.6	14.8	0.00e+00	0	27	0	709885952	67	4540
2026-01-06 09:03:52.16	76.14	62.84	-50.5	-52.3	14.9	0.00e+00	0	27	0	711983104	67	4366
2026-01-06 09:03:53.15	75.20	63.00	-50.4	-52.2	14.9	0.00e+00	0	27	0	714080256	67	4297
2026-01-06 09:03:54.14	74.24	63.14	-50.4	-52.2	14.9	0.00e+00	0	27	0	715128832	67	4309
2026-01-06 09:03:55.12	73.28	63.28	-50.0	-51.7	15.0	0.00e+00	0	27	0	717225984	66	4330
2026-01-06 09:03:56.11	72.31	63.42	-49.6	-51.2	15.1	0.00e+00	0	27	0	719323136	65	4317
2026-01-06 09:03:57.10	71.32	63.54	-49.8	-51.4	14.9	0.00e+00	0	27	0	721420288	65	4421
2026-01-06 09:03:58.10	70.31	63.67	-50.5	-52.3	14.8	0.00e+00	0	27	0	722468864	66	4636
2026-01-06 09:03:59.09	69.30	63.78	-51.2	-53.2	14.6	0.00e+00	0	27	0	724566016	67	4851
2026-01-06 09:04:00.09	68.27	63.89	-51.5	-53.6	14.5	0.00e+00	0	28	0	726663168	68	4778
2026-01-06 09:04:01.09	67.23	63.99	-52.0	-54.2	14.5	0.00e+00	0	27	0	728760320	69	4846
2026-01-06 09:04:02.09	66.18	64.08	-52.0	-54.2	14.4	0.00e+00	0	27	0	730857472	69	4846
2026-01-06 09:04:03.08	65.14	64.16	-50.8	-52.8	14.8	0.00e+00	0	27	0	731906048	68	4347
2026-01-06 09:04:04.07	64.09	64.24	-50.3	-52.1	15.0	0.00e+00	0	27	0	734003200	67	4272
2026-01-06 09:04:05.05	63.04	64.30	-49.9	-51.6	15.0	0.00e+00	0	27	0	736100352	66	4277
2026-01-06 09:04:06.05	61.97	64.36	-49.6	-51.2	15.0	0.00e+00	0	27	0	738197504	65	4315
2026-01-06 09:04:07.04	60.90	64.42	-49.0	-50.5	15.1	0.00e+00	0	28	0	739246080	64	4203
2026-01-06 09:04:08.04	59.81	64.46	-49.4	-50.9	15.0	0.00e+00	0	27	0	741343232	64	4410
2026-01-06 09:04:09.03	58.73	64.50	-49.4	-50.9	15.0	0.00e+00	0	28	0	743440384	64	4432
2026-01-06 09:04:10.01	57.66	64.53	-49.1	-50.7	15.1	0.00e+00	0	27	0	745537536	64	4302
2026-01-06 09:04:11.00	56.58	64.55	-49.4	-51.0	15.0	0.00e+00	0	28	0	746586112	64	4472
2026-01-06 09:04:12.00	55.48	64.56	-50.1	-51.8	14.8	0.00e+00	0	27	0	748683264	65	4613
2026-01-06 09:04:12.99	54.40	64.56	-50.2	-51.9	14.8	0.00e+00	0	28	0	750780416	65	4685
2026-01-06 09:04:13.98	53.31	64.56	-50.2	-51.9	14.8	0.00e+00	0	28	0	752877568	65	4690
2026-01-06 09:04:14.97	52.23	64.54	-50.9	-52.8	14.8	0.00e+00	0	28	0	754974720	67	4608
2026-01-06 09:04:15.96	51.15	64.52	-50.7	-52.6	14.8	0.00e+00	0	27	0	756023296	67	4498
2026-01-06 09:04:16.95	50.07	64.49	-50.2	-51.9	15.0	0.00e+00	0	28	0	758120448	67	4182
2026-01-06 09:04:17.95	48.98	64.45	-49.5	-51.0	15.1	0.00e+00	0	28	0	760217600	65	4208
2026-01-06 09:04:18.94	47.91	64.41	-49.0	-50.5	15.1	0.00e+00	0	28	0	762314752	64	4203
2026-01-06 09:04:19.93	46.84	64.36	-49.1	-50.6	15.1	0.00e+00	0	27	0	763363328	64	4251
2026-01-06 09:04:20.93	45.76	64.29	-49.8	-51.3	14.9	0.00e+00	0	28	0	765460480	64	4632
2026-01-06 09:04:21.92	44.71	64.22	-50.3	-51.9	14.8	0.00e+00	0	28	0	767557632	65	4703
2026-01-06 09:04:22.91	43.66	64.15	-50.6	-52.4	14.8	0.00e+00	0	27	0	769654784	66	4655
2026-01-06 09:04:23.90	42.61	64.06	-50.8	-52.6	14.7	0.00e+00	0	28	0	770703360	66	4788
2026-01-06 09:04:24.90	41.57	63.97	-50.9	-52.7	14.8	0.00e+00	0	28	0	772800512	67	4559
2026-01-06 09:04:25.89	40.54	63.87	-50.6	-52.3	14.9	0.00e+00	0	28	0	774897664	67	4345
2026-01-06 09:04:26.87	39.54	63.76	-50.4	-52.0	15.0	0.00e+00	0	27	0	776994816	67	4239
2026-01-06 09:04:27.85	38.54	63.65	-50.2	-51.9	15.1	0.00e+00	0	28	0	779091968	67	4151
2026-01-06 09:04:28.84	37.54	63.53	-49.7	-51.3	15.1	0.00e+00	0	28	0	780140544	66	4128
2026-01-06 09:04:29.84	36.54	63.40	-50.0	-51.7	14.9	0.00e+00	0	27	0	782237696	65	4546
2026-01-06 09:04:30.83	35.57	63.26	-50.0	-51.7	14.8	0.00e+00	0	28	0	784334848	65	4589
2026-01-06 09:04:31.83	34.60	63.12	-49.9	-51.5	14.9	0.00e+00	0	28	0	786432000	65	4450
2026-01-06 09:04:32.82	33.64	62.97	-49.9	-51.5	14.9	0.00e+00	0	27	0	787480576	65	4460
2026-01-06 09:04:33.82	32.69	62.82	-50.2	-51.9	14.8	0.00e+00	0	27	0	789577728	65	4652
2026-01-06 09:04:34.81	31.77	62.66	-49.4	-50.9	15.1	0.00e+00	0	28	0	791674880	65	4154
2026-01-06 09:04:35.80	30.85	62.49	-49.1	-50.4	15.1	0.00e+00	0	28	0	793772032	64	4192
2026-01-06 09:04:36.80	29.94	62.32	-50.4	-52.0	14.7	0.00e+00	0	28	0	795869184	65	4747
2026-01-06 09:04:37.79	29.05	62.14	-51.2	-53.1	14.6	0.00e+00	0	28	0	796917760	67	4786
2026-01-06 09:04:38.79	28.16	61.96	-51.0	-52.8	14.8	0.00e+00	0	28	0	799014912	68	4378
2026-01-06 09:04:39.77	27.31	61.77	-50.5	-52.2	14.9	0.00e+00	0	28	0	801112064	67	4333
2026-01-06 09:04:40.76	26.46	61.58	-51.4	-53.4	14.5	0.00e+00	0	28	0	803209216	67	4934
2026-01-06 09:04:41.75	25.62	61.38	-53.0	-55.5	14.1	0.00e+00	0	28	0	804257792	71	5030
2026-01-06 09:04:42.75	24.79	61.17	-53.7	-56.6	13.7	0.00e+00	0	28	0	806354944	72	5376
2026-01-06 09:04:43.74	23.98	60.97	-53.5	-56.2	13.9	0.00e+00	0	28	0	808452096	72	5126
2026-01-06 09:04:44.74	23.18	60.75	-53.9	-56.7	13.7	0.00e+00	0	27	0	810549248	73	5144
2026-01-06 09:04:45.74	22.39	60.54	-53.1	-55.4	14.3	0.00e+00	0	28	0	812646400	72	4678
2026-01-06 09:04:46.73	21.62	60.32	-52.4	-54.4	14.6	0.00e+00	0	28	0	813694976	71	4425
2026-01-06 09:04:47.72	20.86	60.09	-53.3	-55.6	14.1	0.00e+00	0	28	0	815792128	71	5082
2026-01-06 09:04:48.71	20.12	59.87	-54.5	-57.2	13.6	0.00e+00	0	28	0	817889280	74	5156
2026-01-06 09:04:49.71	19.38	59.63	-54.9	-57.8	13.4	0.00e+00	0	28	0	819986432	74	5467
2026-01-06 09:04:50.71	18.66	59.40	-54.9	-57.7	13.5	0.00e+00	0	28	0	822083584	75	5104
2026-01-06 09:04:51.71	17.95	59.16	-55.1	-58.0	13.3	0.00e+00	0	28	0	823132160	75	5296
2026-01-06 09:04:52.70	17.26	58.92	-55.0	-57.9	13.4	0.00e+00	0	28	0	825229312	75	5230
2026-01-06 09:04:53.69	16.58	58.68	-54.2	-56.5	14.1	0.00e+00	0	28	0	827326464	75	4474
2026-01-06 09:04:54.69	15.91	58.43	-53.4	-55.4	14.3	0.00e+00	0	28	0	829423616	73	4434
2026-01-06 09:04:55.68	15.25	58.18	-53.3	-55.3	14.3	0.00e+00	0	28	0	830472192	72	4640
2026-01-06 09:04:56.68	14.61	57.93	-53.7	-55.9	14.1	0.00e+00	0	28	0	832569344	73	4699
2026-01-06 09:04:57.67	13.98	57.68	-54.3	-56.9	13.7	0.00e+00	0	28	0	834666496	73	5246
2026-01-06 09:04:58.66	13.36	57.42	-54.3	-57.0	13.6	0.00e+00	0	28	0	836763648	73	5304
2026-01-06 09:04:59.66	12.75	57.16	-54.0	-56.6	13.8	0.00e+00	0	28	0	838860800	73	5093
2026-01-06 09:05:00.65	12.15	56.91	-54.3	-57.2	13.6	0.00e+00	0	28	0	839909376	73	5425
2026-01-06 09:05:01.66	11.56	56.64	-55.0	-58.5	13.0	0.00e+00	0	28	0	842006528	75	5646
2026-01-06 09:05:02.65	10.99	56.38	-54.7	-58.0	13.3	0.00e+00	0	28	0	844103680	75	5317
2026-01-06 09:05:03.65	10.42	56.11	-54.2	-57.2	13.6	0.00e+00	0	28	0	846200832	74	5127
2026-01-06 09:05:04.64	9.87	55.85	-54.3	-57.3	13.6	0.00e+00	0	28	0	847249408	74	5175
2026-01-06 09:05:05.63	9.33	55.58	-53.5	-56.0	14.0	0.00e+00	0	28	0	849346560	73	4749
2026-01-06 09:05:06.62	8.80	55.32	-53.0	-55.3	14.3	0.00e+00	0	28	0	851443712	72	4632
2026-01-06 09:05:07.62	8.28	55.04	-53.8	-56.7	13.7	0.00e+00	0	28	0	853540864	72	5443
2026-01-06 09:05:08.61	7.77	54.78	-54.3	-57.5	13.3	0.00e+00	0	28	0	855638016	73	5647
2026-01-06 09:05:09.60	7.27	54.51	-53.5	-56.2	14.0	0.00e+00	0	28	0	856686592	73	4852
2026-01-06 09:05:10.60	6.77	54.23	-52.8	-55.1	14.4	0.00e+00	0	28	0	858783744	72	4545
2026-01-06 09:05:11.59	6.29	53.96	-52.8	-55.0	14.4	0.00e+00	0	28	0	860880896	72	4471
2026-01-06 09:05:12.59	5.81	53.69	-52.7	-54.9	14.4	0.00e+00	0	28	0	862978048	71	4654
2026-01-06 09:05:13.58	5.35	53.41	-52.8	-55.1	14.3	0.00e+00	0	28	0	864026624	71	4767
2026-01-06 09:05:14.57	4.89	53.14	-53.4	-56.0	13.9	0.00e+00	0	28	0	866123776	71	5324
2026-01-06 09:05:15.55	4.45	52.87	-52.8	-55.1	14.4	0.00e+00	0	28	0	868220928	72	4538
2026-01-06 09:05:16.53	4.02	52.60	-53.2	-55.7	14.2	0.00e+00	0	28	0	870318080	72	4834
2026-01-06 09:05:17.53	3.58	52.32	-53.1	-55.4	14.3	0.00e+00	0	28	0	871366656	72	4701
2026-01-06 09:05:18.52	3.16	52.05	-53.4	-55.9	14.1	0.00e+00	0	28	0	873463808	72	4946
2026-01-06 09:05:19.52	2.74	51.77	-53.5	-55.9	14.1	0.00e+00	0	28	0	875560960	72	4940
2026-01-06 09:05:20.51	2.34	51.50	-52.9	-55.0	14.4	0.00e+00	0	28	0	877658112	72	4457
2026-01-06 09:05:21.51	1.93	51.22	-52.3	-54.2	14.7	0.00e+00	0	28	0	879755264	71	4300
2026-01-06 09:05:22.52	1.54	50.95	-52.1	-54.0	14.6	0.00e+00	0	28	0	880803840	70	4490
2026-01-06 09:05:23.51	1.15	50.67	-52.4	-54.4	14.5	0.00e+00	0	28	0	882900992	70	4668
2026-01-06 09:05:24.51	0.77	50.40	-52.6	-54.6	14.3	0.00e+00	0	28	0	884998144	70	4812
2026-01-06 09:05:25.50	0.40	50.12	-52.7	-54.7	14.3	0.00e+00	0	28	0	887095296	70	4860
2026-01-06 09:05:26.50	0.03	49.85	-53.4	-55.7	14.0	0.00e+00	0	28	0	888143872	71	5139
2026-01-06 09:05:27.48	359.68	49.58	-53.3	-55.8	14.1	0.00e+00	0	28	0	890241024	72	4883
2026-01-06 09:05:28.48	359.32	49.31	-54.0	-56.6	13.7	0.00e+00	0	28	0	892338176	73	5069
2026-01-06 09:05:29.48	358.98	49.03	-54.4	-57.3	13.5	0.00e+00	0	28	0	894435328	73	5486
2026-01-06 09:05:30.47	358.64	48.76	-55.2	-58.5	13.0	0.00e+00	0	28	0	896532480	75	5644
2026-01-06 09:05:31.45	358.31	48.50	-53.9	-56.4	13.9	0.00e+00	0	28	0	897581056	74	4671
2026-01-06 09:05:32.46	357.97	48.22	-52.4	-54.3	14.5	0.00e+00	0	28	0	899678208	71	4379
2026-01-06 09:05:33.45	357.65	47.95	-52.3	-54.1	14.5	0.00e+00	0	28	0	901775360	70	4523
2026-01-06 09:05:34.44	357.34	47.68	-52.8	-54.9	14.2	0.00e+00	0	28	0	903872512	70	4927
2026-01-06 09:05:35.43	357.03	47.42	-52.7	-54.8	14.3	0.00e+00	0	28	0	904921088	71	4616
2026-01-06 09:05:36.42	356.72	47.15	-52.2	-54.0	14.6	0.00e+00	0	28	0	907018240	70	4479
2026-01-06 09:05:37.41	356.42	46.89	-51.5	-53.3	14.7	0.00e+00	0	28	0	909115392	69	4350
2026-01-06 09:05:38.40	356.13	46.62	-52.1	-54.1	14.4	0.00e+00	0	28	0	911212544	69	4787
2026-01-06 09:05:39.39	355.84	46.36	-53.2	-55.6	14.0	0.00e+00	0	28	0	912261120	71	5095
2026-01-06 09:05:40.39	355.55	46.09	-53.9	-56.6	13.8	0.00e+00	0	28	0	914358272	73	5069
2026-01-06 09:05:41.38	355.27	45.83	-54.5	-57.5	13.4	0.00e+00	0	28	0	916455424	74	5339
2026-01-06 09:05:42.37	355.00	45.57	-54.5	-57.5	13.4	0.00e+00	0	28	0	918552576	75	5023
2026-01-06 09:05:43.36	354.73	45.31	-53.8	-56.3	13.8	0.00e+00	0	28	0	920649728	74	4650
2026-01-06 09:05:44.36	354.46	45.05	-53.4	-55.8	14.0	0.00e+00	0	28	0	921698304	73	4612
2026-01-06 09:05:45.35	354.20	44.79	-53.3	-55.6	14.0	0.00e+00	0	28	0	923795456	72	4811
2026-01-06 09:05:46.35	353.94	44.53	-53.8	-56.4	13.8	0.00e+00	0	28	0	925892608	73	4967
2026-01-06 09:05:47.33	353.69	44.28	-54.0	-56.6	13.7	0.00e+00	0	28	0	927989760	73	5069
2026-01-06 09:05:48.33	353.44	44.02	-53.6	-56.1	13.9	0.00e+00	0	28	0	929038336	73	4770
2026-01-06 09:05:49.32	353.19	43.76	-53.3	-55.6	14.1	0.00e+00	0	28	0	931135488	73	4541
2026-01-06 09:05:50.31	352.95	43.51	-52.9	-55.0	14.3	0.00e+00	0	28	0	933232640	72	4486
2026-01-06 09:05:51.30	352.71	43.26	-52.6	-54.7	14.3	0.00e+00	0	28	0	935329792	71	4589
2026-01-06 09:05:52.29	352.48	43.01	-52.4	-54.4	14.5	0.00e+00	0	28	0	937426944	71	4416
2026-01-06 09:05:53.29	352.25	42.76	-52.4	-54.4	14.5	0.00e+00	0	28	0	938475520	71	4439
2026-01-06 09:05:54.28	352.02	42.51	-52.9	-55.0	14.2	0.00e+00	0	28	0	940572672	71	4758
2026-01-06 09:05:55.27	351.80	42.26	-54.0	-56.7	13.6	0.00e+00	0	28	0	942669824	73	5143
2026-01-06 09:05:56.26	351.58	42.02	-55.0	-58.4	12.9	0.00e+00	0	28	0	944766976	75	5573
2026-01-06 09:05:57.26	351.36	41.77	-55.8	-59.7	12.3	0.00e+00	0	28	0	945815552	76	6106
2026-01-06 09:05:58.25	351.15	41.53	-55.9	-60.0	12.1	1.50e-06	0	28	0	947912704	77	5976
2026-01-06 09:05:59.24	350.94	41.28	-56.1	-60.3	11.9	1.50e-06	0	28	0	950009856	77	6200
2026-01-06 09:06:00.23	350.73	41.04	-55.8	-59.7	12.2	1.50e-06	0	28	0	952107008	77	5732
2026-01-06 09:06:01.23	350.53	40.80	-55.4	-58.9	12.8	0.00e+00	0	28	0	954204160	77	5274
2026-01-06 09:06:02.22	350.33	40.56	-54.9	-58.0	13.4	0.00e+00	0	28	0	955252736	76	4999
2026-01-06 09:06:03.21	350.13	40.32	-54.3	-57.0	13.7	0.00e+00	0	28	0	957349888	75	4754
2026-01-06 09:06:04.21	349.93	40.08	-54.0	-56.5	13.9	0.00e+00	0	28	0	959447040	74	4741
2026-01-06 09:06:05.20	349.74	39.85	-53.6	-56.1	13.9	0.00e+00	0	28	0	961544192	73	4766
2026-01-06 09:06:06.19	349.55	39.61	-53.3	-55.5	14.3	0.00e+00	0	28	0	962592768	73	4455
2026-01-06 09:06:07.19	349.36	39.38	-53.3	-55.5	14.2	0.00e+00	0	28	0	964689920	72	4724
2026-01-06 09:06:08.18	349.18	39.15	-53.9	-56.3	13.9	0.00e+00	0	28	0	966787072	73	4924
2026-01-06 09:06:09.16	349.00	38.92	-53.7	-56.1	14.0	0.00e+00	0	28	0	968884224	73	4795
2026-01-06 09:06:10.15	348.82	38.69	-54.2	-56.8	13.6	0.00e+00	0	28	0	969932800	73	5165
2026-01-06 09:06:11.15	348.65	38.46	-54.7	-57.6	13.4	0.00e+00	0	28	0	972029952	74	5361
2026-01-06 09:06:12.15	348.47	38.23	-55.5	-58.9	12.8	0.00e+00	0	28	0	974127104	76	5571
2026-01-06 09:06:13.14	348.30	38.00	-55.3	-58.6	13.0	0.00e+00	0	28	0	976224256	76	5346
2026-01-06 09:06:14.13	348.13	37.78	-55.2	-58.3	13.1	0.00e+00	0	28	0	978321408	76	5197
2026-01-06 09:06:15.13	347.97	37.55	-55.2	-58.2	13.2	0.00e+00	0	28	0	979369984	76	5103
2026-01-06 09:06:16.12	347.80	37.33	-55.3	-58.4	13.1	0.00e+00	0	28	0	981467136	76	5228
2026-01-06 09:06:17.11	347.64	37.11	-55.2	-58.2	13.2	0.00e+00	0	28	0	983564288	76	5138
2026-01-06 09:06:18.11	347.48	36.89	-55.6	-58.9	12.9	0.00e+00	0	28	0	985661440	76	5532
2026-01-06 09:06:19.10	347.33	36.67	-55.7	-59.0	12.8	0.00e+00	0	28	0	986710016	77	5304
2026-01-06 09:06:20.10	347.17	36.45	-55.2	-58.1	13.3	0.00e+00	0	28	0	988807168	76	5051
2026-01-06 09:06:21.10	347.02	36.24	-54.6	-57.3	13.6	0.00e+00	0	28	0	990904320	75	4872
2026-01-06 09:06:22.09	346.87	36.02	-54.4	-56.9	13.8	0.00e+00	0	28	0	993001472	75	4688
2026-01-06 09:06:23.08	346.72	35.81	-54.2	-56.6	13.8	0.00e+00	0	28	0	995098624	74	4788
2026-01-06 09:06:24.07	346.57	35.59	-53.8	-56.2	14.0	0.00e+00	0	28	0	996147200	73	4817
2026-01-06 09:06:25.07	346.42	35.38	-53.6	-55.9	14.0	0.00e+00	0	28	0	998244352	73	4695
2026-01-06 09:06:26.07	346.28	35.17	-53.2	-55.3	14.3	0.00e+00	0	28	0	1000341504	72	4614
2026-01-06 09:06:27.05	346.14	34.96	-53.0	-55.1	14.3	0.00e+00	0	28	0	1002438656	72	4527
2026-01-06 09:06:28.04	346.00	34.76	-52.9	-54.9	14.3	0.00e+00	0	28	0	1003487232	71	4680
2026-01-06 09:06:29.04	345.86	34.55	-53.5	-55.9	14.0	0.00e+00	0	28	0	1005584384	72	4931
2026-01-06 09:06:30.03	345.73	34.34	-54.3	-57.0	13.5	0.00e+00	0	28	0	1007681536	73	5315
2026-01-06 09:06:31.02	345.60	34.14	-55.2	-58.4	13.0	0.00e+00	0	28	0	1009778688	75	5532
2026-01-06 09:06:32.00	345.46	33.94	-56.2	-60.2	12.0	0.00e+00	0	28	0	1011875840	77	6114
2026-01-06 09:06:33.00	345.33	33.73	-56.1	-59.9	12.2	0.00e+00	0	28	0	1012924416	77	5879
2026-01-06 09:06:33.99	345.20	33.53	-55.5	-58.6	13.0	0.00e+00	0	28	0	1015021568	77	5072
2026-01-06 09:06:34.98	345.08	33.33	-54.8	-57.5	13.5	0.00e+00	0	28	0	1017118720	76	4755
2026-01-06 09:06:35.96	344.95	33.14	-54.9	-57.6	13.4	0.00e+00	0	28	0	1019215872	76	4805
2026-01-06 09:06:36.95	344.83	32.94	-54.7	-57.5	13.4	0.00e+00	0	28	0	1020264448	75	4996
2026-01-06 09:06:37.95	344.71	32.74	-54.9	-57.7	13.3	0.00e+00	0	28	0	1022361600	75	5140
2026-01-06 09:06:38.94	344.59	32.55	-54.5	-57.2	13.6	0.00e+00	0	28	0	1024458752	75	4827
2026-01-06 09:06:39.94	344.46	32.35	-54.6	-57.4	13.5	0.00e+00	0	28	0	1026555904	75	4950
2026-01-06 09:06:40.93	344.35	32.16	-54.1	-56.5	13.8	0.00e+00	0	28	0	1028653056	74	4723
2026-01-06 09:06:41.92	344.23	31.97	-53.8	-56.1	14.1	0.00e+00	0	28	0	1029701632	74	4513
2026-01-06 09:06:42.92	344.11	31.78	-53.9	-56.3	13.9	0.00e+00	0	28	0	1031798784	74	4626
2026-01-06 09:06:43.92	344.00	31.58	-54.1	-56.6	13.8	0.00e+00	0	28	0	1033895936	74	4763
2026-01-06 09:06:44.91	343.89	31.40	-54.2	-56.6	13.8	0.00e+00	0	28	0	1035993088	74	4810
2026-01-06 09:06:45.90	343.78	31.21	-54.2	-56.6	13.8	0.00e+00	0	28	0	1037041664	74	4798
2026-01-06 09:06:46.88	343.67	31.02	-53.9	-56.1	14.0	0.00e+00	0	28	0	1039138816	74	4532
2026-01-06 09:06:47.88	343.56	30.84	-53.5	-55.7	14.2	0.00e+00	0	28	0	1041235968	73	4561
2026-01-06 09:06:48.87	343.45	30.65	-53.4	-55.5	14.2	0.00e+00	0	28	0	1043333120	73	4471
2026-01-06 09:06:49.87	343.35	30.47	-53.7	-55.8	14.1	0.00e+00	0	28	0	1045430272	73	4629
2026-01-06 09:06:50.87	343.24	30.29	-53.8	-55.9	14.0	0.00e+00	0	28	0	1046478848	73	4702
2026-01-06 09:06:51.86	343.14	30.10	-54.7	-57.3	13.5	0.00e+00	0	28	0	1048576000	74	5179
2026-01-06 09:06:52.86	343.03	29.92	-55.1	-58.0	13.2	0.00e+00	0	28	0	1050673152	75	5291
2026-01-06 09:06:53.85	342.93	29.74	-55.5	-58.6	12.9	0.00e+00	0	28	0	1052770304	76	5392
2026-01-06 09:06:54.84	342.83	29.57	-55.9	-59.2	12.7	0.00e+00	0	28	0	1053818880	77	5436
2026-01-06 09:06:55.84	342.73	29.39	-55.8	-59.1	12.8	0.00e+00	0	28	0	1055916032	77	5349
2026-01-06 09:06:56.83	342.64	29.21	-55.4	-58.4	13.1	0.00e+00	0	28	0	1058013184	77	4964
2026-01-06 09:06:57.81	342.54	29.04	-55.3	-58.2	13.2	0.00e+00	0	28	0	1060110336	77	4842
2026-01-06 09:06:58.80	342.44	28.87	-55.1	-57.9	13.3	0.00e+00	0	28	0	1061158912	76	4937
2026-01-06 09:06:59.79	342.35	28.69	-55.1	-57.9	13.3	0.00e+00	0	28	0	1063256064	76	4972
2026-01-06 09:07:00.78	342.26	28.52	-55.2	-58.1	13.2	0.00e+00	0	28	0	1065353216	76	5079
2026-01-06 09:07:01.77	342.17	28.35	-55.3	-58.3	13.1	0.00e+00	0	28	0	1067450368	76	5177
2026-01-06 09:07:02.76	342.07	28.18	-55.2	-58.2	13.2	0.00e+00	0	28	0	1069547520	76	5111
2026-01-06 09:07:03.76	341.98	28.01	-55.5	-58.6	12.9	0.00e+00	0	28	0	1070596096	76	5402
2026-01-06 09:07:04.76	341.89	27.84	-55.3	-58.3	13.1	0.00e+00	0	28	0	1072693248	76	5189
2026-01-06 09:07:05.75	341.80	27.67	-55.1	-58.0	13.3	0.00e+00	0	28	0	1074790400	76	5021
2026-01-06 09:07:06.74	341.72	27.51	-54.9	-57.7	13.5	0.00e+00	0	28	0	1076887552	76	4837
2026-01-06 09:07:07.73	341.63	27.34	-54.6	-57.3	13.6	0.00e+00	0	28	0	1077936128	75	4871
2026-01-06 09:07:08.72	341.55	27.18	-54.5	-57.1	13.7	0.00e+00	0	28	0	1080033280	75	4766
2026-01-06 09:07:09.72	341.46	27.01	-54.2	-56.6	13.8	0.00e+00	0	28	0	1082130432	74	4812
2026-01-06 09:07:10.72	341.38	26.85	-54.2	-56.7	13.8	0.00e+00	0	28	0	1084227584	74	4829
2026-01-06 09:07:11.71	341.29	26.69	-54.1	-56.6	13.8	0.00e+00	0	28	0	1086324736	74	4765
2026-01-06 09:07:12.72	341.21	26.52	-54.1	-56.5	13.8	0.00e+00	0	28	0	1087373312	74	4739
2026-01-06 09:07:13.72	341.13	26.36	-54.1	-56.6	13.8	0.00e+00	0	28	0	1089470464	74	4776
2026-01-06 09:07:14.71	341.05	26.20	-54.2	-56.8	13.7	0.00e+00	0	28	0	1091567616	74	4885
2026-01-06 09:07:15.70	340.97	26.04	-54.2	-56.7	13.7	0.00e+00	0	28	0	1093664768	74	4844
2026-01-06 09:07:16.70	340.89	25.89	-54.3	-56.9	13.6	0.00e+00	0	28	0	1094713344	74	4971
2026-01-06 09:07:17.69	340.81	25.73	-54.5	-57.3	13.5	0.00e+00	0	28	0	1096810496	74	5161
2026-01-06 09:07:18.68	340.73	25.57	-54.7	-57.6	13.3	0.00e+00	0	28	0	1098907648	74	5381
2026-01-06 09:07:19.67	340.66	25.42	-54.7	-57.5	13.4	0.00e+00	0	28	0	1101004800	75	5022
2026-01-06 09:07:20.67	340.58	25.26	-54.9	-57.8	13.2	0.00e+00	0	28	0	1103101952	75	5163
2026-01-06 09:07:21.66	340.51	25.11	-54.9	-57.7	13.2	0.00e+00	0	28	0	1104150528	75	5144
2026-01-06 09:07:22.65	340.43	24.96	-54.6	-57.3	13.4	0.00e+00	0	28	0	1106247680	75	4879
2026-01-06 09:07:23.64	340.36	24.81	-54.1	-56.6	13.8	0.00e+00	0	28	0	1108344832	74	4767
2026-01-06 09:07:24.63	340.29	24.66	-53.8	-56.2	14.0	0.00e+00	0	28	0	1110441984	74	4547
2026-01-06 09:07:25.63	340.22	24.51	-53.4	-55.6	14.1	0.00e+00	0	28	0	1111490560	73	4508
2026-01-06 09:07:26.61	340.15	24.36	-53.3	-55.5	14.2	0.00e+00	0	28	0	1113587712	73	4450
2026-01-06 09:07:27.60	340.08	24.21	-53.1	-55.2	14.2	0.00e+00	0	28	0	1115684864	72	4572
2026-01-06 09:07:28.60	340.01	24.06	-53.0	-55.1	14.3	0.00e+00	0	28	0	1117782016	72	4500
2026-01-06 09:07:29.59	339.94	23.92	-53.3	-55.4	14.2	0.00e+00	0	28	0	1119879168	72	4687
2026-01-06 09:07:30.58	339.87	23.77	-53.4	-55.6	14.1	0.00e+00	0	28	0	1120927744	72	4772
2026-01-06 09:07:31.57	339.80	23.63	-53.5	-55.7	14.0	0.00e+00	0	28	0	1123024896	72	4825
2026-01-06 09:07:32.56	339.74	23.48	-53.8	-56.1	13.8	0.00e+00	0	28	0	1125122048	72	5064
2026-01-06 09:07:33.56	339.67	23.34	-54.2	-56.7	13.6	0.00e+00	0	28	0	1127219200	73	5124
2026-01-06 09:07:34.55	339.60	23.19	-54.3	-56.8	13.5	0.00e+00	0	28	0	1128267776	73	5202
2026-01-06 09:07:35.54	339.54	23.05	-54.5	-57.2	13.5	0.00e+00	0	28	0	1130364928	74	5148
2026-01-06 09:07:36.54	339.47	22.91	-54.2	-56.8	13.6	0.00e+00	0	28	0	1132462080	74	4886
2026-01-06 09:07:37.53	339.41	22.77	-54.3	-56.8	13.7	0.00e+00	0	28	0	1134559232	74	4903
2026-01-06 09:07:38.52	339.35	22.63	-54.0	-56.4	13.9	0.00e+00	0	28	0	1136656384	74	4677
2026-01-06 09:07:39.51	339.28	22.49	-53.9	-56.3	13.9	0.00e+00	0	28	0	1137704960	74	4636
2026-01-06 09:07:40.50	339.22	22.35	-53.7	-56.0	14.0	0.00e+00	0	28	0	1139802112	73	4759
2026-01-06 09:07:41.50	339.16	22.21	-53.5	-55.8	14.0	0.00e+00	0	28	0	1141899264	73	4610
2026-01-06 09:07:42.50	339.10	22.08	-53.5	-55.8	14.0	0.00e+00	0	28	0	1143996416	73	4632
2026-01-06 09:07:43.50	339.04	21.94	-53.6	-55.9	13.9	0.00e+00	0	28	0	1145044992	73	4698
2026-01-06 09:07:44.49	338.98	21.80	-53.6	-56.0	13.9	0.00e+00	0	28	0	1147142144	73	4724
2026-01-06 09:07:45.48	338.92	21.67	-53.7	-56.1	13.9	0.00e+00	0	28	0	1149239296	73	4783
2026-01-06 09:07:46.48	338.86	21.53	-53.7	-56.1	13.9	0.00e+00	0	28	0	1151336448	73	4785
2026-01-06 09:07:47.47	338.80	21.40	-53.8	-56.3	13.8	0.00e+00	0	28	0	1153433600	73	4879
2026-01-06 09:07:48.46	338.75	21.27	-54.1	-56.8	13.5	0.00e+00	0	28	0	1154482176	73	5168
2026-01-06 09:07:49.46	338.69	21.13	-53.9	-56.4	13.7	0.00e+00	0	28	0	1156579328	73	4975
2026-01-06 09:07:50.45	338.63	21.00	-54.3	-56.9	13.5	0.00e+00	0	28	0	1158676480	73	5268
2026-01-06 09:07:51.44	338.58	20.87	-54.3	-57.0	13.4	0.00e+00	0	28	0	1160773632	73	5320
2026-01-06 09:07:52.43	338.52	20.74	-54.0	-56.6	13.6	0.00e+00	0	28	0	1161822208	73	5061
2026-01-06 09:07:53.43	338.47	20.61	-53.9	-56.4	13.7	0.00e+00	0	28	0	1163919360	73	4960
2026-01-06 09:07:54.42	338.41	20.48	-53.9	-56.4	13.8	0.00e+00	0	28	0	1166016512	73	4927
2026-01-06 09:07:55.40	338.36	20.36	-53.8	-56.2	13.8	0.00e+00	0	28	0	1168113664	73	4868
2026-01-06 09:07:56.39	338.30	20.23	-53.7	-56.1	13.8	0.00e+00	0	28	0	1169162240	73	4796
2026-01-06 09:07:57.38	338.25	20.10	-53.7	-56.0	13.9	0.00e+00	0	28	0	1171259392	73	4750
2026-01-06 09:07:58.38	338.20	19.97	-53.6	-55.9	13.9	0.00e+00	0	28	0	1173356544	73	4695
2026-01-06 09:07:59.37	338.15	19.85	-53.4	-55.6	14.1	0.00e+00	0	28	0	1175453696	73	4526
2026-01-06 09:08:00.36	338.10	19.72	-53.4	-55.7	14.0	0.00e+00	0	28	0	1177550848	73	4581
2026-01-06 09:08:01.36	338.04	19.60	-53.3	-55.5	14.1	0.00e+00	0	28	0	1178599424	73	4482
2026-01-06 09:08:02.36	337.99	19.47	-53.2	-55.4	14.2	0.00e+00	0	28	0	1180696576	73	4437
2026-01-06 09:08:03.35	337.94	19.35	-53.2	-55.5	14.1	0.00e+00	0	28	0	1182793728	72	4707
2026-01-06 09:08:04.34	337.89	19.23	-53.3	-55.5	14.0	0.00e+00	0	28	0	1184890880	72	4753
2026-01-06 09:08:05.33	337.84	19.10	-53.3	-55.6	14.0	0.00e+00	0	28	0	1185939456	72	4769
2026-01-06 09:08:06.33	337.79	18.98	-53.1	-55.3	14.1	0.00e+00	0	28	0	1188036608	72	4614
2026-01-06 09:08:07.33	337.74	18.86	-53.0	-55.1	14.2	0.00e+00	0	28	0	1190133760	72	4539
2026-01-06 09:08:08.32	337.70	18.74	-53.1	-55.3	14.1	0.00e+00	0	28	0	1192230912	72	4632
2026-01-06 09:08:09.32	337.65	18.62	-53.0	-55.2	14.2	0.00e+00	0	28	0	1194328064	72	4563
2026-01-06 09:08:10.31	337.60	18.50	-53.1	-55.3	14.1	0.00e+00	0	28	0	1195376640	72	4616
2026-01-06 09:08:11.30	337.55	18.38	-52.9	-54.9	14.3	0.00e+00	0	28	0	1197473792	72	4438
2026-01-06 09:08:12.30	337.51	18.26	-53.0	-55.1	14.2	0.00e+00	0	28	0	1199570944	72	4523
2026-01-06 09:08:13.30	337.46	18.14	-53.0	-55.1	14.2	0.00e+00	0	28	0	1201668096	72	4542
2026-01-06 09:08:14.30	337.42	18.02	-53.1	-55.3	14.1	0.00e+00	0	28	0	1202716672	72	4617
2026-01-06 09:08:15.29	337.37	17.91	-53.2	-55.4	14.1	0.00e+00	0	28	0	1204813824	72	4682
2026-01-06 09:08:16.28	337.33	17.79	-53.0	-55.2	14.2	0.00e+00	0	28	0	1206910976	72	4569
2026-01-06 09:08:17.27	337.28	17.67	-53.1	-55.3	14.1	0.00e+00	0	28	0	1209008128	72	4638
2026-01-06 09:08:18.27	337.24	17.56	-53.1	-55.3	14.1	0.00e+00	0	28	0	1211105280	72	4626
2026-01-06 09:08:19.26	337.19	17.44	-53.3	-55.5	14.0	0.00e+00	0	28	0	1212153856	72	4754
2026-01-06 09:08:20.25	337.15	17.33	-53.4	-55.7	13.9	0.00e+00	0	28	0	1214251008	72	4867
2026-01-06 09:08:21.24	337.11	17.22	-53.4	-55.7	13.9	0.00e+00	0	28	0	1216348160	72	4865
2026-01-06 09:08:22.23	337.06	17.10	-53.7	-56.2	13.7	0.00e+00	0	28	0	1218445312	72	5113
2026-01-06 09:08:23.23	337.02	16.99	-53.8	-56.3	13.7	0.00e+00	0	28	0	1219493888	72	5186
2026-01-06 09:08:24.22	336.98	16.88	-53.6	-56.1	13.8	0.00e+00	0	28	0	1221591040	72	5042
2026-01-06 09:08:25.21	336.94	16.77	-53.8	-56.3	13.6	0.00e+00	0	28	0	1223688192	72	5217
2026-01-06 09:08:26.20	336.89	16.66	-54.0	-56.6	13.6	0.00e+00	0	28	0	1225785344	73	5096
2026-01-06 09:08:27.19	336.85	16.55	-54.2	-56.9	13.5	0.00e+00	0	28	0	1227882496	73	5227
2026-01-06 09:08:28.18	336.81	16.44	-54.1	-56.7	13.6	0.00e+00	0	28	0	1228931072	73	5121
