passes_logs/2026/01/06/R3.2S_Murmansk/R3.2S_Murmansk__20260106_050058_FENGYUN_3D_rec.log

#Pass ID: 20260106_050058_FENGYUN 3D
#Satellite: FENGYUN 3D
#Configuration: FENGYUN 3D
#almurnet v.1.7.20251203
#Start time: 2026-01-06 05:00:59

#Version: 2.2.20231116
#Station: R3.2S_Murmansk
#Location: 33.079688 lon 68.888172 lat
#TLE: 1 43010U 17072A   26005.48915933 -.00000051  00000+0 -21983-5 0  9995
#TLE: 2 43010  98.9919 337.1582 0002001 124.6377 235.4988 14.19691925421909

#Time	Az	El	Level	Level2	SNR	BER	BlckErr	Temp	State	Recorded	gain1	gain2
2026-01-06 05:00:59.10	37.93	2.06	-57.8	-70.9	3.8	8.46e-01	0	24	0	0	82	15644
2026-01-06 05:01:00.10	37.88	2.12	-57.0	-70.8	3.8	8.45e-01	0	24	104	0	80	17366
2026-01-06 05:01:01.11	37.84	2.18	-56.2	-70.9	3.8	8.45e-01	0	25	104	0	79	18563
2026-01-06 05:01:02.11	37.79	2.25	-55.3	-70.9	3.8	8.45e-01	0	24	104	0	77	20871
2026-01-06 05:01:03.12	37.75	2.31	-54.4	-70.8	3.8	8.46e-01	0	25	104	0	75	23191
2026-01-06 05:01:04.12	37.70	2.37	-53.8	-70.8	3.8	8.46e-01	0	25	104	0	74	24444
2026-01-06 05:01:05.12	37.65	2.43	-53.3	-70.7	3.8	8.46e-01	0	25	104	0	73	25797
2026-01-06 05:01:06.12	37.61	2.49	-53.8	-70.7	3.8	8.45e-01	0	25	104	0	73	25823
2026-01-06 05:01:07.11	37.56	2.55	-54.2	-70.7	3.8	8.45e-01	0	25	104	0	73	25764
2026-01-06 05:01:08.11	37.51	2.61	-54.9	-70.7	3.8	8.46e-01	0	25	104	0	74	24321
2026-01-06 05:01:09.11	37.47	2.67	-55.9	-70.7	3.8	8.45e-01	0	25	104	0	76	21751
2026-01-06 05:01:10.11	37.42	2.74	-56.4	-70.7	3.8	8.46e-01	0	25	104	0	77	20495
2026-01-06 05:01:11.11	37.37	2.80	-56.7	-70.8	3.8	8.44e-01	0	25	104	0	78	19403
2026-01-06 05:01:12.11	37.32	2.86	-57.2	-70.6	3.8	8.45e-01	0	25	104	0	79	17928
2026-01-06 05:01:13.12	37.27	2.92	-57.5	-70.6	3.8	8.46e-01	0	25	104	0	80	16967
2026-01-06 05:01:14.12	37.23	2.98	-57.7	-70.6	3.8	8.46e-01	0	25	104	0	80	16943
2026-01-06 05:01:15.12	37.18	3.05	-57.8	-70.6	3.8	8.45e-01	0	25	104	0	80	17081
2026-01-06 05:01:16.12	37.13	3.11	-57.7	-70.7	3.8	8.44e-01	0	25	104	0	80	17092
2026-01-06 05:01:17.12	37.08	3.17	-57.7	-70.7	3.8	8.45e-01	0	25	104	0	80	17206
2026-01-06 05:01:18.12	37.03	3.23	-57.7	-70.7	3.8	8.46e-01	0	25	104	0	80	17259
2026-01-06 05:01:19.12	36.98	3.30	-57.7	-70.8	3.8	8.45e-01	0	25	104	0	80	17381
2026-01-06 05:01:20.12	36.93	3.36	-57.8	-70.8	3.8	8.44e-01	0	25	104	0	80	17427
2026-01-06 05:01:21.13	36.88	3.42	-57.8	-70.8	3.8	8.45e-01	0	25	104	0	80	17386
2026-01-06 05:01:22.13	36.83	3.48	-57.8	-70.8	3.8	8.43e-01	0	25	104	0	80	17364
2026-01-06 05:01:23.14	36.78	3.55	-57.8	-70.8	3.8	8.46e-01	0	25	104	0	80	17384
2026-01-06 05:01:24.14	36.73	3.61	-57.8	-70.8	3.8	8.45e-01	0	25	104	0	80	17333
2026-01-06 05:01:25.15	36.68	3.68	-57.8	-70.8	3.8	8.45e-01	0	25	104	0	80	17339
2026-01-06 05:01:26.15	36.63	3.74	-57.8	-70.8	3.8	8.46e-01	0	25	104	0	80	17422
2026-01-06 05:01:27.15	36.58	3.80	-57.8	-70.8	3.8	8.46e-01	0	25	104	0	80	17319
2026-01-06 05:01:28.15	36.53	3.87	-57.8	-70.7	3.8	8.46e-01	0	25	104	0	80	17092
2026-01-06 05:01:29.15	36.47	3.93	-57.8	-70.5	3.8	8.46e-01	0	25	104	0	80	16761
2026-01-06 05:01:30.16	36.42	4.00	-57.7	-70.1	3.8	8.45e-01	0	25	104	0	80	15980
2026-01-06 05:01:31.15	36.37	4.06	-57.7	-69.8	3.8	8.46e-01	0	25	104	0	80	15451
2026-01-06 05:01:32.15	36.32	4.12	-57.7	-69.1	3.8	8.45e-01	0	25	104	0	80	14344
2026-01-06 05:01:33.14	36.26	4.19	-57.6	-68.9	3.8	8.45e-01	0	25	104	0	80	13952
2026-01-06 05:01:34.14	36.21	4.25	-57.6	-68.1	4.0	8.43e-01	0	25	104	0	80	12684
2026-01-06 05:01:35.14	36.16	4.32	-57.5	-67.4	4.1	8.39e-01	0	26	0	0	80	11798
2026-01-06 05:01:36.14	36.10	4.38	-57.4	-66.7	4.3	8.25e-01	0	25	0	0	80	10878
2026-01-06 05:01:37.14	36.05	4.45	-57.3	-65.7	4.7	8.05e-01	0	25	0	0	80	9643
2026-01-06 05:01:38.14	36.00	4.51	-57.1	-64.5	5.3	7.40e-01	0	25	0	0	80	8396
2026-01-06 05:01:39.14	35.94	4.58	-56.8	-63.2	6.2	3.00e-01	0	25	0	4194304	80	7259
2026-01-06 05:01:40.14	35.89	4.64	-56.6	-62.7	6.5	2.89e-01	0	26	0	9437184	79	7247
2026-01-06 05:01:41.14	35.83	4.71	-56.2	-61.4	7.6	8.67e-02	0	26	0	14680064	79	6227
2026-01-06 05:01:42.13	35.78	4.77	-56.0	-60.8	8.2	3.44e-02	0	26	0	20971520	78	6142
2026-01-06 05:01:43.14	35.72	4.84	-55.9	-60.5	8.4	5.81e-02	0	25	0	26214400	78	5971
2026-01-06 05:01:44.13	35.67	4.90	-55.7	-60.1	8.8	1.81e-02	0	25	0	31457280	78	5680
2026-01-06 05:01:45.13	35.61	4.97	-55.3	-59.2	9.5	7.54e-03	0	25	0	37748736	77	5431
2026-01-06 05:01:46.13	35.56	5.04	-55.5	-59.7	9.1	1.23e-02	0	25	0	42991616	77	5766
2026-01-06 05:01:47.13	35.50	5.10	-55.8	-60.2	8.7	1.33e-02	0	25	0	48234496	77	6107
2026-01-06 05:01:48.12	35.44	5.17	-56.5	-62.0	7.2	1.25e-01	0	25	0	54525952	78	7054
2026-01-06 05:01:49.12	35.39	5.23	-56.5	-62.3	6.7	8.76e-02	0	26	0	59768832	78	7341
2026-01-06 05:01:50.12	35.33	5.30	-52.5	-54.7	12.8	5.83e-05	0	26	0	66060288	71	4555
2026-01-06 05:01:51.11	35.27	5.37	-57.4	-67.4	3.9	7.49e-01	0	26	104	69206016	80	11702
2026-01-06 05:01:52.11	35.21	5.43	-52.2	-54.2	13.0	2.48e-04	0	26	0	71303168	70	4574
2026-01-06 05:01:53.10	35.16	5.50	-52.0	-54.0	13.1	0.00e+00	0	26	0	76546048	70	4443
2026-01-06 05:01:54.09	35.10	5.57	-51.5	-53.3	13.4	0.00e+00	0	25	0	81788928	69	4378
2026-01-06 05:01:55.10	35.04	5.63	-50.9	-52.6	13.8	0.00e+00	0	25	0	88080384	68	4266
2026-01-06 05:01:56.10	34.98	5.70	-50.3	-51.9	14.1	0.00e+00	0	26	0	93323264	67	4146
2026-01-06 05:01:57.10	34.92	5.77	-50.0	-51.5	14.1	0.00e+00	0	26	0	99614720	66	4232
2026-01-06 05:01:58.10	34.86	5.84	-50.1	-51.6	14.1	0.00e+00	0	26	0	104857600	66	4259
2026-01-06 05:01:59.10	34.80	5.91	-50.0	-51.5	14.1	0.00e+00	0	26	0	110100480	66	4227
2026-01-06 05:02:00.10	34.74	5.97	-50.0	-51.6	14.1	0.00e+00	0	26	0	116391936	66	4243
2026-01-06 05:02:01.10	34.68	6.04	-50.2	-51.7	14.0	0.00e+00	0	26	0	121634816	66	4340
2026-01-06 05:02:02.10	34.62	6.11	-49.9	-51.4	14.3	0.00e+00	0	26	0	127926272	66	4164
2026-01-06 05:02:03.10	34.56	6.18	-50.0	-51.5	14.2	0.00e+00	0	26	0	133169152	66	4241
2026-01-06 05:02:04.10	34.50	6.25	-50.1	-51.6	14.1	0.00e+00	0	26	0	138412032	66	4283
2026-01-06 05:02:05.10	34.44	6.32	-49.9	-51.4	14.2	0.00e+00	0	26	0	144703488	66	4165
2026-01-06 05:02:06.11	34.38	6.39	-49.8	-51.3	14.3	0.00e+00	0	26	0	149946368	66	4140
2026-01-06 05:02:07.11	34.31	6.46	-49.7	-51.1	14.4	0.00e+00	0	26	0	155189248	66	4043
2026-01-06 05:02:08.10	34.25	6.52	-49.5	-51.0	14.3	0.00e+00	0	26	0	161480704	65	4199
2026-01-06 05:02:09.10	34.19	6.59	-49.6	-51.1	14.2	0.00e+00	0	26	0	166723584	65	4264
2026-01-06 05:02:10.10	34.12	6.66	-49.7	-51.2	14.2	0.00e+00	0	26	0	171966464	65	4327
2026-01-06 05:02:11.10	34.06	6.73	-49.5	-50.9	14.4	0.00e+00	0	26	0	178257920	65	4168
2026-01-06 05:02:12.10	34.00	6.80	-49.7	-51.1	14.3	0.00e+00	0	26	0	183500800	65	4276
2026-01-06 05:02:13.10	33.93	6.87	-49.7	-51.2	14.2	0.00e+00	0	26	0	189792256	65	4306
2026-01-06 05:02:14.09	33.87	6.94	-49.7	-51.2	14.2	0.00e+00	0	26	0	195035136	65	4302
2026-01-06 05:02:15.09	33.80	7.01	-49.3	-50.7	14.5	0.00e+00	0	26	0	200278016	65	4060
2026-01-06 05:02:16.10	33.74	7.08	-49.4	-50.8	14.4	0.00e+00	0	26	0	206569472	65	4141
2026-01-06 05:02:17.10	33.67	7.15	-49.6	-51.0	14.3	0.00e+00	0	26	0	211812352	65	4235
2026-01-06 05:02:18.09	33.61	7.22	-49.4	-50.8	14.4	0.00e+00	0	26	0	217055232	65	4132
2026-01-06 05:02:19.09	33.54	7.30	-49.5	-50.9	14.4	0.00e+00	0	26	0	222298112	65	4165
2026-01-06 05:02:20.09	33.48	7.37	-49.3	-50.7	14.5	0.00e+00	0	26	0	228589568	65	4073
2026-01-06 05:02:21.09	33.41	7.44	-49.1	-50.4	14.5	0.00e+00	0	26	0	233832448	64	4185
2026-01-06 05:02:22.08	33.34	7.51	-49.1	-50.5	14.5	0.00e+00	0	26	0	240123904	64	4197
2026-01-06 05:02:23.07	33.28	7.58	-49.1	-50.5	14.5	0.00e+00	0	26	0	245366784	64	4212
2026-01-06 05:02:24.07	33.21	7.65	-49.1	-50.5	14.5	0.00e+00	0	26	0	250609664	64	4225
2026-01-06 05:02:25.07	33.14	7.72	-49.1	-50.5	14.5	0.00e+00	0	26	0	256901120	64	4208
2026-01-06 05:02:26.07	33.07	7.80	-49.0	-50.4	14.5	0.00e+00	0	26	0	262144000	64	4148
2026-01-06 05:02:27.06	33.00	7.87	-48.9	-50.2	14.6	0.00e+00	0	26	0	267386880	64	4098
2026-01-06 05:02:28.07	32.93	7.94	-49.0	-50.3	14.6	0.00e+00	0	26	0	273678336	64	4132
2026-01-06 05:02:29.07	32.86	8.01	-49.1	-50.4	14.5	0.00e+00	0	26	0	278921216	64	4171
2026-01-06 05:02:30.07	32.79	8.09	-49.0	-50.4	14.5	0.00e+00	0	26	0	284164096	64	4159
2026-01-06 05:02:31.07	32.72	8.16	-49.0	-50.4	14.5	0.00e+00	0	26	0	290455552	64	4161
2026-01-06 05:02:32.06	32.65	8.23	-49.1	-50.5	14.5	0.00e+00	0	26	0	295698432	64	4197
2026-01-06 05:02:33.05	32.58	8.30	-49.1	-50.4	14.5	0.00e+00	0	26	0	301989888	64	4176
2026-01-06 05:02:34.05	32.51	8.38	-49.2	-50.6	14.4	0.00e+00	0	26	0	307232768	64	4251
2026-01-06 05:02:35.05	32.44	8.45	-49.3	-50.7	14.4	0.00e+00	0	26	0	312475648	64	4300
2026-01-06 05:02:36.04	32.37	8.52	-49.0	-50.4	14.5	0.00e+00	0	26	0	317718528	64	4158
2026-01-06 05:02:37.04	32.29	8.60	-49.0	-50.3	14.6	0.00e+00	0	26	0	324009984	64	4141
2026-01-06 05:02:38.04	32.22	8.67	-49.1	-50.4	14.5	0.00e+00	0	26	0	329252864	64	4181
2026-01-06 05:02:39.03	32.15	8.75	-49.1	-50.5	14.5	0.00e+00	0	26	0	334495744	64	4214
2026-01-06 05:02:40.02	32.08	8.82	-49.0	-50.4	14.6	0.00e+00	0	26	0	340787200	64	4168
2026-01-06 05:02:41.02	32.00	8.89	-49.3	-50.7	14.4	0.00e+00	0	26	0	346030080	64	4292
2026-01-06 05:02:42.01	31.93	8.97	-49.1	-50.4	14.6	0.00e+00	0	26	0	352321536	64	4171
2026-01-06 05:02:43.01	31.85	9.04	-49.1	-50.4	14.5	0.00e+00	0	26	0	357564416	64	4185
2026-01-06 05:02:44.01	31.78	9.12	-49.0	-50.4	14.6	0.00e+00	0	26	0	362807296	64	4147
2026-01-06 05:02:44.99	31.70	9.19	-49.0	-50.3	14.6	0.00e+00	0	26	0	368050176	64	4137
2026-01-06 05:02:45.99	31.63	9.27	-49.0	-50.4	14.6	0.00e+00	0	26	0	374341632	64	4151
2026-01-06 05:02:46.98	31.55	9.34	-49.0	-50.4	14.6	0.00e+00	0	26	0	379584512	64	4146
2026-01-06 05:02:47.97	31.47	9.42	-48.8	-50.1	14.7	0.00e+00	0	26	0	384827392	64	4046
2026-01-06 05:02:48.97	31.40	9.49	-48.8	-50.1	14.7	0.00e+00	0	26	0	391118848	64	4046
2026-01-06 05:02:49.97	31.32	9.57	-48.8	-50.1	14.7	0.00e+00	0	26	0	396361728	64	4029
2026-01-06 05:02:50.96	31.24	9.65	-48.9	-50.2	14.7	0.00e+00	0	26	0	402653184	64	4059
2026-01-06 05:02:51.96	31.16	9.72	-48.8	-50.1	14.8	0.00e+00	0	26	0	407896064	64	4009
2026-01-06 05:02:52.96	31.08	9.80	-48.8	-50.1	14.7	0.00e+00	0	26	0	413138944	64	4010
2026-01-06 05:02:53.95	31.00	9.87	-48.7	-50.0	14.8	0.00e+00	0	26	0	419430400	64	3989
2026-01-06 05:02:54.95	30.92	9.95	-48.6	-49.9	14.7	0.00e+00	0	26	0	424673280	63	4180
2026-01-06 05:02:55.95	30.84	10.03	-48.8	-50.1	14.6	0.00e+00	0	26	0	429916160	63	4267
2026-01-06 05:02:56.94	30.76	10.11	-48.6	-49.8	14.7	0.00e+00	0	26	0	435159040	63	4141
2026-01-06 05:02:57.93	30.68	10.18	-48.6	-49.9	14.7	0.00e+00	0	26	0	441450496	63	4178
2026-01-06 05:02:58.93	30.60	10.26	-48.6	-49.9	14.7	0.00e+00	0	26	0	446693376	63	4152
2026-01-06 05:02:59.93	30.52	10.34	-48.6	-49.8	14.7	0.00e+00	0	26	0	452984832	63	4137
2026-01-06 05:03:00.93	30.43	10.42	-48.4	-49.7	14.8	0.00e+00	0	26	0	458227712	63	4083
2026-01-06 05:03:01.93	30.35	10.50	-48.5	-49.8	14.7	0.00e+00	0	26	0	463470592	63	4123
2026-01-06 05:03:02.93	30.27	10.57	-48.5	-49.8	14.7	0.00e+00	0	26	0	469762048	63	4128
2026-01-06 05:03:03.93	30.18	10.65	-48.6	-49.8	14.7	0.00e+00	0	26	0	475004928	63	4145
2026-01-06 05:03:04.93	30.10	10.73	-48.4	-49.7	14.8	0.00e+00	0	26	0	480247808	63	4059
2026-01-06 05:03:05.93	30.01	10.81	-48.3	-49.6	14.9	0.00e+00	0	26	0	486539264	63	4016
2026-01-06 05:03:06.93	29.93	10.89	-48.4	-49.7	14.8	0.00e+00	0	26	0	491782144	63	4061
2026-01-06 05:03:07.92	29.84	10.97	-48.4	-49.7	14.8	0.00e+00	0	26	0	497025024	63	4080
2026-01-06 05:03:08.92	29.76	11.05	-48.4	-49.6	14.8	0.00e+00	0	26	0	503316480	63	4039
2026-01-06 05:03:09.92	29.67	11.13	-48.5	-49.7	14.8	0.00e+00	0	26	0	508559360	63	4096
2026-01-06 05:03:10.91	29.58	11.21	-48.5	-49.8	14.8	0.00e+00	0	26	0	514850816	63	4106
2026-01-06 05:03:11.91	29.49	11.29	-48.3	-49.6	14.9	0.00e+00	0	26	0	520093696	63	4010
2026-01-06 05:03:12.90	29.41	11.37	-48.4	-49.7	14.8	0.00e+00	0	26	0	525336576	63	4057
2026-01-06 05:03:13.90	29.32	11.45	-48.2	-49.4	14.9	0.00e+00	0	26	0	531628032	63	3957
2026-01-06 05:03:14.89	29.23	11.53	-48.1	-49.4	14.8	0.00e+00	0	26	0	536870912	62	4150
2026-01-06 05:03:15.89	29.14	11.61	-48.1	-49.3	14.8	0.00e+00	0	26	0	542113792	62	4145
2026-01-06 05:03:16.89	29.05	11.69	-48.1	-49.3	14.9	0.00e+00	0	26	0	548405248	62	4113
2026-01-06 05:03:17.89	28.96	11.77	-48.1	-49.3	14.8	0.00e+00	0	26	0	553648128	62	4123
2026-01-06 05:03:18.89	28.86	11.85	-48.1	-49.4	14.8	0.00e+00	0	26	0	558891008	62	4146
2026-01-06 05:03:19.88	28.77	11.94	-47.9	-49.2	14.9	0.00e+00	0	26	0	565182464	62	4053
2026-01-06 05:03:20.88	28.68	12.02	-48.0	-49.3	14.9	0.00e+00	0	26	0	570425344	62	4102
2026-01-06 05:03:21.88	28.59	12.10	-47.9	-49.1	14.9	0.00e+00	0	26	0	575668224	62	4022
2026-01-06 05:03:22.88	28.49	12.18	-47.9	-49.1	14.9	0.00e+00	0	26	0	581959680	62	4035
2026-01-06 05:03:23.89	28.40	12.27	-47.8	-49.0	15.0	0.00e+00	0	26	0	587202560	62	3980
2026-01-06 05:03:24.89	28.30	12.35	-47.8	-49.0	15.0	0.00e+00	0	26	0	592445440	62	3995
2026-01-06 05:03:25.89	28.21	12.43	-47.9	-49.2	14.9	0.00e+00	0	26	0	598736896	62	4056
2026-01-06 05:03:26.89	28.11	12.52	-47.9	-49.1	14.9	0.00e+00	0	26	0	603979776	62	4043
2026-01-06 05:03:27.89	28.01	12.60	-48.0	-49.3	14.9	0.00e+00	0	26	0	610271232	62	4106
2026-01-06 05:03:28.88	27.92	12.68	-48.0	-49.2	14.9	0.00e+00	0	26	0	615514112	62	4091
2026-01-06 05:03:29.88	27.82	12.77	-48.0	-49.3	14.9	0.00e+00	0	26	0	620756992	62	4106
2026-01-06 05:03:30.88	27.72	12.85	-48.2	-49.4	14.8	0.00e+00	0	26	0	627048448	62	4186
2026-01-06 05:03:31.89	27.62	12.94	-48.1	-49.4	14.8	0.00e+00	0	26	0	632291328	62	4161
2026-01-06 05:03:32.89	27.52	13.02	-48.2	-49.5	14.8	0.00e+00	0	26	0	637534208	62	4209
2026-01-06 05:03:33.89	27.42	13.10	-48.1	-49.3	14.8	0.00e+00	0	26	0	643825664	62	4142
2026-01-06 05:03:34.88	27.32	13.19	-48.2	-49.4	14.8	0.00e+00	0	26	0	649068544	62	4182
2026-01-06 05:03:35.89	27.22	13.27	-48.1	-49.3	14.9	0.00e+00	0	26	0	654311424	62	4138
2026-01-06 05:03:36.88	27.12	13.36	-48.1	-49.3	14.8	0.00e+00	0	26	0	660602880	62	4142
2026-01-06 05:03:37.88	27.02	13.45	-48.1	-49.3	14.9	0.00e+00	0	26	0	665845760	62	4128
2026-01-06 05:03:38.87	26.91	13.53	-47.9	-49.2	14.9	0.00e+00	0	26	0	672137216	62	4062
2026-01-06 05:03:39.86	26.81	13.62	-47.8	-49.0	15.0	0.00e+00	0	26	0	677380096	62	3973
2026-01-06 05:03:40.86	26.71	13.70	-47.8	-49.1	15.0	0.00e+00	0	26	0	682622976	62	4006
2026-01-06 05:03:41.87	26.60	13.79	-47.8	-49.0	15.0	0.00e+00	0	26	0	688914432	62	3969
2026-01-06 05:03:42.87	26.50	13.88	-47.8	-49.0	15.0	0.00e+00	0	26	0	694157312	62	3994
2026-01-06 05:03:43.87	26.39	13.96	-47.8	-49.0	15.0	0.00e+00	0	26	0	699400192	62	3963
2026-01-06 05:03:44.87	26.28	14.05	-47.8	-49.0	15.0	0.00e+00	0	26	0	705691648	62	3982
2026-01-06 05:03:45.86	26.18	14.14	-47.8	-49.0	15.0	0.00e+00	0	26	0	710934528	62	3985
2026-01-06 05:03:46.86	26.07	14.22	-47.7	-48.9	15.0	0.00e+00	0	26	0	716177408	62	3945
2026-01-06 05:03:47.86	25.96	14.31	-47.7	-48.9	15.1	0.00e+00	0	26	0	722468864	62	3914
2026-01-06 05:03:48.85	25.85	14.40	-47.7	-48.9	14.9	0.00e+00	0	26	0	727711744	61	4150
2026-01-06 05:03:49.85	25.74	14.49	-47.6	-48.8	14.9	0.00e+00	0	26	0	734003200	61	4139
2026-01-06 05:03:50.86	25.63	14.57	-47.6	-48.8	14.9	0.00e+00	0	26	0	739246080	61	4124
2026-01-06 05:03:51.85	25.52	14.66	-47.5	-48.7	15.0	0.00e+00	0	26	0	744488960	61	4081
2026-01-06 05:03:52.85	25.41	14.75	-47.5	-48.6	15.0	0.00e+00	0	26	0	750780416	61	4045
2026-01-06 05:03:53.85	25.29	14.84	-47.5	-48.7	15.0	0.00e+00	0	26	0	756023296	61	4066
2026-01-06 05:03:54.85	25.18	14.93	-47.5	-48.7	15.0	0.00e+00	0	26	0	761266176	61	4052
2026-01-06 05:03:55.85	25.06	15.02	-47.3	-48.5	15.1	0.00e+00	0	26	0	767557632	61	3988
2026-01-06 05:03:56.85	24.95	15.11	-47.4	-48.5	15.1	0.00e+00	0	26	0	772800512	61	3987
2026-01-06 05:03:57.84	24.83	15.20	-47.4	-48.5	15.0	0.00e+00	0	26	0	778043392	61	4003
2026-01-06 05:03:58.84	24.72	15.29	-47.2	-48.3	15.1	0.00e+00	0	26	0	784334848	61	3906
2026-01-06 05:03:59.84	24.60	15.38	-47.1	-48.3	15.0	0.00e+00	0	26	0	789577728	60	4111
2026-01-06 05:04:00.82	24.48	15.47	-47.2	-48.3	15.0	0.00e+00	0	26	0	794820608	60	4136
2026-01-06 05:04:01.82	24.37	15.56	-47.2	-48.3	15.0	0.00e+00	0	26	0	801112064	60	4139
2026-01-06 05:04:02.82	24.25	15.65	-47.2	-48.4	14.9	0.00e+00	0	26	0	806354944	60	4166
2026-01-06 05:04:03.82	24.13	15.74	-47.3	-48.5	14.9	0.00e+00	0	26	0	811597824	60	4214
2026-01-06 05:04:04.81	24.01	15.83	-47.3	-48.5	14.9	0.00e+00	0	26	0	817889280	60	4225
2026-01-06 05:04:05.81	23.88	15.92	-47.4	-48.5	14.9	0.00e+00	0	26	0	823132160	60	4238
2026-01-06 05:04:06.81	23.76	16.01	-47.4	-48.6	14.9	0.00e+00	0	26	0	828375040	60	4256
2026-01-06 05:04:07.80	23.64	16.10	-47.3	-48.5	14.9	0.00e+00	0	26	0	834666496	60	4220
2026-01-06 05:04:08.80	23.52	16.19	-47.4	-48.6	14.9	0.00e+00	0	26	0	839909376	60	4243
2026-01-06 05:04:09.80	23.39	16.29	-47.3	-48.5	14.9	0.00e+00	0	26	0	846200832	60	4219
2026-01-06 05:04:10.80	23.27	16.38	-47.4	-48.5	14.9	0.00e+00	0	26	0	851443712	60	4242
2026-01-06 05:04:11.79	23.14	16.47	-47.3	-48.5	14.9	0.00e+00	0	26	0	856686592	60	4194
2026-01-06 05:04:12.78	23.01	16.56	-47.2	-48.4	15.0	0.00e+00	0	26	0	861929472	60	4149
2026-01-06 05:04:13.78	22.89	16.66	-47.2	-48.4	15.0	0.00e+00	0	26	0	868220928	60	4153
2026-01-06 05:04:14.79	22.76	16.75	-47.2	-48.3	15.0	0.00e+00	0	26	0	873463808	60	4137
2026-01-06 05:04:15.79	22.63	16.84	-47.1	-48.2	15.0	0.00e+00	0	26	0	878706688	60	4070
2026-01-06 05:04:16.79	22.50	16.94	-47.1	-48.2	15.0	0.00e+00	0	26	0	884998144	60	4086
2026-01-06 05:04:17.79	22.37	17.03	-47.1	-48.3	15.0	0.00e+00	0	26	0	890241024	60	4101
2026-01-06 05:04:18.78	22.23	17.12	-47.0	-48.1	15.1	0.00e+00	0	26	0	896532480	60	4032
2026-01-06 05:04:19.78	22.10	17.22	-47.0	-48.1	15.1	0.00e+00	0	26	0	901775360	60	4026
2026-01-06 05:04:20.79	21.97	17.31	-47.0	-48.1	15.1	0.00e+00	0	26	0	907018240	60	4030
2026-01-06 05:04:21.79	21.83	17.41	-47.0	-48.1	15.1	0.00e+00	0	26	0	913309696	60	4042
2026-01-06 05:04:22.79	21.70	17.50	-47.0	-48.1	15.1	0.00e+00	0	26	0	918552576	60	4041
2026-01-06 05:04:23.79	21.56	17.60	-47.0	-48.2	15.0	0.00e+00	0	26	0	923795456	60	4060
2026-01-06 05:04:24.78	21.42	17.69	-46.8	-47.9	15.1	0.00e+00	0	26	0	930086912	60	3954
2026-01-06 05:04:25.79	21.28	17.79	-46.8	-47.9	15.2	0.00e+00	0	26	0	935329792	60	3932
2026-01-06 05:04:26.78	21.15	17.88	-47.0	-48.2	15.0	0.00e+00	0	26	0	940572672	59	4310
2026-01-06 05:04:27.79	21.00	17.98	-46.8	-48.0	15.0	0.00e+00	0	26	0	946864128	59	4195
2026-01-06 05:04:28.79	20.86	18.08	-46.9	-48.0	15.0	0.00e+00	0	26	0	952107008	59	4240
2026-01-06 05:04:29.80	20.72	18.17	-47.0	-48.2	15.0	0.00e+00	0	26	0	958398464	59	4294
2026-01-06 05:04:30.80	20.58	18.27	-46.9	-48.0	15.0	0.00e+00	0	26	0	963641344	59	4230
2026-01-06 05:04:31.80	20.43	18.37	-46.9	-48.0	15.0	0.00e+00	0	26	0	969932800	59	4242
2026-01-06 05:04:32.80	20.29	18.46	-46.9	-48.1	15.0	0.00e+00	0	26	0	975175680	59	4267
2026-01-06 05:04:33.80	20.14	18.56	-47.0	-48.1	15.0	0.00e+00	0	26	0	980418560	59	4281
2026-01-06 05:04:34.80	20.00	18.66	-47.1	-48.2	14.9	0.00e+00	0	26	0	986710016	59	4330
2026-01-06 05:04:35.79	19.85	18.75	-46.9	-48.1	15.0	0.00e+00	0	26	0	991952896	59	4257
2026-01-06 05:04:36.79	19.70	18.85	-47.0	-48.1	15.0	0.00e+00	0	26	0	997195776	59	4274
2026-01-06 05:04:37.79	19.55	18.95	-46.9	-48.0	15.0	0.00e+00	0	26	0	1002438656	59	4232
2026-01-06 05:04:38.79	19.40	19.05	-46.8	-48.0	15.0	0.00e+00	0	26	0	1008730112	59	4202
2026-01-06 05:04:39.79	19.25	19.15	-46.9	-48.0	15.0	0.00e+00	0	26	0	1013972992	59	4235
2026-01-06 05:04:40.79	19.10	19.24	-46.8	-48.0	15.0	0.00e+00	0	26	0	1020264448	59	4216
2026-01-06 05:04:41.78	18.95	19.34	-46.8	-47.9	15.0	0.00e+00	0	26	0	1025507328	59	4182
2026-01-06 05:04:42.79	18.79	19.44	-46.7	-47.9	15.1	0.00e+00	0	26	0	1030750208	59	4146
2026-01-06 05:04:43.78	18.64	19.54	-46.7	-47.8	15.1	0.00e+00	0	26	0	1037041664	59	4137
2026-01-06 05:04:44.78	18.48	19.64	-46.7	-47.8	15.1	0.00e+00	0	26	0	1042284544	59	4126
2026-01-06 05:04:45.77	18.32	19.74	-46.7	-47.9	15.1	0.00e+00	0	26	0	1047527424	59	4152
2026-01-06 05:04:46.77	18.16	19.84	-46.6	-47.7	15.1	0.00e+00	0	26	0	1053818880	59	4083
2026-01-06 05:04:47.77	18.00	19.94	-46.6	-47.8	15.1	0.00e+00	0	26	0	1059061760	59	4101
2026-01-06 05:04:48.76	17.85	20.03	-46.7	-47.9	15.1	0.00e+00	0	26	0	1065353216	59	4162
2026-01-06 05:04:49.75	17.69	20.13	-46.8	-47.9	15.0	0.00e+00	0	26	0	1070596096	59	4188
2026-01-06 05:04:50.74	17.52	20.23	-46.9	-48.0	15.0	0.00e+00	0	26	0	1075838976	59	4231
2026-01-06 05:04:51.74	17.36	20.33	-46.8	-47.9	15.0	0.00e+00	0	26	0	1081081856	59	4186
2026-01-06 05:04:52.72	17.20	20.43	-46.7	-47.9	15.1	0.00e+00	0	26	0	1087373312	59	4148
2026-01-06 05:04:53.72	17.03	20.53	-46.6	-47.7	15.1	0.00e+00	0	26	0	1092616192	59	4063
2026-01-06 05:04:54.71	16.87	20.63	-46.6	-47.7	15.1	0.00e+00	0	26	0	1097859072	59	4076
2026-01-06 05:04:55.70	16.70	20.73	-46.3	-47.4	15.2	0.00e+00	0	26	0	1104150528	59	3952
2026-01-06 05:04:56.70	16.53	20.83	-46.3	-47.4	15.2	0.00e+00	0	26	0	1109393408	59	3942
2026-01-06 05:04:57.70	16.36	20.93	-46.3	-47.4	15.3	0.00e+00	0	26	0	1115684864	59	3929
2026-01-06 05:04:58.70	16.19	21.03	-46.3	-47.4	15.3	0.00e+00	0	26	0	1120927744	59	3915
2026-01-06 05:04:59.70	16.02	21.13	-46.3	-47.4	15.3	0.00e+00	0	26	0	1126170624	59	3936
2026-01-06 05:05:00.70	15.84	21.23	-46.3	-47.4	15.3	0.00e+00	0	26	0	1132462080	59	3938
2026-01-06 05:05:01.69	15.67	21.34	-46.4	-47.5	15.2	0.00e+00	0	26	0	1137704960	59	3994
2026-01-06 05:05:02.69	15.49	21.44	-46.5	-47.6	15.2	0.00e+00	0	26	0	1142947840	59	4038
2026-01-06 05:05:03.69	15.31	21.54	-46.4	-47.6	15.2	0.00e+00	0	26	0	1148190720	59	4011
2026-01-06 05:05:04.68	15.14	21.64	-46.5	-47.6	15.2	0.00e+00	0	26	0	1154482176	59	4035
2026-01-06 05:05:05.67	14.96	21.74	-46.5	-47.7	15.1	0.00e+00	0	26	0	1159725056	59	4061
2026-01-06 05:05:06.67	14.78	21.84	-46.4	-47.5	15.2	0.00e+00	0	26	0	1166016512	59	3970
2026-01-06 05:05:07.66	14.60	21.94	-46.4	-47.5	15.2	0.00e+00	0	26	0	1171259392	59	3985
2026-01-06 05:05:08.66	14.41	22.04	-46.4	-47.5	15.2	0.00e+00	0	26	0	1176502272	59	3984
2026-01-06 05:05:09.66	14.23	22.15	-46.5	-47.6	15.2	0.00e+00	0	26	0	1182793728	59	4018
2026-01-06 05:05:10.65	14.05	22.25	-46.3	-47.4	15.2	0.00e+00	0	26	0	1188036608	59	3957
2026-01-06 05:05:11.64	13.86	22.35	-46.4	-47.5	15.2	0.00e+00	0	26	0	1193279488	59	3994
2026-01-06 05:05:12.64	13.67	22.45	-46.4	-47.5	15.2	0.00e+00	0	26	0	1198522368	59	3992
2026-01-06 05:05:13.64	13.48	22.55	-46.3	-47.4	15.3	0.00e+00	0	26	0	1204813824	59	3926
2026-01-06 05:05:14.64	13.29	22.66	-46.2	-47.3	15.2	0.00e+00	0	26	0	1210056704	58	4108
2026-01-06 05:05:15.64	13.10	22.76	-46.3	-47.4	15.1	0.00e+00	0	26	0	1216348160	58	4155
2026-01-06 05:05:16.64	12.90	22.86	-46.1	-47.2	15.2	0.00e+00	0	26	0	1221591040	58	4058
2026-01-06 05:05:17.64	12.71	22.97	-46.0	-47.1	15.2	0.00e+00	0	26	0	1226833920	58	4033
2026-01-06 05:05:18.64	12.51	23.07	-46.2	-47.3	15.1	0.00e+00	0	26	0	1233125376	58	4126
2026-01-06 05:05:19.64	12.32	23.17	-46.2	-47.3	15.2	0.00e+00	0	26	0	1238368256	58	4117
2026-01-06 05:05:20.65	12.12	23.28	-46.2	-47.3	15.1	0.00e+00	0	26	0	1244659712	58	4138
2026-01-06 05:05:21.64	11.92	23.38	-46.3	-47.4	15.1	0.00e+00	0	26	0	1249902592	58	4179
2026-01-06 05:05:22.64	11.72	23.48	-46.2	-47.3	15.1	0.00e+00	0	26	0	1255145472	58	4133
2026-01-06 05:05:23.65	11.51	23.58	-46.1	-47.2	15.2	0.00e+00	0	26	0	1261436928	58	4088
2026-01-06 05:05:24.64	11.31	23.69	-46.1	-47.2	15.2	0.00e+00	0	26	0	1266679808	58	4084
2026-01-06 05:05:25.65	11.10	23.79	-46.1	-47.2	15.2	0.00e+00	0	26	0	1271922688	58	4093
2026-01-06 05:05:26.64	10.90	23.89	-45.8	-46.9	15.3	0.00e+00	0	26	0	1278214144	58	3931
2026-01-06 05:05:27.64	10.69	24.00	-45.7	-46.8	15.3	0.00e+00	0	26	0	1283457024	58	3897
2026-01-06 05:05:28.64	10.48	24.10	-45.7	-46.8	15.3	0.00e+00	0	26	0	1288699904	58	3896
2026-01-06 05:05:29.64	10.27	24.20	-45.8	-46.9	15.3	0.00e+00	0	26	0	1294991360	58	3925
2026-01-06 05:05:30.64	10.05	24.30	-45.8	-46.8	15.3	0.00e+00	0	26	0	1300234240	58	3911
2026-01-06 05:05:31.64	9.84	24.41	-45.8	-46.9	15.3	0.00e+00	0	26	0	1305477120	58	3915
2026-01-06 05:05:32.64	9.62	24.51	-45.9	-47.0	15.3	0.00e+00	0	26	0	1311768576	58	3990
2026-01-06 05:05:33.65	9.40	24.61	-45.9	-47.0	15.3	0.00e+00	0	26	0	1317011456	58	3984
2026-01-06 05:05:34.64	9.19	24.72	-46.0	-47.0	15.3	0.00e+00	0	26	0	1322254336	58	4001
2026-01-06 05:05:35.64	8.97	24.82	-45.8	-46.9	15.3	0.00e+00	0	26	0	1328545792	58	3930
2026-01-06 05:05:36.64	8.75	24.92	-45.8	-46.9	15.3	0.00e+00	0	26	0	1333788672	58	3935
2026-01-06 05:05:37.64	8.53	25.02	-45.8	-46.9	15.3	0.00e+00	0	26	0	1340080128	58	3951
2026-01-06 05:05:38.64	8.30	25.13	-45.8	-46.9	15.3	0.00e+00	0	26	0	1345323008	58	3939
2026-01-06 05:05:39.63	8.08	25.23	-45.6	-46.7	15.3	0.00e+00	0	26	0	1350565888	57	4068
2026-01-06 05:05:40.64	7.85	25.33	-45.5	-46.6	15.2	0.00e+00	0	26	0	1356857344	57	4021
2026-01-06 05:05:41.64	7.62	25.43	-45.5	-46.6	15.2	0.00e+00	0	26	0	1362100224	57	4030
2026-01-06 05:05:42.64	7.39	25.54	-45.5	-46.6	15.2	0.00e+00	0	26	0	1367343104	57	4029
2026-01-06 05:05:43.64	7.16	25.64	-45.6	-46.7	15.2	0.00e+00	0	26	0	1373634560	57	4058
2026-01-06 05:05:44.63	6.93	25.74	-45.5	-46.5	15.3	0.00e+00	0	26	0	1378877440	57	3987
2026-01-06 05:05:45.63	6.69	25.84	-45.4	-46.5	15.3	0.00e+00	0	26	0	1384120320	57	3978
2026-01-06 05:05:46.63	6.46	25.94	-45.5	-46.5	15.3	0.00e+00	0	26	0	1390411776	57	3987
2026-01-06 05:05:47.63	6.22	26.04	-45.5	-46.5	15.3	0.00e+00	0	26	0	1395654656	57	4000
2026-01-06 05:05:48.63	5.98	26.15	-45.4	-46.4	15.3	0.00e+00	0	26	0	1401946112	57	3945
2026-01-06 05:05:49.63	5.74	26.25	-45.3	-46.3	15.4	0.00e+00	0	26	0	1407188992	57	3890
2026-01-06 05:05:50.63	5.50	26.35	-45.2	-46.3	15.4	0.00e+00	0	26	0	1412431872	57	3877
2026-01-06 05:05:51.63	5.25	26.45	-45.3	-46.4	15.3	0.00e+00	0	26	0	1418723328	57	3925
2026-01-06 05:05:52.63	5.01	26.55	-45.4	-46.5	15.3	0.00e+00	0	26	0	1423966208	57	3970
2026-01-06 05:05:53.63	4.76	26.65	-45.3	-46.4	15.3	0.00e+00	0	26	0	1429209088	57	3937
2026-01-06 05:05:54.62	4.51	26.75	-45.4	-46.5	15.3	0.00e+00	0	26	0	1435500544	57	3965
2026-01-06 05:05:55.62	4.26	26.85	-45.3	-46.4	15.3	0.00e+00	0	26	0	1440743424	57	3933
2026-01-06 05:05:56.63	4.01	26.95	-45.2	-46.3	15.4	0.00e+00	0	26	0	1445986304	57	3883
2026-01-06 05:05:57.62	3.76	27.05	-45.2	-46.2	15.2	0.00e+00	0	26	0	1452277760	56	4069
2026-01-06 05:05:58.62	3.50	27.15	-45.2	-46.3	15.2	0.00e+00	0	26	0	1457520640	56	4102
2026-01-06 05:05:59.62	3.25	27.24	-45.2	-46.2	15.2	0.00e+00	0	26	0	1463812096	56	4090
2026-01-06 05:06:00.62	2.99	27.34	-45.3	-46.4	15.2	0.00e+00	0	26	0	1469054976	56	4148
2026-01-06 05:06:01.62	2.73	27.44	-45.4	-46.5	15.2	0.00e+00	0	26	0	1474297856	56	4194
2026-01-06 05:06:02.62	2.47	27.54	-45.3	-46.4	15.2	0.00e+00	0	26	0	1480589312	56	4174
2026-01-06 05:06:03.62	2.20	27.64	-45.5	-46.5	15.2	0.00e+00	0	26	0	1485832192	56	4234
2026-01-06 05:06:04.62	1.94	27.73	-45.3	-46.4	15.2	0.00e+00	0	26	0	1491075072	56	4161
2026-01-06 05:06:05.62	1.67	27.83	-45.3	-46.4	15.2	0.00e+00	0	26	0	1497366528	56	4169
2026-01-06 05:06:06.63	1.40	27.93	-45.3	-46.3	15.2	0.00e+00	0	26	0	1502609408	56	4137
2026-01-06 05:06:07.63	1.13	28.03	-45.2	-46.2	15.2	0.00e+00	0	26	0	1507852288	56	4084
2026-01-06 05:06:08.62	0.86	28.12	-45.2	-46.3	15.2	0.00e+00	0	26	0	1514143744	56	4107
2026-01-06 05:06:09.62	0.59	28.22	-45.2	-46.3	15.2	0.00e+00	0	26	0	1519386624	56	4126
2026-01-06 05:06:10.62	0.32	28.31	-45.3	-46.4	15.2	0.00e+00	0	26	0	1525678080	56	4161
2026-01-06 05:06:11.62	0.04	28.41	-45.4	-46.4	15.2	0.00e+00	0	26	0	1530920960	56	4187
2026-01-06 05:06:12.62	359.76	28.50	-45.2	-46.3	15.2	0.00e+00	0	26	0	1536163840	56	4119
2026-01-06 05:06:13.61	359.48	28.59	-45.3	-46.4	15.2	0.00e+00	0	26	0	1542455296	56	4154
2026-01-06 05:06:14.61	359.20	28.69	-45.2	-46.3	15.2	0.00e+00	0	26	0	1547698176	56	4110
2026-01-06 05:06:15.61	358.92	28.78	-45.3	-46.3	15.2	0.00e+00	0	26	0	1552941056	56	4143
2026-01-06 05:06:16.61	358.64	28.87	-45.2	-46.3	15.2	0.00e+00	0	26	0	1559232512	56	4125
2026-01-06 05:06:17.60	358.35	28.96	-45.1	-46.2	15.3	0.00e+00	0	26	0	1564475392	56	4079
2026-01-06 05:06:18.60	358.06	29.05	-45.1	-46.2	15.2	0.00e+00	0	26	0	1569718272	56	4065
2026-01-06 05:06:19.60	357.78	29.14	-45.0	-46.0	15.3	0.00e+00	0	26	0	1576009728	56	3999
2026-01-06 05:06:20.60	357.48	29.23	-44.8	-45.8	15.3	0.00e+00	0	26	0	1581252608	56	3912
2026-01-06 05:06:21.59	357.19	29.32	-45.0	-46.0	15.3	0.00e+00	0	26	0	1586495488	56	3988
2026-01-06 05:06:22.59	356.90	29.41	-45.0	-46.1	15.3	0.00e+00	0	26	0	1592786944	56	4015
2026-01-06 05:06:23.59	356.60	29.50	-45.2	-46.2	15.2	0.00e+00	0	26	0	1598029824	56	4095
2026-01-06 05:06:24.58	356.31	29.59	-45.3	-46.3	15.2	0.00e+00	0	26	0	1603272704	56	4135
2026-01-06 05:06:25.57	356.01	29.67	-45.3	-46.3	15.2	0.00e+00	0	26	0	1609564160	56	4141
2026-01-06 05:06:26.58	355.71	29.76	-45.2	-46.2	15.2	0.00e+00	0	26	0	1614807040	56	4090
2026-01-06 05:06:27.59	355.40	29.85	-45.2	-46.3	15.2	0.00e+00	0	26	0	1621098496	56	4125
2026-01-06 05:06:28.60	355.10	29.94	-45.3	-46.4	15.2	0.00e+00	0	26	0	1626341376	56	4174
2026-01-06 05:06:29.59	354.79	30.02	-45.2	-46.3	15.2	0.00e+00	0	26	0	1631584256	56	4123
2026-01-06 05:06:30.59	354.49	30.10	-45.3	-46.3	15.2	0.00e+00	0	26	0	1637875712	56	4131
2026-01-06 05:06:31.60	354.17	30.19	-45.2	-46.2	15.2	0.00e+00	0	26	0	1643118592	56	4098
2026-01-06 05:06:32.60	353.86	30.27	-45.1	-46.2	15.3	0.00e+00	0	26	0	1649410048	56	4053
2026-01-06 05:06:33.61	353.55	30.35	-45.2	-46.3	15.2	0.00e+00	0	26	0	1654652928	56	4123
2026-01-06 05:06:34.60	353.24	30.43	-45.1	-46.1	15.3	0.00e+00	0	26	0	1659895808	56	4037
2026-01-06 05:06:35.60	352.92	30.51	-44.9	-46.0	15.3	0.00e+00	0	26	0	1666187264	56	3971
2026-01-06 05:06:36.60	352.60	30.59	-44.9	-45.9	15.3	0.00e+00	0	26	0	1671430144	56	3956
2026-01-06 05:06:37.61	352.28	30.67	-45.0	-46.0	15.3	0.00e+00	0	26	0	1676673024	56	3991
2026-01-06 05:06:38.62	351.96	30.75	-45.0	-46.0	15.3	0.00e+00	0	26	0	1682964480	56	4003
2026-01-06 05:06:39.61	351.64	30.83	-45.0	-46.1	15.3	0.00e+00	0	26	0	1688207360	56	4014
2026-01-06 05:06:40.62	351.31	30.91	-45.1	-46.1	15.3	0.00e+00	0	26	0	1694498816	56	4047
2026-01-06 05:06:41.62	350.99	30.98	-45.0	-46.1	15.3	0.00e+00	0	26	0	1699741696	56	4014
2026-01-06 05:06:42.62	350.66	31.06	-45.1	-46.1	15.3	0.00e+00	0	26	0	1704984576	56	4050
2026-01-06 05:06:43.61	350.34	31.13	-45.1	-46.1	15.3	0.00e+00	0	26	0	1711276032	56	4031
2026-01-06 05:06:44.61	350.01	31.20	-44.9	-45.9	15.4	0.00e+00	0	26	0	1716518912	56	3937
2026-01-06 05:06:45.61	349.68	31.28	-44.7	-45.8	15.4	0.00e+00	0	26	0	1721761792	56	3869
2026-01-06 05:06:46.61	349.34	31.35	-44.5	-45.5	15.3	0.00e+00	0	26	0	1728053248	55	4001
2026-01-06 05:06:47.61	349.01	31.42	-44.6	-45.6	15.3	0.00e+00	0	26	0	1733296128	55	4024
2026-01-06 05:06:48.61	348.68	31.49	-44.4	-45.4	15.4	0.00e+00	0	26	0	1738539008	55	3957
2026-01-06 05:06:49.61	348.34	31.56	-44.5	-45.6	15.3	0.00e+00	0	26	0	1744830464	55	4011
2026-01-06 05:06:50.61	348.00	31.62	-44.7	-45.7	15.3	0.00e+00	0	26	0	1750073344	55	4066
2026-01-06 05:06:51.62	347.66	31.69	-44.8	-45.8	15.2	0.00e+00	0	26	0	1756364800	55	4141
2026-01-06 05:06:52.63	347.31	31.76	-44.8	-45.8	15.3	0.00e+00	0	26	0	1761607680	55	4140
2026-01-06 05:06:53.64	346.97	31.82	-44.7	-45.7	15.3	0.00e+00	0	26	0	1766850560	55	4091
2026-01-06 05:06:54.63	346.63	31.89	-44.6	-45.7	15.3	0.00e+00	0	26	0	1773142016	55	4061
2026-01-06 05:06:55.64	346.28	31.95	-44.4	-45.4	15.4	0.00e+00	0	26	0	1778384896	55	3948
2026-01-06 05:06:56.64	345.93	32.01	-44.4	-45.4	15.3	0.00e+00	0	26	0	1783627776	55	3951
2026-01-06 05:06:57.65	345.58	32.07	-44.4	-45.4	15.4	0.00e+00	0	26	0	1789919232	55	3957
2026-01-06 05:06:58.65	345.23	32.13	-44.5	-45.5	15.3	0.00e+00	0	26	0	1795162112	55	4004
2026-01-06 05:06:59.64	344.88	32.19	-44.6	-45.7	15.3	0.00e+00	0	26	0	1800404992	55	4068
2026-01-06 05:07:00.64	344.53	32.25	-44.7	-45.8	15.2	0.00e+00	0	26	0	1806696448	55	4105
2026-01-06 05:07:01.64	344.18	32.30	-44.7	-45.8	15.3	0.00e+00	0	26	0	1811939328	55	4119
2026-01-06 05:07:02.64	343.82	32.36	-44.7	-45.8	15.3	0.00e+00	0	26	0	1818230784	55	4113
2026-01-06 05:07:03.64	343.47	32.41	-44.7	-45.7	15.3	0.00e+00	0	26	0	1823473664	55	4085
2026-01-06 05:07:04.65	343.11	32.46	-44.6	-45.6	15.3	0.00e+00	0	26	0	1829765120	55	4051
2026-01-06 05:07:05.65	342.75	32.52	-44.6	-45.6	15.3	0.00e+00	0	26	0	1835008000	55	4045
2026-01-06 05:07:06.65	342.39	32.57	-44.4	-45.4	15.4	0.00e+00	0	26	0	1840250880	55	3956
2026-01-06 05:07:07.65	342.03	32.61	-44.2	-45.2	15.4	0.00e+00	0	26	0	1846542336	55	3853
2026-01-06 05:07:08.65	341.67	32.66	-44.2	-45.2	15.3	0.00e+00	0	26	0	1851785216	54	4087
2026-01-06 05:07:09.64	341.31	32.71	-44.3	-45.3	15.3	0.00e+00	0	26	0	1857028096	54	4135
2026-01-06 05:07:10.65	340.95	32.75	-44.4	-45.4	15.2	0.00e+00	0	26	0	1863319552	54	4181
2026-01-06 05:07:11.65	340.58	32.80	-44.5	-45.5	15.2	0.00e+00	0	26	0	1868562432	54	4233
2026-01-06 05:07:12.64	340.22	32.84	-44.5	-45.6	15.2	0.00e+00	0	26	0	1873805312	54	4259
2026-01-06 05:07:13.64	339.85	32.88	-44.4	-45.5	15.3	0.00e+00	0	26	0	1880096768	54	4205
2026-01-06 05:07:14.64	339.49	32.92	-44.5	-45.6	15.2	0.00e+00	0	26	0	1885339648	54	4246
2026-01-06 05:07:15.64	339.12	32.96	-44.6	-45.6	15.2	0.00e+00	0	26	0	1890582528	54	4269
2026-01-06 05:07:16.63	338.75	33.00	-44.5	-45.6	15.2	0.00e+00	0	26	0	1896873984	54	4262
2026-01-06 05:07:17.64	338.38	33.04	-44.6	-45.6	15.2	0.00e+00	0	26	0	1902116864	54	4275
2026-01-06 05:07:18.63	338.01	33.07	-44.5	-45.6	15.2	0.00e+00	0	26	0	1907359744	54	4265
2026-01-06 05:07:19.62	337.65	33.10	-44.5	-45.6	15.2	0.00e+00	0	26	0	1913651200	54	4251
2026-01-06 05:07:20.60	337.28	33.14	-44.5	-45.5	15.2	0.00e+00	0	26	0	1918894080	54	4222
2026-01-06 05:07:21.60	336.91	33.17	-44.5	-45.5	15.2	0.00e+00	0	26	0	1924136960	54	4223
2026-01-06 05:07:22.59	336.54	33.20	-44.5	-45.5	15.2	0.00e+00	0	26	0	1930428416	54	4224
2026-01-06 05:07:23.59	336.16	33.22	-44.4	-45.5	15.2	0.00e+00	0	26	0	1935671296	54	4194
2026-01-06 05:07:24.58	335.79	33.25	-44.5	-45.6	15.2	0.00e+00	0	26	0	1940914176	54	4248
2026-01-06 05:07:25.58	335.42	33.28	-44.6	-45.6	15.2	0.00e+00	0	26	0	1947205632	54	4269
2026-01-06 05:07:26.57	335.05	33.30	-44.6	-45.7	15.2	0.00e+00	0	26	0	1952448512	54	4298
2026-01-06 05:07:27.57	334.67	33.32	-44.7	-45.8	15.2	0.00e+00	0	26	0	1957691392	54	4353
2026-01-06 05:07:28.57	334.29	33.35	-44.7	-45.8	15.2	0.00e+00	0	26	0	1963982848	54	4352
2026-01-06 05:07:29.57	333.91	33.37	-44.7	-45.7	15.2	0.00e+00	0	26	0	1969225728	54	4319
2026-01-06 05:07:30.56	333.54	33.38	-44.6	-45.6	15.2	0.00e+00	0	26	0	1974468608	54	4285
2026-01-06 05:07:31.56	333.16	33.40	-44.6	-45.7	15.2	0.00e+00	0	26	0	1980760064	54	4300
2026-01-06 05:07:32.55	332.79	33.42	-44.8	-45.9	15.2	0.00e+00	0	26	0	1986002944	54	4410
2026-01-06 05:07:33.54	332.41	33.43	-44.8	-45.9	15.2	0.00e+00	0	26	0	1991245824	54	4418
2026-01-06 05:07:34.54	332.03	33.45	-44.8	-45.8	15.2	0.00e+00	0	26	0	1997537280	54	4363
2026-01-06 05:07:35.53	331.66	33.46	-44.6	-45.6	15.2	0.00e+00	0	26	0	2002780160	54	4268
2026-01-06 05:07:36.53	331.28	33.47	-44.6	-45.6	15.2	0.00e+00	0	26	0	2008023040	54	4269
2026-01-06 05:07:37.53	330.90	33.48	-44.5	-45.6	15.2	0.00e+00	0	26	0	2014314496	54	4252
2026-01-06 05:07:38.52	330.52	33.48	-44.6	-45.7	15.2	0.00e+00	0	26	0	2019557376	54	4299
2026-01-06 05:07:39.52	330.14	33.49	-44.5	-45.6	15.2	0.00e+00	0	26	0	2024800256	54	4261
2026-01-06 05:07:40.52	329.76	33.49	-44.6	-45.6	15.2	0.00e+00	0	26	0	2031091712	54	4269
2026-01-06 05:07:41.52	329.38	33.50	-44.6	-45.6	15.2	0.00e+00	0	26	0	2036334592	54	4282
2026-01-06 05:07:42.52	329.00	33.50	-44.5	-45.6	15.2	0.00e+00	0	26	0	2042626048	54	4263
2026-01-06 05:07:43.52	328.61	33.50	-44.5	-45.5	15.2	0.00e+00	0	26	0	2047868928	54	4225
2026-01-06 05:07:44.52	328.23	33.50	-44.5	-45.5	15.2	0.00e+00	0	26	0	2053111808	54	4223
2026-01-06 05:07:45.52	327.85	33.50	-44.4	-45.5	15.2	0.00e+00	0	26	0	2059403264	54	4207
2026-01-06 05:07:46.52	327.47	33.49	-44.3	-45.3	15.3	0.00e+00	0	26	0	2064646144	54	4134
2026-01-06 05:07:47.52	327.09	33.49	-44.3	-45.3	15.2	0.00e+00	0	26	0	2069889024	54	4143
2026-01-06 05:07:48.51	326.71	33.48	-44.3	-45.3	15.3	0.00e+00	0	26	0	2076180480	54	4126
2026-01-06 05:07:49.52	326.33	33.47	-44.4	-45.4	15.2	0.00e+00	0	26	0	2081423360	54	4187
2026-01-06 05:07:50.51	325.95	33.46	-44.6	-45.6	15.2	0.00e+00	0	26	0	2086666240	54	4290
2026-01-06 05:07:51.50	325.58	33.45	-44.4	-45.5	15.2	0.00e+00	0	26	0	2092957696	54	4215
2026-01-06 05:07:52.50	325.20	33.44	-44.3	-45.3	15.2	0.00e+00	0	26	0	2098200576	54	4134
2026-01-06 05:07:53.51	324.81	33.42	-44.3	-45.4	15.3	0.00e+00	0	26	0	2104492032	54	4148
2026-01-06 05:07:54.51	324.43	33.41	-44.5	-45.5	15.2	0.00e+00	0	26	0	2109734912	54	4226
2026-01-06 05:07:55.51	324.06	33.39	-44.6	-45.6	15.2	0.00e+00	0	26	0	2114977792	54	4269
2026-01-06 05:07:56.51	323.68	33.37	-44.7	-45.7	15.2	0.00e+00	0	26	0	2121269248	54	4339
2026-01-06 05:07:57.51	323.30	33.35	-44.7	-45.7	15.2	0.00e+00	0	26	0	2126512128	54	4332
2026-01-06 05:07:58.50	322.93	33.33	-44.6	-45.7	15.2	0.00e+00	0	26	0	2131755008	54	4296
2026-01-06 05:07:59.50	322.55	33.31	-44.5	-45.5	15.2	0.00e+00	0	26	0	2138046464	54	4211
2026-01-06 05:08:00.50	322.17	33.28	-44.5	-45.6	15.2	0.00e+00	0	26	0	2143289344	54	4251
2026-01-06 05:08:01.50	321.80	33.26	-44.6	-45.6	15.2	0.00e+00	0	26	0	2148532224	54	4290
2026-01-06 05:08:02.50	321.42	33.23	-44.6	-45.6	15.2	0.00e+00	0	26	0	2154823680	54	4284
2026-01-06 05:08:03.51	321.04	33.20	-44.6	-45.7	15.2	0.00e+00	0	26	0	2160066560	54	4295
2026-01-06 05:08:04.51	320.67	33.18	-44.4	-45.4	15.3	0.00e+00	0	26	0	2166358016	54	4180
2026-01-06 05:08:05.51	320.30	33.14	-44.4	-45.4	15.2	0.00e+00	0	26	0	2171600896	54	4189
2026-01-06 05:08:06.51	319.92	33.11	-44.3	-45.3	15.3	0.00e+00	0	26	0	2176843776	54	4135
2026-01-06 05:08:07.52	319.55	33.08	-44.3	-45.4	15.3	0.00e+00	0	26	0	2183135232	54	4152
2026-01-06 05:08:08.51	319.18	33.04	-44.2	-45.2	15.3	0.00e+00	0	26	0	2188378112	54	4097
2026-01-06 05:08:09.51	318.81	33.01	-44.3	-45.3	15.3	0.00e+00	0	26	0	2193620992	54	4106
2026-01-06 05:08:10.51	318.44	32.97	-44.3	-45.3	15.3	0.00e+00	0	26	0	2199912448	54	4120
2026-01-06 05:08:11.52	318.07	32.93	-44.3	-45.3	15.3	0.00e+00	0	26	0	2205155328	54	4110
2026-01-06 05:08:12.53	317.70	32.89	-44.4	-45.4	15.2	0.00e+00	0	26	0	2211446784	54	4165
2026-01-06 05:08:13.53	317.33	32.85	-44.5	-45.5	15.2	0.00e+00	0	26	0	2216689664	54	4236
2026-01-06 05:08:14.53	316.97	32.81	-44.6	-45.7	15.2	0.00e+00	0	26	0	2221932544	54	4299
2026-01-06 05:08:15.53	316.60	32.76	-44.7	-45.7	15.2	0.00e+00	0	26	0	2228224000	54	4312
2026-01-06 05:08:16.53	316.24	32.72	-44.7	-45.8	15.2	0.00e+00	0	26	0	2233466880	54	4353
2026-01-06 05:08:17.53	315.88	32.67	-44.7	-45.7	15.2	0.00e+00	0	26	0	2238709760	54	4315
2026-01-06 05:08:18.53	315.51	32.62	-44.6	-45.7	15.2	0.00e+00	0	26	0	2245001216	54	4313
2026-01-06 05:08:19.52	315.16	32.58	-44.6	-45.7	15.2	0.00e+00	0	26	0	2250244096	54	4304
2026-01-06 05:08:20.52	314.80	32.53	-44.7	-45.7	15.2	0.00e+00	0	26	0	2255486976	54	4323
2026-01-06 05:08:21.51	314.44	32.48	-44.6	-45.7	15.2	0.00e+00	0	26	0	2261778432	54	4301
2026-01-06 05:08:22.52	314.08	32.42	-44.5	-45.5	15.2	0.00e+00	0	26	0	2267021312	54	4223
2026-01-06 05:08:23.52	313.73	32.37	-44.5	-45.5	15.2	0.00e+00	0	26	0	2273312768	54	4238
2026-01-06 05:08:24.51	313.37	32.32	-44.4	-45.5	15.2	0.00e+00	0	26	0	2278555648	54	4210
2026-01-06 05:08:25.50	313.02	32.26	-44.5	-45.5	15.2	0.00e+00	0	26	0	2283798528	54	4242
2026-01-06 05:08:26.51	312.67	32.20	-44.5	-45.5	15.2	0.00e+00	0	26	0	2290089984	54	4219
2026-01-06 05:08:27.51	312.32	32.14	-44.6	-45.7	15.2	0.00e+00	0	26	0	2295332864	54	4299
2026-01-06 05:08:28.50	311.97	32.09	-44.7	-45.8	15.2	0.00e+00	0	26	0	2300575744	54	4355
2026-01-06 05:08:29.50	311.62	32.03	-44.8	-45.8	15.2	0.00e+00	0	26	0	2306867200	54	4372
2026-01-06 05:08:30.49	311.28	31.97	-44.7	-45.7	15.2	0.00e+00	0	26	0	2312110080	54	4334
2026-01-06 05:08:31.50	310.93	31.90	-44.7	-45.7	15.2	0.00e+00	0	26	0	2317352960	54	4321
2026-01-06 05:08:32.50	310.58	31.84	-44.6	-45.6	15.2	0.00e+00	0	26	0	2323644416	54	4287
2026-01-06 05:08:33.50	310.24	31.77	-44.6	-45.7	15.2	0.00e+00	0	26	0	2328887296	54	4303
2026-01-06 05:08:34.50	309.90	31.71	-44.8	-45.8	15.2	0.00e+00	0	26	0	2335178752	54	4390
2026-01-06 05:08:35.49	309.56	31.64	-44.9	-46.0	15.2	0.00e+00	0	26	0	2340421632	54	4453
2026-01-06 05:08:36.49	309.22	31.58	-44.8	-45.9	15.2	0.00e+00	0	26	0	2345664512	54	4410
2026-01-06 05:08:37.49	308.89	31.51	-44.7	-45.8	15.2	0.00e+00	0	26	0	2350907392	54	4365
2026-01-06 05:08:38.49	308.55	31.44	-44.7	-45.7	15.2	0.00e+00	0	26	0	2357198848	54	4314
2026-01-06 05:08:39.49	308.21	31.37	-44.6	-45.7	15.2	0.00e+00	0	26	0	2362441728	54	4299
2026-01-06 05:08:40.49	307.88	31.30	-44.7	-45.8	15.2	0.00e+00	0	26	0	2367684608	54	4367
2026-01-06 05:08:41.50	307.55	31.22	-44.7	-45.8	15.2	0.00e+00	0	26	0	2373976064	54	4353
2026-01-06 05:08:42.49	307.22	31.15	-44.7	-45.8	15.2	0.00e+00	0	26	0	2379218944	54	4350
2026-01-06 05:08:43.49	306.89	31.08	-44.8	-45.8	15.2	0.00e+00	0	26	0	2385510400	54	4379
2026-01-06 05:08:44.48	306.57	31.00	-44.9	-45.9	15.2	0.00e+00	0	26	0	2390753280	54	4441
2026-01-06 05:08:45.46	306.25	30.93	-44.7	-45.8	15.3	0.00e+00	0	26	0	2395996160	55	4101
2026-01-06 05:08:46.45	305.92	30.85	-44.8	-45.9	15.2	0.00e+00	0	26	0	2402287616	55	4146
2026-01-06 05:08:47.45	305.60	30.78	-44.9	-46.0	15.2	0.00e+00	0	26	0	2407530496	55	4209
2026-01-06 05:08:48.45	305.28	30.70	-44.8	-45.8	15.3	0.00e+00	0	26	0	2412773376	55	4128
2026-01-06 05:08:49.44	304.96	30.62	-44.8	-45.9	15.2	0.00e+00	0	26	0	2418016256	55	4164
2026-01-06 05:08:50.45	304.64	30.54	-44.9	-46.0	15.2	0.00e+00	0	26	0	2424307712	55	4200
2026-01-06 05:08:51.44	304.33	30.46	-45.0	-46.0	15.2	0.00e+00	0	26	0	2429550592	55	4222
2026-01-06 05:08:52.43	304.02	30.38	-45.1	-46.1	15.2	0.00e+00	0	26	0	2435842048	55	4278
2026-01-06 05:08:53.43	303.70	30.30	-45.2	-46.2	15.2	0.00e+00	0	26	0	2441084928	55	4321
2026-01-06 05:08:54.43	303.39	30.21	-45.3	-46.4	15.2	0.00e+00	0	26	0	2446327808	55	4420
2026-01-06 05:08:55.43	303.08	30.13	-45.3	-46.4	15.2	0.00e+00	0	26	0	2452619264	55	4416
2026-01-06 05:08:56.43	302.77	30.05	-45.1	-46.2	15.2	0.00e+00	0	26	0	2457862144	55	4320
2026-01-06 05:08:57.43	302.47	29.96	-45.2	-46.3	15.2	0.00e+00	0	26	0	2463105024	55	4345
2026-01-06 05:08:58.43	302.16	29.88	-44.9	-45.9	15.2	0.00e+00	0	26	0	2469396480	55	4175
2026-01-06 05:08:59.44	301.85	29.79	-44.9	-45.9	15.2	0.00e+00	0	26	0	2474639360	55	4166
2026-01-06 05:09:00.43	301.56	29.70	-45.0	-46.1	15.2	0.00e+00	0	26	0	2479882240	55	4244
2026-01-06 05:09:01.43	301.26	29.62	-45.0	-46.0	15.2	0.00e+00	0	26	0	2486173696	55	4237
2026-01-06 05:09:02.44	300.95	29.53	-44.9	-46.0	15.2	0.00e+00	0	26	0	2491416576	55	4218
2026-01-06 05:09:03.44	300.66	29.44	-44.9	-46.0	15.2	0.00e+00	0	26	0	2497708032	55	4207
2026-01-06 05:09:04.45	300.36	29.35	-45.0	-46.0	15.2	0.00e+00	0	26	0	2502950912	55	4242
2026-01-06 05:09:05.44	300.07	29.26	-45.0	-46.0	15.2	0.00e+00	0	26	0	2508193792	55	4240
2026-01-06 05:09:06.44	299.77	29.17	-45.1	-46.2	15.2	0.00e+00	0	26	0	2514485248	55	4292
2026-01-06 05:09:07.45	299.48	29.08	-45.2	-46.3	15.2	0.00e+00	0	26	0	2519728128	55	4347
2026-01-06 05:09:08.45	299.19	28.99	-45.2	-46.3	15.2	0.00e+00	0	26	0	2526019584	55	4377
2026-01-06 05:09:09.45	298.91	28.90	-45.3	-46.4	15.2	0.00e+00	0	26	0	2531262464	55	4410
2026-01-06 05:09:10.44	298.62	28.80	-45.3	-46.4	15.2	0.00e+00	0	26	0	2536505344	55	4425
2026-01-06 05:09:11.44	298.34	28.71	-45.3	-46.4	15.2	0.00e+00	0	26	0	2541748224	55	4397
2026-01-06 05:09:12.44	298.06	28.62	-45.2	-46.2	15.2	0.00e+00	0	26	0	2548039680	55	4332
2026-01-06 05:09:13.44	297.78	28.52	-45.2	-46.2	15.2	0.00e+00	0	26	0	2553282560	55	4325
2026-01-06 05:09:14.42	297.50	28.43	-45.3	-46.4	15.2	0.00e+00	0	26	0	2559574016	55	4403
2026-01-06 05:09:15.42	297.22	28.34	-45.3	-46.3	15.2	0.00e+00	0	26	0	2564816896	55	4378
2026-01-06 05:09:16.42	296.95	28.24	-45.2	-46.3	15.2	0.00e+00	0	26	0	2570059776	55	4362
2026-01-06 05:09:17.41	296.68	28.15	-45.2	-46.2	15.2	0.00e+00	0	26	0	2576351232	55	4321
2026-01-06 05:09:18.41	296.41	28.05	-45.3	-46.3	15.2	0.00e+00	0	26	0	2581594112	55	4373
2026-01-06 05:09:19.40	296.14	27.96	-45.3	-46.4	15.2	0.00e+00	0	26	0	2586836992	55	4417
2026-01-06 05:09:20.40	295.87	27.86	-45.5	-46.6	15.2	0.00e+00	0	26	0	2593128448	56	4260
2026-01-06 05:09:21.40	295.60	27.76	-45.4	-46.4	15.2	0.00e+00	0	26	0	2598371328	56	4181
2026-01-06 05:09:22.39	295.34	27.67	-45.3	-46.4	15.2	0.00e+00	0	26	0	2603614208	56	4160
2026-01-06 05:09:23.39	295.07	27.57	-45.5	-46.5	15.2	0.00e+00	0	26	0	2609905664	56	4226
2026-01-06 05:09:24.39	294.81	27.47	-45.4	-46.4	15.2	0.00e+00	0	26	0	2615148544	56	4193
2026-01-06 05:09:25.39	294.55	27.37	-45.3	-46.4	15.2	0.00e+00	0	26	0	2620391424	56	4167
2026-01-06 05:09:26.40	294.29	27.27	-45.5	-46.5	15.2	0.00e+00	0	26	0	2626682880	56	4241
2026-01-06 05:09:27.40	294.03	27.17	-45.6	-46.7	15.2	0.00e+00	0	26	0	2631925760	56	4295
2026-01-06 05:09:28.39	293.78	27.07	-45.6	-46.7	15.2	0.00e+00	0	26	0	2637168640	56	4335
2026-01-06 05:09:29.40	293.52	26.97	-45.8	-46.8	15.1	0.00e+00	0	26	0	2643460096	56	4388
2026-01-06 05:09:30.40	293.27	26.87	-45.7	-46.8	15.1	0.00e+00	0	26	0	2648702976	56	4356
2026-01-06 05:09:31.40	293.01	26.77	-45.7	-46.7	15.1	0.00e+00	0	26	0	2654994432	56	4326
2026-01-06 05:09:32.40	292.76	26.67	-45.7	-46.8	15.1	0.00e+00	0	26	0	2660237312	56	4342
2026-01-06 05:09:33.40	292.52	26.57	-45.7	-46.8	15.1	0.00e+00	0	26	0	2665480192	56	4354
2026-01-06 05:09:34.41	292.27	26.47	-45.7	-46.8	15.1	0.00e+00	0	26	0	2671771648	56	4365
2026-01-06 05:09:35.41	292.02	26.37	-45.7	-46.8	15.1	0.00e+00	0	26	0	2677014528	56	4353
2026-01-06 05:09:36.41	291.78	26.27	-45.6	-46.7	15.1	0.00e+00	0	26	0	2683305984	56	4319
2026-01-06 05:09:37.41	291.54	26.17	-45.6	-46.7	15.1	0.00e+00	0	26	0	2688548864	56	4320
2026-01-06 05:09:38.41	291.30	26.07	-45.6	-46.7	15.1	0.00e+00	0	26	0	2693791744	56	4310
2026-01-06 05:09:39.41	291.06	25.97	-45.7	-46.7	15.1	0.00e+00	0	26	0	2700083200	56	4322
2026-01-06 05:09:40.42	290.82	25.86	-45.6	-46.7	15.2	0.00e+00	0	26	0	2705326080	56	4302
2026-01-06 05:09:41.42	290.58	25.76	-45.8	-46.9	15.1	0.00e+00	0	26	0	2710568960	56	4421
2026-01-06 05:09:42.42	290.35	25.66	-46.0	-47.1	15.1	0.00e+00	0	26	0	2716860416	57	4273
2026-01-06 05:09:43.42	290.12	25.56	-46.0	-47.1	15.1	0.00e+00	0	26	0	2722103296	57	4284
2026-01-06 05:09:44.42	289.88	25.45	-46.1	-47.2	15.1	0.00e+00	0	26	0	2727346176	57	4334
2026-01-06 05:09:45.42	289.65	25.35	-46.1	-47.2	15.1	0.00e+00	0	26	0	2733637632	57	4304
2026-01-06 05:09:46.42	289.43	25.25	-46.0	-47.1	15.1	0.00e+00	0	26	0	2738880512	57	4282
2026-01-06 05:09:47.42	289.20	25.15	-46.1	-47.1	15.1	0.00e+00	0	26	0	2745171968	57	4282
2026-01-06 05:09:48.42	288.97	25.04	-46.0	-47.1	15.1	0.00e+00	0	26	0	2750414848	57	4272
2026-01-06 05:09:49.42	288.75	24.94	-46.0	-47.1	15.1	0.00e+00	0	26	0	2755657728	57	4261
2026-01-06 05:09:50.43	288.53	24.84	-45.9	-47.0	15.2	0.00e+00	0	26	0	2761949184	57	4200
2026-01-06 05:09:51.42	288.31	24.73	-46.0	-47.0	15.2	0.00e+00	0	26	0	2767192064	57	4242
2026-01-06 05:09:52.41	288.09	24.63	-45.9	-47.0	15.2	0.00e+00	0	26	0	2772434944	57	4207
2026-01-06 05:09:53.40	287.87	24.53	-46.1	-47.2	15.1	0.00e+00	0	26	0	2778726400	57	4297
2026-01-06 05:09:54.40	287.66	24.43	-46.1	-47.2	15.1	0.00e+00	0	26	0	2783969280	57	4320
2026-01-06 05:09:55.39	287.45	24.33	-46.1	-47.2	15.1	0.00e+00	0	26	0	2789212160	57	4305
2026-01-06 05:09:56.38	287.23	24.22	-46.1	-47.2	15.1	0.00e+00	0	26	0	2795503616	57	4336
2026-01-06 05:09:57.38	287.02	24.12	-46.0	-47.1	15.1	0.00e+00	0	26	0	2800746496	57	4278
2026-01-06 05:09:58.38	286.81	24.02	-46.0	-47.0	15.1	0.00e+00	0	26	0	2805989376	57	4236
2026-01-06 05:09:59.39	286.60	23.91	-45.9	-47.0	15.1	0.00e+00	0	26	0	2812280832	57	4199
2026-01-06 05:10:00.38	286.39	23.81	-46.0	-47.0	15.1	0.00e+00	0	26	0	2817523712	57	4231
2026-01-06 05:10:01.37	286.19	23.71	-45.9	-47.0	15.2	0.00e+00	0	26	0	2822766592	57	4208
2026-01-06 05:10:02.37	285.98	23.60	-45.9	-46.9	15.2	0.00e+00	0	26	0	2829058048	57	4191
2026-01-06 05:10:03.38	285.78	23.50	-46.0	-47.1	15.1	0.00e+00	0	26	0	2834300928	57	4257
2026-01-06 05:10:04.38	285.57	23.40	-46.0	-47.1	15.1	0.00e+00	0	26	0	2840592384	57	4249
2026-01-06 05:10:05.38	285.37	23.29	-46.0	-47.1	15.1	0.00e+00	0	26	0	2845835264	57	4257
2026-01-06 05:10:06.38	285.17	23.19	-46.1	-47.2	15.1	0.00e+00	0	26	0	2851078144	57	4336
2026-01-06 05:10:07.38	284.97	23.09	-46.1	-47.2	15.1	0.00e+00	0	26	0	2857369600	57	4300
2026-01-06 05:10:08.38	284.78	22.98	-46.2	-47.3	15.1	0.00e+00	0	26	0	2862612480	57	4358
2026-01-06 05:10:09.37	284.58	22.88	-46.1	-47.2	15.1	0.00e+00	0	26	0	2867855360	57	4311
2026-01-06 05:10:10.37	284.39	22.78	-46.1	-47.2	15.1	0.00e+00	0	26	0	2874146816	57	4300
2026-01-06 05:10:11.37	284.20	22.68	-46.2	-47.3	15.1	0.00e+00	0	26	0	2879389696	57	4356
2026-01-06 05:10:12.37	284.00	22.57	-46.0	-47.1	15.1	0.00e+00	0	26	0	2884632576	57	4260
2026-01-06 05:10:13.37	283.81	22.47	-46.0	-47.0	15.1	0.00e+00	0	26	0	2890924032	57	4238
2026-01-06 05:10:14.38	283.62	22.37	-46.0	-47.1	15.1	0.00e+00	0	26	0	2896166912	57	4273
2026-01-06 05:10:15.38	283.43	22.26	-46.1	-47.2	15.1	0.00e+00	0	26	0	2902458368	57	4326
2026-01-06 05:10:16.37	283.25	22.16	-46.1	-47.2	15.1	0.00e+00	0	26	0	2907701248	57	4313
2026-01-06 05:10:17.38	283.06	22.06	-46.1	-47.2	15.1	0.00e+00	0	26	0	2912944128	57	4335
2026-01-06 05:10:18.37	282.88	21.96	-46.2	-47.3	15.1	0.00e+00	0	26	0	2919235584	57	4375
2026-01-06 05:10:19.36	282.70	21.86	-46.1	-47.2	15.1	0.00e+00	0	26	0	2924478464	57	4307
2026-01-06 05:10:20.36	282.51	21.75	-46.1	-47.3	15.1	0.00e+00	0	26	0	2929721344	57	4341
2026-01-06 05:10:21.36	282.33	21.65	-46.3	-47.4	15.1	0.00e+00	0	26	0	2936012800	57	4411
2026-01-06 05:10:22.37	282.15	21.55	-46.2	-47.3	15.1	0.00e+00	0	26	0	2941255680	57	4346
2026-01-06 05:10:23.36	281.98	21.45	-46.1	-47.2	15.1	0.00e+00	0	26	0	2946498560	57	4301
2026-01-06 05:10:24.36	281.80	21.35	-46.2	-47.2	15.1	0.00e+00	0	26	0	2952790016	57	4340
2026-01-06 05:10:25.36	281.62	21.24	-46.1	-47.2	15.1	0.00e+00	0	26	0	2958032896	57	4336
2026-01-06 05:10:26.36	281.45	21.14	-46.1	-47.2	15.1	0.00e+00	0	26	0	2964324352	57	4330
2026-01-06 05:10:27.36	281.27	21.04	-46.2	-47.3	15.1	0.00e+00	0	26	0	2969567232	57	4367
2026-01-06 05:10:28.36	281.10	20.94	-46.2	-47.3	15.1	0.00e+00	0	26	0	2974810112	57	4391
2026-01-06 05:10:29.36	280.93	20.84	-46.2	-47.3	15.1	0.00e+00	0	26	0	2981101568	57	4344
2026-01-06 05:10:30.36	280.76	20.74	-46.1	-47.2	15.1	0.00e+00	0	26	0	2986344448	57	4304
2026-01-06 05:10:31.36	280.59	20.64	-46.1	-47.2	15.1	0.00e+00	0	26	0	2991587328	57	4311
2026-01-06 05:10:32.37	280.42	20.53	-46.0	-47.1	15.1	0.00e+00	0	26	0	2997878784	57	4289
2026-01-06 05:10:33.37	280.25	20.43	-46.0	-47.1	15.1	0.00e+00	0	26	0	3003121664	57	4287
2026-01-06 05:10:34.37	280.09	20.33	-46.1	-47.2	15.1	0.00e+00	0	26	0	3008364544	57	4303
2026-01-06 05:10:35.37	279.92	20.23	-46.2	-47.3	15.1	0.00e+00	0	26	0	3014656000	57	4349
2026-01-06 05:10:36.36	279.76	20.13	-46.2	-47.3	15.1	0.00e+00	0	26	0	3019898880	57	4369
2026-01-06 05:10:37.36	279.60	20.03	-46.2	-47.3	15.0	0.00e+00	0	26	0	3026190336	57	4386
2026-01-06 05:10:38.35	279.44	19.93	-46.3	-47.4	15.0	0.00e+00	0	26	0	3031433216	57	4408
2026-01-06 05:10:39.35	279.28	19.83	-46.3	-47.4	15.0	0.00e+00	0	26	0	3036676096	57	4415
2026-01-06 05:10:40.35	279.12	19.74	-46.3	-47.4	15.0	0.00e+00	0	26	0	3042967552	57	4419
2026-01-06 05:10:41.35	278.96	19.64	-46.4	-47.5	15.0	0.00e+00	0	26	0	3048210432	57	4457
2026-01-06 05:10:42.34	278.80	19.54	-46.5	-47.6	15.0	0.00e+00	0	26	0	3053453312	58	4285
2026-01-06 05:10:43.34	278.65	19.44	-46.5	-47.7	15.1	0.00e+00	0	26	0	3058696192	58	4297
2026-01-06 05:10:44.33	278.49	19.34	-46.5	-47.7	15.0	0.00e+00	0	26	0	3064987648	58	4296
2026-01-06 05:10:45.33	278.34	19.24	-46.7	-47.8	15.0	0.00e+00	0	26	0	3070230528	58	4375
2026-01-06 05:10:46.32	278.19	19.14	-46.7	-47.8	15.0	0.00e+00	0	26	0	3076521984	58	4371
2026-01-06 05:10:47.31	278.04	19.05	-46.6	-47.7	15.0	0.00e+00	0	26	0	3081764864	58	4337
2026-01-06 05:10:48.31	277.89	18.95	-46.6	-47.8	15.0	0.00e+00	0	26	0	3087007744	58	4346
2026-01-06 05:10:49.31	277.74	18.85	-46.7	-47.9	15.0	0.00e+00	0	26	0	3093299200	58	4402
2026-01-06 05:10:50.30	277.59	18.75	-46.7	-47.8	15.0	0.00e+00	0	26	0	3098542080	58	4381
2026-01-06 05:10:51.30	277.44	18.66	-46.6	-47.7	15.0	0.00e+00	0	26	0	3103784960	58	4312
2026-01-06 05:10:52.30	277.29	18.56	-46.5	-47.7	15.0	0.00e+00	0	26	0	3110076416	58	4293
2026-01-06 05:10:53.30	277.15	18.46	-46.7	-47.8	15.0	0.00e+00	0	26	0	3115319296	58	4354
2026-01-06 05:10:54.30	277.00	18.36	-46.7	-47.9	15.0	0.00e+00	0	26	0	3120562176	58	4399
2026-01-06 05:10:55.30	276.86	18.27	-46.7	-47.8	15.0	0.00e+00	0	26	0	3126853632	58	4390
2026-01-06 05:10:56.28	276.72	18.17	-46.8	-47.9	15.0	0.00e+00	0	26	0	3132096512	58	4440
2026-01-06 05:10:57.28	276.57	18.08	-46.9	-48.0	15.0	0.00e+00	0	26	0	3137339392	58	4478
2026-01-06 05:10:58.28	276.43	17.98	-46.9	-48.1	14.9	0.00e+00	0	26	0	3143630848	58	4502
2026-01-06 05:10:59.27	276.29	17.88	-46.9	-48.1	15.0	0.00e+00	0	26	0	3148873728	59	4245
2026-01-06 05:11:00.27	276.15	17.79	-47.0	-48.2	15.0	0.00e+00	0	26	0	3154116608	59	4324
2026-01-06 05:11:01.27	276.01	17.69	-47.1	-48.2	15.0	0.00e+00	0	26	0	3160408064	59	4325
2026-01-06 05:11:02.27	275.88	17.60	-47.1	-48.3	15.0	0.00e+00	0	26	0	3165650944	59	4357
2026-01-06 05:11:03.27	275.74	17.50	-47.1	-48.3	15.0	0.00e+00	0	26	0	3170893824	59	4361
2026-01-06 05:11:04.27	275.60	17.41	-47.1	-48.2	15.0	0.00e+00	0	26	0	3177185280	59	4338
2026-01-06 05:11:05.26	275.47	17.31	-47.1	-48.3	15.0	0.00e+00	0	26	0	3182428160	59	4357
2026-01-06 05:11:06.26	275.33	17.22	-47.3	-48.5	14.9	0.00e+00	0	26	0	3188719616	59	4464
2026-01-06 05:11:07.25	275.20	17.12	-47.1	-48.2	15.1	0.00e+00	0	26	0	3193962496	60	4072
2026-01-06 05:11:08.25	275.07	17.03	-47.1	-48.2	15.1	0.00e+00	0	26	0	3199205376	60	4089
2026-01-06 05:11:09.25	274.94	16.94	-47.0	-48.1	15.1	0.00e+00	0	26	0	3205496832	60	4050
2026-01-06 05:11:10.24	274.81	16.84	-46.9	-48.1	15.1	0.00e+00	0	26	0	3210739712	60	4007
2026-01-06 05:11:11.24	274.67	16.75	-46.9	-48.1	15.1	0.00e+00	0	26	0	3215982592	60	4014
2026-01-06 05:11:12.24	274.55	16.65	-46.9	-48.0	15.1	0.00e+00	0	26	0	3221225472	60	4000
2026-01-06 05:11:13.24	274.42	16.56	-46.8	-47.9	15.2	0.00e+00	0	26	0	3227516928	60	3958
2026-01-06 05:11:14.24	274.29	16.47	-46.9	-48.0	15.1	0.00e+00	0	26	0	3232759808	60	3987
2026-01-06 05:11:15.23	274.16	16.38	-46.9	-48.1	15.1	0.00e+00	0	26	0	3239051264	60	4014
2026-01-06 05:11:16.24	274.04	16.28	-46.9	-48.0	15.1	0.00e+00	0	26	0	3244294144	60	3997
2026-01-06 05:11:17.23	273.91	16.19	-47.0	-48.1	15.1	0.00e+00	0	26	0	3249537024	60	4019
2026-01-06 05:11:18.23	273.79	16.10	-47.0	-48.2	15.1	0.00e+00	0	26	0	3255828480	60	4054
2026-01-06 05:11:19.23	273.66	16.01	-47.1	-48.2	15.1	0.00e+00	0	26	0	3261071360	60	4082
2026-01-06 05:11:20.23	273.54	15.91	-47.2	-48.4	15.0	0.00e+00	0	26	0	3266314240	60	4155
2026-01-06 05:11:21.23	273.42	15.82	-47.2	-48.3	15.0	0.00e+00	0	26	0	3272605696	60	4141
2026-01-06 05:11:22.23	273.29	15.73	-47.2	-48.3	15.0	0.00e+00	0	26	0	3277848576	60	4142
2026-01-06 05:11:23.22	273.18	15.64	-47.3	-48.5	15.0	0.00e+00	0	26	0	3283091456	60	4205
2026-01-06 05:11:24.23	273.05	15.55	-47.2	-48.4	15.0	0.00e+00	0	26	0	3289382912	60	4154
2026-01-06 05:11:25.22	272.94	15.46	-47.3	-48.5	15.0	0.00e+00	0	26	0	3294625792	60	4200
2026-01-06 05:11:26.20	272.82	15.37	-47.3	-48.4	15.0	0.00e+00	0	26	0	3300917248	60	4182
2026-01-06 05:11:27.46	272.67	15.26	-47.4	-48.5	14.9	0.00e+00	0	26	0	3306160128	60	4230
2026-01-06 05:11:28.22	272.58	15.19	-47.4	-48.5	14.9	0.00e+00	0	26	0	3310354432	60	4238
2026-01-06 05:11:29.51	272.43	15.07	-47.3	-48.5	15.0	0.00e+00	0	26	0	3317694464	60	4203
2026-01-06 05:11:30.22	272.35	15.01	-47.4	-48.6	14.9	0.00e+00	0	26	0	3321888768	60	4243
2026-01-06 05:11:31.50	272.20	14.89	-47.5	-48.7	14.9	0.00e+00	0	26	0	3329228800	60	4315
2026-01-06 05:11:32.22	272.12	14.83	-47.5	-48.7	14.9	0.00e+00	0	26	0	3332374528	60	4308
2026-01-06 05:11:33.52	271.97	14.71	-47.6	-48.8	14.9	0.00e+00	0	26	0	3339714560	60	4357
2026-01-06 05:11:34.23	271.89	14.65	-47.7	-48.9	14.8	0.00e+00	0	26	0	3343908864	60	4418
2026-01-06 05:11:35.52	271.75	14.54	-47.8	-49.0	14.8	0.00e+00	0	26	0	3351248896	60	4458
2026-01-06 05:11:36.23	271.67	14.47	-47.7	-48.9	14.8	0.00e+00	0	26	0	3355443200	60	4410
2026-01-06 05:11:37.51	271.53	14.36	-47.6	-48.8	14.8	0.00e+00	0	26	0	3362783232	60	4380
2026-01-06 05:11:38.23	271.45	14.30	-47.6	-48.8	14.8	0.00e+00	0	26	0	3366977536	60	4377
2026-01-06 05:11:39.52	271.31	14.18	-47.7	-48.8	14.8	0.00e+00	0	26	0	3374317568	60	4386
2026-01-06 05:11:40.23	271.23	14.12	-47.8	-49.0	14.8	0.00e+00	0	26	0	3377463296	60	4444
2026-01-06 05:11:41.52	271.09	14.01	-47.6	-48.8	14.8	0.00e+00	0	26	0	3384803328	60	4369
2026-01-06 05:11:42.24	271.01	13.94	-47.6	-48.8	14.8	0.00e+00	0	26	0	3388997632	60	4376
2026-01-06 05:11:43.53	270.87	13.83	-47.7	-48.9	14.8	0.00e+00	0	26	0	3396337664	60	4400
2026-01-06 05:11:44.24	270.80	13.77	-47.7	-48.9	14.8	0.00e+00	0	26	0	3400531968	60	4397
2026-01-06 05:11:45.53	270.66	13.66	-47.7	-48.9	14.8	0.00e+00	0	26	0	3407872000	60	4409
2026-01-06 05:11:46.24	270.59	13.60	-47.8	-49.0	14.8	0.00e+00	0	26	0	3412066304	60	4449
2026-01-06 05:11:47.53	270.45	13.49	-47.9	-49.1	14.7	0.00e+00	0	26	0	3418357760	60	4527
2026-01-06 05:11:48.24	270.38	13.43	-47.9	-49.1	14.8	0.00e+00	0	26	0	3422552064	61	4279
2026-01-06 05:11:49.54	270.25	13.31	-47.8	-49.0	14.9	0.00e+00	0	26	0	3429892096	61	4204
2026-01-06 05:11:50.26	270.17	13.25	-47.9	-49.1	14.8	0.00e+00	0	26	0	3434086400	61	4265
2026-01-06 05:11:51.54	270.04	13.14	-47.9	-49.1	14.8	0.00e+00	0	26	0	3441426432	61	4247
2026-01-06 05:11:52.25	269.97	13.08	-47.8	-49.0	14.9	0.00e+00	0	26	0	3445620736	61	4197
2026-01-06 05:11:53.56	269.84	12.97	-47.8	-49.0	14.9	0.00e+00	0	26	0	3452960768	61	4240
2026-01-06 05:11:54.29	269.76	12.91	-47.8	-49.0	14.9	0.00e+00	0	26	0	3457155072	61	4221
2026-01-06 05:11:55.57	269.64	12.80	-47.8	-49.0	14.9	0.00e+00	0	26	0	3464495104	61	4216
2026-01-06 05:11:56.29	269.57	12.74	-47.8	-49.0	14.9	0.00e+00	0	26	0	3467640832	61	4236
2026-01-06 05:11:57.57	269.44	12.63	-47.8	-49.0	14.9	0.00e+00	0	26	0	3474980864	61	4214
2026-01-06 05:11:58.32	269.37	12.57	-47.9	-49.1	14.8	0.00e+00	0	26	0	3479175168	61	4261
2026-01-06 05:11:59.60	269.24	12.46	-47.9	-49.2	14.8	0.00e+00	0	26	0	3486515200	61	4292
2026-01-06 05:12:00.32	269.17	12.40	-48.0	-49.2	14.8	0.00e+00	0	26	0	3490709504	61	4321
2026-01-06 05:12:01.59	269.05	12.30	-47.9	-49.1	14.8	0.00e+00	0	26	0	3498049536	61	4289
2026-01-06 05:12:02.34	268.98	12.23	-47.9	-49.1	14.8	0.00e+00	0	26	0	3502243840	61	4266
2026-01-06 05:12:03.62	268.86	12.13	-48.0	-49.3	14.8	0.00e+00	0	26	0	3509583872	61	4346
2026-01-06 05:12:04.34	268.79	12.07	-48.0	-49.2	14.8	0.00e+00	0	26	0	3513778176	61	4301
2026-01-06 05:12:05.63	268.67	11.96	-48.1	-49.3	14.7	0.00e+00	0	26	0	3521118208	61	4382
2026-01-06 05:12:06.35	268.60	11.90	-48.1	-49.3	14.7	0.00e+00	0	26	0	3525312512	61	4360
2026-01-06 05:12:07.64	268.48	11.80	-48.0	-49.3	14.8	0.00e+00	0	26	0	3531603968	61	4348
2026-01-06 05:12:08.37	268.42	11.74	-48.1	-49.3	14.7	0.00e+00	0	26	0	3535798272	61	4369
2026-01-06 05:12:09.66	268.30	11.63	-48.0	-49.2	14.8	0.00e+00	0	26	0	3543138304	61	4330
2026-01-06 05:12:10.38	268.23	11.57	-48.0	-49.2	14.8	0.00e+00	0	26	0	3547332608	61	4319
2026-01-06 05:12:11.66	268.12	11.47	-48.2	-49.4	14.7	0.00e+00	0	26	0	3554672640	61	4405
2026-01-06 05:12:12.38	268.05	11.41	-48.1	-49.4	14.7	0.00e+00	0	26	0	3558866944	61	4412
2026-01-06 05:12:13.67	267.94	11.31	-48.4	-49.6	14.6	0.00e+00	0	26	0	3566206976	61	4519
2026-01-06 05:12:14.39	267.87	11.25	-48.5	-49.8	14.7	0.00e+00	0	26	0	3570401280	62	4358
2026-01-06 05:12:15.68	267.76	11.14	-48.7	-50.0	14.6	0.00e+00	0	26	0	3576692736	62	4444
2026-01-06 05:12:16.40	267.69	11.09	-48.6	-49.9	14.6	0.00e+00	0	26	0	3581935616	62	4398
2026-01-06 05:12:17.69	267.58	10.98	-48.8	-50.1	14.5	0.00e+00	0	26	0	3588227072	62	4530
2026-01-06 05:12:18.40	267.52	10.93	-49.0	-50.3	14.6	0.00e+00	0	26	0	3592421376	63	4355
2026-01-06 05:12:19.70	267.41	10.82	-49.0	-50.3	14.5	0.00e+00	0	26	0	3599761408	63	4377
2026-01-06 05:12:20.42	267.34	10.77	-49.0	-50.3	14.5	0.00e+00	0	26	0	3603955712	63	4356
2026-01-06 05:12:21.70	267.23	10.66	-49.1	-50.4	14.5	0.00e+00	0	26	0	3611295744	63	4426
2026-01-06 05:12:22.46	267.17	10.60	-49.1	-50.5	14.5	0.00e+00	0	26	0	3615490048	63	4451
2026-01-06 05:12:23.73	267.06	10.50	-49.2	-50.5	14.4	0.00e+00	0	26	0	3622830080	63	4482
2026-01-06 05:12:24.46	267.00	10.45	-49.2	-50.6	14.4	0.00e+00	0	26	0	3627024384	63	4524
