passes_logs/2026/01/06/R3.2S_Murmansk/R3.2S_Murmansk__20260106_042030_NOAA_20_JPSS-1_rec.log

#Pass ID: 20260106_042030_NOAA 20 (JPSS-1)
#Satellite: NOAA 20 (JPSS-1)
#Configuration: NOAA 20
#almurnet v.1.7.20251203
#Start time: 2026-01-06 04:20:33

#Version: 2.2.20231116
#Station: R3.2S_Murmansk
#Location: 33.079688 lon 68.888172 lat
#TLE: 1 43013U 17073A   26005.46207808  .00000128  00000+0  81791-4 0  9997
#TLE: 2 43013  98.7627 306.5027 0001826  53.0458 307.0885 14.19533487421381

#Time	Az	El	Level	Level2	SNR	BER	BlckErr	Temp	State	Recorded	gain1	gain2
2026-01-06 04:20:33.15	50.92	2.13	-57.9	-73.9	3.8	1.49e+00	0	24	0	0	82	22214
2026-01-06 04:20:34.14	50.86	2.19	-57.8	-73.9	3.8	1.49e+00	0	24	104	0	80	24740
2026-01-06 04:20:35.14	50.80	2.24	-57.9	-73.8	3.8	1.49e+00	0	24	104	0	80	24690
2026-01-06 04:20:36.14	50.74	2.30	-57.8	-73.9	3.8	1.49e+00	0	24	104	0	80	24702
2026-01-06 04:20:37.13	50.68	2.36	-57.9	-73.9	3.8	1.49e+00	0	24	104	0	80	24780
2026-01-06 04:20:38.13	50.61	2.42	-57.9	-73.9	3.8	1.49e+00	0	24	104	0	80	24763
2026-01-06 04:20:39.12	50.55	2.47	-57.8	-73.8	3.8	1.49e+00	0	24	104	0	80	24684
2026-01-06 04:20:40.11	50.49	2.53	-57.8	-73.8	3.8	1.49e+00	0	24	104	0	80	24675
2026-01-06 04:20:41.12	50.42	2.59	-57.8	-73.8	3.8	1.49e+00	0	25	104	0	80	24675
2026-01-06 04:20:42.10	50.36	2.65	-57.8	-73.8	3.8	1.49e+00	0	25	104	0	80	24693
2026-01-06 04:20:43.10	50.29	2.71	-57.8	-73.8	3.8	1.49e+00	0	24	104	0	80	24682
2026-01-06 04:20:44.09	50.23	2.76	-57.8	-73.9	3.8	1.49e+00	0	24	104	0	80	24726
2026-01-06 04:20:45.10	50.17	2.82	-57.8	-73.9	3.8	1.49e+00	0	24	104	0	80	24702
2026-01-06 04:20:46.09	50.10	2.88	-57.8	-73.8	3.8	1.49e+00	0	25	104	0	80	24692
2026-01-06 04:20:47.09	50.04	2.94	-57.8	-73.8	3.8	1.49e+00	0	24	104	0	80	24671
2026-01-06 04:20:48.08	49.97	3.00	-57.9	-73.9	3.8	1.49e+00	0	25	104	0	80	24703
2026-01-06 04:20:49.08	49.90	3.05	-57.9	-73.9	3.8	1.49e+00	0	25	104	0	80	24760
2026-01-06 04:20:50.08	49.84	3.11	-57.8	-73.9	3.8	1.49e+00	0	25	104	0	80	24752
2026-01-06 04:20:51.08	49.77	3.17	-57.8	-73.9	3.8	1.49e+00	0	25	104	0	80	24748
2026-01-06 04:20:52.08	49.70	3.23	-57.8	-73.8	3.8	1.49e+00	0	25	104	0	80	24665
2026-01-06 04:20:53.08	49.64	3.29	-57.8	-73.8	3.8	1.49e+00	0	25	104	0	80	24623
2026-01-06 04:20:54.07	49.57	3.35	-57.8	-73.8	3.8	1.49e+00	0	25	104	0	80	24646
2026-01-06 04:20:55.07	49.50	3.41	-57.9	-73.8	3.8	1.49e+00	0	25	104	0	80	24619
2026-01-06 04:20:56.07	49.43	3.47	-57.9	-73.8	3.8	1.49e+00	0	25	104	0	80	24664
2026-01-06 04:20:57.06	49.37	3.52	-57.9	-73.8	3.8	1.49e+00	0	25	104	0	80	24658
2026-01-06 04:20:58.07	49.30	3.58	-57.9	-73.9	3.8	1.49e+00	0	25	104	0	80	24704
2026-01-06 04:20:59.07	49.23	3.64	-57.8	-73.9	3.8	1.49e+00	0	25	104	0	80	24705
2026-01-06 04:21:00.06	49.16	3.70	-57.9	-73.9	3.8	1.49e+00	0	25	104	0	80	24755
2026-01-06 04:21:01.06	49.09	3.76	-57.9	-73.8	3.8	1.49e+00	0	25	104	0	80	24686
2026-01-06 04:21:02.07	49.02	3.82	-57.9	-73.8	3.8	1.49e+00	0	25	104	0	80	24616
2026-01-06 04:21:03.08	48.95	3.88	-57.9	-73.8	3.9	1.49e+00	0	25	104	0	80	24482
2026-01-06 04:21:04.07	48.88	3.94	-57.9	-73.8	3.8	1.49e+00	0	25	104	0	80	24465
2026-01-06 04:21:05.07	48.81	4.00	-57.9	-73.8	3.8	1.49e+00	0	25	104	0	80	24524
2026-01-06 04:21:06.06	48.74	4.06	-57.9	-73.8	3.8	1.49e+00	0	25	104	0	80	24651
2026-01-06 04:21:07.06	48.67	4.12	-57.9	-73.9	3.8	1.49e+00	0	25	104	0	80	24784
2026-01-06 04:21:08.06	48.60	4.18	-57.9	-73.9	3.8	1.49e+00	0	25	104	0	80	24751
2026-01-06 04:21:09.06	48.52	4.24	-57.8	-73.7	3.8	1.49e+00	0	25	104	0	80	24335
2026-01-06 04:21:10.06	48.45	4.30	-57.8	-73.5	3.8	1.49e+00	0	25	104	0	80	23730
2026-01-06 04:21:11.07	48.38	4.37	-57.8	-72.9	3.8	1.49e+00	0	25	104	0	80	22149
2026-01-06 04:21:12.07	48.31	4.43	-57.8	-72.6	3.8	1.49e+00	0	25	104	0	80	21343
2026-01-06 04:21:13.08	48.23	4.49	-57.8	-71.9	3.8	1.49e+00	0	25	104	0	80	19725
2026-01-06 04:21:14.07	48.16	4.55	-57.7	-71.1	3.9	1.48e+00	0	25	104	0	80	17939
2026-01-06 04:21:15.07	48.09	4.61	-57.7	-70.1	4.3	1.40e+00	0	25	0	0	80	15954
2026-01-06 04:21:16.08	48.01	4.67	-57.6	-69.4	4.5	1.34e+00	14	25	0	0	80	14744
2026-01-06 04:21:17.08	47.94	4.73	-57.6	-68.4	4.9	8.00e-01	0	25	0	2097152	80	13206
2026-01-06 04:21:18.09	47.86	4.79	-57.5	-67.9	5.1	6.27e-01	0	25	0	4194304	80	12451
2026-01-06 04:21:19.09	47.79	4.85	-57.4	-66.8	5.8	4.80e-01	0	25	0	6291456	80	10987
2026-01-06 04:21:20.10	47.71	4.92	-57.4	-66.6	5.9	3.13e-01	0	25	0	7340032	80	10742
2026-01-06 04:21:21.10	47.63	4.98	-57.3	-66.4	6.1	3.10e-01	0	25	0	9437184	80	10424
2026-01-06 04:21:22.10	47.56	5.04	-57.3	-65.9	6.4	2.13e-01	0	25	0	11534336	80	9896
2026-01-06 04:21:23.11	47.48	5.10	-57.4	-65.4	6.8	1.39e-01	0	25	0	13631488	80	9383
2026-01-06 04:21:24.11	47.40	5.16	-56.2	-61.2	10.5	3.05e-03	0	25	0	15728640	78	6426
2026-01-06 04:21:25.11	47.33	5.23	-57.7	-71.8	3.8	6.61e-01	0	25	104	16777216	80	19542
2026-01-06 04:21:26.12	47.25	5.29	-57.6	-67.3	5.4	4.75e-01	0	25	0	17825792	80	11682
2026-01-06 04:21:27.12	47.17	5.35	-56.2	-61.2	10.4	2.26e-04	0	26	0	18874368	78	6460
2026-01-06 04:21:28.12	47.09	5.41	-55.7	-60.0	11.4	1.02e-04	0	25	0	20971520	78	5628
2026-01-06 04:21:29.12	47.01	5.47	-55.6	-59.7	11.6	3.73e-05	0	25	0	23068672	77	5741
2026-01-06 04:21:30.13	46.93	5.54	-55.1	-58.7	12.2	4.50e-06	0	25	0	25165824	76	5422
2026-01-06 04:21:31.12	46.86	5.60	-55.0	-58.6	12.3	0.00e+00	0	25	0	27262976	76	5372
2026-01-06 04:21:32.13	46.78	5.66	-54.9	-58.3	12.6	7.00e-07	0	25	0	28311552	76	5193
2026-01-06 04:21:33.13	46.70	5.73	-54.9	-58.2	12.6	7.00e-07	0	25	0	30408704	76	5156
2026-01-06 04:21:34.13	46.62	5.79	-54.8	-58.1	12.7	0.00e+00	0	26	0	32505856	76	5098
2026-01-06 04:21:35.13	46.53	5.85	-54.7	-57.9	12.9	0.00e+00	0	26	0	34603008	76	4941
2026-01-06 04:21:36.13	46.45	5.91	-54.7	-57.9	12.9	0.00e+00	0	25	0	36700160	76	4934
2026-01-06 04:21:37.13	46.37	5.98	-54.5	-57.7	12.9	0.00e+00	0	25	0	37748736	75	5138
2026-01-06 04:21:38.12	46.29	6.04	-54.4	-57.5	13.0	0.00e+00	0	26	0	39845888	75	5002
2026-01-06 04:21:39.13	46.21	6.10	-54.5	-57.6	13.0	0.00e+00	0	26	0	41943040	75	5059
2026-01-06 04:21:40.13	46.13	6.17	-54.6	-57.7	12.8	0.00e+00	0	25	0	44040192	75	5140
2026-01-06 04:21:41.12	46.04	6.23	-54.6	-57.7	12.9	0.00e+00	0	26	0	45088768	75	5146
2026-01-06 04:21:42.12	45.96	6.29	-54.6	-57.7	12.8	0.00e+00	0	26	0	47185920	75	5154
2026-01-06 04:21:43.12	45.88	6.36	-54.6	-57.8	12.9	0.00e+00	0	26	0	49283072	75	5171
2026-01-06 04:21:44.12	45.79	6.42	-54.5	-57.6	13.0	7.00e-07	0	26	0	51380224	75	5058
2026-01-06 04:21:45.11	45.71	6.48	-54.5	-57.6	13.0	0.00e+00	0	26	0	53477376	75	5068
2026-01-06 04:21:46.10	45.63	6.55	-54.6	-57.8	12.8	0.00e+00	0	26	0	54525952	75	5184
2026-01-06 04:21:47.10	45.54	6.61	-54.6	-57.6	12.9	0.00e+00	0	26	0	56623104	75	5097
2026-01-06 04:21:48.09	45.46	6.67	-54.5	-57.6	13.0	0.00e+00	0	26	0	58720256	75	5091
2026-01-06 04:21:49.08	45.37	6.74	-54.6	-57.7	12.9	0.00e+00	0	26	0	60817408	75	5140
2026-01-06 04:21:50.09	45.28	6.80	-54.5	-57.6	13.0	0.00e+00	0	26	0	61865984	75	5042
2026-01-06 04:21:51.08	45.20	6.87	-54.6	-57.7	12.9	0.00e+00	0	26	0	63963136	75	5101
2026-01-06 04:21:52.09	45.11	6.93	-54.5	-57.6	13.0	0.00e+00	0	26	0	66060288	75	5057
2026-01-06 04:21:53.08	45.02	6.99	-54.4	-57.4	13.1	0.00e+00	0	26	0	68157440	75	4952
2026-01-06 04:21:54.09	44.93	7.06	-54.5	-57.5	13.0	0.00e+00	0	26	0	70254592	75	5023
2026-01-06 04:21:55.09	44.85	7.12	-54.5	-57.5	13.1	0.00e+00	0	26	0	71303168	75	4996
2026-01-06 04:21:56.09	44.76	7.19	-54.5	-57.5	13.1	0.00e+00	0	26	0	73400320	75	4999
2026-01-06 04:21:57.09	44.67	7.25	-54.4	-57.3	13.2	7.00e-07	0	26	0	75497472	75	4894
2026-01-06 04:21:58.09	44.58	7.32	-54.4	-57.3	13.2	0.00e+00	0	26	0	77594624	75	4882
2026-01-06 04:21:59.10	44.49	7.39	-54.4	-57.3	13.2	0.00e+00	0	26	0	79691776	75	4896
2026-01-06 04:22:00.10	44.40	7.45	-54.3	-57.2	13.3	0.00e+00	0	26	0	80740352	75	4834
2026-01-06 04:22:01.10	44.31	7.52	-54.4	-57.3	13.2	0.00e+00	0	26	0	82837504	75	4888
2026-01-06 04:22:02.10	44.22	7.58	-54.3	-57.2	13.3	0.00e+00	0	26	0	84934656	75	4821
2026-01-06 04:22:03.11	44.12	7.65	-54.5	-57.4	13.2	0.00e+00	0	26	0	87031808	75	4945
2026-01-06 04:22:04.11	44.03	7.71	-54.5	-57.4	13.2	0.00e+00	0	26	0	89128960	75	4948
2026-01-06 04:22:05.12	43.94	7.78	-54.5	-57.4	13.1	0.00e+00	0	26	0	90177536	75	4979
2026-01-06 04:22:06.12	43.84	7.85	-54.5	-57.4	13.2	0.00e+00	0	26	0	92274688	75	4959
2026-01-06 04:22:07.12	43.75	7.91	-54.3	-57.1	13.3	0.00e+00	0	26	0	94371840	75	4806
2026-01-06 04:22:08.13	43.66	7.98	-54.3	-57.1	13.4	0.00e+00	0	26	0	96468992	75	4770
2026-01-06 04:22:09.12	43.56	8.04	-54.4	-57.3	13.3	0.00e+00	0	26	0	98566144	75	4879
2026-01-06 04:22:10.13	43.47	8.11	-54.4	-57.4	13.2	0.00e+00	0	26	0	99614720	75	4931
2026-01-06 04:22:11.12	43.37	8.18	-54.5	-57.5	13.1	0.00e+00	0	26	0	101711872	75	5023
2026-01-06 04:22:12.12	43.28	8.24	-54.4	-57.3	13.2	0.00e+00	0	26	0	103809024	75	4920
2026-01-06 04:22:13.12	43.18	8.31	-54.4	-57.2	13.3	0.00e+00	0	26	0	105906176	75	4836
2026-01-06 04:22:14.12	43.08	8.38	-54.4	-57.2	13.3	0.00e+00	0	26	0	106954752	75	4863
2026-01-06 04:22:15.12	42.99	8.44	-54.4	-57.2	13.3	0.00e+00	0	26	0	109051904	75	4848
2026-01-06 04:22:16.12	42.89	8.51	-54.4	-57.3	13.2	0.00e+00	0	26	0	111149056	75	4910
2026-01-06 04:22:17.12	42.79	8.58	-54.5	-57.4	13.2	0.00e+00	0	26	0	113246208	75	4978
2026-01-06 04:22:18.12	42.69	8.64	-54.4	-57.2	13.3	0.00e+00	0	26	0	115343360	75	4841
2026-01-06 04:22:19.12	42.59	8.71	-54.4	-57.2	13.3	0.00e+00	0	26	0	116391936	75	4840
2026-01-06 04:22:20.12	42.49	8.78	-54.4	-57.2	13.4	0.00e+00	0	26	0	118489088	75	4837
2026-01-06 04:22:21.12	42.40	8.84	-54.4	-57.2	13.4	0.00e+00	0	26	0	120586240	75	4825
2026-01-06 04:22:22.12	42.29	8.91	-54.4	-57.2	13.4	0.00e+00	0	26	0	122683392	75	4834
2026-01-06 04:22:23.13	42.19	8.98	-54.2	-57.0	13.5	0.00e+00	0	26	0	124780544	75	4713
2026-01-06 04:22:24.13	42.09	9.05	-54.3	-57.1	13.4	0.00e+00	0	26	0	125829120	75	4797
2026-01-06 04:22:25.13	41.99	9.12	-54.4	-57.3	13.3	0.00e+00	0	26	0	127926272	75	4871
2026-01-06 04:22:26.13	41.89	9.18	-54.4	-57.3	13.3	0.00e+00	0	26	0	130023424	75	4884
2026-01-06 04:22:27.14	41.78	9.25	-54.3	-57.1	13.4	0.00e+00	0	26	0	132120576	75	4802
2026-01-06 04:22:28.14	41.68	9.32	-54.1	-56.7	13.5	0.00e+00	0	26	0	134217728	74	4851
2026-01-06 04:22:29.13	41.58	9.39	-54.0	-56.6	13.6	0.00e+00	0	26	0	135266304	74	4772
2026-01-06 04:22:30.14	41.47	9.46	-54.1	-56.7	13.6	0.00e+00	0	26	0	137363456	74	4831
2026-01-06 04:22:31.13	41.37	9.52	-54.0	-56.6	13.6	0.00e+00	0	26	0	139460608	74	4773
2026-01-06 04:22:32.13	41.26	9.59	-53.9	-56.4	13.7	0.00e+00	0	26	0	141557760	74	4679
2026-01-06 04:22:33.13	41.16	9.66	-53.9	-56.4	13.7	0.00e+00	0	26	0	142606336	74	4663
2026-01-06 04:22:34.13	41.05	9.73	-53.9	-56.4	13.8	0.00e+00	0	26	0	144703488	74	4661
2026-01-06 04:22:35.13	40.95	9.80	-53.8	-56.3	13.8	0.00e+00	0	26	0	146800640	74	4625
2026-01-06 04:22:36.12	40.84	9.86	-53.9	-56.4	13.7	0.00e+00	0	26	0	148897792	74	4677
2026-01-06 04:22:37.12	40.73	9.93	-53.8	-56.3	13.8	0.00e+00	0	26	0	150994944	74	4633
2026-01-06 04:22:38.12	40.62	10.00	-53.9	-56.4	13.8	0.00e+00	0	26	0	152043520	74	4671
2026-01-06 04:22:39.11	40.52	10.07	-53.9	-56.4	13.7	0.00e+00	0	26	0	154140672	74	4702
2026-01-06 04:22:40.11	40.41	10.14	-54.0	-56.5	13.6	0.00e+00	0	26	0	156237824	74	4748
2026-01-06 04:22:41.10	40.30	10.21	-54.0	-56.5	13.6	0.00e+00	0	26	0	158334976	74	4740
2026-01-06 04:22:42.10	40.19	10.28	-54.0	-56.5	13.7	0.00e+00	0	26	0	160432128	74	4746
2026-01-06 04:22:43.10	40.08	10.35	-54.0	-56.5	13.7	0.00e+00	0	26	0	161480704	74	4744
2026-01-06 04:22:44.10	39.96	10.42	-54.0	-56.6	13.6	0.00e+00	0	26	0	163577856	74	4772
2026-01-06 04:22:45.09	39.85	10.48	-54.0	-56.5	13.7	0.00e+00	0	26	0	165675008	74	4755
2026-01-06 04:22:46.09	39.74	10.55	-54.0	-56.5	13.7	0.00e+00	0	26	0	167772160	74	4738
2026-01-06 04:22:47.09	39.63	10.62	-54.1	-56.6	13.6	0.00e+00	0	26	0	168820736	74	4812
2026-01-06 04:22:48.09	39.51	10.69	-54.0	-56.6	13.6	0.00e+00	0	26	0	170917888	74	4780
2026-01-06 04:22:49.08	39.40	10.76	-54.1	-56.7	13.6	0.00e+00	0	26	0	173015040	74	4850
2026-01-06 04:22:50.08	39.29	10.83	-54.2	-56.9	13.5	0.00e+00	0	26	0	175112192	74	4948
2026-01-06 04:22:51.07	39.17	10.90	-54.1	-56.7	13.6	0.00e+00	0	26	0	177209344	74	4835
2026-01-06 04:22:52.08	39.05	10.97	-54.1	-56.7	13.6	0.00e+00	0	26	0	178257920	74	4864
2026-01-06 04:22:53.08	38.94	11.04	-54.1	-56.7	13.6	0.00e+00	0	26	0	180355072	74	4840
2026-01-06 04:22:54.09	38.82	11.11	-54.1	-56.7	13.6	0.00e+00	0	26	0	182452224	74	4855
2026-01-06 04:22:55.08	38.70	11.18	-54.1	-56.7	13.6	0.00e+00	0	26	0	184549376	74	4868
2026-01-06 04:22:56.08	38.58	11.25	-54.1	-56.8	13.6	0.00e+00	0	26	0	185597952	74	4873
2026-01-06 04:22:57.08	38.47	11.32	-54.0	-56.5	13.7	0.00e+00	0	26	0	187695104	74	4744
2026-01-06 04:22:58.08	38.35	11.40	-54.0	-56.5	13.7	0.00e+00	0	26	0	189792256	74	4757
2026-01-06 04:22:59.08	38.23	11.47	-54.0	-56.5	13.7	0.00e+00	0	26	0	191889408	74	4747
2026-01-06 04:23:00.08	38.11	11.54	-53.9	-56.4	13.8	0.00e+00	0	26	0	193986560	74	4656
2026-01-06 04:23:01.08	37.98	11.61	-54.0	-56.5	13.7	0.00e+00	0	26	0	195035136	74	4720
2026-01-06 04:23:02.08	37.86	11.68	-53.9	-56.4	13.8	0.00e+00	0	26	0	197132288	74	4681
2026-01-06 04:23:03.09	37.74	11.75	-53.8	-56.3	13.8	0.00e+00	0	26	0	199229440	74	4612
2026-01-06 04:23:04.09	37.62	11.82	-53.9	-56.4	13.8	0.00e+00	0	26	0	201326592	74	4672
2026-01-06 04:23:05.09	37.49	11.89	-53.9	-56.3	13.8	0.00e+00	0	26	0	203423744	74	4641
2026-01-06 04:23:06.08	37.37	11.96	-53.8	-56.2	13.9	0.00e+00	0	26	0	204472320	74	4595
2026-01-06 04:23:07.08	37.24	12.03	-53.8	-56.2	13.9	0.00e+00	0	26	0	206569472	74	4597
2026-01-06 04:23:08.09	37.12	12.11	-53.9	-56.3	13.9	0.00e+00	0	26	0	208666624	74	4620
2026-01-06 04:23:09.08	36.99	12.18	-53.8	-56.3	13.9	0.00e+00	0	26	0	210763776	74	4603
2026-01-06 04:23:10.09	36.86	12.25	-53.8	-56.1	13.9	0.00e+00	0	26	0	212860928	74	4542
2026-01-06 04:23:11.09	36.74	12.32	-53.8	-56.2	13.9	0.00e+00	0	26	0	213909504	74	4548
2026-01-06 04:23:12.09	36.61	12.39	-53.7	-56.1	14.0	0.00e+00	0	26	0	216006656	74	4498
2026-01-06 04:23:13.08	36.48	12.46	-53.6	-56.0	13.9	0.00e+00	0	26	0	218103808	73	4710
2026-01-06 04:23:14.08	36.35	12.53	-53.4	-55.7	14.0	0.00e+00	0	26	0	220200960	73	4585
2026-01-06 04:23:15.08	36.22	12.61	-53.5	-55.8	14.0	0.00e+00	0	26	0	221249536	73	4605
2026-01-06 04:23:16.08	36.09	12.68	-53.4	-55.7	14.1	0.00e+00	0	26	0	223346688	73	4553
2026-01-06 04:23:17.08	35.96	12.75	-53.6	-55.8	14.0	0.00e+00	0	26	0	225443840	73	4648
2026-01-06 04:23:18.08	35.83	12.82	-53.5	-55.7	14.1	0.00e+00	0	26	0	227540992	73	4575
2026-01-06 04:23:19.08	35.70	12.89	-53.5	-55.8	14.0	0.00e+00	0	26	0	229638144	73	4606
2026-01-06 04:23:20.08	35.56	12.97	-53.4	-55.7	14.1	0.00e+00	0	26	0	230686720	73	4573
2026-01-06 04:23:21.08	35.43	13.04	-53.5	-55.8	14.0	0.00e+00	0	26	0	232783872	73	4638
2026-01-06 04:23:22.08	35.29	13.11	-53.5	-55.8	14.0	0.00e+00	0	26	0	234881024	73	4623
2026-01-06 04:23:23.09	35.16	13.18	-53.5	-55.8	14.0	0.00e+00	0	26	0	236978176	73	4599
2026-01-06 04:23:24.09	35.02	13.26	-53.5	-55.7	14.0	0.00e+00	0	26	0	239075328	73	4584
2026-01-06 04:23:25.08	34.89	13.33	-53.5	-55.7	14.1	0.00e+00	0	26	0	240123904	73	4598
2026-01-06 04:23:26.08	34.75	13.40	-53.4	-55.6	14.1	0.00e+00	0	26	0	242221056	73	4539
2026-01-06 04:23:27.08	34.61	13.47	-53.4	-55.6	14.1	0.00e+00	0	26	0	244318208	73	4514
2026-01-06 04:23:28.07	34.47	13.54	-53.4	-55.6	14.1	0.00e+00	0	26	0	246415360	73	4522
2026-01-06 04:23:29.07	34.33	13.62	-53.4	-55.6	14.2	0.00e+00	0	26	0	248512512	73	4505
2026-01-06 04:23:30.07	34.19	13.69	-53.4	-55.6	14.2	0.00e+00	0	26	0	249561088	73	4496
2026-01-06 04:23:31.07	34.05	13.76	-53.3	-55.4	14.2	0.00e+00	0	26	0	251658240	73	4436
2026-01-06 04:23:32.07	33.91	13.83	-53.3	-55.4	14.2	0.00e+00	0	26	0	253755392	73	4422
2026-01-06 04:23:33.07	33.77	13.91	-53.2	-55.3	14.2	0.00e+00	0	26	0	255852544	72	4630
2026-01-06 04:23:34.06	33.63	13.98	-53.3	-55.5	14.1	0.00e+00	0	26	0	256901120	72	4734
2026-01-06 04:23:35.06	33.48	14.05	-53.3	-55.4	14.1	0.00e+00	0	26	0	258998272	72	4694
2026-01-06 04:23:36.06	33.34	14.12	-53.3	-55.4	14.1	0.00e+00	0	26	0	261095424	72	4704
2026-01-06 04:23:37.05	33.20	14.20	-53.3	-55.5	14.1	0.00e+00	0	26	0	263192576	72	4751
2026-01-06 04:23:38.05	33.05	14.27	-53.3	-55.4	14.1	0.00e+00	0	26	0	265289728	72	4702
2026-01-06 04:23:39.05	32.90	14.34	-53.1	-55.2	14.2	0.00e+00	0	26	0	266338304	72	4585
2026-01-06 04:23:40.04	32.76	14.41	-53.0	-55.1	14.3	0.00e+00	0	26	0	268435456	72	4498
2026-01-06 04:23:41.04	32.61	14.49	-53.1	-55.2	14.3	0.00e+00	0	26	0	270532608	72	4547
2026-01-06 04:23:42.05	32.46	14.56	-53.0	-55.1	14.3	0.00e+00	0	26	0	272629760	72	4528
2026-01-06 04:23:43.05	32.31	14.63	-53.0	-55.1	14.3	0.00e+00	0	26	0	274726912	72	4536
2026-01-06 04:23:44.04	32.16	14.71	-53.1	-55.2	14.2	0.00e+00	0	26	0	275775488	72	4587
2026-01-06 04:23:45.04	32.01	14.78	-53.1	-55.1	14.3	0.00e+00	0	26	0	277872640	72	4542
2026-01-06 04:23:46.03	31.86	14.85	-53.0	-55.1	14.3	0.00e+00	0	26	0	279969792	72	4497
2026-01-06 04:23:47.03	31.71	14.92	-53.2	-55.3	14.2	0.00e+00	0	26	0	282066944	72	4608
2026-01-06 04:23:48.02	31.56	15.00	-53.3	-55.5	14.1	0.00e+00	0	26	0	283115520	72	4711
2026-01-06 04:23:49.02	31.40	15.07	-53.4	-55.6	14.0	0.00e+00	0	26	0	285212672	72	4769
2026-01-06 04:23:50.02	31.25	15.14	-53.3	-55.4	14.1	0.00e+00	0	26	0	287309824	72	4685
2026-01-06 04:23:51.02	31.09	15.22	-53.3	-55.5	14.1	0.00e+00	0	26	0	289406976	72	4711
2026-01-06 04:23:52.01	30.94	15.29	-53.3	-55.5	14.1	0.00e+00	0	26	0	291504128	72	4735
2026-01-06 04:23:53.01	30.78	15.36	-53.4	-55.5	14.1	0.00e+00	0	26	0	292552704	72	4750
2026-01-06 04:23:54.00	30.62	15.43	-53.4	-55.5	14.1	0.00e+00	0	26	0	294649856	72	4756
2026-01-06 04:23:55.00	30.47	15.51	-53.3	-55.5	14.1	0.00e+00	0	26	0	296747008	72	4707
2026-01-06 04:23:56.00	30.31	15.58	-53.4	-55.6	14.1	0.00e+00	0	26	0	298844160	72	4769
2026-01-06 04:23:56.99	30.15	15.65	-53.4	-55.6	14.0	0.00e+00	0	26	0	299892736	72	4768
2026-01-06 04:23:57.99	29.99	15.73	-53.4	-55.5	14.1	0.00e+00	0	26	0	301989888	72	4749
2026-01-06 04:23:58.98	29.83	15.80	-53.3	-55.5	14.1	0.00e+00	0	26	0	304087040	72	4720
2026-01-06 04:23:59.98	29.66	15.87	-53.4	-55.6	14.0	0.00e+00	0	26	0	306184192	72	4805
2026-01-06 04:24:00.98	29.50	15.94	-53.5	-55.7	14.0	0.00e+00	0	26	0	308281344	72	4847
2026-01-06 04:24:01.97	29.34	16.02	-53.5	-55.8	13.9	0.00e+00	0	26	0	309329920	72	4873
2026-01-06 04:24:02.98	29.17	16.09	-53.4	-55.6	14.0	0.00e+00	0	26	0	311427072	72	4806
2026-01-06 04:24:03.98	29.00	16.16	-53.5	-55.7	14.0	0.00e+00	0	26	0	313524224	72	4850
2026-01-06 04:24:04.98	28.84	16.24	-53.5	-55.8	14.0	0.00e+00	0	26	0	315621376	72	4873
2026-01-06 04:24:05.98	28.67	16.31	-53.7	-56.0	13.9	0.00e+00	0	26	0	316669952	72	4984
2026-01-06 04:24:06.97	28.50	16.38	-53.6	-55.9	13.9	0.00e+00	0	26	0	318767104	72	4968
2026-01-06 04:24:07.97	28.33	16.45	-53.6	-55.8	13.9	0.00e+00	0	26	0	320864256	72	4913
2026-01-06 04:24:08.98	28.16	16.53	-53.5	-55.8	14.0	0.00e+00	0	26	0	322961408	72	4882
2026-01-06 04:24:09.97	27.99	16.60	-53.6	-55.8	13.9	0.00e+00	0	26	0	325058560	72	4899
2026-01-06 04:24:10.96	27.82	16.67	-53.6	-55.9	13.9	0.00e+00	0	26	0	326107136	72	4935
2026-01-06 04:24:11.97	27.65	16.75	-53.5	-55.8	14.0	0.00e+00	0	26	0	328204288	72	4873
2026-01-06 04:24:12.97	27.48	16.82	-53.7	-56.0	13.9	0.00e+00	0	26	0	330301440	72	4989
2026-01-06 04:24:13.97	27.30	16.89	-53.6	-55.9	13.9	0.00e+00	0	26	0	332398592	72	4928
2026-01-06 04:24:14.97	27.13	16.96	-53.7	-56.0	13.9	0.00e+00	0	26	0	334495744	72	5004
2026-01-06 04:24:15.97	26.95	17.04	-53.7	-56.0	13.9	0.00e+00	0	26	0	335544320	72	4999
2026-01-06 04:24:16.97	26.77	17.11	-53.6	-55.8	13.9	0.00e+00	0	26	0	337641472	72	4918
2026-01-06 04:24:17.96	26.60	17.18	-53.6	-55.9	13.9	0.00e+00	0	26	0	339738624	72	4961
2026-01-06 04:24:18.96	26.42	17.25	-53.7	-55.9	13.9	0.00e+00	0	26	0	341835776	72	4981
2026-01-06 04:24:19.96	26.24	17.32	-53.7	-56.0	13.9	0.00e+00	0	26	0	343932928	72	5014
2026-01-06 04:24:20.95	26.06	17.39	-53.7	-55.9	13.9	0.00e+00	0	26	0	344981504	72	4980
2026-01-06 04:24:21.95	25.88	17.47	-53.6	-55.9	13.9	0.00e+00	0	26	0	347078656	72	4949
2026-01-06 04:24:22.96	25.70	17.54	-53.7	-55.9	13.9	0.00e+00	0	26	0	349175808	72	4977
2026-01-06 04:24:23.95	25.51	17.61	-53.7	-56.0	13.8	0.00e+00	0	26	0	351272960	72	5005
2026-01-06 04:24:24.94	25.33	17.68	-53.6	-55.9	13.9	0.00e+00	0	26	0	352321536	72	4967
2026-01-06 04:24:25.94	25.15	17.75	-53.7	-56.1	13.8	0.00e+00	0	26	0	354418688	72	5044
2026-01-06 04:24:26.93	24.96	17.82	-53.6	-55.8	14.0	0.00e+00	0	26	0	356515840	72	4893
2026-01-06 04:24:27.93	24.78	17.90	-53.6	-55.9	13.9	0.00e+00	0	26	0	358612992	72	4944
2026-01-06 04:24:28.93	24.59	17.97	-53.5	-55.8	14.0	0.00e+00	0	26	0	360710144	72	4874
2026-01-06 04:24:29.93	24.40	18.04	-53.7	-55.9	13.9	0.00e+00	0	26	0	361758720	72	4966
2026-01-06 04:24:30.93	24.21	18.11	-53.6	-55.8	14.0	0.00e+00	0	26	0	363855872	72	4900
2026-01-06 04:24:31.93	24.02	18.18	-53.6	-55.9	13.9	0.00e+00	0	26	0	365953024	72	4939
2026-01-06 04:24:32.93	23.83	18.25	-53.6	-55.8	14.0	0.00e+00	0	26	0	368050176	72	4884
2026-01-06 04:24:33.93	23.64	18.32	-53.5	-55.6	14.0	0.00e+00	0	26	0	369098752	72	4807
2026-01-06 04:24:34.93	23.45	18.39	-53.5	-55.7	14.0	0.00e+00	0	26	0	371195904	72	4828
2026-01-06 04:24:35.93	23.25	18.46	-53.4	-55.5	14.1	0.00e+00	0	26	0	373293056	72	4740
2026-01-06 04:24:36.92	23.06	18.53	-53.5	-55.7	14.0	0.00e+00	0	26	0	375390208	72	4835
2026-01-06 04:24:37.91	22.87	18.60	-53.3	-55.4	14.2	0.00e+00	0	26	0	377487360	72	4655
2026-01-06 04:24:38.91	22.67	18.67	-53.3	-55.3	14.2	0.00e+00	0	26	0	378535936	72	4650
2026-01-06 04:24:39.90	22.48	18.74	-53.2	-55.2	14.3	0.00e+00	0	26	0	380633088	72	4598
2026-01-06 04:24:40.89	22.28	18.81	-53.0	-55.0	14.4	0.00e+00	0	26	0	382730240	72	4463
2026-01-06 04:24:41.88	22.08	18.88	-52.9	-54.9	14.4	0.00e+00	0	26	0	384827392	72	4412
2026-01-06 04:24:42.88	21.88	18.95	-52.9	-54.9	14.4	0.00e+00	0	26	0	385875968	72	4424
2026-01-06 04:24:43.87	21.68	19.02	-52.8	-54.7	14.5	0.00e+00	0	26	0	387973120	72	4311
2026-01-06 04:24:44.86	21.48	19.08	-52.8	-54.7	14.5	0.00e+00	0	26	0	390070272	72	4335
2026-01-06 04:24:45.87	21.28	19.15	-52.7	-54.5	14.6	0.00e+00	0	26	0	392167424	72	4240
2026-01-06 04:24:46.86	21.08	19.22	-52.4	-54.3	14.6	0.00e+00	0	26	0	394264576	71	4347
2026-01-06 04:24:47.86	20.87	19.29	-52.2	-54.0	14.8	0.00e+00	0	26	0	395313152	71	4208
2026-01-06 04:24:48.85	20.67	19.36	-52.1	-53.9	14.6	0.00e+00	0	26	0	397410304	70	4399
2026-01-06 04:24:49.85	20.46	19.42	-52.1	-53.8	14.7	0.00e+00	0	26	0	399507456	70	4386
2026-01-06 04:24:50.84	20.26	19.49	-52.1	-53.8	14.7	0.00e+00	0	26	0	401604608	70	4381
2026-01-06 04:24:51.83	20.05	19.56	-51.9	-53.7	14.7	0.00e+00	0	26	0	402653184	70	4302
2026-01-06 04:24:52.83	19.84	19.63	-51.9	-53.6	14.8	0.00e+00	0	26	0	404750336	70	4286
2026-01-06 04:24:53.83	19.63	19.69	-52.0	-53.7	14.7	0.00e+00	0	26	0	406847488	70	4320
2026-01-06 04:24:54.83	19.42	19.76	-52.1	-53.8	14.7	0.00e+00	0	26	0	408944640	70	4373
2026-01-06 04:24:55.82	19.21	19.83	-51.8	-53.5	14.8	0.00e+00	0	26	0	411041792	70	4217
2026-01-06 04:24:56.82	19.00	19.89	-51.8	-53.5	14.8	0.00e+00	0	26	0	412090368	70	4226
2026-01-06 04:24:57.83	18.78	19.96	-51.8	-53.4	14.9	0.00e+00	0	26	0	414187520	70	4191
2026-01-06 04:24:58.82	18.57	20.02	-51.8	-53.5	14.8	0.00e+00	0	26	0	416284672	70	4214
2026-01-06 04:24:59.81	18.35	20.09	-51.8	-53.4	14.9	0.00e+00	0	26	0	418381824	70	4181
2026-01-06 04:25:00.81	18.14	20.15	-51.8	-53.5	14.8	0.00e+00	0	26	0	420478976	70	4217
2026-01-06 04:25:01.81	17.92	20.22	-51.8	-53.4	14.9	0.00e+00	0	26	0	421527552	70	4188
2026-01-06 04:25:02.81	17.70	20.28	-51.7	-53.4	14.9	0.00e+00	0	26	0	423624704	70	4164
2026-01-06 04:25:03.81	17.48	20.35	-51.8	-53.5	14.9	0.00e+00	0	26	0	425721856	70	4213
2026-01-06 04:25:04.81	17.26	20.41	-51.6	-53.3	14.8	0.00e+00	0	26	0	427819008	69	4357
2026-01-06 04:25:05.81	17.04	20.48	-51.6	-53.3	14.8	0.00e+00	0	26	0	429916160	69	4359
2026-01-06 04:25:06.81	16.82	20.54	-51.6	-53.2	14.8	0.00e+00	0	26	0	430964736	69	4316
2026-01-06 04:25:07.81	16.59	20.61	-51.6	-53.2	14.8	0.00e+00	0	26	0	433061888	69	4329
2026-01-06 04:25:08.81	16.37	20.67	-51.5	-53.1	14.9	0.00e+00	0	26	0	435159040	69	4249
2026-01-06 04:25:09.81	16.14	20.73	-51.5	-53.1	14.9	0.00e+00	0	26	0	437256192	69	4257
2026-01-06 04:25:10.82	15.92	20.79	-51.3	-52.9	14.9	0.00e+00	0	26	0	438304768	69	4189
2026-01-06 04:25:11.82	15.69	20.86	-51.4	-52.9	14.9	0.00e+00	0	26	0	440401920	69	4190
2026-01-06 04:25:12.81	15.46	20.92	-51.4	-53.0	14.9	0.00e+00	0	26	0	442499072	69	4220
2026-01-06 04:25:13.81	15.23	20.98	-51.5	-53.1	14.9	0.00e+00	0	26	0	444596224	69	4251
2026-01-06 04:25:14.81	15.00	21.04	-51.4	-53.0	14.9	0.00e+00	0	26	0	446693376	69	4232
2026-01-06 04:25:15.81	14.77	21.10	-51.5	-53.1	14.9	0.00e+00	0	26	0	447741952	69	4268
2026-01-06 04:25:16.81	14.54	21.16	-51.5	-53.1	14.9	0.00e+00	0	26	0	449839104	69	4270
2026-01-06 04:25:17.80	14.31	21.22	-51.4	-53.0	14.9	0.00e+00	0	26	0	451936256	69	4221
2026-01-06 04:25:18.81	14.08	21.28	-51.4	-53.0	14.9	0.00e+00	0	26	0	454033408	69	4204
2026-01-06 04:25:19.80	13.84	21.34	-51.5	-53.1	14.9	0.00e+00	0	26	0	456130560	69	4273
2026-01-06 04:25:20.80	13.61	21.40	-51.6	-53.2	14.8	0.00e+00	0	26	0	457179136	69	4313
2026-01-06 04:25:21.79	13.37	21.46	-51.7	-53.4	14.8	0.00e+00	0	26	0	459276288	69	4404
2026-01-06 04:25:22.78	13.14	21.52	-51.7	-53.4	14.7	0.00e+00	0	26	0	461373440	69	4397
2026-01-06 04:25:23.78	12.90	21.57	-51.6	-53.3	14.8	0.00e+00	0	26	0	463470592	69	4365
2026-01-06 04:25:24.78	12.66	21.63	-51.7	-53.4	14.7	0.00e+00	0	26	0	464519168	69	4407
2026-01-06 04:25:25.78	12.42	21.69	-51.7	-53.4	14.8	0.00e+00	0	26	0	466616320	69	4392
2026-01-06 04:25:26.78	12.18	21.74	-51.7	-53.4	14.7	0.00e+00	0	26	0	468713472	69	4419
2026-01-06 04:25:27.78	11.94	21.80	-51.7	-53.3	14.8	0.00e+00	0	26	0	470810624	69	4390
2026-01-06 04:25:28.78	11.70	21.86	-51.8	-53.5	14.7	0.00e+00	0	26	0	472907776	69	4458
2026-01-06 04:25:29.78	11.46	21.91	-51.8	-53.5	14.7	0.00e+00	0	26	0	473956352	69	4450
2026-01-06 04:25:30.77	11.21	21.97	-51.7	-53.4	14.8	0.00e+00	0	26	0	476053504	69	4401
2026-01-06 04:25:31.76	10.97	22.02	-51.7	-53.4	14.7	0.00e+00	0	26	0	478150656	69	4396
2026-01-06 04:25:32.76	10.73	22.07	-51.5	-53.1	14.9	0.00e+00	0	26	0	480247808	69	4276
2026-01-06 04:25:33.76	10.48	22.13	-51.4	-53.0	14.9	0.00e+00	0	26	0	481296384	69	4223
2026-01-06 04:25:34.76	10.23	22.18	-51.5	-53.1	14.9	0.00e+00	0	26	0	483393536	69	4256
2026-01-06 04:25:35.75	9.98	22.23	-51.4	-52.9	14.9	0.00e+00	0	26	0	485490688	69	4191
2026-01-06 04:25:36.75	9.74	22.29	-51.2	-52.8	15.0	0.00e+00	0	26	0	487587840	69	4123
2026-01-06 04:25:37.75	9.49	22.34	-51.3	-52.8	15.0	0.00e+00	0	26	0	489684992	69	4130
2026-01-06 04:25:38.74	9.24	22.39	-51.2	-52.8	15.0	0.00e+00	0	26	0	490733568	69	4114
2026-01-06 04:25:39.73	8.99	22.44	-51.2	-52.8	14.9	0.00e+00	0	26	0	492830720	68	4347
2026-01-06 04:25:40.72	8.74	22.49	-51.2	-52.8	14.9	0.00e+00	0	26	0	494927872	68	4363
2026-01-06 04:25:41.73	8.48	22.54	-51.2	-52.8	14.9	0.00e+00	0	26	0	497025024	68	4362
2026-01-06 04:25:42.72	8.23	22.59	-51.2	-52.8	14.9	0.00e+00	0	26	0	498073600	68	4366
2026-01-06 04:25:43.71	7.98	22.64	-51.3	-52.9	14.8	0.00e+00	0	26	0	500170752	68	4407
2026-01-06 04:25:44.70	7.72	22.68	-51.2	-52.8	14.9	0.00e+00	0	26	0	502267904	68	4361
2026-01-06 04:25:45.69	7.47	22.73	-51.0	-52.6	15.0	0.00e+00	0	26	0	504365056	68	4251
2026-01-06 04:25:46.69	7.21	22.78	-51.1	-52.6	14.9	0.00e+00	0	26	0	506462208	68	4290
2026-01-06 04:25:47.69	6.95	22.82	-51.0	-52.5	15.0	0.00e+00	0	26	0	507510784	68	4211
2026-01-06 04:25:48.67	6.70	22.87	-51.1	-52.6	14.9	0.00e+00	0	26	0	509607936	68	4260
2026-01-06 04:25:49.67	6.44	22.92	-51.1	-52.6	14.9	0.00e+00	0	26	0	511705088	68	4275
2026-01-06 04:25:50.67	6.18	22.96	-51.0	-52.5	15.0	0.00e+00	0	26	0	513802240	68	4211
2026-01-06 04:25:51.67	5.92	23.00	-50.9	-52.4	15.1	0.00e+00	0	26	0	514850816	68	4148
2026-01-06 04:25:52.66	5.66	23.05	-50.9	-52.4	15.0	0.00e+00	0	26	0	516947968	68	4151
2026-01-06 04:25:53.66	5.40	23.09	-50.9	-52.4	15.0	0.00e+00	0	26	0	519045120	68	4193
2026-01-06 04:25:54.65	5.14	23.13	-51.1	-52.6	15.0	0.00e+00	0	26	0	521142272	68	4250
2026-01-06 04:25:55.64	4.87	23.18	-51.2	-52.7	14.9	0.00e+00	0	26	0	523239424	68	4337
2026-01-06 04:25:56.64	4.61	23.22	-51.3	-52.8	14.9	0.00e+00	0	26	0	524288000	68	4385
2026-01-06 04:25:57.64	4.34	23.26	-51.3	-52.9	14.8	0.00e+00	0	26	0	526385152	68	4438
2026-01-06 04:25:58.64	4.08	23.30	-51.3	-52.9	14.8	0.00e+00	0	26	0	528482304	68	4433
2026-01-06 04:25:59.64	3.81	23.34	-51.4	-53.0	14.8	0.00e+00	0	26	0	530579456	68	4461
2026-01-06 04:26:00.64	3.54	23.38	-51.6	-53.2	14.7	0.00e+00	0	26	0	531628032	68	4566
2026-01-06 04:26:01.64	3.27	23.42	-51.5	-53.1	14.7	0.00e+00	0	26	0	533725184	68	4498
2026-01-06 04:26:02.64	3.01	23.45	-51.6	-53.2	14.7	0.00e+00	0	26	0	535822336	68	4560
2026-01-06 04:26:03.64	2.74	23.49	-51.5	-53.1	14.7	0.00e+00	0	26	0	537919488	68	4532
2026-01-06 04:26:04.64	2.47	23.53	-51.6	-53.2	14.7	0.00e+00	0	26	0	540016640	68	4586
2026-01-06 04:26:05.64	2.19	23.56	-51.6	-53.3	14.7	0.00e+00	0	26	0	541065216	68	4599
2026-01-06 04:26:06.64	1.92	23.60	-51.7	-53.4	14.6	0.00e+00	0	26	0	543162368	68	4660
2026-01-06 04:26:07.63	1.65	23.63	-51.8	-53.5	14.6	0.00e+00	0	26	0	545259520	68	4711
2026-01-06 04:26:08.63	1.38	23.67	-52.0	-53.7	14.6	0.00e+00	0	26	0	547356672	69	4590
2026-01-06 04:26:09.63	1.11	23.70	-52.2	-54.0	14.5	0.00e+00	0	26	0	549453824	69	4714
2026-01-06 04:26:10.62	0.84	23.73	-52.3	-54.2	14.4	0.00e+00	0	26	0	550502400	69	4819
2026-01-06 04:26:11.63	0.56	23.77	-52.4	-54.2	14.5	0.00e+00	0	26	0	552599552	70	4566
2026-01-06 04:26:12.62	0.29	23.80	-52.5	-54.3	14.4	0.00e+00	0	26	0	554696704	70	4636
2026-01-06 04:26:13.62	0.01	23.83	-52.4	-54.2	14.5	0.00e+00	0	26	0	556793856	70	4589
2026-01-06 04:26:14.62	359.73	23.86	-52.5	-54.3	14.5	0.00e+00	0	26	0	558891008	70	4635
2026-01-06 04:26:15.62	359.46	23.89	-52.6	-54.4	14.5	0.00e+00	0	26	0	559939584	70	4674
2026-01-06 04:26:16.62	359.18	23.92	-52.5	-54.3	14.5	0.00e+00	0	26	0	562036736	70	4637
2026-01-06 04:26:17.62	358.90	23.94	-52.6	-54.5	14.4	0.00e+00	0	26	0	564133888	70	4739
2026-01-06 04:26:18.63	358.62	23.97	-52.7	-54.5	14.4	0.00e+00	0	26	0	566231040	70	4749
2026-01-06 04:26:19.63	358.34	24.00	-52.6	-54.5	14.4	0.00e+00	0	26	0	567279616	70	4736
2026-01-06 04:26:20.63	358.06	24.02	-52.6	-54.4	14.4	0.00e+00	0	26	0	569376768	70	4691
2026-01-06 04:26:21.63	357.78	24.05	-52.7	-54.5	14.4	0.00e+00	0	26	0	571473920	70	4743
2026-01-06 04:26:22.63	357.50	24.07	-52.7	-54.6	14.4	0.00e+00	0	26	0	573571072	70	4765
2026-01-06 04:26:23.63	357.22	24.10	-52.9	-54.8	14.3	0.00e+00	0	26	0	575668224	70	4887
2026-01-06 04:26:24.63	356.94	24.12	-53.0	-54.9	14.3	0.00e+00	0	26	0	576716800	71	4705
2026-01-06 04:26:25.63	356.66	24.14	-53.0	-54.9	14.3	0.00e+00	0	26	0	578813952	71	4685
2026-01-06 04:26:26.62	356.38	24.16	-53.0	-54.9	14.3	0.00e+00	0	26	0	580911104	71	4690
2026-01-06 04:26:27.62	356.10	24.18	-53.0	-55.0	14.3	0.00e+00	0	26	0	583008256	71	4706
2026-01-06 04:26:28.61	355.82	24.20	-53.0	-54.9	14.3	0.00e+00	0	26	0	585105408	71	4674
2026-01-06 04:26:29.60	355.54	24.22	-53.2	-55.2	14.2	0.00e+00	0	26	0	586153984	71	4824
2026-01-06 04:26:30.60	355.26	24.24	-53.3	-55.3	14.1	0.00e+00	0	26	0	588251136	71	4919
2026-01-06 04:26:31.60	354.97	24.26	-53.3	-55.4	14.1	0.00e+00	0	26	0	590348288	71	4943
2026-01-06 04:26:32.60	354.69	24.28	-53.4	-55.5	14.2	0.00e+00	0	26	0	592445440	72	4711
2026-01-06 04:26:33.60	354.41	24.29	-53.2	-55.2	14.3	0.00e+00	0	26	0	594542592	72	4584
2026-01-06 04:26:34.60	354.12	24.31	-53.2	-55.2	14.3	0.00e+00	0	26	0	595591168	72	4578
2026-01-06 04:26:35.60	353.84	24.32	-53.1	-55.0	14.4	0.00e+00	0	26	0	597688320	72	4481
2026-01-06 04:26:36.60	353.55	24.34	-53.0	-54.9	14.5	0.00e+00	0	26	0	599785472	72	4413
2026-01-06 04:26:37.60	353.27	24.35	-53.0	-54.9	14.5	0.00e+00	0	26	0	601882624	72	4416
2026-01-06 04:26:38.59	352.98	24.36	-52.9	-54.8	14.5	0.00e+00	0	26	0	602931200	72	4377
2026-01-06 04:26:39.59	352.70	24.37	-52.9	-54.8	14.5	0.00e+00	0	26	0	605028352	72	4353
2026-01-06 04:26:40.58	352.42	24.38	-52.9	-54.9	14.5	0.00e+00	0	26	0	607125504	72	4394
2026-01-06 04:26:41.58	352.13	24.39	-53.0	-54.9	14.5	0.00e+00	0	26	0	609222656	72	4438
2026-01-06 04:26:42.59	351.84	24.40	-53.1	-55.0	14.4	0.00e+00	0	26	0	611319808	72	4464
2026-01-06 04:26:43.58	351.56	24.41	-53.0	-55.0	14.4	0.00e+00	0	26	0	612368384	72	4442
2026-01-06 04:26:44.58	351.27	24.42	-53.0	-54.9	14.5	0.00e+00	0	26	0	614465536	72	4407
2026-01-06 04:26:45.57	350.99	24.43	-53.0	-54.9	14.5	0.00e+00	0	26	0	616562688	72	4439
2026-01-06 04:26:46.57	350.70	24.43	-53.0	-54.9	14.5	0.00e+00	0	26	0	618659840	72	4428
2026-01-06 04:26:47.57	350.41	24.44	-53.0	-54.9	14.5	0.00e+00	0	26	0	619708416	72	4438
2026-01-06 04:26:48.56	350.13	24.44	-52.9	-54.9	14.5	0.00e+00	0	26	0	621805568	72	4392
2026-01-06 04:26:49.56	349.84	24.45	-52.8	-54.7	14.6	0.00e+00	0	26	0	623902720	72	4333
2026-01-06 04:26:50.55	349.56	24.45	-52.8	-54.6	14.6	0.00e+00	0	26	0	625999872	72	4291
2026-01-06 04:26:51.55	349.27	24.45	-52.6	-54.5	14.6	0.00e+00	0	26	0	628097024	71	4442
2026-01-06 04:26:52.55	348.98	24.45	-52.6	-54.5	14.5	0.00e+00	0	26	0	629145600	71	4470
2026-01-06 04:26:53.54	348.70	24.45	-52.6	-54.5	14.5	0.00e+00	0	26	0	631242752	71	4469
2026-01-06 04:26:54.54	348.41	24.45	-52.8	-54.6	14.5	0.00e+00	0	26	0	633339904	71	4545
2026-01-06 04:26:55.54	348.12	24.45	-52.7	-54.6	14.5	0.00e+00	0	26	0	635437056	71	4528
2026-01-06 04:26:56.54	347.84	24.45	-52.7	-54.6	14.5	0.00e+00	0	26	0	636485632	71	4516
2026-01-06 04:26:57.54	347.55	24.45	-52.8	-54.6	14.5	0.00e+00	0	26	0	638582784	71	4544
2026-01-06 04:26:58.52	347.27	24.45	-52.7	-54.5	14.5	0.00e+00	0	26	0	640679936	71	4478
2026-01-06 04:26:59.52	346.98	24.44	-52.4	-54.1	14.7	0.00e+00	0	26	0	642777088	71	4285
2026-01-06 04:27:00.52	346.69	24.44	-52.2	-53.9	14.8	0.00e+00	0	26	0	644874240	71	4164
2026-01-06 04:27:01.52	346.41	24.43	-52.0	-53.7	14.8	0.00e+00	0	26	0	645922816	70	4329
2026-01-06 04:27:02.52	346.12	24.43	-52.1	-53.8	14.7	0.00e+00	0	26	0	648019968	70	4386
2026-01-06 04:27:03.52	345.83	24.42	-52.1	-53.8	14.7	0.00e+00	0	26	0	650117120	70	4361
2026-01-06 04:27:04.52	345.55	24.41	-52.1	-53.8	14.7	0.00e+00	0	26	0	652214272	70	4374
2026-01-06 04:27:05.52	345.26	24.40	-52.0	-53.7	14.8	0.00e+00	0	26	0	654311424	70	4310
2026-01-06 04:27:06.52	344.97	24.39	-51.9	-53.6	14.8	0.00e+00	0	26	0	655360000	70	4274
2026-01-06 04:27:07.53	344.68	24.38	-51.9	-53.6	14.8	0.00e+00	0	26	0	657457152	70	4269
2026-01-06 04:27:08.53	344.40	24.37	-51.9	-53.5	14.8	0.00e+00	0	26	0	659554304	70	4226
2026-01-06 04:27:09.52	344.12	24.36	-51.8	-53.4	14.9	0.00e+00	0	26	0	661651456	70	4181
2026-01-06 04:27:10.51	343.83	24.35	-51.6	-53.2	14.9	0.00e+00	0	26	0	662700032	69	4320
2026-01-06 04:27:11.50	343.55	24.34	-51.4	-52.9	15.0	0.00e+00	0	26	0	664797184	69	4192
2026-01-06 04:27:12.50	343.27	24.32	-51.3	-52.9	15.0	0.00e+00	0	26	0	666894336	69	4150
2026-01-06 04:27:13.49	342.98	24.31	-51.2	-52.8	15.0	0.00e+00	0	26	0	668991488	69	4106
2026-01-06 04:27:14.50	342.70	24.29	-51.3	-52.9	15.0	0.00e+00	0	26	0	671088640	69	4151
2026-01-06 04:27:15.49	342.42	24.28	-51.3	-52.8	15.0	0.00e+00	0	26	0	672137216	69	4120
2026-01-06 04:27:16.49	342.13	24.26	-51.2	-52.7	14.9	0.00e+00	0	26	0	674234368	68	4340
2026-01-06 04:27:17.49	341.85	24.24	-51.4	-52.9	14.8	0.00e+00	0	26	0	676331520	68	4432
2026-01-06 04:27:18.49	341.56	24.22	-51.1	-52.6	15.0	0.00e+00	0	26	0	678428672	68	4267
2026-01-06 04:27:19.49	341.28	24.20	-50.9	-52.4	15.1	0.00e+00	0	26	0	679477248	68	4155
2026-01-06 04:27:20.48	341.00	24.18	-50.8	-52.3	15.1	0.00e+00	0	26	0	681574400	68	4104
2026-01-06 04:27:21.48	340.72	24.16	-50.7	-52.2	15.1	0.00e+00	0	26	0	683671552	68	4071
2026-01-06 04:27:22.47	340.44	24.14	-50.8	-52.2	15.1	0.00e+00	0	26	0	685768704	68	4092
2026-01-06 04:27:23.47	340.16	24.12	-50.8	-52.2	15.1	0.00e+00	0	26	0	687865856	68	4098
2026-01-06 04:27:24.47	339.88	24.10	-50.8	-52.3	15.1	0.00e+00	0	26	0	688914432	68	4126
2026-01-06 04:27:25.47	339.60	24.07	-50.9	-52.4	15.0	0.00e+00	0	26	0	691011584	68	4168
2026-01-06 04:27:26.47	339.32	24.05	-50.9	-52.4	15.0	0.00e+00	0	26	0	693108736	68	4161
2026-01-06 04:27:27.47	339.04	24.02	-50.9	-52.4	15.0	0.00e+00	0	26	0	695205888	68	4163
2026-01-06 04:27:28.47	338.76	24.00	-50.9	-52.4	15.0	0.00e+00	0	26	0	697303040	68	4185
2026-01-06 04:27:29.48	338.48	23.97	-50.9	-52.3	15.0	0.00e+00	0	26	0	698351616	68	4143
2026-01-06 04:27:30.47	338.20	23.94	-50.9	-52.4	15.0	0.00e+00	0	26	0	700448768	68	4190
2026-01-06 04:27:31.47	337.92	23.92	-50.8	-52.3	15.1	0.00e+00	0	26	0	702545920	68	4115
2026-01-06 04:27:32.47	337.65	23.89	-50.9	-52.4	15.0	0.00e+00	0	26	0	704643072	68	4171
2026-01-06 04:27:33.47	337.37	23.86	-50.9	-52.3	15.0	0.00e+00	0	26	0	706740224	68	4144
2026-01-06 04:27:34.46	337.10	23.83	-51.0	-52.5	15.0	0.00e+00	0	26	0	707788800	68	4199
2026-01-06 04:27:35.47	336.82	23.80	-51.1	-52.6	15.0	0.00e+00	0	26	0	709885952	68	4262
2026-01-06 04:27:36.47	336.54	23.77	-51.0	-52.6	15.0	0.00e+00	0	26	0	711983104	68	4255
2026-01-06 04:27:37.47	336.27	23.73	-51.1	-52.6	14.9	0.00e+00	0	26	0	714080256	68	4286
2026-01-06 04:27:38.47	335.99	23.70	-51.2	-52.7	14.9	0.00e+00	0	26	0	715128832	68	4317
2026-01-06 04:27:39.47	335.72	23.67	-51.3	-52.8	14.9	0.00e+00	0	26	0	717225984	68	4372
2026-01-06 04:27:40.47	335.45	23.63	-51.4	-53.0	14.8	0.00e+00	0	26	0	719323136	68	4446
2026-01-06 04:27:41.46	335.18	23.60	-51.4	-53.0	14.8	0.00e+00	0	26	0	721420288	68	4475
2026-01-06 04:27:42.46	334.91	23.56	-51.5	-53.1	14.8	0.00e+00	0	26	0	723517440	68	4522
2026-01-06 04:27:43.46	334.64	23.53	-51.5	-53.1	14.8	0.00e+00	0	26	0	724566016	68	4540
2026-01-06 04:27:44.45	334.37	23.49	-51.6	-53.3	14.7	0.00e+00	0	26	0	726663168	68	4611
2026-01-06 04:27:45.45	334.10	23.46	-51.6	-53.3	14.7	0.00e+00	0	26	0	728760320	68	4621
2026-01-06 04:27:46.45	333.83	23.42	-51.7	-53.4	14.6	0.00e+00	0	26	0	730857472	68	4681
2026-01-06 04:27:47.44	333.56	23.38	-51.8	-53.5	14.6	0.00e+00	0	26	0	731906048	68	4707
2026-01-06 04:27:48.44	333.29	23.34	-51.9	-53.5	14.6	0.00e+00	0	26	0	734003200	68	4755
2026-01-06 04:27:49.44	333.03	23.30	-51.9	-53.5	14.6	0.00e+00	0	26	0	736100352	68	4754
2026-01-06 04:27:50.44	332.76	23.26	-52.0	-53.7	14.7	0.00e+00	0	26	0	738197504	69	4577
2026-01-06 04:27:51.44	332.50	23.22	-52.0	-53.7	14.7	0.00e+00	0	26	0	740294656	69	4566
2026-01-06 04:27:52.44	332.23	23.18	-52.1	-53.8	14.6	0.00e+00	0	26	0	741343232	69	4620
2026-01-06 04:27:53.44	331.97	23.14	-52.1	-53.8	14.6	0.00e+00	0	26	0	743440384	69	4610
2026-01-06 04:27:54.44	331.70	23.09	-52.2	-53.9	14.6	0.00e+00	0	26	0	745537536	69	4687
2026-01-06 04:27:55.43	331.44	23.05	-52.2	-53.9	14.6	0.00e+00	0	26	0	747634688	69	4667
2026-01-06 04:27:56.43	331.18	23.01	-52.3	-54.1	14.5	0.00e+00	0	26	0	749731840	69	4770
2026-01-06 04:27:57.42	330.92	22.96	-52.4	-54.2	14.4	0.00e+00	0	26	0	750780416	69	4826
2026-01-06 04:27:58.42	330.66	22.92	-52.5	-54.3	14.5	0.00e+00	0	26	0	752877568	70	4633
2026-01-06 04:27:59.42	330.40	22.87	-52.5	-54.3	14.5	0.00e+00	0	26	0	754974720	70	4650
2026-01-06 04:28:00.41	330.14	22.83	-52.5	-54.4	14.5	0.00e+00	0	26	0	757071872	70	4653
2026-01-06 04:28:01.41	329.89	22.78	-52.6	-54.4	14.4	0.00e+00	0	26	0	759169024	70	4677
2026-01-06 04:28:02.41	329.63	22.73	-52.6	-54.4	14.5	0.00e+00	0	26	0	760217600	70	4668
2026-01-06 04:28:03.41	329.37	22.68	-52.5	-54.3	14.5	0.00e+00	0	26	0	762314752	70	4603
2026-01-06 04:28:04.41	329.12	22.64	-52.6	-54.4	14.5	0.00e+00	0	26	0	764411904	70	4661
2026-01-06 04:28:05.41	328.86	22.59	-52.5	-54.2	14.5	0.00e+00	0	26	0	766509056	70	4598
2026-01-06 04:28:06.41	328.61	22.54	-52.6	-54.4	14.5	0.00e+00	0	26	0	767557632	70	4667
2026-01-06 04:28:07.41	328.35	22.49	-52.6	-54.5	14.4	0.00e+00	0	26	0	769654784	70	4721
2026-01-06 04:28:08.41	328.10	22.44	-52.7	-54.6	14.4	0.00e+00	0	26	0	771751936	70	4770
2026-01-06 04:28:09.42	327.85	22.39	-52.8	-54.7	14.3	0.00e+00	0	26	0	773849088	70	4854
2026-01-06 04:28:10.41	327.60	22.34	-52.9	-54.9	14.3	0.00e+00	0	26	0	775946240	70	4927
2026-01-06 04:28:11.42	327.34	22.28	-53.0	-54.9	14.4	0.00e+00	0	26	0	776994816	71	4667
2026-01-06 04:28:12.42	327.10	22.23	-53.1	-55.0	14.3	0.00e+00	0	26	0	779091968	71	4755
2026-01-06 04:28:13.41	326.85	22.18	-53.0	-55.0	14.3	0.00e+00	0	26	0	781189120	71	4723
2026-01-06 04:28:14.40	326.60	22.13	-53.1	-55.0	14.3	0.00e+00	0	26	0	783286272	71	4757
2026-01-06 04:28:15.40	326.36	22.07	-53.0	-54.9	14.3	0.00e+00	0	26	0	785383424	71	4702
2026-01-06 04:28:16.39	326.11	22.02	-53.0	-54.9	14.3	0.00e+00	0	26	0	786432000	71	4679
2026-01-06 04:28:17.39	325.87	21.96	-52.7	-54.5	14.5	0.00e+00	0	26	0	788529152	71	4481
2026-01-06 04:28:18.38	325.63	21.91	-52.7	-54.5	14.5	0.00e+00	0	26	0	790626304	71	4470
2026-01-06 04:28:19.37	325.39	21.85	-52.7	-54.6	14.5	0.00e+00	0	26	0	792723456	71	4529
2026-01-06 04:28:20.37	325.14	21.80	-52.9	-54.8	14.4	0.00e+00	0	26	0	793772032	71	4636
2026-01-06 04:28:21.37	324.90	21.74	-53.1	-55.1	14.3	0.00e+00	0	26	0	795869184	71	4773
2026-01-06 04:28:22.37	324.66	21.69	-53.2	-55.2	14.2	0.00e+00	0	26	0	797966336	71	4848
2026-01-06 04:28:23.37	324.42	21.63	-53.2	-55.2	14.2	0.00e+00	0	26	0	800063488	71	4834
2026-01-06 04:28:24.37	324.18	21.57	-53.1	-55.1	14.3	0.00e+00	0	26	0	802160640	71	4792
2026-01-06 04:28:25.37	323.94	21.51	-53.0	-55.0	14.3	0.00e+00	0	26	0	803209216	71	4731
2026-01-06 04:28:26.37	323.71	21.46	-52.9	-54.8	14.4	0.00e+00	0	26	0	805306368	71	4602
2026-01-06 04:28:27.37	323.47	21.40	-52.9	-54.8	14.4	0.00e+00	0	26	0	807403520	71	4611
2026-01-06 04:28:28.37	323.24	21.34	-52.9	-54.8	14.4	0.00e+00	0	26	0	809500672	71	4605
2026-01-06 04:28:29.36	323.00	21.28	-52.9	-54.8	14.4	0.00e+00	0	26	0	810549248	71	4648
2026-01-06 04:28:30.36	322.77	21.22	-52.9	-54.8	14.4	0.00e+00	0	26	0	812646400	71	4617
2026-01-06 04:28:31.36	322.54	21.16	-52.8	-54.7	14.4	0.00e+00	0	26	0	814743552	71	4567
2026-01-06 04:28:32.36	322.31	21.10	-52.8	-54.7	14.4	0.00e+00	0	26	0	816840704	71	4568
2026-01-06 04:28:33.35	322.08	21.04	-52.8	-54.7	14.4	0.00e+00	0	26	0	818937856	71	4583
2026-01-06 04:28:34.36	321.84	20.98	-52.7	-54.6	14.5	0.00e+00	0	26	0	819986432	71	4499
2026-01-06 04:28:35.35	321.62	20.91	-52.6	-54.4	14.6	0.00e+00	0	26	0	822083584	71	4420
2026-01-06 04:28:36.35	321.39	20.85	-52.6	-54.4	14.6	0.00e+00	0	26	0	824180736	71	4417
2026-01-06 04:28:37.35	321.16	20.79	-52.6	-54.4	14.6	0.00e+00	0	26	0	826277888	71	4431
2026-01-06 04:28:38.34	320.94	20.73	-52.5	-54.3	14.6	0.00e+00	0	26	0	827326464	71	4377
2026-01-06 04:28:39.34	320.71	20.67	-52.4	-54.1	14.7	0.00e+00	0	26	0	829423616	71	4288
2026-01-06 04:28:40.33	320.49	20.60	-52.5	-54.3	14.6	0.00e+00	0	26	0	831520768	71	4343
2026-01-06 04:28:41.33	320.27	20.54	-52.5	-54.3	14.6	0.00e+00	0	26	0	833617920	71	4364
2026-01-06 04:28:42.33	320.05	20.48	-52.4	-54.2	14.7	0.00e+00	0	26	0	835715072	71	4307
2026-01-06 04:28:43.34	319.82	20.41	-52.4	-54.2	14.6	0.00e+00	0	26	0	836763648	71	4325
2026-01-06 04:28:44.33	319.60	20.35	-52.4	-54.2	14.6	0.00e+00	0	26	0	838860800	71	4313
2026-01-06 04:28:45.32	319.39	20.28	-52.4	-54.2	14.7	0.00e+00	0	26	0	840957952	71	4295
2026-01-06 04:28:46.32	319.17	20.22	-52.4	-54.1	14.7	0.00e+00	0	26	0	843055104	71	4289
2026-01-06 04:28:47.31	318.95	20.15	-52.4	-54.1	14.7	0.00e+00	0	26	0	845152256	71	4277
2026-01-06 04:28:48.31	318.74	20.09	-52.5	-54.3	14.7	0.00e+00	0	26	0	846200832	71	4342
2026-01-06 04:28:49.30	318.52	20.02	-52.4	-54.2	14.7	0.00e+00	0	26	0	848297984	71	4320
2026-01-06 04:28:50.29	318.31	19.96	-52.4	-54.2	14.7	0.00e+00	0	26	0	850395136	71	4307
2026-01-06 04:28:51.29	318.09	19.89	-52.3	-54.0	14.8	0.00e+00	0	26	0	852492288	71	4216
2026-01-06 04:28:52.29	317.88	19.83	-52.3	-54.0	14.7	0.00e+00	0	26	0	853540864	71	4229
2026-01-06 04:28:53.29	317.67	19.76	-52.3	-54.0	14.8	0.00e+00	0	26	0	855638016	71	4218
2026-01-06 04:28:54.27	317.46	19.69	-52.3	-54.1	14.7	0.00e+00	0	26	0	857735168	71	4247
2026-01-06 04:28:55.27	317.25	19.63	-52.2	-53.9	14.8	0.00e+00	0	26	0	859832320	71	4175
2026-01-06 04:28:56.26	317.04	19.56	-52.2	-54.0	14.8	0.00e+00	0	26	0	861929472	71	4200
2026-01-06 04:28:57.25	316.84	19.49	-52.3	-54.0	14.7	0.00e+00	0	26	0	862978048	71	4215
2026-01-06 04:28:58.25	316.63	19.43	-52.3	-54.0	14.7	0.00e+00	0	26	0	865075200	71	4230
2026-01-06 04:28:59.25	316.42	19.36	-52.3	-54.1	14.7	0.00e+00	0	26	0	867172352	71	4252
2026-01-06 04:29:00.25	316.22	19.29	-52.4	-54.1	14.7	0.00e+00	0	26	0	869269504	71	4290
2026-01-06 04:29:01.25	316.01	19.22	-52.4	-54.2	14.7	0.00e+00	0	26	0	870318080	71	4294
2026-01-06 04:29:02.25	315.81	19.15	-52.5	-54.3	14.6	0.00e+00	0	26	0	872415232	71	4343
2026-01-06 04:29:03.24	315.61	19.08	-52.5	-54.4	14.6	0.00e+00	0	26	0	874512384	71	4396
2026-01-06 04:29:04.24	315.41	19.02	-52.5	-54.3	14.6	0.00e+00	0	26	0	876609536	71	4346
2026-01-06 04:29:05.24	315.21	18.95	-52.4	-54.2	14.6	0.00e+00	0	26	0	878706688	71	4337
2026-01-06 04:29:06.24	315.00	18.88	-52.5	-54.3	14.6	0.00e+00	0	26	0	879755264	71	4371
2026-01-06 04:29:07.24	314.81	18.81	-52.5	-54.3	14.6	0.00e+00	0	26	0	881852416	71	4368
2026-01-06 04:29:08.23	314.61	18.74	-52.5	-54.3	14.6	0.00e+00	0	26	0	883949568	71	4352
2026-01-06 04:29:09.24	314.41	18.67	-52.5	-54.3	14.6	0.00e+00	0	26	0	886046720	71	4350
2026-01-06 04:29:10.24	314.21	18.60	-52.5	-54.3	14.6	0.00e+00	0	26	0	888143872	71	4365
2026-01-06 04:29:11.24	314.02	18.53	-52.6	-54.4	14.6	0.00e+00	0	26	0	889192448	71	4409
2026-01-06 04:29:12.24	313.82	18.46	-52.6	-54.4	14.6	0.00e+00	0	26	0	891289600	71	4417
2026-01-06 04:29:13.24	313.63	18.39	-52.6	-54.4	14.6	0.00e+00	0	26	0	893386752	71	4416
2026-01-06 04:29:14.24	313.44	18.32	-52.5	-54.3	14.6	0.00e+00	0	26	0	895483904	71	4352
2026-01-06 04:29:15.24	313.24	18.25	-52.6	-54.4	14.6	0.00e+00	0	26	0	896532480	71	4413
2026-01-06 04:29:16.24	313.05	18.17	-52.4	-54.2	14.7	0.00e+00	0	26	0	898629632	71	4340
2026-01-06 04:29:17.24	312.86	18.10	-52.3	-54.1	14.7	0.00e+00	0	26	0	900726784	71	4284
2026-01-06 04:29:18.24	312.67	18.03	-52.2	-54.0	14.8	0.00e+00	0	26	0	902823936	71	4212
2026-01-06 04:29:19.23	312.49	17.96	-52.3	-54.0	14.7	0.00e+00	0	26	0	904921088	71	4236
2026-01-06 04:29:20.22	312.30	17.89	-52.2	-54.0	14.8	0.00e+00	0	26	0	905969664	71	4206
2026-01-06 04:29:21.21	312.12	17.82	-52.1	-53.8	14.7	0.00e+00	0	26	0	908066816	70	4384
2026-01-06 04:29:22.21	311.93	17.75	-52.1	-53.9	14.7	0.00e+00	0	26	0	910163968	70	4415
2026-01-06 04:29:23.20	311.75	17.68	-52.2	-54.0	14.6	0.00e+00	0	26	0	912261120	70	4457
2026-01-06 04:29:24.20	311.56	17.61	-52.2	-54.0	14.6	0.00e+00	0	26	0	913309696	70	4463
2026-01-06 04:29:25.20	311.38	17.54	-52.1	-53.8	14.7	0.00e+00	0	26	0	915406848	70	4370
2026-01-06 04:29:26.20	311.20	17.46	-52.0	-53.7	14.7	0.00e+00	0	26	0	917504000	70	4321
2026-01-06 04:29:27.20	311.02	17.39	-51.9	-53.6	14.7	0.00e+00	0	26	0	919601152	70	4279
2026-01-06 04:29:28.20	310.84	17.32	-51.9	-53.6	14.8	0.00e+00	0	26	0	921698304	70	4280
2026-01-06 04:29:29.20	310.66	17.25	-51.8	-53.5	14.8	0.00e+00	0	26	0	922746880	70	4214
2026-01-06 04:29:30.19	310.48	17.18	-51.8	-53.4	14.9	0.00e+00	0	26	0	924844032	70	4190
2026-01-06 04:29:31.18	310.31	17.10	-51.8	-53.4	14.9	0.00e+00	0	26	0	926941184	70	4173
2026-01-06 04:29:32.19	310.13	17.03	-51.7	-53.4	14.9	0.00e+00	0	26	0	929038336	70	4160
2026-01-06 04:29:33.18	309.95	16.96	-51.8	-53.5	14.8	0.00e+00	0	26	0	931135488	70	4198
2026-01-06 04:29:34.18	309.78	16.89	-51.8	-53.5	14.8	0.00e+00	0	26	0	932184064	70	4233
2026-01-06 04:29:35.17	309.60	16.81	-51.9	-53.6	14.8	0.00e+00	0	26	0	934281216	70	4278
2026-01-06 04:29:36.17	309.43	16.74	-51.9	-53.6	14.8	0.00e+00	0	26	0	936378368	70	4252
2026-01-06 04:29:37.16	309.26	16.67	-51.8	-53.5	14.8	0.00e+00	0	26	0	938475520	70	4229
2026-01-06 04:29:38.17	309.09	16.60	-51.8	-53.5	14.9	0.00e+00	0	26	0	940572672	70	4195
2026-01-06 04:29:39.17	308.92	16.52	-51.9	-53.6	14.8	0.00e+00	0	26	0	941621248	70	4251
2026-01-06 04:29:40.17	308.74	16.45	-51.8	-53.5	14.8	0.00e+00	0	26	0	943718400	70	4231
2026-01-06 04:29:41.17	308.58	16.38	-51.5	-53.1	14.9	0.00e+00	0	26	0	945815552	69	4271
2026-01-06 04:29:42.17	308.41	16.31	-51.4	-53.1	14.9	0.00e+00	0	26	0	947912704	69	4248
2026-01-06 04:29:43.17	308.24	16.23	-51.3	-53.0	14.9	0.00e+00	0	26	0	948961280	69	4194
2026-01-06 04:29:44.16	308.07	16.16	-51.4	-53.0	14.9	0.00e+00	0	26	0	951058432	69	4211
2026-01-06 04:29:45.16	307.91	16.09	-51.3	-52.9	14.9	0.00e+00	0	26	0	953155584	69	4178
2026-01-06 04:29:46.15	307.74	16.02	-51.4	-53.0	14.9	0.00e+00	0	26	0	955252736	69	4217
2026-01-06 04:29:47.15	307.58	15.94	-51.5	-53.2	14.8	0.00e+00	0	26	0	957349888	69	4299
2026-01-06 04:29:48.15	307.42	15.87	-51.6	-53.2	14.8	0.00e+00	0	26	0	958398464	69	4327
2026-01-06 04:29:49.14	307.26	15.80	-51.6	-53.3	14.8	0.00e+00	0	26	0	960495616	69	4357
2026-01-06 04:29:50.13	307.09	15.72	-51.6	-53.3	14.8	0.00e+00	0	26	0	962592768	69	4350
2026-01-06 04:29:51.13	306.93	15.65	-51.6	-53.3	14.8	0.00e+00	0	26	0	964689920	69	4372
2026-01-06 04:29:52.12	306.77	15.58	-51.7	-53.3	14.7	0.00e+00	0	26	0	965738496	69	4377
2026-01-06 04:29:53.12	306.62	15.51	-51.7	-53.4	14.7	0.00e+00	0	26	0	967835648	69	4399
2026-01-06 04:29:54.12	306.46	15.43	-51.5	-53.2	14.8	0.00e+00	0	26	0	969932800	69	4304
2026-01-06 04:29:55.11	306.30	15.36	-51.5	-53.2	14.8	0.00e+00	0	26	0	972029952	69	4316
2026-01-06 04:29:56.11	306.14	15.29	-51.6	-53.2	14.8	0.00e+00	0	26	0	974127104	69	4328
2026-01-06 04:29:57.11	305.99	15.21	-51.6	-53.3	14.8	0.00e+00	0	26	0	975175680	69	4373
2026-01-06 04:29:58.11	305.83	15.14	-51.6	-53.2	14.8	0.00e+00	0	26	0	977272832	69	4339
2026-01-06 04:29:59.11	305.68	15.07	-51.7	-53.4	14.7	0.00e+00	0	26	0	979369984	69	4397
2026-01-06 04:30:00.10	305.52	15.00	-51.6	-53.3	14.8	0.00e+00	0	26	0	981467136	69	4350
2026-01-06 04:30:01.09	305.37	14.92	-51.7	-53.4	14.7	0.00e+00	0	26	0	982515712	69	4402
2026-01-06 04:30:02.10	305.22	14.85	-51.7	-53.4	14.7	0.00e+00	0	26	0	984612864	69	4422
2026-01-06 04:30:03.09	305.07	14.78	-51.7	-53.4	14.7	0.00e+00	0	26	0	986710016	69	4429
2026-01-06 04:30:04.09	304.92	14.70	-51.8	-53.5	14.7	0.00e+00	0	26	0	988807168	69	4452
2026-01-06 04:30:05.09	304.77	14.63	-51.7	-53.4	14.7	0.00e+00	0	26	0	990904320	69	4426
2026-01-06 04:30:06.09	304.62	14.56	-51.7	-53.4	14.7	0.00e+00	0	26	0	991952896	69	4423
2026-01-06 04:30:07.09	304.47	14.48	-51.8	-53.5	14.7	0.00e+00	0	26	0	994050048	69	4487
2026-01-06 04:30:08.08	304.32	14.41	-51.8	-53.5	14.7	0.00e+00	0	26	0	996147200	69	4491
2026-01-06 04:30:09.08	304.17	14.34	-51.9	-53.6	14.6	0.00e+00	0	26	0	998244352	69	4542
2026-01-06 04:30:10.07	304.03	14.27	-52.1	-53.8	14.5	0.00e+00	0	26	0	1000341504	69	4642
2026-01-06 04:30:11.07	303.88	14.19	-52.1	-53.8	14.5	0.00e+00	0	26	0	1001390080	69	4650
2026-01-06 04:30:12.06	303.74	14.12	-52.2	-54.0	14.5	0.00e+00	0	26	0	1003487232	69	4721
2026-01-06 04:30:13.06	303.59	14.05	-52.2	-54.0	14.4	0.00e+00	0	26	0	1005584384	69	4758
2026-01-06 04:30:14.06	303.45	13.98	-52.5	-54.4	14.4	0.00e+00	0	26	0	1007681536	70	4654
2026-01-06 04:30:15.05	303.31	13.90	-52.4	-54.3	14.5	0.00e+00	0	26	0	1008730112	70	4620
2026-01-06 04:30:16.06	303.16	13.83	-52.5	-54.3	14.4	0.00e+00	0	26	0	1010827264	70	4633
2026-01-06 04:30:17.05	303.02	13.76	-52.4	-54.3	14.4	0.00e+00	0	26	0	1012924416	70	4638
2026-01-06 04:30:18.06	302.88	13.69	-52.4	-54.3	14.4	0.00e+00	0	26	0	1015021568	70	4633
2026-01-06 04:30:19.05	302.74	13.61	-52.4	-54.2	14.5	0.00e+00	0	26	0	1017118720	70	4576
2026-01-06 04:30:20.05	302.60	13.54	-52.3	-54.2	14.5	0.00e+00	0	26	0	1018167296	70	4558
2026-01-06 04:30:21.05	302.46	13.47	-52.3	-54.1	14.5	0.00e+00	0	26	0	1020264448	70	4544
2026-01-06 04:30:22.05	302.33	13.40	-52.2	-54.0	14.6	0.00e+00	0	26	0	1022361600	70	4471
2026-01-06 04:30:23.05	302.19	13.32	-52.1	-53.9	14.6	0.00e+00	0	26	0	1024458752	70	4423
2026-01-06 04:30:24.06	302.05	13.25	-52.2	-54.0	14.5	0.00e+00	0	26	0	1026555904	70	4484
2026-01-06 04:30:25.06	301.91	13.18	-52.3	-54.1	14.5	0.00e+00	0	26	0	1027604480	70	4528
2026-01-06 04:30:26.06	301.78	13.11	-52.4	-54.2	14.5	0.00e+00	0	26	0	1029701632	70	4588
2026-01-06 04:30:27.05	301.65	13.03	-52.4	-54.3	14.4	0.00e+00	0	26	0	1031798784	70	4605
2026-01-06 04:30:28.06	301.51	12.96	-52.6	-54.5	14.4	0.00e+00	0	26	0	1033895936	70	4711
2026-01-06 04:30:29.05	301.38	12.89	-52.6	-54.6	14.3	0.00e+00	0	26	0	1035993088	70	4781
2026-01-06 04:30:30.05	301.25	12.82	-52.7	-54.6	14.3	0.00e+00	0	26	0	1037041664	70	4800
2026-01-06 04:30:31.04	301.12	12.75	-52.7	-54.7	14.2	0.00e+00	0	26	0	1039138816	70	4835
2026-01-06 04:30:32.04	300.98	12.67	-52.8	-54.8	14.2	0.00e+00	0	26	0	1041235968	70	4890
2026-01-06 04:30:33.04	300.85	12.60	-52.7	-54.7	14.3	0.00e+00	0	26	0	1043333120	70	4823
2026-01-06 04:30:34.04	300.72	12.53	-52.7	-54.6	14.3	0.00e+00	0	26	0	1044381696	70	4812
2026-01-06 04:30:35.04	300.59	12.46	-52.8	-54.8	14.2	0.00e+00	0	26	0	1046478848	70	4900
2026-01-06 04:30:36.04	300.46	12.39	-52.7	-54.7	14.3	0.00e+00	0	26	0	1048576000	70	4820
2026-01-06 04:30:37.04	300.34	12.32	-52.6	-54.6	14.3	0.00e+00	0	26	0	1050673152	70	4786
2026-01-06 04:30:38.04	300.21	12.24	-52.8	-54.7	14.2	0.00e+00	0	26	0	1052770304	70	4857
2026-01-06 04:30:39.03	300.08	12.17	-52.7	-54.7	14.2	0.00e+00	0	26	0	1053818880	70	4860
2026-01-06 04:30:40.03	299.96	12.10	-52.8	-54.8	14.2	0.00e+00	0	26	0	1055916032	70	4921
2026-01-06 04:30:41.02	299.83	12.03	-52.8	-54.8	14.2	0.00e+00	0	26	0	1058013184	70	4875
2026-01-06 04:30:42.02	299.71	11.96	-52.8	-54.8	14.2	0.00e+00	0	26	0	1060110336	70	4926
2026-01-06 04:30:43.01	299.58	11.89	-52.9	-54.9	14.1	0.00e+00	0	26	0	1061158912	70	4952
2026-01-06 04:30:44.01	299.46	11.82	-52.9	-54.9	14.1	0.00e+00	0	26	0	1063256064	70	4946
2026-01-06 04:30:45.02	299.34	11.75	-52.9	-54.9	14.2	0.00e+00	0	26	0	1065353216	71	4686
2026-01-06 04:30:46.01	299.21	11.68	-52.9	-54.9	14.2	0.00e+00	0	26	0	1067450368	71	4695
2026-01-06 04:30:47.01	299.09	11.61	-52.8	-54.9	14.3	0.00e+00	0	26	0	1069547520	71	4661
2026-01-06 04:30:48.01	298.97	11.54	-52.9	-54.9	14.2	0.00e+00	0	26	0	1070596096	71	4690
2026-01-06 04:30:49.00	298.85	11.47	-52.9	-55.0	14.2	0.00e+00	0	26	0	1072693248	71	4720
2026-01-06 04:30:50.00	298.73	11.39	-53.0	-55.0	14.2	0.00e+00	0	26	0	1074790400	71	4759
2026-01-06 04:30:50.99	298.61	11.32	-53.0	-55.0	14.2	0.00e+00	0	26	0	1076887552	71	4750
2026-01-06 04:30:51.98	298.50	11.25	-53.1	-55.2	14.1	0.00e+00	0	26	0	1077936128	71	4832
2026-01-06 04:30:52.98	298.38	11.18	-53.2	-55.3	14.0	0.00e+00	0	26	0	1080033280	71	4910
2026-01-06 04:30:53.98	298.26	11.11	-53.1	-55.2	14.1	0.00e+00	0	26	0	1082130432	71	4849
2026-01-06 04:30:54.98	298.14	11.04	-53.3	-55.4	14.0	0.00e+00	0	26	0	1084227584	71	4961
2026-01-06 04:30:55.97	298.03	10.97	-53.2	-55.4	14.0	0.00e+00	0	26	0	1086324736	71	4962
2026-01-06 04:30:56.97	297.91	10.90	-53.2	-55.4	14.0	0.00e+00	0	26	0	1087373312	71	4959
2026-01-06 04:30:57.97	297.79	10.83	-53.2	-55.4	14.0	0.00e+00	0	26	0	1089470464	71	4949
2026-01-06 04:30:58.96	297.68	10.76	-53.1	-55.3	14.1	0.00e+00	0	26	0	1091567616	71	4877
2026-01-06 04:30:59.96	297.57	10.70	-53.2	-55.3	14.0	0.00e+00	0	26	0	1093664768	71	4915
2026-01-06 04:31:00.95	297.45	10.63	-53.2	-55.3	14.0	0.00e+00	0	26	0	1095761920	71	4906
2026-01-06 04:31:01.95	297.34	10.56	-53.2	-55.4	14.0	0.00e+00	0	26	0	1096810496	71	4928
2026-01-06 04:31:02.95	297.23	10.49	-53.2	-55.4	14.0	0.00e+00	0	26	0	1098907648	71	4942
2026-01-06 04:31:03.94	297.12	10.42	-53.3	-55.4	14.0	0.00e+00	0	26	0	1101004800	71	4975
2026-01-06 04:31:04.94	297.00	10.35	-53.2	-55.4	14.0	0.00e+00	0	26	0	1103101952	71	4928
2026-01-06 04:31:05.94	296.89	10.28	-53.2	-55.4	14.0	0.00e+00	0	26	0	1104150528	71	4936
2026-01-06 04:31:06.94	296.78	10.21	-53.3	-55.4	14.0	0.00e+00	0	26	0	1106247680	71	4976
2026-01-06 04:31:07.94	296.67	10.14	-53.4	-55.6	13.9	0.00e+00	0	26	0	1108344832	71	5049
2026-01-06 04:31:08.94	296.56	10.07	-53.3	-55.5	14.0	0.00e+00	0	26	0	1110441984	71	5000
2026-01-06 04:31:09.94	296.45	10.00	-53.3	-55.5	13.9	0.00e+00	0	26	0	1112539136	71	5005
2026-01-06 04:31:10.94	296.35	9.93	-53.5	-55.8	13.9	0.00e+00	0	26	0	1113587712	72	4890
2026-01-06 04:31:11.93	296.24	9.87	-53.7	-56.0	13.8	0.00e+00	0	26	0	1115684864	72	5003
2026-01-06 04:31:12.93	296.13	9.80	-53.7	-56.0	13.8	0.00e+00	0	26	0	1117782016	72	5019
2026-01-06 04:31:13.93	296.02	9.73	-53.8	-56.1	13.7	0.00e+00	0	26	0	1119879168	72	5100
2026-01-06 04:31:14.93	295.92	9.66	-53.7	-56.1	13.8	0.00e+00	0	26	0	1121976320	72	5045
2026-01-06 04:31:15.93	295.81	9.59	-53.8	-56.3	13.7	0.00e+00	0	26	0	1123024896	72	5161
2026-01-06 04:31:16.92	295.71	9.52	-53.8	-56.1	13.7	0.00e+00	0	26	0	1125122048	72	5071
2026-01-06 04:31:17.92	295.60	9.46	-53.8	-56.2	13.7	0.00e+00	0	26	0	1127219200	72	5144
2026-01-06 04:31:18.92	295.50	9.39	-53.7	-56.1	13.7	0.00e+00	0	26	0	1129316352	72	5042
2026-01-06 04:31:19.91	295.40	9.32	-53.7	-56.1	13.7	0.00e+00	0	26	0	1130364928	72	5042
2026-01-06 04:31:20.92	295.29	9.25	-54.0	-56.4	13.6	0.00e+00	0	26	0	1132462080	73	4981
2026-01-06 04:31:21.92	295.19	9.18	-54.0	-56.5	13.6	0.00e+00	0	26	0	1134559232	73	5024
2026-01-06 04:31:22.91	295.09	9.12	-53.9	-56.4	13.7	0.00e+00	0	26	0	1136656384	73	4937
2026-01-06 04:31:23.91	294.98	9.05	-54.1	-56.6	13.5	0.00e+00	0	26	0	1138753536	73	5066
2026-01-06 04:31:24.91	294.88	8.98	-54.1	-56.6	13.6	0.00e+00	0	26	0	1139802112	73	5061
2026-01-06 04:31:25.91	294.78	8.91	-54.1	-56.6	13.5	0.00e+00	0	26	0	1141899264	73	5056
2026-01-06 04:31:26.91	294.68	8.85	-54.2	-56.8	13.4	0.00e+00	0	26	0	1143996416	73	5206
2026-01-06 04:31:27.91	294.58	8.78	-54.3	-57.0	13.3	0.00e+00	0	26	0	1146093568	73	5305
2026-01-06 04:31:28.91	294.48	8.71	-54.4	-57.1	13.3	0.00e+00	0	26	0	1148190720	73	5384
2026-01-06 04:31:29.91	294.38	8.64	-54.3	-56.9	13.4	0.00e+00	0	26	0	1149239296	73	5254
2026-01-06 04:31:30.90	294.29	8.58	-54.4	-57.1	13.3	0.00e+00	0	26	0	1151336448	73	5362
2026-01-06 04:31:31.91	294.19	8.51	-54.4	-57.1	13.4	0.00e+00	0	26	0	1153433600	74	5053
2026-01-06 04:31:32.91	294.09	8.44	-54.4	-57.0	13.4	0.00e+00	0	26	0	1155530752	74	5037
2026-01-06 04:31:33.90	293.99	8.38	-54.4	-57.1	13.4	0.00e+00	0	26	0	1156579328	74	5062
2026-01-06 04:31:34.90	293.90	8.31	-54.2	-56.7	13.6	0.00e+00	0	26	0	1158676480	74	4869
2026-01-06 04:31:35.89	293.80	8.25	-54.3	-56.9	13.5	0.00e+00	0	26	0	1160773632	74	4972
2026-01-06 04:31:36.89	293.70	8.18	-54.3	-56.9	13.4	0.00e+00	0	26	0	1162870784	74	4980
2026-01-06 04:31:37.89	293.61	8.11	-54.2	-56.8	13.5	0.00e+00	0	26	0	1164967936	74	4897
2026-01-06 04:31:38.88	293.51	8.05	-54.2	-56.8	13.5	0.00e+00	0	26	0	1166016512	74	4924
2026-01-06 04:31:39.87	293.42	7.98	-54.2	-56.8	13.5	0.00e+00	0	26	0	1168113664	74	4910
2026-01-06 04:31:40.87	293.33	7.92	-54.2	-56.7	13.6	0.00e+00	0	26	0	1170210816	74	4870
2026-01-06 04:31:41.87	293.23	7.85	-54.1	-56.7	13.6	0.00e+00	0	26	0	1172307968	74	4855
2026-01-06 04:31:42.87	293.14	7.78	-54.1	-56.7	13.6	0.00e+00	0	26	0	1173356544	74	4839
2026-01-06 04:31:43.87	293.05	7.72	-54.2	-56.9	13.5	0.00e+00	0	26	0	1175453696	74	4942
2026-01-06 04:31:44.87	292.96	7.65	-54.3	-57.0	13.4	0.00e+00	0	26	0	1177550848	74	4989
2026-01-06 04:31:45.86	292.86	7.59	-54.4	-57.1	13.4	0.00e+00	0	26	0	1179648000	74	5045
2026-01-06 04:31:46.87	292.77	7.52	-54.4	-57.1	13.3	0.00e+00	0	26	0	1181745152	74	5090
2026-01-06 04:31:47.86	292.68	7.46	-54.5	-57.3	13.2	0.00e+00	0	26	0	1182793728	74	5178
2026-01-06 04:31:48.86	292.59	7.39	-54.5	-57.3	13.2	0.00e+00	0	26	0	1184890880	74	5170
2026-01-06 04:31:49.86	292.50	7.33	-54.5	-57.2	13.3	0.00e+00	0	26	0	1186988032	74	5140
2026-01-06 04:31:50.86	292.41	7.26	-54.5	-57.2	13.2	0.00e+00	0	26	0	1189085184	74	5144
2026-01-06 04:31:51.85	292.32	7.20	-54.6	-57.5	13.1	0.00e+00	0	26	0	1190133760	74	5315
2026-01-06 04:31:52.84	292.23	7.13	-54.6	-57.6	13.0	0.00e+00	0	26	0	1192230912	74	5353
2026-01-06 04:31:53.84	292.15	7.07	-54.6	-57.5	13.1	0.00e+00	0	26	0	1194328064	74	5282
2026-01-06 04:31:54.84	292.06	7.00	-54.6	-57.4	13.1	0.00e+00	0	26	0	1196425216	74	5262
2026-01-06 04:31:55.84	291.97	6.94	-54.7	-57.6	13.0	0.00e+00	0	26	0	1198522368	74	5379
2026-01-06 04:31:56.84	291.88	6.87	-54.6	-57.6	13.0	0.00e+00	0	26	0	1199570944	74	5341
2026-01-06 04:31:57.83	291.80	6.81	-54.7	-57.6	13.0	0.00e+00	0	26	0	1201668096	74	5384
2026-01-06 04:31:58.83	291.71	6.75	-54.6	-57.5	13.0	0.00e+00	0	26	0	1203765248	74	5299
2026-01-06 04:31:59.82	291.62	6.68	-54.7	-57.6	13.0	0.00e+00	0	26	0	1205862400	74	5370
2026-01-06 04:32:00.82	291.54	6.62	-54.9	-58.0	12.7	0.00e+00	0	26	0	1207959552	74	5626
2026-01-06 04:32:01.81	291.45	6.55	-54.8	-57.8	12.8	7.00e-07	0	26	0	1209008128	74	5516
2026-01-06 04:32:02.81	291.37	6.49	-54.9	-58.0	12.7	0.00e+00	0	26	0	1211105280	74	5600
2026-01-06 04:32:03.80	291.29	6.43	-54.8	-57.8	12.8	0.00e+00	0	26	0	1213202432	74	5518
