passes_logs/2026/01/06/R3.2S_Murmansk/R3.2S_Murmansk__20260106_030731_AQUA_rec.log

#Pass ID: 20260106_030731_AQUA
#Satellite: AQUA
#Configuration: AQUA
#almurnet v.1.7.20251203
#Start time: 2026-01-06 03:07:33

#Version: 2.2.20231116
#Station: R3.2S_Murmansk
#Location: 33.079688 lon 68.888172 lat
#TLE: 1 27424U 02022A   26004.96787593  .00001598  00000+0  32997-3 0  9996
#TLE: 2 27424  98.4069 331.2279 0002002  90.2377   0.6092 14.61798176259425

#Time	Az	El	Level	Level2	SNR	BER	BlckErr	Temp	State	Recorded	gain1	gain2
2026-01-06 03:07:33.13	26.16	2.13	-57.6	-77.0	3.8	7.47e-01	0	24	0	0	84	32557
2026-01-06 03:07:34.12	26.14	2.20	-57.4	-76.7	3.8	7.45e-01	0	24	104	0	82	35577
2026-01-06 03:07:35.13	26.11	2.26	-57.4	-76.7	3.8	7.47e-01	0	24	104	0	82	35633
2026-01-06 03:07:36.13	26.09	2.33	-57.4	-76.8	3.8	7.46e-01	0	24	104	0	82	35702
2026-01-06 03:07:37.12	26.07	2.40	-57.4	-76.7	3.8	7.45e-01	0	24	104	0	82	35616
2026-01-06 03:07:38.12	26.05	2.46	-57.4	-76.7	3.8	7.46e-01	0	24	104	0	82	35607
2026-01-06 03:07:39.12	26.03	2.53	-57.4	-76.8	3.8	7.46e-01	0	24	104	0	82	35695
2026-01-06 03:07:40.12	26.00	2.60	-57.4	-76.7	3.8	7.47e-01	0	24	104	0	82	35556
2026-01-06 03:07:41.12	25.98	2.66	-57.4	-76.8	3.8	7.48e-01	0	24	104	0	82	35700
2026-01-06 03:07:42.12	25.96	2.73	-57.4	-76.7	3.8	7.48e-01	0	24	104	0	82	35598
2026-01-06 03:07:43.12	25.93	2.80	-57.4	-76.7	3.8	7.47e-01	0	24	104	0	82	35539
2026-01-06 03:07:44.12	25.91	2.87	-57.4	-76.7	3.8	7.44e-01	0	24	104	0	82	35454
2026-01-06 03:07:45.12	25.89	2.93	-57.4	-76.7	3.8	7.47e-01	0	24	104	0	82	35661
2026-01-06 03:07:46.11	25.86	3.00	-57.4	-76.7	3.8	7.48e-01	0	24	104	0	82	35606
2026-01-06 03:07:47.10	25.84	3.07	-57.4	-76.7	3.8	7.47e-01	0	24	104	0	82	35641
2026-01-06 03:07:48.09	25.82	3.14	-57.4	-76.7	3.8	7.49e-01	0	24	104	0	82	35642
2026-01-06 03:07:49.09	25.79	3.20	-57.4	-76.7	3.8	7.46e-01	0	24	104	0	82	35599
2026-01-06 03:07:50.09	25.77	3.27	-57.4	-76.7	3.8	7.49e-01	0	24	104	0	82	35379
2026-01-06 03:07:51.09	25.75	3.34	-57.4	-76.7	3.8	7.44e-01	0	24	104	0	82	35415
2026-01-06 03:07:52.10	25.72	3.41	-57.4	-76.6	3.8	7.48e-01	0	24	104	0	82	35139
2026-01-06 03:07:53.09	25.70	3.48	-57.3	-76.5	3.8	7.47e-01	0	25	104	0	82	34845
2026-01-06 03:07:54.09	25.67	3.55	-57.3	-76.4	3.8	7.42e-01	0	24	104	0	82	34378
2026-01-06 03:07:55.09	25.65	3.62	-57.3	-76.3	3.8	7.45e-01	0	24	104	0	82	33721
2026-01-06 03:07:56.09	25.62	3.69	-57.3	-76.1	3.8	7.46e-01	0	25	104	0	82	33205
2026-01-06 03:07:57.10	25.60	3.76	-57.3	-76.0	3.8	7.47e-01	0	25	104	0	82	32786
2026-01-06 03:07:58.10	25.57	3.83	-57.3	-75.9	3.8	7.45e-01	0	24	104	0	82	32375
2026-01-06 03:07:59.10	25.55	3.90	-57.2	-75.8	3.8	7.48e-01	0	25	104	0	82	32108
2026-01-06 03:08:00.09	25.52	3.97	-57.2	-75.7	3.8	7.50e-01	0	25	104	0	82	31780
2026-01-06 03:08:01.09	25.50	4.04	-57.2	-75.5	3.8	7.48e-01	0	25	104	0	82	30797
2026-01-06 03:08:02.08	25.47	4.11	-57.2	-75.2	3.8	7.45e-01	0	25	104	0	82	30002
2026-01-06 03:08:03.08	25.44	4.18	-57.1	-74.8	3.8	7.45e-01	0	25	104	0	82	28445
2026-01-06 03:08:04.08	25.42	4.25	-57.0	-74.3	3.8	7.45e-01	0	25	104	0	82	27055
2026-01-06 03:08:05.08	25.39	4.32	-56.9	-73.7	3.8	7.47e-01	0	25	104	0	82	25223
2026-01-06 03:08:06.08	25.36	4.40	-56.7	-73.1	3.8	7.46e-01	0	25	104	0	82	23552
2026-01-06 03:08:07.08	25.34	4.47	-56.6	-72.5	3.8	7.42e-01	0	25	104	0	82	21922
2026-01-06 03:08:08.08	25.31	4.54	-56.2	-71.5	3.8	7.48e-01	0	25	104	0	81	20768
2026-01-06 03:08:09.08	25.28	4.61	-56.1	-71.0	3.8	7.46e-01	0	25	104	0	81	19411
2026-01-06 03:08:10.08	25.26	4.68	-56.0	-70.7	3.8	7.47e-01	0	25	104	0	81	18859
2026-01-06 03:08:11.08	25.23	4.76	-55.9	-70.6	3.8	7.43e-01	0	25	104	0	81	18628
2026-01-06 03:08:12.08	25.20	4.83	-55.8	-70.3	3.8	7.45e-01	0	25	104	0	80	19062
2026-01-06 03:08:13.08	25.17	4.90	-55.8	-70.2	3.8	7.45e-01	0	25	104	0	80	18864
2026-01-06 03:08:14.08	25.15	4.98	-55.8	-70.4	3.8	7.49e-01	0	25	104	0	80	19237
2026-01-06 03:08:15.08	25.12	5.05	-55.9	-70.7	3.8	7.43e-01	0	25	104	0	80	20003
2026-01-06 03:08:16.08	25.09	5.12	-56.2	-71.3	3.8	7.43e-01	0	25	104	0	80	21427
2026-01-06 03:08:17.09	25.06	5.20	-54.1	-66.8	3.8	7.48e-01	0	25	104	0	77	15156
2026-01-06 03:08:18.09	25.03	5.27	-57.2	-75.5	3.8	7.48e-01	0	25	104	0	82	30829
2026-01-06 03:08:19.08	25.00	5.35	-54.6	-67.6	3.8	7.45e-01	0	25	104	0	78	15746
2026-01-06 03:08:20.07	24.97	5.42	-56.4	-71.9	3.8	7.46e-01	0	25	104	0	80	22946
2026-01-06 03:08:21.07	24.95	5.50	-53.7	-66.2	3.8	7.44e-01	0	25	104	0	76	15042
2026-01-06 03:08:22.07	24.92	5.57	-53.7	-66.3	3.8	7.46e-01	0	25	104	0	76	15133
2026-01-06 03:08:23.07	24.89	5.65	-53.5	-66.0	3.8	7.48e-01	0	25	104	0	76	14547
2026-01-06 03:08:24.08	24.86	5.72	-51.6	-63.4	3.8	7.49e-01	0	25	104	0	72	13711
2026-01-06 03:08:25.07	24.83	5.80	-53.6	-66.1	3.8	7.42e-01	0	25	104	0	74	16669
2026-01-06 03:08:26.08	24.80	5.88	-57.3	-75.4	3.8	7.48e-01	0	25	104	0	82	30713
2026-01-06 03:08:27.09	24.77	5.95	-54.7	-67.8	3.8	7.49e-01	0	25	104	0	78	15968
2026-01-06 03:08:28.08	24.74	6.03	-56.4	-71.8	3.8	7.45e-01	0	25	104	0	80	22569
2026-01-06 03:08:29.08	24.71	6.11	-53.7	-66.1	3.8	7.45e-01	0	25	104	0	76	14830
2026-01-06 03:08:30.08	24.67	6.18	-53.4	-65.7	3.8	7.46e-01	0	25	104	0	76	14134
2026-01-06 03:08:31.08	24.64	6.26	-53.2	-65.6	3.8	7.45e-01	0	25	104	0	75	14716
2026-01-06 03:08:32.07	24.61	6.34	-54.3	-67.0	3.8	7.49e-01	0	25	104	0	76	16494
2026-01-06 03:08:33.07	24.58	6.42	-53.4	-65.9	3.8	7.46e-01	0	25	104	0	75	15226
2026-01-06 03:08:34.08	24.55	6.49	-57.4	-75.5	3.8	7.46e-01	0	25	104	0	82	30870
2026-01-06 03:08:35.07	24.52	6.57	-54.5	-67.4	3.8	7.47e-01	0	25	104	0	78	15388
2026-01-06 03:08:36.08	24.48	6.65	-56.5	-71.7	3.8	7.46e-01	0	25	104	0	80	22372
2026-01-06 03:08:37.07	24.45	6.73	-53.5	-65.8	3.8	7.49e-01	0	25	104	0	76	14347
2026-01-06 03:08:38.07	24.42	6.81	-53.2	-65.5	3.8	7.47e-01	0	25	104	0	75	14598
2026-01-06 03:08:39.07	24.39	6.89	-53.0	-65.2	3.8	7.45e-01	0	25	104	0	75	14088
2026-01-06 03:08:40.07	24.35	6.97	-55.7	-69.5	3.8	7.47e-01	0	25	104	0	79	18442
2026-01-06 03:08:41.07	24.32	7.05	-53.3	-65.6	3.8	7.46e-01	0	25	104	0	75	14855
2026-01-06 03:08:42.07	24.29	7.13	-57.5	-75.6	3.8	7.45e-01	0	25	104	0	82	31312
2026-01-06 03:08:43.07	24.25	7.21	-54.4	-67.2	3.8	7.43e-01	0	25	104	0	78	15010
2026-01-06 03:08:44.07	24.22	7.29	-56.4	-71.4	3.8	7.46e-01	0	25	104	0	80	21568
2026-01-06 03:08:45.06	24.19	7.37	-53.2	-65.4	3.8	7.46e-01	0	25	104	0	75	14386
2026-01-06 03:08:46.06	24.15	7.45	-52.8	-64.8	3.8	7.44e-01	0	25	104	0	74	14363
2026-01-06 03:08:47.06	24.12	7.53	-52.7	-64.8	3.8	7.43e-01	0	25	104	0	74	14348
2026-01-06 03:08:48.07	24.08	7.62	-51.3	-63.0	3.8	7.47e-01	0	25	104	0	71	13774
2026-01-06 03:08:49.07	24.05	7.70	-53.1	-65.3	3.9	7.45e-01	0	25	104	0	73	16051
2026-01-06 03:08:50.07	24.01	7.78	-57.6	-75.6	3.8	7.46e-01	0	25	104	0	82	31146
2026-01-06 03:08:51.07	23.98	7.86	-54.8	-67.8	3.8	7.48e-01	0	25	104	0	78	15965
2026-01-06 03:08:52.07	23.94	7.95	-56.5	-71.3	3.8	7.45e-01	0	25	104	0	80	21440
2026-01-06 03:08:53.06	23.90	8.03	-53.0	-65.2	3.8	7.46e-01	0	25	104	0	75	14109
2026-01-06 03:08:54.06	23.87	8.11	-53.0	-65.1	3.9	7.47e-01	0	25	104	0	75	13989
2026-01-06 03:08:55.06	23.83	8.20	-53.0	-65.2	3.8	7.45e-01	0	25	104	0	75	14112
2026-01-06 03:08:56.05	23.79	8.28	-51.2	-62.9	3.9	7.48e-01	0	25	104	0	71	13618
2026-01-06 03:08:57.05	23.76	8.36	-52.8	-64.9	3.8	7.45e-01	0	25	104	0	73	15277
2026-01-06 03:08:58.04	23.72	8.45	-57.7	-75.6	3.8	7.47e-01	0	25	104	0	83	29499
2026-01-06 03:08:59.04	23.68	8.53	-54.7	-67.7	3.9	7.49e-01	0	26	104	0	78	15831
2026-01-06 03:09:00.04	23.64	8.62	-56.4	-71.1	3.8	7.48e-01	0	25	104	0	80	20856
2026-01-06 03:09:01.03	23.61	8.70	-53.0	-65.1	3.9	7.40e-01	0	25	104	0	75	13894
2026-01-06 03:09:02.03	23.57	8.79	-52.7	-64.7	3.8	7.45e-01	0	25	104	0	74	14137
2026-01-06 03:09:03.03	23.53	8.88	-52.3	-64.2	3.9	7.46e-01	0	25	104	0	73	14129
2026-01-06 03:09:04.03	23.49	8.96	-53.3	-65.6	3.9	7.42e-01	0	25	104	0	74	15667
2026-01-06 03:09:05.02	23.45	9.05	-52.7	-64.7	3.8	7.44e-01	0	26	104	0	73	15001
2026-01-06 03:09:06.02	23.41	9.14	-57.7	-75.6	3.8	7.48e-01	0	25	104	0	83	29399
2026-01-06 03:09:07.03	23.37	9.22	-54.5	-67.3	3.8	7.45e-01	0	25	104	0	78	15154
2026-01-06 03:09:08.02	23.33	9.31	-56.3	-70.7	3.9	7.47e-01	0	25	104	0	80	20054
2026-01-06 03:09:09.02	23.29	9.40	-52.7	-64.6	3.9	7.44e-01	0	25	104	0	74	13973
2026-01-06 03:09:10.02	23.25	9.49	-52.4	-64.3	3.9	7.46e-01	0	25	104	0	74	13457
2026-01-06 03:09:11.02	23.21	9.58	-51.8	-63.6	3.8	7.41e-01	0	25	104	0	72	13891
2026-01-06 03:09:12.02	23.17	9.67	-51.1	-62.7	3.8	7.47e-01	0	25	104	0	70	14105
2026-01-06 03:09:13.02	23.13	9.76	-52.4	-64.2	3.9	7.45e-01	0	26	104	0	72	15044
2026-01-06 03:09:14.02	23.09	9.85	-57.7	-75.1	3.8	7.47e-01	0	25	104	0	83	27985
2026-01-06 03:09:15.01	23.04	9.94	-54.7	-67.5	3.9	7.44e-01	0	25	104	0	78	15564
2026-01-06 03:09:16.00	23.00	10.03	-56.2	-70.4	3.8	7.41e-01	0	25	104	0	80	19270
2026-01-06 03:09:16.99	22.96	10.12	-52.4	-64.3	3.8	7.46e-01	0	25	104	0	74	13418
2026-01-06 03:09:17.99	22.92	10.21	-52.3	-64.1	3.9	7.42e-01	0	25	104	0	73	13982
2026-01-06 03:09:18.98	22.87	10.30	-52.2	-64.0	3.9	7.45e-01	0	25	104	0	73	13742
2026-01-06 03:09:19.98	22.83	10.39	-55.7	-69.4	3.9	7.45e-01	0	25	104	0	79	18154
2026-01-06 03:09:20.98	22.79	10.48	-52.2	-64.0	3.9	7.44e-01	0	26	104	0	73	13851
2026-01-06 03:09:21.98	22.74	10.58	-57.7	-75.0	3.8	7.44e-01	0	26	104	0	83	27694
2026-01-06 03:09:22.98	22.70	10.67	-54.6	-67.2	3.8	7.46e-01	0	26	104	0	78	15042
2026-01-06 03:09:23.97	22.65	10.76	-56.0	-69.9	3.8	7.48e-01	0	26	104	0	79	19223
2026-01-06 03:09:24.97	22.61	10.86	-52.2	-64.0	3.9	7.45e-01	0	25	104	0	73	13826
2026-01-06 03:09:25.97	22.56	10.95	-51.8	-63.5	3.9	7.42e-01	0	25	104	0	72	13739
2026-01-06 03:09:26.97	22.51	11.05	-51.2	-62.8	3.9	7.47e-01	0	25	104	0	71	13501
2026-01-06 03:09:27.98	22.47	11.14	-51.0	-62.5	3.8	7.43e-01	0	25	104	0	69	14645
2026-01-06 03:09:28.98	22.42	11.24	-51.9	-63.6	3.9	7.46e-01	0	26	104	0	71	14757
2026-01-06 03:09:29.98	22.37	11.33	-57.8	-75.1	3.8	7.46e-01	0	26	104	0	83	27931
2026-01-06 03:09:30.97	22.33	11.43	-54.6	-67.3	3.8	7.45e-01	0	26	104	0	78	15134
2026-01-06 03:09:31.97	22.28	11.53	-56.0	-69.8	3.8	7.45e-01	0	26	104	0	79	19028
2026-01-06 03:09:32.97	22.23	11.62	-52.0	-63.7	3.9	7.41e-01	0	25	104	0	73	13375
2026-01-06 03:09:33.97	22.18	11.72	-52.1	-63.9	3.8	7.41e-01	0	25	104	0	73	13666
2026-01-06 03:09:34.96	22.13	11.82	-51.7	-63.3	3.9	7.44e-01	0	25	104	0	72	13569
2026-01-06 03:09:35.96	22.08	11.92	-54.7	-67.6	3.9	7.43e-01	0	26	104	0	77	16542
2026-01-06 03:09:36.96	22.03	12.01	-51.7	-63.4	3.9	7.43e-01	0	26	104	0	72	13672
2026-01-06 03:09:37.96	21.98	12.11	-57.7	-74.6	3.7	7.43e-01	0	26	104	0	83	26352
2026-01-06 03:09:38.96	21.93	12.21	-54.7	-67.4	3.9	7.47e-01	0	26	104	0	78	15241
2026-01-06 03:09:39.95	21.88	12.31	-55.7	-69.3	3.8	7.48e-01	0	26	104	0	79	17939
2026-01-06 03:09:40.95	21.83	12.41	-51.7	-63.4	3.8	7.47e-01	0	26	104	0	72	13699
2026-01-06 03:09:41.94	21.78	12.51	-51.6	-63.2	3.8	7.45e-01	0	26	104	0	72	13399
2026-01-06 03:09:42.94	21.73	12.61	-51.1	-62.7	3.9	7.45e-01	0	25	104	0	71	13352
2026-01-06 03:09:43.94	21.68	12.72	-53.9	-66.3	3.8	7.48e-01	0	26	104	0	75	16091
2026-01-06 03:09:44.94	21.62	12.82	-51.3	-62.9	3.8	7.43e-01	0	26	104	0	71	13715
2026-01-06 03:09:45.93	21.57	12.92	-57.7	-74.6	3.8	7.48e-01	0	26	104	0	83	26290
2026-01-06 03:09:46.94	21.51	13.03	-54.4	-67.0	3.9	7.46e-01	0	26	104	0	78	14580
2026-01-06 03:09:47.94	21.46	13.13	-55.5	-68.8	3.9	7.49e-01	0	25	104	0	78	17910
2026-01-06 03:09:48.94	21.41	13.23	-51.4	-63.0	3.9	7.46e-01	0	26	104	0	72	12985
2026-01-06 03:09:49.94	21.35	13.34	-51.0	-62.5	3.9	7.44e-01	0	26	104	0	71	13059
2026-01-06 03:09:50.94	21.29	13.44	-50.5	-61.9	3.9	7.44e-01	0	26	104	0	70	12864
2026-01-06 03:09:51.94	21.24	13.55	-50.7	-62.2	3.9	7.46e-01	0	26	104	0	69	14156
2026-01-06 03:09:52.94	21.18	13.65	-51.1	-62.6	3.8	7.45e-01	0	26	104	0	69	14791
2026-01-06 03:09:53.94	21.12	13.76	-57.8	-74.4	3.7	7.47e-01	0	26	104	0	83	25667
2026-01-06 03:09:54.93	21.07	13.87	-54.7	-67.3	3.9	7.44e-01	0	26	104	0	78	15201
2026-01-06 03:09:55.93	21.01	13.97	-55.6	-68.8	3.9	7.50e-01	0	26	104	0	78	18051
2026-01-06 03:09:56.93	20.95	14.08	-51.5	-63.1	3.8	7.42e-01	0	25	104	0	72	13179
2026-01-06 03:09:57.93	20.89	14.19	-51.5	-63.1	3.8	7.45e-01	0	26	104	0	72	13189
2026-01-06 03:09:58.93	20.83	14.30	-50.9	-62.4	3.9	7.49e-01	0	26	104	0	71	12864
2026-01-06 03:09:59.93	20.77	14.41	-53.8	-66.1	3.9	7.47e-01	0	26	104	0	75	15681
2026-01-06 03:10:00.92	20.71	14.52	-51.3	-62.9	3.9	7.46e-01	0	26	104	0	71	13640
2026-01-06 03:10:01.91	20.65	14.63	-57.8	-74.3	3.7	7.47e-01	0	26	104	0	83	25358
2026-01-06 03:10:02.90	20.59	14.74	-54.7	-67.3	3.8	7.44e-01	0	26	104	0	78	15121
2026-01-06 03:10:03.90	20.53	14.85	-55.3	-68.3	3.8	7.43e-01	0	26	104	0	78	17041
2026-01-06 03:10:04.90	20.47	14.96	-51.5	-63.1	3.9	7.47e-01	0	26	104	0	72	13111
2026-01-06 03:10:05.90	20.40	15.08	-51.2	-62.8	3.8	7.45e-01	0	26	104	0	71	13494
2026-01-06 03:10:06.90	20.34	15.19	-50.7	-62.1	3.9	7.45e-01	0	26	104	0	70	13256
2026-01-06 03:10:07.90	20.28	15.30	-52.8	-64.8	3.9	7.45e-01	0	26	104	0	73	15110
2026-01-06 03:10:08.90	20.21	15.42	-51.1	-62.6	3.8	7.46e-01	0	26	104	0	71	13225
2026-01-06 03:10:09.90	20.15	15.53	-57.7	-74.0	3.8	7.46e-01	0	26	104	0	83	24651
2026-01-06 03:10:10.90	20.08	15.65	-54.8	-67.5	3.9	7.43e-01	0	26	104	0	78	15494
2026-01-06 03:10:11.89	20.01	15.76	-55.1	-68.0	3.8	7.48e-01	0	26	104	0	77	17345
2026-01-06 03:10:12.89	19.95	15.88	-51.3	-62.9	3.8	7.45e-01	0	26	104	0	71	13583
2026-01-06 03:10:13.89	19.88	16.00	-51.1	-62.6	3.8	7.46e-01	0	26	104	0	71	13249
2026-01-06 03:10:14.89	19.81	16.11	-50.9	-62.3	3.8	7.45e-01	0	26	104	0	70	13530
2026-01-06 03:10:15.90	19.74	16.23	-55.6	-68.9	3.8	7.44e-01	0	26	104	0	78	18125
2026-01-06 03:10:16.90	19.67	16.35	-50.8	-62.2	3.9	7.45e-01	0	26	104	0	70	13365
2026-01-06 03:10:17.89	19.60	16.47	-57.8	-74.0	3.7	7.51e-01	0	26	104	0	83	24542
2026-01-06 03:10:18.89	19.53	16.59	-54.7	-67.2	3.9	7.45e-01	0	26	104	0	78	15032
2026-01-06 03:10:19.89	19.46	16.71	-55.2	-68.3	3.9	7.45e-01	0	26	104	0	78	17027
2026-01-06 03:10:20.88	19.39	16.83	-50.9	-62.4	3.9	7.46e-01	0	26	104	0	71	12901
2026-01-06 03:10:21.88	19.32	16.95	-50.6	-62.0	3.9	7.46e-01	0	26	104	0	70	13016
2026-01-06 03:10:22.87	19.24	17.08	-50.1	-61.4	3.8	7.46e-01	0	26	104	0	69	12949
2026-01-06 03:10:23.87	19.17	17.20	-53.1	-65.1	3.9	7.43e-01	0	26	104	0	73	15710
2026-01-06 03:10:24.87	19.10	17.32	-50.8	-62.3	3.8	7.47e-01	0	26	104	0	70	13456
2026-01-06 03:10:25.86	19.02	17.45	-57.6	-73.2	3.8	7.47e-01	0	26	104	0	82	23649
2026-01-06 03:10:26.86	18.95	17.57	-54.7	-67.2	3.9	7.46e-01	0	26	104	0	78	15051
2026-01-06 03:10:27.86	18.87	17.70	-54.6	-67.1	3.8	7.43e-01	0	26	104	0	76	16628
2026-01-06 03:10:28.86	18.79	17.82	-51.1	-62.7	3.8	7.45e-01	0	26	104	0	71	13302
2026-01-06 03:10:29.85	18.71	17.95	-50.9	-62.4	3.9	7.44e-01	0	26	104	0	71	12899
2026-01-06 03:10:30.84	18.64	18.08	-50.4	-61.8	3.9	7.47e-01	0	26	104	0	70	12765
2026-01-06 03:10:31.83	18.56	18.20	-52.7	-64.8	3.8	7.47e-01	0	26	104	0	73	15120
2026-01-06 03:10:32.83	18.48	18.33	-50.9	-62.4	3.9	7.47e-01	0	26	104	0	70	13657
2026-01-06 03:10:33.83	18.40	18.46	-57.7	-73.7	3.8	7.47e-01	0	25	104	0	83	23764
2026-01-06 03:10:34.83	18.31	18.59	-55.1	-67.9	3.8	7.44e-01	0	26	104	0	79	15230
2026-01-06 03:10:35.82	18.23	18.72	-54.8	-67.4	3.8	7.47e-01	0	26	104	0	77	16245
2026-01-06 03:10:36.82	18.15	18.86	-51.3	-62.9	3.9	7.47e-01	0	26	104	0	71	13611
2026-01-06 03:10:37.82	18.06	18.99	-51.2	-62.8	3.8	7.46e-01	0	26	104	0	71	13415
2026-01-06 03:10:38.82	17.98	19.12	-51.1	-62.6	3.9	7.45e-01	0	26	104	0	71	13253
2026-01-06 03:10:39.82	17.89	19.26	-54.3	-66.8	3.8	7.45e-01	0	26	104	0	76	16002
2026-01-06 03:10:40.81	17.81	19.39	-50.9	-62.4	3.9	7.46e-01	0	26	104	0	71	12877
2026-01-06 03:10:41.81	17.72	19.52	-57.5	-72.7	3.8	7.48e-01	0	26	104	0	82	22320
2026-01-06 03:10:42.80	17.63	19.66	-55.1	-67.8	3.9	7.47e-01	0	26	104	0	79	15170
2026-01-06 03:10:43.80	17.54	19.80	-54.1	-66.3	3.8	7.46e-01	0	26	104	0	75	16099
2026-01-06 03:10:44.80	17.45	19.93	-51.1	-62.6	3.9	7.44e-01	0	26	104	0	71	13151
2026-01-06 03:10:45.80	17.36	20.07	-51.1	-62.6	3.8	7.46e-01	0	26	104	0	71	13146
2026-01-06 03:10:46.79	17.27	20.21	-50.5	-61.9	3.9	7.43e-01	0	26	104	0	70	12880
2026-01-06 03:10:47.79	17.18	20.35	-52.7	-64.8	3.9	7.51e-01	0	26	104	0	73	15053
2026-01-06 03:10:48.78	17.08	20.49	-50.9	-62.3	3.9	7.44e-01	0	26	104	0	70	13479
2026-01-06 03:10:49.77	16.99	20.63	-57.5	-72.6	3.8	7.47e-01	0	26	104	0	82	22148
2026-01-06 03:10:50.76	16.90	20.77	-55.1	-67.7	3.9	7.48e-01	0	26	104	0	79	14949
2026-01-06 03:10:51.76	16.80	20.92	-53.8	-66.0	3.8	7.45e-01	0	26	104	0	75	15544
2026-01-06 03:10:52.75	16.70	21.06	-51.5	-63.1	3.8	7.45e-01	0	26	104	0	72	13213
2026-01-06 03:10:53.74	16.60	21.20	-51.4	-63.0	3.8	7.46e-01	0	26	104	0	72	13026
2026-01-06 03:10:54.74	16.51	21.35	-51.2	-62.8	3.9	7.49e-01	0	26	104	0	71	13421
2026-01-06 03:10:55.73	16.41	21.49	-55.1	-67.8	3.8	7.43e-01	0	26	104	0	77	16953
2026-01-06 03:10:56.73	16.30	21.64	-51.4	-63.0	3.8	7.45e-01	0	26	104	0	72	12993
2026-01-06 03:10:57.72	16.20	21.79	-57.4	-72.2	3.8	7.43e-01	0	26	104	0	82	21123
2026-01-06 03:10:58.71	16.10	21.93	-55.2	-68.0	3.8	7.46e-01	0	26	104	0	79	15498
2026-01-06 03:10:59.71	15.99	22.08	-53.2	-65.1	3.8	7.43e-01	0	26	104	0	73	15597
2026-01-06 03:11:00.69	15.89	22.23	-51.5	-63.1	3.9	7.46e-01	0	26	104	0	72	13122
2026-01-06 03:11:01.68	15.78	22.38	-51.3	-62.8	3.9	7.44e-01	0	26	104	0	71	13454
2026-01-06 03:11:02.68	15.68	22.54	-50.7	-62.1	3.9	7.46e-01	0	26	104	0	70	13180
2026-01-06 03:11:03.94	15.54	22.73	-52.5	-64.2	3.8	7.47e-01	0	26	104	0	72	15015
2026-01-06 03:11:04.74	15.45	22.85	-51.2	-62.7	3.9	7.48e-01	0	26	104	0	71	13355
2026-01-06 03:11:05.92	15.32	23.04	-56.5	-70.1	3.8	7.46e-01	0	26	104	0	80	18595
2026-01-06 03:11:06.78	15.22	23.17	-55.7	-68.6	3.9	7.49e-01	0	26	104	0	80	15697
2026-01-06 03:11:07.92	15.09	23.35	-52.5	-64.1	3.8	7.49e-01	0	26	104	0	72	14846
2026-01-06 03:11:08.78	14.99	23.49	-52.6	-64.4	3.9	7.44e-01	0	26	104	0	74	13617
2026-01-06 03:11:09.91	14.86	23.66	-51.1	-62.6	3.9	7.47e-01	0	26	104	0	71	13192
2026-01-06 03:11:10.76	14.76	23.80	-50.7	-62.1	3.8	7.45e-01	0	26	104	0	70	13167
2026-01-06 03:11:11.90	14.62	23.98	-53.0	-64.9	3.8	7.47e-01	0	26	104	0	73	15286
2026-01-06 03:11:12.74	14.52	24.12	-51.5	-63.1	3.9	7.46e-01	0	26	104	0	72	13226
2026-01-06 03:11:13.89	14.38	24.31	-56.7	-70.8	3.8	7.49e-01	0	26	104	0	81	19040
2026-01-06 03:11:14.75	14.27	24.45	-55.8	-68.7	3.9	7.47e-01	0	26	104	0	80	15773
2026-01-06 03:11:15.89	14.13	24.64	-52.6	-64.4	3.8	7.48e-01	0	26	104	0	72	15322
2026-01-06 03:11:16.74	14.02	24.78	-52.7	-64.4	3.8	7.49e-01	0	26	104	0	74	13709
2026-01-06 03:11:17.89	13.87	24.97	-51.3	-62.9	3.8	7.44e-01	0	26	104	0	71	13600
2026-01-06 03:11:18.74	13.76	25.11	-51.2	-62.7	3.9	7.47e-01	0	26	104	0	71	13350
2026-01-06 03:11:19.87	13.62	25.30	-52.3	-64.1	3.9	7.44e-01	0	26	104	0	72	14764
2026-01-06 03:11:20.73	13.50	25.45	-51.8	-63.2	3.8	7.43e-01	0	26	104	0	72	13391
2026-01-06 03:11:21.86	13.35	25.64	-56.3	-69.7	3.8	7.46e-01	0	26	104	0	80	17886
2026-01-06 03:11:22.72	13.23	25.79	-56.1	-69.3	3.9	7.50e-01	0	26	104	0	81	16101
2026-01-06 03:11:23.86	13.08	25.99	-52.1	-63.8	3.8	7.46e-01	0	26	104	0	72	14255
2026-01-06 03:11:24.71	12.96	26.13	-53.3	-65.4	3.9	7.44e-01	0	26	104	0	76	13587
2026-01-06 03:11:25.85	12.80	26.33	-51.3	-62.8	3.9	7.44e-01	0	26	104	0	71	13452
2026-01-06 03:11:26.70	12.68	26.48	-51.3	-62.8	3.8	7.46e-01	0	26	104	0	71	13552
2026-01-06 03:11:27.84	12.52	26.68	-54.1	-66.3	3.8	7.44e-01	0	26	104	0	75	15961
2026-01-06 03:11:28.69	12.39	26.83	-52.3	-63.6	3.9	7.43e-01	0	26	104	0	73	13252
2026-01-06 03:11:29.81	12.23	27.03	-55.7	-68.4	3.8	7.45e-01	0	26	104	0	78	17151
2026-01-06 03:11:30.66	12.10	27.19	-56.1	-69.3	3.9	7.45e-01	0	26	104	0	81	16064
2026-01-06 03:11:31.80	11.93	27.39	-51.3	-62.7	3.8	7.44e-01	0	26	104	0	71	13312
2026-01-06 03:11:32.65	11.80	27.55	-53.4	-65.4	3.9	7.42e-01	0	26	104	0	76	13651
2026-01-06 03:11:33.79	11.63	27.76	-50.9	-62.4	3.8	7.42e-01	0	26	104	0	71	12824
2026-01-06 03:11:34.65	11.49	27.92	-50.5	-61.8	3.9	7.45e-01	0	26	104	0	70	12739
2026-01-06 03:11:35.79	11.31	28.13	-51.6	-63.1	3.8	7.43e-01	0	26	104	0	70	14865
2026-01-06 03:11:36.64	11.17	28.29	-51.7	-63.2	3.8	7.47e-01	0	26	104	0	72	13385
2026-01-06 03:11:37.78	10.99	28.50	-55.0	-67.4	3.8	7.46e-01	0	26	104	0	77	16145
2026-01-06 03:11:38.63	10.85	28.66	-56.3	-69.2	3.9	7.46e-01	0	26	104	0	81	15929
2026-01-06 03:11:39.77	10.66	28.88	-50.6	-61.9	3.8	7.47e-01	0	26	104	0	70	12874
2026-01-06 03:11:40.63	10.52	29.04	-53.6	-65.6	3.8	7.45e-01	0	26	104	0	76	13886
2026-01-06 03:11:41.76	10.32	29.26	-50.5	-61.9	3.8	7.46e-01	0	26	104	0	70	12834
2026-01-06 03:11:42.62	10.18	29.42	-50.1	-61.4	3.8	7.48e-01	0	26	104	0	69	12860
2026-01-06 03:11:43.75	9.98	29.64	-51.4	-62.9	3.8	7.50e-01	0	26	104	0	70	14446
2026-01-06 03:11:44.61	9.83	29.81	-52.6	-64.4	3.9	7.47e-01	0	26	104	0	74	13694
2026-01-06 03:11:45.74	9.63	30.03	-55.0	-67.4	3.8	7.47e-01	0	26	104	0	77	16134
2026-01-06 03:11:46.60	9.47	30.20	-56.4	-69.8	3.9	7.48e-01	0	26	104	0	82	16033
2026-01-06 03:11:47.74	9.26	30.43	-50.7	-62.0	3.8	7.45e-01	0	26	104	0	70	12992
2026-01-06 03:11:48.59	9.10	30.60	-53.6	-65.6	3.8	7.46e-01	0	26	104	0	76	13960
2026-01-06 03:11:49.73	8.89	30.83	-50.5	-61.9	3.8	7.46e-01	0	26	104	0	70	12826
2026-01-06 03:11:50.58	8.72	31.00	-50.0	-61.3	3.9	7.45e-01	0	26	104	0	69	12732
2026-01-06 03:11:51.72	8.50	31.23	-50.4	-61.8	3.8	7.48e-01	0	26	104	0	68	14225
2026-01-06 03:11:52.57	8.34	31.41	-52.6	-64.4	3.9	7.48e-01	0	26	104	0	74	13575
2026-01-06 03:11:53.71	8.11	31.64	-54.1	-66.1	3.8	7.43e-01	0	26	104	0	75	15693
2026-01-06 03:11:54.57	7.94	31.82	-56.8	-70.3	3.9	7.42e-01	0	26	104	0	82	16971
2026-01-06 03:11:55.71	7.70	32.06	-50.3	-61.4	3.8	7.45e-01	0	26	104	0	69	12887
2026-01-06 03:11:56.56	7.53	32.24	-53.9	-66.0	3.9	7.45e-01	0	26	104	0	77	13860
2026-01-06 03:11:57.70	7.29	32.47	-50.5	-61.8	3.9	7.47e-01	0	26	104	0	70	12769
2026-01-06 03:11:58.55	7.11	32.65	-50.2	-61.5	3.8	7.46e-01	0	26	104	0	69	13021
2026-01-06 03:11:59.69	6.86	32.90	-51.0	-62.3	3.8	7.49e-01	0	26	104	0	69	14309
2026-01-06 03:12:00.54	6.68	33.08	-52.9	-64.8	3.8	7.43e-01	0	26	104	0	75	13550
2026-01-06 03:12:01.67	6.43	33.32	-53.6	-65.3	3.8	7.44e-01	0	26	104	0	74	15223
2026-01-06 03:12:02.52	6.24	33.51	-57.4	-71.8	3.9	7.43e-01	0	26	104	0	84	18057
2026-01-06 03:12:03.65	5.98	33.75	-51.1	-62.6	3.8	7.44e-01	0	26	104	0	71	13178
2026-01-06 03:12:04.50	5.78	33.94	-55.0	-67.5	3.9	7.45e-01	0	26	104	0	79	14668
2026-01-06 03:12:05.64	5.52	34.19	-50.9	-62.3	3.8	7.44e-01	0	26	104	0	71	12679
2026-01-06 03:12:06.49	5.32	34.37	-50.7	-62.0	3.8	7.43e-01	0	26	104	0	70	13012
2026-01-06 03:12:07.63	5.04	34.63	-51.0	-62.4	3.8	7.43e-01	0	26	104	0	70	13586
2026-01-06 03:12:08.48	4.83	34.82	-54.1	-66.3	3.9	7.45e-01	0	26	104	0	77	14272
2026-01-06 03:12:09.62	4.55	35.07	-53.6	-65.5	3.8	7.44e-01	0	26	104	0	74	15516
2026-01-06 03:12:10.47	4.34	35.26	-58.2	-73.6	3.9	7.44e-01	0	26	104	0	85	20875
2026-01-06 03:12:11.60	4.05	35.52	-52.2	-63.7	3.8	7.47e-01	0	26	104	0	73	13358
2026-01-06 03:12:12.45	3.83	35.71	-55.6	-68.5	3.9	7.45e-01	0	26	104	0	79	16431
2026-01-06 03:12:13.59	3.53	35.97	-51.5	-63.0	3.8	7.45e-01	0	26	104	0	72	13041
2026-01-06 03:12:14.45	3.31	36.17	-51.0	-62.4	3.9	7.47e-01	0	26	104	0	71	12911
2026-01-06 03:12:15.57	3.00	36.42	-50.8	-62.1	3.8	7.46e-01	0	26	104	0	70	13115
2026-01-06 03:12:16.43	2.77	36.62	-55.3	-67.6	3.9	7.48e-01	0	26	104	0	79	14865
2026-01-06 03:12:17.56	2.45	36.89	-53.4	-65.3	3.9	7.47e-01	0	26	104	0	74	15175
2026-01-06 03:12:18.42	2.21	37.09	-58.5	-74.6	3.9	7.45e-01	0	26	104	0	85	23464
2026-01-06 03:12:19.56	1.89	37.35	-53.1	-64.8	3.8	7.42e-01	0	26	104	0	75	13542
2026-01-06 03:12:20.41	1.64	37.55	-56.1	-69.2	3.8	7.47e-01	0	26	104	0	80	16885
2026-01-06 03:12:21.55	1.30	37.82	-51.9	-63.5	3.8	7.47e-01	0	26	104	0	73	12988
2026-01-06 03:12:22.40	1.05	38.02	-52.0	-63.5	3.8	7.45e-01	0	26	104	0	73	13040
2026-01-06 03:12:23.54	0.70	38.29	-52.1	-63.7	3.8	7.42e-01	0	26	104	0	72	14121
2026-01-06 03:12:24.39	0.44	38.50	-56.0	-69.2	3.9	7.46e-01	0	26	104	0	81	15817
2026-01-06 03:12:25.53	0.08	38.77	-53.2	-65.3	3.8	7.46e-01	0	26	104	0	74	15079
2026-01-06 03:12:26.38	359.82	38.97	-58.8	-75.5	3.8	7.44e-01	0	26	104	0	85	25954
2026-01-06 03:12:27.52	359.45	39.25	-53.9	-66.0	3.8	7.47e-01	0	26	104	0	77	13823
2026-01-06 03:12:28.37	359.17	39.45	-56.5	-69.9	3.8	7.45e-01	0	26	104	0	80	18132
2026-01-06 03:12:29.51	358.79	39.73	-52.0	-63.6	3.8	7.43e-01	0	26	104	0	73	13122
2026-01-06 03:12:30.36	358.50	39.94	-51.8	-63.3	3.8	7.45e-01	0	26	104	0	72	13462
2026-01-06 03:12:31.51	358.11	40.22	-52.0	-63.7	3.9	7.46e-01	0	26	104	0	72	14074
2026-01-06 03:12:32.37	357.81	40.43	-56.2	-69.4	3.9	7.44e-01	0	26	104	0	81	16234
2026-01-06 03:12:33.50	357.41	40.70	-52.7	-64.5	3.8	7.46e-01	0	26	104	0	73	14626
2026-01-06 03:12:34.35	357.11	40.91	-58.7	-75.2	3.8	7.44e-01	0	26	104	0	85	25223
2026-01-06 03:12:35.49	356.69	41.19	-53.7	-65.6	3.9	7.44e-01	0	26	104	0	76	13925
2026-01-06 03:12:36.35	356.37	41.40	-56.4	-69.7	3.8	7.45e-01	0	26	104	0	80	17817
2026-01-06 03:12:37.49	355.94	41.68	-51.7	-63.2	3.8	7.47e-01	0	26	104	0	72	13360
2026-01-06 03:12:38.34	355.62	41.89	-51.8	-63.4	3.8	7.45e-01	0	26	104	0	72	13671
2026-01-06 03:12:39.48	355.17	42.18	-51.5	-63.0	3.9	7.48e-01	0	26	104	0	72	13022
2026-01-06 03:12:40.33	354.84	42.39	-56.7	-70.4	3.8	7.48e-01	0	26	104	0	81	18139
2026-01-06 03:12:41.47	354.38	42.67	-52.2	-63.8	3.8	7.47e-01	0	26	104	0	72	14332
2026-01-06 03:12:42.32	354.04	42.88	-58.8	-75.5	3.8	7.44e-01	0	26	104	0	85	26047
2026-01-06 03:12:43.46	353.57	43.16	-53.7	-65.6	3.9	7.46e-01	0	26	104	0	76	14028
2026-01-06 03:12:44.32	353.20	43.38	-56.3	-69.4	3.8	7.46e-01	0	26	104	0	80	17155
2026-01-06 03:12:45.46	352.72	43.66	-51.5	-63.0	3.8	7.46e-01	0	26	104	0	72	13045
2026-01-06 03:12:46.31	352.35	43.87	-51.3	-62.8	3.8	7.46e-01	0	26	104	0	71	13544
2026-01-06 03:12:47.44	351.85	44.15	-51.0	-62.4	3.8	7.47e-01	0	26	104	0	71	12839
2026-01-06 03:12:48.30	351.47	44.36	-56.6	-70.2	3.8	7.41e-01	0	26	104	0	81	17716
2026-01-06 03:12:49.43	350.95	44.64	-51.7	-63.2	3.8	7.49e-01	0	26	104	0	71	14134
2026-01-06 03:12:50.28	350.56	44.85	-58.8	-75.4	3.8	7.49e-01	0	26	104	0	85	25590
2026-01-06 03:12:51.41	350.03	45.13	-53.9	-65.9	3.9	7.47e-01	0	26	104	0	77	13672
2026-01-06 03:12:52.26	349.63	45.34	-56.3	-69.5	3.8	7.46e-01	0	26	104	0	80	17305
2026-01-06 03:12:53.40	349.08	45.62	-51.2	-62.7	3.8	7.43e-01	0	26	104	0	71	13367
2026-01-06 03:12:54.25	348.66	45.83	-51.2	-62.5	3.8	7.43e-01	0	26	104	0	71	13100
2026-01-06 03:12:55.39	348.09	46.10	-51.3	-62.7	3.8	7.45e-01	0	26	104	0	71	13338
2026-01-06 03:12:56.23	347.66	46.31	-58.7	-74.8	3.8	7.45e-01	0	26	104	0	85	23974
2026-01-06 03:12:57.37	347.07	46.58	-51.5	-63.0	3.8	7.47e-01	0	26	104	0	71	13747
2026-01-06 03:12:58.22	346.63	46.79	-58.8	-74.9	3.8	7.45e-01	0	26	104	0	85	24285
2026-01-06 03:12:59.35	346.03	47.06	-54.5	-66.8	3.8	7.51e-01	0	26	104	0	78	14350
2026-01-06 03:13:00.20	345.57	47.26	-56.3	-69.5	3.8	7.45e-01	0	26	104	0	80	17362
2026-01-06 03:13:01.33	344.95	47.53	-51.5	-63.0	3.8	7.45e-01	0	26	104	0	72	13053
2026-01-06 03:13:02.18	344.48	47.73	-51.2	-62.6	3.8	7.45e-01	0	26	104	0	71	13119
2026-01-06 03:13:03.31	343.84	47.99	-51.5	-62.9	3.9	7.47e-01	0	26	104	0	71	13657
2026-01-06 03:13:04.16	343.35	48.19	-57.0	-70.9	3.8	7.49e-01	0	26	104	0	81	19340
2026-01-06 03:13:05.30	342.69	48.45	-51.7	-63.1	3.8	7.45e-01	0	26	104	0	72	13230
2026-01-06 03:13:06.16	342.18	48.65	-58.7	-74.6	3.8	7.42e-01	0	26	104	0	85	23576
2026-01-06 03:13:07.29	341.50	48.90	-54.8	-66.8	3.8	7.47e-01	0	26	104	0	78	14256
2026-01-06 03:13:08.14	340.98	49.09	-56.1	-69.1	3.8	7.46e-01	0	26	104	0	79	17501
2026-01-06 03:13:09.28	340.28	49.34	-51.7	-63.1	3.8	7.45e-01	0	26	104	0	72	13178
2026-01-06 03:13:10.14	339.74	49.53	-51.3	-62.7	3.8	7.45e-01	0	26	104	0	71	13290
2026-01-06 03:13:11.28	339.01	49.78	-51.1	-62.5	3.8	7.44e-01	0	26	104	0	71	13000
2026-01-06 03:13:12.13	338.47	49.96	-58.0	-72.9	3.8	7.50e-01	0	26	104	0	83	21673
2026-01-06 03:13:13.27	337.72	50.20	-51.3	-62.7	3.9	7.44e-01	0	26	104	0	71	13289
2026-01-06 03:13:14.12	337.15	50.38	-58.5	-73.9	3.8	7.50e-01	0	26	104	0	84	22811
2026-01-06 03:13:15.26	336.39	50.61	-54.6	-66.8	3.8	7.43e-01	0	26	104	0	78	14238
2026-01-06 03:13:16.11	335.81	50.78	-55.4	-68.0	3.9	7.48e-01	0	26	104	0	78	16456
2026-01-06 03:13:17.25	335.02	51.01	-51.1	-62.5	3.8	7.46e-01	0	26	104	0	71	12969
2026-01-06 03:13:18.10	334.42	51.17	-50.9	-62.3	3.9	7.45e-01	0	26	104	0	71	12707
2026-01-06 03:13:19.25	333.61	51.39	-50.9	-62.3	3.8	7.46e-01	0	26	104	0	70	13428
2026-01-06 03:13:20.11	332.99	51.55	-58.5	-73.9	3.8	7.47e-01	0	26	104	0	84	22819
2026-01-06 03:13:21.24	332.17	51.76	-50.8	-62.1	3.8	7.44e-01	0	26	104	0	70	13206
2026-01-06 03:13:22.10	331.53	51.91	-58.4	-73.5	3.8	7.45e-01	0	26	104	0	84	21870
2026-01-06 03:13:23.23	330.69	52.11	-54.6	-66.8	3.8	7.48e-01	0	26	104	0	78	14336
2026-01-06 03:13:24.08	330.05	52.26	-54.9	-67.2	3.8	7.47e-01	0	26	104	0	77	15825
2026-01-06 03:13:25.22	329.18	52.45	-50.2	-52.6	5.0	7.05e-01	0	26	104	0	69	4669
2026-01-06 03:13:26.08	328.51	52.58	-50.3	-51.9	15.3	6.02e-01	0	26	0	0	69	4316
2026-01-06 03:13:27.22	327.62	52.76	-50.2	-51.8	15.5	5.99e-01	0	26	0	2097152	69	4284
2026-01-06 03:13:28.07	326.95	52.89	-50.3	-51.9	15.5	6.00e-01	0	26	0	3670016	69	4319
2026-01-06 03:13:29.21	326.04	53.06	-50.1	-51.7	15.5	6.01e-01	0	26	0	5767168	69	4206
2026-01-06 03:13:30.07	325.35	53.18	-50.1	-51.7	15.5	6.01e-01	0	26	0	7340032	69	4241
2026-01-06 03:13:31.22	324.41	53.33	-50.7	-52.4	15.3	6.02e-01	0	26	0	9961472	69	4580
2026-01-06 03:13:32.08	323.71	53.45	-50.0	-51.6	15.6	6.01e-01	0	26	0	11534336	69	4164
2026-01-06 03:13:33.21	322.77	53.59	-49.8	-51.3	15.5	5.99e-01	0	26	0	13631488	68	4269
2026-01-06 03:13:34.06	322.06	53.69	-50.4	-52.1	15.3	6.02e-01	0	26	0	15204352	68	4658
2026-01-06 03:13:35.19	321.11	53.81	-50.2	-51.8	15.4	6.01e-01	0	26	0	17301504	68	4517
2026-01-06 03:13:36.05	320.38	53.91	-50.2	-51.8	15.3	6.04e-01	0	26	0	18874368	68	4541
2026-01-06 03:13:37.19	319.41	54.02	-50.4	-52.0	15.3	6.01e-01	0	26	0	20971520	68	4630
2026-01-06 03:13:38.05	318.67	54.10	-50.5	-52.2	15.3	6.01e-01	0	26	0	22544384	68	4712
2026-01-06 03:13:39.19	317.68	54.20	-50.3	-52.0	15.3	6.00e-01	0	26	0	24641536	68	4606
2026-01-06 03:13:40.05	316.93	54.27	-50.3	-51.9	15.3	6.00e-01	0	26	0	26214400	68	4572
2026-01-06 03:13:41.19	315.94	54.36	-50.4	-52.1	15.3	6.02e-01	0	26	0	28311552	68	4654
2026-01-06 03:13:42.05	315.18	54.41	-50.5	-52.2	15.4	6.01e-01	0	26	0	29884416	69	4473
2026-01-06 03:13:43.18	314.18	54.48	-50.2	-51.8	15.5	5.99e-01	0	26	0	31981568	69	4246
2026-01-06 03:13:44.03	313.43	54.53	-50.3	-51.9	15.5	6.02e-01	0	26	0	33554432	69	4338
2026-01-06 03:13:45.16	312.42	54.59	-50.5	-52.2	15.4	6.03e-01	0	26	0	35651584	69	4446
2026-01-06 03:13:46.01	311.66	54.62	-50.4	-52.1	15.4	5.99e-01	0	26	0	37748736	69	4401
2026-01-06 03:13:47.14	310.65	54.66	-50.5	-52.1	15.4	6.04e-01	0	26	0	39845888	69	4432
2026-01-06 03:13:47.99	309.88	54.68	-50.3	-51.9	15.5	6.01e-01	0	26	0	41418752	69	4315
2026-01-06 03:13:49.14	308.85	54.71	-50.9	-52.7	15.3	6.03e-01	0	26	0	43515904	69	4730
2026-01-06 03:13:49.99	308.08	54.72	-50.4	-52.0	15.4	6.01e-01	0	26	0	45088768	69	4376
2026-01-06 03:13:51.14	307.05	54.73	-50.6	-52.3	15.4	6.03e-01	0	26	0	47185920	69	4526
2026-01-06 03:13:51.99	306.28	54.73	-50.3	-51.9	15.5	6.00e-01	0	26	0	48758784	69	4313
2026-01-06 03:13:53.14	305.24	54.72	-50.6	-52.3	15.4	6.02e-01	0	26	0	50855936	69	4535
2026-01-06 03:13:53.99	304.48	54.70	-50.5	-52.2	15.4	6.01e-01	0	26	0	52428800	69	4470
2026-01-06 03:13:55.13	303.45	54.68	-50.4	-52.0	15.5	6.04e-01	0	26	0	54525952	69	4362
2026-01-06 03:13:55.98	302.69	54.66	-50.8	-52.5	15.3	6.02e-01	0	26	0	56098816	69	4622
2026-01-06 03:13:57.11	301.67	54.62	-50.1	-51.6	15.6	6.01e-01	0	26	0	58195968	69	4177
2026-01-06 03:13:57.97	300.91	54.58	-50.3	-51.9	15.4	6.02e-01	0	26	0	59768832	69	4326
2026-01-06 03:13:59.10	299.90	54.52	-50.5	-52.2	15.4	6.00e-01	0	26	0	61865984	69	4443
2026-01-06 03:13:59.96	299.14	54.48	-50.7	-52.5	15.3	6.01e-01	0	26	0	63438848	69	4601
2026-01-06 03:14:01.09	298.14	54.41	-50.1	-51.7	15.5	6.00e-01	0	26	0	66060288	69	4217
2026-01-06 03:14:01.95	297.38	54.35	-50.1	-51.6	15.6	6.02e-01	0	26	0	67633152	69	4189
2026-01-06 03:14:03.09	296.38	54.26	-50.9	-52.7	15.3	6.00e-01	0	26	0	69730304	69	4726
2026-01-06 03:14:03.95	295.63	54.19	-50.8	-52.5	15.3	6.02e-01	0	26	0	71303168	69	4647
2026-01-06 03:14:05.09	294.65	54.09	-50.1	-51.7	15.5	6.01e-01	0	26	0	73400320	69	4201
2026-01-06 03:14:05.94	293.92	54.01	-49.9	-51.5	15.6	6.03e-01	0	26	0	74973184	69	4104
2026-01-06 03:14:07.07	292.95	53.89	-50.7	-52.5	15.3	6.04e-01	0	26	0	77070336	69	4613
2026-01-06 03:14:07.92	292.23	53.80	-50.7	-52.4	15.4	6.00e-01	0	26	0	78643200	69	4586
2026-01-06 03:14:09.07	291.26	53.67	-50.9	-52.6	15.3	6.01e-01	0	26	0	80740352	70	4403
2026-01-06 03:14:09.93	290.55	53.57	-50.7	-52.4	15.4	6.02e-01	0	26	0	82313216	70	4292
2026-01-06 03:14:11.07	289.60	53.42	-50.9	-52.6	15.5	6.01e-01	0	26	0	84410368	70	4397
2026-01-06 03:14:11.94	288.89	53.31	-51.1	-52.9	15.4	6.01e-01	0	26	0	85983232	70	4568
2026-01-06 03:14:13.08	287.96	53.16	-51.5	-53.3	15.2	6.03e-01	0	26	0	88080384	70	4810
2026-01-06 03:14:13.93	287.28	53.04	-51.9	-53.9	15.2	6.02e-01	0	26	0	89653248	71	4855
2026-01-06 03:14:15.07	286.37	52.87	-50.4	-52.0	15.5	6.00e-01	0	26	0	91750400	70	4121
2026-01-06 03:14:15.92	285.70	52.74	-50.2	-51.8	15.4	6.01e-01	0	26	0	93323264	69	4278
2026-01-06 03:14:17.07	284.80	52.56	-49.5	-51.0	15.6	6.02e-01	0	26	0	95944704	68	4102
2026-01-06 03:14:17.92	284.15	52.42	-49.3	-50.8	15.6	6.03e-01	0	26	0	97517568	67	4267
2026-01-06 03:14:19.06	283.28	52.23	-49.8	-51.4	15.5	6.02e-01	0	26	0	99614720	68	4297
2026-01-06 03:14:19.91	282.63	52.08	-49.3	-50.8	15.5	6.01e-01	0	26	0	101187584	67	4270
2026-01-06 03:14:21.05	281.78	51.88	-49.9	-51.5	15.3	6.02e-01	0	26	0	103284736	67	4622
2026-01-06 03:14:21.91	281.15	51.73	-50.1	-51.8	15.4	6.03e-01	0	26	0	104857600	68	4497
2026-01-06 03:14:23.05	280.32	51.52	-50.1	-51.7	15.4	6.02e-01	0	26	0	106954752	68	4457
2026-01-06 03:14:23.90	279.71	51.36	-50.0	-51.6	15.4	6.01e-01	0	26	0	108527616	68	4393
2026-01-06 03:14:25.04	278.90	51.14	-50.1	-51.8	15.4	6.01e-01	0	26	0	110624768	68	4509
2026-01-06 03:14:25.90	278.30	50.97	-50.0	-51.6	15.4	6.03e-01	0	26	0	112197632	68	4423
2026-01-06 03:14:27.04	277.51	50.75	-50.1	-51.7	15.4	6.02e-01	0	26	0	114294784	68	4472
2026-01-06 03:14:27.90	276.93	50.57	-49.8	-51.4	15.5	6.00e-01	0	26	0	115867648	68	4292
2026-01-06 03:14:29.04	276.16	50.34	-49.9	-51.5	15.5	6.00e-01	0	26	0	117964800	68	4348
2026-01-06 03:14:29.90	275.59	50.16	-50.0	-51.6	15.4	6.02e-01	0	26	0	120061952	68	4397
2026-01-06 03:14:31.05	274.84	49.92	-50.0	-51.6	15.4	5.99e-01	0	26	0	122159104	68	4413
2026-01-06 03:14:31.90	274.29	49.73	-50.7	-52.5	15.3	6.00e-01	0	26	0	123731968	69	4625
2026-01-06 03:14:33.04	273.56	49.49	-50.1	-51.8	15.5	6.01e-01	0	26	0	125829120	69	4250
2026-01-06 03:14:33.89	273.03	49.30	-49.7	-51.3	15.5	6.03e-01	0	26	0	127401984	68	4243
2026-01-06 03:14:35.03	272.33	49.04	-50.4	-52.1	15.3	6.01e-01	0	26	0	129499136	68	4679
2026-01-06 03:14:35.88	271.81	48.85	-50.0	-51.6	15.4	5.98e-01	0	26	0	131072000	68	4426
2026-01-06 03:14:37.02	271.13	48.60	-49.7	-51.3	15.5	6.02e-01	0	26	0	133169152	68	4259
2026-01-06 03:14:37.88	270.62	48.40	-49.8	-51.3	15.5	6.01e-01	0	26	0	134742016	68	4269
2026-01-06 03:14:39.01	269.96	48.14	-50.1	-51.7	15.4	6.04e-01	0	26	0	136839168	68	4493
2026-01-06 03:14:39.87	269.47	47.94	-50.0	-51.6	15.4	6.03e-01	0	26	0	138412032	68	4417
2026-01-06 03:14:41.01	268.83	47.67	-49.8	-51.4	15.5	5.99e-01	0	26	0	140509184	68	4300
2026-01-06 03:14:41.87	268.35	47.47	-49.9	-51.4	15.5	6.02e-01	0	26	0	142082048	68	4337
2026-01-06 03:14:43.01	267.72	47.20	-49.8	-51.4	15.5	5.99e-01	0	26	0	144179200	68	4293
2026-01-06 03:14:43.87	267.26	46.99	-50.1	-51.7	15.4	6.03e-01	0	26	0	145752064	68	4492
2026-01-06 03:14:45.01	266.66	46.72	-50.1	-51.8	15.4	6.00e-01	0	26	0	148373504	68	4514
2026-01-06 03:14:45.86	266.21	46.51	-49.5	-51.1	15.6	5.99e-01	0	26	0	149946368	68	4146
2026-01-06 03:14:47.01	265.62	46.23	-49.6	-51.2	15.5	6.02e-01	0	26	0	152043520	68	4210
2026-01-06 03:14:47.86	265.19	46.03	-49.6	-51.2	15.5	6.00e-01	0	26	0	153616384	68	4218
2026-01-06 03:14:49.00	264.62	45.75	-49.8	-51.4	15.5	6.02e-01	0	26	0	155713536	68	4306
2026-01-06 03:14:49.85	264.21	45.54	-50.0	-51.6	15.4	6.00e-01	0	26	0	157286400	68	4422
2026-01-06 03:14:51.00	263.65	45.26	-49.8	-51.3	15.5	6.01e-01	0	26	0	159383552	68	4286
2026-01-06 03:14:51.85	263.25	45.05	-49.6	-51.1	15.6	6.01e-01	0	26	0	160956416	68	4171
2026-01-06 03:14:52.99	262.71	44.77	-49.7	-51.3	15.5	6.03e-01	0	26	0	163053568	68	4251
2026-01-06 03:14:53.85	262.32	44.55	-49.7	-51.3	15.5	6.01e-01	0	26	0	164626432	68	4275
2026-01-06 03:14:54.99	261.80	44.27	-50.0	-51.6	15.4	6.03e-01	0	26	0	166723584	68	4430
2026-01-06 03:14:55.85	261.42	44.06	-49.9	-51.5	15.5	6.00e-01	0	26	0	168296448	68	4362
2026-01-06 03:14:56.99	260.92	43.77	-49.5	-51.1	15.6	6.02e-01	0	26	0	170393600	68	4160
2026-01-06 03:14:57.84	260.55	43.56	-49.8	-51.4	15.5	6.04e-01	0	26	0	171966464	68	4296
2026-01-06 03:14:58.98	260.07	43.28	-50.2	-51.8	15.3	6.03e-01	0	26	0	174063616	68	4529
2026-01-06 03:14:59.83	259.71	43.07	-50.4	-52.1	15.3	5.99e-01	0	26	0	175636480	68	4689
2026-01-06 03:15:00.97	259.24	42.78	-50.4	-52.1	15.3	6.03e-01	0	26	0	178257920	68	4653
2026-01-06 03:15:01.82	258.90	42.57	-50.3	-52.0	15.3	6.01e-01	0	26	0	179830784	68	4615
2026-01-06 03:15:02.97	258.44	42.29	-50.3	-52.0	15.3	5.99e-01	0	26	0	181927936	68	4604
2026-01-06 03:15:03.82	258.10	42.08	-50.6	-52.3	15.2	6.03e-01	0	26	0	183500800	68	4773
2026-01-06 03:15:04.96	257.66	41.79	-50.6	-52.3	15.3	6.03e-01	0	26	0	185597952	68	4769
2026-01-06 03:15:05.81	257.34	41.58	-50.8	-52.5	15.3	6.00e-01	0	26	0	187170816	69	4631
2026-01-06 03:15:06.95	256.91	41.30	-51.3	-53.1	15.2	6.04e-01	0	26	0	189267968	70	4689
2026-01-06 03:15:07.80	256.60	41.09	-51.2	-53.0	15.3	6.01e-01	0	26	0	190840832	70	4609
2026-01-06 03:15:08.93	256.19	40.81	-51.2	-52.9	15.3	6.02e-01	0	26	0	192937984	70	4595
2026-01-06 03:15:09.79	255.88	40.60	-51.5	-53.3	15.2	6.01e-01	0	26	0	194510848	70	4799
2026-01-06 03:15:10.92	255.48	40.32	-51.7	-53.7	15.2	6.02e-01	0	26	0	196608000	71	4724
2026-01-06 03:15:11.78	255.18	40.11	-51.3	-53.1	15.4	6.04e-01	0	26	0	198180864	71	4428
2026-01-06 03:15:12.91	254.79	39.84	-51.4	-53.3	15.3	6.03e-01	0	26	0	200278016	71	4511
2026-01-06 03:15:13.76	254.51	39.63	-51.6	-53.4	15.3	6.02e-01	0	26	0	201850880	71	4591
2026-01-06 03:15:14.90	254.13	39.35	-51.3	-53.0	15.4	6.02e-01	0	26	0	203948032	71	4389
2026-01-06 03:15:15.75	253.85	39.15	-51.2	-53.0	15.4	6.01e-01	0	26	0	205520896	71	4343
2026-01-06 03:15:16.89	253.49	38.87	-51.7	-53.6	15.2	6.00e-01	0	26	0	208142336	71	4676
2026-01-06 03:15:17.74	253.22	38.67	-51.8	-53.8	15.2	5.98e-01	0	26	0	209715200	71	4785
2026-01-06 03:15:18.89	252.86	38.39	-51.6	-53.4	15.3	5.99e-01	0	26	0	211812352	71	4573
2026-01-06 03:15:19.75	252.59	38.19	-51.6	-53.4	15.3	6.01e-01	0	26	0	213385216	71	4585
2026-01-06 03:15:20.90	252.25	37.91	-52.0	-54.0	15.1	6.02e-01	0	26	0	215482368	71	4877
2026-01-06 03:15:21.76	251.99	37.71	-52.0	-54.0	15.2	6.02e-01	0	26	0	217055232	72	4603
2026-01-06 03:15:22.90	251.65	37.44	-51.5	-53.3	15.5	6.00e-01	0	26	0	219152384	72	4261
2026-01-06 03:15:23.77	251.40	37.24	-51.5	-53.3	15.5	6.00e-01	0	26	0	220725248	72	4268
2026-01-06 03:15:24.92	251.07	36.97	-51.9	-53.8	15.3	6.01e-01	0	26	0	222822400	72	4535
2026-01-06 03:15:25.78	250.83	36.77	-52.1	-54.1	15.2	6.04e-01	0	26	0	224395264	72	4661
2026-01-06 03:15:26.92	250.52	36.50	-51.5	-53.4	15.4	5.99e-01	0	26	0	226492416	72	4307
2026-01-06 03:15:27.79	250.28	36.30	-51.4	-53.2	15.5	6.01e-01	0	26	0	228589568	72	4222
2026-01-06 03:15:28.93	249.97	36.04	-51.5	-53.4	15.4	5.99e-01	0	26	0	230686720	72	4305
2026-01-06 03:15:29.78	249.75	35.84	-51.4	-53.3	15.5	6.01e-01	0	26	0	232259584	72	4249
2026-01-06 03:15:30.93	249.45	35.58	-51.1	-52.8	15.5	6.02e-01	0	26	0	234356736	71	4267
2026-01-06 03:15:31.79	249.23	35.38	-51.1	-52.8	15.5	6.04e-01	0	26	0	235929600	71	4273
2026-01-06 03:15:32.93	248.94	35.13	-51.3	-53.1	15.4	6.02e-01	0	26	0	238026752	71	4407
2026-01-06 03:15:33.79	248.72	34.93	-51.5	-53.4	15.3	6.03e-01	0	26	0	239599616	71	4559
2026-01-06 03:15:34.93	248.44	34.68	-50.8	-52.5	15.4	5.99e-01	0	26	0	241696768	70	4384
2026-01-06 03:15:35.79	248.23	34.49	-50.5	-52.1	15.5	6.02e-01	0	26	0	243269632	70	4182
2026-01-06 03:15:36.93	247.96	34.23	-50.6	-52.3	15.5	6.02e-01	0	26	0	245366784	70	4263
2026-01-06 03:15:37.79	247.76	34.04	-50.8	-52.6	15.4	6.00e-01	0	26	0	246939648	70	4392
2026-01-06 03:15:38.94	247.49	33.79	-50.8	-52.6	15.4	6.01e-01	0	26	0	249036800	70	4424
2026-01-06 03:15:39.81	247.29	33.60	-50.8	-52.5	15.4	6.01e-01	0	26	0	251133952	70	4375
2026-01-06 03:15:40.95	247.03	33.35	-50.7	-52.4	15.5	5.99e-01	0	26	0	253231104	70	4334
2026-01-06 03:15:41.81	246.84	33.17	-50.6	-52.3	15.5	6.03e-01	0	26	0	254803968	70	4291
2026-01-06 03:15:42.96	246.59	32.92	-50.5	-52.2	15.5	5.99e-01	0	26	0	256901120	70	4242
2026-01-06 03:15:43.82	246.40	32.74	-50.6	-52.3	15.5	6.01e-01	0	26	0	258473984	70	4250
2026-01-06 03:15:44.96	246.16	32.49	-50.1	-51.7	15.5	6.01e-01	0	26	0	260571136	69	4205
2026-01-06 03:15:45.82	245.97	32.31	-50.1	-51.7	15.5	5.99e-01	0	26	0	262144000	69	4225
2026-01-06 03:15:46.96	245.74	32.07	-50.3	-52.0	15.5	6.01e-01	0	26	0	264241152	69	4342
2026-01-06 03:15:47.82	245.56	31.89	-50.3	-51.9	15.5	6.01e-01	0	26	0	265814016	69	4331
2026-01-06 03:15:48.96	245.33	31.65	-50.1	-51.8	15.5	6.01e-01	0	26	0	267911168	69	4261
2026-01-06 03:15:49.82	245.15	31.48	-49.9	-51.5	15.6	6.02e-01	0	26	0	269484032	69	4121
2026-01-06 03:15:50.96	244.93	31.24	-49.6	-51.2	15.5	6.01e-01	0	26	0	271581184	68	4206
2026-01-06 03:15:51.82	244.76	31.07	-49.6	-51.2	15.5	5.99e-01	0	26	0	273154048	68	4220
2026-01-06 03:15:52.96	244.54	30.83	-49.8	-51.5	15.4	6.00e-01	0	26	0	275775488	68	4342
2026-01-06 03:15:53.82	244.38	30.66	-50.0	-51.7	15.4	6.01e-01	0	26	0	277348352	68	4453
2026-01-06 03:15:54.97	244.16	30.43	-50.0	-51.6	15.4	6.02e-01	0	26	0	279445504	68	4421
2026-01-06 03:15:55.82	244.01	30.26	-49.9	-51.6	15.4	6.01e-01	0	26	0	281018368	68	4407
2026-01-06 03:15:56.96	243.80	30.03	-50.0	-51.6	15.4	5.99e-01	0	26	0	283115520	68	4427
2026-01-06 03:15:57.82	243.64	29.86	-49.8	-51.5	15.5	6.02e-01	0	26	0	284688384	68	4343
2026-01-06 03:15:58.96	243.44	29.64	-49.7	-51.3	15.5	6.01e-01	0	26	0	286785536	68	4275
2026-01-06 03:15:59.82	243.29	29.47	-49.9	-51.5	15.4	6.03e-01	0	26	0	288358400	68	4357
2026-01-06 03:16:00.96	243.09	29.25	-49.8	-51.4	15.5	6.02e-01	0	26	0	290455552	68	4326
2026-01-06 03:16:01.81	242.94	29.09	-49.7	-51.3	15.5	6.03e-01	0	26	0	292028416	68	4289
2026-01-06 03:16:02.96	242.75	28.87	-49.6	-51.2	15.5	6.00e-01	0	26	0	294125568	68	4201
2026-01-06 03:16:03.82	242.61	28.70	-49.7	-51.2	15.5	6.01e-01	0	26	0	295698432	68	4237
2026-01-06 03:16:04.95	242.42	28.49	-49.8	-51.5	15.4	6.01e-01	0	26	0	297795584	68	4352
2026-01-06 03:16:05.81	242.28	28.32	-50.1	-51.7	15.3	5.99e-01	0	26	0	299368448	68	4478
2026-01-06 03:16:06.95	242.09	28.11	-50.0	-51.6	15.4	6.03e-01	0	26	0	301989888	68	4434
2026-01-06 03:16:07.80	241.96	27.95	-49.9	-51.6	15.4	6.01e-01	0	26	0	303562752	68	4409
2026-01-06 03:16:08.95	241.78	27.74	-50.0	-51.6	15.4	6.03e-01	0	26	0	305659904	68	4427
2026-01-06 03:16:09.81	241.65	27.58	-49.9	-51.5	15.4	6.00e-01	0	26	0	307232768	68	4375
2026-01-06 03:16:10.95	241.47	27.37	-49.9	-51.5	15.4	6.01e-01	0	26	0	309329920	68	4386
2026-01-06 03:16:11.81	241.34	27.22	-50.1	-51.8	15.4	6.03e-01	0	26	0	310902784	68	4521
2026-01-06 03:16:12.95	241.17	27.01	-50.2	-51.9	15.3	6.02e-01	0	26	0	312999936	68	4552
2026-01-06 03:16:13.80	241.04	26.86	-50.2	-51.9	15.3	5.99e-01	0	26	0	314572800	68	4562
2026-01-06 03:16:14.95	240.88	26.65	-50.1	-51.7	15.4	5.99e-01	0	26	0	316669952	68	4486
2026-01-06 03:16:15.81	240.75	26.50	-50.1	-51.7	15.4	6.03e-01	0	26	0	318242816	68	4486
2026-01-06 03:16:16.96	240.59	26.30	-50.1	-51.8	15.3	6.02e-01	0	26	0	320339968	68	4512
2026-01-06 03:16:17.82	240.47	26.14	-50.1	-51.8	15.4	6.03e-01	0	26	0	321912832	68	4494
2026-01-06 03:16:18.97	240.30	25.94	-50.1	-51.8	15.4	6.01e-01	0	26	0	324534272	68	4501
2026-01-06 03:16:19.82	240.19	25.80	-50.0	-51.7	15.4	6.03e-01	0	26	0	326107136	68	4447
2026-01-06 03:16:20.97	240.03	25.60	-50.0	-51.6	15.4	6.00e-01	0	26	0	328204288	68	4430
2026-01-06 03:16:21.83	239.92	25.45	-50.0	-51.7	15.4	6.02e-01	0	26	0	329777152	68	4468
2026-01-06 03:16:22.97	239.76	25.26	-50.1	-51.8	15.3	6.02e-01	0	26	0	331874304	68	4521
2026-01-06 03:16:23.83	239.65	25.11	-50.2	-51.8	15.3	6.02e-01	0	26	0	333447168	68	4536
2026-01-06 03:16:24.97	239.50	24.92	-50.3	-52.0	15.3	6.01e-01	0	26	0	335544320	68	4642
2026-01-06 03:16:25.83	239.39	24.77	-50.3	-52.1	15.3	6.03e-01	0	26	0	337117184	68	4665
2026-01-06 03:16:26.97	239.25	24.59	-50.4	-52.2	15.2	6.01e-01	0	26	0	339214336	68	4711
2026-01-06 03:16:27.83	239.14	24.44	-50.4	-52.1	15.3	6.00e-01	0	26	0	340787200	68	4693
2026-01-06 03:16:28.98	238.99	24.25	-50.3	-52.0	15.3	6.02e-01	0	26	0	342884352	68	4634
2026-01-06 03:16:29.83	238.89	24.11	-50.2	-51.9	15.3	6.01e-01	0	26	0	344457216	68	4583
2026-01-06 03:16:30.98	238.75	23.93	-50.2	-51.9	15.3	6.00e-01	0	26	0	346554368	68	4571
2026-01-06 03:16:31.84	238.65	23.79	-50.1	-51.7	15.3	6.02e-01	0	26	0	348651520	68	4492
2026-01-06 03:16:32.97	238.51	23.61	-50.0	-51.7	15.4	6.01e-01	0	26	0	350748672	68	4469
2026-01-06 03:16:33.83	238.41	23.47	-50.1	-51.7	15.4	6.02e-01	0	26	0	352321536	68	4479
2026-01-06 03:16:34.97	238.28	23.29	-50.1	-51.8	15.4	6.00e-01	0	26	0	354418688	68	4512
2026-01-06 03:16:35.83	238.18	23.15	-50.1	-51.8	15.3	6.02e-01	0	26	0	355991552	68	4536
2026-01-06 03:16:36.97	238.05	22.97	-50.1	-51.8	15.3	6.03e-01	0	26	0	358088704	68	4512
2026-01-06 03:16:37.83	237.95	22.84	-50.2	-51.9	15.3	6.01e-01	0	26	0	359661568	68	4548
2026-01-06 03:16:38.97	237.82	22.66	-50.1	-51.8	15.4	6.00e-01	0	26	0	361758720	68	4505
2026-01-06 03:16:39.83	237.73	22.53	-50.2	-51.9	15.3	6.00e-01	0	26	0	363331584	68	4573
2026-01-06 03:16:40.97	237.61	22.36	-50.3	-52.1	15.3	6.01e-01	0	26	0	365428736	68	4652
2026-01-06 03:16:41.83	237.51	22.23	-50.2	-51.9	15.3	6.02e-01	0	26	0	367001600	68	4596
2026-01-06 03:16:42.98	237.39	22.05	-50.4	-52.1	15.3	6.01e-01	0	26	0	369098752	68	4696
2026-01-06 03:16:43.84	237.30	21.92	-50.3	-52.1	15.3	6.04e-01	0	26	0	371195904	68	4667
2026-01-06 03:16:44.98	237.18	21.75	-50.3	-52.0	15.3	6.02e-01	0	26	0	372768768	68	4634
2026-01-06 03:16:45.84	237.09	21.62	-50.3	-52.0	15.3	6.03e-01	0	26	0	374865920	68	4636
2026-01-06 03:16:46.98	236.97	21.45	-50.3	-52.0	15.3	6.00e-01	0	26	0	376963072	68	4651
2026-01-06 03:16:47.84	236.89	21.33	-50.3	-52.0	15.3	6.01e-01	0	26	0	378535936	68	4613
2026-01-06 03:16:48.98	236.77	21.16	-50.4	-52.1	15.2	6.02e-01	0	26	0	380633088	68	4670
2026-01-06 03:16:49.83	236.69	21.04	-50.3	-52.0	15.3	6.01e-01	0	26	0	382205952	68	4621
2026-01-06 03:16:50.97	236.57	20.87	-50.2	-51.9	15.3	6.02e-01	0	26	0	384303104	68	4559
2026-01-06 03:16:51.82	236.49	20.75	-50.3	-52.0	15.3	6.03e-01	0	26	0	385875968	68	4610
2026-01-06 03:16:52.97	236.38	20.58	-50.3	-52.0	15.3	6.01e-01	0	26	0	387973120	68	4619
2026-01-06 03:16:53.83	236.30	20.46	-50.3	-52.0	15.3	6.00e-01	0	26	0	389545984	68	4625
2026-01-06 03:16:54.98	236.19	20.30	-50.2	-51.9	15.3	6.01e-01	0	26	0	391643136	68	4583
2026-01-06 03:16:55.84	236.11	20.18	-50.1	-51.8	15.3	6.02e-01	0	26	0	393216000	68	4514
2026-01-06 03:16:56.98	236.00	20.02	-50.2	-51.9	15.3	6.01e-01	0	26	0	395313152	68	4557
2026-01-06 03:16:57.84	235.92	19.90	-50.1	-51.8	15.3	6.02e-01	0	26	0	397410304	68	4534
2026-01-06 03:16:58.97	235.82	19.74	-50.0	-51.7	15.4	6.01e-01	0	26	0	399507456	68	4478
2026-01-06 03:16:59.82	235.75	19.63	-50.1	-51.8	15.3	6.00e-01	0	26	0	401080320	68	4523
2026-01-06 03:17:00.96	235.64	19.47	-50.2	-51.8	15.3	6.01e-01	0	26	0	403177472	68	4543
2026-01-06 03:17:01.83	235.57	19.35	-50.1	-51.8	15.4	5.99e-01	0	26	0	404750336	68	4497
2026-01-06 03:17:02.97	235.47	19.20	-50.0	-51.7	15.4	6.02e-01	0	26	0	406847488	68	4446
2026-01-06 03:17:03.82	235.39	19.08	-50.1	-51.7	15.3	6.00e-01	0	26	0	408420352	68	4492
2026-01-06 03:17:04.97	235.30	18.93	-50.0	-51.7	15.4	6.03e-01	0	26	0	410517504	68	4482
2026-01-06 03:17:05.82	235.22	18.82	-50.1	-51.8	15.4	6.00e-01	0	26	0	412090368	68	4504
2026-01-06 03:17:06.96	235.13	18.66	-50.3	-52.0	15.3	6.03e-01	0	26	0	414187520	68	4623
2026-01-06 03:17:07.83	235.05	18.55	-50.2	-51.9	15.3	6.02e-01	0	26	0	415760384	68	4572
2026-01-06 03:17:08.97	234.96	18.40	-50.2	-51.9	15.3	5.99e-01	0	26	0	417857536	68	4595
2026-01-06 03:17:09.83	234.89	18.29	-50.2	-52.0	15.3	5.99e-01	0	26	0	419430400	68	4606
2026-01-06 03:17:10.97	234.80	18.14	-50.0	-51.7	15.4	6.01e-01	0	26	0	421527552	68	4480
2026-01-06 03:17:11.82	234.73	18.03	-50.0	-51.7	15.4	6.02e-01	0	26	0	423624704	68	4488
2026-01-06 03:17:12.97	234.64	17.88	-50.1	-51.8	15.4	6.02e-01	0	26	0	425721856	68	4534
2026-01-06 03:17:13.83	234.57	17.77	-50.1	-51.8	15.3	6.00e-01	0	26	0	427294720	68	4520
2026-01-06 03:17:14.97	234.48	17.63	-50.2	-51.9	15.3	6.03e-01	0	26	0	429391872	68	4564
2026-01-06 03:17:15.83	234.42	17.52	-50.1	-51.9	15.3	6.00e-01	0	26	0	430964736	68	4550
2026-01-06 03:17:16.98	234.33	17.38	-50.1	-51.8	15.3	6.03e-01	0	26	0	433061888	68	4510
2026-01-06 03:17:17.84	234.26	17.27	-50.1	-51.9	15.3	6.03e-01	0	26	0	434634752	68	4546
2026-01-06 03:17:18.98	234.18	17.13	-50.2	-51.9	15.3	6.00e-01	0	26	0	436731904	68	4579
2026-01-06 03:17:19.84	234.11	17.02	-50.1	-51.8	15.3	6.03e-01	0	26	0	438304768	68	4535
2026-01-06 03:17:20.99	234.03	16.88	-50.0	-51.7	15.4	6.01e-01	0	26	0	440401920	68	4471
2026-01-06 03:17:21.85	233.96	16.77	-50.1	-51.8	15.3	6.02e-01	0	26	0	441974784	68	4510
2026-01-06 03:17:22.99	233.88	16.63	-50.0	-51.7	15.4	6.00e-01	0	26	0	444596224	68	4469
2026-01-06 03:17:23.84	233.82	16.53	-50.1	-51.8	15.3	6.02e-01	0	26	0	446169088	68	4515
2026-01-06 03:17:24.99	233.74	16.39	-50.1	-51.8	15.3	6.00e-01	0	26	0	448266240	68	4516
2026-01-06 03:17:25.85	233.68	16.29	-50.2	-51.9	15.3	6.01e-01	0	26	0	449839104	68	4558
2026-01-06 03:17:26.99	233.60	16.15	-50.2	-51.9	15.3	6.03e-01	0	26	0	451936256	68	4571
2026-01-06 03:17:27.85	233.54	16.05	-50.2	-51.9	15.3	5.99e-01	0	26	0	453509120	68	4598
2026-01-06 03:17:29.00	233.46	15.92	-50.2	-51.9	15.3	6.01e-01	0	26	0	455606272	68	4564
2026-01-06 03:17:29.85	233.40	15.82	-50.2	-52.0	15.3	6.02e-01	0	26	0	457179136	68	4604
2026-01-06 03:17:30.99	233.32	15.68	-50.1	-51.8	15.3	6.01e-01	0	26	0	459276288	68	4515
2026-01-06 03:17:31.85	233.27	15.58	-50.1	-51.8	15.3	6.01e-01	0	26	0	460849152	68	4541
2026-01-06 03:17:32.99	233.19	15.45	-50.1	-51.8	15.3	6.01e-01	0	26	0	462946304	68	4520
2026-01-06 03:17:33.85	233.13	15.35	-50.2	-51.9	15.3	5.99e-01	0	26	0	464519168	68	4558
2026-01-06 03:17:34.99	233.06	15.22	-50.1	-51.8	15.3	6.01e-01	0	26	0	466616320	68	4535
2026-01-06 03:17:35.85	233.00	15.12	-50.1	-51.8	15.3	6.01e-01	0	26	0	468713472	68	4538
2026-01-06 03:17:37.00	232.93	14.99	-50.1	-51.8	15.3	6.00e-01	0	26	0	470810624	68	4506
2026-01-06 03:17:37.86	232.88	14.89	-50.1	-51.8	15.3	6.04e-01	0	26	0	472383488	68	4516
2026-01-06 03:17:38.99	232.80	14.77	-50.2	-52.0	15.3	6.01e-01	0	26	0	474480640	68	4602
2026-01-06 03:17:39.85	232.75	14.67	-50.2	-51.9	15.3	6.02e-01	0	26	0	476053504	68	4593
2026-01-06 03:17:40.99	232.68	14.54	-50.2	-52.0	15.3	6.02e-01	0	26	0	478150656	68	4599
2026-01-06 03:17:41.85	232.63	14.45	-50.3	-52.1	15.3	6.01e-01	0	26	0	479723520	68	4659
2026-01-06 03:17:43.00	232.56	14.32	-50.2	-51.9	15.3	6.01e-01	0	26	0	481820672	68	4590
2026-01-06 03:17:43.86	232.50	14.23	-50.2	-52.0	15.3	6.00e-01	0	26	0	483393536	68	4612
2026-01-06 03:17:45.01	232.44	14.10	-50.2	-52.0	15.3	6.01e-01	0	26	0	485490688	68	4613
2026-01-06 03:17:45.87	232.38	14.01	-50.2	-52.0	15.3	6.01e-01	0	26	0	487063552	68	4610
2026-01-06 03:17:47.01	232.32	13.88	-50.3	-52.1	15.3	6.01e-01	0	26	0	489160704	68	4656
2026-01-06 03:17:47.86	232.27	13.79	-50.3	-52.0	15.3	6.02e-01	0	26	0	490733568	68	4631
2026-01-06 03:17:49.01	232.20	13.67	-50.4	-52.2	15.2	6.00e-01	0	26	0	493355008	68	4721
2026-01-06 03:17:49.86	232.15	13.58	-50.3	-52.0	15.3	6.01e-01	0	26	0	494927872	68	4632
2026-01-06 03:17:51.00	232.09	13.46	-50.2	-52.0	15.3	6.01e-01	0	26	0	497025024	68	4610
2026-01-06 03:17:51.86	232.04	13.37	-50.2	-52.0	15.3	6.03e-01	0	26	0	498597888	68	4622
2026-01-06 03:17:53.00	231.97	13.25	-50.2	-51.9	15.3	6.00e-01	0	26	0	500695040	68	4584
2026-01-06 03:17:53.86	231.93	13.16	-50.2	-51.9	15.3	6.00e-01	0	26	0	502267904	68	4588
2026-01-06 03:17:55.01	231.86	13.04	-50.2	-51.9	15.3	6.02e-01	0	26	0	504365056	68	4572
2026-01-06 03:17:55.87	231.82	12.95	-50.2	-51.9	15.3	6.04e-01	0	26	0	505937920	68	4576
2026-01-06 03:17:57.02	231.75	12.83	-50.2	-52.0	15.3	6.02e-01	0	26	0	508035072	68	4612
2026-01-06 03:17:57.87	231.71	12.74	-50.2	-52.0	15.3	6.00e-01	0	26	0	509607936	68	4617
2026-01-06 03:17:59.01	231.65	12.62	-50.2	-52.0	15.3	6.00e-01	0	26	0	511705088	68	4602
2026-01-06 03:17:59.86	231.60	12.54	-50.2	-51.9	15.3	6.01e-01	0	26	0	513277952	68	4597
2026-01-06 03:18:01.00	231.54	12.42	-50.2	-52.0	15.3	6.00e-01	0	26	0	515375104	68	4622
2026-01-06 03:18:01.86	231.50	12.33	-50.3	-52.1	15.3	6.02e-01	0	26	0	516947968	68	4676
2026-01-06 03:18:02.99	231.44	12.22	-50.4	-52.2	15.2	6.01e-01	0	26	0	519569408	68	4706
2026-01-06 03:18:03.85	231.39	12.13	-50.3	-52.1	15.3	6.01e-01	0	26	0	521142272	68	4695
2026-01-06 03:18:04.99	231.33	12.02	-50.4	-52.2	15.2	6.01e-01	0	26	0	523239424	68	4707
2026-01-06 03:18:05.84	231.29	11.93	-50.4	-52.2	15.2	6.01e-01	0	26	0	524812288	68	4711
2026-01-06 03:18:06.98	231.23	11.82	-50.3	-52.1	15.2	6.01e-01	0	26	0	526909440	68	4700
2026-01-06 03:18:07.84	231.19	11.74	-50.3	-52.1	15.2	6.00e-01	0	26	0	528482304	68	4689
2026-01-06 03:18:08.98	231.13	11.62	-50.3	-52.1	15.2	6.00e-01	0	26	0	530579456	68	4697
2026-01-06 03:18:09.83	231.09	11.54	-50.3	-52.1	15.2	6.03e-01	0	26	0	532152320	68	4693
2026-01-06 03:18:10.97	231.04	11.43	-50.3	-52.1	15.2	6.02e-01	0	26	0	534249472	68	4687
2026-01-06 03:18:11.82	231.00	11.35	-50.4	-52.2	15.2	6.01e-01	0	26	0	535822336	68	4715
2026-01-06 03:18:12.96	230.94	11.24	-50.3	-52.1	15.3	6.01e-01	0	26	0	537919488	68	4686
2026-01-06 03:18:13.82	230.90	11.15	-50.3	-52.1	15.2	6.01e-01	0	26	0	539492352	68	4688
2026-01-06 03:18:14.96	230.85	11.05	-50.4	-52.2	15.2	5.99e-01	0	26	0	541589504	68	4742
2026-01-06 03:18:15.81	230.81	10.96	-50.5	-52.3	15.2	6.00e-01	0	26	0	543162368	68	4798
2026-01-06 03:18:16.96	230.75	10.85	-50.4	-52.2	15.2	6.01e-01	0	26	0	545259520	68	4759
2026-01-06 03:18:17.82	230.71	10.77	-50.5	-52.3	15.2	5.99e-01	0	26	0	547356672	68	4787
2026-01-06 03:18:18.96	230.66	10.67	-50.5	-52.4	15.2	6.01e-01	0	26	0	549453824	68	4822
2026-01-06 03:18:19.81	230.62	10.59	-50.4	-52.2	15.2	6.02e-01	0	26	0	551026688	68	4713
2026-01-06 03:18:20.96	230.57	10.48	-50.4	-52.2	15.2	6.02e-01	0	26	0	553123840	68	4734
2026-01-06 03:18:21.81	230.53	10.40	-50.3	-52.1	15.2	6.02e-01	0	26	0	554696704	68	4694
2026-01-06 03:18:22.95	230.48	10.29	-50.4	-52.2	15.2	6.01e-01	0	26	0	556793856	68	4745
2026-01-06 03:18:23.81	230.44	10.21	-50.5	-52.3	15.2	6.02e-01	0	26	0	558366720	68	4797
2026-01-06 03:18:24.96	230.39	10.11	-50.4	-52.2	15.2	6.00e-01	0	26	0	560463872	68	4739
2026-01-06 03:18:25.81	230.35	10.03	-50.4	-52.3	15.2	6.03e-01	0	26	0	562036736	68	4767
2026-01-06 03:18:26.95	230.31	9.93	-50.5	-52.4	15.2	6.03e-01	0	26	0	564133888	68	4846
2026-01-06 03:18:27.81	230.27	9.85	-50.6	-52.4	15.2	6.01e-01	0	26	0	565706752	68	4857
2026-01-06 03:18:28.95	230.22	9.75	-50.7	-52.6	15.2	6.01e-01	0	26	0	567803904	69	4667
2026-01-06 03:18:29.81	230.18	9.67	-50.8	-52.7	15.2	6.03e-01	0	26	0	569376768	69	4725
2026-01-06 03:18:30.95	230.13	9.57	-50.8	-52.8	15.2	5.99e-01	0	26	0	571998208	69	4763
2026-01-06 03:18:31.80	230.10	9.49	-50.8	-52.7	15.2	6.01e-01	0	26	0	573571072	69	4751
2026-01-06 03:18:32.95	230.05	9.39	-50.8	-52.8	15.2	6.01e-01	0	26	0	575668224	69	4773
2026-01-06 03:18:33.80	230.02	9.31	-50.8	-52.8	15.2	6.01e-01	0	26	0	577241088	69	4768
2026-01-06 03:18:34.94	229.97	9.21	-50.9	-52.9	15.1	6.04e-01	0	26	0	579338240	69	4820
2026-01-06 03:18:35.80	229.93	9.13	-50.9	-52.8	15.1	6.04e-01	0	26	0	580911104	69	4812
2026-01-06 03:18:36.94	229.89	9.03	-50.9	-52.8	15.2	6.03e-01	0	26	0	583008256	69	4785
2026-01-06 03:18:37.80	229.85	8.96	-50.9	-52.9	15.1	6.02e-01	0	26	0	584581120	69	4854
2026-01-06 03:18:38.94	229.81	8.86	-50.9	-52.8	15.1	6.01e-01	0	26	0	586678272	69	4812
2026-01-06 03:18:39.80	229.78	8.78	-50.9	-52.9	15.1	6.01e-01	0	26	0	588251136	69	4846
2026-01-06 03:18:40.94	229.73	8.69	-51.0	-52.9	15.1	6.00e-01	0	26	0	590348288	69	4865
2026-01-06 03:18:41.79	229.70	8.61	-50.9	-52.9	15.1	6.01e-01	0	26	0	591921152	69	4841
2026-01-06 03:18:42.93	229.65	8.51	-51.0	-53.0	15.1	6.00e-01	0	26	0	594018304	69	4899
2026-01-06 03:18:43.79	229.62	8.44	-50.9	-52.9	15.1	5.99e-01	0	26	0	596115456	69	4841
2026-01-06 03:18:44.93	229.58	8.34	-51.0	-53.0	15.1	6.02e-01	0	26	0	597688320	69	4881
2026-01-06 03:18:45.79	229.54	8.27	-51.0	-53.0	15.1	6.01e-01	0	26	0	599785472	69	4885
2026-01-06 03:18:46.93	229.50	8.17	-51.0	-53.0	15.1	5.99e-01	0	26	0	601882624	69	4920
2026-01-06 03:18:47.79	229.47	8.10	-51.0	-53.0	15.1	6.04e-01	0	26	0	603455488	69	4920
2026-01-06 03:18:48.93	229.43	8.01	-51.0	-53.0	15.1	6.00e-01	0	26	0	605552640	69	4880
2026-01-06 03:18:49.79	229.39	7.93	-51.0	-53.0	15.1	6.02e-01	0	26	0	607125504	69	4875
2026-01-06 03:18:50.92	229.35	7.84	-51.1	-53.1	15.1	6.02e-01	0	26	0	609222656	69	4938
2026-01-06 03:18:51.77	229.32	7.77	-51.2	-53.2	15.2	6.02e-01	0	26	0	610795520	70	4732
2026-01-06 03:18:52.91	229.28	7.67	-51.1	-53.1	15.2	6.03e-01	0	26	0	612892672	70	4682
2026-01-06 03:18:53.78	229.25	7.60	-51.2	-53.2	15.2	6.03e-01	0	26	0	614465536	70	4740
2026-01-06 03:18:54.92	229.21	7.51	-51.3	-53.3	15.1	6.01e-01	0	26	0	616562688	70	4788
2026-01-06 03:18:55.78	229.18	7.44	-51.3	-53.3	15.1	6.01e-01	0	26	0	618135552	70	4789
2026-01-06 03:18:56.92	229.14	7.34	-51.2	-53.2	15.2	6.01e-01	0	26	0	620232704	70	4729
2026-01-06 03:18:57.77	229.11	7.28	-51.1	-53.2	15.2	6.02e-01	0	26	0	621805568	70	4712
2026-01-06 03:18:58.91	229.07	7.18	-51.2	-53.2	15.1	6.05e-01	0	26	0	624427008	70	4750
2026-01-06 03:18:59.77	229.04	7.11	-51.3	-53.3	15.1	6.03e-01	0	26	0	625999872	70	4808
2026-01-06 03:19:00.92	229.00	7.02	-51.2	-53.2	15.2	6.02e-01	0	26	0	628097024	70	4737
2026-01-06 03:19:01.77	228.97	6.95	-51.2	-53.2	15.1	6.01e-01	0	26	0	629669888	70	4743
2026-01-06 03:19:02.92	228.93	6.86	-51.3	-53.4	15.1	6.01e-01	0	26	0	631767040	70	4845
2026-01-06 03:19:03.78	228.90	6.79	-51.3	-53.4	15.1	6.02e-01	0	26	0	633339904	70	4849
2026-01-06 03:19:04.92	228.87	6.70	-51.3	-53.3	15.1	6.02e-01	0	26	0	635437056	70	4803
2026-01-06 03:19:05.78	228.84	6.63	-51.3	-53.4	15.1	6.02e-01	0	26	0	637009920	70	4830
2026-01-06 03:19:06.92	228.80	6.54	-51.4	-53.5	15.1	6.03e-01	0	26	0	639107072	70	4895
2026-01-06 03:19:07.78	228.77	6.47	-51.4	-53.5	15.1	5.98e-01	0	26	0	640679936	70	4905
2026-01-06 03:19:08.92	228.73	6.39	-51.3	-53.4	15.1	6.01e-01	0	26	0	642777088	70	4844
2026-01-06 03:19:09.78	228.71	6.32	-51.3	-53.4	15.1	6.01e-01	0	26	0	644349952	70	4860
2026-01-06 03:19:10.92	228.67	6.23	-51.4	-53.5	15.1	5.99e-01	0	26	0	646447104	70	4889
2026-01-06 03:19:11.78	228.64	6.16	-51.4	-53.5	15.1	6.00e-01	0	26	0	648019968	70	4889
2026-01-06 03:19:12.91	228.61	6.07	-51.6	-53.7	15.0	6.00e-01	0	26	0	650641408	70	5034
2026-01-06 03:19:13.76	228.58	6.01	-51.5	-53.6	15.0	6.03e-01	0	26	0	652214272	70	4980
2026-01-06 03:19:14.90	228.54	5.92	-51.5	-53.7	15.0	6.02e-01	0	26	0	654311424	70	5001
2026-01-06 03:19:15.75	228.52	5.86	-51.6	-53.8	15.0	6.02e-01	0	26	0	655884288	70	5071
2026-01-06 03:19:16.90	228.48	5.77	-51.6	-53.8	15.0	6.00e-01	0	26	0	657981440	70	5056
2026-01-06 03:19:17.76	228.46	5.70	-51.6	-53.8	15.0	6.01e-01	0	26	0	659554304	71	4813
2026-01-06 03:19:18.90	228.42	5.62	-51.7	-53.9	15.0	5.97e-01	0	26	0	661651456	71	4845
2026-01-06 03:19:19.76	228.39	5.55	-51.7	-54.0	15.0	6.01e-01	0	26	0	663224320	71	4891
2026-01-06 03:19:20.91	228.36	5.46	-51.7	-53.9	15.0	6.03e-01	0	26	0	665321472	71	4866
2026-01-06 03:19:21.77	228.33	5.40	-51.6	-53.8	15.1	6.03e-01	0	26	0	666894336	71	4774
2026-01-06 03:19:22.89	228.30	5.31	-51.8	-54.0	15.0	6.01e-01	0	26	0	668991488	71	4917
2026-01-06 03:19:23.75	228.28	5.25	-51.5	-53.7	15.1	6.01e-01	0	26	0	670564352	71	4747
2026-01-06 03:19:24.89	228.24	5.16	-51.6	-53.9	15.0	6.01e-01	0	26	0	672661504	71	4824
2026-01-06 03:19:25.75	228.22	5.10	-51.9	-54.2	14.9	6.00e-01	0	26	0	674758656	71	5011
