passes_logs/2026/01/06/R3.2S_Murmansk/R3.2S_Murmansk__20260106_210007_SUOMI_NPP_rec.log

#Pass ID: 20260106_210007_SUOMI NPP
#Satellite: SUOMI NPP
#Configuration: NPP
#almurnet v.1.7.20251203
#Start time: 2026-01-06 21:00:09

#Version: 2.2.20231116
#Station: R3.2S_Murmansk
#Location: 33.079688 lon 68.888172 lat
#TLE: 1 37849U 11061A   26005.94084933  .00000134  00000+0  84554-4 0  9990
#TLE: 2 37849  98.7803 308.0679 0002567  79.1029 281.0436 14.19522657735426

#Time	Az	El	Level	Level2	SNR	BER	BlckErr	Temp	State	Recorded	gain1	gain2
2026-01-06 21:00:09.40	19.14	2.09	-57.6	-73.6	3.8	1.49e+00	0	24	0	0	81	22679
2026-01-06 21:00:10.41	19.25	2.13	-57.6	-73.6	3.8	1.49e+00	0	24	104	0	80	23980
2026-01-06 21:00:11.41	19.36	2.17	-57.6	-73.6	3.8	1.49e+00	0	24	104	0	80	23894
2026-01-06 21:00:12.41	19.47	2.21	-57.6	-73.6	3.8	1.49e+00	0	24	104	0	80	23856
2026-01-06 21:00:13.41	19.57	2.24	-57.6	-73.5	3.8	1.49e+00	0	24	104	0	80	23829
2026-01-06 21:00:14.42	19.68	2.28	-57.6	-73.5	3.8	1.49e+00	0	24	104	0	80	23726
2026-01-06 21:00:15.42	19.79	2.32	-57.6	-73.5	3.8	1.49e+00	0	24	104	0	80	23796
2026-01-06 21:00:16.43	19.90	2.36	-57.6	-73.5	3.8	1.49e+00	0	24	104	0	80	23694
2026-01-06 21:00:17.43	20.01	2.40	-57.6	-73.5	3.8	1.49e+00	0	24	104	0	80	23829
2026-01-06 21:00:18.44	20.12	2.44	-57.6	-73.5	3.8	1.49e+00	0	24	104	0	80	23700
2026-01-06 21:00:19.44	20.23	2.48	-57.6	-73.6	3.8	1.49e+00	0	24	104	0	80	23921
2026-01-06 21:00:20.45	20.34	2.52	-57.6	-73.5	3.8	1.49e+00	0	24	104	0	80	23823
2026-01-06 21:00:21.45	20.45	2.56	-57.6	-73.6	3.8	1.49e+00	0	24	104	0	80	23902
2026-01-06 21:00:22.45	20.57	2.60	-57.7	-73.6	3.8	1.49e+00	0	24	104	0	80	23913
2026-01-06 21:00:23.45	20.68	2.64	-57.7	-73.6	3.8	1.49e+00	0	24	104	0	80	23968
2026-01-06 21:00:24.46	20.79	2.68	-57.7	-73.5	3.8	1.49e+00	0	24	104	0	80	23739
2026-01-06 21:00:25.46	20.90	2.72	-57.6	-73.5	3.8	1.49e+00	0	24	104	0	80	23700
2026-01-06 21:00:26.46	21.01	2.76	-57.6	-73.5	3.8	1.49e+00	0	24	104	0	80	23848
2026-01-06 21:00:27.46	21.13	2.80	-57.6	-73.4	3.8	1.49e+00	0	24	104	0	80	23496
2026-01-06 21:00:28.46	21.24	2.84	-57.7	-73.5	3.8	1.49e+00	0	24	104	0	80	23619
2026-01-06 21:00:29.47	21.35	2.88	-57.7	-73.6	3.8	1.49e+00	0	25	104	0	80	23904
2026-01-06 21:00:30.47	21.46	2.91	-57.6	-73.6	3.8	1.49e+00	0	24	104	0	80	23949
2026-01-06 21:00:31.48	21.58	2.95	-57.7	-73.6	3.8	1.49e+00	0	24	104	0	80	23891
2026-01-06 21:00:32.48	21.69	2.99	-57.7	-73.6	3.8	1.49e+00	0	24	104	0	80	23994
2026-01-06 21:00:33.48	21.81	3.03	-57.7	-73.7	3.8	1.49e+00	0	24	104	0	80	24148
2026-01-06 21:00:34.48	21.92	3.07	-57.7	-73.6	3.8	1.49e+00	0	25	104	0	80	24080
2026-01-06 21:00:35.48	22.04	3.11	-57.7	-73.6	3.8	1.49e+00	0	25	104	0	80	24112
2026-01-06 21:00:36.48	22.15	3.15	-57.7	-73.7	3.8	1.49e+00	0	24	104	0	80	24132
2026-01-06 21:00:37.49	22.27	3.19	-57.7	-73.6	3.8	1.49e+00	0	25	104	0	80	24089
2026-01-06 21:00:38.48	22.38	3.23	-57.7	-73.6	3.8	1.49e+00	0	25	104	0	80	24040
2026-01-06 21:00:39.48	22.50	3.26	-57.7	-73.6	3.8	1.49e+00	0	25	104	0	80	24064
2026-01-06 21:00:40.49	22.61	3.30	-57.7	-73.6	3.8	1.49e+00	0	25	104	0	80	24100
2026-01-06 21:00:41.49	22.73	3.34	-57.7	-73.6	3.8	1.49e+00	0	25	104	0	80	24112
2026-01-06 21:00:42.49	22.85	3.38	-57.7	-73.6	3.8	1.49e+00	0	25	104	0	80	24115
2026-01-06 21:00:43.50	22.96	3.42	-57.7	-73.7	3.8	1.49e+00	0	25	104	0	80	24260
2026-01-06 21:00:44.49	23.08	3.46	-57.7	-73.7	3.8	1.49e+00	0	25	104	0	80	24279
2026-01-06 21:00:45.49	23.20	3.50	-57.7	-73.7	3.8	1.49e+00	0	25	104	0	80	24239
2026-01-06 21:00:46.50	23.32	3.54	-57.7	-73.7	3.8	1.49e+00	0	25	104	0	80	24258
2026-01-06 21:00:47.50	23.43	3.57	-57.7	-73.7	3.8	1.49e+00	0	25	104	0	80	24136
2026-01-06 21:00:48.50	23.55	3.61	-57.7	-73.6	3.8	1.49e+00	0	25	104	0	80	24071
2026-01-06 21:00:49.50	23.67	3.65	-57.7	-73.6	3.8	1.49e+00	0	25	104	0	80	23963
2026-01-06 21:00:50.50	23.79	3.69	-57.7	-73.5	3.8	1.49e+00	0	25	104	0	80	23791
2026-01-06 21:00:51.50	23.91	3.73	-57.7	-73.5	3.8	1.49e+00	0	25	104	0	80	23685
2026-01-06 21:00:52.51	24.03	3.77	-57.7	-73.6	3.8	1.49e+00	0	25	104	0	80	23877
2026-01-06 21:00:53.51	24.15	3.80	-57.7	-73.5	3.8	1.49e+00	0	25	104	0	80	23838
2026-01-06 21:00:54.51	24.27	3.84	-57.7	-73.6	3.8	1.49e+00	0	25	104	0	80	24116
2026-01-06 21:00:55.51	24.39	3.88	-57.7	-73.7	3.8	1.49e+00	0	25	104	0	80	24259
2026-01-06 21:00:56.51	24.51	3.92	-57.7	-73.7	3.8	1.49e+00	0	25	104	0	80	24182
2026-01-06 21:00:57.51	24.63	3.96	-57.7	-73.7	3.8	1.49e+00	0	25	104	0	80	24144
2026-01-06 21:00:58.51	24.75	3.99	-57.7	-73.6	3.8	1.49e+00	0	25	104	0	80	23933
2026-01-06 21:00:59.50	24.87	4.03	-57.7	-73.7	3.8	1.49e+00	0	25	104	0	80	24159
2026-01-06 21:01:00.51	25.00	4.07	-57.7	-73.7	3.8	1.49e+00	0	25	104	0	80	24198
2026-01-06 21:01:01.51	25.12	4.11	-57.7	-73.7	3.8	1.49e+00	0	25	104	0	80	24229
2026-01-06 21:01:02.50	25.24	4.14	-57.7	-73.7	3.8	1.49e+00	0	25	104	0	80	24152
2026-01-06 21:01:03.50	25.36	4.18	-57.7	-73.6	3.8	1.49e+00	0	25	104	0	80	24106
2026-01-06 21:01:04.51	25.49	4.22	-57.7	-73.6	3.8	1.49e+00	0	25	104	0	80	24023
2026-01-06 21:01:05.51	25.61	4.26	-57.7	-73.6	3.8	1.49e+00	0	25	104	0	80	24010
2026-01-06 21:01:06.52	25.74	4.29	-57.7	-73.7	3.8	1.49e+00	0	25	104	0	80	24155
2026-01-06 21:01:07.52	25.86	4.33	-57.7	-73.7	3.8	1.49e+00	0	25	104	0	80	24286
2026-01-06 21:01:08.53	25.99	4.37	-57.7	-73.7	3.8	1.49e+00	0	25	104	0	80	24133
2026-01-06 21:01:09.52	26.11	4.41	-57.7	-73.4	3.8	1.49e+00	0	25	104	0	80	23502
2026-01-06 21:01:10.53	26.23	4.44	-57.6	-73.0	3.8	1.49e+00	0	25	104	0	80	22269
2026-01-06 21:01:11.52	26.36	4.48	-57.6	-72.4	3.8	1.49e+00	0	25	104	0	80	20814
2026-01-06 21:01:12.53	26.49	4.52	-57.6	-72.1	3.8	1.49e+00	0	25	104	0	80	20147
2026-01-06 21:01:13.53	26.61	4.56	-57.6	-71.8	3.8	1.49e+00	0	25	104	0	80	19466
2026-01-06 21:01:14.52	26.74	4.59	-57.6	-71.0	3.9	1.49e+00	0	25	104	0	80	17864
2026-01-06 21:01:15.52	26.86	4.63	-57.4	-69.0	4.5	1.25e+00	7	25	0	0	80	14088
2026-01-06 21:01:16.52	26.99	4.67	-57.2	-66.3	6.0	4.75e-01	0	25	0	2097152	80	10356
2026-01-06 21:01:17.52	27.12	4.70	-56.7	-63.5	8.2	1.09e-01	0	25	0	4194304	80	7532
2026-01-06 21:01:18.53	27.24	4.74	-56.2	-61.9	9.6	2.08e-02	0	25	0	5242880	79	6604
2026-01-06 21:01:19.52	27.37	4.78	-55.6	-60.2	10.9	6.35e-04	0	25	0	7340032	77	6123
2026-01-06 21:01:20.52	27.50	4.81	-55.3	-59.4	11.4	1.52e-04	0	25	0	9437184	77	5574
2026-01-06 21:01:21.53	27.63	4.85	-55.2	-59.4	11.6	4.19e-05	0	25	0	11534336	77	5530
2026-01-06 21:01:22.53	27.76	4.89	-55.4	-59.9	11.2	7.62e-05	0	25	0	12582912	77	5884
2026-01-06 21:01:23.54	27.89	4.92	-55.7	-60.5	10.7	2.52e-04	0	25	0	14680064	77	6320
2026-01-06 21:01:24.53	28.02	4.96	-56.0	-61.4	9.8	8.25e-04	0	25	0	16777216	77	7032
2026-01-06 21:01:25.54	28.15	5.00	-56.4	-62.7	8.9	3.82e-03	0	25	0	18874368	77	8105
2026-01-06 21:01:26.54	28.28	5.03	-55.9	-61.0	10.2	3.25e-02	0	25	0	20971520	78	6296
2026-01-06 21:01:27.54	28.41	5.07	-55.1	-59.1	11.7	6.80e-06	0	25	0	22020096	76	5703
2026-01-06 21:01:28.55	28.54	5.10	-56.8	-64.0	7.9	6.94e-05	0	25	0	24117248	78	8952
2026-01-06 21:01:29.55	28.67	5.14	-57.0	-65.9	6.2	3.47e-01	0	25	0	26214400	79	10511
2026-01-06 21:01:30.56	28.80	5.18	-54.8	-58.4	12.1	4.58e-01	0	25	0	28311552	76	5224
2026-01-06 21:01:31.56	28.93	5.21	-54.2	-57.3	13.0	0.00e+00	0	25	0	30408704	75	4905
2026-01-06 21:01:32.56	29.06	5.25	-54.1	-57.1	13.0	0.00e+00	0	25	0	31457280	74	5052
2026-01-06 21:01:33.57	29.20	5.28	-53.9	-56.8	13.2	0.00e+00	0	25	0	33554432	74	4884
2026-01-06 21:01:34.56	29.33	5.32	-54.0	-57.0	13.1	0.00e+00	0	25	0	35651584	74	5015
2026-01-06 21:01:35.56	29.46	5.36	-54.0	-57.0	13.1	0.00e+00	0	25	0	37748736	74	4984
2026-01-06 21:01:36.57	29.60	5.39	-54.3	-57.4	12.8	0.00e+00	0	25	0	39845888	74	5275
2026-01-06 21:01:37.57	29.73	5.43	-54.2	-57.3	12.9	0.00e+00	0	25	0	40894464	74	5211
2026-01-06 21:01:38.58	29.86	5.46	-54.1	-57.2	13.0	0.00e+00	0	25	0	42991616	74	5111
2026-01-06 21:01:39.58	30.00	5.50	-54.2	-57.2	13.0	0.00e+00	0	25	0	45088768	74	5124
2026-01-06 21:01:40.58	30.13	5.53	-54.3	-57.5	12.8	0.00e+00	0	25	0	47185920	74	5309
2026-01-06 21:01:41.58	30.27	5.57	-54.2	-57.2	13.0	0.00e+00	0	25	0	49283072	74	5127
2026-01-06 21:01:42.58	30.40	5.60	-54.0	-57.0	13.1	0.00e+00	0	25	0	50331648	74	4998
2026-01-06 21:01:43.58	30.54	5.64	-54.3	-57.4	12.8	0.00e+00	0	25	0	52428800	74	5279
2026-01-06 21:01:44.58	30.67	5.67	-54.0	-56.9	13.2	0.00e+00	0	25	0	54525952	74	4964
2026-01-06 21:01:45.58	30.81	5.71	-53.9	-56.7	13.3	0.00e+00	0	25	0	56623104	74	4827
2026-01-06 21:01:46.58	30.94	5.74	-54.0	-56.8	13.2	0.00e+00	0	25	0	57671680	74	4907
2026-01-06 21:01:47.59	31.08	5.78	-54.0	-56.9	13.2	0.00e+00	0	25	0	59768832	74	4969
2026-01-06 21:01:48.59	31.22	5.81	-54.1	-56.9	13.1	0.00e+00	0	25	0	61865984	74	4979
2026-01-06 21:01:49.59	31.35	5.85	-53.9	-56.7	13.4	0.00e+00	0	25	0	63963136	74	4815
2026-01-06 21:01:50.59	31.49	5.88	-53.9	-56.7	13.3	0.00e+00	0	25	0	66060288	74	4858
2026-01-06 21:01:51.58	31.63	5.91	-53.8	-56.5	13.4	0.00e+00	0	25	0	67108864	74	4723
2026-01-06 21:01:52.58	31.77	5.95	-53.8	-56.6	13.4	0.00e+00	0	25	0	69206016	74	4797
2026-01-06 21:01:53.58	31.90	5.98	-53.7	-56.4	13.5	0.00e+00	0	25	0	71303168	74	4702
2026-01-06 21:01:54.57	32.04	6.02	-54.0	-56.8	13.3	0.00e+00	0	25	0	73400320	74	4922
2026-01-06 21:01:55.57	32.18	6.05	-54.1	-57.0	13.2	0.00e+00	0	25	0	75497472	74	4995
2026-01-06 21:01:56.58	32.32	6.08	-54.2	-57.2	13.1	0.00e+00	0	25	0	76546048	74	5103
2026-01-06 21:01:57.58	32.46	6.12	-54.2	-57.2	13.0	0.00e+00	0	25	0	78643200	74	5146
2026-01-06 21:01:58.59	32.60	6.15	-54.3	-57.3	12.9	0.00e+00	0	25	0	80740352	74	5216
2026-01-06 21:01:59.59	32.74	6.18	-54.1	-57.0	13.2	0.00e+00	0	25	0	82837504	74	5029
2026-01-06 21:02:00.60	32.88	6.22	-54.1	-57.0	13.2	0.00e+00	0	25	0	84934656	74	5012
2026-01-06 21:02:01.60	33.02	6.25	-54.2	-57.2	13.1	0.00e+00	0	25	0	85983232	74	5119
2026-01-06 21:02:02.59	33.16	6.28	-54.2	-57.1	13.1	0.00e+00	0	25	0	88080384	74	5076
2026-01-06 21:02:03.59	33.31	6.32	-54.0	-56.8	13.3	0.00e+00	0	25	0	90177536	74	4901
2026-01-06 21:02:04.60	33.45	6.35	-54.0	-56.8	13.3	0.00e+00	0	25	0	92274688	74	4871
2026-01-06 21:02:05.60	33.59	6.38	-54.1	-57.0	13.2	0.00e+00	0	25	0	94371840	74	5011
2026-01-06 21:02:06.61	33.73	6.42	-54.1	-57.0	13.2	0.00e+00	0	25	0	95420416	74	5020
2026-01-06 21:02:07.61	33.88	6.45	-54.0	-56.8	13.3	0.00e+00	0	25	0	97517568	74	4916
2026-01-06 21:02:08.61	34.02	6.48	-54.3	-57.2	13.0	0.00e+00	0	25	0	99614720	74	5146
2026-01-06 21:02:09.61	34.16	6.51	-54.3	-57.3	13.0	0.00e+00	0	25	0	101711872	74	5197
2026-01-06 21:02:10.61	34.31	6.55	-54.3	-57.2	13.0	0.00e+00	0	25	0	102760448	74	5147
2026-01-06 21:02:11.61	34.45	6.58	-54.3	-57.3	13.0	0.00e+00	0	25	0	104857600	74	5184
2026-01-06 21:02:12.61	34.59	6.61	-54.3	-57.4	13.0	0.00e+00	0	25	0	106954752	74	5227
2026-01-06 21:02:13.62	34.74	6.64	-54.3	-57.3	13.0	0.00e+00	0	25	0	109051904	74	5175
2026-01-06 21:02:14.62	34.88	6.67	-54.2	-57.1	13.1	0.00e+00	0	25	0	111149056	74	5084
2026-01-06 21:02:15.62	35.03	6.71	-54.2	-57.2	13.1	0.00e+00	0	25	0	112197632	74	5103
2026-01-06 21:02:16.63	35.18	6.74	-54.1	-57.0	13.2	0.00e+00	0	25	0	114294784	74	5014
2026-01-06 21:02:17.63	35.32	6.77	-54.1	-57.0	13.2	0.00e+00	0	25	0	116391936	74	4998
2026-01-06 21:02:18.63	35.47	6.80	-54.3	-57.2	13.1	0.00e+00	0	25	0	118489088	74	5137
2026-01-06 21:02:19.64	35.62	6.83	-54.2	-57.1	13.2	0.00e+00	0	25	0	120586240	74	5063
2026-01-06 21:02:20.64	35.76	6.86	-54.1	-57.0	13.2	0.00e+00	0	25	0	121634816	74	5010
2026-01-06 21:02:21.64	35.91	6.89	-54.2	-57.1	13.2	0.00e+00	0	25	0	123731968	74	5052
2026-01-06 21:02:22.63	36.05	6.93	-54.2	-57.1	13.1	0.00e+00	0	25	0	125829120	74	5051
2026-01-06 21:02:23.63	36.20	6.96	-54.1	-57.0	13.2	0.00e+00	0	25	0	127926272	74	5014
2026-01-06 21:02:24.63	36.35	6.99	-54.1	-56.9	13.2	0.00e+00	0	25	0	128974848	74	4979
2026-01-06 21:02:25.64	36.50	7.02	-54.3	-57.3	13.1	0.00e+00	0	25	0	131072000	74	5165
2026-01-06 21:02:26.65	36.65	7.05	-54.3	-57.2	13.1	0.00e+00	0	25	0	133169152	74	5148
2026-01-06 21:02:27.65	36.80	7.08	-54.3	-57.3	13.1	0.00e+00	0	25	0	135266304	74	5166
2026-01-06 21:02:28.65	36.95	7.11	-54.3	-57.3	13.1	0.00e+00	0	25	0	137363456	74	5174
2026-01-06 21:02:29.64	37.09	7.14	-54.2	-57.2	13.1	0.00e+00	0	25	0	138412032	74	5107
2026-01-06 21:02:30.64	37.24	7.17	-54.4	-57.5	12.9	0.00e+00	0	25	0	140509184	74	5290
2026-01-06 21:02:31.64	37.39	7.20	-54.5	-57.5	12.9	0.00e+00	0	25	0	142606336	74	5324
2026-01-06 21:02:32.64	37.54	7.23	-54.4	-57.5	13.0	0.00e+00	0	25	0	144703488	74	5281
2026-01-06 21:02:33.63	37.69	7.26	-54.5	-57.5	12.9	0.00e+00	0	25	0	146800640	74	5323
2026-01-06 21:02:34.63	37.84	7.29	-54.4	-57.4	13.0	0.00e+00	0	25	0	147849216	74	5273
2026-01-06 21:02:35.63	38.00	7.32	-54.3	-57.2	13.1	0.00e+00	0	25	0	149946368	74	5120
2026-01-06 21:02:36.63	38.15	7.35	-54.1	-56.9	13.3	0.00e+00	0	25	0	152043520	74	4977
2026-01-06 21:02:37.63	38.30	7.37	-54.0	-56.7	13.4	0.00e+00	0	25	0	154140672	74	4826
2026-01-06 21:02:38.62	38.45	7.40	-53.9	-56.6	13.5	0.00e+00	0	25	0	156237824	74	4798
2026-01-06 21:02:39.61	38.60	7.43	-54.0	-56.7	13.5	0.00e+00	0	25	0	157286400	74	4816
2026-01-06 21:02:40.61	38.75	7.46	-53.9	-56.6	13.4	0.00e+00	0	25	0	159383552	74	4801
2026-01-06 21:02:41.61	38.90	7.49	-54.1	-56.8	13.3	0.00e+00	0	25	0	161480704	74	4919
2026-01-06 21:02:42.60	39.06	7.52	-54.2	-57.1	13.1	0.00e+00	0	25	0	163577856	74	5084
2026-01-06 21:02:43.60	39.21	7.55	-54.4	-57.4	13.0	0.00e+00	0	25	0	164626432	74	5244
2026-01-06 21:02:44.61	39.36	7.57	-54.5	-57.5	12.9	0.00e+00	0	25	0	166723584	74	5336
2026-01-06 21:02:45.61	39.52	7.60	-54.6	-57.7	12.8	0.00e+00	0	25	0	168820736	74	5435
2026-01-06 21:02:46.60	39.67	7.63	-54.5	-57.5	12.9	0.00e+00	0	25	0	170917888	74	5302
2026-01-06 21:02:47.60	39.83	7.66	-54.4	-57.4	13.0	0.00e+00	0	25	0	173015040	74	5236
2026-01-06 21:02:48.61	39.98	7.68	-54.5	-57.5	12.9	0.00e+00	0	25	0	174063616	74	5320
2026-01-06 21:02:49.60	40.14	7.71	-54.4	-57.3	13.1	0.00e+00	0	25	0	176160768	74	5182
2026-01-06 21:02:50.60	40.29	7.74	-54.4	-57.3	13.1	0.00e+00	0	25	0	178257920	74	5186
2026-01-06 21:02:51.60	40.45	7.77	-54.4	-57.3	13.0	0.00e+00	0	25	0	180355072	74	5194
2026-01-06 21:02:52.59	40.60	7.79	-54.3	-57.3	13.1	0.00e+00	0	25	0	181403648	74	5160
2026-01-06 21:02:53.59	40.76	7.82	-54.4	-57.4	13.0	0.00e+00	0	25	0	183500800	74	5228
2026-01-06 21:02:54.59	40.91	7.85	-54.3	-57.3	13.1	0.00e+00	0	25	0	185597952	74	5163
2026-01-06 21:02:55.58	41.07	7.87	-54.4	-57.4	13.0	0.00e+00	0	25	0	187695104	74	5249
2026-01-06 21:02:56.58	41.23	7.90	-54.2	-57.1	13.2	0.00e+00	0	25	0	189792256	74	5069
2026-01-06 21:02:57.58	41.38	7.92	-54.2	-57.0	13.2	0.00e+00	0	25	0	190840832	74	5036
2026-01-06 21:02:58.58	41.54	7.95	-54.1	-56.9	13.3	0.00e+00	0	25	0	192937984	74	4982
2026-01-06 21:02:59.58	41.70	7.98	-54.2	-57.0	13.2	0.00e+00	0	25	0	195035136	74	5036
2026-01-06 21:03:00.58	41.86	8.00	-54.0	-56.7	13.4	0.00e+00	0	25	0	197132288	74	4855
2026-01-06 21:03:01.59	42.02	8.03	-53.8	-56.5	13.6	0.00e+00	0	25	0	199229440	74	4715
2026-01-06 21:03:02.60	42.18	8.05	-54.0	-56.6	13.5	0.00e+00	0	25	0	200278016	74	4811
2026-01-06 21:03:03.60	42.34	8.08	-54.0	-56.7	13.4	0.00e+00	0	25	0	202375168	74	4834
2026-01-06 21:03:04.61	42.50	8.10	-54.0	-56.8	13.4	0.00e+00	0	25	0	204472320	74	4880
2026-01-06 21:03:05.61	42.66	8.13	-54.2	-57.1	13.2	0.00e+00	0	25	0	206569472	74	5053
2026-01-06 21:03:06.60	42.81	8.15	-54.4	-57.3	13.1	0.00e+00	0	25	0	208666624	74	5187
2026-01-06 21:03:07.60	42.97	8.18	-54.5	-57.6	12.9	0.00e+00	0	25	0	209715200	74	5345
2026-01-06 21:03:08.60	43.13	8.20	-54.7	-57.9	12.7	0.00e+00	0	25	0	211812352	74	5530
2026-01-06 21:03:09.61	43.30	8.23	-54.9	-58.3	12.4	0.00e+00	0	25	0	213909504	74	5798
2026-01-06 21:03:10.60	43.45	8.25	-55.0	-58.5	12.4	0.00e+00	0	25	0	216006656	75	5638
2026-01-06 21:03:11.60	43.62	8.27	-55.1	-58.5	12.3	1.50e-06	0	25	0	218103808	75	5646
2026-01-06 21:03:12.60	43.78	8.30	-55.0	-58.4	12.5	0.00e+00	0	25	0	219152384	75	5540
2026-01-06 21:03:13.61	43.94	8.32	-54.9	-58.1	12.6	0.00e+00	0	25	0	221249536	75	5401
2026-01-06 21:03:14.60	44.10	8.34	-54.7	-57.9	12.8	0.00e+00	0	25	0	223346688	75	5228
2026-01-06 21:03:15.60	44.26	8.37	-54.4	-57.4	13.2	0.00e+00	0	25	0	225443840	75	4929
2026-01-06 21:03:16.60	44.42	8.39	-54.4	-57.3	13.2	0.00e+00	0	25	0	226492416	75	4894
2026-01-06 21:03:17.60	44.59	8.41	-54.3	-57.2	13.3	0.00e+00	0	25	0	228589568	75	4843
2026-01-06 21:03:18.60	44.75	8.44	-54.3	-57.1	13.3	0.00e+00	0	25	0	230686720	75	4812
2026-01-06 21:03:19.60	44.91	8.46	-54.3	-57.2	13.3	0.00e+00	0	25	0	232783872	75	4851
2026-01-06 21:03:20.59	45.07	8.48	-54.2	-57.1	13.3	0.00e+00	0	25	0	234881024	75	4791
2026-01-06 21:03:21.59	45.24	8.50	-54.4	-57.3	13.2	0.00e+00	0	25	0	235929600	75	4923
2026-01-06 21:03:22.59	45.40	8.52	-54.4	-57.4	13.1	0.00e+00	0	25	0	238026752	75	4975
2026-01-06 21:03:23.60	45.57	8.55	-54.3	-57.1	13.3	0.00e+00	0	25	0	240123904	75	4804
2026-01-06 21:03:24.60	45.73	8.57	-54.2	-57.0	13.4	0.00e+00	0	25	0	242221056	75	4741
2026-01-06 21:03:25.60	45.90	8.59	-54.1	-56.9	13.3	0.00e+00	0	25	0	244318208	74	4939
2026-01-06 21:03:26.59	46.06	8.61	-54.0	-56.6	13.5	0.00e+00	0	25	0	245366784	74	4791
2026-01-06 21:03:27.58	46.22	8.63	-53.9	-56.6	13.5	0.00e+00	0	25	0	247463936	74	4797
2026-01-06 21:03:28.57	46.39	8.65	-53.9	-56.4	13.6	0.00e+00	0	25	0	249561088	74	4704
2026-01-06 21:03:29.58	46.55	8.67	-53.9	-56.6	13.5	0.00e+00	0	25	0	251658240	74	4784
2026-01-06 21:03:30.58	46.72	8.69	-54.1	-56.8	13.4	0.00e+00	0	25	0	252706816	74	4924
2026-01-06 21:03:31.58	46.88	8.71	-54.2	-57.1	13.2	0.00e+00	0	25	0	254803968	74	5069
2026-01-06 21:03:32.58	47.05	8.73	-54.4	-57.3	13.1	0.00e+00	0	25	0	256901120	74	5196
2026-01-06 21:03:33.58	47.22	8.75	-54.5	-57.5	13.0	0.00e+00	0	25	0	258998272	74	5298
2026-01-06 21:03:34.58	47.38	8.77	-54.5	-57.5	13.0	0.00e+00	0	25	0	261095424	74	5326
2026-01-06 21:03:35.58	47.55	8.79	-54.5	-57.6	12.9	0.00e+00	0	25	0	262144000	74	5359
2026-01-06 21:03:36.57	47.71	8.81	-54.3	-57.1	13.1	0.00e+00	0	25	0	264241152	74	5092
2026-01-06 21:03:37.57	47.88	8.83	-54.2	-57.1	13.2	0.00e+00	0	25	0	266338304	74	5058
2026-01-06 21:03:38.57	48.05	8.85	-53.8	-56.4	13.6	0.00e+00	0	25	0	268435456	74	4694
2026-01-06 21:03:39.57	48.22	8.87	-53.7	-56.3	13.7	0.00e+00	0	25	0	270532608	74	4603
2026-01-06 21:03:40.58	48.39	8.89	-53.8	-56.5	13.5	0.00e+00	0	25	0	271581184	73	4992
2026-01-06 21:03:41.58	48.55	8.90	-53.9	-56.6	13.4	0.00e+00	0	25	0	273678336	73	5063
2026-01-06 21:03:42.59	48.72	8.92	-54.0	-56.7	13.3	0.00e+00	0	25	0	275775488	73	5126
2026-01-06 21:03:43.59	48.89	8.94	-54.0	-56.8	13.3	0.00e+00	0	25	0	277872640	73	5163
2026-01-06 21:03:44.59	49.06	8.96	-54.2	-57.0	13.2	0.00e+00	0	25	0	278921216	73	5319
2026-01-06 21:03:45.59	49.23	8.98	-54.1	-57.0	13.1	0.00e+00	0	25	0	281018368	73	5307
2026-01-06 21:03:46.60	49.40	8.99	-54.2	-57.0	13.2	0.00e+00	0	25	0	283115520	73	5306
2026-01-06 21:03:47.59	49.57	9.01	-53.9	-56.6	13.4	0.00e+00	0	25	0	285212672	73	5077
2026-01-06 21:03:48.59	49.74	9.03	-53.9	-56.5	13.5	0.00e+00	0	25	0	287309824	73	5001
2026-01-06 21:03:49.60	49.91	9.04	-53.7	-56.2	13.6	0.00e+00	0	25	0	288358400	73	4836
2026-01-06 21:03:50.59	50.08	9.06	-53.5	-55.9	13.8	0.00e+00	0	25	0	290455552	73	4672
2026-01-06 21:03:51.58	50.24	9.08	-53.6	-56.1	13.7	0.00e+00	0	25	0	292552704	73	4803
2026-01-06 21:03:52.58	50.41	9.09	-53.6	-56.1	13.7	0.00e+00	0	25	0	294649856	73	4776
2026-01-06 21:03:53.58	50.59	9.11	-53.8	-56.3	13.5	0.00e+00	0	25	0	296747008	73	4915
2026-01-06 21:03:54.59	50.76	9.13	-53.9	-56.5	13.5	0.00e+00	0	25	0	297795584	73	5024
2026-01-06 21:03:55.59	50.93	9.14	-53.9	-56.5	13.5	0.00e+00	0	25	0	299892736	73	5001
2026-01-06 21:03:56.59	51.10	9.16	-54.0	-56.7	13.3	0.00e+00	0	25	0	301989888	73	5106
2026-01-06 21:03:57.59	51.27	9.17	-53.8	-56.5	13.5	0.00e+00	0	25	0	304087040	73	4988
2026-01-06 21:03:58.60	51.44	9.19	-53.7	-56.3	13.5	0.00e+00	0	25	0	305135616	73	4909
2026-01-06 21:03:59.60	51.61	9.20	-53.8	-56.5	13.5	0.00e+00	0	25	0	307232768	73	4988
2026-01-06 21:04:00.61	51.79	9.22	-54.0	-56.8	13.3	0.00e+00	0	25	0	309329920	73	5172
2026-01-06 21:04:01.61	51.96	9.23	-54.3	-57.2	13.1	0.00e+00	0	25	0	311427072	73	5413
2026-01-06 21:04:02.62	52.13	9.24	-54.4	-57.4	13.0	7.00e-07	0	25	0	313524224	74	5256
2026-01-06 21:04:03.62	52.30	9.26	-54.7	-58.0	12.7	0.00e+00	0	25	0	315621376	74	5598
2026-01-06 21:04:04.63	52.48	9.27	-54.9	-58.3	12.5	0.00e+00	0	25	0	316669952	75	5475
2026-01-06 21:04:05.64	52.65	9.28	-55.1	-58.7	12.3	0.00e+00	0	25	0	318767104	75	5732
2026-01-06 21:04:06.64	52.82	9.30	-55.2	-58.7	12.3	0.00e+00	0	25	0	320864256	75	5752
2026-01-06 21:04:07.63	53.00	9.31	-55.1	-58.6	12.3	0.00e+00	0	25	0	322961408	75	5710
2026-01-06 21:04:08.63	53.17	9.32	-54.9	-58.2	12.6	7.00e-07	0	25	0	324009984	75	5456
2026-01-06 21:04:09.63	53.34	9.34	-54.9	-58.3	12.6	0.00e+00	0	25	0	326107136	75	5468
2026-01-06 21:04:10.63	53.51	9.35	-54.9	-58.2	12.7	7.00e-07	0	25	0	328204288	75	5416
2026-01-06 21:04:11.63	53.69	9.36	-54.8	-58.1	12.7	0.00e+00	0	25	0	330301440	75	5366
2026-01-06 21:04:12.63	53.86	9.37	-54.8	-58.0	12.8	0.00e+00	0	25	0	332398592	75	5285
2026-01-06 21:04:13.64	54.04	9.38	-54.8	-58.0	12.7	7.00e-07	0	25	0	333447168	75	5288
2026-01-06 21:04:14.64	54.21	9.39	-54.9	-58.2	12.6	0.00e+00	0	25	0	335544320	75	5444
2026-01-06 21:04:15.64	54.38	9.41	-54.9	-58.1	12.7	0.00e+00	0	25	0	337641472	75	5394
2026-01-06 21:04:16.64	54.56	9.42	-54.8	-58.0	12.8	0.00e+00	0	25	0	339738624	75	5306
2026-01-06 21:04:17.64	54.73	9.43	-54.8	-58.0	12.7	0.00e+00	0	25	0	341835776	75	5317
2026-01-06 21:04:18.64	54.91	9.44	-54.8	-58.1	12.7	0.00e+00	0	25	0	342884352	75	5351
2026-01-06 21:04:19.65	55.08	9.45	-54.8	-58.1	12.7	0.00e+00	0	25	0	344981504	75	5348
2026-01-06 21:04:20.64	55.25	9.46	-54.9	-58.1	12.6	0.00e+00	0	25	0	347078656	75	5387
2026-01-06 21:04:21.65	55.43	9.47	-54.8	-58.1	12.7	0.00e+00	0	25	0	349175808	75	5345
2026-01-06 21:04:22.65	55.61	9.48	-54.8	-58.1	12.7	0.00e+00	0	25	0	351272960	75	5363
2026-01-06 21:04:23.64	55.78	9.49	-54.9	-58.2	12.6	0.00e+00	0	25	0	352321536	75	5422
2026-01-06 21:04:24.64	55.95	9.50	-54.9	-58.3	12.5	0.00e+00	0	25	0	354418688	75	5497
2026-01-06 21:04:25.64	56.13	9.50	-54.9	-58.2	12.6	7.00e-07	0	25	0	356515840	75	5415
2026-01-06 21:04:26.64	56.30	9.51	-54.8	-58.0	12.7	7.00e-07	0	25	0	358612992	75	5339
2026-01-06 21:04:27.65	56.48	9.52	-54.8	-58.0	12.8	0.00e+00	0	25	0	360710144	75	5288
2026-01-06 21:04:28.65	56.65	9.53	-54.7	-57.8	12.9	0.00e+00	0	25	0	361758720	75	5163
2026-01-06 21:04:29.66	56.83	9.54	-54.6	-57.6	13.0	0.00e+00	0	25	0	363855872	75	5059
2026-01-06 21:04:30.67	57.01	9.55	-54.5	-57.4	13.1	0.00e+00	0	25	0	365953024	75	4972
2026-01-06 21:04:31.67	57.18	9.55	-54.4	-57.3	13.2	0.00e+00	0	25	0	368050176	75	4906
2026-01-06 21:04:32.67	57.36	9.56	-54.3	-57.1	13.3	0.00e+00	0	25	0	369098752	75	4764
2026-01-06 21:04:33.67	57.54	9.57	-54.2	-57.0	13.4	0.00e+00	0	25	0	371195904	75	4750
2026-01-06 21:04:34.68	57.71	9.57	-54.2	-57.0	13.4	0.00e+00	0	25	0	373293056	75	4718
2026-01-06 21:04:35.68	57.89	9.58	-54.3	-57.1	13.4	0.00e+00	0	25	0	375390208	75	4784
2026-01-06 21:04:36.68	58.07	9.59	-54.3	-57.1	13.3	0.00e+00	0	25	0	377487360	75	4773
2026-01-06 21:04:37.67	58.24	9.59	-54.2	-57.0	13.4	0.00e+00	0	25	0	378535936	75	4752
2026-01-06 21:04:38.68	58.42	9.60	-54.2	-57.0	13.4	0.00e+00	0	25	0	380633088	75	4730
2026-01-06 21:04:39.68	58.59	9.60	-54.2	-57.0	13.4	0.00e+00	0	25	0	382730240	75	4727
2026-01-06 21:04:40.68	58.77	9.61	-54.1	-56.8	13.4	0.00e+00	0	25	0	384827392	74	4884
2026-01-06 21:04:41.68	58.95	9.62	-54.1	-56.8	13.4	0.00e+00	0	25	0	386924544	74	4890
2026-01-06 21:04:42.69	59.12	9.62	-54.0	-56.6	13.5	0.00e+00	0	25	0	387973120	74	4807
2026-01-06 21:04:43.70	59.30	9.63	-54.0	-56.6	13.5	0.00e+00	0	25	0	390070272	74	4796
2026-01-06 21:04:44.70	59.48	9.63	-54.0	-56.6	13.5	0.00e+00	0	25	0	392167424	74	4804
2026-01-06 21:04:45.70	59.66	9.63	-54.1	-56.8	13.4	0.00e+00	0	25	0	394264576	74	4874
2026-01-06 21:04:46.70	59.83	9.64	-54.2	-57.0	13.3	0.00e+00	0	25	0	396361728	74	4996
2026-01-06 21:04:47.70	60.01	9.64	-54.1	-56.8	13.4	0.00e+00	0	25	0	397410304	74	4909
2026-01-06 21:04:48.71	60.19	9.65	-54.3	-57.1	13.2	0.00e+00	0	25	0	399507456	74	5063
2026-01-06 21:04:49.71	60.36	9.65	-54.1	-56.9	13.3	0.00e+00	0	25	0	401604608	74	4962
2026-01-06 21:04:50.72	60.54	9.65	-54.2	-57.0	13.3	0.00e+00	0	25	0	403701760	74	4991
2026-01-06 21:04:51.73	60.72	9.65	-53.9	-56.6	13.5	0.00e+00	0	25	0	405798912	74	4778
2026-01-06 21:04:52.73	60.90	9.66	-53.9	-56.5	13.5	0.00e+00	0	25	0	406847488	74	4757
2026-01-06 21:04:53.73	61.07	9.66	-53.8	-56.3	13.7	0.00e+00	0	25	0	408944640	74	4630
2026-01-06 21:04:54.74	61.25	9.66	-53.8	-56.3	13.7	0.00e+00	0	25	0	411041792	74	4623
2026-01-06 21:04:55.75	61.43	9.66	-53.6	-56.1	13.7	0.00e+00	0	25	0	413138944	73	4784
2026-01-06 21:04:56.75	61.61	9.66	-53.7	-56.2	13.6	0.00e+00	0	25	0	415236096	73	4841
2026-01-06 21:04:57.76	61.79	9.67	-53.7	-56.2	13.7	0.00e+00	0	25	0	416284672	73	4844
2026-01-06 21:04:58.76	61.96	9.67	-53.5	-56.0	13.8	0.00e+00	0	25	0	418381824	73	4720
2026-01-06 21:04:59.76	62.14	9.67	-53.4	-55.9	13.8	0.00e+00	0	25	0	420478976	73	4663
2026-01-06 21:05:00.76	62.32	9.67	-53.4	-55.8	13.9	0.00e+00	0	25	0	422576128	73	4602
2026-01-06 21:05:01.75	62.49	9.67	-53.1	-55.4	14.0	0.00e+00	0	25	0	423624704	72	4674
2026-01-06 21:05:02.75	62.67	9.67	-53.0	-55.3	14.0	0.00e+00	0	25	0	425721856	72	4606
2026-01-06 21:05:03.74	62.85	9.67	-52.9	-55.1	14.1	0.00e+00	0	25	0	427819008	72	4531
2026-01-06 21:05:04.74	63.02	9.67	-53.1	-55.4	14.0	0.00e+00	0	25	0	429916160	72	4674
2026-01-06 21:05:05.73	63.20	9.67	-53.1	-55.4	13.9	0.00e+00	0	25	0	432013312	72	4677
2026-01-06 21:05:06.74	63.38	9.67	-53.3	-55.7	13.8	0.00e+00	0	25	0	433061888	72	4823
2026-01-06 21:05:07.75	63.55	9.67	-53.4	-55.9	13.7	0.00e+00	0	25	0	435159040	72	4934
2026-01-06 21:05:08.74	63.73	9.67	-53.5	-56.0	13.7	0.00e+00	0	25	0	437256192	72	4992
2026-01-06 21:05:09.74	63.91	9.66	-53.6	-56.2	13.5	0.00e+00	0	25	0	439353344	72	5108
2026-01-06 21:05:10.74	64.08	9.66	-53.7	-56.2	13.5	0.00e+00	0	25	0	440401920	72	5142
2026-01-06 21:05:11.74	64.26	9.66	-53.4	-55.8	13.7	0.00e+00	0	25	0	442499072	72	4901
2026-01-06 21:05:12.74	64.44	9.66	-53.5	-55.9	13.7	0.00e+00	0	25	0	444596224	72	4980
2026-01-06 21:05:13.74	64.61	9.66	-53.4	-55.8	13.8	0.00e+00	0	25	0	446693376	72	4913
2026-01-06 21:05:14.75	64.79	9.65	-53.4	-55.8	13.7	0.00e+00	0	25	0	448790528	72	4872
2026-01-06 21:05:15.75	64.97	9.65	-53.4	-55.8	13.7	0.00e+00	0	25	0	450887680	72	4908
2026-01-06 21:05:16.75	65.15	9.65	-53.4	-55.8	13.7	0.00e+00	0	25	0	451936256	72	4912
2026-01-06 21:05:17.74	65.32	9.64	-53.4	-55.8	13.7	0.00e+00	0	25	0	454033408	72	4910
2026-01-06 21:05:18.74	65.50	9.64	-53.5	-56.0	13.7	0.00e+00	0	25	0	456130560	72	4988
2026-01-06 21:05:19.74	65.68	9.64	-53.7	-56.2	13.5	0.00e+00	0	25	0	458227712	72	5145
2026-01-06 21:05:20.73	65.85	9.63	-53.7	-56.3	13.5	0.00e+00	0	25	0	459276288	72	5169
2026-01-06 21:05:21.73	66.03	9.63	-53.5	-56.0	13.6	0.00e+00	0	25	0	461373440	72	5023
2026-01-06 21:05:22.73	66.20	9.62	-53.3	-55.7	13.8	0.00e+00	0	25	0	463470592	72	4816
2026-01-06 21:05:23.73	66.38	9.62	-53.3	-55.7	13.8	0.00e+00	0	25	0	465567744	72	4819
2026-01-06 21:05:24.72	66.55	9.61	-53.3	-55.6	13.9	0.00e+00	0	25	0	467664896	72	4811
2026-01-06 21:05:25.72	66.73	9.61	-53.2	-55.6	13.9	0.00e+00	0	25	0	468713472	72	4771
2026-01-06 21:05:26.72	66.91	9.60	-53.2	-55.5	13.9	0.00e+00	0	25	0	470810624	72	4759
2026-01-06 21:05:27.71	67.08	9.60	-53.2	-55.5	13.9	0.00e+00	0	25	0	472907776	72	4755
2026-01-06 21:05:28.71	67.26	9.59	-53.2	-55.6	13.9	0.00e+00	0	25	0	475004928	72	4781
2026-01-06 21:05:29.71	67.43	9.59	-53.1	-55.4	14.0	0.00e+00	0	25	0	476053504	72	4661
2026-01-06 21:05:30.71	67.61	9.58	-53.3	-55.6	13.8	0.00e+00	0	25	0	478150656	72	4798
2026-01-06 21:05:31.71	67.79	9.57	-53.0	-55.3	14.0	0.00e+00	0	25	0	480247808	72	4628
2026-01-06 21:05:32.71	67.96	9.57	-52.8	-55.0	14.2	0.00e+00	0	25	0	482344960	72	4473
2026-01-06 21:05:33.71	68.14	9.56	-52.6	-54.8	14.2	0.00e+00	0	25	0	484442112	71	4608
2026-01-06 21:05:34.71	68.31	9.55	-52.6	-54.7	14.2	0.00e+00	0	25	0	485490688	71	4579
2026-01-06 21:05:35.72	68.49	9.54	-52.5	-54.5	14.3	0.00e+00	0	25	0	487587840	71	4485
2026-01-06 21:05:36.71	68.66	9.54	-52.3	-54.3	14.4	0.00e+00	0	25	0	489684992	71	4355
2026-01-06 21:05:37.70	68.84	9.53	-52.3	-54.3	14.4	0.00e+00	0	25	0	491782144	71	4374
2026-01-06 21:05:38.71	69.01	9.52	-52.3	-54.3	14.4	0.00e+00	0	25	0	493879296	71	4376
2026-01-06 21:05:39.71	69.19	9.51	-52.3	-54.3	14.4	0.00e+00	0	25	0	494927872	71	4376
2026-01-06 21:05:40.72	69.37	9.50	-52.4	-54.4	14.3	0.00e+00	0	25	0	497025024	71	4433
2026-01-06 21:05:41.72	69.54	9.49	-52.6	-54.7	14.2	0.00e+00	0	25	0	499122176	71	4553
2026-01-06 21:05:42.71	69.72	9.48	-52.6	-54.7	14.2	0.00e+00	0	25	0	501219328	71	4586
2026-01-06 21:05:43.71	69.89	9.47	-52.7	-54.9	14.1	0.00e+00	0	25	0	503316480	71	4673
2026-01-06 21:05:44.70	70.06	9.46	-52.8	-55.0	14.1	0.00e+00	0	25	0	504365056	71	4743
2026-01-06 21:05:45.70	70.24	9.45	-52.8	-55.0	14.0	0.00e+00	0	25	0	506462208	71	4746
2026-01-06 21:05:46.70	70.41	9.44	-52.7	-54.9	14.1	0.00e+00	0	25	0	508559360	71	4669
2026-01-06 21:05:47.70	70.59	9.43	-52.8	-55.0	14.1	0.00e+00	0	25	0	510656512	71	4711
2026-01-06 21:05:48.69	70.76	9.42	-52.8	-54.9	14.1	0.00e+00	0	25	0	511705088	71	4697
2026-01-06 21:05:49.69	70.93	9.41	-52.8	-55.0	14.1	0.00e+00	0	25	0	513802240	71	4721
2026-01-06 21:05:50.69	71.11	9.40	-52.8	-55.1	14.0	0.00e+00	0	25	0	515899392	71	4760
2026-01-06 21:05:51.69	71.28	9.39	-53.0	-55.2	13.9	0.00e+00	0	25	0	517996544	71	4846
2026-01-06 21:05:52.70	71.46	9.38	-53.0	-55.4	13.8	0.00e+00	0	25	0	520093696	71	4931
2026-01-06 21:05:53.70	71.63	9.37	-53.0	-55.3	13.9	0.00e+00	0	25	0	521142272	71	4882
2026-01-06 21:05:54.70	71.80	9.36	-53.1	-55.4	13.8	0.00e+00	0	25	0	523239424	71	4953
2026-01-06 21:05:55.70	71.98	9.34	-52.9	-55.2	13.9	0.00e+00	0	25	0	525336576	71	4842
2026-01-06 21:05:56.70	72.15	9.33	-53.0	-55.2	13.9	0.00e+00	0	25	0	527433728	71	4859
2026-01-06 21:05:57.70	72.32	9.32	-52.8	-55.1	14.0	0.00e+00	0	25	0	528482304	71	4776
2026-01-06 21:05:58.70	72.50	9.31	-52.8	-55.0	14.0	0.00e+00	0	25	0	530579456	71	4756
2026-01-06 21:05:59.69	72.67	9.29	-52.9	-55.1	14.0	0.00e+00	0	25	0	532676608	71	4805
2026-01-06 21:06:00.69	72.84	9.28	-52.9	-55.1	14.0	0.00e+00	0	25	0	534773760	71	4803
2026-01-06 21:06:01.68	73.01	9.27	-53.0	-55.2	13.9	0.00e+00	0	25	0	536870912	71	4865
2026-01-06 21:06:02.69	73.19	9.25	-53.1	-55.5	13.8	0.00e+00	0	25	0	537919488	71	4985
2026-01-06 21:06:03.69	73.36	9.24	-53.0	-55.3	13.9	0.00e+00	0	25	0	540016640	71	4926
2026-01-06 21:06:04.69	73.53	9.22	-53.1	-55.4	13.8	0.00e+00	0	25	0	542113792	71	4940
2026-01-06 21:06:05.69	73.70	9.21	-53.3	-55.7	13.7	0.00e+00	0	25	0	544210944	71	5112
2026-01-06 21:06:06.69	73.87	9.20	-53.4	-55.8	13.6	0.00e+00	0	25	0	546308096	71	5212
2026-01-06 21:06:07.68	74.04	9.18	-53.5	-56.0	13.6	0.00e+00	0	25	0	547356672	72	5023
2026-01-06 21:06:08.68	74.21	9.17	-53.4	-55.9	13.7	0.00e+00	0	25	0	549453824	72	4938
2026-01-06 21:06:09.69	74.39	9.15	-53.4	-55.9	13.7	0.00e+00	0	25	0	551550976	72	4938
2026-01-06 21:06:10.69	74.56	9.14	-53.5	-56.0	13.6	0.00e+00	0	25	0	553648128	72	5040
2026-01-06 21:06:11.69	74.73	9.12	-53.5	-55.9	13.6	0.00e+00	0	25	0	554696704	72	4970
2026-01-06 21:06:12.70	74.90	9.10	-53.4	-55.8	13.7	0.00e+00	0	25	0	556793856	72	4898
2026-01-06 21:06:13.70	75.07	9.09	-53.2	-55.5	13.9	0.00e+00	0	25	0	558891008	72	4750
2026-01-06 21:06:14.70	75.24	9.07	-53.0	-55.2	14.0	0.00e+00	0	25	0	560988160	72	4593
2026-01-06 21:06:15.71	75.41	9.06	-52.8	-55.0	14.1	0.00e+00	0	25	0	563085312	72	4490
2026-01-06 21:06:16.71	75.58	9.04	-52.8	-55.0	14.1	0.00e+00	0	25	0	565182464	72	4467
2026-01-06 21:06:17.71	75.75	9.02	-52.5	-54.6	14.2	0.00e+00	0	25	0	566231040	71	4518
2026-01-06 21:06:18.71	75.92	9.01	-52.4	-54.4	14.3	0.00e+00	0	25	0	568328192	71	4420
2026-01-06 21:06:19.71	76.09	8.99	-52.2	-54.2	14.4	0.00e+00	0	25	0	570425344	71	4329
2026-01-06 21:06:20.71	76.26	8.97	-52.2	-54.2	14.5	0.00e+00	0	25	0	572522496	71	4309
2026-01-06 21:06:21.71	76.43	8.95	-51.9	-53.8	14.5	0.00e+00	0	25	0	573571072	70	4366
2026-01-06 21:06:22.70	76.60	8.94	-51.8	-53.7	14.5	0.00e+00	0	25	0	575668224	70	4329
2026-01-06 21:06:23.70	76.77	8.92	-51.7	-53.5	14.5	0.00e+00	0	25	0	577765376	69	4479
2026-01-06 21:06:24.70	76.94	8.90	-51.7	-53.5	14.5	0.00e+00	0	25	0	579862528	69	4469
2026-01-06 21:06:25.69	77.10	8.88	-51.8	-53.6	14.4	0.00e+00	0	25	0	581959680	69	4541
2026-01-06 21:06:26.69	77.27	8.86	-51.8	-53.7	14.4	0.00e+00	0	25	0	583008256	69	4558
2026-01-06 21:06:27.69	77.44	8.84	-52.0	-54.0	14.2	0.00e+00	0	25	0	585105408	69	4748
2026-01-06 21:06:28.68	77.60	8.82	-52.1	-54.1	14.2	0.00e+00	0	25	0	587202560	69	4774
2026-01-06 21:06:29.67	77.77	8.81	-52.2	-54.2	14.1	0.00e+00	0	25	0	589299712	69	4867
2026-01-06 21:06:30.67	77.94	8.79	-52.2	-54.2	14.1	0.00e+00	0	25	0	590348288	69	4849
2026-01-06 21:06:31.66	78.10	8.77	-52.3	-54.3	14.1	0.00e+00	0	25	0	592445440	69	4906
2026-01-06 21:06:32.66	78.27	8.75	-52.3	-54.4	14.1	0.00e+00	0	25	0	594542592	69	4970
2026-01-06 21:06:33.66	78.44	8.73	-52.3	-54.4	14.1	0.00e+00	0	25	0	596639744	69	4971
2026-01-06 21:06:34.65	78.60	8.71	-52.5	-54.6	14.1	0.00e+00	0	25	0	598736896	70	4790
2026-01-06 21:06:35.65	78.77	8.69	-52.4	-54.5	14.2	0.00e+00	0	25	0	599785472	70	4711
2026-01-06 21:06:36.65	78.93	8.67	-52.5	-54.6	14.1	0.00e+00	0	25	0	601882624	70	4767
2026-01-06 21:06:37.65	79.10	8.65	-52.5	-54.7	14.1	0.00e+00	0	25	0	603979776	70	4831
2026-01-06 21:06:38.65	79.26	8.62	-52.4	-54.5	14.1	0.00e+00	0	25	0	606076928	70	4743
2026-01-06 21:06:39.65	79.43	8.60	-52.4	-54.5	14.1	0.00e+00	0	25	0	608174080	70	4748
2026-01-06 21:06:40.64	79.59	8.58	-52.4	-54.5	14.2	0.00e+00	0	25	0	609222656	70	4737
2026-01-06 21:06:41.64	79.76	8.56	-52.5	-54.7	14.1	0.00e+00	0	25	0	611319808	70	4821
2026-01-06 21:06:42.64	79.92	8.54	-52.7	-54.9	14.0	0.00e+00	0	25	0	613416960	70	4946
2026-01-06 21:06:43.65	80.09	8.52	-52.7	-54.9	13.9	0.00e+00	0	25	0	615514112	70	4948
2026-01-06 21:06:44.65	80.25	8.49	-52.7	-55.0	13.9	0.00e+00	0	25	0	616562688	70	4985
2026-01-06 21:06:45.65	80.42	8.47	-52.6	-54.8	14.0	0.00e+00	0	25	0	618659840	70	4920
2026-01-06 21:06:46.64	80.58	8.45	-52.5	-54.7	14.1	0.00e+00	0	25	0	620756992	70	4824
2026-01-06 21:06:47.63	80.74	8.43	-52.5	-54.6	14.1	0.00e+00	0	25	0	622854144	70	4779
2026-01-06 21:06:48.63	80.90	8.41	-52.2	-54.3	14.3	0.00e+00	0	25	0	624951296	70	4616
2026-01-06 21:06:49.63	81.07	8.38	-52.1	-54.1	14.3	0.00e+00	0	25	0	625999872	70	4525
2026-01-06 21:06:50.63	81.23	8.36	-51.8	-53.8	14.5	0.00e+00	0	25	0	628097024	70	4342
2026-01-06 21:06:51.63	81.39	8.34	-51.9	-53.8	14.5	0.00e+00	0	25	0	630194176	70	4349
2026-01-06 21:06:52.63	81.55	8.31	-51.9	-53.8	14.5	0.00e+00	0	25	0	632291328	70	4371
2026-01-06 21:06:53.62	81.71	8.29	-52.0	-54.0	14.4	0.00e+00	0	25	0	633339904	70	4453
2026-01-06 21:06:54.62	81.87	8.26	-52.1	-54.1	14.3	0.00e+00	0	25	0	635437056	70	4511
2026-01-06 21:06:55.61	82.03	8.24	-52.3	-54.4	14.2	0.00e+00	0	25	0	637534208	70	4662
2026-01-06 21:06:56.60	82.19	8.22	-52.5	-54.7	14.1	0.00e+00	0	25	0	639631360	70	4820
2026-01-06 21:06:57.60	82.35	8.19	-52.5	-54.6	14.1	0.00e+00	0	25	0	641728512	70	4800
2026-01-06 21:06:58.60	82.51	8.17	-52.6	-54.8	14.0	0.00e+00	0	25	0	642777088	70	4887
2026-01-06 21:06:59.59	82.67	8.14	-52.6	-54.8	14.0	0.00e+00	0	25	0	644874240	70	4879
2026-01-06 21:07:00.59	82.83	8.12	-52.5	-54.6	14.1	0.00e+00	0	25	0	646971392	70	4813
2026-01-06 21:07:01.58	82.99	8.09	-52.5	-54.6	14.1	0.00e+00	0	25	0	649068544	70	4784
2026-01-06 21:07:02.58	83.15	8.07	-52.5	-54.6	14.1	0.00e+00	0	25	0	650117120	70	4780
2026-01-06 21:07:03.58	83.31	8.04	-52.4	-54.5	14.1	0.00e+00	0	25	0	652214272	70	4751
2026-01-06 21:07:04.59	83.47	8.02	-52.5	-54.7	14.1	0.00e+00	0	25	0	654311424	70	4829
2026-01-06 21:07:05.58	83.63	7.99	-52.5	-54.7	14.0	0.00e+00	0	25	0	656408576	70	4839
2026-01-06 21:07:06.58	83.79	7.97	-52.7	-55.0	13.9	0.00e+00	0	25	0	658505728	70	5002
2026-01-06 21:07:07.58	83.95	7.94	-52.8	-55.1	13.8	0.00e+00	0	25	0	659554304	70	5097
2026-01-06 21:07:08.58	84.10	7.91	-53.0	-55.4	13.8	0.00e+00	0	25	0	661651456	71	4964
2026-01-06 21:07:09.57	84.26	7.89	-53.2	-55.7	13.6	0.00e+00	0	25	0	663748608	71	5135
2026-01-06 21:07:10.58	84.42	7.86	-53.4	-55.9	13.6	0.00e+00	0	25	0	665845760	72	4950
2026-01-06 21:07:11.58	84.58	7.84	-53.6	-56.2	13.4	0.00e+00	0	25	0	667942912	72	5120
2026-01-06 21:07:12.59	84.73	7.81	-53.6	-56.2	13.4	0.00e+00	0	25	0	668991488	72	5133
2026-01-06 21:07:13.59	84.89	7.78	-53.8	-56.5	13.2	0.00e+00	0	25	0	671088640	72	5333
2026-01-06 21:07:14.60	85.05	7.75	-53.8	-56.6	13.2	0.00e+00	0	25	0	673185792	72	5355
2026-01-06 21:07:15.60	85.20	7.73	-53.8	-56.6	13.2	0.00e+00	0	25	0	675282944	72	5355
2026-01-06 21:07:16.60	85.36	7.70	-53.8	-56.5	13.3	0.00e+00	0	25	0	677380096	72	5299
2026-01-06 21:07:17.61	85.52	7.67	-53.8	-56.5	13.3	0.00e+00	0	25	0	678428672	72	5289
2026-01-06 21:07:18.61	85.67	7.64	-53.8	-56.5	13.3	0.00e+00	0	25	0	680525824	72	5311
2026-01-06 21:07:19.61	85.83	7.62	-53.8	-56.5	13.3	0.00e+00	0	25	0	682622976	72	5326
2026-01-06 21:07:20.61	85.98	7.59	-54.0	-56.8	13.2	0.00e+00	0	25	0	684720128	73	5206
2026-01-06 21:07:21.61	86.14	7.56	-54.0	-56.9	13.1	0.00e+00	0	25	0	686817280	73	5235
2026-01-06 21:07:22.61	86.29	7.53	-53.9	-56.7	13.2	0.00e+00	0	25	0	687865856	73	5143
2026-01-06 21:07:23.61	86.44	7.50	-53.9	-56.7	13.3	0.00e+00	0	25	0	689963008	73	5127
2026-01-06 21:07:24.61	86.60	7.48	-54.0	-56.9	13.1	0.00e+00	0	25	0	692060160	73	5235
2026-01-06 21:07:25.60	86.75	7.45	-53.9	-56.7	13.3	0.00e+00	0	25	0	694157312	73	5129
2026-01-06 21:07:26.60	86.90	7.42	-53.9	-56.6	13.3	0.00e+00	0	25	0	695205888	73	5093
2026-01-06 21:07:27.61	87.06	7.39	-53.7	-56.4	13.4	0.00e+00	0	25	0	697303040	73	4934
2026-01-06 21:07:28.62	87.21	7.36	-53.7	-56.4	13.4	0.00e+00	0	25	0	699400192	73	4952
2026-01-06 21:07:29.62	87.36	7.33	-53.7	-56.4	13.4	0.00e+00	0	25	0	701497344	73	4981
2026-01-06 21:07:30.62	87.51	7.30	-53.8	-56.6	13.3	0.00e+00	0	25	0	703594496	73	5043
2026-01-06 21:07:31.62	87.66	7.27	-53.9	-56.7	13.2	0.00e+00	0	25	0	704643072	73	5154
2026-01-06 21:07:32.62	87.82	7.24	-54.1	-57.0	13.1	0.00e+00	0	25	0	706740224	73	5292
2026-01-06 21:07:33.62	87.97	7.21	-53.9	-56.7	13.2	0.00e+00	0	25	0	708837376	73	5153
2026-01-06 21:07:34.62	88.12	7.18	-54.1	-57.1	13.0	0.00e+00	0	25	0	710934528	73	5347
2026-01-06 21:07:35.62	88.27	7.15	-54.1	-57.0	13.0	0.00e+00	0	25	0	713031680	73	5329
2026-01-06 21:07:36.62	88.42	7.12	-54.3	-57.3	12.8	0.00e+00	0	25	0	714080256	73	5528
2026-01-06 21:07:37.62	88.57	7.09	-54.2	-57.3	12.8	0.00e+00	0	25	0	716177408	73	5489
2026-01-06 21:07:38.63	88.72	7.06	-54.2	-57.2	12.9	0.00e+00	0	25	0	718274560	73	5416
2026-01-06 21:07:39.62	88.86	7.03	-54.4	-57.5	12.7	0.00e+00	0	25	0	720371712	73	5627
2026-01-06 21:07:40.63	89.01	7.00	-54.5	-57.6	12.7	0.00e+00	0	25	0	722468864	74	5401
2026-01-06 21:07:41.62	89.16	6.97	-54.5	-57.7	12.7	0.00e+00	0	25	0	723517440	74	5433
2026-01-06 21:07:42.62	89.31	6.94	-54.7	-58.1	12.4	1.50e-06	0	25	0	725614592	74	5657
2026-01-06 21:07:43.62	89.46	6.91	-54.9	-58.5	12.2	1.50e-06	0	25	0	727711744	74	5927
2026-01-06 21:07:44.62	89.61	6.88	-55.0	-58.8	12.0	4.50e-06	0	25	0	729808896	75	5805
2026-01-06 21:07:45.63	89.75	6.84	-55.1	-58.9	11.9	3.00e-06	0	25	0	730857472	75	5914
2026-01-06 21:07:46.63	89.90	6.81	-55.2	-59.2	11.7	1.14e-05	0	25	0	732954624	75	6083
2026-01-06 21:07:47.62	90.05	6.78	-55.2	-59.1	11.7	6.10e-06	0	25	0	735051776	75	6026
2026-01-06 21:07:48.62	90.19	6.75	-55.1	-58.9	11.9	7.60e-06	0	25	0	737148928	75	5917
2026-01-06 21:07:49.63	90.34	6.72	-55.1	-58.9	11.9	2.20e-06	0	25	0	739246080	75	5916
2026-01-06 21:07:50.62	90.48	6.69	-54.8	-58.4	12.2	2.20e-06	0	25	0	740294656	75	5553
2026-01-06 21:07:51.62	90.63	6.65	-54.8	-58.4	12.3	1.50e-06	0	25	0	742391808	75	5585
2026-01-06 21:07:52.62	90.77	6.62	-54.6	-58.0	12.6	7.00e-07	0	25	0	744488960	75	5284
2026-01-06 21:07:53.63	90.92	6.59	-54.7	-58.1	12.4	0.00e+00	0	25	0	746586112	75	5400
2026-01-06 21:07:54.62	91.06	6.56	-54.6	-57.9	12.6	0.00e+00	0	25	0	748683264	75	5259
2026-01-06 21:07:55.61	91.21	6.53	-54.5	-57.9	12.6	0.00e+00	0	25	0	749731840	75	5242
2026-01-06 21:07:56.61	91.35	6.49	-54.4	-57.6	12.8	7.00e-07	0	25	0	751828992	75	5084
2026-01-06 21:07:57.61	91.49	6.46	-54.6	-58.0	12.5	7.00e-07	0	25	0	753926144	75	5318
2026-01-06 21:07:58.61	91.64	6.43	-54.6	-58.0	12.6	0.00e+00	0	25	0	756023296	75	5280
2026-01-06 21:07:59.61	91.78	6.39	-54.5	-57.9	12.6	0.00e+00	0	25	0	758120448	75	5240
2026-01-06 21:08:00.61	91.92	6.36	-54.6	-57.9	12.5	0.00e+00	0	25	0	759169024	75	5259
2026-01-06 21:08:01.61	92.06	6.33	-54.7	-58.1	12.4	1.50e-06	0	25	0	761266176	75	5377
2026-01-06 21:08:02.61	92.21	6.30	-54.8	-58.3	12.3	0.00e+00	0	25	0	763363328	75	5515
2026-01-06 21:08:03.60	92.35	6.26	-54.8	-58.4	12.2	7.00e-07	0	25	0	765460480	75	5538
2026-01-06 21:08:04.60	92.49	6.23	-54.9	-58.6	12.1	2.20e-06	0	25	0	766509056	75	5698
2026-01-06 21:08:05.60	92.63	6.20	-54.9	-58.6	12.1	1.50e-06	0	25	0	768606208	75	5666
2026-01-06 21:08:06.60	92.77	6.16	-55.0	-58.8	11.9	7.00e-07	0	25	0	770703360	75	5824
2026-01-06 21:08:07.60	92.91	6.13	-55.0	-58.8	11.9	4.50e-06	0	25	0	772800512	75	5796
2026-01-06 21:08:08.60	93.05	6.09	-54.8	-58.4	12.2	1.50e-06	0	25	0	774897664	75	5554
2026-01-06 21:08:09.60	93.19	6.06	-54.8	-58.4	12.2	1.50e-06	0	25	0	775946240	75	5569
2026-01-06 21:08:10.59	93.33	6.03	-54.8	-58.5	12.1	0.00e+00	0	25	0	778043392	75	5615
2026-01-06 21:08:11.59	93.47	5.99	-54.6	-58.1	12.4	1.50e-06	0	25	0	780140544	75	5393
2026-01-06 21:08:12.60	93.61	5.96	-54.5	-57.9	12.5	0.00e+00	0	25	0	782237696	75	5263
2026-01-06 21:08:13.60	93.75	5.92	-54.6	-58.0	12.4	0.00e+00	0	25	0	784334848	75	5318
2026-01-06 21:08:14.59	93.88	5.89	-54.5	-57.9	12.5	0.00e+00	0	25	0	785383424	75	5275
2026-01-06 21:08:15.60	94.02	5.86	-54.2	-57.4	12.9	0.00e+00	0	25	0	787480576	75	4957
2026-01-06 21:08:16.60	94.16	5.82	-54.4	-57.7	12.6	0.00e+00	0	25	0	789577728	74	5438
2026-01-06 21:08:17.60	94.30	5.79	-54.4	-57.6	12.6	0.00e+00	0	25	0	791674880	74	5394
2026-01-06 21:08:18.60	94.43	5.75	-54.5	-57.9	12.4	1.50e-06	0	25	0	792723456	74	5573
2026-01-06 21:08:19.60	94.57	5.72	-54.5	-57.9	12.4	0.00e+00	0	25	0	794820608	74	5548
2026-01-06 21:08:20.60	94.71	5.68	-54.4	-57.8	12.5	0.00e+00	0	25	0	796917760	74	5517
2026-01-06 21:08:21.59	94.84	5.65	-54.6	-58.1	12.2	0.00e+00	0	25	0	799014912	74	5717
2026-01-06 21:08:22.59	94.98	5.61	-54.6	-58.0	12.3	2.20e-06	0	25	0	801112064	74	5654
2026-01-06 21:08:23.58	95.11	5.58	-54.2	-57.5	12.7	1.50e-06	0	25	0	802160640	74	5296
2026-01-06 21:08:24.59	95.25	5.54	-54.4	-57.8	12.5	1.50e-06	0	25	0	804257792	74	5507
2026-01-06 21:08:25.59	95.38	5.51	-54.1	-57.3	12.8	0.00e+00	0	25	0	806354944	74	5203
2026-01-06 21:08:26.59	95.52	5.47	-54.3	-57.7	12.5	0.00e+00	0	25	0	808452096	74	5435
2026-01-06 21:08:27.58	95.65	5.44	-54.2	-57.5	12.6	0.00e+00	0	25	0	809500672	74	5317
2026-01-06 21:08:28.59	95.79	5.40	-54.3	-57.6	12.6	0.00e+00	0	25	0	811597824	74	5345
2026-01-06 21:08:29.58	95.92	5.36	-54.0	-57.2	12.8	0.00e+00	0	25	0	813694976	74	5114
2026-01-06 21:08:30.58	96.05	5.33	-54.1	-57.3	12.8	0.00e+00	0	25	0	815792128	74	5166
2026-01-06 21:08:31.58	96.18	5.29	-54.0	-57.1	12.9	0.00e+00	0	25	0	817889280	74	5067
2026-01-06 21:08:32.58	96.32	5.26	-54.1	-57.3	12.7	0.00e+00	0	25	0	818937856	74	5212
2026-01-06 21:08:33.58	96.45	5.22	-54.0	-57.1	12.7	0.00e+00	0	25	0	821035008	74	5079
2026-01-06 21:08:34.58	96.58	5.19	-54.0	-57.2	12.8	0.00e+00	0	25	0	823132160	74	5113
2026-01-06 21:08:35.58	96.71	5.15	-54.1	-57.3	12.7	0.00e+00	0	25	0	825229312	74	5199
2026-01-06 21:08:36.58	96.84	5.11	-54.1	-57.4	12.7	0.00e+00	0	25	0	827326464	74	5227
2026-01-06 21:08:37.58	96.98	5.08	-54.1	-57.3	12.7	7.00e-07	0	25	0	828375040	74	5183
2026-01-06 21:08:38.58	97.11	5.04	-54.3	-57.7	12.5	0.00e+00	0	25	0	830472192	74	5417
2026-01-06 21:08:39.58	97.24	5.00	-55.4	-59.9	11.2	0.00e+00	0	25	0	832569344	75	6641
2026-01-06 21:08:40.58	97.37	4.97	-58.1	-74.2	3.8	1.49e+00	0	25	104	832569344	81	24179
2026-01-06 21:08:41.58	97.50	4.93	-58.5	-74.7	3.8	1.49e+00	0	25	104	832569344	82	24177
2026-01-06 21:08:42.58	97.63	4.89	-58.7	-74.7	3.8	1.49e+00	0	25	104	832569344	82	24382
2026-01-06 21:08:43.58	97.76	4.86	-58.9	-74.9	3.8	1.49e+00	0	25	104	832569344	82	24913
2026-01-06 21:08:44.58	97.88	4.82	-59.0	-75.1	3.8	1.49e+00	0	25	104	832569344	83	24029
2026-01-06 21:08:45.58	98.01	4.78	-59.2	-75.2	3.8	1.49e+00	0	25	104	832569344	83	24375
2026-01-06 21:08:46.58	98.14	4.75	-59.3	-75.4	3.8	1.49e+00	0	25	104	832569344	83	24798
2026-01-06 21:08:47.58	98.27	4.71	-59.4	-75.5	3.8	1.49e+00	0	26	104	832569344	83	25004
2026-01-06 21:08:48.57	98.40	4.67	-59.7	-75.7	3.8	1.49e+00	0	25	104	832569344	84	24361
2026-01-06 21:08:49.58	98.52	4.64	-59.7	-75.8	3.8	1.49e+00	0	25	104	832569344	84	24590
2026-01-06 21:08:50.58	98.65	4.60	-59.8	-75.9	3.8	1.49e+00	0	25	104	832569344	84	24724
2026-01-06 21:08:51.57	98.78	4.56	-59.9	-75.9	3.8	1.49e+00	0	25	104	832569344	84	24927
2026-01-06 21:08:52.57	98.90	4.52	-59.9	-76.0	3.8	1.49e+00	0	25	104	832569344	84	25003
2026-01-06 21:08:53.57	99.03	4.49	-60.0	-76.1	3.8	1.49e+00	0	25	104	832569344	85	23862
2026-01-06 21:08:54.57	99.16	4.45	-60.0	-76.1	3.8	1.49e+00	0	25	104	832569344	85	23936
2026-01-06 21:08:55.57	99.28	4.41	-60.0	-76.1	3.8	1.49e+00	0	26	104	832569344	85	24001
2026-01-06 21:08:56.57	99.41	4.37	-60.1	-76.1	3.8	1.49e+00	0	25	104	832569344	85	24091
2026-01-06 21:08:57.56	99.53	4.34	-60.1	-76.2	3.8	1.49e+00	0	26	104	832569344	85	24224
2026-01-06 21:08:58.56	99.65	4.30	-60.2	-76.2	3.8	1.49e+00	0	25	104	832569344	85	24343
2026-01-06 21:08:59.56	99.78	4.26	-60.2	-76.3	3.8	1.49e+00	0	25	104	832569344	85	24501
2026-01-06 21:09:00.56	99.90	4.22	-60.2	-76.3	3.9	1.49e+00	0	25	104	832569344	85	24559
2026-01-06 21:09:01.55	100.02	4.19	-60.2	-76.3	3.8	1.49e+00	0	25	104	832569344	85	24637
2026-01-06 21:09:02.54	100.15	4.15	-60.2	-76.3	3.8	1.49e+00	0	25	104	832569344	85	24617
2026-01-06 21:09:03.54	100.27	4.11	-60.3	-76.4	3.8	1.49e+00	0	26	104	832569344	85	24828
2026-01-06 21:09:04.54	100.39	4.07	-60.3	-76.4	3.8	1.49e+00	0	25	104	832569344	85	24837
2026-01-06 21:09:05.54	100.52	4.04	-60.3	-76.4	3.8	1.49e+00	0	26	104	832569344	85	24945
2026-01-06 21:09:06.55	100.64	4.00	-60.3	-76.5	3.8	1.49e+00	0	25	104	832569344	85	24987
2026-01-06 21:09:07.55	100.76	3.96	-60.3	-76.4	3.8	1.49e+00	0	26	104	832569344	85	24818
2026-01-06 21:09:08.54	100.88	3.92	-60.3	-76.4	3.8	1.49e+00	0	26	104	832569344	85	24752
2026-01-06 21:09:09.54	101.00	3.88	-60.3	-76.4	3.8	1.49e+00	0	25	104	832569344	85	24743
2026-01-06 21:09:10.53	101.12	3.85	-60.3	-76.4	3.8	1.49e+00	0	25	104	832569344	85	24739
2026-01-06 21:09:11.54	101.24	3.81	-60.2	-76.4	3.8	1.49e+00	0	25	104	832569344	85	24701
2026-01-06 21:09:12.54	101.36	3.77	-60.3	-76.4	3.8	1.49e+00	0	25	104	832569344	85	24718
2026-01-06 21:09:13.55	101.49	3.73	-60.2	-76.3	3.8	1.49e+00	0	25	104	832569344	85	24633
2026-01-06 21:09:14.54	101.60	3.69	-60.2	-76.3	3.8	1.49e+00	0	26	104	832569344	85	24611
2026-01-06 21:09:15.54	101.72	3.65	-60.2	-76.3	3.8	1.49e+00	0	25	104	832569344	85	24562
2026-01-06 21:09:16.53	101.84	3.61	-60.2	-76.3	3.8	1.49e+00	0	25	104	832569344	85	24601
2026-01-06 21:09:17.53	101.96	3.58	-60.2	-76.3	3.8	1.49e+00	0	25	104	832569344	85	24541
2026-01-06 21:09:18.52	102.08	3.54	-60.2	-76.3	3.8	1.49e+00	0	25	104	832569344	85	24532
2026-01-06 21:09:19.52	102.20	3.50	-60.2	-76.3	3.8	1.49e+00	0	25	104	832569344	85	24487
2026-01-06 21:09:20.52	102.31	3.46	-60.2	-76.3	3.8	1.49e+00	0	25	104	832569344	85	24536
2026-01-06 21:09:21.53	102.43	3.42	-60.2	-76.3	3.8	1.49e+00	0	25	104	832569344	85	24557
2026-01-06 21:09:22.52	102.55	3.38	-60.2	-76.3	3.8	1.49e+00	0	25	104	832569344	85	24549
2026-01-06 21:09:23.53	102.67	3.34	-60.2	-76.3	3.8	1.49e+00	0	26	104	832569344	85	24519
2026-01-06 21:09:24.53	102.78	3.30	-60.2	-76.3	3.8	1.49e+00	0	25	104	832569344	85	24471
2026-01-06 21:09:25.52	102.90	3.27	-60.2	-76.3	3.8	1.49e+00	0	26	104	832569344	85	24519
2026-01-06 21:09:26.52	103.01	3.23	-60.2	-76.3	3.8	1.49e+00	0	26	104	832569344	85	24475
2026-01-06 21:09:27.52	103.13	3.19	-60.2	-76.3	3.8	1.49e+00	0	26	104	832569344	85	24445
2026-01-06 21:09:28.53	103.25	3.15	-60.2	-76.3	3.8	1.49e+00	0	26	104	832569344	85	24429
2026-01-06 21:09:29.52	103.36	3.11	-60.2	-76.3	3.8	1.49e+00	0	26	104	832569344	85	24446
2026-01-06 21:09:30.53	103.48	3.07	-60.2	-76.3	3.8	1.49e+00	0	26	104	832569344	85	24451
2026-01-06 21:09:31.53	103.59	3.03	-60.2	-76.3	3.8	1.49e+00	0	25	104	832569344	85	24472
2026-01-06 21:09:32.53	103.71	2.99	-60.2	-76.3	3.8	1.49e+00	0	25	104	832569344	85	24422
2026-01-06 21:09:33.53	103.82	2.95	-60.2	-76.3	3.8	1.49e+00	0	25	104	832569344	85	24467
2026-01-06 21:09:34.54	103.94	2.91	-60.2	-76.3	3.8	1.49e+00	0	25	104	832569344	85	24461
2026-01-06 21:09:35.55	104.05	2.87	-60.2	-76.3	3.9	1.49e+00	0	25	104	832569344	85	24475
2026-01-06 21:09:36.55	104.16	2.83	-60.2	-76.3	3.8	1.49e+00	0	26	104	832569344	85	24469
2026-01-06 21:09:37.56	104.28	2.79	-60.2	-76.3	3.8	1.49e+00	0	26	104	832569344	85	24501
2026-01-06 21:09:38.56	104.39	2.75	-60.2	-76.2	3.8	1.49e+00	0	25	104	832569344	85	24403
2026-01-06 21:09:39.56	104.50	2.72	-60.2	-76.2	3.8	1.49e+00	0	26	104	832569344	85	24383
2026-01-06 21:09:40.57	104.62	2.68	-60.1	-76.2	3.8	1.49e+00	0	25	104	832569344	85	24393
2026-01-06 21:09:41.57	104.73	2.64	-60.1	-76.2	3.8	1.49e+00	0	26	104	832569344	85	24355
2026-01-06 21:09:42.57	104.84	2.60	-60.1	-76.2	3.8	1.49e+00	0	26	104	832569344	85	24328
2026-01-06 21:09:43.56	104.95	2.56	-60.1	-76.2	3.8	1.49e+00	0	26	104	832569344	85	24354
2026-01-06 21:09:44.57	105.06	2.52	-60.1	-76.2	3.8	1.49e+00	0	26	104	832569344	85	24330
2026-01-06 21:09:45.57	105.17	2.48	-60.1	-76.2	3.8	1.49e+00	0	26	104	832569344	85	24281
2026-01-06 21:09:46.58	105.28	2.44	-60.1	-76.2	3.8	1.49e+00	0	25	104	832569344	85	24353
2026-01-06 21:09:47.58	105.39	2.40	-60.1	-76.2	3.8	1.49e+00	0	26	104	832569344	85	24315
2026-01-06 21:09:48.58	105.50	2.36	-60.1	-76.2	3.8	1.49e+00	0	25	104	832569344	85	24319
2026-01-06 21:09:49.58	105.61	2.32	-60.1	-76.2	3.8	1.49e+00	0	26	104	832569344	85	24241
2026-01-06 21:09:50.58	105.72	2.28	-60.1	-76.2	3.8	1.49e+00	0	26	104	832569344	85	24207
2026-01-06 21:09:51.58	105.83	2.24	-60.1	-76.2	3.8	1.49e+00	0	26	104	832569344	85	24280
2026-01-06 21:09:52.58	105.94	2.20	-60.1	-76.2	3.8	1.49e+00	0	26	104	832569344	85	24256
2026-01-06 21:09:53.58	106.05	2.16	-60.1	-76.2	3.8	1.49e+00	0	26	104	832569344	85	24277
2026-01-06 21:09:54.58	106.16	2.12	-60.1	-76.2	3.8	1.49e+00	0	25	104	832569344	85	24276
2026-01-06 21:09:55.57	106.26	2.08	-60.1	-76.2	3.8	1.49e+00	0	26	104	832569344	85	24247
2026-01-06 21:09:56.57	106.37	2.04	-60.1	-76.2	3.8	1.49e+00	0	26	104	832569344	85	24264
2026-01-06 21:09:57.57	106.48	2.00	-60.1	-76.2	3.8	1.49e+00	0	26	104	832569344	85	24232
2026-01-06 21:09:58.56	106.58	1.96	-60.1	-76.2	3.8	1.49e+00	0	26	104	832569344	85	24291

#Closed at: 2026-01-06 21:09:58
#Recorded file [832 MB]: D:/lorett/data/31004_260107_000009.dat