passes_logs/2026/01/06/R3.2S_Murmansk/R3.2S_Murmansk__20260106_100521_TY-42_rec.log

#Pass ID: 20260106_100521_TY-42
#Satellite: TY-42
#Configuration: TY-42_900M
#almurnet v.1.7.20251203
#Start time: 2026-01-06 10:05:21

#Version: 2.2.20231116
#Station: R3.2S_Murmansk
#Location: 33.079688 lon 68.888172 lat
#TLE: 1 64048U 25103A   26005.68684028  .00008011  00000-0  38191-3 0 09993
#TLE: 2 64048 097.4106 081.2795 0001725 092.4682 306.5290 15.19173644 35407

#Time	Az	El	Level	Level2	SNR	BER	BlckErr	Temp	State	Recorded	gain1	gain2
2026-01-06 10:05:21.70	21.38	2.03	-57.9	-61.2	6.1	0.00e+00	0	32	0	0	82	21243
2026-01-06 10:05:22.69	21.36	2.10	-58.0	-61.2	6.2	0.00e+00	0	33	104	0	83	20055
2026-01-06 10:05:23.68	21.33	2.17	-58.0	-61.2	6.2	0.00e+00	0	33	104	0	83	20146
2026-01-06 10:05:24.66	21.31	2.23	-58.0	-61.2	6.2	0.00e+00	0	33	104	0	83	20074
2026-01-06 10:05:25.65	21.28	2.30	-58.0	-61.2	6.2	0.00e+00	0	33	104	0	83	20146
2026-01-06 10:05:26.64	21.25	2.37	-58.0	-61.2	6.2	0.00e+00	0	33	104	0	83	20130
2026-01-06 10:05:27.62	21.23	2.44	-58.0	-61.3	6.2	0.00e+00	0	33	104	0	83	20164
2026-01-06 10:05:28.61	21.20	2.51	-58.0	-61.3	6.2	0.00e+00	0	33	104	0	83	20166
2026-01-06 10:05:29.60	21.17	2.58	-58.0	-61.2	6.2	0.00e+00	0	33	104	0	83	20155
2026-01-06 10:05:30.59	21.15	2.65	-58.0	-61.2	6.2	0.00e+00	0	33	104	0	83	20135
2026-01-06 10:05:31.57	21.12	2.72	-58.0	-61.2	6.2	0.00e+00	0	33	104	0	83	20127
2026-01-06 10:05:32.55	21.09	2.79	-58.0	-61.2	6.1	0.00e+00	0	34	104	0	83	20112
2026-01-06 10:05:33.54	21.06	2.86	-58.0	-61.3	6.2	0.00e+00	0	34	104	0	83	20228
2026-01-06 10:05:34.53	21.04	2.93	-58.0	-61.3	6.2	0.00e+00	0	34	104	0	83	20197
2026-01-06 10:05:35.52	21.01	3.00	-58.0	-61.3	6.2	0.00e+00	0	34	104	0	83	20176
2026-01-06 10:05:36.51	20.98	3.07	-58.0	-61.2	6.2	0.00e+00	0	34	104	0	83	20143
2026-01-06 10:05:37.51	20.95	3.15	-58.0	-61.3	6.2	0.00e+00	0	34	104	0	83	20245
2026-01-06 10:05:38.49	20.92	3.22	-58.0	-61.3	6.2	0.00e+00	0	34	104	0	83	20266
2026-01-06 10:05:39.49	20.89	3.29	-58.0	-61.3	6.2	0.00e+00	0	34	104	0	83	20221
2026-01-06 10:05:40.48	20.86	3.36	-58.0	-61.3	6.2	0.00e+00	0	34	104	0	83	20272
2026-01-06 10:05:41.47	20.83	3.43	-58.0	-61.3	6.2	0.00e+00	0	34	104	0	83	20242
2026-01-06 10:05:42.47	20.80	3.51	-58.0	-61.3	6.1	0.00e+00	0	34	104	0	83	20288
2026-01-06 10:05:43.46	20.77	3.58	-58.1	-61.3	6.2	0.00e+00	0	34	104	0	83	20309
2026-01-06 10:05:44.44	20.75	3.65	-58.1	-61.3	6.1	0.00e+00	0	34	104	0	83	20317
2026-01-06 10:05:45.43	20.71	3.73	-58.1	-61.3	6.2	0.00e+00	0	34	104	0	83	20344
2026-01-06 10:05:46.41	20.68	3.80	-58.1	-61.3	6.2	0.00e+00	0	34	104	0	83	20333
2026-01-06 10:05:47.40	20.65	3.87	-58.1	-61.3	6.2	0.00e+00	0	34	104	0	83	20294
2026-01-06 10:05:48.38	20.62	3.95	-58.1	-61.3	6.2	0.00e+00	0	34	104	0	83	20245
2026-01-06 10:05:49.38	20.59	4.02	-58.1	-61.3	6.2	0.00e+00	0	35	104	0	83	20313
2026-01-06 10:05:50.37	20.56	4.10	-58.1	-61.3	6.2	0.00e+00	0	35	104	0	83	20388
2026-01-06 10:05:51.36	20.53	4.17	-58.1	-61.3	6.1	0.00e+00	0	35	104	0	83	20260
2026-01-06 10:05:52.35	20.50	4.25	-58.1	-61.3	6.2	0.00e+00	0	35	104	0	83	20340
2026-01-06 10:05:53.33	20.47	4.32	-58.1	-61.3	6.2	0.00e+00	0	35	104	0	83	20395
2026-01-06 10:05:54.32	20.43	4.40	-58.1	-61.4	6.2	0.00e+00	0	35	104	0	83	20398
2026-01-06 10:05:55.31	20.40	4.48	-58.1	-61.3	6.2	0.00e+00	0	35	104	0	83	20333
2026-01-06 10:05:56.31	20.37	4.55	-58.1	-61.4	6.2	0.00e+00	0	35	104	0	83	20421
2026-01-06 10:05:57.30	20.33	4.63	-58.1	-61.3	6.2	0.00e+00	0	35	104	0	83	20364
2026-01-06 10:05:58.29	20.30	4.71	-58.1	-61.4	6.2	0.00e+00	0	35	104	0	83	20426
2026-01-06 10:05:59.29	20.27	4.78	-58.1	-61.4	6.2	0.00e+00	0	35	104	0	83	20424
2026-01-06 10:06:00.28	20.23	4.86	-58.1	-61.4	6.2	0.00e+00	0	35	104	0	83	20435
2026-01-06 10:06:01.27	20.20	4.94	-58.1	-61.4	6.2	0.00e+00	0	35	104	0	83	20428
2026-01-06 10:06:02.27	20.17	5.02	-58.1	-61.4	6.2	0.00e+00	0	35	104	0	83	20412
2026-01-06 10:06:03.25	20.13	5.10	-58.2	-61.4	6.2	0.00e+00	0	35	104	0	83	20491
2026-01-06 10:06:04.25	20.10	5.18	-58.3	-61.5	6.2	0.00e+00	0	35	104	0	83	20776
2026-01-06 10:06:05.25	20.06	5.26	-58.2	-61.5	6.1	0.00e+00	0	35	104	0	83	20779
2026-01-06 10:06:06.24	20.02	5.34	-58.1	-61.4	6.2	0.00e+00	0	35	104	0	83	20431
2026-01-06 10:06:07.23	19.99	5.41	-58.3	-61.5	6.1	0.00e+00	0	35	104	0	83	20782
2026-01-06 10:06:08.22	19.95	5.49	-58.2	-61.4	6.1	0.00e+00	0	36	104	0	83	20537
2026-01-06 10:06:09.21	19.92	5.58	-58.3	-61.5	6.2	0.00e+00	0	35	104	0	83	20856
2026-01-06 10:06:10.19	19.88	5.66	-58.2	-61.5	6.2	0.00e+00	0	35	104	0	83	20638
2026-01-06 10:06:11.18	19.84	5.74	-58.3	-61.6	6.1	0.00e+00	0	36	104	0	83	20995
2026-01-06 10:06:12.18	19.81	5.82	-58.2	-61.4	6.1	0.00e+00	0	36	104	0	83	20575
2026-01-06 10:06:13.17	19.77	5.90	-58.3	-61.6	6.1	0.00e+00	0	36	104	0	83	20976
2026-01-06 10:06:14.17	19.73	5.98	-58.2	-61.5	6.2	0.00e+00	0	36	104	0	83	20711
2026-01-06 10:06:15.16	19.69	6.06	-58.4	-61.7	6.2	0.00e+00	0	36	104	0	83	21158
2026-01-06 10:06:16.15	19.66	6.15	-58.3	-61.5	6.2	0.00e+00	0	36	104	0	83	20751
2026-01-06 10:06:17.15	19.62	6.23	-58.4	-61.6	6.2	0.00e+00	0	36	104	0	83	21070
2026-01-06 10:06:18.14	19.58	6.31	-58.3	-61.5	6.1	0.00e+00	0	36	104	0	83	20809
2026-01-06 10:06:19.14	19.54	6.40	-58.5	-61.7	6.2	0.00e+00	0	36	104	0	83	21280
2026-01-06 10:06:20.13	19.50	6.48	-58.3	-61.6	6.2	0.00e+00	0	36	104	0	83	20888
2026-01-06 10:06:21.12	19.46	6.57	-58.4	-61.7	6.1	0.00e+00	0	36	104	0	83	21256
2026-01-06 10:06:22.12	19.42	6.65	-58.3	-61.6	6.2	0.00e+00	0	36	104	0	83	21023
2026-01-06 10:06:23.11	19.38	6.74	-58.5	-61.8	6.2	0.00e+00	0	36	104	0	83	21367
2026-01-06 10:06:24.10	19.34	6.82	-58.4	-61.6	6.2	0.00e+00	0	36	104	0	83	20989
2026-01-06 10:06:25.09	19.30	6.91	-58.5	-61.8	6.2	0.00e+00	0	36	104	0	83	21380
2026-01-06 10:06:26.09	19.26	7.00	-58.4	-61.7	6.2	0.00e+00	0	36	104	0	83	21144
2026-01-06 10:06:27.08	19.21	7.08	-58.6	-61.8	6.2	0.00e+00	0	36	104	0	83	21445
2026-01-06 10:06:28.07	19.17	7.17	-58.4	-61.7	6.2	0.00e+00	0	36	104	0	83	21160
2026-01-06 10:06:29.06	19.13	7.26	-58.5	-61.8	6.2	0.00e+00	0	36	104	0	83	21448
2026-01-06 10:06:30.05	19.09	7.34	-58.5	-61.7	6.1	0.00e+00	0	36	104	0	83	21275
2026-01-06 10:06:31.04	19.04	7.43	-58.6	-61.9	6.2	0.00e+00	0	36	104	0	83	21614
2026-01-06 10:06:32.03	19.00	7.52	-58.5	-61.7	6.2	0.00e+00	0	36	104	0	83	21299
2026-01-06 10:06:33.02	18.96	7.61	-58.6	-61.8	6.1	0.00e+00	0	37	104	0	83	21568
2026-01-06 10:06:34.02	18.91	7.70	-58.5	-61.7	6.2	0.00e+00	0	36	104	0	83	21341
2026-01-06 10:06:35.02	18.87	7.79	-58.6	-61.9	6.1	0.00e+00	0	37	104	0	83	21651
2026-01-06 10:06:36.01	18.82	7.88	-58.5	-61.8	6.2	0.00e+00	0	37	104	0	83	21396
2026-01-06 10:06:37.02	18.78	7.97	-58.6	-61.8	6.2	0.00e+00	0	37	104	0	83	21602
2026-01-06 10:06:38.01	18.73	8.06	-58.6	-61.8	6.2	0.00e+00	0	37	104	0	83	21503
2026-01-06 10:06:39.00	18.68	8.15	-58.7	-61.9	6.1	0.00e+00	0	37	104	0	83	21850
2026-01-06 10:06:39.99	18.64	8.25	-58.6	-61.8	6.2	0.00e+00	0	37	104	0	83	21489
2026-01-06 10:06:40.98	18.59	8.34	-58.7	-61.9	6.2	0.00e+00	0	36	104	0	83	21683
2026-01-06 10:06:41.97	18.54	8.43	-58.6	-61.8	6.1	0.00e+00	0	37	104	0	83	21551
2026-01-06 10:06:42.97	18.50	8.52	-58.7	-62.0	6.2	0.00e+00	0	37	104	0	83	21890
2026-01-06 10:06:43.95	18.45	8.62	-58.6	-61.9	6.2	0.00e+00	0	37	104	0	83	21667
2026-01-06 10:06:44.94	18.40	8.71	-58.7	-62.0	6.2	0.00e+00	0	37	104	0	83	21869
2026-01-06 10:06:45.93	18.35	8.81	-58.6	-61.9	6.2	0.00e+00	0	37	104	0	83	21715
2026-01-06 10:06:46.91	18.30	8.90	-58.8	-62.0	6.2	0.00e+00	0	37	104	0	83	22027
2026-01-06 10:06:47.90	18.25	8.99	-52.5	-53.4	8.2	0.00e+00	0	37	104	0	70	17163
2026-01-06 10:06:48.89	18.20	9.09	-51.3	-52.0	8.6	0.00e+00	0	37	104	0	69	15601
2026-01-06 10:06:49.88	18.15	9.19	-50.9	-51.6	8.7	0.00e+00	0	37	104	0	68	15776
2026-01-06 10:06:50.87	18.10	9.28	-50.6	-51.3	8.9	0.00e+00	0	37	104	0	68	15194
2026-01-06 10:06:51.86	18.05	9.38	-49.8	-50.4	9.2	0.00e+00	5503	38	104	0	66	15364
2026-01-06 10:06:52.86	18.00	9.48	-48.8	-49.3	10.1	0.00e+00	5455	39	0	92274688	64	15281
2026-01-06 10:06:53.85	17.94	9.58	-47.9	-48.4	10.6	1.57e-01	7	39	0	209715200	63	14519
2026-01-06 10:06:54.85	17.89	9.68	-47.0	-47.4	11.0	1.57e-01	0	38	0	318767104	61	14529
2026-01-06 10:06:55.84	17.84	9.78	-46.3	-46.7	11.3	1.45e-01	0	38	0	427819008	59	14990
2026-01-06 10:06:56.83	17.78	9.87	-45.4	-45.8	11.7	1.45e-01	0	38	0	536870912	58	14363
2026-01-06 10:06:57.83	17.73	9.98	-44.6	-45.0	11.9	1.45e-01	0	38	0	654311424	56	14688
2026-01-06 10:06:58.82	17.67	10.08	-44.2	-44.5	12.1	4.63e-02	0	38	0	763363328	55	14716
2026-01-06 10:06:59.81	17.62	10.18	-43.8	-44.2	12.1	4.63e-02	0	39	0	880803840	54	14981
2026-01-06 10:07:00.81	17.56	10.28	-43.7	-44.0	12.2	4.63e-02	0	38	0	989855744	54	14718
2026-01-06 10:07:01.81	17.50	10.38	-43.0	-43.3	12.4	1.71e-02	0	39	0	1098907648	53	14341
2026-01-06 10:07:02.81	17.45	10.49	-42.7	-43.0	12.5	1.71e-02	0	39	0	1216348160	52	14682
2026-01-06 10:07:03.80	17.39	10.59	-42.7	-43.0	12.5	9.37e-03	0	39	0	1325400064	52	14754
2026-01-06 10:07:04.79	17.33	10.69	-42.5	-42.8	12.5	9.37e-03	0	39	0	1434451968	52	14398
2026-01-06 10:07:05.78	17.27	10.80	-42.5	-42.8	12.6	9.37e-03	0	39	0	1543503872	52	14359
2026-01-06 10:07:06.77	17.21	10.90	-42.4	-42.7	12.6	9.37e-03	0	39	0	1660944384	52	14228
2026-01-06 10:07:07.77	17.15	11.01	-42.4	-42.7	12.5	6.50e-03	0	39	0	1769996288	51	15068
2026-01-06 10:07:08.77	17.09	11.12	-42.4	-42.7	12.5	6.50e-03	0	39	0	1887436800	51	15072
2026-01-06 10:07:09.77	17.03	11.23	-42.4	-42.7	12.5	6.50e-03	0	39	0	1996488704	51	15026
2026-01-06 10:07:10.76	16.97	11.33	-42.3	-42.7	12.6	5.96e-03	0	39	0	2105540608	51	14995
2026-01-06 10:07:11.76	16.91	11.44	-42.3	-42.6	12.6	5.96e-03	0	39	0	2222981120	51	14934
2026-01-06 10:07:12.75	16.85	11.55	-42.2	-42.6	12.6	5.96e-03	0	39	0	2332033024	51	14815
2026-01-06 10:07:13.75	16.78	11.66	-42.0	-42.4	12.7	5.09e-03	0	39	0	2441084928	51	14445
2026-01-06 10:07:14.74	16.72	11.77	-42.0	-42.3	12.7	5.09e-03	0	39	0	2550136832	51	14349
2026-01-06 10:07:15.74	16.65	11.88	-41.9	-42.2	12.7	5.09e-03	0	39	0	2667577344	51	14235
2026-01-06 10:07:16.73	16.59	11.99	-41.9	-42.2	12.7	4.08e-03	0	39	0	2776629248	50	15030
2026-01-06 10:07:17.72	16.52	12.10	-42.0	-42.3	12.7	4.08e-03	0	39	0	2894069760	50	15198
2026-01-06 10:07:18.71	16.46	12.22	-41.9	-42.2	12.7	3.90e-03	0	40	0	3003121664	50	15094
2026-01-06 10:07:19.70	16.39	12.33	-41.7	-42.0	12.7	3.90e-03	0	40	0	3112173568	50	14772
2026-01-06 10:07:20.69	16.32	12.44	-41.6	-41.9	12.8	3.90e-03	0	40	0	3221225472	50	14575
2026-01-06 10:07:21.69	16.25	12.56	-41.6	-41.9	12.8	3.25e-03	0	40	0	3338665984	50	14451
2026-01-06 10:07:22.68	16.19	12.67	-41.6	-41.9	12.8	3.25e-03	0	40	0	3447717888	50	14494
2026-01-06 10:07:23.67	16.12	12.79	-41.5	-41.9	12.8	3.25e-03	0	40	0	3565158400	50	14466
2026-01-06 10:07:24.67	16.05	12.90	-41.4	-41.7	12.9	2.99e-03	0	40	0	3674210304	50	14241
2026-01-06 10:07:25.67	15.97	13.02	-41.2	-41.6	12.9	2.99e-03	0	40	0	3783262208	49	14799
2026-01-06 10:07:26.66	15.90	13.14	-41.1	-41.4	12.9	2.26e-03	0	40	0	3900702720	49	14514
2026-01-06 10:07:27.65	15.83	13.26	-41.1	-41.4	12.9	2.26e-03	0	40	0	4001366016	49	14587
2026-01-06 10:07:28.64	15.76	13.38	-41.1	-41.5	12.9	2.26e-03	0	40	0	4118806528	49	14649
2026-01-06 10:07:29.64	15.68	13.50	-41.0	-41.4	12.9	2.26e-03	0	40	0	4227858432	49	14455
2026-01-06 10:07:30.63	15.61	13.62	-40.9	-41.2	13.0	1.75e-03	0	40	0	4345298944	49	14251
2026-01-06 10:07:31.63	15.53	13.74	-40.9	-41.3	13.0	1.75e-03	0	40	0	4454350848	49	14277
2026-01-06 10:07:32.63	15.45	13.86	-40.7	-41.0	12.9	1.75e-03	0	40	0	4571791360	48	14762
2026-01-06 10:07:33.62	15.38	13.99	-40.8	-41.1	12.9	1.51e-03	0	40	0	4680843264	48	14783
2026-01-06 10:07:34.61	15.30	14.11	-40.7	-41.1	12.9	1.51e-03	0	40	0	4789895168	48	14791
2026-01-06 10:07:35.60	15.22	14.23	-40.6	-40.9	13.0	1.46e-03	0	40	0	4898947072	48	14492
2026-01-06 10:07:36.60	15.14	14.36	-40.6	-40.9	13.0	1.46e-03	0	40	0	5016387584	48	14483
2026-01-06 10:07:37.60	15.06	14.49	-40.5	-40.8	13.0	1.46e-03	0	40	0	5125439488	48	14404
2026-01-06 10:07:38.60	14.98	14.62	-39.5	-39.9	12.9	1.46e-03	0	40	0	5234491392	46	14450
2026-01-06 10:07:39.59	14.90	14.74	-39.6	-39.9	12.8	1.48e-03	0	40	0	5351931904	46	14537
2026-01-06 10:07:40.58	14.81	14.87	-39.5	-39.8	12.9	1.48e-03	0	40	0	5460983808	46	14375
2026-01-06 10:07:41.58	14.73	15.00	-39.4	-39.8	12.9	2.27e-03	0	40	0	5578424320	46	14298
2026-01-06 10:07:42.57	14.64	15.13	-39.3	-39.6	12.9	2.27e-03	0	40	0	5687476224	45	14913
2026-01-06 10:07:43.57	14.56	15.26	-39.2	-39.6	12.9	1.60e-03	0	41	0	5796528128	45	14794
2026-01-06 10:07:44.57	14.47	15.40	-39.3	-39.6	13.0	1.60e-03	0	40	0	5913968640	45	14897
2026-01-06 10:07:45.57	14.38	15.53	-39.4	-39.7	12.9	1.60e-03	0	41	0	6023020544	45	15077
2026-01-06 10:07:46.56	14.29	15.66	-39.1	-39.5	13.0	1.60e-03	0	40	0	6140461056	45	14658
2026-01-06 10:07:47.57	14.20	15.80	-39.0	-39.4	13.0	1.49e-03	0	40	0	6249512960	45	14467
2026-01-06 10:07:48.55	14.11	15.93	-39.1	-39.4	13.0	1.49e-03	0	41	0	6358564864	45	14490
2026-01-06 10:07:49.55	14.02	16.07	-39.0	-39.4	13.0	1.49e-03	0	41	0	6467616768	45	14478
2026-01-06 10:07:50.54	13.93	16.21	-39.0	-39.3	13.0	1.43e-03	0	41	0	6585057280	45	14426
2026-01-06 10:07:51.53	13.84	16.35	-38.8	-39.2	13.0	1.43e-03	0	41	0	6694109184	44	15008
2026-01-06 10:07:52.52	13.74	16.49	-38.7	-39.0	13.1	1.31e-03	0	41	0	6803161088	44	14755
2026-01-06 10:07:53.51	13.65	16.63	-38.8	-39.1	13.0	1.31e-03	0	41	0	6920601600	44	14867
2026-01-06 10:07:54.49	13.55	16.76	-38.7	-39.1	13.1	1.31e-03	0	41	0	7029653504	44	14795
2026-01-06 10:07:55.47	13.45	16.90	-38.8	-39.2	13.1	7.91e-04	0	41	0	7138705408	44	14978
2026-01-06 10:07:56.47	13.35	17.05	-38.9	-39.2	13.1	7.91e-04	0	41	0	7247757312	44	15078
2026-01-06 10:07:57.46	13.25	17.19	-38.8	-39.1	13.2	7.91e-04	0	41	0	7365197824	44	14820
2026-01-06 10:07:58.46	13.15	17.34	-38.6	-38.9	13.2	7.82e-04	0	41	0	7474249728	44	14570
2026-01-06 10:07:59.45	13.05	17.48	-38.6	-38.9	13.2	7.82e-04	0	41	0	7583301632	44	14469
2026-01-06 10:08:00.43	12.95	17.63	-38.5	-38.8	13.3	5.39e-04	0	41	0	7692353536	44	14379
2026-01-06 10:08:01.43	12.84	17.78	-38.5	-38.8	13.3	5.39e-04	0	41	0	7809794048	44	14327
2026-01-06 10:08:02.41	12.74	17.93	-38.5	-38.8	13.2	5.39e-04	0	41	0	7918845952	44	14301
2026-01-06 10:08:03.40	12.63	18.08	-38.5	-38.8	13.2	3.77e-04	0	41	0	8027897856	44	14407
2026-01-06 10:08:04.38	12.52	18.22	-38.3	-38.6	13.2	3.77e-04	0	41	0	8136949760	43	14840
2026-01-06 10:08:05.37	12.41	18.38	-38.1	-38.4	13.3	3.77e-04	0	41	0	8254390272	43	14557
2026-01-06 10:08:06.36	12.30	18.53	-38.1	-38.4	13.3	3.81e-04	0	41	0	8363442176	43	14453
2026-01-06 10:08:07.36	12.19	18.69	-38.0	-38.3	13.3	3.81e-04	0	41	0	8480882688	43	14390
2026-01-06 10:08:08.36	12.07	18.84	-37.9	-38.2	13.3	3.81e-04	0	41	0	8589934592	43	14168
2026-01-06 10:08:09.34	11.96	19.00	-37.8	-38.1	13.3	1.86e-04	0	41	0	8698986496	42	14925
2026-01-06 10:08:10.34	11.84	19.16	-37.7	-38.0	13.3	1.86e-04	0	41	0	8808038400	42	14760
2026-01-06 10:08:11.33	11.72	19.31	-37.5	-37.9	13.3	1.48e-04	0	41	0	8925478912	42	14464
2026-01-06 10:08:12.32	11.60	19.47	-37.5	-37.8	13.3	1.48e-04	0	41	0	9034530816	42	14425
2026-01-06 10:08:13.31	11.48	19.64	-37.5	-37.8	13.4	1.48e-04	0	41	0	9143582720	42	14317
2026-01-06 10:08:14.30	11.36	19.80	-37.3	-37.6	13.4	1.95e-04	0	41	0	9261023232	41	14823
2026-01-06 10:08:15.30	11.23	19.96	-37.2	-37.5	13.4	1.95e-04	0	41	0	9370075136	41	14758
2026-01-06 10:08:16.29	11.11	20.13	-37.2	-37.5	13.4	1.38e-04	0	41	0	9479127040	41	14713
2026-01-06 10:08:17.28	10.98	20.29	-37.2	-37.5	13.4	1.38e-04	0	41	0	9588178944	41	14673
2026-01-06 10:08:18.28	10.85	20.46	-37.2	-37.5	13.4	1.38e-04	0	41	0	9705619456	41	14742
2026-01-06 10:08:19.27	10.72	20.63	-37.1	-37.4	13.5	5.24e-05	0	41	0	9814671360	41	14591
2026-01-06 10:08:20.26	10.59	20.80	-37.3	-37.6	13.4	5.24e-05	0	41	0	9932111872	41	14778
2026-01-06 10:08:21.26	10.45	20.97	-37.3	-37.6	13.4	5.24e-05	0	41	0	10041163776	41	14893
2026-01-06 10:08:22.24	10.32	21.14	-37.2	-37.5	13.5	9.53e-05	0	42	0	10150215680	41	14730
2026-01-06 10:08:23.23	10.18	21.32	-37.1	-37.4	13.5	9.53e-05	0	41	0	10259267584	41	14494
2026-01-06 10:08:24.23	10.04	21.49	-37.1	-37.4	13.5	9.53e-05	0	41	0	10376708096	41	14443
2026-01-06 10:08:25.23	9.90	21.67	-37.1	-37.4	13.5	8.10e-05	0	41	0	10485760000	41	14471
2026-01-06 10:08:26.21	9.76	21.85	-37.2	-37.4	13.5	8.10e-05	0	41	0	10594811904	41	14580
2026-01-06 10:08:27.20	9.61	22.03	-37.1	-37.4	13.5	8.10e-05	0	41	0	10703863808	41	14501
2026-01-06 10:08:28.20	9.46	22.21	-37.0	-37.2	13.5	5.72e-05	0	42	0	10821304320	41	14274
2026-01-06 10:08:29.20	9.31	22.39	-36.8	-37.1	13.5	5.72e-05	0	41	0	10930356224	40	14885
2026-01-06 10:08:30.19	9.16	22.58	-36.7	-37.0	13.5	5.72e-05	0	41	0	11039408128	40	14720
2026-01-06 10:08:31.19	9.01	22.76	-36.7	-37.0	13.4	4.76e-05	0	41	0	11156848640	40	14734
2026-01-06 10:08:32.18	8.85	22.95	-36.6	-36.8	13.5	4.76e-05	0	42	0	11265900544	40	14433
2026-01-06 10:08:33.18	8.69	23.14	-36.4	-36.7	13.4	9.53e-05	0	42	0	11383341056	39	14983
2026-01-06 10:08:34.17	8.53	23.33	-36.3	-36.6	13.4	9.53e-05	0	42	0	11492392960	39	14934
2026-01-06 10:08:35.16	8.37	23.52	-36.2	-36.5	13.5	5.24e-05	0	42	0	11601444864	39	14674
2026-01-06 10:08:36.16	8.21	23.71	-36.1	-36.4	13.6	5.24e-05	0	42	0	11718885376	39	14560
2026-01-06 10:08:37.15	8.04	23.91	-36.1	-36.4	13.6	5.24e-05	0	41	0	11827937280	39	14580
2026-01-06 10:08:38.14	7.87	24.10	-36.0	-36.3	13.6	3.33e-05	0	42	0	11936989184	39	14364
2026-01-06 10:08:39.14	7.70	24.30	-36.0	-36.3	13.6	3.33e-05	0	42	0	12046041088	39	14348
2026-01-06 10:08:40.13	7.53	24.50	-36.1	-36.3	13.6	3.33e-05	0	42	0	12163481600	39	14437
2026-01-06 10:08:41.13	7.35	24.70	-35.7	-36.0	13.6	2.86e-05	0	41	0	12272533504	38	14703
2026-01-06 10:08:42.12	7.17	24.90	-35.7	-35.9	13.7	2.86e-05	0	42	0	12389974016	38	14577
2026-01-06 10:08:43.11	6.99	25.10	-35.7	-36.0	13.7	1.90e-05	0	41	0	12499025920	38	14688
2026-01-06 10:08:44.11	6.80	25.31	-35.6	-35.9	13.7	1.90e-05	0	42	0	12608077824	38	14578
2026-01-06 10:08:45.10	6.62	25.52	-35.5	-35.7	13.7	1.90e-05	0	42	0	12717129728	38	14260
2026-01-06 10:08:46.09	6.43	25.72	-35.4	-35.7	13.7	1.43e-05	0	42	0	12834570240	38	14173
2026-01-06 10:08:47.09	6.23	25.94	-35.4	-35.7	13.7	1.43e-05	0	42	0	12943622144	38	14119
2026-01-06 10:08:48.08	6.04	26.15	-35.2	-35.5	13.7	1.43e-05	0	42	0	13052674048	37	14667
2026-01-06 10:08:49.07	5.84	26.36	-35.1	-35.4	13.7	4.70e-06	0	42	0	13170114560	37	14483
2026-01-06 10:08:50.06	5.64	26.57	-35.2	-35.4	13.7	4.70e-06	0	42	0	13279166464	37	14566
2026-01-06 10:08:51.05	5.43	26.79	-35.1	-35.4	13.8	0.00e+00	0	42	0	13396606976	37	14468
2026-01-06 10:08:52.05	5.22	27.01	-34.9	-35.2	13.8	0.00e+00	0	42	0	13497270272	37	14140
2026-01-06 10:08:53.04	5.01	27.23	-35.0	-35.3	13.8	0.00e+00	0	42	0	13614710784	37	14354
2026-01-06 10:08:54.03	4.80	27.45	-35.0	-35.3	13.8	0.00e+00	0	42	0	13723762688	37	14288
2026-01-06 10:08:55.03	4.58	27.68	-34.9	-35.2	13.8	0.00e+00	0	42	0	13841203200	37	14185
2026-01-06 10:08:56.03	4.36	27.91	-34.7	-35.0	13.7	0.00e+00	0	42	0	13950255104	36	14632
2026-01-06 10:08:57.03	4.13	28.13	-34.5	-34.7	13.8	4.70e-06	0	42	0	14059307008	36	14204
2026-01-06 10:08:58.02	3.90	28.36	-34.5	-34.7	13.8	4.70e-06	0	42	0	14176747520	36	14230
2026-01-06 10:08:59.01	3.67	28.59	-31.8	-32.1	13.7	4.70e-06	0	42	0	14285799424	30	14792
2026-01-06 10:09:00.01	3.44	28.83	-31.8	-32.1	13.7	1.43e-05	0	42	0	14403239936	30	14777
2026-01-06 10:09:01.01	3.19	29.06	-31.5	-31.8	13.8	1.43e-05	0	42	0	14512291840	30	14314
2026-01-06 10:09:02.01	2.95	29.30	-31.4	-31.7	13.8	1.43e-05	0	42	0	14621343744	30	14166
2026-01-06 10:09:03.00	2.70	29.54	-31.3	-31.5	13.8	4.70e-06	0	42	0	14730395648	29	14753
2026-01-06 10:09:03.99	2.45	29.78	-31.2	-31.5	13.8	4.70e-06	0	42	0	14847836160	29	14696
2026-01-06 10:09:04.98	2.20	30.02	-31.3	-31.5	13.8	4.70e-06	0	42	0	14956888064	29	14707
2026-01-06 10:09:05.97	1.94	30.26	-31.1	-31.4	13.8	0.00e+00	0	42	0	15065939968	29	14547
2026-01-06 10:09:06.96	1.67	30.51	-31.1	-31.3	13.8	0.00e+00	0	42	0	15183380480	29	14391
2026-01-06 10:09:07.96	1.40	30.76	-31.0	-31.3	13.8	0.00e+00	0	42	0	15292432384	29	14350
2026-01-06 10:09:08.95	1.13	31.01	-31.1	-31.3	13.8	0.00e+00	0	42	0	15409872896	29	14408
2026-01-06 10:09:09.95	0.85	31.26	-30.9	-31.2	13.9	0.00e+00	0	42	0	15510536192	29	14140
2026-01-06 10:09:10.94	0.57	31.51	-30.8	-31.1	13.8	0.00e+00	0	42	0	15627976704	28	14826
2026-01-06 10:09:11.94	0.28	31.77	-30.9	-31.2	13.8	0.00e+00	0	42	0	15737028608	28	14983
2026-01-06 10:09:12.93	359.99	32.02	-30.9	-31.1	13.8	0.00e+00	0	42	0	15854469120	28	14909
2026-01-06 10:09:13.92	359.69	32.28	-30.7	-30.9	13.8	0.00e+00	0	42	0	15963521024	28	14579
2026-01-06 10:09:14.92	359.39	32.54	-30.6	-30.9	13.9	0.00e+00	0	42	0	16072572928	28	14474
2026-01-06 10:09:15.91	359.08	32.80	-30.7	-31.0	13.8	0.00e+00	0	42	0	16190013440	28	14651
2026-01-06 10:09:16.90	358.77	33.07	-30.6	-30.9	13.8	0.00e+00	0	42	0	16299065344	28	14489
2026-01-06 10:09:17.89	358.45	33.33	-30.5	-30.7	13.8	0.00e+00	0	42	0	16408117248	28	14221
2026-01-06 10:09:18.88	358.12	33.60	-30.3	-30.5	13.8	2.86e-05	0	42	0	16517169152	27	14769
2026-01-06 10:09:19.87	357.79	33.87	-30.3	-30.6	13.7	2.86e-05	0	42	0	16634609664	27	14818
2026-01-06 10:09:20.86	357.46	34.14	-30.2	-30.5	13.8	9.50e-06	0	42	0	16743661568	27	14663
2026-01-06 10:09:21.85	357.12	34.41	-30.3	-30.5	13.8	9.50e-06	0	42	0	16861102080	27	14733
2026-01-06 10:09:22.85	356.77	34.68	-30.2	-30.5	13.8	9.50e-06	0	42	0	16961765376	27	14681
2026-01-06 10:09:23.84	356.41	34.96	-30.2	-30.4	13.8	9.50e-06	0	42	0	17079205888	27	14595
2026-01-06 10:09:24.84	356.05	35.24	-30.3	-30.5	13.8	9.50e-06	0	42	0	17188257792	27	14719
2026-01-06 10:09:25.83	355.68	35.51	-60.3	-63.5	6.2	9.50e-06	0	41	104	17246978048	86	21984
2026-01-06 10:09:26.83	355.30	35.80	-60.3	-63.5	6.2	9.50e-06	0	41	104	17246978048	86	22063
2026-01-06 10:09:27.83	354.92	36.08	-60.3	-63.6	6.2	9.50e-06	0	41	104	17246978048	86	22130
2026-01-06 10:09:28.82	354.53	36.36	-60.3	-63.6	6.2	9.50e-06	0	41	104	17246978048	86	22117
2026-01-06 10:09:29.81	354.13	36.65	-60.3	-63.6	6.2	9.50e-06	0	41	104	17246978048	86	22229
2026-01-06 10:09:30.80	353.73	36.93	-60.4	-63.7	6.2	0.00e+00	0	41	104	17246978048	86	22366
2026-01-06 10:09:31.79	353.32	37.22	-60.3	-63.6	6.2	0.00e+00	0	41	104	17246978048	86	22204
2026-01-06 10:09:32.79	352.90	37.51	-60.4	-63.6	6.2	0.00e+00	0	41	104	17246978048	86	22274
2026-01-06 10:09:33.78	352.47	37.80	-60.4	-63.6	6.2	0.00e+00	0	41	104	17246978048	86	22268
2026-01-06 10:09:34.77	352.04	38.09	-60.4	-63.6	6.2	0.00e+00	0	41	104	17246978048	86	22337
2026-01-06 10:09:35.76	351.59	38.38	-60.4	-63.6	6.2	0.00e+00	0	41	104	17246978048	86	22300
2026-01-06 10:09:36.75	351.14	38.67	-60.4	-63.6	6.2	0.00e+00	0	41	104	17246978048	86	22321
2026-01-06 10:09:37.74	350.68	38.96	-60.4	-63.6	6.2	0.00e+00	0	41	104	17246978048	86	22270
2026-01-06 10:09:38.74	350.21	39.26	-60.4	-63.7	6.2	0.00e+00	0	41	104	17246978048	86	22369
2026-01-06 10:09:39.73	349.73	39.55	-60.4	-63.6	6.2	0.00e+00	0	41	104	17246978048	86	22323
2026-01-06 10:09:40.73	349.24	39.85	-60.4	-63.7	6.2	0.00e+00	0	41	104	17246978048	86	22444
2026-01-06 10:09:41.71	348.75	40.14	-60.4	-63.7	6.2	0.00e+00	0	41	104	17246978048	86	22411
2026-01-06 10:09:42.71	348.24	40.44	-60.4	-63.7	6.2	0.00e+00	0	41	104	17246978048	86	22500
2026-01-06 10:09:43.70	347.72	40.74	-60.4	-63.7	6.2	0.00e+00	0	41	104	17246978048	86	22380
2026-01-06 10:09:44.69	347.19	41.03	-60.4	-63.7	6.2	0.00e+00	0	41	104	17246978048	86	22484
2026-01-06 10:09:45.69	346.65	41.33	-60.4	-63.7	6.2	0.00e+00	0	41	104	17246978048	86	22513
2026-01-06 10:09:46.68	346.11	41.63	-60.5	-63.7	6.2	0.00e+00	0	41	104	17246978048	86	22548
2026-01-06 10:09:47.67	345.55	41.92	-60.4	-63.7	6.2	0.00e+00	0	40	104	17246978048	86	22447
2026-01-06 10:09:48.66	344.98	42.22	-60.5	-63.7	6.2	0.00e+00	0	41	104	17246978048	86	22534
2026-01-06 10:09:49.65	344.40	42.52	-60.5	-63.7	6.2	0.00e+00	0	41	104	17246978048	86	22504
2026-01-06 10:09:50.63	343.82	42.81	-60.5	-63.7	6.2	0.00e+00	0	40	104	17246978048	86	22598
2026-01-06 10:09:51.62	343.22	43.10	-60.5	-63.7	6.2	0.00e+00	0	40	104	17246978048	86	22523
2026-01-06 10:09:52.61	342.60	43.39	-60.5	-63.7	6.2	0.00e+00	0	41	104	17246978048	86	22578
2026-01-06 10:09:53.60	341.98	43.69	-60.5	-63.7	6.2	0.00e+00	0	40	104	17246978048	86	22566
2026-01-06 10:09:54.60	341.33	43.98	-60.5	-63.8	6.2	0.00e+00	0	41	104	17246978048	86	22676
2026-01-06 10:09:55.58	340.69	44.27	-60.5	-63.7	6.2	0.00e+00	0	40	104	17246978048	86	22589
2026-01-06 10:09:56.58	340.02	44.56	-60.5	-63.7	6.2	0.00e+00	0	40	104	17246978048	86	22608
2026-01-06 10:09:57.58	339.34	44.84	-60.5	-63.8	6.2	0.00e+00	0	40	104	17246978048	86	22681
2026-01-06 10:09:58.57	338.65	45.13	-60.6	-63.8	6.2	0.00e+00	0	41	104	17246978048	86	22751
2026-01-06 10:09:59.56	337.95	45.41	-60.5	-63.8	6.2	0.00e+00	0	40	104	17246978048	86	22659
2026-01-06 10:10:00.55	337.24	45.69	-60.5	-63.8	6.2	0.00e+00	0	40	104	17246978048	86	22668
2026-01-06 10:10:01.55	336.51	45.96	-60.6	-63.8	6.2	0.00e+00	0	40	104	17246978048	86	22756
2026-01-06 10:10:02.54	335.77	46.24	-60.6	-63.8	6.2	0.00e+00	0	40	104	17246978048	86	22835
2026-01-06 10:10:03.54	335.01	46.51	-60.6	-63.8	6.2	0.00e+00	0	40	104	17246978048	86	22664
2026-01-06 10:10:04.52	334.25	46.77	-60.6	-63.8	6.2	0.00e+00	0	40	104	17246978048	86	22828
2026-01-06 10:10:05.50	333.48	47.03	-60.6	-63.8	6.2	0.00e+00	0	40	104	17246978048	86	22855
2026-01-06 10:10:06.51	332.67	47.30	-60.6	-63.9	6.2	0.00e+00	0	40	104	17246978048	86	22994
2026-01-06 10:10:07.49	331.87	47.55	-60.6	-63.8	6.2	0.00e+00	0	40	104	17246978048	87	21546
2026-01-06 10:10:08.48	331.05	47.80	-60.6	-63.8	6.2	0.00e+00	0	40	104	17246978048	87	21578
2026-01-06 10:10:09.47	330.22	48.04	-60.6	-63.8	6.2	0.00e+00	0	40	104	17246978048	87	21572
2026-01-06 10:10:10.46	329.37	48.28	-60.6	-63.8	6.2	0.00e+00	0	40	104	17246978048	87	21575
2026-01-06 10:10:11.45	328.51	48.52	-60.6	-63.8	6.2	0.00e+00	0	40	104	17246978048	87	21571
2026-01-06 10:10:12.44	327.63	48.75	-60.6	-63.8	6.2	0.00e+00	0	40	104	17246978048	87	21509
2026-01-06 10:10:13.44	326.73	48.97	-60.6	-63.8	6.2	0.00e+00	0	40	104	17246978048	87	21563
2026-01-06 10:10:14.43	325.83	49.19	-60.6	-63.9	6.2	0.00e+00	0	40	104	17246978048	87	21696
2026-01-06 10:10:15.42	324.92	49.40	-60.6	-63.8	6.2	0.00e+00	0	40	104	17246978048	87	21582
2026-01-06 10:10:16.41	323.99	49.61	-60.6	-63.8	6.2	0.00e+00	0	40	104	17246978048	87	21579
2026-01-06 10:10:17.41	323.04	49.80	-60.6	-63.9	6.2	0.00e+00	0	40	104	17246978048	87	21689
2026-01-06 10:10:18.41	322.08	50.00	-60.6	-63.8	6.2	0.00e+00	0	40	104	17246978048	87	21600
2026-01-06 10:10:19.40	321.11	50.18	-60.6	-63.9	6.2	0.00e+00	0	40	104	17246978048	87	21661
2026-01-06 10:10:20.40	320.13	50.35	-60.6	-63.8	6.2	0.00e+00	0	40	104	17246978048	87	21491
2026-01-06 10:10:21.40	319.13	50.52	-60.6	-63.9	6.2	0.00e+00	0	40	104	17246978048	87	21629
2026-01-06 10:10:22.39	318.13	50.68	-60.6	-63.9	6.2	0.00e+00	0	40	104	17246978048	87	21710
2026-01-06 10:10:23.38	317.12	50.83	-60.6	-63.8	6.2	0.00e+00	0	40	104	17246978048	87	21595
2026-01-06 10:10:24.36	316.11	50.97	-60.6	-63.8	6.2	0.00e+00	0	40	104	17246978048	87	21569
2026-01-06 10:10:25.35	315.08	51.10	-60.6	-63.9	6.2	0.00e+00	0	40	104	17246978048	87	21665
2026-01-06 10:10:26.34	314.04	51.22	-60.7	-63.9	6.2	0.00e+00	0	40	104	17246978048	87	21723
2026-01-06 10:10:27.34	312.98	51.34	-60.6	-63.9	6.2	0.00e+00	0	40	104	17246978048	87	21720
2026-01-06 10:10:28.33	311.93	51.44	-60.6	-63.8	6.2	0.00e+00	0	40	104	17246978048	87	21591
2026-01-06 10:10:29.32	310.87	51.54	-60.7	-63.9	6.2	0.00e+00	0	40	104	17246978048	87	21771
2026-01-06 10:10:30.31	309.80	51.62	-60.7	-63.9	6.2	0.00e+00	0	40	104	17246978048	87	21849
2026-01-06 10:10:31.30	308.72	51.69	-60.7	-63.9	6.2	0.00e+00	0	40	104	17246978048	87	21747
2026-01-06 10:10:32.30	307.63	51.76	-60.6	-63.9	6.2	0.00e+00	0	40	104	17246978048	87	21690
2026-01-06 10:10:33.29	306.55	51.81	-60.7	-64.0	6.2	0.00e+00	0	40	104	17246978048	87	21864
2026-01-06 10:10:34.28	305.46	51.85	-60.7	-63.9	6.2	0.00e+00	0	40	104	17246978048	87	21791
2026-01-06 10:10:35.27	304.37	51.88	-60.7	-63.9	6.2	0.00e+00	0	40	104	17246978048	87	21819
2026-01-06 10:10:36.26	303.28	51.91	-60.7	-63.9	6.2	0.00e+00	0	40	104	17246978048	87	21794
2026-01-06 10:10:37.25	302.19	51.92	-60.7	-63.9	6.2	0.00e+00	0	40	104	17246978048	87	21815
2026-01-06 10:10:38.24	301.09	51.92	-60.7	-63.9	6.2	0.00e+00	0	40	104	17246978048	87	21840
2026-01-06 10:10:39.24	299.99	51.91	-60.7	-63.9	6.2	0.00e+00	0	40	104	17246978048	87	21819
2026-01-06 10:10:40.23	298.89	51.89	-60.6	-63.9	6.2	0.00e+00	0	40	104	17246978048	87	21732
2026-01-06 10:10:41.22	297.80	51.85	-60.7	-63.9	6.2	0.00e+00	0	40	104	17246978048	87	21840
2026-01-06 10:10:42.21	296.72	51.81	-60.7	-64.0	6.2	0.00e+00	0	40	104	17246978048	87	21878
2026-01-06 10:10:43.21	295.62	51.76	-60.7	-63.9	6.2	0.00e+00	0	40	104	17246978048	87	21744
2026-01-06 10:10:44.20	294.54	51.69	-60.6	-63.9	6.2	0.00e+00	0	40	104	17246978048	87	21657
2026-01-06 10:10:45.20	293.45	51.62	-60.7	-63.9	6.2	0.00e+00	0	40	104	17246978048	87	21735
2026-01-06 10:10:46.18	292.40	51.54	-60.7	-63.9	6.2	0.00e+00	0	40	104	17246978048	87	21814
2026-01-06 10:10:47.18	291.32	51.44	-60.7	-63.9	6.2	0.00e+00	0	40	104	17246978048	87	21767
2026-01-06 10:10:48.17	290.27	51.34	-60.6	-63.9	6.2	0.00e+00	0	40	104	17246978048	87	21614
2026-01-06 10:10:49.17	289.21	51.23	-60.6	-63.9	6.2	0.00e+00	0	40	104	17246978048	87	21633
2026-01-06 10:10:50.15	288.18	51.10	-60.6	-63.9	6.2	0.00e+00	0	40	104	17246978048	87	21675
2026-01-06 10:10:51.15	287.14	50.97	-60.6	-63.8	6.2	0.00e+00	0	40	104	17246978048	87	21572
2026-01-06 10:10:52.14	286.12	50.83	-60.6	-63.8	6.2	0.00e+00	0	40	104	17246978048	87	21512
2026-01-06 10:10:53.13	285.11	50.68	-60.6	-63.8	6.2	0.00e+00	0	40	104	17246978048	87	21586
2026-01-06 10:10:54.12	284.11	50.52	-60.6	-63.9	6.2	0.00e+00	0	40	104	17246978048	87	21626
2026-01-06 10:10:55.11	283.12	50.36	-60.6	-63.8	6.2	0.00e+00	0	40	104	17246978048	87	21592
2026-01-06 10:10:56.10	282.14	50.18	-60.6	-63.8	6.2	0.00e+00	0	40	104	17246978048	87	21544
2026-01-06 10:10:57.08	281.18	50.00	-60.6	-63.8	6.2	0.00e+00	0	40	104	17246978048	87	21550
2026-01-06 10:10:58.08	280.22	49.81	-60.6	-63.8	6.2	0.00e+00	0	40	104	17246978048	87	21497
2026-01-06 10:10:59.07	279.28	49.61	-60.6	-63.8	6.2	0.00e+00	0	40	104	17246978048	87	21520
2026-01-06 10:11:00.06	278.35	49.41	-60.5	-63.8	6.2	0.00e+00	0	40	104	17246978048	87	21445
2026-01-06 10:11:01.04	277.44	49.20	-60.5	-63.8	6.2	0.00e+00	0	40	104	17246978048	87	21425
2026-01-06 10:11:02.03	276.54	48.98	-60.5	-63.8	6.2	0.00e+00	0	40	104	17246978048	87	21522
2026-01-06 10:11:03.01	275.66	48.76	-60.5	-63.8	6.2	0.00e+00	0	40	104	17246978048	87	21475
2026-01-06 10:11:04.00	274.78	48.53	-60.5	-63.8	6.2	0.00e+00	0	40	104	17246978048	87	21384
2026-01-06 10:11:05.00	273.91	48.29	-60.5	-63.8	6.2	0.00e+00	0	40	104	17246978048	87	21405
2026-01-06 10:11:05.99	273.06	48.05	-60.5	-63.8	6.2	0.00e+00	0	40	104	17246978048	87	21468
2026-01-06 10:11:06.98	272.22	47.81	-60.5	-63.7	6.2	0.00e+00	0	40	104	17246978048	87	21342
2026-01-06 10:11:07.97	271.40	47.56	-60.5	-63.8	6.2	0.00e+00	0	40	104	17246978048	87	21382
2026-01-06 10:11:08.96	270.59	47.30	-60.5	-63.8	6.2	0.00e+00	0	40	104	17246978048	87	21366
2026-01-06 10:11:09.95	269.79	47.04	-60.5	-63.8	6.2	0.00e+00	0	40	104	17246978048	87	21403
2026-01-06 10:11:10.93	269.02	46.78	-60.5	-63.7	6.2	0.00e+00	0	40	104	17246978048	87	21288
2026-01-06 10:11:11.92	268.25	46.52	-60.5	-63.7	6.2	0.00e+00	0	40	104	17246978048	87	21185
2026-01-06 10:11:12.90	267.50	46.25	-60.5	-63.7	6.2	0.00e+00	0	40	104	17246978048	87	21188
2026-01-06 10:11:13.90	266.75	45.97	-60.5	-63.7	6.2	0.00e+00	0	40	104	17246978048	87	21313
2026-01-06 10:11:14.90	266.02	45.69	-60.5	-63.7	6.2	0.00e+00	0	40	104	17246978048	87	21243
2026-01-06 10:11:15.88	265.31	45.42	-60.4	-63.7	6.2	0.00e+00	0	40	104	17246978048	87	21183
2026-01-06 10:11:16.88	264.60	45.13	-60.5	-63.7	6.2	0.00e+00	0	40	104	17246978048	87	21191
2026-01-06 10:11:17.87	263.91	44.85	-60.4	-63.7	6.2	0.00e+00	0	40	104	17246978048	87	21183
2026-01-06 10:11:18.86	263.24	44.56	-60.4	-63.7	6.2	0.00e+00	0	40	104	17246978048	87	21214
2026-01-06 10:11:19.85	262.57	44.28	-60.4	-63.7	6.2	0.00e+00	0	40	104	17246978048	87	21172
2026-01-06 10:11:20.84	261.92	43.99	-60.4	-63.7	6.2	0.00e+00	0	40	104	17246978048	87	21189
2026-01-06 10:11:21.83	261.28	43.69	-60.4	-63.7	6.2	0.00e+00	0	40	104	17246978048	87	21117
2026-01-06 10:11:22.83	260.65	43.40	-60.4	-63.7	6.2	0.00e+00	0	40	104	17246978048	87	21135
2026-01-06 10:11:23.82	260.03	43.11	-60.4	-63.6	6.2	0.00e+00	0	40	104	17246978048	87	20983
2026-01-06 10:11:24.82	259.42	42.81	-60.4	-63.6	6.2	0.00e+00	0	40	104	17246978048	87	21091
2026-01-06 10:11:25.81	258.83	42.51	-60.4	-63.7	6.2	0.00e+00	0	40	104	17246978048	87	21117
2026-01-06 10:11:26.80	258.25	42.22	-60.4	-63.7	6.2	0.00e+00	0	40	104	17246978048	87	21152
2026-01-06 10:11:27.78	257.69	41.92	-60.4	-63.6	6.2	0.00e+00	0	39	104	17246978048	87	21052
2026-01-06 10:11:28.78	257.12	41.62	-60.4	-63.7	6.2	0.00e+00	0	40	104	17246978048	87	21126
2026-01-06 10:11:29.77	256.57	41.33	-60.4	-63.6	6.2	0.00e+00	0	40	104	17246978048	87	21050
2026-01-06 10:11:30.77	256.03	41.03	-60.4	-63.7	6.2	0.00e+00	0	40	104	17246978048	87	21124
2026-01-06 10:11:31.76	255.50	40.73	-60.4	-63.6	6.2	0.00e+00	0	40	104	17246978048	87	21055
2026-01-06 10:11:32.75	254.98	40.43	-60.4	-63.6	6.2	0.00e+00	0	39	104	17246978048	87	20990
2026-01-06 10:11:33.74	254.48	40.14	-60.4	-63.6	6.2	0.00e+00	0	40	104	17246978048	87	20979
2026-01-06 10:11:34.73	253.98	39.84	-60.4	-63.6	6.2	0.00e+00	0	40	104	17246978048	87	20926
2026-01-06 10:11:35.73	253.48	39.54	-60.3	-63.6	6.2	0.00e+00	0	40	104	17246978048	87	20974
2026-01-06 10:11:36.71	253.01	39.25	-60.3	-63.6	6.2	0.00e+00	0	39	104	17246978048	87	20889
2026-01-06 10:11:37.71	252.54	38.95	-60.4	-63.6	6.2	0.00e+00	0	40	104	17246978048	87	20943
2026-01-06 10:11:38.70	252.07	38.66	-60.4	-63.6	6.2	0.00e+00	0	40	104	17246978048	87	21016
2026-01-06 10:11:39.70	251.62	38.36	-60.3	-63.6	6.2	0.00e+00	0	40	104	17246978048	87	20914
2026-01-06 10:11:40.69	251.17	38.07	-60.3	-63.6	6.2	0.00e+00	0	40	104	17246978048	87	20915
2026-01-06 10:11:41.68	250.74	37.78	-60.3	-63.6	6.2	0.00e+00	0	39	104	17246978048	87	20929
2026-01-06 10:11:42.67	250.31	37.49	-60.3	-63.6	6.2	0.00e+00	0	40	104	17246978048	87	20888
2026-01-06 10:11:43.66	249.89	37.20	-60.3	-63.5	6.2	0.00e+00	0	40	104	17246978048	87	20844
2026-01-06 10:11:44.65	249.48	36.91	-60.3	-63.5	6.2	0.00e+00	0	39	104	17246978048	87	20824
2026-01-06 10:11:45.64	249.07	36.63	-60.3	-63.6	6.2	0.00e+00	0	39	104	17246978048	87	20915
2026-01-06 10:11:46.63	248.68	36.34	-60.3	-63.5	6.2	0.00e+00	0	40	104	17246978048	87	20827
2026-01-06 10:11:47.61	248.29	36.06	-60.3	-63.5	6.2	0.00e+00	0	40	104	17246978048	87	20740
2026-01-06 10:11:48.60	247.91	35.78	-60.3	-63.5	6.2	0.00e+00	0	40	104	17246978048	87	20748
2026-01-06 10:11:49.60	247.53	35.50	-60.3	-63.5	6.2	0.00e+00	0	40	104	17246978048	87	20808
2026-01-06 10:11:50.59	247.16	35.22	-60.3	-63.5	6.2	0.00e+00	0	40	104	17246978048	87	20827
2026-01-06 10:11:51.58	246.80	34.94	-60.2	-63.5	6.2	0.00e+00	0	39	104	17246978048	87	20701
2026-01-06 10:11:52.57	246.44	34.66	-60.2	-63.5	6.2	0.00e+00	0	40	104	17246978048	87	20656
2026-01-06 10:11:53.56	246.09	34.39	-60.3	-63.5	6.2	0.00e+00	0	40	104	17246978048	87	20793
2026-01-06 10:11:54.56	245.75	34.12	-60.3	-63.5	6.2	0.00e+00	0	40	104	17246978048	87	20738
2026-01-06 10:11:55.55	245.41	33.84	-60.2	-63.5	6.2	0.00e+00	0	40	104	17246978048	87	20697
2026-01-06 10:11:56.54	245.08	33.58	-60.2	-63.4	6.2	0.00e+00	0	40	104	17246978048	87	20616
2026-01-06 10:11:57.54	244.75	33.30	-60.2	-63.5	6.2	0.00e+00	0	39	104	17246978048	87	20699
2026-01-06 10:11:58.53	244.43	33.04	-60.2	-63.5	6.2	0.00e+00	0	40	104	17246978048	87	20666
2026-01-06 10:11:59.51	244.12	32.78	-60.2	-63.5	6.2	0.00e+00	0	40	104	17246978048	87	20639
2026-01-06 10:12:00.50	243.81	32.52	-60.2	-63.4	6.2	0.00e+00	0	40	104	17246978048	87	20609
2026-01-06 10:12:01.49	243.51	32.26	-60.2	-63.4	6.2	0.00e+00	0	40	104	17246978048	87	20626
2026-01-06 10:12:02.48	243.21	32.00	-60.2	-63.5	6.2	0.00e+00	0	40	104	17246978048	87	20663
2026-01-06 10:12:03.47	242.92	31.74	-60.2	-63.4	6.2	0.00e+00	0	40	104	17246978048	87	20625
2026-01-06 10:12:04.46	242.63	31.49	-60.2	-63.4	6.2	0.00e+00	0	39	104	17246978048	87	20519
2026-01-06 10:12:05.45	242.35	31.23	-60.2	-63.4	6.2	0.00e+00	0	40	104	17246978048	87	20589
2026-01-06 10:12:06.44	242.07	30.98	-60.2	-63.4	6.2	0.00e+00	0	40	104	17246978048	87	20533
2026-01-06 10:12:07.44	241.79	30.73	-60.2	-63.4	6.2	0.00e+00	0	40	104	17246978048	87	20544
2026-01-06 10:12:08.43	241.52	30.48	-60.2	-63.4	6.2	0.00e+00	0	40	104	17246978048	87	20550
2026-01-06 10:12:09.41	241.26	30.24	-60.2	-63.4	6.2	0.00e+00	0	39	104	17246978048	87	20523
2026-01-06 10:12:10.40	241.00	29.99	-60.2	-63.4	6.2	0.00e+00	0	39	104	17246978048	87	20538
2026-01-06 10:12:11.40	240.74	29.75	-60.2	-63.4	6.2	0.00e+00	0	40	104	17246978048	87	20466
2026-01-06 10:12:12.39	240.49	29.51	-60.1	-63.4	6.2	0.00e+00	0	40	104	17246978048	87	20497
2026-01-06 10:12:13.38	240.24	29.27	-60.1	-63.4	6.2	0.00e+00	0	40	104	17246978048	87	20435
2026-01-06 10:12:14.37	240.00	29.03	-60.1	-63.4	6.2	0.00e+00	0	40	104	17246978048	87	20514
2026-01-06 10:12:15.36	239.76	28.80	-60.1	-63.3	6.2	0.00e+00	0	40	104	17246978048	87	20394
2026-01-06 10:12:16.35	239.52	28.56	-60.1	-63.3	6.2	0.00e+00	0	40	104	17246978048	87	20388
2026-01-06 10:12:17.35	239.29	28.33	-60.1	-63.3	6.2	0.00e+00	0	40	104	17246978048	87	20381
2026-01-06 10:12:18.34	239.06	28.10	-60.1	-63.3	6.2	0.00e+00	0	40	104	17246978048	87	20390
2026-01-06 10:12:19.33	238.84	27.87	-60.1	-63.3	6.2	0.00e+00	0	40	104	17246978048	87	20351
2026-01-06 10:12:20.31	238.62	27.65	-60.1	-63.3	6.2	0.00e+00	0	39	104	17246978048	87	20346
2026-01-06 10:12:21.31	238.40	27.42	-60.1	-63.3	6.2	0.00e+00	0	40	104	17246978048	87	20334
2026-01-06 10:12:22.29	238.18	27.20	-60.1	-63.3	6.2	0.00e+00	0	40	104	17246978048	87	20334
2026-01-06 10:12:23.28	237.97	26.98	-60.1	-63.3	6.2	0.00e+00	0	39	104	17246978048	87	20303
2026-01-06 10:12:24.26	237.76	26.77	-60.0	-63.3	6.2	0.00e+00	0	40	104	17246978048	87	20240
2026-01-06 10:12:25.26	237.56	26.55	-60.1	-63.3	6.2	0.00e+00	0	40	104	17246978048	87	20231
2026-01-06 10:12:26.26	237.35	26.33	-60.1	-63.3	6.2	0.00e+00	0	39	104	17246978048	87	20266
2026-01-06 10:12:27.25	237.15	26.11	-60.0	-63.3	6.2	0.00e+00	0	39	104	17246978048	87	20182
2026-01-06 10:12:28.24	236.96	25.90	-60.0	-63.2	6.2	0.00e+00	0	39	104	17246978048	87	20132
2026-01-06 10:12:29.24	236.76	25.69	-60.0	-63.3	6.2	0.00e+00	0	40	104	17246978048	87	20262
2026-01-06 10:12:30.23	236.57	25.48	-60.0	-63.3	6.2	0.00e+00	0	39	104	17246978048	87	20304
2026-01-06 10:12:31.23	236.38	25.27	-60.0	-63.3	6.2	0.00e+00	0	39	104	17246978048	87	20219
2026-01-06 10:12:32.21	236.20	25.07	-60.0	-63.3	6.2	0.00e+00	0	39	104	17246978048	87	20203
2026-01-06 10:12:33.21	236.02	24.86	-60.0	-63.2	6.2	0.00e+00	0	40	104	17246978048	87	20151
2026-01-06 10:12:34.21	235.83	24.66	-60.0	-63.2	6.2	0.00e+00	0	39	104	17246978048	87	20114
2026-01-06 10:12:35.19	235.66	24.46	-60.0	-63.2	6.2	0.00e+00	0	40	104	17246978048	87	20163
2026-01-06 10:12:36.18	235.48	24.26	-60.0	-63.2	6.2	0.00e+00	0	40	104	17246978048	87	20076
2026-01-06 10:12:37.17	235.31	24.06	-60.0	-63.2	6.2	0.00e+00	0	39	104	17246978048	87	20079
2026-01-06 10:12:38.17	235.14	23.86	-60.0	-63.2	6.2	0.00e+00	0	40	104	17246978048	87	20084
2026-01-06 10:12:39.16	234.97	23.67	-60.0	-63.2	6.2	0.00e+00	0	39	104	17246978048	87	20097
2026-01-06 10:12:40.15	234.81	23.48	-60.0	-63.2	6.2	0.00e+00	0	40	104	17246978048	87	20028
2026-01-06 10:12:41.14	234.65	23.29	-59.9	-63.2	6.2	0.00e+00	0	39	104	17246978048	87	20031
2026-01-06 10:12:42.14	234.49	23.09	-59.9	-63.2	6.2	0.00e+00	0	39	104	17246978048	87	19975
2026-01-06 10:12:43.13	234.33	22.90	-59.9	-63.2	6.2	0.00e+00	0	40	104	17246978048	87	19964
2026-01-06 10:12:44.13	234.17	22.72	-59.9	-63.1	6.2	0.00e+00	0	39	104	17246978048	87	19931
2026-01-06 10:12:45.12	234.02	22.53	-59.9	-63.2	6.2	0.00e+00	0	40	104	17246978048	87	19957
2026-01-06 10:12:46.12	233.86	22.34	-59.9	-63.1	6.2	0.00e+00	0	40	104	17246978048	87	19862
2026-01-06 10:12:47.12	233.71	22.16	-59.9	-63.1	6.2	0.00e+00	0	40	104	17246978048	87	19922
2026-01-06 10:12:48.12	233.56	21.98	-59.9	-63.1	6.2	0.00e+00	0	40	104	17246978048	87	19913
2026-01-06 10:12:49.11	233.42	21.80	-59.9	-63.1	6.2	0.00e+00	0	39	104	17246978048	87	19882
2026-01-06 10:12:50.09	233.27	21.62	-59.9	-63.1	6.2	0.00e+00	0	40	104	17246978048	87	19847
2026-01-06 10:12:51.08	233.13	21.44	-59.9	-63.1	6.2	0.00e+00	0	40	104	17246978048	87	19872
2026-01-06 10:12:52.07	232.99	21.27	-59.9	-63.1	6.2	0.00e+00	0	39	104	17246978048	87	19857
2026-01-06 10:12:53.07	232.85	21.09	-59.9	-63.2	6.2	0.00e+00	0	39	104	17246978048	87	19946
2026-01-06 10:12:54.06	232.72	20.92	-59.9	-63.1	6.2	0.00e+00	0	40	104	17246978048	87	19821
2026-01-06 10:12:55.05	232.58	20.75	-59.9	-63.1	6.2	0.00e+00	0	40	104	17246978048	87	19869
2026-01-06 10:12:56.03	232.45	20.58	-59.9	-63.1	6.2	0.00e+00	0	40	104	17246978048	86	21026
2026-01-06 10:12:57.03	232.32	20.41	-59.8	-63.1	6.2	0.00e+00	0	39	104	17246978048	86	20986
2026-01-06 10:12:58.02	232.19	20.24	-59.8	-63.1	6.2	0.00e+00	0	40	104	17246978048	86	20941
2026-01-06 10:12:59.02	232.06	20.07	-59.8	-63.1	6.2	0.00e+00	0	40	104	17246978048	86	20965
2026-01-06 10:13:00.00	231.93	19.91	-59.8	-63.0	6.2	0.00e+00	0	39	104	17246978048	86	20868
2026-01-06 10:13:00.99	231.81	19.74	-59.8	-63.1	6.1	0.00e+00	0	39	104	17246978048	86	20912
2026-01-06 10:13:01.99	231.68	19.58	-59.8	-63.1	6.2	0.00e+00	0	39	104	17246978048	86	20913
2026-01-06 10:13:02.99	231.56	19.42	-59.8	-63.0	6.2	0.00e+00	0	40	104	17246978048	86	20861
2026-01-06 10:13:03.98	231.44	19.26	-59.8	-63.0	6.2	0.00e+00	0	40	104	17246978048	86	20867
2026-01-06 10:13:04.97	231.32	19.10	-59.8	-63.0	6.2	0.00e+00	0	40	104	17246978048	86	20831
2026-01-06 10:13:05.96	231.20	18.94	-59.8	-63.0	6.2	0.00e+00	0	39	104	17246978048	86	20816
2026-01-06 10:13:06.95	231.09	18.78	-59.8	-63.0	6.2	0.00e+00	0	40	104	17246978048	86	20808
2026-01-06 10:13:07.94	230.97	18.62	-59.8	-63.0	6.2	0.00e+00	0	39	104	17246978048	86	20829
2026-01-06 10:13:08.93	230.86	18.47	-59.8	-63.0	6.2	0.00e+00	0	40	104	17246978048	86	20804
2026-01-06 10:13:09.92	230.75	18.32	-59.8	-63.0	6.2	0.00e+00	0	40	104	17246978048	86	20788
2026-01-06 10:13:10.91	230.64	18.16	-59.8	-63.0	6.2	0.00e+00	0	39	104	17246978048	86	20727
2026-01-06 10:13:11.89	230.53	18.01	-59.7	-63.0	6.2	0.00e+00	0	40	104	17246978048	86	20704
2026-01-06 10:13:12.88	230.42	17.86	-59.8	-63.0	6.2	0.00e+00	0	40	104	17246978048	86	20741
2026-01-06 10:13:13.87	230.32	17.71	-59.7	-63.0	6.2	0.00e+00	0	40	104	17246978048	86	20756
2026-01-06 10:13:14.86	230.21	17.57	-59.7	-63.0	6.2	0.00e+00	0	39	104	17246978048	86	20711
2026-01-06 10:13:15.85	230.11	17.42	-59.7	-63.0	6.2	0.00e+00	0	39	104	17246978048	86	20651
2026-01-06 10:13:16.84	230.00	17.27	-59.7	-63.0	6.2	0.00e+00	0	40	104	17246978048	86	20712
2026-01-06 10:13:17.83	229.90	17.13	-59.7	-62.9	6.2	0.00e+00	0	40	104	17246978048	86	20626
2026-01-06 10:13:18.81	229.80	16.98	-59.7	-63.0	6.2	0.00e+00	0	39	104	17246978048	86	20657
2026-01-06 10:13:19.80	229.70	16.84	-59.7	-63.0	6.2	0.00e+00	0	40	104	17246978048	86	20641
2026-01-06 10:13:20.79	229.60	16.70	-59.7	-63.0	6.2	0.00e+00	0	40	104	17246978048	86	20643
2026-01-06 10:13:21.79	229.51	16.56	-59.7	-63.0	6.2	0.00e+00	0	40	104	17246978048	86	20671
2026-01-06 10:13:22.78	229.41	16.42	-59.7	-62.9	6.2	0.00e+00	0	40	104	17246978048	86	20589
2026-01-06 10:13:23.77	229.32	16.28	-59.7	-62.9	6.2	0.00e+00	0	40	104	17246978048	86	20609
2026-01-06 10:13:24.77	229.22	16.14	-59.7	-62.9	6.2	0.00e+00	0	40	104	17246978048	86	20552
2026-01-06 10:13:25.76	229.13	16.00	-59.7	-62.9	6.2	0.00e+00	0	40	104	17246978048	86	20498
2026-01-06 10:13:26.74	229.04	15.86	-59.7	-62.9	6.2	0.00e+00	0	39	104	17246978048	86	20524
2026-01-06 10:13:27.73	228.95	15.73	-59.7	-62.9	6.2	0.00e+00	0	40	104	17246978048	86	20465
2026-01-06 10:13:28.71	228.86	15.60	-59.7	-62.9	6.2	0.00e+00	0	40	104	17246978048	86	20536
2026-01-06 10:13:29.70	228.77	15.46	-59.6	-62.9	6.2	0.00e+00	0	39	104	17246978048	86	20425
2026-01-06 10:13:30.68	228.68	15.33	-59.6	-62.8	6.2	0.00e+00	0	40	104	17246978048	86	20385
2026-01-06 10:13:31.67	228.59	15.20	-59.6	-62.9	6.2	0.00e+00	0	40	104	17246978048	86	20414
2026-01-06 10:13:32.66	228.51	15.07	-59.6	-62.9	6.2	0.00e+00	0	40	104	17246978048	86	20398
2026-01-06 10:13:33.66	228.42	14.93	-59.6	-62.8	6.2	0.00e+00	0	39	104	17246978048	86	20374
2026-01-06 10:13:34.65	228.34	14.81	-59.6	-62.8	6.2	0.00e+00	0	40	104	17246978048	86	20341
2026-01-06 10:13:35.64	228.25	14.68	-59.6	-62.8	6.2	0.00e+00	0	39	104	17246978048	86	20349
2026-01-06 10:13:36.64	228.17	14.55	-59.6	-62.8	6.2	0.00e+00	0	40	104	17246978048	86	20365
2026-01-06 10:13:37.63	228.09	14.42	-59.6	-62.8	6.2	0.00e+00	0	40	104	17246978048	86	20316
2026-01-06 10:13:38.62	228.01	14.29	-59.5	-62.8	6.2	0.00e+00	0	40	104	17246978048	86	20293
2026-01-06 10:13:39.62	227.93	14.17	-59.6	-62.8	6.2	0.00e+00	0	40	104	17246978048	86	20265
2026-01-06 10:13:40.61	227.85	14.04	-59.6	-62.8	6.2	0.00e+00	0	40	104	17246978048	86	20285
2026-01-06 10:13:41.61	227.77	13.92	-59.6	-62.8	6.2	0.00e+00	0	40	104	17246978048	86	20254
2026-01-06 10:13:42.59	227.69	13.80	-59.5	-62.8	6.2	0.00e+00	0	40	104	17246978048	86	20204
2026-01-06 10:13:43.59	227.61	13.67	-59.6	-62.8	6.2	0.00e+00	0	39	104	17246978048	86	20246
2026-01-06 10:13:44.59	227.54	13.55	-59.6	-62.8	6.2	0.00e+00	0	40	104	17246978048	86	20269
2026-01-06 10:13:45.58	227.46	13.43	-59.5	-62.8	6.2	0.00e+00	0	40	104	17246978048	86	20196
2026-01-06 10:13:46.58	227.39	13.31	-59.5	-62.8	6.2	0.00e+00	0	40	104	17246978048	86	20230
2026-01-06 10:13:47.57	227.31	13.19	-59.6	-62.8	6.2	0.00e+00	0	40	104	17246978048	86	20255
2026-01-06 10:13:48.55	227.24	13.07	-59.5	-62.8	6.2	0.00e+00	0	39	104	17246978048	86	20285
2026-01-06 10:13:49.55	227.17	12.95	-59.5	-62.8	6.2	0.00e+00	0	40	104	17246978048	86	20169
2026-01-06 10:13:50.54	227.10	12.83	-59.5	-62.7	6.2	0.00e+00	0	40	104	17246978048	86	20138
2026-01-06 10:13:51.53	227.02	12.72	-59.6	-62.8	6.2	0.00e+00	0	40	104	17246978048	86	20315
2026-01-06 10:13:52.52	226.95	12.60	-59.6	-62.8	6.2	0.00e+00	0	39	104	17246978048	86	20287
2026-01-06 10:13:53.52	226.88	12.48	-59.5	-62.8	6.2	0.00e+00	0	40	104	17246978048	86	20220
2026-01-06 10:13:54.51	226.82	12.37	-59.5	-62.7	6.2	0.00e+00	0	40	104	17246978048	86	20118
2026-01-06 10:13:55.50	226.75	12.26	-59.5	-62.8	6.2	0.00e+00	0	39	104	17246978048	86	20181
2026-01-06 10:13:56.49	226.68	12.14	-59.5	-62.8	6.2	0.00e+00	0	39	104	17246978048	86	20201
2026-01-06 10:13:57.48	226.61	12.03	-59.5	-62.7	6.2	0.00e+00	0	40	104	17246978048	86	20078
2026-01-06 10:13:58.47	226.55	11.92	-59.5	-62.7	6.2	0.00e+00	0	39	104	17246978048	86	20104
2026-01-06 10:13:59.47	226.48	11.81	-59.5	-62.7	6.2	0.00e+00	0	39	104	17246978048	86	20163
2026-01-06 10:14:00.46	226.42	11.69	-59.5	-62.8	6.2	0.00e+00	0	39	104	17246978048	86	20165
2026-01-06 10:14:01.46	226.35	11.58	-59.5	-62.7	6.2	0.00e+00	0	39	104	17246978048	86	20079
2026-01-06 10:14:02.44	226.29	11.47	-59.5	-62.7	6.2	0.00e+00	0	39	104	17246978048	86	20021
2026-01-06 10:14:03.43	226.23	11.37	-59.5	-62.7	6.2	0.00e+00	0	40	104	17246978048	86	19998
2026-01-06 10:14:04.42	226.16	11.26	-59.5	-62.7	6.2	0.00e+00	0	39	104	17246978048	86	20060
2026-01-06 10:14:05.41	226.10	11.15	-59.4	-62.7	6.2	0.00e+00	0	39	104	17246978048	86	19994
2026-01-06 10:14:06.40	226.04	11.04	-59.4	-62.7	6.2	0.00e+00	0	40	104	17246978048	86	19988
2026-01-06 10:14:07.39	225.98	10.94	-59.4	-62.7	6.2	0.00e+00	0	40	104	17246978048	86	20006
2026-01-06 10:14:08.37	225.92	10.83	-59.5	-62.6	6.2	0.00e+00	0	39	104	17246978048	86	19925
2026-01-06 10:14:09.37	225.86	10.73	-59.4	-62.6	6.2	0.00e+00	0	39	104	17246978048	86	19906
2026-01-06 10:14:10.35	225.80	10.62	-59.4	-62.6	6.2	0.00e+00	0	40	104	17246978048	86	19896
2026-01-06 10:14:11.36	225.74	10.52	-59.4	-62.6	6.2	0.00e+00	0	40	104	17246978048	86	19927
2026-01-06 10:14:12.35	225.68	10.41	-59.4	-62.7	6.2	0.00e+00	0	40	104	17246978048	86	19967
2026-01-06 10:14:13.35	225.62	10.31	-59.4	-62.6	6.2	0.00e+00	0	40	104	17246978048	86	19919
2026-01-06 10:14:14.34	225.57	10.20	-59.4	-62.6	6.2	0.00e+00	0	40	104	17246978048	86	19888
2026-01-06 10:14:15.33	225.51	10.10	-59.3	-62.6	6.2	0.00e+00	0	40	104	17246978048	85	20933
2026-01-06 10:14:16.32	225.46	10.00	-59.4	-62.6	6.2	0.00e+00	0	40	104	17246978048	85	20984
2026-01-06 10:14:17.32	225.40	9.90	-59.3	-62.5	6.2	0.00e+00	0	40	104	17246978048	85	20848
2026-01-06 10:14:18.31	225.34	9.80	-59.3	-62.5	6.2	0.00e+00	0	39	104	17246978048	85	20826
2026-01-06 10:14:19.30	225.29	9.70	-59.3	-62.5	6.2	0.00e+00	0	39	104	17246978048	85	20820
2026-01-06 10:14:20.30	225.23	9.60	-59.3	-62.6	6.2	0.00e+00	0	40	104	17246978048	85	20986
2026-01-06 10:14:21.29	225.18	9.50	-59.3	-62.6	6.2	0.00e+00	0	40	104	17246978048	85	20892
2026-01-06 10:14:22.29	225.13	9.40	-59.3	-62.5	6.2	0.00e+00	0	40	104	17246978048	85	20726
2026-01-06 10:14:23.28	225.08	9.30	-59.3	-62.5	6.2	0.00e+00	0	40	104	17246978048	85	20769
2026-01-06 10:14:24.27	225.02	9.20	-59.3	-62.5	6.2	0.00e+00	0	39	104	17246978048	85	20818
2026-01-06 10:14:25.26	224.97	9.11	-59.3	-62.5	6.2	0.00e+00	0	39	104	17246978048	85	20778
2026-01-06 10:14:26.26	224.92	9.01	-59.2	-62.5	6.2	0.00e+00	0	39	104	17246978048	85	20706
2026-01-06 10:14:27.26	224.87	8.91	-59.2	-62.5	6.2	0.00e+00	0	40	104	17246978048	85	20683
2026-01-06 10:14:28.25	224.82	8.82	-59.3	-62.5	6.2	0.00e+00	0	39	104	17246978048	85	20840
2026-01-06 10:14:29.25	224.77	8.72	-59.2	-62.5	6.2	0.00e+00	0	39	104	17246978048	85	20709
2026-01-06 10:14:30.24	224.72	8.63	-59.2	-62.4	6.2	0.00e+00	0	39	104	17246978048	85	20599
2026-01-06 10:14:31.23	224.67	8.53	-59.2	-62.4	6.2	0.00e+00	0	39	104	17246978048	85	20593
2026-01-06 10:14:32.22	224.62	8.44	-59.3	-62.5	6.2	0.00e+00	0	39	104	17246978048	85	20724
2026-01-06 10:14:33.21	224.57	8.35	-59.2	-62.4	6.2	0.00e+00	0	39	104	17246978048	85	20627
2026-01-06 10:14:34.20	224.52	8.25	-59.2	-62.4	6.2	0.00e+00	0	39	104	17246978048	85	20479
2026-01-06 10:14:35.19	224.48	8.16	-59.1	-62.4	6.2	0.00e+00	0	39	104	17246978048	85	20474
2026-01-06 10:14:36.18	224.43	8.07	-59.2	-62.4	6.2	0.00e+00	0	39	104	17246978048	85	20512
2026-01-06 10:14:37.17	224.38	7.98	-59.2	-62.4	6.2	0.00e+00	0	39	104	17246978048	85	20546
2026-01-06 10:14:38.16	224.34	7.89	-59.1	-62.4	6.2	0.00e+00	0	40	104	17246978048	85	20418
2026-01-06 10:14:39.15	224.29	7.79	-59.1	-62.3	6.2	0.00e+00	0	40	104	17246978048	85	20358
2026-01-06 10:14:40.14	224.25	7.70	-59.2	-62.4	6.2	0.00e+00	0	39	104	17246978048	85	20514
2026-01-06 10:14:41.15	224.20	7.61	-59.1	-62.3	6.2	0.00e+00	0	39	104	17246978048	85	20384
2026-01-06 10:14:42.14	224.15	7.52	-59.1	-62.3	6.2	0.00e+00	0	40	104	17246978048	85	20216
2026-01-06 10:14:43.13	224.11	7.43	-59.0	-62.3	6.2	0.00e+00	0	40	104	17246978048	85	20237
2026-01-06 10:14:44.12	224.07	7.35	-59.1	-62.4	6.2	0.00e+00	0	39	104	17246978048	85	20425
2026-01-06 10:14:45.11	224.02	7.26	-59.1	-62.3	6.2	0.00e+00	0	40	104	17246978048	85	20390
2026-01-06 10:14:46.10	223.98	7.17	-59.0	-62.2	6.2	0.00e+00	0	40	104	17246978048	85	20085
2026-01-06 10:14:47.10	223.94	7.08	-59.0	-62.2	6.2	0.00e+00	0	39	104	17246978048	85	20084
2026-01-06 10:14:48.09	223.89	6.99	-59.1	-62.3	6.2	0.00e+00	0	40	104	17246978048	85	20330
2026-01-06 10:14:49.09	223.85	6.91	-59.1	-62.3	6.2	0.00e+00	0	39	104	17246978048	85	20194
2026-01-06 10:14:50.07	223.81	6.82	-59.0	-62.2	6.2	0.00e+00	0	39	104	17246978048	85	20082
2026-01-06 10:14:51.07	223.77	6.73	-58.9	-62.2	6.2	0.00e+00	0	39	104	17246978048	85	19994
2026-01-06 10:14:52.06	223.73	6.65	-59.0	-62.3	6.2	0.00e+00	0	40	104	17246978048	85	20249
2026-01-06 10:14:53.06	223.68	6.56	-59.0	-62.2	6.2	0.00e+00	0	39	104	17246978048	85	20108
2026-01-06 10:14:54.05	223.64	6.48	-58.9	-62.1	6.2	0.00e+00	0	40	104	17246978048	85	19914
2026-01-06 10:14:55.04	223.60	6.39	-58.9	-62.1	6.2	0.00e+00	0	39	104	17246978048	85	19824
2026-01-06 10:14:56.03	223.56	6.31	-59.0	-62.2	6.2	0.00e+00	0	39	104	17246978048	85	20116
2026-01-06 10:14:57.03	223.52	6.22	-59.0	-62.2	6.2	0.00e+00	0	39	104	17246978048	85	20016
2026-01-06 10:14:58.03	223.48	6.14	-58.9	-62.1	6.2	0.00e+00	0	39	104	17246978048	84	20930
2026-01-06 10:14:59.02	223.44	6.06	-58.8	-62.1	6.2	0.00e+00	0	39	104	17246978048	84	20952
2026-01-06 10:15:00.00	223.41	5.97	-58.9	-62.2	6.2	0.00e+00	0	39	104	17246978048	84	21167
2026-01-06 10:15:00.99	223.37	5.89	-58.9	-62.1	6.2	0.00e+00	0	39	104	17246978048	84	21071
2026-01-06 10:15:01.98	223.33	5.81	-58.8	-62.0	6.2	0.00e+00	0	39	104	17246978048	84	20793
2026-01-06 10:15:02.97	223.29	5.73	-58.8	-62.0	6.2	0.00e+00	0	40	104	17246978048	84	20805
2026-01-06 10:15:03.96	223.25	5.65	-58.9	-62.1	6.2	0.00e+00	0	39	104	17246978048	84	21006
2026-01-06 10:15:04.96	223.22	5.56	-58.9	-62.1	6.2	0.00e+00	0	40	104	17246978048	84	20901
2026-01-06 10:15:05.94	223.18	5.48	-58.8	-62.0	6.2	0.00e+00	0	40	104	17246978048	84	20783
2026-01-06 10:15:06.93	223.14	5.40	-58.7	-61.9	6.2	0.00e+00	0	40	104	17246978048	84	20618
2026-01-06 10:15:07.92	223.11	5.32	-58.9	-62.1	6.2	0.00e+00	0	39	104	17246978048	84	20954
2026-01-06 10:15:08.92	223.07	5.24	-58.8	-62.0	6.2	0.00e+00	0	39	104	17246978048	84	20826
2026-01-06 10:15:09.90	223.03	5.16	-58.7	-61.9	6.2	0.00e+00	0	40	104	17246978048	84	20567
2026-01-06 10:15:10.89	223.00	5.08	-58.6	-61.9	6.2	0.00e+00	0	40	104	17246978048	84	20480
2026-01-06 10:15:11.87	222.96	5.01	-58.8	-62.1	6.2	0.00e+00	0	39	104	17246978048	84	20974
2026-01-06 10:15:12.85	222.93	4.93	-59.4	-62.6	6.2	0.00e+00	0	39	104	17246978048	84	22271
2026-01-06 10:15:13.84	222.89	4.85	-59.7	-62.9	6.2	0.00e+00	0	39	104	17246978048	85	21697
2026-01-06 10:15:14.83	222.86	4.77	-59.8	-63.1	6.2	0.00e+00	0	40	104	17246978048	85	22160
2026-01-06 10:15:15.82	222.82	4.69	-60.0	-63.2	6.2	0.00e+00	0	40	104	17246978048	85	22550
2026-01-06 10:15:16.80	222.79	4.62	-60.1	-63.4	6.2	0.00e+00	0	40	104	17246978048	85	22911
2026-01-06 10:15:17.80	222.76	4.54	-60.2	-63.4	6.2	0.00e+00	0	40	104	17246978048	86	21854
2026-01-06 10:15:18.80	222.72	4.46	-60.3	-63.5	6.2	0.00e+00	0	39	104	17246978048	86	22063
2026-01-06 10:15:19.80	222.69	4.38	-60.4	-63.6	6.2	0.00e+00	0	40	104	17246978048	86	22227
2026-01-06 10:15:20.79	222.65	4.31	-60.4	-63.7	6.2	0.00e+00	0	40	104	17246978048	86	22404
2026-01-06 10:15:21.78	222.62	4.23	-60.5	-63.7	6.2	0.00e+00	0	40	104	17246978048	86	22506
2026-01-06 10:15:22.78	222.59	4.15	-60.5	-63.7	6.2	0.00e+00	0	40	104	17246978048	86	22498
2026-01-06 10:15:23.76	222.56	4.08	-60.5	-63.8	6.2	0.00e+00	0	39	104	17246978048	86	22672
2026-01-06 10:15:24.75	222.52	4.00	-60.6	-63.8	6.2	0.00e+00	0	39	104	17246978048	86	22792
2026-01-06 10:15:25.73	222.49	3.93	-60.6	-63.8	6.2	0.00e+00	0	39	104	17246978048	86	22862
2026-01-06 10:15:26.72	222.46	3.86	-60.6	-63.9	6.2	0.00e+00	0	39	104	17246978048	86	22977
2026-01-06 10:15:27.72	222.43	3.78	-60.6	-63.9	6.2	0.00e+00	0	39	104	17246978048	87	21681
2026-01-06 10:15:28.71	222.40	3.71	-60.7	-63.9	6.2	0.00e+00	0	40	104	17246978048	87	21705
2026-01-06 10:15:29.71	222.37	3.63	-60.7	-63.9	6.2	0.00e+00	0	39	104	17246978048	87	21812
2026-01-06 10:15:30.70	222.34	3.56	-60.7	-64.0	6.2	0.00e+00	0	39	104	17246978048	87	21889
2026-01-06 10:15:31.68	222.30	3.49	-60.7	-64.0	6.2	0.00e+00	0	40	104	17246978048	87	21941
2026-01-06 10:15:32.67	222.27	3.41	-60.7	-64.0	6.2	0.00e+00	0	40	104	17246978048	87	21970
2026-01-06 10:15:33.66	222.24	3.34	-60.8	-64.0	6.2	0.00e+00	0	39	104	17246978048	87	22014
2026-01-06 10:15:34.65	222.21	3.27	-60.7	-64.0	6.2	0.00e+00	0	40	104	17246978048	87	21956
2026-01-06 10:15:35.64	222.18	3.19	-60.7	-64.0	6.2	0.00e+00	0	40	104	17246978048	87	21978
2026-01-06 10:15:36.63	222.15	3.12	-60.7	-64.0	6.2	0.00e+00	0	40	104	17246978048	87	21915
2026-01-06 10:15:37.61	222.13	3.05	-60.7	-63.9	6.2	0.00e+00	0	40	104	17246978048	87	21798
2026-01-06 10:15:38.59	222.10	2.98	-60.7	-63.9	6.2	0.00e+00	0	40	104	17246978048	87	21846
2026-01-06 10:15:39.57	222.07	2.91	-60.7	-63.9	6.2	0.00e+00	0	40	104	17246978048	87	21788
2026-01-06 10:15:40.56	222.04	2.84	-60.7	-63.9	6.2	0.00e+00	0	40	104	17246978048	87	21729
2026-01-06 10:15:41.55	222.01	2.77	-60.7	-63.9	6.2	0.00e+00	0	39	104	17246978048	87	21739
2026-01-06 10:15:42.54	221.98	2.69	-60.7	-63.9	6.2	0.00e+00	0	40	104	17246978048	87	21724
2026-01-06 10:15:43.53	221.95	2.62	-60.7	-63.9	6.2	0.00e+00	0	40	104	17246978048	87	21727
2026-01-06 10:15:44.53	221.93	2.55	-60.6	-63.9	6.2	0.00e+00	0	39	104	17246978048	87	21703
2026-01-06 10:15:45.52	221.90	2.48	-60.6	-63.9	6.2	0.00e+00	0	39	104	17246978048	87	21745
2026-01-06 10:15:46.52	221.87	2.41	-60.6	-63.9	6.2	0.00e+00	0	40	104	17246978048	87	21658
2026-01-06 10:15:47.51	221.84	2.34	-60.7	-63.9	6.2	0.00e+00	0	40	104	17246978048	87	21688
2026-01-06 10:15:48.50	221.81	2.27	-60.6	-63.9	6.2	0.00e+00	0	40	104	17246978048	87	21705
2026-01-06 10:15:49.48	221.79	2.20	-60.6	-63.9	6.2	0.00e+00	0	39	104	17246978048	87	21751
2026-01-06 10:15:50.46	221.76	2.14	-60.6	-63.9	6.2	0.00e+00	0	40	104	17246978048	87	21709
2026-01-06 10:15:51.45	221.73	2.07	-60.6	-63.9	6.2	0.00e+00	0	40	104	17246978048	87	21697
2026-01-06 10:15:52.44	221.71	2.00	-60.6	-63.9	6.2	0.00e+00	0	40	104	17246978048	87	21641
2026-01-06 10:15:53.42	221.68	1.93	-60.6	-63.8	6.2	0.00e+00	0	40	104	17246978048	87	21536

#Closed at: 2026-01-06 10:15:53
#Recorded file [17246 MB]: D:/lorett/data/31004_260106_130521.dat