passes_logs/2026/01/06/R3.2S_Murmansk/R3.2S_Murmansk__20260106_082740_NOAA_21_JPSS-2_rec.log

#Pass ID: 20260106_082740_NOAA 21 (JPSS-2)
#Satellite: NOAA 21 (JPSS-2)
#Configuration: NOAA-21
#almurnet v.1.7.20251203
#Start time: 2026-01-06 08:32:25

#Version: 2.2.20231116
#Station: R3.2S_Murmansk
#Location: 33.079688 lon 68.888172 lat
#TLE: 1 54234U 22150A   26005.42670836  .00000142  00000+0  88292-4 0  9996
#TLE: 2 54234  98.7490 306.4427 0001045 340.6622  19.4514 14.19532269163451

#Time	Az	El	Level	Level2	SNR	BER	BlckErr	Temp	State	Recorded	gain1	gain2
2026-01-06 08:32:25.93	107.60	31.26	-60.2	-73.3	3.8	8.45e-01	0	26	0	0	86	16461
2026-01-06 08:32:26.92	107.42	31.43	-60.2	-74.1	3.8	1.49e+00	0	26	104	0	85	18998
2026-01-06 08:32:27.91	107.24	31.60	-60.2	-74.1	3.8	1.49e+00	0	26	104	0	85	19010
2026-01-06 08:32:28.90	107.05	31.77	-60.2	-74.0	3.8	1.49e+00	0	26	104	0	85	18947
2026-01-06 08:32:29.89	106.87	31.95	-60.2	-74.1	3.8	1.49e+00	0	26	104	0	85	18976
2026-01-06 08:32:30.89	106.68	32.12	-60.2	-74.0	3.8	1.49e+00	0	26	104	0	85	18926
2026-01-06 08:32:31.88	106.49	32.30	-60.2	-74.0	3.8	1.49e+00	0	26	104	0	85	18924
2026-01-06 08:32:32.87	106.30	32.47	-60.2	-74.0	3.8	1.49e+00	0	26	104	0	85	18944
2026-01-06 08:32:33.86	106.11	32.65	-60.3	-74.2	3.8	1.49e+00	0	26	104	0	85	19210
2026-01-06 08:32:34.85	105.91	32.82	-60.4	-74.3	3.8	1.49e+00	0	26	104	0	85	19406
2026-01-06 08:32:35.84	105.72	33.00	-60.4	-74.3	3.8	1.49e+00	0	26	104	0	85	19421
2026-01-06 08:32:36.84	105.51	33.18	-60.3	-74.2	3.8	1.49e+00	0	26	104	0	85	19318
2026-01-06 08:32:37.83	105.31	33.35	-60.3	-74.2	3.8	1.49e+00	0	26	104	0	85	19237
2026-01-06 08:32:38.82	105.11	33.53	-60.3	-74.1	3.8	1.49e+00	0	26	104	0	85	19158
2026-01-06 08:32:39.82	104.90	33.71	-60.2	-74.1	3.8	1.49e+00	0	26	104	0	85	19037
2026-01-06 08:32:40.81	104.69	33.89	-60.2	-74.1	3.8	1.49e+00	0	26	104	0	85	18967
2026-01-06 08:32:41.80	104.48	34.07	-60.1	-74.0	3.8	1.49e+00	0	26	104	0	85	18830
2026-01-06 08:32:42.79	104.27	34.26	-60.1	-73.9	3.8	1.49e+00	0	26	104	0	85	18728
2026-01-06 08:32:43.78	104.05	34.44	-60.1	-73.9	3.8	1.49e+00	0	26	104	0	85	18713
2026-01-06 08:32:44.77	103.83	34.62	-60.0	-73.9	3.8	1.49e+00	0	26	104	0	85	18550
2026-01-06 08:32:45.77	103.61	34.80	-60.0	-73.8	3.8	1.49e+00	0	26	104	0	85	18430
2026-01-06 08:32:46.76	103.39	34.99	-60.0	-73.8	3.8	1.49e+00	0	26	104	0	85	18316
2026-01-06 08:32:47.76	103.16	35.17	-60.0	-73.8	3.8	1.49e+00	0	26	104	0	85	18390
2026-01-06 08:32:48.75	102.93	35.36	-59.9	-73.8	3.8	1.49e+00	0	26	104	0	85	18314
2026-01-06 08:32:49.75	102.70	35.54	-59.9	-73.7	3.8	1.49e+00	0	26	104	0	85	18262
2026-01-06 08:32:50.74	102.46	35.73	-59.8	-73.7	3.8	1.49e+00	0	26	104	0	85	18178
2026-01-06 08:32:51.73	102.23	35.92	-59.8	-73.7	3.8	1.49e+00	0	26	104	0	85	18120
2026-01-06 08:32:52.73	101.98	36.10	-59.8	-73.7	3.8	1.49e+00	0	26	104	0	85	18152
2026-01-06 08:32:53.73	101.74	36.29	-59.8	-73.7	3.8	1.49e+00	0	26	104	0	85	18124
2026-01-06 08:32:54.72	101.49	36.48	-59.8	-73.6	3.8	1.49e+00	0	26	104	0	85	18094
2026-01-06 08:32:55.72	101.24	36.67	-59.8	-73.7	3.8	1.49e+00	0	26	104	0	85	18143
2026-01-06 08:32:56.71	100.99	36.86	-59.8	-73.6	3.8	1.49e+00	0	26	104	0	85	18057
2026-01-06 08:32:57.70	100.74	37.05	-59.8	-73.6	3.8	1.49e+00	0	26	104	0	85	18054
2026-01-06 08:32:58.69	100.48	37.24	-59.8	-73.6	3.8	1.49e+00	0	26	104	0	85	18022
2026-01-06 08:32:59.69	100.22	37.43	-59.8	-73.6	3.8	1.49e+00	0	26	104	0	85	17979
2026-01-06 08:33:00.69	99.96	37.62	-59.8	-73.6	3.8	1.49e+00	0	26	104	0	85	17985
2026-01-06 08:33:01.69	99.69	37.81	-59.8	-73.5	3.8	1.49e+00	0	26	104	0	85	17820
2026-01-06 08:33:02.69	99.42	38.01	-59.8	-73.5	3.8	1.49e+00	0	26	104	0	85	17741
2026-01-06 08:33:03.69	99.14	38.20	-59.8	-73.5	3.8	1.49e+00	0	26	104	0	85	17841
2026-01-06 08:33:04.69	98.86	38.39	-59.8	-73.4	3.8	1.49e+00	0	26	104	0	85	17643
2026-01-06 08:33:05.67	98.59	38.58	-59.8	-73.4	3.8	1.49e+00	0	26	104	0	85	17605
2026-01-06 08:33:06.66	98.30	38.77	-59.8	-73.5	3.8	1.49e+00	0	26	104	0	85	17743
2026-01-06 08:33:07.65	98.02	38.97	-59.8	-73.3	3.8	1.49e+00	0	26	104	0	85	17457
2026-01-06 08:33:08.63	97.73	39.16	-59.8	-73.4	3.8	1.49e+00	0	26	104	0	85	17579
2026-01-06 08:33:09.63	97.44	39.35	-59.8	-73.4	3.8	1.49e+00	0	26	104	0	85	17504
2026-01-06 08:33:10.61	97.14	39.54	-59.8	-73.3	3.8	1.49e+00	0	26	104	0	85	17477
2026-01-06 08:33:11.60	96.84	39.74	-59.7	-73.2	3.8	1.49e+00	0	26	104	0	85	17226
2026-01-06 08:33:12.61	96.53	39.93	-59.8	-73.3	3.8	1.49e+00	0	26	104	0	85	17368
2026-01-06 08:33:13.60	96.23	40.13	-59.7	-73.2	3.8	1.49e+00	0	26	104	0	85	17084
2026-01-06 08:33:14.59	95.92	40.32	-59.7	-72.7	3.8	1.49e+00	0	26	104	0	85	16307
2026-01-06 08:33:15.59	95.60	40.52	-59.7	-73.3	3.8	1.49e+00	0	26	104	0	85	17334
2026-01-06 08:33:16.58	95.28	40.71	-59.0	-66.5	5.7	1.44e+00	0	26	104	0	84	8407
2026-01-06 08:33:17.58	94.96	40.91	-57.6	-62.1	9.1	3.03e-02	0	26	0	2097152	81	6051
2026-01-06 08:33:18.57	94.63	41.10	-56.3	-59.6	11.1	4.08e-04	0	26	0	5242880	79	5061
2026-01-06 08:33:19.56	94.30	41.29	-54.7	-57.0	12.8	0.00e+00	0	26	0	8388608	76	4479
2026-01-06 08:33:20.55	93.97	41.49	-58.3	-64.4	7.5	9.92e-03	0	26	0	11534336	81	7828
2026-01-06 08:33:21.54	93.63	41.68	-55.6	-58.3	11.7	1.08e+00	0	26	0	12582912	78	4633
2026-01-06 08:33:22.53	93.29	41.88	-55.1	-57.7	12.3	0.00e+00	0	26	0	15728640	75	5141
2026-01-06 08:33:23.52	92.94	42.07	-57.3	-61.5	9.6	1.86e-01	0	26	0	17825792	81	5611
2026-01-06 08:33:24.52	92.58	42.26	-53.4	-55.3	13.5	6.80e-06	0	26	0	20971520	73	4368
2026-01-06 08:33:25.51	92.23	42.46	-53.1	-54.9	13.6	0.00e+00	0	26	0	24117248	72	4396
2026-01-06 08:33:26.50	91.87	42.65	-52.6	-54.3	13.8	0.00e+00	0	26	0	27262976	71	4391
2026-01-06 08:33:27.49	91.51	42.84	-52.5	-54.1	14.0	0.00e+00	0	26	0	30408704	71	4277
2026-01-06 08:33:28.48	91.14	43.03	-52.3	-54.0	14.1	0.00e+00	0	26	0	33554432	71	4207
2026-01-06 08:33:29.48	90.76	43.23	-52.6	-54.2	13.9	0.00e+00	0	26	0	36700160	71	4339
2026-01-06 08:33:30.47	90.39	43.42	-52.6	-54.3	13.9	0.00e+00	0	26	0	39845888	71	4352
2026-01-06 08:33:31.47	90.00	43.61	-52.6	-54.3	13.9	0.00e+00	0	26	0	42991616	71	4388
2026-01-06 08:33:32.45	89.62	43.80	-52.3	-54.0	14.1	0.00e+00	0	26	0	46137344	71	4199
2026-01-06 08:33:33.45	89.22	43.99	-52.1	-53.8	14.1	0.00e+00	0	26	0	49283072	70	4341
2026-01-06 08:33:34.45	88.82	44.18	-52.2	-53.8	14.0	0.00e+00	0	26	0	52428800	70	4362
2026-01-06 08:33:35.44	88.42	44.37	-52.2	-53.9	14.0	0.00e+00	0	26	0	55574528	70	4395
2026-01-06 08:33:36.43	88.02	44.56	-52.4	-54.1	13.8	0.00e+00	0	26	0	58720256	70	4537
2026-01-06 08:33:37.43	87.61	44.75	-52.3	-54.0	13.9	0.00e+00	0	26	0	61865984	70	4470
2026-01-06 08:33:38.43	87.19	44.94	-52.3	-54.0	13.9	0.00e+00	0	26	0	65011712	70	4463
2026-01-06 08:33:39.42	86.77	45.12	-52.2	-53.8	14.0	0.00e+00	0	26	0	68157440	70	4362
2026-01-06 08:33:40.42	86.34	45.31	-52.0	-53.5	14.1	0.00e+00	0	26	0	71303168	70	4225
2026-01-06 08:33:41.41	85.91	45.49	-52.0	-53.5	14.1	0.00e+00	0	26	0	74448896	70	4233
2026-01-06 08:33:42.40	85.47	45.67	-51.9	-53.5	14.2	0.00e+00	0	26	0	77594624	70	4224
2026-01-06 08:33:43.40	85.03	45.86	-52.0	-53.7	14.1	0.00e+00	0	26	0	80740352	70	4299
2026-01-06 08:33:44.38	84.59	46.04	-52.0	-53.6	14.2	0.00e+00	0	26	0	83886080	70	4271
2026-01-06 08:33:45.38	84.13	46.22	-52.0	-53.6	14.2	0.00e+00	0	26	0	87031808	70	4255
2026-01-06 08:33:46.37	83.68	46.39	-52.2	-53.8	14.0	0.00e+00	0	26	0	90177536	70	4385
2026-01-06 08:33:47.35	83.22	46.57	-52.2	-53.8	14.0	0.00e+00	0	26	0	93323264	70	4364
2026-01-06 08:33:48.34	82.76	46.75	-51.9	-53.5	14.2	0.00e+00	0	26	0	95420416	70	4203
2026-01-06 08:33:49.34	82.28	46.92	-51.4	-52.9	14.4	0.00e+00	0	26	0	98566144	69	4166
2026-01-06 08:33:50.34	81.80	47.10	-51.5	-52.9	14.4	0.00e+00	0	26	0	101711872	69	4184
2026-01-06 08:33:51.33	81.32	47.27	-51.4	-52.9	14.4	0.00e+00	0	26	0	104857600	69	4158
2026-01-06 08:33:52.32	80.83	47.44	-51.6	-53.1	14.3	0.00e+00	0	26	0	108003328	69	4279
2026-01-06 08:33:53.31	80.34	47.60	-51.6	-53.1	14.3	0.00e+00	0	26	0	111149056	69	4280
2026-01-06 08:33:54.30	79.84	47.77	-51.6	-53.1	14.3	0.00e+00	0	26	0	114294784	69	4254
2026-01-06 08:33:55.29	79.34	47.93	-51.6	-53.1	14.3	0.00e+00	0	26	0	117440512	69	4245
2026-01-06 08:33:56.28	78.83	48.10	-51.5	-52.9	14.4	0.00e+00	0	26	0	120586240	69	4187
2026-01-06 08:33:57.28	78.32	48.26	-51.6	-53.1	14.2	0.00e+00	0	26	0	123731968	69	4267
2026-01-06 08:33:58.27	77.80	48.42	-51.5	-53.0	14.3	0.00e+00	0	26	0	126877696	69	4214
2026-01-06 08:33:59.26	77.27	48.58	-51.6	-53.1	14.3	0.00e+00	0	26	0	130023424	69	4245
2026-01-06 08:34:00.25	76.74	48.73	-51.5	-53.0	14.3	0.00e+00	0	26	0	133169152	69	4219
2026-01-06 08:34:01.24	76.21	48.88	-51.2	-52.7	14.5	0.00e+00	0	26	0	136314880	69	4058
2026-01-06 08:34:02.24	75.66	49.04	-51.3	-52.8	14.4	0.00e+00	0	26	0	139460608	69	4115
2026-01-06 08:34:03.24	75.11	49.19	-51.5	-52.9	14.4	0.00e+00	0	26	0	142606336	69	4179
2026-01-06 08:34:04.24	74.55	49.33	-51.5	-53.0	14.3	0.00e+00	0	26	0	145752064	69	4215
2026-01-06 08:34:05.23	74.00	49.48	-51.5	-53.0	14.3	0.00e+00	0	26	0	148897792	69	4221
2026-01-06 08:34:06.22	73.44	49.62	-51.4	-52.9	14.4	0.00e+00	0	26	0	152043520	69	4168
2026-01-06 08:34:07.21	72.87	49.75	-51.1	-52.6	14.5	0.00e+00	0	26	0	155189248	68	4257
2026-01-06 08:34:08.20	72.30	49.89	-51.1	-52.5	14.4	0.00e+00	0	26	0	158334976	68	4228
2026-01-06 08:34:09.19	71.72	50.02	-50.7	-52.1	14.6	0.00e+00	0	26	0	161480704	68	4011
2026-01-06 08:34:10.18	71.14	50.15	-50.7	-52.1	14.5	0.00e+00	0	26	0	164626432	67	4254
2026-01-06 08:34:11.17	70.55	50.28	-50.9	-52.3	14.3	0.00e+00	0	26	0	166723584	67	4377
2026-01-06 08:34:12.17	69.96	50.41	-51.2	-52.7	14.2	0.00e+00	0	26	0	169869312	67	4553
2026-01-06 08:34:13.16	69.36	50.53	-51.3	-52.8	14.1	0.00e+00	0	26	0	173015040	67	4628
2026-01-06 08:34:14.15	68.76	50.65	-51.2	-52.7	14.1	0.00e+00	0	26	0	176160768	67	4588
2026-01-06 08:34:15.15	68.15	50.76	-51.2	-52.7	14.1	0.00e+00	0	26	0	179306496	67	4549
2026-01-06 08:34:16.14	67.54	50.88	-51.3	-52.9	14.1	0.00e+00	0	26	0	182452224	67	4659
2026-01-06 08:34:17.14	66.91	50.99	-51.5	-53.0	14.2	0.00e+00	0	26	0	185597952	68	4459
2026-01-06 08:34:18.13	66.29	51.09	-51.2	-52.7	14.3	0.00e+00	0	26	0	188743680	68	4312
2026-01-06 08:34:19.12	65.67	51.20	-51.4	-52.9	14.2	0.00e+00	0	26	0	191889408	68	4441
2026-01-06 08:34:20.12	65.04	51.30	-51.8	-53.4	14.0	0.00e+00	0	26	0	195035136	68	4677
2026-01-06 08:34:21.10	64.41	51.39	-51.8	-53.4	14.1	0.00e+00	0	26	0	198180864	69	4436
2026-01-06 08:34:22.09	63.77	51.48	-51.8	-53.4	14.1	0.00e+00	0	26	0	201326592	69	4426
2026-01-06 08:34:23.08	63.13	51.57	-51.7	-53.2	14.2	0.00e+00	0	26	0	204472320	69	4319
2026-01-06 08:34:24.08	62.48	51.66	-51.4	-52.9	14.4	0.00e+00	0	26	0	207618048	69	4158
2026-01-06 08:34:25.08	61.83	51.74	-51.6	-53.2	14.3	0.00e+00	0	26	0	210763776	69	4295
2026-01-06 08:34:26.07	61.18	51.82	-51.4	-52.8	14.4	0.00e+00	0	26	0	213909504	69	4142
2026-01-06 08:34:27.07	60.52	51.89	-51.4	-52.9	14.4	0.00e+00	0	26	0	217055232	69	4151
2026-01-06 08:34:28.06	59.86	51.96	-51.4	-52.8	14.4	0.00e+00	0	26	0	220200960	69	4137
2026-01-06 08:34:29.05	59.20	52.03	-51.4	-52.8	14.4	0.00e+00	0	26	0	223346688	69	4140
2026-01-06 08:34:30.04	58.53	52.09	-51.5	-53.0	14.3	0.00e+00	0	26	0	226492416	69	4240
2026-01-06 08:34:31.03	57.87	52.15	-51.4	-53.0	14.3	0.00e+00	0	26	0	229638144	69	4199
2026-01-06 08:34:32.02	57.20	52.20	-51.3	-52.8	14.4	0.00e+00	0	26	0	232783872	69	4120
2026-01-06 08:34:33.01	56.53	52.25	-51.2	-52.7	14.5	0.00e+00	0	26	0	235929600	69	4079
2026-01-06 08:34:34.01	55.85	52.30	-51.0	-52.4	14.5	0.00e+00	0	26	0	239075328	68	4178
2026-01-06 08:34:35.00	55.17	52.34	-51.4	-52.9	14.3	0.00e+00	0	26	0	242221056	68	4403
2026-01-06 08:34:35.99	54.50	52.38	-51.3	-52.8	14.3	0.00e+00	0	26	0	245366784	68	4361
2026-01-06 08:34:36.99	53.81	52.41	-51.1	-52.6	14.4	0.00e+00	0	26	0	247463936	68	4245
2026-01-06 08:34:37.97	53.14	52.44	-51.0	-52.4	14.5	0.00e+00	0	26	0	250609664	68	4168
2026-01-06 08:34:38.97	52.45	52.47	-50.7	-52.1	14.7	0.00e+00	0	26	0	253755392	68	4008
2026-01-06 08:34:39.96	51.77	52.49	-50.4	-51.7	14.6	0.00e+00	0	26	0	256901120	67	4077
2026-01-06 08:34:40.96	51.08	52.51	-50.3	-51.6	14.7	0.00e+00	0	26	0	260046848	67	4032
2026-01-06 08:34:41.96	50.38	52.52	-50.2	-51.5	14.6	0.00e+00	0	26	0	263192576	66	4208
2026-01-06 08:34:42.95	49.70	52.53	-50.3	-51.6	14.6	0.00e+00	0	26	0	266338304	66	4256
2026-01-06 08:34:43.94	49.01	52.53	-50.0	-51.3	14.7	0.00e+00	0	26	0	269484032	66	4136
2026-01-06 08:34:44.93	48.33	52.53	-50.0	-51.3	14.7	0.00e+00	0	26	0	272629760	66	4126
2026-01-06 08:34:45.92	47.64	52.53	-49.8	-51.1	14.8	0.00e+00	0	26	0	275775488	66	4022
2026-01-06 08:34:46.91	46.96	52.52	-49.9	-51.1	14.8	0.00e+00	0	26	0	278921216	66	4039
2026-01-06 08:34:47.91	46.27	52.51	-50.3	-51.6	14.6	0.00e+00	0	26	0	282066944	66	4286
2026-01-06 08:34:48.91	45.58	52.49	-50.4	-51.8	14.5	0.00e+00	0	26	0	285212672	66	4349
2026-01-06 08:34:49.90	44.90	52.47	-50.3	-51.6	14.5	0.00e+00	0	26	0	288358400	66	4263
2026-01-06 08:34:50.89	44.21	52.44	-50.2	-51.5	14.6	0.00e+00	0	26	0	291504128	66	4206
2026-01-06 08:34:51.88	43.53	52.42	-50.0	-51.3	14.7	0.00e+00	0	26	0	294649856	66	4101
2026-01-06 08:34:52.87	42.86	52.38	-49.8	-51.0	14.8	0.00e+00	0	26	0	297795584	66	3976
2026-01-06 08:34:53.86	42.18	52.34	-49.8	-51.1	14.8	0.00e+00	0	26	0	300941312	66	4019
2026-01-06 08:34:54.85	41.50	52.30	-50.0	-51.3	14.7	0.00e+00	0	26	0	304087040	66	4127
2026-01-06 08:34:55.84	40.83	52.26	-50.4	-51.8	14.4	0.00e+00	0	26	0	307232768	66	4348
2026-01-06 08:34:56.83	40.16	52.21	-50.6	-51.9	14.3	0.00e+00	0	26	0	310378496	66	4437
2026-01-06 08:34:57.83	39.48	52.15	-50.7	-52.1	14.3	0.00e+00	0	26	0	313524224	66	4535
2026-01-06 08:34:58.82	38.82	52.09	-50.7	-52.1	14.3	0.00e+00	0	26	0	315621376	66	4508
2026-01-06 08:34:59.81	38.15	52.03	-50.7	-52.1	14.3	0.00e+00	0	26	0	318767104	66	4522
2026-01-06 08:35:00.81	37.49	51.97	-51.0	-52.5	14.3	0.00e+00	0	26	0	321912832	67	4468
2026-01-06 08:35:01.80	36.83	51.90	-50.9	-52.4	14.3	0.00e+00	0	26	0	325058560	67	4392
2026-01-06 08:35:02.79	36.18	51.82	-51.0	-52.4	14.3	0.00e+00	0	26	0	328204288	67	4438
2026-01-06 08:35:03.78	35.52	51.75	-51.2	-52.6	14.2	0.00e+00	0	26	0	331350016	67	4541
2026-01-06 08:35:04.77	34.88	51.66	-50.9	-52.3	14.3	0.00e+00	0	26	0	334495744	67	4362
2026-01-06 08:35:05.76	34.23	51.58	-50.7	-52.1	14.4	0.00e+00	0	26	0	337641472	67	4256
2026-01-06 08:35:06.75	33.59	51.49	-50.6	-52.0	14.5	0.00e+00	0	26	0	340787200	67	4212
2026-01-06 08:35:07.75	32.95	51.40	-50.8	-52.2	14.4	0.00e+00	0	26	0	343932928	67	4301
2026-01-06 08:35:08.73	32.32	51.30	-51.1	-52.6	14.2	0.00e+00	0	26	0	347078656	67	4537
2026-01-06 08:35:09.73	31.69	51.20	-51.4	-52.9	14.1	0.00e+00	0	26	0	350224384	67	4660
2026-01-06 08:35:10.71	31.07	51.10	-51.5	-53.0	14.1	0.00e+00	0	26	0	353370112	68	4448
2026-01-06 08:35:11.70	30.45	51.00	-51.1	-52.6	14.4	0.00e+00	0	26	0	356515840	68	4260
2026-01-06 08:35:12.69	29.84	50.89	-51.1	-52.5	14.4	0.00e+00	0	26	0	359661568	68	4219
2026-01-06 08:35:13.68	29.23	50.78	-51.1	-52.5	14.4	0.00e+00	0	26	0	362807296	68	4219
2026-01-06 08:35:14.67	28.62	50.66	-51.4	-52.9	14.3	0.00e+00	0	26	0	365953024	68	4426
2026-01-06 08:35:15.67	28.01	50.54	-51.8	-53.4	14.1	0.00e+00	0	26	0	369098752	68	4668
2026-01-06 08:35:16.66	27.42	50.42	-52.2	-53.8	13.9	0.00e+00	0	26	0	372244480	69	4636
2026-01-06 08:35:17.66	26.82	50.30	-52.2	-53.9	13.8	0.00e+00	0	26	0	375390208	69	4680
2026-01-06 08:35:18.64	26.24	50.17	-51.9	-53.6	14.0	0.00e+00	0	26	0	378535936	69	4496
2026-01-06 08:35:19.64	25.65	50.04	-51.3	-52.7	14.4	0.00e+00	0	26	0	381681664	69	4093
2026-01-06 08:35:20.64	25.07	49.91	-51.0	-52.5	14.4	0.00e+00	0	26	0	384827392	68	4200
2026-01-06 08:35:21.63	24.50	49.77	-51.5	-53.0	14.2	0.00e+00	0	26	0	387973120	68	4459
2026-01-06 08:35:22.63	23.93	49.63	-52.1	-53.8	14.0	0.00e+00	0	26	0	391118848	69	4607
2026-01-06 08:35:23.63	23.36	49.49	-52.1	-53.8	14.0	0.00e+00	0	26	0	393216000	69	4605
2026-01-06 08:35:24.61	22.81	49.35	-51.9	-53.5	14.1	0.00e+00	0	26	0	396361728	69	4464
2026-01-06 08:35:25.61	22.25	49.20	-51.4	-52.9	14.4	0.00e+00	0	26	0	399507456	69	4151
2026-01-06 08:35:26.61	21.70	49.05	-51.1	-52.5	14.4	0.00e+00	0	26	0	402653184	68	4195
2026-01-06 08:35:27.60	21.16	48.90	-50.9	-52.3	14.5	0.00e+00	0	26	0	405798912	68	4112
2026-01-06 08:35:28.59	20.63	48.75	-51.6	-53.1	14.2	0.00e+00	0	26	0	408944640	68	4541
2026-01-06 08:35:29.59	20.09	48.59	-52.4	-54.1	13.9	0.00e+00	0	26	0	412090368	70	4531
2026-01-06 08:35:30.59	19.56	48.44	-51.9	-53.4	14.2	0.00e+00	0	26	0	415236096	70	4173
2026-01-06 08:35:31.58	19.05	48.28	-50.9	-52.2	14.4	0.00e+00	0	26	0	418381824	68	4088
2026-01-06 08:35:32.57	18.53	48.12	-50.2	-51.5	14.7	0.00e+00	0	26	0	421527552	67	3971
2026-01-06 08:35:33.56	18.03	47.96	-50.3	-51.6	14.5	0.00e+00	0	26	0	424673280	66	4274
2026-01-06 08:35:34.55	17.52	47.79	-50.8	-52.1	14.2	0.00e+00	0	26	0	427819008	66	4532
2026-01-06 08:35:35.55	17.02	47.62	-51.9	-53.5	13.9	0.00e+00	0	26	0	430964736	68	4722
2026-01-06 08:35:36.54	16.53	47.46	-52.8	-54.5	13.6	0.00e+00	0	26	0	434110464	70	4757
2026-01-06 08:35:37.54	16.04	47.29	-52.7	-54.5	13.7	0.00e+00	0	26	0	437256192	70	4717
2026-01-06 08:35:38.52	15.56	47.12	-52.1	-53.7	14.0	0.00e+00	0	26	0	440401920	70	4324
2026-01-06 08:35:39.52	15.08	46.94	-51.4	-52.8	14.4	0.00e+00	0	26	0	443547648	69	4121
2026-01-06 08:35:40.52	14.61	46.77	-50.9	-52.2	14.5	0.00e+00	0	26	0	446693376	68	4089
2026-01-06 08:35:41.51	14.14	46.59	-50.4	-51.7	14.6	0.00e+00	0	26	0	449839104	67	4062
2026-01-06 08:35:42.50	13.68	46.42	-50.7	-52.0	14.5	0.00e+00	0	26	0	452984832	67	4229
2026-01-06 08:35:43.50	13.22	46.24	-52.0	-53.6	14.1	0.00e+00	0	26	0	456130560	69	4500
2026-01-06 08:35:44.49	12.77	46.06	-52.9	-54.8	13.6	0.00e+00	0	26	0	459276288	70	4875
2026-01-06 08:35:45.48	12.33	45.88	-53.0	-54.9	13.6	0.00e+00	0	26	0	462422016	71	4659
2026-01-06 08:35:46.48	11.88	45.70	-52.6	-54.3	13.8	0.00e+00	0	26	0	464519168	71	4356
2026-01-06 08:35:47.47	11.45	45.51	-51.9	-53.4	14.2	0.00e+00	0	26	0	467664896	70	4174
2026-01-06 08:35:48.47	11.02	45.33	-51.6	-53.2	14.3	0.00e+00	0	26	0	470810624	69	4309
2026-01-06 08:35:49.47	10.59	45.14	-51.9	-53.5	14.1	0.00e+00	0	26	0	473956352	69	4470
2026-01-06 08:35:50.47	10.17	44.96	-52.2	-53.9	13.9	0.00e+00	0	26	0	477102080	69	4676
2026-01-06 08:35:51.47	9.75	44.77	-52.8	-54.6	13.6	0.00e+00	0	26	0	480247808	70	4806
2026-01-06 08:35:52.46	9.34	44.58	-53.4	-55.4	13.3	0.00e+00	0	26	0	483393536	71	4970
2026-01-06 08:35:53.46	8.93	44.39	-53.7	-55.9	13.1	0.00e+00	0	26	0	486539264	72	4927
2026-01-06 08:35:54.45	8.53	44.20	-53.0	-54.8	13.7	0.00e+00	0	26	0	489684992	72	4386
2026-01-06 08:35:55.45	8.13	44.01	-52.1	-53.7	14.1	0.00e+00	0	26	0	492830720	70	4314
2026-01-06 08:35:56.43	7.74	43.83	-51.8	-53.4	14.3	0.00e+00	0	26	0	495976448	70	4156
2026-01-06 08:35:57.43	7.36	43.64	-51.4	-52.9	14.4	0.00e+00	0	26	0	499122176	69	4161
2026-01-06 08:35:58.42	6.97	43.45	-51.8	-53.3	14.1	0.00e+00	0	26	0	502267904	69	4365
2026-01-06 08:35:59.42	6.59	43.25	-52.5	-54.2	13.8	0.00e+00	0	26	0	505413632	70	4594
2026-01-06 08:36:00.39	6.23	43.07	-53.5	-55.5	13.3	0.00e+00	0	26	0	508559360	72	4751
2026-01-06 08:36:01.36	5.87	42.88	-53.7	-55.7	13.2	0.00e+00	0	26	0	511705088	72	4864
2026-01-06 08:36:02.35	5.51	42.69	-53.5	-55.5	13.3	0.00e+00	0	26	0	514850816	72	4742
2026-01-06 08:36:03.34	5.15	42.49	-53.3	-55.2	13.5	0.00e+00	0	26	0	517996544	72	4565
2026-01-06 08:36:04.33	4.79	42.30	-52.7	-54.5	13.9	0.00e+00	0	26	0	521142272	72	4195
2026-01-06 08:36:05.33	4.44	42.11	-52.2	-53.8	14.1	0.00e+00	0	26	0	524288000	70	4354
2026-01-06 08:36:06.32	4.09	41.91	-51.3	-52.7	14.5	0.00e+00	0	26	0	527433728	69	4086
2026-01-06 08:36:07.31	3.75	41.72	-50.8	-52.2	14.6	0.00e+00	0	26	0	530579456	68	4068
2026-01-06 08:36:08.30	3.41	41.53	-51.1	-52.5	14.4	0.00e+00	0	26	0	533725184	68	4240
2026-01-06 08:36:09.30	3.08	41.33	-52.0	-53.6	14.0	0.00e+00	0	26	0	536870912	69	4525
2026-01-06 08:36:10.29	2.75	41.14	-52.8	-54.6	13.6	0.00e+00	0	26	0	540016640	70	4811
2026-01-06 08:36:11.28	2.42	40.95	-53.0	-54.8	13.6	0.00e+00	0	26	0	543162368	71	4644
2026-01-06 08:36:12.27	2.10	40.75	-52.7	-54.5	13.8	0.00e+00	0	26	0	545259520	71	4443
2026-01-06 08:36:13.26	1.78	40.56	-52.3	-53.9	14.1	0.00e+00	0	26	0	548405248	71	4189
2026-01-06 08:36:14.25	1.47	40.37	-51.6	-53.0	14.3	0.00e+00	0	26	0	551550976	69	4235
2026-01-06 08:36:15.24	1.16	40.17	-51.0	-52.4	14.5	0.00e+00	0	26	0	554696704	68	4185
2026-01-06 08:36:16.24	0.85	39.98	-50.7	-52.0	14.7	0.00e+00	0	26	0	557842432	68	3996
2026-01-06 08:36:17.23	0.54	39.79	-50.3	-51.6	14.7	0.00e+00	0	26	0	560988160	67	4045
2026-01-06 08:36:18.22	0.25	39.59	-50.3	-51.7	14.7	0.00e+00	0	26	0	564133888	67	4065
2026-01-06 08:36:19.22	359.95	39.40	-50.4	-51.8	14.6	0.00e+00	0	26	0	567279616	67	4108
2026-01-06 08:36:20.21	359.65	39.21	-50.8	-52.2	14.4	0.00e+00	0	26	0	570425344	67	4310
2026-01-06 08:36:21.21	359.36	39.01	-51.4	-52.9	14.1	0.00e+00	0	26	0	573571072	67	4675
2026-01-06 08:36:22.20	359.08	38.82	-52.1	-53.7	14.0	0.00e+00	0	26	0	576716800	69	4574
2026-01-06 08:36:23.20	358.79	38.63	-52.0	-53.6	14.0	0.00e+00	0	26	0	579862528	69	4534
2026-01-06 08:36:24.19	358.51	38.44	-51.7	-53.2	14.2	0.00e+00	0	26	0	583008256	69	4321
2026-01-06 08:36:25.18	358.24	38.24	-51.3	-52.8	14.4	0.00e+00	0	26	0	586153984	69	4126
2026-01-06 08:36:26.16	357.97	38.06	-51.0	-52.4	14.5	0.00e+00	0	26	0	589299712	68	4180
2026-01-06 08:36:27.16	357.70	37.86	-50.8	-52.2	14.6	0.00e+00	0	26	0	592445440	68	4067
2026-01-06 08:36:28.15	357.43	37.67	-51.0	-52.5	14.5	0.00e+00	0	26	0	595591168	68	4205
2026-01-06 08:36:29.15	357.17	37.48	-51.2	-52.6	14.4	0.00e+00	0	26	0	598736896	68	4285
2026-01-06 08:36:30.14	356.91	37.29	-51.3	-52.8	14.3	0.00e+00	0	26	0	601882624	68	4384
2026-01-06 08:36:31.14	356.65	37.10	-51.2	-52.6	14.4	0.00e+00	0	26	0	605028352	68	4282
2026-01-06 08:36:32.13	356.40	36.91	-51.0	-52.4	14.5	0.00e+00	0	26	0	608174080	68	4175
2026-01-06 08:36:33.12	356.14	36.73	-50.5	-51.8	14.6	0.00e+00	0	26	0	610271232	67	4145
2026-01-06 08:36:34.12	355.89	36.54	-50.4	-51.7	14.6	0.00e+00	0	26	0	613416960	67	4082
2026-01-06 08:36:35.11	355.65	36.35	-50.4	-51.7	14.6	0.00e+00	0	26	0	616562688	67	4082
2026-01-06 08:36:36.10	355.41	36.16	-50.5	-51.9	14.6	0.00e+00	0	26	0	619708416	67	4156
2026-01-06 08:36:37.08	355.17	35.98	-50.4	-51.7	14.6	0.00e+00	0	26	0	622854144	67	4083
2026-01-06 08:36:38.07	354.94	35.79	-50.1	-51.4	14.6	0.00e+00	0	26	0	625999872	66	4189
2026-01-06 08:36:39.07	354.70	35.61	-50.1	-51.4	14.6	0.00e+00	0	26	0	629145600	66	4179
2026-01-06 08:36:40.06	354.47	35.42	-50.2	-51.5	14.6	0.00e+00	0	26	0	632291328	66	4232
2026-01-06 08:36:41.05	354.24	35.24	-50.4	-51.7	14.5	0.00e+00	0	26	0	635437056	66	4313
2026-01-06 08:36:42.05	354.01	35.05	-50.7	-52.0	14.3	0.00e+00	0	26	0	638582784	66	4492
2026-01-06 08:36:43.05	353.79	34.87	-51.0	-52.5	14.3	0.00e+00	0	26	0	641728512	67	4443
2026-01-06 08:36:44.05	353.56	34.68	-51.3	-52.8	14.2	0.00e+00	0	26	0	644874240	67	4612
2026-01-06 08:36:45.04	353.35	34.50	-51.2	-52.8	14.2	0.00e+00	0	26	0	648019968	67	4612
2026-01-06 08:36:46.03	353.13	34.32	-50.9	-52.4	14.3	0.00e+00	0	26	0	651165696	67	4409
2026-01-06 08:36:47.02	352.92	34.14	-50.7	-52.1	14.5	0.00e+00	0	26	0	654311424	67	4248
2026-01-06 08:36:48.02	352.70	33.96	-50.4	-51.8	14.6	0.00e+00	0	26	0	657457152	67	4127
2026-01-06 08:36:49.01	352.50	33.78	-50.4	-51.7	14.6	0.00e+00	0	26	0	660602880	67	4085
2026-01-06 08:36:50.00	352.29	33.60	-50.0	-51.3	14.7	0.00e+00	0	26	0	663748608	66	4143
2026-01-06 08:36:51.00	352.08	33.42	-49.9	-51.2	14.7	0.00e+00	0	26	0	666894336	66	4092
2026-01-06 08:36:51.99	351.88	33.24	-50.1	-51.4	14.6	0.00e+00	0	26	0	670040064	66	4176
2026-01-06 08:36:52.99	351.68	33.07	-50.2	-51.6	14.6	0.00e+00	0	26	0	673185792	66	4245
2026-01-06 08:36:53.98	351.48	32.89	-50.3	-51.6	14.6	0.00e+00	0	26	0	676331520	66	4284
2026-01-06 08:36:54.96	351.29	32.72	-50.2	-51.6	14.6	0.00e+00	0	26	0	679477248	66	4255
2026-01-06 08:36:55.95	351.10	32.54	-50.0	-51.3	14.6	0.00e+00	0	26	0	682622976	66	4141
2026-01-06 08:36:56.94	350.91	32.37	-49.7	-51.0	14.8	0.00e+00	0	26	0	685768704	66	4003
2026-01-06 08:36:57.93	350.72	32.19	-49.8	-51.1	14.8	0.00e+00	0	26	0	688914432	66	4022
2026-01-06 08:36:58.93	350.53	32.02	-49.5	-50.8	14.8	0.00e+00	0	26	0	692060160	65	4116
2026-01-06 08:36:59.93	350.34	31.84	-49.5	-50.7	14.8	0.00e+00	0	26	0	694157312	65	4085
2026-01-06 08:37:00.91	350.16	31.67	-49.6	-50.8	14.7	0.00e+00	0	26	0	697303040	65	4140
2026-01-06 08:37:01.90	349.98	31.50	-49.6	-50.9	14.7	0.00e+00	0	26	0	700448768	65	4170
2026-01-06 08:37:02.89	349.80	31.33	-49.7	-51.0	14.7	0.00e+00	0	26	0	703594496	65	4202
2026-01-06 08:37:03.89	349.63	31.16	-49.7	-51.1	14.6	0.00e+00	0	26	0	706740224	65	4247
2026-01-06 08:37:04.88	349.45	30.99	-49.8	-51.1	14.6	0.00e+00	0	26	0	709885952	65	4255
2026-01-06 08:37:05.87	349.28	30.82	-49.9	-51.2	14.6	0.00e+00	0	26	0	713031680	65	4308
2026-01-06 08:37:06.86	349.11	30.66	-49.8	-51.1	14.6	0.00e+00	0	26	0	716177408	65	4290
2026-01-06 08:37:07.84	348.94	30.49	-49.8	-51.1	14.6	0.00e+00	0	26	0	719323136	65	4279
2026-01-06 08:37:08.83	348.77	30.33	-49.8	-51.2	14.6	0.00e+00	0	26	0	722468864	65	4294
2026-01-06 08:37:09.83	348.60	30.16	-49.8	-51.1	14.6	0.00e+00	0	26	0	725614592	65	4279
2026-01-06 08:37:10.82	348.44	29.99	-49.9	-51.2	14.6	0.00e+00	0	26	0	728760320	65	4305
2026-01-06 08:37:11.81	348.28	29.83	-49.8	-51.1	14.6	0.00e+00	0	26	0	731906048	65	4255
2026-01-06 08:37:12.81	348.11	29.66	-49.7	-51.0	14.7	0.00e+00	0	26	0	735051776	65	4240
2026-01-06 08:37:13.80	347.95	29.50	-49.5	-50.7	14.8	0.00e+00	0	26	0	738197504	65	4089
2026-01-06 08:37:14.79	347.80	29.34	-49.3	-50.5	14.8	0.00e+00	0	26	0	741343232	65	4004
2026-01-06 08:37:15.78	347.64	29.18	-49.1	-50.3	14.8	0.00e+00	0	26	0	744488960	64	4136
2026-01-06 08:37:16.76	347.49	29.02	-49.0	-50.3	14.8	0.00e+00	0	26	0	747634688	64	4104
2026-01-06 08:37:17.75	347.33	28.86	-49.0	-50.2	14.8	0.00e+00	0	26	0	750780416	64	4083
2026-01-06 08:37:18.74	347.18	28.70	-49.0	-50.2	14.8	0.00e+00	0	26	0	753926144	64	4068
2026-01-06 08:37:19.74	347.03	28.54	-49.1	-50.3	14.8	0.00e+00	0	26	0	757071872	64	4107
2026-01-06 08:37:20.73	346.88	28.38	-48.9	-50.1	14.9	0.00e+00	0	26	0	759169024	64	4036
2026-01-06 08:37:21.74	346.73	28.22	-48.8	-50.1	14.9	0.00e+00	0	26	0	762314752	64	4009
2026-01-06 08:37:22.74	346.59	28.06	-48.9	-50.2	14.9	0.00e+00	0	26	0	765460480	64	4055
2026-01-06 08:37:23.73	346.44	27.91	-49.0	-50.2	14.9	0.00e+00	0	26	0	768606208	64	4074
2026-01-06 08:37:24.73	346.30	27.75	-49.0	-50.2	14.8	0.00e+00	0	26	0	771751936	64	4087
2026-01-06 08:37:25.73	346.16	27.59	-48.9	-50.1	14.9	0.00e+00	0	26	0	774897664	64	4034
2026-01-06 08:37:26.72	346.02	27.44	-48.9	-50.2	14.8	0.00e+00	0	26	0	778043392	64	4059
2026-01-06 08:37:27.72	345.88	27.28	-48.9	-50.1	14.9	0.00e+00	0	26	0	781189120	64	4045
2026-01-06 08:37:28.71	345.74	27.13	-48.8	-50.0	14.9	0.00e+00	0	26	0	784334848	64	3989
2026-01-06 08:37:29.70	345.61	26.98	-48.8	-50.0	14.9	0.00e+00	0	26	0	787480576	64	4002
2026-01-06 08:37:30.70	345.47	26.83	-48.8	-50.0	14.9	0.00e+00	0	26	0	790626304	64	3969
2026-01-06 08:37:31.69	345.34	26.68	-48.8	-50.0	14.9	0.00e+00	0	26	0	793772032	64	3976
2026-01-06 08:37:32.68	345.21	26.53	-48.8	-50.0	14.9	0.00e+00	0	26	0	796917760	64	3967
2026-01-06 08:37:33.67	345.08	26.38	-48.8	-49.9	14.9	0.00e+00	0	26	0	800063488	64	3957
2026-01-06 08:37:34.66	344.95	26.23	-48.8	-50.1	14.9	0.00e+00	0	26	0	803209216	64	4014
2026-01-06 08:37:35.65	344.82	26.08	-48.7	-50.0	15.0	0.00e+00	0	26	0	806354944	64	3960
2026-01-06 08:37:36.64	344.69	25.93	-48.8	-50.0	15.0	0.00e+00	0	26	0	809500672	64	3960
2026-01-06 08:37:37.64	344.57	25.78	-48.7	-49.9	15.0	0.00e+00	0	26	0	812646400	64	3956
2026-01-06 08:37:38.63	344.44	25.64	-48.8	-50.0	14.9	0.00e+00	0	26	0	815792128	64	3987
2026-01-06 08:37:39.62	344.32	25.49	-48.8	-50.0	14.9	0.00e+00	0	26	0	818937856	64	3983
2026-01-06 08:37:40.62	344.20	25.35	-48.7	-49.9	15.0	0.00e+00	0	26	0	822083584	64	3940
2026-01-06 08:37:41.61	344.08	25.20	-48.7	-49.9	15.0	0.00e+00	0	26	0	825229312	64	3930
2026-01-06 08:37:42.60	343.96	25.06	-48.7	-49.9	15.0	0.00e+00	0	26	0	828375040	64	3957
2026-01-06 08:37:43.60	343.84	24.92	-48.8	-50.0	15.0	0.00e+00	0	26	0	831520768	64	3961
2026-01-06 08:37:44.59	343.72	24.77	-48.6	-49.8	14.9	0.00e+00	0	26	0	834666496	63	4135
2026-01-06 08:37:45.58	343.60	24.63	-48.6	-49.8	14.9	0.00e+00	0	26	0	837812224	63	4133
2026-01-06 08:37:46.57	343.49	24.49	-48.7	-49.8	14.8	0.00e+00	0	26	0	839909376	63	4145
2026-01-06 08:37:47.56	343.37	24.35	-48.4	-49.6	15.0	0.00e+00	0	26	0	843055104	63	4028
2026-01-06 08:37:48.55	343.26	24.21	-48.5	-49.6	15.0	0.00e+00	0	26	0	846200832	63	4040
2026-01-06 08:37:49.55	343.15	24.07	-48.5	-49.7	14.9	0.00e+00	0	26	0	849346560	63	4059
2026-01-06 08:37:50.54	343.04	23.93	-48.6	-49.7	14.9	0.00e+00	0	26	0	852492288	63	4097
2026-01-06 08:37:51.52	342.93	23.80	-48.6	-49.7	14.9	0.00e+00	0	26	0	855638016	63	4095
2026-01-06 08:37:52.52	342.82	23.66	-48.7	-49.9	14.9	0.00e+00	0	26	0	858783744	63	4149
2026-01-06 08:37:53.51	342.71	23.52	-48.7	-49.9	14.8	0.00e+00	0	26	0	861929472	63	4173
2026-01-06 08:37:54.50	342.60	23.38	-48.9	-50.1	14.8	0.00e+00	0	26	0	865075200	63	4255
2026-01-06 08:37:55.49	342.49	23.25	-48.9	-50.2	14.7	0.00e+00	0	26	0	868220928	63	4311
2026-01-06 08:37:56.49	342.39	23.11	-49.1	-50.4	14.7	0.00e+00	0	26	0	871366656	63	4399
2026-01-06 08:37:57.48	342.28	22.98	-49.2	-50.5	14.6	0.00e+00	0	26	0	874512384	63	4457
2026-01-06 08:37:58.47	342.18	22.85	-49.2	-50.5	14.6	0.00e+00	0	26	0	877658112	63	4475
2026-01-06 08:37:59.46	342.08	22.71	-49.4	-50.7	14.6	0.00e+00	0	26	0	880803840	63	4563
2026-01-06 08:38:00.46	341.98	22.58	-49.4	-50.7	14.6	0.00e+00	0	26	0	883949568	64	4329
2026-01-06 08:38:01.44	341.88	22.45	-49.3	-50.6	14.7	0.00e+00	0	26	0	887095296	64	4280
2026-01-06 08:38:02.44	341.78	22.32	-49.4	-50.7	14.6	0.00e+00	0	26	0	890241024	64	4307
2026-01-06 08:38:03.43	341.68	22.18	-49.4	-50.7	14.6	0.00e+00	0	26	0	893386752	64	4328
2026-01-06 08:38:04.42	341.58	22.05	-49.2	-50.4	14.7	0.00e+00	0	26	0	896532480	64	4190
2026-01-06 08:38:05.41	341.48	21.92	-49.1	-50.4	14.7	0.00e+00	0	26	0	899678208	64	4161
2026-01-06 08:38:06.40	341.38	21.80	-49.1	-50.4	14.7	0.00e+00	0	26	0	902823936	64	4160
2026-01-06 08:38:07.39	341.29	21.67	-48.9	-50.1	14.8	0.00e+00	0	26	0	905969664	64	4039
2026-01-06 08:38:08.38	341.19	21.54	-48.7	-49.9	14.9	0.00e+00	0	26	0	908066816	64	3946
2026-01-06 08:38:09.38	341.10	21.41	-48.7	-49.9	14.9	0.00e+00	0	26	0	911212544	64	3950
2026-01-06 08:38:10.38	341.01	21.28	-48.6	-49.7	14.9	0.00e+00	0	26	0	914358272	63	4097
2026-01-06 08:38:11.38	340.91	21.16	-48.6	-49.8	14.8	0.00e+00	0	26	0	917504000	63	4118
2026-01-06 08:38:12.36	340.82	21.03	-48.5	-49.7	14.9	0.00e+00	0	26	0	920649728	63	4079
2026-01-06 08:38:13.35	340.73	20.91	-48.4	-49.6	14.9	0.00e+00	0	26	0	923795456	63	4010
2026-01-06 08:38:14.36	340.64	20.78	-48.3	-49.5	15.0	0.00e+00	0	26	0	926941184	63	3959
2026-01-06 08:38:15.35	340.55	20.66	-48.1	-49.3	14.9	0.00e+00	0	26	0	930086912	62	4105
2026-01-06 08:38:16.34	340.46	20.53	-48.1	-49.2	14.9	0.00e+00	0	26	0	933232640	62	4077
2026-01-06 08:38:17.33	340.37	20.41	-48.1	-49.3	14.9	0.00e+00	0	26	0	936378368	62	4113
2026-01-06 08:38:18.34	340.29	20.28	-48.0	-49.1	15.0	0.00e+00	0	26	0	939524096	62	4044
2026-01-06 08:38:19.32	340.20	20.16	-48.1	-49.2	14.9	0.00e+00	0	26	0	942669824	62	4078
2026-01-06 08:38:20.31	340.11	20.04	-48.1	-49.2	14.9	0.00e+00	0	26	0	945815552	62	4093
2026-01-06 08:38:21.30	340.03	19.92	-48.1	-49.2	14.9	0.00e+00	0	26	0	948961280	62	4078
2026-01-06 08:38:22.29	339.94	19.80	-48.1	-49.2	14.9	0.00e+00	0	26	0	952107008	62	4097
2026-01-06 08:38:23.28	339.86	19.68	-48.1	-49.2	14.9	0.00e+00	0	26	0	955252736	62	4079
2026-01-06 08:38:24.27	339.78	19.56	-48.1	-49.2	14.9	0.00e+00	0	26	0	958398464	62	4095
2026-01-06 08:38:25.27	339.70	19.44	-48.2	-49.3	14.9	0.00e+00	0	26	0	961544192	62	4138
2026-01-06 08:38:26.26	339.61	19.32	-48.2	-49.4	14.9	0.00e+00	0	26	0	964689920	62	4159
2026-01-06 08:38:27.26	339.53	19.20	-48.3	-49.5	14.9	0.00e+00	0	26	0	967835648	62	4215
2026-01-06 08:38:28.25	339.45	19.09	-48.4	-49.6	14.8	0.00e+00	0	26	0	970981376	62	4265
2026-01-06 08:38:29.24	339.37	18.97	-48.5	-49.7	14.8	0.00e+00	0	26	0	974127104	62	4304
2026-01-06 08:38:30.23	339.29	18.85	-48.5	-49.8	14.8	0.00e+00	0	26	0	977272832	62	4341
2026-01-06 08:38:31.22	339.22	18.74	-48.6	-49.8	14.8	0.00e+00	0	26	0	979369984	62	4368
2026-01-06 08:38:32.21	339.14	18.62	-48.7	-49.9	14.7	0.00e+00	0	26	0	982515712	62	4439
2026-01-06 08:38:33.20	339.06	18.51	-48.7	-49.9	14.7	0.00e+00	0	26	0	985661440	62	4419
2026-01-06 08:38:34.20	338.98	18.39	-48.9	-50.1	14.6	0.00e+00	0	26	0	988807168	62	4520
2026-01-06 08:38:35.20	338.91	18.28	-48.8	-50.1	14.6	0.00e+00	0	26	0	991952896	62	4497
2026-01-06 08:38:36.19	338.83	18.16	-48.9	-50.2	14.6	0.00e+00	0	26	0	995098624	62	4546
2026-01-06 08:38:37.18	338.76	18.05	-49.0	-50.3	14.7	0.00e+00	0	26	0	998244352	63	4354
2026-01-06 08:38:38.17	338.68	17.94	-49.1	-50.3	14.6	0.00e+00	0	26	0	1001390080	63	4391
2026-01-06 08:38:39.17	338.61	17.83	-49.1	-50.3	14.6	0.00e+00	0	26	0	1004535808	63	4385
2026-01-06 08:38:40.16	338.54	17.71	-49.2	-50.5	14.6	0.00e+00	0	26	0	1007681536	63	4446
2026-01-06 08:38:41.15	338.46	17.60	-49.2	-50.4	14.6	0.00e+00	0	26	0	1010827264	63	4438
2026-01-06 08:38:42.14	338.39	17.49	-49.3	-50.6	14.6	0.00e+00	0	26	0	1013972992	63	4496
2026-01-06 08:38:43.13	338.32	17.38	-49.3	-50.6	14.5	0.00e+00	0	26	0	1017118720	63	4507
2026-01-06 08:38:44.12	338.25	17.27	-49.3	-50.6	14.5	0.00e+00	0	26	0	1020264448	63	4519
2026-01-06 08:38:45.11	338.18	17.16	-49.3	-50.6	14.5	0.00e+00	0	26	0	1023410176	63	4533
2026-01-06 08:38:46.11	338.11	17.05	-49.3	-50.6	14.5	0.00e+00	0	26	0	1026555904	63	4536
2026-01-06 08:38:47.10	338.04	16.94	-49.4	-50.7	14.6	0.00e+00	0	26	0	1029701632	64	4337
2026-01-06 08:38:48.10	337.97	16.83	-49.4	-50.7	14.6	0.00e+00	0	26	0	1032847360	64	4294
2026-01-06 08:38:49.09	337.90	16.73	-49.6	-50.9	14.5	0.00e+00	0	26	0	1035993088	64	4404
2026-01-06 08:38:50.09	337.83	16.62	-49.5	-50.8	14.5	0.00e+00	0	26	0	1039138816	64	4390
2026-01-06 08:38:51.08	337.77	16.51	-49.4	-50.7	14.6	0.00e+00	0	26	0	1042284544	64	4330
2026-01-06 08:38:52.07	337.70	16.41	-49.5	-50.8	14.5	0.00e+00	0	26	0	1045430272	64	4363
2026-01-06 08:38:53.07	337.63	16.30	-49.5	-50.8	14.5	0.00e+00	0	26	0	1048576000	64	4369
2026-01-06 08:38:54.06	337.57	16.19	-49.6	-50.9	14.5	0.00e+00	0	26	0	1051721728	64	4438
2026-01-06 08:38:55.05	337.50	16.09	-49.4	-50.8	14.5	0.00e+00	0	26	0	1054867456	64	4348
2026-01-06 08:38:56.04	337.44	15.98	-49.5	-50.8	14.5	0.00e+00	0	26	0	1056964608	64	4361
2026-01-06 08:38:57.04	337.37	15.88	-49.6	-50.9	14.5	0.00e+00	0	26	0	1060110336	64	4410
2026-01-06 08:38:58.04	337.31	15.77	-49.5	-50.8	14.5	0.00e+00	0	26	0	1063256064	64	4358
2026-01-06 08:38:59.04	337.25	15.67	-49.5	-50.8	14.5	0.00e+00	0	26	0	1066401792	64	4390
2026-01-06 08:39:00.02	337.18	15.57	-49.6	-50.9	14.5	0.00e+00	0	26	0	1069547520	64	4412
2026-01-06 08:39:01.02	337.12	15.46	-49.5	-50.9	14.5	0.00e+00	0	26	0	1072693248	64	4403
2026-01-06 08:39:02.01	337.06	15.36	-49.5	-50.8	14.6	0.00e+00	0	26	0	1075838976	64	4354
2026-01-06 08:39:03.00	337.00	15.26	-49.4	-50.7	14.6	0.00e+00	0	26	0	1078984704	64	4334
2026-01-06 08:39:04.00	336.94	15.16	-49.5	-50.8	14.5	0.00e+00	0	26	0	1082130432	64	4374
2026-01-06 08:39:05.00	336.88	15.05	-49.4	-50.8	14.6	0.00e+00	0	26	0	1085276160	64	4341
2026-01-06 08:39:05.99	336.82	14.95	-49.5	-50.8	14.5	0.00e+00	0	26	0	1088421888	64	4387
2026-01-06 08:39:06.99	336.75	14.85	-49.5	-50.8	14.6	0.00e+00	0	26	0	1091567616	64	4346
2026-01-06 08:39:07.98	336.70	14.75	-49.4	-50.8	14.6	0.00e+00	0	26	0	1094713344	64	4345
2026-01-06 08:39:08.98	336.64	14.65	-49.4	-50.7	14.6	0.00e+00	0	26	0	1097859072	64	4340
2026-01-06 08:39:09.98	336.58	14.55	-49.5	-50.9	14.5	0.00e+00	0	26	0	1101004800	64	4393
2026-01-06 08:39:10.97	336.52	14.45	-49.4	-50.8	14.6	0.00e+00	0	26	0	1104150528	64	4353
2026-01-06 08:39:11.97	336.46	14.35	-49.6	-50.9	14.5	0.00e+00	0	26	0	1107296256	64	4414
2026-01-06 08:39:12.96	336.40	14.26	-49.4	-50.7	14.6	0.00e+00	0	26	0	1110441984	64	4335
2026-01-06 08:39:13.95	336.35	14.16	-49.5	-50.8	14.5	0.00e+00	0	26	0	1113587712	64	4377
2026-01-06 08:39:14.94	336.29	14.06	-49.5	-50.8	14.5	0.00e+00	0	26	0	1116733440	64	4368
2026-01-06 08:39:15.94	336.23	13.96	-49.5	-50.8	14.5	0.00e+00	0	26	0	1119879168	64	4367
2026-01-06 08:39:16.93	336.18	13.87	-49.6	-50.9	14.5	0.00e+00	0	26	0	1123024896	64	4433
2026-01-06 08:39:17.92	336.12	13.77	-49.4	-50.8	14.6	0.00e+00	0	26	0	1126170624	64	4347
2026-01-06 08:39:18.91	336.07	13.67	-49.4	-50.8	14.6	0.00e+00	0	26	0	1129316352	64	4345
2026-01-06 08:39:19.91	336.01	13.58	-49.5	-50.9	14.5	0.00e+00	0	26	0	1132462080	64	4410
2026-01-06 08:39:20.89	335.96	13.48	-49.5	-50.9	14.5	0.00e+00	0	26	0	1135607808	64	4406
2026-01-06 08:39:21.89	335.91	13.39	-49.5	-50.8	14.5	0.00e+00	0	26	0	1138753536	64	4375
2026-01-06 08:39:22.88	335.85	13.29	-49.6	-50.9	14.5	0.00e+00	0	26	0	1140850688	64	4426
2026-01-06 08:39:23.87	335.80	13.20	-49.5	-50.8	14.5	0.00e+00	0	26	0	1143996416	64	4366
2026-01-06 08:39:24.87	335.75	13.10	-49.6	-50.9	14.5	0.00e+00	0	26	0	1147142144	64	4424
2026-01-06 08:39:25.86	335.70	13.01	-49.6	-51.0	14.5	0.00e+00	0	26	0	1150287872	64	4456
2026-01-06 08:39:26.86	335.64	12.92	-49.5	-50.8	14.5	0.00e+00	0	26	0	1153433600	64	4390
2026-01-06 08:39:27.86	335.59	12.82	-49.5	-50.9	14.5	0.00e+00	0	26	0	1156579328	64	4405
2026-01-06 08:39:28.85	335.54	12.73	-49.6	-50.9	14.5	0.00e+00	0	26	0	1159725056	64	4425
2026-01-06 08:39:29.84	335.49	12.64	-49.6	-50.9	14.5	0.00e+00	0	26	0	1162870784	64	4441
2026-01-06 08:39:30.83	335.44	12.55	-49.5	-50.9	14.5	0.00e+00	0	26	0	1166016512	64	4401
2026-01-06 08:39:31.83	335.39	12.45	-49.7	-51.0	14.4	0.00e+00	0	26	0	1169162240	64	4486
2026-01-06 08:39:32.82	335.34	12.36	-49.6	-51.0	14.5	0.00e+00	0	26	0	1172307968	64	4446
2026-01-06 08:39:33.81	335.29	12.27	-49.6	-51.0	14.4	0.00e+00	0	26	0	1175453696	64	4457
2026-01-06 08:39:34.81	335.24	12.18	-49.7	-51.1	14.4	0.00e+00	0	26	0	1178599424	64	4520
2026-01-06 08:39:35.80	335.19	12.09	-49.7	-51.1	14.4	0.00e+00	0	26	0	1181745152	64	4506
2026-01-06 08:39:36.80	335.14	12.00	-49.6	-51.0	14.5	0.00e+00	0	26	0	1184890880	64	4460
2026-01-06 08:39:37.78	335.09	11.91	-49.6	-51.0	14.4	0.00e+00	0	26	0	1188036608	64	4449
2026-01-06 08:39:38.78	335.05	11.82	-49.7	-51.1	14.4	0.00e+00	0	26	0	1191182336	64	4517
2026-01-06 08:39:39.76	335.00	11.73	-49.8	-51.2	14.4	0.00e+00	0	26	0	1194328064	64	4548
2026-01-06 08:39:40.76	334.95	11.64	-49.6	-51.0	14.4	0.00e+00	0	26	0	1197473792	64	4476
2026-01-06 08:39:41.75	334.90	11.55	-49.7	-51.1	14.4	0.00e+00	0	26	0	1200619520	64	4498
2026-01-06 08:39:42.74	334.86	11.47	-49.8	-51.2	14.4	0.00e+00	0	26	0	1203765248	64	4563
2026-01-06 08:39:43.74	334.81	11.38	-49.8	-51.1	14.4	0.00e+00	0	26	0	1206910976	64	4541
2026-01-06 08:39:44.73	334.76	11.29	-49.6	-51.0	14.4	0.00e+00	0	26	0	1210056704	64	4477
2026-01-06 08:39:45.73	334.72	11.20	-49.8	-51.2	14.4	0.00e+00	0	26	0	1213202432	64	4560
2026-01-06 08:39:46.73	334.67	11.11	-49.8	-51.2	14.3	0.00e+00	0	26	0	1216348160	64	4591
2026-01-06 08:39:47.72	334.63	11.03	-50.1	-51.5	14.3	0.00e+00	0	26	0	1218445312	65	4480
2026-01-06 08:39:48.72	334.58	10.94	-49.9	-51.3	14.4	0.00e+00	0	26	0	1221591040	65	4351
2026-01-06 08:39:49.70	334.54	10.85	-49.8	-51.2	14.4	0.00e+00	0	26	0	1224736768	65	4332
2026-01-06 08:39:50.69	334.49	10.77	-50.0	-51.4	14.4	0.00e+00	0	26	0	1227882496	65	4425
2026-01-06 08:39:51.68	334.45	10.68	-49.9	-51.4	14.4	0.00e+00	0	26	0	1231028224	65	4396
2026-01-06 08:39:52.68	334.41	10.60	-49.9	-51.3	14.4	0.00e+00	0	26	0	1234173952	65	4389
2026-01-06 08:39:53.66	334.36	10.51	-50.1	-51.5	14.3	0.00e+00	0	26	0	1237319680	65	4489
2026-01-06 08:39:54.65	334.32	10.43	-50.2	-51.6	14.3	0.00e+00	0	26	0	1240465408	65	4519
2026-01-06 08:39:55.64	334.28	10.34	-50.2	-51.6	14.3	0.00e+00	0	26	0	1243611136	65	4526
2026-01-06 08:39:56.63	334.23	10.26	-50.1	-51.5	14.3	0.00e+00	0	26	0	1246756864	65	4487
2026-01-06 08:39:57.62	334.19	10.18	-50.1	-51.6	14.3	0.00e+00	0	26	0	1249902592	65	4496
2026-01-06 08:39:58.61	334.15	10.09	-50.2	-51.7	14.2	0.00e+00	0	26	0	1253048320	65	4549
2026-01-06 08:39:59.61	334.11	10.01	-50.2	-51.7	14.2	0.00e+00	0	26	0	1256194048	65	4575
2026-01-06 08:40:00.62	334.07	9.92	-50.2	-51.7	14.2	0.00e+00	0	26	0	1259339776	65	4555
2026-01-06 08:40:01.62	334.02	9.84	-50.3	-51.8	14.1	0.00e+00	0	26	0	1262485504	65	4648
2026-01-06 08:40:02.61	333.98	9.76	-50.3	-51.8	14.1	0.00e+00	0	26	0	1265631232	65	4643
2026-01-06 08:40:03.61	333.94	9.67	-50.3	-51.8	14.1	0.00e+00	0	26	0	1268776960	65	4640
2026-01-06 08:40:04.59	333.90	9.59	-50.1	-51.6	14.3	0.00e+00	0	26	0	1271922688	65	4513
2026-01-06 08:40:05.59	333.86	9.51	-50.2	-51.7	14.2	0.00e+00	0	26	0	1275068416	65	4582
2026-01-06 08:40:06.59	333.82	9.43	-50.4	-51.9	14.1	0.00e+00	0	26	0	1278214144	65	4653
2026-01-06 08:40:07.59	333.78	9.34	-50.4	-52.0	14.2	0.00e+00	0	26	0	1281359872	66	4447
2026-01-06 08:40:08.58	333.74	9.26	-50.3	-51.7	14.3	0.00e+00	0	26	0	1284505600	66	4330
2026-01-06 08:40:09.57	333.70	9.18	-50.5	-52.0	14.2	0.00e+00	0	26	0	1287651328	66	4464
2026-01-06 08:40:10.57	333.66	9.10	-50.5	-52.1	14.1	0.00e+00	0	26	0	1290797056	66	4501
2026-01-06 08:40:11.56	333.62	9.02	-50.5	-52.0	14.2	0.00e+00	0	26	0	1292894208	66	4471
2026-01-06 08:40:12.56	333.58	8.94	-50.7	-52.3	14.0	0.00e+00	0	26	0	1296039936	66	4609
2026-01-06 08:40:13.55	333.55	8.86	-50.5	-52.0	14.2	0.00e+00	0	26	0	1299185664	66	4460
2026-01-06 08:40:14.54	333.51	8.78	-50.6	-52.2	14.1	0.00e+00	0	26	0	1302331392	66	4560
2026-01-06 08:40:15.54	333.47	8.70	-50.5	-52.0	14.1	0.00e+00	0	26	0	1305477120	66	4486
2026-01-06 08:40:16.54	333.43	8.62	-50.8	-52.3	14.0	0.00e+00	0	26	0	1308622848	66	4651
2026-01-06 08:40:17.52	333.39	8.54	-50.6	-52.2	14.0	0.00e+00	0	26	0	1311768576	66	4568
2026-01-06 08:40:18.51	333.36	8.46	-50.8	-52.4	14.0	0.00e+00	0	26	0	1314914304	66	4658
2026-01-06 08:40:19.49	333.32	8.39	-50.7	-52.3	14.0	0.00e+00	0	26	0	1318060032	66	4639
2026-01-06 08:40:20.49	333.28	8.31	-50.7	-52.3	14.1	0.00e+00	0	26	0	1321205760	67	4354
2026-01-06 08:40:21.48	333.25	8.23	-50.6	-52.2	14.2	0.00e+00	0	26	0	1324351488	67	4305
2026-01-06 08:40:22.48	333.21	8.15	-50.8	-52.4	14.1	0.00e+00	0	26	0	1327497216	67	4408
2026-01-06 08:40:23.48	333.17	8.07	-51.0	-52.7	13.9	0.00e+00	0	26	0	1330642944	67	4548
2026-01-06 08:40:24.47	333.14	8.00	-50.9	-52.5	14.0	0.00e+00	0	26	0	1333788672	67	4464
2026-01-06 08:40:25.48	333.10	7.92	-50.7	-52.3	14.1	0.00e+00	0	26	0	1336934400	67	4351
2026-01-06 08:40:26.47	333.07	7.84	-50.9	-52.5	14.0	0.00e+00	0	26	0	1340080128	67	4477
2026-01-06 08:40:27.47	333.03	7.76	-51.0	-52.6	13.9	0.00e+00	0	26	0	1343225856	67	4518
2026-01-06 08:40:28.45	333.00	7.69	-50.9	-52.6	14.0	0.00e+00	0	26	0	1346371584	67	4497
2026-01-06 08:40:29.45	332.96	7.61	-50.8	-52.4	14.0	0.00e+00	0	26	0	1349517312	67	4436
2026-01-06 08:40:30.43	332.93	7.54	-51.0	-52.6	13.9	0.00e+00	0	26	0	1352663040	67	4515
2026-01-06 08:40:31.43	332.89	7.46	-50.9	-52.5	14.0	0.00e+00	0	26	0	1355808768	67	4474
2026-01-06 08:40:32.42	332.86	7.38	-51.0	-52.6	13.9	0.00e+00	0	26	0	1358954496	67	4514
2026-01-06 08:40:33.41	332.82	7.31	-51.3	-53.0	13.7	0.00e+00	0	26	0	1362100224	67	4739
2026-01-06 08:40:34.41	332.79	7.23	-51.2	-52.9	13.7	0.00e+00	0	26	0	1365245952	67	4676
2026-01-06 08:40:35.39	332.76	7.16	-51.0	-52.7	13.9	0.00e+00	0	26	0	1368391680	67	4569
2026-01-06 08:40:36.38	332.72	7.08	-51.3	-53.1	13.7	0.00e+00	0	26	0	1371537408	67	4770
2026-01-06 08:40:37.38	332.69	7.01	-51.0	-52.7	13.9	0.00e+00	0	26	0	1374683136	67	4557
2026-01-06 08:40:38.37	332.66	6.93	-51.6	-53.3	13.7	0.00e+00	0	26	0	1376780288	68	4650
2026-01-06 08:40:39.37	332.62	6.86	-51.2	-52.9	14.0	0.00e+00	0	26	0	1379926016	68	4401
2026-01-06 08:40:40.35	332.59	6.79	-51.3	-53.0	13.8	0.00e+00	0	26	0	1383071744	68	4491
2026-01-06 08:40:41.35	332.56	6.71	-51.7	-53.5	13.6	0.00e+00	0	26	0	1386217472	68	4718
2026-01-06 08:40:42.34	332.52	6.64	-51.3	-53.0	13.9	0.00e+00	0	26	0	1389363200	68	4458
2026-01-06 08:40:43.33	332.49	6.56	-51.9	-53.8	13.5	0.00e+00	0	26	0	1392508928	69	4636
2026-01-06 08:40:44.33	332.46	6.49	-51.6	-53.3	13.8	0.00e+00	0	26	0	1395654656	69	4380
2026-01-06 08:40:45.31	332.43	6.42	-51.7	-53.5	13.7	0.00e+00	0	26	0	1398800384	69	4458
2026-01-06 08:40:46.31	332.40	6.35	-51.7	-53.6	13.7	0.00e+00	0	26	0	1401946112	69	4505
2026-01-06 08:40:47.30	332.37	6.27	-51.7	-53.5	13.7	0.00e+00	0	26	0	1405091840	69	4444
2026-01-06 08:40:48.29	332.33	6.20	-51.9	-53.8	13.5	0.00e+00	0	26	0	1408237568	69	4606
2026-01-06 08:40:49.29	332.30	6.13	-51.8	-53.7	13.6	0.00e+00	0	26	0	1411383296	69	4566
2026-01-06 08:40:50.29	332.27	6.05	-51.7	-53.5	13.7	0.00e+00	0	26	0	1414529024	69	4466
2026-01-06 08:40:51.29	332.24	5.98	-51.8	-53.6	13.6	0.00e+00	0	26	0	1417674752	69	4517
2026-01-06 08:40:52.28	332.21	5.91	-52.0	-54.0	13.4	0.00e+00	0	26	0	1420820480	69	4726
2026-01-06 08:40:53.27	332.18	5.84	-51.7	-53.6	13.6	0.00e+00	0	26	0	1423966208	69	4512
2026-01-06 08:40:54.27	332.15	5.77	-52.0	-53.9	13.4	0.00e+00	0	26	0	1427111936	69	4694
2026-01-06 08:40:55.26	332.12	5.70	-51.9	-53.7	13.5	0.00e+00	0	26	0	1430257664	69	4597
2026-01-06 08:40:56.25	332.09	5.63	-51.9	-53.8	13.5	0.00e+00	0	26	0	1433403392	69	4628
2026-01-06 08:40:57.24	332.06	5.56	-52.0	-54.0	13.4	0.00e+00	0	26	0	1436549120	69	4706
2026-01-06 08:40:58.24	332.03	5.48	-52.1	-54.1	13.3	0.00e+00	0	26	0	1439694848	69	4787
2026-01-06 08:40:59.22	332.00	5.41	-52.2	-54.2	13.2	0.00e+00	0	26	0	1442840576	69	4823
2026-01-06 08:41:00.22	331.97	5.34	-52.1	-54.1	13.3	0.00e+00	0	26	0	1444937728	69	4766
2026-01-06 08:41:01.21	331.94	5.27	-52.2	-54.2	13.2	0.00e+00	0	26	0	1448083456	69	4829
2026-01-06 08:41:02.21	331.91	5.20	-52.4	-54.4	13.1	0.00e+00	0	26	0	1451229184	69	4975
2026-01-06 08:41:03.20	331.88	5.13	-52.0	-54.0	13.3	0.00e+00	0	26	0	1454374912	69	4719
2026-01-06 08:41:04.20	331.86	5.06	-52.2	-54.2	13.2	0.00e+00	0	26	0	1457520640	69	4820
2026-01-06 08:41:05.19	331.83	4.99	-52.4	-54.5	13.0	0.00e+00	0	26	0	1460666368	69	4990
2026-01-06 08:41:06.17	331.80	4.93	-58.2	-70.5	3.8	9.63e-01	0	26	104	1463812096	81	15767
2026-01-06 08:41:07.17	331.77	4.86	-58.8	-72.6	3.8	1.49e+00	0	26	104	1463812096	82	19013
2026-01-06 08:41:08.16	331.74	4.79	-59.1	-72.9	3.8	1.49e+00	0	26	104	1463812096	83	18651
2026-01-06 08:41:09.15	331.71	4.72	-59.3	-73.1	3.8	1.49e+00	0	26	104	1463812096	83	19133
2026-01-06 08:41:10.14	331.69	4.65	-59.6	-73.4	3.8	1.49e+00	0	26	104	1463812096	84	18723
2026-01-06 08:41:11.14	331.66	4.58	-59.8	-73.6	3.8	1.49e+00	0	26	104	1463812096	84	19084
2026-01-06 08:41:12.14	331.63	4.51	-59.9	-73.8	3.8	1.49e+00	0	26	104	1463812096	84	19401
2026-01-06 08:41:13.14	331.60	4.45	-60.0	-73.8	3.8	1.49e+00	0	26	104	1463812096	85	18511
2026-01-06 08:41:14.14	331.58	4.38	-60.1	-73.9	3.8	1.49e+00	0	26	104	1463812096	85	18651
2026-01-06 08:41:15.13	331.55	4.31	-60.1	-73.9	3.8	1.49e+00	0	26	104	1463812096	85	18725
2026-01-06 08:41:16.12	331.52	4.24	-60.1	-74.0	3.8	1.49e+00	0	26	104	1463812096	85	18743
2026-01-06 08:41:17.11	331.50	4.17	-60.2	-74.1	3.8	1.49e+00	0	26	104	1463812096	85	18950
2026-01-06 08:41:18.10	331.47	4.11	-60.2	-74.1	3.8	1.49e+00	0	26	104	1463812096	85	18961
2026-01-06 08:41:19.10	331.44	4.04	-60.2	-74.1	3.8	1.49e+00	0	26	104	1463812096	85	19048
2026-01-06 08:41:20.09	331.42	3.97	-60.3	-74.1	3.8	1.49e+00	0	26	104	1463812096	85	19121
2026-01-06 08:41:21.09	331.39	3.91	-60.3	-74.1	3.8	1.49e+00	0	26	104	1463812096	85	19119
2026-01-06 08:41:22.08	331.36	3.84	-60.3	-74.2	3.8	1.49e+00	0	26	104	1463812096	85	19174
2026-01-06 08:41:23.08	331.34	3.77	-60.3	-74.2	3.8	1.49e+00	0	26	104	1463812096	85	19176
2026-01-06 08:41:24.08	331.31	3.71	-60.4	-74.2	3.8	1.49e+00	0	26	104	1463812096	85	19336
2026-01-06 08:41:25.07	331.29	3.64	-60.4	-74.2	3.8	1.49e+00	0	26	104	1463812096	85	19380
2026-01-06 08:41:26.06	331.26	3.57	-60.4	-74.2	3.8	1.49e+00	0	26	104	1463812096	85	19336
2026-01-06 08:41:27.06	331.24	3.51	-60.4	-74.3	3.8	1.49e+00	0	26	104	1463812096	85	19408
2026-01-06 08:41:28.05	331.21	3.44	-60.3	-74.2	3.8	1.49e+00	0	26	104	1463812096	85	19239
2026-01-06 08:41:29.05	331.19	3.38	-60.3	-74.2	3.8	1.49e+00	0	26	104	1463812096	85	19239
2026-01-06 08:41:30.05	331.16	3.31	-60.3	-74.2	3.8	1.49e+00	0	26	104	1463812096	85	19199
2026-01-06 08:41:31.05	331.13	3.25	-60.3	-74.2	3.8	1.49e+00	0	26	104	1463812096	85	19208
2026-01-06 08:41:32.05	331.11	3.18	-60.3	-74.1	3.8	1.49e+00	0	26	104	1463812096	85	19139
2026-01-06 08:41:33.03	331.09	3.12	-60.3	-74.2	3.8	1.49e+00	0	26	104	1463812096	85	19177
2026-01-06 08:41:34.03	331.06	3.05	-60.3	-74.1	3.8	1.49e+00	0	26	104	1463812096	85	19161
2026-01-06 08:41:35.02	331.04	2.99	-60.3	-74.1	3.8	1.49e+00	0	26	104	1463812096	85	19104
2026-01-06 08:41:36.02	331.01	2.92	-60.3	-74.1	3.8	1.49e+00	0	26	104	1463812096	85	19088
2026-01-06 08:41:37.01	330.99	2.86	-60.3	-74.1	3.8	1.49e+00	0	26	104	1463812096	85	19096
2026-01-06 08:41:38.00	330.96	2.79	-60.2	-74.1	3.8	1.49e+00	0	26	104	1463812096	85	19077
2026-01-06 08:41:38.99	330.94	2.73	-60.2	-74.1	3.8	1.49e+00	0	26	104	1463812096	85	19101
2026-01-06 08:41:39.98	330.92	2.66	-60.2	-74.0	3.8	1.49e+00	0	26	104	1463812096	85	18944
2026-01-06 08:41:40.98	330.89	2.60	-60.2	-74.1	3.8	1.49e+00	0	26	104	1463812096	85	19036
2026-01-06 08:41:41.98	330.87	2.54	-60.2	-74.1	3.8	1.49e+00	0	26	104	1463812096	85	19055
2026-01-06 08:41:42.97	330.85	2.47	-60.2	-74.1	3.8	1.49e+00	0	26	104	1463812096	85	19043
2026-01-06 08:41:43.97	330.82	2.41	-60.2	-74.1	3.8	1.49e+00	0	26	104	1463812096	85	19033
2026-01-06 08:41:44.96	330.80	2.35	-60.2	-74.1	3.8	1.49e+00	0	26	104	1463812096	85	19061
2026-01-06 08:41:45.95	330.78	2.28	-60.2	-74.1	3.8	1.49e+00	0	26	104	1463812096	85	19026
2026-01-06 08:41:46.95	330.75	2.22	-60.2	-74.1	3.8	1.49e+00	0	26	104	1463812096	85	19033
2026-01-06 08:41:47.95	330.73	2.16	-60.2	-74.0	3.8	1.49e+00	0	26	104	1463812096	85	18937
2026-01-06 08:41:48.95	330.71	2.09	-60.2	-74.1	3.8	1.49e+00	0	26	104	1463812096	85	19017
2026-01-06 08:41:49.94	330.69	2.03	-60.2	-74.1	3.8	1.49e+00	0	26	104	1463812096	85	18975
2026-01-06 08:41:50.93	330.66	1.97	-60.2	-74.1	3.8	1.49e+00	0	26	104	1463812096	85	18966
2026-01-06 08:41:51.92	330.64	1.91	-60.2	-74.1	3.8	1.49e+00	0	26	104	1463812096	85	18950

#Closed at: 2026-01-06 08:41:52
#Recorded file [1463 MB]: D:/lorett/data/31004_260106_113225.dat