passes_logs/2026/01/06/R3.2S_Murmansk/R3.2S_Murmansk__20260106_081919_FENGYUN_3D_rec.log

#Pass ID: 20260106_081919_FENGYUN 3D
#Satellite: FENGYUN 3D
#Configuration: FENGYUN 3D
#almurnet v.1.7.20251203
#Start time: 2026-01-06 08:19:19

#Version: 2.2.20231116
#Station: R3.2S_Murmansk
#Location: 33.079688 lon 68.888172 lat
#TLE: 1 43010U 17072A   26005.48915933 -.00000051  00000+0 -21983-5 0  9995
#TLE: 2 43010  98.9919 337.1582 0002001 124.6377 235.4988 14.19691925421909

#Time	Az	El	Level	Level2	SNR	BER	BlckErr	Temp	State	Recorded	gain1	gain2
2026-01-06 08:19:19.67	81.43	2.00	-57.8	-70.8	3.8	8.45e-01	0	24	0	0	82	15559
2026-01-06 08:19:20.65	81.37	2.05	-57.7	-70.7	3.8	8.46e-01	0	24	104	0	80	17274
2026-01-06 08:19:21.65	81.31	2.11	-57.7	-70.7	3.8	8.46e-01	0	24	104	0	80	17265
2026-01-06 08:19:22.64	81.25	2.17	-57.7	-70.7	3.8	8.45e-01	0	24	104	0	80	17216
2026-01-06 08:19:23.64	81.20	2.23	-57.7	-70.7	3.8	8.45e-01	0	24	104	0	80	17266
2026-01-06 08:19:24.63	81.14	2.29	-57.7	-70.7	3.8	8.46e-01	0	24	104	0	80	17219
2026-01-06 08:19:25.62	81.08	2.34	-57.7	-70.7	3.8	8.46e-01	0	24	104	0	80	17187
2026-01-06 08:19:26.61	81.02	2.40	-57.7	-70.7	3.8	8.45e-01	0	24	104	0	80	17262
2026-01-06 08:19:27.60	80.96	2.46	-57.7	-70.7	3.8	8.45e-01	0	24	104	0	80	17106
2026-01-06 08:19:28.59	80.90	2.52	-57.7	-70.7	3.8	8.47e-01	0	24	104	0	80	17257
2026-01-06 08:19:29.60	80.84	2.58	-57.7	-70.7	3.8	8.45e-01	0	24	104	0	80	17134
2026-01-06 08:19:30.59	80.78	2.64	-57.7	-70.7	3.8	8.46e-01	0	24	104	0	80	17208
2026-01-06 08:19:31.59	80.72	2.70	-57.7	-70.7	3.8	8.45e-01	0	24	104	0	80	17256
2026-01-06 08:19:32.59	80.66	2.75	-57.7	-70.8	3.8	8.45e-01	0	24	104	0	80	17291
2026-01-06 08:19:33.57	80.60	2.81	-57.7	-70.7	3.8	8.45e-01	0	24	104	0	80	17270
2026-01-06 08:19:34.57	80.54	2.87	-57.7	-70.7	3.8	8.45e-01	0	24	104	0	80	17279
2026-01-06 08:19:35.56	80.48	2.93	-57.7	-70.8	3.8	8.45e-01	0	25	104	0	80	17284
2026-01-06 08:19:36.56	80.42	2.99	-57.7	-70.7	3.8	8.44e-01	0	25	104	0	80	17179
2026-01-06 08:19:37.56	80.36	3.05	-57.7	-70.6	3.8	8.44e-01	0	24	104	0	80	17030
2026-01-06 08:19:38.55	80.30	3.11	-57.7	-70.6	3.8	8.45e-01	0	25	104	0	80	17039
2026-01-06 08:19:39.54	80.23	3.17	-57.7	-70.6	3.8	8.46e-01	0	24	104	0	80	17004
2026-01-06 08:19:40.53	80.17	3.23	-57.7	-70.6	3.8	8.48e-01	0	25	104	0	80	17018
2026-01-06 08:19:41.52	80.11	3.29	-57.7	-70.7	3.8	8.46e-01	0	25	104	0	80	17146
2026-01-06 08:19:42.51	80.05	3.35	-57.7	-70.7	3.8	8.46e-01	0	25	104	0	80	17229
2026-01-06 08:19:43.50	79.98	3.41	-57.7	-70.8	3.8	8.44e-01	0	25	104	0	80	17294
2026-01-06 08:19:44.49	79.92	3.47	-57.7	-70.7	3.8	8.45e-01	0	25	104	0	80	17219
2026-01-06 08:19:45.48	79.86	3.53	-57.7	-70.6	3.8	8.45e-01	0	25	104	0	80	17083
2026-01-06 08:19:46.47	79.79	3.59	-57.7	-70.6	3.8	8.45e-01	0	25	104	0	80	16919
2026-01-06 08:19:47.47	79.73	3.65	-57.7	-70.4	3.8	8.45e-01	0	25	104	0	80	16671
2026-01-06 08:19:48.46	79.66	3.71	-57.7	-70.5	3.8	8.46e-01	0	25	104	0	80	16696
2026-01-06 08:19:49.45	79.60	3.77	-57.7	-70.5	3.8	8.45e-01	0	25	104	0	80	16857
2026-01-06 08:19:50.45	79.53	3.83	-57.7	-70.7	3.8	8.46e-01	0	25	104	0	80	17137
2026-01-06 08:19:51.44	79.47	3.89	-57.7	-70.7	3.8	8.46e-01	0	25	104	0	80	17230
2026-01-06 08:19:52.44	79.40	3.95	-57.7	-70.7	3.8	8.46e-01	0	25	104	0	80	17216
2026-01-06 08:19:53.43	79.34	4.01	-57.7	-70.4	3.8	8.47e-01	0	25	104	0	80	16518
2026-01-06 08:19:54.43	79.27	4.07	-57.7	-69.9	3.8	8.45e-01	0	25	104	0	80	15649
2026-01-06 08:19:55.42	79.20	4.13	-57.6	-69.0	3.8	8.46e-01	0	25	104	0	80	14181
2026-01-06 08:19:56.41	79.14	4.19	-57.5	-68.1	3.9	8.43e-01	0	25	104	0	80	12741
2026-01-06 08:19:57.41	79.07	4.26	-57.4	-66.7	4.3	8.33e-01	0	25	0	0	80	10793
2026-01-06 08:19:58.41	79.00	4.32	-57.2	-65.5	4.8	8.09e-01	0	25	0	0	80	9398
2026-01-06 08:19:59.40	78.94	4.38	-57.1	-64.9	5.1	7.59e-01	0	25	0	0	80	8782
2026-01-06 08:20:00.40	78.87	4.44	-56.8	-63.6	5.9	4.32e-01	0	25	0	2097152	80	7586
2026-01-06 08:20:01.39	78.80	4.50	-56.5	-62.4	6.7	1.90e-01	0	25	0	7340032	79	7007
2026-01-06 08:20:02.39	78.73	4.56	-56.3	-61.8	7.2	1.02e-01	0	25	0	13631488	79	6543
2026-01-06 08:20:03.38	78.66	4.63	-55.4	-59.7	9.0	3.00e-02	0	25	0	18874368	77	5750
2026-01-06 08:20:04.38	78.59	4.69	-55.5	-59.7	9.0	1.64e-02	0	25	0	25165824	77	5783
2026-01-06 08:20:05.37	78.52	4.75	-55.0	-58.8	9.7	6.57e-03	0	25	0	30408704	76	5524
2026-01-06 08:20:06.36	78.45	4.81	-54.9	-58.6	9.9	2.80e-03	0	25	0	35651584	76	5367
2026-01-06 08:20:07.36	78.38	4.87	-54.9	-58.6	9.9	4.63e-03	0	25	0	40894464	76	5356
2026-01-06 08:20:08.35	78.31	4.94	-55.1	-59.1	9.5	3.57e-03	0	25	0	47185920	76	5691
2026-01-06 08:20:09.34	78.24	5.00	-55.2	-59.2	9.4	7.47e-03	0	25	0	52428800	76	5768
2026-01-06 08:20:10.33	78.17	5.06	-55.0	-58.7	9.8	6.07e-03	0	25	0	57671680	76	5458
2026-01-06 08:20:11.33	78.10	5.12	-54.1	-57.2	10.9	1.68e-04	0	25	0	63963136	74	5153
2026-01-06 08:20:12.32	78.03	5.19	-54.8	-58.4	10.0	5.72e-03	0	25	0	69206016	75	5547
2026-01-06 08:20:13.31	77.96	5.25	-56.3	-62.0	6.9	2.73e-01	0	25	0	74448896	78	7062
2026-01-06 08:20:14.30	77.88	5.31	-52.2	-54.4	12.7	0.00e+00	0	25	0	80740352	69	4977
2026-01-06 08:20:15.30	77.81	5.38	-56.6	-62.8	6.3	6.72e-01	0	25	0	83886080	79	7365
2026-01-06 08:20:16.29	77.74	5.44	-50.8	-52.6	13.8	0.00e+00	0	25	0	90177536	68	4262
2026-01-06 08:20:17.28	77.66	5.50	-50.7	-52.6	13.6	0.00e+00	0	25	0	95420416	67	4501
2026-01-06 08:20:18.27	77.59	5.57	-50.5	-52.3	13.8	0.00e+00	0	25	0	100663296	67	4379
2026-01-06 08:20:19.27	77.52	5.63	-49.9	-51.6	14.1	0.00e+00	0	25	0	106954752	66	4290
2026-01-06 08:20:20.26	77.44	5.69	-50.2	-51.9	13.9	0.00e+00	0	25	0	112197632	66	4419
2026-01-06 08:20:21.26	77.37	5.76	-50.0	-51.7	14.0	0.00e+00	0	25	0	117440512	66	4306
2026-01-06 08:20:22.25	77.29	5.82	-50.0	-51.7	14.0	0.00e+00	0	25	0	123731968	66	4294
2026-01-06 08:20:23.23	77.22	5.88	-50.0	-51.7	14.0	0.00e+00	0	25	0	128974848	66	4323
2026-01-06 08:20:24.22	77.14	5.95	-49.9	-51.5	14.1	0.00e+00	0	25	0	134217728	66	4241
2026-01-06 08:20:25.20	77.07	6.01	-49.9	-51.5	14.1	0.00e+00	0	26	0	139460608	66	4226
2026-01-06 08:20:26.19	76.99	6.08	-49.8	-51.5	14.1	0.00e+00	0	25	0	145752064	66	4210
2026-01-06 08:20:27.19	76.91	6.14	-49.5	-51.1	14.2	0.00e+00	0	25	0	150994944	65	4266
2026-01-06 08:20:28.18	76.84	6.20	-49.8	-51.5	14.0	0.00e+00	0	25	0	157286400	65	4456
2026-01-06 08:20:29.17	76.76	6.27	-49.6	-51.3	14.2	0.00e+00	0	25	0	162529280	65	4341
2026-01-06 08:20:30.16	76.68	6.33	-49.7	-51.4	14.1	0.00e+00	0	25	0	167772160	65	4415
2026-01-06 08:20:31.14	76.61	6.40	-49.8	-51.5	14.0	0.00e+00	0	25	0	173015040	65	4493
2026-01-06 08:20:32.13	76.53	6.46	-49.5	-51.1	14.2	0.00e+00	0	25	0	179306496	65	4290
2026-01-06 08:20:33.12	76.45	6.53	-49.6	-51.3	14.2	0.00e+00	0	25	0	184549376	65	4362
2026-01-06 08:20:34.12	76.37	6.59	-49.4	-51.0	14.3	0.00e+00	0	25	0	190840832	65	4241
2026-01-06 08:20:35.11	76.29	6.66	-49.5	-51.2	14.2	0.00e+00	0	25	0	196083712	65	4293
2026-01-06 08:20:36.11	76.21	6.72	-49.6	-51.2	14.2	0.00e+00	0	25	0	201326592	65	4324
2026-01-06 08:20:37.10	76.13	6.79	-49.4	-51.0	14.3	0.00e+00	0	26	0	206569472	65	4227
2026-01-06 08:20:38.08	76.05	6.85	-49.4	-51.0	14.3	0.00e+00	0	26	0	212860928	65	4208
2026-01-06 08:20:39.08	75.97	6.92	-49.2	-50.8	14.3	0.00e+00	0	26	0	218103808	64	4379
2026-01-06 08:20:40.07	75.89	6.99	-49.4	-51.0	14.2	0.00e+00	0	25	0	223346688	64	4446
2026-01-06 08:20:41.07	75.80	7.05	-49.2	-50.8	14.3	0.00e+00	0	26	0	229638144	64	4363
2026-01-06 08:20:42.06	75.72	7.12	-49.4	-51.0	14.2	0.00e+00	0	25	0	234881024	64	4456
2026-01-06 08:20:43.05	75.64	7.18	-49.3	-50.9	14.2	0.00e+00	0	26	0	240123904	64	4424
2026-01-06 08:20:44.04	75.56	7.25	-49.1	-50.6	14.4	0.00e+00	0	25	0	246415360	64	4288
2026-01-06 08:20:45.03	75.47	7.32	-48.9	-50.4	14.5	0.00e+00	0	26	0	251658240	64	4173
2026-01-06 08:20:46.02	75.39	7.38	-48.9	-50.4	14.5	0.00e+00	0	26	0	256901120	64	4189
2026-01-06 08:20:47.01	75.31	7.45	-49.1	-50.7	14.4	0.00e+00	0	25	0	262144000	64	4296
2026-01-06 08:20:48.00	75.22	7.52	-49.1	-50.7	14.4	0.00e+00	0	26	0	268435456	64	4298
2026-01-06 08:20:48.99	75.14	7.58	-49.0	-50.5	14.5	0.00e+00	0	25	0	273678336	64	4210
2026-01-06 08:20:49.98	75.05	7.65	-49.2	-50.8	14.3	0.00e+00	0	26	0	279969792	64	4349
2026-01-06 08:20:50.98	74.96	7.72	-49.0	-50.6	14.4	0.00e+00	0	26	0	285212672	64	4264
2026-01-06 08:20:51.97	74.88	7.78	-49.0	-50.5	14.4	0.00e+00	0	26	0	290455552	64	4236
2026-01-06 08:20:52.96	74.79	7.85	-49.0	-50.5	14.5	0.00e+00	0	26	0	295698432	64	4216
2026-01-06 08:20:53.96	74.70	7.92	-49.1	-50.6	14.4	0.00e+00	0	25	0	301989888	64	4283
2026-01-06 08:20:54.95	74.62	7.99	-48.7	-50.2	14.6	0.00e+00	0	25	0	307232768	64	4083
2026-01-06 08:20:55.94	74.53	8.05	-48.9	-50.4	14.5	0.00e+00	0	26	0	312475648	64	4162
2026-01-06 08:20:56.93	74.44	8.12	-48.9	-50.4	14.5	0.00e+00	0	26	0	318767104	64	4167
2026-01-06 08:20:57.93	74.35	8.19	-48.9	-50.4	14.5	0.00e+00	0	26	0	324009984	64	4190
2026-01-06 08:20:58.93	74.26	8.26	-48.9	-50.5	14.5	0.00e+00	0	26	0	330301440	64	4196
2026-01-06 08:20:59.91	74.17	8.33	-48.8	-50.3	14.6	0.00e+00	0	26	0	335544320	64	4105
2026-01-06 08:21:00.91	74.08	8.39	-48.8	-50.3	14.6	0.00e+00	0	26	0	340787200	64	4144
2026-01-06 08:21:01.90	73.99	8.46	-48.8	-50.4	14.6	0.00e+00	0	26	0	346030080	64	4149
2026-01-06 08:21:02.89	73.90	8.53	-48.8	-50.3	14.6	0.00e+00	0	26	0	352321536	64	4103
2026-01-06 08:21:03.89	73.81	8.60	-48.8	-50.3	14.6	0.00e+00	0	26	0	357564416	64	4144
2026-01-06 08:21:04.89	73.72	8.67	-48.7	-50.2	14.6	0.00e+00	0	26	0	362807296	64	4090
2026-01-06 08:21:05.89	73.62	8.74	-48.8	-50.3	14.5	0.00e+00	0	26	0	369098752	63	4354
2026-01-06 08:21:06.88	73.53	8.81	-48.8	-50.3	14.5	0.00e+00	0	26	0	374341632	63	4361
2026-01-06 08:21:07.87	73.44	8.88	-48.6	-50.1	14.6	0.00e+00	0	26	0	380633088	63	4253
2026-01-06 08:21:08.87	73.34	8.95	-48.6	-50.1	14.6	0.00e+00	0	26	0	385875968	63	4262
2026-01-06 08:21:09.86	73.25	9.01	-48.6	-50.1	14.6	0.00e+00	0	26	0	391118848	63	4271
2026-01-06 08:21:10.85	73.16	9.08	-48.8	-50.1	14.6	0.00e+00	0	26	0	396361728	63	4278
2026-01-06 08:21:11.85	73.06	9.15	-48.6	-50.0	14.7	0.00e+00	0	26	0	402653184	63	4198
2026-01-06 08:21:12.84	72.97	9.22	-48.6	-49.9	14.7	0.00e+00	0	26	0	407896064	63	4174
2026-01-06 08:21:13.84	72.87	9.29	-48.5	-49.8	14.7	0.00e+00	0	26	0	413138944	63	4134
2026-01-06 08:21:14.82	72.77	9.36	-48.5	-49.8	14.7	0.00e+00	0	26	0	419430400	63	4120
2026-01-06 08:21:15.82	72.68	9.43	-48.5	-49.8	14.7	0.00e+00	0	26	0	424673280	63	4112
2026-01-06 08:21:16.81	72.58	9.50	-48.6	-49.9	14.7	0.00e+00	0	26	0	429916160	63	4159
2026-01-06 08:21:17.80	72.48	9.57	-48.6	-49.9	14.7	0.00e+00	0	25	0	436207616	63	4156
2026-01-06 08:21:18.79	72.38	9.64	-48.4	-49.7	14.8	0.00e+00	0	26	0	441450496	63	4065
2026-01-06 08:21:19.78	72.28	9.71	-48.6	-49.9	14.7	0.00e+00	0	26	0	446693376	63	4174
2026-01-06 08:21:20.77	72.19	9.78	-48.6	-49.9	14.7	0.00e+00	0	26	0	452984832	63	4152
2026-01-06 08:21:21.77	72.08	9.85	-48.5	-49.8	14.7	0.00e+00	0	26	0	458227712	63	4142
2026-01-06 08:21:22.76	71.98	9.93	-48.6	-49.9	14.7	0.00e+00	0	26	0	463470592	63	4193
2026-01-06 08:21:23.75	71.88	10.00	-48.5	-49.8	14.8	0.00e+00	0	26	0	469762048	63	4113
2026-01-06 08:21:24.75	71.78	10.07	-48.4	-49.7	14.8	0.00e+00	0	26	0	475004928	63	4055
2026-01-06 08:21:25.74	71.68	10.14	-48.4	-49.7	14.8	0.00e+00	0	26	0	480247808	63	4086
2026-01-06 08:21:26.73	71.58	10.21	-48.4	-49.7	14.8	0.00e+00	0	26	0	486539264	63	4073
2026-01-06 08:21:27.72	71.48	10.28	-48.3	-49.6	14.9	0.00e+00	0	26	0	491782144	63	4028
2026-01-06 08:21:28.71	71.37	10.35	-48.3	-49.6	14.8	0.00e+00	0	26	0	497025024	63	4034
2026-01-06 08:21:29.70	71.27	10.42	-48.5	-49.8	14.8	0.00e+00	0	26	0	502267904	63	4103
2026-01-06 08:21:30.69	71.16	10.49	-48.4	-49.7	14.8	0.00e+00	0	26	0	508559360	63	4089
2026-01-06 08:21:31.69	71.06	10.57	-48.3	-49.6	14.9	0.00e+00	0	26	0	513802240	63	4009
2026-01-06 08:21:32.67	70.95	10.64	-48.4	-49.7	14.8	0.00e+00	0	26	0	520093696	63	4065
2026-01-06 08:21:33.66	70.85	10.71	-48.5	-49.8	14.8	0.00e+00	0	26	0	525336576	63	4099
2026-01-06 08:21:34.65	70.74	10.78	-48.5	-49.8	14.7	0.00e+00	0	26	0	530579456	63	4138
2026-01-06 08:21:35.65	70.63	10.85	-48.5	-49.8	14.7	0.00e+00	0	26	0	535822336	63	4145
2026-01-06 08:21:36.64	70.53	10.93	-48.5	-49.8	14.7	0.00e+00	0	26	0	542113792	63	4131
2026-01-06 08:21:37.63	70.42	11.00	-48.4	-49.7	14.8	0.00e+00	0	26	0	547356672	63	4070
2026-01-06 08:21:38.62	70.31	11.07	-48.5	-49.8	14.7	0.00e+00	0	26	0	553648128	63	4128
2026-01-06 08:21:39.62	70.20	11.14	-48.6	-49.9	14.7	0.00e+00	0	26	0	558891008	63	4175
2026-01-06 08:21:40.62	70.09	11.22	-48.5	-49.8	14.8	0.00e+00	0	26	0	564133888	63	4108
2026-01-06 08:21:41.61	69.98	11.29	-48.2	-49.5	14.9	0.00e+00	0	26	0	569376768	63	3984
2026-01-06 08:21:42.60	69.87	11.36	-48.2	-49.5	14.9	0.00e+00	0	26	0	575668224	63	3989
2026-01-06 08:21:43.59	69.76	11.44	-48.2	-49.5	14.9	0.00e+00	0	26	0	580911104	63	3980
2026-01-06 08:21:44.58	69.65	11.51	-48.3	-49.5	14.9	0.00e+00	0	26	0	586153984	63	4003
2026-01-06 08:21:45.57	69.53	11.58	-48.3	-49.5	14.9	0.00e+00	0	26	0	592445440	63	3997
2026-01-06 08:21:46.57	69.42	11.66	-48.3	-49.6	14.9	0.00e+00	0	26	0	597688320	63	4009
2026-01-06 08:21:47.56	69.31	11.73	-48.2	-49.5	15.0	0.00e+00	0	26	0	602931200	63	3960
2026-01-06 08:21:48.55	69.19	11.80	-48.2	-49.4	14.9	0.00e+00	0	26	0	609222656	63	3957
2026-01-06 08:21:49.54	69.08	11.88	-48.2	-49.5	14.7	0.00e+00	0	26	0	614465536	62	4222
2026-01-06 08:21:50.54	68.96	11.95	-48.2	-49.5	14.8	0.00e+00	0	26	0	619708416	62	4201
2026-01-06 08:21:51.53	68.84	12.03	-48.2	-49.5	14.8	0.00e+00	0	26	0	625999872	62	4216
2026-01-06 08:21:52.52	68.73	12.10	-48.1	-49.4	14.8	0.00e+00	0	26	0	631242752	62	4159
2026-01-06 08:21:53.52	68.61	12.17	-48.1	-49.4	14.8	0.00e+00	0	26	0	636485632	62	4177
2026-01-06 08:21:54.52	68.49	12.25	-48.0	-49.2	14.9	0.00e+00	0	26	0	642777088	62	4090
2026-01-06 08:21:55.51	68.37	12.32	-47.9	-49.1	14.9	0.00e+00	0	26	0	648019968	62	4045
2026-01-06 08:21:56.50	68.25	12.40	-47.9	-49.1	14.9	0.00e+00	0	26	0	653262848	62	4046
2026-01-06 08:21:57.50	68.13	12.47	-47.9	-49.1	15.0	0.00e+00	0	26	0	659554304	62	4036
2026-01-06 08:21:58.48	68.01	12.55	-47.8	-49.0	15.0	0.00e+00	0	26	0	664797184	62	3984
2026-01-06 08:21:59.47	67.89	12.62	-47.9	-49.2	14.9	0.00e+00	0	26	0	670040064	62	4062
2026-01-06 08:22:00.47	67.77	12.70	-47.6	-48.8	14.9	0.00e+00	0	26	0	676331520	61	4134
2026-01-06 08:22:01.46	67.65	12.77	-47.6	-48.8	14.9	0.00e+00	0	26	0	681574400	61	4133
2026-01-06 08:22:02.45	67.52	12.85	-47.5	-48.8	15.0	0.00e+00	0	26	0	686817280	61	4104
2026-01-06 08:22:03.45	67.40	12.92	-47.5	-48.7	15.0	0.00e+00	0	26	0	693108736	61	4083
2026-01-06 08:22:04.44	67.28	13.00	-47.6	-48.8	14.9	0.00e+00	0	26	0	698351616	61	4111
2026-01-06 08:22:05.43	67.15	13.07	-47.6	-48.8	14.9	0.00e+00	0	26	0	703594496	61	4113
2026-01-06 08:22:06.41	67.03	13.15	-47.5	-48.7	15.0	0.00e+00	0	26	0	708837376	61	4092
2026-01-06 08:22:07.40	66.90	13.22	-47.5	-48.7	15.0	0.00e+00	0	26	0	715128832	61	4072
2026-01-06 08:22:08.39	66.77	13.30	-47.7	-48.9	14.9	0.00e+00	0	26	0	720371712	61	4166
2026-01-06 08:22:09.38	66.65	13.37	-47.5	-48.7	15.0	0.00e+00	0	26	0	725614592	61	4055
2026-01-06 08:22:10.37	66.52	13.45	-47.5	-48.6	15.0	0.00e+00	0	26	0	731906048	61	4047
2026-01-06 08:22:11.36	66.39	13.53	-47.6	-48.8	14.9	0.00e+00	0	26	0	737148928	61	4122
2026-01-06 08:22:12.35	66.26	13.60	-47.5	-48.6	15.0	0.00e+00	0	26	0	742391808	61	4050
2026-01-06 08:22:13.35	66.13	13.68	-47.5	-48.7	15.0	0.00e+00	0	26	0	748683264	61	4096
2026-01-06 08:22:14.34	66.00	13.75	-47.4	-48.6	15.0	0.00e+00	0	26	0	753926144	61	4029
2026-01-06 08:22:15.34	65.87	13.83	-47.4	-48.6	15.1	0.00e+00	0	26	0	759169024	61	4018
2026-01-06 08:22:16.33	65.73	13.91	-47.5	-48.7	15.0	0.00e+00	0	26	0	765460480	61	4055
2026-01-06 08:22:17.32	65.60	13.98	-47.3	-48.5	15.1	0.00e+00	0	26	0	770703360	61	3983
2026-01-06 08:22:18.31	65.47	14.06	-47.4	-48.6	15.1	0.00e+00	0	26	0	775946240	61	4005
2026-01-06 08:22:19.30	65.33	14.14	-47.5	-48.7	15.0	0.00e+00	0	26	0	782237696	61	4058
2026-01-06 08:22:20.29	65.20	14.21	-47.3	-48.5	15.1	0.00e+00	0	26	0	787480576	61	3972
2026-01-06 08:22:21.29	65.06	14.29	-47.3	-48.5	15.1	0.00e+00	0	26	0	792723456	61	3975
2026-01-06 08:22:22.27	64.93	14.37	-47.2	-48.4	15.1	0.00e+00	0	26	0	799014912	61	3937
2026-01-06 08:22:23.27	64.79	14.44	-47.2	-48.4	15.2	0.00e+00	0	26	0	804257792	61	3921
2026-01-06 08:22:24.26	64.65	14.52	-47.1	-48.3	15.0	0.00e+00	0	26	0	809500672	60	4119
2026-01-06 08:22:25.25	64.51	14.60	-47.1	-48.3	15.0	0.00e+00	0	26	0	814743552	60	4138
2026-01-06 08:22:26.24	64.37	14.67	-47.1	-48.3	15.0	0.00e+00	0	26	0	821035008	60	4131
2026-01-06 08:22:27.24	64.23	14.75	-47.2	-48.4	15.0	0.00e+00	0	26	0	826277888	60	4166
2026-01-06 08:22:28.24	64.09	14.83	-47.2	-48.4	15.0	0.00e+00	0	26	0	832569344	60	4179
2026-01-06 08:22:29.23	63.95	14.91	-47.1	-48.3	15.0	0.00e+00	0	26	0	837812224	60	4131
2026-01-06 08:22:30.22	63.81	14.99	-47.1	-48.2	15.0	0.00e+00	0	26	0	843055104	60	4083
2026-01-06 08:22:31.21	63.66	15.06	-47.1	-48.2	15.0	0.00e+00	0	26	0	848297984	60	4094
2026-01-06 08:22:32.21	63.52	15.14	-47.0	-48.2	15.0	0.00e+00	0	26	0	854589440	60	4070
2026-01-06 08:22:33.19	63.37	15.22	-47.1	-48.2	15.0	0.00e+00	0	26	0	859832320	60	4095
2026-01-06 08:22:34.19	63.23	15.30	-47.1	-48.2	15.0	0.00e+00	0	26	0	866123776	60	4093
2026-01-06 08:22:35.18	63.08	15.37	-47.1	-48.3	15.0	0.00e+00	0	26	0	871366656	60	4133
2026-01-06 08:22:36.17	62.93	15.45	-47.2	-48.4	15.0	0.00e+00	0	26	0	876609536	60	4148
2026-01-06 08:22:37.17	62.79	15.53	-47.0	-48.2	15.1	0.00e+00	0	26	0	882900992	60	4062
2026-01-06 08:22:38.15	62.64	15.61	-47.0	-48.2	15.1	0.00e+00	0	26	0	888143872	60	4058
2026-01-06 08:22:39.14	62.49	15.68	-46.9	-48.0	15.1	0.00e+00	0	26	0	893386752	60	3986
2026-01-06 08:22:40.13	62.34	15.76	-46.9	-48.0	15.1	0.00e+00	0	26	0	898629632	60	3991
2026-01-06 08:22:41.13	62.19	15.84	-46.8	-48.0	15.2	0.00e+00	0	26	0	904921088	60	3962
2026-01-06 08:22:42.12	62.04	15.92	-46.8	-47.9	15.2	0.00e+00	0	26	0	910163968	60	3942
2026-01-06 08:22:43.11	61.88	16.00	-46.7	-47.9	15.2	0.00e+00	0	26	0	915406848	60	3921
2026-01-06 08:22:44.10	61.73	16.07	-46.7	-47.9	15.2	0.00e+00	0	26	0	921698304	60	3915
2026-01-06 08:22:45.10	61.57	16.15	-47.0	-48.2	15.0	0.00e+00	0	26	0	926941184	59	4313
2026-01-06 08:22:46.09	61.42	16.23	-47.0	-48.2	15.0	0.00e+00	0	26	0	932184064	59	4296
2026-01-06 08:22:47.08	61.26	16.31	-47.0	-48.2	15.0	0.00e+00	0	26	0	938475520	59	4315
2026-01-06 08:22:48.07	61.11	16.39	-47.0	-48.2	15.0	0.00e+00	0	26	0	943718400	59	4305
2026-01-06 08:22:49.06	60.95	16.47	-47.1	-48.3	15.0	0.00e+00	0	26	0	948961280	59	4343
2026-01-06 08:22:50.05	60.79	16.54	-47.1	-48.3	15.0	0.00e+00	0	26	0	955252736	59	4365
2026-01-06 08:22:51.04	60.63	16.62	-47.0	-48.2	15.0	0.00e+00	0	26	0	960495616	59	4309
2026-01-06 08:22:52.03	60.47	16.70	-47.1	-48.3	14.9	0.00e+00	0	26	0	965738496	59	4362
2026-01-06 08:22:53.03	60.31	16.78	-47.1	-48.2	14.9	0.00e+00	0	26	0	972029952	59	4335
2026-01-06 08:22:54.02	60.15	16.86	-47.0	-48.1	15.0	0.00e+00	0	26	0	977272832	59	4281
2026-01-06 08:22:55.03	59.98	16.94	-47.0	-48.2	15.0	0.00e+00	0	26	0	982515712	59	4302
2026-01-06 08:22:56.02	59.82	17.02	-46.9	-48.0	15.0	0.00e+00	0	26	0	988807168	59	4241
2026-01-06 08:22:57.02	59.65	17.10	-46.8	-48.0	15.0	0.00e+00	0	26	0	994050048	59	4217
2026-01-06 08:22:58.01	59.49	17.17	-46.9	-48.1	15.0	0.00e+00	0	26	0	999292928	59	4247
2026-01-06 08:22:59.01	59.32	17.25	-46.9	-48.0	15.0	0.00e+00	0	26	0	1005584384	59	4235
2026-01-06 08:23:00.01	59.15	17.33	-47.0	-48.2	15.0	0.00e+00	0	26	0	1010827264	59	4296
2026-01-06 08:23:00.99	58.99	17.41	-47.0	-48.1	15.0	0.00e+00	0	26	0	1016070144	59	4280
2026-01-06 08:23:01.99	58.82	17.49	-47.1	-48.2	15.0	0.00e+00	0	26	0	1022361600	59	4334
2026-01-06 08:23:02.98	58.65	17.57	-47.0	-48.2	15.0	0.00e+00	0	26	0	1027604480	59	4296
2026-01-06 08:23:03.96	58.48	17.65	-47.1	-48.3	15.0	0.00e+00	0	26	0	1032847360	59	4343
2026-01-06 08:23:04.96	58.31	17.72	-46.9	-48.1	15.0	0.00e+00	0	26	0	1038090240	59	4271
2026-01-06 08:23:05.95	58.13	17.80	-46.9	-48.0	15.0	0.00e+00	0	26	0	1044381696	59	4240
2026-01-06 08:23:06.94	57.96	17.88	-46.8	-48.0	15.1	0.00e+00	0	26	0	1049624576	59	4223
2026-01-06 08:23:07.94	57.79	17.96	-46.8	-48.0	15.1	0.00e+00	0	26	0	1055916032	59	4206
2026-01-06 08:23:08.93	57.61	18.04	-46.7	-47.9	15.1	0.00e+00	0	26	0	1061158912	59	4153
2026-01-06 08:23:09.92	57.43	18.12	-46.7	-47.8	15.1	0.00e+00	0	26	0	1066401792	59	4136
2026-01-06 08:23:10.91	57.26	18.19	-46.7	-47.9	15.1	0.00e+00	0	26	0	1071644672	59	4149
2026-01-06 08:23:11.90	57.08	18.27	-46.7	-47.8	15.1	0.00e+00	0	26	0	1077936128	59	4137
2026-01-06 08:23:12.89	56.90	18.35	-46.8	-47.9	15.1	0.00e+00	0	26	0	1083179008	59	4186
2026-01-06 08:23:13.89	56.72	18.43	-46.6	-47.7	15.2	0.00e+00	0	26	0	1088421888	59	4087
2026-01-06 08:23:14.88	56.54	18.51	-46.6	-47.7	15.2	0.00e+00	0	26	0	1094713344	59	4074
2026-01-06 08:23:15.87	56.36	18.59	-46.6	-47.8	15.1	0.00e+00	0	26	0	1099956224	59	4120
2026-01-06 08:23:16.86	56.18	18.66	-46.4	-47.6	15.2	0.00e+00	0	26	0	1105199104	59	4008
2026-01-06 08:23:17.86	55.99	18.74	-46.4	-47.6	15.2	0.00e+00	0	26	0	1111490560	59	4012
2026-01-06 08:23:18.85	55.81	18.82	-46.5	-47.6	15.2	0.00e+00	0	26	0	1116733440	59	4046
2026-01-06 08:23:19.83	55.62	18.90	-46.5	-47.7	15.2	0.00e+00	0	26	0	1121976320	59	4053
2026-01-06 08:23:20.82	55.44	18.97	-46.5	-47.6	15.2	0.00e+00	0	26	0	1128267776	59	4051
2026-01-06 08:23:21.82	55.25	19.05	-46.6	-47.7	15.2	0.00e+00	0	26	0	1133510656	59	4076
2026-01-06 08:23:22.82	55.06	19.13	-46.6	-47.7	15.2	0.00e+00	0	26	0	1138753536	59	4084
2026-01-06 08:23:23.81	54.87	19.21	-46.6	-47.8	15.1	0.00e+00	0	26	0	1145044992	59	4112
2026-01-06 08:23:24.81	54.68	19.29	-46.6	-47.8	15.1	0.00e+00	0	26	0	1150287872	59	4107
2026-01-06 08:23:25.80	54.49	19.36	-46.5	-47.7	15.2	0.00e+00	0	26	0	1155530752	59	4054
2026-01-06 08:23:26.79	54.29	19.44	-46.6	-47.7	15.1	0.00e+00	0	26	0	1161822208	59	4089
2026-01-06 08:23:27.79	54.10	19.52	-46.5	-47.7	15.2	0.00e+00	0	26	0	1167065088	59	4066
2026-01-06 08:23:28.78	53.91	19.60	-46.3	-47.5	15.3	0.00e+00	0	26	0	1172307968	59	3971
2026-01-06 08:23:29.78	53.71	19.67	-46.5	-47.6	15.2	0.00e+00	0	26	0	1178599424	59	4022
2026-01-06 08:23:30.76	53.51	19.75	-46.4	-47.5	15.3	0.00e+00	0	26	0	1183842304	59	3974
2026-01-06 08:23:31.76	53.32	19.83	-46.4	-47.5	15.2	0.00e+00	0	26	0	1189085184	59	4004
2026-01-06 08:23:32.75	53.12	19.90	-46.4	-47.5	15.3	0.00e+00	0	26	0	1195376640	59	3973
2026-01-06 08:23:33.74	52.92	19.98	-46.4	-47.5	15.2	0.00e+00	0	26	0	1200619520	59	3995
2026-01-06 08:23:34.72	52.72	20.05	-46.3	-47.4	15.3	0.00e+00	0	26	0	1205862400	59	3948
2026-01-06 08:23:35.72	52.52	20.13	-46.1	-47.2	15.2	0.00e+00	0	26	0	1212153856	58	4090
2026-01-06 08:23:36.71	52.32	20.21	-46.1	-47.3	15.2	0.00e+00	0	26	0	1217396736	58	4100
2026-01-06 08:23:37.71	52.11	20.28	-46.1	-47.2	15.2	0.00e+00	0	26	0	1222639616	58	4072
2026-01-06 08:23:38.70	51.91	20.36	-46.1	-47.2	15.2	0.00e+00	0	26	0	1228931072	58	4085
2026-01-06 08:23:39.69	51.70	20.43	-46.1	-47.2	15.2	0.00e+00	0	26	0	1234173952	58	4072
2026-01-06 08:23:40.69	51.49	20.51	-46.0	-47.1	15.2	0.00e+00	0	26	0	1239416832	58	4026
2026-01-06 08:23:41.68	51.29	20.59	-46.1	-47.2	15.2	0.00e+00	0	26	0	1245708288	58	4063
2026-01-06 08:23:42.67	51.08	20.66	-45.9	-47.0	15.3	0.00e+00	0	26	0	1250951168	58	3986
2026-01-06 08:23:43.67	50.87	20.74	-45.9	-47.0	15.3	0.00e+00	0	26	0	1256194048	58	3962
2026-01-06 08:23:44.66	50.66	20.81	-45.8	-46.9	15.3	0.00e+00	0	26	0	1261436928	58	3928
2026-01-06 08:23:45.65	50.44	20.88	-45.8	-46.9	15.3	0.00e+00	0	26	0	1267728384	58	3955
2026-01-06 08:23:46.64	50.23	20.96	-45.8	-46.9	15.3	0.00e+00	0	26	0	1272971264	58	3958
2026-01-06 08:23:47.64	50.02	21.03	-46.0	-47.1	15.3	0.00e+00	0	26	0	1279262720	58	4014
2026-01-06 08:23:48.63	49.80	21.11	-45.9	-47.0	15.3	0.00e+00	0	26	0	1284505600	58	3975
2026-01-06 08:23:49.63	49.59	21.18	-45.9	-47.0	15.3	0.00e+00	0	26	0	1289748480	58	3993
2026-01-06 08:23:50.62	49.37	21.25	-45.9	-47.0	15.3	0.00e+00	0	26	0	1296039936	58	3969
2026-01-06 08:23:51.61	49.15	21.33	-46.0	-47.1	15.3	0.00e+00	0	26	0	1301282816	58	4028
2026-01-06 08:23:52.60	48.93	21.40	-46.0	-47.1	15.2	0.00e+00	0	26	0	1306525696	58	4045
2026-01-06 08:23:53.59	48.71	21.47	-46.0	-47.1	15.2	0.00e+00	0	26	0	1311768576	58	4030
2026-01-06 08:23:54.58	48.49	21.55	-46.0	-47.0	15.3	0.00e+00	0	26	0	1318060032	58	4001
2026-01-06 08:23:55.57	48.27	21.62	-46.0	-47.2	15.2	0.00e+00	0	26	0	1323302912	58	4054
2026-01-06 08:23:56.57	48.05	21.69	-46.1	-47.2	15.2	0.00e+00	0	26	0	1329594368	58	4070
2026-01-06 08:23:57.56	47.82	21.76	-46.0	-47.1	15.2	0.00e+00	0	26	0	1334837248	58	4034
2026-01-06 08:23:58.55	47.60	21.83	-46.0	-47.1	15.3	0.00e+00	0	26	0	1340080128	58	4017
2026-01-06 08:23:59.55	47.37	21.90	-45.9	-47.1	15.3	0.00e+00	0	26	0	1345323008	58	4007
2026-01-06 08:24:00.55	47.14	21.98	-46.0	-47.1	15.2	0.00e+00	0	26	0	1351614464	58	4046
2026-01-06 08:24:01.53	46.92	22.05	-45.9	-47.0	15.3	0.00e+00	0	26	0	1356857344	58	3976
2026-01-06 08:24:02.52	46.69	22.12	-45.8	-46.9	15.3	0.00e+00	0	26	0	1362100224	58	3921
2026-01-06 08:24:03.51	46.46	22.19	-45.7	-46.8	15.4	0.00e+00	0	26	0	1368391680	58	3884
2026-01-06 08:24:04.51	46.22	22.26	-45.7	-46.8	15.3	0.00e+00	0	26	0	1373634560	58	3903
2026-01-06 08:24:05.51	45.99	22.33	-45.8	-46.9	15.3	0.00e+00	0	26	0	1378877440	58	3917
2026-01-06 08:24:06.50	45.76	22.39	-45.9	-47.0	15.3	0.00e+00	0	26	0	1385168896	58	3985
2026-01-06 08:24:07.50	45.52	22.46	-46.0	-47.1	15.2	0.00e+00	0	26	0	1390411776	58	4051
2026-01-06 08:24:08.49	45.28	22.53	-45.9	-47.0	15.3	0.00e+00	0	26	0	1395654656	58	3993
2026-01-06 08:24:09.48	45.05	22.60	-45.9	-47.0	15.3	0.00e+00	0	26	0	1401946112	58	4002
2026-01-06 08:24:10.47	44.81	22.67	-45.9	-47.0	15.3	0.00e+00	0	26	0	1407188992	58	3976
2026-01-06 08:24:11.47	44.57	22.74	-45.7	-46.8	15.4	0.00e+00	0	26	0	1412431872	58	3898
2026-01-06 08:24:12.46	44.33	22.80	-45.6	-46.7	15.2	0.00e+00	0	26	0	1418723328	57	4066
2026-01-06 08:24:13.46	44.09	22.87	-45.5	-46.6	15.3	0.00e+00	0	26	0	1423966208	57	4029
2026-01-06 08:24:14.44	43.85	22.93	-45.6	-46.7	15.2	0.00e+00	0	26	0	1429209088	57	4055
2026-01-06 08:24:15.44	43.60	23.00	-45.6	-46.7	15.2	0.00e+00	0	26	0	1435500544	57	4078
2026-01-06 08:24:16.44	43.36	23.07	-45.6	-46.7	15.2	0.00e+00	0	26	0	1440743424	57	4089
2026-01-06 08:24:17.42	43.11	23.13	-45.7	-46.8	15.2	0.00e+00	0	26	0	1445986304	57	4116
2026-01-06 08:24:18.41	42.87	23.20	-45.6	-46.7	15.3	0.00e+00	0	26	0	1451229184	57	4079
2026-01-06 08:24:19.41	42.62	23.26	-45.7	-46.8	15.2	0.00e+00	0	26	0	1457520640	57	4108
2026-01-06 08:24:20.40	42.37	23.32	-45.6	-46.7	15.2	0.00e+00	0	26	0	1462763520	57	4076
2026-01-06 08:24:21.39	42.12	23.39	-45.6	-46.7	15.3	0.00e+00	0	26	0	1469054976	57	4066
2026-01-06 08:24:22.38	41.87	23.45	-45.7	-46.7	15.2	0.00e+00	0	26	0	1474297856	57	4098
2026-01-06 08:24:23.38	41.62	23.51	-45.8	-46.9	15.2	0.00e+00	0	26	0	1479540736	57	4149
2026-01-06 08:24:24.37	41.37	23.58	-45.4	-46.5	15.3	0.00e+00	0	26	0	1485832192	57	3993
2026-01-06 08:24:25.38	41.11	23.64	-45.4	-46.5	15.3	0.00e+00	0	26	0	1491075072	57	3961
2026-01-06 08:24:26.37	40.86	23.70	-45.3	-46.4	15.4	0.00e+00	0	26	0	1496317952	57	3921
2026-01-06 08:24:27.35	40.61	23.76	-45.3	-46.4	15.4	0.00e+00	0	26	0	1501560832	57	3941
2026-01-06 08:24:28.35	40.35	23.82	-45.4	-46.5	15.3	0.00e+00	0	26	0	1507852288	57	3974
2026-01-06 08:24:29.34	40.09	23.88	-45.4	-46.5	15.3	0.00e+00	0	26	0	1513095168	57	3968
2026-01-06 08:24:30.33	39.83	23.94	-45.4	-46.5	15.3	0.00e+00	0	26	0	1519386624	57	3974
2026-01-06 08:24:31.33	39.57	24.00	-45.4	-46.5	15.3	0.00e+00	0	26	0	1524629504	57	3964
2026-01-06 08:24:32.32	39.31	24.06	-45.5	-46.5	15.3	0.00e+00	0	26	0	1529872384	57	3996
2026-01-06 08:24:33.31	39.05	24.11	-45.4	-46.5	15.3	0.00e+00	0	26	0	1535115264	57	3993
2026-01-06 08:24:34.29	38.79	24.17	-45.5	-46.6	15.3	0.00e+00	0	26	0	1541406720	57	4018
2026-01-06 08:24:35.28	38.53	24.23	-45.6	-46.6	15.3	0.00e+00	0	26	0	1546649600	57	4051
2026-01-06 08:24:36.27	38.27	24.28	-45.5	-46.6	15.3	0.00e+00	0	26	0	1552941056	57	4027
2026-01-06 08:24:37.26	38.00	24.34	-45.4	-46.5	15.3	0.00e+00	0	26	0	1558183936	57	3995
2026-01-06 08:24:38.26	37.73	24.39	-45.4	-46.5	15.3	0.00e+00	0	26	0	1563426816	57	3985
2026-01-06 08:24:39.25	37.47	24.45	-45.2	-46.3	15.4	0.00e+00	0	26	0	1568669696	57	3883
2026-01-06 08:24:40.24	37.20	24.50	-45.1	-46.2	15.3	0.00e+00	0	26	0	1574961152	56	4057
2026-01-06 08:24:41.24	36.93	24.55	-45.2	-46.3	15.3	0.00e+00	0	26	0	1580204032	56	4112
2026-01-06 08:24:42.23	36.66	24.61	-45.2	-46.2	15.3	0.00e+00	0	26	0	1585446912	56	4097
2026-01-06 08:24:43.22	36.39	24.66	-45.2	-46.3	15.3	0.00e+00	0	26	0	1591738368	56	4119
2026-01-06 08:24:44.22	36.12	24.71	-45.3	-46.4	15.2	0.00e+00	0	26	0	1596981248	56	4165
2026-01-06 08:24:45.22	35.84	24.76	-45.3	-46.3	15.2	0.00e+00	0	26	0	1602224128	56	4142
2026-01-06 08:24:46.21	35.57	24.81	-45.3	-46.4	15.2	0.00e+00	0	26	0	1608515584	56	4150
2026-01-06 08:24:47.21	35.29	24.86	-45.3	-46.4	15.2	0.00e+00	0	26	0	1613758464	56	4171
2026-01-06 08:24:48.21	35.02	24.91	-45.3	-46.4	15.2	0.00e+00	0	26	0	1619001344	56	4165
2026-01-06 08:24:49.21	34.74	24.96	-45.3	-46.3	15.2	0.00e+00	0	26	0	1625292800	56	4139
2026-01-06 08:24:50.21	34.46	25.01	-45.2	-46.3	15.2	0.00e+00	0	26	0	1630535680	56	4104
2026-01-06 08:24:51.22	34.18	25.06	-45.2	-46.3	15.2	0.00e+00	0	26	0	1635778560	56	4113
2026-01-06 08:24:52.21	33.90	25.10	-45.0	-46.1	15.3	0.00e+00	0	26	0	1642070016	56	4037
2026-01-06 08:24:53.21	33.62	25.15	-45.1	-46.1	15.3	0.00e+00	0	26	0	1647312896	56	4046
2026-01-06 08:24:54.20	33.34	25.19	-45.1	-46.1	15.3	0.00e+00	0	26	0	1653604352	56	4042
2026-01-06 08:24:55.19	33.06	25.24	-45.1	-46.1	15.3	0.00e+00	0	26	0	1658847232	56	4042
2026-01-06 08:24:56.18	32.78	25.28	-45.2	-46.3	15.2	0.00e+00	0	26	0	1664090112	56	4111
2026-01-06 08:24:57.17	32.50	25.32	-45.4	-46.5	15.2	0.00e+00	0	26	0	1670381568	56	4199
2026-01-06 08:24:58.16	32.21	25.37	-45.5	-46.6	15.2	0.00e+00	0	26	0	1675624448	56	4268
2026-01-06 08:24:59.15	31.93	25.41	-45.6	-46.7	15.2	0.00e+00	0	26	0	1680867328	56	4297
2026-01-06 08:25:00.14	31.65	25.45	-45.4	-46.5	15.2	0.00e+00	0	26	0	1686110208	56	4240
2026-01-06 08:25:01.14	31.36	25.49	-45.4	-46.5	15.2	0.00e+00	0	26	0	1692401664	56	4229
2026-01-06 08:25:02.14	31.07	25.53	-45.4	-46.5	15.2	0.00e+00	0	26	0	1697644544	56	4197
2026-01-06 08:25:03.13	30.79	25.57	-45.2	-46.2	15.3	0.00e+00	0	26	0	1703936000	56	4090
2026-01-06 08:25:04.12	30.50	25.61	-45.2	-46.2	15.3	0.00e+00	0	26	0	1709178880	56	4091
2026-01-06 08:25:05.11	30.21	25.64	-45.1	-46.2	15.3	0.00e+00	0	26	0	1714421760	56	4077
2026-01-06 08:25:06.12	29.92	25.68	-45.2	-46.2	15.3	0.00e+00	0	26	0	1720713216	56	4095
2026-01-06 08:25:07.10	29.63	25.72	-45.2	-46.2	15.3	0.00e+00	0	26	0	1725956096	56	4091
2026-01-06 08:25:08.09	29.34	25.75	-45.1	-46.2	15.3	0.00e+00	0	26	0	1731198976	56	4079
2026-01-06 08:25:09.08	29.05	25.78	-45.1	-46.2	15.3	0.00e+00	0	26	0	1736441856	56	4073
2026-01-06 08:25:10.08	28.76	25.82	-45.2	-46.3	15.3	0.00e+00	0	26	0	1742733312	56	4103
2026-01-06 08:25:11.07	28.47	25.85	-45.2	-46.3	15.2	0.00e+00	0	26	0	1747976192	56	4116
2026-01-06 08:25:12.06	28.17	25.88	-45.3	-46.3	15.2	0.00e+00	0	26	0	1753219072	56	4141
2026-01-06 08:25:13.06	27.88	25.91	-45.2	-46.3	15.2	0.00e+00	0	26	0	1759510528	56	4129
2026-01-06 08:25:14.05	27.59	25.94	-45.3	-46.3	15.2	0.00e+00	0	26	0	1764753408	56	4138
2026-01-06 08:25:15.04	27.29	25.97	-45.4	-46.5	15.2	0.00e+00	0	26	0	1769996288	56	4196
2026-01-06 08:25:16.04	27.00	26.00	-45.3	-46.4	15.2	0.00e+00	0	26	0	1776287744	56	4167
2026-01-06 08:25:17.04	26.70	26.03	-45.3	-46.4	15.2	0.00e+00	0	26	0	1781530624	56	4155
2026-01-06 08:25:18.03	26.40	26.06	-45.3	-46.4	15.2	0.00e+00	0	26	0	1786773504	56	4172
2026-01-06 08:25:19.03	26.10	26.08	-45.2	-46.3	15.3	0.00e+00	0	26	0	1793064960	56	4105
2026-01-06 08:25:20.03	25.80	26.11	-45.3	-46.3	15.2	0.00e+00	0	26	0	1798307840	56	4143
2026-01-06 08:25:21.02	25.51	26.14	-45.3	-46.3	15.2	0.00e+00	0	26	0	1804599296	56	4142
2026-01-06 08:25:22.03	25.20	26.16	-45.3	-46.3	15.2	0.00e+00	0	26	0	1809842176	56	4136
2026-01-06 08:25:23.03	24.90	26.18	-45.3	-46.4	15.2	0.00e+00	0	26	0	1815085056	56	4177
2026-01-06 08:25:24.02	24.61	26.20	-45.4	-46.4	15.2	0.00e+00	0	26	0	1821376512	56	4191
2026-01-06 08:25:25.01	24.31	26.23	-45.3	-46.4	15.2	0.00e+00	0	26	0	1826619392	56	4172
2026-01-06 08:25:26.01	24.00	26.25	-45.4	-46.4	15.2	0.00e+00	0	26	0	1831862272	56	4185
2026-01-06 08:25:27.00	23.71	26.27	-45.4	-46.5	15.2	0.00e+00	0	26	0	1837105152	56	4209
2026-01-06 08:25:28.00	23.40	26.28	-45.5	-46.6	15.2	0.00e+00	0	26	0	1843396608	56	4252
2026-01-06 08:25:28.99	23.10	26.30	-45.5	-46.6	15.2	0.00e+00	0	26	0	1848639488	56	4263
2026-01-06 08:25:29.98	22.80	26.32	-45.4	-46.5	15.2	0.00e+00	0	26	0	1854930944	56	4218
2026-01-06 08:25:30.98	22.50	26.34	-45.4	-46.5	15.2	0.00e+00	0	26	0	1860173824	56	4215
2026-01-06 08:25:31.97	22.20	26.35	-45.3	-46.3	15.2	0.00e+00	0	26	0	1865416704	56	4142
2026-01-06 08:25:32.96	21.90	26.37	-45.0	-46.0	15.3	0.00e+00	0	26	0	1870659584	56	3999
2026-01-06 08:25:33.95	21.60	26.38	-45.0	-46.0	15.3	0.00e+00	0	26	0	1876951040	56	3986
2026-01-06 08:25:34.94	21.29	26.39	-45.0	-46.0	15.3	0.00e+00	0	26	0	1882193920	56	3995
2026-01-06 08:25:35.93	20.99	26.40	-44.8	-45.9	15.4	0.00e+00	0	26	0	1887436800	56	3916
2026-01-06 08:25:36.92	20.69	26.41	-44.8	-45.8	15.4	0.00e+00	0	26	0	1893728256	56	3891
2026-01-06 08:25:37.92	20.38	26.42	-44.8	-45.8	15.4	0.00e+00	0	26	0	1898971136	56	3894
2026-01-06 08:25:38.90	20.08	26.43	-44.7	-45.8	15.4	0.00e+00	0	26	0	1904214016	56	3888
2026-01-06 08:25:39.89	19.78	26.44	-44.8	-45.8	15.4	0.00e+00	0	26	0	1910505472	56	3909
2026-01-06 08:25:40.88	19.48	26.45	-44.7	-45.8	15.4	0.00e+00	0	26	0	1915748352	56	3879
2026-01-06 08:25:41.87	19.18	26.46	-44.9	-45.9	15.4	0.00e+00	0	26	0	1920991232	56	3949
2026-01-06 08:25:42.86	18.87	26.46	-45.0	-46.0	15.3	0.00e+00	0	26	0	1927282688	56	3988
2026-01-06 08:25:43.85	18.57	26.47	-45.2	-46.2	15.3	0.00e+00	0	26	0	1932525568	56	4091
2026-01-06 08:25:44.85	18.26	26.47	-45.3	-46.4	15.2	0.00e+00	0	26	0	1937768448	56	4175
2026-01-06 08:25:45.84	17.96	26.47	-45.4	-46.5	15.2	0.00e+00	0	26	0	1944059904	56	4197
2026-01-06 08:25:46.83	17.66	26.48	-45.2	-46.3	15.2	0.00e+00	0	26	0	1949302784	56	4130
2026-01-06 08:25:47.82	17.35	26.48	-45.3	-46.3	15.2	0.00e+00	0	26	0	1954545664	56	4133
2026-01-06 08:25:48.81	17.05	26.48	-45.2	-46.3	15.2	0.00e+00	0	26	0	1959788544	56	4123
2026-01-06 08:25:49.80	16.75	26.48	-45.2	-46.3	15.3	0.00e+00	0	26	0	1966080000	56	4106
2026-01-06 08:25:50.79	16.44	26.47	-45.0	-46.1	15.3	0.00e+00	0	26	0	1971322880	56	4029
2026-01-06 08:25:51.79	16.14	26.47	-45.0	-46.1	15.3	0.00e+00	0	26	0	1977614336	56	4005
2026-01-06 08:25:52.78	15.83	26.47	-45.0	-46.1	15.3	0.00e+00	0	26	0	1982857216	56	4014
2026-01-06 08:25:53.77	15.53	26.46	-45.0	-46.1	15.3	0.00e+00	0	26	0	1988100096	56	4028
2026-01-06 08:25:54.76	15.23	26.46	-45.1	-46.2	15.3	0.00e+00	0	26	0	1993342976	56	4059
2026-01-06 08:25:55.76	14.92	26.45	-44.9	-45.9	15.4	0.00e+00	0	26	0	1999634432	56	3934
2026-01-06 08:25:56.74	14.62	26.45	-44.9	-45.9	15.4	0.00e+00	0	26	0	2004877312	56	3957
2026-01-06 08:25:57.74	14.32	26.44	-45.0	-46.0	15.3	0.00e+00	0	26	0	2010120192	56	4000
2026-01-06 08:25:58.73	14.01	26.43	-45.2	-46.2	15.3	0.00e+00	0	26	0	2016411648	56	4091
2026-01-06 08:25:59.72	13.71	26.42	-45.1	-46.2	15.3	0.00e+00	0	26	0	2021654528	56	4081
2026-01-06 08:26:00.71	13.41	26.41	-45.2	-46.3	15.2	0.00e+00	0	26	0	2026897408	56	4111
2026-01-06 08:26:01.70	13.11	26.40	-45.2	-46.3	15.2	0.00e+00	0	26	0	2033188864	56	4107
2026-01-06 08:26:02.70	12.80	26.39	-45.2	-46.2	15.3	0.00e+00	0	26	0	2038431744	56	4092
2026-01-06 08:26:03.69	12.50	26.37	-45.3	-46.4	15.3	0.00e+00	0	26	0	2043674624	56	4150
2026-01-06 08:26:04.68	12.20	26.36	-45.4	-46.4	15.2	0.00e+00	0	26	0	2049966080	56	4192
2026-01-06 08:26:05.67	11.90	26.35	-45.2	-46.3	15.3	0.00e+00	0	26	0	2055208960	56	4112
2026-01-06 08:26:06.66	11.60	26.33	-45.1	-46.2	15.3	0.00e+00	0	26	0	2060451840	56	4072
2026-01-06 08:26:07.66	11.29	26.31	-45.1	-46.1	15.3	0.00e+00	0	26	0	2066743296	56	4036
2026-01-06 08:26:08.64	11.00	26.30	-45.0	-46.1	15.3	0.00e+00	0	26	0	2071986176	56	4006
2026-01-06 08:26:09.63	10.70	26.28	-45.0	-46.0	15.3	0.00e+00	0	26	0	2077229056	56	4003
2026-01-06 08:26:10.62	10.40	26.26	-45.2	-46.2	15.3	0.00e+00	0	26	0	2083520512	56	4089
2026-01-06 08:26:11.61	10.10	26.24	-45.0	-46.1	15.3	0.00e+00	0	26	0	2088763392	56	4027
2026-01-06 08:26:12.60	9.80	26.22	-45.0	-46.1	15.3	0.00e+00	0	26	0	2094006272	56	4021
2026-01-06 08:26:13.60	9.50	26.20	-45.0	-46.1	15.3	0.00e+00	0	26	0	2099249152	56	4017
2026-01-06 08:26:14.60	9.20	26.18	-44.8	-45.9	15.4	0.00e+00	0	26	0	2105540608	56	3931
2026-01-06 08:26:15.60	8.90	26.15	-44.9	-45.9	15.4	0.00e+00	0	26	0	2110783488	56	3942
2026-01-06 08:26:16.58	8.60	26.13	-45.0	-46.1	15.3	0.00e+00	0	26	0	2117074944	56	4006
2026-01-06 08:26:17.59	8.30	26.10	-45.1	-46.2	15.3	0.00e+00	0	26	0	2122317824	56	4061
2026-01-06 08:26:18.58	8.00	26.08	-45.2	-46.3	15.2	0.00e+00	0	26	0	2127560704	56	4102
2026-01-06 08:26:19.58	7.70	26.05	-45.3	-46.4	15.2	0.00e+00	0	26	0	2133852160	56	4152
2026-01-06 08:26:20.57	7.41	26.02	-45.4	-46.4	15.2	0.00e+00	0	26	0	2139095040	56	4183
2026-01-06 08:26:21.56	7.12	25.99	-45.3	-46.4	15.2	0.00e+00	0	26	0	2144337920	56	4167
2026-01-06 08:26:22.56	6.82	25.97	-45.2	-46.3	15.2	0.00e+00	0	26	0	2149580800	56	4118
2026-01-06 08:26:23.54	6.53	25.94	-45.3	-46.3	15.2	0.00e+00	0	26	0	2155872256	56	4145
2026-01-06 08:26:24.54	6.23	25.91	-45.1	-46.2	15.3	0.00e+00	0	26	0	2161115136	56	4075
2026-01-06 08:26:25.54	5.94	25.87	-45.0	-46.0	15.3	0.00e+00	0	26	0	2167406592	56	3983
2026-01-06 08:26:26.53	5.64	25.84	-44.9	-45.9	15.4	0.00e+00	0	26	0	2172649472	56	3958
2026-01-06 08:26:27.53	5.35	25.81	-44.9	-46.0	15.3	0.00e+00	0	26	0	2177892352	56	3967
2026-01-06 08:26:28.52	5.06	25.77	-44.9	-45.9	15.4	0.00e+00	0	26	0	2184183808	56	3945
2026-01-06 08:26:29.51	4.77	25.74	-44.9	-45.9	15.4	0.00e+00	0	26	0	2189426688	56	3957
2026-01-06 08:26:30.50	4.48	25.71	-44.9	-45.9	15.4	0.00e+00	0	26	0	2194669568	56	3943
2026-01-06 08:26:31.49	4.19	25.67	-45.0	-46.0	15.3	0.00e+00	0	26	0	2199912448	56	3999
2026-01-06 08:26:32.49	3.90	25.63	-44.9	-46.0	15.3	0.00e+00	0	26	0	2206203904	56	3970
2026-01-06 08:26:33.49	3.61	25.59	-45.0	-46.0	15.3	0.00e+00	0	26	0	2211446784	56	3996
2026-01-06 08:26:34.49	3.32	25.56	-45.0	-46.0	15.3	0.00e+00	0	26	0	2217738240	56	4004
2026-01-06 08:26:35.48	3.04	25.52	-45.1	-46.1	15.3	0.00e+00	0	26	0	2222981120	56	4050
2026-01-06 08:26:36.47	2.75	25.48	-45.2	-46.2	15.2	0.00e+00	0	26	0	2228224000	56	4094
2026-01-06 08:26:37.45	2.47	25.44	-45.1	-46.2	15.3	0.00e+00	0	26	0	2233466880	56	4063
2026-01-06 08:26:38.45	2.18	25.40	-45.2	-46.2	15.2	0.00e+00	0	26	0	2239758336	56	4094
2026-01-06 08:26:39.44	1.90	25.35	-45.1	-46.1	15.3	0.00e+00	0	26	0	2245001216	56	4050
2026-01-06 08:26:40.44	1.62	25.31	-45.2	-46.2	15.3	0.00e+00	0	26	0	2250244096	56	4084
2026-01-06 08:26:41.43	1.33	25.27	-45.2	-46.2	15.3	0.00e+00	0	26	0	2256535552	56	4082
2026-01-06 08:26:42.42	1.05	25.22	-45.2	-46.3	15.2	0.00e+00	0	26	0	2261778432	56	4109
2026-01-06 08:26:43.42	0.77	25.18	-45.2	-46.3	15.2	0.00e+00	0	26	0	2267021312	56	4113
2026-01-06 08:26:44.40	0.50	25.14	-45.1	-46.2	15.3	0.00e+00	0	26	0	2273312768	56	4073
2026-01-06 08:26:45.39	0.22	25.09	-45.2	-46.2	15.3	0.00e+00	0	26	0	2278555648	56	4098
2026-01-06 08:26:46.38	359.94	25.04	-45.0	-46.1	15.3	0.00e+00	0	26	0	2283798528	56	4006
2026-01-06 08:26:47.38	359.66	25.00	-45.0	-46.0	15.3	0.00e+00	0	26	0	2290089984	56	3991
2026-01-06 08:26:48.36	359.39	24.95	-45.0	-46.1	15.3	0.00e+00	0	26	0	2295332864	56	4007
2026-01-06 08:26:49.35	359.11	24.90	-45.0	-46.0	15.3	0.00e+00	0	26	0	2300575744	56	3986
2026-01-06 08:26:50.33	358.84	24.85	-45.0	-46.0	15.3	0.00e+00	0	26	0	2306867200	56	3983
2026-01-06 08:26:51.33	358.57	24.80	-44.9	-46.0	15.3	0.00e+00	0	26	0	2312110080	56	3980
2026-01-06 08:26:52.32	358.29	24.75	-44.9	-45.9	15.3	0.00e+00	0	26	0	2317352960	56	3955
2026-01-06 08:26:53.30	358.02	24.70	-44.9	-45.9	15.3	0.00e+00	0	26	0	2322595840	56	3952
2026-01-06 08:26:54.29	357.75	24.65	-44.9	-45.9	15.4	0.00e+00	0	26	0	2328887296	56	3942
2026-01-06 08:26:55.29	357.48	24.60	-44.9	-46.0	15.3	0.00e+00	0	26	0	2334130176	56	3970
2026-01-06 08:26:56.27	357.22	24.54	-45.0	-46.1	15.3	0.00e+00	0	26	0	2340421632	56	4010
2026-01-06 08:26:57.26	356.95	24.49	-44.9	-46.0	15.3	0.00e+00	0	26	0	2345664512	56	3968
2026-01-06 08:26:58.26	356.68	24.44	-45.0	-46.1	15.3	0.00e+00	0	26	0	2350907392	56	4005
2026-01-06 08:26:59.26	356.41	24.38	-45.1	-46.2	15.3	0.00e+00	0	26	0	2356150272	56	4058
2026-01-06 08:27:00.25	356.15	24.33	-45.2	-46.2	15.3	0.00e+00	0	26	0	2362441728	56	4091
2026-01-06 08:27:01.24	355.88	24.27	-45.1	-46.2	15.3	0.00e+00	0	26	0	2367684608	56	4079
2026-01-06 08:27:02.24	355.62	24.21	-45.2	-46.3	15.2	0.00e+00	0	26	0	2372927488	56	4110
2026-01-06 08:27:03.23	355.35	24.16	-45.2	-46.3	15.2	0.00e+00	0	26	0	2379218944	56	4125
2026-01-06 08:27:04.22	355.09	24.10	-45.1	-46.2	15.3	0.00e+00	0	26	0	2384461824	56	4071
2026-01-06 08:27:05.21	354.83	24.04	-45.1	-46.2	15.3	0.00e+00	0	26	0	2389704704	56	4070
2026-01-06 08:27:06.21	354.57	23.98	-45.2	-46.3	15.2	0.00e+00	0	26	0	2395996160	56	4113
2026-01-06 08:27:07.20	354.31	23.93	-45.1	-46.2	15.3	0.00e+00	0	26	0	2401239040	56	4070
2026-01-06 08:27:08.19	354.05	23.87	-45.2	-46.3	15.2	0.00e+00	0	26	0	2406481920	56	4105
2026-01-06 08:27:09.19	353.80	23.81	-45.2	-46.3	15.3	0.00e+00	0	26	0	2412773376	56	4122
2026-01-06 08:27:10.18	353.54	23.75	-45.2	-46.3	15.2	0.00e+00	0	26	0	2418016256	56	4126
2026-01-06 08:27:11.18	353.28	23.69	-45.1	-46.2	15.3	0.00e+00	0	26	0	2423259136	56	4065
2026-01-06 08:27:12.17	353.03	23.62	-45.2	-46.2	15.2	0.00e+00	0	26	0	2429550592	56	4094
2026-01-06 08:27:13.17	352.78	23.56	-45.2	-46.2	15.3	0.00e+00	0	26	0	2434793472	56	4093
2026-01-06 08:27:14.17	352.52	23.50	-45.4	-46.4	15.2	0.00e+00	0	26	0	2441084928	56	4184
2026-01-06 08:27:15.16	352.27	23.44	-45.4	-46.5	15.2	0.00e+00	0	26	0	2446327808	56	4205
2026-01-06 08:27:16.15	352.02	23.37	-45.3	-46.3	15.2	0.00e+00	0	26	0	2451570688	56	4143
2026-01-06 08:27:17.14	351.77	23.31	-45.3	-46.4	15.2	0.00e+00	0	26	0	2456813568	56	4148
2026-01-06 08:27:18.13	351.53	23.25	-45.3	-46.3	15.2	0.00e+00	0	26	0	2463105024	56	4143
2026-01-06 08:27:19.12	351.28	23.18	-45.3	-46.3	15.2	0.00e+00	0	26	0	2468347904	56	4143
2026-01-06 08:27:20.12	351.03	23.12	-45.3	-46.4	15.2	0.00e+00	0	26	0	2473590784	56	4156
2026-01-06 08:27:21.12	350.79	23.05	-45.4	-46.5	15.2	0.00e+00	0	26	0	2479882240	56	4216
2026-01-06 08:27:22.11	350.54	22.99	-45.4	-46.5	15.2	0.00e+00	0	26	0	2485125120	56	4208
2026-01-06 08:27:23.10	350.30	22.92	-45.5	-46.6	15.2	0.00e+00	0	26	0	2490368000	56	4251
2026-01-06 08:27:24.09	350.06	22.85	-45.2	-46.3	15.2	0.00e+00	0	26	0	2496659456	56	4126
2026-01-06 08:27:25.08	349.82	22.79	-45.3	-46.4	15.2	0.00e+00	0	26	0	2501902336	56	4157
2026-01-06 08:27:26.06	349.58	22.72	-45.2	-46.2	15.3	0.00e+00	0	26	0	2507145216	56	4092
2026-01-06 08:27:27.05	349.35	22.65	-45.1	-46.1	15.3	0.00e+00	0	26	0	2512388096	56	4044
2026-01-06 08:27:28.05	349.11	22.59	-45.1	-46.2	15.3	0.00e+00	0	26	0	2518679552	56	4062
2026-01-06 08:27:29.04	348.87	22.52	-45.2	-46.3	15.3	0.00e+00	0	26	0	2523922432	56	4108
2026-01-06 08:27:30.04	348.63	22.45	-45.2	-46.2	15.3	0.00e+00	0	26	0	2530213888	56	4085
2026-01-06 08:27:31.02	348.40	22.38	-45.3	-46.3	15.2	0.00e+00	0	26	0	2535456768	56	4132
2026-01-06 08:27:32.01	348.17	22.31	-45.4	-46.5	15.2	0.00e+00	0	26	0	2540699648	56	4207
2026-01-06 08:27:33.00	347.94	22.24	-45.4	-46.5	15.2	0.00e+00	0	26	0	2545942528	56	4232
2026-01-06 08:27:33.99	347.71	22.17	-45.4	-46.5	15.2	0.00e+00	0	26	0	2552233984	56	4233
2026-01-06 08:27:34.97	347.48	22.11	-45.4	-46.5	15.2	0.00e+00	0	26	0	2557476864	56	4227
2026-01-06 08:27:35.97	347.25	22.03	-45.5	-46.5	15.2	0.00e+00	0	26	0	2562719744	56	4236
2026-01-06 08:27:36.97	347.02	21.96	-45.4	-46.5	15.2	0.00e+00	0	26	0	2569011200	56	4209
2026-01-06 08:27:37.96	346.79	21.89	-45.4	-46.5	15.2	0.00e+00	0	26	0	2574254080	56	4230
2026-01-06 08:27:38.95	346.57	21.82	-45.5	-46.5	15.2	0.00e+00	0	26	0	2579496960	56	4238
2026-01-06 08:27:39.94	346.34	21.75	-45.4	-46.5	15.2	0.00e+00	0	26	0	2585788416	56	4225
2026-01-06 08:27:40.93	346.12	21.68	-45.4	-46.5	15.2	0.00e+00	0	26	0	2591031296	56	4222
2026-01-06 08:27:41.93	345.90	21.61	-45.4	-46.5	15.2	0.00e+00	0	26	0	2596274176	56	4213
2026-01-06 08:27:42.92	345.67	21.53	-45.5	-46.5	15.2	0.00e+00	0	26	0	2602565632	56	4242
2026-01-06 08:27:43.91	345.45	21.46	-45.6	-46.8	15.1	0.00e+00	0	26	0	2607808512	56	4344
2026-01-06 08:27:44.90	345.23	21.39	-45.6	-46.8	15.2	0.00e+00	0	26	0	2613051392	56	4350
2026-01-06 08:27:45.89	345.02	21.32	-45.7	-46.8	15.1	0.00e+00	0	26	0	2619342848	56	4366
2026-01-06 08:27:46.89	344.80	21.24	-45.7	-46.8	15.1	0.00e+00	0	26	0	2624585728	56	4359
2026-01-06 08:27:47.88	344.58	21.17	-45.7	-46.8	15.1	0.00e+00	0	26	0	2629828608	56	4370
2026-01-06 08:27:48.87	344.37	21.10	-45.8	-46.9	15.1	0.00e+00	0	26	0	2636120064	56	4394
2026-01-06 08:27:49.86	344.15	21.02	-45.8	-46.9	15.1	0.00e+00	0	26	0	2641362944	56	4409
2026-01-06 08:27:50.86	343.94	20.95	-45.9	-47.0	15.1	0.00e+00	0	26	0	2646605824	57	4238
2026-01-06 08:27:51.85	343.73	20.87	-45.9	-47.0	15.1	0.00e+00	0	26	0	2652897280	57	4235
2026-01-06 08:27:52.84	343.51	20.80	-45.9	-47.0	15.1	0.00e+00	0	26	0	2658140160	57	4239
2026-01-06 08:27:53.84	343.30	20.72	-45.9	-47.0	15.1	0.00e+00	0	26	0	2663383040	57	4239
2026-01-06 08:27:54.83	343.09	20.65	-45.9	-47.0	15.1	0.00e+00	0	26	0	2669674496	57	4223
2026-01-06 08:27:55.82	342.89	20.57	-46.0	-47.1	15.1	0.00e+00	0	26	0	2674917376	57	4253
2026-01-06 08:27:56.81	342.68	20.50	-46.1	-47.2	15.1	0.00e+00	0	26	0	2680160256	57	4308
2026-01-06 08:27:57.80	342.47	20.42	-46.2	-47.3	15.1	0.00e+00	0	26	0	2685403136	57	4367
2026-01-06 08:27:58.80	342.27	20.35	-46.2	-47.4	15.1	0.00e+00	0	26	0	2691694592	57	4393
2026-01-06 08:27:59.80	342.06	20.27	-46.2	-47.4	15.1	0.00e+00	0	26	0	2696937472	57	4399
2026-01-06 08:28:00.79	341.86	20.20	-46.1	-47.2	15.1	0.00e+00	0	26	0	2703228928	57	4326
2026-01-06 08:28:01.79	341.66	20.12	-46.1	-47.2	15.1	0.00e+00	0	26	0	2708471808	57	4295
2026-01-06 08:28:02.78	341.45	20.04	-46.0	-47.1	15.1	0.00e+00	0	26	0	2713714688	57	4271
2026-01-06 08:28:03.78	341.25	19.97	-46.0	-47.1	15.1	0.00e+00	0	26	0	2720006144	57	4285
2026-01-06 08:28:04.77	341.05	19.89	-46.0	-47.2	15.1	0.00e+00	0	26	0	2725249024	57	4295
2026-01-06 08:28:05.77	340.85	19.81	-46.1	-47.2	15.1	0.00e+00	0	26	0	2730491904	57	4309
2026-01-06 08:28:06.76	340.66	19.74	-46.1	-47.3	15.1	0.00e+00	0	26	0	2735734784	57	4348
2026-01-06 08:28:07.75	340.46	19.66	-46.1	-47.2	15.1	0.00e+00	0	26	0	2742026240	57	4305
2026-01-06 08:28:08.74	340.27	19.58	-46.2	-47.4	15.1	0.00e+00	0	26	0	2747269120	57	4397
2026-01-06 08:28:09.73	340.07	19.51	-46.2	-47.3	15.1	0.00e+00	0	26	0	2753560576	57	4389
2026-01-06 08:28:10.72	339.88	19.43	-46.1	-47.2	15.1	0.00e+00	0	26	0	2758803456	57	4327
2026-01-06 08:28:11.71	339.69	19.35	-46.1	-47.2	15.1	0.00e+00	0	26	0	2764046336	57	4314
2026-01-06 08:28:12.70	339.50	19.28	-46.1	-47.2	15.1	0.00e+00	0	26	0	2769289216	57	4309
2026-01-06 08:28:13.70	339.31	19.20	-46.1	-47.2	15.1	0.00e+00	0	26	0	2775580672	57	4293
2026-01-06 08:28:14.69	339.12	19.12	-45.9	-47.0	15.1	0.00e+00	0	26	0	2780823552	57	4235
2026-01-06 08:28:15.69	338.93	19.04	-46.0	-47.1	15.1	0.00e+00	0	26	0	2786066432	57	4283
2026-01-06 08:28:16.68	338.74	18.96	-46.0	-47.1	15.1	0.00e+00	0	26	0	2792357888	57	4272
2026-01-06 08:28:17.68	338.56	18.89	-46.0	-47.1	15.1	0.00e+00	0	26	0	2797600768	57	4271
2026-01-06 08:28:18.68	338.37	18.81	-46.2	-47.3	15.1	0.00e+00	0	26	0	2803892224	57	4357
2026-01-06 08:28:19.67	338.18	18.73	-46.2	-47.3	15.1	0.00e+00	0	26	0	2809135104	57	4383
2026-01-06 08:28:20.66	338.00	18.65	-46.3	-47.4	15.0	0.00e+00	0	26	0	2814377984	57	4421
2026-01-06 08:28:21.65	337.82	18.57	-46.4	-47.5	15.0	0.00e+00	0	26	0	2819620864	57	4470
2026-01-06 08:28:22.65	337.64	18.50	-46.4	-47.6	15.0	0.00e+00	0	26	0	2825912320	57	4503
2026-01-06 08:28:23.65	337.46	18.42	-46.3	-47.4	15.1	0.00e+00	0	26	0	2831155200	58	4190
2026-01-06 08:28:24.65	337.27	18.34	-46.4	-47.5	15.1	0.00e+00	0	26	0	2836398080	58	4241
2026-01-06 08:28:25.63	337.10	18.26	-46.4	-47.5	15.1	0.00e+00	0	26	0	2842689536	58	4210
2026-01-06 08:28:26.62	336.92	18.18	-46.4	-47.5	15.1	0.00e+00	0	26	0	2847932416	58	4223
2026-01-06 08:28:27.61	336.74	18.10	-46.4	-47.5	15.1	0.00e+00	0	26	0	2853175296	58	4235
2026-01-06 08:28:28.61	336.57	18.03	-46.3	-47.4	15.1	0.00e+00	0	26	0	2859466752	58	4188
2026-01-06 08:28:29.61	336.39	17.95	-46.3	-47.4	15.1	0.00e+00	0	26	0	2864709632	58	4176
2026-01-06 08:28:30.60	336.22	17.87	-46.3	-47.5	15.1	0.00e+00	0	26	0	2869952512	58	4195
2026-01-06 08:28:31.59	336.05	17.79	-46.5	-47.6	15.1	0.00e+00	0	26	0	2876243968	58	4265
2026-01-06 08:28:32.58	335.87	17.71	-46.4	-47.5	15.1	0.00e+00	0	26	0	2881486848	58	4229
2026-01-06 08:28:33.56	335.70	17.63	-46.4	-47.5	15.1	0.00e+00	0	26	0	2886729728	58	4220
2026-01-06 08:28:34.56	335.53	17.56	-46.6	-47.7	15.0	0.00e+00	0	26	0	2893021184	58	4323
2026-01-06 08:28:35.55	335.36	17.48	-46.6	-47.7	15.0	0.00e+00	0	26	0	2898264064	58	4326
2026-01-06 08:28:36.54	335.20	17.40	-46.6	-47.8	15.0	0.00e+00	0	26	0	2903506944	58	4352
2026-01-06 08:28:37.53	335.03	17.32	-46.6	-47.8	15.0	0.00e+00	0	26	0	2909798400	58	4356
2026-01-06 08:28:38.52	334.86	17.24	-46.7	-47.8	15.0	0.00e+00	0	26	0	2915041280	58	4380
2026-01-06 08:28:39.52	334.69	17.16	-46.8	-47.9	15.0	0.00e+00	0	26	0	2920284160	58	4431
2026-01-06 08:28:40.51	334.53	17.08	-46.8	-48.0	15.0	0.00e+00	0	26	0	2925527040	58	4473
2026-01-06 08:28:41.50	334.37	17.01	-46.9	-48.1	15.0	0.00e+00	0	26	0	2931818496	59	4265
2026-01-06 08:28:42.49	334.20	16.93	-46.9	-48.0	15.0	0.00e+00	0	26	0	2937061376	59	4218
2026-01-06 08:28:43.49	334.04	16.85	-46.9	-48.0	15.0	0.00e+00	0	26	0	2943352832	59	4219
2026-01-06 08:28:44.49	333.88	16.77	-46.8	-47.9	15.1	0.00e+00	0	26	0	2948595712	59	4185
2026-01-06 08:28:45.48	333.72	16.69	-46.8	-48.0	15.0	0.00e+00	0	26	0	2953838592	59	4203
2026-01-06 08:28:46.47	333.56	16.61	-46.9	-48.1	15.0	0.00e+00	0	26	0	2960130048	59	4248
2026-01-06 08:28:47.47	333.40	16.53	-47.0	-48.2	15.0	0.00e+00	0	26	0	2965372928	59	4305
2026-01-06 08:28:48.46	333.24	16.46	-47.0	-48.1	15.0	0.00e+00	0	26	0	2970615808	59	4275
2026-01-06 08:28:49.45	333.08	16.38	-46.9	-48.1	15.0	0.00e+00	0	26	0	2975858688	59	4258
2026-01-06 08:28:50.44	332.93	16.30	-47.0	-48.2	15.0	0.00e+00	0	26	0	2982150144	59	4300
2026-01-06 08:28:51.43	332.77	16.22	-47.1	-48.3	15.0	0.00e+00	0	26	0	2987393024	59	4351
2026-01-06 08:28:52.43	332.61	16.14	-47.1	-48.2	15.0	0.00e+00	0	26	0	2993684480	59	4325
2026-01-06 08:28:53.43	332.46	16.06	-47.0	-48.1	15.0	0.00e+00	0	26	0	2998927360	59	4291
2026-01-06 08:28:54.43	332.31	15.99	-47.1	-48.2	15.0	0.00e+00	0	26	0	3004170240	59	4327
2026-01-06 08:28:55.42	332.15	15.91	-47.1	-48.3	14.9	0.00e+00	0	26	0	3010461696	59	4363
2026-01-06 08:28:56.42	332.00	15.83	-47.0	-48.1	15.0	0.00e+00	0	26	0	3015704576	59	4274
2026-01-06 08:28:57.42	331.85	15.75	-47.1	-48.3	15.0	0.00e+00	0	26	0	3020947456	59	4348
2026-01-06 08:28:58.42	331.70	15.67	-47.1	-48.2	15.0	0.00e+00	0	26	0	3027238912	59	4333
2026-01-06 08:28:59.41	331.55	15.59	-47.2	-48.4	14.9	0.00e+00	0	26	0	3032481792	59	4408
2026-01-06 08:29:00.40	331.40	15.52	-47.0	-48.2	15.0	0.00e+00	0	26	0	3037724672	59	4305
2026-01-06 08:29:01.40	331.25	15.44	-47.0	-48.1	15.0	0.00e+00	0	26	0	3044016128	59	4289
2026-01-06 08:29:02.38	331.11	15.36	-47.1	-48.3	14.9	0.00e+00	0	26	0	3049259008	59	4348
2026-01-06 08:29:03.38	330.96	15.28	-47.1	-48.3	14.9	0.00e+00	0	26	0	3054501888	59	4343
2026-01-06 08:29:04.38	330.81	15.20	-47.0	-48.2	15.0	0.00e+00	0	26	0	3060793344	59	4320
2026-01-06 08:29:05.36	330.67	15.13	-47.1	-48.2	14.9	0.00e+00	0	26	0	3066036224	59	4330
2026-01-06 08:29:06.35	330.53	15.05	-47.2	-48.3	14.9	0.00e+00	0	26	0	3071279104	59	4389
2026-01-06 08:29:07.34	330.38	14.97	-47.3	-48.4	14.9	0.00e+00	0	26	0	3077570560	59	4438
2026-01-06 08:29:08.33	330.24	14.90	-47.3	-48.5	14.9	0.00e+00	0	26	0	3082813440	59	4480
2026-01-06 08:29:09.33	330.10	14.82	-47.3	-48.5	14.9	0.00e+00	0	26	0	3088056320	59	4487
2026-01-06 08:29:10.33	329.96	14.74	-47.4	-48.6	14.8	0.00e+00	0	26	0	3094347776	59	4522
2026-01-06 08:29:11.32	329.82	14.66	-47.0	-48.1	15.1	0.00e+00	0	26	0	3099590656	60	4043
2026-01-06 08:29:12.31	329.68	14.59	-47.0	-48.1	15.1	0.00e+00	0	26	0	3104833536	60	4028
2026-01-06 08:29:13.31	329.54	14.51	-47.0	-48.2	15.0	0.00e+00	0	26	0	3110076416	60	4070
2026-01-06 08:29:14.29	329.40	14.43	-47.1	-48.2	15.0	0.00e+00	0	26	0	3116367872	60	4078
2026-01-06 08:29:15.29	329.27	14.36	-47.1	-48.2	15.0	0.00e+00	0	26	0	3121610752	60	4093
2026-01-06 08:29:16.28	329.13	14.28	-47.1	-48.3	15.0	0.00e+00	0	26	0	3127902208	60	4110
2026-01-06 08:29:17.27	329.00	14.20	-47.1	-48.3	15.0	0.00e+00	0	26	0	3133145088	60	4107
2026-01-06 08:29:18.26	328.86	14.13	-47.2	-48.3	15.0	0.00e+00	0	26	0	3138387968	60	4130
2026-01-06 08:29:19.24	328.73	14.05	-47.3	-48.4	14.9	0.00e+00	0	26	0	3143630848	60	4181
2026-01-06 08:29:20.24	328.59	13.97	-47.2	-48.4	15.0	0.00e+00	0	26	0	3149922304	60	4175
2026-01-06 08:29:21.23	328.46	13.90	-47.1	-48.3	15.0	0.00e+00	0	26	0	3155165184	60	4110
2026-01-06 08:29:22.23	328.33	13.82	-47.2	-48.3	15.0	0.00e+00	0	26	0	3160408064	60	4132
2026-01-06 08:29:23.23	328.20	13.74	-47.3	-48.5	14.9	0.00e+00	0	26	0	3166699520	60	4207
2026-01-06 08:29:24.22	328.07	13.67	-47.4	-48.5	14.9	0.00e+00	0	26	0	3171942400	60	4239
2026-01-06 08:29:25.21	327.94	13.59	-47.5	-48.6	14.9	0.00e+00	0	26	0	3177185280	60	4290
2026-01-06 08:29:26.20	327.81	13.51	-47.5	-48.7	14.8	0.00e+00	0	26	0	3183476736	60	4335
2026-01-06 08:29:27.20	327.68	13.44	-47.7	-48.9	14.8	0.00e+00	0	26	0	3188719616	60	4424
2026-01-06 08:29:28.19	327.55	13.36	-47.5	-48.7	14.8	0.00e+00	0	26	0	3193962496	60	4318
2026-01-06 08:29:29.18	327.42	13.29	-47.4	-48.6	14.9	0.00e+00	0	26	0	3200253952	60	4286
2026-01-06 08:29:30.17	327.30	13.21	-47.6	-48.7	14.8	0.00e+00	0	26	0	3205496832	60	4335
2026-01-06 08:29:31.16	327.17	13.14	-47.6	-48.8	14.8	0.00e+00	0	26	0	3210739712	60	4342
2026-01-06 08:29:32.15	327.05	13.06	-47.4	-48.6	14.9	0.00e+00	0	26	0	3217031168	60	4286
2026-01-06 08:29:33.14	326.92	12.99	-47.5	-48.7	14.9	0.00e+00	0	26	0	3222274048	60	4299
2026-01-06 08:29:34.13	326.80	12.91	-47.5	-48.6	14.8	0.00e+00	0	26	0	3227516928	60	4291
2026-01-06 08:29:35.12	326.68	12.84	-47.5	-48.7	14.8	0.00e+00	0	26	0	3233808384	60	4320
2026-01-06 08:29:36.10	326.55	12.76	-47.6	-48.8	14.8	0.00e+00	0	26	0	3239051264	60	4373
2026-01-06 08:29:37.10	326.43	12.69	-47.4	-48.6	14.9	0.00e+00	0	26	0	3244294144	60	4285
2026-01-06 08:29:38.09	326.31	12.61	-47.4	-48.6	14.9	0.00e+00	0	26	0	3249537024	60	4262
2026-01-06 08:29:39.09	326.19	12.54	-47.5	-48.7	14.8	0.00e+00	0	26	0	3255828480	60	4327
2026-01-06 08:29:40.08	326.07	12.46	-47.4	-48.6	14.8	0.00e+00	0	26	0	3261071360	60	4283
2026-01-06 08:29:41.07	325.95	12.39	-47.4	-48.6	14.9	0.00e+00	0	26	0	3267362816	60	4286
2026-01-06 08:29:42.06	325.83	12.31	-47.4	-48.6	14.9	0.00e+00	0	26	0	3272605696	60	4272
2026-01-06 08:29:43.06	325.71	12.24	-47.6	-48.7	14.8	0.00e+00	0	26	0	3277848576	60	4335
2026-01-06 08:29:44.05	325.59	12.16	-47.5	-48.7	14.8	0.00e+00	0	26	0	3283091456	60	4298
2026-01-06 08:29:45.04	325.48	12.09	-47.5	-48.7	14.8	0.00e+00	0	26	0	3289382912	60	4297
2026-01-06 08:29:46.04	325.36	12.02	-47.5	-48.7	14.8	0.00e+00	0	26	0	3294625792	60	4297
2026-01-06 08:29:47.02	325.25	11.94	-47.6	-48.8	14.8	0.00e+00	0	26	0	3299868672	60	4350
2026-01-06 08:29:48.01	325.13	11.87	-47.6	-48.8	14.8	0.00e+00	0	26	0	3306160128	60	4364
2026-01-06 08:29:49.01	325.02	11.79	-47.6	-48.9	14.8	0.00e+00	0	26	0	3311403008	60	4400
2026-01-06 08:29:50.00	324.90	11.72	-47.7	-48.9	14.8	0.00e+00	0	26	0	3316645888	60	4425
2026-01-06 08:29:50.99	324.79	11.65	-47.8	-49.1	14.7	0.00e+00	0	26	0	3322937344	60	4510
2026-01-06 08:29:51.98	324.68	11.58	-48.0	-49.3	14.7	0.00e+00	0	26	0	3328180224	61	4346
2026-01-06 08:29:52.96	324.56	11.50	-47.9	-49.1	14.8	0.00e+00	0	26	0	3333423104	61	4263
2026-01-06 08:29:53.95	324.45	11.43	-48.0	-49.2	14.7	0.00e+00	0	26	0	3338665984	61	4333
2026-01-06 08:29:54.94	324.34	11.36	-47.9	-49.1	14.8	0.00e+00	0	26	0	3344957440	61	4287
2026-01-06 08:29:55.94	324.23	11.28	-47.9	-49.2	14.8	0.00e+00	0	26	0	3350200320	61	4299
2026-01-06 08:29:56.93	324.12	11.21	-47.9	-49.2	14.7	0.00e+00	0	26	0	3356491776	61	4303
2026-01-06 08:29:57.92	324.01	11.14	-48.0	-49.3	14.7	0.00e+00	0	26	0	3361734656	61	4343
2026-01-06 08:29:58.93	323.90	11.06	-47.9	-49.1	14.8	0.00e+00	0	26	0	3366977536	61	4289
2026-01-06 08:29:59.93	323.79	10.99	-48.1	-49.4	14.7	0.00e+00	0	26	0	3373268992	61	4406
2026-01-06 08:30:00.91	323.69	10.92	-47.9	-49.1	14.8	0.00e+00	0	26	0	3378511872	61	4286
2026-01-06 08:30:01.90	323.58	10.85	-48.2	-49.5	14.6	0.00e+00	0	26	0	3383754752	61	4462
2026-01-06 08:30:02.89	323.47	10.78	-48.1	-49.3	14.7	0.00e+00	0	26	0	3390046208	61	4390
2026-01-06 08:30:03.89	323.36	10.70	-48.1	-49.4	14.7	0.00e+00	0	26	0	3395289088	61	4413
2026-01-06 08:30:04.88	323.26	10.63	-48.3	-49.5	14.6	0.00e+00	0	26	0	3400531968	61	4480
2026-01-06 08:30:05.88	323.15	10.56	-48.3	-49.6	14.6	0.00e+00	0	26	0	3406823424	61	4509
2026-01-06 08:30:06.87	323.05	10.49	-48.4	-49.6	14.6	0.00e+00	0	26	0	3412066304	61	4545
2026-01-06 08:30:07.86	322.94	10.42	-48.2	-49.5	14.8	0.00e+00	0	26	0	3417309184	62	4208
2026-01-06 08:30:08.85	322.84	10.34	-48.1	-49.3	14.8	0.00e+00	0	26	0	3422552064	62	4114
2026-01-06 08:30:09.84	322.74	10.27	-48.2	-49.4	14.8	0.00e+00	0	26	0	3428843520	62	4190
2026-01-06 08:30:10.83	322.64	10.20	-48.2	-49.5	14.7	0.00e+00	0	26	0	3434086400	62	4222
2026-01-06 08:30:11.82	322.53	10.13	-48.2	-49.4	14.8	0.00e+00	0	26	0	3440377856	62	4171
2026-01-06 08:30:12.81	322.43	10.06	-48.2	-49.4	14.8	0.00e+00	0	26	0	3445620736	62	4179
2026-01-06 08:30:13.81	322.33	9.99	-48.3	-49.6	14.7	0.00e+00	0	26	0	3450863616	62	4255
2026-01-06 08:30:14.81	322.23	9.92	-48.3	-49.6	14.7	0.00e+00	0	26	0	3456106496	62	4277
2026-01-06 08:30:15.81	322.13	9.85	-48.4	-49.7	14.6	0.00e+00	0	26	0	3462397952	62	4328
2026-01-06 08:30:16.80	322.03	9.78	-48.5	-49.8	14.6	0.00e+00	0	26	0	3467640832	62	4359
2026-01-06 08:30:17.79	321.93	9.71	-48.4	-49.7	14.6	0.00e+00	0	26	0	3472883712	62	4334
2026-01-06 08:30:18.78	321.83	9.64	-48.5	-49.8	14.6	0.00e+00	0	26	0	3479175168	62	4341
2026-01-06 08:30:19.78	321.73	9.56	-48.5	-49.8	14.6	0.00e+00	0	26	0	3484418048	62	4359
2026-01-06 08:30:20.77	321.64	9.50	-48.6	-50.0	14.5	0.00e+00	0	26	0	3490709504	62	4455
2026-01-06 08:30:21.76	321.54	9.43	-48.5	-49.8	14.6	0.00e+00	0	26	0	3495952384	62	4360
2026-01-06 08:30:22.75	321.44	9.36	-48.5	-49.8	14.6	0.00e+00	0	26	0	3501195264	62	4355
2026-01-06 08:30:23.75	321.35	9.29	-48.6	-49.9	14.6	0.00e+00	0	26	0	3506438144	62	4408
2026-01-06 08:30:24.74	321.25	9.22	-48.5	-49.8	14.6	0.00e+00	0	26	0	3512729600	62	4383
2026-01-06 08:30:25.73	321.16	9.15	-48.5	-49.8	14.6	0.00e+00	0	26	0	3517972480	62	4381
2026-01-06 08:30:26.73	321.06	9.08	-48.7	-50.1	14.5	0.00e+00	0	26	0	3523215360	62	4500
2026-01-06 08:30:27.71	320.97	9.01	-48.7	-50.0	14.5	0.00e+00	0	26	0	3529506816	62	4479
2026-01-06 08:30:28.70	320.88	8.94	-48.6	-50.0	14.5	0.00e+00	0	26	0	3534749696	62	4450
2026-01-06 08:30:29.70	320.78	8.87	-48.4	-49.7	14.6	0.00e+00	0	26	0	3539992576	62	4298
2026-01-06 08:30:30.69	320.69	8.80	-48.6	-49.9	14.6	0.00e+00	0	26	0	3546284032	62	4397
2026-01-06 08:30:31.68	320.60	8.73	-48.5	-49.8	14.6	0.00e+00	0	26	0	3551526912	62	4363
2026-01-06 08:30:32.66	320.51	8.66	-48.4	-49.7	14.6	0.00e+00	0	26	0	3556769792	62	4334
2026-01-06 08:30:33.65	320.41	8.60	-48.7	-50.0	14.5	0.00e+00	0	26	0	3562012672	62	4461
2026-01-06 08:30:34.65	320.32	8.53	-48.8	-50.1	14.5	0.00e+00	0	26	0	3568304128	62	4521
2026-01-06 08:30:35.65	320.23	8.46	-48.8	-50.1	14.4	0.00e+00	0	26	0	3573547008	62	4541
2026-01-06 08:30:36.65	320.14	8.39	-48.9	-50.2	14.4	0.00e+00	0	26	0	3579838464	62	4581
2026-01-06 08:30:37.63	320.05	8.32	-48.7	-50.0	14.5	0.00e+00	0	26	0	3585081344	62	4469
2026-01-06 08:30:38.63	319.96	8.25	-48.7	-50.0	14.5	0.00e+00	0	26	0	3590324224	62	4462
2026-01-06 08:30:39.63	319.87	8.18	-48.9	-50.3	14.5	0.00e+00	0	26	0	3596615680	63	4368
2026-01-06 08:30:40.62	319.78	8.12	-48.7	-50.1	14.6	0.00e+00	0	26	0	3601858560	63	4251
2026-01-06 08:30:41.61	319.70	8.05	-48.8	-50.2	14.5	0.00e+00	0	26	0	3607101440	63	4313
2026-01-06 08:30:42.60	319.61	7.98	-48.8	-50.1	14.6	0.00e+00	0	26	0	3612344320	63	4264
