passes_logs/2026/01/06/R3.2S_Murmansk/R3.2S_Murmansk__20260106_133356_NOAA_21_JPSS-2_rec.log

#Pass ID: 20260106_133356_NOAA 21 (JPSS-2)
#Satellite: NOAA 21 (JPSS-2)
#Configuration: NOAA-21
#almurnet v.1.7.20251203
#Start time: 2026-01-06 13:33:56

#Version: 2.2.20231116
#Station: R3.2S_Murmansk
#Location: 33.079688 lon 68.888172 lat
#TLE: 1 54234U 22150A   26005.42670836  .00000142  00000+0  88292-4 0  9996
#TLE: 2 54234  98.7490 306.4427 0001045 340.6622  19.4514 14.19532269163451

#Time	Az	El	Level	Level2	SNR	BER	BlckErr	Temp	State	Recorded	gain1	gain2
2026-01-06 13:33:56.40	259.95	1.98	-58.8	-72.6	3.8	1.49e+00	0	28	0	0	84	17065
2026-01-06 13:33:57.40	260.06	2.02	-58.6	-72.4	3.8	1.49e+00	0	28	104	0	82	18691
2026-01-06 13:33:58.38	260.17	2.06	-58.6	-72.4	3.9	1.49e+00	0	28	104	0	82	18672
2026-01-06 13:33:59.38	260.28	2.09	-58.6	-72.4	3.8	1.49e+00	0	28	104	0	82	18729
2026-01-06 13:34:00.38	260.40	2.13	-58.6	-72.4	3.8	1.49e+00	0	28	104	0	82	18683
2026-01-06 13:34:01.37	260.51	2.17	-58.6	-72.4	3.8	1.49e+00	0	28	104	0	82	18703
2026-01-06 13:34:02.37	260.62	2.20	-58.6	-72.4	3.8	1.49e+00	0	28	104	0	82	18666
2026-01-06 13:34:03.36	260.73	2.24	-58.6	-72.4	3.8	1.49e+00	0	28	104	0	82	18712
2026-01-06 13:34:04.37	260.85	2.28	-58.6	-72.4	3.8	1.49e+00	0	28	104	0	82	18720
2026-01-06 13:34:05.36	260.96	2.31	-58.6	-72.4	3.8	1.49e+00	0	28	104	0	82	18683
2026-01-06 13:34:06.35	261.07	2.35	-58.6	-72.5	3.8	1.49e+00	0	28	104	0	82	18743
2026-01-06 13:34:07.35	261.19	2.39	-58.6	-72.5	3.8	1.49e+00	0	28	104	0	82	18751
2026-01-06 13:34:08.35	261.30	2.42	-58.6	-72.5	3.8	1.49e+00	0	28	104	0	82	18751
2026-01-06 13:34:09.34	261.41	2.46	-58.6	-72.4	3.8	1.49e+00	0	28	104	0	82	18674
2026-01-06 13:34:10.33	261.53	2.50	-58.6	-72.4	3.8	1.49e+00	0	28	104	0	82	18688
2026-01-06 13:34:11.34	261.64	2.53	-58.6	-72.5	3.8	1.49e+00	0	28	104	0	82	18741
2026-01-06 13:34:12.33	261.76	2.57	-58.6	-72.4	3.8	1.49e+00	0	29	104	0	82	18721
2026-01-06 13:34:13.33	261.87	2.61	-58.6	-72.4	3.8	1.49e+00	0	28	104	0	82	18686
2026-01-06 13:34:14.33	261.99	2.64	-58.6	-72.4	3.8	1.49e+00	0	28	104	0	82	18674
2026-01-06 13:34:15.33	262.11	2.68	-58.6	-72.4	3.8	1.49e+00	0	29	104	0	82	18664
2026-01-06 13:34:16.33	262.22	2.72	-58.6	-72.4	3.8	1.49e+00	0	28	104	0	82	18689
2026-01-06 13:34:17.33	262.34	2.75	-58.6	-72.4	3.8	1.49e+00	0	28	104	0	82	18631
2026-01-06 13:34:18.34	262.46	2.79	-58.6	-72.4	3.8	1.49e+00	0	28	104	0	82	18721
2026-01-06 13:34:19.33	262.58	2.82	-58.6	-72.4	3.8	1.49e+00	0	28	104	0	82	18680
2026-01-06 13:34:20.34	262.69	2.86	-58.6	-72.4	3.8	1.49e+00	0	28	104	0	82	18702
2026-01-06 13:34:21.34	262.81	2.90	-58.6	-72.4	3.8	1.49e+00	0	28	104	0	82	18684
2026-01-06 13:34:22.35	262.93	2.93	-58.6	-72.4	3.8	1.49e+00	0	28	104	0	82	18680
2026-01-06 13:34:23.34	263.05	2.97	-58.6	-72.4	3.8	1.49e+00	0	28	104	0	82	18674
2026-01-06 13:34:24.34	263.17	3.00	-58.6	-72.4	3.8	1.49e+00	0	28	104	0	82	18660
2026-01-06 13:34:25.33	263.29	3.04	-58.6	-72.4	3.8	1.49e+00	0	28	104	0	82	18723
2026-01-06 13:34:26.33	263.41	3.08	-58.6	-72.4	3.8	1.49e+00	0	28	104	0	82	18683
2026-01-06 13:34:27.33	263.53	3.11	-58.6	-72.4	3.8	1.49e+00	0	29	104	0	82	18596
2026-01-06 13:34:28.33	263.65	3.15	-58.6	-72.4	3.8	1.49e+00	0	28	104	0	82	18605
2026-01-06 13:34:29.33	263.77	3.18	-58.6	-72.4	3.8	1.49e+00	0	29	104	0	82	18659
2026-01-06 13:34:30.32	263.89	3.22	-58.6	-72.4	3.8	1.49e+00	0	28	104	0	82	18641
2026-01-06 13:34:31.32	264.01	3.25	-58.6	-72.4	3.8	1.49e+00	0	28	104	0	82	18680
2026-01-06 13:34:32.32	264.13	3.29	-58.6	-72.4	3.8	1.49e+00	0	29	104	0	82	18635
2026-01-06 13:34:33.32	264.25	3.32	-58.6	-72.3	3.8	1.49e+00	0	28	104	0	82	18434
2026-01-06 13:34:34.32	264.37	3.36	-58.6	-72.3	3.8	1.49e+00	0	29	104	0	82	18351
2026-01-06 13:34:35.32	264.49	3.40	-58.6	-72.4	3.8	1.49e+00	0	28	104	0	82	18552
2026-01-06 13:34:36.32	264.61	3.43	-58.6	-72.3	3.8	1.49e+00	0	28	104	0	82	18406
2026-01-06 13:34:37.32	264.74	3.47	-58.6	-72.2	3.8	1.49e+00	0	28	104	0	82	18188
2026-01-06 13:34:38.32	264.86	3.50	-58.6	-72.2	3.8	1.49e+00	0	28	104	0	82	18200
2026-01-06 13:34:39.32	264.98	3.54	-58.6	-72.3	3.8	1.49e+00	0	29	104	0	82	18491
2026-01-06 13:34:40.32	265.11	3.57	-58.6	-72.4	3.8	1.49e+00	0	29	104	0	82	18647
2026-01-06 13:34:41.33	265.23	3.61	-58.6	-72.3	3.8	1.49e+00	0	29	104	0	82	18495
2026-01-06 13:34:42.33	265.35	3.64	-58.6	-72.4	3.8	1.49e+00	0	29	104	0	82	18566
2026-01-06 13:34:43.33	265.48	3.68	-58.6	-72.4	3.8	1.49e+00	0	29	104	0	82	18599
2026-01-06 13:34:44.32	265.60	3.71	-58.6	-72.3	3.8	1.49e+00	0	29	104	0	82	18406
2026-01-06 13:34:45.32	265.73	3.74	-58.6	-72.2	3.8	1.49e+00	0	29	104	0	82	18181
2026-01-06 13:34:46.32	265.85	3.78	-58.6	-72.3	3.8	1.49e+00	0	29	104	0	82	18509
2026-01-06 13:34:47.32	265.98	3.81	-58.6	-72.4	3.8	1.49e+00	0	29	104	0	82	18632
2026-01-06 13:34:48.33	266.10	3.85	-58.6	-72.3	3.8	1.49e+00	0	29	104	0	82	18441
2026-01-06 13:34:49.32	266.23	3.88	-58.6	-72.2	3.8	1.49e+00	0	29	104	0	82	18228
2026-01-06 13:34:50.33	266.36	3.92	-58.6	-72.2	3.8	1.49e+00	0	29	104	0	82	18243
2026-01-06 13:34:51.33	266.48	3.95	-58.6	-72.2	3.8	1.49e+00	0	29	104	0	82	18304
2026-01-06 13:34:52.34	266.61	3.99	-58.6	-72.3	3.8	1.49e+00	0	29	104	0	82	18494
2026-01-06 13:34:53.33	266.74	4.02	-58.6	-72.4	3.8	1.49e+00	0	29	104	0	82	18616
2026-01-06 13:34:54.33	266.86	4.05	-58.6	-72.4	3.8	1.49e+00	0	29	104	0	82	18581
2026-01-06 13:34:55.32	266.99	4.09	-58.6	-72.4	3.8	1.49e+00	0	29	104	0	82	18606
2026-01-06 13:34:56.32	267.12	4.12	-58.6	-72.3	3.8	1.49e+00	0	28	104	0	82	18315
2026-01-06 13:34:57.32	267.25	4.16	-58.6	-72.3	3.8	1.49e+00	0	29	104	0	82	18378
2026-01-06 13:34:58.31	267.37	4.19	-58.6	-72.3	3.8	1.49e+00	0	29	104	0	82	18424
2026-01-06 13:34:59.31	267.50	4.22	-58.6	-72.3	3.8	1.49e+00	0	29	104	0	82	18497
2026-01-06 13:35:00.30	267.63	4.26	-58.6	-72.4	3.8	1.49e+00	0	29	104	0	82	18524
2026-01-06 13:35:01.30	267.76	4.29	-58.6	-72.2	3.8	1.49e+00	0	29	104	0	82	18127
2026-01-06 13:35:02.30	267.89	4.32	-58.6	-72.1	3.8	1.49e+00	0	29	104	0	82	18082
2026-01-06 13:35:03.30	268.02	4.36	-58.6	-72.3	3.8	1.49e+00	0	29	104	0	82	18424
2026-01-06 13:35:04.30	268.15	4.39	-58.6	-72.3	3.8	1.49e+00	0	29	104	0	82	18506
2026-01-06 13:35:05.30	268.28	4.42	-58.6	-72.3	3.8	1.49e+00	0	29	104	0	82	18500
2026-01-06 13:35:06.29	268.41	4.46	-58.6	-72.2	3.8	1.49e+00	0	29	104	0	82	18272
2026-01-06 13:35:07.30	268.54	4.49	-58.6	-71.9	3.8	1.49e+00	0	29	104	0	82	17564
2026-01-06 13:35:08.30	268.67	4.52	-58.6	-71.8	3.8	1.49e+00	0	29	104	0	82	17417
2026-01-06 13:35:09.31	268.80	4.56	-58.6	-72.1	3.8	1.49e+00	0	29	104	0	82	18051
2026-01-06 13:35:10.30	268.93	4.59	-58.6	-72.3	3.8	1.49e+00	0	29	104	0	82	18511
2026-01-06 13:35:11.30	269.07	4.62	-58.6	-72.4	3.8	1.49e+00	0	29	104	0	82	18610
2026-01-06 13:35:12.29	269.20	4.65	-58.6	-72.3	3.8	1.49e+00	0	28	104	0	82	18375
2026-01-06 13:35:13.29	269.33	4.69	-58.6	-72.2	3.8	1.49e+00	0	29	104	0	82	18140
2026-01-06 13:35:14.29	269.46	4.72	-58.6	-72.2	3.9	1.49e+00	0	29	104	0	82	18111
2026-01-06 13:35:15.30	269.60	4.75	-58.6	-72.3	3.8	1.49e+00	0	29	104	0	82	18457
2026-01-06 13:35:16.30	269.73	4.78	-58.5	-71.7	3.8	1.49e+00	0	29	104	0	82	17115
2026-01-06 13:35:17.30	269.87	4.82	-58.4	-70.0	3.9	1.49e+00	0	28	104	0	82	14197
2026-01-06 13:35:18.30	270.00	4.85	-58.3	-68.1	4.0	1.45e+00	0	29	104	0	82	11385
2026-01-06 13:35:19.30	270.13	4.88	-58.1	-66.8	4.9	9.43e-01	0	29	104	0	82	9793
2026-01-06 13:35:20.29	270.27	4.91	-57.9	-65.9	5.4	5.36e-01	0	29	0	2097152	82	8798
2026-01-06 13:35:21.30	270.40	4.94	-57.7	-64.7	6.1	3.20e-01	0	29	0	5242880	82	7689
2026-01-06 13:35:22.30	270.54	4.98	-57.1	-62.7	7.7	8.23e-02	0	29	0	8388608	80	6854
2026-01-06 13:35:23.30	270.67	5.01	-56.0	-59.9	10.1	3.44e-03	0	29	0	11534336	78	5553
2026-01-06 13:35:24.31	270.81	5.04	-55.0	-58.1	11.4	3.50e-05	0	29	0	14680064	76	5045
2026-01-06 13:35:25.31	270.95	5.07	-55.4	-58.6	11.0	1.22e-05	0	29	0	17825792	76	5393
2026-01-06 13:35:26.31	271.08	5.10	-56.9	-62.0	8.1	1.41e+00	0	29	104	19922944	80	6332
2026-01-06 13:35:27.30	271.22	5.13	-56.5	-60.7	9.6	3.81e-03	0	29	0	22020096	78	6081
2026-01-06 13:35:28.31	271.36	5.16	-56.7	-61.1	9.1	6.89e-02	0	29	0	25165824	80	5716
2026-01-06 13:35:29.30	271.49	5.20	-52.8	-54.7	13.3	0.00e+00	0	29	0	28311552	72	4331
2026-01-06 13:35:30.30	271.63	5.23	-53.0	-55.0	13.2	0.00e+00	0	29	0	31457280	72	4478
2026-01-06 13:35:31.30	271.77	5.26	-52.9	-54.9	13.2	0.00e+00	0	29	0	34603008	72	4400
2026-01-06 13:35:32.30	271.91	5.29	-52.9	-54.9	13.3	0.00e+00	0	29	0	37748736	72	4400
2026-01-06 13:35:33.29	272.04	5.32	-52.7	-54.6	13.3	0.00e+00	0	29	0	40894464	71	4510
2026-01-06 13:35:34.29	272.18	5.35	-52.5	-54.4	13.5	0.00e+00	0	29	0	44040192	71	4392
2026-01-06 13:35:35.29	272.32	5.38	-52.5	-54.4	13.5	0.00e+00	0	29	0	47185920	71	4422
2026-01-06 13:35:36.29	272.46	5.41	-52.3	-54.2	13.6	0.00e+00	0	29	0	50331648	71	4300
2026-01-06 13:35:37.30	272.60	5.44	-52.6	-54.5	13.4	0.00e+00	0	29	0	53477376	71	4448
2026-01-06 13:35:38.30	272.74	5.47	-52.6	-54.5	13.4	0.00e+00	0	29	0	56623104	71	4459
2026-01-06 13:35:39.30	272.88	5.50	-52.7	-54.6	13.4	0.00e+00	0	29	0	59768832	71	4505
2026-01-06 13:35:40.29	273.02	5.53	-52.7	-54.7	13.4	0.00e+00	0	29	0	62914560	71	4549
2026-01-06 13:35:41.29	273.16	5.56	-52.7	-54.7	13.4	0.00e+00	0	29	0	66060288	71	4552
2026-01-06 13:35:42.30	273.30	5.59	-52.8	-54.7	13.3	0.00e+00	0	29	0	69206016	71	4584
2026-01-06 13:35:43.30	273.44	5.62	-52.7	-54.6	13.4	0.00e+00	0	29	0	72351744	71	4500
2026-01-06 13:35:44.29	273.58	5.65	-52.5	-54.4	13.5	0.00e+00	0	29	0	75497472	71	4419
2026-01-06 13:35:45.28	273.72	5.68	-52.8	-54.7	13.4	0.00e+00	0	28	0	78643200	71	4571
2026-01-06 13:35:46.27	273.86	5.71	-52.7	-54.5	13.4	0.00e+00	0	28	0	80740352	71	4488
2026-01-06 13:35:47.28	274.01	5.74	-52.5	-54.4	13.5	0.00e+00	0	28	0	83886080	71	4419
2026-01-06 13:35:48.28	274.15	5.77	-52.5	-54.4	13.5	0.00e+00	0	28	0	87031808	71	4413
2026-01-06 13:35:49.27	274.29	5.80	-52.7	-54.6	13.4	0.00e+00	0	29	0	90177536	71	4536
2026-01-06 13:35:50.27	274.43	5.82	-52.6	-54.5	13.5	0.00e+00	0	29	0	93323264	71	4464
2026-01-06 13:35:51.27	274.58	5.85	-52.5	-54.3	13.6	0.00e+00	0	29	0	96468992	71	4368
2026-01-06 13:35:52.27	274.72	5.88	-52.5	-54.3	13.6	0.00e+00	0	29	0	99614720	71	4364
2026-01-06 13:35:53.27	274.86	5.91	-52.4	-54.3	13.5	0.00e+00	0	29	0	102760448	71	4356
2026-01-06 13:35:54.27	275.01	5.94	-52.5	-54.4	13.5	0.00e+00	0	28	0	105906176	71	4417
2026-01-06 13:35:55.26	275.15	5.97	-52.4	-54.3	13.6	0.00e+00	0	29	0	109051904	71	4358
2026-01-06 13:35:56.26	275.29	5.99	-52.5	-54.3	13.5	0.00e+00	0	29	0	112197632	71	4390
2026-01-06 13:35:57.27	275.44	6.02	-52.4	-54.2	13.6	0.00e+00	0	28	0	115343360	71	4302
2026-01-06 13:35:58.27	275.59	6.05	-52.4	-54.2	13.6	0.00e+00	0	29	0	118489088	71	4336
2026-01-06 13:35:59.27	275.73	6.08	-52.4	-54.3	13.6	0.00e+00	0	29	0	121634816	71	4347
2026-01-06 13:36:00.27	275.88	6.11	-52.2	-54.0	13.7	0.00e+00	0	29	0	124780544	71	4230
2026-01-06 13:36:01.27	276.02	6.13	-52.3	-54.1	13.7	0.00e+00	0	29	0	127926272	71	4281
2026-01-06 13:36:02.27	276.17	6.16	-52.3	-54.1	13.7	0.00e+00	0	29	0	131072000	71	4247
2026-01-06 13:36:03.26	276.31	6.19	-52.3	-54.1	13.7	0.00e+00	0	28	0	134217728	71	4278
2026-01-06 13:36:04.26	276.46	6.22	-52.2	-54.0	13.8	0.00e+00	0	29	0	137363456	71	4201
2026-01-06 13:36:05.26	276.61	6.24	-52.0	-53.8	13.8	0.00e+00	0	28	0	140509184	70	4345
2026-01-06 13:36:06.25	276.75	6.27	-52.1	-53.8	13.7	0.00e+00	0	28	0	143654912	70	4390
2026-01-06 13:36:07.25	276.90	6.30	-52.3	-54.1	13.6	0.00e+00	0	28	0	146800640	70	4510
2026-01-06 13:36:08.26	277.05	6.32	-52.2	-54.0	13.6	0.00e+00	0	28	0	149946368	70	4464
2026-01-06 13:36:09.26	277.20	6.35	-52.3	-54.2	13.5	0.00e+00	0	29	0	153092096	70	4557
2026-01-06 13:36:10.25	277.34	6.38	-52.3	-54.1	13.5	0.00e+00	0	28	0	156237824	70	4545
2026-01-06 13:36:11.25	277.49	6.40	-52.4	-54.3	13.5	0.00e+00	0	28	0	159383552	70	4606
2026-01-06 13:36:12.24	277.64	6.43	-52.3	-54.0	13.6	0.00e+00	0	28	0	162529280	70	4491
2026-01-06 13:36:13.23	277.79	6.45	-52.2	-54.0	13.7	0.00e+00	0	29	0	165675008	70	4443
2026-01-06 13:36:14.23	277.94	6.48	-52.2	-54.0	13.7	0.00e+00	0	29	0	168820736	70	4445
2026-01-06 13:36:15.23	278.09	6.50	-52.1	-53.8	13.7	0.00e+00	0	28	0	171966464	70	4367
2026-01-06 13:36:16.22	278.23	6.53	-52.2	-53.9	13.7	0.00e+00	0	29	0	175112192	70	4432
2026-01-06 13:36:17.22	278.38	6.56	-52.3	-54.1	13.6	0.00e+00	0	28	0	178257920	70	4506
2026-01-06 13:36:18.22	278.53	6.58	-52.3	-54.0	13.6	0.00e+00	0	29	0	181403648	70	4480
2026-01-06 13:36:19.22	278.68	6.61	-52.2	-54.0	13.6	0.00e+00	0	28	0	184549376	70	4485
2026-01-06 13:36:20.22	278.84	6.63	-52.2	-54.0	13.6	0.00e+00	0	29	0	187695104	70	4472
2026-01-06 13:36:21.22	278.99	6.66	-52.3	-54.1	13.6	0.00e+00	0	28	0	190840832	70	4540
2026-01-06 13:36:22.21	279.14	6.68	-52.2	-54.0	13.7	0.00e+00	0	29	0	193986560	70	4458
2026-01-06 13:36:23.21	279.29	6.70	-52.3	-54.1	13.6	0.00e+00	0	29	0	197132288	70	4514
2026-01-06 13:36:24.21	279.44	6.73	-52.2	-54.0	13.7	0.00e+00	0	28	0	200278016	70	4460
2026-01-06 13:36:25.21	279.59	6.75	-52.3	-54.1	13.6	0.00e+00	0	29	0	203423744	70	4511
2026-01-06 13:36:26.21	279.74	6.78	-52.4	-54.2	13.6	0.00e+00	0	28	0	206569472	70	4555
2026-01-06 13:36:27.20	279.89	6.80	-52.2	-53.9	13.7	0.00e+00	0	28	0	209715200	70	4421
2026-01-06 13:36:28.21	280.05	6.83	-52.3	-54.1	13.6	0.00e+00	0	28	0	212860928	70	4532
2026-01-06 13:36:29.21	280.20	6.85	-52.1	-53.9	13.7	0.00e+00	0	28	0	214958080	70	4397
2026-01-06 13:36:30.21	280.35	6.87	-52.1	-53.9	13.7	0.00e+00	0	28	0	218103808	70	4412
2026-01-06 13:36:31.21	280.51	6.90	-52.0	-53.7	13.8	0.00e+00	0	28	0	221249536	70	4339
2026-01-06 13:36:32.21	280.66	6.92	-52.1	-53.8	13.7	0.00e+00	0	28	0	224395264	70	4384
2026-01-06 13:36:33.20	280.81	6.94	-52.1	-53.8	13.8	0.00e+00	0	28	0	227540992	70	4382
2026-01-06 13:36:34.20	280.97	6.97	-52.0	-53.7	13.8	0.00e+00	0	28	0	230686720	70	4299
2026-01-06 13:36:35.20	281.12	6.99	-52.0	-53.6	13.9	0.00e+00	0	28	0	233832448	70	4283
2026-01-06 13:36:36.20	281.28	7.01	-51.9	-53.6	13.9	0.00e+00	0	29	0	236978176	70	4267
2026-01-06 13:36:37.20	281.43	7.03	-51.8	-53.5	13.9	0.00e+00	0	28	0	240123904	70	4199
2026-01-06 13:36:38.21	281.59	7.06	-51.8	-53.5	13.9	0.00e+00	0	29	0	243269632	70	4213
2026-01-06 13:36:39.21	281.74	7.08	-51.8	-53.5	13.9	0.00e+00	0	28	0	246415360	70	4215
2026-01-06 13:36:40.21	281.90	7.10	-51.9	-53.5	13.9	0.00e+00	0	28	0	249561088	70	4229
2026-01-06 13:36:41.21	282.05	7.12	-51.9	-53.5	13.9	0.00e+00	0	28	0	252706816	70	4232
2026-01-06 13:36:42.20	282.21	7.14	-51.9	-53.6	13.9	0.00e+00	0	28	0	255852544	70	4250
2026-01-06 13:36:43.21	282.37	7.17	-52.0	-53.6	13.9	0.00e+00	0	28	0	258998272	70	4285
2026-01-06 13:36:44.21	282.52	7.19	-51.9	-53.6	13.9	0.00e+00	0	29	0	262144000	70	4252
2026-01-06 13:36:45.21	282.68	7.21	-51.9	-53.6	13.9	0.00e+00	0	29	0	265289728	70	4251
2026-01-06 13:36:46.21	282.84	7.23	-51.9	-53.6	13.9	0.00e+00	0	29	0	268435456	70	4260
2026-01-06 13:36:47.20	282.99	7.25	-51.9	-53.6	13.9	0.00e+00	0	28	0	271581184	70	4248
2026-01-06 13:36:48.20	283.15	7.27	-52.0	-53.7	13.8	0.00e+00	0	28	0	274726912	70	4327
2026-01-06 13:36:49.20	283.31	7.29	-52.1	-53.8	13.8	0.00e+00	0	28	0	277872640	70	4349
2026-01-06 13:36:50.19	283.46	7.31	-52.0	-53.7	13.9	0.00e+00	0	28	0	281018368	70	4300
2026-01-06 13:36:51.19	283.62	7.33	-51.9	-53.6	13.9	0.00e+00	0	28	0	284164096	70	4256
2026-01-06 13:36:52.19	283.78	7.35	-52.0	-53.6	13.9	0.00e+00	0	28	0	287309824	70	4281
2026-01-06 13:36:53.19	283.94	7.37	-52.1	-53.8	13.8	0.00e+00	0	29	0	290455552	70	4371
2026-01-06 13:36:54.19	284.09	7.39	-52.1	-53.8	13.8	0.00e+00	0	28	0	293601280	70	4383
2026-01-06 13:36:55.19	284.25	7.41	-52.1	-53.8	13.8	0.00e+00	0	28	0	296747008	70	4362
2026-01-06 13:36:56.19	284.41	7.43	-52.2	-53.9	13.8	0.00e+00	0	28	0	299892736	70	4421
2026-01-06 13:36:57.19	284.57	7.45	-52.1	-53.8	13.8	0.00e+00	0	28	0	303038464	70	4383
2026-01-06 13:36:58.18	284.73	7.47	-52.0	-53.7	13.9	0.00e+00	0	28	0	306184192	70	4311
2026-01-06 13:36:59.17	284.89	7.49	-52.0	-53.6	13.9	0.00e+00	0	28	0	309329920	70	4283
2026-01-06 13:37:00.17	285.05	7.50	-51.9	-53.6	13.9	0.00e+00	0	28	0	312475648	70	4266
2026-01-06 13:37:01.17	285.21	7.52	-51.9	-53.6	13.9	0.00e+00	0	29	0	315621376	70	4255
2026-01-06 13:37:02.16	285.36	7.54	-52.0	-53.6	13.9	0.00e+00	0	28	0	318767104	70	4279
2026-01-06 13:37:03.15	285.52	7.56	-52.0	-53.7	13.9	0.00e+00	0	28	0	321912832	70	4324
2026-01-06 13:37:04.15	285.68	7.58	-52.0	-53.6	13.9	0.00e+00	0	28	0	325058560	70	4283
2026-01-06 13:37:05.15	285.84	7.60	-52.0	-53.7	13.9	0.00e+00	0	28	0	328204288	70	4301
2026-01-06 13:37:06.14	286.00	7.61	-52.1	-53.8	13.8	0.00e+00	0	28	0	330301440	70	4343
2026-01-06 13:37:07.13	286.16	7.63	-52.1	-53.8	13.8	0.00e+00	0	29	0	333447168	70	4353
2026-01-06 13:37:08.14	286.32	7.65	-52.2	-53.9	13.8	0.00e+00	0	28	0	336592896	70	4398
2026-01-06 13:37:09.14	286.49	7.66	-52.1	-53.8	13.8	0.00e+00	0	28	0	339738624	70	4358
2026-01-06 13:37:10.13	286.65	7.68	-52.0	-53.7	13.9	0.00e+00	0	28	0	342884352	70	4314
2026-01-06 13:37:11.13	286.81	7.70	-52.1	-53.7	13.9	0.00e+00	0	28	0	346030080	70	4331
2026-01-06 13:37:12.12	286.97	7.71	-52.0	-53.7	13.9	0.00e+00	0	28	0	349175808	70	4305
2026-01-06 13:37:13.12	287.13	7.73	-52.1	-53.8	13.8	0.00e+00	0	29	0	352321536	70	4348
2026-01-06 13:37:14.11	287.29	7.75	-52.0	-53.6	13.9	0.00e+00	0	28	0	355467264	70	4290
2026-01-06 13:37:15.12	287.45	7.76	-51.9	-53.6	13.9	0.00e+00	0	28	0	358612992	70	4256
2026-01-06 13:37:16.12	287.62	7.78	-52.0	-53.7	13.9	0.00e+00	0	28	0	361758720	70	4296
2026-01-06 13:37:17.11	287.78	7.79	-52.0	-53.6	13.9	0.00e+00	0	28	0	364904448	70	4287
2026-01-06 13:37:18.11	287.94	7.81	-52.1	-53.7	13.9	0.00e+00	0	28	0	368050176	70	4321
2026-01-06 13:37:19.10	288.10	7.82	-52.2	-53.9	13.8	0.00e+00	0	28	0	371195904	70	4396
2026-01-06 13:37:20.11	288.27	7.84	-52.1	-53.8	13.8	0.00e+00	0	28	0	374341632	70	4361
2026-01-06 13:37:21.11	288.43	7.85	-52.1	-53.7	13.9	0.00e+00	0	28	0	377487360	70	4333
2026-01-06 13:37:22.12	288.60	7.87	-52.1	-53.8	13.9	0.00e+00	0	28	0	380633088	70	4356
2026-01-06 13:37:23.12	288.76	7.88	-52.2	-53.9	13.8	0.00e+00	0	28	0	383778816	70	4414
2026-01-06 13:37:24.12	288.92	7.90	-52.2	-53.9	13.8	0.00e+00	0	28	0	386924544	70	4424
2026-01-06 13:37:25.12	289.09	7.91	-52.2	-53.9	13.8	0.00e+00	0	28	0	390070272	70	4438
2026-01-06 13:37:26.13	289.25	7.93	-52.2	-53.9	13.8	0.00e+00	0	28	0	393216000	70	4417
2026-01-06 13:37:27.12	289.42	7.94	-52.1	-53.8	13.9	0.00e+00	0	28	0	396361728	70	4342
2026-01-06 13:37:28.12	289.58	7.95	-52.0	-53.6	13.9	0.00e+00	0	28	0	399507456	70	4275
2026-01-06 13:37:29.12	289.74	7.97	-52.0	-53.7	13.9	0.00e+00	0	28	0	402653184	70	4305
2026-01-06 13:37:30.12	289.91	7.98	-52.0	-53.6	13.9	0.00e+00	0	28	0	405798912	70	4290
2026-01-06 13:37:31.12	290.07	7.99	-52.0	-53.6	13.9	0.00e+00	0	28	0	408944640	70	4287
2026-01-06 13:37:32.12	290.24	8.01	-52.1	-53.7	13.9	0.00e+00	0	28	0	412090368	70	4333
2026-01-06 13:37:33.12	290.40	8.02	-52.1	-53.8	13.8	0.00e+00	0	29	0	415236096	70	4381
2026-01-06 13:37:34.11	290.57	8.03	-52.1	-53.8	13.8	0.00e+00	0	28	0	418381824	70	4357
2026-01-06 13:37:35.11	290.73	8.04	-51.9	-53.5	14.0	0.00e+00	0	28	0	421527552	70	4217
2026-01-06 13:37:36.11	290.90	8.05	-51.9	-53.5	14.0	0.00e+00	0	28	0	424673280	70	4236
2026-01-06 13:37:37.11	291.06	8.07	-52.0	-53.7	13.9	0.00e+00	0	28	0	427819008	70	4300
2026-01-06 13:37:38.11	291.23	8.08	-51.9	-53.5	14.0	0.00e+00	0	28	0	430964736	70	4236
2026-01-06 13:37:39.10	291.39	8.09	-51.9	-53.5	14.0	0.00e+00	0	28	0	434110464	70	4223
2026-01-06 13:37:40.11	291.56	8.10	-52.0	-53.6	13.9	0.00e+00	0	28	0	437256192	70	4290
2026-01-06 13:37:41.11	291.73	8.11	-52.1	-53.7	13.9	0.00e+00	0	28	0	440401920	70	4331
2026-01-06 13:37:42.10	291.89	8.12	-52.1	-53.7	13.9	0.00e+00	0	28	0	443547648	70	4339
2026-01-06 13:37:43.10	292.06	8.13	-52.0	-53.7	13.9	0.00e+00	0	28	0	446693376	70	4294
2026-01-06 13:37:44.10	292.22	8.14	-52.0	-53.7	13.9	0.00e+00	0	28	0	449839104	70	4307
2026-01-06 13:37:45.10	292.39	8.15	-52.0	-53.6	13.9	0.00e+00	0	28	0	452984832	70	4267
2026-01-06 13:37:46.10	292.56	8.16	-52.1	-53.7	13.8	0.00e+00	0	28	0	456130560	70	4339
2026-01-06 13:37:47.10	292.72	8.17	-52.0	-53.7	13.9	0.00e+00	0	28	0	459276288	70	4302
2026-01-06 13:37:48.10	292.89	8.18	-52.1	-53.7	13.9	0.00e+00	0	28	0	462422016	70	4330
2026-01-06 13:37:49.10	293.06	8.19	-52.1	-53.7	13.9	0.00e+00	0	28	0	465567744	70	4330
2026-01-06 13:37:50.10	293.23	8.20	-52.1	-53.8	13.9	0.00e+00	0	28	0	468713472	70	4354
2026-01-06 13:37:51.10	293.39	8.21	-51.9	-53.6	14.0	0.00e+00	0	28	0	471859200	70	4256
2026-01-06 13:37:52.10	293.56	8.22	-51.8	-53.4	14.0	0.00e+00	0	28	0	475004928	70	4188
2026-01-06 13:37:53.10	293.73	8.23	-51.8	-53.4	14.0	0.00e+00	0	28	0	478150656	70	4159
2026-01-06 13:37:54.11	293.90	8.24	-51.8	-53.4	14.0	0.00e+00	0	28	0	481296384	70	4174
2026-01-06 13:37:55.11	294.06	8.24	-51.7	-53.3	14.1	0.00e+00	0	28	0	483393536	70	4138
2026-01-06 13:37:56.10	294.23	8.25	-51.7	-53.3	14.1	0.00e+00	0	28	0	486539264	70	4132
2026-01-06 13:37:57.09	294.40	8.26	-51.8	-53.4	14.0	0.00e+00	0	28	0	489684992	70	4193
2026-01-06 13:37:58.09	294.56	8.27	-51.9	-53.5	14.0	0.00e+00	0	28	0	492830720	70	4210
2026-01-06 13:37:59.08	294.73	8.27	-52.0	-53.7	13.9	0.00e+00	0	28	0	495976448	70	4313
2026-01-06 13:38:00.08	294.90	8.28	-52.1	-53.8	13.8	0.00e+00	0	28	0	499122176	70	4365
2026-01-06 13:38:01.08	295.07	8.29	-51.9	-53.6	13.9	0.00e+00	0	28	0	502267904	70	4248
2026-01-06 13:38:02.08	295.23	8.29	-51.9	-53.6	13.9	0.00e+00	0	28	0	505413632	70	4246
2026-01-06 13:38:03.07	295.40	8.30	-52.0	-53.7	13.9	0.00e+00	0	28	0	508559360	70	4299
2026-01-06 13:38:04.07	295.57	8.31	-51.9	-53.6	13.9	0.00e+00	0	28	0	511705088	70	4258
2026-01-06 13:38:05.08	295.74	8.31	-51.8	-53.5	14.0	0.00e+00	0	28	0	514850816	70	4195
2026-01-06 13:38:06.07	295.91	8.32	-51.8	-53.5	14.0	0.00e+00	0	28	0	517996544	70	4195
2026-01-06 13:38:07.06	296.07	8.32	-51.8	-53.4	14.0	0.00e+00	0	28	0	521142272	70	4176
2026-01-06 13:38:08.06	296.24	8.33	-51.8	-53.5	14.0	0.00e+00	0	28	0	524288000	70	4200
2026-01-06 13:38:09.06	296.41	8.33	-51.8	-53.4	14.0	0.00e+00	0	28	0	527433728	70	4191
2026-01-06 13:38:10.05	296.58	8.34	-51.8	-53.5	14.0	0.00e+00	0	28	0	530579456	70	4206
2026-01-06 13:38:11.05	296.75	8.34	-51.9	-53.6	13.9	0.00e+00	0	28	0	533725184	70	4261
2026-01-06 13:38:12.05	296.91	8.35	-52.0	-53.6	13.9	0.00e+00	0	28	0	536870912	70	4280
2026-01-06 13:38:13.05	297.08	8.35	-52.0	-53.6	13.9	0.00e+00	0	28	0	540016640	70	4280
2026-01-06 13:38:14.05	297.25	8.36	-51.8	-53.5	14.0	0.00e+00	0	28	0	543162368	70	4208
2026-01-06 13:38:15.04	297.42	8.36	-51.8	-53.4	14.0	0.00e+00	0	28	0	546308096	70	4183
2026-01-06 13:38:16.04	297.59	8.37	-51.7	-53.3	14.1	0.00e+00	0	28	0	549453824	70	4121
2026-01-06 13:38:17.04	297.76	8.37	-51.7	-53.3	14.0	0.00e+00	0	28	0	552599552	69	4345
2026-01-06 13:38:18.05	297.93	8.37	-51.6	-53.2	14.0	0.00e+00	0	28	0	555745280	69	4306
2026-01-06 13:38:19.04	298.09	8.37	-51.7	-53.3	13.9	0.00e+00	0	28	0	558891008	69	4383
2026-01-06 13:38:20.03	298.26	8.38	-51.8	-53.4	13.9	0.00e+00	0	28	0	562036736	69	4401
2026-01-06 13:38:21.04	298.43	8.38	-51.8	-53.4	13.9	0.00e+00	0	28	0	565182464	69	4416
2026-01-06 13:38:22.04	298.60	8.38	-51.9	-53.5	13.9	0.00e+00	0	28	0	568328192	69	4479
2026-01-06 13:38:23.04	298.77	8.39	-51.7	-53.3	14.0	0.00e+00	0	28	0	571473920	69	4363
2026-01-06 13:38:24.04	298.94	8.39	-51.7	-53.3	14.0	0.00e+00	0	28	0	574619648	69	4356
2026-01-06 13:38:25.04	299.11	8.39	-51.8	-53.4	13.9	0.00e+00	0	28	0	577765376	69	4406
2026-01-06 13:38:26.04	299.28	8.39	-51.8	-53.5	13.9	0.00e+00	0	28	0	580911104	69	4446
2026-01-06 13:38:27.04	299.45	8.39	-51.8	-53.4	13.9	0.00e+00	0	28	0	584056832	69	4411
2026-01-06 13:38:28.04	299.62	8.39	-51.7	-53.4	13.9	0.00e+00	0	28	0	587202560	69	4394
2026-01-06 13:38:29.04	299.79	8.39	-51.8	-53.4	13.9	0.00e+00	0	28	0	590348288	69	4420
2026-01-06 13:38:30.03	299.95	8.39	-51.8	-53.4	13.9	0.00e+00	0	28	0	592445440	69	4415
2026-01-06 13:38:31.03	300.12	8.40	-51.7	-53.3	14.0	0.00e+00	0	28	0	595591168	69	4357
2026-01-06 13:38:32.03	300.29	8.40	-51.8	-53.4	13.9	0.00e+00	0	28	0	598736896	69	4400
2026-01-06 13:38:33.03	300.46	8.40	-51.7	-53.3	13.9	0.00e+00	0	28	0	601882624	69	4376
2026-01-06 13:38:34.02	300.63	8.40	-51.8	-53.5	13.9	0.00e+00	0	28	0	605028352	69	4463
2026-01-06 13:38:35.02	300.80	8.40	-51.8	-53.5	13.9	0.00e+00	0	28	0	608174080	69	4452
2026-01-06 13:38:36.01	300.96	8.39	-51.9	-53.5	13.9	0.00e+00	0	28	0	611319808	69	4482
2026-01-06 13:38:37.01	301.13	8.39	-51.8	-53.5	13.9	0.00e+00	0	28	0	614465536	69	4473
2026-01-06 13:38:38.02	301.30	8.39	-51.8	-53.4	13.9	0.00e+00	0	28	0	617611264	69	4428
2026-01-06 13:38:39.02	301.47	8.39	-51.8	-53.4	13.9	0.00e+00	0	28	0	620756992	69	4410
2026-01-06 13:38:40.01	301.64	8.39	-51.7	-53.3	13.9	0.00e+00	0	28	0	623902720	69	4372
2026-01-06 13:38:41.02	301.81	8.39	-51.6	-53.2	14.0	0.00e+00	0	28	0	627048448	69	4335
2026-01-06 13:38:42.02	301.98	8.39	-51.7	-53.3	14.0	0.00e+00	0	28	0	630194176	69	4364
2026-01-06 13:38:43.00	302.15	8.38	-51.7	-53.3	13.9	0.00e+00	0	28	0	633339904	69	4381
2026-01-06 13:38:44.00	302.32	8.38	-51.6	-53.2	14.0	0.00e+00	0	28	0	636485632	69	4340
2026-01-06 13:38:45.00	302.49	8.38	-51.7	-53.3	13.9	0.00e+00	0	28	0	639631360	69	4354
2026-01-06 13:38:45.99	302.65	8.38	-51.8	-53.4	13.9	0.00e+00	0	28	0	642777088	69	4398
2026-01-06 13:38:46.99	302.82	8.37	-51.6	-53.2	14.0	0.00e+00	0	28	0	645922816	69	4309
2026-01-06 13:38:47.99	302.99	8.37	-51.6	-53.1	14.0	0.00e+00	0	28	0	649068544	69	4290
2026-01-06 13:38:48.99	303.16	8.37	-51.6	-53.1	14.0	0.00e+00	0	28	0	652214272	69	4280
2026-01-06 13:38:50.00	303.33	8.36	-51.6	-53.2	14.0	0.00e+00	0	28	0	655360000	69	4328
2026-01-06 13:38:51.00	303.50	8.36	-51.5	-53.1	14.1	0.00e+00	0	28	0	658505728	69	4275
2026-01-06 13:38:52.00	303.67	8.36	-51.5	-53.1	14.0	0.00e+00	0	28	0	661651456	69	4265
2026-01-06 13:38:53.00	303.84	8.35	-51.6	-53.2	14.0	0.00e+00	0	28	0	664797184	69	4296
2026-01-06 13:38:54.00	304.00	8.35	-51.5	-53.0	14.1	0.00e+00	0	28	0	667942912	69	4226
2026-01-06 13:38:55.00	304.17	8.34	-51.4	-53.0	14.1	0.00e+00	0	28	0	671088640	69	4214
2026-01-06 13:38:56.01	304.34	8.34	-51.4	-53.0	14.1	0.00e+00	0	28	0	674234368	69	4218
2026-01-06 13:38:57.01	304.51	8.33	-51.5	-53.1	14.1	0.00e+00	0	28	0	677380096	69	4264
2026-01-06 13:38:58.01	304.68	8.33	-51.5	-53.0	14.1	0.00e+00	0	28	0	680525824	69	4232
2026-01-06 13:38:59.01	304.85	8.32	-51.5	-53.1	14.1	0.00e+00	0	28	0	683671552	69	4249
2026-01-06 13:39:00.00	305.02	8.32	-51.5	-53.0	14.1	0.00e+00	0	28	0	686817280	69	4234
2026-01-06 13:39:01.00	305.18	8.31	-51.6	-53.1	14.0	0.00e+00	0	28	0	689963008	69	4285
2026-01-06 13:39:02.00	305.35	8.31	-51.5	-53.1	14.0	0.00e+00	0	28	0	693108736	69	4254
2026-01-06 13:39:03.00	305.52	8.30	-51.6	-53.2	14.0	0.00e+00	0	28	0	696254464	69	4294
2026-01-06 13:39:04.00	305.69	8.29	-51.5	-53.1	14.0	0.00e+00	0	28	0	699400192	69	4269
2026-01-06 13:39:04.99	305.85	8.29	-51.6	-53.2	14.0	0.00e+00	0	28	0	702545920	69	4321
2026-01-06 13:39:05.98	306.02	8.28	-51.7	-53.3	13.9	0.00e+00	0	28	0	705691648	69	4356
2026-01-06 13:39:06.98	306.19	8.27	-51.6	-53.2	14.0	0.00e+00	0	28	0	708837376	69	4338
2026-01-06 13:39:07.97	306.35	8.26	-51.4	-53.0	14.1	0.00e+00	0	28	0	711983104	69	4229
2026-01-06 13:39:08.97	306.52	8.26	-51.4	-52.9	14.1	0.00e+00	0	28	0	715128832	69	4185
2026-01-06 13:39:09.96	306.69	8.25	-51.3	-52.9	14.1	0.00e+00	0	28	0	718274560	69	4148
2026-01-06 13:39:10.95	306.85	8.24	-51.4	-52.9	14.1	0.00e+00	0	28	0	721420288	69	4180
2026-01-06 13:39:11.95	307.02	8.23	-51.4	-52.9	14.1	0.00e+00	0	28	0	724566016	69	4171
2026-01-06 13:39:12.95	307.19	8.23	-51.3	-52.9	14.1	0.00e+00	0	28	0	726663168	69	4152
2026-01-06 13:39:13.95	307.35	8.22	-51.4	-53.0	14.1	0.00e+00	0	28	0	729808896	69	4203
2026-01-06 13:39:14.94	307.52	8.21	-51.5	-53.1	14.0	0.00e+00	0	28	0	732954624	69	4247
2026-01-06 13:39:15.94	307.69	8.20	-51.5	-53.1	14.0	0.00e+00	0	28	0	736100352	69	4257
2026-01-06 13:39:16.94	307.85	8.19	-51.6	-53.2	14.0	0.00e+00	0	28	0	739246080	69	4292
2026-01-06 13:39:17.93	308.02	8.18	-51.4	-53.0	14.1	0.00e+00	0	28	0	742391808	69	4211
2026-01-06 13:39:18.92	308.18	8.17	-51.6	-53.1	14.0	0.00e+00	0	28	0	745537536	69	4286
2026-01-06 13:39:19.93	308.35	8.16	-51.5	-53.1	14.0	0.00e+00	0	28	0	748683264	69	4249
2026-01-06 13:39:20.92	308.52	8.15	-51.4	-52.9	14.1	0.00e+00	0	28	0	751828992	69	4183
2026-01-06 13:39:21.92	308.68	8.14	-51.4	-52.9	14.1	0.00e+00	0	28	0	754974720	69	4180
2026-01-06 13:39:22.92	308.85	8.13	-51.5	-53.0	14.1	0.00e+00	0	28	0	758120448	69	4241
2026-01-06 13:39:23.91	309.01	8.12	-51.6	-53.2	14.0	0.00e+00	0	28	0	761266176	69	4319
2026-01-06 13:39:24.90	309.18	8.11	-51.6	-53.3	13.9	0.00e+00	0	28	0	764411904	69	4351
2026-01-06 13:39:25.90	309.34	8.10	-51.6	-53.2	14.0	0.00e+00	0	28	0	767557632	69	4314
2026-01-06 13:39:26.90	309.51	8.09	-51.6	-53.2	14.0	0.00e+00	0	28	0	770703360	69	4336
2026-01-06 13:39:27.90	309.68	8.08	-51.6	-53.2	14.0	0.00e+00	0	28	0	773849088	69	4303
2026-01-06 13:39:28.90	309.84	8.06	-51.5	-53.1	14.0	0.00e+00	0	28	0	776994816	69	4280
2026-01-06 13:39:29.90	310.01	8.05	-51.5	-53.1	14.0	0.00e+00	0	28	0	780140544	69	4278
2026-01-06 13:39:30.90	310.17	8.04	-51.5	-53.1	14.0	0.00e+00	0	28	0	783286272	69	4281
2026-01-06 13:39:31.89	310.33	8.03	-51.5	-53.1	14.0	0.00e+00	0	28	0	786432000	69	4268
2026-01-06 13:39:32.88	310.50	8.02	-51.6	-53.2	14.0	0.00e+00	0	28	0	789577728	69	4308
2026-01-06 13:39:33.89	310.66	8.00	-51.6	-53.2	14.0	0.00e+00	0	28	0	792723456	69	4294
2026-01-06 13:39:34.89	310.83	7.99	-51.5	-53.0	14.0	0.00e+00	0	28	0	795869184	69	4233
2026-01-06 13:39:35.89	310.99	7.98	-51.5	-53.1	14.0	0.00e+00	0	28	0	799014912	69	4261
2026-01-06 13:39:36.89	311.16	7.97	-51.5	-53.1	14.0	0.00e+00	0	28	0	802160640	69	4289
2026-01-06 13:39:37.89	311.32	7.95	-51.5	-53.1	14.0	0.00e+00	0	28	0	805306368	69	4262
2026-01-06 13:39:38.89	311.49	7.94	-51.5	-53.1	14.0	0.00e+00	0	28	0	808452096	69	4262
2026-01-06 13:39:39.88	311.65	7.93	-51.6	-53.2	13.9	0.00e+00	0	28	0	811597824	69	4327
2026-01-06 13:39:40.87	311.81	7.91	-51.6	-53.2	13.9	0.00e+00	0	28	0	814743552	69	4323
2026-01-06 13:39:41.88	311.98	7.90	-51.6	-53.3	13.9	0.00e+00	0	28	0	817889280	69	4352
2026-01-06 13:39:42.87	312.14	7.88	-51.6	-53.2	13.9	0.00e+00	0	28	0	821035008	69	4312
2026-01-06 13:39:43.86	312.30	7.87	-51.6	-53.3	13.9	0.00e+00	0	28	0	824180736	69	4341
2026-01-06 13:39:44.86	312.46	7.85	-51.6	-53.2	13.9	0.00e+00	0	28	0	827326464	69	4331
2026-01-06 13:39:45.86	312.63	7.84	-51.6	-53.2	13.9	0.00e+00	0	28	0	830472192	69	4340
2026-01-06 13:39:46.86	312.79	7.82	-51.6	-53.3	13.9	0.00e+00	0	28	0	833617920	69	4344
2026-01-06 13:39:47.87	312.95	7.81	-51.7	-53.3	13.9	0.00e+00	0	28	0	836763648	69	4367
2026-01-06 13:39:48.86	313.11	7.79	-51.7	-53.4	13.8	0.00e+00	0	28	0	838860800	69	4416
2026-01-06 13:39:49.85	313.27	7.78	-51.8	-53.5	13.8	0.00e+00	0	28	0	842006528	69	4442
2026-01-06 13:39:50.86	313.44	7.76	-51.7	-53.4	13.9	0.00e+00	0	28	0	845152256	69	4418
2026-01-06 13:39:51.85	313.60	7.75	-51.8	-53.4	13.8	0.00e+00	0	28	0	848297984	69	4422
2026-01-06 13:39:52.86	313.76	7.73	-51.9	-53.6	13.8	0.00e+00	0	28	0	851443712	69	4501
2026-01-06 13:39:53.86	313.92	7.71	-52.0	-53.7	13.7	0.00e+00	0	28	0	854589440	69	4558
2026-01-06 13:39:54.86	314.08	7.70	-52.0	-53.7	13.7	0.00e+00	0	28	0	857735168	69	4583
2026-01-06 13:39:55.86	314.25	7.68	-51.9	-53.6	13.8	0.00e+00	0	28	0	860880896	69	4514
2026-01-06 13:39:56.87	314.41	7.66	-51.9	-53.7	13.7	0.00e+00	0	28	0	864026624	69	4566
2026-01-06 13:39:57.87	314.57	7.65	-51.7	-53.4	13.8	0.00e+00	0	28	0	867172352	69	4426
2026-01-06 13:39:58.87	314.73	7.63	-51.7	-53.4	13.8	0.00e+00	0	28	0	870318080	69	4400
2026-01-06 13:39:59.86	314.89	7.61	-51.8	-53.5	13.8	0.00e+00	0	28	0	873463808	69	4452
2026-01-06 13:40:00.82	315.04	7.60	-51.8	-53.5	13.8	0.00e+00	0	28	0	876609536	69	4445
2026-01-06 13:40:01.81	315.20	7.58	-51.8	-53.5	13.8	0.00e+00	0	28	0	879755264	69	4452
2026-01-06 13:40:02.82	315.36	7.56	-51.8	-53.5	13.8	0.00e+00	0	28	0	882900992	69	4464
2026-01-06 13:40:03.81	315.52	7.54	-51.7	-53.4	13.8	0.00e+00	0	28	0	886046720	69	4406
2026-01-06 13:40:04.82	315.68	7.52	-51.7	-53.4	13.8	0.00e+00	0	28	0	889192448	69	4397
2026-01-06 13:40:05.82	315.84	7.50	-51.8	-53.5	13.8	0.00e+00	0	28	0	892338176	69	4465
2026-01-06 13:40:06.82	316.00	7.49	-51.9	-53.6	13.7	0.00e+00	0	28	0	895483904	69	4522
2026-01-06 13:40:07.81	316.16	7.47	-51.8	-53.5	13.8	0.00e+00	0	28	0	898629632	69	4445
2026-01-06 13:40:08.80	316.32	7.45	-51.8	-53.5	13.8	0.00e+00	0	28	0	901775360	69	4455
2026-01-06 13:40:09.80	316.47	7.43	-51.8	-53.5	13.8	0.00e+00	0	28	0	904921088	69	4447
2026-01-06 13:40:10.80	316.63	7.41	-51.8	-53.5	13.8	0.00e+00	0	28	0	908066816	69	4461
2026-01-06 13:40:11.79	316.79	7.39	-51.7	-53.3	13.8	0.00e+00	0	28	0	911212544	69	4389
2026-01-06 13:40:12.78	316.95	7.37	-51.6	-53.3	13.9	0.00e+00	0	28	0	914358272	69	4356
2026-01-06 13:40:13.78	317.10	7.35	-51.7	-53.4	13.8	0.00e+00	0	28	0	917504000	69	4399
2026-01-06 13:40:14.78	317.26	7.33	-51.7	-53.4	13.8	0.00e+00	0	28	0	920649728	69	4407
2026-01-06 13:40:15.77	317.42	7.31	-51.7	-53.3	13.8	0.00e+00	0	28	0	923795456	69	4370
2026-01-06 13:40:16.77	317.57	7.29	-51.6	-53.3	13.9	0.00e+00	0	28	0	926941184	69	4347
2026-01-06 13:40:17.77	317.73	7.27	-51.7	-53.3	13.9	0.00e+00	0	28	0	930086912	69	4370
2026-01-06 13:40:18.77	317.89	7.25	-51.6	-53.3	13.9	0.00e+00	0	28	0	933232640	69	4345
2026-01-06 13:40:19.77	318.04	7.23	-51.7	-53.3	13.8	0.00e+00	0	28	0	936378368	69	4379
2026-01-06 13:40:20.77	318.20	7.21	-51.6	-53.3	13.9	0.00e+00	0	28	0	939524096	69	4350
2026-01-06 13:40:21.76	318.36	7.19	-51.6	-53.2	13.9	0.00e+00	0	28	0	942669824	69	4305
2026-01-06 13:40:22.76	318.51	7.17	-51.6	-53.2	13.9	0.00e+00	0	28	0	945815552	69	4337
2026-01-06 13:40:23.76	318.67	7.15	-51.6	-53.3	13.9	0.00e+00	0	28	0	947912704	69	4341
2026-01-06 13:40:24.76	318.82	7.12	-51.6	-53.2	13.9	0.00e+00	0	28	0	951058432	69	4324
2026-01-06 13:40:25.76	318.98	7.10	-51.6	-53.2	13.9	0.00e+00	0	28	0	954204160	69	4309
2026-01-06 13:40:26.76	319.13	7.08	-51.6	-53.3	13.9	0.00e+00	0	28	0	957349888	69	4350
2026-01-06 13:40:27.76	319.29	7.06	-51.6	-53.3	13.9	0.00e+00	0	28	0	960495616	69	4352
2026-01-06 13:40:28.75	319.44	7.04	-51.6	-53.3	13.9	0.00e+00	0	28	0	963641344	69	4359
2026-01-06 13:40:29.75	319.59	7.01	-51.6	-53.3	13.9	0.00e+00	0	28	0	966787072	69	4358
2026-01-06 13:40:30.75	319.75	6.99	-51.6	-53.3	13.9	0.00e+00	0	28	0	969932800	69	4351
2026-01-06 13:40:31.76	319.90	6.97	-51.6	-53.3	13.9	0.00e+00	0	28	0	973078528	69	4365
2026-01-06 13:40:32.76	320.06	6.95	-51.7	-53.3	13.8	0.00e+00	0	28	0	976224256	69	4378
2026-01-06 13:40:33.76	320.21	6.92	-51.6	-53.3	13.9	0.00e+00	0	28	0	979369984	69	4367
2026-01-06 13:40:34.76	320.36	6.90	-51.7	-53.4	13.8	0.00e+00	0	28	0	982515712	69	4423
2026-01-06 13:40:35.76	320.52	6.88	-51.7	-53.4	13.8	0.00e+00	0	28	0	985661440	69	4426
2026-01-06 13:40:36.77	320.67	6.85	-51.6	-53.2	13.9	0.00e+00	0	28	0	988807168	69	4336
2026-01-06 13:40:37.78	320.82	6.83	-51.6	-53.3	13.9	0.00e+00	0	28	0	991952896	69	4364
2026-01-06 13:40:38.78	320.98	6.80	-51.6	-53.3	13.9	0.00e+00	0	28	0	995098624	69	4351
2026-01-06 13:40:39.78	321.13	6.78	-51.5	-53.1	13.9	0.00e+00	0	28	0	998244352	69	4266
2026-01-06 13:40:40.78	321.28	6.76	-51.4	-53.0	14.0	0.00e+00	0	28	0	1001390080	69	4221
2026-01-06 13:40:41.77	321.43	6.73	-51.5	-53.2	13.9	0.00e+00	0	28	0	1004535808	69	4293
2026-01-06 13:40:42.77	321.58	6.71	-51.6	-53.3	13.9	0.00e+00	0	28	0	1007681536	69	4367
2026-01-06 13:40:43.77	321.73	6.68	-51.5	-53.1	13.9	0.00e+00	0	28	0	1010827264	69	4280
2026-01-06 13:40:44.78	321.88	6.66	-51.6	-53.3	13.8	0.00e+00	0	28	0	1013972992	69	4365
2026-01-06 13:40:45.77	322.03	6.63	-51.7	-53.3	13.8	0.00e+00	0	28	0	1017118720	69	4389
2026-01-06 13:40:46.77	322.18	6.61	-51.7	-53.3	13.8	0.00e+00	0	28	0	1020264448	69	4387
2026-01-06 13:40:47.77	322.33	6.58	-51.7	-53.4	13.8	0.00e+00	0	28	0	1023410176	69	4394
2026-01-06 13:40:48.77	322.48	6.56	-51.7	-53.4	13.8	0.00e+00	0	28	0	1026555904	69	4416
2026-01-06 13:40:49.77	322.63	6.53	-51.7	-53.4	13.8	0.00e+00	0	28	0	1029701632	69	4441
2026-01-06 13:40:50.77	322.78	6.51	-51.7	-53.3	13.8	0.00e+00	0	28	0	1032847360	69	4389
2026-01-06 13:40:51.77	322.93	6.48	-51.6	-53.3	13.9	0.00e+00	0	28	0	1035993088	69	4354
2026-01-06 13:40:52.77	323.08	6.46	-51.6	-53.3	13.8	0.00e+00	0	28	0	1039138816	69	4360
2026-01-06 13:40:53.77	323.23	6.43	-51.7	-53.4	13.7	0.00e+00	0	28	0	1042284544	69	4432
2026-01-06 13:40:54.77	323.38	6.41	-51.7	-53.4	13.8	0.00e+00	0	28	0	1045430272	69	4426
2026-01-06 13:40:55.77	323.52	6.38	-51.7	-53.4	13.7	0.00e+00	0	28	0	1048576000	69	4435
2026-01-06 13:40:56.76	323.67	6.35	-51.8	-53.5	13.7	0.00e+00	0	28	0	1051721728	69	4467
2026-01-06 13:40:57.77	323.82	6.33	-51.8	-53.5	13.7	0.00e+00	0	28	0	1054867456	69	4456
2026-01-06 13:40:58.77	323.97	6.30	-51.8	-53.5	13.7	0.00e+00	0	28	0	1058013184	69	4482
2026-01-06 13:40:59.77	324.11	6.27	-51.6	-53.3	13.8	0.00e+00	0	28	0	1061158912	69	4359
2026-01-06 13:41:00.77	324.26	6.25	-51.7	-53.4	13.8	0.00e+00	0	28	0	1064304640	69	4400
2026-01-06 13:41:01.76	324.40	6.22	-51.7	-53.4	13.8	0.00e+00	0	28	0	1067450368	69	4408
2026-01-06 13:41:02.75	324.55	6.19	-51.6	-53.3	13.8	0.00e+00	0	28	0	1070596096	69	4383
2026-01-06 13:41:03.75	324.70	6.17	-51.7	-53.4	13.7	0.00e+00	0	28	0	1073741824	69	4437
2026-01-06 13:41:04.75	324.84	6.14	-51.7	-53.4	13.8	0.00e+00	0	28	0	1076887552	69	4405
2026-01-06 13:41:05.75	324.99	6.11	-51.8	-53.6	13.7	0.00e+00	0	28	0	1080033280	69	4497
2026-01-06 13:41:06.74	325.13	6.08	-51.8	-53.5	13.7	0.00e+00	0	28	0	1082130432	69	4459
2026-01-06 13:41:07.74	325.27	6.06	-51.7	-53.5	13.7	0.00e+00	0	28	0	1086324736	69	4445
2026-01-06 13:41:08.73	325.42	6.03	-51.8	-53.5	13.7	0.00e+00	0	28	0	1088421888	69	4461
2026-01-06 13:41:09.73	325.56	6.00	-51.8	-53.6	13.6	0.00e+00	0	28	0	1091567616	69	4521
2026-01-06 13:41:10.72	325.70	5.97	-52.0	-53.8	13.5	0.00e+00	0	28	0	1094713344	69	4604
2026-01-06 13:41:11.71	325.85	5.95	-51.9	-53.7	13.6	0.00e+00	0	28	0	1097859072	69	4586
2026-01-06 13:41:12.72	325.99	5.92	-51.9	-53.7	13.6	0.00e+00	0	28	0	1101004800	69	4580
2026-01-06 13:41:13.71	326.13	5.89	-51.9	-53.6	13.6	0.00e+00	0	28	0	1104150528	69	4529
2026-01-06 13:41:14.72	326.28	5.86	-51.7	-53.5	13.7	0.00e+00	0	28	0	1107296256	69	4457
2026-01-06 13:41:15.72	326.42	5.83	-51.7	-53.4	13.8	0.00e+00	0	28	0	1110441984	69	4401
2026-01-06 13:41:16.73	326.56	5.80	-51.6	-53.3	13.8	0.00e+00	0	28	0	1113587712	69	4370
2026-01-06 13:41:17.71	326.70	5.78	-51.6	-53.3	13.8	0.00e+00	0	28	0	1116733440	69	4349
2026-01-06 13:41:18.71	326.85	5.75	-51.9	-53.6	13.6	0.00e+00	0	28	0	1119879168	69	4545
2026-01-06 13:41:19.70	326.99	5.72	-51.9	-53.6	13.6	0.00e+00	0	28	0	1123024896	69	4519
2026-01-06 13:41:20.69	327.13	5.69	-51.7	-53.4	13.7	0.00e+00	0	28	0	1126170624	69	4432
2026-01-06 13:41:21.69	327.27	5.66	-51.8	-53.5	13.7	0.00e+00	0	28	0	1129316352	69	4483
2026-01-06 13:41:22.68	327.41	5.63	-51.8	-53.5	13.7	0.00e+00	0	28	0	1132462080	69	4486
2026-01-06 13:41:23.68	327.55	5.60	-51.9	-53.7	13.6	0.00e+00	0	28	0	1135607808	69	4577
2026-01-06 13:41:24.66	327.68	5.57	-51.8	-53.5	13.7	0.00e+00	0	28	0	1138753536	69	4467
2026-01-06 13:41:25.67	327.83	5.54	-51.8	-53.6	13.6	0.00e+00	0	28	0	1141899264	69	4506
2026-01-06 13:41:26.66	327.96	5.51	-51.9	-53.7	13.6	0.00e+00	0	28	0	1145044992	69	4555
2026-01-06 13:41:27.66	328.10	5.48	-52.0	-53.8	13.5	0.00e+00	0	28	0	1148190720	69	4633
2026-01-06 13:41:28.65	328.24	5.45	-52.0	-53.7	13.5	0.00e+00	0	28	0	1151336448	69	4598
2026-01-06 13:41:29.64	328.38	5.42	-52.1	-53.9	13.5	0.00e+00	0	28	0	1154482176	69	4664
2026-01-06 13:41:30.65	328.52	5.39	-52.1	-53.9	13.4	0.00e+00	0	28	0	1157627904	69	4675
2026-01-06 13:41:31.65	328.66	5.36	-52.2	-54.0	13.3	0.00e+00	0	28	0	1160773632	69	4754
2026-01-06 13:41:32.64	328.79	5.33	-52.2	-54.1	13.4	0.00e+00	0	28	0	1163919360	69	4772
2026-01-06 13:41:33.63	328.93	5.30	-52.1	-53.9	13.4	0.00e+00	0	28	0	1167065088	69	4699
2026-01-06 13:41:34.63	329.07	5.27	-52.1	-54.0	13.4	0.00e+00	0	28	0	1170210816	69	4734
2026-01-06 13:41:35.64	329.21	5.24	-52.3	-54.2	13.3	0.00e+00	0	28	0	1173356544	69	4815
2026-01-06 13:41:36.63	329.34	5.21	-52.2	-54.1	13.4	0.00e+00	0	28	0	1176502272	69	4780
2026-01-06 13:41:37.63	329.48	5.18	-52.3	-54.2	13.3	0.00e+00	0	28	0	1179648000	69	4820
2026-01-06 13:41:38.63	329.61	5.15	-52.1	-53.9	13.4	0.00e+00	0	28	0	1182793728	69	4683
2026-01-06 13:41:39.63	329.75	5.12	-52.1	-54.0	13.4	0.00e+00	0	28	0	1185939456	69	4709
2026-01-06 13:41:40.63	329.89	5.09	-52.1	-54.0	13.4	0.00e+00	0	28	0	1189085184	69	4707
2026-01-06 13:41:41.63	330.02	5.06	-52.1	-54.0	13.4	0.00e+00	0	28	0	1192230912	69	4723
2026-01-06 13:41:42.63	330.16	5.02	-52.2	-54.0	13.4	0.00e+00	0	28	0	1194328064	69	4757
2026-01-06 13:41:43.63	330.29	4.99	-54.6	-57.5	11.7	0.00e+00	0	28	0	1197473792	74	5328
2026-01-06 13:41:44.63	330.43	4.96	-59.1	-72.8	3.8	1.49e+00	0	28	104	1199570944	83	18517
2026-01-06 13:41:45.62	330.56	4.93	-59.4	-73.2	3.8	1.49e+00	0	28	104	1199570944	83	19340
2026-01-06 13:41:46.62	330.69	4.90	-59.8	-73.7	3.8	1.49e+00	0	28	104	1199570944	84	19255
2026-01-06 13:41:47.61	330.83	4.87	-60.0	-73.9	3.8	1.49e+00	0	28	104	1199570944	85	18607
2026-01-06 13:41:48.61	330.96	4.83	-60.2	-74.0	3.8	1.49e+00	0	28	104	1199570944	85	18912
2026-01-06 13:41:49.61	331.09	4.80	-60.3	-74.2	3.8	1.49e+00	0	28	104	1199570944	85	19180
2026-01-06 13:41:50.61	331.23	4.77	-60.4	-74.3	3.8	1.49e+00	0	28	104	1199570944	85	19478
2026-01-06 13:41:51.61	331.36	4.74	-60.5	-74.4	3.8	1.49e+00	0	28	104	1199570944	86	18572
2026-01-06 13:41:52.61	331.49	4.71	-60.6	-74.5	3.8	1.49e+00	0	28	104	1199570944	86	18738
2026-01-06 13:41:53.61	331.62	4.67	-60.6	-74.5	3.8	1.49e+00	0	28	104	1199570944	86	18849
2026-01-06 13:41:54.61	331.76	4.64	-60.7	-74.5	3.8	1.49e+00	0	28	104	1199570944	86	18936
2026-01-06 13:41:55.62	331.89	4.61	-60.7	-74.6	3.8	1.49e+00	0	28	104	1199570944	86	19079
2026-01-06 13:41:56.62	332.02	4.58	-60.8	-74.6	3.8	1.49e+00	0	28	104	1199570944	86	19149
2026-01-06 13:41:57.62	332.15	4.54	-60.8	-74.7	3.8	1.49e+00	0	28	104	1199570944	86	19202
2026-01-06 13:41:58.62	332.28	4.51	-60.8	-74.7	3.8	1.49e+00	0	28	104	1199570944	86	19194
2026-01-06 13:41:59.62	332.41	4.48	-60.8	-74.7	3.8	1.49e+00	0	28	104	1199570944	86	19253
2026-01-06 13:42:00.61	332.54	4.44	-60.8	-74.7	3.8	1.49e+00	0	28	104	1199570944	86	19223
2026-01-06 13:42:01.61	332.67	4.41	-60.8	-74.7	3.8	1.49e+00	0	28	104	1199570944	86	19234
2026-01-06 13:42:02.60	332.80	4.38	-60.8	-74.7	3.8	1.49e+00	0	28	104	1199570944	86	19235
2026-01-06 13:42:03.60	332.93	4.35	-60.8	-74.7	3.8	1.49e+00	0	28	104	1199570944	86	19266
2026-01-06 13:42:04.60	333.06	4.31	-60.8	-74.7	3.8	1.49e+00	0	28	104	1199570944	86	19335
2026-01-06 13:42:05.60	333.19	4.28	-60.8	-74.7	3.8	1.49e+00	0	28	104	1199570944	86	19275
2026-01-06 13:42:06.59	333.31	4.25	-60.8	-74.6	3.8	1.49e+00	0	28	104	1199570944	86	19153
2026-01-06 13:42:07.58	333.44	4.21	-60.8	-74.6	3.8	1.49e+00	0	28	104	1199570944	86	19158
2026-01-06 13:42:08.58	333.57	4.18	-60.7	-74.6	3.8	1.49e+00	0	28	104	1199570944	86	19084
2026-01-06 13:42:09.58	333.70	4.15	-60.7	-74.6	3.8	1.49e+00	0	28	104	1199570944	86	19053
2026-01-06 13:42:10.57	333.82	4.11	-60.7	-74.6	3.8	1.49e+00	0	28	104	1199570944	86	18950
2026-01-06 13:42:11.56	333.95	4.08	-60.7	-74.6	3.8	1.49e+00	0	28	104	1199570944	86	19020
2026-01-06 13:42:12.54	334.07	4.05	-60.7	-74.6	3.8	1.49e+00	0	28	104	1199570944	86	18950
2026-01-06 13:42:13.54	334.20	4.01	-60.7	-74.6	3.8	1.49e+00	0	28	104	1199570944	86	18968
2026-01-06 13:42:14.54	334.33	3.98	-60.7	-74.5	3.8	1.49e+00	0	28	104	1199570944	86	18926
2026-01-06 13:42:15.53	334.45	3.95	-60.7	-74.5	3.8	1.49e+00	0	28	104	1199570944	86	18926
2026-01-06 13:42:16.53	334.58	3.91	-60.7	-74.5	3.8	1.49e+00	0	28	104	1199570944	86	18937
2026-01-06 13:42:17.53	334.70	3.88	-60.7	-74.5	3.8	1.49e+00	0	28	104	1199570944	86	18918
2026-01-06 13:42:18.53	334.83	3.84	-60.7	-74.5	3.8	1.49e+00	0	28	104	1199570944	86	18914
2026-01-06 13:42:19.53	334.95	3.81	-60.7	-74.5	3.8	1.49e+00	0	28	104	1199570944	86	18916
2026-01-06 13:42:20.53	335.08	3.77	-60.7	-74.6	3.8	1.49e+00	0	28	104	1199570944	86	18950
2026-01-06 13:42:21.53	335.20	3.74	-60.6	-74.5	3.8	1.49e+00	0	28	104	1199570944	86	18893
2026-01-06 13:42:22.53	335.32	3.71	-60.6	-74.5	3.8	1.49e+00	0	28	104	1199570944	86	18837
2026-01-06 13:42:23.54	335.45	3.67	-60.6	-74.5	3.8	1.49e+00	0	28	104	1199570944	86	18838
2026-01-06 13:42:24.54	335.57	3.64	-60.6	-74.5	3.8	1.49e+00	0	28	104	1199570944	86	18813
2026-01-06 13:42:25.54	335.70	3.60	-60.6	-74.5	3.8	1.49e+00	0	28	104	1199570944	86	18807
2026-01-06 13:42:26.54	335.82	3.57	-60.6	-74.5	3.8	1.49e+00	0	28	104	1199570944	86	18836
2026-01-06 13:42:27.54	335.94	3.53	-60.6	-74.5	3.8	1.49e+00	0	28	104	1199570944	86	18808
2026-01-06 13:42:28.54	336.06	3.50	-60.6	-74.5	3.8	1.49e+00	0	28	104	1199570944	86	18812
2026-01-06 13:42:29.54	336.19	3.46	-60.6	-74.5	3.8	1.49e+00	0	28	104	1199570944	86	18842
2026-01-06 13:42:30.54	336.31	3.43	-60.6	-74.5	3.8	1.49e+00	0	28	104	1199570944	86	18798
2026-01-06 13:42:31.53	336.43	3.39	-60.6	-74.5	3.8	1.49e+00	0	28	104	1199570944	86	18741
2026-01-06 13:42:32.54	336.55	3.36	-60.6	-74.4	3.8	1.49e+00	0	28	104	1199570944	86	18705
2026-01-06 13:42:33.53	336.67	3.32	-60.6	-74.5	3.8	1.49e+00	0	28	104	1199570944	86	18777
2026-01-06 13:42:34.53	336.79	3.29	-60.6	-74.5	3.8	1.49e+00	0	28	104	1199570944	86	18787
2026-01-06 13:42:35.53	336.91	3.25	-60.6	-74.5	3.8	1.49e+00	0	28	104	1199570944	86	18745
2026-01-06 13:42:36.53	337.03	3.22	-60.6	-74.5	3.8	1.49e+00	0	28	104	1199570944	86	18746
2026-01-06 13:42:37.52	337.15	3.18	-60.6	-74.4	3.8	1.49e+00	0	29	104	1199570944	86	18723
2026-01-06 13:42:38.51	337.27	3.15	-60.6	-74.4	3.8	1.49e+00	0	28	104	1199570944	86	18712
2026-01-06 13:42:39.50	337.39	3.11	-60.6	-74.4	3.8	1.49e+00	0	28	104	1199570944	86	18715
2026-01-06 13:42:40.50	337.51	3.08	-60.6	-74.5	3.8	1.49e+00	0	28	104	1199570944	86	18757
2026-01-06 13:42:41.51	337.63	3.04	-60.6	-74.4	3.8	1.49e+00	0	28	104	1199570944	86	18715
2026-01-06 13:42:42.51	337.75	3.00	-60.6	-74.5	3.8	1.49e+00	0	28	104	1199570944	86	18756
2026-01-06 13:42:43.51	337.86	2.97	-60.6	-74.4	3.8	1.49e+00	0	28	104	1199570944	86	18708
2026-01-06 13:42:44.52	337.98	2.93	-60.5	-74.4	3.8	1.49e+00	0	28	104	1199570944	86	18647
2026-01-06 13:42:45.52	338.10	2.90	-60.5	-74.4	3.8	1.49e+00	0	28	104	1199570944	86	18683
2026-01-06 13:42:46.52	338.22	2.86	-60.5	-74.4	3.8	1.49e+00	0	28	104	1199570944	86	18684
2026-01-06 13:42:47.52	338.34	2.83	-60.5	-74.4	3.8	1.49e+00	0	28	104	1199570944	86	18650
2026-01-06 13:42:48.52	338.45	2.79	-60.5	-74.4	3.8	1.49e+00	0	28	104	1199570944	86	18635
2026-01-06 13:42:49.52	338.57	2.75	-60.5	-74.4	3.8	1.49e+00	0	28	104	1199570944	86	18618
2026-01-06 13:42:50.52	338.69	2.72	-60.5	-74.4	3.8	1.49e+00	0	28	104	1199570944	86	18664
2026-01-06 13:42:51.52	338.80	2.68	-60.5	-74.4	3.8	1.49e+00	0	28	104	1199570944	86	18665
2026-01-06 13:42:52.51	338.92	2.65	-60.5	-74.4	3.8	1.49e+00	0	28	104	1199570944	86	18635
2026-01-06 13:42:53.51	339.03	2.61	-60.5	-74.4	3.8	1.49e+00	0	28	104	1199570944	86	18692
2026-01-06 13:42:54.51	339.15	2.57	-60.5	-74.4	3.8	1.49e+00	0	28	104	1199570944	86	18611
2026-01-06 13:42:55.51	339.26	2.54	-60.5	-74.4	3.8	1.49e+00	0	28	104	1199570944	86	18637
2026-01-06 13:42:56.51	339.38	2.50	-60.5	-74.4	3.8	1.49e+00	0	28	104	1199570944	86	18604
2026-01-06 13:42:57.51	339.49	2.46	-60.5	-74.4	3.8	1.49e+00	0	28	104	1199570944	86	18633
2026-01-06 13:42:58.51	339.61	2.43	-60.5	-74.4	3.8	1.49e+00	0	28	104	1199570944	86	18653
2026-01-06 13:42:59.51	339.72	2.39	-60.5	-74.4	3.8	1.49e+00	0	28	104	1199570944	86	18645
2026-01-06 13:43:00.31	339.81	2.36	-60.5	-74.4	3.8	1.49e+00	0	28	104	1199570944	86	18589
2026-01-06 13:43:01.45	339.94	2.32	-60.5	-74.4	3.8	1.49e+00	0	28	104	1199570944	86	18627
2026-01-06 13:43:02.30	340.04	2.29	-60.5	-74.4	3.8	1.49e+00	0	28	104	1199570944	86	18636
2026-01-06 13:43:03.44	340.16	2.25	-60.5	-74.4	3.8	1.49e+00	0	28	104	1199570944	86	18631
2026-01-06 13:43:04.30	340.26	2.22	-60.5	-74.4	3.8	1.49e+00	0	28	104	1199570944	86	18602
2026-01-06 13:43:05.44	340.39	2.18	-60.5	-74.4	3.8	1.49e+00	0	29	104	1199570944	86	18552
2026-01-06 13:43:06.28	340.48	2.14	-60.5	-74.4	3.8	1.49e+00	0	28	104	1199570944	86	18621
2026-01-06 13:43:07.42	340.61	2.10	-60.5	-74.4	3.8	1.49e+00	0	28	104	1199570944	86	18610
2026-01-06 13:43:08.28	340.71	2.07	-60.5	-74.4	3.8	1.49e+00	0	28	104	1199570944	86	18631
2026-01-06 13:43:09.43	340.83	2.03	-60.5	-74.4	3.8	1.49e+00	0	28	104	1199570944	86	18603
2026-01-06 13:43:10.29	340.93	2.00	-60.5	-74.4	3.8	1.49e+00	0	29	104	1199570944	86	18574

#Closed at: 2026-01-06 13:43:11
#Recorded file [1199 MB]: D:/lorett/data/31004_260106_163356.dat