passes_logs/2026/01/06/R3.2S_Murmansk/R3.2S_Murmansk__20260106_003954_SUOMI_NPP_rec.log

#Pass ID: 20260106_003954_SUOMI NPP
#Satellite: SUOMI NPP
#Configuration: NPP
#almurnet v.1.7.20251203
#Start time: 2026-01-06 00:39:55

#Version: 2.2.20231116
#Station: R3.2S_Murmansk
#Location: 33.079688 lon 68.888172 lat
#TLE: 1 37849U 11061A   26004.95404768  .00000136  00000+0  85334-4 0  9991
#TLE: 2 37849  98.7801 307.0898 0002575  80.6707 279.4760 14.19522289735281

#Time	Az	El	Level	Level2	SNR	BER	BlckErr	Temp	State	Recorded	gain1	gain2
2026-01-06 00:39:55.69	24.21	2.09	-58.1	-74.1	3.8	1.49e+00	0	24	0	0	82	22583
2026-01-06 00:39:56.70	24.22	2.15	-58.1	-74.1	3.8	1.49e+00	0	24	104	0	81	23856
2026-01-06 00:39:57.70	24.22	2.22	-58.1	-74.1	3.8	1.49e+00	0	24	104	0	81	23881
2026-01-06 00:39:58.70	24.23	2.28	-58.1	-74.0	3.8	1.49e+00	0	24	104	0	81	23835
2026-01-06 00:39:59.70	24.24	2.35	-58.1	-74.0	3.8	1.49e+00	0	24	104	0	81	23814
2026-01-06 00:40:00.70	24.24	2.41	-58.1	-74.0	3.8	1.49e+00	0	24	104	0	81	23846
2026-01-06 00:40:01.70	24.25	2.48	-58.1	-74.1	3.8	1.49e+00	0	24	104	0	81	23888
2026-01-06 00:40:02.70	24.26	2.54	-58.1	-74.0	3.8	1.49e+00	0	25	104	0	81	23823
2026-01-06 00:40:03.70	24.26	2.61	-58.0	-74.0	3.8	1.49e+00	0	24	104	0	81	23838
2026-01-06 00:40:04.70	24.27	2.67	-58.1	-74.1	3.8	1.49e+00	0	24	104	0	81	23861
2026-01-06 00:40:05.70	24.27	2.74	-58.1	-74.0	3.8	1.49e+00	0	24	104	0	81	23787
2026-01-06 00:40:06.70	24.28	2.80	-58.1	-74.0	3.8	1.49e+00	0	25	104	0	81	23688
2026-01-06 00:40:07.70	24.29	2.87	-58.1	-73.9	3.8	1.49e+00	0	25	104	0	81	23547
2026-01-06 00:40:08.70	24.29	2.93	-58.1	-73.8	3.8	1.49e+00	0	25	104	0	81	23250
2026-01-06 00:40:09.70	24.30	3.00	-58.0	-73.6	3.8	1.49e+00	0	24	104	0	81	22746
2026-01-06 00:40:10.70	24.31	3.07	-58.0	-73.4	3.8	1.49e+00	0	24	104	0	81	22169
2026-01-06 00:40:11.70	24.31	3.13	-58.0	-73.2	3.8	1.49e+00	0	25	104	0	81	21589
2026-01-06 00:40:12.69	24.32	3.20	-58.0	-73.0	3.8	1.49e+00	0	25	104	0	81	21088
2026-01-06 00:40:13.69	24.33	3.26	-58.0	-72.9	3.8	1.49e+00	0	25	104	0	81	20843
2026-01-06 00:40:14.69	24.33	3.33	-58.0	-72.8	3.8	1.49e+00	0	25	104	0	81	20730
2026-01-06 00:40:15.68	24.34	3.40	-58.0	-72.8	3.8	1.49e+00	0	25	104	0	81	20758
2026-01-06 00:40:16.67	24.35	3.46	-58.0	-73.0	3.8	1.49e+00	0	25	104	0	81	21156
2026-01-06 00:40:17.68	24.35	3.53	-58.0	-73.3	3.8	1.49e+00	0	25	104	0	81	21789
2026-01-06 00:40:18.67	24.36	3.60	-58.0	-73.5	3.8	1.49e+00	0	25	104	0	81	22468
2026-01-06 00:40:19.68	24.36	3.67	-58.0	-73.7	3.8	1.49e+00	0	25	104	0	81	22838
2026-01-06 00:40:20.67	24.37	3.73	-58.0	-73.7	3.8	1.49e+00	0	25	104	0	81	22817
2026-01-06 00:40:21.67	24.38	3.80	-58.0	-73.4	3.8	1.49e+00	0	25	104	0	81	22140
2026-01-06 00:40:22.66	24.38	3.87	-58.0	-73.0	3.8	1.49e+00	0	25	104	0	81	21039
2026-01-06 00:40:23.67	24.39	3.94	-58.0	-72.0	3.8	1.49e+00	0	25	104	0	81	18893
2026-01-06 00:40:24.66	24.40	4.01	-57.9	-71.2	3.9	1.49e+00	0	25	104	0	81	17181
2026-01-06 00:40:25.65	24.40	4.07	-57.9	-69.9	4.4	1.36e+00	74	25	0	0	81	14828
2026-01-06 00:40:26.64	24.41	4.14	-57.8	-69.0	4.7	9.56e-01	0	25	0	1048576	81	13344
2026-01-06 00:40:27.64	24.42	4.21	-57.7	-68.2	5.1	7.47e-01	0	25	0	3145728	81	12163
2026-01-06 00:40:28.63	24.42	4.28	-57.6	-67.3	5.6	4.67e-01	0	25	0	5242880	81	11005
2026-01-06 00:40:29.63	24.43	4.35	-57.5	-66.4	6.2	2.85e-01	0	25	0	7340032	81	9879
2026-01-06 00:40:30.63	24.44	4.42	-57.5	-66.1	6.4	2.20e-01	0	25	0	9437184	81	9499
2026-01-06 00:40:31.63	24.44	4.49	-57.4	-65.7	6.7	1.52e-01	0	25	0	10485760	81	9126
2026-01-06 00:40:32.63	24.45	4.56	-57.4	-65.7	6.7	1.38e-01	0	25	0	12582912	81	9108
2026-01-06 00:40:33.63	24.46	4.63	-57.3	-65.0	7.4	1.05e-01	0	25	0	14680064	81	8377
2026-01-06 00:40:34.63	24.46	4.70	-57.3	-64.9	7.4	7.29e-02	0	25	0	16777216	81	8322
2026-01-06 00:40:35.63	24.47	4.77	-57.2	-64.8	7.5	7.13e-02	0	25	0	17825792	81	8206
2026-01-06 00:40:36.62	24.48	4.84	-57.4	-65.3	7.0	8.77e-02	0	25	0	19922944	81	8748
2026-01-06 00:40:37.62	24.48	4.91	-57.3	-65.0	7.3	1.11e-01	0	25	0	22020096	81	8374
2026-01-06 00:40:38.62	24.49	4.98	-57.4	-65.6	6.8	8.96e-02	0	25	0	24117248	81	9044
2026-01-06 00:40:39.62	24.50	5.05	-56.3	-61.4	10.2	7.65e-02	0	25	0	26214400	79	6223
2026-01-06 00:40:40.62	24.50	5.12	-56.8	-62.5	9.6	8.46e-05	0	25	0	27262976	78	7501
2026-01-06 00:40:41.60	24.51	5.19	-57.5	-66.4	6.3	1.05e-01	0	25	0	29360128	80	10422
2026-01-06 00:40:42.61	24.52	5.26	-56.8	-63.0	8.7	4.04e-01	0	25	0	31457280	80	7098
2026-01-06 00:40:43.60	24.52	5.34	-57.8	-67.2	6.1	2.06e-03	0	25	0	33554432	80	11460
2026-01-06 00:40:44.60	24.53	5.41	-56.8	-62.6	9.1	1.31e+00	0	25	0	34603008	80	6766
2026-01-06 00:40:45.59	24.54	5.48	-55.9	-60.1	11.4	6.25e-05	0	25	0	36700160	78	5717
2026-01-06 00:40:46.59	24.54	5.55	-55.8	-60.0	11.5	4.04e-05	0	25	0	37748736	78	5624
2026-01-06 00:40:47.59	24.55	5.62	-55.6	-59.5	11.7	2.36e-05	0	25	0	39845888	77	5655
2026-01-06 00:40:48.59	24.56	5.70	-55.4	-59.1	12.1	6.10e-06	0	25	0	41943040	77	5377
2026-01-06 00:40:49.58	24.56	5.77	-55.6	-59.5	11.8	6.10e-06	0	25	0	44040192	77	5599
2026-01-06 00:40:50.58	24.57	5.84	-55.4	-59.2	12.0	2.20e-06	0	25	0	46137344	77	5426
2026-01-06 00:40:51.58	24.58	5.92	-55.5	-59.3	11.9	7.00e-07	0	25	0	47185920	77	5495
2026-01-06 00:40:52.58	24.58	5.99	-55.4	-59.1	12.1	3.00e-06	0	26	0	49283072	77	5379
2026-01-06 00:40:53.57	24.59	6.06	-55.5	-59.2	12.0	3.80e-06	0	25	0	51380224	77	5442
2026-01-06 00:40:54.58	24.60	6.14	-55.5	-59.2	12.0	0.00e+00	0	26	0	53477376	77	5453
2026-01-06 00:40:55.57	24.60	6.21	-55.3	-58.9	12.3	7.00e-07	0	25	0	55574528	77	5235
2026-01-06 00:40:56.57	24.61	6.29	-55.3	-58.9	12.2	0.00e+00	0	25	0	56623104	77	5275
2026-01-06 00:40:57.57	24.62	6.36	-55.4	-59.1	12.2	4.50e-06	0	26	0	58720256	77	5354
2026-01-06 00:40:58.57	24.63	6.44	-55.4	-58.9	12.2	7.00e-07	0	26	0	60817408	77	5279
2026-01-06 00:40:59.56	24.63	6.51	-55.4	-59.0	12.2	2.20e-06	0	25	0	62914560	77	5315
2026-01-06 00:41:00.56	24.64	6.59	-55.4	-59.1	12.2	0.00e+00	0	25	0	63963136	77	5341
2026-01-06 00:41:01.55	24.65	6.66	-55.2	-58.6	12.4	0.00e+00	0	26	0	66060288	76	5351
2026-01-06 00:41:02.54	24.65	6.74	-55.3	-58.8	12.3	0.00e+00	0	25	0	68157440	76	5487
2026-01-06 00:41:03.54	24.66	6.81	-55.1	-58.5	12.5	0.00e+00	0	25	0	70254592	76	5314
2026-01-06 00:41:04.53	24.67	6.89	-55.1	-58.4	12.6	7.00e-07	0	26	0	72351744	76	5236
2026-01-06 00:41:05.52	24.67	6.96	-55.1	-58.4	12.6	0.00e+00	0	25	0	73400320	76	5255
2026-01-06 00:41:06.52	24.68	7.04	-55.1	-58.4	12.5	0.00e+00	0	26	0	75497472	76	5279
2026-01-06 00:41:07.52	24.69	7.12	-55.1	-58.3	12.6	0.00e+00	0	26	0	77594624	76	5206
2026-01-06 00:41:08.52	24.70	7.20	-55.1	-58.3	12.6	0.00e+00	0	25	0	79691776	76	5217
2026-01-06 00:41:09.52	24.70	7.27	-54.9	-58.1	12.8	0.00e+00	0	26	0	80740352	76	5080
2026-01-06 00:41:10.52	24.71	7.35	-55.1	-58.4	12.6	0.00e+00	0	26	0	82837504	76	5230
2026-01-06 00:41:11.52	24.72	7.43	-55.0	-58.2	12.7	0.00e+00	0	26	0	84934656	76	5129
2026-01-06 00:41:12.52	24.72	7.51	-55.0	-58.2	12.8	0.00e+00	0	26	0	87031808	76	5107
2026-01-06 00:41:13.51	24.73	7.58	-54.8	-57.9	12.9	0.00e+00	0	26	0	89128960	76	4962
2026-01-06 00:41:14.51	24.74	7.66	-54.8	-57.9	12.9	0.00e+00	0	26	0	90177536	76	4961
2026-01-06 00:41:15.50	24.74	7.74	-54.9	-58.0	12.9	0.00e+00	0	26	0	92274688	76	4997
2026-01-06 00:41:16.50	24.75	7.82	-54.9	-58.0	12.9	0.00e+00	0	26	0	94371840	76	4984
2026-01-06 00:41:17.49	24.76	7.90	-54.8	-57.8	13.0	0.00e+00	0	26	0	96468992	76	4922
2026-01-06 00:41:18.49	24.77	7.98	-54.8	-57.8	13.0	0.00e+00	0	26	0	97517568	76	4911
2026-01-06 00:41:19.49	24.77	8.06	-54.8	-57.8	13.0	0.00e+00	0	26	0	99614720	76	4910
2026-01-06 00:41:20.48	24.78	8.14	-54.8	-57.7	13.1	0.00e+00	0	26	0	101711872	76	4853
2026-01-06 00:41:21.47	24.79	8.22	-54.8	-57.8	13.0	0.00e+00	0	26	0	103809024	76	4900
2026-01-06 00:41:22.46	24.80	8.30	-54.8	-57.8	13.1	0.00e+00	0	26	0	105906176	76	4910
2026-01-06 00:41:23.46	24.80	8.38	-54.8	-57.8	13.1	0.00e+00	0	26	0	106954752	76	4884
2026-01-06 00:41:24.46	24.81	8.46	-54.8	-57.7	13.1	0.00e+00	0	26	0	109051904	76	4837
2026-01-06 00:41:25.46	24.82	8.54	-54.5	-57.4	13.2	0.00e+00	0	26	0	111149056	75	4938
2026-01-06 00:41:26.45	24.82	8.62	-54.7	-57.6	13.1	0.00e+00	0	26	0	113246208	75	5099
2026-01-06 00:41:27.45	24.83	8.70	-54.6	-57.5	13.1	0.00e+00	0	26	0	114294784	75	5016
2026-01-06 00:41:28.44	24.84	8.79	-54.5	-57.3	13.2	0.00e+00	0	26	0	116391936	75	4904
2026-01-06 00:41:29.43	24.85	8.87	-54.6	-57.5	13.1	0.00e+00	0	26	0	118489088	75	5003
2026-01-06 00:41:30.44	24.85	8.95	-54.4	-57.1	13.3	0.00e+00	0	26	0	120586240	75	4807
2026-01-06 00:41:31.43	24.86	9.03	-54.5	-57.3	13.2	0.00e+00	0	26	0	122683392	75	4872
2026-01-06 00:41:32.42	24.87	9.12	-54.4	-57.2	13.3	0.00e+00	0	26	0	123731968	75	4838
2026-01-06 00:41:33.41	24.88	9.20	-54.4	-57.1	13.4	0.00e+00	0	26	0	125829120	75	4812
2026-01-06 00:41:34.41	24.88	9.28	-54.2	-56.9	13.5	0.00e+00	0	26	0	127926272	75	4681
2026-01-06 00:41:35.41	24.89	9.37	-54.2	-56.9	13.5	0.00e+00	0	26	0	130023424	75	4665
2026-01-06 00:41:36.40	24.90	9.45	-54.1	-56.7	13.5	0.00e+00	0	26	0	131072000	74	4848
2026-01-06 00:41:37.40	24.91	9.53	-54.2	-56.8	13.4	0.00e+00	0	26	0	133169152	74	4915
2026-01-06 00:41:38.39	24.91	9.62	-54.1	-56.7	13.5	0.00e+00	0	26	0	135266304	74	4855
2026-01-06 00:41:39.39	24.92	9.70	-54.2	-56.8	13.4	0.00e+00	0	26	0	137363456	74	4918
2026-01-06 00:41:40.39	24.93	9.79	-54.0	-56.5	13.7	0.00e+00	0	26	0	139460608	74	4722
2026-01-06 00:41:41.39	24.94	9.88	-54.0	-56.5	13.6	0.00e+00	0	26	0	140509184	74	4725
2026-01-06 00:41:42.40	24.94	9.96	-54.0	-56.5	13.6	0.00e+00	0	26	0	142606336	74	4741
2026-01-06 00:41:43.40	24.95	10.05	-54.0	-56.6	13.6	0.00e+00	0	26	0	144703488	74	4792
2026-01-06 00:41:44.40	24.96	10.14	-54.0	-56.5	13.7	0.00e+00	0	26	0	146800640	74	4707
2026-01-06 00:41:45.40	24.97	10.22	-53.9	-56.4	13.7	0.00e+00	0	26	0	148897792	74	4655
2026-01-06 00:41:46.40	24.97	10.31	-53.9	-56.4	13.7	0.00e+00	0	26	0	149946368	74	4685
2026-01-06 00:41:47.39	24.98	10.40	-53.9	-56.4	13.7	0.00e+00	0	26	0	152043520	74	4673
2026-01-06 00:41:48.39	24.99	10.49	-54.0	-56.5	13.6	0.00e+00	0	26	0	154140672	74	4724
2026-01-06 00:41:49.39	25.00	10.57	-53.7	-56.1	13.8	0.00e+00	0	26	0	156237824	74	4522
2026-01-06 00:41:50.39	25.00	10.66	-53.6	-56.0	13.8	0.00e+00	0	26	0	158334976	73	4718
2026-01-06 00:41:51.38	25.01	10.75	-53.6	-56.0	13.8	0.00e+00	0	26	0	159383552	73	4706
2026-01-06 00:41:52.38	25.02	10.84	-53.6	-55.9	13.9	0.00e+00	0	26	0	161480704	73	4675
2026-01-06 00:41:53.37	25.03	10.93	-53.6	-55.9	13.9	0.00e+00	0	26	0	163577856	73	4684
2026-01-06 00:41:54.36	25.04	11.02	-53.5	-55.7	13.9	0.00e+00	0	26	0	165675008	73	4595
2026-01-06 00:41:55.36	25.04	11.11	-53.5	-55.8	13.9	0.00e+00	0	26	0	166723584	73	4609
2026-01-06 00:41:56.37	25.05	11.20	-53.5	-55.8	13.9	0.00e+00	0	26	0	168820736	73	4601
2026-01-06 00:41:57.38	25.06	11.29	-53.4	-55.7	14.0	0.00e+00	0	26	0	170917888	73	4559
2026-01-06 00:41:58.38	25.07	11.38	-53.4	-55.6	14.0	0.00e+00	0	26	0	173015040	73	4522
2026-01-06 00:41:59.38	25.08	11.48	-53.3	-55.5	14.1	0.00e+00	0	26	0	175112192	73	4476
2026-01-06 00:42:00.37	25.08	11.57	-53.3	-55.5	14.1	0.00e+00	0	26	0	176160768	73	4474
2026-01-06 00:42:01.37	25.09	11.66	-53.3	-55.4	14.1	0.00e+00	0	26	0	178257920	73	4430
2026-01-06 00:42:02.37	25.10	11.75	-53.2	-55.4	14.0	0.00e+00	0	26	0	180355072	72	4654
2026-01-06 00:42:03.37	25.11	11.84	-53.2	-55.4	14.0	0.00e+00	0	26	0	182452224	72	4686
2026-01-06 00:42:04.36	25.12	11.94	-53.2	-55.3	14.0	0.00e+00	0	26	0	183500800	72	4639
2026-01-06 00:42:05.37	25.12	12.03	-53.2	-55.3	14.1	0.00e+00	0	26	0	185597952	72	4628
2026-01-06 00:42:06.36	25.13	12.12	-53.0	-55.0	14.2	0.00e+00	0	26	0	187695104	72	4477
2026-01-06 00:42:07.37	25.14	12.22	-53.0	-55.1	14.2	0.00e+00	0	26	0	189792256	72	4508
2026-01-06 00:42:08.36	25.15	12.31	-53.0	-55.0	14.2	0.00e+00	0	26	0	191889408	72	4484
2026-01-06 00:42:09.35	25.16	12.41	-53.0	-55.0	14.2	0.00e+00	0	26	0	192937984	72	4485
2026-01-06 00:42:10.35	25.16	12.50	-52.9	-55.0	14.2	0.00e+00	0	26	0	195035136	72	4444
2026-01-06 00:42:11.35	25.17	12.60	-52.9	-54.9	14.3	0.00e+00	0	26	0	197132288	72	4436
2026-01-06 00:42:12.35	25.18	12.70	-52.9	-55.0	14.2	0.00e+00	0	26	0	199229440	72	4459
2026-01-06 00:42:13.36	25.19	12.79	-52.7	-54.7	14.4	0.00e+00	0	26	0	201326592	72	4337
2026-01-06 00:42:14.36	25.20	12.89	-52.7	-54.7	14.4	0.00e+00	0	26	0	202375168	72	4306
2026-01-06 00:42:15.36	25.21	12.99	-52.7	-54.7	14.4	0.00e+00	0	26	0	204472320	72	4312
2026-01-06 00:42:16.36	25.21	13.09	-52.7	-54.7	14.3	0.00e+00	0	26	0	206569472	71	4549
2026-01-06 00:42:17.35	25.22	13.18	-52.6	-54.6	14.3	0.00e+00	0	26	0	208666624	71	4513
2026-01-06 00:42:18.35	25.23	13.28	-52.6	-54.6	14.3	0.00e+00	0	26	0	209715200	71	4507
2026-01-06 00:42:19.35	25.24	13.38	-52.6	-54.5	14.4	0.00e+00	0	26	0	211812352	71	4472
2026-01-06 00:42:20.34	25.25	13.48	-52.5	-54.4	14.4	0.00e+00	0	26	0	213909504	71	4403
2026-01-06 00:42:21.35	25.26	13.58	-52.5	-54.4	14.4	0.00e+00	0	26	0	216006656	71	4410
2026-01-06 00:42:22.34	25.27	13.68	-52.4	-54.3	14.5	0.00e+00	0	26	0	218103808	71	4354
2026-01-06 00:42:23.34	25.27	13.78	-52.3	-54.2	14.5	0.00e+00	0	26	0	219152384	71	4325
2026-01-06 00:42:24.33	25.28	13.88	-52.4	-54.3	14.5	0.00e+00	0	26	0	221249536	71	4349
2026-01-06 00:42:25.33	25.29	13.98	-52.2	-54.1	14.6	0.00e+00	0	26	0	223346688	71	4247
2026-01-06 00:42:26.32	25.30	14.09	-52.2	-54.1	14.6	0.00e+00	0	26	0	225443840	71	4249
2026-01-06 00:42:27.32	25.31	14.19	-52.2	-54.1	14.4	0.00e+00	0	26	0	227540992	70	4517
2026-01-06 00:42:28.32	25.32	14.29	-52.1	-53.9	14.5	0.00e+00	0	26	0	228589568	70	4392
2026-01-06 00:42:29.32	25.33	14.39	-52.2	-54.0	14.5	0.00e+00	0	26	0	230686720	70	4483
2026-01-06 00:42:30.32	25.33	14.50	-52.1	-53.9	14.5	0.00e+00	0	26	0	232783872	70	4407
2026-01-06 00:42:31.32	25.34	14.60	-52.1	-53.9	14.5	0.00e+00	0	26	0	234881024	70	4425
2026-01-06 00:42:32.32	25.35	14.71	-52.1	-54.0	14.5	0.00e+00	0	26	0	235929600	70	4445
2026-01-06 00:42:33.32	25.36	14.81	-52.2	-54.0	14.5	0.00e+00	0	26	0	238026752	70	4445
2026-01-06 00:42:34.32	25.37	14.92	-52.1	-53.9	14.5	0.00e+00	0	26	0	240123904	70	4426
2026-01-06 00:42:35.31	25.38	15.02	-52.1	-53.9	14.5	0.00e+00	0	26	0	242221056	70	4431
2026-01-06 00:42:36.32	25.39	15.13	-52.1	-53.9	14.5	0.00e+00	0	26	0	244318208	70	4440
2026-01-06 00:42:37.32	25.40	15.24	-52.1	-53.9	14.5	0.00e+00	0	26	0	245366784	70	4421
2026-01-06 00:42:38.31	25.41	15.34	-52.0	-53.7	14.6	0.00e+00	0	26	0	247463936	70	4327
2026-01-06 00:42:39.31	25.41	15.45	-52.0	-53.8	14.6	0.00e+00	0	26	0	249561088	70	4362
2026-01-06 00:42:40.31	25.42	15.56	-52.0	-53.8	14.6	0.00e+00	0	26	0	251658240	70	4376
2026-01-06 00:42:41.31	25.43	15.67	-51.9	-53.7	14.6	0.00e+00	0	26	0	253755392	70	4307
2026-01-06 00:42:42.30	25.44	15.78	-52.0	-53.8	14.6	0.00e+00	0	26	0	254803968	70	4352
2026-01-06 00:42:43.30	25.45	15.89	-51.9	-53.7	14.6	0.00e+00	0	26	0	256901120	70	4304
2026-01-06 00:42:44.31	25.46	16.00	-51.9	-53.7	14.6	0.00e+00	0	26	0	258998272	70	4293
2026-01-06 00:42:45.32	25.47	16.11	-52.1	-53.8	14.6	0.00e+00	0	26	0	261095424	70	4389
2026-01-06 00:42:46.31	25.48	16.22	-51.9	-53.6	14.7	0.00e+00	0	26	0	262144000	70	4257
2026-01-06 00:42:47.31	25.49	16.33	-51.8	-53.5	14.7	0.00e+00	0	26	0	264241152	70	4226
2026-01-06 00:42:48.31	25.50	16.45	-51.8	-53.6	14.7	0.00e+00	0	26	0	266338304	70	4252
2026-01-06 00:42:49.30	25.51	16.56	-51.6	-53.3	14.6	0.00e+00	0	26	0	268435456	69	4366
2026-01-06 00:42:50.29	25.52	16.67	-51.8	-53.5	14.6	0.00e+00	0	26	0	270532608	69	4466
2026-01-06 00:42:51.29	25.53	16.78	-51.6	-53.3	14.6	0.00e+00	0	26	0	271581184	69	4374
2026-01-06 00:42:52.29	25.54	16.90	-51.6	-53.3	14.7	0.00e+00	0	26	0	273678336	69	4352
2026-01-06 00:42:53.28	25.55	17.01	-51.6	-53.3	14.7	0.00e+00	0	26	0	275775488	69	4357
2026-01-06 00:42:54.28	25.55	17.13	-51.6	-53.2	14.7	0.00e+00	0	26	0	277872640	69	4339
2026-01-06 00:42:55.28	25.56	17.24	-51.7	-53.3	14.6	0.00e+00	0	26	0	279969792	69	4388
2026-01-06 00:42:56.27	25.57	17.36	-51.7	-53.4	14.6	0.00e+00	0	26	0	281018368	69	4424
2026-01-06 00:42:57.27	25.58	17.48	-51.6	-53.3	14.6	0.00e+00	0	26	0	283115520	69	4379
2026-01-06 00:42:58.27	25.59	17.59	-51.7	-53.4	14.6	0.00e+00	0	26	0	285212672	69	4411
2026-01-06 00:42:59.27	25.60	17.71	-51.6	-53.3	14.6	0.00e+00	0	26	0	287309824	69	4372
2026-01-06 00:43:00.27	25.61	17.83	-51.7	-53.4	14.6	0.00e+00	0	26	0	288358400	69	4415
2026-01-06 00:43:01.27	25.62	17.95	-51.8	-53.5	14.6	0.00e+00	0	26	0	290455552	69	4451
2026-01-06 00:43:02.26	25.63	18.07	-51.7	-53.4	14.6	0.00e+00	0	26	0	292552704	69	4434
2026-01-06 00:43:03.26	25.64	18.19	-51.7	-53.4	14.6	0.00e+00	0	26	0	294649856	69	4401
2026-01-06 00:43:04.26	25.65	18.31	-51.8	-53.5	14.6	0.00e+00	0	26	0	296747008	69	4456
2026-01-06 00:43:05.26	25.66	18.43	-51.7	-53.4	14.6	0.00e+00	0	26	0	297795584	69	4435
2026-01-06 00:43:06.26	25.67	18.56	-51.9	-53.7	14.5	0.00e+00	0	26	0	299892736	69	4559
2026-01-06 00:43:07.26	25.68	18.68	-51.8	-53.6	14.5	0.00e+00	0	26	0	301989888	69	4497
2026-01-06 00:43:08.26	25.69	18.80	-51.9	-53.7	14.5	0.00e+00	0	26	0	304087040	69	4551
2026-01-06 00:43:09.26	25.70	18.93	-51.9	-53.6	14.5	0.00e+00	0	26	0	306184192	69	4533
2026-01-06 00:43:10.27	25.71	19.05	-52.1	-53.8	14.4	0.00e+00	0	26	0	307232768	69	4633
2026-01-06 00:43:11.27	25.73	19.18	-52.0	-53.8	14.5	0.00e+00	0	26	0	309329920	69	4608
2026-01-06 00:43:12.27	25.74	19.31	-52.1	-53.8	14.4	0.00e+00	0	26	0	311427072	69	4645
2026-01-06 00:43:13.27	25.75	19.43	-52.1	-53.8	14.4	0.00e+00	0	26	0	313524224	69	4647
2026-01-06 00:43:14.27	25.76	19.56	-52.2	-54.0	14.4	0.00e+00	0	26	0	314572800	69	4711
2026-01-06 00:43:15.27	25.77	19.69	-51.9	-53.7	14.5	0.00e+00	0	26	0	316669952	69	4556
2026-01-06 00:43:16.27	25.78	19.82	-51.9	-53.6	14.5	0.00e+00	0	26	0	318767104	69	4500
2026-01-06 00:43:17.27	25.79	19.95	-52.0	-53.8	14.4	0.00e+00	0	26	0	320864256	69	4609
2026-01-06 00:43:18.27	25.80	20.08	-52.0	-53.8	14.5	0.00e+00	0	26	0	322961408	69	4619
2026-01-06 00:43:19.27	25.81	20.21	-52.2	-54.0	14.4	0.00e+00	0	26	0	324009984	69	4724
2026-01-06 00:43:20.27	25.82	20.34	-52.2	-54.0	14.4	0.00e+00	0	26	0	326107136	69	4712
2026-01-06 00:43:21.27	25.83	20.47	-52.2	-54.0	14.4	0.00e+00	0	26	0	328204288	69	4736
2026-01-06 00:43:22.27	25.84	20.61	-52.5	-54.3	14.3	0.00e+00	0	26	0	330301440	70	4644
2026-01-06 00:43:23.26	25.85	20.74	-52.4	-54.3	14.4	0.00e+00	0	26	0	332398592	70	4603
2026-01-06 00:43:24.25	25.87	20.87	-52.6	-54.5	14.3	0.00e+00	0	26	0	333447168	70	4712
2026-01-06 00:43:25.25	25.88	21.01	-52.6	-54.5	14.2	0.00e+00	0	26	0	335544320	70	4741
2026-01-06 00:43:26.25	25.89	21.14	-52.7	-54.7	14.2	0.00e+00	0	26	0	337641472	70	4835
2026-01-06 00:43:27.24	25.90	21.28	-52.8	-54.8	14.2	0.00e+00	0	26	0	339738624	70	4880
2026-01-06 00:43:28.24	25.91	21.42	-53.0	-55.0	14.2	0.00e+00	0	26	0	340787200	71	4712
2026-01-06 00:43:29.24	25.92	21.55	-53.0	-55.1	14.2	0.00e+00	0	26	0	342884352	71	4760
2026-01-06 00:43:30.24	25.93	21.69	-53.1	-55.1	14.1	0.00e+00	0	26	0	344981504	71	4781
2026-01-06 00:43:31.24	25.94	21.83	-53.0	-55.0	14.2	0.00e+00	0	26	0	347078656	71	4728
2026-01-06 00:43:32.24	25.96	21.97	-52.9	-54.9	14.2	0.00e+00	0	26	0	349175808	71	4680
2026-01-06 00:43:33.24	25.97	22.12	-53.0	-55.0	14.2	0.00e+00	0	26	0	350224384	71	4756
2026-01-06 00:43:34.24	25.98	22.26	-53.1	-55.1	14.1	0.00e+00	0	26	0	352321536	71	4787
2026-01-06 00:43:35.23	25.99	22.40	-53.0	-55.0	14.2	0.00e+00	0	26	0	354418688	71	4757
2026-01-06 00:43:36.24	26.00	22.54	-53.1	-55.1	14.2	0.00e+00	0	26	0	356515840	71	4771
2026-01-06 00:43:37.24	26.02	22.69	-53.2	-55.2	14.1	0.00e+00	0	26	0	358612992	71	4855
2026-01-06 00:43:38.24	26.03	22.83	-53.2	-55.3	14.1	0.00e+00	0	26	0	359661568	71	4902
2026-01-06 00:43:39.24	26.04	22.98	-53.3	-55.3	14.2	0.00e+00	0	26	0	361758720	72	4638
2026-01-06 00:43:40.24	26.05	23.13	-53.4	-55.5	14.1	0.00e+00	0	26	0	363855872	72	4726
2026-01-06 00:43:41.24	26.06	23.27	-53.3	-55.4	14.1	0.00e+00	0	26	0	365953024	72	4671
2026-01-06 00:43:42.24	26.08	23.42	-53.6	-55.8	13.9	0.00e+00	0	26	0	368050176	72	4883
2026-01-06 00:43:43.25	26.09	23.57	-53.4	-55.6	14.0	0.00e+00	0	26	0	369098752	72	4773
2026-01-06 00:43:44.24	26.10	23.72	-53.5	-55.6	14.0	0.00e+00	0	26	0	371195904	72	4805
2026-01-06 00:43:45.24	26.11	23.87	-53.4	-55.5	14.1	0.00e+00	0	26	0	373293056	72	4711
2026-01-06 00:43:46.24	26.13	24.03	-53.4	-55.5	14.1	0.00e+00	0	26	0	375390208	72	4716
2026-01-06 00:43:47.24	26.14	24.18	-53.3	-55.4	14.1	0.00e+00	0	26	0	376438784	72	4669
2026-01-06 00:43:48.24	26.15	24.33	-53.4	-55.5	14.1	0.00e+00	0	26	0	378535936	72	4741
2026-01-06 00:43:49.24	26.16	24.49	-53.3	-55.3	14.2	0.00e+00	0	26	0	380633088	72	4626
2026-01-06 00:43:50.23	26.18	24.64	-53.3	-55.3	14.2	0.00e+00	0	26	0	382730240	72	4623
2026-01-06 00:43:51.23	26.19	24.80	-53.3	-55.3	14.2	0.00e+00	0	26	0	384827392	72	4621
2026-01-06 00:43:52.23	26.20	24.96	-53.2	-55.2	14.2	0.00e+00	0	26	0	385875968	72	4596
2026-01-06 00:43:53.23	26.22	25.12	-53.3	-55.4	14.1	0.00e+00	0	26	0	387973120	72	4659
2026-01-06 00:43:54.24	26.23	25.28	-53.3	-55.4	14.2	0.00e+00	0	26	0	390070272	72	4677
2026-01-06 00:43:55.24	26.24	25.44	-53.4	-55.5	14.1	0.00e+00	0	26	0	392167424	72	4710
2026-01-06 00:43:56.24	26.26	25.60	-53.6	-55.7	14.0	0.00e+00	0	26	0	394264576	72	4858
2026-01-06 00:43:57.25	26.27	25.76	-53.4	-55.5	14.1	0.00e+00	0	26	0	395313152	72	4747
2026-01-06 00:43:58.25	26.29	25.93	-53.7	-55.9	13.9	0.00e+00	0	26	0	397410304	72	4974
2026-01-06 00:43:59.25	26.30	26.09	-53.8	-56.0	13.8	0.00e+00	0	26	0	399507456	72	4992
2026-01-06 00:44:00.25	26.31	26.26	-53.5	-55.7	14.0	0.00e+00	0	26	0	401604608	72	4817
2026-01-06 00:44:01.26	26.33	26.43	-53.5	-55.7	14.0	0.00e+00	0	26	0	402653184	72	4817
2026-01-06 00:44:02.26	26.34	26.59	-53.5	-55.6	14.0	0.00e+00	0	26	0	404750336	72	4804
2026-01-06 00:44:03.26	26.36	26.76	-53.5	-55.7	14.0	0.00e+00	0	26	0	406847488	72	4818
2026-01-06 00:44:04.26	26.37	26.93	-53.5	-55.5	14.1	0.00e+00	0	26	0	408944640	72	4756
2026-01-06 00:44:05.26	26.38	27.10	-53.5	-55.5	14.1	0.00e+00	0	26	0	411041792	72	4754
2026-01-06 00:44:06.26	26.40	27.27	-53.5	-55.6	14.1	0.00e+00	0	26	0	412090368	72	4773
2026-01-06 00:44:07.26	26.41	27.45	-53.5	-55.6	14.0	0.00e+00	0	26	0	414187520	72	4784
2026-01-06 00:44:08.25	26.43	27.62	-53.6	-55.7	14.0	0.00e+00	0	26	0	416284672	72	4821
2026-01-06 00:44:09.25	26.44	27.79	-53.7	-55.9	13.9	0.00e+00	0	26	0	418381824	72	4946
2026-01-06 00:44:10.25	26.46	27.97	-53.9	-56.1	13.8	0.00e+00	0	26	0	420478976	72	5064
2026-01-06 00:44:11.24	26.47	28.15	-53.9	-56.1	13.8	0.00e+00	0	26	0	421527552	72	5055
2026-01-06 00:44:12.24	26.49	28.32	-54.0	-56.2	13.9	0.00e+00	0	26	0	423624704	73	4833
2026-01-06 00:44:13.23	26.50	28.50	-54.0	-56.3	13.8	0.00e+00	0	26	0	425721856	73	4899
2026-01-06 00:44:14.23	26.52	28.68	-53.8	-55.9	14.0	0.00e+00	0	26	0	427819008	73	4681
2026-01-06 00:44:15.23	26.54	28.87	-53.6	-55.7	14.1	0.00e+00	0	26	0	429916160	73	4570
2026-01-06 00:44:16.23	26.55	29.05	-53.7	-55.8	14.1	0.00e+00	0	26	0	430964736	73	4607
2026-01-06 00:44:17.23	26.57	29.23	-53.8	-55.9	14.0	0.00e+00	0	26	0	433061888	73	4695
2026-01-06 00:44:18.23	26.58	29.42	-53.7	-55.9	14.0	0.00e+00	0	26	0	435159040	73	4666
2026-01-06 00:44:19.24	26.60	29.61	-53.6	-55.7	14.2	0.00e+00	0	26	0	437256192	73	4561
2026-01-06 00:44:20.24	26.62	29.80	-53.5	-55.6	14.2	0.00e+00	0	26	0	438304768	73	4527
2026-01-06 00:44:21.25	26.63	29.99	-54.0	-56.2	13.9	0.00e+00	0	26	0	440401920	73	4850
2026-01-06 00:44:22.25	26.65	30.18	-53.7	-55.8	14.0	0.00e+00	0	26	0	442499072	73	4630
2026-01-06 00:44:23.25	26.67	30.37	-53.9	-56.1	13.9	0.00e+00	0	26	0	444596224	73	4800
2026-01-06 00:44:24.25	26.68	30.56	-54.4	-56.7	13.7	0.00e+00	0	26	0	446693376	74	4869
2026-01-06 00:44:25.25	26.70	30.76	-54.1	-56.4	13.9	0.00e+00	0	26	0	447741952	74	4690
2026-01-06 00:44:26.25	26.72	30.95	-54.1	-56.3	13.9	0.00e+00	0	26	0	449839104	74	4642
2026-01-06 00:44:27.25	26.73	31.15	-54.1	-56.4	13.9	0.00e+00	0	26	0	451936256	74	4667
2026-01-06 00:44:28.25	26.75	31.35	-54.2	-56.5	13.9	0.00e+00	0	26	0	454033408	74	4738
2026-01-06 00:44:29.25	26.77	31.55	-54.3	-56.6	13.8	0.00e+00	0	26	0	456130560	74	4782
2026-01-06 00:44:30.26	26.79	31.75	-54.3	-56.6	13.8	0.00e+00	0	26	0	457179136	74	4799
2026-01-06 00:44:31.26	26.81	31.96	-54.1	-56.4	13.9	0.00e+00	0	26	0	459276288	74	4682
2026-01-06 00:44:32.27	26.82	32.16	-54.7	-57.2	13.5	0.00e+00	0	26	0	461373440	74	5130
2026-01-06 00:44:33.27	26.84	32.37	-54.5	-57.0	13.6	0.00e+00	0	26	0	463470592	74	5004
2026-01-06 00:44:34.27	26.86	32.57	-54.6	-57.1	13.6	0.00e+00	0	26	0	464519168	74	5048
2026-01-06 00:44:35.27	26.88	32.78	-54.7	-57.2	13.6	0.00e+00	0	26	0	466616320	75	4847
2026-01-06 00:44:36.27	26.90	32.99	-54.8	-57.3	13.5	0.00e+00	0	26	0	468713472	75	4897
2026-01-06 00:44:37.27	26.92	33.20	-54.4	-56.7	13.8	0.00e+00	0	26	0	470810624	75	4598
2026-01-06 00:44:38.26	26.94	33.41	-54.5	-56.8	13.8	0.00e+00	0	26	0	472907776	75	4631
2026-01-06 00:44:39.26	26.96	33.63	-54.1	-56.3	14.0	0.00e+00	0	26	0	473956352	74	4629
2026-01-06 00:44:40.26	26.98	33.84	-53.8	-55.9	14.0	0.00e+00	0	26	0	476053504	73	4674
2026-01-06 00:44:41.26	27.00	34.06	-53.7	-55.8	14.1	0.00e+00	0	26	0	478150656	73	4633
2026-01-06 00:44:42.26	27.02	34.28	-53.5	-55.6	14.2	0.00e+00	0	26	0	480247808	73	4507
2026-01-06 00:44:43.25	27.04	34.50	-53.5	-55.6	14.2	0.00e+00	0	26	0	482344960	73	4501
2026-01-06 00:44:44.25	27.06	34.72	-53.5	-55.5	14.3	0.00e+00	0	26	0	483393536	73	4475
2026-01-06 00:44:45.25	27.08	34.94	-52.8	-54.7	14.5	0.00e+00	0	26	0	485490688	72	4307
2026-01-06 00:44:46.25	27.10	35.17	-52.8	-54.6	14.6	0.00e+00	0	26	0	487587840	72	4258
2026-01-06 00:44:47.25	27.12	35.40	-52.6	-54.4	14.5	0.00e+00	0	26	0	489684992	71	4423
2026-01-06 00:44:48.24	27.14	35.62	-52.1	-53.8	14.6	0.00e+00	0	26	0	491782144	70	4350
2026-01-06 00:44:49.24	27.16	35.85	-52.0	-53.7	14.7	0.00e+00	0	26	0	492830720	70	4300
2026-01-06 00:44:50.24	27.19	36.08	-51.9	-53.5	14.8	0.00e+00	0	26	0	494927872	70	4224
2026-01-06 00:44:51.24	27.21	36.32	-51.8	-53.5	14.7	0.00e+00	0	26	0	497025024	69	4449
2026-01-06 00:44:52.25	27.23	36.55	-51.7	-53.2	14.7	0.00e+00	0	27	0	499122176	69	4339
2026-01-06 00:44:53.25	27.25	36.79	-51.7	-53.3	14.7	0.00e+00	0	26	0	500170752	69	4389
2026-01-06 00:44:54.24	27.28	37.03	-51.9	-53.5	14.6	0.00e+00	0	26	0	502267904	69	4489
2026-01-06 00:44:55.23	27.30	37.27	-51.6	-53.2	14.8	0.00e+00	0	26	0	504365056	69	4340
2026-01-06 00:44:56.23	27.32	37.51	-51.6	-53.2	14.8	0.00e+00	0	26	0	506462208	69	4310
2026-01-06 00:44:57.23	27.35	37.75	-51.7	-53.3	14.7	0.00e+00	0	26	0	508559360	69	4351
2026-01-06 00:44:58.22	27.37	37.99	-51.6	-53.2	14.8	0.00e+00	0	26	0	509607936	69	4315
2026-01-06 00:44:59.21	27.40	38.24	-51.6	-53.2	14.7	0.00e+00	0	26	0	511705088	69	4322
2026-01-06 00:45:00.22	27.42	38.49	-51.6	-53.3	14.7	0.00e+00	0	26	0	513802240	69	4345
2026-01-06 00:45:01.22	27.45	38.74	-51.5	-53.1	14.8	0.00e+00	0	26	0	515899392	69	4247
2026-01-06 00:45:02.21	27.47	38.99	-51.6	-53.3	14.7	0.00e+00	0	26	0	516947968	69	4343
2026-01-06 00:45:03.21	27.50	39.25	-51.7	-53.3	14.7	0.00e+00	0	26	0	519045120	69	4388
2026-01-06 00:45:04.21	27.53	39.50	-51.8	-53.5	14.6	0.00e+00	0	26	0	521142272	69	4445
2026-01-06 00:45:05.20	27.55	39.76	-51.5	-53.1	14.8	0.00e+00	0	26	0	523239424	69	4245
2026-01-06 00:45:06.20	27.58	40.02	-51.6	-53.2	14.8	0.00e+00	0	26	0	525336576	69	4297
2026-01-06 00:45:07.19	27.61	40.28	-51.6	-53.2	14.7	0.00e+00	0	27	0	526385152	69	4339
2026-01-06 00:45:08.18	27.63	40.54	-51.8	-53.4	14.7	0.00e+00	0	26	0	528482304	69	4405
2026-01-06 00:45:09.17	27.66	40.81	-52.1	-53.9	14.5	0.00e+00	0	26	0	530579456	69	4652
2026-01-06 00:45:10.17	27.69	41.07	-52.1	-53.7	14.6	0.00e+00	0	26	0	532676608	69	4595
2026-01-06 00:45:11.17	27.72	41.34	-52.1	-53.8	14.5	0.00e+00	0	26	0	534773760	69	4627
2026-01-06 00:45:12.17	27.75	41.62	-52.2	-53.8	14.6	0.00e+00	0	26	0	535822336	70	4389
2026-01-06 00:45:13.17	27.78	41.89	-52.2	-53.9	14.6	0.00e+00	0	26	0	537919488	70	4423
2026-01-06 00:45:14.17	27.81	42.17	-52.5	-54.3	14.4	0.00e+00	0	26	0	540016640	70	4607
2026-01-06 00:45:15.17	27.84	42.45	-52.8	-54.6	14.3	0.00e+00	0	26	0	542113792	70	4768
2026-01-06 00:45:16.17	27.87	42.73	-52.8	-54.7	14.4	0.00e+00	0	26	0	543162368	71	4551
2026-01-06 00:45:17.16	27.90	43.01	-53.0	-54.9	14.3	0.00e+00	0	26	0	545259520	71	4654
2026-01-06 00:45:18.15	27.93	43.29	-53.1	-55.0	14.3	0.00e+00	0	26	0	547356672	71	4723
2026-01-06 00:45:19.15	27.96	43.57	-53.3	-55.2	14.2	0.00e+00	0	26	0	549453824	72	4577
2026-01-06 00:45:20.15	28.00	43.86	-53.3	-55.2	14.3	0.00e+00	0	26	0	551550976	72	4590
2026-01-06 00:45:21.15	28.03	44.15	-53.3	-55.3	14.3	0.00e+00	0	26	0	552599552	72	4611
2026-01-06 00:45:22.15	28.07	44.45	-53.2	-55.1	14.3	0.00e+00	0	26	0	554696704	72	4512
2026-01-06 00:45:23.14	28.10	44.74	-53.2	-55.2	14.3	0.00e+00	0	26	0	556793856	72	4550
2026-01-06 00:45:24.14	28.14	45.04	-53.3	-55.2	14.3	0.00e+00	0	26	0	558891008	72	4585
2026-01-06 00:45:25.14	28.17	45.34	-53.6	-55.6	14.1	0.00e+00	0	26	0	560988160	72	4809
2026-01-06 00:45:26.14	28.21	45.64	-54.0	-56.1	14.0	0.00e+00	0	27	0	562036736	73	4800
2026-01-06 00:45:27.14	28.25	45.95	-54.2	-56.5	13.8	0.00e+00	0	26	0	564133888	73	4991
2026-01-06 00:45:28.13	28.28	46.25	-55.0	-57.6	13.4	0.00e+00	0	26	0	566231040	75	5075
2026-01-06 00:45:29.13	28.32	46.56	-54.7	-57.1	13.7	0.00e+00	0	26	0	568328192	75	4786
2026-01-06 00:45:30.12	28.36	46.87	-54.7	-57.2	13.7	0.00e+00	0	26	0	569376768	75	4827
2026-01-06 00:45:31.12	28.40	47.18	-55.2	-57.9	13.3	0.00e+00	0	26	0	571473920	75	5235
2026-01-06 00:45:32.11	28.44	47.49	-55.3	-58.0	13.2	0.00e+00	0	26	0	573571072	75	5334
2026-01-06 00:45:33.10	28.48	47.81	-56.0	-59.1	12.7	0.00e+00	0	26	0	575668224	77	5394
2026-01-06 00:45:34.11	28.52	48.13	-56.1	-59.4	12.6	0.00e+00	0	26	0	577765376	77	5532
2026-01-06 00:45:35.10	28.57	48.45	-56.7	-60.5	11.9	7.00e-07	0	26	0	578813952	78	5961
2026-01-06 00:45:36.10	28.61	48.78	-56.4	-59.9	12.3	3.80e-06	0	26	0	580911104	78	5566
2026-01-06 00:45:37.09	28.65	49.10	-56.6	-60.3	12.1	1.50e-06	0	26	0	583008256	78	5829
2026-01-06 00:45:38.08	28.70	49.43	-56.1	-59.3	12.8	0.00e+00	0	26	0	585105408	78	5169
2026-01-06 00:45:39.08	28.74	49.76	-54.5	-56.9	13.8	0.00e+00	0	26	0	586153984	75	4660
2026-01-06 00:45:40.08	28.79	50.10	-53.8	-55.8	14.3	0.00e+00	0	26	0	588251136	74	4386
2026-01-06 00:45:41.08	28.84	50.44	-53.0	-54.9	14.4	0.00e+00	0	26	0	590348288	72	4416
2026-01-06 00:45:42.07	28.89	50.77	-52.9	-54.7	14.5	0.00e+00	0	26	0	592445440	72	4310
2026-01-06 00:45:43.06	28.94	51.11	-52.2	-53.8	14.8	0.00e+00	0	27	0	594542592	71	4133
2026-01-06 00:45:44.06	28.99	51.46	-52.2	-53.9	14.5	0.00e+00	0	26	0	595591168	69	4655
2026-01-06 00:45:45.06	29.04	51.81	-51.4	-52.9	14.9	0.00e+00	0	26	0	597688320	69	4154
2026-01-06 00:45:46.06	29.10	52.16	-51.6	-53.2	14.8	0.00e+00	0	26	0	599785472	69	4305
2026-01-06 00:45:47.06	29.15	52.51	-51.6	-53.2	14.8	0.00e+00	0	26	0	601882624	69	4299
2026-01-06 00:45:48.05	29.21	52.86	-51.9	-53.5	14.7	0.00e+00	0	26	0	602931200	69	4457
2026-01-06 00:45:49.04	29.26	53.22	-52.0	-53.7	14.6	0.00e+00	0	26	0	605028352	69	4556
2026-01-06 00:45:50.04	29.32	53.58	-51.8	-53.4	14.7	0.00e+00	0	26	0	607125504	69	4395
2026-01-06 00:45:51.04	29.38	53.94	-51.0	-52.5	14.9	0.00e+00	0	26	0	609222656	68	4206
2026-01-06 00:45:52.04	29.44	54.30	-50.4	-51.8	15.0	0.00e+00	0	26	0	611319808	67	4106
2026-01-06 00:45:53.03	29.51	54.67	-50.7	-52.2	14.9	0.00e+00	0	26	0	612368384	67	4302
2026-01-06 00:45:54.04	29.57	55.04	-50.7	-52.2	14.9	0.00e+00	0	26	0	614465536	67	4300
2026-01-06 00:45:55.03	29.64	55.41	-50.7	-52.1	14.9	0.00e+00	0	26	0	616562688	67	4265
2026-01-06 00:45:56.03	29.70	55.79	-50.4	-51.8	15.0	0.00e+00	0	26	0	618659840	67	4124
2026-01-06 00:45:57.03	29.77	56.17	-50.1	-51.4	15.0	0.00e+00	0	26	0	620756992	66	4186
2026-01-06 00:45:58.03	29.84	56.55	-50.2	-51.6	14.9	0.00e+00	0	26	0	621805568	66	4261
2026-01-06 00:45:59.03	29.92	56.93	-50.4	-51.8	14.9	0.00e+00	0	26	0	623902720	66	4376
2026-01-06 00:46:00.02	29.99	57.31	-51.0	-52.5	14.8	0.00e+00	0	26	0	625999872	67	4482
2026-01-06 00:46:01.02	30.07	57.70	-51.9	-53.6	14.7	0.00e+00	0	26	0	628097024	69	4533
2026-01-06 00:46:02.01	30.15	58.09	-52.4	-54.1	14.5	0.00e+00	0	26	0	629145600	69	4800
2026-01-06 00:46:03.01	30.23	58.48	-52.6	-54.3	14.5	0.00e+00	0	26	0	631242752	70	4645
2026-01-06 00:46:04.00	30.31	58.88	-52.6	-54.3	14.4	0.00e+00	0	26	0	633339904	70	4649
2026-01-06 00:46:05.00	30.40	59.28	-52.6	-54.4	14.5	0.00e+00	0	27	0	635437056	70	4655
2026-01-06 00:46:06.00	30.49	59.68	-52.0	-53.6	14.7	0.00e+00	0	26	0	637534208	70	4291
2026-01-06 00:46:06.99	30.58	60.08	-51.8	-53.4	14.9	0.00e+00	0	26	0	638582784	70	4162
2026-01-06 00:46:07.99	30.67	60.48	-51.3	-52.9	14.9	0.00e+00	0	26	0	640679936	69	4152
2026-01-06 00:46:08.99	30.77	60.89	-50.9	-52.3	14.9	0.00e+00	0	26	0	642777088	68	4134
2026-01-06 00:46:09.99	30.87	61.31	-50.1	-51.5	15.0	0.00e+00	0	26	0	644874240	66	4197
2026-01-06 00:46:10.99	30.97	61.72	-49.7	-51.0	15.1	0.00e+00	0	26	0	645922816	66	3991
2026-01-06 00:46:11.99	31.08	62.14	-49.2	-50.4	15.2	0.00e+00	0	26	0	648019968	65	3950
2026-01-06 00:46:12.99	31.19	62.56	-49.3	-50.6	15.0	0.00e+00	0	26	0	650117120	64	4247
2026-01-06 00:46:13.99	31.30	62.98	-50.0	-51.4	14.9	0.00e+00	0	27	0	652214272	65	4397
2026-01-06 00:46:14.98	31.42	63.40	-50.3	-51.7	14.8	0.00e+00	0	27	0	654311424	65	4567
2026-01-06 00:46:15.98	31.54	63.82	-50.0	-51.4	14.9	0.00e+00	0	26	0	655360000	65	4411
2026-01-06 00:46:16.98	31.67	64.25	-50.1	-51.4	14.9	0.00e+00	0	26	0	657457152	65	4441
2026-01-06 00:46:17.98	31.80	64.69	-50.7	-52.1	14.8	0.00e+00	0	26	0	659554304	66	4518
2026-01-06 00:46:18.98	31.94	65.12	-51.9	-53.6	14.6	0.00e+00	0	26	0	661651456	68	4760
2026-01-06 00:46:19.97	32.08	65.55	-52.1	-53.7	14.6	0.00e+00	0	26	0	663748608	69	4571
2026-01-06 00:46:20.97	32.23	65.99	-52.3	-54.0	14.6	0.00e+00	0	26	0	664797184	70	4474
2026-01-06 00:46:21.97	32.38	66.43	-52.4	-54.1	14.6	0.00e+00	0	26	0	666894336	70	4499
2026-01-06 00:46:22.97	32.54	66.87	-52.6	-54.4	14.4	0.00e+00	0	26	0	668991488	70	4680
2026-01-06 00:46:23.96	32.70	67.31	-52.2	-53.8	14.6	0.00e+00	0	26	0	671088640	70	4388
2026-01-06 00:46:24.95	32.87	67.76	-52.2	-53.8	14.7	0.00e+00	0	26	0	672137216	70	4371
2026-01-06 00:46:25.95	33.06	68.21	-53.2	-55.1	14.3	0.00e+00	0	26	0	674234368	71	4765
2026-01-06 00:46:26.94	33.24	68.65	-53.9	-55.9	14.1	0.00e+00	0	26	0	676331520	73	4703
2026-01-06 00:46:27.94	33.44	69.11	-53.6	-55.6	14.3	0.00e+00	0	26	0	678428672	73	4504
2026-01-06 00:46:28.93	33.64	69.56	-53.4	-55.3	14.4	0.00e+00	0	26	0	680525824	73	4343
2026-01-06 00:46:29.92	33.86	70.01	-53.9	-55.9	14.1	0.00e+00	0	26	0	681574400	73	4692
2026-01-06 00:46:30.92	34.09	70.47	-54.7	-57.0	13.6	0.00e+00	0	26	0	683671552	74	5037
2026-01-06 00:46:31.91	34.32	70.93	-54.8	-57.1	13.7	0.00e+00	0	26	0	685768704	74	5094
2026-01-06 00:46:32.91	34.57	71.39	-54.7	-57.1	13.8	0.00e+00	0	26	0	687865856	75	4785
2026-01-06 00:46:33.91	34.84	71.86	-53.8	-55.8	14.2	0.00e+00	0	26	0	688914432	74	4368
2026-01-06 00:46:34.90	35.11	72.32	-52.2	-53.8	14.8	0.00e+00	0	26	0	691011584	71	4104
2026-01-06 00:46:35.89	35.41	72.78	-51.1	-52.5	15.0	0.00e+00	0	26	0	693108736	68	4239
2026-01-06 00:46:36.89	35.72	73.25	-51.1	-52.6	14.9	0.00e+00	0	26	0	695205888	68	4264
2026-01-06 00:46:37.89	36.05	73.73	-51.6	-53.1	14.7	0.00e+00	0	26	0	697303040	68	4540
2026-01-06 00:46:38.89	36.40	74.20	-51.1	-52.6	14.9	0.00e+00	0	26	0	698351616	68	4278
2026-01-06 00:46:39.88	36.77	74.67	-51.3	-52.8	14.8	0.00e+00	0	26	0	700448768	68	4359
2026-01-06 00:46:40.87	37.16	75.14	-53.1	-54.9	14.3	0.00e+00	0	26	0	702545920	71	4702
2026-01-06 00:46:41.86	37.58	75.61	-54.2	-56.5	13.9	0.00e+00	0	26	0	704643072	73	5019
2026-01-06 00:46:42.85	38.03	76.08	-53.4	-55.3	14.4	0.00e+00	0	26	0	705691648	73	4369
2026-01-06 00:46:43.84	38.51	76.55	-52.6	-54.2	14.6	0.00e+00	0	26	0	707788800	71	4334
2026-01-06 00:46:44.83	39.03	77.03	-52.7	-54.5	14.5	0.00e+00	0	26	0	709885952	71	4457
2026-01-06 00:46:45.83	39.59	77.50	-53.9	-55.9	14.0	0.00e+00	0	26	0	711983104	72	4972
2026-01-06 00:46:46.83	40.20	77.98	-54.4	-56.6	13.9	0.00e+00	0	27	0	714080256	74	4810
2026-01-06 00:46:47.83	40.86	78.46	-54.3	-56.4	13.9	0.00e+00	0	26	0	715128832	74	4691
2026-01-06 00:46:48.83	41.58	78.94	-53.6	-55.5	14.4	0.00e+00	0	26	0	717225984	73	4454
2026-01-06 00:46:49.83	42.36	79.42	-53.0	-54.8	14.5	0.00e+00	0	26	0	719323136	72	4369
2026-01-06 00:46:50.83	43.22	79.90	-53.4	-55.3	14.2	0.00e+00	0	26	0	721420288	72	4637
2026-01-06 00:46:51.83	44.17	80.37	-53.6	-55.6	14.2	0.00e+00	0	26	0	723517440	72	4762
2026-01-06 00:46:52.83	45.21	80.85	-53.8	-55.8	14.4	0.00e+00	0	26	0	724566016	73	4643
2026-01-06 00:46:53.82	46.36	81.31	-55.1	-57.7	13.5	0.00e+00	0	26	0	726663168	75	5109
2026-01-06 00:46:54.82	47.66	81.78	-56.7	-60.4	12.1	0.00e+00	0	26	0	728760320	78	5881
2026-01-06 00:46:55.82	49.11	82.25	-56.1	-59.1	13.0	7.00e-07	0	26	0	730857472	78	5081
2026-01-06 00:46:56.83	50.76	82.71	-55.0	-57.3	13.8	0.00e+00	0	26	0	731906048	76	4633
2026-01-06 00:46:57.83	52.62	83.17	-54.1	-56.2	14.1	0.00e+00	0	27	0	734003200	74	4582
2026-01-06 00:46:58.82	54.72	83.61	-53.4	-55.3	14.5	0.00e+00	0	26	0	736100352	73	4341
2026-01-06 00:46:59.82	57.16	84.05	-53.1	-54.8	14.5	0.00e+00	0	26	0	738197504	72	4372
2026-01-06 00:47:00.83	60.02	84.48	-53.1	-54.8	14.6	0.00e+00	0	26	0	740294656	72	4388
2026-01-06 00:47:01.83	63.31	84.89	-53.1	-54.9	14.5	0.00e+00	0	26	0	741343232	72	4420
2026-01-06 00:47:02.83	67.17	85.28	-54.1	-56.2	14.1	0.00e+00	0	26	0	743440384	73	4867
2026-01-06 00:47:03.82	71.65	85.64	-53.4	-55.2	14.5	0.00e+00	0	26	0	745537536	73	4324
2026-01-06 00:47:04.82	76.97	85.98	-54.1	-56.2	14.0	0.00e+00	0	27	0	747634688	73	4835
2026-01-06 00:47:05.82	83.20	86.28	-54.7	-57.0	13.7	0.00e+00	0	26	0	748683264	74	5020
2026-01-06 00:47:06.80	90.24	86.52	-54.1	-56.2	14.1	0.00e+00	0	26	0	750780416	74	4592
2026-01-06 00:47:07.79	98.28	86.70	-54.2	-56.3	14.0	0.00e+00	0	26	0	752877568	74	4644
2026-01-06 00:47:08.79	107.16	86.81	-54.3	-56.5	13.9	0.00e+00	0	26	0	754974720	74	4730
2026-01-06 00:47:09.79	116.43	86.84	-53.4	-55.2	14.4	0.00e+00	0	27	0	757071872	73	4318
2026-01-06 00:47:10.78	125.56	86.79	-52.3	-53.9	14.8	0.00e+00	0	26	0	758120448	71	4169
2026-01-06 00:47:11.79	134.36	86.66	-51.9	-53.5	14.7	0.00e+00	0	26	0	760217600	69	4443
2026-01-06 00:47:12.79	142.24	86.46	-52.5	-54.2	14.5	0.00e+00	0	27	0	762314752	70	4580
2026-01-06 00:47:13.79	149.16	86.20	-54.8	-57.2	13.6	0.00e+00	0	26	0	764411904	74	5158
2026-01-06 00:47:14.79	155.11	85.89	-54.7	-57.1	13.8	0.00e+00	0	27	0	766509056	75	4781
2026-01-06 00:47:15.79	160.19	85.54	-54.0	-56.1	14.2	0.00e+00	0	27	0	767557632	74	4507
2026-01-06 00:47:16.78	164.47	85.17	-54.3	-56.5	14.0	0.00e+00	0	26	0	769654784	74	4756
2026-01-06 00:47:17.78	168.15	84.77	-53.8	-55.9	14.1	0.00e+00	0	26	0	771751936	73	4655
2026-01-06 00:47:18.78	171.30	84.36	-52.8	-54.5	14.6	0.00e+00	0	26	0	773849088	72	4237
2026-01-06 00:47:19.77	173.99	83.93	-52.7	-54.5	14.5	0.00e+00	0	26	0	775946240	71	4476
2026-01-06 00:47:20.77	176.34	83.49	-53.2	-55.1	14.3	0.00e+00	0	26	0	776994816	71	4787
2026-01-06 00:47:21.76	178.36	83.04	-53.0	-54.8	14.4	0.00e+00	0	26	0	779091968	71	4632
2026-01-06 00:47:22.76	180.16	82.59	-53.5	-55.5	14.2	0.00e+00	0	26	0	781189120	72	4716
2026-01-06 00:47:23.75	181.73	82.13	-53.8	-55.9	14.2	0.00e+00	0	26	0	783286272	73	4656
2026-01-06 00:47:24.75	183.14	81.66	-55.3	-58.0	13.3	0.00e+00	0	26	0	784334848	75	5301
2026-01-06 00:47:25.74	184.39	81.20	-54.0	-56.0	14.1	0.00e+00	0	27	0	786432000	74	4464
2026-01-06 00:47:26.73	185.51	80.73	-53.1	-54.8	14.5	0.00e+00	0	26	0	788529152	72	4362
2026-01-06 00:47:27.72	186.52	80.26	-52.5	-54.2	14.6	0.00e+00	0	27	0	790626304	71	4304
2026-01-06 00:47:28.71	187.44	79.79	-52.0	-53.6	14.8	0.00e+00	0	26	0	791674880	70	4268
2026-01-06 00:47:29.70	188.27	79.32	-52.6	-54.3	14.5	0.00e+00	0	26	0	793772032	70	4604
2026-01-06 00:47:30.70	189.04	78.84	-55.3	-58.0	13.4	0.00e+00	0	26	0	795869184	75	5315
2026-01-06 00:47:31.70	189.75	78.36	-55.1	-57.6	13.7	0.00e+00	0	26	0	797966336	76	4764
2026-01-06 00:47:32.70	190.40	77.88	-53.7	-55.6	14.2	0.00e+00	0	26	0	800063488	73	4537
2026-01-06 00:47:33.70	191.00	77.40	-54.9	-57.4	13.6	0.00e+00	0	26	0	801112064	74	5272
2026-01-06 00:47:34.70	191.55	76.92	-54.2	-56.4	14.1	0.00e+00	0	26	0	803209216	75	4421
2026-01-06 00:47:35.69	192.06	76.45	-52.6	-54.2	14.6	0.00e+00	0	27	0	805306368	71	4335
2026-01-06 00:47:36.69	192.54	75.97	-52.0	-53.6	14.8	0.00e+00	0	26	0	807403520	70	4254
2026-01-06 00:47:37.70	192.99	75.49	-52.6	-54.3	14.5	0.00e+00	0	26	0	809500672	70	4642
2026-01-06 00:47:38.69	193.40	75.02	-53.2	-55.0	14.4	0.00e+00	0	26	0	810549248	72	4481
2026-01-06 00:47:39.69	193.79	74.54	-54.4	-56.6	13.9	0.00e+00	0	26	0	812646400	74	4810
2026-01-06 00:47:40.68	194.16	74.07	-54.0	-56.1	14.2	0.00e+00	0	26	0	814743552	74	4514
2026-01-06 00:47:41.69	194.50	73.59	-52.8	-54.6	14.6	0.00e+00	0	26	0	816840704	72	4251
2026-01-06 00:47:42.69	194.83	73.12	-53.0	-54.9	14.4	0.00e+00	0	26	0	817889280	71	4666
2026-01-06 00:47:43.68	195.13	72.66	-54.6	-56.9	13.8	0.00e+00	0	27	0	819986432	74	4976
2026-01-06 00:47:44.68	195.42	72.19	-54.8	-57.2	13.8	0.00e+00	0	26	0	822083584	75	4837
2026-01-06 00:47:45.68	195.70	71.72	-53.9	-55.9	14.3	0.00e+00	0	26	0	824180736	74	4434
2026-01-06 00:47:46.68	195.96	71.26	-54.9	-57.3	13.6	0.00e+00	0	26	0	826277888	74	5210
2026-01-06 00:47:47.68	196.21	70.79	-55.9	-58.7	13.1	0.00e+00	0	26	0	827326464	77	5134
2026-01-06 00:47:48.68	196.44	70.33	-55.2	-57.6	13.8	0.00e+00	0	27	0	829423616	77	4494
2026-01-06 00:47:49.67	196.66	69.88	-55.2	-57.6	13.7	0.00e+00	0	27	0	831520768	76	4792
2026-01-06 00:47:50.68	196.88	69.41	-54.5	-56.7	14.0	0.00e+00	0	26	0	833617920	75	4584
2026-01-06 00:47:51.67	197.08	68.96	-54.1	-56.2	14.1	0.00e+00	0	26	0	835715072	74	4575
2026-01-06 00:47:52.67	197.28	68.51	-55.8	-58.7	13.1	0.00e+00	0	26	0	836763648	76	5416
2026-01-06 00:47:53.67	197.46	68.06	-56.1	-59.1	13.0	0.00e+00	0	26	0	838860800	78	5059
2026-01-06 00:47:54.68	197.64	67.60	-54.8	-57.1	13.9	0.00e+00	0	26	0	840957952	76	4494
2026-01-06 00:47:55.67	197.81	67.16	-54.8	-57.2	13.7	0.00e+00	0	26	0	843055104	75	4816
2026-01-06 00:47:56.67	197.98	66.71	-55.9	-58.9	12.9	0.00e+00	0	26	0	845152256	76	5575
2026-01-06 00:47:57.67	198.13	66.27	-55.5	-58.3	13.3	0.00e+00	0	27	0	846200832	77	4877
2026-01-06 00:47:58.68	198.29	65.82	-54.9	-57.3	13.8	0.00e+00	0	26	0	848297984	76	4648
2026-01-06 00:47:59.68	198.43	65.39	-54.4	-56.6	14.0	0.00e+00	0	26	0	850395136	75	4539
2026-01-06 00:48:00.68	198.57	64.95	-53.8	-55.8	14.2	0.00e+00	0	27	0	852492288	73	4624
2026-01-06 00:48:01.69	198.71	64.51	-52.6	-54.3	14.6	0.00e+00	0	26	0	853540864	71	4347
2026-01-06 00:48:02.69	198.84	64.08	-52.7	-54.4	14.6	0.00e+00	0	27	0	855638016	71	4434
2026-01-06 00:48:03.69	198.96	63.65	-53.4	-55.3	14.2	0.00e+00	0	26	0	857735168	71	4905
2026-01-06 00:48:04.68	199.08	63.23	-53.7	-55.7	14.1	0.00e+00	0	27	0	859832320	72	4837
2026-01-06 00:48:05.69	199.20	62.80	-52.7	-54.4	14.7	0.00e+00	0	26	0	861929472	72	4189
2026-01-06 00:48:06.68	199.31	62.38	-52.0	-53.7	14.8	0.00e+00	0	26	0	862978048	70	4296
2026-01-06 00:48:07.69	199.42	61.96	-51.5	-53.0	14.9	0.00e+00	0	26	0	865075200	69	4218
2026-01-06 00:48:08.69	199.53	61.54	-51.4	-52.9	14.9	0.00e+00	0	26	0	867172352	69	4173
2026-01-06 00:48:09.69	199.63	61.13	-52.3	-54.0	14.5	0.00e+00	0	26	0	869269504	69	4711
2026-01-06 00:48:10.68	199.73	60.72	-53.0	-54.9	14.4	0.00e+00	0	26	0	871366656	71	4671
2026-01-06 00:48:11.69	199.82	60.31	-53.3	-55.2	14.2	0.00e+00	0	26	0	872415232	71	4835
2026-01-06 00:48:12.69	199.92	59.90	-53.1	-54.9	14.4	0.00e+00	0	26	0	874512384	72	4433
2026-01-06 00:48:13.69	200.01	59.50	-52.4	-54.1	14.7	0.00e+00	0	26	0	876609536	71	4252
2026-01-06 00:48:14.70	200.10	59.09	-52.7	-54.5	14.5	0.00e+00	0	26	0	878706688	71	4444
2026-01-06 00:48:15.69	200.18	58.70	-52.1	-53.7	14.7	0.00e+00	0	26	0	879755264	70	4322
2026-01-06 00:48:16.69	200.26	58.30	-51.0	-52.4	14.9	0.00e+00	0	27	0	881852416	68	4179
2026-01-06 00:48:17.69	200.34	57.91	-51.7	-53.3	14.6	0.00e+00	0	26	0	883949568	68	4606
2026-01-06 00:48:18.69	200.42	57.52	-53.6	-55.6	14.2	0.00e+00	0	27	0	886046720	72	4775
2026-01-06 00:48:19.69	200.50	57.13	-54.0	-56.1	14.1	0.00e+00	0	27	0	888143872	74	4522
2026-01-06 00:48:20.69	200.57	56.74	-52.2	-53.8	14.8	0.00e+00	0	26	0	889192448	71	4143
2026-01-06 00:48:21.69	200.65	56.36	-51.7	-53.3	14.8	0.00e+00	0	26	0	891289600	69	4351
2026-01-06 00:48:22.68	200.71	55.98	-52.8	-54.6	14.4	0.00e+00	0	26	0	893386752	70	4771
2026-01-06 00:48:23.69	200.78	55.60	-53.5	-55.5	14.2	0.00e+00	0	27	0	895483904	72	4722
2026-01-06 00:48:24.69	200.85	55.22	-52.8	-54.5	14.6	0.00e+00	0	27	0	897581056	72	4222
2026-01-06 00:48:25.69	200.92	54.85	-52.9	-54.7	14.4	0.00e+00	0	26	0	898629632	71	4555
2026-01-06 00:48:26.69	200.98	54.48	-54.2	-56.4	14.0	0.00e+00	0	26	0	900726784	73	4957
2026-01-06 00:48:27.69	201.04	54.11	-55.2	-57.9	13.4	0.00e+00	0	26	0	902823936	75	5241
2026-01-06 00:48:28.69	201.10	53.75	-54.2	-56.4	14.1	0.00e+00	0	26	0	904921088	75	4418
2026-01-06 00:48:29.69	201.16	53.38	-52.3	-54.0	14.7	0.00e+00	0	26	0	907018240	71	4211
2026-01-06 00:48:30.69	201.22	53.02	-52.0	-53.6	14.8	0.00e+00	0	27	0	908066816	70	4272
2026-01-06 00:48:31.69	201.28	52.67	-52.7	-54.4	14.4	0.00e+00	0	26	0	910163968	70	4687
2026-01-06 00:48:32.68	201.33	52.31	-54.7	-57.2	13.6	0.00e+00	0	26	0	912261120	74	5119
2026-01-06 00:48:33.68	201.39	51.96	-55.5	-58.2	13.2	0.00e+00	0	27	0	914358272	76	5136
2026-01-06 00:48:34.68	201.44	51.61	-54.8	-57.2	13.8	0.00e+00	0	26	0	915406848	76	4547
2026-01-06 00:48:35.69	201.49	51.26	-53.8	-55.9	14.2	0.00e+00	0	27	0	917504000	74	4423
2026-01-06 00:48:36.68	201.54	50.92	-53.2	-55.0	14.5	0.00e+00	0	26	0	919601152	73	4238
2026-01-06 00:48:37.68	201.59	50.58	-52.8	-54.6	14.6	0.00e+00	0	26	0	921698304	72	4269
2026-01-06 00:48:38.69	201.64	50.23	-52.2	-53.9	14.8	0.00e+00	0	26	0	923795456	71	4146
2026-01-06 00:48:39.69	201.69	49.90	-52.2	-53.8	14.7	0.00e+00	0	26	0	924844032	70	4377
2026-01-06 00:48:40.69	201.73	49.56	-53.1	-55.0	14.3	0.00e+00	0	26	0	926941184	71	4709
2026-01-06 00:48:41.67	201.78	49.24	-54.6	-57.1	13.6	0.00e+00	0	27	0	929038336	74	5074
2026-01-06 00:48:42.67	201.82	48.90	-56.1	-59.4	12.7	0.00e+00	0	27	0	931135488	77	5589
2026-01-06 00:48:43.67	201.87	48.58	-56.8	-60.7	11.7	1.14e-05	0	27	0	933232640	79	5756
2026-01-06 00:48:44.67	201.91	48.25	-55.7	-58.5	13.2	2.20e-06	0	27	0	934281216	78	4747
2026-01-06 00:48:45.67	201.95	47.93	-53.3	-55.2	14.4	0.00e+00	0	26	0	936378368	73	4316
2026-01-06 00:48:46.67	201.99	47.61	-51.4	-52.8	14.9	0.00e+00	0	27	0	938475520	69	4122
2026-01-06 00:48:47.67	202.04	47.29	-50.9	-52.3	14.8	0.00e+00	0	26	0	940572672	67	4386
2026-01-06 00:48:48.68	202.08	46.97	-51.7	-53.2	14.6	0.00e+00	0	26	0	941621248	68	4579
2026-01-06 00:48:49.68	202.12	46.66	-52.3	-53.9	14.5	0.00e+00	0	26	0	943718400	69	4693
2026-01-06 00:48:50.68	202.15	46.35	-53.0	-54.9	14.4	0.00e+00	0	26	0	945815552	71	4652
2026-01-06 00:48:51.68	202.19	46.04	-53.6	-55.6	14.1	0.00e+00	0	26	0	947912704	72	4804
2026-01-06 00:48:52.69	202.23	45.73	-53.9	-56.1	14.0	0.00e+00	0	27	0	950009856	73	4767
2026-01-06 00:48:53.69	202.27	45.42	-53.7	-55.8	14.2	0.00e+00	0	26	0	951058432	73	4621
2026-01-06 00:48:54.70	202.30	45.12	-54.3	-56.6	13.7	0.00e+00	0	26	0	953155584	73	5097
2026-01-06 00:48:55.69	202.34	44.82	-53.6	-55.6	14.2	0.00e+00	0	27	0	955252736	73	4514
2026-01-06 00:48:56.69	202.37	44.53	-52.9	-54.8	14.5	0.00e+00	0	27	0	957349888	72	4343
2026-01-06 00:48:57.69	202.41	44.23	-52.1	-53.8	14.7	0.00e+00	0	27	0	959447040	70	4341
2026-01-06 00:48:58.70	202.44	43.93	-51.3	-52.7	15.0	0.00e+00	0	26	0	960495616	69	4077
2026-01-06 00:48:59.71	202.47	43.64	-50.2	-51.5	15.1	0.00e+00	0	26	0	962592768	67	3974
2026-01-06 00:49:00.71	202.51	43.35	-50.4	-51.8	14.9	0.00e+00	0	26	0	964689920	66	4351
2026-01-06 00:49:01.71	202.54	43.07	-51.3	-52.8	14.6	0.00e+00	0	26	0	966787072	67	4645
2026-01-06 00:49:02.71	202.57	42.78	-52.0	-53.7	14.6	0.00e+00	0	26	0	968884224	69	4552
2026-01-06 00:49:03.70	202.60	42.50	-52.8	-54.6	14.5	0.00e+00	0	26	0	969932800	71	4511
2026-01-06 00:49:04.70	202.63	42.22	-53.7	-55.8	14.0	0.00e+00	0	27	0	972029952	72	4890
2026-01-06 00:49:05.71	202.66	41.94	-54.4	-56.7	13.8	0.00e+00	0	26	0	974127104	74	4848
2026-01-06 00:49:06.71	202.69	41.67	-54.7	-57.1	13.6	0.00e+00	0	26	0	976224256	74	5083
2026-01-06 00:49:07.70	202.72	41.39	-54.8	-57.3	13.5	0.00e+00	0	26	0	977272832	74	5212
2026-01-06 00:49:08.70	202.75	41.12	-54.0	-56.0	14.1	0.00e+00	0	27	0	979369984	74	4490
2026-01-06 00:49:09.71	202.78	40.85	-52.7	-54.4	14.7	0.00e+00	0	26	0	981467136	72	4152
2026-01-06 00:49:10.70	202.81	40.59	-51.6	-53.1	14.8	0.00e+00	0	26	0	983564288	69	4289
2026-01-06 00:49:11.70	202.83	40.32	-51.6	-53.0	14.7	0.00e+00	0	26	0	985661440	68	4493
2026-01-06 00:49:12.70	202.86	40.06	-52.2	-53.8	14.5	0.00e+00	0	27	0	986710016	69	4616
2026-01-06 00:49:13.71	202.89	39.79	-53.0	-54.8	14.4	0.00e+00	0	27	0	988807168	71	4613
2026-01-06 00:49:14.70	202.91	39.53	-54.1	-56.2	14.0	0.00e+00	0	27	0	990904320	73	4834
2026-01-06 00:49:15.71	202.94	39.27	-55.0	-57.5	13.5	0.00e+00	0	26	0	993001472	75	4986
2026-01-06 00:49:16.71	202.97	39.02	-56.4	-59.7	12.4	0.00e+00	0	27	0	995098624	77	5760
2026-01-06 00:49:17.71	202.99	38.76	-57.1	-61.3	11.6	1.50e-06	0	26	0	996147200	79	6152
2026-01-06 00:49:18.71	203.02	38.51	-57.6	-62.4	10.6	2.87e-04	0	26	0	998244352	80	6630
2026-01-06 00:49:19.72	203.04	38.26	-57.7	-62.8	10.4	2.38e-03	0	26	0	1000341504	81	6539
2026-01-06 00:49:20.72	203.07	38.01	-57.8	-63.1	10.1	6.97e-04	0	26	0	1002438656	81	6798
2026-01-06 00:49:21.72	203.09	37.76	-57.9	-63.2	10.1	3.27e-03	0	27	0	1004535808	81	6806
2026-01-06 00:49:22.72	203.12	37.52	-56.8	-60.5	11.9	1.90e-04	0	26	0	1005584384	80	5324
2026-01-06 00:49:23.73	203.14	37.27	-55.9	-58.9	13.0	7.00e-07	0	26	0	1007681536	78	4935
2026-01-06 00:49:24.73	203.16	37.03	-54.2	-56.4	14.1	0.00e+00	0	26	0	1009778688	75	4395
2026-01-06 00:49:25.73	203.19	36.79	-53.2	-55.0	14.5	0.00e+00	0	26	0	1011875840	73	4211
2026-01-06 00:49:26.72	203.21	36.56	-52.6	-54.2	14.6	0.00e+00	0	26	0	1013972992	71	4332
2026-01-06 00:49:27.72	203.23	36.32	-52.9	-54.6	14.4	0.00e+00	0	26	0	1015021568	71	4534
2026-01-06 00:49:28.71	203.25	36.09	-53.0	-54.8	14.3	0.00e+00	0	27	0	1017118720	71	4625
2026-01-06 00:49:29.70	203.27	35.86	-53.8	-55.9	14.0	0.00e+00	0	26	0	1019215872	72	4938
2026-01-06 00:49:30.70	203.30	35.63	-55.2	-57.8	13.3	0.00e+00	0	26	0	1021313024	75	5191
2026-01-06 00:49:31.68	203.32	35.40	-56.3	-59.7	12.4	0.00e+00	0	26	0	1022361600	77	5727
2026-01-06 00:49:32.67	203.34	35.17	-57.2	-61.4	11.4	2.28e-05	0	26	0	1024458752	79	6211
2026-01-06 00:49:33.66	203.36	34.95	-57.9	-63.3	9.9	1.57e-04	0	26	0	1026555904	80	7308
2026-01-06 00:49:34.66	203.38	34.73	-58.4	-64.7	8.8	3.27e-03	0	27	0	1028653056	81	8157
2026-01-06 00:49:35.65	203.40	34.51	-58.3	-64.3	9.2	2.56e-02	0	27	0	1029701632	82	7342
2026-01-06 00:49:36.65	203.42	34.28	-58.4	-64.9	8.6	1.07e-02	0	27	0	1031798784	82	7839
2026-01-06 00:49:37.64	203.44	34.07	-58.1	-63.9	9.5	9.00e-03	0	26	0	1033895936	82	7012
2026-01-06 00:49:38.65	203.46	33.85	-57.0	-61.0	11.7	2.47e-03	0	26	0	1035993088	80	5644
2026-01-06 00:49:39.65	203.48	33.63	-56.9	-60.8	11.9	6.80e-06	0	26	0	1038090240	80	5502
2026-01-06 00:49:40.65	203.50	33.41	-56.2	-59.6	12.6	0.00e+00	0	26	0	1039138816	79	5054
2026-01-06 00:49:41.64	203.52	33.20	-55.6	-58.5	13.1	0.00e+00	0	26	0	1041235968	77	5019
2026-01-06 00:49:42.64	203.54	32.99	-55.5	-58.3	13.2	0.00e+00	0	26	0	1043333120	77	4885
2026-01-06 00:49:43.63	203.56	32.78	-55.4	-58.1	13.3	0.00e+00	0	26	0	1045430272	77	4788
2026-01-06 00:49:44.63	203.57	32.57	-55.3	-57.9	13.5	0.00e+00	0	26	0	1047527424	77	4681
2026-01-06 00:49:45.63	203.59	32.36	-54.5	-56.8	13.8	0.00e+00	0	26	0	1048576000	75	4649
2026-01-06 00:49:46.63	203.61	32.16	-54.6	-56.9	13.8	0.00e+00	0	27	0	1050673152	75	4694
2026-01-06 00:49:47.62	203.63	31.95	-54.3	-56.5	14.0	0.00e+00	0	26	0	1052770304	75	4492
2026-01-06 00:49:48.61	203.65	31.75	-54.1	-56.3	14.0	0.00e+00	0	26	0	1054867456	74	4612
2026-01-06 00:49:49.61	203.66	31.55	-54.1	-56.3	14.0	0.00e+00	0	27	0	1055916032	74	4608
2026-01-06 00:49:50.62	203.68	31.35	-54.3	-56.5	13.9	0.00e+00	0	26	0	1058013184	74	4720
2026-01-06 00:49:51.62	203.70	31.15	-54.1	-56.3	14.0	0.00e+00	0	26	0	1060110336	74	4621
2026-01-06 00:49:52.61	203.72	30.95	-53.9	-56.0	14.2	0.00e+00	0	27	0	1062207488	74	4442
2026-01-06 00:49:53.61	203.73	30.75	-54.0	-56.1	14.1	0.00e+00	0	26	0	1064304640	74	4533
2026-01-06 00:49:54.60	203.75	30.56	-54.0	-56.2	14.1	0.00e+00	0	27	0	1065353216	74	4547
2026-01-06 00:49:55.60	203.77	30.37	-54.0	-56.2	14.0	0.00e+00	0	26	0	1067450368	74	4573
2026-01-06 00:49:56.60	203.78	30.17	-54.0	-56.2	14.0	0.00e+00	0	27	0	1069547520	74	4574
2026-01-06 00:49:57.58	203.80	29.98	-54.5	-56.9	13.7	0.00e+00	0	26	0	1071644672	74	4932
2026-01-06 00:49:58.58	203.81	29.79	-55.0	-57.6	13.4	0.00e+00	0	27	0	1072693248	75	5044
2026-01-06 00:49:59.57	203.83	29.61	-55.3	-58.1	13.2	0.00e+00	0	26	0	1074790400	75	5348
2026-01-06 00:50:00.56	203.85	29.42	-55.8	-58.9	12.8	0.00e+00	0	26	0	1076887552	76	5558
2026-01-06 00:50:01.56	203.86	29.23	-55.9	-59.1	12.7	7.00e-07	0	26	0	1078984704	77	5396
2026-01-06 00:50:02.55	203.88	29.05	-56.2	-59.6	12.4	0.00e+00	0	27	0	1081081856	77	5667
2026-01-06 00:50:03.54	203.89	28.87	-56.1	-59.4	12.5	7.00e-07	0	27	0	1082130432	77	5590
2026-01-06 00:50:04.52	203.91	28.69	-55.8	-58.9	12.7	0.00e+00	0	26	0	1084227584	77	5259
2026-01-06 00:50:05.52	203.92	28.51	-55.0	-57.6	13.4	0.00e+00	0	27	0	1086324736	76	4791
2026-01-06 00:50:06.51	203.94	28.33	-54.4	-56.7	13.8	0.00e+00	0	27	0	1088421888	75	4566
2026-01-06 00:50:07.51	203.95	28.15	-53.8	-55.9	14.2	0.00e+00	0	27	0	1089470464	74	4431
2026-01-06 00:50:08.51	203.97	27.97	-53.1	-55.0	14.3	0.00e+00	0	27	0	1091567616	72	4483
2026-01-06 00:50:09.51	203.98	27.79	-52.9	-54.7	14.5	0.00e+00	0	26	0	1093664768	72	4298
2026-01-06 00:50:10.50	204.00	27.62	-52.6	-54.3	14.5	0.00e+00	0	26	0	1095761920	71	4384
2026-01-06 00:50:11.50	204.01	27.44	-52.5	-54.2	14.6	0.00e+00	0	27	0	1097859072	71	4331
2026-01-06 00:50:12.49	204.03	27.27	-52.4	-54.2	14.6	0.00e+00	0	26	0	1098907648	71	4294
2026-01-06 00:50:13.48	204.04	27.10	-52.6	-54.4	14.5	0.00e+00	0	27	0	1101004800	71	4393
2026-01-06 00:50:14.48	204.06	26.93	-52.6	-54.4	14.5	0.00e+00	0	26	0	1103101952	71	4415
2026-01-06 00:50:15.48	204.07	26.76	-53.0	-54.8	14.3	0.00e+00	0	26	0	1105199104	71	4650
2026-01-06 00:50:16.49	204.08	26.59	-52.9	-54.8	14.3	0.00e+00	0	26	0	1106247680	71	4608
2026-01-06 00:50:17.48	204.10	26.42	-52.9	-54.7	14.3	0.00e+00	0	27	0	1108344832	71	4595
2026-01-06 00:50:18.47	204.11	26.25	-53.0	-54.9	14.3	0.00e+00	0	27	0	1110441984	71	4666
2026-01-06 00:50:19.47	204.12	26.09	-53.0	-54.9	14.3	0.00e+00	0	26	0	1112539136	71	4653
2026-01-06 00:50:20.46	204.14	25.92	-53.0	-54.9	14.2	0.00e+00	0	26	0	1114636288	71	4689
2026-01-06 00:50:21.46	204.15	25.76	-52.9	-54.8	14.3	0.00e+00	0	27	0	1115684864	71	4611
2026-01-06 00:50:22.45	204.16	25.60	-52.7	-54.5	14.4	0.00e+00	0	27	0	1117782016	71	4490
2026-01-06 00:50:23.45	204.18	25.43	-52.7	-54.6	14.4	0.00e+00	0	27	0	1119879168	71	4497
2026-01-06 00:50:24.45	204.19	25.27	-52.8	-54.6	14.4	0.00e+00	0	27	0	1121976320	71	4522
2026-01-06 00:50:25.45	204.20	25.11	-52.6	-54.5	14.5	0.00e+00	0	26	0	1123024896	71	4448
2026-01-06 00:50:26.44	204.22	24.95	-52.6	-54.4	14.5	0.00e+00	0	26	0	1125122048	71	4419
2026-01-06 00:50:27.44	204.23	24.79	-52.6	-54.4	14.5	0.00e+00	0	27	0	1127219200	71	4397
2026-01-06 00:50:28.45	204.24	24.64	-52.4	-54.2	14.6	0.00e+00	0	26	0	1129316352	71	4301
2026-01-06 00:50:29.44	204.25	24.48	-52.2	-54.0	14.7	0.00e+00	0	26	0	1131413504	71	4207
2026-01-06 00:50:30.44	204.27	24.32	-52.1	-53.7	14.6	0.00e+00	0	27	0	1132462080	70	4338
2026-01-06 00:50:31.43	204.28	24.17	-52.0	-53.6	14.7	0.00e+00	0	27	0	1134559232	70	4291
2026-01-06 00:50:32.44	204.29	24.02	-52.1	-53.8	14.6	0.00e+00	0	26	0	1136656384	70	4357
2026-01-06 00:50:33.44	204.30	23.86	-52.0	-53.7	14.6	0.00e+00	0	26	0	1138753536	70	4332
2026-01-06 00:50:34.43	204.32	23.71	-52.0	-53.7	14.7	0.00e+00	0	26	0	1140850688	70	4311
2026-01-06 00:50:35.43	204.33	23.56	-52.1	-53.8	14.6	0.00e+00	0	26	0	1141899264	70	4378
2026-01-06 00:50:36.43	204.34	23.41	-51.9	-53.6	14.7	0.00e+00	0	26	0	1143996416	70	4261
2026-01-06 00:50:37.43	204.35	23.26	-52.0	-53.7	14.6	0.00e+00	0	26	0	1146093568	70	4309
2026-01-06 00:50:38.43	204.36	23.11	-52.0	-53.7	14.6	0.00e+00	0	26	0	1148190720	70	4315
2026-01-06 00:50:39.44	204.38	22.96	-52.1	-53.8	14.6	0.00e+00	0	27	0	1150287872	70	4357
2026-01-06 00:50:40.43	204.39	22.82	-51.8	-53.5	14.7	0.00e+00	0	26	0	1151336448	70	4209
2026-01-06 00:50:41.42	204.40	22.67	-51.9	-53.5	14.7	0.00e+00	0	27	0	1153433600	70	4222
2026-01-06 00:50:42.43	204.41	22.53	-51.7	-53.3	14.7	0.00e+00	0	27	0	1155530752	69	4356
2026-01-06 00:50:43.41	204.42	22.38	-51.3	-52.9	14.8	0.00e+00	0	26	0	1157627904	69	4152
2026-01-06 00:50:44.41	204.43	22.24	-51.4	-52.9	14.8	0.00e+00	0	26	0	1158676480	69	4184
2026-01-06 00:50:45.40	204.45	22.10	-51.1	-52.7	14.9	0.00e+00	0	27	0	1160773632	68	4295
2026-01-06 00:50:46.40	204.46	21.96	-51.1	-52.7	14.8	0.00e+00	0	26	0	1162870784	68	4296
2026-01-06 00:50:47.40	204.47	21.82	-51.1	-52.6	14.8	0.00e+00	0	26	0	1164967936	68	4252
2026-01-06 00:50:48.40	204.48	21.68	-50.9	-52.4	14.9	0.00e+00	0	27	0	1167065088	68	4192
2026-01-06 00:50:49.39	204.49	21.54	-51.3	-52.9	14.7	0.00e+00	0	26	0	1168113664	68	4401
2026-01-06 00:50:50.38	204.50	21.40	-51.3	-52.9	14.7	0.00e+00	0	27	0	1170210816	68	4422
2026-01-06 00:50:51.38	204.51	21.26	-51.3	-52.9	14.7	0.00e+00	0	26	0	1172307968	68	4402
2026-01-06 00:50:52.38	204.52	21.12	-51.5	-53.1	14.6	0.00e+00	0	26	0	1174405120	68	4541
2026-01-06 00:50:53.38	204.53	20.99	-51.6	-53.3	14.6	0.00e+00	0	26	0	1175453696	68	4627
2026-01-06 00:50:54.38	204.55	20.85	-51.8	-53.6	14.5	0.00e+00	0	26	0	1177550848	68	4763
2026-01-06 00:50:55.37	204.56	20.72	-52.1	-53.9	14.5	0.00e+00	0	26	0	1179648000	69	4661
2026-01-06 00:50:56.38	204.57	20.58	-52.2	-54.0	14.4	0.00e+00	0	26	0	1181745152	69	4740
2026-01-06 00:50:57.39	204.58	20.45	-52.5	-54.3	14.4	0.00e+00	0	26	0	1183842304	70	4650
2026-01-06 00:50:58.38	204.59	20.31	-52.7	-54.7	14.2	0.00e+00	0	26	0	1184890880	70	4823
2026-01-06 00:50:59.37	204.60	20.18	-52.8	-54.7	14.2	0.00e+00	0	26	0	1186988032	70	4850
2026-01-06 00:51:00.37	204.61	20.05	-53.0	-55.0	14.1	0.00e+00	0	27	0	1189085184	71	4717
2026-01-06 00:51:01.37	204.62	19.92	-53.0	-55.0	14.2	0.00e+00	0	26	0	1191182336	71	4759
2026-01-06 00:51:02.37	204.63	19.79	-53.2	-55.2	14.1	0.00e+00	0	26	0	1193279488	71	4852
2026-01-06 00:51:03.37	204.64	19.66	-53.2	-55.3	14.0	0.00e+00	0	26	0	1194328064	71	4918
2026-01-06 00:51:04.37	204.65	19.53	-53.4	-55.6	13.9	0.00e+00	0	26	0	1196425216	71	5069
2026-01-06 00:51:05.36	204.66	19.40	-53.3	-55.4	14.1	0.00e+00	0	26	0	1198522368	72	4657
2026-01-06 00:51:06.36	204.67	19.28	-53.5	-55.6	14.0	0.00e+00	0	27	0	1200619520	72	4789
2026-01-06 00:51:07.37	204.68	19.15	-53.5	-55.6	14.0	0.00e+00	0	26	0	1201668096	72	4812
2026-01-06 00:51:08.36	204.69	19.02	-53.4	-55.6	14.0	0.00e+00	0	27	0	1203765248	72	4771
2026-01-06 00:51:09.35	204.70	18.90	-53.4	-55.6	14.0	0.00e+00	0	26	0	1205862400	72	4760
2026-01-06 00:51:10.35	204.71	18.77	-53.3	-55.4	14.1	0.00e+00	0	26	0	1207959552	72	4692
2026-01-06 00:51:11.34	204.72	18.65	-53.3	-55.5	14.1	0.00e+00	0	26	0	1210056704	72	4710
2026-01-06 00:51:12.34	204.73	18.53	-53.6	-55.7	14.0	0.00e+00	0	26	0	1211105280	72	4864
2026-01-06 00:51:13.34	204.74	18.40	-53.5	-55.7	14.0	0.00e+00	0	27	0	1213202432	72	4815
2026-01-06 00:51:14.35	204.75	18.28	-53.6	-55.8	13.9	0.00e+00	0	26	0	1215299584	72	4885
2026-01-06 00:51:15.36	204.76	18.16	-53.5	-55.6	14.0	0.00e+00	0	27	0	1217396736	72	4792
2026-01-06 00:51:16.37	204.77	18.03	-53.4	-55.6	14.0	0.00e+00	0	27	0	1218445312	72	4770
2026-01-06 00:51:17.37	204.78	17.91	-53.5	-55.6	14.0	0.00e+00	0	26	0	1220542464	72	4782
2026-01-06 00:51:18.38	204.79	17.79	-53.4	-55.5	14.1	0.00e+00	0	27	0	1222639616	72	4739
2026-01-06 00:51:19.37	204.80	17.67	-53.4	-55.5	14.0	0.00e+00	0	27	0	1224736768	72	4738
2026-01-06 00:51:20.37	204.81	17.55	-53.4	-55.5	14.0	0.00e+00	0	26	0	1226833920	72	4742
2026-01-06 00:51:21.37	204.82	17.44	-53.2	-55.3	14.1	0.00e+00	0	27	0	1228931072	72	4632
2026-01-06 00:51:22.38	204.82	17.32	-53.2	-55.2	14.2	0.00e+00	0	26	0	1229979648	72	4580
2026-01-06 00:51:23.38	204.83	17.20	-53.3	-55.4	14.1	0.00e+00	0	26	0	1232076800	72	4693
2026-01-06 00:51:24.38	204.84	17.08	-53.2	-55.2	14.2	0.00e+00	0	26	0	1234173952	72	4565
2026-01-06 00:51:25.38	204.85	16.97	-53.1	-55.2	14.2	0.00e+00	0	26	0	1236271104	72	4560
