passes_logs/2026/01/06/R3.2S_Murmansk/R3.2S_Murmansk__20260106_032053_FENGYUN_3D_rec.log

#Pass ID: 20260106_032053_FENGYUN 3D
#Satellite: FENGYUN 3D
#Configuration: FENGYUN 3D
#almurnet v.1.7.20251203
#Start time: 2026-01-06 03:20:55

#Version: 2.2.20231116
#Station: R3.2S_Murmansk
#Location: 33.079688 lon 68.888172 lat
#TLE: 1 43010U 17072A   26005.48915933 -.00000051  00000+0 -21983-5 0  9995
#TLE: 2 43010  98.9919 337.1582 0002001 124.6377 235.4988 14.19691925421909

#Time	Az	El	Level	Level2	SNR	BER	BlckErr	Temp	State	Recorded	gain1	gain2
2026-01-06 03:20:55.32	27.61	2.15	-57.8	-70.8	3.8	8.45e-01	0	27	0	0	82	15568
2026-01-06 03:20:56.31	27.60	2.21	-57.7	-70.8	3.8	8.44e-01	0	26	104	0	80	17282
2026-01-06 03:20:57.31	27.59	2.28	-57.7	-70.8	3.8	8.45e-01	0	26	104	0	80	17288
2026-01-06 03:20:58.29	27.57	2.34	-57.7	-70.7	3.8	8.46e-01	0	26	104	0	80	17264
2026-01-06 03:20:59.28	27.56	2.40	-57.7	-70.7	3.8	8.45e-01	0	26	104	0	80	17275
2026-01-06 03:21:00.27	27.55	2.47	-57.7	-70.7	3.8	8.45e-01	0	26	104	0	80	17234
2026-01-06 03:21:01.25	27.54	2.53	-57.7	-70.7	3.8	8.46e-01	0	26	104	0	80	17236
2026-01-06 03:21:02.24	27.53	2.59	-57.7	-70.7	3.8	8.45e-01	0	26	104	0	80	17223
2026-01-06 03:21:03.23	27.52	2.66	-57.7	-70.7	3.8	8.46e-01	0	26	104	0	80	17255
2026-01-06 03:21:04.23	27.51	2.72	-57.7	-70.7	3.8	8.46e-01	0	26	104	0	80	17152
2026-01-06 03:21:05.22	27.49	2.79	-57.7	-70.6	3.8	8.46e-01	0	26	104	0	80	17045
2026-01-06 03:21:06.21	27.48	2.85	-57.7	-70.6	3.8	8.46e-01	0	26	104	0	80	17001
2026-01-06 03:21:07.22	27.47	2.92	-57.7	-70.5	3.8	8.45e-01	0	26	104	0	80	16769
2026-01-06 03:21:08.21	27.46	2.98	-57.7	-70.2	3.8	8.45e-01	0	26	104	0	80	16204
2026-01-06 03:21:09.22	27.45	3.05	-57.6	-69.8	3.8	8.45e-01	0	26	104	0	80	15448
2026-01-06 03:21:10.21	27.43	3.12	-57.6	-69.4	3.8	8.44e-01	0	26	104	0	80	14726
2026-01-06 03:21:11.22	27.42	3.18	-57.6	-68.9	3.8	8.45e-01	0	26	104	0	80	13968
2026-01-06 03:21:12.21	27.41	3.25	-57.5	-68.2	3.9	8.44e-01	0	26	104	0	80	12943
2026-01-06 03:21:13.22	27.40	3.32	-57.5	-68.3	4.0	8.44e-01	0	26	104	0	80	12975
2026-01-06 03:21:14.21	27.39	3.38	-57.5	-68.3	3.8	8.41e-01	0	26	104	0	80	12961
2026-01-06 03:21:15.21	27.37	3.45	-57.5	-68.6	3.8	8.45e-01	0	27	104	0	80	13433
2026-01-06 03:21:16.21	27.36	3.52	-57.6	-69.2	3.8	8.45e-01	0	26	104	0	80	14477
2026-01-06 03:21:17.20	27.35	3.58	-57.6	-69.6	3.8	8.44e-01	0	26	104	0	80	15134
2026-01-06 03:21:18.20	27.34	3.65	-57.7	-69.9	3.8	8.46e-01	0	26	104	0	80	15661
2026-01-06 03:21:19.20	27.32	3.72	-57.7	-70.1	3.8	8.45e-01	0	26	104	0	80	15999
2026-01-06 03:21:20.19	27.31	3.78	-57.7	-70.1	3.8	8.45e-01	0	26	104	0	80	16046
2026-01-06 03:21:21.20	27.30	3.85	-57.6	-69.8	3.8	8.46e-01	0	26	104	0	80	15432
2026-01-06 03:21:22.20	27.28	3.92	-57.6	-69.0	3.8	8.45e-01	0	26	104	0	80	14186
2026-01-06 03:21:23.20	27.27	3.99	-57.5	-67.8	3.9	8.44e-01	0	26	104	0	80	12245
2026-01-06 03:21:24.21	27.26	4.06	-57.3	-66.5	4.4	8.35e-01	0	26	0	0	80	10557
2026-01-06 03:21:25.21	27.24	4.13	-57.1	-65.3	4.8	7.95e-01	0	26	0	0	80	9240
2026-01-06 03:21:26.20	27.23	4.19	-56.9	-63.9	5.6	7.04e-01	0	26	0	1048576	80	7848
2026-01-06 03:21:27.20	27.22	4.26	-56.5	-62.4	6.7	2.19e-01	0	26	0	6291456	79	7011
2026-01-06 03:21:28.20	27.20	4.33	-56.3	-61.6	7.3	1.17e-01	0	26	0	11534336	79	6408
2026-01-06 03:21:29.20	27.19	4.40	-56.0	-61.0	7.8	5.80e-02	0	26	0	17825792	78	6318
2026-01-06 03:21:30.19	27.18	4.47	-55.9	-60.7	8.2	4.40e-02	0	27	0	23068672	78	6065
2026-01-06 03:21:31.19	27.16	4.54	-55.7	-60.2	8.6	2.62e-02	0	26	0	28311552	78	5747
2026-01-06 03:21:32.20	27.15	4.61	-55.5	-59.7	9.0	1.51e-02	0	26	0	34603008	77	5730
2026-01-06 03:21:33.19	27.13	4.68	-55.3	-59.4	9.2	7.81e-03	0	26	0	39845888	77	5574
2026-01-06 03:21:34.18	27.12	4.75	-55.3	-59.3	9.3	1.04e-02	0	27	0	45088768	77	5500
2026-01-06 03:21:35.18	27.11	4.82	-55.3	-59.3	9.3	6.81e-03	0	26	0	51380224	77	5474
2026-01-06 03:21:36.18	27.09	4.89	-55.5	-59.7	8.9	1.15e-02	0	26	0	56623104	77	5780
2026-01-06 03:21:37.17	27.08	4.96	-55.5	-59.7	8.9	1.27e-02	0	26	0	62914560	77	5777
2026-01-06 03:21:38.17	27.06	5.03	-55.5	-59.8	8.8	1.69e-02	0	27	0	68157440	77	5836
2026-01-06 03:21:39.17	27.05	5.10	-57.5	-65.1	5.1	7.68e-01	0	27	0	71303168	80	9052
2026-01-06 03:21:40.17	27.04	5.17	-53.4	-55.9	11.9	5.70e-06	0	26	0	77594624	72	4978
2026-01-06 03:21:41.17	27.02	5.24	-57.0	-64.5	5.2	7.00e-01	0	27	0	81788928	79	8933
2026-01-06 03:21:42.17	27.01	5.32	-52.2	-54.1	13.2	0.00e+00	0	27	0	87031808	71	4275
2026-01-06 03:21:43.17	26.99	5.39	-56.5	-62.6	6.4	5.08e-02	0	26	0	93323264	78	7605
2026-01-06 03:21:44.17	26.98	5.46	-51.9	-53.7	13.3	0.00e+00	0	27	0	98566144	70	4339
2026-01-06 03:21:45.17	26.96	5.53	-51.5	-53.4	13.5	0.00e+00	0	27	0	103809024	69	4397
2026-01-06 03:21:46.17	26.95	5.60	-51.1	-52.8	13.7	0.00e+00	0	26	0	110100480	68	4363
2026-01-06 03:21:47.18	26.93	5.68	-50.9	-52.5	13.9	0.00e+00	0	26	0	115343360	68	4219
2026-01-06 03:21:48.18	26.91	5.75	-50.7	-52.3	14.0	0.00e+00	0	26	0	121634816	68	4119
2026-01-06 03:21:49.19	26.90	5.82	-50.8	-52.4	13.9	0.00e+00	0	26	0	126877696	68	4189
2026-01-06 03:21:50.17	26.88	5.90	-50.7	-52.3	14.0	0.00e+00	0	26	0	132120576	68	4127
2026-01-06 03:21:51.17	26.87	5.97	-50.2	-51.7	14.2	0.00e+00	0	27	0	137363456	67	4076
2026-01-06 03:21:52.17	26.85	6.04	-50.0	-51.5	14.2	0.00e+00	0	27	0	143654912	66	4202
2026-01-06 03:21:53.17	26.84	6.12	-50.0	-51.5	14.1	0.00e+00	0	26	0	148897792	66	4234
2026-01-06 03:21:54.17	26.82	6.19	-49.8	-51.3	14.3	0.00e+00	0	26	0	155189248	66	4119
2026-01-06 03:21:55.16	26.80	6.26	-49.7	-51.2	14.3	0.00e+00	0	27	0	160432128	66	4067
2026-01-06 03:21:56.16	26.79	6.34	-49.7	-51.2	14.3	0.00e+00	0	26	0	165675008	66	4067
2026-01-06 03:21:57.16	26.77	6.41	-49.8	-51.3	14.3	0.00e+00	0	26	0	171966464	66	4117
2026-01-06 03:21:58.16	26.76	6.49	-49.6	-51.1	14.3	0.00e+00	0	26	0	177209344	65	4253
2026-01-06 03:21:59.16	26.74	6.56	-49.7	-51.2	14.2	0.00e+00	0	26	0	182452224	65	4299
2026-01-06 03:22:00.16	26.72	6.64	-49.7	-51.2	14.2	0.00e+00	0	26	0	188743680	65	4304
2026-01-06 03:22:01.16	26.71	6.71	-49.9	-51.3	14.2	0.00e+00	0	26	0	193986560	65	4385
2026-01-06 03:22:02.16	26.69	6.79	-49.6	-51.0	14.3	0.00e+00	0	26	0	199229440	65	4231
2026-01-06 03:22:03.16	26.67	6.86	-49.9	-51.3	14.2	0.00e+00	0	27	0	205520896	65	4380
2026-01-06 03:22:04.16	26.66	6.94	-49.7	-51.2	14.2	0.00e+00	0	26	0	210763776	65	4319
2026-01-06 03:22:05.16	26.64	7.02	-49.5	-51.0	14.4	0.00e+00	0	26	0	217055232	65	4195
2026-01-06 03:22:06.16	26.62	7.09	-49.6	-51.0	14.4	0.00e+00	0	26	0	222298112	65	4212
2026-01-06 03:22:07.16	26.60	7.17	-49.6	-51.0	14.3	0.00e+00	0	26	0	227540992	65	4227
2026-01-06 03:22:08.15	26.59	7.25	-49.5	-50.9	14.4	0.00e+00	0	26	0	233832448	65	4155
2026-01-06 03:22:09.15	26.57	7.32	-49.4	-50.8	14.5	0.00e+00	0	27	0	239075328	65	4112
2026-01-06 03:22:10.15	26.55	7.40	-49.4	-50.8	14.4	0.00e+00	0	26	0	244318208	65	4140
2026-01-06 03:22:11.15	26.53	7.48	-49.4	-50.8	14.5	0.00e+00	0	26	0	250609664	65	4127
2026-01-06 03:22:12.15	26.52	7.56	-49.4	-50.8	14.5	0.00e+00	0	26	0	255852544	65	4107
2026-01-06 03:22:13.15	26.50	7.64	-49.4	-50.8	14.5	0.00e+00	0	26	0	261095424	65	4132
2026-01-06 03:22:14.14	26.48	7.71	-49.4	-50.8	14.5	0.00e+00	0	26	0	267386880	65	4137
2026-01-06 03:22:15.14	26.46	7.79	-49.5	-50.9	14.4	0.00e+00	0	26	0	272629760	65	4167
2026-01-06 03:22:16.13	26.44	7.87	-49.4	-50.8	14.5	0.00e+00	0	26	0	278921216	65	4118
2026-01-06 03:22:17.13	26.42	7.95	-49.5	-50.9	14.4	0.00e+00	0	26	0	284164096	65	4162
2026-01-06 03:22:18.13	26.41	8.03	-49.4	-50.8	14.5	0.00e+00	0	26	0	289406976	65	4103
2026-01-06 03:22:19.14	26.39	8.11	-49.4	-50.8	14.5	0.00e+00	0	26	0	295698432	65	4135
2026-01-06 03:22:20.13	26.37	8.19	-49.4	-50.7	14.5	0.00e+00	0	26	0	300941312	65	4093
2026-01-06 03:22:21.13	26.35	8.27	-49.4	-50.8	14.5	0.00e+00	0	26	0	306184192	65	4108
2026-01-06 03:22:22.12	26.33	8.35	-49.4	-50.8	14.5	0.00e+00	0	26	0	312475648	65	4110
2026-01-06 03:22:23.13	26.31	8.43	-49.4	-50.7	14.5	0.00e+00	0	26	0	317718528	65	4092
2026-01-06 03:22:24.13	26.29	8.51	-49.4	-50.8	14.5	0.00e+00	0	26	0	322961408	65	4138
2026-01-06 03:22:25.13	26.27	8.59	-49.3	-50.7	14.5	0.00e+00	0	26	0	329252864	65	4080
2026-01-06 03:22:26.13	26.25	8.67	-49.0	-50.4	14.6	0.00e+00	0	26	0	334495744	64	4158
2026-01-06 03:22:27.12	26.23	8.75	-49.1	-50.5	14.5	0.00e+00	0	26	0	339738624	64	4204
2026-01-06 03:22:28.13	26.21	8.84	-49.2	-50.5	14.5	0.00e+00	0	26	0	346030080	64	4228
2026-01-06 03:22:29.13	26.19	8.92	-49.1	-50.5	14.5	0.00e+00	0	26	0	351272960	64	4210
2026-01-06 03:22:30.14	26.17	9.00	-49.2	-50.5	14.5	0.00e+00	0	26	0	357564416	64	4240
2026-01-06 03:22:31.15	26.15	9.09	-49.0	-50.4	14.6	0.00e+00	0	26	0	362807296	64	4170
2026-01-06 03:22:32.15	26.13	9.17	-49.0	-50.4	14.6	0.00e+00	0	26	0	368050176	64	4148
2026-01-06 03:22:33.14	26.11	9.25	-48.9	-50.3	14.6	0.00e+00	0	26	0	374341632	64	4115
2026-01-06 03:22:34.15	26.09	9.34	-49.0	-50.3	14.6	0.00e+00	0	26	0	379584512	64	4115
2026-01-06 03:22:35.15	26.07	9.42	-49.0	-50.3	14.6	0.00e+00	0	26	0	385875968	64	4144
2026-01-06 03:22:36.14	26.05	9.50	-48.9	-50.2	14.6	0.00e+00	0	26	0	391118848	64	4088
2026-01-06 03:22:37.14	26.03	9.59	-48.9	-50.2	14.6	0.00e+00	0	26	0	396361728	64	4093
2026-01-06 03:22:38.13	26.00	9.67	-48.8	-50.2	14.7	0.00e+00	0	26	0	402653184	64	4057
2026-01-06 03:22:39.13	25.98	9.76	-48.8	-50.1	14.7	0.00e+00	0	26	0	407896064	64	4039
2026-01-06 03:22:40.13	25.96	9.84	-48.7	-50.0	14.7	0.00e+00	0	26	0	413138944	64	4001
2026-01-06 03:22:41.13	25.94	9.93	-48.7	-50.0	14.8	0.00e+00	0	26	0	419430400	64	3988
2026-01-06 03:22:42.13	25.92	10.01	-48.7	-50.0	14.6	0.00e+00	0	26	0	424673280	63	4214
2026-01-06 03:22:43.13	25.90	10.10	-48.7	-50.0	14.6	0.00e+00	0	26	0	429916160	63	4224
2026-01-06 03:22:44.14	25.87	10.19	-48.6	-49.9	14.7	0.00e+00	0	26	0	436207616	63	4176
2026-01-06 03:22:45.13	25.85	10.27	-48.7	-50.0	14.7	0.00e+00	0	26	0	441450496	63	4206
2026-01-06 03:22:46.13	25.83	10.36	-48.5	-49.8	14.7	0.00e+00	0	26	0	447741952	63	4138
2026-01-06 03:22:47.13	25.81	10.45	-48.5	-49.8	14.7	0.00e+00	0	26	0	452984832	63	4105
2026-01-06 03:22:48.13	25.78	10.53	-48.6	-49.9	14.7	0.00e+00	0	26	0	458227712	63	4153
2026-01-06 03:22:49.13	25.76	10.62	-48.6	-49.8	14.7	0.00e+00	0	26	0	464519168	63	4136
2026-01-06 03:22:50.14	25.74	10.71	-48.4	-49.7	14.8	0.00e+00	0	26	0	469762048	63	4062
2026-01-06 03:22:51.14	25.71	10.80	-48.5	-49.7	14.8	0.00e+00	0	26	0	475004928	63	4081
2026-01-06 03:22:52.14	25.69	10.89	-48.4	-49.7	14.8	0.00e+00	0	26	0	481296384	63	4079
2026-01-06 03:22:53.14	25.66	10.98	-48.4	-49.7	14.8	0.00e+00	0	26	0	486539264	63	4053
2026-01-06 03:22:54.14	25.64	11.07	-48.3	-49.6	14.8	0.00e+00	0	26	0	491782144	63	4020
2026-01-06 03:22:55.14	25.62	11.16	-48.4	-49.6	14.8	0.00e+00	0	26	0	498073600	63	4039
2026-01-06 03:22:56.14	25.59	11.25	-48.3	-49.5	14.9	0.00e+00	0	26	0	503316480	63	3999
2026-01-06 03:22:57.14	25.57	11.34	-48.3	-49.6	14.9	0.00e+00	0	26	0	509607936	63	4009
2026-01-06 03:22:58.15	25.54	11.43	-48.2	-49.5	14.9	0.00e+00	0	26	0	514850816	63	3970
2026-01-06 03:22:59.15	25.52	11.52	-48.3	-49.6	14.8	0.00e+00	0	26	0	520093696	63	4024
2026-01-06 03:23:00.15	25.49	11.61	-48.3	-49.5	14.9	0.00e+00	0	26	0	526385152	63	3989
2026-01-06 03:23:01.15	25.47	11.70	-48.2	-49.4	14.9	0.00e+00	0	26	0	531628032	63	3946
2026-01-06 03:23:02.16	25.44	11.80	-48.0	-49.3	14.8	0.00e+00	0	26	0	536870912	62	4102
2026-01-06 03:23:03.16	25.42	11.89	-48.1	-49.3	14.8	0.00e+00	0	26	0	543162368	62	4135
2026-01-06 03:23:04.16	25.39	11.98	-48.1	-49.3	14.8	0.00e+00	0	26	0	548405248	62	4119
2026-01-06 03:23:05.16	25.37	12.08	-48.1	-49.3	14.8	0.00e+00	0	26	0	553648128	62	4138
2026-01-06 03:23:06.16	25.34	12.17	-48.0	-49.2	14.9	0.00e+00	0	26	0	559939584	62	4062
2026-01-06 03:23:07.16	25.31	12.26	-48.1	-49.3	14.8	0.00e+00	0	26	0	565182464	62	4114
2026-01-06 03:23:08.16	25.29	12.36	-48.0	-49.3	14.8	0.00e+00	0	26	0	571473920	62	4112
2026-01-06 03:23:09.16	25.26	12.45	-48.1	-49.4	14.8	0.00e+00	0	26	0	576716800	62	4153
2026-01-06 03:23:10.16	25.23	12.55	-48.0	-49.3	14.8	0.00e+00	0	26	0	581959680	62	4106
2026-01-06 03:23:11.17	25.21	12.64	-48.1	-49.3	14.8	0.00e+00	0	26	0	588251136	62	4129
2026-01-06 03:23:12.17	25.18	12.74	-48.1	-49.3	14.8	0.00e+00	0	26	0	593494016	62	4123
2026-01-06 03:23:13.17	25.15	12.83	-47.9	-49.1	14.9	0.00e+00	0	26	0	598736896	62	4045
2026-01-06 03:23:14.17	25.12	12.93	-47.9	-49.1	14.9	0.00e+00	0	26	0	605028352	62	4009
2026-01-06 03:23:15.17	25.09	13.03	-47.9	-49.1	14.9	0.00e+00	0	26	0	610271232	62	4013
2026-01-06 03:23:16.15	25.07	13.12	-47.9	-49.1	14.9	0.00e+00	0	26	0	615514112	62	4025
2026-01-06 03:23:17.15	25.04	13.22	-47.8	-48.9	15.0	0.00e+00	0	26	0	621805568	62	3958
2026-01-06 03:23:18.15	25.01	13.32	-47.8	-49.0	15.0	0.00e+00	0	26	0	627048448	62	3970
2026-01-06 03:23:19.15	24.98	13.42	-47.6	-48.8	14.9	0.00e+00	0	26	0	633339904	61	4130
2026-01-06 03:23:20.15	24.95	13.52	-47.7	-48.9	14.9	0.00e+00	0	26	0	638582784	61	4154
2026-01-06 03:23:21.15	24.92	13.62	-47.7	-48.9	14.9	0.00e+00	0	26	0	643825664	61	4148
2026-01-06 03:23:22.15	24.89	13.71	-47.6	-48.8	14.9	0.00e+00	0	26	0	650117120	61	4114
2026-01-06 03:23:23.15	24.86	13.81	-47.7	-48.9	14.9	0.00e+00	0	26	0	655360000	61	4158
2026-01-06 03:23:24.15	24.83	13.92	-47.7	-48.9	14.9	0.00e+00	0	26	0	660602880	61	4157
2026-01-06 03:23:25.15	24.80	14.02	-47.8	-49.0	14.8	0.00e+00	0	26	0	666894336	61	4204
2026-01-06 03:23:26.15	24.77	14.12	-47.6	-48.8	14.9	0.00e+00	0	26	0	672137216	61	4128
2026-01-06 03:23:27.15	24.74	14.22	-47.5	-48.7	15.0	0.00e+00	0	26	0	677380096	61	4058
2026-01-06 03:23:28.16	24.71	14.32	-47.6	-48.8	14.9	0.00e+00	0	26	0	683671552	61	4111
2026-01-06 03:23:29.16	24.68	14.42	-47.7	-48.9	14.9	0.00e+00	0	26	0	688914432	61	4158
2026-01-06 03:23:30.16	24.65	14.53	-47.5	-48.7	14.9	0.00e+00	0	26	0	695205888	61	4087
2026-01-06 03:23:31.17	24.62	14.63	-47.5	-48.6	15.0	0.00e+00	0	26	0	700448768	61	4047
2026-01-06 03:23:32.17	24.59	14.73	-47.3	-48.5	15.1	0.00e+00	0	27	0	705691648	61	3967
2026-01-06 03:23:33.17	24.55	14.84	-47.3	-48.4	15.1	0.00e+00	0	26	0	711983104	61	3950
2026-01-06 03:23:34.17	24.52	14.94	-47.2	-48.4	15.1	0.00e+00	0	26	0	717225984	61	3934
2026-01-06 03:23:35.18	24.49	15.05	-47.2	-48.3	15.1	0.00e+00	0	26	0	723517440	61	3909
2026-01-06 03:23:36.17	24.46	15.15	-47.1	-48.3	15.0	0.00e+00	0	26	0	728760320	60	4107
2026-01-06 03:23:37.17	24.42	15.26	-47.1	-48.2	15.0	0.00e+00	0	26	0	734003200	60	4096
2026-01-06 03:23:38.17	24.39	15.37	-47.0	-48.2	15.0	0.00e+00	0	26	0	739246080	60	4057
2026-01-06 03:23:39.16	24.36	15.47	-47.0	-48.2	15.0	0.00e+00	0	26	0	745537536	60	4068
2026-01-06 03:23:40.17	24.32	15.58	-47.1	-48.2	15.0	0.00e+00	0	26	0	750780416	60	4096
2026-01-06 03:23:41.16	24.29	15.69	-47.1	-48.2	15.0	0.00e+00	0	26	0	757071872	60	4077
2026-01-06 03:23:42.16	24.25	15.80	-47.0	-48.1	15.1	0.00e+00	0	26	0	762314752	60	4033
2026-01-06 03:23:43.16	24.22	15.90	-46.9	-48.0	15.1	0.00e+00	0	26	0	767557632	60	3983
2026-01-06 03:23:44.16	24.18	16.01	-46.9	-48.0	15.1	0.00e+00	0	26	0	773849088	60	4004
2026-01-06 03:23:45.16	24.15	16.12	-46.8	-47.9	15.1	0.00e+00	0	26	0	779091968	60	3952
2026-01-06 03:23:46.16	24.11	16.23	-46.8	-47.9	15.1	0.00e+00	0	26	0	784334848	60	3929
2026-01-06 03:23:47.16	24.08	16.34	-46.8	-47.9	15.1	0.00e+00	0	26	0	790626304	60	3945
2026-01-06 03:23:48.16	24.04	16.45	-46.8	-48.0	15.1	0.00e+00	0	26	0	795869184	60	3972
2026-01-06 03:23:49.16	24.00	16.57	-46.9	-48.0	15.1	0.00e+00	0	26	0	801112064	60	3986
2026-01-06 03:23:50.16	23.97	16.68	-46.7	-47.9	15.2	0.00e+00	0	26	0	807403520	60	3914
2026-01-06 03:23:51.16	23.93	16.79	-47.1	-48.2	14.9	0.00e+00	0	26	0	812646400	59	4325
2026-01-06 03:23:52.16	23.89	16.90	-47.2	-48.3	14.9	0.00e+00	0	26	0	818937856	59	4382
2026-01-06 03:23:53.15	23.86	17.02	-47.0	-48.2	15.0	0.00e+00	0	26	0	824180736	59	4301
2026-01-06 03:23:54.16	23.82	17.13	-46.9	-48.0	15.0	0.00e+00	0	26	0	829423616	59	4242
2026-01-06 03:23:55.16	23.78	17.25	-46.9	-48.0	15.0	0.00e+00	0	26	0	835715072	59	4221
2026-01-06 03:23:56.16	23.74	17.36	-46.9	-48.0	15.0	0.00e+00	0	26	0	840957952	59	4223
2026-01-06 03:23:57.16	23.70	17.48	-46.9	-48.0	15.0	0.00e+00	0	27	0	846200832	59	4241
2026-01-06 03:23:58.16	23.66	17.59	-46.8	-48.0	15.0	0.00e+00	0	26	0	852492288	59	4196
2026-01-06 03:23:59.17	23.62	17.71	-46.8	-47.9	15.0	0.00e+00	0	26	0	857735168	59	4189
2026-01-06 03:24:00.16	23.58	17.83	-46.9	-48.1	15.0	0.00e+00	0	26	0	862978048	59	4244
2026-01-06 03:24:01.16	23.54	17.95	-46.8	-48.0	15.0	0.00e+00	0	26	0	869269504	59	4203
2026-01-06 03:24:02.16	23.50	18.06	-46.8	-47.9	15.0	0.00e+00	0	26	0	874512384	59	4168
2026-01-06 03:24:03.16	23.46	18.18	-46.8	-48.0	15.0	0.00e+00	0	26	0	880803840	59	4201
2026-01-06 03:24:04.17	23.42	18.30	-46.7	-47.8	15.1	0.00e+00	0	26	0	886046720	59	4138
2026-01-06 03:24:05.17	23.38	18.42	-46.8	-47.9	15.0	0.00e+00	0	26	0	892338176	59	4166
2026-01-06 03:24:06.18	23.33	18.55	-46.8	-47.9	15.0	0.00e+00	0	26	0	897581056	59	4182
2026-01-06 03:24:07.18	23.29	18.67	-46.8	-47.9	15.0	0.00e+00	0	26	0	902823936	59	4172
2026-01-06 03:24:08.17	23.25	18.79	-46.7	-47.8	15.1	0.00e+00	0	26	0	908066816	59	4129
2026-01-06 03:24:09.16	23.21	18.91	-46.7	-47.8	15.1	0.00e+00	0	26	0	914358272	59	4126
2026-01-06 03:24:10.16	23.16	19.03	-46.7	-47.8	15.1	0.00e+00	0	26	0	919601152	59	4133
2026-01-06 03:24:11.16	23.12	19.16	-46.7	-47.8	15.1	0.00e+00	0	26	0	924844032	59	4133
2026-01-06 03:24:12.17	23.07	19.28	-46.8	-47.9	15.0	0.00e+00	0	26	0	931135488	59	4182
2026-01-06 03:24:13.17	23.03	19.41	-46.7	-47.9	15.0	0.00e+00	0	26	0	936378368	59	4162
2026-01-06 03:24:14.16	22.98	19.53	-46.8	-48.0	15.0	0.00e+00	0	26	0	942669824	59	4211
2026-01-06 03:24:15.17	22.94	19.66	-46.7	-47.9	15.1	0.00e+00	0	26	0	947912704	59	4150
2026-01-06 03:24:16.17	22.89	19.78	-46.8	-48.0	15.0	0.00e+00	0	26	0	953155584	59	4210
2026-01-06 03:24:17.17	22.84	19.91	-46.7	-47.9	15.1	0.00e+00	0	26	0	959447040	59	4156
2026-01-06 03:24:18.16	22.80	20.04	-46.8	-48.0	15.0	0.00e+00	0	26	0	964689920	59	4215
2026-01-06 03:24:19.16	22.75	20.17	-46.7	-47.8	15.1	0.00e+00	0	26	0	969932800	59	4114
2026-01-06 03:24:20.16	22.70	20.30	-46.7	-47.8	15.1	0.00e+00	0	26	0	976224256	59	4136
2026-01-06 03:24:21.16	22.65	20.43	-46.7	-47.8	15.1	0.00e+00	0	26	0	981467136	59	4110
2026-01-06 03:24:22.16	22.61	20.56	-46.7	-47.8	15.1	0.00e+00	0	26	0	987758592	59	4143
2026-01-06 03:24:23.16	22.56	20.69	-46.7	-47.8	15.1	0.00e+00	0	26	0	993001472	59	4137
2026-01-06 03:24:24.15	22.51	20.82	-46.7	-47.8	15.1	0.00e+00	0	26	0	998244352	59	4117
2026-01-06 03:24:25.16	22.46	20.95	-46.7	-47.8	15.1	0.00e+00	0	26	0	1004535808	59	4118
2026-01-06 03:24:26.15	22.41	21.08	-46.7	-47.8	15.1	0.00e+00	0	26	0	1009778688	59	4131
2026-01-06 03:24:27.15	22.36	21.22	-46.7	-47.9	15.1	0.00e+00	0	26	0	1015021568	59	4148
2026-01-06 03:24:28.14	22.31	21.35	-46.6	-47.7	15.1	0.00e+00	0	26	0	1021313024	59	4090
2026-01-06 03:24:29.13	22.25	21.48	-46.6	-47.7	15.1	0.00e+00	0	26	0	1026555904	59	4096
2026-01-06 03:24:30.13	22.20	21.62	-46.6	-47.7	15.1	0.00e+00	0	26	0	1031798784	59	4081
2026-01-06 03:24:31.13	22.15	21.76	-46.5	-47.6	15.1	0.00e+00	0	26	0	1038090240	59	4017
2026-01-06 03:24:32.13	22.10	21.89	-46.5	-47.6	15.1	0.00e+00	0	26	0	1043333120	59	4022
2026-01-06 03:24:33.13	22.04	22.03	-46.5	-47.6	15.1	0.00e+00	0	26	0	1049624576	59	4034
2026-01-06 03:24:34.12	21.99	22.17	-46.3	-47.4	15.2	0.00e+00	0	26	0	1054867456	59	3919
2026-01-06 03:24:35.13	21.93	22.31	-46.1	-47.2	15.2	0.00e+00	0	26	0	1060110336	58	4056
2026-01-06 03:24:36.12	21.88	22.45	-46.1	-47.2	15.1	0.00e+00	0	26	0	1066401792	58	4070
2026-01-06 03:24:37.12	21.82	22.59	-46.1	-47.2	15.1	0.00e+00	0	26	0	1071644672	58	4096
2026-01-06 03:24:38.13	21.76	22.73	-45.8	-46.9	15.3	0.00e+00	0	26	0	1076887552	58	3928
2026-01-06 03:24:39.13	21.71	22.88	-45.7	-46.8	15.3	0.00e+00	0	26	0	1083179008	58	3880
2026-01-06 03:24:40.12	21.65	23.02	-45.8	-46.8	15.3	0.00e+00	0	26	0	1088421888	58	3903
2026-01-06 03:24:41.12	21.59	23.16	-45.8	-46.9	15.3	0.00e+00	0	26	0	1093664768	58	3916
2026-01-06 03:24:42.12	21.53	23.31	-45.5	-46.6	15.2	0.00e+00	0	26	0	1099956224	57	4026
2026-01-06 03:24:43.11	21.47	23.45	-45.5	-46.6	15.2	0.00e+00	0	26	0	1105199104	57	4020
2026-01-06 03:24:44.11	21.41	23.60	-45.5	-46.6	15.2	0.00e+00	0	26	0	1110441984	57	4028
2026-01-06 03:24:45.11	21.35	23.74	-45.6	-46.6	15.2	0.00e+00	0	26	0	1116733440	57	4044
2026-01-06 03:24:46.11	21.29	23.89	-45.6	-46.6	15.2	0.00e+00	0	26	0	1121976320	57	4045
2026-01-06 03:24:47.10	21.23	24.04	-45.6	-46.6	15.2	0.00e+00	0	26	0	1127219200	57	4048
2026-01-06 03:24:48.09	21.17	24.19	-45.7	-46.8	15.2	0.00e+00	0	26	0	1133510656	57	4106
2026-01-06 03:24:49.09	21.11	24.34	-45.7	-46.8	15.2	0.00e+00	0	26	0	1138753536	57	4114
2026-01-06 03:24:50.08	21.04	24.49	-45.7	-46.8	15.2	0.00e+00	0	26	0	1143996416	57	4120
2026-01-06 03:24:51.07	20.98	24.64	-45.8	-46.9	15.2	0.00e+00	0	26	0	1150287872	57	4148
2026-01-06 03:24:52.06	20.92	24.79	-45.8	-46.9	15.1	0.00e+00	0	26	0	1155530752	57	4147
2026-01-06 03:24:53.06	20.85	24.94	-45.8	-46.8	15.2	0.00e+00	0	26	0	1160773632	57	4134
2026-01-06 03:24:54.06	20.78	25.10	-45.8	-46.9	15.2	0.00e+00	0	26	0	1167065088	57	4157
2026-01-06 03:24:55.05	20.72	25.25	-45.8	-46.9	15.1	0.00e+00	0	26	0	1172307968	57	4185
2026-01-06 03:24:56.04	20.65	25.41	-45.8	-46.9	15.1	0.00e+00	0	26	0	1177550848	57	4180
2026-01-06 03:24:57.04	20.58	25.56	-45.7	-46.8	15.2	0.00e+00	0	26	0	1183842304	57	4116
2026-01-06 03:24:58.04	20.51	25.72	-45.7	-46.8	15.2	0.00e+00	0	26	0	1189085184	57	4103
2026-01-06 03:24:59.04	20.44	25.88	-45.6	-46.7	15.2	0.00e+00	0	26	0	1194328064	57	4080
2026-01-06 03:25:00.04	20.37	26.04	-45.6	-46.7	15.2	0.00e+00	0	26	0	1200619520	57	4083
2026-01-06 03:25:01.03	20.30	26.20	-45.7	-46.8	15.2	0.00e+00	0	26	0	1205862400	57	4110
2026-01-06 03:25:02.03	20.23	26.36	-45.5	-46.5	15.3	0.00e+00	0	26	0	1212153856	57	3993
2026-01-06 03:25:03.03	20.16	26.52	-45.5	-46.6	15.3	0.00e+00	0	26	0	1217396736	57	4008
2026-01-06 03:25:04.03	20.08	26.69	-45.5	-46.5	15.3	0.00e+00	0	26	0	1222639616	57	3982
2026-01-06 03:25:05.03	20.01	26.85	-45.5	-46.6	15.3	0.00e+00	0	26	0	1228931072	57	4005
2026-01-06 03:25:06.02	19.93	27.02	-45.6	-46.7	15.2	0.00e+00	0	26	0	1234173952	57	4069
2026-01-06 03:25:07.02	19.86	27.18	-45.7	-46.8	15.2	0.00e+00	0	26	0	1239416832	57	4102
2026-01-06 03:25:08.01	19.78	27.35	-45.7	-46.8	15.2	0.00e+00	0	26	0	1244659712	57	4132
2026-01-06 03:25:09.00	19.70	27.51	-45.7	-46.8	15.2	0.00e+00	0	26	0	1250951168	57	4139
2026-01-06 03:25:10.00	19.63	27.68	-45.7	-46.8	15.2	0.00e+00	0	26	0	1256194048	57	4127
2026-01-06 03:25:10.99	19.55	27.85	-45.8	-46.9	15.1	0.00e+00	0	26	0	1262485504	57	4178
2026-01-06 03:25:11.99	19.47	28.02	-45.7	-46.8	15.2	0.00e+00	0	26	0	1267728384	57	4121
2026-01-06 03:25:12.99	19.38	28.20	-45.7	-46.7	15.2	0.00e+00	0	26	0	1272971264	57	4092
2026-01-06 03:25:13.99	19.30	28.37	-45.8	-46.9	15.2	0.00e+00	0	26	0	1279262720	57	4178
2026-01-06 03:25:14.98	19.22	28.54	-45.6	-46.7	15.2	0.00e+00	0	26	0	1284505600	57	4056
2026-01-06 03:25:15.98	19.14	28.72	-45.6	-46.6	15.2	0.00e+00	0	26	0	1289748480	57	4040
2026-01-06 03:25:16.99	19.05	28.89	-45.4	-46.4	15.3	0.00e+00	0	26	0	1296039936	57	3955
2026-01-06 03:25:17.99	18.96	29.07	-45.4	-46.5	15.3	0.00e+00	0	26	0	1301282816	57	3984
2026-01-06 03:25:18.98	18.88	29.25	-45.5	-46.5	15.3	0.00e+00	0	26	0	1306525696	57	4004
2026-01-06 03:25:19.97	18.79	29.43	-45.3	-46.3	15.3	0.00e+00	0	26	0	1312817152	57	3909
2026-01-06 03:25:20.97	18.70	29.61	-45.3	-46.3	15.3	0.00e+00	0	26	0	1318060032	57	3898
2026-01-06 03:25:21.98	18.61	29.79	-45.3	-46.3	15.3	0.00e+00	0	26	0	1324351488	57	3899
2026-01-06 03:25:22.97	18.52	29.97	-45.3	-46.3	15.3	0.00e+00	0	26	0	1329594368	57	3905
2026-01-06 03:25:23.97	18.43	30.16	-45.3	-46.3	15.3	0.00e+00	0	26	0	1334837248	57	3900
2026-01-06 03:25:24.96	18.33	30.34	-45.3	-46.3	15.3	0.00e+00	0	26	0	1340080128	57	3911
2026-01-06 03:25:25.96	18.24	30.52	-45.3	-46.3	15.3	0.00e+00	0	26	0	1346371584	57	3908
2026-01-06 03:25:26.96	18.14	30.71	-45.4	-46.4	15.3	0.00e+00	0	26	0	1351614464	57	3947
2026-01-06 03:25:27.96	18.05	30.90	-45.4	-46.5	15.3	0.00e+00	0	26	0	1356857344	57	3989
2026-01-06 03:25:28.96	17.95	31.09	-45.4	-46.4	15.3	0.00e+00	0	26	0	1363148800	57	3948
2026-01-06 03:25:29.95	17.85	31.28	-45.3	-46.4	15.3	0.00e+00	0	26	0	1368391680	57	3936
2026-01-06 03:25:30.95	17.75	31.47	-45.3	-46.4	15.3	0.00e+00	0	26	0	1374683136	57	3929
2026-01-06 03:25:31.95	17.65	31.66	-45.2	-46.3	15.4	0.00e+00	0	26	0	1379926016	57	3878
2026-01-06 03:25:32.95	17.55	31.86	-45.2	-46.2	15.4	0.00e+00	0	26	0	1385168896	57	3868
2026-01-06 03:25:33.95	17.44	32.05	-45.2	-46.2	15.4	0.00e+00	0	26	0	1391460352	57	3868
2026-01-06 03:25:34.95	17.34	32.25	-45.3	-46.3	15.3	0.00e+00	0	26	0	1396703232	57	3912
2026-01-06 03:25:35.95	17.23	32.44	-45.2	-46.3	15.4	0.00e+00	0	26	0	1401946112	57	3879
2026-01-06 03:25:36.95	17.12	32.64	-45.3	-46.3	15.4	0.00e+00	0	26	0	1408237568	57	3890
2026-01-06 03:25:37.95	17.01	32.84	-45.1	-46.2	15.2	0.00e+00	0	26	0	1413480448	56	4068
2026-01-06 03:25:38.95	16.90	33.04	-45.1	-46.1	15.3	0.00e+00	0	26	0	1418723328	56	4023
2026-01-06 03:25:39.95	16.79	33.25	-45.1	-46.1	15.3	0.00e+00	0	26	0	1425014784	56	4023
2026-01-06 03:25:40.95	16.67	33.45	-45.1	-46.2	15.2	0.00e+00	0	26	0	1430257664	56	4070
2026-01-06 03:25:41.95	16.56	33.65	-45.1	-46.1	15.3	0.00e+00	0	26	0	1436549120	56	4031
2026-01-06 03:25:42.95	16.44	33.86	-45.0	-46.0	15.3	0.00e+00	0	26	0	1441792000	56	3990
2026-01-06 03:25:43.94	16.32	34.07	-45.0	-46.0	15.3	0.00e+00	0	26	0	1447034880	56	3985
2026-01-06 03:25:44.93	16.20	34.27	-45.0	-46.0	15.3	0.00e+00	0	26	0	1453326336	56	3999
2026-01-06 03:25:45.93	16.08	34.48	-45.1	-46.1	15.3	0.00e+00	0	26	0	1458569216	56	4046
2026-01-06 03:25:46.93	15.96	34.69	-45.1	-46.2	15.2	0.00e+00	0	26	0	1463812096	56	4058
2026-01-06 03:25:47.92	15.84	34.90	-45.2	-46.3	15.2	0.00e+00	0	26	0	1470103552	56	4109
2026-01-06 03:25:48.92	15.71	35.12	-45.2	-46.2	15.2	0.00e+00	0	26	0	1475346432	56	4093
2026-01-06 03:25:49.90	15.58	35.33	-45.1	-46.1	15.3	0.00e+00	0	26	0	1480589312	56	4033
2026-01-06 03:25:50.90	15.45	35.54	-45.0	-46.1	15.3	0.00e+00	0	26	0	1486880768	56	4017
2026-01-06 03:25:51.90	15.32	35.76	-45.0	-46.0	15.3	0.00e+00	0	26	0	1492123648	56	3985
2026-01-06 03:25:52.91	15.19	35.98	-45.0	-46.0	15.3	0.00e+00	0	26	0	1497366528	56	3978
2026-01-06 03:25:53.90	15.05	36.20	-44.7	-45.7	15.4	0.00e+00	0	26	0	1503657984	56	3868
2026-01-06 03:25:54.89	14.92	36.42	-44.7	-45.7	15.4	0.00e+00	0	26	0	1508900864	56	3852
2026-01-06 03:25:55.89	14.78	36.64	-44.7	-45.7	15.4	0.00e+00	0	26	0	1514143744	56	3866
2026-01-06 03:25:56.88	14.64	36.86	-44.8	-45.8	15.4	0.00e+00	0	26	0	1520435200	56	3896
2026-01-06 03:25:57.88	14.49	37.09	-44.8	-45.9	15.3	0.00e+00	0	26	0	1525678080	56	3926
2026-01-06 03:25:58.88	14.35	37.31	-44.9	-45.9	15.3	0.00e+00	0	26	0	1531969536	56	3952
2026-01-06 03:25:59.88	14.20	37.54	-45.0	-46.0	15.3	0.00e+00	0	26	0	1537212416	56	4002
2026-01-06 03:26:00.88	14.05	37.77	-44.9	-46.0	15.3	0.00e+00	0	26	0	1542455296	56	3970
2026-01-06 03:26:01.88	13.90	38.00	-45.0	-46.1	15.3	0.00e+00	0	26	0	1548746752	56	4010
2026-01-06 03:26:02.89	13.74	38.24	-45.0	-46.1	15.3	0.00e+00	0	26	0	1553989632	56	4022
2026-01-06 03:26:03.88	13.59	38.47	-45.1	-46.1	15.2	0.00e+00	0	26	0	1559232512	56	4045
2026-01-06 03:26:04.88	13.43	38.70	-45.1	-46.1	15.3	0.00e+00	0	26	0	1565523968	56	4040
2026-01-06 03:26:05.88	13.27	38.94	-45.2	-46.2	15.2	0.00e+00	0	26	0	1570766848	56	4092
2026-01-06 03:26:06.87	13.11	39.17	-45.3	-46.4	15.2	0.00e+00	0	26	0	1576009728	56	4157
2026-01-06 03:26:07.87	12.94	39.41	-45.3	-46.3	15.2	0.00e+00	0	26	0	1582301184	56	4134
2026-01-06 03:26:08.87	12.77	39.65	-45.2	-46.2	15.2	0.00e+00	0	26	0	1587544064	56	4079
2026-01-06 03:26:09.87	12.60	39.89	-45.2	-46.2	15.2	0.00e+00	0	26	0	1593835520	56	4098
2026-01-06 03:26:10.87	12.43	40.14	-45.1	-46.2	15.2	0.00e+00	0	26	0	1599078400	56	4065
2026-01-06 03:26:11.87	12.25	40.38	-45.2	-46.2	15.2	0.00e+00	0	26	0	1604321280	56	4081
2026-01-06 03:26:12.87	12.07	40.63	-45.3	-46.3	15.2	0.00e+00	0	26	0	1609564160	56	4132
2026-01-06 03:26:13.87	11.89	40.87	-45.5	-46.6	15.2	0.00e+00	0	26	0	1615855616	56	4270
2026-01-06 03:26:14.86	11.71	41.12	-45.7	-46.8	15.1	0.00e+00	0	26	0	1621098496	56	4368
2026-01-06 03:26:15.87	11.52	41.37	-45.9	-46.9	15.1	0.00e+00	0	26	0	1626341376	56	4438
2026-01-06 03:26:16.87	11.33	41.62	-45.7	-46.8	15.1	0.00e+00	0	26	0	1632632832	56	4355
2026-01-06 03:26:17.86	11.14	41.87	-45.6	-46.7	15.1	0.00e+00	0	26	0	1637875712	56	4334
2026-01-06 03:26:18.86	10.94	42.13	-45.6	-46.6	15.1	0.00e+00	0	26	0	1644167168	56	4291
2026-01-06 03:26:19.86	10.74	42.38	-45.5	-46.6	15.2	0.00e+00	0	26	0	1649410048	56	4250
2026-01-06 03:26:20.86	10.54	42.64	-45.5	-46.6	15.1	0.00e+00	0	26	0	1654652928	56	4270
2026-01-06 03:26:21.86	10.33	42.90	-45.6	-46.6	15.2	0.00e+00	0	26	0	1660944384	56	4287
2026-01-06 03:26:22.85	10.12	43.15	-45.7	-46.8	15.1	0.00e+00	0	26	0	1666187264	56	4359
2026-01-06 03:26:23.85	9.91	43.41	-45.7	-46.8	15.1	0.00e+00	0	26	0	1671430144	56	4363
2026-01-06 03:26:24.85	9.69	43.68	-45.5	-46.6	15.2	0.00e+00	0	26	0	1677721600	56	4252
2026-01-06 03:26:25.84	9.47	43.94	-45.6	-46.6	15.2	0.00e+00	0	26	0	1682964480	56	4285
2026-01-06 03:26:26.84	9.25	44.20	-45.7	-46.8	15.1	0.00e+00	0	26	0	1688207360	56	4347
2026-01-06 03:26:27.83	9.02	44.46	-45.7	-46.8	15.1	0.00e+00	0	26	0	1694498816	56	4354
2026-01-06 03:26:28.83	8.79	44.73	-45.7	-46.8	15.1	0.00e+00	0	26	0	1699741696	56	4357
2026-01-06 03:26:29.83	8.56	45.00	-45.6	-46.7	15.1	0.00e+00	0	26	0	1706033152	56	4315
2026-01-06 03:26:30.83	8.32	45.27	-45.7	-46.8	15.1	0.00e+00	0	26	0	1711276032	56	4364
2026-01-06 03:26:31.83	8.07	45.54	-45.5	-46.6	15.2	0.00e+00	0	26	0	1716518912	56	4254
2026-01-06 03:26:32.82	7.83	45.81	-45.5	-46.5	15.2	0.00e+00	0	26	0	1721761792	56	4238
2026-01-06 03:26:33.82	7.57	46.08	-45.5	-46.6	15.2	0.00e+00	0	26	0	1728053248	56	4267
2026-01-06 03:26:34.81	7.32	46.36	-45.7	-46.7	15.1	0.00e+00	0	26	0	1733296128	56	4329
2026-01-06 03:26:35.80	7.06	46.63	-45.7	-46.7	15.1	0.00e+00	0	26	0	1738539008	56	4328
2026-01-06 03:26:36.79	6.80	46.90	-45.6	-46.7	15.1	0.00e+00	0	26	0	1744830464	56	4315
2026-01-06 03:26:37.79	6.52	47.18	-45.7	-46.7	15.1	0.00e+00	0	26	0	1750073344	56	4323
2026-01-06 03:26:38.79	6.25	47.46	-45.6	-46.7	15.1	0.00e+00	0	26	0	1756364800	56	4313
2026-01-06 03:26:39.78	5.97	47.74	-45.7	-46.8	15.1	0.00e+00	0	26	0	1761607680	56	4364
2026-01-06 03:26:40.78	5.68	48.02	-46.0	-47.0	15.1	0.00e+00	0	26	0	1766850560	57	4231
2026-01-06 03:26:41.78	5.39	48.30	-46.0	-47.1	15.1	0.00e+00	0	26	0	1773142016	57	4249
2026-01-06 03:26:42.77	5.10	48.58	-46.0	-47.1	15.1	0.00e+00	0	26	0	1778384896	57	4287
2026-01-06 03:26:43.76	4.80	48.86	-46.1	-47.2	15.1	0.00e+00	0	26	0	1783627776	57	4300
2026-01-06 03:26:44.76	4.49	49.15	-46.1	-47.2	15.1	0.00e+00	0	26	0	1788870656	57	4329
2026-01-06 03:26:45.76	4.17	49.44	-46.3	-47.4	15.1	0.00e+00	0	26	0	1795162112	57	4418
2026-01-06 03:26:46.76	3.85	49.72	-46.5	-47.6	15.1	0.00e+00	0	26	0	1800404992	58	4265
2026-01-06 03:26:47.77	3.52	50.01	-46.5	-47.6	15.1	0.00e+00	0	26	0	1806696448	58	4274
2026-01-06 03:26:48.77	3.19	50.30	-46.5	-47.6	15.1	0.00e+00	0	26	0	1811939328	58	4289
2026-01-06 03:26:49.76	2.85	50.59	-46.6	-47.7	15.1	0.00e+00	0	26	0	1817182208	58	4313
2026-01-06 03:26:50.76	2.51	50.88	-46.9	-48.0	15.0	0.00e+00	0	26	0	1823473664	58	4466
2026-01-06 03:26:51.76	2.15	51.17	-46.9	-48.0	15.1	0.00e+00	0	26	0	1828716544	59	4200
2026-01-06 03:26:52.75	1.80	51.46	-46.7	-47.8	15.1	0.00e+00	0	26	0	1833959424	59	4113
2026-01-06 03:26:53.75	1.43	51.75	-46.5	-47.6	15.2	0.00e+00	0	26	0	1840250880	59	4041
2026-01-06 03:26:54.76	1.05	52.05	-46.6	-47.7	15.2	0.00e+00	0	26	0	1845493760	59	4061
2026-01-06 03:26:55.76	0.67	52.34	-46.5	-47.6	15.2	0.00e+00	0	26	0	1850736640	59	4006
2026-01-06 03:26:56.76	0.28	52.63	-46.6	-47.7	15.2	0.00e+00	0	26	0	1857028096	59	4093
2026-01-06 03:26:57.77	359.88	52.93	-46.6	-47.7	15.2	0.00e+00	0	26	0	1862270976	59	4078
2026-01-06 03:26:58.76	359.48	53.22	-46.6	-47.7	15.2	0.00e+00	0	26	0	1868562432	59	4064
2026-01-06 03:26:59.76	359.06	53.52	-46.5	-47.5	15.2	0.00e+00	0	26	0	1873805312	59	3991
2026-01-06 03:27:00.76	358.64	53.81	-46.5	-47.6	15.2	0.00e+00	0	26	0	1879048192	59	4015
2026-01-06 03:27:01.75	358.21	54.10	-46.6	-47.8	15.2	0.00e+00	0	26	0	1885339648	59	4103
2026-01-06 03:27:02.75	357.77	54.40	-46.6	-47.7	15.2	0.00e+00	0	26	0	1890582528	59	4098
2026-01-06 03:27:03.75	357.32	54.69	-46.4	-47.5	15.2	0.00e+00	0	26	0	1895825408	59	4004
2026-01-06 03:27:04.74	356.87	54.98	-46.5	-47.5	15.2	0.00e+00	0	26	0	1902116864	59	3991
2026-01-06 03:27:05.74	356.40	55.28	-46.4	-47.5	15.2	0.00e+00	0	26	0	1907359744	59	3996
2026-01-06 03:27:06.74	355.92	55.57	-46.5	-47.6	15.2	0.00e+00	0	26	0	1912602624	59	4025
2026-01-06 03:27:07.74	355.43	55.86	-46.5	-47.5	15.2	0.00e+00	0	26	0	1918894080	59	4003
2026-01-06 03:27:08.74	354.93	56.16	-46.3	-47.3	15.3	0.00e+00	0	26	0	1924136960	59	3913
2026-01-06 03:27:09.73	354.43	56.45	-46.1	-47.1	15.2	0.00e+00	0	26	0	1930428416	58	4040
2026-01-06 03:27:10.73	353.91	56.74	-46.0	-47.0	15.2	0.00e+00	0	26	0	1935671296	58	3989
2026-01-06 03:27:11.73	353.37	57.03	-45.9	-47.0	15.3	0.00e+00	0	26	0	1940914176	58	3959
2026-01-06 03:27:12.72	352.84	57.31	-46.0	-47.0	15.3	0.00e+00	0	26	0	1946157056	58	3999
2026-01-06 03:27:13.72	352.28	57.60	-45.8	-46.9	15.3	0.00e+00	0	26	0	1952448512	58	3939
2026-01-06 03:27:14.72	351.71	57.89	-45.8	-46.8	15.3	0.00e+00	0	26	0	1957691392	58	3888
2026-01-06 03:27:15.72	351.13	58.18	-45.9	-46.9	15.3	0.00e+00	0	26	0	1963982848	58	3940
2026-01-06 03:27:16.71	350.55	58.46	-46.1	-47.2	15.2	0.00e+00	0	26	0	1969225728	58	4071
2026-01-06 03:27:17.71	349.94	58.74	-46.2	-47.3	15.2	0.00e+00	0	26	0	1974468608	58	4124
2026-01-06 03:27:18.70	349.33	59.02	-46.4	-47.5	15.1	0.00e+00	0	26	0	1980760064	58	4222
2026-01-06 03:27:19.69	348.70	59.30	-46.5	-47.6	15.1	0.00e+00	0	26	0	1986002944	58	4259
2026-01-06 03:27:20.69	348.06	59.58	-46.6	-47.7	15.1	0.00e+00	0	26	0	1991245824	58	4324
2026-01-06 03:27:21.69	347.40	59.85	-46.5	-47.6	15.1	0.00e+00	0	26	0	1997537280	58	4278
2026-01-06 03:27:22.69	346.73	60.12	-46.4	-47.5	15.1	0.00e+00	0	26	0	2002780160	58	4241
2026-01-06 03:27:23.68	346.05	60.39	-46.3	-47.4	15.1	0.00e+00	0	26	0	2008023040	58	4185
2026-01-06 03:27:24.68	345.34	60.66	-46.2	-47.3	15.2	0.00e+00	0	26	0	2014314496	58	4115
2026-01-06 03:27:25.68	344.63	60.93	-46.1	-47.1	15.2	0.00e+00	0	26	0	2019557376	58	4048
2026-01-06 03:27:26.67	343.90	61.19	-46.2	-47.3	15.2	0.00e+00	0	26	0	2024800256	58	4106
2026-01-06 03:27:27.66	343.16	61.44	-46.0	-47.1	15.2	0.00e+00	0	26	0	2031091712	58	4009
2026-01-06 03:27:28.66	342.40	61.70	-45.9	-46.9	15.3	0.00e+00	0	26	0	2036334592	58	3939
2026-01-06 03:27:29.65	341.63	61.95	-45.8	-46.8	15.3	0.00e+00	0	26	0	2041577472	58	3905
2026-01-06 03:27:30.65	340.83	62.20	-45.9	-47.0	15.3	0.00e+00	0	26	0	2047868928	58	3981
2026-01-06 03:27:31.64	340.03	62.44	-45.9	-46.9	15.3	0.00e+00	0	26	0	2053111808	58	3948
2026-01-06 03:27:32.64	339.20	62.68	-45.4	-46.4	15.3	0.00e+00	0	26	0	2058354688	57	3944
2026-01-06 03:27:33.64	338.35	62.92	-45.1	-46.1	15.2	0.00e+00	0	26	0	2064646144	56	4035
2026-01-06 03:27:34.63	337.50	63.15	-45.2	-46.3	15.2	0.00e+00	0	26	0	2069889024	56	4105
2026-01-06 03:27:35.63	336.62	63.37	-45.6	-46.6	15.2	0.00e+00	0	26	0	2076180480	56	4280
2026-01-06 03:27:36.64	335.72	63.60	-45.7	-46.7	15.2	0.00e+00	0	26	0	2081423360	56	4337
2026-01-06 03:27:37.64	334.81	63.81	-45.6	-46.6	15.2	0.00e+00	0	26	0	2086666240	56	4279
2026-01-06 03:27:38.65	333.87	64.03	-45.4	-46.4	15.2	0.00e+00	0	26	0	2092957696	56	4181
2026-01-06 03:27:39.64	332.93	64.23	-45.2	-46.2	15.3	0.00e+00	0	26	0	2098200576	56	4075
2026-01-06 03:27:40.63	331.98	64.43	-45.2	-46.2	15.3	0.00e+00	0	26	0	2103443456	56	4075
2026-01-06 03:27:41.63	331.00	64.62	-45.0	-46.0	15.3	0.00e+00	0	26	0	2109734912	56	3974
2026-01-06 03:27:42.63	330.00	64.81	-44.9	-45.9	15.3	0.00e+00	0	26	0	2114977792	56	3933
2026-01-06 03:27:43.63	328.99	64.99	-45.1	-46.1	15.3	0.00e+00	0	26	0	2120220672	56	4041
2026-01-06 03:27:44.63	327.96	65.17	-44.9	-45.9	15.3	0.00e+00	0	26	0	2126512128	56	3929
2026-01-06 03:27:45.63	326.91	65.33	-44.7	-45.8	15.4	0.00e+00	0	26	0	2131755008	56	3874
2026-01-06 03:27:46.62	325.86	65.49	-44.8	-45.8	15.4	0.00e+00	0	26	0	2136997888	56	3876
2026-01-06 03:27:47.62	324.78	65.64	-44.9	-45.9	15.4	0.00e+00	0	26	0	2143289344	56	3937
2026-01-06 03:27:48.62	323.69	65.79	-45.0	-46.0	15.3	0.00e+00	0	26	0	2148532224	56	3984
2026-01-06 03:27:49.62	322.59	65.93	-45.1	-46.1	15.3	0.00e+00	0	26	0	2153775104	56	4042
2026-01-06 03:27:50.63	321.46	66.06	-45.1	-46.1	15.3	0.00e+00	0	26	0	2160066560	56	4046
2026-01-06 03:27:51.63	320.33	66.18	-45.2	-46.2	15.3	0.00e+00	0	26	0	2165309440	56	4094
2026-01-06 03:27:52.62	319.19	66.29	-44.8	-45.9	15.4	0.00e+00	0	26	0	2171600896	56	3920
2026-01-06 03:27:53.63	318.03	66.40	-44.7	-45.8	15.4	0.00e+00	0	26	0	2176843776	56	3874
2026-01-06 03:27:54.63	316.86	66.49	-44.7	-45.7	15.4	0.00e+00	0	26	0	2182086656	56	3861
2026-01-06 03:27:55.62	315.70	66.58	-44.9	-45.9	15.3	0.00e+00	0	26	0	2188378112	56	3955
2026-01-06 03:27:56.62	314.51	66.65	-44.8	-45.8	15.4	0.00e+00	0	26	0	2193620992	56	3877
2026-01-06 03:27:57.62	313.32	66.72	-44.7	-45.7	15.4	0.00e+00	0	26	0	2198863872	56	3839
2026-01-06 03:27:58.63	312.10	66.78	-44.6	-45.6	15.3	0.00e+00	0	26	0	2205155328	55	4030
2026-01-06 03:27:59.63	310.90	66.83	-44.5	-45.5	15.3	0.00e+00	0	26	0	2210398208	55	3984
2026-01-06 03:28:00.63	309.68	66.87	-44.5	-45.5	15.3	0.00e+00	0	26	0	2216689664	55	3993
2026-01-06 03:28:01.63	308.47	66.90	-44.5	-45.6	15.3	0.00e+00	0	26	0	2221932544	55	4009
2026-01-06 03:28:02.63	307.25	66.92	-44.6	-45.6	15.3	0.00e+00	0	26	0	2227175424	55	4028
2026-01-06 03:28:03.63	306.03	66.93	-44.6	-45.6	15.3	0.00e+00	0	26	0	2233466880	55	4013
2026-01-06 03:28:04.62	304.82	66.94	-44.4	-45.4	15.4	0.00e+00	0	26	0	2238709760	55	3916
2026-01-06 03:28:05.62	303.60	66.93	-44.2	-45.2	15.3	0.00e+00	0	26	0	2243952640	54	4069
2026-01-06 03:28:06.61	302.39	66.91	-44.1	-45.1	15.3	0.00e+00	0	26	0	2250244096	54	4042
2026-01-06 03:28:07.61	301.17	66.88	-44.3	-45.3	15.3	0.00e+00	0	26	0	2255486976	54	4108
2026-01-06 03:28:08.62	299.94	66.85	-44.3	-45.4	15.3	0.00e+00	0	26	0	2260729856	54	4153
2026-01-06 03:28:09.62	298.73	66.80	-44.1	-45.0	15.3	0.00e+00	0	26	0	2267021312	54	4000
2026-01-06 03:28:10.62	297.53	66.74	-44.2	-45.2	15.3	0.00e+00	0	26	0	2272264192	54	4088
2026-01-06 03:28:11.63	296.32	66.68	-44.3	-45.3	15.3	0.00e+00	0	26	0	2278555648	54	4129
2026-01-06 03:28:12.63	295.13	66.61	-44.1	-45.1	15.3	0.00e+00	0	26	0	2283798528	54	4037
2026-01-06 03:28:13.62	293.96	66.52	-44.2	-45.2	15.3	0.00e+00	0	26	0	2289041408	54	4079
2026-01-06 03:28:14.62	292.79	66.43	-44.3	-45.3	15.3	0.00e+00	0	26	0	2295332864	54	4122
2026-01-06 03:28:15.62	291.63	66.33	-44.3	-45.3	15.3	0.00e+00	0	26	0	2300575744	54	4139
2026-01-06 03:28:16.61	290.50	66.22	-44.4	-45.4	15.3	0.00e+00	0	26	0	2305818624	54	4156
2026-01-06 03:28:17.62	289.35	66.10	-44.4	-45.4	15.2	0.00e+00	0	26	0	2312110080	54	4172
2026-01-06 03:28:18.62	288.22	65.98	-44.5	-45.5	15.2	0.00e+00	0	26	0	2317352960	54	4211
2026-01-06 03:28:19.62	287.11	65.84	-44.6	-45.6	15.2	0.00e+00	0	26	0	2322595840	54	4278
2026-01-06 03:28:20.62	286.02	65.70	-44.4	-45.4	15.3	0.00e+00	0	26	0	2328887296	54	4167
2026-01-06 03:28:21.62	284.93	65.55	-44.4	-45.4	15.2	0.00e+00	0	26	0	2334130176	54	4169
2026-01-06 03:28:22.62	283.87	65.39	-44.6	-45.6	15.2	0.00e+00	0	26	0	2339373056	54	4284
2026-01-06 03:28:23.62	282.81	65.23	-44.8	-45.8	15.2	0.00e+00	0	26	0	2345664512	54	4364
2026-01-06 03:28:24.61	281.79	65.06	-44.6	-45.7	15.2	0.00e+00	0	26	0	2350907392	54	4298
2026-01-06 03:28:25.61	280.77	64.88	-44.8	-45.8	15.2	0.00e+00	0	26	0	2356150272	54	4390
2026-01-06 03:28:26.61	279.76	64.69	-44.9	-45.9	15.2	0.00e+00	0	26	0	2362441728	54	4436
2026-01-06 03:28:27.59	278.80	64.51	-44.9	-45.9	15.2	0.00e+00	0	26	0	2367684608	55	4173
2026-01-06 03:28:28.59	277.83	64.31	-44.8	-45.8	15.3	0.00e+00	0	26	0	2373976064	55	4116
2026-01-06 03:28:29.59	276.87	64.10	-44.9	-45.9	15.2	0.00e+00	0	26	0	2379218944	55	4169
2026-01-06 03:28:30.58	275.94	63.90	-44.8	-45.8	15.3	0.00e+00	0	26	0	2384461824	55	4122
2026-01-06 03:28:31.58	275.02	63.68	-44.8	-45.8	15.3	0.00e+00	0	26	0	2390753280	55	4125
2026-01-06 03:28:32.58	274.12	63.46	-44.7	-45.7	15.3	0.00e+00	0	26	0	2395996160	55	4073
2026-01-06 03:28:33.57	273.24	63.24	-44.8	-45.8	15.2	0.00e+00	0	26	0	2401239040	55	4120
2026-01-06 03:28:34.57	272.37	63.01	-45.2	-46.2	15.2	0.00e+00	0	26	0	2406481920	55	4332
2026-01-06 03:28:35.57	271.52	62.77	-45.4	-46.5	15.2	0.00e+00	0	26	0	2412773376	55	4454
2026-01-06 03:28:36.57	270.68	62.53	-45.1	-46.2	15.2	0.00e+00	0	26	0	2418016256	55	4301
2026-01-06 03:28:37.58	269.86	62.29	-44.9	-45.9	15.2	0.00e+00	0	26	0	2424307712	55	4169
2026-01-06 03:28:38.58	269.05	62.04	-44.9	-46.0	15.2	0.00e+00	0	26	0	2429550592	55	4211
2026-01-06 03:28:39.57	268.28	61.79	-45.1	-46.1	15.2	0.00e+00	0	26	0	2434793472	55	4280
2026-01-06 03:28:40.58	267.50	61.53	-45.2	-46.2	15.2	0.00e+00	0	26	0	2441084928	55	4326
2026-01-06 03:28:41.58	266.74	61.28	-45.2	-46.2	15.2	0.00e+00	0	26	0	2446327808	55	4336
2026-01-06 03:28:42.58	266.00	61.01	-45.2	-46.2	15.2	0.00e+00	0	26	0	2452619264	55	4311
2026-01-06 03:28:43.59	265.27	60.75	-45.7	-46.8	15.2	0.00e+00	0	26	0	2457862144	56	4358
2026-01-06 03:28:44.58	264.57	60.48	-46.0	-47.1	15.1	0.00e+00	0	26	0	2463105024	57	4270
2026-01-06 03:28:45.58	263.88	60.21	-45.8	-46.9	15.2	0.00e+00	0	26	0	2469396480	57	4152
2026-01-06 03:28:46.58	263.20	59.94	-45.8	-46.9	15.2	0.00e+00	0	26	0	2474639360	57	4152
2026-01-06 03:28:47.59	262.53	59.66	-45.9	-46.9	15.2	0.00e+00	0	26	0	2479882240	57	4187
2026-01-06 03:28:48.58	261.88	59.38	-45.9	-47.0	15.2	0.00e+00	0	26	0	2486173696	57	4221
2026-01-06 03:28:49.58	261.25	59.11	-45.8	-46.9	15.2	0.00e+00	0	26	0	2491416576	57	4184
2026-01-06 03:28:50.57	260.63	58.83	-45.8	-46.8	15.2	0.00e+00	0	26	0	2497708032	57	4136
2026-01-06 03:28:51.56	260.03	58.55	-45.5	-46.6	15.3	0.00e+00	0	26	0	2502950912	57	4010
2026-01-06 03:28:52.56	259.43	58.26	-45.6	-46.7	15.2	0.00e+00	0	26	0	2508193792	57	4066
2026-01-06 03:28:53.56	258.85	57.97	-45.5	-46.6	15.3	0.00e+00	0	26	0	2513436672	57	4022
2026-01-06 03:28:54.57	258.27	57.68	-45.6	-46.6	15.3	0.00e+00	0	26	0	2519728128	57	4049
2026-01-06 03:28:55.57	257.71	57.40	-45.8	-46.9	15.2	0.00e+00	0	26	0	2524971008	57	4148
2026-01-06 03:28:56.57	257.16	57.11	-46.0	-47.1	15.2	0.00e+00	0	26	0	2531262464	57	4258
2026-01-06 03:28:57.57	256.62	56.81	-46.1	-47.2	15.1	0.00e+00	0	26	0	2536505344	57	4327
2026-01-06 03:28:58.57	256.10	56.52	-46.0	-47.0	15.1	0.00e+00	0	26	0	2541748224	57	4233
2026-01-06 03:28:59.57	255.58	56.23	-45.9	-47.0	15.2	0.00e+00	0	26	0	2548039680	57	4198
2026-01-06 03:29:00.57	255.08	55.94	-45.8	-46.9	15.2	0.00e+00	0	26	0	2553282560	57	4167
2026-01-06 03:29:01.57	254.59	55.64	-45.9	-46.9	15.2	0.00e+00	0	26	0	2558525440	57	4178
2026-01-06 03:29:02.56	254.11	55.35	-45.9	-46.9	15.2	0.00e+00	0	26	0	2564816896	57	4182
2026-01-06 03:29:03.56	253.64	55.06	-45.9	-47.0	15.2	0.00e+00	0	26	0	2570059776	57	4200
2026-01-06 03:29:04.57	253.17	54.76	-46.3	-47.4	15.1	0.00e+00	0	26	0	2575302656	57	4413
2026-01-06 03:29:05.57	252.72	54.46	-46.3	-47.4	15.1	0.00e+00	0	26	0	2581594112	57	4421
2026-01-06 03:29:06.57	252.27	54.17	-46.2	-47.3	15.1	0.00e+00	0	26	0	2586836992	57	4362
2026-01-06 03:29:07.56	251.84	53.87	-46.1	-47.2	15.1	0.00e+00	0	26	0	2593128448	57	4307
2026-01-06 03:29:08.56	251.42	53.58	-46.1	-47.2	15.1	0.00e+00	0	26	0	2598371328	57	4309
2026-01-06 03:29:09.56	251.00	53.28	-45.9	-46.9	15.2	0.00e+00	0	26	0	2603614208	57	4191
2026-01-06 03:29:10.56	250.59	52.99	-46.0	-47.1	15.1	0.00e+00	0	26	0	2609905664	57	4268
2026-01-06 03:29:11.56	250.19	52.69	-46.1	-47.2	15.1	0.00e+00	0	26	0	2615148544	57	4312
2026-01-06 03:29:12.54	249.81	52.41	-46.1	-47.2	15.1	0.00e+00	0	26	0	2620391424	57	4316
2026-01-06 03:29:13.54	249.42	52.11	-46.0	-47.1	15.1	0.00e+00	0	26	0	2626682880	57	4271
2026-01-06 03:29:14.54	249.04	51.82	-46.1	-47.2	15.1	0.00e+00	0	26	0	2631925760	57	4292
2026-01-06 03:29:15.54	248.67	51.53	-46.2	-47.3	15.1	0.00e+00	0	26	0	2637168640	57	4354
2026-01-06 03:29:16.54	248.31	51.23	-46.2	-47.3	15.1	0.00e+00	0	26	0	2643460096	57	4364
2026-01-06 03:29:17.54	247.95	50.94	-46.1	-47.2	15.1	0.00e+00	0	26	0	2648702976	57	4297
2026-01-06 03:29:18.54	247.61	50.65	-46.1	-47.2	15.1	0.00e+00	0	26	0	2654994432	57	4322
2026-01-06 03:29:19.54	247.26	50.36	-46.0	-47.1	15.1	0.00e+00	0	26	0	2660237312	57	4257
2026-01-06 03:29:20.54	246.93	50.07	-46.0	-47.2	15.2	0.00e+00	0	26	0	2665480192	57	4294
2026-01-06 03:29:21.54	246.60	49.78	-45.9	-47.0	15.1	0.00e+00	0	26	0	2671771648	57	4239
2026-01-06 03:29:22.53	246.28	49.50	-45.9	-46.9	15.2	0.00e+00	0	26	0	2677014528	57	4189
2026-01-06 03:29:23.54	245.96	49.21	-45.7	-46.8	15.2	0.00e+00	0	26	0	2682257408	57	4114
2026-01-06 03:29:24.53	245.65	48.92	-45.6	-46.6	15.2	0.00e+00	0	26	0	2688548864	57	4045
2026-01-06 03:29:25.53	245.35	48.64	-45.5	-46.5	15.3	0.00e+00	0	26	0	2693791744	57	3985
2026-01-06 03:29:26.54	245.04	48.35	-45.4	-46.4	15.3	0.00e+00	0	26	0	2699034624	57	3933
2026-01-06 03:29:27.55	244.75	48.06	-45.5	-46.5	15.3	0.00e+00	0	26	0	2705326080	57	3981
2026-01-06 03:29:28.54	244.46	47.78	-45.6	-46.7	15.3	0.00e+00	0	26	0	2710568960	57	4054
2026-01-06 03:29:29.54	244.18	47.50	-45.5	-46.6	15.3	0.00e+00	0	26	0	2716860416	57	4023
2026-01-06 03:29:30.54	243.90	47.22	-45.6	-46.6	15.3	0.00e+00	0	26	0	2722103296	57	4049
2026-01-06 03:29:31.53	243.63	46.95	-45.3	-46.4	15.3	0.00e+00	0	26	0	2727346176	57	3915
2026-01-06 03:29:32.53	243.36	46.67	-45.3	-46.4	15.3	0.00e+00	0	26	0	2733637632	57	3920
2026-01-06 03:29:33.53	243.10	46.39	-45.2	-46.2	15.4	0.00e+00	0	26	0	2738880512	57	3857
2026-01-06 03:29:34.52	242.84	46.12	-45.1	-46.1	15.3	0.00e+00	0	26	0	2744123392	56	4015
2026-01-06 03:29:35.52	242.59	45.84	-45.1	-46.1	15.3	0.00e+00	0	26	0	2749366272	56	4032
2026-01-06 03:29:36.52	242.34	45.57	-45.0	-46.1	15.3	0.00e+00	0	26	0	2755657728	56	4006
2026-01-06 03:29:37.52	242.09	45.30	-45.0	-46.0	15.3	0.00e+00	0	26	0	2760900608	56	3996
2026-01-06 03:29:38.52	241.85	45.03	-45.0	-46.0	15.3	0.00e+00	0	26	0	2767192064	56	3977
2026-01-06 03:29:39.52	241.61	44.76	-45.1	-46.1	15.3	0.00e+00	0	26	0	2772434944	56	4015
2026-01-06 03:29:40.51	241.38	44.49	-45.3	-46.3	15.2	0.00e+00	0	26	0	2777677824	56	4128
2026-01-06 03:29:41.51	241.15	44.22	-45.4	-46.5	15.2	0.00e+00	0	26	0	2783969280	56	4203
2026-01-06 03:29:42.50	240.93	43.96	-45.4	-46.5	15.2	0.00e+00	0	26	0	2789212160	56	4220
2026-01-06 03:29:43.51	240.70	43.69	-45.5	-46.5	15.2	0.00e+00	0	26	0	2794455040	56	4238
2026-01-06 03:29:44.51	240.49	43.43	-45.3	-46.4	15.2	0.00e+00	0	26	0	2800746496	56	4160
2026-01-06 03:29:45.51	240.27	43.17	-45.3	-46.4	15.2	0.00e+00	0	26	0	2805989376	56	4146
2026-01-06 03:29:46.50	240.06	42.91	-45.2	-46.2	15.2	0.00e+00	0	26	0	2811232256	56	4078
2026-01-06 03:29:47.50	239.85	42.65	-45.2	-46.3	15.2	0.00e+00	0	26	0	2817523712	56	4114
2026-01-06 03:29:48.50	239.65	42.40	-45.2	-46.2	15.2	0.00e+00	0	26	0	2822766592	56	4076
2026-01-06 03:29:49.50	239.45	42.14	-45.1	-46.1	15.3	0.00e+00	0	26	0	2829058048	56	4037
2026-01-06 03:29:50.49	239.25	41.89	-45.1	-46.1	15.3	0.00e+00	0	26	0	2834300928	56	4049
2026-01-06 03:29:51.50	239.06	41.63	-45.1	-46.1	15.3	0.00e+00	0	26	0	2839543808	56	4043
2026-01-06 03:29:52.50	238.87	41.38	-45.2	-46.2	15.3	0.00e+00	0	26	0	2845835264	56	4082
2026-01-06 03:29:53.50	238.68	41.13	-45.1	-46.2	15.3	0.00e+00	0	26	0	2851078144	56	4053
2026-01-06 03:29:54.49	238.49	40.88	-44.9	-45.9	15.3	0.00e+00	0	26	0	2856321024	56	3952
2026-01-06 03:29:55.49	238.31	40.63	-44.9	-46.0	15.3	0.00e+00	0	26	0	2862612480	56	3964
2026-01-06 03:29:56.49	238.13	40.39	-44.8	-45.9	15.4	0.00e+00	0	26	0	2867855360	56	3918
2026-01-06 03:29:57.49	237.95	40.14	-44.9	-45.9	15.3	0.00e+00	0	26	0	2873098240	56	3956
2026-01-06 03:29:58.50	237.78	39.89	-44.9	-45.9	15.3	0.00e+00	0	26	0	2879389696	56	3951
2026-01-06 03:29:59.50	237.60	39.65	-44.8	-45.8	15.4	0.00e+00	0	26	0	2884632576	56	3893
2026-01-06 03:30:00.50	237.44	39.41	-44.8	-45.8	15.4	0.00e+00	0	26	0	2890924032	56	3910
2026-01-06 03:30:01.50	237.27	39.17	-44.8	-45.8	15.4	0.00e+00	0	26	0	2896166912	56	3873
2026-01-06 03:30:02.50	237.10	38.93	-44.8	-45.9	15.3	0.00e+00	0	26	0	2901409792	56	3917
2026-01-06 03:30:03.50	236.94	38.70	-44.9	-45.9	15.3	0.00e+00	0	26	0	2907701248	56	3930
2026-01-06 03:30:04.50	236.78	38.46	-45.0	-46.1	15.3	0.00e+00	0	26	0	2912944128	56	4008
2026-01-06 03:30:05.49	236.63	38.23	-45.1	-46.2	15.3	0.00e+00	0	26	0	2918187008	56	4057
2026-01-06 03:30:06.49	236.47	37.99	-45.2	-46.2	15.3	0.00e+00	0	26	0	2924478464	56	4084
2026-01-06 03:30:07.49	236.32	37.76	-45.2	-46.3	15.2	0.00e+00	0	26	0	2929721344	56	4108
2026-01-06 03:30:08.49	236.17	37.53	-45.1	-46.2	15.3	0.00e+00	0	26	0	2934964224	56	4067
2026-01-06 03:30:09.48	236.02	37.31	-45.1	-46.1	15.3	0.00e+00	0	26	0	2941255680	56	4026
2026-01-06 03:30:10.48	235.88	37.08	-44.9	-45.9	15.3	0.00e+00	0	26	0	2946498560	56	3945
2026-01-06 03:30:11.48	235.73	36.85	-44.8	-45.9	15.4	0.00e+00	0	26	0	2952790016	56	3917
2026-01-06 03:30:12.47	235.59	36.63	-44.8	-45.9	15.4	0.00e+00	0	26	0	2958032896	56	3919
2026-01-06 03:30:13.47	235.45	36.41	-45.0	-46.0	15.3	0.00e+00	0	26	0	2963275776	56	3984
2026-01-06 03:30:14.47	235.31	36.18	-44.9	-45.9	15.3	0.00e+00	0	26	0	2968518656	56	3951
2026-01-06 03:30:15.47	235.18	35.96	-44.9	-45.9	15.3	0.00e+00	0	26	0	2974810112	56	3935
2026-01-06 03:30:16.47	235.04	35.74	-44.8	-45.9	15.3	0.00e+00	0	26	0	2980052992	56	3930
2026-01-06 03:30:17.47	234.91	35.52	-44.9	-45.9	15.3	0.00e+00	0	26	0	2985295872	56	3950
2026-01-06 03:30:18.47	234.78	35.31	-44.9	-45.9	15.3	0.00e+00	0	26	0	2991587328	56	3942
2026-01-06 03:30:19.47	234.65	35.09	-45.0	-46.1	15.3	0.00e+00	0	26	0	2996830208	56	4007
2026-01-06 03:30:20.47	234.52	34.88	-44.9	-46.0	15.3	0.00e+00	0	26	0	3003121664	56	3972
2026-01-06 03:30:21.46	234.40	34.67	-45.0	-46.0	15.3	0.00e+00	0	26	0	3008364544	56	3995
2026-01-06 03:30:22.45	234.28	34.46	-45.0	-46.0	15.3	0.00e+00	0	26	0	3013607424	56	3982
2026-01-06 03:30:23.45	234.15	34.25	-45.0	-46.0	15.3	0.00e+00	0	26	0	3019898880	56	3981
2026-01-06 03:30:24.46	234.03	34.04	-44.9	-46.0	15.3	0.00e+00	0	26	0	3025141760	56	3959
2026-01-06 03:30:25.46	233.91	33.83	-44.8	-45.8	15.4	0.00e+00	0	26	0	3030384640	56	3894
2026-01-06 03:30:26.44	233.80	33.62	-44.8	-45.8	15.4	0.00e+00	0	26	0	3036676096	56	3889
2026-01-06 03:30:27.43	233.68	33.42	-44.8	-45.8	15.4	0.00e+00	0	26	0	3041918976	56	3894
2026-01-06 03:30:28.44	233.57	33.21	-44.8	-45.8	15.4	0.00e+00	0	26	0	3047161856	56	3910
2026-01-06 03:30:29.44	233.45	33.01	-44.9	-46.0	15.3	0.00e+00	0	26	0	3053453312	56	3967
2026-01-06 03:30:30.43	233.34	32.81	-45.0	-46.1	15.3	0.00e+00	0	26	0	3058696192	56	4017
2026-01-06 03:30:31.42	233.23	32.61	-45.1	-46.2	15.3	0.00e+00	0	26	0	3064987648	56	4054
2026-01-06 03:30:32.43	233.12	32.41	-45.3	-46.4	15.2	0.00e+00	0	26	0	3070230528	56	4181
2026-01-06 03:30:33.43	233.01	32.21	-45.2	-46.3	15.2	0.00e+00	0	26	0	3075473408	56	4133
2026-01-06 03:30:34.43	232.91	32.02	-45.2	-46.3	15.2	0.00e+00	0	26	0	3081764864	56	4109
2026-01-06 03:30:35.43	232.80	31.82	-45.1	-46.2	15.2	0.00e+00	0	26	0	3087007744	56	4058
2026-01-06 03:30:36.43	232.70	31.63	-45.2	-46.2	15.2	0.00e+00	0	27	0	3092250624	56	4088
2026-01-06 03:30:37.43	232.60	31.43	-45.1	-46.2	15.2	0.00e+00	0	26	0	3098542080	56	4065
2026-01-06 03:30:38.43	232.50	31.24	-45.2	-46.2	15.2	0.00e+00	0	26	0	3103784960	56	4097
2026-01-06 03:30:39.44	232.40	31.05	-45.2	-46.2	15.2	0.00e+00	0	26	0	3109027840	56	4094
2026-01-06 03:30:40.44	232.30	30.86	-45.2	-46.2	15.2	0.00e+00	0	26	0	3115319296	56	4084
2026-01-06 03:30:41.43	232.20	30.67	-45.2	-46.2	15.2	0.00e+00	0	26	0	3120562176	56	4092
2026-01-06 03:30:42.43	232.10	30.48	-45.3	-46.3	15.2	0.00e+00	0	27	0	3126853632	56	4124
2026-01-06 03:30:43.43	232.01	30.30	-45.3	-46.3	15.2	0.00e+00	0	26	0	3132096512	56	4125
2026-01-06 03:30:44.43	231.91	30.11	-45.3	-46.3	15.2	0.00e+00	0	26	0	3137339392	56	4141
2026-01-06 03:30:45.43	231.82	29.93	-45.2	-46.3	15.2	0.00e+00	0	26	0	3143630848	56	4125
2026-01-06 03:30:46.43	231.73	29.74	-45.3	-46.4	15.2	0.00e+00	0	26	0	3148873728	56	4146
2026-01-06 03:30:47.44	231.64	29.56	-45.3	-46.3	15.2	0.00e+00	0	26	0	3154116608	56	4145
2026-01-06 03:30:48.44	231.55	29.38	-45.3	-46.3	15.2	0.00e+00	0	26	0	3160408064	56	4124
2026-01-06 03:30:49.44	231.46	29.20	-45.4	-46.5	15.2	0.00e+00	0	27	0	3165650944	56	4217
2026-01-06 03:30:50.44	231.37	29.02	-45.4	-46.4	15.2	0.00e+00	0	27	0	3170893824	56	4177
2026-01-06 03:30:51.44	231.29	28.84	-45.4	-46.4	15.2	0.00e+00	0	26	0	3177185280	56	4188
2026-01-06 03:30:52.45	231.20	28.66	-45.5	-46.6	15.2	0.00e+00	0	26	0	3182428160	56	4251
2026-01-06 03:30:53.44	231.12	28.49	-45.5	-46.6	15.1	0.00e+00	0	27	0	3188719616	56	4276
2026-01-06 03:30:54.44	231.03	28.31	-45.5	-46.6	15.1	0.00e+00	0	27	0	3193962496	56	4289
2026-01-06 03:30:55.44	230.95	28.14	-45.5	-46.6	15.2	0.00e+00	0	26	0	3199205376	56	4256
2026-01-06 03:30:56.44	230.87	27.96	-45.5	-46.6	15.1	0.00e+00	0	26	0	3205496832	56	4286
2026-01-06 03:30:57.44	230.79	27.79	-45.5	-46.6	15.1	0.00e+00	0	27	0	3210739712	56	4261
2026-01-06 03:30:58.44	230.71	27.62	-45.5	-46.6	15.1	0.00e+00	0	26	0	3215982592	56	4267
2026-01-06 03:30:59.44	230.63	27.45	-45.6	-46.6	15.1	0.00e+00	0	26	0	3222274048	56	4288
2026-01-06 03:31:00.44	230.55	27.28	-45.6	-46.6	15.1	0.00e+00	0	26	0	3227516928	56	4285
2026-01-06 03:31:01.44	230.47	27.12	-45.5	-46.6	15.1	0.00e+00	0	26	0	3233808384	56	4260
2026-01-06 03:31:02.44	230.39	26.95	-45.5	-46.6	15.1	0.00e+00	0	26	0	3239051264	56	4275
2026-01-06 03:31:03.44	230.32	26.78	-45.5	-46.6	15.1	0.00e+00	0	27	0	3244294144	56	4245
2026-01-06 03:31:04.44	230.24	26.62	-45.5	-46.5	15.1	0.00e+00	0	26	0	3250585600	56	4221
2026-01-06 03:31:05.45	230.17	26.45	-45.5	-46.5	15.1	0.00e+00	0	27	0	3255828480	56	4216
2026-01-06 03:31:06.44	230.10	26.29	-45.5	-46.5	15.1	0.00e+00	0	26	0	3261071360	56	4235
2026-01-06 03:31:07.44	230.02	26.13	-45.6	-46.7	15.1	0.00e+00	0	27	0	3267362816	56	4304
2026-01-06 03:31:08.44	229.95	25.97	-45.5	-46.6	15.1	0.00e+00	0	26	0	3272605696	56	4244
2026-01-06 03:31:09.45	229.88	25.81	-45.6	-46.7	15.1	0.00e+00	0	27	0	3277848576	56	4293
2026-01-06 03:31:10.44	229.81	25.65	-45.5	-46.6	15.1	0.00e+00	0	26	0	3284140032	56	4265
2026-01-06 03:31:11.43	229.74	25.49	-45.6	-46.7	15.1	0.00e+00	0	27	0	3289382912	56	4316
2026-01-06 03:31:12.43	229.67	25.33	-45.6	-46.7	15.1	0.00e+00	0	26	0	3295674368	56	4313
2026-01-06 03:31:13.43	229.60	25.18	-45.6	-46.7	15.1	0.00e+00	0	27	0	3300917248	56	4311
2026-01-06 03:31:14.44	229.54	25.02	-45.7	-46.8	15.1	0.00e+00	0	27	0	3306160128	56	4349
2026-01-06 03:31:15.43	229.47	24.86	-45.7	-46.7	15.1	0.00e+00	0	27	0	3312451584	56	4339
2026-01-06 03:31:16.44	229.40	24.71	-45.7	-46.8	15.1	0.00e+00	0	26	0	3317694464	56	4384
2026-01-06 03:31:17.44	229.34	24.56	-45.7	-46.8	15.1	0.00e+00	0	26	0	3322937344	56	4352
2026-01-06 03:31:18.44	229.27	24.40	-45.8	-46.9	15.1	0.00e+00	0	26	0	3329228800	56	4397
2026-01-06 03:31:19.43	229.21	24.25	-45.7	-46.8	15.1	0.00e+00	0	27	0	3334471680	56	4377
2026-01-06 03:31:20.43	229.15	24.10	-45.7	-46.8	15.1	0.00e+00	0	26	0	3339714560	56	4358
2026-01-06 03:31:21.43	229.08	23.95	-45.8	-46.9	15.1	0.00e+00	0	27	0	3346006016	56	4394
2026-01-06 03:31:22.42	229.02	23.80	-45.7	-46.8	15.1	0.00e+00	0	26	0	3351248896	56	4353
2026-01-06 03:31:23.42	228.96	23.66	-45.7	-46.8	15.1	0.00e+00	0	27	0	3356491776	56	4344
2026-01-06 03:31:24.42	228.90	23.51	-45.8	-46.9	15.1	0.00e+00	0	27	0	3362783232	56	4398
2026-01-06 03:31:25.42	228.84	23.36	-45.8	-46.8	15.1	0.00e+00	0	27	0	3368026112	56	4384
2026-01-06 03:31:26.42	228.78	23.22	-45.8	-46.9	15.1	0.00e+00	0	26	0	3373268992	56	4392
2026-01-06 03:31:27.42	228.72	23.07	-45.9	-46.9	15.0	0.00e+00	0	26	0	3379560448	56	4440
2026-01-06 03:31:28.42	228.66	22.93	-45.8	-46.9	15.1	0.00e+00	0	27	0	3384803328	56	4410
2026-01-06 03:31:29.42	228.60	22.78	-45.9	-47.0	15.0	0.00e+00	0	27	0	3390046208	56	4461
2026-01-06 03:31:30.41	228.55	22.64	-46.0	-47.0	15.1	0.00e+00	0	26	0	3396337664	57	4240
2026-01-06 03:31:31.41	228.49	22.50	-45.9	-47.0	15.1	0.00e+00	0	26	0	3401580544	57	4234
2026-01-06 03:31:32.40	228.43	22.36	-46.0	-47.1	15.1	0.00e+00	0	26	0	3407872000	57	4251
2026-01-06 03:31:33.39	228.38	22.22	-46.1	-47.2	15.1	0.00e+00	0	27	0	3413114880	57	4310
2026-01-06 03:31:34.39	228.32	22.08	-46.2	-47.3	15.1	0.00e+00	0	27	0	3418357760	57	4357
2026-01-06 03:31:35.38	228.27	21.94	-46.2	-47.3	15.1	0.00e+00	0	27	0	3424649216	57	4365
2026-01-06 03:31:36.38	228.21	21.80	-46.2	-47.3	15.1	0.00e+00	0	27	0	3429892096	57	4367
2026-01-06 03:31:37.38	228.16	21.67	-46.2	-47.3	15.1	0.00e+00	0	26	0	3435134976	57	4376
2026-01-06 03:31:38.38	228.11	21.53	-46.2	-47.3	15.1	0.00e+00	0	26	0	3441426432	57	4378
2026-01-06 03:31:39.38	228.05	21.39	-46.3	-47.5	15.0	0.00e+00	0	26	0	3446669312	57	4453
2026-01-06 03:31:40.38	228.00	21.26	-46.2	-47.3	15.0	0.00e+00	0	26	0	3451912192	57	4375
2026-01-06 03:31:41.38	227.95	21.12	-46.1	-47.3	15.0	0.00e+00	0	26	0	3458203648	57	4353
2026-01-06 03:31:42.38	227.90	20.99	-46.2	-47.3	15.0	0.00e+00	0	26	0	3463446528	57	4378
2026-01-06 03:31:43.38	227.85	20.85	-46.2	-47.3	15.0	0.00e+00	0	27	0	3469737984	57	4385
2026-01-06 03:31:44.38	227.80	20.72	-46.2	-47.3	15.0	0.00e+00	0	26	0	3474980864	57	4370
2026-01-06 03:31:45.38	227.75	20.59	-46.1	-47.2	15.0	0.00e+00	0	27	0	3480223744	57	4338
2026-01-06 03:31:46.38	227.70	20.46	-46.1	-47.2	15.1	0.00e+00	0	27	0	3486515200	57	4305
2026-01-06 03:31:47.38	227.65	20.33	-46.1	-47.2	15.0	0.00e+00	0	27	0	3491758080	57	4329
2026-01-06 03:31:48.39	227.60	20.20	-46.1	-47.2	15.0	0.00e+00	0	27	0	3497000960	57	4311
2026-01-06 03:31:49.39	227.55	20.07	-46.2	-47.3	15.0	0.00e+00	0	27	0	3503292416	57	4358
2026-01-06 03:31:50.39	227.50	19.94	-46.0	-47.1	15.1	0.00e+00	0	26	0	3508535296	57	4269
2026-01-06 03:31:51.39	227.46	19.81	-46.1	-47.2	15.0	0.00e+00	0	26	0	3513778176	57	4297
2026-01-06 03:31:52.39	227.41	19.68	-46.0	-47.1	15.1	0.00e+00	0	26	0	3520069632	57	4276
2026-01-06 03:31:53.39	227.36	19.55	-46.2	-47.2	15.0	0.00e+00	0	27	0	3525312512	57	4338
2026-01-06 03:31:54.39	227.32	19.43	-46.1	-47.2	15.0	0.00e+00	0	26	0	3531603968	57	4321
2026-01-06 03:31:55.39	227.27	19.30	-46.2	-47.2	15.0	0.00e+00	0	26	0	3536846848	57	4340
2026-01-06 03:31:56.39	227.23	19.18	-46.3	-47.4	15.0	0.00e+00	0	27	0	3542089728	57	4395
2026-01-06 03:31:57.40	227.18	19.05	-46.3	-47.4	15.0	0.00e+00	0	26	0	3548381184	57	4430
2026-01-06 03:31:58.39	227.14	18.93	-46.4	-47.5	15.0	0.00e+00	0	26	0	3553624064	57	4464
2026-01-06 03:31:59.39	227.09	18.81	-46.4	-47.5	15.0	0.00e+00	0	27	0	3558866944	58	4238
2026-01-06 03:32:00.38	227.05	18.68	-46.6	-47.7	15.0	0.00e+00	0	26	0	3565158400	58	4306
2026-01-06 03:32:01.37	227.01	18.56	-46.6	-47.7	15.0	0.00e+00	0	27	0	3570401280	58	4338
2026-01-06 03:32:02.37	226.96	18.44	-46.8	-48.0	14.9	0.00e+00	0	27	0	3575644160	58	4451
2026-01-06 03:32:03.37	226.92	18.32	-46.8	-48.0	14.9	0.00e+00	0	27	0	3581935616	58	4459
2026-01-06 03:32:04.37	226.88	18.20	-46.8	-48.0	14.9	0.00e+00	0	26	0	3587178496	58	4444
2026-01-06 03:32:05.38	226.84	18.08	-46.8	-47.9	14.9	0.00e+00	0	26	0	3593469952	58	4434
2026-01-06 03:32:06.38	226.79	17.96	-46.9	-48.1	14.9	0.00e+00	0	26	0	3598712832	58	4511
2026-01-06 03:32:07.38	226.75	17.84	-47.0	-48.2	15.0	0.00e+00	0	26	0	3603955712	59	4301
2026-01-06 03:32:08.37	226.71	17.72	-47.0	-48.2	15.0	0.00e+00	0	27	0	3609198592	59	4296
2026-01-06 03:32:09.36	226.67	17.61	-47.0	-48.2	15.0	0.00e+00	0	26	0	3615490048	59	4303
2026-01-06 03:32:10.36	226.63	17.49	-47.0	-48.2	15.0	0.00e+00	0	27	0	3620732928	59	4326
2026-01-06 03:32:11.36	226.59	17.37	-47.1	-48.3	14.9	0.00e+00	0	26	0	3625975808	59	4356
2026-01-06 03:32:12.36	226.55	17.26	-47.1	-48.3	14.9	0.00e+00	0	26	0	3632267264	59	4376
2026-01-06 03:32:13.36	226.51	17.14	-47.2	-48.3	14.9	0.00e+00	0	27	0	3637510144	59	4378
2026-01-06 03:32:14.36	226.47	17.03	-47.2	-48.4	14.9	0.00e+00	0	26	0	3643801600	59	4417
2026-01-06 03:32:15.36	226.44	16.91	-47.2	-48.4	14.9	0.00e+00	0	26	0	3649044480	59	4409
2026-01-06 03:32:16.36	226.40	16.80	-47.2	-48.4	14.9	0.00e+00	0	26	0	3654287360	59	4405
2026-01-06 03:32:17.36	226.36	16.69	-47.2	-48.4	14.9	0.00e+00	0	26	0	3660578816	59	4427
2026-01-06 03:32:18.36	226.32	16.57	-47.2	-48.3	14.9	0.00e+00	0	26	0	3665821696	59	4391
2026-01-06 03:32:19.35	226.29	16.46	-47.3	-48.4	14.9	0.00e+00	0	26	0	3671064576	59	4429
2026-01-06 03:32:20.34	226.25	16.35	-47.3	-48.4	14.9	0.00e+00	0	27	0	3677356032	59	4436
