passes_logs/2026/01/06/R3.2S_Murmansk/R3.2S_Murmansk__20260106_142847_AQUA_rec.log

#Pass ID: 20260106_142847_AQUA
#Satellite: AQUA
#Configuration: AQUA
#almurnet v.1.7.20251203
#Start time: 2026-01-06 14:28:47

#Version: 2.2.20231116
#Station: R3.2S_Murmansk
#Location: 33.079688 lon 68.888172 lat
#TLE: 1 27424U 02022A   26004.96787593  .00001598  00000+0  32997-3 0  9996
#TLE: 2 27424  98.4069 331.2279 0002002  90.2377   0.6092 14.61798176259425

#Time	Az	El	Level	Level2	SNR	BER	BlckErr	Temp	State	Recorded	gain1	gain2
2026-01-06 14:28:47.33	240.67	2.00	-57.6	-77.2	3.8	7.44e-01	0	23	0	0	84	33498
2026-01-06 14:28:48.33	240.78	2.05	-57.4	-77.0	3.8	7.43e-01	0	23	104	0	82	36615
2026-01-06 14:28:49.33	240.89	2.10	-57.5	-77.0	3.8	7.47e-01	0	23	104	0	82	36705
2026-01-06 14:28:50.33	241.00	2.14	-57.4	-77.0	3.8	7.46e-01	0	23	104	0	82	36841
2026-01-06 14:28:51.33	241.11	2.19	-57.4	-77.0	3.8	7.47e-01	0	23	104	0	82	36821
2026-01-06 14:28:52.33	241.23	2.23	-57.3	-77.0	3.8	7.47e-01	0	24	104	0	82	36752
2026-01-06 14:28:53.34	241.34	2.28	-57.0	-77.0	3.8	7.44e-01	0	23	104	0	82	36685
2026-01-06 14:28:54.33	241.45	2.33	-57.0	-77.0	3.8	7.45e-01	0	24	104	0	82	36612
2026-01-06 14:28:55.33	241.57	2.37	-57.2	-77.0	3.8	7.44e-01	0	23	104	0	82	36675
2026-01-06 14:28:56.33	241.68	2.42	-56.9	-77.0	3.8	7.46e-01	0	24	104	0	82	36862
2026-01-06 14:28:57.33	241.79	2.46	-56.9	-77.0	3.8	7.47e-01	0	24	104	0	82	36891
2026-01-06 14:28:58.33	241.91	2.51	-57.6	-77.0	3.8	7.46e-01	0	23	104	0	83	34722
2026-01-06 14:28:59.33	242.02	2.56	-57.6	-77.0	3.8	7.46e-01	0	24	104	0	83	34745
2026-01-06 14:29:00.33	242.14	2.60	-57.7	-77.0	3.8	7.47e-01	0	24	104	0	83	34703
2026-01-06 14:29:01.33	242.25	2.65	-57.7	-76.9	3.8	7.46e-01	0	24	104	0	83	34442
2026-01-06 14:29:02.33	242.37	2.69	-57.7	-76.8	3.8	7.45e-01	0	24	104	0	83	33910
2026-01-06 14:29:03.33	242.49	2.74	-57.7	-76.7	3.8	7.46e-01	0	24	104	0	83	33659
2026-01-06 14:29:04.33	242.60	2.79	-57.7	-76.7	3.8	7.47e-01	0	24	104	0	83	33534
2026-01-06 14:29:05.33	242.72	2.83	-57.7	-76.8	3.8	7.48e-01	0	24	104	0	83	33770
2026-01-06 14:29:06.33	242.84	2.88	-57.7	-76.9	3.8	7.47e-01	0	24	104	0	83	34093
2026-01-06 14:29:07.33	242.96	2.92	-57.7	-76.9	3.8	7.44e-01	0	24	104	0	83	34429
2026-01-06 14:29:08.33	243.07	2.97	-57.7	-77.0	3.8	7.48e-01	0	24	104	0	83	34660
2026-01-06 14:29:09.33	243.19	3.02	-57.7	-77.0	3.9	7.46e-01	0	24	104	0	83	34727
2026-01-06 14:29:10.34	243.31	3.06	-57.7	-77.0	3.8	7.48e-01	0	24	104	0	83	34837
2026-01-06 14:29:11.33	243.43	3.11	-57.7	-77.0	3.8	7.45e-01	0	24	104	0	83	34693
2026-01-06 14:29:12.33	243.55	3.15	-57.7	-77.0	3.8	7.48e-01	0	24	104	0	83	34666
2026-01-06 14:29:13.33	243.67	3.20	-57.7	-77.0	3.8	7.48e-01	0	24	104	0	83	34776
2026-01-06 14:29:14.33	243.79	3.25	-57.7	-76.9	3.8	7.46e-01	0	24	104	0	83	34422
2026-01-06 14:29:15.33	243.91	3.29	-57.7	-76.6	3.8	7.44e-01	0	24	104	0	83	33300
2026-01-06 14:29:16.32	244.04	3.34	-57.7	-76.8	3.8	7.44e-01	0	24	104	0	83	33706
2026-01-06 14:29:17.32	244.16	3.38	-57.6	-76.4	3.8	7.47e-01	0	24	104	0	83	32293
2026-01-06 14:29:18.32	244.28	3.43	-57.6	-76.3	3.8	7.46e-01	0	24	104	0	83	32164
2026-01-06 14:29:19.31	244.40	3.47	-57.7	-76.5	3.8	7.49e-01	0	24	104	0	83	32591
2026-01-06 14:29:20.31	244.52	3.52	-57.7	-76.5	3.8	7.48e-01	0	24	104	0	83	32897
2026-01-06 14:29:21.31	244.65	3.57	-57.7	-76.7	3.8	7.48e-01	0	24	104	0	83	33543
2026-01-06 14:29:22.31	244.77	3.61	-57.7	-76.8	3.8	7.42e-01	0	24	104	0	83	33755
2026-01-06 14:29:23.31	244.90	3.66	-57.7	-76.9	3.8	7.48e-01	0	24	104	0	83	34328
2026-01-06 14:29:24.30	245.02	3.70	-57.7	-77.0	3.8	7.46e-01	0	24	104	0	83	34821
2026-01-06 14:29:25.30	245.14	3.75	-57.7	-76.8	3.8	7.44e-01	0	24	104	0	83	33963
2026-01-06 14:29:26.29	245.27	3.79	-57.7	-76.8	3.8	7.45e-01	0	24	104	0	83	33843
2026-01-06 14:29:27.28	245.39	3.84	-57.6	-76.5	3.8	7.46e-01	0	24	104	0	83	32620
2026-01-06 14:29:28.28	245.52	3.89	-57.6	-75.9	3.9	7.44e-01	0	24	104	0	83	30519
2026-01-06 14:29:29.28	245.65	3.93	-57.6	-75.8	3.8	7.47e-01	0	24	104	0	83	30314
2026-01-06 14:29:30.28	245.77	3.98	-57.6	-76.3	3.8	7.48e-01	0	24	104	0	83	31842
2026-01-06 14:29:31.28	245.90	4.02	-57.7	-76.7	3.8	7.47e-01	0	24	104	0	83	33683
2026-01-06 14:29:32.28	246.03	4.07	-57.7	-76.9	3.8	7.46e-01	0	25	104	0	83	34376
2026-01-06 14:29:33.28	246.16	4.11	-57.7	-76.9	3.8	7.48e-01	0	25	104	0	83	34230
2026-01-06 14:29:34.29	246.29	4.16	-57.7	-76.8	3.8	7.44e-01	0	25	104	0	83	33779
2026-01-06 14:29:35.29	246.42	4.21	-57.7	-76.7	3.8	7.46e-01	0	24	104	0	83	33539
2026-01-06 14:29:36.29	246.55	4.25	-57.6	-76.7	3.8	7.49e-01	0	25	104	0	83	33606
2026-01-06 14:29:37.30	246.68	4.30	-57.6	-75.9	3.8	7.46e-01	0	25	104	0	83	30700
2026-01-06 14:29:38.29	246.81	4.34	-57.6	-75.1	3.9	7.46e-01	0	24	104	0	83	27927
2026-01-06 14:29:39.29	246.94	4.39	-57.6	-76.4	3.9	7.45e-01	0	24	104	0	83	32424
2026-01-06 14:29:40.29	247.07	4.43	-57.6	-74.3	4.0	7.37e-01	0	25	104	0	83	25492
2026-01-06 14:29:41.28	247.20	4.48	-57.6	-73.9	3.9	7.41e-01	0	25	104	0	83	24371
2026-01-06 14:29:42.28	247.33	4.52	-57.6	-75.9	3.8	7.47e-01	0	25	104	0	83	30404
2026-01-06 14:29:43.28	247.47	4.57	-57.6	-75.2	3.9	7.44e-01	0	25	104	0	83	28297
2026-01-06 14:29:44.28	247.60	4.61	-57.7	-76.6	3.8	7.45e-01	0	25	104	0	83	33155
2026-01-06 14:29:45.28	247.73	4.66	-57.6	-74.9	3.9	7.46e-01	0	25	104	0	83	27113
2026-01-06 14:29:46.28	247.87	4.70	-57.4	-69.4	6.1	6.79e-01	92	25	0	0	83	14425
2026-01-06 14:29:47.27	248.00	4.75	-57.3	-68.1	7.1	6.55e-01	90	25	0	2097152	83	12466
2026-01-06 14:29:48.27	248.14	4.79	-57.0	-65.7	9.2	6.26e-01	0	24	0	3670016	83	9409
2026-01-06 14:29:49.27	248.27	4.84	-56.9	-65.2	9.8	6.22e-01	0	25	0	5767168	83	8879
2026-01-06 14:29:50.27	248.41	4.88	-56.8	-64.5	10.2	6.20e-01	0	25	0	7864320	82	8732
2026-01-06 14:29:51.28	248.54	4.93	-56.0	-61.8	12.2	6.09e-01	0	25	0	9437184	81	6761
2026-01-06 14:29:52.27	248.68	4.97	-54.7	-58.7	13.9	6.06e-01	0	25	0	11534336	78	5600
2026-01-06 14:29:53.27	248.82	5.02	-53.8	-57.1	14.5	6.06e-01	0	25	0	13107200	76	5233
2026-01-06 14:29:54.27	248.95	5.06	-55.7	-60.6	12.9	6.06e-01	0	25	0	15204352	79	6584
2026-01-06 14:29:55.26	249.09	5.11	-56.6	-64.2	9.8	6.20e-01	0	25	0	16777216	82	8452
2026-01-06 14:29:56.27	249.23	5.15	-54.6	-58.3	14.1	6.06e-01	0	25	0	18874368	77	5698
2026-01-06 14:29:57.26	249.37	5.20	-55.7	-60.6	12.9	6.08e-01	0	25	0	20971520	80	6233
2026-01-06 14:29:58.26	249.51	5.24	-52.0	-54.3	15.2	6.06e-01	0	25	0	22544384	73	4531
2026-01-06 14:29:59.27	249.65	5.29	-51.9	-54.3	15.1	6.06e-01	0	25	0	24641536	72	4767
2026-01-06 14:30:00.26	249.79	5.33	-51.5	-53.7	15.3	6.06e-01	0	25	0	26214400	72	4474
2026-01-06 14:30:01.26	249.93	5.38	-52.1	-54.5	15.1	6.05e-01	0	25	0	28311552	72	4875
2026-01-06 14:30:02.25	250.07	5.42	-51.4	-53.5	15.4	6.06e-01	0	25	0	29884416	72	4390
2026-01-06 14:30:03.26	250.21	5.47	-52.0	-54.4	15.0	6.06e-01	0	25	0	31981568	71	5109
2026-01-06 14:30:04.25	250.35	5.51	-51.7	-53.9	15.3	6.06e-01	0	25	0	34078720	72	4583
2026-01-06 14:30:05.26	250.50	5.55	-51.7	-54.0	15.2	6.06e-01	0	25	0	35651584	72	4621
2026-01-06 14:30:06.26	250.64	5.60	-51.7	-54.0	15.3	6.04e-01	0	25	0	37748736	72	4605
2026-01-06 14:30:07.26	250.78	5.64	-51.7	-53.9	15.3	6.07e-01	0	25	0	39321600	72	4559
2026-01-06 14:30:08.26	250.93	5.69	-51.6	-53.8	15.3	6.05e-01	0	25	0	41418752	72	4510
2026-01-06 14:30:09.26	251.07	5.73	-51.6	-53.8	15.3	6.05e-01	0	25	0	42991616	72	4526
2026-01-06 14:30:10.26	251.22	5.77	-51.5	-53.6	15.4	6.07e-01	0	25	0	45088768	72	4426
2026-01-06 14:30:11.26	251.36	5.82	-51.7	-53.9	15.3	6.07e-01	0	25	0	47185920	72	4570
2026-01-06 14:30:12.26	251.51	5.86	-51.8	-54.0	15.2	6.07e-01	0	25	0	48758784	72	4643
2026-01-06 14:30:13.26	251.65	5.91	-51.7	-53.9	15.3	6.08e-01	0	25	0	50855936	72	4592
2026-01-06 14:30:14.25	251.80	5.95	-51.6	-53.8	15.3	6.07e-01	0	25	0	52428800	72	4536
2026-01-06 14:30:15.26	251.95	5.99	-51.6	-53.8	15.3	6.05e-01	0	25	0	54525952	72	4515
2026-01-06 14:30:16.26	252.09	6.04	-51.4	-53.5	15.4	6.07e-01	0	25	0	56098816	72	4389
2026-01-06 14:30:17.25	252.24	6.08	-51.5	-53.7	15.4	6.06e-01	0	25	0	58195968	72	4474
2026-01-06 14:30:18.25	252.39	6.12	-51.6	-53.8	15.3	6.06e-01	0	25	0	60293120	72	4522
2026-01-06 14:30:19.25	252.54	6.17	-51.4	-53.5	15.4	6.07e-01	0	25	0	61865984	72	4386
2026-01-06 14:30:20.23	252.68	6.21	-51.5	-53.7	15.4	6.08e-01	0	25	0	63963136	72	4453
2026-01-06 14:30:21.22	252.83	6.25	-51.7	-53.9	15.3	6.05e-01	0	25	0	65536000	72	4562
2026-01-06 14:30:22.21	252.98	6.30	-51.6	-53.8	15.3	6.05e-01	0	25	0	67633152	72	4507
2026-01-06 14:30:23.21	253.13	6.34	-51.5	-53.7	15.4	6.09e-01	0	25	0	69206016	72	4465
2026-01-06 14:30:24.21	253.28	6.38	-51.5	-53.6	15.4	6.06e-01	0	25	0	71303168	72	4428
2026-01-06 14:30:25.21	253.44	6.43	-51.4	-53.5	15.3	6.05e-01	0	25	0	72876032	71	4623
2026-01-06 14:30:26.21	253.59	6.47	-51.4	-53.6	15.3	6.08e-01	0	25	0	74973184	71	4665
2026-01-06 14:30:27.21	253.74	6.51	-51.5	-53.6	15.2	6.07e-01	0	25	0	77070336	71	4681
2026-01-06 14:30:28.22	253.90	6.55	-51.6	-53.8	15.2	6.07e-01	0	25	0	78643200	71	4770
2026-01-06 14:30:29.23	254.05	6.60	-51.3	-53.4	15.3	6.07e-01	0	25	0	80740352	71	4586
2026-01-06 14:30:30.21	254.20	6.64	-51.3	-53.5	15.3	6.04e-01	0	25	0	82313216	71	4621
2026-01-06 14:30:31.21	254.36	6.68	-51.3	-53.4	15.3	6.06e-01	0	25	0	84410368	71	4586
2026-01-06 14:30:32.20	254.51	6.72	-51.3	-53.5	15.3	6.06e-01	0	25	0	86507520	71	4605
2026-01-06 14:30:33.19	254.66	6.77	-51.2	-53.3	15.4	6.06e-01	0	25	0	88080384	71	4531
2026-01-06 14:30:34.20	254.82	6.81	-51.1	-53.2	15.4	6.04e-01	0	25	0	90177536	71	4472
2026-01-06 14:30:35.19	254.98	6.85	-51.1	-53.2	15.4	6.07e-01	0	25	0	91750400	71	4482
2026-01-06 14:30:36.19	255.13	6.89	-51.3	-53.4	15.3	6.05e-01	0	25	0	93847552	71	4558
2026-01-06 14:30:37.19	255.29	6.93	-51.3	-53.4	15.3	6.05e-01	0	25	0	95420416	71	4592
2026-01-06 14:30:38.19	255.45	6.98	-51.2	-53.3	15.4	6.05e-01	0	25	0	97517568	71	4515
2026-01-06 14:30:39.19	255.61	7.02	-51.4	-53.5	15.3	6.07e-01	0	25	0	99614720	71	4621
2026-01-06 14:30:40.19	255.77	7.06	-51.2	-53.3	15.4	6.06e-01	0	25	0	101187584	71	4518
2026-01-06 14:30:41.19	255.93	7.10	-51.2	-53.3	15.4	6.05e-01	0	25	0	103284736	71	4529
2026-01-06 14:30:42.19	256.09	7.14	-51.3	-53.4	15.3	6.05e-01	0	25	0	104857600	71	4549
2026-01-06 14:30:43.19	256.25	7.18	-51.1	-53.2	15.4	6.06e-01	0	25	0	106954752	71	4471
2026-01-06 14:30:44.19	256.41	7.23	-51.1	-53.2	15.4	6.09e-01	0	25	0	108527616	71	4453
2026-01-06 14:30:45.18	256.57	7.27	-51.2	-53.3	15.4	6.07e-01	0	25	0	110624768	71	4539
2026-01-06 14:30:46.18	256.73	7.31	-51.1	-53.2	15.4	6.07e-01	0	25	0	112197632	71	4459
2026-01-06 14:30:47.18	256.89	7.35	-51.3	-53.3	15.3	6.08e-01	0	25	0	114294784	71	4530
2026-01-06 14:30:48.18	257.05	7.39	-51.1	-53.1	15.4	6.04e-01	0	25	0	116391936	71	4399
2026-01-06 14:30:49.18	257.22	7.43	-51.2	-53.2	15.4	6.05e-01	0	25	0	117964800	71	4474
2026-01-06 14:30:50.18	257.38	7.47	-51.2	-53.3	15.4	6.06e-01	0	25	0	120061952	71	4520
2026-01-06 14:30:51.17	257.54	7.51	-51.1	-53.1	15.4	6.08e-01	0	25	0	121634816	71	4430
2026-01-06 14:30:52.17	257.71	7.55	-51.1	-53.2	15.4	6.07e-01	0	25	0	123731968	71	4451
2026-01-06 14:30:53.17	257.87	7.59	-50.9	-52.9	15.5	6.08e-01	0	25	0	125304832	71	4322
2026-01-06 14:30:54.16	258.04	7.63	-51.0	-53.0	15.5	6.07e-01	0	25	0	127401984	71	4368
2026-01-06 14:30:55.16	258.20	7.67	-51.0	-53.0	15.5	6.05e-01	0	25	0	129499136	71	4359
2026-01-06 14:30:56.16	258.37	7.71	-51.0	-53.0	15.5	6.06e-01	0	25	0	131072000	71	4365
2026-01-06 14:30:57.15	258.53	7.75	-51.0	-53.0	15.5	6.05e-01	0	25	0	133169152	71	4381
2026-01-06 14:30:58.15	258.70	7.79	-51.1	-53.1	15.4	6.07e-01	0	25	0	134742016	71	4404
2026-01-06 14:30:59.15	258.87	7.83	-50.9	-52.9	15.5	6.08e-01	0	25	0	136839168	71	4302
2026-01-06 14:31:00.15	259.04	7.87	-50.8	-52.8	15.4	6.08e-01	0	25	0	138412032	70	4517
2026-01-06 14:31:01.15	259.21	7.91	-51.0	-53.0	15.3	6.06e-01	0	25	0	140509184	70	4643
2026-01-06 14:31:02.14	259.37	7.95	-51.1	-53.1	15.3	6.06e-01	0	25	0	142606336	70	4676
2026-01-06 14:31:03.13	259.54	7.98	-50.9	-52.9	15.3	6.05e-01	0	25	0	144179200	70	4576
2026-01-06 14:31:04.13	259.71	8.02	-51.0	-52.9	15.3	6.06e-01	0	25	0	146276352	70	4596
2026-01-06 14:31:05.13	259.88	8.06	-51.0	-53.0	15.3	6.06e-01	0	25	0	147849216	70	4648
2026-01-06 14:31:06.13	260.05	8.10	-51.0	-53.1	15.3	6.06e-01	0	25	0	149946368	70	4652
2026-01-06 14:31:07.12	260.22	8.14	-51.1	-53.1	15.3	6.05e-01	0	25	0	151519232	70	4685
2026-01-06 14:31:08.12	260.40	8.18	-51.1	-53.1	15.3	6.06e-01	0	25	0	153616384	70	4681
2026-01-06 14:31:09.11	260.57	8.21	-51.0	-52.9	15.3	6.07e-01	0	25	0	155189248	70	4594
2026-01-06 14:31:10.11	260.74	8.25	-50.9	-52.9	15.3	6.05e-01	0	25	0	157286400	70	4579
2026-01-06 14:31:11.10	260.91	8.29	-50.9	-52.8	15.3	6.07e-01	0	25	0	159383552	70	4541
2026-01-06 14:31:12.09	261.08	8.33	-50.9	-52.9	15.3	6.08e-01	0	25	0	160956416	70	4547
2026-01-06 14:31:13.09	261.26	8.36	-50.8	-52.8	15.4	6.08e-01	0	25	0	163053568	70	4494
2026-01-06 14:31:14.09	261.43	8.40	-50.8	-52.8	15.4	6.07e-01	0	25	0	164626432	70	4513
2026-01-06 14:31:15.09	261.61	8.44	-50.8	-52.7	15.4	6.07e-01	0	25	0	166723584	70	4483
2026-01-06 14:31:16.08	261.78	8.48	-50.6	-52.6	15.5	6.06e-01	0	25	0	168820736	70	4421
2026-01-06 14:31:17.07	261.96	8.51	-50.7	-52.7	15.4	6.06e-01	0	25	0	170393600	70	4457
2026-01-06 14:31:18.07	262.14	8.55	-50.6	-52.7	15.5	6.06e-01	0	25	0	172490752	70	4444
2026-01-06 14:31:19.07	262.31	8.59	-50.7	-52.8	15.4	6.05e-01	0	25	0	174063616	70	4501
2026-01-06 14:31:20.07	262.49	8.62	-50.7	-52.7	15.4	6.06e-01	0	25	0	176160768	70	4463
2026-01-06 14:31:21.06	262.67	8.66	-50.8	-52.8	15.4	6.05e-01	0	25	0	177733632	70	4516
2026-01-06 14:31:22.05	262.84	8.69	-50.7	-52.7	15.5	6.06e-01	0	25	0	179830784	70	4476
2026-01-06 14:31:23.05	263.02	8.73	-50.5	-52.5	15.5	6.07e-01	0	25	0	181403648	70	4389
2026-01-06 14:31:24.04	263.20	8.77	-50.6	-52.7	15.5	6.04e-01	0	25	0	183500800	70	4474
2026-01-06 14:31:25.03	263.38	8.80	-50.7	-52.8	15.5	6.05e-01	0	25	0	185597952	70	4506
2026-01-06 14:31:26.04	263.56	8.84	-50.7	-52.8	15.4	6.05e-01	0	25	0	187170816	70	4524
2026-01-06 14:31:27.02	263.74	8.87	-50.7	-52.8	15.4	6.06e-01	0	25	0	189267968	70	4538
2026-01-06 14:31:28.02	263.92	8.91	-50.6	-52.6	15.5	6.06e-01	0	25	0	190840832	70	4424
2026-01-06 14:31:29.02	264.10	8.94	-50.4	-52.5	15.5	6.06e-01	0	25	0	192937984	70	4382
2026-01-06 14:31:30.01	264.28	8.97	-50.5	-52.5	15.5	6.06e-01	0	25	0	194510848	70	4371
2026-01-06 14:31:31.01	264.47	9.01	-50.4	-52.5	15.5	6.07e-01	0	25	0	196608000	70	4389
2026-01-06 14:31:32.01	264.65	9.04	-50.3	-52.8	15.3	6.07e-01	0	25	0	198180864	69	4791
2026-01-06 14:31:33.01	264.83	9.08	-49.9	-52.8	15.3	6.06e-01	0	25	0	200278016	69	4803
2026-01-06 14:31:34.00	265.01	9.11	-49.9	-52.8	15.2	6.05e-01	0	25	0	202375168	68	5046
2026-01-06 14:31:34.99	265.20	9.14	-49.6	-52.5	15.1	6.05e-01	0	25	0	203948032	67	5217
2026-01-06 14:31:35.99	265.38	9.18	-49.5	-52.7	15.1	6.06e-01	0	25	0	206045184	67	5337
2026-01-06 14:31:36.98	265.57	9.21	-50.9	-52.8	15.2	6.04e-01	0	25	0	207618048	69	4802
2026-01-06 14:31:37.99	265.75	9.24	-50.9	-52.9	15.2	6.07e-01	0	25	0	209715200	69	4823
2026-01-06 14:31:38.99	265.94	9.28	-50.6	-52.5	15.3	6.08e-01	0	25	0	211288064	69	4639
2026-01-06 14:31:39.99	266.13	9.31	-50.1	-51.9	15.5	6.05e-01	0	25	0	213385216	69	4332
2026-01-06 14:31:40.99	266.31	9.34	-50.1	-51.9	15.5	6.05e-01	0	25	0	215482368	69	4331
2026-01-06 14:31:41.99	266.50	9.38	-50.6	-52.5	15.3	6.04e-01	0	25	0	217055232	69	4630
2026-01-06 14:31:42.98	266.69	9.41	-51.2	-53.3	15.1	6.05e-01	0	25	0	219152384	70	4782
2026-01-06 14:31:43.98	266.88	9.44	-51.8	-54.1	15.1	6.04e-01	0	25	0	220725248	71	4949
2026-01-06 14:31:44.98	267.07	9.47	-52.4	-55.0	14.8	6.06e-01	0	25	0	222822400	72	5173
2026-01-06 14:31:45.98	267.26	9.50	-52.7	-55.3	14.7	6.08e-01	0	25	0	224395264	73	5089
2026-01-06 14:31:46.97	267.44	9.53	-52.4	-55.0	15.0	6.06e-01	0	25	0	226492416	73	4891
2026-01-06 14:31:47.97	267.63	9.56	-52.4	-54.9	15.0	6.03e-01	0	25	0	228065280	73	4864
2026-01-06 14:31:48.96	267.82	9.59	-52.5	-55.2	14.9	6.08e-01	0	25	0	230162432	73	5020
2026-01-06 14:31:49.96	268.01	9.63	-52.8	-55.6	14.7	6.08e-01	0	25	0	232259584	73	5241
2026-01-06 14:31:50.95	268.20	9.66	-53.4	-56.7	14.3	6.09e-01	0	25	0	233832448	74	5604
2026-01-06 14:31:51.96	268.40	9.69	-53.9	-57.5	14.0	6.07e-01	0	25	0	235929600	75	5850
2026-01-06 14:31:52.95	268.59	9.72	-54.3	-58.2	13.8	6.07e-01	0	25	0	237502464	76	5954
2026-01-06 14:31:53.95	268.78	9.75	-54.1	-57.8	14.1	6.06e-01	0	25	0	239599616	76	5686
2026-01-06 14:31:54.95	268.97	9.77	-54.0	-57.4	14.2	6.07e-01	0	25	0	241172480	76	5461
2026-01-06 14:31:55.94	269.16	9.80	-53.8	-57.1	14.4	6.04e-01	0	25	0	243269632	76	5249
2026-01-06 14:31:56.94	269.36	9.83	-53.0	-56.0	14.8	6.08e-01	0	25	0	245366784	75	4890
2026-01-06 14:31:57.94	269.55	9.86	-52.5	-55.1	15.0	6.06e-01	0	25	0	246939648	74	4698
2026-01-06 14:31:58.95	269.75	9.89	-52.1	-54.5	15.1	6.07e-01	0	25	0	249036800	73	4641
2026-01-06 14:31:59.95	269.94	9.92	-52.0	-54.4	15.2	6.06e-01	0	25	0	250609664	73	4548
2026-01-06 14:32:00.94	270.14	9.95	-51.8	-54.1	15.2	6.04e-01	0	25	0	252706816	72	4678
2026-01-06 14:32:01.94	270.33	9.97	-51.7	-53.9	15.2	6.07e-01	0	25	0	254803968	72	4590
2026-01-06 14:32:02.94	270.53	10.00	-51.6	-53.7	15.3	6.07e-01	0	25	0	256376832	72	4481
2026-01-06 14:32:03.94	270.73	10.03	-51.2	-53.3	15.3	6.05e-01	0	25	0	258473984	71	4497
2026-01-06 14:32:04.94	270.92	10.06	-50.9	-52.8	15.5	6.07e-01	0	25	0	260046848	71	4289
2026-01-06 14:32:05.94	271.12	10.08	-50.4	-52.2	15.6	6.07e-01	0	25	0	262144000	70	4240
2026-01-06 14:32:06.94	271.32	10.11	-50.3	-52.1	15.4	6.08e-01	0	25	0	263716864	69	4431
2026-01-06 14:32:07.93	271.52	10.14	-50.4	-52.2	15.4	6.06e-01	0	25	0	265814016	69	4467
2026-01-06 14:32:08.93	271.71	10.16	-50.5	-52.4	15.3	6.07e-01	0	25	0	267911168	69	4574
2026-01-06 14:32:09.94	271.91	10.19	-50.5	-52.3	15.4	6.07e-01	0	25	0	269484032	69	4539
2026-01-06 14:32:10.94	272.11	10.21	-50.3	-52.1	15.5	6.06e-01	0	25	0	271581184	69	4413
2026-01-06 14:32:11.94	272.31	10.24	-50.3	-52.2	15.4	6.06e-01	0	25	0	273154048	69	4447
2026-01-06 14:32:12.94	272.51	10.26	-50.3	-52.2	15.4	6.07e-01	0	25	0	275251200	69	4462
2026-01-06 14:32:13.94	272.71	10.29	-50.4	-52.2	15.4	6.06e-01	0	25	0	276824064	69	4461
2026-01-06 14:32:14.94	272.91	10.31	-50.3	-52.1	15.5	6.09e-01	0	25	0	278921216	69	4431
2026-01-06 14:32:15.94	273.12	10.34	-50.2	-52.0	15.5	6.06e-01	0	25	0	281018368	69	4380
2026-01-06 14:32:16.93	273.32	10.36	-50.2	-52.0	15.5	6.06e-01	0	25	0	282591232	69	4346
2026-01-06 14:32:17.93	273.52	10.38	-50.3	-52.1	15.4	6.08e-01	0	25	0	284688384	69	4441
2026-01-06 14:32:18.93	273.72	10.41	-50.3	-52.2	15.4	6.05e-01	0	25	0	286261248	69	4443
2026-01-06 14:32:19.92	273.92	10.43	-50.4	-52.3	15.4	6.04e-01	0	25	0	288358400	69	4505
2026-01-06 14:32:20.91	274.12	10.45	-50.5	-52.3	15.4	6.06e-01	0	25	0	289931264	69	4540
2026-01-06 14:32:21.91	274.32	10.48	-50.3	-52.2	15.4	6.07e-01	0	25	0	292028416	69	4448
2026-01-06 14:32:22.91	274.53	10.50	-50.2	-52.0	15.5	6.07e-01	0	25	0	293601280	69	4386
2026-01-06 14:32:23.90	274.73	10.52	-50.3	-52.2	15.4	6.06e-01	0	25	0	295698432	69	4460
2026-01-06 14:32:24.91	274.93	10.54	-50.4	-52.2	15.4	6.06e-01	0	25	0	297795584	69	4473
2026-01-06 14:32:25.91	275.14	10.56	-50.4	-52.2	15.4	6.07e-01	0	25	0	299368448	69	4487
2026-01-06 14:32:26.91	275.34	10.59	-50.2	-52.0	15.5	6.06e-01	0	25	0	301465600	69	4388
2026-01-06 14:32:27.92	275.55	10.61	-50.3	-52.2	15.5	6.05e-01	0	25	0	303038464	69	4451
2026-01-06 14:32:28.92	275.76	10.63	-50.3	-52.1	15.5	6.05e-01	0	25	0	305135616	69	4411
2026-01-06 14:32:29.91	275.96	10.65	-50.3	-52.1	15.4	6.05e-01	0	25	0	306708480	69	4438
2026-01-06 14:32:30.91	276.17	10.67	-50.3	-52.1	15.5	6.08e-01	0	25	0	308805632	69	4433
2026-01-06 14:32:31.91	276.37	10.69	-50.3	-52.2	15.4	6.07e-01	0	25	0	310902784	69	4447
2026-01-06 14:32:32.90	276.58	10.71	-50.3	-52.2	15.5	6.05e-01	0	25	0	312475648	69	4449
2026-01-06 14:32:33.89	276.78	10.72	-50.3	-52.1	15.4	6.07e-01	0	25	0	314572800	69	4422
2026-01-06 14:32:34.88	276.99	10.74	-50.3	-52.1	15.4	6.06e-01	0	25	0	316145664	69	4423
2026-01-06 14:32:35.88	277.19	10.76	-50.2	-52.0	15.5	6.06e-01	0	25	0	318242816	69	4389
2026-01-06 14:32:36.87	277.40	10.78	-50.2	-52.0	15.5	6.05e-01	0	25	0	319815680	69	4352
2026-01-06 14:32:37.88	277.61	10.80	-50.1	-51.9	15.5	6.06e-01	0	25	0	321912832	69	4328
2026-01-06 14:32:38.89	277.82	10.82	-50.3	-52.1	15.5	6.05e-01	0	25	0	324009984	69	4427
2026-01-06 14:32:39.88	278.02	10.83	-50.3	-52.1	15.5	6.07e-01	0	25	0	325582848	69	4397
2026-01-06 14:32:40.88	278.23	10.85	-50.1	-51.9	15.5	6.06e-01	0	25	0	327680000	69	4316
2026-01-06 14:32:41.88	278.44	10.87	-50.2	-52.0	15.5	6.06e-01	0	25	0	329252864	69	4374
2026-01-06 14:32:42.88	278.65	10.88	-50.3	-52.1	15.5	6.04e-01	0	25	0	331350016	69	4432
2026-01-06 14:32:43.88	278.86	10.90	-50.3	-52.1	15.5	6.06e-01	0	25	0	333447168	69	4425
2026-01-06 14:32:44.88	279.07	10.92	-50.3	-52.1	15.5	6.06e-01	0	25	0	335020032	69	4414
2026-01-06 14:32:45.88	279.28	10.93	-50.3	-52.2	15.4	6.07e-01	0	25	0	337117184	69	4449
2026-01-06 14:32:46.87	279.49	10.95	-50.4	-52.2	15.4	6.01e-01	0	25	0	338690048	69	4479
2026-01-06 14:32:47.87	279.70	10.96	-50.4	-52.2	15.4	6.03e-01	0	25	0	340787200	69	4489
2026-01-06 14:32:48.87	279.91	10.98	-50.4	-52.2	15.4	6.02e-01	0	25	0	342360064	69	4468
2026-01-06 14:32:49.86	280.12	10.99	-50.4	-52.2	15.4	6.01e-01	0	25	0	344457216	69	4469
2026-01-06 14:32:50.86	280.33	11.00	-50.3	-52.2	15.5	6.01e-01	0	25	0	346030080	69	4446
2026-01-06 14:32:51.86	280.54	11.02	-50.3	-52.1	15.5	5.99e-01	0	25	0	348127232	69	4427
2026-01-06 14:32:52.87	280.75	11.03	-50.3	-52.1	15.5	6.00e-01	0	25	0	350224384	69	4433
2026-01-06 14:32:53.87	280.96	11.04	-50.4	-52.2	15.4	6.00e-01	0	25	0	351797248	69	4460
2026-01-06 14:32:54.86	281.17	11.06	-50.4	-52.2	15.4	6.02e-01	0	25	0	353894400	69	4468
2026-01-06 14:32:55.86	281.38	11.07	-50.4	-52.2	15.4	6.02e-01	0	25	0	355467264	69	4455
2026-01-06 14:32:56.86	281.60	11.08	-50.3	-52.2	15.5	6.00e-01	0	25	0	357564416	69	4442
2026-01-06 14:32:57.86	281.81	11.09	-50.4	-52.2	15.4	6.01e-01	0	25	0	359137280	69	4453
2026-01-06 14:32:58.85	282.02	11.10	-50.3	-52.1	15.4	6.02e-01	0	25	0	361234432	69	4436
2026-01-06 14:32:59.85	282.23	11.11	-50.3	-52.1	15.4	6.01e-01	0	25	0	363331584	69	4413
2026-01-06 14:33:00.85	282.44	11.13	-50.3	-52.1	15.4	6.02e-01	0	25	0	364904448	69	4428
2026-01-06 14:33:01.85	282.66	11.14	-50.4	-52.2	15.4	6.02e-01	0	25	0	367001600	69	4487
2026-01-06 14:33:02.85	282.87	11.15	-50.4	-52.3	15.4	6.01e-01	0	25	0	368574464	69	4503
2026-01-06 14:33:03.85	283.08	11.16	-50.5	-52.3	15.4	6.03e-01	0	25	0	370671616	69	4513
2026-01-06 14:33:04.85	283.30	11.16	-50.5	-52.3	15.4	6.02e-01	0	25	0	372244480	69	4510
2026-01-06 14:33:05.85	283.51	11.17	-50.2	-52.0	15.5	6.02e-01	0	25	0	374341632	69	4372
2026-01-06 14:33:06.85	283.72	11.18	-50.4	-52.2	15.5	6.01e-01	0	25	0	376438784	69	4447
2026-01-06 14:33:07.84	283.93	11.19	-50.5	-52.3	15.4	5.98e-01	0	25	0	378011648	69	4512
2026-01-06 14:33:08.84	284.15	11.20	-50.4	-52.3	15.4	5.99e-01	0	25	0	380108800	69	4497
2026-01-06 14:33:09.84	284.36	11.21	-50.4	-52.2	15.4	6.01e-01	0	25	0	381681664	69	4474
2026-01-06 14:33:10.84	284.58	11.21	-50.4	-52.2	15.4	6.01e-01	0	25	0	383778816	69	4461
2026-01-06 14:33:11.84	284.79	11.22	-50.4	-52.2	15.4	6.00e-01	0	25	0	385351680	69	4471
2026-01-06 14:33:12.84	285.00	11.23	-50.5	-52.3	15.4	6.02e-01	0	25	0	387448832	69	4520
2026-01-06 14:33:13.83	285.22	11.23	-50.5	-52.3	15.4	6.02e-01	0	25	0	389545984	69	4532
2026-01-06 14:33:14.83	285.43	11.24	-50.5	-52.3	15.4	6.02e-01	0	25	0	391118848	69	4516
2026-01-06 14:33:15.83	285.65	11.25	-50.5	-52.3	15.4	5.99e-01	0	25	0	393216000	69	4525
2026-01-06 14:33:16.84	285.86	11.25	-50.5	-52.4	15.4	6.02e-01	0	25	0	394788864	69	4556
2026-01-06 14:33:17.83	286.08	11.26	-50.3	-52.1	15.4	6.03e-01	0	25	0	396886016	69	4425
2026-01-06 14:33:18.82	286.29	11.26	-50.5	-52.3	15.4	5.99e-01	0	25	0	398458880	69	4512
2026-01-06 14:33:19.82	286.50	11.26	-50.5	-52.4	15.4	6.01e-01	0	25	0	400556032	69	4560
2026-01-06 14:33:20.82	286.72	11.27	-50.5	-52.4	15.4	6.01e-01	0	25	0	402128896	69	4547
2026-01-06 14:33:21.81	286.93	11.27	-50.4	-52.2	15.4	6.01e-01	0	25	0	404226048	69	4477
2026-01-06 14:33:22.81	287.14	11.28	-50.4	-52.2	15.4	6.00e-01	0	25	0	406323200	69	4469
2026-01-06 14:33:23.81	287.36	11.28	-50.5	-52.3	15.4	5.99e-01	0	25	0	407896064	69	4509
2026-01-06 14:33:24.81	287.57	11.28	-50.4	-52.2	15.4	6.03e-01	0	25	0	409993216	69	4484
2026-01-06 14:33:25.81	287.79	11.28	-50.5	-52.3	15.4	6.02e-01	0	25	0	411566080	69	4501
2026-01-06 14:33:26.80	288.00	11.29	-50.5	-52.3	15.4	5.99e-01	0	25	0	413663232	69	4507
2026-01-06 14:33:27.79	288.22	11.29	-50.6	-52.4	15.4	6.01e-01	0	25	0	415760384	69	4561
2026-01-06 14:33:28.78	288.43	11.29	-50.5	-52.3	15.4	6.03e-01	0	25	0	417333248	69	4543
2026-01-06 14:33:29.79	288.65	11.29	-50.5	-52.3	15.4	5.99e-01	0	25	0	419430400	69	4520
2026-01-06 14:33:30.78	288.86	11.29	-50.5	-52.4	15.4	6.01e-01	0	25	0	421003264	69	4553
2026-01-06 14:33:31.77	289.07	11.29	-50.6	-52.4	15.4	5.99e-01	0	25	0	423100416	69	4577
2026-01-06 14:33:32.77	289.29	11.29	-50.6	-52.4	15.4	6.02e-01	0	25	0	424673280	69	4576
2026-01-06 14:33:33.76	289.50	11.29	-50.5	-52.4	15.4	6.02e-01	0	25	0	426770432	69	4555
2026-01-06 14:33:34.76	289.72	11.29	-50.5	-52.3	15.4	6.00e-01	0	25	0	428343296	69	4500
2026-01-06 14:33:35.76	289.93	11.29	-50.5	-52.3	15.4	6.03e-01	0	25	0	430440448	69	4503
2026-01-06 14:33:36.75	290.14	11.29	-50.5	-52.4	15.4	6.04e-01	0	25	0	432537600	69	4558
2026-01-06 14:33:37.75	290.36	11.28	-50.6	-52.4	15.4	6.04e-01	0	25	0	434110464	69	4567
2026-01-06 14:33:38.75	290.57	11.28	-50.6	-52.4	15.4	6.01e-01	0	25	0	436207616	69	4572
2026-01-06 14:33:39.75	290.79	11.28	-50.6	-52.4	15.4	6.00e-01	0	25	0	437780480	69	4580
2026-01-06 14:33:40.75	291.00	11.28	-50.5	-52.4	15.4	6.04e-01	0	25	0	439877632	69	4559
2026-01-06 14:33:41.75	291.22	11.27	-50.5	-52.3	15.4	6.01e-01	0	25	0	441450496	69	4534
2026-01-06 14:33:42.74	291.43	11.27	-50.5	-52.3	15.4	6.01e-01	0	25	0	443547648	69	4525
2026-01-06 14:33:43.75	291.65	11.27	-50.6	-52.4	15.4	5.99e-01	0	25	0	445644800	69	4565
2026-01-06 14:33:44.75	291.86	11.26	-50.5	-52.3	15.4	6.01e-01	0	25	0	447217664	69	4526
2026-01-06 14:33:45.75	292.08	11.26	-50.5	-52.3	15.4	6.02e-01	0	25	0	449314816	69	4517
2026-01-06 14:33:46.75	292.29	11.25	-50.5	-52.3	15.4	6.00e-01	0	25	0	450887680	69	4541
2026-01-06 14:33:47.75	292.51	11.25	-50.5	-52.3	15.4	6.02e-01	0	25	0	452984832	69	4522
2026-01-06 14:33:48.74	292.72	11.24	-50.6	-52.5	15.3	6.01e-01	0	25	0	454557696	69	4606
2026-01-06 14:33:49.74	292.93	11.24	-50.7	-52.6	15.3	6.00e-01	0	25	0	456654848	69	4665
2026-01-06 14:33:50.73	293.15	11.23	-50.7	-52.5	15.3	6.00e-01	0	25	0	458752000	69	4635
2026-01-06 14:33:51.74	293.36	11.22	-50.6	-52.4	15.4	6.02e-01	0	25	0	460324864	69	4575
2026-01-06 14:33:52.73	293.57	11.22	-50.4	-52.2	15.4	6.02e-01	0	25	0	462422016	69	4487
2026-01-06 14:33:53.73	293.79	11.21	-50.5	-52.3	15.4	6.01e-01	0	25	0	463994880	69	4526
2026-01-06 14:33:54.72	294.00	11.20	-50.5	-52.3	15.4	6.01e-01	0	25	0	466092032	69	4542
2026-01-06 14:33:55.72	294.21	11.19	-50.5	-52.3	15.4	6.00e-01	0	25	0	467664896	69	4513
2026-01-06 14:33:56.72	294.43	11.19	-50.5	-52.3	15.4	6.03e-01	0	25	0	469762048	69	4520
2026-01-06 14:33:57.73	294.64	11.18	-50.6	-52.4	15.4	6.01e-01	0	25	0	471859200	69	4565
2026-01-06 14:33:58.72	294.85	11.17	-50.6	-52.5	15.3	6.01e-01	0	25	0	473432064	69	4621
2026-01-06 14:33:59.72	295.07	11.16	-50.7	-52.5	15.3	6.01e-01	0	25	0	475529216	69	4627
2026-01-06 14:34:00.72	295.28	11.15	-50.6	-52.4	15.3	6.00e-01	0	25	0	477102080	69	4589
2026-01-06 14:34:01.72	295.49	11.14	-50.5	-52.3	15.4	6.01e-01	0	25	0	479199232	69	4506
2026-01-06 14:34:02.72	295.70	11.13	-50.4	-52.2	15.4	5.99e-01	0	25	0	480772096	69	4481
2026-01-06 14:34:03.72	295.92	11.12	-50.5	-52.3	15.4	6.02e-01	0	25	0	482869248	69	4520
2026-01-06 14:34:04.72	296.13	11.11	-50.5	-52.4	15.4	6.00e-01	0	25	0	484442112	69	4552
2026-01-06 14:34:05.73	296.34	11.10	-50.5	-52.3	15.4	5.98e-01	0	25	0	486539264	69	4523
2026-01-06 14:34:06.73	296.56	11.09	-50.5	-52.3	15.4	6.01e-01	0	25	0	488636416	69	4510
2026-01-06 14:34:07.73	296.77	11.07	-50.6	-52.4	15.4	6.02e-01	0	25	0	490209280	69	4577
2026-01-06 14:34:08.73	296.98	11.06	-50.6	-52.4	15.4	6.03e-01	0	25	0	492306432	69	4591
2026-01-06 14:34:09.73	297.19	11.05	-50.5	-52.4	15.4	6.02e-01	0	25	0	494403584	69	4547
2026-01-06 14:34:10.74	297.40	11.04	-50.4	-52.2	15.4	6.01e-01	0	25	0	495976448	69	4474
2026-01-06 14:34:11.74	297.61	11.02	-50.4	-52.2	15.4	6.02e-01	0	25	0	498073600	69	4489
2026-01-06 14:34:12.73	297.82	11.01	-50.4	-52.2	15.4	6.01e-01	0	26	0	499646464	69	4465
2026-01-06 14:34:13.73	298.03	11.00	-50.5	-52.3	15.4	6.02e-01	0	25	0	501743616	69	4525
2026-01-06 14:34:14.73	298.24	10.98	-50.5	-52.4	15.4	6.00e-01	0	25	0	503316480	69	4555
2026-01-06 14:34:15.72	298.45	10.97	-50.5	-52.4	15.4	6.01e-01	0	25	0	505413632	69	4565
2026-01-06 14:34:16.72	298.66	10.95	-50.6	-52.4	15.4	6.00e-01	0	25	0	506986496	69	4596
2026-01-06 14:34:17.71	298.87	10.94	-50.5	-52.3	15.4	6.03e-01	0	25	0	509083648	69	4515
2026-01-06 14:34:18.71	299.08	10.92	-50.6	-52.4	15.4	6.02e-01	0	25	0	511180800	69	4577
2026-01-06 14:34:19.71	299.29	10.91	-50.5	-52.3	15.4	6.01e-01	0	25	0	512753664	69	4530
2026-01-06 14:34:20.70	299.50	10.89	-50.6	-52.4	15.4	6.03e-01	0	25	0	514850816	69	4586
2026-01-06 14:34:21.70	299.70	10.88	-50.7	-52.6	15.3	6.02e-01	0	25	0	516423680	69	4664
2026-01-06 14:34:22.70	299.91	10.86	-50.6	-52.4	15.3	6.00e-01	0	25	0	518520832	69	4579
2026-01-06 14:34:23.69	300.12	10.84	-50.5	-52.3	15.4	6.02e-01	0	25	0	520093696	69	4541
2026-01-06 14:34:24.69	300.33	10.83	-50.7	-52.5	15.3	6.04e-01	0	25	0	522190848	69	4649
2026-01-06 14:34:25.68	300.53	10.81	-50.6	-52.5	15.3	6.00e-01	0	25	0	524288000	69	4606
2026-01-06 14:34:26.67	300.74	10.79	-50.6	-52.4	15.4	6.02e-01	0	25	0	525860864	69	4575
2026-01-06 14:34:27.66	300.94	10.77	-50.6	-52.4	15.4	6.02e-01	0	25	0	527958016	69	4597
2026-01-06 14:34:28.66	301.15	10.75	-50.4	-52.2	15.4	6.01e-01	0	25	0	529530880	69	4468
2026-01-06 14:34:29.65	301.35	10.74	-50.5	-52.3	15.4	6.03e-01	0	25	0	531628032	69	4539
2026-01-06 14:34:30.65	301.56	10.72	-50.5	-52.4	15.4	5.99e-01	0	25	0	533200896	69	4554
2026-01-06 14:34:31.65	301.77	10.70	-50.6	-52.5	15.4	6.02e-01	0	25	0	535298048	69	4605
2026-01-06 14:34:32.65	301.97	10.68	-50.7	-52.6	15.3	6.01e-01	0	25	0	536870912	69	4685
2026-01-06 14:34:33.64	302.18	10.66	-50.6	-52.5	15.3	6.03e-01	0	25	0	538968064	69	4611
2026-01-06 14:34:34.64	302.38	10.64	-50.6	-52.5	15.3	6.02e-01	0	25	0	541065216	69	4602
2026-01-06 14:34:35.64	302.59	10.62	-50.7	-52.6	15.3	5.99e-01	0	26	0	542638080	69	4690
2026-01-06 14:34:36.63	302.79	10.60	-50.7	-52.6	15.3	5.99e-01	0	26	0	544735232	69	4669
2026-01-06 14:34:37.63	302.99	10.58	-50.4	-52.3	15.4	6.02e-01	0	25	0	546308096	69	4500
2026-01-06 14:34:38.63	303.20	10.55	-50.4	-52.2	15.4	6.01e-01	0	25	0	548405248	69	4474
2026-01-06 14:34:39.63	303.40	10.53	-50.5	-52.4	15.4	6.02e-01	0	25	0	549978112	69	4554
2026-01-06 14:34:40.62	303.60	10.51	-50.4	-52.2	15.4	6.02e-01	0	25	0	552075264	69	4457
2026-01-06 14:34:41.63	303.81	10.49	-50.5	-52.4	15.4	5.99e-01	0	25	0	554172416	69	4554
2026-01-06 14:34:42.63	304.01	10.47	-50.6	-52.4	15.4	6.01e-01	0	25	0	555745280	69	4584
2026-01-06 14:34:43.63	304.21	10.44	-50.5	-52.4	15.4	6.01e-01	0	25	0	557842432	69	4555
2026-01-06 14:34:44.63	304.42	10.42	-50.5	-52.3	15.4	6.02e-01	0	25	0	559415296	69	4516
2026-01-06 14:34:45.63	304.62	10.40	-50.5	-52.3	15.4	6.02e-01	0	25	0	561512448	69	4537
2026-01-06 14:34:46.63	304.82	10.37	-50.4	-52.3	15.4	6.02e-01	0	25	0	563609600	69	4505
2026-01-06 14:34:47.63	305.02	10.35	-50.4	-52.2	15.4	6.00e-01	0	25	0	565182464	69	4488
2026-01-06 14:34:48.62	305.22	10.33	-50.5	-52.3	15.4	6.01e-01	0	25	0	566755328	69	4517
2026-01-06 14:34:49.63	305.42	10.30	-50.4	-52.3	15.4	6.00e-01	0	25	0	568852480	69	4496
2026-01-06 14:34:50.63	305.62	10.28	-50.4	-52.2	15.4	6.02e-01	0	25	0	570949632	69	4493
2026-01-06 14:34:51.63	305.82	10.25	-50.4	-52.2	15.4	6.01e-01	0	25	0	572522496	69	4455
2026-01-06 14:34:52.63	306.02	10.23	-50.4	-52.3	15.4	6.03e-01	0	25	0	574619648	69	4507
2026-01-06 14:34:53.63	306.22	10.20	-50.6	-52.4	15.4	6.00e-01	0	25	0	576716800	69	4578
2026-01-06 14:34:54.63	306.42	10.18	-50.6	-52.4	15.4	6.02e-01	0	25	0	578289664	69	4581
2026-01-06 14:34:55.63	306.61	10.15	-50.6	-52.5	15.3	6.02e-01	0	25	0	580386816	69	4627
2026-01-06 14:34:56.63	306.81	10.13	-50.6	-52.4	15.4	6.02e-01	0	25	0	581959680	69	4596
2026-01-06 14:34:57.63	307.01	10.10	-50.6	-52.5	15.3	6.00e-01	0	25	0	584056832	69	4638
2026-01-06 14:34:58.63	307.21	10.07	-50.6	-52.5	15.3	6.01e-01	0	25	0	585629696	69	4630
2026-01-06 14:34:59.63	307.40	10.05	-50.6	-52.5	15.3	5.99e-01	0	25	0	587726848	69	4614
2026-01-06 14:35:00.63	307.60	10.02	-50.6	-52.4	15.3	6.02e-01	0	25	0	589824000	69	4596
2026-01-06 14:35:01.64	307.80	9.99	-50.5	-52.4	15.3	6.02e-01	0	25	0	591396864	69	4567
2026-01-06 14:35:02.63	307.99	9.96	-50.5	-52.3	15.3	5.98e-01	0	25	0	593494016	69	4535
2026-01-06 14:35:03.62	308.18	9.94	-50.5	-52.3	15.4	6.03e-01	0	25	0	595066880	69	4530
2026-01-06 14:35:04.62	308.38	9.91	-50.4	-52.3	15.4	6.02e-01	0	25	0	597164032	69	4513
2026-01-06 14:35:05.61	308.57	9.88	-50.4	-52.3	15.4	6.02e-01	0	25	0	598736896	69	4508
2026-01-06 14:35:06.61	308.77	9.85	-50.6	-52.5	15.3	6.01e-01	0	25	0	600834048	69	4602
2026-01-06 14:35:07.61	308.96	9.82	-50.5	-52.4	15.3	6.01e-01	0	25	0	602406912	69	4575
2026-01-06 14:35:08.61	309.15	9.79	-50.6	-52.4	15.4	5.99e-01	0	25	0	604504064	69	4594
2026-01-06 14:35:09.61	309.35	9.76	-50.6	-52.4	15.3	6.02e-01	0	25	0	606601216	69	4592
2026-01-06 14:35:10.61	309.54	9.74	-50.6	-52.4	15.3	6.01e-01	0	25	0	608174080	69	4593
2026-01-06 14:35:11.61	309.73	9.71	-50.6	-52.5	15.3	6.03e-01	0	25	0	610271232	69	4622
2026-01-06 14:35:12.61	309.92	9.68	-50.6	-52.5	15.3	6.00e-01	0	25	0	611844096	69	4639
2026-01-06 14:35:13.60	310.11	9.65	-50.5	-52.4	15.3	6.01e-01	0	25	0	613941248	69	4570
2026-01-06 14:35:14.60	310.30	9.62	-50.4	-52.3	15.4	6.03e-01	0	25	0	615514112	69	4510
2026-01-06 14:35:15.60	310.49	9.59	-50.5	-52.4	15.3	6.01e-01	0	25	0	617611264	69	4580
2026-01-06 14:35:16.60	310.68	9.55	-50.6	-52.5	15.3	6.01e-01	0	25	0	619708416	69	4628
2026-01-06 14:35:17.60	310.87	9.52	-50.6	-52.5	15.3	6.02e-01	0	25	0	621281280	69	4629
2026-01-06 14:35:18.60	311.06	9.49	-50.6	-52.5	15.3	6.01e-01	0	25	0	623378432	69	4638
2026-01-06 14:35:19.60	311.25	9.46	-50.7	-52.6	15.3	6.02e-01	0	25	0	624951296	69	4697
2026-01-06 14:35:20.60	311.44	9.43	-50.8	-52.7	15.2	6.00e-01	0	25	0	627048448	69	4745
2026-01-06 14:35:21.59	311.62	9.40	-50.7	-52.6	15.3	6.02e-01	0	25	0	628621312	69	4672
2026-01-06 14:35:22.59	311.81	9.37	-50.4	-52.3	15.4	5.99e-01	0	25	0	630718464	69	4518
2026-01-06 14:35:23.58	311.99	9.33	-50.4	-52.3	15.4	5.99e-01	0	25	0	632815616	69	4521
2026-01-06 14:35:24.59	312.18	9.30	-50.6	-52.5	15.3	6.00e-01	0	25	0	634388480	69	4603
2026-01-06 14:35:25.58	312.37	9.27	-50.6	-52.4	15.3	6.02e-01	0	26	0	636485632	69	4595
2026-01-06 14:35:26.58	312.55	9.24	-50.6	-52.5	15.3	6.01e-01	0	25	0	638058496	69	4602
2026-01-06 14:35:27.57	312.73	9.20	-50.5	-52.4	15.4	6.00e-01	0	25	0	640155648	69	4546
2026-01-06 14:35:28.56	312.92	9.17	-50.5	-52.4	15.3	6.02e-01	0	25	0	641728512	69	4584
2026-01-06 14:35:29.55	313.10	9.14	-50.6	-52.5	15.3	6.03e-01	0	25	0	643825664	69	4645
2026-01-06 14:35:30.55	313.28	9.10	-50.6	-52.6	15.3	6.02e-01	0	25	0	645922816	69	4663
2026-01-06 14:35:31.54	313.46	9.07	-50.6	-52.5	15.3	5.99e-01	0	25	0	647495680	69	4605
2026-01-06 14:35:32.54	313.65	9.04	-50.7	-52.6	15.3	6.02e-01	0	25	0	649592832	69	4661
2026-01-06 14:35:33.54	313.83	9.00	-50.6	-52.5	15.3	5.98e-01	0	25	0	651165696	69	4622
2026-01-06 14:35:34.53	314.01	8.97	-50.6	-52.5	15.3	5.99e-01	0	25	0	653262848	69	4604
2026-01-06 14:35:35.52	314.19	8.93	-50.6	-52.5	15.3	6.01e-01	0	25	0	654835712	69	4634
2026-01-06 14:35:36.52	314.37	8.90	-50.7	-52.6	15.3	6.02e-01	0	25	0	656932864	69	4683
2026-01-06 14:35:37.51	314.55	8.86	-50.6	-52.5	15.3	6.00e-01	0	25	0	658505728	69	4620
2026-01-06 14:35:38.50	314.73	8.83	-50.7	-52.6	15.3	6.00e-01	0	25	0	660602880	69	4666
2026-01-06 14:35:39.50	314.91	8.79	-50.6	-52.5	15.3	5.99e-01	0	25	0	662700032	69	4631
2026-01-06 14:35:40.49	315.09	8.76	-50.6	-52.5	15.3	6.03e-01	0	25	0	664272896	69	4600
2026-01-06 14:35:41.49	315.26	8.72	-50.7	-52.6	15.3	6.01e-01	0	26	0	666370048	69	4682
2026-01-06 14:35:42.48	315.44	8.69	-50.7	-52.6	15.3	6.00e-01	0	26	0	667942912	69	4679
2026-01-06 14:35:43.47	315.62	8.65	-50.7	-52.6	15.3	5.99e-01	0	26	0	670040064	69	4692
2026-01-06 14:35:44.46	315.79	8.62	-50.8	-52.7	15.2	6.00e-01	0	25	0	671612928	69	4744
2026-01-06 14:35:45.46	315.97	8.58	-50.8	-52.7	15.2	6.00e-01	0	26	0	673710080	69	4739
2026-01-06 14:35:46.46	316.15	8.54	-50.7	-52.7	15.2	6.03e-01	0	25	0	675282944	69	4718
2026-01-06 14:35:47.45	316.32	8.51	-50.6	-52.6	15.3	6.01e-01	0	25	0	677380096	69	4657
2026-01-06 14:35:48.45	316.50	8.47	-50.7	-52.6	15.3	6.03e-01	0	25	0	679477248	69	4694
2026-01-06 14:35:49.46	316.67	8.43	-50.8	-52.7	15.2	6.03e-01	0	26	0	681050112	69	4745
2026-01-06 14:35:50.45	316.84	8.40	-50.8	-52.8	15.2	6.00e-01	0	25	0	683147264	69	4775
2026-01-06 14:35:51.46	317.02	8.36	-50.8	-52.7	15.2	6.03e-01	0	25	0	684720128	69	4751
2026-01-06 14:35:52.45	317.19	8.32	-50.7	-52.7	15.2	6.01e-01	0	25	0	686817280	69	4726
2026-01-06 14:35:53.45	317.37	8.29	-50.7	-52.6	15.3	6.00e-01	0	25	0	688390144	69	4683
2026-01-06 14:35:54.45	317.54	8.25	-50.7	-52.7	15.3	6.02e-01	0	25	0	690487296	69	4710
2026-01-06 14:35:55.45	317.71	8.21	-50.8	-52.7	15.2	6.00e-01	0	25	0	692584448	69	4747
2026-01-06 14:35:56.44	317.88	8.17	-50.8	-52.7	15.2	6.00e-01	0	26	0	694157312	69	4745
2026-01-06 14:35:57.44	318.05	8.13	-50.9	-52.9	15.2	6.01e-01	0	25	0	696254464	69	4845
2026-01-06 14:35:58.44	318.22	8.10	-51.0	-53.0	15.1	6.03e-01	0	25	0	697827328	69	4900
2026-01-06 14:35:59.45	318.39	8.06	-50.8	-52.8	15.2	6.02e-01	0	25	0	699924480	69	4787
2026-01-06 14:36:00.45	318.56	8.02	-50.8	-52.8	15.2	6.03e-01	0	25	0	701497344	69	4808
2026-01-06 14:36:01.45	318.73	7.98	-50.8	-52.8	15.2	6.00e-01	0	26	0	703594496	69	4771
2026-01-06 14:36:02.45	318.90	7.94	-50.7	-52.7	15.2	6.04e-01	0	25	0	705691648	69	4714
2026-01-06 14:36:03.45	319.07	7.90	-50.8	-52.8	15.2	6.02e-01	0	26	0	707264512	69	4797
2026-01-06 14:36:04.44	319.24	7.86	-50.9	-52.8	15.2	5.97e-01	0	25	0	709361664	69	4814
2026-01-06 14:36:05.44	319.41	7.82	-50.7	-52.7	15.2	6.03e-01	0	26	0	710934528	69	4709
2026-01-06 14:36:06.44	319.57	7.79	-50.8	-52.7	15.2	5.99e-01	0	25	0	713031680	69	4749
2026-01-06 14:36:07.44	319.74	7.75	-50.7	-52.6	15.2	6.01e-01	0	25	0	714604544	69	4690
2026-01-06 14:36:08.44	319.91	7.71	-50.7	-52.7	15.2	6.03e-01	0	25	0	716701696	69	4724
2026-01-06 14:36:09.44	320.07	7.67	-50.7	-52.7	15.2	6.01e-01	0	25	0	718798848	69	4723
2026-01-06 14:36:10.43	320.23	7.63	-50.6	-52.6	15.3	6.05e-01	0	26	0	720371712	69	4673
2026-01-06 14:36:11.43	320.40	7.59	-50.7	-52.7	15.2	6.03e-01	0	25	0	722468864	69	4727
2026-01-06 14:36:12.43	320.56	7.55	-50.8	-52.8	15.2	6.01e-01	0	26	0	724041728	69	4807
2026-01-06 14:36:13.43	320.73	7.51	-50.9	-52.9	15.2	6.01e-01	0	26	0	726138880	69	4864
2026-01-06 14:36:14.43	320.89	7.47	-50.9	-52.9	15.1	6.03e-01	0	25	0	728236032	69	4862
2026-01-06 14:36:15.43	321.05	7.43	-50.9	-53.0	15.1	6.00e-01	0	25	0	729808896	69	4887
2026-01-06 14:36:16.44	321.22	7.39	-50.9	-52.9	15.1	6.02e-01	0	25	0	731906048	69	4853
2026-01-06 14:36:17.44	321.38	7.35	-50.9	-52.9	15.1	5.99e-01	0	25	0	733478912	69	4851
2026-01-06 14:36:18.44	321.54	7.30	-51.1	-53.1	15.2	6.01e-01	0	25	0	735576064	70	4699
2026-01-06 14:36:19.44	321.70	7.26	-50.9	-52.9	15.3	6.01e-01	0	25	0	737148928	70	4588
2026-01-06 14:36:20.43	321.86	7.22	-50.7	-52.7	15.4	6.02e-01	0	25	0	739246080	70	4443
2026-01-06 14:36:21.41	322.02	7.18	-50.9	-52.9	15.3	5.99e-01	0	26	0	740818944	70	4594
2026-01-06 14:36:22.41	322.18	7.14	-50.8	-52.8	15.3	6.01e-01	0	25	0	742916096	70	4533
2026-01-06 14:36:23.39	322.33	7.10	-51.0	-53.0	15.3	5.98e-01	0	25	0	745013248	70	4630
2026-01-06 14:36:24.39	322.49	7.06	-50.9	-52.9	15.3	6.02e-01	0	25	0	746586112	70	4568
2026-01-06 14:36:25.39	322.65	7.02	-51.0	-53.0	15.3	5.99e-01	0	25	0	748683264	70	4634
2026-01-06 14:36:26.39	322.81	6.98	-51.1	-53.1	15.2	6.02e-01	0	25	0	750256128	70	4686
2026-01-06 14:36:27.38	322.96	6.94	-51.0	-53.0	15.3	6.03e-01	0	26	0	752353280	70	4616
2026-01-06 14:36:28.38	323.12	6.89	-51.0	-53.0	15.2	6.02e-01	0	25	0	753926144	70	4638
2026-01-06 14:36:29.38	323.27	6.85	-51.0	-53.0	15.3	6.00e-01	0	26	0	756023296	70	4619
2026-01-06 14:36:30.38	323.43	6.81	-51.1	-53.1	15.2	6.01e-01	0	25	0	757596160	70	4694
2026-01-06 14:36:31.38	323.58	6.77	-51.0	-53.1	15.2	6.01e-01	0	25	0	759693312	70	4679
2026-01-06 14:36:32.36	323.74	6.73	-51.1	-53.1	15.2	6.02e-01	0	25	0	761790464	70	4704
2026-01-06 14:36:33.36	323.89	6.69	-51.0	-53.1	15.2	6.00e-01	0	25	0	763363328	70	4659
2026-01-06 14:36:34.36	324.04	6.64	-51.0	-53.0	15.2	6.01e-01	0	26	0	765460480	70	4646
2026-01-06 14:36:35.36	324.20	6.60	-51.1	-53.1	15.2	5.99e-01	0	26	0	767033344	70	4705
2026-01-06 14:36:36.35	324.35	6.56	-51.1	-53.2	15.2	6.02e-01	0	25	0	769130496	70	4749
2026-01-06 14:36:37.35	324.50	6.52	-51.0	-53.0	15.2	6.01e-01	0	26	0	770703360	70	4644
2026-01-06 14:36:38.35	324.65	6.47	-51.0	-53.1	15.2	6.02e-01	0	25	0	772800512	70	4657
2026-01-06 14:36:39.35	324.80	6.43	-51.1	-53.2	15.2	6.02e-01	0	26	0	774897664	70	4716
2026-01-06 14:36:40.34	324.95	6.39	-51.1	-53.2	15.2	6.00e-01	0	25	0	776470528	70	4735
2026-01-06 14:36:41.34	325.10	6.35	-51.0	-53.1	15.2	6.01e-01	0	25	0	778567680	70	4694
2026-01-06 14:36:42.34	325.25	6.30	-51.0	-53.1	15.2	6.02e-01	0	26	0	780140544	70	4698
2026-01-06 14:36:43.34	325.40	6.26	-51.2	-53.3	15.2	5.98e-01	0	25	0	782237696	70	4784
2026-01-06 14:36:44.34	325.55	6.22	-51.2	-53.4	15.1	6.03e-01	0	25	0	783810560	70	4835
2026-01-06 14:36:45.35	325.70	6.17	-51.3	-53.4	15.1	6.02e-01	0	25	0	785907712	70	4856
2026-01-06 14:36:46.35	325.85	6.13	-51.3	-53.4	15.1	6.03e-01	0	26	0	788004864	70	4863
2026-01-06 14:36:47.34	326.00	6.09	-51.1	-53.3	15.2	6.03e-01	0	26	0	789577728	70	4769
2026-01-06 14:36:48.34	326.14	6.04	-51.2	-53.3	15.1	6.04e-01	0	25	0	791674880	70	4776
2026-01-06 14:36:49.34	326.29	6.00	-51.1	-53.3	15.2	6.01e-01	0	25	0	793247744	70	4763
2026-01-06 14:36:50.34	326.44	5.96	-51.2	-53.3	15.1	6.05e-01	0	25	0	795344896	70	4798
2026-01-06 14:36:51.34	326.58	5.91	-51.3	-53.4	15.1	6.00e-01	0	25	0	796917760	70	4863
2026-01-06 14:36:52.34	326.73	5.87	-51.4	-53.5	15.1	6.03e-01	0	25	0	799014912	70	4921
2026-01-06 14:36:53.35	326.88	5.83	-51.3	-53.5	15.1	6.01e-01	0	26	0	801112064	70	4880
2026-01-06 14:36:54.35	327.02	5.78	-51.1	-53.2	15.1	6.01e-01	0	26	0	802684928	70	4734
2026-01-06 14:36:55.35	327.16	5.74	-51.0	-53.2	15.2	6.06e-01	0	25	0	804782080	70	4727
2026-01-06 14:36:56.35	327.31	5.70	-51.3	-53.6	15.1	6.02e-01	0	26	0	806354944	70	4975
2026-01-06 14:36:57.34	327.45	5.65	-51.1	-53.4	15.2	6.04e-01	0	25	0	808452096	70	4843
2026-01-06 14:36:58.34	327.59	5.61	-51.1	-53.3	15.2	6.04e-01	0	25	0	810024960	70	4812
2026-01-06 14:36:59.34	327.73	5.56	-51.1	-53.3	15.1	6.02e-01	0	25	0	812122112	70	4787
2026-01-06 14:37:00.34	327.88	5.52	-51.3	-53.5	15.1	6.01e-01	0	25	0	814219264	70	4873
2026-01-06 14:37:01.35	328.02	5.48	-51.4	-53.6	15.0	6.01e-01	0	26	0	815792128	70	4972
2026-01-06 14:37:02.35	328.16	5.43	-51.3	-53.5	15.1	6.02e-01	0	25	0	817889280	70	4906
2026-01-06 14:37:03.35	328.30	5.39	-51.3	-53.5	15.1	6.02e-01	0	25	0	819462144	70	4884
2026-01-06 14:37:04.34	328.44	5.34	-51.3	-53.6	15.0	6.02e-01	0	25	0	821559296	70	4954
2026-01-06 14:37:05.34	328.58	5.30	-51.3	-53.6	15.1	6.01e-01	0	25	0	823656448	70	4927
2026-01-06 14:37:06.34	328.72	5.25	-51.4	-53.6	15.0	6.02e-01	0	26	0	825229312	70	4959
2026-01-06 14:37:07.35	328.86	5.21	-51.3	-53.4	15.1	6.01e-01	0	25	0	827326464	70	4865
2026-01-06 14:37:08.35	329.00	5.17	-51.4	-53.6	15.1	6.02e-01	0	25	0	828899328	70	4949
2026-01-06 14:37:09.34	329.13	5.12	-51.3	-53.5	15.1	5.99e-01	0	25	0	830996480	70	4911
2026-01-06 14:37:10.34	329.27	5.08	-51.4	-53.7	15.0	6.03e-01	0	26	0	832569344	70	4984
2026-01-06 14:37:11.35	329.41	5.03	-51.4	-53.6	15.0	6.01e-01	0	25	0	834666496	70	4965
2026-01-06 14:37:12.35	329.54	4.99	-51.8	-54.2	14.9	6.02e-01	0	25	0	836763648	71	4986
2026-01-06 14:37:13.35	329.68	4.94	-58.0	-75.9	3.6	7.50e-01	0	26	104	837812224	83	30471
2026-01-06 14:37:14.34	329.81	4.90	-58.6	-77.8	3.8	7.45e-01	0	25	104	837812224	84	35746
2026-01-06 14:37:15.34	329.95	4.85	-58.4	-77.3	3.7	7.45e-01	0	26	104	837812224	85	31954
2026-01-06 14:37:16.34	330.08	4.81	-59.1	-78.4	3.7	7.46e-01	0	26	104	837812224	85	36373
2026-01-06 14:37:17.33	330.22	4.76	-59.3	-78.7	3.8	7.45e-01	0	25	104	837812224	86	35322
2026-01-06 14:37:18.33	330.35	4.72	-59.5	-78.8	3.8	7.48e-01	0	25	104	837812224	86	36092
2026-01-06 14:37:19.34	330.49	4.67	-59.6	-79.0	3.8	7.46e-01	0	25	104	837812224	86	36563
2026-01-06 14:37:20.34	330.62	4.63	-59.7	-79.1	3.8	7.43e-01	0	26	104	837812224	87	34887
2026-01-06 14:37:21.34	330.75	4.58	-59.8	-79.1	3.8	7.45e-01	0	26	104	837812224	87	35249
2026-01-06 14:37:22.34	330.88	4.54	-59.8	-79.2	3.8	7.44e-01	0	26	104	837812224	87	35436
2026-01-06 14:37:23.35	331.02	4.49	-59.9	-79.2	3.8	7.45e-01	0	26	104	837812224	87	35622
2026-01-06 14:37:24.34	331.15	4.45	-59.9	-79.3	3.8	7.46e-01	0	26	104	837812224	87	35760
2026-01-06 14:37:25.34	331.28	4.40	-59.9	-79.3	3.8	7.49e-01	0	26	104	837812224	87	35922
2026-01-06 14:37:26.32	331.41	4.36	-59.9	-79.3	3.8	7.45e-01	0	26	104	837812224	87	35960
2026-01-06 14:37:27.32	331.54	4.32	-60.0	-79.3	3.8	7.46e-01	0	26	104	837812224	87	36069
2026-01-06 14:37:28.32	331.67	4.27	-60.0	-79.4	3.8	7.47e-01	0	26	104	837812224	87	36230
2026-01-06 14:37:29.32	331.79	4.23	-60.0	-79.4	3.8	7.49e-01	0	26	104	837812224	87	36331
2026-01-06 14:37:30.32	331.92	4.18	-60.0	-79.4	3.8	7.47e-01	0	26	104	837812224	87	36252
2026-01-06 14:37:31.32	332.05	4.13	-60.0	-79.4	3.8	7.48e-01	0	25	104	837812224	87	36294
2026-01-06 14:37:32.32	332.18	4.09	-60.0	-79.4	3.8	7.48e-01	0	26	104	837812224	87	36254
2026-01-06 14:37:33.31	332.31	4.04	-60.0	-79.4	3.8	7.47e-01	0	26	104	837812224	87	36377
2026-01-06 14:37:34.31	332.43	4.00	-60.0	-79.4	3.8	7.46e-01	0	26	104	837812224	87	36409
2026-01-06 14:37:35.30	332.56	3.95	-60.0	-79.4	3.8	7.50e-01	0	26	104	837812224	87	36119
2026-01-06 14:37:36.30	332.68	3.91	-59.9	-79.3	3.8	7.51e-01	0	26	104	837812224	87	36029
2026-01-06 14:37:37.30	332.81	3.86	-59.9	-79.3	3.8	7.46e-01	0	26	104	837812224	87	35964
2026-01-06 14:37:38.29	332.93	3.82	-59.9	-79.3	3.8	7.48e-01	0	26	104	837812224	87	35797
2026-01-06 14:37:39.29	333.06	3.77	-59.9	-79.3	3.8	7.48e-01	0	26	104	837812224	87	35882
2026-01-06 14:37:40.28	333.18	3.73	-59.9	-79.3	3.8	7.47e-01	0	26	104	837812224	87	35865
2026-01-06 14:37:41.28	333.31	3.68	-59.9	-79.3	3.8	7.46e-01	0	26	104	837812224	87	35797
2026-01-06 14:37:42.28	333.43	3.64	-59.9	-79.3	3.8	7.45e-01	0	26	104	837812224	87	35708
2026-01-06 14:37:43.28	333.55	3.59	-59.9	-79.2	3.8	7.43e-01	0	26	104	837812224	87	35678
2026-01-06 14:37:44.28	333.68	3.55	-59.8	-79.2	3.8	7.43e-01	0	26	104	837812224	87	35618
2026-01-06 14:37:45.28	333.80	3.50	-59.8	-79.2	3.8	7.47e-01	0	26	104	837812224	87	35634
2026-01-06 14:37:46.27	333.92	3.46	-59.8	-79.2	3.8	7.50e-01	0	26	104	837812224	87	35572
2026-01-06 14:37:47.27	334.04	3.41	-59.8	-79.2	3.8	7.47e-01	0	26	104	837812224	87	35610
2026-01-06 14:37:48.27	334.16	3.37	-59.8	-79.2	3.8	7.40e-01	0	26	104	837812224	87	35519
2026-01-06 14:37:49.27	334.29	3.32	-59.8	-79.2	3.8	7.44e-01	0	26	104	837812224	87	35541
2026-01-06 14:37:50.26	334.41	3.27	-59.8	-79.2	3.8	7.47e-01	0	26	104	837812224	87	35405
2026-01-06 14:37:51.26	334.53	3.23	-59.8	-79.2	3.8	7.47e-01	0	26	104	837812224	87	35559
2026-01-06 14:37:52.26	334.65	3.18	-59.8	-79.2	3.8	7.48e-01	0	26	104	837812224	87	35450
2026-01-06 14:37:53.26	334.77	3.14	-59.8	-79.2	3.8	7.47e-01	0	26	104	837812224	87	35571
2026-01-06 14:37:54.26	334.88	3.09	-59.8	-79.2	3.8	7.47e-01	0	26	104	837812224	87	35446
2026-01-06 14:37:55.25	335.00	3.05	-59.8	-79.2	3.8	7.46e-01	0	26	104	837812224	87	35436
2026-01-06 14:37:56.25	335.12	3.00	-59.8	-79.2	3.8	7.45e-01	0	26	104	837812224	87	35404
2026-01-06 14:37:57.25	335.24	2.96	-59.8	-79.2	3.8	7.44e-01	0	26	104	837812224	87	35290
2026-01-06 14:37:58.25	335.36	2.91	-59.8	-79.2	3.8	7.46e-01	0	26	104	837812224	87	35326
2026-01-06 14:37:59.25	335.47	2.86	-59.8	-79.2	3.8	7.46e-01	0	26	104	837812224	87	35434
2026-01-06 14:38:00.26	335.59	2.82	-59.8	-79.2	3.8	7.46e-01	0	26	104	837812224	87	35344
2026-01-06 14:38:01.26	335.71	2.77	-59.8	-79.2	3.8	7.50e-01	0	26	104	837812224	87	35297
2026-01-06 14:38:02.26	335.82	2.73	-59.8	-79.2	3.8	7.51e-01	0	26	104	837812224	87	35323
2026-01-06 14:38:03.26	335.94	2.68	-59.8	-79.1	3.8	7.44e-01	0	26	104	837812224	87	35279
2026-01-06 14:38:04.26	336.05	2.64	-59.7	-79.2	3.8	7.46e-01	0	26	104	837812224	87	35296
2026-01-06 14:38:05.26	336.17	2.59	-59.8	-79.1	3.8	7.46e-01	0	26	104	837812224	87	35274
2026-01-06 14:38:06.26	336.28	2.54	-59.7	-79.1	3.8	7.43e-01	0	26	104	837812224	87	35190
2026-01-06 14:38:07.27	336.40	2.50	-59.8	-79.2	3.8	7.50e-01	0	26	104	837812224	87	35290
2026-01-06 14:38:08.27	336.51	2.45	-59.7	-79.1	3.8	7.45e-01	0	26	104	837812224	87	35283
2026-01-06 14:38:09.27	336.63	2.41	-59.7	-79.1	3.8	7.49e-01	0	26	104	837812224	87	35195
2026-01-06 14:38:10.27	336.74	2.36	-59.7	-79.1	3.8	7.43e-01	0	26	104	837812224	87	35109
2026-01-06 14:38:11.27	336.85	2.32	-59.7	-79.1	3.8	7.47e-01	0	26	104	837812224	87	35178
2026-01-06 14:38:12.26	336.96	2.27	-59.7	-79.1	3.8	7.45e-01	0	26	104	837812224	87	35265
2026-01-06 14:38:13.27	337.08	2.22	-59.7	-79.1	3.8	7.47e-01	0	26	104	837812224	87	35195
2026-01-06 14:38:14.27	337.19	2.18	-59.7	-79.1	3.8	7.49e-01	0	26	104	837812224	87	35197
2026-01-06 14:38:15.28	337.30	2.13	-59.7	-79.1	3.8	7.43e-01	0	26	104	837812224	87	35211
2026-01-06 14:38:16.28	337.41	2.09	-59.7	-79.1	3.8	7.46e-01	0	26	104	837812224	87	35163
2026-01-06 14:38:17.28	337.52	2.04	-59.7	-79.1	3.8	7.43e-01	0	26	104	837812224	87	35135
2026-01-06 14:38:18.29	337.63	2.00	-59.7	-79.1	3.8	7.47e-01	0	26	104	837812224	87	35077

#Closed at: 2026-01-06 14:38:19
#Recorded file [837 MB]: D:/lorett/data/31004_260106_172847.dat