passes_logs/2026/01/06/R3.2S_Murmansk/R3.2S_Murmansk__20260106_062132_AQUA_rec.log

#Pass ID: 20260106_062132_AQUA
#Satellite: AQUA
#Configuration: AQUA
#almurnet v.1.7.20251203
#Start time: 2026-01-06 06:21:34

#Version: 2.2.20231116
#Station: R3.2S_Murmansk
#Location: 33.079688 lon 68.888172 lat
#TLE: 1 27424U 02022A   26004.96787593  .00001598  00000+0  32997-3 0  9996
#TLE: 2 27424  98.4069 331.2279 0002002  90.2377   0.6092 14.61798176259425

#Time	Az	El	Level	Level2	SNR	BER	BlckErr	Temp	State	Recorded	gain1	gain2
2026-01-06 06:21:34.46	51.07	2.12	-57.4	-76.7	3.8	7.48e-01	0	24	0	0	83	33431
2026-01-06 06:21:35.47	50.99	2.17	-57.4	-76.7	3.8	7.44e-01	0	24	104	0	82	35597
2026-01-06 06:21:36.46	50.91	2.23	-57.4	-76.7	3.8	7.47e-01	0	24	104	0	82	35585
2026-01-06 06:21:37.46	50.83	2.29	-57.4	-76.7	3.8	7.47e-01	0	24	104	0	82	35328
2026-01-06 06:21:38.46	50.75	2.34	-57.4	-76.7	3.8	7.44e-01	0	24	104	0	82	35554
2026-01-06 06:21:39.46	50.67	2.40	-57.3	-76.7	3.8	7.49e-01	0	24	104	0	82	35461
2026-01-06 06:21:40.45	50.59	2.46	-57.4	-76.7	3.8	7.46e-01	0	24	104	0	82	35519
2026-01-06 06:21:41.45	50.50	2.51	-57.4	-76.7	3.8	7.46e-01	0	24	104	0	82	35463
2026-01-06 06:21:42.45	50.42	2.57	-57.4	-76.7	3.8	7.48e-01	0	24	104	0	82	35548
2026-01-06 06:21:43.45	50.34	2.63	-57.4	-76.7	3.8	7.46e-01	0	24	104	0	82	35659
2026-01-06 06:21:44.45	50.25	2.69	-57.4	-76.7	3.8	7.45e-01	0	24	104	0	82	35601
2026-01-06 06:21:45.45	50.17	2.74	-57.4	-76.8	3.8	7.45e-01	0	24	104	0	82	35699
2026-01-06 06:21:46.46	50.08	2.80	-57.4	-76.8	3.8	7.45e-01	0	24	104	0	82	35730
2026-01-06 06:21:47.46	50.00	2.86	-57.4	-76.7	3.8	7.48e-01	0	24	104	0	82	35691
2026-01-06 06:21:48.46	49.91	2.92	-57.4	-76.7	3.8	7.44e-01	0	24	104	0	82	35529
2026-01-06 06:21:49.47	49.83	2.97	-57.4	-76.6	3.8	7.46e-01	0	24	104	0	82	34944
2026-01-06 06:21:50.47	49.74	3.03	-57.3	-76.5	3.8	7.46e-01	0	24	104	0	82	34622
2026-01-06 06:21:51.47	49.65	3.09	-57.4	-76.4	3.8	7.44e-01	0	24	104	0	82	34226
2026-01-06 06:21:52.47	49.57	3.15	-57.3	-76.3	3.8	7.47e-01	0	24	104	0	82	34084
2026-01-06 06:21:53.48	49.48	3.21	-57.4	-76.4	3.8	7.46e-01	0	24	104	0	82	34260
2026-01-06 06:21:54.48	49.39	3.27	-57.4	-76.4	3.8	7.47e-01	0	25	104	0	82	34198
2026-01-06 06:21:55.48	49.30	3.32	-57.4	-76.4	3.8	7.46e-01	0	25	104	0	82	34433
2026-01-06 06:21:56.48	49.21	3.38	-57.4	-76.5	3.8	7.49e-01	0	25	104	0	82	34655
2026-01-06 06:21:57.48	49.12	3.44	-57.4	-76.6	3.8	7.48e-01	0	25	104	0	82	34987
2026-01-06 06:21:58.48	49.04	3.50	-57.4	-76.6	3.8	7.46e-01	0	25	104	0	82	35215
2026-01-06 06:21:59.49	48.94	3.56	-57.4	-76.7	3.8	7.47e-01	0	25	104	0	82	35396
2026-01-06 06:22:00.48	48.86	3.62	-57.4	-76.7	3.8	7.45e-01	0	25	104	0	82	35547
2026-01-06 06:22:01.49	48.76	3.67	-57.4	-76.6	3.8	7.47e-01	0	25	104	0	82	35259
2026-01-06 06:22:02.49	48.67	3.73	-57.4	-76.6	3.8	7.45e-01	0	25	104	0	82	35078
2026-01-06 06:22:03.49	48.58	3.79	-57.4	-76.4	3.8	7.45e-01	0	25	104	0	82	34379
2026-01-06 06:22:04.49	48.49	3.85	-57.4	-76.5	3.8	7.47e-01	0	25	104	0	82	34664
2026-01-06 06:22:05.49	48.40	3.91	-57.4	-76.6	3.8	7.45e-01	0	25	104	0	82	34938
2026-01-06 06:22:06.49	48.30	3.97	-57.4	-76.5	3.8	7.46e-01	0	25	104	0	82	34807
2026-01-06 06:22:07.49	48.21	4.03	-57.4	-76.4	3.8	7.43e-01	0	25	104	0	82	34255
2026-01-06 06:22:08.49	48.12	4.09	-57.4	-75.9	3.8	7.45e-01	0	25	104	0	82	32511
2026-01-06 06:22:09.50	48.02	4.15	-57.4	-75.4	3.8	7.44e-01	0	25	104	0	82	30564
2026-01-06 06:22:10.50	47.93	4.21	-57.3	-76.5	3.8	7.49e-01	0	25	104	0	82	34693
2026-01-06 06:22:11.50	47.83	4.27	-57.3	-76.5	3.8	7.48e-01	0	25	104	0	82	34790
2026-01-06 06:22:12.50	47.74	4.33	-57.4	-76.6	3.8	7.44e-01	0	25	104	0	82	35096
2026-01-06 06:22:13.50	47.64	4.39	-57.4	-76.7	3.8	7.47e-01	0	25	104	0	82	35559
2026-01-06 06:22:14.51	47.55	4.45	-57.4	-76.8	3.8	7.48e-01	0	25	104	0	82	35775
2026-01-06 06:22:15.51	47.45	4.51	-57.4	-76.6	3.8	7.45e-01	0	25	104	0	82	34947
2026-01-06 06:22:16.52	47.35	4.57	-57.3	-76.0	3.8	7.44e-01	0	25	104	0	82	32686
2026-01-06 06:22:17.52	47.25	4.63	-57.2	-75.4	3.8	7.49e-01	0	25	104	0	82	30591
2026-01-06 06:22:18.53	47.16	4.69	-57.0	-74.2	3.8	7.47e-01	0	25	104	0	82	26588
2026-01-06 06:22:19.53	47.06	4.75	-56.7	-73.2	3.9	7.46e-01	0	25	104	0	82	23802
2026-01-06 06:22:20.53	46.96	4.81	-56.5	-72.4	3.8	7.44e-01	0	25	104	0	82	21621
2026-01-06 06:22:21.54	46.86	4.87	-56.2	-71.5	3.9	7.45e-01	0	25	104	0	81	20684
2026-01-06 06:22:22.53	46.76	4.93	-56.1	-71.2	3.9	7.43e-01	0	25	104	0	81	19869
2026-01-06 06:22:23.53	46.66	4.99	-55.7	-70.2	3.8	7.43e-01	0	25	104	0	80	18794
2026-01-06 06:22:24.54	46.56	5.05	-55.8	-70.3	3.9	7.45e-01	0	25	104	0	80	19129
2026-01-06 06:22:25.53	46.46	5.11	-56.2	-71.4	3.8	7.46e-01	0	25	104	0	80	21722
2026-01-06 06:22:26.53	46.36	5.17	-55.7	-70.1	3.9	7.44e-01	0	25	104	0	80	18687
2026-01-06 06:22:27.53	46.25	5.23	-54.4	-67.3	4.0	7.37e-01	0	25	104	0	78	15141
2026-01-06 06:22:28.54	46.15	5.29	-56.0	-70.6	3.8	7.42e-01	0	25	104	0	79	20808
2026-01-06 06:22:29.53	46.05	5.35	-55.7	-70.0	3.9	7.45e-01	0	25	104	0	80	18483
2026-01-06 06:22:30.53	45.94	5.41	-52.6	-64.7	3.9	7.48e-01	0	25	104	0	74	14149
2026-01-06 06:22:31.54	45.84	5.47	-52.2	-64.3	3.8	7.46e-01	0	25	104	0	73	14221
2026-01-06 06:22:32.54	45.73	5.53	-56.4	-71.2	3.8	7.44e-01	0	25	104	0	80	21217
2026-01-06 06:22:33.54	45.63	5.59	-55.4	-69.2	3.9	7.47e-01	0	25	104	0	80	16787
2026-01-06 06:22:34.54	45.52	5.66	-55.9	-70.3	3.8	7.47e-01	0	25	104	0	79	20300
2026-01-06 06:22:35.54	45.42	5.72	-56.1	-70.7	3.8	7.46e-01	0	25	104	0	81	18945
2026-01-06 06:22:36.54	45.31	5.78	-53.6	-66.1	3.9	7.45e-01	0	25	104	0	76	14760
2026-01-06 06:22:37.54	45.20	5.84	-52.8	-65.0	3.9	7.43e-01	0	25	104	0	74	14663
2026-01-06 06:22:38.53	45.10	5.90	-52.7	-64.8	3.9	7.46e-01	0	25	104	0	74	14332
2026-01-06 06:22:39.53	44.99	5.96	-52.0	-63.9	3.8	7.46e-01	0	25	104	0	73	13699
2026-01-06 06:22:40.52	44.88	6.02	-51.3	-63.0	3.9	7.45e-01	0	25	104	0	71	13848
2026-01-06 06:22:41.52	44.77	6.08	-52.0	-63.9	3.8	7.46e-01	0	25	104	0	71	15267
2026-01-06 06:22:42.53	44.66	6.15	-55.8	-70.1	3.8	7.46e-01	0	25	104	0	79	19625
2026-01-06 06:22:43.53	44.55	6.21	-56.0	-70.6	3.9	7.43e-01	0	25	104	0	81	18539
2026-01-06 06:22:44.53	44.44	6.27	-53.4	-65.9	3.9	7.50e-01	0	25	104	0	76	14375
2026-01-06 06:22:45.53	44.33	6.33	-52.5	-64.6	3.8	7.45e-01	0	25	104	0	74	13957
2026-01-06 06:22:46.54	44.22	6.39	-52.6	-64.7	3.8	7.47e-01	0	25	104	0	74	14115
2026-01-06 06:22:47.54	44.11	6.46	-52.5	-64.5	3.8	7.43e-01	0	25	104	0	74	13884
2026-01-06 06:22:48.54	43.99	6.52	-51.6	-63.4	3.8	7.45e-01	0	25	104	0	72	13595
2026-01-06 06:22:49.54	43.88	6.58	-52.2	-64.2	3.8	7.50e-01	0	25	104	0	72	14915
2026-01-06 06:22:50.53	43.77	6.64	-55.8	-70.0	3.8	7.46e-01	0	25	104	0	79	19486
2026-01-06 06:22:51.53	43.65	6.70	-56.0	-70.5	3.8	7.46e-01	0	25	104	0	81	18370
2026-01-06 06:22:52.53	43.54	6.77	-53.4	-65.8	3.8	7.43e-01	0	25	104	0	76	14256
2026-01-06 06:22:53.53	43.42	6.83	-52.5	-64.5	3.8	7.43e-01	0	25	104	0	73	14682
2026-01-06 06:22:54.53	43.31	6.89	-52.5	-64.5	3.8	7.48e-01	0	25	104	0	73	14660
2026-01-06 06:22:55.53	43.19	6.95	-52.3	-64.2	3.8	7.46e-01	0	25	104	0	73	14197
2026-01-06 06:22:56.53	43.07	7.02	-51.6	-63.4	3.8	7.44e-01	0	25	104	0	72	13584
2026-01-06 06:22:57.53	42.95	7.08	-52.2	-64.2	3.8	7.46e-01	0	25	104	0	72	14929
2026-01-06 06:22:58.53	42.84	7.14	-55.8	-69.8	3.8	7.51e-01	0	25	104	0	79	19055
2026-01-06 06:22:59.53	42.72	7.21	-56.2	-70.7	3.9	7.45e-01	0	25	104	0	81	18801
2026-01-06 06:23:00.53	42.60	7.27	-53.6	-66.0	3.9	7.47e-01	0	25	104	0	76	14704
2026-01-06 06:23:01.54	42.48	7.33	-52.9	-65.1	3.8	7.46e-01	0	25	104	0	74	14827
2026-01-06 06:23:02.54	42.36	7.39	-52.8	-65.0	3.8	7.44e-01	0	25	104	0	74	14586
2026-01-06 06:23:03.53	42.24	7.46	-52.1	-64.1	3.8	7.45e-01	0	25	104	0	73	13888
2026-01-06 06:23:04.54	42.11	7.52	-51.5	-63.3	3.9	7.45e-01	0	25	104	0	72	13485
2026-01-06 06:23:05.54	41.99	7.58	-52.3	-64.3	3.8	7.44e-01	0	25	104	0	72	15103
2026-01-06 06:23:06.53	41.87	7.65	-55.9	-69.9	3.8	7.45e-01	0	25	104	0	79	19171
2026-01-06 06:23:07.53	41.75	7.71	-56.2	-70.7	3.9	7.49e-01	0	25	104	0	81	18849
2026-01-06 06:23:08.53	41.62	7.77	-53.6	-66.0	3.9	7.44e-01	0	26	104	0	76	14550
2026-01-06 06:23:09.52	41.50	7.84	-52.9	-65.0	3.8	7.45e-01	0	25	104	0	74	14573
2026-01-06 06:23:10.51	41.37	7.90	-52.6	-64.6	3.8	7.44e-01	0	25	104	0	74	14030
2026-01-06 06:23:11.50	41.25	7.96	-52.4	-64.3	3.8	7.45e-01	0	25	104	0	73	14334
2026-01-06 06:23:12.50	41.12	8.03	-51.5	-63.3	3.8	7.46e-01	0	25	104	0	72	13427
2026-01-06 06:23:13.50	41.00	8.09	-51.9	-63.6	3.8	7.45e-01	0	25	104	0	71	14845
2026-01-06 06:23:14.49	40.87	8.15	-55.4	-68.8	3.8	7.50e-01	0	25	104	0	78	17894
2026-01-06 06:23:15.50	40.74	8.22	-56.2	-70.7	3.9	7.44e-01	0	25	104	0	81	18820
2026-01-06 06:23:16.49	40.61	8.28	-53.7	-65.9	3.8	7.44e-01	0	26	104	0	76	14508
2026-01-06 06:23:17.49	40.48	8.34	-52.4	-64.4	3.8	7.48e-01	0	25	104	0	73	14405
2026-01-06 06:23:18.49	40.35	8.41	-52.2	-64.1	3.8	7.46e-01	0	25	104	0	73	13905
2026-01-06 06:23:19.50	40.22	8.47	-52.1	-64.0	3.8	7.44e-01	0	25	104	0	73	13832
2026-01-06 06:23:20.50	40.09	8.54	-51.9	-63.7	3.8	7.50e-01	0	25	104	0	72	14058
2026-01-06 06:23:21.50	39.96	8.60	-52.6	-64.6	3.8	7.45e-01	0	25	104	0	72	15753
2026-01-06 06:23:22.50	39.82	8.66	-55.4	-68.7	3.9	7.44e-01	0	26	104	0	78	17841
2026-01-06 06:23:23.49	39.69	8.73	-56.3	-70.5	3.9	7.43e-01	0	26	104	0	81	18421
2026-01-06 06:23:24.49	39.56	8.79	-53.9	-66.4	3.9	7.46e-01	0	26	104	0	77	14495
2026-01-06 06:23:25.49	39.42	8.85	-52.4	-64.3	3.8	7.45e-01	0	25	104	0	73	14322
2026-01-06 06:23:26.49	39.29	8.92	-52.3	-64.2	3.8	7.47e-01	0	25	104	0	73	14185
2026-01-06 06:23:27.50	39.15	8.98	-51.6	-63.3	3.8	7.47e-01	0	26	104	0	72	13507
2026-01-06 06:23:28.49	39.01	9.05	-51.1	-62.8	3.8	7.47e-01	0	26	104	0	71	13495
2026-01-06 06:23:29.49	38.87	9.11	-51.8	-63.6	3.8	7.45e-01	0	26	104	0	71	14719
2026-01-06 06:23:30.49	38.74	9.18	-55.3	-68.7	3.8	7.49e-01	0	25	104	0	78	17687
2026-01-06 06:23:31.49	38.60	9.24	-56.3	-70.5	3.9	7.46e-01	0	26	104	0	81	18372
2026-01-06 06:23:32.49	38.46	9.30	-53.8	-66.3	3.8	7.44e-01	0	26	104	0	77	14329
2026-01-06 06:23:33.49	38.32	9.37	-52.2	-64.1	3.8	7.44e-01	0	26	104	0	73	14003
2026-01-06 06:23:34.48	38.18	9.43	-52.1	-64.0	3.9	7.42e-01	0	25	104	0	73	13759
2026-01-06 06:23:35.49	38.04	9.50	-52.1	-63.8	3.8	7.45e-01	0	26	104	0	73	13518
2026-01-06 06:23:36.48	37.89	9.56	-52.2	-64.0	3.8	7.46e-01	0	25	104	0	73	13813
2026-01-06 06:23:37.48	37.75	9.63	-53.7	-66.3	3.9	7.43e-01	0	26	104	0	75	16039
2026-01-06 06:23:38.48	37.61	9.69	-55.5	-68.9	3.8	7.47e-01	0	26	104	0	79	17117
2026-01-06 06:23:39.47	37.47	9.75	-55.7	-69.2	3.9	7.47e-01	0	26	104	0	80	16867
2026-01-06 06:23:40.47	37.32	9.82	-55.1	-68.2	3.8	7.49e-01	0	26	104	0	77	17741
2026-01-06 06:23:41.47	37.17	9.88	-55.6	-69.2	3.9	7.43e-01	0	25	104	0	80	16862
2026-01-06 06:23:42.46	37.03	9.95	-52.8	-64.5	3.8	7.46e-01	0	25	104	0	74	13866
2026-01-06 06:23:43.46	36.88	10.01	-52.3	-64.1	3.8	7.45e-01	0	26	104	0	73	14046
2026-01-06 06:23:44.45	36.74	10.08	-52.0	-63.8	3.8	7.47e-01	0	26	104	0	72	14245
2026-01-06 06:23:45.45	36.59	10.14	-53.9	-66.4	3.8	7.43e-01	0	26	104	0	77	14409
2026-01-06 06:23:46.45	36.44	10.21	-54.8	-67.7	3.8	7.46e-01	0	26	104	0	77	16757
2026-01-06 06:23:47.43	36.29	10.27	-56.5	-71.0	3.8	7.47e-01	0	26	104	0	82	18364
2026-01-06 06:23:48.44	36.14	10.33	-54.4	-67.1	3.9	7.46e-01	0	26	104	0	78	14872
2026-01-06 06:23:49.42	35.99	10.40	-51.9	-63.7	3.9	7.42e-01	0	26	104	0	72	14176
2026-01-06 06:23:50.42	35.84	10.46	-51.9	-63.7	3.8	7.44e-01	0	26	104	0	72	14172
2026-01-06 06:23:51.42	35.68	10.53	-51.2	-62.8	3.8	7.43e-01	0	26	104	0	71	13540
2026-01-06 06:23:52.42	35.53	10.59	-50.6	-62.1	3.8	7.44e-01	0	26	104	0	70	13258
2026-01-06 06:23:53.42	35.38	10.66	-51.2	-62.8	3.8	7.43e-01	0	26	104	0	70	14223
2026-01-06 06:23:54.42	35.22	10.72	-54.6	-67.3	3.8	7.43e-01	0	26	104	0	76	16906
2026-01-06 06:23:55.42	35.07	10.79	-56.2	-70.4	3.9	7.44e-01	0	26	104	0	81	18106
2026-01-06 06:23:56.42	34.91	10.85	-54.3	-67.0	3.9	7.44e-01	0	26	104	0	78	14672
2026-01-06 06:23:57.42	34.75	10.91	-51.1	-62.7	3.8	7.45e-01	0	26	104	0	71	13335
2026-01-06 06:23:58.41	34.59	10.98	-50.9	-62.4	3.8	7.45e-01	0	26	104	0	71	12937
2026-01-06 06:23:59.41	34.44	11.04	-50.5	-62.0	3.9	7.45e-01	0	26	104	0	70	12961
2026-01-06 06:24:00.40	34.28	11.11	-50.2	-61.6	3.8	7.44e-01	0	26	104	0	69	13248
2026-01-06 06:24:01.39	34.12	11.17	-50.8	-62.3	3.8	7.46e-01	0	25	104	0	69	14285
2026-01-06 06:24:02.39	33.96	11.24	-54.1	-66.5	3.8	7.45e-01	0	26	104	0	75	16466
2026-01-06 06:24:03.38	33.80	11.30	-56.5	-71.1	3.9	7.39e-01	0	26	104	0	82	18538
2026-01-06 06:24:04.38	33.63	11.36	-54.3	-67.3	3.9	7.44e-01	0	26	104	0	78	15109
2026-01-06 06:24:05.37	33.47	11.43	-51.5	-63.1	3.8	7.47e-01	0	26	104	0	71	14015
2026-01-06 06:24:06.38	33.30	11.49	-51.6	-63.2	3.8	7.45e-01	0	26	104	0	71	14123
2026-01-06 06:24:07.37	33.14	11.56	-51.0	-62.5	3.9	7.46e-01	0	26	104	0	71	13086
2026-01-06 06:24:08.37	32.98	11.62	-50.4	-61.9	3.8	7.43e-01	0	25	104	0	70	12859
2026-01-06 06:24:09.37	32.81	11.69	-50.7	-62.2	3.9	7.48e-01	0	26	104	0	69	14202
2026-01-06 06:24:10.37	32.64	11.75	-54.0	-66.4	3.8	7.45e-01	0	26	104	0	75	16186
2026-01-06 06:24:11.37	32.47	11.81	-56.5	-71.1	3.9	7.45e-01	0	26	104	0	82	18644
2026-01-06 06:24:12.37	32.30	11.88	-55.0	-68.0	3.9	7.43e-01	0	26	104	0	79	15437
2026-01-06 06:24:13.35	32.14	11.94	-51.4	-63.0	3.8	7.49e-01	0	26	104	0	71	13795
2026-01-06 06:24:14.35	31.97	12.01	-51.4	-63.0	3.9	7.46e-01	0	26	104	0	71	13773
2026-01-06 06:24:15.35	31.79	12.07	-51.3	-62.8	3.8	7.47e-01	0	26	104	0	71	13539
2026-01-06 06:24:16.35	31.62	12.13	-51.6	-63.3	3.9	7.44e-01	0	26	104	0	71	14215
2026-01-06 06:24:17.34	31.45	12.20	-52.3	-64.2	3.9	7.46e-01	0	26	104	0	73	14106
2026-01-06 06:24:18.34	31.27	12.26	-53.7	-66.2	3.9	7.47e-01	0	26	104	0	75	15827
2026-01-06 06:24:19.34	31.10	12.32	-56.8	-71.4	3.9	7.42e-01	0	26	104	0	82	19270
2026-01-06 06:24:20.34	30.92	12.39	-55.6	-69.0	3.9	7.47e-01	0	26	104	0	80	16316
2026-01-06 06:24:21.33	30.75	12.45	-51.3	-63.0	3.9	7.44e-01	0	26	104	0	71	13790
2026-01-06 06:24:22.33	30.57	12.51	-51.4	-63.0	3.8	7.48e-01	0	26	104	0	71	13814
2026-01-06 06:24:23.33	30.39	12.58	-50.8	-62.3	3.9	7.42e-01	0	26	104	0	70	13483
2026-01-06 06:24:24.33	30.21	12.64	-50.5	-62.0	3.9	7.42e-01	0	26	104	0	70	13023
2026-01-06 06:24:25.31	30.04	12.70	-50.8	-62.3	3.9	7.39e-01	0	26	104	0	69	14291
2026-01-06 06:24:26.32	29.86	12.77	-54.8	-67.6	3.9	7.48e-01	0	26	104	0	78	15753
2026-01-06 06:24:27.32	29.67	12.83	-56.0	-69.7	3.9	7.46e-01	0	26	104	0	81	16766
2026-01-06 06:24:28.31	29.49	12.89	-52.7	-64.9	3.8	7.47e-01	0	26	104	0	73	15357
2026-01-06 06:24:29.31	29.31	12.96	-57.0	-72.2	3.9	7.43e-01	0	26	104	0	83	19924
2026-01-06 06:24:30.31	29.12	13.02	-51.5	-63.2	3.9	7.46e-01	0	26	104	0	72	13301
2026-01-06 06:24:31.31	28.94	13.08	-51.3	-62.8	3.9	7.44e-01	0	26	104	0	71	13564
2026-01-06 06:24:32.30	28.76	13.14	-51.2	-62.8	3.8	7.46e-01	0	26	104	0	71	13449
2026-01-06 06:24:33.31	28.57	13.21	-55.5	-68.8	3.8	7.46e-01	0	26	104	0	80	16017
2026-01-06 06:24:34.29	28.38	13.27	-53.4	-65.5	3.8	7.46e-01	0	26	104	0	75	14556
2026-01-06 06:24:35.30	28.19	13.33	-57.1	-72.5	3.9	7.46e-01	0	26	104	0	83	20556
2026-01-06 06:24:36.29	28.01	13.39	-56.2	-69.9	3.9	7.44e-01	0	26	104	0	81	17254
2026-01-06 06:24:37.29	27.81	13.46	-51.0	-62.6	3.8	7.49e-01	0	26	104	0	71	13136
2026-01-06 06:24:38.29	27.62	13.52	-51.0	-62.5	3.8	7.41e-01	0	26	104	0	71	13068
2026-01-06 06:24:39.28	27.43	13.58	-50.8	-62.2	3.9	7.48e-01	0	26	104	0	70	13375
2026-01-06 06:24:40.28	27.24	13.64	-50.3	-61.6	3.8	7.45e-01	0	26	104	0	69	13231
2026-01-06 06:24:41.28	27.05	13.70	-50.6	-62.1	3.9	7.46e-01	0	26	104	0	69	13960
2026-01-06 06:24:42.27	26.85	13.76	-53.2	-65.6	3.8	7.44e-01	0	26	104	0	74	15608
2026-01-06 06:24:43.27	26.66	13.83	-57.0	-72.3	3.9	7.43e-01	0	26	104	0	83	20111
2026-01-06 06:24:44.26	26.46	13.89	-56.1	-70.0	3.9	7.44e-01	0	26	104	0	81	17334
2026-01-06 06:24:45.25	26.27	13.95	-50.9	-62.5	3.9	7.45e-01	0	26	104	0	70	13746
2026-01-06 06:24:46.26	26.07	14.01	-51.0	-62.5	3.9	7.48e-01	0	26	104	0	70	13815
2026-01-06 06:24:47.25	25.87	14.07	-50.5	-62.0	3.9	7.43e-01	0	26	104	0	70	12963
2026-01-06 06:24:48.25	25.67	14.13	-50.3	-61.7	3.9	7.46e-01	0	26	104	0	69	13282
2026-01-06 06:24:49.24	25.47	14.19	-51.1	-62.7	3.9	7.44e-01	0	26	104	0	69	14924
2026-01-06 06:24:50.24	25.27	14.25	-52.9	-64.9	3.9	7.48e-01	0	26	104	0	73	15350
2026-01-06 06:24:51.23	25.07	14.31	-57.3	-73.1	3.9	7.48e-01	0	26	104	0	83	22187
2026-01-06 06:24:52.23	24.87	14.37	-56.8	-71.4	3.9	7.46e-01	0	26	104	0	82	19364
2026-01-06 06:24:53.22	24.67	14.43	-50.8	-62.3	3.9	7.46e-01	0	26	104	0	70	13422
2026-01-06 06:24:54.22	24.46	14.49	-50.8	-62.3	3.8	7.45e-01	0	26	104	0	70	13457
2026-01-06 06:24:55.22	24.25	14.55	-50.3	-61.7	3.9	7.43e-01	0	26	104	0	69	13296
2026-01-06 06:24:56.22	24.05	14.61	-49.9	-61.3	3.9	7.44e-01	0	26	104	0	69	12714
2026-01-06 06:24:57.22	23.84	14.66	-50.4	-61.8	3.9	7.43e-01	0	26	104	0	69	13506
2026-01-06 06:24:58.22	23.63	14.72	-53.0	-65.0	3.9	7.45e-01	0	26	104	0	73	15430
2026-01-06 06:24:59.21	23.42	14.78	-57.3	-72.9	3.9	7.42e-01	0	26	104	0	83	21585
2026-01-06 06:25:00.22	23.21	14.84	-56.8	-71.5	3.9	7.43e-01	0	26	104	0	82	19571
2026-01-06 06:25:01.21	23.00	14.90	-50.8	-62.3	3.8	7.48e-01	0	26	104	0	70	13498
2026-01-06 06:25:02.21	22.79	14.96	-50.8	-62.3	3.8	7.46e-01	0	26	104	0	70	13456
2026-01-06 06:25:03.21	22.57	15.01	-50.3	-61.7	3.9	7.47e-01	0	26	104	0	69	13310
2026-01-06 06:25:04.21	22.36	15.07	-50.0	-61.4	3.9	7.43e-01	0	26	104	0	69	12862
2026-01-06 06:25:05.21	22.15	15.13	-50.3	-61.7	3.9	7.46e-01	0	26	104	0	69	13330
2026-01-06 06:25:06.21	21.93	15.19	-52.9	-64.9	3.9	7.46e-01	0	26	104	0	74	14493
2026-01-06 06:25:07.20	21.72	15.24	-57.4	-73.3	3.9	7.46e-01	0	26	104	0	83	22591
2026-01-06 06:25:08.20	21.50	15.30	-57.2	-72.4	3.9	7.42e-01	0	26	104	0	83	20390
2026-01-06 06:25:09.19	21.28	15.35	-50.7	-62.1	3.8	7.48e-01	0	26	104	0	70	13245
2026-01-06 06:25:10.19	21.06	15.41	-50.6	-62.0	3.9	7.42e-01	0	26	104	0	70	13071
2026-01-06 06:25:11.20	20.84	15.47	-50.6	-62.0	3.9	7.45e-01	0	26	104	0	70	13100
2026-01-06 06:25:12.20	20.62	15.52	-50.7	-62.2	3.9	7.49e-01	0	26	104	0	70	13325
2026-01-06 06:25:13.20	20.40	15.58	-50.9	-62.4	3.8	7.45e-01	0	26	104	0	70	13676
2026-01-06 06:25:14.19	20.18	15.63	-54.7	-67.3	3.8	7.45e-01	0	26	104	0	77	16036
2026-01-06 06:25:15.19	19.95	15.69	-56.7	-71.2	3.9	7.45e-01	0	26	104	0	81	19918
2026-01-06 06:25:16.18	19.73	15.74	-51.5	-63.1	3.9	7.47e-01	0	26	104	0	72	13166
2026-01-06 06:25:17.18	19.50	15.79	-57.3	-72.9	3.9	7.46e-01	0	26	104	0	83	21620
2026-01-06 06:25:18.17	19.28	15.85	-51.6	-63.2	3.8	7.47e-01	0	26	104	0	72	13408
2026-01-06 06:25:19.17	19.05	15.90	-51.1	-62.7	3.9	7.43e-01	0	26	104	0	71	13352
2026-01-06 06:25:20.16	18.83	15.95	-50.7	-62.1	3.9	7.45e-01	0	26	104	0	70	13221
2026-01-06 06:25:21.15	18.60	16.01	-54.4	-67.0	3.8	7.47e-01	0	26	104	0	77	15440
2026-01-06 06:25:22.15	18.37	16.06	-53.1	-65.0	3.9	7.45e-01	0	26	104	0	75	13883
2026-01-06 06:25:23.15	18.14	16.11	-57.6	-73.8	3.9	7.43e-01	0	26	104	0	83	23967
2026-01-06 06:25:24.16	17.90	16.16	-57.5	-73.2	3.9	7.42e-01	0	26	104	0	83	22339
2026-01-06 06:25:25.15	17.67	16.21	-50.6	-62.1	3.8	7.46e-01	0	26	104	0	70	13176
2026-01-06 06:25:26.15	17.44	16.26	-50.6	-62.0	3.9	7.45e-01	0	26	104	0	70	13006
2026-01-06 06:25:27.15	17.21	16.32	-50.2	-61.6	3.8	7.45e-01	0	26	104	0	69	13133
2026-01-06 06:25:28.15	16.97	16.37	-50.0	-61.3	3.8	7.49e-01	0	26	104	0	69	12710
2026-01-06 06:25:29.14	16.74	16.42	-50.3	-61.7	3.9	7.45e-01	0	26	104	0	69	13370
2026-01-06 06:25:30.14	16.50	16.47	-53.2	-65.3	3.8	7.49e-01	0	26	104	0	74	15105
2026-01-06 06:25:31.14	16.26	16.51	-57.5	-73.3	3.9	7.45e-01	0	26	104	0	83	22700
2026-01-06 06:25:32.13	16.03	16.56	-57.2	-72.5	3.9	7.46e-01	0	26	104	0	82	21760
2026-01-06 06:25:33.13	15.79	16.61	-51.2	-62.8	3.8	7.44e-01	0	26	104	0	71	13556
2026-01-06 06:25:34.13	15.55	16.66	-51.2	-62.8	3.8	7.43e-01	0	26	104	0	71	13520
2026-01-06 06:25:35.13	15.31	16.71	-51.1	-62.6	3.8	7.46e-01	0	26	104	0	71	13143
2026-01-06 06:25:36.13	15.06	16.76	-50.7	-62.1	3.8	7.44e-01	0	26	104	0	70	13258
2026-01-06 06:25:37.12	14.82	16.80	-50.5	-61.9	3.8	7.48e-01	0	26	104	0	70	12953
2026-01-06 06:25:38.12	14.58	16.85	-54.5	-67.0	3.8	7.41e-01	0	26	104	0	76	16361
2026-01-06 06:25:39.11	14.34	16.89	-57.0	-71.8	3.8	7.45e-01	0	26	104	0	82	20072
2026-01-06 06:25:40.11	14.09	16.94	-51.4	-63.0	3.9	7.45e-01	0	26	104	0	72	13007
2026-01-06 06:25:41.10	13.85	16.99	-57.6	-73.7	3.8	7.44e-01	0	26	104	0	83	23620
2026-01-06 06:25:42.09	13.61	17.03	-51.6	-63.2	3.8	7.41e-01	0	26	104	0	72	13326
2026-01-06 06:25:43.09	13.36	17.07	-51.7	-63.2	3.8	7.48e-01	0	26	104	0	72	13360
2026-01-06 06:25:44.08	13.11	17.12	-51.1	-62.6	3.9	7.48e-01	0	26	104	0	71	13241
2026-01-06 06:25:45.07	12.87	17.16	-55.1	-68.0	3.8	7.45e-01	0	26	104	0	78	16471
2026-01-06 06:25:46.06	12.62	17.20	-53.6	-65.7	3.9	7.46e-01	0	26	104	0	76	14113
2026-01-06 06:25:47.05	12.37	17.25	-57.8	-74.5	3.8	7.46e-01	0	26	104	0	83	25890
2026-01-06 06:25:48.05	12.12	17.29	-57.8	-74.2	3.8	7.45e-01	0	26	104	0	83	25045
2026-01-06 06:25:49.03	11.87	17.33	-50.5	-62.0	3.8	7.44e-01	0	26	104	0	70	12967
2026-01-06 06:25:50.02	11.62	17.37	-50.6	-62.0	3.8	7.47e-01	0	26	104	0	70	13099
2026-01-06 06:25:51.01	11.37	17.41	-50.3	-61.6	3.8	7.46e-01	0	26	104	0	69	13218
2026-01-06 06:25:52.01	11.12	17.45	-50.1	-61.5	3.9	7.44e-01	0	26	104	0	69	13086
2026-01-06 06:25:53.00	10.87	17.49	-50.8	-62.3	3.9	7.46e-01	0	26	104	0	69	14285
2026-01-06 06:25:53.99	10.61	17.53	-53.6	-65.9	3.8	7.47e-01	0	26	104	0	75	15301
2026-01-06 06:25:54.99	10.36	17.57	-57.8	-74.3	3.8	7.42e-01	0	26	104	0	83	25464
2026-01-06 06:25:55.97	10.11	17.61	-57.6	-73.4	3.8	7.46e-01	0	26	104	0	82	24331
2026-01-06 06:25:56.96	9.85	17.65	-51.1	-62.6	3.8	7.43e-01	0	26	104	0	71	13180
2026-01-06 06:25:57.95	9.59	17.68	-51.1	-62.6	3.8	7.46e-01	0	26	104	0	71	13205
2026-01-06 06:25:58.94	9.34	17.72	-51.0	-62.5	3.8	7.45e-01	0	26	104	0	71	13045
2026-01-06 06:25:59.94	9.08	17.76	-50.5	-62.0	3.8	7.46e-01	0	26	104	0	70	13006
2026-01-06 06:26:00.93	8.82	17.79	-50.5	-61.9	3.8	7.47e-01	0	26	104	0	69	13676
2026-01-06 06:26:01.93	8.56	17.83	-54.3	-66.8	3.8	7.44e-01	0	26	104	0	76	15998
2026-01-06 06:26:02.93	8.30	17.86	-57.3	-72.5	3.8	7.48e-01	0	26	104	0	82	21953
2026-01-06 06:26:03.92	8.04	17.90	-51.9	-63.6	3.8	7.47e-01	0	26	104	0	73	13169
2026-01-06 06:26:04.90	7.78	17.93	-57.5	-73.1	3.8	7.44e-01	0	26	104	0	82	23552
2026-01-06 06:26:05.90	7.52	17.96	-52.0	-63.6	3.8	7.48e-01	0	26	104	0	73	13212
2026-01-06 06:26:06.90	7.25	18.00	-51.6	-63.3	3.9	7.45e-01	0	26	104	0	72	13443
2026-01-06 06:26:07.90	6.99	18.03	-51.3	-62.8	3.9	7.48e-01	0	26	104	0	71	13559
2026-01-06 06:26:08.90	6.72	18.06	-57.8	-73.9	3.8	7.46e-01	0	26	104	0	83	24361
2026-01-06 06:26:09.91	6.45	18.09	-54.1	-66.4	3.9	7.45e-01	0	26	104	0	77	14469
2026-01-06 06:26:10.91	6.19	18.12	-57.8	-74.1	3.9	7.50e-01	0	26	104	0	83	24970
2026-01-06 06:26:11.93	5.91	18.15	-57.9	-74.4	3.8	7.48e-01	0	26	104	0	83	25675
2026-01-06 06:26:12.93	5.65	18.18	-50.6	-62.0	3.8	7.47e-01	0	26	104	0	70	13036
2026-01-06 06:26:13.93	5.38	18.21	-50.5	-61.9	3.8	7.41e-01	0	26	104	0	70	12917
2026-01-06 06:26:14.93	5.11	18.24	-50.3	-61.7	3.9	7.46e-01	0	26	104	0	69	13360
2026-01-06 06:26:15.94	4.84	18.27	-50.2	-61.6	3.9	7.44e-01	0	26	104	0	69	13114
2026-01-06 06:26:16.94	4.57	18.30	-51.1	-62.7	3.9	7.46e-01	0	26	104	0	69	14938
2026-01-06 06:26:17.95	4.29	18.32	-54.1	-66.5	3.8	7.46e-01	0	26	104	0	75	16383
2026-01-06 06:26:18.96	4.02	18.35	-57.4	-72.7	3.8	7.46e-01	0	26	104	0	82	22328
2026-01-06 06:26:19.95	3.75	18.37	-51.1	-62.6	3.8	7.47e-01	0	26	104	0	71	13114
2026-01-06 06:26:20.96	3.48	18.40	-57.7	-73.8	3.8	7.45e-01	0	26	104	0	83	23876
2026-01-06 06:26:21.96	3.21	18.42	-51.0	-62.5	3.9	7.45e-01	0	26	104	0	71	13033
2026-01-06 06:26:22.96	2.93	18.45	-51.0	-62.4	3.9	7.44e-01	0	26	104	0	71	12918
2026-01-06 06:26:23.97	2.66	18.47	-51.0	-62.4	3.8	7.45e-01	0	25	104	0	71	12926
2026-01-06 06:26:24.97	2.38	18.49	-57.9	-74.5	3.8	7.44e-01	0	26	104	0	83	25891
2026-01-06 06:26:25.97	2.11	18.51	-54.2	-66.6	3.9	7.43e-01	0	26	104	0	77	14787
2026-01-06 06:26:26.98	1.83	18.53	-57.8	-74.2	3.8	7.47e-01	0	26	104	0	83	25136
2026-01-06 06:26:27.99	1.55	18.55	-57.8	-74.0	3.8	7.47e-01	0	26	104	0	83	24477
2026-01-06 06:26:28.99	1.28	18.57	-51.0	-62.5	3.9	7.46e-01	0	26	104	0	71	13051
2026-01-06 06:26:29.98	1.01	18.59	-51.0	-62.5	3.8	7.46e-01	0	26	104	0	71	12995
2026-01-06 06:26:30.99	0.73	18.61	-51.1	-62.6	3.9	7.47e-01	0	26	104	0	71	13146
2026-01-06 06:26:32.00	0.45	18.63	-51.0	-62.4	3.9	7.42e-01	0	26	104	0	71	12919
2026-01-06 06:26:33.00	0.17	18.65	-51.2	-62.8	3.9	7.44e-01	0	26	104	0	70	14212
2026-01-06 06:26:34.00	359.89	18.66	-53.9	-66.3	3.8	7.47e-01	0	26	104	0	75	15945
2026-01-06 06:26:34.99	359.62	18.68	-57.4	-72.8	3.8	7.48e-01	0	26	104	0	82	22628
2026-01-06 06:26:35.99	359.34	18.69	-50.9	-62.4	3.9	7.43e-01	0	26	104	0	71	12852
2026-01-06 06:26:36.99	359.06	18.71	-57.6	-73.4	3.8	7.44e-01	0	26	104	0	82	24283
2026-01-06 06:26:37.99	358.79	18.72	-51.1	-62.6	3.8	7.45e-01	0	26	104	0	71	13240
2026-01-06 06:26:38.99	358.51	18.74	-51.1	-62.5	3.8	7.44e-01	0	26	104	0	71	13073
2026-01-06 06:26:39.99	358.23	18.75	-50.8	-62.2	3.8	7.47e-01	0	26	104	0	70	13379
2026-01-06 06:26:40.99	357.95	18.76	-58.4	-75.8	3.8	7.46e-01	0	26	104	0	84	28628
2026-01-06 06:26:41.99	357.67	18.77	-54.2	-66.6	3.9	7.49e-01	0	26	104	0	77	14735
2026-01-06 06:26:42.99	357.39	18.78	-57.8	-74.1	3.8	7.46e-01	0	26	104	0	83	24791
2026-01-06 06:26:43.99	357.11	18.79	-57.9	-74.2	3.8	7.44e-01	0	26	104	0	83	25025
2026-01-06 06:26:44.98	356.84	18.80	-50.9	-62.4	3.8	7.46e-01	0	26	104	0	71	12881
2026-01-06 06:26:45.98	356.56	18.81	-51.0	-62.4	3.9	7.45e-01	0	26	104	0	71	12895
2026-01-06 06:26:46.99	356.27	18.82	-50.7	-62.2	3.8	7.42e-01	0	26	104	0	70	13346
2026-01-06 06:26:47.98	355.99	18.82	-50.8	-62.2	3.8	7.46e-01	0	26	104	0	70	13398
2026-01-06 06:26:48.97	355.72	18.83	-50.8	-62.2	3.8	7.46e-01	0	26	104	0	70	13357
2026-01-06 06:26:49.97	355.44	18.84	-53.8	-66.0	3.9	7.46e-01	0	26	104	0	75	15528
2026-01-06 06:26:50.96	355.16	18.84	-57.5	-73.2	3.8	7.49e-01	0	26	104	0	82	23748
2026-01-06 06:26:51.95	354.88	18.84	-51.3	-62.8	3.9	7.48e-01	0	26	104	0	71	13472
2026-01-06 06:26:52.95	354.60	18.85	-57.5	-73.0	3.8	7.46e-01	0	26	104	0	82	23285
2026-01-06 06:26:53.95	354.32	18.85	-51.3	-62.5	3.9	7.44e-01	0	26	104	0	71	13030
2026-01-06 06:26:54.95	354.04	18.85	-51.2	-62.7	3.8	7.47e-01	0	26	104	0	71	13292
2026-01-06 06:26:55.94	353.76	18.86	-50.7	-62.1	3.8	7.49e-01	0	26	104	0	70	13171
2026-01-06 06:26:56.94	353.48	18.86	-55.9	-69.4	3.8	7.46e-01	0	26	104	0	79	18126
2026-01-06 06:26:57.93	353.20	18.86	-53.7	-66.1	3.8	7.46e-01	0	26	104	0	75	15734
2026-01-06 06:26:58.92	352.92	18.86	-57.6	-73.3	3.8	7.45e-01	0	26	104	0	82	23887
2026-01-06 06:26:59.91	352.64	18.86	-50.8	-62.3	3.9	7.45e-01	0	26	104	0	70	13458
2026-01-06 06:27:00.92	352.36	18.85	-57.5	-73.1	3.8	7.47e-01	0	26	104	0	82	23317
2026-01-06 06:27:01.91	352.08	18.85	-50.7	-62.1	3.8	7.44e-01	0	26	104	0	70	13216
2026-01-06 06:27:02.91	351.80	18.85	-50.4	-61.8	3.9	7.45e-01	0	26	104	0	70	12750
2026-01-06 06:27:03.91	351.52	18.84	-50.3	-61.7	3.9	7.44e-01	0	26	104	0	69	13341
2026-01-06 06:27:04.90	351.24	18.84	-56.4	-70.2	3.9	7.49e-01	0	26	104	0	80	18851
2026-01-06 06:27:05.89	350.97	18.83	-54.0	-66.1	3.9	7.44e-01	0	26	104	0	77	13937
2026-01-06 06:27:06.88	350.69	18.83	-57.5	-73.0	3.8	7.44e-01	0	26	104	0	82	23190
2026-01-06 06:27:07.89	350.40	18.82	-51.0	-62.5	3.8	7.43e-01	0	26	104	0	71	13096
2026-01-06 06:27:08.88	350.13	18.82	-57.4	-72.5	3.8	7.49e-01	0	26	104	0	82	21900
2026-01-06 06:27:09.88	349.85	18.81	-50.8	-62.2	3.9	7.48e-01	0	26	104	0	70	13347
2026-01-06 06:27:10.87	349.57	18.80	-50.7	-62.0	3.8	7.46e-01	0	26	104	0	70	13108
2026-01-06 06:27:11.87	349.29	18.79	-50.5	-61.8	3.8	7.48e-01	0	26	104	0	70	12702
2026-01-06 06:27:12.88	349.01	18.78	-55.6	-68.6	3.8	7.48e-01	0	26	104	0	78	17672
2026-01-06 06:27:13.87	348.73	18.77	-53.9	-66.0	3.9	7.47e-01	0	26	104	0	77	13828
2026-01-06 06:27:14.87	348.45	18.76	-57.6	-73.2	3.8	7.46e-01	0	26	104	0	82	23706
2026-01-06 06:27:15.86	348.18	18.75	-51.6	-63.3	3.8	7.44e-01	0	26	104	0	72	13442
2026-01-06 06:27:16.87	347.89	18.73	-57.3	-72.4	3.8	7.43e-01	0	26	104	0	82	21646
2026-01-06 06:27:17.85	347.62	18.72	-51.5	-63.1	3.8	7.45e-01	0	26	104	0	72	13144
2026-01-06 06:27:18.86	347.34	18.71	-51.3	-62.8	3.9	7.45e-01	0	26	104	0	71	13553
2026-01-06 06:27:19.86	347.06	18.69	-50.8	-62.3	3.9	7.49e-01	0	26	104	0	70	13475
2026-01-06 06:27:20.85	346.79	18.68	-56.9	-71.3	3.8	7.46e-01	0	26	104	0	81	20142
2026-01-06 06:27:21.85	346.51	18.66	-55.0	-67.8	3.8	7.49e-01	0	26	104	0	79	15168
2026-01-06 06:27:22.84	346.24	18.65	-57.6	-73.2	3.8	7.48e-01	0	26	104	0	82	23600
2026-01-06 06:27:23.84	345.96	18.63	-57.9	-74.0	3.8	7.47e-01	0	26	104	0	83	24669
2026-01-06 06:27:24.84	345.68	18.61	-50.9	-62.3	3.8	7.44e-01	0	26	104	0	71	12810
2026-01-06 06:27:25.84	345.41	18.59	-50.8	-62.3	3.8	7.48e-01	0	26	104	0	70	13479
2026-01-06 06:27:26.84	345.13	18.57	-50.8	-62.2	3.8	7.45e-01	0	26	104	0	70	13375
2026-01-06 06:27:27.84	344.86	18.55	-50.7	-62.1	3.8	7.44e-01	0	26	104	0	70	13195
2026-01-06 06:27:28.84	344.58	18.53	-51.7	-63.4	3.8	7.41e-01	0	26	104	0	71	14425
2026-01-06 06:27:29.84	344.31	18.51	-53.1	-65.0	3.8	7.45e-01	0	26	104	0	73	15486
2026-01-06 06:27:30.84	344.03	18.49	-57.5	-73.0	3.8	7.49e-01	0	26	104	0	82	23130
2026-01-06 06:27:31.84	343.76	18.47	-50.8	-62.3	3.9	7.47e-01	0	26	104	0	70	13421
2026-01-06 06:27:32.83	343.49	18.45	-57.1	-71.7	3.8	7.48e-01	0	26	104	0	81	21075
2026-01-06 06:27:33.83	343.22	18.42	-50.6	-62.1	3.8	7.46e-01	0	26	104	0	70	13190
2026-01-06 06:27:34.83	342.94	18.40	-50.4	-61.8	3.9	7.48e-01	0	26	104	0	70	12671
2026-01-06 06:27:35.82	342.67	18.37	-50.5	-61.9	3.8	7.48e-01	0	26	104	0	70	12932
2026-01-06 06:27:36.82	342.40	18.35	-56.4	-70.3	3.8	7.46e-01	0	26	104	0	80	19058
2026-01-06 06:27:37.82	342.13	18.32	-52.7	-64.6	3.9	7.45e-01	0	26	104	0	73	14781
2026-01-06 06:27:38.82	341.86	18.30	-57.6	-73.0	3.8	7.48e-01	0	26	104	0	82	23065
2026-01-06 06:27:39.81	341.59	18.27	-51.1	-62.7	3.9	7.42e-01	0	26	104	0	71	13383
2026-01-06 06:27:40.82	341.32	18.24	-57.1	-71.7	3.8	7.46e-01	0	26	104	0	81	21169
2026-01-06 06:27:41.81	341.06	18.21	-51.1	-62.7	3.8	7.46e-01	0	26	104	0	71	13301
2026-01-06 06:27:42.81	340.79	18.18	-50.8	-62.3	3.8	7.47e-01	0	26	104	0	70	13486
2026-01-06 06:27:43.81	340.52	18.15	-50.4	-61.6	3.8	7.49e-01	0	26	104	0	70	12492
2026-01-06 06:27:44.81	340.25	18.12	-55.3	-68.1	3.8	7.45e-01	0	26	104	0	78	16642
2026-01-06 06:27:45.80	339.99	18.09	-53.6	-65.7	3.8	7.42e-01	0	26	104	0	76	14170
2026-01-06 06:27:46.80	339.72	18.06	-57.5	-72.8	3.8	7.47e-01	0	26	104	0	82	22538
2026-01-06 06:27:47.79	339.46	18.03	-51.4	-62.9	3.9	7.45e-01	0	26	104	0	72	12930
2026-01-06 06:27:48.78	339.20	18.00	-56.9	-71.3	3.8	7.45e-01	0	26	104	0	81	20226
2026-01-06 06:27:49.78	338.93	17.97	-51.1	-62.5	3.9	7.45e-01	0	26	104	0	71	12994
2026-01-06 06:27:50.78	338.67	17.93	-50.8	-62.1	3.8	7.45e-01	0	26	104	0	70	13145
2026-01-06 06:27:51.77	338.41	17.90	-50.8	-62.5	3.9	7.44e-01	0	26	104	0	70	13878
2026-01-06 06:27:52.77	338.15	17.86	-56.3	-69.9	3.8	7.45e-01	0	26	104	0	80	18190
2026-01-06 06:27:53.76	337.89	17.83	-53.7	-65.6	3.9	7.45e-01	0	26	104	0	76	14024
2026-01-06 06:27:54.75	337.63	17.80	-57.4	-72.5	3.8	7.48e-01	0	26	104	0	82	21834
2026-01-06 06:27:55.75	337.37	17.76	-51.2	-62.5	3.8	7.41e-01	0	26	104	0	71	13069
2026-01-06 06:27:56.75	337.11	17.72	-56.6	-70.6	3.8	7.48e-01	0	26	104	0	80	19784
2026-01-06 06:27:57.75	336.85	17.69	-50.9	-62.5	3.8	7.46e-01	0	26	104	0	71	12981
2026-01-06 06:27:58.75	336.59	17.65	-50.6	-61.8	3.8	7.45e-01	0	26	104	0	70	12768
2026-01-06 06:27:59.75	336.33	17.61	-50.6	-62.3	3.8	7.47e-01	0	26	104	0	70	13563
2026-01-06 06:28:00.74	336.08	17.57	-54.5	-66.8	3.8	7.46e-01	0	26	104	0	76	16106
2026-01-06 06:28:01.74	335.82	17.53	-53.9	-65.9	3.8	7.45e-01	0	26	104	0	75	15259
2026-01-06 06:28:02.74	335.57	17.49	-57.7	-72.9	3.8	7.50e-01	0	26	104	0	82	22900
2026-01-06 06:28:03.74	335.31	17.45	-57.9	-73.8	3.8	7.49e-01	0	26	104	0	83	24031
2026-01-06 06:28:04.73	335.06	17.41	-51.1	-62.5	3.9	7.47e-01	0	26	104	0	71	12999
2026-01-06 06:28:05.72	334.81	17.37	-50.5	-62.4	3.8	7.43e-01	0	26	104	0	69	14439
2026-01-06 06:28:06.72	334.56	17.33	-50.2	-61.2	3.8	7.46e-01	0	26	104	0	69	12539
2026-01-06 06:28:07.72	334.30	17.29	-50.3	-62.3	3.8	7.43e-01	0	26	104	0	69	14297
2026-01-06 06:28:08.71	334.06	17.25	-50.7	-61.8	3.8	7.47e-01	0	26	104	0	69	13453
2026-01-06 06:28:09.72	333.80	17.20	-52.5	-63.7	3.8	7.43e-01	0	26	104	0	72	14155
2026-01-06 06:28:10.71	333.55	17.16	-57.3	-73.0	3.8	7.47e-01	0	26	104	0	82	23266
2026-01-06 06:28:11.71	333.31	17.12	-51.6	-62.4	3.8	7.49e-01	0	26	104	0	72	12125
2026-01-06 06:28:12.70	333.06	17.07	-56.1	-69.6	3.8	7.47e-01	0	26	104	0	79	18634
2026-01-06 06:28:13.70	332.81	17.03	-50.8	-62.3	3.8	7.48e-01	0	26	104	0	70	13559
2026-01-06 06:28:14.70	332.57	16.98	-50.7	-62.0	3.8	7.44e-01	0	26	104	0	70	13102
2026-01-06 06:28:15.69	332.32	16.94	-50.6	-62.1	3.8	7.46e-01	0	26	104	0	70	13202
2026-01-06 06:28:16.69	332.08	16.89	-54.0	-65.5	3.8	7.43e-01	0	26	104	0	75	14677
2026-01-06 06:28:17.68	331.84	16.85	-53.5	-66.4	3.8	7.44e-01	0	26	104	0	76	15290
2026-01-06 06:28:18.68	331.59	16.80	-57.3	-72.3	3.8	7.48e-01	0	26	104	0	82	21338
2026-01-06 06:28:19.68	331.35	16.75	-52.1	-63.3	3.8	7.49e-01	0	26	104	0	73	12795
2026-01-06 06:28:20.68	331.11	16.70	-56.1	-69.6	3.9	7.48e-01	0	26	104	0	79	18722
2026-01-06 06:28:21.68	330.87	16.66	-51.2	-62.7	3.9	7.44e-01	0	26	104	0	71	13343
2026-01-06 06:28:22.69	330.62	16.61	-50.8	-62.6	3.8	7.52e-01	0	26	104	0	70	13973
2026-01-06 06:28:23.69	330.38	16.56	-50.7	-61.4	3.8	7.46e-01	0	26	104	0	70	12140
2026-01-06 06:28:24.68	330.15	16.51	-55.9	-69.3	3.8	7.45e-01	0	26	104	0	79	18090
2026-01-06 06:28:25.69	329.91	16.46	-51.6	-63.6	3.8	7.44e-01	0	26	104	0	70	15664
2026-01-06 06:28:26.69	329.67	16.41	-57.4	-72.1	3.8	7.47e-01	0	26	104	0	82	20921
2026-01-06 06:28:27.68	329.44	16.36	-52.3	-63.5	3.8	7.44e-01	0	26	104	0	73	13076
2026-01-06 06:28:28.68	329.20	16.31	-56.2	-69.8	3.8	7.52e-01	0	26	104	0	79	19146
2026-01-06 06:28:29.68	328.97	16.26	-51.7	-63.2	3.8	7.44e-01	0	26	104	0	72	13390
2026-01-06 06:28:30.68	328.74	16.21	-50.7	-61.9	3.8	7.45e-01	0	26	104	0	70	12876
2026-01-06 06:28:31.68	328.50	16.16	-50.6	-62.2	3.8	7.45e-01	0	26	104	0	70	13368
2026-01-06 06:28:32.67	328.27	16.11	-53.3	-65.2	3.9	7.47e-01	0	26	104	0	74	14929
2026-01-06 06:28:33.67	328.04	16.05	-51.6	-63.3	3.8	7.46e-01	0	26	104	0	70	15204
2026-01-06 06:28:34.68	327.81	16.00	-57.3	-72.1	3.8	7.43e-01	0	26	104	0	82	20948
2026-01-06 06:28:35.67	327.58	15.95	-52.2	-64.1	3.8	7.45e-01	0	26	104	0	73	13966
2026-01-06 06:28:36.67	327.36	15.89	-56.2	-69.4	3.8	7.50e-01	0	26	104	0	79	18097
2026-01-06 06:28:37.66	327.13	15.84	-51.2	-62.9	3.8	7.44e-01	0	26	104	0	71	13718
2026-01-06 06:28:38.66	326.90	15.79	-50.7	-61.9	4.0	7.42e-01	0	26	104	0	70	12811
2026-01-06 06:28:39.66	326.68	15.73	-50.8	-62.3	3.8	7.47e-01	0	26	104	0	70	13445
2026-01-06 06:28:40.65	326.46	15.68	-52.1	-54.2	14.8	6.02e-01	0	26	104	0	71	5024
2026-01-06 06:28:41.65	326.23	15.63	-54.5	-57.6	14.4	6.01e-01	0	26	0	1572864	76	5570
2026-01-06 06:28:42.65	326.01	15.57	-56.3	-61.0	13.3	6.02e-01	0	26	0	3670016	80	6561
2026-01-06 06:28:43.65	325.79	15.52	-57.5	-64.4	11.2	6.07e-01	0	26	0	5242880	82	8623
2026-01-06 06:28:44.64	325.57	15.46	-52.0	-54.0	15.3	6.00e-01	0	26	0	7340032	73	4383
2026-01-06 06:28:45.64	325.35	15.40	-51.1	-53.0	15.4	6.02e-01	0	26	0	8912896	71	4356
2026-01-06 06:28:46.64	325.13	15.35	-50.5	-52.3	15.5	5.99e-01	0	26	0	11010048	70	4256
2026-01-06 06:28:47.64	324.91	15.29	-50.4	-52.1	15.6	6.01e-01	0	26	0	13107200	70	4182
2026-01-06 06:28:48.63	324.69	15.24	-50.1	-51.9	15.5	6.02e-01	0	26	0	14680064	69	4303
2026-01-06 06:28:49.63	324.48	15.18	-50.0	-51.7	15.6	6.00e-01	0	26	0	16777216	69	4232
2026-01-06 06:28:50.63	324.26	15.12	-50.1	-51.9	15.5	6.02e-01	0	26	0	18350080	69	4296
2026-01-06 06:28:51.63	324.05	15.07	-50.3	-52.0	15.5	6.03e-01	0	26	0	20447232	69	4383
2026-01-06 06:28:52.62	323.83	15.01	-50.2	-52.0	15.4	6.00e-01	0	26	0	22020096	69	4361
2026-01-06 06:28:53.62	323.62	14.95	-49.9	-51.6	15.5	6.00e-01	0	26	0	24117248	68	4397
2026-01-06 06:28:54.62	323.41	14.89	-50.2	-51.9	15.3	6.00e-01	0	26	0	26214400	68	4589
2026-01-06 06:28:55.61	323.20	14.83	-50.0	-51.7	15.4	6.01e-01	0	26	0	27787264	68	4464
2026-01-06 06:28:56.62	322.99	14.78	-50.4	-52.2	15.3	6.01e-01	0	26	0	29884416	69	4463
2026-01-06 06:28:57.62	322.78	14.72	-50.1	-51.8	15.4	6.02e-01	0	26	0	31457280	68	4517
2026-01-06 06:28:58.62	322.57	14.66	-50.2	-52.0	15.4	6.04e-01	0	26	0	33554432	69	4356
2026-01-06 06:28:59.63	322.36	14.60	-50.0	-51.7	15.4	6.01e-01	0	26	0	35127296	68	4488
2026-01-06 06:29:00.62	322.15	14.54	-50.1	-51.9	15.3	6.00e-01	0	26	0	37224448	68	4559
2026-01-06 06:29:01.62	321.95	14.48	-50.5	-52.3	15.2	6.01e-01	0	26	0	39321600	68	4784
2026-01-06 06:29:02.62	321.74	14.42	-50.2	-52.0	15.5	6.01e-01	0	26	0	40894464	69	4352
2026-01-06 06:29:03.62	321.54	14.36	-50.8	-52.6	15.3	6.01e-01	0	26	0	42991616	69	4703
2026-01-06 06:29:04.61	321.34	14.30	-50.3	-52.0	15.4	5.99e-01	0	26	0	44564480	69	4378
2026-01-06 06:29:05.61	321.13	14.24	-50.7	-52.5	15.3	6.02e-01	0	26	0	46661632	69	4641
2026-01-06 06:29:06.61	320.93	14.18	-50.7	-52.5	15.3	5.99e-01	0	26	0	48234496	69	4632
2026-01-06 06:29:07.61	320.73	14.12	-51.3	-53.4	15.1	5.99e-01	0	26	0	50331648	70	4816
2026-01-06 06:29:08.61	320.53	14.06	-51.4	-53.4	15.3	6.01e-01	0	26	0	52428800	71	4572
2026-01-06 06:29:09.61	320.33	14.00	-51.6	-53.6	15.2	6.04e-01	0	26	0	54001664	71	4701
2026-01-06 06:29:10.61	320.13	13.94	-51.7	-53.8	15.1	6.00e-01	0	26	0	56098816	71	4766
2026-01-06 06:29:11.61	319.94	13.88	-51.5	-53.6	15.2	6.03e-01	0	26	0	57671680	71	4656
2026-01-06 06:29:12.60	319.74	13.82	-52.0	-54.1	15.0	6.02e-01	0	26	0	59768832	71	4969
2026-01-06 06:29:13.60	319.55	13.76	-51.2	-53.1	15.4	6.01e-01	0	26	0	61341696	71	4433
2026-01-06 06:29:14.58	319.35	13.69	-51.6	-53.6	15.2	6.01e-01	0	26	0	63438848	71	4701
2026-01-06 06:29:15.58	319.16	13.63	-50.6	-52.4	15.5	6.00e-01	0	26	0	65011712	70	4325
2026-01-06 06:29:16.58	318.97	13.57	-50.6	-52.4	15.5	6.02e-01	0	26	0	67108864	70	4315
2026-01-06 06:29:17.58	318.78	13.51	-50.7	-52.5	15.5	5.99e-01	0	26	0	69206016	70	4377
2026-01-06 06:29:18.58	318.58	13.45	-50.6	-52.4	15.5	6.00e-01	0	26	0	70778880	70	4313
2026-01-06 06:29:19.57	318.40	13.39	-50.0	-51.7	15.6	5.99e-01	0	26	0	72876032	69	4240
2026-01-06 06:29:20.57	318.21	13.32	-50.1	-51.8	15.5	6.02e-01	0	26	0	74448896	69	4275
2026-01-06 06:29:21.57	318.02	13.26	-49.9	-51.6	15.6	6.02e-01	0	26	0	76546048	69	4169
2026-01-06 06:29:22.56	317.83	13.20	-50.1	-51.8	15.5	6.01e-01	0	26	0	78118912	69	4284
2026-01-06 06:29:23.56	317.65	13.14	-50.3	-52.1	15.4	5.99e-01	0	26	0	80216064	69	4398
2026-01-06 06:29:24.56	317.46	13.07	-49.9	-51.6	15.6	5.97e-01	0	26	0	81788928	69	4184
2026-01-06 06:29:25.56	317.27	13.01	-50.2	-52.0	15.5	6.04e-01	0	26	0	83886080	69	4362
2026-01-06 06:29:26.56	317.09	12.95	-50.0	-51.7	15.5	6.00e-01	0	26	0	85983232	69	4226
2026-01-06 06:29:27.55	316.91	12.88	-50.2	-51.9	15.5	6.02e-01	0	26	0	87556096	69	4335
2026-01-06 06:29:28.55	316.73	12.82	-50.2	-52.0	15.5	6.02e-01	0	26	0	89653248	69	4368
2026-01-06 06:29:29.56	316.54	12.76	-49.8	-51.5	15.5	5.99e-01	0	26	0	91226112	68	4381
2026-01-06 06:29:30.56	316.36	12.69	-50.2	-52.1	15.3	6.00e-01	0	26	0	93323264	68	4652
2026-01-06 06:29:31.56	316.18	12.63	-50.1	-51.8	15.4	6.01e-01	0	26	0	94896128	68	4524
2026-01-06 06:29:32.56	316.00	12.57	-50.0	-51.7	15.4	6.02e-01	0	26	0	96993280	68	4482
2026-01-06 06:29:33.55	315.83	12.50	-50.5	-52.4	15.2	5.99e-01	0	26	0	99090432	68	4856
2026-01-06 06:29:34.55	315.65	12.44	-50.5	-52.4	15.2	6.00e-01	0	26	0	100663296	68	4845
2026-01-06 06:29:35.55	315.47	12.38	-50.3	-52.1	15.3	6.00e-01	0	26	0	102760448	68	4660
2026-01-06 06:29:36.55	315.30	12.31	-50.2	-52.0	15.3	6.03e-01	0	26	0	104333312	68	4624
2026-01-06 06:29:37.55	315.12	12.25	-50.1	-51.8	15.4	6.01e-01	0	26	0	106430464	68	4536
2026-01-06 06:29:38.54	314.95	12.19	-50.0	-51.7	15.4	6.02e-01	0	26	0	108527616	68	4491
2026-01-06 06:29:39.55	314.77	12.12	-50.2	-52.0	15.3	5.99e-01	0	26	0	110100480	68	4623
2026-01-06 06:29:40.54	314.60	12.06	-50.3	-52.1	15.3	6.02e-01	0	26	0	112197632	68	4691
2026-01-06 06:29:41.54	314.43	11.99	-50.2	-52.0	15.3	6.03e-01	0	26	0	113770496	68	4603
2026-01-06 06:29:42.54	314.26	11.93	-50.3	-52.2	15.3	6.00e-01	0	26	0	115867648	68	4723
2026-01-06 06:29:43.53	314.09	11.87	-50.0	-51.8	15.4	5.99e-01	0	26	0	117440512	68	4516
2026-01-06 06:29:44.53	313.92	11.80	-50.0	-51.7	15.4	6.00e-01	0	26	0	119537664	68	4471
2026-01-06 06:29:45.53	313.75	11.74	-50.4	-52.2	15.3	6.00e-01	0	26	0	121634816	68	4734
2026-01-06 06:29:46.52	313.59	11.67	-50.4	-52.2	15.3	6.00e-01	0	26	0	123207680	68	4734
2026-01-06 06:29:47.52	313.42	11.61	-50.3	-52.1	15.3	6.02e-01	0	26	0	125304832	68	4686
2026-01-06 06:29:48.53	313.25	11.54	-50.4	-52.3	15.2	6.01e-01	0	26	0	126877696	68	4762
2026-01-06 06:29:49.54	313.09	11.48	-50.5	-52.4	15.3	6.01e-01	0	26	0	128974848	69	4564
2026-01-06 06:29:50.54	312.92	11.41	-49.9	-51.6	15.6	5.99e-01	0	26	0	130547712	69	4171
2026-01-06 06:29:51.53	312.76	11.35	-49.9	-51.6	15.4	6.01e-01	0	26	0	132644864	68	4432
2026-01-06 06:29:52.53	312.60	11.29	-50.6	-52.5	15.2	6.01e-01	0	26	0	134742016	68	4890
2026-01-06 06:29:53.52	312.44	11.22	-50.3	-52.1	15.3	6.00e-01	0	26	0	136314880	68	4671
2026-01-06 06:29:54.52	312.27	11.16	-50.1	-51.9	15.4	6.01e-01	0	26	0	138412032	68	4554
2026-01-06 06:29:55.51	312.12	11.09	-50.6	-52.5	15.2	6.01e-01	0	26	0	139984896	68	4891
2026-01-06 06:29:56.51	311.96	11.03	-50.7	-52.6	15.3	6.01e-01	0	26	0	142082048	69	4665
2026-01-06 06:29:57.51	311.80	10.96	-50.4	-52.2	15.4	6.03e-01	0	26	0	143654912	69	4476
2026-01-06 06:29:58.51	311.64	10.90	-50.3	-52.1	15.4	5.97e-01	0	26	0	145752064	69	4419
2026-01-06 06:29:59.50	311.48	10.84	-50.5	-52.4	15.3	6.02e-01	0	26	0	147324928	69	4586
2026-01-06 06:30:00.50	311.33	10.77	-50.5	-52.4	15.3	6.01e-01	0	26	0	149422080	69	4570
2026-01-06 06:30:01.49	311.17	10.71	-50.0	-51.8	15.5	6.00e-01	0	26	0	151519232	69	4245
2026-01-06 06:30:02.49	311.02	10.64	-50.2	-52.0	15.4	6.01e-01	0	26	0	153092096	69	4370
2026-01-06 06:30:03.48	310.86	10.58	-50.8	-52.7	15.2	6.00e-01	0	26	0	155189248	69	4757
2026-01-06 06:30:04.47	310.71	10.51	-50.5	-52.4	15.3	6.01e-01	0	26	0	156762112	69	4597
2026-01-06 06:30:05.47	310.56	10.45	-50.3	-52.1	15.4	6.01e-01	0	26	0	158859264	69	4395
2026-01-06 06:30:06.47	310.41	10.39	-50.5	-52.3	15.4	6.02e-01	0	26	0	160432128	69	4545
2026-01-06 06:30:07.47	310.25	10.32	-50.8	-52.8	15.2	6.00e-01	0	26	0	162529280	69	4778
2026-01-06 06:30:08.46	310.11	10.26	-50.5	-52.4	15.3	6.00e-01	0	26	0	164102144	69	4586
2026-01-06 06:30:09.46	309.95	10.19	-50.1	-51.9	15.5	6.02e-01	0	26	0	166199296	69	4312
2026-01-06 06:30:10.45	309.81	10.13	-50.3	-52.1	15.4	6.04e-01	0	26	0	168296448	69	4425
2026-01-06 06:30:11.45	309.66	10.06	-50.7	-52.7	15.2	6.02e-01	0	26	0	169869312	69	4732
2026-01-06 06:30:12.45	309.51	10.00	-50.7	-52.6	15.2	6.02e-01	0	26	0	171966464	69	4670
2026-01-06 06:30:13.44	309.36	9.93	-50.3	-52.1	15.4	6.02e-01	0	26	0	173539328	69	4428
2026-01-06 06:30:14.44	309.22	9.87	-50.4	-52.2	15.4	6.00e-01	0	26	0	175636480	69	4481
2026-01-06 06:30:15.43	309.07	9.81	-50.9	-52.9	15.2	6.03e-01	0	26	0	177209344	69	4854
2026-01-06 06:30:16.43	308.93	9.74	-51.2	-53.3	15.2	6.01e-01	0	26	0	179306496	70	4763
2026-01-06 06:30:17.43	308.78	9.68	-51.1	-53.1	15.2	6.01e-01	0	26	0	181403648	70	4654
2026-01-06 06:30:18.42	308.64	9.61	-51.2	-53.2	15.2	6.02e-01	0	26	0	182976512	70	4712
2026-01-06 06:30:19.42	308.50	9.55	-50.8	-52.8	15.3	6.00e-01	0	26	0	185073664	70	4494
2026-01-06 06:30:20.42	308.36	9.48	-51.3	-53.3	15.2	6.01e-01	0	26	0	186646528	70	4814
2026-01-06 06:30:21.41	308.22	9.42	-51.5	-53.6	15.1	6.00e-01	0	26	0	188743680	70	4953
2026-01-06 06:30:22.40	308.08	9.36	-51.3	-53.3	15.1	6.00e-01	0	26	0	190316544	70	4798
2026-01-06 06:30:23.40	307.94	9.29	-50.8	-52.7	15.4	6.01e-01	0	26	0	192413696	70	4451
2026-01-06 06:30:24.40	307.80	9.23	-50.7	-52.5	15.4	5.99e-01	0	26	0	193986560	70	4369
2026-01-06 06:30:25.39	307.66	9.16	-50.9	-52.9	15.3	6.00e-01	0	26	0	196083712	70	4583
2026-01-06 06:30:26.39	307.52	9.10	-51.0	-53.1	15.2	6.02e-01	0	26	0	198180864	70	4672
2026-01-06 06:30:27.39	307.38	9.04	-50.7	-52.6	15.4	6.01e-01	0	26	0	199753728	70	4407
2026-01-06 06:30:28.38	307.25	8.97	-50.5	-52.3	15.5	6.02e-01	0	26	0	201850880	70	4274
2026-01-06 06:30:29.37	307.11	8.91	-50.7	-52.5	15.4	6.03e-01	0	26	0	203423744	70	4389
2026-01-06 06:30:30.36	306.98	8.84	-51.2	-53.2	15.2	5.99e-01	0	26	0	205520896	70	4748
2026-01-06 06:30:31.34	306.85	8.78	-51.2	-53.3	15.2	5.99e-01	0	26	0	207093760	70	4811
2026-01-06 06:30:32.33	306.71	8.72	-51.1	-53.1	15.2	6.03e-01	0	26	0	209190912	70	4700
2026-01-06 06:30:33.32	306.58	8.65	-50.9	-52.8	15.3	6.01e-01	0	26	0	211288064	70	4532
2026-01-06 06:30:34.31	306.45	8.59	-50.7	-52.6	15.4	6.02e-01	0	26	0	212860928	70	4409
2026-01-06 06:30:35.30	306.32	8.53	-50.8	-52.7	15.3	6.03e-01	0	26	0	214433792	70	4459
2026-01-06 06:30:36.29	306.19	8.46	-51.0	-53.1	15.2	6.02e-01	0	26	0	216530944	70	4655
2026-01-06 06:30:37.28	306.06	8.40	-51.2	-53.3	15.2	6.01e-01	0	26	0	218628096	70	4800
2026-01-06 06:30:38.27	305.93	8.34	-51.1	-53.1	15.2	6.03e-01	0	26	0	220200960	70	4691
2026-01-06 06:30:39.26	305.80	8.28	-50.9	-52.9	15.3	6.03e-01	0	26	0	222298112	70	4557
2026-01-06 06:30:40.25	305.67	8.21	-51.0	-53.0	15.2	6.00e-01	0	26	0	223870976	70	4608
2026-01-06 06:30:41.24	305.55	8.15	-50.9	-52.8	15.3	6.01e-01	0	26	0	225968128	70	4538
2026-01-06 06:30:42.23	305.42	8.09	-50.9	-52.9	15.3	6.00e-01	0	26	0	227540992	70	4547
2026-01-06 06:30:43.23	305.29	8.02	-51.2	-53.4	15.1	6.00e-01	0	26	0	229638144	70	4817
2026-01-06 06:30:44.22	305.17	7.96	-51.2	-53.3	15.2	6.03e-01	0	26	0	231211008	70	4761
2026-01-06 06:30:45.21	305.04	7.90	-50.9	-52.9	15.3	6.05e-01	0	26	0	233308160	70	4591
2026-01-06 06:30:46.20	304.92	7.83	-50.9	-52.9	15.3	5.99e-01	0	26	0	234881024	70	4552
2026-01-06 06:30:47.19	304.79	7.77	-50.7	-52.6	15.4	6.02e-01	0	26	0	236978176	70	4393
2026-01-06 06:30:48.18	304.67	7.71	-50.8	-52.7	15.4	6.02e-01	0	26	0	239075328	70	4470
2026-01-06 06:30:49.16	304.55	7.65	-50.9	-52.9	15.3	6.00e-01	0	26	0	240648192	70	4593
2026-01-06 06:30:50.16	304.43	7.58	-51.2	-53.3	15.2	6.00e-01	0	26	0	242745344	70	4762
2026-01-06 06:30:51.15	304.31	7.52	-51.3	-53.5	15.1	6.01e-01	0	26	0	244318208	70	4881
2026-01-06 06:30:52.15	304.18	7.46	-51.2	-53.3	15.1	5.98e-01	0	26	0	246415360	70	4807
2026-01-06 06:30:53.14	304.06	7.39	-51.1	-53.2	15.2	6.02e-01	0	26	0	247988224	70	4709
2026-01-06 06:30:54.13	303.94	7.33	-50.8	-52.7	15.4	6.00e-01	0	26	0	250085376	70	4475
2026-01-06 06:30:55.12	303.83	7.27	-51.1	-53.1	15.2	6.04e-01	0	26	0	251658240	70	4685
2026-01-06 06:30:56.11	303.71	7.21	-51.0	-53.0	15.2	6.01e-01	0	26	0	253755392	70	4646
2026-01-06 06:30:57.10	303.59	7.15	-51.0	-53.0	15.3	6.00e-01	0	26	0	255328256	70	4616
2026-01-06 06:30:58.10	303.47	7.08	-51.2	-53.3	15.1	5.99e-01	0	26	0	257425408	70	4768
2026-01-06 06:30:59.09	303.35	7.02	-51.3	-53.4	15.1	6.01e-01	0	26	0	259522560	70	4847
2026-01-06 06:31:00.09	303.24	6.96	-51.5	-53.7	15.0	6.01e-01	0	26	0	261095424	70	4993
2026-01-06 06:31:01.09	303.12	6.90	-51.4	-53.5	15.1	6.01e-01	0	26	0	263192576	70	4904
2026-01-06 06:31:02.08	303.00	6.83	-51.3	-53.4	15.1	6.03e-01	0	26	0	264765440	70	4860
2026-01-06 06:31:03.06	302.89	6.77	-51.2	-53.3	15.1	6.00e-01	0	26	0	266862592	70	4784
2026-01-06 06:31:04.05	302.78	6.71	-51.3	-53.4	15.1	6.00e-01	0	26	0	268435456	70	4815
2026-01-06 06:31:05.04	302.66	6.65	-51.3	-53.4	15.1	5.99e-01	0	26	0	270532608	70	4824
2026-01-06 06:31:06.04	302.55	6.59	-51.0	-53.1	15.2	6.02e-01	0	26	0	272105472	70	4672
2026-01-06 06:31:07.03	302.44	6.53	-51.4	-53.5	15.1	6.01e-01	0	26	0	274202624	70	4915
2026-01-06 06:31:08.02	302.33	6.46	-51.4	-53.6	15.1	6.01e-01	0	26	0	276299776	70	4934
2026-01-06 06:31:09.02	302.21	6.40	-51.6	-53.9	15.1	6.02e-01	0	26	0	277872640	71	4817
2026-01-06 06:31:10.01	302.10	6.34	-51.5	-53.7	15.1	6.00e-01	0	26	0	279969792	71	4715
2026-01-06 06:31:11.00	301.99	6.28	-51.2	-53.3	15.3	6.01e-01	0	26	0	281542656	71	4495
2026-01-06 06:31:11.99	301.88	6.22	-51.4	-53.5	15.2	6.02e-01	0	26	0	283639808	71	4631
2026-01-06 06:31:12.98	301.77	6.16	-51.2	-53.3	15.3	6.01e-01	0	26	0	285212672	71	4539
2026-01-06 06:31:13.97	301.66	6.10	-51.3	-53.4	15.3	6.01e-01	0	26	0	287309824	71	4554
2026-01-06 06:31:14.96	301.56	6.03	-51.3	-53.5	15.2	6.00e-01	0	26	0	288882688	71	4599
2026-01-06 06:31:15.95	301.45	5.97	-51.5	-53.6	15.2	6.00e-01	0	26	0	290979840	71	4694
2026-01-06 06:31:16.93	301.34	5.91	-51.5	-53.8	15.1	6.00e-01	0	26	0	292552704	71	4765
2026-01-06 06:31:17.92	301.24	5.85	-51.6	-53.8	15.1	6.01e-01	0	26	0	294649856	71	4774
2026-01-06 06:31:18.91	301.13	5.79	-51.5	-53.7	15.2	6.01e-01	0	26	0	296222720	71	4729
2026-01-06 06:31:19.90	301.02	5.73	-51.4	-53.7	15.1	6.01e-01	0	26	0	298319872	71	4712
2026-01-06 06:31:20.90	300.92	5.67	-51.4	-53.6	15.2	5.99e-01	0	26	0	300417024	71	4654
2026-01-06 06:31:21.90	300.81	5.61	-51.6	-53.8	15.1	6.01e-01	0	26	0	301989888	71	4798
2026-01-06 06:31:22.89	300.71	5.55	-51.4	-53.6	15.1	6.01e-01	0	26	0	304087040	71	4683
2026-01-06 06:31:23.89	300.60	5.49	-51.5	-53.8	15.1	6.00e-01	0	26	0	305659904	71	4762
2026-01-06 06:31:24.88	300.50	5.43	-51.6	-53.8	15.1	6.04e-01	0	26	0	307757056	71	4786
2026-01-06 06:31:25.86	300.40	5.37	-51.4	-53.6	15.1	6.00e-01	0	26	0	309329920	71	4695
2026-01-06 06:31:26.86	300.29	5.31	-51.1	-53.2	15.3	5.99e-01	0	26	0	311427072	71	4457
2026-01-06 06:31:27.85	300.19	5.25	-51.6	-53.8	15.1	6.01e-01	0	26	0	312999936	71	4795
2026-01-06 06:31:28.83	300.09	5.19	-51.8	-54.1	15.0	6.00e-01	0	26	0	315097088	71	4955
2026-01-06 06:31:29.83	299.99	5.13	-51.5	-53.7	15.1	6.01e-01	0	26	0	317194240	71	4722
2026-01-06 06:31:30.82	299.89	5.07	-51.3	-53.5	15.2	5.99e-01	0	26	0	318767104	71	4634
2026-01-06 06:31:31.82	299.79	5.01	-57.4	-67.9	7.9	6.47e-01	51	26	0	320864256	82	12841
2026-01-06 06:31:32.81	299.69	4.95	-58.3	-77.0	3.9	7.47e-01	0	26	104	320864256	84	32885
2026-01-06 06:31:33.80	299.59	4.89	-58.6	-77.9	3.8	7.44e-01	0	26	104	320864256	84	36301
2026-01-06 06:31:34.79	299.49	4.83	-58.8	-78.0	3.8	7.46e-01	0	26	104	320864256	85	34789
2026-01-06 06:31:35.78	299.39	4.77	-59.0	-78.4	3.8	7.47e-01	0	26	104	320864256	85	36234
2026-01-06 06:31:36.78	299.29	4.71	-59.2	-78.6	3.8	7.46e-01	0	26	104	320864256	86	35024
2026-01-06 06:31:37.76	299.20	4.65	-59.4	-78.7	3.8	7.45e-01	0	26	104	320864256	86	35503
2026-01-06 06:31:38.76	299.10	4.59	-59.5	-78.8	3.8	7.44e-01	0	26	104	320864256	86	35986
2026-01-06 06:31:39.74	299.01	4.53	-59.6	-79.0	3.8	7.47e-01	0	26	104	320864256	86	36624
2026-01-06 06:31:40.73	298.91	4.47	-59.7	-79.0	3.8	7.46e-01	0	26	104	320864256	87	34862
2026-01-06 06:31:41.73	298.81	4.41	-59.7	-79.1	3.8	7.50e-01	0	26	104	320864256	87	35150
2026-01-06 06:31:42.72	298.72	4.35	-59.8	-79.2	3.8	7.45e-01	0	26	104	320864256	87	35335
2026-01-06 06:31:43.72	298.62	4.29	-59.9	-79.3	3.8	7.50e-01	0	26	104	320864256	87	35764
2026-01-06 06:31:44.72	298.53	4.23	-60.0	-79.4	3.8	7.50e-01	0	26	104	320864256	87	36161
2026-01-06 06:31:45.71	298.43	4.17	-60.0	-79.4	3.8	7.46e-01	0	26	104	320864256	87	36202
2026-01-06 06:31:46.69	298.34	4.12	-60.0	-79.4	3.8	7.48e-01	0	26	104	320864256	87	36289
2026-01-06 06:31:47.69	298.25	4.06	-60.0	-79.4	3.8	7.48e-01	0	26	104	320864256	87	36263
2026-01-06 06:31:48.68	298.15	4.00	-60.0	-79.4	3.8	7.47e-01	0	26	104	320864256	87	36412
2026-01-06 06:31:49.67	298.06	3.94	-60.1	-79.5	3.8	7.44e-01	0	26	104	320864256	87	36579
2026-01-06 06:31:50.66	297.97	3.88	-60.1	-79.5	3.8	7.43e-01	0	26	104	320864256	87	36714
2026-01-06 06:31:51.66	297.88	3.82	-60.1	-79.5	3.8	7.44e-01	0	26	104	320864256	87	36692
2026-01-06 06:31:52.65	297.79	3.76	-60.1	-79.5	3.8	7.49e-01	0	26	104	320864256	87	36770
2026-01-06 06:31:53.64	297.70	3.71	-60.1	-79.5	3.8	7.44e-01	0	26	104	320864256	87	36732
2026-01-06 06:31:54.62	297.61	3.65	-60.1	-79.5	3.8	7.46e-01	0	26	104	320864256	87	36693
2026-01-06 06:31:55.62	297.52	3.59	-60.1	-79.5	3.8	7.45e-01	0	26	104	320864256	87	36619
2026-01-06 06:31:56.60	297.43	3.53	-60.1	-79.5	3.8	7.49e-01	0	26	104	320864256	87	36560
2026-01-06 06:31:57.60	297.34	3.47	-60.0	-79.4	3.8	7.45e-01	0	26	104	320864256	87	36485
2026-01-06 06:31:58.60	297.25	3.41	-60.0	-79.4	3.8	7.48e-01	0	26	104	320864256	87	36282
2026-01-06 06:31:59.59	297.16	3.36	-60.0	-79.4	3.8	7.48e-01	0	26	104	320864256	87	36204
2026-01-06 06:32:00.58	297.08	3.30	-59.9	-79.3	3.8	7.46e-01	0	26	104	320864256	87	35991
2026-01-06 06:32:01.57	296.99	3.24	-59.9	-79.3	3.8	7.46e-01	0	26	104	320864256	87	35878
2026-01-06 06:32:02.56	296.90	3.18	-59.9	-79.3	3.8	7.47e-01	0	26	104	320864256	87	35899
2026-01-06 06:32:03.55	296.81	3.13	-59.9	-79.3	3.8	7.46e-01	0	26	104	320864256	87	35906
2026-01-06 06:32:04.54	296.73	3.07	-59.9	-79.3	3.8	7.48e-01	0	26	104	320864256	87	35789
2026-01-06 06:32:05.52	296.64	3.01	-59.9	-79.3	3.8	7.46e-01	0	26	104	320864256	87	35770
2026-01-06 06:32:06.52	296.56	2.95	-59.9	-79.3	3.8	7.45e-01	0	26	104	320864256	87	35799
2026-01-06 06:32:07.51	296.47	2.90	-59.9	-79.3	3.8	7.48e-01	0	26	104	320864256	87	35774
2026-01-06 06:32:08.50	296.39	2.84	-59.9	-79.3	3.8	7.47e-01	0	26	104	320864256	87	35779
2026-01-06 06:32:09.50	296.30	2.78	-59.9	-79.3	3.8	7.45e-01	0	26	104	320864256	87	35703
2026-01-06 06:32:10.49	296.22	2.73	-59.9	-79.3	3.8	7.47e-01	0	26	104	320864256	87	35729
2026-01-06 06:32:11.49	296.14	2.67	-59.8	-79.2	3.8	7.45e-01	0	26	104	320864256	87	35672
2026-01-06 06:32:12.48	296.05	2.61	-59.9	-79.2	3.8	7.51e-01	0	26	104	320864256	87	35590
2026-01-06 06:32:13.48	295.97	2.55	-59.8	-79.2	3.8	7.43e-01	0	26	104	320864256	87	35605
2026-01-06 06:32:14.46	295.89	2.50	-59.9	-79.2	3.8	7.47e-01	0	26	104	320864256	87	35667
2026-01-06 06:32:15.46	295.80	2.44	-59.8	-79.2	3.8	7.49e-01	0	26	104	320864256	87	35636
2026-01-06 06:32:16.46	295.72	2.38	-59.8	-79.2	3.8	7.45e-01	0	26	104	320864256	87	35555
2026-01-06 06:32:17.45	295.64	2.33	-59.8	-79.2	3.8	7.44e-01	0	26	104	320864256	87	35511
2026-01-06 06:32:18.44	295.56	2.27	-59.8	-79.2	3.8	7.47e-01	0	26	104	320864256	87	35584
2026-01-06 06:32:19.43	295.48	2.22	-59.8	-79.2	3.8	7.44e-01	0	26	104	320864256	87	35514
2026-01-06 06:32:20.43	295.40	2.16	-59.8	-79.2	3.8	7.50e-01	0	26	104	320864256	87	35507
2026-01-06 06:32:21.42	295.32	2.10	-59.8	-79.2	3.8	7.46e-01	0	26	104	320864256	87	35420
2026-01-06 06:32:22.41	295.24	2.05	-59.8	-79.2	3.8	7.46e-01	0	26	104	320864256	87	35406
2026-01-06 06:32:23.40	295.16	1.99	-59.8	-79.2	3.8	7.48e-01	0	26	104	320864256	87	35497

#Closed at: 2026-01-06 06:32:24
#Recorded file [320 MB]: D:/lorett/data/31004_260106_092134.dat