passes_logs/2026/01/06/R3.2S_Murmansk/R3.2S_Murmansk__20260106_073815_NOAA_20_JPSS-1_rec.log

#Pass ID: 20260106_073815_NOAA 20 (JPSS-1)
#Satellite: NOAA 20 (JPSS-1)
#Configuration: NOAA 20
#almurnet v.1.7.20251203
#Start time: 2026-01-06 07:38:17

#Version: 2.2.20231116
#Station: R3.2S_Murmansk
#Location: 33.079688 lon 68.888172 lat
#TLE: 1 43013U 17073A   26005.46207808  .00000128  00000+0  81791-4 0  9997
#TLE: 2 43013  98.7627 306.5027 0001826  53.0458 307.0885 14.19533487421381

#Time	Az	El	Level	Level2	SNR	BER	BlckErr	Temp	State	Recorded	gain1	gain2
2026-01-06 07:38:17.77	108.34	2.13	-58.0	-74.0	3.8	1.49e+00	0	24	0	0	81	23772
2026-01-06 07:38:18.78	108.29	2.19	-58.0	-74.0	3.8	1.49e+00	0	24	104	0	81	23733
2026-01-06 07:38:19.78	108.25	2.25	-57.9	-74.0	3.8	1.49e+00	0	24	104	0	81	23719
2026-01-06 07:38:20.79	108.21	2.31	-58.0	-74.0	3.8	1.49e+00	0	24	104	0	81	23747
2026-01-06 07:38:21.79	108.17	2.38	-58.0	-74.0	3.8	1.49e+00	0	24	104	0	81	23787
2026-01-06 07:38:22.80	108.13	2.44	-58.0	-74.0	3.8	1.49e+00	0	24	104	0	81	23776
2026-01-06 07:38:23.80	108.09	2.50	-58.0	-74.0	3.8	1.49e+00	0	24	104	0	81	23805
2026-01-06 07:38:24.80	108.04	2.56	-58.0	-74.0	3.8	1.49e+00	0	24	104	0	81	23792
2026-01-06 07:38:25.80	108.00	2.63	-58.0	-74.0	3.8	1.49e+00	0	24	104	0	81	23585
2026-01-06 07:38:26.80	107.96	2.69	-58.0	-73.9	3.8	1.49e+00	0	24	104	0	81	23530
2026-01-06 07:38:27.81	107.92	2.75	-58.0	-73.9	3.8	1.49e+00	0	24	104	0	81	23486
2026-01-06 07:38:28.81	107.87	2.81	-58.0	-73.9	3.8	1.49e+00	0	24	104	0	81	23483
2026-01-06 07:38:29.81	107.83	2.88	-58.0	-73.9	3.8	1.49e+00	0	24	104	0	81	23484
2026-01-06 07:38:30.81	107.79	2.94	-58.0	-73.9	3.8	1.49e+00	0	25	104	0	81	23345
2026-01-06 07:38:31.82	107.74	3.00	-58.0	-73.8	3.8	1.49e+00	0	25	104	0	81	23292
2026-01-06 07:38:32.82	107.70	3.07	-58.0	-73.8	3.8	1.49e+00	0	25	104	0	81	23141
2026-01-06 07:38:33.82	107.66	3.13	-58.0	-73.9	3.8	1.49e+00	0	25	104	0	81	23374
2026-01-06 07:38:34.82	107.61	3.20	-58.0	-73.9	3.8	1.49e+00	0	25	104	0	81	23425
2026-01-06 07:38:35.83	107.57	3.26	-58.0	-73.8	3.8	1.49e+00	0	25	104	0	81	23308
2026-01-06 07:38:36.82	107.52	3.32	-58.0	-73.7	3.8	1.49e+00	0	25	104	0	81	22981
2026-01-06 07:38:37.82	107.48	3.39	-58.0	-73.7	3.8	1.49e+00	0	25	104	0	81	22925
2026-01-06 07:38:38.82	107.44	3.45	-58.0	-73.7	3.8	1.49e+00	0	25	104	0	81	22847
2026-01-06 07:38:39.82	107.39	3.52	-58.0	-73.6	3.8	1.49e+00	0	25	104	0	81	22556
2026-01-06 07:38:40.82	107.34	3.58	-58.0	-73.5	3.8	1.49e+00	0	25	104	0	81	22471
2026-01-06 07:38:41.82	107.30	3.64	-58.0	-73.5	3.8	1.49e+00	0	25	104	0	81	22375
2026-01-06 07:38:42.82	107.25	3.71	-58.0	-73.6	3.8	1.49e+00	0	25	104	0	81	22722
2026-01-06 07:38:43.82	107.21	3.77	-58.0	-73.7	3.8	1.49e+00	0	25	104	0	81	22932
2026-01-06 07:38:44.82	107.16	3.84	-58.0	-73.9	3.8	1.49e+00	0	25	104	0	81	23453
2026-01-06 07:38:45.82	107.12	3.90	-58.0	-74.0	3.8	1.49e+00	0	25	104	0	81	23765
2026-01-06 07:38:46.82	107.07	3.97	-58.0	-74.0	3.8	1.49e+00	0	25	104	0	81	23583
2026-01-06 07:38:47.82	107.02	4.03	-58.0	-73.7	3.8	1.49e+00	0	25	104	0	81	22863
2026-01-06 07:38:48.82	106.98	4.10	-58.0	-73.1	3.8	1.49e+00	0	25	104	0	81	21316
2026-01-06 07:38:49.82	106.93	4.17	-57.9	-72.2	3.8	1.49e+00	0	25	104	0	81	19244
2026-01-06 07:38:50.82	106.88	4.23	-57.9	-71.1	4.1	1.48e+00	0	25	104	0	81	17029
2026-01-06 07:38:51.82	106.83	4.30	-57.8	-70.2	4.3	1.41e+00	0	25	0	0	81	15248
2026-01-06 07:38:52.82	106.79	4.36	-57.8	-69.2	4.6	1.17e+00	0	25	0	1048576	81	13685
2026-01-06 07:38:53.81	106.74	4.43	-57.7	-68.6	4.9	7.85e-01	0	25	0	3145728	81	12679
2026-01-06 07:38:54.80	106.69	4.49	-57.6	-67.7	5.4	5.79e-01	0	25	0	5242880	81	11438
2026-01-06 07:38:55.81	106.64	4.56	-57.5	-66.7	6.0	3.93e-01	0	25	0	6291456	81	10242
2026-01-06 07:38:56.80	106.59	4.63	-57.5	-66.6	6.0	2.51e-01	0	25	0	8388608	81	10140
2026-01-06 07:38:57.80	106.54	4.69	-57.4	-65.7	6.7	1.85e-01	0	25	0	10485760	81	9090
2026-01-06 07:38:58.80	106.49	4.76	-57.2	-64.9	7.3	1.16e-01	0	25	0	12582912	81	8348
2026-01-06 07:38:59.79	106.45	4.83	-57.3	-65.2	7.1	7.56e-02	0	25	0	14680064	81	8604
2026-01-06 07:39:00.79	106.40	4.89	-57.1	-64.2	7.9	5.35e-02	0	25	0	15728640	80	8143
2026-01-06 07:39:01.78	106.35	4.96	-57.1	-64.3	7.9	3.48e-02	0	25	0	17825792	80	8212
2026-01-06 07:39:02.78	106.30	5.03	-57.0	-63.8	8.3	3.14e-02	0	25	0	19922944	80	7784
2026-01-06 07:39:03.78	106.25	5.10	-57.0	-63.6	8.5	3.26e-02	0	25	0	22020096	80	7617
2026-01-06 07:39:04.76	106.20	5.16	-57.4	-65.7	6.8	5.84e-02	0	25	0	23068672	80	9679
2026-01-06 07:39:05.76	106.14	5.23	-57.3	-65.2	7.4	5.10e-02	0	25	0	25165824	80	9075
2026-01-06 07:39:06.77	106.09	5.30	-55.6	-59.5	11.9	1.77e-01	0	25	0	27262976	77	5613
2026-01-06 07:39:07.77	106.04	5.37	-57.9	-68.7	5.0	1.25e-01	0	25	0	29360128	80	13605
2026-01-06 07:39:08.77	105.99	5.44	-56.2	-60.7	11.1	3.56e-01	0	25	0	31457280	79	5746
2026-01-06 07:39:09.78	105.94	5.51	-56.1	-60.4	11.4	2.13e-05	0	25	0	32505856	78	5916
2026-01-06 07:39:10.77	105.89	5.57	-56.0	-60.3	11.4	7.78e-05	0	25	0	34603008	78	5799
2026-01-06 07:39:11.77	105.83	5.64	-55.8	-59.8	11.8	3.35e-05	0	25	0	36700160	78	5527
2026-01-06 07:39:12.77	105.78	5.71	-55.5	-59.3	12.0	1.83e-05	0	25	0	38797312	77	5479
2026-01-06 07:39:13.76	105.73	5.78	-55.5	-59.4	11.9	6.10e-06	0	25	0	39845888	77	5565
2026-01-06 07:39:14.75	105.68	5.85	-55.4	-59.1	12.1	4.50e-06	0	25	0	41943040	77	5400
2026-01-06 07:39:15.75	105.62	5.92	-55.4	-59.2	12.1	1.50e-06	0	25	0	44040192	77	5427
2026-01-06 07:39:16.74	105.57	5.99	-55.3	-59.0	12.3	0.00e+00	0	25	0	46137344	77	5281
2026-01-06 07:39:17.74	105.51	6.06	-55.1	-58.6	12.4	7.00e-07	0	25	0	48234496	76	5400
2026-01-06 07:39:18.74	105.46	6.13	-54.9	-58.2	12.7	0.00e+00	0	25	0	49283072	76	5101
2026-01-06 07:39:19.74	105.41	6.20	-54.6	-57.6	13.0	0.00e+00	0	25	0	51380224	75	5098
2026-01-06 07:39:20.73	105.35	6.27	-54.5	-57.5	13.0	0.00e+00	0	25	0	53477376	75	5034
2026-01-06 07:39:21.73	105.30	6.34	-54.2	-57.2	13.2	0.00e+00	0	26	0	55574528	75	4821
2026-01-06 07:39:22.72	105.24	6.41	-54.2	-57.1	13.2	0.00e+00	0	25	0	57671680	74	5095
2026-01-06 07:39:23.71	105.19	6.48	-54.0	-56.8	13.4	0.00e+00	0	25	0	58720256	74	4894
2026-01-06 07:39:24.71	105.13	6.55	-54.1	-56.9	13.3	0.00e+00	0	26	0	60817408	74	4933
2026-01-06 07:39:25.71	105.07	6.62	-54.2	-57.0	13.2	0.00e+00	0	25	0	62914560	74	5036
2026-01-06 07:39:26.70	105.02	6.69	-54.1	-56.9	13.4	0.00e+00	0	26	0	65011712	74	4938
2026-01-06 07:39:27.69	104.96	6.76	-54.1	-56.9	13.3	0.00e+00	0	26	0	66060288	74	4963
2026-01-06 07:39:28.69	104.90	6.83	-54.1	-57.0	13.3	0.00e+00	0	25	0	68157440	74	4998
2026-01-06 07:39:29.68	104.85	6.90	-54.1	-57.0	13.3	0.00e+00	0	26	0	70254592	74	5001
2026-01-06 07:39:30.67	104.79	6.97	-54.0	-56.8	13.4	0.00e+00	0	25	0	72351744	74	4885
2026-01-06 07:39:31.67	104.73	7.05	-53.9	-56.6	13.5	0.00e+00	0	26	0	74448896	74	4798
2026-01-06 07:39:32.66	104.67	7.12	-53.9	-56.5	13.6	0.00e+00	0	26	0	75497472	74	4753
2026-01-06 07:39:33.65	104.61	7.19	-53.8	-56.4	13.6	0.00e+00	0	26	0	77594624	74	4697
2026-01-06 07:39:34.65	104.56	7.26	-53.8	-56.4	13.7	0.00e+00	0	26	0	79691776	74	4663
2026-01-06 07:39:35.65	104.50	7.34	-53.8	-56.5	13.6	0.00e+00	0	26	0	81788928	74	4741
2026-01-06 07:39:36.65	104.44	7.41	-53.6	-56.1	13.7	0.00e+00	0	26	0	82837504	73	4796
2026-01-06 07:39:37.65	104.38	7.48	-53.6	-56.2	13.6	0.00e+00	0	26	0	84934656	73	4846
2026-01-06 07:39:38.64	104.32	7.55	-53.8	-56.4	13.5	0.00e+00	0	26	0	87031808	73	4963
2026-01-06 07:39:39.62	104.26	7.63	-53.6	-56.2	13.7	0.00e+00	0	26	0	89128960	73	4834
2026-01-06 07:39:40.62	104.20	7.70	-53.8	-56.5	13.5	0.00e+00	0	26	0	91226112	73	5005
2026-01-06 07:39:41.63	104.13	7.77	-53.8	-56.5	13.5	0.00e+00	0	25	0	92274688	73	4995
2026-01-06 07:39:42.62	104.07	7.85	-53.7	-56.3	13.6	0.00e+00	0	26	0	94371840	73	4920
2026-01-06 07:39:43.61	104.01	7.92	-53.8	-56.3	13.6	0.00e+00	0	25	0	96468992	73	4924
2026-01-06 07:39:44.61	103.95	8.00	-53.8	-56.5	13.5	0.00e+00	0	26	0	98566144	73	4986
2026-01-06 07:39:45.61	103.89	8.07	-53.8	-56.4	13.6	0.00e+00	0	26	0	99614720	73	4958
2026-01-06 07:39:46.60	103.83	8.14	-53.8	-56.4	13.6	0.00e+00	0	25	0	101711872	73	4958
2026-01-06 07:39:47.59	103.76	8.22	-53.7	-56.3	13.6	0.00e+00	0	26	0	103809024	73	4881
2026-01-06 07:39:48.59	103.70	8.29	-53.6	-56.0	13.8	0.00e+00	0	25	0	105906176	73	4752
2026-01-06 07:39:49.58	103.64	8.37	-53.8	-56.4	13.5	0.00e+00	0	26	0	108003328	73	4977
2026-01-06 07:39:50.57	103.57	8.44	-53.7	-56.3	13.6	0.00e+00	0	26	0	109051904	73	4884
2026-01-06 07:39:51.57	103.51	8.52	-53.9	-56.5	13.5	0.00e+00	0	26	0	111149056	73	5010
2026-01-06 07:39:52.56	103.44	8.59	-53.8	-56.4	13.6	0.00e+00	0	26	0	113246208	73	4932
2026-01-06 07:39:53.56	103.38	8.67	-53.9	-56.6	13.5	0.00e+00	0	26	0	115343360	73	5063
2026-01-06 07:39:54.55	103.31	8.75	-53.9	-56.5	13.5	0.00e+00	0	26	0	116391936	73	5008
2026-01-06 07:39:55.54	103.25	8.82	-53.9	-56.5	13.5	0.00e+00	0	26	0	118489088	73	5007
2026-01-06 07:39:56.53	103.18	8.90	-54.0	-56.7	13.4	0.00e+00	0	26	0	120586240	73	5144
2026-01-06 07:39:57.52	103.12	8.97	-53.7	-56.2	13.7	0.00e+00	0	26	0	122683392	73	4816
2026-01-06 07:39:58.52	103.05	9.05	-53.9	-56.5	13.5	0.00e+00	0	26	0	123731968	73	5015
2026-01-06 07:39:59.51	102.98	9.13	-53.9	-56.5	13.6	0.00e+00	0	26	0	125829120	73	4999
2026-01-06 07:40:00.51	102.91	9.21	-54.0	-56.6	13.5	0.00e+00	0	26	0	127926272	73	5062
2026-01-06 07:40:01.51	102.85	9.28	-54.0	-56.7	13.4	0.00e+00	0	26	0	130023424	73	5101
2026-01-06 07:40:02.51	102.78	9.36	-53.9	-56.6	13.5	0.00e+00	0	26	0	132120576	73	5049
2026-01-06 07:40:03.51	102.71	9.44	-53.8	-56.4	13.6	0.00e+00	0	26	0	133169152	73	4947
2026-01-06 07:40:04.51	102.64	9.52	-53.8	-56.3	13.6	0.00e+00	0	26	0	135266304	73	4911
2026-01-06 07:40:05.51	102.57	9.60	-54.0	-56.7	13.4	0.00e+00	0	26	0	137363456	73	5110
2026-01-06 07:40:06.50	102.50	9.67	-53.8	-56.4	13.6	0.00e+00	0	26	0	139460608	73	4940
2026-01-06 07:40:07.49	102.43	9.75	-54.0	-56.7	13.4	0.00e+00	0	26	0	141557760	73	5124
2026-01-06 07:40:08.49	102.36	9.83	-53.8	-56.4	13.6	0.00e+00	0	26	0	142606336	73	4944
2026-01-06 07:40:09.49	102.29	9.91	-53.8	-56.3	13.6	0.00e+00	0	26	0	144703488	73	4910
2026-01-06 07:40:10.49	102.21	9.99	-53.6	-56.1	13.8	0.00e+00	0	26	0	146800640	73	4794
2026-01-06 07:40:11.48	102.14	10.07	-53.4	-55.8	13.9	0.00e+00	0	26	0	148897792	73	4639
2026-01-06 07:40:12.47	102.07	10.15	-53.5	-55.9	13.9	0.00e+00	0	26	0	149946368	73	4675
2026-01-06 07:40:13.46	102.00	10.23	-53.5	-55.9	13.9	0.00e+00	0	26	0	152043520	73	4671
2026-01-06 07:40:14.46	101.93	10.31	-53.5	-55.9	13.9	0.00e+00	0	26	0	154140672	73	4703
2026-01-06 07:40:15.46	101.85	10.39	-53.4	-55.8	14.0	0.00e+00	0	26	0	156237824	73	4631
2026-01-06 07:40:16.45	101.78	10.47	-53.5	-55.8	13.9	0.00e+00	0	26	0	158334976	73	4644
2026-01-06 07:40:17.45	101.70	10.55	-53.6	-56.0	13.8	0.00e+00	0	26	0	159383552	73	4723
2026-01-06 07:40:18.45	101.63	10.63	-53.6	-56.0	13.8	0.00e+00	0	26	0	161480704	73	4734
2026-01-06 07:40:19.45	101.55	10.71	-53.6	-56.0	13.8	0.00e+00	0	26	0	163577856	73	4750
2026-01-06 07:40:20.44	101.48	10.79	-53.7	-56.1	13.8	0.00e+00	0	26	0	165675008	73	4802
2026-01-06 07:40:21.44	101.40	10.88	-53.5	-55.9	13.9	0.00e+00	0	26	0	167772160	73	4700
2026-01-06 07:40:22.44	101.32	10.96	-53.4	-55.7	14.0	0.00e+00	0	26	0	168820736	73	4592
2026-01-06 07:40:23.43	101.25	11.04	-53.3	-55.6	14.1	0.00e+00	0	26	0	170917888	73	4532
2026-01-06 07:40:24.41	101.17	11.12	-53.3	-55.6	14.1	0.00e+00	0	26	0	173015040	73	4533
2026-01-06 07:40:25.40	101.09	11.20	-53.3	-55.6	14.1	0.00e+00	0	26	0	175112192	73	4520
2026-01-06 07:40:26.39	101.02	11.29	-53.4	-55.7	14.0	0.00e+00	0	26	0	176160768	73	4565
2026-01-06 07:40:27.39	100.94	11.37	-53.2	-55.5	14.1	0.00e+00	0	26	0	178257920	73	4475
2026-01-06 07:40:28.39	100.86	11.45	-53.3	-55.6	14.1	0.00e+00	0	26	0	180355072	73	4541
2026-01-06 07:40:29.39	100.78	11.54	-53.4	-55.7	14.0	0.00e+00	0	26	0	182452224	73	4564
2026-01-06 07:40:30.39	100.70	11.62	-53.4	-55.7	14.0	0.00e+00	0	26	0	184549376	73	4577
2026-01-06 07:40:31.38	100.62	11.70	-53.4	-55.7	14.0	0.00e+00	0	26	0	185597952	73	4584
2026-01-06 07:40:32.36	100.54	11.79	-53.3	-55.6	14.1	0.00e+00	0	26	0	187695104	73	4533
2026-01-06 07:40:33.35	100.45	11.87	-53.3	-55.6	14.1	0.00e+00	0	26	0	189792256	73	4510
2026-01-06 07:40:34.35	100.37	11.96	-53.3	-55.6	14.1	0.00e+00	0	26	0	191889408	73	4519
2026-01-06 07:40:35.35	100.29	12.04	-53.3	-55.6	14.1	0.00e+00	0	26	0	192937984	73	4516
2026-01-06 07:40:36.34	100.21	12.12	-53.3	-55.5	14.2	0.00e+00	0	26	0	195035136	73	4462
2026-01-06 07:40:37.34	100.12	12.21	-53.2	-55.4	14.2	0.00e+00	0	26	0	197132288	73	4440
2026-01-06 07:40:38.33	100.04	12.30	-53.1	-55.4	14.1	0.00e+00	0	26	0	199229440	72	4664
2026-01-06 07:40:39.33	99.95	12.38	-53.2	-55.4	14.1	0.00e+00	0	26	0	201326592	72	4669
2026-01-06 07:40:40.32	99.87	12.47	-53.2	-55.5	14.0	0.00e+00	0	26	0	202375168	72	4710
2026-01-06 07:40:41.31	99.78	12.55	-53.3	-55.6	14.0	0.00e+00	0	26	0	204472320	72	4770
2026-01-06 07:40:42.30	99.70	12.64	-53.2	-55.4	14.1	0.00e+00	0	26	0	206569472	72	4698
2026-01-06 07:40:43.29	99.61	12.72	-53.1	-55.3	14.2	0.00e+00	0	26	0	208666624	72	4609
2026-01-06 07:40:44.30	99.52	12.81	-53.1	-55.3	14.2	0.00e+00	0	26	0	209715200	72	4610
2026-01-06 07:40:45.29	99.44	12.90	-53.1	-55.3	14.1	0.00e+00	0	26	0	211812352	72	4634
2026-01-06 07:40:46.28	99.35	12.99	-53.1	-55.3	14.1	0.00e+00	0	26	0	213909504	72	4634
2026-01-06 07:40:47.28	99.26	13.07	-53.0	-55.1	14.2	0.00e+00	0	26	0	216006656	72	4505
2026-01-06 07:40:48.27	99.17	13.16	-53.1	-55.2	14.2	0.00e+00	0	26	0	218103808	72	4587
2026-01-06 07:40:49.27	99.08	13.25	-53.1	-55.2	14.2	0.00e+00	0	26	0	219152384	72	4581
2026-01-06 07:40:50.27	98.99	13.34	-52.9	-55.0	14.3	0.00e+00	0	26	0	221249536	72	4480
2026-01-06 07:40:51.27	98.90	13.43	-53.0	-55.2	14.2	0.00e+00	0	26	0	223346688	72	4561
2026-01-06 07:40:52.26	98.81	13.52	-53.0	-55.1	14.3	0.00e+00	0	26	0	225443840	72	4516
2026-01-06 07:40:53.25	98.71	13.60	-53.0	-55.1	14.3	0.00e+00	0	26	0	226492416	72	4513
2026-01-06 07:40:54.25	98.62	13.69	-53.0	-55.1	14.3	0.00e+00	0	26	0	228589568	72	4520
2026-01-06 07:40:55.25	98.53	13.78	-52.9	-55.1	14.3	0.00e+00	0	26	0	230686720	72	4494
2026-01-06 07:40:56.25	98.43	13.88	-52.8	-54.9	14.3	0.00e+00	0	26	0	232783872	72	4425
2026-01-06 07:40:57.25	98.34	13.97	-52.8	-54.9	14.4	0.00e+00	0	26	0	234881024	72	4428
2026-01-06 07:40:58.25	98.24	14.06	-52.9	-55.0	14.3	0.00e+00	0	26	0	235929600	72	4473
2026-01-06 07:40:59.24	98.15	14.15	-53.0	-55.1	14.3	0.00e+00	0	26	0	238026752	72	4521
2026-01-06 07:41:00.24	98.05	14.24	-52.9	-55.0	14.3	0.00e+00	0	26	0	240123904	72	4475
2026-01-06 07:41:01.25	97.95	14.33	-53.0	-55.1	14.3	0.00e+00	0	26	0	242221056	72	4506
2026-01-06 07:41:02.24	97.86	14.42	-52.8	-54.9	14.4	0.00e+00	0	26	0	243269632	72	4417
2026-01-06 07:41:03.24	97.76	14.51	-52.8	-54.9	14.4	0.00e+00	0	26	0	245366784	72	4395
2026-01-06 07:41:04.24	97.66	14.61	-52.8	-54.9	14.4	0.00e+00	0	26	0	247463936	72	4426
2026-01-06 07:41:05.24	97.56	14.70	-52.9	-54.9	14.4	0.00e+00	0	26	0	249561088	72	4432
2026-01-06 07:41:06.25	97.46	14.79	-52.8	-54.9	14.4	0.00e+00	0	26	0	251658240	72	4411
2026-01-06 07:41:07.25	97.35	14.89	-52.9	-55.0	14.3	0.00e+00	0	26	0	252706816	72	4464
2026-01-06 07:41:08.25	97.25	14.98	-52.8	-54.9	14.4	0.00e+00	0	26	0	254803968	72	4400
2026-01-06 07:41:09.25	97.15	15.07	-52.8	-54.9	14.4	0.00e+00	0	26	0	256901120	72	4401
2026-01-06 07:41:10.24	97.05	15.17	-52.8	-54.8	14.4	0.00e+00	0	26	0	258998272	72	4360
2026-01-06 07:41:11.24	96.94	15.26	-52.8	-54.8	14.4	0.00e+00	0	26	0	261095424	72	4379
2026-01-06 07:41:12.25	96.84	15.35	-52.9	-54.9	14.4	0.00e+00	0	26	0	262144000	72	4426
2026-01-06 07:41:13.24	96.73	15.45	-52.8	-54.8	14.4	0.00e+00	0	26	0	264241152	72	4367
2026-01-06 07:41:14.25	96.63	15.54	-52.8	-54.8	14.4	0.00e+00	0	26	0	266338304	72	4371
2026-01-06 07:41:15.24	96.52	15.64	-52.9	-55.0	14.3	0.00e+00	0	26	0	268435456	72	4479
2026-01-06 07:41:16.24	96.41	15.73	-52.7	-54.7	14.5	0.00e+00	0	26	0	270532608	72	4324
2026-01-06 07:41:17.24	96.31	15.83	-52.7	-54.7	14.4	0.00e+00	0	26	0	271581184	71	4563
2026-01-06 07:41:18.23	96.20	15.93	-52.7	-54.7	14.4	0.00e+00	0	26	0	273678336	71	4561
2026-01-06 07:41:19.24	96.09	16.02	-52.7	-54.7	14.4	0.00e+00	0	26	0	275775488	71	4564
2026-01-06 07:41:20.24	95.98	16.12	-52.7	-54.7	14.4	0.00e+00	0	26	0	277872640	71	4572
2026-01-06 07:41:21.23	95.87	16.21	-52.6	-54.6	14.4	0.00e+00	0	26	0	278921216	71	4538
2026-01-06 07:41:22.23	95.76	16.31	-52.7	-54.7	14.3	0.00e+00	0	26	0	281018368	71	4580
2026-01-06 07:41:23.23	95.64	16.41	-52.7	-54.7	14.3	0.00e+00	0	26	0	283115520	71	4598
2026-01-06 07:41:24.23	95.53	16.51	-52.7	-54.7	14.4	0.00e+00	0	26	0	285212672	71	4553
2026-01-06 07:41:25.22	95.42	16.60	-52.7	-54.8	14.3	0.00e+00	0	26	0	287309824	71	4607
2026-01-06 07:41:26.23	95.30	16.70	-52.6	-54.6	14.4	0.00e+00	0	26	0	288358400	71	4537
2026-01-06 07:41:27.23	95.19	16.80	-52.7	-54.8	14.3	0.00e+00	0	26	0	290455552	71	4612
2026-01-06 07:41:28.23	95.07	16.90	-52.7	-54.7	14.4	0.00e+00	0	26	0	292552704	71	4567
2026-01-06 07:41:29.22	94.96	17.00	-52.7	-54.7	14.4	0.00e+00	0	26	0	294649856	71	4561
2026-01-06 07:41:30.22	94.84	17.10	-52.7	-54.8	14.3	0.00e+00	0	26	0	295698432	71	4618
2026-01-06 07:41:31.21	94.72	17.20	-52.8	-54.9	14.3	0.00e+00	0	26	0	297795584	71	4680
2026-01-06 07:41:32.20	94.60	17.30	-52.7	-54.7	14.4	0.00e+00	0	26	0	299892736	71	4577
2026-01-06 07:41:33.20	94.48	17.40	-52.7	-54.7	14.4	0.00e+00	0	26	0	301989888	71	4549
2026-01-06 07:41:34.20	94.36	17.50	-52.7	-54.7	14.4	0.00e+00	0	26	0	304087040	71	4551
2026-01-06 07:41:35.19	94.24	17.60	-52.7	-54.8	14.3	0.00e+00	0	26	0	305135616	71	4606
2026-01-06 07:41:36.18	94.12	17.70	-52.7	-54.6	14.4	0.00e+00	0	26	0	307232768	71	4540
2026-01-06 07:41:37.17	94.00	17.80	-52.8	-54.8	14.3	0.00e+00	0	26	0	309329920	71	4644
2026-01-06 07:41:38.17	93.87	17.90	-52.8	-54.8	14.3	0.00e+00	0	26	0	311427072	71	4630
2026-01-06 07:41:39.17	93.75	18.00	-52.9	-54.9	14.3	0.00e+00	0	26	0	313524224	71	4690
2026-01-06 07:41:40.17	93.62	18.10	-53.0	-55.1	14.2	0.00e+00	0	26	0	314572800	71	4764
2026-01-06 07:41:41.17	93.49	18.20	-52.8	-54.9	14.3	0.00e+00	0	26	0	316669952	71	4661
2026-01-06 07:41:42.17	93.37	18.31	-52.9	-54.9	14.3	0.00e+00	0	26	0	318767104	71	4680
2026-01-06 07:41:43.17	93.24	18.41	-52.9	-55.0	14.2	0.00e+00	0	26	0	320864256	71	4720
2026-01-06 07:41:44.18	93.11	18.51	-52.9	-54.9	14.3	0.00e+00	0	26	0	321912832	71	4691
2026-01-06 07:41:45.18	92.98	18.62	-53.0	-55.0	14.2	0.00e+00	0	26	0	324009984	71	4753
2026-01-06 07:41:46.18	92.85	18.72	-53.0	-55.1	14.2	0.00e+00	0	26	0	326107136	71	4774
2026-01-06 07:41:47.18	92.71	18.83	-53.1	-55.2	14.2	0.00e+00	0	26	0	328204288	71	4830
2026-01-06 07:41:48.17	92.58	18.93	-53.1	-55.2	14.1	0.00e+00	0	26	0	330301440	71	4826
2026-01-06 07:41:49.15	92.45	19.03	-53.0	-55.1	14.2	0.00e+00	0	26	0	331350016	71	4773
2026-01-06 07:41:50.14	92.32	19.13	-53.0	-55.0	14.2	0.00e+00	0	26	0	333447168	71	4749
2026-01-06 07:41:51.14	92.18	19.24	-53.0	-55.1	14.2	0.00e+00	0	26	0	335544320	71	4801
2026-01-06 07:41:52.13	92.04	19.34	-53.1	-55.2	14.1	0.00e+00	0	26	0	337641472	71	4823
2026-01-06 07:41:53.14	91.91	19.45	-53.1	-55.2	14.2	0.00e+00	0	26	0	339738624	71	4824
2026-01-06 07:41:54.13	91.77	19.56	-53.2	-55.3	14.1	0.00e+00	0	26	0	340787200	71	4889
2026-01-06 07:41:55.13	91.63	19.66	-53.3	-55.5	14.0	0.00e+00	0	26	0	342884352	71	5016
2026-01-06 07:41:56.12	91.49	19.77	-53.2	-55.3	14.1	0.00e+00	0	26	0	344981504	71	4922
2026-01-06 07:41:57.12	91.35	19.87	-53.2	-55.4	14.0	0.00e+00	0	26	0	347078656	71	4963
2026-01-06 07:41:58.11	91.21	19.98	-53.3	-55.5	14.0	0.00e+00	0	26	0	348127232	71	5019
2026-01-06 07:41:59.11	91.06	20.09	-53.3	-55.4	14.0	0.00e+00	0	26	0	350224384	71	4974
2026-01-06 07:42:00.11	90.92	20.19	-53.3	-55.5	14.0	0.00e+00	0	26	0	352321536	71	4992
2026-01-06 07:42:01.10	90.77	20.30	-53.2	-55.4	14.0	0.00e+00	0	26	0	354418688	71	4959
2026-01-06 07:42:02.09	90.63	20.41	-53.3	-55.4	14.0	0.00e+00	0	26	0	356515840	71	4964
2026-01-06 07:42:03.09	90.48	20.52	-53.4	-55.6	13.9	0.00e+00	0	26	0	357564416	71	5072
2026-01-06 07:42:04.08	90.33	20.62	-53.3	-55.5	14.0	0.00e+00	0	26	0	359661568	71	4997
2026-01-06 07:42:05.08	90.18	20.73	-53.3	-55.4	14.1	0.00e+00	0	26	0	361758720	71	4964
2026-01-06 07:42:06.08	90.03	20.84	-53.1	-55.2	14.1	0.00e+00	0	26	0	363855872	71	4845
2026-01-06 07:42:07.08	89.88	20.95	-53.0	-55.1	14.2	0.00e+00	0	26	0	364904448	71	4783
2026-01-06 07:42:08.07	89.73	21.06	-53.0	-55.0	14.2	0.00e+00	0	26	0	367001600	71	4751
2026-01-06 07:42:09.06	89.57	21.17	-52.9	-54.9	14.3	0.00e+00	0	26	0	369098752	71	4703
2026-01-06 07:42:10.06	89.42	21.28	-52.9	-55.0	14.3	0.00e+00	0	26	0	371195904	71	4709
2026-01-06 07:42:11.06	89.26	21.39	-52.9	-54.9	14.3	0.00e+00	0	26	0	373293056	71	4656
2026-01-06 07:42:12.06	89.10	21.50	-52.8	-54.9	14.3	0.00e+00	0	26	0	374341632	71	4652
2026-01-06 07:42:13.06	88.94	21.61	-52.8	-54.8	14.4	0.00e+00	0	26	0	376438784	71	4601
2026-01-06 07:42:14.05	88.78	21.72	-52.8	-54.8	14.3	0.00e+00	0	26	0	378535936	71	4637
2026-01-06 07:42:15.04	88.62	21.83	-52.8	-54.7	14.4	0.00e+00	0	26	0	380633088	71	4586
2026-01-06 07:42:16.00	88.47	21.94	-52.8	-54.8	14.4	0.00e+00	0	26	0	381681664	71	4616
2026-01-06 07:42:17.01	88.30	22.05	-52.9	-54.9	14.3	0.00e+00	0	26	0	383778816	71	4652
2026-01-06 07:42:18.01	88.14	22.16	-52.8	-54.7	14.4	0.00e+00	0	26	0	385875968	71	4588
2026-01-06 07:42:19.00	87.97	22.27	-52.8	-54.8	14.4	0.00e+00	0	26	0	387973120	71	4607
2026-01-06 07:42:20.01	87.80	22.39	-52.8	-54.8	14.4	0.00e+00	0	26	0	390070272	71	4609
2026-01-06 07:42:21.00	87.64	22.50	-52.7	-54.7	14.4	0.00e+00	0	26	0	391118848	71	4569
2026-01-06 07:42:21.99	87.47	22.61	-52.8	-54.8	14.4	0.00e+00	0	26	0	393216000	71	4623
2026-01-06 07:42:22.99	87.30	22.73	-52.9	-54.9	14.3	0.00e+00	0	26	0	395313152	71	4668
2026-01-06 07:42:23.98	87.13	22.84	-52.7	-54.7	14.4	0.00e+00	0	26	0	397410304	71	4562
2026-01-06 07:42:24.99	86.95	22.95	-52.7	-54.7	14.4	0.00e+00	0	26	0	398458880	71	4546
2026-01-06 07:42:25.98	86.78	23.06	-52.7	-54.7	14.4	0.00e+00	0	26	0	400556032	71	4558
2026-01-06 07:42:26.98	86.60	23.18	-52.9	-54.8	14.4	0.00e+00	0	26	0	402653184	71	4641
2026-01-06 07:42:27.98	86.43	23.29	-52.8	-54.8	14.4	0.00e+00	0	26	0	404750336	71	4617
2026-01-06 07:42:28.97	86.25	23.41	-52.8	-54.7	14.4	0.00e+00	0	26	0	406847488	71	4595
2026-01-06 07:42:29.98	86.07	23.52	-52.7	-54.7	14.4	0.00e+00	0	26	0	407896064	71	4550
2026-01-06 07:42:30.97	85.89	23.64	-52.8	-54.8	14.4	0.00e+00	0	26	0	409993216	71	4605
2026-01-06 07:42:31.96	85.71	23.75	-52.8	-54.7	14.4	0.00e+00	0	26	0	412090368	71	4583
2026-01-06 07:42:32.96	85.52	23.87	-52.8	-54.7	14.4	0.00e+00	0	26	0	414187520	71	4576
2026-01-06 07:42:33.95	85.34	23.98	-52.8	-54.8	14.4	0.00e+00	0	26	0	416284672	71	4607
2026-01-06 07:42:34.94	85.15	24.09	-52.8	-54.8	14.4	0.00e+00	0	26	0	417333248	71	4630
2026-01-06 07:42:35.93	84.97	24.21	-52.9	-54.9	14.3	0.00e+00	0	26	0	419430400	71	4661
2026-01-06 07:42:36.92	84.78	24.32	-52.9	-54.9	14.3	0.00e+00	0	26	0	421527552	71	4678
2026-01-06 07:42:37.92	84.59	24.44	-53.0	-55.0	14.2	0.00e+00	0	26	0	423624704	71	4753
2026-01-06 07:42:38.92	84.39	24.56	-53.1	-55.1	14.2	0.00e+00	0	26	0	424673280	71	4799
2026-01-06 07:42:39.92	84.20	24.67	-53.2	-55.3	14.1	0.00e+00	0	26	0	426770432	71	4903
2026-01-06 07:42:40.91	84.01	24.79	-53.3	-55.5	14.0	0.00e+00	0	26	0	428867584	71	5003
2026-01-06 07:42:41.91	83.81	24.90	-53.5	-55.7	14.0	0.00e+00	0	26	0	430964736	72	4854
2026-01-06 07:42:42.90	83.61	25.02	-53.5	-55.7	14.0	0.00e+00	0	26	0	433061888	72	4851
2026-01-06 07:42:43.90	83.41	25.14	-53.7	-55.9	13.9	0.00e+00	0	26	0	434110464	72	4947
2026-01-06 07:42:44.89	83.21	25.25	-53.8	-56.1	13.9	0.00e+00	0	26	0	436207616	72	5044
2026-01-06 07:42:45.89	83.01	25.37	-53.9	-56.2	13.8	0.00e+00	0	26	0	438304768	72	5141
2026-01-06 07:42:46.88	82.81	25.49	-53.9	-56.2	13.9	0.00e+00	0	26	0	440401920	73	4829
2026-01-06 07:42:47.88	82.60	25.60	-53.9	-56.2	13.9	0.00e+00	0	26	0	441450496	73	4832
2026-01-06 07:42:48.87	82.40	25.72	-53.9	-56.2	13.9	0.00e+00	0	26	0	443547648	73	4861
2026-01-06 07:42:49.87	82.19	25.84	-53.9	-56.2	13.9	0.00e+00	0	26	0	445644800	73	4863
2026-01-06 07:42:50.86	81.98	25.95	-54.0	-56.4	13.7	0.00e+00	0	26	0	447741952	73	4969
2026-01-06 07:42:51.85	81.77	26.07	-54.2	-56.6	13.7	0.00e+00	0	26	0	449839104	73	5099
2026-01-06 07:42:52.84	81.56	26.19	-54.3	-56.8	13.6	0.00e+00	0	26	0	450887680	73	5177
2026-01-06 07:42:53.83	81.35	26.31	-54.2	-56.7	13.7	0.00e+00	0	26	0	452984832	73	5112
2026-01-06 07:42:54.83	81.13	26.42	-54.0	-56.4	13.8	0.00e+00	0	26	0	455081984	73	4978
2026-01-06 07:42:55.82	80.91	26.54	-53.9	-56.2	13.9	0.00e+00	0	26	0	457179136	73	4843
2026-01-06 07:42:56.82	80.69	26.66	-53.9	-56.2	13.9	0.00e+00	0	26	0	458227712	73	4838
2026-01-06 07:42:57.82	80.47	26.78	-53.9	-56.3	13.9	0.00e+00	0	26	0	460324864	73	4871
2026-01-06 07:42:58.81	80.25	26.89	-54.1	-56.5	13.8	0.00e+00	0	26	0	462422016	73	4991
2026-01-06 07:42:59.80	80.03	27.01	-54.1	-56.5	13.8	0.00e+00	0	26	0	464519168	73	4984
2026-01-06 07:43:00.80	79.80	27.13	-54.0	-56.3	13.9	0.00e+00	0	26	0	466616320	73	4910
2026-01-06 07:43:01.79	79.57	27.25	-53.9	-56.2	13.9	0.00e+00	0	26	0	467664896	73	4857
2026-01-06 07:43:02.79	79.34	27.36	-54.0	-56.4	13.8	0.00e+00	0	26	0	469762048	73	4953
2026-01-06 07:43:03.79	79.11	27.48	-54.0	-56.4	13.8	0.00e+00	0	26	0	471859200	73	4929
2026-01-06 07:43:04.78	78.88	27.60	-54.1	-56.4	13.8	0.00e+00	0	26	0	473956352	73	4982
2026-01-06 07:43:05.77	78.65	27.72	-54.0	-56.4	13.8	0.00e+00	0	26	0	475004928	73	4957
2026-01-06 07:43:06.76	78.41	27.83	-54.1	-56.4	13.8	0.00e+00	0	26	0	477102080	73	4978
2026-01-06 07:43:07.76	78.17	27.95	-54.0	-56.4	13.8	0.00e+00	0	26	0	479199232	73	4956
2026-01-06 07:43:08.76	77.93	28.07	-54.1	-56.5	13.8	0.00e+00	0	26	0	481296384	73	5015
2026-01-06 07:43:09.75	77.69	28.19	-54.1	-56.5	13.7	0.00e+00	0	26	0	483393536	73	5023
2026-01-06 07:43:10.74	77.45	28.30	-54.0	-56.3	13.9	0.00e+00	0	26	0	484442112	73	4919
2026-01-06 07:43:11.73	77.20	28.42	-53.9	-56.2	13.9	0.00e+00	0	26	0	486539264	73	4860
2026-01-06 07:43:12.72	76.96	28.54	-54.0	-56.4	13.8	0.00e+00	0	26	0	488636416	73	4934
2026-01-06 07:43:13.72	76.71	28.65	-54.0	-56.3	13.8	0.00e+00	0	26	0	490733568	73	4913
2026-01-06 07:43:14.72	76.46	28.77	-54.1	-56.6	13.7	0.00e+00	0	26	0	491782144	73	5043
2026-01-06 07:43:15.72	76.20	28.89	-54.1	-56.5	13.8	0.00e+00	0	26	0	493879296	73	5022
2026-01-06 07:43:16.72	75.95	29.01	-53.9	-56.2	13.9	0.00e+00	0	26	0	495976448	73	4850
2026-01-06 07:43:17.71	75.69	29.12	-53.9	-56.2	13.9	0.00e+00	0	26	0	498073600	73	4825
2026-01-06 07:43:18.70	75.44	29.24	-53.9	-56.3	13.9	0.00e+00	0	26	0	500170752	73	4884
2026-01-06 07:43:19.69	75.18	29.35	-53.9	-56.2	13.9	0.00e+00	0	26	0	501219328	73	4863
2026-01-06 07:43:20.68	74.92	29.47	-53.8	-56.1	14.0	0.00e+00	0	26	0	503316480	73	4769
2026-01-06 07:43:21.67	74.66	29.58	-53.8	-56.0	14.0	0.00e+00	0	26	0	505413632	73	4744
2026-01-06 07:43:22.66	74.39	29.70	-53.8	-56.0	14.0	0.00e+00	0	26	0	507510784	73	4741
2026-01-06 07:43:23.66	74.12	29.82	-53.8	-56.0	14.0	0.00e+00	0	26	0	508559360	73	4731
2026-01-06 07:43:24.65	73.86	29.93	-53.9	-56.1	14.0	0.00e+00	0	26	0	510656512	73	4797
2026-01-06 07:43:25.65	73.58	30.05	-54.0	-56.3	13.9	0.00e+00	0	26	0	512753664	73	4896
2026-01-06 07:43:26.64	73.31	30.16	-53.9	-56.1	13.9	0.00e+00	0	26	0	514850816	73	4814
2026-01-06 07:43:27.64	73.03	30.27	-53.9	-56.2	14.0	0.00e+00	0	26	0	515899392	73	4835
2026-01-06 07:43:28.63	72.76	30.39	-54.0	-56.4	13.9	0.00e+00	0	26	0	517996544	73	4929
2026-01-06 07:43:29.63	72.48	30.50	-54.3	-56.8	13.6	0.00e+00	0	26	0	520093696	73	5180
2026-01-06 07:43:30.62	72.20	30.61	-54.6	-57.2	13.5	0.00e+00	0	26	0	522190848	74	5148
2026-01-06 07:43:31.62	71.91	30.73	-54.9	-57.7	13.3	0.00e+00	0	26	0	524288000	75	5144
2026-01-06 07:43:32.61	71.63	30.84	-55.1	-57.9	13.2	0.00e+00	0	26	0	525336576	75	5273
2026-01-06 07:43:33.60	71.35	30.95	-55.1	-58.1	13.1	0.00e+00	0	26	0	527433728	75	5341
2026-01-06 07:43:34.60	71.05	31.06	-55.2	-58.2	13.1	0.00e+00	0	26	0	529530880	75	5409
2026-01-06 07:43:35.60	70.76	31.18	-55.2	-58.1	13.0	0.00e+00	0	26	0	531628032	75	5387
2026-01-06 07:43:36.59	70.47	31.29	-55.4	-58.4	12.8	0.00e+00	0	26	0	533725184	75	5590
2026-01-06 07:43:37.59	70.17	31.40	-55.6	-58.7	12.8	0.00e+00	0	26	0	534773760	76	5452
2026-01-06 07:43:38.58	69.88	31.51	-55.7	-58.9	12.7	0.00e+00	0	26	0	536870912	76	5586
2026-01-06 07:43:39.57	69.58	31.62	-55.7	-58.9	12.7	0.00e+00	0	26	0	538968064	76	5553
2026-01-06 07:43:40.58	69.27	31.73	-55.8	-59.0	12.6	0.00e+00	0	26	0	541065216	76	5608
2026-01-06 07:43:41.58	68.97	31.84	-55.8	-59.1	12.6	0.00e+00	0	26	0	542113792	76	5667
2026-01-06 07:43:42.57	68.67	31.94	-56.0	-59.4	12.5	7.00e-07	0	26	0	544210944	77	5537
2026-01-06 07:43:43.57	68.36	32.05	-56.0	-59.3	12.5	0.00e+00	0	26	0	546308096	77	5522
2026-01-06 07:43:44.56	68.05	32.16	-56.0	-59.4	12.5	0.00e+00	0	26	0	548405248	77	5559
2026-01-06 07:43:45.56	67.74	32.27	-56.1	-59.6	12.3	7.00e-07	0	26	0	550502400	77	5709
2026-01-06 07:43:46.56	67.42	32.37	-56.2	-59.7	12.3	0.00e+00	0	26	0	551550976	77	5781
2026-01-06 07:43:47.55	67.11	32.48	-56.3	-59.9	12.2	3.00e-06	0	26	0	553648128	77	5883
2026-01-06 07:43:48.55	66.79	32.58	-56.4	-60.1	12.0	1.50e-06	0	26	0	555745280	77	5998
2026-01-06 07:43:49.55	66.47	32.69	-56.6	-60.5	11.8	6.80e-06	0	26	0	557842432	78	5990
2026-01-06 07:43:50.55	66.14	32.79	-56.7	-60.7	11.6	4.50e-06	0	26	0	559939584	78	6131
2026-01-06 07:43:51.56	65.81	32.89	-56.8	-60.9	11.5	1.83e-05	0	26	0	560988160	78	6245
2026-01-06 07:43:52.55	65.49	33.00	-56.8	-60.9	11.4	1.60e-05	0	26	0	563085312	78	6258
2026-01-06 07:43:53.55	65.16	33.10	-56.8	-61.1	11.4	2.82e-05	0	26	0	565182464	78	6358
2026-01-06 07:43:54.55	64.83	33.20	-56.9	-61.2	11.4	4.34e-05	0	26	0	567279616	78	6454
2026-01-06 07:43:55.56	64.49	33.30	-57.0	-61.5	11.1	7.70e-05	0	26	0	568328192	79	6297
2026-01-06 07:43:56.56	64.16	33.40	-56.9	-61.2	11.4	4.57e-05	0	26	0	570425344	79	6089
2026-01-06 07:43:57.55	63.82	33.50	-56.6	-60.5	11.9	1.83e-05	0	26	0	572522496	79	5624
2026-01-06 07:43:58.55	63.48	33.59	-56.5	-60.3	12.0	4.50e-06	0	26	0	574619648	79	5523
2026-01-06 07:43:59.55	63.14	33.69	-56.2	-59.7	12.6	0.00e+00	0	26	0	576716800	79	5114
2026-01-06 07:44:00.55	62.80	33.79	-55.9	-59.1	12.8	7.00e-07	0	26	0	577765376	78	5090
2026-01-06 07:44:01.55	62.45	33.88	-55.9	-59.1	12.8	0.00e+00	0	26	0	579862528	78	5052
2026-01-06 07:44:02.55	62.10	33.98	-55.9	-59.2	12.8	0.00e+00	0	26	0	581959680	78	5134
2026-01-06 07:44:03.54	61.76	34.07	-55.7	-58.7	13.0	0.00e+00	0	26	0	584056832	78	4869
2026-01-06 07:44:04.54	61.40	34.16	-55.5	-58.4	13.1	0.00e+00	0	26	0	585105408	77	4980
2026-01-06 07:44:05.53	61.05	34.25	-55.2	-58.0	13.4	0.00e+00	0	26	0	587202560	77	4746
2026-01-06 07:44:06.53	60.70	34.34	-55.1	-57.7	13.5	0.00e+00	0	26	0	589299712	76	4869
2026-01-06 07:44:07.52	60.34	34.43	-55.1	-57.8	13.4	0.00e+00	0	26	0	591396864	76	4906
2026-01-06 07:44:08.53	59.98	34.52	-55.1	-57.8	13.4	0.00e+00	0	26	0	593494016	76	4921
2026-01-06 07:44:09.52	59.62	34.61	-55.0	-57.7	13.5	0.00e+00	0	26	0	594542592	76	4841
2026-01-06 07:44:10.52	59.26	34.69	-54.8	-57.4	13.7	0.00e+00	0	26	0	596639744	76	4690
2026-01-06 07:44:11.51	58.89	34.78	-54.4	-56.8	13.9	0.00e+00	0	26	0	598736896	75	4636
2026-01-06 07:44:12.50	58.53	34.86	-53.8	-56.0	14.2	0.00e+00	0	26	0	600834048	74	4473
2026-01-06 07:44:13.50	58.16	34.94	-53.7	-55.8	14.3	0.00e+00	0	26	0	602931200	74	4360
2026-01-06 07:44:14.51	57.79	35.03	-53.6	-55.7	14.2	0.00e+00	0	26	0	603979776	73	4581
2026-01-06 07:44:15.50	57.42	35.11	-53.7	-55.9	14.2	0.00e+00	0	26	0	606076928	73	4666
2026-01-06 07:44:16.51	57.04	35.19	-53.6	-55.7	14.3	0.00e+00	0	26	0	608174080	73	4550
2026-01-06 07:44:17.49	56.67	35.26	-53.4	-55.5	14.3	0.00e+00	0	26	0	610271232	73	4467
2026-01-06 07:44:18.49	56.29	35.34	-53.4	-55.4	14.4	0.00e+00	0	26	0	611319808	73	4418
2026-01-06 07:44:19.49	55.91	35.42	-53.4	-55.5	14.4	0.00e+00	0	26	0	613416960	73	4455
2026-01-06 07:44:20.49	55.53	35.49	-53.4	-55.5	14.4	0.00e+00	0	26	0	615514112	73	4444
2026-01-06 07:44:21.49	55.14	35.56	-53.5	-55.5	14.3	0.00e+00	0	26	0	617611264	73	4493
2026-01-06 07:44:22.48	54.76	35.63	-53.5	-55.6	14.3	0.00e+00	0	26	0	619708416	73	4494
2026-01-06 07:44:23.48	54.37	35.70	-53.3	-55.4	14.5	0.00e+00	0	26	0	620756992	73	4392
2026-01-06 07:44:24.48	53.98	35.77	-53.2	-55.2	14.5	0.00e+00	0	26	0	622854144	73	4307
2026-01-06 07:44:25.48	53.59	35.84	-53.2	-55.1	14.4	0.00e+00	0	26	0	624951296	72	4520
2026-01-06 07:44:26.48	53.20	35.91	-53.2	-55.1	14.4	0.00e+00	0	26	0	627048448	72	4531
2026-01-06 07:44:27.48	52.81	35.97	-53.0	-54.9	14.5	0.00e+00	0	26	0	629145600	72	4435
2026-01-06 07:44:28.47	52.41	36.04	-52.9	-54.8	14.5	0.00e+00	0	26	0	630194176	72	4352
2026-01-06 07:44:29.46	52.02	36.10	-52.8	-54.6	14.7	0.00e+00	0	26	0	632291328	72	4260
2026-01-06 07:44:30.46	51.62	36.16	-52.5	-54.2	14.7	0.00e+00	0	26	0	634388480	71	4335
2026-01-06 07:44:31.47	51.22	36.22	-52.5	-54.3	14.7	0.00e+00	0	26	0	636485632	71	4366
2026-01-06 07:44:32.46	50.82	36.28	-52.5	-54.2	14.7	0.00e+00	0	26	0	637534208	71	4334
2026-01-06 07:44:33.46	50.42	36.33	-52.3	-54.1	14.8	0.00e+00	0	26	0	639631360	71	4252
2026-01-06 07:44:34.46	50.01	36.39	-52.2	-53.9	14.8	0.00e+00	0	26	0	641728512	70	4397
2026-01-06 07:44:35.45	49.61	36.44	-51.9	-53.5	14.9	0.00e+00	0	26	0	643825664	70	4232
2026-01-06 07:44:36.44	49.21	36.49	-51.9	-53.5	14.9	0.00e+00	0	26	0	645922816	70	4242
2026-01-06 07:44:37.44	48.80	36.54	-51.9	-53.6	14.9	0.00e+00	0	26	0	646971392	70	4252
2026-01-06 07:44:38.44	48.39	36.59	-52.0	-53.7	14.8	0.00e+00	0	26	0	649068544	70	4304
2026-01-06 07:44:39.43	47.99	36.63	-52.1	-53.9	14.7	0.00e+00	0	26	0	651165696	70	4396
2026-01-06 07:44:40.43	47.57	36.68	-52.0	-53.7	14.8	0.00e+00	0	26	0	653262848	70	4337
2026-01-06 07:44:41.43	47.16	36.72	-52.0	-53.8	14.8	0.00e+00	0	26	0	654311424	70	4344
2026-01-06 07:44:42.43	46.75	36.77	-52.0	-53.7	14.8	0.00e+00	0	26	0	656408576	70	4333
2026-01-06 07:44:43.43	46.33	36.81	-52.0	-53.7	14.8	0.00e+00	0	26	0	658505728	70	4326
2026-01-06 07:44:44.43	45.92	36.84	-51.8	-53.4	14.9	0.00e+00	0	26	0	660602880	70	4176
2026-01-06 07:44:45.42	45.50	36.88	-51.7	-53.3	14.8	0.00e+00	0	26	0	662700032	69	4366
2026-01-06 07:44:46.43	45.08	36.92	-51.6	-53.2	14.9	0.00e+00	0	26	0	663748608	69	4298
2026-01-06 07:44:47.43	44.66	36.95	-51.5	-53.1	14.9	0.00e+00	0	26	0	665845760	69	4277
2026-01-06 07:44:48.42	44.25	36.98	-51.4	-53.0	15.0	0.00e+00	0	26	0	667942912	69	4213
2026-01-06 07:44:49.42	43.83	37.01	-51.3	-52.8	15.1	0.00e+00	0	26	0	670040064	69	4130
2026-01-06 07:44:50.42	43.41	37.04	-51.4	-53.0	15.0	0.00e+00	0	26	0	672137216	69	4208
2026-01-06 07:44:51.42	42.99	37.07	-51.6	-53.2	14.8	0.00e+00	0	26	0	673185792	69	4336
2026-01-06 07:44:52.42	42.56	37.09	-51.9	-53.5	14.7	0.00e+00	0	26	0	675282944	69	4471
2026-01-06 07:44:53.42	42.14	37.12	-52.1	-53.8	14.6	0.00e+00	0	26	0	677380096	69	4632
2026-01-06 07:44:54.43	41.71	37.14	-52.1	-53.8	14.6	0.00e+00	0	26	0	679477248	69	4645
2026-01-06 07:44:55.43	41.29	37.16	-52.1	-53.9	14.6	0.00e+00	0	26	0	680525824	69	4656
2026-01-06 07:44:56.43	40.86	37.17	-52.2	-53.9	14.6	0.00e+00	0	26	0	682622976	69	4704
2026-01-06 07:44:57.42	40.44	37.19	-52.3	-54.1	14.5	0.00e+00	0	26	0	684720128	69	4789
2026-01-06 07:44:58.42	40.02	37.20	-52.6	-54.4	14.5	0.00e+00	0	26	0	686817280	70	4687
2026-01-06 07:44:59.42	39.59	37.22	-52.9	-54.8	14.3	0.00e+00	0	26	0	688914432	70	4881
2026-01-06 07:45:00.41	39.17	37.23	-53.1	-55.0	14.3	0.00e+00	0	26	0	689963008	71	4756
2026-01-06 07:45:01.41	38.74	37.24	-53.0	-55.0	14.4	0.00e+00	0	26	0	692060160	71	4717
2026-01-06 07:45:02.40	38.32	37.24	-53.0	-55.0	14.4	0.00e+00	0	26	0	694157312	71	4713
2026-01-06 07:45:03.40	37.89	37.25	-53.0	-54.9	14.4	0.00e+00	0	26	0	696254464	71	4699
2026-01-06 07:45:04.40	37.47	37.25	-53.1	-55.0	14.3	0.00e+00	0	26	0	698351616	71	4743
2026-01-06 07:45:05.40	37.04	37.25	-53.1	-55.0	14.3	0.00e+00	0	26	0	699400192	71	4749
2026-01-06 07:45:06.40	36.61	37.25	-53.1	-55.0	14.4	0.00e+00	0	26	0	701497344	71	4737
2026-01-06 07:45:07.40	36.19	37.25	-53.1	-55.0	14.3	0.00e+00	0	26	0	703594496	71	4758
2026-01-06 07:45:08.40	35.76	37.25	-53.0	-54.9	14.4	0.00e+00	0	26	0	705691648	71	4681
2026-01-06 07:45:09.40	35.33	37.24	-53.1	-55.1	14.3	0.00e+00	0	26	0	707788800	71	4784
2026-01-06 07:45:10.39	34.91	37.23	-53.2	-55.2	14.3	0.00e+00	0	26	0	708837376	71	4843
2026-01-06 07:45:11.40	34.48	37.22	-53.3	-55.3	14.2	0.00e+00	0	26	0	710934528	71	4925
2026-01-06 07:45:12.39	34.06	37.21	-53.4	-55.5	14.2	0.00e+00	0	26	0	713031680	72	4724
2026-01-06 07:45:13.39	33.63	37.20	-53.5	-55.5	14.2	0.00e+00	0	26	0	715128832	72	4747
2026-01-06 07:45:14.39	33.21	37.19	-53.4	-55.5	14.2	0.00e+00	0	26	0	716177408	72	4717
2026-01-06 07:45:15.39	32.78	37.17	-53.3	-55.3	14.4	0.00e+00	0	26	0	718274560	72	4608
2026-01-06 07:45:16.40	32.35	37.15	-53.3	-55.2	14.3	0.00e+00	0	26	0	720371712	72	4591
2026-01-06 07:45:17.40	31.93	37.13	-53.5	-55.6	14.2	0.00e+00	0	26	0	722468864	72	4770
2026-01-06 07:45:18.39	31.51	37.11	-53.7	-55.8	14.0	0.00e+00	0	26	0	724566016	72	4901
2026-01-06 07:45:19.40	31.08	37.09	-53.9	-56.1	13.9	0.00e+00	0	26	0	725614592	72	5092
2026-01-06 07:45:20.41	30.66	37.06	-54.0	-56.3	14.0	0.00e+00	0	26	0	727711744	73	4897
2026-01-06 07:45:21.41	30.24	37.03	-54.1	-56.4	13.9	0.00e+00	0	26	0	729808896	73	4973
2026-01-06 07:45:22.41	29.81	37.00	-54.3	-56.7	13.8	0.00e+00	0	26	0	731906048	73	5127
2026-01-06 07:45:23.41	29.39	36.97	-54.3	-56.6	13.9	0.00e+00	0	26	0	734003200	74	4813
2026-01-06 07:45:24.42	28.97	36.94	-54.3	-56.6	13.9	0.00e+00	0	26	0	735051776	74	4774
2026-01-06 07:45:25.41	28.56	36.91	-54.3	-56.7	13.9	0.00e+00	0	26	0	737148928	74	4827
2026-01-06 07:45:26.41	28.14	36.87	-54.2	-56.6	13.9	0.00e+00	0	26	0	739246080	74	4764
2026-01-06 07:45:27.41	27.72	36.83	-54.3	-56.7	13.9	0.00e+00	0	26	0	741343232	74	4822
2026-01-06 07:45:28.42	27.30	36.79	-54.3	-56.7	13.9	0.00e+00	0	26	0	742391808	74	4825
2026-01-06 07:45:29.42	26.89	36.75	-54.5	-56.9	13.8	0.00e+00	0	26	0	744488960	74	4943
2026-01-06 07:45:30.42	26.48	36.71	-54.6	-57.0	13.7	0.00e+00	0	26	0	746586112	74	5031
2026-01-06 07:45:31.43	26.06	36.67	-54.6	-57.0	13.7	0.00e+00	0	26	0	748683264	74	5036
2026-01-06 07:45:32.43	25.65	36.62	-54.5	-56.9	13.8	0.00e+00	0	26	0	750780416	74	4951
2026-01-06 07:45:33.43	25.24	36.57	-54.5	-56.9	13.8	0.00e+00	0	26	0	751828992	74	4930
2026-01-06 07:45:34.44	24.83	36.52	-54.4	-56.8	13.8	0.00e+00	0	26	0	753926144	74	4895
2026-01-06 07:45:35.44	24.42	36.47	-54.6	-57.1	13.6	0.00e+00	0	26	0	756023296	74	5084
2026-01-06 07:45:36.44	24.01	36.42	-54.7	-57.2	13.6	0.00e+00	0	26	0	758120448	74	5159
2026-01-06 07:45:37.44	23.61	36.37	-54.7	-57.3	13.6	0.00e+00	0	26	0	760217600	74	5172
2026-01-06 07:45:38.44	23.21	36.31	-54.6	-57.2	13.6	0.00e+00	0	26	0	761266176	74	5106
2026-01-06 07:45:39.45	22.80	36.26	-54.5	-56.9	13.7	0.00e+00	0	26	0	763363328	74	4971
2026-01-06 07:45:40.45	22.40	36.20	-54.4	-56.8	13.8	0.00e+00	0	26	0	765460480	74	4883
2026-01-06 07:45:41.45	22.00	36.14	-54.2	-56.6	14.0	0.00e+00	0	26	0	767557632	74	4760
2026-01-06 07:45:42.46	21.60	36.08	-53.9	-56.0	14.2	0.00e+00	0	26	0	769654784	74	4479
2026-01-06 07:45:43.46	21.20	36.01	-53.7	-55.9	14.3	0.00e+00	0	26	0	770703360	74	4392
2026-01-06 07:45:44.46	20.81	35.95	-53.8	-55.9	14.3	0.00e+00	0	26	0	772800512	74	4406
2026-01-06 07:45:45.46	20.41	35.88	-53.6	-55.7	14.2	0.00e+00	0	26	0	774897664	73	4566
2026-01-06 07:45:46.46	20.02	35.82	-53.4	-55.4	14.5	0.00e+00	0	26	0	776994816	73	4395
2026-01-06 07:45:47.46	19.63	35.75	-53.2	-55.2	14.4	0.00e+00	0	26	0	779091968	72	4546
2026-01-06 07:45:48.46	19.25	35.68	-53.1	-55.1	14.4	0.00e+00	0	26	0	780140544	72	4500
2026-01-06 07:45:49.46	18.86	35.61	-53.2	-55.2	14.4	0.00e+00	0	26	0	782237696	72	4551
2026-01-06 07:45:50.46	18.47	35.54	-53.1	-55.0	14.5	0.00e+00	0	26	0	784334848	72	4475
2026-01-06 07:45:51.46	18.09	35.46	-53.0	-54.9	14.5	0.00e+00	0	26	0	786432000	72	4405
2026-01-06 07:45:52.46	17.71	35.39	-53.0	-54.9	14.5	0.00e+00	0	26	0	787480576	72	4412
2026-01-06 07:45:53.46	17.33	35.31	-52.7	-54.5	14.7	0.00e+00	0	26	0	789577728	72	4240
2026-01-06 07:45:54.46	16.95	35.23	-52.4	-54.2	14.7	0.00e+00	0	26	0	791674880	71	4306
2026-01-06 07:45:55.46	16.58	35.15	-52.4	-54.1	14.8	0.00e+00	0	26	0	793772032	71	4276
2026-01-06 07:45:56.46	16.20	35.07	-52.4	-54.1	14.8	0.00e+00	0	26	0	795869184	71	4289
2026-01-06 07:45:57.45	15.84	34.99	-52.5	-54.3	14.7	0.00e+00	0	26	0	796917760	71	4356
2026-01-06 07:45:58.46	15.46	34.91	-52.8	-54.7	14.5	0.00e+00	0	26	0	799014912	71	4582
2026-01-06 07:45:59.47	15.09	34.83	-53.0	-54.8	14.4	0.00e+00	0	26	0	801112064	71	4651
2026-01-06 07:46:00.47	14.72	34.74	-53.0	-54.9	14.4	0.00e+00	0	26	0	803209216	71	4663
2026-01-06 07:46:01.47	14.36	34.66	-53.0	-54.9	14.4	0.00e+00	0	26	0	805306368	71	4703
2026-01-06 07:46:02.47	14.00	34.57	-53.0	-54.9	14.4	0.00e+00	0	26	0	806354944	71	4679
2026-01-06 07:46:03.48	13.63	34.48	-53.2	-55.1	14.3	0.00e+00	0	26	0	808452096	71	4806
2026-01-06 07:46:04.49	13.27	34.39	-53.3	-55.3	14.2	0.00e+00	0	26	0	810549248	71	4880
2026-01-06 07:46:05.49	12.91	34.30	-53.5	-55.7	14.2	0.00e+00	0	26	0	812646400	72	4816
2026-01-06 07:46:06.49	12.56	34.21	-54.0	-56.3	14.0	0.00e+00	0	26	0	814743552	73	4877
2026-01-06 07:46:07.49	12.21	34.12	-54.3	-56.7	13.8	0.00e+00	0	26	0	815792128	73	5127
2026-01-06 07:46:08.50	11.85	34.03	-54.4	-56.8	13.8	0.00e+00	0	26	0	817889280	74	4894
2026-01-06 07:46:09.50	11.50	33.93	-54.4	-56.8	13.8	0.00e+00	0	26	0	819986432	74	4926
2026-01-06 07:46:10.50	11.16	33.84	-54.2	-56.6	13.9	0.00e+00	0	26	0	822083584	74	4774
2026-01-06 07:46:11.50	10.81	33.74	-54.2	-56.4	14.0	0.00e+00	0	26	0	824180736	74	4700
2026-01-06 07:46:12.51	10.47	33.65	-54.0	-56.2	14.1	0.00e+00	0	26	0	825229312	74	4587
2026-01-06 07:46:13.52	10.12	33.55	-53.9	-56.0	14.2	0.00e+00	0	26	0	827326464	74	4485
2026-01-06 07:46:14.52	9.79	33.45	-54.0	-56.2	14.1	0.00e+00	0	26	0	829423616	74	4575
2026-01-06 07:46:15.52	9.45	33.35	-53.9	-56.1	14.2	0.00e+00	0	26	0	831520768	74	4534
2026-01-06 07:46:16.53	9.11	33.25	-54.1	-56.3	14.1	0.00e+00	0	26	0	833617920	74	4620
2026-01-06 07:46:17.53	8.78	33.15	-54.3	-56.6	13.9	0.00e+00	0	26	0	834666496	74	4789
2026-01-06 07:46:18.53	8.45	33.05	-54.2	-56.5	14.0	0.00e+00	0	26	0	836763648	74	4716
2026-01-06 07:46:19.53	8.12	32.95	-54.1	-56.4	14.0	0.00e+00	0	26	0	838860800	74	4685
2026-01-06 07:46:20.53	7.80	32.84	-54.1	-56.4	14.0	0.00e+00	0	26	0	840957952	74	4660
2026-01-06 07:46:21.54	7.47	32.74	-54.1	-56.4	14.0	0.00e+00	0	26	0	842006528	74	4686
2026-01-06 07:46:22.54	7.15	32.64	-54.1	-56.3	14.1	0.00e+00	0	26	0	844103680	74	4619
2026-01-06 07:46:23.54	6.83	32.53	-54.1	-56.4	14.1	0.00e+00	0	26	0	846200832	74	4654
2026-01-06 07:46:24.55	6.51	32.43	-54.0	-56.2	14.2	0.00e+00	0	26	0	848297984	74	4554
2026-01-06 07:46:25.55	6.19	32.32	-54.0	-56.3	14.1	0.00e+00	0	26	0	850395136	74	4611
2026-01-06 07:46:26.55	5.88	32.21	-54.1	-56.3	14.1	0.00e+00	0	26	0	851443712	74	4632
2026-01-06 07:46:27.55	5.57	32.11	-54.0	-56.3	14.1	0.00e+00	0	26	0	853540864	74	4608
2026-01-06 07:46:28.55	5.26	32.00	-54.0	-56.2	14.1	0.00e+00	0	26	0	855638016	74	4587
2026-01-06 07:46:29.56	4.95	31.89	-54.1	-56.4	14.0	0.00e+00	0	26	0	857735168	74	4671
2026-01-06 07:46:30.57	4.64	31.78	-54.1	-56.3	14.0	0.00e+00	0	26	0	859832320	74	4642
2026-01-06 07:46:31.58	4.33	31.67	-54.3	-56.6	13.9	0.00e+00	0	26	0	860880896	74	4789
2026-01-06 07:46:32.58	4.03	31.56	-54.3	-56.6	13.9	0.00e+00	0	26	0	862978048	74	4810
2026-01-06 07:46:33.58	3.73	31.45	-54.5	-56.9	13.7	0.00e+00	0	26	0	865075200	74	4971
2026-01-06 07:46:34.58	3.44	31.34	-54.5	-56.9	13.7	0.00e+00	0	26	0	867172352	74	4982
2026-01-06 07:46:35.59	3.14	31.23	-54.4	-56.9	13.8	0.00e+00	0	26	0	869269504	74	4932
2026-01-06 07:46:36.60	2.84	31.11	-54.4	-56.7	13.8	0.00e+00	0	26	0	870318080	74	4862
2026-01-06 07:46:37.59	2.56	31.00	-54.4	-56.8	13.8	0.00e+00	0	26	0	872415232	74	4909
2026-01-06 07:46:38.60	2.27	30.89	-54.5	-56.9	13.8	0.00e+00	0	26	0	874512384	74	4956
2026-01-06 07:46:39.60	1.98	30.78	-54.5	-57.0	13.7	0.00e+00	0	26	0	876609536	74	4986
2026-01-06 07:46:40.61	1.69	30.66	-54.5	-57.0	13.7	0.00e+00	0	26	0	878706688	74	4990
2026-01-06 07:46:41.61	1.41	30.55	-54.7	-57.2	13.6	0.00e+00	0	26	0	879755264	74	5124
2026-01-06 07:46:42.61	1.13	30.44	-54.7	-57.3	13.5	0.00e+00	0	26	0	881852416	74	5182
2026-01-06 07:46:43.62	0.85	30.32	-54.7	-57.3	13.5	0.00e+00	0	26	0	883949568	74	5165
2026-01-06 07:46:44.62	0.57	30.21	-54.6	-57.0	13.6	0.00e+00	0	26	0	886046720	74	5030
2026-01-06 07:46:45.63	0.29	30.09	-54.6	-57.1	13.6	0.00e+00	0	26	0	888143872	74	5057
2026-01-06 07:46:46.63	0.02	29.97	-54.4	-56.8	13.8	0.00e+00	0	26	0	889192448	74	4890
2026-01-06 07:46:47.64	359.75	29.86	-54.2	-56.6	13.9	0.00e+00	0	26	0	891289600	74	4773
2026-01-06 07:46:48.64	359.48	29.74	-54.2	-56.5	14.0	0.00e+00	0	26	0	893386752	74	4723
2026-01-06 07:46:49.64	359.21	29.63	-53.9	-56.1	14.2	0.00e+00	0	26	0	895483904	74	4509
2026-01-06 07:46:50.65	358.95	29.51	-53.7	-55.9	14.3	0.00e+00	0	26	0	897581056	74	4397
2026-01-06 07:46:51.65	358.68	29.39	-53.8	-55.9	14.3	0.00e+00	0	26	0	898629632	74	4417
2026-01-06 07:46:52.66	358.42	29.28	-53.8	-55.9	14.3	0.00e+00	0	26	0	900726784	74	4417
2026-01-06 07:46:53.66	358.16	29.16	-53.6	-55.7	14.2	0.00e+00	0	26	0	902823936	73	4574
2026-01-06 07:46:54.66	357.90	29.04	-53.6	-55.7	14.3	0.00e+00	0	26	0	904921088	73	4549
2026-01-06 07:46:55.66	357.65	28.93	-53.5	-55.6	14.3	0.00e+00	0	26	0	907018240	73	4501
2026-01-06 07:46:56.67	357.39	28.81	-53.4	-55.4	14.4	0.00e+00	0	26	0	908066816	73	4421
2026-01-06 07:46:57.66	357.14	28.69	-53.3	-55.3	14.5	0.00e+00	0	26	0	910163968	73	4357
2026-01-06 07:46:58.66	356.89	28.57	-53.4	-55.4	14.4	0.00e+00	0	26	0	912261120	73	4441
2026-01-06 07:46:59.67	356.64	28.46	-53.3	-55.3	14.4	0.00e+00	0	26	0	914358272	73	4370
2026-01-06 07:47:00.68	356.40	28.34	-53.1	-55.1	14.4	0.00e+00	0	26	0	915406848	72	4507
2026-01-06 07:47:01.68	356.15	28.22	-53.2	-55.2	14.3	0.00e+00	0	26	0	917504000	72	4588
2026-01-06 07:47:02.68	355.91	28.10	-53.0	-54.9	14.5	0.00e+00	0	26	0	919601152	72	4433
2026-01-06 07:47:03.68	355.67	27.98	-53.0	-54.9	14.5	0.00e+00	0	26	0	921698304	72	4406
2026-01-06 07:47:04.69	355.43	27.86	-52.9	-54.9	14.6	0.00e+00	0	26	0	923795456	72	4393
2026-01-06 07:47:05.70	355.19	27.75	-52.9	-54.8	14.6	0.00e+00	0	26	0	924844032	72	4355
2026-01-06 07:47:06.70	354.95	27.63	-52.8	-54.6	14.6	0.00e+00	0	26	0	926941184	72	4279
2026-01-06 07:47:07.70	354.72	27.51	-52.8	-54.7	14.6	0.00e+00	0	26	0	929038336	72	4298
2026-01-06 07:47:08.70	354.49	27.39	-52.7	-54.5	14.7	0.00e+00	0	26	0	931135488	72	4233
2026-01-06 07:47:09.70	354.26	27.27	-52.7	-54.6	14.5	0.00e+00	0	26	0	933232640	71	4510
2026-01-06 07:47:10.71	354.03	27.16	-52.5	-54.3	14.7	0.00e+00	0	26	0	934281216	71	4354
2026-01-06 07:47:11.72	353.80	27.04	-52.5	-54.3	14.7	0.00e+00	0	26	0	936378368	71	4386
2026-01-06 07:47:12.72	353.58	26.92	-52.4	-54.2	14.7	0.00e+00	0	26	0	938475520	71	4294
2026-01-06 07:47:13.72	353.35	26.80	-52.3	-54.1	14.8	0.00e+00	0	26	0	940572672	71	4248
2026-01-06 07:47:14.72	353.13	26.68	-52.3	-54.0	14.8	0.00e+00	0	26	0	942669824	71	4224
2026-01-06 07:47:15.73	352.91	26.56	-52.2	-53.9	14.8	0.00e+00	0	26	0	943718400	71	4189
2026-01-06 07:47:16.73	352.69	26.45	-52.3	-54.0	14.8	0.00e+00	0	26	0	945815552	71	4212
2026-01-06 07:47:17.73	352.47	26.33	-52.3	-54.1	14.8	0.00e+00	0	26	0	947912704	71	4248
2026-01-06 07:47:18.73	352.26	26.21	-52.2	-54.0	14.8	0.00e+00	0	26	0	950009856	71	4199
2026-01-06 07:47:19.74	352.04	26.09	-52.2	-54.0	14.8	0.00e+00	0	26	0	952107008	71	4199
2026-01-06 07:47:20.75	351.83	25.97	-52.2	-54.0	14.8	0.00e+00	0	26	0	953155584	71	4199
2026-01-06 07:47:21.75	351.62	25.85	-52.2	-54.0	14.8	0.00e+00	0	26	0	955252736	71	4195
2026-01-06 07:47:22.75	351.41	25.74	-52.1	-53.9	14.7	0.00e+00	0	26	0	957349888	70	4401
2026-01-06 07:47:23.75	351.21	25.62	-52.1	-53.9	14.7	0.00e+00	0	26	0	959447040	70	4403
2026-01-06 07:47:24.76	351.00	25.50	-52.2	-54.0	14.6	0.00e+00	0	26	0	961544192	70	4470
2026-01-06 07:47:25.77	350.79	25.38	-52.2	-54.0	14.7	0.00e+00	0	26	0	962592768	70	4463
2026-01-06 07:47:26.77	350.59	25.27	-52.2	-53.9	14.7	0.00e+00	0	26	0	964689920	70	4426
2026-01-06 07:47:27.77	350.39	25.15	-52.3	-54.0	14.6	0.00e+00	0	26	0	966787072	70	4488
2026-01-06 07:47:28.77	350.19	25.03	-52.3	-54.1	14.6	0.00e+00	0	26	0	968884224	70	4500
2026-01-06 07:47:29.77	349.99	24.92	-52.4	-54.2	14.6	0.00e+00	0	26	0	969932800	70	4546
2026-01-06 07:47:30.78	349.79	24.80	-52.3	-54.2	14.6	0.00e+00	0	26	0	972029952	70	4547
2026-01-06 07:47:31.78	349.60	24.68	-52.4	-54.2	14.6	0.00e+00	0	26	0	974127104	70	4582
2026-01-06 07:47:32.78	349.41	24.57	-52.4	-54.2	14.6	0.00e+00	0	26	0	976224256	70	4569
2026-01-06 07:47:33.78	349.21	24.45	-52.4	-54.2	14.5	0.00e+00	0	26	0	978321408	70	4595
2026-01-06 07:47:34.78	349.02	24.34	-52.4	-54.2	14.5	0.00e+00	0	26	0	979369984	70	4590
2026-01-06 07:47:35.78	348.84	24.22	-52.4	-54.2	14.6	0.00e+00	0	26	0	981467136	70	4584
2026-01-06 07:47:36.78	348.65	24.10	-52.3	-54.1	14.6	0.00e+00	0	26	0	983564288	70	4537
2026-01-06 07:47:37.79	348.46	23.99	-52.3	-54.1	14.6	0.00e+00	0	26	0	985661440	70	4520
2026-01-06 07:47:38.80	348.27	23.87	-52.4	-54.2	14.6	0.00e+00	0	26	0	987758592	70	4577
2026-01-06 07:47:39.80	348.09	23.76	-52.2	-54.0	14.6	0.00e+00	0	26	0	988807168	70	4464
2026-01-06 07:47:40.81	347.91	23.64	-52.1	-53.8	14.7	0.00e+00	0	26	0	990904320	70	4388
2026-01-06 07:47:41.81	347.73	23.53	-52.2	-53.9	14.7	0.00e+00	0	26	0	993001472	70	4409
2026-01-06 07:47:42.81	347.55	23.41	-52.1	-53.9	14.7	0.00e+00	0	26	0	995098624	70	4393
2026-01-06 07:47:43.82	347.37	23.30	-52.1	-53.9	14.7	0.00e+00	0	26	0	997195776	70	4401
2026-01-06 07:47:44.82	347.19	23.18	-52.3	-54.1	14.6	0.00e+00	0	26	0	998244352	70	4501
2026-01-06 07:47:45.82	347.01	23.07	-52.3	-54.1	14.6	0.00e+00	0	26	0	1000341504	70	4522
2026-01-06 07:47:46.83	346.84	22.95	-52.4	-54.2	14.6	0.00e+00	0	26	0	1002438656	70	4570
2026-01-06 07:47:47.84	346.66	22.84	-52.5	-54.3	14.5	0.00e+00	0	26	0	1004535808	70	4616
2026-01-06 07:47:48.84	346.49	22.73	-52.6	-54.4	14.4	0.00e+00	0	26	0	1006632960	70	4689
2026-01-06 07:47:49.84	346.32	22.61	-52.5	-54.4	14.5	0.00e+00	0	26	0	1007681536	70	4674
2026-01-06 07:47:50.84	346.15	22.50	-52.7	-54.6	14.4	0.00e+00	0	26	0	1009778688	70	4764
2026-01-06 07:47:51.84	345.99	22.39	-52.8	-54.7	14.3	0.00e+00	0	26	0	1011875840	70	4833
2026-01-06 07:47:52.85	345.82	22.28	-52.8	-54.8	14.3	0.00e+00	0	26	0	1013972992	70	4889
2026-01-06 07:47:53.85	345.65	22.16	-52.9	-54.8	14.4	0.00e+00	0	26	0	1016070144	71	4650
2026-01-06 07:47:54.86	345.49	22.05	-52.9	-54.8	14.4	0.00e+00	0	26	0	1017118720	71	4623
2026-01-06 07:47:55.87	345.32	21.94	-53.0	-55.0	14.3	0.00e+00	0	26	0	1019215872	71	4723
2026-01-06 07:47:56.87	345.16	21.83	-53.0	-55.0	14.3	0.00e+00	0	26	0	1021313024	71	4734
2026-01-06 07:47:57.87	345.00	21.72	-53.1	-55.2	14.2	0.00e+00	0	26	0	1023410176	71	4831
2026-01-06 07:47:58.87	344.84	21.61	-53.2	-55.3	14.1	0.00e+00	0	26	0	1025507328	71	4903
2026-01-06 07:47:59.88	344.68	21.49	-53.4	-55.5	14.0	0.00e+00	0	26	0	1026555904	71	5038
2026-01-06 07:48:00.88	344.52	21.38	-53.5	-55.6	14.1	0.00e+00	0	26	0	1028653056	72	4809
2026-01-06 07:48:01.89	344.37	21.27	-53.6	-55.8	14.0	0.00e+00	0	26	0	1030750208	72	4894
2026-01-06 07:48:02.89	344.21	21.16	-53.7	-55.9	14.0	0.00e+00	0	26	0	1032847360	72	4953
2026-01-06 07:48:03.88	344.06	21.06	-53.6	-55.8	14.0	0.00e+00	0	26	0	1033895936	72	4926
2026-01-06 07:48:04.88	343.91	20.95	-53.6	-55.8	14.0	0.00e+00	0	26	0	1035993088	72	4875
2026-01-06 07:48:05.88	343.76	20.84	-53.4	-55.6	14.1	0.00e+00	0	26	0	1038090240	72	4775
2026-01-06 07:48:06.88	343.61	20.73	-53.4	-55.5	14.2	0.00e+00	0	26	0	1040187392	72	4735
2026-01-06 07:48:07.89	343.46	20.62	-53.3	-55.3	14.3	0.00e+00	0	26	0	1042284544	72	4644
2026-01-06 07:48:08.89	343.31	20.51	-53.2	-55.3	14.3	0.00e+00	0	26	0	1043333120	72	4611
2026-01-06 07:48:09.90	343.16	20.40	-53.2	-55.3	14.3	0.00e+00	0	26	0	1045430272	72	4618
2026-01-06 07:48:10.90	343.01	20.29	-53.3	-55.3	14.3	0.00e+00	0	26	0	1047527424	72	4641
2026-01-06 07:48:11.90	342.87	20.19	-53.3	-55.4	14.2	0.00e+00	0	26	0	1049624576	72	4661
2026-01-06 07:48:12.91	342.72	20.08	-53.3	-55.4	14.2	0.00e+00	0	26	0	1051721728	72	4690
2026-01-06 07:48:13.90	342.58	19.97	-53.3	-55.4	14.2	0.00e+00	0	26	0	1052770304	72	4698
2026-01-06 07:48:14.91	342.44	19.86	-53.5	-55.6	14.1	0.00e+00	0	26	0	1054867456	72	4808
2026-01-06 07:48:15.91	342.30	19.76	-53.5	-55.6	14.1	0.00e+00	0	26	0	1056964608	72	4788
2026-01-06 07:48:16.91	342.16	19.65	-53.4	-55.5	14.2	0.00e+00	0	26	0	1059061760	72	4722
2026-01-06 07:48:17.92	342.02	19.55	-53.5	-55.7	14.1	0.00e+00	0	26	0	1061158912	72	4827
2026-01-06 07:48:18.93	341.88	19.44	-53.5	-55.6	14.0	0.00e+00	0	26	0	1062207488	72	4811
2026-01-06 07:48:19.93	341.74	19.33	-53.4	-55.5	14.2	0.00e+00	0	26	0	1064304640	72	4731
2026-01-06 07:48:20.94	341.60	19.23	-53.3	-55.4	14.2	0.00e+00	0	26	0	1066401792	72	4681
2026-01-06 07:48:21.94	341.47	19.12	-53.3	-55.4	14.2	0.00e+00	0	26	0	1068498944	72	4675
2026-01-06 07:48:22.95	341.33	19.02	-53.2	-55.3	14.3	0.00e+00	0	26	0	1070596096	72	4603
2026-01-06 07:48:23.96	341.20	18.91	-53.2	-55.2	14.3	0.00e+00	0	26	0	1071644672	72	4594
2026-01-06 07:48:24.96	341.07	18.81	-53.1	-55.0	14.4	0.00e+00	0	26	0	1073741824	72	4493
2026-01-06 07:48:25.96	340.93	18.70	-53.1	-55.2	14.3	0.00e+00	0	26	0	1075838976	72	4558
2026-01-06 07:48:26.96	340.80	18.60	-53.2	-55.2	14.3	0.00e+00	0	26	0	1077936128	72	4569
2026-01-06 07:48:27.95	340.68	18.50	-53.2	-55.3	14.3	0.00e+00	0	26	0	1080033280	72	4610
2026-01-06 07:48:28.94	340.55	18.40	-53.1	-55.1	14.3	0.00e+00	0	26	0	1081081856	72	4540
2026-01-06 07:48:29.94	340.42	18.30	-53.3	-55.4	14.2	0.00e+00	0	26	0	1083179008	72	4656
2026-01-06 07:48:30.95	340.29	18.19	-53.2	-55.2	14.3	0.00e+00	0	26	0	1085276160	72	4575
2026-01-06 07:48:31.95	340.17	18.09	-53.2	-55.3	14.3	0.00e+00	0	26	0	1087373312	72	4606
2026-01-06 07:48:32.95	340.04	17.99	-53.3	-55.4	14.2	0.00e+00	0	26	0	1088421888	72	4666
2026-01-06 07:48:33.94	339.92	17.89	-53.2	-55.2	14.3	0.00e+00	0	26	0	1090519040	72	4595
2026-01-06 07:48:34.94	339.80	17.79	-53.1	-55.1	14.3	0.00e+00	0	26	0	1092616192	72	4528
2026-01-06 07:48:35.94	339.67	17.69	-53.1	-55.2	14.3	0.00e+00	0	26	0	1094713344	72	4565
2026-01-06 07:48:36.93	339.55	17.59	-53.0	-55.0	14.4	0.00e+00	0	26	0	1096810496	72	4476
2026-01-06 07:48:37.93	339.43	17.49	-53.1	-55.2	14.3	0.00e+00	0	26	0	1097859072	72	4550
2026-01-06 07:48:38.93	339.31	17.39	-53.1	-55.2	14.3	0.00e+00	0	26	0	1099956224	72	4561
2026-01-06 07:48:39.93	339.19	17.29	-53.2	-55.3	14.3	0.00e+00	0	26	0	1102053376	72	4618
2026-01-06 07:48:40.93	339.07	17.19	-53.2	-55.3	14.2	0.00e+00	0	26	0	1104150528	72	4613
2026-01-06 07:48:41.94	338.96	17.09	-53.3	-55.4	14.2	0.00e+00	0	26	0	1105199104	72	4655
2026-01-06 07:48:42.93	338.84	16.99	-53.3	-55.4	14.2	0.00e+00	0	26	0	1107296256	72	4673
2026-01-06 07:48:43.94	338.72	16.89	-53.4	-55.5	14.1	0.00e+00	0	26	0	1109393408	72	4735
2026-01-06 07:48:44.94	338.61	16.79	-53.2	-55.3	14.2	0.00e+00	0	26	0	1111490560	72	4636
2026-01-06 07:48:45.95	338.49	16.69	-53.3	-55.4	14.2	0.00e+00	0	26	0	1113587712	72	4694
2026-01-06 07:48:46.95	338.38	16.59	-53.3	-55.4	14.2	0.00e+00	0	26	0	1115684864	72	4683
2026-01-06 07:48:47.94	338.27	16.50	-53.3	-55.4	14.2	0.00e+00	0	26	0	1116733440	72	4661
2026-01-06 07:48:48.93	338.16	16.40	-53.2	-55.3	14.2	0.00e+00	0	26	0	1118830592	72	4608
2026-01-06 07:48:49.93	338.04	16.30	-53.3	-55.4	14.2	0.00e+00	0	26	0	1120927744	72	4664
2026-01-06 07:48:50.93	337.93	16.21	-53.2	-55.3	14.2	0.00e+00	0	26	0	1123024896	72	4645
2026-01-06 07:48:51.93	337.82	16.11	-53.2	-55.2	14.3	0.00e+00	0	26	0	1124073472	72	4594
2026-01-06 07:48:52.93	337.71	16.01	-53.2	-55.3	14.2	0.00e+00	0	26	0	1126170624	72	4643
2026-01-06 07:48:53.94	337.60	15.92	-53.3	-55.5	14.1	0.00e+00	0	26	0	1128267776	72	4707
2026-01-06 07:48:54.94	337.50	15.82	-53.3	-55.4	14.2	0.00e+00	0	26	0	1130364928	72	4655
2026-01-06 07:48:55.95	337.39	15.73	-53.4	-55.5	14.0	0.00e+00	0	26	0	1132462080	72	4750
2026-01-06 07:48:56.95	337.28	15.63	-53.3	-55.4	14.2	0.00e+00	0	26	0	1133510656	72	4658
2026-01-06 07:48:57.94	337.18	15.54	-53.3	-55.4	14.1	0.00e+00	0	26	0	1135607808	72	4698
2026-01-06 07:48:58.94	337.07	15.44	-53.2	-55.3	14.2	0.00e+00	0	26	0	1137704960	72	4647
2026-01-06 07:48:59.95	336.97	15.35	-53.2	-55.3	14.2	0.00e+00	0	26	0	1139802112	72	4623
2026-01-06 07:49:00.94	336.86	15.25	-53.1	-55.2	14.3	0.00e+00	0	26	0	1140850688	72	4581
2026-01-06 07:49:01.94	336.76	15.16	-53.1	-55.2	14.3	0.00e+00	0	26	0	1142947840	72	4557
2026-01-06 07:49:02.95	336.66	15.07	-53.1	-55.1	14.3	0.00e+00	0	26	0	1145044992	72	4515
2026-01-06 07:49:03.95	336.56	14.97	-53.1	-55.2	14.2	0.00e+00	0	26	0	1147142144	72	4582
2026-01-06 07:49:04.95	336.46	14.88	-53.1	-55.2	14.3	0.00e+00	0	26	0	1149239296	72	4552
2026-01-06 07:49:05.95	336.36	14.79	-53.1	-55.1	14.3	0.00e+00	0	26	0	1150287872	72	4521
2026-01-06 07:49:06.95	336.26	14.69	-53.2	-55.2	14.2	0.00e+00	0	26	0	1152385024	72	4589
2026-01-06 07:49:07.96	336.16	14.60	-53.1	-55.2	14.3	0.00e+00	0	26	0	1154482176	72	4580
2026-01-06 07:49:08.96	336.06	14.51	-53.2	-55.3	14.2	0.00e+00	0	26	0	1156579328	72	4642
2026-01-06 07:49:09.96	335.96	14.42	-53.4	-55.6	14.1	0.00e+00	0	26	0	1158676480	72	4784
2026-01-06 07:49:10.96	335.86	14.33	-53.5	-55.7	14.0	0.00e+00	0	26	0	1159725056	72	4839
2026-01-06 07:49:11.95	335.77	14.24	-53.4	-55.6	14.1	7.00e-07	0	26	0	1161822208	72	4778
2026-01-06 07:49:12.95	335.67	14.14	-53.4	-55.6	14.0	0.00e+00	0	26	0	1163919360	72	4760
2026-01-06 07:49:13.95	335.58	14.05	-53.4	-55.6	14.1	0.00e+00	0	26	0	1166016512	72	4763
2026-01-06 07:49:14.95	335.48	13.96	-53.5	-55.7	14.0	1.50e-06	0	26	0	1168113664	72	4833
2026-01-06 07:49:15.95	335.39	13.87	-53.5	-55.8	13.9	0.00e+00	0	26	0	1169162240	72	4907
2026-01-06 07:49:16.96	335.29	13.78	-53.6	-55.9	13.9	0.00e+00	0	26	0	1171259392	72	4973
2026-01-06 07:49:17.97	335.20	13.69	-53.6	-55.8	13.9	0.00e+00	0	26	0	1173356544	72	4926
2026-01-06 07:49:18.97	335.11	13.60	-53.6	-55.9	13.9	3.80e-06	0	26	0	1175453696	72	4942
2026-01-06 07:49:19.97	335.01	13.51	-53.6	-56.0	13.9	0.00e+00	0	26	0	1177550848	72	4988
2026-01-06 07:49:20.97	334.92	13.42	-53.6	-55.9	13.9	1.50e-06	0	26	0	1178599424	72	4963
2026-01-06 07:49:21.97	334.83	13.34	-53.7	-56.0	13.8	0.00e+00	0	26	0	1180696576	72	5018
2026-01-06 07:49:22.98	334.74	13.25	-53.5	-55.8	13.9	0.00e+00	0	26	0	1182793728	72	4904
2026-01-06 07:49:23.98	334.65	13.16	-53.5	-55.8	13.9	0.00e+00	0	26	0	1184890880	72	4885
2026-01-06 07:49:24.98	334.56	13.07	-53.6	-55.9	13.9	0.00e+00	0	26	0	1185939456	72	4936
2026-01-06 07:49:25.98	334.47	12.98	-53.6	-55.9	13.9	6.10e-06	0	26	0	1188036608	72	4957
2026-01-06 07:49:26.98	334.39	12.90	-53.5	-55.7	14.0	0.00e+00	0	26	0	1190133760	72	4847
2026-01-06 07:49:27.98	334.30	12.81	-53.6	-55.8	13.9	3.80e-06	0	26	0	1192230912	72	4917
2026-01-06 07:49:28.98	334.21	12.72	-53.6	-55.9	13.9	0.00e+00	0	26	0	1194328064	72	4957
2026-01-06 07:49:29.97	334.13	12.64	-53.6	-55.9	13.9	0.00e+00	0	26	0	1195376640	72	4981
2026-01-06 07:49:30.98	334.04	12.55	-53.6	-55.9	13.8	0.00e+00	0	26	0	1197473792	72	4976
2026-01-06 07:49:31.99	333.95	12.46	-53.6	-55.9	13.8	0.00e+00	0	26	0	1199570944	72	4964
2026-01-06 07:49:32.99	333.87	12.38	-53.7	-56.1	13.7	0.00e+00	0	26	0	1201668096	72	5076
2026-01-06 07:49:33.99	333.79	12.29	-53.8	-56.2	13.7	0.00e+00	0	26	0	1203765248	72	5113
2026-01-06 07:49:34.99	333.70	12.20	-53.8	-56.2	13.7	0.00e+00	0	26	0	1204813824	72	5141
2026-01-06 07:49:36.00	333.62	12.12	-54.0	-56.5	13.7	0.00e+00	0	26	0	1206910976	73	5002
2026-01-06 07:49:36.99	333.54	12.03	-54.0	-56.4	13.7	0.00e+00	0	26	0	1209008128	73	4969
2026-01-06 07:49:38.00	333.45	11.95	-54.2	-56.8	13.5	0.00e+00	0	26	0	1211105280	73	5192
2026-01-06 07:49:39.01	333.37	11.86	-54.1	-56.7	13.5	0.00e+00	0	26	0	1213202432	73	5102
2026-01-06 07:49:40.01	333.29	11.78	-54.2	-56.8	13.5	0.00e+00	0	26	0	1214251008	73	5198
2026-01-06 07:49:41.01	333.21	11.69	-54.3	-57.0	13.3	0.00e+00	0	26	0	1216348160	73	5307
2026-01-06 07:49:42.00	333.13	11.61	-54.1	-56.7	13.5	0.00e+00	0	26	0	1218445312	73	5113
2026-01-06 07:49:43.00	333.05	11.53	-54.3	-56.9	13.4	0.00e+00	0	26	0	1220542464	73	5254
2026-01-06 07:49:43.99	332.97	11.45	-54.3	-56.9	13.4	0.00e+00	0	26	0	1221591040	73	5276
2026-01-06 07:49:45.00	332.89	11.36	-54.3	-57.0	13.3	0.00e+00	0	26	0	1223688192	73	5311
2026-01-06 07:49:45.99	332.81	11.28	-54.2	-56.8	13.4	0.00e+00	0	26	0	1225785344	73	5183
2026-01-06 07:49:46.99	332.74	11.20	-54.1	-56.7	13.5	0.00e+00	0	26	0	1227882496	73	5152
2026-01-06 07:49:48.00	332.66	11.11	-54.0	-56.6	13.6	0.00e+00	0	26	0	1229979648	73	5047
