passes_logs/2026/01/06/R3.2S_Murmansk/R3.2S_Murmansk__20260106_012955_AQUA_rec.log

#Pass ID: 20260106_012955_AQUA
#Satellite: AQUA
#Configuration: AQUA
#almurnet v.1.7.20251203
#Start time: 2026-01-06 01:29:56

#Version: 2.2.20231116
#Station: R3.2S_Murmansk
#Location: 33.079688 lon 68.888172 lat
#TLE: 1 27424U 02022A   26004.96787593  .00001598  00000+0  32997-3 0  9996
#TLE: 2 27424  98.4069 331.2279 0002002  90.2377   0.6092 14.61798176259425

#Time	Az	El	Level	Level2	SNR	BER	BlckErr	Temp	State	Recorded	gain1	gain2
2026-01-06 01:29:56.43	21.91	2.05	-57.8	-76.3	3.8	7.45e-01	0	24	0	0	84	30325
2026-01-06 01:29:57.43	21.95	2.11	-57.5	-75.0	3.9	7.42e-01	0	24	104	0	82	29090
2026-01-06 01:29:58.43	21.98	2.18	-57.5	-74.1	3.9	7.43e-01	0	24	104	0	82	26249
2026-01-06 01:29:59.42	22.01	2.24	-57.5	-73.1	4.3	7.30e-01	0	24	104	0	82	23555
2026-01-06 01:30:00.43	22.04	2.31	-57.5	-73.3	3.9	7.39e-01	0	24	104	0	82	24060
2026-01-06 01:30:01.42	22.07	2.37	-57.5	-72.4	4.5	7.24e-01	0	24	104	0	82	21516
2026-01-06 01:30:02.42	22.10	2.44	-57.5	-72.7	3.9	7.39e-01	0	24	104	0	82	22381
2026-01-06 01:30:03.41	22.14	2.51	-57.4	-72.2	4.5	7.25e-01	0	24	104	0	82	21227
2026-01-06 01:30:04.41	22.17	2.57	-57.4	-72.5	3.9	7.37e-01	0	24	104	0	82	21954
2026-01-06 01:30:05.40	22.20	2.64	-57.5	-73.1	3.9	7.40e-01	0	24	104	0	82	23566
2026-01-06 01:30:06.40	22.23	2.70	-57.4	-72.3	4.6	7.21e-01	0	24	104	0	82	21304
2026-01-06 01:30:07.41	22.26	2.77	-57.5	-73.4	3.9	7.41e-01	0	24	104	0	82	24282
2026-01-06 01:30:08.41	22.30	2.84	-57.5	-72.9	4.3	7.30e-01	0	24	104	0	82	22794
2026-01-06 01:30:09.41	22.33	2.90	-57.4	-73.0	3.9	7.39e-01	0	24	104	0	82	23189
2026-01-06 01:30:10.41	22.36	2.97	-57.5	-72.0	4.6	7.21e-01	0	24	104	0	82	20746
2026-01-06 01:30:11.40	22.40	3.04	-57.4	-70.8	5.2	7.04e-01	0	24	0	0	82	17963
2026-01-06 01:30:12.40	22.43	3.11	-57.3	-70.0	5.7	6.92e-01	76	25	0	524288	82	16448
2026-01-06 01:30:13.39	22.46	3.17	-57.3	-68.9	6.4	6.68e-01	92	25	0	2097152	82	14377
2026-01-06 01:30:14.39	22.49	3.24	-57.2	-68.0	7.0	6.51e-01	92	25	0	4194304	82	13013
2026-01-06 01:30:15.38	22.53	3.31	-57.1	-67.5	7.6	6.45e-01	76	25	0	5767168	82	12278
2026-01-06 01:30:16.38	22.56	3.38	-57.1	-67.5	7.6	6.46e-01	67	25	0	7864320	82	12248
2026-01-06 01:30:17.38	22.60	3.44	-57.1	-66.8	8.2	6.36e-01	0	25	0	9437184	82	11317
2026-01-06 01:30:18.38	22.63	3.51	-57.1	-67.1	7.9	6.40e-01	11	25	0	11534336	82	11722
2026-01-06 01:30:19.37	22.66	3.58	-57.1	-67.4	7.7	6.43e-01	50	25	0	13107200	82	12121
2026-01-06 01:30:20.37	22.70	3.65	-57.2	-67.5	7.6	6.47e-01	74	25	0	15204352	82	12316
2026-01-06 01:30:21.36	22.73	3.72	-57.1	-67.5	7.6	6.46e-01	73	25	0	17301504	82	12260
2026-01-06 01:30:22.36	22.77	3.79	-57.0	-66.5	8.4	6.27e-01	0	25	0	18874368	82	10985
2026-01-06 01:30:23.36	22.80	3.86	-56.8	-65.1	9.7	6.15e-01	0	25	0	20971520	82	9292
2026-01-06 01:30:24.36	22.84	3.93	-56.6	-63.9	10.6	6.14e-01	0	25	0	22544384	82	8148
2026-01-06 01:30:25.35	22.87	3.99	-56.2	-62.6	11.6	6.05e-01	0	25	0	24641536	81	7405
2026-01-06 01:30:26.35	22.91	4.06	-55.8	-61.3	12.4	6.04e-01	0	25	0	26214400	80	6788
2026-01-06 01:30:27.35	22.94	4.13	-54.9	-59.7	13.2	6.01e-01	0	25	0	28311552	79	5984
2026-01-06 01:30:28.34	22.98	4.20	-54.9	-59.2	13.7	6.00e-01	0	25	0	30408704	79	5609
2026-01-06 01:30:29.34	23.01	4.27	-54.5	-58.3	14.0	6.03e-01	0	25	0	31981568	78	5401
2026-01-06 01:30:30.33	23.05	4.34	-54.2	-57.8	14.2	6.00e-01	0	25	0	34078720	77	5379
2026-01-06 01:30:31.33	23.08	4.42	-54.0	-57.3	14.4	6.01e-01	0	25	0	35651584	77	5087
2026-01-06 01:30:32.32	23.12	4.49	-54.0	-57.4	14.4	6.01e-01	0	25	0	37748736	77	5126
2026-01-06 01:30:33.31	23.16	4.56	-53.8	-57.1	14.4	5.99e-01	0	25	0	39321600	76	5228
2026-01-06 01:30:34.31	23.19	4.63	-53.9	-57.3	14.3	6.01e-01	0	25	0	41418752	76	5346
2026-01-06 01:30:35.31	23.23	4.70	-54.1	-57.6	14.1	6.05e-01	0	25	0	42991616	76	5547
2026-01-06 01:30:36.30	23.27	4.77	-54.4	-58.1	13.9	6.01e-01	0	25	0	45088768	76	5919
2026-01-06 01:30:37.29	23.30	4.84	-54.5	-58.3	13.8	6.02e-01	0	25	0	47185920	76	6052
2026-01-06 01:30:38.28	23.34	4.91	-54.9	-59.1	13.5	5.99e-01	0	25	0	48758784	77	6224
2026-01-06 01:30:39.27	23.38	4.99	-55.1	-59.6	13.2	6.01e-01	0	25	0	50855936	77	6613
2026-01-06 01:30:40.28	23.42	5.06	-55.2	-59.6	13.3	6.02e-01	0	25	0	52428800	78	6261
2026-01-06 01:30:41.27	23.45	5.13	-56.0	-61.7	12.1	6.01e-01	0	25	0	54525952	80	7050
2026-01-06 01:30:42.27	23.49	5.21	-53.9	-57.2	14.4	6.01e-01	0	25	0	56098816	76	5325
2026-01-06 01:30:43.26	23.53	5.28	-56.4	-63.5	10.7	6.07e-01	0	25	0	58195968	81	8190
2026-01-06 01:30:44.26	23.57	5.35	-52.4	-55.0	15.0	5.99e-01	0	25	0	59768832	74	4600
2026-01-06 01:30:45.25	23.61	5.43	-57.2	-66.4	8.2	6.34e-01	2	25	0	61865984	82	10878
2026-01-06 01:30:46.24	23.64	5.50	-52.2	-54.7	15.0	6.01e-01	0	25	0	63963136	73	4726
2026-01-06 01:30:47.23	23.68	5.57	-51.9	-54.3	15.2	6.00e-01	0	25	0	65536000	73	4508
2026-01-06 01:30:48.23	23.72	5.65	-51.6	-53.8	15.2	6.00e-01	0	25	0	67633152	72	4525
2026-01-06 01:30:49.22	23.76	5.72	-51.4	-53.6	15.3	6.01e-01	0	25	0	69206016	72	4400
2026-01-06 01:30:50.22	23.80	5.80	-51.4	-53.6	15.1	6.00e-01	0	25	0	71303168	71	4694
2026-01-06 01:30:51.21	23.84	5.87	-51.5	-53.7	15.1	6.01e-01	0	25	0	72876032	71	4718
2026-01-06 01:30:52.20	23.88	5.95	-51.3	-53.4	15.2	6.01e-01	0	25	0	74973184	71	4567
2026-01-06 01:30:53.19	23.92	6.02	-51.2	-53.4	15.2	6.01e-01	0	25	0	76546048	71	4554
2026-01-06 01:30:54.20	23.96	6.10	-51.4	-53.5	15.2	6.01e-01	0	25	0	78643200	71	4636
2026-01-06 01:30:55.20	24.00	6.17	-51.2	-53.3	15.3	6.00e-01	0	25	0	80740352	71	4508
2026-01-06 01:30:56.20	24.04	6.25	-51.2	-53.3	15.2	6.01e-01	0	25	0	82313216	71	4515
2026-01-06 01:30:57.20	24.08	6.33	-51.3	-53.5	15.2	5.99e-01	0	25	0	84410368	71	4608
2026-01-06 01:30:58.20	24.12	6.40	-51.4	-53.5	15.1	6.01e-01	0	25	0	85983232	71	4636
2026-01-06 01:30:59.19	24.16	6.48	-51.3	-53.4	15.2	6.00e-01	0	25	0	88080384	71	4561
2026-01-06 01:31:00.19	24.20	6.56	-51.2	-53.3	15.3	5.99e-01	0	25	0	89653248	71	4524
2026-01-06 01:31:01.18	24.25	6.63	-51.2	-53.3	15.3	6.00e-01	0	25	0	91750400	71	4514
2026-01-06 01:31:02.18	24.29	6.71	-51.2	-53.3	15.3	5.99e-01	0	25	0	93847552	71	4534
2026-01-06 01:31:03.18	24.33	6.79	-51.2	-53.4	15.2	6.00e-01	0	25	0	95420416	71	4546
2026-01-06 01:31:04.18	24.37	6.87	-51.2	-53.3	15.3	6.00e-01	0	26	0	97517568	71	4509
2026-01-06 01:31:05.19	24.42	6.95	-51.3	-53.4	15.2	5.97e-01	0	25	0	99090432	71	4560
2026-01-06 01:31:06.19	24.46	7.03	-51.2	-53.3	15.2	6.02e-01	0	25	0	101187584	71	4539
2026-01-06 01:31:07.19	24.50	7.11	-51.1	-53.2	15.3	6.01e-01	0	25	0	102760448	71	4452
2026-01-06 01:31:08.19	24.55	7.19	-51.2	-53.3	15.3	6.02e-01	0	26	0	104857600	71	4510
2026-01-06 01:31:09.19	24.59	7.27	-51.2	-53.2	15.3	6.02e-01	0	25	0	106954752	71	4488
2026-01-06 01:31:10.19	24.63	7.35	-51.2	-53.3	15.3	5.99e-01	0	25	0	108527616	71	4511
2026-01-06 01:31:11.19	24.68	7.43	-51.0	-53.0	15.4	6.01e-01	0	26	0	110624768	71	4360
2026-01-06 01:31:12.20	24.72	7.51	-51.0	-53.0	15.4	6.01e-01	0	25	0	112197632	71	4391
2026-01-06 01:31:13.19	24.77	7.59	-51.0	-53.0	15.4	6.00e-01	0	25	0	114294784	71	4356
2026-01-06 01:31:14.19	24.81	7.67	-51.0	-53.0	15.4	6.01e-01	0	26	0	116391936	71	4346
2026-01-06 01:31:15.19	24.86	7.75	-51.0	-53.0	15.4	6.02e-01	0	25	0	117964800	71	4387
2026-01-06 01:31:16.18	24.90	7.83	-50.9	-52.9	15.4	6.03e-01	0	25	0	120061952	71	4314
2026-01-06 01:31:17.18	24.95	7.91	-51.1	-53.1	15.4	6.00e-01	0	25	0	121634816	71	4406
2026-01-06 01:31:18.18	24.99	7.99	-50.9	-52.8	15.5	6.01e-01	0	25	0	123731968	71	4289
2026-01-06 01:31:19.18	25.04	8.08	-50.9	-52.8	15.5	6.02e-01	0	25	0	125304832	71	4289
2026-01-06 01:31:20.18	25.08	8.16	-50.9	-52.9	15.3	6.02e-01	0	25	0	127401984	70	4549
2026-01-06 01:31:21.17	25.13	8.24	-50.9	-52.8	15.3	5.99e-01	0	25	0	128974848	70	4537
2026-01-06 01:31:22.17	25.18	8.33	-50.9	-52.9	15.3	6.02e-01	0	26	0	131072000	70	4578
2026-01-06 01:31:23.17	25.22	8.41	-50.9	-52.8	15.3	6.00e-01	0	26	0	133169152	70	4541
2026-01-06 01:31:24.17	25.27	8.49	-50.8	-52.7	15.3	6.01e-01	0	26	0	134742016	70	4492
2026-01-06 01:31:25.17	25.32	8.58	-50.8	-52.8	15.3	6.00e-01	0	25	0	136839168	70	4519
2026-01-06 01:31:26.17	25.37	8.66	-50.8	-52.7	15.3	5.98e-01	0	26	0	138412032	70	4469
2026-01-06 01:31:27.17	25.41	8.75	-50.8	-52.7	15.3	6.00e-01	0	25	0	140509184	70	4463
2026-01-06 01:31:28.18	25.46	8.83	-50.7	-52.6	15.4	6.03e-01	0	26	0	142082048	70	4430
2026-01-06 01:31:29.18	25.51	8.92	-50.7	-52.7	15.4	6.00e-01	0	26	0	144179200	70	4448
2026-01-06 01:31:30.17	25.56	9.00	-50.8	-52.7	15.3	6.01e-01	0	26	0	146276352	70	4485
2026-01-06 01:31:31.17	25.61	9.09	-50.8	-52.8	15.3	5.98e-01	0	26	0	147849216	70	4517
2026-01-06 01:31:32.17	25.66	9.18	-50.7	-52.6	15.4	6.01e-01	0	26	0	149946368	70	4434
2026-01-06 01:31:33.16	25.71	9.26	-50.6	-52.5	15.4	6.00e-01	0	25	0	151519232	70	4369
2026-01-06 01:31:34.16	25.76	9.35	-50.6	-52.5	15.4	6.00e-01	0	26	0	153616384	70	4385
2026-01-06 01:31:35.16	25.81	9.44	-50.5	-52.4	15.4	6.02e-01	0	25	0	155189248	70	4327
2026-01-06 01:31:36.16	25.86	9.52	-50.6	-52.5	15.4	6.02e-01	0	26	0	157286400	70	4357
2026-01-06 01:31:37.16	25.91	9.61	-50.5	-52.4	15.5	5.99e-01	0	26	0	159383552	70	4294
2026-01-06 01:31:38.17	25.96	9.70	-50.5	-52.3	15.5	6.01e-01	0	26	0	160956416	70	4272
2026-01-06 01:31:39.16	26.01	9.79	-50.5	-52.3	15.5	6.02e-01	0	26	0	163053568	70	4275
2026-01-06 01:31:40.17	26.07	9.88	-50.4	-52.3	15.5	6.02e-01	0	25	0	164626432	70	4258
2026-01-06 01:31:41.17	26.12	9.97	-50.4	-52.2	15.5	6.01e-01	0	26	0	166723584	70	4216
2026-01-06 01:31:42.16	26.17	10.06	-50.4	-52.2	15.5	6.00e-01	0	26	0	168296448	70	4218
2026-01-06 01:31:43.16	26.22	10.15	-50.4	-52.3	15.5	6.02e-01	0	26	0	170393600	70	4263
2026-01-06 01:31:44.16	26.28	10.24	-50.4	-52.3	15.5	6.00e-01	0	25	0	172490752	70	4250
2026-01-06 01:31:45.16	26.33	10.33	-50.3	-52.2	15.4	5.99e-01	0	26	0	174063616	69	4447
2026-01-06 01:31:46.17	26.38	10.42	-50.3	-52.1	15.4	6.03e-01	0	26	0	176160768	69	4427
2026-01-06 01:31:47.17	26.44	10.51	-50.4	-52.2	15.4	5.99e-01	0	26	0	177733632	69	4465
2026-01-06 01:31:48.17	26.49	10.60	-50.3	-52.2	15.4	6.01e-01	0	25	0	179830784	69	4456
2026-01-06 01:31:49.17	26.55	10.70	-50.3	-52.2	15.4	6.01e-01	0	25	0	181927936	69	4450
2026-01-06 01:31:50.18	26.60	10.79	-50.5	-52.3	15.3	6.02e-01	0	26	0	183500800	69	4529
2026-01-06 01:31:51.18	26.66	10.88	-50.5	-52.4	15.3	5.99e-01	0	26	0	185597952	69	4561
2026-01-06 01:31:52.18	26.71	10.98	-50.4	-52.2	15.4	6.02e-01	0	25	0	187170816	69	4479
2026-01-06 01:31:53.18	26.77	11.07	-50.4	-52.3	15.4	5.99e-01	0	26	0	189267968	69	4496
2026-01-06 01:31:54.19	26.83	11.17	-50.4	-52.2	15.4	6.00e-01	0	26	0	191365120	69	4484
2026-01-06 01:31:55.19	26.88	11.26	-50.3	-52.1	15.4	6.03e-01	0	26	0	192937984	69	4439
2026-01-06 01:31:56.19	26.94	11.35	-50.3	-52.2	15.4	6.00e-01	0	26	0	195035136	69	4446
2026-01-06 01:31:57.19	27.00	11.45	-50.2	-52.0	15.4	6.03e-01	0	26	0	196608000	69	4379
2026-01-06 01:31:58.20	27.06	11.55	-50.2	-52.0	15.4	5.98e-01	0	26	0	198705152	69	4370
2026-01-06 01:31:59.20	27.12	11.64	-50.2	-52.0	15.4	5.99e-01	0	26	0	200278016	69	4386
2026-01-06 01:32:00.20	27.18	11.74	-50.2	-52.0	15.4	5.99e-01	0	26	0	202375168	69	4374
2026-01-06 01:32:01.20	27.23	11.84	-50.2	-51.9	15.5	6.00e-01	0	26	0	204472320	69	4328
2026-01-06 01:32:02.21	27.30	11.93	-50.2	-52.0	15.4	6.00e-01	0	26	0	206045184	69	4366
2026-01-06 01:32:03.21	27.36	12.03	-50.2	-52.0	15.4	6.01e-01	0	26	0	208142336	69	4370
2026-01-06 01:32:04.22	27.42	12.13	-50.3	-52.0	15.4	6.00e-01	0	26	0	209715200	69	4390
2026-01-06 01:32:05.22	27.48	12.23	-50.2	-51.9	15.4	6.02e-01	0	26	0	211812352	69	4337
2026-01-06 01:32:06.22	27.54	12.33	-50.3	-52.1	15.4	6.02e-01	0	26	0	213385216	69	4423
2026-01-06 01:32:07.22	27.60	12.43	-50.3	-52.1	15.4	6.01e-01	0	26	0	215482368	69	4396
2026-01-06 01:32:08.21	27.66	12.53	-50.2	-51.9	15.5	6.01e-01	0	26	0	217579520	69	4330
2026-01-06 01:32:09.21	27.72	12.63	-50.2	-51.9	15.4	5.98e-01	0	26	0	219152384	69	4336
2026-01-06 01:32:10.21	27.79	12.73	-50.1	-51.8	15.5	6.01e-01	0	26	0	221249536	69	4290
2026-01-06 01:32:11.21	27.85	12.83	-50.1	-51.8	15.5	6.02e-01	0	26	0	222822400	69	4269
2026-01-06 01:32:12.21	27.91	12.93	-50.0	-51.8	15.5	6.02e-01	0	26	0	224919552	69	4260
2026-01-06 01:32:13.21	27.98	13.03	-50.0	-51.7	15.5	6.00e-01	0	26	0	227016704	69	4233
2026-01-06 01:32:14.20	28.04	13.13	-50.0	-51.8	15.5	6.02e-01	0	26	0	228589568	69	4250
2026-01-06 01:32:15.20	28.11	13.24	-50.0	-51.7	15.5	6.00e-01	0	26	0	230686720	69	4232
2026-01-06 01:32:16.21	28.17	13.34	-50.0	-51.7	15.5	6.03e-01	0	26	0	232259584	69	4235
2026-01-06 01:32:17.21	28.24	13.44	-49.9	-51.6	15.6	6.01e-01	0	26	0	234356736	69	4183
2026-01-06 01:32:18.21	28.31	13.55	-49.8	-51.6	15.4	6.00e-01	0	26	0	235929600	68	4403
2026-01-06 01:32:19.21	28.37	13.65	-49.8	-51.5	15.4	6.01e-01	0	26	0	238026752	68	4371
2026-01-06 01:32:20.21	28.44	13.76	-49.7	-51.4	15.4	6.02e-01	0	26	0	240123904	68	4339
2026-01-06 01:32:21.22	28.51	13.87	-49.7	-51.4	15.5	6.01e-01	0	26	0	241696768	68	4322
2026-01-06 01:32:22.22	28.58	13.97	-49.8	-51.6	15.4	6.00e-01	0	26	0	243793920	68	4394
2026-01-06 01:32:23.22	28.65	14.08	-49.8	-51.5	15.4	6.02e-01	0	26	0	245366784	68	4360
2026-01-06 01:32:24.22	28.72	14.19	-49.7	-51.4	15.5	6.02e-01	0	26	0	247463936	68	4325
2026-01-06 01:32:25.22	28.79	14.29	-49.8	-51.6	15.4	6.01e-01	0	26	0	249036800	68	4400
2026-01-06 01:32:26.22	28.86	14.40	-49.8	-51.5	15.5	6.00e-01	0	26	0	251133952	68	4351
2026-01-06 01:32:27.22	28.93	14.51	-49.9	-51.6	15.4	6.01e-01	0	26	0	253231104	68	4404
2026-01-06 01:32:28.23	29.00	14.62	-49.8	-51.5	15.4	6.01e-01	0	26	0	254803968	68	4377
2026-01-06 01:32:29.23	29.07	14.73	-49.9	-51.6	15.4	6.04e-01	0	26	0	256901120	68	4404
2026-01-06 01:32:30.23	29.14	14.84	-49.9	-51.6	15.4	6.01e-01	0	26	0	258473984	68	4408
2026-01-06 01:32:31.23	29.22	14.95	-49.8	-51.5	15.4	6.04e-01	0	26	0	260571136	68	4378
2026-01-06 01:32:32.23	29.29	15.06	-49.8	-51.6	15.4	6.00e-01	0	26	0	262668288	68	4398
2026-01-06 01:32:33.23	29.36	15.17	-49.8	-51.5	15.5	6.01e-01	0	26	0	264241152	68	4350
2026-01-06 01:32:34.22	29.44	15.28	-49.7	-51.4	15.5	6.01e-01	0	26	0	266338304	68	4329
2026-01-06 01:32:35.21	29.51	15.40	-49.7	-51.4	15.5	6.03e-01	0	26	0	267911168	68	4332
2026-01-06 01:32:36.21	29.59	15.51	-49.7	-51.4	15.5	6.00e-01	0	26	0	270008320	68	4311
2026-01-06 01:32:37.21	29.66	15.62	-49.6	-51.3	15.5	6.02e-01	0	26	0	271581184	68	4271
2026-01-06 01:32:38.21	29.74	15.74	-49.7	-51.4	15.5	6.01e-01	0	26	0	273678336	68	4319
2026-01-06 01:32:39.21	29.82	15.85	-49.7	-51.3	15.5	5.99e-01	0	26	0	275775488	68	4285
2026-01-06 01:32:40.21	29.90	15.97	-49.8	-51.5	15.5	6.01e-01	0	26	0	277348352	68	4341
2026-01-06 01:32:41.22	29.98	16.09	-49.9	-51.6	15.4	6.00e-01	0	26	0	279445504	68	4418
2026-01-06 01:32:42.21	30.06	16.20	-49.8	-51.4	15.5	5.99e-01	0	26	0	281018368	68	4340
2026-01-06 01:32:43.22	30.14	16.32	-49.7	-51.3	15.5	6.00e-01	0	26	0	283115520	68	4291
2026-01-06 01:32:44.23	30.22	16.44	-49.8	-51.4	15.5	6.02e-01	0	26	0	285212672	68	4337
2026-01-06 01:32:45.22	30.30	16.56	-49.7	-51.4	15.5	6.01e-01	0	26	0	286785536	68	4309
2026-01-06 01:32:46.22	30.38	16.68	-49.8	-51.5	15.5	5.98e-01	0	26	0	288882688	68	4346
2026-01-06 01:32:47.22	30.46	16.79	-49.7	-51.4	15.5	6.01e-01	0	26	0	290455552	68	4292
2026-01-06 01:32:48.22	30.55	16.91	-49.6	-51.2	15.5	6.01e-01	0	26	0	292552704	68	4231
2026-01-06 01:32:49.23	30.63	17.04	-49.6	-51.2	15.5	6.02e-01	0	26	0	294125568	68	4234
2026-01-06 01:32:50.23	30.72	17.16	-49.6	-51.3	15.5	6.01e-01	0	26	0	296222720	68	4256
2026-01-06 01:32:51.23	30.80	17.28	-49.5	-51.1	15.6	6.01e-01	0	26	0	298319872	68	4193
2026-01-06 01:32:52.24	30.89	17.40	-49.6	-51.2	15.5	6.02e-01	0	26	0	299892736	68	4234
2026-01-06 01:32:53.24	30.97	17.53	-49.6	-51.3	15.5	5.99e-01	0	26	0	301989888	68	4255
2026-01-06 01:32:54.25	31.06	17.65	-49.7	-51.4	15.5	6.00e-01	0	26	0	303562752	68	4317
2026-01-06 01:32:55.25	31.15	17.78	-49.6	-51.2	15.5	6.01e-01	0	26	0	305659904	68	4239
2026-01-06 01:32:56.25	31.24	17.90	-49.7	-51.4	15.5	6.00e-01	0	26	0	307232768	68	4305
2026-01-06 01:32:57.25	31.33	18.03	-49.6	-51.3	15.5	6.02e-01	0	26	0	309329920	68	4255
2026-01-06 01:32:58.25	31.42	18.15	-49.6	-51.3	15.5	6.02e-01	0	26	0	311427072	68	4250
2026-01-06 01:32:59.26	31.51	18.28	-49.6	-51.2	15.5	6.02e-01	0	26	0	312999936	68	4238
2026-01-06 01:33:00.25	31.60	18.41	-49.6	-51.2	15.5	6.01e-01	0	26	0	315097088	68	4229
2026-01-06 01:33:01.25	31.70	18.54	-49.6	-51.3	15.5	6.01e-01	0	26	0	316669952	68	4250
2026-01-06 01:33:02.25	31.79	18.67	-49.4	-51.1	15.6	6.01e-01	0	26	0	318767104	68	4147
2026-01-06 01:33:03.24	31.88	18.80	-49.4	-51.1	15.6	6.03e-01	0	26	0	320864256	68	4152
2026-01-06 01:33:04.24	31.98	18.93	-49.5	-51.1	15.6	6.00e-01	0	26	0	322437120	68	4168
2026-01-06 01:33:05.25	32.07	19.06	-49.5	-51.2	15.5	6.01e-01	0	26	0	324534272	68	4199
2026-01-06 01:33:06.24	32.17	19.19	-49.5	-51.1	15.5	6.02e-01	0	26	0	326107136	68	4172
2026-01-06 01:33:07.24	32.27	19.32	-49.5	-51.1	15.6	6.01e-01	0	26	0	328204288	68	4170
2026-01-06 01:33:08.23	32.37	19.45	-49.6	-51.2	15.5	5.98e-01	0	26	0	329777152	68	4242
2026-01-06 01:33:09.22	32.46	19.59	-49.7	-51.3	15.5	6.00e-01	0	26	0	331874304	68	4286
2026-01-06 01:33:10.21	32.56	19.72	-49.8	-51.4	15.4	6.02e-01	0	26	0	333447168	68	4333
2026-01-06 01:33:11.22	32.66	19.86	-49.7	-51.4	15.5	6.03e-01	0	26	0	335544320	68	4308
2026-01-06 01:33:12.20	32.76	19.99	-49.6	-51.2	15.5	6.02e-01	0	26	0	337641472	68	4237
2026-01-06 01:33:13.20	32.87	20.13	-49.6	-51.2	15.5	5.99e-01	0	26	0	339214336	68	4214
2026-01-06 01:33:14.19	32.97	20.26	-49.6	-51.2	15.5	6.00e-01	0	26	0	341311488	68	4221
2026-01-06 01:33:15.19	33.08	20.40	-49.6	-51.3	15.5	6.02e-01	0	26	0	342884352	68	4245
2026-01-06 01:33:16.19	33.18	20.54	-49.5	-51.2	15.5	6.02e-01	0	26	0	344981504	68	4205
2026-01-06 01:33:17.19	33.29	20.68	-49.7	-51.3	15.5	6.00e-01	0	26	0	346554368	68	4263
2026-01-06 01:33:18.19	33.40	20.82	-49.7	-51.4	15.5	6.00e-01	0	26	0	348651520	68	4293
2026-01-06 01:33:19.18	33.50	20.96	-49.8	-51.5	15.5	5.99e-01	0	26	0	350748672	68	4359
2026-01-06 01:33:20.18	33.61	21.10	-49.9	-51.6	15.4	6.03e-01	0	26	0	352321536	68	4396
2026-01-06 01:33:21.18	33.72	21.25	-49.7	-51.4	15.5	6.02e-01	0	26	0	354418688	68	4320
2026-01-06 01:33:22.19	33.84	21.39	-49.8	-51.4	15.5	6.02e-01	0	26	0	355991552	68	4330
2026-01-06 01:33:23.18	33.95	21.54	-49.7	-51.4	15.5	6.02e-01	0	26	0	358088704	68	4293
2026-01-06 01:33:24.19	34.06	21.68	-49.7	-51.4	15.5	6.04e-01	0	26	0	359661568	68	4299
2026-01-06 01:33:25.18	34.18	21.83	-49.8	-51.5	15.5	6.01e-01	0	26	0	361758720	68	4351
2026-01-06 01:33:26.18	34.29	21.97	-49.8	-51.5	15.4	6.00e-01	0	26	0	363855872	68	4353
2026-01-06 01:33:27.18	34.41	22.12	-49.9	-51.6	15.4	6.01e-01	0	26	0	365428736	68	4395
2026-01-06 01:33:28.18	34.53	22.27	-49.9	-51.6	15.4	6.00e-01	0	26	0	367525888	68	4398
2026-01-06 01:33:29.18	34.65	22.42	-49.9	-51.6	15.4	6.00e-01	0	26	0	369098752	68	4418
2026-01-06 01:33:30.18	34.77	22.57	-49.9	-51.6	15.4	6.02e-01	0	26	0	371195904	68	4426
2026-01-06 01:33:31.18	34.89	22.72	-49.9	-51.5	15.4	6.00e-01	0	26	0	372768768	68	4386
2026-01-06 01:33:32.17	35.01	22.87	-49.9	-51.5	15.4	6.01e-01	0	26	0	374865920	68	4377
2026-01-06 01:33:33.17	35.14	23.03	-49.8	-51.5	15.4	6.01e-01	0	26	0	376438784	68	4375
2026-01-06 01:33:34.17	35.26	23.18	-49.9	-51.5	15.4	6.02e-01	0	26	0	378535936	68	4390
2026-01-06 01:33:35.17	35.39	23.33	-50.0	-51.7	15.4	6.00e-01	0	26	0	380633088	68	4450
2026-01-06 01:33:36.17	35.52	23.49	-50.0	-51.7	15.4	6.02e-01	0	26	0	382205952	68	4472
2026-01-06 01:33:37.17	35.65	23.65	-50.0	-51.7	15.4	6.01e-01	0	26	0	384303104	68	4464
2026-01-06 01:33:38.16	35.78	23.80	-50.0	-51.7	15.4	6.04e-01	0	26	0	385875968	68	4446
2026-01-06 01:33:39.15	35.91	23.96	-50.0	-51.7	15.4	6.03e-01	0	26	0	387973120	68	4442
2026-01-06 01:33:40.16	36.04	24.12	-49.9	-51.5	15.4	5.99e-01	0	26	0	389545984	68	4390
2026-01-06 01:33:41.15	36.17	24.28	-50.0	-51.7	15.4	6.01e-01	0	26	0	391643136	68	4442
2026-01-06 01:33:42.15	36.31	24.44	-50.0	-51.7	15.4	5.99e-01	0	26	0	393740288	68	4484
2026-01-06 01:33:43.15	36.45	24.60	-50.1	-51.8	15.3	6.00e-01	0	26	0	395313152	68	4540
2026-01-06 01:33:44.15	36.59	24.76	-50.1	-51.8	15.3	6.02e-01	0	26	0	397410304	68	4529
2026-01-06 01:33:45.15	36.73	24.93	-50.1	-51.8	15.3	6.00e-01	0	26	0	398983168	68	4528
2026-01-06 01:33:46.15	36.87	25.09	-50.1	-51.8	15.3	6.02e-01	0	26	0	401080320	68	4511
2026-01-06 01:33:47.15	37.01	25.26	-50.2	-51.9	15.3	6.01e-01	0	26	0	403177472	68	4552
2026-01-06 01:33:48.14	37.15	25.42	-50.0	-51.7	15.4	6.00e-01	0	26	0	404750336	68	4453
2026-01-06 01:33:49.14	37.30	25.59	-49.9	-51.6	15.4	6.03e-01	0	26	0	406847488	68	4418
2026-01-06 01:33:50.14	37.45	25.76	-50.0	-51.7	15.4	6.01e-01	0	26	0	408420352	68	4453
2026-01-06 01:33:51.14	37.60	25.93	-50.2	-51.9	15.3	6.00e-01	0	26	0	410517504	68	4556
2026-01-06 01:33:52.14	37.75	26.10	-50.2	-52.0	15.3	6.01e-01	0	26	0	412090368	68	4604
2026-01-06 01:33:53.14	37.90	26.27	-49.9	-51.6	15.4	6.01e-01	0	26	0	414187520	68	4426
2026-01-06 01:33:54.14	38.06	26.44	-49.8	-51.5	15.4	6.00e-01	0	26	0	416284672	68	4349
2026-01-06 01:33:55.14	38.21	26.61	-49.8	-51.5	15.4	6.01e-01	0	26	0	417857536	68	4343
2026-01-06 01:33:56.15	38.37	26.79	-49.8	-51.5	15.4	6.01e-01	0	26	0	419954688	68	4364
2026-01-06 01:33:57.15	38.53	26.97	-50.0	-51.7	15.4	6.00e-01	0	26	0	421527552	68	4465
2026-01-06 01:33:58.14	38.69	27.14	-49.9	-51.6	15.4	6.01e-01	0	26	0	423624704	68	4409
2026-01-06 01:33:59.14	38.86	27.32	-50.0	-51.6	15.4	6.00e-01	0	26	0	425197568	68	4440
2026-01-06 01:34:00.14	39.02	27.50	-49.9	-51.5	15.4	6.00e-01	0	26	0	427294720	68	4370
2026-01-06 01:34:01.12	39.18	27.67	-49.9	-51.5	15.4	6.01e-01	0	26	0	428867584	68	4371
2026-01-06 01:34:02.11	39.35	27.85	-49.9	-51.5	15.4	6.02e-01	0	26	0	430964736	68	4382
2026-01-06 01:34:03.11	39.52	28.03	-50.0	-51.7	15.4	6.02e-01	0	26	0	433061888	68	4485
2026-01-06 01:34:04.11	39.70	28.22	-50.0	-51.7	15.4	6.02e-01	0	26	0	434634752	68	4487
2026-01-06 01:34:05.11	39.87	28.40	-49.8	-51.4	15.5	6.00e-01	0	26	0	436731904	68	4331
2026-01-06 01:34:06.11	40.05	28.58	-49.6	-51.3	15.5	6.00e-01	0	26	0	438304768	68	4243
2026-01-06 01:34:07.11	40.23	28.77	-49.7	-51.3	15.5	6.02e-01	0	26	0	440401920	68	4256
2026-01-06 01:34:08.11	40.41	28.96	-49.8	-51.5	15.4	6.01e-01	0	26	0	441974784	68	4347
2026-01-06 01:34:09.11	40.59	29.14	-49.7	-51.4	15.4	6.01e-01	0	26	0	444071936	68	4306
2026-01-06 01:34:10.11	40.78	29.33	-49.7	-51.3	15.5	6.00e-01	0	26	0	446169088	68	4290
2026-01-06 01:34:11.11	40.96	29.52	-49.8	-51.5	15.4	6.01e-01	0	26	0	447741952	68	4345
2026-01-06 01:34:12.10	41.15	29.71	-49.8	-51.5	15.4	6.02e-01	0	26	0	449839104	68	4341
2026-01-06 01:34:13.10	41.34	29.90	-49.9	-51.6	15.4	6.00e-01	0	26	0	451411968	68	4397
2026-01-06 01:34:14.10	41.54	30.10	-49.8	-51.5	15.4	5.99e-01	0	26	0	453509120	68	4347
2026-01-06 01:34:15.10	41.73	30.29	-49.8	-51.4	15.4	6.01e-01	0	26	0	455081984	68	4325
2026-01-06 01:34:16.10	41.93	30.49	-49.9	-51.5	15.4	5.99e-01	0	26	0	457179136	68	4384
2026-01-06 01:34:17.10	42.14	30.68	-49.8	-51.4	15.5	5.98e-01	0	26	0	459276288	68	4307
2026-01-06 01:34:18.09	42.34	30.88	-49.8	-51.4	15.4	6.02e-01	0	26	0	460849152	68	4340
2026-01-06 01:34:19.09	42.54	31.08	-49.8	-51.4	15.5	6.01e-01	0	26	0	462946304	68	4335
2026-01-06 01:34:20.09	42.75	31.27	-49.9	-51.6	15.4	5.99e-01	0	26	0	464519168	68	4395
2026-01-06 01:34:21.09	42.96	31.47	-50.0	-51.7	15.4	6.01e-01	0	26	0	466616320	68	4468
2026-01-06 01:34:22.09	43.18	31.68	-50.0	-51.6	15.4	6.00e-01	0	26	0	468713472	68	4431
2026-01-06 01:34:23.08	43.39	31.88	-50.0	-51.6	15.4	6.01e-01	0	26	0	470286336	68	4440
2026-01-06 01:34:24.09	43.62	32.08	-50.0	-51.6	15.4	6.02e-01	0	26	0	472383488	68	4427
2026-01-06 01:34:25.09	43.84	32.29	-50.0	-51.6	15.4	6.01e-01	0	26	0	473956352	68	4429
2026-01-06 01:34:26.08	44.06	32.49	-50.0	-51.6	15.4	6.03e-01	0	26	0	476053504	68	4425
2026-01-06 01:34:27.08	44.29	32.70	-50.0	-51.7	15.4	6.02e-01	0	26	0	477626368	68	4448
2026-01-06 01:34:28.08	44.52	32.91	-50.2	-51.9	15.3	6.01e-01	0	26	0	479723520	68	4562
2026-01-06 01:34:29.08	44.76	33.11	-50.2	-51.9	15.3	5.99e-01	0	26	0	481820672	68	4577
2026-01-06 01:34:30.08	44.99	33.32	-50.3	-52.0	15.3	6.01e-01	0	26	0	483393536	68	4642
2026-01-06 01:34:31.09	45.24	33.54	-50.4	-52.1	15.3	6.02e-01	0	26	0	485490688	68	4698
2026-01-06 01:34:32.09	45.48	33.75	-50.2	-51.9	15.3	6.03e-01	0	26	0	487063552	68	4570
2026-01-06 01:34:33.09	45.73	33.96	-50.3	-52.0	15.3	6.01e-01	0	26	0	489160704	68	4603
2026-01-06 01:34:34.08	45.98	34.17	-50.4	-52.1	15.2	6.00e-01	0	26	0	490733568	68	4683
2026-01-06 01:34:35.09	46.23	34.39	-50.4	-52.1	15.2	6.01e-01	0	26	0	492830720	68	4697
2026-01-06 01:34:36.09	46.49	34.61	-50.6	-52.3	15.2	6.00e-01	0	26	0	494927872	68	4803
2026-01-06 01:34:37.10	46.75	34.83	-50.8	-52.6	15.3	6.00e-01	0	26	0	496500736	69	4669
2026-01-06 01:34:38.09	47.01	35.04	-50.7	-52.5	15.3	5.98e-01	0	26	0	498597888	69	4605
2026-01-06 01:34:39.09	47.28	35.26	-50.7	-52.5	15.3	6.02e-01	0	26	0	500170752	69	4600
2026-01-06 01:34:40.09	47.55	35.48	-50.9	-52.6	15.2	5.99e-01	0	26	0	502267904	69	4705
2026-01-06 01:34:41.10	47.83	35.70	-51.0	-52.8	15.2	6.02e-01	0	26	0	503840768	69	4774
2026-01-06 01:34:42.09	48.11	35.92	-50.7	-52.5	15.3	6.01e-01	0	26	0	505937920	69	4606
2026-01-06 01:34:43.09	48.39	36.15	-50.8	-52.6	15.3	6.00e-01	0	26	0	508035072	69	4676
2026-01-06 01:34:44.09	48.68	36.37	-50.9	-52.7	15.2	5.98e-01	0	26	0	509607936	69	4718
2026-01-06 01:34:45.10	48.97	36.60	-51.0	-52.8	15.2	6.03e-01	0	26	0	511705088	69	4796
2026-01-06 01:34:46.10	49.26	36.82	-51.1	-52.9	15.1	5.99e-01	0	26	0	513277952	69	4869
2026-01-06 01:34:47.10	49.56	37.05	-51.0	-52.9	15.3	6.03e-01	0	26	0	515375104	70	4557
2026-01-06 01:34:48.10	49.87	37.27	-51.0	-52.8	15.3	6.01e-01	0	26	0	516947968	70	4523
2026-01-06 01:34:49.11	50.18	37.50	-50.9	-52.7	15.4	6.03e-01	0	26	0	519045120	70	4444
2026-01-06 01:34:50.11	50.49	37.73	-51.0	-52.8	15.3	6.01e-01	0	26	0	521142272	70	4513
2026-01-06 01:34:51.11	50.80	37.96	-51.0	-52.8	15.3	6.00e-01	0	26	0	522715136	70	4506
2026-01-06 01:34:52.11	51.12	38.19	-51.0	-52.8	15.3	6.01e-01	0	26	0	524812288	70	4503
2026-01-06 01:34:53.10	51.45	38.42	-51.3	-53.1	15.2	6.03e-01	0	26	0	526385152	70	4696
2026-01-06 01:34:54.11	51.78	38.65	-50.9	-52.7	15.3	5.99e-01	0	26	0	528482304	70	4480
2026-01-06 01:34:55.11	52.11	38.88	-50.9	-52.7	15.3	6.03e-01	0	26	0	530579456	70	4478
2026-01-06 01:34:56.11	52.45	39.12	-50.9	-52.7	15.3	6.01e-01	0	26	0	532152320	70	4471
2026-01-06 01:34:57.11	52.80	39.35	-50.7	-52.5	15.4	6.00e-01	0	26	0	534249472	70	4341
2026-01-06 01:34:58.11	53.15	39.58	-51.0	-52.8	15.3	6.02e-01	0	26	0	535822336	70	4507
2026-01-06 01:34:59.11	53.50	39.82	-51.0	-52.8	15.3	6.00e-01	0	26	0	537919488	70	4527
2026-01-06 01:35:00.12	53.87	40.05	-50.9	-52.7	15.3	6.00e-01	0	26	0	539492352	70	4481
2026-01-06 01:35:01.12	54.23	40.29	-50.8	-52.6	15.4	5.99e-01	0	26	0	541589504	70	4401
2026-01-06 01:35:02.12	54.60	40.52	-50.9	-52.7	15.3	6.00e-01	0	26	0	543686656	70	4464
2026-01-06 01:35:03.12	54.98	40.76	-50.5	-52.2	15.5	6.00e-01	0	26	0	545259520	70	4226
2026-01-06 01:35:04.12	55.36	41.00	-50.4	-52.1	15.5	6.03e-01	0	26	0	547356672	70	4162
2026-01-06 01:35:05.11	55.74	41.23	-50.2	-51.9	15.5	6.00e-01	0	26	0	548929536	69	4316
2026-01-06 01:35:06.11	56.13	41.47	-50.0	-51.7	15.5	6.00e-01	0	26	0	551026688	69	4196
2026-01-06 01:35:07.11	56.53	41.70	-50.1	-51.8	15.5	6.01e-01	0	26	0	552599552	69	4269
2026-01-06 01:35:08.11	56.94	41.94	-50.1	-51.8	15.5	5.98e-01	0	26	0	554696704	69	4253
2026-01-06 01:35:09.11	57.35	42.17	-50.1	-51.8	15.5	6.01e-01	0	26	0	556793856	69	4248
2026-01-06 01:35:10.12	57.77	42.41	-49.9	-51.5	15.4	6.00e-01	0	26	0	558366720	68	4358
2026-01-06 01:35:11.12	58.19	42.65	-49.8	-51.5	15.4	6.02e-01	0	26	0	560463872	68	4345
2026-01-06 01:35:12.13	58.62	42.89	-49.6	-51.2	15.5	6.03e-01	0	26	0	562036736	68	4227
2026-01-06 01:35:13.13	59.06	43.13	-49.7	-51.3	15.5	6.01e-01	0	26	0	564133888	68	4245
2026-01-06 01:35:14.11	59.49	43.36	-49.5	-51.1	15.6	6.00e-01	0	26	0	565706752	68	4166
2026-01-06 01:35:15.11	59.94	43.59	-49.0	-50.5	15.6	6.03e-01	0	26	0	567803904	67	4141
2026-01-06 01:35:16.11	60.40	43.83	-49.3	-50.9	15.4	6.03e-01	0	26	0	569901056	67	4324
2026-01-06 01:35:17.11	60.86	44.06	-49.3	-50.8	15.5	6.01e-01	0	26	0	571473920	67	4277
2026-01-06 01:35:18.11	61.33	44.30	-49.2	-50.7	15.5	6.00e-01	0	26	0	573571072	67	4238
2026-01-06 01:35:19.10	61.80	44.53	-49.1	-50.7	15.5	6.00e-01	0	26	0	575143936	67	4198
2026-01-06 01:35:20.10	62.28	44.76	-49.1	-50.6	15.5	6.01e-01	0	26	0	577241088	67	4169
2026-01-06 01:35:21.11	62.78	45.00	-49.3	-50.8	15.5	6.00e-01	0	26	0	579338240	67	4274
2026-01-06 01:35:22.11	63.27	45.23	-49.0	-50.6	15.5	6.02e-01	0	26	0	580911104	67	4152
2026-01-06 01:35:23.11	63.78	45.46	-49.1	-50.6	15.6	6.02e-01	0	26	0	583008256	67	4169
2026-01-06 01:35:24.11	64.29	45.69	-49.1	-50.7	15.5	5.99e-01	0	26	0	584581120	67	4195
2026-01-06 01:35:25.11	64.81	45.91	-49.1	-50.7	15.5	5.97e-01	0	26	0	586678272	67	4204
2026-01-06 01:35:26.11	65.34	46.14	-49.2	-50.8	15.5	6.00e-01	0	26	0	588251136	67	4257
2026-01-06 01:35:27.11	65.87	46.37	-49.0	-50.5	15.6	5.99e-01	0	26	0	590348288	67	4129
2026-01-06 01:35:28.10	66.41	46.59	-49.2	-50.8	15.5	6.00e-01	0	26	0	592445440	67	4248
2026-01-06 01:35:29.10	66.96	46.81	-49.1	-50.6	15.5	6.01e-01	0	26	0	594018304	67	4190
2026-01-06 01:35:30.10	67.52	47.03	-49.2	-50.7	15.5	6.02e-01	0	26	0	596115456	67	4230
2026-01-06 01:35:31.10	68.09	47.25	-49.2	-50.8	15.5	6.02e-01	0	26	0	597688320	67	4266
2026-01-06 01:35:32.10	68.66	47.47	-49.3	-50.9	15.5	6.01e-01	0	26	0	599785472	67	4298
2026-01-06 01:35:33.09	69.24	47.69	-49.1	-50.7	15.5	6.03e-01	0	26	0	601358336	67	4199
2026-01-06 01:35:34.09	69.83	47.90	-49.3	-50.8	15.5	6.00e-01	0	26	0	603455488	67	4288
2026-01-06 01:35:35.09	70.43	48.11	-49.2	-50.7	15.5	6.01e-01	0	26	0	605552640	67	4216
2026-01-06 01:35:36.09	71.03	48.32	-49.5	-51.1	15.4	6.01e-01	0	26	0	607125504	67	4409
2026-01-06 01:35:37.09	71.65	48.53	-49.4	-50.9	15.4	6.00e-01	0	26	0	609222656	67	4334
2026-01-06 01:35:38.09	72.27	48.73	-49.4	-50.9	15.5	6.01e-01	0	26	0	610795520	67	4340
2026-01-06 01:35:39.08	72.90	48.93	-49.4	-51.0	15.4	6.03e-01	0	26	0	612892672	67	4343
2026-01-06 01:35:40.07	73.53	49.13	-49.3	-50.9	15.5	6.01e-01	0	26	0	614465536	67	4314
2026-01-06 01:35:41.07	74.18	49.33	-49.5	-51.1	15.4	6.01e-01	0	26	0	616562688	67	4411
2026-01-06 01:35:42.07	74.84	49.52	-49.4	-51.0	15.4	6.00e-01	0	26	0	618135552	67	4363
2026-01-06 01:35:43.06	75.50	49.71	-49.5	-51.0	15.4	5.99e-01	0	26	0	620232704	67	4380
2026-01-06 01:35:44.06	76.17	49.90	-49.5	-51.1	15.4	5.99e-01	0	26	0	622329856	67	4440
2026-01-06 01:35:45.06	76.85	50.08	-49.6	-51.2	15.4	6.00e-01	0	26	0	623902720	67	4458
2026-01-06 01:35:46.06	77.54	50.26	-49.5	-51.0	15.4	6.01e-01	0	26	0	625999872	67	4384
2026-01-06 01:35:47.07	78.25	50.44	-49.6	-51.2	15.4	6.03e-01	0	26	0	627572736	67	4469
2026-01-06 01:35:48.07	78.95	50.61	-49.4	-50.9	15.4	6.00e-01	0	26	0	629669888	67	4334
2026-01-06 01:35:49.07	79.67	50.78	-49.7	-51.3	15.3	6.02e-01	0	26	0	631242752	67	4516
2026-01-06 01:35:50.07	80.39	50.95	-49.5	-51.1	15.4	6.00e-01	0	26	0	633339904	67	4402
2026-01-06 01:35:51.07	81.12	51.11	-49.4	-51.0	15.4	6.02e-01	0	26	0	635437056	67	4367
2026-01-06 01:35:52.06	81.85	51.26	-49.4	-51.0	15.4	6.01e-01	0	26	0	637009920	67	4343
2026-01-06 01:35:53.06	82.60	51.42	-49.6	-51.2	15.4	5.99e-01	0	26	0	639107072	67	4462
2026-01-06 01:35:54.06	83.35	51.56	-49.5	-51.0	15.4	6.01e-01	0	26	0	640679936	67	4382
2026-01-06 01:35:55.06	84.11	51.71	-49.6	-51.2	15.4	5.97e-01	0	26	0	642777088	67	4452
2026-01-06 01:35:56.06	84.88	51.85	-49.7	-51.3	15.4	5.99e-01	0	26	0	644349952	67	4502
2026-01-06 01:35:57.06	85.66	51.98	-49.8	-51.4	15.3	6.02e-01	0	26	0	646447104	67	4591
2026-01-06 01:35:58.07	86.45	52.11	-49.8	-51.4	15.3	6.01e-01	0	26	0	648544256	67	4569
2026-01-06 01:35:59.07	87.24	52.23	-50.3	-51.9	15.3	6.01e-01	0	26	0	650117120	68	4598
2026-01-06 01:36:00.07	88.03	52.35	-50.3	-51.9	15.3	6.02e-01	0	26	0	652214272	68	4595
2026-01-06 01:36:01.06	88.83	52.46	-50.3	-52.0	15.3	6.00e-01	0	26	0	653787136	68	4629
2026-01-06 01:36:02.06	89.63	52.57	-50.8	-52.5	15.3	6.01e-01	0	26	0	655884288	69	4641
2026-01-06 01:36:03.06	90.45	52.67	-50.1	-51.8	15.5	6.00e-01	0	26	0	657981440	69	4257
2026-01-06 01:36:04.06	91.27	52.77	-50.3	-52.0	15.4	6.01e-01	0	26	0	659554304	69	4361
2026-01-06 01:36:05.06	92.09	52.86	-50.0	-51.6	15.5	6.01e-01	0	26	0	661651456	69	4191
2026-01-06 01:36:06.07	92.93	52.95	-50.0	-51.7	15.5	6.01e-01	0	26	0	663224320	69	4200
2026-01-06 01:36:07.07	93.77	53.03	-49.8	-51.4	15.5	5.99e-01	0	26	0	665321472	68	4321
2026-01-06 01:36:08.08	94.61	53.10	-49.9	-51.5	15.4	5.99e-01	0	26	0	667418624	68	4376
2026-01-06 01:36:09.07	95.45	53.17	-49.9	-51.6	15.4	6.03e-01	0	26	0	668991488	68	4399
2026-01-06 01:36:10.07	96.29	53.23	-50.0	-51.7	15.4	6.01e-01	0	26	0	671088640	68	4448
2026-01-06 01:36:11.07	97.15	53.28	-50.0	-51.7	15.4	6.00e-01	0	26	0	672661504	68	4443
2026-01-06 01:36:12.08	98.01	53.33	-50.1	-51.8	15.3	6.01e-01	0	26	0	674758656	68	4507
2026-01-06 01:36:13.08	98.86	53.37	-50.2	-51.8	15.3	6.02e-01	0	26	0	676331520	68	4545
2026-01-06 01:36:14.07	99.71	53.41	-50.2	-51.9	15.3	6.05e-01	0	26	0	678428672	68	4572
2026-01-06 01:36:15.07	100.57	53.44	-50.3	-52.0	15.3	6.00e-01	0	26	0	680001536	68	4616
2026-01-06 01:36:16.07	101.43	53.46	-50.2	-51.9	15.3	6.01e-01	0	26	0	682098688	68	4557
2026-01-06 01:36:17.08	102.31	53.48	-50.2	-51.9	15.3	6.02e-01	0	26	0	684195840	68	4566
2026-01-06 01:36:18.08	103.17	53.49	-50.3	-52.0	15.3	6.03e-01	0	26	0	685768704	68	4603
2026-01-06 01:36:19.07	104.03	53.49	-50.1	-51.8	15.3	6.00e-01	0	26	0	687865856	68	4497
2026-01-06 01:36:20.07	104.89	53.49	-50.1	-51.7	15.4	6.00e-01	0	26	0	689438720	68	4490
2026-01-06 01:36:21.07	105.75	53.48	-50.0	-51.7	15.4	6.01e-01	0	26	0	691535872	68	4468
2026-01-06 01:36:22.07	106.62	53.47	-50.1	-51.8	15.3	6.04e-01	0	26	0	693108736	68	4529
2026-01-06 01:36:23.07	107.48	53.44	-50.1	-51.7	15.4	6.01e-01	0	26	0	695205888	68	4476
2026-01-06 01:36:24.07	108.34	53.41	-50.1	-51.7	15.4	5.99e-01	0	26	0	697303040	68	4478
2026-01-06 01:36:25.06	109.19	53.38	-50.2	-51.9	15.3	6.02e-01	0	26	0	698875904	68	4569
2026-01-06 01:36:26.06	110.05	53.34	-50.2	-51.8	15.3	6.04e-01	0	26	0	700973056	68	4535
2026-01-06 01:36:27.06	110.90	53.29	-50.2	-51.9	15.3	6.02e-01	0	26	0	702545920	68	4585
2026-01-06 01:36:28.06	111.75	53.24	-50.1	-51.8	15.4	5.98e-01	0	26	0	704643072	68	4495
2026-01-06 01:36:29.05	112.59	53.18	-50.1	-51.7	15.4	6.02e-01	0	26	0	706740224	68	4482
2026-01-06 01:36:30.05	113.44	53.11	-50.4	-52.1	15.3	5.99e-01	0	26	0	708313088	68	4666
2026-01-06 01:36:31.05	114.28	53.04	-50.3	-52.0	15.3	6.03e-01	0	26	0	710410240	68	4614
2026-01-06 01:36:32.05	115.11	52.96	-50.0	-51.7	15.4	6.01e-01	0	26	0	711983104	68	4459
2026-01-06 01:36:33.05	115.94	52.88	-50.2	-51.8	15.3	5.99e-01	0	26	0	714080256	68	4524
2026-01-06 01:36:34.05	116.77	52.79	-50.5	-52.2	15.3	6.03e-01	0	26	0	715653120	68	4716
2026-01-06 01:36:35.06	117.60	52.69	-50.1	-51.8	15.3	6.03e-01	0	26	0	717750272	68	4500
2026-01-06 01:36:36.05	118.41	52.59	-50.0	-51.6	15.4	5.99e-01	0	26	0	719847424	68	4426
2026-01-06 01:36:37.05	119.22	52.48	-50.2	-51.9	15.3	6.02e-01	0	26	0	721420288	68	4586
2026-01-06 01:36:38.06	120.03	52.37	-50.1	-51.7	15.4	6.01e-01	0	26	0	723517440	68	4486
2026-01-06 01:36:39.06	120.83	52.25	-50.1	-51.8	15.3	6.01e-01	0	26	0	725090304	68	4505
2026-01-06 01:36:40.06	121.62	52.13	-49.9	-51.6	15.4	6.02e-01	0	26	0	727187456	68	4396
2026-01-06 01:36:41.06	122.40	52.00	-50.3	-52.0	15.3	5.99e-01	0	26	0	728760320	68	4647
2026-01-06 01:36:42.07	123.19	51.87	-50.7	-52.4	15.3	6.03e-01	0	26	0	730857472	69	4585
2026-01-06 01:36:43.07	123.96	51.73	-50.2	-51.9	15.4	6.01e-01	0	26	0	732954624	69	4306
2026-01-06 01:36:44.07	124.72	51.59	-50.3	-52.0	15.4	5.98e-01	0	26	0	734527488	69	4363
2026-01-06 01:36:45.07	125.48	51.44	-50.5	-52.3	15.3	6.00e-01	0	26	0	736624640	69	4507
2026-01-06 01:36:46.07	126.23	51.29	-50.5	-52.2	15.4	6.03e-01	0	26	0	738197504	69	4493
2026-01-06 01:36:47.07	126.97	51.13	-50.6	-52.4	15.3	6.02e-01	0	26	0	740294656	69	4549
2026-01-06 01:36:48.07	127.70	50.97	-50.5	-52.3	15.3	6.02e-01	0	26	0	741867520	69	4497
2026-01-06 01:36:49.07	128.42	50.80	-50.4	-52.1	15.4	6.00e-01	0	26	0	743964672	69	4393
2026-01-06 01:36:50.07	129.14	50.64	-50.6	-52.4	15.3	6.02e-01	0	26	0	746061824	69	4556
2026-01-06 01:36:51.07	129.85	50.46	-50.8	-52.5	15.3	6.00e-01	0	26	0	747634688	69	4642
2026-01-06 01:36:52.07	130.55	50.29	-50.6	-52.4	15.3	5.99e-01	0	26	0	749731840	69	4565
2026-01-06 01:36:53.06	131.24	50.11	-50.7	-52.4	15.3	6.02e-01	0	26	0	751304704	69	4588
2026-01-06 01:36:54.06	131.92	49.92	-50.5	-52.2	15.3	6.00e-01	0	26	0	753401856	69	4486
2026-01-06 01:36:55.07	132.60	49.73	-50.7	-52.5	15.3	6.01e-01	0	26	0	754974720	69	4601
2026-01-06 01:36:56.07	133.27	49.54	-50.6	-52.3	15.3	5.99e-01	0	26	0	757071872	69	4514
2026-01-06 01:36:57.07	133.93	49.35	-50.7	-52.4	15.3	6.02e-01	0	26	0	759169024	69	4595
2026-01-06 01:36:58.06	134.57	49.16	-50.6	-52.3	15.3	6.01e-01	0	26	0	760741888	69	4540
2026-01-06 01:36:59.06	135.22	48.96	-50.8	-52.6	15.2	6.00e-01	0	26	0	762839040	69	4668
2026-01-06 01:37:00.06	135.85	48.75	-50.5	-52.2	15.3	5.99e-01	0	26	0	764411904	69	4475
2026-01-06 01:37:01.07	136.48	48.55	-50.5	-52.3	15.4	5.97e-01	0	26	0	766509056	69	4498
2026-01-06 01:37:02.07	137.10	48.34	-51.0	-52.8	15.2	6.01e-01	0	26	0	768606208	69	4798
2026-01-06 01:37:03.08	137.72	48.13	-50.6	-52.3	15.3	6.00e-01	0	26	0	770179072	69	4531
2026-01-06 01:37:04.09	138.32	47.91	-50.6	-52.3	15.3	6.02e-01	0	26	0	772276224	69	4519
2026-01-06 01:37:05.09	138.92	47.70	-50.8	-52.6	15.2	5.99e-01	0	26	0	773849088	69	4695
2026-01-06 01:37:06.10	139.51	47.48	-50.8	-52.6	15.3	6.00e-01	0	26	0	775946240	69	4666
2026-01-06 01:37:07.09	140.08	47.27	-51.0	-52.9	15.2	6.00e-01	0	26	0	778043392	69	4819
2026-01-06 01:37:08.10	140.65	47.04	-50.9	-52.7	15.2	5.98e-01	0	26	0	779616256	69	4729
2026-01-06 01:37:09.10	141.21	46.82	-50.6	-52.3	15.3	5.98e-01	0	26	0	781713408	69	4506
2026-01-06 01:37:10.10	141.76	46.60	-50.5	-52.2	15.3	6.00e-01	0	26	0	783286272	69	4472
2026-01-06 01:37:11.10	142.31	46.37	-50.4	-52.1	15.4	6.00e-01	0	26	0	785383424	69	4413
2026-01-06 01:37:12.09	142.84	46.15	-50.5	-52.3	15.4	6.00e-01	0	26	0	786956288	69	4495
2026-01-06 01:37:13.09	143.37	45.92	-50.7	-52.5	15.3	6.02e-01	0	26	0	789053440	69	4637
2026-01-06 01:37:14.09	143.89	45.69	-50.6	-52.3	15.3	6.01e-01	0	26	0	791150592	69	4508
2026-01-06 01:37:15.09	144.40	45.46	-50.5	-52.2	15.4	6.03e-01	0	26	0	792723456	69	4466
2026-01-06 01:37:16.09	144.91	45.23	-50.4	-52.1	15.3	6.00e-01	0	26	0	794820608	69	4439
2026-01-06 01:37:17.10	145.41	45.00	-50.6	-52.4	15.3	6.00e-01	0	26	0	796393472	69	4569
2026-01-06 01:37:18.10	145.90	44.76	-50.5	-52.2	15.3	5.99e-01	0	26	0	798490624	69	4476
2026-01-06 01:37:19.11	146.39	44.53	-50.2	-51.9	15.4	6.01e-01	0	26	0	800587776	69	4325
2026-01-06 01:37:20.11	146.87	44.29	-50.3	-52.0	15.4	6.02e-01	0	26	0	802160640	69	4371
2026-01-06 01:37:21.12	147.35	44.06	-50.3	-52.0	15.4	6.01e-01	0	26	0	804257792	69	4364
2026-01-06 01:37:22.12	147.81	43.82	-50.4	-52.1	15.4	5.99e-01	0	26	0	805830656	69	4401
2026-01-06 01:37:23.12	148.27	43.58	-50.3	-52.0	15.4	6.02e-01	0	26	0	807927808	69	4348
2026-01-06 01:37:24.12	148.72	43.35	-50.4	-52.0	15.4	5.98e-01	0	26	0	809500672	69	4391
2026-01-06 01:37:25.13	149.16	43.11	-50.3	-52.0	15.4	6.03e-01	0	26	0	811597824	69	4375
2026-01-06 01:37:26.13	149.60	42.87	-50.5	-52.3	15.3	5.99e-01	0	26	0	813694976	69	4499
2026-01-06 01:37:27.14	150.03	42.63	-50.5	-52.2	15.3	6.01e-01	0	26	0	815267840	69	4481
2026-01-06 01:37:28.14	150.46	42.39	-50.5	-52.3	15.3	6.00e-01	0	26	0	817364992	69	4495
2026-01-06 01:37:29.14	150.88	42.16	-50.5	-52.2	15.3	6.02e-01	0	26	0	818937856	69	4480
2026-01-06 01:37:30.14	151.29	41.92	-50.4	-52.1	15.4	6.00e-01	0	26	0	821035008	69	4414
2026-01-06 01:37:31.14	151.69	41.68	-50.3	-52.0	15.4	6.01e-01	0	26	0	823132160	69	4378
2026-01-06 01:37:32.14	152.09	41.44	-50.6	-52.4	15.3	6.02e-01	0	26	0	824705024	69	4566
2026-01-06 01:37:33.14	152.49	41.21	-50.8	-52.6	15.2	6.02e-01	0	26	0	826802176	69	4676
2026-01-06 01:37:34.14	152.87	40.97	-50.6	-52.4	15.3	6.00e-01	0	26	0	828375040	69	4546
2026-01-06 01:37:35.14	153.26	40.73	-50.7	-52.5	15.3	6.01e-01	0	26	0	830472192	69	4599
2026-01-06 01:37:36.15	153.64	40.49	-50.5	-52.2	15.3	6.01e-01	0	26	0	832045056	69	4468
2026-01-06 01:37:37.15	154.01	40.26	-50.4	-52.1	15.4	6.00e-01	0	26	0	834142208	69	4440
2026-01-06 01:37:38.15	154.37	40.02	-50.4	-52.1	15.4	6.02e-01	0	26	0	836239360	69	4429
2026-01-06 01:37:39.15	154.73	39.79	-50.4	-52.1	15.4	6.02e-01	0	26	0	837812224	69	4422
2026-01-06 01:37:40.15	155.09	39.55	-50.4	-52.1	15.4	5.99e-01	0	26	0	839909376	69	4425
2026-01-06 01:37:41.15	155.44	39.32	-50.6	-52.4	15.3	5.99e-01	0	26	0	841482240	69	4565
2026-01-06 01:37:42.16	155.79	39.08	-50.7	-52.5	15.3	6.02e-01	0	26	0	843579392	69	4601
2026-01-06 01:37:43.16	156.13	38.85	-50.6	-52.4	15.3	6.02e-01	0	26	0	845676544	69	4561
2026-01-06 01:37:44.17	156.47	38.61	-50.6	-52.4	15.3	6.04e-01	0	26	0	847249408	69	4570
2026-01-06 01:37:45.17	156.80	38.38	-50.5	-52.3	15.3	6.01e-01	0	26	0	849346560	69	4500
2026-01-06 01:37:46.17	157.12	38.15	-50.4	-52.0	15.4	6.02e-01	0	26	0	850919424	69	4391
2026-01-06 01:37:47.18	157.45	37.92	-50.3	-52.0	15.4	6.02e-01	0	26	0	853016576	69	4386
2026-01-06 01:37:48.19	157.77	37.68	-50.4	-52.1	15.4	6.01e-01	0	26	0	855113728	69	4427
2026-01-06 01:37:49.18	158.07	37.46	-50.5	-52.3	15.3	6.00e-01	0	26	0	856686592	69	4495
2026-01-06 01:37:50.18	158.38	37.23	-50.3	-52.0	15.4	6.00e-01	0	26	0	858783744	69	4359
2026-01-06 01:37:51.18	158.69	37.00	-50.1	-51.8	15.5	6.02e-01	0	26	0	860356608	69	4275
2026-01-06 01:37:52.19	158.99	36.77	-49.8	-51.4	15.4	6.02e-01	0	26	0	862453760	68	4338
2026-01-06 01:37:53.19	159.28	36.55	-49.9	-51.5	15.4	6.01e-01	0	26	0	864026624	68	4381
2026-01-06 01:37:54.18	159.57	36.32	-50.0	-51.7	15.4	6.00e-01	0	26	0	866123776	68	4448
2026-01-06 01:37:55.18	159.86	36.10	-50.1	-51.8	15.3	6.03e-01	0	26	0	868220928	68	4545
2026-01-06 01:37:56.18	160.14	35.88	-49.9	-51.6	15.4	6.00e-01	0	26	0	869793792	68	4398
2026-01-06 01:37:57.18	160.42	35.65	-49.9	-51.6	15.4	6.00e-01	0	26	0	871890944	68	4407
2026-01-06 01:37:58.19	160.70	35.43	-49.7	-51.4	15.5	5.99e-01	0	26	0	873463808	68	4298
2026-01-06 01:37:59.19	160.97	35.21	-49.6	-51.2	15.5	6.01e-01	0	26	0	875560960	68	4210
2026-01-06 01:38:00.19	161.24	34.99	-49.4	-51.0	15.6	5.99e-01	0	26	0	877133824	68	4103
2026-01-06 01:38:01.19	161.50	34.77	-49.3	-50.9	15.5	6.00e-01	0	26	0	879230976	67	4303
2026-01-06 01:38:02.18	161.76	34.55	-49.3	-50.8	15.5	6.00e-01	0	26	0	881328128	67	4289
2026-01-06 01:38:03.18	162.02	34.34	-49.2	-50.7	15.5	6.01e-01	0	26	0	882900992	67	4238
2026-01-06 01:38:04.18	162.27	34.12	-49.2	-50.7	15.5	6.02e-01	0	26	0	884998144	67	4227
2026-01-06 01:38:05.18	162.52	33.91	-49.1	-50.7	15.5	6.01e-01	0	26	0	886571008	67	4221
2026-01-06 01:38:06.18	162.77	33.69	-49.1	-50.6	15.5	5.99e-01	0	26	0	888668160	67	4168
2026-01-06 01:38:07.18	163.01	33.48	-49.0	-50.5	15.6	6.01e-01	0	26	0	890241024	67	4142
2026-01-06 01:38:08.17	163.25	33.27	-48.9	-50.4	15.6	6.00e-01	0	26	0	892338176	67	4098
2026-01-06 01:38:09.17	163.49	33.06	-48.9	-50.4	15.6	6.00e-01	0	26	0	893911040	67	4080
2026-01-06 01:38:10.17	163.73	32.85	-48.9	-50.4	15.6	6.01e-01	0	26	0	896008192	67	4086
2026-01-06 01:38:11.18	163.96	32.64	-48.9	-50.4	15.6	6.00e-01	0	26	0	898105344	67	4095
2026-01-06 01:38:12.18	164.19	32.43	-48.8	-50.3	15.5	5.99e-01	0	26	0	899678208	66	4286
2026-01-06 01:38:13.18	164.41	32.23	-48.8	-50.4	15.5	6.00e-01	0	26	0	901775360	66	4301
2026-01-06 01:38:14.19	164.64	32.02	-48.7	-50.2	15.5	6.00e-01	0	26	0	903872512	66	4241
2026-01-06 01:38:15.19	164.86	31.81	-48.7	-50.2	15.5	6.01e-01	0	26	0	905445376	66	4214
2026-01-06 01:38:16.19	165.08	31.61	-48.7	-50.2	15.5	6.00e-01	0	26	0	907542528	66	4237
2026-01-06 01:38:17.18	165.29	31.41	-48.7	-50.2	15.5	6.00e-01	0	26	0	909115392	66	4213
2026-01-06 01:38:18.19	165.50	31.21	-48.8	-50.3	15.5	5.98e-01	0	26	0	911212544	66	4255
2026-01-06 01:38:19.19	165.71	31.01	-48.8	-50.3	15.5	5.99e-01	0	26	0	912785408	66	4258
2026-01-06 01:38:20.19	165.92	30.81	-48.7	-50.2	15.5	6.01e-01	0	26	0	914882560	66	4221
2026-01-06 01:38:21.19	166.12	30.61	-48.7	-50.2	15.5	6.00e-01	0	26	0	916979712	66	4226
2026-01-06 01:38:22.19	166.32	30.41	-48.8	-50.3	15.5	6.00e-01	0	26	0	918552576	66	4288
2026-01-06 01:38:23.18	166.52	30.22	-48.9	-50.4	15.4	6.03e-01	0	26	0	920649728	66	4336
2026-01-06 01:38:24.18	166.72	30.02	-48.9	-50.4	15.4	5.99e-01	0	26	0	922222592	66	4329
2026-01-06 01:38:25.17	166.91	29.83	-49.0	-50.6	15.4	6.01e-01	0	26	0	924319744	66	4415
2026-01-06 01:38:26.17	167.10	29.64	-49.0	-50.6	15.4	6.00e-01	0	26	0	925892608	66	4400
2026-01-06 01:38:27.17	167.29	29.45	-48.9	-50.5	15.4	6.02e-01	0	26	0	927989760	66	4359
2026-01-06 01:38:28.17	167.48	29.26	-49.0	-50.6	15.4	6.02e-01	0	26	0	929562624	66	4403
2026-01-06 01:38:29.15	167.66	29.07	-49.2	-50.7	15.4	6.00e-01	0	26	0	931659776	66	4483
2026-01-06 01:38:30.15	167.85	28.88	-49.1	-50.7	15.4	6.00e-01	0	26	0	933756928	66	4479
2026-01-06 01:38:31.15	168.03	28.69	-49.2	-50.8	15.4	6.02e-01	0	26	0	935329792	66	4502
2026-01-06 01:38:32.15	168.21	28.51	-49.3	-50.9	15.3	6.01e-01	0	26	0	937426944	66	4554
2026-01-06 01:38:33.15	168.38	28.32	-49.2	-50.7	15.4	5.99e-01	0	26	0	938999808	66	4482
2026-01-06 01:38:34.14	168.56	28.14	-49.0	-50.6	15.4	6.02e-01	0	26	0	941096960	66	4397
2026-01-06 01:38:35.14	168.73	27.96	-49.0	-50.5	15.4	6.01e-01	0	26	0	942669824	66	4378
2026-01-06 01:38:36.13	168.90	27.78	-49.0	-50.6	15.4	6.00e-01	0	26	0	944766976	66	4407
2026-01-06 01:38:37.13	169.07	27.60	-49.1	-50.7	15.4	6.04e-01	0	26	0	946864128	66	4470
2026-01-06 01:38:38.12	169.23	27.42	-49.3	-50.9	15.3	6.01e-01	0	26	0	948436992	66	4549
2026-01-06 01:38:39.12	169.40	27.24	-49.3	-51.0	15.3	6.01e-01	0	26	0	950534144	66	4604
2026-01-06 01:38:40.12	169.56	27.06	-49.4	-51.1	15.3	6.04e-01	0	26	0	952107008	66	4661
2026-01-06 01:38:41.11	169.72	26.89	-49.6	-51.2	15.3	6.01e-01	0	26	0	954204160	66	4743
2026-01-06 01:38:42.11	169.88	26.71	-49.6	-51.3	15.3	6.00e-01	0	26	0	955777024	67	4510
2026-01-06 01:38:43.10	170.04	26.54	-49.7	-51.3	15.3	6.01e-01	0	26	0	957874176	67	4540
2026-01-06 01:38:44.10	170.19	26.36	-49.7	-51.3	15.3	6.01e-01	0	26	0	959447040	67	4538
2026-01-06 01:38:45.08	170.34	26.19	-49.7	-51.3	15.3	6.01e-01	0	26	0	961544192	67	4532
2026-01-06 01:38:46.08	170.50	26.02	-49.7	-51.3	15.3	5.98e-01	0	26	0	963641344	67	4523
2026-01-06 01:38:47.07	170.65	25.85	-49.6	-51.2	15.3	6.00e-01	0	26	0	965214208	67	4489
2026-01-06 01:38:48.06	170.80	25.68	-49.5	-51.1	15.4	6.00e-01	0	26	0	967311360	67	4432
2026-01-06 01:38:49.05	170.94	25.51	-49.5	-51.1	15.4	6.01e-01	0	26	0	968884224	67	4421
2026-01-06 01:38:50.05	171.09	25.35	-49.5	-51.1	15.4	6.01e-01	0	26	0	970981376	67	4415
2026-01-06 01:38:51.04	171.23	25.18	-49.6	-51.3	15.4	5.99e-01	0	26	0	972554240	67	4498
2026-01-06 01:38:52.03	171.37	25.02	-49.6	-51.2	15.4	6.01e-01	0	26	0	974651392	67	4472
2026-01-06 01:38:53.03	171.52	24.85	-49.6	-51.2	15.4	6.03e-01	0	26	0	976224256	67	4489
2026-01-06 01:38:54.02	171.65	24.69	-49.6	-51.3	15.4	5.98e-01	0	26	0	978321408	67	4512
2026-01-06 01:38:55.01	171.79	24.53	-49.7	-51.4	15.3	6.03e-01	0	26	0	979894272	67	4549
2026-01-06 01:38:56.00	171.93	24.36	-49.7	-51.3	15.4	6.01e-01	0	26	0	981991424	67	4519
2026-01-06 01:38:57.00	172.06	24.20	-49.6	-51.3	15.4	5.98e-01	0	26	0	984088576	67	4515
2026-01-06 01:38:57.99	172.20	24.04	-49.7	-51.3	15.4	6.01e-01	0	26	0	985661440	67	4537
2026-01-06 01:38:58.99	172.33	23.88	-49.7	-51.4	15.3	6.03e-01	0	26	0	987758592	67	4556
2026-01-06 01:38:59.98	172.46	23.73	-49.7	-51.4	15.3	6.03e-01	0	26	0	989331456	67	4582
2026-01-06 01:39:00.99	172.59	23.57	-49.7	-51.4	15.3	6.01e-01	0	26	0	991428608	67	4569
2026-01-06 01:39:01.98	172.72	23.41	-49.8	-51.4	15.3	6.03e-01	0	26	0	993001472	67	4585
2026-01-06 01:39:02.97	172.85	23.26	-49.7	-51.4	15.3	6.02e-01	0	26	0	995098624	67	4573
2026-01-06 01:39:03.97	172.98	23.10	-49.8	-51.5	15.3	6.02e-01	0	26	0	996671488	67	4611
2026-01-06 01:39:04.96	173.10	22.95	-49.7	-51.4	15.3	6.00e-01	0	26	0	998768640	67	4567
2026-01-06 01:39:05.95	173.22	22.80	-49.7	-51.3	15.3	6.01e-01	0	26	0	1000865792	67	4537
2026-01-06 01:39:06.95	173.35	22.64	-49.6	-51.2	15.4	5.99e-01	0	26	0	1002438656	67	4484
2026-01-06 01:39:07.95	173.47	22.49	-49.6	-51.3	15.3	6.01e-01	0	26	0	1004535808	67	4505
2026-01-06 01:39:08.94	173.59	22.34	-49.6	-51.2	15.4	6.01e-01	0	26	0	1006108672	67	4485
2026-01-06 01:39:09.94	173.71	22.19	-49.6	-51.2	15.4	6.02e-01	0	26	0	1008205824	67	4483
2026-01-06 01:39:10.93	173.82	22.04	-49.6	-51.2	15.4	6.01e-01	0	26	0	1009778688	67	4488
2026-01-06 01:39:11.92	173.94	21.90	-49.5	-51.2	15.4	6.01e-01	0	26	0	1011875840	67	4458
2026-01-06 01:39:12.91	174.05	21.75	-49.6	-51.2	15.4	6.03e-01	0	26	0	1013448704	67	4486
2026-01-06 01:39:13.90	174.17	21.61	-49.5	-51.2	15.4	6.02e-01	0	26	0	1015545856	67	4459
2026-01-06 01:39:14.89	174.28	21.46	-49.5	-51.1	15.4	6.02e-01	0	26	0	1017643008	67	4440
2026-01-06 01:39:15.89	174.39	21.32	-49.6	-51.2	15.4	5.99e-01	0	26	0	1019215872	67	4468
2026-01-06 01:39:16.88	174.50	21.17	-49.5	-51.1	15.4	6.01e-01	0	26	0	1021313024	67	4412
2026-01-06 01:39:17.88	174.62	21.03	-49.5	-51.2	15.4	6.00e-01	0	26	0	1022885888	67	4453
2026-01-06 01:39:18.88	174.73	20.89	-49.5	-51.1	15.4	6.01e-01	0	26	0	1024983040	67	4422
2026-01-06 01:39:19.88	174.83	20.74	-49.5	-51.1	15.4	6.01e-01	0	26	0	1026555904	67	4439
2026-01-06 01:39:20.87	174.94	20.60	-49.5	-51.1	15.4	5.98e-01	0	26	0	1028653056	67	4434
2026-01-06 01:39:21.87	175.05	20.46	-49.5	-51.1	15.4	6.00e-01	0	26	0	1030225920	67	4433
2026-01-06 01:39:22.87	175.15	20.32	-49.5	-51.1	15.4	6.01e-01	0	26	0	1032323072	67	4416
2026-01-06 01:39:23.86	175.26	20.19	-49.5	-51.2	15.4	5.99e-01	0	26	0	1034420224	67	4449
2026-01-06 01:39:24.86	175.36	20.05	-49.5	-51.2	15.4	6.00e-01	0	26	0	1035993088	67	4445
2026-01-06 01:39:25.85	175.46	19.91	-49.5	-51.1	15.4	6.03e-01	0	26	0	1038090240	67	4434
2026-01-06 01:39:26.85	175.56	19.78	-49.5	-51.2	15.4	6.00e-01	0	26	0	1039663104	67	4459
2026-01-06 01:39:27.84	175.66	19.64	-49.6	-51.3	15.3	6.00e-01	0	26	0	1041760256	67	4507
2026-01-06 01:39:28.84	175.76	19.50	-49.7	-51.3	15.3	6.00e-01	0	26	0	1043857408	67	4543
2026-01-06 01:39:29.83	175.86	19.37	-49.6	-51.3	15.3	5.99e-01	0	26	0	1045430272	67	4495
2026-01-06 01:39:30.83	175.96	19.24	-49.5	-51.2	15.4	6.02e-01	0	26	0	1047527424	67	4454
2026-01-06 01:39:31.83	176.06	19.10	-49.6	-51.3	15.3	6.00e-01	0	26	0	1049100288	67	4522
2026-01-06 01:39:32.82	176.15	18.97	-49.7	-51.3	15.3	6.01e-01	0	26	0	1051197440	67	4538
2026-01-06 01:39:33.82	176.25	18.84	-49.6	-51.3	15.3	6.00e-01	0	26	0	1052770304	67	4519
2026-01-06 01:39:34.82	176.35	18.71	-49.5	-51.2	15.4	6.03e-01	0	26	0	1054867456	67	4457
2026-01-06 01:39:35.82	176.44	18.58	-49.6	-51.3	15.4	6.00e-01	0	26	0	1056440320	67	4502
2026-01-06 01:39:36.82	176.53	18.45	-49.6	-51.3	15.3	6.00e-01	0	26	0	1058537472	67	4514
2026-01-06 01:39:37.81	176.62	18.32	-49.5	-51.1	15.4	6.02e-01	0	26	0	1060634624	67	4431
2026-01-06 01:39:38.81	176.72	18.19	-49.4	-51.0	15.4	5.98e-01	0	26	0	1062207488	67	4381
2026-01-06 01:39:39.81	176.81	18.07	-49.4	-51.1	15.4	5.99e-01	0	26	0	1064304640	67	4400
2026-01-06 01:39:40.81	176.90	17.94	-49.4	-51.0	15.4	6.04e-01	0	26	0	1065877504	67	4364
2026-01-06 01:39:41.81	176.99	17.81	-49.4	-51.0	15.4	6.00e-01	0	26	0	1067974656	67	4384
2026-01-06 01:39:42.81	177.08	17.69	-49.3	-50.9	15.5	6.00e-01	0	26	0	1069547520	67	4324
2026-01-06 01:39:43.81	177.16	17.56	-49.3	-50.9	15.5	5.99e-01	0	26	0	1071644672	67	4317
2026-01-06 01:39:44.80	177.25	17.44	-49.3	-51.0	15.4	5.98e-01	0	26	0	1073741824	67	4349
2026-01-06 01:39:45.80	177.34	17.32	-49.3	-50.9	15.4	6.01e-01	0	26	0	1075314688	67	4321
2026-01-06 01:39:46.80	177.42	17.19	-49.3	-50.9	15.5	6.02e-01	0	26	0	1077411840	67	4318
2026-01-06 01:39:47.80	177.51	17.07	-49.3	-50.9	15.5	5.99e-01	0	26	0	1078984704	67	4327
2026-01-06 01:39:48.80	177.59	16.95	-49.3	-51.0	15.4	5.99e-01	0	26	0	1081081856	67	4345
2026-01-06 01:39:49.80	177.68	16.83	-49.3	-50.9	15.4	6.02e-01	0	26	0	1082654720	67	4323
2026-01-06 01:39:50.79	177.76	16.71	-49.3	-50.9	15.4	6.01e-01	0	26	0	1084751872	67	4338
2026-01-06 01:39:51.79	177.84	16.59	-49.4	-51.1	15.4	6.01e-01	0	26	0	1086849024	67	4404
2026-01-06 01:39:52.78	177.92	16.47	-49.4	-51.0	15.4	6.01e-01	0	26	0	1088421888	67	4364
2026-01-06 01:39:53.78	178.00	16.35	-49.3	-51.0	15.4	6.02e-01	0	26	0	1090519040	67	4343
2026-01-06 01:39:54.78	178.08	16.23	-49.2	-50.9	15.5	6.03e-01	0	26	0	1092091904	67	4296
2026-01-06 01:39:55.79	178.16	16.11	-49.4	-51.0	15.4	6.00e-01	0	26	0	1094189056	67	4373
2026-01-06 01:39:56.79	178.24	15.99	-49.4	-51.0	15.4	6.02e-01	0	26	0	1095761920	67	4366
2026-01-06 01:39:57.79	178.32	15.88	-49.4	-51.1	15.4	6.00e-01	0	26	0	1097859072	67	4398
2026-01-06 01:39:58.79	178.40	15.76	-49.6	-51.2	15.4	6.00e-01	0	26	0	1099956224	67	4483
2026-01-06 01:39:59.79	178.48	15.65	-49.5	-51.2	15.4	6.00e-01	0	26	0	1101529088	67	4466
2026-01-06 01:40:00.79	178.55	15.53	-49.5	-51.1	15.4	6.00e-01	0	26	0	1103626240	67	4439
2026-01-06 01:40:01.80	178.63	15.42	-49.6	-51.3	15.3	6.00e-01	0	26	0	1105199104	67	4511
2026-01-06 01:40:02.79	178.71	15.30	-49.6	-51.4	15.3	6.01e-01	0	26	0	1107296256	67	4548
2026-01-06 01:40:03.79	178.78	15.19	-49.5	-51.2	15.4	6.02e-01	0	26	0	1109393408	67	4455
2026-01-06 01:40:04.80	178.86	15.08	-49.6	-51.3	15.3	6.00e-01	0	26	0	1110966272	67	4508
2026-01-06 01:40:05.80	178.93	14.96	-49.6	-51.3	15.3	6.02e-01	0	26	0	1113063424	67	4521
2026-01-06 01:40:06.80	179.00	14.85	-49.5	-51.1	15.4	6.03e-01	0	26	0	1114636288	67	4434
2026-01-06 01:40:07.81	179.08	14.74	-49.6	-51.3	15.3	6.02e-01	0	26	0	1116733440	67	4503
2026-01-06 01:40:08.80	179.15	14.63	-49.5	-51.2	15.3	6.00e-01	0	26	0	1118306304	67	4478
2026-01-06 01:40:09.80	179.22	14.52	-49.4	-51.1	15.4	6.02e-01	0	26	0	1120403456	67	4422
2026-01-06 01:40:10.80	179.29	14.41	-49.5	-51.1	15.4	6.00e-01	0	26	0	1122500608	67	4432
2026-01-06 01:40:11.81	179.36	14.30	-49.5	-51.1	15.4	5.99e-01	0	26	0	1124073472	67	4431
2026-01-06 01:40:12.81	179.43	14.19	-49.4	-51.0	15.4	6.00e-01	0	26	0	1126170624	67	4389
2026-01-06 01:40:13.80	179.50	14.09	-49.5	-51.1	15.4	6.01e-01	0	26	0	1127743488	67	4429
2026-01-06 01:40:14.81	179.57	13.98	-49.5	-51.1	15.4	6.01e-01	0	26	0	1129840640	67	4434
2026-01-06 01:40:15.81	179.64	13.87	-49.5	-51.2	15.3	6.01e-01	0	26	0	1131413504	67	4466
2026-01-06 01:40:16.81	179.71	13.76	-49.5	-51.2	15.3	6.02e-01	0	26	0	1133510656	67	4478
2026-01-06 01:40:17.81	179.78	13.66	-49.6	-51.2	15.3	6.00e-01	0	26	0	1135607808	67	4487
2026-01-06 01:40:18.82	179.84	13.55	-49.4	-51.1	15.4	6.01e-01	0	26	0	1137180672	67	4397
2026-01-06 01:40:19.82	179.91	13.44	-49.5	-51.1	15.4	6.00e-01	0	26	0	1139277824	67	4431
2026-01-06 01:40:20.82	179.98	13.34	-49.5	-51.2	15.4	6.03e-01	0	26	0	1140850688	67	4445
2026-01-06 01:40:21.82	180.04	13.24	-49.6	-51.3	15.3	6.01e-01	0	26	0	1142947840	67	4505
2026-01-06 01:40:22.81	180.11	13.13	-49.5	-51.2	15.4	6.01e-01	0	26	0	1144520704	67	4448
2026-01-06 01:40:23.81	180.17	13.03	-49.5	-51.2	15.4	6.01e-01	0	26	0	1146617856	67	4467
2026-01-06 01:40:24.82	180.24	12.93	-49.6	-51.3	15.3	6.01e-01	0	26	0	1148715008	67	4544
2026-01-06 01:40:25.81	180.30	12.82	-49.6	-51.3	15.3	6.02e-01	0	26	0	1150287872	67	4497
2026-01-06 01:40:26.82	180.36	12.72	-49.6	-51.3	15.3	6.00e-01	0	26	0	1152385024	67	4508
2026-01-06 01:40:27.82	180.43	12.62	-49.6	-51.3	15.3	6.00e-01	0	26	0	1153957888	67	4545
2026-01-06 01:40:28.83	180.49	12.52	-49.6	-51.3	15.3	6.02e-01	0	26	0	1156055040	67	4529
2026-01-06 01:40:29.83	180.55	12.42	-49.7	-51.4	15.3	6.00e-01	0	26	0	1158152192	67	4567
2026-01-06 01:40:30.84	180.61	12.32	-49.6	-51.3	15.3	6.02e-01	0	26	0	1159725056	67	4538
2026-01-06 01:40:31.84	180.67	12.22	-49.7	-51.4	15.3	6.01e-01	0	26	0	1161822208	67	4570
2026-01-06 01:40:32.84	180.74	12.12	-49.8	-51.5	15.3	5.98e-01	0	26	0	1163395072	67	4646
2026-01-06 01:40:33.84	180.80	12.02	-49.7	-51.4	15.3	6.04e-01	0	26	0	1165492224	67	4588
2026-01-06 01:40:34.84	180.86	11.92	-49.7	-51.4	15.3	5.99e-01	0	26	0	1167589376	67	4573
2026-01-06 01:40:35.84	180.92	11.82	-49.8	-51.6	15.3	6.00e-01	0	26	0	1169162240	67	4668
2026-01-06 01:40:36.84	180.97	11.72	-49.7	-51.4	15.3	6.01e-01	0	26	0	1171259392	67	4563
2026-01-06 01:40:37.83	181.03	11.63	-49.7	-51.4	15.3	6.03e-01	0	26	0	1172832256	67	4576
2026-01-06 01:40:38.83	181.09	11.53	-49.7	-51.5	15.3	6.01e-01	0	26	0	1174929408	67	4619
2026-01-06 01:40:39.83	181.15	11.43	-49.8	-51.6	15.3	6.03e-01	0	26	0	1176502272	67	4665
2026-01-06 01:40:40.83	181.21	11.34	-49.8	-51.5	15.3	6.00e-01	0	26	0	1178599424	67	4639
2026-01-06 01:40:41.83	181.26	11.24	-49.8	-51.6	15.3	5.98e-01	0	26	0	1180696576	67	4659
2026-01-06 01:40:42.88	181.32	11.14	-49.8	-51.6	15.2	6.03e-01	0	26	0	1182269440	67	4675
2026-01-06 01:40:43.78	181.38	11.06	-49.9	-51.6	15.3	6.01e-01	0	26	0	1183842304	67	4685
2026-01-06 01:40:44.79	181.43	10.96	-49.9	-51.7	15.2	6.00e-01	0	26	0	1185939456	67	4720
2026-01-06 01:40:45.79	181.49	10.87	-49.8	-51.6	15.3	6.00e-01	0	26	0	1188036608	67	4673
2026-01-06 01:40:46.80	181.54	10.77	-49.9	-51.7	15.2	5.98e-01	0	26	0	1189609472	67	4720
2026-01-06 01:40:47.80	181.60	10.68	-49.9	-51.7	15.2	6.00e-01	0	26	0	1191706624	67	4747
2026-01-06 01:40:48.81	181.65	10.59	-49.9	-51.7	15.2	6.02e-01	0	26	0	1193279488	67	4733
2026-01-06 01:40:49.81	181.71	10.49	-49.9	-51.7	15.2	6.02e-01	0	26	0	1195376640	67	4729
2026-01-06 01:40:50.81	181.76	10.40	-49.9	-51.6	15.2	6.02e-01	0	26	0	1196949504	67	4697
2026-01-06 01:40:51.81	181.82	10.31	-49.8	-51.6	15.3	6.01e-01	0	26	0	1199046656	67	4659
2026-01-06 01:40:52.81	181.87	10.22	-49.9	-51.7	15.2	6.01e-01	0	26	0	1201143808	67	4727
2026-01-06 01:40:53.82	181.92	10.13	-49.9	-51.7	15.2	6.02e-01	0	26	0	1202716672	67	4713
2026-01-06 01:40:54.82	181.98	10.03	-50.0	-51.7	15.2	6.03e-01	0	26	0	1204813824	67	4754
2026-01-06 01:40:55.82	182.03	9.94	-49.9	-51.7	15.2	6.02e-01	0	26	0	1206386688	67	4710
2026-01-06 01:40:56.82	182.08	9.85	-49.9	-51.7	15.2	6.01e-01	0	26	0	1208483840	67	4710
2026-01-06 01:40:57.82	182.13	9.76	-50.0	-51.7	15.2	6.01e-01	0	26	0	1210056704	67	4747
2026-01-06 01:40:58.82	182.18	9.67	-50.0	-51.8	15.2	6.00e-01	0	26	0	1212153856	67	4766
2026-01-06 01:40:59.82	182.24	9.59	-50.0	-51.8	15.2	6.00e-01	0	26	0	1214251008	67	4774
2026-01-06 01:41:00.83	182.29	9.50	-50.0	-51.8	15.2	6.00e-01	0	26	0	1215823872	67	4800
2026-01-06 01:41:01.83	182.34	9.41	-50.1	-51.9	15.2	6.01e-01	0	26	0	1217921024	67	4822
2026-01-06 01:41:02.82	182.39	9.32	-50.2	-52.0	15.3	6.02e-01	0	26	0	1219493888	68	4614
2026-01-06 01:41:03.83	182.44	9.23	-50.1	-51.9	15.3	6.01e-01	0	26	0	1221591040	68	4574
2026-01-06 01:41:04.82	182.49	9.15	-50.1	-51.9	15.3	6.01e-01	0	26	0	1223163904	68	4571
2026-01-06 01:41:05.83	182.54	9.06	-50.2	-52.0	15.3	6.02e-01	0	26	0	1225261056	68	4622
2026-01-06 01:41:06.83	182.59	8.97	-50.2	-52.0	15.2	6.02e-01	0	26	0	1227358208	68	4639
2026-01-06 01:41:07.84	182.63	8.88	-50.3	-52.1	15.2	5.99e-01	0	26	0	1228931072	68	4670
2026-01-06 01:41:08.84	182.68	8.80	-50.3	-52.2	15.2	6.01e-01	0	26	0	1231028224	68	4707
2026-01-06 01:41:09.85	182.73	8.71	-50.4	-52.2	15.2	6.02e-01	0	26	0	1233125376	68	4749
2026-01-06 01:41:10.86	182.78	8.62	-50.3	-52.1	15.2	6.04e-01	0	26	0	1234698240	68	4680
2026-01-06 01:41:11.86	182.83	8.54	-50.2	-52.1	15.2	5.98e-01	0	26	0	1236795392	68	4669
2026-01-06 01:41:12.85	182.87	8.46	-50.3	-52.1	15.2	5.99e-01	0	26	0	1238368256	68	4696
2026-01-06 01:41:13.85	182.92	8.37	-50.3	-52.2	15.2	6.02e-01	0	26	0	1240465408	68	4715
2026-01-06 01:41:14.85	182.97	8.29	-50.4	-52.2	15.2	6.02e-01	0	26	0	1242038272	68	4739
2026-01-06 01:41:15.85	183.01	8.20	-50.4	-52.3	15.2	6.00e-01	0	26	0	1244135424	68	4794
2026-01-06 01:41:16.85	183.06	8.12	-50.3	-52.2	15.2	6.03e-01	0	26	0	1246232576	68	4716
2026-01-06 01:41:17.86	183.11	8.03	-50.5	-52.3	15.1	6.01e-01	0	26	0	1247805440	68	4812
2026-01-06 01:41:18.86	183.15	7.95	-50.5	-52.4	15.1	6.02e-01	0	26	0	1249902592	68	4838
2026-01-06 01:41:19.87	183.20	7.87	-50.5	-52.4	15.1	5.99e-01	0	26	0	1251475456	68	4866
2026-01-06 01:41:20.87	183.24	7.79	-50.6	-52.5	15.1	6.01e-01	0	26	0	1253572608	68	4905
2026-01-06 01:41:21.88	183.29	7.70	-50.7	-52.6	15.2	6.02e-01	0	26	0	1255669760	69	4692
2026-01-06 01:41:22.87	183.33	7.62	-50.6	-52.5	15.2	5.99e-01	0	26	0	1257242624	69	4613
2026-01-06 01:41:23.87	183.38	7.54	-50.6	-52.6	15.2	5.99e-01	0	26	0	1259339776	69	4659
2026-01-06 01:41:24.86	183.42	7.46	-50.6	-52.5	15.2	6.01e-01	0	26	0	1260912640	69	4618
