passes_logs/2026/01/06/R3.2S_Murmansk/R3.2S_Murmansk__20260106_001017_NOAA_21_JPSS-2_rec.log

#Pass ID: 20260106_001017_NOAA 21 (JPSS-2)
#Satellite: NOAA 21 (JPSS-2)
#Configuration: NOAA-21
#almurnet v.1.7.20251203
#Start time: 2026-01-06 00:10:18

#Version: 2.2.20231116
#Station: R3.2S_Murmansk
#Location: 33.079688 lon 68.888172 lat
#TLE: 1 54234U 22150A   26005.42670836  .00000142  00000+0  88292-4 0  9996
#TLE: 2 54234  98.7490 306.4427 0001045 340.6622  19.4514 14.19532269163451

#Time	Az	El	Level	Level2	SNR	BER	BlckErr	Temp	State	Recorded	gain1	gain2
2026-01-06 00:10:18.68	22.72	2.09	-58.1	-71.6	3.8	1.49e+00	0	25	0	0	82	17077
2026-01-06 00:10:19.68	22.74	2.16	-58.1	-71.7	3.8	1.49e+00	0	24	104	0	81	18186
2026-01-06 00:10:20.68	22.76	2.22	-58.1	-71.7	3.8	1.49e+00	0	25	104	0	81	18140
2026-01-06 00:10:21.68	22.78	2.28	-58.1	-71.6	3.8	1.49e+00	0	25	104	0	81	18079
2026-01-06 00:10:22.67	22.80	2.35	-58.0	-71.6	3.8	1.49e+00	0	25	104	0	81	17955
2026-01-06 00:10:23.68	22.81	2.41	-58.0	-71.6	3.8	1.49e+00	0	25	104	0	81	17943
2026-01-06 00:10:24.69	22.83	2.48	-58.0	-71.4	3.8	1.49e+00	0	24	104	0	81	17539
2026-01-06 00:10:25.69	22.85	2.54	-58.0	-71.3	3.8	1.49e+00	0	25	104	0	81	17324
2026-01-06 00:10:26.68	22.87	2.61	-58.0	-71.1	3.8	1.49e+00	0	25	104	0	81	17007
2026-01-06 00:10:27.68	22.89	2.67	-58.0	-70.8	3.8	1.49e+00	0	24	104	0	81	16456
2026-01-06 00:10:28.68	22.90	2.73	-58.0	-70.7	3.8	1.49e+00	0	25	104	0	81	16160
2026-01-06 00:10:29.68	22.92	2.80	-57.9	-70.3	3.9	1.49e+00	0	25	104	0	81	15559
2026-01-06 00:10:30.68	22.94	2.86	-57.9	-70.2	3.8	1.49e+00	0	25	104	0	81	15293
2026-01-06 00:10:31.68	22.96	2.93	-57.9	-69.9	3.8	1.49e+00	0	25	104	0	81	14853
2026-01-06 00:10:32.67	22.98	2.99	-57.9	-69.7	3.9	1.48e+00	0	25	104	0	81	14471
2026-01-06 00:10:33.67	23.00	3.06	-57.9	-69.6	3.9	1.49e+00	0	25	104	0	81	14280
2026-01-06 00:10:34.66	23.01	3.13	-57.8	-69.2	3.9	1.48e+00	0	25	104	0	81	13581
2026-01-06 00:10:35.65	23.03	3.19	-57.9	-69.2	4.0	1.48e+00	0	25	104	0	81	13586
2026-01-06 00:10:36.64	23.05	3.26	-57.8	-69.1	3.9	1.47e+00	0	25	104	0	81	13522
2026-01-06 00:10:37.64	23.07	3.32	-57.8	-68.6	4.1	1.48e+00	0	25	104	0	81	12756
2026-01-06 00:10:38.64	23.09	3.39	-57.8	-68.4	3.9	1.47e+00	0	25	104	0	81	12506
2026-01-06 00:10:39.64	23.11	3.45	-57.7	-67.2	4.5	1.39e+00	1	25	104	0	81	10813
2026-01-06 00:10:40.64	23.13	3.52	-57.5	-66.0	5.0	9.17e-01	0	25	0	0	81	9475
2026-01-06 00:10:41.63	23.14	3.59	-57.3	-64.9	5.7	4.02e-01	0	25	0	3145728	81	8315
2026-01-06 00:10:42.63	23.16	3.65	-57.2	-64.3	6.1	3.28e-01	0	25	0	6291456	81	7805
2026-01-06 00:10:43.63	23.18	3.72	-57.0	-63.4	6.8	1.64e-01	0	25	0	9437184	80	7417
2026-01-06 00:10:44.63	23.20	3.79	-56.5	-61.8	8.2	5.27e-02	0	25	0	12582912	79	6500
2026-01-06 00:10:45.63	23.22	3.86	-56.1	-60.7	9.1	1.12e-02	0	25	0	15728640	78	6066
2026-01-06 00:10:46.63	23.24	3.92	-55.7	-59.7	9.9	2.95e-03	0	25	0	18874368	78	5461
2026-01-06 00:10:47.63	23.26	3.99	-55.4	-59.1	10.4	9.12e-04	0	25	0	20971520	77	5345
2026-01-06 00:10:48.63	23.28	4.06	-55.0	-58.4	10.9	2.10e-04	0	25	0	24117248	76	5228
2026-01-06 00:10:49.63	23.30	4.13	-54.8	-57.9	11.2	2.82e-04	0	25	0	27262976	76	4974
2026-01-06 00:10:50.63	23.32	4.20	-54.4	-57.4	11.5	3.05e-05	0	25	0	30408704	75	4956
2026-01-06 00:10:51.63	23.34	4.26	-54.4	-57.3	11.6	3.12e-05	0	25	0	33554432	75	4908
2026-01-06 00:10:52.64	23.36	4.33	-54.6	-57.7	11.3	4.42e-05	0	25	0	36700160	75	5120
2026-01-06 00:10:53.64	23.38	4.40	-54.4	-57.4	11.5	2.05e-05	0	25	0	39845888	75	4973
2026-01-06 00:10:54.64	23.40	4.47	-54.5	-57.6	11.3	4.57e-05	0	25	0	42991616	75	5098
2026-01-06 00:10:55.64	23.42	4.54	-54.7	-57.9	11.1	5.26e-05	0	25	0	46137344	75	5259
2026-01-06 00:10:56.64	23.44	4.61	-54.7	-57.8	11.2	8.23e-05	0	25	0	49283072	75	5213
2026-01-06 00:10:57.65	23.46	4.68	-55.1	-58.8	10.4	2.65e-04	0	25	0	52428800	75	5810
2026-01-06 00:10:58.65	23.48	4.75	-55.3	-59.0	10.2	6.51e-04	0	25	0	55574528	75	5967
2026-01-06 00:10:59.65	23.50	4.82	-55.7	-59.8	9.7	2.11e-03	0	25	0	58720256	76	6183
2026-01-06 00:11:00.64	23.52	4.89	-56.0	-60.4	9.2	3.84e-03	0	25	0	61865984	77	6271
2026-01-06 00:11:01.63	23.54	4.96	-56.2	-61.1	8.6	1.58e-02	0	25	0	65011712	77	6771
2026-01-06 00:11:02.63	23.56	5.03	-56.4	-61.5	8.3	2.37e-02	0	26	0	68157440	77	7041
2026-01-06 00:11:03.63	23.58	5.10	-55.7	-59.8	9.7	8.88e-03	0	25	0	71303168	77	5808
2026-01-06 00:11:04.62	23.60	5.17	-54.5	-57.5	11.5	3.51e-04	0	25	0	74448896	75	5020
2026-01-06 00:11:05.62	23.62	5.24	-57.0	-63.3	7.0	8.84e-04	0	25	0	77594624	79	7766
2026-01-06 00:11:06.63	23.64	5.31	-55.7	-59.6	9.8	3.28e-01	0	25	0	78643200	78	5397
2026-01-06 00:11:07.63	23.66	5.38	-55.8	-59.9	10.0	7.60e-06	0	25	0	81788928	76	6250
2026-01-06 00:11:08.63	23.68	5.46	-54.4	-57.2	11.6	5.06e-01	0	26	104	82837504	75	4840
2026-01-06 00:11:09.63	23.70	5.53	-53.0	-55.2	12.9	0.00e+00	0	26	0	84934656	72	4581
2026-01-06 00:11:10.62	23.73	5.60	-52.6	-54.7	13.1	0.00e+00	0	26	0	88080384	71	4575
2026-01-06 00:11:11.62	23.75	5.67	-52.6	-54.6	13.2	0.00e+00	0	26	0	91226112	71	4513
2026-01-06 00:11:12.62	23.77	5.74	-52.4	-54.4	13.3	0.00e+00	0	26	0	94371840	71	4414
2026-01-06 00:11:13.62	23.79	5.82	-52.6	-54.6	13.2	0.00e+00	0	25	0	97517568	71	4538
2026-01-06 00:11:14.62	23.81	5.89	-52.5	-54.4	13.3	0.00e+00	0	26	0	100663296	71	4431
2026-01-06 00:11:15.61	23.83	5.96	-52.1	-54.0	13.5	0.00e+00	0	26	0	103809024	70	4475
2026-01-06 00:11:16.61	23.85	6.03	-51.8	-53.6	13.7	0.00e+00	0	26	0	106954752	70	4288
2026-01-06 00:11:17.62	23.88	6.11	-51.8	-53.6	13.7	0.00e+00	0	26	0	110100480	70	4252
2026-01-06 00:11:18.61	23.90	6.18	-51.9	-53.7	13.7	0.00e+00	0	26	0	113246208	70	4313
2026-01-06 00:11:19.60	23.92	6.25	-51.8	-53.5	13.8	0.00e+00	0	26	0	116391936	70	4235
2026-01-06 00:11:20.59	23.94	6.33	-51.7	-53.4	13.7	0.00e+00	0	26	0	119537664	69	4430
2026-01-06 00:11:21.59	23.96	6.40	-51.6	-53.3	13.8	0.00e+00	0	26	0	122683392	69	4375
2026-01-06 00:11:22.58	23.98	6.48	-51.5	-53.2	13.8	0.00e+00	0	26	0	125829120	69	4338
2026-01-06 00:11:23.57	24.01	6.55	-51.7	-53.4	13.7	0.00e+00	0	26	0	128974848	69	4434
2026-01-06 00:11:24.58	24.03	6.62	-51.6	-53.4	13.8	0.00e+00	0	26	0	132120576	69	4408
2026-01-06 00:11:25.57	24.05	6.70	-51.8	-53.6	13.6	0.00e+00	0	26	0	135266304	69	4525
2026-01-06 00:11:26.56	24.07	6.77	-51.8	-53.6	13.7	0.00e+00	0	26	0	138412032	69	4516
2026-01-06 00:11:27.57	24.10	6.85	-51.7	-53.4	13.7	0.00e+00	0	25	0	141557760	69	4423
2026-01-06 00:11:28.56	24.12	6.92	-51.7	-53.4	13.7	0.00e+00	0	26	0	144703488	69	4434
2026-01-06 00:11:29.56	24.14	7.00	-51.6	-53.3	13.8	0.00e+00	0	26	0	147849216	69	4353
2026-01-06 00:11:30.56	24.16	7.08	-51.4	-53.1	13.9	0.00e+00	0	26	0	150994944	69	4268
2026-01-06 00:11:31.56	24.19	7.15	-51.3	-52.9	14.0	0.00e+00	0	26	0	154140672	69	4175
2026-01-06 00:11:32.56	24.21	7.23	-51.5	-53.2	13.9	0.00e+00	0	26	0	157286400	69	4305
2026-01-06 00:11:33.56	24.23	7.31	-51.6	-53.3	13.8	0.00e+00	0	26	0	160432128	69	4361
2026-01-06 00:11:34.55	24.26	7.38	-51.5	-53.1	13.9	0.00e+00	0	26	0	163577856	69	4280
2026-01-06 00:11:35.54	24.28	7.46	-51.4	-53.1	13.9	0.00e+00	0	26	0	166723584	69	4267
2026-01-06 00:11:36.54	24.30	7.54	-51.4	-53.1	14.0	0.00e+00	0	26	0	169869312	69	4255
2026-01-06 00:11:37.53	24.33	7.61	-51.5	-53.2	13.9	0.00e+00	0	26	0	171966464	69	4313
2026-01-06 00:11:38.53	24.35	7.69	-51.4	-53.1	14.0	0.00e+00	0	26	0	175112192	69	4250
2026-01-06 00:11:39.53	24.37	7.77	-51.2	-52.9	14.1	0.00e+00	0	26	0	178257920	69	4158
2026-01-06 00:11:40.52	24.40	7.85	-51.1	-52.7	14.0	0.00e+00	0	26	0	181403648	68	4339
2026-01-06 00:11:41.52	24.42	7.93	-51.1	-52.7	14.0	0.00e+00	0	26	0	184549376	68	4339
2026-01-06 00:11:42.53	24.45	8.01	-51.2	-52.9	14.0	0.00e+00	0	26	0	187695104	68	4394
2026-01-06 00:11:43.53	24.47	8.08	-51.2	-52.8	14.0	0.00e+00	0	26	0	190840832	68	4346
2026-01-06 00:11:44.52	24.49	8.16	-51.2	-52.9	13.9	0.00e+00	0	26	0	193986560	68	4403
2026-01-06 00:11:45.52	24.52	8.24	-51.2	-52.8	14.0	0.00e+00	0	26	0	197132288	68	4350
2026-01-06 00:11:46.52	24.54	8.32	-51.2	-52.8	14.0	0.00e+00	0	26	0	200278016	68	4359
2026-01-06 00:11:47.51	24.57	8.40	-51.3	-52.9	14.0	0.00e+00	0	26	0	203423744	68	4429
2026-01-06 00:11:48.50	24.59	8.48	-51.2	-52.8	14.0	0.00e+00	0	26	0	206569472	68	4347
2026-01-06 00:11:49.50	24.62	8.56	-51.0	-52.6	14.1	0.00e+00	0	26	0	209715200	68	4249
2026-01-06 00:11:50.49	24.64	8.64	-51.0	-52.5	14.1	0.00e+00	0	26	0	212860928	68	4220
2026-01-06 00:11:51.48	24.67	8.72	-51.0	-52.6	14.1	0.00e+00	0	26	0	216006656	68	4254
2026-01-06 00:11:52.48	24.69	8.80	-51.0	-52.5	14.1	0.00e+00	0	26	0	219152384	68	4230
2026-01-06 00:11:53.48	24.72	8.89	-50.9	-52.5	14.2	0.00e+00	0	26	0	222298112	68	4205
2026-01-06 00:11:54.48	24.74	8.97	-50.9	-52.4	14.2	0.00e+00	0	26	0	225443840	68	4180
2026-01-06 00:11:55.48	24.77	9.05	-51.0	-52.5	14.2	0.00e+00	0	26	0	228589568	68	4229
2026-01-06 00:11:56.48	24.79	9.13	-50.9	-52.5	14.2	0.00e+00	0	26	0	231735296	68	4207
2026-01-06 00:11:57.48	24.82	9.22	-50.8	-52.3	14.3	0.00e+00	0	26	0	234881024	68	4129
2026-01-06 00:11:58.48	24.84	9.30	-50.8	-52.3	14.3	0.00e+00	0	26	0	238026752	68	4102
2026-01-06 00:11:59.48	24.87	9.38	-50.9	-52.4	14.2	0.00e+00	0	26	0	241172480	68	4166
2026-01-06 00:12:00.48	24.90	9.47	-50.7	-52.1	14.4	0.00e+00	0	26	0	244318208	68	4051
2026-01-06 00:12:01.48	24.92	9.55	-50.6	-52.0	14.2	0.00e+00	0	26	0	247463936	67	4238
2026-01-06 00:12:02.48	24.95	9.63	-50.3	-51.8	14.4	0.00e+00	0	26	0	250609664	67	4111
2026-01-06 00:12:03.48	24.98	9.72	-50.6	-52.1	14.2	0.00e+00	0	26	0	253755392	67	4251
2026-01-06 00:12:04.48	25.00	9.80	-50.5	-51.9	14.3	0.00e+00	0	26	0	256901120	67	4187
2026-01-06 00:12:05.48	25.03	9.89	-50.5	-52.0	14.3	0.00e+00	0	26	0	260046848	67	4199
2026-01-06 00:12:06.48	25.06	9.97	-50.5	-51.9	14.3	0.00e+00	0	26	0	263192576	67	4186
2026-01-06 00:12:07.48	25.08	10.06	-50.5	-51.9	14.3	0.00e+00	0	26	0	266338304	67	4193
2026-01-06 00:12:08.47	25.11	10.14	-50.2	-51.7	14.4	0.00e+00	0	26	0	269484032	67	4063
2026-01-06 00:12:09.47	25.14	10.23	-50.4	-51.8	14.4	0.00e+00	0	26	0	272629760	67	4139
2026-01-06 00:12:10.47	25.17	10.32	-50.3	-51.7	14.4	0.00e+00	0	26	0	275775488	67	4078
2026-01-06 00:12:11.46	25.19	10.40	-50.4	-51.8	14.4	0.00e+00	0	26	0	278921216	67	4135
2026-01-06 00:12:12.47	25.22	10.49	-50.2	-51.6	14.5	0.00e+00	0	26	0	282066944	67	4036
2026-01-06 00:12:13.47	25.25	10.58	-50.2	-51.6	14.3	0.00e+00	0	26	0	285212672	66	4259
2026-01-06 00:12:14.46	25.28	10.66	-50.1	-51.6	14.4	0.00e+00	0	26	0	288358400	66	4244
2026-01-06 00:12:15.46	25.30	10.75	-50.0	-51.4	14.4	0.00e+00	0	26	0	291504128	66	4190
2026-01-06 00:12:16.46	25.33	10.84	-50.2	-51.6	14.3	0.00e+00	0	26	0	294649856	66	4280
2026-01-06 00:12:17.46	25.36	10.93	-50.1	-51.5	14.4	0.00e+00	0	26	0	297795584	66	4215
2026-01-06 00:12:18.46	25.39	11.02	-50.1	-51.5	14.4	0.00e+00	0	26	0	299892736	66	4229
2026-01-06 00:12:19.46	25.42	11.11	-49.9	-51.3	14.5	0.00e+00	0	26	0	303038464	66	4122
2026-01-06 00:12:20.45	25.45	11.20	-50.0	-51.4	14.4	0.00e+00	0	26	0	306184192	66	4182
2026-01-06 00:12:21.45	25.48	11.28	-49.9	-51.3	14.5	0.00e+00	0	26	0	309329920	66	4107
2026-01-06 00:12:22.45	25.50	11.38	-50.0	-51.4	14.5	0.00e+00	0	26	0	312475648	66	4156
2026-01-06 00:12:23.45	25.53	11.47	-49.9	-51.2	14.5	0.00e+00	0	26	0	315621376	66	4087
2026-01-06 00:12:24.45	25.56	11.56	-49.9	-51.3	14.5	0.00e+00	0	26	0	318767104	66	4122
2026-01-06 00:12:25.45	25.59	11.65	-49.8	-51.2	14.6	0.00e+00	0	26	0	321912832	66	4060
2026-01-06 00:12:26.44	25.62	11.74	-49.7	-51.0	14.6	0.00e+00	0	26	0	325058560	66	3994
2026-01-06 00:12:27.44	25.65	11.83	-49.7	-51.1	14.6	0.00e+00	0	26	0	328204288	66	4012
2026-01-06 00:12:28.44	25.68	11.92	-49.8	-51.2	14.6	0.00e+00	0	26	0	331350016	66	4061
2026-01-06 00:12:29.44	25.71	12.01	-49.8	-51.2	14.5	0.00e+00	0	26	0	334495744	66	4077
2026-01-06 00:12:30.44	25.74	12.11	-49.7	-51.0	14.6	0.00e+00	0	26	0	337641472	66	3988
2026-01-06 00:12:31.43	25.77	12.20	-49.7	-51.0	14.5	0.00e+00	0	26	0	340787200	65	4220
2026-01-06 00:12:32.43	25.80	12.29	-49.5	-50.9	14.6	0.00e+00	0	26	0	343932928	65	4152
2026-01-06 00:12:33.43	25.83	12.39	-49.6	-51.0	14.5	0.00e+00	0	26	0	347078656	65	4203
2026-01-06 00:12:34.43	25.87	12.48	-49.5	-50.8	14.6	0.00e+00	0	26	0	350224384	65	4140
2026-01-06 00:12:35.43	25.90	12.58	-49.6	-51.0	14.5	0.00e+00	0	26	0	353370112	65	4198
2026-01-06 00:12:36.42	25.93	12.67	-49.6	-51.0	14.5	0.00e+00	0	26	0	356515840	65	4197
2026-01-06 00:12:37.42	25.96	12.77	-49.7	-51.1	14.5	0.00e+00	0	26	0	359661568	65	4258
2026-01-06 00:12:38.42	25.99	12.86	-49.6	-51.0	14.5	0.00e+00	0	26	0	362807296	65	4200
2026-01-06 00:12:39.41	26.02	12.96	-49.6	-50.9	14.6	0.00e+00	0	26	0	365953024	65	4169
2026-01-06 00:12:40.41	26.05	13.05	-49.7	-51.0	14.5	0.00e+00	0	26	0	369098752	65	4228
2026-01-06 00:12:41.41	26.09	13.15	-49.5	-50.8	14.6	0.00e+00	0	26	0	372244480	65	4142
2026-01-06 00:12:42.41	26.12	13.25	-49.5	-50.9	14.6	0.00e+00	0	26	0	375390208	65	4154
2026-01-06 00:12:43.41	26.15	13.34	-49.6	-51.0	14.5	0.00e+00	0	26	0	378535936	65	4208
2026-01-06 00:12:44.41	26.18	13.44	-49.6	-50.9	14.5	0.00e+00	0	26	0	381681664	65	4172
2026-01-06 00:12:45.40	26.22	13.54	-49.6	-50.9	14.6	0.00e+00	0	26	0	384827392	65	4171
2026-01-06 00:12:46.40	26.25	13.64	-49.6	-50.9	14.5	0.00e+00	0	26	0	387973120	65	4174
2026-01-06 00:12:47.39	26.28	13.74	-49.5	-50.8	14.6	0.00e+00	0	26	0	391118848	65	4136
2026-01-06 00:12:48.39	26.32	13.84	-49.5	-50.9	14.5	0.00e+00	0	26	0	394264576	65	4159
2026-01-06 00:12:49.39	26.35	13.94	-49.6	-50.9	14.6	0.00e+00	0	26	0	397410304	65	4175
2026-01-06 00:12:50.38	26.38	14.04	-49.6	-50.9	14.5	0.00e+00	0	26	0	400556032	65	4187
2026-01-06 00:12:51.38	26.42	14.14	-49.5	-50.8	14.6	0.00e+00	0	26	0	403701760	65	4106
2026-01-06 00:12:52.38	26.45	14.24	-49.4	-50.7	14.6	0.00e+00	0	26	0	406847488	65	4077
2026-01-06 00:12:53.38	26.49	14.34	-49.5	-50.8	14.6	0.00e+00	0	26	0	409993216	65	4103
2026-01-06 00:12:54.38	26.52	14.44	-49.5	-50.8	14.6	0.00e+00	0	26	0	412090368	65	4118
2026-01-06 00:12:55.39	26.56	14.55	-49.6	-50.9	14.6	0.00e+00	0	26	0	415236096	65	4174
2026-01-06 00:12:56.39	26.59	14.65	-49.6	-50.9	14.6	0.00e+00	0	26	0	419430400	65	4164
2026-01-06 00:12:57.38	26.63	14.75	-49.5	-50.8	14.6	0.00e+00	0	26	0	421527552	65	4136
2026-01-06 00:12:58.39	26.66	14.86	-49.5	-50.9	14.6	0.00e+00	0	26	0	424673280	65	4151
2026-01-06 00:12:59.39	26.70	14.96	-49.5	-50.9	14.6	0.00e+00	0	26	0	428867584	65	4148
2026-01-06 00:13:00.39	26.74	15.06	-49.5	-50.8	14.6	0.00e+00	0	26	0	432013312	65	4142
2026-01-06 00:13:01.38	26.77	15.17	-49.7	-51.0	14.5	0.00e+00	0	26	0	434110464	65	4214
2026-01-06 00:13:02.39	26.81	15.27	-49.7	-51.0	14.5	0.00e+00	0	26	0	437256192	65	4216
2026-01-06 00:13:03.38	26.85	15.38	-49.8	-51.1	14.5	0.00e+00	0	26	0	440401920	65	4272
2026-01-06 00:13:04.38	26.88	15.49	-49.7	-51.1	14.5	0.00e+00	0	26	0	443547648	65	4253
2026-01-06 00:13:05.39	26.92	15.59	-49.6	-51.0	14.5	0.00e+00	0	26	0	446693376	65	4194
2026-01-06 00:13:06.38	26.96	15.70	-49.7	-51.1	14.5	0.00e+00	0	26	0	449839104	65	4243
2026-01-06 00:13:07.39	27.00	15.81	-49.8	-51.1	14.5	0.00e+00	0	26	0	452984832	65	4273
2026-01-06 00:13:08.39	27.03	15.92	-49.7	-51.0	14.5	0.00e+00	0	26	0	456130560	65	4233
2026-01-06 00:13:09.39	27.07	16.03	-49.7	-51.1	14.5	0.00e+00	0	26	0	459276288	65	4254
2026-01-06 00:13:10.39	27.11	16.14	-49.8	-51.2	14.5	0.00e+00	0	26	0	462422016	65	4301
2026-01-06 00:13:11.39	27.15	16.25	-49.8	-51.2	14.4	0.00e+00	0	26	0	465567744	65	4315
2026-01-06 00:13:12.39	27.19	16.36	-49.8	-51.2	14.5	0.00e+00	0	26	0	468713472	65	4300
2026-01-06 00:13:13.39	27.23	16.47	-49.8	-51.1	14.5	0.00e+00	0	26	0	471859200	65	4276
2026-01-06 00:13:14.39	27.27	16.58	-49.6	-50.9	14.5	0.00e+00	0	26	0	475004928	65	4193
2026-01-06 00:13:15.39	27.31	16.69	-49.7	-51.0	14.5	0.00e+00	0	26	0	478150656	65	4201
2026-01-06 00:13:16.39	27.35	16.80	-49.6	-51.0	14.5	0.00e+00	0	26	0	481296384	65	4200
2026-01-06 00:13:17.39	27.39	16.91	-49.5	-50.8	14.6	0.00e+00	0	26	0	484442112	65	4126
2026-01-06 00:13:18.39	27.43	17.03	-49.6	-50.9	14.6	0.00e+00	0	26	0	487587840	65	4152
2026-01-06 00:13:19.38	27.47	17.14	-49.6	-50.9	14.6	0.00e+00	0	26	0	490733568	65	4188
2026-01-06 00:13:20.38	27.51	17.25	-49.6	-50.9	14.5	0.00e+00	0	26	0	493879296	65	4193
2026-01-06 00:13:21.38	27.55	17.37	-49.6	-50.9	14.6	0.00e+00	0	26	0	497025024	65	4169
2026-01-06 00:13:22.39	27.59	17.49	-49.6	-50.9	14.6	0.00e+00	0	26	0	500170752	65	4190
2026-01-06 00:13:23.38	27.63	17.60	-49.6	-50.9	14.6	0.00e+00	0	26	0	503316480	65	4146
2026-01-06 00:13:24.38	27.67	17.72	-49.6	-50.9	14.5	0.00e+00	0	26	0	506462208	65	4178
2026-01-06 00:13:25.38	27.72	17.83	-49.4	-50.7	14.7	0.00e+00	0	26	0	509607936	65	4074
2026-01-06 00:13:26.38	27.76	17.95	-49.4	-50.7	14.7	0.00e+00	0	26	0	512753664	65	4074
2026-01-06 00:13:27.38	27.80	18.07	-49.4	-50.7	14.6	0.00e+00	0	26	0	515899392	65	4094
2026-01-06 00:13:28.38	27.85	18.19	-49.3	-50.6	14.7	0.00e+00	0	26	0	519045120	65	4030
2026-01-06 00:13:29.38	27.89	18.31	-49.3	-50.6	14.7	0.00e+00	0	26	0	522190848	65	4019
2026-01-06 00:13:30.37	27.93	18.42	-49.3	-50.6	14.7	0.00e+00	0	26	0	525336576	65	4024
2026-01-06 00:13:31.37	27.98	18.54	-49.3	-50.6	14.7	0.00e+00	0	26	0	528482304	65	4027
2026-01-06 00:13:32.37	28.02	18.67	-49.3	-50.6	14.7	0.00e+00	0	26	0	531628032	65	4029
2026-01-06 00:13:33.37	28.07	18.79	-49.3	-50.6	14.7	0.00e+00	0	26	0	534773760	65	4016
2026-01-06 00:13:34.37	28.11	18.91	-49.3	-50.6	14.7	0.00e+00	0	26	0	537919488	65	4030
2026-01-06 00:13:35.37	28.16	19.03	-49.2	-50.5	14.8	0.00e+00	0	26	0	541065216	65	3964
2026-01-06 00:13:36.37	28.20	19.15	-49.2	-50.5	14.8	0.00e+00	0	26	0	544210944	65	3967
2026-01-06 00:13:37.36	28.25	19.28	-49.0	-50.3	14.7	0.00e+00	0	26	0	547356672	64	4105
2026-01-06 00:13:38.36	28.30	19.40	-49.1	-50.3	14.7	0.00e+00	0	26	0	550502400	64	4142
2026-01-06 00:13:39.37	28.34	19.53	-49.1	-50.4	14.7	0.00e+00	0	26	0	553648128	64	4150
2026-01-06 00:13:40.36	28.39	19.65	-49.1	-50.3	14.7	0.00e+00	0	26	0	556793856	64	4140
2026-01-06 00:13:41.36	28.44	19.78	-49.1	-50.3	14.7	0.00e+00	0	26	0	559939584	64	4126
2026-01-06 00:13:42.35	28.49	19.90	-49.0	-50.3	14.7	0.00e+00	0	26	0	563085312	64	4121
2026-01-06 00:13:43.36	28.53	20.03	-49.0	-50.3	14.7	0.00e+00	0	26	0	566231040	64	4118
2026-01-06 00:13:44.35	28.58	20.16	-49.0	-50.3	14.7	0.00e+00	0	26	0	569376768	64	4103
2026-01-06 00:13:45.35	28.63	20.29	-49.0	-50.2	14.7	0.00e+00	0	26	0	571473920	64	4090
2026-01-06 00:13:46.35	28.68	20.42	-49.1	-50.3	14.7	0.00e+00	0	26	0	574619648	64	4134
2026-01-06 00:13:47.35	28.73	20.55	-48.9	-50.2	14.8	0.00e+00	0	26	0	577765376	64	4064
2026-01-06 00:13:48.34	28.78	20.68	-49.0	-50.3	14.7	0.00e+00	0	26	0	580911104	64	4112
2026-01-06 00:13:49.34	28.83	20.81	-49.0	-50.3	14.7	0.00e+00	0	26	0	584056832	64	4110
2026-01-06 00:13:50.34	28.88	20.94	-49.0	-50.2	14.7	0.00e+00	0	26	0	587202560	64	4071
2026-01-06 00:13:51.33	28.93	21.07	-49.0	-50.2	14.8	0.00e+00	0	26	0	590348288	64	4072
2026-01-06 00:13:52.33	28.98	21.21	-49.0	-50.2	14.7	0.00e+00	0	26	0	593494016	64	4094
2026-01-06 00:13:53.33	29.04	21.34	-48.9	-50.1	14.8	0.00e+00	0	26	0	596639744	64	4025
2026-01-06 00:13:54.33	29.09	21.47	-48.9	-50.2	14.8	0.00e+00	0	26	0	599785472	64	4055
2026-01-06 00:13:55.33	29.14	21.61	-48.8	-50.0	14.8	0.00e+00	0	26	0	602931200	64	3998
2026-01-06 00:13:56.32	29.20	21.75	-48.8	-50.0	14.8	0.00e+00	0	26	0	606076928	64	3987
2026-01-06 00:13:57.32	29.25	21.88	-48.9	-50.1	14.8	0.00e+00	0	26	0	609222656	64	4019
2026-01-06 00:13:58.32	29.30	22.02	-48.8	-50.0	14.8	0.00e+00	0	26	0	612368384	64	3970
2026-01-06 00:13:59.32	29.36	22.16	-48.6	-49.8	14.8	0.00e+00	0	26	0	615514112	63	4113
2026-01-06 00:14:00.32	29.41	22.30	-48.7	-49.9	14.7	0.00e+00	0	26	0	618659840	63	4170
2026-01-06 00:14:01.31	29.47	22.44	-48.5	-49.7	14.8	0.00e+00	0	26	0	621805568	63	4077
2026-01-06 00:14:02.31	29.53	22.58	-48.5	-49.7	14.8	0.00e+00	0	26	0	624951296	63	4065
2026-01-06 00:14:03.31	29.58	22.72	-48.4	-49.6	14.9	0.00e+00	0	26	0	628097024	63	4031
2026-01-06 00:14:04.31	29.64	22.86	-48.4	-49.6	14.9	0.00e+00	0	26	0	631242752	63	4016
2026-01-06 00:14:05.32	29.70	23.00	-48.4	-49.6	14.9	0.00e+00	0	26	0	634388480	63	4026
2026-01-06 00:14:06.31	29.75	23.15	-48.3	-49.5	14.9	0.00e+00	0	26	0	637534208	63	3976
2026-01-06 00:14:07.30	29.81	23.29	-48.1	-49.3	14.8	0.00e+00	0	26	0	640679936	62	4104
2026-01-06 00:14:08.30	29.87	23.43	-48.0	-49.2	14.9	0.00e+00	0	26	0	643825664	62	4070
2026-01-06 00:14:09.30	29.93	23.58	-48.0	-49.2	14.9	0.00e+00	0	26	0	646971392	62	4063
2026-01-06 00:14:10.30	29.99	23.73	-48.0	-49.2	14.9	0.00e+00	0	26	0	650117120	62	4056
2026-01-06 00:14:11.30	30.05	23.87	-47.9	-49.1	14.9	0.00e+00	0	26	0	653262848	62	4020
2026-01-06 00:14:12.30	30.11	24.02	-48.0	-49.1	14.9	0.00e+00	0	26	0	656408576	62	4040
2026-01-06 00:14:13.30	30.18	24.17	-47.9	-49.1	14.9	0.00e+00	0	27	0	659554304	62	4014
2026-01-06 00:14:14.31	30.24	24.32	-48.0	-49.1	14.9	0.00e+00	0	26	0	662700032	62	4047
2026-01-06 00:14:15.31	30.30	24.47	-48.0	-49.2	14.9	0.00e+00	0	26	0	665845760	62	4058
2026-01-06 00:14:16.30	30.36	24.63	-48.1	-49.3	14.9	0.00e+00	0	26	0	668991488	62	4101
2026-01-06 00:14:17.30	30.43	24.78	-48.3	-49.4	14.8	0.00e+00	0	26	0	672137216	62	4174
2026-01-06 00:14:18.30	30.49	24.93	-48.4	-49.5	14.8	0.00e+00	0	26	0	675282944	62	4233
2026-01-06 00:14:19.31	30.56	25.09	-48.5	-49.7	14.7	0.00e+00	0	26	0	678428672	62	4310
2026-01-06 00:14:20.30	30.62	25.24	-48.5	-49.7	14.7	0.00e+00	0	27	0	681574400	62	4334
2026-01-06 00:14:21.31	30.69	25.40	-48.7	-49.9	14.7	0.00e+00	0	26	0	684720128	62	4416
2026-01-06 00:14:22.32	30.76	25.56	-48.6	-49.9	14.7	0.00e+00	0	26	0	687865856	62	4394
2026-01-06 00:14:23.32	30.82	25.71	-48.7	-49.9	14.7	0.00e+00	0	26	0	691011584	62	4432
2026-01-06 00:14:24.33	30.89	25.88	-48.9	-50.1	14.6	0.00e+00	0	26	0	694157312	62	4511
2026-01-06 00:14:25.33	30.96	26.03	-48.9	-50.1	14.6	0.00e+00	0	26	0	697303040	62	4543
2026-01-06 00:14:26.33	31.03	26.20	-49.0	-50.2	14.7	0.00e+00	0	26	0	700448768	63	4307
2026-01-06 00:14:27.33	31.10	26.36	-49.0	-50.3	14.6	0.00e+00	0	27	0	703594496	63	4346
2026-01-06 00:14:28.33	31.17	26.52	-49.0	-50.2	14.7	0.00e+00	0	27	0	705691648	63	4337
2026-01-06 00:14:29.32	31.24	26.68	-49.1	-50.3	14.6	0.00e+00	0	26	0	708837376	63	4369
2026-01-06 00:14:30.33	31.32	26.85	-49.1	-50.3	14.6	0.00e+00	0	26	0	711983104	63	4382
2026-01-06 00:14:31.33	31.39	27.01	-49.1	-50.4	14.6	0.00e+00	0	27	0	715128832	63	4402
2026-01-06 00:14:32.32	31.46	27.18	-49.2	-50.4	14.6	0.00e+00	0	27	0	718274560	63	4435
2026-01-06 00:14:33.33	31.54	27.35	-49.3	-50.5	14.6	0.00e+00	0	27	0	721420288	63	4484
2026-01-06 00:14:34.32	31.61	27.51	-49.3	-50.6	14.5	0.00e+00	0	26	0	724566016	63	4513
2026-01-06 00:14:35.32	31.69	27.68	-49.3	-50.6	14.5	0.00e+00	0	26	0	727711744	63	4498
2026-01-06 00:14:36.32	31.76	27.85	-49.4	-50.6	14.6	0.00e+00	0	26	0	730857472	64	4282
2026-01-06 00:14:37.32	31.84	28.02	-49.5	-50.8	14.6	0.00e+00	0	26	0	734003200	64	4345
2026-01-06 00:14:38.31	31.92	28.19	-49.6	-50.9	14.5	0.00e+00	0	26	0	737148928	64	4422
2026-01-06 00:14:39.31	32.00	28.37	-49.7	-51.0	14.5	0.00e+00	0	26	0	740294656	64	4465
2026-01-06 00:14:40.31	32.08	28.54	-49.9	-51.2	14.4	0.00e+00	0	26	0	743440384	64	4559
2026-01-06 00:14:41.31	32.16	28.72	-49.9	-51.3	14.5	0.00e+00	0	27	0	746586112	65	4349
2026-01-06 00:14:42.30	32.24	28.89	-50.0	-51.3	14.4	0.00e+00	0	26	0	749731840	65	4390
2026-01-06 00:14:43.30	32.32	29.07	-50.0	-51.3	14.4	0.00e+00	0	26	0	752877568	65	4384
2026-01-06 00:14:44.30	32.40	29.25	-50.0	-51.4	14.4	0.00e+00	0	26	0	756023296	65	4401
2026-01-06 00:14:45.29	32.49	29.43	-49.9	-51.3	14.5	0.00e+00	0	26	0	759169024	65	4347
2026-01-06 00:14:46.28	32.57	29.60	-49.8	-51.1	14.5	0.00e+00	0	26	0	762314752	65	4280
2026-01-06 00:14:47.28	32.66	29.79	-49.8	-51.1	14.5	0.00e+00	0	27	0	765460480	65	4269
2026-01-06 00:14:48.29	32.75	29.97	-49.7	-51.0	14.6	0.00e+00	0	27	0	768606208	65	4207
2026-01-06 00:14:49.28	32.83	30.15	-49.5	-50.8	14.7	0.00e+00	0	26	0	771751936	65	4113
2026-01-06 00:14:50.27	32.92	30.34	-49.6	-50.9	14.6	0.00e+00	0	27	0	774897664	65	4154
2026-01-06 00:14:51.27	33.01	30.52	-49.4	-50.7	14.7	0.00e+00	0	26	0	778043392	65	4057
2026-01-06 00:14:52.27	33.10	30.71	-49.2	-50.4	14.8	0.00e+00	0	27	0	781189120	65	3955
2026-01-06 00:14:53.27	33.19	30.90	-49.3	-50.5	14.8	0.00e+00	0	27	0	784334848	65	3991
2026-01-06 00:14:54.27	33.28	31.09	-49.1	-50.4	14.7	0.00e+00	0	26	0	787480576	64	4168
2026-01-06 00:14:55.27	33.38	31.28	-49.2	-50.5	14.7	0.00e+00	0	27	0	790626304	64	4206
2026-01-06 00:14:56.26	33.47	31.47	-49.2	-50.5	14.7	0.00e+00	0	27	0	793772032	64	4217
2026-01-06 00:14:57.26	33.57	31.66	-49.2	-50.4	14.7	0.00e+00	0	26	0	796917760	64	4192
2026-01-06 00:14:58.26	33.66	31.86	-49.1	-50.4	14.7	0.00e+00	0	27	0	800063488	64	4159
2026-01-06 00:14:59.26	33.76	32.05	-49.2	-50.4	14.7	0.00e+00	0	27	0	803209216	64	4182
2026-01-06 00:15:00.25	33.86	32.25	-49.1	-50.3	14.7	0.00e+00	0	27	0	806354944	64	4130
2026-01-06 00:15:01.25	33.96	32.45	-49.2	-50.4	14.7	0.00e+00	0	27	0	809500672	64	4185
2026-01-06 00:15:02.25	34.06	32.64	-49.2	-50.5	14.7	0.00e+00	0	26	0	812646400	64	4199
2026-01-06 00:15:03.25	34.17	32.84	-49.4	-50.6	14.6	0.00e+00	0	27	0	815792128	64	4270
2026-01-06 00:15:04.25	34.27	33.05	-49.2	-50.5	14.7	0.00e+00	0	27	0	818937856	64	4208
2026-01-06 00:15:05.25	34.37	33.25	-49.3	-50.5	14.7	0.00e+00	0	27	0	822083584	64	4221
2026-01-06 00:15:06.25	34.48	33.45	-49.3	-50.5	14.7	0.00e+00	0	26	0	825229312	64	4237
2026-01-06 00:15:07.25	34.59	33.66	-49.3	-50.6	14.6	0.00e+00	0	27	0	828375040	64	4261
2026-01-06 00:15:08.25	34.70	33.87	-49.5	-50.7	14.6	0.00e+00	0	27	0	831520768	64	4334
2026-01-06 00:15:09.25	34.81	34.07	-49.7	-51.0	14.5	0.00e+00	0	27	0	834666496	64	4466
2026-01-06 00:15:10.25	34.92	34.28	-50.0	-51.3	14.5	0.00e+00	0	27	0	837812224	65	4352
2026-01-06 00:15:11.25	35.03	34.49	-50.1	-51.4	14.5	0.00e+00	0	26	0	839909376	65	4410
2026-01-06 00:15:12.25	35.15	34.71	-50.2	-51.6	14.4	0.00e+00	0	27	0	843055104	65	4502
2026-01-06 00:15:13.24	35.26	34.92	-50.3	-51.7	14.4	0.00e+00	0	27	0	846200832	65	4557
2026-01-06 00:15:14.25	35.38	35.13	-50.5	-51.9	14.4	0.00e+00	0	27	0	849346560	66	4396
2026-01-06 00:15:15.25	35.50	35.35	-50.5	-51.9	14.4	0.00e+00	0	27	0	852492288	66	4397
2026-01-06 00:15:16.26	35.62	35.57	-50.5	-51.9	14.4	0.00e+00	0	27	0	855638016	66	4415
2026-01-06 00:15:17.26	35.74	35.79	-50.6	-51.9	14.3	0.00e+00	0	27	0	858783744	66	4437
2026-01-06 00:15:18.26	35.87	36.01	-50.7	-52.1	14.3	0.00e+00	0	27	0	861929472	66	4500
2026-01-06 00:15:19.25	35.99	36.23	-50.7	-52.1	14.3	0.00e+00	0	27	0	865075200	66	4503
2026-01-06 00:15:20.24	36.12	36.45	-50.5	-51.9	14.3	0.00e+00	0	27	0	868220928	66	4409
2026-01-06 00:15:21.24	36.25	36.67	-50.5	-51.9	14.3	0.00e+00	0	27	0	871366656	66	4399
2026-01-06 00:15:22.25	36.38	36.90	-50.6	-52.0	14.3	0.00e+00	0	27	0	874512384	66	4445
2026-01-06 00:15:23.25	36.51	37.13	-50.6	-52.0	14.3	0.00e+00	0	27	0	877658112	66	4459
2026-01-06 00:15:24.24	36.64	37.36	-50.6	-51.9	14.4	0.00e+00	0	27	0	880803840	66	4431
2026-01-06 00:15:25.24	36.78	37.59	-50.8	-52.2	14.3	0.00e+00	0	27	0	883949568	66	4561
2026-01-06 00:15:26.25	36.92	37.82	-50.9	-52.3	14.2	0.00e+00	0	27	0	887095296	66	4629
2026-01-06 00:15:27.25	37.06	38.05	-50.9	-52.4	14.3	0.00e+00	0	27	0	890241024	67	4404
2026-01-06 00:15:28.25	37.20	38.29	-50.8	-52.3	14.3	0.00e+00	0	27	0	893386752	67	4345
2026-01-06 00:15:29.24	37.34	38.52	-51.0	-52.5	14.2	0.00e+00	0	27	0	896532480	67	4449
2026-01-06 00:15:30.24	37.49	38.76	-50.8	-52.2	14.3	0.00e+00	0	27	0	899678208	67	4329
2026-01-06 00:15:31.25	37.63	39.00	-50.9	-52.3	14.3	0.00e+00	0	27	0	902823936	67	4347
2026-01-06 00:15:32.24	37.78	39.24	-50.8	-52.2	14.3	0.00e+00	0	27	0	905969664	67	4327
2026-01-06 00:15:33.25	37.94	39.48	-50.9	-52.3	14.3	0.00e+00	0	27	0	909115392	67	4381
2026-01-06 00:15:34.25	38.09	39.72	-50.9	-52.3	14.2	0.00e+00	0	27	0	912261120	67	4391
2026-01-06 00:15:35.24	38.24	39.96	-51.0	-52.4	14.2	0.00e+00	0	27	0	915406848	67	4439
2026-01-06 00:15:36.23	38.40	40.21	-51.1	-52.5	14.2	0.00e+00	0	27	0	918552576	67	4476
2026-01-06 00:15:37.23	38.56	40.46	-51.2	-52.7	14.1	0.00e+00	0	27	0	921698304	67	4558
2026-01-06 00:15:38.23	38.73	40.70	-51.4	-52.9	14.0	0.00e+00	0	27	0	924844032	67	4656
2026-01-06 00:15:39.23	38.89	40.95	-51.8	-53.3	14.0	0.00e+00	0	27	0	927989760	68	4629
2026-01-06 00:15:40.24	39.06	41.21	-51.9	-53.5	13.9	0.00e+00	0	27	0	931135488	68	4717
2026-01-06 00:15:41.24	39.23	41.46	-52.1	-53.7	13.9	0.00e+00	0	27	0	934281216	69	4553
2026-01-06 00:15:42.23	39.40	41.72	-51.9	-53.5	14.0	0.00e+00	0	26	0	937426944	69	4470
2026-01-06 00:15:43.23	39.58	41.97	-51.9	-53.4	14.0	0.00e+00	0	27	0	940572672	69	4434
2026-01-06 00:15:44.22	39.76	42.23	-51.9	-53.4	14.0	0.00e+00	0	27	0	943718400	69	4412
2026-01-06 00:15:45.22	39.94	42.49	-51.9	-53.5	14.0	0.00e+00	0	26	0	946864128	69	4455
2026-01-06 00:15:46.22	40.13	42.75	-51.8	-53.3	14.1	0.00e+00	0	27	0	950009856	69	4385
2026-01-06 00:15:47.21	40.31	43.01	-52.0	-53.5	14.0	0.00e+00	0	26	0	953155584	69	4487
2026-01-06 00:15:48.20	40.50	43.27	-52.3	-53.9	13.8	0.00e+00	0	27	0	956301312	69	4702
2026-01-06 00:15:49.20	40.69	43.53	-52.3	-54.0	13.8	0.00e+00	0	27	0	959447040	69	4727
2026-01-06 00:15:50.21	40.89	43.80	-52.4	-54.0	13.9	0.00e+00	0	27	0	962592768	70	4486
2026-01-06 00:15:51.20	41.09	44.07	-52.5	-54.2	13.8	0.00e+00	0	27	0	965738496	70	4553
2026-01-06 00:15:52.19	41.29	44.34	-52.4	-54.1	13.8	0.00e+00	0	27	0	968884224	70	4505
2026-01-06 00:15:53.19	41.50	44.61	-52.4	-54.0	13.9	0.00e+00	0	27	0	972029952	70	4458
2026-01-06 00:15:54.20	41.71	44.88	-52.3	-53.9	13.9	0.00e+00	0	27	0	974127104	70	4427
2026-01-06 00:15:55.19	41.92	45.16	-52.0	-53.6	14.1	0.00e+00	0	27	0	977272832	70	4249
2026-01-06 00:15:56.19	42.14	45.43	-52.0	-53.6	14.1	0.00e+00	0	27	0	980418560	70	4267
2026-01-06 00:15:57.19	42.36	45.71	-51.9	-53.5	14.1	0.00e+00	0	27	0	983564288	70	4197
2026-01-06 00:15:58.19	42.59	45.99	-52.0	-53.5	14.1	0.00e+00	0	27	0	986710016	70	4222
2026-01-06 00:15:59.19	42.82	46.27	-51.6	-53.1	14.2	0.00e+00	0	27	0	989855744	69	4254
2026-01-06 00:16:00.19	43.05	46.55	-51.6	-53.1	14.2	0.00e+00	0	26	0	993001472	69	4246
2026-01-06 00:16:01.19	43.29	46.83	-51.6	-53.1	14.2	0.00e+00	0	27	0	996147200	69	4256
2026-01-06 00:16:02.19	43.53	47.12	-51.7	-53.2	14.2	0.00e+00	0	27	0	999292928	69	4307
2026-01-06 00:16:03.19	43.78	47.40	-51.6	-53.1	14.2	0.00e+00	0	27	0	1002438656	69	4255
2026-01-06 00:16:04.19	44.03	47.69	-51.6	-53.1	14.2	0.00e+00	0	27	0	1005584384	69	4260
2026-01-06 00:16:05.20	44.28	47.98	-51.5	-53.0	14.3	0.00e+00	0	27	0	1008730112	69	4204
2026-01-06 00:16:06.20	44.54	48.27	-51.5	-53.0	14.3	0.00e+00	0	27	0	1011875840	69	4212
2026-01-06 00:16:07.20	44.81	48.56	-51.1	-52.5	14.4	0.00e+00	0	27	0	1015021568	68	4211
2026-01-06 00:16:08.20	45.08	48.86	-50.9	-52.3	14.5	0.00e+00	0	27	0	1018167296	68	4129
2026-01-06 00:16:09.20	45.35	49.15	-51.0	-52.4	14.4	0.00e+00	0	27	0	1021313024	68	4191
2026-01-06 00:16:10.20	45.63	49.44	-51.2	-52.6	14.3	0.00e+00	0	27	0	1024458752	68	4281
2026-01-06 00:16:11.20	45.92	49.74	-51.3	-52.7	14.2	0.00e+00	0	27	0	1027604480	68	4318
2026-01-06 00:16:12.19	46.21	50.04	-51.1	-52.6	14.4	0.00e+00	0	27	0	1030750208	68	4248
2026-01-06 00:16:13.20	46.51	50.34	-51.5	-53.0	14.2	0.00e+00	0	27	0	1033895936	68	4467
2026-01-06 00:16:14.19	46.81	50.63	-51.7	-53.2	14.1	0.00e+00	0	27	0	1037041664	68	4583
2026-01-06 00:16:15.19	47.12	50.94	-51.8	-53.4	14.0	0.00e+00	0	27	0	1040187392	68	4671
2026-01-06 00:16:16.18	47.43	51.23	-51.6	-53.1	14.1	0.00e+00	0	27	0	1043333120	68	4508
2026-01-06 00:16:17.18	47.75	51.54	-51.2	-52.6	14.3	0.00e+00	0	27	0	1046478848	68	4291
2026-01-06 00:16:18.18	48.08	51.84	-51.1	-52.5	14.4	0.00e+00	0	27	0	1049624576	68	4198
2026-01-06 00:16:19.17	48.41	52.14	-50.7	-52.1	14.6	0.00e+00	0	27	0	1052770304	68	4025
2026-01-06 00:16:20.17	48.75	52.45	-50.8	-52.2	14.6	0.00e+00	0	26	0	1055916032	68	4076
2026-01-06 00:16:21.16	49.09	52.75	-50.9	-52.3	14.5	0.00e+00	0	27	0	1059061760	68	4129
2026-01-06 00:16:22.16	49.45	53.06	-50.8	-52.2	14.5	0.00e+00	0	27	0	1062207488	68	4082
2026-01-06 00:16:23.16	49.81	53.37	-50.9	-52.3	14.5	0.00e+00	0	27	0	1065353216	68	4129
2026-01-06 00:16:24.16	50.18	53.68	-51.0	-52.4	14.4	0.00e+00	0	27	0	1068498944	68	4173
2026-01-06 00:16:25.15	50.56	53.99	-51.0	-52.4	14.4	0.00e+00	0	27	0	1071644672	68	4169
2026-01-06 00:16:26.16	50.95	54.30	-50.9	-52.3	14.5	0.00e+00	0	27	0	1074790400	68	4123
2026-01-06 00:16:27.16	51.34	54.61	-50.3	-51.6	14.6	0.00e+00	0	27	0	1077936128	67	4031
2026-01-06 00:16:28.16	51.75	54.92	-49.8	-51.1	14.7	0.00e+00	0	26	0	1081081856	66	4034
2026-01-06 00:16:29.16	52.16	55.24	-49.9	-51.2	14.7	0.00e+00	0	27	0	1084227584	66	4058
2026-01-06 00:16:30.16	52.58	55.55	-49.8	-51.1	14.7	0.00e+00	0	27	0	1087373312	66	4036
2026-01-06 00:16:31.16	53.01	55.86	-50.2	-51.5	14.5	0.00e+00	0	27	0	1090519040	66	4219
2026-01-06 00:16:32.16	53.45	56.17	-50.4	-51.8	14.5	0.00e+00	0	27	0	1093664768	66	4348
2026-01-06 00:16:33.15	53.90	56.48	-50.4	-51.7	14.5	0.00e+00	0	27	0	1096810496	66	4332
2026-01-06 00:16:34.15	54.36	56.80	-50.2	-51.5	14.6	0.00e+00	0	27	0	1099956224	66	4209
2026-01-06 00:16:35.15	54.83	57.11	-49.9	-51.1	14.7	0.00e+00	0	27	0	1103101952	66	4042
2026-01-06 00:16:36.15	55.31	57.42	-49.4	-50.6	14.8	0.00e+00	0	27	0	1106247680	65	4038
2026-01-06 00:16:37.15	55.80	57.74	-49.1	-50.3	14.8	0.00e+00	0	27	0	1108344832	64	4121
2026-01-06 00:16:38.14	56.30	58.05	-48.7	-49.8	14.8	0.00e+00	0	27	0	1111490560	63	4140
2026-01-06 00:16:39.13	56.82	58.36	-48.5	-49.6	14.9	0.00e+00	0	27	0	1114636288	63	4015
2026-01-06 00:16:40.14	57.35	58.67	-48.6	-49.7	14.9	0.00e+00	0	27	0	1117782016	63	4072
2026-01-06 00:16:41.15	57.90	58.99	-49.0	-50.2	14.7	0.00e+00	0	27	0	1120927744	63	4304
2026-01-06 00:16:42.14	58.44	59.29	-49.1	-50.3	14.7	0.00e+00	0	27	0	1124073472	63	4372
2026-01-06 00:16:43.14	59.01	59.60	-49.0	-50.2	14.7	0.00e+00	0	27	0	1127219200	63	4302
2026-01-06 00:16:44.13	59.59	59.91	-48.8	-49.9	14.8	0.00e+00	0	26	0	1130364928	63	4177
2026-01-06 00:16:45.14	60.19	60.22	-48.6	-49.8	14.8	0.00e+00	0	27	0	1133510656	63	4103
2026-01-06 00:16:46.13	60.79	60.52	-48.5	-49.6	14.9	0.00e+00	0	27	0	1136656384	63	4032
2026-01-06 00:16:47.14	61.42	60.83	-48.3	-49.5	14.9	0.00e+00	0	27	0	1139802112	63	3959
2026-01-06 00:16:48.14	62.06	61.13	-48.4	-49.6	14.9	0.00e+00	0	27	0	1142947840	63	4018
2026-01-06 00:16:49.14	62.71	61.43	-48.5	-49.7	14.9	0.00e+00	0	27	0	1146093568	63	4057
2026-01-06 00:16:50.13	63.37	61.73	-48.5	-49.7	14.9	0.00e+00	0	27	0	1149239296	63	4058
2026-01-06 00:16:51.13	64.06	62.03	-48.7	-49.8	14.8	0.00e+00	0	27	0	1152385024	63	4142
2026-01-06 00:16:52.13	64.76	62.32	-48.8	-49.9	14.8	0.00e+00	0	27	0	1155530752	63	4189
2026-01-06 00:16:53.12	65.48	62.61	-48.7	-49.9	14.8	0.00e+00	0	27	0	1158676480	63	4172
2026-01-06 00:16:54.12	66.21	62.90	-48.6	-49.8	14.8	0.00e+00	0	27	0	1161822208	63	4108
2026-01-06 00:16:55.11	66.96	63.18	-48.5	-49.6	14.9	0.00e+00	0	27	0	1164967936	63	4025
2026-01-06 00:16:56.10	67.73	63.47	-48.1	-49.2	14.9	0.00e+00	0	27	0	1168113664	62	4068
2026-01-06 00:16:57.10	68.52	63.75	-48.1	-49.2	14.8	0.00e+00	0	27	0	1171259392	62	4053
2026-01-06 00:16:58.09	69.32	64.02	-47.8	-48.9	15.0	0.00e+00	0	27	0	1174405120	62	3926
2026-01-06 00:16:59.09	70.15	64.30	-47.7	-48.7	14.9	0.00e+00	0	27	0	1177550848	61	4094
2026-01-06 00:17:00.10	71.01	64.57	-47.7	-48.8	14.9	0.00e+00	0	27	0	1180696576	61	4145
2026-01-06 00:17:01.10	71.88	64.84	-47.9	-49.0	14.9	0.00e+00	0	27	0	1183842304	61	4240
2026-01-06 00:17:02.10	72.77	65.10	-48.2	-49.3	14.8	0.00e+00	0	27	0	1186988032	61	4389
2026-01-06 00:17:03.10	73.68	65.35	-48.6	-49.8	14.7	0.00e+00	0	27	0	1190133760	62	4360
2026-01-06 00:17:04.10	74.61	65.61	-48.4	-49.6	14.8	0.00e+00	0	27	0	1193279488	62	4252
2026-01-06 00:17:05.11	75.58	65.86	-48.1	-49.2	14.9	0.00e+00	0	27	0	1196425216	62	4072
2026-01-06 00:17:06.10	76.54	66.09	-47.9	-49.0	15.0	0.00e+00	0	27	0	1199570944	62	3994
2026-01-06 00:17:07.10	77.54	66.33	-47.8	-48.9	15.0	0.00e+00	0	27	0	1202716672	62	3918
2026-01-06 00:17:08.10	78.56	66.56	-47.6	-48.7	14.9	0.00e+00	0	27	0	1205862400	61	4081
2026-01-06 00:17:09.09	79.59	66.78	-47.8	-48.9	14.9	0.00e+00	0	27	0	1209008128	61	4187
2026-01-06 00:17:10.09	80.65	67.00	-47.7	-48.8	14.9	0.00e+00	0	27	0	1212153856	61	4136
2026-01-06 00:17:11.09	81.74	67.21	-47.8	-48.9	14.9	0.00e+00	0	27	0	1215299584	61	4155
2026-01-06 00:17:12.09	82.84	67.41	-47.5	-48.6	14.9	0.00e+00	0	27	0	1218445312	61	4035
2026-01-06 00:17:13.09	83.97	67.61	-47.8	-48.9	14.9	0.00e+00	0	26	0	1220542464	61	4182
2026-01-06 00:17:14.09	85.12	67.80	-47.8	-48.9	14.9	0.00e+00	0	27	0	1224736768	61	4186
2026-01-06 00:17:15.09	86.29	67.98	-47.8	-48.9	14.9	0.00e+00	0	27	0	1227882496	61	4175
2026-01-06 00:17:16.10	87.49	68.15	-47.8	-48.9	14.9	0.00e+00	0	27	0	1231028224	61	4169
2026-01-06 00:17:17.10	88.70	68.32	-47.6	-48.7	15.0	0.00e+00	0	27	0	1234173952	61	4053
2026-01-06 00:17:18.10	89.93	68.47	-47.6	-48.7	15.0	0.00e+00	0	27	0	1237319680	61	4061
2026-01-06 00:17:19.09	91.16	68.62	-47.5	-48.6	15.0	0.00e+00	0	27	0	1240465408	61	4005
2026-01-06 00:17:20.09	92.43	68.76	-47.8	-48.9	14.9	0.00e+00	0	27	0	1242562560	61	4166
2026-01-06 00:17:21.09	93.71	68.89	-47.7	-48.8	14.9	0.00e+00	0	27	0	1245708288	61	4120
2026-01-06 00:17:22.09	95.01	69.00	-47.6	-48.7	14.9	0.00e+00	0	27	0	1248854016	61	4076
2026-01-06 00:17:23.09	96.33	69.11	-47.7	-48.8	14.9	0.00e+00	0	26	0	1251999744	61	4120
2026-01-06 00:17:24.09	97.66	69.21	-48.0	-49.1	14.8	0.00e+00	0	27	0	1255145472	61	4268
2026-01-06 00:17:25.08	98.98	69.30	-48.2	-49.3	14.8	0.00e+00	0	27	0	1258291200	61	4369
2026-01-06 00:17:26.07	100.32	69.37	-48.2	-49.3	14.8	0.00e+00	0	27	0	1261436928	61	4372
2026-01-06 00:17:27.07	101.69	69.44	-48.2	-49.3	14.7	0.00e+00	0	27	0	1264582656	61	4366
2026-01-06 00:17:28.08	103.07	69.50	-48.2	-49.3	14.8	0.00e+00	0	27	0	1267728384	61	4379
2026-01-06 00:17:29.08	104.45	69.54	-48.0	-49.2	14.8	0.00e+00	0	27	0	1270874112	61	4307
2026-01-06 00:17:30.07	105.82	69.58	-47.9	-49.0	14.8	0.00e+00	0	27	0	1274019840	61	4238
2026-01-06 00:17:31.08	107.23	69.60	-48.1	-49.2	14.8	0.00e+00	0	27	0	1277165568	61	4335
2026-01-06 00:17:32.07	108.60	69.61	-48.7	-49.9	14.7	0.00e+00	0	27	0	1280311296	62	4424
2026-01-06 00:17:33.07	110.00	69.61	-48.6	-49.8	14.7	0.00e+00	0	27	0	1283457024	62	4362
2026-01-06 00:17:34.08	111.40	69.60	-48.2	-49.4	14.8	0.00e+00	0	27	0	1286602752	62	4174
2026-01-06 00:17:35.08	112.79	69.58	-48.1	-49.3	14.9	0.00e+00	0	27	0	1289748480	62	4118
2026-01-06 00:17:36.08	114.18	69.55	-48.2	-49.3	14.9	0.00e+00	0	27	0	1292894208	62	4139
2026-01-06 00:17:37.07	115.54	69.50	-48.2	-49.4	14.8	0.00e+00	0	27	0	1296039936	62	4147
2026-01-06 00:17:38.08	116.93	69.45	-48.2	-49.4	14.9	0.00e+00	0	27	0	1299185664	62	4157
2026-01-06 00:17:39.07	118.28	69.39	-48.0	-49.1	14.9	0.00e+00	0	27	0	1302331392	62	4009
2026-01-06 00:17:40.07	119.64	69.31	-47.7	-48.8	14.9	0.00e+00	0	27	0	1305477120	61	4101
2026-01-06 00:17:41.07	120.98	69.22	-47.6	-48.7	14.9	0.00e+00	0	27	0	1308622848	61	4085
2026-01-06 00:17:42.07	122.31	69.13	-47.8	-48.9	14.9	0.00e+00	0	27	0	1311768576	61	4164
2026-01-06 00:17:43.06	123.62	69.02	-48.1	-49.2	14.8	0.00e+00	0	27	0	1314914304	61	4333
2026-01-06 00:17:44.05	124.91	68.90	-48.4	-49.5	14.7	0.00e+00	0	27	0	1318060032	61	4488
2026-01-06 00:17:45.04	126.18	68.78	-48.5	-49.7	14.7	0.00e+00	0	27	0	1321205760	62	4325
2026-01-06 00:17:46.03	127.44	68.65	-48.2	-49.3	14.9	0.00e+00	0	27	0	1324351488	62	4136
2026-01-06 00:17:47.03	128.69	68.50	-48.0	-49.2	14.9	0.00e+00	0	27	0	1327497216	62	4053
2026-01-06 00:17:48.02	129.91	68.35	-47.9	-49.0	15.0	0.00e+00	0	27	0	1330642944	62	3968
2026-01-06 00:17:49.02	131.13	68.18	-48.2	-49.4	14.8	0.00e+00	0	26	0	1333788672	62	4163
2026-01-06 00:17:50.02	132.32	68.01	-48.4	-49.5	14.8	0.00e+00	0	27	0	1336934400	62	4224
2026-01-06 00:17:51.01	133.48	67.84	-48.3	-49.4	14.8	0.00e+00	0	27	0	1340080128	62	4175
2026-01-06 00:17:52.02	134.65	67.65	-48.4	-49.6	14.8	0.00e+00	0	27	0	1343225856	62	4257
2026-01-06 00:17:53.01	135.77	67.45	-48.3	-49.5	14.8	0.00e+00	0	27	0	1346371584	62	4207
2026-01-06 00:17:54.00	136.87	67.25	-47.7	-48.8	15.0	0.00e+00	0	27	0	1349517312	62	3869
2026-01-06 00:17:55.00	137.96	67.04	-47.5	-48.6	15.0	0.00e+00	0	27	0	1351614464	61	4013
2026-01-06 00:17:56.00	139.03	66.83	-48.0	-49.1	14.8	0.00e+00	0	27	0	1354760192	61	4291
2026-01-06 00:17:56.99	140.06	66.61	-48.2	-49.3	14.8	0.00e+00	0	27	0	1357905920	61	4366
2026-01-06 00:17:57.98	141.07	66.38	-48.0	-49.2	14.8	0.00e+00	0	27	0	1361051648	61	4297
2026-01-06 00:17:58.98	142.08	66.14	-48.0	-49.1	14.8	0.00e+00	0	27	0	1364197376	61	4282
2026-01-06 00:17:59.97	143.05	65.91	-47.5	-48.6	15.0	0.00e+00	0	27	0	1367343104	61	4029
2026-01-06 00:18:00.98	144.02	65.66	-47.5	-48.5	15.0	0.00e+00	0	27	0	1370488832	61	4000
2026-01-06 00:18:01.97	144.95	65.41	-47.8	-48.9	14.9	0.00e+00	0	27	0	1373634560	61	4152
2026-01-06 00:18:02.97	145.86	65.15	-48.2	-49.3	14.8	0.00e+00	0	27	0	1376780288	61	4366
2026-01-06 00:18:03.98	146.77	64.89	-47.9	-49.0	14.9	0.00e+00	0	27	0	1379926016	61	4235
2026-01-06 00:18:04.97	147.64	64.63	-47.7	-48.7	14.9	0.00e+00	0	27	0	1383071744	61	4098
2026-01-06 00:18:05.96	148.48	64.36	-47.4	-48.5	15.0	0.00e+00	0	27	0	1386217472	61	3982
2026-01-06 00:18:06.96	149.32	64.08	-47.6	-48.7	14.9	0.00e+00	0	27	0	1389363200	61	4076
2026-01-06 00:18:07.95	150.13	63.81	-48.2	-49.3	14.8	0.00e+00	0	27	0	1392508928	61	4369
2026-01-06 00:18:08.94	150.92	63.53	-49.0	-50.2	14.7	0.00e+00	0	26	0	1395654656	63	4322
2026-01-06 00:18:09.95	151.70	63.25	-49.2	-50.5	14.6	0.00e+00	0	26	0	1398800384	63	4448
2026-01-06 00:18:10.94	152.46	62.96	-48.8	-50.0	14.7	0.00e+00	0	27	0	1401946112	63	4228
2026-01-06 00:18:11.94	153.20	62.67	-48.6	-49.8	14.8	0.00e+00	0	27	0	1405091840	63	4109
2026-01-06 00:18:12.94	153.92	62.38	-48.5	-49.7	14.9	0.00e+00	0	27	0	1408237568	63	4061
2026-01-06 00:18:13.93	154.62	62.09	-49.0	-50.3	14.6	0.00e+00	0	26	0	1411383296	63	4357
2026-01-06 00:18:14.93	155.31	61.79	-49.7	-51.0	14.4	0.00e+00	0	27	0	1414529024	64	4491
2026-01-06 00:18:15.93	155.99	61.49	-49.5	-50.7	14.6	0.00e+00	0	27	0	1417674752	64	4325
2026-01-06 00:18:16.93	156.65	61.19	-49.3	-50.6	14.6	0.00e+00	0	27	0	1420820480	64	4253
2026-01-06 00:18:17.93	157.29	60.88	-48.5	-49.6	14.9	0.00e+00	0	27	0	1423966208	63	4029
2026-01-06 00:18:18.93	157.92	60.58	-47.8	-48.9	15.0	0.00e+00	0	27	0	1427111936	62	3920
2026-01-06 00:18:19.92	158.52	60.28	-47.6	-48.7	14.9	0.00e+00	0	27	0	1430257664	61	4071
2026-01-06 00:18:20.92	159.12	59.97	-47.9	-49.0	14.9	0.00e+00	0	27	0	1433403392	61	4234
2026-01-06 00:18:21.92	159.70	59.66	-48.7	-49.9	14.7	0.00e+00	0	27	0	1436549120	62	4410
2026-01-06 00:18:22.91	160.27	59.35	-49.7	-51.0	14.6	0.00e+00	0	27	0	1439694848	64	4467
2026-01-06 00:18:23.91	160.83	59.04	-50.3	-51.7	14.3	0.00e+00	0	27	0	1442840576	65	4566
2026-01-06 00:18:24.90	161.37	58.73	-50.0	-51.4	14.3	0.00e+00	0	27	0	1445986304	65	4393
2026-01-06 00:18:25.91	161.90	58.42	-49.5	-50.8	14.5	0.00e+00	0	27	0	1449132032	65	4099
2026-01-06 00:18:26.90	162.42	58.11	-49.1	-50.3	14.7	0.00e+00	0	27	0	1452277760	64	4106
2026-01-06 00:18:27.90	162.93	57.80	-48.8	-50.0	14.8	0.00e+00	0	27	0	1455423488	64	3962
2026-01-06 00:18:28.90	163.42	57.48	-49.1	-50.3	14.6	0.00e+00	0	26	0	1458569216	63	4347
2026-01-06 00:18:29.89	163.90	57.17	-50.0	-51.3	14.4	0.00e+00	0	27	0	1461714944	65	4390
2026-01-06 00:18:30.89	164.38	56.86	-50.9	-52.4	14.3	0.00e+00	0	27	0	1463812096	67	4401
2026-01-06 00:18:31.88	164.84	56.55	-51.0	-52.5	14.2	0.00e+00	0	27	0	1466957824	67	4442
2026-01-06 00:18:32.88	165.29	56.23	-50.5	-51.8	14.2	0.00e+00	0	27	0	1470103552	67	4121
2026-01-06 00:18:33.88	165.73	55.92	-50.0	-51.3	14.4	0.00e+00	0	27	0	1473249280	66	4110
2026-01-06 00:18:34.88	166.17	55.60	-49.4	-50.6	14.7	0.00e+00	0	27	0	1476395008	65	4034
2026-01-06 00:18:35.87	166.59	55.29	-49.3	-50.4	14.8	0.00e+00	0	27	0	1479540736	65	3958
2026-01-06 00:18:36.88	167.01	54.98	-49.2	-50.4	14.7	0.00e+00	0	27	0	1482686464	64	4155
2026-01-06 00:18:37.88	167.41	54.66	-50.2	-51.5	14.3	0.00e+00	0	27	0	1485832192	65	4461
2026-01-06 00:18:38.89	167.81	54.35	-51.0	-52.4	14.0	0.00e+00	0	26	0	1488977920	67	4412
2026-01-06 00:18:39.89	168.20	54.04	-51.8	-53.3	14.0	0.00e+00	0	27	0	1492123648	68	4621
2026-01-06 00:18:40.89	168.58	53.73	-51.6	-53.1	13.9	0.00e+00	0	27	0	1495269376	68	4531
2026-01-06 00:18:41.88	168.95	53.42	-50.7	-52.0	14.3	0.00e+00	0	26	0	1498415104	68	4002
2026-01-06 00:18:42.89	169.32	53.11	-49.6	-50.9	14.6	0.00e+00	0	27	0	1501560832	65	4151
2026-01-06 00:18:43.88	169.68	52.80	-49.0	-50.2	14.8	0.00e+00	0	27	0	1504706560	64	4058
2026-01-06 00:18:44.87	170.02	52.50	-48.7	-49.8	14.9	0.00e+00	0	27	0	1507852288	64	3905
2026-01-06 00:18:45.87	170.36	52.19	-49.0	-50.1	14.7	0.00e+00	0	27	0	1510998016	63	4288
2026-01-06 00:18:46.87	170.70	51.88	-49.9	-51.1	14.3	0.00e+00	0	27	0	1514143744	64	4541
2026-01-06 00:18:47.87	171.03	51.58	-50.7	-52.1	14.2	0.00e+00	0	26	0	1517289472	66	4522
2026-01-06 00:18:48.87	171.35	51.27	-52.2	-53.8	13.8	0.00e+00	0	27	0	1520435200	69	4648
2026-01-06 00:18:49.87	171.67	50.97	-53.3	-55.2	13.4	0.00e+00	0	27	0	1523580928	71	4869
2026-01-06 00:18:50.86	171.98	50.67	-53.5	-55.6	13.2	0.00e+00	0	27	0	1526726656	72	4762
2026-01-06 00:18:51.86	172.28	50.37	-53.0	-54.8	13.4	0.00e+00	0	27	0	1529872384	72	4373
2026-01-06 00:18:52.86	172.58	50.07	-52.5	-54.2	13.8	0.00e+00	0	27	0	1533018112	71	4319
2026-01-06 00:18:53.86	172.87	49.77	-52.4	-53.9	14.0	0.00e+00	0	26	0	1536163840	71	4191
2026-01-06 00:18:54.85	173.16	49.48	-52.3	-53.9	14.1	0.00e+00	0	27	0	1539309568	71	4167
2026-01-06 00:18:55.85	173.44	49.18	-51.9	-53.5	14.1	0.00e+00	0	27	0	1542455296	70	4201
2026-01-06 00:18:56.85	173.71	48.88	-52.2	-53.8	13.9	0.00e+00	0	27	0	1545601024	70	4352
2026-01-06 00:18:57.85	173.98	48.59	-51.5	-52.9	14.2	0.00e+00	0	27	0	1548746752	69	4181
2026-01-06 00:18:58.85	174.25	48.30	-51.2	-52.6	14.4	0.00e+00	0	27	0	1551892480	69	4033
2026-01-06 00:18:59.85	174.51	48.01	-51.7	-53.2	14.1	0.00e+00	0	27	0	1555038208	69	4316
2026-01-06 00:19:00.85	174.77	47.72	-52.7	-54.4	13.7	0.00e+00	0	27	0	1558183936	70	4680
2026-01-06 00:19:01.85	175.02	47.43	-52.9	-54.7	13.6	0.00e+00	0	27	0	1561329664	71	4553
2026-01-06 00:19:02.85	175.27	47.14	-52.4	-54.1	13.9	0.00e+00	0	27	0	1564475392	71	4256
2026-01-06 00:19:03.85	175.51	46.86	-52.1	-53.7	14.0	0.00e+00	0	27	0	1567621120	70	4299
2026-01-06 00:19:04.85	175.75	46.57	-51.8	-53.2	14.3	0.00e+00	0	27	0	1570766848	70	4080
2026-01-06 00:19:05.85	175.98	46.29	-51.0	-52.3	14.5	0.00e+00	0	27	0	1573912576	68	4122
2026-01-06 00:19:06.85	176.21	46.01	-50.8	-52.1	14.5	0.00e+00	0	26	0	1577058304	68	4034
2026-01-06 00:19:07.85	176.44	45.73	-51.0	-52.4	14.4	0.00e+00	0	27	0	1580204032	68	4166
2026-01-06 00:19:08.84	176.66	45.45	-51.4	-52.8	14.2	0.00e+00	0	27	0	1583349760	68	4384
2026-01-06 00:19:09.84	176.88	45.17	-51.8	-53.3	14.0	0.00e+00	0	27	0	1586495488	68	4630
2026-01-06 00:19:10.85	177.10	44.90	-52.0	-53.6	14.0	0.00e+00	0	27	0	1589641216	69	4517
2026-01-06 00:19:11.84	177.31	44.62	-52.0	-53.5	14.0	0.00e+00	0	27	0	1592786944	69	4482
2026-01-06 00:19:12.84	177.51	44.35	-51.4	-52.8	14.3	0.00e+00	0	27	0	1595932672	69	4139
2026-01-06 00:19:13.84	177.72	44.08	-51.3	-52.7	14.4	0.00e+00	0	27	0	1598029824	69	4080
2026-01-06 00:19:14.84	177.92	43.81	-51.6	-53.1	14.2	0.00e+00	0	27	0	1601175552	69	4253
2026-01-06 00:19:15.84	178.12	43.54	-52.4	-54.1	13.7	0.00e+00	0	27	0	1604321280	69	4776
2026-01-06 00:19:16.84	178.31	43.28	-53.1	-55.0	13.5	0.00e+00	0	27	0	1607467008	71	4726
2026-01-06 00:19:17.84	178.50	43.01	-53.4	-55.3	13.4	0.00e+00	0	27	0	1610612736	72	4609
2026-01-06 00:19:18.84	178.69	42.75	-53.4	-55.3	13.4	0.00e+00	0	27	0	1613758464	72	4616
2026-01-06 00:19:19.84	178.88	42.49	-52.4	-54.0	14.0	0.00e+00	0	27	0	1616904192	71	4238
2026-01-06 00:19:20.84	179.06	42.23	-51.6	-53.1	14.2	0.00e+00	0	27	0	1620049920	69	4249
2026-01-06 00:19:21.84	179.24	41.97	-51.5	-53.0	14.2	0.00e+00	0	26	0	1623195648	69	4225
2026-01-06 00:19:22.83	179.41	41.71	-51.7	-53.2	14.2	0.00e+00	0	27	0	1626341376	69	4307
2026-01-06 00:19:23.83	179.59	41.45	-51.9	-53.5	14.0	0.00e+00	0	27	0	1629487104	69	4447
2026-01-06 00:19:24.82	179.76	41.20	-51.8	-53.4	14.1	0.00e+00	0	27	0	1632632832	69	4409
2026-01-06 00:19:25.82	179.93	40.95	-52.0	-53.5	14.0	0.00e+00	0	27	0	1635778560	69	4482
2026-01-06 00:19:26.82	180.09	40.70	-52.1	-53.7	14.0	0.00e+00	0	27	0	1638924288	69	4565
2026-01-06 00:19:27.81	180.25	40.45	-52.1	-53.7	13.9	0.00e+00	0	27	0	1642070016	69	4548
2026-01-06 00:19:28.80	180.41	40.20	-51.8	-53.3	14.1	0.00e+00	0	27	0	1645215744	69	4374
2026-01-06 00:19:29.80	180.57	39.96	-51.6	-53.0	14.3	0.00e+00	0	27	0	1648361472	69	4230
2026-01-06 00:19:30.80	180.73	39.71	-51.3	-52.7	14.4	0.00e+00	0	27	0	1651507200	69	4087
2026-01-06 00:19:31.80	180.89	39.47	-51.4	-52.8	14.3	0.00e+00	0	27	0	1654652928	69	4130
2026-01-06 00:19:32.80	181.04	39.22	-51.5	-53.0	14.3	0.00e+00	0	27	0	1657798656	69	4224
2026-01-06 00:19:33.79	181.19	38.99	-51.8	-53.3	14.1	0.00e+00	0	27	0	1660944384	69	4381
2026-01-06 00:19:34.79	181.33	38.75	-52.2	-53.8	13.9	0.00e+00	0	27	0	1664090112	69	4627
2026-01-06 00:19:35.79	181.48	38.51	-52.3	-53.9	13.8	0.00e+00	0	27	0	1667235840	69	4704
2026-01-06 00:19:36.79	181.62	38.27	-52.1	-53.7	13.9	0.00e+00	0	27	0	1670381568	69	4585
2026-01-06 00:19:37.79	181.77	38.04	-51.9	-53.5	14.0	0.00e+00	0	27	0	1673527296	69	4460
2026-01-06 00:19:38.79	181.91	37.80	-51.7	-53.2	14.1	0.00e+00	0	27	0	1676673024	69	4334
2026-01-06 00:19:39.79	182.04	37.57	-51.6	-53.1	14.2	0.00e+00	0	27	0	1679818752	69	4256
2026-01-06 00:19:40.79	182.18	37.34	-51.3	-52.8	14.3	0.00e+00	0	27	0	1682964480	69	4103
2026-01-06 00:19:41.78	182.31	37.11	-50.9	-52.3	14.4	0.00e+00	0	27	0	1686110208	68	4112
2026-01-06 00:19:42.78	182.44	36.88	-50.8	-52.2	14.5	0.00e+00	0	27	0	1689255936	68	4078
2026-01-06 00:19:43.78	182.58	36.66	-51.0	-52.4	14.4	0.00e+00	0	27	0	1692401664	68	4169
2026-01-06 00:19:44.78	182.70	36.43	-51.0	-52.4	14.4	0.00e+00	0	27	0	1695547392	68	4188
2026-01-06 00:19:45.77	182.83	36.21	-50.9	-52.3	14.5	0.00e+00	0	27	0	1698693120	68	4114
2026-01-06 00:19:46.77	182.96	35.99	-50.5	-51.8	14.5	0.00e+00	0	27	0	1701838848	67	4138
2026-01-06 00:19:47.77	183.08	35.77	-50.3	-51.6	14.6	0.00e+00	0	27	0	1704984576	67	4044
2026-01-06 00:19:48.77	183.20	35.55	-50.3	-51.6	14.6	0.00e+00	0	26	0	1707081728	67	4030
2026-01-06 00:19:49.76	183.32	35.33	-50.3	-51.6	14.6	0.00e+00	0	27	0	1710227456	67	4022
2026-01-06 00:19:50.76	183.44	35.11	-50.3	-51.6	14.5	0.00e+00	0	26	0	1713373184	67	4031
2026-01-06 00:19:51.76	183.56	34.90	-50.3	-51.6	14.5	0.00e+00	0	27	0	1716518912	67	4048
2026-01-06 00:19:52.76	183.67	34.68	-50.6	-52.0	14.4	0.00e+00	0	27	0	1719664640	67	4197
2026-01-06 00:19:53.75	183.79	34.47	-50.8	-52.2	14.3	0.00e+00	0	27	0	1722810368	67	4329
2026-01-06 00:19:54.75	183.90	34.26	-50.7	-52.1	14.3	0.00e+00	0	27	0	1725956096	67	4279
2026-01-06 00:19:55.75	184.01	34.05	-50.7	-52.1	14.4	0.00e+00	0	27	0	1729101824	67	4260
2026-01-06 00:19:56.75	184.12	33.84	-50.6	-52.0	14.4	0.00e+00	0	27	0	1732247552	67	4213
2026-01-06 00:19:57.75	184.23	33.63	-50.6	-52.0	14.4	0.00e+00	0	27	0	1735393280	67	4216
2026-01-06 00:19:58.74	184.34	33.43	-50.6	-52.0	14.4	0.00e+00	0	26	0	1738539008	67	4209
2026-01-06 00:19:59.72	184.44	33.23	-50.4	-51.8	14.5	0.00e+00	0	27	0	1741684736	67	4121
2026-01-06 00:20:00.72	184.55	33.02	-50.6	-51.9	14.5	0.00e+00	0	26	0	1744830464	67	4186
2026-01-06 00:20:01.71	184.65	32.82	-50.9	-52.3	14.3	0.00e+00	0	27	0	1747976192	67	4367
2026-01-06 00:20:02.71	184.76	32.62	-50.9	-52.4	14.3	0.00e+00	0	27	0	1751121920	67	4414
2026-01-06 00:20:03.70	184.86	32.42	-50.8	-52.2	14.3	0.00e+00	0	27	0	1754267648	67	4332
2026-01-06 00:20:04.70	184.96	32.22	-50.8	-52.3	14.3	0.00e+00	0	27	0	1757413376	67	4349
2026-01-06 00:20:05.71	185.06	32.02	-50.8	-52.3	14.3	0.00e+00	0	27	0	1760559104	67	4365
2026-01-06 00:20:06.71	185.16	31.83	-50.7	-52.1	14.4	0.00e+00	0	27	0	1763704832	67	4276
2026-01-06 00:20:07.70	185.25	31.63	-50.4	-51.8	14.5	0.00e+00	0	26	0	1766850560	67	4101
2026-01-06 00:20:08.70	185.35	31.44	-50.2	-51.5	14.6	0.00e+00	0	27	0	1769996288	67	3986
2026-01-06 00:20:09.70	185.44	31.25	-50.2	-51.5	14.5	0.00e+00	0	27	0	1773142016	66	4235
2026-01-06 00:20:10.70	185.54	31.05	-50.1	-51.4	14.5	0.00e+00	0	26	0	1776287744	66	4168
2026-01-06 00:20:11.69	185.63	30.87	-50.0	-51.3	14.6	0.00e+00	0	27	0	1779433472	66	4130
2026-01-06 00:20:12.69	185.72	30.68	-49.7	-51.0	14.7	0.00e+00	0	27	0	1782579200	66	3965
2026-01-06 00:20:13.69	185.81	30.49	-49.5	-50.8	14.7	0.00e+00	0	27	0	1785724928	65	4109
2026-01-06 00:20:14.70	185.90	30.30	-49.5	-50.8	14.6	0.00e+00	0	27	0	1788870656	65	4114
2026-01-06 00:20:15.69	185.99	30.11	-49.4	-50.7	14.7	0.00e+00	0	27	0	1792016384	65	4060
2026-01-06 00:20:16.69	186.08	29.93	-49.5	-50.8	14.6	0.00e+00	0	27	0	1795162112	65	4109
2026-01-06 00:20:17.69	186.16	29.75	-49.4	-50.7	14.7	0.00e+00	0	27	0	1798307840	65	4064
2026-01-06 00:20:18.68	186.25	29.57	-49.4	-50.7	14.7	0.00e+00	0	27	0	1801453568	65	4063
2026-01-06 00:20:19.68	186.33	29.38	-49.3	-50.5	14.8	0.00e+00	0	27	0	1804599296	65	3989
2026-01-06 00:20:20.68	186.42	29.20	-49.2	-50.4	14.8	0.00e+00	0	27	0	1807745024	65	3956
2026-01-06 00:20:21.67	186.50	29.03	-49.1	-50.3	14.7	0.00e+00	0	27	0	1810890752	64	4104
2026-01-06 00:20:22.67	186.58	28.85	-48.9	-50.0	14.8	0.00e+00	0	27	0	1814036480	64	4002
2026-01-06 00:20:23.67	186.66	28.67	-48.7	-49.9	14.9	0.00e+00	0	27	0	1817182208	64	3944
2026-01-06 00:20:24.67	186.74	28.49	-48.7	-49.9	14.9	0.00e+00	0	27	0	1819279360	64	3918
2026-01-06 00:20:25.67	186.82	28.32	-48.7	-49.9	14.7	0.00e+00	0	27	0	1822425088	63	4163
2026-01-06 00:20:26.66	186.90	28.15	-48.8	-49.9	14.7	0.00e+00	0	26	0	1825570816	63	4190
2026-01-06 00:20:27.66	186.98	27.97	-48.9	-50.1	14.7	0.00e+00	0	27	0	1828716544	63	4259
2026-01-06 00:20:28.66	187.06	27.80	-48.8	-50.0	14.7	0.00e+00	0	27	0	1831862272	63	4236
2026-01-06 00:20:29.67	187.13	27.63	-48.8	-50.0	14.7	0.00e+00	0	26	0	1835008000	63	4217
2026-01-06 00:20:30.66	187.21	27.46	-48.9	-50.1	14.7	0.00e+00	0	26	0	1838153728	63	4243
2026-01-06 00:20:31.67	187.28	27.29	-48.8	-50.0	14.7	0.00e+00	0	27	0	1841299456	63	4216
2026-01-06 00:20:32.66	187.36	27.12	-48.9	-50.1	14.7	0.00e+00	0	27	0	1844445184	63	4258
2026-01-06 00:20:33.67	187.43	26.95	-49.0	-50.2	14.7	0.00e+00	0	27	0	1847590912	63	4321
2026-01-06 00:20:34.66	187.50	26.79	-49.0	-50.2	14.6	0.00e+00	0	27	0	1850736640	63	4315
2026-01-06 00:20:35.66	187.58	26.63	-49.0	-50.2	14.7	0.00e+00	0	27	0	1853882368	63	4319
2026-01-06 00:20:36.66	187.65	26.46	-49.0	-50.3	14.6	0.00e+00	0	26	0	1857028096	63	4349
2026-01-06 00:20:37.67	187.72	26.30	-49.0	-50.2	14.7	0.00e+00	0	26	0	1860173824	63	4316
2026-01-06 00:20:38.66	187.79	26.14	-48.9	-50.1	14.7	0.00e+00	0	27	0	1863319552	63	4283
2026-01-06 00:20:39.67	187.86	25.97	-48.8	-50.0	14.7	0.00e+00	0	26	0	1866465280	63	4212
2026-01-06 00:20:40.66	187.93	25.81	-48.9	-50.1	14.7	0.00e+00	0	27	0	1869611008	63	4245
2026-01-06 00:20:41.66	187.99	25.65	-48.9	-50.1	14.7	0.00e+00	0	27	0	1872756736	63	4287
2026-01-06 00:20:42.66	188.06	25.50	-48.8	-50.0	14.7	0.00e+00	0	27	0	1875902464	63	4203
2026-01-06 00:20:43.66	188.13	25.34	-48.9	-50.1	14.7	0.00e+00	0	27	0	1879048192	63	4255
2026-01-06 00:20:44.66	188.20	25.18	-48.8	-50.0	14.7	0.00e+00	0	27	0	1882193920	63	4220
2026-01-06 00:20:45.67	188.26	25.02	-48.9	-50.1	14.7	0.00e+00	0	27	0	1885339648	63	4254
2026-01-06 00:20:46.66	188.33	24.87	-49.0	-50.2	14.6	0.00e+00	0	27	0	1888485376	63	4310
2026-01-06 00:20:47.66	188.39	24.72	-49.0	-50.2	14.6	0.00e+00	0	26	0	1891631104	63	4327
2026-01-06 00:20:48.65	188.45	24.56	-49.0	-50.2	14.6	0.00e+00	0	27	0	1894776832	63	4329
2026-01-06 00:20:49.65	188.52	24.41	-49.0	-50.2	14.6	0.00e+00	0	27	0	1897922560	63	4309
2026-01-06 00:20:50.64	188.58	24.26	-49.0	-50.2	14.6	0.00e+00	0	26	0	1901068288	63	4325
2026-01-06 00:20:51.64	188.64	24.11	-48.8	-50.0	14.7	0.00e+00	0	27	0	1904214016	63	4208
2026-01-06 00:20:52.64	188.70	23.96	-48.8	-50.1	14.7	0.00e+00	0	26	0	1907359744	63	4243
2026-01-06 00:20:53.63	188.76	23.81	-48.9	-50.1	14.7	0.00e+00	0	27	0	1910505472	63	4258
2026-01-06 00:20:54.62	188.82	23.67	-48.7	-49.9	14.7	0.00e+00	0	27	0	1913651200	63	4170
2026-01-06 00:20:55.62	188.88	23.52	-48.8	-50.0	14.7	0.00e+00	0	26	0	1916796928	63	4237
2026-01-06 00:20:56.61	188.94	23.37	-48.9	-50.1	14.7	0.00e+00	0	27	0	1919942656	63	4249
2026-01-06 00:20:57.61	189.00	23.23	-48.8	-50.0	14.7	0.00e+00	0	27	0	1923088384	63	4210
2026-01-06 00:20:58.60	189.06	23.08	-48.9	-50.1	14.6	0.00e+00	0	27	0	1926234112	63	4262
2026-01-06 00:20:59.60	189.12	22.94	-49.0	-50.3	14.6	0.00e+00	0	26	0	1929379840	63	4352
2026-01-06 00:21:00.60	189.17	22.80	-49.1	-50.3	14.6	0.00e+00	0	26	0	1932525568	63	4382
2026-01-06 00:21:01.59	189.23	22.66	-49.2	-50.5	14.5	0.00e+00	0	26	0	1935671296	63	4457
2026-01-06 00:21:02.59	189.29	22.51	-49.3	-50.6	14.5	0.00e+00	0	26	0	1938817024	63	4495
2026-01-06 00:21:03.60	189.34	22.37	-49.3	-50.6	14.5	0.00e+00	0	27	0	1941962752	63	4542
2026-01-06 00:21:04.60	189.40	22.23	-49.3	-50.6	14.5	0.00e+00	0	26	0	1945108480	63	4536
2026-01-06 00:21:05.60	189.45	22.09	-49.3	-50.6	14.5	0.00e+00	0	27	0	1948254208	63	4533
2026-01-06 00:21:06.60	189.51	21.95	-49.3	-50.6	14.5	0.00e+00	0	26	0	1950351360	63	4503
2026-01-06 00:21:07.60	189.56	21.81	-49.4	-50.7	14.5	0.00e+00	0	26	0	1953497088	63	4547
2026-01-06 00:21:08.60	189.62	21.68	-49.2	-50.5	14.5	0.00e+00	0	27	0	1956642816	63	4460
2026-01-06 00:21:09.59	189.67	21.54	-49.3	-50.6	14.5	0.00e+00	0	27	0	1959788544	63	4506
2026-01-06 00:21:10.58	189.72	21.41	-49.1	-50.4	14.6	0.00e+00	0	27	0	1962934272	63	4411
2026-01-06 00:21:11.58	189.77	21.27	-49.0	-50.3	14.6	0.00e+00	0	27	0	1966080000	63	4343
2026-01-06 00:21:12.58	189.82	21.14	-48.8	-50.1	14.7	0.00e+00	0	27	0	1969225728	63	4243
2026-01-06 00:21:13.57	189.88	21.00	-48.8	-50.0	14.7	0.00e+00	0	27	0	1972371456	63	4240
2026-01-06 00:21:14.57	189.93	20.87	-48.7	-49.9	14.7	0.00e+00	0	27	0	1975517184	63	4182
2026-01-06 00:21:15.56	189.98	20.74	-48.6	-49.8	14.7	0.00e+00	0	27	0	1978662912	63	4132
2026-01-06 00:21:16.55	190.03	20.61	-48.6	-49.8	14.7	0.00e+00	0	27	0	1981808640	63	4129
2026-01-06 00:21:17.54	190.08	20.48	-48.7	-49.9	14.7	0.00e+00	0	26	0	1984954368	63	4156
2026-01-06 00:21:18.54	190.13	20.35	-48.6	-49.8	14.7	0.00e+00	0	26	0	1988100096	63	4130
2026-01-06 00:21:19.53	190.17	20.22	-48.7	-49.9	14.7	0.00e+00	0	26	0	1991245824	63	4176
2026-01-06 00:21:20.53	190.22	20.09	-48.8	-50.0	14.7	0.00e+00	0	27	0	1994391552	63	4202
2026-01-06 00:21:21.53	190.27	19.96	-48.8	-50.1	14.7	0.00e+00	0	27	0	1997537280	63	4245
2026-01-06 00:21:22.53	190.32	19.83	-48.8	-50.0	14.7	0.00e+00	0	27	0	2000683008	63	4242
2026-01-06 00:21:23.53	190.37	19.70	-48.8	-50.0	14.7	0.00e+00	0	26	0	2003828736	63	4223
2026-01-06 00:21:24.53	190.41	19.58	-48.8	-50.0	14.7	0.00e+00	0	27	0	2006974464	63	4222
2026-01-06 00:21:25.52	190.46	19.45	-48.8	-50.1	14.7	0.00e+00	0	27	0	2010120192	63	4247
2026-01-06 00:21:26.52	190.51	19.33	-48.9	-50.1	14.6	0.00e+00	0	26	0	2013265920	63	4266
2026-01-06 00:21:27.52	190.55	19.20	-49.0	-50.3	14.6	0.00e+00	0	26	0	2016411648	63	4348
2026-01-06 00:21:28.51	190.60	19.08	-49.0	-50.2	14.6	0.00e+00	0	27	0	2019557376	63	4309
2026-01-06 00:21:29.52	190.65	18.95	-49.0	-50.2	14.6	0.00e+00	0	27	0	2022703104	63	4332
2026-01-06 00:21:30.52	190.69	18.83	-48.9	-50.1	14.7	0.00e+00	0	27	0	2025848832	63	4262
2026-01-06 00:21:31.51	190.74	18.71	-48.9	-50.2	14.6	0.00e+00	0	27	0	2028994560	63	4301
2026-01-06 00:21:32.51	190.78	18.59	-49.0	-50.2	14.6	0.00e+00	0	26	0	2032140288	63	4327
2026-01-06 00:21:33.51	190.82	18.47	-49.0	-50.2	14.6	0.00e+00	0	26	0	2035286016	63	4327
2026-01-06 00:21:34.51	190.87	18.35	-49.1	-50.3	14.6	0.00e+00	0	27	0	2038431744	63	4359
2026-01-06 00:21:35.50	190.91	18.23	-49.1	-50.4	14.6	0.00e+00	0	27	0	2041577472	63	4393
2026-01-06 00:21:36.50	190.95	18.11	-49.1	-50.3	14.6	0.00e+00	0	27	0	2044723200	63	4380
2026-01-06 00:21:37.50	191.00	17.99	-49.2	-50.5	14.6	0.00e+00	0	27	0	2047868928	63	4450
2026-01-06 00:21:38.49	191.04	17.87	-49.2	-50.5	14.5	0.00e+00	0	27	0	2051014656	63	4467
2026-01-06 00:21:39.49	191.08	17.75	-49.3	-50.6	14.5	0.00e+00	0	27	0	2054160384	63	4496
2026-01-06 00:21:40.49	191.12	17.64	-49.4	-50.6	14.5	0.00e+00	0	27	0	2057306112	63	4545
2026-01-06 00:21:41.49	191.17	17.52	-49.4	-50.6	14.5	0.00e+00	0	27	0	2060451840	63	4545
2026-01-06 00:21:42.49	191.21	17.40	-49.5	-50.8	14.5	0.00e+00	0	27	0	2062548992	64	4358
2026-01-06 00:21:43.49	191.25	17.29	-49.4	-50.7	14.5	0.00e+00	0	27	0	2065694720	64	4314
2026-01-06 00:21:44.48	191.29	17.17	-49.5	-50.8	14.5	0.00e+00	0	26	0	2068840448	64	4344
