passes_logs/2026/01/06/R3.2S_Murmansk/R3.2S_Murmansk__20260106_221054_NOAA_21_JPSS-2_rec.log

#Pass ID: 20260106_221054_NOAA 21 (JPSS-2)
#Satellite: NOAA 21 (JPSS-2)
#Configuration: NOAA-21
#almurnet v.1.7.20251203
#Start time: 2026-01-06 22:10:54

#Version: 2.2.20231116
#Station: R3.2S_Murmansk
#Location: 33.079688 lon 68.888172 lat
#TLE: 1 54234U 22150A   26005.56767909  .00000152  00000+0  92756-4 0  9990
#TLE: 2 54234  98.7490 306.5820 0001036 340.2747  19.8389 14.19532370163472

#Time	Az	El	Level	Level2	SNR	BER	BlckErr	Temp	State	Recorded	gain1	gain2
2026-01-06 22:10:54.59	18.63	2.03	-58.0	-71.8	3.8	1.49e+00	0	25	0	0	82	17426
2026-01-06 22:10:55.60	18.70	2.08	-58.0	-71.8	3.8	1.49e+00	0	25	104	0	81	18419
2026-01-06 22:10:56.60	18.78	2.14	-58.0	-71.8	3.8	1.49e+00	0	25	104	0	81	18314
2026-01-06 22:10:57.60	18.85	2.19	-58.0	-71.7	3.8	1.49e+00	0	25	104	0	81	18258
2026-01-06 22:10:58.59	18.92	2.25	-58.0	-71.7	3.8	1.49e+00	0	25	104	0	81	18292
2026-01-06 22:10:59.60	19.00	2.30	-58.0	-71.7	3.8	1.49e+00	0	25	104	0	81	18143
2026-01-06 22:11:00.60	19.08	2.35	-58.0	-71.7	3.8	1.49e+00	0	25	104	0	81	18110
2026-01-06 22:11:01.60	19.15	2.41	-58.0	-71.6	3.8	1.49e+00	0	25	104	0	81	18087
2026-01-06 22:11:02.61	19.23	2.46	-58.0	-71.7	3.8	1.49e+00	0	25	104	0	81	18215
2026-01-06 22:11:03.60	19.30	2.52	-58.0	-71.7	3.8	1.49e+00	0	25	104	0	81	18241
2026-01-06 22:11:04.60	19.38	2.57	-58.1	-71.8	3.8	1.49e+00	0	25	104	0	81	18347
2026-01-06 22:11:05.61	19.46	2.62	-58.0	-71.8	3.8	1.49e+00	0	25	104	0	81	18438
2026-01-06 22:11:06.62	19.54	2.68	-58.1	-71.8	3.8	1.49e+00	0	25	104	0	81	18461
2026-01-06 22:11:07.62	19.61	2.73	-58.1	-71.8	3.8	1.49e+00	0	25	104	0	81	18517
2026-01-06 22:11:08.62	19.69	2.79	-58.1	-71.8	3.8	1.49e+00	0	25	104	0	81	18368
2026-01-06 22:11:09.62	19.77	2.84	-58.1	-71.7	3.8	1.49e+00	0	25	104	0	81	18252
2026-01-06 22:11:10.62	19.85	2.90	-58.1	-71.7	3.8	1.49e+00	0	25	104	0	81	18274
2026-01-06 22:11:11.62	19.92	2.95	-58.1	-71.8	3.8	1.49e+00	0	25	104	0	81	18311
2026-01-06 22:11:12.63	20.00	3.01	-58.1	-71.8	3.8	1.49e+00	0	25	104	0	81	18386
2026-01-06 22:11:13.63	20.08	3.06	-58.1	-71.8	3.8	1.49e+00	0	25	104	0	81	18501
2026-01-06 22:11:14.63	20.16	3.12	-58.1	-71.8	3.8	1.49e+00	0	25	104	0	81	18478
2026-01-06 22:11:15.64	20.24	3.17	-58.1	-71.7	3.8	1.49e+00	0	26	104	0	81	18280
2026-01-06 22:11:16.63	20.32	3.23	-58.1	-71.5	3.8	1.49e+00	0	25	104	0	81	17815
2026-01-06 22:11:17.64	20.40	3.28	-58.0	-71.3	3.8	1.49e+00	0	26	104	0	81	17324
2026-01-06 22:11:18.63	20.48	3.34	-58.0	-70.8	3.8	1.49e+00	0	26	104	0	81	16417
2026-01-06 22:11:19.63	20.56	3.39	-58.0	-70.7	3.8	1.49e+00	0	26	104	0	81	16132
2026-01-06 22:11:20.63	20.64	3.45	-58.0	-70.6	3.8	1.49e+00	0	26	104	0	81	16078
2026-01-06 22:11:21.64	20.72	3.50	-58.0	-70.6	3.8	1.49e+00	0	26	104	0	81	16059
2026-01-06 22:11:22.64	20.81	3.56	-58.0	-70.7	3.8	1.49e+00	0	26	104	0	81	16250
2026-01-06 22:11:23.64	20.89	3.61	-58.0	-70.6	3.8	1.49e+00	0	26	104	0	81	16108
2026-01-06 22:11:24.64	20.97	3.67	-58.0	-70.4	3.8	1.49e+00	0	26	104	0	81	15680
2026-01-06 22:11:25.64	21.05	3.73	-57.9	-69.5	4.0	1.48e+00	0	26	104	0	81	14120
2026-01-06 22:11:26.65	21.13	3.78	-57.9	-69.0	4.0	1.48e+00	0	26	104	0	81	13349
2026-01-06 22:11:27.64	21.22	3.84	-57.8	-68.5	3.9	1.46e+00	0	26	104	0	81	12529
2026-01-06 22:11:28.65	21.30	3.89	-57.7	-67.2	4.5	1.31e+00	0	26	104	0	81	10831
2026-01-06 22:11:29.65	21.38	3.95	-57.7	-67.5	4.0	1.13e+00	2	26	104	0	81	11265
2026-01-06 22:11:30.64	21.47	4.00	-57.7	-67.5	4.0	1.17e+00	0	26	104	1048576	81	11214
2026-01-06 22:11:31.64	21.55	4.06	-57.6	-66.5	4.8	7.47e-01	0	26	0	2097152	81	10052
2026-01-06 22:11:32.65	21.64	4.12	-57.6	-65.9	5.1	6.69e-01	0	26	0	5242880	81	9379
2026-01-06 22:11:33.65	21.72	4.17	-57.4	-65.0	5.7	4.51e-01	0	26	0	8388608	81	8410
2026-01-06 22:11:34.65	21.81	4.23	-57.1	-63.6	6.6	2.61e-01	0	26	0	11534336	80	7601
2026-01-06 22:11:35.66	21.89	4.29	-56.4	-61.5	8.4	5.04e-02	0	26	0	14680064	79	6326
2026-01-06 22:11:36.66	21.98	4.34	-56.0	-60.3	9.4	6.82e-03	0	26	0	17825792	78	5833
2026-01-06 22:11:37.66	22.06	4.40	-54.9	-58.2	11.1	1.45e-04	0	26	0	20971520	76	5103
2026-01-06 22:11:38.66	22.15	4.46	-54.1	-56.9	11.8	2.82e-05	0	26	0	24117248	74	4956
2026-01-06 22:11:39.66	22.24	4.51	-53.7	-56.3	12.2	2.20e-06	0	26	0	27262976	74	4635
2026-01-06 22:11:40.67	22.32	4.57	-53.3	-55.7	12.6	0.00e+00	0	26	0	30408704	73	4550
2026-01-06 22:11:41.67	22.41	4.63	-52.7	-55.4	12.7	0.00e+00	0	26	0	33554432	72	4669
2026-01-06 22:11:42.68	22.50	4.68	-52.9	-55.1	12.9	0.00e+00	0	26	0	36700160	72	4538
2026-01-06 22:11:43.68	22.59	4.74	-53.0	-55.2	12.8	0.00e+00	0	26	0	39845888	72	4571
2026-01-06 22:11:44.68	22.67	4.80	-53.6	-56.1	12.2	7.00e-07	0	26	0	42991616	72	5091
2026-01-06 22:11:45.68	22.76	4.85	-54.1	-57.0	11.7	4.50e-06	0	26	0	46137344	73	5287
2026-01-06 22:11:46.69	22.85	4.91	-54.6	-57.8	11.2	5.79e-05	0	26	0	49283072	74	5493
2026-01-06 22:11:47.69	22.94	4.97	-55.4	-59.3	10.1	6.43e-04	0	26	0	52428800	75	6133
2026-01-06 22:11:48.69	23.03	5.03	-56.0	-60.4	9.3	4.87e-03	0	26	0	55574528	77	6209
2026-01-06 22:11:49.69	23.12	5.08	-53.9	-56.5	12.1	5.18e-05	0	26	0	58720256	74	4731
2026-01-06 22:11:50.69	23.21	5.14	-57.0	-63.6	6.7	1.39e-03	0	26	0	61865984	79	8050
2026-01-06 22:11:51.69	23.30	5.20	-55.9	-60.0	9.8	5.52e-02	0	26	0	65011712	78	5627
2026-01-06 22:11:52.69	23.39	5.26	-53.7	-56.2	12.4	4.55e-04	0	26	0	68157440	74	4550
2026-01-06 22:11:53.69	23.48	5.31	-57.2	-63.8	6.7	1.34e-02	0	26	0	71303168	79	8201
2026-01-06 22:11:54.69	23.57	5.37	-53.6	-56.7	12.0	6.23e-03	0	26	0	74448896	74	4845
2026-01-06 22:11:55.70	23.67	5.43	-52.9	-55.1	13.0	0.00e+00	0	26	0	77594624	72	4510
2026-01-06 22:11:56.70	23.76	5.49	-52.5	-54.6	13.2	0.00e+00	0	27	0	80740352	71	4495
2026-01-06 22:11:57.69	23.85	5.54	-52.7	-54.8	13.1	0.00e+00	0	27	0	83886080	71	4616
2026-01-06 22:11:58.69	23.94	5.60	-52.8	-54.9	13.0	0.00e+00	0	26	0	87031808	71	4678
2026-01-06 22:11:59.69	24.04	5.66	-52.6	-54.7	13.2	0.00e+00	0	26	0	90177536	71	4552
2026-01-06 22:12:00.70	24.13	5.72	-52.7	-54.8	13.1	0.00e+00	0	27	0	93323264	71	4649
2026-01-06 22:12:01.70	24.22	5.78	-52.8	-54.9	13.0	0.00e+00	0	26	0	96468992	71	4680
2026-01-06 22:12:02.71	24.32	5.83	-52.8	-54.9	13.0	0.00e+00	0	27	0	99614720	71	4689
2026-01-06 22:12:03.70	24.41	5.89	-52.5	-54.4	13.3	0.00e+00	0	27	0	102760448	71	4431
2026-01-06 22:12:04.70	24.51	5.95	-52.4	-54.4	13.3	0.00e+00	0	27	0	105906176	71	4399
2026-01-06 22:12:05.70	24.60	6.01	-52.3	-54.2	13.4	0.00e+00	0	26	0	109051904	71	4339
2026-01-06 22:12:06.70	24.70	6.07	-52.1	-54.0	13.5	0.00e+00	0	27	0	112197632	70	4478
2026-01-06 22:12:07.70	24.80	6.13	-52.2	-54.0	13.5	0.00e+00	0	27	0	115343360	70	4483
2026-01-06 22:12:08.71	24.89	6.18	-52.2	-54.1	13.4	0.00e+00	0	26	0	118489088	70	4526
2026-01-06 22:12:09.71	24.99	6.24	-52.2	-54.1	13.5	0.00e+00	0	27	0	121634816	70	4496
2026-01-06 22:12:10.70	25.09	6.30	-52.0	-53.8	13.6	0.00e+00	0	27	0	124780544	70	4362
2026-01-06 22:12:11.71	25.18	6.36	-52.2	-54.1	13.4	0.00e+00	0	27	0	127926272	70	4542
2026-01-06 22:12:12.71	25.28	6.42	-52.2	-54.1	13.4	0.00e+00	0	27	0	131072000	70	4505
2026-01-06 22:12:13.71	25.38	6.48	-52.2	-54.0	13.5	0.00e+00	0	27	0	134217728	70	4476
2026-01-06 22:12:14.71	25.48	6.54	-52.2	-54.1	13.5	0.00e+00	0	27	0	137363456	70	4504
2026-01-06 22:12:15.71	25.58	6.60	-52.1	-53.9	13.6	0.00e+00	0	27	0	140509184	70	4425
2026-01-06 22:12:16.71	25.68	6.66	-52.1	-54.0	13.5	0.00e+00	0	27	0	143654912	70	4458
2026-01-06 22:12:17.71	25.78	6.71	-52.2	-54.0	13.5	0.00e+00	0	27	0	146800640	70	4483
2026-01-06 22:12:18.71	25.88	6.77	-51.9	-53.7	13.7	0.00e+00	0	27	0	149946368	70	4306
2026-01-06 22:12:19.71	25.98	6.83	-52.1	-53.9	13.6	0.00e+00	0	27	0	153092096	70	4412
2026-01-06 22:12:20.71	26.08	6.89	-52.1	-53.9	13.6	0.00e+00	0	27	0	156237824	70	4430
2026-01-06 22:12:21.71	26.18	6.95	-51.9	-53.7	13.6	0.00e+00	0	27	0	159383552	70	4331
2026-01-06 22:12:22.71	26.28	7.01	-52.0	-53.8	13.7	0.00e+00	0	27	0	162529280	70	4351
2026-01-06 22:12:23.72	26.38	7.07	-52.0	-53.7	13.7	0.00e+00	0	27	0	165675008	70	4333
2026-01-06 22:12:24.72	26.49	7.13	-52.0	-53.8	13.6	0.00e+00	0	27	0	168820736	70	4373
2026-01-06 22:12:25.73	26.59	7.19	-52.1	-53.9	13.6	0.00e+00	0	27	0	170917888	70	4413
2026-01-06 22:12:26.73	26.69	7.25	-52.1	-54.0	13.6	0.00e+00	0	27	0	174063616	70	4452
2026-01-06 22:12:27.73	26.80	7.31	-52.2	-54.1	13.5	0.00e+00	0	27	0	177209344	70	4522
2026-01-06 22:12:28.73	26.90	7.37	-52.0	-53.8	13.7	0.00e+00	0	27	0	180355072	70	4363
2026-01-06 22:12:29.73	27.01	7.43	-51.8	-53.6	13.8	0.00e+00	0	27	0	183500800	70	4252
2026-01-06 22:12:30.73	27.11	7.49	-51.9	-53.6	13.7	0.00e+00	0	27	0	186646528	70	4290
2026-01-06 22:12:31.72	27.22	7.55	-51.8	-53.5	13.8	0.00e+00	0	27	0	189792256	70	4222
2026-01-06 22:12:32.72	27.32	7.61	-51.7	-53.4	13.8	0.00e+00	0	27	0	192937984	69	4409
2026-01-06 22:12:33.73	27.43	7.67	-51.6	-53.3	13.8	0.00e+00	0	27	0	196083712	69	4387
2026-01-06 22:12:34.73	27.53	7.73	-51.6	-53.3	13.8	0.00e+00	0	27	0	199229440	69	4385
2026-01-06 22:12:35.73	27.64	7.79	-51.6	-53.3	13.8	0.00e+00	0	27	0	202375168	69	4372
2026-01-06 22:12:36.72	27.75	7.85	-51.5	-53.2	13.9	0.00e+00	0	27	0	205520896	69	4314
2026-01-06 22:12:37.73	27.86	7.91	-51.7	-53.4	13.8	0.00e+00	0	27	0	208666624	69	4407
2026-01-06 22:12:38.73	27.97	7.97	-51.6	-53.3	13.8	0.00e+00	0	27	0	211812352	69	4386
2026-01-06 22:12:39.73	28.07	8.03	-51.4	-53.0	14.0	0.00e+00	0	27	0	214958080	69	4227
2026-01-06 22:12:40.73	28.18	8.09	-51.5	-53.2	13.9	0.00e+00	0	27	0	218103808	69	4293
2026-01-06 22:12:41.73	28.29	8.15	-51.4	-53.1	13.9	0.00e+00	0	27	0	221249536	69	4258
2026-01-06 22:12:42.74	28.40	8.21	-51.6	-53.2	13.8	0.00e+00	0	27	0	224395264	69	4340
2026-01-06 22:12:43.74	28.51	8.28	-51.5	-53.2	13.9	0.00e+00	0	27	0	227540992	69	4320
2026-01-06 22:12:44.74	28.62	8.34	-51.5	-53.1	13.9	0.00e+00	0	27	0	230686720	69	4277
2026-01-06 22:12:45.74	28.74	8.40	-51.6	-53.3	13.8	0.00e+00	0	27	0	233832448	69	4348
2026-01-06 22:12:46.74	28.85	8.46	-51.5	-53.2	13.9	0.00e+00	0	27	0	236978176	69	4316
2026-01-06 22:12:47.75	28.96	8.52	-51.5	-53.1	13.9	0.00e+00	0	27	0	240123904	69	4263
2026-01-06 22:12:48.75	29.07	8.58	-51.4	-53.1	14.0	0.00e+00	0	27	0	243269632	69	4244
2026-01-06 22:12:49.76	29.19	8.64	-51.3	-52.9	14.0	0.00e+00	0	27	0	246415360	69	4174
2026-01-06 22:12:50.76	29.30	8.70	-51.4	-53.0	14.0	0.00e+00	0	27	0	249561088	69	4212
2026-01-06 22:12:51.77	29.42	8.77	-51.3	-52.9	14.0	0.00e+00	0	27	0	252706816	69	4172
2026-01-06 22:12:52.77	29.53	8.83	-51.3	-52.9	14.1	0.00e+00	0	27	0	255852544	69	4176
2026-01-06 22:12:53.77	29.65	8.89	-51.3	-53.0	14.0	0.00e+00	0	27	0	258998272	69	4196
2026-01-06 22:12:54.78	29.76	8.95	-51.2	-52.8	14.0	0.00e+00	0	27	0	262144000	68	4373
2026-01-06 22:12:55.78	29.88	9.01	-51.3	-52.8	14.0	0.00e+00	0	27	0	265289728	68	4390
2026-01-06 22:12:56.78	29.99	9.07	-51.3	-52.9	13.9	0.00e+00	0	27	0	268435456	68	4421
2026-01-06 22:12:57.78	30.11	9.13	-51.4	-53.0	13.9	0.00e+00	0	27	0	271581184	68	4478
2026-01-06 22:12:58.78	30.23	9.20	-51.2	-52.7	14.1	0.00e+00	0	27	0	274726912	68	4324
2026-01-06 22:12:59.78	30.35	9.26	-51.2	-52.8	14.0	0.00e+00	0	27	0	277872640	68	4352
2026-01-06 22:13:00.78	30.46	9.32	-51.1	-52.7	14.1	0.00e+00	0	27	0	281018368	68	4310
2026-01-06 22:13:01.79	30.58	9.38	-51.2	-52.7	14.0	0.00e+00	0	27	0	284164096	68	4337
2026-01-06 22:13:02.79	30.70	9.44	-51.1	-52.7	14.0	0.00e+00	0	27	0	287309824	68	4323
2026-01-06 22:13:03.80	30.82	9.51	-51.1	-52.7	14.1	0.00e+00	0	27	0	290455552	68	4304
2026-01-06 22:13:04.80	30.95	9.57	-51.1	-52.6	14.1	0.00e+00	0	27	0	293601280	68	4272
2026-01-06 22:13:05.79	31.06	9.63	-51.0	-52.5	14.1	0.00e+00	0	27	0	296747008	68	4235
2026-01-06 22:13:06.79	31.19	9.69	-51.0	-52.5	14.2	0.00e+00	0	27	0	299892736	68	4224
2026-01-06 22:13:07.80	31.31	9.75	-50.9	-52.4	14.2	0.00e+00	0	27	0	303038464	68	4146
2026-01-06 22:13:08.79	31.43	9.81	-50.8	-52.3	14.2	0.00e+00	0	27	0	306184192	68	4140
2026-01-06 22:13:09.80	31.55	9.88	-50.8	-52.3	14.2	0.00e+00	0	27	0	309329920	68	4139
2026-01-06 22:13:10.80	31.68	9.94	-50.8	-52.3	14.2	0.00e+00	0	27	0	312475648	68	4111
2026-01-06 22:13:11.81	31.80	10.00	-50.8	-52.2	14.3	0.00e+00	0	27	0	315621376	68	4085
2026-01-06 22:13:12.81	31.93	10.06	-50.4	-51.9	14.3	0.00e+00	0	27	0	318767104	67	4167
2026-01-06 22:13:13.80	32.05	10.13	-50.3	-51.7	14.4	0.00e+00	0	27	0	321912832	67	4092
2026-01-06 22:13:14.80	32.17	10.19	-50.3	-51.7	14.4	0.00e+00	0	27	0	325058560	67	4063
2026-01-06 22:13:15.81	32.30	10.25	-50.2	-51.6	14.3	0.00e+00	0	27	0	328204288	66	4256
2026-01-06 22:13:16.81	32.43	10.31	-50.1	-51.5	14.4	0.00e+00	0	27	0	331350016	66	4208
2026-01-06 22:13:17.82	32.56	10.38	-50.1	-51.5	14.3	0.00e+00	0	27	0	334495744	66	4226
2026-01-06 22:13:18.82	32.68	10.44	-50.2	-51.6	14.3	0.00e+00	0	27	0	337641472	66	4261
2026-01-06 22:13:19.82	32.81	10.50	-50.3	-51.7	14.3	0.00e+00	0	27	0	340787200	66	4309
2026-01-06 22:13:20.83	32.94	10.57	-50.3	-51.7	14.3	0.00e+00	0	27	0	343932928	66	4333
2026-01-06 22:13:21.82	33.07	10.63	-50.4	-51.8	14.2	0.00e+00	0	27	0	347078656	66	4384
2026-01-06 22:13:22.82	33.20	10.69	-50.4	-51.8	14.2	0.00e+00	0	27	0	350224384	66	4373
2026-01-06 22:13:23.82	33.33	10.75	-50.4	-51.9	14.2	0.00e+00	0	27	0	353370112	66	4415
2026-01-06 22:13:24.83	33.46	10.82	-50.4	-51.8	14.2	0.00e+00	0	27	0	356515840	66	4390
2026-01-06 22:13:25.83	33.59	10.88	-50.5	-51.9	14.2	0.00e+00	0	27	0	359661568	66	4432
2026-01-06 22:13:26.82	33.72	10.94	-50.5	-52.0	14.2	0.00e+00	0	27	0	362807296	66	4471
2026-01-06 22:13:27.83	33.85	11.00	-50.4	-51.8	14.2	0.00e+00	0	27	0	365953024	66	4373
2026-01-06 22:13:28.83	33.99	11.07	-50.4	-51.8	14.2	0.00e+00	0	27	0	369098752	66	4361
2026-01-06 22:13:29.83	34.12	11.13	-50.5	-51.9	14.2	0.00e+00	0	27	0	372244480	66	4435
2026-01-06 22:13:30.82	34.25	11.19	-50.3	-51.7	14.3	0.00e+00	0	27	0	375390208	66	4306
2026-01-06 22:13:31.82	34.38	11.25	-50.2	-51.6	14.3	0.00e+00	0	27	0	377487360	66	4288
2026-01-06 22:13:32.83	34.52	11.32	-50.3	-51.7	14.3	0.00e+00	0	27	0	380633088	66	4309
2026-01-06 22:13:33.82	34.65	11.38	-50.2	-51.6	14.3	0.00e+00	0	27	0	383778816	66	4250
2026-01-06 22:13:34.81	34.79	11.44	-50.2	-51.6	14.3	0.00e+00	0	27	0	386924544	66	4273
2026-01-06 22:13:35.82	34.93	11.51	-50.3	-51.7	14.3	0.00e+00	0	27	0	390070272	66	4324
2026-01-06 22:13:36.82	35.06	11.57	-50.3	-51.7	14.3	0.00e+00	0	27	0	393216000	66	4323
2026-01-06 22:13:37.83	35.20	11.63	-50.3	-51.7	14.3	0.00e+00	0	27	0	396361728	66	4336
2026-01-06 22:13:38.83	35.34	11.70	-50.4	-51.8	14.3	0.00e+00	0	27	0	399507456	66	4370
2026-01-06 22:13:39.83	35.48	11.76	-50.5	-51.9	14.2	0.00e+00	0	27	0	402653184	66	4424
2026-01-06 22:13:40.83	35.62	11.82	-50.5	-52.0	14.2	0.00e+00	0	27	0	405798912	66	4444
2026-01-06 22:13:41.83	35.76	11.89	-50.5	-51.9	14.2	0.00e+00	0	27	0	408944640	66	4437
2026-01-06 22:13:42.84	35.90	11.95	-50.4	-51.9	14.2	0.00e+00	0	27	0	412090368	66	4409
2026-01-06 22:13:43.84	36.04	12.01	-50.4	-51.9	14.2	0.00e+00	0	27	0	415236096	66	4409
2026-01-06 22:13:44.85	36.19	12.08	-50.4	-51.8	14.2	0.00e+00	0	28	0	418381824	66	4380
2026-01-06 22:13:45.85	36.33	12.14	-50.5	-52.0	14.2	0.00e+00	0	27	0	421527552	66	4448
2026-01-06 22:13:46.85	36.47	12.20	-50.3	-51.7	14.3	0.00e+00	0	27	0	424673280	66	4328
2026-01-06 22:13:47.85	36.61	12.27	-50.3	-51.8	14.3	0.00e+00	0	27	0	427819008	66	4347
2026-01-06 22:13:48.85	36.76	12.33	-50.1	-51.5	14.4	0.00e+00	0	27	0	430964736	66	4220
2026-01-06 22:13:49.85	36.90	12.39	-50.1	-51.5	14.4	0.00e+00	0	27	0	434110464	66	4210
2026-01-06 22:13:50.84	37.05	12.45	-50.0	-51.4	14.4	0.00e+00	0	27	0	437256192	66	4177
2026-01-06 22:13:51.84	37.19	12.52	-50.0	-51.4	14.5	0.00e+00	0	27	0	440401920	66	4153
2026-01-06 22:13:52.84	37.34	12.58	-50.0	-51.3	14.5	0.00e+00	0	28	0	443547648	66	4129
2026-01-06 22:13:53.84	37.48	12.64	-50.0	-51.4	14.5	0.00e+00	0	27	0	446693376	66	4156
2026-01-06 22:13:54.85	37.63	12.71	-50.1	-51.4	14.4	0.00e+00	0	27	0	449839104	66	4189
2026-01-06 22:13:55.85	37.78	12.77	-50.1	-51.5	14.4	0.00e+00	0	28	0	452984832	66	4233
2026-01-06 22:13:56.85	37.93	12.83	-50.2	-51.6	14.4	0.00e+00	0	27	0	456130560	66	4255
2026-01-06 22:13:57.85	38.08	12.90	-50.2	-51.6	14.4	0.00e+00	0	27	0	459276288	66	4270
2026-01-06 22:13:58.85	38.23	12.96	-50.3	-51.7	14.3	0.00e+00	0	27	0	462422016	66	4297
2026-01-06 22:13:59.82	38.38	13.02	-50.2	-51.7	14.3	0.00e+00	0	28	0	465567744	66	4292
2026-01-06 22:14:00.82	38.53	13.08	-50.1	-51.5	14.4	0.00e+00	0	27	0	468713472	66	4202
2026-01-06 22:14:01.83	38.68	13.15	-50.0	-51.4	14.4	0.00e+00	0	27	0	471859200	66	4175
2026-01-06 22:14:02.82	38.83	13.21	-49.9	-51.3	14.5	0.00e+00	0	27	0	475004928	66	4108
2026-01-06 22:14:03.82	38.99	13.27	-50.0	-51.4	14.4	0.00e+00	0	27	0	478150656	66	4178
2026-01-06 22:14:04.81	39.14	13.33	-49.8	-51.2	14.5	0.00e+00	0	27	0	481296384	66	4054
2026-01-06 22:14:05.81	39.29	13.40	-49.8	-51.1	14.6	0.00e+00	0	27	0	484442112	66	4015
2026-01-06 22:14:06.82	39.45	13.46	-49.8	-51.1	14.6	0.00e+00	0	28	0	487587840	66	4026
2026-01-06 22:14:07.83	39.61	13.53	-49.8	-51.2	14.6	0.00e+00	0	27	0	490733568	66	4052
2026-01-06 22:14:08.83	39.76	13.59	-49.9	-51.2	14.5	0.00e+00	0	27	0	493879296	66	4095
2026-01-06 22:14:09.83	39.92	13.65	-50.0	-51.3	14.5	0.00e+00	0	27	0	497025024	66	4143
2026-01-06 22:14:10.83	40.08	13.71	-50.0	-51.4	14.4	0.00e+00	0	28	0	500170752	66	4175
2026-01-06 22:14:11.83	40.24	13.78	-50.1	-51.5	14.4	0.00e+00	0	27	0	503316480	66	4199
2026-01-06 22:14:12.83	40.39	13.84	-50.0	-51.4	14.5	0.00e+00	0	27	0	506462208	66	4148
2026-01-06 22:14:13.84	40.56	13.90	-50.0	-51.4	14.4	0.00e+00	0	27	0	509607936	66	4156
2026-01-06 22:14:14.84	40.72	13.97	-50.0	-51.3	14.5	0.00e+00	0	28	0	512753664	66	4130
2026-01-06 22:14:15.84	40.88	14.03	-49.9	-51.3	14.5	0.00e+00	0	27	0	515899392	66	4108
2026-01-06 22:14:16.84	41.04	14.09	-49.8	-51.2	14.5	0.00e+00	0	27	0	519045120	66	4067
2026-01-06 22:14:17.84	41.20	14.15	-49.9	-51.2	14.5	0.00e+00	0	27	0	522190848	66	4085
2026-01-06 22:14:18.84	41.36	14.22	-49.9	-51.3	14.5	0.00e+00	0	28	0	525336576	66	4101
2026-01-06 22:14:19.85	41.53	14.28	-49.8	-51.2	14.5	0.00e+00	0	27	0	528482304	66	4052
2026-01-06 22:14:20.85	41.69	14.34	-49.9	-51.3	14.5	0.00e+00	0	27	0	531628032	66	4111
2026-01-06 22:14:21.85	41.86	14.40	-50.0	-51.3	14.5	0.00e+00	0	28	0	534773760	66	4129
2026-01-06 22:14:22.85	42.02	14.47	-50.1	-51.4	14.4	0.00e+00	0	27	0	537919488	66	4183
2026-01-06 22:14:23.85	42.19	14.53	-50.1	-51.5	14.4	0.00e+00	0	27	0	541065216	66	4226
2026-01-06 22:14:24.85	42.36	14.59	-50.1	-51.5	14.4	0.00e+00	0	27	0	544210944	66	4204
2026-01-06 22:14:25.85	42.52	14.65	-50.2	-51.6	14.4	0.00e+00	0	27	0	547356672	66	4254
2026-01-06 22:14:26.86	42.69	14.71	-50.1	-51.5	14.4	0.00e+00	0	27	0	550502400	66	4222
2026-01-06 22:14:27.85	42.86	14.78	-50.1	-51.5	14.4	0.00e+00	0	27	0	553648128	66	4220
2026-01-06 22:14:28.85	43.03	14.84	-50.2	-51.6	14.4	0.00e+00	0	28	0	556793856	66	4250
2026-01-06 22:14:29.85	43.20	14.90	-50.0	-51.4	14.5	0.00e+00	0	27	0	558891008	66	4159
2026-01-06 22:14:30.86	43.37	14.96	-50.0	-51.3	14.5	0.00e+00	0	27	0	562036736	66	4121
2026-01-06 22:14:31.86	43.55	15.02	-49.9	-51.2	14.5	0.00e+00	0	28	0	565182464	66	4080
2026-01-06 22:14:32.86	43.72	15.09	-49.8	-51.1	14.6	0.00e+00	0	27	0	568328192	66	4045
2026-01-06 22:14:33.86	43.89	15.15	-49.8	-51.2	14.6	0.00e+00	0	27	0	571473920	66	4056
2026-01-06 22:14:34.86	44.07	15.21	-49.8	-51.2	14.6	0.00e+00	0	27	0	574619648	66	4055
2026-01-06 22:14:35.85	44.24	15.27	-49.9	-51.2	14.5	0.00e+00	0	28	0	577765376	66	4066
2026-01-06 22:14:36.84	44.41	15.33	-49.9	-51.3	14.5	0.00e+00	0	27	0	580911104	66	4104
2026-01-06 22:14:37.85	44.59	15.39	-50.0	-51.3	14.5	0.00e+00	0	28	0	584056832	66	4122
2026-01-06 22:14:38.86	44.77	15.45	-49.9	-51.3	14.5	0.00e+00	0	28	0	587202560	66	4118
2026-01-06 22:14:39.86	44.94	15.51	-50.0	-51.4	14.5	0.00e+00	0	27	0	590348288	66	4169
2026-01-06 22:14:40.85	45.12	15.57	-50.0	-51.4	14.5	0.00e+00	0	27	0	593494016	66	4168
2026-01-06 22:14:41.86	45.30	15.64	-49.9	-51.3	14.5	0.00e+00	0	28	0	596639744	66	4124
2026-01-06 22:14:42.85	45.48	15.70	-50.0	-51.4	14.5	0.00e+00	0	28	0	599785472	66	4169
2026-01-06 22:14:43.85	45.66	15.76	-50.1	-51.5	14.4	0.00e+00	0	27	0	602931200	66	4199
2026-01-06 22:14:44.85	45.84	15.82	-50.1	-51.5	14.4	0.00e+00	0	27	0	606076928	66	4197
2026-01-06 22:14:45.86	46.02	15.88	-50.0	-51.4	14.5	0.00e+00	0	27	0	609222656	66	4176
2026-01-06 22:14:46.86	46.21	15.94	-50.0	-51.4	14.5	0.00e+00	0	27	0	612368384	66	4172
2026-01-06 22:14:47.87	46.39	16.00	-50.0	-51.4	14.5	0.00e+00	0	27	0	615514112	66	4171
2026-01-06 22:14:48.88	46.58	16.06	-50.0	-51.4	14.5	0.00e+00	0	28	0	618659840	66	4163
2026-01-06 22:14:49.88	46.76	16.12	-50.1	-51.4	14.5	0.00e+00	0	28	0	621805568	66	4183
2026-01-06 22:14:50.88	46.95	16.18	-49.9	-51.3	14.5	0.00e+00	0	27	0	624951296	66	4105
2026-01-06 22:14:51.89	47.13	16.24	-49.8	-51.1	14.6	0.00e+00	0	28	0	628097024	66	4047
2026-01-06 22:14:52.89	47.32	16.30	-49.7	-51.1	14.6	0.00e+00	0	27	0	631242752	66	4005
2026-01-06 22:14:53.89	47.51	16.36	-49.8	-51.1	14.6	0.00e+00	0	28	0	634388480	66	4023
2026-01-06 22:14:54.89	47.70	16.42	-49.9	-51.2	14.6	0.00e+00	0	27	0	637534208	66	4078
2026-01-06 22:14:55.90	47.89	16.48	-49.7	-51.0	14.6	0.00e+00	0	27	0	640679936	66	3984
2026-01-06 22:14:56.90	48.08	16.53	-49.9	-51.2	14.6	0.00e+00	0	28	0	643825664	66	4068
2026-01-06 22:14:57.91	48.27	16.59	-49.9	-51.3	14.5	0.00e+00	0	27	0	646971392	66	4099
2026-01-06 22:14:58.91	48.46	16.65	-50.0	-51.3	14.5	0.00e+00	0	28	0	650117120	66	4142
2026-01-06 22:14:59.90	48.65	16.71	-50.1	-51.4	14.4	0.00e+00	0	27	0	653262848	66	4189
2026-01-06 22:15:00.90	48.84	16.77	-50.1	-51.5	14.4	0.00e+00	0	27	0	656408576	66	4222
2026-01-06 22:15:01.90	49.03	16.83	-50.0	-51.4	14.5	0.00e+00	0	28	0	659554304	66	4169
2026-01-06 22:15:02.90	49.23	16.88	-50.0	-51.4	14.5	0.00e+00	0	28	0	662700032	66	4149
2026-01-06 22:15:03.90	49.42	16.94	-49.9	-51.3	14.5	0.00e+00	0	27	0	665845760	66	4118
2026-01-06 22:15:04.91	49.62	17.00	-49.8	-51.1	14.6	0.00e+00	0	28	0	668991488	66	4017
2026-01-06 22:15:05.91	49.81	17.06	-49.7	-51.0	14.6	0.00e+00	0	28	0	672137216	66	3999
2026-01-06 22:15:06.92	50.01	17.11	-49.6	-50.9	14.6	0.00e+00	0	28	0	675282944	65	4159
2026-01-06 22:15:07.92	50.21	17.17	-49.6	-50.9	14.6	0.00e+00	0	27	0	678428672	65	4166
2026-01-06 22:15:08.92	50.41	17.23	-49.6	-50.9	14.6	0.00e+00	0	27	0	681574400	65	4179
2026-01-06 22:15:09.92	50.61	17.28	-49.6	-50.9	14.6	0.00e+00	0	27	0	684720128	65	4171
2026-01-06 22:15:10.93	50.81	17.34	-49.7	-51.0	14.5	0.00e+00	0	27	0	687865856	65	4209
2026-01-06 22:15:11.93	51.01	17.40	-49.7	-51.0	14.5	0.00e+00	0	27	0	691011584	65	4235
2026-01-06 22:15:12.93	51.21	17.45	-49.6	-50.9	14.5	0.00e+00	0	28	0	694157312	65	4193
2026-01-06 22:15:13.93	51.41	17.51	-49.6	-50.9	14.5	0.00e+00	0	27	0	697303040	65	4190
2026-01-06 22:15:14.93	51.62	17.56	-49.7	-51.0	14.5	0.00e+00	0	27	0	700448768	65	4220
2026-01-06 22:15:15.93	51.82	17.62	-49.7	-51.0	14.5	0.00e+00	0	28	0	703594496	65	4241
2026-01-06 22:15:16.94	52.02	17.68	-49.5	-50.8	14.6	0.00e+00	0	27	0	706740224	65	4137
2026-01-06 22:15:17.94	52.23	17.73	-49.5	-50.8	14.6	0.00e+00	0	28	0	709885952	65	4138
2026-01-06 22:15:18.94	52.43	17.78	-49.5	-50.8	14.6	0.00e+00	0	28	0	713031680	65	4141
2026-01-06 22:15:19.93	52.64	17.84	-49.5	-50.8	14.6	0.00e+00	0	28	0	716177408	65	4112
2026-01-06 22:15:20.93	52.85	17.89	-49.6	-50.9	14.6	0.00e+00	0	28	0	719323136	65	4181
2026-01-06 22:15:21.93	53.05	17.95	-49.6	-50.9	14.6	0.00e+00	0	28	0	722468864	65	4162
2026-01-06 22:15:22.93	53.26	18.00	-49.5	-50.8	14.6	0.00e+00	0	28	0	725614592	65	4140
2026-01-06 22:15:23.94	53.47	18.05	-49.6	-50.9	14.6	0.00e+00	0	28	0	728760320	65	4188
2026-01-06 22:15:24.93	53.68	18.11	-49.5	-50.8	14.6	0.00e+00	0	27	0	731906048	65	4130
2026-01-06 22:15:25.92	53.89	18.16	-49.6	-50.8	14.6	0.00e+00	0	28	0	735051776	65	4137
2026-01-06 22:15:26.93	54.10	18.21	-49.5	-50.7	14.6	0.00e+00	0	27	0	738197504	65	4091
2026-01-06 22:15:27.93	54.31	18.26	-49.5	-50.8	14.6	0.00e+00	0	28	0	741343232	65	4125
2026-01-06 22:15:28.94	54.53	18.32	-49.5	-50.8	14.6	0.00e+00	0	27	0	744488960	65	4103
2026-01-06 22:15:29.93	54.74	18.37	-49.4	-50.7	14.7	0.00e+00	0	27	0	747634688	65	4053
2026-01-06 22:15:30.93	54.95	18.42	-49.3	-50.6	14.7	0.00e+00	0	27	0	750780416	65	4014
2026-01-06 22:15:31.92	55.17	18.47	-49.4	-50.6	14.7	0.00e+00	0	27	0	753926144	65	4035
2026-01-06 22:15:32.92	55.38	18.52	-49.3	-50.6	14.7	0.00e+00	0	28	0	757071872	65	4025
2026-01-06 22:15:33.92	55.60	18.57	-49.3	-50.6	14.7	0.00e+00	0	27	0	760217600	65	4028
2026-01-06 22:15:34.92	55.81	18.62	-49.3	-50.5	14.7	0.00e+00	0	28	0	763363328	65	3991
2026-01-06 22:15:35.92	56.03	18.67	-49.4	-50.7	14.7	0.00e+00	0	28	0	765460480	65	4071
2026-01-06 22:15:36.93	56.25	18.72	-49.4	-50.7	14.6	0.00e+00	0	28	0	768606208	65	4087
2026-01-06 22:15:37.94	56.47	18.77	-49.5	-50.8	14.6	0.00e+00	0	28	0	771751936	65	4128
2026-01-06 22:15:38.94	56.69	18.82	-49.4	-50.7	14.6	0.00e+00	0	27	0	774897664	65	4072
2026-01-06 22:15:39.94	56.91	18.87	-49.5	-50.8	14.6	0.00e+00	0	28	0	778043392	65	4125
2026-01-06 22:15:40.93	57.13	18.92	-49.4	-50.7	14.6	0.00e+00	0	28	0	781189120	65	4071
2026-01-06 22:15:41.94	57.36	18.97	-49.3	-50.6	14.7	0.00e+00	0	27	0	784334848	65	4016
2026-01-06 22:15:42.94	57.58	19.02	-49.1	-50.3	14.7	0.00e+00	0	28	0	787480576	64	4142
2026-01-06 22:15:43.94	57.80	19.06	-49.2	-50.4	14.6	0.00e+00	0	28	0	790626304	64	4183
2026-01-06 22:15:44.94	58.03	19.11	-49.3	-50.5	14.6	0.00e+00	0	28	0	793772032	64	4219
2026-01-06 22:15:45.94	58.25	19.16	-49.1	-50.4	14.7	0.00e+00	0	28	0	796917760	64	4147
2026-01-06 22:15:46.94	58.48	19.21	-49.1	-50.4	14.7	0.00e+00	0	28	0	800063488	64	4163
2026-01-06 22:15:47.94	58.70	19.25	-49.2	-50.5	14.6	0.00e+00	0	28	0	803209216	64	4218
2026-01-06 22:15:48.94	58.93	19.30	-49.4	-50.7	14.6	0.00e+00	0	28	0	806354944	64	4303
2026-01-06 22:15:49.93	59.15	19.34	-49.4	-50.7	14.6	0.00e+00	0	27	0	809500672	64	4297
2026-01-06 22:15:50.93	59.38	19.39	-49.4	-50.6	14.6	0.00e+00	0	27	0	812646400	64	4278
2026-01-06 22:15:51.93	59.61	19.43	-49.3	-50.6	14.6	0.00e+00	0	28	0	815792128	64	4244
2026-01-06 22:15:52.93	59.84	19.48	-49.1	-50.4	14.7	0.00e+00	0	27	0	818937856	64	4147
2026-01-06 22:15:53.93	60.07	19.52	-49.0	-50.2	14.7	0.00e+00	0	28	0	822083584	64	4094
2026-01-06 22:15:54.94	60.30	19.57	-48.9	-50.1	14.8	0.00e+00	0	27	0	825229312	64	4037
2026-01-06 22:15:55.93	60.53	19.61	-49.0	-50.2	14.7	0.00e+00	0	28	0	828375040	64	4076
2026-01-06 22:15:56.94	60.76	19.65	-48.8	-50.0	14.8	0.00e+00	0	28	0	831520768	64	3984
2026-01-06 22:15:57.95	61.00	19.69	-48.8	-50.0	14.8	0.00e+00	0	28	0	834666496	64	3978
2026-01-06 22:15:58.95	61.23	19.74	-48.9	-50.1	14.8	0.00e+00	0	28	0	837812224	64	4019
2026-01-06 22:15:59.95	61.46	19.78	-49.0	-50.3	14.7	0.00e+00	0	28	0	840957952	64	4101
2026-01-06 22:16:00.95	61.70	19.82	-49.0	-50.2	14.7	0.00e+00	0	28	0	844103680	64	4080
2026-01-06 22:16:01.94	61.93	19.86	-49.0	-50.3	14.7	0.00e+00	0	27	0	847249408	64	4103
2026-01-06 22:16:02.93	62.16	19.90	-48.9	-50.1	14.8	0.00e+00	0	28	0	850395136	64	4047
2026-01-06 22:16:03.94	62.40	19.94	-48.9	-50.1	14.7	0.00e+00	0	28	0	853540864	64	4047
2026-01-06 22:16:04.94	62.64	19.98	-49.0	-50.2	14.7	0.00e+00	0	28	0	856686592	64	4064
2026-01-06 22:16:05.94	62.88	20.02	-48.9	-50.1	14.8	0.00e+00	0	28	0	859832320	64	4017
2026-01-06 22:16:06.94	63.12	20.06	-48.8	-50.0	14.8	0.00e+00	0	28	0	862978048	64	3992
2026-01-06 22:16:07.95	63.36	20.10	-48.8	-50.0	14.8	0.00e+00	0	28	0	866123776	64	3983
2026-01-06 22:16:08.95	63.60	20.14	-48.9	-50.1	14.8	0.00e+00	0	28	0	869269504	64	4013
2026-01-06 22:16:09.95	63.83	20.17	-48.9	-50.1	14.8	0.00e+00	0	28	0	872415232	64	4040
2026-01-06 22:16:10.95	64.07	20.21	-48.9	-50.1	14.8	0.00e+00	0	28	0	875560960	64	4026
2026-01-06 22:16:11.94	64.31	20.25	-48.8	-50.0	14.8	0.00e+00	0	28	0	878706688	64	3993
2026-01-06 22:16:12.94	64.55	20.28	-48.8	-50.0	14.8	0.00e+00	0	28	0	881852416	64	3993
2026-01-06 22:16:13.93	64.79	20.32	-48.8	-50.0	14.8	0.00e+00	0	28	0	884998144	64	3992
2026-01-06 22:16:14.93	65.04	20.36	-48.8	-50.0	14.8	0.00e+00	0	28	0	888143872	64	3998
2026-01-06 22:16:15.93	65.28	20.39	-48.8	-50.0	14.8	0.00e+00	0	28	0	891289600	64	4002
2026-01-06 22:16:16.94	65.53	20.43	-49.0	-50.2	14.8	0.00e+00	0	27	0	894435328	64	4062
2026-01-06 22:16:17.93	65.77	20.46	-49.0	-50.2	14.7	0.00e+00	0	28	0	897581056	64	4094
2026-01-06 22:16:18.93	66.01	20.49	-49.0	-50.3	14.7	0.00e+00	0	28	0	900726784	64	4101
2026-01-06 22:16:19.93	66.26	20.53	-49.1	-50.3	14.7	0.00e+00	0	28	0	903872512	64	4126
2026-01-06 22:16:20.93	66.50	20.56	-49.0	-50.3	14.7	0.00e+00	0	28	0	907018240	64	4103
2026-01-06 22:16:21.93	66.75	20.59	-49.1	-50.4	14.7	0.00e+00	0	28	0	910163968	64	4164
2026-01-06 22:16:22.92	66.99	20.62	-49.0	-50.3	14.7	0.00e+00	0	28	0	913309696	64	4100
2026-01-06 22:16:23.93	67.24	20.65	-48.8	-50.0	14.8	0.00e+00	0	28	0	916455424	64	4002
2026-01-06 22:16:24.93	67.49	20.68	-48.9	-50.1	14.7	0.00e+00	0	28	0	919601152	64	4042
2026-01-06 22:16:25.92	67.74	20.71	-49.0	-50.3	14.7	0.00e+00	0	27	0	922746880	64	4105
2026-01-06 22:16:26.92	67.98	20.74	-49.1	-50.4	14.7	0.00e+00	0	28	0	924844032	64	4156
2026-01-06 22:16:27.91	68.23	20.77	-49.2	-50.4	14.6	0.00e+00	0	27	0	927989760	64	4183
2026-01-06 22:16:28.92	68.48	20.80	-49.2	-50.5	14.6	0.00e+00	0	27	0	931135488	64	4194
2026-01-06 22:16:29.91	68.73	20.83	-49.1	-50.4	14.7	0.00e+00	0	28	0	934281216	64	4161
2026-01-06 22:16:30.91	68.98	20.86	-49.2	-50.4	14.7	0.00e+00	0	28	0	937426944	64	4184
2026-01-06 22:16:31.90	69.23	20.88	-49.2	-50.5	14.6	0.00e+00	0	28	0	940572672	64	4195
2026-01-06 22:16:32.90	69.48	20.91	-49.0	-50.3	14.7	0.00e+00	0	28	0	943718400	64	4103
2026-01-06 22:16:33.90	69.73	20.94	-49.0	-50.2	14.7	0.00e+00	0	28	0	946864128	64	4071
2026-01-06 22:16:34.90	69.98	20.96	-49.1	-50.3	14.7	0.00e+00	0	27	0	950009856	64	4142
2026-01-06 22:16:35.90	70.24	20.99	-49.1	-50.4	14.7	0.00e+00	0	27	0	953155584	64	4156
2026-01-06 22:16:36.90	70.49	21.01	-49.1	-50.3	14.7	0.00e+00	0	28	0	956301312	64	4128
2026-01-06 22:16:37.90	70.74	21.04	-49.1	-50.3	14.7	0.00e+00	0	27	0	959447040	64	4134
2026-01-06 22:16:38.89	70.99	21.06	-49.2	-50.4	14.7	0.00e+00	0	28	0	962592768	64	4171
2026-01-06 22:16:39.89	71.25	21.08	-48.9	-50.1	14.8	0.00e+00	0	28	0	965738496	64	4037
2026-01-06 22:16:40.90	71.51	21.11	-49.0	-50.2	14.8	0.00e+00	0	28	0	968884224	64	4057
2026-01-06 22:16:41.89	71.76	21.13	-48.9	-50.1	14.8	0.00e+00	0	28	0	972029952	64	4013
2026-01-06 22:16:42.89	72.01	21.15	-48.9	-50.1	14.8	0.00e+00	0	28	0	975175680	64	4027
2026-01-06 22:16:43.89	72.27	21.17	-48.8	-50.0	14.8	0.00e+00	0	28	0	978321408	64	3997
2026-01-06 22:16:44.90	72.53	21.19	-48.9	-50.1	14.8	0.00e+00	0	28	0	981467136	64	4016
2026-01-06 22:16:45.89	72.78	21.21	-48.9	-50.1	14.8	0.00e+00	0	28	0	984612864	64	4033
2026-01-06 22:16:46.89	73.04	21.23	-48.8	-50.0	14.8	0.00e+00	0	28	0	987758592	64	3975
2026-01-06 22:16:47.88	73.29	21.25	-48.8	-50.0	14.8	0.00e+00	0	28	0	990904320	64	4002
2026-01-06 22:16:48.88	73.55	21.26	-48.9	-50.2	14.8	0.00e+00	0	28	0	994050048	64	4057
2026-01-06 22:16:49.88	73.81	21.28	-49.0	-50.2	14.7	0.00e+00	0	28	0	997195776	64	4068
2026-01-06 22:16:50.89	74.07	21.30	-49.0	-50.3	14.7	0.00e+00	0	27	0	1000341504	64	4107
2026-01-06 22:16:51.89	74.32	21.32	-48.9	-50.2	14.7	0.00e+00	0	28	0	1003487232	64	4058
2026-01-06 22:16:52.89	74.58	21.33	-48.9	-50.1	14.8	0.00e+00	0	28	0	1006632960	64	4036
2026-01-06 22:16:53.88	74.84	21.35	-48.9	-50.1	14.8	0.00e+00	0	28	0	1009778688	64	4041
2026-01-06 22:16:54.89	75.10	21.36	-48.9	-50.1	14.8	0.00e+00	0	28	0	1012924416	64	4034
2026-01-06 22:16:55.89	75.36	21.38	-48.9	-50.1	14.7	0.00e+00	0	28	0	1016070144	64	4039
2026-01-06 22:16:56.89	75.62	21.39	-48.9	-50.1	14.8	0.00e+00	0	28	0	1019215872	64	4034
2026-01-06 22:16:57.88	75.88	21.40	-48.9	-50.1	14.8	0.00e+00	0	28	0	1022361600	64	4010
2026-01-06 22:16:58.89	76.14	21.41	-48.9	-50.1	14.8	0.00e+00	0	28	0	1025507328	64	4039
2026-01-06 22:16:59.89	76.40	21.43	-48.9	-50.2	14.8	0.00e+00	0	28	0	1028653056	64	4063
2026-01-06 22:17:00.89	76.66	21.44	-49.0	-50.2	14.7	0.00e+00	0	28	0	1031798784	64	4066
2026-01-06 22:17:01.89	76.92	21.45	-48.9	-50.1	14.8	0.00e+00	0	27	0	1034944512	64	4021
2026-01-06 22:17:02.88	77.18	21.46	-48.8	-50.0	14.8	0.00e+00	0	28	0	1038090240	64	3978
2026-01-06 22:17:03.87	77.43	21.47	-48.8	-50.0	14.8	0.00e+00	0	28	0	1041235968	64	3979
2026-01-06 22:17:04.88	77.70	21.47	-48.9	-50.1	14.8	0.00e+00	0	28	0	1044381696	64	4024
2026-01-06 22:17:05.87	77.96	21.48	-48.9	-50.1	14.8	0.00e+00	0	28	0	1047527424	64	4031
2026-01-06 22:17:06.87	78.22	21.49	-49.0	-50.2	14.7	0.00e+00	0	28	0	1050673152	64	4077
2026-01-06 22:17:07.87	78.48	21.50	-48.9	-50.2	14.8	0.00e+00	0	28	0	1053818880	64	4055
2026-01-06 22:17:08.88	78.74	21.50	-48.7	-49.9	14.8	0.00e+00	0	28	0	1056964608	64	3937
2026-01-06 22:17:09.87	79.00	21.51	-48.7	-49.9	14.7	0.00e+00	0	28	0	1059061760	63	4165
2026-01-06 22:17:10.87	79.26	21.52	-48.7	-49.9	14.7	0.00e+00	0	27	0	1062207488	63	4180
2026-01-06 22:17:11.87	79.52	21.52	-48.8	-50.0	14.7	0.00e+00	0	28	0	1065353216	63	4204
2026-01-06 22:17:12.87	79.78	21.52	-48.9	-50.1	14.7	0.00e+00	0	28	0	1068498944	63	4278
2026-01-06 22:17:13.87	80.05	21.53	-48.9	-50.2	14.6	0.00e+00	0	28	0	1071644672	63	4298
2026-01-06 22:17:14.87	80.31	21.53	-48.9	-50.2	14.6	0.00e+00	0	28	0	1074790400	63	4305
2026-01-06 22:17:15.87	80.57	21.53	-49.0	-50.2	14.6	0.00e+00	0	28	0	1077936128	63	4305
2026-01-06 22:17:16.87	80.83	21.53	-49.0	-50.2	14.6	0.00e+00	0	28	0	1081081856	63	4332
2026-01-06 22:17:17.87	81.09	21.53	-49.0	-50.2	14.6	0.00e+00	0	28	0	1084227584	63	4323
2026-01-06 22:17:18.87	81.36	21.54	-49.1	-50.3	14.6	0.00e+00	0	28	0	1087373312	63	4362
2026-01-06 22:17:19.87	81.62	21.54	-49.0	-50.3	14.6	0.00e+00	0	28	0	1090519040	63	4352
2026-01-06 22:17:20.87	81.88	21.53	-49.0	-50.2	14.6	0.00e+00	0	28	0	1093664768	63	4338
2026-01-06 22:17:21.87	82.14	21.53	-49.1	-50.3	14.6	0.00e+00	0	28	0	1096810496	63	4368
2026-01-06 22:17:22.87	82.40	21.53	-49.1	-50.3	14.6	0.00e+00	0	28	0	1099956224	63	4381
2026-01-06 22:17:23.87	82.66	21.53	-48.9	-50.2	14.6	0.00e+00	0	28	0	1103101952	63	4295
2026-01-06 22:17:24.86	82.92	21.53	-48.8	-50.0	14.7	0.00e+00	0	28	0	1106247680	63	4218
2026-01-06 22:17:25.87	83.19	21.52	-48.8	-50.0	14.7	0.00e+00	0	28	0	1109393408	63	4206
2026-01-06 22:17:26.86	83.45	21.52	-48.9	-50.1	14.7	0.00e+00	0	28	0	1112539136	63	4260
2026-01-06 22:17:27.86	83.71	21.51	-49.0	-50.2	14.6	0.00e+00	0	28	0	1115684864	63	4298
2026-01-06 22:17:28.85	83.97	21.51	-49.0	-50.2	14.6	0.00e+00	0	28	0	1118830592	63	4337
2026-01-06 22:17:29.85	84.23	21.50	-48.9	-50.1	14.7	0.00e+00	0	28	0	1121976320	63	4267
2026-01-06 22:17:30.85	84.49	21.49	-48.8	-50.0	14.7	0.00e+00	0	28	0	1125122048	63	4197
2026-01-06 22:17:31.85	84.75	21.49	-48.8	-50.0	14.7	0.00e+00	0	28	0	1128267776	63	4204
2026-01-06 22:17:32.84	85.01	21.48	-48.6	-49.8	14.8	0.00e+00	0	27	0	1131413504	63	4137
2026-01-06 22:17:33.84	85.27	21.47	-48.7	-49.9	14.7	0.00e+00	0	28	0	1134559232	63	4150
2026-01-06 22:17:34.84	85.53	21.46	-48.7	-49.9	14.7	0.00e+00	0	28	0	1137704960	63	4186
2026-01-06 22:17:35.84	85.79	21.45	-48.8	-50.0	14.7	0.00e+00	0	28	0	1140850688	63	4226
2026-01-06 22:17:36.83	86.05	21.44	-48.9	-50.2	14.7	0.00e+00	0	28	0	1143996416	63	4297
2026-01-06 22:17:37.83	86.31	21.43	-48.9	-50.2	14.6	0.00e+00	0	28	0	1147142144	63	4296
2026-01-06 22:17:38.82	86.57	21.42	-49.1	-50.3	14.6	0.00e+00	0	28	0	1150287872	63	4365
2026-01-06 22:17:39.82	86.83	21.41	-49.0	-50.2	14.6	0.00e+00	0	27	0	1153433600	63	4326
2026-01-06 22:17:40.81	87.09	21.39	-49.0	-50.2	14.6	0.00e+00	0	28	0	1156579328	63	4332
2026-01-06 22:17:41.81	87.35	21.38	-49.0	-50.2	14.6	0.00e+00	0	28	0	1159725056	63	4320
2026-01-06 22:17:42.81	87.60	21.37	-49.1	-50.3	14.6	0.00e+00	0	28	0	1162870784	63	4363
2026-01-06 22:17:43.81	87.86	21.35	-49.0	-50.3	14.6	0.00e+00	0	28	0	1166016512	63	4351
2026-01-06 22:17:44.80	88.12	21.34	-49.0	-50.2	14.6	0.00e+00	0	28	0	1168113664	63	4317
2026-01-06 22:17:45.80	88.38	21.32	-49.0	-50.3	14.6	0.00e+00	0	28	0	1171259392	63	4357
2026-01-06 22:17:46.80	88.64	21.31	-48.9	-50.1	14.7	0.00e+00	0	28	0	1174405120	63	4257
2026-01-06 22:17:47.79	88.89	21.29	-48.8	-50.0	14.7	0.00e+00	0	28	0	1177550848	63	4236
2026-01-06 22:17:48.80	89.15	21.27	-48.8	-50.1	14.7	0.00e+00	0	28	0	1180696576	63	4246
2026-01-06 22:17:49.79	89.41	21.26	-49.0	-50.2	14.6	0.00e+00	0	28	0	1183842304	63	4306
2026-01-06 22:17:50.79	89.67	21.24	-49.0	-50.2	14.6	0.00e+00	0	28	0	1186988032	63	4330
2026-01-06 22:17:51.79	89.92	21.22	-49.0	-50.2	14.6	0.00e+00	0	28	0	1190133760	63	4322
2026-01-06 22:17:52.80	90.18	21.20	-49.0	-50.2	14.6	0.00e+00	0	28	0	1193279488	63	4323
2026-01-06 22:17:53.80	90.44	21.18	-49.0	-50.2	14.6	0.00e+00	0	28	0	1196425216	63	4338
2026-01-06 22:17:54.80	90.69	21.16	-49.0	-50.2	14.6	0.00e+00	0	28	0	1199570944	63	4311
2026-01-06 22:17:55.81	90.95	21.14	-48.9	-50.2	14.7	0.00e+00	0	28	0	1202716672	63	4296
2026-01-06 22:17:56.82	91.21	21.12	-49.0	-50.3	14.6	0.00e+00	0	28	0	1205862400	63	4353
2026-01-06 22:17:57.82	91.46	21.09	-48.9	-50.1	14.6	0.00e+00	0	27	0	1209008128	63	4290
2026-01-06 22:17:58.81	91.72	21.07	-48.8	-50.0	14.7	0.00e+00	0	28	0	1212153856	63	4202
2026-01-06 22:17:59.82	91.97	21.05	-48.8	-50.0	14.7	0.00e+00	0	28	0	1215299584	63	4238
2026-01-06 22:18:00.82	92.23	21.02	-48.8	-50.0	14.7	0.00e+00	0	28	0	1218445312	63	4208
2026-01-06 22:18:01.82	92.48	21.00	-48.8	-50.0	14.7	0.00e+00	0	28	0	1221591040	63	4224
2026-01-06 22:18:02.82	92.73	20.97	-48.9	-50.1	14.7	0.00e+00	0	28	0	1224736768	63	4277
2026-01-06 22:18:03.82	92.99	20.95	-49.0	-50.2	14.6	0.00e+00	0	27	0	1227882496	63	4316
2026-01-06 22:18:04.82	93.24	20.92	-49.0	-50.2	14.6	0.00e+00	0	28	0	1231028224	63	4315
2026-01-06 22:18:05.83	93.49	20.90	-48.9	-50.2	14.7	0.00e+00	0	28	0	1234173952	63	4295
2026-01-06 22:18:06.83	93.75	20.87	-48.8	-50.0	14.7	0.00e+00	0	28	0	1237319680	63	4239
2026-01-06 22:18:07.83	94.00	20.84	-48.8	-50.0	14.7	0.00e+00	0	28	0	1240465408	63	4235
2026-01-06 22:18:08.83	94.25	20.81	-48.9	-50.2	14.6	0.00e+00	0	28	0	1243611136	63	4295
2026-01-06 22:18:09.83	94.50	20.78	-49.0	-50.2	14.6	0.00e+00	0	28	0	1246756864	63	4329
2026-01-06 22:18:10.83	94.75	20.76	-49.0	-50.3	14.6	0.00e+00	0	28	0	1249902592	63	4352
2026-01-06 22:18:11.82	94.99	20.73	-49.1	-50.3	14.6	0.00e+00	0	28	0	1253048320	63	4380
2026-01-06 22:18:12.83	95.25	20.70	-49.0	-50.3	14.6	0.00e+00	0	28	0	1256194048	63	4341
2026-01-06 22:18:13.82	95.49	20.67	-49.0	-50.2	14.6	0.00e+00	0	28	0	1259339776	63	4313
2026-01-06 22:18:14.82	95.74	20.63	-49.0	-50.2	14.6	0.00e+00	0	28	0	1262485504	63	4312
2026-01-06 22:18:15.82	95.99	20.60	-49.0	-50.2	14.6	0.00e+00	0	27	0	1265631232	63	4324
2026-01-06 22:18:16.81	96.23	20.57	-49.0	-50.3	14.6	0.00e+00	0	28	0	1268776960	63	4347
2026-01-06 22:18:17.82	96.48	20.54	-48.9	-50.1	14.7	0.00e+00	0	28	0	1271922688	63	4271
2026-01-06 22:18:18.81	96.72	20.51	-48.9	-50.2	14.7	0.00e+00	0	28	0	1275068416	63	4296
2026-01-06 22:18:19.81	96.97	20.47	-48.9	-50.2	14.7	0.00e+00	0	28	0	1278214144	63	4302
2026-01-06 22:18:20.80	97.21	20.44	-49.0	-50.3	14.6	0.00e+00	0	28	0	1281359872	63	4357
2026-01-06 22:18:21.80	97.45	20.40	-49.1	-50.3	14.6	0.00e+00	0	28	0	1284505600	63	4381
2026-01-06 22:18:22.80	97.70	20.37	-49.0	-50.2	14.6	0.00e+00	0	28	0	1287651328	63	4339
2026-01-06 22:18:23.79	97.94	20.33	-49.0	-50.2	14.6	0.00e+00	0	28	0	1290797056	63	4337
2026-01-06 22:18:24.79	98.18	20.30	-49.1	-50.4	14.6	0.00e+00	0	28	0	1293942784	63	4394
2026-01-06 22:18:25.79	98.42	20.26	-49.1	-50.3	14.6	0.00e+00	0	28	0	1297088512	63	4368
2026-01-06 22:18:26.78	98.66	20.23	-49.1	-50.3	14.6	0.00e+00	0	28	0	1300234240	63	4375
2026-01-06 22:18:27.78	98.90	20.19	-49.0	-50.2	14.6	0.00e+00	0	28	0	1303379968	63	4337
2026-01-06 22:18:28.77	99.14	20.15	-48.8	-50.1	14.7	0.00e+00	0	28	0	1306525696	63	4243
2026-01-06 22:18:29.77	99.38	20.11	-48.9	-50.1	14.6	0.00e+00	0	28	0	1309671424	63	4288
2026-01-06 22:18:30.77	99.62	20.07	-48.9	-50.1	14.7	0.00e+00	0	28	0	1312817152	63	4263
2026-01-06 22:18:31.77	99.86	20.04	-48.9	-50.2	14.6	0.00e+00	0	28	0	1315962880	63	4292
2026-01-06 22:18:32.77	100.10	20.00	-48.9	-50.1	14.7	0.00e+00	0	28	0	1319108608	63	4284
2026-01-06 22:18:33.77	100.34	19.96	-49.1	-50.3	14.6	0.00e+00	0	28	0	1322254336	63	4360
2026-01-06 22:18:34.77	100.57	19.92	-49.1	-50.3	14.6	0.00e+00	0	28	0	1324351488	63	4389
2026-01-06 22:18:35.77	100.81	19.88	-49.0	-50.3	14.6	0.00e+00	0	28	0	1327497216	63	4361
2026-01-06 22:18:36.76	101.04	19.83	-49.1	-50.3	14.6	0.00e+00	0	28	0	1330642944	63	4379
2026-01-06 22:18:37.75	101.28	19.79	-49.0	-50.3	14.6	0.00e+00	0	28	0	1333788672	63	4356
2026-01-06 22:18:38.74	101.51	19.75	-49.1	-50.3	14.6	0.00e+00	0	28	0	1336934400	63	4376
2026-01-06 22:18:39.74	101.74	19.71	-49.0	-50.3	14.6	0.00e+00	0	28	0	1340080128	63	4359
2026-01-06 22:18:40.74	101.98	19.67	-49.0	-50.3	14.6	0.00e+00	0	28	0	1343225856	63	4356
2026-01-06 22:18:41.73	102.21	19.62	-49.1	-50.3	14.6	0.00e+00	0	28	0	1346371584	63	4369
2026-01-06 22:18:42.72	102.44	19.58	-49.0	-50.2	14.6	0.00e+00	0	28	0	1349517312	63	4313
2026-01-06 22:18:43.71	102.66	19.54	-49.0	-50.3	14.6	0.00e+00	0	28	0	1352663040	63	4358
2026-01-06 22:18:44.71	102.89	19.49	-49.1	-50.3	14.6	0.00e+00	0	28	0	1355808768	63	4381
2026-01-06 22:18:45.71	103.12	19.45	-49.2	-50.4	14.6	0.00e+00	0	28	0	1358954496	63	4438
2026-01-06 22:18:46.72	103.36	19.40	-49.2	-50.5	14.5	0.00e+00	0	28	0	1362100224	63	4467
2026-01-06 22:18:47.71	103.58	19.36	-49.0	-50.3	14.6	0.00e+00	0	28	0	1365245952	63	4349
2026-01-06 22:18:48.71	103.81	19.31	-49.1	-50.4	14.6	0.00e+00	0	28	0	1368391680	63	4408
2026-01-06 22:18:49.71	104.04	19.27	-49.2	-50.4	14.5	0.00e+00	0	28	0	1371537408	63	4425
2026-01-06 22:18:50.71	104.27	19.22	-49.1	-50.4	14.6	0.00e+00	0	28	0	1374683136	63	4412
2026-01-06 22:18:51.71	104.49	19.18	-49.1	-50.4	14.6	0.00e+00	0	28	0	1377828864	63	4397
2026-01-06 22:18:52.71	104.72	19.13	-49.1	-50.4	14.6	0.00e+00	0	28	0	1380974592	63	4411
2026-01-06 22:18:53.71	104.94	19.08	-49.3	-50.5	14.5	0.00e+00	0	28	0	1384120320	63	4477
2026-01-06 22:18:54.71	105.17	19.03	-49.3	-50.6	14.5	0.00e+00	0	28	0	1387266048	63	4500
2026-01-06 22:18:55.71	105.39	18.99	-49.3	-50.6	14.5	0.00e+00	0	28	0	1390411776	63	4531
2026-01-06 22:18:56.71	105.61	18.94	-49.4	-50.7	14.5	0.00e+00	0	28	0	1393557504	63	4572
2026-01-06 22:18:57.71	105.83	18.89	-49.5	-50.8	14.5	0.00e+00	0	28	0	1396703232	64	4350
2026-01-06 22:18:58.71	106.06	18.84	-49.4	-50.7	14.5	0.00e+00	0	28	0	1399848960	64	4326
2026-01-06 22:18:59.70	106.27	18.79	-49.4	-50.6	14.6	0.00e+00	0	28	0	1402994688	64	4279
2026-01-06 22:19:00.69	106.49	18.74	-49.3	-50.5	14.6	0.00e+00	0	28	0	1406140416	64	4225
2026-01-06 22:19:01.69	106.71	18.69	-49.3	-50.5	14.6	0.00e+00	0	28	0	1409286144	64	4235
2026-01-06 22:19:02.68	106.93	18.64	-49.2	-50.5	14.6	0.00e+00	0	28	0	1412431872	64	4197
2026-01-06 22:19:03.67	107.14	18.59	-49.2	-50.5	14.6	0.00e+00	0	28	0	1415577600	64	4197
2026-01-06 22:19:04.68	107.36	18.54	-49.1	-50.3	14.7	0.00e+00	0	28	0	1418723328	64	4124
2026-01-06 22:19:05.68	107.58	18.49	-49.1	-50.4	14.7	0.00e+00	0	28	0	1421869056	64	4148
2026-01-06 22:19:06.69	107.80	18.44	-49.0	-50.2	14.7	0.00e+00	0	28	0	1425014784	64	4082
2026-01-06 22:19:07.68	108.01	18.39	-49.0	-50.2	14.7	0.00e+00	0	28	0	1428160512	64	4094
2026-01-06 22:19:08.67	108.22	18.33	-49.0	-50.2	14.7	0.00e+00	0	28	0	1431306240	64	4090
2026-01-06 22:19:09.68	108.44	18.28	-49.1	-50.3	14.7	0.00e+00	0	28	0	1434451968	64	4137
2026-01-06 22:19:10.67	108.65	18.23	-49.2	-50.4	14.6	0.00e+00	0	28	0	1436549120	64	4191
2026-01-06 22:19:11.67	108.86	18.18	-49.3	-50.6	14.6	0.00e+00	0	28	0	1439694848	64	4261
2026-01-06 22:19:12.67	109.07	18.12	-49.5	-50.7	14.5	0.00e+00	0	28	0	1442840576	64	4333
2026-01-06 22:19:13.68	109.29	18.07	-49.5	-50.8	14.5	0.00e+00	0	28	0	1445986304	64	4359
2026-01-06 22:19:14.68	109.50	18.02	-49.6	-50.9	14.5	0.00e+00	0	28	0	1449132032	64	4404
2026-01-06 22:19:15.68	109.70	17.96	-49.6	-50.9	14.5	0.00e+00	0	28	0	1452277760	64	4421
2026-01-06 22:19:16.68	109.91	17.91	-49.6	-50.9	14.5	0.00e+00	0	28	0	1455423488	64	4421
2026-01-06 22:19:17.68	110.12	17.85	-49.5	-50.8	14.5	0.00e+00	0	28	0	1458569216	64	4353
2026-01-06 22:19:18.68	110.33	17.80	-49.5	-50.8	14.5	0.00e+00	0	28	0	1461714944	64	4372
2026-01-06 22:19:19.68	110.54	17.74	-49.5	-50.8	14.5	0.00e+00	0	28	0	1464860672	64	4362
2026-01-06 22:19:20.69	110.74	17.69	-49.4	-50.7	14.5	0.00e+00	0	28	0	1468006400	64	4329
2026-01-06 22:19:21.69	110.95	17.63	-49.6	-50.9	14.5	0.00e+00	0	28	0	1471152128	64	4403
2026-01-06 22:19:22.70	111.15	17.58	-49.5	-50.8	14.5	0.00e+00	0	28	0	1474297856	64	4344
2026-01-06 22:19:23.70	111.36	17.52	-49.4	-50.6	14.6	0.00e+00	0	28	0	1477443584	64	4289
2026-01-06 22:19:24.70	111.56	17.47	-49.5	-50.8	14.5	0.00e+00	0	28	0	1480589312	64	4369
2026-01-06 22:19:25.69	111.76	17.41	-49.5	-50.8	14.5	0.00e+00	0	28	0	1483735040	64	4364
2026-01-06 22:19:26.69	111.96	17.35	-49.6	-50.9	14.5	0.00e+00	0	28	0	1486880768	64	4440
2026-01-06 22:19:27.68	112.16	17.30	-49.7	-51.1	14.4	0.00e+00	0	28	0	1490026496	64	4506
2026-01-06 22:19:28.69	112.36	17.24	-49.9	-51.2	14.4	0.00e+00	0	28	0	1493172224	64	4572
2026-01-06 22:19:29.69	112.56	17.18	-49.9	-51.2	14.5	0.00e+00	0	28	0	1496317952	65	4319
2026-01-06 22:19:30.70	112.76	17.13	-49.9	-51.2	14.4	0.00e+00	0	28	0	1499463680	65	4334
2026-01-06 22:19:31.70	112.96	17.07	-49.8	-51.2	14.5	0.00e+00	0	28	0	1502609408	65	4292
2026-01-06 22:19:32.70	113.16	17.01	-49.6	-50.9	14.5	0.00e+00	0	28	0	1505755136	65	4192
2026-01-06 22:19:33.71	113.36	16.95	-49.6	-50.9	14.6	0.00e+00	0	28	0	1508900864	65	4155
2026-01-06 22:19:34.71	113.55	16.90	-49.5	-50.8	14.6	0.00e+00	0	28	0	1512046592	65	4110
2026-01-06 22:19:35.71	113.75	16.84	-49.5	-50.8	14.6	0.00e+00	0	28	0	1515192320	65	4099
2026-01-06 22:19:36.70	113.94	16.78	-49.5	-50.8	14.6	0.00e+00	0	28	0	1518338048	65	4139
2026-01-06 22:19:37.71	114.13	16.72	-49.5	-50.8	14.6	0.00e+00	0	28	0	1521483776	65	4125
2026-01-06 22:19:38.70	114.32	16.66	-49.6	-51.0	14.5	0.00e+00	0	28	0	1524629504	65	4197
2026-01-06 22:19:39.70	114.52	16.60	-49.8	-51.1	14.5	0.00e+00	0	28	0	1527775232	65	4258
2026-01-06 22:19:40.69	114.70	16.55	-49.8	-51.2	14.5	0.00e+00	0	28	0	1530920960	65	4308
2026-01-06 22:19:41.68	114.89	16.49	-49.9	-51.2	14.5	0.00e+00	0	28	0	1534066688	65	4308
2026-01-06 22:19:42.68	115.08	16.43	-50.0	-51.4	14.4	0.00e+00	0	28	0	1537212416	65	4402
2026-01-06 22:19:43.68	115.27	16.37	-50.0	-51.3	14.4	0.00e+00	0	28	0	1540358144	65	4382
2026-01-06 22:19:44.68	115.46	16.31	-50.0	-51.3	14.4	0.00e+00	0	28	0	1543503872	65	4389
2026-01-06 22:19:45.68	115.65	16.25	-49.9	-51.3	14.4	0.00e+00	0	28	0	1546649600	65	4366
2026-01-06 22:19:46.68	115.83	16.19	-50.0	-51.3	14.4	0.00e+00	0	28	0	1549795328	65	4381
2026-01-06 22:19:47.68	116.02	16.13	-50.0	-51.3	14.4	0.00e+00	0	28	0	1552941056	65	4376
2026-01-06 22:19:48.68	116.21	16.07	-49.9	-51.2	14.4	0.00e+00	0	28	0	1556086784	65	4336
2026-01-06 22:19:49.68	116.39	16.01	-49.9	-51.2	14.4	0.00e+00	0	28	0	1559232512	65	4330
2026-01-06 22:19:50.67	116.57	15.95	-49.9	-51.3	14.4	0.00e+00	0	28	0	1562378240	65	4352
2026-01-06 22:19:51.67	116.76	15.89	-49.8	-51.2	14.4	0.00e+00	0	28	0	1565523968	65	4302
2026-01-06 22:19:52.67	116.94	15.83	-49.9	-51.3	14.4	0.00e+00	0	28	0	1568669696	65	4350
2026-01-06 22:19:53.68	117.12	15.77	-49.8	-51.2	14.4	0.00e+00	0	28	0	1571815424	65	4302
2026-01-06 22:19:54.68	117.30	15.71	-49.9	-51.3	14.4	0.00e+00	0	28	0	1574961152	65	4350
2026-01-06 22:19:55.68	117.48	15.64	-49.9	-51.3	14.4	0.00e+00	0	28	0	1578106880	65	4349
2026-01-06 22:19:56.68	117.66	15.58	-49.9	-51.2	14.4	0.00e+00	0	28	0	1581252608	65	4325
2026-01-06 22:19:57.68	117.84	15.52	-49.8	-51.2	14.5	0.00e+00	0	28	0	1584398336	65	4303
2026-01-06 22:19:58.69	118.02	15.46	-49.9	-51.2	14.4	0.00e+00	0	28	0	1587544064	65	4327
2026-01-06 22:19:59.69	118.20	15.40	-49.8	-51.2	14.4	0.00e+00	0	28	0	1590689792	65	4311
2026-01-06 22:20:00.69	118.38	15.34	-49.9	-51.2	14.4	0.00e+00	0	28	0	1593835520	65	4319
2026-01-06 22:20:01.69	118.55	15.28	-49.8	-51.1	14.5	0.00e+00	0	28	0	1595932672	65	4285
2026-01-06 22:20:02.69	118.73	15.21	-49.7	-51.0	14.5	0.00e+00	0	28	0	1599078400	65	4241
2026-01-06 22:20:03.69	118.90	15.15	-49.7	-51.1	14.5	0.00e+00	0	28	0	1602224128	65	4257
2026-01-06 22:20:04.69	119.08	15.09	-49.9	-51.2	14.4	0.00e+00	0	28	0	1605369856	65	4325
2026-01-06 22:20:05.69	119.25	15.03	-50.0	-51.3	14.4	0.00e+00	0	28	0	1608515584	65	4383
2026-01-06 22:20:06.68	119.42	14.97	-49.8	-51.2	14.4	0.00e+00	0	28	0	1611661312	65	4302
2026-01-06 22:20:07.69	119.60	14.90	-49.9	-51.3	14.4	0.00e+00	0	28	0	1614807040	65	4361
2026-01-06 22:20:08.69	119.77	14.84	-49.8	-51.2	14.5	0.00e+00	0	28	0	1617952768	65	4303
2026-01-06 22:20:09.68	119.94	14.78	-49.8	-51.1	14.5	0.00e+00	0	28	0	1621098496	65	4272
2026-01-06 22:20:10.68	120.11	14.72	-49.7	-51.1	14.5	0.00e+00	0	28	0	1624244224	65	4244
2026-01-06 22:20:11.68	120.27	14.66	-49.8	-51.1	14.5	0.00e+00	0	28	0	1627389952	65	4271
2026-01-06 22:20:12.69	120.44	14.59	-49.8	-51.1	14.5	0.00e+00	0	28	0	1630535680	65	4290
2026-01-06 22:20:13.69	120.61	14.53	-49.8	-51.1	14.4	0.00e+00	0	28	0	1633681408	65	4277
2026-01-06 22:20:14.69	120.78	14.47	-49.5	-50.8	14.6	0.00e+00	0	28	0	1636827136	65	4144
2026-01-06 22:20:15.70	120.95	14.40	-49.4	-50.7	14.6	0.00e+00	0	28	0	1639972864	65	4080
2026-01-06 22:20:16.70	121.11	14.34	-49.5	-50.8	14.6	0.00e+00	0	28	0	1643118592	65	4112
2026-01-06 22:20:17.70	121.28	14.28	-49.6	-50.9	14.5	0.00e+00	0	28	0	1646264320	65	4171
2026-01-06 22:20:18.70	121.44	14.22	-49.6	-50.9	14.5	0.00e+00	0	28	0	1649410048	65	4182
2026-01-06 22:20:19.70	121.61	14.15	-49.6	-50.8	14.6	0.00e+00	0	28	0	1652555776	65	4145
2026-01-06 22:20:20.70	121.77	14.09	-49.6	-50.9	14.5	0.00e+00	0	28	0	1655701504	65	4157
2026-01-06 22:20:21.71	121.93	14.03	-49.6	-50.9	14.5	0.00e+00	0	28	0	1658847232	65	4193
2026-01-06 22:20:22.71	122.10	13.96	-49.6	-50.9	14.5	0.00e+00	0	28	0	1661992960	65	4182
2026-01-06 22:20:23.71	122.26	13.90	-49.8	-51.1	14.4	0.00e+00	0	28	0	1665138688	65	4278
2026-01-06 22:20:24.72	122.42	13.84	-49.9	-51.2	14.4	0.00e+00	0	28	0	1668284416	65	4327
2026-01-06 22:20:25.72	122.58	13.77	-49.9	-51.3	14.4	0.00e+00	0	28	0	1671430144	65	4357
2026-01-06 22:20:26.72	122.74	13.71	-50.0	-51.4	14.3	0.00e+00	0	28	0	1674575872	65	4401
2026-01-06 22:20:27.71	122.89	13.65	-49.9	-51.3	14.4	0.00e+00	0	28	0	1677721600	65	4367
2026-01-06 22:20:28.72	123.05	13.58	-50.1	-51.4	14.3	0.00e+00	0	28	0	1680867328	65	4440
2026-01-06 22:20:29.71	123.21	13.52	-50.1	-51.5	14.3	0.00e+00	0	28	0	1684013056	65	4458
2026-01-06 22:20:30.72	123.37	13.46	-50.1	-51.5	14.3	0.00e+00	0	28	0	1687158784	65	4483
2026-01-06 22:20:31.71	123.52	13.39	-50.0	-51.4	14.3	0.00e+00	0	28	0	1690304512	65	4425
2026-01-06 22:20:32.71	123.68	13.33	-50.2	-51.6	14.2	0.00e+00	0	28	0	1693450240	65	4522
2026-01-06 22:20:33.70	123.83	13.27	-50.2	-51.6	14.3	0.00e+00	0	28	0	1696595968	65	4509
2026-01-06 22:20:34.70	123.98	13.20	-50.1	-51.5	14.3	0.00e+00	0	28	0	1699741696	65	4476
2026-01-06 22:20:35.70	124.14	13.14	-50.2	-51.6	14.3	0.00e+00	0	28	0	1702887424	65	4494
2026-01-06 22:20:36.70	124.29	13.08	-50.1	-51.5	14.3	0.00e+00	0	28	0	1706033152	65	4447
2026-01-06 22:20:37.70	124.44	13.01	-50.3	-51.7	14.2	0.00e+00	0	28	0	1709178880	65	4564
2026-01-06 22:20:38.71	124.60	12.95	-50.3	-51.8	14.2	0.00e+00	0	28	0	1712324608	65	4610
2026-01-06 22:20:39.71	124.75	12.89	-50.2	-51.7	14.2	0.00e+00	0	28	0	1715470336	65	4556
2026-01-06 22:20:40.70	124.89	12.82	-50.4	-51.8	14.1	0.00e+00	0	28	0	1718616064	65	4645
2026-01-06 22:20:41.69	125.04	12.76	-50.5	-52.0	14.2	0.00e+00	0	28	0	1721761792	66	4460
2026-01-06 22:20:42.70	125.19	12.70	-50.6	-52.0	14.1	0.00e+00	0	28	0	1724907520	66	4491
2026-01-06 22:20:43.70	125.34	12.63	-50.5	-52.0	14.2	0.00e+00	0	28	0	1728053248	66	4442
2026-01-06 22:20:44.69	125.49	12.57	-50.4	-51.8	14.2	0.00e+00	0	28	0	1731198976	66	4377
2026-01-06 22:20:45.69	125.63	12.51	-50.3	-51.7	14.3	0.00e+00	0	28	0	1734344704	66	4317
2026-01-06 22:20:46.69	125.78	12.44	-50.2	-51.7	14.3	0.00e+00	0	28	0	1737490432	66	4294
2026-01-06 22:20:47.69	125.93	12.38	-50.1	-51.5	14.4	0.00e+00	0	28	0	1740636160	66	4226
2026-01-06 22:20:48.68	126.07	12.32	-50.1	-51.5	14.4	0.00e+00	0	28	0	1743781888	66	4231
2026-01-06 22:20:49.67	126.21	12.25	-50.1	-51.5	14.4	0.00e+00	0	28	0	1746927616	66	4217
2026-01-06 22:20:50.68	126.36	12.19	-50.1	-51.5	14.3	0.00e+00	0	28	0	1750073344	66	4229
2026-01-06 22:20:51.67	126.50	12.13	-50.1	-51.5	14.4	0.00e+00	0	28	0	1752170496	66	4200
2026-01-06 22:20:52.67	126.64	12.06	-50.1	-51.5	14.3	0.00e+00	0	28	0	1755316224	66	4235
2026-01-06 22:20:53.67	126.79	12.00	-50.2	-51.7	14.3	0.00e+00	0	28	0	1758461952	66	4294
2026-01-06 22:20:54.66	126.93	11.94	-50.3	-51.7	14.3	0.00e+00	0	28	0	1761607680	66	4310
2026-01-06 22:20:55.66	127.07	11.87	-50.3	-51.8	14.3	0.00e+00	0	28	0	1764753408	66	4346
2026-01-06 22:20:56.66	127.21	11.81	-50.4	-51.8	14.2	0.00e+00	0	28	0	1767899136	66	4383
2026-01-06 22:20:57.66	127.35	11.75	-50.3	-51.8	14.3	0.00e+00	0	28	0	1771044864	66	4348
2026-01-06 22:20:58.66	127.49	11.68	-50.5	-52.0	14.2	0.00e+00	0	28	0	1774190592	66	4459
2026-01-06 22:20:59.66	127.63	11.62	-50.6	-52.0	14.1	0.00e+00	0	28	0	1777336320	66	4490
2026-01-06 22:21:00.65	127.76	11.56	-50.5	-52.0	14.2	0.00e+00	0	28	0	1780482048	66	4468
2026-01-06 22:21:01.66	127.90	11.49	-50.6	-52.1	14.1	0.00e+00	0	28	0	1783627776	66	4523
2026-01-06 22:21:02.66	128.04	11.43	-50.6	-52.1	14.1	0.00e+00	0	28	0	1786773504	66	4505
2026-01-06 22:21:03.67	128.18	11.36	-50.7	-52.2	14.1	0.00e+00	0	28	0	1789919232	66	4585
2026-01-06 22:21:04.67	128.31	11.30	-50.6	-52.1	14.1	0.00e+00	0	28	0	1793064960	66	4499
2026-01-06 22:21:05.67	128.45	11.24	-50.5	-52.0	14.1	0.00e+00	0	28	0	1796210688	66	4483
2026-01-06 22:21:06.66	128.58	11.17	-50.5	-52.0	14.1	0.00e+00	0	28	0	1799356416	66	4466
2026-01-06 22:21:07.66	128.72	11.11	-50.5	-52.0	14.1	0.00e+00	0	28	0	1802502144	66	4462
2026-01-06 22:21:08.66	128.85	11.05	-50.5	-52.0	14.2	0.00e+00	0	28	0	1805647872	66	4448
2026-01-06 22:21:09.65	128.98	10.99	-50.4	-51.9	14.2	0.00e+00	0	28	0	1808793600	66	4402
2026-01-06 22:21:10.65	129.11	10.92	-50.4	-51.9	14.2	0.00e+00	0	28	0	1811939328	66	4402
2026-01-06 22:21:11.66	129.25	10.86	-50.5	-52.0	14.1	0.00e+00	0	28	0	1815085056	66	4445
2026-01-06 22:21:12.66	129.38	10.80	-50.5	-52.0	14.1	0.00e+00	0	28	0	1818230784	66	4455
2026-01-06 22:21:13.66	129.51	10.73	-50.6	-52.1	14.1	0.00e+00	0	28	0	1821376512	66	4502
2026-01-06 22:21:14.66	129.64	10.67	-50.7	-52.2	14.0	0.00e+00	0	28	0	1824522240	66	4566
2026-01-06 22:21:15.66	129.77	10.61	-50.7	-52.2	14.0	0.00e+00	0	28	0	1827667968	66	4582
2026-01-06 22:21:16.65	129.90	10.54	-50.6	-52.1	14.1	0.00e+00	0	28	0	1830813696	66	4539
2026-01-06 22:21:17.66	130.03	10.48	-50.7	-52.3	14.0	0.00e+00	0	28	0	1833959424	66	4612
2026-01-06 22:21:18.67	130.16	10.42	-50.8	-52.3	14.0	0.00e+00	0	28	0	1837105152	66	4647
2026-01-06 22:21:19.66	130.28	10.35	-50.6	-52.1	14.1	0.00e+00	0	28	0	1840250880	66	4528
2026-01-06 22:21:20.66	130.41	10.29	-50.7	-52.3	14.0	0.00e+00	0	28	0	1843396608	66	4607
2026-01-06 22:21:21.66	130.54	10.23	-50.7	-52.2	14.0	0.00e+00	0	28	0	1846542336	66	4571
2026-01-06 22:21:22.66	130.66	10.17	-50.7	-52.3	14.0	0.00e+00	0	28	0	1849688064	66	4613
2026-01-06 22:21:23.66	130.79	10.10	-50.7	-52.3	14.0	0.00e+00	0	28	0	1852833792	66	4600
2026-01-06 22:21:24.65	130.91	10.04	-50.7	-52.3	14.0	0.00e+00	0	28	0	1855979520	66	4618
2026-01-06 22:21:25.65	131.04	9.98	-50.7	-52.3	14.0	0.00e+00	0	28	0	1859125248	66	4610
2026-01-06 22:21:26.66	131.16	9.91	-50.8	-52.4	14.0	0.00e+00	0	28	0	1862270976	66	4654
2026-01-06 22:21:27.66	131.29	9.85	-50.8	-52.4	14.0	0.00e+00	0	28	0	1865416704	66	4673
2026-01-06 22:21:28.64	131.41	9.79	-50.9	-52.4	13.9	0.00e+00	0	28	0	1868562432	66	4705
2026-01-06 22:21:29.65	131.53	9.73	-50.8	-52.4	14.0	0.00e+00	0	28	0	1871708160	67	4410
2026-01-06 22:21:30.65	131.65	9.66	-50.8	-52.4	14.0	0.00e+00	0	28	0	1874853888	67	4397
2026-01-06 22:21:31.65	131.78	9.60	-50.7	-52.2	14.1	0.00e+00	0	28	0	1877999616	67	4334
2026-01-06 22:21:32.65	131.90	9.54	-50.8	-52.4	14.0	0.00e+00	0	28	0	1881145344	67	4396
2026-01-06 22:21:33.66	132.02	9.48	-50.8	-52.3	14.1	0.00e+00	0	28	0	1884291072	67	4382
2026-01-06 22:21:34.65	132.14	9.42	-50.8	-52.4	14.0	0.00e+00	0	28	0	1886388224	67	4408
2026-01-06 22:21:35.65	132.26	9.35	-50.9	-52.4	14.0	0.00e+00	0	28	0	1889533952	67	4421
2026-01-06 22:21:36.65	132.38	9.29	-50.9	-52.4	14.0	0.00e+00	0	28	0	1892679680	67	4440
2026-01-06 22:21:37.65	132.50	9.23	-50.9	-52.5	14.0	0.00e+00	0	28	0	1895825408	67	4469
2026-01-06 22:21:38.65	132.61	9.17	-51.0	-52.6	13.9	0.00e+00	0	28	0	1898971136	67	4505
2026-01-06 22:21:39.64	132.73	9.11	-50.9	-52.4	14.0	0.00e+00	0	28	0	1902116864	67	4430
2026-01-06 22:21:40.63	132.85	9.04	-50.8	-52.3	14.1	0.00e+00	0	28	0	1905262592	67	4370
2026-01-06 22:21:41.63	132.96	8.98	-50.8	-52.4	14.0	0.00e+00	0	28	0	1908408320	67	4428
2026-01-06 22:21:42.63	133.08	8.92	-50.8	-52.3	14.0	0.00e+00	0	28	0	1911554048	67	4389
2026-01-06 22:21:43.63	133.19	8.86	-50.8	-52.4	14.0	0.00e+00	0	28	0	1914699776	67	4393
2026-01-06 22:21:44.63	133.31	8.80	-50.8	-52.4	14.0	0.00e+00	0	28	0	1917845504	67	4410
2026-01-06 22:21:45.63	133.42	8.73	-50.8	-52.3	14.0	0.00e+00	0	28	0	1920991232	67	4388
2026-01-06 22:21:46.62	133.54	8.67	-51.0	-52.6	13.9	0.00e+00	0	28	0	1924136960	67	4527
2026-01-06 22:21:47.63	133.65	8.61	-51.0	-52.6	13.9	0.00e+00	0	28	0	1927282688	67	4530
2026-01-06 22:21:48.63	133.77	8.55	-51.1	-52.7	13.8	0.00e+00	0	28	0	1930428416	67	4586
2026-01-06 22:21:49.63	133.88	8.49	-51.2	-52.9	13.8	0.00e+00	0	28	0	1933574144	67	4685
2026-01-06 22:21:50.63	133.99	8.43	-51.3	-53.0	13.7	0.00e+00	0	28	0	1936719872	67	4736
2026-01-06 22:21:51.63	134.10	8.37	-51.2	-52.9	13.8	0.00e+00	0	28	0	1939865600	67	4685
2026-01-06 22:21:52.63	134.22	8.30	-51.0	-52.6	13.9	0.00e+00	0	28	0	1943011328	67	4497
2026-01-06 22:21:53.63	134.33	8.24	-50.9	-52.6	13.9	0.00e+00	0	28	0	1946157056	67	4494
2026-01-06 22:21:54.63	134.44	8.18	-50.9	-52.5	13.9	0.00e+00	0	28	0	1949302784	67	4481
2026-01-06 22:21:55.63	134.55	8.12	-50.9	-52.5	13.9	0.00e+00	0	28	0	1952448512	67	4480
2026-01-06 22:21:56.62	134.66	8.06	-50.9	-52.5	13.9	0.00e+00	0	28	0	1955594240	67	4469
2026-01-06 22:21:57.63	134.77	8.00	-50.9	-52.5	14.0	0.00e+00	0	28	0	1958739968	67	4446
2026-01-06 22:21:58.63	134.88	7.94	-50.8	-52.4	14.0	0.00e+00	0	28	0	1961885696	67	4429
2026-01-06 22:21:59.63	134.98	7.88	-50.9	-52.5	13.9	0.00e+00	0	28	0	1965031424	67	4485
2026-01-06 22:22:00.63	135.09	7.82	-51.1	-52.8	13.8	0.00e+00	0	28	0	1968177152	67	4613
2026-01-06 22:22:01.63	135.20	7.75	-51.2	-52.8	13.8	0.00e+00	0	28	0	1971322880	67	4649
2026-01-06 22:22:02.63	135.31	7.69	-51.0	-52.6	13.9	0.00e+00	0	28	0	1974468608	67	4511
2026-01-06 22:22:03.63	135.41	7.63	-50.9	-52.5	13.9	0.00e+00	0	28	0	1977614336	67	4450
2026-01-06 22:22:04.63	135.52	7.57	-50.9	-52.5	13.9	0.00e+00	0	28	0	1980760064	67	4457
2026-01-06 22:22:05.63	135.63	7.51	-51.0	-52.7	13.8	0.00e+00	0	28	0	1983905792	67	4559
2026-01-06 22:22:06.63	135.73	7.45	-51.2	-52.9	13.7	0.00e+00	0	28	0	1987051520	67	4693
2026-01-06 22:22:07.63	135.84	7.39	-50.9	-52.5	13.9	0.00e+00	0	28	0	1990197248	67	4492
2026-01-06 22:22:08.64	135.94	7.33	-50.9	-52.5	13.9	0.00e+00	0	28	0	1993342976	67	4467
2026-01-06 22:22:09.64	136.05	7.27	-51.2	-52.8	13.7	0.00e+00	0	28	0	1996488704	67	4639
2026-01-06 22:22:10.64	136.15	7.21	-51.2	-52.9	13.7	0.00e+00	0	28	0	1999634432	67	4684
2026-01-06 22:22:11.65	136.26	7.15	-51.1	-52.8	13.8	0.00e+00	0	28	0	2002780160	67	4619
2026-01-06 22:22:12.64	136.36	7.09	-51.2	-52.9	13.7	0.00e+00	0	28	0	2005925888	67	4664
2026-01-06 22:22:13.63	136.46	7.03	-51.3	-53.0	13.7	0.00e+00	0	28	0	2009071616	67	4717
2026-01-06 22:22:14.64	136.56	6.97	-51.2	-52.9	13.7	0.00e+00	0	28	0	2012217344	67	4683
2026-01-06 22:22:15.64	136.66	6.91	-51.3	-53.0	13.6	0.00e+00	0	28	0	2015363072	67	4756
2026-01-06 22:22:16.64	136.77	6.85	-51.6	-53.3	13.6	0.00e+00	0	28	0	2018508800	68	4630
2026-01-06 22:22:17.64	136.87	6.79	-51.6	-53.4	13.6	0.00e+00	0	28	0	2021654528	68	4665
2026-01-06 22:22:18.64	136.97	6.73	-51.6	-53.4	13.6	0.00e+00	0	28	0	2024800256	68	4676
2026-01-06 22:22:19.64	137.07	6.67	-51.7	-53.5	13.6	0.00e+00	0	28	0	2027945984	68	4716
2026-01-06 22:22:20.64	137.17	6.61	-51.5	-53.2	13.7	0.00e+00	0	28	0	2031091712	68	4585
2026-01-06 22:22:21.64	137.27	6.55	-51.7	-53.4	13.5	0.00e+00	0	28	0	2034237440	68	4704
2026-01-06 22:22:22.63	137.37	6.49	-51.8	-53.7	13.4	0.00e+00	0	28	0	2037383168	68	4827
2026-01-06 22:22:23.63	137.46	6.43	-51.8	-53.6	13.5	0.00e+00	0	28	0	2040528896	68	4769
