passes_logs/2026/01/06/R3.2S_Murmansk/R3.2S_Murmansk__20260106_071751_SUOMI_NPP_rec.log

#Pass ID: 20260106_071751_SUOMI NPP
#Satellite: SUOMI NPP
#Configuration: NPP
#almurnet v.1.7.20251203
#Start time: 2026-01-06 07:17:51

#Version: 2.2.20231116
#Station: R3.2S_Murmansk
#Location: 33.079688 lon 68.888172 lat
#TLE: 1 37849U 11061A   26004.95404768  .00000136  00000+0  85334-4 0  9991
#TLE: 2 37849  98.7801 307.0898 0002575  80.6707 279.4760 14.19522289735281

#Time	Az	El	Level	Level2	SNR	BER	BlckErr	Temp	State	Recorded	gain1	gain2
2026-01-06 07:17:51.29	99.66	1.99	-58.0	-74.0	3.8	1.49e+00	0	24	0	0	82	22316
2026-01-06 07:17:52.28	99.62	2.05	-57.9	-73.9	3.8	1.49e+00	0	24	104	0	80	24808
2026-01-06 07:17:53.27	99.57	2.11	-57.9	-73.9	3.8	1.49e+00	0	24	104	0	80	24748
2026-01-06 07:17:54.26	99.52	2.17	-57.9	-73.9	3.8	1.49e+00	0	24	104	0	80	24777
2026-01-06 07:17:55.26	99.47	2.23	-57.9	-73.9	3.8	1.49e+00	0	24	104	0	80	24894
2026-01-06 07:17:56.26	99.43	2.29	-57.9	-73.9	3.8	1.49e+00	0	24	104	0	80	24845
2026-01-06 07:17:57.25	99.38	2.35	-57.9	-73.9	3.8	1.49e+00	0	24	104	0	80	24866
2026-01-06 07:17:58.24	99.33	2.42	-57.9	-73.9	3.8	1.49e+00	0	24	104	0	80	24866
2026-01-06 07:17:59.24	99.28	2.48	-57.9	-73.9	3.8	1.49e+00	0	24	104	0	80	24863
2026-01-06 07:18:00.24	99.23	2.54	-57.9	-73.9	3.8	1.49e+00	0	24	104	0	80	24899
2026-01-06 07:18:01.23	99.18	2.60	-57.9	-73.9	3.8	1.49e+00	0	24	104	0	80	24831
2026-01-06 07:18:02.22	99.13	2.66	-57.9	-73.9	3.8	1.49e+00	0	24	104	0	80	24948
2026-01-06 07:18:03.21	99.08	2.72	-57.9	-74.0	3.8	1.49e+00	0	24	104	0	81	23624
2026-01-06 07:18:04.20	99.04	2.78	-57.9	-74.0	3.8	1.49e+00	0	24	104	0	81	23608
2026-01-06 07:18:05.19	98.99	2.84	-58.0	-74.0	3.8	1.49e+00	0	24	104	0	81	23612
2026-01-06 07:18:06.19	98.94	2.90	-57.9	-74.0	3.8	1.49e+00	0	24	104	0	81	23620
2026-01-06 07:18:07.18	98.89	2.96	-57.9	-74.0	3.8	1.49e+00	0	24	104	0	81	23593
2026-01-06 07:18:08.18	98.83	3.03	-57.9	-73.9	3.8	1.49e+00	0	24	104	0	81	23508
2026-01-06 07:18:09.17	98.78	3.09	-57.9	-73.9	3.8	1.49e+00	0	24	104	0	81	23445
2026-01-06 07:18:10.17	98.73	3.15	-57.9	-73.9	3.8	1.49e+00	0	24	104	0	81	23481
2026-01-06 07:18:11.16	98.68	3.21	-57.9	-73.9	3.8	1.49e+00	0	24	104	0	81	23539
2026-01-06 07:18:12.16	98.63	3.27	-57.9	-74.0	3.8	1.49e+00	0	24	104	0	81	23647
2026-01-06 07:18:13.15	98.58	3.34	-57.9	-73.9	3.8	1.49e+00	0	24	104	0	81	23563
2026-01-06 07:18:14.14	98.53	3.40	-57.9	-73.9	3.8	1.49e+00	0	24	104	0	81	23537
2026-01-06 07:18:15.14	98.48	3.46	-57.9	-73.9	3.8	1.49e+00	0	24	104	0	81	23453
2026-01-06 07:18:16.13	98.42	3.52	-57.9	-73.8	3.8	1.49e+00	0	24	104	0	81	23245
2026-01-06 07:18:17.12	98.37	3.59	-57.9	-73.7	3.8	1.49e+00	0	24	104	0	81	23024
2026-01-06 07:18:18.12	98.32	3.65	-57.9	-73.7	3.8	1.49e+00	0	24	104	0	81	22946
2026-01-06 07:18:19.12	98.26	3.71	-57.9	-73.8	3.8	1.49e+00	0	24	104	0	81	23095
2026-01-06 07:18:20.11	98.21	3.78	-57.9	-73.8	3.8	1.49e+00	0	24	104	0	81	23151
2026-01-06 07:18:21.10	98.16	3.84	-57.9	-73.8	3.8	1.49e+00	0	24	104	0	81	23196
2026-01-06 07:18:22.09	98.10	3.90	-58.0	-73.9	3.8	1.49e+00	0	24	104	0	81	23491
2026-01-06 07:18:23.08	98.05	3.96	-58.0	-74.0	3.8	1.49e+00	0	24	104	0	81	23684
2026-01-06 07:18:24.07	98.00	4.03	-58.0	-74.0	3.8	1.49e+00	0	24	104	0	81	23667
2026-01-06 07:18:25.07	97.94	4.09	-57.9	-73.8	3.8	1.49e+00	0	24	104	0	81	23138
2026-01-06 07:18:26.06	97.89	4.16	-57.9	-73.4	3.8	1.49e+00	0	24	104	0	81	22027
2026-01-06 07:18:27.06	97.83	4.22	-57.9	-72.9	3.8	1.49e+00	0	24	104	0	81	20860
2026-01-06 07:18:28.05	97.78	4.28	-57.9	-72.0	3.8	1.49e+00	0	24	104	0	81	18738
2026-01-06 07:18:29.04	97.72	4.35	-57.8	-71.2	4.0	1.48e+00	0	24	104	0	81	17217
2026-01-06 07:18:30.04	97.67	4.41	-57.8	-70.3	4.2	1.42e+00	0	24	0	0	81	15470
2026-01-06 07:18:31.03	97.61	4.48	-57.7	-69.5	4.5	1.29e+00	5	24	0	0	81	14091
2026-01-06 07:18:32.03	97.55	4.54	-57.7	-68.8	4.8	9.12e-01	0	24	0	2097152	81	12983
2026-01-06 07:18:33.02	97.50	4.61	-57.6	-67.9	5.2	6.55e-01	0	24	0	4194304	81	11755
2026-01-06 07:18:34.01	97.44	4.67	-57.5	-67.2	5.6	4.81e-01	0	25	0	6291456	81	10866
2026-01-06 07:18:35.00	97.38	4.73	-57.5	-67.0	5.7	3.99e-01	0	25	0	8388608	81	10651
2026-01-06 07:18:35.99	97.33	4.80	-57.4	-66.4	6.1	2.52e-01	0	25	0	9437184	81	9884
2026-01-06 07:18:36.99	97.27	4.87	-57.4	-66.0	6.4	1.97e-01	0	25	0	11534336	81	9395
2026-01-06 07:18:37.99	97.21	4.93	-57.3	-65.8	6.6	1.78e-01	0	25	0	13631488	81	9191
2026-01-06 07:18:38.98	97.15	5.00	-57.2	-65.3	7.0	1.36e-01	0	25	0	15728640	81	8695
2026-01-06 07:18:39.98	97.09	5.06	-57.3	-65.3	6.9	1.33e-01	0	25	0	16777216	81	8721
2026-01-06 07:18:40.99	97.03	5.13	-56.4	-61.7	10.2	1.19e-02	0	25	0	18874368	79	6435
2026-01-06 07:18:41.99	96.97	5.20	-55.8	-60.1	11.4	3.55e-04	0	25	0	20971520	78	5674
2026-01-06 07:18:42.97	96.92	5.26	-57.9	-70.9	4.1	1.36e-02	0	25	0	23068672	80	17549
2026-01-06 07:18:43.97	96.86	5.33	-57.9	-67.9	5.5	1.95e-01	0	25	0	24117248	80	12381
2026-01-06 07:18:44.96	96.80	5.39	-56.1	-60.8	10.8	2.46e-03	0	25	0	26214400	78	6196
2026-01-06 07:18:45.96	96.74	5.46	-55.5	-59.5	11.8	9.46e-05	0	25	0	28311552	77	5607
2026-01-06 07:18:46.95	96.68	5.53	-55.6	-59.7	11.6	2.82e-05	0	25	0	29360128	77	5776
2026-01-06 07:18:47.94	96.62	5.59	-55.7	-59.9	11.4	1.75e-05	0	25	0	31457280	77	5890
2026-01-06 07:18:48.94	96.55	5.66	-55.8	-60.2	11.2	3.05e-05	0	25	0	33554432	77	6070
2026-01-06 07:18:49.93	96.49	5.73	-55.9	-60.4	11.1	1.15e-04	0	25	0	35651584	77	6211
2026-01-06 07:18:50.92	96.43	5.79	-56.0	-60.7	10.8	1.97e-04	0	25	0	36700160	77	6493
2026-01-06 07:18:51.92	96.37	5.86	-56.0	-60.7	10.8	1.93e-04	0	25	0	38797312	77	6487
2026-01-06 07:18:52.91	96.31	5.93	-56.2	-61.1	10.5	3.25e-04	0	25	0	40894464	77	6775
2026-01-06 07:18:53.90	96.24	6.00	-55.6	-59.5	11.8	1.20e-04	0	25	0	42991616	77	5640
2026-01-06 07:18:54.90	96.18	6.06	-55.4	-59.1	12.1	2.20e-06	0	25	0	45088768	77	5382
2026-01-06 07:18:55.90	96.12	6.13	-55.1	-58.7	12.3	7.00e-07	0	25	0	46137344	76	5413
2026-01-06 07:18:56.89	96.05	6.20	-55.0	-58.5	12.5	0.00e+00	0	25	0	48234496	76	5294
2026-01-06 07:18:57.88	95.99	6.27	-55.1	-58.5	12.4	0.00e+00	0	25	0	50331648	76	5329
2026-01-06 07:18:58.87	95.93	6.33	-54.5	-57.6	13.0	0.00e+00	0	25	0	52428800	75	5063
2026-01-06 07:18:59.86	95.86	6.40	-54.4	-57.4	13.1	0.00e+00	0	25	0	53477376	75	4979
2026-01-06 07:19:00.85	95.80	6.47	-54.7	-57.9	12.7	0.00e+00	0	25	0	55574528	75	5260
2026-01-06 07:19:01.85	95.73	6.54	-54.3	-57.3	13.1	0.00e+00	0	25	0	57671680	75	4897
2026-01-06 07:19:02.84	95.67	6.61	-54.5	-57.5	13.0	0.00e+00	0	25	0	59768832	75	5017
2026-01-06 07:19:03.82	95.60	6.68	-54.5	-57.6	13.0	0.00e+00	0	25	0	61865984	75	5052
2026-01-06 07:19:04.82	95.54	6.75	-54.3	-57.2	13.2	0.00e+00	0	25	0	62914560	75	4862
2026-01-06 07:19:05.81	95.47	6.82	-54.2	-57.1	13.2	0.00e+00	0	25	0	65011712	74	5073
2026-01-06 07:19:06.80	95.41	6.88	-54.0	-56.7	13.4	0.00e+00	0	25	0	67108864	74	4839
2026-01-06 07:19:07.79	95.34	6.95	-54.0	-56.7	13.4	0.00e+00	0	25	0	69206016	74	4830
2026-01-06 07:19:08.78	95.27	7.02	-54.0	-56.8	13.3	0.00e+00	0	25	0	70254592	74	4895
2026-01-06 07:19:09.76	95.20	7.09	-53.8	-56.3	13.6	0.00e+00	0	25	0	72351744	74	4647
2026-01-06 07:19:10.74	95.14	7.16	-54.1	-56.9	13.3	0.00e+00	0	25	0	74448896	74	4942
2026-01-06 07:19:11.74	95.07	7.23	-54.0	-56.6	13.5	0.00e+00	0	25	0	76546048	74	4805
2026-01-06 07:19:12.74	95.00	7.30	-54.0	-56.7	13.5	0.00e+00	0	25	0	78643200	74	4816
2026-01-06 07:19:13.73	94.93	7.37	-54.0	-56.7	13.5	0.00e+00	0	25	0	79691776	74	4816
2026-01-06 07:19:14.73	94.86	7.44	-53.9	-56.6	13.5	0.00e+00	0	25	0	81788928	74	4796
2026-01-06 07:19:15.72	94.79	7.51	-53.9	-56.6	13.4	0.00e+00	0	25	0	83886080	73	5074
2026-01-06 07:19:16.71	94.72	7.58	-53.9	-56.5	13.4	0.00e+00	0	25	0	85983232	73	5032
2026-01-06 07:19:17.70	94.65	7.66	-54.0	-56.8	13.3	0.00e+00	0	25	0	87031808	73	5198
2026-01-06 07:19:18.69	94.58	7.73	-53.8	-56.4	13.5	0.00e+00	0	25	0	89128960	73	4980
2026-01-06 07:19:19.69	94.51	7.80	-53.9	-56.5	13.4	0.00e+00	0	25	0	91226112	73	5030
2026-01-06 07:19:20.69	94.44	7.87	-53.8	-56.5	13.5	0.00e+00	0	25	0	93323264	73	4997
2026-01-06 07:19:21.68	94.37	7.94	-53.9	-56.6	13.4	0.00e+00	0	25	0	94371840	73	5047
2026-01-06 07:19:22.67	94.29	8.01	-54.1	-56.9	13.2	0.00e+00	0	25	0	96468992	73	5232
2026-01-06 07:19:23.66	94.22	8.08	-53.7	-56.8	13.3	0.00e+00	0	25	0	98566144	73	5161
2026-01-06 07:19:24.66	94.15	8.16	-53.6	-56.5	13.5	0.00e+00	0	25	0	100663296	73	5032
2026-01-06 07:19:25.65	94.08	8.23	-53.5	-56.4	13.6	0.00e+00	0	25	0	102760448	73	4939
2026-01-06 07:19:26.64	94.00	8.30	-53.6	-56.5	13.5	0.00e+00	0	25	0	103809024	73	5027
2026-01-06 07:19:27.63	93.93	8.37	-53.6	-56.6	13.5	0.00e+00	0	25	0	105906176	73	5045
2026-01-06 07:19:28.62	93.85	8.45	-53.6	-56.7	13.4	0.00e+00	0	25	0	108003328	73	5104
2026-01-06 07:19:29.62	93.78	8.52	-53.5	-56.5	13.4	0.00e+00	0	25	0	110100480	73	5030
2026-01-06 07:19:30.61	93.70	8.59	-53.7	-56.7	13.3	0.00e+00	0	25	0	111149056	73	5145
2026-01-06 07:19:31.60	93.63	8.67	-53.7	-56.8	13.3	0.00e+00	0	25	0	113246208	73	5185
2026-01-06 07:19:32.59	93.55	8.74	-53.7	-56.7	13.4	0.00e+00	0	25	0	115343360	73	5114
2026-01-06 07:19:33.57	93.48	8.81	-53.6	-56.5	13.5	0.00e+00	0	25	0	117440512	73	5031
2026-01-06 07:19:34.57	93.40	8.89	-53.6	-56.6	13.4	0.00e+00	0	25	0	119537664	73	5082
2026-01-06 07:19:35.55	93.32	8.96	-53.6	-56.5	13.5	0.00e+00	0	25	0	120586240	73	5034
2026-01-06 07:19:36.55	93.25	9.03	-53.4	-56.2	13.7	0.00e+00	0	25	0	122683392	73	4867
2026-01-06 07:19:37.54	93.17	9.11	-53.5	-56.3	13.6	0.00e+00	0	25	0	124780544	73	4906
2026-01-06 07:19:38.54	93.09	9.18	-53.5	-56.4	13.6	0.00e+00	0	25	0	126877696	73	4936
2026-01-06 07:19:39.53	93.01	9.26	-53.4	-56.1	13.7	0.00e+00	0	25	0	127926272	73	4806
2026-01-06 07:19:40.52	92.93	9.33	-53.3	-56.1	13.7	0.00e+00	0	25	0	130023424	73	4767
2026-01-06 07:19:41.52	92.85	9.41	-53.3	-56.1	13.7	0.00e+00	0	25	0	132120576	73	4760
2026-01-06 07:19:42.52	92.77	9.48	-53.5	-56.3	13.6	0.00e+00	0	25	0	134217728	73	4886
2026-01-06 07:19:43.51	92.69	9.56	-53.5	-56.3	13.6	0.00e+00	0	25	0	136314880	73	4911
2026-01-06 07:19:44.51	92.61	9.63	-53.4	-56.2	13.7	0.00e+00	0	25	0	137363456	73	4823
2026-01-06 07:19:45.51	92.53	9.71	-53.7	-56.6	13.4	0.00e+00	0	25	0	139460608	73	5064
2026-01-06 07:19:46.49	92.44	9.78	-53.8	-56.8	13.3	0.00e+00	0	25	0	141557760	73	5181
2026-01-06 07:19:47.49	92.36	9.86	-53.6	-56.5	13.5	0.00e+00	0	25	0	143654912	73	5020
2026-01-06 07:19:48.48	92.28	9.94	-53.6	-56.5	13.5	0.00e+00	0	25	0	144703488	73	4993
2026-01-06 07:19:49.48	92.20	10.01	-53.5	-56.4	13.6	0.00e+00	0	25	0	146800640	73	4936
2026-01-06 07:19:50.47	92.11	10.09	-53.6	-56.4	13.6	0.00e+00	0	25	0	148897792	73	4968
2026-01-06 07:19:51.46	92.03	10.17	-53.6	-56.4	13.5	0.00e+00	0	25	0	150994944	73	4969
2026-01-06 07:19:52.45	91.94	10.24	-53.5	-56.3	13.6	0.00e+00	0	25	0	153092096	73	4891
2026-01-06 07:19:53.44	91.86	10.32	-53.6	-56.4	13.6	0.00e+00	0	25	0	154140672	73	4941
2026-01-06 07:19:54.44	91.77	10.40	-53.6	-56.5	13.5	0.00e+00	0	25	0	156237824	73	4997
2026-01-06 07:19:55.43	91.69	10.47	-53.4	-56.1	13.8	0.00e+00	0	25	0	158334976	73	4791
2026-01-06 07:19:56.42	91.60	10.55	-53.3	-55.9	13.9	0.00e+00	0	25	0	160432128	73	4699
2026-01-06 07:19:57.41	91.51	10.63	-53.2	-55.9	13.9	0.00e+00	0	25	0	161480704	73	4685
2026-01-06 07:19:58.41	91.43	10.71	-53.4	-56.2	13.7	0.00e+00	0	25	0	163577856	73	4820
2026-01-06 07:19:59.41	91.34	10.79	-53.4	-56.2	13.7	0.00e+00	0	25	0	165675008	73	4828
2026-01-06 07:20:00.40	91.25	10.86	-53.2	-55.9	13.9	0.00e+00	0	25	0	167772160	73	4666
2026-01-06 07:20:01.40	91.16	10.94	-53.1	-55.7	13.8	0.00e+00	0	26	0	169869312	72	4865
2026-01-06 07:20:02.38	91.07	11.02	-53.3	-56.0	13.7	0.00e+00	0	25	0	170917888	72	5006
2026-01-06 07:20:03.37	90.98	11.10	-52.9	-55.5	14.0	0.00e+00	0	25	0	173015040	72	4708
2026-01-06 07:20:04.37	90.89	11.18	-52.9	-55.4	14.0	0.00e+00	0	25	0	175112192	72	4703
2026-01-06 07:20:05.36	90.80	11.26	-52.8	-55.3	14.1	0.00e+00	0	26	0	177209344	72	4609
2026-01-06 07:20:06.36	90.71	11.34	-52.9	-55.4	14.0	0.00e+00	0	25	0	178257920	72	4701
2026-01-06 07:20:07.35	90.62	11.42	-52.8	-55.3	14.1	0.00e+00	0	25	0	180355072	72	4638
2026-01-06 07:20:08.35	90.52	11.50	-52.9	-55.5	14.0	0.00e+00	0	25	0	182452224	72	4710
2026-01-06 07:20:09.33	90.43	11.58	-52.9	-55.4	14.0	0.00e+00	0	25	0	184549376	72	4681
2026-01-06 07:20:10.33	90.34	11.66	-52.9	-55.4	14.0	0.00e+00	0	25	0	185597952	72	4692
2026-01-06 07:20:11.32	90.24	11.74	-52.8	-55.2	14.1	0.00e+00	0	25	0	187695104	72	4581
2026-01-06 07:20:12.32	90.15	11.82	-52.9	-55.4	14.0	0.00e+00	0	25	0	189792256	72	4668
2026-01-06 07:20:13.30	90.06	11.90	-52.9	-55.4	14.0	0.00e+00	0	26	0	191889408	72	4663
2026-01-06 07:20:14.30	89.96	11.98	-52.8	-55.1	14.2	0.00e+00	0	25	0	193986560	72	4542
2026-01-06 07:20:15.30	89.86	12.06	-52.9	-55.3	14.1	0.00e+00	0	26	0	195035136	72	4625
2026-01-06 07:20:16.29	89.77	12.14	-53.0	-55.5	14.0	0.00e+00	0	25	0	197132288	72	4709
2026-01-06 07:20:17.28	89.67	12.22	-53.0	-55.4	14.1	0.00e+00	0	26	0	199229440	72	4680
2026-01-06 07:20:18.27	89.57	12.30	-52.9	-55.3	14.1	0.00e+00	0	26	0	201326592	72	4635
2026-01-06 07:20:19.26	89.47	12.39	-52.7	-55.0	14.3	0.00e+00	0	25	0	202375168	72	4467
2026-01-06 07:20:20.25	89.38	12.47	-52.8	-55.2	14.0	0.00e+00	0	26	0	204472320	71	4851
2026-01-06 07:20:21.25	89.28	12.55	-52.7	-55.1	14.1	0.00e+00	0	26	0	206569472	71	4782
2026-01-06 07:20:22.25	89.17	12.63	-52.7	-55.0	14.1	0.00e+00	0	25	0	208666624	71	4727
2026-01-06 07:20:23.24	89.07	12.72	-52.8	-55.1	14.1	0.00e+00	0	26	0	210763776	71	4802
2026-01-06 07:20:24.23	88.97	12.80	-52.7	-55.1	14.1	0.00e+00	0	26	0	211812352	71	4769
2026-01-06 07:20:25.22	88.87	12.88	-52.8	-55.1	14.1	0.00e+00	0	26	0	213909504	71	4776
2026-01-06 07:20:26.21	88.77	12.96	-52.7	-55.0	14.1	0.00e+00	0	26	0	216006656	71	4758
2026-01-06 07:20:27.20	88.67	13.05	-52.8	-55.1	14.1	0.00e+00	0	26	0	218103808	71	4785
2026-01-06 07:20:28.19	88.56	13.13	-52.8	-55.1	14.1	0.00e+00	0	25	0	219152384	71	4768
2026-01-06 07:20:29.19	88.46	13.21	-52.8	-55.2	14.1	0.00e+00	0	26	0	221249536	71	4824
2026-01-06 07:20:30.18	88.35	13.30	-52.8	-55.1	14.0	0.00e+00	0	26	0	223346688	71	4801
2026-01-06 07:20:31.17	88.25	13.38	-52.6	-54.9	14.2	0.00e+00	0	26	0	225443840	71	4652
2026-01-06 07:20:32.17	88.14	13.47	-52.7	-55.0	14.1	0.00e+00	0	26	0	227540992	71	4744
2026-01-06 07:20:33.17	88.03	13.55	-52.7	-55.0	14.1	0.00e+00	0	25	0	228589568	71	4744
2026-01-06 07:20:34.16	87.93	13.64	-52.7	-55.0	14.2	0.00e+00	0	26	0	230686720	71	4716
2026-01-06 07:20:35.15	87.82	13.72	-52.7	-55.0	14.1	0.00e+00	0	25	0	232783872	71	4747
2026-01-06 07:20:36.15	87.71	13.81	-52.9	-55.3	13.9	0.00e+00	0	26	0	234881024	71	4925
2026-01-06 07:20:37.14	87.60	13.89	-52.9	-55.2	14.0	0.00e+00	0	26	0	235929600	71	4858
2026-01-06 07:20:38.13	87.49	13.98	-53.1	-55.5	13.8	0.00e+00	0	26	0	238026752	71	5041
2026-01-06 07:20:39.12	87.38	14.06	-53.0	-55.5	13.9	0.00e+00	0	26	0	240123904	71	4995
2026-01-06 07:20:40.12	87.27	14.15	-53.0	-55.5	13.9	0.00e+00	0	26	0	242221056	71	4984
2026-01-06 07:20:41.11	87.16	14.23	-52.9	-55.3	14.0	0.00e+00	0	26	0	244318208	71	4923
2026-01-06 07:20:42.10	87.05	14.32	-52.8	-55.2	14.0	0.00e+00	0	26	0	245366784	71	4860
2026-01-06 07:20:43.10	86.93	14.41	-52.6	-54.9	14.2	0.00e+00	0	26	0	247463936	71	4703
2026-01-06 07:20:44.10	86.82	14.49	-52.6	-55.0	14.1	0.00e+00	0	26	0	249561088	71	4734
2026-01-06 07:20:45.10	86.70	14.58	-52.6	-54.9	14.2	0.00e+00	0	26	0	251658240	71	4686
2026-01-06 07:20:46.09	86.59	14.67	-52.7	-55.2	14.0	0.00e+00	0	26	0	252706816	71	4831
2026-01-06 07:20:47.08	86.47	14.75	-52.8	-55.3	14.0	0.00e+00	0	26	0	254803968	71	4909
2026-01-06 07:20:48.08	86.36	14.84	-52.8	-55.3	14.0	0.00e+00	0	26	0	256901120	71	4878
2026-01-06 07:20:49.07	86.24	14.93	-52.8	-55.3	14.0	0.00e+00	0	26	0	258998272	71	4901
2026-01-06 07:20:50.06	86.12	15.02	-52.8	-55.2	14.0	0.00e+00	0	26	0	261095424	71	4868
2026-01-06 07:20:51.06	86.00	15.11	-52.8	-55.3	14.0	0.00e+00	0	26	0	262144000	71	4878
2026-01-06 07:20:52.05	85.88	15.19	-52.8	-55.3	14.0	0.00e+00	0	26	0	264241152	71	4884
2026-01-06 07:20:53.04	85.76	15.28	-52.3	-54.5	14.4	0.00e+00	0	26	0	266338304	71	4461
2026-01-06 07:20:54.03	85.64	15.37	-52.7	-55.1	14.1	0.00e+00	0	26	0	268435456	71	4771
2026-01-06 07:20:55.03	85.52	15.46	-52.7	-55.1	14.1	0.00e+00	0	26	0	269484032	71	4778
2026-01-06 07:20:56.02	85.40	15.55	-52.6	-54.9	14.2	0.00e+00	0	26	0	271581184	71	4653
2026-01-06 07:20:57.01	85.27	15.64	-52.8	-55.2	14.1	0.00e+00	0	26	0	273678336	71	4832
2026-01-06 07:20:58.00	85.15	15.73	-52.8	-55.1	14.1	0.00e+00	0	26	0	275775488	71	4792
2026-01-06 07:20:59.00	85.03	15.82	-52.6	-54.9	14.2	0.00e+00	0	26	0	277872640	71	4679
2026-01-06 07:20:59.99	84.90	15.91	-52.5	-54.7	14.3	0.00e+00	0	26	0	278921216	71	4594
2026-01-06 07:21:00.98	84.77	15.99	-52.2	-54.3	14.5	0.00e+00	0	26	0	281018368	71	4371
2026-01-06 07:21:01.98	84.65	16.09	-52.3	-54.4	14.5	0.00e+00	0	26	0	283115520	71	4417
2026-01-06 07:21:02.96	84.52	16.17	-52.3	-54.4	14.5	0.00e+00	0	26	0	285212672	71	4421
2026-01-06 07:21:03.95	84.39	16.26	-52.1	-54.2	14.4	0.00e+00	0	26	0	286261248	70	4583
2026-01-06 07:21:04.95	84.26	16.36	-52.5	-54.7	14.2	0.00e+00	0	26	0	288358400	70	4825
2026-01-06 07:21:05.95	84.13	16.45	-52.7	-55.0	14.0	0.00e+00	0	26	0	290455552	70	4997
2026-01-06 07:21:06.93	84.00	16.54	-52.7	-55.0	14.1	0.00e+00	0	26	0	292552704	70	4996
2026-01-06 07:21:07.94	83.87	16.63	-52.8	-55.2	14.0	0.00e+00	0	26	0	293601280	70	5133
2026-01-06 07:21:08.92	83.74	16.72	-52.7	-55.0	14.0	0.00e+00	0	26	0	295698432	70	5019
2026-01-06 07:21:09.91	83.60	16.81	-53.1	-55.6	13.9	0.00e+00	0	26	0	297795584	71	5053
2026-01-06 07:21:10.90	83.47	16.90	-53.1	-55.5	13.9	0.00e+00	0	26	0	299892736	71	5025
2026-01-06 07:21:11.89	83.34	16.99	-52.9	-55.3	14.0	0.00e+00	0	26	0	301989888	71	4913
2026-01-06 07:21:12.88	83.20	17.09	-53.2	-55.7	13.8	0.00e+00	0	26	0	303038464	71	5139
2026-01-06 07:21:13.87	83.06	17.18	-53.3	-55.9	13.7	0.00e+00	0	26	0	305135616	71	5254
2026-01-06 07:21:14.86	82.93	17.27	-53.5	-56.1	13.7	0.00e+00	0	26	0	307232768	72	5091
2026-01-06 07:21:15.84	82.79	17.36	-53.6	-56.3	13.6	0.00e+00	0	26	0	309329920	72	5171
2026-01-06 07:21:16.83	82.65	17.45	-53.5	-56.2	13.7	0.00e+00	0	26	0	310378496	72	5101
2026-01-06 07:21:17.81	82.51	17.54	-53.5	-56.2	13.7	0.00e+00	0	26	0	312475648	72	5104
2026-01-06 07:21:18.80	82.37	17.64	-53.5	-56.1	13.7	0.00e+00	0	26	0	314572800	72	5073
2026-01-06 07:21:19.79	82.23	17.73	-53.2	-55.7	13.9	0.00e+00	0	26	0	316669952	72	4826
2026-01-06 07:21:20.78	82.09	17.82	-53.3	-55.8	13.9	0.00e+00	0	26	0	317718528	72	4923
2026-01-06 07:21:21.77	81.95	17.92	-53.1	-55.5	14.0	0.00e+00	0	26	0	319815680	72	4743
2026-01-06 07:21:22.76	81.80	18.01	-53.0	-55.4	14.1	0.00e+00	0	26	0	321912832	72	4664
2026-01-06 07:21:23.75	81.66	18.10	-52.8	-55.2	14.2	0.00e+00	0	26	0	324009984	72	4566
2026-01-06 07:21:24.74	81.51	18.20	-52.9	-55.4	14.1	0.00e+00	0	26	0	326107136	72	4653
2026-01-06 07:21:25.74	81.36	18.29	-52.9	-55.3	14.1	0.00e+00	0	26	0	327155712	72	4647
2026-01-06 07:21:26.73	81.21	18.39	-52.9	-55.3	14.2	0.00e+00	0	26	0	329252864	72	4636
2026-01-06 07:21:27.71	81.07	18.48	-52.7	-55.0	14.3	0.00e+00	0	26	0	331350016	72	4483
2026-01-06 07:21:28.71	80.92	18.57	-52.8	-55.1	14.3	0.00e+00	0	26	0	333447168	72	4516
2026-01-06 07:21:29.71	80.76	18.67	-52.7	-55.0	14.3	0.00e+00	0	26	0	334495744	72	4461
2026-01-06 07:21:30.70	80.61	18.77	-52.8	-55.2	14.1	0.00e+00	0	26	0	336592896	71	4845
2026-01-06 07:21:31.69	80.46	18.86	-52.8	-55.2	14.1	0.00e+00	0	26	0	338690048	71	4841
2026-01-06 07:21:32.68	80.31	18.96	-52.9	-55.3	14.1	0.00e+00	0	26	0	340787200	71	4901
2026-01-06 07:21:33.68	80.15	19.05	-52.8	-55.3	14.1	0.00e+00	0	26	0	341835776	71	4875
2026-01-06 07:21:34.67	79.99	19.15	-52.7	-55.0	14.2	0.00e+00	0	26	0	343932928	71	4707
2026-01-06 07:21:35.66	79.84	19.24	-52.5	-54.8	14.3	0.00e+00	0	26	0	346030080	71	4617
2026-01-06 07:21:36.65	79.68	19.34	-52.6	-54.8	14.3	0.00e+00	0	26	0	348127232	71	4612
2026-01-06 07:21:37.65	79.52	19.43	-52.6	-54.8	14.3	0.00e+00	0	26	0	350224384	71	4624
2026-01-06 07:21:38.65	79.36	19.53	-52.6	-54.8	14.3	0.00e+00	0	26	0	351272960	71	4629
2026-01-06 07:21:39.64	79.20	19.63	-52.6	-54.8	14.3	0.00e+00	0	26	0	353370112	71	4622
2026-01-06 07:21:40.63	79.04	19.72	-52.5	-54.6	14.4	0.00e+00	0	26	0	355467264	71	4540
2026-01-06 07:21:41.63	78.87	19.82	-52.5	-54.7	14.4	0.00e+00	0	26	0	357564416	71	4570
2026-01-06 07:21:42.63	78.71	19.92	-52.7	-54.9	14.2	0.00e+00	0	26	0	358612992	71	4688
2026-01-06 07:21:43.62	78.54	20.01	-52.8	-55.1	14.1	0.00e+00	0	26	0	360710144	71	4776
2026-01-06 07:21:44.62	78.38	20.11	-52.9	-55.2	14.1	0.00e+00	0	26	0	362807296	71	4820
2026-01-06 07:21:45.62	78.21	20.21	-53.2	-55.7	13.9	0.00e+00	0	26	0	364904448	71	5126
2026-01-06 07:21:46.61	78.04	20.31	-53.3	-55.8	13.9	0.00e+00	0	26	0	367001600	72	4892
2026-01-06 07:21:47.60	77.87	20.40	-53.3	-55.8	13.9	0.00e+00	0	26	0	368050176	72	4878
2026-01-06 07:21:48.60	77.70	20.50	-53.1	-55.5	14.1	0.00e+00	0	26	0	370147328	72	4719
2026-01-06 07:21:49.59	77.53	20.60	-53.1	-55.6	14.0	0.00e+00	0	26	0	372244480	72	4779
2026-01-06 07:21:50.58	77.35	20.70	-53.2	-55.7	14.0	0.00e+00	0	26	0	374341632	72	4830
2026-01-06 07:21:51.58	77.18	20.79	-53.3	-55.9	13.9	0.00e+00	0	26	0	375390208	72	4952
2026-01-06 07:21:52.56	77.01	20.89	-53.0	-55.5	14.1	0.00e+00	0	26	0	377487360	72	4730
2026-01-06 07:21:53.56	76.83	20.99	-52.9	-55.3	14.2	0.00e+00	0	26	0	379584512	72	4639
2026-01-06 07:21:54.55	76.65	21.09	-52.7	-55.0	14.3	0.00e+00	0	26	0	381681664	72	4467
2026-01-06 07:21:55.55	76.47	21.19	-52.3	-54.5	14.5	0.00e+00	0	26	0	383778816	71	4454
2026-01-06 07:21:56.55	76.29	21.28	-52.3	-54.5	14.5	0.00e+00	0	26	0	384827392	71	4463
2026-01-06 07:21:57.53	76.11	21.38	-52.3	-54.5	14.5	0.00e+00	0	26	0	386924544	71	4455
2026-01-06 07:21:58.52	75.93	21.48	-52.3	-54.5	14.5	0.00e+00	0	26	0	389021696	71	4478
2026-01-06 07:21:59.51	75.75	21.58	-52.2	-54.4	14.4	0.00e+00	0	26	0	391118848	70	4696
2026-01-06 07:22:00.50	75.57	21.68	-52.1	-54.3	14.4	0.00e+00	0	26	0	392167424	70	4627
2026-01-06 07:22:01.50	75.38	21.77	-52.1	-54.2	14.4	0.00e+00	0	26	0	394264576	70	4596
2026-01-06 07:22:02.49	75.19	21.87	-52.2	-54.4	14.4	0.00e+00	0	26	0	396361728	70	4669
2026-01-06 07:22:03.48	75.01	21.97	-52.3	-54.5	14.3	0.00e+00	0	26	0	398458880	70	4753
2026-01-06 07:22:04.47	74.82	22.07	-52.4	-54.6	14.3	0.00e+00	0	26	0	400556032	70	4808
2026-01-06 07:22:05.46	74.63	22.17	-52.6	-54.8	14.2	0.00e+00	0	26	0	401604608	70	4895
2026-01-06 07:22:06.46	74.43	22.27	-52.5	-54.7	14.2	0.00e+00	0	26	0	403701760	70	4845
2026-01-06 07:22:07.46	74.24	22.37	-52.4	-54.6	14.3	0.00e+00	0	26	0	405798912	70	4761
2026-01-06 07:22:08.44	74.05	22.46	-52.5	-54.6	14.2	0.00e+00	0	26	0	407896064	70	4810
2026-01-06 07:22:09.42	73.86	22.56	-52.5	-54.7	14.3	0.00e+00	0	26	0	408944640	70	4823
2026-01-06 07:22:10.41	73.66	22.66	-52.6	-54.8	14.2	0.00e+00	0	26	0	411041792	70	4913
2026-01-06 07:22:11.39	73.46	22.76	-52.6	-54.7	14.2	0.00e+00	0	26	0	413138944	70	4841
2026-01-06 07:22:12.38	73.27	22.86	-52.5	-54.6	14.3	0.00e+00	0	26	0	415236096	70	4782
2026-01-06 07:22:13.37	73.07	22.95	-52.2	-54.3	14.4	0.00e+00	0	26	0	416284672	70	4601
2026-01-06 07:22:14.36	72.87	23.05	-52.3	-54.4	14.4	0.00e+00	0	26	0	418381824	70	4660
2026-01-06 07:22:15.36	72.66	23.15	-52.3	-54.3	14.4	0.00e+00	0	26	0	420478976	70	4616
2026-01-06 07:22:16.35	72.46	23.25	-52.5	-54.6	14.3	0.00e+00	0	26	0	422576128	70	4794
2026-01-06 07:22:17.34	72.25	23.35	-52.5	-54.6	14.3	0.00e+00	0	26	0	424673280	70	4795
2026-01-06 07:22:18.34	72.04	23.45	-52.8	-55.0	14.1	0.00e+00	0	26	0	425721856	70	5008
2026-01-06 07:22:19.34	71.83	23.55	-52.6	-54.7	14.2	0.00e+00	0	26	0	427819008	70	4865
2026-01-06 07:22:20.32	71.63	23.65	-52.6	-54.7	14.3	0.00e+00	0	26	0	429916160	70	4826
2026-01-06 07:22:21.32	71.42	23.74	-52.7	-54.9	14.2	0.00e+00	0	26	0	432013312	70	4934
2026-01-06 07:22:22.32	71.20	23.84	-52.7	-54.9	14.2	0.00e+00	0	26	0	433061888	70	4937
2026-01-06 07:22:23.30	70.99	23.94	-53.0	-55.3	14.1	0.00e+00	0	26	0	435159040	71	4889
2026-01-06 07:22:24.30	70.78	24.04	-52.8	-55.0	14.2	0.00e+00	0	26	0	437256192	71	4739
2026-01-06 07:22:25.30	70.56	24.14	-52.6	-54.8	14.4	0.00e+00	0	26	0	439353344	71	4608
2026-01-06 07:22:26.29	70.34	24.24	-52.6	-54.8	14.3	0.00e+00	0	26	0	441450496	71	4634
2026-01-06 07:22:27.29	70.12	24.34	-52.6	-54.8	14.3	0.00e+00	0	26	0	442499072	71	4607
2026-01-06 07:22:28.28	69.90	24.43	-52.9	-55.2	14.1	0.00e+00	0	26	0	444596224	71	4851
2026-01-06 07:22:29.27	69.68	24.53	-53.0	-55.2	14.1	0.00e+00	0	26	0	446693376	71	4868
2026-01-06 07:22:30.26	69.46	24.63	-53.0	-55.3	14.1	0.00e+00	0	26	0	448790528	71	4926
2026-01-06 07:22:31.25	69.23	24.73	-52.8	-55.0	14.2	0.00e+00	0	26	0	449839104	71	4729
2026-01-06 07:22:32.24	69.01	24.82	-53.0	-55.3	14.1	0.00e+00	0	26	0	451936256	71	4876
2026-01-06 07:22:33.22	68.78	24.92	-52.9	-55.1	14.2	0.00e+00	0	26	0	454033408	71	4780
2026-01-06 07:22:34.22	68.55	25.02	-53.2	-55.5	14.0	0.00e+00	0	26	0	456130560	71	4988
2026-01-06 07:22:35.21	68.32	25.12	-52.9	-55.1	14.2	0.00e+00	0	26	0	458227712	71	4771
2026-01-06 07:22:36.21	68.09	25.21	-52.9	-55.0	14.2	0.00e+00	0	26	0	459276288	71	4730
2026-01-06 07:22:37.21	67.85	25.31	-52.8	-54.9	14.3	0.00e+00	0	26	0	461373440	71	4682
2026-01-06 07:22:38.20	67.62	25.41	-52.6	-54.7	14.4	0.00e+00	0	26	0	463470592	71	4551
2026-01-06 07:22:39.19	67.39	25.50	-52.4	-54.5	14.5	0.00e+00	0	26	0	465567744	71	4462
2026-01-06 07:22:40.20	67.14	25.60	-52.4	-54.4	14.5	0.00e+00	0	26	0	466616320	71	4426
2026-01-06 07:22:41.19	66.91	25.70	-52.3	-54.3	14.6	0.00e+00	0	26	0	468713472	71	4352
2026-01-06 07:22:42.18	66.67	25.79	-51.9	-53.9	14.7	0.00e+00	0	26	0	470810624	70	4402
2026-01-06 07:22:43.18	66.42	25.89	-51.7	-53.8	14.6	0.00e+00	0	26	0	472907776	69	4599
2026-01-06 07:22:44.18	66.18	25.99	-51.0	-53.3	14.8	0.00e+00	0	26	0	475004928	68	4648
2026-01-06 07:22:45.17	65.93	26.08	-49.4	-53.3	14.9	0.00e+00	0	26	0	476053504	65	5493
2026-01-06 07:22:46.16	65.69	26.18	-47.1	-53.3	14.9	0.00e+00	0	26	0	478150656	60	7354
2026-01-06 07:22:47.14	65.44	26.27	-48.1	-53.5	14.4	0.00e+00	0	26	0	480247808	61	7049
2026-01-06 07:22:48.14	65.19	26.36	-50.8	-53.5	14.3	0.00e+00	0	26	0	482344960	66	5286
2026-01-06 07:22:49.13	64.94	26.46	-51.4	-53.5	14.3	0.00e+00	0	26	0	483393536	67	5011
2026-01-06 07:22:50.13	64.69	26.55	-51.7	-53.8	14.4	0.00e+00	0	26	0	485490688	68	4881
2026-01-06 07:22:51.11	64.44	26.65	-51.9	-54.0	14.5	0.00e+00	0	26	0	487587840	69	4706
2026-01-06 07:22:52.10	64.18	26.74	-52.3	-54.4	14.2	0.00e+00	0	26	0	489684992	69	4965
2026-01-06 07:22:53.10	63.92	26.83	-52.4	-54.5	14.3	0.00e+00	0	26	0	491782144	70	4731
2026-01-06 07:22:54.09	63.67	26.92	-52.5	-54.8	14.1	0.00e+00	0	26	0	492830720	70	4904
2026-01-06 07:22:55.09	63.40	27.02	-52.8	-55.1	14.0	0.00e+00	0	26	0	494927872	70	5093
2026-01-06 07:22:56.08	63.14	27.11	-52.7	-55.0	14.1	0.00e+00	0	26	0	497025024	70	5022
2026-01-06 07:22:57.08	62.88	27.20	-52.8	-55.1	14.0	0.00e+00	0	26	0	499122176	70	5082
2026-01-06 07:22:58.08	62.61	27.29	-52.8	-55.1	14.2	0.00e+00	0	26	0	500170752	71	4770
2026-01-06 07:22:59.07	62.35	27.38	-52.6	-54.8	14.3	0.00e+00	0	26	0	502267904	71	4627
2026-01-06 07:23:00.06	62.08	27.47	-52.8	-55.0	14.2	0.00e+00	0	26	0	504365056	71	4709
2026-01-06 07:23:01.05	61.81	27.56	-52.9	-55.1	14.1	0.00e+00	0	26	0	506462208	71	4784
2026-01-06 07:23:02.04	61.54	27.65	-52.7	-54.8	14.3	0.00e+00	0	26	0	508559360	71	4628
2026-01-06 07:23:03.03	61.27	27.74	-52.9	-55.1	14.1	0.00e+00	0	26	0	509607936	71	4771
2026-01-06 07:23:04.02	61.00	27.83	-52.9	-55.2	14.1	0.00e+00	0	26	0	511705088	71	4826
2026-01-06 07:23:05.02	60.72	27.92	-53.2	-55.5	14.0	0.00e+00	0	26	0	513802240	71	5029
2026-01-06 07:23:06.01	60.45	28.01	-53.1	-55.5	13.9	0.00e+00	0	26	0	515899392	71	5026
2026-01-06 07:23:07.00	60.17	28.10	-53.1	-55.5	13.9	0.00e+00	0	26	0	516947968	71	5021
2026-01-06 07:23:07.99	59.89	28.18	-53.2	-55.7	13.8	0.00e+00	0	26	0	519045120	71	5132
2026-01-06 07:23:08.98	59.61	28.27	-52.9	-55.3	14.0	0.00e+00	0	26	0	521142272	71	4899
2026-01-06 07:23:09.97	59.33	28.35	-53.0	-55.5	13.9	0.00e+00	0	26	0	523239424	71	5008
2026-01-06 07:23:10.97	59.04	28.44	-53.3	-55.9	13.8	0.00e+00	0	26	0	524288000	71	5265
2026-01-06 07:23:11.96	58.76	28.53	-53.9	-56.4	13.7	0.00e+00	0	26	0	526385152	72	5249
2026-01-06 07:23:12.95	58.47	28.61	-53.7	-56.4	13.6	0.00e+00	0	26	0	528482304	72	5273
2026-01-06 07:23:13.95	58.18	28.69	-53.8	-56.7	13.5	0.00e+00	0	26	0	530579456	72	5408
2026-01-06 07:23:14.94	57.89	28.78	-54.1	-57.1	13.3	0.00e+00	0	26	0	532676608	73	5385
2026-01-06 07:23:15.93	57.60	28.86	-54.2	-57.3	13.2	0.00e+00	0	26	0	533725184	73	5496
2026-01-06 07:23:16.92	57.31	28.94	-54.6	-57.9	13.0	0.00e+00	0	26	0	535822336	74	5576
2026-01-06 07:23:17.91	57.01	29.02	-54.4	-57.6	13.2	0.00e+00	0	26	0	537919488	74	5370
2026-01-06 07:23:18.91	56.71	29.10	-54.5	-57.7	13.1	0.00e+00	0	26	0	540016640	74	5436
2026-01-06 07:23:19.90	56.42	29.18	-54.5	-57.6	13.2	0.00e+00	0	26	0	541065216	74	5379
2026-01-06 07:23:20.89	56.12	29.26	-54.3	-57.4	13.3	0.00e+00	0	26	0	543162368	74	5232
2026-01-06 07:23:21.88	55.82	29.34	-54.2	-57.0	13.5	0.00e+00	0	26	0	545259520	74	5027
2026-01-06 07:23:22.88	55.51	29.42	-53.7	-56.3	13.9	0.00e+00	0	26	0	547356672	74	4616
2026-01-06 07:23:23.87	55.21	29.50	-53.4	-55.9	14.0	0.00e+00	0	26	0	549453824	73	4675
2026-01-06 07:23:24.87	54.90	29.58	-53.4	-55.9	14.1	0.00e+00	0	26	0	550502400	73	4673
2026-01-06 07:23:25.86	54.60	29.65	-53.6	-56.2	13.7	0.00e+00	0	26	0	552599552	72	5107
2026-01-06 07:23:26.86	54.29	29.73	-53.5	-56.1	13.8	0.00e+00	0	26	0	554696704	72	5061
2026-01-06 07:23:27.85	53.98	29.80	-53.7	-56.5	13.5	0.00e+00	0	26	0	556793856	72	5295
2026-01-06 07:23:28.84	53.67	29.88	-53.6	-56.5	13.5	0.00e+00	0	26	0	557842432	72	5302
2026-01-06 07:23:29.84	53.35	29.95	-53.6	-56.6	13.5	0.00e+00	0	26	0	559939584	72	5345
2026-01-06 07:23:30.83	53.04	30.02	-53.4	-56.2	13.7	0.00e+00	0	26	0	562036736	72	5123
2026-01-06 07:23:31.82	52.73	30.09	-53.4	-56.3	13.6	0.00e+00	0	26	0	564133888	72	5180
2026-01-06 07:23:32.81	52.41	30.16	-53.3	-56.1	13.7	0.00e+00	0	26	0	566231040	72	5051
2026-01-06 07:23:33.80	52.09	30.23	-52.9	-55.4	14.1	0.00e+00	0	26	0	567279616	72	4705
2026-01-06 07:23:34.80	51.77	30.30	-52.9	-55.4	14.1	0.00e+00	0	26	0	569376768	72	4674
2026-01-06 07:23:35.80	51.45	30.37	-53.0	-55.6	14.0	0.00e+00	0	26	0	571473920	72	4770
2026-01-06 07:23:36.79	51.13	30.44	-52.9	-55.4	14.1	0.00e+00	0	26	0	573571072	72	4689
2026-01-06 07:23:37.79	50.80	30.51	-53.0	-55.6	14.0	0.00e+00	0	26	0	574619648	72	4781
2026-01-06 07:23:38.78	50.48	30.57	-53.1	-55.7	14.0	0.00e+00	0	26	0	576716800	72	4824
2026-01-06 07:23:39.78	50.15	30.64	-52.8	-55.1	14.3	0.00e+00	0	26	0	578813952	72	4524
2026-01-06 07:23:40.78	49.82	30.70	-52.9	-55.2	14.2	0.00e+00	0	26	0	580911104	72	4590
2026-01-06 07:23:41.76	49.49	30.76	-53.2	-55.7	14.0	0.00e+00	0	26	0	583008256	72	4816
2026-01-06 07:23:42.75	49.16	30.83	-53.2	-55.7	14.0	0.00e+00	0	26	0	584056832	72	4818
2026-01-06 07:23:43.74	48.83	30.89	-52.9	-55.2	14.2	0.00e+00	0	26	0	586153984	72	4580
2026-01-06 07:23:44.74	48.50	30.95	-53.4	-55.9	13.9	0.00e+00	0	26	0	588251136	72	4983
2026-01-06 07:23:45.73	48.17	31.01	-53.5	-56.1	13.8	0.00e+00	0	26	0	590348288	72	5092
2026-01-06 07:23:46.73	47.83	31.06	-54.0	-57.1	13.3	0.00e+00	0	26	0	591396864	73	5372
2026-01-06 07:23:47.72	47.49	31.12	-54.2	-57.5	13.1	0.00e+00	0	26	0	593494016	73	5633
2026-01-06 07:23:48.71	47.16	31.18	-54.1	-57.3	13.2	0.00e+00	0	26	0	595591168	73	5517
2026-01-06 07:23:49.69	46.82	31.23	-53.4	-56.2	13.8	0.00e+00	0	26	0	597688320	73	4824
2026-01-06 07:23:50.69	46.48	31.29	-53.3	-56.0	13.8	0.00e+00	0	26	0	599785472	72	4984
2026-01-06 07:23:51.68	46.14	31.34	-53.0	-55.4	14.0	0.00e+00	0	26	0	600834048	72	4697
2026-01-06 07:23:52.68	45.80	31.39	-52.8	-55.2	14.2	0.00e+00	0	26	0	602931200	72	4576
2026-01-06 07:23:53.68	45.45	31.44	-52.8	-55.2	14.2	0.00e+00	0	26	0	605028352	72	4568
2026-01-06 07:23:54.66	45.11	31.49	-52.6	-55.0	14.2	0.00e+00	0	26	0	607125504	71	4710
2026-01-06 07:23:55.65	44.77	31.54	-52.7	-54.9	14.3	0.00e+00	0	26	0	608174080	71	4696
2026-01-06 07:23:56.65	44.42	31.59	-52.6	-54.8	14.3	0.00e+00	0	26	0	610271232	71	4637
2026-01-06 07:23:57.65	44.07	31.64	-52.8	-55.1	14.1	0.00e+00	0	26	0	612368384	71	4811
2026-01-06 07:23:58.64	43.72	31.68	-52.8	-55.1	14.2	0.00e+00	0	26	0	614465536	71	4770
2026-01-06 07:23:59.64	43.37	31.73	-52.6	-54.8	14.3	0.00e+00	0	26	0	616562688	71	4644
2026-01-06 07:24:00.64	43.02	31.77	-52.6	-54.9	14.3	0.00e+00	0	26	0	617611264	71	4674
2026-01-06 07:24:01.63	42.67	31.81	-52.8	-55.2	14.1	0.00e+00	0	26	0	619708416	71	4863
2026-01-06 07:24:02.62	42.31	31.85	-53.0	-55.5	13.9	0.00e+00	0	26	0	621805568	71	5038
2026-01-06 07:24:03.60	41.97	31.89	-53.1	-55.6	13.9	0.00e+00	0	26	0	623902720	71	5097
2026-01-06 07:24:04.60	41.61	31.93	-52.5	-54.8	14.3	0.00e+00	0	26	0	624951296	71	4627
2026-01-06 07:24:05.59	41.26	31.97	-52.1	-54.3	14.5	0.00e+00	0	26	0	627048448	70	4615
2026-01-06 07:24:06.58	40.90	32.00	-52.2	-54.4	14.4	0.00e+00	0	26	0	629145600	70	4668
2026-01-06 07:24:07.57	40.55	32.04	-52.8	-55.2	14.1	0.00e+00	0	26	0	631242752	70	5142
2026-01-06 07:24:08.58	40.18	32.07	-53.3	-55.9	13.8	0.00e+00	0	26	0	632291328	71	5244
2026-01-06 07:24:09.56	39.83	32.10	-53.6	-56.4	13.6	0.00e+00	0	26	0	634388480	72	5225
2026-01-06 07:24:10.55	39.47	32.13	-53.6	-56.3	13.6	0.00e+00	0	26	0	636485632	72	5214
2026-01-06 07:24:11.53	39.12	32.16	-53.2	-55.8	13.9	0.00e+00	0	26	0	638582784	72	4898
2026-01-06 07:24:12.52	38.76	32.19	-53.0	-55.4	14.2	0.00e+00	0	26	0	640679936	72	4676
2026-01-06 07:24:13.52	38.40	32.22	-52.8	-55.0	14.3	0.00e+00	0	26	0	641728512	72	4474
2026-01-06 07:24:14.52	38.03	32.25	-52.9	-55.2	14.3	0.00e+00	0	26	0	643825664	72	4549
2026-01-06 07:24:15.51	37.67	32.27	-53.0	-55.4	14.2	0.00e+00	0	26	0	645922816	72	4689
2026-01-06 07:24:16.50	37.31	32.30	-53.4	-56.1	13.8	0.00e+00	0	26	0	648019968	72	5043
2026-01-06 07:24:17.49	36.95	32.32	-53.7	-56.5	13.6	0.00e+00	0	26	0	649068544	72	5285
2026-01-06 07:24:18.49	36.59	32.34	-53.7	-56.5	13.6	0.00e+00	0	26	0	651165696	72	5282
2026-01-06 07:24:19.48	36.22	32.36	-53.4	-55.8	13.9	0.00e+00	0	26	0	653262848	72	4914
2026-01-06 07:24:20.46	35.86	32.38	-52.8	-54.9	14.4	0.00e+00	0	26	0	655360000	72	4436
2026-01-06 07:24:21.46	35.50	32.39	-52.4	-54.4	14.5	0.00e+00	0	26	0	657457152	71	4412
2026-01-06 07:24:22.45	35.13	32.41	-52.6	-54.8	14.3	0.00e+00	0	26	0	658505728	71	4622
2026-01-06 07:24:23.45	34.77	32.42	-53.2	-55.6	14.0	0.00e+00	0	26	0	660602880	71	5050
2026-01-06 07:24:24.44	34.40	32.44	-53.6	-56.3	13.7	0.00e+00	0	26	0	662700032	72	5175
2026-01-06 07:24:25.44	34.03	32.45	-53.7	-56.4	13.6	0.00e+00	0	26	0	664797184	72	5247
2026-01-06 07:24:26.42	33.67	32.46	-53.4	-55.9	13.8	0.00e+00	0	26	0	665845760	72	4976
2026-01-06 07:24:27.41	33.31	32.47	-53.9	-56.6	13.5	0.00e+00	0	26	0	667942912	72	5402
2026-01-06 07:24:28.40	32.94	32.48	-54.2	-57.1	13.4	0.00e+00	0	26	0	670040064	73	5395
2026-01-06 07:24:29.40	32.57	32.48	-54.7	-58.0	12.9	0.00e+00	0	26	0	672137216	74	5626
2026-01-06 07:24:30.39	32.21	32.49	-54.6	-57.9	13.0	0.00e+00	0	26	0	674234368	74	5530
2026-01-06 07:24:31.39	31.84	32.49	-54.3	-57.5	13.3	0.00e+00	0	26	0	675282944	74	5283
2026-01-06 07:24:32.38	31.47	32.50	-54.0	-56.9	13.6	0.00e+00	0	26	0	677380096	74	4953
2026-01-06 07:24:33.37	31.11	32.50	-54.0	-56.9	13.6	0.00e+00	0	26	0	679477248	74	4941
2026-01-06 07:24:34.37	30.74	32.50	-54.0	-56.9	13.5	0.00e+00	0	26	0	681574400	74	4976
2026-01-06 07:24:35.37	30.37	32.50	-53.8	-56.7	13.6	0.00e+00	0	26	0	682622976	74	4853
2026-01-06 07:24:36.37	30.00	32.49	-53.5	-56.2	13.8	0.00e+00	0	26	0	684720128	73	4824
2026-01-06 07:24:37.36	29.63	32.49	-53.1	-55.5	14.1	0.00e+00	0	26	0	686817280	72	4713
2026-01-06 07:24:38.35	29.27	32.48	-52.7	-54.9	14.3	0.00e+00	0	26	0	688914432	71	4676
2026-01-06 07:24:39.34	28.90	32.48	-52.4	-54.5	14.5	0.00e+00	0	26	0	691011584	71	4447
2026-01-06 07:24:40.33	28.54	32.47	-52.5	-54.7	14.4	0.00e+00	0	26	0	692060160	71	4550
2026-01-06 07:24:41.32	28.17	32.46	-53.2	-55.6	13.9	0.00e+00	0	26	0	694157312	71	5088
2026-01-06 07:24:42.32	27.81	32.45	-53.4	-56.0	13.9	0.00e+00	0	26	0	696254464	72	5005
2026-01-06 07:24:43.31	27.44	32.44	-53.7	-56.5	13.6	0.00e+00	0	26	0	698351616	72	5281
2026-01-06 07:24:44.30	27.08	32.42	-53.6	-56.2	13.8	0.00e+00	0	26	0	699400192	72	5132
2026-01-06 07:24:45.30	26.71	32.41	-54.0	-56.7	13.6	0.00e+00	0	26	0	701497344	73	5136
2026-01-06 07:24:46.29	26.35	32.39	-54.0	-56.7	13.6	0.00e+00	0	26	0	703594496	73	5120
2026-01-06 07:24:47.28	25.98	32.38	-54.0	-56.8	13.5	0.00e+00	0	26	0	705691648	73	5189
2026-01-06 07:24:48.27	25.62	32.36	-54.0	-56.7	13.6	0.00e+00	0	26	0	706740224	73	5107
2026-01-06 07:24:49.27	25.25	32.34	-54.0	-56.8	13.6	0.00e+00	0	26	0	708837376	73	5163
2026-01-06 07:24:50.25	24.90	32.32	-53.4	-55.9	14.0	0.00e+00	0	26	0	710934528	73	4681
2026-01-06 07:24:51.24	24.53	32.30	-53.8	-56.4	13.8	0.00e+00	0	26	0	713031680	73	4973
2026-01-06 07:24:52.23	24.17	32.27	-53.7	-56.4	13.8	0.00e+00	0	26	0	715128832	73	4942
2026-01-06 07:24:53.23	23.81	32.25	-53.8	-56.5	13.7	0.00e+00	0	26	0	716177408	73	5027
2026-01-06 07:24:54.23	23.45	32.22	-53.4	-55.9	14.0	0.00e+00	0	26	0	718274560	73	4699
2026-01-06 07:24:55.23	23.08	32.19	-53.2	-55.7	14.1	0.00e+00	0	26	0	720371712	73	4566
2026-01-06 07:24:56.21	22.73	32.16	-53.0	-55.4	14.1	0.00e+00	0	26	0	722468864	72	4677
2026-01-06 07:24:57.21	22.37	32.13	-52.9	-55.2	14.3	0.00e+00	0	26	0	723517440	72	4559
2026-01-06 07:24:58.20	22.01	32.10	-53.0	-55.3	14.2	0.00e+00	0	26	0	725614592	72	4651
2026-01-06 07:24:59.20	21.65	32.07	-53.4	-56.0	13.9	0.00e+00	0	26	0	727711744	72	5000
2026-01-06 07:25:00.18	21.30	32.04	-53.5	-56.2	13.7	0.00e+00	0	26	0	729808896	72	5147
2026-01-06 07:25:01.18	20.94	32.00	-53.4	-56.1	13.8	0.00e+00	0	26	0	731906048	72	5052
2026-01-06 07:25:02.17	20.59	31.97	-53.3	-56.0	13.8	0.00e+00	0	26	0	732954624	72	5013
2026-01-06 07:25:03.17	20.23	31.93	-52.9	-55.4	14.1	0.00e+00	0	26	0	735051776	72	4677
2026-01-06 07:25:04.17	19.87	31.89	-52.9	-55.3	14.2	0.00e+00	0	26	0	737148928	72	4647
2026-01-06 07:25:05.17	19.52	31.85	-52.9	-55.4	14.2	0.00e+00	0	26	0	739246080	72	4681
2026-01-06 07:25:06.17	19.16	31.81	-53.3	-55.9	13.9	0.00e+00	0	26	0	740294656	72	4938
2026-01-06 07:25:07.16	18.81	31.77	-53.7	-56.6	13.5	0.00e+00	0	26	0	742391808	72	5378
2026-01-06 07:25:08.15	18.46	31.72	-53.8	-56.7	13.5	0.00e+00	0	26	0	744488960	72	5421
2026-01-06 07:25:09.13	18.12	31.68	-53.2	-55.8	14.0	0.00e+00	0	26	0	746586112	72	4882
2026-01-06 07:25:10.13	17.77	31.63	-53.1	-55.6	14.1	0.00e+00	0	26	0	748683264	72	4796
2026-01-06 07:25:11.12	17.42	31.59	-53.1	-55.7	14.0	0.00e+00	0	26	0	749731840	72	4850
2026-01-06 07:25:12.11	17.08	31.54	-53.5	-56.2	13.8	0.00e+00	0	26	0	751828992	72	5108
2026-01-06 07:25:13.11	16.73	31.49	-53.5	-56.2	13.8	0.00e+00	0	26	0	753926144	72	5112
2026-01-06 07:25:14.10	16.39	31.44	-53.5	-56.2	13.7	0.00e+00	0	26	0	756023296	72	5151
2026-01-06 07:25:15.09	16.05	31.39	-53.6	-56.4	13.6	0.00e+00	0	26	0	757071872	72	5249
2026-01-06 07:25:16.08	15.71	31.34	-53.0	-55.6	14.0	0.00e+00	0	26	0	759169024	72	4795
2026-01-06 07:25:17.07	15.37	31.29	-52.5	-54.9	14.3	0.00e+00	0	26	0	761266176	71	4672
2026-01-06 07:25:18.07	15.02	31.23	-52.5	-54.8	14.3	0.00e+00	0	26	0	763363328	71	4647
2026-01-06 07:25:19.06	14.69	31.18	-52.4	-54.7	14.4	0.00e+00	0	26	0	765460480	71	4575
2026-01-06 07:25:20.06	14.35	31.12	-52.6	-54.9	14.3	0.00e+00	0	26	0	766509056	71	4680
2026-01-06 07:25:21.05	14.01	31.06	-52.8	-55.2	14.1	0.00e+00	0	26	0	768606208	71	4849
2026-01-06 07:25:22.04	13.68	31.01	-53.0	-55.4	14.0	0.00e+00	0	26	0	770703360	71	4965
2026-01-06 07:25:23.03	13.35	30.95	-53.2	-55.7	13.9	0.00e+00	0	26	0	772800512	71	5141
2026-01-06 07:25:24.03	13.01	30.89	-53.4	-56.0	13.9	0.00e+00	0	26	0	773849088	72	4991
2026-01-06 07:25:25.02	12.68	30.83	-53.4	-55.9	13.9	0.00e+00	0	26	0	775946240	72	4977
2026-01-06 07:25:26.02	12.35	30.76	-53.6	-56.2	13.8	0.00e+00	0	26	0	778043392	72	5147
2026-01-06 07:25:27.02	12.02	30.70	-54.0	-56.9	13.5	0.00e+00	0	26	0	780140544	73	5235
2026-01-06 07:25:28.01	11.69	30.64	-54.2	-57.2	13.3	0.00e+00	0	26	0	782237696	73	5459
2026-01-06 07:25:29.01	11.36	30.57	-54.3	-57.4	13.2	0.00e+00	0	26	0	783286272	73	5587
2026-01-06 07:25:30.01	11.04	30.51	-54.2	-57.2	13.3	0.00e+00	0	26	0	785383424	73	5418
2026-01-06 07:25:31.00	10.72	30.44	-54.2	-57.2	13.4	0.00e+00	0	26	0	787480576	74	5108
2026-01-06 07:25:32.00	10.39	30.37	-54.2	-57.4	13.2	0.00e+00	0	26	0	789577728	74	5225
2026-01-06 07:25:32.99	10.07	30.30	-54.5	-57.9	12.9	0.00e+00	0	26	0	790626304	74	5552
2026-01-06 07:25:33.99	9.75	30.23	-54.5	-57.9	12.9	0.00e+00	0	26	0	792723456	74	5579
2026-01-06 07:25:34.99	9.43	30.16	-54.4	-57.7	13.1	0.00e+00	0	26	0	794820608	74	5440
2026-01-06 07:25:35.99	9.11	30.09	-54.0	-56.9	13.6	0.00e+00	0	26	0	796917760	74	4962
2026-01-06 07:25:36.97	8.80	30.02	-54.0	-56.8	13.7	0.00e+00	0	26	0	799014912	74	4897
2026-01-06 07:25:37.96	8.49	29.95	-53.5	-56.1	13.9	0.00e+00	0	26	0	800063488	73	4778
2026-01-06 07:25:38.95	8.18	29.88	-53.5	-56.0	14.0	0.00e+00	0	26	0	802160640	73	4740
2026-01-06 07:25:39.94	7.87	29.80	-53.6	-56.2	13.9	0.00e+00	0	26	0	804257792	73	4834
2026-01-06 07:25:40.93	7.56	29.73	-53.8	-56.6	13.8	0.00e+00	0	26	0	806354944	73	5047
2026-01-06 07:25:41.93	7.25	29.65	-53.8	-56.7	13.6	0.00e+00	0	26	0	807403520	73	5117
2026-01-06 07:25:42.91	6.95	29.58	-53.7	-56.4	13.8	0.00e+00	0	26	0	809500672	73	4938
2026-01-06 07:25:43.91	6.64	29.50	-53.5	-56.1	13.8	0.00e+00	0	26	0	811597824	73	4783
2026-01-06 07:25:44.90	6.34	29.42	-53.4	-56.0	14.0	0.00e+00	0	26	0	813694976	73	4706
2026-01-06 07:25:45.89	6.04	29.34	-53.0	-55.4	14.1	0.00e+00	0	26	0	815792128	72	4677
2026-01-06 07:25:46.88	5.74	29.27	-52.5	-54.7	14.4	0.00e+00	0	26	0	816840704	71	4557
2026-01-06 07:25:47.87	5.44	29.19	-52.0	-54.1	14.5	0.00e+00	0	26	0	818937856	70	4495
2026-01-06 07:25:48.86	5.14	29.11	-51.3	-53.2	14.8	0.00e+00	0	26	0	821035008	69	4321
2026-01-06 07:25:49.85	4.85	29.03	-51.4	-53.3	14.8	0.00e+00	0	26	0	823132160	69	4377
2026-01-06 07:25:50.84	4.55	28.95	-51.7	-53.7	14.6	0.00e+00	0	26	0	824180736	69	4559
2026-01-06 07:25:51.83	4.26	28.86	-52.2	-54.4	14.3	0.00e+00	0	26	0	826277888	69	4936
2026-01-06 07:25:52.82	3.97	28.78	-52.1	-54.2	14.3	0.00e+00	0	26	0	828375040	69	4865
2026-01-06 07:25:53.81	3.68	28.70	-52.4	-54.6	14.1	0.00e+00	0	26	0	830472192	69	5085
2026-01-06 07:25:54.80	3.40	28.62	-52.7	-55.1	14.0	0.00e+00	0	26	0	831520768	70	5090
2026-01-06 07:25:55.79	3.11	28.53	-53.5	-56.3	13.6	0.00e+00	0	26	0	833617920	72	5206
2026-01-06 07:25:56.79	2.82	28.45	-53.5	-56.1	13.8	0.00e+00	0	26	0	835715072	72	5078
2026-01-06 07:25:57.78	2.54	28.36	-53.0	-55.3	14.2	0.00e+00	0	26	0	837812224	72	4629
2026-01-06 07:25:58.78	2.25	28.27	-52.3	-54.3	14.5	0.00e+00	0	26	0	839909376	71	4385
2026-01-06 07:25:59.77	1.97	28.19	-52.3	-54.4	14.4	0.00e+00	0	26	0	840957952	70	4674
2026-01-06 07:26:00.77	1.69	28.10	-52.6	-54.8	14.2	0.00e+00	0	26	0	843055104	70	4873
2026-01-06 07:26:01.76	1.42	28.01	-53.3	-55.8	13.9	0.00e+00	0	26	0	845152256	71	5213
2026-01-06 07:26:02.75	1.14	27.93	-54.3	-57.4	13.2	0.00e+00	0	26	0	847249408	73	5565
2026-01-06 07:26:03.75	0.86	27.84	-54.7	-58.1	12.9	0.00e+00	0	26	0	848297984	74	5699
2026-01-06 07:26:04.74	0.59	27.75	-54.8	-58.1	12.8	0.00e+00	0	26	0	850395136	74	5674
2026-01-06 07:26:05.74	0.32	27.66	-54.4	-57.4	13.3	0.00e+00	0	26	0	852492288	74	5231
2026-01-06 07:26:06.73	0.05	27.57	-54.3	-57.3	13.4	0.00e+00	0	26	0	854589440	74	5177
2026-01-06 07:26:07.73	359.78	27.48	-54.4	-57.2	13.4	0.00e+00	0	26	0	856686592	74	5159
2026-01-06 07:26:08.72	359.51	27.39	-54.0	-56.6	13.8	0.00e+00	0	26	0	857735168	74	4775
2026-01-06 07:26:09.71	359.25	27.30	-53.2	-55.6	14.2	0.00e+00	0	26	0	859832320	73	4500
2026-01-06 07:26:10.71	358.98	27.21	-53.3	-55.6	14.0	0.00e+00	0	26	0	861929472	72	4810
2026-01-06 07:26:11.70	358.72	27.12	-53.1	-55.4	14.2	0.00e+00	0	26	0	864026624	72	4664
2026-01-06 07:26:12.69	358.46	27.02	-53.0	-55.3	14.2	0.00e+00	0	26	0	865075200	72	4638
2026-01-06 07:26:13.68	358.20	26.93	-53.0	-55.2	14.3	0.00e+00	0	26	0	867172352	72	4583
2026-01-06 07:26:14.67	357.95	26.84	-52.9	-55.1	14.4	0.00e+00	0	26	0	869269504	72	4494
2026-01-06 07:26:15.66	357.69	26.75	-52.6	-54.6	14.4	0.00e+00	0	26	0	871366656	71	4537
2026-01-06 07:26:16.64	357.44	26.65	-52.1	-54.0	14.5	0.00e+00	0	26	0	873463808	70	4478
2026-01-06 07:26:17.64	357.18	26.56	-52.1	-54.0	14.6	0.00e+00	0	26	0	874512384	70	4444
2026-01-06 07:26:18.63	356.93	26.47	-52.2	-54.1	14.5	0.00e+00	0	26	0	876609536	70	4524
2026-01-06 07:26:19.62	356.68	26.37	-52.0	-53.9	14.6	0.00e+00	0	26	0	878706688	70	4418
2026-01-06 07:26:20.62	356.43	26.28	-52.0	-53.9	14.6	0.00e+00	0	26	0	880803840	70	4418
2026-01-06 07:26:21.61	356.19	26.18	-52.0	-53.9	14.6	0.00e+00	0	25	0	881852416	70	4417
2026-01-06 07:26:22.61	355.94	26.09	-52.0	-54.0	14.6	0.00e+00	0	26	0	883949568	70	4450
2026-01-06 07:26:23.61	355.69	25.99	-52.1	-54.0	14.5	0.00e+00	0	26	0	886046720	70	4489
2026-01-06 07:26:24.60	355.45	25.90	-52.2	-54.2	14.5	0.00e+00	0	26	0	888143872	70	4550
2026-01-06 07:26:25.60	355.21	25.80	-52.2	-54.2	14.5	0.00e+00	0	26	0	890241024	70	4590
2026-01-06 07:26:26.59	354.97	25.71	-52.2	-54.2	14.4	0.00e+00	0	26	0	891289600	70	4591
2026-01-06 07:26:27.59	354.73	25.61	-52.3	-54.3	14.4	0.00e+00	0	26	0	893386752	70	4651
2026-01-06 07:26:28.58	354.49	25.51	-52.1	-54.1	14.5	0.00e+00	0	26	0	895483904	70	4540
2026-01-06 07:26:29.57	354.26	25.42	-52.2	-54.2	14.5	0.00e+00	0	26	0	897581056	70	4594
2026-01-06 07:26:30.57	354.02	25.32	-52.2	-54.3	14.5	0.00e+00	0	26	0	898629632	70	4612
2026-01-06 07:26:31.56	353.79	25.22	-52.3	-54.4	14.4	0.00e+00	0	26	0	900726784	70	4698
2026-01-06 07:26:32.56	353.56	25.13	-52.3	-54.4	14.4	0.00e+00	0	26	0	902823936	70	4661
2026-01-06 07:26:33.56	353.32	25.03	-52.4	-54.4	14.4	0.00e+00	0	26	0	904921088	70	4694
2026-01-06 07:26:34.55	353.10	24.93	-52.3	-54.3	14.4	0.00e+00	0	26	0	907018240	70	4644
2026-01-06 07:26:35.54	352.87	24.83	-52.1	-54.1	14.5	0.00e+00	0	26	0	908066816	70	4530
2026-01-06 07:26:36.53	352.65	24.74	-51.8	-53.7	14.7	0.00e+00	0	26	0	910163968	70	4321
2026-01-06 07:26:37.53	352.42	24.64	-51.4	-53.2	14.8	0.00e+00	0	26	0	912261120	69	4327
2026-01-06 07:26:38.53	352.20	24.54	-51.2	-53.0	14.9	0.00e+00	0	26	0	914358272	69	4196
2026-01-06 07:26:39.53	351.97	24.44	-51.1	-52.8	14.8	0.00e+00	0	26	0	915406848	68	4353
2026-01-06 07:26:40.52	351.75	24.34	-50.3	-51.9	15.0	0.00e+00	0	26	0	917504000	67	4164
2026-01-06 07:26:41.50	351.54	24.25	-50.1	-51.6	15.0	0.00e+00	0	26	0	919601152	66	4252
2026-01-06 07:26:42.49	351.32	24.15	-50.1	-51.6	15.0	0.00e+00	0	26	0	921698304	66	4267
2026-01-06 07:26:43.49	351.10	24.05	-50.4	-52.0	14.8	0.00e+00	0	26	0	923795456	66	4476
2026-01-06 07:26:44.48	350.89	23.95	-50.7	-52.4	14.7	0.00e+00	0	26	0	924844032	66	4675
2026-01-06 07:26:45.48	350.68	23.85	-51.1	-52.9	14.7	0.00e+00	0	26	0	926941184	67	4685
2026-01-06 07:26:46.48	350.46	23.76	-51.3	-53.2	14.5	0.00e+00	0	26	0	929038336	67	4824
2026-01-06 07:26:47.47	350.25	23.66	-51.4	-53.2	14.6	0.00e+00	0	26	0	931135488	68	4590
2026-01-06 07:26:48.47	350.04	23.56	-51.3	-53.1	14.7	0.00e+00	0	26	0	932184064	68	4528
2026-01-06 07:26:49.46	349.84	23.46	-51.2	-53.0	14.8	0.00e+00	0	25	0	934281216	68	4459
2026-01-06 07:26:50.46	349.63	23.36	-51.0	-52.7	14.9	0.00e+00	0	26	0	936378368	68	4296
2026-01-06 07:26:51.46	349.42	23.26	-51.2	-52.9	14.8	0.00e+00	0	26	0	938475520	68	4396
2026-01-06 07:26:52.45	349.22	23.16	-51.6	-53.4	14.6	0.00e+00	0	26	0	940572672	68	4655
2026-01-06 07:26:53.44	349.02	23.06	-51.6	-53.5	14.5	0.00e+00	0	26	0	941621248	68	4734
2026-01-06 07:26:54.43	348.82	22.97	-51.5	-53.3	14.6	0.00e+00	0	26	0	943718400	68	4614
2026-01-06 07:26:55.43	348.62	22.87	-51.6	-53.5	14.5	0.00e+00	0	26	0	945815552	68	4716
2026-01-06 07:26:56.42	348.42	22.77	-51.6	-53.4	14.6	0.00e+00	0	26	0	947912704	68	4677
2026-01-06 07:26:57.42	348.22	22.67	-51.3	-53.1	14.7	0.00e+00	0	26	0	948961280	68	4494
2026-01-06 07:26:58.42	348.02	22.57	-51.4	-53.2	14.7	0.00e+00	0	26	0	951058432	68	4578
2026-01-06 07:26:59.42	347.83	22.47	-51.6	-53.4	14.6	0.00e+00	0	26	0	953155584	68	4674
2026-01-06 07:27:00.41	347.63	22.37	-51.7	-53.6	14.5	0.00e+00	0	26	0	955252736	68	4764
2026-01-06 07:27:01.40	347.44	22.27	-51.6	-53.4	14.6	0.00e+00	0	26	0	957349888	68	4701
2026-01-06 07:27:02.40	347.25	22.18	-51.7	-53.5	14.5	0.00e+00	0	26	0	958398464	68	4752
2026-01-06 07:27:03.39	347.06	22.08	-51.5	-53.3	14.6	0.00e+00	0	26	0	960495616	68	4621
2026-01-06 07:27:04.39	346.87	21.98	-51.4	-53.2	14.7	0.00e+00	0	26	0	962592768	68	4552
2026-01-06 07:27:05.38	346.68	21.88	-51.3	-53.0	14.7	0.00e+00	0	26	0	964689920	68	4485
2026-01-06 07:27:06.37	346.50	21.78	-51.4	-53.1	14.7	0.00e+00	0	26	0	965738496	68	4527
2026-01-06 07:27:07.35	346.32	21.69	-51.4	-53.2	14.6	0.00e+00	0	26	0	967835648	68	4568
2026-01-06 07:27:08.35	346.13	21.59	-51.6	-53.5	14.5	0.00e+00	0	26	0	969932800	68	4707
2026-01-06 07:27:09.33	345.95	21.49	-51.8	-53.7	14.5	0.00e+00	0	26	0	972029952	69	4589
2026-01-06 07:27:10.32	345.77	21.39	-51.9	-53.8	14.5	0.00e+00	0	26	0	973078528	69	4616
2026-01-06 07:27:11.30	345.59	21.30	-51.9	-53.8	14.5	0.00e+00	0	26	0	975175680	69	4613
2026-01-06 07:27:12.30	345.41	21.20	-51.9	-53.8	14.5	0.00e+00	0	26	0	977272832	69	4646
2026-01-06 07:27:13.30	345.23	21.10	-52.0	-53.9	14.5	0.00e+00	0	26	0	979369984	69	4665
2026-01-06 07:27:14.29	345.06	21.00	-51.7	-53.6	14.6	0.00e+00	0	26	0	981467136	69	4494
2026-01-06 07:27:15.29	344.88	20.90	-51.8	-53.7	14.6	0.00e+00	0	26	0	982515712	69	4555
2026-01-06 07:27:16.28	344.70	20.81	-51.7	-53.6	14.6	0.00e+00	0	26	0	984612864	69	4504
2026-01-06 07:27:17.28	344.53	20.71	-51.8	-53.7	14.6	0.00e+00	0	26	0	986710016	69	4564
2026-01-06 07:27:18.28	344.36	20.61	-51.8	-53.6	14.6	0.00e+00	0	26	0	988807168	69	4514
2026-01-06 07:27:19.28	344.18	20.51	-51.9	-53.7	14.6	0.00e+00	0	26	0	989855744	69	4571
2026-01-06 07:27:20.28	344.01	20.41	-52.0	-54.0	14.5	0.00e+00	0	26	0	991952896	69	4710
2026-01-06 07:27:21.28	343.84	20.32	-51.9	-53.8	14.5	0.00e+00	0	26	0	994050048	69	4614
2026-01-06 07:27:22.27	343.68	20.22	-52.1	-54.1	14.5	0.00e+00	0	25	0	996147200	69	4775
2026-01-06 07:27:23.27	343.51	20.12	-52.5	-54.6	14.3	0.00e+00	0	26	0	998244352	70	4784
2026-01-06 07:27:24.27	343.34	20.02	-52.9	-55.1	14.1	0.00e+00	0	26	0	999292928	70	5052
2026-01-06 07:27:25.26	343.18	19.93	-53.0	-55.2	14.1	0.00e+00	0	26	0	1001390080	71	4867
2026-01-06 07:27:26.25	343.01	19.83	-53.4	-55.8	13.9	0.00e+00	0	26	0	1003487232	71	5169
2026-01-06 07:27:27.24	342.85	19.74	-53.5	-56.0	13.9	0.00e+00	0	26	0	1005584384	72	4992
2026-01-06 07:27:28.24	342.69	19.64	-53.2	-55.5	14.1	0.00e+00	0	26	0	1007681536	72	4714
2026-01-06 07:27:29.25	342.53	19.54	-52.8	-55.0	14.4	0.00e+00	0	26	0	1008730112	72	4459
2026-01-06 07:27:30.25	342.36	19.44	-52.4	-54.4	14.5	0.00e+00	0	26	0	1010827264	71	4418
2026-01-06 07:27:31.25	342.21	19.35	-52.1	-54.0	14.5	0.00e+00	0	26	0	1012924416	70	4462
2026-01-06 07:27:32.24	342.05	19.25	-51.9	-53.8	14.7	0.00e+00	0	26	0	1015021568	70	4350
2026-01-06 07:27:33.24	341.89	19.16	-52.0	-53.9	14.6	0.00e+00	0	26	0	1016070144	70	4411
2026-01-06 07:27:34.24	341.73	19.06	-52.0	-53.9	14.6	0.00e+00	0	26	0	1018167296	70	4418
2026-01-06 07:27:35.23	341.58	18.97	-52.0	-53.8	14.7	0.00e+00	0	26	0	1020264448	70	4388
2026-01-06 07:27:36.23	341.43	18.87	-52.3	-54.3	14.4	0.00e+00	0	26	0	1022361600	70	4621
2026-01-06 07:27:37.23	341.27	18.77	-52.2	-54.2	14.4	0.00e+00	0	26	0	1024458752	70	4588
2026-01-06 07:27:38.22	341.12	18.68	-52.2	-54.2	14.5	0.00e+00	0	26	0	1025507328	70	4581
2026-01-06 07:27:39.22	340.97	18.59	-52.4	-54.4	14.4	0.00e+00	0	26	0	1027604480	70	4681
2026-01-06 07:27:40.22	340.82	18.49	-52.3	-54.3	14.4	0.00e+00	0	26	0	1029701632	70	4633
2026-01-06 07:27:41.23	340.67	18.39	-52.1	-54.0	14.5	0.00e+00	0	26	0	1031798784	70	4492
2026-01-06 07:27:42.22	340.52	18.30	-51.8	-53.7	14.6	0.00e+00	0	26	0	1032847360	70	4337
2026-01-06 07:27:43.21	340.37	18.21	-51.7	-53.6	14.7	0.00e+00	0	26	0	1034944512	70	4270
2026-01-06 07:27:44.21	340.23	18.11	-51.5	-53.4	14.7	0.00e+00	0	26	0	1037041664	69	4399
2026-01-06 07:27:45.20	340.08	18.02	-51.4	-53.2	14.8	0.00e+00	0	26	0	1039138816	69	4323
2026-01-06 07:27:46.20	339.94	17.92	-51.3	-53.1	14.8	0.00e+00	0	26	0	1041235968	69	4244
2026-01-06 07:27:47.20	339.79	17.83	-51.4	-53.2	14.8	0.00e+00	0	26	0	1042284544	69	4306
2026-01-06 07:27:48.20	339.65	17.74	-51.4	-53.2	14.8	0.00e+00	0	26	0	1044381696	69	4307
2026-01-06 07:27:49.19	339.51	17.64	-51.6	-53.4	14.7	0.00e+00	0	26	0	1046478848	69	4433
2026-01-06 07:27:50.18	339.37	17.55	-51.5	-53.3	14.7	0.00e+00	0	26	0	1048576000	69	4385
2026-01-06 07:27:51.18	339.23	17.46	-51.6	-53.4	14.7	0.00e+00	0	26	0	1049624576	69	4441
2026-01-06 07:27:52.19	339.09	17.36	-51.7	-53.5	14.6	0.00e+00	0	26	0	1051721728	69	4482
2026-01-06 07:27:53.18	338.95	17.27	-52.1	-54.0	14.4	0.00e+00	0	26	0	1053818880	69	4731
2026-01-06 07:27:54.18	338.81	17.18	-52.1	-54.0	14.4	0.00e+00	0	26	0	1055916032	69	4759
2026-01-06 07:27:55.17	338.68	17.09	-52.1	-54.1	14.4	0.00e+00	0	26	0	1058013184	69	4768
2026-01-06 07:27:56.17	338.54	17.00	-52.1	-54.1	14.3	0.00e+00	0	26	0	1059061760	69	4803
2026-01-06 07:27:57.17	338.41	16.90	-52.0	-54.0	14.4	0.00e+00	0	26	0	1061158912	69	4727
2026-01-06 07:27:58.17	338.27	16.81	-52.1	-54.1	14.4	0.00e+00	0	26	0	1063256064	69	4770
2026-01-06 07:27:59.16	338.14	16.72	-51.9	-53.9	14.4	0.00e+00	0	26	0	1065353216	69	4661
2026-01-06 07:28:00.16	338.01	16.63	-51.9	-53.9	14.5	0.00e+00	0	26	0	1067450368	69	4658
2026-01-06 07:28:01.16	337.88	16.54	-52.0	-53.9	14.4	0.00e+00	0	26	0	1068498944	69	4669
2026-01-06 07:28:02.16	337.74	16.45	-51.9	-53.8	14.5	0.00e+00	0	26	0	1070596096	69	4615
2026-01-06 07:28:03.15	337.62	16.36	-52.2	-54.2	14.3	0.00e+00	0	26	0	1072693248	69	4829
2026-01-06 07:28:04.15	337.49	16.26	-52.4	-54.5	14.2	0.00e+00	0	26	0	1074790400	69	4994
2026-01-06 07:28:05.15	337.36	16.17	-53.0	-55.2	14.0	0.00e+00	0	26	0	1076887552	71	4866
2026-01-06 07:28:06.15	337.23	16.08	-53.3	-55.7	13.8	0.00e+00	0	26	0	1077936128	71	5123
2026-01-06 07:28:07.15	337.10	15.99	-53.7	-56.3	13.6	0.00e+00	0	26	0	1080033280	72	5192
2026-01-06 07:28:08.13	336.98	15.90	-53.9	-56.6	13.5	0.00e+00	0	26	0	1082130432	73	5075
2026-01-06 07:28:09.13	336.85	15.81	-54.0	-56.8	13.4	0.00e+00	0	26	0	1084227584	73	5213
2026-01-06 07:28:10.13	336.73	15.72	-54.0	-56.8	13.4	0.00e+00	0	26	0	1085276160	73	5216
2026-01-06 07:28:11.12	336.61	15.64	-53.7	-56.3	13.7	0.00e+00	0	26	0	1087373312	73	4909
2026-01-06 07:28:12.12	336.48	15.55	-53.5	-56.0	13.9	0.00e+00	0	26	0	1089470464	73	4738
2026-01-06 07:28:13.12	336.36	15.46	-53.1	-55.5	14.1	0.00e+00	0	26	0	1091567616	72	4713
2026-01-06 07:28:14.12	336.24	15.37	-52.6	-54.7	14.3	0.00e+00	0	26	0	1093664768	71	4593
2026-01-06 07:28:15.11	336.12	15.28	-52.3	-54.3	14.5	0.00e+00	0	26	0	1094713344	71	4386
2026-01-06 07:28:16.11	336.00	15.19	-52.2	-54.2	14.4	0.00e+00	0	26	0	1096810496	70	4572
2026-01-06 07:28:17.10	335.88	15.10	-52.1	-54.1	14.5	0.00e+00	0	26	0	1098907648	70	4535
2026-01-06 07:28:18.10	335.76	15.02	-52.0	-53.9	14.6	0.00e+00	0	26	0	1101004800	70	4440
2026-01-06 07:28:19.09	335.64	14.93	-52.0	-54.0	14.5	0.00e+00	0	26	0	1102053376	70	4451
2026-01-06 07:28:20.09	335.53	14.84	-52.1	-54.1	14.5	0.00e+00	0	26	0	1104150528	70	4516
2026-01-06 07:28:21.09	335.41	14.75	-52.4	-54.5	14.3	0.00e+00	0	26	0	1106247680	70	4750
2026-01-06 07:28:22.09	335.29	14.67	-52.6	-54.8	14.1	0.00e+00	0	26	0	1108344832	70	4925
2026-01-06 07:28:23.08	335.18	14.58	-53.0	-55.4	14.0	0.00e+00	0	26	0	1110441984	71	4947
2026-01-06 07:28:24.07	335.07	14.49	-53.3	-55.8	13.8	0.00e+00	0	26	0	1111490560	71	5180
2026-01-06 07:28:25.07	334.95	14.41	-53.3	-55.8	13.7	0.00e+00	0	26	0	1113587712	71	5216
2026-01-06 07:28:26.08	334.84	14.32	-53.5	-56.1	13.7	0.00e+00	0	26	0	1115684864	72	5062
2026-01-06 07:28:27.08	334.72	14.23	-53.5	-56.1	13.7	0.00e+00	0	26	0	1117782016	72	5085
2026-01-06 07:28:28.07	334.61	14.15	-53.6	-56.2	13.6	0.00e+00	0	26	0	1118830592	72	5144
2026-01-06 07:28:29.07	334.50	14.06	-53.6	-56.2	13.7	0.00e+00	0	26	0	1120927744	72	5119
2026-01-06 07:28:30.08	334.39	13.97	-53.4	-55.8	13.9	0.00e+00	0	26	0	1123024896	72	4913
2026-01-06 07:28:31.07	334.28	13.89	-53.2	-55.6	14.0	0.00e+00	0	26	0	1125122048	72	4811
2026-01-06 07:28:32.06	334.17	13.80	-53.0	-55.3	14.1	0.00e+00	0	26	0	1127219200	72	4640
2026-01-06 07:28:33.06	334.07	13.72	-53.0	-55.3	14.1	0.00e+00	0	26	0	1128267776	72	4641
2026-01-06 07:28:34.06	333.96	13.63	-53.1	-55.5	14.0	0.00e+00	0	26	0	1130364928	72	4744
2026-01-06 07:28:35.05	333.85	13.55	-53.1	-55.5	14.0	0.00e+00	0	26	0	1132462080	72	4729
2026-01-06 07:28:36.05	333.74	13.46	-53.2	-55.5	14.0	0.00e+00	0	26	0	1134559232	72	4755
2026-01-06 07:28:37.06	333.64	13.38	-53.1	-55.5	14.0	0.00e+00	0	26	0	1136656384	72	4750
2026-01-06 07:28:38.05	333.53	13.30	-53.1	-55.5	14.0	0.00e+00	0	26	0	1137704960	72	4738
2026-01-06 07:28:39.05	333.43	13.21	-53.2	-55.6	13.9	0.00e+00	0	26	0	1139802112	72	4810
2026-01-06 07:28:40.04	333.33	13.13	-53.2	-55.7	13.9	0.00e+00	0	26	0	1141899264	72	4828
2026-01-06 07:28:41.04	333.22	13.04	-53.3	-55.7	13.9	0.00e+00	0	26	0	1143996416	72	4834
2026-01-06 07:28:42.05	333.12	12.96	-53.4	-55.8	13.8	0.00e+00	0	26	0	1146093568	72	4917
2026-01-06 07:28:43.04	333.02	12.88	-53.3	-55.8	13.8	0.00e+00	0	26	0	1147142144	72	4905
2026-01-06 07:28:44.04	332.91	12.79	-53.5	-56.0	13.7	0.00e+00	0	26	0	1149239296	72	5011
2026-01-06 07:28:45.04	332.81	12.71	-53.5	-56.1	13.7	0.00e+00	0	26	0	1151336448	72	5054
2026-01-06 07:28:46.04	332.71	12.63	-53.4	-56.0	13.7	0.00e+00	0	26	0	1153433600	72	5005
2026-01-06 07:28:47.04	332.61	12.55	-53.5	-56.0	13.7	0.00e+00	0	26	0	1154482176	72	5034
2026-01-06 07:28:48.04	332.51	12.46	-53.4	-56.0	13.7	0.00e+00	0	26	0	1156579328	72	5000
2026-01-06 07:28:49.03	332.42	12.38	-53.3	-55.7	13.9	0.00e+00	0	26	0	1158676480	72	4856
2026-01-06 07:28:50.04	332.32	12.30	-53.2	-55.6	14.0	0.00e+00	0	26	0	1160773632	72	4780
2026-01-06 07:28:51.03	332.22	12.22	-53.2	-55.7	13.9	0.00e+00	0	26	0	1162870784	72	4816
2026-01-06 07:28:52.03	332.12	12.14	-53.0	-55.3	14.1	0.00e+00	0	26	0	1163919360	72	4603
2026-01-06 07:28:53.03	332.03	12.05	-53.0	-55.3	14.1	0.00e+00	0	26	0	1166016512	72	4631
2026-01-06 07:28:54.02	331.93	11.97	-52.9	-55.2	14.2	0.00e+00	0	26	0	1168113664	72	4554
2026-01-06 07:28:55.03	331.83	11.89	-52.5	-54.7	14.3	0.00e+00	0	26	0	1170210816	71	4561
2026-01-06 07:28:56.03	331.74	11.81	-52.3	-54.4	14.5	0.00e+00	0	26	0	1171259392	71	4405
2026-01-06 07:28:57.03	331.64	11.73	-52.3	-54.4	14.4	0.00e+00	0	26	0	1173356544	71	4416
2026-01-06 07:28:58.03	331.55	11.65	-52.3	-54.4	14.4	0.00e+00	0	26	0	1175453696	71	4410
2026-01-06 07:28:59.02	331.46	11.57	-52.4	-54.5	14.4	0.00e+00	0	26	0	1177550848	71	4457
2026-01-06 07:29:00.03	331.36	11.49	-52.6	-54.7	14.3	0.00e+00	0	26	0	1179648000	71	4567
2026-01-06 07:29:01.03	331.27	11.41	-52.6	-54.8	14.2	0.00e+00	0	26	0	1180696576	71	4640
2026-01-06 07:29:02.03	331.18	11.33	-52.8	-55.1	14.1	0.00e+00	0	26	0	1182793728	71	4760
2026-01-06 07:29:03.02	331.09	11.25	-52.9	-55.2	14.0	0.00e+00	0	26	0	1184890880	71	4859
2026-01-06 07:29:04.02	331.00	11.17	-53.1	-55.5	13.9	0.00e+00	0	26	0	1186988032	71	5031
2026-01-06 07:29:05.01	330.91	11.09	-53.3	-55.8	13.7	0.00e+00	0	26	0	1189085184	71	5186
2026-01-06 07:29:06.01	330.82	11.01	-53.7	-56.3	13.5	0.00e+00	0	26	0	1190133760	72	5216
2026-01-06 07:29:07.00	330.73	10.93	-53.7	-56.4	13.5	0.00e+00	0	26	0	1192230912	72	5241
2026-01-06 07:29:08.00	330.64	10.86	-54.0	-56.8	13.3	0.00e+00	0	26	0	1194328064	73	5209
2026-01-06 07:29:09.00	330.55	10.78	-54.2	-57.1	13.2	0.00e+00	0	26	0	1196425216	73	5383
2026-01-06 07:29:09.99	330.47	10.70	-54.3	-57.4	13.0	0.00e+00	0	26	0	1197473792	73	5566
2026-01-06 07:29:10.99	330.38	10.62	-54.2	-57.2	13.1	0.00e+00	0	26	0	1199570944	73	5430
2026-01-06 07:29:11.98	330.29	10.54	-54.3	-57.4	13.0	0.00e+00	0	26	0	1201668096	73	5574
2026-01-06 07:29:12.98	330.21	10.47	-54.4	-57.5	13.1	0.00e+00	0	26	0	1203765248	74	5314
2026-01-06 07:29:13.98	330.12	10.39	-54.3	-57.4	13.2	0.00e+00	0	26	0	1205862400	74	5227
2026-01-06 07:29:14.97	330.04	10.31	-54.3	-57.3	13.1	0.00e+00	0	26	0	1206910976	74	5212
2026-01-06 07:29:15.97	329.95	10.24	-54.3	-57.3	13.2	0.00e+00	0	26	0	1209008128	74	5198
2026-01-06 07:29:16.96	329.87	10.16	-54.3	-57.3	13.2	0.00e+00	0	26	0	1211105280	74	5171
2026-01-06 07:29:17.96	329.79	10.08	-54.1	-57.0	13.4	0.00e+00	0	26	0	1213202432	74	5012
2026-01-06 07:29:18.96	329.70	10.01	-54.1	-57.0	13.3	0.00e+00	0	26	0	1214251008	74	5037
2026-01-06 07:29:19.97	329.62	9.93	-54.0	-56.9	13.4	0.00e+00	0	26	0	1216348160	74	4960
