passes_logs/2026/01/06/R3.2S_Murmansk/R3.2S_Murmansk__20260106_150231_FENGYUN_3D_rec.log

#Pass ID: 20260106_150231_FENGYUN 3D
#Satellite: FENGYUN 3D
#Configuration: FENGYUN 3D
#almurnet v.1.7.20251203
#Start time: 2026-01-06 15:02:31

#Version: 2.2.20231116
#Station: R3.2S_Murmansk
#Location: 33.079688 lon 68.888172 lat
#TLE: 1 43010U 17072A   26005.48915933 -.00000051  00000+0 -21983-5 0  9995
#TLE: 2 43010  98.9919 337.1582 0002001 124.6377 235.4988 14.19691925421909

#Time	Az	El	Level	Level2	SNR	BER	BlckErr	Temp	State	Recorded	gain1	gain2
2026-01-06 15:02:31.17	243.22	1.99	-58.3	-71.3	3.8	8.46e-01	0	23	0	0	82	16371
2026-01-06 15:02:32.18	243.32	2.04	-58.2	-71.3	3.8	8.45e-01	0	24	104	0	81	17298
2026-01-06 15:02:33.17	243.42	2.08	-58.2	-71.3	3.8	8.45e-01	0	23	104	0	81	17298
2026-01-06 15:02:34.17	243.52	2.13	-58.2	-71.3	3.8	8.45e-01	0	24	104	0	81	17285
2026-01-06 15:02:35.16	243.62	2.17	-58.2	-71.3	3.8	8.45e-01	0	24	104	0	81	17286
2026-01-06 15:02:36.16	243.72	2.21	-58.2	-71.3	3.8	8.47e-01	0	24	104	0	81	17304
2026-01-06 15:02:37.15	243.82	2.26	-58.2	-71.3	3.8	8.45e-01	0	24	104	0	81	17321
2026-01-06 15:02:38.15	243.93	2.30	-58.2	-71.3	3.8	8.45e-01	0	24	104	0	81	17290
2026-01-06 15:02:39.16	244.03	2.35	-58.2	-71.3	3.8	8.47e-01	0	24	104	0	81	17285
2026-01-06 15:02:40.16	244.13	2.39	-58.2	-71.2	3.8	8.47e-01	0	24	104	0	81	17278
2026-01-06 15:02:41.16	244.23	2.43	-58.2	-71.2	3.8	8.45e-01	0	24	104	0	81	17269
2026-01-06 15:02:42.16	244.34	2.48	-58.2	-71.2	3.8	8.46e-01	0	24	104	0	81	17122
2026-01-06 15:02:43.16	244.44	2.52	-58.2	-71.2	3.8	8.45e-01	0	24	104	0	81	17182
2026-01-06 15:02:44.17	244.54	2.57	-58.2	-71.1	3.8	8.46e-01	0	24	104	0	81	17055
2026-01-06 15:02:45.17	244.65	2.61	-58.2	-71.2	3.8	8.45e-01	0	24	104	0	81	17163
2026-01-06 15:02:46.17	244.75	2.65	-58.2	-71.2	3.8	8.46e-01	0	24	104	0	81	17143
2026-01-06 15:02:47.17	244.85	2.70	-58.2	-71.2	3.8	8.45e-01	0	24	104	0	81	17200
2026-01-06 15:02:48.18	244.96	2.74	-58.2	-71.2	3.8	8.45e-01	0	24	104	0	81	17236
2026-01-06 15:02:49.17	245.06	2.79	-58.2	-71.2	3.8	8.45e-01	0	24	104	0	81	17266
2026-01-06 15:02:50.17	245.17	2.83	-58.2	-71.2	3.8	8.45e-01	0	24	104	0	81	17239
2026-01-06 15:02:51.17	245.27	2.87	-58.2	-71.2	3.8	8.45e-01	0	24	104	0	81	17238
2026-01-06 15:02:52.17	245.38	2.92	-58.2	-71.3	3.8	8.46e-01	0	24	104	0	81	17293
2026-01-06 15:02:53.17	245.49	2.96	-58.2	-71.2	3.8	8.46e-01	0	24	104	0	81	17250
2026-01-06 15:02:54.17	245.59	3.01	-58.2	-71.2	3.8	8.45e-01	0	24	104	0	81	17274
2026-01-06 15:02:55.17	245.70	3.05	-58.2	-71.2	3.8	8.46e-01	0	24	104	0	81	17198
2026-01-06 15:02:56.18	245.81	3.09	-58.2	-71.1	3.8	8.44e-01	0	24	104	0	81	17013
2026-01-06 15:02:57.18	245.91	3.14	-58.2	-71.1	3.8	8.45e-01	0	24	104	0	81	16972
2026-01-06 15:02:58.18	246.02	3.18	-58.2	-71.1	3.8	8.46e-01	0	24	104	0	81	16995
2026-01-06 15:02:59.18	246.13	3.23	-58.2	-71.1	3.8	8.45e-01	0	24	104	0	81	16925
2026-01-06 15:03:00.18	246.24	3.27	-58.2	-71.1	3.8	8.46e-01	0	24	104	0	81	17003
2026-01-06 15:03:01.17	246.35	3.31	-58.2	-71.1	3.8	8.45e-01	0	24	104	0	81	17028
2026-01-06 15:03:02.18	246.46	3.36	-58.2	-71.2	3.8	8.46e-01	0	24	104	0	81	17176
2026-01-06 15:03:03.17	246.56	3.40	-58.2	-71.2	3.8	8.45e-01	0	24	104	0	81	17153
2026-01-06 15:03:04.17	246.67	3.44	-58.2	-71.2	3.8	8.46e-01	0	24	104	0	81	17244
2026-01-06 15:03:05.17	246.78	3.49	-58.2	-71.2	3.8	8.46e-01	0	24	104	0	81	17262
2026-01-06 15:03:06.17	246.89	3.53	-58.2	-71.3	3.8	8.47e-01	0	25	104	0	81	17307
2026-01-06 15:03:07.17	247.00	3.58	-58.2	-71.3	3.8	8.45e-01	0	24	104	0	81	17364
2026-01-06 15:03:08.17	247.11	3.62	-58.2	-71.2	3.8	8.45e-01	0	24	104	0	81	17230
2026-01-06 15:03:09.17	247.22	3.66	-58.2	-71.0	3.8	8.45e-01	0	24	104	0	81	16757
2026-01-06 15:03:10.16	247.33	3.71	-58.2	-71.0	3.8	8.45e-01	0	25	104	0	81	16728
2026-01-06 15:03:11.17	247.45	3.75	-58.2	-70.7	3.8	8.46e-01	0	24	104	0	81	16267
2026-01-06 15:03:12.17	247.56	3.79	-58.2	-71.0	3.8	8.46e-01	0	24	104	0	81	16725
2026-01-06 15:03:13.16	247.67	3.84	-58.2	-71.0	3.8	8.45e-01	0	25	104	0	81	16713
2026-01-06 15:03:14.15	247.78	3.88	-58.2	-71.1	3.8	8.47e-01	0	25	104	0	81	17045
2026-01-06 15:03:15.15	247.89	3.92	-58.2	-71.3	3.8	8.45e-01	0	25	104	0	81	17304
2026-01-06 15:03:16.15	248.01	3.97	-58.2	-71.3	3.8	8.46e-01	0	25	104	0	81	17307
2026-01-06 15:03:17.15	248.12	4.01	-58.2	-71.2	3.8	8.44e-01	0	25	104	0	81	17217
2026-01-06 15:03:18.16	248.24	4.06	-58.2	-70.9	3.8	8.46e-01	0	25	104	0	81	16636
2026-01-06 15:03:19.16	248.35	4.10	-58.2	-70.7	3.8	8.44e-01	0	25	104	0	81	16236
2026-01-06 15:03:20.15	248.46	4.14	-58.2	-70.8	3.8	8.45e-01	0	25	104	0	81	16379
2026-01-06 15:03:21.16	248.58	4.19	-58.2	-71.0	3.8	8.46e-01	0	25	104	0	81	16746
2026-01-06 15:03:22.16	248.69	4.23	-58.2	-70.9	3.8	8.46e-01	0	25	104	0	81	16593
2026-01-06 15:03:23.16	248.81	4.27	-58.2	-70.9	3.8	8.45e-01	0	25	104	0	81	16590
2026-01-06 15:03:24.16	248.93	4.32	-58.2	-70.7	3.8	8.46e-01	0	25	104	0	81	16201
2026-01-06 15:03:25.16	249.04	4.36	-58.2	-70.6	3.8	8.46e-01	0	25	104	0	81	15946
2026-01-06 15:03:26.16	249.16	4.40	-58.2	-70.3	3.8	8.45e-01	0	25	104	0	81	15558
2026-01-06 15:03:27.15	249.27	4.45	-58.1	-70.4	3.8	8.46e-01	0	25	104	0	81	15647
2026-01-06 15:03:28.15	249.39	4.49	-58.2	-70.8	3.8	8.45e-01	0	25	104	0	81	16436
2026-01-06 15:03:29.15	249.51	4.53	-58.2	-71.2	3.8	8.46e-01	0	25	104	0	81	17102
2026-01-06 15:03:30.15	249.63	4.58	-58.2	-71.0	3.8	8.45e-01	0	25	104	0	81	16709
2026-01-06 15:03:31.15	249.74	4.62	-58.1	-69.6	3.8	8.45e-01	0	25	104	0	81	14263
2026-01-06 15:03:32.15	249.86	4.66	-57.9	-68.0	3.9	8.43e-01	0	25	104	0	81	11851
2026-01-06 15:03:33.15	249.98	4.71	-57.7	-66.0	4.8	8.09e-01	0	25	0	0	81	9396
2026-01-06 15:03:34.15	250.10	4.75	-57.5	-64.8	5.4	7.27e-01	0	25	0	0	81	8255
2026-01-06 15:03:35.15	250.22	4.79	-57.4	-64.3	5.7	4.55e-01	0	25	0	3145728	81	7806
2026-01-06 15:03:36.15	250.34	4.84	-57.0	-62.9	6.7	2.65e-01	0	25	0	8388608	80	7031
2026-01-06 15:03:37.15	250.46	4.88	-56.1	-60.4	8.9	3.50e-02	0	25	0	14680064	78	5859
2026-01-06 15:03:38.14	250.58	4.92	-54.9	-58.1	10.8	2.06e-03	0	25	0	19922944	76	5050
2026-01-06 15:03:39.15	250.70	4.96	-53.6	-56.0	12.1	1.02e-05	0	25	0	25165824	73	4758
2026-01-06 15:03:40.15	250.82	5.01	-52.3	-54.3	13.2	0.00e+00	0	25	0	31457280	71	4347
2026-01-06 15:03:41.15	250.94	5.05	-52.5	-54.5	12.9	0.00e+00	0	25	0	36700160	70	4751
2026-01-06 15:03:42.15	251.06	5.09	-57.1	-63.5	6.1	5.36e-01	0	25	0	41943040	80	7459
2026-01-06 15:03:43.14	251.19	5.14	-52.9	-55.0	12.8	0.00e+00	0	25	0	47185920	71	4730
2026-01-06 15:03:44.15	251.31	5.18	-55.3	-58.8	10.2	4.24e-03	0	25	0	52428800	76	5501
2026-01-06 15:03:45.15	251.43	5.22	-50.0	-51.5	14.3	0.00e+00	0	25	0	58720256	66	4194
2026-01-06 15:03:46.15	251.56	5.26	-49.7	-51.2	14.4	0.00e+00	0	25	0	63963136	66	4069
2026-01-06 15:03:47.14	251.68	5.31	-49.7	-51.2	14.3	0.00e+00	0	25	0	69206016	65	4320
2026-01-06 15:03:48.15	251.80	5.35	-49.5	-50.9	14.4	0.00e+00	0	25	0	75497472	65	4185
2026-01-06 15:03:49.15	251.93	5.39	-49.6	-51.0	14.4	0.00e+00	0	25	0	80740352	65	4229
2026-01-06 15:03:50.15	252.05	5.43	-49.3	-50.7	14.5	0.00e+00	0	25	0	87031808	65	4078
2026-01-06 15:03:51.16	252.18	5.48	-49.4	-50.8	14.5	0.00e+00	0	25	0	92274688	65	4106
2026-01-06 15:03:52.16	252.30	5.52	-49.5	-50.9	14.4	0.00e+00	0	25	0	97517568	65	4175
2026-01-06 15:03:53.16	252.43	5.56	-49.5	-50.9	14.5	0.00e+00	0	25	0	103809024	65	4157
2026-01-06 15:03:54.17	252.56	5.61	-49.3	-50.7	14.5	0.00e+00	0	25	0	109051904	65	4086
2026-01-06 15:03:55.17	252.68	5.65	-49.2	-50.6	14.6	0.00e+00	0	25	0	114294784	65	4031
2026-01-06 15:03:56.17	252.81	5.69	-49.4	-50.9	14.5	0.00e+00	0	25	0	120586240	65	4150
2026-01-06 15:03:57.17	252.94	5.73	-49.2	-50.6	14.6	0.00e+00	0	25	0	125829120	65	4036
2026-01-06 15:03:58.17	253.06	5.77	-49.5	-50.9	14.4	0.00e+00	0	25	0	131072000	65	4161
2026-01-06 15:03:59.17	253.19	5.82	-49.3	-50.7	14.6	0.00e+00	0	25	0	137363456	65	4080
2026-01-06 15:04:00.17	253.32	5.86	-49.4	-50.8	14.5	0.00e+00	0	25	0	142606336	65	4134
2026-01-06 15:04:01.17	253.45	5.90	-49.7	-51.2	14.3	0.00e+00	0	25	0	148897792	65	4293
2026-01-06 15:04:02.17	253.58	5.94	-49.4	-50.8	14.5	0.00e+00	0	25	0	154140672	65	4109
2026-01-06 15:04:03.18	253.71	5.99	-49.4	-50.9	14.5	0.00e+00	0	25	0	160432128	65	4158
2026-01-06 15:04:04.18	253.84	6.03	-49.6	-51.0	14.4	0.00e+00	0	25	0	165675008	65	4213
2026-01-06 15:04:05.18	253.97	6.07	-49.4	-50.9	14.5	0.00e+00	0	25	0	170917888	65	4152
2026-01-06 15:04:06.18	254.10	6.11	-49.6	-51.0	14.4	0.00e+00	0	25	0	177209344	65	4226
2026-01-06 15:04:07.18	254.23	6.15	-49.5	-51.0	14.4	0.00e+00	0	25	0	182452224	65	4209
2026-01-06 15:04:08.18	254.36	6.19	-49.3	-50.8	14.5	0.00e+00	0	25	0	187695104	65	4107
2026-01-06 15:04:09.18	254.49	6.24	-49.4	-50.9	14.5	0.00e+00	0	25	0	193986560	65	4147
2026-01-06 15:04:10.17	254.62	6.28	-49.4	-50.8	14.5	0.00e+00	0	25	0	199229440	65	4140
2026-01-06 15:04:11.18	254.75	6.32	-49.6	-51.0	14.4	0.00e+00	0	25	0	204472320	65	4223
2026-01-06 15:04:12.18	254.89	6.36	-49.7	-51.1	14.4	0.00e+00	0	25	0	210763776	65	4281
2026-01-06 15:04:13.18	255.02	6.40	-49.4	-50.8	14.5	0.00e+00	0	25	0	216006656	65	4125
2026-01-06 15:04:14.19	255.15	6.44	-49.4	-50.9	14.5	0.00e+00	0	25	0	222298112	65	4147
2026-01-06 15:04:15.18	255.28	6.48	-49.4	-50.8	14.5	0.00e+00	0	25	0	227540992	65	4128
2026-01-06 15:04:16.18	255.42	6.53	-49.4	-50.8	14.5	0.00e+00	0	25	0	232783872	65	4133
2026-01-06 15:04:17.17	255.55	6.57	-49.4	-50.9	14.5	0.00e+00	0	25	0	238026752	65	4149
2026-01-06 15:04:18.17	255.69	6.61	-49.4	-50.8	14.5	0.00e+00	0	25	0	244318208	65	4110
2026-01-06 15:04:19.17	255.82	6.65	-49.4	-50.8	14.5	0.00e+00	0	25	0	249561088	65	4131
2026-01-06 15:04:20.17	255.96	6.69	-49.4	-50.8	14.5	0.00e+00	0	25	0	255852544	65	4103
2026-01-06 15:04:21.17	256.09	6.73	-49.2	-50.5	14.7	0.00e+00	0	25	0	261095424	65	4000
2026-01-06 15:04:22.17	256.23	6.77	-49.5	-50.9	14.3	0.00e+00	0	25	0	266338304	64	4430
2026-01-06 15:04:23.16	256.36	6.81	-49.2	-50.6	14.5	0.00e+00	0	25	0	272629760	64	4259
2026-01-06 15:04:24.17	256.50	6.85	-49.2	-50.6	14.5	0.00e+00	0	25	0	277872640	64	4254
2026-01-06 15:04:25.17	256.64	6.89	-49.3	-50.7	14.5	0.00e+00	0	25	0	283115520	64	4304
2026-01-06 15:04:26.18	256.78	6.93	-49.1	-50.4	14.6	0.00e+00	0	25	0	289406976	64	4178
2026-01-06 15:04:27.18	256.91	6.97	-49.0	-50.3	14.6	0.00e+00	0	25	0	294649856	64	4135
2026-01-06 15:04:28.19	257.05	7.02	-49.1	-50.5	14.5	0.00e+00	0	25	0	300941312	64	4199
2026-01-06 15:04:29.18	257.19	7.05	-48.8	-50.1	14.7	0.00e+00	0	25	0	306184192	64	4045
2026-01-06 15:04:30.18	257.33	7.10	-48.9	-50.2	14.7	0.00e+00	0	25	0	311427072	64	4084
2026-01-06 15:04:31.18	257.47	7.14	-48.9	-50.2	14.7	0.00e+00	0	25	0	317718528	64	4085
2026-01-06 15:04:32.17	257.61	7.17	-48.8	-50.2	14.7	0.00e+00	0	25	0	322961408	64	4056
2026-01-06 15:04:33.17	257.75	7.21	-48.7	-50.0	14.8	0.00e+00	0	25	0	328204288	64	3973
2026-01-06 15:04:34.16	257.89	7.25	-48.7	-50.0	14.7	0.00e+00	0	25	0	334495744	63	4203
2026-01-06 15:04:35.16	258.03	7.29	-48.9	-50.3	14.5	0.00e+00	0	25	0	339738624	63	4350
2026-01-06 15:04:36.16	258.17	7.33	-48.8	-50.1	14.6	0.00e+00	0	25	0	344981504	63	4258
2026-01-06 15:04:37.16	258.31	7.37	-48.7	-50.0	14.7	0.00e+00	0	25	0	351272960	63	4196
2026-01-06 15:04:38.17	258.45	7.41	-48.8	-50.1	14.6	0.00e+00	0	25	0	356515840	63	4290
2026-01-06 15:04:39.17	258.60	7.45	-48.9	-50.2	14.6	0.00e+00	0	25	0	361758720	63	4316
2026-01-06 15:04:40.16	258.74	7.49	-48.9	-50.2	14.6	0.00e+00	0	25	0	368050176	63	4331
2026-01-06 15:04:41.17	258.88	7.53	-48.9	-50.3	14.5	0.00e+00	0	25	0	373293056	63	4343
2026-01-06 15:04:42.17	259.03	7.57	-48.7	-50.0	14.7	0.00e+00	0	25	0	379584512	63	4223
2026-01-06 15:04:43.16	259.17	7.61	-48.8	-50.1	14.6	0.00e+00	0	25	0	384827392	63	4258
2026-01-06 15:04:44.15	259.31	7.65	-49.0	-50.3	14.5	0.00e+00	0	25	0	390070272	63	4362
2026-01-06 15:04:45.15	259.46	7.69	-48.8	-50.1	14.6	0.00e+00	0	25	0	396361728	63	4282
2026-01-06 15:04:46.15	259.60	7.73	-48.9	-50.2	14.6	0.00e+00	0	25	0	401604608	63	4320
2026-01-06 15:04:47.15	259.75	7.76	-49.0	-50.3	14.5	0.00e+00	0	25	0	406847488	63	4376
2026-01-06 15:04:48.14	259.89	7.80	-48.9	-50.2	14.6	0.00e+00	0	25	0	413138944	63	4335
2026-01-06 15:04:49.13	260.03	7.84	-48.8	-50.2	14.6	0.00e+00	0	25	0	418381824	63	4300
2026-01-06 15:04:50.13	260.18	7.88	-48.7	-50.0	14.7	0.00e+00	0	26	0	423624704	63	4225
2026-01-06 15:04:51.13	260.33	7.92	-48.7	-50.0	14.7	0.00e+00	0	25	0	429916160	63	4218
2026-01-06 15:04:52.12	260.47	7.96	-48.6	-49.9	14.7	0.00e+00	0	25	0	435159040	63	4184
2026-01-06 15:04:53.12	260.62	7.99	-48.8	-50.1	14.6	0.00e+00	0	25	0	440401920	63	4280
2026-01-06 15:04:54.12	260.77	8.03	-48.8	-50.1	14.6	0.00e+00	0	25	0	446693376	63	4258
2026-01-06 15:04:55.12	260.92	8.07	-48.5	-49.8	14.8	0.00e+00	0	25	0	451936256	63	4113
2026-01-06 15:04:56.13	261.07	8.11	-48.6	-49.9	14.7	0.00e+00	0	25	0	458227712	63	4156
2026-01-06 15:04:57.12	261.21	8.14	-48.7	-50.0	14.7	0.00e+00	0	25	0	463470592	63	4199
2026-01-06 15:04:58.12	261.36	8.18	-48.6	-49.9	14.7	0.00e+00	0	25	0	468713472	63	4174
2026-01-06 15:04:59.13	261.51	8.22	-48.6	-49.9	14.7	0.00e+00	0	25	0	475004928	63	4186
2026-01-06 15:05:00.13	261.66	8.26	-48.5	-49.8	14.8	0.00e+00	0	25	0	480247808	63	4111
2026-01-06 15:05:01.12	261.81	8.29	-48.3	-49.6	14.9	0.00e+00	0	25	0	485490688	63	4022
2026-01-06 15:05:02.12	261.96	8.33	-48.6	-49.9	14.7	0.00e+00	0	25	0	491782144	63	4150
2026-01-06 15:05:03.12	262.11	8.37	-48.5	-49.8	14.7	0.00e+00	0	25	0	497025024	63	4130
2026-01-06 15:05:04.13	262.27	8.41	-48.5	-49.8	14.8	0.00e+00	0	25	0	503316480	63	4128
2026-01-06 15:05:05.13	262.42	8.44	-48.4	-49.7	14.8	0.00e+00	0	25	0	508559360	63	4075
2026-01-06 15:05:06.13	262.57	8.48	-48.5	-49.8	14.8	0.00e+00	0	25	0	513802240	63	4105
2026-01-06 15:05:07.13	262.72	8.52	-48.5	-49.7	14.8	0.00e+00	0	25	0	520093696	63	4090
2026-01-06 15:05:08.13	262.88	8.55	-48.6	-49.8	14.7	0.00e+00	0	25	0	525336576	63	4144
2026-01-06 15:05:09.13	263.03	8.59	-48.6	-49.9	14.7	0.00e+00	0	25	0	530579456	63	4164
2026-01-06 15:05:10.12	263.18	8.62	-48.5	-49.8	14.8	0.00e+00	0	25	0	535822336	63	4119
2026-01-06 15:05:11.12	263.34	8.66	-48.4	-49.7	14.8	0.00e+00	0	25	0	542113792	63	4065
2026-01-06 15:05:12.12	263.49	8.70	-48.4	-49.6	14.9	0.00e+00	0	25	0	547356672	63	4031
2026-01-06 15:05:13.11	263.65	8.73	-48.4	-49.6	14.9	0.00e+00	0	25	0	553648128	63	4044
2026-01-06 15:05:14.11	263.80	8.77	-48.4	-49.6	14.9	0.00e+00	0	25	0	558891008	63	4036
2026-01-06 15:05:15.10	263.95	8.80	-48.4	-49.7	14.8	0.00e+00	0	25	0	564133888	63	4075
2026-01-06 15:05:16.09	264.11	8.84	-48.5	-49.8	14.8	0.00e+00	0	25	0	570425344	63	4123
2026-01-06 15:05:17.09	264.27	8.87	-48.3	-49.5	14.9	0.00e+00	0	25	0	575668224	63	3999
2026-01-06 15:05:18.09	264.42	8.91	-48.3	-49.6	14.9	0.00e+00	0	25	0	580911104	63	4031
2026-01-06 15:05:19.09	264.58	8.94	-48.4	-49.6	14.9	0.00e+00	0	25	0	587202560	63	4046
2026-01-06 15:05:20.09	264.74	8.98	-48.5	-49.8	14.8	0.00e+00	0	25	0	592445440	63	4108
2026-01-06 15:05:21.09	264.89	9.01	-48.3	-49.6	14.9	0.00e+00	0	25	0	597688320	63	4026
2026-01-06 15:05:22.09	265.05	9.05	-48.5	-49.8	14.8	0.00e+00	0	26	0	603979776	63	4111
2026-01-06 15:05:23.09	265.21	9.08	-48.6	-49.9	14.7	0.00e+00	0	25	0	609222656	63	4183
2026-01-06 15:05:24.09	265.37	9.12	-48.7	-50.0	14.7	0.00e+00	0	25	0	615514112	63	4235
2026-01-06 15:05:25.09	265.53	9.15	-48.6	-49.9	14.8	0.00e+00	0	25	0	620756992	63	4163
2026-01-06 15:05:26.09	265.69	9.18	-48.5	-49.8	14.8	0.00e+00	0	25	0	625999872	63	4139
2026-01-06 15:05:27.09	265.85	9.22	-48.4	-49.7	14.8	0.00e+00	0	26	0	632291328	63	4076
2026-01-06 15:05:28.09	266.01	9.25	-48.1	-49.4	14.8	0.00e+00	0	25	0	637534208	62	4150
2026-01-06 15:05:29.08	266.17	9.29	-48.1	-49.4	14.8	0.00e+00	0	25	0	642777088	62	4156
2026-01-06 15:05:30.09	266.33	9.32	-48.3	-49.6	14.7	0.00e+00	0	25	0	649068544	62	4271
2026-01-06 15:05:31.09	266.49	9.35	-48.6	-49.9	14.6	0.00e+00	0	25	0	654311424	62	4416
2026-01-06 15:05:32.08	266.65	9.39	-49.0	-50.3	14.5	0.00e+00	0	25	0	659554304	63	4379
2026-01-06 15:05:33.08	266.81	9.42	-49.5	-50.9	14.3	0.00e+00	0	25	0	665845760	64	4434
2026-01-06 15:05:34.08	266.98	9.45	-50.3	-51.9	13.9	0.00e+00	0	25	0	671088640	65	4653
2026-01-06 15:05:35.08	267.14	9.48	-50.7	-52.3	13.8	0.00e+00	0	26	0	677380096	66	4632
2026-01-06 15:05:36.08	267.30	9.52	-50.8	-52.4	13.7	0.00e+00	0	26	0	682622976	66	4697
2026-01-06 15:05:37.08	267.46	9.55	-50.7	-52.3	13.7	0.00e+00	0	26	0	687865856	66	4636
2026-01-06 15:05:38.08	267.63	9.58	-50.3	-51.9	14.0	0.00e+00	0	26	0	694157312	66	4398
2026-01-06 15:05:39.08	267.79	9.61	-50.3	-51.9	13.9	0.00e+00	0	25	0	699400192	66	4424
2026-01-06 15:05:40.07	267.96	9.64	-50.5	-52.2	13.8	0.00e+00	0	25	0	704643072	66	4562
2026-01-06 15:05:41.06	268.12	9.68	-51.1	-52.9	13.4	0.00e+00	0	26	0	709885952	67	4691
2026-01-06 15:05:42.06	268.28	9.71	-51.9	-53.9	13.0	0.00e+00	0	26	0	716177408	68	4932
2026-01-06 15:05:43.06	268.45	9.74	-52.2	-54.3	12.8	0.00e+00	0	26	0	721420288	69	4903
2026-01-06 15:05:44.07	268.62	9.77	-52.4	-54.6	12.7	0.00e+00	0	26	0	727711744	70	4766
2026-01-06 15:05:45.06	268.78	9.80	-51.9	-53.9	13.2	0.00e+00	0	26	0	732954624	70	4404
2026-01-06 15:05:46.07	268.95	9.83	-51.5	-53.5	13.4	0.00e+00	0	26	0	738197504	69	4442
2026-01-06 15:05:47.06	269.11	9.86	-51.3	-53.1	13.6	0.00e+00	0	26	0	744488960	69	4262
2026-01-06 15:05:48.07	269.28	9.89	-50.4	-52.0	14.0	0.00e+00	0	25	0	749731840	67	4217
2026-01-06 15:05:49.07	269.45	9.92	-49.8	-51.3	14.3	0.00e+00	0	25	0	754974720	66	4131
2026-01-06 15:05:50.07	269.62	9.95	-49.6	-51.1	14.3	0.00e+00	0	25	0	761266176	65	4263
2026-01-06 15:05:51.06	269.79	9.98	-49.5	-51.0	14.4	0.00e+00	0	26	0	766509056	65	4195
2026-01-06 15:05:52.06	269.95	10.01	-49.4	-50.9	14.4	0.00e+00	0	26	0	772800512	65	4157
2026-01-06 15:05:53.05	270.12	10.04	-49.3	-50.6	14.5	0.00e+00	0	25	0	778043392	65	4051
2026-01-06 15:05:54.05	270.29	10.07	-49.3	-50.6	14.6	0.00e+00	0	25	0	783286272	65	4046
2026-01-06 15:05:55.05	270.46	10.10	-49.3	-50.7	14.6	0.00e+00	0	26	0	789577728	65	4056
2026-01-06 15:05:56.04	270.63	10.13	-48.8	-50.1	14.8	0.00e+00	0	26	0	794820608	64	4011
2026-01-06 15:05:57.05	270.80	10.16	-48.4	-49.7	14.9	0.00e+00	0	26	0	800063488	63	4053
2026-01-06 15:05:58.05	270.97	10.19	-48.1	-49.3	14.8	0.00e+00	0	26	0	806354944	62	4120
2026-01-06 15:05:59.05	271.14	10.22	-48.0	-49.2	14.9	0.00e+00	0	26	0	811597824	62	4081
2026-01-06 15:06:00.05	271.31	10.24	-48.0	-49.2	14.9	0.00e+00	0	26	0	816840704	62	4094
2026-01-06 15:06:01.05	271.48	10.27	-48.1	-49.4	14.8	0.00e+00	0	25	0	823132160	62	4171
2026-01-06 15:06:02.06	271.66	10.30	-48.4	-49.7	14.7	0.00e+00	0	25	0	828375040	62	4297
2026-01-06 15:06:03.05	271.83	10.33	-48.6	-49.9	14.6	0.00e+00	0	26	0	834666496	62	4411
2026-01-06 15:06:04.05	272.00	10.36	-48.4	-49.7	14.7	0.00e+00	0	26	0	839909376	62	4301
2026-01-06 15:06:05.05	272.17	10.38	-48.3	-49.6	14.8	0.00e+00	0	26	0	845152256	62	4254
2026-01-06 15:06:06.05	272.34	10.41	-48.1	-49.4	14.8	0.00e+00	0	26	0	851443712	62	4153
2026-01-06 15:06:07.04	272.52	10.44	-48.0	-49.2	14.9	0.00e+00	0	25	0	856686592	62	4079
2026-01-06 15:06:08.03	272.69	10.46	-48.0	-49.3	14.9	0.00e+00	0	26	0	861929472	62	4117
2026-01-06 15:06:09.03	272.86	10.49	-48.1	-49.3	14.9	0.00e+00	0	26	0	868220928	62	4143
2026-01-06 15:06:10.02	273.03	10.52	-48.1	-49.4	14.9	0.00e+00	0	26	0	873463808	62	4147
2026-01-06 15:06:11.03	273.21	10.54	-48.0	-49.2	14.9	0.00e+00	0	25	0	878706688	62	4088
2026-01-06 15:06:12.02	273.38	10.57	-48.2	-49.4	14.8	0.00e+00	0	26	0	884998144	62	4182
2026-01-06 15:06:13.02	273.56	10.59	-48.2	-49.4	14.8	0.00e+00	0	26	0	890241024	62	4181
2026-01-06 15:06:14.02	273.73	10.62	-48.2	-49.5	14.8	0.00e+00	0	26	0	895483904	62	4210
2026-01-06 15:06:15.01	273.91	10.64	-48.3	-49.6	14.8	0.00e+00	0	26	0	901775360	62	4259
2026-01-06 15:06:16.01	274.08	10.67	-48.2	-49.5	14.8	0.00e+00	0	26	0	907018240	62	4209
2026-01-06 15:06:17.01	274.26	10.69	-48.2	-49.5	14.8	0.00e+00	0	25	0	912261120	62	4217
2026-01-06 15:06:18.01	274.44	10.72	-48.2	-49.5	14.8	0.00e+00	0	26	0	918552576	62	4196
2026-01-06 15:06:19.01	274.61	10.74	-48.1	-49.3	14.9	0.00e+00	0	26	0	923795456	62	4138
2026-01-06 15:06:20.01	274.79	10.77	-48.1	-49.4	14.9	0.00e+00	0	25	0	929038336	62	4152
2026-01-06 15:06:21.00	274.97	10.79	-48.1	-49.3	14.9	0.00e+00	0	26	0	935329792	62	4131
2026-01-06 15:06:22.00	275.14	10.82	-48.2	-49.5	14.8	0.00e+00	0	26	0	940572672	62	4214
2026-01-06 15:06:22.99	275.32	10.84	-48.3	-49.6	14.8	0.00e+00	0	26	0	946864128	62	4275
2026-01-06 15:06:23.99	275.50	10.86	-48.3	-49.6	14.8	0.00e+00	0	25	0	952107008	62	4257
2026-01-06 15:06:24.99	275.68	10.88	-48.4	-49.7	14.7	0.00e+00	0	26	0	957349888	62	4310
2026-01-06 15:06:25.99	275.86	10.91	-48.2	-49.5	14.8	0.00e+00	0	26	0	963641344	62	4208
2026-01-06 15:06:26.99	276.03	10.93	-48.2	-49.5	14.8	0.00e+00	0	25	0	968884224	62	4206
2026-01-06 15:06:28.00	276.22	10.95	-48.2	-49.5	14.8	0.00e+00	0	26	0	974127104	62	4214
2026-01-06 15:06:29.00	276.40	10.98	-48.4	-49.7	14.7	0.00e+00	0	26	0	980418560	62	4304
2026-01-06 15:06:30.00	276.58	11.00	-48.4	-49.7	14.7	0.00e+00	0	26	0	985661440	62	4325
2026-01-06 15:06:31.00	276.76	11.02	-48.4	-49.7	14.7	0.00e+00	0	26	0	990904320	62	4301
2026-01-06 15:06:32.00	276.94	11.04	-48.1	-49.3	14.9	0.00e+00	0	26	0	997195776	62	4132
2026-01-06 15:06:32.99	277.11	11.06	-48.0	-49.3	14.9	0.00e+00	0	26	0	1002438656	62	4114
2026-01-06 15:06:33.99	277.30	11.08	-48.1	-49.4	14.9	0.00e+00	0	26	0	1008730112	62	4156
2026-01-06 15:06:34.98	277.47	11.10	-48.0	-49.3	14.9	0.00e+00	0	26	0	1013972992	62	4105
2026-01-06 15:06:35.98	277.66	11.12	-47.9	-49.1	15.0	0.00e+00	0	26	0	1019215872	62	4044
2026-01-06 15:06:36.98	277.84	11.14	-47.8	-49.1	15.0	0.00e+00	0	26	0	1025507328	62	4006
2026-01-06 15:06:37.98	278.02	11.16	-47.9	-49.1	15.0	0.00e+00	0	26	0	1030750208	62	4040
2026-01-06 15:06:38.98	278.20	11.18	-48.0	-49.2	14.9	0.00e+00	0	26	0	1035993088	62	4081
2026-01-06 15:06:39.98	278.38	11.20	-47.8	-49.0	15.0	0.00e+00	0	26	0	1042284544	62	3997
2026-01-06 15:06:40.98	278.57	11.22	-47.9	-49.1	15.0	0.00e+00	0	26	0	1047527424	62	4031
2026-01-06 15:06:41.98	278.75	11.24	-48.0	-49.2	14.9	0.00e+00	0	26	0	1052770304	62	4068
2026-01-06 15:06:42.97	278.93	11.26	-48.0	-49.2	14.9	0.00e+00	0	26	0	1059061760	62	4092
2026-01-06 15:06:43.98	279.11	11.28	-47.9	-49.1	15.0	0.00e+00	0	26	0	1064304640	62	4034
2026-01-06 15:06:44.98	279.30	11.30	-47.9	-49.1	15.0	0.00e+00	0	26	0	1070596096	62	4045
2026-01-06 15:06:45.98	279.48	11.32	-47.9	-49.1	15.0	0.00e+00	0	26	0	1075838976	62	4030
2026-01-06 15:06:46.98	279.67	11.33	-47.9	-49.1	15.0	0.00e+00	0	26	0	1081081856	62	4010
2026-01-06 15:06:47.97	279.85	11.35	-47.7	-48.9	15.1	0.00e+00	0	26	0	1086324736	62	3933
2026-01-06 15:06:48.97	280.03	11.37	-47.8	-49.0	15.0	0.00e+00	0	26	0	1092616192	62	3989
2026-01-06 15:06:49.97	280.22	11.39	-47.7	-48.9	15.1	0.00e+00	0	26	0	1097859072	62	3915
2026-01-06 15:06:50.97	280.40	11.40	-47.6	-48.7	15.0	0.00e+00	0	26	0	1103101952	61	4098
2026-01-06 15:06:51.97	280.59	11.42	-47.5	-48.7	15.0	0.00e+00	0	25	0	1109393408	61	4065
2026-01-06 15:06:52.97	280.77	11.44	-47.7	-48.9	14.9	0.00e+00	0	26	0	1114636288	61	4158
2026-01-06 15:06:53.97	280.96	11.45	-47.6	-48.8	14.9	0.00e+00	0	26	0	1120927744	61	4132
2026-01-06 15:06:54.97	281.14	11.47	-47.9	-49.1	14.8	0.00e+00	0	26	0	1126170624	61	4261
2026-01-06 15:06:55.98	281.33	11.48	-47.9	-49.1	14.9	0.00e+00	0	26	0	1132462080	61	4280
2026-01-06 15:06:56.97	281.51	11.50	-48.1	-49.3	14.8	0.00e+00	0	26	0	1137704960	61	4364
2026-01-06 15:06:57.97	281.70	11.51	-48.1	-49.3	14.8	0.00e+00	0	26	0	1142947840	61	4370
2026-01-06 15:06:58.97	281.89	11.53	-48.1	-49.4	14.8	0.00e+00	0	26	0	1148190720	61	4394
2026-01-06 15:06:59.97	282.07	11.54	-47.9	-49.1	14.8	0.00e+00	0	26	0	1154482176	61	4289
2026-01-06 15:07:00.96	282.26	11.56	-48.0	-49.2	14.8	0.00e+00	0	26	0	1159725056	61	4319
2026-01-06 15:07:01.96	282.44	11.57	-48.0	-49.2	14.8	0.00e+00	0	26	0	1164967936	61	4307
2026-01-06 15:07:02.95	282.63	11.59	-48.1	-49.3	14.8	0.00e+00	0	26	0	1171259392	61	4370
2026-01-06 15:07:03.95	282.82	11.60	-48.0	-49.3	14.8	0.00e+00	0	26	0	1176502272	61	4353
2026-01-06 15:07:04.94	283.00	11.61	-48.0	-49.2	14.8	0.00e+00	0	26	0	1182793728	61	4308
2026-01-06 15:07:05.94	283.19	11.63	-48.1	-49.3	14.8	0.00e+00	0	26	0	1188036608	61	4391
2026-01-06 15:07:06.94	283.38	11.64	-48.1	-49.3	14.8	0.00e+00	0	26	0	1193279488	61	4384
2026-01-06 15:07:07.94	283.56	11.65	-48.2	-49.4	14.7	0.00e+00	0	26	0	1199570944	61	4416
2026-01-06 15:07:08.93	283.75	11.66	-48.0	-49.3	14.8	0.00e+00	0	26	0	1204813824	61	4352
2026-01-06 15:07:09.93	283.94	11.68	-48.0	-49.3	14.8	0.00e+00	0	26	0	1210056704	61	4341
2026-01-06 15:07:10.92	284.12	11.69	-48.1	-49.4	14.7	0.00e+00	0	26	0	1215299584	61	4395
2026-01-06 15:07:11.92	284.31	11.70	-48.1	-49.4	14.8	0.00e+00	0	26	0	1221591040	61	4419
2026-01-06 15:07:12.91	284.50	11.71	-48.1	-49.4	14.8	0.00e+00	0	26	0	1226833920	61	4408
2026-01-06 15:07:13.91	284.69	11.72	-48.2	-49.5	14.7	0.00e+00	0	26	0	1233125376	61	4448
2026-01-06 15:07:14.91	284.88	11.73	-48.2	-49.5	14.7	0.00e+00	0	26	0	1238368256	61	4443
2026-01-06 15:07:15.90	285.06	11.74	-48.2	-49.4	14.7	0.00e+00	0	26	0	1243611136	61	4437
2026-01-06 15:07:16.90	285.25	11.75	-48.2	-49.4	14.7	0.00e+00	0	26	0	1249902592	61	4429
2026-01-06 15:07:17.88	285.44	11.76	-48.2	-49.4	14.7	0.00e+00	0	25	0	1255145472	61	4430
2026-01-06 15:07:18.88	285.63	11.77	-48.1	-49.3	14.8	0.00e+00	0	26	0	1260388352	61	4387
2026-01-06 15:07:19.87	285.81	11.78	-48.2	-49.4	14.8	0.00e+00	0	26	0	1265631232	61	4423
2026-01-06 15:07:20.87	286.00	11.79	-48.1	-49.3	14.8	0.00e+00	0	26	0	1271922688	61	4391
2026-01-06 15:07:21.86	286.19	11.80	-48.1	-49.4	14.8	0.00e+00	0	26	0	1277165568	61	4410
2026-01-06 15:07:22.86	286.38	11.81	-48.2	-49.4	14.7	0.00e+00	0	26	0	1283457024	61	4432
2026-01-06 15:07:23.85	286.57	11.81	-48.1	-49.3	14.8	0.00e+00	0	25	0	1288699904	61	4388
2026-01-06 15:07:24.85	286.76	11.82	-48.1	-49.3	14.8	0.00e+00	0	26	0	1293942784	61	4382
2026-01-06 15:07:25.84	286.95	11.83	-48.1	-49.3	14.8	0.00e+00	0	26	0	1300234240	61	4375
2026-01-06 15:07:26.83	287.13	11.84	-48.1	-49.3	14.8	0.00e+00	0	26	0	1305477120	61	4365
2026-01-06 15:07:27.83	287.32	11.84	-47.9	-49.1	14.8	0.00e+00	0	26	0	1310720000	61	4274
2026-01-06 15:07:28.84	287.52	11.85	-47.8	-49.0	14.9	0.00e+00	0	26	0	1317011456	61	4242
2026-01-06 15:07:29.84	287.71	11.86	-47.9	-49.1	14.9	0.00e+00	0	26	0	1322254336	61	4290
2026-01-06 15:07:30.83	287.90	11.86	-48.0	-49.2	14.8	0.00e+00	0	26	0	1328545792	61	4296
2026-01-06 15:07:31.84	288.09	11.87	-47.8	-49.0	14.9	0.00e+00	0	25	0	1333788672	61	4228
2026-01-06 15:07:32.83	288.28	11.87	-47.9	-49.1	14.9	0.00e+00	0	26	0	1339031552	61	4286
2026-01-06 15:07:33.85	288.47	11.88	-47.9	-49.2	14.8	0.00e+00	0	26	0	1345323008	61	4296
2026-01-06 15:07:34.85	288.66	11.88	-48.0	-49.2	14.8	0.00e+00	0	26	0	1350565888	61	4334
2026-01-06 15:07:35.85	288.85	11.89	-48.1	-49.4	14.8	0.00e+00	0	26	0	1355808768	61	4393
2026-01-06 15:07:36.84	289.04	11.89	-48.1	-49.3	14.8	0.00e+00	0	26	0	1362100224	61	4376
2026-01-06 15:07:37.85	289.23	11.90	-48.1	-49.3	14.8	0.00e+00	0	26	0	1367343104	61	4389
2026-01-06 15:07:38.84	289.42	11.90	-48.1	-49.3	14.8	0.00e+00	0	26	0	1372585984	61	4364
2026-01-06 15:07:39.85	289.62	11.91	-48.1	-49.4	14.8	0.00e+00	0	25	0	1378877440	61	4393
2026-01-06 15:07:40.85	289.81	11.91	-48.1	-49.3	14.8	0.00e+00	0	26	0	1384120320	61	4381
2026-01-06 15:07:41.85	290.00	11.91	-48.0	-49.2	14.8	0.00e+00	0	26	0	1390411776	61	4340
2026-01-06 15:07:42.85	290.19	11.92	-48.1	-49.3	14.8	0.00e+00	0	26	0	1395654656	61	4369
2026-01-06 15:07:43.84	290.38	11.92	-48.1	-49.4	14.8	0.00e+00	0	26	0	1400897536	61	4402
2026-01-06 15:07:44.84	290.57	11.92	-48.1	-49.3	14.8	0.00e+00	0	26	0	1407188992	61	4371
2026-01-06 15:07:45.85	290.76	11.92	-48.0	-49.2	14.8	0.00e+00	0	26	0	1412431872	61	4330
2026-01-06 15:07:46.85	290.95	11.92	-48.0	-49.3	14.8	0.00e+00	0	26	0	1417674752	61	4350
2026-01-06 15:07:47.85	291.14	11.92	-48.0	-49.2	14.8	0.00e+00	0	26	0	1423966208	61	4334
2026-01-06 15:07:48.85	291.33	11.93	-48.0	-49.2	14.8	0.00e+00	0	26	0	1429209088	61	4305
2026-01-06 15:07:49.86	291.53	11.93	-48.1	-49.4	14.8	0.00e+00	0	26	0	1434451968	61	4396
2026-01-06 15:07:50.86	291.72	11.93	-48.1	-49.4	14.8	0.00e+00	0	26	0	1440743424	61	4413
2026-01-06 15:07:51.85	291.91	11.93	-48.2	-49.5	14.7	0.00e+00	0	26	0	1445986304	61	4463
2026-01-06 15:07:52.85	292.10	11.93	-48.2	-49.4	14.8	0.00e+00	0	25	0	1452277760	61	4432
2026-01-06 15:07:53.85	292.29	11.93	-48.1	-49.3	14.8	0.00e+00	0	26	0	1457520640	61	4378
2026-01-06 15:07:54.85	292.48	11.93	-48.1	-49.3	14.8	0.00e+00	0	26	0	1462763520	61	4361
2026-01-06 15:07:55.84	292.67	11.93	-48.1	-49.3	14.8	0.00e+00	0	25	0	1469054976	61	4366
2026-01-06 15:07:56.85	292.86	11.92	-48.0	-49.3	14.8	0.00e+00	0	26	0	1474297856	61	4344
2026-01-06 15:07:57.85	293.05	11.92	-48.1	-49.3	14.8	0.00e+00	0	26	0	1479540736	61	4377
2026-01-06 15:07:58.84	293.24	11.92	-48.2	-49.4	14.8	0.00e+00	0	26	0	1485832192	61	4420
2026-01-06 15:07:59.84	293.43	11.92	-48.2	-49.4	14.8	0.00e+00	0	26	0	1491075072	61	4411
2026-01-06 15:08:00.84	293.63	11.92	-48.2	-49.5	14.7	0.00e+00	0	26	0	1496317952	61	4470
2026-01-06 15:08:01.84	293.82	11.91	-48.3	-49.6	14.7	0.00e+00	0	26	0	1502609408	61	4530
2026-01-06 15:08:02.84	294.01	11.91	-48.3	-49.6	14.7	0.00e+00	0	26	0	1507852288	61	4513
2026-01-06 15:08:03.84	294.20	11.91	-48.4	-49.7	14.8	0.00e+00	0	26	0	1514143744	62	4317
2026-01-06 15:08:04.84	294.39	11.90	-48.5	-49.7	14.7	0.00e+00	0	26	0	1519386624	62	4332
2026-01-06 15:08:05.84	294.58	11.90	-48.3	-49.6	14.8	0.00e+00	0	26	0	1524629504	62	4249
2026-01-06 15:08:06.84	294.77	11.90	-48.2	-49.5	14.9	0.00e+00	0	26	0	1530920960	62	4195
2026-01-06 15:08:07.84	294.96	11.89	-48.3	-49.6	14.8	0.00e+00	0	26	0	1536163840	62	4245
2026-01-06 15:08:08.84	295.15	11.89	-48.3	-49.6	14.8	0.00e+00	0	26	0	1541406720	62	4251
2026-01-06 15:08:09.84	295.34	11.88	-48.2	-49.4	14.9	0.00e+00	0	26	0	1547698176	62	4183
2026-01-06 15:08:10.83	295.53	11.88	-48.2	-49.4	14.9	0.00e+00	0	26	0	1552941056	62	4189
2026-01-06 15:08:11.83	295.72	11.87	-48.2	-49.4	14.9	0.00e+00	0	25	0	1558183936	62	4168
2026-01-06 15:08:12.82	295.91	11.87	-48.1	-49.3	14.9	0.00e+00	0	26	0	1564475392	62	4126
2026-01-06 15:08:13.82	296.10	11.86	-48.1	-49.4	14.9	0.00e+00	0	26	0	1569718272	62	4153
2026-01-06 15:08:14.82	296.29	11.85	-48.2	-49.4	14.9	0.00e+00	0	26	0	1574961152	62	4189
2026-01-06 15:08:15.83	296.48	11.85	-48.2	-49.4	14.9	0.00e+00	0	26	0	1581252608	62	4193
2026-01-06 15:08:16.83	296.67	11.84	-48.2	-49.4	14.9	0.00e+00	0	26	0	1586495488	62	4171
2026-01-06 15:08:17.82	296.86	11.83	-48.2	-49.4	14.9	0.00e+00	0	26	0	1591738368	62	4188
2026-01-06 15:08:18.82	297.05	11.83	-48.2	-49.4	14.9	0.00e+00	0	26	0	1598029824	62	4169
2026-01-06 15:08:19.80	297.24	11.82	-48.1	-49.3	14.9	0.00e+00	0	26	0	1603272704	62	4127
2026-01-06 15:08:20.79	297.42	11.81	-48.2	-49.4	14.9	0.00e+00	0	26	0	1608515584	62	4166
2026-01-06 15:08:21.78	297.61	11.80	-48.2	-49.5	14.8	0.00e+00	0	26	0	1614807040	62	4202
2026-01-06 15:08:22.78	297.80	11.79	-48.3	-49.6	14.8	0.00e+00	0	26	0	1620049920	62	4251
2026-01-06 15:08:23.77	297.99	11.79	-48.3	-49.6	14.8	0.00e+00	0	26	0	1625292800	62	4257
2026-01-06 15:08:24.76	298.18	11.78	-48.4	-49.7	14.7	0.00e+00	0	26	0	1631584256	62	4321
2026-01-06 15:08:25.76	298.36	11.77	-48.5	-49.8	14.7	0.00e+00	0	26	0	1636827136	62	4348
2026-01-06 15:08:26.75	298.55	11.76	-48.4	-49.7	14.8	0.00e+00	0	26	0	1642070016	62	4297
2026-01-06 15:08:27.76	298.74	11.75	-48.4	-49.6	14.8	0.00e+00	0	26	0	1648361472	62	4286
2026-01-06 15:08:28.76	298.93	11.74	-48.3	-49.6	14.8	0.00e+00	0	26	0	1653604352	62	4266
2026-01-06 15:08:29.76	299.12	11.73	-48.4	-49.7	14.8	0.00e+00	0	26	0	1658847232	62	4307
2026-01-06 15:08:30.76	299.31	11.72	-48.4	-49.7	14.8	0.00e+00	0	25	0	1665138688	62	4293
2026-01-06 15:08:31.75	299.49	11.71	-48.4	-49.6	14.8	0.00e+00	0	26	0	1670381568	62	4281
2026-01-06 15:08:32.74	299.68	11.69	-48.3	-49.6	14.8	0.00e+00	0	25	0	1676673024	62	4256
2026-01-06 15:08:33.75	299.87	11.68	-48.3	-49.5	14.8	0.00e+00	0	26	0	1681915904	62	4233
2026-01-06 15:08:34.75	300.06	11.67	-48.3	-49.6	14.8	0.00e+00	0	26	0	1687158784	62	4252
2026-01-06 15:08:35.75	300.25	11.66	-48.3	-49.5	14.8	0.00e+00	0	26	0	1693450240	62	4217
2026-01-06 15:08:36.75	300.43	11.65	-48.3	-49.5	14.8	0.00e+00	0	26	0	1698693120	62	4220
2026-01-06 15:08:37.75	300.62	11.63	-48.3	-49.5	14.8	0.00e+00	0	26	0	1703936000	62	4222
2026-01-06 15:08:38.75	300.81	11.62	-48.1	-49.4	14.9	0.00e+00	0	26	0	1710227456	62	4157
2026-01-06 15:08:39.75	301.00	11.61	-48.2	-49.4	14.9	0.00e+00	0	26	0	1715470336	62	4185
2026-01-06 15:08:40.76	301.18	11.60	-48.2	-49.4	14.8	0.00e+00	0	25	0	1720713216	62	4191
2026-01-06 15:08:41.76	301.37	11.58	-48.1	-49.3	14.9	0.00e+00	0	26	0	1727004672	62	4144
2026-01-06 15:08:42.77	301.56	11.57	-48.1	-49.3	14.9	0.00e+00	0	25	0	1732247552	62	4133
2026-01-06 15:08:43.76	301.74	11.55	-48.1	-49.3	14.9	0.00e+00	0	26	0	1738539008	62	4138
2026-01-06 15:08:44.76	301.93	11.54	-48.1	-49.4	14.9	0.00e+00	0	26	0	1743781888	62	4156
2026-01-06 15:08:45.76	302.12	11.52	-48.3	-49.5	14.8	0.00e+00	0	26	0	1749024768	62	4227
2026-01-06 15:08:46.76	302.30	11.51	-48.3	-49.5	14.8	0.00e+00	0	26	0	1755316224	62	4236
2026-01-06 15:08:47.75	302.49	11.49	-48.4	-49.7	14.8	0.00e+00	0	26	0	1760559104	62	4295
2026-01-06 15:08:48.75	302.67	11.48	-48.3	-49.6	14.8	0.00e+00	0	26	0	1765801984	62	4262
2026-01-06 15:08:49.76	302.86	11.46	-48.3	-49.5	14.8	0.00e+00	0	26	0	1772093440	62	4241
2026-01-06 15:08:50.76	303.04	11.45	-48.2	-49.5	14.8	0.00e+00	0	26	0	1777336320	62	4219
2026-01-06 15:08:51.76	303.23	11.43	-48.2	-49.5	14.8	0.00e+00	0	26	0	1782579200	62	4210
2026-01-06 15:08:52.76	303.41	11.41	-48.2	-49.5	14.8	0.00e+00	0	25	0	1788870656	62	4204
2026-01-06 15:08:53.76	303.60	11.40	-48.1	-49.3	14.9	0.00e+00	0	26	0	1794113536	62	4129
2026-01-06 15:08:54.76	303.78	11.38	-48.1	-49.3	14.9	0.00e+00	0	26	0	1800404992	62	4121
2026-01-06 15:08:55.76	303.97	11.36	-48.1	-49.4	14.9	0.00e+00	0	26	0	1805647872	62	4147
2026-01-06 15:08:56.76	304.15	11.35	-48.2	-49.4	14.9	0.00e+00	0	26	0	1810890752	62	4165
2026-01-06 15:08:57.76	304.33	11.33	-48.2	-49.5	14.8	0.00e+00	0	26	0	1817182208	62	4201
2026-01-06 15:08:58.77	304.52	11.31	-48.2	-49.4	14.8	0.00e+00	0	26	0	1822425088	62	4178
2026-01-06 15:08:59.77	304.70	11.29	-48.2	-49.4	14.9	0.00e+00	0	26	0	1827667968	62	4165
2026-01-06 15:09:00.77	304.89	11.27	-48.2	-49.4	14.9	0.00e+00	0	26	0	1833959424	62	4172
2026-01-06 15:09:01.77	305.07	11.26	-48.2	-49.5	14.8	0.00e+00	0	26	0	1839202304	62	4205
2026-01-06 15:09:02.77	305.25	11.24	-48.2	-49.5	14.8	0.00e+00	0	25	0	1844445184	62	4210
2026-01-06 15:09:03.77	305.43	11.22	-48.4	-49.6	14.8	0.00e+00	0	26	0	1850736640	62	4279
2026-01-06 15:09:04.77	305.62	11.20	-48.4	-49.7	14.7	0.00e+00	0	26	0	1855979520	62	4296
2026-01-06 15:09:05.77	305.80	11.18	-48.4	-49.7	14.7	0.00e+00	0	25	0	1862270976	62	4318
2026-01-06 15:09:06.77	305.98	11.16	-48.4	-49.7	14.7	0.00e+00	0	26	0	1867513856	62	4298
2026-01-06 15:09:07.78	306.16	11.14	-48.4	-49.7	14.7	0.00e+00	0	26	0	1873805312	62	4315
2026-01-06 15:09:08.78	306.34	11.12	-48.4	-49.6	14.8	0.00e+00	0	26	0	1879048192	62	4291
2026-01-06 15:09:09.78	306.52	11.10	-48.4	-49.6	14.8	0.00e+00	0	26	0	1884291072	62	4289
2026-01-06 15:09:10.77	306.70	11.08	-48.4	-49.7	14.7	0.00e+00	0	26	0	1890582528	62	4323
2026-01-06 15:09:11.77	306.88	11.05	-48.5	-49.8	14.7	0.00e+00	0	26	0	1895825408	62	4359
2026-01-06 15:09:12.76	307.06	11.03	-48.5	-49.8	14.7	0.00e+00	0	26	0	1901068288	62	4347
2026-01-06 15:09:13.75	307.24	11.01	-48.5	-49.8	14.7	0.00e+00	0	26	0	1907359744	62	4355
2026-01-06 15:09:14.75	307.42	10.99	-48.5	-49.8	14.7	0.00e+00	0	26	0	1912602624	62	4367
2026-01-06 15:09:15.75	307.60	10.97	-48.6	-49.8	14.7	0.00e+00	0	26	0	1917845504	62	4387
2026-01-06 15:09:16.74	307.78	10.95	-48.5	-49.7	14.7	0.00e+00	0	26	0	1924136960	62	4329
2026-01-06 15:09:17.73	307.95	10.92	-48.4	-49.6	14.7	0.00e+00	0	25	0	1929379840	62	4290
2026-01-06 15:09:18.72	308.13	10.90	-48.3	-49.5	14.8	0.00e+00	0	26	0	1934622720	62	4241
2026-01-06 15:09:19.72	308.31	10.88	-48.3	-49.6	14.8	0.00e+00	0	26	0	1939865600	62	4247
2026-01-06 15:09:20.72	308.49	10.86	-48.4	-49.7	14.7	0.00e+00	0	26	0	1946157056	62	4298
2026-01-06 15:09:21.72	308.66	10.83	-48.3	-49.6	14.8	0.00e+00	0	25	0	1951399936	62	4259
2026-01-06 15:09:22.72	308.84	10.81	-48.4	-49.6	14.7	0.00e+00	0	26	0	1957691392	62	4290
2026-01-06 15:09:23.72	309.02	10.79	-48.3	-49.6	14.8	0.00e+00	0	25	0	1962934272	62	4244
2026-01-06 15:09:24.71	309.19	10.76	-48.3	-49.5	14.8	0.00e+00	0	26	0	1968177152	62	4218
2026-01-06 15:09:25.71	309.37	10.74	-48.3	-49.6	14.8	0.00e+00	0	26	0	1974468608	62	4248
2026-01-06 15:09:26.71	309.55	10.71	-48.2	-49.5	14.8	0.00e+00	0	26	0	1979711488	62	4198
2026-01-06 15:09:27.71	309.72	10.69	-48.3	-49.6	14.7	0.00e+00	0	26	0	1984954368	62	4267
2026-01-06 15:09:28.71	309.90	10.66	-48.4	-49.7	14.7	0.00e+00	0	26	0	1991245824	62	4305
2026-01-06 15:09:29.70	310.07	10.64	-48.4	-49.7	14.7	0.00e+00	0	26	0	1996488704	62	4322
2026-01-06 15:09:30.70	310.25	10.61	-48.5	-49.8	14.7	0.00e+00	0	26	0	2001731584	62	4367
2026-01-06 15:09:31.70	310.42	10.59	-48.6	-49.9	14.7	0.00e+00	0	25	0	2008023040	62	4402
2026-01-06 15:09:32.70	310.60	10.56	-48.5	-49.8	14.7	0.00e+00	0	26	0	2013265920	62	4349
2026-01-06 15:09:33.69	310.77	10.54	-48.4	-49.6	14.7	0.00e+00	0	26	0	2019557376	62	4284
2026-01-06 15:09:34.69	310.94	10.51	-48.4	-49.7	14.7	0.00e+00	0	26	0	2024800256	62	4301
2026-01-06 15:09:35.70	311.12	10.48	-48.4	-49.7	14.7	0.00e+00	0	26	0	2030043136	62	4322
2026-01-06 15:09:36.70	311.29	10.46	-48.4	-49.7	14.7	0.00e+00	0	26	0	2036334592	62	4339
2026-01-06 15:09:37.69	311.46	10.43	-48.4	-49.7	14.7	0.00e+00	0	26	0	2041577472	62	4313
2026-01-06 15:09:38.69	311.64	10.40	-48.5	-49.8	14.7	0.00e+00	0	25	0	2046820352	62	4370
2026-01-06 15:09:39.68	311.81	10.38	-48.5	-49.8	14.7	0.00e+00	0	26	0	2053111808	62	4378
2026-01-06 15:09:40.68	311.98	10.35	-48.5	-49.8	14.7	0.00e+00	0	26	0	2058354688	62	4379
2026-01-06 15:09:41.68	312.15	10.32	-48.6	-49.9	14.6	0.00e+00	0	26	0	2063597568	62	4425
2026-01-06 15:09:42.68	312.32	10.29	-48.6	-49.9	14.6	0.00e+00	0	26	0	2069889024	62	4421
2026-01-06 15:09:43.67	312.49	10.27	-48.6	-49.9	14.6	0.00e+00	0	25	0	2075131904	62	4399
2026-01-06 15:09:44.68	312.66	10.24	-48.6	-49.9	14.6	0.00e+00	0	26	0	2081423360	62	4396
2026-01-06 15:09:45.68	312.83	10.21	-48.7	-50.0	14.6	0.00e+00	0	26	0	2086666240	62	4465
2026-01-06 15:09:46.68	313.00	10.18	-48.7	-50.0	14.6	0.00e+00	0	26	0	2091909120	62	4482
2026-01-06 15:09:47.67	313.17	10.15	-48.7	-50.0	14.6	0.00e+00	0	26	0	2097152000	62	4491
2026-01-06 15:09:48.67	313.34	10.13	-48.5	-49.8	14.6	0.00e+00	0	26	0	2103443456	62	4380
2026-01-06 15:09:49.67	313.51	10.10	-48.6	-49.9	14.6	0.00e+00	0	26	0	2108686336	62	4404
2026-01-06 15:09:50.67	313.68	10.07	-48.6	-49.9	14.6	0.00e+00	0	26	0	2113929216	62	4432
2026-01-06 15:09:51.67	313.85	10.04	-48.6	-49.9	14.6	0.00e+00	0	25	0	2120220672	62	4411
2026-01-06 15:09:52.66	314.02	10.01	-48.5	-49.7	14.7	0.00e+00	0	26	0	2125463552	62	4340
2026-01-06 15:09:53.65	314.18	9.98	-48.5	-49.7	14.7	0.00e+00	0	26	0	2131755008	62	4333
2026-01-06 15:09:54.65	314.35	9.95	-48.5	-49.8	14.7	0.00e+00	0	26	0	2136997888	62	4352
2026-01-06 15:09:55.64	314.51	9.92	-48.4	-49.7	14.7	0.00e+00	0	26	0	2142240768	62	4304
2026-01-06 15:09:56.64	314.68	9.89	-48.5	-49.7	14.7	0.00e+00	0	26	0	2148532224	62	4330
2026-01-06 15:09:57.65	314.85	9.86	-48.5	-49.8	14.6	0.00e+00	0	26	0	2153775104	62	4363
2026-01-06 15:09:58.64	315.01	9.83	-48.5	-49.8	14.7	0.00e+00	0	26	0	2159017984	62	4367
2026-01-06 15:09:59.65	315.18	9.80	-48.5	-49.8	14.6	0.00e+00	0	26	0	2165309440	62	4375
2026-01-06 15:10:00.65	315.35	9.77	-48.6	-50.0	14.6	0.00e+00	0	25	0	2170552320	62	4446
2026-01-06 15:10:01.64	315.51	9.74	-48.5	-49.9	14.6	0.00e+00	0	26	0	2175795200	62	4392
2026-01-06 15:10:02.64	315.68	9.70	-48.6	-50.0	14.6	0.00e+00	0	26	0	2182086656	62	4449
2026-01-06 15:10:03.64	315.84	9.67	-48.7	-50.0	14.5	0.00e+00	0	26	0	2187329536	62	4483
2026-01-06 15:10:04.64	316.01	9.64	-48.5	-49.8	14.6	0.00e+00	0	26	0	2193620992	62	4384
2026-01-06 15:10:05.63	316.17	9.61	-48.5	-49.8	14.6	0.00e+00	0	26	0	2198863872	62	4380
2026-01-06 15:10:06.64	316.33	9.58	-48.6	-49.9	14.6	0.00e+00	0	26	0	2204106752	62	4417
2026-01-06 15:10:07.63	316.49	9.55	-48.6	-49.9	14.6	0.00e+00	0	26	0	2210398208	62	4425
2026-01-06 15:10:08.62	316.66	9.51	-48.7	-50.0	14.6	0.00e+00	0	26	0	2215641088	62	4480
2026-01-06 15:10:09.62	316.82	9.48	-48.8	-50.1	14.5	0.00e+00	0	26	0	2220883968	62	4529
2026-01-06 15:10:10.63	316.98	9.45	-48.9	-50.2	14.6	0.00e+00	0	26	0	2227175424	63	4331
2026-01-06 15:10:11.63	317.14	9.42	-49.0	-50.3	14.5	0.00e+00	0	26	0	2232418304	63	4379
2026-01-06 15:10:12.63	317.30	9.38	-48.9	-50.3	14.6	0.00e+00	0	26	0	2237661184	63	4342
2026-01-06 15:10:13.63	317.47	9.35	-48.8	-50.2	14.6	0.00e+00	0	26	0	2243952640	63	4313
2026-01-06 15:10:14.62	317.62	9.32	-48.8	-50.2	14.6	0.00e+00	0	26	0	2249195520	63	4296
2026-01-06 15:10:15.62	317.79	9.28	-48.8	-50.1	14.6	0.00e+00	0	26	0	2254438400	63	4264
2026-01-06 15:10:16.62	317.95	9.25	-48.8	-50.1	14.6	0.00e+00	0	26	0	2260729856	63	4251
2026-01-06 15:10:17.61	318.10	9.22	-48.7	-49.9	14.7	0.00e+00	0	26	0	2265972736	63	4192
2026-01-06 15:10:18.61	318.26	9.18	-48.6	-49.9	14.7	0.00e+00	0	26	0	2271215616	63	4150
2026-01-06 15:10:19.60	318.42	9.15	-48.6	-49.9	14.7	0.00e+00	0	26	0	2277507072	63	4147
2026-01-06 15:10:20.60	318.58	9.12	-48.7	-50.0	14.7	0.00e+00	0	26	0	2282749952	63	4201
2026-01-06 15:10:21.58	318.73	9.08	-48.6	-49.9	14.7	0.00e+00	0	26	0	2287992832	63	4191
2026-01-06 15:10:22.58	318.89	9.05	-48.8	-50.1	14.6	0.00e+00	0	26	0	2294284288	63	4269
2026-01-06 15:10:23.58	319.05	9.01	-48.7	-50.0	14.7	0.00e+00	0	26	0	2299527168	63	4220
2026-01-06 15:10:24.58	319.21	8.98	-48.9	-50.2	14.6	0.00e+00	0	26	0	2305818624	63	4309
2026-01-06 15:10:25.57	319.36	8.95	-48.9	-50.2	14.6	0.00e+00	0	26	0	2311061504	63	4332
2026-01-06 15:10:26.58	319.52	8.91	-48.9	-50.2	14.5	0.00e+00	0	26	0	2316304384	63	4326
2026-01-06 15:10:27.58	319.68	8.88	-48.9	-50.3	14.5	0.00e+00	0	26	0	2322595840	63	4350
2026-01-06 15:10:28.58	319.83	8.84	-49.0	-50.4	14.5	0.00e+00	0	26	0	2327838720	63	4399
2026-01-06 15:10:29.58	319.99	8.80	-49.0	-50.4	14.5	0.00e+00	0	26	0	2333081600	63	4399
2026-01-06 15:10:30.57	320.14	8.77	-49.1	-50.4	14.5	0.00e+00	0	26	0	2339373056	63	4432
2026-01-06 15:10:31.57	320.29	8.73	-49.0	-50.3	14.5	0.00e+00	0	26	0	2344615936	63	4380
2026-01-06 15:10:32.57	320.45	8.70	-49.0	-50.3	14.5	0.00e+00	0	26	0	2349858816	63	4385
2026-01-06 15:10:33.57	320.60	8.66	-49.0	-50.4	14.5	0.00e+00	0	26	0	2356150272	63	4415
2026-01-06 15:10:34.56	320.75	8.63	-48.9	-50.2	14.5	0.00e+00	0	26	0	2361393152	63	4336
2026-01-06 15:10:35.57	320.91	8.59	-49.0	-50.4	14.5	0.00e+00	0	26	0	2366636032	63	4399
2026-01-06 15:10:36.57	321.06	8.56	-49.0	-50.3	14.5	0.00e+00	0	26	0	2372927488	63	4385
2026-01-06 15:10:37.57	321.21	8.52	-48.9	-50.2	14.5	0.00e+00	0	26	0	2378170368	63	4339
2026-01-06 15:10:38.56	321.37	8.48	-48.8	-50.2	14.6	0.00e+00	0	26	0	2383413248	63	4298
2026-01-06 15:10:39.56	321.52	8.45	-48.8	-50.2	14.6	0.00e+00	0	26	0	2389704704	63	4306
2026-01-06 15:10:40.56	321.67	8.41	-48.9	-50.2	14.5	0.00e+00	0	26	0	2394947584	63	4325
2026-01-06 15:10:41.56	321.82	8.37	-48.9	-50.3	14.5	0.00e+00	0	26	0	2400190464	63	4362
2026-01-06 15:10:42.55	321.97	8.34	-48.9	-50.2	14.5	0.00e+00	0	26	0	2406481920	63	4335
2026-01-06 15:10:43.56	322.12	8.30	-48.9	-50.2	14.5	0.00e+00	0	26	0	2411724800	63	4337
2026-01-06 15:10:44.56	322.27	8.26	-48.9	-50.2	14.6	0.00e+00	0	26	0	2418016256	63	4330
2026-01-06 15:10:45.56	322.42	8.23	-49.0	-50.4	14.5	0.00e+00	0	26	0	2423259136	63	4397
2026-01-06 15:10:46.55	322.57	8.19	-48.9	-50.3	14.5	0.00e+00	0	26	0	2428502016	63	4356
2026-01-06 15:10:47.55	322.72	8.15	-48.9	-50.2	14.5	0.00e+00	0	26	0	2434793472	63	4333
2026-01-06 15:10:48.54	322.86	8.11	-48.8	-50.1	14.6	0.00e+00	0	26	0	2440036352	63	4258
2026-01-06 15:10:49.54	323.01	8.08	-48.8	-50.2	14.6	0.00e+00	0	26	0	2445279232	63	4295
2026-01-06 15:10:50.54	323.16	8.04	-48.9	-50.2	14.5	0.00e+00	0	26	0	2451570688	63	4323
2026-01-06 15:10:51.54	323.31	8.00	-48.9	-50.2	14.5	0.00e+00	0	26	0	2456813568	63	4314
2026-01-06 15:10:52.54	323.45	7.96	-48.8	-50.1	14.6	0.00e+00	0	26	0	2463105024	63	4282
2026-01-06 15:10:53.53	323.60	7.93	-48.8	-50.2	14.6	0.00e+00	0	26	0	2468347904	63	4304
2026-01-06 15:10:54.53	323.74	7.89	-49.1	-50.5	14.4	0.00e+00	0	26	0	2473590784	63	4444
2026-01-06 15:10:55.54	323.89	7.85	-49.2	-50.6	14.4	0.00e+00	0	26	0	2479882240	63	4512
2026-01-06 15:10:56.54	324.04	7.81	-49.4	-50.8	14.3	0.00e+00	0	26	0	2485125120	63	4613
2026-01-06 15:10:57.54	324.18	7.77	-49.4	-50.9	14.3	0.00e+00	0	26	0	2490368000	64	4410
2026-01-06 15:10:58.53	324.33	7.73	-49.4	-50.8	14.4	0.00e+00	0	26	0	2496659456	64	4366
2026-01-06 15:10:59.52	324.47	7.70	-49.4	-50.8	14.3	0.00e+00	0	26	0	2501902336	64	4390
2026-01-06 15:11:00.52	324.61	7.66	-49.3	-50.7	14.4	0.00e+00	0	26	0	2507145216	64	4301
2026-01-06 15:11:01.51	324.75	7.62	-49.4	-50.8	14.4	0.00e+00	0	26	0	2513436672	64	4390
2026-01-06 15:11:02.51	324.90	7.58	-49.2	-50.6	14.5	0.00e+00	0	26	0	2518679552	64	4264
2026-01-06 15:11:03.52	325.04	7.54	-49.2	-50.6	14.5	0.00e+00	0	26	0	2523922432	64	4279
2026-01-06 15:11:04.52	325.18	7.50	-49.1	-50.6	14.5	0.00e+00	0	26	0	2530213888	64	4261
2026-01-06 15:11:05.52	325.33	7.46	-48.9	-50.6	14.5	0.00e+00	0	26	0	2535456768	64	4263
2026-01-06 15:11:06.52	325.47	7.42	-48.8	-50.5	14.6	0.00e+00	0	26	0	2540699648	64	4220
2026-01-06 15:11:07.53	325.61	7.38	-49.0	-50.6	14.5	0.00e+00	0	26	0	2546991104	64	4274
2026-01-06 15:11:08.53	325.75	7.34	-49.1	-50.6	14.5	0.00e+00	0	26	0	2552233984	64	4243
2026-01-06 15:11:09.53	325.89	7.30	-49.0	-50.5	14.5	0.00e+00	0	26	0	2558525440	64	4201
2026-01-06 15:11:10.53	326.03	7.27	-49.0	-50.4	14.5	0.00e+00	0	26	0	2563768320	64	4190
2026-01-06 15:11:11.53	326.17	7.23	-49.1	-50.5	14.5	0.00e+00	0	26	0	2569011200	64	4232
2026-01-06 15:11:12.52	326.31	7.19	-49.3	-50.8	14.4	0.00e+00	0	26	0	2575302656	64	4355
2026-01-06 15:11:13.51	326.45	7.15	-49.4	-50.8	14.3	0.00e+00	0	26	0	2580545536	64	4374
2026-01-06 15:11:14.51	326.59	7.11	-49.5	-50.9	14.3	0.00e+00	0	26	0	2585788416	64	4419
2026-01-06 15:11:15.50	326.72	7.07	-49.3	-50.8	14.3	0.00e+00	0	26	0	2592079872	64	4349
2026-01-06 15:11:16.50	326.86	7.03	-49.4	-50.8	14.3	0.00e+00	0	26	0	2597322752	64	4382
2026-01-06 15:11:17.49	327.00	6.99	-49.3	-50.7	14.4	0.00e+00	0	26	0	2602565632	64	4304
2026-01-06 15:11:18.49	327.14	6.95	-49.4	-50.8	14.3	0.00e+00	0	26	0	2608857088	64	4367
2026-01-06 15:11:19.48	327.27	6.91	-49.3	-50.8	14.4	0.00e+00	0	26	0	2614099968	64	4345
2026-01-06 15:11:20.48	327.41	6.87	-49.4	-50.9	14.3	0.00e+00	0	26	0	2619342848	64	4400
2026-01-06 15:11:21.48	327.55	6.83	-49.3	-50.7	14.4	0.00e+00	0	26	0	2625634304	64	4319
2026-01-06 15:11:22.48	327.68	6.79	-49.1	-50.5	14.5	0.00e+00	0	26	0	2630877184	64	4223
2026-01-06 15:11:23.47	327.82	6.75	-49.1	-50.5	14.5	0.00e+00	0	26	0	2636120064	64	4200
2026-01-06 15:11:24.47	327.95	6.71	-49.1	-50.5	14.5	0.00e+00	0	26	0	2642411520	64	4196
2026-01-06 15:11:25.46	328.08	6.67	-49.1	-50.5	14.5	0.00e+00	0	26	0	2647654400	64	4197
2026-01-06 15:11:26.45	328.22	6.63	-49.0	-50.4	14.5	0.00e+00	0	26	0	2652897280	64	4158
2026-01-06 15:11:27.45	328.35	6.58	-49.1	-50.5	14.4	0.00e+00	0	26	0	2659188736	64	4223
2026-01-06 15:11:28.44	328.48	6.54	-49.0	-50.4	14.5	0.00e+00	0	26	0	2664431616	64	4176
2026-01-06 15:11:29.43	328.62	6.50	-49.3	-50.7	14.3	0.00e+00	0	26	0	2669674496	64	4324
2026-01-06 15:11:30.43	328.75	6.46	-49.4	-50.8	14.3	0.00e+00	0	26	0	2675965952	64	4353
2026-01-06 15:11:31.43	328.88	6.42	-49.2	-50.6	14.4	0.00e+00	0	26	0	2681208832	64	4282
2026-01-06 15:11:32.43	329.01	6.38	-49.2	-50.6	14.4	0.00e+00	0	26	0	2687500288	64	4277
2026-01-06 15:11:33.43	329.15	6.34	-49.3	-50.8	14.3	0.00e+00	0	26	0	2692743168	64	4347
2026-01-06 15:11:34.43	329.28	6.30	-49.4	-50.9	14.2	0.00e+00	0	26	0	2697986048	64	4404
2026-01-06 15:11:35.42	329.41	6.26	-49.4	-50.8	14.3	0.00e+00	0	26	0	2703228928	64	4380
2026-01-06 15:11:36.42	329.54	6.22	-49.5	-51.0	14.2	0.00e+00	0	26	0	2709520384	64	4461
2026-01-06 15:11:37.42	329.67	6.17	-49.4	-50.8	14.3	0.00e+00	0	26	0	2714763264	64	4374
2026-01-06 15:11:38.42	329.80	6.13	-49.6	-51.1	14.2	0.00e+00	0	26	0	2720006144	64	4504
2026-01-06 15:11:39.42	329.93	6.09	-49.6	-51.1	14.2	0.00e+00	0	26	0	2726297600	64	4523
2026-01-06 15:11:40.41	330.06	6.05	-49.8	-51.3	14.1	0.00e+00	0	26	0	2731540480	64	4628
2026-01-06 15:11:41.41	330.19	6.01	-49.9	-51.4	14.0	0.00e+00	0	26	0	2737831936	64	4675
2026-01-06 15:11:42.41	330.32	5.97	-49.8	-51.4	14.0	0.00e+00	0	26	0	2743074816	64	4655
2026-01-06 15:11:43.42	330.44	5.93	-49.8	-51.4	14.0	0.00e+00	0	26	0	2748317696	64	4656
2026-01-06 15:11:44.41	330.57	5.88	-49.8	-51.3	14.0	0.00e+00	0	26	0	2754609152	64	4616
2026-01-06 15:11:45.41	330.70	5.84	-49.7	-51.2	14.1	0.00e+00	0	26	0	2759852032	64	4575
2026-01-06 15:11:46.41	330.83	5.80	-50.0	-51.5	14.1	0.00e+00	0	26	0	2765094912	65	4467
2026-01-06 15:11:47.42	330.96	5.76	-49.9	-51.4	14.1	0.00e+00	0	26	0	2771386368	65	4425
2026-01-06 15:11:48.42	331.08	5.72	-49.8	-51.2	14.2	0.00e+00	0	26	0	2776629248	65	4337
2026-01-06 15:11:49.42	331.21	5.67	-49.5	-50.9	14.4	0.00e+00	0	26	0	2781872128	65	4171
2026-01-06 15:11:50.42	331.33	5.63	-49.7	-51.1	14.2	0.00e+00	0	26	0	2788163584	65	4281
2026-01-06 15:11:51.42	331.46	5.59	-49.7	-51.2	14.2	0.00e+00	0	26	0	2793406464	65	4295
2026-01-06 15:11:52.42	331.59	5.55	-49.7	-51.2	14.2	0.00e+00	0	26	0	2799697920	65	4311
2026-01-06 15:11:53.42	331.71	5.51	-49.6	-51.1	14.3	0.00e+00	0	26	0	2804940800	65	4252
2026-01-06 15:11:54.42	331.83	5.46	-49.8	-51.3	14.1	0.00e+00	0	26	0	2810183680	65	4361
2026-01-06 15:11:55.41	331.96	5.42	-49.9	-51.5	14.1	0.00e+00	0	26	0	2816475136	65	4451
2026-01-06 15:11:56.41	332.08	5.38	-49.8	-51.3	14.2	0.00e+00	0	26	0	2821718016	65	4357
2026-01-06 15:11:57.41	332.21	5.34	-50.2	-51.7	13.9	0.00e+00	0	26	0	2826960896	65	4592
2026-01-06 15:11:58.41	332.33	5.29	-49.9	-51.4	14.0	0.00e+00	0	26	0	2833252352	65	4428
2026-01-06 15:11:59.41	332.45	5.25	-49.9	-51.4	14.1	0.00e+00	0	26	0	2838495232	65	4429
2026-01-06 15:12:00.40	332.57	5.21	-49.8	-51.3	14.1	0.00e+00	0	26	0	2843738112	65	4364
2026-01-06 15:12:01.40	332.69	5.17	-50.0	-51.5	14.0	0.00e+00	0	26	0	2850029568	65	4490
2026-01-06 15:12:02.40	332.82	5.13	-50.1	-51.7	13.9	0.00e+00	0	26	0	2855272448	65	4592
2026-01-06 15:12:03.40	332.94	5.08	-50.2	-51.8	13.8	0.00e+00	0	26	0	2861563904	65	4648
2026-01-06 15:12:04.40	333.06	5.04	-50.2	-51.8	13.8	0.00e+00	0	26	0	2866806784	65	4616
2026-01-06 15:12:05.40	333.18	5.00	-51.1	-52.9	13.4	0.00e+00	0	26	0	2872049664	67	4691
2026-01-06 15:12:06.40	333.30	4.95	-58.5	-71.0	3.8	7.56e-01	0	26	104	2875195392	82	15762
2026-01-06 15:12:07.41	333.42	4.91	-59.0	-71.9	3.8	8.47e-01	0	26	104	2875195392	83	16675
2026-01-06 15:12:08.40	333.54	4.87	-59.2	-72.1	3.8	8.43e-01	0	26	104	2875195392	83	17025
2026-01-06 15:12:09.40	333.66	4.83	-59.6	-72.6	3.8	8.46e-01	0	26	104	2875195392	84	17045
2026-01-06 15:12:10.40	333.78	4.78	-59.8	-72.9	3.8	8.45e-01	0	26	104	2875195392	84	17503
2026-01-06 15:12:11.40	333.90	4.74	-60.0	-73.0	3.8	8.47e-01	0	26	104	2875195392	85	16872
2026-01-06 15:12:12.40	334.02	4.70	-60.1	-73.2	3.8	8.45e-01	0	26	104	2875195392	85	17110
2026-01-06 15:12:13.40	334.13	4.66	-60.1	-73.3	3.8	8.47e-01	0	26	104	2875195392	85	17286
2026-01-06 15:12:14.40	334.25	4.61	-60.2	-73.3	3.8	8.45e-01	0	26	104	2875195392	85	17431
2026-01-06 15:12:15.41	334.37	4.57	-60.3	-73.3	3.8	8.45e-01	0	26	104	2875195392	85	17462
2026-01-06 15:12:16.41	334.49	4.53	-60.3	-73.4	3.8	8.45e-01	0	26	104	2875195392	85	17565
2026-01-06 15:12:17.41	334.61	4.48	-60.3	-73.4	3.8	8.45e-01	0	26	104	2875195392	85	17655
2026-01-06 15:12:18.40	334.72	4.44	-60.4	-73.4	3.8	8.45e-01	0	26	104	2875195392	85	17675
2026-01-06 15:12:19.40	334.84	4.40	-60.4	-73.5	3.8	8.46e-01	0	26	104	2875195392	85	17718
2026-01-06 15:12:20.40	334.95	4.35	-60.4	-73.5	3.8	8.46e-01	0	26	104	2875195392	85	17841
2026-01-06 15:12:21.39	335.07	4.31	-60.5	-73.6	3.8	8.45e-01	0	26	104	2875195392	86	16906
2026-01-06 15:12:22.39	335.18	4.27	-60.5	-73.6	3.8	8.45e-01	0	26	104	2875195392	86	16934
2026-01-06 15:12:23.39	335.30	4.23	-60.5	-73.6	3.8	8.47e-01	0	26	104	2875195392	86	16916
2026-01-06 15:12:24.38	335.41	4.18	-60.5	-73.6	3.8	8.45e-01	0	26	104	2875195392	86	16960
2026-01-06 15:12:25.38	335.52	4.14	-60.5	-73.6	3.8	8.45e-01	0	26	104	2875195392	86	16988
2026-01-06 15:12:26.38	335.64	4.10	-60.5	-73.6	3.8	8.45e-01	0	26	104	2875195392	86	16979
2026-01-06 15:12:27.38	335.75	4.05	-60.5	-73.6	3.8	8.45e-01	0	26	104	2875195392	86	17023
2026-01-06 15:12:28.38	335.87	4.01	-60.4	-73.6	3.8	8.45e-01	0	26	104	2875195392	86	16905
2026-01-06 15:12:29.38	335.98	3.97	-60.4	-73.6	3.8	8.45e-01	0	26	104	2875195392	86	16892
2026-01-06 15:12:30.37	336.09	3.92	-60.4	-73.5	3.8	8.46e-01	0	26	104	2875195392	86	16788
2026-01-06 15:12:31.37	336.20	3.88	-60.4	-73.5	3.8	8.46e-01	0	26	104	2875195392	86	16791
2026-01-06 15:12:32.36	336.31	3.84	-60.4	-73.5	3.8	8.44e-01	0	26	104	2875195392	86	16838
2026-01-06 15:12:33.36	336.43	3.79	-60.4	-73.5	3.8	8.46e-01	0	26	104	2875195392	86	16780
2026-01-06 15:12:34.36	336.54	3.75	-60.4	-73.4	3.8	8.45e-01	0	26	104	2875195392	86	16657
2026-01-06 15:12:35.36	336.65	3.71	-60.4	-73.5	3.8	8.46e-01	0	26	104	2875195392	86	16763
2026-01-06 15:12:36.36	336.76	3.66	-60.4	-73.4	3.8	8.45e-01	0	26	104	2875195392	86	16690
2026-01-06 15:12:37.36	336.87	3.62	-60.3	-73.5	3.8	8.45e-01	0	26	104	2875195392	86	16755
2026-01-06 15:12:38.37	336.98	3.58	-60.3	-73.4	3.8	8.45e-01	0	26	104	2875195392	86	16683
2026-01-06 15:12:39.37	337.09	3.53	-60.3	-73.5	3.8	8.45e-01	0	26	104	2875195392	86	16757
2026-01-06 15:12:40.36	337.20	3.49	-60.3	-73.4	3.8	8.45e-01	0	26	104	2875195392	86	16641
2026-01-06 15:12:41.37	337.31	3.45	-60.3	-73.4	3.8	8.46e-01	0	26	104	2875195392	86	16657
2026-01-06 15:12:42.37	337.42	3.40	-60.3	-73.4	3.8	8.46e-01	0	26	104	2875195392	86	16616
2026-01-06 15:12:43.37	337.53	3.36	-60.3	-73.4	3.8	8.45e-01	0	26	104	2875195392	86	16674
2026-01-06 15:12:44.37	337.63	3.32	-60.3	-73.4	3.8	8.45e-01	0	26	104	2875195392	86	16658
2026-01-06 15:12:45.37	337.74	3.27	-60.3	-73.4	3.8	8.46e-01	0	26	104	2875195392	86	16594
2026-01-06 15:12:46.37	337.85	3.23	-60.3	-73.4	3.8	8.45e-01	0	26	104	2875195392	86	16578
2026-01-06 15:12:47.37	337.96	3.19	-60.3	-73.4	3.8	8.46e-01	0	26	104	2875195392	86	16609
2026-01-06 15:12:48.37	338.06	3.14	-60.3	-73.4	3.8	8.45e-01	0	26	104	2875195392	86	16592
2026-01-06 15:12:49.36	338.17	3.10	-60.3	-73.4	3.8	8.46e-01	0	26	104	2875195392	86	16516
2026-01-06 15:12:50.36	338.28	3.06	-60.3	-73.4	3.8	8.46e-01	0	26	104	2875195392	86	16513
2026-01-06 15:12:51.37	338.38	3.01	-60.3	-73.4	3.8	8.45e-01	0	26	104	2875195392	86	16526
2026-01-06 15:12:52.37	338.49	2.97	-60.3	-73.4	3.8	8.46e-01	0	26	104	2875195392	86	16548
2026-01-06 15:12:53.37	338.60	2.92	-60.3	-73.4	3.8	8.46e-01	0	26	104	2875195392	86	16624
2026-01-06 15:12:54.37	338.70	2.88	-60.3	-73.4	3.8	8.46e-01	0	26	104	2875195392	86	16551
2026-01-06 15:12:55.36	338.81	2.84	-60.3	-73.4	3.8	8.45e-01	0	26	104	2875195392	86	16552
2026-01-06 15:12:56.36	338.91	2.79	-60.3	-73.3	3.8	8.46e-01	0	26	104	2875195392	86	16498
2026-01-06 15:12:57.36	339.01	2.75	-60.2	-73.4	3.8	8.44e-01	0	26	104	2875195392	86	16535
2026-01-06 15:12:58.36	339.12	2.71	-60.3	-73.4	3.8	8.45e-01	0	26	104	2875195392	86	16578
2026-01-06 15:12:59.36	339.22	2.66	-60.2	-73.4	3.8	8.46e-01	0	26	104	2875195392	86	16524
2026-01-06 15:13:00.35	339.32	2.62	-60.2	-73.3	3.8	8.46e-01	0	26	104	2875195392	86	16484
2026-01-06 15:13:01.35	339.43	2.58	-60.2	-73.3	3.8	8.45e-01	0	26	104	2875195392	86	16496
2026-01-06 15:13:02.35	339.53	2.53	-60.2	-73.3	3.8	8.45e-01	0	26	104	2875195392	86	16486
2026-01-06 15:13:03.35	339.63	2.49	-60.2	-73.3	3.8	8.46e-01	0	26	104	2875195392	86	16471
2026-01-06 15:13:04.35	339.74	2.45	-60.2	-73.3	3.8	8.47e-01	0	26	104	2875195392	86	16462
2026-01-06 15:13:05.36	339.84	2.40	-60.2	-73.3	3.8	8.46e-01	0	26	104	2875195392	86	16468
2026-01-06 15:13:06.36	339.94	2.36	-60.2	-73.3	3.8	8.45e-01	0	26	104	2875195392	86	16471
2026-01-06 15:13:07.35	340.04	2.31	-60.2	-73.3	3.8	8.44e-01	0	26	104	2875195392	86	16467
2026-01-06 15:13:08.36	340.14	2.27	-60.2	-73.3	3.8	8.45e-01	0	26	104	2875195392	86	16465
2026-01-06 15:13:09.36	340.24	2.23	-60.2	-73.3	3.8	8.46e-01	0	26	104	2875195392	86	16451
2026-01-06 15:13:10.36	340.35	2.18	-60.2	-73.3	3.8	8.47e-01	0	26	104	2875195392	86	16442
2026-01-06 15:13:11.36	340.45	2.14	-60.2	-73.3	3.8	8.45e-01	0	26	104	2875195392	86	16416
2026-01-06 15:13:12.35	340.54	2.10	-60.2	-73.3	3.8	8.46e-01	0	26	104	2875195392	86	16450
2026-01-06 15:13:13.35	340.64	2.05	-60.2	-73.3	3.8	8.45e-01	0	26	104	2875195392	86	16454
2026-01-06 15:13:14.35	340.74	2.01	-60.2	-73.3	3.8	8.46e-01	0	26	104	2875195392	86	16436

#Closed at: 2026-01-06 15:13:14
#Recorded file [2875 MB]: D:/lorett/data/31004_260106_180230.dat