passes_logs/2026/01/06/R3.2S_Murmansk/R3.2S_Murmansk__20260106_055928_NOAA_20_JPSS-1_rec.log

#Pass ID: 20260106_055928_NOAA 20 (JPSS-1)
#Satellite: NOAA 20 (JPSS-1)
#Configuration: NOAA 20
#almurnet v.1.7.20251203
#Start time: 2026-01-06 05:59:28

#Version: 2.2.20231116
#Station: R3.2S_Murmansk
#Location: 33.079688 lon 68.888172 lat
#TLE: 1 43013U 17073A   26005.46207808  .00000128  00000+0  81791-4 0  9997
#TLE: 2 43013  98.7627 306.5027 0001826  53.0458 307.0885 14.19533487421381

#Time	Az	El	Level	Level2	SNR	BER	BlckErr	Temp	State	Recorded	gain1	gain2
2026-01-06 05:59:28.78	75.71	1.99	-57.9	-73.9	3.8	1.49e+00	0	24	0	0	82	22092
2026-01-06 05:59:29.78	75.65	2.05	-57.8	-73.8	3.8	1.49e+00	0	24	104	0	80	24617
2026-01-06 05:59:30.78	75.59	2.10	-57.8	-73.8	3.8	1.49e+00	0	24	104	0	80	24613
2026-01-06 05:59:31.79	75.53	2.16	-57.8	-73.8	3.8	1.49e+00	0	24	104	0	80	24609
2026-01-06 05:59:32.79	75.47	2.22	-57.8	-73.8	3.8	1.49e+00	0	24	104	0	80	24517
2026-01-06 05:59:33.80	75.40	2.28	-57.8	-73.8	3.8	1.49e+00	0	24	104	0	80	24545
2026-01-06 05:59:34.80	75.34	2.34	-57.8	-73.8	3.8	1.49e+00	0	24	104	0	80	24566
2026-01-06 05:59:35.81	75.28	2.39	-57.8	-73.8	3.8	1.49e+00	0	24	104	0	80	24623
2026-01-06 05:59:36.81	75.21	2.45	-57.8	-73.8	3.8	1.49e+00	0	24	104	0	80	24518
2026-01-06 05:59:37.81	75.15	2.51	-57.8	-73.8	3.9	1.49e+00	0	24	104	0	80	24466
2026-01-06 05:59:38.81	75.09	2.57	-57.8	-73.8	3.8	1.49e+00	0	24	104	0	80	24565
2026-01-06 05:59:39.81	75.02	2.63	-57.8	-73.8	3.8	1.49e+00	0	24	104	0	80	24562
2026-01-06 05:59:40.81	74.96	2.68	-57.8	-73.8	3.8	1.49e+00	0	24	104	0	80	24534
2026-01-06 05:59:41.80	74.90	2.74	-57.8	-73.8	3.8	1.49e+00	0	24	104	0	80	24548
2026-01-06 05:59:42.80	74.83	2.80	-57.8	-73.8	3.8	1.49e+00	0	24	104	0	80	24590
2026-01-06 05:59:43.81	74.77	2.86	-57.8	-73.8	3.8	1.49e+00	0	24	104	0	80	24573
2026-01-06 05:59:44.81	74.70	2.92	-57.8	-73.8	3.8	1.49e+00	0	24	104	0	80	24565
2026-01-06 05:59:45.82	74.64	2.98	-57.8	-73.8	3.8	1.49e+00	0	24	104	0	80	24654
2026-01-06 05:59:46.81	74.57	3.04	-57.8	-73.8	3.8	1.49e+00	0	24	104	0	80	24641
2026-01-06 05:59:47.81	74.51	3.10	-57.8	-73.8	3.8	1.49e+00	0	25	104	0	80	24640
2026-01-06 05:59:48.81	74.44	3.15	-57.8	-73.8	3.8	1.49e+00	0	24	104	0	80	24637
2026-01-06 05:59:49.81	74.37	3.21	-57.8	-73.8	3.8	1.49e+00	0	24	104	0	80	24650
2026-01-06 05:59:50.81	74.31	3.27	-57.8	-73.8	3.8	1.49e+00	0	24	104	0	80	24511
2026-01-06 05:59:51.81	74.24	3.33	-57.8	-73.8	3.8	1.49e+00	0	24	104	0	80	24549
2026-01-06 05:59:52.81	74.17	3.39	-57.8	-73.8	3.8	1.49e+00	0	25	104	0	80	24547
2026-01-06 05:59:53.82	74.10	3.45	-57.8	-73.8	3.8	1.49e+00	0	24	104	0	80	24525
2026-01-06 05:59:54.82	74.04	3.51	-57.8	-73.8	3.8	1.49e+00	0	25	104	0	80	24518
2026-01-06 05:59:55.82	73.97	3.57	-57.8	-73.8	3.8	1.49e+00	0	25	104	0	80	24640
2026-01-06 05:59:56.82	73.90	3.63	-57.8	-73.8	3.8	1.49e+00	0	25	104	0	80	24640
2026-01-06 05:59:57.81	73.83	3.69	-57.8	-73.8	3.8	1.49e+00	0	25	104	0	80	24589
2026-01-06 05:59:58.82	73.76	3.75	-57.8	-73.8	3.8	1.49e+00	0	25	104	0	80	24563
2026-01-06 05:59:59.82	73.69	3.81	-57.8	-73.8	3.8	1.49e+00	0	25	104	0	80	24416
2026-01-06 06:00:00.82	73.62	3.87	-57.8	-73.7	3.9	1.49e+00	0	25	104	0	80	24365
2026-01-06 06:00:01.82	73.55	3.93	-57.8	-73.7	3.8	1.49e+00	0	25	104	0	80	24359
2026-01-06 06:00:02.82	73.48	3.99	-57.8	-73.7	3.8	1.49e+00	0	25	104	0	80	24332
2026-01-06 06:00:03.82	73.41	4.05	-57.8	-73.8	3.8	1.49e+00	0	25	104	0	80	24494
2026-01-06 06:00:04.82	73.34	4.11	-57.8	-73.8	3.8	1.49e+00	0	25	104	0	80	24643
2026-01-06 06:00:05.82	73.27	4.17	-57.8	-73.8	3.8	1.49e+00	0	25	104	0	80	24643
2026-01-06 06:00:06.81	73.20	4.23	-57.8	-73.7	3.8	1.49e+00	0	25	104	0	80	24338
2026-01-06 06:00:07.81	73.13	4.29	-57.8	-73.4	3.8	1.49e+00	0	25	104	0	80	23491
2026-01-06 06:00:08.80	73.06	4.35	-57.8	-73.0	3.8	1.49e+00	0	25	104	0	80	22369
2026-01-06 06:00:09.80	72.98	4.41	-57.8	-72.3	3.8	1.49e+00	0	25	104	0	80	20648
2026-01-06 06:00:10.80	72.91	4.47	-57.7	-71.6	3.8	1.49e+00	0	25	104	0	80	18997
2026-01-06 06:00:11.81	72.84	4.54	-57.7	-71.0	3.9	1.46e+00	0	25	104	0	80	17763
2026-01-06 06:00:12.81	72.76	4.60	-57.6	-69.9	4.3	1.39e+00	0	25	0	0	80	15724
2026-01-06 06:00:13.81	72.69	4.66	-57.6	-69.2	4.5	1.22e+00	0	25	0	1048576	80	14453
2026-01-06 06:00:14.81	72.62	4.72	-57.5	-68.2	4.9	7.64e-01	0	25	0	3145728	80	12949
2026-01-06 06:00:15.81	72.54	4.78	-57.4	-67.2	5.5	4.76e-01	0	25	0	5242880	80	11509
2026-01-06 06:00:16.81	72.47	4.84	-57.4	-66.8	5.8	3.93e-01	0	25	0	6291456	80	10962
2026-01-06 06:00:17.81	72.39	4.90	-57.3	-66.2	6.2	3.34e-01	0	25	0	8388608	80	10222
2026-01-06 06:00:18.81	72.32	4.97	-57.3	-66.1	6.2	2.05e-01	0	25	0	10485760	80	10115
2026-01-06 06:00:19.81	72.24	5.03	-57.3	-66.1	6.2	2.31e-01	0	25	0	12582912	80	10086
2026-01-06 06:00:20.80	72.17	5.09	-56.9	-63.5	8.6	1.45e-01	0	25	0	14680064	80	7463
2026-01-06 06:00:21.81	72.09	5.15	-56.1	-61.0	10.6	2.34e-03	0	25	0	15728640	78	6327
2026-01-06 06:00:22.80	72.01	5.21	-57.7	-70.3	4.3	1.27e-01	66	25	0	17825792	80	16388
2026-01-06 06:00:23.80	71.94	5.28	-57.6	-67.2	5.7	9.51e-01	0	25	0	17825792	80	11508
2026-01-06 06:00:24.79	71.86	5.34	-55.8	-60.2	11.2	2.98e-01	0	25	0	19922944	77	6082
2026-01-06 06:00:25.80	71.78	5.40	-55.8	-60.3	11.1	1.48e-04	0	25	0	22020096	77	6145
2026-01-06 06:00:26.80	71.70	5.46	-55.7	-60.1	11.3	1.43e-04	0	25	0	23068672	77	6004
2026-01-06 06:00:27.79	71.63	5.52	-55.8	-60.4	11.0	6.02e-05	0	25	0	25165824	77	6228
2026-01-06 06:00:28.79	71.55	5.59	-55.4	-59.2	11.9	1.22e-05	0	25	0	27262976	77	5459
2026-01-06 06:00:29.79	71.47	5.65	-55.0	-58.5	12.4	2.20e-06	0	25	0	29360128	76	5313
2026-01-06 06:00:30.79	71.39	5.71	-54.9	-58.4	12.5	7.00e-07	0	25	0	31457280	76	5221
2026-01-06 06:00:31.79	71.31	5.78	-54.8	-58.1	12.7	7.00e-07	0	25	0	32505856	76	5065
2026-01-06 06:00:32.79	71.23	5.84	-54.7	-58.0	12.7	0.00e+00	0	25	0	34603008	75	5297
2026-01-06 06:00:33.79	71.15	5.90	-54.6	-57.9	12.7	1.50e-06	0	25	0	36700160	75	5261
2026-01-06 06:00:34.79	71.07	5.97	-54.7	-58.0	12.7	0.00e+00	0	25	0	38797312	75	5291
2026-01-06 06:00:35.78	70.99	6.03	-54.6	-57.8	12.8	0.00e+00	0	25	0	39845888	75	5184
2026-01-06 06:00:36.78	70.91	6.09	-54.5	-57.7	12.9	0.00e+00	0	25	0	41943040	75	5127
2026-01-06 06:00:37.78	70.83	6.16	-54.7	-58.0	12.7	0.00e+00	0	25	0	44040192	75	5280
2026-01-06 06:00:38.78	70.74	6.22	-54.4	-57.4	13.1	0.00e+00	0	25	0	46137344	75	4961
2026-01-06 06:00:39.77	70.66	6.28	-54.5	-57.7	12.9	0.00e+00	0	25	0	48234496	75	5117
2026-01-06 06:00:40.77	70.58	6.35	-54.6	-57.8	12.9	0.00e+00	0	25	0	49283072	75	5165
2026-01-06 06:00:41.78	70.49	6.41	-54.7	-58.0	12.7	0.00e+00	0	25	0	51380224	75	5318
2026-01-06 06:00:42.78	70.41	6.47	-54.6	-57.8	12.8	0.00e+00	0	25	0	53477376	75	5204
2026-01-06 06:00:43.78	70.33	6.54	-54.5	-57.6	12.9	0.00e+00	0	25	0	55574528	75	5093
2026-01-06 06:00:44.79	70.24	6.60	-54.6	-57.8	12.8	0.00e+00	0	25	0	57671680	75	5193
2026-01-06 06:00:45.79	70.16	6.67	-54.6	-57.7	12.9	0.00e+00	0	25	0	58720256	75	5121
2026-01-06 06:00:46.78	70.07	6.73	-54.6	-57.7	12.9	0.00e+00	0	25	0	60817408	75	5120
2026-01-06 06:00:47.78	69.99	6.80	-54.3	-57.2	13.3	0.00e+00	0	25	0	62914560	75	4837
2026-01-06 06:00:48.78	69.90	6.86	-54.4	-57.4	13.1	0.00e+00	0	25	0	65011712	75	4977
2026-01-06 06:00:49.77	69.81	6.93	-54.4	-57.3	13.2	0.00e+00	0	25	0	66060288	75	4915
2026-01-06 06:00:50.77	69.73	6.99	-54.4	-57.4	13.1	0.00e+00	0	25	0	68157440	75	4952
2026-01-06 06:00:51.76	69.64	7.05	-54.5	-57.5	13.1	0.00e+00	0	25	0	70254592	75	5015
2026-01-06 06:00:52.76	69.55	7.12	-54.5	-57.5	13.1	0.00e+00	0	25	0	72351744	75	5004
2026-01-06 06:00:53.75	69.47	7.18	-54.3	-57.1	13.3	0.00e+00	0	25	0	74448896	75	4801
2026-01-06 06:00:54.75	69.38	7.25	-54.4	-57.3	13.2	0.00e+00	0	25	0	75497472	75	4897
2026-01-06 06:00:55.75	69.29	7.31	-54.4	-57.4	13.2	0.00e+00	0	25	0	77594624	75	4944
2026-01-06 06:00:56.75	69.20	7.38	-54.4	-57.4	13.2	0.00e+00	0	25	0	79691776	75	4950
2026-01-06 06:00:57.75	69.11	7.45	-54.5	-57.5	13.1	0.00e+00	0	25	0	81788928	75	5014
2026-01-06 06:00:58.75	69.02	7.51	-54.5	-57.5	13.1	0.00e+00	0	26	0	83886080	75	4986
2026-01-06 06:00:59.75	68.93	7.58	-54.5	-57.5	13.1	0.00e+00	0	25	0	84934656	75	5016
2026-01-06 06:01:00.75	68.84	7.64	-54.3	-57.2	13.3	0.00e+00	0	26	0	87031808	75	4855
2026-01-06 06:01:01.74	68.75	7.71	-54.4	-57.3	13.2	0.00e+00	0	26	0	89128960	75	4905
2026-01-06 06:01:02.74	68.65	7.77	-54.4	-57.4	13.2	0.00e+00	0	26	0	91226112	75	4928
2026-01-06 06:01:03.75	68.56	7.84	-54.4	-57.3	13.2	0.00e+00	0	25	0	92274688	75	4921
2026-01-06 06:01:04.75	68.47	7.91	-54.5	-57.4	13.1	0.00e+00	0	25	0	94371840	75	4979
2026-01-06 06:01:05.74	68.38	7.97	-54.4	-57.3	13.2	0.00e+00	0	25	0	96468992	75	4914
2026-01-06 06:01:06.74	68.28	8.04	-54.5	-57.4	13.2	0.00e+00	0	25	0	98566144	75	4960
2026-01-06 06:01:07.74	68.19	8.11	-54.4	-57.4	13.2	0.00e+00	0	25	0	100663296	75	4930
2026-01-06 06:01:08.74	68.09	8.17	-54.5	-57.4	13.2	0.00e+00	0	25	0	101711872	75	4957
2026-01-06 06:01:09.74	68.00	8.24	-54.4	-57.3	13.3	0.00e+00	0	26	0	103809024	75	4874
2026-01-06 06:01:10.73	67.90	8.31	-54.5	-57.4	13.2	0.00e+00	0	25	0	105906176	75	4959
2026-01-06 06:01:11.72	67.81	8.37	-54.4	-57.4	13.2	0.00e+00	0	25	0	108003328	75	4941
2026-01-06 06:01:12.72	67.71	8.44	-54.3	-57.2	13.3	0.00e+00	0	25	0	109051904	75	4832
2026-01-06 06:01:13.72	67.62	8.51	-54.5	-57.4	13.2	0.00e+00	0	25	0	111149056	75	4953
2026-01-06 06:01:14.71	67.52	8.57	-54.4	-57.3	13.3	0.00e+00	0	26	0	113246208	75	4905
2026-01-06 06:01:15.70	67.42	8.64	-54.5	-57.3	13.3	0.00e+00	0	25	0	115343360	75	4924
2026-01-06 06:01:16.70	67.33	8.71	-54.5	-57.5	13.2	0.00e+00	0	26	0	117440512	75	4984
2026-01-06 06:01:17.70	67.23	8.78	-54.4	-57.2	13.3	0.00e+00	0	25	0	118489088	75	4851
2026-01-06 06:01:18.70	67.13	8.84	-54.5	-57.4	13.3	0.00e+00	0	25	0	120586240	75	4933
2026-01-06 06:01:19.71	67.03	8.91	-54.3	-57.1	13.4	0.00e+00	0	25	0	122683392	75	4810
2026-01-06 06:01:20.70	66.93	8.98	-54.1	-56.8	13.5	0.00e+00	0	25	0	124780544	74	4896
2026-01-06 06:01:21.70	66.83	9.05	-54.2	-56.9	13.4	0.00e+00	0	25	0	126877696	74	4965
2026-01-06 06:01:22.70	66.73	9.11	-54.2	-56.9	13.4	0.00e+00	0	26	0	127926272	74	4978
2026-01-06 06:01:23.70	66.63	9.18	-54.1	-56.8	13.5	0.00e+00	0	26	0	130023424	74	4910
2026-01-06 06:01:24.69	66.52	9.25	-54.0	-56.6	13.6	0.00e+00	0	26	0	132120576	74	4796
2026-01-06 06:01:25.69	66.42	9.32	-54.0	-56.6	13.6	0.00e+00	0	25	0	134217728	74	4784
2026-01-06 06:01:26.68	66.32	9.39	-54.0	-56.6	13.6	0.00e+00	0	26	0	135266304	74	4802
2026-01-06 06:01:27.68	66.22	9.45	-54.0	-56.6	13.6	0.00e+00	0	25	0	137363456	74	4808
2026-01-06 06:01:28.68	66.11	9.52	-54.1	-56.7	13.5	0.00e+00	0	26	0	139460608	74	4858
2026-01-06 06:01:29.68	66.01	9.59	-54.1	-56.7	13.6	0.00e+00	0	26	0	141557760	74	4853
2026-01-06 06:01:30.68	65.90	9.66	-54.1	-56.8	13.5	0.00e+00	0	26	0	143654912	74	4884
2026-01-06 06:01:31.68	65.80	9.73	-54.0	-56.7	13.6	0.00e+00	0	26	0	144703488	74	4816
2026-01-06 06:01:32.68	65.69	9.80	-54.0	-56.5	13.6	0.00e+00	0	26	0	146800640	74	4758
2026-01-06 06:01:33.68	65.58	9.87	-53.9	-56.4	13.8	0.00e+00	0	26	0	148897792	74	4666
2026-01-06 06:01:34.67	65.48	9.94	-53.9	-56.5	13.7	0.00e+00	0	26	0	150994944	74	4725
2026-01-06 06:01:35.66	65.37	10.01	-54.0	-56.6	13.6	0.00e+00	0	26	0	152043520	74	4769
2026-01-06 06:01:36.66	65.26	10.07	-54.0	-56.6	13.6	0.00e+00	0	26	0	154140672	74	4810
2026-01-06 06:01:37.67	65.15	10.15	-53.9	-56.5	13.7	0.00e+00	0	26	0	156237824	74	4713
2026-01-06 06:01:38.66	65.05	10.21	-54.0	-56.5	13.7	0.00e+00	0	26	0	158334976	74	4757
2026-01-06 06:01:39.66	64.94	10.28	-54.1	-56.7	13.6	0.00e+00	0	25	0	160432128	74	4831
2026-01-06 06:01:40.65	64.83	10.35	-54.1	-56.7	13.5	0.00e+00	0	26	0	161480704	74	4851
2026-01-06 06:01:41.65	64.72	10.42	-54.0	-56.6	13.6	0.00e+00	0	26	0	163577856	74	4812
2026-01-06 06:01:42.65	64.61	10.49	-54.1	-56.7	13.5	0.00e+00	0	26	0	165675008	74	4869
2026-01-06 06:01:43.63	64.50	10.56	-54.1	-56.7	13.6	0.00e+00	0	26	0	167772160	74	4833
2026-01-06 06:01:44.63	64.38	10.63	-54.2	-56.8	13.5	0.00e+00	0	26	0	169869312	74	4918
2026-01-06 06:01:45.63	64.27	10.70	-54.1	-56.7	13.6	0.00e+00	0	26	0	170917888	74	4847
2026-01-06 06:01:46.63	64.16	10.77	-54.1	-56.7	13.6	0.00e+00	0	26	0	173015040	74	4863
2026-01-06 06:01:47.63	64.04	10.84	-54.2	-56.8	13.5	0.00e+00	0	26	0	175112192	74	4923
2026-01-06 06:01:48.62	63.93	10.91	-54.1	-56.6	13.6	0.00e+00	0	26	0	177209344	74	4811
2026-01-06 06:01:49.62	63.81	10.98	-54.1	-56.8	13.6	0.00e+00	0	26	0	178257920	74	4877
2026-01-06 06:01:50.63	63.70	11.05	-54.2	-56.8	13.6	0.00e+00	0	26	0	180355072	74	4880
2026-01-06 06:01:51.63	63.58	11.13	-54.1	-56.7	13.6	0.00e+00	0	26	0	182452224	74	4843
2026-01-06 06:01:52.63	63.46	11.20	-54.1	-56.6	13.6	0.00e+00	0	26	0	184549376	74	4807
2026-01-06 06:01:53.63	63.35	11.27	-54.0	-56.6	13.7	0.00e+00	0	26	0	186646528	74	4760
2026-01-06 06:01:54.63	63.23	11.34	-54.1	-56.6	13.6	0.00e+00	0	26	0	187695104	74	4808
2026-01-06 06:01:55.63	63.11	11.41	-54.0	-56.5	13.7	0.00e+00	0	26	0	189792256	74	4738
2026-01-06 06:01:56.63	62.99	11.48	-53.9	-56.3	13.8	0.00e+00	0	26	0	191889408	74	4649
2026-01-06 06:01:57.63	62.87	11.55	-53.9	-56.4	13.8	0.00e+00	0	25	0	193986560	74	4663
2026-01-06 06:01:58.62	62.75	11.62	-53.9	-56.4	13.8	0.00e+00	0	26	0	196083712	74	4679
2026-01-06 06:01:59.62	62.63	11.69	-53.9	-56.3	13.8	0.00e+00	0	26	0	197132288	74	4645
2026-01-06 06:02:00.62	62.51	11.77	-53.8	-56.2	13.9	0.00e+00	0	26	0	199229440	74	4591
2026-01-06 06:02:01.61	62.39	11.84	-53.8	-56.3	13.9	0.00e+00	0	26	0	201326592	74	4623
2026-01-06 06:02:02.60	62.27	11.91	-53.8	-56.2	13.9	0.00e+00	0	26	0	203423744	74	4567
2026-01-06 06:02:03.61	62.14	11.98	-53.8	-56.3	13.9	0.00e+00	0	26	0	204472320	74	4620
2026-01-06 06:02:04.60	62.02	12.05	-53.8	-56.2	13.9	0.00e+00	0	26	0	206569472	74	4596
2026-01-06 06:02:05.60	61.89	12.12	-53.8	-56.2	13.9	0.00e+00	0	26	0	208666624	74	4573
2026-01-06 06:02:06.59	61.77	12.19	-53.7	-56.1	14.0	0.00e+00	0	26	0	210763776	74	4510
2026-01-06 06:02:07.59	61.64	12.27	-53.8	-56.2	13.9	0.00e+00	0	26	0	212860928	74	4585
2026-01-06 06:02:08.59	61.52	12.34	-53.6	-55.9	13.9	0.00e+00	0	26	0	213909504	73	4699
2026-01-06 06:02:09.58	61.39	12.41	-53.6	-55.9	14.0	0.00e+00	0	26	0	216006656	73	4667
2026-01-06 06:02:10.58	61.26	12.48	-53.6	-55.9	13.9	0.00e+00	0	26	0	218103808	73	4695
2026-01-06 06:02:11.57	61.14	12.55	-53.6	-55.9	14.0	0.00e+00	0	26	0	220200960	73	4666
2026-01-06 06:02:12.56	61.01	12.63	-53.6	-55.8	14.0	0.00e+00	0	26	0	221249536	73	4651
2026-01-06 06:02:13.56	60.88	12.70	-53.5	-55.7	14.1	0.00e+00	0	26	0	223346688	73	4593
2026-01-06 06:02:14.56	60.75	12.77	-53.4	-55.7	14.1	0.00e+00	0	26	0	225443840	73	4561
2026-01-06 06:02:15.56	60.62	12.84	-53.4	-55.7	14.1	0.00e+00	0	26	0	227540992	73	4562
2026-01-06 06:02:16.57	60.48	12.92	-53.4	-55.7	14.1	0.00e+00	0	26	0	229638144	73	4572
2026-01-06 06:02:17.57	60.35	12.99	-53.5	-55.9	14.0	0.00e+00	0	26	0	230686720	73	4652
2026-01-06 06:02:18.56	60.22	13.06	-53.6	-55.9	14.0	0.00e+00	0	26	0	232783872	73	4663
2026-01-06 06:02:19.56	60.08	13.13	-53.5	-55.8	14.0	0.00e+00	0	26	0	234881024	73	4641
2026-01-06 06:02:20.55	59.95	13.21	-53.5	-55.8	14.0	0.00e+00	0	26	0	236978176	73	4626
2026-01-06 06:02:21.55	59.82	13.28	-53.5	-55.7	14.1	0.00e+00	0	26	0	239075328	73	4578
2026-01-06 06:02:22.55	59.68	13.35	-53.5	-55.8	14.1	0.00e+00	0	26	0	240123904	73	4603
2026-01-06 06:02:23.55	59.54	13.43	-53.5	-55.8	14.0	0.00e+00	0	26	0	242221056	73	4604
2026-01-06 06:02:24.54	59.41	13.50	-53.5	-55.7	14.1	0.00e+00	0	26	0	244318208	73	4587
2026-01-06 06:02:25.54	59.27	13.57	-53.5	-55.7	14.1	0.00e+00	0	26	0	246415360	73	4572
2026-01-06 06:02:26.54	59.13	13.64	-53.4	-55.7	14.1	0.00e+00	0	26	0	248512512	73	4573
2026-01-06 06:02:27.53	58.99	13.72	-53.4	-55.6	14.2	0.00e+00	0	26	0	249561088	73	4508
2026-01-06 06:02:28.53	58.85	13.79	-53.3	-55.5	14.2	0.00e+00	0	26	0	251658240	73	4463
2026-01-06 06:02:29.54	58.71	13.86	-53.3	-55.5	14.2	0.00e+00	0	26	0	253755392	73	4460
2026-01-06 06:02:30.54	58.57	13.94	-53.2	-55.4	14.3	0.00e+00	0	26	0	255852544	73	4399
2026-01-06 06:02:31.54	58.43	14.01	-53.2	-55.3	14.2	0.00e+00	0	26	0	256901120	72	4618
2026-01-06 06:02:32.54	58.29	14.08	-53.1	-55.3	14.2	0.00e+00	0	26	0	258998272	72	4599
2026-01-06 06:02:33.54	58.14	14.16	-53.1	-55.2	14.2	0.00e+00	0	26	0	261095424	72	4570
2026-01-06 06:02:34.54	58.00	14.23	-53.2	-55.3	14.2	0.00e+00	0	26	0	263192576	72	4647
2026-01-06 06:02:35.53	57.85	14.30	-53.1	-55.3	14.2	0.00e+00	0	26	0	265289728	72	4620
2026-01-06 06:02:36.53	57.71	14.38	-53.0	-55.1	14.3	0.00e+00	0	26	0	266338304	72	4526
2026-01-06 06:02:37.54	57.56	14.45	-52.9	-55.0	14.3	0.00e+00	0	26	0	268435456	72	4470
2026-01-06 06:02:38.53	57.41	14.53	-53.1	-55.2	14.2	0.00e+00	0	26	0	270532608	72	4578
2026-01-06 06:02:39.53	57.27	14.60	-53.1	-55.1	14.3	0.00e+00	0	26	0	272629760	72	4543
2026-01-06 06:02:40.53	57.12	14.67	-53.0	-55.1	14.3	0.00e+00	0	26	0	273678336	72	4516
2026-01-06 06:02:41.53	56.97	14.75	-53.0	-55.1	14.3	0.00e+00	0	26	0	275775488	72	4507
2026-01-06 06:02:42.53	56.82	14.82	-53.1	-55.2	14.3	0.00e+00	0	26	0	277872640	72	4567
2026-01-06 06:02:43.52	56.67	14.89	-53.2	-55.3	14.2	0.00e+00	0	26	0	279969792	72	4647
2026-01-06 06:02:44.52	56.52	14.97	-53.3	-55.5	14.1	0.00e+00	0	26	0	282066944	72	4728
2026-01-06 06:02:45.52	56.36	15.04	-53.2	-55.4	14.1	0.00e+00	0	26	0	283115520	72	4673
2026-01-06 06:02:46.51	56.21	15.12	-53.2	-55.4	14.1	0.00e+00	0	26	0	285212672	72	4686
2026-01-06 06:02:47.51	56.06	15.19	-53.3	-55.5	14.1	0.00e+00	0	26	0	287309824	72	4712
2026-01-06 06:02:48.52	55.90	15.26	-53.3	-55.5	14.1	0.00e+00	0	26	0	289406976	72	4743
2026-01-06 06:02:49.51	55.75	15.34	-53.3	-55.5	14.1	0.00e+00	0	26	0	291504128	72	4715
2026-01-06 06:02:50.51	55.59	15.41	-53.3	-55.5	14.1	0.00e+00	0	26	0	292552704	72	4753
2026-01-06 06:02:51.51	55.43	15.49	-53.3	-55.5	14.1	0.00e+00	0	25	0	294649856	72	4728
2026-01-06 06:02:52.51	55.28	15.56	-53.3	-55.4	14.1	0.00e+00	0	26	0	296747008	72	4698
2026-01-06 06:02:53.51	55.12	15.63	-53.3	-55.5	14.1	0.00e+00	0	26	0	298844160	72	4717
2026-01-06 06:02:54.51	54.96	15.71	-53.4	-55.5	14.1	0.00e+00	0	26	0	299892736	72	4756
2026-01-06 06:02:55.51	54.80	15.78	-53.4	-55.6	14.0	0.00e+00	0	26	0	301989888	72	4801
2026-01-06 06:02:56.52	54.63	15.86	-53.4	-55.5	14.1	0.00e+00	0	26	0	304087040	72	4759
2026-01-06 06:02:57.51	54.47	15.93	-53.5	-55.8	13.9	0.00e+00	0	26	0	306184192	72	4881
2026-01-06 06:02:58.51	54.31	16.00	-53.5	-55.7	14.0	0.00e+00	0	26	0	308281344	72	4848
2026-01-06 06:02:59.51	54.15	16.08	-53.6	-55.8	13.9	0.00e+00	0	26	0	309329920	72	4914
2026-01-06 06:03:00.50	53.99	16.15	-53.6	-55.8	13.9	0.00e+00	0	26	0	311427072	72	4909
2026-01-06 06:03:01.50	53.82	16.23	-53.6	-55.9	13.9	0.00e+00	0	26	0	313524224	72	4958
2026-01-06 06:03:02.50	53.65	16.30	-53.5	-55.8	14.0	0.00e+00	0	26	0	315621376	72	4885
2026-01-06 06:03:03.50	53.49	16.37	-53.5	-55.7	14.0	0.00e+00	0	26	0	317718528	72	4867
2026-01-06 06:03:04.49	53.32	16.45	-53.5	-55.7	14.0	0.00e+00	0	26	0	318767104	72	4859
2026-01-06 06:03:05.49	53.15	16.52	-53.5	-55.7	14.0	0.00e+00	0	26	0	320864256	72	4868
2026-01-06 06:03:06.49	52.98	16.59	-53.4	-55.7	14.0	0.00e+00	0	26	0	322961408	72	4822
2026-01-06 06:03:07.48	52.81	16.67	-53.4	-55.6	14.0	0.00e+00	0	26	0	325058560	72	4814
2026-01-06 06:03:08.47	52.64	16.74	-53.4	-55.6	14.0	0.00e+00	0	26	0	326107136	72	4811
2026-01-06 06:03:09.47	52.47	16.81	-53.5	-55.8	14.0	0.00e+00	0	26	0	328204288	72	4891
2026-01-06 06:03:10.46	52.30	16.89	-53.5	-55.8	13.9	0.00e+00	0	26	0	330301440	72	4896
2026-01-06 06:03:11.47	52.13	16.96	-53.6	-55.9	13.9	0.00e+00	0	26	0	332398592	72	4942
2026-01-06 06:03:12.47	51.95	17.03	-53.6	-55.9	13.9	0.00e+00	0	26	0	334495744	72	4967
2026-01-06 06:03:13.47	51.78	17.11	-53.7	-56.0	13.9	0.00e+00	0	26	0	335544320	72	4991
2026-01-06 06:03:14.47	51.60	17.18	-53.7	-56.0	13.8	0.00e+00	0	26	0	337641472	72	5036
2026-01-06 06:03:15.47	51.42	17.25	-53.7	-56.0	13.9	0.00e+00	0	26	0	339738624	72	4993
2026-01-06 06:03:16.46	51.25	17.33	-53.6	-55.9	13.9	0.00e+00	0	26	0	341835776	72	4965
2026-01-06 06:03:17.45	51.07	17.40	-53.6	-55.9	13.9	0.00e+00	0	26	0	343932928	72	4956
2026-01-06 06:03:18.45	50.89	17.47	-53.7	-56.0	13.9	0.00e+00	0	26	0	344981504	72	4999
2026-01-06 06:03:19.45	50.71	17.55	-53.5	-55.8	13.9	0.00e+00	0	26	0	347078656	72	4901
2026-01-06 06:03:20.44	50.53	17.62	-53.6	-55.8	14.0	0.00e+00	0	26	0	349175808	72	4912
2026-01-06 06:03:21.44	50.35	17.69	-53.5	-55.7	14.0	0.00e+00	0	26	0	351272960	72	4842
2026-01-06 06:03:22.44	50.16	17.76	-53.5	-55.7	14.0	0.00e+00	0	26	0	352321536	72	4866
2026-01-06 06:03:23.43	49.98	17.84	-53.5	-55.7	14.0	0.00e+00	0	26	0	354418688	72	4868
2026-01-06 06:03:24.43	49.80	17.91	-53.5	-55.7	14.0	0.00e+00	0	26	0	356515840	72	4862
2026-01-06 06:03:25.43	49.61	17.98	-53.5	-55.7	14.0	0.00e+00	0	26	0	358612992	72	4828
2026-01-06 06:03:26.43	49.42	18.05	-53.5	-55.7	14.0	0.00e+00	0	26	0	360710144	72	4834
2026-01-06 06:03:27.43	49.23	18.13	-53.5	-55.7	14.1	0.00e+00	0	26	0	361758720	72	4820
2026-01-06 06:03:28.42	49.05	18.20	-53.4	-55.6	14.1	0.00e+00	0	26	0	363855872	72	4774
2026-01-06 06:03:29.42	48.86	18.27	-53.3	-55.5	14.1	0.00e+00	0	26	0	365953024	72	4742
2026-01-06 06:03:30.42	48.67	18.34	-53.4	-55.6	14.1	0.00e+00	0	26	0	368050176	72	4778
2026-01-06 06:03:31.41	48.48	18.41	-53.3	-55.4	14.2	0.00e+00	0	26	0	369098752	72	4687
2026-01-06 06:03:32.40	48.29	18.48	-53.1	-55.2	14.3	0.00e+00	0	26	0	371195904	72	4586
2026-01-06 06:03:33.40	48.09	18.56	-53.2	-55.2	14.3	0.00e+00	0	26	0	373293056	72	4593
2026-01-06 06:03:34.41	47.90	18.63	-53.1	-55.2	14.2	0.00e+00	0	26	0	375390208	72	4579
2026-01-06 06:03:35.41	47.70	18.70	-53.1	-55.2	14.3	0.00e+00	0	26	0	377487360	72	4550
2026-01-06 06:03:36.41	47.51	18.77	-52.9	-55.0	14.4	0.00e+00	0	26	0	378535936	72	4446
2026-01-06 06:03:37.41	47.31	18.84	-52.9	-54.9	14.4	0.00e+00	0	26	0	380633088	72	4409
2026-01-06 06:03:38.41	47.11	18.91	-52.9	-54.9	14.4	0.00e+00	0	26	0	382730240	72	4424
2026-01-06 06:03:39.40	46.91	18.98	-52.7	-54.6	14.6	0.00e+00	0	26	0	384827392	72	4261
2026-01-06 06:03:40.40	46.72	19.05	-52.5	-54.4	14.5	0.00e+00	0	26	0	386924544	71	4406
2026-01-06 06:03:41.40	46.51	19.12	-52.5	-54.4	14.4	0.00e+00	0	26	0	387973120	71	4414
2026-01-06 06:03:42.39	46.31	19.19	-52.4	-54.2	14.6	0.00e+00	0	26	0	390070272	71	4317
2026-01-06 06:03:43.39	46.11	19.26	-52.4	-54.3	14.6	0.00e+00	0	26	0	392167424	71	4347
2026-01-06 06:03:44.39	45.91	19.33	-52.2	-54.0	14.7	0.00e+00	0	26	0	394264576	71	4242
2026-01-06 06:03:45.38	45.71	19.40	-52.0	-53.7	14.7	0.00e+00	0	26	0	395313152	70	4314
2026-01-06 06:03:46.38	45.50	19.47	-51.9	-53.6	14.8	0.00e+00	0	26	0	397410304	70	4259
2026-01-06 06:03:47.38	45.29	19.54	-51.9	-53.6	14.8	0.00e+00	0	26	0	399507456	70	4256
2026-01-06 06:03:48.39	45.08	19.61	-51.7	-53.4	14.9	0.00e+00	0	26	0	401604608	70	4180
2026-01-06 06:03:49.38	44.88	19.68	-51.7	-53.4	14.9	0.00e+00	0	26	0	403701760	70	4163
2026-01-06 06:03:50.38	44.67	19.75	-51.7	-53.4	14.7	0.00e+00	0	26	0	404750336	69	4406
2026-01-06 06:03:51.38	44.46	19.82	-51.7	-53.5	14.7	0.00e+00	0	26	0	406847488	69	4452
2026-01-06 06:03:52.38	44.25	19.88	-51.7	-53.3	14.8	0.00e+00	0	26	0	408944640	69	4387
2026-01-06 06:03:53.39	44.03	19.95	-51.7	-53.4	14.7	0.00e+00	0	26	0	411041792	69	4435
2026-01-06 06:03:54.39	43.82	20.02	-51.6	-53.3	14.8	0.00e+00	0	26	0	413138944	69	4343
2026-01-06 06:03:55.39	43.61	20.09	-51.6	-53.3	14.8	0.00e+00	0	26	0	414187520	69	4357
2026-01-06 06:03:56.39	43.39	20.16	-51.6	-53.3	14.8	0.00e+00	0	26	0	416284672	69	4366
2026-01-06 06:03:57.39	43.18	20.22	-51.6	-53.3	14.8	0.00e+00	0	26	0	418381824	69	4351
2026-01-06 06:03:58.39	42.96	20.29	-51.5	-53.2	14.8	0.00e+00	0	26	0	420478976	69	4315
2026-01-06 06:03:59.39	42.74	20.36	-51.5	-53.2	14.8	0.00e+00	0	26	0	422576128	69	4304
2026-01-06 06:04:00.38	42.52	20.42	-51.6	-53.2	14.8	0.00e+00	0	26	0	423624704	69	4327
2026-01-06 06:04:01.37	42.31	20.49	-51.4	-53.0	14.9	0.00e+00	0	26	0	425721856	69	4236
2026-01-06 06:04:02.37	42.09	20.55	-51.5	-53.1	14.9	0.00e+00	0	26	0	427819008	69	4282
2026-01-06 06:04:03.37	41.87	20.62	-51.4	-53.0	14.9	0.00e+00	0	26	0	429916160	69	4204
2026-01-06 06:04:04.37	41.64	20.68	-51.4	-53.0	14.9	0.00e+00	0	26	0	430964736	69	4233
2026-01-06 06:04:05.37	41.42	20.75	-51.3	-53.0	14.9	0.00e+00	0	26	0	433061888	69	4196
2026-01-06 06:04:06.37	41.19	20.81	-51.1	-52.7	14.9	0.00e+00	0	26	0	435159040	68	4315
2026-01-06 06:04:07.37	40.97	20.88	-51.1	-52.7	14.9	0.00e+00	0	26	0	437256192	68	4334
2026-01-06 06:04:08.36	40.75	20.94	-51.2	-52.8	14.9	0.00e+00	0	26	0	439353344	68	4370
2026-01-06 06:04:09.36	40.52	21.00	-51.3	-53.0	14.8	0.00e+00	0	26	0	440401920	68	4449
2026-01-06 06:04:10.35	40.29	21.07	-51.2	-52.8	14.9	0.00e+00	0	26	0	442499072	68	4364
2026-01-06 06:04:11.35	40.06	21.13	-51.3	-52.9	14.8	0.00e+00	0	26	0	444596224	68	4395
2026-01-06 06:04:12.35	39.83	21.19	-51.1	-52.7	14.9	0.00e+00	0	26	0	446693376	68	4330
2026-01-06 06:04:13.34	39.60	21.25	-51.2	-52.8	14.9	0.00e+00	0	26	0	447741952	68	4358
2026-01-06 06:04:14.34	39.37	21.32	-51.3	-52.8	14.9	0.00e+00	0	26	0	449839104	68	4391
2026-01-06 06:04:15.34	39.14	21.38	-51.4	-53.1	14.7	0.00e+00	0	26	0	451936256	68	4503
2026-01-06 06:04:16.33	38.91	21.44	-51.4	-53.1	14.7	0.00e+00	0	26	0	454033408	68	4508
2026-01-06 06:04:17.33	38.67	21.50	-51.5	-53.2	14.7	0.00e+00	0	26	0	456130560	68	4553
2026-01-06 06:04:18.33	38.44	21.56	-51.4	-53.0	14.8	0.00e+00	0	26	0	457179136	68	4472
2026-01-06 06:04:19.33	38.20	21.62	-51.4	-53.1	14.8	0.00e+00	0	26	0	459276288	68	4497
2026-01-06 06:04:20.33	37.96	21.68	-51.4	-53.1	14.7	0.00e+00	0	26	0	461373440	68	4513
2026-01-06 06:04:21.34	37.72	21.74	-51.5	-53.1	14.7	0.00e+00	0	26	0	463470592	68	4522
2026-01-06 06:04:22.32	37.49	21.80	-51.4	-53.0	14.8	0.00e+00	0	26	0	464519168	68	4463
2026-01-06 06:04:23.32	37.25	21.86	-51.5	-53.1	14.7	0.00e+00	0	26	0	466616320	68	4515
2026-01-06 06:04:24.32	37.01	21.91	-51.5	-53.2	14.7	0.00e+00	0	26	0	468713472	68	4555
2026-01-06 06:04:25.32	36.76	21.97	-51.5	-53.1	14.7	0.00e+00	0	26	0	470810624	68	4513
2026-01-06 06:04:26.32	36.52	22.03	-51.5	-53.2	14.7	0.00e+00	0	26	0	472907776	68	4549
2026-01-06 06:04:27.32	36.28	22.09	-51.5	-53.2	14.7	0.00e+00	0	26	0	473956352	68	4563
2026-01-06 06:04:28.33	36.03	22.14	-51.4	-53.1	14.8	0.00e+00	0	26	0	476053504	68	4495
2026-01-06 06:04:29.32	35.79	22.20	-51.3	-52.9	14.8	0.00e+00	0	26	0	478150656	68	4430
2026-01-06 06:04:30.32	35.54	22.25	-51.2	-52.8	14.9	0.00e+00	0	26	0	480247808	68	4348
2026-01-06 06:04:31.33	35.29	22.31	-51.1	-52.7	14.9	0.00e+00	0	26	0	482344960	68	4330
2026-01-06 06:04:32.34	35.04	22.37	-51.1	-52.7	14.9	0.00e+00	0	26	0	483393536	68	4320
2026-01-06 06:04:33.33	34.79	22.42	-51.2	-52.8	14.8	0.00e+00	0	26	0	485490688	68	4388
2026-01-06 06:04:34.33	34.54	22.47	-51.3	-52.9	14.8	0.00e+00	0	26	0	487587840	68	4437
2026-01-06 06:04:35.33	34.29	22.53	-51.3	-52.9	14.9	0.00e+00	0	26	0	489684992	68	4398
2026-01-06 06:04:36.33	34.04	22.58	-51.1	-52.7	14.9	0.00e+00	0	26	0	491782144	68	4310
2026-01-06 06:04:37.33	33.79	22.63	-51.2	-52.8	14.9	0.00e+00	0	26	0	492830720	68	4367
2026-01-06 06:04:38.34	33.53	22.68	-51.3	-52.9	14.8	0.00e+00	0	26	0	494927872	68	4421
2026-01-06 06:04:39.34	33.28	22.74	-51.2	-52.8	14.9	0.00e+00	0	26	0	497025024	68	4388
2026-01-06 06:04:40.33	33.02	22.79	-51.4	-53.0	14.8	0.00e+00	0	26	0	499122176	68	4461
2026-01-06 06:04:41.34	32.76	22.84	-51.2	-52.7	14.9	0.00e+00	0	26	0	501219328	68	4335
2026-01-06 06:04:42.34	32.51	22.89	-51.3	-52.9	14.9	0.00e+00	0	26	0	502267904	68	4400
2026-01-06 06:04:43.34	32.25	22.94	-51.3	-52.8	14.8	0.00e+00	0	26	0	504365056	68	4388
2026-01-06 06:04:44.33	31.99	22.98	-51.4	-53.0	14.8	0.00e+00	0	26	0	506462208	68	4458
2026-01-06 06:04:45.34	31.73	23.03	-51.2	-52.8	14.9	0.00e+00	0	26	0	508559360	68	4354
2026-01-06 06:04:46.34	31.47	23.08	-51.0	-52.6	15.0	0.00e+00	0	26	0	510656512	68	4243
2026-01-06 06:04:47.34	31.21	23.13	-50.9	-52.5	15.0	0.00e+00	0	26	0	511705088	68	4207
2026-01-06 06:04:48.33	30.95	23.17	-51.0	-52.6	15.0	0.00e+00	0	26	0	513802240	68	4249
2026-01-06 06:04:49.33	30.69	23.22	-50.9	-52.4	15.1	0.00e+00	0	26	0	515899392	68	4179
2026-01-06 06:04:50.33	30.42	23.26	-51.0	-52.5	15.0	0.00e+00	0	26	0	517996544	68	4204
2026-01-06 06:04:51.33	30.16	23.31	-51.0	-52.6	15.0	0.00e+00	0	26	0	519045120	68	4261
2026-01-06 06:04:52.33	29.90	23.35	-51.2	-52.8	14.9	0.00e+00	0	26	0	521142272	68	4366
2026-01-06 06:04:53.33	29.63	23.40	-51.2	-52.8	14.9	0.00e+00	0	26	0	523239424	68	4366
2026-01-06 06:04:54.34	29.36	23.44	-51.3	-52.9	14.8	0.00e+00	0	26	0	525336576	68	4439
2026-01-06 06:04:55.34	29.09	23.48	-51.2	-52.8	14.9	0.00e+00	0	26	0	527433728	68	4371
2026-01-06 06:04:56.34	28.83	23.53	-51.4	-53.0	14.8	0.00e+00	0	26	0	528482304	68	4446
2026-01-06 06:04:57.34	28.56	23.57	-51.3	-52.9	14.8	0.00e+00	0	26	0	530579456	68	4441
2026-01-06 06:04:58.34	28.29	23.61	-51.3	-52.9	14.8	0.00e+00	0	26	0	532676608	68	4427
2026-01-06 06:04:59.34	28.02	23.65	-51.4	-53.0	14.8	0.00e+00	0	26	0	534773760	68	4465
2026-01-06 06:05:00.34	27.75	23.69	-51.3	-52.9	14.8	0.00e+00	0	26	0	536870912	68	4429
2026-01-06 06:05:01.34	27.48	23.73	-51.3	-52.9	14.8	0.00e+00	0	26	0	537919488	68	4423
2026-01-06 06:05:02.33	27.21	23.76	-51.4	-53.0	14.8	0.00e+00	0	26	0	540016640	68	4485
2026-01-06 06:05:03.32	26.94	23.80	-51.6	-53.2	14.7	0.00e+00	0	26	0	542113792	68	4592
2026-01-06 06:05:04.32	26.66	23.84	-51.7	-53.4	14.6	0.00e+00	0	26	0	544210944	68	4677
2026-01-06 06:05:05.31	26.39	23.87	-51.8	-53.6	14.6	0.00e+00	0	26	0	545259520	68	4762
2026-01-06 06:05:06.31	26.12	23.91	-52.0	-53.7	14.6	0.00e+00	0	26	0	547356672	69	4591
2026-01-06 06:05:07.31	25.84	23.94	-52.2	-54.0	14.5	0.00e+00	0	26	0	549453824	69	4722
2026-01-06 06:05:08.30	25.57	23.98	-52.3	-54.1	14.4	0.00e+00	0	26	0	551550976	69	4779
2026-01-06 06:05:09.29	25.30	24.01	-52.5	-54.4	14.5	0.00e+00	0	26	0	553648128	70	4678
2026-01-06 06:05:10.28	25.02	24.04	-52.5	-54.4	14.4	0.00e+00	0	26	0	554696704	70	4692
2026-01-06 06:05:11.29	24.74	24.07	-52.5	-54.3	14.4	0.00e+00	0	26	0	556793856	70	4638
2026-01-06 06:05:12.29	24.46	24.11	-52.4	-54.3	14.5	0.00e+00	0	26	0	558891008	70	4610
2026-01-06 06:05:13.28	24.19	24.14	-52.5	-54.4	14.5	0.00e+00	0	26	0	560988160	70	4670
2026-01-06 06:05:14.27	23.91	24.17	-52.6	-54.4	14.4	0.00e+00	0	26	0	562036736	70	4692
2026-01-06 06:05:15.27	23.63	24.20	-52.6	-54.5	14.4	0.00e+00	0	26	0	564133888	70	4737
2026-01-06 06:05:16.26	23.35	24.22	-52.8	-54.7	14.3	0.00e+00	0	26	0	566231040	70	4865
2026-01-06 06:05:17.26	23.07	24.25	-52.7	-54.6	14.4	0.00e+00	0	26	0	568328192	70	4780
2026-01-06 06:05:18.26	22.79	24.28	-52.6	-54.5	14.4	0.00e+00	0	26	0	570425344	70	4722
2026-01-06 06:05:19.26	22.51	24.31	-52.6	-54.5	14.4	0.00e+00	0	26	0	571473920	70	4717
2026-01-06 06:05:20.26	22.23	24.33	-52.6	-54.5	14.4	0.00e+00	0	26	0	573571072	70	4735
2026-01-06 06:05:21.26	21.95	24.36	-52.8	-54.7	14.3	0.00e+00	0	26	0	575668224	70	4837
2026-01-06 06:05:22.25	21.67	24.38	-52.9	-54.8	14.3	0.00e+00	0	26	0	577765376	70	4916
2026-01-06 06:05:23.24	21.38	24.40	-52.8	-54.8	14.4	0.00e+00	0	26	0	578813952	71	4616
2026-01-06 06:05:24.24	21.10	24.43	-52.9	-54.9	14.4	0.00e+00	0	26	0	580911104	71	4680
2026-01-06 06:05:25.24	20.82	24.45	-53.0	-55.0	14.3	0.00e+00	0	26	0	583008256	71	4726
2026-01-06 06:05:26.23	20.53	24.47	-53.0	-55.0	14.3	0.00e+00	0	26	0	585105408	71	4728
2026-01-06 06:05:27.23	20.25	24.49	-53.2	-55.2	14.2	0.00e+00	0	26	0	587202560	71	4843
2026-01-06 06:05:28.24	19.96	24.51	-53.2	-55.3	14.2	0.00e+00	0	26	0	588251136	71	4901
2026-01-06 06:05:29.24	19.68	24.53	-53.2	-55.3	14.2	0.00e+00	0	26	0	590348288	71	4888
2026-01-06 06:05:30.25	19.39	24.55	-53.2	-55.2	14.2	0.00e+00	0	26	0	592445440	71	4832
2026-01-06 06:05:31.25	19.10	24.56	-53.1	-55.2	14.2	0.00e+00	0	26	0	594542592	71	4825
2026-01-06 06:05:32.25	18.81	24.58	-53.0	-55.0	14.3	0.00e+00	0	26	0	596639744	71	4722
2026-01-06 06:05:33.25	18.53	24.60	-53.0	-54.9	14.3	0.00e+00	0	26	0	597688320	71	4685
2026-01-06 06:05:34.24	18.24	24.61	-52.8	-54.8	14.4	0.00e+00	0	26	0	599785472	71	4600
2026-01-06 06:05:35.25	17.95	24.63	-52.8	-54.7	14.5	0.00e+00	0	26	0	601882624	71	4583
2026-01-06 06:05:36.25	17.66	24.64	-52.7	-54.6	14.5	0.00e+00	0	26	0	603979776	71	4545
2026-01-06 06:05:37.25	17.37	24.65	-52.9	-54.8	14.4	0.00e+00	0	26	0	606076928	71	4635
2026-01-06 06:05:38.25	17.09	24.66	-52.9	-54.8	14.4	0.00e+00	0	26	0	607125504	71	4643
2026-01-06 06:05:39.25	16.80	24.68	-53.0	-55.0	14.3	0.00e+00	0	26	0	609222656	71	4707
2026-01-06 06:05:40.24	16.51	24.69	-53.0	-55.0	14.3	0.00e+00	0	26	0	611319808	71	4745
2026-01-06 06:05:41.25	16.22	24.70	-53.1	-55.1	14.2	0.00e+00	0	26	0	613416960	71	4791
2026-01-06 06:05:42.25	15.93	24.70	-53.2	-55.2	14.2	0.00e+00	0	26	0	614465536	71	4838
2026-01-06 06:05:43.25	15.64	24.71	-53.1	-55.1	14.2	0.00e+00	0	26	0	616562688	71	4810
2026-01-06 06:05:44.25	15.35	24.72	-53.0	-55.0	14.3	0.00e+00	0	26	0	618659840	71	4713
2026-01-06 06:05:45.25	15.06	24.73	-52.9	-54.9	14.3	0.00e+00	0	26	0	620756992	71	4677
2026-01-06 06:05:46.23	14.78	24.73	-52.8	-54.7	14.5	0.00e+00	0	26	0	622854144	71	4561
2026-01-06 06:05:47.23	14.49	24.74	-52.6	-54.5	14.5	0.00e+00	0	26	0	623902720	71	4473
2026-01-06 06:05:48.23	14.20	24.74	-52.6	-54.5	14.6	0.00e+00	0	26	0	625999872	71	4454
2026-01-06 06:05:49.23	13.91	24.74	-52.7	-54.5	14.5	0.00e+00	0	26	0	628097024	71	4486
2026-01-06 06:05:50.21	13.63	24.75	-52.8	-54.7	14.4	0.00e+00	0	26	0	630194176	71	4595
2026-01-06 06:05:51.21	13.34	24.75	-52.8	-54.8	14.4	0.00e+00	0	26	0	631242752	71	4604
2026-01-06 06:05:52.21	13.05	24.75	-52.7	-54.6	14.5	0.00e+00	0	26	0	633339904	71	4526
2026-01-06 06:05:53.21	12.76	24.75	-52.6	-54.4	14.6	0.00e+00	0	26	0	635437056	71	4426
2026-01-06 06:05:54.21	12.47	24.75	-52.5	-54.4	14.6	0.00e+00	0	26	0	637534208	71	4394
2026-01-06 06:05:55.21	12.18	24.75	-52.3	-54.1	14.7	0.00e+00	0	26	0	639631360	71	4253
2026-01-06 06:05:56.21	11.89	24.74	-52.2	-54.0	14.7	0.00e+00	0	26	0	640679936	70	4460
2026-01-06 06:05:57.21	11.60	24.74	-52.2	-54.0	14.6	0.00e+00	0	26	0	642777088	70	4468
2026-01-06 06:05:58.20	11.31	24.74	-52.2	-54.0	14.6	0.00e+00	0	26	0	644874240	70	4456
2026-01-06 06:05:59.20	11.02	24.73	-52.1	-53.8	14.7	0.00e+00	0	26	0	646971392	70	4358
2026-01-06 06:06:00.20	10.73	24.73	-52.0	-53.7	14.8	0.00e+00	0	26	0	649068544	70	4318
2026-01-06 06:06:01.20	10.44	24.72	-51.9	-53.6	14.8	0.00e+00	0	26	0	650117120	70	4256
2026-01-06 06:06:02.18	10.16	24.71	-51.7	-53.4	14.9	0.00e+00	0	26	0	652214272	70	4169
2026-01-06 06:06:03.18	9.87	24.71	-51.8	-53.5	14.9	0.00e+00	0	26	0	654311424	70	4218
2026-01-06 06:06:04.18	9.58	24.70	-51.7	-53.4	14.9	0.00e+00	0	26	0	656408576	70	4167
2026-01-06 06:06:05.18	9.29	24.69	-51.8	-53.4	14.9	0.00e+00	0	26	0	657457152	70	4173
2026-01-06 06:06:06.17	9.00	24.68	-51.7	-53.3	15.0	0.00e+00	0	26	0	659554304	70	4135
2026-01-06 06:06:07.17	8.71	24.67	-51.6	-53.2	14.8	0.00e+00	0	26	0	661651456	69	4331
2026-01-06 06:06:08.17	8.43	24.66	-51.5	-53.1	14.9	0.00e+00	0	26	0	663748608	69	4262
2026-01-06 06:06:09.17	8.14	24.64	-51.3	-52.8	15.0	0.00e+00	0	26	0	665845760	69	4129
2026-01-06 06:06:10.16	7.85	24.63	-51.0	-52.6	15.0	0.00e+00	0	26	0	666894336	68	4255
2026-01-06 06:06:11.16	7.56	24.62	-51.0	-52.5	15.0	0.00e+00	0	26	0	668991488	68	4236
2026-01-06 06:06:12.15	7.28	24.60	-51.0	-52.5	15.0	0.00e+00	0	26	0	671088640	68	4226
2026-01-06 06:06:13.15	6.99	24.58	-51.1	-52.6	15.0	0.00e+00	0	26	0	673185792	68	4270
2026-01-06 06:06:14.14	6.71	24.57	-51.0	-52.5	15.0	0.00e+00	0	26	0	675282944	68	4211
2026-01-06 06:06:15.14	6.42	24.55	-51.0	-52.5	15.0	0.00e+00	0	26	0	676331520	68	4222
2026-01-06 06:06:16.14	6.14	24.53	-51.0	-52.6	15.0	0.00e+00	0	26	0	678428672	68	4245
2026-01-06 06:06:17.14	5.85	24.51	-50.9	-52.5	15.0	0.00e+00	0	26	0	680525824	68	4214
2026-01-06 06:06:18.14	5.57	24.49	-50.7	-52.2	15.1	0.00e+00	0	26	0	682622976	68	4072
2026-01-06 06:06:19.14	5.28	24.47	-50.5	-52.0	15.1	0.00e+00	0	26	0	683671552	67	4196
2026-01-06 06:06:20.14	5.00	24.45	-50.6	-52.1	15.0	0.00e+00	0	26	0	685768704	67	4262
2026-01-06 06:06:21.13	4.71	24.43	-50.5	-52.0	15.1	0.00e+00	0	26	0	687865856	67	4211
2026-01-06 06:06:22.13	4.43	24.41	-50.4	-51.9	15.1	0.00e+00	0	26	0	689963008	67	4170
2026-01-06 06:06:23.12	4.15	24.39	-50.5	-52.0	15.0	0.00e+00	0	26	0	692060160	67	4225
2026-01-06 06:06:24.12	3.87	24.36	-50.5	-52.0	15.0	0.00e+00	0	26	0	693108736	67	4227
2026-01-06 06:06:25.12	3.58	24.34	-50.6	-52.1	15.0	0.00e+00	0	26	0	695205888	67	4286
2026-01-06 06:06:26.11	3.30	24.31	-50.6	-52.1	15.0	0.00e+00	0	26	0	697303040	67	4275
2026-01-06 06:06:27.11	3.02	24.29	-50.6	-52.1	15.0	0.00e+00	0	26	0	699400192	67	4246
2026-01-06 06:06:28.11	2.74	24.26	-50.7	-52.2	15.0	0.00e+00	0	26	0	700448768	67	4301
2026-01-06 06:06:29.10	2.46	24.23	-50.7	-52.2	15.0	0.00e+00	0	26	0	702545920	67	4300
2026-01-06 06:06:30.09	2.19	24.20	-50.8	-52.3	14.9	0.00e+00	0	26	0	704643072	67	4371
2026-01-06 06:06:31.10	1.90	24.17	-50.9	-52.4	14.9	0.00e+00	0	26	0	706740224	67	4412
2026-01-06 06:06:32.10	1.62	24.14	-51.0	-52.5	14.9	0.00e+00	0	26	0	708837376	67	4468
2026-01-06 06:06:33.09	1.35	24.11	-51.0	-52.5	14.9	0.00e+00	0	26	0	709885952	67	4483
2026-01-06 06:06:34.09	1.07	24.08	-51.0	-52.5	14.8	0.00e+00	0	26	0	711983104	67	4472
2026-01-06 06:06:35.08	0.80	24.05	-51.1	-52.6	14.8	0.00e+00	0	26	0	714080256	67	4539
2026-01-06 06:06:36.08	0.52	24.02	-51.0	-52.6	14.8	0.00e+00	0	26	0	716177408	67	4502
2026-01-06 06:06:37.08	0.24	23.99	-51.1	-52.6	14.8	0.00e+00	0	26	0	717225984	67	4544
2026-01-06 06:06:38.07	359.97	23.95	-51.1	-52.6	14.8	0.00e+00	0	26	0	719323136	67	4542
2026-01-06 06:06:39.07	359.69	23.92	-51.2	-52.8	14.7	0.00e+00	0	26	0	721420288	67	4624
2026-01-06 06:06:40.07	359.42	23.88	-51.2	-52.9	14.7	0.00e+00	0	26	0	723517440	67	4661
2026-01-06 06:06:41.07	359.15	23.85	-51.4	-53.1	14.6	0.00e+00	0	26	0	725614592	67	4776
2026-01-06 06:06:42.07	358.87	23.81	-51.7	-53.4	14.7	0.00e+00	0	26	0	726663168	68	4670
2026-01-06 06:06:43.07	358.60	23.77	-51.8	-53.5	14.6	0.00e+00	0	26	0	728760320	68	4727
2026-01-06 06:06:44.06	358.33	23.73	-51.9	-53.6	14.6	0.00e+00	0	26	0	730857472	68	4764
2026-01-06 06:06:45.06	358.06	23.70	-51.8	-53.6	14.6	0.00e+00	0	26	0	732954624	68	4762
2026-01-06 06:06:46.06	357.79	23.66	-51.9	-53.5	14.6	0.00e+00	0	26	0	735051776	68	4759
2026-01-06 06:06:47.06	357.52	23.62	-51.8	-53.5	14.6	0.00e+00	0	26	0	736100352	68	4755
2026-01-06 06:06:48.06	357.25	23.58	-51.8	-53.5	14.6	0.00e+00	0	26	0	738197504	68	4756
2026-01-06 06:06:49.06	356.98	23.54	-51.9	-53.6	14.6	0.00e+00	0	26	0	740294656	68	4796
2026-01-06 06:06:50.06	356.71	23.49	-51.9	-53.6	14.6	0.00e+00	0	26	0	742391808	68	4763
2026-01-06 06:06:51.05	356.45	23.45	-52.0	-53.7	14.6	0.00e+00	0	26	0	743440384	69	4595
2026-01-06 06:06:52.05	356.18	23.41	-52.1	-53.8	14.6	0.00e+00	0	26	0	745537536	69	4650
2026-01-06 06:06:53.05	355.92	23.37	-52.2	-54.0	14.5	0.00e+00	0	26	0	747634688	69	4731
2026-01-06 06:06:54.05	355.65	23.32	-52.3	-54.1	14.5	0.00e+00	0	26	0	749731840	69	4797
2026-01-06 06:06:55.05	355.39	23.28	-52.5	-54.3	14.5	0.00e+00	0	26	0	751828992	70	4638
2026-01-06 06:06:56.04	355.13	23.23	-52.5	-54.3	14.5	0.00e+00	0	26	0	752877568	70	4620
2026-01-06 06:06:57.05	354.86	23.19	-52.5	-54.3	14.5	0.00e+00	0	26	0	754974720	70	4651
2026-01-06 06:06:58.04	354.60	23.14	-52.5	-54.3	14.5	0.00e+00	0	26	0	757071872	70	4632
2026-01-06 06:06:59.04	354.34	23.09	-52.4	-54.3	14.5	0.00e+00	0	26	0	759169024	70	4602
2026-01-06 06:07:00.03	354.08	23.05	-52.5	-54.3	14.5	0.00e+00	0	26	0	760217600	70	4637
2026-01-06 06:07:01.02	353.83	23.00	-52.5	-54.3	14.5	0.00e+00	0	26	0	762314752	70	4623
2026-01-06 06:07:02.02	353.57	22.95	-52.5	-54.3	14.5	0.00e+00	0	26	0	764411904	70	4636
2026-01-06 06:07:03.02	353.31	22.90	-52.5	-54.4	14.5	0.00e+00	0	26	0	766509056	70	4658
2026-01-06 06:07:04.01	353.06	22.85	-52.6	-54.5	14.4	0.00e+00	0	26	0	768606208	70	4746
2026-01-06 06:07:05.01	352.80	22.80	-52.8	-54.7	14.3	0.00e+00	0	26	0	769654784	70	4835
2026-01-06 06:07:06.01	352.54	22.75	-52.8	-54.8	14.3	0.00e+00	0	26	0	771751936	70	4887
2026-01-06 06:07:07.01	352.29	22.70	-52.8	-54.7	14.4	0.00e+00	0	26	0	773849088	71	4574
2026-01-06 06:07:08.00	352.04	22.65	-52.9	-54.8	14.4	0.00e+00	0	26	0	775946240	71	4637
2026-01-06 06:07:09.00	351.79	22.60	-52.9	-54.8	14.4	0.00e+00	0	26	0	778043392	71	4633
2026-01-06 06:07:09.99	351.54	22.55	-52.8	-54.7	14.4	0.00e+00	0	26	0	779091968	71	4587
2026-01-06 06:07:10.98	351.29	22.49	-52.8	-54.7	14.4	0.00e+00	0	26	0	781189120	71	4581
2026-01-06 06:07:11.98	351.04	22.44	-52.8	-54.8	14.4	0.00e+00	0	26	0	783286272	71	4603
2026-01-06 06:07:12.98	350.79	22.39	-52.6	-54.5	14.5	0.00e+00	0	26	0	785383424	71	4481
2026-01-06 06:07:13.98	350.54	22.33	-52.7	-54.6	14.5	0.00e+00	0	26	0	786432000	71	4545
2026-01-06 06:07:14.97	350.29	22.28	-52.9	-54.8	14.4	0.00e+00	0	26	0	788529152	71	4641
2026-01-06 06:07:15.97	350.05	22.22	-53.0	-55.0	14.3	0.00e+00	0	26	0	790626304	71	4741
2026-01-06 06:07:16.97	349.80	22.16	-53.2	-55.2	14.2	0.00e+00	0	26	0	792723456	71	4848
2026-01-06 06:07:17.97	349.56	22.11	-53.1	-55.2	14.2	0.00e+00	0	26	0	794820608	71	4831
2026-01-06 06:07:18.98	349.31	22.05	-53.0	-55.0	14.3	0.00e+00	0	26	0	795869184	71	4749
2026-01-06 06:07:19.97	349.07	21.99	-53.0	-55.0	14.3	0.00e+00	0	26	0	797966336	71	4722
2026-01-06 06:07:20.98	348.82	21.94	-52.9	-54.9	14.3	0.00e+00	0	26	0	800063488	71	4680
2026-01-06 06:07:21.97	348.59	21.88	-52.7	-54.5	14.5	0.00e+00	0	26	0	802160640	71	4483
2026-01-06 06:07:22.96	348.35	21.82	-52.7	-54.6	14.5	0.00e+00	0	26	0	804257792	71	4515
2026-01-06 06:07:23.96	348.11	21.76	-52.7	-54.6	14.5	0.00e+00	0	26	0	805306368	71	4494
2026-01-06 06:07:24.95	347.87	21.70	-52.7	-54.5	14.5	0.00e+00	0	26	0	807403520	71	4482
2026-01-06 06:07:25.95	347.63	21.64	-52.7	-54.6	14.5	0.00e+00	0	26	0	809500672	71	4509
2026-01-06 06:07:26.95	347.40	21.58	-52.7	-54.6	14.5	0.00e+00	0	26	0	811597824	71	4538
2026-01-06 06:07:27.94	347.16	21.52	-52.7	-54.6	14.5	0.00e+00	0	26	0	812646400	71	4540
2026-01-06 06:07:28.93	346.93	21.46	-52.7	-54.6	14.5	0.00e+00	0	26	0	814743552	71	4526
2026-01-06 06:07:29.93	346.70	21.40	-52.7	-54.6	14.4	0.00e+00	0	26	0	816840704	71	4506
2026-01-06 06:07:30.93	346.47	21.34	-52.6	-54.4	14.5	0.00e+00	0	26	0	818937856	71	4440
2026-01-06 06:07:31.92	346.24	21.28	-52.4	-54.2	14.7	0.00e+00	0	26	0	821035008	71	4331
2026-01-06 06:07:32.91	346.01	21.22	-52.4	-54.2	14.7	0.00e+00	0	26	0	822083584	71	4310
2026-01-06 06:07:33.91	345.78	21.16	-52.4	-54.2	14.7	0.00e+00	0	26	0	824180736	71	4300
2026-01-06 06:07:34.91	345.55	21.09	-52.3	-54.1	14.7	0.00e+00	0	26	0	826277888	71	4261
2026-01-06 06:07:35.90	345.32	21.03	-52.3	-54.1	14.7	0.00e+00	0	26	0	828375040	71	4272
2026-01-06 06:07:36.90	345.09	20.97	-52.2	-54.0	14.8	0.00e+00	0	26	0	829423616	71	4224
2026-01-06 06:07:37.91	344.86	20.90	-52.2	-53.9	14.8	0.00e+00	0	26	0	831520768	71	4178
2026-01-06 06:07:38.91	344.64	20.84	-52.1	-53.9	14.6	0.00e+00	0	26	0	833617920	70	4419
2026-01-06 06:07:39.92	344.41	20.77	-52.0	-53.8	14.7	0.00e+00	0	26	0	835715072	70	4354
2026-01-06 06:07:40.92	344.19	20.71	-52.1	-53.8	14.7	0.00e+00	0	26	0	837812224	70	4363
2026-01-06 06:07:41.92	343.97	20.64	-52.1	-53.9	14.7	0.00e+00	0	26	0	838860800	70	4400
2026-01-06 06:07:42.91	343.75	20.58	-52.1	-53.9	14.7	0.00e+00	0	26	0	840957952	70	4401
2026-01-06 06:07:43.92	343.52	20.51	-52.1	-53.9	14.7	0.00e+00	0	26	0	843055104	70	4393
2026-01-06 06:07:44.92	343.30	20.45	-52.2	-53.9	14.7	0.00e+00	0	26	0	845152256	70	4430
2026-01-06 06:07:45.92	343.09	20.38	-52.2	-53.9	14.7	0.00e+00	0	26	0	847249408	70	4427
2026-01-06 06:07:46.92	342.87	20.31	-52.1	-53.9	14.7	0.00e+00	0	26	0	848297984	70	4400
2026-01-06 06:07:47.92	342.65	20.25	-52.2	-53.9	14.7	0.00e+00	0	26	0	850395136	70	4427
2026-01-06 06:07:48.92	342.43	20.18	-52.1	-53.8	14.7	0.00e+00	0	26	0	852492288	70	4376
2026-01-06 06:07:49.92	342.22	20.11	-52.0	-53.7	14.8	0.00e+00	0	26	0	854589440	70	4322
2026-01-06 06:07:50.92	342.01	20.05	-52.0	-53.7	14.7	0.00e+00	0	26	0	856686592	70	4331
2026-01-06 06:07:51.92	341.79	19.98	-52.0	-53.8	14.7	0.00e+00	0	26	0	857735168	70	4349
2026-01-06 06:07:52.92	341.58	19.91	-52.1	-53.8	14.7	0.00e+00	0	26	0	859832320	70	4359
2026-01-06 06:07:53.92	341.37	19.84	-52.1	-53.9	14.7	0.00e+00	0	26	0	861929472	70	4392
2026-01-06 06:07:54.91	341.16	19.78	-52.2	-54.0	14.6	0.00e+00	0	26	0	864026624	70	4456
2026-01-06 06:07:55.91	340.95	19.71	-52.2	-53.9	14.6	0.00e+00	0	26	0	865075200	70	4436
2026-01-06 06:07:56.91	340.74	19.64	-52.3	-54.1	14.6	0.00e+00	0	26	0	867172352	70	4504
2026-01-06 06:07:57.91	340.54	19.57	-52.3	-54.1	14.6	0.00e+00	0	26	0	869269504	70	4505
2026-01-06 06:07:58.92	340.33	19.50	-52.4	-54.2	14.6	0.00e+00	0	26	0	871366656	70	4559
2026-01-06 06:07:59.91	340.12	19.43	-52.3	-54.1	14.6	0.00e+00	0	26	0	873463808	70	4507
2026-01-06 06:08:00.91	339.92	19.36	-52.3	-54.1	14.6	0.00e+00	0	26	0	874512384	70	4505
2026-01-06 06:08:01.91	339.72	19.29	-52.3	-54.1	14.6	0.00e+00	0	26	0	876609536	70	4543
2026-01-06 06:08:02.91	339.51	19.22	-52.2	-54.0	14.6	0.00e+00	0	26	0	878706688	70	4484
2026-01-06 06:08:03.91	339.31	19.15	-52.3	-54.1	14.6	0.00e+00	0	26	0	880803840	70	4498
2026-01-06 06:08:04.91	339.11	19.08	-52.3	-54.1	14.6	0.00e+00	0	26	0	882900992	70	4525
2026-01-06 06:08:05.91	338.91	19.01	-52.1	-53.9	14.7	0.00e+00	0	26	0	883949568	70	4423
2026-01-06 06:08:06.91	338.71	18.94	-52.1	-53.8	14.7	0.00e+00	0	26	0	886046720	70	4382
2026-01-06 06:08:07.90	338.52	18.87	-52.1	-53.9	14.7	0.00e+00	0	26	0	888143872	70	4395
2026-01-06 06:08:08.91	338.32	18.80	-52.0	-53.7	14.8	0.00e+00	0	26	0	890241024	70	4308
2026-01-06 06:08:09.91	338.12	18.73	-52.0	-53.8	14.7	0.00e+00	0	26	0	891289600	70	4354
2026-01-06 06:08:10.90	337.93	18.66	-52.0	-53.7	14.8	0.00e+00	0	26	0	893386752	70	4316
2026-01-06 06:08:11.90	337.73	18.59	-52.0	-53.7	14.8	0.00e+00	0	26	0	895483904	70	4321
2026-01-06 06:08:12.90	337.54	18.51	-52.0	-53.8	14.7	0.00e+00	0	26	0	897581056	70	4351
2026-01-06 06:08:13.89	337.35	18.44	-52.0	-53.7	14.8	0.00e+00	0	26	0	899678208	70	4315
2026-01-06 06:08:14.89	337.16	18.37	-52.0	-53.7	14.8	0.00e+00	0	26	0	900726784	70	4316
2026-01-06 06:08:15.89	336.97	18.30	-51.9	-53.6	14.8	0.00e+00	0	26	0	902823936	70	4289
2026-01-06 06:08:16.89	336.78	18.23	-51.8	-53.5	14.9	0.00e+00	0	26	0	904921088	70	4206
2026-01-06 06:08:17.89	336.59	18.16	-51.8	-53.5	14.8	0.00e+00	0	26	0	907018240	70	4227
2026-01-06 06:08:18.88	336.40	18.08	-51.8	-53.5	14.8	0.00e+00	0	26	0	909115392	70	4225
2026-01-06 06:08:19.88	336.22	18.01	-51.8	-53.5	14.9	0.00e+00	0	26	0	910163968	70	4213
2026-01-06 06:08:20.88	336.03	17.94	-51.7	-53.4	14.9	0.00e+00	0	26	0	912261120	70	4176
2026-01-06 06:08:21.88	335.84	17.87	-51.7	-53.3	14.9	0.00e+00	0	26	0	914358272	70	4139
2026-01-06 06:08:22.87	335.66	17.79	-51.5	-53.1	14.9	0.00e+00	0	26	0	916455424	69	4253
2026-01-06 06:08:23.88	335.48	17.72	-51.4	-53.0	14.9	0.00e+00	0	26	0	917504000	69	4212
2026-01-06 06:08:24.88	335.29	17.65	-51.4	-53.1	14.9	0.00e+00	0	26	0	919601152	69	4250
2026-01-06 06:08:25.88	335.11	17.58	-51.4	-53.0	14.9	0.00e+00	0	26	0	921698304	69	4233
2026-01-06 06:08:26.88	334.93	17.50	-51.4	-53.0	14.9	0.00e+00	0	26	0	923795456	69	4219
2026-01-06 06:08:27.87	334.75	17.43	-51.5	-53.1	14.9	0.00e+00	0	26	0	925892608	69	4265
2026-01-06 06:08:28.86	334.58	17.36	-51.6	-53.2	14.8	0.00e+00	0	26	0	926941184	69	4324
2026-01-06 06:08:29.86	334.40	17.29	-51.5	-53.1	14.9	0.00e+00	0	26	0	929038336	69	4261
2026-01-06 06:08:30.86	334.22	17.21	-51.5	-53.1	14.9	0.00e+00	0	26	0	931135488	69	4277
2026-01-06 06:08:31.85	334.05	17.14	-51.4	-53.0	14.9	0.00e+00	0	26	0	933232640	69	4238
2026-01-06 06:08:32.86	333.87	17.07	-51.4	-53.0	14.9	0.00e+00	0	26	0	935329792	69	4226
2026-01-06 06:08:33.85	333.70	16.99	-51.3	-52.9	14.9	0.00e+00	0	26	0	936378368	69	4189
2026-01-06 06:08:34.85	333.52	16.92	-51.4	-53.0	14.9	0.00e+00	0	26	0	938475520	69	4221
2026-01-06 06:08:35.84	333.35	16.85	-51.3	-52.9	15.0	0.00e+00	0	26	0	940572672	69	4165
2026-01-06 06:08:36.84	333.18	16.77	-51.3	-52.8	15.0	0.00e+00	0	26	0	942669824	69	4144
2026-01-06 06:08:37.84	333.01	16.70	-51.2	-52.8	15.0	0.00e+00	0	26	0	943718400	69	4125
2026-01-06 06:08:38.85	332.84	16.62	-51.2	-52.7	14.9	0.00e+00	0	26	0	945815552	68	4333
2026-01-06 06:08:39.84	332.67	16.55	-51.2	-52.8	14.8	0.00e+00	0	26	0	947912704	68	4361
2026-01-06 06:08:40.83	332.50	16.48	-51.2	-52.8	14.8	0.00e+00	0	26	0	950009856	68	4383
2026-01-06 06:08:41.84	332.33	16.40	-51.3	-53.0	14.8	0.00e+00	0	26	0	952107008	68	4452
2026-01-06 06:08:42.84	332.17	16.33	-51.4	-53.0	14.8	0.00e+00	0	26	0	953155584	68	4460
2026-01-06 06:08:43.83	332.00	16.26	-51.4	-53.1	14.7	0.00e+00	0	26	0	955252736	68	4506
2026-01-06 06:08:44.83	331.84	16.18	-51.5	-53.1	14.7	0.00e+00	0	26	0	957349888	68	4527
2026-01-06 06:08:45.84	331.67	16.11	-51.3	-53.0	14.8	0.00e+00	0	26	0	959447040	68	4454
2026-01-06 06:08:46.83	331.51	16.04	-51.4	-53.0	14.8	0.00e+00	0	26	0	961544192	68	4475
2026-01-06 06:08:47.83	331.35	15.96	-51.3	-52.9	14.8	0.00e+00	0	26	0	962592768	68	4441
2026-01-06 06:08:48.83	331.18	15.89	-51.4	-53.0	14.8	0.00e+00	0	26	0	964689920	68	4479
2026-01-06 06:08:49.82	331.02	15.81	-51.4	-53.0	14.8	0.00e+00	0	26	0	966787072	68	4463
2026-01-06 06:08:50.81	330.86	15.74	-51.4	-53.0	14.8	0.00e+00	0	26	0	968884224	68	4480
2026-01-06 06:08:51.81	330.71	15.67	-51.5	-53.1	14.7	0.00e+00	0	26	0	969932800	68	4524
2026-01-06 06:08:52.80	330.55	15.59	-51.5	-53.1	14.7	0.00e+00	0	26	0	972029952	68	4540
2026-01-06 06:08:53.80	330.39	15.52	-51.4	-53.1	14.8	0.00e+00	0	26	0	974127104	68	4497
2026-01-06 06:08:54.80	330.23	15.45	-51.5	-53.1	14.7	0.00e+00	0	26	0	976224256	68	4524
2026-01-06 06:08:55.79	330.08	15.37	-51.5	-53.2	14.7	0.00e+00	0	26	0	978321408	68	4589
2026-01-06 06:08:56.79	329.92	15.30	-51.6	-53.3	14.6	0.00e+00	0	26	0	979369984	68	4604
2026-01-06 06:08:57.79	329.77	15.23	-51.5	-53.2	14.7	0.00e+00	0	26	0	981467136	68	4575
2026-01-06 06:08:58.79	329.61	15.15	-51.6	-53.3	14.6	0.00e+00	0	26	0	983564288	68	4615
2026-01-06 06:08:59.79	329.46	15.08	-51.6	-53.3	14.6	0.00e+00	0	26	0	985661440	68	4611
2026-01-06 06:09:00.79	329.31	15.00	-51.7	-53.4	14.6	0.00e+00	0	26	0	986710016	68	4687
2026-01-06 06:09:01.79	329.16	14.93	-51.8	-53.5	14.5	0.00e+00	0	26	0	988807168	68	4752
2026-01-06 06:09:02.80	329.00	14.86	-52.0	-53.7	14.6	0.00e+00	0	26	0	990904320	69	4579
2026-01-06 06:09:03.80	328.85	14.78	-52.0	-53.8	14.5	0.00e+00	0	26	0	993001472	69	4632
2026-01-06 06:09:04.79	328.71	14.71	-52.2	-54.0	14.5	0.00e+00	0	26	0	995098624	69	4750
2026-01-06 06:09:05.78	328.56	14.64	-52.2	-54.0	14.4	0.00e+00	0	26	0	996147200	69	4745
2026-01-06 06:09:06.79	328.41	14.56	-52.2	-54.1	14.4	0.00e+00	0	26	0	998244352	69	4776
2026-01-06 06:09:07.78	328.26	14.49	-52.3	-54.2	14.4	0.00e+00	0	26	0	1000341504	69	4848
2026-01-06 06:09:08.77	328.12	14.42	-52.3	-54.2	14.4	0.00e+00	0	26	0	1002438656	69	4848
2026-01-06 06:09:09.78	327.97	14.34	-52.4	-54.2	14.3	0.00e+00	0	26	0	1003487232	69	4869
2026-01-06 06:09:10.77	327.83	14.27	-52.3	-54.1	14.4	0.00e+00	0	26	0	1005584384	69	4800
2026-01-06 06:09:11.77	327.68	14.19	-52.1	-54.0	14.5	0.00e+00	0	26	0	1007681536	69	4710
2026-01-06 06:09:12.76	327.54	14.12	-52.1	-53.9	14.5	0.00e+00	0	26	0	1009778688	69	4675
2026-01-06 06:09:13.76	327.40	14.05	-52.2	-54.0	14.4	0.00e+00	0	26	0	1011875840	69	4742
2026-01-06 06:09:14.75	327.26	13.98	-52.2	-54.1	14.4	0.00e+00	0	26	0	1012924416	69	4774
2026-01-06 06:09:15.74	327.12	13.90	-52.2	-54.0	14.5	0.00e+00	0	26	0	1015021568	69	4724
2026-01-06 06:09:16.74	326.98	13.83	-52.2	-54.0	14.4	0.00e+00	0	26	0	1017118720	69	4758
2026-01-06 06:09:17.73	326.84	13.76	-52.2	-54.1	14.4	0.00e+00	0	26	0	1019215872	69	4787
2026-01-06 06:09:18.73	326.70	13.68	-52.3	-54.1	14.4	0.00e+00	0	26	0	1021313024	69	4806
2026-01-06 06:09:19.72	326.56	13.61	-52.3	-54.2	14.3	0.00e+00	0	26	0	1022361600	69	4848
2026-01-06 06:09:20.72	326.42	13.54	-52.5	-54.4	14.4	0.00e+00	0	26	0	1024458752	70	4695
2026-01-06 06:09:21.71	326.29	13.47	-52.5	-54.4	14.4	0.00e+00	0	26	0	1026555904	70	4701
2026-01-06 06:09:22.70	326.15	13.39	-52.5	-54.4	14.4	0.00e+00	0	26	0	1028653056	70	4678
2026-01-06 06:09:23.70	326.02	13.32	-52.5	-54.5	14.4	0.00e+00	0	26	0	1029701632	70	4721
2026-01-06 06:09:24.71	325.88	13.25	-52.6	-54.6	14.3	0.00e+00	0	26	0	1031798784	70	4796
2026-01-06 06:09:25.70	325.75	13.17	-52.6	-54.5	14.3	0.00e+00	0	26	0	1033895936	70	4729
2026-01-06 06:09:26.69	325.61	13.10	-52.5	-54.4	14.4	0.00e+00	0	26	0	1035993088	70	4673
2026-01-06 06:09:27.69	325.48	13.03	-52.6	-54.5	14.4	0.00e+00	0	26	0	1038090240	70	4733
2026-01-06 06:09:28.68	325.35	12.96	-52.5	-54.5	14.3	0.00e+00	0	26	0	1039138816	70	4720
2026-01-06 06:09:29.67	325.22	12.89	-52.6	-54.6	14.3	0.00e+00	0	26	0	1041235968	70	4767
2026-01-06 06:09:30.67	325.09	12.81	-52.6	-54.6	14.3	0.00e+00	0	26	0	1043333120	70	4773
2026-01-06 06:09:31.67	324.96	12.74	-52.6	-54.5	14.3	0.00e+00	0	26	0	1045430272	70	4741
2026-01-06 06:09:32.67	324.83	12.67	-52.6	-54.6	14.3	0.00e+00	0	26	0	1046478848	70	4768
2026-01-06 06:09:33.67	324.70	12.60	-52.7	-54.7	14.3	0.00e+00	0	26	0	1048576000	70	4825
2026-01-06 06:09:34.67	324.57	12.52	-52.6	-54.6	14.3	0.00e+00	0	26	0	1050673152	70	4798
2026-01-06 06:09:35.67	324.44	12.45	-52.7	-54.7	14.3	0.00e+00	0	26	0	1052770304	70	4847
2026-01-06 06:09:36.67	324.32	12.38	-52.7	-54.7	14.2	0.00e+00	0	26	0	1054867456	70	4865
2026-01-06 06:09:37.66	324.19	12.31	-52.5	-54.5	14.3	0.00e+00	0	26	0	1055916032	70	4715
2026-01-06 06:09:38.66	324.06	12.24	-52.7	-54.7	14.2	0.00e+00	0	26	0	1058013184	70	4824
2026-01-06 06:09:39.65	323.94	12.17	-52.7	-54.7	14.2	0.00e+00	0	26	0	1060110336	70	4863
2026-01-06 06:09:40.65	323.82	12.09	-52.8	-54.8	14.2	0.00e+00	0	26	0	1062207488	70	4916
2026-01-06 06:09:41.64	323.69	12.02	-52.8	-54.8	14.2	0.00e+00	0	26	0	1064304640	70	4878
2026-01-06 06:09:42.64	323.57	11.95	-53.0	-55.0	14.2	0.00e+00	0	26	0	1065353216	71	4757
2026-01-06 06:09:43.65	323.44	11.88	-52.9	-55.0	14.2	0.00e+00	0	26	0	1067450368	71	4715
2026-01-06 06:09:44.65	323.32	11.81	-52.9	-55.0	14.2	0.00e+00	0	26	0	1069547520	71	4746
2026-01-06 06:09:45.65	323.20	11.74	-53.1	-55.2	14.1	0.00e+00	0	26	0	1071644672	71	4854
2026-01-06 06:09:46.65	323.08	11.66	-53.1	-55.2	14.0	0.00e+00	0	26	0	1072693248	71	4866
2026-01-06 06:09:47.64	322.96	11.59	-53.1	-55.2	14.1	0.00e+00	0	26	0	1074790400	71	4828
2026-01-06 06:09:48.64	322.84	11.52	-53.1	-55.2	14.1	0.00e+00	0	26	0	1076887552	71	4847
2026-01-06 06:09:49.65	322.72	11.45	-52.9	-55.0	14.2	0.00e+00	0	26	0	1078984704	71	4720
2026-01-06 06:09:50.65	322.60	11.38	-53.0	-55.1	14.1	0.00e+00	0	26	0	1081081856	71	4779
2026-01-06 06:09:51.64	322.48	11.31	-52.8	-54.9	14.2	0.00e+00	0	26	0	1082130432	71	4653
2026-01-06 06:09:52.64	322.37	11.24	-52.9	-55.0	14.2	0.00e+00	0	26	0	1084227584	71	4742
2026-01-06 06:09:53.65	322.25	11.17	-52.9	-55.0	14.2	0.00e+00	0	26	0	1086324736	71	4749
2026-01-06 06:09:54.64	322.13	11.10	-53.1	-55.2	14.1	0.00e+00	0	26	0	1088421888	71	4838
2026-01-06 06:09:55.64	322.02	11.03	-53.0	-55.2	14.1	0.00e+00	0	26	0	1090519040	71	4826
2026-01-06 06:09:56.64	321.90	10.96	-53.1	-55.2	14.1	0.00e+00	0	26	0	1091567616	71	4867
2026-01-06 06:09:57.64	321.79	10.88	-53.2	-55.3	14.0	0.00e+00	0	26	0	1093664768	71	4916
2026-01-06 06:09:58.64	321.67	10.81	-53.1	-55.3	14.0	0.00e+00	0	26	0	1095761920	71	4905
2026-01-06 06:09:59.64	321.56	10.74	-53.2	-55.3	14.0	0.00e+00	0	26	0	1097859072	71	4920
2026-01-06 06:10:00.64	321.45	10.67	-53.3	-55.5	13.9	0.00e+00	0	26	0	1099956224	71	5011
2026-01-06 06:10:01.63	321.34	10.60	-53.4	-55.6	13.9	0.00e+00	0	26	0	1101004800	71	5084
2026-01-06 06:10:02.63	321.22	10.53	-53.4	-55.7	13.8	0.00e+00	0	26	0	1103101952	71	5110
2026-01-06 06:10:03.64	321.11	10.46	-53.4	-55.6	13.9	0.00e+00	0	26	0	1105199104	71	5082
2026-01-06 06:10:04.64	321.00	10.39	-53.4	-55.7	13.9	0.00e+00	0	26	0	1107296256	72	4843
2026-01-06 06:10:05.64	320.89	10.32	-53.4	-55.7	14.0	0.00e+00	0	26	0	1108344832	72	4841
2026-01-06 06:10:06.64	320.78	10.25	-53.5	-55.8	13.9	0.00e+00	0	26	0	1110441984	72	4883
2026-01-06 06:10:07.63	320.67	10.19	-53.5	-55.8	13.8	0.00e+00	0	26	0	1112539136	72	4917
2026-01-06 06:10:08.63	320.57	10.12	-53.6	-55.9	13.8	0.00e+00	0	26	0	1114636288	72	4966
2026-01-06 06:10:09.63	320.46	10.05	-53.6	-55.9	13.8	0.00e+00	0	26	0	1116733440	72	4983
2026-01-06 06:10:10.63	320.35	9.98	-53.6	-55.9	13.8	0.00e+00	0	26	0	1117782016	72	4976
2026-01-06 06:10:11.63	320.24	9.91	-53.7	-56.1	13.7	0.00e+00	0	26	0	1119879168	72	5066
2026-01-06 06:10:12.62	320.14	9.84	-53.7	-56.1	13.7	0.00e+00	0	26	0	1121976320	72	5095
2026-01-06 06:10:13.62	320.03	9.77	-53.8	-56.3	13.6	0.00e+00	0	26	0	1124073472	72	5200
2026-01-06 06:10:14.61	319.93	9.70	-53.7	-56.2	13.7	0.00e+00	0	26	0	1125122048	72	5128
2026-01-06 06:10:15.62	319.82	9.63	-54.1	-56.7	13.5	0.00e+00	0	26	0	1127219200	73	5109
2026-01-06 06:10:16.62	319.72	9.56	-54.0	-56.5	13.6	0.00e+00	0	26	0	1129316352	73	5009
2026-01-06 06:10:17.62	319.61	9.50	-54.0	-56.6	13.5	0.00e+00	0	26	0	1131413504	73	5059
2026-01-06 06:10:18.62	319.51	9.43	-54.0	-56.6	13.6	0.00e+00	0	26	0	1133510656	73	5056
2026-01-06 06:10:19.61	319.41	9.36	-54.0	-56.6	13.6	0.00e+00	0	26	0	1134559232	73	5061
2026-01-06 06:10:20.61	319.30	9.29	-54.0	-56.6	13.5	0.00e+00	0	26	0	1136656384	73	5082
2026-01-06 06:10:21.61	319.20	9.22	-54.1	-56.7	13.5	0.00e+00	0	26	0	1138753536	73	5124
2026-01-06 06:10:22.60	319.10	9.16	-54.0	-56.6	13.5	0.00e+00	0	26	0	1140850688	73	5050
2026-01-06 06:10:23.60	319.00	9.09	-54.0	-56.6	13.5	0.00e+00	0	26	0	1142947840	73	5079
2026-01-06 06:10:24.61	318.90	9.02	-54.0	-56.5	13.5	0.00e+00	0	26	0	1143996416	73	5026
2026-01-06 06:10:25.60	318.80	8.95	-54.0	-56.5	13.6	0.00e+00	0	26	0	1146093568	73	5016
2026-01-06 06:10:26.59	318.70	8.89	-53.9	-56.4	13.6	0.00e+00	0	26	0	1148190720	73	4959
2026-01-06 06:10:27.58	318.60	8.82	-53.9	-56.5	13.6	0.00e+00	0	26	0	1150287872	73	4989
2026-01-06 06:10:28.57	318.51	8.75	-53.9	-56.4	13.6	0.00e+00	0	26	0	1151336448	73	4947
2026-01-06 06:10:29.57	318.41	8.68	-53.9	-56.5	13.6	0.00e+00	0	26	0	1153433600	73	4996
2026-01-06 06:10:30.57	318.31	8.62	-54.0	-56.5	13.5	0.00e+00	0	26	0	1155530752	73	5026
2026-01-06 06:10:31.57	318.21	8.55	-53.9	-56.5	13.6	0.00e+00	0	26	0	1157627904	73	5007
2026-01-06 06:10:32.57	318.12	8.48	-53.9	-56.5	13.5	0.00e+00	0	26	0	1159725056	73	5015
2026-01-06 06:10:33.57	318.02	8.42	-54.2	-57.0	13.3	0.00e+00	0	26	0	1160773632	73	5285
2026-01-06 06:10:34.56	317.93	8.35	-54.1	-56.7	13.4	0.00e+00	0	26	0	1162870784	73	5131
2026-01-06 06:10:35.56	317.83	8.28	-54.2	-56.9	13.3	0.00e+00	0	26	0	1164967936	73	5263
2026-01-06 06:10:36.55	317.74	8.22	-54.3	-57.0	13.2	0.00e+00	0	26	0	1167065088	73	5312
2026-01-06 06:10:37.55	317.64	8.15	-54.2	-56.9	13.3	0.00e+00	0	26	0	1168113664	73	5240
2026-01-06 06:10:38.55	317.55	8.08	-54.2	-56.9	13.3	0.00e+00	0	26	0	1170210816	73	5261
2026-01-06 06:10:39.55	317.45	8.02	-54.1	-56.7	13.4	0.00e+00	0	26	0	1172307968	73	5155
2026-01-06 06:10:40.55	317.36	7.95	-54.2	-56.9	13.3	0.00e+00	0	26	0	1174405120	73	5239
2026-01-06 06:10:41.55	317.27	7.88	-54.2	-57.0	13.3	0.00e+00	0	26	0	1176502272	73	5282
2026-01-06 06:10:42.55	317.18	7.82	-54.1	-56.8	13.3	0.00e+00	0	26	0	1177550848	73	5183
2026-01-06 06:10:43.54	317.09	7.75	-54.2	-56.9	13.3	0.00e+00	0	26	0	1179648000	73	5238
2026-01-06 06:10:44.55	316.99	7.69	-54.2	-57.0	13.2	0.00e+00	0	26	0	1181745152	73	5314
2026-01-06 06:10:45.56	316.90	7.62	-54.2	-56.9	13.3	0.00e+00	0	26	0	1183842304	73	5272
2026-01-06 06:10:46.55	316.81	7.55	-54.2	-56.9	13.2	0.00e+00	0	26	0	1185939456	73	5271
2026-01-06 06:10:47.55	316.72	7.49	-54.2	-56.9	13.3	0.00e+00	0	26	0	1186988032	73	5257
2026-01-06 06:10:48.56	316.63	7.42	-54.2	-56.9	13.3	0.00e+00	0	26	0	1189085184	73	5238
2026-01-06 06:10:49.56	316.54	7.36	-54.2	-57.0	13.2	0.00e+00	0	26	0	1191182336	73	5336
2026-01-06 06:10:50.56	316.45	7.29	-54.4	-57.2	13.1	0.00e+00	0	26	0	1193279488	73	5463
2026-01-06 06:10:51.55	316.37	7.23	-54.4	-57.2	13.1	0.00e+00	0	26	0	1195376640	74	5143
2026-01-06 06:10:52.55	316.28	7.16	-54.3	-57.1	13.3	0.00e+00	0	26	0	1196425216	74	5085
2026-01-06 06:10:53.54	316.19	7.10	-54.4	-57.2	13.1	0.00e+00	0	26	0	1198522368	74	5147
2026-01-06 06:10:54.55	316.10	7.03	-54.4	-57.3	13.1	0.00e+00	0	26	0	1200619520	74	5202
2026-01-06 06:10:55.56	316.01	6.97	-54.4	-57.4	13.1	0.00e+00	0	26	0	1202716672	74	5227
2026-01-06 06:10:56.54	315.93	6.90	-54.6	-57.6	12.9	0.00e+00	0	26	0	1203765248	74	5389
2026-01-06 06:10:57.54	315.84	6.84	-54.5	-57.5	12.9	0.00e+00	0	26	0	1205862400	74	5326
2026-01-06 06:10:58.54	315.76	6.77	-54.6	-57.6	12.9	0.00e+00	0	26	0	1207959552	74	5390
2026-01-06 06:10:59.55	315.67	6.71	-54.7	-57.8	12.8	0.00e+00	0	26	0	1210056704	74	5505
2026-01-06 06:11:00.54	315.59	6.64	-54.7	-57.8	12.8	0.00e+00	0	26	0	1212153856	74	5512
