passes_logs/2026/01/06/R3.2S_Murmansk/R3.2S_Murmansk__20260106_121959_SUOMI_NPP_rec.log

#Pass ID: 20260106_121959_SUOMI NPP
#Satellite: SUOMI NPP
#Configuration: NPP
#almurnet v.1.7.20251203
#Start time: 2026-01-06 12:19:58

#Version: 2.2.20231116
#Station: R3.2S_Murmansk
#Location: 33.079688 lon 68.888172 lat
#TLE: 1 37849U 11061A   26004.95404768  .00000136  00000+0  85334-4 0  9991
#TLE: 2 37849  98.7801 307.0898 0002575  80.6707 279.4760 14.19522289735281

#Time	Az	El	Level	Level2	SNR	BER	BlckErr	Temp	State	Recorded	gain1	gain2
2026-01-06 12:19:58.89	221.64	1.98	-58.9	-74.9	3.8	1.49e+00	0	26	0	0	84	22158
2026-01-06 12:19:59.91	221.72	2.04	-58.6	-74.7	3.8	1.49e+00	0	26	104	0	82	24351
2026-01-06 12:20:00.91	221.80	2.09	-58.6	-74.7	3.8	1.49e+00	0	26	104	0	82	24327
2026-01-06 12:20:01.91	221.88	2.14	-58.7	-74.7	3.8	1.49e+00	0	26	104	0	82	24273
2026-01-06 12:20:02.91	221.97	2.19	-58.7	-74.7	3.8	1.49e+00	0	26	104	0	82	24162
2026-01-06 12:20:03.92	222.05	2.25	-58.6	-74.7	3.8	1.49e+00	0	26	104	0	82	24203
2026-01-06 12:20:04.91	222.13	2.30	-58.7	-74.6	3.8	1.49e+00	0	26	104	0	82	24089
2026-01-06 12:20:05.91	222.21	2.35	-58.6	-74.7	3.8	1.49e+00	0	26	104	0	82	24277
2026-01-06 12:20:06.91	222.29	2.40	-58.6	-74.7	3.8	1.49e+00	0	26	104	0	82	24212
2026-01-06 12:20:07.91	222.37	2.46	-58.7	-74.7	3.8	1.49e+00	0	26	104	0	82	24289
2026-01-06 12:20:08.91	222.46	2.51	-58.7	-74.7	3.8	1.49e+00	0	26	104	0	82	24303
2026-01-06 12:20:09.91	222.54	2.56	-58.7	-74.7	3.8	1.49e+00	0	26	104	0	82	24251
2026-01-06 12:20:10.90	222.62	2.61	-58.7	-74.7	3.8	1.49e+00	0	26	104	0	82	24194
2026-01-06 12:20:11.90	222.70	2.67	-58.7	-74.7	3.8	1.49e+00	0	26	104	0	82	24226
2026-01-06 12:20:12.91	222.79	2.72	-58.7	-74.7	3.8	1.49e+00	0	26	104	0	82	24206
2026-01-06 12:20:13.90	222.87	2.77	-58.7	-74.7	3.8	1.49e+00	0	26	104	0	82	24287
2026-01-06 12:20:14.90	222.96	2.83	-58.7	-74.7	3.8	1.49e+00	0	27	104	0	82	24369
2026-01-06 12:20:15.90	223.04	2.88	-58.7	-74.7	3.8	1.49e+00	0	26	104	0	82	24355
2026-01-06 12:20:16.90	223.12	2.93	-58.7	-74.7	3.8	1.49e+00	0	26	104	0	82	24389
2026-01-06 12:20:17.90	223.21	2.99	-58.7	-74.7	3.8	1.49e+00	0	27	104	0	82	24233
2026-01-06 12:20:18.90	223.30	3.04	-58.7	-74.7	3.8	1.49e+00	0	26	104	0	82	24233
2026-01-06 12:20:19.90	223.38	3.09	-58.7	-74.6	3.8	1.49e+00	0	27	104	0	82	24115
2026-01-06 12:20:20.90	223.47	3.14	-58.6	-74.6	3.8	1.49e+00	0	26	104	0	82	24024
2026-01-06 12:20:21.90	223.55	3.20	-58.7	-74.6	3.8	1.49e+00	0	27	104	0	82	23989
2026-01-06 12:20:22.91	223.64	3.25	-58.7	-74.6	3.8	1.49e+00	0	27	104	0	82	24107
2026-01-06 12:20:23.90	223.73	3.31	-58.7	-74.6	3.8	1.49e+00	0	27	104	0	82	24126
2026-01-06 12:20:24.90	223.81	3.36	-58.7	-74.7	3.8	1.49e+00	0	27	104	0	82	24362
2026-01-06 12:20:25.90	223.90	3.41	-58.7	-74.7	3.8	1.49e+00	0	27	104	0	82	24373
2026-01-06 12:20:26.89	223.99	3.47	-58.7	-74.7	3.8	1.49e+00	0	27	104	0	82	24386
2026-01-06 12:20:27.89	224.08	3.52	-58.7	-74.8	3.8	1.49e+00	0	27	104	0	82	24440
2026-01-06 12:20:28.88	224.16	3.57	-58.7	-74.7	3.8	1.49e+00	0	27	104	0	82	24298
2026-01-06 12:20:29.88	224.25	3.63	-58.7	-74.7	3.8	1.49e+00	0	27	104	0	82	24215
2026-01-06 12:20:30.88	224.34	3.68	-58.7	-74.6	3.8	1.49e+00	0	27	104	0	82	23974
2026-01-06 12:20:31.88	224.43	3.73	-58.7	-74.5	3.8	1.49e+00	0	27	104	0	82	23849
2026-01-06 12:20:32.88	224.52	3.79	-58.7	-74.5	3.8	1.49e+00	0	27	104	0	82	23587
2026-01-06 12:20:33.88	224.61	3.84	-58.7	-74.5	3.9	1.49e+00	0	27	104	0	82	23700
2026-01-06 12:20:34.88	224.70	3.90	-58.7	-74.5	3.8	1.49e+00	0	27	104	0	82	23741
2026-01-06 12:20:35.88	224.79	3.95	-58.7	-74.4	3.8	1.49e+00	0	27	104	0	82	23543
2026-01-06 12:20:36.87	224.88	4.00	-58.7	-74.4	3.8	1.49e+00	0	27	104	0	82	23494
2026-01-06 12:20:37.87	224.97	4.06	-58.7	-74.4	3.8	1.49e+00	0	27	104	0	82	23323
2026-01-06 12:20:38.87	225.06	4.11	-58.7	-74.1	3.8	1.49e+00	0	27	104	0	82	22702
2026-01-06 12:20:39.87	225.15	4.17	-58.7	-74.3	3.8	1.49e+00	0	27	104	0	82	23134
2026-01-06 12:20:40.87	225.25	4.22	-58.7	-74.4	3.8	1.49e+00	0	27	104	0	82	23432
2026-01-06 12:20:41.87	225.34	4.28	-58.7	-74.5	3.8	1.49e+00	0	27	104	0	82	23760
2026-01-06 12:20:42.87	225.43	4.33	-58.7	-74.7	3.8	1.49e+00	0	27	104	0	82	24314
2026-01-06 12:20:43.86	225.52	4.38	-58.7	-74.6	3.8	1.49e+00	0	27	104	0	82	23908
2026-01-06 12:20:44.86	225.62	4.44	-58.7	-73.8	3.8	1.49e+00	0	27	104	0	82	21895
2026-01-06 12:20:45.85	225.71	4.49	-58.6	-72.5	3.8	1.49e+00	0	27	104	0	82	18826
2026-01-06 12:20:46.86	225.81	4.55	-58.6	-71.5	4.1	1.48e+00	0	27	0	0	82	16748
2026-01-06 12:20:47.86	225.90	4.60	-58.5	-70.7	4.4	1.37e+00	92	27	0	0	82	15226
2026-01-06 12:20:48.86	225.99	4.66	-58.5	-70.3	4.5	1.01e+00	5	27	0	2097152	82	14582
2026-01-06 12:20:49.86	226.09	4.71	-58.4	-70.0	4.6	9.99e-01	0	27	0	4194304	82	14053
2026-01-06 12:20:50.86	226.18	4.77	-58.3	-68.6	5.2	7.78e-01	0	27	0	5242880	82	12050
2026-01-06 12:20:51.87	226.28	4.82	-58.1	-67.1	6.2	4.10e-01	0	27	0	7340032	82	10119
2026-01-06 12:20:52.86	226.38	4.88	-57.9	-65.5	7.4	1.18e-01	0	27	0	9437184	82	8396
2026-01-06 12:20:53.87	226.47	4.93	-57.4	-63.7	8.9	3.35e-02	0	27	0	11534336	81	7247
2026-01-06 12:20:54.87	226.57	4.99	-57.1	-62.5	9.8	4.19e-03	0	27	0	12582912	80	6699
2026-01-06 12:20:55.87	226.67	5.04	-56.6	-61.3	10.7	4.83e-04	0	27	0	14680064	79	6185
2026-01-06 12:20:56.86	226.76	5.10	-57.0	-62.0	10.3	3.35e-05	0	27	0	16777216	79	6718
2026-01-06 12:20:57.86	226.86	5.15	-58.5	-71.6	4.2	9.09e-04	41	27	0	18874368	82	16906
2026-01-06 12:20:58.86	226.96	5.21	-56.3	-60.4	11.5	1.05e+00	0	27	0	18874368	78	5867
2026-01-06 12:20:59.86	227.06	5.26	-57.8	-64.8	8.1	3.70e-03	0	27	0	20971520	80	8704
2026-01-06 12:21:00.87	227.16	5.32	-55.3	-58.6	12.6	2.11e-03	0	28	0	23068672	77	5055
2026-01-06 12:21:01.87	227.26	5.37	-55.1	-58.2	12.8	0.00e+00	0	27	0	24117248	76	5101
2026-01-06 12:21:02.87	227.36	5.43	-55.4	-58.7	12.5	7.00e-07	0	27	0	26214400	76	5445
2026-01-06 12:21:03.87	227.46	5.48	-55.4	-58.8	12.4	0.00e+00	0	28	0	28311552	76	5471
2026-01-06 12:21:04.87	227.56	5.54	-55.4	-58.6	12.5	0.00e+00	0	28	0	30408704	76	5397
2026-01-06 12:21:05.87	227.66	5.60	-55.3	-58.5	12.6	0.00e+00	0	27	0	32505856	76	5306
2026-01-06 12:21:06.87	227.76	5.65	-55.3	-58.5	12.6	0.00e+00	0	28	0	33554432	76	5314
2026-01-06 12:21:07.87	227.86	5.71	-55.6	-59.1	12.2	0.00e+00	0	27	0	35651584	76	5689
2026-01-06 12:21:08.87	227.96	5.76	-55.1	-58.2	12.8	0.00e+00	0	28	0	37748736	76	5146
2026-01-06 12:21:09.87	228.07	5.82	-55.4	-58.6	12.6	0.00e+00	0	28	0	39845888	76	5384
2026-01-06 12:21:10.87	228.17	5.87	-55.2	-58.4	12.7	0.00e+00	0	27	0	40894464	76	5236
2026-01-06 12:21:11.88	228.27	5.93	-55.3	-58.5	12.7	0.00e+00	0	28	0	42991616	76	5297
2026-01-06 12:21:12.88	228.38	5.99	-55.1	-58.1	12.9	0.00e+00	0	28	0	45088768	76	5058
2026-01-06 12:21:13.88	228.48	6.04	-55.0	-57.9	13.0	0.00e+00	0	28	0	47185920	76	4981
2026-01-06 12:21:14.87	228.58	6.10	-55.1	-58.2	12.9	0.00e+00	0	28	0	49283072	76	5115
2026-01-06 12:21:15.87	228.69	6.15	-55.1	-58.1	12.9	0.00e+00	0	28	0	50331648	76	5060
2026-01-06 12:21:16.88	228.79	6.21	-54.9	-57.8	13.1	0.00e+00	0	28	0	52428800	76	4875
2026-01-06 12:21:17.88	228.90	6.27	-55.0	-57.9	13.0	0.00e+00	0	28	0	54525952	76	4964
2026-01-06 12:21:18.88	229.00	6.32	-55.0	-57.9	13.1	0.00e+00	0	28	0	56623104	76	4948
2026-01-06 12:21:19.87	229.11	6.38	-55.3	-58.4	12.8	0.00e+00	0	28	0	58720256	76	5236
2026-01-06 12:21:20.87	229.22	6.43	-54.7	-57.4	13.3	0.00e+00	0	28	0	59768832	76	4678
2026-01-06 12:21:21.87	229.32	6.49	-54.7	-57.6	13.1	0.00e+00	0	28	0	61865984	75	5053
2026-01-06 12:21:22.87	229.43	6.55	-54.9	-57.8	13.0	0.00e+00	0	28	0	63963136	75	5210
2026-01-06 12:21:23.87	229.54	6.60	-54.8	-57.6	13.2	0.00e+00	0	28	0	66060288	75	5052
2026-01-06 12:21:24.86	229.64	6.66	-55.0	-58.0	12.9	0.00e+00	0	28	0	68157440	75	5303
2026-01-06 12:21:25.87	229.75	6.72	-54.8	-57.6	13.2	0.00e+00	0	28	0	69206016	75	5053
2026-01-06 12:21:26.87	229.86	6.77	-54.5	-57.2	13.4	0.00e+00	0	28	0	71303168	75	4845
2026-01-06 12:21:27.87	229.97	6.83	-54.9	-57.8	13.0	0.00e+00	0	28	0	73400320	75	5181
2026-01-06 12:21:28.88	230.08	6.89	-54.3	-56.8	13.6	0.00e+00	0	28	0	75497472	75	4628
2026-01-06 12:21:29.87	230.19	6.94	-54.6	-57.4	13.3	0.00e+00	0	28	0	76546048	75	4928
2026-01-06 12:21:30.87	230.30	7.00	-54.3	-56.8	13.6	0.00e+00	0	28	0	78643200	75	4620
2026-01-06 12:21:31.87	230.41	7.06	-54.5	-57.1	13.4	0.00e+00	0	28	0	80740352	75	4796
2026-01-06 12:21:32.87	230.52	7.11	-54.3	-56.9	13.6	0.00e+00	0	28	0	82837504	75	4666
2026-01-06 12:21:33.87	230.64	7.17	-54.4	-56.9	13.5	0.00e+00	0	28	0	84934656	75	4685
2026-01-06 12:21:34.87	230.75	7.23	-54.3	-56.8	13.6	0.00e+00	0	28	0	85983232	75	4629
2026-01-06 12:21:35.86	230.86	7.28	-54.1	-56.6	13.6	0.00e+00	0	28	0	88080384	74	4774
2026-01-06 12:21:36.85	230.97	7.34	-54.3	-56.8	13.5	0.00e+00	0	28	0	90177536	74	4890
2026-01-06 12:21:37.84	231.08	7.39	-54.3	-56.8	13.5	0.00e+00	0	28	0	92274688	74	4918
2026-01-06 12:21:38.84	231.20	7.45	-54.3	-56.9	13.5	0.00e+00	0	28	0	93323264	74	4935
2026-01-06 12:21:39.83	231.31	7.51	-54.4	-56.9	13.4	0.00e+00	0	28	0	95420416	74	4968
2026-01-06 12:21:40.84	231.43	7.57	-54.3	-56.8	13.5	0.00e+00	0	28	0	97517568	74	4903
2026-01-06 12:21:41.84	231.54	7.62	-54.4	-57.0	13.4	0.00e+00	0	28	0	99614720	74	5019
2026-01-06 12:21:42.83	231.66	7.68	-54.2	-56.7	13.6	0.00e+00	0	28	0	101711872	74	4837
2026-01-06 12:21:43.82	231.77	7.74	-54.2	-56.6	13.6	0.00e+00	0	28	0	102760448	74	4807
2026-01-06 12:21:44.82	231.89	7.79	-54.4	-56.9	13.5	0.00e+00	0	28	0	104857600	74	4942
2026-01-06 12:21:45.82	232.00	7.85	-54.4	-56.9	13.5	0.00e+00	0	28	0	106954752	74	4979
2026-01-06 12:21:46.81	232.12	7.91	-54.4	-57.0	13.4	0.00e+00	0	28	0	109051904	74	5009
2026-01-06 12:21:47.81	232.24	7.96	-54.4	-57.0	13.5	0.00e+00	0	28	0	111149056	74	4993
2026-01-06 12:21:48.81	232.36	8.02	-54.5	-57.1	13.4	0.00e+00	0	28	0	112197632	74	5079
2026-01-06 12:21:49.80	232.47	8.08	-54.3	-56.8	13.6	0.00e+00	0	28	0	114294784	74	4874
2026-01-06 12:21:50.80	232.59	8.13	-54.4	-56.9	13.5	0.00e+00	0	28	0	116391936	74	4979
2026-01-06 12:21:51.79	232.71	8.19	-54.4	-56.9	13.5	0.00e+00	0	28	0	118489088	74	4936
2026-01-06 12:21:52.79	232.83	8.25	-54.4	-56.9	13.5	0.00e+00	0	28	0	119537664	74	4969
2026-01-06 12:21:53.79	232.95	8.31	-54.2	-56.7	13.6	0.00e+00	0	28	0	121634816	74	4817
2026-01-06 12:21:54.78	233.07	8.36	-54.1	-56.5	13.7	0.00e+00	0	28	0	123731968	74	4738
2026-01-06 12:21:55.78	233.19	8.42	-54.3	-56.7	13.6	0.00e+00	0	28	0	125829120	74	4864
2026-01-06 12:21:56.78	233.31	8.48	-54.0	-56.3	13.8	0.00e+00	0	28	0	127926272	74	4623
2026-01-06 12:21:57.77	233.44	8.53	-53.9	-56.1	13.9	0.00e+00	0	28	0	128974848	74	4540
2026-01-06 12:21:58.78	233.56	8.59	-53.8	-56.1	13.9	0.00e+00	0	28	0	131072000	74	4520
2026-01-06 12:21:59.76	233.68	8.65	-53.8	-56.1	13.9	0.00e+00	0	28	0	133169152	74	4498
2026-01-06 12:22:00.76	233.80	8.71	-53.8	-56.1	13.9	0.00e+00	0	28	0	135266304	74	4502
2026-01-06 12:22:01.76	233.93	8.76	-53.8	-56.1	13.9	0.00e+00	0	28	0	136314880	74	4506
2026-01-06 12:22:02.75	234.05	8.82	-53.8	-56.0	14.0	0.00e+00	0	28	0	138412032	74	4456
2026-01-06 12:22:03.75	234.18	8.88	-54.1	-56.4	13.8	0.00e+00	0	28	0	140509184	74	4683
2026-01-06 12:22:04.74	234.30	8.93	-54.0	-56.4	13.8	0.00e+00	0	28	0	142606336	74	4652
2026-01-06 12:22:05.74	234.43	8.99	-53.9	-56.2	13.9	0.00e+00	0	28	0	144703488	74	4590
2026-01-06 12:22:06.73	234.55	9.05	-54.0	-56.3	13.8	0.00e+00	0	28	0	145752064	74	4610
2026-01-06 12:22:07.73	234.68	9.11	-54.1	-56.4	13.8	0.00e+00	0	28	0	147849216	74	4679
2026-01-06 12:22:08.72	234.80	9.16	-53.9	-56.2	13.9	0.00e+00	0	28	0	149946368	74	4580
2026-01-06 12:22:09.71	234.93	9.22	-54.0	-56.3	13.9	0.00e+00	0	28	0	152043520	74	4600
2026-01-06 12:22:10.71	235.06	9.28	-53.8	-56.1	13.9	0.00e+00	0	28	0	153092096	74	4510
2026-01-06 12:22:11.70	235.19	9.34	-53.8	-56.1	13.9	0.00e+00	0	28	0	155189248	74	4504
2026-01-06 12:22:12.70	235.32	9.39	-53.8	-56.0	14.0	0.00e+00	0	28	0	157286400	74	4483
2026-01-06 12:22:13.70	235.45	9.45	-53.8	-56.1	14.0	0.00e+00	0	28	0	159383552	74	4500
2026-01-06 12:22:14.69	235.57	9.51	-53.9	-56.2	13.9	0.00e+00	0	28	0	161480704	74	4588
2026-01-06 12:22:15.68	235.70	9.56	-53.7	-55.9	14.0	0.00e+00	0	28	0	162529280	74	4434
2026-01-06 12:22:16.67	235.83	9.62	-53.8	-56.1	14.0	0.00e+00	0	28	0	164626432	74	4505
2026-01-06 12:22:17.66	235.96	9.68	-53.9	-56.2	13.9	0.00e+00	0	28	0	166723584	74	4561
2026-01-06 12:22:18.65	236.10	9.74	-53.9	-56.1	13.9	0.00e+00	0	28	0	168820736	74	4537
2026-01-06 12:22:19.65	236.23	9.79	-53.9	-56.1	13.9	0.00e+00	0	28	0	170917888	74	4535
2026-01-06 12:22:20.64	236.36	9.85	-53.7	-55.9	14.1	0.00e+00	0	28	0	171966464	74	4407
2026-01-06 12:22:21.64	236.49	9.91	-53.8	-56.0	13.9	0.00e+00	0	28	0	174063616	73	4759
2026-01-06 12:22:22.64	236.63	9.97	-53.9	-56.1	13.8	0.00e+00	0	28	0	176160768	73	4806
2026-01-06 12:22:23.64	236.76	10.02	-53.7	-55.9	14.0	0.00e+00	0	28	0	178257920	73	4673
2026-01-06 12:22:24.62	236.90	10.08	-53.9	-56.2	13.8	0.00e+00	0	28	0	179306496	73	4849
2026-01-06 12:22:25.62	237.03	10.14	-53.8	-56.1	13.9	0.00e+00	0	28	0	181403648	73	4781
2026-01-06 12:22:26.61	237.17	10.19	-53.9	-56.2	13.8	0.00e+00	0	28	0	183500800	73	4865
2026-01-06 12:22:27.60	237.30	10.25	-53.9	-56.2	13.8	0.00e+00	0	28	0	185597952	73	4826
2026-01-06 12:22:28.60	237.44	10.31	-53.9	-56.2	13.8	0.00e+00	0	28	0	187695104	73	4831
2026-01-06 12:22:29.59	237.58	10.37	-54.0	-56.3	13.8	0.00e+00	0	28	0	188743680	73	4889
2026-01-06 12:22:30.58	237.71	10.42	-53.9	-56.1	13.8	0.00e+00	0	28	0	190840832	73	4812
2026-01-06 12:22:31.59	237.85	10.48	-53.9	-56.2	13.8	0.00e+00	0	28	0	192937984	73	4853
2026-01-06 12:22:32.58	237.99	10.54	-53.9	-56.1	13.8	0.00e+00	0	28	0	195035136	73	4813
2026-01-06 12:22:33.58	238.13	10.60	-53.8	-56.0	13.9	0.00e+00	0	28	0	196083712	73	4727
2026-01-06 12:22:34.58	238.27	10.65	-53.6	-55.8	14.0	0.00e+00	0	28	0	198180864	73	4599
2026-01-06 12:22:35.58	238.41	10.71	-53.8	-56.0	13.9	0.00e+00	0	28	0	200278016	73	4741
2026-01-06 12:22:36.57	238.55	10.77	-53.7	-55.9	14.0	0.00e+00	0	28	0	202375168	73	4661
2026-01-06 12:22:37.57	238.70	10.83	-53.7	-55.9	14.0	0.00e+00	0	28	0	204472320	73	4688
2026-01-06 12:22:38.57	238.84	10.88	-53.7	-55.8	14.0	0.00e+00	0	28	0	205520896	73	4650
2026-01-06 12:22:39.57	238.98	10.94	-53.7	-55.8	14.0	0.00e+00	0	28	0	207618048	73	4641
2026-01-06 12:22:40.57	239.13	11.00	-53.7	-55.9	13.9	0.00e+00	0	28	0	209715200	73	4701
2026-01-06 12:22:41.56	239.27	11.05	-53.7	-55.9	14.0	0.00e+00	0	28	0	211812352	73	4653
2026-01-06 12:22:42.56	239.41	11.11	-53.8	-56.0	13.9	0.00e+00	0	28	0	212860928	73	4717
2026-01-06 12:22:43.56	239.56	11.17	-53.7	-55.8	14.0	0.00e+00	0	28	0	214958080	73	4647
2026-01-06 12:22:44.55	239.70	11.23	-53.6	-55.7	14.0	0.00e+00	0	28	0	217055232	73	4592
2026-01-06 12:22:45.55	239.85	11.28	-53.5	-55.6	14.1	0.00e+00	0	28	0	219152384	73	4517
2026-01-06 12:22:46.55	240.00	11.34	-53.6	-55.7	14.1	0.00e+00	0	28	0	221249536	73	4575
2026-01-06 12:22:47.55	240.14	11.40	-53.6	-55.7	14.1	0.00e+00	0	28	0	222298112	73	4564
2026-01-06 12:22:48.54	240.29	11.45	-53.5	-55.6	14.1	0.00e+00	0	28	0	224395264	73	4523
2026-01-06 12:22:49.54	240.44	11.51	-53.7	-55.9	14.0	0.00e+00	0	28	0	226492416	73	4681
2026-01-06 12:22:50.54	240.59	11.57	-53.5	-55.6	14.1	0.00e+00	0	28	0	228589568	73	4521
2026-01-06 12:22:51.53	240.74	11.63	-53.5	-55.6	14.1	0.00e+00	0	28	0	229638144	73	4526
2026-01-06 12:22:52.53	240.89	11.68	-53.4	-55.5	14.1	0.00e+00	0	28	0	231735296	73	4470
2026-01-06 12:22:53.53	241.04	11.74	-53.4	-55.4	14.2	0.00e+00	0	28	0	233832448	73	4439
2026-01-06 12:22:54.54	241.19	11.80	-53.6	-55.7	14.1	0.00e+00	0	28	0	235929600	73	4570
2026-01-06 12:22:55.53	241.34	11.85	-53.6	-55.8	14.1	0.00e+00	0	28	0	238026752	73	4616
2026-01-06 12:22:56.54	241.50	11.91	-53.7	-55.8	14.0	0.00e+00	0	28	0	239075328	73	4626
2026-01-06 12:22:57.53	241.65	11.97	-53.4	-55.5	14.2	0.00e+00	0	28	0	241172480	73	4468
2026-01-06 12:22:58.53	241.80	12.02	-53.6	-55.8	14.1	0.00e+00	0	28	0	243269632	73	4599
2026-01-06 12:22:59.53	241.96	12.08	-53.6	-55.8	14.0	0.00e+00	0	28	0	245366784	73	4609
2026-01-06 12:23:00.53	242.11	12.14	-53.6	-55.7	14.1	0.00e+00	0	28	0	247463936	73	4577
2026-01-06 12:23:01.53	242.27	12.19	-53.7	-55.8	14.1	0.00e+00	0	28	0	248512512	73	4619
2026-01-06 12:23:02.53	242.42	12.25	-53.6	-55.7	14.1	0.00e+00	0	28	0	250609664	73	4594
2026-01-06 12:23:03.53	242.58	12.31	-53.7	-55.8	14.0	0.00e+00	0	28	0	252706816	73	4629
2026-01-06 12:23:04.52	242.73	12.36	-53.5	-55.6	14.1	0.00e+00	0	28	0	254803968	73	4533
2026-01-06 12:23:05.52	242.89	12.42	-53.6	-55.7	14.1	0.00e+00	0	28	0	255852544	73	4596
2026-01-06 12:23:06.51	243.05	12.47	-53.6	-55.7	14.1	0.00e+00	0	28	0	257949696	73	4587
2026-01-06 12:23:07.51	243.21	12.53	-53.5	-55.5	14.2	0.00e+00	0	28	0	260046848	73	4489
2026-01-06 12:23:08.51	243.37	12.59	-53.5	-55.6	14.1	0.00e+00	0	28	0	262144000	73	4522
2026-01-06 12:23:09.51	243.53	12.64	-53.5	-55.6	14.1	0.00e+00	0	28	0	264241152	73	4522
2026-01-06 12:23:10.52	243.69	12.70	-53.6	-55.8	14.1	0.00e+00	0	28	0	265289728	73	4604
2026-01-06 12:23:11.51	243.85	12.76	-53.7	-55.8	14.0	0.00e+00	0	28	0	267386880	73	4636
2026-01-06 12:23:12.51	244.01	12.81	-53.7	-55.8	14.0	0.00e+00	0	28	0	269484032	73	4651
2026-01-06 12:23:13.52	244.18	12.87	-53.4	-55.4	14.2	0.00e+00	0	28	0	271581184	73	4404
2026-01-06 12:23:14.52	244.34	12.92	-53.4	-55.4	14.2	0.00e+00	0	28	0	273678336	73	4412
2026-01-06 12:23:15.51	244.50	12.98	-53.2	-55.2	14.3	0.00e+00	0	28	0	274726912	73	4327
2026-01-06 12:23:16.51	244.67	13.03	-53.1	-55.0	14.3	0.00e+00	0	28	0	276824064	72	4475
2026-01-06 12:23:17.50	244.83	13.09	-53.0	-54.9	14.4	0.00e+00	0	28	0	278921216	72	4397
2026-01-06 12:23:18.50	244.99	13.14	-53.0	-54.9	14.4	0.00e+00	0	28	0	281018368	72	4398
2026-01-06 12:23:19.48	245.16	13.20	-52.9	-54.8	14.4	0.00e+00	0	28	0	282066944	72	4360
2026-01-06 12:23:20.49	245.33	13.25	-52.8	-54.6	14.5	0.00e+00	0	28	0	284164096	72	4288
2026-01-06 12:23:21.49	245.49	13.31	-53.0	-55.0	14.3	0.00e+00	0	28	0	286261248	72	4456
2026-01-06 12:23:22.49	245.66	13.36	-53.0	-54.9	14.4	0.00e+00	0	28	0	288358400	72	4411
2026-01-06 12:23:23.49	245.83	13.42	-53.1	-55.0	14.3	0.00e+00	0	28	0	290455552	72	4482
2026-01-06 12:23:24.48	246.00	13.47	-53.4	-55.5	14.1	0.00e+00	0	28	0	291504128	72	4706
2026-01-06 12:23:25.48	246.17	13.53	-53.4	-55.4	14.1	0.00e+00	0	28	0	293601280	72	4671
2026-01-06 12:23:26.48	246.34	13.58	-53.2	-55.2	14.2	0.00e+00	0	28	0	295698432	72	4588
2026-01-06 12:23:27.48	246.51	13.64	-53.4	-55.4	14.1	0.00e+00	0	28	0	297795584	72	4691
2026-01-06 12:23:28.48	246.68	13.69	-53.3	-55.3	14.2	0.00e+00	0	28	0	299892736	72	4644
2026-01-06 12:23:29.48	246.85	13.75	-53.2	-55.1	14.2	0.00e+00	0	28	0	300941312	72	4540
2026-01-06 12:23:30.49	247.03	13.80	-53.3	-55.3	14.2	0.00e+00	0	28	0	303038464	72	4641
2026-01-06 12:23:31.49	247.20	13.85	-53.1	-55.0	14.3	0.00e+00	0	28	0	305135616	72	4469
2026-01-06 12:23:32.49	247.37	13.91	-53.1	-55.0	14.3	0.00e+00	0	28	0	307232768	72	4488
2026-01-06 12:23:33.48	247.55	13.96	-53.1	-55.1	14.3	0.00e+00	0	28	0	308281344	72	4496
2026-01-06 12:23:34.48	247.72	14.01	-53.0	-54.9	14.4	0.00e+00	0	28	0	310378496	72	4405
2026-01-06 12:23:35.48	247.90	14.07	-53.0	-54.8	14.4	0.00e+00	0	29	0	312475648	72	4391
2026-01-06 12:23:36.48	248.07	14.12	-52.9	-54.7	14.4	0.00e+00	0	29	0	314572800	72	4332
2026-01-06 12:23:37.47	248.25	14.17	-53.0	-54.8	14.4	0.00e+00	0	28	0	316669952	72	4381
2026-01-06 12:23:38.48	248.43	14.23	-52.8	-54.6	14.5	0.00e+00	0	28	0	317718528	72	4282
2026-01-06 12:23:39.48	248.61	14.28	-53.0	-54.9	14.4	0.00e+00	0	28	0	319815680	72	4393
2026-01-06 12:23:40.48	248.78	14.33	-53.0	-54.8	14.4	0.00e+00	0	28	0	321912832	72	4390
2026-01-06 12:23:41.48	248.96	14.39	-52.9	-54.8	14.4	0.00e+00	0	28	0	324009984	72	4367
2026-01-06 12:23:42.47	249.14	14.44	-53.1	-55.0	14.3	0.00e+00	0	28	0	326107136	72	4460
2026-01-06 12:23:43.47	249.32	14.49	-53.2	-55.1	14.3	0.00e+00	0	28	0	327155712	72	4527
2026-01-06 12:23:44.46	249.50	14.54	-53.2	-55.2	14.2	0.00e+00	0	28	0	329252864	72	4581
2026-01-06 12:23:45.46	249.68	14.59	-53.1	-55.1	14.3	0.00e+00	0	29	0	331350016	72	4507
2026-01-06 12:23:46.46	249.87	14.65	-53.2	-55.2	14.2	0.00e+00	0	28	0	333447168	72	4550
2026-01-06 12:23:47.47	250.05	14.70	-53.0	-54.8	14.4	0.00e+00	0	28	0	335544320	72	4389
2026-01-06 12:23:48.45	250.23	14.75	-53.0	-54.9	14.4	0.00e+00	0	29	0	336592896	72	4399
2026-01-06 12:23:49.45	250.42	14.80	-52.9	-54.8	14.4	0.00e+00	0	28	0	338690048	72	4380
2026-01-06 12:23:50.45	250.60	14.85	-53.0	-54.9	14.4	0.00e+00	0	28	0	340787200	72	4416
2026-01-06 12:23:51.44	250.79	14.90	-53.0	-54.9	14.4	0.00e+00	0	28	0	342884352	72	4423
2026-01-06 12:23:52.45	250.97	14.95	-53.1	-55.0	14.3	0.00e+00	0	28	0	343932928	72	4491
2026-01-06 12:23:53.44	251.16	15.00	-53.3	-55.3	14.2	0.00e+00	0	29	0	346030080	72	4610
2026-01-06 12:23:54.45	251.35	15.06	-53.5	-55.6	14.1	0.00e+00	0	28	0	348127232	72	4777
2026-01-06 12:23:55.44	251.53	15.11	-53.6	-55.7	14.0	0.00e+00	0	28	0	350224384	72	4843
2026-01-06 12:23:56.44	251.72	15.16	-53.6	-55.6	14.1	0.00e+00	0	29	0	352321536	72	4810
2026-01-06 12:23:57.44	251.91	15.21	-53.5	-55.6	14.1	0.00e+00	0	29	0	353370112	72	4775
2026-01-06 12:23:58.44	252.10	15.26	-53.5	-55.6	14.1	0.00e+00	0	29	0	355467264	72	4773
2026-01-06 12:23:59.44	252.29	15.30	-53.6	-55.7	14.0	0.00e+00	0	28	0	357564416	72	4843
2026-01-06 12:24:00.44	252.48	15.35	-53.4	-55.4	14.2	0.00e+00	0	28	0	359661568	72	4660
2026-01-06 12:24:01.45	252.68	15.40	-53.7	-55.8	14.0	0.00e+00	0	28	0	361758720	72	4874
2026-01-06 12:24:02.44	252.87	15.45	-53.7	-55.9	14.0	0.00e+00	0	28	0	362807296	72	4942
2026-01-06 12:24:03.43	253.06	15.50	-53.8	-56.0	13.9	0.00e+00	0	28	0	364904448	72	4987
2026-01-06 12:24:04.42	253.25	15.55	-54.0	-56.2	13.9	0.00e+00	0	28	0	367001600	73	4870
2026-01-06 12:24:05.42	253.45	15.60	-53.9	-56.1	13.9	0.00e+00	0	28	0	369098752	73	4806
2026-01-06 12:24:06.42	253.64	15.65	-53.9	-56.1	14.0	0.00e+00	0	28	0	370147328	73	4775
2026-01-06 12:24:07.42	253.84	15.69	-53.9	-56.1	13.9	0.00e+00	0	28	0	372244480	73	4810
2026-01-06 12:24:08.42	254.03	15.74	-53.9	-56.2	13.9	0.00e+00	0	28	0	374341632	73	4818
2026-01-06 12:24:09.42	254.23	15.79	-53.9	-56.1	14.0	0.00e+00	0	28	0	376438784	73	4778
2026-01-06 12:24:10.42	254.43	15.84	-53.8	-56.0	14.0	0.00e+00	0	28	0	378535936	73	4724
2026-01-06 12:24:11.42	254.62	15.88	-54.0	-56.1	13.9	0.00e+00	0	29	0	379584512	73	4814
2026-01-06 12:24:12.42	254.82	15.93	-53.9	-56.1	13.9	0.00e+00	0	28	0	381681664	73	4803
2026-01-06 12:24:13.42	255.02	15.98	-54.0	-56.2	13.9	0.00e+00	0	29	0	383778816	73	4816
2026-01-06 12:24:14.41	255.22	16.02	-53.9	-56.1	14.0	0.00e+00	0	28	0	385875968	73	4760
2026-01-06 12:24:15.40	255.42	16.07	-53.9	-56.1	14.0	0.00e+00	0	28	0	386924544	73	4779
2026-01-06 12:24:16.40	255.62	16.11	-53.8	-56.0	14.0	0.00e+00	0	29	0	389021696	73	4741
2026-01-06 12:24:17.39	255.82	16.16	-53.8	-55.9	14.0	0.00e+00	0	28	0	391118848	73	4690
2026-01-06 12:24:18.38	256.02	16.20	-53.8	-56.0	14.0	0.00e+00	0	29	0	393216000	73	4711
2026-01-06 12:24:19.38	256.22	16.25	-54.1	-56.3	13.9	0.00e+00	0	28	0	395313152	73	4903
2026-01-06 12:24:20.38	256.42	16.30	-54.1	-56.3	13.8	0.00e+00	0	29	0	396361728	73	4917
2026-01-06 12:24:21.38	256.63	16.34	-54.1	-56.4	13.8	0.00e+00	0	29	0	398458880	73	4937
2026-01-06 12:24:22.37	256.83	16.38	-54.0	-56.2	13.9	0.00e+00	0	28	0	400556032	73	4845
2026-01-06 12:24:23.37	257.03	16.43	-53.8	-56.0	14.0	0.00e+00	0	28	0	402653184	73	4711
2026-01-06 12:24:24.36	257.24	16.47	-53.9	-56.1	14.0	0.00e+00	0	29	0	403701760	73	4775
2026-01-06 12:24:25.36	257.44	16.51	-53.7	-55.8	14.1	0.00e+00	0	29	0	405798912	73	4619
2026-01-06 12:24:26.36	257.65	16.56	-53.7	-55.8	14.1	0.00e+00	0	29	0	407896064	73	4615
2026-01-06 12:24:27.36	257.86	16.60	-53.9	-56.1	14.0	0.00e+00	0	28	0	409993216	73	4778
2026-01-06 12:24:28.35	258.06	16.64	-54.1	-56.4	13.8	0.00e+00	0	28	0	412090368	73	4942
2026-01-06 12:24:29.35	258.27	16.69	-54.3	-56.7	13.7	0.00e+00	0	28	0	413138944	73	5105
2026-01-06 12:24:30.36	258.48	16.73	-54.3	-56.7	13.7	0.00e+00	0	28	0	415236096	73	5109
2026-01-06 12:24:31.36	258.69	16.77	-54.3	-56.6	13.8	0.00e+00	0	29	0	417333248	73	5042
2026-01-06 12:24:32.35	258.90	16.81	-54.1	-56.3	13.8	0.00e+00	0	28	0	419430400	73	4910
2026-01-06 12:24:33.34	259.11	16.85	-53.9	-56.0	14.0	0.00e+00	0	28	0	420478976	73	4755
2026-01-06 12:24:34.34	259.32	16.89	-53.8	-56.0	14.0	0.00e+00	0	29	0	422576128	73	4716
2026-01-06 12:24:35.34	259.53	16.93	-53.9	-56.1	14.0	0.00e+00	0	29	0	424673280	73	4782
2026-01-06 12:24:36.34	259.74	16.98	-53.8	-56.0	14.0	0.00e+00	0	29	0	426770432	73	4707
2026-01-06 12:24:37.34	259.96	17.02	-53.9	-56.0	14.0	0.00e+00	0	28	0	428867584	73	4731
2026-01-06 12:24:38.34	260.17	17.06	-54.0	-56.2	13.9	0.00e+00	0	28	0	429916160	73	4854
2026-01-06 12:24:39.33	260.38	17.09	-53.9	-56.1	14.0	0.00e+00	0	29	0	432013312	73	4765
2026-01-06 12:24:40.33	260.60	17.13	-53.8	-55.9	14.0	0.00e+00	0	28	0	434110464	73	4681
2026-01-06 12:24:41.33	260.81	17.17	-53.6	-55.7	14.1	0.00e+00	0	29	0	436207616	73	4558
2026-01-06 12:24:42.33	261.03	17.21	-53.5	-55.5	14.2	0.00e+00	0	28	0	438304768	73	4457
2026-01-06 12:24:43.32	261.24	17.25	-53.6	-55.7	14.2	0.00e+00	0	28	0	439353344	73	4549
2026-01-06 12:24:44.32	261.46	17.29	-53.7	-55.8	14.1	0.00e+00	0	28	0	441450496	73	4646
2026-01-06 12:24:45.32	261.67	17.32	-53.8	-55.9	14.0	0.00e+00	0	28	0	443547648	73	4683
2026-01-06 12:24:46.31	261.89	17.36	-54.1	-56.3	13.9	0.00e+00	0	29	0	445644800	73	4887
2026-01-06 12:24:47.31	262.11	17.40	-54.0	-56.2	13.9	0.00e+00	0	29	0	447741952	73	4862
2026-01-06 12:24:48.31	262.33	17.43	-54.0	-56.2	13.9	0.00e+00	0	29	0	448790528	73	4830
2026-01-06 12:24:49.31	262.55	17.47	-53.8	-55.9	14.1	0.00e+00	0	29	0	450887680	73	4693
2026-01-06 12:24:50.31	262.77	17.51	-53.5	-55.5	14.3	0.00e+00	0	28	0	452984832	73	4457
2026-01-06 12:24:51.31	262.99	17.54	-53.1	-55.0	14.4	0.00e+00	0	28	0	455081984	72	4487
2026-01-06 12:24:52.30	263.20	17.58	-53.2	-55.1	14.3	0.00e+00	0	28	0	456130560	72	4527
2026-01-06 12:24:53.30	263.43	17.61	-53.0	-54.9	14.4	0.00e+00	0	28	0	458227712	72	4405
2026-01-06 12:24:54.30	263.65	17.65	-53.2	-55.2	14.3	0.00e+00	0	28	0	460324864	72	4553
2026-01-06 12:24:55.30	263.87	17.68	-53.4	-55.4	14.2	0.00e+00	0	29	0	462422016	72	4705
2026-01-06 12:24:56.29	264.09	17.71	-53.5	-55.6	14.1	0.00e+00	0	28	0	464519168	72	4783
2026-01-06 12:24:57.29	264.31	17.75	-53.7	-55.7	14.0	0.00e+00	0	29	0	465567744	72	4862
2026-01-06 12:24:58.28	264.53	17.78	-53.6	-55.6	14.1	0.00e+00	0	29	0	467664896	72	4784
2026-01-06 12:24:59.28	264.76	17.81	-53.5	-55.6	14.1	0.00e+00	0	28	0	469762048	72	4767
2026-01-06 12:25:00.28	264.98	17.84	-53.5	-55.4	14.2	0.00e+00	0	28	0	471859200	72	4701
2026-01-06 12:25:01.29	265.21	17.88	-53.3	-55.3	14.2	0.00e+00	0	29	0	472907776	72	4607
2026-01-06 12:25:02.28	265.43	17.91	-53.5	-55.5	14.2	0.00e+00	0	29	0	475004928	72	4714
2026-01-06 12:25:03.28	265.66	17.94	-53.3	-55.2	14.3	0.00e+00	0	29	0	477102080	72	4582
2026-01-06 12:25:04.27	265.88	17.97	-53.3	-55.2	14.3	0.00e+00	0	29	0	479199232	72	4597
2026-01-06 12:25:05.28	266.11	18.00	-53.1	-55.0	14.4	0.00e+00	0	29	0	481296384	72	4442
2026-01-06 12:25:06.28	266.34	18.03	-52.9	-54.8	14.4	0.00e+00	0	29	0	482344960	72	4346
2026-01-06 12:25:07.28	266.57	18.06	-52.8	-54.6	14.5	0.00e+00	0	29	0	484442112	71	4506
2026-01-06 12:25:08.27	266.79	18.09	-52.6	-54.3	14.5	0.00e+00	0	29	0	486539264	71	4378
2026-01-06 12:25:09.28	267.02	18.12	-52.6	-54.4	14.5	0.00e+00	0	28	0	488636416	71	4394
2026-01-06 12:25:10.27	267.25	18.14	-52.6	-54.4	14.5	0.00e+00	0	28	0	490733568	71	4397
2026-01-06 12:25:11.27	267.48	18.17	-52.9	-54.8	14.3	0.00e+00	0	28	0	491782144	71	4621
2026-01-06 12:25:12.27	267.71	18.20	-53.2	-55.1	14.2	0.00e+00	0	29	0	493879296	71	4801
2026-01-06 12:25:13.27	267.94	18.23	-53.2	-55.1	14.2	0.00e+00	0	29	0	495976448	71	4794
2026-01-06 12:25:14.27	268.17	18.25	-53.0	-54.9	14.3	0.00e+00	0	28	0	498073600	71	4683
2026-01-06 12:25:15.27	268.40	18.28	-53.0	-54.8	14.4	0.00e+00	0	29	0	499122176	71	4643
2026-01-06 12:25:16.26	268.63	18.30	-52.7	-54.5	14.4	0.00e+00	0	29	0	501219328	71	4483
2026-01-06 12:25:17.26	268.86	18.33	-52.9	-54.8	14.4	0.00e+00	0	28	0	503316480	71	4601
2026-01-06 12:25:18.26	269.09	18.36	-52.8	-54.6	14.4	0.00e+00	0	29	0	505413632	71	4525
2026-01-06 12:25:19.25	269.32	18.38	-52.9	-54.7	14.4	0.00e+00	0	29	0	507510784	71	4566
2026-01-06 12:25:20.26	269.56	18.40	-52.7	-54.5	14.4	0.00e+00	0	29	0	508559360	71	4493
2026-01-06 12:25:21.26	269.79	18.43	-52.7	-54.4	14.5	0.00e+00	0	29	0	510656512	71	4441
2026-01-06 12:25:22.25	270.02	18.45	-52.6	-54.4	14.5	0.00e+00	0	29	0	512753664	71	4396
2026-01-06 12:25:23.24	270.25	18.47	-52.6	-54.4	14.5	0.00e+00	0	28	0	514850816	71	4399
2026-01-06 12:25:24.24	270.49	18.49	-52.6	-54.4	14.5	0.00e+00	0	29	0	516947968	71	4417
2026-01-06 12:25:25.24	270.72	18.52	-52.8	-54.6	14.4	0.00e+00	0	28	0	517996544	71	4545
2026-01-06 12:25:26.24	270.96	18.54	-52.9	-54.7	14.4	0.00e+00	0	29	0	520093696	71	4598
2026-01-06 12:25:27.24	271.19	18.56	-53.0	-54.8	14.3	0.00e+00	0	29	0	522190848	71	4646
2026-01-06 12:25:28.24	271.43	18.58	-52.9	-54.7	14.4	0.00e+00	0	28	0	524288000	71	4570
2026-01-06 12:25:29.24	271.66	18.60	-52.5	-54.3	14.6	0.00e+00	0	29	0	525336576	71	4343
2026-01-06 12:25:30.24	271.90	18.62	-52.5	-54.2	14.6	0.00e+00	0	29	0	527433728	71	4310
2026-01-06 12:25:31.24	272.14	18.64	-52.5	-54.2	14.6	0.00e+00	0	29	0	529530880	71	4318
2026-01-06 12:25:32.23	272.37	18.66	-52.6	-54.4	14.5	0.00e+00	0	29	0	531628032	71	4418
2026-01-06 12:25:33.23	272.61	18.68	-53.0	-54.9	14.3	0.00e+00	0	29	0	533725184	71	4653
2026-01-06 12:25:34.23	272.84	18.69	-53.4	-55.3	14.1	0.00e+00	0	29	0	534773760	71	4925
2026-01-06 12:25:35.22	273.08	18.71	-53.4	-55.4	14.2	0.00e+00	0	28	0	536870912	72	4700
2026-01-06 12:25:36.22	273.32	18.73	-53.3	-55.3	14.2	0.00e+00	0	29	0	538968064	72	4634
2026-01-06 12:25:37.21	273.55	18.74	-53.2	-55.1	14.3	0.00e+00	0	29	0	541065216	72	4536
2026-01-06 12:25:38.21	273.79	18.76	-53.1	-55.0	14.3	0.00e+00	0	29	0	543162368	72	4485
2026-01-06 12:25:39.21	274.03	18.77	-53.4	-55.4	14.2	0.00e+00	0	29	0	544210944	72	4664
2026-01-06 12:25:40.21	274.27	18.79	-53.5	-55.5	14.2	0.00e+00	0	29	0	546308096	72	4711
2026-01-06 12:25:41.22	274.51	18.80	-53.7	-55.8	14.0	0.00e+00	0	29	0	548405248	72	4906
2026-01-06 12:25:42.21	274.75	18.82	-53.7	-55.8	14.0	0.00e+00	0	28	0	550502400	72	4901
2026-01-06 12:25:43.22	274.99	18.83	-53.7	-55.8	14.0	0.00e+00	0	29	0	551550976	72	4897
2026-01-06 12:25:44.22	275.23	18.84	-53.6	-55.6	14.1	0.00e+00	0	29	0	553648128	72	4814
2026-01-06 12:25:45.22	275.47	18.86	-53.4	-55.3	14.2	0.00e+00	0	29	0	555745280	72	4637
2026-01-06 12:25:46.21	275.70	18.87	-53.4	-55.4	14.2	0.00e+00	0	29	0	557842432	72	4675
2026-01-06 12:25:47.21	275.94	18.88	-53.4	-55.4	14.2	0.00e+00	0	29	0	559939584	72	4659
2026-01-06 12:25:48.21	276.18	18.89	-53.6	-55.6	14.1	0.00e+00	0	29	0	560988160	72	4808
2026-01-06 12:25:49.21	276.42	18.90	-53.8	-55.9	14.0	0.00e+00	0	29	0	563085312	72	4943
2026-01-06 12:25:50.21	276.66	18.91	-53.9	-56.1	14.0	0.00e+00	0	29	0	565182464	73	4764
2026-01-06 12:25:51.21	276.90	18.92	-53.8	-55.9	14.1	0.00e+00	0	29	0	567279616	73	4662
2026-01-06 12:25:52.22	277.15	18.93	-53.6	-55.7	14.2	0.00e+00	0	29	0	569376768	73	4559
2026-01-06 12:25:53.21	277.39	18.94	-53.6	-55.7	14.2	0.00e+00	0	29	0	570425344	73	4554
2026-01-06 12:25:54.21	277.63	18.95	-53.6	-55.6	14.2	0.00e+00	0	29	0	572522496	73	4497
2026-01-06 12:25:55.20	277.87	18.96	-53.6	-55.6	14.2	0.00e+00	0	29	0	574619648	73	4527
2026-01-06 12:25:56.20	278.11	18.96	-53.7	-55.7	14.2	0.00e+00	0	29	0	576716800	73	4577
2026-01-06 12:25:57.20	278.35	18.97	-53.7	-55.7	14.2	0.00e+00	0	29	0	578813952	73	4573
2026-01-06 12:25:58.20	278.59	18.98	-53.6	-55.7	14.2	0.00e+00	0	29	0	579862528	73	4560
2026-01-06 12:25:59.20	278.83	18.98	-53.7	-55.7	14.2	0.00e+00	0	29	0	581959680	73	4563
2026-01-06 12:26:00.19	279.07	18.99	-53.8	-55.8	14.1	0.00e+00	0	29	0	584056832	73	4641
2026-01-06 12:26:01.19	279.31	18.99	-53.6	-55.6	14.2	0.00e+00	0	29	0	586153984	73	4513
2026-01-06 12:26:02.18	279.55	19.00	-53.7	-55.7	14.2	0.00e+00	0	29	0	587202560	73	4571
2026-01-06 12:26:03.17	279.79	19.00	-53.7	-55.8	14.1	0.00e+00	0	29	0	589299712	73	4623
2026-01-06 12:26:04.17	280.03	19.00	-53.7	-55.7	14.2	0.00e+00	0	29	0	591396864	73	4572
2026-01-06 12:26:05.17	280.28	19.01	-53.8	-55.8	14.1	0.00e+00	0	29	0	593494016	73	4634
2026-01-06 12:26:06.16	280.51	19.01	-53.6	-55.6	14.2	0.00e+00	0	29	0	595591168	73	4523
2026-01-06 12:26:07.16	280.76	19.01	-53.6	-55.6	14.3	0.00e+00	0	29	0	596639744	73	4506
2026-01-06 12:26:08.15	281.00	19.01	-53.5	-55.5	14.3	0.00e+00	0	29	0	598736896	73	4474
2026-01-06 12:26:09.16	281.24	19.01	-53.4	-55.3	14.3	0.00e+00	0	29	0	600834048	73	4377
2026-01-06 12:26:10.16	281.48	19.01	-53.5	-55.4	14.3	0.00e+00	0	29	0	602931200	73	4431
2026-01-06 12:26:11.15	281.72	19.01	-53.7	-55.7	14.2	0.00e+00	0	29	0	603979776	73	4598
2026-01-06 12:26:12.15	281.96	19.01	-53.9	-56.0	14.0	0.00e+00	0	29	0	606076928	73	4754
2026-01-06 12:26:13.15	282.21	19.01	-53.9	-56.0	14.0	0.00e+00	0	29	0	608174080	73	4729
2026-01-06 12:26:14.15	282.45	19.01	-54.1	-56.2	13.9	0.00e+00	0	29	0	610271232	73	4853
2026-01-06 12:26:15.14	282.69	19.01	-54.0	-56.1	14.0	0.00e+00	0	29	0	612368384	73	4805
2026-01-06 12:26:16.13	282.93	19.00	-54.0	-56.2	13.9	0.00e+00	0	29	0	613416960	73	4835
2026-01-06 12:26:17.13	283.17	19.00	-54.2	-56.4	13.9	0.00e+00	0	29	0	615514112	73	4971
2026-01-06 12:26:18.13	283.41	19.00	-54.3	-56.5	13.8	0.00e+00	0	29	0	617611264	73	5026
2026-01-06 12:26:19.13	283.65	18.99	-54.4	-56.7	13.7	0.00e+00	0	29	0	619708416	73	5141
2026-01-06 12:26:20.13	283.89	18.99	-54.2	-56.5	13.8	0.00e+00	0	29	0	620756992	73	5014
2026-01-06 12:26:21.12	284.13	18.98	-54.3	-56.5	13.8	0.00e+00	0	29	0	622854144	73	5027
2026-01-06 12:26:22.12	284.37	18.98	-54.0	-56.2	14.0	0.00e+00	0	29	0	624951296	73	4817
2026-01-06 12:26:23.11	284.61	18.97	-53.7	-55.7	14.2	0.00e+00	0	28	0	627048448	73	4576
2026-01-06 12:26:24.12	284.86	18.96	-53.5	-55.5	14.3	0.00e+00	0	29	0	629145600	73	4452
2026-01-06 12:26:25.11	285.10	18.96	-53.4	-55.3	14.4	0.00e+00	0	28	0	630194176	73	4356
2026-01-06 12:26:26.10	285.33	18.95	-53.6	-55.5	14.2	0.00e+00	0	29	0	632291328	73	4488
2026-01-06 12:26:27.09	285.57	18.94	-53.7	-55.7	14.2	0.00e+00	0	29	0	634388480	73	4595
2026-01-06 12:26:28.08	285.81	18.93	-53.9	-56.0	14.1	0.00e+00	0	29	0	636485632	73	4725
2026-01-06 12:26:29.08	286.05	18.92	-54.0	-56.2	13.9	0.00e+00	0	29	0	637534208	73	4836
2026-01-06 12:26:30.07	286.29	18.92	-53.9	-56.0	14.0	0.00e+00	0	29	0	639631360	73	4755
2026-01-06 12:26:31.07	286.53	18.91	-54.0	-56.1	14.0	0.00e+00	0	29	0	641728512	73	4764
2026-01-06 12:26:32.06	286.77	18.89	-54.1	-56.2	14.0	0.00e+00	0	29	0	643825664	73	4855
2026-01-06 12:26:33.06	287.01	18.88	-54.0	-56.2	14.0	0.00e+00	0	29	0	645922816	73	4830
2026-01-06 12:26:34.06	287.25	18.87	-54.1	-56.3	13.9	0.00e+00	0	29	0	646971392	73	4874
2026-01-06 12:26:35.07	287.49	18.86	-54.1	-56.3	13.9	0.00e+00	0	29	0	649068544	73	4912
2026-01-06 12:26:36.06	287.73	18.85	-54.1	-56.3	13.9	0.00e+00	0	29	0	651165696	73	4923
2026-01-06 12:26:37.07	287.97	18.84	-54.1	-56.3	13.9	0.00e+00	0	29	0	653262848	73	4894
2026-01-06 12:26:38.06	288.20	18.82	-54.2	-56.4	13.9	0.00e+00	0	29	0	655360000	73	4959
2026-01-06 12:26:39.06	288.44	18.81	-54.1	-56.2	13.9	0.00e+00	0	29	0	656408576	73	4848
2026-01-06 12:26:40.05	288.68	18.79	-54.1	-56.3	13.9	0.00e+00	0	29	0	658505728	73	4871
2026-01-06 12:26:41.05	288.92	18.78	-54.1	-56.2	14.0	0.00e+00	0	29	0	660602880	73	4847
2026-01-06 12:26:42.04	289.15	18.76	-53.9	-56.1	14.0	0.00e+00	0	29	0	662700032	73	4763
2026-01-06 12:26:43.03	289.39	18.75	-53.9	-56.0	14.0	0.00e+00	0	29	0	663748608	73	4756
2026-01-06 12:26:44.04	289.63	18.73	-53.8	-55.9	14.1	0.00e+00	0	29	0	665845760	73	4652
2026-01-06 12:26:45.04	289.87	18.72	-53.6	-55.6	14.3	0.00e+00	0	29	0	667942912	73	4505
2026-01-06 12:26:46.04	290.10	18.70	-53.5	-55.4	14.3	0.00e+00	0	29	0	670040064	73	4435
2026-01-06 12:26:47.04	290.34	18.68	-53.3	-55.2	14.4	0.00e+00	0	29	0	672137216	73	4304
2026-01-06 12:26:48.04	290.58	18.66	-53.1	-54.9	14.4	0.00e+00	0	29	0	673185792	72	4417
2026-01-06 12:26:49.04	290.81	18.64	-53.0	-54.8	14.5	0.00e+00	0	29	0	675282944	72	4351
2026-01-06 12:26:50.03	291.05	18.63	-52.9	-54.6	14.6	0.00e+00	0	29	0	677380096	72	4284
2026-01-06 12:26:51.03	291.28	18.61	-53.0	-54.8	14.5	0.00e+00	0	29	0	679477248	72	4383
2026-01-06 12:26:52.03	291.52	18.59	-53.0	-54.8	14.5	0.00e+00	0	29	0	680525824	72	4352
2026-01-06 12:26:53.03	291.75	18.57	-53.3	-55.2	14.3	0.00e+00	0	29	0	682622976	72	4574
2026-01-06 12:26:54.03	291.99	18.54	-53.5	-55.5	14.2	0.00e+00	0	29	0	684720128	72	4736
2026-01-06 12:26:55.02	292.22	18.52	-53.7	-55.7	14.1	0.00e+00	0	29	0	686817280	72	4844
2026-01-06 12:26:56.02	292.45	18.50	-53.7	-55.8	14.1	0.00e+00	0	29	0	688914432	72	4874
2026-01-06 12:26:57.01	292.69	18.48	-53.7	-55.8	14.1	0.00e+00	0	29	0	689963008	72	4885
2026-01-06 12:26:58.01	292.92	18.46	-53.8	-55.8	14.0	0.00e+00	0	29	0	692060160	72	4920
2026-01-06 12:26:59.01	293.15	18.43	-53.7	-55.7	14.1	0.00e+00	0	29	0	694157312	72	4844
2026-01-06 12:27:00.02	293.39	18.41	-53.8	-55.8	14.1	0.00e+00	0	29	0	696254464	72	4919
2026-01-06 12:27:01.02	293.62	18.39	-54.0	-56.1	14.1	0.00e+00	0	29	0	698351616	73	4761
2026-01-06 12:27:02.02	293.85	18.36	-54.0	-56.1	14.0	0.00e+00	0	29	0	699400192	73	4785
2026-01-06 12:27:03.01	294.08	18.34	-53.9	-56.0	14.1	0.00e+00	0	29	0	701497344	73	4707
2026-01-06 12:27:04.01	294.31	18.31	-53.7	-55.7	14.2	0.00e+00	0	29	0	703594496	73	4571
2026-01-06 12:27:05.00	294.54	18.29	-53.6	-55.5	14.3	0.00e+00	0	29	0	705691648	73	4488
2026-01-06 12:27:06.00	294.77	18.26	-53.3	-55.2	14.4	0.00e+00	0	29	0	707788800	73	4300
2026-01-06 12:27:07.00	295.00	18.24	-53.1	-54.9	14.4	0.00e+00	0	29	0	708837376	72	4435
2026-01-06 12:27:07.99	295.23	18.21	-53.3	-55.2	14.3	0.00e+00	0	29	0	710934528	72	4565
2026-01-06 12:27:08.99	295.46	18.18	-53.5	-55.4	14.2	0.00e+00	0	29	0	713031680	72	4689
2026-01-06 12:27:09.98	295.69	18.15	-53.8	-55.8	14.1	0.00e+00	0	29	0	715128832	72	4923
2026-01-06 12:27:10.98	295.91	18.13	-54.1	-56.2	14.0	0.00e+00	0	29	0	716177408	73	4864
2026-01-06 12:27:11.98	296.14	18.10	-54.2	-56.4	13.9	0.00e+00	0	29	0	718274560	73	4932
2026-01-06 12:27:12.98	296.37	18.07	-54.1	-56.2	14.0	0.00e+00	0	29	0	720371712	73	4860
2026-01-06 12:27:13.98	296.60	18.04	-53.8	-55.8	14.1	0.00e+00	0	29	0	722468864	73	4646
2026-01-06 12:27:14.98	296.82	18.01	-53.5	-55.4	14.3	0.00e+00	0	29	0	724566016	73	4423
2026-01-06 12:27:15.98	297.05	17.98	-53.2	-55.1	14.5	0.00e+00	0	29	0	725614592	73	4271
2026-01-06 12:27:16.98	297.28	17.95	-53.3	-55.1	14.5	0.00e+00	0	29	0	727711744	73	4281
2026-01-06 12:27:17.98	297.50	17.92	-53.1	-55.0	14.4	0.00e+00	0	29	0	729808896	72	4443
2026-01-06 12:27:18.97	297.72	17.89	-53.3	-55.2	14.3	0.00e+00	0	29	0	731906048	72	4577
2026-01-06 12:27:19.97	297.95	17.86	-53.3	-55.2	14.3	0.00e+00	0	29	0	732954624	72	4579
2026-01-06 12:27:20.96	298.17	17.82	-53.4	-55.4	14.3	0.00e+00	0	29	0	735051776	72	4659
2026-01-06 12:27:21.96	298.39	17.79	-53.4	-55.3	14.3	0.00e+00	0	29	0	737148928	72	4639
2026-01-06 12:27:22.96	298.62	17.76	-53.2	-55.0	14.4	0.00e+00	0	29	0	739246080	72	4490
2026-01-06 12:27:23.96	298.84	17.73	-53.0	-54.9	14.5	0.00e+00	0	29	0	741343232	72	4393
2026-01-06 12:27:24.96	299.06	17.69	-52.6	-54.4	14.6	0.00e+00	0	29	0	742391808	71	4408
2026-01-06 12:27:25.96	299.28	17.66	-52.6	-54.3	14.6	0.00e+00	0	29	0	744488960	71	4377
2026-01-06 12:27:26.96	299.51	17.63	-52.5	-54.2	14.6	0.00e+00	0	29	0	746586112	71	4339
2026-01-06 12:27:27.96	299.73	17.59	-52.7	-54.5	14.5	0.00e+00	0	29	0	748683264	71	4455
2026-01-06 12:27:28.97	299.95	17.56	-52.8	-54.6	14.5	0.00e+00	0	29	0	750780416	71	4502
2026-01-06 12:27:29.96	300.17	17.52	-52.8	-54.6	14.5	0.00e+00	0	29	0	751828992	71	4497
2026-01-06 12:27:30.96	300.39	17.49	-52.9	-54.8	14.4	0.00e+00	0	29	0	753926144	71	4606
2026-01-06 12:27:31.96	300.61	17.45	-52.8	-54.6	14.5	0.00e+00	0	29	0	756023296	71	4529
2026-01-06 12:27:32.95	300.82	17.41	-52.7	-54.5	14.5	0.00e+00	0	29	0	758120448	71	4474
2026-01-06 12:27:33.96	301.04	17.38	-52.7	-54.5	14.5	0.00e+00	0	29	0	760217600	71	4472
2026-01-06 12:27:34.96	301.26	17.34	-52.6	-54.4	14.6	0.00e+00	0	29	0	761266176	71	4429
2026-01-06 12:27:35.97	301.48	17.30	-52.6	-54.3	14.6	0.00e+00	0	29	0	763363328	71	4368
2026-01-06 12:27:36.97	301.69	17.26	-52.5	-54.3	14.6	0.00e+00	0	29	0	765460480	71	4355
2026-01-06 12:27:37.97	301.91	17.23	-52.7	-54.4	14.5	0.00e+00	0	29	0	767557632	71	4436
2026-01-06 12:27:38.96	302.12	17.19	-52.6	-54.4	14.6	0.00e+00	0	29	0	768606208	71	4413
2026-01-06 12:27:39.96	302.34	17.15	-52.7	-54.5	14.5	0.00e+00	0	29	0	770703360	71	4459
2026-01-06 12:27:40.96	302.55	17.11	-52.8	-54.6	14.5	0.00e+00	0	29	0	772800512	71	4519
2026-01-06 12:27:41.96	302.76	17.07	-52.8	-54.5	14.5	0.00e+00	0	29	0	774897664	71	4488
2026-01-06 12:27:42.95	302.97	17.03	-52.9	-54.7	14.4	0.00e+00	0	29	0	776994816	71	4554
2026-01-06 12:27:43.95	303.19	16.99	-53.0	-54.9	14.4	0.00e+00	0	29	0	778043392	71	4661
2026-01-06 12:27:44.96	303.40	16.95	-53.0	-54.9	14.3	0.00e+00	0	29	0	780140544	71	4694
2026-01-06 12:27:45.96	303.61	16.91	-53.1	-54.9	14.3	0.00e+00	0	29	0	782237696	71	4700
2026-01-06 12:27:46.96	303.82	16.87	-53.2	-55.1	14.3	0.00e+00	0	29	0	784334848	71	4793
2026-01-06 12:27:47.95	304.03	16.83	-53.2	-55.2	14.3	0.00e+00	0	29	0	786432000	71	4817
2026-01-06 12:27:48.95	304.24	16.79	-53.0	-54.8	14.4	0.00e+00	0	29	0	787480576	71	4618
2026-01-06 12:27:49.94	304.45	16.75	-53.0	-54.9	14.4	0.00e+00	0	29	0	789577728	71	4655
2026-01-06 12:27:50.94	304.66	16.71	-52.8	-54.6	14.5	0.00e+00	0	29	0	791674880	71	4529
2026-01-06 12:27:51.94	304.86	16.66	-52.7	-54.5	14.5	0.00e+00	0	29	0	793772032	71	4451
2026-01-06 12:27:52.94	305.07	16.62	-52.9	-54.7	14.5	0.00e+00	0	29	0	794820608	71	4547
2026-01-06 12:27:53.94	305.28	16.58	-53.0	-54.8	14.4	0.00e+00	0	29	0	796917760	71	4628
2026-01-06 12:27:54.94	305.48	16.53	-53.1	-55.0	14.3	0.00e+00	0	29	0	799014912	71	4722
2026-01-06 12:27:55.95	305.69	16.49	-53.3	-55.3	14.2	0.00e+00	0	29	0	801112064	71	4902
2026-01-06 12:27:56.95	305.90	16.45	-53.4	-55.4	14.2	0.00e+00	0	29	0	803209216	72	4686
2026-01-06 12:27:57.95	306.10	16.40	-53.3	-55.3	14.3	0.00e+00	0	29	0	804257792	72	4601
2026-01-06 12:27:58.95	306.31	16.36	-53.2	-55.1	14.4	0.00e+00	0	29	0	806354944	72	4513
2026-01-06 12:27:59.95	306.51	16.32	-53.1	-54.9	14.4	0.00e+00	0	29	0	808452096	72	4422
2026-01-06 12:28:00.95	306.71	16.27	-52.9	-54.7	14.5	0.00e+00	0	29	0	810549248	72	4331
2026-01-06 12:28:01.95	306.91	16.23	-53.2	-55.1	14.3	0.00e+00	0	29	0	812646400	72	4525
2026-01-06 12:28:02.95	307.12	16.18	-53.5	-55.5	14.2	0.00e+00	0	29	0	813694976	72	4717
2026-01-06 12:28:03.95	307.32	16.14	-53.8	-55.8	14.0	0.00e+00	0	29	0	815792128	72	4924
2026-01-06 12:28:04.95	307.52	16.09	-54.1	-56.3	13.9	0.00e+00	0	29	0	817889280	73	4908
2026-01-06 12:28:05.95	307.72	16.04	-54.2	-56.5	13.8	0.00e+00	0	29	0	819986432	73	5018
2026-01-06 12:28:06.95	307.92	16.00	-54.2	-56.4	13.8	0.00e+00	0	29	0	822083584	73	4982
2026-01-06 12:28:07.95	308.11	15.95	-54.0	-56.1	14.0	0.00e+00	0	29	0	823132160	73	4791
2026-01-06 12:28:08.95	308.31	15.90	-53.9	-56.0	14.1	0.00e+00	0	29	0	825229312	73	4722
2026-01-06 12:28:09.95	308.51	15.86	-53.7	-55.8	14.1	0.00e+00	0	29	0	827326464	73	4630
2026-01-06 12:28:10.94	308.70	15.81	-53.5	-55.5	14.3	0.00e+00	0	29	0	829423616	73	4487
2026-01-06 12:28:11.94	308.90	15.76	-53.3	-55.2	14.4	0.00e+00	0	29	0	830472192	73	4322
2026-01-06 12:28:12.94	309.10	15.72	-53.3	-55.2	14.3	0.00e+00	0	29	0	832569344	72	4571
2026-01-06 12:28:13.92	309.29	15.67	-53.2	-55.1	14.3	0.00e+00	0	29	0	834666496	72	4541
2026-01-06 12:28:14.92	309.48	15.62	-53.1	-55.0	14.4	0.00e+00	0	29	0	836763648	72	4443
2026-01-06 12:28:15.92	309.67	15.57	-53.1	-55.0	14.4	0.00e+00	0	29	0	838860800	72	4446
2026-01-06 12:28:16.92	309.87	15.53	-53.1	-55.0	14.4	0.00e+00	0	29	0	839909376	72	4490
2026-01-06 12:28:17.91	310.06	15.48	-53.2	-55.1	14.4	0.00e+00	0	29	0	842006528	72	4518
2026-01-06 12:28:18.91	310.25	15.43	-53.3	-55.2	14.3	0.00e+00	0	29	0	844103680	72	4555
2026-01-06 12:28:19.90	310.44	15.38	-53.3	-55.2	14.3	0.00e+00	0	29	0	846200832	72	4574
2026-01-06 12:28:20.90	310.63	15.33	-53.7	-55.7	14.1	0.00e+00	0	29	0	847249408	72	4840
2026-01-06 12:28:21.90	310.82	15.28	-53.9	-56.1	14.0	0.00e+00	0	29	0	849346560	73	4765
2026-01-06 12:28:22.90	311.01	15.23	-54.0	-56.2	14.0	0.00e+00	0	29	0	851443712	73	4864
2026-01-06 12:28:23.90	311.20	15.18	-54.4	-56.7	13.7	0.00e+00	0	29	0	853540864	73	5155
2026-01-06 12:28:24.90	311.39	15.13	-54.7	-57.2	13.6	0.00e+00	0	29	0	855638016	74	5101
2026-01-06 12:28:25.89	311.57	15.08	-54.8	-57.3	13.5	0.00e+00	0	29	0	856686592	74	5161
2026-01-06 12:28:26.90	311.76	15.03	-54.7	-57.1	13.6	0.00e+00	0	29	0	858783744	74	5063
2026-01-06 12:28:27.90	311.95	14.98	-54.6	-57.0	13.6	0.00e+00	0	29	0	860880896	74	5031
2026-01-06 12:28:28.89	312.13	14.93	-54.4	-56.7	13.8	0.00e+00	0	29	0	862978048	74	4852
2026-01-06 12:28:29.89	312.32	14.88	-54.2	-56.5	13.9	0.00e+00	0	29	0	864026624	74	4728
2026-01-06 12:28:30.89	312.50	14.83	-54.1	-56.3	14.0	0.00e+00	0	29	0	866123776	74	4642
2026-01-06 12:28:31.89	312.69	14.78	-54.0	-56.1	14.1	0.00e+00	0	29	0	868220928	74	4535
2026-01-06 12:28:32.88	312.87	14.73	-54.0	-56.2	14.0	0.00e+00	0	29	0	870318080	74	4547
2026-01-06 12:28:33.87	313.05	14.68	-54.0	-56.1	14.0	0.00e+00	0	29	0	872415232	74	4536
2026-01-06 12:28:34.86	313.23	14.63	-53.8	-55.9	14.2	0.00e+00	0	29	0	873463808	74	4415
2026-01-06 12:28:35.86	313.41	14.58	-53.9	-56.0	14.1	0.00e+00	0	29	0	875560960	74	4482
2026-01-06 12:28:36.86	313.59	14.52	-53.9	-56.0	14.1	0.00e+00	0	29	0	877658112	74	4452
2026-01-06 12:28:37.86	313.77	14.47	-53.9	-56.0	14.1	0.00e+00	0	29	0	879755264	74	4445
2026-01-06 12:28:38.86	313.95	14.42	-53.7	-55.7	14.2	0.00e+00	0	29	0	881852416	74	4328
2026-01-06 12:28:39.85	314.13	14.37	-53.9	-56.0	14.1	0.00e+00	0	29	0	882900992	74	4465
2026-01-06 12:28:40.85	314.31	14.32	-53.9	-56.0	14.1	0.00e+00	0	29	0	884998144	74	4456
2026-01-06 12:28:41.85	314.48	14.26	-53.8	-55.9	14.0	0.00e+00	0	29	0	887095296	74	4417
2026-01-06 12:28:42.85	314.66	14.21	-54.1	-56.4	13.9	0.00e+00	0	29	0	889192448	74	4668
2026-01-06 12:28:43.85	314.84	14.16	-54.1	-56.3	14.0	0.00e+00	0	29	0	890241024	74	4649
2026-01-06 12:28:44.85	315.01	14.10	-54.1	-56.4	13.9	0.00e+00	0	29	0	892338176	74	4664
2026-01-06 12:28:45.85	315.19	14.05	-54.1	-56.4	13.9	0.00e+00	0	29	0	894435328	74	4659
2026-01-06 12:28:46.86	315.37	14.00	-54.1	-56.2	13.9	0.00e+00	0	29	0	896532480	74	4598
2026-01-06 12:28:47.86	315.54	13.94	-54.0	-56.2	14.0	0.00e+00	0	29	0	898629632	74	4549
2026-01-06 12:28:48.86	315.71	13.89	-54.0	-56.2	14.0	0.00e+00	0	29	0	899678208	74	4553
2026-01-06 12:28:49.87	315.89	13.84	-54.1	-56.3	14.0	0.00e+00	0	29	0	901775360	74	4608
2026-01-06 12:28:50.87	316.06	13.78	-54.1	-56.3	14.0	0.00e+00	0	29	0	903872512	74	4629
2026-01-06 12:28:51.87	316.23	13.73	-54.2	-56.5	13.9	0.00e+00	0	29	0	905969664	74	4733
2026-01-06 12:28:52.87	316.40	13.67	-54.3	-56.5	13.8	0.00e+00	0	29	0	908066816	74	4759
2026-01-06 12:28:53.86	316.57	13.62	-54.1	-56.3	13.9	0.00e+00	0	29	0	909115392	74	4640
2026-01-06 12:28:54.85	316.74	13.57	-54.3	-56.5	13.8	0.00e+00	0	29	0	911212544	74	4747
2026-01-06 12:28:55.85	316.91	13.51	-54.1	-56.4	13.9	0.00e+00	0	29	0	913309696	74	4665
2026-01-06 12:28:56.85	317.08	13.46	-53.8	-55.9	14.1	0.00e+00	0	29	0	915406848	74	4423
2026-01-06 12:28:57.85	317.25	13.40	-53.8	-55.9	14.1	0.00e+00	0	29	0	917504000	74	4431
2026-01-06 12:28:58.85	317.41	13.35	-53.6	-55.7	14.1	0.00e+00	0	29	0	918552576	73	4554
2026-01-06 12:28:59.85	317.58	13.30	-53.8	-56.0	14.0	0.00e+00	0	29	0	920649728	73	4720
2026-01-06 12:29:00.85	317.75	13.24	-53.8	-55.9	14.0	0.00e+00	0	29	0	922746880	73	4690
2026-01-06 12:29:01.85	317.91	13.19	-53.9	-56.1	14.0	0.00e+00	0	29	0	924844032	73	4777
2026-01-06 12:29:02.85	318.08	13.13	-54.0	-56.3	13.9	0.00e+00	0	29	0	925892608	73	4874
2026-01-06 12:29:03.85	318.24	13.08	-54.0	-56.3	13.8	0.00e+00	0	29	0	927989760	73	4873
2026-01-06 12:29:04.85	318.41	13.02	-53.9	-56.1	13.9	0.00e+00	0	29	0	930086912	73	4808
2026-01-06 12:29:05.84	318.57	12.97	-53.9	-56.1	13.9	0.00e+00	0	29	0	932184064	73	4789
2026-01-06 12:29:06.85	318.73	12.91	-53.6	-55.7	14.1	0.00e+00	0	29	0	934281216	73	4593
2026-01-06 12:29:07.84	318.89	12.86	-53.5	-55.6	14.2	0.00e+00	0	29	0	935329792	73	4500
2026-01-06 12:29:08.84	319.05	12.80	-53.4	-55.4	14.2	0.00e+00	0	29	0	937426944	73	4410
2026-01-06 12:29:09.84	319.21	12.74	-53.3	-55.3	14.3	0.00e+00	0	29	0	939524096	73	4384
2026-01-06 12:29:10.84	319.37	12.69	-53.0	-54.9	14.3	0.00e+00	0	29	0	941621248	72	4429
2026-01-06 12:29:11.84	319.53	12.63	-53.1	-55.0	14.3	0.00e+00	0	29	0	942669824	72	4480
2026-01-06 12:29:12.84	319.69	12.58	-53.4	-55.4	14.1	0.00e+00	0	29	0	944766976	72	4659
2026-01-06 12:29:13.83	319.85	12.52	-53.4	-55.4	14.0	0.00e+00	0	29	0	946864128	72	4680
2026-01-06 12:29:14.83	320.01	12.47	-53.3	-55.3	14.1	0.00e+00	0	29	0	948961280	72	4644
2026-01-06 12:29:15.83	320.17	12.41	-53.4	-55.5	14.1	0.00e+00	0	29	0	951058432	72	4725
2026-01-06 12:29:16.83	320.32	12.35	-53.5	-55.5	14.1	0.00e+00	0	29	0	952107008	72	4736
2026-01-06 12:29:17.83	320.48	12.30	-53.5	-55.6	14.1	0.00e+00	0	29	0	954204160	72	4783
2026-01-06 12:29:18.83	320.64	12.24	-53.3	-55.3	14.2	0.00e+00	0	29	0	956301312	72	4646
2026-01-06 12:29:19.83	320.79	12.19	-53.3	-55.3	14.2	0.00e+00	0	29	0	958398464	72	4601
2026-01-06 12:29:20.83	320.95	12.13	-53.1	-55.1	14.3	0.00e+00	0	29	0	960495616	72	4521
2026-01-06 12:29:21.83	321.10	12.07	-53.1	-55.1	14.2	0.00e+00	0	29	0	961544192	72	4507
2026-01-06 12:29:22.82	321.25	12.02	-53.2	-55.2	14.0	0.00e+00	0	29	0	963641344	72	4590
2026-01-06 12:29:23.82	321.40	11.96	-53.1	-55.1	14.1	0.00e+00	0	29	0	965738496	72	4526
2026-01-06 12:29:24.81	321.55	11.91	-53.3	-55.4	14.0	0.00e+00	0	29	0	967835648	72	4661
2026-01-06 12:29:25.81	321.71	11.85	-53.5	-55.6	14.0	0.00e+00	0	29	0	969932800	72	4797
2026-01-06 12:29:26.81	321.86	11.79	-53.3	-55.3	14.2	0.00e+00	0	29	0	970981376	72	4649
2026-01-06 12:29:27.81	322.01	11.74	-53.4	-55.4	14.1	0.00e+00	0	29	0	973078528	72	4694
2026-01-06 12:29:28.80	322.16	11.68	-53.4	-55.4	14.2	0.00e+00	0	29	0	975175680	72	4676
2026-01-06 12:29:29.80	322.31	11.62	-53.2	-55.2	14.2	0.00e+00	0	29	0	977272832	72	4592
2026-01-06 12:29:30.80	322.46	11.57	-53.4	-55.4	14.1	0.00e+00	0	29	0	978321408	72	4703
2026-01-06 12:29:31.80	322.60	11.51	-53.1	-55.0	14.3	0.00e+00	0	29	0	980418560	72	4478
2026-01-06 12:29:32.78	322.75	11.45	-52.8	-54.7	14.5	0.00e+00	0	29	0	982515712	72	4319
2026-01-06 12:29:33.78	322.90	11.40	-52.7	-54.5	14.4	0.00e+00	0	29	0	984612864	71	4459
2026-01-06 12:29:34.77	323.04	11.34	-52.7	-54.5	14.4	0.00e+00	0	29	0	986710016	71	4474
2026-01-06 12:29:35.78	323.19	11.28	-52.6	-54.4	14.5	0.00e+00	0	29	0	987758592	71	4429
2026-01-06 12:29:36.78	323.33	11.23	-52.7	-54.6	14.4	0.00e+00	0	29	0	989855744	71	4497
2026-01-06 12:29:37.78	323.48	11.17	-52.8	-54.7	14.4	0.00e+00	0	29	0	991952896	71	4555
2026-01-06 12:29:38.78	323.62	11.11	-52.7	-54.6	14.4	0.00e+00	0	29	0	994050048	71	4520
2026-01-06 12:29:39.77	323.77	11.06	-52.9	-54.8	14.3	0.00e+00	0	29	0	995098624	71	4641
2026-01-06 12:29:40.77	323.91	11.00	-52.9	-54.8	14.3	0.00e+00	0	29	0	997195776	71	4648
2026-01-06 12:29:41.76	324.05	10.94	-53.0	-54.9	14.2	0.00e+00	0	29	0	999292928	71	4691
2026-01-06 12:29:42.77	324.20	10.89	-53.1	-55.1	14.2	0.00e+00	0	29	0	1001390080	71	4767
2026-01-06 12:29:43.77	324.34	10.83	-53.0	-55.0	14.2	0.00e+00	0	29	0	1003487232	71	4710
2026-01-06 12:29:44.76	324.48	10.77	-52.9	-54.9	14.3	0.00e+00	0	29	0	1004535808	71	4667
2026-01-06 12:29:45.76	324.62	10.72	-53.1	-55.1	14.2	0.00e+00	0	29	0	1006632960	71	4789
2026-01-06 12:29:46.76	324.76	10.66	-53.2	-55.2	14.1	0.00e+00	0	29	0	1008730112	71	4839
2026-01-06 12:29:47.76	324.90	10.60	-53.2	-55.3	14.1	0.00e+00	0	29	0	1010827264	71	4886
2026-01-06 12:29:48.75	325.04	10.54	-53.5	-55.6	14.0	0.00e+00	0	29	0	1012924416	72	4810
2026-01-06 12:29:49.75	325.18	10.49	-53.6	-55.8	14.0	0.00e+00	0	29	0	1013972992	72	4903
2026-01-06 12:29:50.75	325.31	10.43	-53.9	-56.2	13.8	0.00e+00	0	29	0	1016070144	73	4845
2026-01-06 12:29:51.75	325.45	10.37	-54.1	-56.5	13.7	0.00e+00	0	29	0	1018167296	73	4991
2026-01-06 12:29:52.75	325.59	10.32	-54.0	-56.3	13.8	0.00e+00	0	29	0	1020264448	73	4920
2026-01-06 12:29:53.75	325.73	10.26	-53.9	-56.1	13.9	0.00e+00	0	29	0	1021313024	73	4805
2026-01-06 12:29:54.75	325.86	10.20	-53.6	-55.8	14.0	0.00e+00	0	29	0	1023410176	73	4628
2026-01-06 12:29:55.74	326.00	10.15	-53.5	-55.6	14.1	0.00e+00	0	29	0	1025507328	73	4544
2026-01-06 12:29:56.75	326.13	10.09	-53.2	-55.2	14.3	0.00e+00	0	29	0	1027604480	73	4329
2026-01-06 12:29:57.76	326.27	10.03	-53.1	-55.1	14.3	0.00e+00	0	29	0	1029701632	72	4498
2026-01-06 12:29:58.75	326.40	9.97	-53.2	-55.2	14.2	0.00e+00	0	29	0	1030750208	72	4559
2026-01-06 12:29:59.75	326.53	9.92	-53.0	-54.9	14.3	0.00e+00	0	29	0	1032847360	72	4424
2026-01-06 12:30:00.74	326.67	9.86	-53.1	-55.0	14.3	0.00e+00	0	29	0	1034944512	72	4473
2026-01-06 12:30:01.74	326.80	9.80	-53.1	-55.1	14.3	0.00e+00	0	29	0	1037041664	72	4494
2026-01-06 12:30:02.73	326.93	9.75	-53.3	-55.3	14.2	0.00e+00	0	29	0	1038090240	72	4621
2026-01-06 12:30:03.73	327.06	9.69	-53.5	-55.7	14.0	0.00e+00	0	29	0	1040187392	72	4816
2026-01-06 12:30:04.73	327.19	9.63	-53.8	-56.0	13.8	0.00e+00	0	29	0	1042284544	72	5040
2026-01-06 12:30:05.72	327.32	9.57	-53.9	-56.1	13.8	0.00e+00	0	29	0	1044381696	72	5083
2026-01-06 12:30:06.73	327.45	9.52	-54.1	-56.4	13.7	0.00e+00	0	29	0	1046478848	73	4971
2026-01-06 12:30:07.73	327.58	9.46	-54.2	-56.6	13.7	0.00e+00	0	29	0	1047527424	73	5050
2026-01-06 12:30:08.73	327.71	9.40	-54.1	-56.4	13.7	0.00e+00	0	29	0	1049624576	73	4972
2026-01-06 12:30:09.73	327.84	9.34	-54.1	-56.4	13.7	0.00e+00	0	29	0	1051721728	73	4968
2026-01-06 12:30:10.73	327.97	9.29	-54.0	-56.4	13.8	0.00e+00	0	29	0	1053818880	73	4937
2026-01-06 12:30:11.74	328.10	9.23	-54.0	-56.3	13.8	0.00e+00	0	29	0	1055916032	73	4890
2026-01-06 12:30:12.73	328.22	9.17	-54.0	-56.4	13.8	0.00e+00	0	29	0	1056964608	73	4930
2026-01-06 12:30:13.73	328.35	9.12	-54.1	-56.5	13.7	0.00e+00	0	29	0	1059061760	73	4984
2026-01-06 12:30:14.73	328.48	9.06	-54.1	-56.4	13.7	0.00e+00	0	29	0	1061158912	73	4972
2026-01-06 12:30:15.72	328.60	9.00	-54.0	-56.3	13.7	0.00e+00	0	29	0	1063256064	73	4918
2026-01-06 12:30:16.73	328.73	8.95	-54.1	-56.5	13.7	0.00e+00	0	29	0	1065353216	73	4989
2026-01-06 12:30:17.73	328.85	8.89	-54.4	-56.9	13.4	0.00e+00	0	29	0	1066401792	73	5262
2026-01-06 12:30:18.73	328.98	8.83	-54.5	-57.1	13.5	0.00e+00	0	29	0	1068498944	74	5054
2026-01-06 12:30:19.72	329.10	8.77	-54.3	-56.8	13.6	0.00e+00	0	29	0	1070596096	74	4883
2026-01-06 12:30:20.72	329.22	8.72	-54.4	-56.9	13.5	0.00e+00	0	29	0	1072693248	74	4966
2026-01-06 12:30:21.72	329.35	8.66	-54.3	-56.8	13.6	0.00e+00	0	29	0	1073741824	74	4899
2026-01-06 12:30:22.72	329.47	8.60	-54.4	-56.9	13.5	0.00e+00	0	29	0	1075838976	74	4967
2026-01-06 12:30:23.72	329.59	8.55	-54.3	-56.8	13.6	0.00e+00	0	29	0	1077936128	74	4896
2026-01-06 12:30:24.72	329.71	8.49	-54.5	-57.1	13.4	0.00e+00	0	29	0	1080033280	74	5069
2026-01-06 12:30:25.72	329.83	8.43	-54.3	-56.8	13.6	0.00e+00	0	29	0	1082130432	74	4872
2026-01-06 12:30:26.71	329.95	8.38	-54.3	-56.8	13.6	0.00e+00	0	29	0	1083179008	74	4880
2026-01-06 12:30:27.71	330.07	8.32	-54.1	-56.5	13.7	0.00e+00	0	29	0	1085276160	74	4755
2026-01-06 12:30:28.70	330.19	8.26	-54.4	-56.9	13.5	0.00e+00	0	29	0	1087373312	74	4951
2026-01-06 12:30:29.70	330.31	8.21	-54.5	-57.1	13.4	0.00e+00	0	29	0	1089470464	74	5093
2026-01-06 12:30:30.70	330.43	8.15	-54.5	-57.1	13.4	0.00e+00	0	29	0	1091567616	74	5085
2026-01-06 12:30:31.70	330.55	8.09	-54.6	-57.2	13.3	0.00e+00	0	29	0	1092616192	74	5159
2026-01-06 12:30:32.69	330.67	8.04	-54.6	-57.2	13.3	0.00e+00	0	29	0	1094713344	74	5157
2026-01-06 12:30:33.68	330.78	7.98	-54.4	-56.9	13.5	0.00e+00	0	29	0	1096810496	74	4957
2026-01-06 12:30:34.68	330.90	7.92	-54.6	-57.3	13.3	0.00e+00	0	29	0	1098907648	74	5166
2026-01-06 12:30:35.67	331.02	7.87	-54.3	-56.9	13.5	0.00e+00	0	29	0	1099956224	74	4947
2026-01-06 12:30:36.66	331.13	7.81	-54.3	-56.8	13.6	0.00e+00	0	29	0	1102053376	74	4871
2026-01-06 12:30:37.66	331.25	7.76	-54.2	-56.7	13.6	0.00e+00	0	29	0	1104150528	74	4816
2026-01-06 12:30:38.65	331.36	7.70	-53.9	-56.2	13.8	0.00e+00	0	29	0	1106247680	74	4592
2026-01-06 12:30:39.65	331.48	7.64	-53.9	-56.3	13.8	0.00e+00	0	29	0	1108344832	74	4626
2026-01-06 12:30:40.65	331.59	7.59	-53.8	-56.1	13.9	0.00e+00	0	29	0	1109393408	74	4520
2026-01-06 12:30:41.65	331.71	7.53	-53.7	-55.9	14.0	0.00e+00	0	29	0	1111490560	74	4433
2026-01-06 12:30:42.65	331.82	7.47	-53.6	-55.9	13.9	0.00e+00	0	29	0	1113587712	73	4664
2026-01-06 12:30:43.65	331.93	7.42	-53.7	-56.0	13.9	0.00e+00	0	29	0	1115684864	73	4716
2026-01-06 12:30:44.65	332.05	7.36	-53.8	-56.1	13.8	0.00e+00	0	29	0	1116733440	73	4784
2026-01-06 12:30:45.65	332.16	7.30	-53.9	-56.2	13.7	0.00e+00	0	29	0	1118830592	73	4856
2026-01-06 12:30:46.66	332.27	7.25	-54.1	-56.6	13.6	0.00e+00	0	29	0	1120927744	73	5054
2026-01-06 12:30:47.66	332.38	7.19	-54.2	-56.8	13.5	0.00e+00	0	29	0	1123024896	73	5164
2026-01-06 12:30:48.66	332.49	7.13	-54.6	-57.3	13.3	0.00e+00	0	29	0	1125122048	74	5189
2026-01-06 12:30:49.66	332.60	7.08	-54.7	-57.5	13.2	0.00e+00	0	29	0	1126170624	74	5303
2026-01-06 12:30:50.66	332.72	7.02	-54.7	-57.5	13.2	0.00e+00	0	29	0	1128267776	74	5290
2026-01-06 12:30:51.66	332.83	6.97	-54.8	-57.6	13.1	0.00e+00	0	29	0	1130364928	74	5358
2026-01-06 12:30:52.66	332.93	6.91	-54.7	-57.4	13.2	0.00e+00	0	29	0	1132462080	74	5247
2026-01-06 12:30:53.66	333.04	6.85	-54.7	-57.5	13.2	0.00e+00	0	29	0	1134559232	74	5320
2026-01-06 12:30:54.65	333.15	6.80	-54.6	-57.4	13.2	0.00e+00	0	29	0	1135607808	74	5231
2026-01-06 12:30:55.65	333.26	6.74	-54.5	-57.2	13.3	0.00e+00	0	29	0	1137704960	74	5124
2026-01-06 12:30:56.65	333.37	6.69	-54.5	-57.1	13.3	0.00e+00	0	29	0	1139802112	74	5095
2026-01-06 12:30:57.65	333.48	6.63	-54.3	-56.9	13.5	0.00e+00	0	29	0	1141899264	74	4952
2026-01-06 12:30:58.65	333.58	6.57	-54.3	-56.9	13.4	0.00e+00	0	29	0	1143996416	74	4968
2026-01-06 12:30:59.65	333.69	6.52	-54.5	-57.1	13.3	0.00e+00	0	29	0	1145044992	74	5096
2026-01-06 12:31:00.65	333.80	6.46	-54.4	-57.1	13.3	0.00e+00	0	29	0	1147142144	74	5064
2026-01-06 12:31:01.65	333.90	6.41	-54.5	-57.1	13.3	0.00e+00	0	29	0	1149239296	74	5082
2026-01-06 12:31:02.66	334.01	6.35	-54.4	-57.0	13.4	0.00e+00	0	29	0	1151336448	74	5032
2026-01-06 12:31:03.66	334.12	6.30	-54.5	-57.3	13.2	0.00e+00	0	29	0	1152385024	74	5160
2026-01-06 12:31:04.67	334.22	6.24	-54.6	-57.3	13.2	0.00e+00	0	29	0	1154482176	74	5189
2026-01-06 12:31:05.67	334.33	6.18	-54.6	-57.3	13.2	0.00e+00	0	29	0	1156579328	74	5214
2026-01-06 12:31:06.68	334.43	6.13	-54.8	-57.8	12.9	0.00e+00	0	29	0	1158676480	74	5499
2026-01-06 12:31:07.68	334.53	6.07	-54.7	-57.6	13.1	0.00e+00	0	29	0	1160773632	75	5070
2026-01-06 12:31:08.68	334.64	6.02	-54.8	-57.7	13.0	0.00e+00	0	29	0	1161822208	75	5147
2026-01-06 12:31:09.68	334.74	5.96	-54.8	-57.8	12.9	0.00e+00	0	29	0	1163919360	75	5192
2026-01-06 12:31:10.67	334.84	5.91	-54.8	-57.8	12.9	0.00e+00	0	29	0	1166016512	75	5190
2026-01-06 12:31:11.67	334.95	5.85	-54.8	-57.7	12.9	0.00e+00	0	29	0	1168113664	75	5138
2026-01-06 12:31:12.67	335.05	5.80	-54.9	-57.9	12.8	0.00e+00	0	29	0	1170210816	75	5246
2026-01-06 12:31:13.67	335.15	5.74	-54.8	-57.8	12.9	0.00e+00	0	29	0	1171259392	75	5177
2026-01-06 12:31:14.67	335.25	5.69	-54.7	-57.7	13.0	0.00e+00	0	29	0	1173356544	75	5119
2026-01-06 12:31:15.67	335.35	5.63	-54.8	-57.8	12.9	0.00e+00	0	29	0	1175453696	75	5196
2026-01-06 12:31:16.67	335.45	5.58	-55.0	-58.1	12.7	0.00e+00	0	29	0	1177550848	75	5389
2026-01-06 12:31:17.66	335.55	5.52	-55.0	-58.2	12.7	0.00e+00	0	29	0	1179648000	75	5407
2026-01-06 12:31:18.66	335.65	5.47	-55.1	-58.3	12.6	0.00e+00	0	29	0	1180696576	75	5468
2026-01-06 12:31:19.66	335.75	5.41	-55.3	-58.7	12.3	0.00e+00	0	29	0	1182793728	75	5773
2026-01-06 12:31:20.66	335.85	5.36	-55.4	-58.9	12.3	0.00e+00	0	29	0	1184890880	75	5857
2026-01-06 12:31:21.65	335.95	5.30	-55.5	-59.0	12.2	0.00e+00	0	29	0	1186988032	76	5616
2026-01-06 12:31:22.65	336.04	5.25	-55.7	-59.3	12.1	1.50e-06	0	29	0	1188036608	76	5809
2026-01-06 12:31:23.65	336.14	5.19	-55.9	-59.7	11.8	3.80e-06	0	29	0	1190133760	77	5769
2026-01-06 12:31:24.65	336.24	5.14	-55.8	-59.7	11.9	4.50e-06	0	29	0	1192230912	77	5724
2026-01-06 12:31:25.64	336.34	5.08	-55.9	-59.7	11.9	7.60e-06	0	29	0	1194328064	77	5742
2026-01-06 12:31:26.64	336.43	5.03	-55.9	-59.7	11.8	3.80e-06	0	29	0	1196425216	77	5739
