passes_logs/2026/01/06/R3.2S_Murmansk/R3.2S_Murmansk__20260106_093335_AQUA_rec.log

#Pass ID: 20260106_093335_AQUA
#Satellite: AQUA
#Configuration: AQUA
#almurnet v.1.7.20251203
#Start time: 2026-01-06 09:33:35

#Version: 2.2.20231116
#Station: R3.2S_Murmansk
#Location: 33.079688 lon 68.888172 lat
#TLE: 1 27424U 02022A   26004.96787593  .00001598  00000+0  32997-3 0  9996
#TLE: 2 27424  98.4069 331.2279 0002002  90.2377   0.6092 14.61798176259425

#Time	Az	El	Level	Level2	SNR	BER	BlckErr	Temp	State	Recorded	gain1	gain2
2026-01-06 09:33:35.21	111.11	2.01	-58.4	-77.7	3.8	7.47e-01	0	28	0	0	86	31623
2026-01-06 09:33:36.20	111.06	2.07	-58.4	-77.5	3.8	7.47e-01	0	28	104	0	84	34636
2026-01-06 09:33:37.18	111.02	2.14	-58.4	-77.4	3.8	7.46e-01	0	28	104	0	84	34197
2026-01-06 09:33:38.18	110.97	2.20	-58.4	-77.5	3.8	7.50e-01	0	28	104	0	84	34548
2026-01-06 09:33:39.16	110.92	2.26	-58.4	-77.3	3.8	7.44e-01	0	28	104	0	84	34063
2026-01-06 09:33:40.15	110.88	2.33	-58.4	-77.3	3.8	7.43e-01	0	28	104	0	84	33729
2026-01-06 09:33:41.13	110.83	2.39	-58.4	-77.5	3.8	7.43e-01	0	28	104	0	84	34770
2026-01-06 09:33:42.13	110.78	2.45	-58.4	-77.6	3.8	7.51e-01	0	28	104	0	84	35131
2026-01-06 09:33:43.12	110.73	2.52	-58.4	-77.6	3.8	7.47e-01	0	28	104	0	84	34972
2026-01-06 09:33:44.11	110.68	2.58	-58.4	-77.6	3.8	7.48e-01	0	28	104	0	84	35249
2026-01-06 09:33:45.10	110.63	2.64	-58.4	-77.5	3.8	7.49e-01	0	28	104	0	84	34765
2026-01-06 09:33:46.09	110.58	2.71	-58.4	-77.4	3.8	7.44e-01	0	28	104	0	84	34249
2026-01-06 09:33:47.07	110.54	2.77	-58.4	-77.2	3.8	7.48e-01	0	28	104	0	84	33679
2026-01-06 09:33:48.07	110.49	2.84	-58.4	-77.5	3.8	7.49e-01	0	28	104	0	84	34624
2026-01-06 09:33:49.06	110.44	2.90	-58.4	-77.6	3.8	7.45e-01	0	28	104	0	84	35011
2026-01-06 09:33:50.04	110.39	2.97	-58.4	-77.5	3.8	7.49e-01	0	28	104	0	84	34541
2026-01-06 09:33:51.03	110.34	3.03	-58.4	-77.4	3.8	7.48e-01	0	28	104	0	84	34316
2026-01-06 09:33:52.01	110.29	3.09	-58.4	-77.4	3.8	7.47e-01	0	28	104	0	84	34132
2026-01-06 09:33:53.00	110.23	3.16	-58.4	-77.4	3.8	7.42e-01	0	28	104	0	84	34138
2026-01-06 09:33:54.00	110.18	3.23	-58.4	-77.2	3.8	7.47e-01	0	28	104	0	84	33471
2026-01-06 09:33:54.98	110.13	3.29	-58.4	-77.1	3.8	7.42e-01	0	28	104	0	84	33213
2026-01-06 09:33:55.97	110.08	3.36	-58.4	-77.3	3.8	7.46e-01	0	28	104	0	84	33799
2026-01-06 09:33:56.95	110.03	3.42	-58.4	-77.2	3.8	7.43e-01	0	28	104	0	84	33379
2026-01-06 09:33:57.94	109.98	3.49	-58.4	-77.1	3.8	7.48e-01	0	28	104	0	84	33171
2026-01-06 09:33:58.93	109.92	3.55	-58.4	-77.2	3.8	7.47e-01	0	28	104	0	84	33405
2026-01-06 09:33:59.91	109.87	3.62	-58.4	-76.8	3.8	7.49e-01	0	28	104	0	84	32007
2026-01-06 09:34:00.90	109.82	3.69	-58.4	-76.5	3.8	7.47e-01	0	28	104	0	84	30920
2026-01-06 09:34:01.89	109.77	3.75	-58.4	-76.1	3.9	7.42e-01	0	28	104	0	84	29414
2026-01-06 09:34:02.88	109.71	3.82	-58.4	-76.2	3.9	7.44e-01	0	28	104	0	84	29804
2026-01-06 09:34:03.86	109.66	3.88	-58.4	-76.0	3.9	7.44e-01	0	28	104	0	84	29248
2026-01-06 09:34:04.84	109.60	3.95	-58.4	-77.1	3.8	7.44e-01	0	29	104	0	84	33088
2026-01-06 09:34:05.83	109.55	4.02	-58.4	-77.6	3.8	7.44e-01	0	28	104	0	84	34912
2026-01-06 09:34:06.81	109.50	4.08	-58.4	-77.2	3.8	7.42e-01	0	28	104	0	84	33447
2026-01-06 09:34:07.79	109.44	4.15	-58.3	-75.6	3.9	7.44e-01	0	28	104	0	84	27883
2026-01-06 09:34:08.78	109.39	4.22	-58.3	-73.3	4.0	7.38e-01	0	28	104	0	84	21425
2026-01-06 09:34:09.77	109.33	4.29	-58.1	-70.2	6.0	6.80e-01	92	29	0	0	84	14973
2026-01-06 09:34:10.75	109.27	4.35	-57.9	-68.2	7.6	6.47e-01	75	29	0	2097152	84	11955
2026-01-06 09:34:11.73	109.22	4.42	-57.7	-66.4	9.2	6.28e-01	0	29	0	3670016	84	9656
2026-01-06 09:34:12.72	109.16	4.49	-57.4	-64.8	10.5	6.17e-01	0	29	0	5767168	84	7996
2026-01-06 09:34:13.70	109.11	4.56	-57.1	-64.1	10.9	6.11e-01	0	29	0	7340032	83	7816
2026-01-06 09:34:14.68	109.05	4.63	-56.7	-62.7	11.8	6.09e-01	0	29	0	9437184	82	7118
2026-01-06 09:34:15.66	108.99	4.69	-56.4	-61.7	12.5	6.08e-01	0	29	0	11010048	82	6336
2026-01-06 09:34:16.64	108.94	4.76	-56.2	-61.1	12.9	6.07e-01	0	29	0	13107200	81	6274
2026-01-06 09:34:17.62	108.88	4.83	-55.9	-60.6	13.2	6.08e-01	0	29	0	14680064	81	5867
2026-01-06 09:34:18.61	108.82	4.90	-55.7	-60.2	13.3	6.08e-01	0	29	0	16777216	80	5948
2026-01-06 09:34:19.59	108.76	4.97	-55.2	-59.1	13.8	6.07e-01	0	29	0	18350080	79	5578
2026-01-06 09:34:20.57	108.70	5.04	-55.0	-58.7	14.0	6.07e-01	0	29	0	20447232	79	5310
2026-01-06 09:34:21.56	108.64	5.11	-55.0	-58.6	14.1	6.09e-01	0	28	0	22020096	79	5239
2026-01-06 09:34:22.54	108.58	5.18	-55.8	-60.1	13.5	6.07e-01	0	29	0	24117248	79	6234
2026-01-06 09:34:23.52	108.53	5.25	-55.0	-58.5	14.1	6.08e-01	0	29	0	25690112	79	5218
2026-01-06 09:34:24.51	108.47	5.32	-52.3	-54.5	15.2	6.07e-01	0	29	0	27787264	73	4633
2026-01-06 09:34:25.49	108.41	5.39	-54.6	-57.9	14.5	6.07e-01	0	29	0	29360128	76	5729
2026-01-06 09:34:26.46	108.35	5.46	-56.6	-62.1	11.9	6.09e-01	0	29	0	31457280	82	6606
2026-01-06 09:34:27.45	108.28	5.53	-52.6	-54.9	15.2	6.08e-01	0	28	0	33030144	74	4593
2026-01-06 09:34:28.43	108.22	5.60	-52.7	-55.1	15.0	6.05e-01	0	28	0	35127296	74	4663
2026-01-06 09:34:29.42	108.16	5.67	-52.3	-54.6	15.1	6.06e-01	0	29	0	37224448	73	4666
2026-01-06 09:34:30.41	108.10	5.74	-52.9	-55.4	14.9	6.07e-01	0	28	0	38797312	73	5111
2026-01-06 09:34:31.41	108.04	5.81	-52.9	-55.4	14.8	6.08e-01	0	29	0	40894464	73	5108
2026-01-06 09:34:32.40	107.97	5.88	-52.5	-54.9	15.0	6.06e-01	0	28	0	42467328	73	4839
2026-01-06 09:34:33.40	107.91	5.96	-52.6	-55.0	15.0	6.06e-01	0	29	0	44564480	73	4905
2026-01-06 09:34:34.39	107.84	6.03	-52.6	-55.0	15.0	6.08e-01	0	28	0	46137344	73	4890
2026-01-06 09:34:35.37	107.78	6.10	-52.8	-55.3	15.0	6.06e-01	0	28	0	48234496	73	5069
2026-01-06 09:34:36.36	107.72	6.17	-52.7	-55.1	14.9	6.06e-01	0	29	0	49807360	73	4945
2026-01-06 09:34:37.35	107.65	6.25	-52.8	-55.2	14.9	6.06e-01	0	29	0	51904512	73	5040
2026-01-06 09:34:38.33	107.59	6.32	-52.6	-54.9	15.1	6.07e-01	0	28	0	53477376	73	4857
2026-01-06 09:34:39.32	107.52	6.39	-52.4	-54.7	15.0	6.07e-01	0	28	0	55574528	73	4715
2026-01-06 09:34:40.30	107.46	6.46	-52.3	-54.6	15.1	6.06e-01	0	29	0	57671680	73	4674
2026-01-06 09:34:41.30	107.39	6.54	-52.6	-55.0	15.1	6.06e-01	0	28	0	59244544	73	4899
2026-01-06 09:34:42.29	107.32	6.61	-52.2	-54.4	15.2	6.07e-01	0	29	0	60817408	73	4564
2026-01-06 09:34:43.28	107.25	6.69	-52.5	-54.8	15.2	6.08e-01	0	28	0	62914560	73	4780
2026-01-06 09:34:44.28	107.19	6.76	-52.5	-54.9	15.0	6.07e-01	0	29	0	65011712	73	4842
2026-01-06 09:34:45.28	107.12	6.84	-51.8	-53.9	15.3	6.06e-01	0	29	0	66584576	72	4580
2026-01-06 09:34:46.27	107.05	6.91	-52.3	-54.6	15.1	6.06e-01	0	29	0	68681728	72	4935
2026-01-06 09:34:47.26	106.98	6.99	-52.0	-54.2	15.2	6.07e-01	0	29	0	70254592	72	4736
2026-01-06 09:34:48.24	106.91	7.06	-52.2	-54.4	15.1	6.07e-01	0	29	0	72351744	72	4836
2026-01-06 09:34:49.24	106.84	7.14	-51.8	-54.0	15.2	6.06e-01	0	29	0	73924608	72	4599
2026-01-06 09:34:50.23	106.77	7.21	-52.1	-54.2	15.1	6.05e-01	0	28	0	76021760	72	4759
2026-01-06 09:34:51.23	106.70	7.29	-52.1	-54.3	15.2	6.06e-01	0	29	0	78118912	72	4808
2026-01-06 09:34:52.23	106.63	7.36	-52.0	-54.1	15.1	6.07e-01	0	29	0	79691776	72	4693
2026-01-06 09:34:53.22	106.56	7.44	-51.8	-54.0	15.2	6.05e-01	0	29	0	81788928	72	4611
2026-01-06 09:34:54.22	106.49	7.52	-52.0	-54.2	15.2	6.05e-01	0	29	0	83361792	72	4740
2026-01-06 09:34:55.21	106.41	7.59	-51.9	-54.1	15.2	6.06e-01	0	29	0	85458944	72	4652
2026-01-06 09:34:56.20	106.34	7.67	-51.8	-53.9	15.2	6.07e-01	0	29	0	87031808	72	4589
2026-01-06 09:34:57.20	106.27	7.75	-51.8	-53.9	15.2	6.09e-01	0	29	0	89128960	72	4560
2026-01-06 09:34:58.19	106.19	7.82	-51.5	-53.6	15.3	6.08e-01	0	29	0	90701824	72	4397
2026-01-06 09:34:59.18	106.12	7.90	-51.8	-53.9	15.3	6.05e-01	0	29	0	92798976	72	4583
2026-01-06 09:35:00.16	106.05	7.98	-51.8	-53.9	15.2	6.07e-01	0	29	0	94896128	72	4563
2026-01-06 09:35:01.17	105.97	8.06	-51.6	-53.6	15.3	6.05e-01	0	29	0	96468992	72	4435
2026-01-06 09:35:02.16	105.90	8.14	-51.2	-53.2	15.3	6.08e-01	0	29	0	98566144	71	4461
2026-01-06 09:35:03.16	105.82	8.22	-51.3	-53.3	15.3	6.07e-01	0	29	0	100139008	71	4544
2026-01-06 09:35:04.15	105.74	8.29	-51.2	-53.2	15.3	6.08e-01	0	29	0	102236160	71	4454
2026-01-06 09:35:05.14	105.67	8.37	-51.3	-53.3	15.3	6.06e-01	0	29	0	103809024	71	4537
2026-01-06 09:35:06.13	105.59	8.45	-51.1	-53.0	15.4	6.06e-01	0	29	0	105906176	71	4370
2026-01-06 09:35:07.12	105.51	8.53	-51.1	-53.1	15.4	6.07e-01	0	29	0	107479040	71	4394
2026-01-06 09:35:08.11	105.43	8.61	-51.0	-52.9	15.4	6.07e-01	0	29	0	109576192	71	4327
2026-01-06 09:35:09.11	105.35	8.69	-50.8	-52.6	15.4	6.07e-01	0	29	0	111673344	70	4433
2026-01-06 09:35:10.11	105.27	8.77	-50.8	-52.7	15.4	6.06e-01	0	29	0	113246208	70	4453
2026-01-06 09:35:11.10	105.20	8.85	-50.7	-52.5	15.5	6.06e-01	0	29	0	114819072	70	4359
2026-01-06 09:35:12.09	105.12	8.93	-50.8	-52.7	15.4	6.08e-01	0	29	0	116916224	70	4456
2026-01-06 09:35:13.08	105.03	9.01	-50.7	-52.6	15.4	6.07e-01	0	29	0	119013376	70	4417
2026-01-06 09:35:14.07	104.95	9.09	-50.5	-52.3	15.5	6.06e-01	0	29	0	120586240	70	4251
2026-01-06 09:35:15.07	104.87	9.17	-50.7	-52.5	15.4	6.05e-01	0	29	0	122683392	70	4385
2026-01-06 09:35:16.06	104.79	9.26	-50.6	-52.5	15.5	6.08e-01	0	29	0	124256256	70	4352
2026-01-06 09:35:17.05	104.71	9.34	-50.6	-52.4	15.5	6.07e-01	0	29	0	126353408	70	4312
2026-01-06 09:35:18.04	104.62	9.42	-50.6	-52.4	15.5	6.07e-01	0	29	0	127926272	70	4319
2026-01-06 09:35:19.04	104.54	9.50	-50.7	-52.5	15.5	6.07e-01	0	29	0	130023424	70	4365
2026-01-06 09:35:20.04	104.45	9.58	-50.6	-52.4	15.5	6.07e-01	0	29	0	132120576	70	4324
2026-01-06 09:35:21.04	104.37	9.67	-50.5	-52.3	15.5	6.07e-01	0	29	0	133693440	70	4264
2026-01-06 09:35:22.03	104.28	9.75	-50.5	-52.2	15.5	6.06e-01	0	29	0	135790592	70	4241
2026-01-06 09:35:23.02	104.20	9.83	-50.4	-52.1	15.4	6.07e-01	0	29	0	137363456	69	4433
2026-01-06 09:35:24.02	104.11	9.92	-50.3	-52.1	15.4	6.07e-01	0	29	0	139460608	69	4405
2026-01-06 09:35:25.01	104.02	10.00	-50.2	-52.0	15.5	6.08e-01	0	29	0	141033472	69	4371
2026-01-06 09:35:26.01	103.94	10.09	-50.3	-52.1	15.5	6.07e-01	0	29	0	143130624	69	4420
2026-01-06 09:35:27.00	103.85	10.17	-50.3	-52.1	15.5	6.06e-01	0	29	0	145227776	69	4411
2026-01-06 09:35:27.99	103.76	10.25	-50.4	-52.2	15.4	6.07e-01	0	29	0	146800640	69	4457
2026-01-06 09:35:28.98	103.67	10.34	-50.3	-52.1	15.5	6.04e-01	0	29	0	148897792	69	4421
2026-01-06 09:35:29.97	103.58	10.42	-50.3	-52.1	15.5	6.06e-01	0	29	0	150470656	69	4408
2026-01-06 09:35:30.98	103.49	10.51	-50.3	-52.1	15.5	6.07e-01	0	29	0	152567808	69	4401
2026-01-06 09:35:31.98	103.40	10.60	-50.2	-52.0	15.5	6.07e-01	0	29	0	154140672	69	4346
2026-01-06 09:35:32.96	103.31	10.68	-50.3	-52.1	15.5	6.07e-01	0	29	0	156237824	69	4420
2026-01-06 09:35:33.96	103.21	10.77	-50.3	-52.1	15.5	6.06e-01	0	29	0	157810688	69	4392
2026-01-06 09:35:34.96	103.12	10.85	-50.3	-52.0	15.5	6.09e-01	0	29	0	159907840	69	4376
2026-01-06 09:35:35.95	103.03	10.94	-50.3	-52.0	15.5	6.07e-01	0	29	0	161480704	69	4382
2026-01-06 09:35:36.94	102.93	11.03	-50.3	-52.1	15.5	6.05e-01	0	29	0	163577856	69	4402
2026-01-06 09:35:37.93	102.84	11.11	-50.3	-52.0	15.5	6.07e-01	0	29	0	165675008	69	4384
2026-01-06 09:35:38.93	102.74	11.20	-50.1	-51.8	15.5	6.06e-01	0	29	0	167247872	69	4274
2026-01-06 09:35:39.92	102.65	11.29	-50.2	-51.9	15.5	6.06e-01	0	29	0	169345024	69	4307
2026-01-06 09:35:40.92	102.55	11.38	-50.1	-51.8	15.5	6.07e-01	0	29	0	170917888	69	4284
2026-01-06 09:35:41.92	102.45	11.47	-50.1	-51.8	15.5	6.08e-01	0	29	0	173015040	69	4261
2026-01-06 09:35:42.92	102.35	11.56	-50.1	-51.8	15.6	6.06e-01	0	29	0	174587904	69	4260
2026-01-06 09:35:43.91	102.26	11.64	-50.1	-51.8	15.5	6.07e-01	0	29	0	176685056	69	4270
2026-01-06 09:35:44.90	102.16	11.73	-50.1	-51.8	15.5	6.07e-01	0	29	0	178257920	69	4265
2026-01-06 09:35:45.89	102.06	11.82	-50.2	-51.9	15.5	6.06e-01	0	29	0	180355072	69	4315
2026-01-06 09:35:46.89	101.96	11.91	-50.0	-51.7	15.6	6.07e-01	0	29	0	182452224	69	4228
2026-01-06 09:35:47.88	101.85	12.00	-50.0	-51.7	15.6	6.06e-01	0	29	0	184025088	69	4230
2026-01-06 09:35:48.87	101.75	12.09	-50.1	-51.8	15.6	6.05e-01	0	29	0	186122240	69	4249
2026-01-06 09:35:49.85	101.65	12.18	-50.1	-51.8	15.5	6.06e-01	0	29	0	187695104	69	4268
2026-01-06 09:35:50.85	101.55	12.27	-50.1	-51.8	15.5	6.05e-01	0	29	0	189792256	69	4261
2026-01-06 09:35:51.85	101.44	12.36	-50.1	-51.8	15.5	6.07e-01	0	29	0	191365120	69	4267
2026-01-06 09:35:52.85	101.34	12.46	-50.1	-51.8	15.6	6.07e-01	0	29	0	193462272	69	4271
2026-01-06 09:35:53.84	101.23	12.55	-50.0	-51.7	15.6	6.07e-01	0	29	0	195035136	69	4209
2026-01-06 09:35:54.84	101.13	12.64	-50.1	-51.9	15.5	6.07e-01	0	29	0	197132288	69	4294
2026-01-06 09:35:55.82	101.02	12.73	-50.0	-51.6	15.6	6.06e-01	0	29	0	199229440	69	4187
2026-01-06 09:35:56.82	100.91	12.82	-50.0	-51.7	15.6	6.06e-01	0	29	0	200802304	69	4207
2026-01-06 09:35:57.81	100.80	12.92	-50.0	-51.6	15.6	6.06e-01	0	29	0	202899456	69	4183
2026-01-06 09:35:58.80	100.69	13.01	-50.0	-51.7	15.6	6.06e-01	0	28	0	204472320	69	4218
2026-01-06 09:35:59.79	100.58	13.10	-50.0	-51.7	15.6	6.05e-01	0	29	0	206569472	69	4224
2026-01-06 09:36:00.79	100.47	13.20	-49.9	-51.6	15.6	6.07e-01	0	29	0	208142336	69	4149
2026-01-06 09:36:01.79	100.36	13.29	-49.9	-51.5	15.5	6.08e-01	0	29	0	210239488	68	4373
2026-01-06 09:36:02.79	100.25	13.39	-49.9	-51.5	15.5	6.04e-01	0	29	0	211812352	68	4375
2026-01-06 09:36:03.79	100.13	13.48	-49.9	-51.5	15.5	6.04e-01	0	29	0	213909504	68	4378
2026-01-06 09:36:04.78	100.02	13.58	-49.8	-51.5	15.5	6.05e-01	0	29	0	216006656	68	4360
2026-01-06 09:36:05.78	99.90	13.67	-49.9	-51.5	15.5	6.06e-01	0	29	0	217579520	68	4381
2026-01-06 09:36:06.77	99.79	13.77	-49.7	-51.4	15.3	6.07e-01	0	29	0	219676672	68	4313
2026-01-06 09:36:07.78	99.67	13.86	-49.8	-51.5	15.5	6.07e-01	0	29	0	221249536	68	4364
2026-01-06 09:36:08.77	99.55	13.96	-49.9	-51.5	15.5	6.05e-01	0	29	0	223346688	68	4388
2026-01-06 09:36:09.77	99.44	14.06	-49.8	-51.4	15.5	6.05e-01	0	29	0	224919552	68	4322
2026-01-06 09:36:10.76	99.32	14.15	-49.8	-51.4	15.5	6.05e-01	0	29	0	227016704	68	4321
2026-01-06 09:36:11.75	99.20	14.25	-49.8	-51.5	15.5	6.05e-01	0	29	0	229113856	68	4356
2026-01-06 09:36:12.74	99.08	14.35	-49.7	-51.3	15.6	6.06e-01	0	29	0	230686720	68	4281
2026-01-06 09:36:13.73	98.96	14.44	-49.7	-51.3	15.6	6.06e-01	0	29	0	232783872	68	4285
2026-01-06 09:36:14.72	98.83	14.54	-49.8	-51.4	15.5	6.06e-01	0	29	0	234356736	68	4317
2026-01-06 09:36:15.71	98.71	14.64	-49.8	-51.4	15.5	6.05e-01	0	29	0	236453888	68	4314
2026-01-06 09:36:16.71	98.59	14.74	-49.6	-51.2	15.6	6.07e-01	0	29	0	238026752	68	4226
2026-01-06 09:36:17.70	98.46	14.84	-49.6	-51.3	15.6	6.07e-01	0	29	0	240123904	68	4249
2026-01-06 09:36:18.69	98.34	14.94	-49.6	-51.2	15.6	6.07e-01	0	29	0	241696768	68	4201
2026-01-06 09:36:19.68	98.21	15.04	-49.7	-51.3	15.6	6.04e-01	0	29	0	243793920	68	4253
2026-01-06 09:36:20.67	98.08	15.14	-49.7	-51.3	15.6	6.06e-01	0	29	0	245366784	68	4280
2026-01-06 09:36:21.67	97.95	15.24	-49.6	-51.2	15.6	6.07e-01	0	29	0	247463936	68	4226
2026-01-06 09:36:22.65	97.83	15.33	-49.7	-51.3	15.6	6.07e-01	0	29	0	249561088	68	4260
2026-01-06 09:36:23.65	97.69	15.44	-49.7	-51.4	15.6	6.10e-01	0	29	0	251133952	68	4293
2026-01-06 09:36:24.65	97.56	15.54	-49.8	-51.4	15.5	6.07e-01	0	29	0	253231104	68	4332
2026-01-06 09:36:25.64	97.43	15.64	-49.7	-51.3	15.6	6.06e-01	0	29	0	254803968	68	4278
2026-01-06 09:36:26.64	97.29	15.74	-49.6	-51.2	15.6	6.05e-01	0	29	0	256901120	68	4241
2026-01-06 09:36:27.63	97.16	15.84	-49.6	-51.2	15.6	6.06e-01	0	29	0	258473984	68	4194
2026-01-06 09:36:28.62	97.03	15.95	-49.5	-51.1	15.6	6.03e-01	0	29	0	260571136	68	4189
2026-01-06 09:36:29.61	96.89	16.05	-49.5	-51.1	15.6	6.06e-01	0	29	0	262144000	68	4187
2026-01-06 09:36:30.61	96.75	16.15	-49.5	-51.1	15.6	6.07e-01	0	29	0	264241152	68	4186
2026-01-06 09:36:31.60	96.61	16.25	-49.9	-61.1	3.9	7.46e-01	0	29	104	265289728	68	13207
2026-01-06 09:36:32.60	96.47	16.36	-49.9	-61.3	3.8	7.49e-01	0	29	104	265289728	68	13475
2026-01-06 09:36:33.59	96.33	16.46	-55.6	-68.2	3.9	7.43e-01	0	29	104	265289728	78	16714
2026-01-06 09:36:34.59	96.19	16.57	-50.0	-61.3	3.8	7.49e-01	0	29	104	265289728	69	12805
2026-01-06 09:36:35.58	96.05	16.67	-54.9	-67.2	3.9	7.43e-01	0	29	104	265289728	77	15862
2026-01-06 09:36:36.57	95.90	16.78	-54.5	-66.7	3.8	7.44e-01	0	29	104	265289728	78	14199
2026-01-06 09:36:37.56	95.76	16.88	-55.8	-68.6	3.9	7.44e-01	0	29	104	265289728	79	16680
2026-01-06 09:36:38.55	95.61	16.99	-54.9	-67.4	3.8	7.46e-01	0	29	104	265289728	79	14457
2026-01-06 09:36:39.54	95.47	17.09	-52.9	-64.5	3.9	7.41e-01	0	29	104	265289728	74	13814
2026-01-06 09:36:40.53	95.32	17.20	-52.8	-64.5	4.0	7.41e-01	0	29	104	265289728	74	13754
2026-01-06 09:36:41.53	95.17	17.30	-55.9	-68.9	3.8	7.49e-01	0	29	104	265289728	79	17277
2026-01-06 09:36:42.52	95.02	17.41	-55.2	-67.8	3.8	7.44e-01	0	29	104	265289728	79	15054
2026-01-06 09:36:43.52	94.87	17.52	-55.1	-67.5	3.8	7.46e-01	0	29	104	265289728	77	16370
2026-01-06 09:36:44.52	94.71	17.63	-56.2	-69.5	3.8	7.47e-01	0	29	104	265289728	81	16375
2026-01-06 09:36:45.52	94.56	17.73	-53.1	-64.9	3.8	7.49e-01	0	29	104	265289728	75	13683
2026-01-06 09:36:46.52	94.40	17.84	-52.4	-64.1	3.8	7.45e-01	0	29	104	265289728	73	13897
2026-01-06 09:36:47.52	94.24	17.95	-52.5	-64.2	3.8	7.48e-01	0	29	104	265289728	73	14055
2026-01-06 09:36:48.51	94.09	18.06	-52.2	-63.6	4.1	7.37e-01	0	29	104	265289728	73	13184
2026-01-06 09:36:49.51	93.93	18.17	-52.0	-63.4	3.9	7.39e-01	0	29	104	265289728	72	13572
2026-01-06 09:36:50.50	93.77	18.28	-53.8	-65.8	3.7	7.46e-01	0	29	104	265289728	75	15194
2026-01-06 09:36:51.50	93.60	18.39	-54.8	-67.0	3.8	7.49e-01	0	29	104	265289728	77	15500
2026-01-06 09:36:52.49	93.44	18.50	-55.1	-67.6	3.9	7.47e-01	0	29	104	265289728	79	14792
2026-01-06 09:36:53.48	93.28	18.61	-54.7	-66.7	3.8	7.48e-01	0	29	104	265289728	76	15803
2026-01-06 09:36:54.48	93.11	18.72	-55.6	-68.4	3.9	7.41e-01	0	29	104	265289728	80	15371
2026-01-06 09:36:55.47	92.95	18.83	-52.6	-64.2	3.8	7.45e-01	0	29	104	265289728	74	13365
2026-01-06 09:36:56.46	92.78	18.94	-51.8	-63.3	3.8	7.46e-01	0	29	104	265289728	72	13512
2026-01-06 09:36:57.46	92.61	19.05	-53.9	-65.9	3.8	7.43e-01	0	29	104	265289728	75	15352
2026-01-06 09:36:58.46	92.44	19.17	-54.6	-67.0	3.9	7.47e-01	0	29	104	265289728	78	14551
2026-01-06 09:36:59.46	92.26	19.28	-54.4	-66.6	3.8	7.41e-01	0	29	104	265289728	76	15702
2026-01-06 09:37:00.43	92.10	19.39	-56.4	-69.8	3.8	7.47e-01	0	29	104	265289728	82	15986
2026-01-06 09:37:01.40	91.93	19.50	-54.6	-67.0	3.9	7.46e-01	0	29	104	265289728	78	14564
2026-01-06 09:37:02.39	91.75	19.61	-51.0	-62.4	3.8	7.49e-01	0	29	104	265289728	71	12929
2026-01-06 09:37:03.39	91.57	19.72	-51.1	-62.5	3.8	7.42e-01	0	29	104	265289728	71	13024
2026-01-06 09:37:04.38	91.39	19.84	-50.5	-61.8	3.8	7.47e-01	0	29	104	265289728	70	12784
2026-01-06 09:37:05.38	91.21	19.95	-50.2	-61.5	3.8	7.46e-01	0	29	104	265289728	69	12986
2026-01-06 09:37:06.37	91.03	20.07	-50.4	-61.8	3.8	7.46e-01	0	29	104	265289728	69	13418
2026-01-06 09:37:07.37	90.85	20.18	-54.4	-66.7	3.9	7.46e-01	0	29	104	265289728	78	14049
2026-01-06 09:37:08.36	90.66	20.29	-55.8	-68.6	3.9	7.47e-01	0	29	104	265289728	80	15662
2026-01-06 09:37:09.36	90.48	20.41	-53.2	-65.0	3.8	7.44e-01	0	29	104	265289728	74	14615
2026-01-06 09:37:10.36	90.29	20.53	-56.6	-70.1	3.9	7.42e-01	0	29	104	265289728	82	16683
2026-01-06 09:37:11.35	90.10	20.64	-53.1	-64.8	3.8	7.49e-01	0	29	104	265289728	74	14321
2026-01-06 09:37:12.34	89.91	20.76	-52.5	-64.2	3.9	7.46e-01	0	29	104	265289728	74	13285
2026-01-06 09:37:13.33	89.72	20.87	-53.0	-64.7	3.8	7.46e-01	0	29	104	265289728	73	14997
2026-01-06 09:37:14.32	89.53	20.99	-55.7	-68.6	3.9	7.44e-01	0	29	104	265289728	80	15704
2026-01-06 09:37:15.32	89.33	21.10	-53.1	-64.9	3.9	7.46e-01	0	29	104	265289728	75	13570
2026-01-06 09:37:16.32	89.13	21.22	-57.1	-71.1	3.9	7.46e-01	0	29	104	265289728	83	17638
2026-01-06 09:37:17.31	88.93	21.34	-55.4	-68.1	3.9	7.45e-01	0	29	104	265289728	80	14855
2026-01-06 09:37:18.30	88.73	21.45	-51.2	-62.7	3.8	7.44e-01	0	29	104	265289728	71	13392
2026-01-06 09:37:19.31	88.53	21.57	-51.2	-62.6	3.8	7.45e-01	0	29	104	265289728	71	13218
2026-01-06 09:37:20.29	88.33	21.69	-50.6	-62.0	3.8	7.47e-01	0	29	104	265289728	70	13016
2026-01-06 09:37:21.29	88.12	21.81	-50.2	-61.6	3.8	7.45e-01	0	29	104	265289728	69	13137
2026-01-06 09:37:22.28	87.92	21.93	-51.0	-62.4	3.8	7.47e-01	0	29	104	265289728	69	14534
2026-01-06 09:37:23.28	87.71	22.04	-54.6	-66.8	3.8	7.45e-01	0	29	104	265289728	78	14355
2026-01-06 09:37:24.28	87.50	22.16	-56.2	-69.5	3.9	7.46e-01	0	29	104	265289728	81	16488
2026-01-06 09:37:25.27	87.29	22.28	-52.8	-64.6	3.9	7.48e-01	0	29	104	265289728	74	13926
2026-01-06 09:37:26.27	87.07	22.40	-57.6	-72.2	3.9	7.45e-01	0	29	104	265289728	84	18864
2026-01-06 09:37:27.27	86.86	22.52	-53.1	-64.9	3.8	7.46e-01	0	29	104	265289728	75	13726
2026-01-06 09:37:28.26	86.64	22.64	-52.8	-64.5	3.8	7.46e-01	0	29	104	265289728	74	13817
2026-01-06 09:37:29.25	86.42	22.76	-53.4	-65.2	3.8	7.50e-01	0	29	104	265289728	74	15011
2026-01-06 09:37:30.24	86.20	22.88	-56.4	-69.8	3.9	7.44e-01	0	29	104	265289728	81	17058
2026-01-06 09:37:31.23	85.98	23.00	-53.1	-64.9	3.8	7.43e-01	0	29	104	265289728	75	13712
2026-01-06 09:37:32.23	85.76	23.12	-58.0	-73.0	3.9	7.48e-01	0	29	104	265289728	84	20727
2026-01-06 09:37:33.22	85.53	23.24	-56.2	-69.3	3.9	7.46e-01	0	29	104	265289728	81	16085
2026-01-06 09:37:34.22	85.30	23.36	-51.3	-62.7	3.8	7.43e-01	0	29	104	265289728	71	13323
2026-01-06 09:37:35.22	85.07	23.48	-51.2	-62.6	3.8	7.45e-01	0	29	104	265289728	71	13189
2026-01-06 09:37:36.21	84.84	23.60	-51.0	-62.4	3.8	7.47e-01	0	29	104	265289728	71	12875
2026-01-06 09:37:37.20	84.61	23.72	-50.4	-61.7	3.8	7.48e-01	0	29	104	265289728	70	12556
2026-01-06 09:37:38.20	84.37	23.84	-50.3	-61.6	3.9	7.44e-01	0	29	104	265289728	69	13222
2026-01-06 09:37:39.19	84.14	23.96	-55.0	-67.5	3.9	7.44e-01	0	29	104	265289728	78	15449
2026-01-06 09:37:40.18	83.90	24.08	-56.7	-70.4	3.9	7.46e-01	0	29	104	265289728	82	17208
2026-01-06 09:37:41.18	83.66	24.20	-53.0	-64.7	3.8	7.41e-01	0	29	104	265289728	75	13349
2026-01-06 09:37:42.17	83.41	24.32	-58.1	-73.4	3.9	7.44e-01	0	29	104	265289728	84	21522
2026-01-06 09:37:43.16	83.17	24.44	-53.2	-65.0	3.8	7.46e-01	0	29	104	265289728	75	13836
2026-01-06 09:37:44.15	82.92	24.56	-53.2	-65.0	3.8	7.45e-01	0	29	104	265289728	74	14668
2026-01-06 09:37:45.15	82.67	24.68	-52.5	-64.2	3.8	7.46e-01	0	29	104	265289728	74	13275
2026-01-06 09:37:46.14	82.42	24.80	-56.9	-70.6	3.9	7.47e-01	0	29	104	265289728	82	17540
2026-01-06 09:37:47.13	82.17	24.93	-53.5	-65.4	3.9	7.45e-01	0	29	104	265289728	76	13606
2026-01-06 09:37:48.12	81.92	25.05	-58.3	-74.0	3.9	7.45e-01	0	29	104	265289728	84	23100
2026-01-06 09:37:49.12	81.66	25.17	-56.9	-70.8	3.9	7.48e-01	0	29	104	265289728	82	17905
2026-01-06 09:37:50.11	81.40	25.29	-51.2	-62.6	3.8	7.43e-01	0	29	104	265289728	71	13142
2026-01-06 09:37:51.11	81.14	25.41	-51.1	-62.6	3.8	7.47e-01	0	29	104	265289728	71	13130
2026-01-06 09:37:52.10	80.88	25.53	-51.0	-62.4	3.8	7.47e-01	0	29	104	265289728	71	12859
2026-01-06 09:37:53.09	80.61	25.65	-51.1	-62.5	3.8	7.42e-01	0	29	104	265289728	71	12993
2026-01-06 09:37:54.10	80.34	25.77	-52.2	-63.8	3.8	7.44e-01	0	29	104	265289728	72	14373
2026-01-06 09:37:55.10	80.07	25.90	-55.3	-67.9	3.8	7.49e-01	0	29	104	265289728	78	16198
2026-01-06 09:37:56.09	79.80	26.02	-57.1	-71.2	3.8	7.44e-01	0	29	104	265289728	82	18755
2026-01-06 09:37:57.08	79.53	26.14	-51.4	-62.9	3.8	7.43e-01	0	29	104	265289728	72	12832
2026-01-06 09:37:58.08	79.25	26.26	-58.5	-74.6	3.8	7.45e-01	0	29	104	265289728	84	24792
2026-01-06 09:37:59.07	78.97	26.38	-51.9	-63.4	3.8	7.44e-01	0	29	104	265289728	72	13620
2026-01-06 09:38:00.06	78.69	26.50	-51.6	-63.0	3.8	7.46e-01	0	29	104	265289728	72	13054
2026-01-06 09:38:01.05	78.41	26.62	-51.3	-62.7	3.8	7.45e-01	0	29	104	265289728	71	13333
2026-01-06 09:38:02.05	78.12	26.74	-56.2	-69.3	3.9	7.47e-01	0	29	104	265289728	80	16962
2026-01-06 09:38:03.04	77.84	26.86	-53.6	-65.5	3.8	7.45e-01	0	29	104	265289728	76	13769
2026-01-06 09:38:04.03	77.55	26.97	-58.7	-75.0	3.8	7.43e-01	0	29	104	265289728	85	24435
2026-01-06 09:38:05.02	77.26	27.09	-57.2	-71.1	3.9	7.41e-01	0	29	104	265289728	82	18683
2026-01-06 09:38:06.01	76.97	27.21	-50.9	-62.2	3.8	7.50e-01	0	29	104	265289728	70	13404
2026-01-06 09:38:07.00	76.67	27.33	-50.9	-62.3	3.8	7.47e-01	0	29	104	265289728	70	13499
2026-01-06 09:38:07.99	76.37	27.45	-50.5	-61.8	3.8	7.48e-01	0	29	104	265289728	70	12751
2026-01-06 09:38:08.99	76.07	27.57	-50.4	-61.7	3.9	7.44e-01	0	29	104	265289728	69	13292
2026-01-06 09:38:09.98	75.77	27.68	-50.4	-61.6	3.8	7.48e-01	0	29	104	265289728	69	13249
2026-01-06 09:38:10.98	75.46	27.80	-55.3	-67.8	3.9	7.45e-01	0	29	104	265289728	78	16095
2026-01-06 09:38:11.98	75.15	27.92	-57.4	-71.6	3.8	7.41e-01	0	29	104	265289728	82	19739
2026-01-06 09:38:12.97	74.84	28.04	-51.5	-62.9	3.8	7.45e-01	0	29	104	265289728	72	12854
2026-01-06 09:38:13.96	74.53	28.15	-58.6	-74.5	3.8	7.46e-01	0	29	104	265289728	84	24625
2026-01-06 09:38:14.96	74.21	28.27	-51.3	-62.6	3.8	7.48e-01	0	29	104	265289728	71	13166
2026-01-06 09:38:15.95	73.90	28.38	-51.3	-62.6	3.9	7.44e-01	0	29	104	265289728	71	13247
2026-01-06 09:38:16.95	73.58	28.50	-51.4	-62.9	3.8	7.46e-01	0	29	104	265289728	71	13610
2026-01-06 09:38:17.94	73.26	28.61	-59.4	-78.0	3.8	7.46e-01	0	29	104	265289728	86	32857
2026-01-06 09:38:18.94	72.93	28.73	-53.9	-65.9	3.8	7.47e-01	0	29	104	265289728	77	13710
2026-01-06 09:38:19.92	72.61	28.84	-58.7	-74.9	3.8	7.49e-01	0	29	104	265289728	85	24196
2026-01-06 09:38:20.92	72.28	28.95	-57.3	-71.3	3.8	7.43e-01	0	29	104	265289728	82	19077
2026-01-06 09:38:21.90	71.95	29.06	-50.7	-62.0	3.8	7.46e-01	0	29	104	265289728	70	13018
2026-01-06 09:38:22.90	71.61	29.18	-50.7	-62.0	3.8	7.45e-01	0	29	104	265289728	70	13027
2026-01-06 09:38:23.89	71.28	29.29	-50.2	-61.5	3.8	7.46e-01	0	29	104	265289728	69	13058
2026-01-06 09:38:24.89	70.94	29.40	-49.7	-60.9	3.8	7.46e-01	0	29	104	265289728	68	12890
2026-01-06 09:38:25.88	70.60	29.51	-50.7	-62.1	3.9	7.41e-01	0	29	104	265289728	69	13927
2026-01-06 09:38:26.87	70.25	29.62	-54.7	-67.1	3.8	7.49e-01	0	29	104	265289728	77	15608
2026-01-06 09:38:27.87	69.90	29.73	-57.4	-71.5	3.9	7.43e-01	0	29	104	265289728	82	19392
2026-01-06 09:38:28.86	69.56	29.83	-51.8	-63.1	3.9	7.45e-01	0	29	104	265289728	72	13251
2026-01-06 09:38:29.86	69.20	29.94	-58.5	-74.1	3.8	7.45e-01	0	29	104	265289728	84	23320
2026-01-06 09:38:30.85	68.85	30.05	-52.2	-63.7	3.9	7.46e-01	0	29	104	265289728	73	13319
2026-01-06 09:38:31.84	68.50	30.15	-51.6	-63.0	3.9	7.45e-01	0	29	104	265289728	72	12990
2026-01-06 09:38:32.83	68.14	30.26	-51.1	-62.4	3.8	7.44e-01	0	29	104	265289728	71	12913
2026-01-06 09:38:33.83	67.78	30.36	-56.4	-69.5	3.9	7.43e-01	0	29	104	265289728	80	17332
2026-01-06 09:38:34.82	67.42	30.47	-53.8	-65.6	3.9	7.44e-01	0	29	104	265289728	76	13934
2026-01-06 09:38:35.82	67.05	30.57	-58.6	-74.2	3.8	7.46e-01	0	29	104	265289728	84	23619
2026-01-06 09:38:36.82	66.68	30.67	-57.2	-71.0	3.8	7.44e-01	0	29	104	265289728	82	18436
2026-01-06 09:38:37.81	66.31	30.77	-50.7	-62.0	3.9	7.43e-01	0	29	104	265289728	70	13064
2026-01-06 09:38:38.81	65.93	30.87	-50.6	-61.9	3.8	7.43e-01	0	29	104	265289728	70	12831
2026-01-06 09:38:39.79	65.56	30.97	-50.3	-61.6	3.8	7.43e-01	0	29	104	265289728	69	13175
2026-01-06 09:38:40.79	65.18	31.07	-49.8	-61.0	3.8	7.44e-01	0	29	104	265289728	68	13012
2026-01-06 09:38:41.78	64.81	31.16	-50.5	-61.8	3.8	7.45e-01	0	29	104	265289728	68	14307
2026-01-06 09:38:42.78	64.42	31.26	-53.8	-65.7	3.8	7.44e-01	0	29	104	265289728	75	14942
2026-01-06 09:38:43.77	64.04	31.35	-57.4	-71.3	3.8	7.45e-01	0	29	104	265289728	82	19155
2026-01-06 09:38:44.76	63.65	31.44	-52.7	-64.3	3.9	7.44e-01	0	29	104	265289728	74	13536
2026-01-06 09:38:45.74	63.27	31.54	-57.8	-72.3	3.8	7.45e-01	0	29	104	265289728	83	20116
2026-01-06 09:38:46.73	62.88	31.63	-52.8	-64.3	3.9	7.44e-01	0	29	104	265289728	74	13432
2026-01-06 09:38:47.74	62.48	31.72	-51.8	-63.3	3.9	7.43e-01	0	29	104	265289728	72	13449
2026-01-06 09:38:48.73	62.09	31.81	-51.3	-62.8	3.9	7.43e-01	0	29	104	265289728	71	13419
2026-01-06 09:38:49.72	61.69	31.89	-57.3	-71.2	3.8	7.49e-01	0	29	104	265289728	82	18930
2026-01-06 09:38:50.72	61.29	31.98	-54.6	-66.8	3.9	7.41e-01	0	29	104	265289728	78	14261
2026-01-06 09:38:51.72	60.88	32.06	-58.0	-72.8	3.8	7.46e-01	0	29	104	265289728	83	21402
2026-01-06 09:38:52.71	60.48	32.15	-57.1	-70.7	3.8	7.44e-01	0	29	104	265289728	82	17768
2026-01-06 09:38:53.71	60.07	32.23	-51.1	-62.4	3.9	7.46e-01	0	29	104	265289728	71	12842
2026-01-06 09:38:54.70	59.66	32.31	-50.8	-62.2	3.9	7.46e-01	0	29	104	265289728	70	13282
2026-01-06 09:38:55.70	59.25	32.39	-50.7	-62.1	3.9	7.44e-01	0	29	104	265289728	70	13204
2026-01-06 09:38:56.69	58.84	32.47	-50.1	-61.4	3.9	7.46e-01	0	29	104	265289728	69	12844
2026-01-06 09:38:57.68	58.42	32.54	-50.7	-62.0	3.9	7.47e-01	0	29	104	265289728	69	13752
2026-01-06 09:38:58.68	58.00	32.62	-53.0	-64.6	3.9	7.44e-01	0	29	104	265289728	73	14822
2026-01-06 09:38:59.67	57.59	32.69	-57.1	-70.7	3.8	7.47e-01	0	29	104	265289728	81	18738
2026-01-06 09:39:00.67	57.16	32.77	-53.6	-65.5	3.9	7.45e-01	0	29	104	265289728	76	13847
2026-01-06 09:39:01.67	56.74	32.84	-57.6	-71.6	3.8	7.49e-01	0	29	104	265289728	82	19738
2026-01-06 09:39:02.66	56.31	32.91	-53.0	-64.7	3.9	7.45e-01	0	29	104	265289728	75	13300
2026-01-06 09:39:03.65	55.89	32.97	-51.8	-63.3	3.9	7.47e-01	0	29	104	265289728	72	13560
2026-01-06 09:39:04.64	55.46	33.04	-51.1	-62.4	3.9	7.48e-01	0	29	104	265289728	71	12876
2026-01-06 09:39:05.64	55.03	33.10	-55.6	-68.1	3.8	7.45e-01	0	29	104	265289728	78	16586
2026-01-06 09:39:06.63	54.60	33.16	-54.8	-67.0	3.9	7.43e-01	0	29	104	265289728	78	14585
2026-01-06 09:39:07.63	54.16	33.23	-57.5	-71.5	3.8	7.44e-01	0	29	104	265289728	82	19566
2026-01-06 09:39:08.63	53.73	33.28	-57.4	-71.3	3.8	7.48e-01	0	29	104	265289728	83	17983
2026-01-06 09:39:09.62	53.29	33.34	-52.0	-63.4	3.9	7.46e-01	0	29	104	265289728	73	12919
2026-01-06 09:39:10.61	52.85	33.40	-51.0	-62.4	3.9	7.47e-01	0	29	104	265289728	71	12851
2026-01-06 09:39:11.60	52.42	33.45	-50.8	-62.1	3.8	7.44e-01	0	29	104	265289728	70	13258
2026-01-06 09:39:12.60	51.97	33.50	-50.4	-61.6	3.9	7.45e-01	0	29	104	265289728	70	12516
2026-01-06 09:39:13.59	51.53	33.55	-50.9	-62.3	3.9	7.45e-01	0	29	104	265289728	69	14320
2026-01-06 09:39:14.58	51.09	33.60	-52.3	-63.9	3.9	7.44e-01	0	29	104	265289728	72	14500
2026-01-06 09:39:15.57	50.64	33.65	-56.6	-69.6	3.9	7.51e-01	0	29	104	265289728	80	17580
2026-01-06 09:39:16.57	50.20	33.69	-54.9	-67.2	3.9	7.43e-01	0	29	104	265289728	79	14150
2026-01-06 09:39:17.56	49.75	33.74	-57.0	-70.4	3.8	7.48e-01	0	29	104	265289728	81	18117
2026-01-06 09:39:18.55	49.30	33.78	-54.2	-66.1	3.9	7.46e-01	0	29	104	265289728	77	13984
2026-01-06 09:39:19.55	48.85	33.82	-52.3	-63.7	3.9	7.47e-01	0	29	104	265289728	73	13389
2026-01-06 09:39:20.54	48.40	33.85	-51.8	-63.3	3.8	7.43e-01	0	29	104	265289728	72	13422
2026-01-06 09:39:21.54	47.94	33.89	-55.4	-67.9	3.8	7.45e-01	0	29	104	265289728	78	16241
2026-01-06 09:39:22.52	47.50	33.92	-55.3	-67.7	3.9	7.45e-01	0	29	104	265289728	79	15023
2026-01-06 09:39:23.51	47.04	33.95	-56.6	-69.6	3.8	7.47e-01	0	29	104	265289728	80	17587
2026-01-06 09:39:24.50	46.59	33.98	-57.5	-71.5	3.8	7.47e-01	0	29	104	265289728	84	17293
2026-01-06 09:39:25.49	46.14	34.01	-53.8	-66.0	3.9	7.44e-01	0	29	104	265289728	77	13789
2026-01-06 09:39:26.49	45.68	34.03	-51.2	-62.6	3.9	7.50e-01	0	29	104	265289728	71	13213
2026-01-06 09:39:27.48	45.22	34.06	-51.1	-62.4	3.9	7.46e-01	0	29	104	265289728	71	12897
2026-01-06 09:39:28.48	44.76	34.08	-50.6	-61.9	3.9	7.43e-01	0	29	104	265289728	70	12947
2026-01-06 09:39:29.47	44.30	34.10	-50.8	-62.1	3.9	7.47e-01	0	29	104	265289728	70	13145
2026-01-06 09:39:30.47	43.84	34.11	-51.6	-63.0	3.8	7.45e-01	0	29	104	265289728	71	13818
2026-01-06 09:39:31.47	43.38	34.13	-56.1	-68.8	3.9	7.49e-01	0	29	104	265289728	79	17050
2026-01-06 09:39:32.47	42.92	34.14	-55.8	-68.4	3.8	7.44e-01	0	29	104	265289728	80	15240
2026-01-06 09:39:33.46	42.46	34.15	-55.6	-68.0	3.8	7.46e-01	0	29	104	265289728	78	16456
2026-01-06 09:39:34.45	42.00	34.16	-55.9	-68.7	3.9	7.43e-01	0	29	104	265289728	81	15002
2026-01-06 09:39:35.44	41.54	34.17	-52.6	-64.3	3.9	7.45e-01	0	29	104	265289728	74	13452
2026-01-06 09:39:36.43	41.08	34.18	-52.1	-63.6	3.9	7.44e-01	0	29	104	265289728	73	13205
2026-01-06 09:39:37.43	40.62	34.18	-54.7	-66.6	3.8	7.43e-01	0	29	104	265289728	76	15617
2026-01-06 09:39:38.42	40.16	34.18	-55.8	-68.4	3.9	7.41e-01	0	29	104	265289728	80	15357
2026-01-06 09:39:39.41	39.70	34.18	-55.6	-68.1	3.8	7.46e-01	0	29	104	265289728	78	16580
2026-01-06 09:39:40.40	39.24	34.17	-58.0	-72.7	3.9	7.46e-01	0	29	104	265289728	85	18853
2026-01-06 09:39:41.39	38.78	34.17	-55.9	-68.8	3.9	7.48e-01	0	29	104	265289728	81	15224
2026-01-06 09:39:42.38	38.32	34.16	-51.3	-62.7	3.9	7.45e-01	0	29	104	265289728	71	13285
2026-01-06 09:39:43.37	37.86	34.15	-51.2	-62.5	3.9	7.44e-01	0	29	104	265289728	71	13020
2026-01-06 09:39:44.37	37.40	34.14	-51.0	-62.3	3.9	7.45e-01	0	29	104	265289728	71	12724
2026-01-06 09:39:45.36	36.94	34.13	-50.9	-62.3	3.8	7.44e-01	0	29	104	265289728	71	12694
2026-01-06 09:39:46.36	36.48	34.11	-52.0	-63.4	3.8	7.47e-01	0	29	104	265289728	71	14438
2026-01-06 09:39:47.35	36.02	34.09	-55.6	-68.1	3.8	7.44e-01	0	29	104	265289728	78	16619
2026-01-06 09:39:48.34	35.57	34.07	-56.9	-70.4	3.9	7.45e-01	0	29	104	265289728	83	16264
2026-01-06 09:39:49.33	35.11	34.05	-52.7	-64.6	3.8	7.45e-01	0	29	104	265289728	73	14771
2026-01-06 09:39:50.33	34.65	34.03	-57.8	-71.9	3.9	7.46e-01	0	29	104	265289728	84	18238
2026-01-06 09:39:51.32	34.19	34.00	-51.7	-63.2	3.8	7.46e-01	0	29	104	265289728	72	13270
2026-01-06 09:39:52.31	33.74	33.98	-51.5	-62.8	3.9	7.44e-01	0	29	104	265289728	72	12790
2026-01-06 09:39:53.31	33.28	33.95	-53.2	-64.8	3.8	7.46e-01	0	29	104	265289728	73	15139
2026-01-06 09:39:54.30	32.83	33.91	-56.6	-69.9	3.9	7.42e-01	0	29	104	265289728	82	16130
2026-01-06 09:39:55.30	32.38	33.88	-54.8	-66.9	3.9	7.48e-01	0	29	104	265289728	78	14507
2026-01-06 09:39:56.28	31.93	33.85	-58.7	-74.4	3.9	7.43e-01	0	29	104	265289728	86	21674
2026-01-06 09:39:57.27	31.48	33.81	-57.0	-70.5	3.9	7.45e-01	0	29	104	265289728	83	16471
2026-01-06 09:39:58.27	31.03	33.77	-51.4	-62.8	3.9	7.48e-01	0	29	104	265289728	72	12778
2026-01-06 09:39:59.26	30.58	33.73	-51.3	-62.5	3.9	7.48e-01	0	29	104	265289728	71	13063
2026-01-06 09:40:00.25	30.14	33.68	-50.9	-62.2	3.8	7.46e-01	0	29	104	265289728	71	12622
2026-01-06 09:40:01.25	29.69	33.64	-50.7	-62.0	3.9	7.43e-01	0	29	104	265289728	70	12962
2026-01-06 09:40:02.24	29.24	33.59	-51.3	-62.7	3.9	7.48e-01	0	29	104	265289728	71	13274
2026-01-06 09:40:03.23	28.80	33.54	-55.2	-67.6	3.8	7.45e-01	0	29	104	265289728	78	15584
2026-01-06 09:40:04.23	28.36	33.49	-57.7	-71.8	3.9	7.48e-01	0	29	104	265289728	84	18056
2026-01-06 09:40:05.22	27.92	33.44	-51.2	-62.5	3.8	7.44e-01	0	29	104	265289728	70	13807
2026-01-06 09:40:06.21	27.48	33.39	-58.4	-73.8	3.9	7.42e-01	0	29	104	265289728	85	21267
2026-01-06 09:40:07.20	27.04	33.33	-51.1	-62.6	3.9	7.44e-01	0	29	104	265289728	71	13137
2026-01-06 09:40:08.19	26.61	33.27	-50.7	-61.9	3.9	7.47e-01	0	29	104	265289728	70	12830
2026-01-06 09:40:09.18	26.18	33.22	-50.8	-62.2	3.9	7.46e-01	0	29	104	265289728	70	13316
2026-01-06 09:40:10.18	25.74	33.15	-56.3	-69.4	3.9	7.44e-01	0	29	104	265289728	80	17166
2026-01-06 09:40:11.18	25.31	33.09	-55.0	-67.3	3.9	7.46e-01	0	29	104	265289728	79	14358
2026-01-06 09:40:12.16	24.89	33.03	-58.1	-72.9	3.9	7.44e-01	0	29	104	265289728	85	19302
2026-01-06 09:40:13.15	24.46	32.96	-51.2	-62.5	3.8	7.46e-01	0	29	104	265289728	71	13046
2026-01-06 09:40:14.13	24.04	32.90	-58.7	-74.6	3.9	7.46e-01	0	29	104	265289728	85	23443
2026-01-06 09:40:15.13	23.61	32.83	-51.1	-62.4	3.8	7.46e-01	0	29	104	265289728	71	12888
2026-01-06 09:40:16.12	23.19	32.76	-51.0	-62.4	3.8	7.44e-01	0	29	104	265289728	71	12954
2026-01-06 09:40:17.11	22.77	32.68	-50.8	-62.1	3.8	7.48e-01	0	29	104	265289728	70	13142
2026-01-06 09:40:18.10	22.36	32.61	-56.0	-68.7	3.9	7.46e-01	0	29	104	265289728	80	15900
2026-01-06 09:40:19.10	21.94	32.54	-54.9	-67.2	3.9	7.46e-01	0	29	104	265289728	79	14125
2026-01-06 09:40:20.09	21.53	32.46	-58.5	-73.9	3.9	7.43e-01	0	29	104	265289728	85	21710
2026-01-06 09:40:21.08	21.12	32.38	-51.1	-62.5	3.9	7.46e-01	0	29	104	265289728	71	13005
2026-01-06 09:40:22.07	20.71	32.30	-58.8	-74.9	3.8	7.43e-01	0	29	104	265289728	85	24222
2026-01-06 09:40:23.06	20.30	32.22	-51.2	-62.5	3.9	7.48e-01	0	29	104	265289728	71	13042
2026-01-06 09:40:24.06	19.89	32.14	-51.3	-62.7	3.8	7.44e-01	0	29	104	265289728	71	13399
2026-01-06 09:40:25.05	19.49	32.06	-51.0	-62.4	3.8	7.42e-01	0	29	104	265289728	71	12943
2026-01-06 09:40:26.04	19.09	31.97	-55.9	-68.7	3.9	7.48e-01	0	29	104	265289728	79	16810
2026-01-06 09:40:27.03	18.69	31.89	-55.3	-67.6	3.9	7.50e-01	0	29	104	265289728	79	14868
2026-01-06 09:40:28.03	18.29	31.80	-59.3	-76.9	3.8	7.46e-01	0	29	104	265289728	86	28903
2026-01-06 09:40:29.03	17.90	31.71	-58.4	-73.6	3.8	7.42e-01	0	29	104	265289728	85	20893
2026-01-06 09:40:30.02	17.50	31.62	-51.3	-62.6	3.9	7.46e-01	0	29	104	265289728	71	13212
2026-01-06 09:40:31.01	17.11	31.53	-51.2	-62.5	3.8	7.44e-01	0	29	104	265289728	71	12991
2026-01-06 09:40:32.00	16.73	31.44	-51.3	-62.7	3.8	7.45e-01	0	29	104	265289728	71	13327
2026-01-06 09:40:32.99	16.34	31.34	-51.2	-62.6	3.9	7.46e-01	0	29	104	265289728	71	13200
2026-01-06 09:40:33.98	15.96	31.25	-52.3	-63.9	3.8	7.45e-01	0	29	104	265289728	72	14436
2026-01-06 09:40:34.98	15.58	31.15	-54.8	-67.1	3.9	7.46e-01	0	29	104	265289728	77	15676
2026-01-06 09:40:35.97	15.20	31.06	-58.8	-74.9	3.8	7.45e-01	0	29	104	265289728	85	24299
2026-01-06 09:40:36.97	14.82	30.96	-51.3	-62.4	3.9	7.44e-01	0	29	104	265289728	71	12931
2026-01-06 09:40:37.96	14.45	30.86	-58.9	-75.2	3.8	7.48e-01	0	29	104	265289728	85	25243
2026-01-06 09:40:38.96	14.08	30.76	-51.5	-63.1	3.9	7.45e-01	0	29	104	265289728	72	13115
2026-01-06 09:40:39.95	13.71	30.66	-51.2	-62.6	3.9	7.44e-01	0	29	104	265289728	71	13224
2026-01-06 09:40:40.94	13.34	30.56	-50.8	-62.0	3.9	7.46e-01	0	29	104	265289728	70	13002
2026-01-06 09:40:41.93	12.98	30.46	-55.9	-68.6	3.9	7.42e-01	0	29	104	265289728	79	16593
2026-01-06 09:40:42.92	12.62	30.36	-54.8	-67.1	3.9	7.43e-01	0	29	104	265289728	78	14720
2026-01-06 09:40:43.92	12.26	30.25	-58.9	-75.2	3.8	7.47e-01	0	29	104	265289728	85	24984
2026-01-06 09:40:44.91	11.90	30.15	-51.6	-62.9	3.8	7.44e-01	0	29	104	265289728	72	12956
2026-01-06 09:40:45.91	11.54	30.04	-58.8	-75.1	3.8	7.48e-01	0	29	104	265289728	85	24704
2026-01-06 09:40:46.90	11.19	29.94	-51.5	-63.0	3.9	7.44e-01	0	29	104	265289728	72	12980
2026-01-06 09:40:47.90	10.84	29.83	-51.0	-62.3	3.9	7.45e-01	0	29	104	265289728	71	12773
2026-01-06 09:40:48.90	10.49	29.72	-50.8	-62.1	3.9	7.48e-01	0	29	104	265289728	70	13145
2026-01-06 09:40:49.90	10.14	29.61	-55.7	-68.3	3.8	7.45e-01	0	29	104	265289728	79	16124
2026-01-06 09:40:50.89	9.80	29.50	-54.6	-66.7	3.9	7.43e-01	0	29	104	265289728	78	14204
2026-01-06 09:40:51.89	9.46	29.39	-58.8	-74.7	3.9	7.50e-01	0	29	104	265289728	85	23615
2026-01-06 09:40:52.88	9.12	29.28	-51.8	-63.1	3.9	7.44e-01	0	29	104	265289728	72	13186
2026-01-06 09:40:53.88	8.78	29.17	-58.7	-74.7	3.8	7.45e-01	0	29	104	265289728	85	23685
2026-01-06 09:40:54.87	8.45	29.06	-51.7	-63.2	3.8	7.47e-01	0	29	104	265289728	72	13295
2026-01-06 09:40:55.86	8.12	28.95	-51.1	-62.5	3.8	7.42e-01	0	29	104	265289728	71	12999
2026-01-06 09:40:56.85	7.80	28.83	-50.9	-62.4	3.8	7.45e-01	0	29	104	265289728	71	12824
2026-01-06 09:40:57.85	7.47	28.72	-58.8	-74.5	3.8	7.45e-01	0	29	104	265289728	85	23267
2026-01-06 09:40:58.84	7.15	28.61	-53.7	-65.8	3.8	7.48e-01	0	29	104	265289728	75	15095
2026-01-06 09:40:59.84	6.82	28.49	-58.9	-75.2	3.9	7.48e-01	0	29	104	265289728	85	25019
2026-01-06 09:41:00.84	6.50	28.38	-52.3	-63.7	3.8	7.45e-01	0	29	104	265289728	73	13316
2026-01-06 09:41:01.83	6.19	28.26	-58.6	-74.1	3.8	7.49e-01	0	29	104	265289728	84	23379
2026-01-06 09:41:02.83	5.87	28.15	-52.2	-63.6	3.9	7.50e-01	0	29	104	265289728	73	13158
2026-01-06 09:41:03.82	5.56	28.03	-52.1	-63.7	3.8	7.45e-01	0	29	104	265289728	72	14118
2026-01-06 09:41:04.81	5.25	27.91	-51.9	-63.6	3.9	7.46e-01	0	29	104	265289728	72	13994
2026-01-06 09:41:05.80	4.95	27.80	-56.8	-70.4	3.9	7.47e-01	0	29	104	265289728	81	18138
2026-01-06 09:41:06.79	4.64	27.68	-54.9	-67.2	3.9	7.44e-01	0	29	104	265289728	79	14065
2026-01-06 09:41:07.79	4.34	27.56	-58.7	-74.6	3.8	7.48e-01	0	29	104	265289728	85	23466
2026-01-06 09:41:08.78	4.04	27.45	-52.0	-63.5	3.9	7.48e-01	0	29	104	265289728	73	12984
2026-01-06 09:41:09.77	3.74	27.33	-58.4	-73.4	3.8	7.48e-01	0	29	104	265289728	84	21654
2026-01-06 09:41:10.77	3.45	27.21	-51.8	-63.3	3.9	7.45e-01	0	29	104	265289728	72	13417
2026-01-06 09:41:11.76	3.15	27.09	-51.2	-62.8	3.8	7.47e-01	0	29	104	265289728	71	13502
2026-01-06 09:41:12.75	2.87	26.97	-50.9	-62.4	3.9	7.45e-01	0	29	104	265289728	71	12920
2026-01-06 09:41:13.74	2.58	26.85	-55.0	-67.2	3.9	7.48e-01	0	29	104	265289728	77	15888
2026-01-06 09:41:14.73	2.29	26.73	-54.6	-66.5	3.9	7.45e-01	0	29	104	265289728	78	13760
2026-01-06 09:41:15.72	2.01	26.62	-58.6	-74.0	3.8	7.46e-01	0	29	104	265289728	84	23112
2026-01-06 09:41:16.71	1.73	26.50	-52.7	-64.6	3.9	7.40e-01	0	29	104	265289728	74	13909
2026-01-06 09:41:17.70	1.45	26.38	-57.7	-71.8	3.8	7.46e-01	0	29	104	265289728	82	20176
2026-01-06 09:41:18.69	1.17	26.26	-52.7	-64.2	3.9	7.45e-01	0	29	104	265289728	74	13282
2026-01-06 09:41:19.69	0.90	26.14	-51.8	-63.5	3.9	7.48e-01	0	29	104	265289728	72	13735
2026-01-06 09:41:20.68	0.63	26.02	-51.4	-62.8	3.9	7.46e-01	0	29	104	265289728	72	12729
2026-01-06 09:41:21.67	0.36	25.90	-56.3	-69.4	3.8	7.45e-01	0	29	104	265289728	80	17120
2026-01-06 09:41:22.67	0.09	25.78	-55.0	-67.5	3.8	7.45e-01	0	29	104	265289728	79	14554
2026-01-06 09:41:23.66	359.82	25.66	-58.4	-73.7	3.8	7.48e-01	0	29	104	265289728	84	22319
2026-01-06 09:41:24.66	359.55	25.53	-53.8	-65.2	3.9	7.47e-01	0	29	104	265289728	76	13371
2026-01-06 09:41:25.65	359.29	25.41	-57.6	-71.9	3.8	7.50e-01	0	29	104	265289728	82	20425
2026-01-06 09:41:26.64	359.03	25.29	-52.9	-64.6	3.9	7.45e-01	0	29	104	265289728	75	13227
2026-01-06 09:41:27.65	358.77	25.17	-51.8	-63.2	3.9	7.46e-01	0	29	104	265289728	72	13331
2026-01-06 09:41:28.64	358.52	25.05	-51.3	-62.8	3.9	7.46e-01	0	29	104	265289728	71	13491
2026-01-06 09:41:29.63	358.26	24.93	-54.7	-67.1	3.8	7.46e-01	0	29	104	265289728	77	15593
2026-01-06 09:41:30.62	358.01	24.81	-54.6	-66.7	3.9	7.46e-01	0	29	104	265289728	78	14058
2026-01-06 09:41:31.61	357.76	24.69	-57.9	-72.4	3.8	7.41e-01	0	29	104	265289728	83	20505
2026-01-06 09:41:32.60	357.52	24.57	-53.3	-65.4	3.9	7.47e-01	0	29	104	265289728	76	13574
2026-01-06 09:41:33.59	357.27	24.45	-56.6	-69.7	3.8	7.48e-01	0	29	104	265289728	80	17795
2026-01-06 09:41:34.59	357.03	24.33	-53.6	-65.6	3.9	7.44e-01	0	29	104	265289728	76	14005
2026-01-06 09:41:35.59	356.78	24.21	-51.6	-63.3	3.8	7.44e-01	0	29	104	265289728	72	13466
2026-01-06 09:41:36.58	356.54	24.09	-52.0	-63.4	3.8	7.45e-01	0	29	104	265289728	72	13649
2026-01-06 09:41:37.57	356.31	23.97	-55.3	-67.9	3.8	7.50e-01	0	29	104	265289728	78	16186
2026-01-06 09:41:38.56	356.07	23.85	-54.9	-67.2	3.8	7.46e-01	0	29	104	265289728	79	14115
2026-01-06 09:41:39.56	355.84	23.73	-57.6	-71.7	3.8	7.47e-01	0	29	104	265289728	82	19948
2026-01-06 09:41:40.56	355.60	23.61	-55.0	-67.7	3.8	7.45e-01	0	29	104	265289728	79	14999
2026-01-06 09:41:41.55	355.37	23.49	-56.0	-68.6	3.8	7.47e-01	0	29	104	265289728	79	16599
2026-01-06 09:41:42.54	355.15	23.37	-54.3	-66.6	3.9	7.45e-01	0	29	104	265289728	78	13972
2026-01-06 09:41:43.54	354.92	23.25	-52.2	-63.9	3.8	7.45e-01	0	29	104	265289728	73	13580
2026-01-06 09:41:44.53	354.69	23.13	-52.1	-63.4	3.9	7.47e-01	0	29	104	265289728	73	12843
2026-01-06 09:41:45.52	354.47	23.01	-54.8	-67.3	3.8	7.44e-01	0	29	104	265289728	77	16045
2026-01-06 09:41:46.52	354.25	22.89	-55.0	-67.4	3.9	7.44e-01	0	29	104	265289728	79	14429
2026-01-06 09:41:47.52	354.03	22.77	-57.3	-71.2	3.8	7.50e-01	0	29	104	265289728	82	18927
2026-01-06 09:41:48.51	353.81	22.65	-55.7	-68.5	3.8	7.45e-01	0	29	104	265289728	80	15405
2026-01-06 09:41:49.51	353.59	22.53	-55.8	-68.4	3.8	7.47e-01	0	29	104	265289728	79	16278
2026-01-06 09:41:50.50	353.38	22.41	-54.2	-66.5	3.9	7.45e-01	0	29	104	265289728	77	14594
2026-01-06 09:41:51.49	353.17	22.30	-52.1	-63.5	3.9	7.45e-01	0	29	104	265289728	73	13107
2026-01-06 09:41:52.49	352.96	22.18	-51.6	-63.2	3.9	7.48e-01	0	29	104	265289728	72	13274
2026-01-06 09:41:53.48	352.75	22.06	-53.6	-65.4	3.8	7.42e-01	0	29	104	265289728	74	15336
2026-01-06 09:41:54.48	352.54	21.94	-54.8	-66.9	3.9	7.48e-01	0	29	104	265289728	78	14381
2026-01-06 09:41:55.47	352.34	21.82	-56.8	-70.4	3.8	7.48e-01	0	29	104	265289728	81	18300
2026-01-06 09:41:56.46	352.13	21.71	-55.8	-68.4	3.9	7.46e-01	0	29	104	265289728	81	14497
2026-01-06 09:41:57.46	351.93	21.59	-54.6	-66.9	3.8	7.47e-01	0	29	104	265289728	76	16248
2026-01-06 09:41:58.45	351.73	21.47	-54.5	-66.5	3.9	7.44e-01	0	29	104	265289728	78	13847
2026-01-06 09:41:59.44	351.53	21.36	-51.7	-63.4	3.8	7.43e-01	0	29	104	265289728	72	13583
2026-01-06 09:42:00.43	351.33	21.24	-51.3	-62.7	3.8	7.45e-01	0	29	104	265289728	71	13349
2026-01-06 09:42:01.43	351.14	21.12	-52.6	-64.4	3.9	7.47e-01	0	29	104	265289728	72	15300
2026-01-06 09:42:02.42	350.94	21.01	-54.6	-67.0	3.8	7.44e-01	0	29	104	265289728	78	14657
2026-01-06 09:42:03.42	350.75	20.89	-56.4	-69.3	3.9	7.45e-01	0	29	104	265289728	80	17016
2026-01-06 09:42:04.43	350.55	20.77	-56.4	-69.8	3.9	7.42e-01	0	29	104	265289728	82	16096
2026-01-06 09:42:05.42	350.37	20.66	-53.3	-64.9	3.8	7.45e-01	0	29	104	265289728	74	14443
2026-01-06 09:42:06.42	350.18	20.54	-55.7	-68.5	3.9	7.43e-01	0	29	104	265289728	80	15481
2026-01-06 09:42:07.41	349.99	20.43	-52.4	-63.8	3.9	7.46e-01	0	29	104	265289728	73	13475
2026-01-06 09:42:08.40	349.81	20.31	-52.2	-64.3	3.8	7.45e-01	0	29	104	265289728	73	14217
2026-01-06 09:42:09.39	349.62	20.20	-53.1	-64.8	3.8	7.48e-01	0	29	104	265289728	73	15191
2026-01-06 09:42:10.39	349.44	20.09	-55.0	-67.8	3.9	7.43e-01	0	29	104	265289728	79	15057
2026-01-06 09:42:11.39	349.26	19.97	-55.9	-68.5	3.9	7.47e-01	0	29	104	265289728	79	16402
2026-01-06 09:42:12.38	349.08	19.86	-56.8	-70.6	3.9	7.45e-01	0	29	104	265289728	83	16650
2026-01-06 09:42:13.38	348.90	19.74	-52.9	-64.4	3.8	7.47e-01	0	29	104	265289728	73	14380
2026-01-06 09:42:14.36	348.72	19.63	-55.8	-68.4	3.9	7.45e-01	0	29	104	265289728	80	15389
2026-01-06 09:42:15.36	348.55	19.52	-52.0	-63.5	3.8	7.41e-01	0	29	104	265289728	73	12991
2026-01-06 09:42:16.36	348.37	19.41	-51.5	-63.1	3.8	7.45e-01	0	29	104	265289728	72	13218
2026-01-06 09:42:17.35	348.20	19.30	-52.1	-63.5	3.9	7.47e-01	0	29	104	265289728	71	14602
2026-01-06 09:42:18.35	348.03	19.18	-54.5	-66.7	3.8	7.48e-01	0	29	104	265289728	77	15032
2026-01-06 09:42:19.34	347.86	19.07	-55.3	-67.8	3.9	7.47e-01	0	29	104	265289728	78	16065
2026-01-06 09:42:20.33	347.69	18.96	-57.0	-70.9	3.9	7.43e-01	0	29	104	265289728	83	17157
2026-01-06 09:42:21.33	347.52	18.85	-52.1	-63.8	3.9	7.46e-01	0	29	104	265289728	72	14263
2026-01-06 09:42:22.33	347.36	18.74	-56.5	-70.0	3.9	7.47e-01	0	29	104	265289728	82	16355
2026-01-06 09:42:23.33	347.19	18.63	-52.2	-63.9	3.9	7.46e-01	0	29	104	265289728	73	13633
2026-01-06 09:42:24.32	347.03	18.52	-51.7	-63.0	3.8	7.46e-01	0	29	104	265289728	72	12979
2026-01-06 09:42:25.31	346.87	18.41	-52.1	-63.6	3.8	7.42e-01	0	29	104	265289728	71	14737
2026-01-06 09:42:26.30	346.71	18.30	-54.7	-66.9	3.8	7.46e-01	0	29	104	265289728	78	14471
2026-01-06 09:42:27.29	346.55	18.19	-54.8	-67.1	3.8	7.44e-01	0	29	104	265289728	77	15705
2026-01-06 09:42:28.29	346.39	18.08	-57.5	-72.1	3.9	7.43e-01	0	29	104	265289728	84	18580
2026-01-06 09:42:29.27	346.23	17.98	-51.8	-63.3	3.9	7.48e-01	0	29	104	265289728	72	13437
2026-01-06 09:42:30.27	346.08	17.87	-56.5	-70.1	3.9	7.46e-01	0	29	104	265289728	82	16524
2026-01-06 09:42:31.26	345.92	17.76	-51.7	-63.0	3.8	7.42e-01	0	29	104	265289728	72	13096
2026-01-06 09:42:32.25	345.77	17.65	-51.2	-62.5	3.8	7.44e-01	0	29	104	265289728	71	13065
2026-01-06 09:42:33.24	345.62	17.55	-51.5	-62.8	3.9	7.47e-01	0	29	104	265289728	71	13451
2026-01-06 09:42:34.24	345.47	17.44	-54.8	-67.1	3.9	7.45e-01	0	29	104	265289728	78	14858
2026-01-06 09:42:35.23	345.32	17.33	-54.3	-66.7	3.8	7.45e-01	0	29	104	265289728	76	15912
2026-01-06 09:42:36.23	345.17	17.23	-57.8	-72.3	3.9	7.46e-01	0	29	104	265289728	84	19009
2026-01-06 09:42:37.22	345.02	17.12	-51.8	-63.5	3.9	7.44e-01	0	29	104	265289728	72	13860
2026-01-06 09:42:38.22	344.87	17.01	-57.0	-71.0	3.9	7.45e-01	0	29	104	265289728	83	17374
2026-01-06 09:42:39.21	344.73	16.91	-52.0	-63.5	3.9	7.48e-01	0	29	104	265289728	73	13101
2026-01-06 09:42:40.20	344.59	16.81	-51.5	-62.9	3.8	7.45e-01	0	29	104	265289728	72	12880
2026-01-06 09:42:41.20	344.44	16.70	-51.3	-62.5	3.8	7.44e-01	0	29	104	265289728	71	13108
2026-01-06 09:42:42.19	344.30	16.60	-54.4	-66.7	3.8	7.42e-01	0	29	104	265289728	77	15045
2026-01-06 09:42:43.18	344.16	16.49	-53.9	-66.0	3.8	7.47e-01	0	29	104	265289728	75	15423
2026-01-06 09:42:44.17	344.02	16.39	-58.1	-73.5	3.9	7.42e-01	0	29	104	265289728	85	20650
2026-01-06 09:42:45.16	343.88	16.29	-52.0	-63.8	3.8	7.43e-01	0	29	104	265289728	73	13504
2026-01-06 09:42:46.15	343.74	16.18	-57.3	-71.8	3.9	7.45e-01	0	29	104	265289728	83	19121
2026-01-06 09:42:47.15	343.61	16.08	-52.2	-63.8	3.8	7.45e-01	0	29	104	265289728	73	13525
2026-01-06 09:42:48.14	343.47	15.98	-51.6	-63.2	3.8	7.46e-01	0	29	104	265289728	72	13374
2026-01-06 09:42:49.13	343.34	15.88	-51.9	-63.5	3.9	7.44e-01	0	29	104	265289728	72	13854
2026-01-06 09:42:50.12	343.20	15.78	-56.0	-69.0	3.9	7.43e-01	0	29	104	265289728	80	16467
2026-01-06 09:42:51.12	343.07	15.67	-53.6	-65.6	3.8	7.45e-01	0	29	104	265289728	75	14811
2026-01-06 09:42:52.12	342.94	15.57	-58.3	-74.1	3.9	7.41e-01	0	29	104	265289728	85	22195
2026-01-06 09:42:53.12	342.80	15.47	-52.2	-63.7	3.9	7.45e-01	0	29	104	265289728	73	13308
2026-01-06 09:42:54.12	342.67	15.37	-57.2	-71.5	3.9	7.46e-01	0	29	104	265289728	82	19433
2026-01-06 09:42:55.10	342.55	15.27	-52.3	-63.7	3.8	7.47e-01	0	29	104	265289728	73	13404
2026-01-06 09:42:56.09	342.42	15.17	-51.8	-63.2	3.9	7.43e-01	0	29	104	265289728	72	13299
2026-01-06 09:42:57.09	342.29	15.07	-51.3	-62.7	3.8	7.46e-01	0	29	104	265289728	71	13385
2026-01-06 09:42:58.09	342.16	14.97	-54.6	-67.1	3.8	7.43e-01	0	29	104	265289728	77	15585
2026-01-06 09:42:59.08	342.04	14.87	-53.4	-65.5	3.8	7.42e-01	0	29	104	265289728	75	14592
2026-01-06 09:43:00.07	341.91	14.77	-58.4	-74.8	3.9	7.46e-01	0	29	104	265289728	85	24064
2026-01-06 09:43:01.07	341.79	14.68	-52.7	-64.6	3.8	7.50e-01	0	29	104	265289728	74	13920
2026-01-06 09:43:02.06	341.67	14.58	-57.3	-71.7	3.8	7.46e-01	0	29	104	265289728	82	20006
2026-01-06 09:43:03.06	341.54	14.48	-51.8	-54.6	5.0	7.05e-01	0	29	104	265289728	72	4938
2026-01-06 09:43:04.06	341.42	14.38	-51.5	-53.4	15.3	5.98e-01	0	29	0	265814016	72	4302
2026-01-06 09:43:05.05	341.30	14.28	-50.9	-52.7	15.5	5.99e-01	0	29	0	267911168	71	4197
2026-01-06 09:43:06.04	341.18	14.19	-50.7	-52.4	15.5	6.00e-01	0	29	0	269484032	70	4335
2026-01-06 09:43:07.03	341.07	14.09	-50.7	-52.5	15.5	6.00e-01	0	29	0	271581184	70	4376
2026-01-06 09:43:08.03	340.95	14.00	-50.8	-52.6	15.4	6.00e-01	0	29	0	273154048	70	4431
2026-01-06 09:43:09.02	340.83	13.90	-50.7	-52.4	15.5	6.01e-01	0	29	0	275251200	70	4318
2026-01-06 09:43:10.02	340.72	13.80	-50.7	-52.5	15.5	6.02e-01	0	29	0	277348352	70	4354
2026-01-06 09:43:11.01	340.60	13.71	-50.7	-52.5	15.4	6.00e-01	0	29	0	278921216	70	4370
2026-01-06 09:43:12.01	340.49	13.61	-50.8	-52.5	15.4	5.99e-01	0	29	0	281018368	70	4384
2026-01-06 09:43:13.00	340.37	13.52	-50.7	-52.5	15.4	6.03e-01	0	29	0	282591232	70	4342
2026-01-06 09:43:14.00	340.26	13.42	-50.8	-52.5	15.4	5.99e-01	0	29	0	284688384	70	4378
2026-01-06 09:43:14.98	340.15	13.33	-50.7	-52.4	15.5	6.02e-01	0	29	0	286261248	70	4329
2026-01-06 09:43:15.98	340.04	13.24	-50.7	-52.5	15.5	6.02e-01	0	29	0	288358400	70	4347
2026-01-06 09:43:16.97	339.93	13.14	-50.8	-52.5	15.4	6.01e-01	0	29	0	289931264	70	4383
2026-01-06 09:43:17.97	339.82	13.05	-50.8	-52.6	15.4	6.02e-01	0	29	0	292028416	70	4412
2026-01-06 09:43:18.96	339.71	12.96	-50.9	-52.7	15.4	6.01e-01	0	29	0	294125568	70	4463
2026-01-06 09:43:19.96	339.60	12.86	-50.7	-52.5	15.5	6.02e-01	0	29	0	295698432	70	4372
2026-01-06 09:43:20.96	339.49	12.77	-50.8	-52.5	15.5	6.02e-01	0	29	0	297795584	70	4382
2026-01-06 09:43:21.95	339.39	12.68	-50.8	-52.6	15.4	6.01e-01	0	29	0	299368448	70	4412
2026-01-06 09:43:22.95	339.28	12.59	-50.8	-52.6	15.4	6.01e-01	0	29	0	301465600	70	4424
2026-01-06 09:43:23.94	339.18	12.50	-50.8	-52.6	15.4	6.00e-01	0	29	0	303038464	70	4394
2026-01-06 09:43:24.94	339.07	12.40	-50.8	-52.6	15.4	6.01e-01	0	29	0	305135616	70	4407
2026-01-06 09:43:25.94	338.97	12.31	-50.7	-52.5	15.5	6.02e-01	0	29	0	306708480	70	4353
2026-01-06 09:43:26.93	338.87	12.22	-50.9	-52.7	15.5	6.01e-01	0	29	0	308805632	70	4444
2026-01-06 09:43:27.92	338.76	12.13	-50.9	-52.7	15.4	6.00e-01	0	29	0	310902784	70	4442
2026-01-06 09:43:28.91	338.66	12.04	-50.9	-52.7	15.4	6.01e-01	0	29	0	312475648	70	4464
2026-01-06 09:43:29.90	338.56	11.95	-50.9	-52.8	15.4	6.01e-01	0	29	0	314572800	70	4501
2026-01-06 09:43:30.89	338.46	11.87	-50.9	-52.8	15.4	6.02e-01	0	29	0	316145664	70	4497
2026-01-06 09:43:31.88	338.36	11.78	-50.8	-52.6	15.4	6.01e-01	0	29	0	318242816	70	4403
2026-01-06 09:43:32.87	338.26	11.69	-50.9	-52.7	15.4	6.01e-01	0	29	0	319815680	70	4446
2026-01-06 09:43:33.87	338.17	11.60	-50.9	-52.7	15.4	6.00e-01	0	29	0	321912832	70	4475
2026-01-06 09:43:34.86	338.07	11.51	-51.0	-52.8	15.4	6.03e-01	0	29	0	323485696	70	4502
2026-01-06 09:43:35.86	337.97	11.42	-50.9	-52.7	15.4	6.00e-01	0	29	0	325582848	70	4467
2026-01-06 09:43:36.85	337.88	11.33	-50.8	-52.6	15.4	6.01e-01	0	29	0	327155712	70	4429
2026-01-06 09:43:37.84	337.78	11.25	-51.0	-52.8	15.4	6.00e-01	0	29	0	329252864	70	4535
2026-01-06 09:43:38.83	337.69	11.16	-51.1	-53.0	15.3	6.03e-01	0	29	0	331350016	70	4621
2026-01-06 09:43:39.83	337.59	11.07	-51.1	-53.0	15.3	5.99e-01	0	29	0	332922880	70	4617
2026-01-06 09:43:40.82	337.50	10.99	-51.0	-52.9	15.3	6.00e-01	0	29	0	335020032	70	4549
2026-01-06 09:43:41.81	337.41	10.90	-50.9	-52.8	15.4	6.02e-01	0	29	0	336592896	70	4503
2026-01-06 09:43:42.81	337.31	10.81	-51.1	-53.0	15.3	6.00e-01	0	29	0	338690048	70	4621
2026-01-06 09:43:43.80	337.22	10.73	-51.2	-53.1	15.3	6.01e-01	0	29	0	340262912	70	4685
2026-01-06 09:43:44.79	337.13	10.64	-51.0	-52.9	15.3	6.00e-01	0	29	0	342360064	70	4573
2026-01-06 09:43:45.79	337.04	10.56	-51.0	-52.8	15.3	6.02e-01	0	29	0	343932928	70	4517
2026-01-06 09:43:46.78	336.95	10.47	-51.0	-52.9	15.3	6.02e-01	0	29	0	346030080	70	4560
2026-01-06 09:43:47.77	336.86	10.39	-51.1	-52.9	15.3	5.98e-01	0	29	0	348127232	70	4592
2026-01-06 09:43:48.77	336.77	10.30	-51.1	-53.0	15.3	6.01e-01	0	29	0	349700096	70	4618
2026-01-06 09:43:49.75	336.68	10.22	-51.2	-53.0	15.3	6.01e-01	0	29	0	351797248	70	4649
2026-01-06 09:43:50.75	336.60	10.13	-51.1	-52.9	15.3	5.99e-01	0	29	0	353370112	70	4598
2026-01-06 09:43:51.73	336.51	10.05	-51.2	-53.0	15.3	6.02e-01	0	29	0	355467264	70	4647
2026-01-06 09:43:52.73	336.42	9.97	-51.2	-53.1	15.3	6.03e-01	0	29	0	357040128	70	4690
2026-01-06 09:43:53.72	336.34	9.89	-51.3	-53.2	15.2	6.02e-01	0	29	0	359137280	70	4747
2026-01-06 09:43:54.71	336.25	9.80	-51.1	-53.0	15.3	6.00e-01	0	29	0	360710144	70	4644
2026-01-06 09:43:55.71	336.17	9.72	-51.2	-53.2	15.3	5.98e-01	0	29	0	362807296	70	4712
2026-01-06 09:43:56.70	336.08	9.64	-51.3	-53.2	15.3	6.03e-01	0	29	0	364380160	70	4743
2026-01-06 09:43:57.70	336.00	9.55	-51.2	-53.1	15.3	6.00e-01	0	29	0	366477312	70	4668
2026-01-06 09:43:58.69	335.92	9.47	-51.2	-53.1	15.3	6.01e-01	0	29	0	368574464	70	4682
2026-01-06 09:43:59.69	335.83	9.39	-51.3	-53.2	15.3	6.01e-01	0	29	0	370147328	70	4756
2026-01-06 09:44:00.68	335.75	9.31	-51.2	-53.1	15.3	6.02e-01	0	29	0	372244480	70	4663
2026-01-06 09:44:01.68	335.67	9.23	-51.2	-53.2	15.2	6.03e-01	0	29	0	373817344	70	4716
2026-01-06 09:44:02.67	335.59	9.15	-51.2	-53.1	15.3	6.01e-01	0	29	0	375914496	70	4699
2026-01-06 09:44:03.66	335.51	9.07	-51.2	-53.1	15.3	6.01e-01	0	29	0	377487360	70	4671
2026-01-06 09:44:04.65	335.43	8.98	-51.2	-53.1	15.3	6.00e-01	0	29	0	379584512	70	4681
2026-01-06 09:44:05.65	335.35	8.90	-51.3	-53.2	15.2	6.02e-01	0	29	0	381157376	70	4735
2026-01-06 09:44:06.63	335.27	8.83	-51.3	-53.2	15.3	6.00e-01	0	29	0	383254528	70	4740
2026-01-06 09:44:07.62	335.19	8.75	-51.5	-53.4	15.2	5.98e-01	0	29	0	385351680	70	4870
2026-01-06 09:44:08.62	335.11	8.67	-51.5	-53.5	15.2	5.99e-01	0	29	0	386924544	70	4874
2026-01-06 09:44:09.61	335.03	8.59	-51.6	-53.6	15.1	5.99e-01	0	29	0	389021696	70	4945
2026-01-06 09:44:10.60	334.96	8.51	-51.6	-53.6	15.2	6.02e-01	0	29	0	390594560	70	4942
2026-01-06 09:44:11.60	334.88	8.43	-51.6	-53.6	15.1	6.00e-01	0	29	0	392691712	70	4980
2026-01-06 09:44:12.59	334.80	8.35	-51.9	-54.0	15.1	6.04e-01	0	29	0	394264576	71	4890
2026-01-06 09:44:13.58	334.73	8.27	-51.5	-53.4	15.3	6.01e-01	0	29	0	396361728	71	4593
2026-01-06 09:44:14.58	334.65	8.19	-51.4	-53.4	15.3	6.01e-01	0	29	0	397934592	71	4554
2026-01-06 09:44:15.58	334.58	8.11	-51.5	-53.5	15.2	6.01e-01	0	29	0	400031744	71	4650
2026-01-06 09:44:16.57	334.50	8.04	-51.6	-53.6	15.2	6.01e-01	0	29	0	402128896	71	4701
2026-01-06 09:44:17.55	334.43	7.96	-51.6	-53.6	15.2	6.02e-01	0	29	0	403701760	71	4676
2026-01-06 09:44:18.55	334.36	7.88	-51.5	-53.4	15.2	6.00e-01	0	29	0	405798912	71	4598
2026-01-06 09:44:19.53	334.28	7.81	-51.4	-53.4	15.3	6.00e-01	0	29	0	407371776	71	4555
2026-01-06 09:44:20.53	334.21	7.73	-51.4	-53.4	15.3	6.03e-01	0	29	0	409468928	71	4593
2026-01-06 09:44:21.51	334.14	7.65	-51.5	-53.5	15.2	6.00e-01	0	29	0	411041792	71	4604
2026-01-06 09:44:22.50	334.07	7.58	-51.4	-53.4	15.3	5.99e-01	0	29	0	413138944	71	4582
2026-01-06 09:44:23.50	334.00	7.50	-51.5	-53.5	15.3	6.03e-01	0	29	0	414711808	71	4609
2026-01-06 09:44:24.49	333.92	7.42	-51.6	-53.7	15.2	6.00e-01	0	29	0	416808960	71	4712
2026-01-06 09:44:25.48	333.85	7.35	-51.5	-53.5	15.3	5.98e-01	0	29	0	418381824	71	4640
2026-01-06 09:44:26.47	333.78	7.27	-51.4	-53.4	15.3	6.03e-01	0	29	0	420478976	71	4561
2026-01-06 09:44:27.46	333.72	7.20	-51.8	-53.9	15.2	6.00e-01	0	29	0	422576128	71	4818
2026-01-06 09:44:28.46	333.65	7.12	-51.7	-53.8	15.2	6.02e-01	0	29	0	424148992	71	4777
2026-01-06 09:44:29.45	333.58	7.05	-51.6	-53.6	15.2	6.00e-01	0	29	0	426246144	71	4693
2026-01-06 09:44:30.44	333.51	6.97	-51.6	-53.6	15.2	6.03e-01	0	29	0	427819008	71	4685
2026-01-06 09:44:31.45	333.44	6.90	-51.7	-53.8	15.2	6.02e-01	0	29	0	429916160	71	4767
2026-01-06 09:44:32.44	333.37	6.82	-51.8	-53.9	15.1	6.01e-01	0	29	0	431489024	71	4821
2026-01-06 09:44:33.44	333.30	6.75	-51.5	-53.5	15.2	5.99e-01	0	29	0	433586176	71	4621
2026-01-06 09:44:34.43	333.24	6.67	-51.7	-53.8	15.1	6.02e-01	0	29	0	435159040	71	4801
2026-01-06 09:44:35.43	333.17	6.60	-51.7	-53.8	15.1	6.01e-01	0	29	0	437256192	71	4775
2026-01-06 09:44:36.41	333.11	6.53	-51.9	-54.0	15.1	6.01e-01	0	29	0	439353344	71	4903
2026-01-06 09:44:37.41	333.04	6.45	-51.8	-54.0	15.1	6.01e-01	0	29	0	440926208	71	4896
2026-01-06 09:44:38.40	332.97	6.38	-52.1	-54.3	15.0	5.99e-01	0	29	0	442499072	71	5071
2026-01-06 09:44:39.39	332.91	6.31	-51.8	-53.9	15.3	6.00e-01	0	29	0	444596224	72	4571
2026-01-06 09:44:40.39	332.84	6.23	-52.1	-54.3	15.1	6.01e-01	0	29	0	446693376	72	4771
2026-01-06 09:44:41.38	332.78	6.16	-52.0	-54.1	15.1	6.00e-01	0	29	0	448266240	72	4699
2026-01-06 09:44:42.38	332.72	6.09	-52.1	-54.4	15.0	6.01e-01	0	29	0	450363392	72	4830
2026-01-06 09:44:43.37	332.65	6.01	-52.1	-54.3	15.1	6.00e-01	0	29	0	451936256	72	4806
2026-01-06 09:44:44.37	332.59	5.94	-52.0	-54.2	15.1	6.00e-01	0	29	0	454033408	72	4725
2026-01-06 09:44:45.35	332.53	5.87	-52.2	-54.4	15.0	5.99e-01	0	29	0	455606272	72	4870
2026-01-06 09:44:46.36	332.46	5.80	-52.1	-54.3	15.1	6.02e-01	0	29	0	457703424	72	4790
2026-01-06 09:44:47.35	332.40	5.73	-52.0	-54.2	15.1	6.01e-01	0	29	0	459276288	72	4722
2026-01-06 09:44:48.34	332.34	5.66	-52.2	-54.5	15.0	6.01e-01	0	29	0	461373440	72	4891
2026-01-06 09:44:49.34	332.28	5.58	-52.1	-54.3	15.0	6.00e-01	0	29	0	463470592	72	4785
2026-01-06 09:44:50.34	332.22	5.51	-52.3	-54.6	14.9	6.01e-01	0	29	0	465043456	72	4965
2026-01-06 09:44:51.33	332.16	5.44	-52.0	-54.2	15.1	5.99e-01	0	29	0	467140608	72	4730
2026-01-06 09:44:52.32	332.10	5.37	-52.5	-54.9	14.9	6.00e-01	0	29	0	468713472	72	5141
2026-01-06 09:44:53.32	332.04	5.30	-51.8	-53.9	15.1	6.02e-01	0	29	0	470810624	72	4590
