passes_logs/2026/01/06/R3.2S_Murmansk/R3.2S_Murmansk__20260106_022011_SUOMI_NPP_rec.log

#Pass ID: 20260106_022011_SUOMI NPP
#Satellite: SUOMI NPP
#Configuration: NPP
#almurnet v.1.7.20251203
#Start time: 2026-01-06 02:20:12

#Version: 2.2.20231116
#Station: R3.2S_Murmansk
#Location: 33.079688 lon 68.888172 lat
#TLE: 1 37849U 11061A   26004.95404768  .00000136  00000+0  85334-4 0  9991
#TLE: 2 37849  98.7801 307.0898 0002575  80.6707 279.4760 14.19522289735281

#Time	Az	El	Level	Level2	SNR	BER	BlckErr	Temp	State	Recorded	gain1	gain2
2026-01-06 02:20:12.65	32.37	2.05	-57.7	-73.6	3.8	1.49e+00	0	24	0	0	81	22770
2026-01-06 02:20:13.64	32.34	2.11	-57.7	-73.6	3.8	1.49e+00	0	24	104	0	80	24019
2026-01-06 02:20:14.64	32.30	2.18	-57.6	-73.6	3.8	1.49e+00	0	24	104	0	80	24052
2026-01-06 02:20:15.64	32.27	2.24	-57.6	-73.6	3.8	1.49e+00	0	24	104	0	80	24044
2026-01-06 02:20:16.64	32.23	2.30	-57.6	-73.6	3.8	1.49e+00	0	24	104	0	80	24106
2026-01-06 02:20:17.64	32.20	2.36	-57.6	-73.6	3.8	1.49e+00	0	24	104	0	80	23974
2026-01-06 02:20:18.63	32.17	2.43	-57.6	-73.6	3.8	1.49e+00	0	24	104	0	80	23985
2026-01-06 02:20:19.63	32.13	2.49	-57.7	-73.6	3.8	1.49e+00	0	24	104	0	80	24075
2026-01-06 02:20:20.64	32.10	2.55	-57.6	-73.6	3.8	1.49e+00	0	24	104	0	80	23935
2026-01-06 02:20:21.63	32.06	2.61	-57.6	-73.5	3.8	1.49e+00	0	24	104	0	80	23807
2026-01-06 02:20:22.63	32.03	2.68	-57.6	-73.6	3.8	1.49e+00	0	24	104	0	80	23858
2026-01-06 02:20:23.63	31.99	2.74	-57.7	-73.6	3.8	1.49e+00	0	24	104	0	80	24020
2026-01-06 02:20:24.62	31.96	2.80	-57.7	-73.6	3.8	1.49e+00	0	24	104	0	80	24115
2026-01-06 02:20:25.61	31.92	2.87	-57.6	-73.6	3.8	1.49e+00	0	24	104	0	80	24077
2026-01-06 02:20:26.61	31.88	2.93	-57.6	-73.6	3.8	1.49e+00	0	24	104	0	80	24065
2026-01-06 02:20:27.61	31.85	2.99	-57.7	-73.6	3.8	1.49e+00	0	24	104	0	80	24027
2026-01-06 02:20:28.61	31.81	3.06	-57.7	-73.6	3.8	1.49e+00	0	24	104	0	80	23923
2026-01-06 02:20:29.60	31.78	3.12	-57.7	-73.5	3.8	1.49e+00	0	24	104	0	80	23847
2026-01-06 02:20:30.61	31.74	3.19	-57.7	-73.6	3.8	1.49e+00	0	24	104	0	80	24036
2026-01-06 02:20:31.60	31.70	3.25	-57.7	-73.6	3.8	1.49e+00	0	24	104	0	80	24074
2026-01-06 02:20:32.60	31.67	3.31	-57.7	-73.6	3.8	1.49e+00	0	24	104	0	80	24022
2026-01-06 02:20:33.59	31.63	3.38	-57.7	-73.6	3.8	1.49e+00	0	25	104	0	80	23925
2026-01-06 02:20:34.59	31.59	3.44	-57.7	-73.5	3.8	1.49e+00	0	25	104	0	80	23763
2026-01-06 02:20:35.59	31.56	3.51	-57.7	-73.4	3.8	1.49e+00	0	25	104	0	80	23406
2026-01-06 02:20:36.59	31.52	3.57	-57.6	-73.2	3.8	1.49e+00	0	24	104	0	80	22820
2026-01-06 02:20:37.59	31.48	3.64	-57.6	-72.9	3.8	1.49e+00	0	25	104	0	80	22182
2026-01-06 02:20:38.59	31.44	3.70	-57.6	-72.8	3.8	1.49e+00	0	25	104	0	80	21867
2026-01-06 02:20:39.58	31.40	3.77	-57.6	-72.6	3.8	1.49e+00	0	24	104	0	80	21374
2026-01-06 02:20:40.58	31.37	3.84	-57.6	-72.4	3.8	1.49e+00	0	25	104	0	80	20934
2026-01-06 02:20:41.57	31.33	3.90	-57.6	-72.3	3.8	1.49e+00	0	25	104	0	80	20640
2026-01-06 02:20:42.58	31.29	3.97	-57.6	-72.1	3.8	1.49e+00	0	25	104	0	80	20102
2026-01-06 02:20:43.57	31.25	4.03	-57.6	-71.8	3.8	1.49e+00	0	25	104	0	80	19508
2026-01-06 02:20:44.57	31.21	4.10	-57.6	-71.7	3.8	1.49e+00	0	25	104	0	80	19371
2026-01-06 02:20:45.57	31.17	4.17	-57.6	-71.5	3.9	1.49e+00	0	25	104	0	80	18889
2026-01-06 02:20:46.56	31.13	4.23	-57.5	-70.9	3.9	1.48e+00	0	25	104	0	80	17634
2026-01-06 02:20:47.57	31.09	4.30	-57.5	-69.9	4.2	1.43e+00	0	25	0	0	80	15727
2026-01-06 02:20:48.56	31.05	4.36	-57.4	-69.1	4.5	1.30e+00	2	25	0	1048576	80	14307
2026-01-06 02:20:49.56	31.01	4.43	-57.3	-67.9	5.0	7.52e-01	0	25	0	2097152	80	12493
2026-01-06 02:20:50.55	30.97	4.50	-57.3	-67.3	5.3	5.79e-01	0	25	0	4194304	80	11673
2026-01-06 02:20:51.55	30.93	4.57	-57.2	-66.5	5.8	4.05e-01	0	25	0	6291456	80	10577
2026-01-06 02:20:52.55	30.89	4.63	-57.0	-65.7	6.4	2.27e-01	0	25	0	8388608	80	9622
2026-01-06 02:20:53.55	30.85	4.70	-57.0	-65.2	6.8	1.71e-01	0	25	0	10485760	80	9101
2026-01-06 02:20:54.55	30.81	4.77	-56.9	-64.8	7.1	1.14e-01	0	25	0	11534336	80	8736
2026-01-06 02:20:55.55	30.77	4.84	-56.8	-64.4	7.5	8.51e-02	0	25	0	13631488	80	8323
2026-01-06 02:20:56.54	30.73	4.90	-56.8	-64.2	7.6	6.32e-02	0	25	0	15728640	80	8162
2026-01-06 02:20:57.54	30.69	4.97	-56.8	-64.4	7.5	7.35e-02	0	25	0	17825792	80	8306
2026-01-06 02:20:58.53	30.64	5.04	-57.2	-65.6	6.8	8.23e-02	0	25	0	18874368	80	9497
2026-01-06 02:20:59.53	30.60	5.11	-56.7	-62.9	8.7	5.73e-01	0	25	0	20971520	80	6975
2026-01-06 02:21:00.53	30.56	5.18	-57.4	-65.0	7.6	1.15e-03	0	25	0	23068672	79	9457
2026-01-06 02:21:01.52	30.52	5.25	-57.1	-64.8	7.2	1.28e+00	0	25	0	24117248	80	8662
2026-01-06 02:21:02.51	30.47	5.31	-55.0	-58.9	12.1	1.53e-02	0	25	0	26214400	76	5530
2026-01-06 02:21:03.50	30.43	5.38	-55.7	-60.3	11.0	1.21e-02	0	25	0	28311552	78	5803
2026-01-06 02:21:04.50	30.39	5.45	-55.0	-58.9	12.1	7.00e-07	0	25	0	30408704	76	5533
2026-01-06 02:21:05.50	30.35	5.52	-55.0	-58.7	12.2	3.00e-06	0	25	0	31457280	76	5445
2026-01-06 02:21:06.49	30.30	5.59	-54.5	-58.0	12.5	7.00e-07	0	25	0	33554432	75	5313
2026-01-06 02:21:07.49	30.26	5.66	-53.9	-57.0	13.2	0.00e+00	0	25	0	35651584	74	4988
2026-01-06 02:21:08.49	30.21	5.73	-53.8	-56.7	13.3	0.00e+00	0	25	0	37748736	74	4830
2026-01-06 02:21:09.50	30.17	5.80	-53.4	-56.1	13.6	0.00e+00	0	25	0	39845888	73	4801
2026-01-06 02:21:10.50	30.12	5.87	-53.3	-55.9	13.7	0.00e+00	0	25	0	40894464	73	4679
2026-01-06 02:21:11.50	30.08	5.94	-53.5	-56.3	13.5	0.00e+00	0	25	0	42991616	73	4922
2026-01-06 02:21:12.50	30.03	6.01	-53.4	-56.1	13.6	0.00e+00	0	25	0	45088768	73	4811
2026-01-06 02:21:13.49	29.99	6.08	-53.5	-56.2	13.5	0.00e+00	0	25	0	47185920	73	4848
2026-01-06 02:21:14.50	29.94	6.15	-53.6	-56.4	13.4	0.00e+00	0	25	0	48234496	73	4973
2026-01-06 02:21:15.49	29.90	6.23	-53.3	-56.0	13.7	0.00e+00	0	25	0	50331648	73	4722
2026-01-06 02:21:16.49	29.85	6.30	-53.3	-56.0	13.7	0.00e+00	0	25	0	52428800	73	4723
2026-01-06 02:21:17.49	29.81	6.37	-53.4	-56.1	13.6	0.00e+00	0	25	0	54525952	73	4793
2026-01-06 02:21:18.48	29.76	6.44	-53.5	-56.2	13.6	0.00e+00	0	25	0	56623104	73	4846
2026-01-06 02:21:19.48	29.71	6.51	-53.3	-56.0	13.7	0.00e+00	0	25	0	57671680	73	4710
2026-01-06 02:21:20.47	29.67	6.58	-53.2	-55.8	13.8	0.00e+00	0	25	0	59768832	73	4641
2026-01-06 02:21:21.47	29.62	6.66	-53.4	-56.2	13.6	0.00e+00	0	25	0	61865984	73	4817
2026-01-06 02:21:22.47	29.57	6.73	-53.3	-56.0	13.7	0.00e+00	0	25	0	63963136	73	4732
2026-01-06 02:21:23.47	29.52	6.80	-53.4	-56.1	13.7	0.00e+00	0	25	0	65011712	73	4786
2026-01-06 02:21:24.47	29.47	6.87	-53.4	-56.1	13.6	0.00e+00	0	25	0	67108864	73	4813
2026-01-06 02:21:25.46	29.43	6.95	-53.4	-56.2	13.6	0.00e+00	0	25	0	69206016	73	4816
2026-01-06 02:21:26.45	29.38	7.02	-53.4	-56.0	13.7	0.00e+00	0	26	0	71303168	73	4738
2026-01-06 02:21:27.45	29.33	7.09	-53.4	-56.1	13.6	0.00e+00	0	25	0	73400320	73	4771
2026-01-06 02:21:28.46	29.28	7.17	-53.3	-55.9	13.8	0.00e+00	0	25	0	74448896	73	4691
2026-01-06 02:21:29.46	29.23	7.24	-53.2	-55.8	13.9	0.00e+00	0	25	0	76546048	73	4633
2026-01-06 02:21:30.46	29.18	7.31	-53.2	-55.9	13.8	0.00e+00	0	25	0	78643200	73	4665
2026-01-06 02:21:31.46	29.13	7.39	-53.4	-56.1	13.7	0.00e+00	0	25	0	80740352	73	4764
2026-01-06 02:21:32.47	29.08	7.46	-53.4	-56.1	13.7	0.00e+00	0	25	0	82837504	73	4779
2026-01-06 02:21:33.47	29.03	7.54	-53.3	-56.0	13.7	0.00e+00	0	25	0	83886080	73	4726
2026-01-06 02:21:34.46	28.98	7.61	-53.3	-55.9	13.8	0.00e+00	0	25	0	85983232	73	4656
2026-01-06 02:21:35.46	28.93	7.69	-53.4	-56.0	13.7	0.00e+00	0	25	0	88080384	73	4746
2026-01-06 02:21:36.46	28.88	7.76	-53.3	-56.0	13.7	0.00e+00	0	25	0	90177536	73	4720
2026-01-06 02:21:37.45	28.83	7.84	-53.3	-55.9	13.8	0.00e+00	0	25	0	92274688	73	4685
2026-01-06 02:21:38.45	28.77	7.91	-53.3	-55.9	13.8	0.00e+00	0	25	0	93323264	73	4685
2026-01-06 02:21:39.45	28.72	7.99	-53.3	-55.9	13.8	0.00e+00	0	25	0	95420416	73	4699
2026-01-06 02:21:40.45	28.67	8.06	-53.1	-55.7	13.8	0.00e+00	0	25	0	97517568	72	4861
2026-01-06 02:21:41.45	28.62	8.14	-53.1	-55.6	13.8	0.00e+00	0	25	0	99614720	72	4813
2026-01-06 02:21:42.46	28.56	8.22	-53.1	-55.7	13.9	0.00e+00	0	25	0	100663296	72	4818
2026-01-06 02:21:43.46	28.51	8.29	-53.2	-55.8	13.8	0.00e+00	0	26	0	102760448	72	4893
2026-01-06 02:21:44.46	28.45	8.37	-53.1	-55.7	13.8	0.00e+00	0	25	0	104857600	72	4840
2026-01-06 02:21:45.45	28.40	8.45	-53.2	-55.8	13.8	0.00e+00	0	26	0	106954752	72	4887
2026-01-06 02:21:46.44	28.35	8.52	-53.1	-55.6	13.9	0.00e+00	0	25	0	109051904	72	4786
2026-01-06 02:21:47.44	28.29	8.60	-53.1	-55.6	13.9	0.00e+00	0	25	0	110100480	72	4812
2026-01-06 02:21:48.44	28.24	8.68	-53.0	-55.5	13.9	0.00e+00	0	25	0	112197632	72	4759
2026-01-06 02:21:49.42	28.18	8.75	-52.9	-55.4	14.0	0.00e+00	0	25	0	114294784	72	4683
2026-01-06 02:21:50.42	28.13	8.83	-53.0	-55.5	14.0	0.00e+00	0	25	0	116391936	72	4724
2026-01-06 02:21:51.42	28.07	8.91	-53.1	-55.6	13.9	0.00e+00	0	25	0	117440512	72	4777
2026-01-06 02:21:52.42	28.02	8.99	-53.0	-55.4	14.0	0.00e+00	0	26	0	119537664	72	4683
2026-01-06 02:21:53.42	27.96	9.07	-52.9	-55.3	14.1	0.00e+00	0	25	0	121634816	72	4639
2026-01-06 02:21:54.41	27.90	9.15	-52.8	-55.2	14.1	0.00e+00	0	26	0	123731968	72	4576
2026-01-06 02:21:55.41	27.85	9.23	-52.9	-55.4	14.0	0.00e+00	0	26	0	125829120	72	4692
2026-01-06 02:21:56.41	27.79	9.31	-52.9	-55.4	14.0	0.00e+00	0	26	0	126877696	72	4661
2026-01-06 02:21:57.41	27.73	9.38	-52.9	-55.3	14.1	0.00e+00	0	26	0	128974848	72	4635
2026-01-06 02:21:58.41	27.67	9.46	-52.9	-55.3	14.1	0.00e+00	0	26	0	131072000	72	4630
2026-01-06 02:21:59.40	27.61	9.54	-53.0	-55.5	14.0	0.00e+00	0	26	0	133169152	72	4724
2026-01-06 02:22:00.40	27.55	9.62	-52.8	-55.2	14.1	0.00e+00	0	25	0	135266304	72	4588
2026-01-06 02:22:01.39	27.50	9.70	-52.8	-55.3	14.1	0.00e+00	0	26	0	136314880	72	4610
2026-01-06 02:22:02.39	27.44	9.78	-52.8	-55.2	14.2	0.00e+00	0	26	0	138412032	72	4555
2026-01-06 02:22:03.39	27.38	9.87	-52.8	-55.2	14.1	0.00e+00	0	26	0	140509184	72	4587
2026-01-06 02:22:04.39	27.32	9.95	-52.8	-55.2	14.2	0.00e+00	0	26	0	142606336	72	4557
2026-01-06 02:22:05.39	27.26	10.03	-52.7	-55.1	14.1	0.00e+00	0	26	0	143654912	71	4795
2026-01-06 02:22:06.39	27.19	10.11	-52.8	-55.2	14.0	0.00e+00	0	26	0	145752064	71	4846
2026-01-06 02:22:07.39	27.13	10.19	-52.6	-55.0	14.1	0.00e+00	0	26	0	147849216	71	4714
2026-01-06 02:22:08.38	27.07	10.27	-52.7	-55.0	14.0	0.00e+00	0	26	0	149946368	71	4746
2026-01-06 02:22:09.37	27.01	10.35	-52.8	-55.2	14.0	0.00e+00	0	26	0	152043520	71	4832
2026-01-06 02:22:10.37	26.95	10.44	-52.6	-54.9	14.1	0.00e+00	0	26	0	153092096	71	4655
2026-01-06 02:22:11.36	26.89	10.52	-52.6	-54.9	14.1	0.00e+00	0	26	0	155189248	71	4680
2026-01-06 02:22:12.36	26.82	10.60	-52.7	-55.0	14.1	0.00e+00	0	26	0	157286400	71	4739
2026-01-06 02:22:13.36	26.76	10.69	-52.8	-55.1	14.0	0.00e+00	0	26	0	159383552	71	4801
2026-01-06 02:22:14.36	26.69	10.77	-52.6	-54.9	14.1	0.00e+00	0	26	0	160432128	71	4686
2026-01-06 02:22:15.36	26.63	10.85	-52.7	-55.0	14.1	0.00e+00	0	25	0	162529280	71	4722
2026-01-06 02:22:16.35	26.57	10.94	-52.7	-55.0	14.1	0.00e+00	0	25	0	164626432	71	4748
2026-01-06 02:22:17.34	26.50	11.02	-52.6	-54.8	14.2	0.00e+00	0	26	0	166723584	71	4640
2026-01-06 02:22:18.34	26.44	11.10	-52.6	-54.9	14.1	0.00e+00	0	26	0	168820736	71	4696
2026-01-06 02:22:19.34	26.37	11.19	-52.8	-55.1	14.0	0.00e+00	0	26	0	169869312	71	4804
2026-01-06 02:22:20.34	26.30	11.27	-52.7	-55.0	14.1	0.00e+00	0	26	0	171966464	71	4741
2026-01-06 02:22:21.34	26.24	11.36	-52.7	-55.0	14.1	0.00e+00	0	26	0	174063616	71	4748
2026-01-06 02:22:22.35	26.17	11.45	-52.8	-55.2	14.0	0.00e+00	0	26	0	176160768	71	4835
2026-01-06 02:22:23.35	26.10	11.53	-52.7	-55.0	14.1	0.00e+00	0	26	0	178257920	71	4735
2026-01-06 02:22:24.35	26.03	11.62	-52.5	-54.8	14.2	0.00e+00	0	26	0	179306496	71	4604
2026-01-06 02:22:25.35	25.96	11.70	-52.6	-54.9	14.1	0.00e+00	0	26	0	181403648	71	4690
2026-01-06 02:22:26.35	25.90	11.79	-52.7	-55.1	14.0	0.00e+00	0	26	0	183500800	71	4783
2026-01-06 02:22:27.35	25.83	11.88	-52.6	-54.9	14.1	0.00e+00	0	26	0	185597952	71	4699
2026-01-06 02:22:28.35	25.76	11.97	-52.8	-55.1	14.0	0.00e+00	0	26	0	187695104	71	4803
2026-01-06 02:22:29.34	25.69	12.05	-52.7	-55.1	14.0	0.00e+00	0	26	0	188743680	71	4775
2026-01-06 02:22:30.34	25.62	12.14	-52.6	-54.9	14.2	0.00e+00	0	26	0	190840832	71	4657
2026-01-06 02:22:31.34	25.54	12.23	-52.5	-54.8	14.2	0.00e+00	0	26	0	192937984	71	4637
2026-01-06 02:22:32.35	25.47	12.32	-52.6	-55.0	14.1	0.00e+00	0	26	0	195035136	71	4709
2026-01-06 02:22:33.34	25.40	12.40	-52.6	-54.9	14.2	0.00e+00	0	26	0	196083712	71	4653
2026-01-06 02:22:34.34	25.33	12.49	-52.7	-55.1	14.1	0.00e+00	0	26	0	198180864	71	4780
2026-01-06 02:22:35.33	25.26	12.58	-52.6	-54.9	14.1	0.00e+00	0	26	0	200278016	71	4693
2026-01-06 02:22:36.33	25.18	12.67	-52.7	-55.1	14.1	0.00e+00	0	26	0	202375168	71	4767
2026-01-06 02:22:37.33	25.11	12.76	-52.7	-55.0	14.1	0.00e+00	0	26	0	204472320	71	4721
2026-01-06 02:22:38.33	25.03	12.85	-52.7	-55.0	14.1	0.00e+00	0	26	0	205520896	71	4742
2026-01-06 02:22:39.32	24.96	12.94	-52.7	-55.0	14.1	0.00e+00	0	26	0	207618048	71	4719
2026-01-06 02:22:40.32	24.89	13.03	-52.6	-54.9	14.2	0.00e+00	0	26	0	209715200	71	4652
2026-01-06 02:22:41.32	24.81	13.12	-52.5	-54.8	14.2	0.00e+00	0	26	0	211812352	71	4642
2026-01-06 02:22:42.32	24.73	13.21	-52.7	-55.0	14.1	0.00e+00	0	25	0	212860928	71	4746
2026-01-06 02:22:43.32	24.66	13.30	-52.4	-54.6	14.3	0.00e+00	0	26	0	214958080	71	4511
2026-01-06 02:22:44.31	24.58	13.39	-52.4	-54.6	14.3	0.00e+00	0	26	0	217055232	71	4501
2026-01-06 02:22:45.31	24.50	13.49	-52.5	-54.7	14.3	0.00e+00	0	26	0	219152384	71	4568
2026-01-06 02:22:46.31	24.42	13.58	-52.5	-54.6	14.3	0.00e+00	0	26	0	221249536	71	4532
2026-01-06 02:22:47.31	24.35	13.67	-52.3	-54.5	14.4	0.00e+00	0	25	0	222298112	71	4456
2026-01-06 02:22:48.31	24.27	13.76	-52.4	-54.5	14.4	0.00e+00	0	26	0	224395264	71	4473
2026-01-06 02:22:49.31	24.19	13.86	-52.2	-54.3	14.5	0.00e+00	0	26	0	226492416	71	4381
2026-01-06 02:22:50.31	24.11	13.95	-52.5	-54.7	14.3	0.00e+00	0	26	0	228589568	71	4576
2026-01-06 02:22:51.31	24.02	14.04	-52.3	-54.4	14.4	0.00e+00	0	25	0	230686720	71	4430
2026-01-06 02:22:52.31	23.94	14.14	-52.4	-54.5	14.4	0.00e+00	0	26	0	231735296	71	4466
2026-01-06 02:22:53.31	23.86	14.23	-52.5	-54.6	14.3	0.00e+00	0	26	0	233832448	71	4522
2026-01-06 02:22:54.30	23.78	14.33	-52.5	-54.7	14.3	0.00e+00	0	26	0	235929600	71	4578
2026-01-06 02:22:55.30	23.70	14.42	-52.5	-54.6	14.3	0.00e+00	0	26	0	238026752	71	4523
2026-01-06 02:22:56.30	23.61	14.52	-52.6	-54.8	14.3	0.00e+00	0	26	0	239075328	71	4617
2026-01-06 02:22:57.30	23.53	14.61	-52.5	-54.7	14.3	0.00e+00	0	26	0	241172480	71	4552
2026-01-06 02:22:58.30	23.44	14.71	-52.7	-55.0	14.2	0.00e+00	0	26	0	243269632	71	4724
2026-01-06 02:22:59.29	23.36	14.80	-52.5	-54.7	14.3	0.00e+00	0	26	0	245366784	71	4568
2026-01-06 02:23:00.29	23.27	14.90	-52.7	-54.9	14.2	0.00e+00	0	26	0	247463936	71	4671
2026-01-06 02:23:01.29	23.19	15.00	-52.5	-54.7	14.3	0.00e+00	0	26	0	248512512	71	4555
2026-01-06 02:23:02.29	23.10	15.09	-52.4	-54.6	14.3	0.00e+00	0	26	0	250609664	71	4502
2026-01-06 02:23:03.29	23.01	15.19	-52.5	-54.7	14.3	0.00e+00	0	26	0	252706816	71	4589
2026-01-06 02:23:04.29	22.92	15.29	-52.6	-54.8	14.2	0.00e+00	0	26	0	254803968	71	4640
2026-01-06 02:23:05.29	22.84	15.39	-52.5	-54.7	14.3	0.00e+00	0	26	0	256901120	71	4555
2026-01-06 02:23:06.29	22.75	15.49	-52.6	-55.0	14.2	0.00e+00	0	26	0	257949696	71	4711
2026-01-06 02:23:07.29	22.66	15.58	-52.5	-54.7	14.3	0.00e+00	0	26	0	260046848	71	4590
2026-01-06 02:23:08.29	22.57	15.68	-52.7	-54.9	14.1	0.00e+00	0	26	0	262144000	71	4703
2026-01-06 02:23:09.29	22.47	15.78	-52.5	-54.7	14.3	0.00e+00	0	26	0	264241152	71	4578
2026-01-06 02:23:10.28	22.38	15.88	-52.5	-54.7	14.3	0.00e+00	0	26	0	265289728	71	4579
2026-01-06 02:23:11.29	22.29	15.98	-52.3	-54.5	14.3	0.00e+00	0	26	0	267386880	71	4477
2026-01-06 02:23:12.29	22.20	16.08	-52.3	-54.5	14.4	0.00e+00	0	26	0	269484032	71	4471
2026-01-06 02:23:13.28	22.10	16.18	-52.4	-54.7	14.3	0.00e+00	0	26	0	271581184	71	4550
2026-01-06 02:23:14.28	22.01	16.28	-52.6	-54.9	14.1	0.00e+00	0	26	0	273678336	71	4683
2026-01-06 02:23:15.28	21.91	16.38	-52.4	-54.6	14.3	0.00e+00	0	26	0	274726912	71	4500
2026-01-06 02:23:16.28	21.82	16.49	-52.5	-54.8	14.2	0.00e+00	0	26	0	276824064	71	4624
2026-01-06 02:23:17.28	21.72	16.59	-52.6	-54.9	14.2	0.00e+00	0	26	0	278921216	71	4663
2026-01-06 02:23:18.27	21.62	16.69	-52.5	-54.8	14.2	0.00e+00	0	26	0	281018368	71	4640
2026-01-06 02:23:19.27	21.53	16.79	-52.5	-54.8	14.2	0.00e+00	0	26	0	283115520	71	4602
2026-01-06 02:23:20.27	21.43	16.90	-52.6	-54.8	14.2	0.00e+00	0	26	0	284164096	71	4635
2026-01-06 02:23:21.27	21.33	17.00	-52.5	-54.7	14.3	0.00e+00	0	26	0	286261248	71	4571
2026-01-06 02:23:22.28	21.23	17.10	-52.8	-55.1	14.1	0.00e+00	0	26	0	288358400	71	4806
2026-01-06 02:23:23.28	21.13	17.21	-52.5	-54.7	14.3	0.00e+00	0	26	0	290455552	71	4575
2026-01-06 02:23:24.28	21.02	17.31	-52.6	-54.8	14.2	0.00e+00	0	26	0	291504128	71	4621
2026-01-06 02:23:25.27	20.92	17.42	-52.7	-54.9	14.2	0.00e+00	0	26	0	293601280	71	4683
2026-01-06 02:23:26.27	20.82	17.52	-52.6	-54.8	14.2	0.00e+00	0	26	0	295698432	71	4621
2026-01-06 02:23:27.27	20.72	17.63	-52.6	-54.7	14.3	0.00e+00	0	26	0	297795584	71	4597
2026-01-06 02:23:28.26	20.61	17.73	-52.6	-54.7	14.3	0.00e+00	0	26	0	299892736	71	4587
2026-01-06 02:23:29.27	20.51	17.84	-52.6	-54.7	14.3	0.00e+00	0	26	0	300941312	71	4568
2026-01-06 02:23:30.27	20.40	17.95	-52.7	-54.9	14.2	0.00e+00	0	26	0	303038464	71	4658
2026-01-06 02:23:31.27	20.29	18.05	-52.6	-54.8	14.3	0.00e+00	0	26	0	305135616	71	4600
2026-01-06 02:23:32.27	20.19	18.16	-52.6	-54.7	14.3	0.00e+00	0	26	0	307232768	71	4571
2026-01-06 02:23:33.26	20.08	18.27	-52.5	-54.6	14.3	0.00e+00	0	26	0	309329920	71	4513
2026-01-06 02:23:34.25	19.97	18.37	-52.7	-54.8	14.3	0.00e+00	0	26	0	310378496	71	4637
2026-01-06 02:23:35.25	19.86	18.48	-52.8	-54.9	14.2	0.00e+00	0	26	0	312475648	71	4692
2026-01-06 02:23:36.25	19.75	18.59	-52.5	-54.5	14.4	0.00e+00	0	26	0	314572800	71	4472
2026-01-06 02:23:37.24	19.64	18.70	-52.6	-54.7	14.3	0.00e+00	0	26	0	316669952	71	4560
2026-01-06 02:23:38.24	19.53	18.81	-52.7	-54.8	14.3	0.00e+00	0	26	0	317718528	71	4634
2026-01-06 02:23:39.24	19.41	18.92	-52.6	-54.7	14.3	0.00e+00	0	26	0	319815680	71	4580
2026-01-06 02:23:40.24	19.30	19.03	-52.6	-54.7	14.3	0.00e+00	0	26	0	321912832	71	4589
2026-01-06 02:23:41.23	19.19	19.14	-52.8	-54.9	14.2	0.00e+00	0	26	0	324009984	71	4690
2026-01-06 02:23:42.23	19.07	19.25	-52.8	-54.9	14.3	0.00e+00	0	26	0	326107136	71	4673
2026-01-06 02:23:43.23	18.95	19.36	-52.8	-54.9	14.2	0.00e+00	0	26	0	327155712	71	4677
2026-01-06 02:23:44.23	18.84	19.47	-53.0	-55.2	14.1	0.00e+00	0	26	0	329252864	71	4817
2026-01-06 02:23:45.23	18.72	19.58	-53.0	-55.2	14.0	0.00e+00	0	26	0	331350016	71	4829
2026-01-06 02:23:46.22	18.60	19.70	-53.1	-55.3	14.0	0.00e+00	0	26	0	333447168	71	4910
2026-01-06 02:23:47.22	18.48	19.81	-52.8	-54.9	14.2	0.00e+00	0	26	0	335544320	71	4699
2026-01-06 02:23:48.21	18.36	19.92	-52.7	-54.8	14.3	0.00e+00	0	26	0	336592896	71	4634
2026-01-06 02:23:49.20	18.24	20.03	-52.6	-54.7	14.3	0.00e+00	0	26	0	338690048	71	4590
2026-01-06 02:23:50.19	18.12	20.15	-52.6	-54.6	14.4	0.00e+00	0	26	0	340787200	71	4542
2026-01-06 02:23:51.19	17.99	20.26	-52.5	-54.5	14.4	0.00e+00	0	26	0	342884352	71	4461
2026-01-06 02:23:52.18	17.87	20.37	-52.4	-54.4	14.5	0.00e+00	0	26	0	343932928	71	4437
2026-01-06 02:23:53.18	17.74	20.49	-52.4	-54.4	14.5	0.00e+00	0	26	0	346030080	71	4409
2026-01-06 02:23:54.18	17.62	20.60	-52.3	-54.3	14.5	0.00e+00	0	26	0	348127232	71	4367
2026-01-06 02:23:55.18	17.49	20.72	-52.4	-54.4	14.5	0.00e+00	0	26	0	350224384	71	4428
2026-01-06 02:23:56.17	17.36	20.83	-52.4	-54.4	14.5	0.00e+00	0	26	0	352321536	71	4439
2026-01-06 02:23:57.16	17.23	20.95	-52.4	-54.4	14.5	0.00e+00	0	26	0	353370112	71	4437
2026-01-06 02:23:58.17	17.10	21.07	-52.4	-54.5	14.4	0.00e+00	0	26	0	355467264	71	4463
2026-01-06 02:23:59.17	16.97	21.19	-52.6	-54.8	14.3	0.00e+00	0	26	0	357564416	71	4603
2026-01-06 02:24:00.16	16.84	21.30	-52.8	-54.9	14.2	0.00e+00	0	26	0	359661568	71	4701
2026-01-06 02:24:01.16	16.70	21.42	-52.8	-54.9	14.2	0.00e+00	0	26	0	360710144	71	4704
2026-01-06 02:24:02.16	16.57	21.54	-52.9	-55.1	14.1	0.00e+00	0	26	0	362807296	71	4810
2026-01-06 02:24:03.15	16.44	21.66	-53.0	-55.3	14.0	0.00e+00	0	26	0	364904448	71	4889
2026-01-06 02:24:04.15	16.30	21.78	-53.0	-55.2	14.1	0.00e+00	0	26	0	367001600	71	4844
2026-01-06 02:24:05.14	16.16	21.89	-52.7	-54.9	14.3	0.00e+00	0	26	0	369098752	71	4676
2026-01-06 02:24:06.14	16.02	22.01	-52.9	-55.1	14.2	0.00e+00	0	26	0	370147328	71	4782
2026-01-06 02:24:07.14	15.88	22.13	-53.0	-55.2	14.1	0.00e+00	0	26	0	372244480	71	4851
2026-01-06 02:24:08.13	15.74	22.25	-53.0	-55.4	14.0	0.00e+00	0	26	0	374341632	71	4928
2026-01-06 02:24:09.14	15.60	22.38	-53.1	-55.4	14.0	0.00e+00	0	26	0	376438784	71	4970
2026-01-06 02:24:10.14	15.45	22.50	-53.1	-55.5	13.9	0.00e+00	0	26	0	377487360	71	5032
2026-01-06 02:24:11.13	15.31	22.62	-53.1	-55.5	14.0	0.00e+00	0	26	0	379584512	71	5008
2026-01-06 02:24:12.13	15.16	22.74	-53.2	-55.6	13.9	0.00e+00	0	26	0	381681664	71	5098
2026-01-06 02:24:13.13	15.02	22.86	-52.9	-55.2	14.1	0.00e+00	0	26	0	383778816	71	4850
2026-01-06 02:24:14.12	14.87	22.99	-53.2	-55.6	13.9	0.00e+00	0	26	0	385875968	71	5065
2026-01-06 02:24:15.12	14.72	23.11	-53.1	-55.5	13.9	0.00e+00	0	26	0	386924544	71	5018
2026-01-06 02:24:16.12	14.57	23.23	-53.1	-55.5	14.0	0.00e+00	0	26	0	389021696	71	4996
2026-01-06 02:24:17.12	14.42	23.36	-53.1	-55.5	14.0	0.00e+00	0	26	0	391118848	71	4997
2026-01-06 02:24:18.12	14.26	23.48	-53.2	-55.7	13.8	0.00e+00	0	26	0	393216000	71	5140
2026-01-06 02:24:19.12	14.11	23.61	-53.3	-55.9	13.8	0.00e+00	0	26	0	395313152	71	5244
2026-01-06 02:24:20.12	13.95	23.73	-53.4	-56.0	13.8	0.00e+00	0	26	0	396361728	72	5000
2026-01-06 02:24:21.11	13.80	23.86	-53.2	-55.7	14.0	0.00e+00	0	26	0	398458880	72	4824
2026-01-06 02:24:22.12	13.64	23.98	-53.3	-56.0	13.9	0.00e+00	0	26	0	400556032	72	4986
2026-01-06 02:24:23.12	13.48	24.11	-53.2	-55.8	13.9	0.00e+00	0	26	0	402653184	72	4880
2026-01-06 02:24:24.11	13.32	24.24	-53.2	-55.8	13.9	0.00e+00	0	26	0	403701760	72	4914
2026-01-06 02:24:25.12	13.16	24.36	-53.0	-55.5	14.1	0.00e+00	0	26	0	405798912	72	4719
2026-01-06 02:24:26.11	12.99	24.49	-52.9	-55.3	14.1	0.00e+00	0	26	0	407896064	72	4608
2026-01-06 02:24:27.12	12.83	24.62	-52.8	-55.1	14.3	0.00e+00	0	26	0	409993216	72	4539
2026-01-06 02:24:28.11	12.66	24.75	-52.8	-55.1	14.3	0.00e+00	0	26	0	412090368	72	4495
2026-01-06 02:24:29.10	12.50	24.87	-52.6	-54.8	14.2	0.00e+00	0	26	0	413138944	71	4641
2026-01-06 02:24:30.09	12.33	25.00	-52.7	-55.0	14.2	0.00e+00	0	26	0	415236096	71	4733
2026-01-06 02:24:31.10	12.16	25.13	-52.7	-54.9	14.2	0.00e+00	0	26	0	417333248	71	4666
2026-01-06 02:24:32.10	11.98	25.26	-52.8	-55.0	14.2	0.00e+00	0	26	0	419430400	71	4758
2026-01-06 02:24:33.10	11.81	25.39	-52.8	-55.1	14.2	0.00e+00	0	26	0	421527552	71	4802
2026-01-06 02:24:34.09	11.64	25.52	-52.9	-55.2	14.1	0.00e+00	0	26	0	422576128	71	4836
2026-01-06 02:24:35.09	11.46	25.65	-53.2	-55.7	13.9	0.00e+00	0	26	0	424673280	71	5115
2026-01-06 02:24:36.08	11.29	25.78	-53.3	-55.7	13.9	0.00e+00	0	26	0	426770432	71	5139
2026-01-06 02:24:37.08	11.11	25.91	-53.2	-55.6	14.0	0.00e+00	0	26	0	428867584	71	5045
2026-01-06 02:24:38.08	10.93	26.04	-53.3	-55.8	13.9	0.00e+00	0	26	0	429916160	72	4886
2026-01-06 02:24:39.07	10.74	26.17	-53.2	-55.6	14.0	0.00e+00	0	26	0	432013312	72	4781
2026-01-06 02:24:40.07	10.56	26.31	-53.2	-55.6	14.0	0.00e+00	0	26	0	434110464	72	4808
2026-01-06 02:24:41.07	10.37	26.44	-53.2	-55.5	14.0	0.00e+00	0	26	0	436207616	72	4756
2026-01-06 02:24:42.07	10.19	26.57	-52.8	-55.1	14.3	0.00e+00	0	26	0	438304768	72	4507
2026-01-06 02:24:43.07	10.00	26.71	-53.0	-55.3	14.2	0.00e+00	0	26	0	439353344	72	4646
2026-01-06 02:24:44.07	9.81	26.84	-53.0	-55.5	14.1	0.00e+00	0	26	0	441450496	72	4735
2026-01-06 02:24:45.07	9.62	26.97	-53.4	-56.0	13.8	0.00e+00	0	26	0	443547648	72	5001
2026-01-06 02:24:46.06	9.42	27.11	-53.2	-55.8	13.9	0.00e+00	0	26	0	445644800	72	4893
2026-01-06 02:24:47.07	9.23	27.24	-53.6	-56.4	13.6	0.00e+00	0	26	0	447741952	72	5230
2026-01-06 02:24:48.07	9.03	27.38	-53.6	-56.3	13.6	0.00e+00	0	26	0	448790528	72	5179
2026-01-06 02:24:49.06	8.83	27.51	-53.6	-56.3	13.6	0.00e+00	0	26	0	450887680	72	5205
2026-01-06 02:24:50.05	8.64	27.64	-53.4	-56.0	13.8	0.00e+00	0	26	0	452984832	72	5041
2026-01-06 02:24:51.05	8.43	27.78	-53.3	-55.8	13.9	0.00e+00	0	26	0	455081984	72	4902
2026-01-06 02:24:52.04	8.23	27.91	-53.5	-56.0	13.8	0.00e+00	0	26	0	456130560	72	5026
2026-01-06 02:24:53.04	8.03	28.05	-53.4	-55.9	13.9	0.00e+00	0	26	0	458227712	72	4967
2026-01-06 02:24:54.03	7.82	28.19	-53.6	-56.1	13.8	0.00e+00	0	26	0	460324864	72	5083
2026-01-06 02:24:55.03	7.61	28.32	-53.8	-56.4	13.7	0.00e+00	0	26	0	462422016	72	5244
2026-01-06 02:24:56.03	7.40	28.46	-54.1	-56.8	13.5	0.00e+00	0	26	0	464519168	73	5201
2026-01-06 02:24:57.03	7.19	28.60	-54.3	-57.2	13.3	0.00e+00	0	26	0	465567744	73	5432
2026-01-06 02:24:58.03	6.97	28.73	-54.4	-57.3	13.4	0.00e+00	0	26	0	467664896	74	5186
2026-01-06 02:24:59.03	6.76	28.87	-54.4	-57.3	13.3	0.00e+00	0	26	0	469762048	74	5205
2026-01-06 02:25:00.02	6.54	29.01	-54.1	-56.9	13.6	0.00e+00	0	26	0	471859200	74	4970
2026-01-06 02:25:01.01	6.32	29.14	-54.3	-57.4	13.3	0.00e+00	0	26	0	472907776	74	5232
2026-01-06 02:25:02.01	6.10	29.28	-54.4	-57.5	13.2	0.00e+00	0	26	0	475004928	74	5316
2026-01-06 02:25:03.01	5.88	29.42	-54.5	-57.6	13.2	0.00e+00	0	26	0	477102080	74	5359
2026-01-06 02:25:04.01	5.65	29.56	-54.7	-57.9	13.1	0.00e+00	0	26	0	479199232	75	5271
2026-01-06 02:25:05.00	5.42	29.70	-55.0	-58.5	12.8	0.00e+00	0	26	0	481296384	75	5641
2026-01-06 02:25:06.00	5.19	29.83	-55.1	-58.7	12.7	0.00e+00	0	26	0	482344960	75	5742
2026-01-06 02:25:07.00	4.96	29.97	-55.3	-59.1	12.3	0.00e+00	0	26	0	484442112	75	6023
2026-01-06 02:25:07.99	4.73	30.11	-55.1	-58.7	12.6	0.00e+00	0	26	0	486539264	75	5773
2026-01-06 02:25:08.99	4.49	30.25	-55.2	-59.0	12.5	0.00e+00	0	26	0	488636416	75	5938
2026-01-06 02:25:09.99	4.26	30.39	-54.8	-58.2	13.0	0.00e+00	0	26	0	489684992	75	5416
2026-01-06 02:25:10.98	4.02	30.53	-54.8	-58.1	13.0	0.00e+00	0	26	0	491782144	75	5385
2026-01-06 02:25:11.98	3.78	30.67	-54.8	-58.2	12.9	0.00e+00	0	26	0	493879296	75	5417
2026-01-06 02:25:12.97	3.53	30.81	-55.0	-58.6	12.7	0.00e+00	0	26	0	495976448	75	5692
2026-01-06 02:25:13.97	3.29	30.94	-55.2	-58.9	12.5	0.00e+00	0	26	0	498073600	75	5892
2026-01-06 02:25:14.97	3.04	31.08	-55.6	-59.7	12.2	2.20e-06	0	26	0	499122176	76	6099
2026-01-06 02:25:15.96	2.79	31.22	-55.5	-59.3	12.5	0.00e+00	0	26	0	501219328	76	5799
2026-01-06 02:25:16.96	2.54	31.36	-55.6	-59.5	12.3	0.00e+00	0	26	0	503316480	76	5969
2026-01-06 02:25:17.96	2.28	31.50	-55.1	-58.4	13.0	0.00e+00	0	26	0	505413632	76	5231
2026-01-06 02:25:18.95	2.03	31.64	-54.6	-57.5	13.4	0.00e+00	0	26	0	507510784	75	5015
2026-01-06 02:25:19.96	1.76	31.78	-54.0	-56.6	13.8	0.00e+00	0	26	0	508559360	74	4770
2026-01-06 02:25:20.95	1.50	31.92	-54.4	-57.1	13.5	0.00e+00	0	26	0	510656512	74	5084
2026-01-06 02:25:21.95	1.24	32.06	-54.6	-57.6	13.3	0.00e+00	0	26	0	512753664	74	5345
2026-01-06 02:25:22.95	0.97	32.20	-54.7	-57.8	13.1	0.00e+00	0	26	0	514850816	74	5519
2026-01-06 02:25:23.94	0.71	32.34	-55.0	-58.3	12.9	0.00e+00	0	26	0	515899392	75	5528
2026-01-06 02:25:24.94	0.43	32.48	-55.1	-58.5	12.8	0.00e+00	0	26	0	517996544	75	5610
2026-01-06 02:25:25.93	0.16	32.62	-54.7	-57.7	13.3	0.00e+00	0	26	0	520093696	75	5142
2026-01-06 02:25:26.93	359.89	32.76	-54.3	-57.1	13.6	0.00e+00	0	26	0	522190848	75	4785
2026-01-06 02:25:27.92	359.61	32.89	-54.1	-56.7	13.7	0.00e+00	0	26	0	524288000	74	4860
2026-01-06 02:25:28.91	359.33	33.03	-54.0	-56.5	13.8	0.00e+00	0	26	0	525336576	74	4741
2026-01-06 02:25:29.91	359.05	33.17	-53.7	-56.1	13.9	0.00e+00	0	26	0	527433728	73	4803
2026-01-06 02:25:30.90	358.77	33.31	-53.7	-56.3	13.8	0.00e+00	0	26	0	529530880	73	4875
2026-01-06 02:25:31.90	358.48	33.45	-53.8	-56.5	13.7	0.00e+00	0	26	0	531628032	73	5002
2026-01-06 02:25:32.89	358.19	33.58	-54.1	-57.0	13.4	0.00e+00	0	26	0	532676608	73	5289
2026-01-06 02:25:33.89	357.90	33.72	-54.3	-57.3	13.4	0.00e+00	0	26	0	534773760	74	5196
2026-01-06 02:25:34.89	357.60	33.86	-54.6	-57.8	13.1	0.00e+00	0	26	0	536870912	74	5484
2026-01-06 02:25:35.88	357.30	34.00	-54.6	-57.8	13.2	0.00e+00	0	26	0	538968064	74	5474
2026-01-06 02:25:36.88	357.00	34.13	-54.2	-57.1	13.6	0.00e+00	0	26	0	541065216	74	5059
2026-01-06 02:25:37.88	356.70	34.27	-53.9	-56.5	13.8	0.00e+00	0	26	0	542113792	74	4758
2026-01-06 02:25:38.88	356.39	34.41	-53.9	-56.6	13.9	0.00e+00	0	26	0	544210944	74	4772
2026-01-06 02:25:39.88	356.09	34.54	-53.8	-56.5	13.9	0.00e+00	0	26	0	546308096	74	4737
2026-01-06 02:25:40.87	355.78	34.68	-54.1	-56.9	13.7	0.00e+00	0	26	0	548405248	74	4972
2026-01-06 02:25:41.87	355.46	34.82	-53.9	-57.0	13.7	0.00e+00	0	26	0	550502400	74	5035
2026-01-06 02:25:42.86	355.15	34.95	-53.8	-57.2	13.7	0.00e+00	0	26	0	551550976	74	5102
2026-01-06 02:25:43.86	354.83	35.08	-53.9	-56.9	13.8	0.00e+00	0	26	0	553648128	74	4964
2026-01-06 02:25:44.85	354.51	35.22	-54.1	-56.9	13.7	0.00e+00	0	26	0	555745280	74	4981
2026-01-06 02:25:45.85	354.19	35.35	-54.0	-56.7	13.8	0.00e+00	0	26	0	557842432	74	4851
2026-01-06 02:25:46.85	353.86	35.48	-54.2	-57.0	13.6	0.00e+00	0	26	0	558891008	74	5008
2026-01-06 02:25:47.84	353.53	35.62	-54.2	-57.1	13.6	0.00e+00	0	26	0	560988160	74	5047
2026-01-06 02:25:48.84	353.20	35.75	-54.1	-57.1	13.6	0.00e+00	0	26	0	563085312	74	5042
2026-01-06 02:25:49.83	352.87	35.88	-54.5	-57.8	13.2	0.00e+00	0	26	0	565182464	74	5472
2026-01-06 02:25:50.83	352.53	36.01	-54.7	-58.1	12.9	0.00e+00	0	26	0	567279616	74	5696
2026-01-06 02:25:51.82	352.19	36.14	-54.6	-58.2	12.8	0.00e+00	0	26	0	568328192	74	5762
2026-01-06 02:25:52.81	351.85	36.27	-54.4	-57.8	13.1	0.00e+00	0	26	0	570425344	74	5523
2026-01-06 02:25:53.81	351.51	36.40	-54.4	-57.8	13.0	0.00e+00	0	26	0	572522496	74	5523
2026-01-06 02:25:54.80	351.16	36.53	-54.6	-58.3	12.8	0.00e+00	0	26	0	574619648	74	5805
2026-01-06 02:25:55.78	350.82	36.65	-54.6	-58.3	12.7	0.00e+00	0	26	0	575668224	74	5833
2026-01-06 02:25:56.78	350.46	36.78	-54.7	-58.5	12.7	0.00e+00	0	26	0	577765376	74	5945
2026-01-06 02:25:57.78	350.10	36.90	-54.9	-58.8	12.5	7.00e-07	0	26	0	579862528	74	6184
2026-01-06 02:25:58.78	349.74	37.03	-54.8	-58.5	12.7	0.00e+00	0	26	0	581959680	74	5952
2026-01-06 02:25:59.77	349.38	37.15	-54.6	-58.2	12.8	0.00e+00	0	26	0	584056832	74	5758
2026-01-06 02:26:00.77	349.02	37.28	-54.6	-58.1	12.9	0.00e+00	0	26	0	585105408	74	5677
2026-01-06 02:26:01.76	348.65	37.40	-54.1	-57.1	13.5	0.00e+00	0	26	0	587202560	74	5096
2026-01-06 02:26:02.75	348.29	37.52	-53.9	-56.7	13.6	0.00e+00	0	26	0	589299712	73	5145
2026-01-06 02:26:03.74	347.92	37.64	-53.8	-56.6	13.6	0.00e+00	0	26	0	591396864	73	5077
2026-01-06 02:26:04.73	347.54	37.76	-54.1	-57.1	13.5	0.00e+00	0	26	0	592445440	73	5355
2026-01-06 02:26:05.73	347.16	37.88	-54.6	-57.8	13.2	0.00e+00	0	26	0	594542592	74	5511
2026-01-06 02:26:06.72	346.78	38.00	-54.5	-57.7	13.2	0.00e+00	0	26	0	596639744	74	5434
2026-01-06 02:26:07.72	346.40	38.11	-54.3	-57.3	13.4	0.00e+00	0	26	0	598736896	74	5198
2026-01-06 02:26:08.72	346.01	38.23	-53.2	-55.7	14.1	0.00e+00	0	26	0	600834048	73	4571
2026-01-06 02:26:09.72	345.62	38.34	-52.6	-54.9	14.3	0.00e+00	0	26	0	601882624	71	4671
2026-01-06 02:26:10.72	345.23	38.46	-52.6	-54.9	14.3	0.00e+00	0	26	0	603979776	71	4674
2026-01-06 02:26:11.71	344.83	38.57	-52.8	-55.2	14.2	0.00e+00	0	26	0	606076928	71	4819
2026-01-06 02:26:12.71	344.43	38.68	-53.1	-55.6	13.9	0.00e+00	0	26	0	608174080	71	5069
2026-01-06 02:26:13.71	344.03	38.79	-53.6	-56.5	13.6	0.00e+00	0	26	0	609222656	72	5297
2026-01-06 02:26:14.70	343.63	38.90	-53.2	-55.9	13.9	0.00e+00	0	26	0	611319808	72	4974
2026-01-06 02:26:15.70	343.22	39.01	-52.9	-55.4	14.2	0.00e+00	0	26	0	613416960	72	4660
2026-01-06 02:26:16.70	342.81	39.11	-52.9	-55.4	14.2	0.00e+00	0	26	0	615514112	72	4699
2026-01-06 02:26:17.69	342.41	39.22	-52.8	-55.3	14.1	0.00e+00	0	26	0	617611264	71	4891
2026-01-06 02:26:18.68	341.99	39.32	-52.9	-55.6	14.0	0.00e+00	0	26	0	618659840	71	5056
2026-01-06 02:26:19.69	341.57	39.42	-52.8	-55.4	14.0	0.00e+00	0	26	0	620756992	71	4959
2026-01-06 02:26:20.68	341.16	39.52	-52.7	-55.4	14.1	0.00e+00	0	26	0	622854144	71	4933
2026-01-06 02:26:21.67	340.74	39.62	-52.5	-55.0	14.3	0.00e+00	0	26	0	624951296	71	4714
2026-01-06 02:26:22.67	340.31	39.72	-52.4	-54.8	14.4	0.00e+00	0	26	0	625999872	71	4643
2026-01-06 02:26:23.67	339.88	39.82	-52.7	-55.2	14.1	0.00e+00	0	26	0	628097024	71	4869
2026-01-06 02:26:24.67	339.45	39.91	-52.8	-55.3	14.1	0.00e+00	0	26	0	630194176	71	4924
2026-01-06 02:26:25.66	339.02	40.00	-52.6	-55.2	14.1	0.00e+00	0	26	0	632291328	71	4828
2026-01-06 02:26:26.65	338.59	40.09	-52.5	-55.1	14.2	0.00e+00	0	26	0	634388480	71	4768
2026-01-06 02:26:27.65	338.15	40.18	-52.2	-54.6	14.3	0.00e+00	0	26	0	635437056	70	4803
2026-01-06 02:26:28.65	337.71	40.27	-52.0	-54.3	14.4	0.00e+00	0	26	0	637534208	70	4643
2026-01-06 02:26:29.66	337.26	40.36	-51.8	-54.1	14.6	0.00e+00	0	26	0	639631360	70	4503
2026-01-06 02:26:30.66	336.82	40.44	-51.3	-53.5	14.7	0.00e+00	0	26	0	641728512	69	4449
2026-01-06 02:26:31.66	336.37	40.53	-50.9	-52.8	14.8	0.00e+00	0	26	0	643825664	68	4376
2026-01-06 02:26:32.65	335.92	40.61	-51.1	-53.1	14.7	0.00e+00	0	26	0	644874240	68	4527
2026-01-06 02:26:33.65	335.47	40.69	-51.3	-53.4	14.6	0.00e+00	0	26	0	646971392	68	4653
2026-01-06 02:26:34.64	335.02	40.76	-51.4	-53.4	14.6	0.00e+00	0	26	0	649068544	68	4701
2026-01-06 02:26:35.63	334.57	40.84	-51.5	-53.6	14.5	0.00e+00	0	26	0	651165696	68	4789
2026-01-06 02:26:36.62	334.12	40.91	-51.5	-53.5	14.5	0.00e+00	0	26	0	652214272	68	4750
2026-01-06 02:26:37.62	333.65	40.98	-51.4	-53.3	14.6	0.00e+00	0	26	0	654311424	68	4645
2026-01-06 02:26:38.62	333.19	41.05	-51.8	-53.9	14.5	0.00e+00	0	26	0	656408576	69	4656
2026-01-06 02:26:39.62	332.73	41.12	-52.4	-54.6	14.3	0.00e+00	0	26	0	658505728	70	4790
2026-01-06 02:26:40.62	332.26	41.18	-52.8	-55.3	14.0	0.00e+00	0	26	0	660602880	71	4907
2026-01-06 02:26:41.62	331.79	41.25	-52.8	-55.3	14.1	0.00e+00	0	26	0	661651456	71	4911
2026-01-06 02:26:42.62	331.32	41.31	-52.8	-55.3	14.2	0.00e+00	0	26	0	663748608	71	4912
2026-01-06 02:26:43.61	330.85	41.37	-52.7	-55.0	14.3	0.00e+00	0	26	0	665845760	71	4757
2026-01-06 02:26:44.61	330.38	41.43	-52.7	-55.1	14.2	0.00e+00	0	26	0	667942912	71	4777
2026-01-06 02:26:45.61	329.90	41.48	-52.5	-54.8	14.3	0.00e+00	0	26	0	670040064	71	4624
2026-01-06 02:26:46.59	329.43	41.53	-53.0	-55.6	14.0	0.00e+00	0	26	0	671088640	71	5042
2026-01-06 02:26:47.59	328.96	41.58	-53.2	-55.9	13.9	0.00e+00	0	26	0	673185792	71	5228
2026-01-06 02:26:48.58	328.48	41.63	-52.9	-55.4	14.1	0.00e+00	0	26	0	675282944	71	4940
2026-01-06 02:26:49.58	328.00	41.68	-52.4	-54.6	14.4	0.00e+00	0	26	0	677380096	71	4516
2026-01-06 02:26:50.58	327.51	41.72	-52.1	-54.2	14.5	0.00e+00	0	26	0	678428672	70	4549
2026-01-06 02:26:51.59	327.03	41.76	-52.0	-54.1	14.6	0.00e+00	0	26	0	680525824	70	4503
2026-01-06 02:26:52.59	326.54	41.80	-52.7	-55.1	14.1	0.00e+00	0	26	0	682622976	70	5070
2026-01-06 02:26:53.59	326.05	41.84	-53.4	-56.1	13.8	0.00e+00	0	26	0	684720128	71	5363
2026-01-06 02:26:54.59	325.56	41.88	-53.6	-56.3	13.8	0.00e+00	0	26	0	686817280	72	5189
2026-01-06 02:26:55.59	325.08	41.91	-53.2	-55.8	14.0	0.00e+00	0	26	0	687865856	72	4891
2026-01-06 02:26:56.59	324.59	41.94	-52.2	-54.3	14.6	0.00e+00	0	26	0	689963008	71	4379
2026-01-06 02:26:57.58	324.10	41.97	-51.7	-53.6	14.7	0.00e+00	0	26	0	692060160	69	4504
2026-01-06 02:26:58.58	323.61	41.99	-51.8	-53.7	14.6	0.00e+00	0	26	0	694157312	69	4581
2026-01-06 02:26:59.58	323.11	42.02	-52.4	-54.5	14.3	0.00e+00	0	26	0	695205888	69	5041
2026-01-06 02:27:00.57	322.63	42.04	-53.1	-55.6	14.1	0.00e+00	0	26	0	697303040	71	5052
2026-01-06 02:27:01.57	322.13	42.06	-53.3	-55.8	14.0	0.00e+00	0	26	0	699400192	72	4926
2026-01-06 02:27:02.57	321.64	42.07	-53.1	-55.6	14.1	0.00e+00	0	26	0	701497344	72	4774
2026-01-06 02:27:03.58	321.14	42.09	-53.2	-55.6	14.1	0.00e+00	0	26	0	703594496	72	4799
2026-01-06 02:27:04.58	320.64	42.10	-53.0	-55.4	14.2	0.00e+00	0	26	0	704643072	72	4699
2026-01-06 02:27:05.58	320.15	42.11	-53.0	-55.4	14.3	0.00e+00	0	26	0	706740224	72	4692
2026-01-06 02:27:06.58	319.65	42.11	-53.0	-55.4	14.3	0.00e+00	0	26	0	708837376	72	4658
2026-01-06 02:27:07.58	319.16	42.12	-53.5	-56.2	13.9	0.00e+00	0	26	0	710934528	72	5105
2026-01-06 02:27:08.58	318.66	42.12	-54.2	-57.3	13.4	0.00e+00	0	26	0	713031680	73	5510
2026-01-06 02:27:09.57	318.17	42.12	-54.1	-57.2	13.4	0.00e+00	0	26	0	714080256	74	5137
2026-01-06 02:27:10.57	317.67	42.11	-53.6	-56.4	13.8	0.00e+00	0	26	0	716177408	73	4932
2026-01-06 02:27:11.57	317.18	42.11	-53.2	-55.9	14.1	0.00e+00	0	26	0	718274560	73	4653
2026-01-06 02:27:12.56	316.69	42.10	-53.2	-55.8	14.0	0.00e+00	0	26	0	720371712	72	4920
2026-01-06 02:27:13.56	316.19	42.09	-53.2	-55.9	14.0	0.00e+00	0	26	0	721420288	72	4932
2026-01-06 02:27:14.55	315.70	42.08	-53.1	-55.7	14.1	0.00e+00	0	26	0	723517440	72	4857
2026-01-06 02:27:15.56	315.20	42.06	-53.5	-56.4	13.7	0.00e+00	0	26	0	725614592	72	5237
2026-01-06 02:27:16.55	314.71	42.04	-53.9	-57.1	13.4	0.00e+00	0	26	0	727711744	72	5672
2026-01-06 02:27:17.54	314.22	42.02	-53.8	-56.9	13.6	0.00e+00	0	26	0	729808896	73	5229
2026-01-06 02:27:18.54	313.73	42.00	-54.0	-57.4	13.3	0.00e+00	0	26	0	730857472	73	5547
2026-01-06 02:27:19.54	313.24	41.98	-54.6	-58.4	12.7	0.00e+00	0	26	0	732954624	74	5881
2026-01-06 02:27:20.54	312.75	41.95	-54.8	-58.6	12.7	0.00e+00	0	26	0	735051776	75	5715
2026-01-06 02:27:21.54	312.26	41.92	-54.8	-58.6	12.9	0.00e+00	0	26	0	737148928	75	5703
2026-01-06 02:27:22.54	311.77	41.89	-54.7	-58.3	13.0	0.00e+00	0	26	0	739246080	75	5471
2026-01-06 02:27:23.55	311.27	41.85	-54.9	-58.6	12.8	0.00e+00	0	26	0	740294656	75	5705
2026-01-06 02:27:24.55	310.79	41.82	-55.2	-59.2	12.5	0.00e+00	0	26	0	742391808	75	6075
2026-01-06 02:27:25.55	310.30	41.78	-55.1	-59.1	12.3	0.00e+00	0	26	0	744488960	75	6043
2026-01-06 02:27:26.55	309.81	41.74	-54.7	-58.3	12.9	0.00e+00	0	26	0	746586112	75	5508
2026-01-06 02:27:27.55	309.33	41.69	-54.7	-58.5	12.8	0.00e+00	0	26	0	748683264	75	5635
2026-01-06 02:27:28.55	308.85	41.65	-54.9	-58.8	12.6	0.00e+00	0	26	0	749731840	75	5820
2026-01-06 02:27:29.55	308.37	41.60	-55.3	-59.9	12.0	0.00e+00	0	26	0	751828992	75	6596
2026-01-06 02:27:30.54	307.89	41.55	-56.0	-61.4	11.0	4.50e-06	0	26	0	753926144	77	7032
2026-01-06 02:27:31.54	307.41	41.50	-56.2	-62.3	10.3	2.94e-04	0	26	0	756023296	77	7787
2026-01-06 02:27:32.54	306.94	41.44	-55.7	-60.6	11.6	1.22e-05	0	26	0	757071872	77	6354
2026-01-06 02:27:33.55	306.46	41.39	-55.6	-60.1	12.0	7.00e-07	0	26	0	759169024	77	6039
2026-01-06 02:27:34.54	305.99	41.33	-55.4	-59.9	12.2	7.00e-07	0	26	0	761266176	77	5867
2026-01-06 02:27:35.54	305.52	41.27	-55.1	-59.4	12.4	0.00e+00	0	26	0	763363328	76	5878
2026-01-06 02:27:36.54	305.05	41.20	-54.6	-58.4	12.8	0.00e+00	0	26	0	765460480	75	5548
2026-01-06 02:27:37.54	304.58	41.14	-54.7	-58.6	12.8	0.00e+00	0	26	0	766509056	75	5684
2026-01-06 02:27:38.54	304.11	41.07	-55.0	-59.4	12.2	7.00e-07	0	26	0	768606208	75	6270
2026-01-06 02:27:39.54	303.65	41.00	-55.2	-59.9	12.0	2.20e-06	0	26	0	770703360	75	6610
2026-01-06 02:27:40.54	303.19	40.93	-55.6	-60.7	11.4	2.20e-06	0	26	0	772800512	76	6834
2026-01-06 02:27:41.53	302.73	40.86	-55.4	-60.5	11.6	5.30e-06	0	26	0	773849088	76	6670
2026-01-06 02:27:42.53	302.27	40.78	-55.1	-59.6	12.2	4.50e-06	0	26	0	775946240	76	6026
2026-01-06 02:27:43.52	301.82	40.71	-54.6	-58.2	13.1	0.00e+00	0	26	0	778043392	75	5430
2026-01-06 02:27:44.52	301.37	40.63	-53.1	-55.8	14.0	0.00e+00	0	26	0	780140544	72	4895
2026-01-06 02:27:45.51	300.92	40.55	-53.0	-55.6	14.1	0.00e+00	0	26	0	782237696	72	4813
2026-01-06 02:27:46.51	300.47	40.47	-53.0	-55.6	14.1	0.00e+00	0	26	0	783286272	72	4780
2026-01-06 02:27:47.51	300.03	40.38	-52.7	-55.2	14.3	0.00e+00	0	26	0	785383424	72	4565
2026-01-06 02:27:48.50	299.59	40.30	-52.7	-55.2	14.2	0.00e+00	0	26	0	787480576	71	4825
2026-01-06 02:27:49.50	299.14	40.21	-52.3	-54.5	14.5	0.00e+00	0	26	0	789577728	71	4481
2026-01-06 02:27:50.49	298.71	40.12	-52.6	-55.0	14.3	0.00e+00	0	26	0	790626304	71	4748
2026-01-06 02:27:51.49	298.27	40.03	-52.3	-54.5	14.4	0.00e+00	0	26	0	792723456	71	4493
2026-01-06 02:27:52.48	297.84	39.94	-51.7	-53.8	14.7	0.00e+00	0	26	0	794820608	70	4345
2026-01-06 02:27:53.48	297.41	39.84	-51.4	-53.3	14.8	0.00e+00	0	26	0	796917760	69	4376
2026-01-06 02:27:54.48	296.98	39.75	-51.1	-53.0	14.7	0.00e+00	0	26	0	799014912	68	4454
2026-01-06 02:27:55.47	296.56	39.65	-51.1	-53.0	14.7	0.00e+00	0	26	0	800063488	68	4490
2026-01-06 02:27:56.47	296.13	39.55	-51.2	-53.1	14.7	0.00e+00	0	26	0	802160640	68	4527
2026-01-06 02:27:57.47	295.71	39.45	-51.3	-53.3	14.7	0.00e+00	0	26	0	804257792	68	4608
2026-01-06 02:27:58.48	295.29	39.35	-51.5	-53.5	14.6	0.00e+00	0	26	0	806354944	68	4743
2026-01-06 02:27:59.48	294.87	39.25	-51.6	-53.6	14.5	0.00e+00	0	26	0	808452096	68	4792
2026-01-06 02:28:00.47	294.46	39.14	-51.4	-53.3	14.6	0.00e+00	0	26	0	809500672	68	4636
2026-01-06 02:28:01.47	294.05	39.04	-51.3	-53.2	14.7	0.00e+00	0	26	0	811597824	68	4564
2026-01-06 02:28:02.47	293.64	38.93	-51.0	-52.8	14.8	0.00e+00	0	26	0	813694976	68	4375
2026-01-06 02:28:03.48	293.23	38.82	-50.3	-52.0	15.0	0.00e+00	0	26	0	815792128	67	4230
2026-01-06 02:28:04.49	292.82	38.71	-50.3	-52.0	14.9	0.00e+00	0	26	0	817889280	66	4464
2026-01-06 02:28:05.48	292.43	38.60	-50.6	-52.4	14.7	0.00e+00	0	26	0	818937856	66	4653
2026-01-06 02:28:06.49	292.02	38.48	-51.0	-52.9	14.6	0.00e+00	0	26	0	821035008	67	4677
2026-01-06 02:28:07.49	291.63	38.37	-51.8	-53.9	14.4	0.00e+00	0	26	0	823132160	68	4980
2026-01-06 02:28:08.49	291.24	38.26	-52.0	-54.2	14.4	0.00e+00	0	26	0	825229312	69	4860
2026-01-06 02:28:09.49	290.85	38.14	-52.2	-54.4	14.3	0.00e+00	0	26	0	826277888	69	4959
2026-01-06 02:28:10.48	290.47	38.02	-52.6	-54.9	14.2	0.00e+00	0	26	0	828375040	70	4973
2026-01-06 02:28:11.48	290.08	37.90	-52.1	-54.2	14.5	0.00e+00	0	26	0	830472192	70	4579
2026-01-06 02:28:12.48	289.70	37.79	-51.9	-53.9	14.7	0.00e+00	0	26	0	832569344	70	4399
2026-01-06 02:28:13.47	289.33	37.67	-51.5	-53.4	14.7	0.00e+00	0	26	0	834666496	69	4423
2026-01-06 02:28:14.48	288.95	37.54	-51.9	-53.9	14.5	0.00e+00	0	26	0	835715072	69	4680
2026-01-06 02:28:15.47	288.58	37.42	-52.3	-54.4	14.4	0.00e+00	0	26	0	837812224	70	4659
2026-01-06 02:28:16.47	288.21	37.30	-52.4	-54.5	14.3	0.00e+00	0	26	0	839909376	70	4748
2026-01-06 02:28:17.46	287.85	37.18	-51.9	-53.9	14.6	0.00e+00	0	26	0	842006528	70	4436
2026-01-06 02:28:18.46	287.48	37.05	-51.8	-53.7	14.6	0.00e+00	0	26	0	844103680	69	4593
2026-01-06 02:28:19.45	287.12	36.93	-51.2	-53.0	14.9	0.00e+00	0	26	0	845152256	69	4224
2026-01-06 02:28:20.46	286.76	36.80	-51.1	-52.8	14.8	0.00e+00	0	26	0	847249408	68	4377
2026-01-06 02:28:21.46	286.41	36.67	-50.9	-52.5	15.0	0.00e+00	0	26	0	849346560	68	4209
2026-01-06 02:28:22.46	286.05	36.54	-50.8	-52.4	15.0	0.00e+00	0	26	0	851443712	68	4193
2026-01-06 02:28:23.46	285.70	36.42	-51.4	-53.1	14.7	0.00e+00	0	26	0	852492288	68	4500
2026-01-06 02:28:24.46	285.35	36.29	-52.7	-54.8	14.3	0.00e+00	0	26	0	854589440	70	4872
2026-01-06 02:28:25.47	285.01	36.15	-53.2	-55.5	14.1	0.00e+00	0	26	0	856686592	71	4984
2026-01-06 02:28:26.46	284.67	36.03	-52.9	-55.1	14.2	0.00e+00	0	26	0	858783744	71	4781
2026-01-06 02:28:27.46	284.33	35.89	-52.2	-54.1	14.7	0.00e+00	0	26	0	860880896	71	4270
2026-01-06 02:28:28.47	283.99	35.76	-52.1	-54.0	14.6	0.00e+00	0	26	0	861929472	70	4443
2026-01-06 02:28:29.47	283.66	35.63	-52.4	-54.3	14.4	0.00e+00	0	26	0	864026624	70	4648
2026-01-06 02:28:30.47	283.32	35.49	-52.6	-54.7	14.3	0.00e+00	0	26	0	866123776	70	4823
2026-01-06 02:28:31.47	283.00	35.36	-52.2	-54.0	14.5	0.00e+00	0	26	0	868220928	70	4492
2026-01-06 02:28:32.47	282.67	35.23	-52.4	-54.3	14.4	0.00e+00	0	26	0	870318080	70	4640
2026-01-06 02:28:33.46	282.35	35.09	-52.6	-54.7	14.3	0.00e+00	0	26	0	871366656	70	4829
2026-01-06 02:28:34.46	282.03	34.96	-53.0	-55.2	14.2	0.00e+00	0	26	0	873463808	71	4815
2026-01-06 02:28:35.46	281.71	34.82	-53.0	-55.2	14.0	0.00e+00	0	26	0	875560960	71	4854
2026-01-06 02:28:36.46	281.40	34.69	-53.2	-55.5	14.1	0.00e+00	0	26	0	877658112	71	4994
2026-01-06 02:28:37.45	281.09	34.55	-53.7	-56.0	13.9	0.00e+00	0	27	0	879755264	72	5038
2026-01-06 02:28:38.45	280.78	34.42	-54.3	-56.9	13.6	0.00e+00	0	26	0	880803840	73	5272
2026-01-06 02:28:39.44	280.48	34.28	-54.7	-57.5	13.3	0.00e+00	0	26	0	882900992	74	5323
2026-01-06 02:28:40.44	280.17	34.14	-54.2	-56.8	13.7	0.00e+00	0	26	0	884998144	74	4916
2026-01-06 02:28:41.44	279.87	34.00	-53.8	-56.1	14.1	0.00e+00	0	26	0	887095296	74	4531
2026-01-06 02:28:42.44	279.57	33.87	-53.6	-56.0	14.0	0.00e+00	0	27	0	888143872	73	4707
2026-01-06 02:28:43.44	279.27	33.73	-53.6	-55.9	14.1	0.00e+00	0	26	0	890241024	73	4689
2026-01-06 02:28:44.45	278.98	33.59	-53.4	-55.7	14.2	0.00e+00	0	26	0	892338176	73	4548
2026-01-06 02:28:45.44	278.69	33.45	-53.3	-55.4	14.1	0.00e+00	0	26	0	894435328	72	4701
2026-01-06 02:28:46.44	278.40	33.31	-53.2	-55.4	14.2	0.00e+00	0	26	0	896532480	72	4659
2026-01-06 02:28:47.44	278.11	33.17	-53.4	-55.6	14.2	0.00e+00	0	26	0	897581056	72	4768
2026-01-06 02:28:48.45	277.82	33.03	-53.6	-56.0	13.9	0.00e+00	0	26	0	899678208	72	4997
2026-01-06 02:28:49.45	277.54	32.89	-54.2	-57.0	13.5	0.00e+00	0	26	0	901775360	73	5286
2026-01-06 02:28:50.45	277.26	32.75	-54.4	-57.1	13.6	0.00e+00	0	26	0	903872512	74	5087
2026-01-06 02:28:51.45	276.99	32.61	-54.1	-56.7	13.8	0.00e+00	0	26	0	905969664	74	4828
2026-01-06 02:28:52.45	276.71	32.47	-53.8	-56.2	14.0	0.00e+00	0	26	0	907018240	74	4593
2026-01-06 02:28:53.45	276.44	32.33	-53.8	-56.1	14.0	0.00e+00	0	27	0	909115392	73	4813
2026-01-06 02:28:54.45	276.17	32.19	-53.8	-56.3	13.9	0.00e+00	0	26	0	911212544	73	4872
2026-01-06 02:28:55.46	275.90	32.05	-54.4	-57.1	13.5	0.00e+00	0	26	0	913309696	73	5357
2026-01-06 02:28:56.46	275.63	31.91	-54.5	-57.3	13.5	0.00e+00	0	26	0	914358272	74	5171
2026-01-06 02:28:57.46	275.37	31.77	-55.0	-58.1	13.1	0.00e+00	0	27	0	916455424	75	5388
2026-01-06 02:28:58.46	275.11	31.63	-55.9	-59.7	12.2	0.00e+00	0	26	0	918552576	76	6128
2026-01-06 02:28:59.45	274.85	31.49	-56.5	-61.2	11.4	7.00e-07	0	27	0	920649728	78	6437
2026-01-06 02:29:00.45	274.60	31.35	-56.8	-62.0	10.8	1.11e-04	0	26	0	922746880	78	7095
2026-01-06 02:29:01.45	274.34	31.21	-56.4	-60.9	11.5	2.97e-05	0	26	0	923795456	78	6210
2026-01-06 02:29:02.44	274.10	31.07	-55.8	-59.3	12.7	0.00e+00	0	26	0	925892608	78	5204
2026-01-06 02:29:03.44	273.85	30.93	-54.9	-57.9	13.3	0.00e+00	0	26	0	927989760	76	4957
2026-01-06 02:29:04.44	273.60	30.79	-54.5	-57.3	13.6	0.00e+00	0	26	0	930086912	75	4891
2026-01-06 02:29:05.44	273.35	30.65	-54.4	-57.2	13.6	0.00e+00	0	26	0	931135488	75	4855
2026-01-06 02:29:06.45	273.11	30.51	-54.6	-57.4	13.4	0.00e+00	0	26	0	933232640	75	4983
2026-01-06 02:29:07.45	272.87	30.37	-54.3	-57.1	13.6	0.00e+00	0	26	0	935329792	75	4792
2026-01-06 02:29:08.45	272.63	30.23	-54.3	-57.1	13.7	0.00e+00	0	26	0	937426944	75	4764
2026-01-06 02:29:09.45	272.39	30.09	-53.9	-56.4	13.9	0.00e+00	0	26	0	939524096	74	4684
2026-01-06 02:29:10.44	272.16	29.96	-54.1	-56.7	13.8	0.00e+00	0	26	0	940572672	74	4850
2026-01-06 02:29:11.43	271.93	29.82	-54.0	-56.6	13.7	0.00e+00	0	26	0	942669824	74	4773
2026-01-06 02:29:12.44	271.70	29.68	-54.3	-57.0	13.6	0.00e+00	0	26	0	944766976	74	5024
2026-01-06 02:29:13.44	271.47	29.54	-54.6	-57.5	13.3	0.00e+00	0	26	0	946864128	74	5295
2026-01-06 02:29:14.44	271.24	29.40	-54.5	-57.3	13.4	0.00e+00	0	27	0	948961280	74	5199
2026-01-06 02:29:15.45	271.01	29.26	-53.9	-56.4	13.9	0.00e+00	0	26	0	950009856	74	4677
2026-01-06 02:29:16.45	270.79	29.12	-53.8	-56.3	14.0	0.00e+00	0	26	0	952107008	74	4605
2026-01-06 02:29:17.45	270.57	28.98	-54.1	-56.7	13.8	0.00e+00	0	27	0	954204160	74	4817
2026-01-06 02:29:18.44	270.35	28.85	-54.0	-56.5	13.9	0.00e+00	0	27	0	956301312	74	4754
2026-01-06 02:29:19.44	270.14	28.71	-53.8	-56.1	14.0	0.00e+00	0	26	0	958398464	74	4545
2026-01-06 02:29:20.44	269.92	28.57	-53.7	-56.0	14.0	0.00e+00	0	26	0	959447040	73	4748
2026-01-06 02:29:21.44	269.71	28.43	-53.8	-56.3	13.9	0.00e+00	0	26	0	961544192	73	4878
2026-01-06 02:29:22.44	269.50	28.30	-53.4	-55.6	14.2	0.00e+00	0	26	0	963641344	73	4540
2026-01-06 02:29:23.44	269.29	28.16	-53.5	-55.8	14.1	0.00e+00	0	26	0	965738496	73	4616
2026-01-06 02:29:24.44	269.08	28.02	-53.6	-55.9	14.1	0.00e+00	0	26	0	966787072	73	4668
2026-01-06 02:29:25.44	268.87	27.89	-53.5	-55.8	14.1	0.00e+00	0	26	0	968884224	73	4637
2026-01-06 02:29:26.44	268.67	27.75	-53.1	-55.2	14.3	0.00e+00	0	26	0	970981376	72	4579
2026-01-06 02:29:27.44	268.47	27.61	-52.8	-54.9	14.4	0.00e+00	0	26	0	973078528	72	4421
2026-01-06 02:29:28.44	268.27	27.48	-52.6	-54.6	14.4	0.00e+00	0	26	0	975175680	71	4525
2026-01-06 02:29:29.44	268.07	27.34	-52.6	-54.6	14.4	0.00e+00	0	26	0	976224256	71	4508
2026-01-06 02:29:30.42	267.87	27.21	-52.5	-54.5	14.5	0.00e+00	0	26	0	978321408	71	4450
2026-01-06 02:29:31.42	267.68	27.08	-52.6	-54.6	14.4	0.00e+00	0	26	0	980418560	71	4541
2026-01-06 02:29:32.42	267.48	26.94	-52.7	-54.7	14.4	0.00e+00	0	26	0	982515712	71	4569
2026-01-06 02:29:33.42	267.29	26.81	-52.7	-54.7	14.4	0.00e+00	0	26	0	984612864	71	4590
2026-01-06 02:29:34.42	267.10	26.67	-52.9	-55.0	14.3	0.00e+00	0	27	0	985661440	71	4715
2026-01-06 02:29:35.41	266.91	26.54	-53.0	-55.1	14.2	0.00e+00	0	27	0	987758592	71	4804
2026-01-06 02:29:36.41	266.73	26.41	-53.2	-55.5	14.1	0.00e+00	0	26	0	989855744	71	4998
2026-01-06 02:29:37.41	266.54	26.27	-53.5	-55.9	14.0	0.00e+00	0	26	0	991952896	72	4963
2026-01-06 02:29:38.41	266.35	26.14	-53.9	-56.5	13.7	0.00e+00	0	26	0	994050048	72	5311
2026-01-06 02:29:39.41	266.17	26.01	-53.8	-56.4	13.8	0.00e+00	0	27	0	995098624	73	4947
2026-01-06 02:29:40.41	265.99	25.88	-54.1	-56.8	13.6	0.00e+00	0	27	0	997195776	73	5164
2026-01-06 02:29:41.40	265.81	25.75	-54.1	-56.7	13.6	0.00e+00	0	26	0	999292928	73	5154
2026-01-06 02:29:42.40	265.63	25.62	-54.4	-57.3	13.4	0.00e+00	0	26	0	1001390080	74	5216
2026-01-06 02:29:43.38	265.46	25.49	-54.4	-57.2	13.4	0.00e+00	0	27	0	1002438656	74	5154
2026-01-06 02:29:44.37	265.29	25.36	-54.2	-57.0	13.6	0.00e+00	0	26	0	1004535808	74	4989
2026-01-06 02:29:45.38	265.11	25.23	-54.1	-56.9	13.7	0.00e+00	0	26	0	1006632960	74	4938
2026-01-06 02:29:46.38	264.94	25.10	-54.0	-56.7	13.7	0.00e+00	0	26	0	1008730112	74	4839
2026-01-06 02:29:47.38	264.77	24.97	-53.8	-56.4	13.9	0.00e+00	0	26	0	1010827264	74	4669
2026-01-06 02:29:48.38	264.60	24.84	-53.7	-56.2	14.0	0.00e+00	0	26	0	1011875840	74	4582
2026-01-06 02:29:49.37	264.43	24.71	-53.8	-56.3	13.8	0.00e+00	0	26	0	1013972992	73	4916
2026-01-06 02:29:50.36	264.27	24.58	-53.3	-55.6	14.2	0.00e+00	0	26	0	1016070144	73	4537
2026-01-06 02:29:51.35	264.10	24.46	-53.3	-55.6	14.2	0.00e+00	0	27	0	1018167296	73	4520
2026-01-06 02:29:52.34	263.94	24.33	-53.2	-55.4	14.2	0.00e+00	0	26	0	1019215872	72	4680
2026-01-06 02:29:53.34	263.78	24.20	-53.4	-55.6	14.0	0.00e+00	0	26	0	1021313024	72	4813
2026-01-06 02:29:54.34	263.62	24.08	-53.0	-55.2	14.3	0.00e+00	0	26	0	1023410176	72	4578
2026-01-06 02:29:55.33	263.46	23.95	-53.3	-55.6	14.1	0.00e+00	0	26	0	1025507328	72	4781
2026-01-06 02:29:56.33	263.30	23.82	-53.4	-55.8	14.0	0.00e+00	0	26	0	1027604480	72	4878
2026-01-06 02:29:57.33	263.14	23.70	-53.4	-55.7	14.0	0.00e+00	0	27	0	1028653056	72	4822
2026-01-06 02:29:58.32	262.99	23.57	-53.4	-55.7	14.0	0.00e+00	0	26	0	1030750208	72	4854
2026-01-06 02:29:59.33	262.83	23.45	-53.2	-55.4	14.1	0.00e+00	0	26	0	1032847360	72	4703
2026-01-06 02:30:00.33	262.68	23.32	-53.2	-55.4	14.1	0.00e+00	0	26	0	1034944512	72	4681
2026-01-06 02:30:01.33	262.52	23.20	-52.8	-54.9	14.4	0.00e+00	0	27	0	1035993088	72	4399
2026-01-06 02:30:02.32	262.37	23.07	-52.7	-54.8	14.3	0.00e+00	0	26	0	1038090240	71	4626
2026-01-06 02:30:03.32	262.22	22.95	-52.5	-54.6	14.4	0.00e+00	0	26	0	1040187392	71	4502
2026-01-06 02:30:04.31	262.08	22.83	-52.6	-54.7	14.4	0.00e+00	0	26	0	1042284544	71	4546
2026-01-06 02:30:05.31	261.93	22.71	-52.9	-55.0	14.3	0.00e+00	0	26	0	1044381696	71	4740
2026-01-06 02:30:06.31	261.78	22.58	-53.1	-55.3	14.1	0.00e+00	0	26	0	1045430272	71	4919
2026-01-06 02:30:07.31	261.64	22.46	-53.7	-56.2	13.8	0.00e+00	0	27	0	1047527424	72	5150
2026-01-06 02:30:08.30	261.49	22.34	-54.2	-57.0	13.5	0.00e+00	0	26	0	1049624576	73	5306
2026-01-06 02:30:09.30	261.35	22.22	-54.7	-57.8	13.1	0.00e+00	0	26	0	1051721728	74	5492
2026-01-06 02:30:10.30	261.21	22.10	-55.0	-58.2	13.0	0.00e+00	0	26	0	1053818880	75	5412
2026-01-06 02:30:11.30	261.07	21.98	-55.1	-58.4	12.9	0.00e+00	0	26	0	1054867456	75	5542
2026-01-06 02:30:12.29	260.93	21.86	-54.9	-58.1	13.0	0.00e+00	0	26	0	1056964608	75	5361
2026-01-06 02:30:13.28	260.79	21.74	-54.8	-57.8	13.2	0.00e+00	0	26	0	1059061760	75	5185
2026-01-06 02:30:14.28	260.66	21.62	-54.4	-57.2	13.6	0.00e+00	0	26	0	1061158912	75	4852
2026-01-06 02:30:15.29	260.52	21.50	-54.5	-56.9	13.7	0.00e+00	0	26	0	1062207488	75	4700
2026-01-06 02:30:16.29	260.38	21.38	-54.5	-56.9	13.8	0.00e+00	0	26	0	1064304640	75	4675
2026-01-06 02:30:17.28	260.25	21.26	-54.4	-56.7	13.8	0.00e+00	0	26	0	1066401792	75	4596
2026-01-06 02:30:18.28	260.12	21.15	-54.4	-56.8	13.7	0.00e+00	0	26	0	1068498944	74	4921
2026-01-06 02:30:19.27	259.99	21.03	-54.3	-56.6	13.8	0.00e+00	0	26	0	1070596096	74	4784
2026-01-06 02:30:20.25	259.86	20.91	-54.2	-56.4	13.8	0.00e+00	0	26	0	1071644672	74	4705
2026-01-06 02:30:21.25	259.73	20.80	-54.1	-56.3	13.9	0.00e+00	0	26	0	1073741824	74	4643
2026-01-06 02:30:22.24	259.60	20.68	-54.0	-56.3	14.0	0.00e+00	0	26	0	1075838976	74	4609
2026-01-06 02:30:23.24	259.47	20.57	-54.1	-56.4	13.9	0.00e+00	0	26	0	1077936128	74	4678
2026-01-06 02:30:24.24	259.34	20.45	-54.0	-56.3	14.0	0.00e+00	0	26	0	1078984704	74	4611
2026-01-06 02:30:25.23	259.22	20.34	-54.2	-56.4	13.9	0.00e+00	0	26	0	1081081856	74	4705
2026-01-06 02:30:26.22	259.09	20.22	-54.1	-56.3	13.9	0.00e+00	0	26	0	1083179008	74	4642
2026-01-06 02:30:27.22	258.97	20.11	-54.1	-56.3	13.9	0.00e+00	0	26	0	1085276160	74	4632
2026-01-06 02:30:28.21	258.85	19.99	-53.9	-56.1	14.1	0.00e+00	0	26	0	1087373312	74	4507
2026-01-06 02:30:29.21	258.72	19.88	-53.7	-55.8	14.1	0.00e+00	0	26	0	1088421888	73	4650
2026-01-06 02:30:30.20	258.60	19.77	-53.2	-55.2	14.4	0.00e+00	0	27	0	1090519040	73	4297
2026-01-06 02:30:31.20	258.48	19.66	-53.0	-54.9	14.4	0.00e+00	0	26	0	1092616192	72	4401
2026-01-06 02:30:32.19	258.36	19.54	-52.6	-54.4	14.5	0.00e+00	0	26	0	1094713344	71	4432
2026-01-06 02:30:33.18	258.25	19.43	-52.5	-54.4	14.5	0.00e+00	0	26	0	1095761920	71	4392
2026-01-06 02:30:34.18	258.13	19.32	-52.6	-54.4	14.5	0.00e+00	0	26	0	1097859072	71	4421
2026-01-06 02:30:35.18	258.01	19.21	-52.6	-54.4	14.5	0.00e+00	0	26	0	1099956224	71	4427
2026-01-06 02:30:36.18	257.90	19.10	-52.7	-54.6	14.4	0.00e+00	0	26	0	1102053376	71	4494
2026-01-06 02:30:37.18	257.78	18.99	-52.8	-54.7	14.3	0.00e+00	0	26	0	1104150528	71	4588
2026-01-06 02:30:38.16	257.67	18.88	-53.1	-55.1	14.2	0.00e+00	0	26	0	1105199104	71	4769
2026-01-06 02:30:39.16	257.55	18.77	-53.3	-55.3	14.0	0.00e+00	0	26	0	1107296256	71	4920
2026-01-06 02:30:40.16	257.44	18.66	-53.6	-55.7	14.0	0.00e+00	0	26	0	1109393408	72	4838
2026-01-06 02:30:41.15	257.33	18.55	-53.7	-55.9	13.9	0.00e+00	0	26	0	1111490560	72	4978
2026-01-06 02:30:42.15	257.22	18.44	-53.9	-56.2	13.9	0.00e+00	0	26	0	1112539136	73	4827
2026-01-06 02:30:43.14	257.11	18.33	-53.9	-56.1	13.9	0.00e+00	0	26	0	1114636288	73	4779
2026-01-06 02:30:44.13	257.00	18.23	-53.8	-56.0	14.0	0.00e+00	0	26	0	1116733440	73	4743
2026-01-06 02:30:45.13	256.89	18.12	-53.7	-55.9	14.0	0.00e+00	0	26	0	1118830592	73	4689
2026-01-06 02:30:46.13	256.78	18.01	-53.6	-55.7	14.1	0.00e+00	0	26	0	1120927744	73	4590
2026-01-06 02:30:47.13	256.68	17.90	-53.4	-55.5	14.2	0.00e+00	0	26	0	1121976320	73	4462
2026-01-06 02:30:48.13	256.57	17.80	-53.4	-55.5	14.2	0.00e+00	0	26	0	1124073472	73	4468
2026-01-06 02:30:49.12	256.47	17.69	-53.4	-55.4	14.2	0.00e+00	0	26	0	1126170624	73	4431
2026-01-06 02:30:50.11	256.36	17.59	-53.2	-55.2	14.3	0.00e+00	0	26	0	1128267776	73	4335
2026-01-06 02:30:51.11	256.26	17.48	-53.5	-55.6	14.2	0.00e+00	0	26	0	1129316352	73	4494
2026-01-06 02:30:52.10	256.16	17.38	-53.5	-55.6	14.1	0.00e+00	0	26	0	1131413504	73	4518
2026-01-06 02:30:53.09	256.05	17.27	-53.5	-55.6	14.1	0.00e+00	0	26	0	1133510656	73	4530
2026-01-06 02:30:54.08	255.95	17.17	-53.6	-55.7	14.1	0.00e+00	0	26	0	1135607808	73	4569
2026-01-06 02:30:55.07	255.85	17.07	-53.6	-55.7	14.1	0.00e+00	0	26	0	1137704960	73	4570
2026-01-06 02:30:56.07	255.75	16.96	-53.6	-55.7	14.1	0.00e+00	0	26	0	1138753536	73	4567
2026-01-06 02:30:57.06	255.65	16.86	-53.8	-56.0	13.9	0.00e+00	0	26	0	1140850688	73	4732
2026-01-06 02:30:58.05	255.55	16.76	-53.8	-56.1	13.9	0.00e+00	0	26	0	1142947840	73	4776
2026-01-06 02:30:59.05	255.46	16.65	-53.9	-56.2	13.9	0.00e+00	0	26	0	1145044992	73	4834
2026-01-06 02:31:00.04	255.36	16.55	-54.0	-56.3	13.8	0.00e+00	0	26	0	1146093568	73	4917
2026-01-06 02:31:01.03	255.26	16.45	-54.0	-56.3	13.8	0.00e+00	0	26	0	1148190720	73	4907
2026-01-06 02:31:02.03	255.17	16.35	-54.2	-56.7	13.6	0.00e+00	0	26	0	1150287872	73	5112
2026-01-06 02:31:03.03	255.07	16.25	-54.3	-56.7	13.6	0.00e+00	0	26	0	1152385024	73	5133
2026-01-06 02:31:04.02	254.98	16.15	-54.3	-56.8	13.5	0.00e+00	0	26	0	1154482176	73	5192
2026-01-06 02:31:05.03	254.88	16.05	-54.3	-56.8	13.5	0.00e+00	0	26	0	1155530752	73	5162
2026-01-06 02:31:06.02	254.79	15.95	-54.4	-56.9	13.5	0.00e+00	0	26	0	1157627904	73	5230
2026-01-06 02:31:07.02	254.70	15.85	-54.3	-56.7	13.6	0.00e+00	0	26	0	1159725056	73	5147
2026-01-06 02:31:08.01	254.60	15.75	-54.0	-56.4	13.7	0.00e+00	0	26	0	1161822208	73	4956
2026-01-06 02:31:09.00	254.51	15.65	-54.1	-56.4	13.7	0.00e+00	0	26	0	1163919360	73	4961
2026-01-06 02:31:10.00	254.42	15.55	-53.8	-56.0	13.9	0.00e+00	0	26	0	1164967936	73	4747
2026-01-06 02:31:11.00	254.33	15.45	-53.5	-55.6	14.1	0.00e+00	0	26	0	1167065088	73	4544
2026-01-06 02:31:12.00	254.24	15.35	-53.2	-55.2	14.2	0.00e+00	0	26	0	1169162240	73	4303
2026-01-06 02:31:12.99	254.15	15.25	-53.0	-55.0	14.2	0.00e+00	0	26	0	1171259392	72	4470
2026-01-06 02:31:13.98	254.06	15.16	-53.0	-54.9	14.3	0.00e+00	0	26	0	1172307968	72	4434
2026-01-06 02:31:14.99	253.98	15.06	-52.9	-54.8	14.3	0.00e+00	0	26	0	1174405120	72	4387
2026-01-06 02:31:15.99	253.89	14.96	-52.9	-54.8	14.4	0.00e+00	0	26	0	1176502272	72	4379
2026-01-06 02:31:16.98	253.80	14.86	-52.9	-54.8	14.4	0.00e+00	0	26	0	1178599424	72	4369
2026-01-06 02:31:17.97	253.72	14.77	-52.9	-54.8	14.4	0.00e+00	0	26	0	1180696576	72	4374
2026-01-06 02:31:18.95	253.63	14.67	-52.9	-54.8	14.4	0.00e+00	0	26	0	1181745152	72	4371
2026-01-06 02:31:19.95	253.55	14.58	-53.1	-55.1	14.2	0.00e+00	0	26	0	1183842304	72	4532
2026-01-06 02:31:20.95	253.46	14.48	-53.2	-55.2	14.2	0.00e+00	0	26	0	1185939456	72	4559
2026-01-06 02:31:21.95	253.38	14.39	-53.2	-55.2	14.2	0.00e+00	0	26	0	1188036608	72	4561
2026-01-06 02:31:22.94	253.30	14.29	-53.4	-55.6	14.0	0.00e+00	0	26	0	1189085184	72	4763
2026-01-06 02:31:23.94	253.21	14.20	-53.4	-55.5	14.0	0.00e+00	0	26	0	1191182336	72	4755
2026-01-06 02:31:24.93	253.13	14.10	-53.2	-55.3	14.1	0.00e+00	0	26	0	1193279488	72	4618
2026-01-06 02:31:25.93	253.05	14.01	-53.4	-55.5	14.0	0.00e+00	0	26	0	1195376640	72	4744
2026-01-06 02:31:26.93	252.97	13.92	-53.4	-55.6	14.0	0.00e+00	0	26	0	1197473792	72	4760
2026-01-06 02:31:27.93	252.89	13.82	-53.3	-55.4	14.1	0.00e+00	0	26	0	1198522368	72	4696
2026-01-06 02:31:28.92	252.81	13.73	-53.5	-55.6	14.0	0.00e+00	0	26	0	1200619520	72	4794
2026-01-06 02:31:29.92	252.73	13.64	-53.5	-55.6	14.0	0.00e+00	0	26	0	1202716672	72	4792
2026-01-06 02:31:30.92	252.65	13.54	-53.3	-55.4	14.1	0.00e+00	0	26	0	1204813824	72	4695
2026-01-06 02:31:31.92	252.57	13.45	-53.5	-55.6	14.0	0.00e+00	0	26	0	1205862400	72	4812
2026-01-06 02:31:32.91	252.49	13.36	-53.4	-55.5	14.0	0.00e+00	0	26	0	1207959552	72	4757
2026-01-06 02:31:33.90	252.41	13.27	-53.5	-55.7	13.9	0.00e+00	0	26	0	1210056704	72	4847
2026-01-06 02:31:34.89	252.34	13.18	-53.7	-55.9	13.8	0.00e+00	0	26	0	1212153856	72	4977
2026-01-06 02:31:35.88	252.26	13.09	-53.7	-56.0	13.8	0.00e+00	0	26	0	1214251008	72	4992
2026-01-06 02:31:36.88	252.18	13.00	-53.8	-56.1	13.7	0.00e+00	0	26	0	1215299584	72	5073
2026-01-06 02:31:37.88	252.11	12.91	-53.9	-56.2	13.8	0.00e+00	0	26	0	1217396736	73	4824
2026-01-06 02:31:38.87	252.03	12.82	-54.0	-56.4	13.7	0.00e+00	0	26	0	1219493888	73	4971
2026-01-06 02:31:39.86	251.96	12.73	-54.0	-56.4	13.7	0.00e+00	0	26	0	1221591040	73	4972
2026-01-06 02:31:40.86	251.89	12.64	-54.2	-56.6	13.6	0.00e+00	0	26	0	1222639616	73	5095
