passes_logs/2026/01/06/R3.2S_Murmansk/R3.2S_Murmansk__20260106_103734_SUOMI_NPP_rec.log

#Pass ID: 20260106_103734_SUOMI NPP
#Satellite: SUOMI NPP
#Configuration: NPP
#almurnet v.1.7.20251203
#Start time: 2026-01-06 10:37:35

#Version: 2.2.20231116
#Station: R3.2S_Murmansk
#Location: 33.079688 lon 68.888172 lat
#TLE: 1 37849U 11061A   26004.95404768  .00000136  00000+0  85334-4 0  9991
#TLE: 2 37849  98.7801 307.0898 0002575  80.6707 279.4760 14.19522289735281

#Time	Az	El	Level	Level2	SNR	BER	BlckErr	Temp	State	Recorded	gain1	gain2
2026-01-06 10:37:35.16	176.98	2.05	-58.8	-74.7	3.8	1.49e+00	0	26	0	0	84	21697
2026-01-06 10:37:36.14	177.01	2.11	-58.6	-74.6	3.8	1.49e+00	0	26	104	0	82	23992
2026-01-06 10:37:37.13	177.04	2.18	-58.6	-74.6	3.8	1.49e+00	0	26	104	0	82	23955
2026-01-06 10:37:38.11	177.07	2.24	-58.6	-74.6	3.8	1.49e+00	0	26	104	0	82	23996
2026-01-06 10:37:39.09	177.10	2.30	-58.6	-74.6	3.8	1.49e+00	0	26	104	0	82	24017
2026-01-06 10:37:40.08	177.13	2.36	-58.6	-74.5	3.8	1.49e+00	0	26	104	0	82	23734
2026-01-06 10:37:41.07	177.17	2.42	-58.6	-74.5	3.8	1.49e+00	0	26	104	0	82	23731
2026-01-06 10:37:42.05	177.20	2.49	-58.6	-74.4	3.8	1.49e+00	0	26	104	0	82	23424
2026-01-06 10:37:43.03	177.23	2.55	-58.6	-74.4	3.8	1.49e+00	0	26	104	0	82	23366
2026-01-06 10:37:44.02	177.26	2.61	-58.6	-74.4	3.8	1.49e+00	0	26	104	0	82	23532
2026-01-06 10:37:45.00	177.29	2.68	-58.6	-74.5	3.8	1.49e+00	0	26	104	0	82	23707
2026-01-06 10:37:45.99	177.33	2.74	-58.6	-74.5	3.8	1.49e+00	0	26	104	0	82	23823
2026-01-06 10:37:46.97	177.36	2.80	-58.6	-74.5	3.8	1.49e+00	0	26	104	0	82	23747
2026-01-06 10:37:47.96	177.39	2.86	-58.6	-74.6	3.8	1.49e+00	0	26	104	0	82	24028
2026-01-06 10:37:48.95	177.43	2.93	-58.6	-74.6	3.8	1.49e+00	0	27	104	0	82	24016
2026-01-06 10:37:49.94	177.46	2.99	-58.6	-74.6	3.8	1.49e+00	0	27	104	0	82	23919
2026-01-06 10:37:50.93	177.49	3.06	-58.6	-74.5	3.8	1.49e+00	0	27	104	0	82	23778
2026-01-06 10:37:51.92	177.53	3.12	-58.6	-74.5	3.8	1.49e+00	0	27	104	0	82	23649
2026-01-06 10:37:52.92	177.56	3.19	-58.6	-74.5	3.8	1.49e+00	0	27	104	0	82	23664
2026-01-06 10:37:53.91	177.59	3.25	-58.6	-74.5	3.8	1.49e+00	0	27	104	0	82	23704
2026-01-06 10:37:54.90	177.63	3.32	-58.6	-74.6	3.8	1.49e+00	0	27	104	0	82	23962
2026-01-06 10:37:55.89	177.66	3.38	-58.6	-74.6	3.8	1.49e+00	0	27	104	0	82	24087
2026-01-06 10:37:56.87	177.70	3.44	-58.6	-74.7	3.8	1.49e+00	0	27	104	0	82	24261
2026-01-06 10:37:57.85	177.73	3.51	-58.6	-74.6	3.8	1.49e+00	0	27	104	0	82	23927
2026-01-06 10:37:58.84	177.77	3.57	-58.6	-74.2	3.8	1.49e+00	0	27	104	0	82	23014
2026-01-06 10:37:59.84	177.80	3.64	-58.6	-73.8	3.8	1.49e+00	0	27	104	0	82	21881
2026-01-06 10:38:00.81	177.83	3.70	-58.6	-72.9	3.8	1.49e+00	0	27	104	0	82	19810
2026-01-06 10:38:01.79	177.87	3.77	-58.5	-72.1	3.9	1.48e+00	0	27	104	0	82	18032
2026-01-06 10:38:02.78	177.90	3.84	-58.5	-70.9	4.3	1.42e+00	0	27	0	0	82	15583
2026-01-06 10:38:03.76	177.94	3.90	-58.4	-70.1	4.5	1.10e+00	0	27	0	1048576	82	14301
2026-01-06 10:38:04.75	177.97	3.97	-58.4	-70.0	4.5	9.47e-01	0	27	0	3145728	82	14105
2026-01-06 10:38:05.74	178.01	4.03	-58.3	-68.4	5.3	5.98e-01	0	27	0	4194304	82	11744
2026-01-06 10:38:06.73	178.05	4.10	-58.3	-68.4	5.3	5.25e-01	0	27	0	6291456	82	11752
2026-01-06 10:38:07.72	178.08	4.17	-58.2	-67.4	5.9	3.08e-01	0	27	0	8388608	82	10459
2026-01-06 10:38:08.71	178.12	4.23	-58.1	-67.0	6.2	3.08e-01	0	27	0	10485760	82	10025
2026-01-06 10:38:09.70	178.15	4.30	-58.0	-66.6	6.4	2.10e-01	0	27	0	11534336	82	9529
2026-01-06 10:38:10.70	178.19	4.37	-58.0	-66.1	6.8	1.41e-01	0	27	0	13631488	82	9031
2026-01-06 10:38:11.68	178.23	4.43	-57.8	-65.0	7.8	5.52e-02	0	27	0	15728640	82	7955
2026-01-06 10:38:12.67	178.26	4.50	-57.5	-64.2	8.4	4.19e-02	0	27	0	17825792	81	7689
2026-01-06 10:38:13.65	178.30	4.57	-57.5	-63.9	8.7	1.83e-02	0	27	0	19922944	81	7372
2026-01-06 10:38:14.65	178.34	4.64	-57.3	-63.1	9.3	1.45e-02	0	27	0	20971520	81	6765
2026-01-06 10:38:15.64	178.37	4.70	-57.0	-62.4	9.9	2.42e-03	0	27	0	23068672	80	6614
2026-01-06 10:38:16.63	178.41	4.77	-56.9	-62.0	10.3	1.20e-03	0	27	0	25165824	80	6308
2026-01-06 10:38:17.62	178.45	4.84	-56.6	-61.3	10.8	4.29e-04	0	27	0	27262976	79	6154
2026-01-06 10:38:18.60	178.48	4.91	-56.6	-61.3	10.7	1.80e-04	0	27	0	28311552	79	6198
2026-01-06 10:38:19.60	178.52	4.98	-56.5	-61.1	10.9	2.68e-04	0	27	0	30408704	79	6054
2026-01-06 10:38:20.58	178.56	5.05	-57.7	-64.9	8.1	3.91e-04	0	27	0	32505856	80	8846
2026-01-06 10:38:21.56	178.60	5.11	-57.8	-64.7	8.0	3.43e-01	0	28	0	34603008	81	8157
2026-01-06 10:38:22.55	178.64	5.18	-56.7	-61.4	10.8	1.37e-03	0	27	0	35651584	79	6262
2026-01-06 10:38:23.54	178.67	5.25	-58.3	-68.7	5.2	1.66e-01	0	28	0	37748736	81	12951
2026-01-06 10:38:24.53	178.71	5.32	-56.3	-60.5	10.9	1.48e+00	1	27	104	37748736	79	5621
2026-01-06 10:38:25.52	178.75	5.39	-54.4	-57.2	13.3	0.00e+00	0	28	0	38797312	75	4827
2026-01-06 10:38:26.51	178.79	5.46	-54.8	-57.7	13.0	0.00e+00	0	27	0	40894464	75	5113
2026-01-06 10:38:27.50	178.83	5.53	-54.4	-57.1	13.3	0.00e+00	0	28	0	41943040	75	4779
2026-01-06 10:38:28.50	178.87	5.60	-54.5	-57.3	13.2	0.00e+00	0	27	0	44040192	75	4887
2026-01-06 10:38:29.49	178.91	5.67	-54.5	-57.2	13.3	0.00e+00	0	27	0	46137344	75	4870
2026-01-06 10:38:30.48	178.95	5.74	-54.6	-57.4	13.2	0.00e+00	0	28	0	48234496	75	4970
2026-01-06 10:38:31.48	178.99	5.81	-54.5	-57.2	13.3	0.00e+00	0	28	0	50331648	75	4843
2026-01-06 10:38:32.47	179.03	5.89	-54.5	-57.2	13.3	0.00e+00	0	28	0	51380224	75	4841
2026-01-06 10:38:33.46	179.07	5.96	-54.4	-57.1	13.4	0.00e+00	0	28	0	53477376	75	4787
2026-01-06 10:38:34.46	179.11	6.03	-54.4	-57.0	13.4	0.00e+00	0	28	0	55574528	75	4756
2026-01-06 10:38:35.45	179.15	6.10	-54.6	-57.4	13.2	0.00e+00	0	28	0	57671680	75	4946
2026-01-06 10:38:36.44	179.19	6.17	-54.3	-56.9	13.5	0.00e+00	0	28	0	58720256	75	4682
2026-01-06 10:38:37.44	179.23	6.24	-54.2	-56.7	13.6	0.00e+00	0	28	0	60817408	75	4593
2026-01-06 10:38:38.43	179.27	6.32	-54.5	-57.3	13.2	0.00e+00	0	28	0	62914560	74	5176
2026-01-06 10:38:39.42	179.31	6.39	-54.3	-56.9	13.4	0.00e+00	0	28	0	65011712	74	4961
2026-01-06 10:38:40.41	179.35	6.46	-54.5	-57.2	13.3	0.00e+00	0	28	0	67108864	74	5101
2026-01-06 10:38:41.40	179.39	6.53	-54.3	-56.9	13.4	0.00e+00	0	28	0	68157440	74	4930
2026-01-06 10:38:42.40	179.44	6.61	-54.4	-56.9	13.4	0.00e+00	0	28	0	70254592	74	4981
2026-01-06 10:38:43.38	179.48	6.68	-54.4	-57.1	13.3	0.00e+00	0	28	0	72351744	74	5049
2026-01-06 10:38:44.38	179.52	6.75	-54.5	-57.2	13.3	0.00e+00	0	28	0	74448896	74	5124
2026-01-06 10:38:45.37	179.56	6.83	-54.4	-57.1	13.4	0.00e+00	0	28	0	75497472	74	5043
2026-01-06 10:38:46.36	179.60	6.90	-54.5	-57.2	13.3	0.00e+00	0	28	0	77594624	74	5144
2026-01-06 10:38:47.35	179.65	6.97	-54.4	-57.0	13.4	0.00e+00	0	28	0	79691776	74	5006
2026-01-06 10:38:48.34	179.69	7.05	-54.5	-57.1	13.4	0.00e+00	0	28	0	81788928	74	5094
2026-01-06 10:38:49.34	179.73	7.12	-54.5	-57.2	13.3	0.00e+00	0	28	0	82837504	74	5139
2026-01-06 10:38:50.33	179.78	7.20	-54.5	-57.1	13.4	0.00e+00	0	28	0	84934656	74	5063
2026-01-06 10:38:51.32	179.82	7.27	-54.6	-57.3	13.3	0.00e+00	0	28	0	87031808	74	5193
2026-01-06 10:38:52.31	179.86	7.35	-54.5	-57.1	13.4	0.00e+00	0	28	0	89128960	74	5056
2026-01-06 10:38:53.31	179.91	7.42	-54.3	-56.8	13.5	0.00e+00	0	28	0	91226112	74	4882
2026-01-06 10:38:54.31	179.95	7.50	-54.4	-57.0	13.4	0.00e+00	0	28	0	92274688	74	5026
2026-01-06 10:38:55.30	180.00	7.57	-54.3	-56.8	13.6	0.00e+00	0	28	0	94371840	74	4872
2026-01-06 10:38:56.29	180.04	7.65	-54.2	-56.7	13.6	0.00e+00	0	28	0	96468992	74	4846
2026-01-06 10:38:57.28	180.09	7.72	-54.4	-56.9	13.5	0.00e+00	0	28	0	98566144	74	4980
2026-01-06 10:38:58.28	180.13	7.80	-54.3	-56.8	13.5	0.00e+00	0	28	0	99614720	74	4905
2026-01-06 10:38:59.27	180.18	7.88	-54.3	-56.8	13.6	0.00e+00	0	28	0	101711872	74	4871
2026-01-06 10:39:00.26	180.22	7.95	-54.3	-56.9	13.5	0.00e+00	0	28	0	103809024	74	4930
2026-01-06 10:39:01.25	180.27	8.03	-54.4	-57.0	13.4	0.00e+00	0	28	0	105906176	74	5025
2026-01-06 10:39:02.23	180.31	8.11	-54.5	-57.1	13.4	0.00e+00	0	28	0	108003328	74	5074
2026-01-06 10:39:03.22	180.36	8.18	-54.4	-57.0	13.5	0.00e+00	0	28	0	109051904	74	4995
2026-01-06 10:39:04.21	180.41	8.26	-54.3	-56.8	13.6	0.00e+00	0	28	0	111149056	74	4898
2026-01-06 10:39:05.19	180.45	8.34	-54.4	-56.9	13.5	0.00e+00	0	28	0	113246208	74	4954
2026-01-06 10:39:06.19	180.50	8.42	-54.5	-57.0	13.4	0.00e+00	0	28	0	115343360	74	5020
2026-01-06 10:39:07.18	180.55	8.49	-54.1	-56.5	13.7	0.00e+00	0	28	0	116391936	74	4751
2026-01-06 10:39:08.18	180.59	8.57	-54.5	-57.1	13.4	0.00e+00	0	28	0	118489088	74	5093
2026-01-06 10:39:09.17	180.64	8.65	-54.5	-57.1	13.4	0.00e+00	0	28	0	120586240	74	5043
2026-01-06 10:39:10.17	180.69	8.73	-54.6	-57.2	13.4	0.00e+00	0	28	0	122683392	74	5152
2026-01-06 10:39:11.15	180.74	8.81	-54.5	-57.0	13.4	0.00e+00	0	28	0	124780544	74	5038
2026-01-06 10:39:12.14	180.78	8.89	-54.5	-57.0	13.5	0.00e+00	0	28	0	125829120	74	5036
2026-01-06 10:39:13.14	180.83	8.97	-54.4	-57.0	13.5	0.00e+00	0	28	0	127926272	74	4988
2026-01-06 10:39:14.13	180.88	9.05	-54.4	-56.9	13.5	0.00e+00	0	28	0	130023424	74	4960
2026-01-06 10:39:15.12	180.93	9.13	-54.3	-56.7	13.6	0.00e+00	0	28	0	132120576	74	4852
2026-01-06 10:39:16.11	180.98	9.21	-54.3	-56.8	13.6	0.00e+00	0	28	0	133169152	74	4880
2026-01-06 10:39:17.11	181.03	9.29	-54.2	-56.6	13.7	0.00e+00	0	28	0	135266304	74	4795
2026-01-06 10:39:18.10	181.08	9.37	-54.3	-56.8	13.6	0.00e+00	0	28	0	137363456	74	4884
2026-01-06 10:39:19.09	181.13	9.45	-54.2	-56.6	13.7	0.00e+00	0	28	0	139460608	74	4771
2026-01-06 10:39:20.09	181.18	9.53	-54.3	-56.7	13.7	0.00e+00	0	28	0	140509184	74	4837
2026-01-06 10:39:21.08	181.23	9.61	-54.2	-56.6	13.7	0.00e+00	0	28	0	142606336	74	4811
2026-01-06 10:39:22.07	181.28	9.69	-54.1	-56.5	13.8	0.00e+00	0	28	0	144703488	74	4716
2026-01-06 10:39:23.06	181.33	9.78	-54.1	-56.5	13.8	0.00e+00	0	28	0	146800640	74	4748
2026-01-06 10:39:24.05	181.38	9.86	-54.1	-56.5	13.8	0.00e+00	0	28	0	148897792	74	4734
2026-01-06 10:39:25.05	181.43	9.94	-54.2	-56.6	13.7	0.00e+00	0	28	0	149946368	74	4778
2026-01-06 10:39:26.04	181.49	10.02	-54.1	-56.4	13.8	0.00e+00	0	28	0	152043520	74	4681
2026-01-06 10:39:27.03	181.54	10.11	-54.0	-56.4	13.9	0.00e+00	0	28	0	154140672	74	4658
2026-01-06 10:39:28.02	181.59	10.19	-54.1	-56.5	13.8	0.00e+00	0	28	0	156237824	74	4717
2026-01-06 10:39:29.01	181.64	10.27	-54.0	-56.3	13.9	0.00e+00	0	28	0	157286400	74	4604
2026-01-06 10:39:30.00	181.69	10.36	-53.9	-56.2	13.9	0.00e+00	0	28	0	159383552	74	4551
2026-01-06 10:39:30.99	181.75	10.44	-54.0	-56.2	13.9	0.00e+00	0	28	0	161480704	74	4585
2026-01-06 10:39:31.98	181.80	10.53	-53.9	-56.1	14.0	0.00e+00	0	28	0	163577856	74	4498
2026-01-06 10:39:32.97	181.85	10.61	-53.7	-55.9	14.1	0.00e+00	0	28	0	165675008	74	4408
2026-01-06 10:39:33.97	181.91	10.70	-53.7	-55.8	14.1	0.00e+00	0	28	0	166723584	74	4390
2026-01-06 10:39:34.96	181.96	10.78	-53.7	-55.8	14.1	0.00e+00	0	28	0	168820736	74	4389
2026-01-06 10:39:35.95	182.02	10.87	-53.7	-55.8	14.0	0.00e+00	0	28	0	170917888	73	4635
2026-01-06 10:39:36.94	182.07	10.95	-53.6	-55.7	14.1	0.00e+00	0	28	0	173015040	73	4591
2026-01-06 10:39:37.93	182.13	11.04	-53.7	-55.8	14.0	0.00e+00	0	28	0	174063616	73	4640
2026-01-06 10:39:38.92	182.18	11.12	-53.4	-55.5	14.2	0.00e+00	0	28	0	176160768	73	4460
2026-01-06 10:39:39.90	182.24	11.21	-53.5	-55.6	14.2	0.00e+00	0	28	0	178257920	73	4518
2026-01-06 10:39:40.90	182.30	11.30	-53.5	-55.6	14.1	0.00e+00	0	28	0	180355072	73	4507
2026-01-06 10:39:41.89	182.35	11.38	-53.5	-55.5	14.2	0.00e+00	0	28	0	181403648	73	4473
2026-01-06 10:39:42.88	182.41	11.47	-53.5	-55.5	14.2	0.00e+00	0	28	0	183500800	73	4471
2026-01-06 10:39:43.87	182.46	11.56	-53.5	-55.5	14.2	0.00e+00	0	28	0	185597952	73	4476
2026-01-06 10:39:44.86	182.52	11.65	-53.4	-55.5	14.2	0.00e+00	0	28	0	187695104	73	4469
2026-01-06 10:39:45.86	182.58	11.74	-53.3	-55.2	14.3	0.00e+00	0	28	0	189792256	73	4336
2026-01-06 10:39:46.85	182.64	11.82	-53.1	-55.0	14.3	0.00e+00	0	29	0	190840832	72	4486
2026-01-06 10:39:47.84	182.70	11.91	-53.0	-55.0	14.4	0.00e+00	0	28	0	192937984	72	4446
2026-01-06 10:39:48.83	182.76	12.00	-53.1	-55.0	14.3	0.00e+00	0	28	0	195035136	72	4463
2026-01-06 10:39:49.82	182.81	12.09	-53.0	-54.9	14.4	0.00e+00	0	28	0	197132288	72	4407
2026-01-06 10:39:50.81	182.87	12.18	-52.9	-54.7	14.5	0.00e+00	0	28	0	198180864	72	4332
2026-01-06 10:39:51.80	182.93	12.27	-53.0	-54.9	14.4	0.00e+00	0	29	0	200278016	72	4434
2026-01-06 10:39:52.79	182.99	12.36	-52.8	-54.7	14.5	0.00e+00	0	28	0	202375168	72	4312
2026-01-06 10:39:53.77	183.05	12.45	-52.8	-54.7	14.5	0.00e+00	0	28	0	204472320	72	4304
2026-01-06 10:39:54.76	183.11	12.54	-52.8	-54.6	14.5	0.00e+00	0	29	0	206569472	72	4281
2026-01-06 10:39:55.74	183.17	12.63	-52.8	-54.6	14.5	0.00e+00	0	29	0	207618048	72	4272
2026-01-06 10:39:56.72	183.23	12.72	-52.8	-54.6	14.5	0.00e+00	0	28	0	209715200	72	4289
2026-01-06 10:39:57.71	183.30	12.81	-52.6	-54.4	14.5	0.00e+00	0	28	0	211812352	71	4421
2026-01-06 10:39:58.69	183.36	12.90	-52.7	-54.5	14.5	0.00e+00	0	29	0	212860928	71	4484
2026-01-06 10:39:59.68	183.42	13.00	-52.7	-54.6	14.5	0.00e+00	0	29	0	214958080	71	4496
2026-01-06 10:40:00.66	183.48	13.09	-52.7	-54.6	14.4	0.00e+00	0	29	0	217055232	71	4509
2026-01-06 10:40:01.64	183.54	13.18	-52.7	-54.5	14.5	0.00e+00	0	29	0	219152384	71	4474
2026-01-06 10:40:02.63	183.61	13.27	-52.7	-54.5	14.5	0.00e+00	0	29	0	221249536	71	4482
2026-01-06 10:40:03.62	183.67	13.37	-52.8	-54.7	14.4	0.00e+00	0	28	0	222298112	71	4555
2026-01-06 10:40:04.61	183.74	13.46	-52.7	-54.5	14.5	0.00e+00	0	29	0	224395264	71	4487
2026-01-06 10:40:05.60	183.80	13.56	-52.9	-54.7	14.4	0.00e+00	0	28	0	226492416	71	4596
2026-01-06 10:40:06.59	183.87	13.65	-52.7	-54.5	14.5	0.00e+00	0	28	0	228589568	71	4471
2026-01-06 10:40:07.58	183.93	13.75	-52.6	-54.4	14.5	0.00e+00	0	28	0	229638144	71	4423
2026-01-06 10:40:08.58	184.00	13.84	-52.7	-54.5	14.5	0.00e+00	0	28	0	231735296	71	4455
2026-01-06 10:40:09.57	184.06	13.94	-52.7	-54.5	14.5	0.00e+00	0	29	0	233832448	71	4449
2026-01-06 10:40:10.56	184.13	14.03	-52.7	-54.6	14.5	0.00e+00	0	28	0	235929600	71	4507
2026-01-06 10:40:11.55	184.20	14.13	-52.6	-54.4	14.5	0.00e+00	0	28	0	236978176	71	4437
2026-01-06 10:40:12.53	184.26	14.23	-52.6	-54.4	14.5	0.00e+00	0	28	0	239075328	71	4423
2026-01-06 10:40:13.52	184.33	14.32	-52.8	-54.7	14.4	0.00e+00	0	29	0	241172480	71	4546
2026-01-06 10:40:14.51	184.40	14.42	-52.7	-54.5	14.5	0.00e+00	0	28	0	243269632	71	4458
2026-01-06 10:40:15.50	184.47	14.52	-52.7	-54.5	14.5	0.00e+00	0	29	0	245366784	71	4447
2026-01-06 10:40:16.49	184.54	14.62	-52.8	-54.6	14.4	0.00e+00	0	29	0	246415360	71	4523
2026-01-06 10:40:17.47	184.61	14.72	-52.6	-54.3	14.6	0.00e+00	0	29	0	248512512	71	4389
2026-01-06 10:40:18.46	184.68	14.81	-52.8	-54.7	14.4	0.00e+00	0	29	0	250609664	71	4547
2026-01-06 10:40:19.45	184.75	14.91	-52.8	-54.7	14.4	0.00e+00	0	29	0	252706816	71	4561
2026-01-06 10:40:20.44	184.82	15.01	-52.7	-54.6	14.5	0.00e+00	0	29	0	253755392	71	4498
2026-01-06 10:40:21.42	184.89	15.11	-52.8	-54.7	14.4	0.00e+00	0	28	0	255852544	71	4546
2026-01-06 10:40:22.40	184.96	15.21	-52.9	-54.8	14.4	0.00e+00	0	29	0	257949696	71	4608
2026-01-06 10:40:23.40	185.03	15.31	-53.0	-54.9	14.3	0.00e+00	0	29	0	260046848	71	4675
2026-01-06 10:40:24.39	185.11	15.41	-53.0	-55.0	14.3	0.00e+00	0	28	0	261095424	71	4707
2026-01-06 10:40:25.38	185.18	15.52	-53.1	-55.1	14.3	0.00e+00	0	28	0	263192576	71	4773
2026-01-06 10:40:26.37	185.25	15.62	-52.8	-54.6	14.4	0.00e+00	0	28	0	265289728	71	4511
2026-01-06 10:40:27.36	185.33	15.72	-53.0	-54.8	14.4	0.00e+00	0	28	0	267386880	71	4648
2026-01-06 10:40:28.35	185.40	15.82	-53.0	-54.9	14.4	0.00e+00	0	29	0	269484032	71	4659
2026-01-06 10:40:29.34	185.48	15.93	-52.9	-54.8	14.4	0.00e+00	0	28	0	270532608	71	4631
2026-01-06 10:40:30.32	185.55	16.03	-53.0	-54.9	14.3	0.00e+00	0	28	0	272629760	71	4694
2026-01-06 10:40:31.31	185.63	16.13	-52.9	-54.7	14.4	0.00e+00	0	29	0	274726912	71	4584
2026-01-06 10:40:32.31	185.70	16.24	-52.7	-54.5	14.5	0.00e+00	0	29	0	276824064	71	4470
2026-01-06 10:40:33.29	185.78	16.34	-52.6	-54.4	14.5	0.00e+00	0	29	0	277872640	71	4429
2026-01-06 10:40:34.28	185.86	16.45	-52.6	-54.4	14.5	0.00e+00	0	29	0	279969792	71	4409
2026-01-06 10:40:35.25	185.93	16.55	-52.6	-54.4	14.5	0.00e+00	0	28	0	282066944	71	4430
2026-01-06 10:40:36.24	186.01	16.66	-52.3	-54.1	14.7	0.00e+00	0	29	0	284164096	71	4254
2026-01-06 10:40:37.22	186.09	16.76	-52.4	-54.1	14.7	0.00e+00	0	28	0	285212672	71	4260
2026-01-06 10:40:38.20	186.17	16.87	-52.3	-54.0	14.7	0.00e+00	0	29	0	287309824	71	4239
2026-01-06 10:40:39.19	186.25	16.97	-52.2	-53.9	14.7	0.00e+00	0	28	0	289406976	71	4178
2026-01-06 10:40:40.18	186.33	17.08	-52.4	-54.2	14.7	0.00e+00	0	29	0	291504128	71	4305
2026-01-06 10:40:41.16	186.41	17.19	-52.3	-53.9	14.8	0.00e+00	0	29	0	292552704	71	4185
2026-01-06 10:40:42.15	186.49	17.30	-52.3	-54.0	14.7	0.00e+00	0	29	0	294649856	71	4208
2026-01-06 10:40:43.13	186.58	17.41	-52.3	-54.0	14.7	0.00e+00	0	29	0	296747008	71	4196
2026-01-06 10:40:44.12	186.66	17.51	-52.3	-54.0	14.7	0.00e+00	0	29	0	298844160	71	4221
2026-01-06 10:40:45.11	186.74	17.62	-52.4	-54.1	14.7	0.00e+00	0	28	0	300941312	71	4265
2026-01-06 10:40:46.09	186.83	17.73	-52.3	-54.0	14.7	0.00e+00	0	29	0	301989888	71	4224
2026-01-06 10:40:47.07	186.91	17.84	-52.4	-54.2	14.7	0.00e+00	0	29	0	304087040	71	4296
2026-01-06 10:40:48.05	186.99	17.95	-52.6	-54.3	14.6	0.00e+00	0	28	0	306184192	71	4376
2026-01-06 10:40:49.04	187.08	18.06	-52.6	-54.4	14.6	0.00e+00	0	29	0	308281344	71	4396
2026-01-06 10:40:50.03	187.17	18.18	-52.6	-54.4	14.6	0.00e+00	0	29	0	309329920	71	4423
2026-01-06 10:40:51.02	187.25	18.29	-52.4	-54.2	14.6	0.00e+00	0	29	0	311427072	71	4308
2026-01-06 10:40:52.00	187.34	18.40	-52.5	-54.2	14.6	0.00e+00	0	29	0	313524224	71	4338
2026-01-06 10:40:52.99	187.43	18.51	-52.5	-54.2	14.6	0.00e+00	0	29	0	315621376	71	4335
2026-01-06 10:40:53.97	187.52	18.63	-52.5	-54.2	14.6	0.00e+00	0	29	0	316669952	71	4340
2026-01-06 10:40:54.96	187.61	18.74	-52.4	-54.1	14.7	0.00e+00	0	29	0	318767104	71	4271
2026-01-06 10:40:55.94	187.70	18.85	-52.4	-54.1	14.7	0.00e+00	0	29	0	320864256	71	4291
2026-01-06 10:40:56.92	187.79	18.97	-52.4	-54.1	14.7	0.00e+00	0	29	0	322961408	71	4265
2026-01-06 10:40:57.91	187.88	19.08	-52.3	-54.0	14.7	0.00e+00	0	29	0	324009984	71	4233
2026-01-06 10:40:58.90	187.97	19.20	-52.1	-53.7	14.7	0.00e+00	0	29	0	326107136	70	4331
2026-01-06 10:40:59.89	188.06	19.32	-51.9	-53.5	14.8	0.00e+00	0	29	0	328204288	70	4229
2026-01-06 10:41:00.88	188.16	19.43	-52.0	-53.6	14.8	0.00e+00	0	28	0	330301440	70	4276
2026-01-06 10:41:01.87	188.25	19.55	-51.9	-53.5	14.8	0.00e+00	0	29	0	331350016	70	4230
2026-01-06 10:41:02.86	188.34	19.67	-51.9	-53.5	14.8	0.00e+00	0	29	0	333447168	70	4223
2026-01-06 10:41:03.85	188.44	19.79	-51.9	-53.5	14.8	0.00e+00	0	29	0	335544320	70	4199
2026-01-06 10:41:04.84	188.54	19.91	-51.9	-53.6	14.8	0.00e+00	0	29	0	337641472	70	4247
2026-01-06 10:41:05.81	188.63	20.02	-51.9	-53.5	14.8	0.00e+00	0	29	0	339738624	70	4231
2026-01-06 10:41:06.80	188.73	20.14	-51.7	-53.3	14.8	0.00e+00	0	29	0	340787200	69	4381
2026-01-06 10:41:07.79	188.83	20.26	-51.8	-53.4	14.8	0.00e+00	0	29	0	342884352	69	4439
2026-01-06 10:41:08.77	188.93	20.38	-51.7	-53.3	14.8	0.00e+00	0	29	0	344981504	69	4361
2026-01-06 10:41:09.76	189.03	20.50	-51.6	-53.2	14.8	0.00e+00	0	29	0	347078656	69	4305
2026-01-06 10:41:10.75	189.13	20.63	-51.7	-53.3	14.8	0.00e+00	0	29	0	348127232	69	4387
2026-01-06 10:41:11.74	189.23	20.75	-51.7	-53.3	14.8	0.00e+00	0	29	0	350224384	69	4354
2026-01-06 10:41:12.73	189.33	20.87	-51.8	-53.4	14.7	0.00e+00	0	29	0	352321536	69	4432
2026-01-06 10:41:13.71	189.43	20.99	-51.8	-53.3	14.8	0.00e+00	0	29	0	354418688	69	4389
2026-01-06 10:41:14.70	189.54	21.12	-51.9	-53.5	14.8	0.00e+00	0	29	0	355467264	69	4472
2026-01-06 10:41:15.69	189.64	21.24	-51.9	-53.5	14.7	0.00e+00	0	29	0	357564416	69	4478
2026-01-06 10:41:16.68	189.75	21.37	-51.9	-53.6	14.7	0.00e+00	0	29	0	359661568	69	4495
2026-01-06 10:41:17.67	189.85	21.49	-51.9	-53.5	14.7	0.00e+00	0	29	0	361758720	69	4469
2026-01-06 10:41:18.66	189.96	21.62	-51.9	-53.5	14.7	0.00e+00	0	29	0	363855872	69	4485
2026-01-06 10:41:19.64	190.07	21.74	-51.9	-53.6	14.7	0.00e+00	0	29	0	364904448	69	4494
2026-01-06 10:41:20.64	190.18	21.87	-51.8	-53.5	14.7	0.00e+00	0	29	0	367001600	69	4448
2026-01-06 10:41:21.62	190.29	22.00	-51.6	-53.2	14.9	0.00e+00	0	29	0	369098752	69	4306
2026-01-06 10:41:22.61	190.40	22.13	-51.6	-53.2	14.8	0.00e+00	0	29	0	371195904	69	4319
2026-01-06 10:41:23.60	190.51	22.26	-51.6	-53.2	14.8	0.00e+00	0	28	0	372244480	69	4314
2026-01-06 10:41:24.59	190.62	22.39	-51.6	-53.1	14.9	0.00e+00	0	29	0	374341632	69	4264
2026-01-06 10:41:25.58	190.73	22.52	-51.3	-52.8	15.0	0.00e+00	0	29	0	376438784	69	4110
2026-01-06 10:41:26.57	190.85	22.65	-51.4	-52.9	14.9	0.00e+00	0	29	0	378535936	69	4174
2026-01-06 10:41:27.56	190.96	22.78	-51.4	-53.0	14.9	0.00e+00	0	29	0	379584512	69	4199
2026-01-06 10:41:28.55	191.08	22.91	-51.5	-53.0	14.9	0.00e+00	0	29	0	381681664	69	4204
2026-01-06 10:41:29.53	191.20	23.04	-51.5	-53.0	14.9	0.00e+00	0	29	0	383778816	69	4242
2026-01-06 10:41:30.52	191.31	23.17	-51.4	-52.9	14.9	0.00e+00	0	29	0	385875968	69	4185
2026-01-06 10:41:31.51	191.43	23.31	-51.5	-53.1	14.9	0.00e+00	0	29	0	387973120	69	4243
2026-01-06 10:41:32.51	191.55	23.44	-51.4	-52.9	14.9	0.00e+00	0	29	0	389021696	69	4173
2026-01-06 10:41:33.49	191.67	23.57	-51.6	-53.1	14.9	0.00e+00	0	29	0	391118848	69	4285
2026-01-06 10:41:34.49	191.80	23.71	-51.4	-52.9	14.9	0.00e+00	0	29	0	393216000	69	4170
2026-01-06 10:41:35.47	191.92	23.84	-51.5	-53.0	14.9	0.00e+00	0	29	0	395313152	69	4213
2026-01-06 10:41:36.46	192.04	23.98	-51.7	-53.2	14.8	0.00e+00	0	29	0	396361728	69	4322
2026-01-06 10:41:37.44	192.17	24.12	-51.7	-53.2	14.8	0.00e+00	0	29	0	398458880	69	4337
2026-01-06 10:41:38.42	192.29	24.25	-51.8	-53.4	14.8	0.00e+00	0	29	0	400556032	69	4432
2026-01-06 10:41:39.41	192.42	24.39	-51.8	-53.4	14.8	0.00e+00	0	29	0	402653184	69	4427
2026-01-06 10:41:40.40	192.55	24.53	-51.9	-53.5	14.7	0.00e+00	0	29	0	403701760	69	4459
2026-01-06 10:41:41.39	192.67	24.67	-52.1	-53.8	14.6	0.00e+00	0	29	0	405798912	69	4611
2026-01-06 10:41:42.37	192.80	24.81	-52.2	-53.8	14.6	0.00e+00	0	29	0	407896064	69	4650
2026-01-06 10:41:43.37	192.94	24.95	-52.2	-53.9	14.6	0.00e+00	0	29	0	409993216	69	4692
2026-01-06 10:41:44.36	193.07	25.09	-52.4	-54.1	14.6	0.00e+00	0	29	0	411041792	70	4530
2026-01-06 10:41:45.34	193.20	25.23	-52.6	-54.4	14.5	0.00e+00	0	29	0	413138944	70	4676
2026-01-06 10:41:46.33	193.34	25.37	-52.5	-54.2	14.6	0.00e+00	0	29	0	415236096	70	4557
2026-01-06 10:41:47.31	193.47	25.51	-52.5	-54.2	14.6	0.00e+00	0	29	0	417333248	70	4553
2026-01-06 10:41:48.30	193.61	25.65	-52.5	-54.2	14.6	0.00e+00	0	29	0	419430400	70	4551
2026-01-06 10:41:49.29	193.75	25.80	-52.3	-53.9	14.7	0.00e+00	0	29	0	420478976	70	4418
2026-01-06 10:41:50.28	193.89	25.94	-52.4	-54.0	14.7	0.00e+00	0	29	0	422576128	70	4493
2026-01-06 10:41:51.27	194.03	26.09	-52.3	-54.0	14.6	0.00e+00	0	29	0	424673280	70	4464
2026-01-06 10:41:52.26	194.17	26.23	-52.5	-54.2	14.6	0.00e+00	0	29	0	426770432	70	4583
2026-01-06 10:41:53.24	194.31	26.38	-52.3	-54.0	14.7	0.00e+00	0	29	0	427819008	70	4446
2026-01-06 10:41:54.23	194.46	26.52	-52.4	-54.0	14.7	0.00e+00	0	29	0	429916160	70	4479
2026-01-06 10:41:55.22	194.60	26.67	-52.5	-54.2	14.6	0.00e+00	0	29	0	432013312	70	4579
2026-01-06 10:41:56.21	194.75	26.82	-52.5	-54.2	14.6	0.00e+00	0	29	0	434110464	70	4587
2026-01-06 10:41:57.20	194.90	26.97	-52.5	-54.2	14.6	0.00e+00	0	29	0	435159040	70	4586
2026-01-06 10:41:58.18	195.05	27.12	-52.7	-54.4	14.5	0.00e+00	0	29	0	437256192	70	4683
2026-01-06 10:41:59.17	195.20	27.27	-52.7	-54.5	14.5	0.00e+00	0	29	0	439353344	70	4714
2026-01-06 10:42:00.16	195.35	27.42	-52.6	-54.3	14.6	0.00e+00	0	29	0	441450496	71	4355
2026-01-06 10:42:01.15	195.51	27.57	-52.7	-54.5	14.6	0.00e+00	0	29	0	443547648	71	4462
2026-01-06 10:42:02.14	195.66	27.72	-52.9	-54.7	14.5	0.00e+00	0	29	0	444596224	71	4580
2026-01-06 10:42:03.12	195.82	27.87	-52.9	-54.7	14.5	0.00e+00	0	29	0	446693376	71	4576
2026-01-06 10:42:04.12	195.98	28.03	-52.8	-54.6	14.5	0.00e+00	0	29	0	448790528	71	4510
2026-01-06 10:42:05.11	196.14	28.18	-52.9	-54.7	14.5	0.00e+00	0	29	0	450887680	71	4576
2026-01-06 10:42:06.10	196.30	28.33	-53.4	-55.3	14.3	0.00e+00	0	29	0	451936256	71	4897
2026-01-06 10:42:07.09	196.46	28.49	-53.4	-55.3	14.4	0.00e+00	0	29	0	454033408	72	4609
2026-01-06 10:42:08.08	196.63	28.64	-53.6	-55.6	14.3	0.00e+00	0	29	0	456130560	72	4773
2026-01-06 10:42:09.07	196.79	28.80	-54.1	-56.3	14.0	0.00e+00	0	29	0	458227712	73	4893
2026-01-06 10:42:10.06	196.96	28.96	-54.2	-56.3	14.0	0.00e+00	0	29	0	459276288	73	4919
2026-01-06 10:42:11.04	197.13	29.11	-54.2	-56.3	14.0	0.00e+00	0	29	0	461373440	73	4906
2026-01-06 10:42:12.02	197.30	29.27	-54.3	-56.4	14.0	0.00e+00	0	29	0	463470592	74	4697
2026-01-06 10:42:13.02	197.47	29.43	-54.3	-56.5	14.0	0.00e+00	0	29	0	465567744	74	4720
2026-01-06 10:42:14.01	197.65	29.59	-54.5	-56.8	13.9	0.00e+00	0	29	0	467664896	74	4890
2026-01-06 10:42:14.99	197.82	29.75	-54.7	-57.0	13.8	0.00e+00	0	29	0	468713472	74	5033
2026-01-06 10:42:15.98	198.00	29.91	-55.0	-57.4	13.7	0.00e+00	0	29	0	470810624	75	4967
2026-01-06 10:42:16.97	198.18	30.07	-55.0	-57.5	13.6	0.00e+00	0	29	0	472907776	75	5005
2026-01-06 10:42:17.96	198.36	30.23	-55.2	-57.7	13.5	0.00e+00	0	29	0	475004928	75	5148
2026-01-06 10:42:18.95	198.54	30.39	-55.1	-57.6	13.7	0.00e+00	0	29	0	476053504	76	4775
2026-01-06 10:42:19.94	198.73	30.55	-55.5	-58.2	13.4	0.00e+00	0	29	0	478150656	76	5121
2026-01-06 10:42:20.93	198.91	30.72	-55.4	-58.0	13.4	0.00e+00	0	29	0	480247808	76	5024
2026-01-06 10:42:21.91	199.10	30.88	-55.4	-57.9	13.5	0.00e+00	0	29	0	482344960	76	4983
2026-01-06 10:42:22.90	199.29	31.04	-55.2	-57.7	13.6	0.00e+00	0	29	0	483393536	76	4840
2026-01-06 10:42:23.88	199.48	31.21	-54.9	-57.3	13.8	0.00e+00	0	29	0	485490688	76	4630
2026-01-06 10:42:24.87	199.67	31.37	-55.0	-57.4	13.8	0.00e+00	0	29	0	487587840	76	4664
2026-01-06 10:42:25.86	199.87	31.54	-55.1	-57.5	13.7	0.00e+00	0	29	0	489684992	76	4739
2026-01-06 10:42:26.82	200.06	31.70	-55.4	-58.0	13.5	0.00e+00	0	29	0	490733568	76	4985
2026-01-06 10:42:27.81	200.26	31.87	-55.3	-57.8	13.6	0.00e+00	0	29	0	492830720	76	4903
2026-01-06 10:42:28.80	200.46	32.04	-55.0	-57.5	13.8	0.00e+00	0	29	0	494927872	76	4710
2026-01-06 10:42:29.79	200.67	32.21	-55.0	-57.4	13.8	0.00e+00	0	29	0	497025024	76	4675
2026-01-06 10:42:30.78	200.87	32.38	-55.0	-57.4	13.9	0.00e+00	0	29	0	498073600	76	4658
2026-01-06 10:42:31.76	201.08	32.54	-54.8	-57.1	13.9	0.00e+00	0	29	0	500170752	76	4543
2026-01-06 10:42:32.74	201.29	32.71	-54.2	-56.3	14.2	0.00e+00	0	29	0	502267904	75	4388
2026-01-06 10:42:33.72	201.50	32.88	-54.0	-56.1	14.2	0.00e+00	0	29	0	504365056	74	4500
2026-01-06 10:42:34.71	201.71	33.05	-53.8	-55.9	14.3	0.00e+00	0	29	0	506462208	74	4404
2026-01-06 10:42:35.69	201.93	33.22	-53.9	-56.0	14.2	0.00e+00	0	29	0	507510784	73	4739
2026-01-06 10:42:36.68	202.15	33.40	-54.2	-56.3	14.0	0.00e+00	0	29	0	509607936	73	4923
2026-01-06 10:42:37.67	202.37	33.57	-54.1	-56.3	14.0	0.00e+00	0	29	0	511705088	73	4910
2026-01-06 10:42:38.65	202.59	33.74	-54.3	-56.5	14.0	0.00e+00	0	29	0	513802240	74	4750
2026-01-06 10:42:39.64	202.82	33.91	-54.2	-56.3	14.2	0.00e+00	0	29	0	514850816	74	4635
2026-01-06 10:42:40.63	203.04	34.09	-54.0	-56.1	14.2	0.00e+00	0	29	0	516947968	74	4513
2026-01-06 10:42:41.63	203.28	34.27	-53.8	-55.7	14.4	0.00e+00	0	29	0	519045120	74	4334
2026-01-06 10:42:42.61	203.51	34.44	-53.4	-55.2	14.5	0.00e+00	0	29	0	521142272	73	4332
2026-01-06 10:42:43.59	203.74	34.61	-53.3	-55.1	14.4	0.00e+00	0	29	0	522190848	72	4525
2026-01-06 10:42:44.59	203.98	34.79	-53.4	-55.2	14.4	0.00e+00	0	29	0	524288000	72	4580
2026-01-06 10:42:45.58	204.22	34.97	-53.3	-55.1	14.4	0.00e+00	0	29	0	526385152	72	4533
2026-01-06 10:42:46.56	204.46	35.14	-53.5	-55.5	14.3	0.00e+00	0	29	0	528482304	72	4708
2026-01-06 10:42:47.54	204.71	35.32	-53.5	-55.4	14.4	0.00e+00	0	29	0	529530880	72	4691
2026-01-06 10:42:48.53	204.95	35.50	-53.4	-55.2	14.4	0.00e+00	0	29	0	531628032	72	4579
2026-01-06 10:42:49.52	205.21	35.68	-53.1	-54.9	14.5	0.00e+00	0	29	0	533725184	72	4416
2026-01-06 10:42:50.51	205.46	35.86	-53.4	-55.3	14.4	0.00e+00	0	29	0	535822336	72	4631
2026-01-06 10:42:51.50	205.72	36.04	-53.5	-55.3	14.4	0.00e+00	0	29	0	537919488	72	4646
2026-01-06 10:42:52.49	205.98	36.22	-53.2	-55.1	14.5	0.00e+00	0	29	0	538968064	72	4496
2026-01-06 10:42:53.48	206.24	36.40	-53.1	-54.9	14.6	0.00e+00	0	29	0	541065216	72	4413
2026-01-06 10:42:54.47	206.50	36.58	-52.8	-54.5	14.7	0.00e+00	0	29	0	543162368	72	4202
2026-01-06 10:42:55.46	206.77	36.76	-52.6	-54.2	14.7	0.00e+00	0	29	0	545259520	71	4329
2026-01-06 10:42:56.46	207.05	36.94	-52.2	-53.8	14.9	0.00e+00	0	29	0	546308096	71	4106
2026-01-06 10:42:57.45	207.32	37.12	-52.4	-54.0	14.8	0.00e+00	0	29	0	548405248	71	4230
2026-01-06 10:42:58.44	207.60	37.30	-53.0	-54.8	14.5	0.00e+00	0	29	0	550502400	71	4618
2026-01-06 10:42:59.42	207.87	37.48	-52.7	-54.4	14.6	0.00e+00	0	29	0	552599552	71	4435
2026-01-06 10:43:00.41	208.16	37.66	-52.8	-54.5	14.6	0.00e+00	0	29	0	553648128	71	4476
2026-01-06 10:43:01.41	208.45	37.85	-52.8	-54.5	14.6	0.00e+00	0	29	0	555745280	71	4457
2026-01-06 10:43:02.40	208.74	38.03	-52.3	-54.0	14.8	0.00e+00	0	29	0	557842432	71	4198
2026-01-06 10:43:03.39	209.03	38.21	-52.0	-53.6	14.8	0.00e+00	0	29	0	559939584	70	4271
2026-01-06 10:43:04.38	209.32	38.40	-52.2	-53.8	14.8	0.00e+00	0	29	0	562036736	70	4368
2026-01-06 10:43:05.38	209.63	38.58	-52.2	-53.8	14.8	0.00e+00	0	29	0	563085312	70	4391
2026-01-06 10:43:06.37	209.93	38.77	-52.2	-53.8	14.8	0.00e+00	0	29	0	565182464	70	4372
2026-01-06 10:43:07.35	210.23	38.95	-52.4	-54.1	14.7	0.00e+00	0	29	0	567279616	70	4508
2026-01-06 10:43:08.34	210.54	39.13	-52.9	-54.7	14.5	0.00e+00	0	29	0	569376768	70	4847
2026-01-06 10:43:09.32	210.85	39.31	-53.1	-54.9	14.5	0.00e+00	0	29	0	570425344	71	4671
2026-01-06 10:43:10.31	211.17	39.50	-53.2	-55.0	14.5	0.00e+00	0	29	0	572522496	71	4747
2026-01-06 10:43:11.30	211.49	39.68	-53.3	-55.2	14.4	0.00e+00	0	29	0	574619648	71	4815
2026-01-06 10:43:12.29	211.81	39.86	-53.3	-55.2	14.4	0.00e+00	0	29	0	576716800	71	4837
2026-01-06 10:43:13.28	212.14	40.05	-53.2	-55.0	14.4	0.00e+00	0	29	0	578813952	71	4745
2026-01-06 10:43:14.28	212.47	40.23	-53.0	-54.7	14.6	0.00e+00	0	29	0	579862528	71	4594
2026-01-06 10:43:15.27	212.80	40.41	-53.0	-54.7	14.6	0.00e+00	0	29	0	581959680	71	4589
2026-01-06 10:43:16.27	213.14	40.60	-52.9	-54.6	14.6	0.00e+00	0	29	0	584056832	71	4518
2026-01-06 10:43:17.25	213.48	40.78	-52.8	-54.6	14.6	0.00e+00	0	29	0	586153984	71	4498
2026-01-06 10:43:18.24	213.83	40.96	-52.6	-54.3	14.7	0.00e+00	0	29	0	587202560	71	4348
2026-01-06 10:43:19.23	214.18	41.14	-52.6	-54.2	14.7	0.00e+00	0	29	0	589299712	71	4324
2026-01-06 10:43:20.22	214.53	41.33	-52.5	-54.1	14.8	0.00e+00	0	29	0	591396864	71	4260
2026-01-06 10:43:21.20	214.88	41.51	-52.9	-54.6	14.6	0.00e+00	0	29	0	593494016	71	4527
2026-01-06 10:43:22.19	215.25	41.69	-53.3	-55.2	14.4	0.00e+00	0	29	0	594542592	72	4573
2026-01-06 10:43:23.17	215.61	41.87	-53.7	-55.6	14.3	0.00e+00	0	29	0	596639744	72	4802
2026-01-06 10:43:24.16	215.98	42.05	-53.4	-55.3	14.3	0.00e+00	0	29	0	598736896	72	4619
2026-01-06 10:43:25.14	216.35	42.23	-53.3	-55.1	14.5	0.00e+00	0	29	0	600834048	72	4520
2026-01-06 10:43:26.13	216.72	42.41	-53.1	-54.9	14.5	0.00e+00	0	29	0	601882624	72	4428
2026-01-06 10:43:27.11	217.10	42.58	-53.2	-55.0	14.5	0.00e+00	0	29	0	603979776	72	4455
2026-01-06 10:43:28.09	217.48	42.76	-52.9	-54.6	14.6	0.00e+00	0	29	0	606076928	72	4280
2026-01-06 10:43:29.07	217.87	42.94	-52.9	-54.7	14.7	0.00e+00	0	29	0	608174080	72	4307
2026-01-06 10:43:30.06	218.26	43.12	-52.8	-54.5	14.7	0.00e+00	0	29	0	609222656	72	4201
2026-01-06 10:43:31.04	218.66	43.29	-52.6	-54.3	14.7	0.00e+00	0	29	0	611319808	71	4359
2026-01-06 10:43:32.02	219.06	43.47	-52.5	-54.2	14.8	0.00e+00	0	29	0	613416960	71	4311
2026-01-06 10:43:33.01	219.46	43.64	-52.9	-54.5	14.6	0.00e+00	0	29	0	615514112	71	4491
2026-01-06 10:43:33.99	219.87	43.81	-53.1	-54.8	14.5	0.00e+00	0	29	0	617611264	71	4651
2026-01-06 10:43:34.98	220.29	43.99	-53.1	-54.9	14.5	0.00e+00	0	29	0	618659840	71	4667
2026-01-06 10:43:35.96	220.70	44.16	-53.0	-54.7	14.6	0.00e+00	0	29	0	620756992	71	4563
2026-01-06 10:43:36.95	221.13	44.33	-53.0	-54.7	14.6	0.00e+00	0	29	0	622854144	71	4580
2026-01-06 10:43:37.94	221.56	44.50	-53.3	-55.1	14.4	0.00e+00	0	29	0	624951296	71	4812
2026-01-06 10:43:38.93	221.99	44.67	-53.5	-55.3	14.4	0.00e+00	0	29	0	625999872	72	4647
2026-01-06 10:43:39.92	222.43	44.84	-53.7	-55.7	14.3	0.00e+00	0	29	0	628097024	72	4835
2026-01-06 10:43:40.90	222.87	45.01	-54.3	-56.4	14.0	0.00e+00	0	29	0	630194176	73	4976
2026-01-06 10:43:41.88	223.31	45.17	-54.4	-56.6	14.0	0.00e+00	0	29	0	632291328	74	4799
2026-01-06 10:43:42.86	223.76	45.34	-54.6	-56.8	14.0	0.00e+00	0	29	0	633339904	74	4896
2026-01-06 10:43:43.85	224.22	45.50	-54.4	-56.5	14.1	0.00e+00	0	29	0	635437056	74	4758
2026-01-06 10:43:44.84	224.68	45.67	-53.8	-55.7	14.4	0.00e+00	0	29	0	637534208	74	4314
2026-01-06 10:43:45.83	225.15	45.83	-53.7	-55.7	14.4	0.00e+00	0	29	0	639631360	73	4546
2026-01-06 10:43:46.81	225.61	45.99	-53.3	-55.1	14.6	0.00e+00	0	29	0	640679936	73	4264
2026-01-06 10:43:47.81	226.09	46.15	-53.3	-55.1	14.5	0.00e+00	0	29	0	642777088	73	4273
2026-01-06 10:43:48.79	226.57	46.30	-53.3	-55.2	14.5	0.00e+00	0	29	0	644874240	72	4548
2026-01-06 10:43:49.77	227.05	46.46	-53.0	-54.7	14.6	0.00e+00	0	29	0	646971392	72	4336
2026-01-06 10:43:50.76	227.54	46.61	-53.0	-54.8	14.7	0.00e+00	0	29	0	649068544	72	4348
2026-01-06 10:43:51.75	228.03	46.76	-53.0	-54.7	14.7	0.00e+00	0	29	0	650117120	72	4313
2026-01-06 10:43:52.73	228.53	46.91	-52.8	-54.5	14.7	0.00e+00	0	29	0	652214272	71	4483
2026-01-06 10:43:53.71	229.03	47.06	-52.5	-54.1	14.8	0.00e+00	0	29	0	654311424	71	4287
2026-01-06 10:43:54.69	229.53	47.20	-52.6	-54.2	14.8	0.00e+00	0	29	0	656408576	71	4329
2026-01-06 10:43:55.68	230.05	47.35	-52.8	-54.5	14.7	0.00e+00	0	29	0	657457152	71	4447
2026-01-06 10:43:56.67	230.56	47.49	-53.0	-54.7	14.6	0.00e+00	0	29	0	659554304	71	4573
2026-01-06 10:43:57.65	231.08	47.63	-53.1	-54.9	14.5	0.00e+00	0	29	0	661651456	71	4663
2026-01-06 10:43:58.63	231.60	47.77	-53.4	-55.2	14.5	0.00e+00	0	29	0	663748608	72	4568
2026-01-06 10:43:59.62	232.14	47.91	-53.3	-55.1	14.5	0.00e+00	0	29	0	664797184	72	4510
2026-01-06 10:44:00.61	232.67	48.04	-53.1	-54.9	14.6	0.00e+00	0	29	0	666894336	72	4407
2026-01-06 10:44:01.59	233.21	48.17	-53.4	-55.3	14.5	0.00e+00	0	29	0	668991488	72	4600
2026-01-06 10:44:02.58	233.76	48.30	-53.0	-54.7	14.6	0.00e+00	0	29	0	671088640	72	4329
2026-01-06 10:44:03.57	234.31	48.43	-52.7	-54.4	14.7	0.00e+00	0	29	0	672137216	71	4416
2026-01-06 10:44:04.56	234.86	48.55	-52.0	-53.5	14.9	0.00e+00	0	29	0	674234368	70	4210
2026-01-06 10:44:05.55	235.42	48.68	-52.0	-53.6	14.9	0.00e+00	0	29	0	676331520	70	4249
2026-01-06 10:44:06.53	235.98	48.80	-52.3	-53.9	14.8	0.00e+00	0	29	0	678428672	70	4427
2026-01-06 10:44:07.52	236.55	48.91	-52.6	-54.2	14.7	0.00e+00	0	29	0	679477248	70	4572
2026-01-06 10:44:08.50	237.11	49.03	-52.2	-53.8	14.8	0.00e+00	0	29	0	681574400	70	4354
2026-01-06 10:44:09.48	237.68	49.14	-52.1	-53.7	14.9	0.00e+00	0	29	0	683671552	70	4299
2026-01-06 10:44:10.47	238.27	49.25	-52.6	-54.2	14.7	0.00e+00	0	29	0	685768704	70	4572
2026-01-06 10:44:11.45	238.84	49.35	-52.5	-54.1	14.7	0.00e+00	0	29	0	687865856	70	4516
2026-01-06 10:44:12.44	239.43	49.46	-52.4	-54.1	14.7	0.00e+00	0	29	0	688914432	70	4494
2026-01-06 10:44:13.43	240.03	49.56	-52.9	-54.6	14.6	0.00e+00	0	29	0	691011584	71	4513
2026-01-06 10:44:14.43	240.63	49.66	-53.0	-54.8	14.5	0.00e+00	0	29	0	693108736	71	4631
2026-01-06 10:44:15.41	241.22	49.75	-53.1	-54.9	14.5	0.00e+00	0	29	0	695205888	71	4657
2026-01-06 10:44:16.40	241.83	49.84	-52.5	-54.1	14.8	0.00e+00	0	29	0	696254464	71	4263
2026-01-06 10:44:17.38	242.43	49.93	-51.8	-53.3	15.0	0.00e+00	0	29	0	698351616	70	4135
2026-01-06 10:44:18.38	243.04	50.01	-51.9	-53.4	14.8	0.00e+00	0	29	0	700448768	69	4414
2026-01-06 10:44:19.36	243.65	50.10	-52.0	-53.6	14.8	0.00e+00	0	29	0	702545920	69	4516
2026-01-06 10:44:20.35	244.27	50.17	-51.9	-53.4	14.8	0.00e+00	0	29	0	703594496	69	4432
2026-01-06 10:44:21.34	244.89	50.25	-51.6	-53.1	14.9	0.00e+00	0	29	0	705691648	69	4266
2026-01-06 10:44:22.33	245.51	50.32	-51.8	-53.3	14.9	0.00e+00	0	29	0	707788800	69	4357
2026-01-06 10:44:23.31	246.13	50.39	-51.8	-53.3	14.9	0.00e+00	0	29	0	709885952	69	4346
2026-01-06 10:44:24.31	246.77	50.45	-51.3	-52.8	15.1	0.00e+00	0	29	0	710934528	69	4120
2026-01-06 10:44:25.29	247.39	50.52	-51.2	-52.7	15.0	0.00e+00	0	29	0	713031680	68	4299
2026-01-06 10:44:26.28	248.03	50.57	-51.3	-52.8	15.0	0.00e+00	0	29	0	715128832	68	4362
2026-01-06 10:44:27.27	248.66	50.63	-52.0	-53.5	14.7	0.00e+00	0	29	0	717225984	69	4481
2026-01-06 10:44:28.26	249.30	50.68	-52.3	-53.9	14.7	0.00e+00	0	29	0	719323136	69	4688
2026-01-06 10:44:29.24	249.93	50.73	-52.7	-54.4	14.6	0.00e+00	0	29	0	720371712	70	4671
2026-01-06 10:44:30.22	250.57	50.77	-52.6	-54.2	14.7	0.00e+00	0	29	0	722468864	70	4593
2026-01-06 10:44:31.21	251.21	50.81	-51.8	-53.3	15.0	0.00e+00	0	29	0	724566016	70	4105
2026-01-06 10:44:32.20	251.86	50.84	-51.0	-52.3	15.1	0.00e+00	0	29	0	726663168	68	4138
2026-01-06 10:44:33.19	252.51	50.88	-50.9	-52.3	15.1	0.00e+00	0	29	0	727711744	68	4130
2026-01-06 10:44:34.18	253.16	50.91	-52.2	-53.8	14.7	0.00e+00	0	29	0	729808896	69	4611
2026-01-06 10:44:35.16	253.80	50.93	-52.9	-54.8	14.5	0.00e+00	0	29	0	731906048	71	4606
2026-01-06 10:44:36.16	254.46	50.95	-53.2	-55.0	14.5	0.00e+00	0	29	0	734003200	71	4742
2026-01-06 10:44:37.15	255.11	50.97	-53.1	-54.9	14.5	0.00e+00	0	29	0	735051776	71	4667
2026-01-06 10:44:38.14	255.76	50.98	-52.9	-54.7	14.6	0.00e+00	0	29	0	737148928	71	4564
2026-01-06 10:44:39.13	256.41	50.99	-52.4	-54.0	14.8	0.00e+00	0	29	0	739246080	71	4241
2026-01-06 10:44:40.12	257.06	51.00	-51.6	-53.0	15.0	0.00e+00	0	29	0	741343232	69	4233
2026-01-06 10:44:41.11	257.72	51.00	-51.5	-52.9	15.0	0.00e+00	0	29	0	743440384	69	4165
2026-01-06 10:44:42.10	258.37	51.00	-52.7	-54.4	14.6	0.00e+00	0	29	0	744488960	70	4658
2026-01-06 10:44:43.09	259.02	50.99	-53.3	-55.2	14.4	0.00e+00	0	29	0	746586112	71	4839
2026-01-06 10:44:44.08	259.68	50.98	-52.8	-54.5	14.6	0.00e+00	0	29	0	748683264	71	4489
2026-01-06 10:44:45.07	260.33	50.97	-52.4	-54.0	14.9	0.00e+00	0	29	0	750780416	71	4199
2026-01-06 10:44:46.05	260.97	50.95	-52.4	-54.0	14.7	0.00e+00	0	29	0	751828992	70	4485
2026-01-06 10:44:47.04	261.62	50.93	-53.0	-54.8	14.6	0.00e+00	0	29	0	753926144	71	4599
2026-01-06 10:44:48.03	262.27	50.91	-52.2	-53.8	14.9	0.00e+00	0	29	0	756023296	71	4138
2026-01-06 10:44:49.01	262.91	50.88	-51.1	-52.5	15.1	0.00e+00	0	29	0	758120448	68	4216
2026-01-06 10:44:50.00	263.56	50.85	-50.5	-51.8	15.2	0.00e+00	0	29	0	759169024	67	4127
2026-01-06 10:44:50.98	264.20	50.81	-50.9	-52.3	15.0	0.00e+00	0	29	0	761266176	67	4365
2026-01-06 10:44:51.97	264.84	50.77	-51.7	-53.2	14.8	0.00e+00	0	29	0	763363328	68	4553
2026-01-06 10:44:52.97	265.49	50.73	-51.8	-53.3	14.8	0.00e+00	0	29	0	765460480	68	4623
2026-01-06 10:44:53.96	266.13	50.68	-52.1	-53.6	14.8	0.00e+00	0	29	0	767557632	69	4534
2026-01-06 10:44:54.95	266.77	50.63	-52.4	-54.1	14.7	0.00e+00	0	29	0	768606208	70	4518
2026-01-06 10:44:55.94	267.41	50.58	-52.7	-54.4	14.7	0.00e+00	0	29	0	770703360	70	4670
2026-01-06 10:44:56.93	268.04	50.52	-52.2	-53.8	14.8	0.00e+00	0	29	0	772800512	70	4362
2026-01-06 10:44:57.92	268.67	50.46	-52.5	-54.1	14.7	0.00e+00	0	29	0	774897664	70	4535
2026-01-06 10:44:58.91	269.30	50.39	-52.5	-54.1	14.7	0.00e+00	0	29	0	775946240	70	4523
2026-01-06 10:44:59.90	269.93	50.33	-52.1	-53.7	14.9	0.00e+00	0	29	0	778043392	70	4305
2026-01-06 10:45:00.89	270.55	50.25	-51.4	-52.8	15.1	0.00e+00	0	29	0	780140544	69	4143
2026-01-06 10:45:01.88	271.17	50.18	-51.9	-53.4	14.8	0.00e+00	0	29	0	782237696	69	4421
2026-01-06 10:45:02.87	271.79	50.10	-52.6	-54.2	14.7	0.00e+00	0	29	0	783286272	70	4577
2026-01-06 10:45:03.85	272.39	50.02	-52.3	-53.9	14.8	0.00e+00	0	29	0	785383424	70	4399
2026-01-06 10:45:04.84	273.00	49.94	-52.5	-54.1	14.7	0.00e+00	0	29	0	787480576	70	4503
2026-01-06 10:45:05.82	273.60	49.85	-52.8	-54.5	14.6	0.00e+00	0	29	0	789577728	70	4724
2026-01-06 10:45:06.81	274.21	49.76	-54.5	-56.6	14.1	0.00e+00	0	29	0	790626304	74	4811
2026-01-06 10:45:07.80	274.81	49.66	-54.9	-57.2	13.8	0.00e+00	0	29	0	792723456	75	4854
2026-01-06 10:45:08.79	275.40	49.57	-54.3	-56.4	14.2	0.00e+00	0	29	0	794820608	75	4406
2026-01-06 10:45:09.78	276.00	49.47	-53.8	-55.7	14.4	0.00e+00	0	29	0	796917760	74	4321
2026-01-06 10:45:10.77	276.58	49.36	-53.7	-55.6	14.4	0.00e+00	0	29	0	799014912	73	4543
2026-01-06 10:45:11.76	277.17	49.26	-54.7	-57.0	13.9	0.00e+00	0	29	0	800063488	74	5019
2026-01-06 10:45:12.75	277.75	49.15	-55.1	-57.4	13.8	0.00e+00	0	29	0	802160640	75	4953
2026-01-06 10:45:13.73	278.32	49.04	-55.1	-57.5	13.8	0.00e+00	0	29	0	804257792	75	5018
2026-01-06 10:45:14.72	278.89	48.92	-55.0	-57.4	13.8	0.00e+00	0	29	0	806354944	75	4935
2026-01-06 10:45:15.71	279.46	48.81	-56.1	-58.9	13.1	0.00e+00	0	29	0	807403520	77	5268
2026-01-06 10:45:16.69	280.02	48.69	-57.1	-60.6	12.4	0.00e+00	0	29	0	809500672	79	5673
2026-01-06 10:45:17.68	280.57	48.56	-56.4	-59.4	13.0	0.00e+00	0	29	0	811597824	79	4957
2026-01-06 10:45:18.67	281.13	48.44	-56.3	-59.1	13.1	0.00e+00	0	29	0	813694976	78	5098
2026-01-06 10:45:19.65	281.67	48.31	-56.4	-59.3	13.1	0.00e+00	0	29	0	814743552	78	5199
2026-01-06 10:45:20.64	282.22	48.18	-56.4	-59.3	13.0	0.00e+00	0	29	0	816840704	78	5199
2026-01-06 10:45:21.62	282.75	48.05	-56.5	-59.5	12.9	0.00e+00	0	29	0	818937856	78	5309
2026-01-06 10:45:22.61	283.29	47.92	-57.0	-60.3	12.5	0.00e+00	0	29	0	821035008	79	5508
2026-01-06 10:45:23.60	283.82	47.78	-57.1	-60.6	12.3	0.00e+00	0	29	0	823132160	79	5669
2026-01-06 10:45:24.58	284.34	47.65	-56.9	-60.3	12.4	0.00e+00	0	29	0	824180736	79	5497
2026-01-06 10:45:25.56	284.86	47.51	-56.3	-59.2	13.1	0.00e+00	0	29	0	826277888	79	4865
2026-01-06 10:45:26.55	285.38	47.36	-56.5	-59.6	12.9	0.00e+00	0	29	0	828375040	79	5062
2026-01-06 10:45:27.54	285.89	47.22	-56.4	-59.3	13.1	0.00e+00	0	29	0	830472192	78	5213
2026-01-06 10:45:28.53	286.40	47.07	-55.9	-58.5	13.4	0.00e+00	0	29	0	831520768	78	4755
2026-01-06 10:45:29.51	286.90	46.93	-55.7	-58.2	13.6	0.00e+00	0	29	0	833617920	77	4840
2026-01-06 10:45:30.51	287.40	46.78	-56.1	-58.8	13.2	0.00e+00	0	29	0	835715072	77	5217
2026-01-06 10:45:31.49	287.89	46.63	-56.8	-60.0	12.6	0.00e+00	0	29	0	837812224	78	5647
2026-01-06 10:45:32.48	288.38	46.47	-56.0	-58.8	13.3	0.00e+00	0	29	0	838860800	78	4876
2026-01-06 10:45:33.46	288.86	46.32	-55.6	-58.1	13.7	0.00e+00	0	29	0	840957952	77	4803
2026-01-06 10:45:34.45	289.34	46.16	-56.1	-58.9	13.2	0.00e+00	0	29	0	843055104	77	5227
2026-01-06 10:45:35.44	289.82	46.00	-56.4	-59.4	12.9	0.00e+00	0	29	0	845152256	78	5224
2026-01-06 10:45:36.42	290.28	45.85	-56.6	-59.7	12.8	0.00e+00	0	29	0	846200832	78	5417
2026-01-06 10:45:37.41	290.75	45.68	-56.3	-59.1	13.1	0.00e+00	0	29	0	848297984	78	5063
2026-01-06 10:45:38.40	291.21	45.52	-56.8	-59.9	12.6	0.00e+00	0	29	0	850395136	78	5582
2026-01-06 10:45:39.39	291.67	45.36	-57.8	-61.9	11.5	9.90e-06	0	29	0	852492288	80	6244
2026-01-06 10:45:40.37	292.12	45.19	-58.6	-64.1	10.0	1.12e-03	0	29	0	853540864	82	7168
2026-01-06 10:45:41.35	292.56	45.03	-57.6	-61.5	11.8	3.23e-04	0	29	0	855638016	81	5619
2026-01-06 10:45:42.35	293.01	44.86	-55.4	-57.8	13.7	0.00e+00	0	29	0	857735168	77	4636
2026-01-06 10:45:43.34	293.44	44.69	-54.9	-57.1	14.1	0.00e+00	0	29	0	859832320	76	4504
2026-01-06 10:45:44.33	293.88	44.52	-54.9	-57.1	14.0	0.00e+00	0	29	0	861929472	76	4507
2026-01-06 10:45:45.32	294.31	44.35	-54.6	-56.7	14.1	0.00e+00	0	29	0	862978048	75	4564
2026-01-06 10:45:46.30	294.73	44.18	-54.4	-56.5	14.2	0.00e+00	0	29	0	865075200	75	4475
2026-01-06 10:45:47.29	295.15	44.01	-53.7	-55.6	14.6	0.00e+00	0	29	0	867172352	74	4255
2026-01-06 10:45:48.28	295.56	43.84	-53.2	-54.9	14.7	0.00e+00	0	29	0	869269504	73	4189
2026-01-06 10:45:49.27	295.97	43.66	-52.9	-54.6	14.7	0.00e+00	0	29	0	870318080	72	4251
2026-01-06 10:45:50.26	296.38	43.49	-53.0	-54.7	14.7	0.00e+00	0	29	0	872415232	72	4325
2026-01-06 10:45:51.25	296.78	43.31	-53.3	-55.0	14.6	0.00e+00	0	29	0	874512384	72	4471
2026-01-06 10:45:52.24	297.18	43.14	-52.3	-53.9	14.9	0.00e+00	0	29	0	876609536	71	4161
2026-01-06 10:45:53.23	297.57	42.96	-51.6	-53.1	15.1	0.00e+00	0	29	0	878706688	69	4244
2026-01-06 10:45:54.22	297.96	42.78	-51.2	-52.6	15.1	0.00e+00	0	29	0	879755264	69	4041
2026-01-06 10:45:55.21	298.35	42.60	-51.9	-53.5	14.9	0.00e+00	0	29	0	881852416	69	4448
2026-01-06 10:45:56.20	298.73	42.42	-52.1	-53.7	14.8	0.00e+00	0	29	0	883949568	69	4553
2026-01-06 10:45:57.18	299.10	42.25	-51.9	-53.4	14.9	0.00e+00	0	29	0	886046720	69	4408
2026-01-06 10:45:58.18	299.48	42.06	-51.7	-53.2	15.0	0.00e+00	0	29	0	887095296	69	4304
2026-01-06 10:45:59.16	299.84	41.89	-51.8	-53.3	14.9	0.00e+00	0	29	0	889192448	69	4378
2026-01-06 10:46:00.15	300.20	41.71	-52.1	-53.6	14.8	0.00e+00	0	29	0	891289600	69	4523
2026-01-06 10:46:01.15	300.57	41.52	-52.7	-54.4	14.6	0.00e+00	0	29	0	893386752	70	4676
2026-01-06 10:46:02.14	300.93	41.34	-52.7	-54.4	14.7	0.00e+00	0	29	0	894435328	71	4399
2026-01-06 10:46:03.13	301.28	41.16	-52.1	-53.7	14.9	0.00e+00	0	29	0	896532480	70	4292
2026-01-06 10:46:04.12	301.63	40.98	-51.9	-53.4	15.0	0.00e+00	0	29	0	898629632	70	4192
2026-01-06 10:46:05.11	301.97	40.80	-51.7	-53.2	15.0	0.00e+00	0	29	0	900726784	69	4294
2026-01-06 10:46:06.11	302.32	40.61	-51.7	-53.2	14.9	0.00e+00	0	29	0	902823936	69	4334
2026-01-06 10:46:07.10	302.65	40.43	-52.2	-53.8	14.7	0.00e+00	0	29	0	903872512	69	4621
2026-01-06 10:46:08.10	302.99	40.25	-53.3	-55.1	14.5	0.00e+00	0	29	0	905969664	71	4771
2026-01-06 10:46:09.09	303.32	40.06	-53.5	-55.3	14.5	0.00e+00	0	29	0	908066816	72	4618
2026-01-06 10:46:10.08	303.64	39.88	-53.0	-54.7	14.7	0.00e+00	0	29	0	910163968	72	4326
2026-01-06 10:46:11.06	303.96	39.70	-52.8	-54.5	14.8	0.00e+00	0	29	0	911212544	72	4210
2026-01-06 10:46:12.05	304.28	39.52	-53.0	-54.7	14.7	0.00e+00	0	29	0	913309696	72	4318
2026-01-06 10:46:13.04	304.60	39.33	-53.1	-54.9	14.6	0.00e+00	0	29	0	915406848	72	4397
2026-01-06 10:46:14.04	304.91	39.15	-54.1	-56.1	14.2	0.00e+00	0	29	0	917504000	73	4775
2026-01-06 10:46:15.02	305.22	38.97	-55.0	-57.3	13.8	0.00e+00	0	29	0	918552576	75	4871
2026-01-06 10:46:16.02	305.53	38.79	-55.7	-58.2	13.5	0.00e+00	0	29	0	920649728	76	5151
2026-01-06 10:46:17.01	305.83	38.60	-56.8	-60.0	12.7	0.00e+00	0	29	0	922746880	78	5620
2026-01-06 10:46:18.00	306.13	38.42	-56.9	-60.2	12.5	0.00e+00	0	29	0	924844032	78	5763
2026-01-06 10:46:18.99	306.42	38.24	-56.3	-59.2	13.1	0.00e+00	0	29	0	926941184	78	5113
2026-01-06 10:46:19.98	306.71	38.06	-55.6	-58.2	13.6	0.00e+00	0	29	0	927989760	77	4827
2026-01-06 10:46:20.96	307.00	37.88	-55.1	-57.4	13.9	0.00e+00	0	29	0	930086912	76	4684
2026-01-06 10:46:21.96	307.29	37.69	-55.3	-57.6	13.8	0.00e+00	0	29	0	932184064	76	4794
2026-01-06 10:46:22.96	307.57	37.51	-55.3	-57.7	13.7	0.00e+00	0	29	0	934281216	76	4863
2026-01-06 10:46:23.96	307.86	37.33	-55.8	-58.4	13.4	0.00e+00	0	29	0	935329792	76	5262
2026-01-06 10:46:24.95	308.13	37.15	-55.9	-58.6	13.4	0.00e+00	0	29	0	937426944	77	5055
2026-01-06 10:46:25.94	308.41	36.97	-55.3	-57.7	13.8	0.00e+00	0	29	0	939524096	77	4592
2026-01-06 10:46:26.93	308.68	36.79	-54.5	-56.6	14.2	0.00e+00	0	29	0	941621248	75	4526
2026-01-06 10:46:27.92	308.94	36.61	-54.0	-55.9	14.4	0.00e+00	0	29	0	943718400	74	4401
2026-01-06 10:46:28.91	309.21	36.43	-54.0	-55.9	14.4	0.00e+00	0	29	0	944766976	74	4426
2026-01-06 10:46:29.91	309.47	36.24	-55.0	-57.3	13.9	0.00e+00	0	29	0	946864128	75	4878
2026-01-06 10:46:30.90	309.73	36.07	-56.6	-59.7	12.8	0.00e+00	0	29	0	948961280	78	5411
2026-01-06 10:46:31.89	309.99	35.89	-57.7	-61.8	11.5	9.10e-06	0	29	0	951058432	80	6188
2026-01-06 10:46:32.89	310.24	35.71	-58.4	-63.5	10.3	3.97e-04	0	29	0	952107008	81	7042
2026-01-06 10:46:33.89	310.50	35.53	-58.0	-62.7	11.0	9.99e-04	0	29	0	954204160	82	6065
2026-01-06 10:46:34.88	310.74	35.35	-56.5	-59.5	13.0	0.00e+00	0	29	0	956301312	79	5032
2026-01-06 10:46:35.87	310.99	35.17	-55.3	-57.7	13.8	0.00e+00	0	29	0	958398464	77	4577
2026-01-06 10:46:36.86	311.23	35.00	-54.0	-56.0	14.4	0.00e+00	0	29	0	960495616	74	4465
2026-01-06 10:46:37.85	311.47	34.82	-53.3	-55.0	14.6	0.00e+00	0	29	0	961544192	73	4236
2026-01-06 10:46:38.85	311.71	34.64	-53.5	-55.3	14.6	0.00e+00	0	29	0	963641344	73	4352
2026-01-06 10:46:39.84	311.95	34.47	-54.4	-56.5	14.0	0.00e+00	0	29	0	965738496	73	4998
2026-01-06 10:46:40.84	312.18	34.29	-55.4	-57.9	13.5	0.00e+00	0	29	0	967835648	75	5244
2026-01-06 10:46:41.83	312.41	34.12	-56.3	-59.2	13.0	0.00e+00	0	29	0	968884224	77	5427
2026-01-06 10:46:42.82	312.64	33.94	-56.0	-58.8	13.2	0.00e+00	0	29	0	970981376	78	4907
2026-01-06 10:46:43.82	312.87	33.77	-55.5	-58.1	13.5	0.00e+00	0	29	0	973078528	77	4779
2026-01-06 10:46:44.81	313.09	33.60	-55.0	-57.3	13.9	0.00e+00	0	29	0	975175680	76	4621
2026-01-06 10:46:45.80	313.31	33.42	-54.9	-57.1	14.0	0.00e+00	0	29	0	976224256	76	4529
2026-01-06 10:46:46.79	313.53	33.25	-55.6	-58.1	13.5	0.00e+00	0	29	0	978321408	76	5062
2026-01-06 10:46:47.79	313.75	33.08	-55.6	-58.1	13.5	0.00e+00	0	29	0	980418560	76	5096
2026-01-06 10:46:48.79	313.96	32.91	-55.6	-58.2	13.5	0.00e+00	0	29	0	982515712	76	5108
2026-01-06 10:46:49.78	314.18	32.74	-56.1	-58.9	13.2	0.00e+00	0	29	0	984612864	77	5242
2026-01-06 10:46:50.77	314.39	32.57	-56.3	-59.2	13.1	0.00e+00	0	29	0	985661440	78	5133
2026-01-06 10:46:51.75	314.59	32.40	-55.8	-58.5	13.5	0.00e+00	0	29	0	987758592	78	4707
2026-01-06 10:46:52.76	314.80	32.23	-55.4	-57.8	13.7	0.00e+00	0	29	0	989855744	77	4619
2026-01-06 10:46:53.75	315.00	32.06	-54.8	-57.0	14.1	0.00e+00	0	29	0	991952896	76	4455
2026-01-06 10:46:54.75	315.21	31.89	-54.2	-56.2	14.3	0.00e+00	0	29	0	994050048	75	4314
2026-01-06 10:46:55.74	315.41	31.72	-53.8	-55.6	14.5	0.00e+00	0	29	0	995098624	74	4273
2026-01-06 10:46:56.73	315.60	31.56	-54.0	-56.0	14.4	0.00e+00	0	29	0	997195776	74	4464
2026-01-06 10:46:57.72	315.80	31.39	-53.8	-55.7	14.5	0.00e+00	0	29	0	999292928	74	4335
2026-01-06 10:46:58.72	315.99	31.23	-54.2	-56.2	14.3	0.00e+00	0	29	0	1001390080	74	4579
2026-01-06 10:46:59.72	316.19	31.06	-54.4	-56.5	14.1	0.00e+00	0	29	0	1002438656	74	4728
2026-01-06 10:47:00.71	316.38	30.90	-54.8	-57.1	13.9	0.00e+00	0	29	0	1004535808	74	5071
2026-01-06 10:47:01.70	316.56	30.73	-55.1	-57.5	13.7	0.00e+00	0	29	0	1006632960	75	5009
2026-01-06 10:47:02.70	316.75	30.57	-55.6	-58.2	13.5	0.00e+00	0	29	0	1008730112	76	5117
2026-01-06 10:47:03.69	316.94	30.41	-55.4	-58.0	13.5	0.00e+00	0	29	0	1010827264	76	4989
2026-01-06 10:47:04.69	317.12	30.24	-55.1	-57.5	13.8	0.00e+00	0	29	0	1011875840	76	4740
2026-01-06 10:47:05.68	317.30	30.08	-54.3	-56.4	14.2	0.00e+00	0	29	0	1013972992	75	4425
2026-01-06 10:47:06.67	317.48	29.92	-54.0	-56.0	14.3	0.00e+00	0	29	0	1016070144	74	4449
2026-01-06 10:47:07.68	317.66	29.76	-53.8	-55.7	14.5	0.00e+00	0	29	0	1018167296	74	4301
2026-01-06 10:47:08.67	317.84	29.60	-54.0	-56.0	14.3	0.00e+00	0	29	0	1019215872	74	4468
2026-01-06 10:47:09.66	318.01	29.44	-54.1	-56.1	14.3	0.00e+00	0	29	0	1021313024	74	4518
2026-01-06 10:47:10.66	318.18	29.28	-54.2	-56.3	14.2	0.00e+00	0	29	0	1023410176	74	4617
2026-01-06 10:47:11.65	318.35	29.13	-54.3	-56.3	14.1	0.00e+00	0	29	0	1025507328	74	4631
2026-01-06 10:47:12.65	318.52	28.97	-54.1	-56.1	14.3	0.00e+00	0	29	0	1027604480	74	4509
2026-01-06 10:47:13.63	318.69	28.82	-54.3	-56.4	14.2	0.00e+00	0	29	0	1028653056	74	4661
2026-01-06 10:47:14.62	318.85	28.66	-54.0	-56.0	14.3	0.00e+00	0	29	0	1030750208	74	4458
2026-01-06 10:47:15.62	319.02	28.50	-54.0	-56.0	14.3	0.00e+00	0	29	0	1032847360	74	4478
2026-01-06 10:47:16.61	319.18	28.35	-54.2	-56.3	14.2	0.00e+00	0	29	0	1034944512	74	4607
2026-01-06 10:47:17.61	319.35	28.20	-54.1	-56.0	14.3	0.00e+00	0	29	0	1035993088	74	4488
2026-01-06 10:47:18.61	319.51	28.04	-54.2	-56.2	14.3	0.00e+00	0	29	0	1038090240	74	4567
2026-01-06 10:47:19.60	319.66	27.89	-54.0	-56.0	14.4	0.00e+00	0	29	0	1040187392	74	4448
2026-01-06 10:47:20.59	319.82	27.74	-53.6	-55.5	14.5	0.00e+00	0	29	0	1042284544	73	4443
2026-01-06 10:47:21.59	319.98	27.59	-53.3	-55.1	14.6	0.00e+00	0	29	0	1044381696	73	4276
2026-01-06 10:47:22.59	320.13	27.43	-53.3	-55.1	14.6	0.00e+00	0	29	0	1045430272	72	4500
2026-01-06 10:47:23.58	320.28	27.28	-52.6	-54.2	14.7	0.00e+00	0	29	0	1047527424	71	4336
2026-01-06 10:47:24.57	320.44	27.13	-52.3	-53.9	14.9	0.00e+00	0	29	0	1049624576	71	4186
2026-01-06 10:47:25.56	320.59	26.99	-52.3	-53.9	14.9	0.00e+00	0	29	0	1051721728	71	4182
2026-01-06 10:47:26.54	320.73	26.84	-52.2	-53.7	14.8	0.00e+00	0	29	0	1052770304	70	4326
2026-01-06 10:47:27.54	320.88	26.69	-52.2	-53.7	14.8	0.00e+00	0	29	0	1054867456	70	4330
2026-01-06 10:47:28.53	321.03	26.54	-52.6	-54.3	14.6	0.00e+00	0	29	0	1056964608	70	4613
2026-01-06 10:47:29.52	321.17	26.40	-52.8	-54.5	14.5	0.00e+00	0	29	0	1059061760	70	4735
2026-01-06 10:47:30.50	321.31	26.25	-53.3	-55.2	14.4	0.00e+00	0	29	0	1060110336	71	4821
2026-01-06 10:47:31.50	321.45	26.11	-53.7	-55.6	14.3	0.00e+00	0	29	0	1062207488	72	4781
2026-01-06 10:47:32.49	321.60	25.96	-53.8	-55.8	14.2	0.00e+00	0	29	0	1064304640	72	4893
2026-01-06 10:47:33.48	321.73	25.82	-54.2	-56.4	14.1	0.00e+00	0	29	0	1066401792	73	4932
2026-01-06 10:47:34.48	321.87	25.68	-54.0	-56.0	14.2	0.00e+00	0	29	0	1068498944	73	4743
2026-01-06 10:47:35.47	322.01	25.53	-53.9	-55.9	14.3	0.00e+00	0	29	0	1069547520	73	4690
2026-01-06 10:47:36.47	322.15	25.39	-54.0	-56.0	14.2	0.00e+00	0	29	0	1071644672	73	4730
2026-01-06 10:47:37.47	322.28	25.25	-53.4	-55.2	14.5	0.00e+00	0	29	0	1073741824	73	4313
2026-01-06 10:47:38.46	322.42	25.11	-53.2	-55.0	14.5	0.00e+00	0	29	0	1075838976	72	4450
2026-01-06 10:47:39.46	322.55	24.97	-53.1	-54.9	14.6	0.00e+00	0	29	0	1076887552	72	4392
2026-01-06 10:47:40.44	322.68	24.83	-53.1	-54.8	14.6	0.00e+00	0	29	0	1078984704	72	4391
2026-01-06 10:47:41.44	322.81	24.69	-53.2	-54.9	14.5	0.00e+00	0	29	0	1081081856	72	4432
2026-01-06 10:47:42.43	322.94	24.55	-53.0	-54.7	14.6	0.00e+00	0	29	0	1083179008	72	4339
2026-01-06 10:47:43.44	323.07	24.41	-53.2	-55.0	14.5	0.00e+00	0	29	0	1085276160	72	4466
2026-01-06 10:47:44.43	323.20	24.27	-53.2	-55.0	14.5	0.00e+00	0	29	0	1086324736	72	4468
2026-01-06 10:47:45.42	323.32	24.14	-53.4	-55.2	14.4	0.00e+00	0	29	0	1088421888	72	4592
2026-01-06 10:47:46.41	323.45	24.00	-53.3	-55.1	14.5	0.00e+00	0	29	0	1090519040	72	4540
2026-01-06 10:47:47.40	323.57	23.87	-53.4	-55.2	14.4	0.00e+00	0	29	0	1092616192	72	4595
2026-01-06 10:47:48.39	323.69	23.73	-53.3	-55.1	14.4	0.00e+00	0	29	0	1093664768	72	4521
2026-01-06 10:47:49.39	323.82	23.60	-53.0	-54.7	14.6	0.00e+00	0	29	0	1095761920	72	4325
2026-01-06 10:47:50.38	323.94	23.46	-53.0	-54.8	14.6	0.00e+00	0	29	0	1097859072	72	4369
2026-01-06 10:47:51.37	324.06	23.33	-53.1	-54.9	14.5	0.00e+00	0	29	0	1099956224	72	4408
2026-01-06 10:47:52.36	324.17	23.20	-53.0	-54.8	14.6	0.00e+00	0	29	0	1102053376	72	4341
2026-01-06 10:47:53.35	324.29	23.07	-53.2	-55.0	14.5	0.00e+00	0	29	0	1103101952	72	4473
2026-01-06 10:47:54.34	324.41	22.93	-53.2	-54.9	14.5	0.00e+00	0	29	0	1105199104	72	4436
2026-01-06 10:47:55.34	324.53	22.80	-53.1	-54.9	14.6	0.00e+00	0	29	0	1107296256	72	4410
2026-01-06 10:47:56.33	324.64	22.67	-53.4	-55.2	14.4	0.00e+00	0	29	0	1109393408	72	4586
2026-01-06 10:47:57.32	324.75	22.54	-53.1	-55.0	14.5	0.00e+00	0	29	0	1110441984	72	4444
2026-01-06 10:47:58.31	324.87	22.41	-53.3	-55.1	14.5	0.00e+00	0	29	0	1112539136	72	4507
2026-01-06 10:47:59.30	324.98	22.28	-53.2	-55.1	14.5	0.00e+00	0	29	0	1114636288	72	4503
2026-01-06 10:48:00.28	325.09	22.16	-52.8	-54.6	14.7	0.00e+00	0	29	0	1116733440	72	4258
2026-01-06 10:48:01.29	325.20	22.03	-53.1	-55.0	14.5	0.00e+00	0	29	0	1118830592	72	4453
2026-01-06 10:48:02.28	325.31	21.90	-53.2	-55.0	14.5	0.00e+00	0	29	0	1119879168	72	4488
2026-01-06 10:48:03.28	325.42	21.77	-53.1	-55.0	14.5	0.00e+00	0	29	0	1121976320	72	4452
2026-01-06 10:48:04.27	325.53	21.65	-53.4	-55.4	14.4	0.00e+00	0	29	0	1124073472	72	4658
2026-01-06 10:48:05.26	325.64	21.52	-53.4	-55.3	14.4	0.00e+00	0	29	0	1126170624	72	4602
2026-01-06 10:48:06.25	325.74	21.40	-53.3	-55.2	14.4	0.00e+00	0	29	0	1127219200	72	4586
2026-01-06 10:48:07.25	325.85	21.27	-53.5	-55.4	14.3	0.00e+00	0	29	0	1129316352	72	4686
2026-01-06 10:48:08.24	325.95	21.15	-53.7	-55.7	14.2	0.00e+00	0	29	0	1131413504	72	4847
2026-01-06 10:48:09.23	326.06	21.02	-53.9	-55.9	14.1	0.00e+00	0	29	0	1133510656	72	4977
2026-01-06 10:48:10.22	326.16	20.90	-53.5	-55.5	14.3	0.00e+00	0	29	0	1134559232	72	4741
2026-01-06 10:48:11.22	326.26	20.78	-53.7	-55.7	14.2	0.00e+00	0	29	0	1136656384	72	4857
2026-01-06 10:48:12.21	326.36	20.66	-53.9	-56.0	14.2	0.00e+00	0	29	0	1138753536	73	4734
2026-01-06 10:48:13.19	326.46	20.54	-54.0	-56.1	14.1	0.00e+00	0	29	0	1140850688	73	4797
2026-01-06 10:48:14.19	326.56	20.42	-54.0	-56.0	14.1	0.00e+00	0	29	0	1142947840	73	4758
2026-01-06 10:48:15.18	326.66	20.30	-54.1	-56.2	14.1	0.00e+00	0	29	0	1143996416	73	4835
2026-01-06 10:48:16.18	326.76	20.17	-54.0	-56.0	14.1	0.00e+00	0	29	0	1146093568	73	4751
2026-01-06 10:48:17.18	326.86	20.05	-54.2	-56.4	14.0	0.00e+00	0	29	0	1148190720	73	4949
2026-01-06 10:48:18.18	326.96	19.93	-54.5	-56.7	13.8	0.00e+00	0	29	0	1150287872	74	4848
2026-01-06 10:48:19.17	327.05	19.82	-54.2	-56.3	14.1	0.00e+00	0	29	0	1151336448	74	4650
2026-01-06 10:48:20.16	327.15	19.70	-54.6	-56.9	13.8	0.00e+00	0	29	0	1153433600	74	4958
2026-01-06 10:48:21.16	327.25	19.58	-54.8	-57.2	13.6	0.00e+00	0	29	0	1155530752	74	5118
2026-01-06 10:48:22.16	327.34	19.46	-54.7	-57.0	13.7	0.00e+00	0	29	0	1157627904	74	5038
2026-01-06 10:48:23.15	327.43	19.35	-54.3	-56.6	13.9	0.00e+00	0	29	0	1159725056	74	4765
2026-01-06 10:48:24.14	327.53	19.23	-54.3	-56.5	14.0	0.00e+00	0	29	0	1160773632	74	4706
2026-01-06 10:48:25.13	327.62	19.11	-54.3	-56.5	14.0	0.00e+00	0	29	0	1162870784	74	4727
2026-01-06 10:48:26.13	327.71	19.00	-54.0	-56.1	14.1	0.00e+00	0	29	0	1164967936	74	4512
2026-01-06 10:48:27.11	327.80	18.89	-53.9	-56.0	14.0	0.00e+00	0	29	0	1167065088	74	4450
2026-01-06 10:48:28.10	327.89	18.77	-53.7	-55.7	14.2	0.00e+00	0	29	0	1168113664	74	4333
2026-01-06 10:48:29.09	327.98	18.66	-53.7	-55.7	14.2	0.00e+00	0	29	0	1170210816	73	4590
2026-01-06 10:48:30.09	328.07	18.54	-53.2	-55.1	14.5	0.00e+00	0	29	0	1172307968	73	4247
2026-01-06 10:48:31.08	328.16	18.43	-52.9	-54.7	14.6	0.00e+00	0	29	0	1174405120	72	4304
2026-01-06 10:48:32.07	328.25	18.32	-52.9	-54.7	14.6	0.00e+00	0	29	0	1176502272	72	4330
2026-01-06 10:48:33.07	328.33	18.21	-52.8	-54.5	14.6	0.00e+00	0	29	0	1177550848	72	4241
2026-01-06 10:48:34.06	328.42	18.10	-52.7	-54.4	14.6	0.00e+00	0	29	0	1179648000	71	4419
2026-01-06 10:48:35.06	328.51	17.98	-52.8	-54.5	14.6	0.00e+00	0	29	0	1181745152	71	4480
2026-01-06 10:48:36.05	328.59	17.87	-52.7	-54.4	14.6	0.00e+00	0	29	0	1183842304	71	4409
2026-01-06 10:48:37.05	328.68	17.76	-52.8	-54.6	14.5	0.00e+00	0	29	0	1184890880	71	4531
2026-01-06 10:48:38.04	328.76	17.65	-52.9	-54.7	14.5	0.00e+00	0	29	0	1186988032	71	4553
2026-01-06 10:48:39.03	328.84	17.54	-52.8	-54.6	14.5	0.00e+00	0	29	0	1189085184	71	4496
2026-01-06 10:48:40.02	328.93	17.44	-53.0	-54.7	14.5	0.00e+00	0	29	0	1191182336	71	4595
2026-01-06 10:48:41.01	329.01	17.33	-52.8	-54.5	14.6	0.00e+00	0	29	0	1193279488	71	4473
2026-01-06 10:48:42.01	329.09	17.22	-52.8	-54.6	14.6	0.00e+00	0	29	0	1194328064	71	4512
2026-01-06 10:48:43.00	329.17	17.11	-52.9	-54.7	14.5	0.00e+00	0	29	0	1196425216	71	4586
2026-01-06 10:48:43.99	329.25	17.00	-52.9	-54.7	14.5	0.00e+00	0	29	0	1198522368	71	4548
2026-01-06 10:48:44.99	329.34	16.90	-53.1	-55.0	14.4	0.00e+00	0	29	0	1200619520	71	4709
2026-01-06 10:48:45.98	329.41	16.79	-53.1	-54.9	14.4	0.00e+00	0	29	0	1201668096	71	4684
2026-01-06 10:48:46.98	329.49	16.68	-53.2	-55.1	14.4	0.00e+00	0	29	0	1203765248	71	4767
2026-01-06 10:48:47.97	329.57	16.58	-53.4	-55.4	14.3	0.00e+00	0	29	0	1205862400	72	4671
2026-01-06 10:48:48.97	329.65	16.47	-53.4	-55.3	14.3	0.00e+00	0	29	0	1207959552	72	4644
2026-01-06 10:48:49.96	329.73	16.37	-53.6	-55.5	14.2	0.00e+00	0	29	0	1210056704	72	4758
2026-01-06 10:48:50.95	329.81	16.27	-53.7	-55.8	14.1	0.00e+00	0	29	0	1211105280	72	4901
2026-01-06 10:48:51.94	329.88	16.16	-53.7	-55.7	14.2	0.00e+00	0	29	0	1213202432	72	4851
2026-01-06 10:48:52.93	329.96	16.06	-53.7	-55.7	14.1	0.00e+00	0	29	0	1215299584	72	4865
2026-01-06 10:48:53.93	330.04	15.95	-53.8	-55.8	14.2	0.00e+00	0	29	0	1217396736	73	4639
