passes_logs/2026/01/06/R3.2S_Murmansk/R3.2S_Murmansk__20260106_111019_AQUA_rec.log

#Pass ID: 20260106_111019_AQUA
#Satellite: AQUA
#Configuration: AQUA
#almurnet v.1.7.20251203
#Start time: 2026-01-06 11:10:18

#Version: 2.2.20231116
#Station: R3.2S_Murmansk
#Location: 33.079688 lon 68.888172 lat
#TLE: 1 27424U 02022A   26004.96787593  .00001598  00000+0  32997-3 0  9996
#TLE: 2 27424  98.4069 331.2279 0002002  90.2377   0.6092 14.61798176259425

#Time	Az	El	Level	Level2	SNR	BER	BlckErr	Temp	State	Recorded	gain1	gain2
2026-01-06 11:10:18.87	150.01	1.98	-57.9	-77.3	3.8	7.48e-01	0	26	0	0	84	33889
2026-01-06 11:10:19.87	150.01	2.05	-57.8	-77.1	3.8	7.47e-01	0	26	104	0	83	35137
2026-01-06 11:10:20.87	150.01	2.12	-57.8	-77.1	3.8	7.45e-01	0	26	104	0	83	35232
2026-01-06 11:10:21.86	150.01	2.18	-57.8	-77.1	3.8	7.47e-01	0	26	104	0	83	35165
2026-01-06 11:10:22.84	150.00	2.25	-57.8	-77.1	3.8	7.45e-01	0	26	104	0	83	35204
2026-01-06 11:10:23.84	150.00	2.32	-57.8	-77.1	3.8	7.41e-01	0	26	104	0	83	35183
2026-01-06 11:10:24.83	150.00	2.38	-57.8	-77.1	3.8	7.49e-01	0	26	104	0	83	35127
2026-01-06 11:10:25.83	150.00	2.45	-57.8	-77.1	3.8	7.47e-01	0	26	104	0	83	35057
2026-01-06 11:10:26.83	150.00	2.52	-57.8	-77.1	3.8	7.43e-01	0	26	104	0	83	34962
2026-01-06 11:10:27.81	150.00	2.59	-57.8	-77.0	3.8	7.50e-01	0	26	104	0	83	34696
2026-01-06 11:10:28.81	150.00	2.65	-57.8	-76.9	3.9	7.45e-01	0	26	104	0	83	34450
2026-01-06 11:10:29.79	150.00	2.72	-57.8	-76.8	3.8	7.46e-01	0	26	104	0	83	33900
2026-01-06 11:10:30.79	150.00	2.79	-57.8	-76.8	3.8	7.45e-01	0	26	104	0	83	33716
2026-01-06 11:10:31.79	149.99	2.86	-57.8	-76.6	3.8	7.45e-01	0	26	104	0	83	33219
2026-01-06 11:10:32.78	149.99	2.93	-57.8	-76.5	3.8	7.45e-01	0	26	104	0	83	32577
2026-01-06 11:10:33.77	149.99	2.99	-57.8	-76.4	3.8	7.47e-01	0	26	104	0	83	32277
2026-01-06 11:10:34.77	149.99	3.06	-57.8	-76.1	3.8	7.46e-01	0	26	104	0	83	31260
2026-01-06 11:10:35.76	149.99	3.13	-57.8	-75.8	3.8	7.42e-01	0	26	104	0	83	30082
2026-01-06 11:10:36.75	149.99	3.20	-57.8	-75.1	3.9	7.45e-01	0	26	104	0	83	27851
2026-01-06 11:10:37.74	149.99	3.27	-57.8	-74.9	3.9	7.44e-01	0	26	104	0	83	27127
2026-01-06 11:10:38.74	149.99	3.34	-57.7	-74.1	4.1	7.39e-01	0	26	104	0	83	24860
2026-01-06 11:10:39.74	149.98	3.41	-57.7	-72.9	4.3	7.28e-01	0	26	104	0	83	21639
2026-01-06 11:10:40.73	149.98	3.48	-57.7	-72.8	4.4	7.28e-01	0	26	104	0	83	21474
2026-01-06 11:10:41.72	149.98	3.55	-57.6	-71.6	4.9	7.11e-01	0	26	0	0	83	18563
2026-01-06 11:10:42.71	149.98	3.62	-57.6	-70.5	5.5	6.96e-01	90	26	0	0	83	16359
2026-01-06 11:10:43.71	149.98	3.69	-57.6	-70.4	5.6	6.93e-01	92	27	0	1572864	83	16259
2026-01-06 11:10:44.70	149.98	3.76	-57.5	-68.7	6.8	6.63e-01	92	27	0	3145728	83	13286
2026-01-06 11:10:45.70	149.97	3.83	-57.4	-67.9	7.4	6.51e-01	89	27	0	4718592	83	12140
2026-01-06 11:10:46.69	149.97	3.91	-57.2	-66.3	8.8	6.28e-01	0	27	0	6815744	83	10064
2026-01-06 11:10:47.68	149.97	3.98	-57.0	-64.9	9.9	6.20e-01	0	27	0	8388608	83	8654
2026-01-06 11:10:48.67	149.97	4.05	-56.5	-62.9	11.5	6.12e-01	0	27	0	10485760	82	7220
2026-01-06 11:10:49.66	149.97	4.12	-56.0	-61.6	12.3	6.08e-01	0	27	0	12058624	81	6599
2026-01-06 11:10:50.66	149.97	4.19	-55.5	-60.1	13.2	6.08e-01	0	27	0	14155776	80	5877
2026-01-06 11:10:51.65	149.96	4.26	-54.8	-58.7	13.8	6.07e-01	0	27	0	16252928	78	5625
2026-01-06 11:10:52.63	149.96	4.34	-54.2	-57.6	14.1	6.05e-01	0	27	0	17825792	77	5254
2026-01-06 11:10:53.64	149.96	4.41	-53.8	-57.0	14.4	6.06e-01	0	27	0	19922944	76	5188
2026-01-06 11:10:54.63	149.96	4.48	-53.5	-56.5	14.6	6.05e-01	0	27	0	21495808	76	4878
2026-01-06 11:10:55.63	149.96	4.56	-53.2	-56.0	14.6	6.06e-01	0	27	0	23592960	75	4925
2026-01-06 11:10:56.62	149.96	4.63	-53.1	-55.9	14.7	6.08e-01	0	27	0	25165824	75	4847
2026-01-06 11:10:57.61	149.95	4.70	-53.1	-55.9	14.7	6.05e-01	0	27	0	27262976	75	4848
2026-01-06 11:10:58.61	149.95	4.78	-52.9	-55.6	14.8	6.07e-01	0	27	0	28835840	75	4676
2026-01-06 11:10:59.60	149.95	4.85	-53.0	-55.7	14.8	6.06e-01	0	27	0	30932992	75	4737
2026-01-06 11:11:00.59	149.95	4.93	-53.2	-56.0	14.5	6.06e-01	0	27	0	33030144	74	5215
2026-01-06 11:11:01.59	149.95	5.00	-53.6	-56.7	14.3	6.08e-01	0	27	0	34603008	74	5628
2026-01-06 11:11:02.59	149.94	5.08	-54.4	-58.0	14.0	6.06e-01	0	27	0	36700160	76	5800
2026-01-06 11:11:03.58	149.94	5.15	-56.5	-62.7	11.9	6.10e-01	0	27	0	38273024	80	7968
2026-01-06 11:11:04.57	149.94	5.23	-53.6	-56.5	14.5	6.05e-01	0	27	0	40370176	76	4914
2026-01-06 11:11:05.55	149.94	5.30	-52.2	-54.6	15.0	6.07e-01	0	27	0	41943040	73	4684
2026-01-06 11:11:06.55	149.93	5.38	-53.1	-55.9	14.8	6.07e-01	0	27	0	44040192	73	5433
2026-01-06 11:11:07.54	149.93	5.45	-54.4	-57.8	13.8	6.06e-01	0	27	0	45613056	78	5099
2026-01-06 11:11:08.53	149.93	5.53	-52.1	-54.4	15.0	6.08e-01	0	27	0	47710208	73	4566
2026-01-06 11:11:09.52	149.93	5.60	-52.1	-54.5	14.9	6.05e-01	0	27	0	49807360	72	4879
2026-01-06 11:11:10.52	149.93	5.68	-51.7	-53.9	15.1	6.06e-01	0	27	0	51380224	72	4562
2026-01-06 11:11:11.51	149.92	5.76	-52.1	-54.4	15.0	6.07e-01	0	27	0	53477376	72	4831
2026-01-06 11:11:12.50	149.92	5.83	-51.8	-54.0	15.1	6.06e-01	0	27	0	55050240	72	4604
2026-01-06 11:11:13.49	149.92	5.91	-51.8	-54.0	15.1	6.04e-01	0	27	0	57147392	72	4634
2026-01-06 11:11:14.49	149.92	5.99	-51.9	-54.1	15.0	6.06e-01	0	27	0	58720256	72	4697
2026-01-06 11:11:15.49	149.91	6.07	-51.7	-53.8	15.2	6.06e-01	0	27	0	60817408	72	4526
2026-01-06 11:11:16.49	149.91	6.15	-51.8	-53.9	15.1	6.06e-01	0	27	0	62390272	72	4595
2026-01-06 11:11:17.47	149.91	6.23	-51.8	-54.0	15.1	6.06e-01	0	27	0	64487424	72	4647
2026-01-06 11:11:18.47	149.91	6.30	-51.7	-53.8	15.1	6.06e-01	0	27	0	66060288	72	4539
2026-01-06 11:11:19.46	149.90	6.38	-51.7	-53.9	15.1	6.07e-01	0	27	0	68157440	72	4555
2026-01-06 11:11:20.46	149.90	6.46	-51.8	-54.0	15.1	6.06e-01	0	27	0	70254592	72	4602
2026-01-06 11:11:21.45	149.90	6.54	-51.7	-53.9	15.1	6.07e-01	0	27	0	71827456	72	4557
2026-01-06 11:11:22.45	149.90	6.62	-52.0	-54.2	15.0	6.06e-01	0	27	0	73924608	72	4730
2026-01-06 11:11:23.44	149.89	6.70	-51.7	-53.8	15.2	6.04e-01	0	27	0	75497472	72	4531
2026-01-06 11:11:24.43	149.89	6.78	-51.9	-54.1	15.1	6.05e-01	0	27	0	77594624	72	4659
2026-01-06 11:11:25.42	149.89	6.86	-51.8	-53.9	15.1	6.06e-01	0	27	0	79167488	72	4585
2026-01-06 11:11:26.42	149.88	6.94	-51.8	-53.9	15.1	6.06e-01	0	27	0	81264640	72	4592
2026-01-06 11:11:27.41	149.88	7.03	-51.6	-53.7	15.2	6.07e-01	0	27	0	82837504	72	4486
2026-01-06 11:11:28.40	149.88	7.11	-51.4	-53.5	15.3	6.06e-01	0	27	0	84934656	72	4349
2026-01-06 11:11:29.39	149.88	7.19	-51.5	-53.6	15.3	6.07e-01	0	27	0	87031808	72	4396
2026-01-06 11:11:30.38	149.87	7.27	-51.4	-53.4	15.3	6.06e-01	0	27	0	88604672	72	4339
2026-01-06 11:11:31.37	149.87	7.35	-51.6	-53.6	15.2	6.05e-01	0	27	0	90701824	72	4434
2026-01-06 11:11:32.36	149.87	7.44	-51.6	-53.7	15.2	6.09e-01	0	27	0	92274688	72	4475
2026-01-06 11:11:33.35	149.86	7.52	-51.3	-53.3	15.3	6.07e-01	0	28	0	94371840	71	4542
2026-01-06 11:11:34.35	149.86	7.60	-51.3	-53.2	15.3	6.05e-01	0	27	0	95944704	71	4481
2026-01-06 11:11:35.34	149.86	7.69	-51.3	-53.3	15.2	6.08e-01	0	27	0	98041856	71	4542
2026-01-06 11:11:36.33	149.85	7.77	-51.4	-53.4	15.2	6.07e-01	0	28	0	99614720	71	4557
2026-01-06 11:11:37.32	149.85	7.85	-51.5	-53.6	15.2	6.05e-01	0	27	0	101711872	71	4652
2026-01-06 11:11:38.32	149.85	7.94	-51.5	-53.5	15.2	6.08e-01	0	28	0	103284736	71	4630
2026-01-06 11:11:39.31	149.84	8.02	-51.5	-53.5	15.2	6.05e-01	0	28	0	105381888	71	4618
2026-01-06 11:11:40.30	149.84	8.11	-51.1	-53.1	15.3	6.07e-01	0	27	0	107479040	71	4414
2026-01-06 11:11:41.29	149.84	8.19	-51.2	-53.1	15.3	6.06e-01	0	28	0	109051904	71	4429
2026-01-06 11:11:42.29	149.83	8.28	-51.1	-53.1	15.3	6.06e-01	0	28	0	111149056	71	4409
2026-01-06 11:11:43.29	149.83	8.37	-51.0	-52.8	15.4	6.06e-01	0	28	0	112721920	71	4289
2026-01-06 11:11:44.29	149.83	8.45	-51.1	-53.1	15.3	6.07e-01	0	28	0	114819072	71	4400
2026-01-06 11:11:45.27	149.82	8.54	-51.0	-52.9	15.4	6.05e-01	0	28	0	116391936	71	4315
2026-01-06 11:11:46.26	149.82	8.63	-51.0	-52.9	15.4	6.05e-01	0	28	0	118489088	71	4307
2026-01-06 11:11:47.26	149.81	8.71	-51.0	-52.9	15.3	6.08e-01	0	28	0	120061952	71	4336
2026-01-06 11:11:48.25	149.81	8.80	-51.1	-53.0	15.3	6.06e-01	0	28	0	122159104	71	4386
2026-01-06 11:11:49.25	149.81	8.89	-50.9	-52.8	15.3	6.07e-01	0	28	0	124256256	70	4496
2026-01-06 11:11:50.24	149.80	8.98	-50.9	-52.8	15.3	6.06e-01	0	28	0	125829120	70	4544
2026-01-06 11:11:51.23	149.80	9.07	-51.0	-52.8	15.2	6.09e-01	0	28	0	127926272	70	4542
2026-01-06 11:11:52.23	149.79	9.16	-51.1	-53.0	15.2	6.07e-01	0	28	0	129499136	70	4634
2026-01-06 11:11:53.22	149.79	9.25	-51.0	-52.8	15.3	6.07e-01	0	28	0	131596288	70	4540
2026-01-06 11:11:54.21	149.79	9.34	-50.9	-52.8	15.3	6.05e-01	0	28	0	133169152	70	4527
2026-01-06 11:11:55.21	149.78	9.43	-50.8	-52.7	15.3	6.05e-01	0	28	0	135266304	70	4450
2026-01-06 11:11:56.20	149.78	9.52	-50.8	-52.6	15.3	6.05e-01	0	28	0	136839168	70	4423
2026-01-06 11:11:57.19	149.77	9.61	-50.9	-52.7	15.3	6.07e-01	0	28	0	138936320	70	4488
2026-01-06 11:11:58.19	149.77	9.70	-50.8	-52.6	15.3	6.06e-01	0	28	0	141033472	70	4423
2026-01-06 11:11:59.17	149.77	9.79	-50.9	-52.7	15.3	6.06e-01	0	28	0	142606336	70	4482
2026-01-06 11:12:00.17	149.76	9.88	-50.9	-52.8	15.3	6.07e-01	0	28	0	144703488	70	4503
2026-01-06 11:12:01.17	149.76	9.98	-50.8	-52.7	15.3	6.06e-01	0	28	0	146276352	70	4456
2026-01-06 11:12:02.17	149.75	10.07	-50.6	-52.5	15.4	6.06e-01	0	28	0	148373504	70	4342
2026-01-06 11:12:03.16	149.75	10.16	-50.7	-52.6	15.3	6.07e-01	0	28	0	149946368	70	4396
2026-01-06 11:12:04.15	149.74	10.26	-50.7	-52.6	15.3	6.04e-01	0	28	0	152043520	70	4393
2026-01-06 11:12:05.15	149.74	10.35	-50.6	-52.4	15.4	6.08e-01	0	28	0	153616384	70	4300
2026-01-06 11:12:06.14	149.73	10.45	-50.6	-52.4	15.4	6.04e-01	0	28	0	155713536	70	4326
2026-01-06 11:12:07.13	149.73	10.54	-50.6	-52.4	15.4	6.06e-01	0	28	0	157810688	70	4324
2026-01-06 11:12:08.13	149.72	10.64	-50.7	-52.5	15.4	6.07e-01	0	28	0	159383552	70	4367
2026-01-06 11:12:09.12	149.72	10.73	-50.7	-52.5	15.4	6.06e-01	0	28	0	161480704	70	4354
2026-01-06 11:12:10.12	149.71	10.83	-50.7	-52.5	15.4	6.08e-01	0	28	0	163053568	70	4363
2026-01-06 11:12:11.11	149.71	10.93	-50.6	-52.3	15.4	6.07e-01	0	28	0	165150720	70	4285
2026-01-06 11:12:12.11	149.70	11.02	-50.5	-52.3	15.4	6.04e-01	0	28	0	166723584	70	4246
2026-01-06 11:12:13.10	149.70	11.12	-50.5	-52.3	15.4	6.07e-01	0	28	0	168820736	70	4274
2026-01-06 11:12:14.10	149.69	11.22	-50.5	-52.3	15.4	6.06e-01	0	28	0	170393600	70	4243
2026-01-06 11:12:15.09	149.69	11.32	-50.4	-52.2	15.5	6.07e-01	0	28	0	172490752	70	4210
2026-01-06 11:12:16.09	149.68	11.42	-50.5	-52.3	15.4	6.07e-01	0	28	0	174587904	70	4243
2026-01-06 11:12:17.08	149.68	11.52	-50.3	-52.0	15.4	6.05e-01	0	28	0	176160768	69	4372
2026-01-06 11:12:18.07	149.67	11.61	-50.3	-52.0	15.4	6.07e-01	0	28	0	178257920	69	4391
2026-01-06 11:12:19.05	149.67	11.71	-50.3	-52.1	15.4	6.06e-01	0	28	0	179830784	69	4396
2026-01-06 11:12:20.05	149.66	11.81	-50.3	-52.1	15.4	6.05e-01	0	28	0	181927936	69	4406
2026-01-06 11:12:21.04	149.66	11.92	-50.3	-52.0	15.4	6.05e-01	0	28	0	183500800	69	4373
2026-01-06 11:12:22.03	149.65	12.02	-50.3	-52.0	15.4	6.05e-01	0	28	0	185597952	69	4384
2026-01-06 11:12:23.03	149.64	12.12	-50.2	-51.9	15.4	6.08e-01	0	28	0	187170816	69	4331
2026-01-06 11:12:24.02	149.64	12.22	-50.3	-52.1	15.4	6.06e-01	0	28	0	189267968	69	4401
2026-01-06 11:12:25.01	149.63	12.32	-50.2	-51.9	15.4	6.07e-01	0	28	0	190840832	69	4323
2026-01-06 11:12:26.01	149.63	12.43	-50.1	-51.8	15.4	6.07e-01	0	28	0	192937984	69	4275
2026-01-06 11:12:27.00	149.62	12.53	-50.1	-51.8	15.4	6.06e-01	0	28	0	195035136	69	4267
2026-01-06 11:12:27.99	149.61	12.64	-50.2	-51.8	15.4	6.05e-01	0	28	0	196608000	69	4291
2026-01-06 11:12:28.98	149.61	12.74	-50.1	-51.7	15.5	6.07e-01	0	28	0	198705152	69	4234
2026-01-06 11:12:29.97	149.60	12.85	-50.1	-51.8	15.4	6.09e-01	0	28	0	200278016	69	4253
2026-01-06 11:12:30.96	149.60	12.95	-50.0	-51.7	15.5	6.06e-01	0	28	0	202375168	69	4219
2026-01-06 11:12:31.96	149.59	13.06	-50.0	-51.7	15.5	6.07e-01	0	28	0	203948032	69	4217
2026-01-06 11:12:32.96	149.58	13.17	-50.0	-51.7	15.5	6.06e-01	0	28	0	206045184	69	4233
2026-01-06 11:12:33.95	149.58	13.27	-50.1	-51.8	15.5	6.09e-01	0	28	0	207618048	69	4249
2026-01-06 11:12:34.94	149.57	13.38	-50.1	-51.8	15.4	6.07e-01	0	28	0	209715200	69	4289
2026-01-06 11:12:35.93	149.56	13.49	-50.0	-51.7	15.5	6.07e-01	0	28	0	211812352	69	4230
2026-01-06 11:12:36.93	149.56	13.60	-50.0	-51.7	15.5	6.07e-01	0	28	0	213385216	69	4217
2026-01-06 11:12:37.92	149.55	13.71	-50.1	-51.8	15.5	6.07e-01	0	28	0	215482368	69	4276
2026-01-06 11:12:38.91	149.54	13.82	-50.1	-51.8	15.5	6.06e-01	0	28	0	217055232	69	4250
2026-01-06 11:12:39.91	149.53	13.93	-50.2	-51.9	15.4	6.07e-01	0	28	0	219152384	69	4327
2026-01-06 11:12:40.90	149.53	14.04	-50.2	-51.9	15.4	6.08e-01	0	28	0	220725248	69	4306
2026-01-06 11:12:41.83	149.52	14.15	-50.3	-52.0	15.4	6.08e-01	0	28	0	222822400	69	4358
2026-01-06 11:12:42.82	149.51	14.26	-50.0	-51.7	15.5	6.07e-01	0	28	0	224395264	69	4229
2026-01-06 11:12:43.82	149.51	14.37	-50.1	-51.8	15.5	6.04e-01	0	28	0	226492416	69	4258
2026-01-06 11:12:44.81	149.50	14.48	-50.1	-51.8	15.5	6.08e-01	0	28	0	228065280	69	4285
2026-01-06 11:12:45.81	149.49	14.60	-50.1	-51.8	15.5	6.06e-01	0	28	0	230162432	69	4270
2026-01-06 11:12:46.81	149.48	14.71	-50.1	-51.8	15.5	6.06e-01	0	28	0	232259584	69	4277
2026-01-06 11:12:47.81	149.47	14.83	-50.2	-51.9	15.4	6.08e-01	0	28	0	233832448	69	4311
2026-01-06 11:12:48.80	149.47	14.95	-50.1	-51.8	15.5	6.03e-01	0	28	0	235929600	69	4257
2026-01-06 11:12:49.79	149.46	15.06	-50.3	-51.9	15.4	6.08e-01	0	28	0	237502464	69	4340
2026-01-06 11:12:50.79	149.45	15.18	-50.1	-51.8	15.5	6.05e-01	0	28	0	239599616	69	4275
2026-01-06 11:12:51.78	149.44	15.30	-50.2	-51.8	15.4	6.04e-01	0	28	0	241172480	69	4290
2026-01-06 11:12:52.78	149.43	15.42	-50.1	-51.8	15.5	6.08e-01	0	28	0	243269632	69	4268
2026-01-06 11:12:53.77	149.43	15.54	-50.1	-51.8	15.5	6.09e-01	0	28	0	245366784	69	4279
2026-01-06 11:12:54.76	149.42	15.66	-50.1	-51.8	15.5	6.04e-01	0	28	0	246939648	69	4270
2026-01-06 11:12:55.76	149.41	15.78	-50.2	-51.9	15.4	6.05e-01	0	28	0	249036800	69	4292
2026-01-06 11:12:56.75	149.40	15.90	-50.2	-51.8	15.5	6.06e-01	0	28	0	250609664	69	4287
2026-01-06 11:12:57.75	149.39	16.02	-50.1	-51.8	15.5	6.08e-01	0	28	0	252706816	69	4250
2026-01-06 11:12:58.74	149.38	16.14	-50.2	-51.9	15.4	6.06e-01	0	28	0	254279680	69	4295
2026-01-06 11:12:59.73	149.37	16.27	-50.1	-51.7	15.5	6.06e-01	0	28	0	256376832	69	4222
2026-01-06 11:13:00.72	149.36	16.39	-50.1	-51.8	15.5	6.06e-01	0	28	0	257949696	69	4259
2026-01-06 11:13:01.72	149.36	16.51	-50.3	-52.0	15.4	6.07e-01	0	28	0	260046848	69	4345
2026-01-06 11:13:02.72	149.35	16.64	-50.1	-51.7	15.5	6.05e-01	0	28	0	262144000	69	4239
2026-01-06 11:13:03.71	149.34	16.77	-50.1	-51.8	15.5	6.07e-01	0	28	0	263716864	69	4246
2026-01-06 11:13:04.70	149.33	16.89	-50.1	-51.7	15.5	6.06e-01	0	28	0	265814016	69	4229
2026-01-06 11:13:05.69	149.32	17.02	-50.0	-51.7	15.5	6.07e-01	0	28	0	267386880	69	4216
2026-01-06 11:13:06.68	149.31	17.15	-50.1	-51.7	15.5	6.08e-01	0	28	0	269484032	69	4239
2026-01-06 11:13:07.67	149.30	17.27	-50.1	-51.7	15.5	6.04e-01	0	28	0	271056896	69	4237
2026-01-06 11:13:08.66	149.29	17.40	-50.1	-51.8	15.5	6.08e-01	0	28	0	273154048	69	4250
2026-01-06 11:13:09.65	149.28	17.53	-50.0	-51.7	15.5	6.07e-01	0	28	0	274726912	69	4216
2026-01-06 11:13:10.65	149.27	17.67	-50.1	-51.8	15.5	6.06e-01	0	28	0	276824064	69	4250
2026-01-06 11:13:11.64	149.26	17.80	-50.1	-51.7	15.5	6.08e-01	0	28	0	278396928	69	4237
2026-01-06 11:13:12.63	149.25	17.93	-50.1	-51.8	15.5	6.05e-01	0	28	0	280494080	69	4264
2026-01-06 11:13:13.62	149.24	18.06	-50.2	-51.8	15.5	6.06e-01	0	28	0	282591232	69	4285
2026-01-06 11:13:14.63	149.22	18.20	-50.2	-51.9	15.4	6.05e-01	0	28	0	284164096	69	4301
2026-01-06 11:13:15.62	149.21	18.33	-50.2	-51.9	15.5	6.06e-01	0	28	0	286261248	69	4295
2026-01-06 11:13:16.62	149.20	18.47	-50.2	-51.9	15.5	6.07e-01	0	28	0	287834112	69	4292
2026-01-06 11:13:17.61	149.19	18.61	-50.2	-51.9	15.4	6.07e-01	0	28	0	289931264	69	4307
2026-01-06 11:13:18.61	149.18	18.74	-50.3	-51.9	15.4	6.05e-01	0	28	0	291504128	69	4330
2026-01-06 11:13:19.60	149.17	18.88	-50.2	-51.9	15.4	6.04e-01	0	28	0	293601280	69	4316
2026-01-06 11:13:20.59	149.16	19.02	-50.3	-52.0	15.4	6.08e-01	0	28	0	295174144	69	4342
2026-01-06 11:13:21.59	149.15	19.16	-50.2	-51.9	15.4	6.08e-01	0	28	0	297271296	69	4319
2026-01-06 11:13:22.58	149.13	19.30	-50.3	-52.0	15.4	6.08e-01	0	28	0	299368448	69	4360
2026-01-06 11:13:23.57	149.12	19.44	-50.3	-52.0	15.4	6.07e-01	0	28	0	300941312	69	4379
2026-01-06 11:13:24.56	149.11	19.59	-50.3	-52.0	15.4	6.07e-01	0	28	0	303038464	69	4368
2026-01-06 11:13:25.55	149.10	19.73	-50.3	-51.9	15.4	6.09e-01	0	28	0	304611328	69	4330
2026-01-06 11:13:26.55	149.08	19.88	-50.3	-51.9	15.4	6.05e-01	0	28	0	306708480	69	4334
2026-01-06 11:13:27.54	149.07	20.02	-50.4	-52.1	15.4	6.07e-01	0	28	0	308281344	69	4405
2026-01-06 11:13:28.53	149.06	20.17	-50.4	-52.1	15.4	6.05e-01	0	28	0	310378496	69	4441
2026-01-06 11:13:29.53	149.05	20.31	-50.4	-52.1	15.4	6.04e-01	0	28	0	311951360	69	4438
2026-01-06 11:13:30.52	149.03	20.46	-50.5	-52.3	15.4	6.05e-01	0	28	0	314048512	69	4502
2026-01-06 11:13:31.52	149.02	20.61	-50.5	-52.2	15.4	6.05e-01	0	28	0	316145664	69	4467
2026-01-06 11:13:32.50	149.01	20.76	-50.5	-52.2	15.4	6.06e-01	0	28	0	317718528	69	4485
2026-01-06 11:13:33.49	148.99	20.91	-50.5	-52.2	15.4	6.06e-01	0	28	0	319815680	69	4470
2026-01-06 11:13:34.48	148.98	21.06	-50.5	-52.2	15.4	6.05e-01	0	28	0	321388544	69	4480
2026-01-06 11:13:35.47	148.96	21.22	-50.4	-52.1	15.4	6.08e-01	0	28	0	323485696	69	4401
2026-01-06 11:13:36.47	148.95	21.37	-50.3	-52.0	15.4	6.07e-01	0	28	0	325058560	69	4376
2026-01-06 11:13:37.45	148.94	21.52	-50.3	-52.0	15.4	6.06e-01	0	28	0	327155712	69	4372
2026-01-06 11:13:38.43	148.92	21.68	-50.3	-52.0	15.4	6.05e-01	0	28	0	328728576	69	4344
2026-01-06 11:13:39.42	148.91	21.84	-50.4	-52.1	15.4	6.07e-01	0	28	0	330825728	69	4433
2026-01-06 11:13:40.41	148.89	21.99	-50.3	-52.0	15.4	6.07e-01	0	28	0	332398592	69	4379
2026-01-06 11:13:41.40	148.88	22.15	-50.4	-52.0	15.4	6.08e-01	0	28	0	334495744	69	4388
2026-01-06 11:13:42.39	148.86	22.31	-50.3	-52.0	15.4	6.04e-01	0	28	0	336068608	69	4371
2026-01-06 11:13:43.39	148.84	22.47	-50.4	-52.1	15.4	6.07e-01	0	28	0	338165760	69	4395
2026-01-06 11:13:44.38	148.83	22.64	-50.3	-52.0	15.4	6.08e-01	0	28	0	340262912	69	4364
2026-01-06 11:13:45.38	148.81	22.80	-50.4	-52.1	15.4	6.05e-01	0	29	0	341835776	69	4422
2026-01-06 11:13:46.36	148.80	22.96	-50.5	-52.2	15.4	6.06e-01	0	28	0	343932928	69	4471
2026-01-06 11:13:47.36	148.78	23.13	-50.5	-52.2	15.4	6.07e-01	0	28	0	345505792	69	4486
2026-01-06 11:13:48.34	148.76	23.30	-50.5	-52.2	15.4	6.04e-01	0	28	0	347602944	69	4447
2026-01-06 11:13:49.34	148.75	23.47	-50.4	-52.1	15.4	6.06e-01	0	28	0	349175808	69	4421
2026-01-06 11:13:50.33	148.73	23.64	-50.5	-52.2	15.4	6.05e-01	0	28	0	351272960	69	4474
2026-01-06 11:13:51.33	148.71	23.81	-50.4	-52.1	15.4	6.08e-01	0	29	0	352845824	69	4402
2026-01-06 11:13:52.31	148.69	23.98	-50.4	-52.1	15.4	6.07e-01	0	28	0	354942976	69	4397
2026-01-06 11:13:53.31	148.68	24.15	-50.4	-52.0	15.4	6.06e-01	0	28	0	356515840	69	4391
2026-01-06 11:13:54.29	148.66	24.32	-50.4	-52.1	15.4	6.04e-01	0	28	0	358612992	69	4401
2026-01-06 11:13:55.29	148.64	24.50	-50.5	-52.2	15.4	6.09e-01	0	28	0	360710144	69	4462
2026-01-06 11:13:56.28	148.62	24.68	-50.5	-52.2	15.4	6.08e-01	0	28	0	362283008	69	4461
2026-01-06 11:13:57.27	148.60	24.86	-50.4	-52.0	15.4	6.08e-01	0	28	0	364380160	69	4386
2026-01-06 11:13:58.27	148.58	25.04	-50.3	-52.0	15.4	6.06e-01	0	28	0	365953024	69	4361
2026-01-06 11:13:59.27	148.56	25.22	-50.4	-52.0	15.4	6.07e-01	0	28	0	368050176	69	4388
2026-01-06 11:14:00.27	148.54	25.40	-50.4	-52.1	15.4	6.05e-01	0	28	0	369623040	69	4400
2026-01-06 11:14:01.26	148.52	25.59	-50.5	-52.1	15.4	6.03e-01	0	29	0	371720192	69	4435
2026-01-06 11:14:02.25	148.50	25.77	-50.5	-52.1	15.4	6.07e-01	0	29	0	373293056	69	4436
2026-01-06 11:14:03.24	148.48	25.96	-50.4	-52.0	15.4	6.05e-01	0	28	0	375390208	69	4379
2026-01-06 11:14:04.23	148.46	26.14	-50.3	-52.0	15.4	6.06e-01	0	28	0	377487360	69	4367
2026-01-06 11:14:05.23	148.44	26.34	-50.3	-52.0	15.4	6.06e-01	0	28	0	379060224	69	4356
2026-01-06 11:14:06.22	148.42	26.53	-50.1	-51.7	15.5	6.05e-01	0	28	0	381157376	69	4242
2026-01-06 11:14:07.21	148.40	26.72	-50.0	-51.6	15.5	6.07e-01	0	29	0	382730240	69	4186
2026-01-06 11:14:08.21	148.37	26.91	-50.0	-51.6	15.5	6.09e-01	0	28	0	384827392	69	4174
2026-01-06 11:14:09.21	148.35	27.11	-49.9	-51.5	15.6	6.06e-01	0	28	0	386400256	69	4127
2026-01-06 11:14:10.21	148.33	27.31	-49.9	-51.5	15.6	6.07e-01	0	29	0	388497408	69	4139
2026-01-06 11:14:11.21	148.31	27.51	-50.0	-51.6	15.6	6.07e-01	0	28	0	390070272	69	4149
2026-01-06 11:14:12.20	148.28	27.71	-50.0	-51.6	15.6	6.05e-01	0	28	0	392167424	69	4153
2026-01-06 11:14:13.19	148.26	27.91	-50.1	-51.7	15.5	6.05e-01	0	28	0	394264576	69	4204
2026-01-06 11:14:14.19	148.23	28.11	-50.2	-51.8	15.5	6.05e-01	0	28	0	395837440	69	4263
2026-01-06 11:14:15.18	148.21	28.32	-50.1	-51.7	15.5	6.06e-01	0	28	0	397934592	69	4241
2026-01-06 11:14:16.17	148.18	28.52	-49.9	-51.5	15.6	6.07e-01	0	28	0	399507456	69	4130
2026-01-06 11:14:17.16	148.16	28.73	-49.9	-51.5	15.6	6.04e-01	0	28	0	401604608	69	4132
2026-01-06 11:14:18.16	148.13	28.94	-49.7	-51.3	15.5	6.05e-01	0	28	0	403177472	68	4272
2026-01-06 11:14:19.15	148.11	29.15	-49.7	-51.3	15.5	6.06e-01	0	28	0	405274624	68	4271
2026-01-06 11:14:20.14	148.08	29.36	-49.8	-51.4	15.5	6.07e-01	0	28	0	406847488	68	4301
2026-01-06 11:14:21.13	148.05	29.58	-49.8	-51.3	15.5	6.07e-01	0	28	0	408944640	68	4285
2026-01-06 11:14:22.13	148.03	29.80	-49.8	-51.4	15.5	6.05e-01	0	29	0	411041792	68	4296
2026-01-06 11:14:23.12	148.00	30.01	-49.9	-51.5	15.5	6.06e-01	0	29	0	412614656	68	4353
2026-01-06 11:14:24.12	147.97	30.23	-49.8	-51.4	15.5	6.05e-01	0	29	0	414711808	68	4323
2026-01-06 11:14:25.11	147.94	30.46	-49.9	-51.5	15.5	6.06e-01	0	29	0	416284672	68	4391
2026-01-06 11:14:26.11	147.91	30.68	-49.9	-51.6	15.4	6.06e-01	0	28	0	418381824	68	4392
2026-01-06 11:14:27.10	147.88	30.91	-49.8	-51.4	15.5	6.08e-01	0	28	0	419954688	68	4334
2026-01-06 11:14:28.09	147.85	31.13	-49.9	-51.5	15.5	6.05e-01	0	28	0	422051840	68	4350
2026-01-06 11:14:29.08	147.82	31.36	-49.7	-51.3	15.5	6.05e-01	0	28	0	423624704	68	4255
2026-01-06 11:14:30.07	147.79	31.59	-49.6	-51.2	15.5	6.06e-01	0	29	0	425721856	68	4202
2026-01-06 11:14:31.07	147.76	31.83	-49.6	-51.1	15.6	6.07e-01	0	28	0	427819008	68	4190
2026-01-06 11:14:32.06	147.73	32.06	-49.6	-51.1	15.5	6.06e-01	0	29	0	429391872	68	4182
2026-01-06 11:14:33.05	147.69	32.30	-49.7	-51.3	15.5	6.06e-01	0	28	0	431489024	68	4257
2026-01-06 11:14:34.04	147.66	32.54	-49.9	-51.5	15.5	6.09e-01	0	28	0	433061888	68	4371
2026-01-06 11:14:35.04	147.63	32.78	-50.1	-51.7	15.4	6.07e-01	0	28	0	435159040	68	4457
2026-01-06 11:14:36.03	147.59	33.02	-50.1	-51.7	15.4	6.06e-01	0	28	0	436731904	68	4476
2026-01-06 11:14:37.01	147.56	33.26	-50.1	-51.7	15.4	6.06e-01	0	28	0	438829056	68	4457
2026-01-06 11:14:38.01	147.52	33.51	-50.1	-51.7	15.4	6.09e-01	0	28	0	440401920	68	4447
2026-01-06 11:14:39.01	147.49	33.76	-50.3	-51.9	15.4	6.05e-01	0	29	0	442499072	68	4572
2026-01-06 11:14:40.00	147.45	34.01	-50.5	-52.2	15.3	6.07e-01	0	29	0	444071936	68	4736
2026-01-06 11:14:40.99	147.41	34.27	-50.7	-52.4	15.4	6.05e-01	0	29	0	446169088	69	4564
2026-01-06 11:14:41.98	147.37	34.52	-50.8	-52.5	15.3	6.07e-01	0	28	0	448266240	69	4612
2026-01-06 11:14:42.97	147.34	34.78	-50.8	-52.5	15.3	6.05e-01	0	28	0	449839104	69	4644
2026-01-06 11:14:43.95	147.30	35.04	-50.9	-52.6	15.3	6.06e-01	0	28	0	451936256	69	4664
2026-01-06 11:14:44.95	147.26	35.30	-51.0	-52.7	15.3	6.07e-01	0	28	0	453509120	69	4724
2026-01-06 11:14:45.94	147.22	35.57	-51.1	-52.9	15.3	6.05e-01	0	28	0	455606272	69	4819
2026-01-06 11:14:46.94	147.17	35.84	-51.2	-53.0	15.3	6.05e-01	0	28	0	457179136	70	4610
2026-01-06 11:14:47.94	147.13	36.11	-51.3	-53.0	15.3	6.07e-01	0	29	0	459276288	70	4641
2026-01-06 11:14:48.93	147.09	36.38	-51.3	-53.1	15.3	6.04e-01	0	29	0	460849152	70	4691
2026-01-06 11:14:49.93	147.04	36.66	-51.4	-53.1	15.3	6.06e-01	0	29	0	462946304	70	4705
2026-01-06 11:14:50.92	147.00	36.93	-51.6	-53.4	15.2	6.05e-01	0	29	0	465043456	70	4854
2026-01-06 11:14:51.92	146.95	37.21	-51.7	-53.5	15.3	6.05e-01	0	28	0	466616320	71	4638
2026-01-06 11:14:52.91	146.91	37.49	-51.9	-53.8	15.2	6.04e-01	0	29	0	468713472	71	4764
2026-01-06 11:14:53.91	146.86	37.78	-51.9	-53.8	15.2	6.06e-01	0	29	0	470286336	71	4778
2026-01-06 11:14:54.89	146.81	38.06	-51.9	-53.8	15.2	6.07e-01	0	28	0	472383488	71	4792
2026-01-06 11:14:55.89	146.76	38.36	-51.8	-53.6	15.3	6.06e-01	0	28	0	473956352	71	4689
2026-01-06 11:14:56.89	146.71	38.65	-51.8	-53.7	15.2	6.07e-01	0	29	0	476053504	71	4726
2026-01-06 11:14:57.87	146.66	38.94	-51.8	-53.7	15.3	6.09e-01	0	28	0	477626368	71	4706
2026-01-06 11:14:58.87	146.61	39.24	-51.9	-53.8	15.2	6.08e-01	0	28	0	479723520	71	4779
2026-01-06 11:14:59.86	146.55	39.54	-51.8	-53.7	15.2	6.06e-01	0	28	0	481296384	71	4711
2026-01-06 11:15:00.85	146.50	39.84	-51.7	-53.6	15.3	6.06e-01	0	29	0	483393536	71	4679
2026-01-06 11:15:01.84	146.44	40.15	-51.6	-53.4	15.3	6.08e-01	0	28	0	485490688	71	4576
2026-01-06 11:15:02.82	146.39	40.45	-51.5	-53.4	15.3	6.07e-01	0	28	0	487063552	71	4554
2026-01-06 11:15:03.82	146.33	40.77	-51.5	-53.3	15.3	6.06e-01	0	28	0	489160704	71	4529
2026-01-06 11:15:04.81	146.27	41.08	-51.5	-53.3	15.4	6.07e-01	0	29	0	490733568	71	4505
2026-01-06 11:15:05.80	146.21	41.40	-51.4	-53.2	15.4	6.07e-01	0	29	0	492830720	71	4491
2026-01-06 11:15:06.79	146.15	41.72	-51.3	-53.1	15.4	6.07e-01	0	28	0	494403584	71	4412
2026-01-06 11:15:07.78	146.08	42.04	-51.3	-53.1	15.4	6.07e-01	0	29	0	496500736	71	4400
2026-01-06 11:15:08.77	146.02	42.36	-51.3	-53.0	15.4	6.08e-01	0	28	0	498073600	71	4383
2026-01-06 11:15:09.76	145.95	42.69	-51.0	-52.7	15.5	6.06e-01	0	28	0	500170752	71	4214
2026-01-06 11:15:10.75	145.89	43.02	-50.9	-52.6	15.4	6.06e-01	0	28	0	501743616	70	4412
2026-01-06 11:15:11.75	145.82	43.36	-50.9	-52.6	15.4	6.06e-01	0	28	0	503840768	70	4418
2026-01-06 11:15:12.74	145.75	43.69	-50.8	-52.5	15.4	6.06e-01	0	29	0	505937920	70	4387
2026-01-06 11:15:13.74	145.68	44.04	-50.7	-52.4	15.5	6.07e-01	0	28	0	507510784	70	4325
2026-01-06 11:15:14.73	145.60	44.38	-50.7	-52.4	15.5	6.08e-01	0	28	0	509607936	70	4296
2026-01-06 11:15:15.72	145.53	44.73	-50.6	-52.3	15.5	6.04e-01	0	28	0	511180800	70	4267
2026-01-06 11:15:16.72	145.45	45.08	-50.6	-52.2	15.5	6.06e-01	0	29	0	513277952	70	4223
2026-01-06 11:15:17.71	145.37	45.43	-50.6	-52.2	15.5	6.06e-01	0	28	0	514850816	70	4218
2026-01-06 11:15:18.70	145.29	45.79	-50.7	-52.3	15.5	6.04e-01	0	28	0	516947968	70	4280
2026-01-06 11:15:19.70	145.21	46.15	-50.5	-52.2	15.5	6.07e-01	0	28	0	518520832	70	4199
2026-01-06 11:15:20.69	145.12	46.51	-50.3	-52.0	15.5	6.03e-01	0	29	0	520617984	69	4350
2026-01-06 11:15:21.69	145.03	46.88	-50.4	-52.0	15.5	6.05e-01	0	29	0	522715136	69	4359
2026-01-06 11:15:22.68	144.94	47.25	-50.5	-52.2	15.4	6.10e-01	0	29	0	524288000	69	4466
2026-01-06 11:15:23.66	144.85	47.62	-50.5	-52.2	15.4	6.06e-01	0	28	0	526385152	69	4449
2026-01-06 11:15:24.66	144.76	48.00	-50.5	-52.1	15.4	6.05e-01	0	29	0	527958016	69	4434
2026-01-06 11:15:25.65	144.66	48.38	-50.6	-52.2	15.4	6.08e-01	0	29	0	530055168	69	4477
2026-01-06 11:15:26.64	144.57	48.76	-50.4	-52.1	15.4	6.08e-01	0	29	0	531628032	69	4409
2026-01-06 11:15:27.63	144.46	49.15	-50.4	-52.1	15.4	6.08e-01	0	29	0	533725184	69	4411
2026-01-06 11:15:28.63	144.36	49.54	-50.6	-52.2	15.4	6.06e-01	0	28	0	535298048	69	4483
2026-01-06 11:15:29.62	144.25	49.93	-50.0	-51.6	15.6	6.05e-01	0	28	0	537395200	69	4180
2026-01-06 11:15:30.62	144.14	50.33	-49.9	-51.5	15.6	6.04e-01	0	28	0	539492352	69	4115
2026-01-06 11:15:31.61	144.03	50.73	-50.0	-51.6	15.6	6.06e-01	0	29	0	541065216	69	4151
2026-01-06 11:15:32.61	143.91	51.14	-49.9	-51.5	15.6	6.07e-01	0	29	0	543162368	69	4131
2026-01-06 11:15:33.60	143.79	51.54	-49.8	-51.3	15.5	6.07e-01	0	29	0	544735232	68	4281
2026-01-06 11:15:34.59	143.67	51.95	-49.6	-51.2	15.5	6.04e-01	0	28	0	546832384	68	4199
2026-01-06 11:15:35.58	143.54	52.37	-49.5	-51.1	15.6	6.08e-01	0	29	0	548405248	68	4151
2026-01-06 11:15:36.56	143.42	52.78	-49.6	-51.1	15.6	6.07e-01	0	28	0	550502400	68	4171
2026-01-06 11:15:37.55	143.28	53.20	-49.6	-51.2	15.6	6.07e-01	0	28	0	552075264	68	4196
2026-01-06 11:15:38.55	143.14	53.63	-49.5	-51.1	15.6	6.05e-01	0	29	0	554172416	68	4156
2026-01-06 11:15:39.53	143.00	54.05	-49.5	-51.0	15.6	5.99e-01	0	29	0	555745280	68	4133
2026-01-06 11:15:40.53	142.85	54.49	-49.7	-51.3	15.5	6.01e-01	0	28	0	557842432	68	4250
2026-01-06 11:15:41.52	142.70	54.92	-49.6	-51.2	15.6	6.02e-01	0	29	0	559939584	68	4197
2026-01-06 11:15:42.51	142.55	55.36	-49.8	-51.3	15.5	6.02e-01	0	29	0	561512448	68	4286
2026-01-06 11:15:43.51	142.38	55.81	-49.8	-51.4	15.5	6.02e-01	0	29	0	563609600	68	4294
2026-01-06 11:15:44.50	142.22	56.25	-49.9	-51.5	15.5	6.00e-01	0	29	0	565182464	68	4366
2026-01-06 11:15:45.49	142.05	56.70	-50.4	-52.1	15.3	6.01e-01	0	29	0	567279616	68	4665
2026-01-06 11:15:46.49	141.87	57.16	-50.5	-52.1	15.4	6.01e-01	0	29	0	568852480	69	4411
2026-01-06 11:15:47.48	141.68	57.61	-50.6	-52.3	15.4	6.00e-01	0	29	0	570949632	69	4500
2026-01-06 11:15:48.48	141.49	58.08	-51.4	-53.1	15.3	6.02e-01	0	28	0	572522496	70	4700
2026-01-06 11:15:49.47	141.29	58.54	-51.2	-52.9	15.3	6.02e-01	0	29	0	574619648	70	4588
2026-01-06 11:15:50.47	141.08	59.01	-51.1	-52.8	15.3	5.99e-01	0	28	0	576716800	70	4545
2026-01-06 11:15:51.46	140.87	59.48	-51.4	-53.2	15.3	6.02e-01	0	29	0	578289664	70	4723
2026-01-06 11:15:52.46	140.65	59.96	-51.3	-53.0	15.3	6.00e-01	0	29	0	580386816	70	4634
2026-01-06 11:15:53.45	140.42	60.43	-51.2	-53.0	15.3	6.02e-01	0	29	0	581959680	70	4615
2026-01-06 11:15:54.44	140.18	60.91	-51.2	-52.9	15.4	6.00e-01	0	28	0	584056832	70	4594
2026-01-06 11:15:55.43	139.93	61.40	-51.6	-53.4	15.3	6.00e-01	0	29	0	585629696	70	4823
2026-01-06 11:15:56.42	139.68	61.88	-51.8	-53.6	15.3	6.04e-01	0	29	0	587726848	71	4702
2026-01-06 11:15:57.41	139.41	62.37	-51.7	-53.5	15.3	6.01e-01	0	29	0	589299712	71	4633
2026-01-06 11:15:58.40	139.13	62.86	-52.0	-53.9	15.2	6.01e-01	0	29	0	591396864	71	4848
2026-01-06 11:15:59.39	138.84	63.36	-52.2	-54.1	15.2	6.01e-01	0	29	0	592969728	72	4695
2026-01-06 11:16:00.39	138.53	63.86	-52.3	-54.3	15.2	6.02e-01	0	29	0	595066880	72	4780
2026-01-06 11:16:01.38	138.21	64.36	-52.5	-54.5	15.2	6.01e-01	0	29	0	597164032	73	4604
2026-01-06 11:16:02.37	137.88	64.86	-52.7	-54.8	15.2	6.02e-01	0	29	0	598736896	73	4765
2026-01-06 11:16:03.36	137.53	65.37	-53.4	-55.5	15.1	6.02e-01	0	29	0	600834048	74	4919
2026-01-06 11:16:04.35	137.17	65.88	-53.4	-55.6	15.0	6.01e-01	0	29	0	602406912	74	4940
2026-01-06 11:16:05.34	136.79	66.39	-53.7	-56.0	15.0	6.02e-01	0	29	0	604504064	75	4880
2026-01-06 11:16:06.33	136.39	66.90	-54.1	-56.6	14.8	6.01e-01	0	29	0	606076928	75	5224
2026-01-06 11:16:07.32	135.97	67.42	-54.4	-56.9	14.8	6.01e-01	0	29	0	608174080	76	5152
2026-01-06 11:16:08.30	135.53	67.93	-53.9	-56.3	15.0	6.02e-01	0	29	0	609746944	76	4764
2026-01-06 11:16:09.30	135.06	68.46	-54.7	-57.3	14.8	6.00e-01	0	29	0	611844096	77	5083
2026-01-06 11:16:10.29	134.57	68.98	-54.2	-56.7	15.0	6.00e-01	0	29	0	613416960	77	4712
2026-01-06 11:16:11.29	134.04	69.51	-54.1	-56.5	15.1	6.03e-01	0	29	0	615514112	77	4613
2026-01-06 11:16:12.29	133.49	70.04	-54.4	-56.9	14.9	6.02e-01	0	29	0	617611264	77	4853
2026-01-06 11:16:13.28	132.91	70.56	-54.0	-56.4	15.1	6.03e-01	0	29	0	619184128	77	4567
2026-01-06 11:16:14.27	132.29	71.09	-53.8	-56.0	15.1	6.02e-01	0	29	0	621281280	76	4624
2026-01-06 11:16:15.27	131.63	71.62	-53.8	-56.0	15.1	6.00e-01	0	29	0	622854144	76	4636
2026-01-06 11:16:16.26	130.94	72.15	-53.7	-56.0	15.1	6.04e-01	0	29	0	624951296	76	4621
2026-01-06 11:16:17.25	130.20	72.67	-53.4	-55.5	15.2	5.99e-01	0	29	0	626524160	76	4364
2026-01-06 11:16:18.25	129.40	73.20	-53.3	-55.5	15.2	6.02e-01	0	29	0	628621312	75	4611
2026-01-06 11:16:19.26	128.54	73.74	-53.6	-55.8	15.0	6.02e-01	0	28	0	630194176	75	4783
2026-01-06 11:16:20.25	127.64	74.26	-53.6	-55.8	15.1	6.02e-01	0	29	0	632291328	75	4787
2026-01-06 11:16:21.24	126.67	74.79	-53.8	-56.1	15.0	6.01e-01	0	29	0	634388480	75	4969
2026-01-06 11:16:22.24	125.62	75.31	-53.6	-55.8	15.1	6.04e-01	0	29	0	635961344	75	4784
2026-01-06 11:16:23.23	124.50	75.83	-53.5	-55.7	15.1	6.02e-01	0	29	0	638058496	75	4749
2026-01-06 11:16:24.22	123.29	76.34	-53.4	-55.6	15.1	6.02e-01	0	29	0	639631360	75	4669
2026-01-06 11:16:25.22	121.97	76.86	-53.3	-55.4	15.2	6.00e-01	0	29	0	641728512	75	4575
2026-01-06 11:16:26.21	120.55	77.36	-52.5	-54.4	15.4	6.01e-01	0	29	0	643301376	74	4334
2026-01-06 11:16:27.20	119.01	77.86	-52.4	-54.4	15.3	6.00e-01	0	29	0	645398528	73	4550
2026-01-06 11:16:28.19	117.34	78.35	-52.0	-53.9	15.4	6.01e-01	0	29	0	646971392	73	4301
2026-01-06 11:16:29.19	115.51	78.83	-51.6	-53.4	15.4	6.00e-01	0	29	0	649068544	72	4311
2026-01-06 11:16:30.18	113.52	79.30	-51.7	-53.5	15.3	6.00e-01	0	29	0	651165696	71	4627
2026-01-06 11:16:31.18	111.33	79.76	-51.4	-53.1	15.4	6.03e-01	0	29	0	652738560	71	4441
2026-01-06 11:16:32.16	108.98	80.20	-51.1	-52.8	15.5	6.01e-01	0	29	0	654835712	71	4263
2026-01-06 11:16:33.15	106.38	80.62	-51.3	-53.0	15.4	6.00e-01	0	29	0	656408576	70	4606
2026-01-06 11:16:34.14	103.54	81.03	-51.7	-53.6	15.3	6.04e-01	0	29	0	658505728	71	4662
2026-01-06 11:16:35.13	100.43	81.41	-51.4	-53.2	15.4	6.00e-01	0	29	0	660078592	71	4452
2026-01-06 11:16:36.12	97.05	81.76	-52.2	-54.1	15.3	6.01e-01	0	29	0	662175744	72	4653
2026-01-06 11:16:37.12	93.33	82.09	-51.2	-52.9	15.5	6.03e-01	0	29	0	663748608	71	4331
2026-01-06 11:16:38.10	89.38	82.38	-51.7	-53.5	15.3	5.99e-01	0	29	0	665845760	71	4643
2026-01-06 11:16:39.09	85.10	82.63	-51.6	-53.4	15.3	6.01e-01	0	29	0	667418624	71	4559
2026-01-06 11:16:40.08	80.55	82.84	-51.7	-53.5	15.3	6.02e-01	0	29	0	669515776	71	4632
2026-01-06 11:16:41.07	75.75	83.00	-51.0	-52.7	15.5	6.00e-01	0	29	0	671612928	71	4221
2026-01-06 11:16:42.06	70.77	83.10	-51.4	-53.1	15.5	6.04e-01	0	29	0	673185792	71	4412
2026-01-06 11:16:43.05	65.66	83.16	-51.1	-52.8	15.5	6.02e-01	0	29	0	674758656	71	4252
2026-01-06 11:16:44.05	60.46	83.16	-51.3	-53.0	15.4	5.99e-01	0	29	0	676855808	71	4368
2026-01-06 11:16:45.03	55.40	83.11	-51.3	-53.1	15.4	6.01e-01	0	29	0	678952960	71	4403
2026-01-06 11:16:46.03	50.36	83.00	-51.4	-53.2	15.4	5.99e-01	0	29	0	680525824	71	4445
2026-01-06 11:16:47.03	45.51	82.84	-51.5	-53.2	15.4	6.01e-01	0	29	0	682622976	71	4464
2026-01-06 11:16:48.02	40.95	82.63	-51.7	-53.5	15.3	6.01e-01	0	29	0	684195840	71	4605
2026-01-06 11:16:49.01	36.67	82.38	-51.6	-53.4	15.3	6.00e-01	0	29	0	686292992	71	4564
2026-01-06 11:16:50.01	32.64	82.09	-51.3	-53.1	15.4	6.01e-01	0	29	0	687865856	71	4393
2026-01-06 11:16:51.00	28.95	81.77	-51.7	-53.5	15.3	6.03e-01	0	29	0	689963008	71	4611
2026-01-06 11:16:52.00	25.53	81.41	-50.7	-52.3	15.5	6.01e-01	0	29	0	691535872	70	4276
2026-01-06 11:16:52.99	22.43	81.03	-51.4	-53.1	15.3	6.02e-01	0	29	0	693633024	70	4698
2026-01-06 11:16:53.98	19.58	80.63	-51.5	-53.2	15.3	6.00e-01	0	28	0	695730176	70	4753
2026-01-06 11:16:54.98	16.96	80.20	-51.3	-53.0	15.3	6.03e-01	0	29	0	697303040	70	4613
2026-01-06 11:16:55.97	14.59	79.76	-51.1	-52.8	15.4	6.03e-01	0	29	0	699400192	70	4495
2026-01-06 11:16:56.96	12.42	79.30	-52.2	-54.0	15.2	6.00e-01	0	29	0	700973056	72	4647
2026-01-06 11:16:57.95	10.44	78.83	-52.0	-53.8	15.3	6.01e-01	0	29	0	703070208	72	4509
2026-01-06 11:16:58.94	8.62	78.35	-52.4	-54.4	15.2	6.02e-01	0	29	0	704643072	72	4815
2026-01-06 11:16:59.94	6.93	77.86	-53.5	-55.6	15.0	6.00e-01	0	29	0	706740224	74	4982
2026-01-06 11:17:00.93	5.40	77.36	-52.8	-54.8	15.3	6.02e-01	0	29	0	708837376	74	4519
2026-01-06 11:17:01.93	3.97	76.85	-53.7	-55.9	15.1	6.04e-01	0	29	0	710410240	75	4855
2026-01-06 11:17:02.92	2.66	76.35	-53.9	-56.2	15.0	5.99e-01	0	29	0	712507392	75	5022
2026-01-06 11:17:03.91	1.45	75.83	-54.1	-56.4	14.9	6.03e-01	0	29	0	714080256	75	5159
2026-01-06 11:17:04.91	0.32	75.31	-53.5	-55.6	15.1	6.01e-01	0	29	0	716177408	75	4690
2026-01-06 11:17:05.90	359.28	74.79	-54.0	-56.3	15.0	6.02e-01	0	29	0	717750272	75	5061
2026-01-06 11:17:06.89	358.32	74.27	-54.3	-56.7	14.9	6.01e-01	0	29	0	719847424	76	4985
2026-01-06 11:17:07.88	357.41	73.74	-53.2	-55.2	15.2	5.98e-01	0	29	0	721420288	75	4485
2026-01-06 11:17:08.88	356.56	73.21	-53.6	-55.8	15.1	6.01e-01	0	29	0	723517440	75	4805
2026-01-06 11:17:09.86	355.78	72.69	-53.9	-56.2	15.0	6.01e-01	0	29	0	725614592	75	5001
2026-01-06 11:17:10.86	355.03	72.16	-53.9	-56.1	15.0	6.01e-01	0	29	0	727187456	75	4969
2026-01-06 11:17:11.85	354.34	71.64	-54.0	-56.3	14.9	6.00e-01	0	28	0	728760320	75	5046
2026-01-06 11:17:12.85	353.68	71.11	-54.3	-56.7	14.9	6.01e-01	0	29	0	730857472	76	4988
2026-01-06 11:17:13.84	353.06	70.58	-55.1	-57.8	14.7	6.01e-01	0	29	0	732954624	77	5388
2026-01-06 11:17:14.82	352.49	70.06	-54.9	-57.4	14.8	6.02e-01	0	29	0	734527488	78	4866
2026-01-06 11:17:15.81	351.94	69.54	-54.9	-57.4	14.9	6.03e-01	0	29	0	736624640	78	4847
2026-01-06 11:17:16.80	351.42	69.02	-55.9	-59.0	14.4	6.03e-01	0	29	0	738197504	79	5512
2026-01-06 11:17:17.79	350.92	68.50	-55.3	-58.0	14.7	6.01e-01	0	29	0	740294656	79	4888
2026-01-06 11:17:18.79	350.45	67.97	-55.0	-57.6	14.8	6.01e-01	0	29	0	741867520	78	4936
2026-01-06 11:17:19.77	350.01	67.46	-55.2	-57.9	14.7	6.02e-01	0	29	0	743964672	78	5151
2026-01-06 11:17:20.76	349.59	66.94	-55.1	-57.7	14.7	6.02e-01	0	29	0	745537536	78	5022
2026-01-06 11:17:21.76	349.19	66.43	-54.2	-56.5	15.1	6.02e-01	0	29	0	747634688	77	4636
2026-01-06 11:17:22.75	348.81	65.92	-53.5	-55.6	15.3	6.00e-01	0	29	0	749207552	76	4402
2026-01-06 11:17:23.74	348.44	65.41	-53.8	-56.0	15.1	6.02e-01	0	29	0	751304704	76	4651
2026-01-06 11:17:24.74	348.09	64.90	-53.8	-56.0	15.1	6.02e-01	0	29	0	753401856	76	4600
2026-01-06 11:17:25.73	347.76	64.40	-53.2	-55.2	15.2	6.01e-01	0	29	0	754974720	75	4473
2026-01-06 11:17:26.73	347.44	63.89	-52.4	-54.3	15.4	6.00e-01	0	29	0	757071872	74	4253
2026-01-06 11:17:27.72	347.13	63.39	-52.3	-54.2	15.3	6.02e-01	0	29	0	758644736	73	4474
2026-01-06 11:17:28.71	346.84	62.90	-52.7	-54.7	15.2	6.00e-01	0	29	0	760741888	73	4706
2026-01-06 11:17:29.71	346.56	62.40	-52.6	-54.5	15.2	6.03e-01	0	29	0	762839040	73	4643
2026-01-06 11:17:30.71	346.29	61.91	-52.0	-53.8	15.4	6.00e-01	0	29	0	764411904	73	4262
2026-01-06 11:17:31.70	346.03	61.43	-51.9	-53.7	15.4	6.00e-01	0	29	0	765984768	72	4443
2026-01-06 11:17:32.69	345.78	60.94	-52.0	-53.8	15.4	6.00e-01	0	29	0	768081920	72	4505
2026-01-06 11:17:33.67	345.55	60.47	-52.1	-54.0	15.3	6.03e-01	0	29	0	770179072	72	4601
2026-01-06 11:17:34.67	345.32	59.99	-51.7	-53.4	15.4	6.00e-01	0	29	0	771751936	72	4321
2026-01-06 11:17:35.66	345.10	59.52	-51.4	-53.0	15.4	6.02e-01	0	29	0	773849088	71	4386
2026-01-06 11:17:36.66	344.88	59.05	-51.3	-53.0	15.5	6.01e-01	0	29	0	775421952	71	4352
2026-01-06 11:17:37.65	344.68	58.58	-51.2	-52.9	15.5	5.99e-01	0	29	0	777519104	71	4322
2026-01-06 11:17:38.64	344.48	58.12	-51.0	-52.6	15.6	6.02e-01	0	29	0	779091968	71	4186
2026-01-06 11:17:39.63	344.29	57.66	-50.8	-52.4	15.5	6.02e-01	0	29	0	781189120	70	4315
2026-01-06 11:17:40.63	344.10	57.20	-50.6	-52.2	15.5	6.02e-01	0	29	0	782761984	70	4213
2026-01-06 11:17:41.62	343.92	56.75	-50.3	-51.9	15.5	6.02e-01	0	29	0	784859136	69	4320
2026-01-06 11:17:42.60	343.75	56.31	-50.0	-51.5	15.6	6.01e-01	0	29	0	786432000	69	4135
2026-01-06 11:17:43.60	343.59	55.86	-49.9	-51.4	15.5	6.00e-01	0	29	0	788529152	68	4312
2026-01-06 11:17:44.59	343.42	55.42	-49.7	-51.2	15.6	6.02e-01	0	29	0	790626304	68	4223
2026-01-06 11:17:45.57	343.27	54.98	-50.0	-51.5	15.5	6.01e-01	0	29	0	792199168	68	4362
2026-01-06 11:17:46.57	343.12	54.55	-49.8	-51.3	15.5	6.00e-01	0	29	0	794296320	68	4269
2026-01-06 11:17:47.55	342.97	54.12	-49.6	-51.1	15.6	6.00e-01	0	29	0	795869184	68	4160
2026-01-06 11:17:48.55	342.83	53.69	-49.5	-51.0	15.6	6.02e-01	0	29	0	797966336	68	4111
2026-01-06 11:17:49.54	342.69	53.27	-49.4	-50.9	15.7	6.01e-01	0	29	0	799539200	68	4064
2026-01-06 11:17:50.54	342.56	52.84	-49.8	-51.4	15.5	5.99e-01	0	29	0	801636352	68	4293
2026-01-06 11:17:51.53	342.43	52.43	-50.0	-51.6	15.5	6.01e-01	0	29	0	803209216	68	4400
2026-01-06 11:17:52.52	342.30	52.01	-50.2	-51.8	15.4	6.00e-01	0	28	0	805306368	68	4532
2026-01-06 11:17:53.51	342.18	51.60	-50.2	-51.8	15.4	6.04e-01	0	29	0	806879232	68	4532
2026-01-06 11:17:54.51	342.06	51.19	-50.0	-51.6	15.5	5.98e-01	0	29	0	808976384	68	4408
2026-01-06 11:17:55.50	341.94	50.79	-50.1	-51.7	15.5	6.03e-01	0	29	0	811073536	68	4455
2026-01-06 11:17:56.50	341.83	50.39	-50.5	-52.1	15.4	6.00e-01	0	29	0	812646400	68	4679
2026-01-06 11:17:57.49	341.72	50.00	-50.6	-52.3	15.4	6.04e-01	0	29	0	814743552	69	4503
2026-01-06 11:17:58.48	341.61	49.60	-50.6	-52.3	15.4	6.04e-01	0	28	0	816316416	69	4508
2026-01-06 11:17:59.47	341.51	49.22	-50.6	-52.2	15.4	6.04e-01	0	29	0	818413568	69	4479
2026-01-06 11:18:00.47	341.41	48.83	-50.6	-52.3	15.4	6.02e-01	0	29	0	819986432	69	4494
2026-01-06 11:18:01.47	341.31	48.44	-50.4	-52.0	15.5	6.00e-01	0	29	0	822083584	69	4385
2026-01-06 11:18:02.47	341.21	48.06	-50.6	-52.2	15.4	6.03e-01	0	29	0	824180736	69	4484
2026-01-06 11:18:03.46	341.12	47.68	-50.9	-52.6	15.4	6.01e-01	0	29	0	825753600	69	4654
2026-01-06 11:18:04.45	341.02	47.31	-50.8	-52.4	15.4	6.02e-01	0	29	0	827850752	69	4596
2026-01-06 11:18:05.45	340.93	46.94	-50.7	-52.4	15.4	6.02e-01	0	29	0	829423616	69	4551
2026-01-06 11:18:06.44	340.85	46.58	-50.4	-52.0	15.5	6.01e-01	0	29	0	831520768	69	4356
2026-01-06 11:18:07.43	340.76	46.22	-50.5	-52.1	15.4	6.01e-01	0	29	0	833093632	69	4420
2026-01-06 11:18:08.43	340.68	45.85	-50.5	-52.1	15.4	6.02e-01	0	29	0	835190784	69	4423
2026-01-06 11:18:09.42	340.60	45.50	-50.4	-52.0	15.5	5.99e-01	0	29	0	836763648	69	4364
2026-01-06 11:18:10.41	340.52	45.15	-50.2	-51.8	15.6	6.01e-01	0	29	0	838860800	69	4270
2026-01-06 11:18:11.40	340.44	44.80	-50.3	-51.9	15.5	5.99e-01	0	29	0	840433664	69	4293
2026-01-06 11:18:12.40	340.37	44.45	-50.4	-52.0	15.5	6.00e-01	0	29	0	842530816	69	4375
2026-01-06 11:18:13.40	340.29	44.10	-50.7	-52.4	15.4	6.02e-01	0	29	0	844627968	69	4565
2026-01-06 11:18:14.39	340.22	43.76	-51.0	-52.8	15.2	6.01e-01	0	29	0	846200832	69	4763
2026-01-06 11:18:15.38	340.15	43.43	-50.9	-52.6	15.4	6.00e-01	0	29	0	848297984	69	4676
2026-01-06 11:18:16.38	340.08	43.09	-50.8	-52.4	15.4	6.04e-01	0	29	0	849870848	69	4587
2026-01-06 11:18:17.38	340.02	42.76	-50.7	-52.4	15.4	6.03e-01	0	29	0	851968000	69	4556
2026-01-06 11:18:18.37	339.95	42.43	-50.8	-52.4	15.4	6.01e-01	0	29	0	853540864	69	4590
2026-01-06 11:18:19.37	339.89	42.10	-51.1	-52.8	15.3	6.02e-01	0	29	0	855638016	69	4812
2026-01-06 11:18:20.37	339.82	41.78	-51.4	-53.1	15.3	6.01e-01	0	29	0	857735168	70	4704
2026-01-06 11:18:21.37	339.76	41.46	-51.5	-53.3	15.3	6.02e-01	0	29	0	859308032	70	4784
2026-01-06 11:18:22.36	339.70	41.14	-51.6	-53.4	15.4	6.00e-01	0	29	0	861405184	71	4556
2026-01-06 11:18:23.35	339.64	40.83	-51.7	-53.5	15.3	6.02e-01	0	29	0	862978048	71	4638
2026-01-06 11:18:24.34	339.58	40.52	-51.7	-53.5	15.3	6.01e-01	0	29	0	865075200	71	4610
2026-01-06 11:18:25.34	339.53	40.21	-51.5	-53.2	15.4	5.98e-01	0	29	0	866648064	71	4493
2026-01-06 11:18:26.33	339.47	39.91	-51.5	-53.3	15.4	6.01e-01	0	29	0	868745216	71	4500
2026-01-06 11:18:27.33	339.42	39.60	-51.6	-53.4	15.3	6.04e-01	0	29	0	870318080	71	4577
2026-01-06 11:18:28.33	339.36	39.30	-51.9	-53.8	15.2	6.02e-01	0	29	0	872415232	71	4780
2026-01-06 11:18:29.32	339.31	39.01	-52.1	-54.0	15.3	6.05e-01	0	29	0	874512384	72	4630
2026-01-06 11:18:30.31	339.26	38.71	-52.2	-54.1	15.3	5.99e-01	0	29	0	876085248	72	4690
2026-01-06 11:18:31.31	339.21	38.42	-52.3	-54.2	15.2	6.02e-01	0	29	0	878182400	72	4754
2026-01-06 11:18:32.30	339.16	38.13	-52.2	-54.1	15.3	6.01e-01	0	29	0	879755264	72	4685
2026-01-06 11:18:33.29	339.11	37.84	-52.0	-53.8	15.3	6.01e-01	0	29	0	881852416	72	4543
2026-01-06 11:18:34.29	339.07	37.56	-51.9	-53.7	15.4	6.02e-01	0	29	0	883425280	72	4484
2026-01-06 11:18:35.28	339.02	37.28	-51.6	-53.4	15.5	6.03e-01	0	29	0	885522432	72	4315
2026-01-06 11:18:36.28	338.97	37.00	-51.6	-53.4	15.5	6.00e-01	0	29	0	887095296	72	4297
2026-01-06 11:18:37.26	338.93	36.72	-51.4	-53.1	15.5	6.02e-01	0	29	0	889192448	72	4176
2026-01-06 11:18:38.25	338.89	36.45	-51.0	-52.7	15.5	6.02e-01	0	29	0	890765312	71	4212
2026-01-06 11:18:39.24	338.84	36.18	-50.8	-52.4	15.5	6.02e-01	0	29	0	892862464	70	4308
2026-01-06 11:18:40.23	338.80	35.91	-50.7	-52.3	15.5	6.01e-01	0	29	0	894959616	70	4259
2026-01-06 11:18:41.23	338.76	35.64	-50.8	-52.4	15.5	6.00e-01	0	29	0	896532480	70	4326
2026-01-06 11:18:42.21	338.72	35.38	-50.8	-52.4	15.5	6.01e-01	0	29	0	898629632	70	4318
2026-01-06 11:18:43.20	338.68	35.12	-50.8	-52.4	15.5	6.03e-01	0	29	0	900202496	70	4334
2026-01-06 11:18:44.20	338.64	34.86	-50.6	-52.2	15.5	6.05e-01	0	29	0	902299648	70	4235
2026-01-06 11:18:45.19	338.60	34.60	-50.7	-52.3	15.5	6.01e-01	0	29	0	903872512	70	4283
2026-01-06 11:18:46.18	338.56	34.35	-50.5	-52.1	15.6	6.00e-01	0	29	0	905969664	70	4157
2026-01-06 11:18:47.18	338.53	34.09	-50.4	-52.0	15.6	6.03e-01	0	29	0	907542528	70	4128
2026-01-06 11:18:48.17	338.49	33.84	-50.5	-52.1	15.6	6.01e-01	0	29	0	909639680	70	4155
2026-01-06 11:18:49.17	338.45	33.59	-50.2	-51.8	15.5	6.01e-01	0	29	0	911736832	69	4245
2026-01-06 11:18:50.16	338.42	33.35	-50.2	-51.8	15.5	6.01e-01	0	29	0	913309696	69	4256
2026-01-06 11:18:51.16	338.38	33.10	-50.1	-51.7	15.6	6.02e-01	0	29	0	915406848	69	4212
2026-01-06 11:18:52.16	338.35	32.86	-50.0	-51.6	15.6	6.04e-01	0	29	0	916979712	69	4171
2026-01-06 11:18:53.16	338.31	32.61	-49.8	-51.4	15.5	6.02e-01	0	29	0	919076864	68	4300
2026-01-06 11:18:54.14	338.28	32.38	-49.9	-51.4	15.5	6.01e-01	0	29	0	920649728	68	4320
2026-01-06 11:18:55.13	338.25	32.14	-49.7	-51.2	15.6	6.00e-01	0	29	0	922746880	68	4203
2026-01-06 11:18:56.12	338.22	31.91	-49.6	-51.0	15.6	6.00e-01	0	29	0	924319744	68	4141
2026-01-06 11:18:57.11	338.19	31.68	-49.6	-51.1	15.6	6.00e-01	0	29	0	926416896	68	4176
2026-01-06 11:18:58.11	338.16	31.45	-49.7	-51.2	15.5	6.00e-01	0	29	0	927989760	68	4218
2026-01-06 11:18:59.10	338.13	31.22	-49.5	-51.1	15.6	6.03e-01	0	29	0	930086912	68	4146
2026-01-06 11:19:00.09	338.10	30.99	-49.5	-51.0	15.6	6.00e-01	0	29	0	932184064	68	4108
2026-01-06 11:19:01.08	338.07	30.77	-49.5	-51.0	15.6	6.02e-01	0	29	0	933756928	68	4107
2026-01-06 11:19:02.08	338.04	30.54	-49.6	-51.1	15.6	6.03e-01	0	29	0	935854080	68	4157
2026-01-06 11:19:03.07	338.01	30.32	-49.7	-51.3	15.6	6.00e-01	0	29	0	937426944	68	4266
2026-01-06 11:19:04.07	337.98	30.10	-49.8	-51.4	15.5	6.01e-01	0	29	0	939524096	68	4297
2026-01-06 11:19:05.06	337.95	29.88	-49.8	-51.4	15.5	6.02e-01	0	29	0	941096960	68	4302
2026-01-06 11:19:06.05	337.93	29.67	-49.9	-51.5	15.5	6.00e-01	0	29	0	943194112	68	4368
2026-01-06 11:19:07.05	337.90	29.45	-50.0	-51.6	15.5	5.99e-01	0	29	0	944766976	68	4406
2026-01-06 11:19:08.05	337.87	29.24	-50.1	-51.7	15.5	6.03e-01	0	29	0	946864128	68	4465
2026-01-06 11:19:09.03	337.85	29.03	-50.1	-51.7	15.4	6.02e-01	0	29	0	948961280	68	4489
2026-01-06 11:19:10.03	337.82	28.82	-50.2	-51.8	15.4	6.03e-01	0	29	0	950534144	68	4542
2026-01-06 11:19:11.02	337.80	28.61	-50.2	-51.8	15.4	6.02e-01	0	29	0	952631296	68	4526
2026-01-06 11:19:12.01	337.77	28.41	-50.1	-51.8	15.4	6.02e-01	0	29	0	954204160	68	4503
2026-01-06 11:19:13.00	337.75	28.21	-50.1	-51.7	15.4	6.01e-01	0	29	0	956301312	68	4469
2026-01-06 11:19:14.00	337.72	28.00	-50.0	-51.6	15.4	6.02e-01	0	29	0	957874176	68	4432
2026-01-06 11:19:14.99	337.70	27.80	-50.1	-51.7	15.4	6.03e-01	0	29	0	959971328	68	4473
2026-01-06 11:19:15.99	337.68	27.60	-50.1	-51.7	15.4	6.00e-01	0	29	0	961544192	68	4455
2026-01-06 11:19:16.98	337.65	27.40	-50.1	-51.7	15.4	6.01e-01	0	29	0	963641344	68	4452
2026-01-06 11:19:17.97	337.63	27.21	-50.0	-51.6	15.5	6.03e-01	0	29	0	965738496	68	4419
2026-01-06 11:19:18.96	337.61	27.01	-50.0	-51.6	15.5	6.02e-01	0	29	0	967311360	68	4392
2026-01-06 11:19:19.95	337.59	26.82	-50.0	-51.5	15.5	6.02e-01	0	29	0	969408512	68	4385
2026-01-06 11:19:20.94	337.57	26.63	-50.0	-51.5	15.5	6.02e-01	0	29	0	970981376	68	4390
2026-01-06 11:19:21.93	337.55	26.44	-49.9	-51.5	15.5	6.00e-01	0	29	0	973078528	68	4374
2026-01-06 11:19:22.92	337.52	26.25	-50.0	-51.5	15.5	6.00e-01	0	29	0	974651392	68	4373
2026-01-06 11:19:23.91	337.50	26.06	-50.1	-51.7	15.5	6.02e-01	0	29	0	976748544	68	4456
2026-01-06 11:19:24.90	337.48	25.88	-50.1	-51.7	15.5	6.00e-01	0	29	0	978321408	68	4453
2026-01-06 11:19:25.90	337.46	25.69	-50.1	-51.7	15.4	6.02e-01	0	29	0	980418560	68	4450
2026-01-06 11:19:26.89	337.44	25.51	-50.2	-51.9	15.4	6.02e-01	0	29	0	981991424	68	4549
2026-01-06 11:19:27.89	337.42	25.33	-50.4	-52.0	15.4	6.02e-01	0	29	0	984088576	68	4650
2026-01-06 11:19:28.88	337.41	25.15	-50.5	-52.2	15.3	5.98e-01	0	29	0	986185728	68	4744
2026-01-06 11:19:29.87	337.39	24.97	-50.7	-52.4	15.4	6.04e-01	0	29	0	987758592	69	4566
2026-01-06 11:19:30.87	337.37	24.79	-50.8	-52.6	15.4	6.00e-01	0	29	0	989855744	69	4663
2026-01-06 11:19:31.86	337.35	24.61	-50.9	-52.7	15.3	6.01e-01	0	29	0	991428608	69	4731
2026-01-06 11:19:32.85	337.33	24.44	-50.8	-52.6	15.3	6.02e-01	0	29	0	993525760	69	4663
2026-01-06 11:19:33.84	337.31	24.26	-50.9	-52.7	15.3	6.04e-01	0	29	0	995098624	69	4719
2026-01-06 11:19:34.83	337.30	24.09	-50.9	-52.6	15.3	6.02e-01	0	29	0	997195776	69	4703
2026-01-06 11:19:35.81	337.28	23.92	-50.8	-52.5	15.3	6.04e-01	0	29	0	998768640	69	4629
2026-01-06 11:19:36.79	337.26	23.75	-50.7	-52.4	15.4	6.01e-01	0	29	0	1000865792	69	4576
2026-01-06 11:19:37.78	337.25	23.58	-50.7	-52.4	15.4	6.03e-01	0	29	0	1002438656	69	4577
2026-01-06 11:19:38.77	337.23	23.42	-50.7	-52.4	15.4	6.01e-01	0	29	0	1004535808	69	4588
2026-01-06 11:19:39.76	337.21	23.25	-50.8	-52.5	15.4	6.03e-01	0	29	0	1006108672	69	4606
2026-01-06 11:19:40.75	337.20	23.08	-50.7	-52.4	15.4	6.05e-01	0	29	0	1008205824	69	4584
2026-01-06 11:19:41.74	337.18	22.92	-50.6	-52.3	15.4	6.01e-01	0	29	0	1010302976	69	4536
2026-01-06 11:19:42.73	337.16	22.76	-50.7	-52.3	15.4	5.97e-01	0	29	0	1011875840	69	4541
2026-01-06 11:19:43.72	337.15	22.59	-50.8	-52.5	15.4	6.05e-01	0	29	0	1013972992	69	4620
2026-01-06 11:19:44.71	337.13	22.43	-50.7	-52.3	15.4	6.02e-01	0	29	0	1015545856	69	4538
2026-01-06 11:19:45.69	337.12	22.28	-50.5	-52.2	15.4	6.04e-01	0	29	0	1017643008	69	4473
2026-01-06 11:19:46.68	337.10	22.12	-50.6	-52.3	15.4	6.02e-01	0	29	0	1019215872	69	4521
2026-01-06 11:19:47.68	337.09	21.96	-50.6	-52.3	15.4	6.01e-01	0	29	0	1021313024	69	4523
2026-01-06 11:19:48.67	337.08	21.80	-50.5	-52.2	15.4	6.02e-01	0	29	0	1022885888	69	4463
2026-01-06 11:19:49.66	337.06	21.65	-50.5	-52.2	15.4	6.02e-01	0	29	0	1024983040	69	4452
2026-01-06 11:19:50.65	337.05	21.49	-50.5	-52.2	15.4	6.02e-01	0	29	0	1026555904	69	4464
2026-01-06 11:19:51.64	337.03	21.34	-50.5	-52.2	15.4	6.01e-01	0	29	0	1028653056	69	4466
2026-01-06 11:19:52.63	337.02	21.19	-50.4	-52.1	15.4	6.02e-01	0	29	0	1030750208	69	4419
2026-01-06 11:19:53.63	337.01	21.03	-50.5	-52.1	15.4	6.02e-01	0	29	0	1032323072	69	4428
2026-01-06 11:19:54.62	336.99	20.88	-50.4	-52.1	15.5	6.00e-01	0	29	0	1034420224	69	4408
2026-01-06 11:19:55.62	336.98	20.73	-50.4	-52.1	15.5	5.99e-01	0	29	0	1035993088	69	4402
2026-01-06 11:19:56.61	336.97	20.58	-50.5	-52.2	15.4	6.01e-01	0	29	0	1038090240	69	4467
2026-01-06 11:19:57.61	336.95	20.43	-50.4	-52.1	15.5	6.02e-01	0	29	0	1039663104	69	4414
2026-01-06 11:19:58.61	336.94	20.29	-50.4	-52.0	15.5	6.00e-01	0	29	0	1041760256	69	4390
2026-01-06 11:19:59.60	336.93	20.14	-50.5	-52.2	15.5	6.01e-01	0	29	0	1043333120	69	4459
2026-01-06 11:20:00.59	336.92	19.99	-50.5	-52.1	15.4	6.03e-01	0	29	0	1045430272	69	4428
2026-01-06 11:20:01.58	336.90	19.85	-50.5	-52.2	15.4	6.01e-01	0	28	0	1047527424	69	4473
2026-01-06 11:20:02.57	336.89	19.71	-50.5	-52.2	15.4	6.02e-01	0	29	0	1049100288	69	4464
2026-01-06 11:20:03.56	336.88	19.57	-50.5	-52.2	15.4	6.03e-01	0	28	0	1051197440	69	4484
2026-01-06 11:20:04.55	336.87	19.43	-50.5	-52.2	15.4	6.00e-01	0	29	0	1052770304	69	4466
2026-01-06 11:20:05.54	336.86	19.28	-50.5	-52.2	15.4	6.00e-01	0	29	0	1054867456	69	4449
2026-01-06 11:20:06.54	336.84	19.14	-50.6	-52.3	15.4	5.99e-01	0	29	0	1056440320	69	4506
2026-01-06 11:20:07.53	336.83	19.01	-50.5	-52.2	15.4	6.02e-01	0	28	0	1058537472	69	4483
2026-01-06 11:20:08.52	336.82	18.87	-50.7	-52.4	15.4	6.03e-01	0	29	0	1060110336	69	4567
2026-01-06 11:20:09.52	336.81	18.73	-50.7	-52.4	15.4	6.03e-01	0	29	0	1062207488	69	4557
2026-01-06 11:20:10.52	336.80	18.59	-50.8	-52.5	15.4	6.01e-01	0	29	0	1064304640	69	4635
2026-01-06 11:20:11.51	336.79	18.46	-50.8	-52.6	15.3	6.02e-01	0	29	0	1065877504	69	4655
2026-01-06 11:20:12.50	336.78	18.32	-50.7	-52.4	15.4	6.02e-01	0	29	0	1067974656	69	4593
2026-01-06 11:20:13.49	336.77	18.19	-50.8	-52.6	15.3	6.04e-01	0	29	0	1069547520	69	4668
2026-01-06 11:20:14.48	336.76	18.06	-50.8	-52.6	15.3	6.01e-01	0	29	0	1071644672	69	4681
2026-01-06 11:20:15.47	336.75	17.92	-50.9	-52.6	15.3	6.01e-01	0	29	0	1073217536	69	4693
2026-01-06 11:20:16.46	336.74	17.79	-50.7	-52.4	15.4	6.00e-01	0	29	0	1075314688	69	4560
2026-01-06 11:20:17.46	336.73	17.66	-50.6	-52.3	15.4	6.02e-01	0	29	0	1076887552	69	4538
2026-01-06 11:20:18.46	336.72	17.53	-50.6	-52.3	15.4	6.02e-01	0	29	0	1078984704	69	4537
2026-01-06 11:20:19.46	336.71	17.40	-50.5	-52.3	15.4	6.00e-01	0	29	0	1080557568	69	4501
2026-01-06 11:20:20.46	336.70	17.27	-50.6	-52.4	15.4	6.03e-01	0	29	0	1082654720	69	4559
2026-01-06 11:20:21.45	336.69	17.14	-50.7	-52.4	15.4	6.01e-01	0	29	0	1084751872	69	4571
2026-01-06 11:20:22.44	336.68	17.02	-50.6	-52.3	15.4	6.03e-01	0	29	0	1086324736	69	4542
2026-01-06 11:20:23.43	336.67	16.89	-50.5	-52.2	15.4	6.04e-01	0	29	0	1088421888	69	4473
2026-01-06 11:20:24.42	336.66	16.77	-50.5	-52.3	15.4	6.01e-01	0	28	0	1089994752	69	4497
2026-01-06 11:20:25.42	336.65	16.64	-50.4	-52.1	15.4	6.00e-01	0	29	0	1092091904	69	4422
2026-01-06 11:20:26.41	336.65	16.52	-50.4	-52.1	15.5	6.02e-01	0	29	0	1093664768	69	4407
2026-01-06 11:20:27.40	336.64	16.39	-50.4	-52.1	15.4	6.03e-01	0	29	0	1095761920	69	4431
2026-01-06 11:20:28.40	336.63	16.27	-50.5	-52.2	15.4	6.01e-01	0	29	0	1097334784	69	4447
2026-01-06 11:20:29.40	336.62	16.15	-50.5	-52.2	15.4	6.01e-01	0	29	0	1099431936	69	4445
2026-01-06 11:20:30.40	336.61	16.02	-50.4	-52.1	15.5	6.03e-01	0	29	0	1101529088	69	4398
2026-01-06 11:20:31.39	336.60	15.90	-50.3	-52.0	15.5	6.00e-01	0	29	0	1103101952	69	4379
2026-01-06 11:20:32.38	336.60	15.78	-50.4	-52.1	15.4	6.03e-01	0	29	0	1105199104	69	4398
2026-01-06 11:20:33.38	336.59	15.66	-50.4	-52.1	15.4	6.01e-01	0	29	0	1106771968	69	4441
2026-01-06 11:20:34.37	336.58	15.54	-50.4	-52.1	15.4	6.00e-01	0	29	0	1108869120	69	4393
2026-01-06 11:20:35.37	336.57	15.43	-50.4	-52.1	15.4	6.01e-01	0	29	0	1110441984	69	4438
2026-01-06 11:20:36.36	336.56	15.31	-50.3	-52.0	15.4	6.02e-01	0	29	0	1112539136	69	4367
2026-01-06 11:20:37.34	336.56	15.19	-50.4	-52.1	15.4	5.99e-01	0	29	0	1114112000	69	4397
2026-01-06 11:20:38.34	336.55	15.08	-50.4	-52.1	15.5	5.98e-01	0	29	0	1116209152	69	4404
2026-01-06 11:20:39.34	336.54	14.96	-50.3	-52.0	15.5	6.01e-01	0	29	0	1118306304	69	4349
2026-01-06 11:20:40.32	336.53	14.84	-50.4	-52.0	15.4	6.03e-01	0	29	0	1119879168	69	4382
2026-01-06 11:20:41.32	336.53	14.73	-50.4	-52.1	15.4	6.01e-01	0	29	0	1121976320	69	4408
2026-01-06 11:20:42.31	336.52	14.62	-50.3	-51.9	15.5	6.03e-01	0	29	0	1123549184	69	4335
2026-01-06 11:20:43.30	336.51	14.50	-50.3	-51.9	15.5	6.04e-01	0	29	0	1125646336	69	4337
2026-01-06 11:20:44.30	336.51	14.39	-50.3	-52.0	15.5	6.01e-01	0	29	0	1127219200	69	4342
2026-01-06 11:20:45.29	336.50	14.28	-50.2	-51.9	15.5	6.02e-01	0	29	0	1129316352	69	4310
2026-01-06 11:20:46.29	336.49	14.17	-50.2	-51.9	15.5	6.02e-01	0	29	0	1130889216	69	4323
2026-01-06 11:20:47.28	336.48	14.05	-50.2	-51.9	15.5	6.00e-01	0	29	0	1132986368	69	4320
2026-01-06 11:20:48.28	336.48	13.94	-50.2	-51.9	15.5	6.00e-01	0	29	0	1135083520	69	4298
2026-01-06 11:20:49.27	336.47	13.83	-50.2	-51.9	15.5	6.02e-01	0	29	0	1136656384	69	4313
2026-01-06 11:20:50.25	336.47	13.73	-50.2	-51.9	15.5	6.03e-01	0	29	0	1138753536	69	4301
2026-01-06 11:20:51.25	336.46	13.62	-50.2	-51.8	15.5	6.02e-01	0	29	0	1140326400	69	4268
2026-01-06 11:20:52.25	336.45	13.51	-50.1	-51.8	15.5	6.02e-01	0	29	0	1142423552	69	4251
2026-01-06 11:20:53.24	336.45	13.40	-50.2	-51.8	15.5	6.01e-01	0	29	0	1143996416	69	4288
2026-01-06 11:20:54.23	336.44	13.29	-50.1	-51.7	15.5	6.02e-01	0	29	0	1146093568	69	4229
2026-01-06 11:20:55.22	336.43	13.19	-50.2	-51.9	15.5	6.01e-01	0	29	0	1147666432	69	4311
2026-01-06 11:20:56.21	336.43	13.08	-50.1	-51.8	15.5	5.97e-01	0	29	0	1149763584	69	4250
2026-01-06 11:20:57.20	336.42	12.97	-50.1	-51.7	15.5	6.01e-01	0	29	0	1151336448	69	4218
2026-01-06 11:20:58.20	336.42	12.87	-50.2	-51.8	15.5	5.99e-01	0	28	0	1153433600	69	4289
2026-01-06 11:20:59.19	336.41	12.76	-50.2	-51.8	15.5	6.02e-01	0	29	0	1155530752	69	4261
2026-01-06 11:21:00.18	336.41	12.66	-50.2	-51.8	15.5	6.06e-01	0	29	0	1157103616	69	4287
2026-01-06 11:21:01.17	336.40	12.56	-50.2	-51.9	15.5	6.04e-01	0	29	0	1159200768	69	4307
2026-01-06 11:21:02.16	336.39	12.45	-50.2	-51.8	15.5	6.03e-01	0	29	0	1160773632	69	4271
2026-01-06 11:21:03.15	336.39	12.35	-50.2	-51.9	15.5	6.03e-01	0	29	0	1162870784	69	4304
2026-01-06 11:21:04.15	336.38	12.25	-50.3	-51.9	15.5	6.00e-01	0	29	0	1164443648	69	4336
2026-01-06 11:21:05.14	336.38	12.15	-50.3	-52.0	15.5	6.00e-01	0	29	0	1166540800	69	4341
2026-01-06 11:21:06.14	336.37	12.04	-50.2	-51.9	15.5	6.04e-01	0	29	0	1168113664	69	4304
2026-01-06 11:21:07.14	336.37	11.94	-50.3	-52.0	15.5	6.03e-01	0	29	0	1170210816	69	4344
2026-01-06 11:21:08.13	336.36	11.84	-50.3	-52.0	15.5	5.99e-01	0	29	0	1172307968	69	4380
2026-01-06 11:21:09.12	336.36	11.74	-50.3	-52.0	15.5	6.02e-01	0	29	0	1173880832	69	4376
2026-01-06 11:21:10.12	336.35	11.64	-50.5	-52.2	15.2	6.00e-01	0	29	0	1175977984	69	4444
2026-01-06 11:21:11.11	336.35	11.54	-50.3	-52.0	15.4	6.03e-01	0	29	0	1177550848	69	4373
2026-01-06 11:21:12.10	336.34	11.45	-50.4	-52.1	15.4	6.03e-01	0	29	0	1179648000	69	4417
2026-01-06 11:21:13.09	336.34	11.35	-50.4	-52.1	15.4	6.01e-01	0	29	0	1181220864	69	4418
2026-01-06 11:21:14.09	336.33	11.25	-50.4	-52.2	15.4	6.02e-01	0	29	0	1183318016	69	4447
2026-01-06 11:21:15.08	336.33	11.15	-50.4	-52.2	15.4	6.03e-01	0	29	0	1184890880	69	4442
2026-01-06 11:21:16.07	336.32	11.06	-50.6	-52.4	15.4	6.00e-01	0	29	0	1186988032	69	4567
2026-01-06 11:21:17.07	336.32	10.96	-50.5	-52.2	15.4	6.01e-01	0	28	0	1189085184	69	4482
2026-01-06 11:21:18.06	336.32	10.86	-50.5	-52.2	15.4	6.03e-01	0	29	0	1190658048	69	4479
2026-01-06 11:21:19.05	336.31	10.77	-50.6	-52.4	15.4	6.03e-01	0	29	0	1192755200	69	4556
2026-01-06 11:21:20.04	336.31	10.67	-50.5	-52.2	15.4	6.01e-01	0	29	0	1194328064	69	4466
2026-01-06 11:21:21.03	336.30	10.58	-50.7	-52.4	15.4	6.01e-01	0	29	0	1196425216	69	4578
2026-01-06 11:21:22.02	336.30	10.48	-50.6	-52.4	15.4	6.04e-01	0	29	0	1197998080	69	4572
2026-01-06 11:21:23.01	336.29	10.39	-50.7	-52.5	15.3	6.04e-01	0	29	0	1200095232	69	4599
2026-01-06 11:21:24.00	336.29	10.30	-50.7	-52.5	15.3	6.00e-01	0	29	0	1201668096	69	4619
2026-01-06 11:21:24.99	336.29	10.20	-50.8	-52.6	15.3	6.03e-01	0	29	0	1203765248	69	4675
2026-01-06 11:21:25.99	336.28	10.11	-50.8	-52.6	15.3	6.03e-01	0	29	0	1205338112	69	4676
2026-01-06 11:21:26.98	336.28	10.02	-50.8	-52.6	15.3	6.01e-01	0	29	0	1207435264	69	4666
2026-01-06 11:21:27.98	336.27	9.93	-50.7	-52.5	15.3	6.02e-01	0	29	0	1209532416	69	4634
2026-01-06 11:21:28.97	336.27	9.83	-50.9	-52.8	15.3	6.05e-01	0	29	0	1211105280	69	4779
2026-01-06 11:21:29.97	336.27	9.74	-50.9	-52.7	15.3	6.03e-01	0	29	0	1213202432	69	4759
2026-01-06 11:21:30.96	336.26	9.65	-51.0	-52.8	15.3	6.02e-01	0	29	0	1214775296	69	4788
2026-01-06 11:21:31.95	336.26	9.56	-50.9	-52.8	15.3	6.02e-01	0	29	0	1216872448	69	4781
2026-01-06 11:21:32.94	336.26	9.47	-50.8	-52.6	15.3	6.02e-01	0	29	0	1218445312	69	4691
2026-01-06 11:21:33.93	336.25	9.38	-50.9	-52.7	15.3	6.03e-01	0	29	0	1220542464	69	4755
2026-01-06 11:21:34.93	336.25	9.29	-51.1	-52.9	15.2	6.01e-01	0	29	0	1222115328	69	4869
2026-01-06 11:21:35.92	336.25	9.20	-51.0	-52.9	15.2	6.05e-01	0	29	0	1224212480	69	4852
2026-01-06 11:21:36.91	336.24	9.12	-51.0	-52.9	15.4	5.99e-01	0	29	0	1225785344	70	4551
2026-01-06 11:21:37.89	336.24	9.03	-51.2	-53.1	15.3	6.02e-01	0	29	0	1227882496	70	4663
2026-01-06 11:21:38.89	336.24	8.94	-51.2	-53.1	15.3	6.01e-01	0	29	0	1229979648	70	4672
2026-01-06 11:21:39.88	336.23	8.85	-51.0	-52.9	15.3	6.03e-01	0	29	0	1231552512	70	4575
