passes_logs/2026/01/06/R3.2S_Murmansk/R3.2S_Murmansk__20260106_113750_FENGYUN_3D_rec.log

#Pass ID: 20260106_113750_FENGYUN 3D
#Satellite: FENGYUN 3D
#Configuration: FENGYUN 3D
#almurnet v.1.7.20251203
#Start time: 2026-01-06 11:37:52

#Version: 2.2.20231116
#Station: R3.2S_Murmansk
#Location: 33.079688 lon 68.888172 lat
#TLE: 1 43010U 17072A   26005.48915933 -.00000051  00000+0 -21983-5 0  9995
#TLE: 2 43010  98.9919 337.1582 0002001 124.6377 235.4988 14.19691925421909

#Time	Az	El	Level	Level2	SNR	BER	BlckErr	Temp	State	Recorded	gain1	gain2
2026-01-06 11:37:52.56	153.60	2.14	-58.4	-71.4	3.8	8.46e-01	0	26	0	0	83	15623
2026-01-06 11:37:53.56	153.61	2.21	-58.4	-71.4	3.8	8.47e-01	0	26	104	0	81	17524
2026-01-06 11:37:54.55	153.61	2.27	-58.3	-71.2	3.8	8.45e-01	0	26	104	0	81	17257
2026-01-06 11:37:55.53	153.62	2.34	-58.3	-71.2	3.8	8.46e-01	0	26	104	0	81	17260
2026-01-06 11:37:56.53	153.62	2.40	-58.3	-71.1	3.8	8.45e-01	0	26	104	0	81	17026
2026-01-06 11:37:57.53	153.63	2.47	-58.3	-71.0	3.8	8.45e-01	0	26	104	0	81	16721
2026-01-06 11:37:58.52	153.64	2.53	-58.3	-70.7	3.8	8.45e-01	0	26	104	0	81	16225
2026-01-06 11:37:59.51	153.64	2.59	-58.3	-70.6	3.8	8.45e-01	0	27	104	0	81	16092
2026-01-06 11:38:00.48	153.65	2.66	-58.3	-70.9	3.8	8.46e-01	0	27	104	0	81	16529
2026-01-06 11:38:01.47	153.65	2.72	-58.3	-70.3	3.8	8.44e-01	0	26	104	0	81	15533
2026-01-06 11:38:02.46	153.66	2.79	-58.3	-70.4	3.8	8.46e-01	0	27	104	0	81	15722
2026-01-06 11:38:03.45	153.67	2.85	-58.3	-70.5	3.8	8.44e-01	0	26	104	0	81	15909
2026-01-06 11:38:04.45	153.67	2.92	-58.3	-70.8	3.8	8.46e-01	0	27	104	0	81	16336
2026-01-06 11:38:05.44	153.68	2.99	-58.3	-70.7	3.8	8.46e-01	0	27	104	0	81	16231
2026-01-06 11:38:06.42	153.68	3.05	-58.4	-71.3	3.8	8.46e-01	0	27	104	0	81	17340
2026-01-06 11:38:07.42	153.69	3.12	-58.4	-71.4	3.8	8.44e-01	0	27	104	0	81	17563
2026-01-06 11:38:08.41	153.70	3.18	-58.4	-71.3	3.8	8.45e-01	0	27	104	0	81	17410
2026-01-06 11:38:09.40	153.70	3.25	-58.3	-70.7	3.8	8.45e-01	0	27	104	0	81	16270
2026-01-06 11:38:10.39	153.71	3.32	-58.2	-69.4	3.8	8.44e-01	0	27	104	0	81	13981
2026-01-06 11:38:11.38	153.71	3.38	-58.1	-68.1	4.2	8.40e-01	0	27	0	0	81	11957
2026-01-06 11:38:12.37	153.72	3.45	-57.9	-66.6	4.6	8.15e-01	0	27	0	0	81	10087
2026-01-06 11:38:13.37	153.73	3.52	-57.6	-65.1	5.3	7.34e-01	0	27	0	0	81	8468
2026-01-06 11:38:14.36	153.73	3.59	-57.4	-64.2	5.9	3.91e-01	0	27	0	3145728	81	7650
2026-01-06 11:38:15.36	153.74	3.65	-57.3	-63.9	6.1	3.38e-01	0	27	0	8388608	81	7372
2026-01-06 11:38:16.35	153.74	3.72	-57.1	-63.0	6.7	1.97e-01	0	27	0	13631488	80	7085
2026-01-06 11:38:17.34	153.75	3.79	-56.8	-62.1	7.4	1.23e-01	0	27	0	19922944	80	6410
2026-01-06 11:38:18.34	153.76	3.86	-56.5	-61.2	8.2	4.14e-02	0	27	0	25165824	79	6106
2026-01-06 11:38:19.33	153.76	3.93	-56.1	-60.4	8.9	1.94e-02	0	27	0	30408704	78	5906
2026-01-06 11:38:20.32	153.77	3.99	-56.1	-60.5	8.9	1.37e-02	0	27	0	36700160	78	5937
2026-01-06 11:38:21.32	153.77	4.06	-55.3	-58.8	10.2	3.18e-03	0	27	0	41943040	77	5171
2026-01-06 11:38:22.31	153.78	4.13	-55.2	-58.6	10.4	1.21e-03	0	27	0	47185920	76	5355
2026-01-06 11:38:23.31	153.79	4.20	-54.3	-57.2	11.3	1.10e-04	0	27	0	52428800	75	4863
2026-01-06 11:38:24.30	153.79	4.27	-54.0	-56.8	11.6	1.02e-04	0	27	0	58720256	74	4871
2026-01-06 11:38:25.30	153.80	4.34	-53.5	-56.0	12.1	1.10e-06	0	27	0	63963136	73	4707
2026-01-06 11:38:26.30	153.81	4.41	-53.2	-55.6	12.3	0.00e+00	0	27	0	70254592	73	4542
2026-01-06 11:38:27.29	153.81	4.48	-52.5	-54.7	12.8	2.20e-06	0	27	0	75497472	71	4585
2026-01-06 11:38:28.28	153.82	4.55	-52.3	-54.5	12.9	0.00e+00	0	27	0	80740352	70	4715
2026-01-06 11:38:29.27	153.82	4.62	-52.1	-54.2	13.0	1.10e-06	0	27	0	87031808	70	4567
2026-01-06 11:38:30.27	153.83	4.69	-52.1	-54.1	13.0	0.00e+00	0	27	0	92274688	70	4544
2026-01-06 11:38:31.26	153.84	4.76	-51.8	-53.7	13.2	0.00e+00	0	27	0	97517568	69	4595
2026-01-06 11:38:32.26	153.84	4.83	-52.5	-54.6	12.8	0.00e+00	0	27	0	103809024	70	4793
2026-01-06 11:38:33.26	153.85	4.90	-52.1	-54.2	13.1	0.00e+00	0	27	0	109051904	70	4556
2026-01-06 11:38:34.25	153.86	4.97	-52.0	-54.0	13.2	0.00e+00	0	27	0	114294784	70	4458
2026-01-06 11:38:35.23	153.86	5.04	-52.4	-54.6	12.8	0.00e+00	0	27	0	120586240	70	4761
2026-01-06 11:38:36.22	153.87	5.11	-52.3	-54.3	13.0	0.00e+00	0	27	0	125829120	70	4651
2026-01-06 11:38:37.23	153.87	5.19	-56.7	-61.6	7.8	2.72e-01	0	27	0	131072000	80	6060
2026-01-06 11:38:38.21	153.88	5.26	-50.2	-51.8	14.1	0.00e+00	0	27	0	137363456	67	4112
2026-01-06 11:38:39.21	153.89	5.33	-51.8	-53.7	13.4	0.00e+00	0	27	0	142606336	70	4293
2026-01-06 11:38:40.20	153.89	5.40	-55.3	-58.8	10.2	2.93e-03	0	28	0	147849216	76	5477
2026-01-06 11:38:41.18	153.90	5.47	-50.4	-52.1	13.9	0.00e+00	0	28	0	154140672	67	4246
2026-01-06 11:38:42.18	153.91	5.54	-50.2	-51.8	14.0	0.00e+00	0	28	0	159383552	66	4358
2026-01-06 11:38:43.17	153.91	5.62	-50.1	-51.8	14.0	0.00e+00	0	28	0	164626432	66	4357
2026-01-06 11:38:44.16	153.92	5.69	-49.7	-51.3	14.1	0.00e+00	0	28	0	170917888	65	4368
2026-01-06 11:38:45.16	153.93	5.76	-50.2	-51.8	13.9	0.00e+00	0	28	0	176160768	65	4644
2026-01-06 11:38:46.15	153.93	5.84	-50.1	-51.7	14.0	0.00e+00	0	28	0	181403648	65	4570
2026-01-06 11:38:47.14	153.94	5.91	-50.2	-51.8	13.9	0.00e+00	0	28	0	186646528	65	4628
2026-01-06 11:38:48.14	153.95	5.98	-50.2	-51.9	13.9	0.00e+00	0	28	0	192937984	65	4678
2026-01-06 11:38:49.13	153.95	6.06	-50.2	-51.8	13.9	0.00e+00	0	28	0	198180864	65	4641
2026-01-06 11:38:50.13	153.96	6.13	-49.8	-51.4	14.1	0.00e+00	0	28	0	204472320	65	4418
2026-01-06 11:38:51.12	153.96	6.21	-49.4	-51.0	14.3	0.00e+00	0	28	0	209715200	65	4197
2026-01-06 11:38:52.11	153.97	6.28	-49.9	-51.5	14.1	0.00e+00	0	28	0	214958080	65	4448
2026-01-06 11:38:53.11	153.98	6.36	-49.6	-51.2	14.2	0.00e+00	0	28	0	220200960	65	4315
2026-01-06 11:38:54.10	153.98	6.43	-49.8	-51.3	14.2	0.00e+00	0	28	0	226492416	65	4382
2026-01-06 11:38:55.09	153.99	6.51	-49.7	-51.2	14.2	0.00e+00	0	28	0	231735296	65	4335
2026-01-06 11:38:56.08	154.00	6.58	-49.6	-51.1	14.3	0.00e+00	0	28	0	236978176	65	4269
2026-01-06 11:38:57.07	154.00	6.66	-49.8	-51.3	14.2	0.00e+00	0	28	0	243269632	65	4378
2026-01-06 11:38:58.07	154.01	6.73	-49.8	-51.4	14.1	0.00e+00	0	28	0	248512512	65	4397
2026-01-06 11:38:59.06	154.02	6.81	-49.7	-51.3	14.2	0.00e+00	0	28	0	254803968	65	4342
2026-01-06 11:39:00.05	154.02	6.88	-49.9	-51.4	14.1	0.00e+00	0	28	0	260046848	65	4428
2026-01-06 11:39:01.04	154.03	6.96	-49.6	-51.2	14.3	0.00e+00	0	28	0	265289728	65	4298
2026-01-06 11:39:02.03	154.04	7.04	-49.6	-51.1	14.3	0.00e+00	0	28	0	270532608	65	4291
2026-01-06 11:39:03.02	154.04	7.11	-49.7	-51.2	14.2	0.00e+00	0	28	0	276824064	65	4336
2026-01-06 11:39:04.01	154.05	7.19	-49.7	-51.2	14.2	0.00e+00	0	28	0	282066944	65	4322
2026-01-06 11:39:05.00	154.06	7.27	-49.4	-50.9	14.4	0.00e+00	0	28	0	287309824	65	4188
2026-01-06 11:39:05.99	154.07	7.35	-49.5	-51.0	14.4	0.00e+00	0	28	0	293601280	65	4199
2026-01-06 11:39:06.98	154.07	7.42	-49.5	-51.0	14.3	0.00e+00	0	28	0	298844160	65	4224
2026-01-06 11:39:07.97	154.08	7.50	-49.4	-50.9	14.4	0.00e+00	0	28	0	304087040	65	4182
2026-01-06 11:39:08.96	154.09	7.58	-49.5	-51.1	14.3	0.00e+00	0	28	0	310378496	65	4243
2026-01-06 11:39:09.95	154.09	7.66	-49.4	-50.9	14.4	0.00e+00	0	28	0	315621376	65	4184
2026-01-06 11:39:10.94	154.10	7.74	-49.6	-51.1	14.3	0.00e+00	0	28	0	320864256	65	4271
2026-01-06 11:39:11.94	154.11	7.82	-49.5	-51.0	14.4	0.00e+00	0	28	0	326107136	65	4209
2026-01-06 11:39:12.92	154.11	7.90	-49.4	-50.9	14.4	0.00e+00	0	28	0	332398592	65	4157
2026-01-06 11:39:13.92	154.12	7.98	-49.5	-51.0	14.4	0.00e+00	0	28	0	337641472	65	4215
2026-01-06 11:39:14.91	154.13	8.06	-49.6	-51.1	14.3	0.00e+00	0	28	0	342884352	65	4256
2026-01-06 11:39:15.90	154.13	8.13	-49.4	-50.9	14.4	0.00e+00	0	28	0	349175808	65	4152
2026-01-06 11:39:16.89	154.14	8.22	-49.5	-51.0	14.3	0.00e+00	0	28	0	354418688	65	4228
2026-01-06 11:39:17.90	154.15	8.30	-49.4	-50.8	14.4	0.00e+00	0	28	0	359661568	65	4130
2026-01-06 11:39:18.88	154.16	8.38	-49.3	-50.8	14.5	0.00e+00	0	28	0	365953024	65	4104
2026-01-06 11:39:19.88	154.16	8.46	-49.3	-50.8	14.5	0.00e+00	0	28	0	371195904	65	4100
2026-01-06 11:39:20.88	154.17	8.54	-49.3	-50.7	14.5	0.00e+00	0	28	0	376438784	65	4094
2026-01-06 11:39:21.87	154.18	8.62	-49.3	-50.8	14.5	0.00e+00	0	28	0	382730240	65	4116
2026-01-06 11:39:22.86	154.18	8.70	-49.2	-50.7	14.5	0.00e+00	0	28	0	387973120	65	4080
2026-01-06 11:39:23.86	154.19	8.79	-49.3	-50.7	14.5	0.00e+00	0	28	0	393216000	65	4075
2026-01-06 11:39:24.85	154.20	8.87	-49.2	-50.7	14.5	0.00e+00	0	28	0	399507456	65	4067
2026-01-06 11:39:25.85	154.21	8.95	-49.3	-50.8	14.5	0.00e+00	0	28	0	404750336	65	4118
2026-01-06 11:39:26.84	154.21	9.04	-49.1	-50.5	14.5	0.00e+00	0	28	0	409993216	64	4215
2026-01-06 11:39:27.84	154.22	9.12	-49.1	-50.5	14.5	0.00e+00	0	28	0	416284672	64	4216
2026-01-06 11:39:28.84	154.23	9.20	-49.2	-50.7	14.4	0.00e+00	0	28	0	421527552	64	4302
2026-01-06 11:39:29.83	154.24	9.29	-49.2	-50.7	14.4	0.00e+00	0	28	0	427819008	64	4303
2026-01-06 11:39:30.82	154.24	9.37	-49.1	-50.5	14.5	0.00e+00	0	28	0	433061888	64	4242
2026-01-06 11:39:31.82	154.25	9.46	-49.1	-50.5	14.5	0.00e+00	0	28	0	438304768	64	4236
2026-01-06 11:39:32.81	154.26	9.54	-49.0	-50.4	14.6	0.00e+00	0	28	0	443547648	64	4187
2026-01-06 11:39:33.80	154.26	9.63	-49.2	-50.7	14.4	0.00e+00	0	28	0	449839104	64	4296
2026-01-06 11:39:34.80	154.27	9.71	-49.3	-50.7	14.4	0.00e+00	0	28	0	455081984	64	4327
2026-01-06 11:39:35.80	154.28	9.80	-49.4	-50.9	14.4	0.00e+00	0	28	0	460324864	64	4400
2026-01-06 11:39:36.79	154.29	9.88	-49.3	-50.8	14.4	0.00e+00	0	28	0	466616320	64	4365
2026-01-06 11:39:37.79	154.30	9.97	-49.2	-50.6	14.5	0.00e+00	0	28	0	471859200	64	4272
2026-01-06 11:39:38.78	154.30	10.06	-49.0	-50.5	14.5	0.00e+00	0	28	0	478150656	64	4200
2026-01-06 11:39:39.77	154.31	10.14	-48.9	-50.3	14.6	0.00e+00	0	28	0	483393536	64	4120
2026-01-06 11:39:40.76	154.32	10.23	-48.9	-50.3	14.6	0.00e+00	0	28	0	488636416	64	4121
2026-01-06 11:39:41.75	154.33	10.32	-48.8	-50.2	14.7	0.00e+00	0	28	0	493879296	64	4077
2026-01-06 11:39:42.74	154.33	10.40	-49.0	-50.4	14.6	0.00e+00	0	28	0	500170752	64	4153
2026-01-06 11:39:43.74	154.34	10.49	-48.9	-50.3	14.6	0.00e+00	0	28	0	505413632	64	4114
2026-01-06 11:39:44.74	154.35	10.58	-48.9	-50.3	14.7	0.00e+00	0	28	0	510656512	64	4107
2026-01-06 11:39:45.73	154.36	10.67	-48.8	-50.2	14.7	0.00e+00	0	28	0	516947968	64	4095
2026-01-06 11:39:46.72	154.36	10.76	-48.8	-50.2	14.7	0.00e+00	0	28	0	522190848	64	4098
2026-01-06 11:39:47.72	154.37	10.85	-48.8	-50.2	14.7	0.00e+00	0	28	0	528482304	64	4065
2026-01-06 11:39:48.71	154.38	10.94	-48.8	-50.2	14.7	0.00e+00	0	28	0	533725184	64	4084
2026-01-06 11:39:49.71	154.39	11.03	-48.8	-50.2	14.7	0.00e+00	0	28	0	538968064	64	4091
2026-01-06 11:39:50.70	154.40	11.12	-48.9	-50.3	14.6	0.00e+00	0	28	0	544210944	64	4119
2026-01-06 11:39:51.69	154.40	11.21	-48.7	-50.1	14.7	0.00e+00	0	28	0	550502400	64	4042
2026-01-06 11:39:52.68	154.41	11.30	-48.8	-50.2	14.7	0.00e+00	0	29	0	555745280	64	4055
2026-01-06 11:39:53.67	154.42	11.39	-48.9	-50.3	14.6	0.00e+00	0	28	0	560988160	64	4122
2026-01-06 11:39:54.66	154.43	11.48	-48.7	-50.1	14.7	0.00e+00	0	28	0	567279616	64	4018
2026-01-06 11:39:55.66	154.43	11.58	-48.8	-50.1	14.7	0.00e+00	0	28	0	572522496	64	4051
2026-01-06 11:39:56.65	154.44	11.67	-48.8	-50.1	14.7	0.00e+00	0	28	0	577765376	64	4046
2026-01-06 11:39:57.65	154.45	11.76	-48.9	-50.3	14.6	0.00e+00	0	28	0	584056832	64	4138
2026-01-06 11:39:58.64	154.46	11.85	-48.9	-50.3	14.6	0.00e+00	0	28	0	589299712	64	4106
2026-01-06 11:39:59.63	154.47	11.95	-48.7	-50.1	14.6	0.00e+00	0	28	0	594542592	63	4251
2026-01-06 11:40:00.62	154.47	12.04	-48.6	-50.0	14.7	0.00e+00	0	28	0	600834048	63	4210
2026-01-06 11:40:01.61	154.48	12.14	-48.6	-50.0	14.7	0.00e+00	0	28	0	606076928	63	4210
2026-01-06 11:40:02.60	154.49	12.23	-48.6	-50.0	14.7	0.00e+00	0	28	0	611319808	63	4227
2026-01-06 11:40:03.59	154.50	12.32	-48.5	-49.9	14.7	0.00e+00	0	28	0	617611264	63	4168
2026-01-06 11:40:04.57	154.51	12.42	-48.5	-49.8	14.7	0.00e+00	0	28	0	622854144	63	4139
2026-01-06 11:40:05.56	154.52	12.51	-48.5	-49.8	14.7	0.00e+00	0	28	0	628097024	63	4134
2026-01-06 11:40:06.55	154.52	12.61	-48.5	-49.8	14.7	0.00e+00	0	28	0	633339904	63	4122
2026-01-06 11:40:07.54	154.53	12.71	-48.4	-49.7	14.8	0.00e+00	0	29	0	639631360	63	4091
2026-01-06 11:40:08.53	154.54	12.80	-48.4	-49.7	14.8	0.00e+00	0	28	0	644874240	63	4085
2026-01-06 11:40:09.51	154.55	12.90	-48.3	-49.7	14.8	0.00e+00	0	28	0	650117120	63	4065
2026-01-06 11:40:10.50	154.56	13.00	-48.4	-49.7	14.8	0.00e+00	0	28	0	656408576	63	4087
2026-01-06 11:40:11.49	154.57	13.09	-48.4	-49.8	14.8	0.00e+00	0	28	0	661651456	63	4099
2026-01-06 11:40:12.49	154.57	13.19	-48.1	-49.4	14.8	0.00e+00	0	28	0	666894336	62	4193
2026-01-06 11:40:13.48	154.58	13.29	-48.1	-49.4	14.8	0.00e+00	0	28	0	673185792	62	4179
2026-01-06 11:40:14.48	154.59	13.39	-48.1	-49.4	14.8	0.00e+00	0	28	0	678428672	62	4188
2026-01-06 11:40:15.47	154.60	13.49	-48.0	-49.3	14.8	0.00e+00	0	29	0	683671552	62	4137
2026-01-06 11:40:16.46	154.61	13.59	-47.9	-49.2	14.9	0.00e+00	0	29	0	689963008	62	4078
2026-01-06 11:40:17.46	154.62	13.69	-48.0	-49.3	14.9	0.00e+00	0	28	0	695205888	62	4108
2026-01-06 11:40:18.44	154.63	13.79	-47.9	-49.2	14.9	0.00e+00	0	29	0	700448768	62	4058
2026-01-06 11:40:19.44	154.64	13.89	-47.7	-49.0	15.0	0.00e+00	0	28	0	706740224	62	3974
2026-01-06 11:40:20.44	154.64	13.99	-47.7	-48.9	14.9	0.00e+00	0	28	0	711983104	61	4190
2026-01-06 11:40:21.44	154.65	14.10	-47.6	-48.9	14.9	0.00e+00	0	28	0	717225984	61	4173
2026-01-06 11:40:22.43	154.66	14.20	-47.6	-48.9	14.9	0.00e+00	0	29	0	723517440	61	4160
2026-01-06 11:40:23.43	154.67	14.30	-47.7	-49.0	14.9	0.00e+00	0	28	0	728760320	61	4200
2026-01-06 11:40:24.42	154.68	14.41	-47.6	-48.9	14.9	0.00e+00	0	29	0	734003200	61	4147
2026-01-06 11:40:25.42	154.69	14.51	-47.4	-48.7	15.0	0.00e+00	0	28	0	740294656	61	4072
2026-01-06 11:40:26.41	154.70	14.61	-47.4	-48.7	15.0	0.00e+00	0	29	0	745537536	61	4061
2026-01-06 11:40:27.41	154.71	14.72	-47.5	-48.8	15.0	0.00e+00	0	29	0	751828992	61	4104
2026-01-06 11:40:28.40	154.72	14.83	-47.4	-48.6	15.0	0.00e+00	0	29	0	757071872	61	4040
2026-01-06 11:40:29.38	154.72	14.93	-47.3	-48.6	15.0	0.00e+00	0	29	0	762314752	61	4017
2026-01-06 11:40:30.38	154.73	15.04	-47.4	-48.6	15.0	0.00e+00	0	29	0	767557632	61	4033
2026-01-06 11:40:31.37	154.74	15.14	-47.3	-48.6	15.0	0.00e+00	0	29	0	773849088	61	4017
2026-01-06 11:40:32.36	154.75	15.25	-47.4	-48.6	15.0	0.00e+00	0	29	0	779091968	61	4036
2026-01-06 11:40:33.35	154.76	15.36	-47.3	-48.6	15.0	0.00e+00	0	29	0	784334848	61	4023
2026-01-06 11:40:34.35	154.77	15.47	-47.3	-48.6	15.0	0.00e+00	0	28	0	790626304	61	4022
2026-01-06 11:40:35.35	154.78	15.57	-47.3	-48.5	15.0	0.00e+00	0	28	0	795869184	61	3999
2026-01-06 11:40:36.34	154.79	15.68	-47.3	-48.5	15.0	0.00e+00	0	29	0	801112064	61	3992
2026-01-06 11:40:37.33	154.80	15.79	-47.3	-48.5	15.1	0.00e+00	0	29	0	807403520	61	3999
2026-01-06 11:40:38.33	154.81	15.90	-47.2	-48.5	15.1	0.00e+00	0	29	0	812646400	61	3989
2026-01-06 11:40:39.32	154.82	16.01	-47.2	-48.5	15.1	0.00e+00	0	29	0	817889280	61	3973
2026-01-06 11:40:40.31	154.83	16.12	-47.3	-48.5	15.1	0.00e+00	0	29	0	824180736	61	4001
2026-01-06 11:40:41.30	154.84	16.23	-47.3	-48.6	15.0	0.00e+00	0	29	0	829423616	61	4011
2026-01-06 11:40:42.30	154.85	16.35	-47.2	-48.4	15.1	0.00e+00	0	28	0	834666496	61	3958
2026-01-06 11:40:43.30	154.86	16.46	-47.1	-48.4	15.0	0.00e+00	0	29	0	840957952	60	4161
2026-01-06 11:40:44.29	154.87	16.57	-47.2	-48.5	14.9	0.00e+00	0	29	0	846200832	60	4213
2026-01-06 11:40:45.29	154.88	16.69	-47.2	-48.5	14.9	0.00e+00	0	29	0	851443712	60	4223
2026-01-06 11:40:46.28	154.89	16.80	-47.1	-48.4	15.0	0.00e+00	0	29	0	857735168	60	4157
2026-01-06 11:40:47.27	154.90	16.92	-47.3	-48.6	14.9	0.00e+00	0	29	0	862978048	60	4247
2026-01-06 11:40:48.27	154.91	17.03	-47.1	-48.4	15.0	0.00e+00	0	29	0	868220928	60	4166
2026-01-06 11:40:49.26	154.92	17.15	-47.1	-48.4	15.0	0.00e+00	0	29	0	874512384	60	4172
2026-01-06 11:40:50.26	154.93	17.26	-47.1	-48.4	15.0	0.00e+00	0	29	0	879755264	60	4179
2026-01-06 11:40:51.25	154.94	17.38	-47.1	-48.3	15.0	0.00e+00	0	29	0	884998144	60	4130
2026-01-06 11:40:52.25	154.95	17.50	-47.1	-48.3	15.0	0.00e+00	0	29	0	891289600	60	4138
2026-01-06 11:40:53.24	154.96	17.62	-47.2	-48.5	15.0	0.00e+00	0	29	0	896532480	60	4202
2026-01-06 11:40:54.23	154.97	17.73	-47.0	-48.3	15.0	0.00e+00	0	29	0	901775360	60	4121
2026-01-06 11:40:55.22	154.98	17.85	-47.1	-48.4	15.0	0.00e+00	0	29	0	908066816	60	4146
2026-01-06 11:40:56.21	154.99	17.97	-47.0	-48.2	15.0	0.00e+00	0	29	0	913309696	60	4097
2026-01-06 11:40:57.20	155.00	18.09	-47.1	-48.4	15.0	0.00e+00	0	29	0	918552576	60	4153
2026-01-06 11:40:58.19	155.01	18.21	-47.0	-48.3	15.0	0.00e+00	0	29	0	923795456	60	4101
2026-01-06 11:40:59.19	155.02	18.33	-47.1	-48.3	15.0	0.00e+00	0	29	0	930086912	60	4140
2026-01-06 11:41:00.18	155.03	18.46	-46.9	-48.2	15.1	0.00e+00	0	29	0	935329792	60	4067
2026-01-06 11:41:01.17	155.04	18.58	-47.0	-48.2	15.1	0.00e+00	0	28	0	941621248	60	4076
2026-01-06 11:41:02.16	155.05	18.70	-46.8	-48.1	15.1	0.00e+00	0	29	0	946864128	60	4015
2026-01-06 11:41:03.15	155.06	18.82	-47.0	-48.3	14.9	0.00e+00	0	29	0	952107008	59	4363
2026-01-06 11:41:04.14	155.07	18.95	-47.1	-48.4	14.9	0.00e+00	0	29	0	957349888	59	4399
2026-01-06 11:41:05.13	155.08	19.07	-47.2	-48.5	14.9	0.00e+00	0	29	0	963641344	59	4459
2026-01-06 11:41:06.12	155.09	19.20	-47.0	-48.3	14.9	0.00e+00	0	29	0	968884224	59	4377
2026-01-06 11:41:07.11	155.11	19.33	-47.0	-48.3	15.0	0.00e+00	0	29	0	974127104	59	4341
2026-01-06 11:41:08.10	155.12	19.45	-46.9	-48.1	15.0	0.00e+00	0	29	0	980418560	59	4275
2026-01-06 11:41:09.09	155.13	19.58	-46.9	-48.1	15.0	0.00e+00	0	29	0	985661440	59	4278
2026-01-06 11:41:10.09	155.14	19.71	-46.9	-48.2	15.0	0.00e+00	0	29	0	990904320	59	4302
2026-01-06 11:41:11.09	155.15	19.84	-46.9	-48.2	15.0	0.00e+00	0	29	0	997195776	59	4310
2026-01-06 11:41:12.09	155.16	19.97	-46.8	-48.1	15.0	0.00e+00	0	29	0	1002438656	59	4266
2026-01-06 11:41:13.08	155.17	20.10	-46.8	-48.1	15.0	0.00e+00	0	29	0	1007681536	59	4269
2026-01-06 11:41:14.07	155.18	20.23	-46.9	-48.1	15.0	0.00e+00	0	29	0	1013972992	59	4290
2026-01-06 11:41:15.07	155.20	20.36	-46.9	-48.2	15.0	0.00e+00	0	29	0	1019215872	59	4295
2026-01-06 11:41:16.07	155.21	20.50	-46.8	-48.1	15.0	0.00e+00	0	29	0	1024458752	59	4274
2026-01-06 11:41:17.06	155.22	20.63	-46.9	-48.2	15.0	0.00e+00	0	29	0	1030750208	59	4294
2026-01-06 11:41:18.05	155.23	20.76	-46.9	-48.2	15.0	0.00e+00	0	29	0	1035993088	59	4300
2026-01-06 11:41:19.05	155.24	20.90	-46.8	-48.1	15.0	0.00e+00	0	29	0	1041235968	59	4273
2026-01-06 11:41:20.03	155.25	21.03	-46.9	-48.2	15.0	0.00e+00	0	29	0	1047527424	59	4292
2026-01-06 11:41:21.04	155.27	21.17	-46.8	-48.1	15.0	0.00e+00	0	29	0	1052770304	59	4261
2026-01-06 11:41:22.05	155.28	21.31	-46.9	-48.1	15.0	0.00e+00	0	29	0	1058013184	59	4289
2026-01-06 11:41:23.04	155.29	21.44	-46.7	-48.0	15.0	0.00e+00	0	29	0	1064304640	59	4229
2026-01-06 11:41:24.03	155.30	21.58	-46.8	-48.0	15.0	0.00e+00	0	29	0	1069547520	59	4242
2026-01-06 11:41:25.03	155.32	21.72	-46.9	-48.1	15.0	0.00e+00	0	29	0	1074790400	59	4276
2026-01-06 11:41:26.02	155.33	21.86	-46.8	-48.1	15.0	0.00e+00	0	29	0	1081081856	59	4260
2026-01-06 11:41:27.01	155.34	22.00	-46.9	-48.2	15.0	0.00e+00	0	29	0	1086324736	59	4301
2026-01-06 11:41:28.00	155.35	22.14	-46.8	-48.0	15.0	0.00e+00	0	29	0	1091567616	59	4227
2026-01-06 11:41:29.00	155.37	22.29	-46.8	-48.1	15.0	0.00e+00	0	29	0	1097859072	59	4244
2026-01-06 11:41:29.99	155.38	22.43	-46.5	-47.8	15.1	0.00e+00	0	29	0	1103101952	59	4100
2026-01-06 11:41:30.98	155.39	22.57	-46.5	-47.7	15.1	0.00e+00	0	29	0	1108344832	59	4077
2026-01-06 11:41:31.98	155.40	22.72	-46.4	-47.6	15.2	0.00e+00	0	29	0	1114636288	59	4043
2026-01-06 11:41:32.97	155.42	22.86	-46.4	-47.6	15.2	0.00e+00	0	29	0	1119879168	59	4051
2026-01-06 11:41:33.96	155.43	23.01	-46.3	-47.5	15.2	0.00e+00	0	29	0	1126170624	59	3998
2026-01-06 11:41:34.95	155.44	23.15	-46.3	-47.5	15.2	0.00e+00	0	29	0	1131413504	59	4004
2026-01-06 11:41:35.94	155.46	23.30	-46.3	-47.5	15.2	0.00e+00	0	29	0	1136656384	59	3964
2026-01-06 11:41:36.94	155.47	23.45	-46.1	-47.3	15.2	0.00e+00	0	29	0	1141899264	58	4109
2026-01-06 11:41:37.93	155.48	23.60	-46.1	-47.3	15.2	0.00e+00	0	29	0	1148190720	58	4105
2026-01-06 11:41:38.93	155.50	23.75	-46.1	-47.3	15.2	0.00e+00	0	29	0	1153433600	58	4145
2026-01-06 11:41:39.92	155.51	23.90	-46.1	-47.2	15.2	0.00e+00	0	29	0	1158676480	58	4096
2026-01-06 11:41:40.92	155.52	24.06	-46.1	-47.4	15.1	0.00e+00	0	29	0	1164967936	58	4147
2026-01-06 11:41:41.92	155.54	24.21	-46.1	-47.3	15.2	0.00e+00	0	29	0	1170210816	58	4121
2026-01-06 11:41:42.91	155.55	24.36	-46.2	-47.4	15.1	0.00e+00	0	29	0	1176502272	58	4159
2026-01-06 11:41:43.91	155.57	24.52	-46.2	-47.4	15.1	0.00e+00	0	29	0	1181745152	58	4192
2026-01-06 11:41:44.91	155.58	24.68	-46.2	-47.4	15.2	0.00e+00	0	29	0	1186988032	58	4168
2026-01-06 11:41:45.91	155.59	24.83	-46.3	-47.5	15.1	0.00e+00	0	29	0	1192230912	58	4219
2026-01-06 11:41:46.90	155.61	24.99	-46.3	-47.5	15.1	0.00e+00	0	29	0	1198522368	58	4231
2026-01-06 11:41:47.89	155.62	25.15	-46.3	-47.5	15.1	0.00e+00	0	29	0	1203765248	58	4236
2026-01-06 11:41:48.89	155.64	25.31	-46.3	-47.6	15.1	0.00e+00	0	29	0	1209008128	58	4247
2026-01-06 11:41:49.88	155.65	25.47	-46.3	-47.6	15.1	0.00e+00	0	29	0	1215299584	58	4254
2026-01-06 11:41:50.87	155.67	25.63	-46.3	-47.5	15.1	0.00e+00	0	29	0	1220542464	58	4236
2026-01-06 11:41:51.86	155.68	25.79	-46.4	-47.6	15.1	0.00e+00	0	29	0	1226833920	58	4261
2026-01-06 11:41:52.85	155.70	25.96	-46.3	-47.5	15.1	0.00e+00	0	29	0	1232076800	58	4221
2026-01-06 11:41:53.85	155.71	26.12	-46.3	-47.5	15.1	0.00e+00	0	29	0	1237319680	58	4220
2026-01-06 11:41:54.84	155.73	26.29	-46.3	-47.5	15.1	0.00e+00	0	29	0	1242562560	58	4218
2026-01-06 11:41:55.83	155.74	26.45	-46.1	-47.3	15.2	0.00e+00	0	29	0	1248854016	58	4127
2026-01-06 11:41:56.82	155.76	26.62	-46.1	-47.3	15.2	0.00e+00	0	29	0	1254096896	58	4133
2026-01-06 11:41:57.82	155.77	26.79	-46.2	-47.4	15.1	0.00e+00	0	29	0	1259339776	58	4171
2026-01-06 11:41:58.81	155.79	26.96	-46.1	-47.3	15.2	0.00e+00	0	29	0	1265631232	58	4123
2026-01-06 11:41:59.81	155.80	27.13	-46.1	-47.4	15.2	0.00e+00	0	29	0	1270874112	58	4152
2026-01-06 11:42:00.80	155.82	27.30	-46.1	-47.3	15.2	0.00e+00	0	29	0	1276116992	58	4123
2026-01-06 11:42:01.79	155.84	27.48	-46.1	-47.3	15.2	0.00e+00	0	29	0	1282408448	58	4111
2026-01-06 11:42:02.79	155.85	27.65	-46.0	-47.2	15.2	0.00e+00	0	29	0	1287651328	58	4092
2026-01-06 11:42:03.78	155.87	27.83	-45.9	-47.1	15.2	0.00e+00	0	29	0	1292894208	58	4047
2026-01-06 11:42:04.77	155.88	28.00	-45.9	-47.1	15.2	0.00e+00	0	29	0	1299185664	58	4032
2026-01-06 11:42:05.76	155.90	28.18	-45.8	-47.0	15.3	0.00e+00	0	29	0	1304428544	58	3971
2026-01-06 11:42:06.75	155.92	28.36	-45.8	-47.0	15.3	0.00e+00	0	29	0	1309671424	58	3998
2026-01-06 11:42:07.75	155.93	28.54	-45.8	-47.0	15.3	0.00e+00	0	29	0	1315962880	58	3984
2026-01-06 11:42:08.74	155.95	28.72	-45.8	-47.1	15.3	0.00e+00	0	29	0	1321205760	58	4005
2026-01-06 11:42:09.74	155.97	28.90	-45.9	-47.1	15.2	0.00e+00	0	29	0	1326448640	58	4032
2026-01-06 11:42:10.73	155.99	29.08	-45.9	-47.1	15.3	0.00e+00	0	29	0	1332740096	58	4028
2026-01-06 11:42:11.71	156.00	29.27	-45.9	-47.1	15.3	0.00e+00	0	29	0	1337982976	58	4031
2026-01-06 11:42:12.70	156.02	29.45	-46.0	-47.2	15.2	0.00e+00	0	29	0	1343225856	58	4058
2026-01-06 11:42:13.69	156.04	29.64	-45.8	-47.1	15.3	0.00e+00	0	29	0	1348468736	58	4007
2026-01-06 11:42:14.69	156.06	29.83	-46.0	-47.2	15.2	0.00e+00	0	29	0	1354760192	58	4069
2026-01-06 11:42:15.67	156.07	30.01	-45.9	-47.1	15.2	0.00e+00	0	29	0	1360003072	58	4051
2026-01-06 11:42:16.66	156.09	30.20	-45.9	-47.1	15.3	0.00e+00	0	29	0	1365245952	58	4019
2026-01-06 11:42:17.65	156.11	30.39	-45.9	-47.1	15.3	0.00e+00	0	29	0	1371537408	58	4026
2026-01-06 11:42:18.64	156.13	30.59	-45.9	-47.2	15.2	0.00e+00	0	29	0	1376780288	58	4055
2026-01-06 11:42:19.63	156.15	30.78	-45.9	-47.1	15.3	0.00e+00	0	29	0	1382023168	58	4008
2026-01-06 11:42:20.62	156.17	30.98	-46.0	-47.2	15.2	0.00e+00	0	29	0	1388314624	58	4057
2026-01-06 11:42:21.61	156.19	31.17	-46.0	-47.2	15.2	0.00e+00	0	29	0	1393557504	58	4063
2026-01-06 11:42:22.60	156.21	31.37	-45.9	-47.1	15.2	0.00e+00	0	29	0	1398800384	58	4034
2026-01-06 11:42:23.59	156.23	31.57	-45.9	-47.1	15.3	0.00e+00	0	29	0	1405091840	58	4021
2026-01-06 11:42:24.58	156.25	31.77	-45.9	-47.1	15.3	0.00e+00	0	29	0	1410334720	58	4017
2026-01-06 11:42:25.57	156.27	31.97	-45.7	-46.9	15.3	0.00e+00	0	29	0	1415577600	58	3925
2026-01-06 11:42:26.56	156.29	32.17	-45.6	-46.8	15.2	0.00e+00	0	29	0	1420820480	57	4118
2026-01-06 11:42:27.55	156.31	32.38	-45.5	-46.7	15.3	0.00e+00	0	29	0	1427111936	57	4085
2026-01-06 11:42:28.54	156.33	32.58	-45.6	-46.7	15.3	0.00e+00	0	29	0	1432354816	57	4098
2026-01-06 11:42:29.53	156.35	32.79	-45.7	-46.9	15.2	0.00e+00	0	29	0	1438646272	57	4158
2026-01-06 11:42:30.52	156.37	33.00	-45.7	-46.9	15.2	0.00e+00	0	29	0	1443889152	57	4182
2026-01-06 11:42:31.52	156.39	33.21	-45.8	-47.0	15.2	0.00e+00	0	29	0	1449132032	57	4221
2026-01-06 11:42:32.51	156.41	33.42	-45.8	-47.1	15.2	0.00e+00	0	29	0	1455423488	57	4246
2026-01-06 11:42:33.50	156.43	33.64	-45.7	-46.9	15.2	0.00e+00	0	29	0	1460666368	57	4185
2026-01-06 11:42:34.49	156.46	33.85	-45.7	-46.9	15.2	0.00e+00	0	29	0	1465909248	57	4160
2026-01-06 11:42:35.49	156.48	34.07	-45.6	-46.8	15.2	0.00e+00	0	29	0	1471152128	57	4132
2026-01-06 11:42:36.48	156.50	34.29	-45.6	-46.8	15.2	0.00e+00	0	29	0	1477443584	57	4104
2026-01-06 11:42:37.47	156.52	34.51	-45.7	-46.9	15.2	0.00e+00	0	29	0	1482686464	57	4158
2026-01-06 11:42:38.47	156.55	34.73	-45.5	-46.6	15.3	0.00e+00	0	29	0	1488977920	57	4038
2026-01-06 11:42:39.47	156.57	34.96	-45.3	-46.5	15.3	0.00e+00	0	29	0	1494220800	57	3994
2026-01-06 11:42:40.46	156.59	35.18	-45.4	-46.6	15.3	0.00e+00	0	29	0	1499463680	57	4015
2026-01-06 11:42:41.45	156.62	35.41	-45.3	-46.5	15.3	0.00e+00	0	29	0	1504706560	57	3985
2026-01-06 11:42:42.63	156.64	35.68	-45.3	-46.5	15.3	0.00e+00	0	29	0	1510998016	57	3993
2026-01-06 11:42:43.47	156.67	35.87	-45.3	-46.5	15.3	0.00e+00	0	29	0	1515192320	57	3990
2026-01-06 11:42:44.60	156.69	36.13	-45.3	-46.5	15.4	0.00e+00	0	29	0	1521483776	57	3963
2026-01-06 11:42:45.46	156.72	36.34	-45.3	-46.5	15.3	0.00e+00	0	29	0	1526726656	57	3978
2026-01-06 11:42:46.59	156.74	36.60	-45.2	-46.4	15.4	0.00e+00	0	29	0	1533018112	57	3914
2026-01-06 11:42:47.45	156.77	36.81	-45.1	-46.2	15.3	0.00e+00	0	29	0	1538260992	56	4082
2026-01-06 11:42:48.60	156.80	37.08	-45.1	-46.3	15.3	0.00e+00	0	29	0	1544552448	56	4122
2026-01-06 11:42:49.45	156.82	37.29	-45.2	-46.4	15.2	0.00e+00	0	29	0	1548746752	56	4158
2026-01-06 11:42:50.58	156.85	37.56	-45.5	-46.5	15.2	0.00e+00	0	29	0	1555038208	56	4231
2026-01-06 11:42:51.43	156.87	37.77	-45.5	-46.5	15.2	0.00e+00	0	29	0	1560281088	56	4219
2026-01-06 11:42:52.56	156.90	38.05	-45.5	-46.5	15.2	0.00e+00	0	29	0	1566572544	56	4239
2026-01-06 11:42:53.41	156.93	38.26	-45.4	-46.5	15.2	0.00e+00	0	29	0	1571815424	56	4197
2026-01-06 11:42:54.54	156.96	38.55	-45.4	-46.5	15.2	0.00e+00	0	29	0	1578106880	56	4204
2026-01-06 11:42:55.40	156.98	38.76	-45.5	-46.6	15.2	0.00e+00	0	29	0	1582301184	56	4248
2026-01-06 11:42:56.53	157.02	39.05	-45.5	-46.6	15.2	0.00e+00	0	29	0	1588592640	56	4256
2026-01-06 11:42:57.39	157.04	39.27	-45.5	-46.5	15.2	0.00e+00	0	29	0	1593835520	56	4228
2026-01-06 11:42:58.52	157.08	39.56	-45.6	-46.6	15.2	0.00e+00	0	29	0	1600126976	56	4288
2026-01-06 11:42:59.37	157.10	39.78	-45.8	-46.8	15.2	0.00e+00	0	29	0	1605369856	56	4381
2026-01-06 11:43:00.51	157.14	40.08	-45.9	-47.0	15.1	0.00e+00	0	29	0	1611661312	56	4453
2026-01-06 11:43:01.35	157.16	40.30	-45.8	-46.8	15.2	0.00e+00	0	29	0	1615855616	56	4382
2026-01-06 11:43:02.49	157.20	40.61	-45.7	-46.7	15.2	0.00e+00	0	29	0	1622147072	56	4337
2026-01-06 11:43:03.34	157.22	40.83	-45.6	-46.6	15.2	0.00e+00	0	29	0	1627389952	56	4261
2026-01-06 11:43:04.47	157.26	41.14	-45.7	-46.7	15.2	0.00e+00	0	29	0	1633681408	56	4338
2026-01-06 11:43:05.33	157.29	41.37	-45.9	-47.0	15.1	0.00e+00	0	29	0	1637875712	56	4451
2026-01-06 11:43:06.48	157.33	41.69	-46.0	-47.0	15.2	0.00e+00	0	29	0	1645215744	57	4232
2026-01-06 11:43:07.33	157.36	41.92	-46.0	-47.0	15.2	0.00e+00	0	29	0	1649410048	57	4232
2026-01-06 11:43:08.46	157.40	42.23	-46.0	-47.1	15.2	0.00e+00	0	29	0	1655701504	57	4263
2026-01-06 11:43:09.30	157.43	42.47	-46.1	-47.1	15.2	0.00e+00	0	29	0	1660944384	57	4290
2026-01-06 11:43:10.44	157.47	42.79	-46.1	-47.1	15.1	0.00e+00	0	29	0	1667235840	57	4283
2026-01-06 11:43:11.29	157.50	43.03	-46.0	-47.1	15.2	0.00e+00	0	29	0	1671430144	57	4250
2026-01-06 11:43:12.43	157.54	43.36	-46.1	-47.1	15.1	0.00e+00	0	29	0	1678770176	57	4288
2026-01-06 11:43:13.28	157.57	43.60	-46.0	-47.0	15.2	0.00e+00	0	29	0	1682964480	57	4222
2026-01-06 11:43:14.41	157.61	43.93	-45.8	-46.9	15.2	0.00e+00	0	29	0	1689255936	57	4166
2026-01-06 11:43:15.26	157.65	44.18	-45.9	-47.0	15.2	0.00e+00	0	29	0	1694498816	57	4202
2026-01-06 11:43:16.39	157.69	44.51	-46.1	-47.1	15.2	0.00e+00	0	29	0	1700790272	57	4289
2026-01-06 11:43:17.25	157.72	44.77	-46.3	-47.4	15.1	0.00e+00	0	29	0	1706033152	57	4392
2026-01-06 11:43:18.38	157.77	45.11	-46.5	-47.6	15.1	0.00e+00	0	29	0	1711276032	58	4282
2026-01-06 11:43:19.23	157.80	45.36	-46.4	-47.5	15.2	0.00e+00	0	29	0	1716518912	58	4209
2026-01-06 11:43:20.37	157.85	45.71	-46.1	-47.2	15.2	0.00e+00	0	29	0	1722810368	58	4069
2026-01-06 11:43:21.22	157.89	45.97	-46.2	-47.2	15.2	0.00e+00	0	29	0	1728053248	58	4086
2026-01-06 11:43:22.36	157.94	46.32	-45.8	-46.8	15.4	0.00e+00	0	29	0	1734344704	58	3898
2026-01-06 11:43:23.22	157.98	46.59	-45.6	-46.6	15.3	0.00e+00	0	29	0	1739587584	57	4027
2026-01-06 11:43:24.35	158.03	46.94	-45.6	-46.6	15.3	0.00e+00	0	29	0	1745879040	57	4031
2026-01-06 11:43:25.20	158.06	47.21	-45.6	-46.7	15.3	0.00e+00	0	29	0	1750073344	57	4053
2026-01-06 11:43:26.33	158.12	47.57	-45.5	-46.6	15.3	0.00e+00	0	29	0	1756364800	57	4005
2026-01-06 11:43:27.18	158.16	47.84	-45.5	-46.5	15.3	0.00e+00	0	29	0	1761607680	57	3987
2026-01-06 11:43:28.32	158.21	48.21	-45.6	-46.6	15.3	0.00e+00	0	29	0	1767899136	57	4015
2026-01-06 11:43:29.17	158.25	48.48	-45.8	-46.9	15.2	0.00e+00	0	29	0	1772093440	57	4157
2026-01-06 11:43:30.30	158.31	48.85	-46.0	-47.1	15.2	0.00e+00	0	29	0	1779433472	57	4261
2026-01-06 11:43:31.16	158.36	49.14	-46.2	-47.3	15.2	0.00e+00	0	29	0	1783627776	57	4344
2026-01-06 11:43:32.29	158.41	49.51	-46.3	-47.4	15.1	0.00e+00	0	29	0	1789919232	57	4431
2026-01-06 11:43:33.15	158.46	49.80	-46.5	-47.6	15.2	0.00e+00	0	29	0	1795162112	58	4261
2026-01-06 11:43:34.27	158.52	50.17	-46.5	-47.6	15.1	0.00e+00	0	29	0	1801453568	58	4283
2026-01-06 11:43:35.12	158.57	50.46	-46.4	-47.5	15.2	0.00e+00	0	29	0	1805647872	58	4206
2026-01-06 11:43:36.26	158.63	50.85	-46.4	-47.4	15.2	0.00e+00	0	29	0	1812987904	58	4180
2026-01-06 11:43:37.12	158.68	51.15	-46.4	-47.5	15.2	0.00e+00	0	29	0	1817182208	58	4207
2026-01-06 11:43:38.25	158.75	51.54	-46.7	-47.7	15.1	0.00e+00	0	29	0	1823473664	58	4335
2026-01-06 11:43:39.10	158.80	51.84	-46.9	-48.0	15.1	0.00e+00	0	29	0	1828716544	58	4443
2026-01-06 11:43:40.24	158.87	52.24	-47.0	-48.1	15.1	0.00e+00	0	29	0	1835008000	59	4277
2026-01-06 11:43:41.09	158.93	52.54	-47.2	-48.3	15.1	0.00e+00	0	29	0	1839202304	59	4380
2026-01-06 11:43:42.22	159.00	52.94	-47.2	-48.4	15.1	0.00e+00	0	29	0	1845493760	59	4393
2026-01-06 11:43:43.08	159.06	53.25	-47.2	-48.3	15.1	0.00e+00	0	29	0	1850736640	59	4355
2026-01-06 11:43:44.21	159.13	53.66	-47.0	-48.1	15.1	0.00e+00	0	29	0	1857028096	59	4263
2026-01-06 11:43:45.06	159.19	53.97	-47.0	-48.1	15.1	0.00e+00	0	29	0	1862270976	59	4268
2026-01-06 11:43:46.19	159.27	54.38	-47.0	-48.1	15.1	0.00e+00	0	29	0	1868562432	59	4284
2026-01-06 11:43:47.04	159.33	54.70	-47.2	-48.3	15.1	0.00e+00	0	29	0	1872756736	59	4358
2026-01-06 11:43:48.17	159.42	55.12	-47.3	-48.4	15.1	0.00e+00	0	29	0	1879048192	59	4422
2026-01-06 11:43:49.03	159.48	55.44	-47.3	-48.4	15.0	0.00e+00	0	29	0	1884291072	59	4431
2026-01-06 11:43:50.16	159.57	55.86	-47.2	-48.3	15.1	0.00e+00	0	29	0	1890582528	59	4373
2026-01-06 11:43:51.02	159.64	56.19	-47.2	-48.3	15.1	0.00e+00	0	29	0	1895825408	59	4382
2026-01-06 11:43:52.17	159.73	56.63	-47.2	-48.3	15.1	0.00e+00	0	29	0	1902116864	59	4357
2026-01-06 11:43:53.01	159.81	56.95	-47.2	-48.3	15.1	0.00e+00	0	29	0	1906311168	59	4386
2026-01-06 11:43:54.14	159.90	57.39	-46.8	-47.9	15.2	0.00e+00	0	29	0	1912602624	59	4149
2026-01-06 11:43:54.99	159.98	57.72	-46.8	-47.8	15.2	0.00e+00	0	29	0	1917845504	59	4134
2026-01-06 11:43:56.12	160.08	58.16	-46.8	-47.9	15.2	0.00e+00	0	29	0	1924136960	59	4153
2026-01-06 11:43:56.97	160.16	58.50	-46.7	-47.8	15.2	0.00e+00	0	29	0	1929379840	59	4119
2026-01-06 11:43:58.11	160.27	58.95	-46.4	-47.4	15.3	0.00e+00	0	29	0	1935671296	59	3956
2026-01-06 11:43:58.96	160.36	59.29	-46.3	-47.4	15.3	0.00e+00	0	29	0	1939865600	59	3914
2026-01-06 11:44:00.11	160.48	59.75	-45.9	-47.0	15.3	0.00e+00	0	29	0	1946157056	58	3961
2026-01-06 11:44:00.97	160.57	60.10	-45.8	-46.8	15.4	0.00e+00	0	29	0	1951399936	58	3875
2026-01-06 11:44:02.12	160.69	60.57	-45.8	-46.8	15.4	0.00e+00	0	29	0	1957691392	58	3897
2026-01-06 11:44:02.96	160.79	60.91	-45.6	-46.6	15.3	0.00e+00	0	29	0	1962934272	57	4040
2026-01-06 11:44:04.09	160.92	61.38	-45.5	-46.6	15.3	0.00e+00	0	29	0	1969225728	57	4006
2026-01-06 11:44:04.94	161.02	61.73	-45.6	-46.6	15.3	0.00e+00	0	29	0	1973420032	57	4043
2026-01-06 11:44:06.08	161.16	62.21	-45.7	-46.8	15.3	0.00e+00	0	29	0	1979711488	57	4100
2026-01-06 11:44:06.93	161.27	62.57	-46.0	-47.1	15.2	0.00e+00	0	29	0	1984954368	57	4252
2026-01-06 11:44:08.06	161.42	63.04	-46.0	-47.1	15.2	0.00e+00	0	29	0	1991245824	57	4268
2026-01-06 11:44:08.91	161.54	63.40	-45.9	-47.0	15.2	0.00e+00	0	29	0	1996488704	57	4215
2026-01-06 11:44:10.05	161.70	63.89	-46.0	-47.0	15.2	0.00e+00	0	29	0	2002780160	57	4229
2026-01-06 11:44:10.90	161.83	64.26	-45.7	-46.8	15.3	0.00e+00	0	29	0	2006974464	57	4108
2026-01-06 11:44:12.03	162.00	64.74	-45.6	-46.6	15.3	0.00e+00	0	29	0	2013265920	57	4043
2026-01-06 11:44:12.88	162.13	65.11	-45.4	-46.4	15.4	0.00e+00	0	29	0	2018508800	57	3922
2026-01-06 11:44:14.01	162.32	65.60	-45.5	-46.4	15.3	0.00e+00	0	29	0	2024800256	57	3955
2026-01-06 11:44:14.86	162.46	65.98	-45.7	-46.7	15.3	0.00e+00	0	29	0	2030043136	57	4080
2026-01-06 11:44:15.99	162.66	66.47	-45.5	-46.5	15.4	0.00e+00	0	29	0	2035286016	57	3972
2026-01-06 11:44:16.84	162.82	66.85	-45.2	-46.2	15.5	0.00e+00	0	29	0	2040528896	57	3846
2026-01-06 11:44:17.98	163.04	67.36	-45.3	-46.3	15.4	0.00e+00	0	29	0	2046820352	57	3879
2026-01-06 11:44:18.83	163.21	67.74	-45.3	-46.3	15.4	0.00e+00	0	29	0	2052063232	57	3901
2026-01-06 11:44:19.96	163.45	68.25	-45.0	-46.0	15.4	0.00e+00	0	29	0	2058354688	56	3979
2026-01-06 11:44:20.81	163.63	68.63	-45.0	-46.1	15.3	0.00e+00	0	29	0	2063597568	56	4007
2026-01-06 11:44:21.95	163.90	69.15	-45.0	-46.0	15.4	0.00e+00	0	29	0	2069889024	56	3985
2026-01-06 11:44:22.80	164.10	69.53	-44.8	-45.8	15.4	0.00e+00	0	29	0	2074083328	56	3905
2026-01-06 11:44:23.94	164.39	70.05	-44.8	-45.8	15.4	0.00e+00	0	29	0	2080374784	56	3900
2026-01-06 11:44:24.79	164.61	70.44	-44.9	-45.9	15.4	0.00e+00	0	29	0	2085617664	56	3941
2026-01-06 11:44:25.92	164.92	70.96	-44.7	-45.7	15.5	0.00e+00	0	29	0	2091909120	56	3857
2026-01-06 11:44:26.78	165.17	71.36	-44.9	-45.9	15.4	0.00e+00	0	29	0	2096103424	56	3930
2026-01-06 11:44:27.92	165.52	71.89	-44.7	-45.7	15.4	0.00e+00	0	29	0	2103443456	56	3861
2026-01-06 11:44:28.77	165.80	72.28	-44.5	-45.5	15.4	0.00e+00	0	29	0	2107637760	55	3962
2026-01-06 11:44:29.90	166.18	72.81	-45.0	-46.0	15.3	0.00e+00	0	29	0	2113929216	55	4229
2026-01-06 11:44:30.75	166.49	73.21	-45.1	-46.2	15.2	0.00e+00	0	29	0	2119172096	55	4311
2026-01-06 11:44:31.89	166.92	73.74	-44.7	-45.7	15.3	0.00e+00	0	29	0	2125463552	55	4063
2026-01-06 11:44:32.74	167.27	74.14	-44.5	-45.5	15.4	0.00e+00	0	29	0	2129657856	55	3962
2026-01-06 11:44:33.88	167.76	74.68	-44.1	-45.1	15.4	0.00e+00	0	29	0	2136997888	54	4046
2026-01-06 11:44:34.73	168.15	75.08	-44.2	-45.2	15.4	0.00e+00	0	29	0	2141192192	54	4098
2026-01-06 11:44:35.87	168.71	75.62	-44.0	-45.1	15.6	0.00e+00	0	29	0	2147483648	54	4041
2026-01-06 11:44:36.72	169.16	76.02	-44.0	-45.1	15.5	0.00e+00	0	29	0	2152726528	54	4027
2026-01-06 11:44:37.86	169.80	76.56	-44.2	-45.2	15.4	0.00e+00	0	29	0	2159017984	54	4085
2026-01-06 11:44:38.71	170.31	76.96	-44.3	-45.3	15.3	0.00e+00	0	29	0	2164260864	54	4131
2026-01-06 11:44:39.84	171.04	77.50	-44.0	-45.0	15.4	0.00e+00	0	29	0	2169503744	54	3969
2026-01-06 11:44:40.70	171.65	77.90	-43.9	-44.9	15.4	0.00e+00	0	29	0	2174746624	54	3938
2026-01-06 11:44:41.85	172.52	78.45	-44.1	-45.1	15.4	0.00e+00	0	29	0	2181038080	54	4009
2026-01-06 11:44:42.70	173.22	78.85	-43.8	-44.8	15.5	0.00e+00	0	29	0	2186280960	54	3879
2026-01-06 11:44:43.83	174.24	79.38	-43.6	-44.6	15.4	0.00e+00	0	29	0	2192572416	53	4026
2026-01-06 11:44:44.68	175.08	79.78	-43.2	-44.2	15.5	0.00e+00	0	29	0	2196766720	53	3851
2026-01-06 11:44:45.81	176.29	80.31	-43.2	-44.2	15.4	0.00e+00	0	29	0	2204106752	52	4071
2026-01-06 11:44:46.66	177.30	80.70	-43.4	-44.4	15.4	0.00e+00	0	29	0	2208301056	52	4154
2026-01-06 11:44:47.80	178.80	81.23	-42.8	-43.8	15.5	0.00e+00	0	29	0	2214592512	52	3873
2026-01-06 11:44:48.65	180.04	81.62	-42.8	-43.7	15.5	0.00e+00	0	29	0	2219835392	52	3859
2026-01-06 11:44:49.78	181.88	82.13	-42.9	-43.9	15.5	0.00e+00	0	29	0	2226126848	52	3936
2026-01-06 11:44:50.64	183.44	82.51	-43.0	-44.0	15.4	0.00e+00	0	29	0	2230321152	52	3987
2026-01-06 11:44:51.77	185.76	83.01	-43.0	-43.9	15.5	0.00e+00	0	29	0	2237661184	52	3946
2026-01-06 11:44:52.63	187.76	83.38	-43.0	-44.0	15.4	0.00e+00	0	29	0	2241855488	52	3963
2026-01-06 11:44:53.77	190.78	83.85	-43.2	-44.2	15.4	0.00e+00	0	29	0	2248146944	52	4067
2026-01-06 11:44:54.62	193.34	84.20	-43.2	-44.2	15.4	0.00e+00	0	29	0	2253389824	52	4088
2026-01-06 11:44:55.76	197.29	84.64	-43.3	-44.3	15.4	0.00e+00	0	29	0	2259681280	52	4118
2026-01-06 11:44:56.61	200.67	84.94	-43.6	-44.6	15.3	0.00e+00	0	29	0	2264924160	52	4289
2026-01-06 11:44:57.75	205.89	85.33	-43.5	-44.5	15.3	0.00e+00	0	29	0	2271215616	52	4213
2026-01-06 11:44:58.60	210.34	85.59	-43.4	-44.4	15.3	0.00e+00	0	29	0	2275409920	52	4176
2026-01-06 11:44:59.74	217.12	85.88	-43.4	-44.4	15.3	0.00e+00	0	29	0	2281701376	52	4155
2026-01-06 11:45:00.60	222.86	86.06	-43.4	-44.3	15.3	0.00e+00	0	29	0	2286944256	52	4140
2026-01-06 11:45:01.73	231.13	86.24	-43.4	-44.4	15.3	0.00e+00	0	29	0	2293235712	52	4159
2026-01-06 11:45:02.58	237.75	86.31	-43.4	-44.4	15.3	0.00e+00	0	29	0	2297430016	52	4178
2026-01-06 11:45:03.71	246.81	86.33	-43.4	-44.4	15.3	0.00e+00	0	29	0	2304770048	52	4159
2026-01-06 11:45:04.56	253.57	86.29	-43.5	-44.5	15.3	0.00e+00	0	29	0	2308964352	52	4209
2026-01-06 11:45:05.70	262.21	86.15	-43.2	-44.2	15.4	0.00e+00	0	29	0	2315255808	52	4071
2026-01-06 11:45:06.55	268.17	85.99	-43.3	-44.3	15.4	0.00e+00	0	29	0	2320498688	52	4105
2026-01-06 11:45:07.69	275.38	85.72	-43.3	-44.3	15.4	0.00e+00	0	29	0	2326790144	52	4101
2026-01-06 11:45:08.54	280.13	85.48	-43.2	-44.2	15.4	0.00e+00	0	29	0	2330984448	52	4070
2026-01-06 11:45:09.67	285.68	85.12	-43.2	-44.2	15.4	0.00e+00	0	29	0	2338324480	52	4079
2026-01-06 11:45:10.51	289.27	84.83	-42.9	-43.8	15.5	0.00e+00	0	29	0	2342518784	52	3913
2026-01-06 11:45:11.65	293.52	84.40	-42.7	-43.7	15.4	0.00e+00	0	29	0	2348810240	51	4055
2026-01-06 11:45:12.50	296.28	84.07	-42.8	-43.7	15.4	0.00e+00	0	29	0	2354053120	51	4087
2026-01-06 11:45:13.64	299.51	83.60	-42.8	-43.7	15.4	0.00e+00	0	29	0	2360344576	51	4098
2026-01-06 11:45:14.49	301.62	83.24	-42.8	-43.8	15.4	0.00e+00	0	29	0	2364538880	51	4110
2026-01-06 11:45:15.62	304.10	82.75	-42.7	-43.7	15.4	0.00e+00	0	29	0	2370830336	51	4061
2026-01-06 11:45:16.46	305.74	82.38	-42.9	-43.9	15.4	0.00e+00	0	29	0	2376073216	51	4148
2026-01-06 11:45:17.60	307.71	81.87	-43.0	-44.0	15.3	0.00e+00	0	29	0	2382364672	51	4220
2026-01-06 11:45:18.46	309.04	81.48	-43.0	-44.0	15.3	0.00e+00	0	29	0	2387607552	51	4226
2026-01-06 11:45:19.59	310.61	80.96	-43.0	-44.0	15.3	0.00e+00	0	29	0	2393899008	51	4229
2026-01-06 11:45:20.44	311.68	80.57	-43.1	-44.0	15.3	0.00e+00	0	29	0	2398093312	51	4238
2026-01-06 11:45:21.58	312.97	80.04	-43.0	-44.0	15.3	0.00e+00	0	29	0	2404384768	51	4216
2026-01-06 11:45:22.44	313.86	79.63	-43.0	-44.0	15.3	0.00e+00	0	29	0	2409627648	51	4203
2026-01-06 11:45:23.58	314.93	79.10	-43.2	-44.2	15.3	0.00e+00	0	29	0	2415919104	51	4328
2026-01-06 11:45:24.43	315.67	78.70	-43.5	-44.5	15.3	0.00e+00	0	29	0	2421161984	52	4230
2026-01-06 11:45:25.57	316.57	78.16	-43.9	-44.9	15.3	0.00e+00	0	29	0	2427453440	52	4400
2026-01-06 11:45:26.42	317.20	77.76	-43.8	-44.8	15.3	0.00e+00	0	29	0	2431647744	52	4368
2026-01-06 11:45:27.55	317.96	77.22	-43.8	-44.8	15.3	0.00e+00	0	29	0	2438987776	52	4387
2026-01-06 11:45:28.40	318.49	76.82	-43.9	-44.9	15.3	0.00e+00	0	29	0	2443182080	52	4407
2026-01-06 11:45:29.54	319.16	76.28	-44.1	-45.0	15.3	0.00e+00	0	29	0	2449473536	53	4237
2026-01-06 11:45:30.39	319.62	75.88	-44.4	-45.4	15.3	0.00e+00	0	29	0	2454716416	53	4423
2026-01-06 11:45:31.51	320.19	75.35	-44.2	-45.2	15.3	0.00e+00	0	29	0	2461007872	53	4337
2026-01-06 11:45:32.36	320.60	74.95	-44.3	-45.3	15.3	0.00e+00	0	29	0	2465202176	53	4351
2026-01-06 11:45:33.50	321.11	74.41	-44.5	-45.5	15.3	0.00e+00	0	29	0	2471493632	54	4212
2026-01-06 11:45:34.36	321.47	74.01	-44.4	-45.4	15.3	0.00e+00	0	29	0	2476736512	54	4171
2026-01-06 11:45:35.49	321.91	73.48	-44.5	-45.5	15.3	0.00e+00	0	29	0	2483027968	54	4194
2026-01-06 11:45:36.34	322.23	73.08	-44.7	-45.7	15.2	0.00e+00	0	29	0	2488270848	54	4298
2026-01-06 11:45:37.47	322.63	72.55	-44.9	-45.9	15.3	0.00e+00	0	29	0	2494562304	55	4191
2026-01-06 11:45:38.33	322.91	72.15	-44.7	-45.7	15.3	0.00e+00	0	29	0	2498756608	55	4091
2026-01-06 11:45:39.46	323.27	71.63	-44.4	-45.4	15.4	0.00e+00	0	29	0	2505048064	55	3947
2026-01-06 11:45:40.31	323.53	71.24	-44.5	-45.5	15.4	0.00e+00	0	29	0	2510290944	55	3961
2026-01-06 11:45:41.44	323.85	70.72	-44.5	-45.5	15.4	0.00e+00	0	29	0	2516582400	55	3988
2026-01-06 11:45:42.29	324.08	70.33	-44.6	-45.6	15.4	0.00e+00	0	29	0	2521825280	55	4006
2026-01-06 11:45:43.43	324.37	69.80	-44.6	-45.7	15.3	0.00e+00	0	29	0	2528116736	55	4062
2026-01-06 11:45:44.28	324.58	69.42	-44.7	-45.7	15.3	0.00e+00	0	29	0	2532311040	55	4090
2026-01-06 11:45:45.42	324.85	68.90	-44.7	-45.7	15.3	0.00e+00	0	29	0	2538602496	55	4078
2026-01-06 11:45:46.27	325.04	68.52	-44.7	-45.7	15.3	0.00e+00	0	29	0	2543845376	55	4080
2026-01-06 11:45:47.40	325.28	68.01	-45.2	-46.2	15.2	0.00e+00	0	29	0	2550136832	55	4327
2026-01-06 11:45:48.25	325.46	67.63	-45.3	-46.4	15.2	0.00e+00	0	29	0	2555379712	55	4399
2026-01-06 11:45:49.39	325.68	67.12	-45.0	-46.0	15.2	0.00e+00	0	29	0	2561671168	55	4194
2026-01-06 11:45:50.23	325.84	66.75	-45.0	-45.9	15.3	0.00e+00	0	29	0	2565865472	55	4193
2026-01-06 11:45:51.36	326.05	66.25	-45.6	-46.6	15.2	0.00e+00	0	29	0	2572156928	56	4280
2026-01-06 11:45:52.22	326.20	65.87	-45.6	-46.7	15.2	0.00e+00	0	29	0	2577399808	56	4297
2026-01-06 11:45:53.34	326.39	65.38	-45.4	-46.5	15.3	0.00e+00	0	29	0	2583691264	56	4200
2026-01-06 11:45:54.19	326.52	65.01	-45.3	-46.3	15.3	0.00e+00	0	29	0	2587885568	56	4128
2026-01-06 11:45:55.33	326.70	64.52	-45.2	-46.2	15.3	0.00e+00	0	29	0	2594177024	56	4078
2026-01-06 11:45:56.18	326.83	64.16	-45.3	-46.3	15.3	0.00e+00	0	29	0	2599419904	56	4102
2026-01-06 11:45:57.30	326.99	63.68	-45.5	-46.5	15.3	0.00e+00	0	29	0	2605711360	56	4229
2026-01-06 11:45:58.15	327.11	63.32	-45.6	-46.7	15.2	0.00e+00	0	29	0	2610954240	56	4294
2026-01-06 11:45:59.29	327.26	62.83	-45.8	-46.9	15.2	0.00e+00	0	29	0	2617245696	56	4395
2026-01-06 11:46:00.13	327.37	62.48	-45.8	-46.8	15.2	0.00e+00	0	29	0	2621440000	56	4374
2026-01-06 11:46:01.28	327.52	62.00	-45.8	-46.9	15.2	0.00e+00	0	29	0	2627731456	56	4393
2026-01-06 11:46:02.13	327.62	61.65	-45.9	-47.0	15.2	0.00e+00	0	29	0	2632974336	56	4446
2026-01-06 11:46:03.27	327.76	61.18	-45.7	-46.7	15.2	0.00e+00	0	29	0	2639265792	56	4338
2026-01-06 11:46:04.12	327.86	60.83	-45.6	-46.6	15.2	0.00e+00	0	29	0	2644508672	56	4284
2026-01-06 11:46:05.25	327.98	60.37	-45.6	-46.7	15.2	0.00e+00	0	29	0	2650800128	56	4294
2026-01-06 11:46:06.11	328.08	60.02	-45.7	-46.7	15.2	0.00e+00	0	29	0	2654994432	56	4333
2026-01-06 11:46:07.24	328.19	59.56	-45.9	-47.0	15.2	0.00e+00	0	29	0	2661285888	56	4457
2026-01-06 11:46:08.10	328.28	59.22	-46.0	-47.1	15.2	0.00e+00	0	29	0	2666528768	57	4267
2026-01-06 11:46:09.24	328.39	58.76	-46.3	-47.3	15.2	0.00e+00	0	29	0	2672820224	57	4378
2026-01-06 11:46:10.08	328.47	58.43	-46.2	-47.3	15.2	0.00e+00	0	29	0	2678063104	57	4355
2026-01-06 11:46:11.22	328.58	57.98	-46.3	-47.4	15.1	0.00e+00	0	29	0	2684354560	57	4408
2026-01-06 11:46:12.07	328.66	57.65	-46.2	-47.3	15.2	0.00e+00	0	29	0	2688548864	57	4359
2026-01-06 11:46:13.21	328.76	57.21	-46.7	-47.8	15.1	0.00e+00	0	29	0	2694840320	58	4376
2026-01-06 11:46:14.06	328.83	56.88	-46.9	-48.0	15.1	0.00e+00	0	29	0	2700083200	58	4486
2026-01-06 11:46:15.19	328.93	56.45	-47.1	-48.2	15.2	0.00e+00	0	29	0	2706374656	59	4309
2026-01-06 11:46:16.04	329.00	56.13	-47.1	-48.2	15.1	0.00e+00	0	29	0	2710568960	59	4296
2026-01-06 11:46:17.17	329.09	55.70	-47.1	-48.2	15.1	0.00e+00	0	29	0	2717908992	59	4311
2026-01-06 11:46:18.02	329.15	55.38	-47.3	-48.5	15.1	0.00e+00	0	29	0	2722103296	59	4455
2026-01-06 11:46:19.14	329.24	54.96	-47.0	-48.1	15.2	0.00e+00	0	29	0	2728394752	60	4011
2026-01-06 11:46:20.00	329.30	54.65	-46.9	-48.0	15.3	0.00e+00	0	29	0	2733637632	60	3978
2026-01-06 11:46:21.14	329.38	54.23	-46.9	-48.0	15.3	0.00e+00	0	29	0	2739929088	60	3970
2026-01-06 11:46:21.99	329.44	53.92	-46.7	-47.8	15.3	0.00e+00	0	29	0	2744123392	60	3883
2026-01-06 11:46:23.12	329.52	53.51	-46.7	-47.7	15.4	0.00e+00	0	29	0	2751463424	60	3867
2026-01-06 11:46:23.97	329.58	53.20	-47.0	-48.1	15.1	0.00e+00	0	29	0	2755657728	59	4257
2026-01-06 11:46:25.10	329.65	52.80	-47.1	-48.2	15.1	0.00e+00	0	29	0	2761949184	59	4319
2026-01-06 11:46:25.95	329.71	52.50	-47.1	-48.2	15.1	0.00e+00	0	29	0	2767192064	59	4334
2026-01-06 11:46:27.10	329.78	52.09	-47.0	-48.1	15.1	0.00e+00	0	29	0	2773483520	59	4290
2026-01-06 11:46:27.94	329.83	51.80	-46.9	-48.0	15.2	0.00e+00	0	29	0	2777677824	59	4197
2026-01-06 11:46:29.08	329.90	51.40	-46.5	-47.6	15.3	0.00e+00	0	29	0	2783969280	59	4024
2026-01-06 11:46:29.92	329.95	51.11	-46.4	-47.5	15.3	0.00e+00	0	29	0	2789212160	59	3968
2026-01-06 11:46:31.06	330.01	50.72	-46.5	-47.5	15.3	0.00e+00	0	29	0	2795503616	59	3992
2026-01-06 11:46:31.91	330.06	50.43	-46.4	-47.5	15.3	0.00e+00	0	29	0	2800746496	59	3973
2026-01-06 11:46:33.05	330.12	50.05	-46.4	-47.5	15.3	0.00e+00	0	29	0	2807037952	59	3991
2026-01-06 11:46:33.91	330.17	49.76	-46.3	-47.3	15.4	0.00e+00	0	29	0	2811232256	59	3881
2026-01-06 11:46:35.05	330.23	49.38	-46.2	-47.2	15.4	0.00e+00	0	29	0	2818572288	59	3848
2026-01-06 11:46:35.90	330.28	49.10	-46.0	-47.1	15.3	0.00e+00	0	29	0	2822766592	58	4006
2026-01-06 11:46:37.04	330.33	48.73	-46.2	-47.2	15.3	0.00e+00	0	29	0	2829058048	58	4074
2026-01-06 11:46:37.89	330.38	48.45	-46.2	-47.3	15.3	0.00e+00	0	29	0	2834300928	58	4099
2026-01-06 11:46:39.03	330.43	48.08	-46.1	-47.1	15.3	0.00e+00	0	29	0	2840592384	58	4038
2026-01-06 11:46:39.88	330.47	47.81	-46.0	-47.1	15.3	0.00e+00	0	29	0	2844786688	58	4011
2026-01-06 11:46:41.01	330.53	47.45	-45.9	-46.9	15.4	0.00e+00	0	29	0	2852126720	58	3941
2026-01-06 11:46:41.86	330.57	47.18	-45.8	-46.8	15.4	0.00e+00	0	29	0	2856321024	58	3910
2026-01-06 11:46:42.99	330.62	46.83	-45.8	-46.9	15.4	0.00e+00	0	29	0	2862612480	58	3917
2026-01-06 11:46:43.84	330.66	46.56	-45.7	-46.8	15.4	0.00e+00	0	29	0	2867855360	58	3873
2026-01-06 11:46:44.97	330.71	46.22	-45.8	-46.8	15.4	0.00e+00	0	29	0	2874146816	58	3904
2026-01-06 11:46:45.82	330.74	45.95	-45.8	-46.8	15.4	0.00e+00	0	29	0	2878341120	58	3872
2026-01-06 11:46:46.96	330.79	45.61	-45.8	-46.8	15.4	0.00e+00	0	29	0	2885681152	58	3888
2026-01-06 11:46:47.81	330.83	45.35	-45.8	-46.9	15.4	0.00e+00	0	29	0	2889875456	58	3924
2026-01-06 11:46:48.94	330.87	45.01	-45.9	-47.0	15.4	0.00e+00	0	29	0	2896166912	58	3979
2026-01-06 11:46:49.79	330.91	44.76	-46.0	-47.1	15.3	0.00e+00	0	29	0	2901409792	58	4027
2026-01-06 11:46:50.93	330.95	44.42	-46.1	-47.2	15.3	0.00e+00	0	29	0	2907701248	58	4059
2026-01-06 11:46:51.78	330.98	44.17	-45.7	-46.8	15.4	0.00e+00	0	29	0	2911895552	58	3885
2026-01-06 11:46:52.92	331.03	43.84	-45.5	-46.6	15.3	0.00e+00	0	29	0	2918187008	57	4009
2026-01-06 11:46:53.78	331.06	43.59	-45.6	-46.6	15.3	0.00e+00	0	29	0	2923429888	57	4044
2026-01-06 11:46:54.92	331.10	43.27	-45.6	-46.6	15.3	0.00e+00	0	29	0	2929721344	57	4022
2026-01-06 11:46:55.77	331.13	43.02	-45.6	-46.6	15.3	0.00e+00	0	29	0	2934964224	57	4045
2026-01-06 11:46:56.90	331.18	42.70	-45.8	-46.8	15.3	0.00e+00	0	29	0	2941255680	57	4134
2026-01-06 11:46:57.75	331.21	42.47	-45.8	-46.8	15.3	0.00e+00	0	29	0	2945449984	57	4123
2026-01-06 11:46:58.88	331.24	42.15	-45.7	-46.8	15.3	0.00e+00	0	29	0	2951741440	57	4120
2026-01-06 11:46:59.74	331.27	41.91	-45.8	-46.8	15.3	0.00e+00	0	29	0	2956984320	57	4132
2026-01-06 11:47:00.87	331.31	41.60	-45.7	-46.8	15.3	0.00e+00	0	29	0	2963275776	57	4107
2026-01-06 11:47:01.72	331.34	41.37	-45.8	-46.9	15.3	0.00e+00	0	29	0	2968518656	57	4148
2026-01-06 11:47:02.84	331.38	41.07	-45.7	-46.7	15.3	0.00e+00	0	29	0	2974810112	57	4077
2026-01-06 11:47:03.70	331.41	40.84	-45.6	-46.7	15.3	0.00e+00	0	29	0	2979004416	57	4073
2026-01-06 11:47:04.84	331.44	40.54	-45.6	-46.6	15.3	0.00e+00	0	29	0	2985295872	57	4036
2026-01-06 11:47:05.69	331.47	40.31	-45.5	-46.6	15.4	0.00e+00	0	29	0	2990538752	57	4012
2026-01-06 11:47:06.83	331.50	40.01	-45.5	-46.5	15.4	0.00e+00	0	29	0	2996830208	57	3995
2026-01-06 11:47:07.68	331.53	39.79	-45.4	-46.5	15.4	0.00e+00	0	29	0	3002073088	57	3960
2026-01-06 11:47:08.83	331.57	39.49	-45.3	-46.3	15.4	0.00e+00	0	29	0	3008364544	57	3904
2026-01-06 11:47:09.69	331.59	39.27	-45.3	-46.3	15.4	0.00e+00	0	29	0	3012558848	57	3907
2026-01-06 11:47:10.82	331.62	38.98	-45.3	-46.3	15.4	0.00e+00	0	29	0	3018850304	57	3895
2026-01-06 11:47:11.68	331.65	38.77	-45.3	-46.3	15.4	0.00e+00	0	29	0	3024093184	57	3911
2026-01-06 11:47:12.82	331.68	38.48	-45.2	-46.3	15.4	0.00e+00	0	29	0	3030384640	57	3873
2026-01-06 11:47:13.67	331.71	38.27	-45.3	-46.3	15.4	0.00e+00	0	29	0	3035627520	57	3905
2026-01-06 11:47:14.81	331.74	37.99	-45.2	-46.2	15.5	0.00e+00	0	29	0	3041918976	57	3865
2026-01-06 11:47:15.65	331.76	37.78	-45.1	-46.1	15.3	0.00e+00	0	29	0	3046113280	56	4037
2026-01-06 11:47:16.78	331.79	37.51	-45.1	-46.1	15.3	0.00e+00	0	29	0	3052404736	56	4037
2026-01-06 11:47:17.63	331.82	37.30	-45.1	-46.1	15.3	0.00e+00	0	29	0	3057647616	56	4039
2026-01-06 11:47:18.75	331.84	37.03	-45.1	-46.1	15.3	0.00e+00	0	29	0	3063939072	56	4035
2026-01-06 11:47:19.61	331.87	36.83	-45.1	-46.1	15.4	0.00e+00	0	29	0	3069181952	56	4039
2026-01-06 11:47:20.74	331.90	36.56	-45.2	-46.2	15.3	0.00e+00	0	29	0	3075473408	56	4063
2026-01-06 11:47:21.59	331.92	36.36	-45.3	-46.3	15.3	0.00e+00	0	29	0	3079667712	56	4121
2026-01-06 11:47:22.72	331.95	36.09	-45.2	-46.3	15.3	0.00e+00	0	29	0	3085959168	56	4113
2026-01-06 11:47:23.56	331.97	35.90	-45.3	-46.3	15.3	0.00e+00	0	29	0	3091202048	56	4133
2026-01-06 11:47:24.69	332.00	35.64	-45.3	-46.3	15.3	0.00e+00	0	29	0	3097493504	56	4123
2026-01-06 11:47:25.54	332.02	35.44	-45.3	-46.4	15.3	0.00e+00	0	29	0	3101687808	56	4157
2026-01-06 11:47:26.67	332.04	35.19	-45.4	-46.5	15.3	0.00e+00	0	29	0	3107979264	56	4195
2026-01-06 11:47:27.52	332.06	35.00	-45.3	-46.4	15.3	0.00e+00	0	29	0	3113222144	56	4157
2026-01-06 11:47:28.65	332.09	34.74	-45.3	-46.3	15.3	0.00e+00	0	29	0	3119513600	56	4134
2026-01-06 11:47:29.50	332.11	34.56	-45.3	-46.4	15.3	0.00e+00	0	29	0	3124756480	56	4146
2026-01-06 11:47:30.63	332.14	34.31	-45.4	-46.5	15.3	0.00e+00	0	29	0	3131047936	56	4196
2026-01-06 11:47:31.48	332.16	34.12	-45.5	-46.5	15.2	0.00e+00	0	29	0	3135242240	56	4226
2026-01-06 11:47:32.60	332.18	33.88	-45.4	-46.5	15.3	0.00e+00	0	29	0	3141533696	56	4194
2026-01-06 11:47:33.45	332.20	33.69	-45.3	-46.4	15.3	0.00e+00	0	29	0	3146776576	56	4158
2026-01-06 11:47:34.58	332.23	33.45	-45.4	-46.5	15.3	0.00e+00	0	29	0	3153068032	56	4198
2026-01-06 11:47:35.43	332.24	33.27	-45.4	-46.4	15.3	0.00e+00	0	29	0	3157262336	56	4177
2026-01-06 11:47:36.57	332.27	33.03	-45.4	-46.4	15.3	0.00e+00	0	29	0	3164602368	56	4179
2026-01-06 11:47:37.43	332.29	32.85	-45.4	-46.4	15.3	0.00e+00	0	29	0	3168796672	56	4184
2026-01-06 11:47:38.58	332.31	32.61	-45.5	-46.6	15.2	0.00e+00	0	29	0	3175088128	56	4256
2026-01-06 11:47:39.44	332.33	32.43	-45.6	-46.7	15.2	0.00e+00	0	29	0	3180331008	56	4310
2026-01-06 11:47:40.57	332.35	32.20	-45.5	-46.5	15.2	0.00e+00	0	29	0	3186622464	56	4235
2026-01-06 11:47:41.41	332.37	32.02	-45.5	-46.5	15.2	0.00e+00	0	29	0	3191865344	56	4236
2026-01-06 11:47:42.55	332.39	31.79	-45.6	-46.7	15.2	0.00e+00	0	29	0	3198156800	56	4303
2026-01-06 11:47:43.39	332.41	31.62	-45.6	-46.6	15.2	0.00e+00	0	29	0	3202351104	56	4275
2026-01-06 11:47:44.53	332.43	31.39	-45.6	-46.7	15.2	0.00e+00	0	29	0	3208642560	56	4298
2026-01-06 11:47:45.38	332.45	31.23	-45.7	-46.7	15.2	0.00e+00	0	29	0	3213885440	56	4331
2026-01-06 11:47:46.51	332.47	31.00	-45.7	-46.7	15.2	0.00e+00	0	29	0	3220176896	56	4333
2026-01-06 11:47:47.37	332.49	30.83	-45.7	-46.8	15.2	0.00e+00	0	29	0	3225419776	56	4346
2026-01-06 11:47:48.50	332.51	30.61	-45.8	-46.8	15.2	0.00e+00	0	29	0	3231711232	56	4390
2026-01-06 11:47:49.36	332.53	30.45	-45.8	-46.8	15.2	0.00e+00	0	29	0	3235905536	56	4369
2026-01-06 11:47:50.49	332.55	30.23	-45.9	-47.0	15.2	0.00e+00	0	29	0	3242196992	56	4447
2026-01-06 11:47:51.34	332.57	30.07	-45.8	-46.9	15.2	0.00e+00	0	29	0	3247439872	56	4418
2026-01-06 11:47:52.48	332.59	29.85	-45.9	-47.0	15.2	0.00e+00	0	29	0	3253731328	56	4457
2026-01-06 11:47:53.34	332.60	29.69	-46.0	-47.0	15.2	0.00e+00	0	29	0	3257925632	57	4239
2026-01-06 11:47:54.47	332.62	29.48	-45.8	-46.9	15.3	0.00e+00	0	29	0	3265265664	57	4173
2026-01-06 11:47:55.31	332.64	29.32	-45.9	-47.0	15.2	0.00e+00	0	29	0	3269459968	57	4212
2026-01-06 11:47:56.45	332.66	29.11	-46.0	-47.0	15.2	0.00e+00	0	29	0	3275751424	57	4241
2026-01-06 11:47:57.29	332.67	28.96	-45.9	-46.9	15.3	0.00e+00	0	29	0	3280994304	57	4183
2026-01-06 11:47:58.43	332.69	28.75	-45.7	-46.8	15.3	0.00e+00	0	29	0	3287285760	57	4111
2026-01-06 11:47:59.28	332.71	28.59	-45.8	-46.8	15.3	0.00e+00	0	29	0	3291480064	57	4129
2026-01-06 11:48:00.41	332.73	28.39	-45.8	-46.8	15.3	0.00e+00	0	29	0	3298820096	57	4123
2026-01-06 11:48:01.26	332.74	28.24	-45.7	-46.8	15.3	0.00e+00	0	29	0	3303014400	57	4120
2026-01-06 11:48:02.39	332.76	28.04	-45.6	-46.7	15.3	0.00e+00	0	29	0	3309305856	57	4060
2026-01-06 11:48:03.24	332.78	27.89	-45.6	-46.6	15.3	0.00e+00	0	29	0	3314548736	57	4039
2026-01-06 11:48:04.38	332.79	27.69	-45.5	-46.6	15.3	0.00e+00	0	29	0	3320840192	57	4006
2026-01-06 11:48:05.23	332.81	27.54	-45.5	-46.5	15.4	0.00e+00	0	29	0	3325034496	57	3988
2026-01-06 11:48:06.37	332.83	27.34	-45.5	-46.5	15.3	0.00e+00	0	29	0	3331325952	57	3991
2026-01-06 11:48:07.22	332.84	27.19	-45.6	-46.6	15.3	0.00e+00	0	29	0	3336568832	57	4024
2026-01-06 11:48:08.36	332.86	27.00	-45.6	-46.6	15.3	0.00e+00	0	29	0	3342860288	57	4042
2026-01-06 11:48:09.21	332.87	26.85	-45.6	-46.6	15.3	0.00e+00	0	29	0	3348103168	57	4031
2026-01-06 11:48:10.34	332.89	26.66	-45.7	-46.7	15.3	0.00e+00	0	29	0	3354394624	57	4072
2026-01-06 11:48:11.20	332.91	26.52	-45.7	-46.8	15.3	0.00e+00	0	29	0	3358588928	57	4114
2026-01-06 11:48:12.33	332.92	26.33	-45.8	-46.8	15.3	0.00e+00	0	29	0	3364880384	57	4128
2026-01-06 11:48:13.19	332.94	26.19	-45.8	-46.8	15.3	0.00e+00	0	29	0	3370123264	57	4140
2026-01-06 11:48:14.33	332.95	26.00	-45.9	-47.0	15.2	0.00e+00	0	29	0	3376414720	57	4221
2026-01-06 11:48:15.18	332.97	25.86	-46.0	-47.1	15.2	0.00e+00	0	29	0	3381657600	57	4243
2026-01-06 11:48:16.31	332.98	25.67	-46.2	-47.3	15.2	0.00e+00	0	29	0	3387949056	57	4354
2026-01-06 11:48:17.17	333.00	25.53	-46.1	-47.2	15.2	0.00e+00	0	29	0	3392143360	57	4328
2026-01-06 11:48:18.30	333.01	25.35	-46.1	-47.2	15.2	0.00e+00	0	29	0	3399483392	57	4329
2026-01-06 11:48:19.15	333.03	25.22	-46.2	-47.3	15.2	0.00e+00	0	29	0	3403677696	57	4344
2026-01-06 11:48:20.29	333.04	25.03	-46.3	-47.4	15.2	0.00e+00	0	29	0	3409969152	57	4421
2026-01-06 11:48:21.14	333.06	24.90	-46.3	-47.4	15.2	0.00e+00	0	29	0	3415212032	57	4426
2026-01-06 11:48:22.28	333.07	24.72	-46.3	-47.4	15.2	0.00e+00	0	29	0	3421503488	57	4425
2026-01-06 11:48:23.13	333.09	24.59	-46.2	-47.3	15.2	0.00e+00	0	29	0	3425697792	57	4368
2026-01-06 11:48:24.27	333.10	24.41	-46.2	-47.3	15.2	0.00e+00	0	29	0	3431989248	57	4381
2026-01-06 11:48:25.12	333.11	24.28	-46.2	-47.3	15.2	0.00e+00	0	29	0	3437232128	57	4367
2026-01-06 11:48:26.25	333.13	24.11	-46.2	-47.3	15.2	0.00e+00	0	29	0	3443523584	57	4387
2026-01-06 11:48:27.09	333.14	23.98	-46.2	-47.2	15.2	0.00e+00	0	29	0	3447717888	57	4331
2026-01-06 11:48:28.22	333.16	23.81	-46.2	-47.3	15.2	0.00e+00	0	29	0	3455057920	57	4347
2026-01-06 11:48:29.07	333.17	23.68	-46.2	-47.3	15.2	0.00e+00	0	29	0	3459252224	57	4347
2026-01-06 11:48:30.21	333.19	23.51	-46.1	-47.2	15.2	0.00e+00	0	29	0	3465543680	57	4316
2026-01-06 11:48:31.06	333.20	23.38	-46.2	-47.3	15.2	0.00e+00	0	29	0	3470786560	57	4342
2026-01-06 11:48:32.19	333.21	23.21	-46.1	-47.1	15.2	0.00e+00	0	29	0	3477078016	57	4287
2026-01-06 11:48:33.04	333.22	23.09	-46.1	-47.2	15.2	0.00e+00	0	29	0	3481272320	57	4311
2026-01-06 11:48:34.18	333.24	22.92	-46.3	-47.3	15.1	0.00e+00	0	29	0	3488612352	57	4384
2026-01-06 11:48:35.02	333.25	22.80	-46.2	-47.3	15.2	0.00e+00	0	29	0	3492806656	57	4368
2026-01-06 11:48:36.16	333.27	22.63	-46.3	-47.3	15.2	0.00e+00	0	29	0	3499098112	57	4371
2026-01-06 11:48:37.02	333.28	22.51	-46.3	-47.3	15.1	0.00e+00	0	29	0	3504340992	57	4376
2026-01-06 11:48:38.15	333.29	22.35	-46.3	-47.4	15.1	0.00e+00	0	29	0	3510632448	57	4418
2026-01-06 11:48:39.00	333.30	22.22	-46.3	-47.4	15.1	0.00e+00	0	29	0	3515875328	57	4421
2026-01-06 11:48:40.14	333.32	22.06	-46.4	-47.5	15.2	0.00e+00	0	29	0	3521118208	58	4220
2026-01-06 11:48:40.99	333.33	21.94	-46.4	-47.5	15.2	0.00e+00	0	29	0	3526361088	58	4208
2026-01-06 11:48:42.12	333.34	21.78	-46.5	-47.6	15.2	0.00e+00	0	29	0	3532652544	58	4274
2026-01-06 11:48:42.96	333.35	21.67	-46.5	-47.6	15.2	0.00e+00	0	29	0	3537895424	58	4265
2026-01-06 11:48:44.10	333.37	21.51	-46.5	-47.6	15.2	0.00e+00	0	29	0	3544186880	58	4245
2026-01-06 11:48:44.95	333.38	21.39	-46.5	-47.6	15.2	0.00e+00	0	29	0	3548381184	58	4254
2026-01-06 11:48:46.09	333.39	21.23	-46.6	-47.7	15.1	0.00e+00	0	29	0	3554672640	58	4325
2026-01-06 11:48:46.94	333.40	21.12	-46.6	-47.6	15.1	0.00e+00	0	29	0	3559915520	58	4290
2026-01-06 11:48:48.07	333.42	20.97	-46.6	-47.7	15.1	0.00e+00	0	29	0	3566206976	58	4295
2026-01-06 11:48:48.92	333.43	20.85	-46.7	-47.7	15.1	0.00e+00	0	29	0	3571449856	58	4338
2026-01-06 11:48:50.06	333.44	20.70	-46.6	-47.7	15.1	0.00e+00	0	29	0	3577741312	58	4334
2026-01-06 11:48:50.90	333.45	20.59	-46.6	-47.7	15.1	0.00e+00	0	29	0	3581935616	58	4329
2026-01-06 11:48:52.05	333.47	20.43	-46.8	-47.8	15.1	0.00e+00	0	29	0	3589275648	58	4388
2026-01-06 11:48:52.90	333.48	20.32	-46.7	-47.8	15.1	0.00e+00	0	29	0	3593469952	58	4350
2026-01-06 11:48:54.03	333.49	20.17	-46.7	-47.8	15.1	0.00e+00	0	29	0	3599761408	58	4357
2026-01-06 11:48:54.88	333.50	20.06	-46.7	-47.8	15.1	0.00e+00	0	29	0	3605004288	58	4370
2026-01-06 11:48:56.01	333.51	19.91	-46.8	-47.9	15.1	0.00e+00	0	29	0	3611295744	58	4413
2026-01-06 11:48:56.87	333.52	19.80	-46.9	-48.0	15.1	0.00e+00	0	29	0	3615490048	59	4211
2026-01-06 11:48:57.99	333.54	19.66	-46.9	-48.0	15.1	0.00e+00	0	29	0	3621781504	59	4228
2026-01-06 11:48:58.85	333.55	19.55	-46.9	-48.0	15.1	0.00e+00	0	29	0	3627024384	59	4231
2026-01-06 11:48:59.98	333.56	19.40	-47.0	-48.1	15.1	0.00e+00	0	29	0	3633315840	59	4257
2026-01-06 11:49:00.83	333.57	19.30	-47.0	-48.1	15.1	0.00e+00	0	29	0	3638558720	59	4262
2026-01-06 11:49:01.97	333.58	19.15	-47.2	-48.3	15.1	0.00e+00	0	29	0	3644850176	59	4354
2026-01-06 11:49:02.82	333.59	19.04	-47.1	-48.2	15.1	0.00e+00	0	29	0	3649044480	59	4330
2026-01-06 11:49:03.95	333.61	18.90	-47.1	-48.2	15.1	0.00e+00	0	29	0	3655335936	59	4312
2026-01-06 11:49:04.80	333.61	18.80	-47.1	-48.2	15.1	0.00e+00	0	29	0	3660578816	59	4330
2026-01-06 11:49:05.94	333.63	18.66	-47.3	-48.4	15.0	0.00e+00	0	29	0	3666870272	59	4398
2026-01-06 11:49:06.79	333.64	18.55	-47.1	-48.3	15.1	0.00e+00	0	29	0	3671064576	59	4358
2026-01-06 11:49:07.92	333.65	18.41	-47.2	-48.4	15.0	0.00e+00	0	29	0	3678404608	59	4400
2026-01-06 11:49:08.78	333.66	18.31	-47.4	-48.5	15.0	0.00e+00	0	29	0	3682598912	59	4472
