passes_logs/2026/01/06/R3.2S_Murmansk/R3.2S_Murmansk__20260106_212051_NOAA_20_JPSS-1_rec.log

#Pass ID: 20260106_212051_NOAA 20 (JPSS-1)
#Satellite: NOAA 20 (JPSS-1)
#Configuration: NOAA 20
#almurnet v.1.7.20251203
#Start time: 2026-01-06 21:20:50

#Version: 2.2.20231116
#Station: R3.2S_Murmansk
#Location: 33.079688 lon 68.888172 lat
#TLE: 1 43013U 17073A   26006.30790171  .00000126  00000+0  80695-4 0  9991
#TLE: 2 43013  98.7629 307.3394 0001808  51.8724 308.2615 14.19533762421505

#Time	Az	El	Level	Level2	SNR	BER	BlckErr	Temp	State	Recorded	gain1	gain2
2026-01-06 21:20:50.75	18.35	1.97	-57.6	-73.6	3.8	1.49e+00	0	23	0	0	81	22663
2026-01-06 21:20:51.75	18.45	2.02	-57.6	-73.6	3.8	1.49e+00	0	23	104	0	80	23866
2026-01-06 21:20:52.75	18.55	2.06	-57.6	-73.5	3.8	1.49e+00	0	23	104	0	80	23749
2026-01-06 21:20:53.75	18.64	2.11	-57.6	-73.5	3.8	1.49e+00	0	23	104	0	80	23797
2026-01-06 21:20:54.75	18.74	2.15	-57.6	-73.5	3.8	1.49e+00	0	23	104	0	80	23814
2026-01-06 21:20:55.76	18.84	2.20	-57.6	-73.5	3.8	1.49e+00	0	23	104	0	80	23843
2026-01-06 21:20:56.76	18.94	2.25	-57.6	-73.6	3.8	1.49e+00	0	23	104	0	80	23877
2026-01-06 21:20:57.76	19.03	2.29	-57.6	-73.6	3.8	1.49e+00	0	23	104	0	80	23999
2026-01-06 21:20:58.77	19.13	2.34	-57.6	-73.6	3.8	1.49e+00	0	23	104	0	80	23878
2026-01-06 21:20:59.77	19.23	2.38	-57.6	-73.6	3.8	1.49e+00	0	23	104	0	80	23889
2026-01-06 21:21:00.77	19.33	2.43	-57.6	-73.6	3.8	1.49e+00	0	24	104	0	80	23906
2026-01-06 21:21:01.77	19.43	2.47	-57.6	-73.6	3.8	1.49e+00	0	24	104	0	80	23899
2026-01-06 21:21:02.78	19.53	2.52	-57.6	-73.6	3.8	1.49e+00	0	24	104	0	80	23932
2026-01-06 21:21:03.77	19.63	2.56	-57.6	-73.5	3.8	1.49e+00	0	24	104	0	80	23778
2026-01-06 21:21:04.77	19.73	2.61	-57.6	-73.5	3.8	1.49e+00	0	24	104	0	80	23785
2026-01-06 21:21:05.77	19.83	2.65	-57.6	-73.5	3.8	1.49e+00	0	24	104	0	80	23847
2026-01-06 21:21:06.78	19.93	2.70	-57.6	-73.6	3.8	1.49e+00	0	24	104	0	80	23879
2026-01-06 21:21:07.78	20.03	2.74	-57.6	-73.6	3.8	1.49e+00	0	24	104	0	80	23879
2026-01-06 21:21:08.78	20.13	2.79	-57.6	-73.6	3.8	1.49e+00	0	24	104	0	80	23955
2026-01-06 21:21:09.78	20.23	2.83	-57.6	-73.6	3.8	1.49e+00	0	24	104	0	80	24009
2026-01-06 21:21:10.78	20.34	2.88	-57.6	-73.6	3.8	1.49e+00	0	24	104	0	80	24053
2026-01-06 21:21:11.78	20.44	2.92	-57.6	-73.6	3.8	1.49e+00	0	24	104	0	80	24013
2026-01-06 21:21:12.77	20.54	2.97	-57.6	-73.6	3.8	1.49e+00	0	24	104	0	80	24094
2026-01-06 21:21:13.77	20.64	3.01	-57.6	-73.6	3.9	1.49e+00	0	24	104	0	80	24020
2026-01-06 21:21:14.77	20.74	3.06	-57.6	-73.6	3.8	1.49e+00	0	24	104	0	80	24076
2026-01-06 21:21:15.77	20.85	3.10	-57.6	-73.6	3.8	1.49e+00	0	24	104	0	80	24019
2026-01-06 21:21:16.76	20.95	3.15	-57.6	-73.6	3.8	1.49e+00	0	24	104	0	80	23992
2026-01-06 21:21:17.75	21.05	3.19	-57.6	-73.5	3.8	1.49e+00	0	24	104	0	80	23823
2026-01-06 21:21:18.76	21.16	3.24	-57.6	-73.5	3.8	1.49e+00	0	24	104	0	80	23732
2026-01-06 21:21:19.76	21.26	3.29	-57.6	-73.5	3.8	1.49e+00	0	24	104	0	80	23854
2026-01-06 21:21:20.75	21.37	3.33	-57.6	-73.5	3.8	1.49e+00	0	24	104	0	80	23821
2026-01-06 21:21:21.76	21.47	3.38	-57.6	-73.5	3.8	1.49e+00	0	24	104	0	80	23838
2026-01-06 21:21:22.76	21.58	3.42	-57.6	-73.6	3.8	1.49e+00	0	24	104	0	80	23938
2026-01-06 21:21:23.76	21.68	3.47	-57.6	-73.6	3.8	1.49e+00	0	24	104	0	80	24000
2026-01-06 21:21:24.76	21.79	3.51	-57.6	-73.6	3.8	1.49e+00	0	24	104	0	80	24044
2026-01-06 21:21:25.76	21.90	3.56	-57.6	-73.6	3.8	1.49e+00	0	24	104	0	80	23941
2026-01-06 21:21:26.75	22.00	3.60	-57.6	-73.5	3.8	1.49e+00	0	24	104	0	80	23808
2026-01-06 21:21:27.74	22.11	3.65	-57.6	-73.6	3.8	1.49e+00	0	24	104	0	80	23906
2026-01-06 21:21:28.74	22.21	3.69	-57.6	-73.6	3.8	1.49e+00	0	24	104	0	80	24044
2026-01-06 21:21:29.74	22.32	3.74	-57.6	-73.6	3.8	1.49e+00	0	24	104	0	80	24074
2026-01-06 21:21:30.74	22.43	3.78	-57.6	-73.6	3.8	1.49e+00	0	24	104	0	80	24069
2026-01-06 21:21:31.74	22.54	3.83	-57.6	-73.5	3.8	1.49e+00	0	24	104	0	80	23818
2026-01-06 21:21:32.74	22.65	3.87	-57.6	-73.4	3.8	1.49e+00	0	24	104	0	80	23433
2026-01-06 21:21:33.74	22.75	3.92	-57.6	-73.3	3.8	1.49e+00	0	24	104	0	80	23234
2026-01-06 21:21:34.74	22.86	3.96	-57.6	-73.3	3.8	1.49e+00	0	24	104	0	80	23298
2026-01-06 21:21:35.74	22.97	4.01	-57.6	-73.4	3.8	1.49e+00	0	24	104	0	80	23505
2026-01-06 21:21:36.74	23.08	4.05	-57.6	-73.5	3.8	1.49e+00	0	24	104	0	80	23638
2026-01-06 21:21:37.75	23.19	4.10	-57.6	-73.5	3.8	1.49e+00	0	24	104	0	80	23829
2026-01-06 21:21:38.75	23.30	4.14	-57.6	-73.4	3.8	1.49e+00	0	25	104	0	80	23495
2026-01-06 21:21:39.76	23.42	4.19	-57.6	-73.0	3.8	1.49e+00	0	24	104	0	80	22371
2026-01-06 21:21:40.76	23.53	4.23	-57.6	-72.3	3.8	1.49e+00	0	24	104	0	80	20739
2026-01-06 21:21:41.76	23.64	4.28	-57.6	-71.9	3.8	1.49e+00	0	24	104	0	80	19674
2026-01-06 21:21:42.77	23.75	4.32	-57.5	-71.3	3.8	1.49e+00	0	24	104	0	80	18463
2026-01-06 21:21:43.76	23.86	4.37	-57.5	-71.4	4.0	1.48e+00	0	24	104	0	80	18521
2026-01-06 21:21:44.76	23.97	4.41	-57.5	-71.2	3.9	1.48e+00	0	24	104	0	80	18194
2026-01-06 21:21:45.76	24.09	4.46	-57.5	-69.9	4.2	1.43e+00	0	24	0	0	80	15736
2026-01-06 21:21:46.76	24.20	4.50	-57.3	-68.0	5.0	1.06e+00	0	24	0	1048576	80	12542
2026-01-06 21:21:47.77	24.31	4.55	-57.0	-65.2	6.8	2.52e-01	0	24	0	3145728	80	9107
2026-01-06 21:21:48.77	24.43	4.59	-56.4	-62.7	8.9	3.92e-02	0	24	0	4194304	79	7233
2026-01-06 21:21:49.77	24.54	4.64	-55.7	-60.6	10.7	2.16e-03	0	24	0	6291456	78	6001
2026-01-06 21:21:50.76	24.66	4.68	-55.6	-60.3	10.8	3.13e-04	0	24	0	8388608	77	6182
2026-01-06 21:21:51.76	24.77	4.73	-54.9	-58.7	12.0	1.83e-05	0	25	0	10485760	76	5443
2026-01-06 21:21:52.76	24.89	4.77	-54.8	-58.4	12.2	3.80e-06	0	24	0	12582912	76	5264
2026-01-06 21:21:53.76	25.00	4.82	-54.8	-58.6	12.0	7.00e-07	0	24	0	13631488	75	5704
2026-01-06 21:21:54.76	25.12	4.86	-54.9	-58.8	11.9	8.30e-06	0	25	0	15728640	75	5832
2026-01-06 21:21:55.76	25.23	4.91	-55.3	-59.8	11.2	2.59e-05	0	24	0	17825792	75	6496
2026-01-06 21:21:56.76	25.35	4.95	-55.9	-61.1	10.2	6.38e-04	0	25	0	19922944	76	7173
2026-01-06 21:21:57.76	25.47	5.00	-56.3	-62.3	9.2	5.23e-03	0	25	0	20971520	77	7791
2026-01-06 21:21:58.76	25.58	5.04	-56.3	-62.2	9.3	9.25e-03	0	25	0	23068672	77	7689
2026-01-06 21:21:59.76	25.70	5.09	-57.0	-67.0	5.4	3.66e-02	0	25	0	25165824	79	11842
2026-01-06 21:22:00.77	25.82	5.13	-56.2	-61.5	10.2	4.64e-01	0	25	0	27262976	78	6669
2026-01-06 21:22:01.77	25.94	5.18	-54.1	-57.1	13.0	4.28e-04	0	25	0	29360128	74	5077
2026-01-06 21:22:02.77	26.05	5.22	-57.2	-66.1	6.3	6.49e-04	0	25	0	30408704	79	10724
2026-01-06 21:22:03.77	26.17	5.27	-54.8	-58.3	12.4	3.45e-01	0	25	0	32505856	76	5206
2026-01-06 21:22:04.77	26.29	5.31	-54.0	-56.9	13.3	0.00e+00	0	25	0	34603008	74	4943
2026-01-06 21:22:05.76	26.41	5.36	-53.5	-56.1	13.6	0.00e+00	0	25	0	36700160	73	4807
2026-01-06 21:22:06.76	26.53	5.40	-53.7	-56.5	13.4	0.00e+00	0	25	0	38797312	73	4994
2026-01-06 21:22:07.76	26.65	5.45	-53.8	-56.7	13.2	0.00e+00	0	24	0	39845888	73	5101
2026-01-06 21:22:08.76	26.77	5.49	-53.6	-56.3	13.5	0.00e+00	0	25	0	41943040	73	4881
2026-01-06 21:22:09.77	26.89	5.54	-53.5	-56.1	13.7	0.00e+00	0	25	0	44040192	73	4795
2026-01-06 21:22:10.78	27.02	5.58	-53.3	-55.9	13.7	0.00e+00	0	25	0	46137344	73	4678
2026-01-06 21:22:11.78	27.14	5.63	-53.6	-56.2	13.6	0.00e+00	0	25	0	47185920	73	4857
2026-01-06 21:22:12.77	27.26	5.67	-53.6	-56.2	13.5	0.00e+00	0	25	0	49283072	73	4867
2026-01-06 21:22:13.77	27.38	5.71	-53.6	-56.3	13.5	0.00e+00	0	25	0	51380224	73	4890
2026-01-06 21:22:14.76	27.50	5.76	-53.5	-56.0	13.7	0.00e+00	0	25	0	53477376	73	4755
2026-01-06 21:22:15.76	27.63	5.80	-53.6	-56.2	13.7	0.00e+00	0	25	0	55574528	73	4842
2026-01-06 21:22:16.76	27.75	5.85	-53.7	-56.5	13.4	0.00e+00	0	25	0	56623104	73	4990
2026-01-06 21:22:17.77	27.87	5.89	-53.5	-56.1	13.6	0.00e+00	0	25	0	58720256	73	4797
2026-01-06 21:22:18.76	28.00	5.94	-53.6	-56.2	13.6	0.00e+00	0	25	0	60817408	73	4856
2026-01-06 21:22:19.76	28.12	5.98	-53.5	-56.1	13.7	0.00e+00	0	25	0	62914560	73	4809
2026-01-06 21:22:20.76	28.25	6.02	-53.7	-56.3	13.6	0.00e+00	0	25	0	65011712	73	4925
2026-01-06 21:22:21.76	28.37	6.07	-53.8	-56.5	13.5	0.00e+00	0	25	0	66060288	73	5019
2026-01-06 21:22:22.76	28.50	6.11	-53.5	-56.1	13.7	0.00e+00	0	25	0	68157440	73	4764
2026-01-06 21:22:23.76	28.62	6.16	-53.3	-55.8	13.8	0.00e+00	0	25	0	70254592	73	4640
2026-01-06 21:22:24.76	28.75	6.20	-53.6	-56.3	13.6	0.00e+00	0	25	0	72351744	73	4916
2026-01-06 21:22:25.75	28.87	6.24	-53.5	-56.1	13.7	0.00e+00	0	25	0	74448896	73	4798
2026-01-06 21:22:26.76	29.00	6.29	-53.6	-56.2	13.6	0.00e+00	0	25	0	75497472	73	4868
2026-01-06 21:22:27.75	29.13	6.33	-53.5	-56.1	13.7	0.00e+00	0	25	0	77594624	73	4795
2026-01-06 21:22:28.74	29.25	6.38	-53.3	-55.8	13.9	0.00e+00	0	25	0	79691776	73	4638
2026-01-06 21:22:29.74	29.38	6.42	-53.5	-56.0	13.8	0.00e+00	0	25	0	81788928	73	4727
2026-01-06 21:22:30.74	29.51	6.46	-53.5	-56.1	13.7	0.00e+00	0	25	0	82837504	73	4760
2026-01-06 21:22:31.75	29.64	6.51	-53.5	-56.0	13.7	0.00e+00	0	25	0	84934656	73	4725
2026-01-06 21:22:32.75	29.77	6.55	-53.5	-56.1	13.7	0.00e+00	0	25	0	87031808	73	4797
2026-01-06 21:22:33.75	29.90	6.60	-53.7	-56.3	13.6	0.00e+00	0	25	0	89128960	73	4893
2026-01-06 21:22:34.74	30.03	6.64	-53.6	-56.2	13.6	0.00e+00	0	25	0	91226112	73	4869
2026-01-06 21:22:35.74	30.16	6.68	-53.4	-55.9	13.9	0.00e+00	0	25	0	92274688	73	4656
2026-01-06 21:22:36.74	30.29	6.73	-53.6	-56.2	13.6	0.00e+00	0	25	0	94371840	73	4823
2026-01-06 21:22:37.74	30.42	6.77	-53.6	-56.2	13.7	0.00e+00	0	25	0	96468992	73	4853
2026-01-06 21:22:38.73	30.55	6.81	-53.5	-56.1	13.8	0.00e+00	0	25	0	98566144	73	4760
2026-01-06 21:22:39.73	30.68	6.86	-53.5	-56.0	13.8	0.00e+00	0	25	0	99614720	73	4756
2026-01-06 21:22:40.73	30.82	6.90	-53.5	-56.1	13.8	0.00e+00	0	25	0	101711872	73	4776
2026-01-06 21:22:41.73	30.95	6.94	-53.6	-56.2	13.7	0.00e+00	0	25	0	103809024	73	4862
2026-01-06 21:22:42.73	31.08	6.99	-53.5	-56.0	13.8	0.00e+00	0	25	0	105906176	73	4730
2026-01-06 21:22:43.73	31.21	7.03	-53.3	-55.8	13.9	0.00e+00	0	25	0	108003328	73	4599
2026-01-06 21:22:44.73	31.35	7.07	-53.4	-55.9	13.9	0.00e+00	0	25	0	109051904	73	4659
2026-01-06 21:22:45.72	31.48	7.11	-53.3	-55.7	14.0	0.00e+00	0	25	0	111149056	73	4563
2026-01-06 21:22:46.73	31.62	7.16	-53.3	-55.8	13.9	0.00e+00	0	25	0	113246208	73	4607
2026-01-06 21:22:47.74	31.75	7.20	-53.3	-55.8	13.9	0.00e+00	0	25	0	115343360	73	4626
2026-01-06 21:22:48.74	31.89	7.24	-53.2	-55.6	14.1	0.00e+00	0	25	0	117440512	73	4519
2026-01-06 21:22:49.73	32.02	7.29	-53.3	-55.6	14.0	0.00e+00	0	25	0	118489088	73	4540
2026-01-06 21:22:50.73	32.16	7.33	-53.2	-55.6	14.0	0.00e+00	0	25	0	120586240	73	4531
2026-01-06 21:22:51.73	32.29	7.37	-53.3	-55.8	13.8	0.00e+00	0	25	0	122683392	72	4899
2026-01-06 21:22:52.74	32.43	7.42	-53.3	-55.7	13.9	0.00e+00	0	25	0	124780544	72	4821
2026-01-06 21:22:53.73	32.57	7.46	-53.3	-55.8	13.8	0.00e+00	0	25	0	125829120	72	4898
2026-01-06 21:22:54.74	32.71	7.50	-53.3	-55.8	13.8	0.00e+00	0	25	0	127926272	72	4875
2026-01-06 21:22:55.75	32.85	7.54	-53.4	-55.8	13.7	0.00e+00	0	25	0	130023424	72	4919
2026-01-06 21:22:56.75	32.99	7.59	-53.2	-55.6	13.9	0.00e+00	0	25	0	132120576	72	4791
2026-01-06 21:22:57.75	33.12	7.63	-53.3	-55.8	13.8	0.00e+00	0	25	0	134217728	72	4883
2026-01-06 21:22:58.76	33.26	7.67	-53.4	-55.8	13.8	0.00e+00	0	25	0	136314880	72	4919
2026-01-06 21:22:59.76	33.40	7.71	-53.4	-55.8	13.8	0.00e+00	0	25	0	137363456	72	4907
2026-01-06 21:23:00.76	33.54	7.76	-53.4	-55.8	13.8	0.00e+00	0	25	0	139460608	72	4922
2026-01-06 21:23:01.75	33.68	7.80	-53.4	-55.9	13.7	0.00e+00	0	25	0	141557760	72	4957
2026-01-06 21:23:02.75	33.82	7.84	-53.5	-56.0	13.7	0.00e+00	0	25	0	143654912	72	5036
2026-01-06 21:23:03.75	33.96	7.88	-53.5	-56.0	13.7	0.00e+00	0	25	0	144703488	72	5014
2026-01-06 21:23:04.75	34.11	7.92	-53.5	-55.9	13.7	0.00e+00	0	25	0	146800640	72	4979
2026-01-06 21:23:05.74	34.25	7.96	-53.5	-56.0	13.7	0.00e+00	0	25	0	148897792	72	4988
2026-01-06 21:23:06.75	34.39	8.01	-53.5	-55.9	13.7	0.00e+00	0	25	0	150994944	72	4982
2026-01-06 21:23:07.75	34.53	8.05	-53.4	-55.9	13.7	0.00e+00	0	25	0	153092096	72	4969
2026-01-06 21:23:08.76	34.68	8.09	-53.5	-56.0	13.7	0.00e+00	0	25	0	154140672	72	5026
2026-01-06 21:23:09.76	34.82	8.13	-53.6	-56.1	13.6	0.00e+00	0	25	0	156237824	72	5082
2026-01-06 21:23:10.76	34.96	8.17	-53.5	-55.9	13.7	0.00e+00	0	25	0	158334976	72	4977
2026-01-06 21:23:11.76	35.11	8.21	-53.4	-55.8	13.8	0.00e+00	0	25	0	160432128	72	4891
2026-01-06 21:23:12.76	35.25	8.25	-53.4	-55.8	13.8	0.00e+00	0	25	0	162529280	72	4919
2026-01-06 21:23:13.76	35.40	8.30	-53.4	-55.9	13.8	0.00e+00	0	25	0	163577856	72	4927
2026-01-06 21:23:14.77	35.55	8.34	-53.4	-55.8	13.8	0.00e+00	0	25	0	165675008	72	4917
2026-01-06 21:23:15.77	35.69	8.38	-53.4	-55.9	13.8	0.00e+00	0	25	0	167772160	72	4930
2026-01-06 21:23:16.77	35.84	8.42	-53.4	-55.8	13.8	0.00e+00	0	25	0	169869312	72	4914
2026-01-06 21:23:17.77	35.98	8.46	-53.4	-55.9	13.8	0.00e+00	0	25	0	171966464	72	4949
2026-01-06 21:23:18.78	36.13	8.50	-53.4	-55.8	13.8	0.00e+00	0	25	0	173015040	72	4904
2026-01-06 21:23:19.78	36.28	8.54	-53.4	-55.9	13.8	0.00e+00	0	25	0	175112192	72	4948
2026-01-06 21:23:20.78	36.43	8.58	-53.4	-55.9	13.8	0.00e+00	0	25	0	177209344	72	4950
2026-01-06 21:23:21.77	36.57	8.62	-53.5	-55.9	13.8	0.00e+00	0	25	0	179306496	72	4965
2026-01-06 21:23:22.77	36.72	8.66	-53.5	-56.0	13.7	0.00e+00	0	25	0	180355072	72	5004
2026-01-06 21:23:23.76	36.87	8.70	-53.6	-56.2	13.6	0.00e+00	0	25	0	182452224	72	5106
2026-01-06 21:23:24.75	37.02	8.74	-53.5	-56.0	13.7	0.00e+00	0	25	0	184549376	72	4997
2026-01-06 21:23:25.75	37.17	8.78	-53.6	-56.2	13.6	0.00e+00	0	25	0	186646528	72	5104
2026-01-06 21:23:26.75	37.32	8.82	-53.6	-56.1	13.7	0.00e+00	0	25	0	188743680	72	5075
2026-01-06 21:23:27.75	37.47	8.86	-53.6	-56.1	13.7	0.00e+00	0	25	0	189792256	72	5048
2026-01-06 21:23:28.75	37.62	8.90	-53.5	-55.9	13.8	0.00e+00	0	25	0	191889408	72	4949
2026-01-06 21:23:29.75	37.77	8.94	-53.4	-55.8	13.8	0.00e+00	0	25	0	193986560	72	4879
2026-01-06 21:23:30.75	37.92	8.98	-53.5	-55.9	13.8	0.00e+00	0	25	0	196083712	72	4965
2026-01-06 21:23:31.75	38.07	9.02	-53.4	-55.9	13.8	0.00e+00	0	25	0	198180864	72	4939
2026-01-06 21:23:32.74	38.23	9.06	-53.5	-56.0	13.7	0.00e+00	0	25	0	199229440	72	5021
2026-01-06 21:23:33.75	38.38	9.10	-53.5	-56.0	13.7	0.00e+00	0	25	0	201326592	72	5018
2026-01-06 21:23:34.76	38.53	9.14	-53.5	-56.0	13.7	0.00e+00	0	25	0	203423744	72	5013
2026-01-06 21:23:35.77	38.69	9.17	-53.6	-56.1	13.6	0.00e+00	0	25	0	205520896	72	5099
2026-01-06 21:23:36.77	38.84	9.21	-53.6	-56.1	13.7	0.00e+00	0	25	0	206569472	72	5064
2026-01-06 21:23:37.77	39.00	9.25	-53.6	-56.0	13.7	0.00e+00	0	25	0	208666624	72	5040
2026-01-06 21:23:38.78	39.16	9.29	-53.5	-56.0	13.7	0.00e+00	0	25	0	210763776	72	5009
2026-01-06 21:23:39.79	39.31	9.33	-53.5	-55.9	13.7	0.00e+00	0	25	0	212860928	72	4970
2026-01-06 21:23:40.79	39.47	9.37	-53.4	-55.9	13.8	0.00e+00	0	25	0	214958080	72	4939
2026-01-06 21:23:41.79	39.62	9.41	-53.5	-55.9	13.8	0.00e+00	0	25	0	216006656	72	4970
2026-01-06 21:23:42.79	39.78	9.44	-53.4	-55.8	13.8	0.00e+00	0	25	0	218103808	72	4908
2026-01-06 21:23:43.79	39.94	9.48	-53.4	-55.8	13.8	0.00e+00	0	25	0	220200960	72	4895
2026-01-06 21:23:44.80	40.10	9.52	-53.4	-55.8	13.8	0.00e+00	0	25	0	222298112	72	4892
2026-01-06 21:23:45.79	40.25	9.56	-53.5	-55.9	13.8	0.00e+00	0	25	0	224395264	72	4964
2026-01-06 21:23:46.79	40.41	9.59	-53.6	-56.1	13.6	0.00e+00	0	25	0	225443840	72	5079
2026-01-06 21:23:47.79	40.57	9.63	-53.6	-56.1	13.7	0.00e+00	0	25	0	227540992	72	5073
2026-01-06 21:23:48.80	40.73	9.67	-53.6	-56.2	13.6	0.00e+00	0	25	0	229638144	72	5105
2026-01-06 21:23:49.80	40.89	9.71	-53.7	-56.2	13.6	0.00e+00	0	25	0	231735296	72	5127
2026-01-06 21:23:50.80	41.05	9.74	-53.7	-56.2	13.6	0.00e+00	0	25	0	233832448	72	5119
2026-01-06 21:23:51.80	41.21	9.78	-53.6	-56.1	13.7	0.00e+00	0	25	0	234881024	72	5054
2026-01-06 21:23:52.80	41.37	9.82	-53.6	-56.1	13.7	0.00e+00	0	25	0	236978176	72	5068
2026-01-06 21:23:53.79	41.53	9.85	-53.6	-56.1	13.7	0.00e+00	0	25	0	239075328	72	5067
2026-01-06 21:23:54.80	41.69	9.89	-53.5	-55.9	13.8	0.00e+00	0	25	0	241172480	72	4956
2026-01-06 21:23:55.80	41.85	9.93	-53.5	-55.9	13.8	0.00e+00	0	25	0	243269632	72	4947
2026-01-06 21:23:56.81	42.02	9.96	-53.4	-55.9	13.8	0.00e+00	0	25	0	244318208	72	4939
2026-01-06 21:23:57.80	42.18	10.00	-53.4	-55.9	13.8	0.00e+00	0	25	0	246415360	72	4934
2026-01-06 21:23:58.80	42.34	10.03	-53.4	-55.8	13.8	0.00e+00	0	25	0	248512512	72	4913
2026-01-06 21:23:59.80	42.50	10.07	-53.3	-55.6	14.0	0.00e+00	0	25	0	250609664	72	4786
2026-01-06 21:24:00.80	42.67	10.10	-53.3	-55.7	13.9	0.00e+00	0	25	0	251658240	72	4845
2026-01-06 21:24:01.79	42.83	10.14	-53.3	-55.7	13.9	0.00e+00	0	25	0	253755392	72	4816
2026-01-06 21:24:02.79	42.99	10.17	-53.3	-55.6	14.0	0.00e+00	0	25	0	255852544	72	4779
2026-01-06 21:24:03.79	43.16	10.21	-53.3	-55.6	14.0	0.00e+00	0	25	0	257949696	72	4813
2026-01-06 21:24:04.80	43.32	10.24	-53.3	-55.7	13.9	0.00e+00	0	25	0	260046848	72	4817
2026-01-06 21:24:05.80	43.49	10.28	-53.3	-55.6	14.0	0.00e+00	0	25	0	261095424	72	4763
2026-01-06 21:24:06.80	43.65	10.31	-53.4	-55.8	13.8	0.00e+00	0	25	0	263192576	72	4899
2026-01-06 21:24:07.80	43.82	10.35	-53.6	-56.0	13.7	0.00e+00	0	25	0	265289728	72	5041
2026-01-06 21:24:08.80	43.99	10.38	-53.6	-56.1	13.6	0.00e+00	0	25	0	267386880	72	5095
2026-01-06 21:24:09.80	44.15	10.42	-53.7	-56.2	13.6	0.00e+00	0	25	0	269484032	72	5158
2026-01-06 21:24:10.80	44.32	10.45	-53.6	-56.0	13.7	0.00e+00	0	25	0	270532608	72	5032
2026-01-06 21:24:11.80	44.49	10.48	-53.6	-56.1	13.7	0.00e+00	0	25	0	272629760	72	5056
2026-01-06 21:24:12.80	44.66	10.52	-53.6	-56.1	13.7	0.00e+00	0	25	0	274726912	72	5054
2026-01-06 21:24:13.80	44.83	10.55	-53.6	-56.0	13.8	0.00e+00	0	25	0	276824064	72	5010
2026-01-06 21:24:14.80	44.99	10.58	-53.5	-56.0	13.8	0.00e+00	0	25	0	277872640	72	5008
2026-01-06 21:24:15.80	45.16	10.62	-53.5	-55.9	13.8	0.00e+00	0	25	0	279969792	72	4979
2026-01-06 21:24:16.80	45.33	10.65	-53.5	-55.9	13.8	0.00e+00	0	25	0	282066944	72	4979
2026-01-06 21:24:17.79	45.50	10.68	-53.5	-56.0	13.7	0.00e+00	0	25	0	284164096	72	4994
2026-01-06 21:24:18.80	45.67	10.72	-53.5	-56.0	13.8	0.00e+00	0	25	0	286261248	72	4988
2026-01-06 21:24:19.79	45.84	10.75	-53.5	-56.0	13.8	0.00e+00	0	25	0	287309824	72	4987
2026-01-06 21:24:20.80	46.02	10.78	-53.6	-56.0	13.8	0.00e+00	0	25	0	289406976	72	5020
2026-01-06 21:24:21.80	46.19	10.81	-53.6	-56.1	13.7	0.00e+00	0	25	0	291504128	72	5078
2026-01-06 21:24:22.79	46.36	10.84	-53.6	-56.1	13.7	0.00e+00	0	25	0	293601280	72	5085
2026-01-06 21:24:23.79	46.53	10.87	-53.7	-56.2	13.6	0.00e+00	0	25	0	295698432	72	5124
2026-01-06 21:24:24.78	46.70	10.91	-53.6	-56.0	13.7	0.00e+00	0	25	0	296747008	72	5037
2026-01-06 21:24:25.78	46.87	10.94	-53.5	-55.9	13.8	0.00e+00	0	25	0	298844160	72	4961
2026-01-06 21:24:26.77	47.04	10.97	-53.5	-55.9	13.8	0.00e+00	0	25	0	300941312	72	4980
2026-01-06 21:24:27.77	47.22	11.00	-53.6	-56.0	13.7	0.00e+00	0	25	0	303038464	72	5016
2026-01-06 21:24:28.76	47.39	11.03	-53.5	-55.9	13.8	0.00e+00	0	25	0	304087040	72	4941
2026-01-06 21:24:29.76	47.56	11.06	-53.5	-55.9	13.8	0.00e+00	0	25	0	306184192	72	4959
2026-01-06 21:24:30.77	47.74	11.09	-53.6	-56.0	13.7	0.00e+00	0	25	0	308281344	72	5033
2026-01-06 21:24:31.77	47.92	11.12	-53.7	-56.2	13.7	0.00e+00	0	25	0	310378496	72	5124
2026-01-06 21:24:32.77	48.09	11.15	-53.7	-56.3	13.6	0.00e+00	0	25	0	312475648	72	5161
2026-01-06 21:24:33.77	48.27	11.18	-53.8	-56.3	13.6	0.00e+00	0	25	0	313524224	72	5203
2026-01-06 21:24:34.76	48.44	11.21	-53.8	-56.4	13.5	0.00e+00	0	25	0	315621376	72	5246
2026-01-06 21:24:35.77	48.62	11.24	-53.8	-56.3	13.6	0.00e+00	0	25	0	317718528	72	5190
2026-01-06 21:24:36.76	48.79	11.27	-53.7	-56.3	13.6	0.00e+00	0	25	0	319815680	72	5165
2026-01-06 21:24:37.76	48.97	11.30	-53.7	-56.1	13.7	0.00e+00	0	25	0	321912832	72	5096
2026-01-06 21:24:38.76	49.15	11.32	-53.7	-56.1	13.7	0.00e+00	0	25	0	322961408	72	5092
2026-01-06 21:24:39.77	49.33	11.35	-53.6	-56.0	13.7	0.00e+00	0	25	0	325058560	72	5016
2026-01-06 21:24:40.76	49.50	11.38	-53.4	-55.8	13.9	0.00e+00	0	25	0	327155712	72	4884
2026-01-06 21:24:41.75	49.68	11.41	-53.3	-55.6	14.0	0.00e+00	0	25	0	329252864	72	4760
2026-01-06 21:24:42.75	49.86	11.44	-53.2	-55.5	14.0	0.00e+00	0	25	0	330301440	72	4725
2026-01-06 21:24:43.75	50.04	11.46	-53.3	-55.6	14.0	0.00e+00	0	25	0	332398592	72	4792
2026-01-06 21:24:44.75	50.22	11.49	-53.3	-55.5	14.0	0.00e+00	0	25	0	334495744	72	4750
2026-01-06 21:24:45.75	50.40	11.52	-53.2	-55.5	14.1	0.00e+00	0	25	0	336592896	72	4720
2026-01-06 21:24:46.75	50.58	11.55	-53.3	-55.5	14.0	0.00e+00	0	25	0	338690048	72	4744
2026-01-06 21:24:47.74	50.76	11.57	-53.4	-55.7	13.9	0.00e+00	0	25	0	339738624	72	4823
2026-01-06 21:24:48.75	50.94	11.60	-53.4	-55.7	13.9	0.00e+00	0	25	0	341835776	72	4842
2026-01-06 21:24:49.74	51.12	11.62	-53.4	-55.7	13.9	0.00e+00	0	25	0	343932928	72	4839
2026-01-06 21:24:50.74	51.30	11.65	-53.4	-55.8	13.9	0.00e+00	0	25	0	346030080	72	4903
2026-01-06 21:24:51.74	51.48	11.68	-53.4	-55.7	14.0	0.00e+00	0	25	0	347078656	72	4834
2026-01-06 21:24:52.74	51.66	11.70	-53.3	-55.6	14.0	0.00e+00	0	25	0	349175808	72	4776
2026-01-06 21:24:53.75	51.85	11.73	-53.3	-55.5	14.0	0.00e+00	0	25	0	351272960	72	4754
2026-01-06 21:24:54.76	52.03	11.75	-53.1	-55.3	14.1	0.00e+00	0	25	0	353370112	72	4647
2026-01-06 21:24:55.76	52.21	11.78	-53.1	-55.3	14.2	0.00e+00	0	25	0	355467264	72	4619
2026-01-06 21:24:56.77	52.40	11.80	-53.1	-55.3	14.2	0.00e+00	0	25	0	357564416	72	4610
2026-01-06 21:24:57.77	52.58	11.83	-53.0	-55.1	14.2	0.00e+00	0	25	0	358612992	72	4532
2026-01-06 21:24:58.76	52.76	11.85	-52.9	-55.0	14.3	0.00e+00	0	25	0	360710144	72	4451
2026-01-06 21:24:59.76	52.95	11.88	-52.9	-55.0	14.3	0.00e+00	0	25	0	362807296	72	4458
2026-01-06 21:25:00.76	53.13	11.90	-52.8	-55.0	14.3	0.00e+00	0	25	0	364904448	72	4443
2026-01-06 21:25:01.75	53.31	11.92	-52.9	-55.0	14.3	0.00e+00	0	25	0	365953024	72	4459
2026-01-06 21:25:02.75	53.50	11.95	-53.1	-55.2	14.2	0.00e+00	0	25	0	368050176	72	4595
2026-01-06 21:25:03.75	53.68	11.97	-53.1	-55.3	14.1	0.00e+00	0	25	0	370147328	72	4615
2026-01-06 21:25:04.75	53.87	11.99	-53.2	-55.5	14.1	0.00e+00	0	25	0	372244480	72	4706
2026-01-06 21:25:05.76	54.06	12.01	-53.4	-55.7	14.0	0.00e+00	0	25	0	374341632	72	4826
2026-01-06 21:25:06.75	54.24	12.04	-53.4	-55.8	13.9	0.00e+00	0	25	0	375390208	72	4883
2026-01-06 21:25:07.75	54.43	12.06	-53.5	-55.8	13.8	0.00e+00	0	25	0	377487360	72	4914
2026-01-06 21:25:08.75	54.61	12.08	-53.5	-55.9	13.8	0.00e+00	0	25	0	379584512	72	4940
2026-01-06 21:25:09.76	54.80	12.10	-53.5	-55.8	13.8	0.00e+00	0	25	0	381681664	72	4918
2026-01-06 21:25:10.75	54.99	12.12	-53.5	-55.9	13.8	0.00e+00	0	25	0	383778816	72	4936
2026-01-06 21:25:11.75	55.17	12.14	-53.4	-55.7	13.9	0.00e+00	0	25	0	384827392	72	4868
2026-01-06 21:25:12.75	55.36	12.16	-53.5	-55.8	13.9	0.00e+00	0	25	0	386924544	72	4901
2026-01-06 21:25:13.75	55.55	12.18	-53.4	-55.8	13.9	0.00e+00	0	25	0	389021696	72	4884
2026-01-06 21:25:14.75	55.74	12.20	-53.4	-55.7	13.9	0.00e+00	0	25	0	391118848	72	4858
2026-01-06 21:25:15.75	55.93	12.22	-53.4	-55.7	13.9	0.00e+00	0	25	0	393216000	72	4868
2026-01-06 21:25:16.75	56.11	12.24	-53.5	-55.9	13.8	0.00e+00	0	25	0	394264576	72	4943
2026-01-06 21:25:17.74	56.30	12.26	-53.6	-56.0	13.7	0.00e+00	0	25	0	396361728	72	5038
2026-01-06 21:25:18.74	56.49	12.28	-53.7	-56.3	13.6	0.00e+00	0	25	0	398458880	72	5160
2026-01-06 21:25:19.75	56.68	12.30	-53.9	-56.5	13.5	0.00e+00	0	25	0	400556032	72	5288
2026-01-06 21:25:20.74	56.87	12.32	-53.9	-56.5	13.5	0.00e+00	0	25	0	401604608	72	5313
2026-01-06 21:25:21.74	57.06	12.34	-54.0	-56.6	13.5	0.00e+00	0	25	0	403701760	73	5078
2026-01-06 21:25:22.74	57.25	12.36	-54.0	-56.6	13.5	0.00e+00	0	25	0	405798912	73	5078
2026-01-06 21:25:23.74	57.44	12.37	-54.0	-56.5	13.6	0.00e+00	0	25	0	407896064	73	5028
2026-01-06 21:25:24.76	57.63	12.39	-53.9	-56.5	13.6	0.00e+00	0	25	0	409993216	73	5009
2026-01-06 21:25:25.76	57.82	12.41	-53.9	-56.4	13.7	0.00e+00	0	25	0	411041792	73	4938
2026-01-06 21:25:26.76	58.02	12.43	-53.9	-56.4	13.7	0.00e+00	0	25	0	413138944	73	4938
2026-01-06 21:25:27.76	58.21	12.44	-53.8	-56.2	13.8	0.00e+00	0	25	0	415236096	73	4852
2026-01-06 21:25:28.77	58.40	12.46	-53.7	-56.1	13.8	0.00e+00	0	25	0	417333248	73	4797
2026-01-06 21:25:29.78	58.59	12.48	-53.7	-56.2	13.8	0.00e+00	0	25	0	419430400	73	4823
2026-01-06 21:25:30.78	58.79	12.49	-53.8	-56.3	13.7	0.00e+00	0	25	0	420478976	73	4879
2026-01-06 21:25:31.78	58.98	12.51	-53.8	-56.3	13.7	0.00e+00	0	25	0	422576128	73	4900
2026-01-06 21:25:32.78	59.17	12.52	-53.9	-56.4	13.7	0.00e+00	0	25	0	424673280	73	4948
2026-01-06 21:25:33.78	59.36	12.54	-53.9	-56.4	13.7	0.00e+00	0	25	0	426770432	73	4971
2026-01-06 21:25:34.78	59.55	12.55	-54.0	-56.6	13.6	0.00e+00	0	25	0	427819008	73	5054
2026-01-06 21:25:35.78	59.75	12.57	-54.0	-56.6	13.6	0.00e+00	0	25	0	429916160	73	5049
2026-01-06 21:25:36.77	59.94	12.58	-53.9	-56.5	13.6	0.00e+00	0	25	0	432013312	73	4991
2026-01-06 21:25:37.78	60.13	12.59	-53.9	-56.4	13.6	0.00e+00	0	25	0	434110464	73	4952
2026-01-06 21:25:38.78	60.33	12.61	-53.7	-56.2	13.7	0.00e+00	0	25	0	436207616	73	4846
2026-01-06 21:25:39.78	60.52	12.62	-53.7	-56.1	13.8	0.00e+00	0	25	0	437256192	73	4808
2026-01-06 21:25:40.78	60.71	12.63	-53.6	-56.0	13.9	0.00e+00	0	25	0	439353344	73	4748
2026-01-06 21:25:41.79	60.91	12.65	-53.5	-55.9	14.0	0.00e+00	0	25	0	441450496	73	4664
2026-01-06 21:25:42.79	61.10	12.66	-53.5	-55.9	14.0	0.00e+00	0	25	0	443547648	73	4662
2026-01-06 21:25:43.78	61.29	12.67	-53.6	-56.0	13.9	0.00e+00	0	25	0	445644800	73	4716
2026-01-06 21:25:44.78	61.49	12.68	-53.6	-56.0	13.9	0.00e+00	0	25	0	446693376	73	4722
2026-01-06 21:25:45.78	61.68	12.70	-53.6	-55.9	13.9	0.00e+00	0	25	0	448790528	73	4704
2026-01-06 21:25:46.78	61.88	12.71	-53.6	-56.0	13.9	0.00e+00	0	25	0	450887680	73	4738
2026-01-06 21:25:47.78	62.07	12.72	-53.6	-56.0	13.9	0.00e+00	0	25	0	452984832	73	4758
2026-01-06 21:25:48.78	62.27	12.73	-53.6	-56.0	13.9	0.00e+00	0	25	0	455081984	73	4750
2026-01-06 21:25:49.78	62.46	12.74	-53.5	-55.9	14.0	0.00e+00	0	25	0	456130560	73	4676
2026-01-06 21:25:50.77	62.66	12.75	-53.6	-55.9	13.9	0.00e+00	0	25	0	458227712	73	4688
2026-01-06 21:25:51.77	62.85	12.76	-53.6	-55.9	13.9	0.00e+00	0	25	0	460324864	73	4698
2026-01-06 21:25:52.77	63.05	12.77	-53.5	-55.9	13.9	0.00e+00	0	25	0	462422016	73	4687
2026-01-06 21:25:53.77	63.24	12.78	-53.3	-55.5	14.2	0.00e+00	0	26	0	463470592	73	4491
2026-01-06 21:25:54.77	63.44	12.79	-53.2	-55.5	14.2	0.00e+00	0	25	0	465567744	73	4444
2026-01-06 21:25:55.78	63.63	12.79	-53.1	-55.4	14.1	0.00e+00	0	25	0	467664896	72	4653
2026-01-06 21:25:56.77	63.83	12.80	-53.1	-55.3	14.2	0.00e+00	0	25	0	469762048	72	4631
2026-01-06 21:25:57.77	64.02	12.81	-53.2	-55.4	14.1	0.00e+00	0	25	0	471859200	72	4662
2026-01-06 21:25:58.78	64.22	12.82	-53.2	-55.5	14.1	0.00e+00	0	25	0	472907776	72	4707
2026-01-06 21:25:59.77	64.42	12.83	-53.3	-55.5	14.0	0.00e+00	0	25	0	475004928	72	4759
2026-01-06 21:26:00.77	64.61	12.83	-53.3	-55.6	14.0	0.00e+00	0	25	0	477102080	72	4793
2026-01-06 21:26:01.77	64.81	12.84	-53.3	-55.6	14.0	0.00e+00	0	25	0	479199232	72	4796
2026-01-06 21:26:02.77	65.01	12.85	-53.4	-55.7	13.9	0.00e+00	0	25	0	481296384	72	4832
2026-01-06 21:26:03.78	65.20	12.85	-53.3	-55.6	14.0	0.00e+00	0	25	0	482344960	72	4776
2026-01-06 21:26:04.78	65.40	12.86	-53.2	-55.4	14.1	0.00e+00	0	25	0	484442112	72	4687
2026-01-06 21:26:05.77	65.60	12.86	-53.2	-55.4	14.1	0.00e+00	0	25	0	486539264	72	4699
2026-01-06 21:26:06.78	65.79	12.87	-53.2	-55.4	14.1	0.00e+00	0	26	0	488636416	72	4668
2026-01-06 21:26:07.77	65.99	12.87	-53.3	-55.5	14.0	0.00e+00	0	25	0	489684992	72	4747
2026-01-06 21:26:08.77	66.19	12.88	-53.1	-55.4	14.1	0.00e+00	0	25	0	491782144	72	4658
2026-01-06 21:26:09.77	66.38	12.88	-53.0	-55.2	14.2	0.00e+00	0	25	0	493879296	72	4585
2026-01-06 21:26:10.78	66.58	12.89	-53.0	-55.1	14.2	0.00e+00	0	25	0	495976448	72	4528
2026-01-06 21:26:11.77	66.78	12.89	-52.9	-55.1	14.3	0.00e+00	0	25	0	498073600	72	4494
2026-01-06 21:26:12.77	66.97	12.89	-53.0	-55.2	14.2	0.00e+00	0	25	0	499122176	72	4550
2026-01-06 21:26:13.77	67.17	12.90	-52.8	-54.9	14.4	0.00e+00	0	25	0	501219328	72	4403
2026-01-06 21:26:14.77	67.37	12.90	-52.7	-54.8	14.5	0.00e+00	0	25	0	503316480	72	4356
2026-01-06 21:26:15.77	67.57	12.90	-52.8	-54.9	14.4	0.00e+00	0	25	0	505413632	72	4399
2026-01-06 21:26:16.76	67.76	12.91	-52.6	-54.7	14.4	0.00e+00	0	25	0	507510784	71	4551
2026-01-06 21:26:17.76	67.96	12.91	-52.5	-54.5	14.4	0.00e+00	0	25	0	508559360	71	4481
2026-01-06 21:26:18.76	68.16	12.91	-52.5	-54.4	14.5	0.00e+00	0	25	0	510656512	71	4431
2026-01-06 21:26:19.76	68.35	12.91	-52.4	-54.4	14.5	0.00e+00	0	25	0	512753664	71	4408
2026-01-06 21:26:20.75	68.55	12.91	-52.4	-54.4	14.5	0.00e+00	0	25	0	514850816	71	4407
2026-01-06 21:26:21.75	68.75	12.91	-52.6	-54.6	14.4	0.00e+00	0	25	0	516947968	71	4523
2026-01-06 21:26:22.75	68.94	12.91	-52.6	-54.6	14.4	0.00e+00	0	25	0	517996544	71	4512
2026-01-06 21:26:23.75	69.14	12.91	-52.7	-54.7	14.3	0.00e+00	0	25	0	520093696	71	4590
2026-01-06 21:26:24.75	69.34	12.91	-52.8	-54.8	14.3	0.00e+00	0	26	0	522190848	71	4644
2026-01-06 21:26:25.75	69.54	12.91	-52.8	-54.9	14.3	0.00e+00	0	25	0	524288000	71	4663
2026-01-06 21:26:26.76	69.73	12.91	-52.6	-54.7	14.3	0.00e+00	0	25	0	525336576	71	4570
2026-01-06 21:26:27.75	69.93	12.91	-52.5	-54.6	14.4	0.00e+00	0	25	0	527433728	71	4497
2026-01-06 21:26:28.74	70.13	12.91	-52.5	-54.4	14.5	0.00e+00	0	25	0	529530880	71	4439
2026-01-06 21:26:29.74	70.32	12.91	-52.3	-54.3	14.6	0.00e+00	0	25	0	531628032	71	4349
2026-01-06 21:26:30.74	70.52	12.90	-52.3	-54.2	14.6	0.00e+00	0	25	0	533725184	71	4338
2026-01-06 21:26:31.73	70.72	12.90	-52.2	-54.1	14.6	0.00e+00	0	25	0	534773760	71	4286
2026-01-06 21:26:32.73	70.91	12.90	-52.2	-54.1	14.6	0.00e+00	0	25	0	536870912	71	4281
2026-01-06 21:26:33.72	71.11	12.90	-52.1	-54.0	14.6	0.00e+00	0	25	0	538968064	70	4452
2026-01-06 21:26:34.73	71.31	12.89	-52.2	-54.1	14.5	0.00e+00	0	25	0	541065216	70	4498
2026-01-06 21:26:35.73	71.50	12.89	-52.2	-54.1	14.5	0.00e+00	0	25	0	542113792	70	4498
2026-01-06 21:26:36.74	71.70	12.89	-52.2	-54.1	14.5	0.00e+00	0	25	0	544210944	70	4517
2026-01-06 21:26:37.73	71.90	12.88	-52.2	-54.2	14.5	0.00e+00	0	25	0	546308096	70	4554
2026-01-06 21:26:38.73	72.10	12.88	-52.2	-54.1	14.5	0.00e+00	0	25	0	548405248	70	4507
2026-01-06 21:26:39.73	72.29	12.87	-52.2	-54.1	14.5	0.00e+00	0	25	0	550502400	70	4528
2026-01-06 21:26:40.73	72.49	12.87	-52.2	-54.1	14.5	0.00e+00	0	25	0	551550976	70	4529
2026-01-06 21:26:41.72	72.68	12.86	-52.3	-54.2	14.4	0.00e+00	0	25	0	553648128	70	4570
2026-01-06 21:26:42.72	72.88	12.86	-52.2	-54.2	14.5	0.00e+00	0	25	0	555745280	70	4552
2026-01-06 21:26:43.72	73.08	12.85	-52.3	-54.2	14.4	0.00e+00	0	25	0	557842432	70	4595
2026-01-06 21:26:44.71	73.27	12.84	-52.4	-54.4	14.3	0.00e+00	0	25	0	559939584	70	4699
2026-01-06 21:26:45.71	73.47	12.84	-52.4	-54.5	14.3	0.00e+00	0	26	0	560988160	70	4711
2026-01-06 21:26:46.71	73.66	12.83	-52.5	-54.5	14.3	0.00e+00	0	25	0	563085312	70	4715
2026-01-06 21:26:47.71	73.86	12.82	-52.5	-54.5	14.3	0.00e+00	0	25	0	565182464	70	4755
2026-01-06 21:26:48.71	74.06	12.82	-52.4	-54.4	14.3	0.00e+00	0	25	0	567279616	70	4703
2026-01-06 21:26:49.72	74.26	12.81	-52.5	-54.6	14.3	0.00e+00	0	25	0	568328192	70	4769
2026-01-06 21:26:50.73	74.45	12.80	-52.5	-54.5	14.3	0.00e+00	0	25	0	570425344	70	4756
2026-01-06 21:26:51.73	74.65	12.79	-52.4	-54.4	14.4	0.00e+00	0	25	0	572522496	70	4664
2026-01-06 21:26:52.73	74.85	12.78	-52.3	-54.2	14.4	0.00e+00	0	25	0	574619648	70	4574
2026-01-06 21:26:53.73	75.04	12.77	-52.3	-54.2	14.4	0.00e+00	0	25	0	576716800	70	4562
2026-01-06 21:26:54.73	75.24	12.76	-52.3	-54.3	14.4	0.00e+00	0	25	0	577765376	70	4599
2026-01-06 21:26:55.73	75.43	12.75	-52.3	-54.2	14.4	0.00e+00	0	25	0	579862528	70	4593
2026-01-06 21:26:56.73	75.63	12.74	-52.3	-54.3	14.4	0.00e+00	0	25	0	581959680	70	4607
2026-01-06 21:26:57.73	75.82	12.73	-52.4	-54.4	14.4	0.00e+00	0	25	0	584056832	70	4676
2026-01-06 21:26:58.72	76.02	12.72	-52.4	-54.4	14.4	0.00e+00	0	25	0	586153984	70	4656
2026-01-06 21:26:59.73	76.21	12.71	-52.5	-54.5	14.3	0.00e+00	0	25	0	587202560	70	4710
2026-01-06 21:27:00.72	76.41	12.70	-52.4	-54.4	14.3	0.00e+00	0	25	0	589299712	70	4701
2026-01-06 21:27:01.72	76.60	12.69	-52.4	-54.4	14.4	0.00e+00	0	25	0	591396864	70	4679
2026-01-06 21:27:02.72	76.80	12.68	-52.4	-54.4	14.4	0.00e+00	0	25	0	593494016	70	4668
2026-01-06 21:27:03.72	76.99	12.67	-52.4	-54.4	14.3	0.00e+00	0	25	0	595591168	70	4670
2026-01-06 21:27:04.72	77.18	12.65	-52.4	-54.4	14.3	0.00e+00	0	25	0	596639744	70	4700
2026-01-06 21:27:05.71	77.38	12.64	-52.6	-54.7	14.2	0.00e+00	0	25	0	598736896	70	4818
2026-01-06 21:27:06.71	77.57	12.63	-52.8	-54.9	14.1	0.00e+00	0	25	0	600834048	70	4963
2026-01-06 21:27:07.71	77.76	12.62	-52.7	-54.9	14.1	0.00e+00	0	25	0	602931200	70	4937
2026-01-06 21:27:08.71	77.96	12.60	-52.8	-55.0	14.1	0.00e+00	0	25	0	603979776	70	5009
2026-01-06 21:27:09.71	78.15	12.59	-52.9	-55.1	14.1	0.00e+00	0	25	0	606076928	71	4764
2026-01-06 21:27:10.71	78.34	12.57	-53.0	-55.2	14.1	0.00e+00	0	25	0	608174080	71	4844
2026-01-06 21:27:11.71	78.54	12.56	-53.0	-55.2	14.0	0.00e+00	0	25	0	610271232	71	4870
2026-01-06 21:27:12.72	78.73	12.55	-52.9	-55.1	14.1	0.00e+00	0	25	0	612368384	71	4790
2026-01-06 21:27:13.72	78.92	12.53	-52.8	-54.9	14.2	0.00e+00	0	25	0	613416960	71	4693
2026-01-06 21:27:14.72	79.12	12.52	-52.8	-54.9	14.3	0.00e+00	0	25	0	615514112	71	4657
2026-01-06 21:27:15.71	79.31	12.50	-52.8	-54.9	14.2	0.00e+00	0	25	0	617611264	71	4695
2026-01-06 21:27:16.71	79.50	12.48	-52.6	-54.6	14.4	0.00e+00	0	25	0	619708416	71	4512
2026-01-06 21:27:17.71	79.69	12.47	-52.5	-54.4	14.5	0.00e+00	0	25	0	621805568	71	4433
2026-01-06 21:27:18.71	79.88	12.45	-52.3	-54.2	14.6	0.00e+00	0	25	0	622854144	71	4332
2026-01-06 21:27:19.70	80.07	12.44	-52.3	-54.2	14.6	0.00e+00	0	25	0	624951296	71	4315
2026-01-06 21:27:20.70	80.26	12.42	-52.3	-54.2	14.6	0.00e+00	0	25	0	627048448	71	4327
2026-01-06 21:27:21.70	80.46	12.40	-52.2	-54.1	14.7	0.00e+00	0	25	0	629145600	71	4260
2026-01-06 21:27:22.69	80.64	12.38	-52.1	-53.9	14.6	0.00e+00	0	25	0	630194176	70	4436
2026-01-06 21:27:23.69	80.83	12.37	-52.0	-53.9	14.6	0.00e+00	0	25	0	632291328	70	4402
2026-01-06 21:27:24.69	81.03	12.35	-51.9	-53.8	14.7	0.00e+00	0	25	0	634388480	70	4344
2026-01-06 21:27:25.69	81.22	12.33	-51.9	-53.7	14.7	0.00e+00	0	25	0	636485632	70	4337
2026-01-06 21:27:26.68	81.40	12.31	-52.0	-53.9	14.6	0.00e+00	0	25	0	638582784	70	4396
2026-01-06 21:27:27.68	81.59	12.29	-52.0	-53.8	14.6	0.00e+00	0	25	0	639631360	70	4374
2026-01-06 21:27:28.68	81.78	12.27	-52.1	-54.0	14.6	0.00e+00	0	25	0	641728512	70	4459
2026-01-06 21:27:29.68	81.97	12.26	-52.2	-54.1	14.5	0.00e+00	0	25	0	643825664	70	4514
2026-01-06 21:27:30.68	82.16	12.24	-52.2	-54.2	14.5	0.00e+00	0	25	0	645922816	70	4573
2026-01-06 21:27:31.68	82.35	12.22	-52.3	-54.3	14.4	0.00e+00	0	25	0	648019968	70	4623
2026-01-06 21:27:32.67	82.54	12.20	-52.3	-54.3	14.4	0.00e+00	0	25	0	649068544	70	4637
2026-01-06 21:27:33.67	82.73	12.18	-52.4	-54.4	14.3	0.00e+00	0	25	0	651165696	70	4678
2026-01-06 21:27:34.67	82.91	12.16	-52.4	-54.4	14.3	0.00e+00	0	25	0	653262848	70	4681
2026-01-06 21:27:35.67	83.10	12.13	-52.3	-54.2	14.4	0.00e+00	0	25	0	655360000	70	4593
2026-01-06 21:27:36.68	83.29	12.11	-52.2	-54.1	14.5	0.00e+00	0	25	0	656408576	70	4521
2026-01-06 21:27:37.68	83.48	12.09	-52.1	-54.1	14.5	0.00e+00	0	25	0	658505728	70	4502
2026-01-06 21:27:38.67	83.66	12.07	-52.2	-54.1	14.5	0.00e+00	0	25	0	660602880	70	4528
2026-01-06 21:27:39.67	83.85	12.05	-52.1	-54.0	14.5	0.00e+00	0	25	0	662700032	70	4478
2026-01-06 21:27:40.67	84.04	12.03	-52.1	-54.0	14.5	0.00e+00	0	25	0	664797184	70	4486
2026-01-06 21:27:41.67	84.22	12.00	-52.1	-54.0	14.6	0.00e+00	0	25	0	665845760	70	4460
2026-01-06 21:27:42.67	84.41	11.98	-52.1	-54.0	14.5	0.00e+00	0	25	0	667942912	70	4462
2026-01-06 21:27:43.67	84.59	11.96	-52.1	-54.0	14.6	0.00e+00	0	25	0	670040064	70	4443
2026-01-06 21:27:44.67	84.78	11.94	-52.1	-54.1	14.5	0.00e+00	0	25	0	672137216	70	4500
2026-01-06 21:27:45.67	84.97	11.91	-52.1	-54.0	14.5	0.00e+00	0	25	0	674234368	70	4486
2026-01-06 21:27:46.67	85.15	11.89	-52.1	-54.1	14.5	0.00e+00	0	25	0	675282944	70	4506
2026-01-06 21:27:47.67	85.33	11.86	-52.1	-54.1	14.5	0.00e+00	0	25	0	677380096	70	4502
2026-01-06 21:27:48.66	85.52	11.84	-52.1	-54.0	14.5	0.00e+00	0	25	0	679477248	70	4479
2026-01-06 21:27:49.66	85.70	11.82	-52.1	-54.1	14.5	0.00e+00	0	25	0	681574400	70	4499
2026-01-06 21:27:50.67	85.89	11.79	-52.2	-54.2	14.5	0.00e+00	0	25	0	682622976	70	4547
2026-01-06 21:27:51.67	86.07	11.77	-52.2	-54.1	14.5	0.00e+00	0	25	0	684720128	70	4534
2026-01-06 21:27:52.67	86.25	11.74	-52.2	-54.2	14.4	0.00e+00	0	25	0	686817280	70	4549
2026-01-06 21:27:53.67	86.44	11.72	-52.1	-54.0	14.6	0.00e+00	0	25	0	688914432	70	4450
2026-01-06 21:27:54.66	86.62	11.69	-52.2	-54.1	14.5	0.00e+00	0	25	0	691011584	70	4509
2026-01-06 21:27:55.66	86.80	11.67	-52.1	-54.0	14.5	0.00e+00	0	25	0	692060160	70	4452
2026-01-06 21:27:56.65	86.98	11.64	-52.0	-53.9	14.6	0.00e+00	0	25	0	694157312	70	4406
2026-01-06 21:27:57.65	87.16	11.61	-52.0	-53.8	14.6	0.00e+00	0	25	0	696254464	70	4375
2026-01-06 21:27:58.65	87.34	11.59	-51.9	-53.7	14.7	0.00e+00	0	25	0	698351616	70	4328
2026-01-06 21:27:59.65	87.52	11.56	-52.1	-54.0	14.5	0.00e+00	0	25	0	699400192	70	4466
2026-01-06 21:28:00.64	87.70	11.53	-52.0	-53.9	14.6	0.00e+00	0	25	0	701497344	70	4409
2026-01-06 21:28:01.65	87.88	11.51	-52.1	-54.0	14.5	0.00e+00	0	25	0	703594496	70	4464
2026-01-06 21:28:02.65	88.06	11.48	-52.1	-54.0	14.5	0.00e+00	0	25	0	705691648	70	4474
2026-01-06 21:28:03.65	88.24	11.45	-52.2	-54.1	14.5	0.00e+00	0	25	0	707788800	70	4533
2026-01-06 21:28:04.64	88.42	11.42	-52.1	-54.0	14.5	0.00e+00	0	25	0	708837376	70	4488
2026-01-06 21:28:05.65	88.60	11.40	-52.1	-54.0	14.5	0.00e+00	0	25	0	710934528	70	4483
2026-01-06 21:28:06.64	88.78	11.37	-52.1	-54.1	14.5	0.00e+00	0	25	0	713031680	70	4494
2026-01-06 21:28:07.64	88.96	11.34	-52.1	-54.1	14.5	0.00e+00	0	25	0	715128832	70	4501
2026-01-06 21:28:08.64	89.14	11.31	-52.3	-54.2	14.4	0.00e+00	0	25	0	717225984	70	4590
2026-01-06 21:28:09.64	89.31	11.28	-52.3	-54.3	14.4	0.00e+00	0	25	0	718274560	70	4606
2026-01-06 21:28:10.64	89.49	11.25	-52.3	-54.3	14.4	0.00e+00	0	25	0	720371712	70	4644
2026-01-06 21:28:11.65	89.67	11.22	-52.4	-54.4	14.3	0.00e+00	0	25	0	722468864	70	4690
2026-01-06 21:28:12.65	89.85	11.19	-52.5	-54.5	14.3	0.00e+00	0	25	0	724566016	70	4756
2026-01-06 21:28:13.65	90.02	11.16	-52.6	-54.7	14.2	0.00e+00	0	25	0	726663168	70	4815
2026-01-06 21:28:14.65	90.20	11.13	-52.7	-54.9	14.1	0.00e+00	0	25	0	727711744	70	4930
2026-01-06 21:28:15.65	90.37	11.10	-52.7	-54.8	14.1	0.00e+00	0	25	0	729808896	70	4897
2026-01-06 21:28:16.65	90.55	11.07	-52.8	-55.0	14.0	0.00e+00	0	25	0	731906048	70	5016
2026-01-06 21:28:17.64	90.72	11.04	-52.9	-55.1	14.0	0.00e+00	0	25	0	734003200	70	5085
2026-01-06 21:28:18.64	90.90	11.01	-53.0	-55.2	14.0	0.00e+00	0	25	0	735051776	71	4826
2026-01-06 21:28:19.64	91.07	10.98	-53.1	-55.4	13.9	0.00e+00	0	25	0	737148928	71	4959
2026-01-06 21:28:20.64	91.24	10.95	-53.2	-55.5	13.9	0.00e+00	0	25	0	739246080	71	5036
2026-01-06 21:28:21.64	91.42	10.92	-53.4	-55.8	13.7	0.00e+00	0	25	0	741343232	71	5171
2026-01-06 21:28:22.64	91.59	10.89	-53.5	-55.9	13.8	0.00e+00	0	25	0	743440384	72	4963
2026-01-06 21:28:23.63	91.76	10.86	-53.5	-56.0	13.7	0.00e+00	0	25	0	744488960	72	4999
2026-01-06 21:28:24.63	91.94	10.83	-53.6	-56.1	13.7	0.00e+00	0	25	0	746586112	72	5057
2026-01-06 21:28:25.63	92.11	10.79	-53.5	-56.0	13.7	0.00e+00	0	25	0	748683264	72	5008
2026-01-06 21:28:26.63	92.28	10.76	-53.5	-55.9	13.7	0.00e+00	0	25	0	750780416	72	4968
2026-01-06 21:28:27.62	92.45	10.73	-53.4	-55.8	13.8	0.00e+00	0	25	0	752877568	72	4908
2026-01-06 21:28:28.61	92.62	10.70	-53.4	-55.8	13.8	0.00e+00	0	25	0	753926144	72	4897
2026-01-06 21:28:29.61	92.79	10.66	-53.4	-55.8	13.8	0.00e+00	0	25	0	756023296	72	4882
2026-01-06 21:28:30.61	92.96	10.63	-53.3	-55.7	13.9	0.00e+00	0	25	0	758120448	72	4850
2026-01-06 21:28:31.61	93.13	10.60	-53.4	-55.8	13.8	0.00e+00	0	25	0	760217600	72	4925
2026-01-06 21:28:32.60	93.30	10.57	-53.5	-55.9	13.7	0.00e+00	0	25	0	761266176	72	4976
2026-01-06 21:28:33.60	93.47	10.53	-53.6	-56.1	13.7	0.00e+00	0	25	0	763363328	72	5051
2026-01-06 21:28:34.60	93.63	10.50	-53.8	-56.3	13.5	0.00e+00	0	25	0	765460480	72	5214
2026-01-06 21:28:35.61	93.80	10.46	-53.9	-56.6	13.4	0.00e+00	0	25	0	767557632	72	5348
2026-01-06 21:28:36.61	93.97	10.43	-54.0	-56.7	13.4	0.00e+00	0	25	0	769654784	73	5119
2026-01-06 21:28:37.61	94.14	10.40	-54.1	-56.9	13.3	0.00e+00	0	25	0	770703360	73	5265
2026-01-06 21:28:38.61	94.31	10.36	-54.0	-56.7	13.3	0.00e+00	0	25	0	772800512	73	5154
2026-01-06 21:28:39.60	94.47	10.33	-54.1	-57.0	13.3	0.00e+00	0	25	0	774897664	73	5281
2026-01-06 21:28:40.60	94.64	10.29	-54.3	-57.2	13.1	0.00e+00	0	25	0	776994816	73	5413
2026-01-06 21:28:41.61	94.81	10.26	-54.5	-57.5	13.0	0.00e+00	0	25	0	779091968	74	5303
2026-01-06 21:28:42.61	94.97	10.22	-54.7	-57.8	12.8	0.00e+00	0	25	0	780140544	74	5497
2026-01-06 21:28:43.61	95.14	10.19	-54.7	-57.9	12.8	0.00e+00	0	25	0	782237696	74	5556
2026-01-06 21:28:44.62	95.31	10.15	-54.9	-58.2	12.6	0.00e+00	0	25	0	784334848	74	5744
2026-01-06 21:28:45.61	95.47	10.12	-54.9	-58.2	12.6	0.00e+00	0	25	0	786432000	74	5765
2026-01-06 21:28:46.60	95.63	10.08	-54.8	-58.1	12.7	0.00e+00	0	25	0	788529152	75	5372
2026-01-06 21:28:47.60	95.79	10.05	-54.9	-58.2	12.7	0.00e+00	0	25	0	789577728	75	5413
2026-01-06 21:28:48.60	95.96	10.01	-54.8	-58.0	12.8	0.00e+00	0	25	0	791674880	75	5308
2026-01-06 21:28:49.60	96.12	9.97	-54.7	-57.8	12.9	0.00e+00	0	26	0	793772032	75	5191
2026-01-06 21:28:50.61	96.29	9.94	-54.5	-57.6	13.1	0.00e+00	0	25	0	795869184	75	5049
2026-01-06 21:28:51.61	96.45	9.90	-54.4	-57.3	13.3	0.00e+00	0	26	0	796917760	75	4878
2026-01-06 21:28:52.61	96.61	9.86	-54.3	-57.2	13.3	0.00e+00	0	25	0	799014912	75	4839
2026-01-06 21:28:53.61	96.77	9.83	-54.3	-57.2	13.3	0.00e+00	0	25	0	801112064	75	4861
2026-01-06 21:28:54.60	96.93	9.79	-54.3	-57.2	13.3	0.00e+00	0	25	0	803209216	75	4827
2026-01-06 21:28:55.60	97.09	9.75	-54.3	-57.1	13.4	0.00e+00	0	25	0	805306368	75	4776
2026-01-06 21:28:56.60	97.25	9.72	-54.3	-57.2	13.3	0.00e+00	0	25	0	806354944	75	4830
2026-01-06 21:28:57.61	97.41	9.68	-54.3	-57.2	13.3	0.00e+00	0	25	0	808452096	75	4837
2026-01-06 21:28:58.61	97.57	9.64	-54.3	-57.2	13.3	0.00e+00	0	25	0	810549248	75	4828
2026-01-06 21:28:59.61	97.73	9.61	-54.4	-57.3	13.2	0.00e+00	0	25	0	812646400	75	4918
2026-01-06 21:29:00.61	97.89	9.57	-54.5	-57.5	13.1	0.00e+00	0	25	0	814743552	75	4984
2026-01-06 21:29:01.61	98.05	9.53	-54.6	-57.7	13.0	0.00e+00	0	25	0	815792128	75	5104
2026-01-06 21:29:02.61	98.21	9.49	-54.6	-57.8	12.9	0.00e+00	0	25	0	817889280	75	5160
2026-01-06 21:29:03.62	98.37	9.45	-54.8	-58.0	12.7	0.00e+00	0	25	0	819986432	75	5311
2026-01-06 21:29:04.61	98.52	9.42	-54.9	-58.2	12.6	7.00e-07	0	26	0	822083584	75	5424
2026-01-06 21:29:05.61	98.68	9.38	-54.9	-58.3	12.6	7.00e-07	0	25	0	824180736	75	5486
2026-01-06 21:29:06.61	98.84	9.34	-54.7	-57.9	12.8	0.00e+00	0	25	0	825229312	75	5225
2026-01-06 21:29:07.61	98.99	9.30	-54.6	-57.7	13.0	0.00e+00	0	25	0	827326464	75	5103
2026-01-06 21:29:08.61	99.15	9.26	-54.7	-57.8	12.9	0.00e+00	0	25	0	829423616	75	5189
2026-01-06 21:29:09.61	99.30	9.22	-54.5	-57.5	13.1	0.00e+00	0	25	0	831520768	75	4997
2026-01-06 21:29:10.60	99.46	9.18	-54.2	-57.0	13.4	0.00e+00	0	25	0	832569344	75	4730
2026-01-06 21:29:11.60	99.61	9.15	-54.1	-56.8	13.4	0.00e+00	0	25	0	834666496	74	4887
2026-01-06 21:29:12.60	99.76	9.11	-54.0	-56.8	13.4	0.00e+00	0	25	0	836763648	74	4881
2026-01-06 21:29:13.60	99.92	9.07	-54.1	-57.0	13.3	0.00e+00	0	25	0	838860800	74	4993
2026-01-06 21:29:14.61	100.07	9.03	-54.2	-57.1	13.3	0.00e+00	0	25	0	840957952	74	5066
2026-01-06 21:29:15.61	100.23	8.99	-54.3	-57.2	13.1	0.00e+00	0	25	0	842006528	74	5151
2026-01-06 21:29:16.60	100.38	8.95	-54.4	-57.3	13.1	0.00e+00	0	25	0	844103680	74	5202
2026-01-06 21:29:17.60	100.53	8.91	-54.3	-57.2	13.2	0.00e+00	0	25	0	846200832	74	5101
2026-01-06 21:29:18.61	100.68	8.87	-54.1	-56.9	13.3	0.00e+00	0	25	0	848297984	74	4981
2026-01-06 21:29:19.61	100.83	8.83	-54.0	-56.8	13.4	0.00e+00	0	25	0	850395136	74	4899
2026-01-06 21:29:20.61	100.98	8.79	-54.0	-56.7	13.4	0.00e+00	0	25	0	851443712	74	4867
2026-01-06 21:29:21.61	101.13	8.75	-54.0	-56.7	13.5	0.00e+00	0	25	0	853540864	74	4832
2026-01-06 21:29:22.61	101.28	8.71	-53.8	-56.5	13.6	0.00e+00	0	25	0	855638016	74	4707
2026-01-06 21:29:23.62	101.44	8.67	-53.5	-56.1	13.7	0.00e+00	0	25	0	857735168	73	4761
2026-01-06 21:29:24.62	101.58	8.63	-53.6	-56.2	13.7	0.00e+00	0	25	0	858783744	73	4832
2026-01-06 21:29:25.62	101.73	8.59	-53.6	-56.1	13.7	0.00e+00	0	25	0	860880896	73	4808
2026-01-06 21:29:26.63	101.88	8.55	-53.7	-56.3	13.5	0.00e+00	0	25	0	862978048	73	4925
2026-01-06 21:29:27.63	102.03	8.51	-53.5	-56.0	13.7	0.00e+00	0	25	0	865075200	73	4759
2026-01-06 21:29:28.62	102.18	8.47	-53.7	-56.3	13.6	0.00e+00	0	25	0	867172352	73	4920
2026-01-06 21:29:29.62	102.33	8.42	-53.8	-56.5	13.5	0.00e+00	0	26	0	868220928	73	5023
2026-01-06 21:29:30.63	102.47	8.38	-53.9	-56.6	13.4	0.00e+00	0	25	0	870318080	73	5093
2026-01-06 21:29:31.62	102.62	8.34	-53.8	-56.6	13.4	0.00e+00	0	25	0	872415232	73	5042
2026-01-06 21:29:32.62	102.76	8.30	-53.9	-56.6	13.4	0.00e+00	0	25	0	874512384	73	5064
2026-01-06 21:29:33.63	102.91	8.26	-53.7	-56.4	13.5	0.00e+00	0	25	0	876609536	73	4933
2026-01-06 21:29:34.63	103.06	8.22	-53.8	-56.5	13.5	0.00e+00	0	25	0	877658112	73	4993
2026-01-06 21:29:35.63	103.20	8.18	-53.8	-56.5	13.5	0.00e+00	0	25	0	879755264	73	4993
2026-01-06 21:29:36.63	103.35	8.13	-53.8	-56.5	13.4	0.00e+00	0	25	0	881852416	73	5038
2026-01-06 21:29:37.63	103.49	8.09	-53.8	-56.5	13.5	0.00e+00	0	25	0	883949568	73	4995
2026-01-06 21:29:38.63	103.63	8.05	-53.8	-56.5	13.5	0.00e+00	0	25	0	886046720	73	5006
2026-01-06 21:29:39.62	103.78	8.01	-53.8	-56.5	13.4	0.00e+00	0	25	0	887095296	73	5033
2026-01-06 21:29:40.62	103.92	7.97	-53.9	-56.6	13.3	0.00e+00	0	25	0	889192448	73	5094
2026-01-06 21:29:41.62	104.06	7.93	-53.7	-56.4	13.5	0.00e+00	0	25	0	891289600	73	4958
2026-01-06 21:29:42.62	104.20	7.88	-53.6	-56.2	13.7	0.00e+00	0	25	0	893386752	73	4816
2026-01-06 21:29:43.62	104.35	7.84	-53.4	-55.9	13.7	0.00e+00	0	25	0	894435328	73	4697
2026-01-06 21:29:44.62	104.49	7.80	-53.3	-55.7	13.9	0.00e+00	0	25	0	896532480	73	4575
2026-01-06 21:29:45.62	104.63	7.76	-53.2	-55.6	14.0	0.00e+00	0	25	0	898629632	73	4531
2026-01-06 21:29:46.62	104.77	7.72	-53.1	-55.5	13.9	0.00e+00	0	25	0	900726784	72	4711
2026-01-06 21:29:47.63	104.91	7.67	-53.2	-55.5	13.9	0.00e+00	0	25	0	902823936	72	4737
2026-01-06 21:29:48.62	105.05	7.63	-53.2	-55.5	13.9	0.00e+00	0	25	0	903872512	72	4743
2026-01-06 21:29:49.62	105.19	7.59	-53.0	-55.3	14.0	0.00e+00	0	25	0	905969664	72	4649
2026-01-06 21:29:50.63	105.33	7.54	-53.2	-55.6	13.8	0.00e+00	0	25	0	908066816	72	4774
2026-01-06 21:29:51.63	105.47	7.50	-53.2	-55.6	13.8	0.00e+00	0	25	0	910163968	72	4807
2026-01-06 21:29:52.63	105.60	7.46	-53.2	-55.6	13.8	0.00e+00	0	25	0	912261120	72	4771
2026-01-06 21:29:53.63	105.74	7.42	-53.4	-56.0	13.6	0.00e+00	0	25	0	913309696	72	4990
2026-01-06 21:29:54.63	105.88	7.37	-53.3	-55.7	13.8	0.00e+00	0	25	0	915406848	72	4845
2026-01-06 21:29:55.63	106.02	7.33	-53.2	-55.6	13.8	0.00e+00	0	25	0	917504000	72	4811
2026-01-06 21:29:56.63	106.15	7.29	-53.4	-55.9	13.7	0.00e+00	0	25	0	919601152	72	4934
2026-01-06 21:29:57.63	106.29	7.24	-53.2	-55.6	13.9	0.00e+00	0	26	0	920649728	72	4771
2026-01-06 21:29:58.63	106.43	7.20	-53.1	-55.4	13.9	0.00e+00	0	25	0	922746880	72	4681
2026-01-06 21:29:59.64	106.56	7.16	-53.0	-55.3	14.0	0.00e+00	0	25	0	924844032	72	4619
2026-01-06 21:30:00.63	106.70	7.11	-53.1	-55.4	13.9	0.00e+00	0	25	0	926941184	72	4671
2026-01-06 21:30:01.63	106.83	7.07	-53.1	-55.5	13.9	0.00e+00	0	25	0	929038336	72	4729
2026-01-06 21:30:02.63	106.97	7.03	-53.2	-55.6	13.8	0.00e+00	0	25	0	930086912	72	4773
2026-01-06 21:30:03.63	107.10	6.98	-53.3	-55.7	13.7	0.00e+00	0	25	0	932184064	72	4861
2026-01-06 21:30:04.62	107.23	6.94	-53.4	-55.9	13.6	0.00e+00	0	25	0	934281216	72	4982
2026-01-06 21:30:05.62	107.36	6.90	-53.4	-56.0	13.6	0.00e+00	0	25	0	936378368	72	4991
2026-01-06 21:30:06.61	107.50	6.85	-53.5	-56.1	13.5	0.00e+00	0	25	0	938475520	72	5060
2026-01-06 21:30:07.62	107.63	6.81	-53.4	-56.0	13.6	0.00e+00	0	26	0	939524096	72	4984
2026-01-06 21:30:08.62	107.76	6.77	-53.4	-55.9	13.6	0.00e+00	0	25	0	941621248	72	4960
2026-01-06 21:30:09.62	107.89	6.72	-53.4	-55.9	13.6	0.00e+00	0	25	0	943718400	72	4983
2026-01-06 21:30:10.63	108.03	6.68	-53.4	-55.9	13.7	0.00e+00	0	25	0	945815552	72	4946
2026-01-06 21:30:11.63	108.16	6.63	-53.2	-55.7	13.8	0.00e+00	0	25	0	947912704	72	4821
2026-01-06 21:30:12.64	108.29	6.59	-53.2	-55.7	13.8	0.00e+00	0	25	0	948961280	72	4815
2026-01-06 21:30:13.64	108.42	6.55	-53.1	-55.4	13.9	0.00e+00	0	25	0	951058432	72	4705
2026-01-06 21:30:14.64	108.55	6.50	-53.1	-55.5	13.8	0.00e+00	0	25	0	953155584	72	4756
2026-01-06 21:30:15.64	108.68	6.46	-53.2	-55.6	13.8	0.00e+00	0	25	0	955252736	72	4784
2026-01-06 21:30:16.64	108.81	6.41	-53.3	-55.7	13.7	0.00e+00	0	25	0	956301312	72	4849
2026-01-06 21:30:17.65	108.94	6.37	-53.1	-55.5	13.9	0.00e+00	0	25	0	958398464	72	4711
2026-01-06 21:30:18.65	109.07	6.32	-53.4	-55.9	13.6	0.00e+00	0	25	0	960495616	72	4931
2026-01-06 21:30:19.66	109.19	6.28	-53.2	-55.7	13.8	0.00e+00	0	25	0	962592768	72	4824
2026-01-06 21:30:20.66	109.32	6.24	-53.5	-56.1	13.5	0.00e+00	0	25	0	964689920	72	5047
2026-01-06 21:30:21.66	109.45	6.19	-53.4	-56.0	13.6	0.00e+00	0	25	0	965738496	72	5009
2026-01-06 21:30:22.65	109.57	6.15	-53.3	-55.8	13.6	0.00e+00	0	25	0	967835648	72	4921
2026-01-06 21:30:23.65	109.70	6.10	-53.1	-55.5	13.8	0.00e+00	0	26	0	969932800	72	4748
2026-01-06 21:30:24.64	109.83	6.06	-53.3	-55.8	13.7	0.00e+00	0	25	0	972029952	72	4897
2026-01-06 21:30:25.64	109.95	6.01	-53.2	-55.7	13.7	0.00e+00	0	25	0	974127104	72	4838
2026-01-06 21:30:26.65	110.08	5.97	-53.2	-55.7	13.7	0.00e+00	0	25	0	975175680	72	4821
2026-01-06 21:30:27.64	110.20	5.93	-53.2	-55.6	13.8	0.00e+00	0	26	0	977272832	72	4779
2026-01-06 21:30:28.63	110.32	5.88	-53.2	-55.6	13.8	0.00e+00	0	26	0	979369984	72	4792
2026-01-06 21:30:29.63	110.45	5.84	-53.3	-55.8	13.6	0.00e+00	0	25	0	981467136	72	4924
2026-01-06 21:30:30.62	110.57	5.79	-53.2	-55.6	13.8	0.00e+00	0	25	0	982515712	72	4808
2026-01-06 21:30:31.62	110.70	5.75	-53.3	-55.8	13.7	0.00e+00	0	26	0	984612864	72	4899
2026-01-06 21:30:32.62	110.82	5.70	-53.4	-56.1	13.5	0.00e+00	0	26	0	986710016	72	5047
2026-01-06 21:30:33.62	110.94	5.66	-53.5	-56.2	13.4	0.00e+00	0	26	0	988807168	72	5122
2026-01-06 21:30:34.62	111.06	5.61	-53.6	-56.2	13.4	0.00e+00	0	25	0	990904320	72	5154
2026-01-06 21:30:35.61	111.18	5.57	-53.4	-56.0	13.5	0.00e+00	0	25	0	991952896	72	5033
2026-01-06 21:30:36.61	111.31	5.52	-53.5	-56.1	13.4	0.00e+00	0	25	0	994050048	72	5090
2026-01-06 21:30:37.61	111.43	5.48	-53.4	-56.1	13.5	0.00e+00	0	25	0	996147200	72	5062
2026-01-06 21:30:38.61	111.55	5.43	-53.5	-56.2	13.4	0.00e+00	0	26	0	998244352	72	5150
2026-01-06 21:30:39.61	111.67	5.39	-53.5	-56.2	13.4	0.00e+00	0	25	0	1000341504	72	5110
2026-01-06 21:30:40.61	111.79	5.34	-53.7	-56.4	13.2	0.00e+00	0	25	0	1001390080	72	5277
2026-01-06 21:30:41.61	111.91	5.30	-53.6	-56.4	13.3	0.00e+00	0	25	0	1003487232	72	5236
2026-01-06 21:30:42.61	112.03	5.25	-53.4	-56.0	13.5	0.00e+00	0	25	0	1005584384	72	4998
2026-01-06 21:30:43.61	112.15	5.21	-53.4	-56.1	13.4	0.00e+00	0	25	0	1007681536	72	5065
2026-01-06 21:30:44.62	112.27	5.16	-53.3	-55.9	13.5	0.00e+00	0	26	0	1009778688	72	4955
2026-01-06 21:30:45.62	112.39	5.12	-53.5	-56.3	13.3	0.00e+00	0	25	0	1010827264	72	5189
2026-01-06 21:30:46.62	112.50	5.07	-53.7	-56.5	13.2	0.00e+00	0	25	0	1012924416	72	5297
2026-01-06 21:30:47.62	112.62	5.03	-53.7	-56.6	13.1	0.00e+00	0	26	0	1015021568	72	5381
2026-01-06 21:30:48.61	112.74	4.98	-55.4	-59.8	11.6	0.00e+00	0	25	0	1017118720	75	6506
2026-01-06 21:30:49.61	112.86	4.94	-58.3	-74.2	3.8	1.49e+00	0	25	104	1017118720	81	24280
2026-01-06 21:30:50.61	112.97	4.89	-58.7	-74.7	3.8	1.49e+00	0	25	104	1017118720	82	24270
2026-01-06 21:30:51.61	113.09	4.85	-58.9	-74.9	3.8	1.49e+00	0	26	104	1017118720	82	24964
2026-01-06 21:30:52.61	113.20	4.80	-59.1	-75.1	3.8	1.49e+00	0	25	104	1017118720	83	24062
2026-01-06 21:30:53.61	113.32	4.76	-59.2	-75.3	3.8	1.49e+00	0	25	104	1017118720	83	24473
2026-01-06 21:30:54.61	113.44	4.71	-59.3	-75.4	3.8	1.49e+00	0	25	104	1017118720	83	24738
2026-01-06 21:30:55.61	113.55	4.67	-59.4	-75.4	3.8	1.49e+00	0	26	104	1017118720	83	24927
2026-01-06 21:30:56.61	113.67	4.62	-59.4	-75.5	3.8	1.49e+00	0	26	104	1017118720	83	25112
2026-01-06 21:30:57.62	113.78	4.57	-59.6	-75.7	3.8	1.49e+00	0	26	104	1017118720	84	24285
2026-01-06 21:30:58.62	113.90	4.53	-59.7	-75.7	3.8	1.49e+00	0	26	104	1017118720	84	24394
2026-01-06 21:30:59.63	114.01	4.48	-59.7	-75.8	3.8	1.49e+00	0	26	104	1017118720	84	24506
2026-01-06 21:31:00.63	114.12	4.44	-59.8	-75.8	3.8	1.49e+00	0	25	104	1017118720	84	24593
2026-01-06 21:31:01.62	114.24	4.39	-59.8	-75.9	3.8	1.49e+00	0	26	104	1017118720	84	24763
2026-01-06 21:31:02.62	114.35	4.35	-59.8	-75.9	3.8	1.49e+00	0	25	104	1017118720	84	24805
2026-01-06 21:31:03.62	114.46	4.30	-59.9	-75.9	3.8	1.49e+00	0	26	104	1017118720	84	24857
2026-01-06 21:31:04.63	114.57	4.26	-59.9	-76.0	3.8	1.49e+00	0	25	104	1017118720	84	25000
2026-01-06 21:31:05.63	114.68	4.21	-59.9	-76.0	3.8	1.49e+00	0	25	104	1017118720	84	25038
2026-01-06 21:31:06.63	114.80	4.17	-59.9	-76.0	3.8	1.49e+00	0	25	104	1017118720	85	23744
2026-01-06 21:31:07.63	114.91	4.12	-60.0	-76.0	3.8	1.49e+00	0	26	104	1017118720	85	23849
2026-01-06 21:31:08.62	115.02	4.07	-60.0	-76.1	3.8	1.49e+00	0	26	104	1017118720	85	23983
2026-01-06 21:31:09.63	115.13	4.03	-60.0	-76.1	3.8	1.49e+00	0	26	104	1017118720	85	24021
2026-01-06 21:31:10.62	115.24	3.98	-60.1	-76.1	3.8	1.49e+00	0	26	104	1017118720	85	24097
2026-01-06 21:31:11.62	115.35	3.94	-60.1	-76.2	3.8	1.49e+00	0	26	104	1017118720	85	24207
2026-01-06 21:31:12.62	115.46	3.89	-60.1	-76.2	3.8	1.49e+00	0	26	104	1017118720	85	24265
2026-01-06 21:31:13.63	115.57	3.85	-60.1	-76.2	3.8	1.49e+00	0	26	104	1017118720	85	24286
2026-01-06 21:31:14.64	115.68	3.80	-60.1	-76.3	3.8	1.49e+00	0	26	104	1017118720	85	24428
2026-01-06 21:31:15.63	115.78	3.76	-60.2	-76.3	3.8	1.49e+00	0	25	104	1017118720	85	24427
2026-01-06 21:31:16.63	115.89	3.71	-60.2	-76.3	3.8	1.49e+00	0	26	104	1017118720	85	24441
2026-01-06 21:31:17.63	116.00	3.66	-60.2	-76.3	3.8	1.49e+00	0	26	104	1017118720	85	24486
2026-01-06 21:31:18.63	116.11	3.62	-60.2	-76.3	3.8	1.49e+00	0	26	104	1017118720	85	24532
2026-01-06 21:31:19.63	116.21	3.57	-60.2	-76.3	3.8	1.49e+00	0	26	104	1017118720	85	24453
2026-01-06 21:31:20.63	116.32	3.53	-60.2	-76.3	3.8	1.49e+00	0	26	104	1017118720	85	24413
2026-01-06 21:31:21.63	116.43	3.48	-60.2	-76.3	3.8	1.49e+00	0	26	104	1017118720	85	24445
2026-01-06 21:31:22.64	116.53	3.44	-60.1	-76.2	3.8	1.49e+00	0	26	104	1017118720	85	24318
2026-01-06 21:31:23.64	116.64	3.39	-60.1	-76.2	3.8	1.49e+00	0	26	104	1017118720	85	24244
2026-01-06 21:31:24.65	116.75	3.34	-60.1	-76.2	3.8	1.49e+00	0	26	104	1017118720	85	24237
2026-01-06 21:31:25.64	116.85	3.30	-60.1	-76.2	3.8	1.49e+00	0	26	104	1017118720	85	24205
2026-01-06 21:31:26.64	116.96	3.25	-60.1	-76.2	3.8	1.49e+00	0	26	104	1017118720	85	24239
2026-01-06 21:31:27.64	117.06	3.21	-60.1	-76.2	3.8	1.49e+00	0	26	104	1017118720	85	24240
2026-01-06 21:31:28.64	117.16	3.16	-60.1	-76.2	3.8	1.49e+00	0	26	104	1017118720	85	24209
2026-01-06 21:31:29.63	117.27	3.12	-60.1	-76.2	3.8	1.49e+00	0	26	104	1017118720	85	24161
2026-01-06 21:31:30.63	117.37	3.07	-60.1	-76.2	3.8	1.49e+00	0	26	104	1017118720	85	24218
2026-01-06 21:31:31.62	117.47	3.03	-60.1	-76.2	3.8	1.49e+00	0	26	104	1017118720	85	24137
2026-01-06 21:31:32.62	117.58	2.98	-60.1	-76.2	3.8	1.49e+00	0	26	104	1017118720	85	24173
2026-01-06 21:31:33.62	117.68	2.94	-60.1	-76.2	3.8	1.49e+00	0	26	104	1017118720	85	24173
2026-01-06 21:31:34.62	117.78	2.89	-60.1	-76.2	3.8	1.49e+00	0	26	104	1017118720	85	24173
2026-01-06 21:31:35.61	117.88	2.84	-60.1	-76.2	3.8	1.49e+00	0	26	104	1017118720	85	24146
2026-01-06 21:31:36.61	117.99	2.80	-60.1	-76.2	3.8	1.49e+00	0	26	104	1017118720	85	24133
2026-01-06 21:31:37.61	118.09	2.75	-60.1	-76.1	3.8	1.49e+00	0	26	104	1017118720	85	24082
2026-01-06 21:31:38.61	118.19	2.71	-60.1	-76.1	3.8	1.49e+00	0	26	104	1017118720	85	24052
2026-01-06 21:31:39.61	118.29	2.66	-60.1	-76.1	3.8	1.49e+00	0	26	104	1017118720	85	24115
2026-01-06 21:31:40.60	118.39	2.62	-60.0	-76.2	3.8	1.49e+00	0	26	104	1017118720	85	24181
2026-01-06 21:31:41.60	118.49	2.57	-60.1	-76.1	3.8	1.49e+00	0	26	104	1017118720	85	24125
2026-01-06 21:31:42.60	118.59	2.53	-60.0	-76.1	3.8	1.49e+00	0	26	104	1017118720	85	24051
2026-01-06 21:31:43.61	118.69	2.48	-60.0	-76.1	3.8	1.49e+00	0	26	104	1017118720	85	24043
2026-01-06 21:31:44.61	118.79	2.43	-60.0	-76.1	3.8	1.49e+00	0	26	104	1017118720	85	24065
2026-01-06 21:31:45.61	118.89	2.39	-60.0	-76.1	3.8	1.49e+00	0	26	104	1017118720	85	24085
2026-01-06 21:31:46.61	118.99	2.34	-60.0	-76.1	3.8	1.49e+00	0	26	104	1017118720	85	24087
2026-01-06 21:31:47.61	119.09	2.30	-60.0	-76.1	3.8	1.49e+00	0	26	104	1017118720	85	24063
2026-01-06 21:31:48.62	119.19	2.25	-60.1	-76.1	3.8	1.49e+00	0	26	104	1017118720	85	24082
2026-01-06 21:31:49.61	119.28	2.21	-60.0	-76.1	3.8	1.49e+00	0	26	104	1017118720	85	24056
2026-01-06 21:31:50.61	119.38	2.16	-60.0	-76.1	3.8	1.49e+00	0	26	104	1017118720	85	24043
2026-01-06 21:31:51.61	119.48	2.12	-60.0	-76.1	3.8	1.49e+00	0	26	104	1017118720	85	23958
2026-01-06 21:31:52.62	119.58	2.07	-60.0	-76.1	3.8	1.49e+00	0	26	104	1017118720	85	23924
2026-01-06 21:31:53.62	119.67	2.02	-60.0	-76.1	3.8	1.49e+00	0	26	104	1017118720	85	24034
2026-01-06 21:31:54.63	119.77	1.98	-60.0	-76.1	3.8	1.49e+00	0	26	104	1017118720	85	24024

#Closed at: 2026-01-06 21:31:55
#Recorded file [1017 MB]: D:/lorett/data/31004_260107_002050.dat