passes_logs/2026/01/06/R3.2S_Murmansk/R3.2S_Murmansk__20260106_224032_SUOMI_NPP_rec.log

#Pass ID: 20260106_224032_SUOMI NPP
#Satellite: SUOMI NPP
#Configuration: NPP
#almurnet v.1.7.20251203
#Start time: 2026-01-06 22:40:34

#Version: 2.2.20231116
#Station: R3.2S_Murmansk
#Location: 33.079688 lon 68.888172 lat
#TLE: 1 37849U 11061A   26005.94084933  .00000134  00000+0  84554-4 0  9990
#TLE: 2 37849  98.7803 308.0679 0002567  79.1029 281.0436 14.19522657735426

#Time	Az	El	Level	Level2	SNR	BER	BlckErr	Temp	State	Recorded	gain1	gain2
2026-01-06 22:40:34.95	19.33	2.12	-58.1	-74.1	3.8	1.49e+00	0	25	0	0	82	22576
2026-01-06 22:40:35.94	19.40	2.17	-58.1	-74.1	3.8	1.49e+00	0	25	104	0	81	24087
2026-01-06 22:40:36.94	19.46	2.23	-58.1	-74.1	3.8	1.49e+00	0	25	104	0	81	24032
2026-01-06 22:40:37.94	19.52	2.29	-58.1	-74.1	3.8	1.49e+00	0	25	104	0	81	23987
2026-01-06 22:40:38.94	19.59	2.35	-58.1	-74.1	3.8	1.49e+00	0	25	104	0	81	23936
2026-01-06 22:40:39.94	19.65	2.40	-58.1	-74.1	3.8	1.49e+00	0	25	104	0	81	23954
2026-01-06 22:40:40.95	19.71	2.46	-58.1	-74.0	3.8	1.49e+00	0	25	104	0	81	23757
2026-01-06 22:40:41.95	19.78	2.52	-58.1	-74.0	3.8	1.49e+00	0	25	104	0	81	23835
2026-01-06 22:40:42.95	19.84	2.58	-58.1	-74.1	3.8	1.49e+00	0	25	104	0	81	23872
2026-01-06 22:40:43.95	19.91	2.63	-58.1	-74.1	3.8	1.49e+00	0	25	104	0	81	23991
2026-01-06 22:40:44.94	19.97	2.69	-58.1	-74.1	3.8	1.49e+00	0	25	104	0	81	23869
2026-01-06 22:40:45.93	20.04	2.75	-58.1	-74.0	3.8	1.49e+00	0	25	104	0	81	23715
2026-01-06 22:40:46.93	20.10	2.81	-58.1	-73.9	3.8	1.49e+00	0	25	104	0	81	23398
2026-01-06 22:40:47.93	20.17	2.86	-58.1	-73.7	3.8	1.49e+00	0	25	104	0	81	22973
2026-01-06 22:40:48.92	20.23	2.92	-58.1	-73.4	3.8	1.49e+00	0	25	104	0	81	22064
2026-01-06 22:40:49.93	20.30	2.98	-58.1	-73.0	3.8	1.49e+00	0	26	104	0	81	21148
2026-01-06 22:40:50.93	20.37	3.04	-58.1	-72.9	3.8	1.49e+00	0	26	104	0	81	20928
2026-01-06 22:40:51.92	20.43	3.10	-58.0	-72.7	3.8	1.49e+00	0	25	104	0	81	20390
2026-01-06 22:40:52.92	20.50	3.16	-58.1	-72.9	3.8	1.49e+00	0	26	104	0	81	20795
2026-01-06 22:40:53.92	20.57	3.21	-58.1	-73.0	3.8	1.49e+00	0	26	104	0	81	21096
2026-01-06 22:40:54.93	20.64	3.27	-58.1	-72.6	3.8	1.49e+00	0	26	104	0	81	20285
2026-01-06 22:40:55.92	20.70	3.33	-58.1	-72.4	3.8	1.49e+00	0	26	104	0	81	19788
2026-01-06 22:40:56.92	20.77	3.39	-58.0	-72.1	3.8	1.49e+00	0	26	104	0	81	19105
2026-01-06 22:40:57.92	20.84	3.45	-58.0	-71.3	4.0	1.49e+00	0	26	104	0	81	17419
2026-01-06 22:40:58.92	20.91	3.51	-58.0	-70.9	4.1	1.44e+00	0	26	0	0	81	16559
2026-01-06 22:40:59.92	20.98	3.57	-57.9	-69.9	4.4	1.28e+00	59	26	0	1048576	81	14770
2026-01-06 22:41:00.92	21.05	3.63	-57.8	-68.6	4.9	7.74e-01	0	26	0	2097152	81	12803
2026-01-06 22:41:01.92	21.11	3.69	-57.8	-68.5	4.9	7.16e-01	0	26	0	4194304	81	12628
2026-01-06 22:41:02.93	21.19	3.75	-57.8	-68.1	5.1	5.86e-01	0	26	0	6291456	81	12056
2026-01-06 22:41:03.94	21.26	3.81	-57.7	-67.8	5.3	4.99e-01	0	26	0	8388608	81	11585
2026-01-06 22:41:04.94	21.33	3.87	-57.6	-66.9	5.9	3.77e-01	0	26	0	10485760	81	10438
2026-01-06 22:41:05.94	21.40	3.93	-57.6	-66.7	6.0	3.29e-01	0	26	0	11534336	81	10176
2026-01-06 22:41:06.93	21.47	3.98	-57.5	-66.0	6.5	2.17e-01	0	26	0	13631488	81	9437
2026-01-06 22:41:07.93	21.54	4.04	-57.3	-64.8	7.5	1.06e-01	0	26	0	15728640	81	8189
2026-01-06 22:41:08.93	21.61	4.10	-56.8	-62.8	9.2	1.52e-02	0	26	0	17825792	80	6933
2026-01-06 22:41:09.93	21.68	4.16	-56.3	-61.4	10.3	4.45e-03	0	26	0	18874368	79	6254
2026-01-06 22:41:10.92	21.75	4.22	-55.8	-60.1	11.3	1.75e-04	0	26	0	20971520	78	5679
2026-01-06 22:41:11.92	21.82	4.28	-55.3	-59.0	12.1	3.80e-06	0	26	0	23068672	77	5280
2026-01-06 22:41:12.92	21.89	4.34	-54.8	-58.1	12.6	1.50e-06	0	26	0	25165824	76	5050
2026-01-06 22:41:13.92	21.97	4.41	-54.2	-57.1	13.0	7.00e-07	0	26	0	27262976	74	5077
2026-01-06 22:41:14.92	22.04	4.47	-53.8	-56.6	13.3	0.00e+00	0	26	0	28311552	74	4765
2026-01-06 22:41:15.92	22.11	4.53	-53.9	-56.7	13.3	0.00e+00	0	26	0	30408704	74	4824
2026-01-06 22:41:16.92	22.19	4.59	-54.0	-56.8	13.2	0.00e+00	0	26	0	32505856	74	4884
2026-01-06 22:41:17.92	22.26	4.65	-53.8	-56.5	13.2	0.00e+00	0	26	0	34603008	73	5037
2026-01-06 22:41:18.92	22.33	4.71	-54.3	-57.4	12.8	0.00e+00	0	26	0	36700160	73	5545
2026-01-06 22:41:19.92	22.41	4.77	-54.6	-57.8	12.6	0.00e+00	0	26	0	37748736	74	5515
2026-01-06 22:41:20.92	22.48	4.83	-55.3	-59.3	11.7	0.00e+00	0	26	0	39845888	75	6138
2026-01-06 22:41:21.91	22.56	4.89	-56.0	-60.5	11.0	3.12e-05	0	26	0	41943040	77	6346
2026-01-06 22:41:22.91	22.63	4.95	-56.3	-61.4	10.2	2.14e-04	0	26	0	44040192	77	7004
2026-01-06 22:41:23.91	22.71	5.02	-56.8	-62.8	9.2	1.84e-03	0	26	0	45088768	78	7724
2026-01-06 22:41:24.91	22.78	5.08	-54.4	-57.3	13.0	7.60e-06	0	26	0	47185920	75	4925
2026-01-06 22:41:25.90	22.86	5.14	-57.5	-66.5	6.2	2.44e-02	0	26	0	49283072	80	10625
2026-01-06 22:41:26.90	22.93	5.20	-57.4	-64.6	7.8	6.07e-02	0	26	0	51380224	80	8561
2026-01-06 22:41:27.90	23.01	5.26	-54.4	-57.4	13.0	2.93e-02	0	26	0	53477376	75	4965
2026-01-06 22:41:28.90	23.09	5.32	-57.7	-66.9	6.0	6.22e-02	0	26	0	54525952	80	11064
2026-01-06 22:41:29.90	23.17	5.39	-54.8	-58.1	12.7	6.11e-02	0	26	0	56623104	76	5059
2026-01-06 22:41:30.90	23.24	5.45	-54.6	-57.7	12.8	0.00e+00	0	26	0	58720256	75	5114
2026-01-06 22:41:31.90	23.32	5.51	-54.6	-57.8	12.7	0.00e+00	0	26	0	60817408	75	5186
2026-01-06 22:41:32.90	23.40	5.57	-54.4	-57.4	13.0	0.00e+00	0	26	0	62914560	75	4958
2026-01-06 22:41:33.90	23.48	5.64	-54.3	-57.2	13.1	0.00e+00	0	26	0	63963136	75	4857
2026-01-06 22:41:34.90	23.56	5.70	-54.5	-57.5	12.9	0.00e+00	0	26	0	66060288	75	5028
2026-01-06 22:41:35.90	23.64	5.76	-54.5	-57.6	12.9	0.00e+00	0	26	0	68157440	75	5055
2026-01-06 22:41:36.89	23.71	5.82	-54.5	-57.6	12.9	0.00e+00	0	26	0	70254592	75	5048
2026-01-06 22:41:37.89	23.79	5.89	-54.5	-57.6	12.9	0.00e+00	0	27	0	72351744	75	5074
2026-01-06 22:41:38.89	23.87	5.95	-54.1	-56.8	13.3	0.00e+00	0	27	0	73400320	74	4918
2026-01-06 22:41:39.89	23.95	6.01	-54.1	-56.8	13.3	0.00e+00	0	27	0	75497472	74	4924
2026-01-06 22:41:40.89	24.03	6.08	-54.2	-57.0	13.2	0.00e+00	0	26	0	77594624	74	5032
2026-01-06 22:41:41.89	24.12	6.14	-54.2	-57.0	13.2	0.00e+00	0	26	0	79691776	74	5021
2026-01-06 22:41:42.89	24.20	6.20	-54.0	-56.8	13.3	0.00e+00	0	26	0	80740352	74	4878
2026-01-06 22:41:43.89	24.28	6.27	-54.0	-56.6	13.4	0.00e+00	0	27	0	82837504	74	4798
2026-01-06 22:41:44.90	24.36	6.33	-54.1	-56.9	13.3	0.00e+00	0	27	0	84934656	74	4952
2026-01-06 22:41:45.89	24.44	6.40	-54.0	-56.7	13.4	0.00e+00	0	26	0	87031808	74	4839
2026-01-06 22:41:46.89	24.53	6.46	-53.8	-56.4	13.6	0.00e+00	0	27	0	89128960	74	4665
2026-01-06 22:41:47.90	24.61	6.52	-53.8	-56.4	13.4	0.00e+00	0	27	0	90177536	73	4941
2026-01-06 22:41:48.90	24.69	6.59	-53.8	-56.4	13.4	0.00e+00	0	27	0	92274688	73	4975
2026-01-06 22:41:49.90	24.78	6.65	-53.8	-56.3	13.5	0.00e+00	0	27	0	94371840	73	4912
2026-01-06 22:41:50.90	24.86	6.72	-53.7	-56.2	13.6	0.00e+00	0	27	0	96468992	73	4854
2026-01-06 22:41:51.90	24.95	6.78	-53.6	-56.1	13.6	0.00e+00	0	27	0	98566144	73	4779
2026-01-06 22:41:52.90	25.03	6.85	-53.6	-56.0	13.7	0.00e+00	0	27	0	99614720	73	4738
2026-01-06 22:41:53.91	25.12	6.91	-53.4	-55.7	13.9	0.00e+00	0	27	0	101711872	73	4572
2026-01-06 22:41:54.91	25.20	6.98	-53.3	-55.6	13.9	0.00e+00	0	27	0	103809024	73	4529
2026-01-06 22:41:55.91	25.29	7.04	-53.4	-55.8	13.8	0.00e+00	0	27	0	105906176	73	4631
2026-01-06 22:41:56.90	25.37	7.11	-53.4	-55.8	13.8	0.00e+00	0	27	0	106954752	73	4604
2026-01-06 22:41:57.90	25.46	7.17	-53.3	-55.6	13.9	0.00e+00	0	27	0	109051904	73	4532
2026-01-06 22:41:58.91	25.55	7.24	-53.3	-55.7	13.9	0.00e+00	0	26	0	111149056	73	4546
2026-01-06 22:41:59.91	25.64	7.30	-53.2	-55.4	14.0	0.00e+00	0	27	0	113246208	73	4433
2026-01-06 22:42:00.88	25.72	7.37	-53.2	-55.4	13.9	0.00e+00	0	27	0	115343360	72	4684
2026-01-06 22:42:01.87	25.81	7.43	-53.3	-55.6	13.8	0.00e+00	0	27	0	116391936	72	4766
2026-01-06 22:42:02.87	25.90	7.50	-53.3	-55.6	13.8	0.00e+00	0	27	0	118489088	72	4763
2026-01-06 22:42:03.87	25.98	7.56	-53.2	-55.4	13.9	0.00e+00	0	27	0	120586240	72	4679
2026-01-06 22:42:04.87	26.07	7.63	-53.3	-55.6	13.8	0.00e+00	0	27	0	122683392	72	4787
2026-01-06 22:42:05.87	26.16	7.70	-53.3	-55.7	13.8	0.00e+00	0	27	0	123731968	72	4824
2026-01-06 22:42:06.86	26.25	7.76	-53.4	-55.8	13.7	0.00e+00	0	27	0	125829120	72	4875
2026-01-06 22:42:07.86	26.34	7.83	-53.2	-55.5	13.9	0.00e+00	0	27	0	127926272	72	4708
2026-01-06 22:42:08.87	26.43	7.90	-53.2	-55.5	13.9	0.00e+00	0	27	0	130023424	72	4712
2026-01-06 22:42:09.86	26.52	7.96	-53.4	-55.7	13.8	0.00e+00	0	27	0	132120576	72	4829
2026-01-06 22:42:10.85	26.62	8.03	-53.3	-55.6	13.8	0.00e+00	0	27	0	133169152	72	4772
2026-01-06 22:42:11.85	26.71	8.10	-53.2	-55.4	13.9	0.00e+00	0	27	0	135266304	72	4676
2026-01-06 22:42:12.85	26.80	8.16	-53.1	-55.3	13.9	0.00e+00	0	27	0	137363456	72	4619
2026-01-06 22:42:13.85	26.89	8.23	-53.1	-55.3	13.9	0.00e+00	0	27	0	139460608	72	4643
2026-01-06 22:42:14.85	26.99	8.30	-53.1	-55.3	13.9	0.00e+00	0	27	0	141557760	72	4647
2026-01-06 22:42:15.85	27.08	8.36	-53.2	-55.4	13.9	0.00e+00	0	27	0	142606336	72	4687
2026-01-06 22:42:16.85	27.17	8.43	-53.2	-55.4	13.9	0.00e+00	0	27	0	144703488	72	4672
2026-01-06 22:42:17.86	27.27	8.50	-53.2	-55.5	13.9	0.00e+00	0	27	0	146800640	72	4718
2026-01-06 22:42:18.86	27.36	8.57	-53.1	-55.3	14.0	0.00e+00	0	27	0	148897792	72	4607
2026-01-06 22:42:19.86	27.46	8.64	-53.1	-55.2	14.0	0.00e+00	0	27	0	150994944	72	4585
2026-01-06 22:42:20.86	27.55	8.70	-53.1	-55.3	14.0	0.00e+00	0	27	0	152043520	72	4620
2026-01-06 22:42:21.87	27.65	8.77	-53.1	-55.2	14.0	0.00e+00	0	27	0	154140672	72	4585
2026-01-06 22:42:22.86	27.75	8.84	-53.2	-55.4	13.9	0.00e+00	0	27	0	156237824	72	4672
2026-01-06 22:42:23.86	27.84	8.91	-53.2	-55.4	13.9	0.00e+00	0	27	0	158334976	72	4670
2026-01-06 22:42:24.86	27.94	8.98	-53.2	-55.4	13.9	0.00e+00	0	27	0	159383552	72	4684
2026-01-06 22:42:25.86	28.04	9.05	-53.3	-55.6	13.8	0.00e+00	0	27	0	161480704	72	4779
2026-01-06 22:42:26.86	28.14	9.11	-53.5	-55.8	13.8	0.00e+00	0	27	0	163577856	72	4886
2026-01-06 22:42:27.86	28.24	9.18	-53.4	-55.7	13.8	0.00e+00	0	27	0	165675008	72	4844
2026-01-06 22:42:28.86	28.34	9.25	-53.6	-56.0	13.6	0.00e+00	0	27	0	167772160	72	4985
2026-01-06 22:42:29.86	28.43	9.32	-53.6	-56.0	13.6	0.00e+00	0	27	0	168820736	72	5009
2026-01-06 22:42:30.85	28.53	9.39	-53.6	-56.0	13.7	0.00e+00	0	27	0	170917888	72	4987
2026-01-06 22:42:31.85	28.63	9.46	-53.6	-56.0	13.7	0.00e+00	0	27	0	173015040	72	5009
2026-01-06 22:42:32.84	28.73	9.53	-53.6	-56.0	13.6	0.00e+00	0	27	0	175112192	72	5029
2026-01-06 22:42:33.85	28.84	9.60	-53.6	-56.0	13.6	0.00e+00	0	27	0	177209344	72	5013
2026-01-06 22:42:34.85	28.94	9.67	-53.6	-55.9	13.7	0.00e+00	0	27	0	178257920	72	4967
2026-01-06 22:42:35.86	29.04	9.74	-53.5	-55.8	13.8	0.00e+00	0	27	0	180355072	72	4904
2026-01-06 22:42:36.85	29.14	9.81	-53.4	-55.7	13.8	0.00e+00	0	27	0	182452224	72	4836
2026-01-06 22:42:37.85	29.25	9.88	-53.4	-55.6	13.9	0.00e+00	0	27	0	184549376	72	4800
2026-01-06 22:42:38.85	29.35	9.95	-53.3	-55.6	13.9	0.00e+00	0	27	0	185597952	72	4768
2026-01-06 22:42:39.86	29.46	10.02	-53.1	-55.2	14.0	0.00e+00	0	27	0	187695104	72	4587
2026-01-06 22:42:40.86	29.56	10.09	-53.1	-55.2	14.1	0.00e+00	0	27	0	189792256	72	4557
2026-01-06 22:42:41.87	29.67	10.16	-53.1	-55.3	14.0	0.00e+00	0	27	0	191889408	72	4608
2026-01-06 22:42:42.87	29.77	10.23	-52.9	-55.0	14.2	0.00e+00	0	27	0	193986560	72	4474
2026-01-06 22:42:43.87	29.88	10.30	-53.0	-55.1	14.1	0.00e+00	0	27	0	195035136	72	4494
2026-01-06 22:42:44.87	29.98	10.37	-52.9	-54.9	14.2	0.00e+00	0	27	0	197132288	72	4414
2026-01-06 22:42:45.87	30.09	10.44	-52.8	-54.8	14.3	0.00e+00	0	27	0	199229440	72	4350
2026-01-06 22:42:46.87	30.20	10.51	-52.6	-54.6	14.2	0.00e+00	0	27	0	201326592	71	4528
2026-01-06 22:42:47.87	30.31	10.58	-52.7	-54.6	14.2	0.00e+00	0	27	0	203423744	71	4545
2026-01-06 22:42:48.86	30.42	10.66	-52.6	-54.6	14.2	0.00e+00	0	27	0	204472320	71	4526
2026-01-06 22:42:49.86	30.52	10.73	-52.6	-54.6	14.2	0.00e+00	0	27	0	206569472	71	4530
2026-01-06 22:42:50.86	30.63	10.80	-52.7	-54.7	14.2	0.00e+00	0	27	0	208666624	71	4560
2026-01-06 22:42:51.85	30.74	10.87	-52.6	-54.6	14.2	0.00e+00	0	27	0	210763776	71	4532
2026-01-06 22:42:52.85	30.85	10.94	-52.8	-54.8	14.1	0.00e+00	0	27	0	212860928	71	4634
2026-01-06 22:42:53.86	30.97	11.01	-52.9	-54.9	14.1	0.00e+00	0	27	0	213909504	71	4688
2026-01-06 22:42:54.85	31.08	11.09	-52.7	-54.6	14.2	0.00e+00	0	27	0	216006656	71	4536
2026-01-06 22:42:55.86	31.19	11.16	-52.7	-54.6	14.3	0.00e+00	0	27	0	218103808	71	4533
2026-01-06 22:42:56.85	31.30	11.23	-52.7	-54.7	14.2	0.00e+00	0	27	0	220200960	71	4588
2026-01-06 22:42:57.86	31.42	11.30	-52.7	-54.7	14.2	0.00e+00	0	27	0	221249536	71	4583
2026-01-06 22:42:58.86	31.53	11.38	-52.8	-54.8	14.1	0.00e+00	0	27	0	223346688	71	4631
2026-01-06 22:42:59.86	31.64	11.45	-52.9	-54.9	14.1	0.00e+00	0	27	0	225443840	71	4694
2026-01-06 22:43:00.86	31.76	11.52	-52.9	-55.0	14.1	0.00e+00	0	27	0	227540992	71	4709
2026-01-06 22:43:01.87	31.88	11.59	-52.8	-54.9	14.1	0.00e+00	0	27	0	229638144	71	4670
2026-01-06 22:43:02.87	31.99	11.67	-52.9	-55.0	14.1	0.00e+00	0	27	0	230686720	71	4728
2026-01-06 22:43:03.86	32.11	11.74	-52.9	-55.0	14.1	0.00e+00	0	27	0	232783872	71	4720
2026-01-06 22:43:04.86	32.22	11.81	-53.0	-55.0	14.0	0.00e+00	0	27	0	234881024	71	4757
2026-01-06 22:43:05.86	32.34	11.89	-53.1	-55.2	14.0	0.00e+00	0	27	0	236978176	71	4838
2026-01-06 22:43:06.86	32.46	11.96	-52.9	-55.0	14.1	0.00e+00	0	27	0	239075328	71	4727
2026-01-06 22:43:07.86	32.58	12.03	-53.0	-55.2	14.0	0.00e+00	0	27	0	240123904	71	4818
2026-01-06 22:43:08.86	32.70	12.11	-53.2	-55.3	14.0	0.00e+00	0	27	0	242221056	71	4906
2026-01-06 22:43:09.85	32.82	12.18	-53.1	-55.2	14.0	0.00e+00	0	27	0	244318208	71	4832
2026-01-06 22:43:10.85	32.94	12.25	-53.1	-55.2	14.0	0.00e+00	0	27	0	246415360	71	4831
2026-01-06 22:43:11.85	33.06	12.33	-53.2	-55.4	13.9	0.00e+00	0	27	0	248512512	71	4932
2026-01-06 22:43:12.84	33.18	12.40	-53.2	-55.4	13.9	0.00e+00	0	27	0	249561088	71	4942
2026-01-06 22:43:13.84	33.30	12.48	-53.3	-55.5	13.9	0.00e+00	0	27	0	251658240	71	5001
2026-01-06 22:43:14.84	33.42	12.55	-53.5	-55.7	13.8	0.00e+00	0	27	0	253755392	72	4839
2026-01-06 22:43:15.84	33.55	12.62	-53.3	-55.5	14.0	0.00e+00	0	27	0	255852544	72	4713
2026-01-06 22:43:16.83	33.67	12.70	-53.5	-55.8	13.8	0.00e+00	0	27	0	256901120	72	4901
2026-01-06 22:43:17.82	33.79	12.77	-53.6	-55.8	13.8	0.00e+00	0	27	0	258998272	72	4919
2026-01-06 22:43:18.82	33.92	12.85	-53.3	-55.5	13.9	0.00e+00	0	27	0	261095424	72	4735
2026-01-06 22:43:19.82	34.04	12.92	-53.3	-55.5	14.0	0.00e+00	0	27	0	263192576	72	4741
2026-01-06 22:43:20.81	34.17	13.00	-53.3	-55.5	14.0	0.00e+00	0	27	0	265289728	72	4726
2026-01-06 22:43:21.81	34.30	13.07	-53.2	-55.3	14.0	0.00e+00	0	27	0	266338304	72	4617
2026-01-06 22:43:22.81	34.42	13.15	-53.2	-55.4	14.0	0.00e+00	0	27	0	268435456	72	4668
2026-01-06 22:43:23.81	34.55	13.22	-53.1	-55.2	14.1	0.00e+00	0	27	0	270532608	72	4573
2026-01-06 22:43:24.80	34.68	13.30	-52.9	-54.9	14.2	0.00e+00	0	27	0	272629760	72	4428
2026-01-06 22:43:25.80	34.81	13.37	-52.9	-54.9	14.2	0.00e+00	0	27	0	273678336	72	4432
2026-01-06 22:43:26.80	34.94	13.45	-52.8	-54.8	14.3	0.00e+00	0	27	0	275775488	72	4367
2026-01-06 22:43:27.80	35.07	13.52	-52.7	-54.7	14.2	0.00e+00	0	27	0	277872640	71	4553
2026-01-06 22:43:28.80	35.20	13.60	-52.5	-54.4	14.4	0.00e+00	0	27	0	279969792	71	4401
2026-01-06 22:43:29.79	35.33	13.68	-52.4	-54.3	14.4	0.00e+00	0	27	0	282066944	71	4376
2026-01-06 22:43:30.79	35.47	13.75	-52.4	-54.2	14.4	0.00e+00	0	27	0	283115520	71	4337
2026-01-06 22:43:31.79	35.60	13.83	-52.3	-54.1	14.5	0.00e+00	0	27	0	285212672	71	4284
2026-01-06 22:43:32.79	35.73	13.90	-52.5	-54.3	14.4	0.00e+00	0	27	0	287309824	71	4382
2026-01-06 22:43:33.79	35.87	13.98	-52.3	-54.1	14.5	0.00e+00	0	27	0	289406976	71	4286
2026-01-06 22:43:34.79	36.01	14.06	-52.2	-54.1	14.4	0.00e+00	0	27	0	291504128	70	4496
2026-01-06 22:43:35.79	36.14	14.13	-52.3	-54.1	14.4	0.00e+00	0	27	0	292552704	70	4518
2026-01-06 22:43:36.79	36.28	14.21	-52.1	-53.9	14.5	0.00e+00	0	27	0	294649856	70	4435
2026-01-06 22:43:37.78	36.41	14.29	-52.1	-53.9	14.5	0.00e+00	0	27	0	296747008	70	4430
2026-01-06 22:43:38.78	36.55	14.36	-52.2	-54.0	14.4	0.00e+00	0	27	0	298844160	70	4459
2026-01-06 22:43:39.78	36.69	14.44	-52.2	-54.0	14.4	0.00e+00	0	27	0	299892736	70	4478
2026-01-06 22:43:40.78	36.83	14.52	-52.1	-53.9	14.5	0.00e+00	0	27	0	301989888	70	4433
2026-01-06 22:43:41.79	36.97	14.59	-52.1	-53.9	14.5	0.00e+00	0	27	0	304087040	70	4406
2026-01-06 22:43:42.79	37.11	14.67	-52.1	-53.9	14.4	0.00e+00	0	27	0	306184192	70	4433
2026-01-06 22:43:43.78	37.25	14.75	-52.3	-54.1	14.4	0.00e+00	0	27	0	308281344	70	4507
2026-01-06 22:43:44.79	37.40	14.83	-52.2	-54.0	14.4	0.00e+00	0	27	0	309329920	70	4467
2026-01-06 22:43:45.79	37.54	14.90	-52.2	-54.0	14.4	0.00e+00	0	27	0	311427072	70	4467
2026-01-06 22:43:46.78	37.68	14.98	-52.4	-54.2	14.4	0.00e+00	0	27	0	313524224	70	4583
2026-01-06 22:43:47.78	37.83	15.06	-52.2	-54.1	14.4	0.00e+00	0	27	0	315621376	70	4504
2026-01-06 22:43:48.77	37.97	15.14	-52.3	-54.2	14.4	0.00e+00	0	27	0	316669952	70	4561
2026-01-06 22:43:49.77	38.12	15.21	-52.5	-54.4	14.3	0.00e+00	0	27	0	318767104	70	4700
2026-01-06 22:43:50.77	38.26	15.29	-52.6	-54.5	14.2	0.00e+00	0	27	0	320864256	70	4722
2026-01-06 22:43:51.77	38.41	15.37	-52.5	-54.4	14.3	0.00e+00	0	27	0	322961408	70	4662
2026-01-06 22:43:52.77	38.56	15.45	-52.8	-54.8	14.1	0.00e+00	0	27	0	325058560	70	4885
2026-01-06 22:43:53.78	38.71	15.53	-52.7	-54.7	14.2	0.00e+00	0	27	0	326107136	70	4835
2026-01-06 22:43:54.77	38.86	15.60	-52.8	-54.8	14.1	0.00e+00	0	27	0	328204288	70	4909
2026-01-06 22:43:55.77	39.01	15.68	-52.9	-54.9	14.2	0.00e+00	0	27	0	330301440	71	4701
2026-01-06 22:43:56.77	39.16	15.76	-52.9	-54.9	14.2	0.00e+00	0	27	0	332398592	71	4663
2026-01-06 22:43:57.78	39.32	15.84	-52.7	-54.7	14.2	0.00e+00	0	27	0	334495744	71	4564
2026-01-06 22:43:58.78	39.47	15.92	-52.9	-54.9	14.2	0.00e+00	0	27	0	335544320	71	4658
2026-01-06 22:43:59.78	39.62	16.00	-52.8	-54.8	14.2	0.00e+00	0	27	0	337641472	71	4635
2026-01-06 22:44:00.73	39.77	16.07	-52.7	-54.7	14.3	0.00e+00	0	27	0	339738624	71	4554
2026-01-06 22:44:01.73	39.92	16.15	-52.6	-54.5	14.4	0.00e+00	0	27	0	341835776	71	4455
2026-01-06 22:44:02.74	40.08	16.23	-52.4	-54.2	14.5	0.00e+00	0	27	0	343932928	71	4338
2026-01-06 22:44:03.74	40.24	16.31	-52.3	-54.2	14.5	0.00e+00	0	27	0	344981504	71	4308
2026-01-06 22:44:04.74	40.40	16.39	-52.2	-54.1	14.5	0.00e+00	0	27	0	347078656	71	4248
2026-01-06 22:44:05.73	40.55	16.47	-52.5	-54.4	14.4	0.00e+00	0	27	0	349175808	71	4400
2026-01-06 22:44:06.73	40.71	16.54	-52.0	-53.7	14.6	0.00e+00	0	27	0	351272960	70	4338
2026-01-06 22:44:07.73	40.87	16.62	-52.0	-53.8	14.6	0.00e+00	0	27	0	352321536	70	4375
2026-01-06 22:44:08.73	41.03	16.70	-52.1	-53.9	14.5	0.00e+00	0	27	0	354418688	70	4419
2026-01-06 22:44:09.74	41.20	16.78	-51.9	-53.7	14.6	0.00e+00	0	27	0	356515840	70	4313
2026-01-06 22:44:10.73	41.36	16.86	-52.0	-53.7	14.6	0.00e+00	0	27	0	358612992	70	4318
2026-01-06 22:44:11.73	41.52	16.94	-52.1	-53.9	14.5	0.00e+00	0	27	0	360710144	70	4424
2026-01-06 22:44:12.72	41.68	17.02	-52.1	-53.9	14.5	0.00e+00	0	27	0	361758720	70	4410
2026-01-06 22:44:13.73	41.85	17.10	-51.7	-53.4	14.7	0.00e+00	0	27	0	363855872	70	4187
2026-01-06 22:44:14.72	42.01	17.18	-51.7	-53.4	14.6	0.00e+00	0	27	0	365953024	69	4407
2026-01-06 22:44:15.71	42.18	17.25	-51.7	-53.4	14.6	0.00e+00	0	27	0	368050176	69	4428
2026-01-06 22:44:16.71	42.34	17.33	-51.8	-53.6	14.5	0.00e+00	0	27	0	370147328	69	4497
2026-01-06 22:44:17.70	42.51	17.41	-51.8	-53.5	14.5	0.00e+00	0	27	0	371195904	69	4487
2026-01-06 22:44:18.69	42.68	17.49	-52.1	-54.0	14.4	0.00e+00	0	27	0	373293056	69	4706
2026-01-06 22:44:19.69	42.85	17.57	-52.0	-53.8	14.4	0.00e+00	0	27	0	375390208	69	4635
2026-01-06 22:44:20.69	43.02	17.65	-52.0	-53.8	14.4	0.00e+00	0	27	0	377487360	69	4626
2026-01-06 22:44:21.69	43.19	17.73	-52.2	-54.0	14.4	0.00e+00	0	27	0	378535936	69	4715
2026-01-06 22:44:22.68	43.36	17.81	-52.2	-54.0	14.4	0.00e+00	0	27	0	380633088	69	4718
2026-01-06 22:44:23.68	43.54	17.89	-52.2	-54.0	14.4	0.00e+00	0	27	0	382730240	69	4746
2026-01-06 22:44:24.68	43.71	17.97	-52.2	-54.0	14.4	0.00e+00	0	27	0	384827392	69	4716
2026-01-06 22:44:25.68	43.89	18.05	-52.0	-53.7	14.5	0.00e+00	0	27	0	386924544	69	4594
2026-01-06 22:44:26.68	44.06	18.13	-52.0	-53.8	14.4	0.00e+00	0	27	0	387973120	69	4627
2026-01-06 22:44:27.67	44.24	18.21	-51.9	-53.6	14.5	0.00e+00	0	27	0	390070272	69	4542
2026-01-06 22:44:28.67	44.42	18.28	-52.2	-54.0	14.4	0.00e+00	0	27	0	392167424	69	4706
2026-01-06 22:44:29.67	44.59	18.36	-52.0	-53.8	14.4	0.00e+00	0	27	0	394264576	69	4626
2026-01-06 22:44:30.67	44.77	18.44	-52.4	-54.3	14.2	0.00e+00	0	27	0	396361728	69	4908
2026-01-06 22:44:31.67	44.96	18.52	-52.4	-54.3	14.3	0.00e+00	0	27	0	397410304	70	4612
2026-01-06 22:44:32.68	45.14	18.60	-52.2	-54.0	14.5	0.00e+00	0	27	0	399507456	70	4487
2026-01-06 22:44:33.68	45.32	18.68	-52.2	-54.0	14.5	0.00e+00	0	27	0	401604608	70	4489
2026-01-06 22:44:34.68	45.50	18.76	-52.1	-53.9	14.5	0.00e+00	0	27	0	403701760	70	4433
2026-01-06 22:44:35.68	45.69	18.84	-52.0	-53.7	14.6	0.00e+00	0	27	0	404750336	70	4316
2026-01-06 22:44:36.68	45.87	18.92	-51.8	-53.5	14.7	0.00e+00	0	27	0	406847488	70	4239
2026-01-06 22:44:37.67	46.06	19.00	-51.9	-53.6	14.7	0.00e+00	0	27	0	408944640	70	4248
2026-01-06 22:44:38.67	46.25	19.08	-51.7	-53.4	14.6	0.00e+00	0	27	0	411041792	69	4411
2026-01-06 22:44:39.67	46.43	19.16	-51.8	-53.5	14.6	0.00e+00	0	27	0	413138944	69	4454
2026-01-06 22:44:40.68	46.63	19.24	-51.6	-53.3	14.6	0.00e+00	0	27	0	414187520	69	4369
2026-01-06 22:44:41.68	46.82	19.32	-51.6	-53.3	14.7	0.00e+00	0	27	0	416284672	69	4348
2026-01-06 22:44:42.68	47.01	19.40	-51.7	-53.4	14.6	0.00e+00	0	27	0	418381824	69	4393
2026-01-06 22:44:43.68	47.20	19.47	-51.5	-53.2	14.7	0.00e+00	0	27	0	420478976	69	4307
2026-01-06 22:44:44.67	47.39	19.55	-51.4	-53.0	14.7	0.00e+00	0	27	0	422576128	69	4237
2026-01-06 22:44:45.68	47.59	19.63	-51.3	-52.9	14.8	0.00e+00	0	27	0	423624704	69	4159
2026-01-06 22:44:46.68	47.78	19.71	-51.1	-52.7	14.8	0.00e+00	0	28	0	425721856	68	4294
2026-01-06 22:44:47.69	47.98	19.79	-50.9	-52.4	14.9	0.00e+00	0	27	0	427819008	68	4173
2026-01-06 22:44:48.69	48.18	19.87	-50.8	-52.3	14.9	0.00e+00	0	27	0	429916160	68	4138
2026-01-06 22:44:49.69	48.37	19.95	-50.9	-52.4	14.9	0.00e+00	0	27	0	430964736	68	4171
2026-01-06 22:44:50.70	48.57	20.03	-50.8	-52.3	14.9	0.00e+00	0	27	0	433061888	68	4136
2026-01-06 22:44:51.69	48.77	20.11	-50.9	-52.4	14.9	0.00e+00	0	27	0	435159040	68	4163
2026-01-06 22:44:52.70	48.98	20.18	-50.9	-52.4	14.9	0.00e+00	0	27	0	437256192	68	4158
2026-01-06 22:44:53.70	49.18	20.26	-50.8	-52.4	14.9	0.00e+00	0	27	0	439353344	68	4151
2026-01-06 22:44:54.70	49.38	20.34	-50.8	-52.3	14.9	0.00e+00	0	27	0	441450496	68	4104
2026-01-06 22:44:55.70	49.58	20.42	-50.6	-52.0	14.9	0.00e+00	0	27	0	442499072	67	4237
2026-01-06 22:44:56.70	49.79	20.50	-50.4	-51.8	14.9	0.00e+00	0	27	0	444596224	67	4142
2026-01-06 22:44:57.70	50.00	20.57	-50.4	-51.9	14.9	0.00e+00	0	27	0	446693376	67	4155
2026-01-06 22:44:58.70	50.20	20.65	-50.5	-52.0	14.9	0.00e+00	0	27	0	448790528	67	4219
2026-01-06 22:44:59.70	50.41	20.73	-50.5	-52.0	14.9	0.00e+00	0	27	0	449839104	67	4219
2026-01-06 22:45:00.70	50.62	20.81	-50.6	-52.1	14.8	0.00e+00	0	27	0	451936256	67	4269
2026-01-06 22:45:01.70	50.83	20.88	-50.6	-52.1	14.9	0.00e+00	0	27	0	454033408	67	4271
2026-01-06 22:45:02.70	51.04	20.96	-50.7	-52.3	14.8	0.00e+00	0	27	0	456130560	67	4350
2026-01-06 22:45:03.70	51.25	21.04	-50.6	-52.1	14.8	0.00e+00	0	27	0	458227712	67	4281
2026-01-06 22:45:04.70	51.47	21.12	-50.7	-52.2	14.8	0.00e+00	0	27	0	459276288	67	4322
2026-01-06 22:45:05.70	51.68	21.19	-50.7	-52.3	14.8	0.00e+00	0	27	0	461373440	67	4360
2026-01-06 22:45:06.71	51.90	21.27	-50.7	-52.2	14.8	0.00e+00	0	27	0	463470592	67	4323
2026-01-06 22:45:07.71	52.11	21.35	-50.7	-52.3	14.8	0.00e+00	0	27	0	465567744	67	4351
2026-01-06 22:45:08.71	52.33	21.42	-50.8	-52.4	14.8	0.00e+00	0	27	0	467664896	67	4396
2026-01-06 22:45:09.69	52.55	21.50	-50.6	-52.1	14.8	0.00e+00	0	27	0	468713472	67	4283
2026-01-06 22:45:10.69	52.77	21.57	-50.6	-52.1	14.8	0.00e+00	0	27	0	470810624	67	4254
2026-01-06 22:45:11.69	52.99	21.65	-50.5	-51.9	14.9	0.00e+00	0	27	0	472907776	67	4193
2026-01-06 22:45:12.69	53.21	21.72	-50.3	-51.7	15.0	0.00e+00	0	28	0	475004928	67	4079
2026-01-06 22:45:13.69	53.43	21.80	-50.5	-52.0	14.9	0.00e+00	0	27	0	476053504	67	4196
2026-01-06 22:45:14.69	53.65	21.87	-50.6	-52.1	14.8	0.00e+00	0	27	0	478150656	67	4264
2026-01-06 22:45:15.68	53.88	21.95	-50.7	-52.2	14.8	0.00e+00	0	27	0	480247808	67	4322
2026-01-06 22:45:16.69	54.10	22.02	-50.9	-52.5	14.7	0.00e+00	0	27	0	482344960	67	4445
2026-01-06 22:45:17.69	54.33	22.10	-51.0	-52.5	14.6	0.00e+00	0	27	0	484442112	67	4492
2026-01-06 22:45:18.69	54.56	22.17	-50.9	-52.4	14.7	0.00e+00	0	27	0	485490688	67	4440
2026-01-06 22:45:19.69	54.79	22.24	-50.9	-52.5	14.7	0.00e+00	0	27	0	487587840	67	4464
2026-01-06 22:45:20.70	55.02	22.32	-50.8	-52.4	14.7	0.00e+00	0	27	0	489684992	67	4392
2026-01-06 22:45:21.69	55.25	22.39	-50.8	-52.3	14.7	0.00e+00	0	27	0	491782144	67	4369
2026-01-06 22:45:22.69	55.48	22.46	-51.0	-52.5	14.7	0.00e+00	0	28	0	492830720	67	4478
2026-01-06 22:45:23.69	55.71	22.54	-51.0	-52.5	14.7	0.00e+00	0	27	0	494927872	67	4491
2026-01-06 22:45:24.69	55.95	22.61	-51.2	-52.8	14.6	0.00e+00	0	27	0	497025024	67	4608
2026-01-06 22:45:25.68	56.18	22.68	-51.3	-52.9	14.6	0.00e+00	0	27	0	499122176	67	4675
2026-01-06 22:45:26.68	56.42	22.75	-51.2	-52.8	14.6	0.00e+00	0	27	0	501219328	67	4631
2026-01-06 22:45:27.68	56.66	22.82	-51.0	-52.6	14.7	0.00e+00	0	27	0	502267904	67	4515
2026-01-06 22:45:28.68	56.89	22.90	-50.8	-52.3	14.8	0.00e+00	0	27	0	504365056	67	4387
2026-01-06 22:45:29.69	57.14	22.97	-50.7	-52.2	14.8	0.00e+00	0	28	0	506462208	67	4296
2026-01-06 22:45:30.69	57.38	23.04	-50.9	-52.5	14.7	0.00e+00	0	27	0	508559360	67	4452
2026-01-06 22:45:31.68	57.62	23.11	-51.1	-52.7	14.6	0.00e+00	0	27	0	510656512	67	4574
2026-01-06 22:45:32.68	57.86	23.18	-51.6	-53.3	14.5	0.00e+00	0	27	0	511705088	68	4621
2026-01-06 22:45:33.68	58.10	23.25	-51.9	-53.6	14.4	0.00e+00	0	27	0	513802240	68	4801
2026-01-06 22:45:34.67	58.35	23.32	-51.8	-53.5	14.6	0.00e+00	0	27	0	515899392	69	4489
2026-01-06 22:45:35.67	58.59	23.39	-51.6	-53.2	14.7	0.00e+00	0	27	0	517996544	69	4308
2026-01-06 22:45:36.67	58.84	23.45	-51.4	-52.9	14.8	0.00e+00	0	27	0	520093696	69	4180
2026-01-06 22:45:37.68	59.09	23.52	-51.3	-52.9	14.8	0.00e+00	0	27	0	521142272	69	4179
2026-01-06 22:45:38.68	59.34	23.59	-51.2	-52.7	14.9	0.00e+00	0	27	0	523239424	69	4082
2026-01-06 22:45:39.68	59.59	23.66	-51.6	-53.2	14.6	0.00e+00	0	27	0	525336576	68	4573
2026-01-06 22:45:40.68	59.84	23.73	-51.9	-53.6	14.5	0.00e+00	0	28	0	527433728	69	4531
2026-01-06 22:45:41.69	60.10	23.79	-52.4	-54.2	14.3	0.00e+00	0	27	0	528482304	69	4857
2026-01-06 22:45:42.69	60.35	23.86	-52.5	-54.3	14.4	0.00e+00	0	27	0	530579456	70	4647
2026-01-06 22:45:43.70	60.61	23.93	-52.5	-54.4	14.3	0.00e+00	0	27	0	532676608	70	4655
2026-01-06 22:45:44.70	60.86	23.99	-52.5	-54.4	14.3	0.00e+00	0	27	0	534773760	70	4669
2026-01-06 22:45:45.70	61.12	24.06	-52.7	-54.6	14.2	0.00e+00	0	27	0	536870912	70	4785
2026-01-06 22:45:46.69	61.37	24.12	-53.1	-55.1	14.1	0.00e+00	0	27	0	537919488	71	4799
2026-01-06 22:45:47.70	61.63	24.19	-53.4	-55.5	14.0	0.00e+00	0	27	0	540016640	71	5004
2026-01-06 22:45:48.69	61.89	24.25	-53.3	-55.3	14.1	0.00e+00	0	27	0	542113792	72	4651
2026-01-06 22:45:49.69	62.15	24.31	-53.3	-55.4	14.1	0.00e+00	0	27	0	544210944	72	4674
2026-01-06 22:45:50.69	62.41	24.38	-52.9	-54.8	14.4	0.00e+00	0	27	0	546308096	72	4367
2026-01-06 22:45:51.69	62.68	24.44	-52.9	-54.8	14.4	0.00e+00	0	27	0	547356672	72	4349
2026-01-06 22:45:52.69	62.94	24.50	-52.6	-54.4	14.4	0.00e+00	0	27	0	549453824	71	4428
2026-01-06 22:45:53.69	63.21	24.56	-52.7	-54.6	14.4	0.00e+00	0	27	0	551550976	71	4520
2026-01-06 22:45:54.68	63.47	24.62	-53.0	-54.9	14.2	0.00e+00	0	27	0	553648128	71	4692
2026-01-06 22:45:55.68	63.74	24.68	-53.5	-55.6	14.0	0.00e+00	0	27	0	554696704	72	4798
2026-01-06 22:45:56.68	64.00	24.75	-53.8	-56.1	13.8	0.00e+00	0	27	0	556793856	72	5064
2026-01-06 22:45:57.69	64.28	24.81	-54.0	-56.3	13.9	0.00e+00	0	27	0	558891008	73	4884
2026-01-06 22:45:58.70	64.55	24.87	-54.4	-56.9	13.6	0.00e+00	0	28	0	560988160	74	4968
2026-01-06 22:45:59.70	64.82	24.92	-54.6	-57.2	13.4	0.00e+00	0	27	0	563085312	74	5134
2026-01-06 22:46:00.69	65.09	24.98	-54.7	-57.4	13.4	0.00e+00	0	27	0	564133888	74	5248
2026-01-06 22:46:01.69	65.36	25.04	-54.4	-56.9	13.6	0.00e+00	0	27	0	566231040	74	4948
2026-01-06 22:46:02.70	65.64	25.10	-54.2	-56.6	13.8	0.00e+00	0	27	0	568328192	74	4773
2026-01-06 22:46:03.69	65.91	25.15	-53.8	-55.9	14.0	0.00e+00	0	27	0	570425344	74	4432
2026-01-06 22:46:04.70	66.19	25.21	-53.3	-55.4	14.2	0.00e+00	0	27	0	572522496	73	4408
2026-01-06 22:46:05.70	66.47	25.26	-53.3	-55.4	14.2	0.00e+00	0	27	0	573571072	73	4401
2026-01-06 22:46:06.70	66.74	25.32	-53.8	-56.0	13.9	0.00e+00	0	27	0	575668224	73	4750
2026-01-06 22:46:07.71	67.03	25.37	-54.3	-56.7	13.6	0.00e+00	0	27	0	577765376	73	5124
2026-01-06 22:46:08.71	67.31	25.43	-55.0	-57.7	13.2	0.00e+00	0	27	0	579862528	75	5140
2026-01-06 22:46:09.71	67.59	25.48	-55.2	-58.1	13.0	0.00e+00	0	27	0	581959680	75	5379
2026-01-06 22:46:10.70	67.86	25.53	-55.0	-57.7	13.2	0.00e+00	0	28	0	583008256	75	5141
2026-01-06 22:46:11.71	68.15	25.58	-54.7	-57.3	13.5	0.00e+00	0	27	0	585105408	75	4895
2026-01-06 22:46:12.70	68.43	25.63	-54.3	-56.7	13.8	0.00e+00	0	27	0	587202560	75	4566
2026-01-06 22:46:13.70	68.71	25.68	-54.4	-56.8	13.7	0.00e+00	0	27	0	589299712	75	4622
2026-01-06 22:46:14.70	69.00	25.73	-54.5	-56.9	13.7	0.00e+00	0	27	0	591396864	75	4680
2026-01-06 22:46:15.70	69.29	25.78	-54.7	-57.3	13.5	0.00e+00	0	27	0	592445440	75	4890
2026-01-06 22:46:16.70	69.57	25.83	-54.6	-57.1	13.6	0.00e+00	0	27	0	594542592	75	4788
2026-01-06 22:46:17.69	69.86	25.88	-54.2	-56.5	13.8	0.00e+00	0	27	0	596639744	74	4735
2026-01-06 22:46:18.69	70.15	25.93	-53.9	-56.2	14.0	0.00e+00	0	28	0	598736896	74	4556
2026-01-06 22:46:19.68	70.43	25.97	-53.8	-56.0	14.0	0.00e+00	0	27	0	599785472	74	4472
2026-01-06 22:46:20.68	70.72	26.02	-54.0	-56.3	13.9	0.00e+00	0	27	0	601882624	74	4601
2026-01-06 22:46:21.68	71.01	26.06	-54.5	-57.0	13.5	0.00e+00	0	27	0	603979776	74	5020
2026-01-06 22:46:22.68	71.31	26.11	-54.7	-57.2	13.4	0.00e+00	0	28	0	606076928	74	5149
2026-01-06 22:46:23.68	71.60	26.15	-54.6	-57.1	13.4	0.00e+00	0	27	0	608174080	74	5090
2026-01-06 22:46:24.66	71.89	26.19	-54.4	-56.8	13.6	0.00e+00	0	28	0	609222656	74	4915
2026-01-06 22:46:25.66	72.18	26.24	-54.1	-56.4	13.8	0.00e+00	0	27	0	611319808	74	4705
2026-01-06 22:46:26.66	72.48	26.28	-54.6	-57.1	13.5	0.00e+00	0	27	0	613416960	74	5079
2026-01-06 22:46:27.66	72.77	26.32	-54.7	-57.3	13.4	0.00e+00	0	27	0	615514112	74	5185
2026-01-06 22:46:28.65	73.06	26.36	-55.3	-58.3	12.9	0.00e+00	0	27	0	616562688	75	5465
2026-01-06 22:46:29.64	73.36	26.40	-55.6	-58.7	12.8	0.00e+00	0	27	0	618659840	76	5446
2026-01-06 22:46:30.64	73.66	26.44	-55.4	-58.4	13.0	0.00e+00	0	27	0	620756992	76	5223
2026-01-06 22:46:31.64	73.96	26.47	-54.7	-57.2	13.6	0.00e+00	0	27	0	622854144	76	4585
2026-01-06 22:46:32.64	74.25	26.51	-54.4	-56.8	13.7	0.00e+00	0	27	0	624951296	75	4646
2026-01-06 22:46:33.64	74.55	26.55	-54.0	-56.2	13.9	0.00e+00	0	27	0	625999872	74	4591
2026-01-06 22:46:34.64	74.86	26.58	-53.9	-56.0	14.0	0.00e+00	0	27	0	628097024	74	4488
2026-01-06 22:46:35.63	75.15	26.62	-53.9	-56.1	14.0	0.00e+00	0	27	0	630194176	74	4530
2026-01-06 22:46:36.63	75.46	26.65	-53.7	-55.8	14.0	0.00e+00	0	27	0	632291328	73	4648
2026-01-06 22:46:37.63	75.76	26.68	-53.8	-56.0	14.0	0.00e+00	0	27	0	634388480	73	4712
2026-01-06 22:46:38.63	76.06	26.72	-54.1	-56.4	13.7	0.00e+00	0	28	0	635437056	73	4971
2026-01-06 22:46:39.63	76.37	26.75	-54.3	-56.8	13.6	0.00e+00	0	27	0	637534208	73	5169
2026-01-06 22:46:40.63	76.67	26.78	-54.8	-57.4	13.4	0.00e+00	0	28	0	639631360	74	5232
2026-01-06 22:46:41.63	76.97	26.81	-54.9	-57.5	13.3	0.00e+00	0	27	0	641728512	74	5312
2026-01-06 22:46:42.64	77.28	26.84	-54.8	-57.4	13.4	0.00e+00	0	27	0	642777088	74	5220
2026-01-06 22:46:43.64	77.59	26.87	-54.9	-57.5	13.3	0.00e+00	0	27	0	644874240	75	5039
2026-01-06 22:46:44.64	77.90	26.89	-54.7	-57.3	13.5	0.00e+00	0	27	0	646971392	75	4888
2026-01-06 22:46:45.64	78.20	26.92	-54.6	-57.1	13.5	0.00e+00	0	27	0	649068544	75	4778
2026-01-06 22:46:46.64	78.51	26.95	-54.4	-56.8	13.8	0.00e+00	0	27	0	651165696	75	4631
2026-01-06 22:46:47.64	78.82	26.97	-54.4	-56.8	13.7	0.00e+00	0	27	0	652214272	74	4883
2026-01-06 22:46:48.64	79.13	27.00	-54.2	-56.6	13.8	0.00e+00	0	28	0	654311424	74	4761
2026-01-06 22:46:49.64	79.44	27.02	-54.4	-56.9	13.6	0.00e+00	0	28	0	656408576	74	4955
2026-01-06 22:46:50.64	79.75	27.04	-54.6	-57.2	13.5	0.00e+00	0	28	0	658505728	74	5102
2026-01-06 22:46:51.64	80.06	27.06	-54.8	-57.4	13.3	0.00e+00	0	27	0	660602880	74	5261
2026-01-06 22:46:52.65	80.37	27.08	-54.6	-57.2	13.5	0.00e+00	0	28	0	661651456	74	5101
2026-01-06 22:46:53.65	80.68	27.10	-54.7	-57.3	13.4	0.00e+00	0	27	0	663748608	74	5194
2026-01-06 22:46:54.64	80.99	27.12	-54.1	-56.4	13.9	0.00e+00	0	27	0	665845760	74	4673
2026-01-06 22:46:55.64	81.30	27.14	-53.7	-55.8	14.1	0.00e+00	0	27	0	667942912	74	4367
2026-01-06 22:46:56.64	81.61	27.16	-53.7	-55.8	14.0	0.00e+00	0	28	0	668991488	73	4638
2026-01-06 22:46:57.64	81.92	27.17	-53.7	-55.9	14.0	0.00e+00	0	27	0	671088640	73	4660
2026-01-06 22:46:58.63	82.23	27.19	-53.9	-56.2	13.9	0.00e+00	0	28	0	673185792	73	4839
2026-01-06 22:46:59.63	82.55	27.20	-54.1	-56.4	13.7	0.00e+00	0	28	0	675282944	73	4933
2026-01-06 22:47:00.63	82.86	27.22	-54.1	-56.4	13.7	0.00e+00	0	27	0	677380096	73	4945
2026-01-06 22:47:01.63	83.17	27.23	-53.8	-55.9	14.0	0.00e+00	0	27	0	678428672	73	4689
2026-01-06 22:47:02.63	83.49	27.24	-53.8	-55.9	14.0	0.00e+00	0	27	0	680525824	73	4705
2026-01-06 22:47:03.63	83.80	27.25	-53.9	-56.1	13.9	0.00e+00	0	28	0	682622976	73	4784
2026-01-06 22:47:04.63	84.11	27.26	-54.2	-56.5	13.7	0.00e+00	0	27	0	684720128	73	5035
2026-01-06 22:47:05.63	84.43	27.27	-54.5	-57.0	13.6	0.00e+00	0	28	0	686817280	74	5015
2026-01-06 22:47:06.63	84.74	27.28	-54.5	-57.0	13.5	0.00e+00	0	28	0	687865856	74	5023
2026-01-06 22:47:07.63	85.06	27.29	-54.6	-57.1	13.5	0.00e+00	0	27	0	689963008	74	5052
2026-01-06 22:47:08.63	85.37	27.29	-54.5	-57.0	13.5	0.00e+00	0	27	0	692060160	74	5002
2026-01-06 22:47:09.63	85.69	27.30	-54.7	-57.2	13.4	0.00e+00	0	27	0	694157312	74	5140
2026-01-06 22:47:10.63	86.00	27.30	-55.0	-57.8	13.2	0.00e+00	0	27	0	696254464	75	5169
2026-01-06 22:47:11.62	86.31	27.31	-55.1	-57.9	13.2	0.00e+00	0	27	0	697303040	75	5221
2026-01-06 22:47:12.62	86.63	27.31	-55.1	-57.9	13.1	0.00e+00	0	28	0	699400192	75	5277
2026-01-06 22:47:13.62	86.94	27.31	-54.8	-57.4	13.4	0.00e+00	0	27	0	701497344	75	4950
2026-01-06 22:47:14.61	87.26	27.31	-54.2	-56.5	13.9	0.00e+00	0	28	0	703594496	75	4489
2026-01-06 22:47:15.61	87.57	27.31	-54.0	-56.2	14.0	0.00e+00	0	27	0	704643072	74	4567
2026-01-06 22:47:16.61	87.89	27.31	-53.6	-55.7	14.1	0.00e+00	0	27	0	706740224	73	4596
2026-01-06 22:47:17.61	88.20	27.31	-53.6	-55.7	14.1	0.00e+00	0	27	0	708837376	73	4553
2026-01-06 22:47:18.61	88.52	27.31	-53.3	-55.3	14.3	0.00e+00	0	27	0	710934528	73	4380
2026-01-06 22:47:19.60	88.83	27.31	-53.0	-54.9	14.3	0.00e+00	0	27	0	713031680	72	4402
2026-01-06 22:47:20.60	89.14	27.30	-52.9	-54.8	14.4	0.00e+00	0	27	0	714080256	72	4385
2026-01-06 22:47:21.60	89.46	27.30	-53.0	-54.9	14.3	0.00e+00	0	28	0	716177408	72	4441
2026-01-06 22:47:22.60	89.77	27.29	-53.2	-55.2	14.2	0.00e+00	0	27	0	718274560	72	4553
2026-01-06 22:47:23.60	90.09	27.28	-53.5	-55.6	14.0	0.00e+00	0	28	0	720371712	72	4812
2026-01-06 22:47:24.60	90.40	27.27	-54.1	-56.3	13.8	0.00e+00	0	28	0	722468864	73	4923
2026-01-06 22:47:25.59	90.71	27.27	-54.3	-56.7	13.7	0.00e+00	0	27	0	723517440	73	5101
2026-01-06 22:47:26.59	91.03	27.26	-54.4	-56.8	13.7	0.00e+00	0	27	0	725614592	74	4887
2026-01-06 22:47:27.59	91.34	27.24	-54.3	-56.6	13.7	0.00e+00	0	27	0	727711744	74	4806
2026-01-06 22:47:28.59	91.65	27.23	-54.3	-56.7	13.7	0.00e+00	0	28	0	729808896	74	4853
2026-01-06 22:47:29.58	91.97	27.22	-54.0	-56.3	13.9	0.00e+00	0	28	0	730857472	74	4603
2026-01-06 22:47:30.58	92.28	27.21	-53.9	-56.1	14.0	0.00e+00	0	27	0	732954624	74	4510
2026-01-06 22:47:31.58	92.59	27.19	-53.8	-56.0	14.0	0.00e+00	0	27	0	735051776	74	4456
2026-01-06 22:47:32.57	92.90	27.18	-53.8	-55.9	14.1	0.00e+00	0	27	0	737148928	74	4435
2026-01-06 22:47:33.57	93.21	27.16	-53.9	-56.0	14.1	0.00e+00	0	27	0	739246080	74	4482
2026-01-06 22:47:34.57	93.53	27.14	-53.8	-56.0	14.0	0.00e+00	0	28	0	740294656	74	4480
2026-01-06 22:47:35.56	93.83	27.13	-53.9	-56.1	14.0	0.00e+00	0	27	0	742391808	74	4534
2026-01-06 22:47:36.56	94.15	27.11	-53.6	-55.7	14.1	0.00e+00	0	27	0	744488960	73	4558
2026-01-06 22:47:37.56	94.46	27.09	-53.6	-55.7	14.1	0.00e+00	0	27	0	746586112	73	4549
2026-01-06 22:47:38.57	94.77	27.07	-53.5	-55.6	14.1	0.00e+00	0	27	0	747634688	73	4511
2026-01-06 22:47:39.57	95.08	27.05	-53.9	-56.0	13.9	0.00e+00	0	27	0	749731840	73	4759
2026-01-06 22:47:40.57	95.39	27.02	-53.9	-56.1	13.9	0.00e+00	0	27	0	751828992	73	4787
2026-01-06 22:47:41.58	95.70	27.00	-54.0	-56.3	13.8	0.00e+00	0	28	0	753926144	73	4910
2026-01-06 22:47:42.58	96.01	26.98	-53.9	-56.1	13.9	0.00e+00	0	27	0	756023296	73	4799
2026-01-06 22:47:43.59	96.32	26.95	-53.7	-55.8	14.0	0.00e+00	0	28	0	757071872	73	4650
2026-01-06 22:47:44.59	96.63	26.92	-53.3	-55.3	14.2	0.00e+00	0	28	0	759169024	73	4391
2026-01-06 22:47:45.59	96.94	26.90	-53.0	-54.9	14.3	0.00e+00	0	27	0	761266176	72	4425
2026-01-06 22:47:46.59	97.25	26.87	-52.9	-54.7	14.4	0.00e+00	0	28	0	763363328	72	4333
2026-01-06 22:47:47.59	97.55	26.84	-52.8	-54.7	14.3	0.00e+00	0	27	0	765460480	71	4567
2026-01-06 22:47:48.58	97.86	26.81	-53.1	-55.1	14.2	0.00e+00	0	28	0	766509056	71	4767
2026-01-06 22:47:49.58	98.16	26.78	-53.6	-55.8	13.9	0.00e+00	0	28	0	768606208	72	4889
2026-01-06 22:47:50.59	98.47	26.75	-54.0	-56.3	13.8	0.00e+00	0	28	0	770703360	73	4917
2026-01-06 22:47:51.58	98.77	26.72	-54.1	-56.4	13.7	0.00e+00	0	27	0	772800512	73	4973
2026-01-06 22:47:52.58	99.08	26.69	-53.9	-56.2	13.8	0.00e+00	0	28	0	774897664	73	4824
2026-01-06 22:47:53.58	99.38	26.66	-53.3	-55.3	14.2	0.00e+00	0	28	0	775946240	73	4374
2026-01-06 22:47:54.57	99.68	26.62	-52.9	-54.8	14.4	0.00e+00	0	27	0	778043392	72	4375
2026-01-06 22:47:55.57	99.98	26.59	-52.7	-54.5	14.4	0.00e+00	0	27	0	780140544	71	4482
2026-01-06 22:47:56.58	100.28	26.55	-52.7	-54.6	14.4	0.00e+00	0	27	0	782237696	71	4512
2026-01-06 22:47:57.58	100.58	26.52	-52.6	-54.5	14.4	0.00e+00	0	28	0	783286272	71	4457
2026-01-06 22:47:58.58	100.88	26.48	-52.5	-54.2	14.5	0.00e+00	0	27	0	785383424	71	4334
2026-01-06 22:47:59.59	101.19	26.44	-51.9	-53.5	14.7	0.00e+00	0	27	0	787480576	70	4235
2026-01-06 22:48:00.59	101.49	26.40	-51.8	-53.5	14.7	0.00e+00	0	27	0	789577728	70	4196
2026-01-06 22:48:01.59	101.78	26.36	-51.6	-53.2	14.7	0.00e+00	0	27	0	791674880	69	4323
2026-01-06 22:48:02.59	102.08	26.32	-52.0	-53.7	14.5	0.00e+00	0	28	0	792723456	69	4546
2026-01-06 22:48:03.59	102.38	26.28	-52.4	-54.2	14.3	0.00e+00	0	28	0	794820608	69	4845
2026-01-06 22:48:04.59	102.67	26.24	-53.1	-55.0	14.2	0.00e+00	0	27	0	796917760	71	4749
2026-01-06 22:48:05.59	102.97	26.20	-53.3	-55.3	14.1	0.00e+00	0	27	0	799014912	71	4917
2026-01-06 22:48:06.59	103.26	26.15	-52.9	-54.8	14.3	0.00e+00	0	27	0	801112064	71	4630
2026-01-06 22:48:07.60	103.56	26.11	-52.4	-54.2	14.5	0.00e+00	0	28	0	802160640	71	4300
2026-01-06 22:48:08.61	103.85	26.07	-51.7	-53.3	14.8	0.00e+00	0	28	0	804257792	70	4133
2026-01-06 22:48:09.60	104.14	26.02	-51.5	-53.1	14.7	0.00e+00	0	27	0	806354944	69	4257
2026-01-06 22:48:10.61	104.44	25.97	-51.4	-53.0	14.8	0.00e+00	0	27	0	808452096	69	4210
2026-01-06 22:48:11.60	104.72	25.93	-51.5	-53.1	14.7	0.00e+00	0	27	0	810549248	69	4264
2026-01-06 22:48:12.60	105.01	25.88	-51.4	-53.0	14.8	0.00e+00	0	27	0	811597824	69	4208
2026-01-06 22:48:13.59	105.30	25.83	-51.2	-52.8	14.7	0.00e+00	0	27	0	813694976	68	4349
2026-01-06 22:48:14.60	105.59	25.78	-50.9	-52.4	14.9	0.00e+00	0	27	0	815792128	68	4176
2026-01-06 22:48:15.60	105.87	25.74	-50.5	-51.9	14.9	0.00e+00	0	27	0	817889280	67	4164
2026-01-06 22:48:16.60	106.16	25.69	-50.4	-51.9	14.9	0.00e+00	0	28	0	819986432	67	4162
2026-01-06 22:48:17.60	106.44	25.63	-50.7	-52.2	14.8	0.00e+00	0	27	0	821035008	67	4293
2026-01-06 22:48:18.60	106.73	25.58	-51.1	-52.6	14.6	0.00e+00	0	27	0	823132160	67	4544
2026-01-06 22:48:19.60	107.01	25.53	-51.7	-53.4	14.5	0.00e+00	0	28	0	825229312	68	4653
2026-01-06 22:48:20.59	107.29	25.48	-51.9	-53.6	14.5	0.00e+00	0	27	0	827326464	69	4519
2026-01-06 22:48:21.59	107.57	25.43	-52.1	-53.8	14.5	0.00e+00	0	27	0	828375040	69	4616
2026-01-06 22:48:22.58	107.85	25.37	-51.7	-53.3	14.6	0.00e+00	0	28	0	830472192	69	4371
2026-01-06 22:48:23.57	108.13	25.32	-51.4	-53.0	14.8	0.00e+00	0	28	0	832569344	69	4214
2026-01-06 22:48:24.57	108.41	25.27	-51.1	-52.6	14.8	0.00e+00	0	28	0	834666496	68	4284
2026-01-06 22:48:25.57	108.68	25.21	-50.9	-52.4	14.9	0.00e+00	0	28	0	836763648	68	4188
2026-01-06 22:48:26.57	108.96	25.15	-50.8	-52.3	14.7	0.00e+00	0	27	0	837812224	67	4368
2026-01-06 22:48:27.57	109.23	25.10	-50.7	-52.2	14.8	0.00e+00	0	27	0	839909376	67	4310
2026-01-06 22:48:28.57	109.51	25.04	-50.7	-52.2	14.8	0.00e+00	0	27	0	842006528	67	4303
2026-01-06 22:48:29.57	109.78	24.98	-50.7	-52.2	14.8	0.00e+00	0	27	0	844103680	67	4335
2026-01-06 22:48:30.57	110.06	24.92	-50.9	-52.4	14.7	0.00e+00	0	28	0	845152256	67	4420
2026-01-06 22:48:31.58	110.33	24.86	-51.1	-52.7	14.6	0.00e+00	0	28	0	847249408	67	4568
2026-01-06 22:48:32.57	110.60	24.81	-51.4	-53.0	14.5	0.00e+00	0	27	0	849346560	67	4723
2026-01-06 22:48:33.57	110.87	24.75	-51.7	-53.3	14.6	0.00e+00	0	27	0	851443712	68	4631
2026-01-06 22:48:34.57	111.14	24.69	-51.8	-53.4	14.5	0.00e+00	0	28	0	853540864	68	4700
2026-01-06 22:48:35.58	111.41	24.62	-51.5	-53.1	14.6	0.00e+00	0	27	0	854589440	68	4524
2026-01-06 22:48:36.58	111.67	24.56	-51.3	-52.9	14.7	0.00e+00	0	27	0	856686592	68	4392
2026-01-06 22:48:37.59	111.94	24.50	-51.1	-52.7	14.8	0.00e+00	0	27	0	858783744	68	4307
2026-01-06 22:48:38.58	112.20	24.44	-51.0	-52.6	14.8	0.00e+00	0	28	0	860880896	68	4243
2026-01-06 22:48:39.58	112.47	24.38	-51.1	-52.7	14.8	0.00e+00	0	28	0	862978048	68	4314
2026-01-06 22:48:40.58	112.73	24.31	-51.2	-52.8	14.7	0.00e+00	0	28	0	864026624	68	4351
2026-01-06 22:48:41.58	112.99	24.25	-51.4	-53.0	14.7	0.00e+00	0	28	0	866123776	68	4450
2026-01-06 22:48:42.58	113.25	24.19	-51.8	-53.5	14.5	0.00e+00	0	27	0	868220928	68	4722
2026-01-06 22:48:43.58	113.51	24.12	-51.5	-53.1	14.6	0.00e+00	0	28	0	870318080	68	4524
2026-01-06 22:48:44.58	113.77	24.06	-51.4	-53.0	14.7	0.00e+00	0	27	0	872415232	68	4455
2026-01-06 22:48:45.58	114.03	23.99	-51.5	-53.1	14.6	0.00e+00	0	27	0	873463808	68	4498
2026-01-06 22:48:46.58	114.28	23.92	-51.5	-53.1	14.6	0.00e+00	0	27	0	875560960	68	4536
2026-01-06 22:48:47.57	114.54	23.86	-51.7	-53.4	14.5	0.00e+00	0	28	0	877658112	68	4657
2026-01-06 22:48:48.57	114.79	23.79	-51.9	-53.6	14.5	0.00e+00	0	27	0	879755264	69	4541
2026-01-06 22:48:49.58	115.05	23.72	-52.2	-54.0	14.4	0.00e+00	0	27	0	880803840	69	4743
2026-01-06 22:48:50.58	115.30	23.66	-52.3	-54.1	14.4	0.00e+00	0	28	0	882900992	70	4540
2026-01-06 22:48:51.59	115.55	23.59	-52.3	-54.1	14.4	0.00e+00	0	27	0	884998144	70	4517
2026-01-06 22:48:52.59	115.80	23.52	-52.0	-53.7	14.6	0.00e+00	0	27	0	887095296	70	4326
2026-01-06 22:48:53.59	116.05	23.45	-51.6	-53.2	14.7	0.00e+00	0	27	0	889192448	69	4311
2026-01-06 22:48:54.58	116.30	23.38	-51.5	-53.1	14.7	0.00e+00	0	28	0	890241024	69	4260
2026-01-06 22:48:55.58	116.54	23.31	-51.3	-52.9	14.8	0.00e+00	0	27	0	892338176	69	4178
2026-01-06 22:48:56.58	116.79	23.24	-51.5	-53.1	14.7	0.00e+00	0	27	0	894435328	69	4251
2026-01-06 22:48:57.58	117.04	23.17	-51.4	-53.0	14.8	0.00e+00	0	27	0	896532480	69	4226
2026-01-06 22:48:58.58	117.28	23.10	-51.4	-53.0	14.7	0.00e+00	0	27	0	898629632	69	4241
2026-01-06 22:48:59.59	117.52	23.03	-51.6	-53.3	14.7	0.00e+00	0	27	0	899678208	69	4345
2026-01-06 22:49:00.58	117.76	22.96	-51.6	-53.3	14.6	0.00e+00	0	28	0	901775360	69	4363
2026-01-06 22:49:01.59	118.01	22.89	-51.7	-53.4	14.6	0.00e+00	0	28	0	903872512	69	4422
2026-01-06 22:49:02.59	118.25	22.82	-52.0	-53.7	14.5	0.00e+00	0	27	0	905969664	69	4559
2026-01-06 22:49:03.58	118.48	22.75	-52.0	-53.7	14.5	0.00e+00	0	27	0	907018240	69	4586
2026-01-06 22:49:04.59	118.72	22.67	-52.0	-53.8	14.5	0.00e+00	0	28	0	909115392	69	4620
2026-01-06 22:49:05.59	118.96	22.60	-51.9	-53.7	14.5	0.00e+00	0	27	0	911212544	69	4556
2026-01-06 22:49:06.58	119.19	22.53	-51.9	-53.6	14.5	0.00e+00	0	28	0	913309696	69	4514
2026-01-06 22:49:07.59	119.43	22.45	-51.8	-53.5	14.6	0.00e+00	0	27	0	915406848	69	4476
2026-01-06 22:49:08.58	119.66	22.38	-51.6	-53.7	14.7	0.00e+00	0	28	0	916455424	69	4548
2026-01-06 22:49:09.58	119.89	22.31	-51.2	-54.2	14.7	0.00e+00	0	27	0	918552576	69	4859
2026-01-06 22:49:10.58	120.12	22.23	-50.4	-54.1	14.6	0.00e+00	0	27	0	920649728	67	5398
2026-01-06 22:49:11.57	120.35	22.16	-50.8	-53.9	14.5	0.00e+00	0	28	0	922746880	67	5267
2026-01-06 22:49:12.58	120.58	22.09	-52.0	-54.0	14.4	0.00e+00	0	28	0	924844032	69	4754
2026-01-06 22:49:13.58	120.81	22.01	-52.0	-53.8	14.4	0.00e+00	0	28	0	925892608	69	4606
2026-01-06 22:49:14.58	121.03	21.94	-51.7	-53.5	14.6	0.00e+00	0	28	0	927989760	69	4450
2026-01-06 22:49:15.58	121.26	21.86	-51.6	-53.2	14.6	0.00e+00	0	28	0	930086912	69	4338
2026-01-06 22:49:16.58	121.48	21.78	-51.9	-53.6	14.5	0.00e+00	0	27	0	932184064	69	4518
2026-01-06 22:49:17.58	121.70	21.71	-52.5	-54.4	14.3	0.00e+00	0	28	0	934281216	70	4689
2026-01-06 22:49:18.58	121.93	21.63	-52.9	-54.9	14.2	0.00e+00	0	28	0	935329792	71	4702
2026-01-06 22:49:19.58	122.15	21.56	-53.1	-55.1	14.1	0.00e+00	0	27	0	937426944	71	4775
2026-01-06 22:49:20.58	122.37	21.48	-52.8	-55.0	14.2	0.00e+00	0	28	0	939524096	71	4706
2026-01-06 22:49:21.58	122.59	21.41	-52.4	-54.6	14.4	0.00e+00	0	27	0	941621248	71	4545
2026-01-06 22:49:22.58	122.81	21.33	-50.7	-53.8	14.8	0.00e+00	0	28	0	942669824	68	4924
2026-01-06 22:49:23.57	123.02	21.25	-48.4	-53.2	14.9	0.00e+00	0	27	0	944766976	63	6090
2026-01-06 22:49:24.58	123.24	21.17	-47.6	-53.1	14.8	0.00e+00	0	28	0	946864128	61	6787
2026-01-06 22:49:25.58	123.45	21.10	-49.2	-53.0	14.5	0.00e+00	0	28	0	948961280	63	5924
2026-01-06 22:49:26.58	123.67	21.02	-51.2	-53.1	14.4	0.00e+00	0	27	0	951058432	67	4812
2026-01-06 22:49:27.57	123.88	20.94	-51.9	-53.7	14.4	0.00e+00	0	28	0	952107008	68	4831
2026-01-06 22:49:28.57	124.09	20.87	-52.1	-53.9	14.4	0.00e+00	0	27	0	954204160	69	4689
2026-01-06 22:49:29.56	124.30	20.79	-52.4	-54.2	14.3	0.00e+00	0	27	0	956301312	69	4835
2026-01-06 22:49:30.56	124.51	20.71	-52.2	-54.0	14.4	0.00e+00	0	28	0	958398464	70	4483
2026-01-06 22:49:31.56	124.72	20.63	-52.2	-54.0	14.5	0.00e+00	0	28	0	960495616	70	4480
2026-01-06 22:49:32.56	124.92	20.56	-52.6	-54.5	14.3	0.00e+00	0	28	0	961544192	70	4715
2026-01-06 22:49:33.56	125.13	20.48	-52.7	-54.7	14.2	0.00e+00	0	28	0	963641344	70	4828
2026-01-06 22:49:34.56	125.34	20.40	-52.9	-54.9	14.2	0.00e+00	0	27	0	965738496	71	4660
2026-01-06 22:49:35.56	125.54	20.32	-53.1	-55.1	14.1	0.00e+00	0	27	0	967835648	71	4770
2026-01-06 22:49:36.56	125.75	20.24	-52.8	-54.8	14.2	0.00e+00	0	28	0	968884224	71	4617
2026-01-06 22:49:37.56	125.95	20.16	-52.6	-54.4	14.4	0.00e+00	0	27	0	970981376	71	4438
2026-01-06 22:49:38.55	126.15	20.09	-52.5	-54.4	14.4	0.00e+00	0	28	0	973078528	71	4409
2026-01-06 22:49:39.55	126.35	20.01	-51.9	-53.6	14.6	0.00e+00	0	28	0	975175680	70	4256
2026-01-06 22:49:40.56	126.55	19.93	-51.6	-53.3	14.6	0.00e+00	0	27	0	977272832	69	4355
2026-01-06 22:49:41.56	126.75	19.85	-51.4	-53.0	14.7	0.00e+00	0	27	0	978321408	69	4218
2026-01-06 22:49:42.55	126.94	19.77	-51.7	-53.3	14.6	0.00e+00	0	28	0	980418560	69	4367
2026-01-06 22:49:43.55	127.14	19.69	-51.9	-53.6	14.5	0.00e+00	0	28	0	982515712	69	4531
2026-01-06 22:49:44.54	127.33	19.61	-52.5	-54.4	14.2	0.00e+00	0	28	0	984612864	70	4652
2026-01-06 22:49:45.55	127.53	19.53	-52.8	-54.7	14.1	0.00e+00	0	28	0	986710016	70	4855
2026-01-06 22:49:46.55	127.72	19.45	-53.1	-55.1	14.1	0.00e+00	0	28	0	987758592	71	4807
2026-01-06 22:49:47.54	127.92	19.37	-53.1	-55.1	14.1	0.00e+00	0	27	0	989855744	71	4787
2026-01-06 22:49:48.54	128.11	19.29	-52.9	-54.9	14.2	0.00e+00	0	27	0	991952896	71	4660
2026-01-06 22:49:49.54	128.30	19.21	-52.6	-54.4	14.3	0.00e+00	0	27	0	994050048	71	4434
2026-01-06 22:49:50.54	128.49	19.13	-52.0	-53.8	14.5	0.00e+00	0	27	0	995098624	70	4347
2026-01-06 22:49:51.54	128.68	19.06	-52.0	-53.7	14.6	0.00e+00	0	27	0	997195776	70	4298
2026-01-06 22:49:52.55	128.87	18.97	-52.1	-53.9	14.5	0.00e+00	0	27	0	999292928	70	4421
2026-01-06 22:49:53.55	129.05	18.89	-52.0	-53.8	14.5	0.00e+00	0	27	0	1001390080	70	4354
2026-01-06 22:49:54.55	129.24	18.82	-52.0	-53.8	14.5	0.00e+00	0	28	0	1003487232	70	4346
2026-01-06 22:49:55.56	129.43	18.73	-52.1	-53.9	14.5	0.00e+00	0	28	0	1004535808	70	4424
2026-01-06 22:49:56.55	129.61	18.66	-52.0	-53.8	14.5	0.00e+00	0	27	0	1006632960	70	4343
2026-01-06 22:49:57.56	129.79	18.57	-52.1	-53.9	14.5	0.00e+00	0	27	0	1008730112	70	4421
2026-01-06 22:49:58.56	129.98	18.49	-51.6	-53.3	14.6	0.00e+00	0	27	0	1010827264	69	4352
2026-01-06 22:49:59.56	130.16	18.41	-51.5	-53.2	14.7	0.00e+00	0	27	0	1012924416	69	4297
2026-01-06 22:50:00.56	130.34	18.33	-51.5	-53.1	14.7	0.00e+00	0	27	0	1013972992	69	4289
2026-01-06 22:50:01.57	130.52	18.25	-51.6	-53.3	14.6	0.00e+00	0	28	0	1016070144	69	4346
2026-01-06 22:50:02.56	130.70	18.17	-51.8	-53.5	14.5	0.00e+00	0	27	0	1018167296	69	4490
2026-01-06 22:50:03.56	130.87	18.09	-52.1	-53.9	14.4	0.00e+00	0	27	0	1020264448	69	4663
2026-01-06 22:50:04.56	131.05	18.01	-52.2	-54.0	14.3	0.00e+00	0	27	0	1022361600	69	4728
2026-01-06 22:50:05.55	131.22	17.94	-52.2	-54.0	14.3	0.00e+00	0	27	0	1023410176	69	4758
2026-01-06 22:50:06.56	131.40	17.85	-52.3	-54.1	14.3	0.00e+00	0	27	0	1025507328	69	4782
2026-01-06 22:50:07.55	131.57	17.78	-52.3	-54.1	14.3	0.00e+00	0	28	0	1027604480	69	4784
2026-01-06 22:50:08.56	131.75	17.69	-52.3	-54.1	14.3	0.00e+00	0	27	0	1029701632	69	4793
2026-01-06 22:50:09.56	131.92	17.62	-52.1	-53.9	14.4	0.00e+00	0	28	0	1030750208	69	4664
2026-01-06 22:50:10.56	132.09	17.54	-52.4	-54.2	14.2	0.00e+00	0	27	0	1032847360	69	4863
2026-01-06 22:50:11.56	132.26	17.46	-52.6	-54.5	14.2	0.00e+00	0	27	0	1034944512	70	4746
2026-01-06 22:50:12.55	132.43	17.38	-52.8	-54.8	14.1	0.00e+00	0	28	0	1037041664	70	4911
2026-01-06 22:50:13.55	132.60	17.30	-53.1	-55.1	14.0	0.00e+00	0	28	0	1039138816	71	4810
2026-01-06 22:50:14.55	132.77	17.22	-53.1	-55.2	14.0	0.00e+00	0	28	0	1040187392	71	4865
2026-01-06 22:50:15.56	132.93	17.14	-53.1	-55.3	14.0	0.00e+00	0	27	0	1042284544	71	4872
2026-01-06 22:50:16.55	133.10	17.06	-52.9	-54.9	14.1	0.00e+00	0	27	0	1044381696	71	4655
2026-01-06 22:50:17.55	133.26	16.98	-52.5	-54.4	14.4	0.00e+00	0	27	0	1046478848	71	4416
2026-01-06 22:50:18.55	133.43	16.90	-52.2	-54.0	14.5	0.00e+00	0	28	0	1048576000	71	4215
2026-01-06 22:50:19.55	133.59	16.82	-52.1	-53.9	14.5	0.00e+00	0	28	0	1049624576	70	4415
2026-01-06 22:50:20.55	133.76	16.74	-52.0	-53.8	14.5	0.00e+00	0	28	0	1051721728	70	4357
2026-01-06 22:50:21.54	133.92	16.66	-51.9	-53.6	14.6	0.00e+00	0	27	0	1053818880	70	4266
2026-01-06 22:50:22.54	134.08	16.58	-52.0	-53.8	14.5	0.00e+00	0	27	0	1055916032	70	4344
2026-01-06 22:50:23.54	134.24	16.50	-51.9	-53.6	14.6	0.00e+00	0	27	0	1056964608	70	4266
2026-01-06 22:50:24.54	134.40	16.42	-51.8	-53.5	14.6	0.00e+00	0	27	0	1059061760	70	4198
2026-01-06 22:50:25.54	134.56	16.34	-51.8	-53.5	14.6	0.00e+00	0	28	0	1061158912	70	4215
2026-01-06 22:50:26.54	134.71	16.26	-51.6	-53.3	14.6	0.00e+00	0	28	0	1063256064	69	4356
2026-01-06 22:50:27.54	134.87	16.18	-51.4	-53.1	14.7	0.00e+00	0	28	0	1065353216	69	4243
2026-01-06 22:50:28.54	135.03	16.10	-51.4	-53.1	14.7	0.00e+00	0	28	0	1066401792	69	4243
2026-01-06 22:50:29.54	135.18	16.02	-51.4	-53.0	14.7	0.00e+00	0	28	0	1068498944	69	4214
2026-01-06 22:50:30.54	135.34	15.95	-51.4	-53.0	14.7	0.00e+00	0	28	0	1070596096	69	4212
2026-01-06 22:50:31.53	135.49	15.87	-51.5	-53.2	14.6	0.00e+00	0	28	0	1072693248	69	4300
2026-01-06 22:50:32.53	135.64	15.79	-51.7	-53.4	14.6	0.00e+00	0	28	0	1074790400	69	4394
2026-01-06 22:50:33.53	135.79	15.71	-51.8	-53.6	14.5	0.00e+00	0	28	0	1075838976	69	4498
2026-01-06 22:50:34.53	135.95	15.63	-52.0	-53.8	14.4	0.00e+00	0	28	0	1077936128	69	4632
2026-01-06 22:50:35.53	136.10	15.55	-52.3	-54.1	14.3	0.00e+00	0	27	0	1080033280	69	4812
2026-01-06 22:50:36.53	136.25	15.47	-52.5	-54.4	14.2	0.00e+00	0	28	0	1082130432	70	4694
2026-01-06 22:50:37.53	136.40	15.39	-52.6	-54.6	14.2	0.00e+00	0	28	0	1083179008	70	4789
2026-01-06 22:50:38.53	136.55	15.32	-52.9	-55.0	14.0	0.00e+00	0	28	0	1085276160	70	4987
2026-01-06 22:50:39.53	136.69	15.24	-52.8	-54.8	14.2	0.00e+00	0	28	0	1087373312	71	4625
2026-01-06 22:50:40.53	136.84	15.16	-53.0	-55.1	14.0	0.00e+00	0	28	0	1089470464	71	4805
2026-01-06 22:50:41.52	136.98	15.08	-52.9	-55.0	14.1	0.00e+00	0	28	0	1091567616	71	4713
2026-01-06 22:50:42.51	137.13	15.00	-52.6	-54.6	14.2	0.00e+00	0	27	0	1092616192	71	4538
2026-01-06 22:50:43.51	137.27	14.93	-52.7	-54.7	14.2	0.00e+00	0	28	0	1094713344	71	4593
2026-01-06 22:50:44.52	137.42	14.85	-52.5	-54.4	14.3	0.00e+00	0	28	0	1096810496	71	4426
2026-01-06 22:50:45.52	137.56	14.77	-52.5	-54.4	14.3	0.00e+00	0	28	0	1098907648	71	4429
2026-01-06 22:50:46.52	137.71	14.69	-52.4	-54.3	14.4	0.00e+00	0	28	0	1101004800	71	4347
2026-01-06 22:50:47.52	137.85	14.61	-52.1	-53.9	14.4	0.00e+00	0	28	0	1102053376	70	4434
2026-01-06 22:50:48.52	137.99	14.54	-52.2	-54.0	14.4	0.00e+00	0	28	0	1104150528	70	4456
2026-01-06 22:50:49.53	138.13	14.46	-52.2	-54.0	14.4	0.00e+00	0	28	0	1106247680	70	4480
2026-01-06 22:50:50.53	138.27	14.38	-52.0	-53.8	14.5	0.00e+00	0	27	0	1108344832	70	4360
2026-01-06 22:50:51.54	138.41	14.30	-52.0	-53.8	14.5	0.00e+00	0	27	0	1110441984	70	4342
2026-01-06 22:50:52.53	138.55	14.22	-52.0	-53.8	14.5	0.00e+00	0	28	0	1111490560	70	4379
2026-01-06 22:50:53.53	138.69	14.15	-51.9	-53.7	14.5	0.00e+00	0	28	0	1113587712	70	4324
2026-01-06 22:50:54.53	138.82	14.07	-51.9	-53.7	14.5	0.00e+00	0	28	0	1115684864	70	4321
2026-01-06 22:50:55.52	138.96	13.99	-52.0	-53.8	14.5	0.00e+00	0	28	0	1117782016	70	4342
2026-01-06 22:50:56.52	139.09	13.92	-51.7	-53.5	14.6	0.00e+00	0	28	0	1118830592	70	4199
2026-01-06 22:50:57.51	139.23	13.84	-51.6	-53.3	14.6	0.00e+00	0	28	0	1120927744	69	4367
2026-01-06 22:50:58.52	139.36	13.76	-51.6	-53.3	14.6	0.00e+00	0	28	0	1123024896	69	4358
2026-01-06 22:50:59.52	139.50	13.69	-51.6	-53.3	14.6	0.00e+00	0	28	0	1125122048	69	4386
2026-01-06 22:51:00.52	139.63	13.61	-51.7	-53.5	14.5	0.00e+00	0	28	0	1127219200	69	4448
2026-01-06 22:51:01.53	139.76	13.53	-51.9	-53.7	14.4	0.00e+00	0	28	0	1128267776	69	4582
2026-01-06 22:51:02.53	139.89	13.46	-52.1	-54.0	14.3	0.00e+00	0	28	0	1130364928	69	4707
2026-01-06 22:51:03.53	140.02	13.38	-52.3	-54.1	14.2	0.00e+00	0	28	0	1132462080	69	4800
2026-01-06 22:51:04.53	140.16	13.30	-52.4	-54.3	14.2	0.00e+00	0	28	0	1134559232	69	4920
2026-01-06 22:51:05.53	140.28	13.23	-52.7	-54.7	14.1	0.00e+00	0	28	0	1136656384	70	4850
2026-01-06 22:51:06.52	140.41	13.15	-52.9	-54.9	14.0	0.00e+00	0	28	0	1137704960	70	4964
2026-01-06 22:51:07.52	140.54	13.08	-52.9	-55.0	14.1	0.00e+00	0	28	0	1139802112	71	4723
2026-01-06 22:51:08.52	140.67	13.00	-53.0	-55.1	14.0	0.00e+00	0	28	0	1141899264	71	4760
2026-01-06 22:51:09.53	140.80	12.92	-53.0	-55.2	14.0	0.00e+00	0	28	0	1143996416	71	4823
2026-01-06 22:51:10.53	140.92	12.85	-53.0	-55.0	14.0	0.00e+00	0	28	0	1145044992	71	4754
2026-01-06 22:51:11.53	141.05	12.77	-52.8	-54.8	14.1	0.00e+00	0	28	0	1147142144	71	4640
2026-01-06 22:51:12.53	141.18	12.70	-52.7	-54.6	14.2	0.00e+00	0	28	0	1149239296	71	4538
2026-01-06 22:51:13.53	141.30	12.62	-52.8	-54.8	14.1	0.00e+00	0	28	0	1151336448	71	4639
2026-01-06 22:51:14.53	141.42	12.55	-52.6	-54.5	14.3	0.00e+00	0	28	0	1153433600	71	4492
2026-01-06 22:51:15.52	141.55	12.47	-52.5	-54.4	14.3	0.00e+00	0	28	0	1154482176	71	4421
2026-01-06 22:51:16.52	141.67	12.40	-52.6	-54.5	14.2	0.00e+00	0	28	0	1156579328	71	4491
2026-01-06 22:51:17.52	141.79	12.32	-52.5	-54.5	14.3	0.00e+00	0	28	0	1158676480	71	4451
2026-01-06 22:51:18.52	141.91	12.25	-52.6	-54.6	14.2	0.00e+00	0	28	0	1160773632	71	4531
2026-01-06 22:51:19.53	142.04	12.17	-52.9	-54.9	14.1	0.00e+00	0	28	0	1162870784	71	4702
2026-01-06 22:51:20.53	142.16	12.10	-53.0	-55.1	14.0	0.00e+00	0	28	0	1163919360	71	4796
2026-01-06 22:51:21.52	142.27	12.03	-53.3	-55.5	13.8	0.00e+00	0	28	0	1166016512	71	5040
2026-01-06 22:51:22.52	142.39	11.95	-53.4	-55.6	13.8	0.00e+00	0	28	0	1168113664	71	5078
2026-01-06 22:51:23.52	142.51	11.88	-53.4	-55.7	13.7	0.00e+00	0	28	0	1170210816	71	5120
2026-01-06 22:51:24.51	142.63	11.81	-53.5	-55.8	13.8	0.00e+00	0	28	0	1172307968	72	4910
2026-01-06 22:51:25.50	142.75	11.73	-53.3	-55.5	13.9	0.00e+00	0	28	0	1173356544	72	4714
2026-01-06 22:51:26.50	142.86	11.66	-53.3	-55.5	13.9	0.00e+00	0	28	0	1175453696	72	4749
2026-01-06 22:51:27.50	142.98	11.59	-53.3	-55.4	13.9	0.00e+00	0	28	0	1177550848	72	4703
2026-01-06 22:51:28.49	143.09	11.51	-53.2	-55.3	14.0	0.00e+00	0	28	0	1179648000	72	4643
2026-01-06 22:51:29.49	143.21	11.44	-53.3	-55.5	13.9	0.00e+00	0	28	0	1180696576	72	4723
2026-01-06 22:51:30.50	143.33	11.37	-53.1	-55.2	14.1	0.00e+00	0	28	0	1182793728	72	4572
2026-01-06 22:51:31.49	143.44	11.29	-52.9	-55.0	14.2	0.00e+00	0	28	0	1184890880	72	4445
2026-01-06 22:51:32.48	143.55	11.22	-53.0	-55.1	14.1	0.00e+00	0	28	0	1186988032	72	4541
2026-01-06 22:51:33.49	143.67	11.15	-53.0	-55.1	14.1	0.00e+00	0	28	0	1189085184	72	4501
2026-01-06 22:51:34.49	143.78	11.07	-53.2	-55.3	14.0	0.00e+00	0	28	0	1190133760	72	4650
2026-01-06 22:51:35.49	143.89	11.00	-53.5	-55.7	13.8	0.00e+00	0	28	0	1192230912	72	4863
2026-01-06 22:51:36.49	144.00	10.93	-53.4	-55.6	13.9	0.00e+00	0	28	0	1194328064	72	4780
2026-01-06 22:51:37.49	144.11	10.86	-53.5	-55.8	13.8	0.00e+00	0	28	0	1196425216	72	4873
2026-01-06 22:51:38.49	144.22	10.78	-53.4	-55.7	13.8	0.00e+00	0	28	0	1197473792	72	4850
2026-01-06 22:51:39.49	144.33	10.71	-53.5	-55.8	13.7	0.00e+00	0	28	0	1199570944	72	4920
2026-01-06 22:51:40.49	144.44	10.64	-53.6	-56.0	13.7	0.00e+00	0	28	0	1201668096	72	4996
2026-01-06 22:51:41.49	144.55	10.57	-53.4	-55.7	13.7	0.00e+00	0	28	0	1203765248	72	4852
2026-01-06 22:51:42.49	144.66	10.50	-53.4	-55.7	13.8	0.00e+00	0	28	0	1205862400	72	4843
2026-01-06 22:51:43.49	144.77	10.42	-53.4	-55.6	13.8	0.00e+00	0	28	0	1206910976	72	4803
2026-01-06 22:51:44.50	144.88	10.35	-53.1	-55.2	14.0	0.00e+00	0	28	0	1209008128	72	4584
2026-01-06 22:51:45.50	144.98	10.28	-53.2	-55.4	13.9	0.00e+00	0	28	0	1211105280	72	4704
2026-01-06 22:51:46.50	145.09	10.21	-53.0	-55.1	14.1	0.00e+00	0	28	0	1213202432	72	4535
2026-01-06 22:51:47.49	145.20	10.14	-53.1	-55.2	14.0	0.00e+00	0	28	0	1215299584	72	4567
2026-01-06 22:51:48.49	145.30	10.07	-53.2	-55.3	14.0	0.00e+00	0	28	0	1216348160	72	4644
2026-01-06 22:51:49.49	145.41	10.00	-53.2	-55.4	14.0	0.00e+00	0	28	0	1218445312	72	4653
2026-01-06 22:51:50.49	145.51	9.93	-53.4	-55.7	13.8	0.00e+00	0	28	0	1220542464	72	4825
2026-01-06 22:51:51.49	145.61	9.86	-53.5	-55.8	13.7	0.00e+00	0	28	0	1222639616	72	4909
2026-01-06 22:51:52.50	145.72	9.78	-53.5	-55.8	13.7	0.00e+00	0	28	0	1224736768	72	4906
2026-01-06 22:51:53.50	145.82	9.71	-53.9	-56.3	13.4	0.00e+00	0	28	0	1225785344	72	5216
2026-01-06 22:51:54.51	145.93	9.64	-53.9	-56.4	13.5	0.00e+00	0	28	0	1227882496	73	4957
2026-01-06 22:51:55.52	146.03	9.57	-54.0	-56.5	13.5	0.00e+00	0	28	0	1229979648	73	5014
2026-01-06 22:51:56.51	146.13	9.50	-54.2	-56.8	13.3	0.00e+00	0	28	0	1232076800	73	5183
2026-01-06 22:51:57.51	146.23	9.43	-54.3	-57.0	13.2	0.00e+00	0	28	0	1234173952	73	5336
2026-01-06 22:51:58.51	146.33	9.36	-54.4	-57.2	13.1	0.00e+00	0	28	0	1235222528	73	5430
2026-01-06 22:51:59.51	146.43	9.29	-54.5	-57.3	13.1	0.00e+00	0	28	0	1237319680	74	5188
2026-01-06 22:52:00.51	146.53	9.22	-54.4	-57.2	13.1	0.00e+00	0	28	0	1239416832	74	5120
2026-01-06 22:52:01.51	146.63	9.15	-54.4	-57.2	13.2	0.00e+00	0	28	0	1241513984	74	5131
2026-01-06 22:52:02.52	146.73	9.08	-54.3	-57.0	13.3	0.00e+00	0	28	0	1242562560	74	4996
2026-01-06 22:52:03.52	146.83	9.02	-54.1	-56.8	13.4	0.00e+00	0	28	0	1244659712	74	4890
2026-01-06 22:52:04.52	146.93	8.95	-54.2	-56.9	13.3	0.00e+00	0	28	0	1246756864	74	4945
2026-01-06 22:52:05.53	147.03	8.88	-54.0	-56.6	13.5	0.00e+00	0	28	0	1248854016	74	4768
