passes_logs/2026/01/06/R3.2S_Murmansk/R3.2S_Murmansk__20260106_075736_AQUA_rec.log

#Pass ID: 20260106_075736_AQUA
#Satellite: AQUA
#Configuration: AQUA
#almurnet v.1.7.20251203
#Start time: 2026-01-06 07:57:38

#Version: 2.2.20231116
#Station: R3.2S_Murmansk
#Location: 33.079688 lon 68.888172 lat
#TLE: 1 27424U 02022A   26004.96787593  .00001598  00000+0  32997-3 0  9996
#TLE: 2 27424  98.4069 331.2279 0002002  90.2377   0.6092 14.61798176259425

#Time	Az	El	Level	Level2	SNR	BER	BlckErr	Temp	State	Recorded	gain1	gain2
2026-01-06 07:57:38.26	76.97	2.08	-57.5	-76.9	3.8	7.46e-01	0	24	0	0	84	32306
2026-01-06 07:57:39.25	76.89	2.14	-57.3	-76.6	3.8	7.49e-01	0	24	104	0	82	35164
2026-01-06 07:57:40.25	76.82	2.20	-57.3	-76.7	3.8	7.45e-01	0	24	104	0	82	35376
2026-01-06 07:57:41.25	76.74	2.26	-57.3	-76.7	3.8	7.47e-01	0	24	104	0	82	35399
2026-01-06 07:57:42.24	76.66	2.31	-57.3	-76.7	3.8	7.46e-01	0	24	104	0	82	35412
2026-01-06 07:57:43.23	76.59	2.37	-57.3	-76.7	3.8	7.47e-01	0	24	104	0	82	35343
2026-01-06 07:57:44.22	76.51	2.43	-57.3	-76.7	3.8	7.47e-01	0	24	104	0	82	35406
2026-01-06 07:57:45.22	76.43	2.49	-57.3	-76.7	3.8	7.48e-01	0	24	104	0	82	35383
2026-01-06 07:57:46.21	76.36	2.55	-57.3	-76.7	3.8	7.47e-01	0	24	104	0	82	35531
2026-01-06 07:57:47.21	76.28	2.61	-57.3	-76.7	3.8	7.48e-01	0	24	104	0	82	35487
2026-01-06 07:57:48.20	76.20	2.66	-57.3	-76.7	3.8	7.47e-01	0	24	104	0	82	35496
2026-01-06 07:57:49.19	76.12	2.72	-57.3	-76.6	3.8	7.45e-01	0	24	104	0	82	35233
2026-01-06 07:57:50.18	76.04	2.78	-57.3	-76.6	3.8	7.46e-01	0	24	104	0	82	34931
2026-01-06 07:57:51.17	75.97	2.84	-57.3	-76.5	3.8	7.47e-01	0	24	104	0	82	34606
2026-01-06 07:57:52.16	75.89	2.90	-57.3	-76.5	3.8	7.48e-01	0	25	104	0	82	34588
2026-01-06 07:57:53.15	75.81	2.96	-57.3	-76.4	3.8	7.45e-01	0	24	104	0	82	34200
2026-01-06 07:57:54.14	75.73	3.02	-57.3	-76.3	3.8	7.48e-01	0	24	104	0	82	34045
2026-01-06 07:57:55.13	75.65	3.07	-57.3	-76.3	3.8	7.45e-01	0	25	104	0	82	33964
2026-01-06 07:57:56.13	75.56	3.13	-57.3	-76.4	3.8	7.48e-01	0	25	104	0	82	34343
2026-01-06 07:57:57.11	75.48	3.19	-57.3	-76.3	3.8	7.48e-01	0	24	104	0	82	33959
2026-01-06 07:57:58.11	75.40	3.25	-57.3	-76.5	3.8	7.48e-01	0	24	104	0	82	34542
2026-01-06 07:57:59.11	75.32	3.31	-57.3	-76.5	3.8	7.47e-01	0	25	104	0	82	34633
2026-01-06 07:58:00.09	75.24	3.37	-57.3	-76.6	3.8	7.46e-01	0	25	104	0	82	35074
2026-01-06 07:58:01.09	75.15	3.43	-57.3	-76.6	3.8	7.46e-01	0	25	104	0	82	35086
2026-01-06 07:58:02.09	75.07	3.49	-57.3	-76.7	3.8	7.47e-01	0	25	104	0	82	35300
2026-01-06 07:58:03.09	74.99	3.55	-57.3	-76.6	3.8	7.48e-01	0	25	104	0	82	35160
2026-01-06 07:58:04.08	74.90	3.61	-57.3	-76.5	3.8	7.49e-01	0	25	104	0	82	34631
2026-01-06 07:58:05.07	74.82	3.67	-57.3	-76.4	3.8	7.48e-01	0	25	104	0	82	34296
2026-01-06 07:58:06.07	74.73	3.73	-57.3	-76.4	3.8	7.49e-01	0	25	104	0	82	34302
2026-01-06 07:58:07.06	74.65	3.79	-57.3	-76.5	3.8	7.48e-01	0	25	104	0	82	34662
2026-01-06 07:58:08.04	74.56	3.85	-57.3	-76.5	3.8	7.46e-01	0	25	104	0	82	34487
2026-01-06 07:58:09.04	74.48	3.91	-57.3	-76.4	3.8	7.45e-01	0	25	104	0	82	34291
2026-01-06 07:58:10.03	74.39	3.97	-57.3	-76.0	3.8	7.45e-01	0	25	104	0	82	32760
2026-01-06 07:58:11.03	74.30	4.03	-57.3	-75.5	3.9	7.45e-01	0	25	104	0	82	30813
2026-01-06 07:58:12.01	74.22	4.09	-57.3	-74.7	3.9	7.44e-01	0	25	104	0	82	28097
2026-01-06 07:58:13.01	74.13	4.15	-57.3	-74.7	3.9	7.48e-01	0	25	104	0	82	28291
2026-01-06 07:58:14.01	74.04	4.21	-57.3	-75.1	3.8	7.44e-01	0	25	104	0	82	29651
2026-01-06 07:58:15.00	73.95	4.27	-57.3	-75.7	3.8	7.49e-01	0	25	104	0	82	31766
2026-01-06 07:58:15.99	73.86	4.34	-57.3	-76.4	3.8	7.47e-01	0	25	104	0	82	34417
2026-01-06 07:58:16.99	73.77	4.40	-57.3	-76.4	3.8	7.45e-01	0	25	104	0	82	34367
2026-01-06 07:58:17.99	73.68	4.46	-57.3	-74.9	3.9	7.46e-01	0	25	104	0	82	28682
2026-01-06 07:58:18.98	73.59	4.52	-57.2	-72.5	4.4	7.37e-01	0	25	104	0	82	21781
2026-01-06 07:58:19.98	73.50	4.58	-57.1	-69.0	6.2	6.77e-01	90	25	0	0	82	14640
2026-01-06 07:58:20.98	73.41	4.64	-56.9	-66.9	7.9	6.42e-01	19	25	0	2097152	82	11440
2026-01-06 07:58:21.97	73.32	4.70	-56.7	-65.4	9.2	6.26e-01	0	25	0	4194304	82	9698
2026-01-06 07:58:22.96	73.23	4.77	-56.4	-63.8	10.6	6.16e-01	0	25	0	5767168	82	8045
2026-01-06 07:58:23.97	73.14	4.83	-56.0	-62.6	11.4	6.13e-01	0	25	0	7864320	81	7391
2026-01-06 07:58:24.96	73.04	4.89	-55.7	-61.6	12.1	6.11e-01	0	25	0	9437184	80	6975
2026-01-06 07:58:25.96	72.95	4.95	-55.7	-61.3	12.3	6.09e-01	0	25	0	11534336	80	6782
2026-01-06 07:58:26.97	72.85	5.01	-55.5	-60.9	12.7	6.07e-01	0	25	0	13631488	80	6433
2026-01-06 07:58:27.97	72.76	5.08	-57.1	-66.7	9.1	6.36e-01	0	25	0	15204352	81	11945
2026-01-06 07:58:28.97	72.66	5.14	-56.9	-74.5	3.9	7.47e-01	0	25	104	16252928	82	27595
2026-01-06 07:58:29.98	72.57	5.20	-55.7	-75.1	3.8	7.47e-01	0	25	104	16252928	80	32998
2026-01-06 07:58:30.98	72.47	5.27	-56.8	-72.9	4.1	7.42e-01	0	25	104	16252928	81	24181
2026-01-06 07:58:31.98	72.37	5.33	-56.6	-75.0	3.8	7.44e-01	0	25	104	16252928	81	30963
2026-01-06 07:58:32.97	72.28	5.39	-56.8	-73.0	4.0	7.36e-01	0	25	104	16252928	81	24685
2026-01-06 07:58:33.97	72.18	5.45	-56.9	-72.7	4.2	7.38e-01	0	25	104	16252928	81	23811
2026-01-06 07:58:34.96	72.08	5.52	-56.9	-73.2	3.9	7.42e-01	0	25	104	16252928	81	25107
2026-01-06 07:58:35.95	71.99	5.58	-57.2	-74.5	4.0	7.38e-01	0	25	104	16252928	82	27564
2026-01-06 07:58:36.95	71.89	5.64	-56.9	-75.5	3.8	7.43e-01	0	25	104	16252928	82	30734
2026-01-06 07:58:37.95	71.79	5.71	-56.7	-75.9	3.8	7.49e-01	0	25	104	16252928	82	32295
2026-01-06 07:58:38.95	71.69	5.77	-57.1	-73.9	3.9	7.44e-01	0	25	104	16252928	82	25595
2026-01-06 07:58:39.93	71.59	5.83	-56.7	-75.9	3.8	7.47e-01	0	25	104	16252928	82	32504
2026-01-06 07:58:40.94	71.49	5.90	-57.1	-73.2	3.9	7.39e-01	0	25	104	16252928	82	23749
2026-01-06 07:58:41.93	71.39	5.96	-57.1	-72.9	4.2	7.37e-01	0	25	104	16252928	82	22932
2026-01-06 07:58:42.92	71.29	6.02	-57.1	-73.3	3.9	7.45e-01	0	25	104	16252928	82	23856
2026-01-06 07:58:43.92	71.18	6.09	-56.9	-76.2	3.8	7.48e-01	0	25	104	16252928	82	33453
2026-01-06 07:58:44.92	71.08	6.15	-57.1	-74.0	3.9	7.45e-01	0	25	104	16252928	82	26103
2026-01-06 07:58:45.91	70.98	6.21	-56.8	-75.8	3.8	7.45e-01	0	25	104	16252928	82	32090
2026-01-06 07:58:46.91	70.87	6.28	-57.2	-73.2	3.9	7.40e-01	0	25	104	16252928	82	23583
2026-01-06 07:58:47.91	70.77	6.34	-57.1	-74.5	3.9	7.43e-01	0	25	104	16252928	82	27583
2026-01-06 07:58:48.90	70.67	6.41	-57.2	-73.3	3.9	7.44e-01	0	25	104	16252928	82	24074
2026-01-06 07:58:49.89	70.56	6.47	-57.2	-72.8	4.3	7.33e-01	0	25	104	16252928	82	22558
2026-01-06 07:58:50.88	70.46	6.53	-57.2	-73.2	3.9	7.42e-01	0	25	104	16252928	82	23714
2026-01-06 07:58:51.88	70.35	6.60	-57.3	-73.7	4.1	7.39e-01	0	25	104	16252928	82	25036
2026-01-06 07:58:52.87	70.24	6.66	-57.2	-74.0	3.8	7.49e-01	0	26	104	16252928	82	25979
2026-01-06 07:58:53.87	70.14	6.73	-57.0	-76.0	3.8	7.47e-01	0	25	104	16252928	82	32718
2026-01-06 07:58:54.86	70.03	6.79	-57.3	-73.4	4.0	7.43e-01	0	26	104	16252928	82	24138
2026-01-06 07:58:55.86	69.92	6.86	-57.2	-74.5	4.0	7.44e-01	0	25	104	16252928	82	27431
2026-01-06 07:58:56.86	69.81	6.92	-57.3	-73.4	4.1	7.43e-01	0	25	104	16252928	82	24143
2026-01-06 07:58:57.85	69.70	6.99	-57.3	-72.7	4.4	7.30e-01	0	25	104	16252928	82	22302
2026-01-06 07:58:58.85	69.59	7.05	-57.3	-73.2	4.1	7.43e-01	0	26	104	16252928	82	23791
2026-01-06 07:58:59.84	69.48	7.12	-57.3	-76.7	3.8	7.45e-01	0	25	104	16252928	82	35600
2026-01-06 07:59:00.85	69.37	7.18	-57.3	-73.5	4.2	7.45e-01	0	26	104	16252928	82	24643
2026-01-06 07:59:01.83	69.26	7.25	-57.2	-76.1	3.8	7.47e-01	0	26	104	16252928	82	33074
2026-01-06 07:59:02.83	69.15	7.31	-57.3	-73.7	3.9	7.44e-01	0	25	104	16252928	82	25208
2026-01-06 07:59:03.83	69.04	7.38	-57.3	-75.0	3.9	7.43e-01	0	26	104	16252928	82	29055
2026-01-06 07:59:04.82	68.92	7.44	-57.4	-73.3	4.1	7.43e-01	0	26	104	16252928	82	23932
2026-01-06 07:59:05.81	68.81	7.51	-57.4	-72.5	4.5	7.30e-01	0	26	104	16252928	82	21858
2026-01-06 07:59:06.81	68.70	7.58	-57.4	-73.4	4.2	7.47e-01	0	26	104	16252928	82	24273
2026-01-06 07:59:07.81	68.58	7.64	-57.5	-74.1	3.9	7.41e-01	0	26	104	16252928	82	26348
2026-01-06 07:59:08.81	68.46	7.71	-57.4	-72.9	4.3	7.30e-01	0	26	104	16252928	82	22936
2026-01-06 07:59:09.81	68.35	7.77	-57.3	-76.2	3.8	7.44e-01	0	26	104	16252928	82	33646
2026-01-06 07:59:10.81	68.23	7.84	-57.5	-74.5	3.9	7.44e-01	0	26	104	16252928	82	27575
2026-01-06 07:59:11.80	68.11	7.91	-57.4	-75.0	3.8	7.47e-01	0	26	104	16252928	82	29048
2026-01-06 07:59:12.80	68.00	7.97	-57.4	-72.9	4.3	7.30e-01	0	26	104	16252928	82	22895
2026-01-06 07:59:13.79	67.88	8.04	-57.4	-72.7	4.2	7.32e-01	0	26	104	16252928	82	22285
2026-01-06 07:59:14.79	67.76	8.11	-57.5	-72.7	4.4	7.27e-01	0	26	104	16252928	82	22276
2026-01-06 07:59:15.78	67.64	8.17	-57.6	-73.9	4.0	7.40e-01	0	26	104	16252928	82	25826
2026-01-06 07:59:16.78	67.52	8.24	-57.5	-72.8	4.4	7.29e-01	0	26	104	16252928	82	22651
2026-01-06 07:59:17.78	67.40	8.31	-57.4	-76.2	3.8	7.43e-01	0	26	104	16252928	82	33517
2026-01-06 07:59:18.76	67.28	8.37	-57.5	-74.2	4.0	7.42e-01	0	26	104	16252928	82	26556
2026-01-06 07:59:19.76	67.15	8.44	-57.5	-74.7	3.8	7.45e-01	0	26	104	16252928	82	28051
2026-01-06 07:59:20.75	67.03	8.51	-57.5	-72.9	4.3	7.28e-01	0	26	104	16252928	82	23033
2026-01-06 07:59:21.76	66.91	8.57	-57.5	-72.7	4.0	7.42e-01	0	26	104	16252928	82	22443
2026-01-06 07:59:22.75	66.78	8.64	-57.5	-72.7	4.4	7.29e-01	0	26	104	16252928	82	22462
2026-01-06 07:59:23.74	66.66	8.71	-57.7	-74.3	4.0	7.42e-01	0	26	104	16252928	83	25296
2026-01-06 07:59:24.73	66.54	8.77	-57.6	-72.8	4.4	7.23e-01	0	26	104	16252928	83	21351
2026-01-06 07:59:25.72	66.41	8.84	-57.5	-76.3	3.8	7.43e-01	0	26	104	16252928	83	32089
2026-01-06 07:59:26.72	66.28	8.91	-57.6	-75.3	3.9	7.44e-01	0	26	104	16252928	83	28472
2026-01-06 07:59:27.72	66.16	8.98	-57.6	-75.0	3.8	7.45e-01	0	26	104	16252928	83	27577
2026-01-06 07:59:28.71	66.03	9.04	-57.6	-73.0	4.3	7.30e-01	0	26	104	16252928	83	21856
2026-01-06 07:59:29.71	65.90	9.11	-57.6	-73.5	3.9	7.40e-01	0	26	104	16252928	83	23298
2026-01-06 07:59:30.71	65.77	9.18	-57.6	-72.7	4.4	7.25e-01	0	26	104	16252928	83	21083
2026-01-06 07:59:31.70	65.64	9.25	-57.7	-77.1	3.8	7.45e-01	0	26	104	16252928	83	34954
2026-01-06 07:59:32.70	65.51	9.32	-57.6	-74.3	3.9	7.42e-01	0	26	104	16252928	83	25453
2026-01-06 07:59:33.70	65.38	9.38	-57.6	-76.9	3.8	7.49e-01	0	26	104	16252928	83	34169
2026-01-06 07:59:34.69	65.25	9.45	-57.7	-77.0	3.8	7.45e-01	0	26	104	16252928	83	34502
2026-01-06 07:59:35.70	65.11	9.52	-57.7	-76.8	3.8	7.46e-01	0	26	104	16252928	83	33807
2026-01-06 07:59:36.70	64.98	9.59	-57.7	-76.7	3.8	7.47e-01	0	26	104	16252928	83	33670
2026-01-06 07:59:37.68	64.85	9.66	-57.7	-76.6	3.8	7.45e-01	0	26	104	16252928	83	33272
2026-01-06 07:59:38.68	64.71	9.72	-57.7	-76.5	3.8	7.47e-01	0	26	104	16252928	83	32820
2026-01-06 07:59:39.66	64.58	9.79	-57.7	-76.9	3.8	7.47e-01	0	26	104	16252928	83	34258
2026-01-06 07:59:40.65	64.44	9.86	-57.7	-76.8	3.8	7.47e-01	0	26	104	16252928	83	33699
2026-01-06 07:59:41.65	64.31	9.93	-57.7	-77.0	3.8	7.44e-01	0	26	104	16252928	83	34601
2026-01-06 07:59:42.63	64.17	10.00	-57.7	-77.1	3.8	7.48e-01	0	26	104	16252928	83	34884
2026-01-06 07:59:43.62	64.03	10.06	-57.7	-77.0	3.8	7.44e-01	0	26	104	16252928	83	34668
2026-01-06 07:59:44.62	63.89	10.13	-57.7	-77.0	3.8	7.46e-01	0	26	104	16252928	83	34746
2026-01-06 07:59:45.61	63.75	10.20	-57.7	-77.0	3.8	7.49e-01	0	26	104	16252928	83	34688
2026-01-06 07:59:46.60	63.62	10.27	-57.7	-77.0	3.8	7.45e-01	0	26	104	16252928	83	34858
2026-01-06 07:59:47.59	63.48	10.34	-57.7	-77.0	3.8	7.47e-01	0	26	104	16252928	83	34764
2026-01-06 07:59:48.59	63.33	10.41	-57.8	-77.1	3.8	7.44e-01	0	26	104	16252928	83	35067
2026-01-06 07:59:49.59	63.19	10.48	-57.7	-77.0	3.8	7.45e-01	0	26	104	16252928	83	34807
2026-01-06 07:59:50.58	63.05	10.54	-57.7	-77.1	3.8	7.49e-01	0	26	104	16252928	83	34973
2026-01-06 07:59:51.58	62.90	10.61	-57.7	-77.0	3.8	7.49e-01	0	26	104	16252928	83	34785
2026-01-06 07:59:52.57	62.76	10.68	-57.8	-77.1	3.8	7.44e-01	0	26	104	16252928	83	35095
2026-01-06 07:59:53.57	62.61	10.75	-57.8	-77.1	3.8	7.46e-01	0	26	104	16252928	83	34941
2026-01-06 07:59:54.57	62.47	10.82	-57.8	-77.1	3.8	7.49e-01	0	26	104	16252928	83	35000
2026-01-06 07:59:55.57	62.32	10.89	-57.8	-77.1	3.8	7.44e-01	0	26	104	16252928	83	34907
2026-01-06 07:59:56.56	62.17	10.96	-57.8	-77.1	3.8	7.45e-01	0	26	104	16252928	83	35228
2026-01-06 07:59:57.56	62.02	11.03	-57.8	-77.1	3.8	7.43e-01	0	26	104	16252928	83	35087
2026-01-06 07:59:58.55	61.87	11.10	-57.8	-77.0	3.8	7.46e-01	0	26	104	16252928	83	34754
2026-01-06 07:59:59.55	61.72	11.17	-57.8	-77.1	3.8	7.44e-01	0	26	104	16252928	83	35142
2026-01-06 08:00:00.54	61.57	11.24	-57.8	-77.2	3.8	7.48e-01	0	26	104	16252928	83	35375
2026-01-06 08:00:01.53	61.42	11.30	-57.8	-77.1	3.8	7.47e-01	0	26	104	16252928	83	35084
2026-01-06 08:00:02.53	61.27	11.37	-57.8	-77.1	3.8	7.46e-01	0	26	104	16252928	83	34907
2026-01-06 08:00:03.53	61.12	11.44	-57.8	-77.1	3.8	7.44e-01	0	26	104	16252928	83	35203
2026-01-06 08:00:04.52	60.96	11.51	-57.9	-77.2	3.8	7.46e-01	0	26	104	16252928	83	35404
2026-01-06 08:00:05.52	60.81	11.58	-57.8	-77.2	3.8	7.47e-01	0	26	104	16252928	83	35301
2026-01-06 08:00:06.52	60.65	11.65	-57.8	-77.1	3.8	7.43e-01	0	26	104	16252928	83	34888
2026-01-06 08:00:07.52	60.49	11.72	-57.8	-77.1	3.8	7.49e-01	0	26	104	16252928	83	35226
2026-01-06 08:00:08.52	60.34	11.79	-57.9	-77.2	3.8	7.47e-01	0	26	104	16252928	83	35447
2026-01-06 08:00:09.51	60.18	11.86	-57.8	-77.1	3.8	7.44e-01	0	26	104	16252928	83	35222
2026-01-06 08:00:10.50	60.02	11.93	-57.8	-77.0	3.8	7.47e-01	0	26	104	16252928	83	34758
2026-01-06 08:00:11.50	59.86	12.00	-57.8	-77.2	3.8	7.43e-01	0	26	104	16252928	83	35349
2026-01-06 08:00:12.49	59.70	12.07	-57.9	-77.2	3.8	7.46e-01	0	26	104	16252928	83	35345
2026-01-06 08:00:13.49	59.54	12.14	-57.9	-77.2	3.8	7.46e-01	0	26	104	16252928	83	35378
2026-01-06 08:00:14.49	59.38	12.21	-57.8	-77.0	3.8	7.48e-01	0	26	104	16252928	83	34809
2026-01-06 08:00:15.48	59.21	12.28	-57.9	-77.2	3.8	7.45e-01	0	26	104	16252928	83	35376
2026-01-06 08:00:16.47	59.05	12.35	-57.9	-77.2	3.8	7.44e-01	0	26	104	16252928	83	35425
2026-01-06 08:00:17.46	58.89	12.42	-57.9	-77.2	3.8	7.47e-01	0	26	104	16252928	83	35462
2026-01-06 08:00:18.46	58.72	12.49	-57.9	-77.0	3.8	7.45e-01	0	26	104	16252928	83	34775
2026-01-06 08:00:19.46	58.55	12.56	-57.9	-77.2	3.8	7.46e-01	0	26	104	16252928	83	35559
2026-01-06 08:00:20.45	58.39	12.63	-57.9	-77.1	3.8	7.43e-01	0	26	104	16252928	83	35185
2026-01-06 08:00:21.45	58.22	12.70	-57.9	-77.2	3.8	7.46e-01	0	26	104	16252928	83	35692
2026-01-06 08:00:22.45	58.05	12.77	-57.9	-77.0	3.8	7.47e-01	0	26	104	16252928	83	34794
2026-01-06 08:00:23.44	57.88	12.84	-57.9	-77.2	3.8	7.51e-01	0	26	104	16252928	83	35619
2026-01-06 08:00:24.44	57.71	12.91	-57.9	-77.1	3.8	7.50e-01	0	26	104	16252928	83	35258
2026-01-06 08:00:25.43	57.54	12.97	-57.9	-77.2	3.8	7.46e-01	0	26	104	16252928	83	35599
2026-01-06 08:00:26.44	57.36	13.05	-57.9	-77.1	3.8	7.46e-01	0	26	104	16252928	83	34884
2026-01-06 08:00:27.43	57.19	13.11	-57.9	-77.2	3.8	7.49e-01	0	26	104	16252928	83	35580
2026-01-06 08:00:28.43	57.02	13.18	-57.9	-77.1	3.8	7.50e-01	0	26	104	16252928	83	35204
2026-01-06 08:00:29.42	56.84	13.25	-57.9	-77.2	3.8	7.44e-01	0	26	104	16252928	83	35686
2026-01-06 08:00:30.42	56.67	13.32	-57.9	-77.1	3.8	7.47e-01	0	26	104	16252928	83	34926
2026-01-06 08:00:31.42	56.49	13.39	-58.0	-77.2	3.8	7.52e-01	0	26	104	16252928	83	35599
2026-01-06 08:00:32.42	56.31	13.46	-58.0	-77.2	3.8	7.43e-01	0	26	104	16252928	83	35346
2026-01-06 08:00:33.41	56.13	13.53	-58.0	-77.3	3.8	7.43e-01	0	26	104	16252928	83	35870
2026-01-06 08:00:34.41	55.95	13.60	-57.9	-77.1	3.8	7.48e-01	0	26	104	16252928	83	35109
2026-01-06 08:00:35.40	55.77	13.67	-57.9	-77.3	3.8	7.46e-01	0	26	104	16252928	83	35701
2026-01-06 08:00:36.38	55.59	13.74	-57.9	-77.1	3.8	7.49e-01	0	26	104	16252928	83	35063
2026-01-06 08:00:37.38	55.41	13.81	-58.0	-77.3	3.8	7.50e-01	0	26	104	16252928	83	35863
2026-01-06 08:00:38.38	55.23	13.88	-57.9	-77.1	3.8	7.46e-01	0	26	104	16252928	83	35107
2026-01-06 08:00:39.37	55.04	13.94	-58.0	-77.2	3.8	7.45e-01	0	26	104	16252928	83	35597
2026-01-06 08:00:40.36	54.86	14.01	-58.0	-77.1	3.8	7.45e-01	0	26	104	16252928	83	34909
2026-01-06 08:00:41.35	54.67	14.08	-58.0	-77.3	3.8	7.45e-01	0	26	104	16252928	83	36041
2026-01-06 08:00:42.34	54.49	14.15	-58.0	-77.2	3.8	7.46e-01	0	26	104	16252928	83	35422
2026-01-06 08:00:43.34	54.30	14.22	-58.0	-77.3	3.8	7.46e-01	0	26	104	16252928	83	35835
2026-01-06 08:00:44.33	54.11	14.29	-58.0	-77.0	3.8	7.47e-01	0	26	104	16252928	83	34819
2026-01-06 08:00:45.32	53.92	14.35	-58.0	-77.4	3.8	7.45e-01	0	26	104	16252928	83	36133
2026-01-06 08:00:46.31	53.73	14.42	-58.0	-77.2	3.8	7.46e-01	0	26	104	16252928	83	35612
2026-01-06 08:00:47.30	53.54	14.49	-58.0	-77.3	3.8	7.50e-01	0	26	104	16252928	83	35724
2026-01-06 08:00:48.30	53.35	14.56	-58.0	-77.0	3.8	7.47e-01	0	26	104	16252928	83	34597
2026-01-06 08:00:49.29	53.15	14.63	-58.1	-77.4	3.8	7.44e-01	0	26	104	16252928	83	36274
2026-01-06 08:00:50.29	52.96	14.70	-58.0	-77.3	3.8	7.48e-01	0	26	104	16252928	83	35716
2026-01-06 08:00:51.27	52.77	14.76	-58.0	-77.3	3.8	7.48e-01	0	26	104	16252928	83	35723
2026-01-06 08:00:52.26	52.57	14.83	-58.0	-77.0	3.8	7.45e-01	0	26	104	16252928	83	34490
2026-01-06 08:00:53.26	52.37	14.90	-58.1	-77.4	3.8	7.46e-01	0	26	104	16252928	83	36299
2026-01-06 08:00:54.25	52.18	14.96	-58.0	-77.3	3.8	7.44e-01	0	26	104	16252928	83	35958
2026-01-06 08:00:55.23	51.98	15.03	-58.0	-77.3	3.8	7.48e-01	0	26	104	16252928	83	35730
2026-01-06 08:00:56.22	51.78	15.10	-58.0	-76.9	3.8	7.44e-01	0	26	104	16252928	83	34437
2026-01-06 08:00:57.21	51.58	15.16	-58.1	-77.4	3.8	7.43e-01	0	26	104	16252928	83	36388
2026-01-06 08:00:58.20	51.38	15.23	-58.0	-77.3	3.8	7.44e-01	0	26	104	16252928	83	35971
2026-01-06 08:00:59.19	51.18	15.30	-58.0	-77.3	3.8	7.45e-01	0	26	104	16252928	83	35850
2026-01-06 08:01:00.19	50.97	15.37	-58.0	-76.9	3.8	7.46e-01	0	26	104	16252928	83	34176
2026-01-06 08:01:01.18	50.77	15.43	-58.1	-77.5	3.8	7.46e-01	0	26	104	16252928	83	36524
2026-01-06 08:01:02.18	50.56	15.50	-58.0	-77.3	3.8	7.46e-01	0	26	104	16252928	83	36013
2026-01-06 08:01:03.17	50.35	15.56	-58.1	-77.2	3.8	7.46e-01	0	26	104	16252928	83	35685
2026-01-06 08:01:04.17	50.14	15.63	-58.0	-76.9	3.8	7.46e-01	0	26	104	16252928	83	34128
2026-01-06 08:01:05.16	49.94	15.70	-58.3	-77.6	3.8	7.46e-01	0	26	104	16252928	84	35234
2026-01-06 08:01:06.15	49.73	15.76	-58.3	-77.5	3.8	7.45e-01	0	26	104	16252928	84	34834
2026-01-06 08:01:07.15	49.52	15.83	-58.3	-77.4	3.8	7.49e-01	0	26	104	16252928	84	34453
2026-01-06 08:01:08.14	49.30	15.89	-58.2	-77.1	3.8	7.49e-01	0	26	104	16252928	84	33031
2026-01-06 08:01:09.14	49.09	15.96	-58.3	-77.7	3.8	7.46e-01	0	26	104	16252928	84	35327
2026-01-06 08:01:10.14	48.87	16.02	-58.3	-77.6	3.8	7.45e-01	0	26	104	16252928	84	34925
2026-01-06 08:01:11.13	48.66	16.09	-58.3	-77.5	3.8	7.44e-01	0	26	104	16252928	84	34531
2026-01-06 08:01:12.12	48.45	16.15	-58.2	-77.1	3.8	7.45e-01	0	26	104	16252928	84	33177
2026-01-06 08:01:13.11	48.23	16.22	-58.4	-77.7	3.8	7.45e-01	0	26	104	16252928	84	35372
2026-01-06 08:01:14.11	48.01	16.28	-58.3	-77.6	3.8	7.47e-01	0	26	104	16252928	84	34906
2026-01-06 08:01:15.11	47.79	16.34	-58.3	-77.5	3.8	7.47e-01	0	26	104	16252928	84	34507
2026-01-06 08:01:16.09	47.57	16.41	-58.2	-77.1	3.8	7.46e-01	0	26	104	16252928	84	33081
2026-01-06 08:01:17.09	47.35	16.47	-58.3	-77.7	3.8	7.49e-01	0	26	104	16252928	84	35368
2026-01-06 08:01:18.09	47.13	16.53	-58.3	-77.6	3.8	7.45e-01	0	26	104	16252928	84	34945
2026-01-06 08:01:19.08	46.91	16.60	-58.3	-77.5	3.8	7.44e-01	0	26	104	16252928	84	34621
2026-01-06 08:01:20.07	46.68	16.66	-58.3	-77.1	3.8	7.46e-01	0	26	104	16252928	84	33122
2026-01-06 08:01:21.06	46.46	16.72	-58.4	-77.7	3.8	7.45e-01	0	26	104	16252928	84	35431
2026-01-06 08:01:22.05	46.23	16.78	-58.3	-77.6	3.8	7.49e-01	0	26	104	16252928	84	34912
2026-01-06 08:01:23.04	46.01	16.85	-58.3	-77.5	3.8	7.43e-01	0	26	104	16252928	84	34538
2026-01-06 08:01:24.03	45.78	16.91	-58.3	-77.1	3.9	7.46e-01	0	26	104	16252928	84	33107
2026-01-06 08:01:25.02	45.55	16.97	-58.4	-77.7	3.8	7.47e-01	0	26	104	16252928	84	35541
2026-01-06 08:01:26.02	45.32	17.03	-58.3	-77.6	3.8	7.45e-01	0	26	104	16252928	84	34949
2026-01-06 08:01:27.02	45.09	17.09	-58.3	-77.5	3.8	7.49e-01	0	26	104	16252928	84	34716
2026-01-06 08:01:28.02	44.86	17.15	-58.3	-77.2	3.8	7.45e-01	0	26	104	16252928	84	33341
2026-01-06 08:01:29.00	44.63	17.21	-58.4	-77.7	3.8	7.45e-01	0	26	104	16252928	84	35579
2026-01-06 08:01:29.99	44.39	17.27	-58.3	-77.5	3.8	7.49e-01	0	26	104	16252928	84	34829
2026-01-06 08:01:30.99	44.16	17.33	-58.4	-77.5	3.8	7.45e-01	0	26	104	16252928	84	34729
2026-01-06 08:01:31.98	43.92	17.39	-58.3	-77.2	3.8	7.44e-01	0	26	104	16252928	84	33541
2026-01-06 08:01:32.98	43.68	17.45	-58.4	-77.7	3.8	7.47e-01	0	26	104	16252928	84	35644
2026-01-06 08:01:33.97	43.45	17.51	-58.4	-77.6	3.8	7.48e-01	0	26	104	16252928	84	34934
2026-01-06 08:01:34.97	43.21	17.57	-58.4	-77.5	3.8	7.43e-01	0	26	104	16252928	84	34692
2026-01-06 08:01:35.96	42.97	17.62	-58.3	-77.2	3.8	7.46e-01	0	26	104	16252928	84	33544
2026-01-06 08:01:36.96	42.73	17.68	-58.4	-77.7	3.8	7.45e-01	0	26	104	16252928	84	35561
2026-01-06 08:01:37.95	42.49	17.74	-58.4	-77.6	3.8	7.48e-01	0	26	104	16252928	84	35020
2026-01-06 08:01:38.94	42.24	17.80	-58.4	-77.5	3.8	7.46e-01	0	26	104	16252928	84	34867
2026-01-06 08:01:39.94	42.00	17.85	-58.3	-77.2	3.8	7.46e-01	0	26	104	16252928	84	33641
2026-01-06 08:01:40.94	41.75	17.91	-58.4	-77.7	3.8	7.45e-01	0	26	104	16252928	84	35597
2026-01-06 08:01:41.93	41.51	17.97	-58.4	-77.6	3.8	7.49e-01	0	26	104	16252928	84	34893
2026-01-06 08:01:42.93	41.26	18.02	-58.4	-77.6	3.8	7.46e-01	0	26	104	16252928	84	34931
2026-01-06 08:01:43.92	41.01	18.08	-58.3	-77.3	3.8	7.47e-01	0	26	104	16252928	84	33769
2026-01-06 08:01:44.91	40.77	18.13	-58.4	-77.7	3.8	7.44e-01	0	26	104	16252928	84	35601
2026-01-06 08:01:45.91	40.51	18.18	-58.4	-77.6	3.8	7.46e-01	0	26	104	16252928	84	35070
2026-01-06 08:01:46.90	40.26	18.24	-58.4	-77.6	3.8	7.48e-01	0	26	104	16252928	84	34993
2026-01-06 08:01:47.88	40.02	18.29	-58.4	-77.3	3.8	7.47e-01	0	26	104	16252928	84	34007
2026-01-06 08:01:48.88	39.76	18.34	-58.4	-77.7	3.8	7.49e-01	0	26	104	16252928	84	35526
2026-01-06 08:01:49.86	39.51	18.40	-58.4	-77.6	3.8	7.46e-01	0	26	104	16252928	84	35083
2026-01-06 08:01:50.86	39.26	18.45	-58.4	-77.6	3.8	7.45e-01	0	26	104	16252928	84	35089
2026-01-06 08:01:51.85	39.00	18.50	-58.4	-77.4	3.8	7.46e-01	0	26	104	16252928	84	34199
2026-01-06 08:01:52.85	38.75	18.55	-58.5	-77.7	3.8	7.46e-01	0	26	104	16252928	84	35602
2026-01-06 08:01:53.84	38.49	18.60	-58.4	-77.6	3.8	7.44e-01	0	26	104	16252928	84	35056
2026-01-06 08:01:54.83	38.23	18.65	-58.4	-77.6	3.8	7.44e-01	0	26	104	16252928	84	35245
2026-01-06 08:01:55.83	37.97	18.70	-58.4	-77.4	3.8	7.44e-01	0	26	104	16252928	84	34215
2026-01-06 08:01:56.82	37.71	18.75	-58.5	-77.7	3.8	7.45e-01	0	26	104	16252928	84	35611
2026-01-06 08:01:57.80	37.46	18.80	-58.4	-77.6	3.8	7.45e-01	0	26	104	16252928	84	35175
2026-01-06 08:01:58.79	37.20	18.85	-58.4	-77.7	3.8	7.44e-01	0	26	104	16252928	84	35337
2026-01-06 08:01:59.78	36.94	18.90	-58.4	-77.4	3.8	7.48e-01	0	26	104	16252928	84	34467
2026-01-06 08:02:00.78	36.67	18.94	-58.5	-77.7	3.8	7.44e-01	0	26	104	16252928	84	35522
2026-01-06 08:02:01.77	36.41	18.99	-58.4	-77.6	3.8	7.48e-01	0	26	104	16252928	84	35220
2026-01-06 08:02:02.76	36.14	19.04	-58.4	-77.7	3.8	7.47e-01	0	26	104	16252928	84	35468
2026-01-06 08:02:03.76	35.88	19.08	-58.4	-77.5	3.8	7.48e-01	0	26	104	16252928	84	34527
2026-01-06 08:02:04.75	35.61	19.13	-58.5	-77.7	3.8	7.47e-01	0	26	104	16252928	84	35356
2026-01-06 08:02:05.73	35.35	19.17	-58.4	-77.7	3.8	7.48e-01	0	26	104	16252928	84	35346
2026-01-06 08:02:06.72	35.08	19.22	-58.4	-77.7	3.8	7.48e-01	0	26	104	16252928	84	35400
2026-01-06 08:02:07.70	34.82	19.26	-58.4	-77.6	3.8	7.44e-01	0	26	104	16252928	84	34907
2026-01-06 08:02:08.70	34.54	19.30	-58.5	-77.6	3.8	7.46e-01	0	26	104	16252928	84	35137
2026-01-06 08:02:09.70	34.27	19.35	-58.4	-77.7	3.8	7.47e-01	0	26	104	16252928	84	35565
2026-01-06 08:02:10.69	34.00	19.39	-58.5	-77.7	3.8	7.48e-01	0	26	104	16252928	84	35380
2026-01-06 08:02:11.68	33.73	19.43	-58.4	-77.6	3.8	7.47e-01	0	26	104	16252928	84	34986
2026-01-06 08:02:12.68	33.46	19.47	-58.5	-77.6	3.8	7.47e-01	0	26	104	16252928	84	35282
2026-01-06 08:02:13.67	33.18	19.51	-58.5	-77.7	3.8	7.45e-01	0	26	104	16252928	84	35576
2026-01-06 08:02:14.67	32.91	19.55	-58.5	-77.7	3.8	7.48e-01	0	26	104	16252928	84	35583
2026-01-06 08:02:15.67	32.63	19.59	-58.4	-77.6	3.8	7.48e-01	0	26	104	16252928	84	34969
2026-01-06 08:02:16.66	32.35	19.63	-58.5	-77.6	3.8	7.44e-01	0	26	104	16252928	84	35016
2026-01-06 08:02:17.66	32.08	19.67	-58.5	-77.8	3.8	7.46e-01	0	26	104	16252928	84	35724
2026-01-06 08:02:18.65	31.80	19.70	-58.5	-77.7	3.8	7.50e-01	0	26	104	16252928	84	35524
2026-01-06 08:02:19.64	31.52	19.74	-58.5	-77.7	3.8	7.48e-01	0	26	104	16252928	84	35301
2026-01-06 08:02:20.63	31.24	19.78	-58.5	-77.6	3.8	7.44e-01	0	26	104	16252928	84	34952
2026-01-06 08:02:21.63	30.96	19.81	-58.5	-77.8	3.8	7.43e-01	0	26	104	16252928	84	35793
2026-01-06 08:02:22.62	30.68	19.85	-58.5	-77.7	3.8	7.50e-01	0	26	104	16252928	84	35530
2026-01-06 08:02:23.62	30.40	19.88	-58.5	-77.7	3.8	7.49e-01	0	26	104	16252928	84	35324
2026-01-06 08:02:24.62	30.12	19.92	-58.5	-77.6	3.8	7.45e-01	0	26	104	16252928	84	35019
2026-01-06 08:02:25.61	29.84	19.95	-58.5	-77.8	3.8	7.49e-01	0	26	104	16252928	84	35753
2026-01-06 08:02:26.61	29.55	19.98	-58.5	-77.7	3.8	7.46e-01	0	26	104	16252928	84	35537
2026-01-06 08:02:27.60	29.27	20.01	-58.5	-77.7	3.8	7.48e-01	0	26	104	16252928	84	35432
2026-01-06 08:02:28.59	28.99	20.04	-58.5	-77.5	3.8	7.45e-01	0	26	104	16252928	84	34809
2026-01-06 08:02:29.59	28.70	20.07	-58.5	-77.8	3.8	7.46e-01	0	26	104	16252928	84	35731
2026-01-06 08:02:30.59	28.41	20.10	-58.5	-77.7	3.8	7.46e-01	0	26	104	16252928	84	35410
2026-01-06 08:02:31.58	28.13	20.13	-58.5	-77.7	3.8	7.44e-01	0	26	104	16252928	84	35468
2026-01-06 08:02:32.57	27.84	20.16	-58.5	-77.5	3.8	7.46e-01	0	26	104	16252928	84	34861
2026-01-06 08:02:33.57	27.55	20.19	-58.5	-77.8	3.8	7.46e-01	0	26	104	16252928	84	35873
2026-01-06 08:02:34.56	27.27	20.22	-58.5	-77.7	3.8	7.46e-01	0	26	104	16252928	84	35573
2026-01-06 08:02:35.55	26.98	20.24	-58.5	-77.7	3.8	7.46e-01	0	26	104	16252928	84	35563
2026-01-06 08:02:36.54	26.69	20.27	-58.4	-77.5	3.8	7.47e-01	0	26	104	16252928	84	34634
2026-01-06 08:02:37.53	26.40	20.29	-58.5	-77.8	3.8	7.47e-01	0	26	104	16252928	84	35850
2026-01-06 08:02:38.52	26.12	20.32	-58.5	-77.7	3.8	7.46e-01	0	26	104	16252928	84	35450
2026-01-06 08:02:39.51	25.83	20.34	-58.5	-77.8	3.8	7.44e-01	0	26	104	16252928	84	35722
2026-01-06 08:02:40.50	25.54	20.36	-58.5	-77.4	3.8	7.45e-01	0	26	104	16252928	84	34404
2026-01-06 08:02:41.50	25.24	20.38	-58.5	-77.7	3.8	7.45e-01	0	26	104	16252928	84	35663
2026-01-06 08:02:42.49	24.95	20.41	-58.5	-77.7	3.8	7.48e-01	0	26	104	16252928	84	35372
2026-01-06 08:02:43.48	24.66	20.43	-58.5	-77.8	3.8	7.45e-01	0	26	104	16252928	84	35725
2026-01-06 08:02:44.48	24.37	20.45	-58.5	-77.4	3.8	7.47e-01	0	26	104	16252928	84	34363
2026-01-06 08:02:45.47	24.08	20.46	-58.5	-77.7	3.8	7.45e-01	0	26	104	16252928	84	35688
2026-01-06 08:02:46.47	23.78	20.48	-58.5	-77.7	3.8	7.47e-01	0	26	104	16252928	84	35347
2026-01-06 08:02:47.47	23.49	20.50	-58.5	-77.7	3.8	7.47e-01	0	26	104	16252928	84	35672
2026-01-06 08:02:48.46	23.19	20.52	-58.5	-77.5	3.8	7.43e-01	0	26	104	16252928	84	34542
2026-01-06 08:02:49.45	22.90	20.53	-58.5	-77.7	3.8	7.47e-01	0	26	104	16252928	84	35538
2026-01-06 08:02:50.43	22.61	20.55	-58.5	-77.7	3.8	7.44e-01	0	26	104	16252928	84	35390
2026-01-06 08:02:51.43	22.31	20.56	-58.5	-77.8	3.8	7.47e-01	0	26	104	16252928	84	35923
2026-01-06 08:02:52.42	22.02	20.58	-58.5	-77.4	3.8	7.44e-01	0	26	104	16252928	84	34306
2026-01-06 08:02:53.41	21.73	20.59	-58.5	-77.7	3.8	7.47e-01	0	26	104	16252928	84	35437
2026-01-06 08:02:54.41	21.43	20.60	-58.5	-77.7	3.8	7.46e-01	0	26	104	16252928	84	35405
2026-01-06 08:02:55.40	21.14	20.61	-58.5	-77.8	3.8	7.44e-01	0	26	104	16252928	84	35938
2026-01-06 08:02:56.38	20.84	20.62	-58.5	-77.5	3.8	7.46e-01	0	26	104	16252928	84	34541
2026-01-06 08:02:57.37	20.55	20.63	-58.5	-77.7	3.8	7.46e-01	0	26	104	16252928	84	35455
2026-01-06 08:02:58.37	20.25	20.64	-58.5	-77.7	3.8	7.45e-01	0	26	104	16252928	84	35417
2026-01-06 08:02:59.36	19.95	20.65	-58.6	-77.8	3.8	7.46e-01	0	26	104	16252928	84	36086
2026-01-06 08:03:00.36	19.66	20.66	-58.5	-77.5	3.8	7.45e-01	0	26	104	16252928	84	34488
2026-01-06 08:03:01.36	19.36	20.67	-58.5	-77.7	3.8	7.48e-01	0	26	104	16252928	84	35328
2026-01-06 08:03:02.35	19.06	20.67	-58.5	-77.7	3.8	7.47e-01	0	26	104	16252928	84	35504
2026-01-06 08:03:03.35	18.76	20.68	-58.5	-77.8	3.8	7.48e-01	0	26	104	16252928	84	36076
2026-01-06 08:03:04.34	18.47	20.68	-58.5	-77.4	3.8	7.47e-01	0	26	104	16252928	84	34335
2026-01-06 08:03:05.33	18.17	20.69	-58.5	-77.7	3.8	7.49e-01	0	26	104	16252928	84	35329
2026-01-06 08:03:06.33	17.87	20.69	-58.5	-77.7	3.8	7.43e-01	0	26	104	16252928	84	35506
2026-01-06 08:03:07.32	17.58	20.69	-58.5	-77.8	3.8	7.46e-01	0	26	104	16252928	84	36074
2026-01-06 08:03:08.32	17.28	20.69	-58.5	-77.4	3.8	7.47e-01	0	26	104	16252928	84	34440
2026-01-06 08:03:09.31	16.98	20.69	-58.5	-77.7	3.8	7.51e-01	0	26	104	16252928	84	35305
2026-01-06 08:03:10.30	16.68	20.69	-58.5	-77.7	3.8	7.44e-01	0	26	104	16252928	84	35420
2026-01-06 08:03:11.30	16.38	20.69	-58.5	-77.9	3.8	7.47e-01	0	26	104	16252928	84	36120
2026-01-06 08:03:12.29	16.09	20.69	-58.5	-77.4	3.9	7.49e-01	0	26	104	16252928	84	34477
2026-01-06 08:03:13.29	15.79	20.69	-58.5	-77.7	3.8	7.46e-01	0	26	104	16252928	84	35408
2026-01-06 08:03:14.28	15.49	20.68	-58.5	-77.7	3.8	7.46e-01	0	26	104	16252928	84	35498
2026-01-06 08:03:15.28	15.19	20.68	-58.6	-77.8	3.8	7.47e-01	0	26	104	16252928	84	36096
2026-01-06 08:03:16.27	14.90	20.67	-58.5	-77.4	3.8	7.46e-01	0	26	104	16252928	84	34375
2026-01-06 08:03:17.27	14.60	20.67	-58.5	-77.7	3.8	7.47e-01	0	26	104	16252928	84	35376
2026-01-06 08:03:18.26	14.30	20.66	-58.5	-77.7	3.8	7.47e-01	0	26	104	16252928	84	35581
2026-01-06 08:03:19.25	14.01	20.66	-58.5	-77.9	3.8	7.45e-01	0	26	104	16252928	84	36113
2026-01-06 08:03:20.24	13.71	20.65	-58.5	-77.4	3.8	7.48e-01	0	26	104	16252928	84	34404
2026-01-06 08:03:21.24	13.41	20.64	-58.5	-77.7	3.9	7.46e-01	0	26	104	16252928	84	35622
2026-01-06 08:03:22.23	13.12	20.63	-58.5	-77.7	3.8	7.47e-01	0	26	104	16252928	84	35626
2026-01-06 08:03:23.23	12.82	20.62	-58.6	-77.9	3.8	7.47e-01	0	26	104	16252928	84	36141
2026-01-06 08:03:24.23	12.52	20.61	-58.5	-77.4	3.8	7.47e-01	0	26	104	16252928	84	34242
2026-01-06 08:03:25.22	12.23	20.60	-58.5	-77.7	3.8	7.47e-01	0	26	104	16252928	84	35584
2026-01-06 08:03:26.23	11.93	20.58	-58.5	-77.7	3.8	7.48e-01	0	26	104	16252928	84	35659
2026-01-06 08:03:27.22	11.63	20.57	-58.6	-77.9	3.8	7.46e-01	0	26	104	16252928	84	36135
2026-01-06 08:03:28.22	11.34	20.56	-58.5	-77.4	3.9	7.44e-01	0	26	104	16252928	84	34335
2026-01-06 08:03:29.21	11.05	20.54	-58.6	-77.8	3.8	7.45e-01	0	26	104	16252928	84	35763
2026-01-06 08:03:30.19	10.75	20.53	-58.5	-77.7	3.8	7.48e-01	0	26	104	16252928	84	35638
2026-01-06 08:03:31.19	10.46	20.51	-58.6	-77.9	3.8	7.44e-01	0	26	104	16252928	84	36110
2026-01-06 08:03:32.18	10.17	20.49	-58.5	-77.4	3.8	7.46e-01	0	26	104	16252928	84	34388
2026-01-06 08:03:33.18	9.87	20.47	-58.6	-77.8	3.8	7.48e-01	0	26	104	16252928	84	35956
2026-01-06 08:03:34.17	9.58	20.46	-58.6	-77.7	3.9	7.46e-01	0	26	104	16252928	84	35688
2026-01-06 08:03:35.17	9.29	20.44	-58.6	-77.9	3.8	7.45e-01	0	26	104	16252928	84	36137
2026-01-06 08:03:36.16	9.00	20.42	-58.5	-77.4	3.8	7.46e-01	0	26	104	16252928	84	34163
2026-01-06 08:03:37.15	8.71	20.39	-58.6	-77.8	3.8	7.49e-01	0	26	104	16252928	84	35870
2026-01-06 08:03:38.15	8.41	20.37	-58.5	-77.8	3.8	7.44e-01	0	26	104	16252928	84	35710
2026-01-06 08:03:39.14	8.12	20.35	-58.6	-77.9	3.8	7.50e-01	0	26	104	16252928	84	36117
2026-01-06 08:03:40.14	7.83	20.33	-58.5	-77.4	3.8	7.49e-01	0	26	104	16252928	84	34100
2026-01-06 08:03:41.13	7.54	20.30	-58.6	-77.8	3.8	7.47e-01	0	26	104	16252928	84	35919
2026-01-06 08:03:42.12	7.25	20.28	-58.5	-77.8	3.8	7.45e-01	0	26	104	16252928	84	35826
2026-01-06 08:03:43.11	6.97	20.25	-58.6	-77.9	3.8	7.48e-01	0	26	104	16252928	84	36243
2026-01-06 08:03:44.11	6.68	20.23	-58.5	-77.4	3.8	7.48e-01	0	26	104	16252928	84	34182
2026-01-06 08:03:45.10	6.39	20.20	-58.6	-77.9	3.8	7.48e-01	0	26	104	16252928	84	36132
2026-01-06 08:03:46.09	6.10	20.18	-58.5	-77.8	3.8	7.48e-01	0	26	104	16252928	84	35796
2026-01-06 08:03:47.09	5.81	20.15	-58.6	-77.9	3.8	7.47e-01	0	26	104	16252928	84	36180
2026-01-06 08:03:48.08	5.53	20.12	-58.5	-77.4	3.8	7.51e-01	0	26	104	16252928	84	34238
2026-01-06 08:03:49.08	5.24	20.09	-58.6	-77.8	3.8	7.46e-01	0	26	104	16252928	84	36071
2026-01-06 08:03:50.07	4.96	20.06	-58.5	-77.8	3.8	7.48e-01	0	26	104	16252928	84	35860
2026-01-06 08:03:51.07	4.67	20.03	-58.6	-77.9	3.8	7.48e-01	0	26	104	16252928	84	36163
2026-01-06 08:03:52.06	4.39	20.00	-58.5	-77.3	3.8	7.46e-01	0	26	104	16252928	84	33915
2026-01-06 08:03:53.06	4.11	19.97	-58.5	-77.3	3.8	7.47e-01	0	26	104	16252928	84	33998
2026-01-06 08:03:54.05	3.82	19.93	-58.5	-77.2	3.8	7.44e-01	0	26	104	16252928	84	33634
2026-01-06 08:03:55.05	3.54	19.90	-58.5	-77.2	3.8	7.48e-01	0	26	104	16252928	84	33675
2026-01-06 08:03:56.04	3.26	19.87	-58.5	-77.4	3.8	7.48e-01	0	26	104	16252928	84	34132
2026-01-06 08:03:57.03	2.98	19.83	-58.5	-77.3	3.8	7.44e-01	0	26	104	16252928	84	33877
2026-01-06 08:03:58.02	2.70	19.80	-58.6	-77.9	3.8	7.47e-01	0	26	104	16252928	84	36175
2026-01-06 08:03:59.01	2.42	19.76	-58.6	-77.8	3.8	7.45e-01	0	26	104	16252928	84	35960
2026-01-06 08:04:00.00	2.15	19.72	-58.6	-77.9	3.8	7.42e-01	0	26	104	16252928	84	36481
2026-01-06 08:04:00.99	1.87	19.69	-58.5	-77.3	3.8	7.45e-01	0	26	104	16252928	84	34011
2026-01-06 08:04:01.99	1.59	19.65	-58.5	-77.3	3.8	7.49e-01	0	26	104	16252928	84	34045
2026-01-06 08:04:02.98	1.32	19.61	-58.5	-77.3	3.8	7.48e-01	0	26	104	16252928	84	33705
2026-01-06 08:04:03.97	1.04	19.57	-58.6	-77.7	3.8	7.47e-01	0	26	104	16252928	84	35629
2026-01-06 08:04:04.97	0.77	19.53	-58.5	-77.3	3.8	7.48e-01	0	26	104	16252928	84	33837
2026-01-06 08:04:05.96	0.49	19.49	-58.6	-77.9	3.8	7.44e-01	0	26	104	16252928	84	36119
2026-01-06 08:04:06.95	0.22	19.45	-58.6	-77.9	3.8	7.44e-01	0	26	104	16252928	84	36128
2026-01-06 08:04:07.94	359.95	19.41	-58.6	-77.9	3.8	7.51e-01	0	26	104	16252928	84	36347
2026-01-06 08:04:08.94	359.68	19.37	-58.5	-77.4	3.8	7.45e-01	0	26	104	16252928	84	34166
2026-01-06 08:04:09.93	359.41	19.33	-58.5	-77.3	3.8	7.49e-01	0	26	104	16252928	84	33956
2026-01-06 08:04:10.92	359.14	19.28	-58.5	-77.3	3.8	7.47e-01	0	26	104	16252928	84	33865
2026-01-06 08:04:11.92	358.87	19.24	-58.5	-77.7	3.8	7.42e-01	0	26	104	16252928	84	35657
2026-01-06 08:04:12.91	358.60	19.20	-58.4	-77.2	3.8	7.47e-01	0	26	104	16252928	84	33642
2026-01-06 08:04:13.91	358.33	19.15	-58.5	-77.8	3.8	7.45e-01	0	26	104	16252928	84	36009
2026-01-06 08:04:14.90	358.06	19.11	-58.6	-77.9	3.8	7.43e-01	0	26	104	16252928	84	36158
2026-01-06 08:04:15.90	357.80	19.06	-58.5	-77.8	3.8	7.43e-01	0	26	104	16252928	84	36054
2026-01-06 08:04:16.89	357.53	19.01	-58.5	-77.3	3.8	7.45e-01	0	26	104	16252928	84	33797
2026-01-06 08:04:17.88	357.27	18.97	-58.5	-77.2	3.8	7.46e-01	0	26	104	16252928	84	33606
2026-01-06 08:04:18.87	357.01	18.92	-58.4	-77.2	3.8	7.48e-01	0	26	104	16252928	84	33636
2026-01-06 08:04:19.86	356.74	18.87	-58.5	-77.7	3.8	7.49e-01	0	26	104	16252928	84	35644
2026-01-06 08:04:20.85	356.48	18.83	-58.4	-77.3	3.8	7.48e-01	0	26	104	16252928	84	33974
2026-01-06 08:04:21.85	356.22	18.78	-58.5	-77.8	3.8	7.46e-01	0	26	104	16252928	84	36013
2026-01-06 08:04:22.84	355.96	18.73	-58.5	-77.9	3.8	7.43e-01	0	26	104	16252928	84	36175
2026-01-06 08:04:23.82	355.71	18.68	-58.5	-77.9	3.8	7.44e-01	0	26	104	16252928	84	36251
2026-01-06 08:04:24.81	355.45	18.63	-58.5	-77.8	3.8	7.46e-01	0	26	104	16252928	84	36094
2026-01-06 08:04:25.80	355.19	18.58	-58.5	-77.3	3.8	7.47e-01	0	26	104	16252928	84	33982
2026-01-06 08:04:26.79	354.94	18.53	-58.5	-77.9	3.8	7.43e-01	0	26	104	16252928	84	36297
2026-01-06 08:04:27.79	354.68	18.48	-58.5	-77.9	3.8	7.49e-01	0	26	104	16252928	84	36142
2026-01-06 08:04:28.78	354.43	18.42	-58.5	-77.8	3.8	7.46e-01	0	26	104	16252928	84	35995
2026-01-06 08:04:29.78	354.17	18.37	-58.4	-77.4	3.8	7.45e-01	0	26	104	16252928	84	34306
2026-01-06 08:04:30.77	353.92	18.32	-58.5	-77.9	3.8	7.47e-01	0	26	104	16252928	84	36255
2026-01-06 08:04:31.76	353.67	18.27	-58.5	-77.8	3.8	7.47e-01	0	26	104	16252928	84	36064
2026-01-06 08:04:32.76	353.42	18.21	-58.5	-77.8	3.9	7.46e-01	0	26	104	16252928	84	35946
2026-01-06 08:04:33.75	353.17	18.16	-58.4	-77.4	3.8	7.47e-01	0	26	104	16252928	84	34154
2026-01-06 08:04:34.75	352.92	18.10	-58.5	-77.9	3.8	7.44e-01	0	26	104	16252928	84	36121
2026-01-06 08:04:35.75	352.67	18.05	-58.5	-77.8	3.8	7.42e-01	0	26	104	16252928	84	35721
2026-01-06 08:04:36.73	352.43	17.99	-58.5	-77.8	3.8	7.42e-01	0	26	104	16252928	84	35874
2026-01-06 08:04:37.72	352.18	17.94	-58.4	-77.4	3.8	7.47e-01	0	26	104	16252928	84	34347
2026-01-06 08:04:38.72	351.94	17.88	-58.5	-77.9	3.8	7.47e-01	0	26	104	16252928	84	36247
2026-01-06 08:04:39.71	351.69	17.83	-58.5	-77.7	3.8	7.46e-01	0	26	104	16252928	84	35446
2026-01-06 08:04:40.69	351.45	17.77	-58.5	-77.8	3.8	7.51e-01	0	26	104	16252928	84	35892
2026-01-06 08:04:41.68	351.21	17.71	-58.4	-77.5	3.8	7.46e-01	0	26	104	16252928	84	34517
2026-01-06 08:04:42.68	350.97	17.66	-58.5	-77.9	3.8	7.49e-01	0	26	104	16252928	84	36124
2026-01-06 08:04:43.67	350.73	17.60	-58.4	-77.6	3.8	7.49e-01	0	26	104	16252928	84	35250
2026-01-06 08:04:44.67	350.49	17.54	-58.5	-77.8	3.8	7.45e-01	0	26	104	16252928	84	35762
2026-01-06 08:04:45.66	350.25	17.48	-58.4	-77.4	3.8	7.47e-01	0	26	104	16252928	84	34447
2026-01-06 08:04:46.66	350.02	17.42	-58.5	-77.9	3.8	7.42e-01	0	26	104	16252928	84	36147
2026-01-06 08:04:47.64	349.78	17.36	-58.4	-77.5	3.9	7.47e-01	0	26	104	16252928	84	34822
2026-01-06 08:04:48.64	349.55	17.31	-58.4	-77.8	3.8	7.45e-01	0	26	104	16252928	84	35710
2026-01-06 08:04:49.63	349.31	17.25	-58.4	-77.5	3.8	7.46e-01	0	26	104	16252928	84	34746
2026-01-06 08:04:50.62	349.08	17.19	-58.5	-77.9	3.8	7.51e-01	0	26	104	16252928	84	36153
2026-01-06 08:04:51.61	348.85	17.13	-58.4	-77.6	3.8	7.45e-01	0	26	104	16252928	84	34924
2026-01-06 08:04:52.61	348.62	17.06	-58.4	-77.7	3.8	7.47e-01	0	26	104	16252928	84	35514
2026-01-06 08:04:53.61	348.39	17.00	-58.4	-77.5	3.8	7.48e-01	0	26	104	16252928	84	34773
2026-01-06 08:04:54.59	348.16	16.94	-58.5	-77.8	3.8	7.48e-01	0	26	104	16252928	84	36047
2026-01-06 08:04:55.58	347.93	16.88	-58.4	-77.5	3.8	7.43e-01	0	26	104	16252928	84	34674
2026-01-06 08:04:56.57	347.71	16.82	-58.4	-77.8	3.8	7.47e-01	0	26	104	16252928	84	35735
2026-01-06 08:04:57.56	347.48	16.76	-58.4	-77.6	3.8	7.48e-01	0	26	104	16252928	84	35175
2026-01-06 08:04:58.55	347.26	16.70	-58.5	-77.8	3.8	7.48e-01	0	26	104	16252928	84	35993
2026-01-06 08:04:59.55	347.03	16.63	-58.4	-77.5	3.8	7.45e-01	0	26	104	16252928	84	34842
2026-01-06 08:05:00.54	346.81	16.57	-58.4	-77.7	3.8	7.45e-01	0	26	104	16252928	84	35585
2026-01-06 08:05:01.53	346.59	16.51	-58.4	-77.6	3.8	7.47e-01	0	26	104	16252928	84	35268
2026-01-06 08:05:02.53	346.37	16.45	-58.5	-77.8	3.8	7.48e-01	0	26	104	16252928	84	36065
2026-01-06 08:05:03.52	346.15	16.38	-58.4	-77.6	3.8	7.44e-01	0	26	104	16252928	84	35271
2026-01-06 08:05:04.52	345.93	16.32	-58.4	-77.7	3.8	7.46e-01	0	26	104	16252928	84	35551
2026-01-06 08:05:05.50	345.71	16.25	-58.4	-77.6	3.8	7.47e-01	0	26	104	16252928	84	35273
2026-01-06 08:05:06.50	345.49	16.19	-58.5	-77.8	3.8	7.49e-01	0	26	104	16252928	84	36035
2026-01-06 08:05:07.49	345.28	16.13	-58.4	-77.6	3.8	7.45e-01	0	26	104	16252928	84	35172
2026-01-06 08:05:08.47	345.07	16.06	-58.4	-77.7	3.8	7.46e-01	0	26	104	16252928	84	35328
2026-01-06 08:05:09.46	344.85	16.00	-58.4	-77.7	3.8	7.44e-01	0	26	104	16252928	84	35405
2026-01-06 08:05:10.45	344.64	15.93	-58.4	-77.8	3.8	7.45e-01	0	26	104	16252928	84	35901
2026-01-06 08:05:11.44	344.43	15.87	-58.4	-77.7	3.8	7.46e-01	0	26	104	16252928	84	35555
2026-01-06 08:05:12.43	344.22	15.80	-58.4	-77.6	3.8	7.47e-01	0	26	104	16252928	84	35169
2026-01-06 08:05:13.41	344.01	15.74	-58.4	-77.7	3.8	7.49e-01	0	26	104	16252928	84	35334
2026-01-06 08:05:14.41	343.80	15.67	-58.4	-77.8	3.8	7.49e-01	0	26	104	16252928	84	35874
2026-01-06 08:05:15.40	343.59	15.61	-58.4	-77.7	3.8	7.46e-01	0	26	104	16252928	84	35675
2026-01-06 08:05:16.39	343.39	15.54	-58.4	-77.6	3.8	7.48e-01	0	27	104	16252928	84	35114
2026-01-06 08:05:17.39	343.18	15.48	-58.4	-77.7	3.8	7.49e-01	0	26	104	16252928	84	35554
2026-01-06 08:05:18.39	342.97	15.41	-58.4	-77.8	3.8	7.46e-01	0	26	104	16252928	84	35866
2026-01-06 08:05:19.38	342.77	15.34	-58.4	-77.7	3.8	7.45e-01	0	26	104	16252928	84	35681
2026-01-06 08:05:20.38	342.57	15.28	-58.3	-77.6	3.8	7.45e-01	0	26	104	16252928	84	34881
2026-01-06 08:05:21.38	342.36	15.21	-58.4	-77.7	3.8	7.48e-01	0	26	104	16252928	84	35436
2026-01-06 08:05:22.37	342.16	15.14	-58.4	-77.8	3.8	7.45e-01	0	26	104	16252928	84	35823
2026-01-06 08:05:23.36	341.96	15.07	-58.4	-77.7	3.8	7.45e-01	0	26	104	16252928	84	35660
2026-01-06 08:05:24.36	341.76	15.01	-58.3	-77.6	3.8	7.46e-01	0	26	104	16252928	84	35026
2026-01-06 08:05:25.36	341.56	14.94	-58.4	-77.7	3.8	7.46e-01	0	26	104	16252928	84	35395
2026-01-06 08:05:26.34	341.37	14.87	-58.4	-77.8	3.8	7.44e-01	0	26	104	16252928	84	35760
2026-01-06 08:05:27.34	341.17	14.80	-58.4	-77.7	3.8	7.47e-01	0	26	104	16252928	84	35686
2026-01-06 08:05:28.34	340.97	14.74	-58.3	-77.5	3.8	7.44e-01	0	26	104	16252928	84	34765
2026-01-06 08:05:29.33	340.78	14.67	-58.3	-77.7	3.8	7.46e-01	0	26	104	16252928	84	35369
2026-01-06 08:05:30.32	340.59	14.60	-58.4	-77.7	3.8	7.47e-01	0	26	104	16252928	84	35677
2026-01-06 08:05:31.30	340.40	14.53	-58.4	-77.7	3.8	7.45e-01	0	26	104	16252928	84	35526
2026-01-06 08:05:32.29	340.21	14.47	-58.3	-77.4	3.8	7.47e-01	0	26	104	16252928	84	34419
2026-01-06 08:05:33.28	340.02	14.40	-58.3	-77.7	3.8	7.49e-01	0	26	104	16252928	84	35368
2026-01-06 08:05:34.27	339.83	14.33	-58.4	-77.7	3.8	7.41e-01	0	26	104	16252928	84	35556
2026-01-06 08:05:35.26	339.64	14.26	-58.4	-77.6	3.8	7.46e-01	0	26	104	16252928	84	35071
2026-01-06 08:05:36.25	339.45	14.20	-58.3	-77.4	3.8	7.46e-01	0	26	104	16252928	84	34431
2026-01-06 08:05:37.25	339.26	14.13	-58.3	-77.7	3.8	7.42e-01	0	26	104	16252928	84	35297
2026-01-06 08:05:38.25	339.08	14.06	-58.3	-77.7	3.8	7.45e-01	0	26	104	16252928	84	35574
2026-01-06 08:05:39.25	338.89	13.99	-58.3	-77.5	3.8	7.46e-01	0	26	104	16252928	84	34746
2026-01-06 08:05:40.24	338.71	13.92	-58.3	-77.5	3.8	7.43e-01	0	26	104	16252928	84	34538
2026-01-06 08:05:41.23	338.52	13.85	-58.3	-77.6	3.8	7.47e-01	0	26	104	16252928	84	35192
2026-01-06 08:05:42.22	338.34	13.78	-58.3	-77.7	3.8	7.44e-01	0	26	104	16252928	84	35516
2026-01-06 08:05:43.21	338.16	13.71	-58.3	-77.5	3.8	7.46e-01	0	26	104	16252928	84	34710
2026-01-06 08:05:44.20	337.98	13.65	-58.3	-77.4	3.8	7.48e-01	0	26	104	16252928	84	34374
2026-01-06 08:05:45.19	337.80	13.58	-58.3	-77.6	3.9	7.48e-01	0	26	104	16252928	84	35177
2026-01-06 08:05:46.18	337.63	13.51	-58.3	-77.7	3.8	7.52e-01	0	26	104	16252928	84	35546
2026-01-06 08:05:47.17	337.45	13.44	-58.3	-77.3	3.8	7.46e-01	0	26	104	16252928	84	33880
2026-01-06 08:05:48.16	337.27	13.37	-58.3	-77.5	3.8	7.46e-01	0	26	104	16252928	84	34619
2026-01-06 08:05:49.16	337.10	13.30	-58.3	-77.2	3.8	7.49e-01	0	26	104	16252928	84	33423
2026-01-06 08:05:50.14	336.92	13.23	-58.3	-77.2	3.8	7.47e-01	0	26	104	16252928	84	33674
2026-01-06 08:05:51.14	336.75	13.16	-58.3	-77.2	3.8	7.46e-01	0	27	104	16252928	84	33600
2026-01-06 08:05:52.13	336.57	13.09	-58.3	-77.6	3.8	7.45e-01	0	27	104	16252928	84	35038
2026-01-06 08:05:53.12	336.40	13.02	-58.3	-77.2	3.8	7.44e-01	0	26	104	16252928	84	33643
2026-01-06 08:05:54.11	336.23	12.96	-58.2	-77.4	3.8	7.44e-01	0	26	104	16252928	84	34317
2026-01-06 08:05:55.11	336.06	12.89	-58.3	-77.6	3.8	7.46e-01	0	26	104	16252928	84	34970
2026-01-06 08:05:56.10	335.89	12.82	-58.3	-77.6	3.8	7.49e-01	0	26	104	16252928	84	35199
2026-01-06 08:05:57.10	335.72	12.75	-58.3	-77.2	3.8	7.46e-01	0	27	104	16252928	84	33530
2026-01-06 08:05:58.10	335.55	12.68	-58.2	-77.4	3.8	7.45e-01	0	26	104	16252928	84	34288
2026-01-06 08:05:59.09	335.39	12.61	-58.2	-77.5	3.8	7.43e-01	0	26	104	16252928	84	34858
2026-01-06 08:06:00.08	335.22	12.54	-58.3	-77.6	3.8	7.44e-01	0	26	104	16252928	84	35006
2026-01-06 08:06:01.08	335.05	12.47	-58.2	-77.2	3.8	7.44e-01	0	26	104	16252928	84	33407
2026-01-06 08:06:02.07	334.89	12.40	-58.2	-77.4	3.8	7.45e-01	0	26	104	16252928	84	34349
2026-01-06 08:06:03.07	334.72	12.33	-58.2	-77.6	3.8	7.46e-01	0	26	104	16252928	84	34900
2026-01-06 08:06:04.06	334.56	12.26	-58.2	-77.5	3.8	7.49e-01	0	26	104	16252928	84	34714
2026-01-06 08:06:05.05	334.40	12.19	-58.2	-77.2	3.8	7.46e-01	0	26	104	16252928	84	33379
2026-01-06 08:06:06.05	334.24	12.12	-58.2	-77.4	3.9	7.47e-01	0	26	104	16252928	84	34314
2026-01-06 08:06:07.05	334.08	12.05	-58.2	-77.5	3.8	7.43e-01	0	26	104	16252928	84	34708
2026-01-06 08:06:08.04	333.92	11.98	-58.2	-76.8	3.8	7.47e-01	0	27	104	16252928	84	32076
2026-01-06 08:06:09.03	333.76	11.91	-58.2	-74.6	4.0	7.40e-01	0	26	104	16252928	84	24972
2026-01-06 08:06:10.02	333.60	11.85	-58.2	-76.4	3.8	7.46e-01	0	26	104	16252928	84	30592
2026-01-06 08:06:11.01	333.45	11.78	-58.2	-76.6	3.8	7.46e-01	0	26	104	16252928	84	31282
2026-01-06 08:06:12.00	333.29	11.71	-58.2	-74.3	4.1	7.36e-01	0	26	104	16252928	84	24129
2026-01-06 08:06:12.99	333.14	11.64	-58.2	-74.5	3.9	7.41e-01	0	26	104	16252928	84	24689
2026-01-06 08:06:13.99	332.98	11.57	-58.2	-74.6	3.9	7.41e-01	0	26	104	16252928	84	24877
2026-01-06 08:06:14.98	332.83	11.50	-58.2	-74.1	4.1	7.35e-01	0	26	104	16252928	84	23534
2026-01-06 08:06:15.98	332.67	11.43	-58.2	-74.5	4.1	7.39e-01	0	26	104	16252928	84	24636
2026-01-06 08:06:16.97	332.52	11.36	-58.2	-76.2	3.8	7.49e-01	0	26	104	16252928	84	29880
2026-01-06 08:06:17.96	332.37	11.29	-58.2	-77.0	3.8	7.44e-01	0	26	104	16252928	84	32686
2026-01-06 08:06:18.96	332.22	11.22	-58.2	-75.7	3.8	7.46e-01	0	26	104	16252928	84	28335
2026-01-06 08:06:19.96	332.07	11.15	-58.1	-76.7	3.9	7.48e-01	0	26	104	16252928	84	31753
2026-01-06 08:06:20.95	331.92	11.08	-58.1	-74.6	3.9	7.40e-01	0	27	104	16252928	84	24756
2026-01-06 08:06:21.94	331.77	11.02	-58.1	-74.5	4.1	7.39e-01	0	26	104	16252928	84	24490
2026-01-06 08:06:22.93	331.62	10.95	-58.1	-74.9	3.9	7.44e-01	0	26	104	16252928	84	25685
2026-01-06 08:06:23.92	331.48	10.88	-58.1	-77.5	3.8	7.42e-01	0	26	104	16252928	84	34540
2026-01-06 08:06:24.90	331.33	10.81	-58.1	-75.8	3.9	7.45e-01	0	26	104	16252928	84	28545
2026-01-06 08:06:25.89	331.19	10.74	-58.1	-77.2	3.8	7.45e-01	0	26	104	16252928	84	33377
2026-01-06 08:06:26.87	331.05	10.67	-58.2	-75.5	3.8	7.41e-01	0	26	104	16252928	84	27538
2026-01-06 08:06:27.87	330.90	10.60	-58.1	-77.0	3.9	7.42e-01	0	27	104	16252928	84	32876
2026-01-06 08:06:28.86	330.76	10.54	-58.1	-75.9	3.9	7.44e-01	0	26	104	16252928	84	28893
2026-01-06 08:06:29.85	330.62	10.47	-58.1	-75.0	4.0	7.40e-01	0	26	104	16252928	84	25866
2026-01-06 08:06:30.85	330.47	10.40	-58.1	-75.0	4.0	7.47e-01	0	26	104	16252928	84	25993
2026-01-06 08:06:31.84	330.33	10.33	-58.1	-77.4	3.8	7.46e-01	0	26	104	16252928	84	34445
2026-01-06 08:06:32.83	330.19	10.26	-58.0	-75.5	3.9	7.42e-01	0	26	104	16252928	84	27446
2026-01-06 08:06:33.83	330.05	10.19	-58.1	-77.0	3.8	7.45e-01	0	26	104	16252928	84	32925
2026-01-06 08:06:34.82	329.92	10.12	-58.1	-75.7	3.9	7.50e-01	0	26	104	16252928	84	28349
2026-01-06 08:06:35.81	329.78	10.06	-58.1	-77.3	3.8	7.47e-01	0	26	104	16252928	84	33835
2026-01-06 08:06:36.81	329.64	9.99	-58.0	-75.3	3.9	7.40e-01	0	26	104	16252928	84	27003
2026-01-06 08:06:37.79	329.51	9.92	-58.0	-74.9	3.9	7.38e-01	0	26	104	16252928	84	25754
2026-01-06 08:06:38.78	329.37	9.85	-58.0	-75.4	3.8	7.45e-01	0	27	104	16252928	84	27319
2026-01-06 08:06:39.77	329.24	9.78	-58.1	-75.5	3.9	7.45e-01	0	26	104	16252928	84	27582
2026-01-06 08:06:40.77	329.10	9.72	-58.0	-74.5	4.1	7.38e-01	0	26	104	16252928	84	24470
2026-01-06 08:06:41.76	328.97	9.65	-58.0	-77.0	3.8	7.48e-01	0	26	104	16252928	84	32801
2026-01-06 08:06:42.76	328.83	9.58	-58.1	-75.7	3.9	7.42e-01	0	26	104	16252928	84	28114
2026-01-06 08:06:43.75	328.70	9.51	-58.0	-77.4	3.8	7.45e-01	0	26	104	16252928	84	34088
2026-01-06 08:06:44.75	328.57	9.44	-58.0	-75.1	3.9	7.46e-01	0	26	104	16252928	84	26173
2026-01-06 08:06:45.74	328.44	9.38	-58.0	-74.8	3.9	7.41e-01	0	26	104	16252928	84	25373
2026-01-06 08:06:46.74	328.31	9.31	-58.0	-74.7	4.0	7.38e-01	0	26	104	16252928	84	25096
2026-01-06 08:06:47.72	328.18	9.24	-58.0	-77.3	3.8	7.45e-01	0	26	104	16252928	84	33786
2026-01-06 08:06:48.72	328.05	9.17	-57.9	-74.9	3.9	7.41e-01	0	26	104	16252928	84	25641
2026-01-06 08:06:49.71	327.92	9.11	-57.9	-76.7	3.8	7.45e-01	0	26	104	16252928	84	31737
2026-01-06 08:06:50.70	327.79	9.04	-58.0	-76.0	3.8	7.43e-01	0	26	104	16252928	84	29214
2026-01-06 08:06:51.70	327.67	8.97	-57.9	-77.1	3.8	7.47e-01	0	26	104	16252928	84	33286
2026-01-06 08:06:52.70	327.54	8.90	-57.9	-75.2	3.9	7.46e-01	0	26	104	16252928	84	26536
2026-01-06 08:06:53.69	327.41	8.84	-57.9	-75.0	3.8	7.42e-01	0	26	104	16252928	84	25939
2026-01-06 08:06:54.69	327.29	8.77	-57.9	-74.5	4.1	7.37e-01	0	26	104	16252928	84	24605
2026-01-06 08:06:55.69	327.16	8.70	-57.9	-76.9	3.8	7.47e-01	0	26	104	16252928	84	32307
2026-01-06 08:06:56.69	327.04	8.64	-57.9	-75.0	3.9	7.46e-01	0	26	104	16252928	84	25969
2026-01-06 08:06:57.68	326.91	8.57	-57.9	-76.4	3.8	7.45e-01	0	26	104	16252928	84	30575
2026-01-06 08:06:58.68	326.79	8.50	-58.0	-75.7	3.9	7.45e-01	0	26	104	16252928	84	28179
2026-01-06 08:06:59.67	326.67	8.43	-57.9	-77.2	3.8	7.46e-01	0	26	104	16252928	84	33402
2026-01-06 08:07:00.67	326.55	8.37	-57.8	-75.5	3.9	7.46e-01	0	26	104	16252928	84	27510
2026-01-06 08:07:01.65	326.43	8.30	-57.8	-75.0	3.9	7.44e-01	0	26	104	16252928	84	26120
2026-01-06 08:07:02.65	326.31	8.24	-57.8	-74.8	3.9	7.42e-01	0	26	104	16252928	84	25554
2026-01-06 08:07:03.65	326.19	8.17	-57.8	-77.1	3.8	7.44e-01	0	26	104	16252928	84	33003
2026-01-06 08:07:04.65	326.07	8.10	-57.8	-75.1	3.9	7.44e-01	0	26	104	16252928	84	26343
2026-01-06 08:07:05.64	325.95	8.04	-57.8	-75.9	3.9	7.48e-01	0	26	104	16252928	84	28964
2026-01-06 08:07:06.63	325.83	7.97	-57.9	-75.7	3.8	7.47e-01	0	26	104	16252928	84	28164
2026-01-06 08:07:07.63	325.71	7.90	-57.8	-76.7	3.7	7.48e-01	0	26	104	16252928	84	31743
2026-01-06 08:07:08.62	325.60	7.84	-57.8	-75.4	3.9	7.44e-01	0	27	104	16252928	84	27117
2026-01-06 08:07:09.61	325.48	7.77	-57.8	-74.8	3.9	7.42e-01	0	26	104	16252928	84	25445
2026-01-06 08:07:10.60	325.37	7.71	-57.7	-75.0	3.9	7.44e-01	0	26	104	16252928	84	26025
2026-01-06 08:07:11.60	325.25	7.64	-57.8	-75.4	3.9	7.47e-01	0	27	104	16252928	84	27361
2026-01-06 08:07:12.60	325.14	7.57	-57.9	-76.3	3.8	7.45e-01	0	26	104	16252928	84	30187
2026-01-06 08:07:13.59	325.02	7.51	-57.7	-76.1	3.8	7.49e-01	0	26	104	16252928	84	29587
2026-01-06 08:07:14.57	324.91	7.44	-57.7	-76.6	3.9	7.48e-01	0	26	104	16252928	84	31209
2026-01-06 08:07:15.56	324.80	7.38	-57.7	-74.9	3.9	7.39e-01	0	26	104	16252928	84	25833
2026-01-06 08:07:16.56	324.69	7.31	-57.7	-75.1	3.8	7.44e-01	0	26	104	16252928	84	26365
2026-01-06 08:07:17.56	324.57	7.25	-57.7	-75.1	3.9	7.45e-01	0	27	104	16252928	84	26262
2026-01-06 08:07:18.55	324.46	7.18	-57.7	-74.8	3.8	7.45e-01	0	26	104	16252928	84	25430
2026-01-06 08:07:19.54	324.35	7.12	-57.7	-75.3	3.8	7.41e-01	0	26	104	16252928	84	26930
2026-01-06 08:07:20.53	324.24	7.05	-57.7	-75.4	3.9	7.46e-01	0	26	104	16252928	84	27222
2026-01-06 08:07:21.52	324.14	6.99	-57.6	-75.1	3.9	7.45e-01	0	26	104	16252928	84	26179
2026-01-06 08:07:22.51	324.03	6.92	-57.7	-75.3	3.8	7.46e-01	0	26	104	16252928	84	26950
2026-01-06 08:07:23.51	323.92	6.86	-57.6	-75.3	3.8	7.46e-01	0	26	104	16252928	84	27015
2026-01-06 08:07:24.50	323.81	6.80	-57.6	-76.0	3.9	7.43e-01	0	26	104	16252928	84	29269
2026-01-06 08:07:25.50	323.70	6.73	-57.6	-75.0	3.9	7.47e-01	0	26	104	16252928	84	25873
2026-01-06 08:07:26.49	323.60	6.67	-57.6	-74.9	3.8	7.45e-01	0	27	104	16252928	84	25666
2026-01-06 08:07:27.48	323.49	6.60	-57.6	-75.5	3.8	7.45e-01	0	26	104	16252928	84	27491
2026-01-06 08:07:28.47	323.39	6.54	-57.5	-75.0	3.9	7.47e-01	0	26	104	16252928	84	25908
2026-01-06 08:07:29.46	323.28	6.47	-57.5	-74.5	3.9	7.43e-01	0	26	104	16252928	84	24619
2026-01-06 08:07:30.46	323.18	6.41	-57.6	-75.6	3.8	7.48e-01	0	27	104	16252928	84	27868
2026-01-06 08:07:31.45	323.07	6.35	-57.5	-75.1	3.9	7.43e-01	0	26	104	16252928	84	26362
2026-01-06 08:07:32.44	322.97	6.28	-57.4	-75.7	3.9	7.47e-01	0	26	104	16252928	84	28184
2026-01-06 08:07:33.42	322.87	6.22	-57.4	-74.9	3.9	7.43e-01	0	26	104	16252928	84	25790
2026-01-06 08:07:34.41	322.77	6.16	-57.4	-74.9	3.9	7.46e-01	0	27	104	16252928	84	25713
2026-01-06 08:07:35.40	322.67	6.09	-57.2	-74.9	3.8	7.46e-01	0	26	104	16252928	83	27155
2026-01-06 08:07:36.40	322.56	6.03	-57.2	-74.7	3.9	7.47e-01	0	26	104	16252928	83	26714
2026-01-06 08:07:37.39	322.46	5.97	-57.2	-74.5	3.9	7.44e-01	0	26	104	16252928	83	26071
2026-01-06 08:07:38.38	322.36	5.90	-57.2	-74.6	3.9	7.42e-01	0	26	104	16252928	83	26333
2026-01-06 08:07:39.38	322.26	5.84	-57.2	-74.7	3.9	7.39e-01	0	26	104	16252928	83	26627
2026-01-06 08:07:40.37	322.16	5.78	-57.1	-75.7	3.9	7.44e-01	0	26	104	16252928	83	29923
2026-01-06 08:07:41.37	322.06	5.71	-57.1	-74.5	3.9	7.45e-01	0	26	104	16252928	83	26080
2026-01-06 08:07:42.36	321.97	5.65	-57.1	-74.5	3.9	7.47e-01	0	26	104	16252928	83	26034
2026-01-06 08:07:43.36	321.87	5.59	-57.0	-75.0	3.8	7.47e-01	0	26	104	16252928	83	27568
2026-01-06 08:07:44.35	321.77	5.52	-57.0	-76.0	3.8	7.48e-01	0	26	104	16252928	82	32645
2026-01-06 08:07:45.34	321.67	5.46	-57.0	-74.6	3.9	7.47e-01	0	26	104	16252928	82	27872
2026-01-06 08:07:46.34	321.58	5.40	-57.1	-75.2	3.8	7.42e-01	0	26	104	16252928	82	29864
2026-01-06 08:07:47.33	321.48	5.34	-57.1	-75.5	3.8	7.46e-01	0	26	104	16252928	82	30917
2026-01-06 08:07:48.33	321.38	5.27	-56.9	-75.7	3.8	7.46e-01	0	27	104	16252928	82	31466
2026-01-06 08:07:49.33	321.29	5.21	-56.9	-74.6	3.9	7.46e-01	0	26	104	16252928	82	27857
2026-01-06 08:07:50.32	321.19	5.15	-56.9	-74.6	3.9	7.46e-01	0	26	104	16252928	82	27730
2026-01-06 08:07:51.32	321.10	5.09	-56.9	-74.5	3.8	7.47e-01	0	26	104	16252928	82	27445
2026-01-06 08:07:52.32	321.01	5.02	-57.0	-75.5	3.8	7.47e-01	0	26	104	16252928	82	30760
2026-01-06 08:07:53.31	320.91	4.96	-57.5	-74.7	3.8	7.49e-01	0	26	104	16252928	82	28246
2026-01-06 08:07:54.30	320.82	4.90	-58.0	-77.2	3.8	7.48e-01	0	26	104	16252928	83	35297
2026-01-06 08:07:55.30	320.73	4.84	-58.5	-77.9	3.8	7.43e-01	0	26	104	16252928	84	36190
2026-01-06 08:07:56.28	320.64	4.78	-58.8	-78.2	3.8	7.48e-01	0	27	104	16252928	85	35295
2026-01-06 08:07:57.28	320.54	4.72	-59.0	-78.4	3.8	7.46e-01	0	26	104	16252928	85	36265
2026-01-06 08:07:58.28	320.45	4.65	-59.2	-78.6	3.8	7.46e-01	0	26	104	16252928	86	35039
2026-01-06 08:07:59.27	320.36	4.59	-59.4	-78.8	3.8	7.46e-01	0	26	104	16252928	86	35768
2026-01-06 08:08:00.26	320.27	4.53	-59.5	-78.9	3.8	7.47e-01	0	26	104	16252928	86	36214
2026-01-06 08:08:01.26	320.18	4.47	-59.6	-79.0	3.8	7.44e-01	0	27	104	16252928	86	36607
2026-01-06 08:08:02.26	320.09	4.41	-59.7	-79.1	3.8	7.48e-01	0	26	104	16252928	87	34885
2026-01-06 08:08:03.26	320.00	4.35	-59.7	-79.1	3.8	7.47e-01	0	26	104	16252928	87	35130
2026-01-06 08:08:04.27	319.91	4.29	-59.8	-79.2	3.8	7.45e-01	0	26	104	16252928	87	35363
2026-01-06 08:08:05.25	319.82	4.23	-59.9	-79.3	3.8	7.44e-01	0	26	104	16252928	87	35706
2026-01-06 08:08:06.25	319.74	4.16	-59.9	-79.3	3.8	7.44e-01	0	26	104	16252928	87	35907
2026-01-06 08:08:07.25	319.65	4.10	-59.9	-79.3	3.8	7.45e-01	0	26	104	16252928	87	35948
2026-01-06 08:08:08.24	319.56	4.04	-60.0	-79.3	3.8	7.48e-01	0	26	104	16252928	87	36096
2026-01-06 08:08:09.23	319.48	3.98	-60.0	-79.4	3.8	7.47e-01	0	26	104	16252928	87	36271
2026-01-06 08:08:10.23	319.39	3.92	-60.0	-79.4	3.8	7.45e-01	0	27	104	16252928	87	36310
2026-01-06 08:08:11.23	319.30	3.86	-60.0	-79.4	3.8	7.46e-01	0	26	104	16252928	87	36380
2026-01-06 08:08:12.22	319.22	3.80	-60.0	-79.4	3.8	7.43e-01	0	26	104	16252928	87	36343
2026-01-06 08:08:13.21	319.13	3.74	-60.0	-79.4	3.8	7.46e-01	0	26	104	16252928	87	36347
2026-01-06 08:08:14.21	319.05	3.68	-60.0	-79.3	3.8	7.44e-01	0	27	104	16252928	87	36097
2026-01-06 08:08:15.21	318.96	3.62	-59.9	-79.3	3.8	7.45e-01	0	26	104	16252928	87	36086
2026-01-06 08:08:16.20	318.88	3.56	-59.9	-79.3	3.8	7.47e-01	0	27	104	16252928	87	36049
2026-01-06 08:08:17.19	318.80	3.50	-59.9	-79.3	3.8	7.44e-01	0	26	104	16252928	87	35958
2026-01-06 08:08:18.19	318.71	3.44	-59.9	-79.3	3.8	7.49e-01	0	26	104	16252928	87	35973
2026-01-06 08:08:19.18	318.63	3.38	-59.9	-79.3	3.8	7.44e-01	0	26	104	16252928	87	35989
2026-01-06 08:08:20.17	318.55	3.32	-59.9	-79.3	3.8	7.47e-01	0	26	104	16252928	87	35986
2026-01-06 08:08:21.16	318.47	3.26	-59.9	-79.3	3.8	7.47e-01	0	26	104	16252928	87	35786
2026-01-06 08:08:22.16	318.39	3.21	-59.9	-79.3	3.8	7.46e-01	0	26	104	16252928	87	35789
2026-01-06 08:08:23.14	318.31	3.15	-59.9	-79.3	3.8	7.50e-01	0	26	104	16252928	87	35713
2026-01-06 08:08:24.13	318.23	3.09	-59.8	-79.2	3.8	7.43e-01	0	27	104	16252928	87	35639
2026-01-06 08:08:25.13	318.15	3.03	-59.8	-79.2	3.8	7.45e-01	0	26	104	16252928	87	35627
2026-01-06 08:08:26.13	318.06	2.97	-59.8	-79.2	3.8	7.49e-01	0	26	104	16252928	87	35665
2026-01-06 08:08:27.12	317.99	2.91	-59.8	-79.2	3.8	7.44e-01	0	26	104	16252928	87	35494
2026-01-06 08:08:28.12	317.91	2.85	-59.8	-79.2	3.8	7.48e-01	0	26	104	16252928	87	35509
2026-01-06 08:08:29.10	317.83	2.79	-59.8	-79.2	3.8	7.41e-01	0	26	104	16252928	87	35574
2026-01-06 08:08:30.10	317.75	2.73	-59.8	-79.2	3.8	7.46e-01	0	26	104	16252928	87	35477
2026-01-06 08:08:31.08	317.67	2.68	-59.8	-79.2	3.8	7.43e-01	0	26	104	16252928	87	35422
2026-01-06 08:08:32.08	317.59	2.62	-59.8	-79.2	3.8	7.46e-01	0	26	104	16252928	87	35473
2026-01-06 08:08:33.07	317.52	2.56	-59.8	-79.2	3.8	7.47e-01	0	26	104	16252928	87	35415
2026-01-06 08:08:34.05	317.44	2.50	-59.8	-79.2	3.8	7.43e-01	0	26	104	16252928	87	35376
2026-01-06 08:08:35.05	317.36	2.44	-59.8	-79.2	3.8	7.48e-01	0	26	104	16252928	87	35395
2026-01-06 08:08:36.04	317.29	2.39	-59.8	-79.2	3.8	7.45e-01	0	26	104	16252928	87	35331
2026-01-06 08:08:37.04	317.21	2.33	-59.8	-79.2	3.8	7.47e-01	0	26	104	16252928	87	35334
2026-01-06 08:08:38.03	317.14	2.27	-59.8	-79.1	3.8	7.47e-01	0	26	104	16252928	87	35237
2026-01-06 08:08:39.03	317.06	2.21	-59.8	-79.2	3.8	7.44e-01	0	26	104	16252928	87	35352
2026-01-06 08:08:40.02	316.98	2.15	-59.8	-79.2	3.8	7.44e-01	0	26	104	16252928	87	35372
2026-01-06 08:08:41.02	316.91	2.10	-59.8	-79.2	3.8	7.46e-01	0	26	104	16252928	87	35289
2026-01-06 08:08:42.01	316.84	2.04	-59.8	-79.2	3.8	7.45e-01	0	26	104	16252928	87	35380

#Closed at: 2026-01-06 08:08:43
#Recorded file [16 MB]: D:/lorett/data/31004_260106_105738.dat