passes_logs/2026/01/06/R3.2S_Murmansk/R3.2S_Murmansk__20260106_053906_SUOMI_NPP_rec.log

#Pass ID: 20260106_053906_SUOMI NPP
#Satellite: SUOMI NPP
#Configuration: NPP
#almurnet v.1.7.20251203
#Start time: 2026-01-06 05:39:07

#Version: 2.2.20231116
#Station: R3.2S_Murmansk
#Location: 33.079688 lon 68.888172 lat
#TLE: 1 37849U 11061A   26004.95404768  .00000136  00000+0  85334-4 0  9991
#TLE: 2 37849  98.7801 307.0898 0002575  80.6707 279.4760 14.19522289735281

#Time	Az	El	Level	Level2	SNR	BER	BlckErr	Temp	State	Recorded	gain1	gain2
2026-01-06 05:39:07.83	68.61	2.08	-57.9	-73.9	3.8	1.49e+00	0	24	0	0	82	22089
2026-01-06 05:39:08.83	68.55	2.14	-57.8	-73.8	3.8	1.49e+00	0	24	104	0	80	24542
2026-01-06 05:39:09.83	68.49	2.20	-57.8	-73.8	3.8	1.49e+00	0	24	104	0	80	24580
2026-01-06 05:39:10.84	68.42	2.26	-57.8	-73.8	3.8	1.49e+00	0	24	104	0	80	24633
2026-01-06 05:39:11.84	68.36	2.31	-57.8	-73.8	3.8	1.49e+00	0	24	104	0	80	24568
2026-01-06 05:39:12.84	68.29	2.37	-57.8	-73.8	3.8	1.49e+00	0	24	104	0	80	24586
2026-01-06 05:39:13.84	68.23	2.43	-57.8	-73.8	3.8	1.49e+00	0	24	104	0	80	24565
2026-01-06 05:39:14.84	68.16	2.48	-57.8	-73.8	3.8	1.49e+00	0	24	104	0	80	24545
2026-01-06 05:39:15.84	68.10	2.54	-57.8	-73.8	3.8	1.49e+00	0	24	104	0	80	24532
2026-01-06 05:39:16.84	68.03	2.60	-57.8	-73.8	3.8	1.49e+00	0	24	104	0	80	24501
2026-01-06 05:39:17.84	67.97	2.66	-57.8	-73.8	3.8	1.49e+00	0	24	104	0	80	24496
2026-01-06 05:39:18.84	67.90	2.72	-57.8	-73.8	3.8	1.49e+00	0	24	104	0	80	24494
2026-01-06 05:39:19.83	67.83	2.77	-57.8	-73.8	3.8	1.49e+00	0	24	104	0	80	24610
2026-01-06 05:39:20.83	67.77	2.83	-57.8	-73.8	3.8	1.49e+00	0	24	104	0	80	24509
2026-01-06 05:39:21.82	67.70	2.89	-57.8	-73.8	3.8	1.49e+00	0	24	104	0	80	24594
2026-01-06 05:39:22.81	67.63	2.95	-57.8	-73.8	3.8	1.49e+00	0	24	104	0	80	24542
2026-01-06 05:39:23.81	67.57	3.00	-57.8	-73.8	3.8	1.49e+00	0	24	104	0	80	24636
2026-01-06 05:39:24.80	67.50	3.06	-57.8	-73.8	3.8	1.49e+00	0	24	104	0	80	24494
2026-01-06 05:39:25.81	67.43	3.12	-57.8	-73.8	3.8	1.49e+00	0	24	104	0	80	24555
2026-01-06 05:39:26.80	67.36	3.18	-57.8	-73.8	3.8	1.49e+00	0	24	104	0	80	24658
2026-01-06 05:39:27.80	67.29	3.24	-57.8	-73.8	3.8	1.49e+00	0	24	104	0	80	24615
2026-01-06 05:39:28.80	67.23	3.30	-57.8	-73.8	3.8	1.49e+00	0	24	104	0	80	24691
2026-01-06 05:39:29.79	67.16	3.35	-57.8	-73.8	3.8	1.49e+00	0	24	104	0	80	24557
2026-01-06 05:39:30.78	67.09	3.41	-57.8	-73.8	3.8	1.49e+00	0	24	104	0	80	24564
2026-01-06 05:39:31.77	67.02	3.47	-57.8	-73.8	3.8	1.49e+00	0	24	104	0	80	24558
2026-01-06 05:39:32.77	66.95	3.53	-57.8	-73.8	3.8	1.49e+00	0	24	104	0	80	24526
2026-01-06 05:39:33.77	66.88	3.59	-57.8	-73.8	3.8	1.49e+00	0	24	104	0	80	24555
2026-01-06 05:39:34.77	66.81	3.65	-57.8	-73.8	3.8	1.49e+00	0	24	104	0	80	24649
2026-01-06 05:39:35.77	66.74	3.71	-57.8	-73.8	3.8	1.49e+00	0	24	104	0	80	24640
2026-01-06 05:39:36.77	66.67	3.77	-57.8	-73.8	3.8	1.49e+00	0	24	104	0	80	24570
2026-01-06 05:39:37.77	66.59	3.82	-57.8	-73.8	3.8	1.49e+00	0	24	104	0	80	24455
2026-01-06 05:39:38.77	66.52	3.88	-57.8	-73.7	3.8	1.49e+00	0	25	104	0	80	24303
2026-01-06 05:39:39.78	66.45	3.94	-57.8	-73.7	3.8	1.49e+00	0	25	104	0	80	24287
2026-01-06 05:39:40.77	66.38	4.00	-57.8	-73.7	3.8	1.49e+00	0	25	104	0	80	24240
2026-01-06 05:39:41.78	66.30	4.06	-57.8	-73.7	3.8	1.49e+00	0	25	104	0	80	24362
2026-01-06 05:39:42.77	66.23	4.12	-57.8	-73.8	3.8	1.49e+00	0	25	104	0	80	24507
2026-01-06 05:39:43.78	66.16	4.18	-57.8	-73.8	3.8	1.49e+00	0	25	104	0	80	24646
2026-01-06 05:39:44.77	66.08	4.24	-57.8	-73.8	3.8	1.49e+00	0	24	104	0	80	24510
2026-01-06 05:39:45.77	66.01	4.30	-57.8	-73.6	3.8	1.49e+00	0	25	104	0	80	24052
2026-01-06 05:39:46.77	65.93	4.36	-57.8	-73.3	3.8	1.49e+00	0	25	104	0	80	23080
2026-01-06 05:39:47.77	65.86	4.42	-57.8	-72.7	3.8	1.49e+00	0	25	104	0	80	21602
2026-01-06 05:39:48.77	65.79	4.48	-57.8	-72.1	3.8	1.49e+00	0	25	104	0	80	20203
2026-01-06 05:39:49.77	65.71	4.54	-57.7	-71.2	3.9	1.49e+00	0	25	104	0	80	18234
2026-01-06 05:39:50.77	65.63	4.60	-57.6	-70.0	4.3	1.44e+00	0	25	0	0	80	15902
2026-01-06 05:39:51.77	65.56	4.66	-57.6	-69.3	4.5	1.12e+00	2	25	0	1048576	80	14560
2026-01-06 05:39:52.77	65.48	4.73	-57.5	-68.4	4.8	9.41e-01	0	25	0	2097152	80	13260
2026-01-06 05:39:53.77	65.40	4.79	-57.4	-67.5	5.3	6.95e-01	0	25	0	4194304	80	11872
2026-01-06 05:39:54.76	65.33	4.85	-57.4	-66.8	5.8	3.61e-01	0	25	0	6291456	80	10931
2026-01-06 05:39:55.76	65.25	4.91	-57.3	-66.0	6.3	2.95e-01	0	25	0	8388608	80	10008
2026-01-06 05:39:56.75	65.17	4.97	-57.3	-66.1	6.2	2.20e-01	0	25	0	10485760	80	10147
2026-01-06 05:39:57.75	65.10	5.03	-57.2	-65.5	6.7	1.78e-01	0	25	0	11534336	80	9451
2026-01-06 05:39:58.75	65.02	5.09	-57.4	-66.2	6.3	1.76e-01	0	25	0	13631488	80	10207
2026-01-06 05:39:59.75	64.94	5.15	-57.6	-68.4	4.9	3.42e-01	0	25	0	15728640	80	13192
2026-01-06 05:40:00.74	64.86	5.21	-57.3	-66.2	6.2	5.33e-01	0	25	0	17825792	80	10268
2026-01-06 05:40:01.74	64.78	5.27	-55.7	-60.1	11.2	4.02e-02	0	25	0	18874368	78	5701
2026-01-06 05:40:02.74	64.70	5.34	-57.6	-69.8	4.4	5.59e-02	50	25	0	20971520	80	15565
2026-01-06 05:40:03.74	64.62	5.40	-56.4	-61.9	9.7	1.20e+00	0	25	0	20971520	79	6614
2026-01-06 05:40:04.74	64.54	5.46	-55.8	-60.1	11.3	9.46e-05	0	25	0	23068672	78	5686
2026-01-06 05:40:05.74	64.46	5.52	-55.0	-58.4	12.4	5.30e-06	0	25	0	25165824	76	5267
2026-01-06 05:40:06.74	64.38	5.58	-55.2	-59.0	12.0	2.20e-06	0	25	0	26214400	76	5593
2026-01-06 05:40:07.74	64.30	5.64	-55.0	-58.6	12.3	0.00e+00	0	25	0	28311552	76	5365
2026-01-06 05:40:08.73	64.22	5.71	-55.3	-59.1	11.9	3.00e-06	0	25	0	30408704	76	5680
2026-01-06 05:40:09.74	64.13	5.77	-54.9	-58.3	12.5	0.00e+00	0	25	0	32505856	76	5175
2026-01-06 05:40:10.74	64.05	5.83	-55.1	-58.6	12.3	7.00e-07	0	25	0	34603008	76	5361
2026-01-06 05:40:11.74	63.97	5.89	-55.0	-58.6	12.3	7.00e-07	0	25	0	35651584	76	5354
2026-01-06 05:40:12.74	63.88	5.96	-55.1	-58.6	12.3	7.00e-07	0	25	0	37748736	76	5373
2026-01-06 05:40:13.74	63.80	6.02	-54.9	-58.2	12.6	0.00e+00	0	25	0	39845888	76	5118
2026-01-06 05:40:14.74	63.72	6.08	-54.8	-58.0	12.7	7.00e-07	0	25	0	41943040	76	5022
2026-01-06 05:40:15.74	63.63	6.14	-54.4	-57.5	13.0	0.00e+00	0	25	0	42991616	75	5013
2026-01-06 05:40:16.75	63.55	6.21	-54.4	-57.5	13.0	0.00e+00	0	25	0	45088768	75	5011
2026-01-06 05:40:17.75	63.46	6.27	-54.5	-57.6	12.9	0.00e+00	0	25	0	47185920	75	5044
2026-01-06 05:40:18.74	63.38	6.33	-54.5	-57.6	12.9	0.00e+00	0	25	0	49283072	75	5078
2026-01-06 05:40:19.74	63.29	6.40	-54.3	-57.2	13.2	7.00e-07	0	25	0	51380224	75	4853
2026-01-06 05:40:20.74	63.20	6.46	-54.3	-57.3	13.1	0.00e+00	0	25	0	52428800	75	4914
2026-01-06 05:40:21.75	63.12	6.52	-54.4	-57.4	13.0	0.00e+00	0	25	0	54525952	75	4978
2026-01-06 05:40:22.75	63.03	6.59	-54.4	-57.5	13.0	0.00e+00	0	25	0	56623104	75	4988
2026-01-06 05:40:23.75	62.94	6.65	-54.6	-57.9	12.7	7.00e-07	0	25	0	58720256	75	5223
2026-01-06 05:40:24.75	62.85	6.71	-54.8	-58.2	12.6	0.00e+00	0	25	0	60817408	75	5413
2026-01-06 05:40:25.74	62.76	6.78	-54.7	-58.0	12.7	0.00e+00	0	25	0	61865984	75	5280
2026-01-06 05:40:26.74	62.68	6.84	-54.6	-57.7	12.9	0.00e+00	0	25	0	63963136	75	5138
2026-01-06 05:40:27.73	62.59	6.90	-54.6	-57.7	12.8	0.00e+00	0	25	0	66060288	75	5148
2026-01-06 05:40:28.73	62.50	6.97	-54.5	-57.7	12.8	0.00e+00	0	25	0	68157440	75	5128
2026-01-06 05:40:29.72	62.41	7.03	-54.8	-58.1	12.6	0.00e+00	0	25	0	69206016	75	5370
2026-01-06 05:40:30.72	62.32	7.09	-54.7	-58.0	12.7	0.00e+00	0	25	0	71303168	75	5286
2026-01-06 05:40:31.71	62.23	7.16	-54.8	-58.1	12.6	0.00e+00	0	25	0	73400320	75	5352
2026-01-06 05:40:32.70	62.14	7.22	-54.8	-58.1	12.6	0.00e+00	0	25	0	75497472	75	5346
2026-01-06 05:40:33.70	62.05	7.29	-54.8	-58.0	12.7	0.00e+00	0	25	0	77594624	75	5338
2026-01-06 05:40:34.69	61.96	7.35	-54.6	-57.8	12.9	0.00e+00	0	25	0	78643200	75	5163
2026-01-06 05:40:35.68	61.86	7.41	-54.8	-58.0	12.7	0.00e+00	0	25	0	80740352	75	5324
2026-01-06 05:40:36.67	61.77	7.48	-54.6	-57.7	12.9	0.00e+00	0	25	0	82837504	75	5110
2026-01-06 05:40:37.67	61.68	7.54	-54.3	-57.3	13.2	0.00e+00	0	25	0	84934656	75	4885
2026-01-06 05:40:38.67	61.58	7.61	-54.3	-57.2	13.2	0.00e+00	0	25	0	85983232	75	4818
2026-01-06 05:40:39.66	61.49	7.67	-54.5	-57.5	13.1	0.00e+00	0	25	0	88080384	75	4996
2026-01-06 05:40:40.66	61.40	7.74	-54.4	-57.4	13.1	0.00e+00	0	25	0	90177536	75	4967
2026-01-06 05:40:41.65	61.30	7.80	-54.2	-57.0	13.3	0.00e+00	0	25	0	92274688	75	4738
2026-01-06 05:40:42.66	61.21	7.87	-54.3	-57.2	13.2	0.00e+00	0	25	0	94371840	75	4845
2026-01-06 05:40:43.65	61.11	7.93	-54.2	-57.0	13.4	0.00e+00	0	25	0	95420416	75	4709
2026-01-06 05:40:44.66	61.01	8.00	-54.2	-57.0	13.2	0.00e+00	0	25	0	97517568	74	5012
2026-01-06 05:40:45.66	60.92	8.06	-54.3	-57.1	13.2	0.00e+00	0	25	0	99614720	74	5082
2026-01-06 05:40:46.66	60.82	8.13	-54.3	-57.3	13.1	0.00e+00	0	25	0	101711872	74	5163
2026-01-06 05:40:47.65	60.72	8.19	-54.0	-56.7	13.5	0.00e+00	0	25	0	103809024	74	4845
2026-01-06 05:40:48.64	60.63	8.26	-54.0	-56.6	13.5	0.00e+00	0	25	0	104857600	74	4814
2026-01-06 05:40:49.65	60.53	8.33	-53.8	-56.4	13.6	0.00e+00	0	25	0	106954752	74	4681
2026-01-06 05:40:50.65	60.43	8.39	-53.9	-56.5	13.6	0.00e+00	0	25	0	109051904	74	4724
2026-01-06 05:40:51.64	60.33	8.46	-53.8	-56.4	13.7	0.00e+00	0	25	0	111149056	74	4668
2026-01-06 05:40:52.64	60.23	8.52	-54.0	-56.6	13.5	0.00e+00	0	25	0	112197632	74	4814
2026-01-06 05:40:53.64	60.13	8.59	-54.0	-56.7	13.4	0.00e+00	0	25	0	114294784	74	4866
2026-01-06 05:40:54.64	60.03	8.66	-53.8	-56.4	13.7	0.00e+00	0	25	0	116391936	74	4663
2026-01-06 05:40:55.64	59.92	8.72	-53.8	-56.4	13.7	0.00e+00	0	25	0	118489088	74	4667
2026-01-06 05:40:56.63	59.82	8.79	-53.9	-56.5	13.6	0.00e+00	0	25	0	120586240	74	4738
2026-01-06 05:40:57.63	59.72	8.85	-53.7	-56.2	13.8	0.00e+00	0	26	0	121634816	74	4577
2026-01-06 05:40:58.63	59.62	8.92	-53.7	-56.2	13.6	0.00e+00	0	25	0	123731968	73	4839
2026-01-06 05:40:59.63	59.51	8.99	-53.7	-56.2	13.6	0.00e+00	0	25	0	125829120	73	4869
2026-01-06 05:41:00.63	59.41	9.05	-53.7	-56.3	13.6	0.00e+00	0	25	0	127926272	73	4877
2026-01-06 05:41:01.63	59.31	9.12	-53.9	-56.5	13.5	0.00e+00	0	25	0	130023424	73	5001
2026-01-06 05:41:02.63	59.20	9.19	-53.8	-56.4	13.5	0.00e+00	0	25	0	131072000	73	4977
2026-01-06 05:41:03.63	59.10	9.26	-54.0	-56.7	13.3	0.00e+00	0	25	0	133169152	73	5145
2026-01-06 05:41:04.63	58.99	9.32	-53.9	-56.5	13.5	0.00e+00	0	25	0	135266304	73	5004
2026-01-06 05:41:05.63	58.88	9.39	-53.7	-56.3	13.6	0.00e+00	0	25	0	137363456	73	4880
2026-01-06 05:41:06.62	58.78	9.46	-53.9	-56.5	13.5	0.00e+00	0	25	0	138412032	73	4990
2026-01-06 05:41:07.63	58.67	9.52	-53.9	-56.5	13.5	0.00e+00	0	25	0	140509184	73	4995
2026-01-06 05:41:08.64	58.56	9.59	-53.8	-56.4	13.5	0.00e+00	0	25	0	142606336	73	4951
2026-01-06 05:41:09.63	58.45	9.66	-53.9	-56.5	13.5	0.00e+00	0	25	0	144703488	73	5015
2026-01-06 05:41:10.64	58.34	9.73	-54.0	-56.6	13.4	0.00e+00	0	25	0	146800640	73	5077
2026-01-06 05:41:11.64	58.23	9.80	-54.0	-56.7	13.4	0.00e+00	0	25	0	147849216	73	5145
2026-01-06 05:41:12.64	58.12	9.86	-53.9	-56.9	13.3	0.00e+00	0	25	0	149946368	73	5220
2026-01-06 05:41:13.65	58.01	9.93	-53.9	-56.8	13.3	0.00e+00	0	25	0	152043520	73	5218
2026-01-06 05:41:14.65	57.90	10.00	-53.8	-56.7	13.4	0.00e+00	0	25	0	154140672	73	5125
2026-01-06 05:41:15.65	57.79	10.07	-53.9	-56.9	13.3	0.00e+00	0	25	0	156237824	73	5227
2026-01-06 05:41:16.65	57.68	10.14	-53.9	-56.9	13.3	0.00e+00	0	25	0	157286400	73	5256
2026-01-06 05:41:17.65	57.56	10.20	-53.9	-56.9	13.3	0.00e+00	0	25	0	159383552	73	5252
2026-01-06 05:41:18.65	57.45	10.27	-54.0	-57.1	13.2	0.00e+00	0	25	0	161480704	73	5351
2026-01-06 05:41:19.64	57.34	10.34	-53.8	-56.6	13.4	0.00e+00	0	25	0	163577856	73	5100
2026-01-06 05:41:20.65	57.22	10.41	-53.7	-56.6	13.4	0.00e+00	0	25	0	165675008	73	5080
2026-01-06 05:41:21.65	57.11	10.48	-53.7	-56.6	13.4	0.00e+00	0	25	0	166723584	73	5084
2026-01-06 05:41:22.65	56.99	10.55	-53.8	-56.7	13.4	0.00e+00	0	25	0	168820736	73	5135
2026-01-06 05:41:23.65	56.88	10.61	-53.8	-56.7	13.4	0.00e+00	0	25	0	170917888	73	5106
2026-01-06 05:41:24.65	56.76	10.68	-53.8	-56.7	13.4	0.00e+00	0	25	0	173015040	73	5113
2026-01-06 05:41:25.65	56.64	10.75	-53.8	-56.7	13.4	0.00e+00	0	25	0	174063616	73	5148
2026-01-06 05:41:26.64	56.53	10.82	-53.6	-56.5	13.5	0.00e+00	0	25	0	176160768	73	5032
2026-01-06 05:41:27.64	56.41	10.89	-53.5	-56.4	13.6	0.00e+00	0	25	0	178257920	73	4950
2026-01-06 05:41:28.64	56.29	10.96	-53.4	-56.3	13.7	0.00e+00	0	25	0	180355072	73	4892
2026-01-06 05:41:29.64	56.17	11.03	-53.3	-56.1	13.8	0.00e+00	0	25	0	182452224	73	4763
2026-01-06 05:41:30.40	56.08	11.08	-53.4	-56.3	13.7	0.00e+00	0	25	0	183500800	73	4916
2026-01-06 05:41:31.68	55.92	11.17	-53.0	-55.9	13.8	0.00e+00	0	25	0	186646528	72	4978
2026-01-06 05:41:32.40	55.84	11.22	-53.2	-56.1	13.7	0.00e+00	0	25	0	187695104	72	5068
2026-01-06 05:41:33.69	55.68	11.31	-53.2	-56.1	13.7	0.00e+00	0	25	0	189792256	72	5054
2026-01-06 05:41:34.43	55.59	11.36	-53.3	-56.2	13.6	0.00e+00	0	25	0	191889408	72	5127
2026-01-06 05:41:35.71	55.43	11.45	-53.3	-56.1	13.7	0.00e+00	0	25	0	193986560	72	5066
2026-01-06 05:41:36.44	55.34	11.50	-53.1	-55.7	13.9	0.00e+00	0	25	0	195035136	72	4819
2026-01-06 05:41:37.73	55.18	11.59	-53.0	-55.6	14.0	0.00e+00	0	25	0	197132288	72	4764
2026-01-06 05:41:38.45	55.09	11.64	-53.0	-55.5	14.0	0.00e+00	0	25	0	199229440	72	4758
2026-01-06 05:41:39.74	54.93	11.73	-53.1	-55.6	13.9	0.00e+00	0	25	0	201326592	72	4805
2026-01-06 05:41:40.45	54.84	11.78	-53.1	-55.7	13.9	0.00e+00	0	25	0	202375168	72	4823
2026-01-06 05:41:41.74	54.68	11.87	-53.2	-55.8	13.8	0.00e+00	0	25	0	205520896	72	4890
2026-01-06 05:41:42.45	54.59	11.92	-53.1	-55.7	13.9	0.00e+00	0	25	0	206569472	72	4842
2026-01-06 05:41:43.75	54.42	12.01	-53.2	-55.8	13.8	0.00e+00	0	25	0	208666624	72	4911
2026-01-06 05:41:44.46	54.33	12.06	-53.1	-55.7	13.9	0.00e+00	0	25	0	210763776	72	4863
2026-01-06 05:41:45.76	54.16	12.15	-53.1	-55.7	13.9	0.00e+00	0	25	0	212860928	72	4845
2026-01-06 05:41:46.48	54.07	12.20	-53.0	-55.5	14.0	0.00e+00	0	25	0	213909504	72	4712
2026-01-06 05:41:47.76	53.90	12.29	-52.8	-55.2	14.2	0.00e+00	0	26	0	216006656	72	4566
2026-01-06 05:41:48.48	53.81	12.34	-52.8	-55.1	14.2	0.00e+00	0	25	0	218103808	72	4540
2026-01-06 05:41:49.77	53.64	12.43	-52.9	-55.3	14.1	0.00e+00	0	26	0	220200960	72	4623
2026-01-06 05:41:50.48	53.55	12.48	-52.9	-55.4	14.1	0.00e+00	0	26	0	221249536	72	4678
2026-01-06 05:41:51.76	53.38	12.57	-52.9	-55.3	14.1	0.00e+00	0	25	0	224395264	72	4631
2026-01-06 05:41:52.47	53.28	12.62	-52.8	-55.2	14.2	0.00e+00	0	25	0	225443840	72	4589
2026-01-06 05:41:53.75	53.11	12.71	-53.0	-55.5	14.0	0.00e+00	0	26	0	227540992	72	4737
2026-01-06 05:41:54.46	53.01	12.76	-52.8	-55.2	14.2	0.00e+00	0	25	0	228589568	72	4581
2026-01-06 05:41:55.75	52.84	12.85	-52.8	-55.2	14.2	0.00e+00	0	26	0	231735296	72	4568
2026-01-06 05:41:56.47	52.74	12.91	-52.8	-55.2	14.2	0.00e+00	0	26	0	232783872	72	4557
2026-01-06 05:41:57.75	52.57	13.00	-52.7	-55.1	14.3	0.00e+00	0	26	0	234881024	72	4513
2026-01-06 05:41:58.46	52.47	13.05	-52.7	-55.1	14.2	0.00e+00	0	25	0	236978176	72	4530
2026-01-06 05:41:59.75	52.29	13.14	-52.9	-55.3	14.1	0.00e+00	0	25	0	239075328	72	4646
2026-01-06 05:42:00.47	52.19	13.19	-52.7	-55.2	14.2	0.00e+00	0	26	0	240123904	72	4549
2026-01-06 05:42:01.75	52.01	13.28	-52.9	-55.4	14.1	0.00e+00	0	25	0	242221056	72	4673
2026-01-06 05:42:02.47	51.91	13.33	-52.7	-55.2	14.1	0.00e+00	0	26	0	244318208	71	4816
2026-01-06 05:42:03.76	51.73	13.42	-52.7	-55.2	14.1	0.00e+00	0	25	0	246415360	71	4836
2026-01-06 05:42:04.49	51.63	13.47	-52.8	-55.4	14.0	0.00e+00	0	25	0	247463936	71	4931
2026-01-06 05:42:05.78	51.44	13.57	-52.8	-55.3	14.0	0.00e+00	0	26	0	250609664	71	4917
2026-01-06 05:42:06.50	51.34	13.62	-52.8	-55.4	14.0	0.00e+00	0	25	0	251658240	71	4942
2026-01-06 05:42:07.78	51.15	13.71	-52.8	-55.4	14.0	0.00e+00	0	25	0	253755392	71	4959
2026-01-06 05:42:08.51	51.05	13.76	-52.9	-55.5	13.9	0.00e+00	0	26	0	255852544	71	5029
2026-01-06 05:42:09.79	50.86	13.85	-52.8	-55.4	13.9	0.00e+00	0	26	0	257949696	71	4969
2026-01-06 05:42:10.52	50.76	13.90	-52.8	-55.4	14.0	0.00e+00	0	26	0	258998272	71	4950
2026-01-06 05:42:11.80	50.57	13.99	-53.0	-55.7	13.8	0.00e+00	0	26	0	261095424	71	5139
2026-01-06 05:42:12.53	50.46	14.05	-53.1	-55.9	13.7	0.00e+00	0	25	0	263192576	71	5249
2026-01-06 05:42:13.82	50.27	14.14	-53.1	-55.9	13.7	0.00e+00	0	25	0	265289728	71	5272
2026-01-06 05:42:14.53	50.17	14.19	-53.0	-55.9	13.7	0.00e+00	0	26	0	266338304	71	5220
2026-01-06 05:42:15.82	49.97	14.28	-52.9	-55.6	13.9	0.00e+00	0	26	0	269484032	71	5058
2026-01-06 05:42:16.53	49.87	14.33	-52.9	-55.6	13.9	0.00e+00	0	25	0	270532608	71	5077
2026-01-06 05:42:17.81	49.67	14.42	-52.9	-55.6	13.9	0.00e+00	0	26	0	272629760	71	5093
2026-01-06 05:42:18.53	49.56	14.47	-52.9	-55.6	13.9	0.00e+00	0	26	0	273678336	71	5063
2026-01-06 05:42:19.81	49.37	14.56	-53.1	-55.8	13.8	0.00e+00	0	26	0	276824064	71	5184
2026-01-06 05:42:20.52	49.26	14.62	-53.0	-55.7	13.8	0.00e+00	0	26	0	277872640	71	5127
2026-01-06 05:42:21.82	49.06	14.71	-53.0	-55.7	13.8	0.00e+00	0	26	0	279969792	71	5111
2026-01-06 05:42:22.53	48.95	14.76	-53.0	-55.6	13.9	0.00e+00	0	25	0	282066944	71	5093
2026-01-06 05:42:23.82	48.75	14.85	-52.9	-55.5	14.0	0.00e+00	0	26	0	284164096	71	4985
2026-01-06 05:42:24.53	48.64	14.90	-52.8	-55.3	14.0	0.00e+00	0	25	0	285212672	71	4907
2026-01-06 05:42:25.82	48.44	14.99	-52.9	-55.4	14.0	0.00e+00	0	25	0	287309824	71	4978
2026-01-06 05:42:26.54	48.32	15.04	-52.8	-55.4	14.0	0.00e+00	0	25	0	289406976	71	4968
2026-01-06 05:42:27.83	48.12	15.14	-52.9	-55.6	13.9	0.00e+00	0	25	0	291504128	71	5048
2026-01-06 05:42:28.55	48.00	15.19	-53.1	-55.9	13.7	0.00e+00	0	26	0	292552704	71	5249
2026-01-06 05:42:29.84	47.80	15.28	-53.3	-56.2	13.6	0.00e+00	0	25	0	295698432	71	5442
2026-01-06 05:42:30.55	47.68	15.33	-53.2	-56.1	13.6	0.00e+00	0	25	0	296747008	71	5367
2026-01-06 05:42:31.84	47.47	15.42	-53.4	-56.3	13.6	0.00e+00	0	26	0	298844160	72	5192
2026-01-06 05:42:32.55	47.36	15.47	-53.4	-56.4	13.6	0.00e+00	0	26	0	300941312	72	5228
2026-01-06 05:42:33.83	47.15	15.56	-53.2	-56.1	13.7	0.00e+00	0	25	0	303038464	72	5055
2026-01-06 05:42:34.55	47.03	15.61	-53.3	-56.1	13.7	0.00e+00	0	26	0	304087040	72	5071
2026-01-06 05:42:35.83	46.82	15.70	-53.0	-55.7	13.9	0.00e+00	0	26	0	306184192	72	4865
2026-01-06 05:42:36.58	46.70	15.76	-53.1	-55.8	13.9	0.00e+00	0	26	0	308281344	72	4887
2026-01-06 05:42:37.86	46.48	15.85	-53.1	-55.8	13.9	0.00e+00	0	26	0	310378496	72	4926
2026-01-06 05:42:38.57	46.37	15.90	-53.1	-55.9	13.9	0.00e+00	0	25	0	311427072	72	4931
2026-01-06 05:42:39.90	46.14	15.99	-53.3	-56.1	13.7	0.00e+00	0	26	0	314572800	72	5046
2026-01-06 05:42:40.61	46.02	16.04	-53.2	-55.9	13.8	0.00e+00	0	26	0	315621376	72	4950
2026-01-06 05:42:41.89	45.81	16.13	-53.3	-56.1	13.7	0.00e+00	0	26	0	317718528	72	5062
2026-01-06 05:42:42.63	45.68	16.19	-53.0	-55.6	14.0	0.00e+00	0	26	0	319815680	72	4813
2026-01-06 05:42:43.91	45.46	16.28	-53.2	-56.0	13.8	0.00e+00	0	26	0	321912832	72	5003
2026-01-06 05:42:44.64	45.33	16.33	-53.1	-55.9	13.9	0.00e+00	0	25	0	322961408	72	4952
2026-01-06 05:42:45.93	45.11	16.42	-53.0	-55.7	13.9	0.00e+00	0	26	0	325058560	72	4840
2026-01-06 05:42:46.65	44.99	16.47	-53.0	-55.7	13.9	0.00e+00	0	26	0	327155712	72	4830
2026-01-06 05:42:47.94	44.76	16.56	-53.0	-55.7	14.0	0.00e+00	0	26	0	329252864	72	4823
2026-01-06 05:42:48.65	44.64	16.61	-53.0	-55.7	14.0	0.00e+00	0	26	0	330301440	72	4824
2026-01-06 05:42:49.96	44.41	16.70	-53.1	-55.7	13.9	0.00e+00	0	26	0	333447168	72	4863
2026-01-06 05:42:50.67	44.28	16.75	-53.0	-55.6	14.0	0.00e+00	0	26	0	334495744	72	4796
2026-01-06 05:42:51.95	44.05	16.84	-53.0	-55.6	14.0	0.00e+00	0	26	0	336592896	72	4798
2026-01-06 05:42:52.67	43.92	16.89	-53.2	-55.9	13.9	0.00e+00	0	26	0	337641472	72	4950
2026-01-06 05:42:53.95	43.69	16.98	-53.1	-55.7	13.9	0.00e+00	0	25	0	340787200	72	4867
2026-01-06 05:42:54.67	43.56	17.03	-53.2	-55.9	13.9	0.00e+00	0	26	0	341835776	72	4939
2026-01-06 05:42:55.95	43.33	17.12	-53.3	-56.2	13.7	0.00e+00	0	26	0	343932928	72	5109
2026-01-06 05:42:56.69	43.20	17.17	-53.3	-56.1	13.7	0.00e+00	0	26	0	346030080	72	5086
2026-01-06 05:42:57.97	42.96	17.26	-53.5	-56.4	13.6	0.00e+00	0	26	0	348127232	72	5256
2026-01-06 05:42:58.70	42.83	17.31	-53.6	-56.6	13.5	0.00e+00	0	26	0	349175808	72	5373
2026-01-06 05:42:59.98	42.59	17.40	-53.3	-56.1	13.7	0.00e+00	0	26	0	352321536	72	5080
2026-01-06 05:43:00.69	42.46	17.45	-53.2	-56.0	13.8	0.00e+00	0	26	0	353370112	72	5002
2026-01-06 05:43:01.98	42.22	17.54	-52.9	-55.5	14.1	0.00e+00	0	25	0	355467264	72	4709
2026-01-06 05:43:02.69	42.09	17.59	-52.9	-55.4	14.1	0.00e+00	0	26	0	356515840	72	4679
2026-01-06 05:43:03.98	41.84	17.68	-53.0	-55.6	14.0	0.00e+00	0	26	0	359661568	72	4790
2026-01-06 05:43:04.70	41.71	17.73	-52.6	-55.1	14.2	0.00e+00	0	26	0	360710144	71	4779
2026-01-06 05:43:05.99	41.46	17.82	-52.5	-55.0	14.2	0.00e+00	0	26	0	362807296	71	4712
2026-01-06 05:43:06.72	41.32	17.87	-52.6	-55.0	14.2	0.00e+00	0	26	0	364904448	71	4748
2026-01-06 05:43:08.01	41.08	17.95	-52.4	-54.9	14.3	0.00e+00	0	26	0	367001600	71	4653
2026-01-06 05:43:08.72	40.94	18.00	-52.4	-54.7	14.4	0.00e+00	0	26	0	368050176	71	4590
2026-01-06 05:43:10.03	40.69	18.09	-52.5	-55.0	14.2	0.00e+00	0	26	0	371195904	71	4706
2026-01-06 05:43:10.74	40.55	18.14	-52.4	-54.9	14.3	0.00e+00	0	26	0	372244480	71	4657
2026-01-06 05:43:12.03	40.30	18.23	-52.4	-54.9	14.3	0.00e+00	0	26	0	374341632	71	4704
2026-01-06 05:43:12.75	40.15	18.28	-52.5	-55.0	14.2	0.00e+00	0	26	0	375390208	71	4759
2026-01-06 05:43:14.03	39.90	18.36	-52.3	-54.9	14.3	0.00e+00	0	26	0	378535936	71	4655
2026-01-06 05:43:14.74	39.76	18.41	-52.1	-54.6	14.3	0.00e+00	0	26	0	379584512	70	4784
2026-01-06 05:43:16.02	39.51	18.50	-52.0	-54.5	14.4	0.00e+00	0	26	0	381681664	70	4717
2026-01-06 05:43:16.74	39.36	18.54	-52.0	-54.3	14.4	0.00e+00	0	26	0	383778816	70	4649
2026-01-06 05:43:18.02	39.11	18.63	-51.7	-54.0	14.6	0.00e+00	0	25	0	385875968	70	4482
2026-01-06 05:43:18.74	38.96	18.68	-51.8	-54.0	14.6	0.00e+00	0	26	0	386924544	70	4492
2026-01-06 05:43:20.03	38.70	18.76	-51.4	-53.6	14.6	0.00e+00	0	26	0	389021696	69	4533
2026-01-06 05:43:20.75	38.55	18.81	-51.4	-53.6	14.7	0.00e+00	0	26	0	391118848	69	4510
2026-01-06 05:43:22.04	38.29	18.89	-51.5	-53.7	14.6	0.00e+00	0	26	0	393216000	69	4589
2026-01-06 05:43:22.76	38.14	18.94	-51.5	-53.7	14.6	0.00e+00	0	26	0	394264576	69	4588
2026-01-06 05:43:24.05	37.88	19.03	-51.7	-54.0	14.5	0.00e+00	0	26	0	397410304	69	4734
2026-01-06 05:43:24.76	37.73	19.07	-51.7	-54.0	14.4	0.00e+00	0	26	0	398458880	69	4724
2026-01-06 05:43:26.04	37.47	19.16	-51.6	-53.8	14.5	0.00e+00	0	26	0	400556032	69	4628
2026-01-06 05:43:26.75	37.32	19.20	-51.5	-53.7	14.6	0.00e+00	0	26	0	401604608	69	4577
2026-01-06 05:43:28.12	37.03	19.29	-51.6	-53.8	14.5	0.00e+00	0	26	0	404750336	69	4618
2026-01-06 05:43:28.83	36.88	19.34	-51.4	-53.5	14.6	0.00e+00	0	26	0	405798912	69	4472
2026-01-06 05:43:30.12	36.61	19.42	-51.5	-53.6	14.6	0.00e+00	0	25	0	407896064	69	4528
2026-01-06 05:43:30.84	36.46	19.46	-51.5	-53.6	14.6	0.00e+00	0	26	0	409993216	69	4529
2026-01-06 05:43:32.12	36.18	19.55	-51.5	-53.6	14.6	0.00e+00	0	26	0	412090368	69	4515
2026-01-06 05:43:32.88	36.02	19.59	-51.5	-53.6	14.6	0.00e+00	0	26	0	413138944	69	4509
2026-01-06 05:43:34.17	35.74	19.67	-51.4	-53.5	14.7	0.00e+00	0	26	0	416284672	69	4475
2026-01-06 05:43:34.88	35.59	19.72	-51.5	-53.7	14.6	0.00e+00	0	26	0	417333248	69	4562
2026-01-06 05:43:36.19	35.30	19.80	-51.6	-53.8	14.6	0.00e+00	0	26	0	419430400	69	4611
2026-01-06 05:43:36.90	35.15	19.85	-51.6	-53.8	14.5	0.00e+00	0	26	0	421527552	69	4641
2026-01-06 05:43:38.20	34.87	19.93	-51.6	-53.8	14.5	0.00e+00	0	26	0	423624704	69	4603
2026-01-06 05:43:38.91	34.71	19.97	-51.6	-53.8	14.6	0.00e+00	0	26	0	424673280	69	4604
2026-01-06 05:43:40.19	34.43	20.05	-51.5	-53.7	14.6	0.00e+00	0	26	0	427819008	69	4587
2026-01-06 05:43:40.95	34.26	20.09	-51.4	-53.5	14.7	0.00e+00	0	25	0	428867584	69	4475
2026-01-06 05:43:42.22	33.98	20.17	-51.4	-53.5	14.6	0.00e+00	0	26	0	430964736	69	4457
2026-01-06 05:43:42.98	33.81	20.22	-51.1	-53.1	14.7	0.00e+00	0	26	0	432013312	68	4532
2026-01-06 05:43:44.25	33.52	20.29	-51.0	-53.0	14.7	0.00e+00	0	26	0	435159040	68	4460
2026-01-06 05:43:44.97	33.36	20.34	-51.0	-52.9	14.7	0.00e+00	0	26	0	436207616	68	4420
2026-01-06 05:43:46.25	33.07	20.41	-51.0	-52.9	14.7	0.00e+00	0	26	0	438304768	68	4427
2026-01-06 05:43:46.98	32.91	20.46	-50.9	-52.8	14.8	0.00e+00	0	26	0	440401920	68	4345
2026-01-06 05:43:48.26	32.62	20.53	-50.9	-52.7	14.8	0.00e+00	0	26	0	442499072	68	4337
2026-01-06 05:43:49.03	32.44	20.58	-51.1	-53.0	14.7	0.00e+00	0	26	0	443547648	68	4457
2026-01-06 05:43:50.31	32.15	20.65	-51.3	-53.2	14.6	0.00e+00	0	25	0	446693376	68	4571
2026-01-06 05:43:51.04	31.98	20.69	-51.4	-53.3	14.6	0.00e+00	0	26	0	447741952	68	4651
2026-01-06 05:43:52.32	31.68	20.77	-51.1	-53.0	14.7	0.00e+00	0	26	0	449839104	68	4464
2026-01-06 05:43:53.04	31.52	20.81	-51.0	-52.9	14.8	0.00e+00	0	26	0	450887680	68	4407
2026-01-06 05:43:54.32	31.22	20.88	-50.9	-52.8	14.8	0.00e+00	0	26	0	454033408	68	4342
2026-01-06 05:43:55.04	31.05	20.92	-50.9	-52.7	14.8	0.00e+00	0	26	0	455081984	68	4316
2026-01-06 05:43:56.32	30.75	20.99	-51.3	-53.3	14.6	0.00e+00	0	26	0	457179136	68	4606
2026-01-06 05:43:57.03	30.58	21.03	-51.3	-53.3	14.6	0.00e+00	0	26	0	459276288	68	4603
2026-01-06 05:43:58.34	30.27	21.10	-51.2	-53.1	14.7	0.00e+00	0	26	0	461373440	68	4519
2026-01-06 05:43:59.05	30.10	21.14	-51.1	-52.9	14.7	0.00e+00	0	26	0	462422016	68	4420
2026-01-06 05:44:00.35	29.80	21.21	-51.0	-52.8	14.8	0.00e+00	0	26	0	465567744	68	4391
2026-01-06 05:44:01.07	29.62	21.25	-51.0	-52.8	14.8	0.00e+00	0	26	0	466616320	68	4356
2026-01-06 05:44:02.35	29.32	21.32	-51.0	-52.8	14.8	0.00e+00	0	25	0	468713472	68	4347
2026-01-06 05:44:03.06	29.15	21.36	-51.0	-52.8	14.8	0.00e+00	0	26	0	469762048	68	4351
2026-01-06 05:44:04.36	28.83	21.42	-50.9	-52.7	14.9	0.00e+00	0	26	0	472907776	68	4303
2026-01-06 05:44:05.07	28.66	21.46	-50.9	-52.7	14.9	0.00e+00	0	26	0	473956352	68	4299
2026-01-06 05:44:06.36	28.35	21.53	-50.9	-52.6	14.9	0.00e+00	0	26	0	476053504	68	4263
2026-01-06 05:44:07.07	28.17	21.56	-50.9	-52.7	14.9	0.00e+00	0	26	0	478150656	68	4306
2026-01-06 05:44:08.35	27.86	21.63	-51.0	-52.8	14.8	0.00e+00	0	26	0	480247808	68	4344
2026-01-06 05:44:09.07	27.68	21.67	-51.2	-53.0	14.7	0.00e+00	0	26	0	481296384	68	4442
2026-01-06 05:44:10.35	27.37	21.73	-51.1	-52.8	14.8	0.00e+00	0	26	0	483393536	68	4380
2026-01-06 05:44:11.09	27.19	21.77	-50.9	-52.6	14.9	0.00e+00	0	26	0	485490688	68	4258
2026-01-06 05:44:12.37	26.87	21.83	-50.9	-52.6	14.9	0.00e+00	0	25	0	487587840	68	4244
2026-01-06 05:44:13.12	26.68	21.86	-51.0	-52.7	14.8	0.00e+00	0	25	0	488636416	68	4319
2026-01-06 05:44:14.40	26.36	21.93	-51.0	-52.7	14.8	0.00e+00	0	26	0	491782144	68	4329
2026-01-06 05:44:15.14	26.18	21.96	-51.2	-53.0	14.7	0.00e+00	0	26	0	492830720	68	4470
2026-01-06 05:44:16.42	25.86	22.02	-51.2	-53.0	14.7	0.00e+00	0	26	0	494927872	68	4468
2026-01-06 05:44:17.15	25.67	22.05	-51.0	-52.7	14.8	0.00e+00	0	26	0	497025024	68	4333
2026-01-06 05:44:18.44	25.35	22.11	-51.0	-52.7	14.8	0.00e+00	0	26	0	499122176	68	4333
2026-01-06 05:44:19.15	25.17	22.15	-51.1	-52.8	14.8	0.00e+00	0	26	0	500170752	68	4376
2026-01-06 05:44:20.44	24.84	22.20	-51.2	-53.0	14.7	0.00e+00	0	26	0	502267904	68	4455
2026-01-06 05:44:21.15	24.66	22.23	-51.2	-53.0	14.7	0.00e+00	0	26	0	504365056	68	4461
2026-01-06 05:44:22.44	24.33	22.29	-51.1	-52.9	14.8	0.00e+00	0	26	0	506462208	68	4402
2026-01-06 05:44:23.16	24.15	22.32	-51.1	-52.9	14.8	0.00e+00	0	26	0	507510784	68	4414
2026-01-06 05:44:24.45	23.81	22.38	-50.9	-52.7	14.9	0.00e+00	0	26	0	510656512	68	4298
2026-01-06 05:44:25.17	23.63	22.41	-51.0	-52.7	14.8	0.00e+00	0	26	0	511705088	68	4329
2026-01-06 05:44:26.45	23.30	22.46	-51.0	-52.7	14.8	0.00e+00	0	26	0	513802240	68	4328
2026-01-06 05:44:27.19	23.11	22.49	-51.0	-52.7	14.8	0.00e+00	0	26	0	515899392	68	4323
2026-01-06 05:44:28.48	22.77	22.54	-50.9	-52.6	14.9	0.00e+00	0	26	0	517996544	68	4244
2026-01-06 05:44:29.20	22.58	22.57	-50.9	-52.6	14.9	0.00e+00	0	26	0	519045120	68	4243
2026-01-06 05:44:30.49	22.25	22.62	-50.3	-51.9	15.0	0.00e+00	0	25	0	521142272	67	4180
2026-01-06 05:44:31.20	22.06	22.65	-50.5	-52.1	14.9	0.00e+00	0	26	0	523239424	67	4257
2026-01-06 05:44:32.51	21.72	22.70	-50.8	-52.5	14.8	0.00e+00	0	26	0	525336576	67	4476
2026-01-06 05:44:33.22	21.53	22.73	-51.0	-52.8	14.7	0.00e+00	0	26	0	526385152	67	4605
2026-01-06 05:44:34.53	21.19	22.78	-51.6	-53.4	14.5	0.00e+00	0	26	0	529530880	68	4705
2026-01-06 05:44:35.24	21.00	22.80	-51.7	-53.6	14.5	0.00e+00	0	26	0	530579456	68	4770
2026-01-06 05:44:36.53	20.66	22.85	-51.7	-53.6	14.5	0.00e+00	0	26	0	532676608	68	4772
2026-01-06 05:44:37.25	20.47	22.87	-51.8	-53.8	14.4	0.00e+00	0	26	0	534773760	68	4898
2026-01-06 05:44:38.53	20.13	22.92	-52.4	-54.6	14.3	0.00e+00	0	26	0	536870912	70	4762
2026-01-06 05:44:39.29	19.92	22.94	-52.8	-55.1	14.0	0.00e+00	0	26	0	537919488	70	5088
2026-01-06 05:44:40.57	19.58	22.98	-53.1	-55.6	13.9	0.00e+00	0	26	0	540016640	71	5061
2026-01-06 05:44:41.32	19.38	23.01	-52.9	-55.3	14.1	0.00e+00	0	26	0	542113792	71	4883
2026-01-06 05:44:42.60	19.04	23.05	-52.7	-55.0	14.2	0.00e+00	0	26	0	544210944	71	4744
2026-01-06 05:44:43.32	18.84	23.07	-52.5	-54.8	14.3	0.00e+00	0	26	0	545259520	71	4600
2026-01-06 05:44:44.60	18.50	23.11	-52.3	-54.4	14.5	0.00e+00	0	26	0	548405248	71	4402
2026-01-06 05:44:45.33	18.30	23.13	-52.4	-54.6	14.5	0.00e+00	0	25	0	549453824	71	4528
2026-01-06 05:44:46.61	17.96	23.17	-52.3	-54.5	14.4	0.00e+00	0	26	0	551550976	71	4469
2026-01-06 05:44:47.33	17.76	23.19	-52.2	-54.2	14.6	0.00e+00	0	25	0	553648128	71	4334
2026-01-06 05:44:48.62	17.41	23.23	-52.1	-54.2	14.4	0.00e+00	0	26	0	555745280	70	4584
2026-01-06 05:44:49.33	17.22	23.25	-52.2	-54.2	14.4	0.00e+00	0	26	0	556793856	70	4597
2026-01-06 05:44:50.62	16.87	23.28	-52.2	-54.3	14.4	0.00e+00	0	26	0	558891008	70	4651
2026-01-06 05:44:51.33	16.67	23.30	-52.2	-54.3	14.4	0.00e+00	0	26	0	560988160	70	4619
2026-01-06 05:44:52.61	16.32	23.33	-52.2	-54.3	14.4	0.00e+00	0	26	0	563085312	70	4644
2026-01-06 05:44:53.35	16.12	23.35	-52.2	-54.2	14.4	0.00e+00	0	26	0	564133888	70	4592
2026-01-06 05:44:54.63	15.77	23.38	-52.2	-54.4	14.4	0.00e+00	0	26	0	567279616	70	4663
2026-01-06 05:44:55.37	15.56	23.40	-52.3	-54.4	14.3	0.00e+00	0	26	0	568328192	70	4689
2026-01-06 05:44:56.65	15.21	23.43	-52.4	-54.6	14.3	0.00e+00	0	26	0	570425344	70	4781
2026-01-06 05:44:57.40	15.01	23.44	-52.4	-54.6	14.2	0.00e+00	0	25	0	572522496	70	4790
2026-01-06 05:44:58.68	14.65	23.47	-52.5	-54.7	14.2	0.00e+00	0	26	0	574619648	70	4866
2026-01-06 05:44:59.40	14.45	23.48	-52.5	-54.7	14.2	0.00e+00	0	26	0	575668224	70	4824
2026-01-06 05:45:00.69	14.10	23.51	-52.6	-54.9	14.1	0.00e+00	0	26	0	577765376	70	4946
2026-01-06 05:45:01.41	13.90	23.52	-52.6	-54.9	14.1	0.00e+00	0	26	0	579862528	70	4949
2026-01-06 05:45:02.69	13.54	23.55	-52.7	-55.0	14.1	0.00e+00	0	26	0	581959680	70	4999
2026-01-06 05:45:03.41	13.34	23.56	-52.8	-55.2	14.0	0.00e+00	0	26	0	583008256	70	5104
2026-01-06 05:45:04.70	12.98	23.58	-52.9	-55.4	14.0	0.00e+00	0	26	0	586153984	71	4938
2026-01-06 05:45:05.41	12.79	23.59	-52.8	-55.3	14.0	0.00e+00	0	26	0	587202560	71	4915
2026-01-06 05:45:06.70	12.43	23.61	-52.9	-55.5	14.0	0.00e+00	0	26	0	589299712	71	4989
2026-01-06 05:45:07.42	12.23	23.62	-52.9	-55.4	14.0	0.00e+00	0	26	0	590348288	71	4935
2026-01-06 05:45:08.71	11.87	23.64	-52.8	-55.2	14.1	0.00e+00	0	26	0	593494016	71	4836
2026-01-06 05:45:09.42	11.67	23.65	-52.7	-55.0	14.2	0.00e+00	0	26	0	594542592	71	4753
2026-01-06 05:45:10.72	11.31	23.67	-52.8	-55.1	14.1	0.00e+00	0	26	0	596639744	71	4810
2026-01-06 05:45:11.43	11.11	23.67	-53.1	-55.6	13.9	0.00e+00	0	26	0	598736896	71	5051
2026-01-06 05:45:12.72	10.75	23.69	-53.4	-56.0	13.7	0.00e+00	0	26	0	600834048	71	5330
2026-01-06 05:45:13.44	10.54	23.70	-53.5	-56.3	13.6	0.00e+00	0	26	0	601882624	72	5177
2026-01-06 05:45:14.72	10.19	23.71	-53.7	-56.6	13.5	0.00e+00	0	25	0	603979776	72	5359
2026-01-06 05:45:15.44	9.98	23.71	-53.8	-56.7	13.4	0.00e+00	0	25	0	606076928	72	5443
2026-01-06 05:45:16.73	9.62	23.72	-53.9	-56.9	13.4	0.00e+00	0	26	0	608174080	72	5538
2026-01-06 05:45:17.45	9.42	23.73	-53.8	-56.7	13.6	0.00e+00	0	26	0	609222656	73	5102
2026-01-06 05:45:18.73	9.06	23.74	-53.1	-55.6	14.0	0.00e+00	0	26	0	612368384	72	4793
2026-01-06 05:45:19.48	8.85	23.74	-53.0	-55.5	14.1	0.00e+00	0	26	0	613416960	72	4706
2026-01-06 05:45:20.76	8.49	23.75	-52.8	-55.2	14.2	0.00e+00	0	25	0	615514112	72	4548
2026-01-06 05:45:21.49	8.28	23.75	-52.4	-54.7	14.3	0.00e+00	0	26	0	617611264	71	4566
2026-01-06 05:45:22.77	7.92	23.76	-52.1	-54.2	14.4	0.00e+00	0	25	0	619708416	70	4588
2026-01-06 05:45:23.50	7.72	23.76	-52.1	-54.3	14.4	0.00e+00	0	26	0	620756992	70	4616
2026-01-06 05:45:24.79	7.36	23.76	-52.1	-54.3	14.3	0.00e+00	0	26	0	623902720	70	4628
2026-01-06 05:45:25.50	7.16	23.76	-52.3	-54.7	14.2	0.00e+00	0	26	0	624951296	70	4824
2026-01-06 05:45:26.80	6.79	23.76	-52.5	-54.9	14.1	0.00e+00	0	26	0	627048448	70	4957
2026-01-06 05:45:27.52	6.59	23.76	-52.3	-54.7	14.1	0.00e+00	0	26	0	628097024	70	4824
2026-01-06 05:45:28.81	6.23	23.76	-52.3	-54.7	14.2	0.00e+00	0	26	0	631242752	70	4849
2026-01-06 05:45:29.54	6.02	23.76	-52.3	-54.7	14.2	0.00e+00	0	26	0	632291328	70	4828
2026-01-06 05:45:30.83	5.66	23.76	-52.2	-54.4	14.3	0.00e+00	0	26	0	634388480	70	4684
2026-01-06 05:45:31.54	5.46	23.75	-52.1	-54.4	14.3	0.00e+00	0	26	0	636485632	70	4669
2026-01-06 05:45:32.82	5.10	23.75	-52.1	-54.3	14.4	0.00e+00	0	26	0	638582784	70	4628
2026-01-06 05:45:33.55	4.89	23.75	-52.0	-54.1	14.5	0.00e+00	0	26	0	639631360	70	4543
2026-01-06 05:45:34.83	4.53	23.74	-51.9	-54.0	14.6	0.00e+00	0	25	0	642777088	70	4462
2026-01-06 05:45:35.55	4.33	23.73	-51.6	-53.6	14.6	0.00e+00	0	26	0	643825664	69	4511
2026-01-06 05:45:36.83	3.97	23.73	-51.7	-53.8	14.5	0.00e+00	0	26	0	645922816	69	4607
2026-01-06 05:45:37.54	3.77	23.72	-51.8	-53.9	14.5	0.00e+00	0	26	0	646971392	69	4669
2026-01-06 05:45:38.84	3.41	23.71	-51.8	-53.9	14.4	0.00e+00	0	26	0	650117120	69	4681
2026-01-06 05:45:39.55	3.21	23.70	-51.7	-53.8	14.5	0.00e+00	0	26	0	651165696	69	4608
2026-01-06 05:45:40.85	2.84	23.69	-51.6	-53.6	14.6	0.00e+00	0	26	0	653262848	69	4519
2026-01-06 05:45:41.56	2.65	23.68	-51.4	-53.2	14.8	0.00e+00	0	26	0	655360000	69	4324
2026-01-06 05:45:42.84	2.29	23.67	-51.4	-53.3	14.8	0.00e+00	0	25	0	657457152	69	4355
2026-01-06 05:45:43.57	2.08	23.66	-51.4	-53.3	14.7	0.00e+00	0	26	0	658505728	69	4378
2026-01-06 05:45:44.85	1.73	23.64	-51.9	-53.9	14.5	0.00e+00	0	26	0	660602880	69	4671
2026-01-06 05:45:45.59	1.52	23.63	-51.9	-53.9	14.5	0.00e+00	0	26	0	662700032	69	4701
2026-01-06 05:45:46.88	1.16	23.61	-51.7	-53.7	14.6	0.00e+00	0	26	0	664797184	69	4553
2026-01-06 05:45:47.59	0.96	23.60	-51.5	-53.4	14.7	0.00e+00	0	26	0	665845760	69	4405
2026-01-06 05:45:48.90	0.60	23.58	-51.4	-53.3	14.8	0.00e+00	0	26	0	668991488	69	4342
2026-01-06 05:45:49.61	0.40	23.57	-51.4	-53.2	14.8	0.00e+00	0	26	0	670040064	69	4325
2026-01-06 05:45:50.90	0.04	23.55	-51.5	-53.4	14.7	0.00e+00	0	26	0	672137216	69	4397
2026-01-06 05:45:51.63	359.84	23.53	-51.7	-53.6	14.6	0.00e+00	0	26	0	674234368	69	4495
2026-01-06 05:45:52.92	359.48	23.51	-51.1	-52.8	14.8	0.00e+00	0	26	0	676331520	68	4367
2026-01-06 05:45:53.64	359.28	23.50	-51.1	-52.8	14.8	0.00e+00	0	26	0	677380096	68	4369
2026-01-06 05:45:54.92	358.93	23.47	-50.8	-52.4	15.0	0.00e+00	0	26	0	679477248	68	4166
2026-01-06 05:45:55.63	358.73	23.46	-50.7	-52.4	15.0	0.00e+00	0	26	0	681574400	68	4158
2026-01-06 05:45:56.92	358.38	23.43	-50.5	-52.1	14.9	0.00e+00	0	26	0	683671552	67	4274
2026-01-06 05:45:57.63	358.18	23.41	-50.7	-52.4	14.9	0.00e+00	0	26	0	684720128	67	4403
2026-01-06 05:45:58.92	357.83	23.38	-50.7	-52.4	14.8	0.00e+00	0	26	0	687865856	67	4414
2026-01-06 05:45:59.63	357.63	23.37	-50.7	-52.3	14.8	0.00e+00	0	26	0	688914432	67	4372
2026-01-06 05:46:00.93	357.28	23.33	-50.5	-52.1	15.0	0.00e+00	0	26	0	691011584	67	4258
2026-01-06 05:46:01.65	357.08	23.32	-50.6	-52.2	14.9	0.00e+00	0	26	0	692060160	67	4323
2026-01-06 05:46:02.94	356.73	23.28	-51.0	-52.7	14.7	0.00e+00	0	26	0	695205888	67	4573
2026-01-06 05:46:03.66	356.53	23.26	-50.9	-52.6	14.7	0.00e+00	0	26	0	696254464	67	4524
2026-01-06 05:46:04.95	356.18	23.23	-51.2	-53.0	14.6	0.00e+00	0	26	0	698351616	67	4711
2026-01-06 05:46:05.69	355.98	23.21	-51.2	-53.0	14.6	0.00e+00	0	26	0	700448768	67	4727
2026-01-06 05:46:06.97	355.63	23.17	-51.3	-53.1	14.5	0.00e+00	0	26	0	702545920	67	4780
2026-01-06 05:46:07.69	355.44	23.15	-51.4	-53.2	14.7	0.00e+00	0	26	0	703594496	68	4571
2026-01-06 05:46:08.99	355.09	23.11	-51.3	-53.1	14.7	0.00e+00	0	26	0	706740224	68	4514
2026-01-06 05:46:09.70	354.90	23.09	-51.3	-53.0	14.7	0.00e+00	0	26	0	707788800	68	4481
2026-01-06 05:46:10.99	354.55	23.05	-50.9	-52.5	14.9	0.00e+00	0	26	0	709885952	68	4236
2026-01-06 05:46:11.71	354.36	23.03	-50.7	-52.4	15.0	0.00e+00	0	26	0	710934528	68	4148
2026-01-06 05:46:12.99	354.01	22.99	-51.2	-52.9	14.8	0.00e+00	0	26	0	714080256	68	4397
2026-01-06 05:46:13.70	353.82	22.96	-51.2	-52.9	14.8	0.00e+00	0	26	0	715128832	68	4435
2026-01-06 05:46:14.99	353.48	22.92	-51.6	-53.4	14.6	0.00e+00	0	26	0	717225984	68	4671
2026-01-06 05:46:15.71	353.29	22.90	-51.8	-53.6	14.5	0.00e+00	0	26	0	719323136	68	4810
2026-01-06 05:46:16.99	352.95	22.85	-51.7	-53.5	14.5	0.00e+00	0	26	0	721420288	68	4740
2026-01-06 05:46:17.71	352.76	22.83	-51.6	-53.4	14.5	0.00e+00	0	26	0	722468864	68	4693
2026-01-06 05:46:19.00	352.42	22.78	-51.3	-53.0	14.7	0.00e+00	0	26	0	724566016	68	4489
2026-01-06 05:46:19.71	352.23	22.75	-51.4	-53.2	14.6	0.00e+00	0	26	0	726663168	68	4592
2026-01-06 05:46:21.00	351.89	22.71	-51.4	-53.2	14.6	0.00e+00	0	26	0	728760320	68	4563
2026-01-06 05:46:21.72	351.70	22.68	-51.3	-53.1	14.7	0.00e+00	0	26	0	729808896	68	4533
2026-01-06 05:46:23.01	351.36	22.63	-51.4	-53.3	14.6	0.00e+00	0	25	0	732954624	68	4607
2026-01-06 05:46:23.72	351.18	22.60	-51.7	-53.6	14.5	0.00e+00	0	26	0	734003200	68	4798
2026-01-06 05:46:25.00	350.84	22.55	-51.5	-53.4	14.6	0.00e+00	0	26	0	736100352	68	4691
2026-01-06 05:46:25.73	350.65	22.52	-51.6	-53.5	14.5	0.00e+00	0	26	0	737148928	68	4757
2026-01-06 05:46:27.02	350.32	22.47	-51.8	-53.7	14.4	0.00e+00	0	26	0	740294656	68	4865
2026-01-06 05:46:27.74	350.13	22.44	-52.0	-54.0	14.4	0.00e+00	0	26	0	741343232	69	4724
2026-01-06 05:46:29.03	349.80	22.38	-52.1	-54.1	14.4	0.00e+00	0	26	0	743440384	69	4806
2026-01-06 05:46:29.74	349.62	22.35	-52.5	-54.7	14.2	0.00e+00	0	26	0	745537536	70	4829
2026-01-06 05:46:31.03	349.29	22.30	-52.8	-55.2	14.0	0.00e+00	0	26	0	747634688	70	5105
2026-01-06 05:46:31.74	349.11	22.27	-52.8	-55.1	14.0	0.00e+00	0	26	0	748683264	70	5089
2026-01-06 05:46:33.04	348.77	22.21	-52.6	-54.9	14.1	0.00e+00	0	26	0	751828992	70	4980
2026-01-06 05:46:33.76	348.59	22.18	-52.5	-54.8	14.2	0.00e+00	0	26	0	752877568	70	4892
2026-01-06 05:46:35.05	348.27	22.12	-52.4	-54.6	14.3	0.00e+00	0	26	0	754974720	70	4766
2026-01-06 05:46:35.77	348.08	22.09	-52.3	-54.4	14.3	0.00e+00	0	26	0	756023296	70	4703
2026-01-06 05:46:37.05	347.76	22.03	-52.4	-54.6	14.3	0.00e+00	0	26	0	759169024	70	4773
2026-01-06 05:46:37.77	347.58	22.00	-52.2	-54.4	14.4	0.00e+00	0	26	0	760217600	70	4675
2026-01-06 05:46:39.06	347.26	21.93	-52.2	-54.3	14.4	0.00e+00	0	25	0	762314752	70	4625
2026-01-06 05:46:39.79	347.07	21.90	-52.3	-54.5	14.3	0.00e+00	0	26	0	764411904	70	4753
2026-01-06 05:46:41.07	346.76	21.84	-52.5	-54.7	14.2	0.00e+00	0	26	0	766509056	70	4858
2026-01-06 05:46:41.83	346.57	21.80	-52.4	-54.7	14.2	0.00e+00	0	26	0	767557632	70	4831
2026-01-06 05:46:43.11	346.25	21.74	-52.2	-54.3	14.4	0.00e+00	0	26	0	770703360	70	4639
2026-01-06 05:46:43.86	346.07	21.70	-52.1	-54.2	14.4	0.00e+00	0	26	0	771751936	70	4568
2026-01-06 05:46:45.13	345.75	21.64	-52.0	-54.1	14.5	0.00e+00	0	26	0	773849088	70	4514
2026-01-06 05:46:45.87	345.57	21.60	-52.0	-54.1	14.5	0.00e+00	0	26	0	774897664	70	4498
2026-01-06 05:46:47.14	345.26	21.54	-52.0	-54.1	14.5	0.00e+00	0	26	0	778043392	70	4521
2026-01-06 05:46:47.90	345.08	21.50	-52.1	-54.3	14.4	0.00e+00	0	26	0	779091968	70	4605
2026-01-06 05:46:49.19	344.77	21.43	-52.3	-54.4	14.4	0.00e+00	0	26	0	781189120	70	4700
2026-01-06 05:46:49.90	344.59	21.39	-52.0	-54.1	14.5	0.00e+00	0	26	0	783286272	70	4522
2026-01-06 05:46:51.20	344.28	21.32	-52.1	-54.3	14.4	0.00e+00	0	26	0	785383424	70	4603
2026-01-06 05:46:51.92	344.11	21.29	-52.1	-54.2	14.4	0.00e+00	0	26	0	786432000	70	4590
2026-01-06 05:46:53.20	343.80	21.22	-52.4	-54.7	14.2	0.00e+00	0	26	0	789577728	70	4844
2026-01-06 05:46:53.92	343.63	21.18	-52.6	-54.9	14.1	0.00e+00	0	26	0	790626304	70	4969
2026-01-06 05:46:55.20	343.33	21.11	-52.7	-55.2	14.0	0.00e+00	0	26	0	792723456	70	5105
2026-01-06 05:46:55.93	343.16	21.07	-52.6	-55.0	14.0	0.00e+00	0	26	0	793772032	70	5021
2026-01-06 05:46:57.21	342.85	21.00	-52.7	-55.2	14.0	0.00e+00	0	26	0	796917760	70	5105
2026-01-06 05:46:57.93	342.68	20.96	-52.5	-54.9	14.1	0.00e+00	0	26	0	797966336	70	4936
2026-01-06 05:46:59.21	342.39	20.89	-52.6	-54.9	14.1	0.00e+00	0	26	0	800063488	70	4974
2026-01-06 05:46:59.93	342.22	20.85	-52.5	-54.8	14.2	0.00e+00	0	26	0	802160640	70	4879
2026-01-06 05:47:01.21	341.92	20.77	-52.6	-55.0	14.1	0.00e+00	0	26	0	804257792	70	4989
2026-01-06 05:47:01.93	341.75	20.73	-52.7	-55.2	14.0	0.00e+00	0	26	0	805306368	70	5114
2026-01-06 05:47:03.21	341.46	20.66	-53.1	-55.8	13.8	0.00e+00	0	26	0	807403520	71	5208
2026-01-06 05:47:03.93	341.29	20.62	-53.4	-56.3	13.6	0.00e+00	0	26	0	809500672	72	5185
2026-01-06 05:47:05.22	341.00	20.54	-54.0	-57.2	13.2	0.00e+00	0	26	0	811597824	73	5446
2026-01-06 05:47:05.94	340.83	20.50	-54.0	-57.3	13.2	0.00e+00	0	26	0	812646400	73	5487
2026-01-06 05:47:07.22	340.54	20.42	-53.8	-57.0	13.4	0.00e+00	0	26	0	815792128	73	5292
2026-01-06 05:47:07.95	340.38	20.38	-53.6	-56.6	13.6	0.00e+00	0	26	0	816840704	73	5063
2026-01-06 05:47:09.24	340.09	20.30	-53.1	-55.8	13.9	0.00e+00	0	26	0	818937856	72	4889
2026-01-06 05:47:09.96	339.93	20.26	-52.9	-55.5	14.1	0.00e+00	0	26	0	821035008	72	4735
2026-01-06 05:47:11.25	339.64	20.18	-52.7	-55.2	14.3	0.00e+00	0	26	0	823132160	72	4558
2026-01-06 05:47:11.96	339.48	20.14	-52.7	-55.1	14.1	0.00e+00	0	26	0	824180736	71	4791
2026-01-06 05:47:13.27	339.19	20.06	-52.3	-54.5	14.4	0.00e+00	0	26	0	826277888	71	4485
2026-01-06 05:47:13.98	339.03	20.02	-52.1	-54.3	14.4	0.00e+00	0	26	0	828375040	70	4638
2026-01-06 05:47:15.26	338.75	19.94	-51.8	-54.0	14.5	0.00e+00	0	26	0	830472192	70	4449
2026-01-06 05:47:15.98	338.60	19.89	-51.8	-54.0	14.5	0.00e+00	0	26	0	831520768	70	4449
2026-01-06 05:47:17.26	338.32	19.81	-51.5	-53.6	14.6	0.00e+00	0	26	0	834666496	69	4512
2026-01-06 05:47:17.99	338.16	19.77	-51.4	-53.4	14.6	0.00e+00	0	26	0	835715072	69	4430
2026-01-06 05:47:19.27	337.88	19.69	-51.5	-53.5	14.6	0.00e+00	0	26	0	837812224	69	4484
2026-01-06 05:47:19.99	337.73	19.64	-51.4	-53.4	14.7	0.00e+00	0	26	0	839909376	69	4401
2026-01-06 05:47:21.27	337.45	19.56	-51.4	-53.3	14.7	0.00e+00	0	26	0	842006528	69	4369
2026-01-06 05:47:21.99	337.30	19.52	-51.4	-53.3	14.7	0.00e+00	0	26	0	843055104	69	4354
2026-01-06 05:47:23.27	337.03	19.44	-51.2	-53.1	14.8	0.00e+00	0	26	0	845152256	69	4273
2026-01-06 05:47:24.01	336.87	19.39	-50.9	-52.7	14.8	0.00e+00	0	26	0	847249408	68	4324
2026-01-06 05:47:25.28	336.60	19.31	-50.8	-52.6	14.8	0.00e+00	0	26	0	849346560	68	4289
2026-01-06 05:47:26.01	336.45	19.26	-50.8	-52.6	14.9	0.00e+00	0	26	0	850395136	68	4265
2026-01-06 05:47:27.30	336.18	19.18	-50.9	-52.8	14.8	0.00e+00	0	26	0	853540864	68	4365
2026-01-06 05:47:28.04	336.02	19.13	-51.0	-52.9	14.7	0.00e+00	0	26	0	854589440	68	4405
2026-01-06 05:47:29.33	335.76	19.04	-51.6	-53.7	14.4	0.00e+00	0	26	0	856686592	68	4832
2026-01-06 05:47:30.06	335.61	19.00	-52.0	-54.2	14.2	0.00e+00	0	26	0	858783744	69	4848
2026-01-06 05:47:31.35	335.34	18.91	-52.4	-54.7	14.0	0.00e+00	0	26	0	860880896	69	5152
2026-01-06 05:47:32.07	335.19	18.87	-52.6	-55.1	14.0	0.00e+00	0	26	0	861929472	70	5077
2026-01-06 05:47:33.35	334.93	18.78	-53.0	-55.7	13.8	0.00e+00	0	26	0	864026624	71	5111
2026-01-06 05:47:34.06	334.79	18.73	-53.0	-55.7	13.8	0.00e+00	0	26	0	866123776	71	5126
2026-01-06 05:47:35.35	334.53	18.65	-52.8	-55.4	13.9	0.00e+00	0	26	0	868220928	71	4974
2026-01-06 05:47:36.06	334.39	18.60	-53.0	-55.7	13.8	0.00e+00	0	26	0	869269504	71	5122
2026-01-06 05:47:37.34	334.13	18.52	-52.6	-55.1	14.1	0.00e+00	0	26	0	872415232	71	4770
2026-01-06 05:47:38.06	333.99	18.47	-52.5	-54.9	14.2	0.00e+00	0	26	0	873463808	71	4699
2026-01-06 05:47:39.34	333.73	18.38	-52.1	-54.4	14.3	0.00e+00	0	26	0	875560960	70	4693
2026-01-06 05:47:40.07	333.59	18.33	-52.0	-54.3	14.4	0.00e+00	0	26	0	876609536	70	4613
2026-01-06 05:47:41.35	333.34	18.25	-51.9	-54.1	14.4	0.00e+00	0	26	0	879755264	70	4508
2026-01-06 05:47:42.07	333.20	18.20	-51.9	-54.1	14.4	0.00e+00	0	26	0	880803840	70	4517
2026-01-06 05:47:43.36	332.95	18.11	-51.6	-53.6	14.5	0.00e+00	0	26	0	882900992	69	4544
2026-01-06 05:47:44.07	332.81	18.06	-51.5	-53.5	14.6	0.00e+00	0	26	0	884998144	69	4491
2026-01-06 05:47:45.37	332.56	17.97	-51.2	-53.1	14.8	0.00e+00	0	26	0	887095296	69	4259
2026-01-06 05:47:46.08	332.42	17.93	-51.1	-53.0	14.7	0.00e+00	0	26	0	888143872	68	4453
2026-01-06 05:47:47.37	332.18	17.84	-51.2	-53.1	14.6	0.00e+00	0	26	0	890241024	68	4513
2026-01-06 05:47:48.09	332.04	17.79	-51.3	-53.3	14.6	0.00e+00	0	26	0	892338176	68	4616
2026-01-06 05:47:49.37	331.80	17.70	-51.6	-53.8	14.4	0.00e+00	0	26	0	894435328	68	4874
2026-01-06 05:47:50.08	331.66	17.65	-51.8	-54.0	14.3	0.00e+00	0	26	0	895483904	68	5003
2026-01-06 05:47:51.39	331.42	17.56	-52.0	-54.3	14.2	0.00e+00	0	26	0	898629632	69	4871
2026-01-06 05:47:52.10	331.28	17.51	-52.0	-54.3	14.3	0.00e+00	0	26	0	899678208	69	4876
2026-01-06 05:47:53.41	331.04	17.42	-52.0	-54.2	14.3	0.00e+00	0	26	0	901775360	69	4869
2026-01-06 05:47:54.13	330.91	17.37	-51.8	-54.0	14.4	0.00e+00	0	26	0	903872512	69	4712
2026-01-06 05:47:55.43	330.67	17.28	-51.8	-53.9	14.4	0.00e+00	0	26	0	905969664	69	4683
2026-01-06 05:47:56.14	330.54	17.23	-51.8	-54.0	14.4	0.00e+00	0	26	0	907018240	69	4718
2026-01-06 05:47:57.45	330.30	17.14	-52.1	-54.3	14.3	0.00e+00	0	26	0	910163968	69	4883
2026-01-06 05:47:58.17	330.17	17.09	-52.2	-54.4	14.2	0.00e+00	0	26	0	911212544	69	4969
2026-01-06 05:47:59.46	329.93	17.00	-52.3	-54.6	14.2	0.00e+00	0	26	0	913309696	69	5065
2026-01-06 05:48:00.16	329.81	16.95	-52.2	-54.5	14.1	0.00e+00	0	26	0	914358272	69	5003
2026-01-06 05:48:01.48	329.57	16.86	-52.2	-54.4	14.2	0.00e+00	0	26	0	917504000	69	4976
2026-01-06 05:48:02.19	329.44	16.81	-52.2	-54.5	14.2	0.00e+00	0	26	0	918552576	69	5005
2026-01-06 05:48:03.47	329.22	16.72	-52.0	-54.2	14.3	0.00e+00	0	26	0	920649728	69	4849
2026-01-06 05:48:04.18	329.09	16.67	-52.1	-54.3	14.3	0.00e+00	0	26	0	922746880	69	4886
2026-01-06 05:48:05.48	328.86	16.58	-51.9	-54.0	14.4	0.00e+00	0	26	0	924844032	69	4745
2026-01-06 05:48:06.20	328.74	16.53	-51.8	-53.9	14.4	0.00e+00	0	26	0	925892608	69	4667
2026-01-06 05:48:07.49	328.51	16.44	-51.6	-53.6	14.5	0.00e+00	0	26	0	927989760	69	4531
2026-01-06 05:48:08.21	328.39	16.39	-51.5	-53.5	14.6	0.00e+00	0	26	0	930086912	69	4467
2026-01-06 05:48:09.49	328.17	16.30	-51.6	-53.6	14.6	0.00e+00	0	26	0	932184064	69	4498
2026-01-06 05:48:10.20	328.05	16.25	-51.6	-53.5	14.6	0.00e+00	0	26	0	933232640	69	4460
2026-01-06 05:48:11.49	327.83	16.16	-51.7	-53.7	14.5	0.00e+00	0	26	0	936378368	69	4558
2026-01-06 05:48:12.20	327.71	16.11	-51.8	-53.8	14.4	0.00e+00	0	26	0	937426944	69	4642
2026-01-06 05:48:13.50	327.49	16.01	-51.9	-53.9	14.4	0.00e+00	0	26	0	939524096	69	4702
2026-01-06 05:48:14.21	327.37	15.96	-51.9	-53.9	14.4	0.00e+00	0	26	0	940572672	69	4690
2026-01-06 05:48:15.53	327.15	15.87	-51.9	-53.9	14.4	0.00e+00	0	26	0	943718400	69	4684
2026-01-06 05:48:16.24	327.03	15.82	-51.6	-53.5	14.6	0.00e+00	0	26	0	944766976	69	4477
2026-01-06 05:48:17.52	326.81	15.73	-51.5	-53.3	14.7	0.00e+00	0	26	0	946864128	69	4381
2026-01-06 05:48:18.23	326.70	15.68	-51.5	-53.3	14.7	0.00e+00	0	26	0	948961280	69	4370
2026-01-06 05:48:19.51	326.49	15.59	-51.0	-52.8	14.8	0.00e+00	0	26	0	951058432	68	4359
2026-01-06 05:48:20.25	326.37	15.54	-50.9	-52.6	14.9	0.00e+00	0	26	0	952107008	68	4267
2026-01-06 05:48:21.54	326.16	15.44	-50.9	-52.6	14.9	0.00e+00	0	26	0	955252736	68	4248
2026-01-06 05:48:22.25	326.04	15.39	-51.0	-52.8	14.8	0.00e+00	0	26	0	956301312	68	4341
2026-01-06 05:48:23.53	325.84	15.30	-51.2	-52.9	14.7	0.00e+00	0	26	0	958398464	68	4434
2026-01-06 05:48:24.26	325.72	15.25	-51.2	-53.0	14.7	0.00e+00	0	26	0	959447040	68	4456
2026-01-06 05:48:25.55	325.51	15.16	-51.5	-53.3	14.6	0.00e+00	0	26	0	962592768	68	4626
2026-01-06 05:48:26.26	325.40	15.11	-51.4	-53.2	14.6	0.00e+00	0	26	0	963641344	68	4592
2026-01-06 05:48:27.55	325.20	15.02	-51.7	-53.6	14.4	0.00e+00	0	26	0	965738496	68	4780
2026-01-06 05:48:28.26	325.08	14.97	-51.7	-53.7	14.4	0.00e+00	0	26	0	967835648	68	4827
2026-01-06 05:48:29.60	324.87	14.87	-51.9	-53.8	14.3	0.00e+00	0	26	0	969932800	68	4922
2026-01-06 05:48:30.32	324.76	14.82	-51.9	-53.8	14.3	0.00e+00	0	26	0	970981376	68	4922
2026-01-06 05:48:31.60	324.56	14.73	-51.8	-53.7	14.3	0.00e+00	0	26	0	974127104	68	4859
2026-01-06 05:48:32.35	324.45	14.67	-51.6	-53.5	14.5	0.00e+00	0	26	0	975175680	68	4743
2026-01-06 05:48:33.64	324.25	14.58	-51.4	-53.2	14.6	0.00e+00	0	26	0	977272832	68	4572
2026-01-06 05:48:34.35	324.14	14.53	-51.4	-53.3	14.6	0.00e+00	0	26	0	978321408	68	4604
2026-01-06 05:48:35.63	323.95	14.44	-51.2	-53.0	14.7	0.00e+00	0	26	0	981467136	68	4455
2026-01-06 05:48:36.36	323.84	14.39	-51.1	-52.8	14.7	0.00e+00	0	26	0	982515712	68	4372
2026-01-06 05:48:37.64	323.65	14.30	-51.2	-53.0	14.7	0.00e+00	0	26	0	984612864	68	4453
2026-01-06 05:48:38.38	323.53	14.25	-51.4	-53.2	14.6	0.00e+00	0	26	0	986710016	68	4579
2026-01-06 05:48:39.65	323.35	14.16	-51.8	-53.7	14.4	0.00e+00	0	26	0	988807168	68	4833
2026-01-06 05:48:40.39	323.24	14.10	-51.9	-53.8	14.3	0.00e+00	0	26	0	989855744	68	4919
2026-01-06 05:48:41.68	323.05	14.01	-52.2	-54.3	14.2	0.00e+00	0	26	0	993001472	69	4910
2026-01-06 05:48:42.39	322.94	13.96	-52.1	-54.1	14.3	0.00e+00	0	26	0	994050048	69	4806
2026-01-06 05:48:43.67	322.75	13.87	-52.3	-54.4	14.2	0.00e+00	0	26	0	996147200	69	4970
2026-01-06 05:48:44.38	322.65	13.82	-52.3	-54.5	14.1	0.00e+00	0	26	0	997195776	69	4995
2026-01-06 05:48:45.67	322.47	13.73	-52.3	-54.4	14.1	0.00e+00	0	26	0	1000341504	69	4955
2026-01-06 05:48:46.38	322.36	13.68	-52.2	-54.3	14.2	0.00e+00	0	26	0	1001390080	69	4911
2026-01-06 05:48:47.67	322.18	13.58	-52.1	-54.2	14.3	0.00e+00	0	26	0	1003487232	69	4832
2026-01-06 05:48:48.39	322.08	13.53	-52.1	-54.2	14.2	0.00e+00	0	26	0	1005584384	69	4833
2026-01-06 05:48:49.67	321.89	13.44	-51.9	-53.8	14.4	0.00e+00	0	26	0	1007681536	69	4640
2026-01-06 05:48:50.38	321.79	13.39	-52.0	-54.0	14.4	0.00e+00	0	26	0	1008730112	69	4717
2026-01-06 05:48:51.69	321.61	13.30	-51.7	-53.6	14.5	0.00e+00	0	26	0	1011875840	69	4506
2026-01-06 05:48:52.40	321.51	13.25	-51.7	-53.6	14.5	0.00e+00	0	26	0	1012924416	69	4502
2026-01-06 05:48:53.69	321.33	13.16	-51.6	-53.4	14.6	0.00e+00	0	26	0	1015021568	69	4427
2026-01-06 05:48:54.41	321.23	13.11	-51.6	-53.4	14.6	0.00e+00	0	26	0	1016070144	69	4432
2026-01-06 05:48:55.71	321.05	13.01	-51.3	-53.1	14.7	0.00e+00	0	26	0	1019215872	69	4278
2026-01-06 05:48:56.43	320.95	12.96	-51.3	-53.1	14.8	0.00e+00	0	26	0	1020264448	69	4251
2026-01-06 05:48:57.72	320.78	12.87	-51.5	-53.4	14.6	0.00e+00	0	26	0	1022361600	69	4397
2026-01-06 05:48:58.44	320.68	12.82	-51.5	-53.3	14.7	0.00e+00	0	26	0	1024458752	69	4351
2026-01-06 05:48:59.73	320.51	12.73	-52.0	-54.0	14.3	0.00e+00	0	26	0	1026555904	69	4717
2026-01-06 05:49:00.44	320.41	12.68	-52.3	-54.3	14.2	0.00e+00	0	26	0	1027604480	69	4903
2026-01-06 05:49:01.74	320.24	12.59	-52.6	-54.8	14.1	0.00e+00	0	26	0	1029701632	70	4907
2026-01-06 05:49:02.45	320.14	12.54	-52.8	-55.1	14.0	0.00e+00	0	26	0	1031798784	70	5073
2026-01-06 05:49:03.76	319.97	12.45	-53.0	-55.3	13.9	0.00e+00	0	26	0	1033895936	71	4923
2026-01-06 05:49:04.47	319.88	12.40	-53.0	-55.3	14.0	0.00e+00	0	26	0	1034944512	71	4897
2026-01-06 05:49:05.76	319.71	12.31	-53.0	-55.3	13.9	0.00e+00	0	26	0	1038090240	71	4908
2026-01-06 05:49:06.47	319.61	12.26	-52.9	-55.2	14.0	0.00e+00	0	26	0	1039138816	71	4819
2026-01-06 05:49:07.79	319.44	12.16	-52.4	-54.5	14.4	0.00e+00	0	26	0	1041235968	71	4463
2026-01-06 05:49:08.50	319.35	12.11	-52.3	-54.3	14.4	0.00e+00	0	26	0	1043333120	71	4378
2026-01-06 05:49:09.79	319.19	12.02	-52.3	-54.4	14.4	0.00e+00	0	26	0	1045430272	71	4403
2026-01-06 05:49:10.51	319.09	11.97	-52.2	-54.2	14.5	0.00e+00	0	26	0	1046478848	71	4310
2026-01-06 05:49:11.80	318.93	11.88	-52.2	-54.2	14.4	0.00e+00	0	26	0	1048576000	70	4552
2026-01-06 05:49:12.52	318.84	11.83	-52.3	-54.3	14.3	0.00e+00	0	26	0	1050673152	70	4643
2026-01-06 05:49:13.79	318.68	11.74	-52.4	-54.4	14.3	0.00e+00	0	26	0	1052770304	70	4698
2026-01-06 05:49:14.51	318.59	11.69	-52.1	-54.1	14.4	0.00e+00	0	26	0	1053818880	70	4534
2026-01-06 05:49:15.80	318.43	11.60	-52.3	-54.4	14.3	0.00e+00	0	26	0	1056964608	70	4682
2026-01-06 05:49:16.52	318.34	11.55	-52.3	-54.4	14.2	0.00e+00	0	26	0	1058013184	70	4683
2026-01-06 05:49:17.80	318.18	11.46	-52.4	-54.5	14.2	0.00e+00	0	26	0	1060110336	70	4724
2026-01-06 05:49:18.56	318.09	11.41	-52.4	-54.4	14.3	0.00e+00	0	26	0	1062207488	70	4687
2026-01-06 05:49:19.83	317.93	11.32	-52.3	-54.3	14.3	0.00e+00	0	26	0	1064304640	70	4624
2026-01-06 05:49:20.58	317.84	11.27	-52.2	-54.2	14.4	0.00e+00	0	26	0	1065353216	70	4580
2026-01-06 05:49:21.85	317.69	11.18	-52.3	-54.4	14.3	0.00e+00	0	26	0	1067450368	70	4671
2026-01-06 05:49:22.57	317.60	11.13	-52.4	-54.6	14.2	0.00e+00	0	26	0	1069547520	70	4771
2026-01-06 05:49:23.85	317.45	11.05	-52.6	-54.7	14.1	0.00e+00	0	26	0	1071644672	70	4857
2026-01-06 05:49:24.57	317.36	11.00	-52.6	-54.8	14.1	0.00e+00	0	26	0	1072693248	70	4895
2026-01-06 05:49:25.85	317.21	10.91	-52.8	-55.0	14.0	0.00e+00	0	26	0	1075838976	70	5024
2026-01-06 05:49:26.56	317.12	10.86	-52.9	-55.2	13.9	0.00e+00	0	26	0	1076887552	70	5116
2026-01-06 05:49:27.84	316.97	10.77	-53.1	-55.5	13.8	0.00e+00	0	26	0	1078984704	71	5025
2026-01-06 05:49:28.56	316.89	10.72	-52.9	-55.2	14.0	0.00e+00	0	26	0	1080033280	71	4847
2026-01-06 05:49:29.84	316.74	10.63	-53.0	-55.4	13.9	0.00e+00	0	26	0	1083179008	71	4961
2026-01-06 05:49:30.57	316.65	10.58	-52.9	-55.2	13.9	0.00e+00	0	26	0	1084227584	71	4866
2026-01-06 05:49:31.85	316.51	10.49	-52.9	-55.3	13.9	0.00e+00	0	26	0	1086324736	71	4902
2026-01-06 05:49:32.59	316.42	10.44	-52.9	-55.3	13.9	0.00e+00	0	26	0	1088421888	71	4917
2026-01-06 05:49:33.87	316.28	10.36	-53.0	-55.4	13.9	0.00e+00	0	26	0	1090519040	71	4969
2026-01-06 05:49:34.58	316.19	10.31	-53.0	-55.5	13.8	0.00e+00	0	26	0	1091567616	71	5016
2026-01-06 05:49:35.91	316.04	10.22	-53.0	-55.4	13.9	0.00e+00	0	26	0	1094713344	71	4952
2026-01-06 05:49:36.63	315.96	10.17	-53.3	-55.8	13.7	0.00e+00	0	26	0	1095761920	71	5185
2026-01-06 05:49:37.90	315.82	10.08	-53.4	-56.0	13.6	0.00e+00	0	26	0	1097859072	71	5301
2026-01-06 05:49:38.64	315.74	10.03	-53.7	-56.4	13.4	0.00e+00	0	26	0	1098907648	72	5269
2026-01-06 05:49:39.92	315.60	9.94	-53.5	-56.1	13.6	0.00e+00	0	26	0	1102053376	72	5099
2026-01-06 05:49:40.64	315.52	9.90	-53.5	-56.2	13.6	0.00e+00	0	26	0	1103101952	72	5143
2026-01-06 05:49:41.92	315.38	9.81	-53.5	-56.2	13.6	0.00e+00	0	26	0	1105199104	72	5134
2026-01-06 05:49:42.69	315.29	9.76	-53.7	-56.1	13.6	0.00e+00	0	26	0	1107296256	72	5070
2026-01-06 05:49:43.97	315.15	9.67	-53.6	-56.0	13.7	0.00e+00	0	26	0	1109393408	72	4995
2026-01-06 05:49:44.72	315.07	9.62	-53.4	-55.7	13.8	0.00e+00	0	26	0	1110441984	72	4856
2026-01-06 05:49:46.01	314.93	9.53	-53.2	-55.3	14.0	0.00e+00	0	26	0	1113587712	72	4647
2026-01-06 05:49:46.74	314.85	9.48	-52.9	-55.0	14.2	0.00e+00	0	26	0	1114636288	72	4482
2026-01-06 05:49:48.03	314.71	9.40	-52.9	-55.0	14.2	0.00e+00	0	26	0	1116733440	72	4462
2026-01-06 05:49:48.76	314.64	9.35	-52.8	-54.9	14.3	0.00e+00	0	26	0	1118830592	72	4405
2026-01-06 05:49:50.04	314.50	9.26	-52.8	-54.9	14.1	0.00e+00	0	26	0	1120927744	71	4687
2026-01-06 05:49:50.75	314.43	9.21	-52.8	-54.9	14.1	0.00e+00	0	26	0	1121976320	71	4653
2026-01-06 05:49:52.06	314.29	9.13	-52.7	-54.8	14.1	0.00e+00	0	26	0	1124073472	71	4625
2026-01-06 05:49:52.77	314.22	9.08	-52.8	-54.8	14.1	0.00e+00	0	26	0	1126170624	71	4645
2026-01-06 05:49:54.05	314.08	8.99	-52.9	-55.1	14.0	0.00e+00	0	26	0	1128267776	71	4761
2026-01-06 05:49:54.78	314.01	8.94	-53.0	-55.2	14.0	0.00e+00	0	26	0	1129316352	71	4815
2026-01-06 05:49:56.06	313.88	8.86	-53.2	-55.5	13.8	0.00e+00	0	26	0	1132462080	71	5012
2026-01-06 05:49:56.82	313.80	8.81	-53.3	-55.5	13.8	0.00e+00	0	26	0	1133510656	71	5030
2026-01-06 05:49:58.11	313.67	8.72	-53.4	-55.7	13.8	0.00e+00	0	26	0	1135607808	72	4859
2026-01-06 05:49:58.83	313.59	8.68	-53.4	-55.8	13.8	0.00e+00	0	26	0	1137704960	72	4879
2026-01-06 05:50:00.11	313.46	8.59	-53.6	-55.9	13.7	0.00e+00	0	26	0	1139802112	72	4963
2026-01-06 05:50:00.82	313.39	8.54	-53.5	-55.8	13.8	0.00e+00	0	26	0	1140850688	72	4882
2026-01-06 05:50:02.11	313.26	8.46	-53.2	-55.4	14.0	0.00e+00	0	26	0	1142947840	72	4701
2026-01-06 05:50:02.82	313.19	8.41	-53.3	-55.6	13.8	0.00e+00	0	26	0	1145044992	72	4791
2026-01-06 05:50:04.10	313.07	8.33	-53.2	-55.5	13.9	0.00e+00	0	26	0	1147142144	72	4729
2026-01-06 05:50:04.82	313.00	8.28	-53.1	-55.3	14.0	0.00e+00	0	26	0	1148190720	72	4642
2026-01-06 05:50:06.11	312.87	8.20	-53.2	-55.5	13.9	0.00e+00	0	26	0	1151336448	72	4713
2026-01-06 05:50:06.83	312.80	8.15	-53.1	-55.4	14.0	0.00e+00	0	26	0	1152385024	72	4659
2026-01-06 05:50:08.11	312.67	8.06	-53.0	-55.1	14.1	0.00e+00	0	26	0	1154482176	72	4522
2026-01-06 05:50:08.82	312.61	8.02	-53.2	-55.4	13.9	0.00e+00	0	26	0	1155530752	72	4694
2026-01-06 05:50:10.11	312.48	7.93	-53.3	-55.5	13.9	0.00e+00	0	26	0	1158676480	72	4742
2026-01-06 05:50:10.82	312.41	7.89	-53.1	-55.3	14.0	0.00e+00	0	26	0	1159725056	72	4646
2026-01-06 05:50:12.12	312.29	7.80	-53.4	-55.8	13.8	0.00e+00	0	26	0	1161822208	72	4878
2026-01-06 05:50:12.83	312.22	7.76	-53.5	-55.9	13.7	0.00e+00	0	26	0	1163919360	72	4977
2026-01-06 05:50:14.11	312.10	7.67	-53.4	-55.7	13.8	0.00e+00	0	26	0	1166016512	72	4850
2026-01-06 05:50:14.87	312.03	7.62	-53.5	-55.9	13.7	0.00e+00	0	26	0	1167065088	72	4962
2026-01-06 05:50:16.15	311.91	7.54	-53.7	-56.2	13.5	0.00e+00	0	26	0	1170210816	72	5156
2026-01-06 05:50:16.88	311.84	7.49	-53.7	-56.2	13.5	0.00e+00	0	26	0	1171259392	72	5142
2026-01-06 05:50:18.16	311.72	7.41	-53.5	-56.0	13.7	0.00e+00	0	26	0	1173356544	72	5001
2026-01-06 05:50:18.88	311.66	7.36	-53.9	-56.5	13.4	0.00e+00	0	26	0	1174405120	72	5291
2026-01-06 05:50:20.15	311.54	7.28	-54.0	-56.7	13.3	0.00e+00	0	26	0	1177550848	73	5154
2026-01-06 05:50:20.88	311.47	7.24	-54.1	-56.9	13.2	0.00e+00	0	26	0	1178599424	73	5222
2026-01-06 05:50:22.16	311.36	7.15	-54.3	-57.2	13.0	0.00e+00	0	26	0	1180696576	73	5430
2026-01-06 05:50:22.88	311.29	7.11	-54.3	-57.2	13.0	0.00e+00	0	26	0	1182793728	73	5419
2026-01-06 05:50:24.16	311.17	7.02	-54.4	-57.3	13.0	0.00e+00	0	26	0	1184890880	73	5466
2026-01-06 05:50:24.89	311.11	6.98	-54.5	-57.4	12.9	0.00e+00	0	26	0	1185939456	74	5245
2026-01-06 05:50:26.18	310.99	6.90	-54.7	-57.9	12.7	0.00e+00	0	26	0	1188036608	74	5539
2026-01-06 05:50:26.89	310.93	6.85	-54.5	-57.5	13.0	0.00e+00	0	26	0	1190133760	74	5319
2026-01-06 05:50:28.18	310.82	6.77	-54.6	-57.6	12.9	0.00e+00	0	26	0	1192230912	74	5367
2026-01-06 05:50:28.90	310.75	6.72	-54.7	-57.8	12.7	0.00e+00	0	26	0	1193279488	74	5525
2026-01-06 05:50:30.18	310.64	6.64	-54.6	-57.7	12.8	0.00e+00	0	26	0	1196425216	74	5461
2026-01-06 05:50:30.94	310.57	6.59	-54.6	-57.6	12.8	0.00e+00	0	26	0	1197473792	74	5392
2026-01-06 05:50:32.22	310.46	6.51	-54.6	-57.7	12.8	0.00e+00	0	26	0	1199570944	74	5459
2026-01-06 05:50:32.93	310.40	6.47	-54.5	-57.4	12.9	0.00e+00	0	26	0	1201668096	74	5275
2026-01-06 05:50:34.23	310.29	6.39	-54.7	-57.8	12.7	0.00e+00	0	26	0	1203765248	74	5502
2026-01-06 05:50:34.94	310.23	6.34	-54.7	-57.9	12.6	0.00e+00	0	26	0	1204813824	74	5549
2026-01-06 05:50:36.24	310.12	6.26	-54.5	-57.5	12.9	0.00e+00	0	26	0	1206910976	74	5339
2026-01-06 05:50:36.95	310.06	6.21	-54.5	-57.5	12.9	0.00e+00	0	26	0	1209008128	74	5301
2026-01-06 05:50:38.23	309.95	6.13	-54.7	-57.8	12.7	0.00e+00	0	26	0	1211105280	74	5494
2026-01-06 05:50:38.94	309.89	6.09	-54.6	-57.7	12.8	0.00e+00	0	26	0	1212153856	74	5423
2026-01-06 05:50:40.24	309.78	6.01	-54.7	-57.8	12.7	0.00e+00	0	26	0	1215299584	74	5502
2026-01-06 05:50:40.95	309.72	5.96	-54.5	-57.5	12.9	0.00e+00	0	26	0	1216348160	74	5332
2026-01-06 05:50:42.23	309.61	5.88	-54.6	-57.7	12.8	0.00e+00	0	26	0	1218445312	74	5409
2026-01-06 05:50:42.98	309.55	5.84	-54.8	-58.1	12.5	0.00e+00	0	26	0	1220542464	74	5681
