passes_logs/2026/01/02/R3.0SM8_Murmansk_STILSPACE/R3.0SM8_Murmansk_STILSPACE__20260102_121555_NOAA_20_JPSS-1_rec.log

#Pass ID: 20260102_121555_NOAA 20 (JPSS-1)
#Satellite: NOAA 20 (JPSS-1)
#Configuration: NOAA 20
#almurnet v.1.7.20240730
#Start time: 2026-01-02 12:15:57

#Version: 2.2.20231116
#Station: R3.0SM8_Murmansk_STILSPACE
#Location: 33.092731 lon 68.902999 lat
#TLE: 1 43013U 17073A   26001.30344297  .00000183  00000+0  10758-3 0  9995
#TLE: 2 43013  98.7621 302.3885 0001938  59.1624 300.9742 14.19532032420790

#Time	Az	El	Level	Level2	SNR	BER	BlckErr	Temp	State	Recorded	gain1	gain2
2026-01-02 12:15:57.20	223.38	3.09	-52.5	-66.5	3.8	1.49e+00	0	46	0	0	67	18472
2026-01-02 12:15:58.17	223.46	3.14	-52.5	-66.6	3.8	1.49e+00	0	46	104	0	68	17505
2026-01-02 12:15:59.16	223.55	3.20	-52.5	-66.5	3.8	1.49e+00	0	46	104	0	68	17373
2026-01-02 12:16:00.15	223.64	3.25	-52.2	-66.3	3.8	1.49e+00	0	47	104	0	67	18028
2026-01-02 12:16:01.13	223.72	3.30	-52.3	-66.2	3.8	1.49e+00	0	47	104	0	67	17718
2026-01-02 12:16:02.12	223.81	3.35	-52.0	-65.9	3.8	1.49e+00	0	47	104	0	67	17132
2026-01-02 12:16:03.11	223.89	3.41	-51.8	-65.6	3.8	1.49e+00	0	47	104	0	66	17681
2026-01-02 12:16:04.10	223.98	3.46	-51.3	-65.2	3.8	1.49e+00	0	47	104	0	65	17709
2026-01-02 12:16:05.10	224.07	3.51	-50.9	-64.8	3.8	1.49e+00	0	47	104	0	64	17968
2026-01-02 12:16:06.08	224.15	3.57	-50.9	-63.9	3.8	1.49e+00	0	47	104	0	64	16212
2026-01-02 12:16:07.07	224.24	3.62	-50.8	-63.9	3.8	1.49e+00	0	47	104	0	64	16180
2026-01-02 12:16:08.06	224.33	3.67	-50.8	-64.0	3.8	1.49e+00	0	47	104	0	64	16330
2026-01-02 12:16:09.05	224.42	3.73	-50.8	-64.1	3.8	1.49e+00	0	47	104	0	64	16666
2026-01-02 12:16:10.04	224.51	3.78	-50.8	-64.3	3.8	1.49e+00	0	47	104	0	64	16953
2026-01-02 12:16:11.03	224.60	3.83	-50.8	-64.5	3.8	1.49e+00	0	47	104	0	64	17461
2026-01-02 12:16:12.03	224.69	3.89	-50.8	-64.7	3.8	1.49e+00	0	47	104	0	64	17746
2026-01-02 12:16:13.01	224.77	3.94	-50.9	-64.7	3.8	1.49e+00	0	48	104	0	64	17833
2026-01-02 12:16:14.00	224.86	3.99	-50.8	-64.6	3.8	1.49e+00	0	48	104	0	64	17644
2026-01-02 12:16:14.99	224.95	4.05	-50.8	-64.4	3.8	1.49e+00	0	48	104	0	64	17255
2026-01-02 12:16:15.98	225.04	4.10	-50.7	-64.1	3.8	1.49e+00	0	47	104	0	64	16616
2026-01-02 12:16:16.97	225.13	4.16	-50.8	-63.7	3.8	1.49e+00	0	48	104	0	64	15889
2026-01-02 12:16:17.95	225.22	4.21	-50.8	-63.4	3.8	1.49e+00	0	48	104	0	64	15380
2026-01-02 12:16:18.93	225.32	4.26	-50.7	-63.1	3.8	1.49e+00	0	48	104	0	64	14834
2026-01-02 12:16:19.92	225.41	4.32	-50.8	-62.9	3.8	1.49e+00	0	48	104	0	64	14481
2026-01-02 12:16:20.91	225.50	4.37	-50.7	-62.8	3.8	1.49e+00	0	48	104	0	64	14325
2026-01-02 12:16:21.90	225.59	4.42	-50.8	-62.8	3.8	1.49e+00	0	48	104	0	64	14345
2026-01-02 12:16:22.89	225.68	4.48	-50.8	-62.9	3.8	1.49e+00	0	48	104	0	64	14531
2026-01-02 12:16:23.88	225.78	4.53	-50.7	-63.1	3.8	1.49e+00	0	48	104	0	64	14827
2026-01-02 12:16:24.86	225.87	4.59	-50.8	-63.4	3.8	1.49e+00	0	48	104	0	64	15314
2026-01-02 12:16:25.85	225.96	4.64	-50.9	-63.8	3.8	1.49e+00	0	48	104	0	64	16032
2026-01-02 12:16:26.84	226.06	4.70	-50.8	-64.2	3.8	1.49e+00	0	48	104	0	64	16845
2026-01-02 12:16:27.83	226.15	4.75	-50.7	-64.6	3.8	1.49e+00	0	48	104	0	64	17558
2026-01-02 12:16:28.83	226.25	4.80	-50.8	-64.7	3.8	1.49e+00	0	48	104	0	64	17850
2026-01-02 12:16:29.81	226.34	4.86	-50.8	-64.5	3.8	1.49e+00	0	48	104	0	64	17373
2026-01-02 12:16:30.80	226.44	4.91	-50.8	-63.6	3.8	1.49e+00	0	49	104	0	64	15719
2026-01-02 12:16:31.78	226.53	4.97	-50.7	-62.5	3.8	1.49e+00	0	49	104	0	64	13757
2026-01-02 12:16:32.77	226.63	5.02	-50.6	-61.0	4.2	1.42e+00	0	48	0	0	64	11627
2026-01-02 12:16:33.75	226.72	5.08	-50.5	-60.3	4.5	1.14e+00	16	49	0	1048576	64	10776
2026-01-02 12:16:34.74	226.82	5.13	-50.6	-60.9	4.3	1.10e+00	0	49	0	2097152	64	11429
2026-01-02 12:16:35.71	226.91	5.18	-50.5	-60.6	4.4	1.32e+00	88	49	0	3145728	64	11051
2026-01-02 12:16:36.70	227.01	5.24	-50.5	-59.8	4.8	9.30e-01	0	49	0	4194304	63	10710
2026-01-02 12:16:37.68	227.11	5.29	-50.5	-59.0	5.2	7.08e-01	0	49	0	6291456	63	9784
2026-01-02 12:16:38.67	227.21	5.35	-50.4	-58.3	5.6	5.34e-01	0	49	0	8388608	63	9060
2026-01-02 12:16:39.66	227.30	5.40	-50.3	-57.9	6.0	3.64e-01	0	49	0	10485760	63	8576
2026-01-02 12:16:40.65	227.40	5.46	-50.3	-57.5	6.2	2.99e-01	0	49	0	11534336	63	8209
2026-01-02 12:16:41.64	227.50	5.51	-50.2	-57.2	6.4	2.51e-01	0	49	0	13631488	63	7963
2026-01-02 12:16:42.62	227.60	5.57	-50.1	-57.1	6.5	2.27e-01	0	49	0	15728640	63	7824
2026-01-02 12:16:43.61	227.70	5.62	-50.0	-57.0	6.6	2.16e-01	0	49	0	17825792	63	7756
2026-01-02 12:16:44.60	227.80	5.68	-50.2	-57.0	6.6	2.17e-01	0	49	0	19922944	63	7804
2026-01-02 12:16:45.59	227.90	5.73	-50.1	-57.0	6.7	2.11e-01	0	49	0	20971520	63	7737
2026-01-02 12:16:46.57	228.00	5.79	-50.0	-56.7	6.9	1.70e-01	0	50	0	23068672	63	7513
2026-01-02 12:16:47.56	228.10	5.84	-50.0	-56.6	6.9	1.64e-01	0	50	0	25165824	63	7457
2026-01-02 12:16:48.54	228.20	5.90	-50.0	-56.5	7.1	1.55e-01	0	49	0	27262976	63	7337
2026-01-02 12:16:49.53	228.30	5.95	-50.0	-56.6	7.0	1.47e-01	0	50	0	28311552	63	7395
2026-01-02 12:16:50.51	228.41	6.01	-50.0	-56.6	7.1	1.40e-01	0	50	0	30408704	63	7390
2026-01-02 12:16:51.50	228.51	6.06	-50.1	-56.6	7.0	1.52e-01	0	50	0	32505856	63	7432
2026-01-02 12:16:52.50	228.61	6.12	-50.1	-56.6	7.1	1.54e-01	0	50	0	34603008	63	7382
2026-01-02 12:16:53.49	228.72	6.17	-50.1	-56.5	7.1	1.42e-01	0	50	0	35651584	63	7367
2026-01-02 12:16:54.48	228.82	6.23	-50.1	-56.6	7.1	1.44e-01	0	50	0	37748736	63	7400
2026-01-02 12:16:55.47	228.92	6.29	-50.1	-56.4	7.3	1.31e-01	0	50	0	39845888	63	7264
2026-01-02 12:16:56.46	229.03	6.34	-50.1	-56.5	7.2	1.28e-01	0	50	0	41943040	63	7302
2026-01-02 12:16:57.44	229.13	6.40	-50.1	-56.6	7.1	1.31e-01	0	50	0	42991616	63	7423
2026-01-02 12:16:58.43	229.24	6.45	-50.2	-56.7	7.0	1.62e-01	0	50	0	45088768	63	7522
2026-01-02 12:16:59.42	229.34	6.51	-50.1	-56.3	7.4	1.26e-01	0	50	0	47185920	63	7191
2026-01-02 12:17:00.41	229.45	6.56	-50.1	-56.1	7.6	1.06e-01	0	50	0	49283072	63	7019
2026-01-02 12:17:01.40	229.56	6.62	-50.0	-56.0	7.7	9.30e-02	0	50	0	51380224	63	6928
2026-01-02 12:17:02.40	229.67	6.68	-49.9	-55.8	7.9	8.34e-02	0	50	0	52428800	62	7181
2026-01-02 12:17:03.39	229.77	6.73	-49.9	-55.9	7.8	7.74e-02	0	50	0	54525952	62	7236
2026-01-02 12:17:04.38	229.88	6.79	-50.0	-55.9	7.8	8.32e-02	0	50	0	56623104	62	7250
2026-01-02 12:17:05.36	229.99	6.84	-49.9	-55.8	8.0	7.00e-02	0	51	0	58720256	62	7145
2026-01-02 12:17:06.35	230.10	6.90	-49.9	-55.8	7.9	8.16e-02	0	50	0	59768832	62	7168
2026-01-02 12:17:07.34	230.20	6.95	-49.9	-55.4	8.3	6.10e-02	0	50	0	61865984	62	6841
2026-01-02 12:17:08.33	230.31	7.01	-49.8	-55.3	8.5	4.68e-02	0	51	0	63963136	62	6733
2026-01-02 12:17:09.32	230.42	7.07	-49.8	-55.0	8.7	3.54e-02	0	51	0	66060288	62	6559
2026-01-02 12:17:10.32	230.54	7.12	-49.7	-54.9	8.9	3.05e-02	0	51	0	68157440	62	6464
2026-01-02 12:17:11.31	230.65	7.18	-49.7	-54.7	9.0	2.72e-02	0	51	0	69206016	62	6344
2026-01-02 12:17:12.30	230.76	7.24	-49.6	-54.7	9.1	2.34e-02	0	51	0	71303168	62	6275
2026-01-02 12:17:13.28	230.87	7.29	-49.7	-54.7	9.1	2.28e-02	0	51	0	73400320	62	6336
2026-01-02 12:17:14.28	230.98	7.35	-49.7	-54.8	9.0	2.35e-02	0	51	0	75497472	62	6402
2026-01-02 12:17:15.27	231.09	7.41	-49.8	-55.0	8.8	2.97e-02	0	51	0	76546048	62	6539
2026-01-02 12:17:16.25	231.20	7.46	-49.7	-54.6	9.2	2.51e-02	0	51	0	78643200	62	6252
2026-01-02 12:17:17.25	231.32	7.52	-49.6	-54.3	9.5	1.46e-02	0	51	0	80740352	62	6026
2026-01-02 12:17:18.24	231.43	7.57	-49.5	-54.3	9.6	1.28e-02	0	51	0	82837504	62	6017
2026-01-02 12:17:19.23	231.54	7.63	-49.6	-54.3	9.6	1.29e-02	0	51	0	83886080	62	6004
2026-01-02 12:17:20.23	231.66	7.69	-49.5	-54.2	9.7	1.17e-02	0	51	0	85983232	62	5973
2026-01-02 12:17:21.22	231.78	7.74	-49.6	-54.3	9.7	1.13e-02	0	51	0	88080384	62	5993
2026-01-02 12:17:22.20	231.89	7.80	-49.6	-54.4	9.6	1.30e-02	0	51	0	90177536	62	6073
2026-01-02 12:17:23.20	232.01	7.86	-49.5	-54.1	9.9	1.11e-02	0	51	0	92274688	62	5868
2026-01-02 12:17:24.19	232.12	7.91	-49.5	-54.0	10.0	7.75e-03	0	51	0	93323264	62	5808
2026-01-02 12:17:25.18	232.24	7.97	-49.3	-53.8	10.2	6.55e-03	0	51	0	95420416	61	6011
2026-01-02 12:17:26.16	232.35	8.03	-49.4	-53.7	10.3	5.39e-03	0	51	0	97517568	61	5936
2026-01-02 12:17:27.15	232.47	8.08	-49.3	-53.7	10.3	5.37e-03	0	51	0	99614720	61	5926
2026-01-02 12:17:28.14	232.59	8.14	-49.3	-53.6	10.4	4.48e-03	0	51	0	100663296	61	5892
2026-01-02 12:17:29.12	232.71	8.20	-49.3	-53.5	10.5	3.79e-03	0	52	0	102760448	61	5815
2026-01-02 12:17:30.10	232.82	8.25	-49.4	-53.7	10.4	4.54e-03	0	51	0	104857600	61	5928
2026-01-02 12:17:31.08	232.94	8.31	-49.3	-53.4	10.7	3.73e-03	0	51	0	106954752	61	5788
2026-01-02 12:17:32.08	233.06	8.37	-49.1	-53.2	10.9	2.53e-03	0	52	0	108003328	61	5620
2026-01-02 12:17:33.06	233.18	8.42	-49.2	-53.2	10.9	2.04e-03	0	52	0	110100480	61	5598
2026-01-02 12:17:34.05	233.30	8.48	-49.1	-53.0	11.1	1.65e-03	0	52	0	112197632	61	5503
2026-01-02 12:17:35.04	233.42	8.54	-49.2	-53.0	11.1	1.64e-03	0	52	0	114294784	61	5521
2026-01-02 12:17:36.04	233.54	8.59	-49.2	-53.1	11.0	1.73e-03	0	52	0	115343360	61	5592
2026-01-02 12:17:37.02	233.67	8.65	-49.2	-52.9	11.2	1.48e-03	0	52	0	117440512	61	5463
2026-01-02 12:17:38.02	233.79	8.71	-49.1	-52.9	11.3	1.17e-03	0	52	0	119537664	61	5437
2026-01-02 12:17:39.01	233.91	8.76	-49.1	-52.9	11.4	1.04e-03	0	52	0	121634816	61	5416
2026-01-02 12:17:39.99	234.03	8.82	-49.1	-52.9	11.4	9.82e-04	0	52	0	123731968	61	5449
2026-01-02 12:17:40.99	234.16	8.88	-49.2	-53.0	11.3	1.08e-03	0	52	0	124780544	61	5521
2026-01-02 12:17:41.98	234.28	8.94	-49.3	-53.2	11.1	1.19e-03	0	52	0	126877696	61	5599
2026-01-02 12:17:42.97	234.41	8.99	-49.2	-53.1	11.3	1.26e-03	0	52	0	128974848	61	5530
2026-01-02 12:17:43.96	234.53	9.05	-49.3	-53.1	11.3	1.15e-03	0	52	0	131072000	61	5539
2026-01-02 12:17:44.96	234.66	9.11	-49.2	-52.9	11.4	9.48e-04	0	52	0	132120576	61	5460
2026-01-02 12:17:45.94	234.78	9.16	-49.3	-52.9	11.5	8.86e-04	0	52	0	134217728	61	5443
2026-01-02 12:17:46.93	234.91	9.22	-49.3	-53.0	11.5	8.74e-04	0	52	0	136314880	61	5468
2026-01-02 12:17:47.92	235.04	9.28	-49.4	-53.1	11.3	9.60e-04	0	52	0	138412032	61	5575
2026-01-02 12:17:48.91	235.16	9.33	-49.5	-53.3	11.1	1.23e-03	0	52	0	140509184	61	5714
2026-01-02 12:17:49.89	235.29	9.39	-49.4	-53.1	11.4	1.37e-03	0	52	0	141557760	61	5568
2026-01-02 12:17:50.87	235.42	9.45	-49.2	-52.7	11.8	5.45e-04	0	52	0	143654912	61	5310
2026-01-02 12:17:51.86	235.55	9.51	-49.0	-52.6	12.0	3.83e-04	0	52	0	145752064	61	5234
2026-01-02 12:17:52.86	235.68	9.56	-49.0	-52.4	12.2	2.69e-04	0	52	0	147849216	61	5101
2026-01-02 12:17:53.85	235.81	9.62	-48.9	-52.2	12.4	1.52e-04	0	52	0	148897792	60	5317
2026-01-02 12:17:54.84	235.94	9.68	-48.9	-52.2	12.4	1.40e-04	0	52	0	150994944	60	5296
2026-01-02 12:17:55.83	236.07	9.73	-49.1	-52.5	12.1	1.98e-04	0	52	0	153092096	60	5501
2026-01-02 12:17:56.82	236.20	9.79	-49.0	-52.2	12.4	2.75e-04	0	52	0	155189248	60	5336
2026-01-02 12:17:57.80	236.33	9.85	-48.7	-51.8	12.8	9.15e-05	0	53	0	156237824	60	5093
2026-01-02 12:17:58.79	236.46	9.91	-48.7	-51.7	13.0	5.79e-05	0	53	0	158334976	60	4986
2026-01-02 12:17:59.78	236.60	9.96	-48.6	-51.4	13.2	2.05e-05	0	53	0	160432128	60	4861
2026-01-02 12:18:00.77	236.73	10.02	-48.6	-51.6	13.1	1.90e-05	0	52	0	162529280	60	4933
2026-01-02 12:18:01.75	236.86	10.08	-48.7	-51.8	12.9	3.96e-05	0	53	0	164626432	60	5079
2026-01-02 12:18:02.74	237.00	10.13	-48.8	-51.8	12.9	4.73e-05	0	53	0	165675008	60	5051
2026-01-02 12:18:03.72	237.13	10.19	-48.8	-51.8	12.9	4.88e-05	0	53	0	167772160	60	5092
2026-01-02 12:18:04.71	237.26	10.25	-48.9	-51.9	12.9	4.34e-05	0	53	0	169869312	60	5129
2026-01-02 12:18:05.70	237.40	10.30	-48.8	-51.8	13.0	4.65e-05	0	53	0	171966464	60	5055
2026-01-02 12:18:06.69	237.54	10.36	-48.8	-51.6	13.2	3.73e-05	0	53	0	173015040	60	4979
2026-01-02 12:18:07.67	237.67	10.42	-48.6	-51.5	13.3	2.21e-05	0	53	0	175112192	60	4898
2026-01-02 12:18:08.66	237.81	10.47	-48.6	-51.4	13.4	2.21e-05	0	53	0	177209344	60	4847
2026-01-02 12:18:09.65	237.95	10.53	-48.7	-51.5	13.3	1.44e-05	0	53	0	179306496	60	4918
2026-01-02 12:18:10.64	238.08	10.59	-48.6	-51.4	13.4	2.28e-05	0	53	0	180355072	60	4870
2026-01-02 12:18:11.64	238.23	10.65	-48.5	-51.1	13.8	8.30e-06	0	53	0	182452224	60	4687
2026-01-02 12:18:12.63	238.36	10.70	-48.4	-51.0	13.8	6.10e-06	0	53	0	184549376	59	4920
2026-01-02 12:18:13.62	238.50	10.76	-48.4	-51.0	13.9	1.50e-06	0	53	0	186646528	59	4910
2026-01-02 12:18:14.61	238.65	10.82	-48.5	-51.2	13.7	5.30e-06	0	53	0	187695104	59	4991
2026-01-02 12:18:15.60	238.79	10.87	-48.6	-51.2	13.7	7.60e-06	0	53	0	189792256	59	5038
2026-01-02 12:18:16.59	238.93	10.93	-48.6	-51.2	13.7	5.30e-06	0	53	0	191889408	59	5035
2026-01-02 12:18:17.58	239.07	10.99	-48.6	-51.3	13.7	6.80e-06	0	53	0	193986560	59	5060
2026-01-02 12:18:18.56	239.21	11.04	-48.6	-51.3	13.7	4.50e-06	0	53	0	196083712	59	5049
2026-01-02 12:18:19.55	239.35	11.10	-48.7	-51.3	13.7	6.80e-06	0	53	0	197132288	59	5054
2026-01-02 12:18:20.54	239.50	11.16	-48.8	-51.4	13.5	6.80e-06	0	53	0	199229440	59	5152
2026-01-02 12:18:21.53	239.64	11.22	-48.8	-51.5	13.5	1.06e-05	0	53	0	201326592	59	5175
2026-01-02 12:18:22.52	239.79	11.27	-48.6	-51.3	13.7	6.80e-06	0	53	0	203423744	59	5069
2026-01-02 12:18:23.51	239.93	11.33	-48.7	-51.3	13.7	1.14e-05	0	53	0	204472320	59	5098
2026-01-02 12:18:24.50	240.08	11.39	-48.6	-51.3	13.8	8.30e-06	0	53	0	206569472	59	5042
2026-01-02 12:18:25.49	240.22	11.44	-48.6	-51.1	13.9	2.20e-06	0	53	0	208666624	59	4954
2026-01-02 12:18:26.48	240.37	11.50	-48.4	-51.0	14.1	3.00e-06	0	53	0	210763776	59	4878
2026-01-02 12:18:27.47	240.52	11.56	-48.5	-51.0	14.0	7.00e-07	0	53	0	211812352	59	4886
2026-01-02 12:18:28.45	240.66	11.61	-48.6	-51.1	13.9	1.50e-06	0	53	0	213909504	59	4972
2026-01-02 12:18:29.43	240.81	11.67	-48.6	-51.1	13.9	3.00e-06	0	53	0	216006656	59	4983
2026-01-02 12:18:30.42	240.96	11.72	-48.4	-50.9	14.2	7.00e-07	0	53	0	218103808	59	4835
2026-01-02 12:18:31.40	241.11	11.78	-48.3	-50.6	14.5	1.50e-06	0	53	0	220200960	59	4683
2026-01-02 12:18:32.39	241.26	11.84	-48.2	-50.5	14.6	0.00e+00	0	53	0	221249536	59	4628
2026-01-02 12:18:33.39	241.41	11.89	-48.2	-50.5	14.6	1.50e-06	0	54	0	223346688	59	4634
2026-01-02 12:18:34.38	241.56	11.95	-48.2	-50.5	14.5	0.00e+00	0	54	0	225443840	59	4649
2026-01-02 12:18:35.37	241.71	12.01	-48.3	-50.6	14.5	0.00e+00	0	53	0	227540992	59	4668
2026-01-02 12:18:36.36	241.87	12.06	-48.4	-50.7	14.4	0.00e+00	0	53	0	228589568	59	4734
2026-01-02 12:18:37.34	242.02	12.12	-48.4	-50.8	14.4	2.20e-06	0	53	0	230686720	59	4762
2026-01-02 12:18:38.33	242.17	12.17	-48.2	-50.5	14.6	7.00e-07	0	54	0	232783872	59	4607
2026-01-02 12:18:39.33	242.33	12.23	-48.1	-50.3	14.8	7.00e-07	0	53	0	234881024	59	4540
2026-01-02 12:18:40.32	242.48	12.29	-48.1	-50.4	14.7	0.00e+00	0	54	0	235929600	59	4565
2026-01-02 12:18:41.30	242.64	12.34	-48.1	-50.4	14.7	7.00e-07	0	54	0	238026752	59	4569
2026-01-02 12:18:42.29	242.79	12.40	-48.2	-50.4	14.7	0.00e+00	0	54	0	240123904	59	4586
2026-01-02 12:18:43.29	242.95	12.45	-48.2	-50.4	14.7	0.00e+00	0	53	0	242221056	59	4598
2026-01-02 12:18:44.27	243.11	12.51	-48.0	-50.2	15.0	0.00e+00	0	54	0	244318208	59	4469
2026-01-02 12:18:45.25	243.26	12.56	-47.9	-50.1	15.0	0.00e+00	0	54	0	245366784	59	4439
2026-01-02 12:18:46.25	243.42	12.62	-47.9	-50.1	15.0	0.00e+00	0	54	0	247463936	59	4435
2026-01-02 12:18:47.23	243.58	12.68	-48.0	-50.2	15.0	0.00e+00	0	54	0	249561088	59	4454
2026-01-02 12:18:48.23	243.74	12.73	-47.9	-50.0	15.1	0.00e+00	0	54	0	251658240	58	4627
2026-01-02 12:18:49.21	243.90	12.79	-47.9	-50.0	15.1	0.00e+00	0	54	0	252706816	58	4639
2026-01-02 12:18:50.20	244.06	12.84	-48.0	-50.1	15.1	0.00e+00	0	54	0	254803968	58	4681
2026-01-02 12:18:51.19	244.22	12.90	-48.1	-50.3	14.9	0.00e+00	0	54	0	256901120	58	4784
2026-01-02 12:18:52.18	244.38	12.95	-47.9	-50.0	15.2	0.00e+00	0	54	0	258998272	58	4629
2026-01-02 12:18:53.17	244.54	13.01	-47.8	-49.8	15.4	0.00e+00	0	54	0	260046848	58	4507
2026-01-02 12:18:54.15	244.70	13.06	-47.7	-49.8	15.4	0.00e+00	0	54	0	262144000	58	4497
2026-01-02 12:18:55.13	244.87	13.12	-47.8	-49.8	15.4	0.00e+00	0	54	0	264241152	58	4506
2026-01-02 12:18:56.12	245.03	13.17	-47.6	-49.6	15.5	0.00e+00	0	54	0	266338304	58	4439
2026-01-02 12:18:57.11	245.19	13.23	-47.6	-49.6	15.6	0.00e+00	0	54	0	267386880	58	4400
2026-01-02 12:18:58.10	245.36	13.28	-47.7	-49.6	15.6	0.00e+00	0	54	0	269484032	58	4428
2026-01-02 12:18:59.09	245.52	13.34	-47.7	-49.7	15.5	0.00e+00	0	54	0	271581184	58	4489
2026-01-02 12:19:00.09	245.69	13.39	-47.5	-49.5	15.7	0.00e+00	0	54	0	273678336	58	4352
2026-01-02 12:19:01.07	245.86	13.44	-47.5	-49.4	15.8	0.00e+00	0	54	0	275775488	58	4304
2026-01-02 12:19:02.06	246.03	13.50	-47.6	-49.5	15.7	0.00e+00	0	54	0	276824064	58	4387
2026-01-02 12:19:03.05	246.19	13.55	-47.7	-49.7	15.5	0.00e+00	0	54	0	278921216	58	4453
2026-01-02 12:19:04.04	246.36	13.61	-47.8	-49.8	15.4	0.00e+00	0	54	0	281018368	58	4544
2026-01-02 12:19:05.03	246.53	13.66	-47.7	-49.6	15.6	0.00e+00	0	54	0	283115520	58	4426
2026-01-02 12:19:06.01	246.70	13.71	-47.5	-49.5	15.7	0.00e+00	0	54	0	284164096	58	4347
2026-01-02 12:19:06.99	246.87	13.77	-47.5	-49.4	15.8	0.00e+00	0	54	0	286261248	58	4322
2026-01-02 12:19:07.98	247.04	13.82	-47.7	-49.6	15.6	0.00e+00	0	54	0	288358400	58	4429
2026-01-02 12:19:08.97	247.21	13.88	-47.8	-49.7	15.5	0.00e+00	0	54	0	290455552	58	4485
2026-01-02 12:19:09.95	247.38	13.93	-47.6	-49.5	15.7	0.00e+00	0	54	0	291504128	58	4387
2026-01-02 12:19:10.95	247.56	13.98	-47.5	-49.4	15.8	0.00e+00	0	54	0	293601280	58	4311
2026-01-02 12:19:11.94	247.73	14.03	-47.4	-49.4	15.9	0.00e+00	0	54	0	295698432	58	4295
2026-01-02 12:19:12.93	247.90	14.09	-47.6	-49.5	15.7	0.00e+00	0	54	0	297795584	58	4368
2026-01-02 12:19:13.91	248.08	14.14	-47.8	-49.8	15.5	0.00e+00	0	54	0	299892736	58	4504
2026-01-02 12:19:14.90	248.25	14.19	-47.7	-49.7	15.6	0.00e+00	0	54	0	300941312	58	4444
2026-01-02 12:19:15.89	248.43	14.25	-47.6	-49.5	15.7	0.00e+00	0	54	0	303038464	58	4384
2026-01-02 12:19:16.88	248.60	14.30	-47.6	-49.6	15.7	0.00e+00	0	54	0	305135616	58	4398
2026-01-02 12:19:17.87	248.78	14.35	-47.6	-49.6	15.6	0.00e+00	0	54	0	307232768	58	4399
2026-01-02 12:19:18.86	248.96	14.40	-47.7	-49.8	15.5	0.00e+00	0	54	0	308281344	58	4521
2026-01-02 12:19:19.85	249.14	14.46	-47.7	-49.7	15.5	0.00e+00	0	54	0	310378496	58	4459
2026-01-02 12:19:20.84	249.32	14.51	-47.7	-49.7	15.5	0.00e+00	0	54	0	312475648	58	4485
2026-01-02 12:19:21.82	249.49	14.56	-48.0	-50.1	15.2	0.00e+00	0	54	0	314572800	58	4661
2026-01-02 12:19:22.81	249.67	14.61	-47.7	-49.7	15.5	0.00e+00	0	54	0	315621376	58	4489
2026-01-02 12:19:23.79	249.85	14.66	-47.5	-49.4	15.9	0.00e+00	0	54	0	317718528	58	4294
2026-01-02 12:19:24.78	250.03	14.71	-47.3	-49.1	16.2	0.00e+00	0	54	0	319815680	57	4398
2026-01-02 12:19:25.76	250.21	14.76	-47.2	-48.9	16.3	0.00e+00	0	54	0	321912832	57	4333
2026-01-02 12:19:26.75	250.40	14.81	-47.2	-49.0	16.2	0.00e+00	0	54	0	324009984	57	4365
2026-01-02 12:19:27.75	250.58	14.87	-47.3	-49.1	16.1	0.00e+00	0	54	0	325058560	57	4432
2026-01-02 12:19:28.73	250.76	14.92	-47.4	-49.3	16.0	0.00e+00	0	54	0	327155712	57	4510
2026-01-02 12:19:29.72	250.95	14.97	-47.5	-49.3	15.9	0.00e+00	0	54	0	329252864	57	4530
2026-01-02 12:19:30.69	251.13	15.02	-47.5	-49.4	15.8	0.00e+00	0	54	0	331350016	57	4596
2026-01-02 12:19:31.69	251.32	15.07	-47.5	-49.4	15.8	0.00e+00	0	54	0	332398592	57	4598
2026-01-02 12:19:32.68	251.50	15.12	-47.5	-49.4	15.8	0.00e+00	0	55	0	334495744	57	4587
2026-01-02 12:19:33.67	251.69	15.17	-47.6	-49.6	15.7	0.00e+00	0	54	0	336592896	57	4664
2026-01-02 12:19:34.65	251.87	15.22	-47.8	-49.9	15.3	0.00e+00	0	55	0	338690048	57	4839
2026-01-02 12:19:35.64	252.06	15.26	-47.8	-49.9	15.4	0.00e+00	0	55	0	339738624	57	4833
2026-01-02 12:19:36.63	252.25	15.31	-47.7	-49.7	15.6	0.00e+00	0	54	0	341835776	57	4714
2026-01-02 12:19:37.62	252.44	15.36	-47.8	-49.8	15.5	0.00e+00	0	54	0	343932928	57	4800
2026-01-02 12:19:38.61	252.63	15.41	-48.0	-50.1	15.2	0.00e+00	0	55	0	346030080	57	4943
2026-01-02 12:19:39.60	252.82	15.46	-48.1	-50.3	14.9	0.00e+00	0	55	0	347078656	58	4783
2026-01-02 12:19:40.59	253.01	15.51	-48.1	-50.4	14.9	0.00e+00	0	54	0	349175808	58	4830
2026-01-02 12:19:41.58	253.20	15.56	-48.3	-50.5	14.8	0.00e+00	0	54	0	351272960	58	4890
2026-01-02 12:19:42.58	253.40	15.61	-48.3	-50.6	14.7	0.00e+00	0	55	0	353370112	58	4942
2026-01-02 12:19:43.57	253.59	15.65	-48.4	-50.7	14.5	0.00e+00	0	54	0	355467264	58	5035
2026-01-02 12:19:44.56	253.78	15.70	-48.4	-50.7	14.5	0.00e+00	0	55	0	356515840	58	5035
2026-01-02 12:19:45.55	253.98	15.75	-48.4	-50.7	14.6	1.50e-06	0	55	0	358612992	58	4990
2026-01-02 12:19:46.53	254.17	15.80	-48.4	-50.8	14.5	0.00e+00	0	55	0	360710144	58	5066
2026-01-02 12:19:47.52	254.36	15.84	-48.5	-50.8	14.4	1.50e-06	0	55	0	362807296	59	4813
2026-01-02 12:19:48.51	254.56	15.89	-48.4	-50.6	14.7	7.00e-07	0	55	0	363855872	59	4669
2026-01-02 12:19:49.50	254.75	15.94	-48.2	-50.3	14.9	0.00e+00	0	55	0	365953024	59	4542
2026-01-02 12:19:50.49	254.95	15.98	-48.1	-50.3	15.0	0.00e+00	0	55	0	368050176	59	4497
2026-01-02 12:19:51.47	255.15	16.03	-48.1	-50.3	15.0	0.00e+00	0	55	0	370147328	59	4495
2026-01-02 12:19:52.46	255.35	16.07	-48.1	-50.3	14.9	0.00e+00	0	55	0	371195904	59	4539
2026-01-02 12:19:53.45	255.54	16.12	-48.2	-50.3	14.9	0.00e+00	0	55	0	373293056	59	4543
2026-01-02 12:19:54.44	255.74	16.17	-48.3	-50.5	14.8	0.00e+00	0	55	0	375390208	59	4642
2026-01-02 12:19:55.43	255.94	16.21	-48.3	-50.6	14.7	0.00e+00	0	55	0	377487360	59	4682
2026-01-02 12:19:56.42	256.14	16.26	-48.3	-50.6	14.7	0.00e+00	0	55	0	379584512	59	4658
2026-01-02 12:19:57.42	256.35	16.30	-48.5	-50.8	14.5	7.00e-07	0	55	0	380633088	59	4762
2026-01-02 12:19:58.41	256.55	16.35	-48.6	-51.0	14.3	0.00e+00	0	55	0	382730240	59	4875
2026-01-02 12:19:59.39	256.75	16.39	-48.6	-51.0	14.3	0.00e+00	0	55	0	384827392	59	4891
2026-01-02 12:20:00.39	256.95	16.43	-48.6	-51.1	14.2	2.20e-06	0	55	0	386924544	59	4959
2026-01-02 12:20:01.38	257.16	16.48	-48.7	-51.3	14.0	3.00e-06	0	55	0	387973120	59	5043
2026-01-02 12:20:02.36	257.36	16.52	-48.8	-51.2	14.1	1.50e-06	0	55	0	390070272	59	5025
2026-01-02 12:20:03.36	257.56	16.56	-48.9	-51.5	13.8	3.00e-06	0	55	0	392167424	59	5193
2026-01-02 12:20:04.35	257.77	16.61	-49.1	-51.8	13.4	1.14e-05	0	55	0	394264576	60	5073
2026-01-02 12:20:05.34	257.97	16.65	-49.0	-51.8	13.5	1.37e-05	0	55	0	395313152	60	5043
2026-01-02 12:20:06.33	258.18	16.69	-49.0	-51.8	13.4	9.90e-06	0	55	0	397410304	60	5092
2026-01-02 12:20:07.32	258.39	16.73	-49.1	-51.9	13.3	1.44e-05	0	55	0	399507456	60	5137
2026-01-02 12:20:08.31	258.59	16.78	-49.1	-51.9	13.4	1.98e-05	0	55	0	401604608	60	5138
2026-01-02 12:20:09.30	258.80	16.82	-49.1	-51.9	13.3	9.10e-06	0	55	0	403701760	60	5144
2026-01-02 12:20:10.30	259.01	16.86	-49.0	-51.9	13.3	2.13e-05	0	55	0	404750336	60	5154
2026-01-02 12:20:11.30	259.22	16.90	-49.1	-52.0	13.2	2.13e-05	0	55	0	406847488	60	5212
2026-01-02 12:20:12.29	259.43	16.94	-49.2	-52.1	13.1	2.89e-05	0	55	0	408944640	60	5254
2026-01-02 12:20:13.29	259.64	16.98	-48.9	-51.7	13.6	1.29e-05	0	55	0	411041792	60	5000
2026-01-02 12:20:14.28	259.86	17.02	-48.9	-51.5	13.8	6.10e-06	0	55	0	412090368	60	4902
2026-01-02 12:20:15.28	260.07	17.06	-48.7	-51.4	13.9	1.50e-06	0	55	0	414187520	60	4825
2026-01-02 12:20:16.27	260.28	17.10	-48.7	-51.4	13.9	3.00e-06	0	55	0	416284672	60	4835
2026-01-02 12:20:17.26	260.49	17.14	-48.7	-51.4	13.9	3.80e-06	0	55	0	418381824	60	4827
2026-01-02 12:20:18.25	260.70	17.18	-48.7	-51.3	14.0	1.50e-06	0	55	0	420478976	60	4774
2026-01-02 12:20:19.23	260.92	17.22	-48.5	-51.0	14.3	3.80e-06	0	55	0	421527552	60	4619
2026-01-02 12:20:20.23	261.13	17.25	-48.5	-50.9	14.4	0.00e+00	0	55	0	423624704	59	4819
2026-01-02 12:20:21.21	261.34	17.29	-48.5	-50.8	14.5	0.00e+00	0	55	0	425721856	59	4784
2026-01-02 12:20:22.21	261.56	17.33	-48.5	-50.8	14.5	7.00e-07	0	55	0	427819008	59	4806
2026-01-02 12:20:23.20	261.78	17.37	-48.5	-50.9	14.4	7.00e-07	0	55	0	428867584	59	4824
2026-01-02 12:20:24.19	261.99	17.40	-48.3	-50.6	14.8	0.00e+00	0	55	0	430964736	59	4654
2026-01-02 12:20:25.18	262.21	17.44	-48.2	-50.4	14.9	0.00e+00	0	55	0	433061888	59	4595
2026-01-02 12:20:26.17	262.42	17.48	-48.2	-50.4	14.9	7.00e-07	0	55	0	435159040	59	4581
2026-01-02 12:20:27.16	262.64	17.51	-48.3	-50.5	14.8	0.00e+00	0	55	0	437256192	59	4633
2026-01-02 12:20:28.16	262.86	17.55	-48.5	-50.8	14.5	0.00e+00	0	55	0	438304768	59	4769
2026-01-02 12:20:29.14	263.08	17.58	-48.2	-50.4	14.9	7.00e-07	0	55	0	440401920	59	4595
2026-01-02 12:20:30.12	263.29	17.62	-48.1	-50.2	15.1	0.00e+00	0	55	0	442499072	59	4484
2026-01-02 12:20:31.10	263.51	17.65	-48.0	-50.1	15.2	0.00e+00	0	55	0	444596224	59	4405
2026-01-02 12:20:32.09	263.73	17.69	-48.0	-50.1	15.2	0.00e+00	0	55	0	445644800	59	4408
2026-01-02 12:20:33.08	263.95	17.72	-48.0	-50.1	15.3	0.00e+00	0	55	0	447741952	59	4408
2026-01-02 12:20:34.07	264.17	17.75	-47.8	-49.9	15.4	0.00e+00	0	55	0	449839104	58	4582
2026-01-02 12:20:35.06	264.39	17.79	-47.8	-49.8	15.5	0.00e+00	0	55	0	451936256	58	4509
2026-01-02 12:20:36.05	264.62	17.82	-47.9	-49.9	15.4	0.00e+00	0	55	0	452984832	58	4573
2026-01-02 12:20:37.04	264.84	17.85	-48.0	-50.1	15.2	0.00e+00	0	55	0	455081984	58	4688
2026-01-02 12:20:38.03	265.06	17.88	-47.9	-49.9	15.4	0.00e+00	0	55	0	457179136	58	4585
2026-01-02 12:20:39.02	265.28	17.91	-47.8	-49.8	15.5	7.00e-07	0	55	0	459276288	58	4543
2026-01-02 12:20:40.00	265.50	17.94	-47.9	-49.9	15.4	0.00e+00	0	55	0	460324864	58	4583
2026-01-02 12:20:40.99	265.73	17.97	-47.9	-49.9	15.4	0.00e+00	0	55	0	462422016	58	4597
2026-01-02 12:20:41.98	265.95	18.01	-48.1	-50.2	15.1	0.00e+00	0	55	0	464519168	58	4747
2026-01-02 12:20:42.97	266.18	18.04	-48.0	-50.1	15.2	0.00e+00	0	56	0	466616320	58	4692
2026-01-02 12:20:43.95	266.40	18.06	-48.0	-50.1	15.3	0.00e+00	0	56	0	468713472	58	4653
2026-01-02 12:20:44.95	266.63	18.09	-48.0	-50.1	15.2	0.00e+00	0	55	0	469762048	58	4696
2026-01-02 12:20:45.94	266.85	18.12	-48.1	-50.3	15.0	0.00e+00	0	56	0	471859200	58	4786
2026-01-02 12:20:46.92	267.08	18.15	-48.0	-50.1	15.2	0.00e+00	0	56	0	473956352	58	4686
2026-01-02 12:20:47.91	267.30	18.18	-48.0	-50.1	15.2	0.00e+00	0	55	0	476053504	58	4689
2026-01-02 12:20:48.90	267.53	18.21	-48.1	-50.2	15.1	0.00e+00	0	56	0	477102080	58	4749
2026-01-02 12:20:49.89	267.76	18.23	-48.0	-50.1	15.2	0.00e+00	0	55	0	479199232	58	4682
2026-01-02 12:20:50.87	267.98	18.26	-48.0	-50.0	15.3	0.00e+00	0	56	0	481296384	58	4621
2026-01-02 12:20:51.86	268.21	18.29	-47.9	-50.0	15.3	0.00e+00	0	55	0	483393536	58	4630
2026-01-02 12:20:52.85	268.44	18.31	-48.0	-50.1	15.2	0.00e+00	0	55	0	484442112	58	4663
2026-01-02 12:20:53.84	268.67	18.34	-48.0	-50.0	15.3	0.00e+00	0	56	0	486539264	58	4628
2026-01-02 12:20:54.83	268.90	18.36	-48.0	-50.1	15.3	0.00e+00	0	56	0	488636416	58	4658
2026-01-02 12:20:55.82	269.13	18.39	-48.1	-50.1	15.2	0.00e+00	0	56	0	490733568	58	4701
2026-01-02 12:20:56.81	269.36	18.41	-48.1	-50.2	15.1	0.00e+00	0	56	0	492830720	58	4742
2026-01-02 12:20:57.81	269.59	18.44	-48.1	-50.2	15.1	0.00e+00	0	56	0	493879296	58	4751
2026-01-02 12:20:58.80	269.82	18.46	-48.2	-50.3	15.0	0.00e+00	0	56	0	495976448	58	4801
2026-01-02 12:20:59.79	270.06	18.48	-48.3	-50.5	14.8	0.00e+00	0	56	0	498073600	58	4893
2026-01-02 12:21:00.79	270.29	18.51	-48.2	-50.4	15.0	0.00e+00	0	56	0	500170752	58	4828
2026-01-02 12:21:01.78	270.52	18.53	-48.0	-50.0	15.3	0.00e+00	0	56	0	501219328	58	4639
2026-01-02 12:21:02.77	270.75	18.55	-48.0	-50.0	15.4	0.00e+00	0	56	0	503316480	58	4617
2026-01-02 12:21:03.76	270.99	18.57	-47.9	-49.9	15.4	0.00e+00	0	56	0	505413632	58	4590
2026-01-02 12:21:04.75	271.22	18.59	-48.0	-50.1	15.3	0.00e+00	0	56	0	507510784	58	4664
2026-01-02 12:21:05.74	271.45	18.61	-47.9	-50.0	15.3	0.00e+00	0	56	0	508559360	58	4629
2026-01-02 12:21:06.73	271.69	18.63	-48.1	-50.2	15.2	0.00e+00	0	56	0	510656512	58	4716
2026-01-02 12:21:07.72	271.92	18.65	-48.2	-50.3	15.0	0.00e+00	0	56	0	512753664	58	4793
2026-01-02 12:21:08.71	272.15	18.67	-48.1	-50.2	15.1	0.00e+00	0	56	0	514850816	58	4758
2026-01-02 12:21:09.71	272.39	18.69	-48.2	-50.3	15.1	0.00e+00	0	56	0	516947968	58	4785
2026-01-02 12:21:10.70	272.62	18.71	-48.4	-50.6	14.8	0.00e+00	0	56	0	517996544	58	4951
2026-01-02 12:21:11.69	272.86	18.72	-48.2	-50.3	15.0	0.00e+00	0	56	0	520093696	58	4801
2026-01-02 12:21:12.69	273.10	18.74	-48.0	-50.1	15.2	0.00e+00	0	56	0	522190848	58	4671
2026-01-02 12:21:13.68	273.33	18.76	-48.0	-50.1	15.3	7.00e-07	0	56	0	524288000	58	4658
2026-01-02 12:21:14.67	273.57	18.77	-48.0	-50.1	15.3	0.00e+00	0	56	0	525336576	58	4665
2026-01-02 12:21:15.65	273.80	18.79	-48.1	-50.2	15.2	0.00e+00	0	56	0	527433728	58	4714
2026-01-02 12:21:16.64	274.04	18.81	-48.2	-50.3	15.0	0.00e+00	0	56	0	529530880	58	4811
2026-01-02 12:21:17.64	274.28	18.82	-48.2	-50.4	15.0	0.00e+00	0	56	0	531628032	58	4828
2026-01-02 12:21:18.63	274.51	18.84	-48.5	-50.8	14.5	0.00e+00	0	56	0	533725184	58	5092
2026-01-02 12:21:19.62	274.75	18.85	-48.5	-50.9	14.4	7.00e-07	0	56	0	534773760	59	4838
2026-01-02 12:21:20.61	274.99	18.86	-48.3	-50.6	14.7	0.00e+00	0	56	0	536870912	59	4675
2026-01-02 12:21:21.60	275.22	18.88	-48.2	-50.4	14.9	0.00e+00	0	56	0	538968064	59	4577
2026-01-02 12:21:22.59	275.46	18.89	-48.1	-50.3	15.0	0.00e+00	0	56	0	541065216	59	4540
2026-01-02 12:21:23.59	275.70	18.90	-48.1	-50.2	15.1	0.00e+00	0	56	0	542113792	59	4469
2026-01-02 12:21:24.57	275.94	18.91	-48.2	-50.3	15.0	7.00e-07	0	56	0	544210944	59	4529
2026-01-02 12:21:25.56	276.17	18.92	-48.3	-50.5	14.9	7.00e-07	0	56	0	546308096	59	4611
2026-01-02 12:21:26.55	276.41	18.93	-48.4	-50.6	14.8	0.00e+00	0	56	0	548405248	59	4662
2026-01-02 12:21:27.55	276.65	18.94	-48.2	-50.3	15.0	0.00e+00	0	56	0	550502400	59	4537
2026-01-02 12:21:28.54	276.89	18.95	-48.1	-50.2	15.1	7.00e-07	0	56	0	551550976	59	4479
2026-01-02 12:21:29.53	277.13	18.96	-48.1	-50.3	15.0	0.00e+00	0	56	0	553648128	59	4523
2026-01-02 12:21:30.51	277.36	18.97	-48.2	-50.4	14.9	0.00e+00	0	56	0	555745280	59	4566
2026-01-02 12:21:31.51	277.61	18.98	-48.3	-50.6	14.8	0.00e+00	0	56	0	557842432	59	4661
2026-01-02 12:21:32.50	277.84	18.99	-48.4	-50.6	14.7	7.00e-07	0	56	0	558891008	59	4692
2026-01-02 12:21:33.48	278.08	19.00	-48.3	-50.6	14.8	0.00e+00	0	56	0	560988160	59	4653
2026-01-02 12:21:34.47	278.32	19.00	-48.4	-50.6	14.7	0.00e+00	0	56	0	563085312	59	4684
2026-01-02 12:21:35.47	278.56	19.01	-48.3	-50.6	14.7	7.00e-07	0	56	0	565182464	59	4670
2026-01-02 12:21:36.46	278.80	19.01	-48.1	-50.3	15.1	0.00e+00	0	56	0	566231040	59	4494
2026-01-02 12:21:37.45	279.04	19.02	-48.0	-50.0	15.3	0.00e+00	0	56	0	568328192	59	4380
2026-01-02 12:21:38.43	279.28	19.02	-48.0	-50.0	15.3	0.00e+00	0	56	0	570425344	58	4635
2026-01-02 12:21:39.42	279.52	19.03	-48.0	-50.0	15.3	0.00e+00	0	56	0	572522496	58	4631
2026-01-02 12:21:40.41	279.76	19.03	-48.0	-50.1	15.3	0.00e+00	0	56	0	573571072	58	4669
2026-01-02 12:21:41.40	280.00	19.04	-48.1	-50.3	15.1	0.00e+00	0	56	0	575668224	58	4763
2026-01-02 12:21:42.39	280.24	19.04	-48.3	-50.7	14.6	0.00e+00	0	56	0	577765376	58	4987
2026-01-02 12:21:43.38	280.47	19.04	-48.4	-50.7	14.6	0.00e+00	0	56	0	579862528	58	5015
2026-01-02 12:21:44.38	280.72	19.04	-48.5	-50.9	14.4	0.00e+00	0	56	0	581959680	58	5118
2026-01-02 12:21:45.37	280.96	19.04	-48.6	-51.0	14.4	7.00e-07	0	56	0	583008256	59	4884
2026-01-02 12:21:46.35	281.19	19.05	-48.6	-51.0	14.3	7.00e-07	0	56	0	585105408	59	4896
2026-01-02 12:21:47.34	281.43	19.05	-48.6	-51.1	14.2	7.00e-07	0	56	0	587202560	59	4978
2026-01-02 12:21:48.33	281.67	19.05	-48.7	-51.3	14.0	4.50e-06	0	56	0	589299712	59	5055
2026-01-02 12:21:49.33	281.92	19.05	-48.7	-51.3	13.9	2.20e-06	0	56	0	590348288	59	5067
2026-01-02 12:21:50.32	282.16	19.04	-48.9	-51.6	13.6	6.10e-06	0	56	0	592445440	59	5238
2026-01-02 12:21:51.31	282.39	19.04	-48.9	-51.7	13.5	1.06e-05	0	56	0	594542592	59	5286
2026-01-02 12:21:52.30	282.63	19.04	-49.1	-52.2	12.8	3.35e-05	0	56	0	596639744	60	5333
2026-01-02 12:21:53.29	282.87	19.04	-49.4	-52.7	12.3	9.99e-05	0	56	0	597688320	60	5612
2026-01-02 12:21:54.28	283.11	19.04	-49.6	-53.0	11.9	2.82e-04	0	56	0	599785472	60	5834
2026-01-02 12:21:55.28	283.36	19.03	-49.7	-53.3	11.5	5.56e-04	0	56	0	601882624	61	5701
2026-01-02 12:21:56.27	283.59	19.03	-49.7	-53.4	11.3	8.54e-04	0	56	0	603979776	61	5778
2026-01-02 12:21:57.26	283.83	19.02	-49.8	-53.9	10.8	2.11e-03	0	56	0	606076928	61	6086
2026-01-02 12:21:58.25	284.07	19.02	-49.9	-54.1	10.5	3.54e-03	0	56	0	607125504	61	6237
2026-01-02 12:21:59.24	284.31	19.01	-50.0	-54.4	10.1	5.25e-03	0	56	0	609222656	61	6458
2026-01-02 12:22:00.23	284.55	19.01	-49.9	-54.4	10.0	6.47e-03	0	56	0	611319808	61	6465
2026-01-02 12:22:01.22	284.79	19.00	-50.1	-55.0	9.3	1.66e-02	0	56	0	613416960	62	6549
2026-01-02 12:22:02.21	285.03	18.99	-50.2	-55.4	8.9	2.15e-02	0	56	0	614465536	62	6841
2026-01-02 12:22:03.20	285.27	18.99	-50.3	-56.1	8.0	4.56e-02	0	56	0	616562688	62	7390
2026-01-02 12:22:04.19	285.51	18.98	-50.4	-56.5	7.6	7.24e-02	0	56	0	618659840	62	7732
2026-01-02 12:22:05.18	285.75	18.97	-50.5	-57.4	6.6	1.65e-01	0	56	0	620756992	62	8588
2026-01-02 12:22:06.17	285.98	18.96	-50.7	-58.1	6.0	2.72e-01	0	56	0	622854144	63	8831
2026-01-02 12:22:07.15	286.22	18.95	-50.7	-58.4	5.8	3.49e-01	0	56	0	623902720	63	9124
2026-01-02 12:22:08.14	286.46	18.94	-50.8	-58.9	5.4	4.25e-01	0	56	0	625999872	63	9686
2026-01-02 12:22:09.13	286.70	18.93	-50.8	-58.9	5.5	5.07e-01	0	56	0	628097024	63	9653
2026-01-02 12:22:10.12	286.93	18.92	-50.8	-59.3	5.2	5.55e-01	0	56	0	630194176	63	10090
2026-01-02 12:22:11.11	287.17	18.91	-50.7	-59.2	5.3	5.83e-01	0	56	0	631242752	63	9969
2026-01-02 12:22:12.09	287.41	18.90	-50.8	-59.4	5.1	6.15e-01	0	56	0	633339904	63	10206
2026-01-02 12:22:13.08	287.64	18.89	-50.8	-59.1	5.3	5.91e-01	0	56	0	635437056	63	9907
2026-01-02 12:22:14.07	287.88	18.88	-50.8	-59.3	5.2	5.77e-01	0	56	0	637534208	63	10081
2026-01-02 12:22:15.07	288.12	18.86	-50.7	-59.5	5.1	6.31e-01	0	56	0	638582784	63	10359
2026-01-02 12:22:16.06	288.36	18.85	-50.7	-59.0	5.3	5.89e-01	0	56	0	640679936	63	9802
2026-01-02 12:22:17.05	288.59	18.84	-50.6	-58.6	5.6	4.85e-01	0	56	0	642777088	63	9312
2026-01-02 12:22:18.04	288.83	18.82	-50.5	-58.2	5.9	4.13e-01	0	56	0	644874240	63	8880
2026-01-02 12:22:19.03	289.07	18.81	-50.4	-58.1	5.9	3.64e-01	0	56	0	646971392	63	8827
2026-01-02 12:22:20.02	289.30	18.79	-50.6	-58.2	5.9	3.65e-01	0	56	0	648019968	63	8932
2026-01-02 12:22:21.01	289.54	18.77	-50.5	-57.6	6.3	3.16e-01	0	56	0	650117120	63	8304
2026-01-02 12:22:21.99	289.77	18.76	-50.3	-57.1	6.8	2.22e-01	0	56	0	652214272	63	7820
2026-01-02 12:22:22.97	290.00	18.74	-50.1	-56.8	7.0	1.72e-01	0	56	0	654311424	63	7595
2026-01-02 12:22:23.97	290.24	18.72	-50.2	-56.6	7.3	1.30e-01	0	57	0	655360000	63	7378
2026-01-02 12:22:24.96	290.47	18.71	-50.3	-56.5	7.3	1.25e-01	0	56	0	657457152	63	7360
2026-01-02 12:22:25.94	290.71	18.69	-50.1	-55.9	8.0	9.93e-02	0	56	0	659554304	63	6858
2026-01-02 12:22:26.94	290.94	18.67	-50.0	-55.3	8.7	4.04e-02	0	56	0	661651456	63	6372
2026-01-02 12:22:27.94	291.18	18.65	-49.9	-54.8	9.3	2.13e-02	0	56	0	662700032	62	6368
2026-01-02 12:22:28.93	291.41	18.63	-49.7	-54.3	10.0	1.13e-02	0	56	0	664797184	62	6050
2026-01-02 12:22:29.91	291.64	18.61	-49.7	-54.0	10.5	6.11e-03	0	57	0	666894336	62	5803
2026-01-02 12:22:30.91	291.88	18.59	-49.6	-53.7	10.9	2.65e-03	0	56	0	668991488	62	5611
2026-01-02 12:22:31.89	292.11	18.57	-49.7	-53.5	11.2	1.58e-03	0	56	0	670040064	62	5478
2026-01-02 12:22:32.88	292.34	18.55	-49.6	-53.3	11.5	1.05e-03	0	56	0	672137216	62	5387
2026-01-02 12:22:33.87	292.57	18.53	-49.6	-53.2	11.7	6.46e-04	0	56	0	674234368	62	5338
2026-01-02 12:22:34.86	292.80	18.51	-49.2	-52.2	12.8	1.58e-04	0	56	0	676331520	61	5039
2026-01-02 12:22:35.86	293.04	18.48	-48.8	-51.4	13.8	1.83e-05	0	56	0	678428672	60	4832
2026-01-02 12:22:36.85	293.27	18.46	-48.4	-50.7	14.5	2.20e-06	0	56	0	679477248	59	4758
2026-01-02 12:22:37.84	293.50	18.44	-48.2	-50.4	14.8	7.00e-07	0	57	0	681574400	59	4582
2026-01-02 12:22:38.83	293.73	18.41	-48.1	-50.2	15.1	7.00e-07	0	56	0	683671552	59	4483
2026-01-02 12:22:39.83	293.96	18.39	-48.2	-50.3	15.0	0.00e+00	0	56	0	685768704	59	4516
2026-01-02 12:22:40.82	294.19	18.36	-47.9	-50.0	15.3	0.00e+00	0	56	0	687865856	59	4364
2026-01-02 12:22:41.80	294.42	18.34	-47.7	-49.6	15.7	0.00e+00	0	56	0	688914432	58	4430
2026-01-02 12:22:42.79	294.64	18.31	-47.4	-49.3	16.0	0.00e+00	0	56	0	691011584	58	4274
2026-01-02 12:22:43.78	294.87	18.29	-47.3	-49.1	16.2	0.00e+00	0	56	0	693108736	57	4414
2026-01-02 12:22:44.77	295.10	18.26	-47.2	-49.0	16.3	0.00e+00	0	56	0	695205888	57	4367
2026-01-02 12:22:45.76	295.33	18.24	-47.3	-49.1	16.2	0.00e+00	0	56	0	696254464	57	4406
2026-01-02 12:22:46.75	295.56	18.21	-47.5	-49.4	15.9	0.00e+00	0	56	0	698351616	57	4559
2026-01-02 12:22:47.74	295.78	18.18	-47.8	-49.8	15.5	0.00e+00	0	56	0	700448768	57	4765
2026-01-02 12:22:48.72	296.01	18.15	-47.8	-49.8	15.5	0.00e+00	0	56	0	702545920	57	4799
2026-01-02 12:22:49.71	296.23	18.13	-47.9	-50.0	15.3	0.00e+00	0	56	0	703594496	57	4894
2026-01-02 12:22:50.70	296.46	18.10	-47.9	-49.9	15.4	0.00e+00	0	56	0	705691648	57	4858
2026-01-02 12:22:51.68	296.68	18.07	-48.0	-50.1	15.2	0.00e+00	0	56	0	707788800	57	4939
2026-01-02 12:22:52.68	296.91	18.04	-48.3	-50.5	14.8	0.00e+00	0	56	0	709885952	58	4900
2026-01-02 12:22:53.67	297.13	18.01	-48.3	-50.6	14.7	0.00e+00	0	56	0	710934528	58	4947
2026-01-02 12:22:54.65	297.35	17.98	-48.2	-50.5	14.8	7.00e-07	0	56	0	713031680	58	4903
2026-01-02 12:22:55.65	297.58	17.95	-48.4	-50.7	14.6	7.00e-07	0	57	0	715128832	58	5006
2026-01-02 12:22:56.64	297.80	17.92	-48.3	-50.6	14.7	2.20e-06	0	56	0	717225984	58	4956
2026-01-02 12:22:57.64	298.03	17.89	-48.2	-50.4	14.9	0.00e+00	0	56	0	719323136	58	4822
2026-01-02 12:22:58.63	298.25	17.85	-48.1	-50.1	15.2	0.00e+00	0	56	0	720371712	58	4688
2026-01-02 12:22:59.61	298.47	17.82	-47.9	-50.0	15.3	0.00e+00	0	56	0	722468864	58	4606
2026-01-02 12:23:00.61	298.69	17.79	-47.8	-49.8	15.5	0.00e+00	0	56	0	724566016	58	4523
2026-01-02 12:23:01.60	298.91	17.76	-47.9	-49.8	15.5	0.00e+00	0	56	0	726663168	58	4544
2026-01-02 12:23:02.59	299.13	17.72	-47.7	-49.7	15.6	0.00e+00	0	57	0	727711744	58	4450
2026-01-02 12:23:03.58	299.35	17.69	-47.3	-49.0	16.3	0.00e+00	0	57	0	729808896	57	4363
2026-01-02 12:23:04.58	299.57	17.66	-47.0	-48.6	16.7	0.00e+00	0	56	0	731906048	57	4155
2026-01-02 12:23:05.57	299.79	17.62	-46.7	-48.4	16.9	0.00e+00	0	57	0	734003200	56	4294
2026-01-02 12:23:06.56	300.01	17.59	-46.8	-48.4	16.9	0.00e+00	0	57	0	736100352	56	4315
2026-01-02 12:23:07.55	300.23	17.55	-47.0	-48.6	16.7	0.00e+00	0	56	0	737148928	56	4425
2026-01-02 12:23:08.53	300.44	17.52	-47.0	-48.7	16.6	0.00e+00	0	56	0	739246080	56	4466
2026-01-02 12:23:09.53	300.66	17.48	-47.1	-48.8	16.5	0.00e+00	0	56	0	741343232	56	4499
2026-01-02 12:23:10.52	300.88	17.44	-47.2	-49.0	16.4	0.00e+00	0	56	0	743440384	56	4605
2026-01-02 12:23:11.51	301.09	17.41	-47.3	-49.0	16.3	0.00e+00	0	56	0	744488960	56	4634
2026-01-02 12:23:12.50	301.31	17.37	-47.1	-48.8	16.5	0.00e+00	0	56	0	746586112	56	4521
2026-01-02 12:23:13.50	301.52	17.33	-47.0	-48.6	16.7	0.00e+00	0	56	0	748683264	56	4436
2026-01-02 12:23:14.49	301.74	17.30	-47.0	-48.7	16.6	0.00e+00	0	57	0	750780416	56	4447
2026-01-02 12:23:15.47	301.95	17.26	-46.9	-48.5	16.8	0.00e+00	0	56	0	751828992	56	4376
2026-01-02 12:23:16.47	302.16	17.22	-46.9	-48.5	16.8	0.00e+00	0	56	0	753926144	56	4353
2026-01-02 12:23:17.47	302.38	17.18	-46.9	-48.5	16.8	0.00e+00	0	56	0	756023296	56	4352
2026-01-02 12:23:18.46	302.59	17.14	-46.6	-48.1	17.2	0.00e+00	0	56	0	758120448	56	4162
2026-01-02 12:23:19.45	302.80	17.11	-46.4	-47.9	17.4	0.00e+00	0	56	0	760217600	56	4076
2026-01-02 12:23:20.45	303.02	17.07	-46.2	-47.7	17.5	0.00e+00	0	56	0	761266176	55	4196
2026-01-02 12:23:21.44	303.23	17.03	-46.3	-47.7	17.4	0.00e+00	0	57	0	763363328	55	4227
2026-01-02 12:23:22.43	303.44	16.99	-46.3	-47.8	17.4	0.00e+00	0	56	0	765460480	55	4243
2026-01-02 12:23:23.43	303.65	16.95	-46.4	-47.9	17.2	0.00e+00	0	56	0	767557632	55	4337
2026-01-02 12:23:24.41	303.85	16.91	-46.6	-48.1	17.0	0.00e+00	0	56	0	768606208	55	4423
2026-01-02 12:23:25.41	304.06	16.86	-46.6	-48.2	16.9	0.00e+00	0	56	0	770703360	55	4489
2026-01-02 12:23:26.40	304.27	16.82	-46.8	-48.4	16.7	0.00e+00	0	57	0	772800512	55	4589
2026-01-02 12:23:27.38	304.48	16.78	-46.8	-48.4	16.7	0.00e+00	0	56	0	774897664	55	4584
2026-01-02 12:23:28.37	304.68	16.74	-46.8	-48.6	16.6	0.00e+00	0	56	0	776994816	55	4663
2026-01-02 12:23:29.36	304.89	16.70	-47.0	-48.7	16.4	0.00e+00	0	57	0	778043392	55	4741
2026-01-02 12:23:30.34	305.09	16.66	-47.0	-48.7	16.4	0.00e+00	0	56	0	780140544	55	4759
2026-01-02 12:23:31.33	305.30	16.62	-47.0	-48.7	16.4	0.00e+00	0	57	0	782237696	55	4759
2026-01-02 12:23:32.31	305.50	16.57	-47.2	-48.9	16.3	0.00e+00	0	56	0	784334848	56	4588
2026-01-02 12:23:33.30	305.70	16.53	-47.1	-48.9	16.4	0.00e+00	0	57	0	785383424	56	4550
2026-01-02 12:23:34.30	305.91	16.49	-47.1	-48.9	16.4	0.00e+00	0	57	0	787480576	56	4578
2026-01-02 12:23:35.29	306.11	16.44	-47.2	-49.0	16.3	0.00e+00	0	57	0	789577728	56	4626
2026-01-02 12:23:36.29	306.32	16.40	-47.3	-49.1	16.1	0.00e+00	0	57	0	791674880	56	4704
2026-01-02 12:23:37.28	306.52	16.36	-47.2	-49.0	16.3	0.00e+00	0	57	0	792723456	56	4611
2026-01-02 12:23:38.27	306.72	16.31	-47.5	-49.3	15.9	0.00e+00	0	56	0	794820608	56	4804
2026-01-02 12:23:39.26	306.92	16.27	-47.7	-49.7	15.6	0.00e+00	0	56	0	796917760	57	4726
2026-01-02 12:23:40.25	307.12	16.22	-47.7	-49.6	15.7	0.00e+00	0	57	0	799014912	57	4687
2026-01-02 12:23:41.24	307.32	16.18	-47.8	-49.8	15.5	0.00e+00	0	57	0	801112064	57	4770
2026-01-02 12:23:42.23	307.52	16.13	-48.1	-50.2	15.1	0.00e+00	0	57	0	802160640	58	4747
2026-01-02 12:23:43.22	307.71	16.09	-48.2	-50.3	14.9	0.00e+00	0	57	0	804257792	58	4804
2026-01-02 12:23:44.20	307.91	16.04	-48.3	-50.6	14.6	0.00e+00	0	57	0	806354944	58	4972
2026-01-02 12:23:45.20	308.11	16.00	-48.3	-50.6	14.7	0.00e+00	0	57	0	808452096	58	4964
2026-01-02 12:23:46.19	308.30	15.95	-48.5	-50.8	14.4	1.50e-06	0	57	0	809500672	58	5096
2026-01-02 12:23:47.18	308.50	15.90	-48.4	-50.8	14.5	0.00e+00	0	57	0	811597824	58	5065
2026-01-02 12:23:48.17	308.69	15.86	-48.6	-51.0	14.3	7.00e-07	0	57	0	813694976	59	4877
2026-01-02 12:23:49.17	308.89	15.81	-48.4	-50.7	14.5	0.00e+00	0	57	0	815792128	59	4749
2026-01-02 12:23:50.16	309.08	15.76	-48.4	-50.6	14.6	7.00e-07	0	57	0	817889280	59	4681
2026-01-02 12:23:51.14	309.28	15.72	-48.5	-50.8	14.5	1.50e-06	0	57	0	818937856	59	4789
2026-01-02 12:23:52.13	309.47	15.67	-48.6	-51.0	14.3	7.00e-07	0	57	0	821035008	59	4883
2026-01-02 12:23:53.10	309.66	15.62	-48.4	-50.6	14.6	1.50e-06	0	57	0	823132160	59	4697
2026-01-02 12:23:54.10	309.85	15.57	-48.1	-50.2	15.0	0.00e+00	0	57	0	825229312	59	4489
2026-01-02 12:23:55.09	310.04	15.53	-47.9	-50.0	15.2	0.00e+00	0	57	0	826277888	59	4378
2026-01-02 12:23:56.08	310.23	15.48	-47.8	-49.9	15.3	0.00e+00	0	56	0	828375040	58	4582
2026-01-02 12:23:57.07	310.42	15.43	-47.9	-49.9	15.3	0.00e+00	0	57	0	830472192	58	4583
2026-01-02 12:23:58.06	310.61	15.38	-47.8	-49.8	15.4	0.00e+00	0	57	0	832569344	58	4544
2026-01-02 12:23:59.05	310.80	15.33	-47.8	-49.8	15.5	0.00e+00	0	57	0	833617920	58	4519
2026-01-02 12:24:00.03	310.98	15.28	-47.9	-49.9	15.4	0.00e+00	0	57	0	835715072	58	4572
2026-01-02 12:24:01.03	311.17	15.23	-48.1	-50.2	15.0	0.00e+00	0	57	0	837812224	58	4723
2026-01-02 12:24:02.02	311.36	15.18	-48.1	-50.4	14.9	0.00e+00	0	57	0	839909376	58	4842
2026-01-02 12:24:03.01	311.55	15.13	-48.3	-50.6	14.6	0.00e+00	0	57	0	840957952	58	4977
2026-01-02 12:24:04.00	311.73	15.08	-48.3	-50.7	14.6	7.00e-07	0	57	0	843055104	58	4992
2026-01-02 12:24:04.99	311.92	15.03	-48.4	-50.8	14.5	7.00e-07	0	57	0	845152256	58	5063
2026-01-02 12:24:05.98	312.10	14.98	-48.3	-50.7	14.6	0.00e+00	0	57	0	847249408	58	4995
2026-01-02 12:24:06.96	312.28	14.93	-48.4	-50.8	14.5	0.00e+00	0	57	0	849346560	58	5049
2026-01-02 12:24:07.96	312.47	14.88	-48.4	-50.8	14.4	0.00e+00	0	57	0	850395136	58	5095
2026-01-02 12:24:08.94	312.65	14.83	-48.6	-51.1	14.2	1.50e-06	0	57	0	852492288	58	5224
2026-01-02 12:24:09.94	312.83	14.78	-48.5	-50.9	14.3	7.00e-07	0	57	0	854589440	58	5141
2026-01-02 12:24:10.93	313.01	14.73	-48.5	-50.9	14.3	1.50e-06	0	57	0	856686592	58	5156
2026-01-02 12:24:11.91	313.19	14.68	-48.6	-51.1	14.1	1.50e-06	0	57	0	857735168	59	4960
2026-01-02 12:24:12.91	313.37	14.63	-48.7	-51.3	14.0	3.00e-06	0	57	0	859832320	59	5042
2026-01-02 12:24:13.90	313.55	14.58	-48.5	-51.0	14.3	3.80e-06	0	57	0	861929472	59	4882
2026-01-02 12:24:14.89	313.73	14.53	-48.4	-50.8	14.4	7.00e-07	0	57	0	864026624	59	4791
2026-01-02 12:24:15.88	313.91	14.48	-48.4	-50.7	14.5	7.00e-07	0	57	0	865075200	59	4746
2026-01-02 12:24:16.88	314.09	14.42	-48.4	-50.8	14.4	0.00e+00	0	57	0	867172352	59	4791
2026-01-02 12:24:17.86	314.26	14.37	-48.3	-50.6	14.6	7.00e-07	0	57	0	869269504	59	4679
2026-01-02 12:24:18.85	314.44	14.32	-48.3	-50.6	14.6	0.00e+00	0	57	0	871366656	59	4699
2026-01-02 12:24:19.85	314.62	14.27	-48.4	-50.7	14.5	0.00e+00	0	57	0	873463808	59	4725
2026-01-02 12:24:20.84	314.79	14.21	-48.3	-50.5	14.7	7.00e-07	0	57	0	874512384	59	4650
2026-01-02 12:24:21.83	314.97	14.16	-48.3	-50.5	14.7	0.00e+00	0	57	0	876609536	59	4644
2026-01-02 12:24:22.82	315.14	14.11	-48.0	-50.2	15.1	0.00e+00	0	57	0	878706688	59	4454
2026-01-02 12:24:23.81	315.32	14.06	-47.9	-49.9	15.3	0.00e+00	0	57	0	880803840	58	4594
2026-01-02 12:24:24.80	315.49	14.00	-47.9	-49.9	15.3	0.00e+00	0	57	0	881852416	58	4578
2026-01-02 12:24:25.79	315.66	13.95	-47.9	-50.0	15.3	0.00e+00	0	57	0	883949568	58	4608
2026-01-02 12:24:26.79	315.83	13.90	-47.9	-50.1	15.2	0.00e+00	0	57	0	886046720	58	4665
2026-01-02 12:24:27.78	316.00	13.84	-48.1	-50.2	15.0	0.00e+00	0	57	0	888143872	58	4750
2026-01-02 12:24:28.77	316.17	13.79	-48.1	-50.2	15.0	0.00e+00	0	57	0	890241024	58	4758
2026-01-02 12:24:29.76	316.34	13.74	-48.1	-50.4	14.9	0.00e+00	0	57	0	891289600	58	4829
2026-01-02 12:24:30.74	316.51	13.68	-48.1	-50.3	14.9	7.00e-07	0	57	0	893386752	58	4768
2026-01-02 12:24:31.72	316.68	13.63	-48.1	-50.2	14.9	0.00e+00	0	57	0	895483904	58	4754
2026-01-02 12:24:32.71	316.85	13.58	-48.1	-50.3	14.9	0.00e+00	0	57	0	897581056	58	4805
2026-01-02 12:24:33.70	317.01	13.52	-48.4	-50.7	14.5	7.00e-07	0	57	0	898629632	58	5009
2026-01-02 12:24:34.69	317.18	13.47	-48.4	-50.8	14.4	0.00e+00	0	56	0	900726784	58	5059
2026-01-02 12:24:35.68	317.35	13.42	-48.6	-51.1	14.1	1.50e-06	0	57	0	902823936	58	5229
2026-01-02 12:24:36.67	317.51	13.36	-48.7	-51.3	13.9	1.50e-06	0	57	0	904921088	59	5079
2026-01-02 12:24:37.67	317.68	13.31	-48.9	-51.6	13.5	4.50e-06	0	57	0	905969664	59	5279
2026-01-02 12:24:38.66	317.84	13.25	-48.9	-51.7	13.4	1.37e-05	0	57	0	908066816	59	5301
2026-01-02 12:24:39.65	318.01	13.20	-49.0	-51.9	13.2	1.06e-05	0	57	0	910163968	59	5435
2026-01-02 12:24:40.63	318.17	13.15	-48.9	-51.8	13.4	2.74e-05	0	57	0	912261120	60	5059
2026-01-02 12:24:41.62	318.33	13.09	-48.8	-51.5	13.7	9.90e-06	0	56	0	914358272	60	4872
2026-01-02 12:24:42.61	318.50	13.04	-48.5	-51.0	14.1	2.20e-06	0	57	0	915406848	60	4634
2026-01-02 12:24:43.60	318.66	12.98	-48.3	-50.7	14.4	0.00e+00	0	57	0	917504000	59	4746
2026-01-02 12:24:44.58	318.82	12.93	-48.3	-50.5	14.6	1.50e-06	0	57	0	919601152	59	4635
2026-01-02 12:24:45.57	318.98	12.87	-48.0	-50.2	15.0	7.00e-07	0	57	0	921698304	59	4455
2026-01-02 12:24:46.56	319.14	12.82	-47.8	-49.8	15.4	0.00e+00	0	57	0	922746880	58	4504
2026-01-02 12:24:47.55	319.30	12.76	-47.6	-49.5	15.8	0.00e+00	0	57	0	924844032	58	4346
2026-01-02 12:24:48.54	319.45	12.71	-47.4	-49.3	15.9	0.00e+00	0	57	0	926941184	58	4279
2026-01-02 12:24:49.53	319.61	12.65	-47.5	-49.5	15.7	0.00e+00	0	57	0	929038336	58	4347
2026-01-02 12:24:50.52	319.77	12.60	-47.6	-49.6	15.6	0.00e+00	0	57	0	930086912	58	4403
2026-01-02 12:24:51.51	319.93	12.54	-47.7	-49.6	15.5	7.00e-07	0	57	0	932184064	58	4440
2026-01-02 12:24:52.50	320.08	12.49	-47.8	-49.8	15.4	0.00e+00	0	57	0	934281216	58	4502
2026-01-02 12:24:53.49	320.24	12.43	-47.6	-49.6	15.5	0.00e+00	0	57	0	936378368	58	4412
2026-01-02 12:24:54.47	320.39	12.38	-47.7	-49.7	15.4	0.00e+00	0	57	0	937426944	58	4470
2026-01-02 12:24:55.46	320.55	12.32	-47.6	-49.6	15.6	0.00e+00	0	57	0	939524096	58	4397
2026-01-02 12:24:56.45	320.70	12.26	-47.6	-49.6	15.6	0.00e+00	0	57	0	941621248	58	4392
2026-01-02 12:24:57.44	320.86	12.21	-47.6	-49.6	15.5	0.00e+00	0	57	0	943718400	58	4427
2026-01-02 12:24:58.43	321.01	12.15	-47.6	-49.5	15.7	0.00e+00	0	57	0	945815552	58	4362
2026-01-02 12:24:59.42	321.16	12.10	-47.6	-49.6	15.5	0.00e+00	0	57	0	946864128	58	4440
2026-01-02 12:25:00.41	321.31	12.04	-47.6	-49.7	15.4	0.00e+00	0	57	0	948961280	58	4477
2026-01-02 12:25:01.40	321.46	11.99	-47.7	-49.8	15.3	0.00e+00	0	57	0	951058432	58	4536
2026-01-02 12:25:02.39	321.61	11.93	-47.9	-50.0	15.1	0.00e+00	0	57	0	953155584	58	4611
2026-01-02 12:25:03.38	321.77	11.87	-47.8	-49.9	15.2	7.00e-07	0	57	0	954204160	58	4576
2026-01-02 12:25:04.36	321.91	11.82	-47.9	-50.1	15.0	0.00e+00	0	57	0	956301312	58	4668
2026-01-02 12:25:05.35	322.06	11.76	-47.9	-50.0	15.1	0.00e+00	0	57	0	958398464	58	4639
2026-01-02 12:25:06.33	322.21	11.71	-47.8	-49.9	15.3	7.00e-07	0	57	0	960495616	58	4552
2026-01-02 12:25:07.33	322.36	11.65	-47.8	-49.8	15.3	0.00e+00	0	57	0	961544192	58	4543
2026-01-02 12:25:08.32	322.51	11.59	-47.8	-49.8	15.3	0.00e+00	0	57	0	963641344	58	4511
2026-01-02 12:25:09.30	322.65	11.54	-47.5	-49.4	15.7	0.00e+00	0	57	0	965738496	58	4325
2026-01-02 12:25:10.29	322.80	11.48	-47.5	-49.4	15.7	0.00e+00	0	57	0	967835648	58	4315
2026-01-02 12:25:11.29	322.95	11.43	-47.5	-49.5	15.6	0.00e+00	0	57	0	969932800	58	4353
2026-01-02 12:25:12.27	323.09	11.37	-47.7	-49.7	15.4	0.00e+00	0	57	0	970981376	58	4489
2026-01-02 12:25:13.27	323.24	11.31	-48.0	-50.1	15.0	0.00e+00	0	57	0	973078528	58	4696
2026-01-02 12:25:14.26	323.38	11.26	-48.0	-50.2	14.9	0.00e+00	0	57	0	975175680	58	4742
2026-01-02 12:25:15.24	323.52	11.20	-48.2	-50.5	14.6	0.00e+00	0	57	0	977272832	58	4890
2026-01-02 12:25:16.24	323.67	11.14	-48.2	-50.5	14.6	7.00e-07	0	57	0	978321408	58	4920
2026-01-02 12:25:17.23	323.81	11.09	-48.3	-50.7	14.4	7.00e-07	0	57	0	980418560	58	5016
2026-01-02 12:25:18.22	323.95	11.03	-48.1	-50.4	14.7	0.00e+00	0	57	0	982515712	58	4824
2026-01-02 12:25:19.21	324.09	10.97	-47.9	-50.1	15.0	0.00e+00	0	57	0	984612864	58	4661
2026-01-02 12:25:20.20	324.23	10.92	-47.8	-50.0	15.1	7.00e-07	0	57	0	986710016	58	4607
2026-01-02 12:25:21.19	324.37	10.86	-47.8	-49.9	15.2	0.00e+00	0	57	0	987758592	58	4556
2026-01-02 12:25:22.18	324.52	10.80	-47.8	-49.8	15.2	0.00e+00	0	57	0	989855744	58	4538
2026-01-02 12:25:23.16	324.65	10.75	-47.8	-50.0	15.0	0.00e+00	0	57	0	991952896	58	4628
2026-01-02 12:25:24.15	324.79	10.69	-47.8	-49.9	15.1	0.00e+00	0	57	0	994050048	58	4584
2026-01-02 12:25:25.14	324.93	10.64	-48.1	-50.3	14.7	0.00e+00	0	57	0	995098624	58	4790
2026-01-02 12:25:26.14	325.07	10.58	-48.0	-50.3	14.8	0.00e+00	0	57	0	997195776	58	4764
2026-01-02 12:25:27.13	325.21	10.52	-48.3	-50.6	14.4	0.00e+00	0	57	0	999292928	58	4950
2026-01-02 12:25:28.12	325.34	10.46	-48.2	-50.6	14.4	0.00e+00	0	57	0	1001390080	58	4955
2026-01-02 12:25:29.10	325.48	10.41	-48.3	-50.7	14.3	0.00e+00	0	57	0	1002438656	58	5005
2026-01-02 12:25:30.08	325.61	10.35	-48.4	-50.9	14.1	2.20e-06	0	57	0	1004535808	58	5105
2026-01-02 12:25:31.06	325.75	10.30	-48.2	-50.7	14.4	2.20e-06	0	57	0	1006632960	58	4998
2026-01-02 12:25:32.06	325.88	10.24	-48.3	-50.8	14.3	7.00e-07	0	57	0	1008730112	58	5046
2026-01-02 12:25:33.04	326.02	10.18	-48.4	-50.9	14.1	0.00e+00	0	57	0	1009778688	58	5139
2026-01-02 12:25:34.03	326.15	10.13	-48.4	-51.0	14.0	1.50e-06	0	57	0	1011875840	58	5178
2026-01-02 12:25:35.02	326.28	10.07	-48.5	-51.1	14.0	2.20e-06	0	57	0	1013972992	58	5251
2026-01-02 12:25:36.00	326.42	10.01	-48.4	-50.8	14.2	2.20e-06	0	57	0	1016070144	58	5080
2026-01-02 12:25:36.99	326.55	9.96	-48.3	-50.7	14.3	2.20e-06	0	57	0	1017118720	58	5028
2026-01-02 12:25:37.98	326.68	9.90	-48.4	-50.8	14.2	1.50e-06	0	57	0	1019215872	58	5082
2026-01-02 12:25:38.97	326.81	9.84	-48.5	-51.0	14.1	2.20e-06	0	57	0	1021313024	58	5166
2026-01-02 12:25:39.95	326.94	9.79	-48.6	-51.2	13.8	4.50e-06	0	57	0	1023410176	59	5020
2026-01-02 12:25:40.95	327.07	9.73	-48.5	-51.0	14.0	2.20e-06	0	57	0	1025507328	59	4874
2026-01-02 12:25:41.94	327.20	9.67	-48.3	-50.8	14.2	3.80e-06	0	57	0	1026555904	59	4772
2026-01-02 12:25:42.94	327.33	9.62	-48.3	-50.6	14.4	7.00e-07	0	57	0	1028653056	59	4699
2026-01-02 12:25:43.93	327.46	9.56	-48.3	-50.6	14.4	7.00e-07	0	57	0	1030750208	59	4696
2026-01-02 12:25:44.92	327.59	9.50	-48.2	-50.6	14.4	0.00e+00	0	57	0	1032847360	59	4677
2026-01-02 12:25:45.91	327.72	9.45	-48.3	-50.8	14.2	7.00e-07	0	57	0	1033895936	59	4771
2026-01-02 12:25:46.90	327.85	9.39	-48.2	-50.6	14.3	0.00e+00	0	57	0	1035993088	59	4682
2026-01-02 12:25:47.90	327.98	9.33	-48.3	-50.7	14.2	0.00e+00	0	57	0	1038090240	59	4751
2026-01-02 12:25:48.88	328.10	9.28	-48.3	-50.6	14.4	2.20e-06	0	57	0	1040187392	59	4673
2026-01-02 12:25:49.87	328.23	9.22	-48.1	-50.6	14.3	2.20e-06	0	57	0	1042284544	59	4653
2026-01-02 12:25:50.87	328.35	9.16	-48.3	-50.7	14.3	0.00e+00	0	57	0	1043333120	59	4725
2026-01-02 12:25:51.86	328.48	9.11	-48.4	-51.0	14.0	4.50e-06	0	57	0	1045430272	59	4878
2026-01-02 12:25:52.86	328.61	9.05	-48.4	-51.0	13.9	3.00e-06	0	57	0	1047527424	59	4885
2026-01-02 12:25:53.84	328.73	8.99	-48.7	-51.3	13.7	9.10e-06	0	57	0	1049624576	59	5095
2026-01-02 12:25:54.83	328.85	8.94	-48.6	-51.3	13.7	9.90e-06	0	57	0	1050673152	59	5045
2026-01-02 12:25:55.82	328.98	8.88	-48.7	-51.4	13.5	9.90e-06	0	57	0	1052770304	59	5156
2026-01-02 12:25:56.81	329.10	8.82	-48.7	-51.5	13.3	1.67e-05	0	57	0	1054867456	59	5209
2026-01-02 12:25:57.80	329.22	8.77	-48.8	-51.6	13.3	1.52e-05	0	57	0	1056964608	59	5255
2026-01-02 12:25:58.77	329.34	8.71	-48.7	-51.5	13.4	1.83e-05	0	57	0	1058013184	59	5182
2026-01-02 12:25:59.77	329.46	8.65	-48.7	-51.3	13.6	8.30e-06	0	57	0	1060110336	59	5077
2026-01-02 12:26:00.76	329.58	8.60	-48.6	-51.2	13.7	3.00e-06	0	57	0	1062207488	59	5017
2026-01-02 12:26:01.74	329.70	8.54	-48.6	-51.2	13.7	6.10e-06	0	57	0	1064304640	59	4988
2026-01-02 12:26:02.73	329.82	8.49	-48.6	-51.2	13.6	3.00e-06	0	57	0	1066401792	59	5027
2026-01-02 12:26:03.72	329.94	8.43	-48.7	-51.5	13.4	9.90e-06	0	57	0	1067450368	59	5174
2026-01-02 12:26:04.71	330.06	8.37	-48.5	-51.3	13.6	1.44e-05	0	57	0	1069547520	59	5045
2026-01-02 12:26:05.70	330.18	8.32	-48.6	-51.3	13.6	8.30e-06	0	57	0	1071644672	59	5050
2026-01-02 12:26:06.68	330.30	8.26	-48.7	-51.5	13.4	1.06e-05	0	57	0	1073741824	59	5174
2026-01-02 12:26:07.68	330.42	8.20	-48.7	-51.5	13.3	1.37e-05	0	57	0	1074790400	59	5185
2026-01-02 12:26:08.67	330.54	8.15	-48.9	-51.8	13.0	2.28e-05	0	57	0	1076887552	59	5396
2026-01-02 12:26:09.66	330.65	8.09	-48.8	-51.8	13.0	3.05e-05	0	57	0	1078984704	59	5357
2026-01-02 12:26:10.65	330.77	8.04	-48.9	-51.9	12.9	3.81e-05	0	57	0	1081081856	59	5448
2026-01-02 12:26:11.65	330.89	7.98	-49.1	-52.1	12.6	7.17e-05	0	57	0	1083179008	59	5566
2026-01-02 12:26:12.64	331.00	7.92	-49.1	-52.2	12.6	1.13e-04	0	57	0	1084227584	60	5330
2026-01-02 12:26:13.63	331.12	7.87	-48.9	-51.9	12.9	8.39e-05	0	57	0	1086324736	60	5143
2026-01-02 12:26:14.62	331.23	7.81	-49.0	-52.1	12.7	7.70e-05	0	57	0	1088421888	60	5254
2026-01-02 12:26:15.62	331.35	7.75	-49.0	-52.1	12.7	8.01e-05	0	57	0	1090519040	60	5259
2026-01-02 12:26:16.62	331.46	7.70	-49.0	-52.1	12.7	1.04e-04	0	57	0	1091567616	60	5232
2026-01-02 12:26:17.61	331.58	7.64	-48.8	-51.7	13.1	3.50e-05	0	57	0	1093664768	60	5041
2026-01-02 12:26:18.60	331.69	7.59	-48.8	-51.7	13.0	2.44e-05	0	57	0	1095761920	60	5041
2026-01-02 12:26:19.59	331.80	7.53	-48.8	-51.7	13.0	2.82e-05	0	57	0	1097859072	60	5009
2026-01-02 12:26:20.57	331.92	7.47	-48.8	-51.7	13.0	4.04e-05	0	57	0	1098907648	60	5031
2026-01-02 12:26:21.56	332.03	7.42	-48.9	-51.9	12.9	5.03e-05	0	57	0	1101004800	60	5112
2026-01-02 12:26:22.56	332.14	7.36	-48.9	-52.0	12.8	7.40e-05	0	57	0	1103101952	60	5188
2026-01-02 12:26:23.55	332.25	7.31	-49.0	-52.1	12.7	5.56e-05	0	57	0	1105199104	60	5228
2026-01-02 12:26:24.54	332.36	7.25	-49.0	-52.2	12.6	1.15e-04	0	57	0	1107296256	60	5296
2026-01-02 12:26:25.53	332.47	7.19	-49.1	-52.4	12.3	1.42e-04	0	57	0	1108344832	60	5414
2026-01-02 12:26:26.52	332.58	7.14	-49.2	-52.5	12.1	2.60e-04	0	57	0	1110441984	60	5526
2026-01-02 12:26:27.51	332.69	7.08	-49.2	-52.6	12.2	2.17e-04	0	57	0	1112539136	60	5565
2026-01-02 12:26:28.48	332.80	7.03	-49.1	-52.5	12.1	2.35e-04	0	57	0	1114636288	60	5522
2026-01-02 12:26:29.47	332.91	6.97	-49.1	-52.4	12.3	2.78e-04	0	57	0	1115684864	60	5438
2026-01-02 12:26:30.45	333.02	6.92	-49.2	-52.6	12.1	3.29e-04	0	57	0	1117782016	60	5589
2026-01-02 12:26:31.43	333.12	6.86	-49.2	-52.6	12.0	4.56e-04	0	57	0	1119879168	60	5592
2026-01-02 12:26:32.42	333.23	6.81	-49.1	-52.5	12.1	3.00e-04	0	57	0	1121976320	60	5502
2026-01-02 12:26:33.41	333.34	6.75	-49.1	-52.5	12.2	1.98e-04	0	57	0	1123024896	60	5474
2026-01-02 12:26:34.40	333.44	6.70	-49.0	-52.3	12.3	2.43e-04	0	57	0	1125122048	60	5381
2026-01-02 12:26:35.39	333.55	6.64	-49.0	-52.3	12.3	1.68e-04	0	57	0	1127219200	60	5371
2026-01-02 12:26:36.38	333.66	6.59	-48.9	-51.9	12.6	1.29e-04	0	57	0	1129316352	60	5149
2026-01-02 12:26:37.36	333.76	6.53	-48.9	-52.0	12.5	8.69e-05	0	57	0	1130364928	60	5198
2026-01-02 12:26:38.36	333.87	6.48	-48.9	-52.1	12.5	1.14e-04	0	57	0	1132462080	60	5246
2026-01-02 12:26:39.34	333.97	6.42	-49.0	-52.2	12.3	1.65e-04	0	57	0	1134559232	60	5336
2026-01-02 12:26:40.33	334.08	6.37	-49.0	-52.3	12.2	1.84e-04	0	57	0	1136656384	60	5387
2026-01-02 12:26:41.32	334.18	6.31	-49.0	-52.3	12.2	2.62e-04	0	57	0	1138753536	60	5363
2026-01-02 12:26:42.31	334.28	6.26	-49.0	-52.4	12.2	1.92e-04	0	57	0	1139802112	60	5443
2026-01-02 12:26:43.30	334.39	6.20	-49.1	-52.4	12.2	2.56e-04	0	57	0	1141899264	60	5424
2026-01-02 12:26:44.29	334.49	6.15	-49.1	-52.6	12.0	2.93e-04	0	57	0	1143996416	60	5562
2026-01-02 12:26:45.28	334.59	6.09	-49.2	-52.8	11.7	4.06e-04	0	57	0	1146093568	60	5688
2026-01-02 12:26:46.27	334.70	6.04	-49.1	-52.7	11.8	4.84e-04	0	57	0	1147142144	60	5625
2026-01-02 12:26:47.26	334.80	5.98	-49.2	-52.8	11.6	5.26e-04	0	57	0	1149239296	60	5695
2026-01-02 12:26:48.25	334.90	5.93	-49.2	-53.0	11.6	7.41e-04	0	57	0	1151336448	60	5797
2026-01-02 12:26:49.23	335.00	5.87	-49.2	-52.9	11.6	6.73e-04	0	57	0	1153433600	60	5727
2026-01-02 12:26:50.22	335.10	5.82	-49.2	-52.9	11.5	7.05e-04	0	57	0	1154482176	60	5744
2026-01-02 12:26:51.21	335.20	5.76	-49.4	-53.1	11.3	7.74e-04	0	57	0	1156579328	60	5910
2026-01-02 12:26:52.20	335.30	5.71	-49.4	-53.3	11.1	1.60e-03	0	57	0	1158676480	60	6004
2026-01-02 12:26:53.19	335.40	5.65	-49.3	-53.0	11.4	1.05e-03	0	57	0	1160773632	60	5841
2026-01-02 12:26:54.18	335.50	5.60	-49.4	-53.3	11.1	1.20e-03	0	57	0	1162870784	60	5996
2026-01-02 12:26:55.16	335.60	5.54	-49.3	-53.2	11.2	1.43e-03	0	57	0	1163919360	60	5941
2026-01-02 12:26:56.16	335.70	5.49	-49.5	-53.3	11.1	1.86e-03	0	57	0	1166016512	60	6047
2026-01-02 12:26:57.14	335.80	5.44	-49.5	-53.6	10.8	1.86e-03	0	57	0	1168113664	60	6226
2026-01-02 12:26:58.13	335.89	5.38	-49.5	-53.7	10.6	2.73e-03	0	57	0	1170210816	61	5972
2026-01-02 12:26:59.11	335.99	5.33	-49.6	-53.9	10.4	4.86e-03	0	57	0	1171259392	61	6100
2026-01-02 12:27:00.11	336.09	5.27	-49.9	-54.4	9.8	7.84e-03	0	57	0	1173356544	61	6490
2026-01-02 12:27:01.10	336.19	5.22	-49.7	-54.1	10.2	6.33e-03	0	57	0	1175453696	61	6237
2026-01-02 12:27:02.09	336.28	5.16	-49.5	-53.8	10.4	6.11e-03	0	57	0	1177550848	61	6056
2026-01-02 12:27:03.09	336.38	5.11	-49.7	-54.1	10.1	5.91e-03	0	57	0	1178599424	61	6246
2026-01-02 12:27:04.07	336.48	5.06	-49.8	-54.2	10.0	7.96e-03	0	57	0	1180696576	61	6333
2026-01-02 12:27:05.06	336.57	5.00	-51.0	-58.9	6.1	8.17e-03	0	57	0	1182793728	63	9663
2026-01-02 12:27:06.05	336.67	4.95	-51.4	-64.1	3.8	1.49e+00	0	57	104	1182793728	65	15688
2026-01-02 12:27:07.05	336.76	4.89	-49.0	-62.8	3.8	1.49e+00	0	57	104	1182793728	61	17075
2026-01-02 12:27:08.03	336.86	4.84	-48.5	-62.3	3.8	1.49e+00	0	57	104	1182793728	59	17967
2026-01-02 12:27:09.03	336.95	4.78	-50.0	-63.8	3.8	1.49e+00	0	57	104	1182793728	61	19054
2026-01-02 12:27:10.01	337.05	4.73	-51.5	-65.4	3.8	1.49e+00	0	57	104	1182793728	64	19347
2026-01-02 12:27:11.01	337.14	4.68	-52.4	-66.2	3.8	1.49e+00	0	57	104	1182793728	66	18839
2026-01-02 12:27:12.00	337.23	4.62	-52.5	-66.4	3.8	1.49e+00	0	57	104	1182793728	66	19189
2026-01-02 12:27:12.98	337.33	4.57	-52.4	-66.4	3.8	1.49e+00	0	57	104	1182793728	66	19275
2026-01-02 12:27:13.98	337.42	4.52	-52.6	-66.4	3.8	1.49e+00	0	57	104	1182793728	67	18301
2026-01-02 12:27:14.96	337.51	4.46	-52.6	-66.5	3.8	1.49e+00	0	57	104	1182793728	67	18358
2026-01-02 12:27:15.95	337.60	4.41	-52.5	-66.5	3.8	1.49e+00	0	57	104	1182793728	67	18388
2026-01-02 12:27:16.94	337.69	4.36	-52.6	-66.5	3.8	1.49e+00	0	57	104	1182793728	67	18508
2026-01-02 12:27:17.94	337.79	4.30	-52.6	-66.6	3.8	1.49e+00	0	57	104	1182793728	67	18533
