passes_logs/2026/01/02/R3.0SM8_Murmansk_STILSPACE/R3.0SM8_Murmansk_STILSPACE__20260102_085256_NOAA_20_JPSS-1_rec.log

#Pass ID: 20260102_085256_NOAA 20 (JPSS-1)
#Satellite: NOAA 20 (JPSS-1)
#Configuration: NOAA 20
#almurnet v.1.7.20240730
#Start time: 2026-01-02 08:52:56

#Version: 2.2.20231116
#Station: R3.0SM8_Murmansk_STILSPACE
#Location: 33.092731 lon 68.902999 lat
#TLE: 1 43013U 17073A   26001.30344297  .00000183  00000+0  10758-3 0  9995
#TLE: 2 43013  98.7621 302.3885 0001938  59.1624 300.9742 14.19532032420790

#Time	Az	El	Level	Level2	SNR	BER	BlckErr	Temp	State	Recorded	gain1	gain2
2026-01-02 08:52:56.78	136.26	2.99	-52.4	-66.3	3.8	1.49e+00	0	51	0	0	67	18020
2026-01-02 08:52:57.76	136.25	3.05	-52.4	-66.2	3.8	1.49e+00	0	52	104	0	67	17873
2026-01-02 08:52:58.76	136.24	3.12	-52.3	-66.2	3.8	1.49e+00	0	52	104	0	67	17791
2026-01-02 08:52:59.75	136.22	3.19	-52.1	-66.2	3.8	1.49e+00	0	52	104	0	67	17717
2026-01-02 08:53:00.73	136.21	3.25	-52.2	-66.1	3.8	1.49e+00	0	52	104	0	67	17637
2026-01-02 08:53:01.72	136.19	3.32	-52.2	-66.1	3.8	1.49e+00	0	52	104	0	67	17525
2026-01-02 08:53:02.71	136.18	3.38	-52.1	-66.0	3.8	1.49e+00	0	52	104	0	67	17370
2026-01-02 08:53:03.70	136.16	3.45	-51.9	-65.9	3.8	1.49e+00	0	52	104	0	66	18117
2026-01-02 08:53:04.68	136.15	3.52	-51.8	-65.6	3.8	1.49e+00	0	52	104	0	66	17669
2026-01-02 08:53:05.67	136.13	3.58	-51.6	-64.9	3.8	1.49e+00	0	52	104	0	66	16260
2026-01-02 08:53:06.65	136.12	3.65	-51.6	-64.9	3.8	1.49e+00	0	52	104	0	66	16292
2026-01-02 08:53:07.64	136.10	3.72	-51.7	-64.8	3.8	1.49e+00	0	52	104	0	66	16070
2026-01-02 08:53:08.64	136.08	3.78	-51.6	-64.8	3.8	1.49e+00	0	52	104	0	66	15993
2026-01-02 08:53:09.63	136.07	3.85	-51.6	-64.6	3.8	1.49e+00	0	52	104	0	66	15599
2026-01-02 08:53:10.62	136.05	3.92	-51.4	-64.3	3.8	1.49e+00	0	52	104	0	65	15989
2026-01-02 08:53:11.61	136.04	3.99	-51.4	-64.0	3.8	1.49e+00	0	52	104	0	65	15412
2026-01-02 08:53:12.59	136.02	4.05	-51.5	-63.6	3.8	1.49e+00	0	52	104	0	65	14856
2026-01-02 08:53:13.59	136.01	4.12	-51.4	-63.3	3.8	1.49e+00	0	52	104	0	65	14308
2026-01-02 08:53:14.58	135.99	4.19	-51.4	-62.8	4.0	1.48e+00	0	53	104	0	65	13496
2026-01-02 08:53:15.57	135.97	4.26	-51.5	-62.4	4.1	1.48e+00	0	52	0	0	65	12911
2026-01-02 08:53:16.56	135.96	4.33	-51.5	-62.0	4.2	1.41e+00	0	53	0	0	65	12312
2026-01-02 08:53:17.55	135.94	4.40	-51.2	-61.6	4.3	1.35e+00	63	53	0	0	65	11719
2026-01-02 08:53:18.54	135.92	4.47	-51.4	-61.2	4.4	1.27e+00	64	53	0	1048576	65	11233
2026-01-02 08:53:19.53	135.91	4.54	-51.2	-60.6	4.7	9.39e-01	0	52	0	3145728	65	10524
2026-01-02 08:53:20.52	135.89	4.60	-51.2	-60.1	4.9	7.97e-01	0	53	0	5242880	65	9942
2026-01-02 08:53:21.51	135.87	4.67	-51.1	-59.7	5.1	6.89e-01	0	53	0	7340032	65	9450
2026-01-02 08:53:22.50	135.86	4.74	-51.1	-59.1	5.5	5.42e-01	0	53	0	8388608	65	8836
2026-01-02 08:53:23.50	135.84	4.81	-50.8	-58.6	5.9	3.90e-01	0	53	0	10485760	64	8792
2026-01-02 08:53:24.48	135.82	4.88	-50.8	-58.1	6.3	3.02e-01	0	53	0	12582912	64	8287
2026-01-02 08:53:25.47	135.81	4.95	-50.7	-57.6	6.7	2.23e-01	0	53	0	14680064	64	7838
2026-01-02 08:53:26.45	135.79	5.02	-50.5	-56.8	7.4	1.60e-01	0	53	0	15728640	64	7158
2026-01-02 08:53:27.44	135.77	5.09	-50.6	-56.4	7.9	7.18e-02	0	53	0	17825792	63	7207
2026-01-02 08:53:28.43	135.75	5.17	-50.7	-56.7	7.6	7.45e-02	0	53	0	19922944	63	7519
2026-01-02 08:53:29.41	135.74	5.24	-50.8	-57.2	7.1	1.58e-01	0	53	0	22020096	63	7955
2026-01-02 08:53:30.40	135.72	5.31	-50.5	-56.3	8.0	1.13e-01	0	53	0	23068672	63	7180
2026-01-02 08:53:31.39	135.70	5.38	-50.3	-55.6	8.7	4.35e-02	0	53	0	25165824	63	6594
2026-01-02 08:53:32.38	135.68	5.45	-50.0	-54.8	9.6	1.93e-02	0	53	0	27262976	63	5994
2026-01-02 08:53:33.37	135.67	5.52	-49.9	-54.4	9.9	1.07e-02	0	53	0	29360128	62	6078
2026-01-02 08:53:34.35	135.65	5.59	-49.7	-53.9	10.5	5.00e-03	0	53	0	30408704	62	5742
2026-01-02 08:53:35.33	135.63	5.66	-49.5	-53.5	10.9	2.66e-03	0	53	0	32505856	62	5491
2026-01-02 08:53:36.32	135.61	5.74	-49.4	-53.3	11.1	1.71e-03	0	53	0	34603008	61	5665
2026-01-02 08:53:37.31	135.59	5.81	-49.3	-53.1	11.3	1.33e-03	0	53	0	36700160	61	5535
2026-01-02 08:53:38.29	135.58	5.88	-49.4	-53.4	11.0	1.72e-03	0	53	0	38797312	61	5735
2026-01-02 08:53:39.29	135.56	5.95	-49.4	-53.2	11.2	1.91e-03	0	53	0	39845888	61	5617
2026-01-02 08:53:40.27	135.54	6.03	-49.1	-52.6	11.9	7.31e-04	0	53	0	41943040	61	5236
2026-01-02 08:53:41.26	135.52	6.10	-48.8	-52.0	12.5	2.48e-04	0	53	0	44040192	60	5180
2026-01-02 08:53:42.24	135.50	6.17	-48.5	-51.6	12.9	7.85e-05	0	53	0	46137344	60	4942
2026-01-02 08:53:43.23	135.48	6.25	-48.4	-51.1	13.4	1.98e-05	0	53	0	47185920	59	4983
2026-01-02 08:53:44.22	135.46	6.32	-48.2	-50.8	13.7	4.50e-06	0	53	0	49283072	59	4802
2026-01-02 08:53:45.21	135.44	6.39	-48.1	-50.6	13.9	5.30e-06	0	53	0	51380224	59	4701
2026-01-02 08:53:46.20	135.42	6.47	-48.0	-50.4	14.1	1.50e-06	0	54	0	53477376	59	4589
2026-01-02 08:53:47.19	135.40	6.54	-48.0	-50.4	14.2	0.00e+00	0	53	0	54525952	59	4582
2026-01-02 08:53:48.17	135.39	6.62	-48.0	-50.5	14.1	2.20e-06	0	54	0	56623104	59	4603
2026-01-02 08:53:49.16	135.37	6.69	-48.1	-50.5	14.1	7.00e-07	0	53	0	58720256	59	4637
2026-01-02 08:53:50.15	135.35	6.77	-48.0	-50.3	14.3	7.00e-07	0	53	0	60817408	59	4543
2026-01-02 08:53:51.13	135.33	6.84	-47.7	-50.0	14.6	1.50e-06	0	54	0	62914560	58	4643
2026-01-02 08:53:52.12	135.31	6.92	-47.8	-50.2	14.4	0.00e+00	0	53	0	63963136	58	4723
2026-01-02 08:53:53.11	135.29	6.99	-47.8	-50.2	14.5	0.00e+00	0	54	0	66060288	58	4708
2026-01-02 08:53:54.10	135.27	7.07	-47.8	-50.2	14.4	7.00e-07	0	54	0	68157440	58	4727
2026-01-02 08:53:55.09	135.25	7.15	-47.9	-50.3	14.4	1.50e-06	0	54	0	70254592	58	4761
2026-01-02 08:53:56.08	135.22	7.22	-47.9	-50.3	14.4	7.00e-07	0	54	0	71303168	58	4769
2026-01-02 08:53:57.07	135.20	7.30	-48.1	-50.6	14.0	2.20e-06	0	54	0	73400320	58	4968
2026-01-02 08:53:58.06	135.18	7.38	-48.0	-50.4	14.2	0.00e+00	0	54	0	75497472	58	4861
2026-01-02 08:53:59.05	135.16	7.45	-48.2	-50.6	14.0	7.00e-07	0	54	0	77594624	58	4970
2026-01-02 08:54:00.05	135.14	7.53	-48.4	-51.1	13.6	4.50e-06	0	54	0	78643200	58	5251
2026-01-02 08:54:01.04	135.12	7.61	-48.2	-50.7	14.0	4.50e-06	0	54	0	80740352	58	4990
2026-01-02 08:54:02.02	135.10	7.69	-48.3	-50.8	13.9	3.00e-06	0	54	0	82837504	58	5084
2026-01-02 08:54:03.01	135.08	7.76	-48.1	-50.7	14.0	1.50e-06	0	54	0	84934656	58	5002
2026-01-02 08:54:04.00	135.06	7.84	-48.1	-50.6	14.1	3.80e-06	0	54	0	87031808	58	4964
2026-01-02 08:54:04.99	135.03	7.92	-48.2	-50.7	14.0	7.00e-07	0	54	0	88080384	58	5002
2026-01-02 08:54:05.98	135.01	8.00	-48.1	-50.6	14.1	0.00e+00	0	54	0	90177536	58	4946
2026-01-02 08:54:06.97	134.99	8.08	-48.0	-50.5	14.2	7.00e-07	0	54	0	92274688	58	4907
2026-01-02 08:54:07.96	134.97	8.16	-48.0	-50.5	14.2	0.00e+00	0	54	0	94371840	58	4890
2026-01-02 08:54:08.95	134.95	8.24	-47.9	-50.2	14.6	0.00e+00	0	54	0	95420416	58	4712
2026-01-02 08:54:09.94	134.92	8.32	-47.6	-49.8	14.9	0.00e+00	0	54	0	97517568	58	4526
2026-01-02 08:54:10.93	134.90	8.40	-47.5	-49.6	15.2	0.00e+00	0	54	0	99614720	58	4408
2026-01-02 08:54:11.91	134.88	8.48	-47.4	-49.4	15.3	0.00e+00	0	54	0	101711872	57	4597
2026-01-02 08:54:12.90	134.86	8.56	-47.4	-49.5	15.3	0.00e+00	0	54	0	102760448	57	4602
2026-01-02 08:54:13.89	134.83	8.64	-47.5	-49.6	15.1	0.00e+00	0	54	0	104857600	57	4689
2026-01-02 08:54:14.88	134.81	8.72	-47.4	-49.6	15.2	0.00e+00	0	54	0	106954752	57	4658
2026-01-02 08:54:15.86	134.79	8.80	-47.5	-49.6	15.2	0.00e+00	0	54	0	109051904	57	4657
2026-01-02 08:54:16.85	134.76	8.88	-47.6	-49.6	15.2	0.00e+00	0	54	0	110100480	57	4686
2026-01-02 08:54:17.84	134.74	8.96	-47.6	-49.8	15.0	0.00e+00	0	54	0	112197632	57	4770
2026-01-02 08:54:18.83	134.72	9.05	-47.5	-49.6	15.2	0.00e+00	0	54	0	114294784	57	4652
2026-01-02 08:54:19.82	134.69	9.13	-47.4	-49.4	15.4	0.00e+00	0	54	0	116391936	57	4569
2026-01-02 08:54:20.80	134.67	9.21	-47.3	-49.4	15.4	0.00e+00	0	54	0	118489088	57	4566
2026-01-02 08:54:21.79	134.64	9.29	-47.5	-49.6	15.2	0.00e+00	0	54	0	119537664	57	4692
2026-01-02 08:54:22.79	134.62	9.38	-47.5	-49.5	15.3	0.00e+00	0	54	0	121634816	57	4635
2026-01-02 08:54:23.77	134.60	9.46	-47.3	-49.3	15.5	0.00e+00	0	54	0	123731968	57	4509
2026-01-02 08:54:24.76	134.57	9.54	-47.2	-49.1	15.7	0.00e+00	0	54	0	125829120	57	4404
2026-01-02 08:54:25.75	134.55	9.63	-47.1	-49.0	15.9	0.00e+00	0	54	0	126877696	57	4364
2026-01-02 08:54:26.74	134.52	9.71	-47.1	-49.0	15.9	0.00e+00	0	54	0	128974848	57	4366
2026-01-02 08:54:27.73	134.50	9.80	-47.1	-49.0	15.9	0.00e+00	0	54	0	131072000	57	4368
2026-01-02 08:54:28.72	134.47	9.88	-47.3	-49.2	15.6	0.00e+00	0	55	0	133169152	57	4474
2026-01-02 08:54:29.71	134.45	9.97	-47.2	-49.0	15.8	0.00e+00	0	54	0	134217728	57	4389
2026-01-02 08:54:30.69	134.42	10.05	-47.0	-48.9	16.0	0.00e+00	0	55	0	136314880	57	4317
2026-01-02 08:54:31.68	134.39	10.14	-47.0	-48.9	16.0	0.00e+00	0	54	0	138412032	57	4307
2026-01-02 08:54:32.67	134.37	10.22	-47.1	-49.0	15.9	0.00e+00	0	55	0	140509184	57	4377
2026-01-02 08:54:33.66	134.34	10.31	-47.1	-49.0	15.9	0.00e+00	0	54	0	142606336	57	4369
2026-01-02 08:54:34.66	134.32	10.40	-47.1	-49.0	15.9	0.00e+00	0	55	0	143654912	57	4370
2026-01-02 08:54:35.65	134.29	10.48	-47.3	-49.2	15.7	0.00e+00	0	55	0	145752064	57	4470
2026-01-02 08:54:36.64	134.26	10.57	-47.3	-49.2	15.7	0.00e+00	0	54	0	147849216	57	4489
2026-01-02 08:54:37.63	134.24	10.66	-47.3	-49.2	15.7	0.00e+00	0	55	0	149946368	57	4464
2026-01-02 08:54:38.62	134.21	10.75	-47.4	-49.4	15.5	0.00e+00	0	55	0	150994944	57	4591
2026-01-02 08:54:39.60	134.18	10.83	-47.5	-49.5	15.4	0.00e+00	0	55	0	153092096	57	4600
2026-01-02 08:54:40.59	134.15	10.92	-47.2	-49.1	15.8	0.00e+00	0	55	0	155189248	57	4427
2026-01-02 08:54:41.58	134.13	11.01	-47.2	-49.1	15.8	0.00e+00	0	55	0	157286400	57	4436
2026-01-02 08:54:42.57	134.10	11.10	-47.3	-49.1	15.8	0.00e+00	0	55	0	158334976	57	4439
2026-01-02 08:54:43.55	134.07	11.19	-47.2	-49.1	15.8	0.00e+00	0	55	0	160432128	57	4421
2026-01-02 08:54:44.55	134.04	11.28	-47.2	-49.2	15.7	0.00e+00	0	55	0	162529280	57	4455
2026-01-02 08:54:45.53	134.02	11.37	-47.2	-49.1	15.8	0.00e+00	0	55	0	164626432	57	4419
2026-01-02 08:54:46.52	133.99	11.46	-47.1	-48.9	16.0	0.00e+00	0	55	0	166723584	57	4318
2026-01-02 08:54:47.50	133.96	11.55	-46.9	-48.6	16.3	0.00e+00	0	55	0	167772160	56	4423
2026-01-02 08:54:48.48	133.93	11.64	-46.7	-48.4	16.6	0.00e+00	0	55	0	169869312	56	4296
2026-01-02 08:54:49.47	133.90	11.73	-46.6	-48.3	16.6	0.00e+00	0	55	0	171966464	56	4249
2026-01-02 08:54:50.47	133.87	11.82	-46.6	-48.3	16.7	0.00e+00	0	55	0	174063616	56	4245
2026-01-02 08:54:51.45	133.84	11.91	-46.6	-48.2	16.7	0.00e+00	0	55	0	175112192	56	4241
2026-01-02 08:54:52.45	133.81	12.01	-46.8	-48.4	16.5	0.00e+00	0	55	0	177209344	56	4340
2026-01-02 08:54:53.44	133.78	12.10	-46.9	-48.7	16.3	0.00e+00	0	55	0	179306496	56	4452
2026-01-02 08:54:54.43	133.75	12.19	-47.0	-48.8	16.2	0.00e+00	0	55	0	181403648	56	4501
2026-01-02 08:54:55.42	133.72	12.29	-46.9	-48.6	16.3	0.00e+00	0	55	0	182452224	56	4441
2026-01-02 08:54:56.41	133.69	12.38	-47.0	-48.7	16.3	0.00e+00	0	55	0	184549376	56	4475
2026-01-02 08:54:57.40	133.66	12.47	-47.1	-49.0	16.0	0.00e+00	0	55	0	186646528	56	4600
2026-01-02 08:54:58.39	133.63	12.57	-47.1	-49.0	16.0	0.00e+00	0	55	0	188743680	56	4599
2026-01-02 08:54:59.38	133.60	12.66	-47.1	-48.9	16.1	0.00e+00	0	55	0	189792256	56	4559
2026-01-02 08:55:00.36	133.57	12.76	-47.3	-49.2	15.8	0.00e+00	0	55	0	191889408	56	4725
2026-01-02 08:55:01.35	133.54	12.85	-47.4	-49.4	15.6	0.00e+00	0	55	0	193986560	56	4855
2026-01-02 08:55:02.34	133.50	12.95	-47.2	-49.1	15.9	0.00e+00	0	55	0	196083712	56	4680
2026-01-02 08:55:03.33	133.47	13.04	-47.0	-48.7	16.3	0.00e+00	0	55	0	198180864	56	4479
2026-01-02 08:55:04.31	133.44	13.14	-46.8	-48.4	16.6	0.00e+00	0	55	0	199229440	56	4322
2026-01-02 08:55:05.30	133.41	13.24	-46.7	-48.3	16.7	0.00e+00	0	55	0	201326592	56	4258
2026-01-02 08:55:06.29	133.37	13.33	-46.7	-48.3	16.7	0.00e+00	0	55	0	203423744	56	4259
2026-01-02 08:55:07.28	133.34	13.43	-46.7	-48.3	16.6	0.00e+00	0	55	0	205520896	56	4287
2026-01-02 08:55:08.27	133.31	13.53	-46.7	-48.5	16.6	0.00e+00	0	55	0	206569472	56	4341
2026-01-02 08:55:09.27	133.27	13.63	-46.5	-48.2	16.8	0.00e+00	0	55	0	208666624	56	4220
2026-01-02 08:55:10.26	133.24	13.73	-46.5	-48.1	16.9	0.00e+00	0	55	0	210763776	56	4162
2026-01-02 08:55:11.25	133.21	13.83	-46.5	-48.1	16.9	0.00e+00	0	55	0	212860928	56	4166
2026-01-02 08:55:12.23	133.17	13.93	-46.5	-48.1	16.9	0.00e+00	0	55	0	214958080	56	4159
2026-01-02 08:55:13.22	133.14	14.03	-46.6	-48.1	16.9	0.00e+00	0	55	0	216006656	56	4192
2026-01-02 08:55:14.19	133.10	14.13	-46.6	-48.3	16.7	0.00e+00	0	55	0	218103808	56	4286
2026-01-02 08:55:15.19	133.07	14.23	-46.6	-48.2	16.8	0.00e+00	0	55	0	220200960	56	4239
2026-01-02 08:55:16.18	133.03	14.33	-46.7	-48.4	16.7	0.00e+00	0	55	0	222298112	56	4297
2026-01-02 08:55:17.17	133.00	14.43	-46.6	-48.2	16.9	0.00e+00	0	55	0	223346688	56	4204
2026-01-02 08:55:18.16	132.96	14.53	-46.5	-48.1	16.9	0.00e+00	0	55	0	225443840	56	4174
2026-01-02 08:55:19.15	132.93	14.63	-46.5	-48.1	16.9	0.00e+00	0	55	0	227540992	56	4176
2026-01-02 08:55:20.14	132.89	14.74	-46.5	-48.1	17.0	0.00e+00	0	55	0	229638144	56	4163
2026-01-02 08:55:21.13	132.85	14.84	-46.7	-48.3	16.8	0.00e+00	0	55	0	230686720	56	4250
2026-01-02 08:55:22.12	132.82	14.94	-46.5	-48.0	17.0	0.00e+00	0	55	0	232783872	56	4133
2026-01-02 08:55:23.11	132.78	15.05	-46.3	-47.8	17.2	0.00e+00	0	55	0	234881024	55	4245
2026-01-02 08:55:24.10	132.74	15.15	-46.2	-47.7	17.2	0.00e+00	0	55	0	236978176	55	4230
2026-01-02 08:55:25.09	132.70	15.26	-46.2	-47.7	17.2	0.00e+00	0	55	0	239075328	55	4228
2026-01-02 08:55:26.08	132.66	15.36	-46.3	-47.9	17.1	0.00e+00	0	55	0	240123904	55	4305
2026-01-02 08:55:27.07	132.63	15.47	-46.4	-47.9	17.0	0.00e+00	0	55	0	242221056	55	4340
2026-01-02 08:55:28.07	132.59	15.58	-46.3	-47.8	17.1	0.00e+00	0	55	0	244318208	55	4283
2026-01-02 08:55:29.06	132.55	15.68	-46.3	-47.8	17.2	0.00e+00	0	55	0	246415360	55	4264
2026-01-02 08:55:30.04	132.51	15.79	-46.3	-47.8	17.1	0.00e+00	0	56	0	247463936	55	4268
2026-01-02 08:55:31.03	132.47	15.90	-46.4	-47.9	17.1	0.00e+00	0	55	0	249561088	55	4318
2026-01-02 08:55:32.03	132.43	16.01	-46.3	-47.8	17.1	0.00e+00	0	55	0	251658240	55	4287
2026-01-02 08:55:33.02	132.39	16.12	-46.4	-48.0	17.0	0.00e+00	0	56	0	253755392	55	4367
2026-01-02 08:55:34.01	132.35	16.23	-46.7	-48.4	16.6	0.00e+00	0	56	0	254803968	55	4558
2026-01-02 08:55:35.01	132.31	16.34	-46.5	-48.1	16.9	0.00e+00	0	55	0	256901120	55	4393
2026-01-02 08:55:36.00	132.27	16.45	-46.3	-47.8	17.2	0.00e+00	0	56	0	258998272	55	4253
2026-01-02 08:55:36.99	132.23	16.56	-46.2	-47.6	17.3	0.00e+00	0	56	0	261095424	55	4191
2026-01-02 08:55:37.98	132.18	16.67	-46.3	-47.8	17.2	0.00e+00	0	56	0	263192576	55	4262
2026-01-02 08:55:38.96	132.14	16.78	-46.3	-47.8	17.1	0.00e+00	0	55	0	264241152	55	4286
2026-01-02 08:55:39.95	132.10	16.89	-46.3	-47.8	17.2	0.00e+00	0	56	0	266338304	55	4252
2026-01-02 08:55:40.95	132.06	17.01	-46.3	-47.7	17.2	0.00e+00	0	56	0	268435456	55	4242
2026-01-02 08:55:41.93	132.01	17.12	-46.2	-47.7	17.3	0.00e+00	0	56	0	270532608	55	4234
2026-01-02 08:55:42.92	131.97	17.23	-46.3	-47.8	17.2	0.00e+00	0	56	0	271581184	55	4271
2026-01-02 08:55:43.92	131.93	17.35	-46.5	-48.0	17.0	0.00e+00	0	56	0	273678336	55	4366
2026-01-02 08:55:44.91	131.88	17.46	-46.3	-47.9	17.1	0.00e+00	0	55	0	275775488	55	4296
2026-01-02 08:55:45.90	131.84	17.58	-46.5	-48.0	17.0	0.00e+00	0	56	0	277872640	55	4375
2026-01-02 08:55:46.89	131.79	17.69	-46.7	-48.3	16.7	0.00e+00	0	56	0	279969792	55	4542
2026-01-02 08:55:47.88	131.75	17.81	-46.6	-48.2	16.8	0.00e+00	0	56	0	281018368	55	4453
2026-01-02 08:55:48.87	131.70	17.93	-46.7	-48.4	16.6	0.00e+00	0	56	0	283115520	55	4546
2026-01-02 08:55:49.86	131.65	18.04	-46.5	-48.1	16.9	0.00e+00	0	56	0	285212672	55	4420
2026-01-02 08:55:50.85	131.61	18.16	-46.4	-47.9	17.1	0.00e+00	0	56	0	287309824	55	4302
2026-01-02 08:55:51.83	131.56	18.28	-46.3	-47.8	17.2	0.00e+00	0	55	0	288358400	55	4243
2026-01-02 08:55:52.83	131.51	18.40	-46.3	-47.7	17.3	0.00e+00	0	56	0	290455552	55	4230
2026-01-02 08:55:53.83	131.47	18.52	-46.2	-47.7	17.3	0.00e+00	0	56	0	292552704	55	4219
2026-01-02 08:55:54.82	131.42	18.64	-46.4	-47.9	17.1	0.00e+00	0	55	0	294649856	55	4305
2026-01-02 08:55:55.81	131.37	18.76	-46.3	-47.8	17.2	0.00e+00	0	56	0	295698432	55	4272
2026-01-02 08:55:56.81	131.32	18.88	-46.2	-47.6	17.4	0.00e+00	0	56	0	297795584	55	4172
2026-01-02 08:55:57.79	131.27	19.00	-46.1	-47.5	17.5	0.00e+00	0	56	0	299892736	55	4140
2026-01-02 08:55:58.78	131.22	19.12	-46.1	-47.6	17.4	0.00e+00	0	56	0	301989888	55	4165
2026-01-02 08:55:59.76	131.17	19.25	-46.2	-47.7	17.3	0.00e+00	0	56	0	303038464	55	4216
2026-01-02 08:56:00.74	131.12	19.37	-46.2	-47.7	17.4	0.00e+00	0	56	0	305135616	55	4209
2026-01-02 08:56:01.73	131.07	19.49	-46.2	-47.7	17.3	0.00e+00	0	56	0	307232768	55	4212
2026-01-02 08:56:02.71	131.02	19.62	-46.3	-47.7	17.3	0.00e+00	0	56	0	309329920	55	4240
2026-01-02 08:56:03.69	130.97	19.74	-46.4	-48.0	17.1	0.00e+00	0	56	0	311427072	55	4348
2026-01-02 08:56:04.68	130.92	19.87	-46.3	-47.8	17.2	0.00e+00	0	56	0	312475648	55	4291
2026-01-02 08:56:05.66	130.86	19.99	-46.2	-47.7	17.4	0.00e+00	0	56	0	314572800	55	4201
2026-01-02 08:56:06.65	130.81	20.12	-46.2	-47.7	17.4	0.00e+00	0	56	0	316669952	55	4218
2026-01-02 08:56:07.64	130.76	20.25	-46.2	-47.7	17.4	0.00e+00	0	56	0	318767104	55	4200
2026-01-02 08:56:08.62	130.70	20.37	-46.2	-47.7	17.3	0.00e+00	0	56	0	319815680	55	4232
2026-01-02 08:56:09.61	130.65	20.50	-46.3	-47.8	17.3	0.00e+00	0	56	0	321912832	55	4272
2026-01-02 08:56:10.60	130.59	20.63	-46.1	-47.5	17.5	0.00e+00	0	56	0	324009984	55	4136
2026-01-02 08:56:11.60	130.54	20.76	-45.9	-47.4	17.7	0.00e+00	0	56	0	326107136	55	4057
2026-01-02 08:56:12.59	130.48	20.89	-46.0	-47.4	17.7	0.00e+00	0	56	0	327155712	55	4058
2026-01-02 08:56:13.58	130.42	21.03	-45.8	-47.2	17.8	0.00e+00	0	56	0	329252864	54	4230
2026-01-02 08:56:14.56	130.37	21.16	-45.9	-47.3	17.8	0.00e+00	0	56	0	331350016	54	4245
2026-01-02 08:56:15.55	130.31	21.29	-46.0	-47.4	17.7	0.00e+00	0	56	0	333447168	54	4301
2026-01-02 08:56:16.54	130.25	21.42	-46.0	-47.4	17.7	0.00e+00	0	56	0	334495744	54	4312
2026-01-02 08:56:17.53	130.19	21.56	-46.0	-47.4	17.6	0.00e+00	0	56	0	336592896	54	4319
2026-01-02 08:56:18.53	130.13	21.69	-46.0	-47.4	17.7	0.00e+00	0	56	0	338690048	54	4320
2026-01-02 08:56:19.51	130.07	21.83	-46.1	-47.6	17.5	0.00e+00	0	56	0	340787200	54	4409
2026-01-02 08:56:20.49	130.01	21.96	-46.2	-47.6	17.5	0.00e+00	0	56	0	342884352	54	4412
2026-01-02 08:56:21.48	129.95	22.10	-46.0	-47.4	17.7	0.00e+00	0	56	0	343932928	54	4326
2026-01-02 08:56:22.47	129.89	22.24	-46.1	-47.5	17.6	0.00e+00	0	56	0	346030080	54	4349
2026-01-02 08:56:23.46	129.83	22.38	-46.3	-47.7	17.4	0.00e+00	0	56	0	348127232	54	4462
2026-01-02 08:56:24.45	129.77	22.51	-46.2	-47.7	17.4	0.00e+00	0	56	0	350224384	54	4466
2026-01-02 08:56:25.44	129.70	22.65	-46.3	-47.8	17.3	0.00e+00	0	56	0	351272960	54	4516
2026-01-02 08:56:26.42	129.64	22.79	-46.4	-47.9	17.2	0.00e+00	0	56	0	353370112	54	4580
2026-01-02 08:56:27.41	129.58	22.93	-46.2	-47.6	17.5	0.00e+00	0	56	0	355467264	54	4440
2026-01-02 08:56:28.39	129.51	23.08	-46.1	-47.6	17.5	0.00e+00	0	56	0	357564416	54	4403
2026-01-02 08:56:29.38	129.45	23.22	-46.2	-47.6	17.5	0.00e+00	0	56	0	358612992	54	4410
2026-01-02 08:56:30.36	129.38	23.36	-46.3	-47.8	17.3	0.00e+00	0	56	0	360710144	54	4497
2026-01-02 08:56:31.34	129.31	23.50	-46.4	-47.9	17.2	0.00e+00	0	56	0	362807296	54	4565
2026-01-02 08:56:32.33	129.25	23.65	-46.3	-47.7	17.4	0.00e+00	0	56	0	364904448	54	4477
2026-01-02 08:56:33.32	129.18	23.79	-46.4	-47.8	17.3	0.00e+00	0	56	0	365953024	54	4534
2026-01-02 08:56:34.31	129.11	23.94	-46.4	-48.0	17.1	0.00e+00	0	56	0	368050176	54	4600
2026-01-02 08:56:35.30	129.04	24.09	-46.4	-47.9	17.2	0.00e+00	0	56	0	370147328	54	4567
2026-01-02 08:56:36.29	128.97	24.24	-46.7	-48.2	16.9	0.00e+00	0	56	0	372244480	55	4490
2026-01-02 08:56:37.28	128.90	24.38	-46.7	-48.3	16.8	0.00e+00	0	56	0	374341632	55	4545
2026-01-02 08:56:38.27	128.83	24.53	-46.7	-48.3	16.8	0.00e+00	0	56	0	375390208	55	4539
2026-01-02 08:56:39.25	128.75	24.68	-46.8	-48.5	16.6	0.00e+00	0	56	0	377487360	55	4625
2026-01-02 08:56:40.24	128.68	24.83	-46.8	-48.4	16.8	0.00e+00	0	56	0	379584512	55	4546
2026-01-02 08:56:41.24	128.61	24.99	-46.9	-48.6	16.5	0.00e+00	0	56	0	381681664	55	4680
2026-01-02 08:56:42.22	128.53	25.14	-46.9	-48.5	16.6	0.00e+00	0	56	0	382730240	55	4634
2026-01-02 08:56:43.20	128.46	25.29	-47.0	-48.7	16.4	0.00e+00	0	56	0	384827392	55	4730
2026-01-02 08:56:44.19	128.38	25.45	-47.0	-48.8	16.4	0.00e+00	0	56	0	386924544	55	4763
2026-01-02 08:56:45.17	128.31	25.60	-47.3	-49.0	16.3	0.00e+00	0	56	0	389021696	56	4638
2026-01-02 08:56:46.17	128.23	25.76	-47.3	-49.0	16.2	0.00e+00	0	56	0	390070272	56	4637
2026-01-02 08:56:47.15	128.15	25.91	-47.4	-49.2	16.0	0.00e+00	0	56	0	392167424	56	4739
2026-01-02 08:56:48.14	128.07	26.07	-47.6	-49.4	15.8	0.00e+00	0	56	0	394264576	57	4587
2026-01-02 08:56:49.12	127.99	26.23	-47.5	-49.4	15.8	0.00e+00	0	56	0	396361728	57	4571
2026-01-02 08:56:50.11	127.91	26.39	-47.8	-49.8	15.5	0.00e+00	0	56	0	398458880	57	4773
2026-01-02 08:56:51.09	127.83	26.55	-47.7	-49.7	15.5	0.00e+00	0	56	0	399507456	57	4757
2026-01-02 08:56:52.08	127.75	26.71	-47.9	-50.1	15.2	0.00e+00	0	56	0	401604608	57	4927
2026-01-02 08:56:53.06	127.66	26.87	-47.9	-50.0	15.3	0.00e+00	0	56	0	403701760	57	4880
2026-01-02 08:56:54.05	127.58	27.03	-48.2	-50.4	14.9	0.00e+00	0	56	0	405798912	58	4823
2026-01-02 08:56:55.03	127.49	27.20	-48.1	-50.2	15.1	0.00e+00	0	56	0	406847488	58	4742
2026-01-02 08:56:56.02	127.41	27.36	-48.2	-50.5	14.7	7.00e-07	0	56	0	408944640	58	4925
2026-01-02 08:56:57.00	127.32	27.53	-48.3	-50.7	14.6	1.50e-06	0	56	0	411041792	58	5012
2026-01-02 08:56:57.99	127.23	27.69	-48.5	-51.0	14.3	0.00e+00	0	56	0	413138944	58	5181
2026-01-02 08:56:58.97	127.15	27.86	-48.6	-51.1	14.2	1.50e-06	0	56	0	414187520	59	4930
2026-01-02 08:56:59.95	127.06	28.03	-48.7	-51.3	14.0	0.00e+00	0	56	0	416284672	59	5059
2026-01-02 08:57:00.94	126.97	28.20	-48.7	-51.3	14.0	7.00e-07	0	56	0	418381824	59	5044
2026-01-02 08:57:01.92	126.87	28.36	-48.9	-51.5	13.7	6.80e-06	0	56	0	420478976	59	5192
2026-01-02 08:57:02.91	126.78	28.54	-48.6	-51.2	14.0	2.20e-06	0	56	0	421527552	59	5017
2026-01-02 08:57:03.90	126.69	28.71	-48.5	-50.9	14.3	7.00e-07	0	56	0	423624704	59	4868
2026-01-02 08:57:04.88	126.59	28.88	-48.5	-50.9	14.4	7.00e-07	0	56	0	425721856	59	4842
2026-01-02 08:57:05.87	126.50	29.06	-48.5	-51.0	14.3	2.20e-06	0	56	0	427819008	59	4873
2026-01-02 08:57:06.85	126.40	29.23	-48.8	-51.3	14.0	3.00e-06	0	56	0	428867584	59	5079
2026-01-02 08:57:07.84	126.30	29.41	-48.7	-51.3	14.0	5.30e-06	0	56	0	430964736	59	5049
2026-01-02 08:57:08.83	126.20	29.58	-48.9	-51.5	13.8	2.20e-06	0	56	0	433061888	59	5203
2026-01-02 08:57:09.80	126.10	29.76	-49.0	-51.7	13.6	6.80e-06	0	56	0	435159040	59	5284
2026-01-02 08:57:10.79	126.00	29.94	-48.9	-51.9	13.4	6.80e-06	0	56	0	437256192	60	5101
2026-01-02 08:57:11.78	125.90	30.12	-49.1	-51.9	13.3	2.05e-05	0	56	0	438304768	60	5157
2026-01-02 08:57:12.76	125.80	30.30	-49.2	-52.1	13.1	1.98e-05	0	56	0	440401920	60	5251
2026-01-02 08:57:13.75	125.69	30.48	-49.4	-52.4	12.9	5.11e-05	0	56	0	442499072	60	5416
2026-01-02 08:57:14.73	125.59	30.66	-49.4	-52.5	12.8	5.79e-05	0	56	0	444596224	60	5491
2026-01-02 08:57:15.73	125.48	30.85	-49.3	-52.4	12.8	8.16e-05	0	56	0	445644800	60	5437
2026-01-02 08:57:16.72	125.37	31.04	-49.3	-52.2	13.1	3.50e-05	0	56	0	447741952	60	5305
2026-01-02 08:57:17.71	125.26	31.22	-49.3	-52.2	13.0	3.05e-05	0	56	0	449839104	60	5294
2026-01-02 08:57:18.70	125.15	31.41	-49.2	-52.2	13.0	3.73e-05	0	56	0	451936256	60	5320
2026-01-02 08:57:19.69	125.03	31.60	-49.3	-52.3	12.9	3.43e-05	0	56	0	452984832	60	5393
2026-01-02 08:57:20.68	124.92	31.79	-49.5	-52.7	12.5	5.26e-05	0	56	0	455081984	60	5645
2026-01-02 08:57:21.67	124.80	31.98	-49.6	-52.8	12.4	2.21e-04	0	56	0	457179136	61	5370
2026-01-02 08:57:22.66	124.68	32.17	-49.4	-52.6	12.7	1.23e-04	0	57	0	459276288	61	5231
2026-01-02 08:57:23.64	124.57	32.37	-49.4	-52.4	12.8	6.79e-05	0	56	0	461373440	61	5148
2026-01-02 08:57:24.63	124.45	32.56	-49.5	-52.7	12.5	7.93e-05	0	56	0	462422016	61	5314
2026-01-02 08:57:25.62	124.33	32.76	-49.4	-52.5	12.8	1.07e-04	0	56	0	464519168	61	5195
2026-01-02 08:57:26.61	124.20	32.95	-49.3	-52.4	12.9	5.26e-05	0	56	0	466616320	61	5128
2026-01-02 08:57:27.60	124.08	33.15	-49.3	-52.4	12.8	5.87e-05	0	56	0	468713472	61	5150
2026-01-02 08:57:28.59	123.95	33.35	-49.3	-52.2	13.0	3.28e-05	0	57	0	469762048	61	5031
2026-01-02 08:57:29.58	123.82	33.55	-49.4	-52.4	12.9	5.18e-05	0	56	0	471859200	61	5123
2026-01-02 08:57:30.56	123.69	33.75	-49.6	-52.8	12.4	8.54e-05	0	56	0	473956352	61	5386
2026-01-02 08:57:31.54	123.57	33.95	-49.6	-52.7	12.6	1.22e-04	0	56	0	476053504	61	5311
2026-01-02 08:57:32.53	123.43	34.15	-49.6	-52.8	12.5	1.31e-04	0	56	0	477102080	61	5354
2026-01-02 08:57:33.52	123.30	34.36	-49.6	-52.9	12.3	1.60e-04	0	56	0	479199232	61	5422
2026-01-02 08:57:34.50	123.16	34.56	-49.8	-53.2	12.1	1.65e-04	0	56	0	481296384	61	5602
2026-01-02 08:57:35.49	123.02	34.77	-49.8	-53.2	12.0	3.68e-04	0	56	0	483393536	61	5641
2026-01-02 08:57:36.48	122.89	34.98	-49.8	-53.2	12.0	3.23e-04	0	56	0	484442112	61	5646
2026-01-02 08:57:37.47	122.74	35.19	-49.9	-53.5	11.7	5.97e-04	0	56	0	486539264	61	5842
2026-01-02 08:57:38.46	122.60	35.40	-49.8	-53.2	12.0	3.75e-04	0	56	0	488636416	61	5624
2026-01-02 08:57:39.46	122.45	35.61	-49.7	-53.1	12.2	2.19e-04	0	56	0	490733568	61	5538
2026-01-02 08:57:40.45	122.31	35.83	-49.7	-53.1	12.1	1.78e-04	0	56	0	492830720	61	5554
2026-01-02 08:57:41.43	122.16	36.04	-49.8	-53.4	11.9	2.35e-04	0	56	0	493879296	61	5734
2026-01-02 08:57:42.42	122.01	36.25	-49.8	-53.3	11.9	4.30e-04	0	56	0	495976448	61	5715
2026-01-02 08:57:43.42	121.85	36.47	-49.6	-52.9	12.4	1.65e-04	0	56	0	498073600	61	5406
2026-01-02 08:57:44.41	121.70	36.69	-49.4	-52.5	12.7	8.85e-05	0	56	0	500170752	61	5198
2026-01-02 08:57:45.39	121.54	36.91	-49.4	-52.4	12.9	5.72e-05	0	56	0	501219328	61	5134
2026-01-02 08:57:46.38	121.38	37.13	-49.2	-52.2	13.1	2.74e-05	0	56	0	503316480	61	4989
2026-01-02 08:57:47.37	121.22	37.35	-49.2	-52.0	13.2	3.05e-05	0	56	0	505413632	61	4912
2026-01-02 08:57:48.36	121.05	37.57	-49.1	-51.9	13.4	1.37e-05	0	56	0	507510784	61	4824
2026-01-02 08:57:49.35	120.89	37.80	-49.1	-52.0	13.4	1.29e-05	0	56	0	508559360	61	4876
2026-01-02 08:57:50.34	120.72	38.02	-49.2	-52.1	13.2	1.75e-05	0	56	0	510656512	61	4971
2026-01-02 08:57:51.32	120.55	38.25	-49.3	-52.2	13.0	5.87e-05	0	57	0	512753664	61	5023
2026-01-02 08:57:52.31	120.37	38.47	-48.9	-51.6	13.8	1.22e-05	0	56	0	514850816	61	4680
2026-01-02 08:57:53.30	120.20	38.70	-48.7	-51.2	14.1	7.00e-07	0	56	0	516947968	60	4739
2026-01-02 08:57:54.29	120.02	38.93	-48.6	-51.1	14.3	1.50e-06	0	56	0	517996544	60	4675
2026-01-02 08:57:55.28	119.84	39.17	-48.5	-50.8	14.5	7.00e-07	0	56	0	520093696	60	4512
2026-01-02 08:57:56.27	119.65	39.40	-48.5	-50.9	14.4	0.00e+00	0	56	0	522190848	60	4586
2026-01-02 08:57:57.27	119.46	39.63	-48.5	-50.9	14.5	7.00e-07	0	56	0	524288000	60	4561
2026-01-02 08:57:58.26	119.27	39.87	-48.5	-50.8	14.6	0.00e+00	0	56	0	525336576	59	4792
2026-01-02 08:57:59.25	119.08	40.11	-48.5	-50.8	14.6	7.00e-07	0	56	0	527433728	59	4767
2026-01-02 08:58:00.24	118.89	40.34	-48.7	-51.1	14.3	1.50e-06	0	56	0	529530880	59	4950
2026-01-02 08:58:01.23	118.69	40.58	-48.4	-50.7	14.6	0.00e+00	0	56	0	531628032	59	4751
2026-01-02 08:58:02.23	118.49	40.82	-48.2	-50.4	14.9	0.00e+00	0	56	0	532676608	59	4586
2026-01-02 08:58:03.21	118.28	41.06	-48.4	-50.7	14.6	0.00e+00	0	56	0	534773760	59	4742
2026-01-02 08:58:04.19	118.08	41.30	-48.5	-50.9	14.5	7.00e-07	0	56	0	536870912	59	4822
2026-01-02 08:58:05.17	117.87	41.54	-48.7	-51.1	14.3	0.00e+00	0	56	0	538968064	59	4942
2026-01-02 08:58:06.16	117.66	41.79	-48.8	-51.3	14.0	1.50e-06	0	56	0	541065216	59	5068
2026-01-02 08:58:07.14	117.44	42.03	-48.8	-51.3	14.0	1.50e-06	0	56	0	542113792	59	5073
2026-01-02 08:58:08.13	117.22	42.28	-48.8	-51.3	14.0	7.00e-07	0	56	0	544210944	59	5069
2026-01-02 08:58:09.11	117.00	42.52	-48.8	-51.3	14.0	2.20e-06	0	56	0	546308096	59	5096
2026-01-02 08:58:10.10	116.77	42.77	-48.9	-51.5	13.8	5.30e-06	0	56	0	548405248	59	5170
2026-01-02 08:58:11.08	116.54	43.02	-48.7	-51.2	14.2	2.20e-06	0	56	0	549453824	59	4999
2026-01-02 08:58:12.07	116.31	43.27	-48.9	-51.4	13.9	3.80e-06	0	56	0	551550976	59	5148
2026-01-02 08:58:13.06	116.07	43.52	-49.0	-51.7	13.7	4.50e-06	0	56	0	553648128	59	5282
2026-01-02 08:58:14.04	115.83	43.77	-48.7	-51.1	14.2	3.00e-06	0	56	0	555745280	59	4964
2026-01-02 08:58:15.03	115.58	44.03	-48.6	-51.0	14.4	1.50e-06	0	56	0	556793856	59	4876
2026-01-02 08:58:16.02	115.33	44.28	-48.4	-50.7	14.7	0.00e+00	0	56	0	558891008	59	4736
2026-01-02 08:58:17.01	115.08	44.54	-48.3	-50.4	14.9	0.00e+00	0	56	0	560988160	59	4597
2026-01-02 08:58:17.99	114.82	44.80	-48.3	-50.5	14.9	1.50e-06	0	56	0	563085312	59	4601
2026-01-02 08:58:18.98	114.56	45.06	-48.0	-50.1	15.3	0.00e+00	0	56	0	564133888	59	4415
2026-01-02 08:58:19.96	114.30	45.31	-48.1	-50.3	15.0	0.00e+00	0	56	0	566231040	59	4524
2026-01-02 08:58:20.95	114.03	45.57	-47.8	-49.8	15.6	0.00e+00	0	56	0	568328192	58	4516
2026-01-02 08:58:21.94	113.75	45.84	-47.6	-49.4	15.9	0.00e+00	0	56	0	570425344	58	4331
2026-01-02 08:58:22.92	113.47	46.10	-47.5	-49.3	16.1	0.00e+00	0	56	0	571473920	58	4264
2026-01-02 08:58:23.91	113.19	46.36	-47.6	-49.5	15.9	0.00e+00	0	56	0	573571072	58	4383
2026-01-02 08:58:24.89	112.90	46.62	-47.8	-49.9	15.5	0.00e+00	0	56	0	575668224	58	4559
2026-01-02 08:58:25.88	112.60	46.89	-48.1	-50.3	15.1	0.00e+00	0	56	0	577765376	58	4761
2026-01-02 08:58:26.87	112.30	47.15	-48.2	-50.3	15.0	0.00e+00	0	56	0	579862528	58	4786
2026-01-02 08:58:27.86	112.00	47.42	-48.1	-50.2	15.1	0.00e+00	0	56	0	580911104	58	4758
2026-01-02 08:58:28.85	111.69	47.69	-48.1	-50.3	15.1	0.00e+00	0	56	0	583008256	58	4770
2026-01-02 08:58:29.83	111.37	47.95	-48.3	-50.6	14.8	0.00e+00	0	56	0	585105408	58	4941
2026-01-02 08:58:30.81	111.06	48.22	-48.2	-50.4	15.0	0.00e+00	0	56	0	587202560	58	4822
2026-01-02 08:58:31.79	110.73	48.49	-47.9	-50.0	15.5	7.00e-07	0	56	0	588251136	58	4606
2026-01-02 08:58:32.78	110.40	48.76	-47.8	-49.8	15.6	0.00e+00	0	56	0	590348288	58	4519
2026-01-02 08:58:33.77	110.06	49.03	-47.7	-49.6	15.8	0.00e+00	0	56	0	592445440	58	4426
2026-01-02 08:58:34.76	109.71	49.30	-47.6	-49.6	15.8	0.00e+00	0	56	0	594542592	58	4396
2026-01-02 08:58:35.75	109.36	49.57	-47.5	-49.4	16.0	0.00e+00	0	56	0	595591168	58	4294
2026-01-02 08:58:36.73	109.01	49.84	-47.3	-49.0	16.3	0.00e+00	0	56	0	597688320	57	4378
2026-01-02 08:58:37.71	108.65	50.11	-47.4	-49.3	16.1	0.00e+00	0	56	0	599785472	57	4500
2026-01-02 08:58:38.69	108.28	50.38	-47.4	-49.2	16.1	0.00e+00	0	56	0	601882624	57	4480
2026-01-02 08:58:39.67	107.91	50.65	-47.4	-49.1	16.2	0.00e+00	0	56	0	602931200	57	4441
2026-01-02 08:58:40.65	107.53	50.92	-47.3	-49.1	16.3	0.00e+00	0	56	0	605028352	57	4410
2026-01-02 08:58:41.64	107.13	51.20	-47.4	-49.2	16.2	0.00e+00	0	56	0	607125504	57	4459
2026-01-02 08:58:42.63	106.74	51.47	-47.3	-49.1	16.3	0.00e+00	0	56	0	609222656	57	4424
2026-01-02 08:58:43.62	106.33	51.74	-47.1	-48.7	16.7	0.00e+00	0	56	0	610271232	57	4222
2026-01-02 08:58:44.61	105.91	52.02	-47.1	-48.7	16.7	0.00e+00	0	56	0	612368384	57	4208
2026-01-02 08:58:45.59	105.50	52.29	-47.0	-48.6	16.8	0.00e+00	0	56	0	614465536	57	4159
2026-01-02 08:58:46.58	105.07	52.56	-47.1	-48.8	16.6	0.00e+00	0	56	0	616562688	57	4262
2026-01-02 08:58:47.56	104.63	52.83	-47.1	-48.8	16.6	0.00e+00	0	56	0	618659840	57	4272
2026-01-02 08:58:48.54	104.19	53.11	-47.1	-48.8	16.6	0.00e+00	0	56	0	619708416	57	4254
2026-01-02 08:58:49.52	103.74	53.38	-47.1	-48.7	16.6	0.00e+00	0	56	0	621805568	57	4240
2026-01-02 08:58:50.51	103.28	53.65	-47.2	-48.9	16.4	0.00e+00	0	56	0	623902720	57	4336
2026-01-02 08:58:51.50	102.81	53.92	-47.4	-49.2	16.1	0.00e+00	0	56	0	625999872	57	4490
2026-01-02 08:58:52.50	102.32	54.20	-47.6	-49.5	15.9	0.00e+00	0	56	0	627048448	57	4601
2026-01-02 08:58:53.49	101.83	54.47	-47.6	-49.5	15.8	0.00e+00	0	56	0	629145600	57	4636
2026-01-02 08:58:54.48	101.33	54.74	-47.8	-49.8	15.6	0.00e+00	0	56	0	631242752	57	4789
2026-01-02 08:58:55.46	100.83	55.00	-47.8	-49.7	15.7	0.00e+00	0	56	0	633339904	57	4742
2026-01-02 08:58:56.44	100.32	55.27	-47.3	-49.0	16.3	0.00e+00	0	56	0	634388480	57	4368
2026-01-02 08:58:57.43	99.79	55.54	-47.2	-48.9	16.5	0.00e+00	0	56	0	636485632	57	4319
2026-01-02 08:58:58.42	99.25	55.80	-47.4	-49.2	16.2	0.00e+00	0	56	0	638582784	57	4443
2026-01-02 08:58:59.41	98.70	56.07	-47.4	-49.3	16.1	0.00e+00	0	56	0	640679936	57	4497
2026-01-02 08:59:00.40	98.14	56.33	-47.5	-49.2	16.1	0.00e+00	0	56	0	642777088	57	4482
2026-01-02 08:59:01.38	97.57	56.59	-47.9	-49.9	15.5	0.00e+00	0	56	0	643825664	57	4829
2026-01-02 08:59:02.37	96.99	56.85	-48.3	-50.6	14.9	0.00e+00	0	56	0	645922816	58	4927
2026-01-02 08:59:03.36	96.40	57.11	-48.5	-50.8	14.6	7.00e-07	0	56	0	648019968	58	5085
2026-01-02 08:59:04.35	95.80	57.37	-48.6	-51.0	14.4	7.00e-07	0	56	0	650117120	59	4922
2026-01-02 08:59:05.34	95.18	57.62	-48.8	-51.3	14.1	0.00e+00	0	56	0	651165696	59	5046
2026-01-02 08:59:06.33	94.55	57.88	-49.0	-51.6	13.7	1.50e-06	0	56	0	653262848	59	5255
2026-01-02 08:59:07.32	93.91	58.13	-48.9	-51.5	13.9	2.20e-06	0	56	0	655360000	59	5198
2026-01-02 08:59:08.30	93.27	58.37	-48.9	-51.5	13.8	1.50e-06	0	56	0	657457152	59	5208
2026-01-02 08:59:09.29	92.61	58.62	-49.0	-51.7	13.7	9.90e-06	0	56	0	658505728	60	4986
2026-01-02 08:59:10.27	91.94	58.86	-48.5	-50.9	14.5	1.50e-06	0	56	0	660602880	60	4595
2026-01-02 08:59:11.26	91.25	59.10	-48.1	-50.2	15.2	0.00e+00	0	56	0	662700032	59	4466
2026-01-02 08:59:12.25	90.55	59.34	-47.7	-49.5	15.9	0.00e+00	0	56	0	664797184	58	4389
2026-01-02 08:59:13.24	89.84	59.57	-47.6	-49.5	16.0	0.00e+00	0	56	0	665845760	58	4347
2026-01-02 08:59:14.22	89.12	59.80	-47.6	-49.5	15.9	0.00e+00	0	56	0	667942912	58	4378
2026-01-02 08:59:15.22	88.37	60.03	-47.6	-49.5	15.9	0.00e+00	0	56	0	670040064	58	4351
2026-01-02 08:59:16.21	87.62	60.26	-47.7	-49.5	15.9	0.00e+00	0	56	0	672137216	58	4386
2026-01-02 08:59:17.20	86.85	60.48	-47.5	-49.3	16.1	0.00e+00	0	56	0	674234368	58	4255
2026-01-02 08:59:18.20	86.06	60.70	-47.3	-49.1	16.4	0.00e+00	0	56	0	675282944	57	4401
2026-01-02 08:59:19.18	85.28	60.91	-46.9	-48.4	17.0	0.00e+00	0	56	0	677380096	56	4337
2026-01-02 08:59:20.17	84.47	61.12	-46.8	-48.4	17.1	0.00e+00	0	56	0	679477248	56	4302
2026-01-02 08:59:21.15	83.66	61.32	-46.9	-48.5	16.9	0.00e+00	0	56	0	681574400	56	4376
2026-01-02 08:59:22.13	82.84	61.52	-46.5	-47.9	17.4	0.00e+00	0	56	0	682622976	56	4091
2026-01-02 08:59:23.12	81.99	61.71	-46.3	-47.7	17.6	0.00e+00	0	56	0	684720128	55	4211
2026-01-02 08:59:24.10	81.14	61.90	-46.0	-47.3	17.9	0.00e+00	0	56	0	686817280	55	4048
2026-01-02 08:59:25.09	80.27	62.08	-46.2	-47.6	17.6	0.00e+00	0	56	0	688914432	55	4179
2026-01-02 08:59:26.08	79.38	62.26	-46.0	-47.3	17.9	0.00e+00	0	56	0	689963008	55	4044
2026-01-02 08:59:27.07	78.48	62.44	-46.0	-47.3	18.0	0.00e+00	0	56	0	692060160	55	4049
2026-01-02 08:59:28.05	77.58	62.60	-46.2	-47.5	17.7	0.00e+00	0	56	0	694157312	55	4133
2026-01-02 08:59:29.03	76.67	62.76	-46.0	-47.4	17.9	0.00e+00	0	56	0	696254464	55	4055
2026-01-02 08:59:30.02	75.73	62.92	-46.6	-48.1	17.3	0.00e+00	0	56	0	697303040	55	4405
2026-01-02 08:59:31.00	74.79	63.07	-46.3	-47.7	17.6	0.00e+00	0	56	0	699400192	55	4217
2026-01-02 08:59:31.98	73.84	63.21	-46.6	-48.1	17.2	0.00e+00	0	56	0	701497344	55	4411
2026-01-02 08:59:32.97	72.87	63.35	-46.9	-48.5	16.8	0.00e+00	0	56	0	703594496	55	4630
2026-01-02 08:59:33.96	71.89	63.48	-46.5	-48.0	17.3	0.00e+00	0	56	0	705691648	55	4384
2026-01-02 08:59:34.94	70.90	63.60	-46.1	-47.5	17.8	0.00e+00	0	56	0	706740224	55	4112
2026-01-02 08:59:35.93	69.90	63.72	-45.8	-47.1	18.1	0.00e+00	0	56	0	708837376	54	4192
2026-01-02 08:59:36.93	68.88	63.83	-45.9	-47.2	18.0	0.00e+00	0	56	0	710934528	54	4240
2026-01-02 08:59:37.92	67.86	63.93	-45.9	-47.3	18.1	0.00e+00	0	56	0	713031680	54	4249
2026-01-02 08:59:38.90	66.83	64.03	-46.3	-47.8	17.5	0.00e+00	0	56	0	714080256	54	4499
2026-01-02 08:59:39.89	65.80	64.12	-46.0	-47.4	17.9	0.00e+00	0	56	0	716177408	54	4306
2026-01-02 08:59:40.88	64.75	64.20	-45.6	-46.9	18.4	0.00e+00	0	56	0	718274560	54	4052
2026-01-02 08:59:41.87	63.69	64.27	-45.4	-46.6	18.6	0.00e+00	0	56	0	720371712	53	4175
2026-01-02 08:59:42.85	62.64	64.33	-45.3	-46.5	18.7	0.00e+00	0	56	0	721420288	53	4129
2026-01-02 08:59:43.84	61.58	64.39	-45.1	-46.2	19.0	0.00e+00	0	56	0	723517440	53	4001
2026-01-02 08:59:44.83	60.51	64.44	-44.9	-46.0	19.2	0.00e+00	0	56	0	725614592	52	4122
2026-01-02 08:59:45.82	59.43	64.48	-45.1	-46.2	19.0	0.00e+00	0	56	0	727711744	52	4211
2026-01-02 08:59:46.81	58.35	64.51	-45.4	-46.7	18.6	0.00e+00	0	56	0	728760320	52	4446
2026-01-02 08:59:47.80	57.27	64.54	-45.1	-46.3	19.0	0.00e+00	0	56	0	730857472	52	4259
2026-01-02 08:59:48.78	56.20	64.56	-45.0	-46.1	19.1	0.00e+00	0	56	0	732954624	52	4157
2026-01-02 08:59:49.76	55.13	64.56	-44.9	-46.0	19.2	0.00e+00	0	56	0	735051776	52	4125
2026-01-02 08:59:50.75	54.04	64.56	-44.8	-45.9	19.3	0.00e+00	0	56	0	737148928	52	4083
2026-01-02 08:59:51.73	52.97	64.56	-45.2	-46.3	19.0	0.00e+00	0	56	0	738197504	52	4277
2026-01-02 08:59:52.72	51.89	64.54	-45.2	-46.3	18.9	0.00e+00	0	56	0	740294656	52	4288
2026-01-02 08:59:53.71	50.80	64.52	-45.0	-46.2	19.0	0.00e+00	0	56	0	742391808	52	4203
2026-01-02 08:59:54.70	49.73	64.48	-45.1	-46.3	18.9	0.00e+00	0	56	0	744488960	52	4271
2026-01-02 08:59:55.69	48.65	64.44	-45.5	-46.8	18.5	0.00e+00	0	56	0	745537536	53	4260
2026-01-02 08:59:56.68	47.58	64.40	-45.9	-47.2	18.1	0.00e+00	0	56	0	747634688	53	4471
2026-01-02 08:59:57.67	46.51	64.34	-45.9	-47.2	18.0	0.00e+00	0	56	0	749731840	53	4472
2026-01-02 08:59:58.65	45.46	64.28	-46.0	-47.4	17.9	0.00e+00	0	56	0	751828992	53	4566
2026-01-02 08:59:59.64	44.41	64.20	-46.0	-47.3	17.9	0.00e+00	0	56	0	752877568	54	4283
2026-01-02 09:00:00.62	43.37	64.13	-46.0	-47.3	17.9	0.00e+00	0	56	0	754974720	54	4286
2026-01-02 09:00:01.61	42.33	64.04	-45.8	-47.1	18.2	0.00e+00	0	56	0	757071872	54	4153
2026-01-02 09:00:02.60	41.30	63.94	-45.7	-46.9	18.4	0.00e+00	0	56	0	759169024	54	4065
2026-01-02 09:00:03.59	40.28	63.84	-45.7	-46.9	18.3	0.00e+00	0	56	0	761266176	54	4083
2026-01-02 09:00:04.57	39.27	63.73	-45.7	-47.0	18.3	0.00e+00	0	56	0	762314752	54	4137
2026-01-02 09:00:05.57	38.26	63.62	-45.5	-46.8	18.5	0.00e+00	0	56	0	764411904	54	4017
2026-01-02 09:00:06.55	37.28	63.49	-45.6	-46.9	18.4	0.00e+00	0	56	0	766509056	54	4062
2026-01-02 09:00:07.54	36.29	63.36	-45.4	-46.6	18.6	0.00e+00	0	56	0	768606208	54	3945
2026-01-02 09:00:08.53	35.32	63.23	-44.9	-46.0	19.2	0.00e+00	0	56	0	769654784	53	3913
2026-01-02 09:00:09.52	34.36	63.08	-44.8	-45.8	19.4	0.00e+00	0	56	0	771751936	52	4050
2026-01-02 09:00:10.51	33.41	62.94	-44.7	-45.8	19.4	0.00e+00	0	56	0	773849088	52	4019
2026-01-02 09:00:11.50	32.48	62.78	-44.8	-45.9	19.3	0.00e+00	0	56	0	775946240	52	4056
2026-01-02 09:00:12.49	31.55	62.62	-44.9	-46.0	19.3	0.00e+00	0	56	0	776994816	52	4100
2026-01-02 09:00:13.47	30.65	62.45	-45.1	-46.2	19.0	0.00e+00	0	56	0	779091968	52	4228
2026-01-02 09:00:14.45	29.76	62.28	-45.3	-46.4	18.7	0.00e+00	0	56	0	781189120	52	4340
2026-01-02 09:00:15.44	28.87	62.10	-45.6	-46.9	18.3	0.00e+00	0	56	0	783286272	53	4302
2026-01-02 09:00:16.43	28.00	61.92	-45.7	-47.0	18.2	0.00e+00	0	56	0	785383424	53	4367
2026-01-02 09:00:17.42	27.14	61.73	-45.7	-47.0	18.1	0.00e+00	0	56	0	786432000	53	4391
2026-01-02 09:00:18.42	26.28	61.53	-46.1	-47.5	17.8	0.00e+00	0	56	0	788529152	54	4378
2026-01-02 09:00:19.41	25.45	61.34	-47.0	-48.7	16.7	0.00e+00	0	56	0	790626304	55	4709
2026-01-02 09:00:20.41	24.62	61.13	-47.2	-48.9	16.5	0.00e+00	0	56	0	792723456	56	4549
2026-01-02 09:00:21.39	23.83	60.92	-47.2	-48.9	16.5	0.00e+00	0	56	0	793772032	56	4558
2026-01-02 09:00:22.37	23.04	60.71	-47.3	-49.0	16.4	0.00e+00	0	56	0	795869184	56	4640
2026-01-02 09:00:23.36	22.26	60.50	-47.7	-49.7	15.7	0.00e+00	0	56	0	797966336	57	4719
2026-01-02 09:00:24.35	21.50	60.28	-48.2	-50.4	15.0	0.00e+00	0	56	0	800063488	58	4853
2026-01-02 09:00:25.34	20.74	60.05	-48.8	-51.4	14.0	2.20e-06	0	56	0	801112064	59	5121
2026-01-02 09:00:26.31	20.02	59.83	-49.2	-52.0	13.4	3.00e-06	0	56	0	803209216	60	5183
2026-01-02 09:00:27.30	19.29	59.60	-49.3	-52.1	13.2	2.44e-05	0	56	0	805306368	60	5275
2026-01-02 09:00:28.28	18.58	59.37	-49.2	-52.1	13.2	2.28e-05	0	56	0	807403520	60	5230
2026-01-02 09:00:29.26	17.89	59.14	-49.2	-52.0	13.4	1.52e-05	0	56	0	808452096	60	5189
2026-01-02 09:00:30.24	17.21	58.90	-49.3	-52.2	13.3	1.52e-05	0	56	0	810549248	60	5300
2026-01-02 09:00:31.23	16.53	58.66	-49.4	-52.3	13.1	2.82e-05	0	56	0	812646400	60	5370
2026-01-02 09:00:32.21	15.87	58.41	-49.2	-52.1	13.2	1.60e-05	0	56	0	814743552	60	5263
2026-01-02 09:00:33.20	15.22	58.16	-49.5	-52.7	12.7	4.34e-05	0	56	0	815792128	61	5281
2026-01-02 09:00:34.18	14.59	57.92	-49.3	-52.2	13.1	5.79e-05	0	56	0	817889280	61	5031
2026-01-02 09:00:35.17	13.96	57.66	-49.1	-51.8	13.6	6.80e-06	0	56	0	819986432	61	4776
2026-01-02 09:00:36.16	13.35	57.41	-48.9	-51.5	13.8	3.00e-06	0	56	0	822083584	60	4907
2026-01-02 09:00:37.14	12.75	57.16	-48.9	-51.6	13.8	5.30e-06	0	56	0	824180736	60	4958
2026-01-02 09:00:38.14	12.15	56.90	-48.9	-51.7	13.7	4.50e-06	0	56	0	825229312	60	5007
2026-01-02 09:00:39.12	11.57	56.64	-48.9	-51.6	13.8	9.10e-06	0	56	0	827326464	60	4931
2026-01-02 09:00:40.10	11.01	56.38	-48.8	-51.3	14.0	3.80e-06	0	56	0	829423616	60	4808
2026-01-02 09:00:41.09	10.45	56.12	-48.7	-51.2	14.1	3.00e-06	0	56	0	831520768	60	4738
2026-01-02 09:00:42.08	9.90	55.85	-49.0	-51.7	13.7	3.80e-06	0	56	0	832569344	60	4984
2026-01-02 09:00:43.07	9.36	55.59	-48.7	-51.2	14.2	2.20e-06	0	56	0	834666496	60	4723
2026-01-02 09:00:44.04	8.84	55.32	-48.1	-50.3	15.1	0.00e+00	0	56	0	836763648	59	4499
2026-01-02 09:00:45.03	8.32	55.06	-47.6	-49.5	15.9	0.00e+00	0	56	0	838860800	58	4367
2026-01-02 09:00:46.02	7.81	54.79	-47.4	-49.2	16.2	0.00e+00	0	56	0	839909376	57	4470
2026-01-02 09:00:47.01	7.31	54.52	-47.1	-48.8	16.5	0.00e+00	0	56	0	842006528	57	4288
2026-01-02 09:00:48.01	6.81	54.25	-47.1	-48.8	16.6	0.00e+00	0	56	0	844103680	57	4243
2026-01-02 09:00:48.99	6.34	53.98	-47.4	-49.2	16.2	0.00e+00	0	56	0	846200832	57	4442
2026-01-02 09:00:49.98	5.86	53.71	-47.7	-49.6	15.8	0.00e+00	0	56	0	847249408	57	4692
2026-01-02 09:00:50.97	5.40	53.43	-47.6	-49.5	15.8	0.00e+00	0	56	0	849346560	57	4634
2026-01-02 09:00:51.96	4.94	53.16	-47.7	-49.7	15.7	0.00e+00	0	56	0	851443712	57	4716
2026-01-02 09:00:52.95	4.50	52.89	-47.6	-49.6	15.8	0.00e+00	0	56	0	853540864	57	4665
2026-01-02 09:00:53.94	4.06	52.61	-47.6	-49.5	15.8	0.00e+00	0	56	0	855638016	57	4627
2026-01-02 09:00:54.94	3.63	52.34	-47.7	-49.6	15.7	0.00e+00	0	56	0	856686592	57	4700
2026-01-02 09:00:55.93	3.20	52.07	-47.9	-50.0	15.3	0.00e+00	0	56	0	858783744	57	4873
2026-01-02 09:00:56.92	2.79	51.79	-48.1	-50.2	15.1	0.00e+00	0	56	0	860880896	58	4740
2026-01-02 09:00:57.91	2.38	51.52	-48.2	-50.3	15.0	0.00e+00	0	56	0	862978048	58	4796
2026-01-02 09:00:58.89	1.99	51.25	-48.1	-50.2	15.2	0.00e+00	0	56	0	864026624	58	4738
2026-01-02 09:00:59.89	1.59	50.97	-48.2	-50.4	15.0	0.00e+00	0	56	0	866123776	58	4828
2026-01-02 09:01:00.88	1.21	50.70	-48.3	-50.5	14.9	0.00e+00	0	56	0	868220928	58	4906
2026-01-02 09:01:01.87	0.83	50.43	-48.4	-50.6	14.8	7.00e-07	0	56	0	870318080	58	4973
2026-01-02 09:01:02.86	0.46	50.15	-48.4	-50.9	14.5	7.00e-07	0	56	0	871366656	58	5115
2026-01-02 09:01:03.86	0.09	49.88	-48.6	-51.1	14.3	0.00e+00	0	56	0	873463808	59	4935
2026-01-02 09:01:04.85	359.73	49.61	-48.7	-51.2	14.1	7.00e-07	0	56	0	875560960	59	5020
2026-01-02 09:01:05.84	359.38	49.34	-48.8	-51.4	13.9	4.50e-06	0	56	0	877658112	59	5122
2026-01-02 09:01:06.83	359.04	49.06	-48.8	-51.4	13.9	1.50e-06	0	56	0	879755264	59	5141
2026-01-02 09:01:07.82	358.70	48.79	-48.8	-51.4	13.9	3.80e-06	0	56	0	880803840	59	5122
2026-01-02 09:01:08.81	358.37	48.52	-48.7	-51.2	14.2	7.00e-07	0	56	0	882900992	59	4997
2026-01-02 09:01:09.80	358.04	48.26	-48.5	-50.9	14.4	2.20e-06	0	56	0	884998144	59	4837
2026-01-02 09:01:10.79	357.72	47.99	-48.7	-51.2	14.1	7.00e-07	0	56	0	887095296	59	5008
2026-01-02 09:01:11.78	357.40	47.72	-48.6	-51.1	14.2	3.00e-06	0	56	0	888143872	59	4973
2026-01-02 09:01:12.76	357.09	47.46	-48.4	-50.8	14.5	0.00e+00	0	56	0	890241024	59	4773
2026-01-02 09:01:13.75	356.79	47.19	-48.5	-50.8	14.6	0.00e+00	0	56	0	892338176	59	4774
2026-01-02 09:01:14.74	356.49	46.92	-48.3	-50.6	14.7	3.00e-06	0	56	0	894435328	59	4660
2026-01-02 09:01:15.73	356.19	46.66	-48.3	-50.5	14.8	0.00e+00	0	56	0	895483904	59	4644
2026-01-02 09:01:16.71	355.91	46.40	-48.3	-50.5	14.8	0.00e+00	0	56	0	897581056	59	4642
2026-01-02 09:01:17.70	355.62	46.14	-48.4	-50.8	14.6	0.00e+00	0	56	0	899678208	59	4781
2026-01-02 09:01:18.69	355.34	45.87	-48.2	-50.4	14.9	1.50e-06	0	56	0	901775360	59	4592
2026-01-02 09:01:19.68	355.07	45.61	-48.0	-50.1	15.2	0.00e+00	0	56	0	903872512	59	4412
2026-01-02 09:01:20.67	354.80	45.35	-48.1	-50.2	15.2	0.00e+00	0	56	0	904921088	59	4466
2026-01-02 09:01:21.67	354.53	45.09	-48.3	-50.5	14.8	7.00e-07	0	56	0	907018240	59	4647
2026-01-02 09:01:22.66	354.26	44.83	-48.6	-51.0	14.3	0.00e+00	0	56	0	909115392	59	4895
2026-01-02 09:01:23.65	354.01	44.58	-48.6	-51.1	14.4	1.50e-06	0	56	0	911212544	59	4931
2026-01-02 09:01:24.64	353.75	44.32	-48.7	-51.2	14.2	0.00e+00	0	56	0	912261120	59	4989
2026-01-02 09:01:25.63	353.50	44.07	-48.8	-51.4	14.0	3.00e-06	0	56	0	914358272	59	5115
2026-01-02 09:01:26.62	353.26	43.81	-48.9	-51.5	13.8	1.50e-06	0	56	0	916455424	59	5165
2026-01-02 09:01:27.61	353.02	43.56	-49.0	-51.8	13.5	6.80e-06	0	56	0	918552576	59	5390
2026-01-02 09:01:28.59	352.78	43.31	-49.1	-51.9	13.3	1.83e-05	0	56	0	920649728	60	5155
2026-01-02 09:01:29.58	352.55	43.06	-49.2	-52.1	13.2	1.52e-05	0	56	0	921698304	60	5256
2026-01-02 09:01:30.57	352.32	42.81	-49.2	-52.2	13.1	3.96e-05	0	56	0	923795456	60	5287
2026-01-02 09:01:31.55	352.09	42.56	-49.2	-52.1	13.2	1.98e-05	0	56	0	925892608	60	5258
2026-01-02 09:01:32.53	351.87	42.32	-49.2	-52.1	13.1	2.21e-05	0	56	0	927989760	60	5260
2026-01-02 09:01:33.52	351.65	42.07	-49.4	-52.6	12.7	3.05e-05	0	56	0	929038336	60	5540
2026-01-02 09:01:34.50	351.44	41.83	-49.6	-52.8	12.4	1.52e-04	0	56	0	931135488	61	5369
2026-01-02 09:01:35.48	351.22	41.59	-49.6	-52.9	12.3	1.25e-04	0	56	0	933232640	61	5443
2026-01-02 09:01:36.48	351.01	41.34	-49.8	-53.2	12.0	2.48e-04	0	56	0	935329792	61	5636
2026-01-02 09:01:37.46	350.81	41.10	-50.1	-53.9	11.3	4.78e-04	0	56	0	936378368	62	5745
2026-01-02 09:01:38.45	350.60	40.86	-50.4	-54.5	10.6	2.32e-03	0	56	0	938475520	62	6191
2026-01-02 09:01:39.44	350.40	40.62	-50.4	-54.6	10.6	2.99e-03	0	56	0	940572672	62	6254
2026-01-02 09:01:40.43	350.21	40.39	-50.4	-54.8	10.4	4.80e-03	0	56	0	942669824	62	6362
2026-01-02 09:01:41.43	350.01	40.15	-50.3	-54.4	10.8	3.80e-03	0	56	0	943718400	62	6090
2026-01-02 09:01:42.41	349.82	39.91	-50.1	-54.0	11.3	1.69e-03	0	56	0	945815552	62	5814
2026-01-02 09:01:43.41	349.63	39.68	-49.9	-53.6	11.6	6.92e-04	0	56	0	947912704	62	5570
2026-01-02 09:01:44.39	349.44	39.45	-50.0	-53.9	11.4	5.78e-04	0	56	0	950009856	62	5731
2026-01-02 09:01:45.38	349.26	39.22	-50.0	-53.7	11.5	1.29e-03	0	56	0	952107008	62	5621
2026-01-02 09:01:46.38	349.08	38.98	-50.0	-53.7	11.6	6.10e-04	0	56	0	953155584	62	5617
2026-01-02 09:01:47.36	348.90	38.76	-50.0	-53.6	11.5	7.64e-04	0	56	0	955252736	62	5557
2026-01-02 09:01:48.36	348.72	38.52	-50.1	-53.8	11.4	7.77e-04	0	56	0	957349888	62	5712
2026-01-02 09:01:49.35	348.55	38.30	-50.0	-53.8	11.4	1.19e-03	0	56	0	959447040	62	5677
2026-01-02 09:01:50.33	348.38	38.07	-49.7	-53.2	12.1	4.31e-04	0	56	0	960495616	62	5293
2026-01-02 09:01:51.32	348.21	37.85	-49.7	-53.0	12.2	2.31e-04	0	56	0	962592768	62	5200
2026-01-02 09:01:52.32	348.04	37.62	-49.6	-52.9	12.3	1.65e-04	0	56	0	964689920	62	5156
2026-01-02 09:01:53.31	347.88	37.40	-49.6	-52.9	12.3	2.03e-04	0	56	0	966787072	62	5135
2026-01-02 09:01:54.30	347.72	37.18	-49.5	-52.7	12.6	1.37e-04	0	56	0	967835648	62	5008
2026-01-02 09:01:55.29	347.56	36.96	-49.3	-52.4	12.9	7.47e-05	0	56	0	969932800	61	5104
2026-01-02 09:01:56.28	347.40	36.74	-49.1	-52.0	13.3	2.82e-05	0	56	0	972029952	61	4875
2026-01-02 09:01:57.27	347.25	36.53	-49.0	-51.8	13.4	1.06e-05	0	56	0	974127104	61	4811
2026-01-02 09:01:58.26	347.09	36.31	-49.0	-51.8	13.4	6.80e-06	0	56	0	976224256	61	4807
2026-01-02 09:01:59.25	346.94	36.09	-49.1	-52.0	13.2	1.98e-05	0	56	0	977272832	61	4910
2026-01-02 09:02:00.24	346.79	35.88	-49.0	-51.9	13.4	1.75e-05	0	56	0	979369984	61	4835
2026-01-02 09:02:01.21	346.65	35.67	-49.2	-52.3	13.0	2.36e-05	0	56	0	981467136	61	5048
2026-01-02 09:02:02.20	346.50	35.46	-49.2	-52.2	13.1	4.11e-05	0	56	0	983564288	61	5012
2026-01-02 09:02:03.19	346.36	35.25	-49.2	-52.2	13.0	4.11e-05	0	56	0	984612864	61	4987
2026-01-02 09:02:04.17	346.22	35.04	-48.8	-51.4	13.9	1.67e-05	0	56	0	986710016	60	4818
2026-01-02 09:02:05.16	346.08	34.84	-48.6	-51.1	14.1	1.50e-06	0	56	0	988807168	60	4698
2026-01-02 09:02:06.15	345.94	34.63	-48.6	-51.2	14.1	3.80e-06	0	56	0	990904320	60	4719
2026-01-02 09:02:07.14	345.81	34.42	-48.7	-51.3	13.9	3.00e-06	0	56	0	991952896	60	4786
2026-01-02 09:02:08.14	345.67	34.22	-48.8	-51.6	13.6	3.00e-06	0	56	0	994050048	60	4969
2026-01-02 09:02:09.12	345.54	34.02	-48.9	-51.6	13.6	6.10e-06	0	56	0	996147200	60	4953
2026-01-02 09:02:10.12	345.41	33.81	-49.0	-51.8	13.4	1.06e-05	0	56	0	998244352	60	5062
2026-01-02 09:02:11.11	345.28	33.61	-48.9	-51.7	13.5	9.10e-06	0	56	0	1000341504	60	4996
2026-01-02 09:02:12.10	345.15	33.41	-49.0	-51.8	13.3	1.60e-05	0	56	0	1001390080	60	5074
2026-01-02 09:02:13.08	345.03	33.22	-48.9	-51.7	13.5	7.60e-06	0	56	0	1003487232	60	5013
2026-01-02 09:02:14.07	344.90	33.02	-49.0	-52.0	13.2	1.90e-05	0	56	0	1005584384	60	5182
2026-01-02 09:02:15.06	344.78	32.82	-48.9	-51.8	13.4	1.44e-05	0	56	0	1007681536	60	5100
2026-01-02 09:02:16.05	344.66	32.63	-49.0	-51.9	13.3	1.37e-05	0	56	0	1008730112	60	5103
2026-01-02 09:02:17.05	344.54	32.43	-49.0	-52.0	13.2	1.90e-05	0	56	0	1010827264	60	5175
2026-01-02 09:02:18.04	344.42	32.24	-49.2	-52.1	13.1	2.67e-05	0	56	0	1012924416	60	5241
2026-01-02 09:02:19.03	344.30	32.05	-49.2	-52.2	13.0	3.58e-05	0	56	0	1015021568	60	5302
2026-01-02 09:02:20.02	344.19	31.86	-49.3	-52.5	12.7	6.71e-05	0	56	0	1016070144	60	5501
2026-01-02 09:02:21.01	344.07	31.67	-49.4	-52.7	12.5	1.14e-04	0	56	0	1018167296	60	5594
2026-01-02 09:02:21.99	343.96	31.48	-49.4	-52.7	12.5	1.29e-04	0	56	0	1020264448	60	5633
2026-01-02 09:02:22.98	343.85	31.29	-49.5	-52.8	12.4	1.57e-04	0	56	0	1022361600	60	5707
2026-01-02 09:02:23.98	343.74	31.10	-49.5	-52.8	12.4	1.59e-04	0	56	0	1023410176	60	5659
2026-01-02 09:02:24.97	343.63	30.92	-49.6	-53.0	12.2	1.90e-04	0	56	0	1025507328	61	5498
2026-01-02 09:02:25.96	343.52	30.73	-49.6	-53.1	12.0	3.07e-04	0	56	0	1027604480	61	5564
2026-01-02 09:02:26.95	343.42	30.55	-49.7	-53.1	12.0	3.13e-04	0	56	0	1029701632	61	5573
2026-01-02 09:02:27.95	343.31	30.37	-49.7	-53.2	11.9	3.33e-04	0	56	0	1031798784	61	5604
2026-01-02 09:02:28.93	343.21	30.19	-49.7	-53.2	11.9	3.58e-04	0	56	0	1032847360	61	5614
2026-01-02 09:02:29.92	343.11	30.01	-49.7	-53.3	11.8	4.07e-04	0	56	0	1034944512	61	5712
2026-01-02 09:02:30.91	343.01	29.83	-49.7	-53.2	11.9	4.34e-04	0	56	0	1037041664	61	5651
2026-01-02 09:02:31.90	342.91	29.65	-49.8	-53.6	11.5	6.98e-04	0	56	0	1039138816	61	5866
2026-01-02 09:02:32.89	342.81	29.47	-49.8	-53.5	11.5	7.35e-04	0	56	0	1040187392	61	5842
2026-01-02 09:02:33.88	342.71	29.30	-49.9	-53.8	11.3	1.02e-03	0	56	0	1042284544	61	6053
2026-01-02 09:02:34.86	342.61	29.12	-50.0	-53.9	11.2	1.28e-03	0	56	0	1044381696	61	6079
2026-01-02 09:02:35.85	342.52	28.95	-50.0	-53.9	11.1	1.15e-03	0	56	0	1046478848	61	6122
2026-01-02 09:02:36.84	342.42	28.78	-49.8	-53.6	11.4	1.25e-03	0	56	0	1048576000	61	5923
2026-01-02 09:02:37.82	342.33	28.61	-49.8	-53.6	11.5	8.44e-04	0	56	0	1049624576	61	5891
2026-01-02 09:02:38.81	342.24	28.43	-49.7	-53.4	11.6	7.40e-04	0	56	0	1051721728	61	5773
2026-01-02 09:02:39.81	342.14	28.26	-49.7	-53.4	11.7	6.06e-04	0	56	0	1053818880	61	5759
2026-01-02 09:02:40.80	342.05	28.09	-49.6	-53.2	11.9	4.77e-04	0	56	0	1055916032	61	5623
2026-01-02 09:02:41.79	341.96	27.92	-49.6	-53.0	12.1	3.17e-04	0	56	0	1056964608	61	5523
2026-01-02 09:02:42.78	341.88	27.76	-49.7	-53.4	11.8	4.16e-04	0	56	0	1059061760	61	5748
2026-01-02 09:02:43.77	341.79	27.59	-49.5	-52.9	12.2	3.29e-04	0	56	0	1061158912	61	5448
2026-01-02 09:02:44.77	341.70	27.42	-49.4	-52.7	12.4	2.11e-04	0	56	0	1063256064	61	5292
2026-01-02 09:02:45.76	341.61	27.26	-49.3	-52.5	12.6	1.07e-04	0	56	0	1064304640	61	5180
2026-01-02 09:02:46.75	341.53	27.10	-49.4	-52.6	12.5	8.46e-05	0	56	0	1066401792	61	5230
2026-01-02 09:02:47.74	341.45	26.93	-49.3	-52.5	12.6	1.19e-04	0	56	0	1068498944	61	5195
2026-01-02 09:02:48.73	341.36	26.77	-49.2	-52.4	12.7	1.06e-04	0	56	0	1070596096	61	5134
2026-01-02 09:02:49.71	341.28	26.61	-49.2	-52.3	12.8	5.87e-05	0	56	0	1072693248	61	5053
2026-01-02 09:02:50.70	341.20	26.45	-49.2	-52.3	12.8	5.11e-05	0	56	0	1073741824	61	5100
2026-01-02 09:02:51.69	341.12	26.29	-49.2	-52.3	12.8	6.40e-05	0	56	0	1075838976	61	5073
2026-01-02 09:02:52.68	341.04	26.13	-49.1	-52.1	13.0	4.19e-05	0	56	0	1077936128	61	4957
2026-01-02 09:02:53.67	340.96	25.98	-49.0	-52.1	13.0	3.35e-05	0	56	0	1080033280	61	4947
2026-01-02 09:02:54.66	340.88	25.82	-49.0	-52.0	13.1	3.96e-05	0	56	0	1081081856	61	4917
2026-01-02 09:02:55.65	340.81	25.66	-48.9	-51.9	13.2	2.74e-05	0	56	0	1083179008	61	4840
2026-01-02 09:02:56.64	340.73	25.51	-49.0	-52.0	13.1	2.89e-05	0	56	0	1085276160	61	4913
2026-01-02 09:02:57.63	340.65	25.35	-49.2	-52.3	12.8	4.57e-05	0	56	0	1087373312	61	5057
2026-01-02 09:02:58.62	340.58	25.20	-49.1	-52.2	12.9	6.25e-05	0	56	0	1088421888	61	5007
2026-01-02 09:02:59.61	340.50	25.05	-48.9	-51.8	13.2	2.21e-05	0	56	0	1090519040	61	4805
2026-01-02 09:03:00.60	340.43	24.90	-48.9	-51.8	13.3	1.75e-05	0	56	0	1092616192	60	5052
2026-01-02 09:03:01.59	340.36	24.75	-48.8	-51.6	13.5	1.22e-05	0	56	0	1094713344	60	4955
2026-01-02 09:03:02.58	340.29	24.60	-48.8	-51.6	13.5	7.60e-06	0	56	0	1096810496	60	4933
2026-01-02 09:03:03.57	340.22	24.45	-48.8	-51.5	13.6	1.44e-05	0	56	0	1097859072	60	4919
2026-01-02 09:03:04.56	340.14	24.30	-48.8	-51.6	13.5	1.37e-05	0	56	0	1099956224	60	4941
2026-01-02 09:03:05.56	340.07	24.15	-48.8	-51.6	13.5	1.14e-05	0	56	0	1102053376	60	4956
2026-01-02 09:03:06.54	340.01	24.00	-48.7	-51.5	13.6	9.90e-06	0	56	0	1104150528	60	4897
2026-01-02 09:03:07.53	339.94	23.86	-48.4	-51.1	14.0	3.80e-06	0	56	0	1105199104	60	4655
2026-01-02 09:03:08.52	339.87	23.71	-48.4	-50.9	14.2	7.00e-07	0	56	0	1107296256	59	4837
2026-01-02 09:03:09.51	339.80	23.57	-48.3	-50.7	14.5	7.00e-07	0	56	0	1109393408	59	4737
2026-01-02 09:03:10.49	339.74	23.43	-48.3	-50.7	14.4	7.00e-07	0	56	0	1111490560	59	4743
2026-01-02 09:03:11.48	339.67	23.28	-48.2	-50.6	14.5	0.00e+00	0	56	0	1113587712	59	4661
2026-01-02 09:03:12.47	339.61	23.14	-48.3	-50.7	14.4	7.00e-07	0	56	0	1114636288	59	4754
2026-01-02 09:03:13.46	339.54	23.00	-48.2	-50.7	14.4	0.00e+00	0	56	0	1116733440	59	4709
2026-01-02 09:03:14.45	339.48	22.86	-48.1	-50.4	14.7	7.00e-07	0	56	0	1118830592	59	4562
2026-01-02 09:03:15.45	339.41	22.72	-48.0	-50.3	14.8	0.00e+00	0	56	0	1120927744	59	4532
2026-01-02 09:03:16.45	339.35	22.58	-48.0	-50.3	14.8	0.00e+00	0	56	0	1121976320	59	4510
2026-01-02 09:03:17.43	339.29	22.44	-48.1	-50.4	14.7	0.00e+00	0	56	0	1124073472	59	4547
2026-01-02 09:03:18.42	339.23	22.30	-48.1	-50.4	14.7	0.00e+00	0	56	0	1126170624	59	4546
2026-01-02 09:03:19.41	339.17	22.16	-48.1	-50.4	14.6	0.00e+00	0	56	0	1128267776	59	4591
2026-01-02 09:03:20.41	339.10	22.03	-47.9	-50.1	14.9	7.00e-07	0	56	0	1129316352	59	4393
2026-01-02 09:03:21.39	339.05	21.89	-47.7	-49.8	15.1	0.00e+00	0	56	0	1131413504	58	4544
2026-01-02 09:03:22.39	338.99	21.76	-47.7	-49.8	15.1	0.00e+00	0	56	0	1133510656	58	4504
2026-01-02 09:03:23.37	338.93	21.62	-47.6	-49.7	15.1	0.00e+00	0	56	0	1135607808	58	4492
2026-01-02 09:03:24.36	338.87	21.49	-47.8	-50.1	14.7	0.00e+00	0	56	0	1137704960	58	4705
2026-01-02 09:03:25.36	338.81	21.35	-48.0	-50.4	14.3	0.00e+00	0	56	0	1138753536	58	4853
2026-01-02 09:03:26.34	338.75	21.22	-48.1	-50.5	14.1	2.20e-06	0	56	0	1140850688	58	4923
2026-01-02 09:03:27.33	338.70	21.09	-48.1	-50.6	14.0	1.50e-06	0	56	0	1142947840	58	4974
2026-01-02 09:03:28.32	338.64	20.96	-48.2	-50.9	13.6	4.50e-06	0	56	0	1145044992	58	5136
2026-01-02 09:03:29.31	338.59	20.83	-48.5	-51.4	13.1	1.37e-05	0	56	0	1146093568	58	5445
2026-01-02 09:03:30.30	338.53	20.70	-48.8	-51.9	12.5	7.93e-05	0	56	0	1148190720	59	5444
2026-01-02 09:03:31.29	338.48	20.57	-49.0	-52.4	12.0	2.46e-04	0	56	0	1150287872	59	5740
2026-01-02 09:03:32.28	338.42	20.44	-49.0	-52.6	11.8	4.99e-04	0	56	0	1152385024	60	5547
2026-01-02 09:03:33.28	338.37	20.31	-48.9	-52.5	11.8	5.29e-04	0	56	0	1153433600	60	5523
2026-01-02 09:03:34.27	338.31	20.19	-49.0	-52.6	11.7	5.95e-04	0	56	0	1155530752	60	5576
2026-01-02 09:03:35.26	338.26	20.06	-48.9	-52.6	11.6	6.65e-04	0	56	0	1157627904	60	5583
2026-01-02 09:03:36.25	338.21	19.93	-48.8	-52.5	11.8	4.78e-04	0	56	0	1159725056	60	5478
2026-01-02 09:03:37.25	338.16	19.81	-48.8	-52.2	12.1	3.36e-04	0	56	0	1161822208	60	5313
2026-01-02 09:03:38.23	338.11	19.68	-48.8	-52.1	12.3	1.70e-04	0	56	0	1162870784	60	5225
2026-01-02 09:03:39.23	338.06	19.56	-48.8	-52.1	12.4	1.62e-04	0	56	0	1164967936	60	5233
2026-01-02 09:03:40.21	338.01	19.44	-48.6	-51.7	12.8	1.04e-04	0	56	0	1167065088	60	5006
2026-01-02 09:03:41.19	337.96	19.31	-48.4	-51.5	13.0	4.73e-05	0	56	0	1169162240	60	4885
2026-01-02 09:03:42.18	337.91	19.19	-48.4	-51.3	13.2	3.35e-05	0	56	0	1170210816	59	5082
2026-01-02 09:03:43.17	337.86	19.07	-48.1	-50.7	13.9	8.30e-06	0	56	0	1172307968	59	4726
2026-01-02 09:03:44.17	337.81	18.95	-48.0	-50.4	14.3	1.50e-06	0	56	0	1174405120	58	4821
2026-01-02 09:03:45.16	337.76	18.83	-47.7	-50.0	14.6	2.20e-06	0	56	0	1176502272	58	4644
2026-01-02 09:03:46.15	337.71	18.71	-47.7	-50.0	14.7	2.20e-06	0	56	0	1177550848	58	4646
2026-01-02 09:03:47.13	337.66	18.59	-47.6	-49.8	14.9	1.50e-06	0	56	0	1179648000	58	4536
2026-01-02 09:03:48.12	337.62	18.47	-47.4	-49.4	15.4	0.00e+00	0	56	0	1181745152	57	4585
2026-01-02 09:03:49.11	337.57	18.35	-47.4	-49.4	15.4	0.00e+00	0	56	0	1183842304	57	4565
2026-01-02 09:03:50.10	337.52	18.23	-47.6	-49.7	15.1	0.00e+00	0	56	0	1185939456	57	4730
2026-01-02 09:03:51.09	337.48	18.11	-47.7	-49.9	15.0	0.00e+00	0	56	0	1186988032	57	4828
2026-01-02 09:03:52.09	337.43	18.00	-47.8	-50.0	14.8	0.00e+00	0	56	0	1189085184	57	4926
2026-01-02 09:03:53.08	337.39	17.88	-47.8	-50.0	14.9	0.00e+00	0	56	0	1191182336	57	4889
2026-01-02 09:03:54.07	337.34	17.76	-47.7	-50.0	14.9	0.00e+00	0	56	0	1193279488	57	4873
2026-01-02 09:03:55.05	337.30	17.65	-47.7	-49.9	15.0	0.00e+00	0	56	0	1194328064	57	4822
2026-01-02 09:03:56.05	337.25	17.53	-47.7	-49.9	15.0	0.00e+00	0	56	0	1196425216	57	4865
2026-01-02 09:03:57.04	337.21	17.42	-47.9	-50.2	14.7	0.00e+00	0	56	0	1198522368	57	5009
2026-01-02 09:03:58.03	337.17	17.31	-48.1	-50.5	14.5	0.00e+00	0	56	0	1200619520	57	5182
2026-01-02 09:03:59.02	337.12	17.19	-47.9	-50.3	14.6	7.00e-07	0	56	0	1201668096	57	5050
2026-01-02 09:04:00.02	337.08	17.08	-47.9	-50.2	14.7	7.00e-07	0	56	0	1203765248	57	5019
2026-01-02 09:04:01.00	337.04	16.97	-48.1	-50.5	14.4	0.00e+00	0	56	0	1205862400	57	5160
2026-01-02 09:04:01.99	337.00	16.86	-47.9	-50.2	14.7	1.50e-06	0	56	0	1207959552	58	4753
2026-01-02 09:04:02.97	336.96	16.75	-48.0	-50.4	14.6	0.00e+00	0	56	0	1210056704	58	4829
2026-01-02 09:04:03.96	336.92	16.64	-48.0	-50.4	14.5	7.00e-07	0	56	0	1211105280	58	4841
2026-01-02 09:04:04.96	336.87	16.52	-48.0	-50.3	14.6	0.00e+00	0	56	0	1213202432	58	4807
2026-01-02 09:04:05.95	336.83	16.41	-48.0	-50.4	14.5	7.00e-07	0	56	0	1215299584	58	4857
2026-01-02 09:04:06.94	336.79	16.30	-48.0	-50.4	14.4	7.00e-07	0	56	0	1217396736	58	4859
2026-01-02 09:04:07.93	336.75	16.20	-48.1	-50.6	14.4	7.00e-07	0	56	0	1218445312	58	4943
2026-01-02 09:04:08.92	336.71	16.09	-48.4	-50.9	14.0	7.00e-07	0	56	0	1220542464	58	5142
2026-01-02 09:04:09.91	336.67	15.98	-48.2	-50.7	14.2	7.00e-07	0	56	0	1222639616	58	5021
2026-01-02 09:04:10.90	336.64	15.87	-48.2	-50.6	14.3	3.00e-06	0	56	0	1224736768	58	4983
2026-01-02 09:04:11.89	336.60	15.77	-48.1	-50.5	14.4	2.20e-06	0	56	0	1226833920	58	4900
2026-01-02 09:04:12.87	336.56	15.66	-48.1	-50.6	14.3	0.00e+00	0	56	0	1227882496	58	4933
2026-01-02 09:04:13.86	336.52	15.55	-48.1	-50.6	14.3	7.00e-07	0	56	0	1229979648	58	4951
2026-01-02 09:04:14.86	336.48	15.45	-48.2	-50.7	14.2	1.50e-06	0	56	0	1232076800	58	5013
